passes_logs/2026/01/05/R2M6_AANII_01/R2M6_AANII_01__20260105_111621_NOAA_20_JPSS-1_rec.log

#Pass ID: 20260105_111621_NOAA 20 (JPSS-1)
#Satellite: NOAA 20 (JPSS-1)
#Configuration: NOAA 20
#almurnet v.1.7.20240730
#Start time: 2026-01-05 11:16:21

#Version: 2.2.20231116
#Station: R2M6_AANII_01
#Location: 30.233357 lon 59.946436 lat
#TLE: 1 43013U 17073A   26004.47528369  .00000132  00000+0  83671-4 0  9999
#TLE: 2 43013  98.7626 305.5264 0001854  54.5883 305.5466 14.19533142421242

#Time	Az	El	Level	Level2	SNR	BER	BlckErr	Temp	State	Recorded	gain1	gain2
2026-01-05 11:16:21.23	190.46	6.97	-30.5	-35.5	5.3	1.20e+00	0	41	0	0	21	6416
2026-01-05 11:16:22.24	190.52	7.04	-31.3	-38.3	4.8	1.29e+00	0	41	104	0	22	8100
2026-01-05 11:16:23.24	190.57	7.12	-31.3	-38.4	7.0	1.64e-01	0	41	0	0	22	8117
2026-01-05 11:16:24.24	190.63	7.19	-31.2	-37.7	7.5	9.93e-02	0	41	102	1048576	22	7643
2026-01-05 11:16:25.25	190.69	7.26	-31.3	-38.2	7.1	1.45e-01	0	41	102	1048576	22	7986
2026-01-05 11:16:26.25	190.75	7.34	-31.1	-37.3	7.8	1.11e-01	0	41	102	1048576	22	7372
2026-01-05 11:16:27.25	190.81	7.41	-30.9	-36.5	8.5	6.71e-02	0	41	102	1048576	22	6832
2026-01-05 11:16:28.26	190.87	7.48	-30.8	-35.8	9.0	2.94e-02	0	41	102	1048576	22	6409
2026-01-05 11:16:29.27	190.93	7.56	-30.5	-34.9	9.7	1.63e-02	0	41	102	1048576	22	5968
2026-01-05 11:16:30.28	190.99	7.63	-30.4	-34.5	10.1	9.12e-03	0	41	102	1048576	22	5758
2026-01-05 11:16:31.29	191.06	7.71	-30.2	-34.4	10.5	4.58e-03	0	41	102	1048576	21	5784
2026-01-05 11:16:32.30	191.12	7.78	-30.2	-34.4	10.6	3.47e-03	0	41	102	1048576	21	5777
2026-01-05 11:16:33.30	191.18	7.86	-30.3	-34.4	10.5	4.24e-03	0	41	102	1048576	21	5817
2026-01-05 11:16:34.31	191.24	7.93	-30.1	-33.9	10.9	2.54e-03	0	41	102	1048576	21	5562
2026-01-05 11:16:35.31	191.30	8.01	-30.2	-34.0	10.9	1.90e-03	0	41	102	1048576	21	5606
2026-01-05 11:16:36.32	191.37	8.08	-30.2	-34.1	10.9	2.40e-03	0	41	102	1048576	21	5627
2026-01-05 11:16:37.33	191.43	8.16	-30.2	-34.0	10.9	2.04e-03	0	41	102	1048576	21	5608
2026-01-05 11:16:38.33	191.49	8.23	-30.2	-34.1	10.8	2.17e-03	0	41	102	1048576	21	5637
2026-01-05 11:16:39.34	191.56	8.31	-30.2	-34.1	10.9	2.73e-03	0	41	102	1048576	21	5622
2026-01-05 11:16:40.34	191.62	8.39	-30.2	-33.9	11.0	2.06e-03	0	41	102	1048576	21	5554
2026-01-05 11:16:41.35	191.69	8.46	-30.2	-34.1	10.9	2.56e-03	0	42	102	1048576	21	5636
2026-01-05 11:16:42.35	191.75	8.54	-30.1	-33.7	11.2	1.69e-03	0	41	102	1048576	21	5474
2026-01-05 11:16:43.36	191.81	8.62	-30.0	-33.4	11.4	1.12e-03	0	42	102	1048576	21	5319
2026-01-05 11:16:44.37	191.88	8.69	-29.9	-33.2	11.5	8.73e-04	0	42	102	1048576	21	5238
2026-01-05 11:16:45.38	191.95	8.77	-30.0	-33.4	11.4	8.19e-04	0	42	102	1048576	21	5342
2026-01-05 11:16:46.39	192.01	8.85	-30.0	-33.3	11.4	1.19e-03	0	42	102	1048576	21	5302
2026-01-05 11:16:47.39	192.08	8.93	-30.0	-33.3	11.4	9.73e-04	0	42	102	1048576	21	5294
2026-01-05 11:16:48.40	192.14	9.01	-30.0	-33.5	11.3	1.18e-03	0	42	102	1048576	21	5380
2026-01-05 11:16:49.41	192.21	9.08	-30.2	-33.9	11.0	1.34e-03	0	42	102	1048576	21	5555
2026-01-05 11:16:50.42	192.28	9.16	-30.2	-34.0	10.9	2.68e-03	0	42	102	1048576	21	5600
2026-01-05 11:16:51.43	192.35	9.24	-30.0	-33.5	11.2	1.45e-03	0	42	102	1048576	21	5374
2026-01-05 11:16:52.43	192.42	9.32	-29.9	-33.0	11.6	9.09e-04	0	42	102	1048576	21	5178
2026-01-05 11:16:53.44	192.48	9.40	-29.8	-32.9	11.7	7.14e-04	0	42	102	1048576	21	5123
2026-01-05 11:16:54.44	192.55	9.48	-29.8	-32.9	11.7	5.13e-04	0	42	102	1048576	21	5115
2026-01-05 11:16:55.44	192.62	9.56	-29.8	-32.9	11.7	5.54e-04	0	42	102	1048576	21	5121
2026-01-05 11:16:56.45	192.69	9.64	-29.8	-33.3	11.8	4.63e-04	0	42	102	1048576	20	5390
2026-01-05 11:16:57.45	192.76	9.72	-29.9	-33.5	11.6	6.34e-04	0	42	102	1048576	20	5503
2026-01-05 11:16:58.46	192.83	9.80	-29.8	-33.5	11.7	7.32e-04	0	42	102	1048576	20	5469
2026-01-05 11:16:59.46	192.90	9.88	-29.7	-33.2	11.9	6.22e-04	0	42	102	1048576	20	5343
2026-01-05 11:17:00.47	192.97	9.96	-29.6	-32.9	12.0	3.45e-04	0	42	102	1048576	20	5253
2026-01-05 11:17:01.47	193.04	10.04	-29.6	-32.8	12.1	2.79e-04	0	42	102	1048576	20	5206
2026-01-05 11:17:02.48	193.11	10.12	-29.6	-32.8	12.1	3.03e-04	0	42	102	1048576	20	5213
2026-01-05 11:17:03.48	193.19	10.20	-29.6	-32.8	12.1	2.84e-04	0	42	102	1048576	20	5192
2026-01-05 11:17:04.49	193.26	10.28	-29.6	-32.8	12.1	2.54e-04	0	42	102	1048576	20	5199
2026-01-05 11:17:05.49	193.33	10.36	-29.6	-32.8	12.1	2.63e-04	0	42	102	1048576	20	5197
2026-01-05 11:17:06.50	193.40	10.45	-29.6	-32.6	12.2	2.35e-04	0	42	102	1048576	20	5125
2026-01-05 11:17:07.51	193.48	10.53	-29.6	-32.7	12.2	2.10e-04	0	42	102	1048576	20	5159
2026-01-05 11:17:08.51	193.55	10.61	-29.6	-32.7	12.2	2.57e-04	0	42	102	1048576	20	5144
2026-01-05 11:17:09.52	193.63	10.69	-29.6	-32.5	12.4	1.79e-04	0	42	102	1048576	20	5063
2026-01-05 11:17:10.53	193.70	10.78	-29.6	-32.7	12.3	1.46e-04	0	42	102	1048576	20	5119
2026-01-05 11:17:11.53	193.78	10.86	-29.6	-32.7	12.3	2.08e-04	0	42	102	1048576	20	5150
2026-01-05 11:17:12.54	193.85	10.94	-29.6	-32.6	12.3	2.33e-04	0	42	102	1048576	20	5109
2026-01-05 11:17:13.55	193.93	11.03	-29.5	-32.4	12.5	1.17e-04	0	42	102	1048576	20	5030
2026-01-05 11:17:14.55	194.00	11.11	-29.5	-32.4	12.6	1.02e-04	0	42	102	1048576	20	5007
2026-01-05 11:17:15.56	194.08	11.20	-29.6	-32.5	12.5	1.18e-04	0	42	102	1048576	20	5050
2026-01-05 11:17:16.57	194.16	11.28	-29.6	-32.5	12.5	1.37e-04	0	42	102	1048576	20	5045
2026-01-05 11:17:17.58	194.24	11.37	-29.6	-32.6	12.5	1.09e-04	0	42	102	1048576	20	5072
2026-01-05 11:17:18.58	194.31	11.45	-29.5	-32.4	12.5	1.20e-04	0	42	102	1048576	20	5018
2026-01-05 11:17:19.59	194.39	11.54	-29.5	-32.4	12.6	1.04e-04	0	42	102	1048576	20	4998
2026-01-05 11:17:20.59	194.47	11.62	-29.5	-32.3	12.6	9.76e-05	0	42	102	1048576	20	4959
2026-01-05 11:17:21.60	194.55	11.71	-29.5	-32.4	12.5	1.03e-04	0	42	102	1048576	20	4997
2026-01-05 11:17:22.61	194.63	11.79	-29.5	-32.3	12.6	1.23e-04	0	42	102	1048576	20	4956
2026-01-05 11:17:23.61	194.71	11.88	-29.4	-32.1	12.7	1.02e-04	0	42	102	1048576	20	4916
2026-01-05 11:17:24.62	194.79	11.97	-29.5	-32.2	12.6	9.84e-05	0	43	102	1048576	20	4937
2026-01-05 11:17:25.63	194.87	12.05	-29.5	-32.4	12.5	9.91e-05	0	42	102	1048576	20	5007
2026-01-05 11:17:26.63	194.95	12.14	-29.5	-32.2	12.7	8.85e-05	0	42	102	1048576	20	4938
2026-01-05 11:17:27.64	195.04	12.23	-29.5	-32.2	12.8	6.56e-05	0	42	102	1048576	20	4928
2026-01-05 11:17:28.65	195.12	12.32	-29.5	-32.2	12.7	5.87e-05	0	42	102	1048576	20	4934
2026-01-05 11:17:29.66	195.20	12.40	-29.5	-32.3	12.8	6.63e-05	0	42	102	1048576	20	4945
2026-01-05 11:17:30.66	195.29	12.49	-29.6	-32.4	12.8	5.41e-05	0	42	102	1048576	20	4986
2026-01-05 11:17:31.67	195.37	12.58	-29.6	-32.4	12.8	5.56e-05	0	42	102	1048576	20	5006
2026-01-05 11:17:32.68	195.46	12.67	-29.5	-32.2	12.9	7.47e-05	0	43	102	1048576	20	4926
2026-01-05 11:17:33.69	195.54	12.76	-29.5	-32.2	13.0	3.96e-05	0	42	102	1048576	20	4902
2026-01-05 11:17:34.70	195.63	12.85	-29.4	-32.0	13.1	2.97e-05	0	42	102	1048576	20	4843
2026-01-05 11:17:35.70	195.71	12.94	-29.5	-32.1	13.0	3.20e-05	0	43	102	1048576	20	4893
2026-01-05 11:17:36.71	195.80	13.03	-29.5	-32.2	13.0	3.28e-05	0	43	102	1048576	20	4903
2026-01-05 11:17:37.72	195.89	13.12	-29.5	-32.2	13.0	5.49e-05	0	43	102	1048576	20	4904
2026-01-05 11:17:38.72	195.97	13.21	-29.5	-32.3	12.9	3.05e-05	0	43	102	1048576	20	4931
2026-01-05 11:17:39.72	196.06	13.30	-29.6	-32.4	12.8	4.73e-05	0	43	102	1048576	20	4996
2026-01-05 11:17:40.73	196.15	13.39	-29.5	-32.2	13.0	5.79e-05	0	42	102	1048576	20	4905
2026-01-05 11:17:41.74	196.24	13.48	-29.4	-31.9	13.2	2.36e-05	0	43	102	1048576	20	4795
2026-01-05 11:17:42.74	196.33	13.57	-29.4	-31.9	13.3	1.98e-05	0	43	102	1048576	20	4786
2026-01-05 11:17:43.74	196.42	13.66	-29.4	-31.8	13.3	2.21e-05	0	42	102	1048576	20	4769
2026-01-05 11:17:44.74	196.51	13.75	-29.5	-32.1	13.2	1.83e-05	0	43	102	1048576	20	4848
2026-01-05 11:17:45.75	196.60	13.84	-29.4	-31.9	13.3	2.97e-05	0	43	102	1048576	20	4783
2026-01-05 11:17:46.76	196.69	13.94	-29.3	-31.5	13.5	2.13e-05	0	43	102	1048576	20	4661
2026-01-05 11:17:47.77	196.78	14.03	-29.3	-31.9	13.7	9.10e-06	0	43	102	1048576	19	4889
2026-01-05 11:17:48.77	196.88	14.12	-29.3	-31.9	13.6	7.60e-06	0	43	102	1048576	19	4896
2026-01-05 11:17:49.78	196.97	14.22	-29.3	-31.9	13.7	9.10e-06	0	43	102	1048576	19	4880
2026-01-05 11:17:50.79	197.06	14.31	-29.3	-32.0	13.6	7.60e-06	0	43	102	1048576	19	4914
2026-01-05 11:17:51.80	197.16	14.40	-29.4	-32.3	13.4	1.06e-05	0	43	102	1048576	19	5016
2026-01-05 11:17:52.81	197.25	14.50	-29.3	-32.2	13.5	1.90e-05	0	43	102	1048576	19	4977
2026-01-05 11:17:53.81	197.35	14.59	-29.4	-32.2	13.4	1.06e-05	0	43	102	1048576	19	5002
2026-01-05 11:17:54.81	197.45	14.69	-29.6	-32.8	13.1	2.21e-05	0	43	102	1048576	19	5210
2026-01-05 11:17:55.82	197.54	14.78	-29.5	-32.6	13.2	4.57e-05	0	43	102	1048576	19	5126
2026-01-05 11:17:56.82	197.64	14.88	-29.5	-32.5	13.3	1.52e-05	0	43	102	1048576	19	5091
2026-01-05 11:17:57.83	197.74	14.97	-29.5	-32.6	13.2	2.13e-05	0	43	102	1048576	19	5126
2026-01-05 11:17:58.83	197.84	15.07	-29.6	-32.7	13.1	2.51e-05	0	43	102	1048576	19	5193
2026-01-05 11:17:59.83	197.93	15.17	-29.5	-32.7	13.2	2.51e-05	0	43	102	1048576	19	5165
2026-01-05 11:18:00.84	198.03	15.26	-29.6	-32.9	13.0	3.20e-05	0	43	102	1048576	19	5247
2026-01-05 11:18:01.85	198.14	15.36	-29.5	-32.7	13.2	3.73e-05	0	43	102	1048576	19	5166
2026-01-05 11:18:02.85	198.24	15.46	-29.5	-32.6	13.2	2.51e-05	0	43	102	1048576	19	5148
2026-01-05 11:18:03.86	198.34	15.55	-29.6	-32.7	13.2	1.90e-05	0	43	102	1048576	19	5169
2026-01-05 11:18:04.87	198.44	15.65	-29.5	-32.6	13.3	2.82e-05	0	43	102	1048576	19	5133
2026-01-05 11:18:05.88	198.54	15.75	-29.5	-32.4	13.4	1.90e-05	0	43	102	1048576	19	5057
2026-01-05 11:18:06.88	198.65	15.85	-29.5	-32.5	13.4	8.30e-06	0	43	102	1048576	19	5084
2026-01-05 11:18:07.89	198.75	15.95	-29.5	-32.5	13.4	2.05e-05	0	43	102	1048576	19	5087
2026-01-05 11:18:08.89	198.86	16.05	-29.5	-32.5	13.3	1.06e-05	0	43	102	1048576	19	5106
2026-01-05 11:18:09.90	198.96	16.15	-29.6	-32.8	13.1	2.67e-05	0	43	102	1048576	19	5220
2026-01-05 11:18:10.91	199.07	16.25	-29.6	-32.9	13.1	2.97e-05	0	43	102	1048576	19	5242
2026-01-05 11:18:11.92	199.18	16.35	-29.6	-32.9	13.1	2.21e-05	0	43	102	1048576	19	5238
2026-01-05 11:18:12.92	199.28	16.45	-29.7	-33.0	13.1	2.36e-05	0	43	102	1048576	19	5258
2026-01-05 11:18:13.93	199.39	16.55	-29.8	-33.2	12.9	3.73e-05	0	43	102	1048576	19	5357
2026-01-05 11:18:14.94	199.50	16.65	-29.6	-32.9	13.1	2.67e-05	0	43	102	1048576	19	5223
2026-01-05 11:18:15.94	199.61	16.75	-29.6	-32.6	13.3	2.28e-05	0	43	102	1048576	19	5140
2026-01-05 11:18:16.95	199.72	16.85	-29.6	-32.7	13.3	2.21e-05	0	43	102	1048576	19	5164
2026-01-05 11:18:17.96	199.84	16.95	-29.5	-32.5	13.4	1.75e-05	0	43	102	1048576	19	5093
2026-01-05 11:18:18.97	199.95	17.06	-29.6	-32.8	13.2	9.10e-06	0	43	102	1048576	19	5178
2026-01-05 11:18:19.97	200.06	17.16	-29.5	-32.4	13.4	2.51e-05	0	43	102	1048576	19	5048
2026-01-05 11:18:20.98	200.17	17.26	-29.3	-32.0	13.7	4.50e-06	0	43	102	1048576	19	4899
2026-01-05 11:18:21.99	200.29	17.37	-29.3	-31.9	13.8	3.00e-06	0	43	102	1048576	19	4871
2026-01-05 11:18:23.00	200.40	17.47	-29.3	-32.0	13.8	6.80e-06	0	43	102	1048576	19	4879
2026-01-05 11:18:24.00	200.52	17.57	-29.2	-31.8	13.9	3.00e-06	0	43	102	1048576	19	4816
2026-01-05 11:18:25.00	200.63	17.68	-29.3	-31.8	13.9	3.00e-06	0	43	102	1048576	19	4825
2026-01-05 11:18:26.01	200.75	17.78	-29.4	-32.1	13.7	7.00e-07	0	43	102	1048576	19	4949
2026-01-05 11:18:27.02	200.87	17.89	-29.3	-32.0	13.8	4.50e-06	0	43	102	1048576	19	4888
2026-01-05 11:18:28.03	200.99	17.99	-29.4	-32.2	13.7	5.30e-06	0	43	102	1048576	19	4979
2026-01-05 11:18:29.03	201.11	18.10	-29.6	-32.8	13.3	9.10e-06	0	43	102	1048576	19	5207
2026-01-05 11:18:30.04	201.23	18.20	-29.4	-32.2	13.6	7.60e-06	0	43	102	1048576	19	4988
2026-01-05 11:18:31.05	201.35	18.31	-29.3	-32.0	13.8	5.30e-06	0	43	102	1048576	19	4902
2026-01-05 11:18:32.06	201.48	18.42	-29.3	-31.9	13.9	6.80e-06	0	43	102	1048576	19	4850
2026-01-05 11:18:33.06	201.60	18.52	-29.3	-32.0	13.9	5.30e-06	0	43	102	1048576	19	4887
2026-01-05 11:18:34.06	201.72	18.63	-29.3	-31.9	13.9	3.00e-06	0	43	102	1048576	19	4861
2026-01-05 11:18:35.07	201.85	18.74	-29.4	-32.1	13.8	5.30e-06	0	43	102	1048576	19	4914
2026-01-05 11:18:36.08	201.97	18.85	-29.4	-32.0	13.8	2.20e-06	0	43	102	1048576	19	4899
2026-01-05 11:18:37.08	202.10	18.96	-29.3	-32.0	13.8	9.90e-06	0	43	102	1048576	19	4887
2026-01-05 11:18:38.09	202.23	19.06	-29.4	-32.2	13.7	4.50e-06	0	43	102	1048576	19	4955
2026-01-05 11:18:39.09	202.35	19.17	-29.4	-32.0	13.8	6.10e-06	0	43	102	1048576	19	4889
2026-01-05 11:18:40.10	202.48	19.28	-29.4	-32.2	13.8	1.22e-05	0	43	102	1048576	19	4943
2026-01-05 11:18:41.11	202.61	19.39	-29.4	-32.3	13.7	6.80e-06	0	43	102	1048576	19	4992
2026-01-05 11:18:42.12	202.74	19.50	-29.5	-32.4	13.6	7.60e-06	0	43	102	1048576	19	5020
2026-01-05 11:18:43.12	202.88	19.61	-29.5	-32.5	13.6	6.10e-06	0	43	102	1048576	19	5059
2026-01-05 11:18:44.13	203.01	19.72	-29.6	-32.7	13.4	9.90e-06	0	43	102	1048576	19	5144
2026-01-05 11:18:45.14	203.14	19.84	-29.7	-32.8	13.3	1.29e-05	0	43	102	1048576	19	5189
2026-01-05 11:18:46.15	203.28	19.95	-29.6	-32.8	13.4	1.75e-05	0	43	102	1048576	19	5169
2026-01-05 11:18:47.15	203.41	20.06	-29.7	-32.9	13.3	1.52e-05	0	43	102	1048576	19	5230
2026-01-05 11:18:48.16	203.55	20.17	-29.8	-33.2	13.1	2.05e-05	0	43	102	1048576	19	5317
2026-01-05 11:18:49.16	203.69	20.28	-29.9	-33.4	13.0	2.59e-05	0	43	102	1048576	19	5418
2026-01-05 11:18:50.17	203.83	20.40	-29.8	-33.1	13.2	2.05e-05	0	43	102	1048576	19	5307
2026-01-05 11:18:51.18	203.97	20.51	-29.7	-32.9	13.3	1.98e-05	0	43	102	1048576	19	5215
2026-01-05 11:18:52.18	204.11	20.62	-29.7	-33.0	13.3	2.05e-05	0	43	102	1048576	19	5237
2026-01-05 11:18:53.19	204.25	20.74	-29.7	-33.0	13.3	1.22e-05	0	43	102	1048576	19	5242
2026-01-05 11:18:54.19	204.39	20.85	-29.8	-33.3	13.1	3.05e-05	0	43	102	1048576	19	5356
2026-01-05 11:18:55.20	204.53	20.97	-29.9	-33.5	12.9	4.27e-05	0	43	102	1048576	19	5464
2026-01-05 11:18:56.21	204.68	21.08	-29.7	-33.0	13.3	3.35e-05	0	43	102	1048576	19	5247
2026-01-05 11:18:57.21	204.82	21.20	-29.7	-33.0	13.3	1.52e-05	0	43	102	1048576	19	5260
2026-01-05 11:18:58.22	204.97	21.31	-29.8	-33.1	13.2	3.66e-05	0	43	102	1048576	19	5295
2026-01-05 11:18:59.22	205.12	21.43	-29.7	-33.0	13.3	1.75e-05	0	43	102	1048576	19	5235
2026-01-05 11:19:00.23	205.27	21.54	-29.7	-33.0	13.3	1.83e-05	0	43	102	1048576	19	5252
2026-01-05 11:19:01.24	205.42	21.66	-29.7	-33.0	13.3	2.59e-05	0	43	102	1048576	19	5256
2026-01-05 11:19:02.25	205.57	21.78	-29.8	-33.1	13.2	1.22e-05	0	43	102	1048576	19	5298
2026-01-05 11:19:03.25	205.72	21.89	-29.8	-33.2	13.2	2.97e-05	0	43	102	1048576	19	5328
2026-01-05 11:19:04.26	205.87	22.01	-29.7	-32.8	13.5	1.90e-05	0	43	102	1048576	19	5154
2026-01-05 11:19:05.27	206.03	22.13	-29.6	-32.7	13.6	1.37e-05	0	43	102	1048576	19	5109
2026-01-05 11:19:06.28	206.18	22.25	-29.7	-32.8	13.5	1.06e-05	0	43	102	1048576	19	5151
2026-01-05 11:19:07.28	206.34	22.37	-29.7	-32.8	13.5	1.22e-05	0	43	102	1048576	19	5174
2026-01-05 11:19:08.29	206.50	22.49	-29.7	-33.0	13.3	1.75e-05	0	43	102	1048576	19	5238
2026-01-05 11:19:09.29	206.66	22.61	-29.6	-32.7	13.6	1.44e-05	0	43	102	1048576	19	5127
2026-01-05 11:19:10.30	206.82	22.73	-29.6	-32.7	13.6	5.30e-06	0	43	102	1048576	19	5133
2026-01-05 11:19:11.31	206.98	22.85	-29.6	-32.7	13.6	9.10e-06	0	43	102	1048576	19	5133
2026-01-05 11:19:12.31	207.14	22.97	-29.7	-33.0	13.4	1.22e-05	0	43	102	1048576	19	5232
2026-01-05 11:19:13.32	207.31	23.09	-29.7	-32.8	13.6	5.30e-06	0	43	102	1048576	19	5144
2026-01-05 11:19:14.32	207.47	23.21	-29.7	-33.0	13.4	1.44e-05	0	43	102	1048576	19	5220
2026-01-05 11:19:15.32	207.64	23.33	-29.7	-33.0	13.4	1.22e-05	0	43	102	1048576	19	5226
2026-01-05 11:19:16.33	207.80	23.45	-29.8	-33.0	13.4	1.29e-05	0	43	102	1048576	19	5238
2026-01-05 11:19:17.34	207.97	23.57	-29.8	-33.1	13.3	1.44e-05	0	43	102	1048576	19	5277
2026-01-05 11:19:18.34	208.14	23.69	-29.8	-33.2	13.3	1.75e-05	0	43	102	1048576	19	5303
2026-01-05 11:19:19.35	208.31	23.82	-29.9	-33.4	13.1	1.60e-05	0	43	102	1048576	19	5406
2026-01-05 11:19:20.35	208.49	23.94	-29.9	-32.9	13.1	3.20e-05	0	43	102	1048576	20	5102
2026-01-05 11:19:21.37	208.66	24.06	-29.8	-32.7	13.3	2.05e-05	0	43	102	1048576	20	5002
2026-01-05 11:19:22.37	208.84	24.19	-29.8	-32.5	13.4	1.06e-05	0	43	102	1048576	20	4965
2026-01-05 11:19:23.37	209.01	24.31	-29.8	-32.6	13.3	1.14e-05	0	43	102	1048576	20	4991
2026-01-05 11:19:24.37	209.19	24.43	-29.8	-32.6	13.3	9.90e-06	0	43	102	1048576	20	4986
2026-01-05 11:19:25.38	209.37	24.56	-29.9	-32.9	13.1	1.52e-05	0	43	102	1048576	20	5087
2026-01-05 11:19:26.38	209.55	24.68	-29.9	-32.9	13.1	3.73e-05	0	43	102	1048576	20	5113
2026-01-05 11:19:27.38	209.73	24.81	-29.9	-32.9	13.1	2.05e-05	0	43	102	1048576	20	5097
2026-01-05 11:19:28.40	209.92	24.93	-29.9	-32.9	13.1	2.97e-05	0	43	102	1048576	20	5098
2026-01-05 11:19:29.40	210.10	25.06	-30.0	-33.3	12.8	3.58e-05	0	43	102	1048576	20	5254
2026-01-05 11:19:30.40	210.29	25.18	-30.1	-33.4	12.8	7.09e-05	0	43	102	1048576	20	5296
2026-01-05 11:19:31.41	210.48	25.31	-30.0	-33.3	12.9	5.18e-05	0	43	102	1048576	20	5253
2026-01-05 11:19:32.42	210.67	25.44	-30.1	-33.5	12.7	7.17e-05	0	43	102	1048576	20	5327
2026-01-05 11:19:33.43	210.86	25.57	-30.1	-33.6	12.6	1.07e-04	0	43	102	1048576	20	5363
2026-01-05 11:19:34.43	211.05	25.69	-30.0	-33.1	13.0	4.73e-05	0	43	102	1048576	20	5144
2026-01-05 11:19:35.44	211.24	25.82	-29.9	-32.8	13.2	3.73e-05	0	43	102	1048576	20	5057
2026-01-05 11:19:36.45	211.44	25.95	-29.9	-32.9	13.2	3.12e-05	0	43	102	1048576	20	5077
2026-01-05 11:19:37.44	211.63	26.07	-29.9	-32.9	13.2	2.05e-05	0	43	102	1048576	20	5108
2026-01-05 11:19:38.46	211.84	26.20	-29.9	-32.9	13.1	2.82e-05	0	43	102	1048576	20	5091
2026-01-05 11:19:39.46	212.03	26.33	-29.9	-32.9	13.2	1.60e-05	0	43	102	1048576	20	5079
2026-01-05 11:19:40.47	212.24	26.46	-29.9	-33.0	13.2	2.51e-05	0	43	102	1048576	20	5113
2026-01-05 11:19:41.47	212.44	26.59	-29.9	-33.0	13.2	2.36e-05	0	43	102	1048576	20	5128
2026-01-05 11:19:42.47	212.64	26.72	-30.1	-33.4	12.8	4.04e-05	0	43	102	1048576	20	5294
2026-01-05 11:19:43.47	212.85	26.85	-30.0	-33.2	13.0	3.58e-05	0	43	102	1048576	20	5206
2026-01-05 11:19:44.48	213.06	26.98	-30.1	-33.5	12.8	4.65e-05	0	43	102	1048576	20	5319
2026-01-05 11:19:45.48	213.27	27.10	-30.1	-33.3	12.9	6.40e-05	0	43	102	1048576	20	5252
2026-01-05 11:19:46.49	213.48	27.23	-30.1	-33.5	12.8	3.66e-05	0	43	102	1048576	20	5317
2026-01-05 11:19:47.50	213.69	27.37	-30.0	-33.3	12.9	4.50e-05	0	43	102	1048576	20	5239
2026-01-05 11:19:48.51	213.91	27.50	-30.0	-33.3	12.9	2.82e-05	0	43	102	1048576	20	5232
2026-01-05 11:19:49.51	214.12	27.63	-30.1	-33.3	12.9	4.50e-05	0	43	102	1048576	20	5258
2026-01-05 11:19:50.51	214.34	27.76	-30.0	-33.3	12.9	5.56e-05	0	43	102	1048576	20	5238
2026-01-05 11:19:51.52	214.56	27.89	-30.2	-33.7	12.7	7.62e-05	0	43	102	1048576	20	5414
2026-01-05 11:19:52.52	214.78	28.02	-30.2	-33.8	12.6	1.14e-04	0	43	102	1048576	20	5446
2026-01-05 11:19:53.53	215.01	28.15	-30.3	-34.1	12.4	1.16e-04	0	43	102	1048576	20	5555
2026-01-05 11:19:54.54	215.23	28.28	-30.3	-34.1	12.4	1.72e-04	0	43	102	1048576	20	5573
2026-01-05 11:19:55.54	215.46	28.41	-30.3	-34.2	12.4	1.85e-04	0	43	102	1048576	20	5584
2026-01-05 11:19:56.55	215.69	28.55	-30.4	-34.2	12.3	1.69e-04	0	43	102	1048576	20	5613
2026-01-05 11:19:57.56	215.92	28.68	-30.4	-34.3	12.3	1.73e-04	0	43	102	1048576	20	5639
2026-01-05 11:19:58.57	216.16	28.81	-30.4	-34.2	12.4	1.63e-04	0	43	102	1048576	20	5603
2026-01-05 11:19:59.57	216.39	28.94	-30.5	-34.5	12.2	1.75e-04	0	43	102	1048576	20	5720
2026-01-05 11:20:00.58	216.63	29.07	-30.6	-34.3	11.9	3.65e-04	0	43	102	1048576	21	5551
2026-01-05 11:20:01.58	216.86	29.21	-30.6	-34.3	11.9	4.87e-04	0	43	102	1048576	21	5533
2026-01-05 11:20:02.59	217.11	29.34	-30.4	-33.9	12.3	2.82e-04	0	43	102	1048576	21	5347
2026-01-05 11:20:03.60	217.35	29.47	-30.4	-33.9	12.3	2.11e-04	0	43	102	1048576	21	5353
2026-01-05 11:20:04.61	217.60	29.60	-30.4	-33.7	12.4	1.61e-04	0	43	102	1048576	21	5279
2026-01-05 11:20:05.62	217.84	29.74	-30.4	-33.8	12.3	1.81e-04	0	43	102	1048576	21	5329
2026-01-05 11:20:06.62	218.09	29.87	-30.4	-33.9	12.3	2.01e-04	0	43	102	1048576	21	5347
2026-01-05 11:20:07.63	218.34	30.00	-30.4	-33.7	12.4	1.56e-04	0	43	102	1048576	21	5287
2026-01-05 11:20:08.64	218.59	30.14	-30.5	-34.0	12.1	1.81e-04	0	43	102	1048576	21	5398
2026-01-05 11:20:09.64	218.85	30.27	-30.5	-34.2	12.1	3.10e-04	0	43	102	1048576	21	5482
2026-01-05 11:20:10.65	219.11	30.40	-30.6	-34.3	12.0	2.75e-04	0	43	102	1048576	21	5509
2026-01-05 11:20:11.65	219.36	30.53	-30.5	-34.2	12.1	2.34e-04	0	43	102	1048576	21	5471
2026-01-05 11:20:12.66	219.62	30.67	-30.5	-34.2	12.0	2.21e-04	0	43	102	1048576	21	5482
2026-01-05 11:20:13.67	219.89	30.80	-30.6	-34.5	11.9	3.20e-04	0	43	102	1048576	21	5595
2026-01-05 11:20:14.68	220.15	30.93	-30.6	-34.3	12.0	4.76e-04	0	43	102	1048576	21	5547
2026-01-05 11:20:15.68	220.42	31.07	-30.6	-34.5	11.9	3.29e-04	0	43	102	1048576	21	5600
2026-01-05 11:20:16.69	220.69	31.20	-30.5	-34.2	12.0	3.94e-04	0	43	102	1048576	21	5492
2026-01-05 11:20:17.70	220.96	31.33	-30.5	-34.0	12.2	2.53e-04	0	43	102	1048576	21	5383
2026-01-05 11:20:18.71	221.24	31.46	-30.5	-34.0	12.2	1.79e-04	0	43	102	1048576	21	5388
2026-01-05 11:20:19.71	221.51	31.60	-30.6	-34.4	11.9	2.61e-04	0	43	102	1048576	21	5571
2026-01-05 11:20:20.72	221.79	31.73	-30.6	-34.5	11.9	4.22e-04	0	43	102	1048576	21	5599
2026-01-05 11:20:21.73	222.07	31.86	-30.7	-34.7	11.8	4.76e-04	0	43	102	1048576	21	5690
2026-01-05 11:20:22.74	222.36	31.99	-30.7	-34.6	11.8	4.88e-04	0	43	102	1048576	21	5643
2026-01-05 11:20:23.75	222.64	32.13	-30.6	-34.4	11.9	4.48e-04	0	43	102	1048576	21	5577
2026-01-05 11:20:24.75	222.93	32.26	-30.7	-34.7	11.8	3.95e-04	0	43	102	1048576	21	5676
2026-01-05 11:20:25.76	223.22	32.39	-30.7	-34.8	11.7	4.80e-04	0	43	102	1048576	21	5728
2026-01-05 11:20:26.76	223.51	32.52	-30.9	-35.1	11.4	8.44e-04	0	43	102	1048576	21	5897
2026-01-05 11:20:27.77	223.80	32.65	-31.1	-35.3	11.0	1.19e-03	0	43	102	1048576	22	5861
2026-01-05 11:20:28.78	224.10	32.78	-31.0	-35.2	11.0	2.13e-03	0	43	102	1048576	22	5824
2026-01-05 11:20:29.79	224.40	32.91	-31.2	-35.6	10.7	2.46e-03	0	43	102	1048576	22	6011
2026-01-05 11:20:30.79	224.70	33.04	-31.1	-35.4	10.9	2.86e-03	0	43	102	1048576	22	5917
2026-01-05 11:20:31.80	225.00	33.17	-31.1	-35.5	10.8	2.35e-03	0	43	102	1048576	22	5959
2026-01-05 11:20:32.81	225.31	33.30	-31.1	-35.5	10.8	2.52e-03	0	43	102	1048576	22	5957
2026-01-05 11:20:33.81	225.62	33.43	-31.1	-35.5	10.9	2.48e-03	0	43	102	1048576	22	5930
2026-01-05 11:20:34.82	225.93	33.56	-31.1	-35.5	10.9	2.48e-03	0	43	102	1048576	22	5963
2026-01-05 11:20:35.82	226.24	33.68	-31.2	-35.9	10.6	3.01e-03	0	43	102	1048576	22	6154
2026-01-05 11:20:36.83	226.56	33.81	-31.2	-35.9	10.6	3.78e-03	0	43	102	1048576	22	6144
2026-01-05 11:20:37.83	226.87	33.94	-31.3	-36.1	10.4	4.52e-03	0	43	102	1048576	22	6259
2026-01-05 11:20:38.84	227.19	34.07	-31.2	-35.8	10.6	4.50e-03	0	43	102	1048576	22	6105
2026-01-05 11:20:39.84	227.52	34.19	-31.3	-36.2	10.4	4.31e-03	0	43	102	1048576	22	6285
2026-01-05 11:20:40.85	227.84	34.32	-31.4	-36.5	10.1	5.88e-03	0	43	102	1048576	22	6480
2026-01-05 11:20:41.86	228.17	34.44	-31.6	-36.8	9.5	9.41e-03	0	43	102	1048576	23	6550
2026-01-05 11:20:42.87	228.50	34.57	-31.7	-36.9	9.3	1.81e-02	0	43	102	1048576	23	6580
2026-01-05 11:20:43.87	228.83	34.69	-31.6	-36.9	9.4	1.89e-02	0	43	102	1048576	23	6565
2026-01-05 11:20:44.88	229.17	34.82	-31.6	-36.8	9.5	1.60e-02	0	44	102	1048576	23	6541
2026-01-05 11:20:45.88	229.51	34.94	-31.7	-37.0	9.4	1.67e-02	0	43	102	1048576	23	6629
2026-01-05 11:20:46.89	229.85	35.06	-31.6	-36.8	9.5	1.59e-02	0	44	102	1048576	23	6539
2026-01-05 11:20:47.89	230.19	35.18	-31.7	-37.2	9.2	1.77e-02	0	43	102	1048576	23	6765
2026-01-05 11:20:48.90	230.53	35.31	-31.7	-37.1	9.3	1.83e-02	0	43	102	1048576	23	6664
2026-01-05 11:20:49.91	230.88	35.43	-31.7	-37.1	9.2	1.94e-02	0	43	102	1048576	23	6710
2026-01-05 11:20:50.92	231.23	35.55	-31.8	-37.4	9.0	2.15e-02	0	43	102	1048576	23	6842
2026-01-05 11:20:51.92	231.59	35.67	-31.8	-37.3	9.1	2.69e-02	0	43	102	1048576	23	6821
2026-01-05 11:20:52.93	231.94	35.78	-31.9	-38.0	8.6	3.47e-02	0	43	102	1048576	23	7248
2026-01-05 11:20:53.94	232.30	35.90	-31.7	-37.0	9.4	2.50e-02	0	43	102	1048576	23	6611
2026-01-05 11:20:54.95	232.66	36.02	-31.5	-36.2	9.9	1.11e-02	0	43	102	1048576	23	6210
2026-01-05 11:20:55.95	233.02	36.14	-31.3	-35.6	10.4	5.47e-03	0	43	102	1048576	23	5888
2026-01-05 11:20:56.96	233.39	36.25	-31.1	-35.0	10.9	2.73e-03	0	43	102	1048576	23	5619
2026-01-05 11:20:57.96	233.76	36.36	-31.0	-34.5	11.2	1.78e-03	0	43	102	1048576	23	5402
2026-01-05 11:20:58.97	234.13	36.48	-31.0	-34.7	11.1	1.35e-03	0	43	102	1048576	23	5465
2026-01-05 11:20:59.98	234.50	36.59	-31.0	-34.5	11.3	1.37e-03	0	43	102	1048576	23	5383
2026-01-05 11:21:00.98	234.88	36.70	-31.2	-35.3	10.7	2.18e-03	0	44	102	1048576	23	5729
2026-01-05 11:21:01.99	235.26	36.81	-31.2	-35.3	10.7	2.85e-03	0	43	102	1048576	23	5746
2026-01-05 11:21:03.00	235.64	36.92	-31.3	-35.5	10.5	3.41e-03	0	43	102	1048576	23	5840
2026-01-05 11:21:04.01	236.02	37.03	-31.3	-35.5	10.5	4.08e-03	0	43	102	1048576	23	5846
2026-01-05 11:21:05.02	236.41	37.14	-31.2	-35.1	10.9	3.15e-03	0	44	102	1048576	23	5636
2026-01-05 11:21:06.03	236.80	37.24	-30.9	-34.3	11.3	1.28e-03	0	43	102	1048576	23	5311
2026-01-05 11:21:07.03	237.19	37.35	-30.8	-34.0	11.6	6.64e-04	0	43	102	1048576	23	5177
2026-01-05 11:21:08.03	237.58	37.45	-30.8	-34.0	11.7	6.36e-04	0	43	102	1048576	23	5177
2026-01-05 11:21:09.04	237.98	37.56	-31.0	-34.4	11.4	9.18e-04	0	43	102	1048576	23	5345
2026-01-05 11:21:10.04	238.37	37.66	-31.0	-34.5	11.2	1.21e-03	0	43	102	1048576	23	5405
2026-01-05 11:21:11.05	238.77	37.76	-31.1	-34.7	11.1	1.48e-03	0	43	102	1048576	23	5481
2026-01-05 11:21:12.06	239.18	37.86	-31.1	-34.8	11.0	1.87e-03	0	43	102	1048576	23	5523
2026-01-05 11:21:13.06	239.58	37.95	-31.1	-34.9	10.9	2.08e-03	0	43	102	1048576	23	5571
2026-01-05 11:21:14.07	239.99	38.05	-31.0	-34.5	11.3	1.34e-03	0	43	102	1048576	23	5380
2026-01-05 11:21:15.07	240.40	38.15	-31.0	-34.5	11.3	1.08e-03	0	43	102	1048576	23	5408
2026-01-05 11:21:16.08	240.81	38.24	-31.1	-34.7	11.1	1.39e-03	0	43	102	1048576	23	5485
2026-01-05 11:21:17.09	241.23	38.33	-31.0	-34.6	11.2	1.29e-03	0	43	102	1048576	23	5429
2026-01-05 11:21:18.09	241.64	38.42	-31.0	-34.4	11.3	1.14e-03	0	43	102	1048576	23	5324
2026-01-05 11:21:19.10	242.06	38.51	-31.0	-34.5	11.2	1.31e-03	0	43	102	1048576	23	5365
2026-01-05 11:21:20.11	242.49	38.60	-31.2	-35.0	10.8	2.00e-03	0	43	102	1048576	23	5617
2026-01-05 11:21:21.12	242.91	38.69	-31.0	-34.4	11.3	1.43e-03	0	43	102	1048576	23	5338
2026-01-05 11:21:22.12	243.34	38.77	-30.9	-34.3	11.4	1.02e-03	0	43	102	1048576	23	5292
2026-01-05 11:21:23.12	243.76	38.85	-31.1	-34.9	11.1	1.26e-03	0	43	102	1048576	23	5551
2026-01-05 11:21:24.12	244.19	38.94	-31.0	-34.6	11.1	1.68e-03	0	43	102	1048576	23	5446
2026-01-05 11:21:25.13	244.62	39.02	-31.2	-35.0	11.0	2.00e-03	0	43	102	1048576	23	5617
2026-01-05 11:21:26.14	245.06	39.10	-30.9	-34.1	11.5	9.65e-04	0	44	102	1048576	23	5232
2026-01-05 11:21:27.14	245.49	39.17	-30.8	-34.3	11.8	4.91e-04	0	43	102	1048576	22	5400
2026-01-05 11:21:28.15	245.93	39.25	-30.8	-34.5	11.7	5.45e-04	0	43	102	1048576	22	5475
2026-01-05 11:21:29.16	246.38	39.32	-30.9	-34.6	11.5	6.64e-04	0	43	102	1048576	22	5544
2026-01-05 11:21:30.17	246.82	39.39	-30.8	-34.4	11.7	6.44e-04	0	43	102	1048576	22	5425
2026-01-05 11:21:31.17	247.26	39.46	-30.8	-34.5	11.6	5.07e-04	0	43	102	1048576	22	5477
2026-01-05 11:21:32.18	247.71	39.53	-30.8	-34.5	11.6	7.32e-04	0	43	102	1048576	22	5469
2026-01-05 11:21:33.19	248.16	39.60	-30.8	-34.4	11.7	5.29e-04	0	43	102	1048576	22	5436
2026-01-05 11:21:34.20	248.61	39.66	-30.9	-34.6	11.6	7.54e-04	0	44	102	1048576	22	5520
2026-01-05 11:21:35.20	249.06	39.73	-30.7	-34.0	11.9	5.00e-04	0	43	102	1048576	22	5284
2026-01-05 11:21:36.21	249.51	39.79	-30.4	-33.2	12.6	1.54e-04	0	43	102	1048576	22	4967
2026-01-05 11:21:37.22	249.97	39.85	-30.2	-33.2	12.9	4.95e-05	0	43	102	1048576	21	5047
2026-01-05 11:21:38.23	250.43	39.91	-30.2	-33.1	12.9	4.27e-05	0	43	102	1048576	21	5032
2026-01-05 11:21:39.23	250.88	39.96	-30.5	-34.0	12.3	1.23e-04	0	43	102	1048576	21	5394
2026-01-05 11:21:40.23	251.34	40.01	-30.6	-34.4	12.0	2.27e-04	0	43	102	1048576	21	5539
2026-01-05 11:21:41.24	251.80	40.07	-31.1	-35.2	11.1	7.10e-04	0	43	102	1048576	22	5796
2026-01-05 11:21:42.25	252.27	40.12	-31.2	-35.6	10.8	1.55e-03	0	43	102	1048576	22	5977
2026-01-05 11:21:43.26	252.73	40.16	-31.0	-34.9	11.3	1.74e-03	0	43	102	1048576	22	5669
2026-01-05 11:21:44.27	253.20	40.21	-30.7	-34.1	11.9	6.12e-04	0	44	102	1048576	22	5297
2026-01-05 11:21:45.28	253.67	40.25	-30.5	-33.5	12.3	2.39e-04	0	43	102	1048576	22	5086
2026-01-05 11:21:46.28	254.13	40.29	-30.5	-33.3	12.5	1.41e-04	0	43	102	1048576	22	5015
2026-01-05 11:21:47.29	254.60	40.33	-30.6	-33.8	12.1	2.04e-04	0	43	102	1048576	22	5208
2026-01-05 11:21:48.30	255.08	40.37	-30.8	-34.2	11.8	2.50e-04	0	43	102	1048576	22	5375
2026-01-05 11:21:49.31	255.55	40.41	-31.2	-35.8	10.8	2.18e-03	0	43	102	1048576	22	6062
2026-01-05 11:21:50.32	256.02	40.44	-31.5	-36.6	10.1	4.31e-03	0	43	102	1048576	22	6477
2026-01-05 11:21:51.33	256.50	40.47	-31.6	-36.7	9.6	1.13e-02	0	43	102	1048576	23	6465
2026-01-05 11:21:52.34	256.97	40.50	-31.3	-35.5	10.5	5.97e-03	0	43	102	1048576	23	5855
2026-01-05 11:21:53.35	257.45	40.53	-31.1	-34.8	11.1	1.91e-03	0	43	102	1048576	23	5519
2026-01-05 11:21:54.35	257.92	40.55	-31.0	-34.5	11.3	1.24e-03	0	43	102	1048576	23	5378
2026-01-05 11:21:55.35	258.39	40.57	-31.1	-34.9	11.0	1.41e-03	0	43	102	1048576	23	5530
2026-01-05 11:21:56.36	258.87	40.59	-31.5	-36.2	10.0	4.55e-03	0	43	102	1048576	23	6191
2026-01-05 11:21:57.37	259.35	40.61	-31.8	-37.3	9.1	1.63e-02	0	44	102	1048576	23	6801
2026-01-05 11:21:58.37	259.83	40.63	-32.0	-37.6	8.5	2.88e-02	0	43	102	1048576	24	6879
2026-01-05 11:21:59.38	260.30	40.64	-32.2	-38.5	7.9	7.55e-02	0	43	102	1048576	24	7435
2026-01-05 11:22:00.39	260.78	40.65	-32.0	-37.5	8.6	4.87e-02	0	43	102	1048576	24	6821
2026-01-05 11:22:01.40	261.27	40.66	-31.8	-36.7	9.3	2.64e-02	0	43	102	1048576	24	6325
2026-01-05 11:22:02.40	261.74	40.67	-31.5	-35.6	10.1	8.89e-03	0	43	102	1048576	24	5802
2026-01-05 11:22:03.41	262.22	40.67	-31.3	-34.9	10.7	3.87e-03	0	43	102	1048576	24	5450
2026-01-05 11:22:04.41	262.70	40.68	-31.2	-35.0	11.0	2.60e-03	0	43	102	1048576	23	5576
2026-01-05 11:22:05.42	263.18	40.68	-30.9	-34.2	11.5	1.21e-03	0	43	102	1048576	23	5261
2026-01-05 11:22:06.42	263.65	40.67	-31.0	-34.6	11.2	1.38e-03	0	43	102	1048576	23	5416
2026-01-05 11:22:07.43	264.14	40.67	-31.1	-34.8	11.1	1.43e-03	0	43	102	1048576	23	5515
2026-01-05 11:22:08.44	264.62	40.66	-31.1	-34.9	11.1	1.57e-03	0	43	102	1048576	23	5534
2026-01-05 11:22:09.44	265.09	40.66	-31.0	-34.4	11.4	1.35e-03	0	43	102	1048576	23	5341
2026-01-05 11:22:10.45	265.57	40.65	-30.8	-33.9	11.7	6.85e-04	0	43	102	1048576	23	5116
2026-01-05 11:22:11.46	266.05	40.63	-30.8	-33.9	11.8	5.50e-04	0	43	102	1048576	23	5129
2026-01-05 11:22:12.47	266.53	40.62	-30.8	-33.8	11.8	6.21e-04	0	43	102	1048576	23	5109
2026-01-05 11:22:13.47	267.00	40.60	-30.9	-34.1	11.6	5.69e-04	0	43	102	1048576	23	5204
2026-01-05 11:22:14.48	267.48	40.58	-30.8	-33.9	11.7	7.34e-04	0	43	102	1048576	23	5146
2026-01-05 11:22:15.48	267.96	40.56	-30.8	-34.2	11.9	4.87e-04	0	44	102	1048576	22	5361
2026-01-05 11:22:16.49	268.43	40.54	-30.8	-34.3	11.9	3.85e-04	0	43	102	1048576	22	5390
2026-01-05 11:22:17.50	268.91	40.51	-30.9	-34.7	11.4	5.10e-04	0	43	102	1048576	22	5588
2026-01-05 11:22:18.51	269.38	40.48	-30.9	-34.8	11.5	1.19e-03	0	44	102	1048576	22	5617
2026-01-05 11:22:19.51	269.85	40.45	-30.7	-34.0	12.0	4.12e-04	0	43	102	1048576	22	5255
2026-01-05 11:22:20.52	270.33	40.42	-30.6	-33.7	12.2	2.76e-04	0	43	102	1048576	22	5157
2026-01-05 11:22:21.52	270.80	40.39	-30.8	-34.2	11.9	3.15e-04	0	43	102	1048576	22	5360
2026-01-05 11:22:22.53	271.27	40.35	-30.7	-34.1	11.9	4.10e-04	0	43	102	1048576	22	5297
2026-01-05 11:22:23.54	271.74	40.31	-30.6	-33.7	12.2	2.62e-04	0	43	102	1048576	22	5168
2026-01-05 11:22:24.54	272.20	40.27	-30.8	-34.3	11.8	2.63e-04	0	43	102	1048576	22	5406
2026-01-05 11:22:25.55	272.67	40.23	-31.0	-35.0	11.3	9.25e-04	0	43	102	1048576	22	5718
2026-01-05 11:22:26.55	273.13	40.19	-31.2	-35.8	10.7	1.71e-03	0	43	102	1048576	22	6057
2026-01-05 11:22:27.56	273.60	40.14	-31.3	-36.0	10.6	4.48e-03	0	43	102	1048576	22	6154
2026-01-05 11:22:28.57	274.06	40.09	-31.3	-35.9	10.6	2.94e-03	0	43	102	1048576	22	6099
2026-01-05 11:22:29.57	274.52	40.04	-31.2	-35.6	10.9	2.97e-03	0	43	102	1048576	22	5967
2026-01-05 11:22:30.57	274.98	39.99	-31.3	-35.9	10.6	2.77e-03	0	43	102	1048576	22	6112
2026-01-05 11:22:31.58	275.44	39.93	-31.4	-36.3	10.4	3.62e-03	0	43	102	1048576	22	6327
2026-01-05 11:22:32.59	275.90	39.88	-31.6	-36.5	9.8	8.92e-03	0	43	102	1048576	23	6328
2026-01-05 11:22:33.60	276.35	39.82	-31.6	-36.7	9.7	9.28e-03	0	43	102	1048576	23	6429
2026-01-05 11:22:34.60	276.80	39.76	-31.7	-36.8	9.7	1.14e-02	0	43	102	1048576	23	6470
2026-01-05 11:22:35.61	277.26	39.70	-31.5	-36.1	10.1	8.71e-03	0	43	102	1048576	23	6145
2026-01-05 11:22:36.62	277.71	39.63	-31.3	-35.4	10.7	3.61e-03	0	43	102	1048576	23	5761
2026-01-05 11:22:37.63	278.16	39.57	-31.3	-35.5	10.6	2.93e-03	0	43	102	1048576	23	5826
2026-01-05 11:22:38.64	278.61	39.50	-31.3	-35.6	10.5	4.35e-03	0	43	102	1048576	23	5883
2026-01-05 11:22:39.65	279.05	39.43	-31.2	-35.0	11.0	3.11e-03	0	43	102	1048576	23	5603
2026-01-05 11:22:40.66	279.50	39.36	-30.8	-33.9	11.7	8.63e-04	0	43	102	1048576	23	5137
2026-01-05 11:22:41.67	279.94	39.29	-30.9	-34.2	11.5	5.60e-04	0	43	102	1048576	23	5259
2026-01-05 11:22:42.67	280.38	39.21	-31.1	-34.9	11.0	1.64e-03	0	43	102	1048576	23	5567
2026-01-05 11:22:43.68	280.81	39.14	-31.6	-36.7	9.8	4.89e-03	0	43	102	1048576	23	6414
2026-01-05 11:22:44.68	281.25	39.06	-31.6	-36.5	9.8	1.59e-02	0	43	102	1048576	23	6318
2026-01-05 11:22:45.68	281.68	38.98	-31.1	-34.8	11.0	3.31e-03	0	43	102	1048576	23	5523
2026-01-05 11:22:46.69	282.11	38.90	-30.5	-33.4	12.4	3.19e-04	0	43	102	1048576	22	5018
2026-01-05 11:22:47.70	282.54	38.82	-30.2	-33.2	12.9	7.85e-05	0	43	102	1048576	21	5054
2026-01-05 11:22:48.70	282.96	38.73	-30.3	-33.5	12.7	5.95e-05	0	43	102	1048576	21	5187
2026-01-05 11:22:49.71	283.39	38.65	-30.5	-33.9	12.4	1.66e-04	0	43	102	1048576	21	5354
2026-01-05 11:22:50.71	283.81	38.56	-30.5	-33.9	12.4	1.41e-04	0	43	102	1048576	21	5348
2026-01-05 11:22:51.72	284.23	38.47	-30.2	-33.2	12.8	8.46e-05	0	44	102	1048576	21	5068
2026-01-05 11:22:52.73	284.65	38.38	-30.1	-32.9	13.0	4.11e-05	0	43	102	1048576	21	4971
2026-01-05 11:22:53.74	285.06	38.29	-30.2	-33.0	13.0	2.89e-05	0	43	102	1048576	21	5008
2026-01-05 11:22:54.73	285.47	38.20	-30.2	-33.1	12.9	5.95e-05	0	43	102	1048576	21	5039
2026-01-05 11:22:55.74	285.88	38.11	-30.2	-33.0	13.0	5.41e-05	0	43	102	1048576	21	4984
2026-01-05 11:22:56.75	286.29	38.01	-29.8	-32.0	13.6	2.36e-05	0	43	102	1048576	21	4642
2026-01-05 11:22:57.76	286.70	37.91	-29.3	-31.2	14.5	5.30e-06	0	43	102	1048576	20	4491
2026-01-05 11:22:58.76	287.10	37.81	-29.2	-31.3	14.8	0.00e+00	0	43	102	1048576	19	4599
2026-01-05 11:22:59.76	287.50	37.72	-29.5	-32.2	14.2	0.00e+00	0	43	102	1048576	19	4919
2026-01-05 11:23:00.77	287.90	37.62	-29.7	-32.8	13.9	7.00e-07	0	43	102	1048576	19	5112
2026-01-05 11:23:01.78	288.29	37.51	-30.1	-33.3	13.1	3.80e-06	0	43	102	1048576	20	5218
2026-01-05 11:23:02.78	288.68	37.41	-30.4	-34.1	12.6	8.77e-05	0	43	102	1048576	20	5525
2026-01-05 11:23:03.79	289.08	37.31	-30.1	-33.2	13.1	7.55e-05	0	44	102	1048576	20	5185
2026-01-05 11:23:04.80	289.47	37.20	-29.7	-32.3	13.8	1.37e-05	0	43	102	1048576	20	4832
2026-01-05 11:23:05.81	289.85	37.09	-29.6	-32.0	14.0	3.00e-06	0	43	102	1048576	20	4737
2026-01-05 11:23:06.81	290.23	36.99	-29.8	-32.4	13.7	5.30e-06	0	43	102	1048576	20	4871
2026-01-05 11:23:07.82	290.62	36.88	-29.6	-32.1	13.9	9.10e-06	0	43	102	1048576	20	4768
2026-01-05 11:23:08.83	291.00	36.77	-29.7	-32.2	13.8	2.20e-06	0	43	102	1048576	20	4810
2026-01-05 11:23:09.83	291.37	36.66	-29.1	-31.2	14.8	0.00e+00	0	44	102	1048576	19	4580
2026-01-05 11:23:10.83	291.74	36.55	-28.7	-30.6	15.5	0.00e+00	0	43	102	1048576	18	4497
2026-01-05 11:23:11.84	292.11	36.44	-28.7	-30.7	15.5	0.00e+00	0	43	102	1048576	18	4508
2026-01-05 11:23:12.85	292.48	36.32	-29.4	-32.5	14.3	0.00e+00	0	43	102	1048576	18	5115
2026-01-05 11:23:13.86	292.85	36.21	-29.6	-32.4	14.0	0.00e+00	0	43	102	1048576	19	4992
2026-01-05 11:23:14.86	293.21	36.09	-29.7	-32.6	14.0	3.00e-06	0	43	102	1048576	19	5055
2026-01-05 11:23:15.87	293.57	35.98	-29.4	-31.8	14.5	7.00e-07	0	43	102	1048576	19	4775
2026-01-05 11:23:16.87	293.93	35.86	-29.2	-31.4	14.7	1.50e-06	0	43	102	1048576	19	4631
2026-01-05 11:23:17.88	294.29	35.74	-29.4	-32.0	14.4	7.00e-07	0	43	102	1048576	19	4839
2026-01-05 11:23:18.89	294.64	35.63	-29.9	-33.2	13.6	3.80e-06	0	43	102	1048576	19	5273
2026-01-05 11:23:19.90	294.99	35.51	-30.4	-34.1	12.6	3.96e-05	0	43	102	1048576	20	5552
2026-01-05 11:23:20.90	295.34	35.39	-30.5	-34.0	12.3	1.85e-04	0	43	102	1048576	21	5396
2026-01-05 11:23:21.91	295.69	35.27	-30.4	-33.8	12.3	1.96e-04	0	43	102	1048576	21	5326
2026-01-05 11:23:22.92	296.03	35.15	-30.4	-33.7	12.4	1.38e-04	0	43	102	1048576	21	5287
2026-01-05 11:23:23.93	296.37	35.02	-30.7	-34.7	11.8	2.29e-04	0	43	102	1048576	21	5707
2026-01-05 11:23:24.94	296.71	34.90	-30.6	-34.3	12.0	3.81e-04	0	43	102	1048576	21	5523
2026-01-05 11:23:25.94	297.04	34.78	-31.2	-35.7	10.7	1.44e-03	0	44	102	1048576	22	6045
2026-01-05 11:23:26.95	297.38	34.66	-30.9	-34.6	11.5	2.13e-03	0	43	102	1048576	22	5537
2026-01-05 11:23:27.96	297.71	34.53	-30.5	-33.5	12.3	5.55e-04	0	43	102	1048576	22	5084
2026-01-05 11:23:28.97	298.04	34.41	-30.1	-33.0	12.9	6.71e-05	0	44	102	1048576	21	4980
2026-01-05 11:23:29.97	298.36	34.28	-30.3	-33.4	12.7	5.64e-05	0	44	102	1048576	21	5136
2026-01-05 11:23:30.98	298.69	34.16	-30.5	-33.9	12.3	1.46e-04	0	44	102	1048576	21	5342
2026-01-05 11:23:31.99	299.01	34.03	-31.0	-35.5	11.2	8.65e-04	0	44	102	1048576	21	6046
2026-01-05 11:23:32.99	299.33	33.90	-31.2	-35.6	10.8	2.28e-03	0	43	102	1048576	22	5999
2026-01-05 11:23:34.01	299.65	33.78	-31.4	-36.3	10.2	4.15e-03	0	43	102	1048576	22	6342
2026-01-05 11:23:35.01	299.96	33.65	-30.9	-34.8	11.4	1.80e-03	0	43	102	1048576	22	5611
2026-01-05 11:23:36.02	300.27	33.52	-30.4	-33.2	12.4	2.64e-04	0	43	102	1048576	22	4987
2026-01-05 11:23:37.03	300.58	33.39	-30.4	-33.2	12.5	1.07e-04	0	43	102	1048576	22	4958
2026-01-05 11:23:38.04	300.89	33.26	-30.5	-33.6	12.2	1.91e-04	0	43	102	1048576	22	5141
2026-01-05 11:23:39.04	301.19	33.14	-31.2	-35.6	10.7	1.08e-03	0	43	102	1048576	22	5998
2026-01-05 11:23:40.05	301.49	33.01	-31.0	-35.2	11.0	2.70e-03	0	43	102	1048576	22	5827
2026-01-05 11:23:41.06	301.79	32.88	-30.9	-34.6	11.4	1.41e-03	0	43	102	1048576	22	5559
2026-01-05 11:23:42.07	302.09	32.75	-30.7	-34.1	11.8	5.79e-04	0	43	102	1048576	22	5340
2026-01-05 11:23:43.07	302.38	32.62	-30.8	-34.4	11.6	5.13e-04	0	43	102	1048576	22	5435
2026-01-05 11:23:44.08	302.67	32.49	-30.8	-34.6	11.5	6.67e-04	0	43	102	1048576	22	5523
2026-01-05 11:23:45.08	302.96	32.36	-31.4	-36.5	9.9	5.57e-03	0	44	102	1048576	22	6498
2026-01-05 11:23:46.09	303.25	32.23	-31.6	-36.7	9.5	1.36e-02	0	43	102	1048576	23	6476
2026-01-05 11:23:47.10	303.54	32.10	-31.5	-36.6	9.5	2.04e-02	0	43	102	1048576	23	6424
2026-01-05 11:23:48.11	303.82	31.96	-31.0	-34.7	10.9	3.55e-03	0	43	102	1048576	23	5505
2026-01-05 11:23:49.12	304.10	31.83	-30.5	-33.5	12.2	5.11e-04	0	44	102	1048576	22	5088
2026-01-05 11:23:50.12	304.38	31.70	-30.3	-33.4	12.5	1.02e-04	0	43	102	1048576	21	5169
2026-01-05 11:23:51.12	304.65	31.57	-30.5	-34.0	12.1	1.27e-04	0	44	102	1048576	21	5403
2026-01-05 11:23:52.13	304.93	31.44	-30.9	-35.6	11.0	1.07e-03	0	44	102	1048576	21	6119
2026-01-05 11:23:53.14	305.20	31.31	-31.7	-37.1	9.1	9.51e-03	0	44	102	1048576	23	6733
2026-01-05 11:23:54.15	305.47	31.18	-31.7	-37.1	9.1	2.40e-02	0	43	102	1048576	23	6694
2026-01-05 11:23:55.15	305.74	31.04	-31.7	-37.0	9.2	2.25e-02	0	43	102	1048576	23	6643
2026-01-05 11:23:56.16	306.00	30.91	-31.1	-35.0	10.7	7.54e-03	0	43	102	1048576	23	5651
2026-01-05 11:23:57.17	306.27	30.78	-30.6	-34.0	11.8	1.15e-03	0	43	102	1048576	22	5284
2026-01-05 11:23:58.17	306.53	30.65	-30.4	-33.3	12.3	2.26e-04	0	43	102	1048576	22	5028
2026-01-05 11:23:59.18	306.79	30.52	-30.5	-33.6	12.1	2.22e-04	0	43	102	1048576	22	5145
2026-01-05 11:24:00.19	307.05	30.38	-31.0	-35.2	11.0	7.97e-04	0	43	102	1048576	22	5817
2026-01-05 11:24:01.19	307.30	30.25	-31.2	-35.8	10.5	3.66e-03	0	43	102	1048576	22	6119
2026-01-05 11:24:02.20	307.55	30.12	-31.1	-35.5	10.7	3.56e-03	0	44	102	1048576	22	5977
2026-01-05 11:24:03.21	307.80	29.99	-30.6	-33.9	11.9	1.10e-03	0	44	102	1048576	22	5234
2026-01-05 11:24:04.22	308.05	29.86	-30.1	-33.0	12.8	1.55e-04	0	43	102	1048576	21	4996
2026-01-05 11:24:05.22	308.30	29.72	-30.1	-32.8	13.0	3.96e-05	0	43	102	1048576	21	4924
2026-01-05 11:24:06.23	308.55	29.59	-30.2	-33.3	12.6	7.70e-05	0	43	102	1048576	21	5104
2026-01-05 11:24:07.24	308.79	29.46	-30.3	-33.5	12.5	8.01e-05	0	44	102	1048576	21	5188
2026-01-05 11:24:08.25	309.03	29.33	-30.6	-34.5	11.8	3.25e-04	0	43	102	1048576	21	5632
2026-01-05 11:24:09.25	309.27	29.20	-30.9	-35.5	11.1	1.26e-03	0	43	102	1048576	21	6063
2026-01-05 11:24:10.26	309.51	29.07	-30.7	-34.7	11.6	1.23e-03	0	43	102	1048576	21	5720
2026-01-05 11:24:11.26	309.74	28.93	-30.3	-33.6	12.4	1.79e-04	0	43	102	1048576	21	5231
2026-01-05 11:24:12.27	309.97	28.80	-30.1	-32.9	12.9	5.95e-05	0	44	102	1048576	21	4962
2026-01-05 11:24:13.28	310.21	28.67	-30.1	-32.8	12.9	6.40e-05	0	43	102	1048576	21	4950
2026-01-05 11:24:14.29	310.44	28.54	-29.9	-32.5	13.1	3.12e-05	0	43	102	1048576	21	4814
2026-01-05 11:24:15.29	310.66	28.41	-30.0	-32.8	13.0	2.59e-05	0	43	102	1048576	21	4943
2026-01-05 11:24:16.30	310.89	28.28	-30.4	-34.0	12.1	1.33e-04	0	43	102	1048576	21	5391
2026-01-05 11:24:17.30	311.11	28.15	-30.5	-34.2	11.9	3.33e-04	0	43	102	1048576	21	5518
2026-01-05 11:24:18.32	311.34	28.02	-30.6	-34.3	11.9	5.39e-04	0	43	102	1048576	21	5540
2026-01-05 11:24:19.32	311.56	27.89	-30.1	-32.8	12.9	9.84e-05	0	43	102	1048576	21	4956
2026-01-05 11:24:20.33	311.78	27.76	-29.5	-31.9	13.8	1.22e-05	0	44	102	1048576	20	4719
2026-01-05 11:24:21.33	311.99	27.63	-29.0	-30.9	14.8	3.80e-06	0	43	102	1048576	19	4489
2026-01-05 11:24:22.35	312.21	27.50	-28.8	-30.5	15.0	0.00e+00	0	43	102	1048576	19	4380
2026-01-05 11:24:23.35	312.42	27.37	-28.9	-30.8	14.9	7.00e-07	0	43	102	1048576	19	4451
2026-01-05 11:24:24.36	312.64	27.24	-29.2	-31.6	14.4	7.00e-07	0	43	102	1048576	19	4708
2026-01-05 11:24:25.37	312.85	27.11	-29.6	-32.5	13.8	3.00e-06	0	43	102	1048576	19	5037
2026-01-05 11:24:26.37	313.06	26.98	-29.6	-32.6	13.7	6.80e-06	0	43	102	1048576	19	5084
2026-01-05 11:24:27.38	313.26	26.85	-29.5	-32.3	13.9	6.80e-06	0	43	102	1048576	19	4987
2026-01-05 11:24:28.39	313.47	26.72	-28.9	-30.8	14.8	0.00e+00	0	43	102	1048576	19	4454
2026-01-05 11:24:29.39	313.67	26.60	-28.3	-29.8	15.7	0.00e+00	0	44	102	1048576	18	4271
2026-01-05 11:24:30.40	313.88	26.47	-27.9	-29.2	16.4	0.00e+00	0	43	102	1048576	17	4195
2026-01-05 11:24:31.40	314.07	26.34	-27.7	-29.2	16.6	0.00e+00	0	43	102	1048576	16	4315
2026-01-05 11:24:32.41	314.27	26.21	-27.7	-29.2	16.6	0.00e+00	0	43	102	1048576	16	4309
2026-01-05 11:24:33.42	314.47	26.08	-27.9	-29.7	16.3	0.00e+00	0	44	102	1048576	16	4462
2026-01-05 11:24:34.43	314.67	25.96	-28.3	-30.9	15.7	0.00e+00	0	43	102	1048576	16	4818
2026-01-05 11:24:35.43	314.86	25.83	-28.8	-31.5	15.0	0.00e+00	0	43	102	1048576	17	4902
2026-01-05 11:24:36.43	315.05	25.71	-29.1	-31.9	14.5	0.00e+00	0	43	102	1048576	18	4931
2026-01-05 11:24:37.44	315.25	25.58	-29.1	-31.9	14.5	0.00e+00	0	43	102	1048576	18	4926
2026-01-05 11:24:38.45	315.44	25.45	-29.0	-31.6	14.6	7.00e-07	0	43	102	1048576	18	4834
2026-01-05 11:24:39.46	315.63	25.33	-28.8	-30.9	15.0	0.00e+00	0	43	102	1048576	18	4599
2026-01-05 11:24:40.46	315.81	25.20	-28.7	-30.8	15.1	0.00e+00	0	43	102	1048576	18	4574
2026-01-05 11:24:41.47	316.00	25.08	-28.6	-30.4	15.3	0.00e+00	0	43	102	1048576	18	4449
2026-01-05 11:24:42.48	316.18	24.95	-28.3	-29.8	15.7	0.00e+00	0	43	102	1048576	18	4278
2026-01-05 11:24:43.49	316.37	24.83	-28.5	-30.3	15.4	0.00e+00	0	43	102	1048576	18	4426
2026-01-05 11:24:44.49	316.55	24.70	-28.7	-30.8	15.1	0.00e+00	0	43	102	1048576	18	4585
2026-01-05 11:24:45.50	316.73	24.58	-29.0	-31.5	14.7	7.00e-07	0	43	102	1048576	18	4808
2026-01-05 11:24:46.51	316.91	24.46	-29.3	-32.2	14.2	0.00e+00	0	43	102	1048576	18	5059
2026-01-05 11:24:47.51	317.08	24.33	-29.3	-32.5	14.1	1.50e-06	0	43	102	1048576	18	5146
2026-01-05 11:24:48.52	317.26	24.21	-29.4	-32.7	13.9	1.50e-06	0	44	102	1048576	18	5245
2026-01-05 11:24:49.53	317.43	24.09	-29.6	-32.5	13.7	6.80e-06	0	43	102	1048576	19	5038
2026-01-05 11:24:50.54	317.61	23.96	-29.3	-31.8	14.1	3.00e-06	0	43	102	1048576	19	4788
2026-01-05 11:24:51.54	317.78	23.84	-28.7	-30.7	15.1	0.00e+00	0	43	102	1048576	18	4535
2026-01-05 11:24:52.55	317.95	23.72	-28.2	-30.1	15.8	0.00e+00	0	43	102	1048576	17	4462
2026-01-05 11:24:53.55	318.12	23.60	-28.0	-29.6	16.1	0.00e+00	0	43	102	1048576	17	4320
2026-01-05 11:24:54.56	318.29	23.48	-28.0	-29.6	16.1	0.00e+00	0	43	102	1048576	17	4306
2026-01-05 11:24:55.57	318.45	23.36	-28.3	-30.3	15.7	0.00e+00	0	43	102	1048576	17	4516
2026-01-05 11:24:56.56	318.62	23.24	-28.5	-30.8	15.4	0.00e+00	0	43	102	1048576	17	4672
2026-01-05 11:24:57.57	318.78	23.12	-28.7	-31.3	15.1	0.00e+00	0	43	102	1048576	17	4845
2026-01-05 11:24:58.58	318.95	23.00	-28.9	-31.7	14.8	0.00e+00	0	43	102	1048576	17	5008
2026-01-05 11:24:59.58	319.11	22.88	-28.9	-31.7	14.8	0.00e+00	0	43	102	1048576	17	4985
2026-01-05 11:25:00.59	319.27	22.76	-28.8	-31.6	14.8	0.00e+00	0	43	102	1048576	17	4965
2026-01-05 11:25:01.60	319.43	22.64	-28.8	-31.4	15.0	0.00e+00	0	43	102	1048576	17	4901
2026-01-05 11:25:02.61	319.59	22.52	-28.7	-31.3	15.0	0.00e+00	0	43	102	1048576	17	4847
2026-01-05 11:25:03.62	319.74	22.40	-28.9	-31.8	14.7	0.00e+00	0	43	102	1048576	17	5018
2026-01-05 11:25:04.63	319.90	22.29	-28.9	-31.4	14.7	1.50e-06	0	43	102	1048576	18	4790
2026-01-05 11:25:05.64	320.06	22.17	-29.0	-31.5	14.6	0.00e+00	0	43	102	1048576	18	4811
2026-01-05 11:25:06.64	320.21	22.05	-29.2	-32.0	14.3	7.00e-07	0	43	102	1048576	18	4993
2026-01-05 11:25:07.65	320.36	21.93	-29.3	-32.3	14.1	2.20e-06	0	43	102	1048576	18	5084
2026-01-05 11:25:08.65	320.51	21.82	-29.4	-32.5	14.0	0.00e+00	0	43	102	1048576	18	5176
2026-01-05 11:25:09.66	320.66	21.70	-29.3	-32.2	14.1	5.30e-06	0	43	102	1048576	18	5076
2026-01-05 11:25:10.66	320.81	21.59	-29.0	-31.7	14.5	1.50e-06	0	43	102	1048576	18	4872
2026-01-05 11:25:11.67	320.96	21.47	-28.9	-31.3	14.7	0.00e+00	0	43	102	1048576	18	4737
2026-01-05 11:25:12.67	321.11	21.36	-28.8	-31.1	14.8	0.00e+00	0	43	102	1048576	18	4693
2026-01-05 11:25:13.69	321.26	21.24	-28.9	-31.2	14.8	7.00e-07	0	43	102	1048576	18	4716
2026-01-05 11:25:14.69	321.40	21.13	-28.7	-30.8	15.0	0.00e+00	0	43	102	1048576	18	4586
2026-01-05 11:25:15.70	321.54	21.01	-28.6	-30.6	15.1	0.00e+00	0	43	102	1048576	18	4533
2026-01-05 11:25:16.71	321.69	20.90	-28.7	-30.8	15.0	0.00e+00	0	43	102	1048576	18	4580
2026-01-05 11:25:17.71	321.83	20.79	-28.9	-31.2	14.8	7.00e-07	0	43	102	1048576	18	4711
2026-01-05 11:25:18.72	321.97	20.67	-29.0	-31.7	14.5	0.00e+00	0	43	102	1048576	18	4871
2026-01-05 11:25:19.73	322.11	20.56	-29.1	-31.9	14.4	0.00e+00	0	43	102	1048576	18	4945
2026-01-05 11:25:20.74	322.25	20.45	-29.3	-32.4	14.0	2.20e-06	0	43	102	1048576	18	5121
2026-01-05 11:25:21.74	322.39	20.34	-29.4	-32.7	13.8	4.50e-06	0	43	102	1048576	18	5247
2026-01-05 11:25:22.75	322.53	20.22	-29.3	-32.4	14.0	6.10e-06	0	43	102	1048576	18	5133
2026-01-05 11:25:23.76	322.66	20.11	-29.3	-32.4	13.9	4.50e-06	0	44	102	1048576	18	5153
2026-01-05 11:25:24.77	322.80	20.00	-29.2	-32.2	14.1	1.50e-06	0	43	102	1048576	18	5071
2026-01-05 11:25:25.78	322.93	19.89	-29.3	-32.5	13.9	7.00e-07	0	43	102	1048576	18	5174
2026-01-05 11:25:26.78	323.06	19.78	-29.4	-32.7	13.8	8.30e-06	0	43	102	1048576	18	5240
2026-01-05 11:25:27.79	323.20	19.67	-29.4	-32.8	13.7	2.20e-06	0	43	102	1048576	18	5274
2026-01-05 11:25:28.79	323.33	19.56	-29.6	-32.7	13.4	1.29e-05	0	43	102	1048576	19	5149
2026-01-05 11:25:29.81	323.46	19.45	-29.7	-32.9	13.3	2.21e-05	0	43	102	1048576	19	5221
2026-01-05 11:25:30.81	323.59	19.34	-29.8	-33.3	13.1	2.44e-05	0	44	102	1048576	19	5379
2026-01-05 11:25:31.82	323.72	19.23	-29.9	-33.2	12.7	7.01e-05	0	43	102	1048576	20	5239
2026-01-05 11:25:32.83	323.85	19.13	-30.0	-33.4	12.5	1.07e-04	0	43	102	1048576	20	5314
2026-01-05 11:25:33.84	323.97	19.02	-30.1	-33.8	12.3	1.43e-04	0	43	102	1048576	20	5470
2026-01-05 11:25:34.84	324.10	18.91	-30.0	-33.4	12.6	1.34e-04	0	44	102	1048576	20	5314
2026-01-05 11:25:35.85	324.23	18.80	-29.8	-32.7	12.9	5.95e-05	0	43	102	1048576	20	5047
2026-01-05 11:25:36.86	324.35	18.70	-29.7	-32.6	13.1	3.43e-05	0	43	102	1048576	20	4992
2026-01-05 11:25:37.87	324.47	18.59	-29.6	-32.2	13.3	2.05e-05	0	44	102	1048576	20	4864
2026-01-05 11:25:38.87	324.60	18.48	-29.6	-32.2	13.4	1.75e-05	0	43	102	1048576	20	4880
2026-01-05 11:25:39.88	324.72	18.38	-29.4	-31.8	13.6	1.60e-05	0	43	102	1048576	20	4715
2026-01-05 11:25:40.89	324.84	18.27	-29.3	-31.4	13.9	3.80e-06	0	43	102	1048576	20	4587
2026-01-05 11:25:41.90	324.96	18.17	-29.5	-32.3	13.7	2.20e-06	0	43	102	1048576	19	4992
2026-01-05 11:25:42.90	325.08	18.06	-29.4	-32.2	13.7	1.29e-05	0	43	102	1048576	19	4957
2026-01-05 11:25:43.91	325.20	17.96	-29.4	-32.1	13.8	1.50e-06	0	43	102	1048576	19	4926
2026-01-05 11:25:44.92	325.32	17.85	-29.6	-32.6	13.5	3.80e-06	0	43	102	1048576	19	5104
2026-01-05 11:25:45.93	325.44	17.75	-29.6	-32.6	13.5	6.80e-06	0	44	102	1048576	19	5113
2026-01-05 11:25:46.94	325.55	17.65	-29.6	-32.6	13.5	9.10e-06	0	43	102	1048576	19	5098
2026-01-05 11:25:47.94	325.67	17.54	-29.6	-32.7	13.4	1.83e-05	0	43	102	1048576	19	5142
2026-01-05 11:25:48.95	325.78	17.44	-29.7	-33.0	13.2	1.98e-05	0	43	102	1048576	19	5245
2026-01-05 11:25:49.96	325.90	17.34	-29.7	-32.9	13.2	2.97e-05	0	43	102	1048576	19	5234
2026-01-05 11:25:50.97	326.01	17.23	-29.8	-33.2	13.1	3.73e-05	0	43	102	1048576	19	5338
2026-01-05 11:25:51.97	326.12	17.13	-29.8	-33.1	13.1	3.35e-05	0	43	102	1048576	19	5320
2026-01-05 11:25:52.97	326.23	17.03	-29.8	-33.3	12.9	3.43e-05	0	43	102	1048576	19	5388
2026-01-05 11:25:53.98	326.35	16.93	-29.7	-33.1	13.1	2.44e-05	0	44	102	1048576	19	5285
2026-01-05 11:25:54.99	326.46	16.83	-29.6	-32.8	13.3	1.52e-05	0	44	102	1048576	19	5200
2026-01-05 11:25:55.99	326.57	16.73	-29.7	-32.9	13.2	2.74e-05	0	44	102	1048576	19	5217
2026-01-05 11:25:56.99	326.67	16.63	-29.7	-33.0	13.2	1.83e-05	0	43	102	1048576	19	5253
2026-01-05 11:25:58.00	326.78	16.53	-29.7	-33.0	13.1	2.59e-05	0	43	102	1048576	19	5266
2026-01-05 11:25:59.01	326.89	16.43	-29.8	-33.3	13.0	2.74e-05	0	44	102	1048576	19	5365
2026-01-05 11:26:00.01	327.00	16.33	-29.8	-33.2	13.0	3.96e-05	0	43	102	1048576	19	5341
2026-01-05 11:26:01.02	327.10	16.23	-29.7	-33.1	13.0	3.35e-05	0	43	102	1048576	19	5317
2026-01-05 11:26:02.03	327.21	16.13	-29.8	-33.3	12.9	3.43e-05	0	43	102	1048576	19	5390
2026-01-05 11:26:03.04	327.32	16.03	-29.9	-33.5	12.8	5.11e-05	0	43	102	1048576	19	5467
2026-01-05 11:26:04.04	327.42	15.94	-29.8	-33.3	12.8	5.49e-05	0	44	102	1048576	19	5405
2026-01-05 11:26:05.04	327.52	15.84	-30.0	-33.8	12.6	8.31e-05	0	43	102	1048576	19	5602
2026-01-05 11:26:06.05	327.63	15.74	-29.8	-33.4	12.9	7.85e-05	0	44	102	1048576	19	5433
2026-01-05 11:26:07.06	327.73	15.64	-29.8	-33.3	12.8	4.34e-05	0	43	102	1048576	19	5408
2026-01-05 11:26:08.06	327.83	15.55	-29.9	-33.5	12.8	6.17e-05	0	43	102	1048576	19	5473
2026-01-05 11:26:09.07	327.93	15.45	-29.9	-33.5	12.7	5.79e-05	0	43	102	1048576	19	5479
2026-01-05 11:26:10.08	328.03	15.36	-29.9	-33.3	12.4	7.47e-05	0	44	102	1048576	20	5288
2026-01-05 11:26:11.09	328.13	15.26	-29.8	-32.9	12.7	9.30e-05	0	44	102	1048576	20	5135
2026-01-05 11:26:12.09	328.23	15.16	-29.9	-33.3	12.5	1.01e-04	0	43	102	1048576	20	5281
2026-01-05 11:26:13.10	328.33	15.07	-30.0	-33.5	12.2	1.54e-04	0	44	102	1048576	20	5374
2026-01-05 11:26:14.10	328.43	14.97	-29.8	-33.0	12.6	9.61e-05	0	43	102	1048576	20	5185
2026-01-05 11:26:15.10	328.52	14.88	-29.7	-32.6	12.9	4.95e-05	0	44	102	1048576	20	5023
2026-01-05 11:26:16.11	328.62	14.79	-29.6	-32.3	13.1	4.04e-05	0	44	102	1048576	20	4931
2026-01-05 11:26:17.11	328.72	14.69	-29.5	-32.0	13.3	2.21e-05	0	44	102	1048576	20	4818
2026-01-05 11:26:18.12	328.81	14.60	-29.6	-32.3	13.1	3.73e-05	0	44	102	1048576	20	4926
2026-01-05 11:26:19.13	328.91	14.50	-29.6	-32.2	13.1	2.89e-05	0	44	102	1048576	20	4880
2026-01-05 11:26:20.13	329.00	14.41	-29.7	-32.6	12.9	3.81e-05	0	44	102	1048576	20	5012
2026-01-05 11:26:21.14	329.10	14.32	-29.8	-32.8	12.7	6.56e-05	0	43	102	1048576	20	5126
2026-01-05 11:26:22.15	329.19	14.22	-29.7	-32.6	12.9	5.87e-05	0	43	102	1048576	20	5035
2026-01-05 11:26:23.16	329.29	14.13	-29.7	-32.6	12.9	5.95e-05	0	43	102	1048576	20	5044
2026-01-05 11:26:24.17	329.38	14.04	-29.7	-32.8	12.7	7.01e-05	0	44	102	1048576	20	5107
2026-01-05 11:26:25.18	329.47	13.95	-29.8	-32.9	12.7	7.17e-05	0	44	102	1048576	20	5148
2026-01-05 11:26:26.18	329.56	13.86	-30.0	-33.4	12.3	1.09e-04	0	44	102	1048576	20	5367
2026-01-05 11:26:27.19	329.65	13.77	-29.9	-33.4	12.4	1.65e-04	0	43	102	1048576	20	5339
2026-01-05 11:26:28.20	329.74	13.67	-30.0	-33.7	12.1	2.17e-04	0	44	102	1048576	20	5464
2026-01-05 11:26:29.21	329.83	13.58	-30.1	-33.7	12.0	2.45e-04	0	43	102	1048576	20	5485
2026-01-05 11:26:30.21	329.92	13.49	-30.1	-33.8	12.0	2.78e-04	0	43	102	1048576	20	5512
2026-01-05 11:26:31.22	330.01	13.40	-30.1	-33.9	11.9	4.04e-04	0	43	102	1048576	20	5585
2026-01-05 11:26:32.23	330.10	13.31	-30.0	-33.7	12.1	3.20e-04	0	44	102	1048576	20	5463
2026-01-05 11:26:33.23	330.19	13.22	-30.0	-33.5	12.2	2.72e-04	0	43	102	1048576	20	5416
2026-01-05 11:26:34.24	330.27	13.13	-29.9	-33.3	12.3	1.91e-04	0	43	102	1048576	20	5332
2026-01-05 11:26:35.25	330.36	13.04	-29.9	-33.2	12.4	1.60e-04	0	43	102	1048576	20	5290
2026-01-05 11:26:36.26	330.45	12.96	-29.9	-33.2	12.4	1.72e-04	0	44	102	1048576	20	5269
2026-01-05 11:26:37.26	330.53	12.87	-29.9	-33.1	12.5	1.30e-04	0	44	102	1048576	20	5240
2026-01-05 11:26:38.27	330.62	12.78	-29.8	-32.9	12.6	8.85e-05	0	43	102	1048576	20	5161
2026-01-05 11:26:39.27	330.70	12.69	-29.8	-33.1	12.5	1.16e-04	0	43	102	1048576	20	5230
2026-01-05 11:26:40.28	330.79	12.60	-29.8	-33.1	12.4	1.20e-04	0	43	102	1048576	20	5220
2026-01-05 11:26:41.29	330.87	12.52	-29.8	-33.1	12.4	1.12e-04	0	43	102	1048576	20	5227
2026-01-05 11:26:42.30	330.95	12.43	-29.8	-33.0	12.5	1.56e-04	0	43	102	1048576	20	5200
2026-01-05 11:26:43.31	331.04	12.34	-29.8	-33.1	12.5	1.12e-04	0	44	102	1048576	20	5224
2026-01-05 11:26:44.31	331.12	12.26	-29.8	-32.9	12.6	1.11e-04	0	43	102	1048576	20	5161
2026-01-05 11:26:45.32	331.20	12.17	-29.8	-32.9	12.6	1.30e-04	0	43	102	1048576	20	5162
2026-01-05 11:26:46.33	331.28	12.08	-29.7	-32.8	12.6	7.93e-05	0	43	102	1048576	20	5133
2026-01-05 11:26:47.34	331.37	12.00	-29.7	-32.7	12.7	7.93e-05	0	43	102	1048576	20	5098
2026-01-05 11:26:48.34	331.45	11.91	-29.7	-32.8	12.6	9.53e-05	0	44	102	1048576	20	5116
2026-01-05 11:26:49.35	331.53	11.83	-29.8	-33.1	12.4	1.27e-04	0	44	102	1048576	20	5253
2026-01-05 11:26:50.35	331.61	11.74	-29.8	-33.1	12.4	1.16e-04	0	44	102	1048576	20	5235
2026-01-05 11:26:51.36	331.68	11.66	-29.9	-33.2	12.3	1.69e-04	0	44	102	1048576	20	5279
2026-01-05 11:26:52.37	331.76	11.57	-29.9	-33.4	12.1	1.67e-04	0	43	102	1048576	20	5366
2026-01-05 11:26:53.36	331.84	11.49	-30.0	-33.5	12.1	2.50e-04	0	43	102	1048576	20	5396
2026-01-05 11:26:54.37	331.92	11.40	-30.0	-33.7	11.9	3.43e-04	0	44	102	1048576	20	5491
2026-01-05 11:26:55.38	332.00	11.32	-30.0	-33.8	11.9	3.43e-04	0	43	102	1048576	20	5521
2026-01-05 11:26:56.39	332.07	11.24	-30.1	-33.9	11.8	5.39e-04	0	43	102	1048576	20	5580
2026-01-05 11:26:57.39	332.15	11.15	-30.1	-33.9	11.7	4.55e-04	0	44	102	1048576	20	5587
2026-01-05 11:26:58.40	332.23	11.07	-30.2	-34.2	11.5	6.89e-04	0	44	102	1048576	20	5709
2026-01-05 11:26:59.40	332.30	10.99	-30.0	-33.7	11.9	6.11e-04	0	43	102	1048576	20	5503
2026-01-05 11:27:00.41	332.38	10.90	-30.1	-33.9	11.8	4.54e-04	0	43	102	1048576	20	5596
2026-01-05 11:27:01.42	332.45	10.82	-30.1	-34.0	11.7	6.11e-04	0	43	102	1048576	20	5632
2026-01-05 11:27:02.43	332.53	10.74	-30.1	-33.8	11.8	5.13e-04	0	44	102	1048576	20	5547
2026-01-05 11:27:03.44	332.60	10.66	-30.1	-33.9	11.7	6.32e-04	0	44	102	1048576	20	5601
2026-01-05 11:27:04.44	332.68	10.58	-30.2	-34.2	11.5	6.45e-04	0	44	102	1048576	20	5721
2026-01-05 11:27:05.45	332.75	10.49	-30.2	-34.2	11.5	1.01e-03	0	44	102	1048576	20	5721
2026-01-05 11:27:06.46	332.83	10.41	-30.1	-34.1	11.6	6.85e-04	0	44	102	1048576	20	5672
2026-01-05 11:27:07.47	332.90	10.33	-30.1	-33.9	11.7	5.42e-04	0	44	102	1048576	20	5611
2026-01-05 11:27:08.47	332.97	10.25	-30.2	-34.4	11.3	7.69e-04	0	43	102	1048576	20	5833
2026-01-05 11:27:09.48	333.04	10.17	-30.2	-34.4	11.3	1.40e-03	0	43	102	1048576	20	5833
2026-01-05 11:27:10.49	333.11	10.09	-30.2	-34.4	11.4	8.91e-04	0	43	102	1048576	20	5802
2026-01-05 11:27:11.49	333.19	10.01	-30.2	-34.2	11.4	1.17e-03	0	43	102	1048576	20	5744
2026-01-05 11:27:12.50	333.26	9.93	-30.2	-34.3	11.4	1.06e-03	0	44	102	1048576	20	5766
2026-01-05 11:27:13.51	333.33	9.85	-30.3	-34.6	11.2	1.24e-03	0	44	102	1048576	20	5913
2026-01-05 11:27:14.52	333.40	9.77	-30.3	-34.7	11.1	1.77e-03	0	43	102	1048576	20	5971
2026-01-05 11:27:15.52	333.47	9.69	-30.3	-34.5	11.2	1.44e-03	0	44	102	1048576	20	5886
2026-01-05 11:27:16.53	333.54	9.61	-30.2	-34.5	11.2	1.41e-03	0	44	102	1048576	20	5881
2026-01-05 11:27:17.54	333.61	9.53	-30.3	-34.7	11.2	1.74e-03	0	44	102	1048576	20	5955
2026-01-05 11:27:18.54	333.68	9.46	-30.2	-34.5	11.2	1.56e-03	0	44	102	1048576	20	5860
2026-01-05 11:27:19.55	333.74	9.38	-30.3	-34.6	11.1	1.33e-03	0	44	102	1048576	20	5940
2026-01-05 11:27:20.55	333.81	9.30	-30.4	-34.9	10.9	1.83e-03	0	44	102	1048576	20	6057
2026-01-05 11:27:21.56	333.88	9.22	-30.4	-35.0	10.8	2.94e-03	0	44	102	1048576	20	6118
2026-01-05 11:27:22.57	333.95	9.14	-30.4	-35.2	10.7	2.32e-03	0	44	102	1048576	20	6200
2026-01-05 11:27:23.57	334.01	9.07	-30.4	-35.2	10.7	3.42e-03	0	43	102	1048576	20	6214
2026-01-05 11:27:24.58	334.08	8.99	-30.4	-35.0	10.8	2.42e-03	0	43	102	1048576	20	6102
2026-01-05 11:27:25.59	334.15	8.91	-30.3	-34.7	11.0	1.90e-03	0	43	102	1048576	20	6001
2026-01-05 11:27:26.59	334.21	8.83	-30.3	-34.7	11.0	1.92e-03	0	44	102	1048576	20	5994
2026-01-05 11:27:27.59	334.28	8.76	-30.4	-35.0	10.8	2.38e-03	0	44	102	1048576	20	6129
2026-01-05 11:27:28.59	334.35	8.68	-30.4	-35.0	10.7	2.74e-03	0	44	102	1048576	20	6146
2026-01-05 11:27:29.60	334.41	8.61	-30.5	-35.3	10.5	3.20e-03	0	44	102	1048576	20	6281
2026-01-05 11:27:30.60	334.48	8.53	-30.4	-35.2	10.6	3.51e-03	0	44	102	1048576	20	6245
2026-01-05 11:27:31.61	334.54	8.45	-30.5	-35.3	10.5	3.60e-03	0	44	102	1048576	20	6303
2026-01-05 11:27:32.62	334.60	8.38	-30.5	-35.3	10.5	4.24e-03	0	43	102	1048576	20	6281
2026-01-05 11:27:33.63	334.67	8.30	-30.5	-35.1	10.3	4.46e-03	0	43	102	1048576	21	6086
2026-01-05 11:27:34.64	334.73	8.23	-30.6	-35.4	10.0	6.84e-03	0	44	102	1048576	21	6238
2026-01-05 11:27:35.65	334.80	8.15	-30.6	-35.4	9.9	1.01e-02	0	44	102	1048576	21	6276
2026-01-05 11:27:36.66	334.86	8.08	-30.5	-35.2	10.2	6.69e-03	0	43	102	1048576	21	6129
2026-01-05 11:27:37.67	334.92	8.00	-30.5	-35.1	10.2	6.13e-03	0	43	102	1048576	21	6108
2026-01-05 11:27:38.68	334.99	7.93	-30.5	-35.1	10.2	5.39e-03	0	44	102	1048576	21	6106
2026-01-05 11:27:39.68	335.05	7.85	-30.5	-35.1	10.3	6.35e-03	0	43	102	1048576	21	6076
2026-01-05 11:27:40.69	335.11	7.78	-30.5	-35.0	10.2	6.46e-03	0	44	102	1048576	21	6074
2026-01-05 11:27:41.70	335.17	7.70	-30.6	-35.3	10.0	6.28e-03	0	44	102	1048576	21	6221
2026-01-05 11:27:42.71	335.23	7.63	-30.6	-35.3	10.0	8.01e-03	0	44	102	1048576	21	6209
2026-01-05 11:27:43.72	335.29	7.56	-30.6	-35.3	10.0	7.28e-03	0	43	102	1048576	21	6231
2026-01-05 11:27:44.72	335.35	7.48	-30.5	-35.3	10.0	6.71e-03	0	44	102	1048576	21	6194
2026-01-05 11:27:45.72	335.41	7.41	-30.6	-35.3	10.0	8.17e-03	0	43	102	1048576	21	6226
2026-01-05 11:27:46.72	335.47	7.34	-30.6	-35.5	9.8	9.74e-03	0	44	102	1048576	21	6301
2026-01-05 11:27:47.74	335.53	7.27	-30.6	-35.7	9.7	9.97e-03	0	44	102	1048576	21	6410
2026-01-05 11:27:48.74	335.59	7.19	-30.7	-35.8	9.6	1.38e-02	0	43	102	1048576	21	6464
2026-01-05 11:27:49.75	335.65	7.12	-30.6	-35.6	9.7	1.14e-02	0	44	102	1048576	21	6383
