passes_logs/2026/01/05/R2M6_AANII_01/R2M6_AANII_01__20260105_034954_FENGYUN_3E_rec.log

#Pass ID: 20260105_034954_FENGYUN 3E
#Satellite: FENGYUN 3E
#Configuration: FENGYUN 3E
#almurnet v.1.7.20240730
#Start time: 2026-01-05 03:54:42

#Version: 2.2.20231116
#Station: R2M6_AANII_01
#Location: 30.233357 lon 59.946436 lat
#TLE: 1 49008U 21062A   26004.29457719  .00000106  00000+0  70678-4 0  9996
#TLE: 2 49008  98.7471   9.5487 0001503 159.9821 200.1414 14.19883545233329

#Time	Az	El	Level	Level2	SNR	BER	BlckErr	Temp	State	Recorded	gain1	gain2
2026-01-05 03:54:42.04	65.02	41.77	-32.6	-43.8	3.8	8.46e-01	0	43	0	0	25	12984
2026-01-05 03:54:43.04	65.43	41.92	-33.6	-43.5	3.8	8.45e-01	0	43	104	0	26	11310
2026-01-05 03:54:44.04	65.84	42.07	-33.6	-43.1	3.8	8.45e-01	0	43	104	0	27	10752
2026-01-05 03:54:45.05	66.27	42.23	-33.7	-43.2	3.8	8.46e-01	0	43	104	0	27	10789
2026-01-05 03:54:46.06	66.69	42.38	-33.7	-43.3	3.8	8.47e-01	0	44	104	0	27	10833
2026-01-05 03:54:47.07	67.12	42.53	-33.7	-43.3	3.8	8.46e-01	0	44	104	0	27	10814
2026-01-05 03:54:48.07	67.56	42.67	-33.7	-43.3	3.8	8.47e-01	0	44	104	0	27	10883
2026-01-05 03:54:49.08	67.99	42.82	-33.8	-43.4	3.8	8.47e-01	0	44	104	0	27	10901
2026-01-05 03:54:50.09	68.44	42.97	-33.8	-43.4	3.8	8.46e-01	0	44	104	0	27	10918
2026-01-05 03:54:51.09	68.88	43.11	-33.8	-43.4	3.8	8.45e-01	0	44	104	0	27	10898
2026-01-05 03:54:52.10	69.33	43.25	-33.7	-43.3	3.8	8.46e-01	0	44	104	0	27	10882
2026-01-05 03:54:53.10	69.78	43.39	-33.7	-43.4	3.8	8.46e-01	0	44	104	0	27	10888
2026-01-05 03:54:54.11	70.24	43.53	-33.7	-43.3	3.8	8.46e-01	0	44	104	0	27	10820
2026-01-05 03:54:55.11	70.70	43.67	-33.7	-43.2	3.8	8.46e-01	0	44	104	0	27	10778
2026-01-05 03:54:56.12	71.16	43.81	-33.7	-43.2	3.8	8.45e-01	0	44	104	0	27	10748
2026-01-05 03:54:57.13	71.64	43.95	-33.7	-43.2	3.8	8.47e-01	0	44	104	0	27	10784
2026-01-05 03:54:58.14	72.11	44.08	-33.7	-43.2	3.8	8.47e-01	0	44	104	0	27	10774
2026-01-05 03:54:59.15	72.59	44.21	-33.7	-43.3	3.8	8.45e-01	0	44	104	0	27	10832
2026-01-05 03:55:00.15	73.07	44.34	-33.7	-43.3	3.8	8.46e-01	0	44	104	0	27	10853
2026-01-05 03:55:01.16	73.55	44.47	-33.7	-43.3	3.8	8.45e-01	0	44	104	0	27	10829
2026-01-05 03:55:02.17	74.04	44.60	-33.7	-43.2	3.8	8.47e-01	0	44	104	0	27	10789
2026-01-05 03:55:03.17	74.53	44.72	-33.7	-43.2	3.8	8.46e-01	0	44	104	0	27	10802
2026-01-05 03:55:04.18	75.03	44.85	-33.6	-43.1	3.8	8.46e-01	0	44	104	0	27	10723
2026-01-05 03:55:05.19	75.53	44.97	-33.6	-43.0	3.8	8.46e-01	0	44	104	0	27	10652
2026-01-05 03:55:06.20	76.04	45.09	-33.5	-43.3	3.8	8.45e-01	0	44	104	0	26	11058
2026-01-05 03:55:07.20	76.54	45.20	-33.5	-43.2	3.8	8.46e-01	0	44	104	0	26	11072
2026-01-05 03:55:08.21	77.06	45.32	-33.5	-43.2	3.8	8.46e-01	0	44	104	0	26	11104
2026-01-05 03:55:09.22	77.57	45.43	-33.4	-43.2	3.8	8.45e-01	0	44	104	0	26	11080
2026-01-05 03:55:10.23	78.09	45.54	-33.4	-42.9	3.8	8.45e-01	0	44	104	0	26	10756
2026-01-05 03:55:11.24	78.62	45.65	-33.4	-42.8	3.8	8.46e-01	0	44	104	0	26	10678
2026-01-05 03:55:12.24	79.14	45.76	-33.3	-42.7	3.8	8.46e-01	0	44	104	0	26	10561
2026-01-05 03:55:13.25	79.67	45.86	-33.3	-42.6	3.8	8.46e-01	0	44	104	0	26	10518
2026-01-05 03:55:14.26	80.21	45.96	-33.3	-42.8	3.8	8.46e-01	0	44	104	0	26	10722
2026-01-05 03:55:15.27	80.74	46.06	-33.4	-43.0	3.8	8.46e-01	0	44	104	0	26	10936
2026-01-05 03:55:16.27	81.28	46.16	-33.4	-43.1	3.8	8.47e-01	0	44	104	0	26	10990
2026-01-05 03:55:17.28	81.83	46.25	-33.3	-42.9	3.8	8.46e-01	0	44	104	0	26	10784
2026-01-05 03:55:18.29	82.37	46.34	-33.3	-42.5	3.8	8.45e-01	0	44	104	0	26	10387
2026-01-05 03:55:19.29	82.92	46.43	-33.3	-42.4	3.8	8.46e-01	0	44	104	0	26	10269
2026-01-05 03:55:20.29	83.47	46.52	-33.3	-42.4	3.8	8.47e-01	0	44	104	0	26	10322
2026-01-05 03:55:21.30	84.02	46.60	-33.3	-42.7	3.8	8.46e-01	0	44	104	0	26	10658
2026-01-05 03:55:22.31	84.58	46.68	-33.4	-43.0	3.8	8.46e-01	0	44	104	0	26	10958
2026-01-05 03:55:23.31	85.14	46.76	-33.3	-42.3	3.8	8.46e-01	0	44	104	0	26	10178
2026-01-05 03:55:24.32	85.71	46.83	-33.2	-41.5	3.8	8.46e-01	0	44	104	0	26	9397
2026-01-05 03:55:25.33	86.28	46.90	-33.1	-41.3	3.8	8.46e-01	0	44	104	0	26	9213
2026-01-05 03:55:26.34	86.85	46.97	-33.2	-41.6	3.8	8.45e-01	0	44	104	0	26	9467
2026-01-05 03:55:27.35	87.42	47.04	-33.2	-41.7	3.8	8.46e-01	0	44	104	0	26	9609
2026-01-05 03:55:28.35	87.99	47.10	-33.1	-41.3	3.8	8.46e-01	0	44	104	0	26	9216
2026-01-05 03:55:29.37	88.57	47.16	-32.9	-39.9	3.9	8.45e-01	0	44	104	0	26	8084
2026-01-05 03:55:30.38	89.15	47.22	-32.3	-37.4	4.2	8.32e-01	0	44	104	0	25	6447
2026-01-05 03:55:31.38	89.73	47.28	-32.6	-38.3	4.5	8.01e-01	0	44	0	0	25	7004
2026-01-05 03:55:32.39	90.31	47.33	-32.7	-39.1	4.0	8.46e-01	0	44	104	0	25	7518
2026-01-05 03:55:33.39	90.89	47.38	-28.2	-29.0	12.3	3.84e-03	0	44	104	0	17	3958
2026-01-05 03:55:34.40	91.48	47.42	-24.8	-25.0	16.3	0.00e+00	0	44	102	1048576	10	3696
2026-01-05 03:55:35.41	92.07	47.46	-24.3	-24.4	16.9	0.00e+00	0	44	102	1048576	9	3658
2026-01-05 03:55:36.42	92.66	47.50	-25.7	-26.5	15.2	0.00e+00	0	44	102	1048576	11	3941
2026-01-05 03:55:37.43	93.25	47.54	-25.5	-26.0	15.5	0.00e+00	0	44	102	1048576	11	3826
2026-01-05 03:55:38.43	93.84	47.57	-25.5	-25.9	15.6	0.00e+00	0	44	102	1048576	11	3803
2026-01-05 03:55:39.44	94.44	47.60	-25.4	-25.9	15.6	0.00e+00	0	44	102	1048576	11	3783
2026-01-05 03:55:40.45	95.03	47.62	-24.8	-25.1	16.3	0.00e+00	0	44	102	1048576	10	3710
2026-01-05 03:55:41.46	95.63	47.65	-24.4	-24.7	16.8	0.00e+00	0	44	102	1048576	9	3716
2026-01-05 03:55:42.46	96.22	47.67	-24.1	-24.0	17.1	0.00e+00	0	44	102	1048576	9	3573
2026-01-05 03:55:43.46	96.81	47.68	-24.0	-23.8	17.2	0.00e+00	0	44	102	1048576	9	3531
2026-01-05 03:55:44.47	97.41	47.69	-24.0	-23.9	17.2	0.00e+00	0	44	102	1048576	9	3547
2026-01-05 03:55:45.48	98.01	47.70	-24.1	-24.0	17.2	0.00e+00	0	44	102	1048576	9	3560
2026-01-05 03:55:46.49	98.61	47.71	-24.0	-24.3	17.3	0.00e+00	0	44	102	1048576	8	3723
2026-01-05 03:55:47.50	99.21	47.71	-23.8	-23.9	16.8	0.00e+00	0	44	102	1048576	8	3648
2026-01-05 03:55:48.50	99.81	47.71	-23.9	-24.2	17.1	1.10e-06	0	44	102	1048576	8	3698
2026-01-05 03:55:49.51	100.41	47.71	-23.9	-24.1	17.3	0.00e+00	0	44	102	1048576	8	3699
2026-01-05 03:55:50.52	101.00	47.70	-23.9	-24.2	17.3	0.00e+00	0	44	102	1048576	8	3706
2026-01-05 03:55:51.52	101.60	47.69	-24.1	-24.5	17.1	0.00e+00	0	44	102	1048576	8	3784
2026-01-05 03:55:52.53	102.20	47.67	-24.1	-24.5	17.1	0.00e+00	0	44	102	1048576	8	3776
2026-01-05 03:55:53.53	102.79	47.66	-24.1	-24.6	17.1	0.00e+00	0	44	102	1048576	8	3798
2026-01-05 03:55:54.54	103.39	47.64	-24.0	-24.4	17.2	0.00e+00	0	44	102	1048576	8	3747
2026-01-05 03:55:55.54	103.98	47.61	-24.0	-24.4	17.2	0.00e+00	0	44	102	1048576	8	3758
2026-01-05 03:55:56.54	104.57	47.59	-24.0	-24.3	17.2	0.00e+00	0	44	102	1048576	8	3732
2026-01-05 03:55:57.55	105.16	47.56	-24.0	-24.3	17.3	0.00e+00	0	44	102	1048576	8	3729
2026-01-05 03:55:58.56	105.76	47.52	-24.1	-24.6	17.1	0.00e+00	0	44	102	1048576	8	3811
2026-01-05 03:55:59.57	106.35	47.49	-24.0	-24.4	17.2	0.00e+00	0	44	102	1048576	8	3748
2026-01-05 03:56:00.58	106.94	47.45	-24.0	-24.3	17.2	0.00e+00	0	44	102	1048576	8	3740
2026-01-05 03:56:01.59	107.53	47.40	-23.9	-24.2	17.3	0.00e+00	0	44	102	1048576	8	3714
2026-01-05 03:56:02.59	108.11	47.36	-23.9	-24.2	17.3	0.00e+00	0	44	102	1048576	8	3712
2026-01-05 03:56:03.60	108.70	47.31	-23.8	-24.0	17.4	0.00e+00	0	44	102	1048576	8	3659
2026-01-05 03:56:04.61	109.28	47.25	-23.8	-24.0	17.4	0.00e+00	0	44	102	1048576	8	3659
2026-01-05 03:56:05.62	109.86	47.20	-24.0	-24.4	17.2	0.00e+00	0	44	102	1048576	8	3756
2026-01-05 03:56:06.63	110.44	47.14	-24.2	-24.7	17.0	0.00e+00	0	44	102	1048576	8	3839
2026-01-05 03:56:07.63	111.01	47.08	-24.1	-24.5	17.1	0.00e+00	0	44	102	1048576	8	3774
2026-01-05 03:56:08.64	111.59	47.01	-24.1	-24.5	17.1	0.00e+00	0	44	102	1048576	8	3785
2026-01-05 03:56:09.64	112.16	46.95	-24.2	-24.8	17.0	0.00e+00	0	44	102	1048576	8	3846
2026-01-05 03:56:10.65	112.73	46.88	-24.3	-25.0	16.9	0.00e+00	0	44	102	1048576	8	3896
2026-01-05 03:56:11.66	113.29	46.80	-24.2	-24.7	17.0	0.00e+00	0	44	102	1048576	8	3832
2026-01-05 03:56:12.66	113.85	46.73	-23.9	-24.2	17.2	0.00e+00	0	44	102	1048576	8	3703
2026-01-05 03:56:13.68	114.42	46.65	-23.8	-23.9	17.4	0.00e+00	0	44	102	1048576	8	3639
2026-01-05 03:56:14.68	114.98	46.57	-23.9	-24.1	17.3	0.00e+00	0	44	102	1048576	8	3688
2026-01-05 03:56:15.69	115.53	46.48	-23.8	-23.9	17.5	0.00e+00	0	44	102	1048576	8	3650
2026-01-05 03:56:16.69	116.08	46.39	-23.7	-23.7	17.5	0.00e+00	0	44	102	1048576	8	3590
2026-01-05 03:56:17.70	116.63	46.30	-23.7	-23.7	17.5	0.00e+00	0	44	102	1048576	8	3595
2026-01-05 03:56:18.71	117.18	46.21	-23.6	-23.5	17.7	0.00e+00	0	44	102	1048576	8	3545
2026-01-05 03:56:19.71	117.72	46.12	-23.5	-23.2	17.8	0.00e+00	0	44	102	1048576	8	3495
2026-01-05 03:56:20.72	118.26	46.02	-23.5	-23.7	17.8	0.00e+00	0	44	102	1048576	7	3694
2026-01-05 03:56:21.73	118.80	45.92	-23.5	-23.7	17.7	0.00e+00	0	44	102	1048576	7	3700
2026-01-05 03:56:22.73	119.33	45.82	-23.6	-23.9	17.6	0.00e+00	0	44	102	1048576	7	3743
2026-01-05 03:56:23.74	119.86	45.71	-23.6	-24.1	17.6	0.00e+00	0	44	102	1048576	7	3778
2026-01-05 03:56:24.74	120.38	45.60	-23.7	-24.3	17.4	0.00e+00	0	44	102	1048576	7	3827
2026-01-05 03:56:25.75	120.90	45.49	-23.8	-24.4	17.4	0.00e+00	0	44	102	1048576	7	3849
2026-01-05 03:56:26.76	121.42	45.38	-23.7	-24.2	17.5	0.00e+00	0	44	102	1048576	7	3820
2026-01-05 03:56:27.76	121.94	45.27	-23.7	-24.1	17.5	0.00e+00	0	44	102	1048576	7	3792
2026-01-05 03:56:28.77	122.45	45.15	-23.8	-24.5	17.3	0.00e+00	0	44	102	1048576	7	3880
2026-01-05 03:56:29.78	122.96	45.03	-23.9	-24.7	17.2	0.00e+00	0	44	102	1048576	7	3925
2026-01-05 03:56:30.79	123.46	44.91	-24.2	-24.7	17.0	0.00e+00	0	44	102	1048576	8	3817
2026-01-05 03:56:31.79	123.96	44.79	-24.3	-24.9	16.9	0.00e+00	0	44	102	1048576	8	3871
2026-01-05 03:56:32.79	124.45	44.67	-24.1	-24.6	17.1	0.00e+00	0	44	102	1048576	8	3806
2026-01-05 03:56:33.80	124.95	44.54	-24.1	-24.4	17.1	0.00e+00	0	44	102	1048576	8	3760
2026-01-05 03:56:34.80	125.43	44.41	-24.0	-24.3	17.2	0.00e+00	0	44	102	1048576	8	3735
2026-01-05 03:56:35.81	125.92	44.28	-24.2	-24.8	17.0	0.00e+00	0	44	102	1048576	8	3838
2026-01-05 03:56:36.82	126.40	44.15	-24.1	-24.5	17.1	0.00e+00	0	44	102	1048576	8	3774
2026-01-05 03:56:37.83	126.88	44.02	-24.3	-25.1	16.8	0.00e+00	0	44	102	1048576	8	3912
2026-01-05 03:56:38.83	127.35	43.88	-24.2	-24.9	16.9	0.00e+00	0	44	102	1048576	8	3872
2026-01-05 03:56:39.84	127.82	43.75	-24.1	-24.7	17.0	0.00e+00	0	44	102	1048576	8	3822
2026-01-05 03:56:40.83	128.28	43.61	-24.0	-24.5	17.1	0.00e+00	0	44	102	1048576	8	3773
2026-01-05 03:56:41.83	128.73	43.47	-23.9	-24.1	17.3	0.00e+00	0	44	102	1048576	8	3694
2026-01-05 03:56:42.84	129.19	43.33	-23.9	-24.2	17.2	0.00e+00	0	44	102	1048576	8	3713
2026-01-05 03:56:43.85	129.65	43.19	-23.6	-23.5	17.6	0.00e+00	0	44	102	1048576	8	3546
2026-01-05 03:56:44.85	130.09	43.04	-23.3	-23.4	17.9	0.00e+00	0	44	102	1048576	7	3622
2026-01-05 03:56:45.86	130.54	42.90	-23.3	-23.2	18.0	0.00e+00	0	44	102	1048576	7	3593
2026-01-05 03:56:46.87	130.98	42.75	-23.5	-23.7	17.7	0.00e+00	0	44	102	1048576	7	3705
2026-01-05 03:56:47.88	131.42	42.60	-23.5	-23.7	17.7	0.00e+00	0	44	102	1048576	7	3701
2026-01-05 03:56:48.89	131.85	42.45	-23.7	-24.1	17.5	0.00e+00	0	44	102	1048576	7	3796
2026-01-05 03:56:49.89	132.28	42.30	-23.8	-24.3	17.4	0.00e+00	0	44	102	1048576	7	3842
2026-01-05 03:56:50.90	132.71	42.15	-24.1	-24.6	17.0	0.00e+00	0	44	102	1048576	8	3810
2026-01-05 03:56:51.91	133.13	42.00	-24.1	-24.5	17.0	0.00e+00	0	44	102	1048576	8	3783
2026-01-05 03:56:52.91	133.55	41.85	-23.9	-24.1	17.3	0.00e+00	0	44	102	1048576	8	3690
2026-01-05 03:56:53.92	133.96	41.69	-23.7	-23.8	17.5	0.00e+00	0	44	102	1048576	8	3611
2026-01-05 03:56:54.92	134.37	41.54	-23.6	-23.6	17.6	0.00e+00	0	44	102	1048576	8	3570
2026-01-05 03:56:55.93	134.77	41.38	-23.6	-23.5	17.6	0.00e+00	0	44	102	1048576	8	3552
2026-01-05 03:56:56.93	135.17	41.22	-23.6	-23.4	17.7	0.00e+00	0	44	102	1048576	8	3538
2026-01-05 03:56:57.94	135.57	41.06	-23.7	-23.6	17.5	0.00e+00	0	44	102	1048576	8	3589
2026-01-05 03:56:58.95	135.97	40.90	-23.6	-23.5	17.6	0.00e+00	0	44	102	1048576	8	3560
2026-01-05 03:56:59.95	136.36	40.75	-23.5	-23.8	17.5	0.00e+00	0	44	102	1048576	7	3725
2026-01-05 03:57:00.96	136.74	40.58	-23.3	-23.2	17.9	0.00e+00	0	44	102	1048576	7	3597
2026-01-05 03:57:01.97	137.13	40.42	-23.3	-23.4	17.8	0.00e+00	0	44	102	1048576	7	3634
2026-01-05 03:57:02.98	137.51	40.26	-23.2	-23.1	18.0	0.00e+00	0	44	102	1048576	7	3557
2026-01-05 03:57:03.98	137.88	40.10	-23.3	-23.8	17.9	0.00e+00	0	44	102	1048576	6	3819
2026-01-05 03:57:04.99	138.25	39.94	-23.3	-23.8	17.9	0.00e+00	0	44	102	1048576	6	3825
2026-01-05 03:57:06.00	138.62	39.77	-23.5	-24.3	17.7	0.00e+00	0	44	102	1048576	6	3932
2026-01-05 03:57:07.01	138.99	39.61	-23.6	-24.5	17.5	0.00e+00	0	44	102	1048576	6	3992
2026-01-05 03:57:08.02	139.35	39.44	-23.7	-24.2	17.4	0.00e+00	0	44	102	1048576	7	3818
2026-01-05 03:57:09.02	139.71	39.28	-23.8	-24.3	17.4	0.00e+00	0	44	102	1048576	7	3848
2026-01-05 03:57:10.02	140.06	39.11	-23.4	-23.7	17.6	0.00e+00	0	44	102	1048576	7	3694
2026-01-05 03:57:11.02	140.40	38.95	-23.3	-23.4	17.8	0.00e+00	0	44	102	1048576	7	3645
2026-01-05 03:57:12.02	140.75	38.78	-23.3	-23.4	17.8	0.00e+00	0	44	102	1048576	7	3638
2026-01-05 03:57:13.03	141.09	38.62	-23.6	-24.0	17.6	0.00e+00	0	44	102	1048576	7	3760
2026-01-05 03:57:14.04	141.43	38.45	-23.6	-24.0	17.5	0.00e+00	0	44	102	1048576	7	3770
2026-01-05 03:57:15.05	141.77	38.28	-23.4	-23.6	17.7	0.00e+00	0	44	102	1048576	7	3683
2026-01-05 03:57:16.05	142.10	38.11	-23.8	-24.4	17.3	0.00e+00	0	44	102	1048576	7	3864
2026-01-05 03:57:17.06	142.43	37.95	-23.7	-24.1	17.5	8.02e-04	0	44	102	1048576	7	3800
2026-01-05 03:57:18.06	142.76	37.78	-23.6	-24.1	17.4	0.00e+00	0	44	102	1048576	7	3791
2026-01-05 03:57:19.07	143.08	37.61	-23.7	-24.1	17.5	0.00e+00	0	44	102	1048576	7	3793
2026-01-05 03:57:20.07	143.40	37.44	-23.4	-23.6	17.8	0.00e+00	0	44	102	1048576	7	3670
2026-01-05 03:57:21.08	143.72	37.27	-23.3	-23.5	17.8	0.00e+00	0	44	102	1048576	7	3648
2026-01-05 03:57:22.09	144.03	37.10	-23.4	-23.6	17.7	0.00e+00	0	44	102	1048576	7	3674
2026-01-05 03:57:23.09	144.34	36.94	-23.2	-23.7	17.9	0.00e+00	0	44	102	1048576	6	3802
2026-01-05 03:57:24.10	144.65	36.77	-23.0	-23.3	18.1	8.47e-04	0	44	102	1048576	6	3713
2026-01-05 03:57:25.10	144.95	36.60	-23.1	-23.5	18.0	0.00e+00	0	44	102	1048576	6	3750
2026-01-05 03:57:26.11	145.25	36.43	-23.0	-23.2	18.2	9.46e-04	0	44	102	1048576	6	3689
2026-01-05 03:57:27.12	145.55	36.26	-23.0	-23.3	18.1	9.13e-04	0	44	102	1048576	6	3709
2026-01-05 03:57:28.13	145.84	36.09	-23.1	-23.5	18.1	0.00e+00	0	44	102	1048576	6	3752
2026-01-05 03:57:29.14	146.14	35.92	-23.3	-23.9	17.8	9.33e-04	0	44	102	1048576	6	3844
2026-01-05 03:57:30.15	146.43	35.76	-23.4	-24.1	17.7	9.86e-04	0	44	102	1048576	6	3901
2026-01-05 03:57:31.16	146.71	35.59	-23.5	-24.2	17.5	0.00e+00	0	44	102	1048576	6	3933
2026-01-05 03:57:32.16	146.99	35.42	-23.7	-24.2	17.4	1.18e-03	0	44	102	1048576	7	3809
2026-01-05 03:57:33.17	147.28	35.25	-23.9	-24.7	17.1	0.00e+00	0	44	102	1048576	7	3932
2026-01-05 03:57:34.17	147.55	35.08	-23.8	-24.5	17.2	0.00e+00	0	44	102	1048576	7	3877
2026-01-05 03:57:35.18	147.83	34.92	-23.7	-24.3	17.4	0.00e+00	0	44	102	1048576	7	3834
2026-01-05 03:57:36.19	148.10	34.75	-23.6	-24.1	17.4	1.33e-03	0	44	102	1048576	7	3791
2026-01-05 03:57:37.19	148.37	34.58	-23.6	-24.0	17.5	0.00e+00	0	44	102	1048576	7	3771
2026-01-05 03:57:38.20	148.63	34.41	-23.3	-23.4	17.8	0.00e+00	0	44	102	1048576	7	3645
2026-01-05 03:57:39.20	148.90	34.25	-23.4	-23.6	17.7	1.16e-03	0	44	102	1048576	7	3673
2026-01-05 03:57:40.20	149.15	34.08	-22.9	-22.6	18.2	0.00e+00	0	44	102	1048576	7	3462
2026-01-05 03:57:41.21	149.41	33.92	-22.7	-22.5	18.4	1.00e-03	0	44	102	1048576	6	3544
2026-01-05 03:57:42.22	149.67	33.75	-22.6	-22.9	18.5	1.10e-03	0	44	102	1048576	5	3736
2026-01-05 03:57:43.23	149.93	33.58	-22.6	-22.9	18.5	0.00e+00	0	44	102	1048576	5	3728
2026-01-05 03:57:44.23	150.17	33.42	-22.7	-23.2	18.3	1.21e-03	0	44	102	1048576	5	3790
2026-01-05 03:57:45.24	150.42	33.25	-23.0	-23.7	18.1	0.00e+00	0	44	102	1048576	5	3903
2026-01-05 03:57:46.24	150.67	33.09	-23.0	-23.8	18.0	0.00e+00	0	44	102	1048576	5	3944
2026-01-05 03:57:47.25	150.91	32.92	-23.4	-24.0	17.6	0.00e+00	0	44	102	1048576	6	3882
2026-01-05 03:57:48.26	151.15	32.76	-23.3	-23.9	17.7	0.00e+00	0	44	102	1048576	6	3843
2026-01-05 03:57:49.27	151.39	32.60	-23.3	-23.8	17.7	0.00e+00	0	44	102	1048576	6	3838
2026-01-05 03:57:50.27	151.63	32.43	-23.5	-24.3	17.6	0.00e+00	0	44	102	1048576	6	3934
2026-01-05 03:57:51.28	151.86	32.27	-23.6	-24.4	17.4	0.00e+00	0	44	102	1048576	6	3979
2026-01-05 03:57:52.29	152.10	32.11	-23.5	-24.3	17.5	0.00e+00	0	44	102	1048576	6	3953
2026-01-05 03:57:53.30	152.33	31.94	-23.7	-24.2	17.3	0.00e+00	0	44	102	1048576	7	3816
2026-01-05 03:57:54.30	152.55	31.78	-23.8	-24.4	17.2	0.00e+00	0	44	102	1048576	7	3874
2026-01-05 03:57:55.31	152.78	31.62	-23.7	-24.2	17.3	0.00e+00	0	44	102	1048576	7	3805
2026-01-05 03:57:56.31	153.00	31.46	-23.7	-24.2	17.3	0.00e+00	0	44	102	1048576	7	3827
2026-01-05 03:57:57.32	153.22	31.30	-23.6	-24.0	17.4	0.00e+00	0	44	102	1048576	7	3771
2026-01-05 03:57:58.33	153.44	31.14	-23.5	-23.8	17.5	0.00e+00	0	44	102	1048576	7	3728
2026-01-05 03:57:59.34	153.66	30.98	-23.4	-23.6	17.6	0.00e+00	0	44	102	1048576	7	3682
2026-01-05 03:58:00.35	153.87	30.82	-23.2	-23.7	17.8	0.00e+00	0	44	102	1048576	6	3809
2026-01-05 03:58:01.35	154.08	30.66	-23.2	-23.6	17.8	0.00e+00	0	44	102	1048576	6	3779
2026-01-05 03:58:02.36	154.29	30.50	-23.3	-23.9	17.7	0.00e+00	0	44	102	1048576	6	3850
2026-01-05 03:58:03.37	154.50	30.34	-23.4	-24.2	17.6	0.00e+00	0	44	102	1048576	6	3910
2026-01-05 03:58:04.38	154.71	30.18	-23.6	-24.0	17.4	1.10e-06	0	44	102	1048576	7	3768
2026-01-05 03:58:05.38	154.91	30.03	-23.5	-23.8	17.5	0.00e+00	0	44	102	1048576	7	3722
2026-01-05 03:58:06.39	155.12	29.87	-23.5	-23.8	17.5	0.00e+00	0	44	102	1048576	7	3727
2026-01-05 03:58:07.39	155.32	29.72	-23.5	-23.9	17.4	0.00e+00	0	44	102	1048576	7	3747
2026-01-05 03:58:08.40	155.51	29.56	-23.6	-24.0	17.4	0.00e+00	0	44	102	1048576	7	3776
2026-01-05 03:58:09.40	155.71	29.40	-23.6	-24.1	17.3	0.00e+00	0	44	102	1048576	7	3790
2026-01-05 03:58:10.41	155.91	29.25	-23.6	-24.1	17.3	0.00e+00	0	44	102	1048576	7	3800
2026-01-05 03:58:11.42	156.10	29.09	-23.7	-24.2	17.3	0.00e+00	0	44	102	1048576	7	3814
2026-01-05 03:58:12.43	156.29	28.94	-23.7	-24.2	17.3	0.00e+00	0	44	102	1048576	7	3814
2026-01-05 03:58:13.44	156.48	28.79	-23.6	-24.0	17.4	0.00e+00	0	44	102	1048576	7	3772
2026-01-05 03:58:14.45	156.67	28.63	-23.6	-24.0	17.4	0.00e+00	0	44	102	1048576	7	3772
2026-01-05 03:58:15.46	156.86	28.48	-23.6	-23.9	17.4	0.00e+00	0	44	102	1048576	7	3749
2026-01-05 03:58:16.46	157.04	28.33	-23.5	-23.7	17.5	0.00e+00	0	44	102	1048576	7	3708
2026-01-05 03:58:17.46	157.22	28.18	-23.4	-23.6	17.6	0.00e+00	0	44	102	1048576	7	3672
2026-01-05 03:58:18.47	157.40	28.03	-23.4	-23.6	17.6	0.00e+00	0	44	102	1048576	7	3691
2026-01-05 03:58:19.48	157.58	27.88	-23.4	-23.6	17.6	0.00e+00	0	44	102	1048576	7	3676
2026-01-05 03:58:20.49	157.76	27.73	-23.4	-24.0	17.6	0.00e+00	0	44	102	1048576	6	3875
2026-01-05 03:58:21.50	157.94	27.58	-23.3	-23.9	17.6	0.00e+00	0	44	102	1048576	6	3859
2026-01-05 03:58:22.50	158.11	27.43	-23.2	-23.7	17.8	0.00e+00	0	44	102	1048576	6	3809
2026-01-05 03:58:23.51	158.28	27.28	-23.3	-23.8	17.7	0.00e+00	0	44	102	1048576	6	3837
2026-01-05 03:58:24.52	158.46	27.13	-23.4	-24.2	17.5	0.00e+00	0	44	102	1048576	6	3919
2026-01-05 03:58:25.52	158.63	26.99	-23.5	-24.3	17.4	0.00e+00	0	44	102	1048576	6	3953
2026-01-05 03:58:26.53	158.79	26.84	-23.7	-24.1	17.2	0.00e+00	0	44	102	1048576	7	3801
2026-01-05 03:58:27.53	158.96	26.70	-23.9	-24.7	17.0	0.00e+00	0	44	102	1048576	7	3931
2026-01-05 03:58:28.54	159.13	26.55	-24.0	-24.8	16.9	0.00e+00	0	44	102	1048576	7	3949
2026-01-05 03:58:29.55	159.29	26.41	-23.8	-24.5	17.1	0.00e+00	0	44	102	1048576	7	3888
2026-01-05 03:58:30.56	159.45	26.26	-23.8	-24.3	17.1	0.00e+00	0	44	102	1048576	7	3853
2026-01-05 03:58:31.57	159.62	26.12	-23.8	-24.5	17.0	0.00e+00	0	44	102	1048576	7	3892
2026-01-05 03:58:32.57	159.77	25.97	-23.8	-24.6	17.0	0.00e+00	0	44	102	1048576	7	3905
2026-01-05 03:58:33.58	159.93	25.83	-23.8	-24.5	17.0	0.00e+00	0	44	102	1048576	7	3902
2026-01-05 03:58:34.59	160.09	25.69	-23.8	-24.4	17.0	0.00e+00	0	44	102	1048576	7	3868
2026-01-05 03:58:35.60	160.25	25.55	-23.1	-23.7	16.7	0.00e+00	0	44	102	1048576	7	3835
2026-01-05 03:58:36.60	160.40	25.41	-23.7	-24.2	16.9	0.00e+00	0	44	102	1048576	7	3816
2026-01-05 03:58:37.61	160.55	25.27	-23.6	-24.1	16.0	1.54e-03	0	44	102	1048576	7	3790
2026-01-05 03:58:38.62	160.70	25.13	-23.5	-23.9	17.3	0.00e+00	0	44	102	1048576	7	3754
2026-01-05 03:58:39.62	160.85	24.99	-23.6	-24.0	17.2	0.00e+00	0	44	102	1048576	7	3782
2026-01-05 03:58:40.62	161.00	24.85	-23.5	-23.8	17.3	1.43e-04	0	44	102	1048576	7	3727
2026-01-05 03:58:41.63	161.15	24.71	-23.5	-23.8	17.4	0.00e+00	0	44	102	1048576	7	3727
2026-01-05 03:58:42.64	161.30	24.57	-23.4	-23.6	17.4	0.00e+00	0	44	102	1048576	7	3693
2026-01-05 03:58:43.64	161.44	24.44	-23.5	-23.7	17.4	0.00e+00	0	44	102	1048576	7	3713
2026-01-05 03:58:44.65	161.59	24.30	-23.4	-24.2	17.5	1.50e-03	0	44	102	1048576	6	3928
2026-01-05 03:58:45.66	161.73	24.16	-23.5	-24.3	17.4	0.00e+00	0	44	102	1048576	6	3960
2026-01-05 03:58:46.66	161.87	24.03	-23.5	-24.3	17.4	0.00e+00	0	44	102	1048576	6	3954
2026-01-05 03:58:47.67	162.01	23.89	-23.4	-24.2	17.4	1.59e-03	0	44	102	1048576	6	3923
2026-01-05 03:58:48.68	162.15	23.76	-23.5	-24.3	17.4	0.00e+00	0	44	102	1048576	6	3952
2026-01-05 03:58:49.68	162.29	23.62	-23.6	-24.1	17.2	1.62e-03	0	44	102	1048576	7	3803
2026-01-05 03:58:50.69	162.42	23.49	-23.9	-24.6	17.0	1.65e-03	0	44	102	1048576	7	3915
2026-01-05 03:58:51.70	162.56	23.36	-23.8	-24.4	17.0	0.00e+00	0	44	102	1048576	7	3865
2026-01-05 03:58:52.71	162.70	23.22	-23.6	-24.0	17.3	1.69e-03	0	44	102	1048576	7	3770
2026-01-05 03:58:53.71	162.83	23.09	-23.5	-24.4	17.3	3.51e-04	0	44	102	1048576	6	3967
2026-01-05 03:58:54.72	162.96	22.96	-23.6	-24.5	17.3	9.10e-06	0	44	102	1048576	6	3994
2026-01-05 03:58:55.72	163.09	22.83	-23.6	-24.1	17.2	1.76e-03	0	44	102	1048576	7	3801
2026-01-05 03:58:56.73	163.22	22.70	-23.8	-24.5	17.0	1.68e-03	0	44	102	1048576	7	3902
2026-01-05 03:58:57.74	163.35	22.57	-23.8	-24.4	17.0	6.63e-05	0	44	102	1048576	7	3877
2026-01-05 03:58:58.75	163.48	22.44	-23.7	-24.3	17.0	1.27e-03	0	44	102	1048576	7	3858
2026-01-05 03:58:59.74	163.61	22.31	-23.9	-24.6	16.9	1.55e-03	0	44	102	1048576	7	3912
2026-01-05 03:59:00.75	163.73	22.18	-23.8	-24.5	16.9	0.00e+00	0	44	102	1048576	7	3901
2026-01-05 03:59:01.75	163.86	22.06	-23.9	-24.6	16.9	1.54e-03	0	44	102	1048576	7	3927
2026-01-05 03:59:02.76	163.98	21.93	-23.9	-24.6	16.9	1.53e-03	0	44	102	1048576	7	3930
2026-01-05 03:59:03.77	164.11	21.80	-23.9	-24.8	16.8	1.10e-06	0	44	102	1048576	7	3962
2026-01-05 03:59:04.78	164.23	21.67	-23.9	-24.6	16.7	1.66e-03	0	44	102	1048576	7	3926
2026-01-05 03:59:05.78	164.35	21.55	-24.0	-24.9	16.8	0.00e+00	0	44	102	1048576	7	3993
2026-01-05 03:59:06.79	164.47	21.42	-24.0	-24.9	16.7	1.10e-06	0	44	102	1048576	7	3994
2026-01-05 03:59:07.79	164.59	21.30	-24.2	-24.8	16.6	0.00e+00	0	44	102	1048576	8	3855
2026-01-05 03:59:08.80	164.71	21.17	-24.4	-25.3	16.3	0.00e+00	0	44	102	1048576	8	3977
2026-01-05 03:59:09.81	164.83	21.05	-24.2	-24.8	16.6	0.00e+00	0	44	102	1048576	8	3855
2026-01-05 03:59:10.82	164.94	20.93	-24.1	-24.6	16.7	0.00e+00	0	44	102	1048576	8	3812
2026-01-05 03:59:11.83	165.06	20.80	-24.1	-24.5	16.7	0.00e+00	0	44	102	1048576	8	3799
2026-01-05 03:59:12.84	165.17	20.68	-24.1	-24.6	16.6	0.00e+00	0	44	102	1048576	8	3819
2026-01-05 03:59:13.85	165.29	20.56	-24.3	-24.9	16.5	0.00e+00	0	44	102	1048576	8	3898
2026-01-05 03:59:14.86	165.40	20.44	-24.3	-25.0	16.4	0.00e+00	0	44	102	1048576	8	3907
2026-01-05 03:59:15.86	165.51	20.31	-24.3	-25.1	16.4	0.00e+00	0	44	102	1048576	8	3922
2026-01-05 03:59:16.87	165.63	20.19	-24.3	-25.0	16.5	0.00e+00	0	44	102	1048576	8	3911
2026-01-05 03:59:17.88	165.74	20.07	-24.3	-25.1	16.4	0.00e+00	0	44	102	1048576	8	3921
2026-01-05 03:59:18.88	165.85	19.95	-24.3	-25.0	16.4	0.00e+00	0	44	102	1048576	8	3917
2026-01-05 03:59:19.89	165.95	19.84	-24.4	-25.2	16.3	0.00e+00	0	44	102	1048576	8	3950
2026-01-05 03:59:20.90	166.06	19.72	-24.7	-25.3	16.0	0.00e+00	0	44	102	1048576	9	3875
2026-01-05 03:59:21.90	166.17	19.60	-25.0	-26.1	15.5	0.00e+00	0	44	102	1048576	9	4070
2026-01-05 03:59:22.91	166.28	19.48	-24.8	-25.5	15.9	0.00e+00	0	44	102	1048576	9	3933
2026-01-05 03:59:23.92	166.38	19.36	-24.5	-25.0	16.2	0.00e+00	0	44	102	1048576	9	3794
2026-01-05 03:59:24.92	166.49	19.25	-24.4	-24.7	16.3	0.00e+00	0	44	102	1048576	9	3732
2026-01-05 03:59:25.93	166.59	19.13	-24.3	-25.1	16.3	0.00e+00	0	44	102	1048576	8	3932
2026-01-05 03:59:26.93	166.69	19.02	-24.4	-25.2	16.3	0.00e+00	0	44	102	1048576	8	3954
2026-01-05 03:59:27.94	166.80	18.90	-24.3	-25.1	16.3	0.00e+00	0	44	102	1048576	8	3920
2026-01-05 03:59:28.95	166.90	18.78	-24.4	-25.2	16.3	0.00e+00	0	44	102	1048576	8	3948
2026-01-05 03:59:29.96	167.00	18.67	-24.3	-25.1	16.4	0.00e+00	0	44	102	1048576	8	3921
2026-01-05 03:59:30.96	167.10	18.56	-24.4	-25.2	16.3	0.00e+00	0	44	102	1048576	8	3951
2026-01-05 03:59:31.97	167.20	18.44	-24.3	-25.1	16.3	0.00e+00	0	44	102	1048576	8	3941
2026-01-05 03:59:32.98	167.30	18.33	-24.4	-25.1	16.3	0.00e+00	0	44	102	1048576	8	3942
2026-01-05 03:59:33.99	167.40	18.22	-24.3	-25.1	16.3	0.00e+00	0	44	102	1048576	8	3922
2026-01-05 03:59:35.00	167.50	18.10	-24.4	-25.3	16.2	0.00e+00	0	44	102	1048576	8	3983
2026-01-05 03:59:36.01	167.59	17.99	-24.3	-25.0	16.4	0.00e+00	0	44	102	1048576	8	3901
2026-01-05 03:59:37.02	167.69	17.88	-24.3	-25.0	16.4	0.00e+00	0	44	102	1048576	8	3906
2026-01-05 03:59:38.02	167.79	17.77	-24.4	-25.2	16.2	0.00e+00	0	44	102	1048576	8	3962
2026-01-05 03:59:39.03	167.88	17.66	-24.4	-25.2	16.3	0.00e+00	0	44	102	1048576	8	3949
2026-01-05 03:59:40.03	167.98	17.55	-24.4	-25.4	16.1	0.00e+00	0	44	102	1048576	8	3996
2026-01-05 03:59:41.04	168.07	17.44	-24.4	-25.2	16.2	0.00e+00	0	44	102	1048576	8	3966
2026-01-05 03:59:42.05	168.16	17.33	-24.5	-25.4	16.1	0.00e+00	0	44	102	1048576	8	4014
2026-01-05 03:59:43.06	168.26	17.22	-24.4	-25.3	16.2	0.00e+00	0	44	102	1048576	8	3990
2026-01-05 03:59:44.07	168.35	17.11	-24.5	-25.5	16.1	0.00e+00	0	44	102	1048576	8	4040
2026-01-05 03:59:45.07	168.44	17.00	-24.5	-25.5	16.0	0.00e+00	0	44	102	1048576	8	4034
2026-01-05 03:59:46.08	168.53	16.90	-24.6	-25.1	16.0	0.00e+00	0	44	102	1048576	9	3838
2026-01-05 03:59:47.09	168.62	16.79	-24.5	-25.0	16.0	0.00e+00	0	44	102	1048576	9	3814
2026-01-05 03:59:48.10	168.71	16.68	-24.6	-25.3	15.9	0.00e+00	0	44	102	1048576	9	3865
2026-01-05 03:59:49.10	168.80	16.57	-24.6	-25.1	16.0	0.00e+00	0	44	102	1048576	9	3839
2026-01-05 03:59:50.11	168.88	16.47	-24.6	-25.2	15.9	0.00e+00	0	44	102	1048576	9	3854
2026-01-05 03:59:51.12	168.97	16.36	-24.6	-25.2	15.9	0.00e+00	0	44	102	1048576	9	3844
2026-01-05 03:59:52.12	169.06	16.26	-24.8	-25.5	15.7	0.00e+00	0	44	102	1048576	9	3936
2026-01-05 03:59:53.13	169.15	16.15	-24.7	-25.4	15.8	0.00e+00	0	44	102	1048576	9	3891
2026-01-05 03:59:54.14	169.23	16.05	-24.7	-25.4	15.8	0.00e+00	0	44	102	1048576	9	3907
2026-01-05 03:59:55.14	169.32	15.94	-24.8	-25.5	15.8	0.00e+00	0	44	102	1048576	9	3924
2026-01-05 03:59:56.15	169.40	15.84	-24.9	-25.8	15.6	0.00e+00	0	44	102	1048576	9	3988
2026-01-05 03:59:57.16	169.48	15.74	-24.8	-25.7	15.6	0.00e+00	0	44	102	1048576	9	3969
2026-01-05 03:59:58.17	169.57	15.63	-24.9	-25.9	15.5	0.00e+00	0	44	102	1048576	9	4039
2026-01-05 03:59:59.17	169.65	15.53	-25.1	-25.9	15.3	0.00e+00	0	44	102	1048576	10	3911
2026-01-05 04:00:00.17	169.73	15.43	-25.0	-25.5	15.5	0.00e+00	0	44	102	1048576	10	3825
2026-01-05 04:00:01.18	169.81	15.33	-24.9	-25.8	15.5	0.00e+00	0	44	102	1048576	9	4010
2026-01-05 04:00:02.20	169.90	15.23	-24.9	-25.9	15.5	0.00e+00	0	44	102	1048576	9	4038
2026-01-05 04:00:03.20	169.98	15.13	-24.9	-25.9	15.5	2.20e-06	0	44	102	1048576	9	4041
2026-01-05 04:00:04.21	170.06	15.02	-25.1	-25.8	15.3	0.00e+00	0	44	102	1048576	10	3891
2026-01-05 04:00:05.21	170.14	14.92	-24.4	-24.9	15.3	0.00e+00	0	44	102	1048576	10	3843
2026-01-05 04:00:06.22	170.22	14.82	-24.9	-25.9	15.5	0.00e+00	0	44	102	1048576	9	4017
2026-01-05 04:00:07.23	170.30	14.72	-25.0	-26.0	15.4	1.45e-03	0	44	102	1048576	9	4066
2026-01-05 04:00:08.24	170.37	14.63	-25.1	-25.8	15.3	8.71e-04	0	44	102	1048576	10	3897
2026-01-05 04:00:09.25	170.45	14.53	-25.1	-25.7	15.4	0.00e+00	0	44	102	1048576	10	3869
2026-01-05 04:00:10.25	170.53	14.43	-25.1	-26.2	15.3	1.52e-03	0	44	102	1048576	9	4110
2026-01-05 04:00:11.26	170.61	14.33	-25.2	-26.0	15.1	0.00e+00	0	44	102	1048576	10	3951
2026-01-05 04:00:12.27	170.68	14.23	-25.1	-25.7	15.3	1.10e-06	0	44	102	1048576	10	3876
2026-01-05 04:00:13.28	170.76	14.13	-25.0	-25.7	15.3	9.22e-04	0	44	102	1048576	10	3865
2026-01-05 04:00:14.28	170.83	14.04	-25.1	-25.8	15.3	1.67e-03	0	44	102	1048576	10	3893
2026-01-05 04:00:15.29	170.91	13.94	-25.1	-25.8	15.2	1.14e-05	0	44	102	1048576	10	3895
2026-01-05 04:00:16.30	170.98	13.84	-25.2	-25.9	15.2	0.00e+00	0	44	102	1048576	10	3934
2026-01-05 04:00:17.30	171.06	13.75	-25.1	-25.9	15.2	1.50e-03	0	44	102	1048576	10	3921
2026-01-05 04:00:18.31	171.13	13.65	-25.2	-26.0	15.1	7.20e-05	0	44	102	1048576	10	3946
2026-01-05 04:00:19.31	171.20	13.56	-25.2	-26.0	15.1	1.50e-03	0	44	102	1048576	10	3951
2026-01-05 04:00:20.32	171.28	13.46	-25.3	-26.3	14.9	1.41e-03	0	44	102	1048576	10	4018
2026-01-05 04:00:21.33	171.35	13.37	-25.3	-26.3	15.0	4.69e-05	0	44	102	1048576	10	4018
2026-01-05 04:00:22.34	171.42	13.27	-25.5	-26.6	14.8	1.43e-03	0	44	102	1048576	10	4105
2026-01-05 04:00:23.34	171.49	13.18	-25.6	-26.8	14.7	1.49e-03	0	44	102	1048576	10	4148
2026-01-05 04:00:24.35	171.56	13.08	-25.6	-26.8	14.7	8.81e-05	0	44	102	1048576	10	4159
2026-01-05 04:00:25.35	171.63	12.99	-25.6	-26.5	14.6	1.50e-03	0	44	102	1048576	11	3971
2026-01-05 04:00:26.36	171.70	12.90	-25.8	-26.8	14.4	3.62e-04	0	44	102	1048576	11	4056
2026-01-05 04:00:27.36	171.77	12.81	-25.9	-27.1	14.2	8.35e-05	0	44	102	1048576	11	4133
2026-01-05 04:00:28.37	171.84	12.71	-25.9	-27.1	14.2	1.53e-03	0	44	102	1048576	11	4133
2026-01-05 04:00:29.38	171.91	12.62	-26.0	-27.2	14.1	1.50e-03	0	44	102	1048576	11	4150
2026-01-05 04:00:30.38	171.98	12.53	-26.0	-27.2	14.1	1.10e-06	0	44	102	1048576	11	4159
2026-01-05 04:00:31.38	172.05	12.44	-26.1	-27.0	13.9	3.95e-04	0	44	102	1048576	12	3991
2026-01-05 04:00:32.39	172.11	12.35	-26.3	-27.5	13.6	1.70e-03	0	44	102	1048576	12	4143
2026-01-05 04:00:33.40	172.18	12.26	-26.5	-27.9	13.3	2.40e-05	0	44	102	1048576	12	4231
2026-01-05 04:00:34.41	172.25	12.17	-26.4	-27.7	13.5	6.18e-04	0	44	102	1048576	12	4192
2026-01-05 04:00:35.41	172.31	12.08	-26.4	-27.7	13.4	1.37e-05	0	44	102	1048576	12	4186
2026-01-05 04:00:36.42	172.38	11.99	-26.6	-28.1	13.2	2.28e-05	0	44	102	1048576	12	4296
2026-01-05 04:00:37.42	172.44	11.90	-26.8	-28.1	12.9	2.13e-03	0	44	102	1048576	13	4178
2026-01-05 04:00:38.43	172.51	11.81	-26.9	-28.3	12.8	6.86e-05	0	44	102	1048576	13	4245
2026-01-05 04:00:39.44	172.58	11.72	-26.9	-28.4	12.7	8.01e-05	0	44	102	1048576	13	4279
2026-01-05 04:00:40.44	172.64	11.63	-27.1	-28.4	12.4	1.34e-04	0	44	102	1048576	14	4169
2026-01-05 04:00:41.45	172.70	11.54	-27.2	-28.5	12.4	2.07e-04	0	44	102	1048576	14	4192
2026-01-05 04:00:42.46	172.77	11.45	-27.0	-28.1	12.6	1.23e-04	0	44	102	1048576	14	4086
2026-01-05 04:00:43.46	172.83	11.36	-26.8	-28.2	12.8	6.86e-05	0	44	102	1048576	13	4225
2026-01-05 04:00:44.46	172.89	11.28	-26.8	-28.1	12.9	6.08e-04	0	44	102	1048576	13	4193
2026-01-05 04:00:45.46	172.96	11.19	-26.9	-28.3	12.8	7.55e-05	0	44	102	1048576	13	4238
2026-01-05 04:00:46.47	173.02	11.10	-27.1	-28.3	12.5	1.66e-04	0	44	102	1048576	14	4150
2026-01-05 04:00:47.47	173.08	11.02	-27.1	-28.4	12.4	1.40e-04	0	44	102	1048576	14	4159
2026-01-05 04:00:48.48	173.14	10.93	-27.2	-28.5	12.3	2.29e-04	0	44	102	1048576	14	4192
2026-01-05 04:00:49.49	173.20	10.84	-26.8	-28.1	12.8	9.15e-05	0	44	102	1048576	13	4200
2026-01-05 04:00:50.50	173.26	10.76	-26.7	-27.9	13.0	4.23e-05	0	44	102	1048576	13	4122
2026-01-05 04:00:51.51	173.33	10.67	-26.5	-27.5	13.2	3.66e-05	0	44	102	1048576	13	4024
2026-01-05 04:00:52.51	173.39	10.59	-26.4	-27.8	13.2	2.28e-05	0	44	102	1048576	12	4222
2026-01-05 04:00:53.52	173.45	10.50	-26.5	-27.9	13.2	2.28e-05	0	44	102	1048576	12	4236
2026-01-05 04:00:54.53	173.51	10.42	-26.6	-27.7	13.0	3.54e-05	0	44	102	1048576	13	4090
2026-01-05 04:00:55.53	173.56	10.33	-27.0	-28.6	12.5	1.12e-04	0	44	102	1048576	13	4333
2026-01-05 04:00:56.54	173.62	10.25	-27.0	-28.1	12.5	1.72e-04	0	44	102	1048576	14	4090
2026-01-05 04:00:57.54	173.68	10.16	-26.7	-27.8	12.9	6.86e-05	0	44	102	1048576	13	4122
2026-01-05 04:00:58.55	173.74	10.08	-26.4	-27.8	13.2	2.28e-05	0	44	102	1048576	12	4225
2026-01-05 04:00:59.55	173.80	10.00	-26.4	-27.7	13.3	2.40e-05	0	44	102	1048576	12	4187
2026-01-05 04:01:00.55	173.86	9.91	-26.6	-28.1	13.1	2.51e-05	0	44	102	1048576	12	4291
2026-01-05 04:01:01.56	173.91	9.83	-26.6	-27.8	12.9	6.29e-05	0	44	102	1048576	13	4117
2026-01-05 04:01:02.57	173.97	9.75	-26.5	-27.9	13.1	2.86e-05	0	44	102	1048576	12	4244
2026-01-05 04:01:03.58	174.03	9.66	-26.5	-27.9	13.1	3.77e-05	0	44	102	1048576	12	4254
2026-01-05 04:01:04.59	174.08	9.58	-26.5	-28.0	13.1	3.08e-05	0	44	102	1048576	12	4265
2026-01-05 04:01:05.60	174.14	9.50	-26.6	-27.7	13.0	5.26e-05	0	44	102	1048576	13	4088
2026-01-05 04:01:06.61	174.20	9.42	-26.7	-28.0	12.8	4.11e-05	0	44	102	1048576	13	4157
2026-01-05 04:01:07.60	174.25	9.34	-26.7	-28.0	12.8	7.09e-05	0	44	102	1048576	13	4164
2026-01-05 04:01:08.61	174.31	9.26	-26.6	-27.6	13.0	4.34e-05	0	44	102	1048576	13	4062
2026-01-05 04:01:09.62	174.36	9.17	-26.4	-27.2	13.3	2.74e-05	0	44	102	1048576	13	3948
2026-01-05 04:01:10.63	174.42	9.09	-26.3	-27.5	13.4	1.83e-05	0	44	102	1048576	12	4128
2026-01-05 04:01:11.64	174.47	9.01	-26.3	-27.6	13.3	2.17e-05	0	44	102	1048576	12	4162
2026-01-05 04:01:12.65	174.53	8.93	-26.4	-27.9	13.1	3.66e-05	0	44	102	1048576	12	4238
2026-01-05 04:01:13.65	174.58	8.85	-26.6	-28.2	12.9	4.80e-05	0	44	102	1048576	12	4327
2026-01-05 04:01:14.65	174.63	8.77	-26.6	-27.7	12.9	4.69e-05	0	44	102	1048576	13	4094
2026-01-05 04:01:15.66	174.69	8.69	-26.7	-27.9	12.8	6.40e-05	0	44	102	1048576	13	4132
2026-01-05 04:01:16.67	174.74	8.61	-26.7	-27.9	12.8	6.17e-05	0	44	102	1048576	13	4140
2026-01-05 04:01:17.67	174.79	8.53	-26.8	-28.1	12.7	9.61e-05	0	44	102	1048576	13	4200
2026-01-05 04:01:18.68	174.85	8.46	-26.8	-28.2	12.6	1.02e-04	0	44	102	1048576	13	4219
2026-01-05 04:01:19.69	174.90	8.38	-26.7	-28.0	12.7	8.81e-05	0	44	102	1048576	13	4164
2026-01-05 04:01:20.70	174.95	8.30	-26.6	-27.8	12.8	8.23e-05	0	44	102	1048576	13	4126
2026-01-05 04:01:21.70	175.00	8.22	-26.6	-27.8	12.8	5.37e-05	0	44	102	1048576	13	4134
2026-01-05 04:01:22.70	175.05	8.14	-26.6	-27.8	12.8	5.95e-05	0	44	102	1048576	13	4117
2026-01-05 04:01:23.71	175.10	8.06	-26.6	-27.8	12.8	7.43e-05	0	44	102	1048576	13	4129
2026-01-05 04:01:24.71	175.15	7.99	-26.8	-28.1	12.6	1.06e-04	0	44	102	1048576	13	4212
2026-01-05 04:01:25.71	175.20	7.91	-26.8	-28.2	12.6	9.61e-05	0	44	102	1048576	13	4228
2026-01-05 04:01:26.71	175.26	7.83	-26.8	-28.1	12.6	1.35e-04	0	44	102	1048576	13	4205
2026-01-05 04:01:27.72	175.31	7.76	-26.7	-27.9	12.7	8.92e-05	0	44	102	1048576	13	4166
2026-01-05 04:01:28.73	175.36	7.68	-26.8	-28.3	12.5	1.50e-04	0	44	102	1048576	13	4254
2026-01-05 04:01:29.73	175.41	7.60	-26.7	-28.1	12.6	1.34e-04	0	44	102	1048576	13	4195
2026-01-05 04:01:30.73	175.45	7.53	-26.7	-28.0	12.6	1.18e-04	0	44	102	1048576	13	4189
2026-01-05 04:01:31.74	175.50	7.45	-26.9	-28.4	12.4	1.68e-04	0	44	102	1048576	13	4295
2026-01-05 04:01:32.75	175.55	7.38	-26.9	-28.4	12.4	1.52e-04	0	44	102	1048576	13	4298
2026-01-05 04:01:33.75	175.60	7.30	-26.9	-28.5	12.3	1.30e-03	0	44	102	1048576	13	4332
2026-01-05 04:01:34.76	175.65	7.22	-26.9	-28.4	12.4	1.82e-04	0	44	102	1048576	13	4294
2026-01-05 04:01:35.77	175.70	7.15	-26.9	-28.4	12.4	1.86e-04	0	44	102	1048576	13	4296
2026-01-05 04:01:36.78	175.75	7.07	-32.3	-42.1	3.8	8.47e-01	0	44	104	1048576	24	11077
2026-01-05 04:01:37.78	175.79	7.00	-32.5	-42.4	3.8	8.46e-01	0	44	104	1048576	24	11295
2026-01-05 04:01:38.79	175.84	6.92	-32.8	-42.4	3.8	8.47e-01	0	44	104	1048576	25	10895
2026-01-05 04:01:39.79	175.89	6.85	-33.0	-42.8	3.8	8.46e-01	0	44	104	1048576	25	11126

#Closed at: 2026-01-05 04:01:40
#Recorded file [1 MB]: D:/data/31010_260105_065533.dat