passes_logs/2026/01/05/R2M6_AANII_01/R2M6_AANII_01__20260105_003246_NOAA_21_JPSS-2_rec.log

#Pass ID: 20260105_003246_NOAA 21 (JPSS-2)
#Satellite: NOAA 21 (JPSS-2)
#Configuration: NOAA 21
#almurnet v.1.7.20240730
#Start time: 2026-01-05 00:32:46

#Version: 2.2.20231116
#Station: R2M6_AANII_01
#Location: 30.233357 lon 59.946436 lat
#TLE: 1 54234U 22150A   26004.22845673  .00000174  00000+0  10347-3 0  9996
#TLE: 2 54234  98.7489 305.2591 0001115 345.0884  15.0259 14.19531906163281

#Time	Az	El	Level	Level2	SNR	BER	BlckErr	Temp	State	Recorded	gain1	gain2
2026-01-05 00:32:46.04	17.06	6.99	-34.0	-46.3	3.8	1.49e+00	0	43	0	0	27	14816
2026-01-05 00:32:47.04	17.05	7.06	-34.0	-46.3	3.8	1.49e+00	0	43	104	0	27	14823
2026-01-05 00:32:48.04	17.04	7.14	-34.0	-46.3	3.8	1.49e+00	0	44	104	0	27	14833
2026-01-05 00:32:49.05	17.03	7.22	-33.9	-45.7	3.8	1.49e+00	0	44	104	0	28	13933
2026-01-05 00:32:50.06	17.03	7.30	-34.0	-45.8	3.8	1.49e+00	0	43	104	0	28	14005
2026-01-05 00:32:51.06	17.02	7.37	-34.0	-45.8	3.8	1.49e+00	0	44	104	0	28	14004
2026-01-05 00:32:52.07	17.01	7.45	-34.0	-45.8	3.8	1.49e+00	0	43	104	0	28	14028
2026-01-05 00:32:53.08	17.00	7.53	-33.9	-45.7	3.8	1.49e+00	0	43	104	0	28	13960
2026-01-05 00:32:54.09	16.99	7.61	-33.9	-45.7	3.8	1.49e+00	0	43	104	0	28	13935
2026-01-05 00:32:55.10	16.99	7.69	-33.9	-45.6	3.8	1.49e+00	0	44	104	0	28	13906
2026-01-05 00:32:56.11	16.98	7.77	-33.9	-45.6	3.8	1.49e+00	0	43	104	0	28	13872
2026-01-05 00:32:57.11	16.97	7.85	-33.9	-45.6	3.8	1.49e+00	0	43	104	0	28	13853
2026-01-05 00:32:58.12	16.96	7.93	-34.0	-46.2	3.8	1.49e+00	0	44	104	0	27	14791
2026-01-05 00:32:59.12	16.95	8.01	-33.9	-46.2	3.8	1.49e+00	0	44	104	0	27	14763
2026-01-05 00:33:00.13	16.95	8.09	-33.9	-46.1	3.8	1.49e+00	0	44	104	0	27	14647
2026-01-05 00:33:01.14	16.94	8.17	-33.8	-45.9	3.8	1.49e+00	0	44	104	0	27	14492
2026-01-05 00:33:02.15	16.93	8.25	-33.7	-45.8	3.8	1.49e+00	0	43	104	0	27	14388
2026-01-05 00:33:03.16	16.92	8.33	-33.6	-45.6	3.8	1.49e+00	0	43	104	0	27	14232
2026-01-05 00:33:04.17	16.91	8.41	-33.5	-45.3	3.8	1.49e+00	0	43	104	0	27	13973
2026-01-05 00:33:05.17	16.90	8.50	-33.3	-45.4	3.8	1.49e+00	0	43	104	0	26	14522
2026-01-05 00:33:06.18	16.89	8.58	-33.0	-44.8	3.8	1.49e+00	0	44	104	0	26	13935
2026-01-05 00:33:07.18	16.89	8.66	-32.3	-40.5	3.9	1.48e+00	0	44	104	0	25	9247
2026-01-05 00:33:08.19	16.88	8.74	-32.2	-39.6	4.8	1.47e+00	0	43	104	0	24	8464
2026-01-05 00:33:09.19	16.87	8.83	-32.0	-38.5	5.3	5.62e-01	0	43	0	0	24	7638
2026-01-05 00:33:10.20	16.86	8.91	-31.7	-37.7	6.0	3.52e-01	0	43	102	1048576	23	7202
2026-01-05 00:33:11.21	16.85	8.99	-31.6	-37.2	6.4	2.79e-01	0	44	102	1048576	23	6850
2026-01-05 00:33:12.22	16.84	9.08	-31.4	-36.3	6.9	1.86e-01	0	43	102	1048576	23	6382
2026-01-05 00:33:13.22	16.83	9.16	-31.2	-36.1	7.4	1.15e-01	0	43	102	1048576	22	6359
2026-01-05 00:33:14.23	16.82	9.24	-30.9	-35.2	8.0	7.50e-02	0	43	102	1048576	22	5900
2026-01-05 00:33:15.24	16.81	9.33	-30.8	-35.3	8.3	5.26e-02	0	44	102	1048576	21	6022
2026-01-05 00:33:16.23	16.80	9.41	-30.7	-35.0	8.5	4.13e-02	0	43	102	1048576	21	5911
2026-01-05 00:33:17.23	16.79	9.50	-30.7	-35.0	8.6	4.04e-02	0	43	102	1048576	21	5903
2026-01-05 00:33:18.23	16.78	9.58	-30.7	-34.8	8.7	3.63e-02	0	44	102	1048576	21	5811
2026-01-05 00:33:19.24	16.77	9.67	-30.7	-35.0	8.5	3.80e-02	0	43	102	1048576	21	5926
2026-01-05 00:33:20.24	16.76	9.75	-30.8	-35.1	8.4	4.39e-02	0	43	102	1048576	21	5974
2026-01-05 00:33:21.25	16.75	9.84	-31.0	-35.9	7.8	6.75e-02	0	44	102	1048576	21	6326
2026-01-05 00:33:22.26	16.74	9.93	-31.0	-36.0	7.7	7.76e-02	0	43	102	1048576	21	6406
2026-01-05 00:33:23.26	16.73	10.01	-31.2	-36.1	7.4	9.15e-02	0	43	102	1048576	22	6340
2026-01-05 00:33:24.27	16.72	10.10	-31.3	-36.5	7.2	1.29e-01	0	44	102	1048576	22	6577
2026-01-05 00:33:25.28	16.71	10.19	-31.3	-36.4	7.2	1.28e-01	0	44	102	1048576	22	6502
2026-01-05 00:33:26.28	16.70	10.27	-31.2	-36.3	7.3	1.38e-01	0	44	102	1048576	22	6453
2026-01-05 00:33:27.28	16.69	10.36	-31.1	-35.7	7.7	8.38e-02	0	43	102	1048576	22	6123
2026-01-05 00:33:28.29	16.68	10.45	-31.2	-36.1	7.5	1.07e-01	0	44	102	1048576	22	6357
2026-01-05 00:33:29.30	16.67	10.54	-31.4	-36.8	7.0	1.66e-01	0	44	102	1048576	22	6716
2026-01-05 00:33:30.31	16.66	10.63	-31.2	-36.0	7.6	1.06e-01	0	43	102	1048576	22	6252
2026-01-05 00:33:31.31	16.65	10.72	-30.9	-35.5	8.2	6.72e-02	0	44	102	1048576	21	6123
2026-01-05 00:33:32.31	16.64	10.81	-30.6	-34.7	8.8	3.82e-02	0	43	102	1048576	21	5747
2026-01-05 00:33:33.32	16.63	10.90	-30.5	-34.2	9.2	2.70e-02	0	44	102	1048576	21	5519
2026-01-05 00:33:34.32	16.62	10.99	-30.3	-34.1	9.6	1.79e-02	0	43	102	1048576	20	5595
2026-01-05 00:33:35.33	16.61	11.08	-30.1	-33.6	10.1	8.70e-03	0	44	102	1048576	20	5355
2026-01-05 00:33:36.33	16.60	11.17	-30.3	-34.1	9.7	1.15e-02	0	43	102	1048576	20	5585
2026-01-05 00:33:37.33	16.59	11.26	-30.6	-34.4	9.1	2.82e-02	0	43	102	1048576	21	5577
2026-01-05 00:33:38.33	16.57	11.35	-30.4	-34.3	9.6	1.75e-02	0	43	102	1048576	20	5648
2026-01-05 00:33:39.34	16.56	11.44	-30.0	-33.3	10.2	1.35e-02	0	43	102	1048576	20	5255
2026-01-05 00:33:40.35	16.55	11.53	-29.7	-32.9	10.9	6.57e-03	0	43	102	1048576	19	5202
2026-01-05 00:33:41.36	16.54	11.63	-29.6	-32.5	11.2	1.48e-03	0	44	102	1048576	19	5036
2026-01-05 00:33:42.37	16.53	11.72	-29.7	-32.7	11.1	6.23e-03	0	44	102	1048576	19	5121
2026-01-05 00:33:43.37	16.52	11.81	-29.5	-32.3	11.4	5.68e-03	0	44	102	1048576	19	4947
2026-01-05 00:33:44.38	16.50	11.91	-29.4	-32.4	11.7	2.15e-03	0	44	102	1048576	18	5105
2026-01-05 00:33:45.38	16.49	12.00	-29.2	-32.0	11.9	5.86e-03	0	43	102	1048576	18	4976
2026-01-05 00:33:46.38	16.48	12.09	-29.2	-32.1	11.9	4.74e-03	0	44	102	1048576	18	4987
2026-01-05 00:33:47.38	16.47	12.19	-29.3	-32.2	11.8	8.44e-04	0	44	102	1048576	18	5045
2026-01-05 00:33:48.39	16.45	12.28	-29.4	-32.5	11.6	6.01e-03	0	43	102	1048576	18	5136
2026-01-05 00:33:49.40	16.44	12.38	-29.1	-31.7	12.1	4.36e-03	0	43	102	1048576	18	4859
2026-01-05 00:33:50.41	16.43	12.48	-28.8	-31.5	12.5	1.41e-03	0	43	102	1048576	17	4893
2026-01-05 00:33:51.42	16.42	12.57	-28.7	-31.2	12.7	4.93e-03	0	43	102	1048576	17	4794
2026-01-05 00:33:52.42	16.40	12.67	-28.7	-31.3	12.7	9.23e-05	0	43	102	1048576	17	4837
2026-01-05 00:33:53.43	16.39	12.77	-28.4	-30.5	13.2	1.46e-03	0	43	102	1048576	17	4581
2026-01-05 00:33:54.43	16.38	12.86	-28.3	-30.6	13.4	5.29e-03	0	43	102	1048576	16	4724
2026-01-05 00:33:55.44	16.36	12.96	-28.2	-30.6	13.5	4.30e-03	0	43	102	1048576	16	4694
2026-01-05 00:33:56.44	16.35	13.06	-28.2	-30.4	13.5	1.25e-03	0	44	102	1048576	16	4657
2026-01-05 00:33:57.45	16.34	13.16	-27.9	-30.2	13.8	6.10e-06	0	44	102	1048576	15	4709
2026-01-05 00:33:58.45	16.32	13.26	-27.9	-30.2	13.8	1.50e-06	0	44	102	1048576	15	4726
2026-01-05 00:33:59.46	16.31	13.36	-27.9	-30.2	13.8	3.00e-06	0	43	102	1048576	15	4704
2026-01-05 00:34:00.47	16.30	13.46	-27.9	-30.2	13.8	5.06e-03	0	43	102	1048576	15	4708
2026-01-05 00:34:01.47	16.28	13.56	-28.1	-30.2	13.8	4.26e-03	0	43	102	1048576	16	4568
2026-01-05 00:34:02.48	16.27	13.66	-27.9	-30.2	13.9	2.20e-06	0	43	102	1048576	15	4704
2026-01-05 00:34:03.49	16.25	13.76	-27.9	-30.3	13.8	4.50e-06	0	43	102	1048576	15	4743
2026-01-05 00:34:04.50	16.24	13.86	-28.0	-30.5	13.7	3.80e-06	0	43	102	1048576	15	4800
2026-01-05 00:34:05.50	16.23	13.96	-28.0	-30.0	13.9	2.20e-06	0	43	102	1048576	16	4522
2026-01-05 00:34:06.51	16.21	14.06	-27.8	-30.1	13.9	3.73e-03	0	44	102	1048576	15	4678
2026-01-05 00:34:07.51	16.20	14.17	-27.9	-30.2	13.9	4.50e-06	0	44	102	1048576	15	4703
2026-01-05 00:34:08.52	16.18	14.27	-27.9	-30.2	13.9	5.30e-06	0	44	102	1048576	15	4719
2026-01-05 00:34:09.53	16.17	14.37	-28.2	-30.4	13.7	7.60e-06	0	44	102	1048576	16	4632
2026-01-05 00:34:10.53	16.15	14.48	-28.2	-30.4	13.7	3.80e-06	0	43	102	1048576	16	4629
2026-01-05 00:34:11.54	16.14	14.58	-28.3	-30.7	13.5	1.22e-05	0	44	102	1048576	16	4748
2026-01-05 00:34:12.55	16.12	14.69	-28.3	-30.5	13.6	5.30e-06	0	43	102	1048576	16	4679
2026-01-05 00:34:13.56	16.11	14.79	-28.2	-30.3	13.8	6.10e-06	0	44	102	1048576	16	4610
2026-01-05 00:34:14.56	16.09	14.90	-28.2	-30.3	13.7	6.10e-06	0	43	102	1048576	16	4618
2026-01-05 00:34:15.57	16.07	15.00	-28.1	-30.2	13.8	3.00e-06	0	43	102	1048576	16	4588
2026-01-05 00:34:16.58	16.06	15.11	-28.2	-30.4	13.7	6.80e-06	0	43	102	1048576	16	4651
2026-01-05 00:34:17.57	16.04	15.22	-28.2	-30.3	13.7	6.10e-06	0	44	102	1048576	16	4623
2026-01-05 00:34:18.58	16.03	15.32	-28.1	-30.1	13.9	1.50e-06	0	43	102	1048576	16	4537
2026-01-05 00:34:19.59	16.01	15.43	-27.9	-30.3	13.9	2.20e-06	0	44	102	1048576	15	4726
2026-01-05 00:34:20.59	15.99	15.54	-27.9	-30.2	13.9	7.00e-07	0	43	102	1048576	15	4714
2026-01-05 00:34:21.60	15.98	15.65	-27.9	-30.2	14.0	7.00e-07	0	44	102	1048576	15	4686
2026-01-05 00:34:22.61	15.96	15.76	-27.9	-30.4	13.9	3.80e-06	0	43	102	1048576	15	4750
2026-01-05 00:34:23.62	15.94	15.87	-27.9	-30.3	13.9	7.60e-06	0	43	102	1048576	15	4713
2026-01-05 00:34:24.63	15.93	15.98	-27.9	-30.2	14.0	2.20e-06	0	44	102	1048576	15	4713
2026-01-05 00:34:25.63	15.91	16.09	-27.9	-30.3	14.0	2.20e-06	0	43	102	1048576	15	4721
2026-01-05 00:34:26.64	15.89	16.20	-27.8	-29.9	14.1	7.00e-07	0	43	102	1048576	15	4616
2026-01-05 00:34:27.65	15.87	16.32	-28.2	-30.3	13.8	6.10e-06	0	44	102	1048576	16	4612
2026-01-05 00:34:28.65	15.86	16.43	-28.1	-30.1	13.9	2.20e-06	0	43	102	1048576	16	4530
2026-01-05 00:34:29.65	15.84	16.54	-28.0	-30.3	13.9	7.00e-07	0	43	102	1048576	15	4738
2026-01-05 00:34:30.66	15.82	16.66	-28.1	-30.2	13.9	7.60e-06	0	44	102	1048576	16	4564
2026-01-05 00:34:31.67	15.80	16.77	-28.1	-30.1	14.0	7.00e-07	0	44	102	1048576	16	4528
2026-01-05 00:34:32.68	15.78	16.89	-27.9	-30.2	14.0	0.00e+00	0	44	102	1048576	15	4683
2026-01-05 00:34:33.69	15.76	17.00	-27.9	-30.2	14.0	4.50e-06	0	43	102	1048576	15	4704
2026-01-05 00:34:34.69	15.75	17.12	-27.9	-30.2	14.0	2.20e-06	0	43	102	1048576	15	4698
2026-01-05 00:34:35.70	15.73	17.23	-28.0	-30.4	13.9	3.80e-06	0	44	102	1048576	15	4750
2026-01-05 00:34:36.70	15.71	17.35	-28.1	-30.2	14.0	2.20e-06	0	44	102	1048576	16	4552
2026-01-05 00:34:37.71	15.69	17.47	-28.3	-30.5	13.8	7.60e-06	0	44	102	1048576	16	4677
2026-01-05 00:34:38.71	15.67	17.58	-28.2	-30.4	13.8	6.10e-06	0	44	102	1048576	16	4620
2026-01-05 00:34:39.72	15.65	17.70	-28.2	-30.3	13.9	7.60e-06	0	43	102	1048576	16	4593
2026-01-05 00:34:40.72	15.63	17.82	-28.2	-30.4	13.9	5.30e-06	0	44	102	1048576	16	4612
2026-01-05 00:34:41.72	15.61	17.94	-28.3	-30.5	13.8	3.80e-06	0	44	102	1048576	16	4673
2026-01-05 00:34:42.73	15.59	18.06	-28.1	-30.2	14.0	4.50e-06	0	44	102	1048576	16	4549
2026-01-05 00:34:43.74	15.57	18.18	-28.2	-30.3	13.9	3.80e-06	0	43	102	1048576	16	4591
2026-01-05 00:34:44.74	15.55	18.30	-28.2	-30.3	13.9	3.80e-06	0	43	102	1048576	16	4595
2026-01-05 00:34:45.75	15.53	18.43	-28.2	-30.4	13.9	1.50e-06	0	43	102	1048576	16	4623
2026-01-05 00:34:46.76	15.51	18.55	-28.2	-30.4	13.9	4.50e-06	0	44	102	1048576	16	4606
2026-01-05 00:34:47.76	15.49	18.67	-28.2	-30.4	13.9	3.80e-06	0	43	102	1048576	16	4616
2026-01-05 00:34:48.76	15.46	18.80	-28.2	-30.4	13.9	3.00e-06	0	43	102	1048576	16	4638
2026-01-05 00:34:49.77	15.44	18.92	-28.2	-30.4	13.9	1.50e-06	0	43	102	1048576	16	4615
2026-01-05 00:34:50.78	15.42	19.05	-28.2	-30.4	13.9	7.60e-06	0	44	102	1048576	16	4616
2026-01-05 00:34:51.78	15.40	19.17	-28.2	-30.4	13.9	4.50e-06	0	43	102	1048576	16	4611
2026-01-05 00:34:52.79	15.38	19.30	-28.2	-30.3	14.0	7.00e-07	0	44	102	1048576	16	4580
2026-01-05 00:34:53.79	15.35	19.43	-28.3	-30.5	13.8	1.12e-03	0	44	102	1048576	16	4661
2026-01-05 00:34:54.80	15.33	19.55	-28.2	-30.2	14.0	4.39e-03	0	43	102	1048576	16	4562
2026-01-05 00:34:55.81	15.31	19.68	-28.2	-30.3	14.0	0.00e+00	0	44	102	1048576	16	4595
2026-01-05 00:34:56.81	15.29	19.81	-28.4	-30.7	13.7	5.30e-06	0	44	102	1048576	16	4723
2026-01-05 00:34:57.81	15.26	19.94	-28.3	-30.6	13.8	1.50e-06	0	43	102	1048576	16	4667
2026-01-05 00:34:58.82	15.24	20.07	-28.1	-30.0	14.2	9.04e-04	0	44	102	1048576	16	4514
2026-01-05 00:34:59.82	15.21	20.20	-27.8	-30.0	14.3	5.06e-03	0	44	102	1048576	15	4620
2026-01-05 00:35:00.83	15.19	20.33	-27.8	-29.9	14.4	3.92e-03	0	44	102	1048576	15	4578
2026-01-05 00:35:01.84	15.17	20.47	-27.7	-29.7	14.5	1.13e-03	0	44	102	1048576	15	4527
2026-01-05 00:35:02.85	15.14	20.60	-27.7	-29.8	14.4	7.22e-04	0	44	102	1048576	15	4548
2026-01-05 00:35:03.86	15.12	20.73	-27.7	-29.6	14.5	0.00e+00	0	44	102	1048576	15	4499
2026-01-05 00:35:04.86	15.09	20.87	-27.6	-29.5	14.6	1.16e-03	0	43	102	1048576	15	4464
2026-01-05 00:35:05.87	15.07	21.00	-27.7	-29.6	14.5	5.14e-03	0	44	102	1048576	15	4501
2026-01-05 00:35:06.86	15.04	21.14	-27.5	-29.3	14.7	4.34e-03	0	44	102	1048576	15	4423
2026-01-05 00:35:07.87	15.02	21.27	-27.6	-29.4	14.6	8.57e-04	0	43	102	1048576	15	4452
2026-01-05 00:35:08.87	14.99	21.41	-27.5	-29.2	14.8	8.83e-04	0	44	102	1048576	15	4367
2026-01-05 00:35:09.88	14.96	21.55	-27.4	-29.5	14.9	3.97e-03	0	43	102	1048576	14	4584
2026-01-05 00:35:10.88	14.94	21.69	-27.4	-29.4	14.9	1.20e-03	0	44	102	1048576	14	4562
2026-01-05 00:35:11.89	14.91	21.83	-27.4	-29.5	14.9	3.82e-03	0	44	102	1048576	14	4568
2026-01-05 00:35:12.90	14.88	21.97	-27.6	-29.5	14.6	4.14e-03	0	44	102	1048576	15	4460
2026-01-05 00:35:13.91	14.85	22.11	-27.6	-29.4	14.7	3.07e-04	0	43	102	1048576	15	4430
2026-01-05 00:35:14.91	14.83	22.25	-27.5	-29.3	14.8	5.24e-03	0	44	102	1048576	15	4397
2026-01-05 00:35:15.92	14.80	22.40	-27.6	-29.4	14.7	4.01e-03	0	44	102	1048576	15	4431
2026-01-05 00:35:16.93	14.77	22.54	-27.8	-29.8	14.5	3.03e-04	0	44	102	1048576	15	4561
2026-01-05 00:35:17.93	14.74	22.68	-27.5	-29.2	14.8	4.02e-03	0	43	102	1048576	15	4385
2026-01-05 00:35:18.94	14.71	22.83	-27.3	-29.3	15.0	3.67e-03	0	44	102	1048576	14	4525
2026-01-05 00:35:19.95	14.68	22.98	-27.5	-29.2	14.9	7.00e-07	0	44	102	1048576	15	4366
2026-01-05 00:35:20.96	14.65	23.12	-27.6	-29.5	14.7	4.50e-03	0	43	102	1048576	15	4456
2026-01-05 00:35:21.96	14.62	23.27	-27.5	-29.2	14.9	4.05e-03	0	43	102	1048576	15	4367
2026-01-05 00:35:22.97	14.59	23.42	-27.3	-29.1	15.2	2.07e-04	0	43	102	1048576	14	4465
2026-01-05 00:35:23.97	14.56	23.57	-27.0	-28.6	15.5	2.04e-03	0	43	102	1048576	14	4303
2026-01-05 00:35:24.98	14.53	23.72	-26.9	-28.7	15.6	0.00e+00	0	44	102	1048576	13	4470
2026-01-05 00:35:25.99	14.50	23.87	-26.9	-28.8	15.6	0.00e+00	0	44	102	1048576	13	4473
2026-01-05 00:35:26.99	14.47	24.02	-27.1	-28.7	15.4	0.00e+00	0	43	102	1048576	14	4345
2026-01-05 00:35:28.00	14.44	24.18	-27.3	-29.3	15.1	3.67e-03	0	43	102	1048576	14	4521
2026-01-05 00:35:29.00	14.40	24.33	-27.0	-28.6	15.5	0.00e+00	0	44	102	1048576	14	4329
2026-01-05 00:35:30.01	14.37	24.48	-26.9	-28.7	15.7	0.00e+00	0	43	102	1048576	13	4461
2026-01-05 00:35:31.02	14.34	24.64	-27.2	-28.9	15.4	0.00e+00	0	43	102	1048576	14	4395
2026-01-05 00:35:32.02	14.31	24.80	-27.4	-29.5	15.0	0.00e+00	0	43	102	1048576	14	4561
2026-01-05 00:35:33.02	14.27	24.95	-27.4	-29.4	15.1	4.12e-03	0	43	102	1048576	14	4554
2026-01-05 00:35:34.03	14.24	25.11	-27.5	-29.6	14.9	0.00e+00	0	43	102	1048576	14	4611
2026-01-05 00:35:35.04	14.20	25.27	-27.5	-29.2	14.9	0.00e+00	0	43	102	1048576	15	4386
2026-01-05 00:35:36.05	14.17	25.43	-27.5	-29.3	14.9	0.00e+00	0	44	102	1048576	15	4389
2026-01-05 00:35:37.05	14.13	25.59	-27.6	-29.4	14.8	7.00e-07	0	44	102	1048576	15	4440
2026-01-05 00:35:38.06	14.10	25.76	-27.7	-29.6	14.7	1.50e-06	0	44	102	1048576	15	4490
2026-01-05 00:35:39.07	14.06	25.92	-27.6	-29.4	14.8	0.00e+00	0	43	102	1048576	15	4414
2026-01-05 00:35:40.08	14.02	26.08	-27.4	-29.5	15.0	0.00e+00	0	44	102	1048576	14	4578
2026-01-05 00:35:41.08	13.99	26.25	-27.7	-29.6	14.7	0.00e+00	0	44	102	1048576	15	4500
2026-01-05 00:35:42.09	13.95	26.42	-28.2	-30.2	14.2	0.00e+00	0	43	102	1048576	16	4543
2026-01-05 00:35:43.10	13.91	26.58	-28.0	-29.7	14.5	7.00e-07	0	43	102	1048576	16	4405
2026-01-05 00:35:44.11	13.87	26.75	-27.7	-29.7	14.7	7.00e-07	0	43	102	1048576	15	4519
2026-01-05 00:35:45.11	13.84	26.92	-28.0	-30.2	14.4	1.50e-06	0	43	102	1048576	15	4677
2026-01-05 00:35:46.11	13.80	27.09	-28.2	-30.2	14.3	1.50e-06	0	44	102	1048576	16	4548
2026-01-05 00:35:47.11	13.76	27.26	-28.3	-30.5	14.1	7.00e-07	0	43	102	1048576	16	4629
2026-01-05 00:35:48.12	13.72	27.43	-28.3	-30.5	14.1	2.20e-06	0	43	102	1048576	16	4620
2026-01-05 00:35:49.13	13.68	27.61	-28.4	-30.8	13.9	7.00e-07	0	43	102	1048576	16	4738
2026-01-05 00:35:50.14	13.63	27.78	-28.5	-30.9	13.9	4.50e-06	0	44	102	1048576	16	4753
2026-01-05 00:35:51.14	13.59	27.96	-28.5	-30.5	13.8	3.00e-06	0	43	102	1048576	17	4524
2026-01-05 00:35:52.15	13.55	28.14	-28.8	-31.2	13.4	1.06e-05	0	44	102	1048576	17	4733
2026-01-05 00:35:53.16	13.51	28.31	-28.5	-30.5	13.8	8.30e-06	0	43	102	1048576	17	4525
2026-01-05 00:35:54.16	13.47	28.49	-28.4	-30.7	14.0	3.00e-06	0	43	102	1048576	16	4705
2026-01-05 00:35:55.17	13.42	28.67	-28.5	-30.5	13.8	3.00e-06	0	43	102	1048576	17	4521
2026-01-05 00:35:56.18	13.38	28.86	-28.2	-29.7	14.3	7.00e-07	0	43	102	1048576	17	4288
2026-01-05 00:35:57.19	13.33	29.04	-28.1	-30.0	14.4	7.00e-07	0	43	102	1048576	16	4477
2026-01-05 00:35:58.19	13.29	29.22	-28.0	-30.2	13.8	4.39e-04	0	43	102	1048576	15	4676
2026-01-05 00:35:59.20	13.24	29.41	-28.1	-30.0	14.2	0.00e+00	0	43	102	1048576	16	4467
2026-01-05 00:36:00.19	13.20	29.59	-27.7	-29.7	14.7	0.00e+00	0	43	102	1048576	15	4516
2026-01-05 00:36:01.19	13.15	29.78	-27.7	-29.5	14.8	0.00e+00	0	43	102	1048576	15	4460
2026-01-05 00:36:02.18	13.10	29.96	-27.7	-29.5	14.9	7.00e-07	0	43	102	1048576	15	4443
2026-01-05 00:36:03.19	13.05	30.15	-27.6	-29.3	15.0	1.50e-06	0	43	102	1048576	15	4386
2026-01-05 00:36:04.19	13.01	30.34	-27.5	-29.1	15.0	0.00e+00	0	43	102	1048576	15	4348
2026-01-05 00:36:05.20	12.96	30.53	-27.5	-29.2	15.0	0.00e+00	0	43	102	1048576	15	4360
2026-01-05 00:36:06.21	12.91	30.73	-27.5	-29.2	15.1	0.00e+00	0	43	102	1048576	15	4351
2026-01-05 00:36:07.21	12.86	30.92	-27.6	-29.2	15.0	0.00e+00	0	43	102	1048576	15	4373
2026-01-05 00:36:08.21	12.80	31.12	-27.4	-28.9	15.2	4.82e-04	0	43	102	1048576	15	4265
2026-01-05 00:36:09.21	12.75	31.31	-27.4	-29.4	15.2	0.00e+00	0	43	102	1048576	14	4525
2026-01-05 00:36:10.21	12.70	31.51	-27.4	-29.0	15.1	0.00e+00	0	44	102	1048576	15	4296
2026-01-05 00:36:11.22	12.65	31.71	-27.4	-29.4	15.2	0.00e+00	0	43	102	1048576	14	4533
2026-01-05 00:36:12.23	12.59	31.91	-27.3	-29.2	15.3	0.00e+00	0	44	102	1048576	14	4479
2026-01-05 00:36:13.24	12.54	32.12	-27.4	-29.5	15.1	5.40e-04	0	44	102	1048576	14	4552
2026-01-05 00:36:14.24	12.48	32.32	-27.6	-29.3	15.0	4.78e-04	0	43	102	1048576	15	4382
2026-01-05 00:36:15.25	12.43	32.53	-27.7	-29.6	14.8	0.00e+00	0	43	102	1048576	15	4493
2026-01-05 00:36:16.25	12.37	32.73	-27.7	-29.5	14.9	0.00e+00	0	43	102	1048576	15	4449
2026-01-05 00:36:17.26	12.31	32.94	-27.8	-29.7	14.7	3.84e-04	0	43	102	1048576	15	4524
2026-01-05 00:36:18.27	12.25	33.15	-27.8	-29.8	14.7	7.00e-07	0	43	102	1048576	15	4544
2026-01-05 00:36:19.27	12.19	33.36	-28.2	-30.2	14.3	2.97e-04	0	43	102	1048576	16	4547
2026-01-05 00:36:20.27	12.13	33.57	-28.2	-30.1	14.4	2.97e-04	0	43	102	1048576	16	4500
2026-01-05 00:36:21.28	12.07	33.79	-28.0	-30.0	14.4	0.00e+00	0	44	102	1048576	16	4527
2026-01-05 00:36:22.29	12.01	34.00	-28.3	-30.6	14.2	3.80e-04	0	43	102	1048576	16	4642
2026-01-05 00:36:23.29	11.95	34.22	-28.4	-30.6	14.2	3.85e-04	0	43	102	1048576	16	4639
2026-01-05 00:36:24.30	11.88	34.44	-28.7	-30.8	13.8	7.00e-07	0	43	102	1048576	17	4604
2026-01-05 00:36:25.30	11.82	34.66	-28.9	-31.3	13.4	3.08e-04	0	43	102	1048576	17	4752
2026-01-05 00:36:26.31	11.75	34.88	-28.8	-31.1	13.6	1.62e-03	0	43	102	1048576	17	4694
2026-01-05 00:36:27.32	11.69	35.10	-29.2	-31.7	12.9	1.14e-03	0	43	102	1048576	18	4790
2026-01-05 00:36:28.32	11.62	35.33	-29.4	-32.1	12.7	3.90e-04	0	44	102	1048576	18	4919
2026-01-05 00:36:29.33	11.55	35.55	-29.3	-31.8	12.9	4.19e-04	0	43	102	1048576	18	4828
2026-01-05 00:36:30.34	11.48	35.78	-29.0	-31.2	13.2	3.35e-05	0	43	102	1048576	18	4615
2026-01-05 00:36:31.34	11.41	36.01	-28.9	-30.8	13.5	1.98e-04	0	43	102	1048576	18	4488
2026-01-05 00:36:32.35	11.34	36.24	-28.8	-31.1	13.6	8.60e-04	0	43	102	1048576	17	4697
2026-01-05 00:36:33.35	11.27	36.47	-28.9	-31.4	13.4	7.68e-04	0	43	102	1048576	17	4796
2026-01-05 00:36:34.36	11.19	36.71	-28.9	-31.4	13.4	3.49e-04	0	43	102	1048576	17	4791
2026-01-05 00:36:35.37	11.12	36.94	-29.1	-31.2	13.2	3.13e-04	0	43	102	1048576	18	4630
2026-01-05 00:36:36.37	11.04	37.18	-29.0	-31.0	13.4	3.10e-04	0	43	102	1048576	18	4543
2026-01-05 00:36:37.38	10.96	37.42	-29.0	-31.2	13.2	2.51e-05	0	43	102	1048576	18	4624
2026-01-05 00:36:38.37	10.89	37.66	-29.1	-31.3	13.2	2.01e-04	0	43	102	1048576	18	4653
2026-01-05 00:36:39.38	10.81	37.90	-29.0	-31.2	13.2	6.48e-05	0	43	102	1048576	18	4611
2026-01-05 00:36:40.39	10.72	38.14	-29.1	-31.3	13.2	2.93e-04	0	43	102	1048576	18	4660
2026-01-05 00:36:41.39	10.64	38.39	-29.2	-31.5	13.1	3.28e-05	0	43	102	1048576	18	4711
2026-01-05 00:36:42.40	10.56	38.64	-29.1	-31.4	13.1	3.43e-05	0	44	102	1048576	18	4696
2026-01-05 00:36:43.40	10.47	38.88	-29.1	-31.3	13.1	3.12e-05	0	44	102	1048576	18	4663
2026-01-05 00:36:44.40	10.39	39.13	-29.1	-31.2	13.2	5.49e-05	0	43	102	1048576	18	4630
2026-01-05 00:36:45.41	10.30	39.39	-29.1	-31.4	13.1	2.14e-04	0	43	102	1048576	18	4669
2026-01-05 00:36:46.42	10.21	39.64	-29.0	-31.1	13.3	1.52e-05	0	43	102	1048576	18	4584
2026-01-05 00:36:47.42	10.12	39.90	-28.9	-30.8	13.4	1.15e-04	0	43	102	1048576	18	4499
2026-01-05 00:36:48.42	10.03	40.15	-29.0	-31.0	13.4	1.18e-04	0	43	102	1048576	18	4533
2026-01-05 00:36:49.43	9.94	40.41	-29.0	-31.0	13.3	1.44e-05	0	44	102	1048576	18	4558
2026-01-05 00:36:50.43	9.84	40.67	-28.8	-31.1	13.5	6.35e-04	0	43	102	1048576	17	4710
2026-01-05 00:36:51.43	9.75	40.94	-28.9	-31.3	13.5	6.44e-04	0	44	102	1048576	17	4767
2026-01-05 00:36:52.44	9.65	41.20	-28.9	-31.3	13.5	7.60e-06	0	43	102	1048576	17	4762
2026-01-05 00:36:53.44	9.55	41.47	-28.9	-30.9	13.4	6.87e-04	0	43	102	1048576	18	4523
2026-01-05 00:36:54.45	9.44	41.74	-28.7	-30.9	13.7	7.48e-04	0	44	102	1048576	17	4636
2026-01-05 00:36:55.46	9.34	42.01	-28.7	-31.0	13.7	5.30e-06	0	44	102	1048576	17	4655
2026-01-05 00:36:56.47	9.23	42.28	-28.9	-31.4	13.4	1.37e-05	0	43	102	1048576	17	4788
2026-01-05 00:36:57.47	9.13	42.56	-29.2	-31.6	13.0	3.12e-05	0	44	102	1048576	18	4728
2026-01-05 00:36:58.48	9.02	42.83	-29.3	-31.9	12.8	5.49e-05	0	44	102	1048576	18	4856
2026-01-05 00:36:59.49	8.91	43.11	-29.6	-32.0	12.4	8.28e-04	0	44	102	1048576	19	4767
2026-01-05 00:37:00.49	8.79	43.39	-29.6	-32.0	12.4	1.34e-04	0	43	102	1048576	19	4773
2026-01-05 00:37:01.50	8.68	43.68	-29.7	-32.3	12.2	2.43e-04	0	43	102	1048576	19	4884
2026-01-05 00:37:02.51	8.56	43.96	-29.7	-32.3	12.2	2.44e-04	0	44	102	1048576	19	4889
2026-01-05 00:37:03.51	8.44	44.25	-29.8	-32.6	12.1	2.61e-04	0	43	102	1048576	19	4968
2026-01-05 00:37:04.52	8.32	44.54	-29.9	-33.0	11.8	4.35e-04	0	44	102	1048576	19	5125
2026-01-05 00:37:05.52	8.20	44.82	-30.0	-32.8	11.5	6.35e-04	0	43	102	1048576	20	4946
2026-01-05 00:37:06.52	8.07	45.11	-30.1	-33.1	11.4	9.80e-04	0	44	102	1048576	20	5053
2026-01-05 00:37:07.53	7.94	45.41	-30.2	-33.2	11.2	1.31e-03	0	43	102	1048576	20	5097
2026-01-05 00:37:08.53	7.81	45.70	-30.1	-33.0	11.4	8.93e-04	0	44	102	1048576	20	5030
2026-01-05 00:37:09.54	7.68	46.00	-30.0	-32.8	11.6	7.06e-04	0	43	102	1048576	20	4934
2026-01-05 00:37:10.55	7.54	46.31	-29.8	-32.0	12.0	3.04e-04	0	43	102	1048576	20	4679
2026-01-05 00:37:11.56	7.40	46.61	-29.6	-32.2	12.4	1.69e-04	0	43	102	1048576	19	4826
2026-01-05 00:37:12.56	7.26	46.91	-29.5	-31.7	12.6	1.06e-04	0	43	102	1048576	19	4679
2026-01-05 00:37:13.57	7.11	47.22	-29.5	-31.7	12.6	1.11e-04	0	44	102	1048576	19	4681
2026-01-05 00:37:14.56	6.97	47.52	-29.6	-32.0	12.5	9.68e-05	0	43	102	1048576	19	4783
2026-01-05 00:37:15.56	6.82	47.83	-29.5	-31.9	12.6	1.42e-04	0	43	102	1048576	19	4734
2026-01-05 00:37:16.57	6.66	48.14	-29.3	-31.2	13.0	3.81e-05	0	44	102	1048576	19	4516
2026-01-05 00:37:17.58	6.50	48.46	-29.1	-31.4	13.2	2.28e-05	0	44	102	1048576	18	4681
2026-01-05 00:37:18.59	6.34	48.78	-29.1	-31.5	13.1	2.59e-05	0	44	102	1048576	18	4696
2026-01-05 00:37:19.59	6.18	49.09	-29.0	-31.2	13.3	1.22e-05	0	43	102	1048576	18	4599
2026-01-05 00:37:20.60	6.01	49.42	-29.0	-31.2	13.3	2.28e-05	0	43	102	1048576	18	4596
2026-01-05 00:37:21.61	5.84	49.74	-29.2	-31.6	13.0	3.43e-05	0	44	102	1048576	18	4757
2026-01-05 00:37:22.61	5.66	50.06	-29.6	-32.2	12.4	1.19e-04	0	43	102	1048576	19	4833
2026-01-05 00:37:23.62	5.48	50.39	-29.8	-32.5	12.2	2.53e-04	0	43	102	1048576	19	4945
2026-01-05 00:37:24.63	5.30	50.72	-29.7	-32.5	12.2	1.79e-04	0	43	102	1048576	19	4924
2026-01-05 00:37:25.64	5.11	51.05	-29.2	-32.1	12.1	2.86e-04	0	44	102	1048576	19	4989
2026-01-05 00:37:26.64	4.92	51.38	-29.6	-32.1	12.4	1.78e-04	0	43	102	1048576	19	4801
2026-01-05 00:37:27.65	4.73	51.72	-29.1	-31.3	13.1	3.35e-05	0	43	102	1048576	18	4632
2026-01-05 00:37:28.66	4.52	52.06	-28.8	-30.6	13.6	1.14e-05	0	43	102	1048576	18	4418
2026-01-05 00:37:29.67	4.32	52.40	-28.6	-30.7	13.9	6.80e-06	0	44	102	1048576	17	4578
2026-01-05 00:37:30.67	4.11	52.74	-28.6	-30.7	13.9	4.50e-06	0	44	102	1048576	17	4564
2026-01-05 00:37:31.68	3.89	53.08	-28.7	-31.0	13.7	7.60e-06	0	44	102	1048576	17	4652
2026-01-05 00:37:32.69	3.67	53.43	-28.7	-30.8	13.9	6.10e-06	0	44	102	1048576	17	4592
2026-01-05 00:37:33.70	3.45	53.78	-28.6	-30.7	13.9	4.50e-06	0	43	102	1048576	17	4571
2026-01-05 00:37:34.70	3.22	54.12	-28.5	-30.4	14.0	3.00e-06	0	43	102	1048576	17	4482
2026-01-05 00:37:35.71	2.98	54.47	-28.5	-30.5	14.1	3.80e-06	0	44	102	1048576	17	4503
2026-01-05 00:37:36.72	2.74	54.83	-28.4	-30.1	14.3	0.00e+00	0	43	102	1048576	17	4390
2026-01-05 00:37:37.72	2.49	55.18	-28.1	-29.5	14.6	1.50e-06	0	43	102	1048576	17	4225
2026-01-05 00:37:38.73	2.23	55.54	-28.0	-29.7	14.8	0.00e+00	0	44	102	1048576	16	4382
2026-01-05 00:37:39.74	1.97	55.90	-27.7	-29.6	14.9	7.00e-07	0	43	102	1048576	15	4482
2026-01-05 00:37:40.74	1.70	56.25	-27.8	-29.7	14.9	0.00e+00	0	44	102	1048576	15	4509
2026-01-05 00:37:41.75	1.42	56.62	-27.7	-29.7	14.9	0.00e+00	0	43	102	1048576	15	4488
2026-01-05 00:37:42.76	1.14	56.98	-27.9	-29.9	14.7	0.00e+00	0	44	102	1048576	15	4566
2026-01-05 00:37:43.76	0.85	57.34	-27.6	-29.3	15.1	7.00e-07	0	43	102	1048576	15	4380
2026-01-05 00:37:44.77	0.55	57.71	-27.4	-28.9	15.4	0.00e+00	0	43	102	1048576	15	4275
2026-01-05 00:37:45.78	0.24	58.08	-27.4	-29.3	15.4	0.00e+00	0	43	102	1048576	14	4500
2026-01-05 00:37:46.79	359.92	58.45	-27.3	-29.2	15.5	0.00e+00	0	43	102	1048576	14	4468
2026-01-05 00:37:47.79	359.60	58.82	-27.4	-29.4	15.2	0.00e+00	0	43	102	1048576	14	4530
2026-01-05 00:37:48.80	359.26	59.19	-27.5	-29.0	15.3	0.00e+00	0	44	102	1048576	15	4299
2026-01-05 00:37:49.81	358.91	59.57	-27.3	-29.1	15.5	0.00e+00	0	43	102	1048576	14	4450
2026-01-05 00:37:50.82	358.56	59.94	-27.2	-29.0	15.6	0.00e+00	0	43	102	1048576	14	4410
2026-01-05 00:37:51.82	358.19	60.32	-27.3	-29.2	15.5	0.00e+00	0	43	102	1048576	14	4466
2026-01-05 00:37:52.82	357.82	60.69	-27.1	-28.8	15.7	0.00e+00	0	43	102	1048576	14	4341
2026-01-05 00:37:53.82	357.43	61.07	-27.3	-29.1	15.6	2.64e-03	0	43	102	1048576	14	4445
2026-01-05 00:37:54.83	357.03	61.45	-27.1	-28.8	15.8	0.00e+00	0	44	102	1048576	14	4341
2026-01-05 00:37:55.84	356.62	61.83	-26.7	-28.3	16.2	0.00e+00	0	43	102	1048576	13	4331
2026-01-05 00:37:56.85	356.19	62.21	-26.5	-27.8	16.5	0.00e+00	0	43	102	1048576	13	4195
2026-01-05 00:37:57.85	355.75	62.59	-26.6	-28.1	16.4	0.00e+00	0	44	102	1048576	13	4260
2026-01-05 00:37:58.85	355.30	62.97	-26.5	-27.9	16.4	6.47e-04	0	43	102	1048576	13	4234
2026-01-05 00:37:59.85	354.84	63.35	-26.6	-28.2	16.3	8.89e-04	0	43	102	1048576	13	4301
2026-01-05 00:38:00.86	354.35	63.74	-26.7	-28.4	16.2	0.00e+00	0	43	102	1048576	13	4351
2026-01-05 00:38:01.86	353.85	64.12	-26.6	-28.0	16.3	3.80e-06	0	43	102	1048576	13	4246
2026-01-05 00:38:02.86	353.34	64.50	-26.6	-28.1	16.2	2.26e-03	0	43	102	1048576	13	4280
2026-01-05 00:38:03.87	352.80	64.89	-26.5	-27.9	16.4	0.00e+00	0	43	102	1048576	13	4231
2026-01-05 00:38:04.87	352.25	65.27	-26.6	-28.2	16.3	2.26e-03	0	43	102	1048576	13	4298
2026-01-05 00:38:05.88	351.68	65.65	-26.6	-28.2	16.3	0.00e+00	0	43	102	1048576	13	4294
2026-01-05 00:38:06.89	351.08	66.04	-26.4	-27.8	16.5	0.00e+00	0	44	102	1048576	13	4186
2026-01-05 00:38:07.90	350.46	66.42	-26.6	-28.1	16.3	2.07e-03	0	44	102	1048576	13	4277
2026-01-05 00:38:08.90	349.83	66.80	-26.7	-28.3	16.2	2.42e-03	0	43	102	1048576	13	4319
2026-01-05 00:38:09.91	349.16	67.18	-27.1	-28.7	15.8	0.00e+00	0	43	102	1048576	14	4327
2026-01-05 00:38:10.92	348.48	67.56	-27.0	-28.4	15.9	2.58e-03	0	43	102	1048576	14	4249
2026-01-05 00:38:11.93	347.76	67.94	-26.8	-28.4	16.2	1.98e-03	0	43	102	1048576	13	4364
2026-01-05 00:38:12.93	347.03	68.32	-26.6	-28.1	16.4	0.00e+00	0	43	102	1048576	13	4263
2026-01-05 00:38:13.94	346.26	68.69	-26.6	-28.0	16.4	1.84e-03	0	44	102	1048576	13	4257
2026-01-05 00:38:14.95	345.46	69.07	-26.8	-28.5	16.1	2.11e-03	0	44	102	1048576	13	4388
2026-01-05 00:38:15.96	344.62	69.44	-26.5	-27.8	16.5	0.00e+00	0	44	102	1048576	13	4185
2026-01-05 00:38:16.97	343.76	69.81	-26.1	-27.4	17.0	1.94e-03	0	43	102	1048576	12	4183
2026-01-05 00:38:17.97	342.87	70.17	-25.9	-27.1	17.1	0.00e+00	0	44	102	1048576	12	4120
2026-01-05 00:38:18.98	341.93	70.53	-26.3	-27.8	16.8	0.00e+00	0	43	102	1048576	12	4318
2026-01-05 00:38:19.99	340.96	70.89	-25.9	-27.0	17.2	1.88e-03	0	43	102	1048576	12	4100
2026-01-05 00:38:20.99	339.96	71.24	-26.1	-27.5	16.9	1.41e-03	0	43	102	1048576	12	4234
2026-01-05 00:38:22.00	338.91	71.59	-26.3	-28.0	16.7	0.00e+00	0	43	102	1048576	12	4346
2026-01-05 00:38:23.01	337.81	71.93	-26.4	-28.2	16.6	0.00e+00	0	44	102	1048576	12	4412
2026-01-05 00:38:24.02	336.67	72.27	-26.2	-27.8	16.8	0.00e+00	0	44	102	1048576	12	4297
2026-01-05 00:38:25.02	335.49	72.60	-26.0	-27.3	17.1	0.00e+00	0	43	102	1048576	12	4180
2026-01-05 00:38:26.03	334.26	72.93	-26.1	-27.4	17.0	1.54e-04	0	43	102	1048576	12	4197
2026-01-05 00:38:27.03	332.98	73.25	-26.0	-27.3	17.1	2.17e-04	0	43	102	1048576	12	4181
2026-01-05 00:38:28.04	331.65	73.56	-26.4	-28.2	16.6	0.00e+00	0	43	102	1048576	12	4406
2026-01-05 00:38:29.04	330.27	73.86	-26.2	-27.6	16.8	0.00e+00	0	43	102	1048576	12	4262
2026-01-05 00:38:30.06	328.81	74.16	-25.9	-27.0	17.2	0.00e+00	0	43	102	1048576	12	4077
2026-01-05 00:38:31.06	327.32	74.44	-26.1	-27.4	17.1	0.00e+00	0	44	102	1048576	12	4201
2026-01-05 00:38:32.07	325.76	74.72	-26.2	-27.6	16.9	0.00e+00	0	43	102	1048576	12	4252
2026-01-05 00:38:33.07	324.15	74.98	-26.2	-27.7	16.8	0.00e+00	0	43	102	1048576	12	4275
2026-01-05 00:38:34.08	322.48	75.23	-26.1	-27.4	17.0	0.00e+00	0	43	102	1048576	12	4201
2026-01-05 00:38:35.08	320.76	75.47	-26.3	-28.0	16.7	0.00e+00	0	43	102	1048576	12	4356
2026-01-05 00:38:36.09	318.96	75.70	-26.4	-28.2	16.6	0.00e+00	0	43	102	1048576	12	4408
2026-01-05 00:38:37.10	317.10	75.92	-26.2	-27.8	16.7	0.00e+00	0	44	102	1048576	12	4298
2026-01-05 00:38:38.10	315.21	76.12	-26.1	-27.6	16.8	0.00e+00	0	44	102	1048576	12	4237
2026-01-05 00:38:39.11	313.24	76.30	-26.2	-27.8	16.8	0.00e+00	0	44	102	1048576	12	4297
2026-01-05 00:38:40.11	311.24	76.47	-26.5	-27.9	16.5	0.00e+00	0	43	102	1048576	13	4213
2026-01-05 00:38:41.12	309.16	76.62	-26.5	-27.9	16.5	0.00e+00	0	43	102	1048576	13	4220
2026-01-05 00:38:42.12	307.07	76.76	-26.2	-27.3	16.8	0.00e+00	0	43	102	1048576	13	4051
2026-01-05 00:38:43.13	304.91	76.88	-26.2	-27.2	16.8	0.00e+00	0	44	102	1048576	13	4024
2026-01-05 00:38:44.13	302.73	76.98	-26.5	-27.9	16.4	0.00e+00	0	44	102	1048576	13	4219
2026-01-05 00:38:45.14	300.50	77.06	-26.6	-28.0	16.4	0.00e+00	0	43	102	1048576	13	4261
2026-01-05 00:38:46.15	298.24	77.12	-27.0	-28.9	15.9	0.00e+00	0	43	102	1048576	13	4497
2026-01-05 00:38:47.15	295.99	77.16	-26.9	-28.3	16.0	0.00e+00	0	43	102	1048576	14	4219
2026-01-05 00:38:48.16	293.70	77.18	-27.0	-28.5	15.8	0.00e+00	0	43	102	1048576	14	4280
2026-01-05 00:38:49.17	291.41	77.18	-27.1	-28.7	15.8	0.00e+00	0	43	102	1048576	14	4335
2026-01-05 00:38:50.17	289.15	77.17	-27.3	-29.2	15.5	0.00e+00	0	43	102	1048576	14	4476
2026-01-05 00:38:51.18	286.87	77.13	-26.9	-28.3	15.9	0.00e+00	0	43	102	1048576	14	4216
2026-01-05 00:38:52.19	284.61	77.07	-26.5	-27.4	16.4	3.00e-06	0	43	102	1048576	14	3990
2026-01-05 00:38:53.20	282.37	77.00	-26.5	-27.9	16.4	0.00e+00	0	43	102	1048576	13	4216
2026-01-05 00:38:54.20	280.18	76.90	-26.8	-28.6	16.0	2.30e-04	0	43	102	1048576	13	4418
2026-01-05 00:38:55.21	278.01	76.79	-26.8	-28.1	16.0	7.01e-05	0	43	102	1048576	14	4170
2026-01-05 00:38:56.21	275.90	76.66	-26.5	-27.5	16.4	0.00e+00	0	43	102	1048576	14	4000
2026-01-05 00:38:57.22	273.81	76.51	-26.7	-27.9	16.2	0.00e+00	0	44	102	1048576	14	4110
2026-01-05 00:38:58.23	271.78	76.34	-26.7	-27.7	16.3	1.46e-04	0	43	102	1048576	14	4075
2026-01-05 00:38:59.23	269.81	76.16	-26.5	-27.9	16.4	0.00e+00	0	43	102	1048576	13	4228
2026-01-05 00:39:00.23	267.90	75.97	-26.6	-28.2	16.3	2.00e-04	0	43	102	1048576	13	4293
2026-01-05 00:39:01.24	266.03	75.76	-27.0	-28.9	15.8	2.36e-05	0	44	102	1048576	13	4513
2026-01-05 00:39:02.25	264.22	75.53	-26.7	-28.3	16.2	0.00e+00	0	43	102	1048576	13	4328
2026-01-05 00:39:03.25	262.48	75.30	-26.4	-27.7	16.5	1.65e-04	0	43	102	1048576	13	4159
2026-01-05 00:39:04.26	260.79	75.04	-26.6	-28.1	16.3	3.26e-04	0	43	102	1048576	13	4269
2026-01-05 00:39:05.26	259.17	74.78	-26.5	-27.8	16.5	0.00e+00	0	43	102	1048576	13	4194
2026-01-05 00:39:06.27	257.59	74.51	-26.2	-27.8	16.8	1.52e-04	0	43	102	1048576	12	4297
2026-01-05 00:39:07.27	256.09	74.23	-26.4	-28.1	16.6	2.42e-04	0	43	102	1048576	12	4374
2026-01-05 00:39:08.28	254.62	73.94	-26.3	-27.9	16.7	0.00e+00	0	43	102	1048576	12	4327
2026-01-05 00:39:09.29	253.22	73.63	-26.4	-28.1	16.5	1.87e-04	0	43	102	1048576	12	4395
2026-01-05 00:39:10.29	251.88	73.33	-26.6	-28.1	16.3	0.00e+00	0	43	102	1048576	13	4291
2026-01-05 00:39:11.30	250.58	73.01	-26.2	-27.2	16.8	0.00e+00	0	43	102	1048576	13	4042
2026-01-05 00:39:12.30	249.34	72.69	-26.0	-27.3	17.0	7.00e-07	0	43	102	1048576	12	4162
2026-01-05 00:39:13.31	248.14	72.35	-26.2	-27.8	16.7	0.00e+00	0	44	102	1048576	12	4295
2026-01-05 00:39:14.31	247.00	72.02	-25.8	-27.2	15.6	0.00e+00	0	43	102	1048576	13	4249
2026-01-05 00:39:15.32	245.89	71.67	-26.6	-28.1	16.1	0.00e+00	0	43	102	1048576	13	4286
2026-01-05 00:39:16.33	244.82	71.33	-26.8	-28.6	13.5	2.44e-05	0	43	102	1048576	13	4421
2026-01-05 00:39:17.34	243.80	70.97	-26.4	-28.1	16.5	0.00e+00	0	43	102	1048576	12	4384
2026-01-05 00:39:18.35	242.82	70.61	-25.9	-27.1	17.0	0.00e+00	0	43	102	1048576	12	4134
2026-01-05 00:39:19.35	241.88	70.26	-26.0	-27.2	16.9	0.00e+00	0	44	102	1048576	12	4148
2026-01-05 00:39:20.35	240.98	69.89	-26.2	-27.7	16.7	3.37e-03	0	44	102	1048576	12	4283
2026-01-05 00:39:21.36	240.11	69.53	-26.5	-27.9	16.3	0.00e+00	0	43	102	1048576	13	4237
2026-01-05 00:39:22.37	239.26	69.15	-26.4	-27.7	16.4	0.00e+00	0	43	102	1048576	13	4176
2026-01-05 00:39:23.38	238.46	68.78	-26.1	-27.4	16.9	0.00e+00	0	43	102	1048576	12	4207
2026-01-05 00:39:24.38	237.68	68.41	-25.9	-27.0	17.0	0.00e+00	0	44	102	1048576	12	4094
2026-01-05 00:39:25.39	236.93	68.03	-26.0	-27.2	17.0	3.77e-03	0	43	102	1048576	12	4162
2026-01-05 00:39:26.40	236.21	67.65	-26.4	-28.1	16.4	3.01e-03	0	43	102	1048576	12	4406
2026-01-05 00:39:27.40	235.52	67.27	-26.8	-28.7	15.9	1.83e-05	0	43	102	1048576	13	4445
2026-01-05 00:39:28.41	234.85	66.89	-27.1	-28.8	15.6	0.00e+00	0	43	102	1048576	14	4351
2026-01-05 00:39:29.42	234.20	66.51	-26.9	-28.4	15.7	4.65e-04	0	43	102	1048576	14	4241
2026-01-05 00:39:30.43	233.58	66.12	-26.9	-28.3	15.7	0.00e+00	0	43	102	1048576	14	4231
2026-01-05 00:39:31.43	232.98	65.74	-26.5	-28.0	16.3	3.37e-03	0	43	102	1048576	13	4242
2026-01-05 00:39:32.44	232.40	65.35	-26.1	-27.4	16.8	3.03e-03	0	43	102	1048576	12	4215
2026-01-05 00:39:33.45	231.84	64.97	-26.2	-27.7	16.5	5.30e-06	0	43	102	1048576	12	4285
2026-01-05 00:39:34.46	231.30	64.58	-26.7	-28.3	16.0	3.75e-03	0	43	102	1048576	13	4341
2026-01-05 00:39:35.47	230.77	64.20	-27.4	-29.5	15.2	3.62e-03	0	43	102	1048576	14	4567
2026-01-05 00:39:36.47	230.27	63.81	-27.2	-28.5	15.4	0.00e+00	0	43	102	1048576	15	4175
2026-01-05 00:39:37.48	229.78	63.43	-26.2	-27.2	16.6	3.38e-03	0	43	102	1048576	13	4032
2026-01-05 00:39:38.48	229.31	63.05	-25.6	-26.8	17.4	3.25e-03	0	44	102	1048576	11	4152
2026-01-05 00:39:39.49	228.85	62.66	-25.5	-26.6	17.6	0.00e+00	0	43	102	1048576	11	4095
2026-01-05 00:39:40.49	228.41	62.28	-25.5	-26.7	17.4	0.00e+00	0	44	102	1048576	11	4126
2026-01-05 00:39:41.50	227.98	61.90	-25.8	-27.2	17.1	2.78e-03	0	43	102	1048576	11	4261
2026-01-05 00:39:42.51	227.56	61.51	-26.4	-28.3	16.2	0.00e+00	0	43	102	1048576	12	4439
2026-01-05 00:39:43.51	227.16	61.14	-27.2	-28.9	15.5	3.34e-03	0	43	102	1048576	14	4379
2026-01-05 00:39:44.52	226.77	60.76	-27.5	-29.1	14.9	0.00e+00	0	44	102	1048576	15	4327
2026-01-05 00:39:45.53	226.39	60.38	-27.2	-28.4	15.0	7.00e-07	0	44	102	1048576	15	4144
2026-01-05 00:39:46.54	226.02	60.00	-26.9	-28.2	15.5	3.67e-03	0	43	102	1048576	14	4210
2026-01-05 00:39:47.54	225.66	59.62	-27.1	-28.7	15.5	3.33e-03	0	44	102	1048576	14	4323
2026-01-05 00:39:48.55	225.31	59.25	-27.3	-29.1	15.3	7.00e-07	0	43	102	1048576	14	4438
2026-01-05 00:39:49.55	224.98	58.88	-27.5	-29.2	14.9	0.00e+00	0	43	102	1048576	15	4373
2026-01-05 00:39:50.56	224.65	58.50	-28.3	-30.6	14.1	2.20e-06	0	43	102	1048576	16	4656
2026-01-05 00:39:51.57	224.33	58.13	-29.2	-31.6	12.9	2.21e-05	0	43	102	1048576	18	4779
2026-01-05 00:39:52.58	224.01	57.76	-29.7	-32.5	12.0	3.29e-04	0	43	102	1048576	19	4953
2026-01-05 00:39:53.59	223.71	57.39	-29.7	-32.6	11.8	2.67e-03	0	43	102	1048576	19	5011
2026-01-05 00:39:54.59	223.42	57.03	-29.4	-31.6	12.5	2.10e-04	0	43	102	1048576	19	4659
2026-01-05 00:39:55.59	223.13	56.66	-29.1	-31.4	13.0	6.10e-05	0	43	102	1048576	18	4687
2026-01-05 00:39:56.60	222.85	56.30	-29.1	-31.3	13.1	3.96e-05	0	43	102	1048576	18	4653
2026-01-05 00:39:57.60	222.59	55.94	-28.7	-30.3	13.6	1.60e-05	0	43	102	1048576	18	4355
2026-01-05 00:39:58.61	222.32	55.58	-28.4	-30.1	13.9	3.00e-06	0	43	102	1048576	17	4398
2026-01-05 00:39:59.61	222.06	55.23	-28.6	-30.6	13.6	5.30e-06	0	43	102	1048576	17	4545
2026-01-05 00:40:00.62	221.81	54.87	-29.3	-31.9	12.6	4.11e-05	0	43	102	1048576	18	4840
2026-01-05 00:40:01.63	221.57	54.51	-30.0	-32.8	11.4	7.46e-04	0	43	102	1048576	20	4982
2026-01-05 00:40:02.64	221.33	54.16	-30.4	-33.9	10.6	2.46e-03	0	43	102	1048576	20	5381
2026-01-05 00:40:03.64	221.10	53.81	-30.2	-32.9	10.9	3.36e-03	0	43	102	1048576	21	4912
2026-01-05 00:40:04.65	220.87	53.46	-29.6	-31.8	12.0	4.40e-04	0	43	102	1048576	20	4627
2026-01-05 00:40:05.66	220.64	53.11	-29.0	-30.5	13.2	6.79e-05	0	43	102	1048576	19	4319
2026-01-05 00:40:06.66	220.43	52.77	-28.5	-29.9	13.9	6.10e-06	0	43	102	1048576	18	4246
2026-01-05 00:40:07.67	220.22	52.43	-28.2	-29.6	14.3	3.00e-06	0	43	102	1048576	17	4260
2026-01-05 00:40:08.68	220.01	52.09	-28.2	-30.3	14.1	1.93e-04	0	43	102	1048576	16	4574
2026-01-05 00:40:09.68	219.81	51.75	-28.7	-31.1	13.4	1.60e-04	0	44	102	1048576	17	4695
2026-01-05 00:40:10.69	219.61	51.41	-29.5	-32.4	12.2	1.69e-04	0	43	102	1048576	18	5027
2026-01-05 00:40:11.69	219.42	51.08	-29.7	-32.3	12.0	6.21e-04	0	44	102	1048576	19	4901
2026-01-05 00:40:12.70	219.23	50.75	-29.9	-33.0	11.5	4.68e-04	0	43	102	1048576	19	5150
2026-01-05 00:40:13.71	219.04	50.42	-29.9	-32.6	11.3	1.57e-03	0	43	102	1048576	20	4904
2026-01-05 00:40:14.71	218.87	50.09	-29.4	-31.7	12.4	5.44e-04	0	43	102	1048576	19	4679
2026-01-05 00:40:15.72	218.69	49.76	-28.7	-30.3	13.5	2.43e-04	0	43	102	1048576	18	4356
2026-01-05 00:40:16.73	218.51	49.44	-28.4	-30.3	13.9	5.30e-06	0	44	102	1048576	17	4462
2026-01-05 00:40:17.74	218.35	49.11	-28.7	-30.9	13.6	2.55e-04	0	44	102	1048576	17	4640
2026-01-05 00:40:18.74	218.18	48.79	-28.7	-31.0	13.5	2.78e-04	0	43	102	1048576	17	4673
2026-01-05 00:40:19.75	218.02	48.47	-28.7	-31.0	13.5	1.06e-05	0	43	102	1048576	17	4664
2026-01-05 00:40:20.75	217.86	48.16	-28.7	-30.9	13.5	2.65e-04	0	44	102	1048576	17	4636
2026-01-05 00:40:21.76	217.71	47.85	-28.6	-30.8	13.6	2.43e-04	0	43	102	1048576	17	4603
2026-01-05 00:40:22.77	217.55	47.53	-28.9	-31.5	13.1	1.44e-05	0	43	102	1048576	17	4829
2026-01-05 00:40:23.78	217.40	47.22	-29.2	-31.7	12.7	7.01e-05	0	43	102	1048576	18	4785
2026-01-05 00:40:24.79	217.26	46.91	-29.3	-31.8	12.6	8.46e-05	0	43	102	1048576	18	4839
2026-01-05 00:40:25.79	217.11	46.61	-29.4	-32.1	12.4	1.05e-04	0	44	102	1048576	18	4928
2026-01-05 00:40:26.79	216.97	46.31	-29.5	-32.0	12.1	6.35e-04	0	43	102	1048576	19	4801
2026-01-05 00:40:27.80	216.84	46.00	-29.5	-32.1	12.0	3.99e-04	0	44	102	1048576	19	4826
2026-01-05 00:40:28.80	216.70	45.71	-29.4	-31.7	12.3	2.49e-04	0	43	102	1048576	19	4710
2026-01-05 00:40:29.80	216.57	45.41	-29.3	-31.9	12.5	1.28e-04	0	43	102	1048576	18	4872
2026-01-05 00:40:30.81	216.44	45.11	-29.0	-31.2	13.0	5.11e-04	0	44	102	1048576	18	4636
2026-01-05 00:40:31.81	216.31	44.82	-28.8	-31.3	13.2	1.60e-05	0	43	102	1048576	17	4771
2026-01-05 00:40:32.82	216.19	44.53	-29.0	-31.6	13.0	1.60e-05	0	43	102	1048576	17	4860
2026-01-05 00:40:33.83	216.06	44.24	-29.3	-32.0	12.5	7.85e-05	0	43	102	1048576	18	4890
2026-01-05 00:40:34.83	215.94	43.95	-29.8	-32.8	11.7	4.60e-04	0	44	102	1048576	19	5074
2026-01-05 00:40:35.84	215.83	43.66	-29.8	-32.8	11.7	7.06e-04	0	44	102	1048576	19	5063
2026-01-05 00:40:36.85	215.71	43.38	-29.7	-32.5	11.9	3.89e-03	0	43	102	1048576	19	4961
2026-01-05 00:40:37.86	215.59	43.10	-29.5	-32.4	12.2	2.59e-04	0	44	102	1048576	18	5060
2026-01-05 00:40:38.87	215.48	42.81	-29.5	-32.4	12.2	1.99e-04	0	44	102	1048576	18	5060
2026-01-05 00:40:39.86	215.37	42.54	-29.6	-32.3	12.0	2.57e-04	0	43	102	1048576	19	4902
2026-01-05 00:40:40.87	215.27	42.26	-30.0	-33.2	11.4	7.71e-04	0	44	102	1048576	19	5231
2026-01-05 00:40:41.88	215.16	41.99	-30.0	-32.8	11.2	1.24e-03	0	44	102	1048576	20	4987
2026-01-05 00:40:42.89	215.05	41.72	-30.5	-33.8	10.2	7.18e-03	0	43	102	1048576	21	5241
2026-01-05 00:40:43.90	214.95	41.44	-30.5	-33.9	10.2	6.16e-03	0	44	102	1048576	21	5309
2026-01-05 00:40:44.90	214.85	41.18	-30.4	-33.6	10.4	4.99e-03	0	43	102	1048576	21	5165
2026-01-05 00:40:45.91	214.75	40.91	-30.1	-33.2	11.0	2.49e-03	0	44	102	1048576	20	5140
2026-01-05 00:40:46.91	214.65	40.65	-29.9	-32.7	11.3	3.91e-03	0	43	102	1048576	20	4932
2026-01-05 00:40:47.92	214.56	40.38	-29.8	-32.4	11.5	9.51e-04	0	44	102	1048576	20	4834
2026-01-05 00:40:48.93	214.46	40.12	-29.9	-33.0	11.5	9.41e-04	0	43	102	1048576	19	5141
2026-01-05 00:40:49.94	214.37	39.86	-29.7	-32.5	11.8	5.33e-04	0	43	102	1048576	19	4976
2026-01-05 00:40:50.94	214.28	39.60	-30.1	-33.1	11.1	9.93e-04	0	43	102	1048576	20	5072
2026-01-05 00:40:51.95	214.19	39.35	-30.0	-32.8	11.2	3.62e-03	0	43	102	1048576	20	4966
2026-01-05 00:40:52.96	214.10	39.09	-29.9	-33.1	11.5	3.47e-03	0	44	102	1048576	19	5183
2026-01-05 00:40:53.97	214.01	38.84	-30.0	-32.9	11.2	1.18e-03	0	43	102	1048576	20	5017
2026-01-05 00:40:54.97	213.93	38.59	-30.4	-34.1	10.4	7.11e-03	0	44	102	1048576	20	5469
2026-01-05 00:40:55.98	213.84	38.34	-30.3	-33.7	10.6	7.49e-03	0	44	102	1048576	20	5316
2026-01-05 00:40:56.99	213.76	38.09	-30.2	-33.5	10.8	2.72e-03	0	43	102	1048576	20	5231
2026-01-05 00:40:58.00	213.68	37.85	-30.1	-33.2	10.9	5.88e-03	0	44	102	1048576	20	5142
2026-01-05 00:40:59.00	213.60	37.61	-30.0	-32.9	11.1	5.20e-03	0	44	102	1048576	20	5026
2026-01-05 00:41:00.01	213.52	37.36	-29.9	-32.6	11.3	1.24e-03	0	44	102	1048576	20	4928
2026-01-05 00:41:01.01	213.44	37.13	-29.9	-33.0	11.4	9.84e-04	0	43	102	1048576	19	5171
2026-01-05 00:41:02.02	213.36	36.89	-29.5	-32.1	12.0	3.08e-03	0	43	102	1048576	19	4828
2026-01-05 00:41:03.03	213.29	36.65	-29.1	-31.0	12.7	1.27e-04	0	43	102	1048576	19	4476
2026-01-05 00:41:04.04	213.21	36.41	-28.8	-30.8	13.1	2.23e-03	0	44	102	1048576	18	4514
2026-01-05 00:41:05.05	213.14	36.18	-28.6	-30.7	13.5	2.34e-03	0	43	102	1048576	17	4614
2026-01-05 00:41:06.05	213.07	35.95	-28.6	-30.9	13.4	1.90e-05	0	44	102	1048576	17	4663
2026-01-05 00:41:07.06	213.00	35.72	-28.9	-31.6	12.9	3.81e-05	0	43	102	1048576	17	4899
2026-01-05 00:41:08.07	212.93	35.49	-28.9	-31.4	12.9	2.97e-05	0	44	102	1048576	17	4841
2026-01-05 00:41:09.07	212.86	35.26	-29.1	-31.6	12.6	6.02e-05	0	44	102	1048576	18	4769
2026-01-05 00:41:10.08	212.79	35.04	-29.4	-32.3	12.2	2.88e-03	0	43	102	1048576	18	5016
2026-01-05 00:41:11.09	212.72	34.81	-29.1	-31.6	12.7	9.53e-05	0	43	102	1048576	18	4769
2026-01-05 00:41:12.09	212.66	34.59	-28.8	-30.7	13.1	3.35e-05	0	43	102	1048576	18	4505
2026-01-05 00:41:13.10	212.59	34.37	-28.6	-30.7	13.4	1.37e-05	0	43	102	1048576	17	4606
2026-01-05 00:41:14.11	212.53	34.15	-28.7	-31.1	13.2	3.81e-05	0	43	102	1048576	17	4731
2026-01-05 00:41:15.11	212.46	33.93	-28.6	-30.9	13.3	2.82e-05	0	44	102	1048576	17	4659
2026-01-05 00:41:16.11	212.40	33.72	-28.5	-30.5	13.5	1.29e-05	0	44	102	1048576	17	4555
2026-01-05 00:41:17.12	212.34	33.50	-28.3	-30.6	13.8	6.80e-06	0	43	102	1048576	16	4692
2026-01-05 00:41:18.12	212.28	33.29	-28.5	-31.0	13.6	2.36e-05	0	43	102	1048576	16	4795
2026-01-05 00:41:19.13	212.22	33.08	-28.7	-31.0	13.3	2.67e-05	0	43	102	1048576	17	4685
2026-01-05 00:41:20.14	212.16	32.86	-28.6	-30.8	13.3	2.86e-03	0	43	102	1048576	17	4648
2026-01-05 00:41:21.14	212.10	32.66	-28.8	-31.3	13.1	1.90e-05	0	43	102	1048576	17	4798
2026-01-05 00:41:22.15	212.04	32.45	-28.9	-31.5	12.9	4.42e-05	0	43	102	1048576	17	4859
2026-01-05 00:41:23.15	211.99	32.24	-28.7	-31.0	13.2	3.30e-04	0	43	102	1048576	17	4705
2026-01-05 00:41:24.16	211.93	32.04	-28.6	-30.8	13.4	3.17e-04	0	43	102	1048576	17	4631
2026-01-05 00:41:25.17	211.87	31.83	-28.6	-30.9	13.3	1.75e-05	0	43	102	1048576	17	4666
2026-01-05 00:41:26.18	211.82	31.63	-28.4	-30.3	13.7	4.07e-04	0	44	102	1048576	17	4482
2026-01-05 00:41:27.19	211.77	31.43	-28.2	-29.8	14.0	4.93e-04	0	43	102	1048576	17	4336
2026-01-05 00:41:28.19	211.71	31.23	-28.2	-30.3	13.9	3.00e-06	0	43	102	1048576	16	4596
2026-01-05 00:41:29.20	211.66	31.03	-28.1	-30.2	14.0	6.25e-04	0	44	102	1048576	16	4570
2026-01-05 00:41:30.20	211.61	30.84	-28.2	-30.4	13.9	7.65e-04	0	43	102	1048576	16	4622
2026-01-05 00:41:31.21	211.56	30.64	-27.8	-29.5	14.4	0.00e+00	0	44	102	1048576	16	4340
2026-01-05 00:41:32.22	211.51	30.44	-27.4	-29.4	14.8	7.00e-07	0	43	102	1048576	14	4558
2026-01-05 00:41:33.22	211.46	30.25	-27.1	-28.8	15.2	1.17e-03	0	44	102	1048576	14	4378
2026-01-05 00:41:34.23	211.41	30.06	-27.0	-28.6	15.3	0.00e+00	0	43	102	1048576	14	4327
2026-01-05 00:41:35.23	211.36	29.87	-27.1	-28.8	15.2	1.48e-03	0	44	102	1048576	14	4378
2026-01-05 00:41:36.23	211.31	29.68	-26.9	-28.9	15.4	1.42e-03	0	44	102	1048576	13	4518
2026-01-05 00:41:37.24	211.26	29.49	-26.7	-28.5	15.6	0.00e+00	0	44	102	1048576	13	4398
2026-01-05 00:41:38.25	211.22	29.31	-26.8	-28.6	15.5	2.20e-06	0	43	102	1048576	13	4440
2026-01-05 00:41:39.26	211.17	29.12	-27.0	-28.6	15.3	0.00e+00	0	44	102	1048576	14	4321
2026-01-05 00:41:40.26	211.12	28.94	-26.9	-28.4	15.4	0.00e+00	0	43	102	1048576	14	4256
2026-01-05 00:41:41.26	211.08	28.75	-27.0	-29.0	15.3	8.17e-04	0	43	102	1048576	13	4556
2026-01-05 00:41:42.27	211.03	28.57	-27.2	-29.0	15.0	0.00e+00	0	44	102	1048576	14	4446
2026-01-05 00:41:43.27	210.99	28.39	-27.4	-29.5	14.8	0.00e+00	0	43	102	1048576	14	4577
2026-01-05 00:41:44.28	210.95	28.21	-27.4	-29.6	14.7	7.00e-07	0	43	102	1048576	14	4609
2026-01-05 00:41:45.28	210.90	28.03	-27.7	-29.6	14.3	1.20e-03	0	43	102	1048576	15	4513
2026-01-05 00:41:46.29	210.86	27.85	-27.8	-30.0	14.1	1.50e-06	0	43	102	1048576	15	4636
2026-01-05 00:41:47.30	210.82	27.68	-27.6	-29.4	14.4	1.50e-06	0	43	102	1048576	15	4461
2026-01-05 00:41:48.30	210.78	27.50	-27.4	-28.9	14.7	7.00e-07	0	44	102	1048576	15	4312
2026-01-05 00:41:49.31	210.74	27.33	-27.3	-29.4	14.7	0.00e+00	0	44	102	1048576	14	4549
2026-01-05 00:41:50.30	210.70	27.16	-27.4	-29.6	14.6	0.00e+00	0	43	102	1048576	14	4621
2026-01-05 00:41:51.31	210.65	26.99	-27.4	-29.6	14.6	0.00e+00	0	43	102	1048576	14	4609
2026-01-05 00:41:52.31	210.62	26.82	-27.2	-29.2	14.9	0.00e+00	0	43	102	1048576	14	4495
2026-01-05 00:41:53.32	210.58	26.64	-27.3	-29.2	14.8	0.00e+00	0	44	102	1048576	14	4510
2026-01-05 00:41:54.33	210.54	26.48	-27.3	-29.2	14.8	0.00e+00	0	44	102	1048576	14	4512
2026-01-05 00:41:55.34	210.50	26.31	-27.2	-29.0	14.9	0.00e+00	0	43	102	1048576	14	4456
2026-01-05 00:41:56.35	210.46	26.14	-27.2	-29.0	14.9	0.00e+00	0	44	102	1048576	14	4454
2026-01-05 00:41:57.36	210.42	25.97	-27.2	-29.1	14.9	0.00e+00	0	44	102	1048576	14	4483
2026-01-05 00:41:58.36	210.39	25.81	-27.2	-29.2	14.8	0.00e+00	0	44	102	1048576	14	4487
2026-01-05 00:41:59.37	210.35	25.64	-27.4	-29.6	14.6	0.00e+00	0	44	102	1048576	14	4637
2026-01-05 00:42:00.38	210.31	25.48	-26.5	-28.6	14.6	7.00e-07	0	43	102	1048576	14	4617
2026-01-05 00:42:01.39	210.28	25.32	-27.3	-29.3	14.4	7.00e-07	0	43	102	1048576	14	4526
2026-01-05 00:42:02.40	210.24	25.16	-27.3	-29.4	14.7	7.00e-07	0	44	102	1048576	14	4560
2026-01-05 00:42:03.40	210.21	25.00	-27.3	-29.4	14.7	1.85e-03	0	44	102	1048576	14	4572
2026-01-05 00:42:04.40	210.17	24.84	-27.4	-29.7	14.5	7.00e-07	0	43	102	1048576	14	4658
2026-01-05 00:42:05.39	210.14	24.68	-27.6	-29.6	14.3	1.50e-06	0	43	102	1048576	15	4515
2026-01-05 00:42:06.40	210.10	24.53	-27.8	-30.0	14.1	3.00e-06	0	44	102	1048576	15	4633
2026-01-05 00:42:07.41	210.07	24.37	-27.6	-29.5	14.3	0.00e+00	0	43	102	1048576	15	4481
2026-01-05 00:42:08.42	210.04	24.21	-27.5	-29.3	14.4	0.00e+00	0	44	102	1048576	15	4445
2026-01-05 00:42:09.42	210.00	24.06	-27.5	-29.2	14.5	7.68e-04	0	43	102	1048576	15	4399
2026-01-05 00:42:10.43	209.97	23.91	-27.5	-29.7	14.5	7.00e-07	0	43	102	1048576	14	4652
2026-01-05 00:42:11.44	209.94	23.75	-27.5	-29.3	14.4	7.00e-07	0	44	102	1048576	15	4432
2026-01-05 00:42:12.44	209.91	23.60	-27.5	-29.2	14.5	0.00e+00	0	43	102	1048576	15	4409
2026-01-05 00:42:13.44	209.88	23.45	-27.6	-29.4	14.4	1.91e-03	0	43	102	1048576	15	4468
2026-01-05 00:42:14.45	209.84	23.30	-27.6	-29.4	14.4	3.00e-06	0	43	102	1048576	15	4473
2026-01-05 00:42:15.46	209.81	23.15	-27.4	-29.6	14.6	2.55e-03	0	43	102	1048576	14	4634
2026-01-05 00:42:16.47	209.78	23.00	-27.2	-29.2	14.8	0.00e+00	0	44	102	1048576	14	4513
2026-01-05 00:42:17.48	209.75	22.86	-27.3	-29.3	14.7	0.00e+00	0	44	102	1048576	14	4544
2026-01-05 00:42:18.48	209.72	22.71	-27.2	-29.2	14.7	2.64e-03	0	43	102	1048576	14	4518
2026-01-05 00:42:19.48	209.69	22.56	-27.5	-29.7	14.4	2.89e-03	0	44	102	1048576	14	4672
2026-01-05 00:42:20.48	209.66	22.42	-27.5	-29.3	14.4	2.20e-06	0	44	102	1048576	15	4438
2026-01-05 00:42:21.49	209.64	22.28	-27.3	-29.3	14.6	3.18e-03	0	43	102	1048576	14	4552
2026-01-05 00:42:22.50	209.61	22.13	-27.1	-29.0	14.8	7.00e-07	0	44	102	1048576	14	4446
2026-01-05 00:42:23.50	209.58	21.99	-27.2	-29.0	14.8	7.00e-07	0	44	102	1048576	14	4459
2026-01-05 00:42:24.51	209.55	21.85	-27.2	-29.2	14.7	3.60e-03	0	44	102	1048576	14	4526
2026-01-05 00:42:25.51	209.52	21.71	-27.3	-29.3	14.6	3.64e-03	0	43	102	1048576	14	4552
2026-01-05 00:42:26.52	209.49	21.57	-27.0	-28.7	14.9	0.00e+00	0	44	102	1048576	14	4367
2026-01-05 00:42:27.53	209.47	21.43	-26.9	-28.5	15.1	0.00e+00	0	44	102	1048576	14	4320
2026-01-05 00:42:28.54	209.44	21.29	-26.8	-28.7	15.2	3.33e-03	0	44	102	1048576	13	4488
2026-01-05 00:42:29.54	209.41	21.15	-26.8	-28.7	15.2	0.00e+00	0	44	102	1048576	13	4488
2026-01-05 00:42:30.54	209.39	21.01	-26.9	-29.0	15.0	3.33e-03	0	44	102	1048576	13	4585
2026-01-05 00:42:31.55	209.36	20.88	-26.9	-28.9	15.1	3.58e-03	0	43	102	1048576	13	4537
2026-01-05 00:42:32.55	209.33	20.74	-26.8	-28.7	15.2	4.80e-05	0	43	102	1048576	13	4472
2026-01-05 00:42:33.54	209.31	20.61	-26.8	-28.7	15.2	0.00e+00	0	43	102	1048576	13	4476
2026-01-05 00:42:34.55	209.28	20.47	-26.8	-28.7	15.2	3.57e-03	0	44	102	1048576	13	4468
2026-01-05 00:42:35.56	209.26	20.34	-26.8	-28.7	15.2	0.00e+00	0	43	102	1048576	13	4483
2026-01-05 00:42:36.56	209.23	20.21	-26.8	-28.6	15.2	3.27e-03	0	43	102	1048576	13	4466
2026-01-05 00:42:37.57	209.21	20.08	-26.8	-28.8	15.2	7.17e-05	0	43	102	1048576	13	4502
2026-01-05 00:42:38.58	209.18	19.94	-26.8	-28.7	15.2	6.25e-05	0	44	102	1048576	13	4494
2026-01-05 00:42:39.59	209.16	19.81	-26.8	-28.7	15.2	0.00e+00	0	44	102	1048576	13	4482
2026-01-05 00:42:40.59	209.14	19.68	-26.9	-29.0	15.0	3.09e-03	0	43	102	1048576	13	4580
2026-01-05 00:42:41.59	209.11	19.55	-27.3	-29.4	14.6	0.00e+00	0	44	102	1048576	14	4562
2026-01-05 00:42:42.59	209.09	19.43	-27.3	-29.5	14.5	7.00e-07	0	44	102	1048576	14	4597
2026-01-05 00:42:43.60	209.07	19.30	-27.1	-29.0	14.8	2.21e-05	0	43	102	1048576	14	4452
2026-01-05 00:42:44.61	209.04	19.17	-27.3	-29.3	14.6	1.83e-05	0	44	102	1048576	14	4541
2026-01-05 00:42:45.62	209.02	19.04	-27.2	-29.3	14.6	0.00e+00	0	43	102	1048576	14	4534
2026-01-05 00:42:46.62	209.00	18.92	-27.1	-29.0	14.7	3.22e-03	0	44	102	1048576	14	4464
2026-01-05 00:42:47.63	208.97	18.79	-27.2	-29.1	14.6	1.14e-05	0	43	102	1048576	14	4500
2026-01-05 00:42:48.64	208.95	18.66	-27.2	-29.2	14.6	0.00e+00	0	44	102	1048576	14	4521
2026-01-05 00:42:49.65	208.93	18.54	-27.4	-29.6	14.4	2.05e-05	0	44	102	1048576	14	4645
2026-01-05 00:42:50.65	208.91	18.42	-27.4	-29.1	14.4	3.00e-06	0	44	102	1048576	15	4377
2026-01-05 00:42:51.66	208.89	18.29	-27.3	-29.4	14.5	0.00e+00	0	43	102	1048576	14	4563
2026-01-05 00:42:52.67	208.86	18.17	-27.2	-29.1	14.7	0.00e+00	0	44	102	1048576	14	4493
2026-01-05 00:42:53.67	208.84	18.05	-27.4	-29.6	14.4	0.00e+00	0	44	102	1048576	14	4641
2026-01-05 00:42:54.68	208.82	17.93	-27.5	-29.3	14.2	1.50e-06	0	43	102	1048576	15	4430
2026-01-05 00:42:55.68	208.80	17.81	-27.4	-29.6	14.4	7.00e-07	0	44	102	1048576	14	4627
2026-01-05 00:42:56.68	208.78	17.69	-27.4	-29.6	14.3	0.00e+00	0	43	102	1048576	14	4633
2026-01-05 00:42:57.69	208.76	17.57	-27.5	-29.8	14.2	2.20e-06	0	44	102	1048576	14	4698
2026-01-05 00:42:58.69	208.74	17.45	-27.7	-29.7	14.0	2.20e-06	0	43	102	1048576	15	4563
2026-01-05 00:42:59.70	208.72	17.33	-27.6	-29.6	14.0	3.80e-06	0	44	102	1048576	15	4517
2026-01-05 00:43:00.70	208.70	17.21	-27.6	-29.6	14.0	1.50e-06	0	44	102	1048576	15	4529
2026-01-05 00:43:01.71	208.68	17.10	-27.6	-29.6	14.0	3.00e-06	0	44	102	1048576	15	4519
2026-01-05 00:43:02.71	208.66	16.98	-27.9	-30.2	13.6	7.60e-06	0	44	102	1048576	15	4728
2026-01-05 00:43:03.72	208.64	16.86	-27.8	-30.1	13.7	7.60e-06	0	44	102	1048576	15	4703
2026-01-05 00:43:04.73	208.62	16.75	-27.7	-29.7	13.9	2.20e-06	0	44	102	1048576	15	4579
2026-01-05 00:43:05.74	208.60	16.63	-27.7	-29.8	13.9	3.00e-06	0	43	102	1048576	15	4582
2026-01-05 00:43:06.74	208.58	16.52	-27.8	-30.0	13.7	6.80e-06	0	44	102	1048576	15	4664
2026-01-05 00:43:07.75	208.56	16.40	-27.7	-29.9	13.8	6.10e-06	0	44	102	1048576	15	4616
2026-01-05 00:43:08.76	208.55	16.29	-27.7	-29.8	13.8	1.50e-06	0	44	102	1048576	15	4608
2026-01-05 00:43:09.77	208.53	16.18	-27.7	-29.8	13.8	3.80e-06	0	44	102	1048576	15	4583
2026-01-05 00:43:10.78	208.51	16.06	-27.6	-29.6	14.0	1.50e-06	0	44	102	1048576	15	4526
2026-01-05 00:43:11.78	208.49	15.95	-27.6	-29.6	14.0	0.00e+00	0	44	102	1048576	15	4526
2026-01-05 00:43:12.79	208.47	15.84	-27.6	-29.6	13.9	3.80e-06	0	44	102	1048576	15	4539
2026-01-05 00:43:13.79	208.45	15.73	-27.7	-29.9	13.8	7.00e-07	0	44	102	1048576	15	4641
2026-01-05 00:43:14.80	208.44	15.62	-27.8	-30.1	13.6	9.90e-06	0	44	102	1048576	15	4694
2026-01-05 00:43:15.81	208.42	15.51	-27.8	-30.1	13.6	8.30e-06	0	44	102	1048576	15	4692
2026-01-05 00:43:16.81	208.40	15.40	-27.9	-30.2	13.5	8.30e-06	0	43	102	1048576	15	4738
2026-01-05 00:43:17.82	208.38	15.29	-27.8	-30.1	13.6	1.22e-05	0	44	102	1048576	15	4708
2026-01-05 00:43:18.83	208.37	15.18	-27.8	-30.1	13.6	6.80e-06	0	44	102	1048576	15	4683
2026-01-05 00:43:19.84	208.35	15.07	-27.9	-30.4	13.4	1.22e-05	0	43	102	1048576	15	4783
2026-01-05 00:43:20.84	208.33	14.97	-27.9	-30.3	13.5	1.83e-05	0	44	102	1048576	15	4744
2026-01-05 00:43:21.85	208.32	14.86	-27.9	-30.3	13.4	1.67e-05	0	44	102	1048576	15	4758
2026-01-05 00:43:22.86	208.30	14.75	-28.0	-30.5	13.3	1.52e-05	0	44	102	1048576	15	4828
2026-01-05 00:43:23.87	208.28	14.64	-27.8	-30.2	13.5	1.37e-05	0	43	102	1048576	15	4731
2026-01-05 00:43:24.88	208.27	14.54	-28.0	-30.6	13.3	1.22e-05	0	43	102	1048576	15	4855
2026-01-05 00:43:25.89	208.25	14.43	-28.1	-30.3	13.3	1.29e-05	0	43	102	1048576	16	4645
2026-01-05 00:43:26.89	208.24	14.33	-28.2	-30.4	13.2	2.36e-05	0	44	102	1048576	16	4677
2026-01-05 00:43:27.90	208.22	14.22	-28.2	-30.5	13.2	2.36e-05	0	43	102	1048576	16	4710
2026-01-05 00:43:28.90	208.20	14.12	-28.2	-30.5	13.2	3.43e-05	0	44	102	1048576	16	4709
2026-01-05 00:43:29.91	208.19	14.02	-28.2	-30.5	13.2	3.69e-03	0	44	102	1048576	16	4710
2026-01-05 00:43:30.92	208.17	13.91	-28.3	-30.7	13.1	2.97e-05	0	44	102	1048576	16	4763
2026-01-05 00:43:31.92	208.16	13.81	-28.3	-30.8	12.9	3.73e-05	0	44	102	1048576	16	4815
2026-01-05 00:43:32.92	208.14	13.71	-28.3	-30.8	12.9	4.11e-05	0	44	102	1048576	16	4822
2026-01-05 00:43:33.93	208.13	13.61	-28.6	-31.0	12.5	1.12e-04	0	44	102	1048576	17	4747
2026-01-05 00:43:34.94	208.11	13.51	-28.5	-30.7	12.7	1.38e-04	0	44	102	1048576	17	4675
2026-01-05 00:43:35.95	208.10	13.41	-28.5	-31.3	12.6	3.83e-03	0	44	102	1048576	16	4964
2026-01-05 00:43:36.95	208.08	13.31	-28.4	-31.1	12.8	3.72e-03	0	43	102	1048576	16	4898
2026-01-05 00:43:37.96	208.07	13.20	-28.4	-31.0	12.8	6.02e-05	0	43	102	1048576	16	4865
2026-01-05 00:43:38.96	208.05	13.11	-28.4	-31.1	12.7	5.95e-05	0	44	102	1048576	16	4916
2026-01-05 00:43:39.97	208.04	13.01	-28.6	-31.1	12.4	3.47e-03	0	44	102	1048576	17	4803
2026-01-05 00:43:40.98	208.03	12.91	-28.3	-30.4	12.8	1.33e-04	0	44	102	1048576	17	4587
2026-01-05 00:43:41.98	208.01	12.81	-28.3	-30.8	12.9	3.46e-03	0	44	102	1048576	16	4814
2026-01-05 00:43:42.99	208.00	12.71	-28.4	-31.0	12.7	3.80e-03	0	44	102	1048576	16	4881
2026-01-05 00:43:44.00	207.98	12.61	-28.4	-31.0	12.7	6.48e-05	0	43	102	1048576	16	4882
2026-01-05 00:43:45.01	207.97	12.52	-28.4	-31.1	12.7	3.90e-03	0	44	102	1048576	16	4910
2026-01-05 00:43:46.02	207.96	12.42	-28.3	-30.7	12.9	3.73e-03	0	44	102	1048576	16	4789
2026-01-05 00:43:47.02	207.94	12.32	-28.2	-30.5	13.0	1.09e-04	0	44	102	1048576	16	4704
2026-01-05 00:43:48.03	207.93	12.23	-28.2	-30.6	12.9	3.70e-03	0	44	102	1048576	16	4749
2026-01-05 00:43:49.03	207.92	12.13	-28.2	-30.6	13.0	8.39e-05	0	44	102	1048576	16	4745
2026-01-05 00:43:50.04	207.90	12.03	-28.1	-30.3	13.1	3.96e-05	0	44	102	1048576	16	4651
2026-01-05 00:43:51.04	207.89	11.94	-28.1	-30.4	13.0	3.40e-03	0	43	102	1048576	16	4695
2026-01-05 00:43:52.05	207.88	11.85	-28.1	-30.3	13.1	3.77e-03	0	43	102	1048576	16	4667
2026-01-05 00:43:53.05	207.86	11.75	-28.2	-30.7	12.9	4.65e-05	0	44	102	1048576	16	4775
2026-01-05 00:43:54.06	207.85	11.66	-28.1	-30.5	13.0	4.73e-05	0	43	102	1048576	16	4703
2026-01-05 00:43:55.07	207.84	11.56	-28.3	-30.7	12.8	4.65e-05	0	44	102	1048576	16	4791
2026-01-05 00:43:56.08	207.82	11.47	-28.1	-30.5	13.0	8.46e-05	0	44	102	1048576	16	4709
2026-01-05 00:43:57.09	207.81	11.38	-28.2	-30.6	12.9	3.76e-03	0	43	102	1048576	16	4761
2026-01-05 00:43:58.10	207.80	11.28	-28.4	-31.2	12.5	3.49e-03	0	43	102	1048576	16	4944
2026-01-05 00:43:59.10	207.79	11.19	-28.3	-30.9	12.7	8.31e-05	0	44	102	1048576	16	4854
2026-01-05 00:44:00.10	207.77	11.10	-28.2	-30.7	12.8	5.64e-05	0	44	102	1048576	16	4779
2026-01-05 00:44:01.11	207.76	11.01	-28.2	-30.6	12.9	4.42e-05	0	43	102	1048576	16	4745
2026-01-05 00:44:02.11	207.75	10.92	-28.2	-30.6	12.9	7.09e-05	0	44	102	1048576	16	4746
2026-01-05 00:44:03.12	207.74	10.83	-28.2	-30.7	12.8	3.86e-03	0	43	102	1048576	16	4779
2026-01-05 00:44:04.12	207.73	10.74	-28.2	-30.5	12.9	5.87e-05	0	43	102	1048576	16	4741
2026-01-05 00:44:05.13	207.72	10.65	-28.3	-30.9	12.6	9.84e-05	0	44	102	1048576	16	4877
2026-01-05 00:44:06.13	207.70	10.56	-28.2	-30.8	12.7	7.78e-05	0	43	102	1048576	16	4818
2026-01-05 00:44:07.14	207.69	10.47	-28.2	-30.7	12.8	6.40e-05	0	44	102	1048576	16	4776
2026-01-05 00:44:08.15	207.68	10.38	-28.2	-30.8	12.7	8.31e-05	0	43	102	1048576	16	4814
2026-01-05 00:44:09.15	207.67	10.29	-28.3	-30.8	12.7	8.39e-05	0	44	102	1048576	16	4831
2026-01-05 00:44:10.16	207.66	10.20	-28.3	-30.8	12.7	7.47e-05	0	44	102	1048576	16	4821
2026-01-05 00:44:11.17	207.65	10.11	-28.2	-30.8	12.7	7.55e-05	0	43	102	1048576	16	4817
2026-01-05 00:44:12.18	207.63	10.02	-28.2	-30.8	12.7	8.39e-05	0	43	102	1048576	16	4825
2026-01-05 00:44:13.18	207.62	9.94	-28.2	-30.8	12.7	8.62e-05	0	43	102	1048576	16	4820
2026-01-05 00:44:14.19	207.61	9.85	-28.3	-31.0	12.5	1.23e-04	0	43	102	1048576	16	4913
2026-01-05 00:44:15.19	207.60	9.76	-28.3	-30.8	12.6	1.02e-04	0	43	102	1048576	16	4842
2026-01-05 00:44:16.20	207.59	9.68	-28.3	-31.0	12.5	1.13e-04	0	44	102	1048576	16	4894
2026-01-05 00:44:17.19	207.58	9.59	-28.3	-31.0	12.5	1.23e-04	0	43	102	1048576	16	4902
2026-01-05 00:44:18.20	207.57	9.50	-28.4	-31.2	12.3	1.75e-04	0	43	102	1048576	16	4972
2026-01-05 00:44:19.21	207.56	9.42	-28.4	-31.2	12.4	1.50e-04	0	44	102	1048576	16	4960
