passes_logs/2026/01/05/R2M6_AANII_01/R2M6_AANII_01__20260105_084625_NOAA_21_JPSS-2_rec.log

#Pass ID: 20260105_084625_NOAA 21 (JPSS-2)
#Satellite: NOAA 21 (JPSS-2)
#Configuration: NOAA 21
#almurnet v.1.7.20240730
#Start time: 2026-01-05 08:46:25

#Version: 2.2.20231116
#Station: R2M6_AANII_01
#Location: 30.233357 lon 59.946436 lat
#TLE: 1 54234U 22150A   26004.22845673  .00000174  00000+0  10347-3 0  9996
#TLE: 2 54234  98.7489 305.2591 0001115 345.0884  15.0259 14.19531906163281

#Time	Az	El	Level	Level2	SNR	BER	BlckErr	Temp	State	Recorded	gain1	gain2
2026-01-05 08:46:25.01	112.49	6.99	-31.7	-40.9	3.8	1.49e+00	0	41	0	0	24	10364
2026-01-05 08:46:26.02	112.42	7.06	-30.9	-37.1	4.2	1.45e+00	0	41	104	0	23	7324
2026-01-05 08:46:27.03	112.34	7.13	-30.8	-35.9	6.1	3.24e-01	0	41	0	0	23	6468
2026-01-05 08:46:28.03	112.27	7.20	-30.9	-36.2	5.9	3.36e-01	0	41	102	1048576	23	6637
2026-01-05 08:46:29.03	112.19	7.27	-30.8	-35.9	6.1	3.00e-01	0	41	102	1048576	23	6448
2026-01-05 08:46:30.04	112.11	7.34	-30.7	-35.7	6.6	2.26e-01	0	41	102	1048576	22	6407
2026-01-05 08:46:31.05	112.04	7.41	-30.8	-36.1	6.3	2.31e-01	0	41	102	1048576	22	6641
2026-01-05 08:46:32.05	111.96	7.48	-30.9	-36.7	6.1	3.00e-01	0	41	102	1048576	22	6957
2026-01-05 08:46:33.06	111.88	7.55	-31.1	-37.5	5.6	4.20e-01	0	41	102	1048576	22	7515
2026-01-05 08:46:34.07	111.80	7.62	-30.9	-36.5	6.1	3.33e-01	0	41	102	1048576	22	6864
2026-01-05 08:46:35.08	111.72	7.69	-30.7	-35.5	6.8	2.10e-01	0	41	102	1048576	22	6279
2026-01-05 08:46:36.08	111.64	7.76	-30.4	-34.4	7.6	1.09e-01	0	41	102	1048576	22	5714
2026-01-05 08:46:37.08	111.57	7.83	-30.1	-33.7	8.4	5.88e-02	0	41	102	1048576	21	5504
2026-01-05 08:46:38.08	111.49	7.90	-29.8	-33.3	9.1	2.73e-02	0	41	102	1048576	20	5403
2026-01-05 08:46:39.09	111.41	7.97	-29.4	-32.3	9.8	1.15e-02	0	41	102	1048576	20	4996
2026-01-05 08:46:40.10	111.32	8.04	-29.3	-32.2	10.3	6.03e-03	0	41	102	1048576	19	5055
2026-01-05 08:46:41.11	111.24	8.12	-29.1	-31.8	10.7	3.35e-03	0	41	102	1048576	19	4896
2026-01-05 08:46:42.11	111.16	8.19	-29.2	-32.1	10.5	4.02e-03	0	41	102	1048576	19	5010
2026-01-05 08:46:43.12	111.08	8.26	-29.1	-31.7	10.7	3.04e-03	0	41	102	1048576	19	4864
2026-01-05 08:46:44.13	111.00	8.33	-29.0	-31.4	10.9	2.17e-03	0	41	102	1048576	19	4752
2026-01-05 08:46:45.13	110.91	8.40	-28.8	-31.0	11.2	1.44e-03	0	41	102	1048576	19	4614
2026-01-05 08:46:46.14	110.83	8.47	-28.8	-30.9	11.2	1.34e-03	0	42	102	1048576	19	4600
2026-01-05 08:46:47.15	110.75	8.55	-28.8	-31.4	11.3	1.22e-03	0	42	102	1048576	18	4850
2026-01-05 08:46:48.15	110.66	8.62	-28.8	-31.4	11.3	1.00e-03	0	41	102	1048576	18	4852
2026-01-05 08:46:49.17	110.58	8.69	-29.0	-31.9	11.0	2.20e-03	0	41	102	1048576	18	5022
2026-01-05 08:46:50.17	110.49	8.76	-28.8	-31.3	11.4	1.24e-03	0	42	102	1048576	18	4804
2026-01-05 08:46:51.18	110.41	8.84	-28.6	-30.7	11.8	5.97e-04	0	41	102	1048576	18	4613
2026-01-05 08:46:52.19	110.32	8.91	-28.4	-30.4	12.0	3.46e-04	0	42	102	1048576	18	4516
2026-01-05 08:46:53.19	110.24	8.98	-28.4	-30.2	12.2	2.45e-04	0	42	102	1048576	18	4447
2026-01-05 08:46:54.20	110.15	9.06	-28.3	-30.1	12.2	2.23e-04	0	41	102	1048576	18	4423
2026-01-05 08:46:55.21	110.06	9.13	-28.4	-30.2	12.2	2.38e-04	0	42	102	1048576	18	4433
2026-01-05 08:46:56.22	109.97	9.21	-28.4	-30.3	12.1	2.56e-04	0	42	102	1048576	18	4472
2026-01-05 08:46:57.23	109.89	9.28	-28.5	-30.5	12.0	2.93e-04	0	42	102	1048576	18	4537
2026-01-05 08:46:58.23	109.80	9.35	-28.4	-30.4	12.1	2.78e-04	0	42	102	1048576	18	4496
2026-01-05 08:46:59.24	109.71	9.43	-28.4	-30.2	12.3	2.52e-04	0	42	102	1048576	18	4440
2026-01-05 08:47:00.25	109.62	9.50	-28.4	-30.3	12.2	2.36e-04	0	42	102	1048576	18	4478
2026-01-05 08:47:01.25	109.53	9.58	-28.5	-30.5	12.1	2.88e-04	0	42	102	1048576	18	4548
2026-01-05 08:47:02.26	109.44	9.65	-28.4	-30.2	12.3	2.10e-04	0	42	102	1048576	18	4442
2026-01-05 08:47:03.26	109.35	9.72	-28.4	-30.4	12.2	2.20e-04	0	42	102	1048576	18	4489
2026-01-05 08:47:04.27	109.26	9.80	-28.5	-30.4	12.1	2.96e-04	0	42	102	1048576	18	4516
2026-01-05 08:47:05.28	109.16	9.87	-28.4	-30.3	12.3	2.14e-04	0	42	102	1048576	18	4459
2026-01-05 08:47:06.29	109.07	9.95	-28.4	-30.3	12.2	1.79e-04	0	42	102	1048576	18	4469
2026-01-05 08:47:07.30	108.98	10.03	-28.4	-30.2	12.3	1.61e-04	0	42	102	1048576	18	4442
2026-01-05 08:47:08.31	108.88	10.10	-28.5	-30.4	12.2	2.23e-04	0	42	102	1048576	18	4499
2026-01-05 08:47:09.31	108.79	10.18	-28.5	-30.4	12.2	2.00e-04	0	42	102	1048576	18	4488
2026-01-05 08:47:10.32	108.70	10.25	-28.4	-30.3	12.2	1.96e-04	0	42	102	1048576	18	4485
2026-01-05 08:47:11.32	108.60	10.33	-28.4	-30.3	12.3	2.26e-04	0	42	102	1048576	18	4460
2026-01-05 08:47:12.33	108.51	10.40	-28.4	-30.1	12.4	1.65e-04	0	42	102	1048576	18	4397
2026-01-05 08:47:13.34	108.41	10.48	-28.4	-30.1	12.4	1.46e-04	0	42	102	1048576	18	4419
2026-01-05 08:47:14.35	108.31	10.56	-28.4	-30.3	12.3	1.51e-04	0	42	102	1048576	18	4451
2026-01-05 08:47:15.35	108.22	10.63	-28.3	-30.0	12.5	1.43e-04	0	42	102	1048576	18	4380
2026-01-05 08:47:16.36	108.12	10.71	-28.4	-30.3	12.3	1.87e-04	0	42	102	1048576	18	4462
2026-01-05 08:47:17.37	108.02	10.79	-28.2	-30.2	12.7	9.61e-05	0	42	102	1048576	17	4524
2026-01-05 08:47:18.38	107.92	10.86	-28.0	-29.6	13.1	3.66e-05	0	42	102	1048576	17	4353
2026-01-05 08:47:19.39	107.82	10.94	-28.0	-29.6	13.1	3.73e-05	0	42	102	1048576	17	4336
2026-01-05 08:47:20.40	107.72	11.02	-28.0	-29.7	13.1	2.97e-05	0	42	102	1048576	17	4366
2026-01-05 08:47:21.41	107.62	11.10	-28.0	-29.6	13.1	2.51e-05	0	42	102	1048576	17	4355
2026-01-05 08:47:22.42	107.52	11.18	-28.0	-29.6	13.1	3.12e-05	0	42	102	1048576	17	4341
2026-01-05 08:47:23.42	107.42	11.25	-27.9	-29.5	13.2	3.20e-05	0	42	102	1048576	17	4302
2026-01-05 08:47:24.42	107.32	11.33	-27.9	-29.3	13.3	1.29e-05	0	42	102	1048576	17	4260
2026-01-05 08:47:25.43	107.22	11.41	-27.9	-29.3	13.3	1.75e-05	0	42	102	1048576	17	4253
2026-01-05 08:47:26.43	107.12	11.49	-27.9	-29.4	13.3	1.44e-05	0	42	102	1048576	17	4293
2026-01-05 08:47:27.44	107.01	11.56	-28.0	-29.6	13.2	2.44e-05	0	42	102	1048576	17	4347
2026-01-05 08:47:28.45	106.91	11.64	-27.9	-29.4	13.2	2.28e-05	0	42	102	1048576	17	4292
2026-01-05 08:47:29.46	106.80	11.72	-27.9	-29.4	13.3	2.13e-05	0	42	102	1048576	17	4279
2026-01-05 08:47:30.46	106.70	11.80	-27.9	-29.4	13.3	1.22e-05	0	42	102	1048576	17	4285
2026-01-05 08:47:31.47	106.59	11.88	-27.9	-29.4	13.3	2.13e-05	0	42	102	1048576	17	4278
2026-01-05 08:47:32.48	106.49	11.96	-28.1	-29.8	13.0	3.28e-05	0	42	102	1048576	17	4399
2026-01-05 08:47:33.49	106.38	12.04	-28.0	-29.6	13.1	3.20e-05	0	42	102	1048576	17	4348
2026-01-05 08:47:34.50	106.27	12.12	-27.7	-29.5	13.5	1.22e-05	0	42	102	1048576	16	4424
2026-01-05 08:47:35.50	106.16	12.20	-27.7	-29.4	13.6	1.29e-05	0	42	102	1048576	16	4381
2026-01-05 08:47:36.51	106.05	12.28	-27.7	-29.3	13.7	7.60e-06	0	42	102	1048576	16	4356
2026-01-05 08:47:37.51	105.95	12.36	-27.7	-29.4	13.6	6.80e-06	0	43	102	1048576	16	4371
2026-01-05 08:47:38.52	105.84	12.44	-27.7	-29.4	13.7	5.30e-06	0	42	102	1048576	16	4376
2026-01-05 08:47:39.53	105.72	12.52	-27.7	-29.5	13.6	1.14e-05	0	42	102	1048576	16	4409
2026-01-05 08:47:40.54	105.61	12.60	-27.6	-29.2	13.7	5.30e-06	0	42	102	1048576	16	4327
2026-01-05 08:47:41.54	105.50	12.68	-27.5	-29.1	13.9	3.00e-06	0	43	102	1048576	16	4283
2026-01-05 08:47:42.55	105.39	12.76	-27.6	-29.1	13.8	8.30e-06	0	42	102	1048576	16	4291
2026-01-05 08:47:43.56	105.28	12.84	-27.6	-29.2	13.8	2.20e-06	0	42	102	1048576	16	4328
2026-01-05 08:47:44.57	105.16	12.92	-27.6	-29.2	13.8	9.90e-06	0	43	102	1048576	16	4323
2026-01-05 08:47:45.58	105.05	13.01	-27.6	-29.3	13.7	3.80e-06	0	43	102	1048576	16	4346
2026-01-05 08:47:46.59	104.93	13.09	-27.7	-29.4	13.6	5.30e-06	0	43	102	1048576	16	4392
2026-01-05 08:47:47.60	104.82	13.17	-27.8	-29.6	13.5	1.37e-05	0	43	102	1048576	16	4452
2026-01-05 08:47:48.60	104.70	13.25	-27.6	-29.1	13.9	4.50e-06	0	43	102	1048576	16	4294
2026-01-05 08:47:49.61	104.58	13.33	-27.5	-28.8	14.0	2.20e-06	0	43	102	1048576	16	4220
2026-01-05 08:47:50.62	104.47	13.41	-27.5	-28.9	14.0	3.00e-06	0	42	102	1048576	16	4231
2026-01-05 08:47:51.63	104.35	13.50	-27.5	-28.8	14.0	3.80e-06	0	42	102	1048576	16	4206
2026-01-05 08:47:52.64	104.23	13.58	-27.5	-28.9	14.0	4.50e-06	0	43	102	1048576	16	4226
2026-01-05 08:47:53.64	104.11	13.66	-27.4	-28.7	14.1	3.00e-06	0	42	102	1048576	16	4186
2026-01-05 08:47:54.64	103.99	13.74	-27.4	-28.6	14.2	7.00e-07	0	43	102	1048576	16	4145
2026-01-05 08:47:55.65	103.87	13.83	-27.5	-28.8	14.0	7.00e-07	0	43	102	1048576	16	4217
2026-01-05 08:47:56.66	103.75	13.91	-27.4	-28.7	14.2	4.50e-06	0	43	102	1048576	16	4175
2026-01-05 08:47:57.67	103.62	13.99	-27.3	-28.5	14.2	2.20e-06	0	43	102	1048576	16	4123
2026-01-05 08:47:58.67	103.50	14.08	-27.4	-28.6	14.2	0.00e+00	0	43	102	1048576	16	4160
2026-01-05 08:47:59.67	103.38	14.16	-27.4	-28.6	14.2	0.00e+00	0	43	102	1048576	16	4156
2026-01-05 08:48:00.68	103.25	14.24	-27.4	-28.7	14.2	7.00e-07	0	43	102	1048576	16	4170
2026-01-05 08:48:01.69	103.13	14.33	-27.5	-29.0	14.0	5.30e-06	0	43	102	1048576	16	4267
2026-01-05 08:48:02.70	103.00	14.41	-27.5	-29.0	14.0	2.20e-06	0	43	102	1048576	16	4254
2026-01-05 08:48:03.70	102.88	14.50	-27.6	-29.1	13.9	2.20e-06	0	43	102	1048576	16	4276
2026-01-05 08:48:04.71	102.75	14.58	-27.5	-29.0	14.0	7.00e-07	0	43	102	1048576	16	4258
2026-01-05 08:48:05.72	102.62	14.66	-27.5	-28.9	14.0	1.50e-06	0	43	102	1048576	16	4234
2026-01-05 08:48:06.73	102.49	14.75	-27.5	-29.0	14.0	2.20e-06	0	43	102	1048576	16	4263
2026-01-05 08:48:07.74	102.36	14.83	-27.6	-29.0	14.0	3.80e-06	0	42	102	1048576	16	4265
2026-01-05 08:48:08.74	102.23	14.92	-27.5	-28.9	14.1	3.80e-06	0	43	102	1048576	16	4227
2026-01-05 08:48:09.75	102.10	15.00	-27.5	-28.9	14.0	2.20e-06	0	43	102	1048576	16	4242
2026-01-05 08:48:10.76	101.97	15.09	-27.6	-29.2	13.9	3.80e-06	0	43	102	1048576	16	4306
2026-01-05 08:48:11.77	101.83	15.17	-27.5	-29.0	14.0	2.20e-06	0	43	102	1048576	16	4250
2026-01-05 08:48:12.78	101.70	15.26	-27.5	-28.9	14.1	1.50e-06	0	43	102	1048576	16	4218
2026-01-05 08:48:13.79	101.57	15.35	-27.6	-29.1	14.0	0.00e+00	0	43	102	1048576	16	4274
2026-01-05 08:48:14.79	101.43	15.43	-27.5	-29.0	14.0	2.20e-06	0	43	102	1048576	16	4254
2026-01-05 08:48:15.80	101.30	15.52	-27.7	-29.3	13.9	3.00e-06	0	43	102	1048576	16	4340
2026-01-05 08:48:16.81	101.16	15.60	-27.7	-29.3	13.9	1.50e-06	0	43	102	1048576	16	4341
2026-01-05 08:48:17.82	101.02	15.69	-27.8	-29.5	13.7	6.10e-06	0	43	102	1048576	16	4407
2026-01-05 08:48:18.82	100.88	15.78	-27.7	-29.4	13.8	2.20e-06	0	43	102	1048576	16	4360
2026-01-05 08:48:19.83	100.74	15.86	-27.6	-29.2	14.0	3.80e-06	0	43	102	1048576	16	4296
2026-01-05 08:48:20.83	100.61	15.95	-27.7	-29.2	13.9	4.50e-06	0	43	102	1048576	16	4316
2026-01-05 08:48:21.84	100.46	16.03	-27.6	-29.2	14.0	3.80e-06	0	43	102	1048576	16	4297
2026-01-05 08:48:22.85	100.32	16.12	-27.6	-29.2	14.0	0.00e+00	0	43	102	1048576	16	4303
2026-01-05 08:48:23.85	100.18	16.21	-27.7	-29.5	13.8	3.00e-06	0	43	102	1048576	16	4389
2026-01-05 08:48:24.85	100.04	16.29	-27.7	-29.2	14.0	3.00e-06	0	43	102	1048576	16	4316
2026-01-05 08:48:25.86	99.90	16.38	-27.6	-29.1	14.1	2.20e-06	0	43	102	1048576	16	4272
2026-01-05 08:48:26.87	99.75	16.47	-27.6	-29.1	14.0	7.00e-07	0	43	102	1048576	16	4281
2026-01-05 08:48:27.88	99.60	16.56	-27.5	-29.0	14.1	3.80e-06	0	43	102	1048576	16	4237
2026-01-05 08:48:28.89	99.46	16.64	-27.6	-29.2	14.0	2.20e-06	0	43	102	1048576	16	4296
2026-01-05 08:48:29.89	99.31	16.73	-27.6	-29.2	14.0	2.20e-06	0	43	102	1048576	16	4303
2026-01-05 08:48:30.89	99.16	16.82	-27.8	-29.5	13.8	0.00e+00	0	43	102	1048576	16	4388
2026-01-05 08:48:31.90	99.01	16.91	-27.8	-29.5	13.8	3.80e-06	0	43	102	1048576	16	4399
2026-01-05 08:48:32.91	98.86	17.00	-27.8	-29.6	13.8	3.00e-06	0	43	102	1048576	16	4414
2026-01-05 08:48:33.92	98.71	17.08	-27.7	-29.4	13.9	1.50e-06	0	43	102	1048576	16	4358
2026-01-05 08:48:34.92	98.56	17.17	-27.7	-29.3	14.0	1.50e-06	0	43	102	1048576	16	4335
2026-01-05 08:48:35.92	98.41	17.26	-27.8	-29.5	13.8	3.80e-06	0	43	102	1048576	16	4390
2026-01-05 08:48:36.93	98.26	17.35	-27.7	-29.3	14.0	2.20e-06	0	43	102	1048576	16	4323
2026-01-05 08:48:37.94	98.10	17.44	-27.7	-29.4	14.0	1.50e-06	0	43	102	1048576	16	4353
2026-01-05 08:48:38.94	97.95	17.52	-27.7	-29.2	14.1	3.00e-06	0	43	102	1048576	16	4305
2026-01-05 08:48:39.95	97.79	17.61	-27.7	-29.3	14.0	2.20e-06	0	43	102	1048576	16	4318
2026-01-05 08:48:40.95	97.63	17.70	-27.8	-29.5	13.9	6.80e-06	0	43	102	1048576	16	4377
2026-01-05 08:48:41.96	97.47	17.79	-27.7	-29.3	14.0	2.20e-06	0	43	102	1048576	16	4329
2026-01-05 08:48:42.97	97.32	17.88	-27.7	-29.2	14.1	1.50e-06	0	43	102	1048576	16	4310
2026-01-05 08:48:43.98	97.15	17.97	-27.7	-29.4	14.0	3.80e-06	0	43	102	1048576	16	4357
2026-01-05 08:48:44.98	96.99	18.06	-27.9	-29.7	13.8	5.30e-06	0	43	102	1048576	16	4434
2026-01-05 08:48:45.99	96.83	18.15	-27.8	-29.5	14.0	2.20e-06	0	43	102	1048576	16	4383
2026-01-05 08:48:47.00	96.67	18.24	-27.8	-29.5	13.9	2.20e-06	0	43	102	1048576	16	4396
2026-01-05 08:48:48.00	96.51	18.33	-27.7	-29.3	14.1	1.50e-06	0	43	102	1048576	16	4328
2026-01-05 08:48:49.01	96.34	18.42	-27.8	-29.5	14.0	3.80e-06	0	43	102	1048576	16	4385
2026-01-05 08:48:50.02	96.17	18.51	-27.6	-29.1	14.2	3.80e-06	0	43	102	1048576	16	4265
2026-01-05 08:48:51.03	96.01	18.60	-27.7	-29.2	14.1	1.50e-06	0	43	102	1048576	16	4308
2026-01-05 08:48:52.04	95.84	18.69	-27.9	-29.8	13.8	3.00e-06	0	43	102	1048576	16	4462
2026-01-05 08:48:53.04	95.67	18.77	-27.7	-29.2	14.2	4.50e-06	0	43	102	1048576	16	4299
2026-01-05 08:48:54.05	95.50	18.87	-27.6	-29.0	14.3	7.00e-07	0	43	102	1048576	16	4244
2026-01-05 08:48:55.05	95.33	18.95	-27.5	-28.7	14.4	7.00e-07	0	43	102	1048576	16	4165
2026-01-05 08:48:56.05	95.16	19.04	-27.5	-28.9	14.3	0.00e+00	0	43	102	1048576	16	4203
2026-01-05 08:48:57.06	94.99	19.13	-27.5	-28.9	14.3	7.00e-07	0	43	102	1048576	16	4217
2026-01-05 08:48:58.07	94.81	19.22	-27.6	-29.0	14.3	7.00e-07	0	43	102	1048576	16	4226
2026-01-05 08:48:59.07	94.64	19.31	-27.5	-28.7	14.5	7.00e-07	0	43	102	1048576	16	4167
2026-01-05 08:49:00.08	94.46	19.40	-27.5	-28.8	14.4	7.00e-07	0	43	102	1048576	16	4176
2026-01-05 08:49:01.08	94.29	19.49	-27.4	-28.6	14.6	0.00e+00	0	43	102	1048576	16	4133
2026-01-05 08:49:02.09	94.11	19.58	-27.5	-28.7	14.5	0.00e+00	0	43	102	1048576	16	4151
2026-01-05 08:49:03.10	93.93	19.68	-27.6	-29.1	14.3	7.00e-07	0	43	102	1048576	16	4253
2026-01-05 08:49:04.10	93.75	19.76	-27.6	-29.0	14.3	7.00e-07	0	43	102	1048576	16	4230
2026-01-05 08:49:05.11	93.57	19.86	-27.7	-29.3	14.2	0.00e+00	0	43	102	1048576	16	4312
2026-01-05 08:49:06.11	93.38	19.95	-27.5	-28.8	14.5	7.00e-07	0	43	102	1048576	16	4184
2026-01-05 08:49:07.12	93.20	20.04	-27.6	-28.9	14.4	0.00e+00	0	43	102	1048576	16	4215
2026-01-05 08:49:08.12	93.02	20.13	-27.6	-29.0	14.3	7.00e-07	0	43	102	1048576	16	4242
2026-01-05 08:49:09.12	92.83	20.22	-27.7	-29.2	14.2	1.50e-06	0	43	102	1048576	16	4284
2026-01-05 08:49:10.13	92.64	20.31	-27.9	-29.7	13.9	3.80e-06	0	43	102	1048576	16	4439
2026-01-05 08:49:11.13	92.46	20.40	-27.6	-29.0	14.3	0.00e+00	0	43	102	1048576	16	4252
2026-01-05 08:49:12.13	92.27	20.49	-27.4	-28.6	14.6	7.00e-07	0	43	102	1048576	16	4126
2026-01-05 08:49:13.13	92.08	20.58	-27.3	-28.3	14.8	0.00e+00	0	43	102	1048576	16	4036
2026-01-05 08:49:14.14	91.89	20.67	-27.3	-28.4	14.7	0.00e+00	0	43	102	1048576	16	4067
2026-01-05 08:49:15.14	91.70	20.76	-27.4	-28.5	14.7	0.00e+00	0	43	102	1048576	16	4095
2026-01-05 08:49:16.15	91.50	20.85	-27.1	-28.4	14.9	7.00e-07	0	43	102	1048576	15	4168
2026-01-05 08:49:17.16	91.31	20.94	-27.1	-28.4	14.8	0.00e+00	0	43	102	1048576	15	4179
2026-01-05 08:49:18.16	91.11	21.03	-27.2	-28.6	14.7	0.00e+00	0	43	102	1048576	15	4252
2026-01-05 08:49:19.17	90.92	21.12	-27.1	-28.4	14.9	7.00e-07	0	43	102	1048576	15	4173
2026-01-05 08:49:20.17	90.72	21.21	-27.0	-28.3	14.9	0.00e+00	0	43	102	1048576	15	4150
2026-01-05 08:49:21.18	90.52	21.30	-27.2	-28.5	14.8	0.00e+00	0	43	102	1048576	15	4219
2026-01-05 08:49:22.19	90.32	21.39	-27.4	-29.0	14.5	0.00e+00	0	43	102	1048576	15	4347
2026-01-05 08:49:23.20	90.12	21.48	-27.2	-28.6	14.7	7.00e-07	0	43	102	1048576	15	4241
2026-01-05 08:49:24.20	89.91	21.57	-27.2	-28.7	14.7	0.00e+00	0	43	102	1048576	15	4257
2026-01-05 08:49:25.20	89.71	21.66	-27.3	-28.8	14.6	7.00e-07	0	43	102	1048576	15	4300
2026-01-05 08:49:26.21	89.51	21.75	-27.2	-28.7	14.7	7.00e-07	0	43	102	1048576	15	4263
2026-01-05 08:49:27.22	89.30	21.84	-27.2	-28.7	14.7	0.00e+00	0	43	102	1048576	15	4270
2026-01-05 08:49:28.23	89.09	21.93	-27.3	-28.9	14.6	1.50e-06	0	43	102	1048576	15	4310
2026-01-05 08:49:29.24	88.88	22.02	-27.1	-28.4	14.8	0.00e+00	0	43	102	1048576	15	4184
2026-01-05 08:49:30.25	88.67	22.11	-27.0	-28.3	14.9	0.00e+00	0	43	102	1048576	15	4153
2026-01-05 08:49:31.25	88.46	22.20	-27.0	-28.1	15.0	0.00e+00	0	43	102	1048576	15	4105
2026-01-05 08:49:32.26	88.25	22.29	-27.0	-28.2	15.0	0.00e+00	0	43	102	1048576	15	4138
2026-01-05 08:49:33.27	88.03	22.37	-27.1	-28.3	14.9	0.00e+00	0	43	102	1048576	15	4142
2026-01-05 08:49:34.28	87.82	22.46	-27.1	-28.4	14.9	0.00e+00	0	43	102	1048576	15	4188
2026-01-05 08:49:35.29	87.60	22.55	-27.0	-28.1	15.1	7.00e-07	0	43	102	1048576	15	4084
2026-01-05 08:49:36.29	87.38	22.64	-26.9	-28.0	15.1	0.00e+00	0	43	102	1048576	15	4080
2026-01-05 08:49:37.30	87.16	22.73	-26.9	-27.9	15.2	0.00e+00	0	43	102	1048576	15	4035
2026-01-05 08:49:38.30	86.94	22.82	-26.9	-27.9	15.2	0.00e+00	0	43	102	1048576	15	4050
2026-01-05 08:49:39.31	86.72	22.91	-26.7	-28.0	15.4	0.00e+00	0	43	102	1048576	14	4169
2026-01-05 08:49:40.31	86.50	22.99	-26.8	-28.2	15.3	0.00e+00	0	43	102	1048576	14	4219
2026-01-05 08:49:41.31	86.28	23.08	-26.9	-28.4	15.2	0.00e+00	0	43	102	1048576	14	4280
2026-01-05 08:49:42.32	86.05	23.17	-27.0	-28.6	15.1	0.00e+00	0	43	102	1048576	14	4327
2026-01-05 08:49:43.32	85.83	23.26	-26.9	-28.3	15.2	0.00e+00	0	43	102	1048576	14	4260
2026-01-05 08:49:44.33	85.60	23.35	-26.8	-28.2	15.3	0.00e+00	0	43	102	1048576	14	4220
2026-01-05 08:49:45.34	85.37	23.43	-26.8	-28.2	15.3	0.00e+00	0	43	102	1048576	14	4236
2026-01-05 08:49:46.35	85.14	23.52	-26.8	-28.3	15.2	0.00e+00	0	43	102	1048576	14	4257
2026-01-05 08:49:47.36	84.91	23.61	-27.0	-28.6	15.1	0.00e+00	0	43	102	1048576	14	4334
2026-01-05 08:49:48.36	84.68	23.69	-26.9	-28.5	15.1	0.00e+00	0	43	102	1048576	14	4323
2026-01-05 08:49:49.37	84.44	23.78	-27.0	-28.6	15.1	7.00e-07	0	43	102	1048576	14	4351
2026-01-05 08:49:50.37	84.21	23.87	-26.9	-28.4	15.2	7.00e-07	0	43	102	1048576	14	4285
2026-01-05 08:49:51.38	83.97	23.95	-27.0	-28.5	15.1	0.00e+00	0	43	102	1048576	14	4322
2026-01-05 08:49:52.39	83.73	24.04	-27.0	-28.7	15.1	7.00e-07	0	43	102	1048576	14	4366
2026-01-05 08:49:53.40	83.49	24.12	-27.2	-29.1	14.8	7.00e-07	0	43	102	1048576	14	4493
2026-01-05 08:49:54.40	83.25	24.21	-27.3	-29.3	14.7	0.00e+00	0	43	102	1048576	14	4553
2026-01-05 08:49:55.41	83.01	24.29	-27.3	-29.5	14.6	0.00e+00	0	43	102	1048576	14	4590
2026-01-05 08:49:56.42	82.76	24.38	-27.2	-29.0	14.9	0.00e+00	0	43	102	1048576	14	4461
2026-01-05 08:49:57.43	82.52	24.46	-27.2	-29.1	14.8	0.00e+00	0	43	102	1048576	14	4477
2026-01-05 08:49:58.43	82.28	24.55	-27.2	-29.2	14.8	3.80e-06	0	43	102	1048576	14	4504
2026-01-05 08:49:59.44	82.03	24.63	-27.2	-29.1	14.8	0.00e+00	0	43	102	1048576	14	4496
2026-01-05 08:50:00.45	81.78	24.71	-27.3	-29.3	14.7	0.00e+00	0	43	102	1048576	14	4546
2026-01-05 08:50:01.45	81.53	24.80	-27.4	-29.5	14.6	4.50e-06	0	43	102	1048576	14	4608
2026-01-05 08:50:02.46	81.28	24.88	-27.4	-29.2	14.5	0.00e+00	0	43	102	1048576	15	4386
2026-01-05 08:50:03.47	81.02	24.96	-27.3	-28.8	14.7	0.00e+00	0	43	102	1048576	15	4293
2026-01-05 08:50:04.48	80.77	25.04	-27.2	-28.5	14.9	1.50e-06	0	43	102	1048576	15	4204
2026-01-05 08:50:05.49	80.51	25.13	-27.3	-28.7	14.8	0.00e+00	0	43	102	1048576	15	4264
2026-01-05 08:50:06.50	80.26	25.21	-27.2	-28.7	14.8	0.00e+00	0	43	102	1048576	15	4245
2026-01-05 08:50:07.51	80.00	25.29	-27.2	-28.6	14.8	7.00e-07	0	43	102	1048576	15	4233
2026-01-05 08:50:08.51	79.74	25.37	-27.3	-28.8	14.8	1.50e-06	0	43	102	1048576	15	4273
2026-01-05 08:50:09.52	79.48	25.45	-27.3	-28.8	14.7	0.00e+00	0	43	102	1048576	15	4294
2026-01-05 08:50:10.52	79.22	25.53	-27.4	-29.0	14.7	6.10e-06	0	43	102	1048576	15	4345
2026-01-05 08:50:11.53	78.95	25.61	-27.3	-28.8	14.7	0.00e+00	0	43	102	1048576	15	4290
2026-01-05 08:50:12.54	78.69	25.69	-27.2	-28.6	14.9	0.00e+00	0	43	102	1048576	15	4220
2026-01-05 08:50:13.55	78.42	25.76	-27.2	-28.6	14.8	3.00e-06	0	43	102	1048576	15	4237
2026-01-05 08:50:14.56	78.15	25.84	-27.3	-28.8	14.8	0.00e+00	0	43	102	1048576	15	4275
2026-01-05 08:50:15.56	77.89	25.92	-27.3	-28.8	14.8	7.00e-07	0	43	102	1048576	15	4279
2026-01-05 08:50:16.57	77.62	26.00	-27.4	-29.0	14.6	7.00e-07	0	43	102	1048576	15	4350
2026-01-05 08:50:17.57	77.35	26.07	-27.4	-29.1	14.6	2.20e-06	0	43	102	1048576	15	4356
2026-01-05 08:50:18.58	77.08	26.15	-27.5	-29.2	14.5	0.00e+00	0	43	102	1048576	15	4397
2026-01-05 08:50:19.58	76.80	26.22	-27.5	-29.2	14.5	7.60e-06	0	43	102	1048576	15	4402
2026-01-05 08:50:20.59	76.53	26.30	-27.5	-29.2	14.6	7.00e-07	0	43	102	1048576	15	4399
2026-01-05 08:50:21.59	76.25	26.37	-27.5	-29.2	14.6	0.00e+00	0	43	102	1048576	15	4391
2026-01-05 08:50:22.60	75.97	26.45	-27.5	-29.2	14.5	7.00e-07	0	43	102	1048576	15	4407
2026-01-05 08:50:23.61	75.69	26.52	-27.5	-29.2	14.6	0.00e+00	0	43	102	1048576	15	4395
2026-01-05 08:50:24.60	75.42	26.59	-27.5	-29.3	14.5	0.00e+00	0	43	102	1048576	15	4409
2026-01-05 08:50:25.62	75.13	26.67	-27.6	-29.5	14.4	0.00e+00	0	43	102	1048576	15	4497
2026-01-05 08:50:26.63	74.85	26.74	-27.4	-29.1	14.6	7.00e-07	0	43	102	1048576	15	4354
2026-01-05 08:50:27.64	74.57	26.81	-27.2	-28.7	14.9	0.00e+00	0	43	102	1048576	15	4242
2026-01-05 08:50:28.64	74.28	26.88	-27.1	-28.3	15.1	0.00e+00	0	43	102	1048576	15	4146
2026-01-05 08:50:29.64	74.00	26.95	-27.1	-28.3	15.1	0.00e+00	0	43	102	1048576	15	4125
2026-01-05 08:50:30.65	73.71	27.02	-27.1	-28.4	15.0	0.00e+00	0	43	102	1048576	15	4158
2026-01-05 08:50:31.66	73.42	27.09	-27.2	-28.5	14.9	0.00e+00	0	43	102	1048576	15	4207
2026-01-05 08:50:32.67	73.13	27.16	-27.2	-28.6	14.9	0.00e+00	0	43	102	1048576	15	4220
2026-01-05 08:50:33.67	72.84	27.22	-27.2	-28.6	14.9	0.00e+00	0	43	102	1048576	15	4236
2026-01-05 08:50:34.67	72.55	27.29	-27.1	-28.4	15.0	0.00e+00	0	43	102	1048576	15	4175
2026-01-05 08:50:35.68	72.25	27.35	-27.3	-28.7	14.8	0.00e+00	0	43	102	1048576	15	4249
2026-01-05 08:50:36.68	71.96	27.42	-27.2	-28.6	14.9	0.00e+00	0	43	102	1048576	15	4217
2026-01-05 08:50:37.69	71.66	27.48	-27.1	-28.3	15.1	0.00e+00	0	43	102	1048576	15	4140
2026-01-05 08:50:38.69	71.37	27.55	-27.1	-28.4	15.0	7.00e-07	0	43	102	1048576	15	4168
2026-01-05 08:50:39.69	71.07	27.61	-27.2	-28.5	14.9	0.00e+00	0	43	102	1048576	15	4193
2026-01-05 08:50:40.71	70.77	27.67	-27.3	-28.8	14.8	1.50e-06	0	43	102	1048576	15	4292
2026-01-05 08:50:41.72	70.46	27.74	-27.3	-28.8	14.8	0.00e+00	0	43	102	1048576	15	4274
2026-01-05 08:50:42.72	70.16	27.80	-27.2	-28.5	14.9	1.50e-06	0	43	102	1048576	15	4211
2026-01-05 08:50:43.73	69.86	27.86	-27.2	-28.7	14.9	0.00e+00	0	43	102	1048576	15	4245
2026-01-05 08:50:44.74	69.55	27.92	-27.2	-28.5	15.0	0.00e+00	0	43	102	1048576	15	4190
2026-01-05 08:50:45.74	69.25	27.97	-27.1	-28.3	15.0	0.00e+00	0	43	102	1048576	15	4155
2026-01-05 08:50:46.75	68.94	28.03	-27.0	-28.2	15.1	0.00e+00	0	43	102	1048576	15	4124
2026-01-05 08:50:47.75	68.64	28.09	-27.0	-28.2	15.1	0.00e+00	0	43	102	1048576	15	4122
2026-01-05 08:50:48.76	68.33	28.15	-27.0	-28.2	15.1	0.00e+00	0	43	102	1048576	15	4122
2026-01-05 08:50:49.76	68.02	28.20	-27.3	-28.7	14.8	0.00e+00	0	43	102	1048576	15	4252
2026-01-05 08:50:50.77	67.71	28.26	-27.1	-28.4	15.0	0.00e+00	0	43	102	1048576	15	4160
2026-01-05 08:50:51.78	67.39	28.31	-27.1	-28.4	15.0	0.00e+00	0	43	102	1048576	15	4168
2026-01-05 08:50:52.79	67.08	28.36	-27.3	-28.7	14.9	7.00e-07	0	43	102	1048576	15	4248
2026-01-05 08:50:53.79	66.77	28.42	-27.3	-28.8	14.8	0.00e+00	0	43	102	1048576	15	4288
2026-01-05 08:50:54.80	66.45	28.47	-27.5	-29.2	14.6	7.00e-07	0	43	102	1048576	15	4399
2026-01-05 08:50:55.80	66.14	28.52	-27.5	-29.3	14.5	0.00e+00	0	43	102	1048576	15	4421
2026-01-05 08:50:56.82	65.82	28.57	-27.6	-29.5	14.4	1.50e-06	0	43	102	1048576	15	4492
2026-01-05 08:50:57.83	65.50	28.62	-27.8	-29.9	14.2	1.50e-06	0	43	102	1048576	15	4601
2026-01-05 08:50:58.83	65.18	28.66	-27.6	-29.6	14.3	2.20e-06	0	43	102	1048576	15	4510
2026-01-05 08:50:59.83	64.86	28.71	-27.6	-29.4	14.4	7.00e-07	0	43	102	1048576	15	4465
2026-01-05 08:51:00.84	64.54	28.76	-27.6	-29.4	14.4	1.50e-06	0	43	102	1048576	15	4462
2026-01-05 08:51:01.84	64.22	28.80	-27.5	-29.3	14.5	0.00e+00	0	43	102	1048576	15	4431
2026-01-05 08:51:02.85	63.90	28.84	-27.5	-29.3	14.5	1.50e-06	0	43	102	1048576	15	4415
2026-01-05 08:51:03.85	63.58	28.89	-27.6	-29.5	14.4	0.00e+00	0	43	102	1048576	15	4473
2026-01-05 08:51:04.85	63.25	28.93	-27.5	-29.4	14.5	0.00e+00	0	43	102	1048576	15	4443
2026-01-05 08:51:05.86	62.93	28.97	-27.5	-29.3	14.5	0.00e+00	0	43	102	1048576	15	4408
2026-01-05 08:51:06.87	62.60	29.01	-27.5	-29.3	14.5	3.80e-06	0	43	102	1048576	15	4422
2026-01-05 08:51:07.88	62.27	29.05	-27.5	-29.2	14.6	7.00e-07	0	43	102	1048576	15	4399
2026-01-05 08:51:08.89	61.94	29.09	-27.6	-29.4	14.5	0.00e+00	0	43	102	1048576	15	4453
2026-01-05 08:51:09.90	61.61	29.13	-27.6	-29.5	14.4	2.20e-06	0	43	102	1048576	15	4465
2026-01-05 08:51:10.91	61.28	29.16	-27.6	-29.4	14.4	7.00e-07	0	43	102	1048576	15	4443
2026-01-05 08:51:11.92	60.95	29.20	-27.9	-30.1	14.1	7.00e-07	0	43	102	1048576	15	4650
2026-01-05 08:51:12.92	60.62	29.23	-27.8	-30.0	14.1	1.50e-06	0	43	102	1048576	15	4638
2026-01-05 08:51:13.93	60.29	29.26	-28.2	-30.4	13.8	4.50e-06	0	43	102	1048576	16	4646
2026-01-05 08:51:14.94	59.96	29.30	-28.1	-30.0	14.0	4.50e-06	0	43	102	1048576	16	4523
2026-01-05 08:51:15.93	59.63	29.33	-27.9	-29.6	14.2	1.50e-06	0	43	102	1048576	16	4400
2026-01-05 08:51:16.94	59.30	29.36	-27.8	-29.5	14.3	1.50e-06	0	43	102	1048576	16	4372
2026-01-05 08:51:17.95	58.96	29.39	-27.8	-29.4	14.4	1.50e-06	0	43	102	1048576	16	4334
2026-01-05 08:51:18.96	58.63	29.41	-27.7	-29.2	14.5	4.50e-06	0	43	102	1048576	16	4271
2026-01-05 08:51:19.96	58.29	29.44	-27.9	-29.6	14.2	1.50e-06	0	43	102	1048576	16	4400
2026-01-05 08:51:20.97	57.96	29.47	-27.8	-29.4	14.3	7.00e-07	0	43	102	1048576	16	4341
2026-01-05 08:51:21.98	57.62	29.49	-27.9	-29.7	14.2	2.20e-06	0	43	102	1048576	16	4430
2026-01-05 08:51:22.99	57.28	29.51	-27.8	-29.4	14.4	1.50e-06	0	43	102	1048576	16	4321
2026-01-05 08:51:23.99	56.95	29.54	-27.7	-29.3	14.4	1.50e-06	0	43	102	1048576	16	4300
2026-01-05 08:51:24.99	56.61	29.56	-27.8	-29.4	14.4	0.00e+00	0	43	102	1048576	16	4317
2026-01-05 08:51:26.00	56.27	29.58	-27.6	-29.0	14.6	0.00e+00	0	43	102	1048576	16	4216
2026-01-05 08:51:27.01	55.93	29.60	-27.6	-28.9	14.7	0.00e+00	0	43	102	1048576	16	4193
2026-01-05 08:51:28.01	55.60	29.62	-27.6	-29.0	14.6	7.00e-07	0	43	102	1048576	16	4212
2026-01-05 08:51:29.02	55.25	29.63	-27.8	-29.4	14.4	7.00e-07	0	43	102	1048576	16	4323
2026-01-05 08:51:30.03	54.91	29.65	-28.0	-29.9	14.1	1.50e-06	0	43	102	1048576	16	4476
2026-01-05 08:51:31.03	54.58	29.66	-27.8	-29.5	14.3	0.00e+00	0	43	102	1048576	16	4348
2026-01-05 08:51:32.04	54.24	29.68	-27.7	-29.2	14.5	7.00e-07	0	43	102	1048576	16	4266
2026-01-05 08:51:33.05	53.89	29.69	-27.7	-29.2	14.5	7.00e-07	0	43	102	1048576	16	4277
2026-01-05 08:51:34.05	53.56	29.70	-27.8	-29.5	14.3	1.50e-06	0	43	102	1048576	16	4367
2026-01-05 08:51:35.05	53.22	29.71	-27.8	-29.5	14.3	2.20e-06	0	43	102	1048576	16	4348
2026-01-05 08:51:36.05	52.88	29.72	-27.7	-29.2	14.5	0.00e+00	0	43	102	1048576	16	4269
2026-01-05 08:51:37.05	52.54	29.73	-27.5	-28.8	14.7	7.00e-07	0	43	102	1048576	16	4159
2026-01-05 08:51:38.06	52.20	29.73	-27.4	-28.6	14.8	0.00e+00	0	43	102	1048576	16	4106
2026-01-05 08:51:39.07	51.85	29.74	-27.4	-28.5	14.9	0.00e+00	0	43	102	1048576	16	4096
2026-01-05 08:51:40.07	51.52	29.74	-27.5	-28.6	14.8	0.00e+00	0	43	102	1048576	16	4115
2026-01-05 08:51:41.08	51.17	29.75	-27.1	-28.3	15.1	0.00e+00	0	43	102	1048576	15	4138
2026-01-05 08:51:42.09	50.83	29.75	-27.1	-28.2	15.1	0.00e+00	0	43	102	1048576	15	4122
2026-01-05 08:51:43.09	50.49	29.75	-27.3	-28.7	14.8	7.00e-07	0	43	102	1048576	15	4250
2026-01-05 08:51:44.10	50.15	29.75	-27.4	-29.0	14.7	0.00e+00	0	43	102	1048576	15	4348
2026-01-05 08:51:45.11	49.80	29.75	-27.5	-29.2	14.6	0.00e+00	0	43	102	1048576	15	4391
2026-01-05 08:51:46.11	49.46	29.75	-27.5	-29.2	14.6	1.50e-06	0	43	102	1048576	15	4397
2026-01-05 08:51:47.11	49.13	29.74	-27.5	-29.2	14.6	0.00e+00	0	43	102	1048576	15	4396
2026-01-05 08:51:48.12	48.78	29.74	-27.5	-29.3	14.5	0.00e+00	0	43	102	1048576	15	4410
2026-01-05 08:51:49.12	48.44	29.73	-27.5	-29.4	14.5	0.00e+00	0	43	102	1048576	15	4442
2026-01-05 08:51:50.13	48.10	29.73	-27.9	-30.3	13.9	3.00e-06	0	43	102	1048576	15	4730
2026-01-05 08:51:51.14	47.76	29.72	-27.9	-30.3	14.0	1.50e-06	0	43	102	1048576	15	4722
2026-01-05 08:51:52.14	47.42	29.71	-28.3	-30.5	13.7	6.80e-06	0	43	102	1048576	16	4667
2026-01-05 08:51:53.15	47.08	29.70	-28.1	-30.1	13.9	2.20e-06	0	43	102	1048576	16	4554
2026-01-05 08:51:54.16	46.74	29.69	-27.9	-29.6	14.2	7.00e-07	0	43	102	1048576	16	4383
2026-01-05 08:51:55.17	46.40	29.67	-27.7	-29.1	14.4	7.00e-07	0	43	102	1048576	16	4253
2026-01-05 08:51:56.17	46.06	29.66	-27.6	-29.1	14.5	0.00e+00	0	43	102	1048576	16	4236
2026-01-05 08:51:57.17	45.72	29.65	-27.8	-29.4	14.3	1.50e-06	0	43	102	1048576	16	4325
2026-01-05 08:51:58.17	45.38	29.63	-27.6	-29.1	14.5	7.00e-07	0	43	102	1048576	16	4234
2026-01-05 08:51:59.18	45.04	29.61	-27.6	-29.0	14.6	1.50e-06	0	43	102	1048576	16	4208
2026-01-05 08:52:00.19	44.70	29.59	-27.7	-29.1	14.5	7.00e-07	0	43	102	1048576	16	4252
2026-01-05 08:52:01.19	44.37	29.58	-27.8	-29.4	14.3	7.00e-07	0	43	102	1048576	16	4347
2026-01-05 08:52:02.20	44.03	29.56	-27.5	-28.8	14.7	0.00e+00	0	43	102	1048576	16	4166
2026-01-05 08:52:03.21	43.69	29.53	-27.4	-28.5	14.8	0.00e+00	0	43	102	1048576	16	4071
2026-01-05 08:52:04.22	43.35	29.51	-27.4	-28.4	14.9	7.00e-07	0	43	102	1048576	16	4071
2026-01-05 08:52:05.21	43.02	29.49	-27.5	-28.8	14.7	7.00e-07	0	43	102	1048576	16	4161
2026-01-05 08:52:06.22	42.69	29.46	-27.5	-28.8	14.6	0.00e+00	0	43	102	1048576	16	4178
2026-01-05 08:52:07.22	42.35	29.44	-27.6	-29.1	14.5	0.00e+00	0	43	102	1048576	16	4245
2026-01-05 08:52:08.23	42.02	29.41	-27.6	-29.0	14.6	7.00e-07	0	43	102	1048576	16	4214
2026-01-05 08:52:09.24	41.68	29.38	-27.6	-29.0	14.5	7.00e-07	0	43	102	1048576	16	4230
2026-01-05 08:52:10.24	41.35	29.35	-27.6	-28.9	14.6	0.00e+00	0	43	102	1048576	16	4206
2026-01-05 08:52:11.25	41.02	29.32	-27.4	-28.6	14.8	0.00e+00	0	43	102	1048576	16	4108
2026-01-05 08:52:12.26	40.68	29.29	-27.5	-28.7	14.7	0.00e+00	0	43	102	1048576	16	4149
2026-01-05 08:52:13.27	40.35	29.26	-27.7	-29.1	14.5	7.00e-07	0	43	102	1048576	16	4255
2026-01-05 08:52:14.28	40.02	29.23	-27.5	-28.8	14.7	0.00e+00	0	43	102	1048576	16	4160
2026-01-05 08:52:15.29	39.69	29.19	-27.5	-28.7	14.7	0.00e+00	0	43	102	1048576	16	4148
2026-01-05 08:52:16.29	39.36	29.16	-27.6	-28.9	14.6	0.00e+00	0	43	102	1048576	16	4189
2026-01-05 08:52:17.30	39.03	29.12	-27.5	-28.8	14.6	0.00e+00	0	43	102	1048576	16	4166
2026-01-05 08:52:18.30	38.71	29.08	-27.5	-28.8	14.7	0.00e+00	0	43	102	1048576	16	4177
2026-01-05 08:52:19.31	38.38	29.05	-27.5	-28.8	14.6	0.00e+00	0	43	102	1048576	16	4182
2026-01-05 08:52:20.32	38.05	29.01	-27.7	-29.1	14.5	0.00e+00	0	43	102	1048576	16	4253
2026-01-05 08:52:21.32	37.73	28.97	-27.8	-29.4	14.3	1.50e-06	0	44	102	1048576	16	4336
2026-01-05 08:52:22.33	37.40	28.93	-27.8	-29.5	14.2	1.50e-06	0	43	102	1048576	16	4359
2026-01-05 08:52:23.34	37.08	28.88	-28.0	-29.8	14.1	2.20e-06	0	43	102	1048576	16	4460
2026-01-05 08:52:24.34	36.76	28.84	-28.0	-29.9	14.0	3.80e-06	0	43	102	1048576	16	4492
2026-01-05 08:52:25.35	36.43	28.80	-28.0	-29.9	14.0	2.20e-06	0	43	102	1048576	16	4485
2026-01-05 08:52:26.36	36.11	28.75	-27.9	-29.6	14.2	2.20e-06	0	43	102	1048576	16	4399
2026-01-05 08:52:27.37	35.79	28.71	-28.0	-29.9	14.0	7.00e-07	0	43	102	1048576	16	4486
2026-01-05 08:52:28.37	35.47	28.66	-28.0	-29.9	14.0	1.50e-06	0	43	102	1048576	16	4488
2026-01-05 08:52:29.38	35.15	28.61	-27.9	-29.6	14.2	1.50e-06	0	43	102	1048576	16	4386
2026-01-05 08:52:30.38	34.84	28.56	-27.7	-29.3	14.3	7.00e-07	0	43	102	1048576	16	4315
2026-01-05 08:52:31.39	34.52	28.51	-27.7	-29.3	14.4	7.00e-07	0	43	102	1048576	16	4309
2026-01-05 08:52:32.39	34.21	28.46	-27.8	-29.4	14.2	7.00e-07	0	43	102	1048576	16	4342
2026-01-05 08:52:33.40	33.89	28.41	-28.0	-29.9	14.0	2.20e-06	0	43	102	1048576	16	4474
2026-01-05 08:52:34.41	33.58	28.36	-28.0	-29.9	14.0	4.50e-06	0	43	102	1048576	16	4476
2026-01-05 08:52:35.42	33.26	28.31	-27.8	-29.4	14.2	3.00e-06	0	43	102	1048576	16	4350
2026-01-05 08:52:36.41	32.96	28.25	-27.8	-29.3	14.3	0.00e+00	0	43	102	1048576	16	4320
2026-01-05 08:52:37.42	32.65	28.20	-27.7	-29.3	14.4	7.00e-07	0	43	102	1048576	16	4303
2026-01-05 08:52:38.43	32.34	28.14	-27.6	-29.0	14.5	0.00e+00	0	43	102	1048576	16	4229
2026-01-05 08:52:39.43	32.03	28.09	-27.5	-28.8	14.7	7.00e-07	0	43	102	1048576	16	4165
2026-01-05 08:52:40.43	31.72	28.03	-27.6	-28.9	14.6	7.00e-07	0	43	102	1048576	16	4209
2026-01-05 08:52:41.44	31.42	27.97	-27.7	-29.2	14.4	7.00e-07	0	43	102	1048576	16	4293
2026-01-05 08:52:42.45	31.11	27.91	-27.7	-29.3	14.4	1.50e-06	0	43	102	1048576	16	4308
2026-01-05 08:52:43.46	30.81	27.85	-27.8	-29.4	14.3	7.00e-07	0	43	102	1048576	16	4344
2026-01-05 08:52:44.46	30.51	27.79	-27.6	-28.9	14.5	0.00e+00	0	43	102	1048576	16	4206
2026-01-05 08:52:45.47	30.20	27.73	-27.4	-28.5	14.8	0.00e+00	0	43	102	1048576	16	4103
2026-01-05 08:52:46.48	29.90	27.67	-27.1	-28.4	15.0	0.00e+00	0	43	102	1048576	15	4162
2026-01-05 08:52:47.49	29.60	27.61	-27.0	-28.1	15.1	0.00e+00	0	43	102	1048576	15	4083
2026-01-05 08:52:48.49	29.31	27.55	-27.0	-28.1	15.1	0.00e+00	0	43	102	1048576	15	4097
2026-01-05 08:52:49.50	29.01	27.48	-27.1	-28.3	15.0	0.00e+00	0	43	102	1048576	15	4136
2026-01-05 08:52:50.51	28.71	27.42	-27.2	-28.6	14.9	7.00e-07	0	43	102	1048576	15	4225
2026-01-05 08:52:51.52	28.42	27.35	-27.4	-29.1	14.6	0.00e+00	0	43	102	1048576	15	4369
2026-01-05 08:52:52.52	28.13	27.29	-27.7	-29.8	14.2	7.00e-07	0	43	102	1048576	15	4574
2026-01-05 08:52:53.53	27.84	27.22	-27.9	-30.3	13.9	4.50e-06	0	43	102	1048576	15	4729
2026-01-05 08:52:54.54	27.54	27.15	-27.9	-30.3	13.8	2.20e-06	0	43	102	1048576	15	4727
2026-01-05 08:52:55.54	27.26	27.08	-28.0	-30.5	13.8	6.10e-06	0	43	102	1048576	15	4786
2026-01-05 08:52:56.55	26.97	27.02	-28.2	-30.4	13.6	8.30e-06	0	43	102	1048576	16	4652
2026-01-05 08:52:57.56	26.68	26.95	-28.1	-30.2	13.8	5.30e-06	0	43	102	1048576	16	4584
2026-01-05 08:52:58.56	26.40	26.88	-27.8	-29.5	14.2	3.00e-06	0	43	102	1048576	16	4371
2026-01-05 08:52:59.57	26.11	26.81	-27.7	-29.2	14.4	0.00e+00	0	43	102	1048576	16	4273
2026-01-05 08:53:00.58	25.83	26.74	-27.6	-29.1	14.4	7.00e-07	0	43	102	1048576	16	4250
2026-01-05 08:53:01.59	25.54	26.66	-27.7	-29.3	14.3	0.00e+00	0	43	102	1048576	16	4305
2026-01-05 08:53:02.60	25.26	26.59	-27.6	-29.1	14.4	0.00e+00	0	44	102	1048576	16	4248
2026-01-05 08:53:03.61	24.98	26.52	-27.4	-28.5	14.7	0.00e+00	0	43	102	1048576	16	4095
2026-01-05 08:53:04.61	24.71	26.45	-27.0	-28.2	15.0	0.00e+00	0	43	102	1048576	15	4112
2026-01-05 08:53:05.62	24.43	26.37	-26.9	-27.9	15.2	0.00e+00	0	43	102	1048576	15	4038
2026-01-05 08:53:06.63	24.15	26.30	-26.9	-27.9	15.1	0.00e+00	0	43	102	1048576	15	4054
2026-01-05 08:53:07.63	23.88	26.22	-27.0	-28.2	15.0	0.00e+00	0	43	102	1048576	15	4120
2026-01-05 08:53:08.64	23.61	26.15	-27.1	-28.4	14.9	0.00e+00	0	43	102	1048576	15	4179
2026-01-05 08:53:09.65	23.34	26.07	-27.3	-28.8	14.7	0.00e+00	0	44	102	1048576	15	4276
2026-01-05 08:53:10.65	23.07	26.00	-27.5	-29.2	14.4	7.00e-07	0	43	102	1048576	15	4414
2026-01-05 08:53:11.66	22.80	25.92	-27.5	-29.3	14.4	0.00e+00	0	43	102	1048576	15	4434
2026-01-05 08:53:12.66	22.53	25.84	-27.3	-28.8	14.6	0.00e+00	0	43	102	1048576	15	4290
2026-01-05 08:53:13.67	22.27	25.76	-27.0	-28.1	15.0	0.00e+00	0	43	102	1048576	15	4106
2026-01-05 08:53:14.68	22.00	25.69	-26.9	-27.8	15.2	0.00e+00	0	43	102	1048576	15	4018
2026-01-05 08:53:15.69	21.74	25.61	-26.9	-27.9	15.2	0.00e+00	0	43	102	1048576	15	4036
2026-01-05 08:53:16.69	21.48	25.53	-26.8	-27.7	15.2	0.00e+00	0	43	102	1048576	15	4001
2026-01-05 08:53:17.69	21.22	25.45	-26.9	-28.4	15.1	0.00e+00	0	44	102	1048576	14	4293
2026-01-05 08:53:18.70	20.96	25.37	-27.1	-28.9	14.9	0.00e+00	0	43	102	1048576	14	4414
2026-01-05 08:53:19.71	20.70	25.29	-27.3	-29.4	14.6	7.00e-07	0	43	102	1048576	14	4568
2026-01-05 08:53:20.71	20.44	25.21	-27.5	-29.7	14.4	1.50e-06	0	44	102	1048576	14	4678
2026-01-05 08:53:21.72	20.19	25.13	-27.6	-29.6	14.2	7.00e-07	0	43	102	1048576	15	4511
2026-01-05 08:53:22.73	19.93	25.05	-27.7	-29.7	14.1	1.50e-06	0	43	102	1048576	15	4566
2026-01-05 08:53:23.73	19.68	24.97	-27.5	-29.4	14.3	0.00e+00	0	43	102	1048576	15	4459
2026-01-05 08:53:24.74	19.43	24.88	-27.2	-28.7	14.7	0.00e+00	0	43	102	1048576	15	4255
2026-01-05 08:53:25.74	19.18	24.80	-27.0	-28.1	15.0	0.00e+00	0	43	102	1048576	15	4110
2026-01-05 08:53:26.75	18.93	24.72	-27.1	-28.3	14.9	0.00e+00	0	43	102	1048576	15	4153
2026-01-05 08:53:27.75	18.69	24.64	-27.2	-28.5	14.8	0.00e+00	0	43	102	1048576	15	4210
2026-01-05 08:53:28.76	18.44	24.55	-27.2	-28.7	14.7	7.00e-07	0	43	102	1048576	15	4267
2026-01-05 08:53:29.77	18.19	24.47	-27.3	-28.9	14.5	2.20e-06	0	43	102	1048576	15	4327
2026-01-05 08:53:30.78	17.95	24.38	-27.4	-29.2	14.4	2.20e-06	0	43	102	1048576	15	4408
2026-01-05 08:53:31.78	17.71	24.30	-27.4	-29.0	14.5	7.00e-07	0	43	102	1048576	15	4352
2026-01-05 08:53:32.78	17.47	24.22	-27.1	-28.3	14.9	0.00e+00	0	43	102	1048576	15	4165
2026-01-05 08:53:33.79	17.23	24.13	-26.9	-27.8	15.1	0.00e+00	0	43	102	1048576	15	4030
2026-01-05 08:53:34.80	16.99	24.05	-26.8	-28.2	15.2	0.00e+00	0	43	102	1048576	14	4236
2026-01-05 08:53:35.80	16.76	23.96	-26.7	-27.9	15.4	0.00e+00	0	43	102	1048576	14	4155
2026-01-05 08:53:36.81	16.52	23.87	-26.7	-28.1	15.3	0.00e+00	0	43	102	1048576	14	4199
2026-01-05 08:53:37.81	16.29	23.79	-26.9	-28.4	15.1	7.00e-07	0	43	102	1048576	14	4286
2026-01-05 08:53:38.82	16.05	23.70	-27.1	-28.8	14.9	0.00e+00	0	43	102	1048576	14	4397
2026-01-05 08:53:39.83	15.82	23.62	-27.2	-29.2	14.6	0.00e+00	0	43	102	1048576	14	4522
2026-01-05 08:53:40.83	15.59	23.53	-27.3	-29.4	14.5	7.00e-07	0	43	102	1048576	14	4587
2026-01-05 08:53:41.85	15.36	23.44	-27.4	-29.5	14.4	0.00e+00	0	43	102	1048576	14	4605
2026-01-05 08:53:42.85	15.13	23.36	-27.3	-29.5	14.5	7.00e-07	0	43	102	1048576	14	4596
2026-01-05 08:53:43.86	14.91	23.27	-27.3	-29.3	14.5	1.50e-06	0	43	102	1048576	14	4558
2026-01-05 08:53:44.85	14.68	23.18	-27.3	-29.3	14.6	1.50e-06	0	43	102	1048576	14	4552
2026-01-05 08:53:45.86	14.46	23.10	-27.1	-29.0	14.7	0.00e+00	0	43	102	1048576	14	4446
2026-01-05 08:53:46.87	14.24	23.01	-27.0	-28.8	14.8	0.00e+00	0	43	102	1048576	14	4389
2026-01-05 08:53:47.88	14.01	22.92	-27.2	-29.1	14.6	7.00e-07	0	43	102	1048576	14	4484
2026-01-05 08:53:48.89	13.79	22.83	-27.1	-28.8	14.7	7.00e-07	0	43	102	1048576	14	4409
2026-01-05 08:53:49.89	13.58	22.74	-27.1	-28.8	14.8	0.00e+00	0	44	102	1048576	14	4403
2026-01-05 08:53:50.90	13.36	22.66	-27.1	-28.8	14.8	0.00e+00	0	43	102	1048576	14	4400
2026-01-05 08:53:51.91	13.14	22.57	-26.9	-28.5	15.0	7.00e-07	0	43	102	1048576	14	4315
2026-01-05 08:53:52.92	12.92	22.48	-27.1	-28.8	14.8	0.00e+00	0	43	102	1048576	14	4413
2026-01-05 08:53:53.92	12.71	22.39	-27.0	-28.6	15.0	0.00e+00	0	43	102	1048576	14	4349
2026-01-05 08:53:54.92	12.50	22.30	-26.9	-28.5	15.0	0.00e+00	0	43	102	1048576	14	4315
2026-01-05 08:53:55.93	12.29	22.21	-26.9	-28.5	15.0	0.00e+00	0	43	102	1048576	14	4322
2026-01-05 08:53:56.94	12.08	22.12	-27.0	-28.6	14.9	0.00e+00	0	43	102	1048576	14	4343
2026-01-05 08:53:57.95	11.87	22.03	-27.0	-28.7	14.9	1.50e-06	0	43	102	1048576	14	4366
2026-01-05 08:53:58.95	11.66	21.94	-27.1	-29.0	14.7	7.00e-07	0	43	102	1048576	14	4466
2026-01-05 08:53:59.96	11.45	21.86	-27.1	-28.9	14.7	0.00e+00	0	43	102	1048576	14	4437
2026-01-05 08:54:00.97	11.25	21.77	-27.2	-29.2	14.6	0.00e+00	0	43	102	1048576	14	4530
2026-01-05 08:54:01.97	11.04	21.68	-27.1	-29.0	14.7	7.00e-07	0	44	102	1048576	14	4476
2026-01-05 08:54:02.98	10.84	21.59	-27.2	-29.2	14.5	0.00e+00	0	43	102	1048576	14	4534
2026-01-05 08:54:03.98	10.64	21.50	-27.1	-29.0	14.7	0.00e+00	0	43	102	1048576	14	4459
2026-01-05 08:54:04.99	10.44	21.41	-27.2	-29.1	14.6	0.00e+00	0	43	102	1048576	14	4505
2026-01-05 08:54:05.99	10.24	21.32	-27.3	-29.4	14.5	0.00e+00	0	43	102	1048576	14	4597
2026-01-05 08:54:07.00	10.04	21.23	-27.2	-29.1	14.6	0.00e+00	0	43	102	1048576	14	4488
2026-01-05 08:54:08.01	9.84	21.14	-27.1	-28.9	14.7	0.00e+00	0	43	102	1048576	14	4448
2026-01-05 08:54:09.02	9.65	21.05	-27.1	-29.0	14.7	0.00e+00	0	43	102	1048576	14	4463
2026-01-05 08:54:10.03	9.45	20.96	-27.1	-29.0	14.7	7.00e-07	0	43	102	1048576	14	4448
2026-01-05 08:54:11.03	9.26	20.87	-27.2	-29.1	14.6	0.00e+00	0	43	102	1048576	14	4501
2026-01-05 08:54:12.03	9.07	20.78	-27.2	-29.2	14.6	0.00e+00	0	43	102	1048576	14	4529
2026-01-05 08:54:13.04	8.88	20.69	-27.4	-29.5	14.4	0.00e+00	0	43	102	1048576	14	4617
2026-01-05 08:54:14.05	8.69	20.60	-27.3	-29.5	14.4	1.50e-06	0	43	102	1048576	14	4613
2026-01-05 08:54:15.06	8.50	20.51	-27.4	-29.7	14.3	2.20e-06	0	43	102	1048576	14	4666
2026-01-05 08:54:16.06	8.31	20.42	-27.3	-29.4	14.5	0.00e+00	0	43	102	1048576	14	4578
2026-01-05 08:54:17.07	8.12	20.33	-27.3	-29.3	14.5	0.00e+00	0	43	102	1048576	14	4552
2026-01-05 08:54:18.08	7.94	20.24	-27.2	-29.1	14.6	7.00e-07	0	43	102	1048576	14	4497
2026-01-05 08:54:19.08	7.75	20.15	-27.2	-29.2	14.6	0.00e+00	0	43	102	1048576	14	4510
2026-01-05 08:54:20.08	7.57	20.06	-27.0	-28.7	14.8	0.00e+00	0	43	102	1048576	14	4366
2026-01-05 08:54:21.09	7.39	19.97	-26.8	-28.3	15.0	0.00e+00	0	43	102	1048576	14	4271
2026-01-05 08:54:22.09	7.21	19.88	-26.9	-28.4	15.0	0.00e+00	0	43	102	1048576	14	4302
2026-01-05 08:54:23.10	7.03	19.79	-26.7	-28.1	15.2	0.00e+00	0	43	102	1048576	14	4198
2026-01-05 08:54:24.11	6.85	19.70	-26.7	-27.9	15.3	0.00e+00	0	43	102	1048576	14	4155
2026-01-05 08:54:25.11	6.67	19.61	-26.8	-28.2	15.1	0.00e+00	0	43	102	1048576	14	4222
2026-01-05 08:54:26.11	6.49	19.52	-26.7	-27.9	15.2	7.00e-07	0	43	102	1048576	14	4160
2026-01-05 08:54:27.11	6.32	19.43	-26.8	-28.2	15.1	0.00e+00	0	43	102	1048576	14	4233
2026-01-05 08:54:28.12	6.14	19.34	-26.7	-28.1	15.2	0.00e+00	0	43	102	1048576	14	4202
2026-01-05 08:54:29.13	5.97	19.25	-26.8	-28.3	15.0	7.00e-07	0	43	102	1048576	14	4264
2026-01-05 08:54:30.14	5.80	19.16	-26.9	-28.5	14.9	0.00e+00	0	43	102	1048576	14	4332
2026-01-05 08:54:31.14	5.62	19.07	-27.1	-28.9	14.7	0.00e+00	0	43	102	1048576	14	4451
2026-01-05 08:54:32.14	5.45	18.98	-27.2	-29.1	14.6	0.00e+00	0	43	102	1048576	14	4511
2026-01-05 08:54:33.15	5.28	18.89	-27.3	-29.4	14.4	7.00e-07	0	43	102	1048576	14	4589
2026-01-05 08:54:34.16	5.11	18.80	-27.4	-29.2	14.3	7.00e-07	0	43	102	1048576	15	4428
2026-01-05 08:54:35.17	4.95	18.72	-27.6	-29.6	14.0	1.50e-06	0	43	102	1048576	15	4531
2026-01-05 08:54:36.18	4.78	18.63	-27.4	-29.1	14.3	2.20e-06	0	43	102	1048576	15	4387
2026-01-05 08:54:37.19	4.61	18.54	-27.3	-28.9	14.4	7.00e-07	0	43	102	1048576	15	4320
2026-01-05 08:54:38.20	4.45	18.45	-27.3	-28.9	14.4	2.20e-06	0	43	102	1048576	15	4318
2026-01-05 08:54:39.20	4.28	18.36	-27.4	-29.1	14.3	1.50e-06	0	43	102	1048576	15	4379
2026-01-05 08:54:40.21	4.12	18.27	-27.4	-29.2	14.2	7.00e-07	0	43	102	1048576	15	4407
2026-01-05 08:54:41.21	3.96	18.18	-27.5	-29.3	14.1	7.00e-07	0	43	102	1048576	15	4466
2026-01-05 08:54:42.22	3.80	18.09	-27.5	-29.5	14.0	2.20e-06	0	43	102	1048576	15	4503
2026-01-05 08:54:43.23	3.64	18.00	-27.6	-29.6	14.0	2.20e-06	0	43	102	1048576	15	4543
2026-01-05 08:54:44.24	3.48	17.91	-27.7	-29.8	13.8	3.80e-06	0	43	102	1048576	15	4614
2026-01-05 08:54:45.25	3.32	17.82	-27.7	-29.9	13.8	3.00e-06	0	43	102	1048576	15	4637
2026-01-05 08:54:46.26	3.16	17.74	-27.8	-30.1	13.7	6.80e-06	0	43	102	1048576	15	4702
2026-01-05 08:54:47.26	3.01	17.65	-27.9	-30.3	13.5	8.30e-06	0	43	102	1048576	15	4751
2026-01-05 08:54:48.27	2.85	17.56	-27.8	-30.1	13.7	8.30e-06	0	43	102	1048576	15	4683
2026-01-05 08:54:49.28	2.70	17.47	-27.7	-30.0	13.7	3.80e-06	0	43	102	1048576	15	4652
2026-01-05 08:54:50.28	2.55	17.38	-27.7	-29.9	13.7	4.50e-06	0	43	102	1048576	15	4635
2026-01-05 08:54:51.29	2.39	17.30	-27.5	-29.5	13.9	1.50e-06	0	43	102	1048576	15	4518
2026-01-05 08:54:52.29	2.24	17.21	-27.6	-29.5	14.0	4.50e-06	0	43	102	1048576	15	4526
2026-01-05 08:54:53.30	2.09	17.12	-27.6	-29.6	14.0	1.50e-06	0	43	102	1048576	15	4540
2026-01-05 08:54:54.30	1.94	17.03	-27.5	-29.4	14.0	6.10e-06	0	43	102	1048576	15	4491
2026-01-05 08:54:55.31	1.79	16.94	-27.7	-29.8	13.8	5.30e-06	0	43	102	1048576	15	4607
2026-01-05 08:54:56.31	1.65	16.86	-27.5	-29.4	14.0	3.80e-06	0	43	102	1048576	15	4496
2026-01-05 08:54:57.31	1.50	16.77	-27.6	-29.5	13.9	3.80e-06	0	43	102	1048576	15	4527
2026-01-05 08:54:58.32	1.35	16.68	-27.7	-29.8	13.8	6.10e-06	0	43	102	1048576	15	4609
2026-01-05 08:54:59.32	1.21	16.60	-27.8	-30.0	13.7	9.10e-06	0	43	102	1048576	15	4680
2026-01-05 08:55:00.33	1.06	16.51	-27.8	-30.2	13.6	4.50e-06	0	43	102	1048576	15	4726
2026-01-05 08:55:01.34	0.92	16.42	-27.8	-30.2	13.5	9.10e-06	0	43	102	1048576	15	4745
2026-01-05 08:55:02.34	0.78	16.34	-27.8	-30.2	13.5	9.10e-06	0	43	102	1048576	15	4747
2026-01-05 08:55:03.35	0.63	16.25	-27.8	-30.2	13.5	1.06e-05	0	44	102	1048576	15	4728
2026-01-05 08:55:04.36	0.49	16.16	-27.8	-30.1	13.6	7.60e-06	0	43	102	1048576	15	4691
2026-01-05 08:55:05.37	0.35	16.08	-27.8	-30.2	13.5	7.60e-06	0	43	102	1048576	15	4748
2026-01-05 08:55:06.37	0.21	15.99	-27.9	-30.3	13.4	1.22e-05	0	44	102	1048576	15	4770
2026-01-05 08:55:07.38	0.07	15.90	-27.8	-30.1	13.6	9.10e-06	0	43	102	1048576	15	4690
2026-01-05 08:55:08.39	359.94	15.82	-27.8	-30.2	13.5	1.14e-05	0	43	102	1048576	15	4745
2026-01-05 08:55:09.40	359.80	15.73	-27.8	-30.2	13.5	8.30e-06	0	43	102	1048576	15	4750
2026-01-05 08:55:10.41	359.66	15.65	-27.7	-29.8	13.7	9.10e-06	0	43	102	1048576	15	4620
2026-01-05 08:55:11.41	359.53	15.56	-27.6	-29.7	13.8	2.20e-06	0	43	102	1048576	15	4565
2026-01-05 08:55:12.42	359.39	15.48	-27.6	-29.7	13.8	4.50e-06	0	43	102	1048576	15	4592
2026-01-05 08:55:13.43	359.26	15.39	-27.7	-29.9	13.7	8.30e-06	0	43	102	1048576	15	4648
2026-01-05 08:55:14.43	359.13	15.31	-27.8	-30.2	13.5	6.80e-06	0	43	102	1048576	15	4739
2026-01-05 08:55:15.44	358.99	15.22	-27.9	-30.3	13.4	1.14e-05	0	43	102	1048576	15	4771
2026-01-05 08:55:16.45	358.86	15.13	-27.9	-30.3	13.4	1.22e-05	0	43	102	1048576	15	4780
2026-01-05 08:55:17.46	358.73	15.05	-27.9	-30.4	13.3	1.67e-05	0	43	102	1048576	15	4806
2026-01-05 08:55:18.46	358.60	14.97	-27.9	-30.4	13.3	1.44e-05	0	43	102	1048576	15	4807
2026-01-05 08:55:19.47	358.47	14.88	-27.9	-30.4	13.3	1.44e-05	0	43	102	1048576	15	4815
2026-01-05 08:55:20.48	358.34	14.80	-27.9	-30.5	13.3	1.60e-05	0	44	102	1048576	15	4826
2026-01-05 08:55:21.49	358.21	14.71	-28.2	-30.7	13.1	2.74e-05	0	43	102	1048576	16	4761
2026-01-05 08:55:22.49	358.09	14.63	-28.1	-30.4	13.3	2.51e-05	0	43	102	1048576	16	4664
2026-01-05 08:55:23.50	357.96	14.54	-27.9	-29.8	13.5	1.14e-05	0	43	102	1048576	16	4496
2026-01-05 08:55:24.51	357.83	14.46	-27.7	-29.4	13.8	6.10e-06	0	43	102	1048576	16	4380
2026-01-05 08:55:25.52	357.71	14.38	-27.6	-29.2	13.9	5.30e-06	0	43	102	1048576	16	4325
2026-01-05 08:55:26.52	357.59	14.29	-27.6	-29.2	13.9	7.00e-07	0	43	102	1048576	16	4305
2026-01-05 08:55:27.53	357.46	14.21	-27.6	-29.2	13.9	6.10e-06	0	43	102	1048576	16	4313
2026-01-05 08:55:28.54	357.34	14.13	-27.6	-29.1	13.9	4.50e-06	0	43	102	1048576	16	4292
2026-01-05 08:55:29.54	357.22	14.04	-27.6	-29.2	13.9	4.50e-06	0	43	102	1048576	16	4318
2026-01-05 08:55:30.55	357.10	13.96	-27.7	-29.3	13.8	3.00e-06	0	43	102	1048576	16	4350
2026-01-05 08:55:31.56	356.97	13.88	-27.7	-29.5	13.7	3.00e-06	0	43	102	1048576	16	4389
2026-01-05 08:55:32.56	356.86	13.80	-27.7	-29.5	13.7	3.00e-06	0	43	102	1048576	16	4406
2026-01-05 08:55:33.57	356.74	13.71	-27.8	-29.6	13.6	1.60e-05	0	43	102	1048576	16	4446
2026-01-05 08:55:34.58	356.62	13.63	-28.0	-30.1	13.3	1.75e-05	0	43	102	1048576	16	4592
2026-01-05 08:55:35.58	356.50	13.55	-28.0	-30.2	13.2	2.05e-05	0	43	102	1048576	16	4622
2026-01-05 08:55:36.59	356.38	13.47	-28.1	-30.3	13.1	2.67e-05	0	43	102	1048576	16	4652
2026-01-05 08:55:37.60	356.27	13.39	-28.2	-30.6	13.0	2.82e-05	0	43	102	1048576	16	4752
2026-01-05 08:55:38.60	356.15	13.31	-28.2	-30.6	12.9	4.57e-05	0	43	102	1048576	16	4742
2026-01-05 08:55:39.61	356.03	13.22	-28.2	-30.7	12.9	4.11e-05	0	43	102	1048576	16	4775
2026-01-05 08:55:40.62	355.92	13.14	-28.3	-30.8	12.9	6.71e-05	0	43	102	1048576	16	4804
2026-01-05 08:55:41.62	355.81	13.06	-28.3	-30.8	12.8	6.02e-05	0	43	102	1048576	16	4809
2026-01-05 08:55:42.63	355.69	12.98	-28.3	-30.8	12.8	6.17e-05	0	43	102	1048576	16	4831
2026-01-05 08:55:43.64	355.58	12.90	-28.4	-31.1	12.6	8.62e-05	0	43	102	1048576	16	4916
2026-01-05 08:55:44.65	355.47	12.82	-28.3	-30.9	12.7	9.23e-05	0	43	102	1048576	16	4860
2026-01-05 08:55:45.65	355.36	12.74	-28.1	-30.5	13.0	5.11e-05	0	43	102	1048576	16	4724
2026-01-05 08:55:46.66	355.25	12.66	-28.0	-30.2	13.1	2.51e-05	0	43	102	1048576	16	4630
2026-01-05 08:55:47.67	355.14	12.58	-28.0	-30.1	13.2	2.97e-05	0	44	102	1048576	16	4604
2026-01-05 08:55:48.68	355.03	12.50	-28.0	-30.2	13.1	2.51e-05	0	43	102	1048576	16	4638
2026-01-05 08:55:49.68	354.92	12.42	-28.1	-30.3	13.1	4.42e-05	0	43	102	1048576	16	4656
2026-01-05 08:55:50.69	354.81	12.34	-28.1	-30.3	13.1	3.50e-05	0	43	102	1048576	16	4663
2026-01-05 08:55:51.70	354.70	12.26	-28.2	-30.6	12.8	5.26e-05	0	43	102	1048576	16	4769
2026-01-05 08:55:52.71	354.59	12.18	-28.2	-30.8	12.8	7.09e-05	0	43	102	1048576	16	4813
2026-01-05 08:55:53.72	354.49	12.10	-28.4	-31.0	12.6	7.55e-05	0	43	102	1048576	16	4910
2026-01-05 08:55:54.71	354.38	12.02	-28.4	-31.1	12.5	1.11e-04	0	43	102	1048576	16	4939
2026-01-05 08:55:55.72	354.28	11.94	-28.4	-31.2	12.5	1.38e-04	0	43	102	1048576	16	4977
2026-01-05 08:55:56.73	354.17	11.86	-28.5	-30.9	12.3	1.73e-04	0	43	102	1048576	17	4753
2026-01-05 08:55:57.73	354.07	11.78	-28.5	-31.0	12.3	1.88e-04	0	43	102	1048576	17	4777
2026-01-05 08:55:58.74	353.96	11.71	-28.6	-31.2	12.1	2.45e-04	0	43	102	1048576	17	4859
2026-01-05 08:55:59.75	353.86	11.63	-28.6	-31.3	12.1	2.65e-04	0	43	102	1048576	17	4884
2026-01-05 08:56:00.76	353.76	11.55	-28.7	-31.5	11.9	3.70e-04	0	44	102	1048576	17	4960
2026-01-05 08:56:01.77	353.66	11.47	-28.7	-31.4	11.9	3.84e-04	0	43	102	1048576	17	4936
2026-01-05 08:56:02.78	353.55	11.39	-28.8	-31.7	11.8	4.25e-04	0	43	102	1048576	17	5030
2026-01-05 08:56:03.79	353.45	11.31	-28.8	-31.6	11.8	4.90e-04	0	44	102	1048576	17	5013
2026-01-05 08:56:04.79	353.35	11.24	-28.8	-31.8	11.7	5.07e-04	0	43	102	1048576	17	5085
2026-01-05 08:56:05.80	353.25	11.16	-29.0	-32.2	11.5	7.58e-04	0	44	102	1048576	17	5207
2026-01-05 08:56:06.80	353.16	11.08	-28.8	-31.2	11.8	5.74e-04	0	43	102	1048576	18	4759
2026-01-05 08:56:07.81	353.06	11.01	-28.6	-30.8	12.0	3.35e-04	0	43	102	1048576	18	4608
2026-01-05 08:56:08.82	352.96	10.93	-28.5	-30.5	12.2	2.39e-04	0	43	102	1048576	18	4518
2026-01-05 08:56:09.83	352.86	10.85	-28.4	-30.3	12.4	1.81e-04	0	44	102	1048576	18	4455
2026-01-05 08:56:10.84	352.76	10.78	-28.5	-30.3	12.3	1.53e-04	0	44	102	1048576	18	4476
2026-01-05 08:56:11.84	352.67	10.70	-28.4	-30.2	12.4	1.52e-04	0	43	102	1048576	18	4430
2026-01-05 08:56:12.85	352.57	10.62	-28.4	-30.2	12.4	1.43e-04	0	43	102	1048576	18	4421
2026-01-05 08:56:13.86	352.47	10.55	-28.4	-30.1	12.4	1.39e-04	0	43	102	1048576	18	4403
2026-01-05 08:56:14.86	352.38	10.47	-28.5	-30.4	12.2	1.91e-04	0	43	102	1048576	18	4496
2026-01-05 08:56:15.87	352.29	10.40	-28.5	-30.3	12.2	2.28e-04	0	43	102	1048576	18	4469
2026-01-05 08:56:16.88	352.19	10.32	-28.4	-30.1	12.4	1.42e-04	0	43	102	1048576	18	4408
2026-01-05 08:56:17.88	352.10	10.24	-28.4	-30.3	12.3	1.69e-04	0	43	102	1048576	18	4469
2026-01-05 08:56:18.89	352.01	10.17	-28.5	-30.4	12.2	1.99e-04	0	43	102	1048576	18	4485
2026-01-05 08:56:19.89	351.91	10.09	-28.6	-30.6	12.1	2.50e-04	0	43	102	1048576	18	4561
2026-01-05 08:56:20.90	351.82	10.02	-28.7	-30.9	11.9	3.88e-04	0	44	102	1048576	18	4672
2026-01-05 08:56:21.90	351.73	9.94	-28.7	-31.1	11.7	5.02e-04	0	44	102	1048576	18	4733
2026-01-05 08:56:22.90	351.64	9.87	-28.8	-31.3	11.6	6.30e-04	0	44	102	1048576	18	4790
2026-01-05 08:56:23.91	351.55	9.80	-28.8	-31.4	11.6	6.66e-04	0	43	102	1048576	18	4815
2026-01-05 08:56:24.92	351.46	9.72	-29.0	-31.7	11.3	1.14e-03	0	43	102	1048576	18	4950
2026-01-05 08:56:25.93	351.37	9.65	-29.0	-31.8	11.3	1.25e-03	0	44	102	1048576	18	4970
2026-01-05 08:56:26.92	351.28	9.57	-29.0	-31.9	11.1	1.54e-03	0	44	102	1048576	18	5031
2026-01-05 08:56:27.93	351.19	9.50	-29.0	-31.8	11.2	1.43e-03	0	44	102	1048576	18	4980
2026-01-05 08:56:28.94	351.11	9.43	-29.1	-32.0	11.1	1.54e-03	0	43	102	1048576	18	5049
2026-01-05 08:56:29.95	351.02	9.35	-29.0	-31.9	11.1	1.38e-03	0	44	102	1048576	18	5012
2026-01-05 08:56:30.95	350.93	9.28	-29.1	-32.1	11.0	1.83e-03	0	44	102	1048576	18	5093
2026-01-05 08:56:31.95	350.84	9.21	-29.0	-31.8	11.2	1.39e-03	0	44	102	1048576	18	4993
2026-01-05 08:56:32.96	350.76	9.13	-28.9	-31.6	11.3	1.35e-03	0	43	102	1048576	18	4924
2026-01-05 08:56:33.97	350.67	9.06	-28.6	-30.8	11.8	1.22e-03	0	44	102	1048576	18	4651
2026-01-05 08:56:34.97	350.59	8.99	-28.8	-31.5	11.4	9.54e-04	0	44	102	1048576	18	4863
2026-01-05 08:56:35.98	350.50	8.91	-28.6	-30.8	11.8	6.27e-04	0	44	102	1048576	18	4653
2026-01-05 08:56:36.98	350.42	8.84	-28.4	-30.3	12.1	3.18e-04	0	43	102	1048576	18	4468
2026-01-05 08:56:37.99	350.33	8.77	-28.3	-30.0	12.3	2.22e-04	0	44	102	1048576	18	4382
2026-01-05 08:56:38.99	350.25	8.70	-28.2	-30.3	12.4	1.51e-04	0	43	102	1048576	17	4582
2026-01-05 08:56:40.00	350.17	8.62	-28.2	-30.4	12.3	1.90e-04	0	44	102	1048576	17	4611
2026-01-05 08:56:41.01	350.08	8.55	-28.3	-30.6	12.1	2.38e-04	0	43	102	1048576	17	4698
2026-01-05 08:56:42.02	350.00	8.48	-28.1	-30.2	12.4	1.87e-04	0	44	102	1048576	17	4544
2026-01-05 08:56:42.87	349.93	8.42	-28.0	-29.9	12.6	1.12e-04	0	44	102	1048576	17	4450
2026-01-05 08:56:44.02	349.84	8.34	-28.0	-29.9	12.6	8.77e-05	0	44	102	1048576	17	4460
2026-01-05 08:56:44.88	349.77	8.28	-28.1	-30.0	12.5	1.07e-04	0	44	102	1048576	17	4500
2026-01-05 08:56:46.04	349.68	8.19	-28.1	-30.0	12.5	1.36e-04	0	43	102	1048576	17	4493
2026-01-05 08:56:46.90	349.61	8.13	-28.0	-29.8	12.6	7.78e-05	0	43	102	1048576	17	4439
2026-01-05 08:56:48.05	349.52	8.05	-28.1	-30.1	12.4	1.40e-04	0	43	102	1048576	17	4519
2026-01-05 08:56:48.91	349.45	7.99	-28.1	-30.1	12.4	1.37e-04	0	44	102	1048576	17	4542
2026-01-05 08:56:50.07	349.36	7.91	-28.2	-30.3	12.3	1.58e-04	0	44	102	1048576	17	4594
2026-01-05 08:56:50.93	349.29	7.85	-28.2	-30.4	12.2	2.08e-04	0	44	102	1048576	17	4615
2026-01-05 08:56:52.08	349.20	7.77	-28.2	-30.5	12.1	2.93e-04	0	44	102	1048576	17	4655
2026-01-05 08:56:52.94	349.13	7.71	-28.3	-30.5	12.1	2.49e-04	0	44	102	1048576	17	4677
2026-01-05 08:56:54.09	349.05	7.63	-28.4	-30.8	11.9	4.18e-04	0	44	102	1048576	17	4756
2026-01-05 08:56:54.96	348.98	7.57	-28.3	-30.7	12.0	3.52e-04	0	43	102	1048576	17	4738
2026-01-05 08:56:56.11	348.89	7.49	-28.4	-30.8	11.9	3.69e-04	0	44	102	1048576	17	4778
2026-01-05 08:56:56.97	348.83	7.43	-28.4	-30.9	11.8	5.06e-04	0	43	102	1048576	17	4791
2026-01-05 08:56:58.12	348.74	7.35	-28.4	-30.9	11.8	4.32e-04	0	43	102	1048576	17	4817
2026-01-05 08:56:58.98	348.68	7.29	-28.5	-31.2	11.6	5.87e-04	0	44	102	1048576	17	4912
2026-01-05 08:57:00.14	348.59	7.21	-28.4	-31.1	11.7	5.68e-04	0	44	102	1048576	17	4858
2026-01-05 08:57:01.00	348.53	7.15	-28.5	-31.1	11.6	5.91e-04	0	43	102	1048576	17	4887
2026-01-05 08:57:02.15	348.44	7.07	-29.4	-33.2	10.2	4.87e-04	0	44	102	1048576	18	5552
2026-01-05 08:57:03.01	348.38	7.01	-32.3	-43.6	3.8	1.49e+00	0	44	104	1048576	24	13321
2026-01-05 08:57:04.16	348.29	6.94	-32.7	-44.7	3.8	1.49e+00	0	44	104	1048576	25	14338
2026-01-05 08:57:05.03	348.23	6.88	-32.9	-45.1	3.8	1.49e+00	0	43	104	1048576	25	14696

#Closed at: 2026-01-05 08:57:05
#Recorded file [1 MB]: D:/data/31010_260105_114626.dat