passes_logs/2026/01/05/R2M6_AANII_01/R2M6_AANII_01__20260105_041100_AQUA_rec.log

#Pass ID: 20260105_041100_AQUA
#Satellite: AQUA
#Configuration: AQUA
#almurnet v.1.7.20240730
#Start time: 2026-01-05 04:11:00

#Version: 2.2.20231116
#Station: R2M6_AANII_01
#Location: 30.233357 lon 59.946436 lat
#TLE: 1 27424U 02022A   26003.93831470  .00001925  00000+0  39553-3 0  9995
#TLE: 2 27424  98.4067 330.1809 0002003  92.1713 343.8415 14.61796291259276

#Time	Az	El	Level	Level2	SNR	BER	BlckErr	Temp	State	Recorded	gain1	gain2
2026-01-05 04:11:00.41	2.98	7.02	-32.5	-51.8	3.8	7.45e-01	0	41	0	0	25	32976
2026-01-05 04:11:01.41	2.85	7.07	-31.8	-48.2	3.8	7.46e-01	0	41	104	0	24	23654
2026-01-05 04:11:02.41	2.72	7.13	-31.8	-48.2	3.8	7.47e-01	0	41	104	0	24	23795
2026-01-05 04:11:03.42	2.59	7.19	-31.9	-48.6	3.8	7.43e-01	0	41	104	0	24	24431
2026-01-05 04:11:04.43	2.46	7.25	-32.0	-49.1	3.8	7.42e-01	0	41	104	0	24	25669
2026-01-05 04:11:05.44	2.33	7.31	-32.2	-49.3	3.8	7.45e-01	0	41	104	0	25	25739
2026-01-05 04:11:06.45	2.19	7.37	-32.3	-49.9	3.8	7.44e-01	0	41	104	0	25	27345
2026-01-05 04:11:07.45	2.06	7.42	-32.4	-50.2	3.8	7.45e-01	0	41	104	0	25	28168
2026-01-05 04:11:08.46	1.93	7.48	-32.3	-49.9	3.8	7.46e-01	0	41	104	0	25	27071
2026-01-05 04:11:09.47	1.79	7.54	-32.2	-49.2	3.8	7.42e-01	0	41	104	0	25	25524
2026-01-05 04:11:10.47	1.66	7.60	-32.1	-48.5	3.8	7.47e-01	0	41	104	0	25	23804
2026-01-05 04:11:11.48	1.52	7.66	-32.0	-48.4	3.8	7.45e-01	0	41	104	0	24	23737
2026-01-05 04:11:12.49	1.38	7.72	-31.9	-48.1	3.8	7.47e-01	0	41	104	0	24	23151
2026-01-05 04:11:13.50	1.25	7.77	-32.0	-48.4	3.8	7.44e-01	0	41	104	0	24	23824
2026-01-05 04:11:14.51	1.11	7.83	-32.0	-48.4	3.8	7.46e-01	0	41	104	0	24	23771
2026-01-05 04:11:15.51	0.97	7.89	-31.8	-47.4	3.8	7.46e-01	0	41	104	0	24	21729
2026-01-05 04:11:16.52	0.83	7.95	-31.6	-46.6	3.8	7.45e-01	0	41	104	0	24	20194
2026-01-05 04:11:17.53	0.69	8.01	-31.4	-46.3	3.8	7.44e-01	0	41	104	0	23	20070
2026-01-05 04:11:18.54	0.55	8.07	-31.2	-45.8	3.8	7.48e-01	0	41	104	0	23	19319
2026-01-05 04:11:19.54	0.41	8.13	-31.2	-45.7	3.8	7.42e-01	0	41	104	0	23	19044
2026-01-05 04:11:20.55	0.27	8.18	-31.3	-46.1	3.8	7.43e-01	0	41	104	0	23	19731
2026-01-05 04:11:21.56	0.13	8.24	-31.5	-46.9	3.8	7.43e-01	0	41	104	0	23	21080
2026-01-05 04:11:22.56	359.99	8.30	-31.7	-47.2	3.8	7.45e-01	0	41	104	0	24	21358
2026-01-05 04:11:23.57	359.84	8.36	-31.9	-48.0	3.8	7.48e-01	0	42	104	0	24	22906
2026-01-05 04:11:24.58	359.70	8.42	-32.0	-48.5	3.8	7.44e-01	0	42	104	0	24	24037
2026-01-05 04:11:25.59	359.55	8.48	-32.0	-48.5	3.8	7.42e-01	0	41	104	0	24	23975
2026-01-05 04:11:26.60	359.41	8.54	-31.9	-48.1	3.8	7.44e-01	0	41	104	0	24	23106
2026-01-05 04:11:27.60	359.26	8.59	-31.9	-47.8	3.8	7.43e-01	0	42	104	0	24	22653
2026-01-05 04:11:28.61	359.11	8.65	-31.8	-47.6	3.8	7.45e-01	0	41	104	0	24	22242
2026-01-05 04:11:29.62	358.97	8.71	-31.8	-47.4	3.8	7.43e-01	0	41	104	0	24	21855
2026-01-05 04:11:30.63	358.82	8.77	-31.8	-47.4	3.8	7.45e-01	0	42	104	0	24	21792
2026-01-05 04:11:31.64	358.67	8.83	-31.8	-47.4	3.8	7.43e-01	0	41	104	0	24	21858
2026-01-05 04:11:32.64	358.52	8.89	-31.9	-47.8	3.8	7.46e-01	0	42	104	0	24	22497
2026-01-05 04:11:33.64	358.37	8.94	-32.0	-48.3	3.8	7.45e-01	0	42	104	0	24	23504
2026-01-05 04:11:34.65	358.22	9.00	-32.0	-48.7	3.8	7.45e-01	0	42	104	0	24	24506
2026-01-05 04:11:35.65	358.07	9.06	-32.1	-48.5	3.8	7.47e-01	0	42	104	0	25	23798
2026-01-05 04:11:36.66	357.92	9.12	-32.2	-49.0	3.8	7.46e-01	0	42	104	0	25	24767
2026-01-05 04:11:37.67	357.77	9.18	-32.3	-49.3	3.8	7.46e-01	0	42	104	0	25	25635
2026-01-05 04:11:38.67	357.61	9.23	-32.3	-49.3	3.8	7.40e-01	0	42	104	0	25	25455
2026-01-05 04:11:39.68	357.46	9.29	-32.3	-49.2	3.8	7.48e-01	0	42	104	0	25	25252
2026-01-05 04:11:40.69	357.30	9.35	-32.2	-48.9	3.8	7.45e-01	0	42	104	0	25	24596
2026-01-05 04:11:41.70	357.15	9.41	-32.2	-48.8	3.8	7.46e-01	0	42	104	0	25	24348
2026-01-05 04:11:42.70	356.99	9.47	-32.2	-48.7	3.8	7.44e-01	0	42	104	0	25	24133
2026-01-05 04:11:43.71	356.84	9.52	-32.2	-48.7	3.8	7.45e-01	0	42	104	0	25	23995
2026-01-05 04:11:44.72	356.68	9.58	-32.2	-48.7	3.8	7.47e-01	0	42	104	0	25	23919
2026-01-05 04:11:45.72	356.52	9.64	-32.2	-48.6	3.8	7.47e-01	0	42	104	0	25	23684
2026-01-05 04:11:46.73	356.36	9.70	-32.2	-48.5	3.8	7.48e-01	0	42	104	0	25	23457
2026-01-05 04:11:47.73	356.20	9.76	-32.2	-48.4	3.8	7.40e-01	0	42	104	0	25	23190
2026-01-05 04:11:48.73	356.05	9.81	-32.1	-48.1	3.8	7.44e-01	0	42	104	0	25	22678
2026-01-05 04:11:49.74	355.88	9.87	-32.0	-47.7	3.8	7.43e-01	0	42	104	0	25	21871
2026-01-05 04:11:50.74	355.72	9.93	-32.1	-48.2	3.8	7.44e-01	0	42	104	0	25	22923
2026-01-05 04:11:51.75	355.56	9.99	-32.2	-48.6	3.8	7.44e-01	0	42	104	0	25	23698
2026-01-05 04:11:52.75	355.40	10.04	-32.4	-49.1	3.8	7.45e-01	0	42	104	0	25	24800
2026-01-05 04:11:53.76	355.24	10.10	-32.5	-49.9	3.8	7.46e-01	0	42	104	0	25	26609
2026-01-05 04:11:54.77	355.07	10.16	-32.6	-50.1	3.8	7.43e-01	0	42	104	0	26	26877
2026-01-05 04:11:55.77	354.91	10.21	-32.8	-50.8	3.8	7.45e-01	0	42	104	0	26	28761
2026-01-05 04:11:56.78	354.74	10.27	-32.7	-50.4	3.8	7.45e-01	0	42	104	0	26	27592
2026-01-05 04:11:57.79	354.57	10.33	-32.6	-50.1	3.8	7.46e-01	0	42	104	0	26	26910
2026-01-05 04:11:58.80	354.41	10.39	-32.6	-50.2	3.8	7.45e-01	0	42	104	0	25	27322
2026-01-05 04:11:59.80	354.24	10.44	-32.5	-49.6	3.8	7.45e-01	0	42	104	0	25	25897
2026-01-05 04:12:00.81	354.07	10.50	-32.4	-49.0	3.8	7.47e-01	0	42	104	0	25	24405
2026-01-05 04:12:01.82	353.90	10.56	-32.3	-48.5	3.8	7.45e-01	0	42	104	0	25	23290
2026-01-05 04:12:02.83	353.73	10.61	-32.2	-48.0	3.8	7.45e-01	0	42	104	0	25	22301
2026-01-05 04:12:03.84	353.56	10.67	-31.9	-47.4	3.8	7.43e-01	0	42	104	0	24	21482
2026-01-05 04:12:04.84	353.39	10.73	-31.7	-46.5	3.8	7.47e-01	0	42	104	0	24	19778
2026-01-05 04:12:05.85	353.22	10.78	-31.4	-46.1	3.8	7.46e-01	0	42	104	0	23	19434
2026-01-05 04:12:06.86	353.04	10.84	-31.2	-45.2	3.8	7.44e-01	0	42	104	0	23	18083
2026-01-05 04:12:07.86	352.87	10.90	-30.9	-44.8	3.8	7.45e-01	0	43	104	0	22	17940
2026-01-05 04:12:08.87	352.69	10.95	-30.7	-44.2	3.8	7.42e-01	0	42	104	0	22	17131
2026-01-05 04:12:09.88	352.52	11.01	-30.9	-44.9	3.8	7.47e-01	0	42	104	0	22	18036
2026-01-05 04:12:10.89	352.34	11.06	-31.0	-45.3	3.8	7.46e-01	0	42	104	0	22	18567
2026-01-05 04:12:11.89	352.17	11.12	-31.3	-45.6	3.8	7.44e-01	0	42	104	0	23	18738
2026-01-05 04:12:12.90	351.99	11.18	-31.5	-46.3	3.8	7.50e-01	0	42	104	0	23	19851
2026-01-05 04:12:13.91	351.81	11.23	-31.8	-46.8	3.8	7.46e-01	0	42	104	0	24	20409
2026-01-05 04:12:14.92	351.63	11.29	-31.9	-47.4	3.8	7.43e-01	0	42	104	0	24	21525
2026-01-05 04:12:15.93	351.45	11.34	-31.8	-47.2	3.8	7.42e-01	0	43	104	0	24	21140
2026-01-05 04:12:16.93	351.27	11.40	-31.8	-47.0	3.8	7.47e-01	0	42	104	0	24	20725
2026-01-05 04:12:17.93	351.09	11.45	-31.7	-46.8	3.8	7.44e-01	0	42	104	0	24	20435
2026-01-05 04:12:18.94	350.91	11.51	-31.7	-46.7	3.8	7.48e-01	0	42	104	0	24	20169
2026-01-05 04:12:19.95	350.73	11.56	-31.8	-46.8	3.8	7.43e-01	0	42	104	0	24	20424
2026-01-05 04:12:20.96	350.54	11.62	-31.7	-46.7	3.8	7.49e-01	0	42	104	0	24	20153
2026-01-05 04:12:21.96	350.36	11.67	-31.7	-46.7	3.8	7.43e-01	0	43	104	0	24	20157
2026-01-05 04:12:22.97	350.17	11.73	-31.9	-47.3	3.8	7.46e-01	0	42	104	0	24	21297
2026-01-05 04:12:23.97	349.99	11.78	-32.0	-47.8	3.8	7.45e-01	0	43	104	0	24	22259
2026-01-05 04:12:24.97	349.80	11.83	-32.1	-47.8	3.8	7.47e-01	0	42	104	0	25	21868
2026-01-05 04:12:25.98	349.62	11.89	-32.2	-48.2	3.8	7.46e-01	0	42	104	0	25	22727
2026-01-05 04:12:26.98	349.43	11.94	-32.3	-48.5	3.8	7.48e-01	0	43	104	0	25	23306
2026-01-05 04:12:27.99	349.24	12.00	-32.3	-48.8	3.8	7.44e-01	0	43	104	0	25	23916
2026-01-05 04:12:29.00	349.05	12.05	-32.3	-48.7	3.8	7.43e-01	0	43	104	0	25	23628
2026-01-05 04:12:30.01	348.86	12.10	-32.3	-48.5	3.8	7.45e-01	0	43	104	0	25	23365
2026-01-05 04:12:31.02	348.67	12.16	-32.3	-48.4	3.8	7.45e-01	0	42	104	0	25	23154
2026-01-05 04:12:32.02	348.48	12.21	-32.3	-48.5	3.8	7.44e-01	0	43	104	0	25	23238
2026-01-05 04:12:33.03	348.29	12.26	-32.3	-48.6	3.8	7.46e-01	0	42	104	0	25	23555
2026-01-05 04:12:34.04	348.09	12.31	-31.3	-47.7	3.8	7.46e-01	0	43	104	0	25	23667
2026-01-05 04:12:35.05	347.90	12.37	-32.0	-48.4	3.8	7.42e-01	0	43	104	0	25	23765
2026-01-05 04:12:36.06	347.70	12.42	-32.4	-48.9	3.8	7.49e-01	0	43	104	0	25	24032
2026-01-05 04:12:37.07	347.51	12.47	-32.4	-48.9	3.8	7.45e-01	0	42	104	0	25	24106
2026-01-05 04:12:38.07	347.31	12.52	-32.4	-48.9	3.8	7.45e-01	0	43	104	0	25	24030
2026-01-05 04:12:39.08	347.11	12.58	-32.4	-48.8	3.8	7.47e-01	0	43	104	0	25	23810
2026-01-05 04:12:40.08	346.92	12.63	-32.3	-48.5	3.8	7.44e-01	0	43	104	0	25	23294
2026-01-05 04:12:41.09	346.72	12.68	-32.5	-49.4	3.8	7.45e-01	0	43	104	0	25	25218
2026-01-05 04:12:42.10	346.52	12.73	-32.7	-49.7	3.8	7.45e-01	0	43	104	0	26	25547
2026-01-05 04:12:43.10	346.32	12.78	-32.8	-50.5	3.8	7.44e-01	0	43	104	0	26	27574
2026-01-05 04:12:44.11	346.12	12.83	-32.9	-51.2	3.8	7.42e-01	0	43	104	0	26	29420
2026-01-05 04:12:45.11	345.92	12.88	-32.8	-50.4	3.8	7.46e-01	0	43	104	0	26	27227
2026-01-05 04:12:46.12	345.71	12.93	-32.7	-49.7	3.8	7.45e-01	0	43	104	0	26	25425
2026-01-05 04:12:47.13	345.51	12.98	-32.5	-49.2	3.8	7.46e-01	0	43	104	0	25	24661
2026-01-05 04:12:48.13	345.31	13.03	-32.4	-48.8	3.8	7.43e-01	0	43	104	0	25	23790
2026-01-05 04:12:49.14	345.10	13.08	-32.3	-48.1	3.8	7.45e-01	0	43	104	0	25	22357
2026-01-05 04:12:50.15	344.90	13.13	-32.1	-47.8	3.8	7.46e-01	0	43	104	0	24	21990
2026-01-05 04:12:51.15	344.69	13.18	-31.9	-47.2	3.8	7.43e-01	0	43	104	0	24	20967
2026-01-05 04:12:52.16	344.49	13.23	-31.8	-46.7	3.8	7.44e-01	0	43	104	0	24	19998
2026-01-05 04:12:53.16	344.28	13.28	-31.7	-46.3	3.8	7.43e-01	0	43	104	0	24	19313
2026-01-05 04:12:54.17	344.07	13.33	-31.4	-45.2	3.8	7.44e-01	0	43	104	0	24	17733
2026-01-05 04:12:55.18	343.86	13.38	-30.9	-36.0	5.1	7.11e-01	0	43	104	0	23	6462
2026-01-05 04:12:56.19	343.65	13.42	-30.6	-34.7	16.5	6.01e-01	0	43	0	0	22	5765
2026-01-05 04:12:57.19	343.44	13.47	-30.4	-34.0	17.0	6.02e-01	0	43	102	524288	22	5459
2026-01-05 04:12:58.19	343.23	13.52	-30.2	-34.0	17.3	6.01e-01	0	43	102	524288	21	5609
2026-01-05 04:12:59.20	343.02	13.57	-30.4	-34.6	16.9	6.04e-01	0	43	102	524288	21	5834
2026-01-05 04:13:00.20	342.81	13.61	-30.4	-34.8	16.8	6.04e-01	0	43	102	524288	21	5934
2026-01-05 04:13:01.20	342.60	13.66	-30.4	-34.5	17.0	6.01e-01	0	43	102	524288	21	5822
2026-01-05 04:13:02.21	342.38	13.71	-30.3	-34.3	17.1	6.00e-01	0	43	102	524288	21	5734
2026-01-05 04:13:03.22	342.17	13.75	-30.3	-34.3	17.1	5.99e-01	0	43	102	524288	21	5730
2026-01-05 04:13:04.23	341.95	13.80	-30.4	-34.6	16.9	6.01e-01	0	43	102	524288	21	5837
2026-01-05 04:13:05.24	341.73	13.84	-30.4	-34.6	17.0	6.00e-01	0	43	102	524288	21	5826
2026-01-05 04:13:06.25	341.52	13.89	-30.5	-34.8	16.8	6.00e-01	0	43	102	524288	21	5954
2026-01-05 04:13:07.25	341.30	13.93	-30.2	-33.9	17.4	6.02e-01	0	43	102	524288	21	5536
2026-01-05 04:13:08.25	341.08	13.98	-30.0	-33.3	17.8	6.00e-01	0	43	102	524288	21	5312
2026-01-05 04:13:09.26	340.86	14.02	-30.0	-33.8	17.8	6.03e-01	0	43	102	524288	20	5615
2026-01-05 04:13:10.27	340.64	14.07	-30.1	-33.7	17.6	6.01e-01	0	43	102	524288	21	5441
2026-01-05 04:13:11.27	340.42	14.11	-29.9	-33.8	17.9	5.99e-01	0	43	102	524288	20	5589
2026-01-05 04:13:12.27	340.20	14.15	-29.9	-33.5	18.0	6.03e-01	0	43	102	524288	20	5498
2026-01-05 04:13:13.27	339.98	14.20	-29.8	-33.4	18.1	6.02e-01	0	43	102	524288	20	5450
2026-01-05 04:13:14.28	339.76	14.24	-29.8	-33.3	18.1	6.01e-01	0	43	102	524288	20	5409
2026-01-05 04:13:15.29	339.53	14.28	-29.8	-33.4	18.1	6.01e-01	0	43	102	524288	20	5450
2026-01-05 04:13:16.30	339.31	14.32	-29.9	-33.6	18.0	6.02e-01	0	43	102	524288	20	5528
2026-01-05 04:13:17.30	339.09	14.37	-29.9	-33.6	18.0	6.01e-01	0	43	102	524288	20	5510
2026-01-05 04:13:18.31	338.86	14.41	-29.9	-33.7	18.0	6.01e-01	0	43	102	524288	20	5572
2026-01-05 04:13:19.32	338.63	14.45	-30.0	-33.9	17.8	6.00e-01	0	43	102	524288	20	5630
2026-01-05 04:13:20.33	338.41	14.49	-29.9	-33.6	18.0	6.00e-01	0	43	102	524288	20	5502
2026-01-05 04:13:21.34	338.18	14.53	-29.8	-33.4	18.2	6.01e-01	0	43	102	524288	20	5427
2026-01-05 04:13:22.34	337.95	14.57	-28.7	-32.5	18.1	6.02e-01	0	43	102	524288	20	5521
2026-01-05 04:13:23.35	337.72	14.61	-29.9	-33.6	18.0	6.03e-01	0	43	102	524288	20	5519
2026-01-05 04:13:24.36	337.49	14.65	-29.9	-33.6	17.4	6.02e-01	0	43	102	524288	20	5516
2026-01-05 04:13:25.36	337.26	14.69	-29.9	-33.7	17.3	6.01e-01	0	43	102	524288	20	5542
2026-01-05 04:13:26.37	337.03	14.73	-29.9	-33.7	17.9	6.02e-01	0	43	102	524288	20	5539
2026-01-05 04:13:27.37	336.80	14.76	-29.9	-33.7	17.8	6.03e-01	0	43	102	524288	20	5572
2026-01-05 04:13:28.38	336.57	14.80	-29.9	-33.5	18.0	6.00e-01	0	43	102	524288	20	5490
2026-01-05 04:13:29.38	336.34	14.84	-29.9	-33.6	18.1	6.01e-01	0	43	102	524288	20	5499
2026-01-05 04:13:30.39	336.10	14.88	-30.0	-33.8	17.8	5.98e-01	0	43	102	524288	20	5620
2026-01-05 04:13:31.40	335.87	14.91	-30.0	-34.0	17.7	6.02e-01	0	43	102	524288	20	5695
2026-01-05 04:13:32.41	335.63	14.95	-30.0	-33.9	17.8	6.01e-01	0	43	102	524288	20	5654
2026-01-05 04:13:33.42	335.40	14.99	-30.2	-33.9	17.6	6.00e-01	0	43	102	524288	21	5517
2026-01-05 04:13:34.42	335.16	15.02	-30.4	-34.4	17.2	6.01e-01	0	43	102	524288	21	5763
2026-01-05 04:13:35.44	334.92	15.06	-30.4	-34.5	17.1	6.03e-01	0	43	102	524288	21	5777
2026-01-05 04:13:36.44	334.69	15.09	-30.3	-34.2	17.3	6.01e-01	0	43	102	524288	21	5673
2026-01-05 04:13:37.45	334.45	15.13	-30.4	-34.4	17.1	6.02e-01	0	43	102	524288	21	5757
2026-01-05 04:13:38.45	334.21	15.16	-30.2	-34.1	17.3	6.00e-01	0	43	102	524288	21	5610
2026-01-05 04:13:39.46	333.97	15.19	-30.2	-33.9	17.5	6.01e-01	0	43	102	524288	21	5516
2026-01-05 04:13:40.46	333.73	15.23	-30.1	-33.8	17.6	6.04e-01	0	43	102	524288	21	5503
2026-01-05 04:13:41.47	333.49	15.26	-30.1	-33.8	17.6	5.99e-01	0	43	102	524288	21	5469
2026-01-05 04:13:42.47	333.26	15.29	-30.2	-33.8	17.6	6.01e-01	0	43	102	524288	21	5500
2026-01-05 04:13:43.48	333.01	15.32	-30.1	-33.8	17.6	6.02e-01	0	43	102	524288	21	5491
2026-01-05 04:13:44.48	332.77	15.35	-30.0	-33.5	17.8	6.02e-01	0	43	102	524288	21	5363
2026-01-05 04:13:45.49	332.53	15.38	-30.0	-33.8	17.8	6.01e-01	0	43	102	524288	20	5614
2026-01-05 04:13:46.50	332.29	15.41	-30.0	-33.8	17.9	6.00e-01	0	43	102	524288	20	5587
2026-01-05 04:13:47.50	332.05	15.44	-30.0	-33.9	17.8	6.00e-01	0	43	102	524288	20	5654
2026-01-05 04:13:48.51	331.80	15.47	-30.0	-34.0	17.8	6.01e-01	0	43	102	524288	20	5666
2026-01-05 04:13:49.52	331.56	15.50	-29.9	-33.5	18.1	6.02e-01	0	43	102	524288	20	5467
2026-01-05 04:13:50.52	331.31	15.53	-29.9	-33.5	18.1	6.01e-01	0	43	102	524288	20	5486
2026-01-05 04:13:51.53	331.07	15.56	-29.9	-33.6	18.0	6.02e-01	0	43	102	524288	20	5511
2026-01-05 04:13:52.54	330.82	15.59	-29.9	-33.5	18.2	5.99e-01	0	43	102	524288	20	5452
2026-01-05 04:13:53.54	330.58	15.61	-29.9	-33.7	18.0	6.01e-01	0	43	102	524288	20	5553
2026-01-05 04:13:54.55	330.33	15.64	-29.9	-33.7	18.0	6.02e-01	0	43	102	524288	20	5539
2026-01-05 04:13:55.56	330.08	15.67	-29.9	-33.6	18.0	6.02e-01	0	43	102	524288	20	5526
2026-01-05 04:13:56.57	329.83	15.69	-30.0	-33.8	17.9	6.03e-01	0	43	102	524288	20	5592
2026-01-05 04:13:57.57	329.58	15.72	-30.0	-33.8	17.9	6.00e-01	0	43	102	524288	20	5599
2026-01-05 04:13:58.58	329.33	15.74	-30.0	-33.9	17.9	6.01e-01	0	43	102	524288	20	5621
2026-01-05 04:13:59.59	329.08	15.77	-30.0	-33.8	17.9	6.00e-01	0	43	102	524288	20	5610
2026-01-05 04:14:00.60	328.83	15.79	-30.0	-33.9	17.9	6.03e-01	0	43	102	524288	20	5641
2026-01-05 04:14:01.60	328.59	15.81	-30.2	-33.9	17.6	5.99e-01	0	43	102	524288	21	5498
2026-01-05 04:14:02.61	328.34	15.84	-30.4	-34.4	17.3	6.02e-01	0	43	102	524288	21	5748
2026-01-05 04:14:03.62	328.08	15.86	-30.4	-34.7	17.1	6.02e-01	0	43	102	524288	21	5857
2026-01-05 04:14:04.62	327.83	15.88	-30.4	-34.5	17.1	6.04e-01	0	43	102	524288	21	5785
2026-01-05 04:14:05.62	327.58	15.90	-30.5	-34.9	16.9	6.02e-01	0	43	102	524288	21	5974
2026-01-05 04:14:06.63	327.33	15.92	-30.5	-34.3	16.9	6.01e-01	0	43	102	524288	22	5582
2026-01-05 04:14:07.63	327.08	15.94	-30.3	-34.2	17.4	6.03e-01	0	43	102	524288	21	5636
2026-01-05 04:14:08.64	326.83	15.96	-30.3	-34.1	17.4	6.04e-01	0	43	102	524288	21	5605
2026-01-05 04:14:09.64	326.58	15.98	-30.2	-33.9	17.5	6.03e-01	0	43	102	524288	21	5524
2026-01-05 04:14:10.65	326.32	16.00	-30.0	-33.8	17.5	6.00e-01	0	43	102	524288	21	5559
2026-01-05 04:14:11.66	326.07	16.02	-30.0	-33.5	17.8	5.99e-01	0	43	102	524288	21	5351
2026-01-05 04:14:12.67	325.81	16.04	-30.0	-33.9	17.9	6.03e-01	0	43	102	524288	20	5613
2026-01-05 04:14:13.67	325.56	16.05	-30.0	-33.7	17.9	6.02e-01	0	43	102	524288	20	5564
2026-01-05 04:14:14.68	325.30	16.07	-30.1	-34.1	17.8	6.00e-01	0	43	102	524288	20	5700
2026-01-05 04:14:15.69	325.05	16.09	-30.2	-34.1	17.4	6.00e-01	0	43	102	524288	21	5594
2026-01-05 04:14:16.69	324.79	16.10	-30.2	-34.0	17.5	6.03e-01	0	43	102	524288	21	5558
2026-01-05 04:14:17.69	324.54	16.12	-30.2	-33.9	17.6	6.00e-01	0	43	102	524288	21	5516
2026-01-05 04:14:18.70	324.28	16.13	-30.4	-34.4	17.3	6.01e-01	0	43	102	524288	21	5742
2026-01-05 04:14:19.71	324.03	16.14	-30.3	-34.2	17.4	6.00e-01	0	43	102	524288	21	5656
2026-01-05 04:14:20.72	323.77	16.16	-30.2	-34.0	17.6	6.00e-01	0	43	102	524288	21	5545
2026-01-05 04:14:21.73	323.51	16.17	-30.2	-33.9	17.6	6.03e-01	0	43	102	524288	21	5513
2026-01-05 04:14:22.73	323.26	16.18	-30.3	-34.2	17.4	6.01e-01	0	43	102	524288	21	5635
2026-01-05 04:14:23.74	323.00	16.19	-30.5	-34.8	17.0	6.01e-01	0	43	102	524288	21	5923
2026-01-05 04:14:24.74	322.74	16.20	-30.5	-34.8	17.0	6.02e-01	0	43	102	524288	21	5891
2026-01-05 04:14:25.75	322.49	16.22	-30.6	-35.1	16.8	6.01e-01	0	43	102	524288	21	6035
2026-01-05 04:14:26.76	322.23	16.23	-30.5	-34.9	17.0	6.01e-01	0	43	102	524288	21	5933
2026-01-05 04:14:27.77	321.97	16.23	-30.3	-34.1	17.4	6.03e-01	0	43	102	524288	21	5585
2026-01-05 04:14:28.78	321.71	16.24	-30.2	-34.0	17.4	6.02e-01	0	43	102	524288	21	5575
2026-01-05 04:14:29.78	321.45	16.25	-30.2	-33.9	17.6	6.04e-01	0	43	102	524288	21	5523
2026-01-05 04:14:30.79	321.19	16.26	-30.5	-34.7	17.1	6.00e-01	0	43	102	524288	21	5866
2026-01-05 04:14:31.80	320.93	16.27	-30.3	-34.2	17.4	6.03e-01	0	43	102	524288	21	5656
2026-01-05 04:14:32.81	320.68	16.27	-30.3	-34.3	17.3	6.04e-01	0	43	102	524288	21	5680
2026-01-05 04:14:33.82	320.42	16.28	-30.2	-33.8	17.6	6.00e-01	0	43	102	524288	21	5483
2026-01-05 04:14:34.82	320.16	16.29	-30.6	-34.7	16.8	6.02e-01	0	43	102	524288	22	5744
2026-01-05 04:14:35.83	319.90	16.29	-30.3	-33.6	17.5	6.01e-01	0	43	102	524288	22	5283
2026-01-05 04:14:36.84	319.64	16.29	-30.2	-34.0	17.5	6.02e-01	0	43	102	524288	21	5568
2026-01-05 04:14:37.84	319.38	16.30	-30.2	-33.9	17.7	6.00e-01	0	43	102	524288	21	5502
2026-01-05 04:14:38.85	319.12	16.30	-30.5	-34.7	17.0	6.02e-01	0	43	102	524288	21	5884
2026-01-05 04:14:39.85	318.86	16.30	-30.4	-34.4	17.4	6.01e-01	0	43	102	524288	21	5708
2026-01-05 04:14:40.86	318.60	16.31	-30.3	-34.2	17.3	6.00e-01	0	43	102	524288	21	5641
2026-01-05 04:14:41.87	318.34	16.31	-30.4	-34.5	17.2	6.01e-01	0	43	102	524288	21	5773
2026-01-05 04:14:42.88	318.08	16.31	-30.2	-33.9	17.6	6.03e-01	0	43	102	524288	21	5501
2026-01-05 04:14:43.88	317.83	16.31	-30.4	-34.7	17.1	6.01e-01	0	43	102	524288	21	5864
2026-01-05 04:14:44.89	317.57	16.31	-30.0	-33.4	17.9	6.01e-01	0	43	102	524288	21	5324
2026-01-05 04:14:45.89	317.31	16.31	-30.7	-34.9	16.7	6.03e-01	0	43	102	524288	22	5830
2026-01-05 04:14:46.90	317.05	16.31	-30.1	-33.2	17.8	6.00e-01	0	43	102	524288	22	5120
2026-01-05 04:14:47.90	316.79	16.31	-30.4	-34.6	17.1	6.04e-01	0	43	102	524288	21	5817
2026-01-05 04:14:48.91	316.53	16.30	-30.2	-34.0	17.6	6.02e-01	0	43	102	524288	21	5558
2026-01-05 04:14:49.92	316.27	16.30	-30.6	-34.7	16.7	6.03e-01	0	43	102	524288	22	5764
2026-01-05 04:14:50.93	316.01	16.30	-30.2	-33.4	17.7	6.02e-01	0	43	102	524288	22	5194
2026-01-05 04:14:51.93	315.75	16.29	-30.3	-34.4	17.2	5.99e-01	0	43	102	524288	21	5709
2026-01-05 04:14:52.94	315.49	16.29	-30.2	-33.9	17.6	5.99e-01	0	43	102	524288	21	5498
2026-01-05 04:14:53.95	315.23	16.28	-30.5	-34.8	17.0	6.01e-01	0	43	102	524288	21	5900
2026-01-05 04:14:54.96	314.97	16.28	-30.3	-34.3	17.4	6.02e-01	0	43	102	524288	21	5672
2026-01-05 04:14:55.96	314.72	16.27	-30.4	-34.7	17.0	6.01e-01	0	43	102	524288	21	5847
2026-01-05 04:14:56.97	314.46	16.26	-30.2	-34.0	16.1	6.04e-01	0	44	102	524288	21	5563
2026-01-05 04:14:57.98	314.20	16.26	-29.9	-33.6	16.4	6.02e-01	0	43	102	524288	20	5500
2026-01-05 04:14:58.98	313.94	16.25	-30.1	-34.1	17.6	6.02e-01	0	43	102	524288	20	5704
2026-01-05 04:14:59.98	313.68	16.24	-29.7	-33.1	17.3	6.01e-01	0	43	102	524288	20	5298
2026-01-05 04:15:00.99	313.42	16.23	-30.6	-35.0	15.8	6.02e-01	0	43	102	524288	21	6030
2026-01-05 04:15:01.99	313.17	16.22	-29.9	-33.5	18.0	6.01e-01	0	43	102	524288	20	5476
2026-01-05 04:15:03.00	312.91	16.21	-30.1	-33.7	16.9	6.01e-01	0	43	102	524288	21	5444
2026-01-05 04:15:04.01	312.65	16.20	-30.1	-33.7	17.7	6.01e-01	0	43	102	524288	21	5441
2026-01-05 04:15:05.01	312.40	16.19	-30.1	-33.8	17.7	6.00e-01	0	43	102	524288	21	5465
2026-01-05 04:15:06.02	312.14	16.18	-30.0	-33.9	17.9	6.01e-01	0	43	102	524288	20	5622
2026-01-05 04:15:07.03	311.88	16.16	-30.4	-34.7	17.1	6.00e-01	0	43	102	524288	21	5860
2026-01-05 04:15:08.04	311.62	16.15	-29.9	-33.7	18.0	6.00e-01	0	43	102	524288	20	5542
2026-01-05 04:15:09.04	311.37	16.14	-30.3	-34.3	17.3	6.00e-01	0	43	102	524288	21	5692
2026-01-05 04:15:10.05	311.11	16.12	-30.2	-34.1	17.5	6.00e-01	0	43	102	524288	21	5591
2026-01-05 04:15:11.06	310.85	16.11	-30.3	-34.3	17.3	6.02e-01	0	43	102	524288	21	5678
2026-01-05 04:15:12.07	310.60	16.09	-30.1	-33.8	17.5	6.01e-01	0	43	102	524288	21	5490
2026-01-05 04:15:13.07	310.34	16.08	-30.0	-33.8	18.0	6.00e-01	0	43	102	524288	20	5591
2026-01-05 04:15:14.08	310.09	16.06	-29.8	-33.4	18.2	6.00e-01	0	43	102	524288	20	5439
2026-01-05 04:15:15.09	309.83	16.05	-30.1	-33.8	17.6	6.01e-01	0	43	102	524288	21	5494
2026-01-05 04:15:16.10	309.58	16.03	-30.1	-33.6	17.7	6.02e-01	0	43	102	524288	21	5398
2026-01-05 04:15:17.10	309.32	16.01	-30.2	-34.0	17.5	6.03e-01	0	43	102	524288	21	5586
2026-01-05 04:15:18.11	309.07	15.99	-30.1	-33.7	17.7	5.99e-01	0	43	102	524288	21	5424
2026-01-05 04:15:19.12	308.81	15.97	-30.4	-34.5	17.1	6.00e-01	0	43	102	524288	21	5772
2026-01-05 04:15:20.13	308.56	15.95	-30.3	-34.3	17.4	5.99e-01	0	43	102	524288	21	5686
2026-01-05 04:15:21.13	308.31	15.93	-29.7	-33.0	18.4	6.00e-01	0	43	102	524288	20	5268
2026-01-05 04:15:22.14	308.06	15.91	-30.3	-34.4	17.1	6.03e-01	0	43	102	524288	21	5776
2026-01-05 04:15:23.15	307.80	15.89	-29.9	-33.0	18.2	6.00e-01	0	43	102	524288	21	5152
2026-01-05 04:15:24.15	307.55	15.87	-30.3	-34.2	17.3	6.01e-01	0	43	102	524288	21	5652
2026-01-05 04:15:25.15	307.30	15.85	-30.2	-33.9	17.5	5.99e-01	0	43	102	524288	21	5540
2026-01-05 04:15:26.16	307.05	15.83	-29.8	-33.2	18.2	6.01e-01	0	43	102	524288	20	5372
2026-01-05 04:15:27.16	306.80	15.80	-30.0	-33.8	17.9	6.03e-01	0	43	102	524288	20	5598
2026-01-05 04:15:28.17	306.55	15.78	-29.4	-32.3	18.8	6.02e-01	0	43	102	524288	20	5022
2026-01-05 04:15:29.17	306.30	15.76	-30.0	-33.8	17.9	5.99e-01	0	43	102	524288	20	5617
2026-01-05 04:15:30.18	306.05	15.73	-29.8	-33.3	18.1	6.01e-01	0	43	102	524288	20	5403
2026-01-05 04:15:31.19	305.80	15.71	-29.6	-32.8	18.6	6.01e-01	0	43	102	524288	20	5183
2026-01-05 04:15:32.20	305.55	15.68	-30.2	-34.0	17.3	6.02e-01	0	43	102	524288	21	5606
2026-01-05 04:15:33.20	305.31	15.66	-29.4	-32.3	18.9	5.99e-01	0	43	102	524288	20	5004
2026-01-05 04:15:34.21	305.06	15.63	-30.0	-34.0	17.7	6.02e-01	0	43	102	524288	20	5690
2026-01-05 04:15:35.22	304.81	15.60	-29.6	-32.9	18.4	6.00e-01	0	43	102	524288	20	5255
2026-01-05 04:15:36.22	304.57	15.57	-29.7	-33.1	18.3	6.01e-01	0	43	102	524288	20	5326
2026-01-05 04:15:37.23	304.32	15.55	-30.2	-34.2	17.2	6.02e-01	0	43	102	524288	21	5680
2026-01-05 04:15:38.24	304.07	15.52	-29.3	-31.8	19.0	6.02e-01	0	43	102	524288	20	4852
2026-01-05 04:15:39.25	303.83	15.49	-30.2	-34.1	17.4	6.01e-01	0	43	102	524288	21	5635
2026-01-05 04:15:40.26	303.58	15.46	-29.6	-32.4	18.3	6.02e-01	0	43	102	524288	21	4959
2026-01-05 04:15:41.26	303.34	15.43	-29.7	-33.2	18.3	6.00e-01	0	43	102	524288	20	5380
2026-01-05 04:15:42.27	303.10	15.40	-30.0	-33.4	17.7	6.01e-01	0	43	102	524288	21	5370
2026-01-05 04:15:43.27	302.85	15.37	-29.4	-32.3	18.8	6.02e-01	0	43	102	524288	20	5022
2026-01-05 04:15:44.28	302.61	15.34	-29.8	-33.3	18.2	6.02e-01	0	43	102	524288	20	5394
2026-01-05 04:15:45.29	302.37	15.31	-28.9	-33.1	17.6	6.00e-01	0	43	102	524288	20	5792
2026-01-05 04:15:46.30	302.13	15.28	-29.7	-33.5	18.0	6.01e-01	0	43	102	524288	19	5566
2026-01-05 04:15:47.30	301.89	15.24	-30.2	-34.1	17.3	6.01e-01	0	43	102	524288	21	5645
2026-01-05 04:15:48.30	301.65	15.21	-30.2	-34.0	16.6	6.05e-01	0	43	102	524288	21	5579
2026-01-05 04:15:49.31	301.41	15.18	-29.7	-33.0	18.2	6.03e-01	0	43	102	524288	20	5292
2026-01-05 04:15:50.31	301.17	15.14	-30.3	-34.5	17.0	6.02e-01	0	43	102	524288	21	5811
2026-01-05 04:15:51.32	300.93	15.11	-29.7	-32.9	18.4	6.02e-01	0	43	102	524288	20	5250
2026-01-05 04:15:52.33	300.69	15.08	-30.2	-34.0	17.3	5.98e-01	0	43	102	524288	21	5602
2026-01-05 04:15:53.34	300.45	15.04	-30.1	-33.9	17.4	6.00e-01	0	43	102	524288	21	5561
2026-01-05 04:15:54.35	300.22	15.00	-29.9	-33.8	17.8	5.99e-01	0	43	102	524288	20	5612
2026-01-05 04:15:55.36	299.98	14.97	-30.1	-33.9	17.4	6.01e-01	0	43	102	524288	21	5557
2026-01-05 04:15:56.37	299.74	14.93	-30.5	-35.0	16.6	6.02e-01	0	43	102	524288	21	6031
2026-01-05 04:15:57.37	299.51	14.90	-29.8	-33.3	18.1	6.01e-01	0	43	102	524288	20	5417
2026-01-05 04:15:58.38	299.27	14.86	-30.1	-34.3	17.4	5.98e-01	0	43	102	524288	20	5827
2026-01-05 04:15:59.38	299.04	14.82	-29.9	-33.3	17.6	6.03e-01	0	43	102	524288	21	5331
2026-01-05 04:16:00.39	298.81	14.78	-30.0	-34.2	17.5	6.01e-01	0	43	102	524288	20	5805
2026-01-05 04:16:01.40	298.58	14.75	-30.1	-33.9	17.3	6.01e-01	0	43	102	524288	21	5594
2026-01-05 04:16:02.40	298.35	14.71	-29.9	-33.7	17.8	6.03e-01	0	43	102	524288	20	5591
2026-01-05 04:16:03.41	298.11	14.67	-30.1	-34.3	17.4	6.03e-01	0	43	102	524288	20	5844
2026-01-05 04:16:04.42	297.88	14.63	-29.9	-33.7	17.8	6.02e-01	0	43	102	524288	20	5585
2026-01-05 04:16:05.42	297.65	14.59	-30.2	-34.2	17.1	6.02e-01	0	43	102	524288	21	5713
2026-01-05 04:16:06.43	297.42	14.55	-30.0	-33.7	17.4	6.02e-01	0	43	102	524288	21	5475
2026-01-05 04:16:07.44	297.19	14.51	-29.8	-33.5	17.9	6.01e-01	0	43	102	524288	20	5509
2026-01-05 04:16:08.45	296.97	14.47	-30.0	-34.2	17.4	6.01e-01	0	43	102	524288	20	5794
2026-01-05 04:16:09.46	296.74	14.43	-29.9	-33.8	17.6	5.99e-01	0	43	102	524288	20	5642
2026-01-05 04:16:10.47	296.51	14.39	-29.8	-33.5	17.9	6.03e-01	0	43	102	524288	20	5504
2026-01-05 04:16:11.47	296.29	14.34	-29.9	-33.7	17.8	5.99e-01	0	43	102	524288	20	5577
2026-01-05 04:16:12.48	296.06	14.30	-30.1	-34.3	17.4	6.02e-01	0	43	102	524288	20	5861
2026-01-05 04:16:13.49	295.83	14.26	-29.9	-33.9	17.6	6.02e-01	0	43	102	524288	20	5658
2026-01-05 04:16:14.49	295.61	14.22	-29.9	-33.6	17.8	5.99e-01	0	43	102	524288	20	5560
2026-01-05 04:16:15.50	295.39	14.17	-29.9	-33.7	17.8	5.99e-01	0	43	102	524288	20	5567
2026-01-05 04:16:16.50	295.17	14.13	-29.8	-33.5	17.9	6.01e-01	0	43	102	524288	20	5509
2026-01-05 04:16:17.51	294.95	14.09	-29.7	-33.1	18.1	6.01e-01	0	43	102	524288	20	5352
2026-01-05 04:16:18.52	294.72	14.04	-29.6	-33.1	18.2	5.99e-01	0	43	102	524288	20	5325
2026-01-05 04:16:19.52	294.51	14.00	-29.9	-33.7	17.8	6.00e-01	0	43	102	524288	20	5590
2026-01-05 04:16:20.52	294.29	13.95	-29.7	-33.3	17.9	6.01e-01	0	43	102	524288	20	5436
2026-01-05 04:16:21.53	294.07	13.91	-29.5	-33.1	18.5	6.01e-01	0	43	102	524288	19	5456
2026-01-05 04:16:22.53	293.85	13.86	-29.9	-33.7	17.8	6.01e-01	0	43	102	524288	20	5595
2026-01-05 04:16:23.54	293.63	13.82	-29.9	-33.8	17.6	6.00e-01	0	43	102	524288	20	5627
2026-01-05 04:16:24.54	293.42	13.77	-29.6	-32.8	18.3	6.03e-01	0	43	102	524288	20	5235
2026-01-05 04:16:25.55	293.20	13.73	-30.0	-34.1	17.6	6.01e-01	0	43	102	524288	20	5753
2026-01-05 04:16:26.55	292.99	13.68	-30.3	-34.6	16.8	6.04e-01	0	43	102	524288	21	5889
2026-01-05 04:16:27.55	292.77	13.63	-29.9	-33.6	17.8	6.01e-01	0	43	102	524288	20	5560
2026-01-05 04:16:28.56	292.56	13.59	-30.0	-34.2	17.3	6.02e-01	0	43	102	524288	20	5801
2026-01-05 04:16:29.57	292.35	13.54	-30.4	-34.8	15.4	6.00e-01	0	43	102	524288	21	6002
2026-01-05 04:16:30.58	292.13	13.49	-30.0	-34.1	16.7	6.00e-01	0	43	102	524288	20	5754
2026-01-05 04:16:31.58	291.92	13.45	-30.0	-34.1	17.4	6.03e-01	0	43	102	524288	20	5771
2026-01-05 04:16:32.59	291.71	13.40	-30.6	-35.3	15.7	6.00e-01	0	43	102	524288	21	6237
2026-01-05 04:16:33.60	291.50	13.35	-30.6	-35.4	15.6	6.02e-01	0	43	102	524288	21	6264
2026-01-05 04:16:34.60	291.29	13.30	-30.4	-34.8	16.6	6.00e-01	0	43	102	524288	21	5995
2026-01-05 04:16:35.61	291.08	13.25	-30.4	-34.8	16.6	6.00e-01	0	43	102	524288	21	5995
2026-01-05 04:16:36.62	290.87	13.20	-30.6	-35.4	16.2	6.02e-01	0	43	102	524288	21	6302
2026-01-05 04:16:37.63	290.67	13.15	-30.4	-34.7	16.6	6.02e-01	0	43	102	524288	21	5957
2026-01-05 04:16:38.64	290.46	13.10	-30.1	-34.0	17.2	6.00e-01	0	43	102	524288	21	5599
2026-01-05 04:16:39.65	290.25	13.05	-30.4	-35.0	16.5	6.02e-01	0	43	102	524288	21	6089
2026-01-05 04:16:40.65	290.05	13.00	-30.6	-35.1	16.0	6.02e-01	0	43	102	524288	22	6023
2026-01-05 04:16:41.66	289.84	12.95	-30.3	-34.5	16.7	6.01e-01	0	43	102	524288	21	5837
2026-01-05 04:16:42.67	289.64	12.90	-30.5	-35.1	16.4	6.00e-01	0	43	102	524288	21	6165
2026-01-05 04:16:43.67	289.44	12.85	-30.7	-35.4	15.7	6.00e-01	0	43	102	524288	22	6215
2026-01-05 04:16:44.68	289.24	12.80	-30.8	-35.9	15.4	6.01e-01	0	43	102	524288	22	6424
2026-01-05 04:16:45.68	289.04	12.75	-30.5	-34.9	16.1	6.02e-01	0	43	102	524288	22	5914
2026-01-05 04:16:46.69	288.83	12.70	-30.3	-34.5	16.7	6.00e-01	0	43	102	524288	21	5846
2026-01-05 04:16:47.69	288.64	12.65	-30.2	-34.4	16.8	6.01e-01	0	43	102	524288	21	5802
2026-01-05 04:16:48.71	288.43	12.60	-30.4	-34.8	16.6	6.03e-01	0	43	102	524288	21	5978
2026-01-05 04:16:49.71	288.24	12.54	-30.2	-34.3	16.9	6.00e-01	0	43	102	524288	21	5760
2026-01-05 04:16:50.72	288.04	12.49	-30.2	-34.4	16.8	6.02e-01	0	43	102	524288	21	5816
2026-01-05 04:16:51.73	287.84	12.44	-30.3	-34.6	16.6	6.00e-01	0	43	102	524288	21	5916
2026-01-05 04:16:52.74	287.65	12.39	-30.3	-34.5	16.7	6.00e-01	0	43	102	524288	21	5874
2026-01-05 04:16:53.75	287.45	12.33	-30.2	-34.4	16.8	6.02e-01	0	43	102	524288	21	5797
2026-01-05 04:16:54.75	287.26	12.28	-30.4	-34.8	16.5	6.02e-01	0	43	102	524288	21	6006
2026-01-05 04:16:55.76	287.06	12.23	-30.4	-35.1	16.3	6.00e-01	0	43	102	524288	21	6182
2026-01-05 04:16:56.77	286.87	12.18	-30.3	-34.7	16.5	6.02e-01	0	43	102	524288	21	5950
2026-01-05 04:16:57.78	286.68	12.12	-30.0	-34.2	17.2	5.98e-01	0	43	102	524288	20	5868
2026-01-05 04:16:58.79	286.48	12.07	-29.7	-33.3	17.8	6.02e-01	0	43	102	524288	20	5475
2026-01-05 04:16:59.79	286.30	12.02	-29.7	-33.3	17.8	6.04e-01	0	43	102	524288	20	5462
2026-01-05 04:17:00.80	286.11	11.96	-29.9	-33.8	17.5	6.00e-01	0	43	102	524288	20	5670
2026-01-05 04:17:01.80	285.92	11.91	-29.8	-33.7	17.6	5.99e-01	0	43	102	524288	20	5615
2026-01-05 04:17:02.80	285.73	11.85	-29.9	-33.8	17.5	5.98e-01	0	43	102	524288	20	5651
2026-01-05 04:17:03.81	285.54	11.80	-30.1	-34.3	17.2	5.99e-01	0	43	102	524288	20	5899
2026-01-05 04:17:04.82	285.35	11.74	-30.0	-34.2	17.2	5.99e-01	0	43	102	524288	20	5833
2026-01-05 04:17:05.83	285.17	11.69	-29.8	-33.7	17.5	6.00e-01	0	43	102	524288	20	5630
2026-01-05 04:17:06.84	284.98	11.64	-29.7	-33.4	17.8	6.01e-01	0	43	102	524288	20	5477
2026-01-05 04:17:07.85	284.80	11.58	-29.8	-33.5	17.7	6.00e-01	0	43	102	524288	20	5517
2026-01-05 04:17:08.86	284.61	11.53	-29.8	-33.5	17.7	6.02e-01	0	43	102	524288	20	5554
2026-01-05 04:17:09.86	284.43	11.47	-29.8	-33.6	17.1	6.04e-01	0	43	102	524288	20	5557
2026-01-05 04:17:10.87	284.25	11.41	-29.7	-33.5	17.7	6.02e-01	0	43	102	524288	20	5518
2026-01-05 04:17:11.87	284.07	11.36	-29.7	-33.4	17.1	6.06e-01	0	43	102	524288	20	5497
2026-01-05 04:17:12.88	283.89	11.30	-29.8	-33.7	16.0	6.06e-01	0	43	102	524288	20	5613
2026-01-05 04:17:13.89	283.70	11.25	-29.8	-33.7	17.4	6.00e-01	0	43	102	524288	20	5632
2026-01-05 04:17:14.88	283.53	11.19	-29.9	-33.9	15.7	6.00e-01	0	43	102	524288	20	5695
2026-01-05 04:17:15.89	283.35	11.14	-30.0	-34.3	16.8	6.00e-01	0	43	102	524288	20	5897
2026-01-05 04:17:16.90	283.17	11.08	-30.2	-34.3	16.7	6.01e-01	0	43	102	524288	21	5802
2026-01-05 04:17:17.90	282.99	11.03	-30.1	-34.2	16.7	6.01e-01	0	43	102	524288	21	5740
2026-01-05 04:17:18.90	282.82	10.97	-30.3	-34.6	16.0	6.00e-01	0	43	102	524288	21	5931
2026-01-05 04:17:19.91	282.64	10.91	-30.4	-35.0	16.3	6.04e-01	0	43	102	524288	21	6102
2026-01-05 04:17:20.92	282.47	10.86	-30.2	-34.5	16.7	6.00e-01	0	43	102	524288	21	5856
2026-01-05 04:17:21.93	282.29	10.80	-30.1	-34.5	17.0	6.02e-01	0	43	102	524288	20	5967
2026-01-05 04:17:22.94	282.12	10.74	-30.2	-34.3	16.8	6.03e-01	0	43	102	524288	21	5766
2026-01-05 04:17:23.94	281.95	10.69	-30.4	-34.8	16.4	6.01e-01	0	43	102	524288	21	6038
2026-01-05 04:17:24.95	281.77	10.63	-30.2	-34.3	16.7	6.02e-01	0	43	102	524288	21	5798
2026-01-05 04:17:25.96	281.60	10.57	-30.1	-34.1	16.9	6.01e-01	0	43	102	524288	21	5700
2026-01-05 04:17:26.96	281.43	10.52	-30.1	-34.1	16.9	6.00e-01	0	43	102	524288	21	5704
2026-01-05 04:17:27.96	281.26	10.46	-30.1	-34.2	16.8	6.01e-01	0	43	102	524288	21	5730
2026-01-05 04:17:28.96	281.10	10.40	-30.2	-34.4	16.6	6.03e-01	0	43	102	524288	21	5857
2026-01-05 04:17:29.97	280.93	10.35	-30.2	-34.3	16.7	6.00e-01	0	43	102	524288	21	5785
2026-01-05 04:17:30.97	280.76	10.29	-30.3	-34.7	16.4	6.02e-01	0	43	102	524288	21	5970
2026-01-05 04:17:31.98	280.59	10.23	-30.1	-34.1	16.8	6.01e-01	0	43	102	524288	21	5691
2026-01-05 04:17:32.98	280.43	10.17	-30.0	-34.2	17.1	6.02e-01	0	43	102	524288	20	5867
2026-01-05 04:17:33.99	280.26	10.12	-30.1	-34.1	16.8	5.99e-01	0	43	102	524288	21	5724
2026-01-05 04:17:35.00	280.10	10.06	-30.0	-34.3	17.0	6.00e-01	0	43	102	524288	20	5902
2026-01-05 04:17:36.01	279.93	10.00	-29.9	-34.0	17.2	6.03e-01	0	43	102	524288	20	5786
2026-01-05 04:17:37.02	279.77	9.94	-29.8	-33.8	17.3	6.00e-01	0	43	102	524288	20	5702
2026-01-05 04:17:38.03	279.61	9.89	-29.9	-33.9	17.2	6.01e-01	0	43	102	524288	20	5743
2026-01-05 04:17:39.03	279.44	9.83	-29.9	-33.9	17.2	6.05e-01	0	43	102	524288	20	5748
2026-01-05 04:17:40.04	279.28	9.77	-30.0	-34.2	17.1	6.02e-01	0	43	102	524288	20	5869
2026-01-05 04:17:41.05	279.12	9.71	-29.9	-34.0	17.2	6.01e-01	0	43	102	524288	20	5780
2026-01-05 04:17:42.06	278.96	9.65	-29.9	-34.0	17.2	6.01e-01	0	43	102	524288	20	5772
2026-01-05 04:17:43.06	278.80	9.60	-30.0	-34.2	17.0	6.02e-01	0	43	102	524288	20	5879
2026-01-05 04:17:44.07	278.64	9.54	-30.0	-34.3	17.0	6.00e-01	0	43	102	524288	20	5916
2026-01-05 04:17:45.07	278.49	9.48	-30.0	-34.3	16.9	6.00e-01	0	43	102	524288	20	5939
2026-01-05 04:17:46.09	278.33	9.42	-30.0	-34.3	17.0	6.00e-01	0	43	102	524288	20	5902
2026-01-05 04:17:47.09	278.17	9.36	-30.0	-34.4	16.9	6.01e-01	0	43	102	524288	20	5982
2026-01-05 04:17:48.10	278.02	9.31	-29.9	-33.9	17.2	6.02e-01	0	43	102	524288	20	5739
2026-01-05 04:17:49.10	277.86	9.25	-29.8	-33.8	17.3	6.00e-01	0	43	102	524288	20	5696
2026-01-05 04:17:50.11	277.71	9.19	-29.9	-34.0	17.1	6.01e-01	0	43	102	524288	20	5800
2026-01-05 04:17:51.12	277.55	9.13	-29.9	-34.2	17.0	6.04e-01	0	43	102	524288	20	5888
2026-01-05 04:17:52.12	277.40	9.07	-30.0	-34.3	16.9	6.00e-01	0	43	102	524288	20	5943
2026-01-05 04:17:53.13	277.25	9.01	-30.0	-34.6	16.7	5.99e-01	0	43	102	524288	20	6056
2026-01-05 04:17:54.13	277.10	8.96	-29.9	-34.2	17.0	6.01e-01	0	43	102	524288	20	5876
2026-01-05 04:17:55.14	276.94	8.90	-29.9	-34.0	17.1	6.00e-01	0	43	102	524288	20	5805
2026-01-05 04:17:56.15	276.79	8.84	-29.9	-34.1	17.0	6.02e-01	0	43	102	524288	20	5853
2026-01-05 04:17:57.15	276.65	8.78	-29.9	-34.0	17.1	6.00e-01	0	43	102	524288	20	5815
2026-01-05 04:17:58.16	276.50	8.72	-29.9	-34.2	17.0	6.02e-01	0	43	102	524288	20	5894
2026-01-05 04:17:59.16	276.35	8.66	-30.0	-34.6	15.7	6.01e-01	0	43	102	524288	20	6067
2026-01-05 04:18:00.17	276.20	8.61	-30.0	-34.4	15.5	6.00e-01	0	43	102	524288	20	5998
2026-01-05 04:18:01.18	276.05	8.55	-30.0	-34.5	16.6	6.01e-01	0	43	102	524288	20	6042
2026-01-05 04:18:02.19	275.91	8.49	-30.1	-34.7	16.1	6.01e-01	0	43	102	524288	20	6114
2026-01-05 04:18:03.19	275.76	8.43	-30.2	-34.6	16.3	6.01e-01	0	43	102	524288	21	5951
2026-01-05 04:18:04.20	275.61	8.37	-30.3	-34.9	16.1	5.98e-01	0	43	102	524288	21	6110
2026-01-05 04:18:05.21	275.47	8.31	-30.2	-34.6	16.3	6.01e-01	0	43	102	524288	21	5951
2026-01-05 04:18:06.22	275.33	8.25	-30.3	-35.0	16.0	5.98e-01	0	43	102	524288	21	6179
2026-01-05 04:18:07.22	275.18	8.19	-30.4	-35.3	15.7	6.01e-01	0	43	102	524288	21	6326
2026-01-05 04:18:08.22	275.04	8.14	-30.4	-35.2	15.9	6.02e-01	0	43	102	524288	21	6253
2026-01-05 04:18:09.24	274.90	8.08	-30.5	-35.5	15.6	6.02e-01	0	43	102	524288	21	6432
2026-01-05 04:18:10.24	274.76	8.02	-30.5	-35.8	15.3	6.01e-01	0	43	102	524288	21	6597
2026-01-05 04:18:11.25	274.62	7.96	-30.4	-35.3	15.7	6.02e-01	0	43	102	524288	21	6352
2026-01-05 04:18:12.25	274.48	7.90	-30.3	-35.1	15.9	6.01e-01	0	43	102	524288	21	6221
2026-01-05 04:18:13.26	274.34	7.84	-30.3	-35.0	16.0	5.99e-01	0	43	102	524288	21	6152
2026-01-05 04:18:14.27	274.20	7.78	-30.2	-34.8	16.1	6.01e-01	0	43	102	524288	21	6072
2026-01-05 04:18:15.28	274.06	7.73	-30.2	-34.8	16.1	6.00e-01	0	43	102	524288	21	6072
2026-01-05 04:18:16.28	273.92	7.67	-30.2	-34.7	16.1	6.01e-01	0	43	102	524288	21	6037
2026-01-05 04:18:17.28	273.79	7.61	-30.2	-34.7	16.1	6.01e-01	0	43	102	524288	21	6045
2026-01-05 04:18:18.28	273.65	7.55	-30.3	-35.1	15.8	6.01e-01	0	43	102	524288	21	6237
2026-01-05 04:18:19.29	273.51	7.49	-30.2	-34.8	16.0	6.00e-01	0	43	102	524288	21	6086
2026-01-05 04:18:20.30	273.38	7.43	-30.1	-34.4	16.3	6.03e-01	0	43	102	524288	21	5916
2026-01-05 04:18:21.30	273.24	7.37	-30.1	-34.8	16.3	6.02e-01	0	43	102	524288	20	6237
2026-01-05 04:18:22.31	273.11	7.32	-30.1	-34.4	16.3	6.02e-01	0	43	102	524288	21	5911
2026-01-05 04:18:23.31	272.98	7.26	-30.1	-34.5	16.2	6.02e-01	0	43	102	524288	21	5976
2026-01-05 04:18:24.32	272.84	7.20	-30.1	-34.5	16.1	6.02e-01	0	43	102	524288	21	5983
2026-01-05 04:18:25.33	272.71	7.14	-30.0	-34.8	16.3	6.02e-01	0	43	102	524288	20	6226
2026-01-05 04:18:26.33	272.58	7.08	-31.9	-40.6	12.1	6.11e-01	0	43	102	524288	24	9810
2026-01-05 04:18:27.34	272.45	7.02	-32.9	-52.2	3.8	7.43e-01	0	43	104	524288	26	33308
2026-01-05 04:18:28.35	272.32	6.96	-33.2	-52.5	3.8	7.48e-01	0	43	104	524288	27	33020

#Closed at: 2026-01-05 04:18:28
#Recorded file [0 MB]: D:/data/31010_260105_071256.dat