passes_logs/2026/01/05/R2M6_AANII_01/R2M6_AANII_01__20260105_010222_SUOMI_NPP_rec.log

#Pass ID: 20260105_010222_SUOMI NPP
#Satellite: SUOMI NPP
#Configuration: NPP
#almurnet v.1.7.20240730
#Start time: 2026-01-05 01:05:27

#Version: 2.2.20231116
#Station: R2M6_AANII_01
#Location: 30.233357 lon 59.946436 lat
#TLE: 1 37849U 11061A   26003.96724563  .00000164  00000+0  98899-4 0  9990
#TLE: 2 37849  98.7800 306.1116 0002573  82.3190 277.8279 14.19522066735141

#Time	Az	El	Level	Level2	SNR	BER	BlckErr	Temp	State	Recorded	gain1	gain2
2026-01-05 01:05:27.80	4.04	26.91	-32.4	-52.1	3.8	7.43e-01	0	43	0	0	25	34595
2026-01-05 01:05:28.81	3.92	27.07	-34.0	-46.6	3.8	1.49e+00	0	43	104	0	27	15433
2026-01-05 01:05:29.81	3.79	27.23	-34.0	-46.6	3.8	1.49e+00	0	43	104	0	27	15460
2026-01-05 01:05:30.81	3.67	27.39	-33.9	-46.0	3.8	1.49e+00	0	43	104	0	28	14522
2026-01-05 01:05:31.81	3.55	27.55	-34.0	-46.6	3.8	1.49e+00	0	43	104	0	27	15484
2026-01-05 01:05:32.82	3.42	27.71	-33.9	-46.1	3.8	1.49e+00	0	43	104	0	28	14560
2026-01-05 01:05:33.83	3.29	27.87	-34.0	-46.2	3.8	1.49e+00	0	43	104	0	28	14671
2026-01-05 01:05:34.84	3.16	28.04	-34.0	-46.2	3.8	1.49e+00	0	43	104	0	28	14658
2026-01-05 01:05:35.84	3.03	28.20	-34.0	-46.2	3.8	1.49e+00	0	43	104	0	28	14635
2026-01-05 01:05:36.84	2.90	28.36	-34.0	-46.2	3.8	1.49e+00	0	43	104	0	28	14726
2026-01-05 01:05:37.85	2.77	28.53	-34.0	-46.2	3.8	1.49e+00	0	43	104	0	28	14642
2026-01-05 01:05:38.86	2.63	28.70	-34.0	-46.2	3.8	1.49e+00	0	43	104	0	28	14682
2026-01-05 01:05:39.87	2.50	28.86	-34.0	-46.2	3.8	1.49e+00	0	43	104	0	28	14633
2026-01-05 01:05:40.87	2.36	29.03	-34.0	-46.2	3.8	1.49e+00	0	43	104	0	28	14647
2026-01-05 01:05:41.88	2.22	29.20	-34.0	-46.1	3.8	1.49e+00	0	43	104	0	28	14605
2026-01-05 01:05:42.89	2.08	29.37	-34.0	-46.2	3.8	1.49e+00	0	43	104	0	28	14640
2026-01-05 01:05:43.90	1.93	29.54	-34.0	-46.2	3.8	1.49e+00	0	43	104	0	28	14670
2026-01-05 01:05:44.90	1.79	29.71	-34.0	-46.1	3.8	1.49e+00	0	43	104	0	28	14603
2026-01-05 01:05:45.91	1.65	29.89	-34.0	-46.1	3.8	1.49e+00	0	43	104	0	28	14601
2026-01-05 01:05:46.92	1.50	30.06	-34.0	-46.2	3.8	1.49e+00	0	43	104	0	28	14672
2026-01-05 01:05:47.92	1.35	30.23	-34.0	-46.2	3.8	1.49e+00	0	43	104	0	28	14662
2026-01-05 01:05:48.94	1.20	30.41	-34.0	-46.2	3.7	1.49e+00	0	43	104	0	28	14683
2026-01-05 01:05:49.94	1.05	30.58	-34.0	-46.2	3.8	1.49e+00	0	43	104	0	28	14666
2026-01-05 01:05:50.95	0.89	30.76	-34.0	-46.2	3.8	1.49e+00	0	43	104	0	28	14690
2026-01-05 01:05:51.96	0.74	30.94	-34.0	-46.1	3.8	1.49e+00	0	43	104	0	28	14607
2026-01-05 01:05:52.96	0.58	31.12	-33.9	-46.1	3.8	1.49e+00	0	43	104	0	28	14618
2026-01-05 01:05:53.97	0.42	31.30	-33.9	-46.1	3.8	1.49e+00	0	43	104	0	28	14529
2026-01-05 01:05:54.98	0.26	31.48	-33.9	-46.0	3.8	1.49e+00	0	43	104	0	28	14486
2026-01-05 01:05:55.98	0.10	31.66	-33.9	-46.5	3.8	1.49e+00	0	43	104	0	27	15358
2026-01-05 01:05:57.00	359.93	31.84	-33.9	-46.5	3.8	1.49e+00	0	43	104	0	27	15323
2026-01-05 01:05:58.00	359.77	32.02	-33.9	-46.4	3.8	1.49e+00	0	43	104	0	27	15268
2026-01-05 01:05:59.00	359.60	32.20	-33.8	-46.1	3.8	1.49e+00	0	43	104	0	27	14834
2026-01-05 01:06:00.00	359.43	32.39	-33.8	-46.1	3.8	1.49e+00	0	43	104	0	27	14904
2026-01-05 01:06:01.01	359.26	32.57	-33.8	-46.2	3.8	1.49e+00	0	43	104	0	27	14975
2026-01-05 01:06:02.02	359.08	32.76	-33.8	-46.1	3.8	1.49e+00	0	43	104	0	27	14926
2026-01-05 01:06:03.02	358.91	32.94	-33.8	-46.1	3.8	1.49e+00	0	43	104	0	27	14923
2026-01-05 01:06:04.03	358.73	33.13	-33.8	-46.0	3.8	1.49e+00	0	43	104	0	27	14801
2026-01-05 01:06:05.04	358.55	33.32	-33.8	-46.0	3.8	1.49e+00	0	43	104	0	27	14783
2026-01-05 01:06:06.05	358.36	33.51	-33.8	-46.0	3.8	1.49e+00	0	43	104	0	27	14705
2026-01-05 01:06:07.05	358.18	33.70	-33.8	-46.1	3.8	1.49e+00	0	43	104	0	27	14882
2026-01-05 01:06:08.06	357.99	33.89	-33.8	-46.2	3.8	1.49e+00	0	43	104	0	27	15053
2026-01-05 01:06:09.07	357.80	34.08	-33.8	-46.2	3.8	1.49e+00	0	43	104	0	27	15053
2026-01-05 01:06:10.07	357.61	34.28	-33.7	-46.0	3.8	1.49e+00	0	43	104	0	27	14695
2026-01-05 01:06:11.08	357.42	34.47	-33.7	-45.6	3.8	1.49e+00	0	43	104	0	27	14139
2026-01-05 01:06:12.09	357.22	34.66	-33.7	-45.5	3.8	1.49e+00	0	43	104	0	27	13927
2026-01-05 01:06:13.10	357.02	34.86	-33.7	-45.3	3.8	1.49e+00	0	43	104	0	27	13744
2026-01-05 01:06:14.11	356.82	35.06	-33.7	-45.0	3.8	1.49e+00	0	43	104	0	27	13292
2026-01-05 01:06:15.11	356.62	35.25	-33.6	-44.6	3.8	1.49e+00	0	43	104	0	27	12736
2026-01-05 01:06:16.12	356.41	35.45	-33.6	-44.4	3.8	1.49e+00	0	43	104	0	27	12477
2026-01-05 01:06:17.12	356.20	35.65	-33.6	-44.7	3.8	1.49e+00	0	43	104	0	27	12878
2026-01-05 01:06:18.13	355.99	35.85	-33.7	-44.6	3.8	1.49e+00	0	43	104	0	27	12673
2026-01-05 01:06:19.14	355.77	36.05	-33.5	-43.1	3.9	1.49e+00	0	43	104	0	27	10878
2026-01-05 01:06:20.15	355.56	36.25	-33.4	-41.4	4.4	1.47e+00	0	43	104	0	27	9066
2026-01-05 01:06:21.15	355.34	36.45	-33.2	-40.7	4.2	1.43e+00	0	43	104	0	26	8571
2026-01-05 01:06:22.16	355.12	36.65	-32.5	-39.8	5.0	9.16e-01	0	43	104	0	26	8403
2026-01-05 01:06:23.17	354.89	36.86	-33.1	-40.5	4.3	1.19e+00	0	43	104	0	25	8493
2026-01-05 01:06:24.17	354.66	37.06	-33.1	-39.9	4.5	5.16e-01	0	43	104	0	26	7925
2026-01-05 01:06:25.17	354.43	37.26	-32.9	-39.7	4.5	1.34e+00	0	43	104	0	25	7825
2026-01-05 01:06:26.18	354.20	37.47	-32.8	-39.0	5.8	3.45e-01	0	43	104	0	25	7333
2026-01-05 01:06:27.19	353.96	37.67	-32.7	-38.5	4.7	1.30e+00	0	43	104	0	25	7015
2026-01-05 01:06:28.20	353.72	37.88	-32.6	-37.8	5.5	2.53e-01	0	43	104	0	25	6591
2026-01-05 01:06:29.20	353.48	38.09	-32.5	-37.7	4.8	1.23e+00	0	44	104	0	24	6558
2026-01-05 01:06:30.20	353.24	38.29	-32.1	-36.3	8.5	6.71e-02	0	43	0	0	24	5826
2026-01-05 01:06:31.20	352.99	38.50	-31.9	-35.9	9.2	2.40e-02	0	44	102	1048576	23	5699
2026-01-05 01:06:32.21	352.74	38.71	-31.9	-36.1	9.1	2.74e-02	0	43	102	1048576	23	5798
2026-01-05 01:06:33.22	352.48	38.92	-32.1	-36.0	8.8	2.17e-02	0	43	102	1048576	24	5641
2026-01-05 01:06:34.23	352.22	39.13	-32.2	-36.5	8.4	4.37e-02	0	43	102	1048576	24	5895
2026-01-05 01:06:35.24	351.95	39.35	-32.0	-35.5	9.1	3.93e-02	0	44	102	1048576	24	5433
2026-01-05 01:06:36.24	351.69	39.56	-32.0	-35.6	9.1	2.41e-02	0	44	102	1048576	24	5468
2026-01-05 01:06:37.24	351.42	39.77	-32.3	-37.0	8.0	3.83e-02	0	43	102	1048576	24	6162
2026-01-05 01:06:38.25	351.15	39.98	-32.2	-36.6	8.4	4.78e-02	0	43	102	1048576	24	5964
2026-01-05 01:06:39.26	350.87	40.19	-32.3	-37.2	7.9	5.21e-02	0	43	102	1048576	24	6260
2026-01-05 01:06:40.27	350.59	40.41	-32.6	-37.8	7.1	1.26e-01	0	43	102	1048576	25	6556
2026-01-05 01:06:41.28	350.30	40.62	-32.6	-37.9	7.0	1.28e-01	0	44	102	1048576	25	6590
2026-01-05 01:06:42.28	350.02	40.84	-32.7	-38.2	6.8	1.99e-01	0	43	102	1048576	25	6825
2026-01-05 01:06:43.29	349.72	41.05	-32.6	-38.1	6.7	1.62e-01	0	44	102	1048576	25	6755
2026-01-05 01:06:44.30	349.43	41.27	-32.8	-39.1	6.2	2.44e-01	0	43	102	1048576	25	7432
2026-01-05 01:06:45.30	349.13	41.49	-32.9	-39.6	5.8	3.74e-01	0	44	102	1048576	25	7807
2026-01-05 01:06:46.31	348.82	41.70	-32.9	-39.6	5.8	3.89e-01	0	43	102	1048576	25	7770
2026-01-05 01:06:47.32	348.51	41.92	-32.8	-39.1	6.1	2.98e-01	0	43	102	1048576	25	7376
2026-01-05 01:06:48.33	348.20	42.14	-32.7	-38.5	6.5	1.78e-01	0	44	102	1048576	25	7021
2026-01-05 01:06:49.34	347.88	42.36	-32.5	-37.3	7.4	1.79e-01	0	44	102	1048576	25	6297
2026-01-05 01:06:50.35	347.56	42.58	-32.3	-37.2	7.9	8.94e-02	0	43	102	1048576	24	6270
2026-01-05 01:06:51.35	347.24	42.79	-32.3	-36.9	8.0	7.66e-02	0	44	102	1048576	24	6123
2026-01-05 01:06:52.36	346.90	43.01	-32.0	-35.8	8.8	4.46e-02	0	43	102	1048576	24	5557
2026-01-05 01:06:53.37	346.57	43.23	-32.1	-36.0	8.9	2.35e-02	0	43	102	1048576	24	5629
2026-01-05 01:06:54.37	346.23	43.45	-32.0	-35.4	9.3	1.66e-02	0	43	102	1048576	24	5368
2026-01-05 01:06:55.38	345.88	43.67	-32.0	-35.6	9.2	1.73e-02	0	43	102	1048576	24	5436
2026-01-05 01:06:56.39	345.53	43.89	-32.2	-36.2	8.6	3.22e-02	0	43	102	1048576	24	5750
2026-01-05 01:06:57.39	345.18	44.10	-32.0	-35.5	9.2	2.28e-02	0	43	102	1048576	24	5392
2026-01-05 01:06:58.40	344.82	44.32	-32.2	-36.3	8.7	3.08e-02	0	44	102	1048576	24	5785
2026-01-05 01:06:59.41	344.46	44.54	-32.3	-36.8	8.2	5.11e-02	0	44	102	1048576	24	6053
2026-01-05 01:07:00.41	344.09	44.76	-32.3	-36.7	8.3	3.94e-02	0	43	102	1048576	24	5973
2026-01-05 01:07:01.42	343.72	44.98	-32.5	-37.2	7.7	6.62e-02	0	44	102	1048576	25	6165
2026-01-05 01:07:02.42	343.34	45.20	-32.5	-37.2	7.5	1.25e-01	0	43	102	1048576	25	6200
2026-01-05 01:07:03.43	342.95	45.42	-32.4	-36.5	8.0	7.21e-02	0	43	102	1048576	25	5776
2026-01-05 01:07:04.44	342.56	45.63	-31.7	-36.1	8.3	5.65e-02	0	44	102	1048576	24	5942
2026-01-05 01:07:05.44	342.17	45.85	-32.1	-36.0	8.8	4.12e-02	0	44	102	1048576	24	5656
2026-01-05 01:07:06.45	341.77	46.07	-32.0	-35.7	9.0	2.62e-02	0	43	102	1048576	24	5502
2026-01-05 01:07:07.44	341.37	46.28	-32.1	-35.9	8.9	2.72e-02	0	43	102	1048576	24	5597
2026-01-05 01:07:08.45	340.95	46.50	-32.1	-36.0	8.9	3.34e-02	0	44	102	1048576	24	5616
2026-01-05 01:07:09.46	340.53	46.72	-31.8	-35.0	9.6	1.99e-02	0	43	102	1048576	24	5153
2026-01-05 01:07:10.47	340.11	46.93	-31.7	-34.9	10.0	7.85e-03	0	44	102	1048576	23	5215
2026-01-05 01:07:11.47	339.68	47.14	-31.7	-34.9	9.9	8.37e-03	0	43	102	1048576	23	5248
2026-01-05 01:07:12.48	339.24	47.36	-32.1	-36.0	8.7	1.75e-02	0	43	102	1048576	24	5669
2026-01-05 01:07:13.49	338.80	47.57	-32.1	-36.4	8.3	3.56e-02	0	44	102	1048576	24	5896
2026-01-05 01:07:14.49	338.36	47.78	-31.8	-35.0	9.5	3.59e-02	0	43	102	1048576	24	5215
2026-01-05 01:07:15.50	337.90	48.00	-31.2	-33.6	11.0	6.46e-03	0	43	102	1048576	23	4700
2026-01-05 01:07:16.50	337.44	48.20	-30.7	-32.4	12.1	2.97e-04	0	43	102	1048576	22	4389
2026-01-05 01:07:17.52	336.97	48.42	-30.9	-33.6	11.6	2.62e-04	0	44	102	1048576	21	4912
2026-01-05 01:07:18.52	336.50	48.62	-31.2	-34.1	11.0	9.80e-04	0	44	102	1048576	22	5008
2026-01-05 01:07:19.53	336.02	48.83	-31.3	-34.5	10.8	5.13e-03	0	44	102	1048576	22	5164
2026-01-05 01:07:20.54	335.53	49.04	-31.3	-34.3	10.8	2.91e-03	0	43	102	1048576	22	5112
2026-01-05 01:07:21.55	335.04	49.24	-31.3	-34.3	10.8	2.60e-03	0	43	102	1048576	22	5099
2026-01-05 01:07:22.56	334.53	49.45	-31.7	-35.1	9.9	6.86e-03	0	43	102	1048576	23	5338
2026-01-05 01:07:23.57	334.03	49.65	-31.5	-34.7	10.1	9.66e-03	0	43	102	1048576	23	5171
2026-01-05 01:07:24.57	333.52	49.85	-31.3	-33.8	10.8	3.38e-03	0	44	102	1048576	23	4797
2026-01-05 01:07:25.58	332.99	50.05	-31.2	-34.1	10.9	2.28e-03	0	44	102	1048576	22	4998
2026-01-05 01:07:26.59	332.47	50.24	-31.2	-34.0	11.0	2.38e-03	0	43	102	1048576	22	4971
2026-01-05 01:07:27.59	331.94	50.44	-31.1	-33.6	11.3	1.18e-03	0	44	102	1048576	22	4786
2026-01-05 01:07:28.60	331.39	50.63	-31.0	-33.1	11.7	5.59e-04	0	43	102	1048576	22	4623
2026-01-05 01:07:29.60	330.85	50.82	-31.3	-34.1	11.1	1.35e-03	0	43	102	1048576	22	4959
2026-01-05 01:07:30.61	330.29	51.01	-31.7	-34.9	10.2	4.11e-03	0	44	102	1048576	23	5219
2026-01-05 01:07:31.62	329.73	51.20	-31.7	-34.9	10.1	8.33e-03	0	43	102	1048576	23	5216
2026-01-05 01:07:32.63	329.16	51.39	-31.5	-34.4	10.5	6.51e-03	0	43	102	1048576	23	4992
2026-01-05 01:07:33.64	328.58	51.57	-31.4	-33.8	10.8	3.11e-03	0	44	102	1048576	23	4787
2026-01-05 01:07:34.65	328.00	51.75	-31.4	-34.6	10.6	2.34e-03	0	44	102	1048576	22	5202
2026-01-05 01:07:35.65	327.41	51.93	-31.7	-35.2	9.8	4.62e-03	0	43	102	1048576	23	5348
2026-01-05 01:07:36.66	326.81	52.10	-31.7	-35.0	9.9	1.10e-02	0	43	102	1048576	23	5294
2026-01-05 01:07:37.68	326.20	52.28	-31.4	-34.0	10.7	5.19e-03	0	43	102	1048576	23	4871
2026-01-05 01:07:38.68	325.59	52.45	-31.0	-33.5	11.4	2.12e-03	0	44	102	1048576	22	4764
2026-01-05 01:07:39.68	324.98	52.61	-31.0	-33.5	11.3	1.04e-03	0	43	102	1048576	22	4773
2026-01-05 01:07:40.69	324.35	52.78	-31.0	-33.4	11.4	6.55e-04	0	44	102	1048576	22	4753
2026-01-05 01:07:41.69	323.72	52.94	-30.8	-33.5	11.7	3.28e-04	0	44	102	1048576	21	4867
2026-01-05 01:07:42.70	323.08	53.10	-30.8	-33.4	11.1	2.72e-03	0	44	102	1048576	21	4829
2026-01-05 01:07:43.70	322.44	53.25	-30.8	-33.3	11.4	5.53e-04	0	43	102	1048576	21	4812
2026-01-05 01:07:44.71	321.78	53.40	-30.7	-33.2	11.8	4.54e-04	0	44	102	1048576	21	4780
2026-01-05 01:07:45.72	321.12	53.55	-30.6	-32.8	11.9	3.41e-04	0	43	102	1048576	21	4630
2026-01-05 01:07:46.73	320.45	53.70	-30.4	-32.6	12.5	1.38e-04	0	43	102	1048576	20	4655
2026-01-05 01:07:47.74	319.78	53.84	-30.0	-31.4	13.4	4.57e-05	0	43	102	1048576	20	4260
2026-01-05 01:07:48.74	319.10	53.97	-29.6	-30.6	13.9	9.10e-06	0	43	102	1048576	20	4012
2026-01-05 01:07:49.75	318.41	54.11	-29.6	-30.9	14.1	3.45e-04	0	43	102	1048576	19	4205
2026-01-05 01:07:50.76	317.72	54.24	-29.9	-31.9	13.4	8.30e-06	0	44	102	1048576	19	4500
2026-01-05 01:07:51.77	317.01	54.36	-30.2	-32.2	12.8	3.12e-05	0	43	102	1048576	20	4522
2026-01-05 01:07:52.78	316.31	54.49	-30.2	-32.2	12.9	8.54e-04	0	43	102	1048576	20	4526
2026-01-05 01:07:53.79	315.59	54.60	-30.0	-31.2	13.1	8.85e-05	0	43	102	1048576	21	4110
2026-01-05 01:07:54.80	314.87	54.72	-29.8	-31.5	13.6	2.05e-05	0	43	102	1048576	19	4401
2026-01-05 01:07:55.80	314.16	54.83	-29.6	-30.9	14.0	6.10e-06	0	43	102	1048576	19	4207
2026-01-05 01:07:56.81	313.43	54.93	-29.5	-30.7	14.2	7.00e-07	0	44	102	1048576	19	4140
2026-01-05 01:07:57.82	312.69	55.03	-29.7	-31.1	13.9	3.00e-06	0	43	102	1048576	19	4265
2026-01-05 01:07:58.82	311.96	55.13	-29.9	-31.7	13.4	3.80e-06	0	43	102	1048576	19	4451
2026-01-05 01:07:59.83	311.21	55.22	-30.2	-32.3	12.7	5.49e-05	0	43	102	1048576	20	4576
2026-01-05 01:08:00.83	310.47	55.30	-30.5	-33.1	12.1	2.12e-03	0	43	102	1048576	20	4858
2026-01-05 01:08:01.84	309.71	55.39	-30.3	-32.5	12.6	9.91e-05	0	44	102	1048576	20	4639
2026-01-05 01:08:02.84	308.96	55.46	-30.0	-31.5	13.2	4.88e-05	0	43	102	1048576	20	4318
2026-01-05 01:08:03.85	308.19	55.54	-29.9	-31.8	13.4	1.31e-03	0	44	102	1048576	19	4491
2026-01-05 01:08:04.86	307.43	55.60	-29.3	-30.3	14.3	5.30e-06	0	43	102	1048576	19	4034
2026-01-05 01:08:05.86	306.66	55.66	-28.8	-29.1	14.9	2.20e-06	0	44	102	1048576	19	3725
2026-01-05 01:08:06.86	305.90	55.72	-28.4	-29.1	15.5	5.45e-04	0	43	102	1048576	17	3901
2026-01-05 01:08:07.87	305.12	55.77	-28.3	-28.8	15.8	5.93e-04	0	44	102	1048576	17	3815
2026-01-05 01:08:08.88	304.34	55.82	-28.8	-30.1	15.0	7.00e-07	0	44	102	1048576	17	4171
2026-01-05 01:08:09.88	303.56	55.86	-28.8	-30.0	15.1	1.25e-03	0	43	102	1048576	17	4156
2026-01-05 01:08:10.89	302.78	55.90	-28.4	-29.5	15.7	1.75e-03	0	44	102	1048576	16	4083
2026-01-05 01:08:11.90	301.99	55.93	-28.2	-29.1	15.9	0.00e+00	0	43	102	1048576	16	3985
2026-01-05 01:08:12.90	301.21	55.96	-28.1	-28.7	16.0	8.04e-04	0	43	102	1048576	16	3859
2026-01-05 01:08:13.91	300.42	55.98	-28.2	-29.0	16.0	2.59e-04	0	44	102	1048576	16	3952
2026-01-05 01:08:14.92	299.63	55.99	-28.4	-29.5	15.7	0.00e+00	0	43	102	1048576	16	4088
2026-01-05 01:08:15.92	298.85	56.00	-29.1	-30.1	14.8	0.00e+00	0	44	102	1048576	18	4072
2026-01-05 01:08:16.93	298.05	56.01	-29.1	-30.3	14.7	7.78e-04	0	43	102	1048576	18	4106
2026-01-05 01:08:17.93	297.27	56.01	-29.0	-29.9	15.0	0.00e+00	0	43	102	1048576	18	3996
2026-01-05 01:08:18.93	296.49	56.00	-28.9	-30.3	14.9	6.48e-04	0	44	102	1048576	17	4225
2026-01-05 01:08:19.94	295.69	55.99	-28.3	-28.8	15.8	9.03e-04	0	43	102	1048576	17	3808
2026-01-05 01:08:20.95	294.90	55.98	-28.4	-29.0	15.6	0.00e+00	0	43	102	1048576	17	3855
2026-01-05 01:08:21.96	294.11	55.96	-28.8	-29.9	15.2	1.04e-03	0	44	102	1048576	17	4085
2026-01-05 01:08:22.97	293.32	55.93	-28.8	-29.9	15.2	0.00e+00	0	44	102	1048576	17	4087
2026-01-05 01:08:23.97	292.55	55.90	-28.4	-29.0	15.7	0.00e+00	0	43	102	1048576	17	3870
2026-01-05 01:08:24.98	291.76	55.86	-28.2	-29.0	16.0	1.86e-03	0	43	102	1048576	16	3946
2026-01-05 01:08:25.99	290.98	55.82	-28.0	-28.5	16.3	1.87e-03	0	44	102	1048576	16	3817
2026-01-05 01:08:27.00	290.20	55.77	-28.0	-28.5	16.0	0.00e+00	0	43	102	1048576	16	3817
2026-01-05 01:08:28.00	289.43	55.72	-28.4	-29.4	15.7	1.93e-03	0	43	102	1048576	16	4073
2026-01-05 01:08:29.01	288.65	55.66	-28.2	-29.2	15.8	1.68e-03	0	44	102	1048576	16	4000
2026-01-05 01:08:30.02	287.88	55.59	-28.4	-29.0	15.7	1.50e-06	0	43	102	1048576	17	3855
2026-01-05 01:08:31.02	287.12	55.53	-28.4	-29.5	15.7	1.06e-03	0	43	102	1048576	16	4094
2026-01-05 01:08:32.03	286.36	55.45	-27.9	-28.2	16.4	1.71e-03	0	43	102	1048576	16	3754
2026-01-05 01:08:33.04	285.60	55.38	-27.1	-27.0	17.1	1.11e-04	0	44	102	1048576	15	3571
2026-01-05 01:08:34.04	284.85	55.29	-26.8	-26.8	17.5	1.93e-03	0	43	102	1048576	14	3594
2026-01-05 01:08:35.05	284.10	55.21	-27.1	-27.6	17.0	1.86e-03	0	44	102	1048576	14	3783
2026-01-05 01:08:36.07	283.35	55.11	-27.2	-27.8	17.0	0.00e+00	0	43	102	1048576	14	3853
2026-01-05 01:08:37.07	282.61	55.02	-27.1	-27.5	17.2	0.00e+00	0	44	102	1048576	14	3776
2026-01-05 01:08:38.08	281.88	54.92	-27.3	-28.1	16.9	1.49e-03	0	44	102	1048576	14	3909
2026-01-05 01:08:39.08	281.15	54.81	-27.7	-28.3	16.4	0.00e+00	0	43	102	1048576	15	3881
2026-01-05 01:08:40.09	280.43	54.70	-27.2	-27.2	17.1	0.00e+00	0	44	102	1048576	15	3608
2026-01-05 01:08:41.09	279.72	54.59	-27.5	-27.9	16.7	0.00e+00	0	43	102	1048576	15	3759
2026-01-05 01:08:42.10	279.00	54.47	-27.5	-27.9	16.7	3.65e-04	0	44	102	1048576	15	3778
2026-01-05 01:08:43.10	278.30	54.35	-27.5	-27.8	16.8	0.00e+00	0	43	102	1048576	15	3732
2026-01-05 01:08:44.11	277.60	54.22	-28.2	-28.9	16.0	0.00e+00	0	43	102	1048576	16	3919
2026-01-05 01:08:45.12	276.90	54.09	-28.6	-29.5	15.4	1.50e-06	0	43	102	1048576	17	4002
2026-01-05 01:08:46.13	276.22	53.96	-28.5	-29.1	15.6	0.00e+00	0	44	102	1048576	17	3889
2026-01-05 01:08:47.14	275.53	53.82	-28.7	-29.6	15.5	0.00e+00	0	44	102	1048576	17	3998
2026-01-05 01:08:48.15	274.86	53.67	-29.1	-30.1	15.0	7.00e-07	0	43	102	1048576	18	4038
2026-01-05 01:08:49.16	274.19	53.53	-29.3	-30.7	14.5	0.00e+00	0	44	102	1048576	18	4224
2026-01-05 01:08:50.17	273.53	53.38	-29.9	-31.1	13.4	9.10e-06	0	44	102	1048576	20	4170
2026-01-05 01:08:51.17	272.88	53.23	-29.8	-31.1	13.5	2.21e-05	0	43	102	1048576	20	4164
2026-01-05 01:08:52.18	272.23	53.07	-29.5	-30.7	14.1	1.10e-03	0	43	102	1048576	19	4140
2026-01-05 01:08:53.19	271.59	52.91	-29.8	-31.5	13.6	4.50e-06	0	43	102	1048576	19	4383
2026-01-05 01:08:54.20	270.95	52.75	-29.7	-30.8	13.6	1.14e-05	0	43	102	1048576	20	4102
2026-01-05 01:08:55.21	270.32	52.58	-29.3	-30.3	14.4	2.20e-06	0	43	102	1048576	19	4005
2026-01-05 01:08:56.21	269.71	52.42	-29.5	-30.6	14.1	0.00e+00	0	43	102	1048576	19	4091
2026-01-05 01:08:57.22	269.10	52.25	-30.2	-32.1	12.9	2.44e-05	0	43	102	1048576	20	4484
2026-01-05 01:08:58.22	268.50	52.07	-30.6	-32.7	12.1	1.24e-04	0	44	102	1048576	21	4609
2026-01-05 01:08:59.23	267.90	51.90	-30.2	-31.7	12.7	4.80e-05	0	43	102	1048576	21	4257
2026-01-05 01:09:00.23	267.31	51.72	-30.0	-31.0	13.2	1.52e-05	0	44	102	1048576	21	4061
2026-01-05 01:09:01.23	266.73	51.54	-29.6	-30.4	13.9	4.50e-06	0	43	102	1048576	20	3975
2026-01-05 01:09:02.24	266.15	51.36	-29.5	-30.8	14.0	1.50e-06	0	44	102	1048576	19	4175
2026-01-05 01:09:03.25	265.58	51.17	-29.9	-31.7	13.5	1.50e-06	0	43	102	1048576	19	4454
2026-01-05 01:09:04.25	265.03	50.98	-30.0	-31.6	12.3	6.25e-05	0	43	102	1048576	20	4334
2026-01-05 01:09:05.26	264.47	50.79	-30.3	-32.4	12.6	7.85e-05	0	44	102	1048576	20	4613
2026-01-05 01:09:06.27	263.92	50.60	-30.2	-32.1	11.9	2.29e-04	0	44	102	1048576	20	4492
2026-01-05 01:09:07.27	263.38	50.41	-29.8	-31.5	13.0	1.39e-04	0	43	102	1048576	19	4372
2026-01-05 01:09:08.28	262.85	50.21	-29.4	-30.5	14.2	3.00e-06	0	43	102	1048576	19	4093
2026-01-05 01:09:09.28	262.32	50.01	-29.9	-31.8	13.3	4.82e-04	0	43	102	1048576	19	4486
2026-01-05 01:09:10.29	261.80	49.81	-29.8	-31.7	13.4	1.90e-04	0	43	102	1048576	19	4434
2026-01-05 01:09:11.30	261.29	49.61	-29.8	-31.1	13.4	1.52e-05	0	43	102	1048576	20	4197
2026-01-05 01:09:12.31	260.78	49.41	-29.8	-31.5	13.5	2.17e-03	0	44	102	1048576	19	4391
2026-01-05 01:09:13.31	260.28	49.21	-30.1	-31.9	12.8	8.39e-05	0	43	102	1048576	20	4438
2026-01-05 01:09:14.32	259.79	49.00	-30.1	-31.8	13.0	6.02e-05	0	43	102	1048576	20	4394
2026-01-05 01:09:15.33	259.30	48.79	-30.2	-32.0	12.8	5.64e-05	0	43	102	1048576	20	4454
2026-01-05 01:09:16.33	258.82	48.59	-30.5	-32.5	12.1	2.47e-03	0	44	102	1048576	21	4533
2026-01-05 01:09:17.34	258.35	48.38	-30.4	-32.2	12.4	2.33e-04	0	43	102	1048576	21	4447
2026-01-05 01:09:18.34	257.88	48.17	-30.8	-33.1	11.9	9.53e-05	0	43	102	1048576	21	4701
2026-01-05 01:09:19.35	257.42	47.96	-30.8	-33.1	11.9	3.01e-03	0	44	102	1048576	21	4711
2026-01-05 01:09:20.36	256.96	47.74	-30.9	-33.3	11.8	3.26e-04	0	44	102	1048576	21	4793
2026-01-05 01:09:21.36	256.52	47.53	-31.7	-35.0	10.0	1.19e-03	0	44	102	1048576	23	5256
2026-01-05 01:09:22.37	256.08	47.32	-32.7	-38.2	6.8	1.00e-01	0	43	102	1048576	25	6826
2026-01-05 01:09:23.38	255.64	47.10	-33.0	-40.0	5.1	4.36e-01	0	44	102	1048576	26	8010
2026-01-05 01:09:24.38	255.21	46.89	-32.8	-39.0	6.1	3.46e-01	0	43	102	1048576	25	7361
2026-01-05 01:09:25.39	254.79	46.67	-32.4	-37.2	7.8	1.73e-01	0	43	102	1048576	24	6280
2026-01-05 01:09:26.39	254.37	46.46	-32.6	-38.0	6.8	1.54e-01	0	44	102	1048576	25	6683
2026-01-05 01:09:27.40	253.96	46.24	-32.2	-36.5	8.4	9.44e-02	0	44	102	1048576	24	5901
2026-01-05 01:09:28.41	253.55	46.02	-31.5	-34.5	10.1	2.15e-02	0	43	102	1048576	23	5082
2026-01-05 01:09:29.42	253.14	45.80	-31.1	-33.1	11.2	2.02e-03	0	44	102	1048576	23	4534
2026-01-05 01:09:30.42	252.75	45.59	-31.6	-34.6	10.2	4.49e-03	0	44	102	1048576	23	5113
2026-01-05 01:09:31.42	252.36	45.37	-31.3	-33.8	10.7	7.22e-03	0	43	102	1048576	23	4803
2026-01-05 01:09:32.43	251.98	45.15	-31.0	-32.8	11.5	1.59e-03	0	44	102	1048576	23	4413
2026-01-05 01:09:33.43	251.60	44.93	-30.1	-31.3	13.1	2.11e-03	0	44	102	1048576	21	4100
2026-01-05 01:09:34.44	251.22	44.71	-29.7	-30.6	13.8	1.80e-03	0	43	102	1048576	20	3998
2026-01-05 01:09:35.45	250.85	44.49	-29.4	-29.8	14.4	7.00e-07	0	44	102	1048576	20	3765
2026-01-05 01:09:36.45	250.49	44.27	-29.7	-31.0	14.0	1.75e-03	0	44	102	1048576	19	4201
2026-01-05 01:09:37.46	250.13	44.05	-30.1	-31.8	13.1	2.03e-03	0	44	102	1048576	20	4346
2026-01-05 01:09:38.47	249.78	43.83	-31.0	-33.4	11.3	2.78e-04	0	43	102	1048576	22	4728
2026-01-05 01:09:39.47	249.43	43.62	-31.0	-33.4	11.3	4.29e-03	0	43	102	1048576	22	4725
2026-01-05 01:09:40.48	249.08	43.39	-31.0	-33.2	11.4	4.45e-03	0	44	102	1048576	22	4661
2026-01-05 01:09:41.48	248.75	43.18	-30.9	-33.1	11.6	1.12e-03	0	43	102	1048576	22	4612
2026-01-05 01:09:42.48	248.41	42.96	-31.3	-34.1	10.8	6.42e-03	0	43	102	1048576	22	5000
2026-01-05 01:09:43.49	248.08	42.74	-31.8	-35.3	9.3	1.38e-02	0	43	102	1048576	23	5440
2026-01-05 01:09:44.50	247.75	42.52	-31.7	-34.8	9.5	2.84e-02	0	44	102	1048576	24	5121
2026-01-05 01:09:45.50	247.43	42.30	-31.4	-34.2	10.4	5.25e-03	0	44	102	1048576	23	4926
2026-01-05 01:09:46.50	247.12	42.09	-31.2	-33.3	11.0	7.91e-03	0	44	102	1048576	23	4612
2026-01-05 01:09:47.51	246.80	41.87	-31.4	-34.0	10.5	4.00e-03	0	44	102	1048576	23	4865
2026-01-05 01:09:48.52	246.49	41.65	-31.1	-33.7	11.2	5.55e-03	0	44	102	1048576	22	4827
2026-01-05 01:09:49.52	246.19	41.43	-30.8	-32.6	11.8	4.22e-03	0	44	102	1048576	22	4434
2026-01-05 01:09:50.53	245.89	41.21	-30.9	-33.0	11.5	5.80e-04	0	43	102	1048576	22	4590
2026-01-05 01:09:51.53	245.60	41.00	-31.5	-34.8	10.4	4.31e-03	0	44	102	1048576	22	5305
2026-01-05 01:09:52.54	245.30	40.78	-31.4	-34.5	10.6	2.98e-03	0	44	102	1048576	22	5167
2026-01-05 01:09:53.55	245.01	40.57	-31.7	-35.2	9.7	1.06e-02	0	43	102	1048576	23	5356
2026-01-05 01:09:54.55	244.73	40.35	-31.7	-35.3	9.6	1.22e-02	0	43	102	1048576	23	5420
2026-01-05 01:09:55.56	244.45	40.14	-31.8	-35.4	9.4	2.09e-02	0	44	102	1048576	23	5462
2026-01-05 01:09:56.56	244.17	39.92	-32.0	-36.0	8.7	2.62e-02	0	43	102	1048576	24	5666
2026-01-05 01:09:57.57	243.90	39.71	-32.0	-35.9	8.6	4.25e-02	0	43	102	1048576	24	5652
2026-01-05 01:09:58.57	243.63	39.50	-31.8	-35.0	9.3	3.52e-02	0	44	102	1048576	24	5233
2026-01-05 01:09:59.58	243.36	39.28	-31.4	-34.0	10.6	9.91e-03	0	43	102	1048576	23	4901
2026-01-05 01:10:00.58	243.10	39.07	-31.1	-33.8	11.0	4.45e-03	0	44	102	1048576	22	4878
2026-01-05 01:10:01.59	242.84	38.86	-31.0	-33.2	11.4	4.06e-03	0	44	102	1048576	22	4680
2026-01-05 01:10:02.60	242.58	38.65	-31.0	-33.3	11.4	1.30e-03	0	44	102	1048576	22	4699
2026-01-05 01:10:03.61	242.33	38.44	-31.1	-33.7	11.1	1.57e-03	0	44	102	1048576	22	4856
2026-01-05 01:10:04.61	242.08	38.23	-31.1	-33.7	11.0	3.38e-03	0	44	102	1048576	22	4864
2026-01-05 01:10:05.62	241.83	38.02	-31.2	-34.1	10.7	2.52e-03	0	43	102	1048576	22	5021
2026-01-05 01:10:06.62	241.59	37.82	-31.4	-34.5	10.5	3.39e-03	0	44	102	1048576	22	5182
2026-01-05 01:10:07.63	241.35	37.61	-31.8	-35.7	9.3	5.09e-03	0	44	102	1048576	23	5611
2026-01-05 01:10:08.63	241.11	37.40	-31.9	-35.8	9.1	2.29e-02	0	44	102	1048576	23	5677
2026-01-05 01:10:09.64	240.88	37.20	-31.7	-35.3	9.4	1.69e-02	0	43	102	1048576	23	5424
2026-01-05 01:10:10.65	240.65	36.99	-31.6	-35.0	9.6	1.45e-02	0	44	102	1048576	23	5298
2026-01-05 01:10:11.65	240.42	36.79	-31.8	-35.5	9.1	9.13e-03	0	44	102	1048576	23	5537
2026-01-05 01:10:12.66	240.19	36.58	-31.8	-35.8	9.0	2.72e-02	0	44	102	1048576	23	5656
2026-01-05 01:10:13.67	239.97	36.38	-31.9	-35.8	9.0	1.54e-02	0	43	102	1048576	23	5699
2026-01-05 01:10:14.67	239.75	36.18	-31.5	-34.4	10.0	1.12e-02	0	44	102	1048576	23	5057
2026-01-05 01:10:15.68	239.53	35.98	-31.5	-34.7	9.9	6.61e-03	0	44	102	1048576	23	5161
2026-01-05 01:10:16.68	239.32	35.78	-31.2	-33.5	10.7	5.04e-03	0	44	102	1048576	23	4696
2026-01-05 01:10:17.69	239.11	35.58	-31.1	-33.2	11.0	1.66e-03	0	43	102	1048576	23	4604
2026-01-05 01:10:18.70	238.90	35.38	-31.1	-33.6	10.9	4.24e-03	0	44	102	1048576	22	4840
2026-01-05 01:10:19.70	238.69	35.18	-31.3	-34.5	10.4	2.65e-03	0	44	102	1048576	22	5180
2026-01-05 01:10:20.70	238.49	34.98	-31.5	-35.0	10.0	4.56e-03	0	44	102	1048576	22	5409
2026-01-05 01:10:21.72	238.29	34.79	-31.8	-35.7	9.0	1.13e-02	0	44	102	1048576	23	5662
2026-01-05 01:10:22.73	238.09	34.59	-31.7	-35.4	9.3	1.99e-02	0	44	102	1048576	23	5493
2026-01-05 01:10:23.73	237.89	34.40	-31.4	-34.4	10.0	1.01e-02	0	44	102	1048576	23	5045
2026-01-05 01:10:24.74	237.70	34.20	-30.9	-33.1	11.4	3.16e-03	0	44	102	1048576	22	4627
2026-01-05 01:10:25.74	237.50	34.01	-30.6	-32.1	12.0	3.05e-04	0	44	102	1048576	22	4301
2026-01-05 01:10:26.75	237.31	33.82	-30.6	-32.3	11.9	1.85e-04	0	44	102	1048576	22	4344
2026-01-05 01:10:27.75	237.13	33.63	-30.4	-31.7	12.3	2.23e-04	0	44	102	1048576	22	4180
2026-01-05 01:10:28.76	236.94	33.43	-30.7	-32.5	11.7	2.73e-04	0	43	102	1048576	22	4430
2026-01-05 01:10:29.77	236.76	33.24	-30.7	-32.7	11.7	4.60e-04	0	44	102	1048576	22	4497
2026-01-05 01:10:30.78	236.58	33.05	-30.1	-32.7	10.9	1.90e-03	0	44	102	1048576	22	4882
2026-01-05 01:10:31.79	236.40	32.86	-30.9	-33.3	11.2	1.30e-03	0	44	102	1048576	22	4710
2026-01-05 01:10:32.79	236.22	32.68	-30.9	-33.7	11.0	1.16e-03	0	44	102	1048576	21	4957
2026-01-05 01:10:33.80	236.05	32.49	-30.9	-33.6	10.9	1.12e-03	0	44	102	1048576	21	4908
2026-01-05 01:10:34.80	235.87	32.31	-31.2	-34.1	10.6	1.69e-03	0	44	102	1048576	22	5028
2026-01-05 01:10:35.80	235.70	32.12	-31.2	-34.0	10.6	3.05e-03	0	44	102	1048576	22	5007
2026-01-05 01:10:36.81	235.53	31.94	-31.2	-34.1	10.7	4.30e-03	0	44	102	1048576	22	5015
2026-01-05 01:10:37.81	235.37	31.76	-31.2	-34.2	10.5	5.14e-03	0	44	102	1048576	22	5093
2026-01-05 01:10:38.82	235.20	31.57	-31.4	-34.8	10.1	5.03e-03	0	44	102	1048576	22	5311
2026-01-05 01:10:39.82	235.04	31.39	-31.5	-34.8	9.6	8.70e-03	0	43	102	1048576	23	5249
2026-01-05 01:10:40.83	234.88	31.21	-31.7	-35.5	9.1	9.27e-03	0	44	102	1048576	23	5575
2026-01-05 01:10:41.84	234.72	31.03	-31.8	-35.8	8.9	2.66e-02	0	44	102	1048576	23	5720
2026-01-05 01:10:42.85	234.56	30.85	-31.6	-35.1	9.4	1.95e-02	0	44	102	1048576	23	5382
2026-01-05 01:10:43.85	234.41	30.68	-31.5	-34.7	9.7	1.69e-02	0	44	102	1048576	23	5199
2026-01-05 01:10:44.85	234.25	30.50	-31.2	-34.1	10.3	6.44e-03	0	44	102	1048576	22	5054
2026-01-05 01:10:45.86	234.10	30.32	-30.9	-33.6	11.2	3.66e-03	0	44	102	1048576	21	4924
2026-01-05 01:10:46.86	233.95	30.15	-30.7	-33.1	11.7	6.87e-04	0	43	102	1048576	21	4743
2026-01-05 01:10:47.87	233.80	29.97	-30.8	-33.5	11.3	6.42e-04	0	44	102	1048576	21	4906
2026-01-05 01:10:48.88	233.65	29.80	-30.6	-32.7	11.9	2.25e-03	0	44	102	1048576	21	4599
2026-01-05 01:10:49.89	233.51	29.63	-30.6	-32.7	11.9	3.93e-04	0	44	102	1048576	21	4603
2026-01-05 01:10:50.90	233.36	29.45	-30.7	-33.2	11.5	9.26e-04	0	44	102	1048576	21	4796
2026-01-05 01:10:51.91	233.22	29.28	-30.8	-33.3	11.5	2.35e-03	0	43	102	1048576	21	4815
2026-01-05 01:10:52.92	233.08	29.11	-30.9	-33.8	11.1	1.28e-03	0	43	102	1048576	21	5003
2026-01-05 01:10:53.93	232.94	28.94	-31.3	-34.6	10.2	3.66e-03	0	43	102	1048576	22	5241
2026-01-05 01:10:54.94	232.80	28.77	-31.3	-34.7	10.1	6.95e-03	0	43	102	1048576	22	5297
2026-01-05 01:10:55.94	232.66	28.60	-31.5	-34.8	9.6	9.82e-03	0	43	102	1048576	23	5269
2026-01-05 01:10:56.94	232.53	28.44	-31.5	-34.8	9.5	2.00e-02	0	44	102	1048576	23	5284
2026-01-05 01:10:57.95	232.39	28.27	-31.4	-34.7	9.9	1.07e-02	0	44	102	1048576	22	5314
2026-01-05 01:10:58.95	232.26	28.11	-31.1	-33.9	10.6	3.53e-03	0	44	102	1048576	22	4977
2026-01-05 01:10:59.96	232.13	27.94	-30.7	-33.2	11.5	2.83e-03	0	44	102	1048576	21	4778
2026-01-05 01:11:00.96	232.00	27.78	-30.4	-32.3	12.1	2.26e-03	0	43	102	1048576	21	4461
2026-01-05 01:11:01.97	231.87	27.62	-30.1	-31.4	12.7	1.05e-04	0	43	102	1048576	21	4172
2026-01-05 01:11:02.98	231.74	27.45	-30.0	-31.7	12.8	2.14e-03	0	44	102	1048576	20	4366
2026-01-05 01:11:03.98	231.62	27.29	-30.0	-31.5	13.0	2.08e-03	0	44	102	1048576	20	4311
2026-01-05 01:11:04.98	231.49	27.13	-29.9	-31.2	13.1	4.27e-05	0	44	102	1048576	20	4203
2026-01-05 01:11:05.98	231.37	26.97	-30.0	-31.9	13.1	1.90e-03	0	44	102	1048576	19	4521
2026-01-05 01:11:06.99	231.25	26.81	-30.0	-31.5	13.0	1.74e-03	0	44	102	1048576	20	4306
2026-01-05 01:11:07.99	231.13	26.66	-30.2	-32.1	12.5	8.85e-05	0	44	102	1048576	20	4513
2026-01-05 01:11:09.00	231.01	26.50	-29.9	-31.4	13.0	1.42e-03	0	44	102	1048576	20	4260
2026-01-05 01:11:10.00	230.89	26.34	-29.9	-31.2	13.1	1.20e-03	0	44	102	1048576	20	4212
2026-01-05 01:11:11.01	230.77	26.19	-29.9	-31.2	13.1	2.67e-05	0	43	102	1048576	20	4207
2026-01-05 01:11:12.01	230.66	26.03	-30.0	-31.6	12.9	5.11e-05	0	44	102	1048576	20	4334
2026-01-05 01:11:13.03	230.54	25.88	-30.1	-32.0	12.6	9.78e-04	0	44	102	1048576	20	4461
2026-01-05 01:11:14.03	230.43	25.72	-30.4	-32.8	12.1	1.80e-04	0	44	102	1048576	20	4731
2026-01-05 01:11:15.04	230.32	25.57	-30.4	-32.7	12.1	1.86e-03	0	44	102	1048576	20	4717
2026-01-05 01:11:16.05	230.20	25.42	-30.5	-33.0	11.9	1.80e-03	0	44	102	1048576	20	4818
2026-01-05 01:11:17.05	230.09	25.27	-30.3	-32.4	12.2	2.47e-04	0	43	102	1048576	20	4614
2026-01-05 01:11:18.07	229.98	25.11	-30.0	-31.8	12.7	1.62e-03	0	43	102	1048576	20	4390
2026-01-05 01:11:19.07	229.88	24.96	-29.9	-31.3	13.0	4.80e-05	0	44	102	1048576	20	4248
2026-01-05 01:11:20.08	229.77	24.82	-29.8	-31.1	13.2	1.75e-05	0	44	102	1048576	20	4166
2026-01-05 01:11:21.09	229.66	24.67	-30.0	-32.0	13.0	1.35e-03	0	43	102	1048576	19	4535
2026-01-05 01:11:22.10	229.56	24.52	-29.8	-31.4	13.3	1.67e-05	0	43	102	1048576	19	4362
2026-01-05 01:11:23.11	229.45	24.37	-29.9	-31.8	13.1	3.58e-05	0	43	102	1048576	19	4475
2026-01-05 01:11:24.11	229.35	24.23	-29.9	-31.9	13.0	1.87e-03	0	44	102	1048576	19	4519
2026-01-05 01:11:25.12	229.25	24.08	-30.0	-31.6	12.8	6.10e-05	0	44	102	1048576	20	4334
2026-01-05 01:11:26.13	229.15	23.93	-30.1	-32.0	12.5	1.24e-04	0	44	102	1048576	20	4479
2026-01-05 01:11:27.14	229.04	23.79	-30.0	-31.6	12.8	1.72e-03	0	44	102	1048576	20	4353
2026-01-05 01:11:28.14	228.95	23.65	-29.9	-31.5	12.9	1.72e-03	0	44	102	1048576	20	4308
2026-01-05 01:11:29.15	228.85	23.50	-30.0	-31.6	12.8	2.22e-04	0	44	102	1048576	20	4347
2026-01-05 01:11:30.15	228.75	23.36	-30.1	-31.9	12.6	5.72e-05	0	44	102	1048576	20	4432
2026-01-05 01:11:31.16	228.65	23.22	-30.0	-31.6	12.8	6.66e-04	0	44	102	1048576	20	4352
2026-01-05 01:11:32.17	228.56	23.08	-30.3	-32.5	12.2	3.04e-04	0	44	102	1048576	20	4636
2026-01-05 01:11:33.17	228.46	22.94	-30.4	-32.8	12.0	2.45e-04	0	44	102	1048576	20	4746
2026-01-05 01:11:34.18	228.37	22.80	-30.7	-33.2	11.4	4.87e-04	0	44	102	1048576	21	4796
2026-01-05 01:11:35.19	228.28	22.66	-30.8	-33.6	11.1	1.49e-03	0	44	102	1048576	21	4972
2026-01-05 01:11:36.20	228.18	22.52	-31.1	-33.9	10.5	3.04e-03	0	43	102	1048576	22	4994
2026-01-05 01:11:37.20	228.09	22.39	-31.1	-34.0	10.4	3.60e-03	0	44	102	1048576	22	5043
2026-01-05 01:11:38.21	228.00	22.25	-31.1	-33.9	10.5	3.62e-03	0	44	102	1048576	22	5015
2026-01-05 01:11:39.22	227.91	22.11	-31.0	-33.6	10.7	2.84e-03	0	44	102	1048576	22	4869
2026-01-05 01:11:40.23	227.82	21.98	-30.9	-33.8	10.8	2.88e-03	0	43	102	1048576	21	5064
2026-01-05 01:11:41.23	227.73	21.84	-30.7	-33.2	11.2	1.53e-03	0	44	102	1048576	21	4828
2026-01-05 01:11:42.24	227.65	21.71	-30.4	-32.4	11.8	6.48e-04	0	43	102	1048576	21	4540
2026-01-05 01:11:43.25	227.56	21.57	-30.4	-33.0	11.8	4.65e-04	0	43	102	1048576	20	4817
2026-01-05 01:11:44.25	227.47	21.44	-30.4	-32.9	11.9	4.10e-04	0	44	102	1048576	20	4793
2026-01-05 01:11:45.26	227.39	21.31	-30.3	-32.5	12.1	4.07e-04	0	44	102	1048576	20	4666
2026-01-05 01:11:46.26	227.31	21.18	-30.3	-32.7	12.0	3.20e-04	0	43	102	1048576	20	4719
2026-01-05 01:11:47.26	227.22	21.05	-30.5	-32.8	11.5	6.93e-04	0	43	102	1048576	21	4688
2026-01-05 01:11:48.27	227.14	20.92	-30.7	-33.2	11.3	1.23e-03	0	43	102	1048576	21	4819
2026-01-05 01:11:49.27	227.06	20.79	-30.7	-33.2	11.2	1.29e-03	0	44	102	1048576	21	4815
2026-01-05 01:11:50.28	226.98	20.66	-30.7	-33.5	11.0	2.28e-03	0	43	102	1048576	21	4922
2026-01-05 01:11:51.28	226.90	20.53	-30.9	-33.8	10.8	2.10e-03	0	44	102	1048576	21	5069
2026-01-05 01:11:52.29	226.81	20.40	-30.6	-33.0	11.3	1.30e-03	0	44	102	1048576	21	4749
2026-01-05 01:11:53.30	226.74	20.27	-30.6	-33.0	11.2	1.35e-03	0	44	102	1048576	21	4748
2026-01-05 01:11:54.31	226.66	20.15	-30.5	-32.8	11.4	1.31e-03	0	44	102	1048576	21	4686
2026-01-05 01:11:55.32	226.58	20.02	-30.5	-32.8	11.5	7.33e-04	0	43	102	1048576	21	4691
2026-01-05 01:11:56.33	226.50	19.89	-30.6	-33.1	11.3	1.25e-03	0	43	102	1048576	21	4792
2026-01-05 01:11:57.34	226.42	19.77	-30.7	-33.4	11.0	2.17e-03	0	43	102	1048576	21	4919
2026-01-05 01:11:58.34	226.35	19.64	-30.6	-32.9	11.4	1.29e-03	0	44	102	1048576	21	4723
2026-01-05 01:11:59.35	226.27	19.52	-30.5	-32.8	11.4	1.21e-03	0	43	102	1048576	21	4679
2026-01-05 01:12:00.36	226.20	19.40	-30.6	-32.9	11.3	1.48e-03	0	44	102	1048576	21	4731
2026-01-05 01:12:01.36	226.12	19.27	-30.5	-32.6	11.6	8.44e-04	0	44	102	1048576	21	4624
2026-01-05 01:12:02.37	226.05	19.15	-30.5	-32.7	11.5	3.22e-03	0	43	102	1048576	21	4658
2026-01-05 01:12:03.38	225.98	19.03	-30.5	-32.8	11.5	1.24e-03	0	44	102	1048576	21	4673
2026-01-05 01:12:04.39	225.90	18.91	-30.6	-33.0	11.2	7.99e-04	0	44	102	1048576	21	4775
2026-01-05 01:12:05.40	225.83	18.79	-30.9	-33.9	10.6	6.54e-03	0	43	102	1048576	21	5122
2026-01-05 01:12:06.41	225.76	18.67	-30.5	-32.8	11.4	1.79e-03	0	43	102	1048576	21	4687
2026-01-05 01:12:07.41	225.69	18.55	-30.3	-32.6	11.9	6.54e-04	0	44	102	1048576	20	4717
2026-01-05 01:12:08.41	225.62	18.43	-30.4	-33.0	11.6	2.99e-03	0	44	102	1048576	20	4845
2026-01-05 01:12:09.42	225.55	18.31	-30.5	-32.8	11.4	3.78e-03	0	44	102	1048576	21	4698
2026-01-05 01:12:10.42	225.48	18.19	-30.4	-32.9	11.7	8.22e-04	0	44	102	1048576	20	4813
2026-01-05 01:12:11.43	225.41	18.07	-30.5	-33.3	11.4	6.77e-04	0	44	102	1048576	20	4970
2026-01-05 01:12:12.43	225.35	17.96	-30.6	-33.2	11.1	4.45e-03	0	44	102	1048576	21	4859
2026-01-05 01:12:13.44	225.28	17.84	-30.7	-33.3	11.1	1.59e-03	0	44	102	1048576	21	4890
2026-01-05 01:12:14.44	225.21	17.73	-30.8	-33.9	10.6	2.32e-03	0	44	102	1048576	21	5125
2026-01-05 01:12:15.45	225.15	17.61	-30.8	-33.6	10.7	6.13e-03	0	44	102	1048576	21	5018
2026-01-05 01:12:16.46	225.08	17.50	-30.8	-33.7	10.7	3.28e-03	0	44	102	1048576	21	5040
2026-01-05 01:12:17.46	225.02	17.38	-30.9	-34.1	10.5	5.14e-03	0	44	102	1048576	21	5205
2026-01-05 01:12:18.47	224.95	17.27	-31.0	-34.1	10.1	8.81e-03	0	44	102	1048576	22	5099
2026-01-05 01:12:19.48	224.89	17.15	-31.1	-34.5	9.8	1.11e-02	0	44	102	1048576	22	5271
2026-01-05 01:12:20.48	224.82	17.04	-31.0	-34.0	10.2	1.01e-02	0	44	102	1048576	22	5060
2026-01-05 01:12:21.49	224.76	16.93	-30.8	-33.9	10.5	6.72e-03	0	44	102	1048576	21	5144
2026-01-05 01:12:22.49	224.70	16.82	-30.8	-34.0	10.5	3.95e-03	0	44	102	1048576	21	5162
2026-01-05 01:12:23.50	224.63	16.70	-30.9	-34.3	10.1	7.20e-03	0	44	102	1048576	21	5289
2026-01-05 01:12:24.50	224.57	16.59	-30.9	-34.2	10.3	4.68e-03	0	43	102	1048576	21	5258
2026-01-05 01:12:25.51	224.51	16.48	-30.9	-34.1	10.3	4.68e-03	0	44	102	1048576	21	5230
2026-01-05 01:12:26.52	224.45	16.37	-30.9	-33.7	10.3	7.13e-03	0	44	102	1048576	22	4974
2026-01-05 01:12:27.53	224.39	16.26	-30.9	-34.1	10.3	8.52e-03	0	44	102	1048576	21	5223
2026-01-05 01:12:28.53	224.33	16.15	-30.8	-33.8	10.5	4.60e-03	0	43	102	1048576	21	5086
2026-01-05 01:12:29.54	224.27	16.05	-30.9	-34.2	10.2	7.43e-03	0	44	102	1048576	21	5253
2026-01-05 01:12:30.54	224.21	15.94	-30.8	-34.0	10.4	8.26e-03	0	44	102	1048576	21	5187
2026-01-05 01:12:31.55	224.15	15.83	-30.7	-33.6	10.6	4.09e-03	0	43	102	1048576	21	5006
2026-01-05 01:12:32.55	224.10	15.72	-30.9	-34.2	10.2	7.10e-03	0	44	102	1048576	21	5260
2026-01-05 01:12:33.56	224.04	15.62	-30.9	-34.2	10.2	9.48e-03	0	44	102	1048576	21	5263
2026-01-05 01:12:34.57	223.98	15.51	-30.8	-34.0	10.3	5.29e-03	0	44	102	1048576	21	5195
2026-01-05 01:12:35.57	223.92	15.40	-30.7	-33.6	10.6	5.95e-03	0	44	102	1048576	21	5046
2026-01-05 01:12:36.58	223.87	15.30	-30.8	-33.8	10.5	5.96e-03	0	43	102	1048576	21	5096
2026-01-05 01:12:37.58	223.81	15.19	-30.8	-33.8	10.4	3.95e-03	0	44	102	1048576	21	5118
2026-01-05 01:12:38.59	223.76	15.09	-30.9	-34.3	10.1	5.60e-03	0	44	102	1048576	21	5322
2026-01-05 01:12:39.60	223.70	14.98	-30.8	-33.6	10.2	1.20e-02	0	44	102	1048576	22	4921
2026-01-05 01:12:40.61	223.65	14.88	-30.8	-33.5	10.3	5.88e-03	0	43	102	1048576	22	4912
2026-01-05 01:12:41.61	223.59	14.78	-30.7	-33.7	10.5	4.79e-03	0	44	102	1048576	21	5066
2026-01-05 01:12:42.61	223.54	14.67	-30.7	-33.7	10.5	2.67e-03	0	43	102	1048576	21	5088
2026-01-05 01:12:43.62	223.49	14.57	-30.9	-34.2	10.1	5.19e-03	0	44	102	1048576	21	5296
2026-01-05 01:12:44.63	223.43	14.47	-30.9	-34.3	10.1	8.94e-03	0	43	102	1048576	21	5325
2026-01-05 01:12:45.64	223.38	14.36	-30.7	-33.8	10.4	5.17e-03	0	44	102	1048576	21	5116
2026-01-05 01:12:46.65	223.33	14.26	-30.9	-34.3	10.0	7.22e-03	0	44	102	1048576	21	5344
2026-01-05 01:12:47.65	223.27	14.16	-30.8	-34.1	10.1	1.04e-02	0	43	102	1048576	21	5247
2026-01-05 01:12:48.65	223.22	14.06	-31.0	-34.0	9.9	9.55e-03	0	44	102	1048576	22	5127
2026-01-05 01:12:49.66	223.17	13.96	-31.2	-34.8	9.2	1.63e-02	0	43	102	1048576	22	5461
2026-01-05 01:12:50.66	223.12	13.86	-31.2	-35.0	9.0	2.48e-02	0	44	102	1048576	22	5561
2026-01-05 01:12:51.67	223.07	13.76	-31.1	-34.6	9.4	1.70e-02	0	44	102	1048576	22	5372
2026-01-05 01:12:52.68	223.02	13.66	-31.0	-34.3	9.4	1.53e-02	0	44	102	1048576	22	5278
2026-01-05 01:12:53.69	222.97	13.56	-31.0	-34.3	9.5	1.42e-02	0	44	102	1048576	22	5267
2026-01-05 01:12:54.70	222.92	13.46	-31.1	-34.6	9.4	1.54e-02	0	43	102	1048576	22	5373
2026-01-05 01:12:55.70	222.87	13.37	-31.0	-34.4	9.5	1.46e-02	0	44	102	1048576	22	5301
2026-01-05 01:12:56.71	222.82	13.27	-31.1	-34.8	9.1	1.52e-02	0	44	102	1048576	22	5499
2026-01-05 01:12:57.72	222.77	13.17	-31.0	-34.4	9.4	2.69e-02	0	44	102	1048576	22	5331
2026-01-05 01:12:58.72	222.73	13.08	-30.9	-34.7	9.6	1.43e-02	0	44	102	1048576	21	5527
2026-01-05 01:12:59.73	222.68	12.98	-30.7	-33.7	10.3	6.95e-03	0	44	102	1048576	21	5109
2026-01-05 01:13:00.74	222.63	12.88	-30.7	-33.8	10.2	5.33e-03	0	44	102	1048576	21	5160
2026-01-05 01:13:01.75	222.58	12.79	-30.8	-34.1	10.0	8.24e-03	0	44	102	1048576	21	5272
2026-01-05 01:13:02.75	222.54	12.69	-30.9	-34.4	9.8	8.96e-03	0	44	102	1048576	21	5424
2026-01-05 01:13:03.76	222.49	12.60	-31.1	-34.8	9.1	1.24e-02	0	44	102	1048576	22	5502
2026-01-05 01:13:04.76	222.44	12.50	-31.1	-34.8	9.1	2.53e-02	0	44	102	1048576	22	5492
2026-01-05 01:13:05.78	222.40	12.41	-31.1	-34.7	9.2	2.19e-02	0	44	102	1048576	22	5465
2026-01-05 01:13:06.78	222.35	12.31	-31.3	-35.5	8.6	2.85e-02	0	44	102	1048576	22	5834
2026-01-05 01:13:07.78	222.31	12.22	-31.3	-35.5	8.6	4.10e-02	0	44	102	1048576	22	5845
2026-01-05 01:13:08.79	222.26	12.12	-31.2	-35.4	8.7	3.70e-02	0	44	102	1048576	22	5782
2026-01-05 01:13:09.80	222.22	12.03	-31.2	-35.3	8.7	3.35e-02	0	44	102	1048576	22	5747
2026-01-05 01:13:10.81	222.17	11.94	-31.3	-35.5	8.2	4.24e-02	0	44	102	1048576	22	5872
2026-01-05 01:13:11.81	222.13	11.85	-31.3	-35.5	8.3	4.82e-02	0	44	102	1048576	22	5857
2026-01-05 01:13:12.82	222.08	11.75	-31.4	-36.0	8.1	4.50e-02	0	44	102	1048576	22	6124
2026-01-05 01:13:13.83	222.04	11.66	-31.4	-35.9	8.1	6.33e-02	0	44	102	1048576	22	6090
2026-01-05 01:13:14.84	222.00	11.57	-31.4	-36.0	8.1	6.31e-02	0	44	102	1048576	22	6122
2026-01-05 01:13:15.84	221.96	11.48	-31.5	-36.6	7.6	7.73e-02	0	44	102	1048576	22	6463
2026-01-05 01:13:16.85	221.91	11.39	-31.4	-36.1	7.9	9.65e-02	0	43	102	1048576	22	6220
2026-01-05 01:13:17.86	221.87	11.30	-31.5	-36.2	7.5	8.82e-02	0	44	102	1048576	23	6171
2026-01-05 01:13:18.85	221.83	11.21	-31.5	-36.1	7.6	9.23e-02	0	44	102	1048576	23	6103
2026-01-05 01:13:19.86	221.79	11.12	-31.5	-36.3	7.4	9.71e-02	0	44	102	1048576	23	6211
2026-01-05 01:13:20.86	221.75	11.03	-31.5	-36.6	7.6	1.04e-01	0	44	102	1048576	22	6461
2026-01-05 01:13:21.87	221.70	10.94	-31.5	-36.1	7.5	9.44e-02	0	44	102	1048576	23	6127
2026-01-05 01:13:22.88	221.66	10.85	-31.6	-36.5	7.3	1.10e-01	0	44	102	1048576	23	6328
2026-01-05 01:13:23.89	221.62	10.76	-31.5	-36.2	7.4	1.28e-01	0	44	102	1048576	23	6189
2026-01-05 01:13:24.90	221.58	10.67	-31.3	-35.2	8.2	7.48e-02	0	44	102	1048576	23	5653
2026-01-05 01:13:25.91	221.54	10.59	-31.1	-34.9	8.8	3.86e-02	0	44	102	1048576	22	5589
2026-01-05 01:13:26.90	221.50	10.50	-31.0	-35.0	9.1	2.64e-02	0	44	102	1048576	21	5708
2026-01-05 01:13:27.91	221.46	10.41	-31.0	-34.6	9.0	2.43e-02	0	44	102	1048576	22	5455
2026-01-05 01:13:28.92	221.42	10.32	-31.1	-34.9	8.8	3.44e-02	0	44	102	1048576	22	5606
2026-01-05 01:13:29.92	221.38	10.24	-31.0	-35.0	9.0	3.12e-02	0	44	102	1048576	21	5744
2026-01-05 01:13:30.92	221.34	10.15	-31.0	-34.6	9.0	2.81e-02	0	44	102	1048576	22	5441
2026-01-05 01:13:31.93	221.31	10.07	-30.9	-34.9	9.1	2.50e-02	0	44	102	1048576	21	5717
2026-01-05 01:13:32.93	221.27	9.98	-31.0	-34.7	8.9	2.45e-02	0	44	102	1048576	22	5505
2026-01-05 01:13:33.93	221.23	9.89	-30.9	-34.5	9.1	2.64e-02	0	44	102	1048576	22	5411
2026-01-05 01:13:34.93	221.19	9.81	-30.8	-34.5	9.4	1.61e-02	0	44	102	1048576	21	5491
2026-01-05 01:13:35.94	221.15	9.72	-30.8	-34.7	9.2	1.93e-02	0	44	102	1048576	21	5602
2026-01-05 01:13:36.95	221.12	9.64	-30.9	-34.8	9.1	1.76e-02	0	44	102	1048576	21	5645
2026-01-05 01:13:37.95	221.08	9.56	-31.1	-35.1	8.5	3.72e-02	0	44	102	1048576	22	5709
2026-01-05 01:13:38.96	221.04	9.47	-31.0	-34.7	8.8	4.05e-02	0	44	102	1048576	22	5535
2026-01-05 01:13:39.97	221.01	9.39	-30.8	-34.2	9.2	2.30e-02	0	44	102	1048576	22	5280
2026-01-05 01:13:40.97	220.97	9.30	-30.7	-34.2	9.5	1.57e-02	0	44	102	1048576	21	5389
2026-01-05 01:13:41.98	220.93	9.22	-30.8	-34.5	9.3	1.77e-02	0	44	102	1048576	21	5512
2026-01-05 01:13:42.99	220.90	9.14	-30.7	-34.4	9.4	1.82e-02	0	44	102	1048576	21	5469
2026-01-05 01:13:44.00	220.86	9.05	-30.8	-34.8	9.0	1.97e-02	0	44	102	1048576	21	5673
2026-01-05 01:13:45.00	220.82	8.97	-30.8	-34.6	9.2	2.16e-02	0	44	102	1048576	21	5584
2026-01-05 01:13:46.00	220.79	8.89	-30.8	-34.7	9.1	2.28e-02	0	44	102	1048576	21	5642
2026-01-05 01:13:47.01	220.75	8.81	-30.8	-34.5	9.2	2.44e-02	0	44	102	1048576	21	5555
2026-01-05 01:13:48.02	220.72	8.72	-30.8	-34.8	9.0	2.14e-02	0	44	102	1048576	21	5668
2026-01-05 01:13:49.02	220.68	8.64	-30.9	-35.1	8.7	2.83e-02	0	44	102	1048576	21	5844
2026-01-05 01:13:50.03	220.65	8.56	-30.7	-34.5	9.2	3.51e-02	0	44	102	1048576	21	5564
2026-01-05 01:13:51.04	220.61	8.48	-30.7	-34.2	9.4	2.06e-02	0	43	102	1048576	21	5414
2026-01-05 01:13:52.03	220.58	8.40	-30.7	-34.2	9.4	1.48e-02	0	44	102	1048576	21	5402
2026-01-05 01:13:53.04	220.55	8.32	-30.7	-34.3	9.3	1.67e-02	0	44	102	1048576	21	5479
2026-01-05 01:13:54.04	220.51	8.24	-30.8	-34.7	9.0	2.00e-02	0	44	102	1048576	21	5654
2026-01-05 01:13:55.05	220.48	8.16	-30.6	-34.2	9.4	1.93e-02	0	44	102	1048576	21	5421
2026-01-05 01:13:56.06	220.45	8.08	-30.7	-34.3	9.2	2.09e-02	0	44	102	1048576	21	5460
2026-01-05 01:13:57.06	220.41	8.00	-30.6	-34.0	9.5	2.02e-02	0	44	102	1048576	21	5316
2026-01-05 01:13:58.07	220.38	7.92	-30.6	-34.2	9.4	1.63e-02	0	44	102	1048576	21	5405
2026-01-05 01:13:59.07	220.35	7.84	-30.7	-34.5	9.1	2.23e-02	0	44	102	1048576	21	5552
2026-01-05 01:14:00.08	220.31	7.76	-30.6	-34.2	9.3	1.92e-02	0	44	102	1048576	21	5418
2026-01-05 01:14:01.09	220.28	7.68	-30.6	-34.2	9.3	1.80e-02	0	44	102	1048576	21	5456
2026-01-05 01:14:02.09	220.25	7.61	-30.7	-34.4	9.1	2.21e-02	0	44	102	1048576	21	5540
2026-01-05 01:14:03.09	220.22	7.53	-30.6	-34.2	9.3	1.90e-02	0	44	102	1048576	21	5432
2026-01-05 01:14:04.10	220.19	7.45	-30.5	-33.8	9.6	1.68e-02	0	44	102	1048576	21	5271
2026-01-05 01:14:05.11	220.15	7.37	-30.5	-33.8	9.6	1.42e-02	0	44	102	1048576	21	5243
2026-01-05 01:14:06.12	220.12	7.29	-30.6	-34.1	9.4	1.49e-02	0	43	102	1048576	21	5375
2026-01-05 01:14:07.13	220.09	7.22	-30.6	-34.0	9.4	1.58e-02	0	44	102	1048576	21	5365
2026-01-05 01:14:08.13	220.06	7.14	-30.6	-34.1	9.4	1.50e-02	0	43	102	1048576	21	5395
2026-01-05 01:14:09.14	220.03	7.06	-32.6	-44.8	3.8	1.49e+00	0	44	104	1048576	25	14692
2026-01-05 01:14:10.15	220.00	6.99	-32.9	-45.6	3.8	1.49e+00	0	44	104	1048576	25	15410

#Closed at: 2026-01-05 01:14:11
#Recorded file [1 MB]: D:/data/31010_260105_040629.dat