passes_logs/2026/01/05/R2M6_AANII_01/R2M6_AANII_01__20260105_075757_NOAA_20_JPSS-1_rec.log

#Pass ID: 20260105_075757_NOAA 20 (JPSS-1)
#Satellite: NOAA 20 (JPSS-1)
#Configuration: NOAA 20
#almurnet v.1.7.20240730
#Start time: 2026-01-05 07:57:59

#Version: 2.2.20231116
#Station: R2M6_AANII_01
#Location: 30.233357 lon 59.946436 lat
#TLE: 1 43013U 17073A   26004.47528369  .00000132  00000+0  83671-4 0  9999
#TLE: 2 43013  98.7626 305.5264 0001854  54.5883 305.5466 14.19533142421242

#Time	Az	El	Level	Level2	SNR	BER	BlckErr	Temp	State	Recorded	gain1	gain2
2026-01-05 07:57:59.63	86.85	7.10	-31.4	-41.4	3.9	1.48e+00	0	41	0	0	24	11373
2026-01-05 07:58:00.62	86.75	7.15	-31.3	-40.4	4.2	1.43e+00	0	41	104	0	23	10252
2026-01-05 07:58:01.62	86.64	7.21	-31.2	-39.6	5.2	7.16e-01	0	41	0	0	23	9511
2026-01-05 07:58:02.63	86.52	7.27	-31.1	-39.2	5.4	5.57e-01	0	41	102	1048576	23	9063
2026-01-05 07:58:03.63	86.41	7.33	-31.1	-38.7	5.6	4.66e-01	0	41	102	1048576	23	8684
2026-01-05 07:58:04.64	86.30	7.39	-31.1	-38.5	5.8	4.17e-01	0	41	102	1048576	23	8524
2026-01-05 07:58:05.65	86.19	7.44	-31.1	-38.5	5.8	3.92e-01	0	41	102	1048576	23	8457
2026-01-05 07:58:06.66	86.07	7.50	-31.1	-38.5	5.8	3.90e-01	0	41	102	1048576	23	8474
2026-01-05 07:58:07.67	85.96	7.56	-31.0	-38.0	6.1	3.68e-01	0	41	102	1048576	23	8084
2026-01-05 07:58:08.68	85.85	7.62	-30.8	-37.1	6.8	2.52e-01	0	41	102	1048576	23	7407
2026-01-05 07:58:09.69	85.73	7.68	-30.7	-36.8	7.4	1.30e-01	0	41	102	1048576	22	7248
2026-01-05 07:58:10.69	85.62	7.73	-30.6	-36.1	8.0	8.28e-02	0	41	102	1048576	22	6802
2026-01-05 07:58:11.70	85.50	7.79	-30.4	-35.5	8.5	5.79e-02	0	41	102	1048576	22	6439
2026-01-05 07:58:12.70	85.39	7.85	-30.3	-34.9	8.9	2.90e-02	0	41	102	1048576	22	6108
2026-01-05 07:58:13.71	85.27	7.91	-30.3	-35.5	8.8	2.57e-02	0	41	102	1048576	21	6562
2026-01-05 07:58:14.72	85.15	7.97	-30.4	-35.8	8.6	3.77e-02	0	41	102	1048576	21	6703
2026-01-05 07:58:15.73	85.03	8.03	-30.4	-35.9	8.6	3.93e-02	0	41	102	1048576	21	6751
2026-01-05 07:58:16.74	84.92	8.08	-30.4	-35.8	8.7	3.79e-02	0	41	102	1048576	21	6688
2026-01-05 07:58:17.74	84.80	8.14	-30.5	-36.1	8.5	3.65e-02	0	41	102	1048576	21	6893
2026-01-05 07:58:18.75	84.68	8.20	-30.4	-36.0	8.5	6.08e-02	0	41	102	1048576	21	6810
2026-01-05 07:58:19.76	84.56	8.26	-30.4	-35.8	8.6	4.02e-02	0	41	102	1048576	21	6724
2026-01-05 07:58:20.77	84.44	8.32	-30.4	-35.8	8.6	3.65e-02	0	41	102	1048576	21	6733
2026-01-05 07:58:21.77	84.32	8.38	-30.4	-35.6	8.8	3.61e-02	0	41	102	1048576	21	6591
2026-01-05 07:58:22.78	84.20	8.43	-30.4	-35.8	8.7	2.98e-02	0	41	102	1048576	21	6688
2026-01-05 07:58:23.79	84.08	8.49	-30.3	-35.5	8.9	3.50e-02	0	41	102	1048576	21	6553
2026-01-05 07:58:24.80	83.96	8.55	-30.2	-35.0	9.3	2.41e-02	0	41	102	1048576	21	6272
2026-01-05 07:58:25.81	83.83	8.61	-30.1	-34.5	9.7	1.28e-02	0	41	102	1048576	21	6008
2026-01-05 07:58:26.81	83.71	8.67	-30.0	-34.3	9.9	9.90e-03	0	42	102	1048576	21	5901
2026-01-05 07:58:27.82	83.59	8.73	-30.0	-34.1	10.1	7.50e-03	0	41	102	1048576	21	5793
2026-01-05 07:58:28.82	83.46	8.78	-30.0	-34.2	10.0	7.67e-03	0	42	102	1048576	21	5835
2026-01-05 07:58:29.83	83.34	8.84	-30.0	-34.0	10.2	6.85e-03	0	41	102	1048576	21	5727
2026-01-05 07:58:30.84	83.22	8.90	-30.1	-34.3	10.0	6.66e-03	0	42	102	1048576	21	5883
2026-01-05 07:58:31.85	83.09	8.96	-30.1	-34.4	9.9	8.93e-03	0	42	102	1048576	21	5902
2026-01-05 07:58:32.86	82.96	9.02	-30.1	-34.5	9.9	9.42e-03	0	42	102	1048576	21	5983
2026-01-05 07:58:33.86	82.84	9.08	-30.2	-34.8	9.6	1.18e-02	0	42	102	1048576	21	6141
2026-01-05 07:58:34.87	82.71	9.14	-30.1	-34.6	9.8	1.35e-02	0	42	102	1048576	21	6022
2026-01-05 07:58:35.87	82.58	9.19	-30.1	-34.5	9.9	9.39e-03	0	42	102	1048576	21	5953
2026-01-05 07:58:36.88	82.46	9.25	-30.1	-34.5	9.8	9.76e-03	0	42	102	1048576	21	5975
2026-01-05 07:58:37.89	82.33	9.31	-30.1	-34.6	9.8	9.72e-03	0	42	102	1048576	21	5984
2026-01-05 07:58:38.90	82.20	9.37	-30.2	-34.7	9.7	1.10e-02	0	42	102	1048576	21	6054
2026-01-05 07:58:39.91	82.07	9.43	-30.2	-34.6	9.8	1.01e-02	0	42	102	1048576	21	6024
2026-01-05 07:58:40.92	81.94	9.49	-30.2	-34.8	9.7	1.04e-02	0	42	102	1048576	21	6105
2026-01-05 07:58:41.92	81.81	9.54	-30.2	-34.7	9.8	1.15e-02	0	42	102	1048576	21	6063
2026-01-05 07:58:42.92	81.68	9.60	-30.2	-34.6	9.8	1.06e-02	0	42	102	1048576	21	6005
2026-01-05 07:58:43.93	81.55	9.66	-30.2	-34.7	9.7	1.04e-02	0	42	102	1048576	21	6054
2026-01-05 07:58:44.94	81.41	9.72	-30.1	-34.5	9.9	9.91e-03	0	42	102	1048576	21	5930
2026-01-05 07:58:45.95	81.28	9.78	-30.2	-34.5	9.9	8.48e-03	0	42	102	1048576	21	5966
2026-01-05 07:58:46.96	81.15	9.84	-30.2	-34.6	9.8	9.94e-03	0	42	102	1048576	21	6011
2026-01-05 07:58:47.96	81.01	9.90	-30.1	-34.3	10.1	9.14e-03	0	42	102	1048576	21	5857
2026-01-05 07:58:48.96	80.88	9.95	-30.1	-34.3	10.1	6.90e-03	0	42	102	1048576	21	5835
2026-01-05 07:58:49.97	80.75	10.01	-30.1	-34.3	10.1	6.33e-03	0	42	102	1048576	21	5828
2026-01-05 07:58:50.98	80.61	10.07	-30.1	-34.4	10.0	6.26e-03	0	42	102	1048576	21	5879
2026-01-05 07:58:51.99	80.47	10.13	-30.1	-34.4	10.0	7.12e-03	0	42	102	1048576	21	5898
2026-01-05 07:58:52.99	80.34	10.19	-30.2	-34.7	9.8	9.31e-03	0	42	102	1048576	21	6036
2026-01-05 07:58:54.00	80.20	10.25	-30.1	-34.2	10.2	8.39e-03	0	42	102	1048576	21	5804
2026-01-05 07:58:55.01	80.06	10.30	-30.1	-34.2	10.3	5.62e-03	0	42	102	1048576	21	5768
2026-01-05 07:58:56.01	79.93	10.36	-30.1	-34.2	10.3	5.44e-03	0	42	102	1048576	21	5766
2026-01-05 07:58:57.02	79.79	10.42	-30.1	-34.1	10.3	5.34e-03	0	42	102	1048576	21	5752
2026-01-05 07:58:58.03	79.65	10.48	-30.1	-34.3	10.1	6.03e-03	0	42	102	1048576	21	5841
2026-01-05 07:58:59.04	79.51	10.54	-30.1	-34.4	10.1	6.49e-03	0	42	102	1048576	21	5868
2026-01-05 07:59:00.05	79.37	10.60	-30.2	-34.6	9.9	6.73e-03	0	42	102	1048576	21	5999
2026-01-05 07:59:01.06	79.23	10.65	-30.1	-34.3	10.2	6.80e-03	0	42	102	1048576	21	5828
2026-01-05 07:59:02.07	79.08	10.71	-30.1	-34.1	10.4	5.26e-03	0	42	102	1048576	21	5714
2026-01-05 07:59:03.07	78.94	10.77	-30.1	-34.3	10.2	5.29e-03	0	42	102	1048576	21	5807
2026-01-05 07:59:04.08	78.80	10.83	-30.1	-34.4	10.2	5.66e-03	0	42	102	1048576	21	5854
2026-01-05 07:59:05.09	78.66	10.89	-30.2	-34.7	9.9	8.18e-03	0	42	102	1048576	21	6005
2026-01-05 07:59:06.10	78.51	10.94	-30.2	-34.5	10.0	6.55e-03	0	42	102	1048576	21	5941
2026-01-05 07:59:07.10	78.37	11.00	-30.2	-34.4	10.1	7.11e-03	0	42	102	1048576	21	5892
2026-01-05 07:59:08.10	78.22	11.06	-30.2	-34.5	10.1	6.45e-03	0	42	102	1048576	21	5924
2026-01-05 07:59:09.11	78.08	11.12	-30.2	-34.7	10.0	7.38e-03	0	42	102	1048576	21	6014
2026-01-05 07:59:10.11	77.93	11.17	-30.3	-35.0	9.7	1.05e-02	0	42	102	1048576	21	6178
2026-01-05 07:59:11.12	77.79	11.23	-30.3	-34.7	9.9	9.67e-03	0	42	102	1048576	21	6018
2026-01-05 07:59:12.12	77.64	11.29	-30.3	-34.8	9.9	7.84e-03	0	43	102	1048576	21	6043
2026-01-05 07:59:13.13	77.49	11.35	-30.3	-34.8	9.9	8.71e-03	0	42	102	1048576	21	6059
2026-01-05 07:59:14.14	77.34	11.41	-30.3	-34.9	9.9	1.00e-02	0	42	102	1048576	21	6081
2026-01-05 07:59:15.15	77.19	11.46	-30.2	-34.4	10.2	7.00e-03	0	42	102	1048576	21	5862
2026-01-05 07:59:16.15	77.04	11.52	-30.2	-34.3	10.3	5.89e-03	0	42	102	1048576	21	5814
2026-01-05 07:59:17.15	76.90	11.58	-30.2	-34.4	10.3	4.97e-03	0	42	102	1048576	21	5832
2026-01-05 07:59:18.16	76.74	11.63	-30.2	-34.5	10.1	5.89e-03	0	43	102	1048576	21	5906
2026-01-05 07:59:19.16	76.59	11.69	-30.2	-34.4	10.2	5.78e-03	0	43	102	1048576	21	5872
2026-01-05 07:59:20.17	76.44	11.75	-30.3	-34.7	10.0	7.46e-03	0	43	102	1048576	21	6021
2026-01-05 07:59:21.17	76.29	11.81	-30.2	-34.4	10.3	6.55e-03	0	43	102	1048576	21	5843
2026-01-05 07:59:22.18	76.14	11.86	-30.2	-34.6	10.1	6.21e-03	0	42	102	1048576	21	5936
2026-01-05 07:59:23.19	75.98	11.92	-30.3	-34.7	10.0	7.06e-03	0	43	102	1048576	21	5973
2026-01-05 07:59:24.19	75.83	11.98	-30.2	-34.6	10.1	6.62e-03	0	42	102	1048576	21	5929
2026-01-05 07:59:25.19	75.67	12.03	-30.2	-34.6	10.1	6.33e-03	0	42	102	1048576	21	5946
2026-01-05 07:59:26.21	75.52	12.09	-30.2	-34.5	10.2	6.07e-03	0	42	102	1048576	21	5889
2026-01-05 07:59:27.21	75.36	12.15	-30.2	-34.4	10.3	5.47e-03	0	42	102	1048576	21	5840
2026-01-05 07:59:28.22	75.20	12.20	-30.2	-34.5	10.2	5.55e-03	0	43	102	1048576	21	5893
2026-01-05 07:59:29.22	75.05	12.26	-30.2	-34.5	10.3	5.75e-03	0	43	102	1048576	21	5876
2026-01-05 07:59:30.23	74.89	12.32	-30.4	-34.9	9.9	7.83e-03	0	42	102	1048576	21	6105
2026-01-05 07:59:31.24	74.73	12.37	-30.2	-34.4	10.3	7.53e-03	0	42	102	1048576	21	5846
2026-01-05 07:59:32.25	74.57	12.43	-30.1	-34.0	10.7	3.49e-03	0	42	102	1048576	21	5630
2026-01-05 07:59:33.25	74.41	12.49	-30.0	-33.6	10.9	2.70e-03	0	42	102	1048576	21	5472
2026-01-05 07:59:34.26	74.25	12.54	-30.0	-33.6	10.9	2.17e-03	0	43	102	1048576	21	5472
2026-01-05 07:59:35.27	74.09	12.60	-30.0	-33.5	11.0	1.99e-03	0	42	102	1048576	21	5440
2026-01-05 07:59:36.27	73.93	12.65	-30.0	-33.7	10.8	2.21e-03	0	42	102	1048576	21	5533
2026-01-05 07:59:37.28	73.77	12.71	-30.0	-33.8	10.8	3.19e-03	0	43	102	1048576	21	5573
2026-01-05 07:59:38.29	73.60	12.77	-29.9	-33.4	11.1	1.73e-03	0	43	102	1048576	21	5393
2026-01-05 07:59:39.29	73.44	12.82	-29.9	-33.2	11.2	1.41e-03	0	43	102	1048576	21	5309
2026-01-05 07:59:40.30	73.28	12.88	-29.8	-33.1	11.3	1.19e-03	0	43	102	1048576	21	5264
2026-01-05 07:59:41.31	73.11	12.93	-29.8	-33.2	11.2	1.26e-03	0	42	102	1048576	21	5297
2026-01-05 07:59:42.32	72.94	12.99	-29.8	-33.5	11.4	9.90e-04	0	43	102	1048576	20	5512
2026-01-05 07:59:43.33	72.78	13.04	-29.7	-33.3	11.5	8.32e-04	0	43	102	1048576	20	5430
2026-01-05 07:59:44.33	72.61	13.10	-29.7	-33.3	11.6	8.19e-04	0	43	102	1048576	20	5419
2026-01-05 07:59:45.34	72.44	13.15	-29.7	-33.2	11.6	6.16e-04	0	43	102	1048576	20	5375
2026-01-05 07:59:46.35	72.27	13.21	-29.7	-33.2	11.6	6.03e-04	0	43	102	1048576	20	5382
2026-01-05 07:59:47.36	72.11	13.26	-29.7	-33.2	11.6	6.64e-04	0	43	102	1048576	20	5381
2026-01-05 07:59:48.36	71.94	13.32	-29.8	-33.5	11.4	9.10e-04	0	43	102	1048576	20	5526
2026-01-05 07:59:49.37	71.77	13.37	-29.8	-33.6	11.3	1.18e-03	0	43	102	1048576	20	5562
2026-01-05 07:59:50.38	71.60	13.43	-29.7	-33.4	11.6	8.38e-04	0	43	102	1048576	20	5455
2026-01-05 07:59:51.39	71.42	13.48	-29.7	-33.3	11.6	6.51e-04	0	43	102	1048576	20	5405
2026-01-05 07:59:52.40	71.25	13.54	-29.7	-33.3	11.6	7.67e-04	0	43	102	1048576	20	5426
2026-01-05 07:59:53.41	71.08	13.59	-29.7	-33.3	11.6	6.43e-04	0	43	102	1048576	20	5417
2026-01-05 07:59:54.41	70.91	13.64	-29.8	-33.4	11.6	7.78e-04	0	43	102	1048576	20	5449
2026-01-05 07:59:55.42	70.73	13.70	-29.8	-33.4	11.5	7.16e-04	0	43	102	1048576	20	5466
2026-01-05 07:59:56.42	70.56	13.75	-29.8	-33.5	11.5	1.02e-03	0	43	102	1048576	20	5506
2026-01-05 07:59:57.43	70.38	13.80	-29.6	-33.0	11.9	6.73e-04	0	43	102	1048576	20	5286
2026-01-05 07:59:58.43	70.21	13.86	-29.5	-32.6	12.1	3.07e-04	0	43	102	1048576	20	5121
2026-01-05 07:59:59.44	70.03	13.91	-29.4	-32.4	12.3	2.08e-04	0	43	102	1048576	20	5040
2026-01-05 08:00:00.45	69.86	13.96	-29.5	-32.5	12.2	1.86e-04	0	43	102	1048576	20	5088
2026-01-05 08:00:01.46	69.68	14.02	-29.4	-32.4	12.3	1.91e-04	0	43	102	1048576	20	5050
2026-01-05 08:00:02.47	69.50	14.07	-29.4	-32.3	12.3	1.72e-04	0	43	102	1048576	20	5026
2026-01-05 08:00:03.47	69.32	14.12	-29.4	-32.4	12.3	1.88e-04	0	43	102	1048576	20	5057
2026-01-05 08:00:04.48	69.14	14.17	-29.6	-32.9	11.9	3.06e-04	0	43	102	1048576	20	5250
2026-01-05 08:00:05.49	68.96	14.23	-29.6	-33.0	11.8	5.55e-04	0	43	102	1048576	20	5288
2026-01-05 08:00:06.49	68.78	14.28	-29.5	-32.4	12.2	2.94e-04	0	43	102	1048576	20	5061
2026-01-05 08:00:07.50	68.60	14.33	-29.3	-32.4	12.7	1.30e-04	0	43	102	1048576	19	5138
2026-01-05 08:00:08.51	68.42	14.38	-29.3	-32.3	12.7	6.17e-05	0	43	102	1048576	19	5116
2026-01-05 08:00:09.52	68.23	14.43	-29.4	-32.6	12.6	9.46e-05	0	43	102	1048576	19	5203
2026-01-05 08:00:10.53	68.05	14.48	-29.4	-32.6	12.5	1.13e-04	0	43	102	1048576	19	5223
2026-01-05 08:00:11.53	67.87	14.53	-29.3	-32.5	12.6	7.47e-05	0	43	102	1048576	19	5164
2026-01-05 08:00:12.54	67.68	14.59	-29.4	-32.6	12.6	1.01e-04	0	43	102	1048576	19	5202
2026-01-05 08:00:13.55	67.50	14.64	-29.4	-32.6	12.6	8.92e-05	0	43	102	1048576	19	5199
2026-01-05 08:00:14.55	67.31	14.69	-29.4	-32.7	12.5	1.10e-04	0	43	102	1048576	19	5255
2026-01-05 08:00:15.55	67.13	14.74	-29.4	-32.7	12.5	1.38e-04	0	43	102	1048576	19	5273
2026-01-05 08:00:16.55	66.94	14.79	-29.4	-32.7	12.5	9.76e-05	0	43	102	1048576	19	5270
2026-01-05 08:00:17.55	66.75	14.84	-29.5	-33.0	12.3	1.71e-04	0	43	102	1048576	19	5368
2026-01-05 08:00:18.55	66.57	14.89	-29.5	-33.1	12.3	1.49e-04	0	43	102	1048576	19	5410
2026-01-05 08:00:19.55	66.38	14.93	-29.6	-33.3	12.1	2.50e-04	0	43	102	1048576	19	5489
2026-01-05 08:00:20.56	66.19	14.98	-29.7	-33.6	11.9	3.98e-04	0	43	102	1048576	19	5604
2026-01-05 08:00:21.57	66.00	15.03	-29.8	-33.7	11.9	3.16e-04	0	43	102	1048576	19	5650
2026-01-05 08:00:22.58	65.81	15.08	-29.8	-33.7	11.8	6.59e-04	0	43	102	1048576	19	5664
2026-01-05 08:00:23.58	65.62	15.13	-29.7	-33.5	12.0	3.64e-04	0	43	102	1048576	19	5570
2026-01-05 08:00:24.58	65.42	15.18	-29.7	-33.4	12.1	2.70e-04	0	43	102	1048576	19	5531
2026-01-05 08:00:25.59	65.23	15.23	-29.6	-33.1	12.3	2.08e-04	0	43	102	1048576	19	5422
2026-01-05 08:00:26.60	65.04	15.27	-29.6	-33.2	12.2	2.17e-04	0	43	102	1048576	19	5470
2026-01-05 08:00:27.61	64.84	15.32	-29.8	-33.7	11.9	2.80e-04	0	43	102	1048576	19	5671
2026-01-05 08:00:28.61	64.65	15.37	-29.7	-33.5	12.0	4.10e-04	0	43	102	1048576	19	5565
2026-01-05 08:00:29.62	64.45	15.42	-29.6	-33.1	12.3	2.71e-04	0	43	102	1048576	19	5411
2026-01-05 08:00:30.63	64.26	15.46	-29.5	-32.9	12.4	1.84e-04	0	43	102	1048576	19	5350
2026-01-05 08:00:31.63	64.06	15.51	-29.5	-32.8	12.5	1.30e-04	0	43	102	1048576	19	5291
2026-01-05 08:00:32.65	63.86	15.56	-29.6	-33.1	12.4	1.28e-04	0	43	102	1048576	19	5395
2026-01-05 08:00:33.65	63.67	15.60	-29.5	-32.9	12.5	1.56e-04	0	43	102	1048576	19	5317
2026-01-05 08:00:34.66	63.47	15.65	-29.5	-32.8	12.5	1.06e-04	0	43	102	1048576	19	5287
2026-01-05 08:00:35.66	63.27	15.69	-29.4	-32.7	12.6	9.30e-05	0	43	102	1048576	19	5230
2026-01-05 08:00:36.67	63.07	15.74	-29.4	-32.6	12.7	9.30e-05	0	43	102	1048576	19	5198
2026-01-05 08:00:37.68	62.87	15.79	-29.4	-32.6	12.6	8.54e-05	0	43	102	1048576	19	5212
2026-01-05 08:00:38.69	62.67	15.83	-29.5	-32.9	12.5	9.68e-05	0	43	102	1048576	19	5317
2026-01-05 08:00:39.70	62.46	15.87	-29.5	-32.8	12.5	1.29e-04	0	43	102	1048576	19	5276
2026-01-05 08:00:40.71	62.26	15.92	-29.3	-32.3	12.8	9.99e-05	0	43	102	1048576	19	5096
2026-01-05 08:00:41.71	62.06	15.96	-29.2	-32.0	13.1	2.59e-05	0	43	102	1048576	19	4973
2026-01-05 08:00:42.72	61.86	16.01	-29.2	-32.0	13.1	3.66e-05	0	43	102	1048576	19	4968
2026-01-05 08:00:43.72	61.65	16.05	-29.3	-32.3	12.8	3.12e-05	0	43	102	1048576	19	5110
2026-01-05 08:00:44.73	61.45	16.09	-29.2	-32.1	12.9	6.48e-05	0	43	102	1048576	19	5030
2026-01-05 08:00:45.73	61.25	16.14	-29.1	-31.7	13.3	2.89e-05	0	43	102	1048576	19	4858
2026-01-05 08:00:46.74	61.04	16.18	-29.0	-31.4	13.5	2.59e-05	0	43	102	1048576	19	4748
2026-01-05 08:00:47.75	60.83	16.22	-28.9	-31.3	13.5	1.22e-05	0	43	102	1048576	19	4732
2026-01-05 08:00:48.76	60.63	16.26	-29.0	-31.5	13.4	9.10e-06	0	43	102	1048576	19	4787
2026-01-05 08:00:49.76	60.42	16.30	-29.1	-31.6	13.3	8.30e-06	0	43	102	1048576	19	4845
2026-01-05 08:00:50.77	60.21	16.35	-29.0	-31.5	13.4	2.21e-05	0	43	102	1048576	19	4808
2026-01-05 08:00:51.78	60.00	16.39	-28.9	-31.3	13.5	1.37e-05	0	43	102	1048576	19	4728
2026-01-05 08:00:52.79	59.79	16.43	-28.9	-31.3	13.5	1.29e-05	0	43	102	1048576	19	4728
2026-01-05 08:00:53.79	59.58	16.47	-28.8	-31.0	13.7	7.60e-06	0	43	102	1048576	19	4622
2026-01-05 08:00:54.80	59.37	16.51	-28.9	-31.2	13.6	4.50e-06	0	43	102	1048576	19	4682
2026-01-05 08:00:55.81	59.16	16.55	-28.9	-31.2	13.6	9.10e-06	0	43	102	1048576	19	4688
2026-01-05 08:00:56.82	58.95	16.59	-28.9	-31.2	13.6	6.80e-06	0	43	102	1048576	19	4698
2026-01-05 08:00:57.82	58.74	16.63	-28.9	-31.2	13.6	9.90e-06	0	43	102	1048576	19	4697
2026-01-05 08:00:58.83	58.53	16.66	-29.0	-31.5	13.5	9.10e-06	0	43	102	1048576	19	4785
2026-01-05 08:00:59.83	58.31	16.70	-28.9	-31.2	13.6	1.22e-05	0	43	102	1048576	19	4708
2026-01-05 08:01:00.84	58.10	16.74	-28.8	-31.0	13.7	7.60e-06	0	43	102	1048576	19	4626
2026-01-05 08:01:01.85	57.89	16.78	-28.9	-31.2	13.6	1.06e-05	0	43	102	1048576	19	4681
2026-01-05 08:01:02.86	57.67	16.82	-28.8	-31.0	13.7	3.80e-06	0	43	102	1048576	19	4619
2026-01-05 08:01:03.86	57.46	16.85	-28.8	-30.9	13.8	9.10e-06	0	43	102	1048576	19	4576
2026-01-05 08:01:04.87	57.24	16.89	-28.8	-31.0	13.7	4.50e-06	0	43	102	1048576	19	4636
2026-01-05 08:01:05.87	57.03	16.93	-28.8	-30.9	13.8	2.20e-06	0	43	102	1048576	19	4600
2026-01-05 08:01:06.87	56.81	16.96	-28.8	-31.0	13.8	3.00e-06	0	43	102	1048576	19	4609
2026-01-05 08:01:07.89	56.59	17.00	-28.9	-31.2	13.6	8.30e-06	0	43	102	1048576	19	4704
2026-01-05 08:01:08.89	56.37	17.03	-29.0	-31.3	13.6	6.80e-06	0	43	102	1048576	19	4729
2026-01-05 08:01:09.90	56.16	17.07	-28.9	-31.3	13.6	6.80e-06	0	43	102	1048576	19	4725
2026-01-05 08:01:10.90	55.94	17.10	-29.2	-31.9	13.2	1.52e-05	0	43	102	1048576	19	4944
2026-01-05 08:01:11.91	55.72	17.13	-29.1	-31.8	13.2	2.44e-05	0	43	102	1048576	19	4895
2026-01-05 08:01:12.92	55.50	17.17	-29.1	-31.7	13.3	1.52e-05	0	43	102	1048576	19	4878
2026-01-05 08:01:13.92	55.28	17.20	-29.2	-31.9	13.2	1.90e-05	0	43	102	1048576	19	4928
2026-01-05 08:01:14.93	55.06	17.23	-29.0	-31.5	13.4	1.52e-05	0	43	102	1048576	19	4805
2026-01-05 08:01:15.94	54.84	17.27	-29.0	-31.3	13.6	1.06e-05	0	43	102	1048576	19	4725
2026-01-05 08:01:16.95	54.61	17.30	-29.1	-31.6	13.4	1.37e-05	0	43	102	1048576	19	4841
2026-01-05 08:01:17.96	54.39	17.33	-29.0	-31.3	13.6	7.60e-06	0	43	102	1048576	19	4717
2026-01-05 08:01:18.96	54.17	17.36	-28.9	-31.2	13.6	9.10e-06	0	43	102	1048576	19	4682
2026-01-05 08:01:19.96	53.95	17.39	-28.9	-31.1	13.7	6.10e-06	0	43	102	1048576	19	4654
2026-01-05 08:01:20.96	53.73	17.42	-29.0	-31.3	13.6	4.50e-06	0	43	102	1048576	19	4716
2026-01-05 08:01:21.97	53.50	17.45	-29.1	-31.7	13.3	1.06e-05	0	43	102	1048576	19	4844
2026-01-05 08:01:22.97	53.28	17.48	-29.1	-31.6	13.4	1.52e-05	0	43	102	1048576	19	4823
2026-01-05 08:01:23.98	53.05	17.51	-29.2	-32.0	13.1	9.90e-06	0	43	102	1048576	19	4963
2026-01-05 08:01:24.99	52.83	17.54	-29.1	-31.7	13.4	2.59e-05	0	43	102	1048576	19	4855
2026-01-05 08:01:26.00	52.60	17.57	-29.2	-31.9	13.2	2.05e-05	0	43	102	1048576	19	4917
2026-01-05 08:01:27.01	52.37	17.60	-29.1	-31.7	13.3	2.21e-05	0	43	102	1048576	19	4874
2026-01-05 08:01:28.01	52.15	17.62	-29.2	-31.9	13.2	1.90e-05	0	43	102	1048576	19	4940
2026-01-05 08:01:29.02	51.92	17.65	-29.3	-32.3	12.9	2.97e-05	0	43	102	1048576	19	5085
2026-01-05 08:01:30.03	51.69	17.68	-29.3	-32.3	13.0	4.95e-05	0	43	102	1048576	19	5076
2026-01-05 08:01:31.04	51.47	17.70	-29.5	-32.8	12.6	7.93e-05	0	43	102	1048576	19	5277
2026-01-05 08:01:32.04	51.24	17.73	-29.4	-32.6	12.7	9.53e-05	0	43	102	1048576	19	5193
2026-01-05 08:01:33.05	51.01	17.76	-29.5	-32.9	12.5	7.24e-05	0	43	102	1048576	19	5331
2026-01-05 08:01:34.06	50.78	17.78	-29.5	-32.9	12.6	1.21e-04	0	43	102	1048576	19	5313
2026-01-05 08:01:35.07	50.55	17.81	-29.6	-33.2	12.4	1.38e-04	0	43	102	1048576	19	5413
2026-01-05 08:01:36.07	50.32	17.83	-29.6	-33.1	12.4	1.43e-04	0	43	102	1048576	19	5385
2026-01-05 08:01:37.08	50.09	17.85	-29.6	-33.1	12.4	1.24e-04	0	43	102	1048576	19	5380
2026-01-05 08:01:38.08	49.86	17.88	-29.6	-33.1	12.4	1.36e-04	0	43	102	1048576	19	5377
2026-01-05 08:01:39.09	49.63	17.90	-29.7	-33.4	12.2	1.75e-04	0	43	102	1048576	19	5497
2026-01-05 08:01:40.09	49.40	17.92	-29.5	-33.0	12.5	1.88e-04	0	43	102	1048576	19	5331
2026-01-05 08:01:41.10	49.17	17.94	-29.5	-33.0	12.5	1.02e-04	0	43	102	1048576	19	5329
2026-01-05 08:01:42.11	48.94	17.96	-29.5	-32.9	12.5	1.10e-04	0	43	102	1048576	19	5332
2026-01-05 08:01:43.11	48.71	17.98	-29.6	-33.1	12.4	1.33e-04	0	43	102	1048576	19	5387
2026-01-05 08:01:44.12	48.47	18.00	-29.5	-32.7	12.7	7.85e-05	0	43	102	1048576	19	5247
2026-01-05 08:01:45.13	48.24	18.02	-29.4	-32.6	12.7	5.64e-05	0	43	102	1048576	19	5201
2026-01-05 08:01:46.13	48.01	18.04	-29.6	-33.0	12.6	8.92e-05	0	43	102	1048576	19	5335
2026-01-05 08:01:47.14	47.78	18.06	-29.5	-32.9	12.5	1.04e-04	0	43	102	1048576	19	5316
2026-01-05 08:01:48.15	47.54	18.08	-29.6	-33.1	12.4	1.16e-04	0	43	102	1048576	19	5379
2026-01-05 08:01:49.15	47.31	18.10	-29.6	-33.2	12.4	1.72e-04	0	43	102	1048576	19	5413
2026-01-05 08:01:50.16	47.07	18.12	-29.7	-33.4	12.2	1.73e-04	0	43	102	1048576	19	5509
2026-01-05 08:01:51.17	46.84	18.13	-29.7	-33.4	12.2	1.86e-04	0	43	102	1048576	19	5517
2026-01-05 08:01:52.17	46.61	18.15	-29.8	-33.6	12.1	2.59e-04	0	43	102	1048576	19	5587
2026-01-05 08:01:53.18	46.37	18.17	-29.8	-33.6	12.1	2.56e-04	0	43	102	1048576	19	5592
2026-01-05 08:01:54.18	46.14	18.18	-29.8	-33.7	12.0	2.90e-04	0	43	102	1048576	19	5635
2026-01-05 08:01:55.19	45.90	18.20	-29.7	-33.5	12.1	2.47e-04	0	43	102	1048576	19	5564
2026-01-05 08:01:56.19	45.67	18.21	-29.7	-33.6	12.1	2.65e-04	0	43	102	1048576	19	5589
2026-01-05 08:01:57.20	45.43	18.22	-29.7	-33.5	12.1	2.29e-04	0	43	102	1048576	19	5580
2026-01-05 08:01:58.20	45.20	18.24	-29.7	-33.5	12.1	2.62e-04	0	43	102	1048576	19	5587
2026-01-05 08:01:59.21	44.96	18.25	-29.8	-33.8	11.9	3.22e-04	0	43	102	1048576	19	5710
2026-01-05 08:02:00.21	44.73	18.26	-29.8	-33.8	12.0	3.40e-04	0	43	102	1048576	19	5691
2026-01-05 08:02:01.22	44.49	18.28	-29.8	-33.8	11.9	4.10e-04	0	43	102	1048576	19	5693
2026-01-05 08:02:02.23	44.25	18.29	-29.8	-33.7	12.0	3.29e-04	0	43	102	1048576	19	5643
2026-01-05 08:02:03.23	44.02	18.30	-29.7	-33.5	12.1	2.84e-04	0	43	102	1048576	19	5579
2026-01-05 08:02:04.24	43.78	18.31	-29.8	-33.6	12.1	2.68e-04	0	43	102	1048576	19	5591
2026-01-05 08:02:05.25	43.54	18.32	-29.7	-33.5	12.2	2.59e-04	0	43	102	1048576	19	5573
2026-01-05 08:02:06.26	43.30	18.33	-29.8	-33.8	12.0	2.82e-04	0	43	102	1048576	19	5674
2026-01-05 08:02:07.27	43.06	18.34	-29.9	-33.9	11.9	3.93e-04	0	43	102	1048576	19	5739
2026-01-05 08:02:08.27	42.83	18.35	-29.7	-33.6	12.1	2.96e-04	0	43	102	1048576	19	5588
2026-01-05 08:02:09.28	42.59	18.35	-29.7	-33.4	12.2	1.92e-04	0	43	102	1048576	19	5500
2026-01-05 08:02:10.29	42.35	18.36	-29.7	-33.3	12.3	1.77e-04	0	43	102	1048576	19	5463
2026-01-05 08:02:11.30	42.11	18.37	-29.7	-33.4	12.3	1.69e-04	0	43	102	1048576	19	5508
2026-01-05 08:02:12.30	41.87	18.38	-29.7	-33.4	12.2	2.37e-04	0	43	102	1048576	19	5532
2026-01-05 08:02:13.31	41.64	18.38	-29.7	-33.3	12.3	1.98e-04	0	43	102	1048576	19	5466
2026-01-05 08:02:14.31	41.40	18.39	-29.7	-33.3	12.3	1.91e-04	0	43	102	1048576	19	5469
2026-01-05 08:02:15.32	41.16	18.39	-29.7	-33.3	12.3	1.86e-04	0	43	102	1048576	19	5470
2026-01-05 08:02:16.32	40.92	18.40	-29.7	-33.3	12.3	1.67e-04	0	43	102	1048576	19	5478
2026-01-05 08:02:17.33	40.68	18.40	-29.7	-33.4	12.3	1.92e-04	0	43	102	1048576	19	5503
2026-01-05 08:02:18.34	40.44	18.40	-29.7	-33.5	12.2	2.40e-04	0	43	102	1048576	19	5554
2026-01-05 08:02:19.34	40.21	18.41	-29.8	-33.7	12.0	2.54e-04	0	43	102	1048576	19	5624
2026-01-05 08:02:20.35	39.97	18.41	-29.8	-33.6	12.1	3.22e-04	0	43	102	1048576	19	5602
2026-01-05 08:02:21.36	39.73	18.41	-29.8	-33.6	12.1	3.02e-04	0	43	102	1048576	19	5604
2026-01-05 08:02:22.37	39.49	18.41	-29.7	-33.3	12.3	2.19e-04	0	43	102	1048576	19	5473
2026-01-05 08:02:23.37	39.25	18.41	-29.6	-33.3	12.3	1.80e-04	0	43	102	1048576	19	5451
2026-01-05 08:02:24.38	39.01	18.41	-29.7	-33.4	12.3	1.73e-04	0	43	102	1048576	19	5500
2026-01-05 08:02:25.39	38.77	18.41	-29.8	-33.6	12.1	2.30e-04	0	43	102	1048576	19	5591
2026-01-05 08:02:26.39	38.54	18.41	-29.7	-33.5	12.2	2.56e-04	0	43	102	1048576	19	5559
2026-01-05 08:02:27.40	38.30	18.41	-29.7	-33.4	12.2	2.31e-04	0	43	102	1048576	19	5522
2026-01-05 08:02:28.41	38.06	18.41	-29.8	-33.6	12.1	2.17e-04	0	43	102	1048576	19	5598
2026-01-05 08:02:29.41	37.82	18.41	-29.8	-33.7	12.0	3.18e-04	0	43	102	1048576	19	5653
2026-01-05 08:02:30.42	37.58	18.41	-29.7	-33.4	12.2	2.41e-04	0	43	102	1048576	19	5506
2026-01-05 08:02:31.42	37.34	18.40	-29.6	-33.2	12.4	1.93e-04	0	43	102	1048576	19	5434
2026-01-05 08:02:32.43	37.10	18.40	-29.6	-33.1	12.4	1.56e-04	0	43	102	1048576	19	5405
2026-01-05 08:02:33.44	36.87	18.39	-29.6	-33.3	12.3	1.54e-04	0	43	102	1048576	19	5468
2026-01-05 08:02:34.44	36.63	18.39	-29.7	-33.3	12.2	2.56e-04	0	43	102	1048576	19	5477
2026-01-05 08:02:35.45	36.39	18.38	-29.5	-32.9	12.6	1.17e-04	0	43	102	1048576	19	5320
2026-01-05 08:02:36.45	36.15	18.38	-29.4	-32.4	12.9	7.62e-05	0	43	102	1048576	19	5126
2026-01-05 08:02:37.45	35.92	18.37	-29.3	-32.3	13.0	3.81e-05	0	43	102	1048576	19	5089
2026-01-05 08:02:38.45	35.68	18.37	-29.3	-32.1	13.1	3.35e-05	0	43	102	1048576	19	5013
2026-01-05 08:02:39.46	35.44	18.36	-29.2	-31.9	13.2	2.59e-05	0	43	102	1048576	19	4931
2026-01-05 08:02:40.47	35.20	18.35	-29.2	-32.0	13.2	2.74e-05	0	43	102	1048576	19	4954
2026-01-05 08:02:41.47	34.97	18.34	-29.2	-31.9	13.3	3.58e-05	0	43	102	1048576	19	4937
2026-01-05 08:02:42.48	34.73	18.33	-29.1	-31.7	13.3	1.83e-05	0	43	102	1048576	19	4851
2026-01-05 08:02:43.49	34.49	18.32	-29.1	-31.7	13.4	1.44e-05	0	43	102	1048576	19	4853
2026-01-05 08:02:44.49	34.26	18.31	-29.1	-31.7	13.4	1.90e-05	0	43	102	1048576	19	4876
2026-01-05 08:02:45.50	34.02	18.30	-29.1	-31.7	13.3	1.75e-05	0	43	102	1048576	19	4864
2026-01-05 08:02:46.51	33.78	18.29	-29.1	-31.7	13.4	1.60e-05	0	43	102	1048576	19	4869
2026-01-05 08:02:47.52	33.54	18.28	-29.0	-31.3	13.6	1.14e-05	0	43	102	1048576	19	4733
2026-01-05 08:02:48.52	33.31	18.27	-28.9	-31.3	13.6	9.10e-06	0	43	102	1048576	19	4703
2026-01-05 08:02:49.53	33.07	18.26	-28.9	-31.2	13.7	1.06e-05	0	43	102	1048576	19	4698
2026-01-05 08:02:50.54	32.84	18.24	-28.9	-31.1	13.7	7.60e-06	0	43	102	1048576	19	4652
2026-01-05 08:02:51.54	32.60	18.23	-28.9	-31.1	13.7	6.80e-06	0	43	102	1048576	19	4645
2026-01-05 08:02:52.55	32.36	18.22	-28.9	-31.1	13.7	4.50e-06	0	43	102	1048576	19	4667
2026-01-05 08:02:53.56	32.13	18.20	-29.0	-31.4	13.6	6.80e-06	0	43	102	1048576	19	4751
2026-01-05 08:02:54.56	31.89	18.19	-29.0	-31.4	13.6	4.50e-06	0	43	102	1048576	19	4760
2026-01-05 08:02:55.56	31.66	18.17	-28.8	-30.9	13.9	3.80e-06	0	43	102	1048576	19	4574
2026-01-05 08:02:56.56	31.43	18.16	-28.7	-31.2	14.0	1.50e-06	0	43	102	1048576	18	4776
2026-01-05 08:02:57.57	31.19	18.14	-28.7	-31.2	14.0	2.20e-06	0	43	102	1048576	18	4773
2026-01-05 08:02:58.58	30.96	18.12	-28.7	-31.1	14.1	2.20e-06	0	43	102	1048576	18	4740
2026-01-05 08:02:59.59	30.72	18.11	-28.6	-31.0	14.1	0.00e+00	0	43	102	1048576	18	4712
2026-01-05 08:03:00.60	30.49	18.09	-28.7	-31.2	14.1	0.00e+00	0	43	102	1048576	18	4776
2026-01-05 08:03:01.61	30.26	18.07	-28.8	-31.4	13.9	1.50e-06	0	43	102	1048576	18	4849
2026-01-05 08:03:02.62	30.02	18.05	-28.9	-31.7	13.7	2.20e-06	0	43	102	1048576	18	4951
2026-01-05 08:03:03.63	29.79	18.03	-29.0	-31.8	13.6	6.80e-06	0	43	102	1048576	18	5000
2026-01-05 08:03:04.64	29.56	18.01	-29.0	-31.9	13.6	6.10e-06	0	43	102	1048576	18	5032
2026-01-05 08:03:05.65	29.32	17.99	-29.0	-31.9	13.5	7.60e-06	0	43	102	1048576	18	5041
2026-01-05 08:03:06.66	29.09	17.97	-29.0	-31.8	13.6	1.52e-05	0	43	102	1048576	18	5006
2026-01-05 08:03:07.66	28.86	17.95	-28.9	-31.6	13.7	5.30e-06	0	43	102	1048576	18	4920
2026-01-05 08:03:08.66	28.63	17.93	-28.8	-31.5	13.8	7.60e-06	0	43	102	1048576	18	4910
2026-01-05 08:03:09.66	28.40	17.91	-28.8	-31.5	13.8	1.14e-05	0	43	102	1048576	18	4891
2026-01-05 08:03:10.67	28.17	17.89	-28.9	-31.8	13.7	3.00e-06	0	43	102	1048576	18	4989
2026-01-05 08:03:11.68	27.94	17.86	-29.0	-32.0	13.5	9.90e-06	0	43	102	1048576	18	5077
2026-01-05 08:03:12.69	27.71	17.84	-29.0	-32.1	13.4	1.22e-05	0	43	102	1048576	18	5103
2026-01-05 08:03:13.70	27.48	17.82	-29.1	-32.2	13.4	1.67e-05	0	43	102	1048576	18	5167
2026-01-05 08:03:14.71	27.25	17.79	-29.2	-32.4	13.3	2.67e-05	0	43	102	1048576	18	5230
2026-01-05 08:03:15.72	27.02	17.77	-29.2	-32.4	13.2	1.67e-05	0	43	102	1048576	18	5214
2026-01-05 08:03:16.73	26.79	17.74	-29.2	-32.4	13.3	2.21e-05	0	43	102	1048576	18	5211
2026-01-05 08:03:17.73	26.56	17.72	-29.2	-32.4	13.2	2.05e-05	0	43	102	1048576	18	5221
2026-01-05 08:03:18.74	26.34	17.69	-29.2	-32.5	13.1	1.60e-05	0	43	102	1048576	18	5269
2026-01-05 08:03:19.74	26.11	17.66	-29.2	-32.5	13.2	3.58e-05	0	43	102	1048576	18	5268
2026-01-05 08:03:20.75	25.88	17.64	-29.1	-32.3	13.2	2.59e-05	0	43	102	1048576	18	5186
2026-01-05 08:03:21.76	25.66	17.61	-29.3	-32.7	13.0	2.44e-05	0	43	102	1048576	18	5359
2026-01-05 08:03:22.76	25.43	17.58	-29.3	-32.9	12.9	5.56e-05	0	43	102	1048576	18	5405
2026-01-05 08:03:23.77	25.21	17.55	-29.4	-33.2	12.7	6.17e-05	0	43	102	1048576	18	5527
2026-01-05 08:03:24.77	24.98	17.53	-29.5	-32.8	12.6	8.31e-05	0	43	102	1048576	19	5279
2026-01-05 08:03:25.77	24.76	17.50	-29.6	-33.0	12.6	1.05e-04	0	43	102	1048576	19	5350
2026-01-05 08:03:26.78	24.53	17.47	-29.5	-32.7	12.6	9.68e-05	0	43	102	1048576	19	5245
2026-01-05 08:03:27.79	24.31	17.44	-29.5	-32.8	12.6	9.30e-05	0	43	102	1048576	19	5276
2026-01-05 08:03:28.80	24.09	17.41	-29.6	-33.0	12.5	1.23e-04	0	43	102	1048576	19	5344
2026-01-05 08:03:29.80	23.86	17.38	-29.6	-33.0	12.5	1.17e-04	0	43	102	1048576	19	5363
2026-01-05 08:03:30.81	23.64	17.35	-29.7	-33.3	12.2	1.62e-04	0	43	102	1048576	19	5490
2026-01-05 08:03:31.81	23.42	17.31	-29.6	-33.2	12.3	2.03e-04	0	43	102	1048576	19	5414
2026-01-05 08:03:32.83	23.20	17.28	-29.5	-32.9	12.6	1.35e-04	0	43	102	1048576	19	5288
2026-01-05 08:03:33.83	22.98	17.25	-29.4	-32.6	12.7	6.71e-05	0	43	102	1048576	19	5199
2026-01-05 08:03:34.84	22.76	17.22	-29.4	-32.5	12.8	5.34e-05	0	43	102	1048576	19	5164
2026-01-05 08:03:35.84	22.54	17.18	-29.4	-32.4	12.9	8.23e-05	0	43	102	1048576	19	5111
2026-01-05 08:03:36.85	22.32	17.15	-29.4	-32.6	12.7	6.33e-05	0	43	102	1048576	19	5190
2026-01-05 08:03:37.86	22.10	17.12	-29.4	-32.5	12.8	7.01e-05	0	43	102	1048576	19	5150
2026-01-05 08:03:38.86	21.88	17.08	-29.4	-32.6	12.8	5.87e-05	0	43	102	1048576	19	5181
2026-01-05 08:03:39.87	21.66	17.05	-29.5	-32.8	12.5	8.54e-05	0	43	102	1048576	19	5282
2026-01-05 08:03:40.88	21.45	17.01	-29.4	-32.5	12.7	9.15e-05	0	43	102	1048576	19	5169
2026-01-05 08:03:41.89	21.23	16.98	-29.3	-32.3	13.0	5.95e-05	0	43	102	1048576	19	5091
2026-01-05 08:03:42.90	21.01	16.94	-29.3	-32.4	12.8	5.64e-05	0	43	102	1048576	19	5111
2026-01-05 08:03:43.90	20.80	16.91	-29.4	-32.6	12.7	7.62e-05	0	43	102	1048576	19	5188
2026-01-05 08:03:44.91	20.58	16.87	-29.5	-32.8	12.5	8.85e-05	0	43	102	1048576	19	5294
2026-01-05 08:03:45.92	20.37	16.83	-29.4	-32.5	12.7	8.31e-05	0	44	102	1048576	19	5169
2026-01-05 08:03:46.93	20.15	16.80	-29.4	-32.5	12.8	6.33e-05	0	43	102	1048576	19	5157
2026-01-05 08:03:47.93	19.94	16.76	-29.4	-32.5	12.8	6.94e-05	0	43	102	1048576	19	5164
2026-01-05 08:03:48.93	19.73	16.72	-29.4	-32.5	12.7	6.71e-05	0	43	102	1048576	19	5167
2026-01-05 08:03:49.93	19.52	16.68	-29.6	-33.1	12.4	1.11e-04	0	43	102	1048576	19	5400
2026-01-05 08:03:50.94	19.30	16.64	-29.5	-32.9	12.5	1.36e-04	0	43	102	1048576	19	5331
2026-01-05 08:03:51.95	19.09	16.61	-29.6	-33.3	12.3	1.40e-04	0	43	102	1048576	19	5491
2026-01-05 08:03:52.95	18.88	16.57	-29.5	-32.9	12.5	1.56e-04	0	43	102	1048576	19	5311
2026-01-05 08:03:53.95	18.67	16.53	-29.4	-32.5	12.8	8.46e-05	0	43	102	1048576	19	5176
2026-01-05 08:03:54.96	18.46	16.49	-29.3	-32.3	12.9	5.49e-05	0	43	102	1048576	19	5084
2026-01-05 08:03:55.97	18.25	16.45	-29.3	-32.3	12.9	4.95e-05	0	43	102	1048576	19	5091
2026-01-05 08:03:56.97	18.04	16.41	-29.3	-32.3	12.9	4.04e-05	0	43	102	1048576	19	5088
2026-01-05 08:03:57.98	17.84	16.37	-29.4	-32.5	12.8	4.65e-05	0	43	102	1048576	19	5153
2026-01-05 08:03:58.98	17.63	16.33	-29.4	-32.6	12.7	7.62e-05	0	43	102	1048576	19	5204
2026-01-05 08:03:59.99	17.42	16.28	-29.5	-32.8	12.6	9.30e-05	0	43	102	1048576	19	5279
2026-01-05 08:04:01.00	17.21	16.24	-29.5	-33.0	12.5	1.17e-04	0	43	102	1048576	19	5345
2026-01-05 08:04:02.00	17.01	16.20	-29.5	-33.0	12.4	1.33e-04	0	43	102	1048576	19	5354
2026-01-05 08:04:03.01	16.80	16.16	-29.6	-33.3	12.1	1.82e-04	0	43	102	1048576	19	5492
2026-01-05 08:04:04.02	16.60	16.12	-29.8	-33.8	11.9	3.78e-04	0	43	102	1048576	19	5694
2026-01-05 08:04:05.02	16.40	16.07	-29.7	-33.6	12.0	3.88e-04	0	43	102	1048576	19	5610
2026-01-05 08:04:06.03	16.19	16.03	-29.7	-33.5	12.0	3.35e-04	0	43	102	1048576	19	5569
2026-01-05 08:04:07.04	15.99	15.99	-29.7	-33.6	12.0	3.53e-04	0	43	102	1048576	19	5628
2026-01-05 08:04:08.04	15.79	15.94	-29.8	-33.8	11.8	4.22e-04	0	43	102	1048576	19	5719
2026-01-05 08:04:09.05	15.59	15.90	-29.7	-33.5	12.0	4.21e-04	0	43	102	1048576	19	5587
2026-01-05 08:04:10.06	15.38	15.85	-29.7	-33.4	12.1	2.61e-04	0	43	102	1048576	19	5512
2026-01-05 08:04:11.07	15.18	15.81	-29.7	-33.4	12.1	2.74e-04	0	43	102	1048576	19	5541
2026-01-05 08:04:12.08	14.98	15.76	-29.8	-33.7	11.9	3.81e-04	0	43	102	1048576	19	5640
2026-01-05 08:04:13.08	14.78	15.72	-29.9	-34.2	11.5	7.19e-04	0	43	102	1048576	19	5886
2026-01-05 08:04:14.09	14.59	15.67	-29.8	-33.9	11.7	5.82e-04	0	43	102	1048576	19	5741
2026-01-05 08:04:15.10	14.39	15.63	-29.9	-34.2	11.5	6.73e-04	0	43	102	1048576	19	5909
2026-01-05 08:04:16.11	14.19	15.58	-29.8	-33.8	11.8	6.56e-04	0	43	102	1048576	19	5703
2026-01-05 08:04:17.12	13.99	15.54	-29.7	-33.5	12.0	4.16e-04	0	43	102	1048576	19	5562
2026-01-05 08:04:18.12	13.80	15.49	-29.7	-33.4	12.1	3.21e-04	0	43	102	1048576	19	5518
2026-01-05 08:04:19.13	13.60	15.44	-29.7	-33.4	12.0	2.96e-04	0	43	102	1048576	19	5530
2026-01-05 08:04:20.14	13.41	15.40	-29.7	-33.4	12.0	3.43e-04	0	43	102	1048576	19	5556
2026-01-05 08:04:21.15	13.21	15.35	-29.7	-33.4	12.0	3.10e-04	0	43	102	1048576	19	5544
2026-01-05 08:04:22.16	13.02	15.30	-29.7	-33.6	11.9	3.46e-04	0	43	102	1048576	19	5621
2026-01-05 08:04:23.16	12.82	15.25	-29.8	-33.8	11.7	5.24e-04	0	43	102	1048576	19	5705
2026-01-05 08:04:24.16	12.63	15.21	-29.7	-33.6	11.9	4.20e-04	0	43	102	1048576	19	5644
2026-01-05 08:04:25.17	12.44	15.16	-29.8	-33.9	11.6	5.14e-04	0	43	102	1048576	19	5776
2026-01-05 08:04:26.18	12.25	15.11	-29.9	-33.8	11.3	1.04e-03	0	43	102	1048576	20	5631
2026-01-05 08:04:27.19	12.06	15.06	-29.9	-33.6	11.5	8.57e-04	0	43	102	1048576	20	5546
2026-01-05 08:04:28.20	11.87	15.01	-29.9	-33.7	11.3	1.02e-03	0	43	102	1048576	20	5606
2026-01-05 08:04:29.21	11.68	14.96	-30.0	-34.0	11.2	1.23e-03	0	43	102	1048576	20	5720
2026-01-05 08:04:30.22	11.49	14.91	-30.0	-34.0	11.2	1.30e-03	0	43	102	1048576	20	5711
2026-01-05 08:04:31.23	11.30	14.86	-30.0	-34.1	11.1	1.61e-03	0	43	102	1048576	20	5778
2026-01-05 08:04:32.24	11.11	14.81	-30.0	-34.1	11.0	1.67e-03	0	43	102	1048576	20	5785
2026-01-05 08:04:33.25	10.93	14.76	-30.1	-34.3	10.9	1.91e-03	0	43	102	1048576	20	5851
2026-01-05 08:04:34.25	10.74	14.71	-30.1	-34.5	10.7	2.95e-03	0	43	102	1048576	20	5940
2026-01-05 08:04:35.25	10.56	14.66	-30.0	-34.1	11.1	2.19e-03	0	43	102	1048576	20	5775
2026-01-05 08:04:36.26	10.37	14.61	-29.9	-33.7	11.4	1.13e-03	0	43	102	1048576	20	5577
2026-01-05 08:04:37.27	10.19	14.56	-29.8	-33.5	11.5	8.44e-04	0	43	102	1048576	20	5503
2026-01-05 08:04:38.28	10.00	14.51	-29.8	-33.4	11.6	7.06e-04	0	43	102	1048576	20	5436
2026-01-05 08:04:39.28	9.82	14.46	-29.8	-33.3	11.6	6.21e-04	0	43	102	1048576	20	5404
2026-01-05 08:04:40.29	9.64	14.41	-29.8	-33.5	11.5	7.48e-04	0	43	102	1048576	20	5479
2026-01-05 08:04:41.30	9.46	14.36	-29.9	-33.9	11.2	1.10e-03	0	43	102	1048576	20	5682
2026-01-05 08:04:42.30	9.28	14.31	-30.0	-34.0	11.1	1.28e-03	0	43	102	1048576	20	5728
2026-01-05 08:04:43.31	9.10	14.25	-30.1	-34.4	10.8	2.32e-03	0	43	102	1048576	20	5907
2026-01-05 08:04:44.31	8.92	14.20	-30.1	-34.4	10.8	2.33e-03	0	43	102	1048576	20	5917
2026-01-05 08:04:45.32	8.74	14.15	-30.2	-34.7	10.6	3.30e-03	0	43	102	1048576	20	6051
2026-01-05 08:04:46.33	8.56	14.10	-30.2	-34.6	10.7	2.95e-03	0	43	102	1048576	20	6021
2026-01-05 08:04:47.34	8.38	14.05	-30.2	-34.6	10.6	3.69e-03	0	43	102	1048576	20	6015
2026-01-05 08:04:48.34	8.21	13.99	-30.1	-34.4	10.8	3.06e-03	0	43	102	1048576	20	5925
2026-01-05 08:04:49.35	8.03	13.94	-30.1	-34.5	10.8	2.65e-03	0	43	102	1048576	20	5951
2026-01-05 08:04:50.35	7.85	13.89	-30.2	-34.7	10.6	3.39e-03	0	43	102	1048576	20	6048
2026-01-05 08:04:51.36	7.68	13.83	-30.1	-34.6	10.6	3.20e-03	0	43	102	1048576	20	6032
2026-01-05 08:04:52.37	7.50	13.78	-30.2	-34.9	10.4	3.73e-03	0	43	102	1048576	20	6155
2026-01-05 08:04:53.37	7.33	13.73	-30.3	-35.2	10.2	6.47e-03	0	43	102	1048576	20	6302
2026-01-05 08:04:54.38	7.16	13.67	-30.2	-34.9	10.4	4.99e-03	0	43	102	1048576	20	6186
2026-01-05 08:04:55.38	6.98	13.62	-30.1	-34.6	10.6	3.93e-03	0	43	102	1048576	20	6030
2026-01-05 08:04:56.39	6.81	13.57	-30.1	-34.6	10.6	3.03e-03	0	43	102	1048576	20	6031
2026-01-05 08:04:57.40	6.64	13.51	-30.1	-34.4	10.7	3.07e-03	0	43	102	1048576	20	5913
2026-01-05 08:04:58.41	6.47	13.46	-30.1	-34.4	10.7	2.58e-03	0	43	102	1048576	20	5924
2026-01-05 08:04:59.41	6.30	13.41	-30.1	-34.4	10.7	3.02e-03	0	43	102	1048576	20	5904
2026-01-05 08:05:00.42	6.13	13.35	-30.0	-34.2	10.9	2.27e-03	0	43	102	1048576	20	5847
2026-01-05 08:05:01.42	5.96	13.30	-30.0	-34.0	11.0	1.96e-03	0	43	102	1048576	20	5750
2026-01-05 08:05:02.42	5.80	13.24	-30.0	-34.0	11.0	1.79e-03	0	43	102	1048576	20	5727
2026-01-05 08:05:03.42	5.63	13.19	-29.9	-34.0	11.0	1.81e-03	0	43	102	1048576	20	5725
2026-01-05 08:05:04.43	5.46	13.13	-30.0	-34.3	10.9	2.11e-03	0	43	102	1048576	20	5850
2026-01-05 08:05:05.44	5.30	13.08	-30.1	-34.6	10.5	3.10e-03	0	43	102	1048576	20	6022
2026-01-05 08:05:06.45	5.13	13.02	-30.2	-34.8	10.4	4.30e-03	0	43	102	1048576	20	6116
2026-01-05 08:05:07.45	4.97	12.97	-30.2	-34.9	10.3	4.84e-03	0	43	102	1048576	20	6181
2026-01-05 08:05:08.46	4.80	12.91	-30.2	-34.9	10.3	4.87e-03	0	43	102	1048576	20	6197
2026-01-05 08:05:09.47	4.64	12.86	-30.2	-34.9	10.4	4.98e-03	0	43	102	1048576	20	6162
2026-01-05 08:05:10.47	4.47	12.80	-30.1	-34.6	10.6	3.83e-03	0	43	102	1048576	20	6013
2026-01-05 08:05:11.48	4.31	12.75	-30.0	-34.2	10.9	2.80e-03	0	43	102	1048576	20	5857
2026-01-05 08:05:12.49	4.15	12.69	-30.0	-34.2	10.8	2.36e-03	0	43	102	1048576	20	5840
2026-01-05 08:05:13.49	3.99	12.64	-30.0	-34.2	10.8	2.55e-03	0	43	102	1048576	20	5870
2026-01-05 08:05:14.50	3.83	12.58	-30.0	-34.2	10.8	2.87e-03	0	43	102	1048576	20	5863
2026-01-05 08:05:15.51	3.67	12.52	-29.9	-33.9	10.9	2.00e-03	0	43	102	1048576	20	5715
2026-01-05 08:05:16.51	3.51	12.47	-30.1	-34.4	10.6	2.85e-03	0	43	102	1048576	20	5951
2026-01-05 08:05:17.53	3.35	12.41	-30.0	-34.3	10.7	4.19e-03	0	43	102	1048576	20	5907
2026-01-05 08:05:18.53	3.19	12.36	-29.9	-33.9	11.1	2.18e-03	0	43	102	1048576	20	5692
2026-01-05 08:05:19.54	3.03	12.30	-29.8	-33.6	11.3	1.36e-03	0	43	102	1048576	20	5569
2026-01-05 08:05:20.54	2.88	12.24	-29.7	-33.4	11.4	1.05e-03	0	43	102	1048576	20	5485
2026-01-05 08:05:21.55	2.72	12.19	-29.7	-33.3	11.4	9.67e-04	0	43	102	1048576	20	5450
2026-01-05 08:05:22.56	2.56	12.13	-29.7	-33.2	11.5	1.00e-03	0	43	102	1048576	20	5391
2026-01-05 08:05:23.57	2.41	12.07	-29.7	-33.2	11.5	8.38e-04	0	43	102	1048576	20	5418
2026-01-05 08:05:24.57	2.26	12.02	-29.7	-33.2	11.6	6.90e-04	0	43	102	1048576	20	5418
2026-01-05 08:05:25.58	2.10	11.96	-29.8	-33.4	11.3	8.28e-04	0	43	102	1048576	20	5506
2026-01-05 08:05:26.58	1.95	11.90	-29.7	-33.4	11.4	1.20e-03	0	43	102	1048576	20	5467
2026-01-05 08:05:27.59	1.80	11.85	-29.7	-33.2	11.6	8.98e-04	0	43	102	1048576	20	5389
2026-01-05 08:05:28.60	1.64	11.79	-29.6	-33.0	11.6	6.93e-04	0	43	102	1048576	20	5336
2026-01-05 08:05:29.60	1.49	11.73	-29.6	-33.1	11.6	6.13e-04	0	43	102	1048576	20	5368
2026-01-05 08:05:30.61	1.34	11.67	-29.6	-33.1	11.5	6.69e-04	0	43	102	1048576	20	5349
2026-01-05 08:05:31.61	1.19	11.62	-29.7	-33.2	11.5	6.70e-04	0	43	102	1048576	20	5391
2026-01-05 08:05:32.61	1.04	11.56	-29.6	-33.1	11.5	1.07e-03	0	43	102	1048576	20	5357
2026-01-05 08:05:33.62	0.89	11.50	-29.5	-32.6	11.9	5.14e-04	0	43	102	1048576	20	5165
2026-01-05 08:05:34.63	0.75	11.45	-29.4	-32.3	12.1	3.32e-04	0	43	102	1048576	20	5023
2026-01-05 08:05:35.63	0.60	11.39	-29.3	-32.2	12.1	2.81e-04	0	43	102	1048576	20	5005
2026-01-05 08:05:36.64	0.45	11.33	-29.4	-32.3	12.1	3.07e-04	0	43	102	1048576	20	5044
2026-01-05 08:05:37.65	0.30	11.27	-29.3	-32.1	12.3	2.33e-04	0	43	102	1048576	20	4952
2026-01-05 08:05:38.65	0.16	11.22	-29.4	-32.3	12.1	2.26e-04	0	43	102	1048576	20	5046
2026-01-05 08:05:39.66	0.01	11.16	-29.4	-32.3	12.1	3.23e-04	0	43	102	1048576	20	5047
2026-01-05 08:05:40.67	359.87	11.10	-29.3	-32.7	12.3	2.42e-04	0	43	102	1048576	19	5280
2026-01-05 08:05:41.67	359.72	11.04	-29.4	-32.8	12.2	1.98e-04	0	43	102	1048576	19	5355
2026-01-05 08:05:42.68	359.58	10.99	-29.5	-33.0	12.0	2.88e-04	0	43	102	1048576	19	5432
2026-01-05 08:05:43.67	359.44	10.93	-29.5	-33.1	11.9	3.96e-04	0	43	102	1048576	19	5473
2026-01-05 08:05:44.68	359.30	10.87	-29.5	-33.1	12.0	4.08e-04	0	44	102	1048576	19	5447
2026-01-05 08:05:45.69	359.15	10.81	-29.5	-33.1	11.9	3.36e-04	0	43	102	1048576	19	5475
2026-01-05 08:05:46.69	359.01	10.76	-29.5	-33.1	11.8	4.02e-04	0	43	102	1048576	19	5468
2026-01-05 08:05:47.70	358.87	10.70	-29.4	-32.9	12.0	4.00e-04	0	43	102	1048576	19	5386
2026-01-05 08:05:48.71	358.73	10.64	-29.4	-32.7	12.2	2.94e-04	0	43	102	1048576	19	5311
2026-01-05 08:05:49.71	358.59	10.58	-29.3	-32.7	12.2	2.40e-04	0	43	102	1048576	19	5296
2026-01-05 08:05:50.71	358.45	10.52	-29.4	-33.0	12.0	2.94e-04	0	43	102	1048576	19	5414
2026-01-05 08:05:51.72	358.31	10.47	-29.4	-33.0	12.0	4.15e-04	0	43	102	1048576	19	5404
2026-01-05 08:05:52.72	358.18	10.41	-29.3	-32.5	12.2	2.33e-04	0	43	102	1048576	19	5236
2026-01-05 08:05:53.73	358.04	10.35	-29.2	-32.3	12.4	1.65e-04	0	43	102	1048576	19	5163
2026-01-05 08:05:54.74	357.90	10.29	-29.2	-32.2	12.5	1.27e-04	0	43	102	1048576	19	5106
2026-01-05 08:05:55.75	357.77	10.23	-29.2	-32.3	12.4	1.34e-04	0	43	102	1048576	19	5164
2026-01-05 08:05:56.75	357.63	10.18	-29.2	-32.4	12.3	1.36e-04	0	43	102	1048576	19	5194
2026-01-05 08:05:57.76	357.49	10.12	-29.2	-32.5	12.3	1.36e-04	0	43	102	1048576	19	5206
2026-01-05 08:05:58.76	357.36	10.06	-29.3	-32.7	12.1	2.27e-04	0	43	102	1048576	19	5321
2026-01-05 08:05:59.77	357.23	10.00	-29.3	-32.7	12.2	2.51e-04	0	43	102	1048576	19	5299
2026-01-05 08:06:00.78	357.09	9.94	-29.2	-32.5	12.3	2.05e-04	0	43	102	1048576	19	5231
2026-01-05 08:06:01.79	356.96	9.89	-29.3	-32.5	12.1	3.07e-04	0	43	102	1048576	19	5246
2026-01-05 08:06:02.80	356.83	9.83	-29.3	-32.8	12.0	3.29e-04	0	43	102	1048576	19	5354
2026-01-05 08:06:03.80	356.69	9.77	-29.3	-32.8	12.0	3.82e-04	0	43	102	1048576	19	5385
2026-01-05 08:06:04.81	356.56	9.71	-29.4	-32.9	11.9	4.15e-04	0	43	102	1048576	19	5379
2026-01-05 08:06:05.82	356.43	9.65	-29.5	-33.2	11.7	4.64e-04	0	43	102	1048576	19	5522
2026-01-05 08:06:06.82	356.30	9.59	-29.4	-33.1	11.7	5.76e-04	0	43	102	1048576	19	5488
2026-01-05 08:06:07.83	356.17	9.54	-29.5	-33.2	11.7	6.21e-04	0	43	102	1048576	19	5544
2026-01-05 08:06:08.83	356.04	9.48	-29.5	-33.4	11.6	6.09e-04	0	43	102	1048576	19	5632
2026-01-05 08:06:09.84	355.91	9.42	-29.5	-33.4	11.6	7.32e-04	0	43	102	1048576	19	5604
2026-01-05 08:06:10.85	355.79	9.36	-29.6	-33.6	11.5	8.10e-04	0	43	102	1048576	19	5698
2026-01-05 08:06:11.86	355.66	9.30	-29.5	-33.4	11.6	1.00e-03	0	43	102	1048576	19	5609
2026-01-05 08:06:12.87	355.53	9.24	-29.5	-33.2	11.7	6.14e-04	0	43	102	1048576	19	5542
2026-01-05 08:06:13.87	355.40	9.19	-29.5	-33.4	11.5	6.92e-04	0	43	102	1048576	19	5620
2026-01-05 08:06:14.88	355.28	9.13	-29.4	-33.1	11.7	6.80e-04	0	43	102	1048576	19	5491
2026-01-05 08:06:15.89	355.15	9.07	-29.5	-33.2	11.7	6.15e-04	0	43	102	1048576	19	5519
2026-01-05 08:06:16.90	355.03	9.01	-29.6	-33.5	11.5	7.42e-04	0	43	102	1048576	19	5680
2026-01-05 08:06:17.91	354.90	8.95	-29.4	-33.1	11.7	7.50e-04	0	43	102	1048576	19	5483
2026-01-05 08:06:18.91	354.78	8.89	-29.3	-32.8	11.9	5.27e-04	0	43	102	1048576	19	5349
2026-01-05 08:06:19.92	354.65	8.84	-29.3	-32.7	12.0	3.13e-04	0	43	102	1048576	19	5328
2026-01-05 08:06:20.93	354.53	8.78	-29.3	-32.8	11.9	3.16e-04	0	43	102	1048576	19	5342
2026-01-05 08:06:21.93	354.41	8.72	-29.3	-32.8	11.8	3.68e-04	0	43	102	1048576	19	5353
2026-01-05 08:06:22.94	354.29	8.66	-29.4	-33.2	11.6	5.67e-04	0	43	102	1048576	19	5524
2026-01-05 08:06:23.94	354.16	8.60	-29.5	-33.2	11.6	6.09e-04	0	43	102	1048576	19	5541
2026-01-05 08:06:24.95	354.04	8.54	-29.5	-33.3	11.6	5.64e-04	0	43	102	1048576	19	5562
2026-01-05 08:06:25.96	353.92	8.49	-29.6	-33.6	11.3	1.26e-03	0	43	102	1048576	19	5725
2026-01-05 08:06:26.97	353.80	8.43	-29.6	-33.6	11.3	1.10e-03	0	43	102	1048576	19	5708
2026-01-05 08:06:27.97	353.68	8.37	-29.5	-33.3	11.5	9.40e-04	0	43	102	1048576	19	5587
2026-01-05 08:06:28.97	353.56	8.31	-29.6	-33.7	11.2	9.95e-04	0	43	102	1048576	19	5766
2026-01-05 08:06:29.98	353.45	8.25	-29.6	-33.7	11.2	1.25e-03	0	43	102	1048576	19	5768
2026-01-05 08:06:30.99	353.33	8.20	-29.7	-33.9	11.0	1.67e-03	0	43	102	1048576	19	5866
2026-01-05 08:06:31.99	353.21	8.14	-29.7	-33.9	11.1	1.78e-03	0	43	102	1048576	19	5857
2026-01-05 08:06:33.00	353.09	8.08	-29.7	-33.9	11.1	1.91e-03	0	43	102	1048576	19	5865
2026-01-05 08:06:34.01	352.98	8.02	-29.7	-34.0	10.9	2.10e-03	0	44	102	1048576	19	5918
2026-01-05 08:06:35.01	352.86	7.96	-29.8	-34.4	10.6	2.56e-03	0	43	102	1048576	19	6096
2026-01-05 08:06:36.02	352.74	7.91	-29.7	-34.2	10.8	2.55e-03	0	43	102	1048576	19	6007
2026-01-05 08:06:37.03	352.63	7.85	-29.8	-34.2	10.8	2.74e-03	0	43	102	1048576	19	6025
2026-01-05 08:06:38.03	352.51	7.79	-29.8	-34.3	10.6	2.98e-03	0	43	102	1048576	19	6065
2026-01-05 08:06:39.04	352.40	7.73	-29.8	-34.4	10.6	3.09e-03	0	43	102	1048576	19	6117
2026-01-05 08:06:40.05	352.29	7.67	-29.8	-34.5	10.5	3.44e-03	0	43	102	1048576	19	6161
2026-01-05 08:06:41.06	352.17	7.62	-29.9	-34.7	10.4	3.69e-03	0	43	102	1048576	19	6268
2026-01-05 08:06:42.06	352.06	7.56	-29.9	-34.9	10.2	4.92e-03	0	43	102	1048576	19	6387
2026-01-05 08:06:43.07	351.95	7.50	-29.9	-34.7	10.3	5.53e-03	0	43	102	1048576	19	6275
2026-01-05 08:06:44.07	351.84	7.44	-29.9	-34.5	10.1	6.21e-03	0	43	102	1048576	20	6119
2026-01-05 08:06:45.08	351.72	7.38	-29.9	-34.4	10.1	6.69e-03	0	43	102	1048576	20	6033
2026-01-05 08:06:46.09	351.61	7.33	-29.9	-34.3	10.2	5.60e-03	0	43	102	1048576	20	5990
2026-01-05 08:06:47.10	351.50	7.27	-29.8	-34.2	10.3	5.78e-03	0	43	102	1048576	20	5971
2026-01-05 08:06:48.10	351.39	7.21	-30.0	-34.8	9.7	7.80e-03	0	43	102	1048576	20	6238
2026-01-05 08:06:49.11	351.28	7.15	-29.9	-34.4	10.0	8.24e-03	0	43	102	1048576	20	6071
2026-01-05 08:06:50.12	351.17	7.10	-29.9	-34.4	10.2	6.97e-03	0	43	102	1048576	20	6028
2026-01-05 08:06:51.12	351.06	7.04	-32.0	-45.8	3.8	1.29e+00	0	43	104	1048576	23	17690
2026-01-05 08:06:52.12	350.96	6.98	-32.3	-46.6	3.8	1.49e+00	0	43	104	1048576	24	18533
2026-01-05 08:06:53.13	350.85	6.92	-32.5	-46.6	3.8	1.49e+00	0	43	104	1048576	25	18218
2026-01-05 08:06:54.14	350.74	6.87	-32.7	-46.9	3.8	1.49e+00	0	43	104	1048576	25	18516

#Closed at: 2026-01-05 08:06:54
#Recorded file [1 MB]: D:/data/31010_260105_105801.dat