passes_logs/2026/01/05/R2M6_AANII_01/R2M6_AANII_01__20260105_134253_FENGYUN_3E_rec.log

#Pass ID: 20260105_134253_FENGYUN 3E
#Satellite: FENGYUN 3E
#Configuration: FENGYUN 3E
#almurnet v.1.7.20240730
#Start time: 2026-01-05 13:48:07

#Version: 2.2.20231116
#Station: R2M6_AANII_01
#Location: 30.233357 lon 59.946436 lat
#TLE: 1 49008U 21062A   26004.99925679  .00000018  00000+0  29282-4 0  9995
#TLE: 2 49008  98.7472  10.2448 0001540 159.6420 200.4818 14.19883565233423

#Time	Az	El	Level	Level2	SNR	BER	BlckErr	Temp	State	Recorded	gain1	gain2
2026-01-05 13:48:07.65	77.35	45.27	-32.9	-44.4	3.8	8.46e-01	0	43	0	0	25	13464
2026-01-05 13:48:08.65	76.82	45.37	-33.6	-42.5	3.8	8.47e-01	0	44	104	0	28	10065
2026-01-05 13:48:09.65	76.30	45.46	-33.6	-42.6	3.8	8.44e-01	0	44	104	0	28	10124
2026-01-05 13:48:10.66	75.76	45.55	-33.7	-42.6	3.8	8.46e-01	0	44	104	0	28	10118
2026-01-05 13:48:11.67	75.23	45.63	-33.7	-42.7	3.8	8.47e-01	0	44	104	0	28	10124
2026-01-05 13:48:12.67	74.69	45.72	-33.7	-42.8	3.8	8.47e-01	0	44	104	0	28	10206
2026-01-05 13:48:13.67	74.16	45.80	-33.7	-42.8	3.8	8.46e-01	0	44	104	0	28	10275
2026-01-05 13:48:14.67	73.61	45.87	-33.7	-42.8	3.8	8.45e-01	0	44	104	0	28	10214
2026-01-05 13:48:15.68	73.07	45.95	-33.7	-42.8	3.8	8.47e-01	0	44	104	0	28	10210
2026-01-05 13:48:16.69	72.52	46.02	-33.7	-42.8	3.8	8.45e-01	0	44	104	0	28	10255
2026-01-05 13:48:17.69	71.97	46.09	-33.7	-42.8	3.8	8.46e-01	0	44	104	0	28	10256
2026-01-05 13:48:18.70	71.41	46.16	-33.7	-42.8	3.8	8.47e-01	0	44	104	0	28	10213
2026-01-05 13:48:19.71	70.85	46.22	-33.7	-42.7	3.8	8.46e-01	0	44	104	0	28	10171
2026-01-05 13:48:20.71	70.30	46.29	-33.7	-42.8	3.8	8.46e-01	0	44	104	0	28	10203
2026-01-05 13:48:21.72	69.74	46.34	-33.7	-42.7	3.8	8.46e-01	0	44	104	0	28	10166
2026-01-05 13:48:22.72	69.18	46.40	-33.7	-42.7	3.8	8.45e-01	0	44	104	0	28	10161
2026-01-05 13:48:23.73	68.61	46.45	-33.7	-42.8	3.8	8.46e-01	0	44	104	0	28	10218
2026-01-05 13:48:24.73	68.05	46.50	-33.8	-42.9	3.8	8.45e-01	0	44	104	0	28	10254
2026-01-05 13:48:25.74	67.48	46.55	-33.7	-42.8	3.8	8.45e-01	0	44	104	0	28	10265
2026-01-05 13:48:26.75	66.91	46.59	-33.7	-42.7	3.8	8.45e-01	0	44	104	0	28	10143
2026-01-05 13:48:27.75	66.34	46.63	-33.6	-42.5	3.8	8.46e-01	0	44	104	0	28	10020
2026-01-05 13:48:28.75	65.77	46.67	-33.5	-42.4	3.8	8.47e-01	0	44	104	0	28	9998
2026-01-05 13:48:29.77	65.19	46.71	-33.7	-42.7	3.8	8.45e-01	0	44	104	0	28	10154
2026-01-05 13:48:30.77	64.62	46.74	-33.7	-42.7	3.8	8.45e-01	0	44	104	0	28	10195
2026-01-05 13:48:31.78	64.04	46.76	-33.7	-42.6	3.8	8.45e-01	0	44	104	0	28	10126
2026-01-05 13:48:32.78	63.47	46.79	-33.6	-42.5	3.8	8.45e-01	0	44	104	0	28	10023
2026-01-05 13:48:33.79	62.89	46.81	-33.6	-42.5	3.8	8.46e-01	0	44	104	0	28	10061
2026-01-05 13:48:34.79	62.31	46.83	-33.6	-42.5	3.8	8.45e-01	0	44	104	0	28	10046
2026-01-05 13:48:35.79	61.74	46.84	-33.6	-42.4	3.8	8.46e-01	0	44	104	0	28	9998
2026-01-05 13:48:36.80	61.15	46.86	-33.6	-42.5	3.8	8.46e-01	0	44	104	0	28	10077
2026-01-05 13:48:37.81	60.57	46.87	-33.6	-42.4	3.8	8.46e-01	0	44	104	0	28	10000
2026-01-05 13:48:38.81	59.99	46.87	-33.6	-42.4	3.8	8.46e-01	0	44	104	0	28	10011
2026-01-05 13:48:39.82	59.41	46.87	-33.5	-42.3	3.8	8.46e-01	0	44	104	0	28	9851
2026-01-05 13:48:40.82	58.84	46.87	-33.5	-42.1	3.8	8.46e-01	0	44	104	0	28	9711
2026-01-05 13:48:41.83	58.25	46.87	-33.5	-42.1	3.8	8.46e-01	0	44	104	0	28	9733
2026-01-05 13:48:42.83	57.68	46.86	-33.5	-42.2	3.8	8.46e-01	0	44	104	0	28	9826
2026-01-05 13:48:43.84	57.09	46.85	-33.5	-42.3	3.8	8.46e-01	0	44	104	0	28	9850
2026-01-05 13:48:44.85	56.51	46.84	-33.5	-42.2	3.8	8.46e-01	0	44	104	0	28	9758
2026-01-05 13:48:45.85	55.94	46.82	-33.5	-41.9	3.8	8.46e-01	0	44	104	0	28	9515
2026-01-05 13:48:46.86	55.36	46.80	-33.5	-42.0	3.8	8.47e-01	0	44	104	0	28	9608
2026-01-05 13:48:47.86	54.78	46.78	-33.5	-42.1	3.8	8.47e-01	0	44	104	0	28	9721
2026-01-05 13:48:48.87	54.21	46.75	-33.5	-42.2	3.8	8.47e-01	0	44	104	0	28	9839
2026-01-05 13:48:49.88	53.63	46.72	-33.5	-42.3	3.8	8.45e-01	0	44	104	0	28	9945
2026-01-05 13:48:50.89	53.05	46.69	-33.5	-41.9	3.8	8.47e-01	0	44	104	0	28	9515
2026-01-05 13:48:51.89	52.48	46.65	-33.5	-41.9	3.8	8.46e-01	0	44	104	0	27	9510
2026-01-05 13:48:52.90	51.91	46.61	-33.4	-41.8	3.8	8.46e-01	0	44	104	0	27	9410
2026-01-05 13:48:53.91	51.34	46.57	-33.5	-42.2	3.8	8.47e-01	0	44	104	0	27	9859
2026-01-05 13:48:54.91	50.77	46.53	-33.5	-42.5	3.8	8.46e-01	0	44	104	0	27	10119
2026-01-05 13:48:55.92	50.20	46.48	-33.5	-42.4	3.8	8.46e-01	0	44	104	0	27	9990
2026-01-05 13:48:56.93	49.64	46.43	-33.5	-42.4	3.8	8.46e-01	0	44	104	0	27	10032
2026-01-05 13:48:57.93	49.08	46.37	-33.2	-40.0	3.8	8.43e-01	0	44	104	0	27	7871
2026-01-05 13:48:58.94	48.51	46.31	-32.6	-37.4	4.1	8.31e-01	0	44	104	0	26	6287
2026-01-05 13:48:59.94	47.96	46.26	-31.9	-35.2	6.0	6.28e-01	0	44	104	0	25	5254
2026-01-05 13:49:00.95	47.40	46.19	-29.4	-30.9	10.8	5.55e-03	0	44	102	1048576	19	4270
2026-01-05 13:49:01.96	46.84	46.13	-26.7	-27.1	14.3	4.50e-06	0	44	102	1048576	14	3773
2026-01-05 13:49:02.96	46.29	46.06	-26.2	-26.5	14.9	0.00e+00	0	44	102	1048576	13	3739
2026-01-05 13:49:03.97	45.74	45.99	-26.6	-27.5	14.4	1.10e-06	0	44	102	1048576	13	3968
2026-01-05 13:49:04.98	45.19	45.91	-26.1	-26.3	15.0	0.00e+00	0	44	102	1048576	13	3695
2026-01-05 13:49:05.98	44.65	45.83	-25.8	-26.2	15.4	0.00e+00	0	44	102	1048576	12	3778
2026-01-05 13:49:06.99	44.11	45.75	-25.8	-26.2	15.4	0.00e+00	0	44	102	1048576	12	3758
2026-01-05 13:49:08.00	43.57	45.67	-25.8	-26.1	15.4	0.00e+00	0	44	102	1048576	12	3737
2026-01-05 13:49:09.00	43.04	45.59	-25.7	-25.8	15.6	1.10e-06	0	44	102	1048576	12	3683
2026-01-05 13:49:10.00	42.51	45.50	-24.9	-25.1	16.5	0.00e+00	0	44	102	1048576	10	3701
2026-01-05 13:49:11.01	41.98	45.41	-24.2	-24.3	17.2	0.00e+00	0	44	102	1048576	9	3616
2026-01-05 13:49:12.01	41.45	45.32	-23.9	-23.6	17.6	0.00e+00	0	44	102	1048576	9	3484
2026-01-05 13:49:13.02	40.93	45.22	-23.7	-23.7	17.8	0.00e+00	0	44	102	1048576	8	3590
2026-01-05 13:49:14.02	40.41	45.13	-24.0	-24.4	17.4	0.00e+00	0	44	102	1048576	8	3750
2026-01-05 13:49:15.03	39.89	45.03	-23.6	-23.4	17.9	0.00e+00	0	44	102	1048576	8	3540
2026-01-05 13:49:16.03	39.38	44.92	-23.2	-23.1	18.3	0.00e+00	0	44	102	1048576	7	3561
2026-01-05 13:49:17.03	38.87	44.82	-23.1	-22.8	18.4	0.00e+00	0	44	102	1048576	7	3498
2026-01-05 13:49:18.04	38.36	44.71	-23.3	-23.3	18.2	0.00e+00	0	44	102	1048576	7	3603
2026-01-05 13:49:19.05	37.86	44.60	-23.3	-23.4	18.2	0.00e+00	0	44	102	1048576	7	3632
2026-01-05 13:49:20.06	37.35	44.49	-23.1	-23.0	18.4	0.00e+00	0	44	102	1048576	7	3544
2026-01-05 13:49:21.06	36.86	44.38	-23.1	-22.9	18.4	0.00e+00	0	44	102	1048576	7	3512
2026-01-05 13:49:22.06	36.37	44.27	-23.2	-23.0	18.3	0.00e+00	0	44	102	1048576	7	3549
2026-01-05 13:49:23.07	35.88	44.15	-22.6	-22.4	18.9	0.00e+00	0	44	102	1048576	6	3513
2026-01-05 13:49:24.08	35.39	44.03	-22.3	-22.2	19.2	0.00e+00	0	44	102	1048576	5	3578
2026-01-05 13:49:25.08	34.91	43.91	-22.2	-22.1	19.3	0.00e+00	0	44	102	1048576	5	3539
2026-01-05 13:49:26.09	34.43	43.79	-22.4	-22.6	19.0	0.00e+00	0	44	102	1048576	5	3647
2026-01-05 13:49:27.10	33.96	43.66	-22.5	-22.7	19.0	0.00e+00	0	44	102	1048576	5	3675
2026-01-05 13:49:28.10	33.49	43.53	-22.6	-22.8	18.9	0.00e+00	0	44	102	1048576	5	3706
2026-01-05 13:49:29.11	33.02	43.41	-22.5	-22.6	19.0	0.00e+00	0	44	102	1048576	5	3652
2026-01-05 13:49:30.12	32.55	43.28	-22.5	-22.6	19.0	0.00e+00	0	44	102	1048576	5	3651
2026-01-05 13:49:31.13	32.09	43.14	-22.6	-22.9	18.9	0.00e+00	0	44	102	1048576	5	3728
2026-01-05 13:49:32.13	31.64	43.01	-22.5	-22.6	19.0	0.00e+00	0	44	102	1048576	5	3668
2026-01-05 13:49:33.14	31.19	42.88	-22.5	-22.6	19.0	0.00e+00	0	44	102	1048576	5	3654
2026-01-05 13:49:34.14	30.74	42.74	-22.5	-22.6	19.0	0.00e+00	0	44	102	1048576	5	3660
2026-01-05 13:49:35.14	30.30	42.60	-22.5	-22.7	18.9	0.00e+00	0	44	102	1048576	5	3688
2026-01-05 13:49:36.15	29.86	42.46	-22.5	-22.6	19.0	0.00e+00	0	44	102	1048576	5	3654
2026-01-05 13:49:37.15	29.42	42.33	-22.6	-22.8	18.9	0.00e+00	0	44	102	1048576	5	3705
2026-01-05 13:49:38.16	28.99	42.18	-22.4	-22.4	19.1	0.00e+00	0	44	102	1048576	5	3608
2026-01-05 13:49:39.16	28.56	42.04	-22.5	-22.6	19.0	0.00e+00	0	44	102	1048576	5	3651
2026-01-05 13:49:40.17	28.13	41.90	-22.7	-23.1	18.8	0.00e+00	0	44	102	1048576	5	3762
2026-01-05 13:49:41.17	27.72	41.75	-22.7	-23.1	18.7	0.00e+00	0	44	102	1048576	5	3768
2026-01-05 13:49:42.17	27.30	41.61	-22.7	-23.0	18.8	0.00e+00	0	44	102	1048576	5	3751
2026-01-05 13:49:43.18	26.89	41.46	-22.6	-23.0	18.7	0.00e+00	0	44	102	1048576	5	3738
2026-01-05 13:49:44.18	26.48	41.31	-22.7	-23.0	18.8	0.00e+00	0	44	102	1048576	5	3755
2026-01-05 13:49:45.19	26.07	41.16	-22.8	-23.2	18.6	0.00e+00	0	44	102	1048576	5	3805
2026-01-05 13:49:46.20	25.67	41.01	-22.5	-22.7	19.0	0.00e+00	0	44	102	1048576	5	3668
2026-01-05 13:49:47.21	25.27	40.86	-22.5	-22.7	18.9	0.00e+00	0	44	102	1048576	5	3670
2026-01-05 13:49:48.22	24.87	40.70	-22.7	-23.0	18.7	0.00e+00	0	44	102	1048576	5	3747
2026-01-05 13:49:49.22	24.48	40.55	-22.6	-23.0	18.7	0.00e+00	0	44	102	1048576	5	3744
2026-01-05 13:49:50.22	24.10	40.40	-22.6	-22.9	18.6	0.00e+00	0	44	102	1048576	5	3724
2026-01-05 13:49:51.23	23.71	40.24	-22.7	-23.1	18.7	0.00e+00	0	44	102	1048576	5	3762
2026-01-05 13:49:52.24	23.33	40.08	-22.7	-23.0	18.7	0.00e+00	0	44	102	1048576	5	3757
2026-01-05 13:49:53.24	22.96	39.93	-22.6	-23.0	18.8	0.00e+00	0	44	102	1048576	5	3736
2026-01-05 13:49:54.25	22.58	39.77	-22.7	-23.1	18.7	0.00e+00	0	44	102	1048576	5	3776
2026-01-05 13:49:55.26	22.21	39.61	-22.9	-23.5	18.5	0.00e+00	0	44	102	1048576	5	3850
2026-01-05 13:49:56.27	21.84	39.45	-22.8	-23.2	18.6	0.00e+00	0	44	102	1048576	5	3793
2026-01-05 13:49:57.27	21.48	39.29	-22.9	-23.4	18.5	0.00e+00	0	44	102	1048576	5	3841
2026-01-05 13:49:58.28	21.13	39.13	-23.1	-23.4	18.3	0.00e+00	0	44	102	1048576	6	3734
2026-01-05 13:49:59.29	20.77	38.97	-22.9	-23.1	18.4	0.00e+00	0	44	102	1048576	6	3661
2026-01-05 13:50:00.29	20.42	38.81	-22.8	-22.8	18.6	0.00e+00	0	44	102	1048576	6	3608
2026-01-05 13:50:01.30	20.07	38.65	-22.9	-23.0	18.5	0.00e+00	0	44	102	1048576	6	3639
2026-01-05 13:50:02.31	19.73	38.49	-22.9	-22.9	18.6	0.00e+00	0	44	102	1048576	6	3627
2026-01-05 13:50:03.31	19.39	38.33	-22.7	-22.6	18.7	0.00e+00	0	44	102	1048576	6	3545
2026-01-05 13:50:04.32	19.05	38.16	-22.6	-22.3	18.8	0.00e+00	0	44	102	1048576	6	3498
2026-01-05 13:50:05.33	18.71	38.00	-22.6	-22.4	18.8	0.00e+00	0	44	102	1048576	6	3512
2026-01-05 13:50:06.33	18.39	37.84	-22.6	-22.4	18.8	0.00e+00	0	44	102	1048576	6	3502
2026-01-05 13:50:07.34	18.06	37.67	-22.4	-22.0	19.0	0.00e+00	0	44	102	1048576	6	3435
2026-01-05 13:50:08.35	17.73	37.51	-22.5	-22.1	18.9	0.00e+00	0	44	102	1048576	6	3449
2026-01-05 13:50:09.36	17.41	37.35	-22.6	-22.4	18.8	0.00e+00	0	44	102	1048576	6	3513
2026-01-05 13:50:10.37	17.09	37.18	-22.7	-22.6	18.7	0.00e+00	0	44	102	1048576	6	3567
2026-01-05 13:50:11.37	16.78	37.02	-22.7	-22.7	18.6	0.00e+00	0	44	102	1048576	6	3582
2026-01-05 13:50:12.37	16.47	36.85	-22.5	-22.2	18.9	0.00e+00	0	44	102	1048576	6	3468
2026-01-05 13:50:13.38	16.16	36.69	-22.4	-22.4	19.0	0.00e+00	0	44	102	1048576	5	3613
2026-01-05 13:50:14.38	15.86	36.53	-22.3	-22.2	19.1	0.00e+00	0	44	102	1048576	5	3570
2026-01-05 13:50:15.39	15.56	36.36	-22.2	-22.1	19.2	0.00e+00	0	44	102	1048576	5	3544
2026-01-05 13:50:16.40	15.26	36.20	-22.3	-22.2	19.0	0.00e+00	0	44	102	1048576	5	3581
2026-01-05 13:50:17.41	14.96	36.03	-22.4	-22.5	19.0	0.00e+00	0	44	102	1048576	5	3627
2026-01-05 13:50:18.41	14.67	35.87	-22.4	-22.5	18.9	0.00e+00	0	44	102	1048576	5	3645
2026-01-05 13:50:19.42	14.38	35.70	-22.3	-22.2	19.1	0.00e+00	0	44	102	1048576	5	3570
2026-01-05 13:50:20.43	14.09	35.54	-22.2	-22.1	19.1	0.00e+00	0	44	102	1048576	5	3553
2026-01-05 13:50:21.43	13.81	35.37	-22.4	-22.4	18.9	0.00e+00	0	44	102	1048576	5	3614
2026-01-05 13:50:22.44	13.53	35.21	-22.4	-22.4	19.0	0.00e+00	0	44	102	1048576	5	3611
2026-01-05 13:50:23.45	13.25	35.04	-22.7	-23.0	18.7	0.00e+00	0	44	102	1048576	5	3748
2026-01-05 13:50:24.46	12.97	34.88	-22.9	-23.5	18.4	0.00e+00	0	44	102	1048576	5	3852
2026-01-05 13:50:25.46	12.70	34.71	-22.9	-23.6	18.3	0.00e+00	0	44	102	1048576	5	3885
2026-01-05 13:50:26.47	12.43	34.55	-22.9	-23.5	18.4	0.00e+00	0	44	102	1048576	5	3858
2026-01-05 13:50:27.48	12.16	34.38	-22.7	-23.2	18.6	0.00e+00	0	44	102	1048576	5	3789
2026-01-05 13:50:28.48	11.90	34.22	-22.7	-23.0	18.7	0.00e+00	0	44	102	1048576	5	3759
2026-01-05 13:50:29.49	11.64	34.05	-22.8	-23.3	18.5	0.00e+00	0	44	102	1048576	5	3819
2026-01-05 13:50:30.50	11.38	33.89	-22.8	-23.4	18.5	0.00e+00	0	44	102	1048576	5	3835
2026-01-05 13:50:31.50	11.12	33.73	-22.7	-23.2	18.6	0.00e+00	0	44	102	1048576	5	3784
2026-01-05 13:50:32.51	10.87	33.56	-22.8	-23.2	18.5	0.00e+00	0	44	102	1048576	5	3799
2026-01-05 13:50:33.51	10.62	33.40	-22.8	-23.3	18.5	0.00e+00	0	44	102	1048576	5	3808
2026-01-05 13:50:34.52	10.37	33.24	-22.9	-23.5	18.3	0.00e+00	0	44	102	1048576	5	3870
2026-01-05 13:50:35.53	10.12	33.08	-23.1	-23.9	18.2	2.20e-06	0	44	102	1048576	5	3960
2026-01-05 13:50:36.53	9.88	32.91	-23.4	-24.1	17.8	0.00e+00	0	44	102	1048576	6	3900
2026-01-05 13:50:37.54	9.64	32.75	-23.5	-23.8	17.7	0.00e+00	0	44	102	1048576	7	3715
2026-01-05 13:50:38.54	9.40	32.59	-23.0	-22.7	18.3	0.00e+00	0	44	102	1048576	7	3493
2026-01-05 13:50:39.55	9.16	32.43	-22.6	-22.4	18.7	0.00e+00	0	44	102	1048576	6	3521
2026-01-05 13:50:40.56	8.93	32.27	-22.4	-22.4	18.9	0.00e+00	0	44	102	1048576	5	3615
2026-01-05 13:50:41.56	8.70	32.11	-22.3	-22.2	19.0	0.00e+00	0	44	102	1048576	5	3578
2026-01-05 13:50:42.57	8.47	31.95	-22.4	-22.5	18.9	0.00e+00	0	44	102	1048576	5	3629
2026-01-05 13:50:43.58	8.24	31.79	-22.5	-22.7	18.8	0.00e+00	0	44	102	1048576	5	3679
2026-01-05 13:50:44.59	8.02	31.63	-22.6	-22.9	18.6	0.00e+00	0	44	102	1048576	5	3726
2026-01-05 13:50:45.59	7.79	31.47	-22.7	-23.0	18.6	0.00e+00	0	44	102	1048576	5	3750
2026-01-05 13:50:46.60	7.57	31.31	-22.6	-22.9	18.6	0.00e+00	0	44	102	1048576	5	3718
2026-01-05 13:50:47.60	7.36	31.15	-22.7	-23.1	18.5	0.00e+00	0	44	102	1048576	5	3770
2026-01-05 13:50:48.61	7.14	30.99	-22.6	-22.9	18.7	0.00e+00	0	44	102	1048576	5	3722
2026-01-05 13:50:49.61	6.93	30.84	-22.6	-23.0	18.6	0.00e+00	0	44	102	1048576	5	3737
2026-01-05 13:50:50.62	6.72	30.68	-22.6	-23.0	18.6	1.10e-06	0	44	102	1048576	5	3748
2026-01-05 13:50:51.62	6.51	30.52	-22.5	-22.7	18.7	0.00e+00	0	44	102	1048576	5	3695
2026-01-05 13:50:52.62	6.30	30.37	-22.5	-22.8	18.7	0.00e+00	0	44	102	1048576	5	3699
2026-01-05 13:50:53.63	6.09	30.21	-22.6	-22.9	18.6	0.00e+00	0	44	102	1048576	5	3731
2026-01-05 13:50:54.63	5.89	30.06	-22.6	-22.9	18.6	0.00e+00	0	44	102	1048576	5	3727
2026-01-05 13:50:55.64	5.69	29.90	-22.7	-23.2	18.5	0.00e+00	0	44	102	1048576	5	3790
2026-01-05 13:50:56.64	5.49	29.75	-22.8	-23.3	18.4	0.00e+00	0	44	102	1048576	5	3820
2026-01-05 13:50:57.65	5.29	29.59	-22.8	-23.3	18.4	0.00e+00	0	44	102	1048576	5	3814
2026-01-05 13:50:58.66	5.10	29.44	-22.9	-23.6	18.3	0.00e+00	0	44	102	1048576	5	3878
2026-01-05 13:50:59.67	4.90	29.28	-23.0	-23.7	18.2	0.00e+00	0	44	102	1048576	5	3918
2026-01-05 13:51:00.68	4.71	29.13	-23.0	-23.6	18.2	0.00e+00	0	44	102	1048576	5	3899
2026-01-05 13:51:01.68	4.52	28.98	-23.0	-23.7	18.2	0.00e+00	0	44	102	1048576	5	3915
2026-01-05 13:51:02.69	4.33	28.83	-22.8	-23.4	18.3	0.00e+00	0	44	102	1048576	5	3832
2026-01-05 13:51:03.69	4.15	28.68	-22.6	-23.0	18.6	0.00e+00	0	44	102	1048576	5	3744
2026-01-05 13:51:04.70	3.96	28.52	-22.7	-23.1	18.5	0.00e+00	0	44	102	1048576	5	3767
2026-01-05 13:51:05.71	3.78	28.37	-22.9	-23.5	18.3	0.00e+00	0	44	102	1048576	5	3862
2026-01-05 13:51:06.71	3.60	28.22	-22.9	-23.4	18.3	0.00e+00	0	44	102	1048576	5	3850
2026-01-05 13:51:07.73	3.42	28.07	-23.1	-23.8	18.1	0.00e+00	0	44	102	1048576	5	3945
2026-01-05 13:51:08.73	3.24	27.92	-23.1	-23.5	18.1	0.00e+00	0	44	102	1048576	6	3749
2026-01-05 13:51:09.74	3.06	27.77	-23.1	-23.5	18.1	0.00e+00	0	44	102	1048576	6	3757
2026-01-05 13:51:10.75	2.89	27.63	-23.1	-23.5	18.0	0.00e+00	0	44	102	1048576	6	3770
2026-01-05 13:51:11.75	2.72	27.48	-23.2	-23.7	17.9	0.00e+00	0	44	102	1048576	6	3803
2026-01-05 13:51:12.76	2.54	27.33	-23.1	-23.5	18.0	0.00e+00	0	44	102	1048576	6	3752
2026-01-05 13:51:13.77	2.37	27.19	-23.0	-23.3	18.1	0.00e+00	0	44	102	1048576	6	3705
2026-01-05 13:51:14.77	2.21	27.04	-23.0	-23.2	18.2	0.00e+00	0	44	102	1048576	6	3693
2026-01-05 13:51:15.78	2.04	26.89	-23.0	-23.2	18.2	0.00e+00	0	44	102	1048576	6	3692
2026-01-05 13:51:16.79	1.87	26.75	-23.2	-23.6	18.0	0.00e+00	0	44	102	1048576	6	3784
2026-01-05 13:51:17.79	1.71	26.60	-23.0	-23.3	18.1	0.00e+00	0	44	102	1048576	6	3719
2026-01-05 13:51:18.81	1.55	26.46	-22.8	-22.8	18.4	0.00e+00	0	44	102	1048576	6	3596
2026-01-05 13:51:19.81	1.39	26.32	-22.7	-22.6	18.5	0.00e+00	0	44	102	1048576	6	3548
2026-01-05 13:51:20.81	1.23	26.17	-22.6	-22.5	18.5	0.00e+00	0	44	102	1048576	6	3540
2026-01-05 13:51:21.82	1.07	26.03	-22.8	-22.7	18.4	0.00e+00	0	44	102	1048576	6	3583
2026-01-05 13:51:22.83	0.91	25.89	-22.7	-22.6	18.5	0.00e+00	0	44	102	1048576	6	3569
2026-01-05 13:51:23.84	0.76	25.75	-22.7	-22.6	18.5	0.00e+00	0	44	102	1048576	6	3560
2026-01-05 13:51:24.85	0.61	25.61	-22.9	-23.0	18.3	0.00e+00	0	44	102	1048576	6	3651
2026-01-05 13:51:25.85	0.46	25.47	-22.9	-22.9	18.3	0.00e+00	0	44	102	1048576	6	3634
2026-01-05 13:51:26.86	0.30	25.33	-22.9	-23.1	18.2	0.00e+00	0	44	102	1048576	6	3662
2026-01-05 13:51:27.87	0.15	25.19	-23.0	-23.2	18.1	0.00e+00	0	44	102	1048576	6	3703
2026-01-05 13:51:28.88	0.01	25.05	-23.0	-23.3	18.1	0.00e+00	0	44	102	1048576	6	3724
2026-01-05 13:51:29.88	359.86	24.91	-23.0	-23.3	18.1	0.00e+00	0	44	102	1048576	6	3706
2026-01-05 13:51:30.89	359.72	24.77	-23.0	-23.3	18.1	0.00e+00	0	44	102	1048576	6	3710
2026-01-05 13:51:31.90	359.57	24.63	-23.2	-23.6	17.9	0.00e+00	0	44	102	1048576	6	3796
2026-01-05 13:51:32.90	359.43	24.50	-23.0	-23.4	18.1	0.00e+00	0	44	102	1048576	6	3730
2026-01-05 13:51:33.91	359.29	24.36	-22.9	-23.1	18.1	0.00e+00	0	44	102	1048576	6	3674
2026-01-05 13:51:34.92	359.15	24.22	-23.0	-23.2	18.1	0.00e+00	0	44	102	1048576	6	3687
2026-01-05 13:51:35.93	359.01	24.09	-22.9	-23.0	18.2	0.00e+00	0	44	102	1048576	6	3651
2026-01-05 13:51:36.93	358.87	23.95	-22.9	-23.1	18.2	0.00e+00	0	44	102	1048576	6	3661
2026-01-05 13:51:37.94	358.73	23.82	-22.9	-22.9	18.3	0.00e+00	0	44	102	1048576	6	3636
2026-01-05 13:51:38.95	358.60	23.69	-22.9	-22.9	18.2	0.00e+00	0	44	102	1048576	6	3630
2026-01-05 13:51:39.96	358.46	23.55	-23.0	-23.2	18.0	0.00e+00	0	44	102	1048576	6	3695
2026-01-05 13:51:40.96	358.33	23.42	-22.9	-22.9	18.2	0.00e+00	0	44	102	1048576	6	3637
2026-01-05 13:51:41.97	358.20	23.29	-22.8	-22.9	18.3	0.00e+00	0	44	102	1048576	6	3616
2026-01-05 13:51:42.97	358.07	23.16	-22.8	-22.9	18.2	0.00e+00	0	44	102	1048576	6	3629
2026-01-05 13:51:43.98	357.94	23.03	-22.8	-22.9	18.3	0.00e+00	0	44	102	1048576	6	3621
2026-01-05 13:51:44.99	357.81	22.89	-22.9	-23.0	18.2	0.00e+00	0	44	102	1048576	6	3642
2026-01-05 13:51:46.00	357.68	22.76	-22.9	-22.9	18.2	0.00e+00	0	44	102	1048576	6	3633
2026-01-05 13:51:47.00	357.56	22.64	-22.9	-23.0	18.2	0.00e+00	0	44	102	1048576	6	3653
2026-01-05 13:51:48.01	357.43	22.51	-22.8	-22.9	18.2	0.00e+00	0	44	102	1048576	6	3620
2026-01-05 13:51:49.02	357.31	22.38	-22.9	-23.0	18.2	0.00e+00	0	44	102	1048576	6	3656
2026-01-05 13:51:50.03	357.18	22.25	-22.9	-23.0	18.2	0.00e+00	0	44	102	1048576	6	3648
2026-01-05 13:51:51.03	357.06	22.12	-23.0	-23.2	18.1	0.00e+00	0	44	102	1048576	6	3692
2026-01-05 13:51:52.04	356.94	21.99	-23.0	-23.2	18.1	0.00e+00	0	44	102	1048576	6	3686
2026-01-05 13:51:53.04	356.82	21.87	-23.1	-23.4	17.9	0.00e+00	0	44	102	1048576	6	3745
2026-01-05 13:51:54.05	356.70	21.74	-23.2	-23.6	17.9	0.00e+00	0	44	102	1048576	6	3778
2026-01-05 13:51:55.05	356.59	21.62	-23.3	-24.0	17.7	0.00e+00	0	44	102	1048576	6	3867
2026-01-05 13:51:56.06	356.47	21.49	-23.4	-24.1	17.6	0.00e+00	0	44	102	1048576	6	3894
2026-01-05 13:51:57.07	356.35	21.37	-23.6	-24.4	17.4	0.00e+00	0	44	102	1048576	6	3983
2026-01-05 13:51:58.07	356.24	21.24	-23.7	-24.2	17.3	0.00e+00	0	44	102	1048576	7	3811
2026-01-05 13:51:59.08	356.12	21.12	-23.8	-24.5	17.2	0.00e+00	0	44	102	1048576	7	3881
2026-01-05 13:52:00.08	356.01	21.00	-23.8	-24.5	17.1	0.00e+00	0	44	102	1048576	7	3897
2026-01-05 13:52:01.08	355.90	20.87	-23.9	-24.7	17.0	0.00e+00	0	44	102	1048576	7	3951
2026-01-05 13:52:02.09	355.79	20.75	-23.8	-24.6	17.1	0.00e+00	0	44	102	1048576	7	3909
2026-01-05 13:52:03.10	355.68	20.63	-23.9	-24.6	17.1	0.00e+00	0	44	102	1048576	7	3913
2026-01-05 13:52:04.10	355.57	20.51	-23.9	-24.6	17.0	0.00e+00	0	44	102	1048576	7	3925
2026-01-05 13:52:05.11	355.46	20.39	-23.7	-24.3	17.1	0.00e+00	0	44	102	1048576	7	3851
2026-01-05 13:52:06.12	355.35	20.27	-23.7	-24.2	17.2	0.00e+00	0	44	102	1048576	7	3815
2026-01-05 13:52:07.12	355.24	20.15	-23.7	-24.2	17.2	2.20e-06	0	44	102	1048576	7	3829
2026-01-05 13:52:08.13	355.14	20.03	-23.6	-23.9	17.4	0.00e+00	0	44	102	1048576	7	3761
2026-01-05 13:52:09.14	355.03	19.91	-23.5	-23.9	17.4	0.00e+00	0	44	102	1048576	7	3743
2026-01-05 13:52:10.15	354.93	19.79	-23.6	-24.1	17.3	0.00e+00	0	44	102	1048576	7	3797
2026-01-05 13:52:11.16	354.82	19.67	-23.6	-23.9	17.3	0.00e+00	0	44	102	1048576	7	3751
2026-01-05 13:52:12.16	354.72	19.55	-23.7	-24.2	17.2	0.00e+00	0	44	102	1048576	7	3825
2026-01-05 13:52:13.16	354.62	19.44	-23.7	-24.2	17.2	0.00e+00	0	44	102	1048576	7	3811
2026-01-05 13:52:14.17	354.52	19.32	-23.8	-24.4	17.1	0.00e+00	0	44	102	1048576	7	3862
2026-01-05 13:52:15.18	354.42	19.20	-23.8	-24.5	17.1	0.00e+00	0	44	102	1048576	7	3882
2026-01-05 13:52:16.18	354.32	19.09	-23.9	-24.7	16.9	0.00e+00	0	44	102	1048576	7	3943
2026-01-05 13:52:17.19	354.22	18.97	-23.9	-24.7	17.0	0.00e+00	0	44	102	1048576	7	3930
2026-01-05 13:52:18.19	354.12	18.86	-24.0	-24.8	16.9	0.00e+00	0	44	102	1048576	7	3966
2026-01-05 13:52:19.20	354.03	18.74	-24.0	-24.8	16.9	0.00e+00	0	44	102	1048576	7	3968
2026-01-05 13:52:20.21	353.93	18.63	-24.1	-25.0	16.8	0.00e+00	0	44	102	1048576	7	4013
2026-01-05 13:52:21.21	353.83	18.52	-24.0	-24.9	16.8	1.10e-06	0	44	102	1048576	7	3986
2026-01-05 13:52:22.21	353.74	18.40	-24.1	-25.0	16.8	0.00e+00	0	44	102	1048576	7	4004
2026-01-05 13:52:23.22	353.65	18.29	-24.2	-24.7	16.7	0.00e+00	0	44	102	1048576	8	3828
2026-01-05 13:52:24.22	353.55	18.18	-24.1	-24.5	16.8	0.00e+00	0	44	102	1048576	8	3795
2026-01-05 13:52:25.22	353.46	18.07	-24.1	-24.5	16.8	0.00e+00	0	44	102	1048576	8	3795
2026-01-05 13:52:26.23	353.37	17.96	-24.2	-24.7	16.7	0.00e+00	0	44	102	1048576	8	3833
2026-01-05 13:52:27.23	353.28	17.85	-24.2	-24.8	16.6	0.00e+00	0	44	102	1048576	8	3859
2026-01-05 13:52:28.23	353.19	17.74	-24.2	-24.8	16.7	0.00e+00	0	44	102	1048576	8	3855
2026-01-05 13:52:29.24	353.10	17.63	-24.2	-24.9	16.6	0.00e+00	0	44	102	1048576	8	3879
2026-01-05 13:52:30.24	353.01	17.52	-24.2	-24.8	16.6	0.00e+00	0	44	102	1048576	8	3853
2026-01-05 13:52:31.25	352.92	17.41	-24.2	-24.8	16.6	0.00e+00	0	44	102	1048576	8	3866
2026-01-05 13:52:32.26	352.83	17.30	-24.2	-24.9	16.6	0.00e+00	0	44	102	1048576	8	3871
2026-01-05 13:52:33.27	352.74	17.19	-24.2	-24.9	16.6	0.00e+00	0	44	102	1048576	8	3869
2026-01-05 13:52:34.27	352.66	17.08	-24.3	-25.0	16.5	0.00e+00	0	44	102	1048576	8	3917
2026-01-05 13:52:35.28	352.57	16.97	-24.2	-24.8	16.4	0.00e+00	0	44	102	1048576	8	3868
2026-01-05 13:52:36.28	352.49	16.87	-24.2	-24.7	16.5	0.00e+00	0	44	102	1048576	8	3838
2026-01-05 13:52:37.29	352.40	16.76	-24.2	-24.9	16.5	0.00e+00	0	44	102	1048576	8	3873
2026-01-05 13:52:38.30	352.32	16.65	-24.3	-25.0	16.4	0.00e+00	0	44	102	1048576	8	3912
2026-01-05 13:52:39.31	352.23	16.55	-24.3	-25.0	16.5	0.00e+00	0	44	102	1048576	8	3908
2026-01-05 13:52:40.31	352.15	16.44	-24.3	-25.0	16.5	0.00e+00	0	44	102	1048576	8	3899
2026-01-05 13:52:41.32	352.07	16.34	-24.3	-25.0	16.4	1.10e-06	0	44	102	1048576	8	3910
2026-01-05 13:52:42.32	351.99	16.23	-24.3	-25.1	16.4	0.00e+00	0	44	102	1048576	8	3928
2026-01-05 13:52:43.32	351.91	16.13	-24.3	-25.0	16.5	0.00e+00	0	44	102	1048576	8	3899
2026-01-05 13:52:44.33	351.83	16.02	-24.3	-25.0	16.4	0.00e+00	0	44	102	1048576	8	3908
2026-01-05 13:52:45.33	351.75	15.92	-24.4	-25.2	16.3	0.00e+00	0	44	102	1048576	8	3964
2026-01-05 13:52:46.34	351.67	15.82	-24.5	-25.0	16.1	0.00e+00	0	44	102	1048576	9	3805
2026-01-05 13:52:47.35	351.59	15.71	-24.4	-24.6	16.3	0.00e+00	0	44	102	1048576	9	3722
2026-01-05 13:52:48.36	351.51	15.61	-24.3	-24.5	16.4	0.00e+00	0	44	102	1048576	9	3693
2026-01-05 13:52:49.36	351.43	15.51	-24.3	-24.6	16.4	0.00e+00	0	44	102	1048576	9	3714
2026-01-05 13:52:50.37	351.35	15.41	-24.4	-24.7	16.3	0.00e+00	0	44	102	1048576	9	3741
2026-01-05 13:52:51.38	351.28	15.31	-24.4	-24.7	16.3	0.00e+00	0	44	102	1048576	9	3731
2026-01-05 13:52:52.39	351.20	15.20	-24.5	-24.9	16.2	0.00e+00	0	44	102	1048576	9	3776
2026-01-05 13:52:53.40	351.13	15.10	-24.5	-25.0	16.1	0.00e+00	0	44	102	1048576	9	3804
2026-01-05 13:52:54.40	351.05	15.00	-24.6	-25.1	16.1	0.00e+00	0	44	102	1048576	9	3828
2026-01-05 13:52:55.41	350.98	14.90	-24.6	-25.2	16.0	0.00e+00	0	44	102	1048576	9	3851
2026-01-05 13:52:56.42	350.90	14.80	-24.7	-25.3	15.9	1.10e-06	0	44	102	1048576	9	3872
2026-01-05 13:52:57.42	350.83	14.70	-24.7	-25.3	15.9	0.00e+00	0	44	102	1048576	9	3883
2026-01-05 13:52:58.42	350.76	14.61	-24.7	-25.4	15.8	0.00e+00	0	44	102	1048576	9	3902
2026-01-05 13:52:59.43	350.68	14.51	-24.8	-25.5	15.8	0.00e+00	0	44	102	1048576	9	3921
2026-01-05 13:53:00.44	350.61	14.41	-24.8	-25.5	15.8	0.00e+00	0	44	102	1048576	9	3925
2026-01-05 13:53:01.44	350.54	14.31	-24.8	-25.6	15.8	0.00e+00	0	44	102	1048576	9	3953
2026-01-05 13:53:02.44	350.47	14.21	-24.8	-25.7	15.7	0.00e+00	0	44	102	1048576	9	3974
2026-01-05 13:53:03.45	350.40	14.12	-24.8	-25.7	15.7	0.00e+00	0	44	102	1048576	9	3972
2026-01-05 13:53:04.45	350.33	14.02	-24.9	-25.9	15.6	0.00e+00	0	44	102	1048576	9	4017
2026-01-05 13:53:05.46	350.26	13.92	-25.0	-25.9	15.6	0.00e+00	0	44	102	1048576	9	4037
2026-01-05 13:53:06.47	350.19	13.83	-25.0	-26.0	15.5	0.00e+00	0	44	102	1048576	9	4050
2026-01-05 13:53:07.47	350.12	13.73	-25.0	-26.0	15.5	0.00e+00	0	44	102	1048576	9	4053
2026-01-05 13:53:08.48	350.06	13.64	-25.1	-26.2	15.4	0.00e+00	0	44	102	1048576	9	4106
2026-01-05 13:53:09.49	349.99	13.54	-25.1	-25.7	15.4	1.10e-06	0	44	102	1048576	10	3880
2026-01-05 13:53:10.50	349.92	13.45	-25.2	-25.9	15.3	1.10e-06	0	44	102	1048576	10	3914
2026-01-05 13:53:11.50	349.85	13.35	-25.2	-26.0	15.3	0.00e+00	0	44	102	1048576	10	3933
2026-01-05 13:53:12.51	349.79	13.26	-25.2	-26.0	15.3	0.00e+00	0	44	102	1048576	10	3943
2026-01-05 13:53:13.51	349.72	13.16	-25.2	-26.0	15.2	0.00e+00	0	44	102	1048576	10	3933
2026-01-05 13:53:14.51	349.66	13.07	-25.3	-26.1	15.2	1.10e-06	0	44	102	1048576	10	3982
2026-01-05 13:53:15.52	349.59	12.98	-25.3	-26.2	15.1	1.10e-06	0	44	102	1048576	10	4002
2026-01-05 13:53:16.53	349.53	12.88	-25.3	-26.2	15.1	0.00e+00	0	44	102	1048576	10	4004
2026-01-05 13:53:17.54	349.46	12.79	-25.4	-26.4	15.0	1.10e-06	0	44	102	1048576	10	4057
2026-01-05 13:53:18.54	349.40	12.70	-25.5	-26.6	14.9	0.00e+00	0	44	102	1048576	10	4082
2026-01-05 13:53:19.55	349.34	12.61	-25.5	-26.6	14.8	3.40e-06	0	44	102	1048576	10	4092
2026-01-05 13:53:20.56	349.27	12.52	-25.5	-26.6	14.8	0.00e+00	0	44	102	1048576	10	4091
2026-01-05 13:53:21.56	349.21	12.42	-25.4	-26.5	14.9	0.00e+00	0	44	102	1048576	10	4068
2026-01-05 13:53:22.56	349.15	12.33	-25.4	-26.4	15.0	0.00e+00	0	44	102	1048576	10	4039
2026-01-05 13:53:23.57	349.09	12.24	-25.5	-26.6	14.8	1.10e-06	0	44	102	1048576	10	4099
2026-01-05 13:53:24.57	349.03	12.15	-25.5	-26.7	14.8	0.00e+00	0	44	102	1048576	10	4128
2026-01-05 13:53:25.57	348.97	12.06	-25.4	-26.5	14.8	0.00e+00	0	44	102	1048576	10	4085
2026-01-05 13:53:26.58	348.91	11.97	-25.5	-26.6	14.8	1.10e-06	0	44	102	1048576	10	4096
2026-01-05 13:53:27.59	348.85	11.88	-25.5	-26.7	14.8	0.00e+00	0	44	102	1048576	10	4119
2026-01-05 13:53:28.59	348.79	11.80	-25.6	-26.9	14.6	0.00e+00	0	44	102	1048576	10	4164
2026-01-05 13:53:29.60	348.73	11.71	-25.6	-26.4	14.6	0.00e+00	0	44	102	1048576	11	3945
2026-01-05 13:53:30.61	348.67	11.62	-25.7	-26.6	14.5	1.10e-06	0	44	102	1048576	11	3988
2026-01-05 13:53:31.61	348.61	11.53	-25.6	-26.4	14.7	0.00e+00	0	44	102	1048576	11	3949
2026-01-05 13:53:32.61	348.55	11.44	-25.7	-26.6	14.5	0.00e+00	0	44	102	1048576	11	4001
2026-01-05 13:53:33.62	348.50	11.35	-25.8	-26.8	14.4	0.00e+00	0	44	102	1048576	11	4048
2026-01-05 13:53:34.63	348.44	11.27	-25.8	-26.8	14.4	0.00e+00	0	44	102	1048576	11	4045
2026-01-05 13:53:35.63	348.38	11.18	-26.0	-27.2	14.2	0.00e+00	0	44	102	1048576	11	4136
2026-01-05 13:53:36.64	348.33	11.09	-25.9	-26.5	14.2	0.00e+00	0	44	102	1048576	12	3872
2026-01-05 13:53:37.65	348.27	11.00	-26.0	-26.7	14.1	1.10e-06	0	44	102	1048576	12	3914
2026-01-05 13:53:38.65	348.21	10.92	-25.9	-26.5	14.2	1.10e-06	0	44	102	1048576	12	3873
2026-01-05 13:53:39.66	348.16	10.83	-26.0	-26.7	14.1	2.20e-06	0	44	102	1048576	12	3928
2026-01-05 13:53:40.67	348.10	10.75	-26.0	-26.8	14.0	1.10e-06	0	44	102	1048576	12	3944
2026-01-05 13:53:41.67	348.05	10.66	-26.0	-26.8	14.0	5.70e-06	0	44	102	1048576	12	3956
2026-01-05 13:53:42.67	347.99	10.58	-26.1	-27.1	13.9	2.20e-06	0	44	102	1048576	12	4016
2026-01-05 13:53:43.68	347.94	10.49	-26.2	-27.2	13.8	2.20e-06	0	44	102	1048576	12	4050
2026-01-05 13:53:44.68	347.89	10.41	-26.1	-26.9	13.9	5.70e-06	0	44	102	1048576	12	3969
2026-01-05 13:53:45.68	347.83	10.32	-26.0	-26.9	14.0	3.40e-06	0	44	102	1048576	12	3973
2026-01-05 13:53:46.69	347.78	10.24	-26.0	-26.9	14.0	2.20e-06	0	44	102	1048576	12	3966
2026-01-05 13:53:47.70	347.73	10.15	-26.1	-27.0	13.9	0.00e+00	0	44	102	1048576	12	3986
2026-01-05 13:53:48.71	347.67	10.07	-26.1	-27.0	13.9	0.00e+00	0	44	102	1048576	12	3993
2026-01-05 13:53:49.72	347.62	9.99	-26.1	-27.1	13.8	3.40e-06	0	44	102	1048576	12	4014
2026-01-05 13:53:50.72	347.57	9.90	-26.1	-26.9	13.9	6.80e-06	0	44	102	1048576	12	3981
2026-01-05 13:53:51.73	347.52	9.82	-25.9	-26.7	14.0	1.10e-06	0	44	102	1048576	12	3923
2026-01-05 13:53:52.73	347.47	9.74	-26.0	-26.7	14.0	3.40e-06	0	44	102	1048576	12	3925
2026-01-05 13:53:53.73	347.42	9.66	-25.9	-26.5	14.1	2.20e-06	0	44	102	1048576	12	3880
2026-01-05 13:53:54.74	347.37	9.57	-26.0	-26.8	14.0	3.40e-06	0	44	102	1048576	12	3949
2026-01-05 13:53:55.75	347.32	9.49	-25.9	-26.6	14.1	3.40e-06	0	44	102	1048576	12	3897
2026-01-05 13:53:56.76	347.27	9.41	-26.0	-26.8	13.9	5.70e-06	0	44	102	1048576	12	3947
2026-01-05 13:53:57.76	347.22	9.33	-26.0	-26.8	13.9	5.70e-06	0	44	102	1048576	12	3952
2026-01-05 13:53:58.77	347.17	9.25	-26.0	-26.9	13.9	2.20e-06	0	44	102	1048576	12	3965
2026-01-05 13:53:59.78	347.12	9.17	-26.1	-27.1	13.7	6.80e-06	0	44	102	1048576	12	4035
2026-01-05 13:54:00.78	347.07	9.09	-26.1	-27.1	13.7	5.70e-06	0	44	102	1048576	12	4022
2026-01-05 13:54:01.79	347.02	9.00	-26.0	-26.9	13.8	4.50e-06	0	44	102	1048576	12	3971
2026-01-05 13:54:02.80	346.97	8.92	-26.0	-26.8	13.9	4.50e-06	0	44	102	1048576	12	3960
2026-01-05 13:54:03.81	346.92	8.84	-26.1	-27.0	13.7	8.00e-06	0	44	102	1048576	12	4013
2026-01-05 13:54:04.81	346.88	8.76	-26.1	-27.0	13.8	9.10e-06	0	44	102	1048576	12	3998
2026-01-05 13:54:05.82	346.83	8.68	-26.1	-27.0	13.7	2.20e-06	0	44	102	1048576	12	3991
2026-01-05 13:54:06.83	346.78	8.60	-26.2	-27.3	13.5	9.10e-06	0	44	102	1048576	12	4091
2026-01-05 13:54:07.83	346.73	8.53	-26.2	-27.3	13.6	1.02e-05	0	44	102	1048576	12	4071
2026-01-05 13:54:08.84	346.69	8.45	-26.2	-27.3	13.5	9.10e-06	0	44	102	1048576	12	4093
2026-01-05 13:54:09.85	346.64	8.37	-26.4	-27.9	13.2	2.28e-05	0	44	102	1048576	12	4238
2026-01-05 13:54:10.86	346.60	8.29	-26.4	-27.6	13.3	1.37e-05	0	44	102	1048576	12	4178
2026-01-05 13:54:11.87	346.55	8.21	-26.4	-27.7	13.2	1.83e-05	0	44	102	1048576	12	4206
2026-01-05 13:54:12.87	346.50	8.13	-26.5	-28.0	13.0	3.08e-05	0	44	102	1048576	12	4286
2026-01-05 13:54:13.88	346.46	8.06	-26.5	-27.9	13.1	1.94e-05	0	44	102	1048576	12	4257
2026-01-05 13:54:14.89	346.41	7.98	-26.4	-27.9	13.1	1.48e-05	0	44	102	1048576	12	4249
2026-01-05 13:54:15.90	346.37	7.90	-26.5	-28.0	13.1	3.20e-05	0	44	102	1048576	12	4268
2026-01-05 13:54:16.90	346.33	7.82	-26.5	-28.1	13.0	2.74e-05	0	44	102	1048576	12	4300
2026-01-05 13:54:17.91	346.28	7.75	-26.6	-28.1	13.0	3.77e-05	0	44	102	1048576	12	4318
2026-01-05 13:54:18.92	346.24	7.67	-26.7	-28.0	12.7	4.11e-05	0	44	102	1048576	13	4162
2026-01-05 13:54:19.93	346.19	7.59	-27.0	-28.6	12.4	1.27e-04	0	44	102	1048576	13	4331
2026-01-05 13:54:20.93	346.15	7.52	-26.7	-28.0	12.6	7.66e-05	0	44	102	1048576	13	4169
2026-01-05 13:54:21.94	346.11	7.44	-26.7	-27.9	12.8	4.00e-05	0	44	102	1048576	13	4152
2026-01-05 13:54:22.94	346.06	7.37	-26.5	-27.4	13.0	3.89e-05	0	44	102	1048576	13	4027
2026-01-05 13:54:23.95	346.02	7.29	-26.6	-27.7	12.9	3.31e-05	0	44	102	1048576	13	4097
2026-01-05 13:54:24.95	345.98	7.21	-26.6	-27.8	12.8	2.97e-05	0	44	102	1048576	13	4121
2026-01-05 13:54:25.96	345.94	7.14	-26.6	-27.6	12.9	3.43e-05	0	44	102	1048576	13	4081
2026-01-05 13:54:26.97	345.89	7.06	-31.9	-38.3	3.9	8.43e-01	0	44	104	1048576	24	7475
2026-01-05 13:54:27.97	345.85	6.99	-32.7	-42.0	3.8	8.46e-01	0	44	104	1048576	25	10424
2026-01-05 13:54:28.98	345.81	6.91	-33.1	-42.9	3.8	8.47e-01	0	44	104	1048576	25	11208

#Closed at: 2026-01-05 13:54:29
#Recorded file [1 MB]: D:/data/31010_260105_164900.dat