passes_logs/2026/01/05/R2M6_AANII_01/R2M6_AANII_01__20260105_005534_AQUA_rec.log

#Pass ID: 20260105_005534_AQUA
#Satellite: AQUA
#Configuration: AQUA
#almurnet v.1.7.20240730
#Start time: 2026-01-05 00:55:34

#Version: 2.2.20231116
#Station: R2M6_AANII_01
#Location: 30.233357 lon 59.946436 lat
#TLE: 1 27424U 02022A   26003.93831470  .00001925  00000+0  39553-3 0  9995
#TLE: 2 27424  98.4067 330.1809 0002003  92.1713 343.8415 14.61796291259276

#Time	Az	El	Level	Level2	SNR	BER	BlckErr	Temp	State	Recorded	gain1	gain2
2026-01-05 00:55:34.83	26.99	7.01	-31.4	-39.0	5.0	7.13e-01	0	41	0	0	23	8658
2026-01-05 00:55:35.83	27.07	7.09	-32.1	-42.7	4.7	7.20e-01	0	41	104	0	24	12152
2026-01-05 00:55:36.83	27.15	7.16	-32.0	-41.1	10.0	6.20e-01	0	41	0	0	24	10268
2026-01-05 00:55:37.84	27.23	7.24	-32.1	-41.5	9.8	6.24e-01	0	41	102	524288	24	10631
2026-01-05 00:55:38.85	27.31	7.31	-32.1	-40.6	10.1	6.20e-01	0	41	102	524288	25	9627
2026-01-05 00:55:39.86	27.39	7.39	-31.9	-40.0	11.1	6.13e-01	0	41	102	524288	24	9140
2026-01-05 00:55:40.86	27.47	7.46	-31.8	-39.0	12.0	6.11e-01	0	41	102	524288	24	8320
2026-01-05 00:55:41.86	27.55	7.53	-31.7	-38.4	12.5	6.09e-01	0	41	102	524288	24	7861
2026-01-05 00:55:42.87	27.63	7.61	-31.4	-37.1	13.6	6.06e-01	0	41	102	524288	24	6977
2026-01-05 00:55:43.88	27.72	7.69	-31.2	-36.5	14.1	6.05e-01	0	41	102	524288	24	6613
2026-01-05 00:55:44.89	27.80	7.76	-31.0	-36.7	14.3	6.07e-01	0	41	102	524288	22	6937
2026-01-05 00:55:45.89	27.88	7.84	-30.9	-36.1	15.2	6.04e-01	0	41	102	524288	22	6568
2026-01-05 00:55:46.90	27.97	7.91	-30.8	-35.8	14.9	5.99e-01	0	41	102	524288	22	6432
2026-01-05 00:55:47.90	28.05	7.99	-30.6	-35.3	15.7	6.04e-01	0	42	102	524288	22	6176
2026-01-05 00:55:48.90	28.14	8.07	-30.7	-35.5	15.8	6.06e-01	0	41	102	524288	22	6229
2026-01-05 00:55:49.91	28.22	8.14	-30.7	-35.5	15.7	6.02e-01	0	41	102	524288	22	6242
2026-01-05 00:55:50.92	28.31	8.22	-30.6	-35.5	16.0	6.05e-01	0	41	102	524288	21	6369
2026-01-05 00:55:51.92	28.40	8.30	-30.5	-35.2	16.2	6.03e-01	0	41	102	524288	21	6214
2026-01-05 00:55:52.92	28.48	8.37	-30.5	-35.4	16.2	6.03e-01	0	41	102	524288	21	6300
2026-01-05 00:55:53.93	28.57	8.45	-30.6	-35.5	16.1	6.05e-01	0	41	102	524288	21	6342
2026-01-05 00:55:54.94	28.66	8.53	-30.5	-35.2	16.3	6.03e-01	0	41	102	524288	21	6188
2026-01-05 00:55:55.95	28.75	8.61	-30.4	-34.9	16.5	6.02e-01	0	41	102	524288	21	6062
2026-01-05 00:55:56.96	28.84	8.69	-30.3	-34.7	16.7	6.03e-01	0	41	102	524288	21	5929
2026-01-05 00:55:57.97	28.93	8.77	-30.3	-34.5	16.8	6.05e-01	0	42	102	524288	21	5827
2026-01-05 00:55:58.97	29.02	8.84	-30.5	-35.0	16.6	6.04e-01	0	41	102	524288	21	6061
2026-01-05 00:55:59.98	29.11	8.92	-30.3	-34.6	16.8	6.06e-01	0	41	102	524288	21	5888
2026-01-05 00:56:00.98	29.20	9.00	-30.4	-34.8	16.7	6.04e-01	0	42	102	524288	21	5956
2026-01-05 00:56:01.99	29.29	9.08	-30.3	-34.6	16.9	6.06e-01	0	41	102	524288	21	5895
2026-01-05 00:56:03.00	29.38	9.16	-30.4	-34.9	16.6	6.02e-01	0	41	102	524288	21	6017
2026-01-05 00:56:04.01	29.47	9.24	-30.4	-34.8	16.7	6.04e-01	0	42	102	524288	21	5990
2026-01-05 00:56:05.01	29.57	9.32	-30.4	-34.8	16.7	6.02e-01	0	42	102	524288	21	5989
2026-01-05 00:56:06.03	29.66	9.40	-30.5	-35.0	16.6	6.05e-01	0	42	102	524288	21	6073
2026-01-05 00:56:07.02	29.75	9.48	-30.5	-35.1	16.5	6.02e-01	0	42	102	524288	21	6120
2026-01-05 00:56:08.03	29.85	9.56	-30.4	-34.9	16.7	6.04e-01	0	42	102	524288	21	6003
2026-01-05 00:56:09.03	29.94	9.64	-30.4	-35.0	16.6	6.04e-01	0	42	102	524288	21	6063
2026-01-05 00:56:10.04	30.04	9.73	-30.4	-34.7	16.8	6.01e-01	0	42	102	524288	21	5933
2026-01-05 00:56:11.05	30.14	9.81	-30.5	-35.0	16.6	6.01e-01	0	42	102	524288	21	6072
2026-01-05 00:56:12.05	30.23	9.89	-30.4	-34.7	16.8	6.04e-01	0	42	102	524288	21	5922
2026-01-05 00:56:13.06	30.33	9.97	-30.5	-35.0	16.6	6.04e-01	0	42	102	524288	21	6081
2026-01-05 00:56:14.07	30.43	10.05	-30.4	-34.8	16.7	6.03e-01	0	42	102	524288	21	5973
2026-01-05 00:56:15.08	30.53	10.14	-30.3	-34.4	17.1	6.03e-01	0	42	102	524288	21	5757
2026-01-05 00:56:16.08	30.63	10.22	-30.3	-34.4	17.2	6.02e-01	0	42	102	524288	21	5745
2026-01-05 00:56:17.09	30.73	10.30	-30.3	-34.4	17.0	6.03e-01	0	42	102	524288	21	5780
2026-01-05 00:56:18.10	30.83	10.39	-30.5	-34.8	17.0	6.03e-01	0	42	102	524288	21	5909
2026-01-05 00:56:19.11	30.93	10.47	-30.4	-34.5	17.2	6.03e-01	0	42	102	524288	21	5781
2026-01-05 00:56:20.11	31.03	10.55	-30.3	-34.4	17.2	6.04e-01	0	42	102	524288	21	5730
2026-01-05 00:56:21.12	31.13	10.64	-30.3	-34.4	17.2	6.05e-01	0	42	102	524288	21	5753
2026-01-05 00:56:22.13	31.23	10.72	-30.4	-34.6	17.1	6.05e-01	0	42	102	524288	21	5860
2026-01-05 00:56:23.14	31.34	10.81	-30.3	-34.2	17.4	6.03e-01	0	42	102	524288	21	5660
2026-01-05 00:56:24.14	31.44	10.89	-30.2	-34.1	17.4	6.07e-01	0	42	102	524288	21	5631
2026-01-05 00:56:25.15	31.55	10.98	-30.3	-34.4	17.3	6.03e-01	0	42	102	524288	21	5731
2026-01-05 00:56:26.15	31.65	11.06	-30.3	-34.2	17.4	6.05e-01	0	42	102	524288	21	5664
2026-01-05 00:56:27.16	31.76	11.15	-30.3	-34.4	17.3	6.03e-01	0	42	102	524288	21	5754
2026-01-05 00:56:28.17	31.86	11.23	-30.4	-34.6	17.1	6.01e-01	0	42	102	524288	21	5850
2026-01-05 00:56:29.18	31.97	11.32	-30.3	-34.3	17.4	6.04e-01	0	42	102	524288	21	5695
2026-01-05 00:56:30.18	32.08	11.40	-30.2	-33.9	17.6	6.04e-01	0	42	102	524288	21	5522
2026-01-05 00:56:31.18	32.19	11.49	-30.2	-33.9	17.6	6.02e-01	0	42	102	524288	21	5533
2026-01-05 00:56:32.19	32.29	11.58	-30.2	-34.1	17.5	6.04e-01	0	42	102	524288	21	5592
2026-01-05 00:56:33.20	32.40	11.66	-30.2	-34.0	17.6	6.02e-01	0	42	102	524288	21	5565
2026-01-05 00:56:34.20	32.51	11.75	-30.2	-34.0	17.7	6.02e-01	0	42	102	524288	21	5552
2026-01-05 00:56:35.21	32.63	11.84	-30.2	-33.9	17.7	6.02e-01	0	42	102	524288	21	5514
2026-01-05 00:56:36.20	32.74	11.92	-30.2	-33.9	17.6	6.02e-01	0	42	102	524288	21	5533
2026-01-05 00:56:37.21	32.85	12.01	-30.2	-34.0	17.6	6.05e-01	0	42	102	524288	21	5562
2026-01-05 00:56:38.22	32.96	12.10	-30.3	-34.2	17.4	6.02e-01	0	42	102	524288	21	5660
2026-01-05 00:56:39.23	33.08	12.19	-30.3	-34.1	17.5	6.01e-01	0	42	102	524288	21	5622
2026-01-05 00:56:40.23	33.19	12.28	-30.3	-34.2	17.5	6.04e-01	0	42	102	524288	21	5631
2026-01-05 00:56:41.24	33.31	12.37	-30.3	-34.2	17.5	6.03e-01	0	42	102	524288	21	5656
2026-01-05 00:56:42.25	33.42	12.46	-30.2	-33.9	17.6	6.04e-01	0	42	102	524288	21	5537
2026-01-05 00:56:43.26	33.54	12.55	-30.2	-33.9	17.7	6.04e-01	0	42	102	524288	21	5504
2026-01-05 00:56:44.26	33.66	12.64	-30.2	-33.9	17.7	6.05e-01	0	42	102	524288	21	5525
2026-01-05 00:56:45.27	33.77	12.73	-30.3	-34.1	17.6	6.04e-01	0	42	102	524288	21	5584
2026-01-05 00:56:46.27	33.89	12.82	-30.3	-34.3	17.4	6.02e-01	0	42	102	524288	21	5669
2026-01-05 00:56:47.28	34.01	12.91	-30.1	-33.7	17.8	6.02e-01	0	42	102	524288	21	5422
2026-01-05 00:56:48.29	34.13	13.00	-30.0	-33.4	18.0	6.03e-01	0	42	102	524288	21	5303
2026-01-05 00:56:49.30	34.26	13.09	-30.0	-33.2	18.2	6.04e-01	0	42	102	524288	21	5228
2026-01-05 00:56:50.31	34.38	13.18	-29.9	-33.6	18.3	6.04e-01	0	42	102	524288	20	5498
2026-01-05 00:56:51.31	34.50	13.27	-29.9	-33.6	18.3	6.04e-01	0	42	102	524288	20	5485
2026-01-05 00:56:52.31	34.62	13.37	-30.0	-33.7	18.2	6.03e-01	0	42	102	524288	20	5538
2026-01-05 00:56:53.32	34.75	13.46	-30.0	-33.9	18.1	6.06e-01	0	42	102	524288	20	5635
2026-01-05 00:56:54.33	34.87	13.55	-30.1	-34.0	18.0	6.02e-01	0	43	102	524288	20	5648
2026-01-05 00:56:55.34	35.00	13.64	-30.1	-33.7	17.9	6.05e-01	0	42	102	524288	21	5403
2026-01-05 00:56:56.34	35.13	13.74	-30.1	-33.7	17.9	6.03e-01	0	43	102	524288	21	5431
2026-01-05 00:56:57.35	35.25	13.83	-30.1	-33.5	18.1	6.01e-01	0	42	102	524288	21	5331
2026-01-05 00:56:58.35	35.38	13.92	-30.1	-33.5	18.1	6.03e-01	0	42	102	524288	21	5344
2026-01-05 00:56:59.35	35.51	14.02	-30.2	-33.8	17.8	6.03e-01	0	42	102	524288	21	5475
2026-01-05 00:57:00.36	35.64	14.11	-30.2	-33.9	17.8	6.01e-01	0	42	102	524288	21	5502
2026-01-05 00:57:01.37	35.77	14.21	-30.1	-33.5	18.0	6.04e-01	0	43	102	524288	21	5351
2026-01-05 00:57:02.38	35.90	14.30	-30.0	-33.4	18.2	6.07e-01	0	42	102	524288	21	5285
2026-01-05 00:57:03.39	36.04	14.40	-30.0	-33.7	18.3	6.02e-01	0	42	102	524288	20	5530
2026-01-05 00:57:04.40	36.17	14.49	-30.0	-33.9	18.0	6.05e-01	0	42	102	524288	20	5587
2026-01-05 00:57:05.40	36.31	14.59	-30.0	-33.8	18.1	6.04e-01	0	42	102	524288	20	5579
2026-01-05 00:57:06.41	36.44	14.69	-30.0	-33.7	18.3	6.04e-01	0	42	102	524288	20	5513
2026-01-05 00:57:07.41	36.58	14.78	-30.0	-33.7	18.1	6.01e-01	0	43	102	524288	20	5530
2026-01-05 00:57:08.42	36.71	14.88	-30.1	-34.0	17.9	6.05e-01	0	42	102	524288	20	5662
2026-01-05 00:57:09.43	36.85	14.97	-30.2	-33.9	17.9	6.03e-01	0	42	102	524288	21	5482
2026-01-05 00:57:10.43	36.99	15.07	-30.3	-34.0	17.8	6.04e-01	0	43	102	524288	21	5522
2026-01-05 00:57:11.43	37.13	15.17	-30.2	-33.8	17.9	6.02e-01	0	43	102	524288	21	5443
2026-01-05 00:57:12.44	37.27	15.27	-30.2	-33.8	17.9	6.05e-01	0	42	102	524288	21	5458
2026-01-05 00:57:13.45	37.42	15.36	-30.1	-33.5	18.1	6.04e-01	0	43	102	524288	21	5341
2026-01-05 00:57:14.47	37.56	15.46	-30.1	-33.5	18.1	6.05e-01	0	43	102	524288	21	5326
2026-01-05 00:57:15.47	37.70	15.56	-30.1	-33.5	18.2	6.04e-01	0	42	102	524288	21	5308
2026-01-05 00:57:16.48	37.85	15.66	-30.2	-33.7	18.0	6.01e-01	0	43	102	524288	21	5392
2026-01-05 00:57:17.48	37.99	15.76	-30.3	-34.0	17.9	6.02e-01	0	43	102	524288	21	5532
2026-01-05 00:57:18.49	38.14	15.86	-30.4	-34.2	17.7	6.05e-01	0	43	102	524288	21	5590
2026-01-05 00:57:19.49	38.29	15.96	-30.1	-33.6	18.1	6.03e-01	0	43	102	524288	21	5343
2026-01-05 00:57:20.50	38.44	16.06	-30.1	-33.5	18.2	6.01e-01	0	43	102	524288	21	5313
2026-01-05 00:57:21.51	38.59	16.16	-30.1	-33.3	18.3	6.04e-01	0	43	102	524288	21	5255
2026-01-05 00:57:22.51	38.74	16.26	-30.1	-33.6	18.2	6.05e-01	0	43	102	524288	21	5335
2026-01-05 00:57:23.52	38.89	16.36	-30.1	-33.6	18.2	6.03e-01	0	42	102	524288	21	5348
2026-01-05 00:57:24.52	39.04	16.46	-30.0	-33.3	18.3	6.03e-01	0	43	102	524288	21	5241
2026-01-05 00:57:25.52	39.20	16.56	-30.1	-33.6	18.2	6.04e-01	0	43	102	524288	21	5337
2026-01-05 00:57:26.53	39.35	16.66	-30.1	-33.4	18.3	6.05e-01	0	43	102	524288	21	5284
2026-01-05 00:57:27.53	39.51	16.76	-30.1	-33.4	18.3	6.03e-01	0	43	102	524288	21	5252
2026-01-05 00:57:28.54	39.66	16.87	-30.1	-33.5	18.2	6.03e-01	0	43	102	524288	21	5299
2026-01-05 00:57:29.54	39.82	16.97	-30.1	-33.4	18.3	6.05e-01	0	43	102	524288	21	5272
2026-01-05 00:57:30.54	39.98	17.07	-30.2	-33.6	18.2	6.01e-01	0	43	102	524288	21	5329
2026-01-05 00:57:31.55	40.14	17.17	-30.1	-33.5	18.3	6.02e-01	0	43	102	524288	21	5309
2026-01-05 00:57:32.56	40.30	17.28	-30.0	-33.6	18.5	6.04e-01	0	43	102	524288	20	5467
2026-01-05 00:57:33.57	40.47	17.38	-30.0	-33.6	18.5	6.04e-01	0	43	102	524288	20	5458
2026-01-05 00:57:34.57	40.63	17.49	-30.0	-33.5	18.6	6.03e-01	0	43	102	524288	20	5417
2026-01-05 00:57:35.58	40.80	17.59	-29.8	-33.2	18.7	6.05e-01	0	43	102	524288	20	5285
2026-01-05 00:57:36.58	40.96	17.69	-29.8	-33.2	18.8	6.04e-01	0	43	102	524288	20	5279
2026-01-05 00:57:37.59	41.13	17.80	-29.9	-33.3	18.8	6.02e-01	0	43	102	524288	20	5321
2026-01-05 00:57:38.60	41.30	17.90	-29.9	-33.3	18.7	6.03e-01	0	43	102	524288	20	5336
2026-01-05 00:57:39.60	41.47	18.01	-29.9	-33.5	18.7	6.03e-01	0	43	102	524288	20	5391
2026-01-05 00:57:40.61	41.64	18.11	-29.9	-33.3	18.7	6.05e-01	0	43	102	524288	20	5321
2026-01-05 00:57:41.62	41.82	18.22	-29.8	-33.2	18.8	6.05e-01	0	43	102	524288	20	5278
2026-01-05 00:57:42.62	41.99	18.33	-29.9	-33.4	18.7	6.05e-01	0	43	102	524288	20	5357
2026-01-05 00:57:43.63	42.16	18.43	-29.9	-33.3	18.7	6.06e-01	0	42	102	524288	20	5344
2026-01-05 00:57:44.64	42.34	18.54	-29.9	-33.3	18.8	6.03e-01	0	43	102	524288	20	5336
2026-01-05 00:57:45.64	42.52	18.65	-29.9	-33.3	18.8	6.02e-01	0	43	102	524288	20	5333
2026-01-05 00:57:46.65	42.70	18.75	-30.1	-33.8	18.5	6.06e-01	0	43	102	524288	20	5507
2026-01-05 00:57:47.66	42.88	18.86	-30.0	-33.0	18.7	6.03e-01	0	43	102	524288	21	5104
2026-01-05 00:57:48.67	43.06	18.97	-29.9	-32.6	18.9	6.06e-01	0	43	102	524288	21	4966
2026-01-05 00:57:49.67	43.24	19.08	-29.9	-32.8	18.8	6.04e-01	0	43	102	524288	21	5037
2026-01-05 00:57:50.68	43.43	19.18	-30.1	-33.2	18.5	6.04e-01	0	43	102	524288	21	5187
2026-01-05 00:57:51.69	43.61	19.29	-30.0	-33.2	18.6	6.03e-01	0	43	102	524288	21	5153
2026-01-05 00:57:52.69	43.80	19.40	-30.0	-33.0	18.7	6.02e-01	0	43	102	524288	21	5096
2026-01-05 00:57:53.70	43.99	19.51	-30.0	-32.9	18.7	6.04e-01	0	43	102	524288	21	5065
2026-01-05 00:57:54.70	44.18	19.62	-30.1	-33.2	18.6	6.01e-01	0	43	102	524288	21	5158
2026-01-05 00:57:55.70	44.37	19.73	-30.0	-33.0	18.7	6.03e-01	0	43	102	524288	21	5098
2026-01-05 00:57:56.70	44.56	19.84	-30.1	-33.3	18.6	6.03e-01	0	43	102	524288	21	5211
2026-01-05 00:57:57.71	44.75	19.95	-30.1	-33.3	18.6	6.06e-01	0	43	102	524288	21	5193
2026-01-05 00:57:58.72	44.95	20.06	-29.9	-32.7	18.9	6.02e-01	0	43	102	524288	21	4981
2026-01-05 00:57:59.73	45.15	20.17	-29.9	-32.7	18.9	6.04e-01	0	43	102	524288	21	4983
2026-01-05 00:58:00.73	45.34	20.28	-29.9	-32.7	18.9	6.04e-01	0	43	102	524288	21	4992
2026-01-05 00:58:01.74	45.54	20.39	-29.9	-32.8	18.9	6.04e-01	0	43	102	524288	21	5025
2026-01-05 00:58:02.75	45.75	20.50	-30.0	-33.0	18.8	6.06e-01	0	43	102	524288	21	5082
2026-01-05 00:58:03.75	45.95	20.61	-30.1	-33.3	18.6	6.05e-01	0	43	102	524288	21	5195
2026-01-05 00:58:04.76	46.15	20.72	-30.0	-33.0	18.8	6.03e-01	0	43	102	524288	21	5096
2026-01-05 00:58:05.76	46.36	20.83	-29.9	-32.8	18.9	6.03e-01	0	43	102	524288	21	5028
2026-01-05 00:58:06.76	46.56	20.94	-30.0	-33.1	18.8	6.03e-01	0	43	102	524288	21	5114
2026-01-05 00:58:07.77	46.77	21.05	-30.0	-32.9	18.8	6.05e-01	0	43	102	524288	21	5054
2026-01-05 00:58:08.77	46.98	21.17	-29.9	-32.8	18.8	6.05e-01	0	43	102	524288	21	5025
2026-01-05 00:58:09.78	47.20	21.28	-30.0	-33.0	18.8	6.01e-01	0	43	102	524288	21	5078
2026-01-05 00:58:10.78	47.41	21.39	-30.0	-33.1	18.8	6.03e-01	0	43	102	524288	21	5103
2026-01-05 00:58:11.79	47.62	21.50	-30.1	-33.2	18.7	6.04e-01	0	43	102	524288	21	5159
2026-01-05 00:58:12.80	47.84	21.62	-30.1	-33.2	18.6	6.02e-01	0	43	102	524288	21	5171
2026-01-05 00:58:13.80	48.06	21.73	-30.1	-33.3	18.6	6.03e-01	0	43	102	524288	21	5192
2026-01-05 00:58:14.81	48.28	21.84	-30.2	-33.6	18.5	6.03e-01	0	43	102	524288	21	5320
2026-01-05 00:58:15.82	48.50	21.95	-30.2	-33.5	18.5	6.07e-01	0	43	102	524288	21	5282
2026-01-05 00:58:16.82	48.72	22.07	-30.2	-33.6	18.4	6.03e-01	0	43	102	524288	21	5328
2026-01-05 00:58:17.83	48.95	22.18	-30.3	-33.8	18.3	6.03e-01	0	43	102	524288	21	5379
2026-01-05 00:58:18.83	49.18	22.29	-30.4	-34.1	18.1	6.05e-01	0	43	102	524288	21	5497
2026-01-05 00:58:19.84	49.41	22.41	-30.4	-34.0	18.2	6.05e-01	0	43	102	524288	21	5455
2026-01-05 00:58:20.84	49.63	22.52	-30.6	-34.5	17.9	6.03e-01	0	43	102	524288	21	5678
2026-01-05 00:58:21.85	49.87	22.63	-30.4	-33.7	18.1	6.00e-01	0	43	102	524288	22	5221
2026-01-05 00:58:22.85	50.10	22.75	-30.3	-33.3	18.3	6.03e-01	0	43	102	524288	22	5095
2026-01-05 00:58:23.85	50.33	22.86	-30.3	-33.8	18.4	6.03e-01	0	43	102	524288	21	5371
2026-01-05 00:58:24.86	50.57	22.98	-30.3	-33.9	18.3	6.03e-01	0	43	102	524288	21	5413
2026-01-05 00:58:25.86	50.81	23.09	-30.2	-33.5	18.6	6.06e-01	0	43	102	524288	21	5239
2026-01-05 00:58:26.87	51.05	23.20	-30.1	-33.1	18.8	6.06e-01	0	43	102	524288	21	5097
2026-01-05 00:58:27.88	51.29	23.32	-30.1	-33.4	18.6	6.03e-01	0	43	102	524288	21	5213
2026-01-05 00:58:28.88	51.54	23.43	-30.1	-33.2	18.6	6.04e-01	0	43	102	524288	21	5141
2026-01-05 00:58:29.89	51.78	23.55	-30.1	-33.3	18.7	6.04e-01	0	43	102	524288	21	5172
2026-01-05 00:58:30.89	52.03	23.66	-30.3	-33.6	18.2	6.02e-01	0	43	102	524288	21	5313
2026-01-05 00:58:31.90	52.28	23.77	-30.2	-33.6	17.9	6.04e-01	0	43	102	524288	21	5293
2026-01-05 00:58:32.90	52.53	23.89	-30.4	-34.0	18.3	6.03e-01	0	43	102	524288	21	5447
2026-01-05 00:58:33.91	52.79	24.00	-30.2	-33.5	18.0	6.02e-01	0	43	102	524288	21	5266
2026-01-05 00:58:34.92	53.04	24.12	-30.1	-33.2	18.7	6.05e-01	0	43	102	524288	21	5129
2026-01-05 00:58:35.92	53.30	24.23	-30.1	-33.3	18.8	6.06e-01	0	43	102	524288	21	5175
2026-01-05 00:58:36.93	53.56	24.35	-30.2	-33.6	18.6	6.05e-01	0	43	102	524288	21	5279
2026-01-05 00:58:37.93	53.82	24.46	-30.2	-33.6	18.6	6.05e-01	0	43	102	524288	21	5284
2026-01-05 00:58:38.94	54.09	24.57	-30.3	-33.6	18.6	6.03e-01	0	43	102	524288	21	5289
2026-01-05 00:58:39.94	54.35	24.69	-30.5	-34.4	18.1	6.01e-01	0	43	102	524288	21	5593
2026-01-05 00:58:40.95	54.62	24.80	-30.5	-34.2	18.2	6.04e-01	0	43	102	524288	21	5534
2026-01-05 00:58:41.96	54.89	24.92	-30.5	-34.4	18.1	6.03e-01	0	43	102	524288	21	5610
2026-01-05 00:58:42.96	55.16	25.03	-30.7	-34.3	17.9	6.05e-01	0	43	102	524288	22	5433
2026-01-05 00:58:43.97	55.43	25.14	-31.1	-35.4	17.1	6.04e-01	0	43	102	524288	22	5934
2026-01-05 00:58:44.98	55.71	25.26	-31.1	-35.0	17.0	6.05e-01	0	43	102	524288	23	5620
2026-01-05 00:58:45.99	55.99	25.37	-31.2	-35.2	17.0	6.03e-01	0	43	102	524288	23	5706
2026-01-05 00:58:47.00	56.27	25.48	-31.1	-35.0	17.0	6.05e-01	0	43	102	524288	23	5650
2026-01-05 00:58:48.01	56.55	25.60	-31.2	-35.1	17.0	6.02e-01	0	43	102	524288	23	5692
2026-01-05 00:58:49.02	56.84	25.71	-31.2	-35.2	16.9	6.02e-01	0	43	102	524288	23	5723
2026-01-05 00:58:50.03	57.12	25.82	-31.1	-35.0	17.0	6.04e-01	0	43	102	524288	23	5644
2026-01-05 00:58:51.03	57.41	25.94	-31.6	-36.4	16.1	6.03e-01	0	43	102	524288	23	6286
2026-01-05 00:58:52.04	57.70	26.05	-31.1	-34.9	17.0	6.03e-01	0	43	102	524288	23	5605
2026-01-05 00:58:53.05	57.99	26.16	-30.8	-34.0	17.7	6.02e-01	0	43	102	524288	23	5233
2026-01-05 00:58:54.06	58.29	26.27	-30.7	-33.7	18.0	6.02e-01	0	43	102	524288	23	5089
2026-01-05 00:58:55.06	58.58	26.38	-30.4	-33.1	18.3	6.06e-01	0	43	102	524288	23	4867
2026-01-05 00:58:56.06	58.88	26.49	-30.3	-33.0	18.6	6.03e-01	0	43	102	524288	22	4962
2026-01-05 00:58:57.07	59.18	26.61	-30.3	-33.2	18.6	6.02e-01	0	43	102	524288	22	5008
2026-01-05 00:58:58.07	59.48	26.72	-30.4	-33.3	18.5	6.05e-01	0	43	102	524288	22	5058
2026-01-05 00:58:59.08	59.79	26.83	-30.4	-33.9	18.4	6.02e-01	0	43	102	524288	21	5417
2026-01-05 00:59:00.09	60.10	26.94	-30.3	-33.7	18.6	6.04e-01	0	43	102	524288	21	5304
2026-01-05 00:59:01.10	60.41	27.05	-30.3	-33.8	18.5	6.03e-01	0	43	102	524288	21	5355
2026-01-05 00:59:02.11	60.72	27.16	-30.3	-33.6	18.6	6.04e-01	0	43	102	524288	21	5282
2026-01-05 00:59:03.11	61.03	27.26	-30.4	-33.8	18.5	6.04e-01	0	43	102	524288	21	5361
2026-01-05 00:59:04.12	61.35	27.37	-30.6	-34.0	18.0	6.03e-01	0	43	102	524288	22	5334
2026-01-05 00:59:05.13	61.67	27.48	-30.4	-34.0	18.3	6.05e-01	0	43	102	524288	21	5448
2026-01-05 00:59:06.14	61.99	27.59	-30.4	-34.1	18.2	6.03e-01	0	43	102	524288	21	5477
2026-01-05 00:59:07.15	62.31	27.70	-30.6	-34.0	18.1	6.04e-01	0	43	102	524288	22	5333
2026-01-05 00:59:08.16	62.64	27.80	-30.5	-34.1	18.3	6.06e-01	0	43	102	524288	21	5490
2026-01-05 00:59:09.17	62.97	27.91	-30.6	-33.9	18.1	6.04e-01	0	43	102	524288	22	5266
2026-01-05 00:59:10.17	63.29	28.02	-30.4	-33.4	18.5	6.01e-01	0	43	102	524288	22	5090
2026-01-05 00:59:11.18	63.63	28.12	-30.4	-33.9	18.5	6.03e-01	0	43	102	524288	21	5404
2026-01-05 00:59:12.18	63.96	28.22	-30.5	-34.2	18.3	6.01e-01	0	43	102	524288	21	5512
2026-01-05 00:59:13.19	64.30	28.33	-30.6	-33.9	18.1	6.02e-01	0	43	102	524288	22	5264
2026-01-05 00:59:14.19	64.63	28.43	-30.4	-33.4	18.5	6.02e-01	0	43	102	524288	22	5107
2026-01-05 00:59:15.20	64.97	28.53	-30.2	-33.0	18.7	6.05e-01	0	43	102	524288	22	4940
2026-01-05 00:59:16.20	65.31	28.64	-30.2	-32.9	18.8	6.02e-01	0	43	102	524288	22	4899
2026-01-05 00:59:17.21	65.66	28.74	-30.3	-33.2	18.6	6.03e-01	0	43	102	524288	22	5032
2026-01-05 00:59:18.22	66.01	28.84	-30.4	-33.4	18.5	6.04e-01	0	43	102	524288	22	5103
2026-01-05 00:59:19.23	66.36	28.94	-30.3	-33.3	18.6	6.06e-01	0	43	102	524288	22	5033
2026-01-05 00:59:20.24	66.71	29.04	-30.4	-33.4	18.6	6.04e-01	0	43	102	524288	22	5070
2026-01-05 00:59:21.24	67.06	29.14	-30.4	-33.5	18.4	6.05e-01	0	43	102	524288	22	5121
2026-01-05 00:59:22.25	67.42	29.23	-30.4	-33.3	18.5	6.03e-01	0	43	102	524288	22	5051
2026-01-05 00:59:23.25	67.78	29.33	-30.4	-33.3	18.6	6.07e-01	0	43	102	524288	22	5046
2026-01-05 00:59:24.26	68.14	29.43	-30.5	-33.5	18.4	6.01e-01	0	43	102	524288	22	5140
2026-01-05 00:59:25.27	68.50	29.52	-30.4	-33.5	18.5	6.04e-01	0	43	102	524288	22	5112
2026-01-05 00:59:26.28	68.87	29.62	-30.5	-33.6	18.4	6.05e-01	0	43	102	524288	22	5148
2026-01-05 00:59:27.28	69.23	29.71	-30.3	-33.0	18.7	6.04e-01	0	43	102	524288	22	4955
2026-01-05 00:59:28.29	69.60	29.80	-30.1	-32.7	19.0	6.05e-01	0	43	102	524288	22	4813
2026-01-05 00:59:29.30	69.98	29.89	-30.2	-32.8	18.8	6.04e-01	0	43	102	524288	22	4868
2026-01-05 00:59:30.31	70.35	29.98	-30.2	-32.8	18.9	6.04e-01	0	43	102	524288	22	4861
2026-01-05 00:59:31.31	70.72	30.07	-30.3	-33.1	18.7	6.03e-01	0	43	102	524288	22	4976
2026-01-05 00:59:32.31	71.10	30.16	-30.4	-33.3	18.6	6.05e-01	0	43	102	524288	22	5042
2026-01-05 00:59:33.32	71.48	30.25	-30.3	-33.2	18.6	6.05e-01	0	43	102	524288	22	5008
2026-01-05 00:59:34.33	71.86	30.34	-30.3	-33.2	18.6	6.03e-01	0	43	102	524288	22	5008
2026-01-05 00:59:35.33	72.24	30.42	-30.4	-33.8	18.6	6.04e-01	0	43	102	524288	21	5331
2026-01-05 00:59:36.34	72.63	30.51	-30.3	-33.7	18.6	6.05e-01	0	43	102	524288	21	5298
2026-01-05 00:59:37.34	73.02	30.59	-30.3	-33.6	18.7	6.03e-01	0	43	102	524288	21	5271
2026-01-05 00:59:38.35	73.41	30.67	-30.3	-33.7	18.7	6.03e-01	0	43	102	524288	21	5302
2026-01-05 00:59:39.36	73.80	30.75	-30.4	-33.8	18.6	6.04e-01	0	43	102	524288	21	5352
2026-01-05 00:59:40.36	74.19	30.83	-30.4	-33.9	18.5	6.04e-01	0	43	102	524288	21	5390
2026-01-05 00:59:41.37	74.59	30.91	-30.2	-33.4	18.9	6.05e-01	0	43	102	524288	21	5178
2026-01-05 00:59:42.38	74.99	30.99	-30.0	-32.8	19.3	6.04e-01	0	43	102	524288	21	4956
2026-01-05 00:59:43.38	75.39	31.06	-29.8	-32.4	19.5	6.02e-01	0	43	102	524288	21	4823
2026-01-05 00:59:44.39	75.79	31.14	-29.9	-32.7	19.3	6.05e-01	0	43	102	524288	21	4917
2026-01-05 00:59:45.40	76.20	31.21	-30.1	-33.1	19.0	6.03e-01	0	43	102	524288	21	5079
2026-01-05 00:59:46.41	76.61	31.29	-29.8	-32.3	19.5	6.04e-01	0	43	102	524288	21	4801
2026-01-05 00:59:47.41	77.01	31.36	-29.9	-32.5	19.4	6.04e-01	0	43	102	524288	21	4879
2026-01-05 00:59:48.42	77.42	31.43	-30.0	-32.7	19.3	6.06e-01	0	43	102	524288	21	4955
2026-01-05 00:59:49.43	77.83	31.49	-29.9	-32.6	19.3	6.03e-01	0	43	102	524288	21	4903
2026-01-05 00:59:50.44	78.25	31.56	-29.9	-32.6	19.3	6.03e-01	0	43	102	524288	21	4915
2026-01-05 00:59:51.45	78.66	31.63	-30.0	-32.7	19.1	6.03e-01	0	43	102	524288	21	4953
2026-01-05 00:59:52.45	79.08	31.69	-29.8	-32.4	19.3	6.04e-01	0	43	102	524288	21	4835
2026-01-05 00:59:53.46	79.50	31.75	-29.9	-32.5	19.4	6.02e-01	0	43	102	524288	21	4855
2026-01-05 00:59:54.47	79.92	31.81	-29.9	-32.6	19.3	6.03e-01	0	43	102	524288	21	4893
2026-01-05 00:59:55.47	80.34	31.87	-29.9	-33.1	19.3	6.05e-01	0	43	102	524288	20	5206
2026-01-05 00:59:56.48	80.76	31.93	-29.8	-32.8	19.5	6.04e-01	0	43	102	524288	20	5085
2026-01-05 00:59:57.48	81.18	31.99	-29.8	-32.8	19.5	6.03e-01	0	43	102	524288	20	5071
2026-01-05 00:59:58.49	81.61	32.04	-29.9	-33.1	19.3	6.06e-01	0	43	102	524288	20	5209
2026-01-05 00:59:59.49	82.04	32.09	-29.8	-32.9	19.5	6.03e-01	0	43	102	524288	20	5125
2026-01-05 01:00:00.50	82.47	32.15	-29.9	-33.1	19.4	6.04e-01	0	43	102	524288	20	5175
2026-01-05 01:00:01.51	82.90	32.20	-30.0	-33.2	19.4	6.02e-01	0	43	102	524288	20	5214
2026-01-05 01:00:02.52	83.33	32.24	-30.0	-33.4	19.2	6.03e-01	0	43	102	524288	20	5286
2026-01-05 01:00:03.52	83.76	32.29	-30.1	-33.1	19.0	6.04e-01	0	43	102	524288	21	5081
2026-01-05 01:00:04.53	84.20	32.34	-30.2	-33.3	18.9	6.03e-01	0	43	102	524288	21	5164
2026-01-05 01:00:05.53	84.63	32.38	-30.0	-32.9	19.2	6.04e-01	0	43	102	524288	21	5007
2026-01-05 01:00:06.54	85.07	32.42	-30.0	-32.7	19.3	6.05e-01	0	43	102	524288	21	4942
2026-01-05 01:00:07.54	85.50	32.46	-30.0	-32.9	19.2	6.07e-01	0	43	102	524288	21	4996
2026-01-05 01:00:08.55	85.94	32.50	-30.1	-32.9	19.2	6.05e-01	0	43	102	524288	21	5021
2026-01-05 01:00:09.55	86.38	32.53	-30.0	-32.7	19.3	6.04e-01	0	43	102	524288	21	4938
2026-01-05 01:00:10.56	86.82	32.57	-30.0	-32.9	19.2	6.03e-01	0	43	102	524288	21	5001
2026-01-05 01:00:11.56	87.26	32.60	-30.1	-32.9	19.2	6.03e-01	0	43	102	524288	21	5023
2026-01-05 01:00:12.56	87.70	32.63	-30.3	-33.6	18.9	6.05e-01	0	43	102	524288	21	5247
2026-01-05 01:00:13.57	88.14	32.66	-30.2	-33.3	19.0	6.02e-01	0	43	102	524288	21	5155
2026-01-05 01:00:14.58	88.59	32.69	-30.1	-33.1	19.0	6.00e-01	0	43	102	524288	21	5091
2026-01-05 01:00:15.58	89.03	32.72	-30.1	-33.2	19.0	6.04e-01	0	43	102	524288	21	5097
2026-01-05 01:00:16.59	89.48	32.74	-30.3	-33.5	18.8	6.03e-01	0	43	102	524288	21	5211
2026-01-05 01:00:17.60	89.93	32.76	-30.2	-33.3	19.0	6.04e-01	0	43	102	524288	21	5135
2026-01-05 01:00:18.61	90.38	32.78	-30.5	-34.1	18.5	6.06e-01	0	43	102	524288	21	5439
2026-01-05 01:00:19.61	90.82	32.80	-30.5	-33.8	18.3	6.02e-01	0	43	102	524288	22	5215
2026-01-05 01:00:20.62	91.27	32.82	-30.1	-32.6	19.0	6.05e-01	0	43	102	524288	22	4797
2026-01-05 01:00:21.62	91.72	32.83	-30.0	-32.2	19.3	6.02e-01	0	43	102	524288	22	4660
2026-01-05 01:00:22.63	92.17	32.84	-29.9	-32.5	19.4	6.02e-01	0	43	102	524288	21	4883
2026-01-05 01:00:23.64	92.62	32.86	-30.0	-32.7	19.3	6.04e-01	0	43	102	524288	21	4951
2026-01-05 01:00:24.65	93.07	32.86	-30.1	-33.2	19.0	6.02e-01	0	43	102	524288	21	5110
2026-01-05 01:00:25.66	93.52	32.87	-30.0	-32.7	19.3	6.04e-01	0	43	102	524288	21	4928
2026-01-05 01:00:26.67	93.97	32.88	-29.8	-32.4	19.5	6.02e-01	0	43	102	524288	21	4821
2026-01-05 01:00:27.67	94.42	32.88	-29.7	-32.1	19.7	6.03e-01	0	43	102	524288	21	4732
2026-01-05 01:00:28.67	94.86	32.88	-29.5	-32.1	19.9	6.04e-01	0	43	102	524288	20	4848
2026-01-05 01:00:29.67	95.31	32.88	-29.8	-32.7	19.6	6.04e-01	0	43	102	524288	20	5043
2026-01-05 01:00:30.68	95.76	32.88	-29.6	-32.4	19.8	6.01e-01	0	43	102	524288	20	4934
2026-01-05 01:00:31.69	96.22	32.87	-29.6	-32.2	19.9	6.04e-01	0	43	102	524288	20	4889
2026-01-05 01:00:32.69	96.66	32.87	-29.8	-32.8	19.6	6.03e-01	0	43	102	524288	20	5085
2026-01-05 01:00:33.69	97.11	32.86	-29.8	-32.9	19.5	6.05e-01	0	43	102	524288	20	5128
2026-01-05 01:00:34.69	97.56	32.85	-29.7	-32.5	19.7	6.04e-01	0	43	102	524288	20	4981
2026-01-05 01:00:35.70	98.01	32.84	-29.7	-32.5	19.7	6.03e-01	0	43	102	524288	20	4966
2026-01-05 01:00:36.71	98.46	32.83	-29.5	-32.1	20.0	6.02e-01	0	43	102	524288	20	4824
2026-01-05 01:00:37.72	98.91	32.81	-29.6	-32.4	19.8	6.03e-01	0	43	102	524288	20	4929
2026-01-05 01:00:38.72	99.35	32.79	-29.9	-33.0	19.5	6.04e-01	0	43	102	524288	20	5154
2026-01-05 01:00:39.73	99.80	32.77	-29.8	-32.8	19.5	6.00e-01	0	43	102	524288	20	5086
2026-01-05 01:00:40.73	100.25	32.75	-30.0	-33.2	19.2	6.03e-01	0	43	102	524288	20	5242
2026-01-05 01:00:41.74	100.69	32.73	-29.7	-32.7	19.5	6.06e-01	0	43	102	524288	20	5037
2026-01-05 01:00:42.74	101.14	32.70	-29.6	-32.2	19.9	6.03e-01	0	43	102	524288	20	4878
2026-01-05 01:00:43.75	101.58	32.68	-29.7	-32.6	19.6	6.06e-01	0	43	102	524288	20	5025
2026-01-05 01:00:44.75	102.02	32.65	-29.6	-32.3	19.9	6.04e-01	0	43	102	524288	20	4896
2026-01-05 01:00:45.76	102.47	32.62	-29.7	-32.6	19.7	6.04e-01	0	43	102	524288	20	5004
2026-01-05 01:00:46.76	102.91	32.59	-29.5	-32.1	19.9	6.04e-01	0	43	102	524288	20	4823
2026-01-05 01:00:47.78	103.36	32.55	-29.5	-32.0	19.9	6.02e-01	0	43	102	524288	20	4801
2026-01-05 01:00:48.78	103.79	32.52	-29.6	-32.3	19.8	6.03e-01	0	43	102	524288	20	4930
2026-01-05 01:00:49.79	104.24	32.48	-29.6	-32.2	19.8	6.01e-01	0	43	102	524288	20	4895
2026-01-05 01:00:50.79	104.67	32.44	-29.5	-32.1	19.9	6.05e-01	0	43	102	524288	20	4830
2026-01-05 01:00:51.79	105.11	32.40	-29.6	-32.4	19.7	6.02e-01	0	43	102	524288	20	4952
2026-01-05 01:00:52.80	105.54	32.36	-29.6	-32.3	19.8	6.02e-01	0	43	102	524288	20	4921
2026-01-05 01:00:53.81	105.98	32.31	-29.7	-32.5	19.7	6.05e-01	0	43	102	524288	20	4971
2026-01-05 01:00:54.82	106.42	32.27	-29.5	-32.1	19.9	6.05e-01	0	43	102	524288	20	4828
2026-01-05 01:00:55.83	106.85	32.22	-29.4	-31.9	20.0	6.03e-01	0	43	102	524288	20	4794
2026-01-05 01:00:56.83	107.28	32.17	-29.4	-31.9	20.0	6.01e-01	0	43	102	524288	20	4781
2026-01-05 01:00:57.84	107.71	32.12	-29.5	-32.1	19.9	6.04e-01	0	43	102	524288	20	4856
2026-01-05 01:00:58.84	108.14	32.07	-29.6	-32.2	19.8	6.03e-01	0	43	102	524288	20	4894
2026-01-05 01:00:59.85	108.57	32.01	-29.5	-32.1	19.8	6.05e-01	0	43	102	524288	20	4851
2026-01-05 01:01:00.85	108.99	31.96	-29.6	-32.4	19.7	6.04e-01	0	43	102	524288	20	4953
2026-01-05 01:01:01.86	109.42	31.90	-29.5	-32.1	19.9	6.03e-01	0	43	102	524288	20	4843
2026-01-05 01:01:02.87	109.84	31.84	-29.6	-32.4	19.7	6.04e-01	0	43	102	524288	20	4942
2026-01-05 01:01:03.88	110.26	31.78	-29.7	-32.5	19.7	6.03e-01	0	43	102	524288	20	4969
2026-01-05 01:01:04.89	110.69	31.72	-29.4	-31.8	20.1	6.02e-01	0	43	102	524288	20	4735
2026-01-05 01:01:05.90	111.11	31.66	-29.5	-32.1	19.9	6.05e-01	0	43	102	524288	20	4847
2026-01-05 01:01:06.90	111.52	31.59	-29.4	-31.9	20.0	6.03e-01	0	43	102	524288	20	4787
2026-01-05 01:01:07.91	111.94	31.53	-29.4	-31.8	20.0	6.02e-01	0	43	102	524288	20	4739
2026-01-05 01:01:08.91	112.35	31.46	-29.6	-32.2	19.8	6.05e-01	0	43	102	524288	20	4894
2026-01-05 01:01:09.92	112.76	31.39	-29.5	-32.1	19.8	6.04e-01	0	43	102	524288	20	4857
2026-01-05 01:01:10.92	113.17	31.32	-29.4	-31.9	20.0	6.06e-01	0	43	102	524288	20	4765
2026-01-05 01:01:11.93	113.58	31.25	-29.5	-31.9	20.0	6.04e-01	0	43	102	524288	20	4798
2026-01-05 01:01:12.94	113.98	31.17	-29.5	-32.1	19.9	6.04e-01	0	43	102	524288	20	4833
2026-01-05 01:01:13.95	114.39	31.10	-29.4	-31.9	19.9	6.04e-01	0	43	102	524288	20	4785
2026-01-05 01:01:14.95	114.79	31.02	-29.5	-32.2	19.8	6.06e-01	0	43	102	524288	20	4876
2026-01-05 01:01:15.96	115.19	30.95	-29.5	-32.1	19.8	6.05e-01	0	43	102	524288	20	4857
2026-01-05 01:01:16.97	115.59	30.87	-29.5	-32.0	19.9	6.04e-01	0	43	102	524288	20	4813
2026-01-05 01:01:17.98	115.99	30.79	-29.6	-32.2	19.8	6.04e-01	0	43	102	524288	20	4889
2026-01-05 01:01:18.99	116.38	30.71	-29.6	-32.7	19.8	6.02e-01	0	43	102	524288	19	5166
2026-01-05 01:01:20.00	116.78	30.63	-29.4	-32.4	20.0	6.04e-01	0	43	102	524288	19	5050
2026-01-05 01:01:21.01	117.17	30.54	-29.5	-32.4	20.0	6.02e-01	0	43	102	524288	19	5074
2026-01-05 01:01:22.02	117.56	30.46	-29.6	-32.5	19.6	6.02e-01	0	43	102	524288	20	4981
2026-01-05 01:01:23.02	117.94	30.37	-29.5	-32.2	19.8	6.03e-01	0	43	102	524288	20	4886
2026-01-05 01:01:24.03	118.33	30.29	-29.5	-32.1	19.9	6.05e-01	0	43	102	524288	20	4841
2026-01-05 01:01:25.04	118.71	30.20	-29.6	-32.5	19.6	6.04e-01	0	43	102	524288	20	4982
2026-01-05 01:01:26.05	119.09	30.11	-29.5	-32.1	19.8	6.03e-01	0	43	102	524288	20	4843
2026-01-05 01:01:27.05	119.47	30.02	-29.6	-32.2	19.7	6.05e-01	0	43	102	524288	20	4903
2026-01-05 01:01:28.06	119.84	29.93	-29.8	-32.9	19.3	6.02e-01	0	43	102	524288	20	5120
2026-01-05 01:01:29.07	120.22	29.84	-29.7	-32.5	19.6	6.04e-01	0	43	102	524288	20	4996
2026-01-05 01:01:30.08	120.59	29.74	-29.6	-32.3	19.7	6.03e-01	0	43	102	524288	20	4928
2026-01-05 01:01:31.09	120.96	29.65	-29.4	-31.8	20.0	6.02e-01	0	43	102	524288	20	4753
2026-01-05 01:01:32.10	121.33	29.56	-29.4	-31.9	19.9	6.01e-01	0	43	102	524288	20	4799
2026-01-05 01:01:33.10	121.69	29.46	-29.6	-32.3	19.7	6.04e-01	0	43	102	524288	20	4931
2026-01-05 01:01:34.11	122.06	29.37	-29.5	-32.1	19.8	6.06e-01	0	43	102	524288	20	4851
2026-01-05 01:01:35.12	122.42	29.27	-29.5	-32.1	19.7	6.06e-01	0	43	102	524288	20	4863
2026-01-05 01:01:36.12	122.77	29.17	-29.5	-32.1	19.8	6.03e-01	0	43	102	524288	20	4858
2026-01-05 01:01:37.13	123.13	29.07	-29.7	-32.6	19.5	6.04e-01	0	43	102	524288	20	5031
2026-01-05 01:01:38.14	123.49	28.97	-29.6	-32.4	19.7	6.04e-01	0	43	102	524288	20	4946
2026-01-05 01:01:39.15	123.84	28.87	-29.5	-32.2	19.8	6.03e-01	0	43	102	524288	20	4893
2026-01-05 01:01:40.16	124.19	28.77	-29.6	-32.3	19.7	6.03e-01	0	43	102	524288	20	4911
2026-01-05 01:01:41.16	124.54	28.67	-29.8	-33.0	19.3	6.02e-01	0	43	102	524288	20	5177
2026-01-05 01:01:42.17	124.88	28.57	-30.1	-33.6	18.8	6.04e-01	0	43	102	524288	20	5403
2026-01-05 01:01:43.17	125.22	28.47	-29.9	-33.2	19.1	6.07e-01	0	43	102	524288	20	5249
2026-01-05 01:01:44.18	125.56	28.36	-29.8	-32.9	19.3	6.02e-01	0	43	102	524288	20	5121
2026-01-05 01:01:45.19	125.90	28.26	-30.0	-33.4	19.1	6.03e-01	0	43	102	524288	20	5315
2026-01-05 01:01:46.20	126.24	28.15	-30.0	-33.0	18.9	6.03e-01	0	43	102	524288	21	5073
2026-01-05 01:01:47.20	126.57	28.05	-29.9	-32.8	19.1	6.05e-01	0	43	102	524288	21	4987
2026-01-05 01:01:48.21	126.90	27.94	-30.0	-32.8	19.1	6.02e-01	0	43	102	524288	21	5004
2026-01-05 01:01:49.22	127.23	27.83	-30.0	-32.9	19.0	6.02e-01	0	43	102	524288	21	5047
2026-01-05 01:01:50.22	127.56	27.73	-29.8	-32.4	19.3	6.02e-01	0	43	102	524288	21	4852
2026-01-05 01:01:51.22	127.88	27.62	-29.8	-32.3	19.3	6.05e-01	0	43	102	524288	21	4836
2026-01-05 01:01:52.23	128.21	27.51	-29.7	-32.1	19.4	6.03e-01	0	43	102	524288	21	4761
2026-01-05 01:01:53.24	128.53	27.40	-29.7	-32.2	19.4	6.05e-01	0	43	102	524288	21	4784
2026-01-05 01:01:54.24	128.84	27.30	-29.8	-32.4	19.3	6.02e-01	0	43	102	524288	21	4854
2026-01-05 01:01:55.25	129.16	27.19	-29.8	-32.5	19.2	6.02e-01	0	43	102	524288	21	4886
2026-01-05 01:01:56.26	129.48	27.08	-29.9	-32.7	19.1	6.04e-01	0	43	102	524288	21	4974
2026-01-05 01:01:57.26	129.79	26.97	-29.8	-32.5	19.2	6.06e-01	0	43	102	524288	21	4901
2026-01-05 01:01:58.27	130.10	26.86	-29.8	-32.4	19.2	6.03e-01	0	43	102	524288	21	4875
2026-01-05 01:01:59.27	130.40	26.75	-29.8	-32.5	19.2	6.03e-01	0	43	102	524288	21	4892
2026-01-05 01:02:00.28	130.71	26.63	-29.9	-33.2	19.0	6.03e-01	0	43	102	524288	20	5256
2026-01-05 01:02:01.28	131.01	26.52	-29.8	-32.9	19.2	6.03e-01	0	43	102	524288	20	5160
2026-01-05 01:02:02.29	131.31	26.41	-29.8	-33.0	19.1	6.03e-01	0	43	102	524288	20	5183
2026-01-05 01:02:03.29	131.61	26.30	-29.8	-33.1	19.1	6.01e-01	0	43	102	524288	20	5230
2026-01-05 01:02:04.31	131.91	26.19	-29.9	-33.2	18.9	6.02e-01	0	43	102	524288	20	5289
2026-01-05 01:02:05.31	132.20	26.07	-29.8	-33.0	19.1	6.02e-01	0	43	102	524288	20	5212
2026-01-05 01:02:06.32	132.49	25.96	-29.8	-33.1	19.1	6.03e-01	0	43	102	524288	20	5216
2026-01-05 01:02:07.33	132.78	25.85	-29.9	-33.2	19.0	6.04e-01	0	43	102	524288	20	5258
2026-01-05 01:02:08.33	133.07	25.73	-29.9	-33.2	18.9	6.03e-01	0	43	102	524288	20	5293
2026-01-05 01:02:09.34	133.36	25.62	-30.0	-33.5	18.8	6.01e-01	0	43	102	524288	20	5374
2026-01-05 01:02:10.34	133.64	25.51	-29.9	-33.4	18.8	6.04e-01	0	43	102	524288	20	5349
2026-01-05 01:02:11.35	133.92	25.39	-29.9	-33.4	18.8	6.04e-01	0	43	102	524288	20	5352
2026-01-05 01:02:12.36	134.20	25.28	-29.9	-33.4	18.8	6.02e-01	0	43	102	524288	20	5360
2026-01-05 01:02:13.37	134.48	25.16	-30.0	-33.4	18.8	6.03e-01	0	43	102	524288	20	5378
2026-01-05 01:02:14.38	134.76	25.05	-30.0	-33.5	18.7	6.04e-01	0	43	102	524288	20	5407
2026-01-05 01:02:15.38	135.03	24.93	-29.9	-33.4	18.7	6.03e-01	0	43	102	524288	20	5382
2026-01-05 01:02:16.39	135.30	24.82	-29.9	-33.5	18.7	6.03e-01	0	43	102	524288	20	5397
2026-01-05 01:02:17.40	135.57	24.70	-29.9	-33.4	18.8	6.03e-01	0	43	102	524288	20	5365
2026-01-05 01:02:18.41	135.84	24.59	-30.0	-33.5	18.7	6.04e-01	0	43	102	524288	20	5409
2026-01-05 01:02:19.41	136.10	24.47	-30.1	-33.4	18.4	6.01e-01	0	43	102	524288	21	5268
2026-01-05 01:02:20.42	136.37	24.36	-30.1	-33.4	18.4	6.05e-01	0	43	102	524288	21	5283
2026-01-05 01:02:21.43	136.63	24.24	-30.2	-33.7	18.2	6.04e-01	0	43	102	524288	21	5364
2026-01-05 01:02:22.43	136.89	24.13	-30.1	-33.5	18.3	6.04e-01	0	43	102	524288	21	5298
2026-01-05 01:02:23.44	137.15	24.01	-30.1	-33.4	18.4	6.04e-01	0	43	102	524288	21	5236
2026-01-05 01:02:24.44	137.40	23.90	-30.2	-33.5	18.4	6.04e-01	0	43	102	524288	21	5287
2026-01-05 01:02:25.44	137.65	23.79	-30.1	-33.4	18.4	6.04e-01	0	43	102	524288	21	5264
2026-01-05 01:02:26.46	137.91	23.67	-30.0	-33.1	18.6	6.05e-01	0	43	102	524288	21	5121
2026-01-05 01:02:27.46	138.16	23.55	-30.0	-33.0	18.7	6.03e-01	0	43	102	524288	21	5095
2026-01-05 01:02:28.47	138.41	23.44	-30.0	-33.6	18.6	6.02e-01	0	43	102	524288	20	5452
2026-01-05 01:02:29.47	138.65	23.32	-30.1	-33.7	18.5	6.05e-01	0	43	102	524288	20	5504
2026-01-05 01:02:30.48	138.90	23.21	-30.0	-33.6	18.4	6.04e-01	0	43	102	524288	20	5458
2026-01-05 01:02:31.48	139.14	23.09	-30.0	-33.6	18.6	6.05e-01	0	43	102	524288	20	5430
2026-01-05 01:02:32.48	139.38	22.98	-30.0	-33.6	18.3	6.02e-01	0	43	102	524288	20	5442
2026-01-05 01:02:33.49	139.62	22.87	-29.9	-33.3	18.4	6.04e-01	0	43	102	524288	20	5328
2026-01-05 01:02:34.49	139.85	22.75	-29.8	-33.1	18.9	6.05e-01	0	43	102	524288	20	5251
2026-01-05 01:02:35.50	140.09	22.64	-29.9	-33.3	17.8	6.06e-01	0	43	102	524288	20	5327
2026-01-05 01:02:36.51	140.32	22.52	-29.9	-33.3	17.5	6.03e-01	0	43	102	524288	20	5337
2026-01-05 01:02:37.52	140.55	22.41	-29.8	-33.1	18.9	6.05e-01	0	43	102	524288	20	5250
2026-01-05 01:02:38.53	140.79	22.29	-29.8	-33.2	18.8	6.02e-01	0	43	102	524288	20	5282
2026-01-05 01:02:39.54	141.02	22.18	-29.9	-33.3	18.8	6.05e-01	0	43	102	524288	20	5331
2026-01-05 01:02:40.55	141.24	22.06	-29.9	-33.4	18.7	6.02e-01	0	43	102	524288	20	5376
2026-01-05 01:02:41.55	141.47	21.95	-29.9	-33.5	18.6	6.04e-01	0	43	102	524288	20	5411
2026-01-05 01:02:42.56	141.69	21.83	-29.9	-33.4	18.6	6.02e-01	0	43	102	524288	20	5368
2026-01-05 01:02:43.56	141.91	21.72	-30.1	-33.9	18.3	6.00e-01	0	43	102	524288	20	5581
2026-01-05 01:02:44.56	142.13	21.61	-30.3	-33.9	17.9	6.03e-01	0	43	102	524288	21	5476
2026-01-05 01:02:45.56	142.35	21.50	-30.3	-34.0	17.9	6.03e-01	0	43	102	524288	21	5492
2026-01-05 01:02:46.57	142.56	21.38	-30.2	-33.6	18.1	6.03e-01	0	43	102	524288	21	5363
2026-01-05 01:02:47.58	142.78	21.27	-30.2	-33.7	18.1	6.04e-01	0	43	102	524288	21	5378
2026-01-05 01:02:48.59	142.99	21.15	-30.2	-33.7	18.1	6.03e-01	0	43	102	524288	21	5389
2026-01-05 01:02:49.59	143.20	21.04	-30.1	-33.5	18.2	6.02e-01	0	43	102	524288	21	5324
2026-01-05 01:02:50.60	143.41	20.93	-30.1	-33.5	18.2	6.02e-01	0	43	102	524288	21	5301
2026-01-05 01:02:51.61	143.62	20.82	-30.1	-33.9	18.2	6.03e-01	0	43	102	524288	20	5598
2026-01-05 01:02:52.62	143.83	20.70	-30.2	-33.9	17.9	6.04e-01	0	43	102	524288	21	5490
2026-01-05 01:02:53.63	144.04	20.59	-30.4	-34.4	17.6	6.05e-01	0	43	102	524288	21	5697
2026-01-05 01:02:54.64	144.24	20.48	-30.3	-34.0	17.8	6.04e-01	0	43	102	524288	21	5528
2026-01-05 01:02:55.64	144.44	20.37	-30.1	-33.4	18.1	6.02e-01	0	43	102	524288	21	5302
2026-01-05 01:02:56.65	144.65	20.26	-29.9	-33.3	18.5	6.04e-01	0	43	102	524288	20	5375
2026-01-05 01:02:57.66	144.85	20.14	-30.0	-33.7	18.3	6.05e-01	0	43	102	524288	20	5519
2026-01-05 01:02:58.66	145.04	20.03	-30.1	-33.5	18.1	6.06e-01	0	43	102	524288	21	5319
2026-01-05 01:02:59.67	145.24	19.92	-30.2	-33.7	17.9	6.05e-01	0	43	102	524288	21	5430
2026-01-05 01:03:00.67	145.43	19.81	-30.2	-33.8	17.9	6.02e-01	0	43	102	524288	21	5447
2026-01-05 01:03:01.68	145.63	19.70	-30.1	-33.6	18.0	6.06e-01	0	43	102	524288	21	5357
2026-01-05 01:03:02.68	145.82	19.59	-30.1	-34.0	18.0	6.03e-01	0	43	102	524288	20	5633
2026-01-05 01:03:03.69	146.01	19.48	-30.1	-33.6	18.0	6.03e-01	0	43	102	524288	21	5362
2026-01-05 01:03:04.70	146.20	19.37	-30.1	-33.6	18.0	6.04e-01	0	43	102	524288	21	5394
2026-01-05 01:03:05.70	146.39	19.26	-30.0	-34.0	18.0	6.02e-01	0	43	102	524288	20	5655
2026-01-05 01:03:06.70	146.57	19.15	-29.9	-33.5	18.3	6.01e-01	0	43	102	524288	20	5459
2026-01-05 01:03:07.70	146.76	19.05	-29.7	-33.0	18.6	6.03e-01	0	43	102	524288	20	5252
2026-01-05 01:03:08.71	146.94	18.94	-29.6	-32.7	18.8	6.03e-01	0	43	102	524288	20	5154
2026-01-05 01:03:09.72	147.13	18.83	-29.6	-32.7	18.8	6.03e-01	0	43	102	524288	20	5159
2026-01-05 01:03:10.73	147.31	18.72	-29.6	-32.8	18.8	6.04e-01	0	43	102	524288	20	5183
2026-01-05 01:03:11.73	147.49	18.61	-29.6	-32.8	18.7	6.03e-01	0	43	102	524288	20	5210
2026-01-05 01:03:12.74	147.67	18.50	-29.6	-32.8	18.7	6.04e-01	0	43	102	524288	20	5201
2026-01-05 01:03:13.74	147.84	18.40	-29.8	-33.2	18.5	6.04e-01	0	43	102	524288	20	5341
2026-01-05 01:03:14.75	148.02	18.29	-29.7	-33.1	18.5	6.06e-01	0	43	102	524288	20	5314
2026-01-05 01:03:15.76	148.19	18.18	-29.7	-33.2	18.5	6.01e-01	0	43	102	524288	20	5338
2026-01-05 01:03:16.77	148.37	18.08	-29.8	-33.3	18.4	6.04e-01	0	43	102	524288	20	5372
2026-01-05 01:03:17.78	148.54	17.97	-29.9	-33.6	18.2	6.06e-01	0	43	102	524288	20	5505
2026-01-05 01:03:18.78	148.71	17.86	-29.9	-33.5	18.2	6.03e-01	0	43	102	524288	20	5484
2026-01-05 01:03:19.79	148.88	17.76	-29.9	-33.6	18.2	6.05e-01	0	43	102	524288	20	5505
2026-01-05 01:03:20.79	149.05	17.65	-29.9	-33.6	18.2	6.04e-01	0	43	102	524288	20	5504
2026-01-05 01:03:21.80	149.22	17.55	-30.1	-34.0	17.9	6.08e-01	0	43	102	524288	20	5682
2026-01-05 01:03:22.81	149.38	17.44	-29.9	-33.6	18.1	6.04e-01	0	43	102	524288	20	5509
2026-01-05 01:03:23.81	149.55	17.34	-29.8	-33.4	18.3	6.04e-01	0	43	102	524288	20	5405
2026-01-05 01:03:24.82	149.71	17.23	-29.8	-33.4	18.3	6.01e-01	0	43	102	524288	20	5409
2026-01-05 01:03:25.83	149.88	17.13	-29.8	-33.4	18.3	6.02e-01	0	43	102	524288	20	5401
2026-01-05 01:03:26.83	150.04	17.02	-30.0	-33.9	18.0	6.02e-01	0	43	102	524288	20	5611
2026-01-05 01:03:27.84	150.20	16.92	-29.9	-33.6	18.1	6.01e-01	0	43	102	524288	20	5498
2026-01-05 01:03:28.84	150.36	16.82	-29.8	-33.2	18.4	6.03e-01	0	43	102	524288	20	5367
2026-01-05 01:03:29.84	150.51	16.72	-29.8	-33.2	18.4	6.02e-01	0	43	102	524288	20	5357
2026-01-05 01:03:30.84	150.67	16.61	-29.8	-33.3	18.3	6.03e-01	0	43	102	524288	20	5380
2026-01-05 01:03:31.85	150.83	16.51	-29.8	-33.5	18.1	6.02e-01	0	43	102	524288	20	5471
2026-01-05 01:03:32.85	150.98	16.41	-29.8	-33.3	18.2	6.03e-01	0	43	102	524288	20	5391
2026-01-05 01:03:33.86	151.13	16.31	-29.8	-33.5	18.1	6.05e-01	0	43	102	524288	20	5473
2026-01-05 01:03:34.86	151.28	16.21	-29.7	-33.2	18.2	6.05e-01	0	43	102	524288	20	5374
2026-01-05 01:03:35.87	151.44	16.10	-29.7	-33.0	18.3	6.00e-01	0	43	102	524288	20	5296
2026-01-05 01:03:36.88	151.59	16.00	-29.7	-33.0	18.3	6.02e-01	0	43	102	524288	20	5298
2026-01-05 01:03:37.89	151.74	15.90	-29.6	-32.9	18.4	6.03e-01	0	43	102	524288	20	5260
2026-01-05 01:03:38.89	151.89	15.80	-29.6	-33.0	18.3	6.05e-01	0	43	102	524288	20	5291
2026-01-05 01:03:39.90	152.03	15.70	-29.6	-32.8	18.4	6.02e-01	0	43	102	524288	20	5245
2026-01-05 01:03:40.91	152.18	15.60	-29.6	-33.0	18.3	6.04e-01	0	43	102	524288	20	5313
2026-01-05 01:03:41.91	152.33	15.50	-29.6	-32.9	18.3	6.02e-01	0	43	102	524288	20	5278
2026-01-05 01:03:42.92	152.47	15.40	-29.6	-33.0	18.3	6.02e-01	0	43	102	524288	20	5305
2026-01-05 01:03:43.93	152.61	15.30	-29.7	-33.3	18.1	6.03e-01	0	43	102	524288	20	5423
2026-01-05 01:03:44.93	152.76	15.20	-29.7	-33.1	18.1	6.04e-01	0	43	102	524288	20	5376
2026-01-05 01:03:45.94	152.90	15.11	-29.7	-33.4	17.9	6.02e-01	0	43	102	524288	20	5499
2026-01-05 01:03:46.94	153.04	15.01	-29.7	-33.3	18.0	6.04e-01	0	43	102	524288	20	5435
2026-01-05 01:03:47.95	153.18	14.91	-29.7	-33.2	18.1	6.02e-01	0	43	102	524288	20	5412
2026-01-05 01:03:48.96	153.32	14.81	-29.6	-33.2	18.0	6.05e-01	0	43	102	524288	20	5429
2026-01-05 01:03:49.96	153.45	14.71	-29.8	-33.6	17.8	6.03e-01	0	43	102	524288	20	5596
2026-01-05 01:03:50.97	153.59	14.62	-29.7	-33.3	18.0	6.05e-01	0	43	102	524288	20	5472
2026-01-05 01:03:51.97	153.73	14.52	-29.6	-33.1	18.1	6.05e-01	0	43	102	524288	20	5391
2026-01-05 01:03:52.98	153.86	14.42	-29.6	-33.1	18.1	6.05e-01	0	43	102	524288	20	5395
2026-01-05 01:03:53.99	154.00	14.33	-29.6	-33.1	18.1	6.03e-01	0	43	102	524288	20	5377
2026-01-05 01:03:55.00	154.13	14.23	-29.7	-33.2	18.0	6.03e-01	0	43	102	524288	20	5423
2026-01-05 01:03:56.01	154.26	14.14	-29.6	-33.1	18.1	6.03e-01	0	43	102	524288	20	5368
2026-01-05 01:03:57.01	154.39	14.04	-29.7	-33.2	18.1	6.05e-01	0	43	102	524288	20	5406
2026-01-05 01:03:58.02	154.52	13.95	-29.6	-33.1	17.8	6.02e-01	0	43	102	524288	20	5358
2026-01-05 01:03:59.02	154.65	13.85	-29.6	-32.9	16.3	6.05e-01	0	43	102	524288	20	5293
2026-01-05 01:04:00.03	154.78	13.76	-29.6	-33.1	16.4	6.07e-01	0	43	102	524288	20	5380
2026-01-05 01:04:01.03	154.91	13.66	-29.8	-33.5	17.7	6.04e-01	0	44	102	524288	20	5537
2026-01-05 01:04:02.03	155.03	13.57	-29.7	-33.2	17.4	6.04e-01	0	43	102	524288	20	5400
2026-01-05 01:04:03.04	155.16	13.48	-29.6	-32.9	16.8	6.04e-01	0	43	102	524288	20	5299
2026-01-05 01:04:04.04	155.29	13.38	-29.6	-33.0	18.1	6.04e-01	0	43	102	524288	20	5331
2026-01-05 01:04:05.05	155.41	13.29	-29.5	-32.8	18.2	6.04e-01	0	43	102	524288	20	5257
2026-01-05 01:04:06.06	155.54	13.20	-29.6	-33.1	18.1	6.05e-01	0	43	102	524288	20	5351
2026-01-05 01:04:07.06	155.66	13.10	-29.6	-33.0	18.1	6.03e-01	0	43	102	524288	20	5334
2026-01-05 01:04:08.07	155.78	13.01	-29.7	-33.2	18.0	6.04e-01	0	43	102	524288	20	5412
2026-01-05 01:04:09.08	155.90	12.92	-29.8	-33.4	17.9	6.04e-01	0	43	102	524288	20	5510
2026-01-05 01:04:10.09	156.02	12.83	-29.7	-33.3	18.0	6.05e-01	0	43	102	524288	20	5449
2026-01-05 01:04:11.09	156.14	12.74	-29.7	-33.3	18.0	6.03e-01	0	43	102	524288	20	5448
2026-01-05 01:04:12.10	156.26	12.64	-29.7	-33.5	17.8	6.04e-01	0	43	102	524288	20	5526
2026-01-05 01:04:13.11	156.38	12.55	-29.7	-33.5	17.8	6.03e-01	0	43	102	524288	20	5525
2026-01-05 01:04:14.12	156.50	12.46	-29.7	-33.4	17.8	6.05e-01	0	43	102	524288	20	5530
2026-01-05 01:04:15.12	156.61	12.37	-29.8	-33.6	17.7	6.07e-01	0	43	102	524288	20	5601
2026-01-05 01:04:16.13	156.73	12.28	-29.9	-34.0	17.4	6.03e-01	0	43	102	524288	20	5771
2026-01-05 01:04:17.13	156.85	12.19	-29.8	-33.7	17.6	6.04e-01	0	43	102	524288	20	5654
2026-01-05 01:04:18.14	156.96	12.10	-29.8	-33.7	17.6	6.07e-01	0	44	102	524288	20	5630
2026-01-05 01:04:19.14	157.07	12.01	-29.8	-33.7	17.6	6.02e-01	0	44	102	524288	20	5658
2026-01-05 01:04:20.15	157.19	11.93	-29.8	-33.6	17.7	6.05e-01	0	43	102	524288	20	5607
2026-01-05 01:04:21.16	157.30	11.84	-29.9	-33.9	17.4	6.02e-01	0	43	102	524288	20	5746
2026-01-05 01:04:22.16	157.41	11.75	-29.8	-33.7	17.6	6.03e-01	0	43	102	524288	20	5641
2026-01-05 01:04:23.18	157.52	11.66	-29.8	-33.6	17.7	6.07e-01	0	43	102	524288	20	5602
2026-01-05 01:04:24.18	157.63	11.57	-29.8	-33.7	17.6	6.04e-01	0	43	102	524288	20	5646
2026-01-05 01:04:25.19	157.74	11.48	-29.9	-34.0	17.4	6.04e-01	0	43	102	524288	20	5746
2026-01-05 01:04:26.19	157.85	11.40	-29.8	-33.6	17.6	6.02e-01	0	43	102	524288	20	5609
2026-01-05 01:04:27.20	157.96	11.31	-29.8	-33.7	17.6	6.04e-01	0	43	102	524288	20	5641
2026-01-05 01:04:28.21	158.07	11.22	-29.8	-33.8	17.5	6.05e-01	0	43	102	524288	20	5670
2026-01-05 01:04:29.21	158.18	11.14	-29.8	-33.7	17.6	6.03e-01	0	43	102	524288	20	5638
2026-01-05 01:04:30.22	158.28	11.05	-29.8	-33.8	17.5	6.02e-01	0	43	102	524288	20	5657
2026-01-05 01:04:31.22	158.39	10.96	-29.9	-33.9	17.4	6.00e-01	0	43	102	524288	20	5731
2026-01-05 01:04:32.23	158.49	10.88	-29.8	-33.7	17.5	6.04e-01	0	43	102	524288	20	5650
2026-01-05 01:04:33.24	158.60	10.79	-29.9	-33.8	17.5	6.04e-01	0	43	102	524288	20	5677
2026-01-05 01:04:34.24	158.70	10.71	-29.9	-33.9	17.4	6.03e-01	0	43	102	524288	20	5728
2026-01-05 01:04:35.25	158.81	10.62	-30.0	-34.2	17.2	6.02e-01	0	43	102	524288	20	5851
2026-01-05 01:04:36.25	158.91	10.54	-30.0	-33.9	17.1	6.03e-01	0	44	102	524288	21	5600
2026-01-05 01:04:37.26	159.01	10.45	-29.9	-33.6	17.2	6.02e-01	0	43	102	524288	21	5475
2026-01-05 01:04:38.27	159.11	10.37	-29.9	-34.0	17.2	6.04e-01	0	43	102	524288	20	5784
2026-01-05 01:04:39.27	159.21	10.28	-29.9	-34.0	17.2	6.03e-01	0	43	102	524288	20	5788
2026-01-05 01:04:40.28	159.31	10.20	-29.9	-34.0	17.3	6.02e-01	0	43	102	524288	20	5765
2026-01-05 01:04:41.28	159.41	10.12	-30.0	-34.4	17.0	6.03e-01	0	43	102	524288	20	5961
2026-01-05 01:04:42.29	159.51	10.03	-30.0	-34.5	16.9	6.05e-01	0	43	102	524288	20	6016
2026-01-05 01:04:43.30	159.61	9.95	-30.0	-34.2	17.1	6.04e-01	0	43	102	524288	20	5886
2026-01-05 01:04:44.31	159.71	9.87	-29.9	-34.1	17.1	6.03e-01	0	43	102	524288	20	5841
2026-01-05 01:04:45.31	159.80	9.78	-30.0	-34.3	17.0	6.05e-01	0	43	102	524288	20	5906
2026-01-05 01:04:46.32	159.90	9.70	-30.0	-34.3	17.0	6.02e-01	0	43	102	524288	20	5925
2026-01-05 01:04:47.33	160.00	9.62	-30.0	-34.3	16.8	6.03e-01	0	43	102	524288	20	5947
2026-01-05 01:04:48.33	160.09	9.54	-29.9	-34.2	17.0	6.02e-01	0	43	102	524288	20	5902
2026-01-05 01:04:49.34	160.19	9.46	-29.9	-34.1	16.8	6.03e-01	0	43	102	524288	20	5887
2026-01-05 01:04:50.34	160.28	9.37	-29.9	-34.2	16.8	6.03e-01	0	43	102	524288	20	5929
2026-01-05 01:04:51.35	160.38	9.29	-29.9	-34.2	17.0	6.05e-01	0	43	102	524288	20	5925
2026-01-05 01:04:52.36	160.47	9.21	-29.7	-33.9	17.1	6.03e-01	0	43	102	524288	20	5800
2026-01-05 01:04:53.37	160.56	9.13	-29.7	-33.9	17.0	6.02e-01	0	43	102	524288	20	5835
2026-01-05 01:04:54.37	160.65	9.05	-29.7	-34.1	16.9	6.03e-01	0	43	102	524288	20	5935
2026-01-05 01:04:55.38	160.75	8.97	-29.8	-34.1	16.8	6.02e-01	0	43	102	524288	20	5972
2026-01-05 01:04:56.39	160.84	8.89	-29.8	-34.2	16.8	6.03e-01	0	43	102	524288	20	6006
2026-01-05 01:04:57.40	160.93	8.81	-29.8	-34.2	16.8	6.02e-01	0	43	102	524288	20	6015
2026-01-05 01:04:58.40	161.02	8.73	-29.9	-34.4	16.7	6.03e-01	0	43	102	524288	20	6096
2026-01-05 01:04:59.41	161.11	8.65	-29.9	-34.5	16.7	6.05e-01	0	43	102	524288	20	6105
2026-01-05 01:05:00.41	161.20	8.57	-29.9	-34.5	16.7	6.06e-01	0	43	102	524288	20	6091
2026-01-05 01:05:01.42	161.29	8.49	-29.9	-34.6	16.6	6.02e-01	0	43	102	524288	20	6133
2026-01-05 01:05:02.42	161.37	8.42	-30.0	-34.7	16.5	6.03e-01	0	43	102	524288	20	6166
2026-01-05 01:05:03.43	161.46	8.34	-30.0	-34.7	16.5	6.03e-01	0	43	102	524288	20	6191
2026-01-05 01:05:04.44	161.55	8.26	-30.1	-34.8	16.4	6.02e-01	0	44	102	524288	20	6223
2026-01-05 01:05:05.45	161.64	8.18	-30.1	-34.8	16.5	6.04e-01	0	43	102	524288	20	6194
2026-01-05 01:05:06.45	161.72	8.10	-30.1	-34.4	16.4	6.05e-01	0	43	102	524288	21	5927
2026-01-05 01:05:07.46	161.81	8.02	-30.1	-34.5	16.4	6.04e-01	0	43	102	524288	21	5943
2026-01-05 01:05:08.46	161.89	7.95	-30.2	-34.6	16.2	6.05e-01	0	43	102	524288	21	5998
2026-01-05 01:05:09.47	161.98	7.87	-30.2	-34.7	16.2	6.03e-01	0	43	102	524288	21	6067
2026-01-05 01:05:10.47	162.06	7.79	-30.3	-35.1	15.9	6.05e-01	0	43	102	524288	21	6268
2026-01-05 01:05:11.47	162.15	7.72	-30.3	-35.1	15.8	6.04e-01	0	43	102	524288	21	6285
2026-01-05 01:05:12.48	162.23	7.64	-30.2	-34.8	16.0	6.04e-01	0	43	102	524288	21	6133
2026-01-05 01:05:13.49	162.31	7.56	-30.2	-34.8	16.0	6.04e-01	0	43	102	524288	21	6111
2026-01-05 01:05:14.49	162.39	7.49	-30.2	-35.0	15.9	6.02e-01	0	43	102	524288	21	6220
2026-01-05 01:05:15.50	162.48	7.41	-30.3	-35.1	15.8	6.02e-01	0	43	102	524288	21	6290
2026-01-05 01:05:16.50	162.56	7.34	-30.4	-35.4	15.6	6.03e-01	0	43	102	524288	21	6452
2026-01-05 01:05:17.51	162.64	7.26	-30.3	-35.4	15.6	6.04e-01	0	43	102	524288	21	6441
2026-01-05 01:05:18.52	162.72	7.19	-30.3	-35.2	15.7	6.04e-01	0	43	102	524288	21	6334
2026-01-05 01:05:19.53	162.80	7.11	-30.3	-35.3	14.8	6.07e-01	0	43	102	524288	21	6379
2026-01-05 01:05:20.53	162.88	7.04	-32.4	-49.2	4.1	7.46e-01	0	43	104	524288	25	24720

#Closed at: 2026-01-05 01:05:21
#Recorded file [0 MB]: D:/data/31010_260105_035536.dat