passes_logs/2026/01/05/R2M6_AANII_01/R2M6_AANII_01__20260105_071057_FENGYUN_3E_rec.log

#Pass ID: 20260105_071057_FENGYUN 3E
#Satellite: FENGYUN 3E
#Configuration: FENGYUN 3E
#almurnet v.1.7.20240730
#Start time: 2026-01-05 07:10:58

#Version: 2.2.20231116
#Station: R2M6_AANII_01
#Location: 30.233357 lon 59.946436 lat
#TLE: 1 49008U 21062A   26004.29457719  .00000106  00000+0  70678-4 0  9996
#TLE: 2 49008  98.7471   9.5487 0001503 159.9821 200.1414 14.19883545233329

#Time	Az	El	Level	Level2	SNR	BER	BlckErr	Temp	State	Recorded	gain1	gain2
2026-01-05 07:10:58.29	8.26	7.06	-30.4	-34.3	4.4	8.25e-01	0	41	0	0	22	5611
2026-01-05 07:10:59.29	8.15	7.12	-29.5	-32.0	4.9	7.85e-01	0	41	104	0	20	4828
2026-01-05 07:11:00.30	8.03	7.17	-29.4	-31.8	7.5	1.10e-01	0	41	0	0	20	4730
2026-01-05 07:11:01.31	7.91	7.23	-29.4	-31.8	7.6	9.79e-02	0	41	102	1048576	20	4712
2026-01-05 07:11:02.32	7.80	7.28	-29.4	-31.8	7.6	1.10e-01	0	41	102	1048576	20	4715
2026-01-05 07:11:03.33	7.68	7.34	-29.3	-31.9	8.0	7.98e-02	0	41	102	1048576	19	4830
2026-01-05 07:11:04.34	7.56	7.39	-29.3	-31.8	8.1	7.90e-02	0	41	102	1048576	19	4777
2026-01-05 07:11:05.35	7.44	7.45	-28.8	-31.0	9.0	3.14e-02	0	41	102	1048576	18	4593
2026-01-05 07:11:06.35	7.32	7.50	-28.4	-29.8	9.7	1.53e-02	0	41	102	1048576	18	4232
2026-01-05 07:11:07.36	7.20	7.55	-28.1	-29.4	10.3	6.29e-03	0	42	102	1048576	17	4204
2026-01-05 07:11:08.37	7.08	7.61	-27.8	-29.1	10.9	3.23e-03	0	41	102	1048576	16	4195
2026-01-05 07:11:09.37	6.96	7.66	-27.4	-28.3	11.4	1.49e-03	0	42	102	1048576	16	3964
2026-01-05 07:11:10.38	6.84	7.72	-27.1	-28.0	11.7	7.28e-04	0	42	102	1048576	15	3992
2026-01-05 07:11:11.38	6.72	7.77	-27.0	-27.7	11.9	4.82e-04	0	42	102	1048576	15	3913
2026-01-05 07:11:12.39	6.60	7.83	-26.9	-28.0	12.1	3.49e-04	0	42	102	1048576	14	4092
2026-01-05 07:11:13.40	6.47	7.88	-26.8	-27.8	12.2	3.35e-04	0	42	102	1048576	14	4037
2026-01-05 07:11:14.41	6.35	7.94	-26.9	-28.0	12.0	3.15e-04	0	42	102	1048576	14	4084
2026-01-05 07:11:15.41	6.23	7.99	-26.8	-27.8	12.1	2.52e-04	0	42	102	1048576	14	4042
2026-01-05 07:11:16.42	6.10	8.05	-26.7	-27.6	12.3	2.52e-04	0	42	102	1048576	14	3996
2026-01-05 07:11:17.43	5.98	8.10	-26.8	-27.7	12.2	1.97e-04	0	42	102	1048576	14	4021
2026-01-05 07:11:18.43	5.86	8.15	-26.8	-27.9	12.1	2.60e-04	0	42	102	1048576	14	4061
2026-01-05 07:11:19.44	5.73	8.21	-26.9	-28.0	12.1	2.43e-04	0	42	102	1048576	14	4085
2026-01-05 07:11:20.45	5.60	8.26	-26.8	-27.9	12.1	2.63e-04	0	42	102	1048576	14	4065
2026-01-05 07:11:21.45	5.48	8.32	-26.8	-27.8	12.2	2.86e-04	0	42	102	1048576	14	4029
2026-01-05 07:11:22.46	5.35	8.37	-26.8	-27.9	12.1	2.59e-04	0	42	102	1048576	14	4053
2026-01-05 07:11:23.46	5.23	8.43	-26.8	-27.9	12.1	2.95e-04	0	42	102	1048576	14	4064
2026-01-05 07:11:24.47	5.10	8.48	-26.8	-27.9	12.2	2.99e-04	0	42	102	1048576	14	4060
2026-01-05 07:11:25.48	4.97	8.53	-26.7	-27.5	12.4	1.57e-04	0	42	102	1048576	14	3947
2026-01-05 07:11:26.48	4.84	8.59	-26.5	-27.0	12.7	1.02e-04	0	42	102	1048576	14	3837
2026-01-05 07:11:27.49	4.71	8.64	-26.4	-26.9	12.8	8.12e-05	0	42	102	1048576	14	3807
2026-01-05 07:11:28.49	4.58	8.70	-26.3	-27.2	12.9	8.92e-05	0	42	102	1048576	13	3983
2026-01-05 07:11:29.50	4.45	8.75	-26.3	-27.2	12.9	4.92e-05	0	42	102	1048576	13	3968
2026-01-05 07:11:30.51	4.32	8.81	-26.3	-27.0	13.0	4.11e-05	0	42	102	1048576	13	3929
2026-01-05 07:11:31.52	4.19	8.86	-26.2	-26.9	13.0	4.80e-05	0	42	102	1048576	13	3910
2026-01-05 07:11:32.52	4.06	8.91	-26.2	-26.8	13.1	5.14e-05	0	42	102	1048576	13	3879
2026-01-05 07:11:33.52	3.93	8.97	-26.1	-26.7	13.2	3.08e-05	0	42	102	1048576	13	3847
2026-01-05 07:11:34.53	3.79	9.02	-26.1	-26.6	13.2	2.17e-05	0	42	102	1048576	13	3819
2026-01-05 07:11:35.54	3.66	9.08	-26.1	-26.6	13.3	3.43e-05	0	42	102	1048576	13	3820
2026-01-05 07:11:36.55	3.53	9.13	-26.1	-26.6	13.2	2.40e-05	0	42	102	1048576	13	3816
2026-01-05 07:11:37.55	3.39	9.18	-26.1	-26.7	13.2	1.94e-05	0	42	102	1048576	13	3843
2026-01-05 07:11:38.55	3.26	9.24	-26.2	-26.9	13.1	2.51e-05	0	42	102	1048576	13	3887
2026-01-05 07:11:39.56	3.12	9.29	-26.2	-26.8	13.1	2.86e-05	0	42	102	1048576	13	3882
2026-01-05 07:11:40.57	2.99	9.35	-26.1	-26.7	13.2	3.31e-05	0	42	102	1048576	13	3854
2026-01-05 07:11:41.58	2.85	9.40	-26.2	-26.9	13.1	3.43e-05	0	42	102	1048576	13	3904
2026-01-05 07:11:42.58	2.71	9.45	-26.3	-27.0	13.0	3.20e-05	0	42	102	1048576	13	3929
2026-01-05 07:11:43.59	2.58	9.51	-26.2	-27.0	13.1	2.05e-05	0	42	102	1048576	13	3921
2026-01-05 07:11:44.58	2.44	9.56	-26.4	-27.4	12.9	6.86e-05	0	42	102	1048576	13	4022
2026-01-05 07:11:45.59	2.30	9.61	-26.4	-27.4	12.8	6.17e-05	0	42	102	1048576	13	4015
2026-01-05 07:11:46.59	2.17	9.67	-26.3	-27.1	12.9	6.06e-05	0	42	102	1048576	13	3960
2026-01-05 07:11:47.60	2.03	9.72	-26.4	-27.2	12.9	4.34e-05	0	42	102	1048576	13	3986
2026-01-05 07:11:48.60	1.89	9.77	-26.3	-27.2	12.9	5.03e-05	0	42	102	1048576	13	3977
2026-01-05 07:11:49.61	1.75	9.83	-26.4	-27.4	12.8	6.29e-05	0	43	102	1048576	13	4019
2026-01-05 07:11:50.62	1.60	9.88	-26.4	-27.3	12.9	5.37e-05	0	42	102	1048576	13	3986
2026-01-05 07:11:51.63	1.46	9.93	-26.3	-27.2	13.0	5.72e-05	0	43	102	1048576	13	3964
2026-01-05 07:11:52.63	1.32	9.99	-26.3	-27.1	13.0	3.77e-05	0	42	102	1048576	13	3947
2026-01-05 07:11:53.63	1.18	10.04	-26.3	-27.1	13.1	3.77e-05	0	43	102	1048576	13	3936
2026-01-05 07:11:54.64	1.04	10.09	-26.4	-27.4	12.9	6.63e-05	0	42	102	1048576	13	4015
2026-01-05 07:11:55.65	0.89	10.15	-26.5	-27.5	12.8	6.86e-05	0	43	102	1048576	13	4055
2026-01-05 07:11:56.66	0.75	10.20	-26.4	-27.3	12.9	6.29e-05	0	43	102	1048576	13	3998
2026-01-05 07:11:57.67	0.60	10.25	-26.4	-27.2	12.9	4.57e-05	0	43	102	1048576	13	3981
2026-01-05 07:11:58.67	0.46	10.31	-26.4	-27.3	13.0	4.34e-05	0	43	102	1048576	13	3996
2026-01-05 07:11:59.67	0.31	10.36	-26.5	-27.5	12.8	6.63e-05	0	42	102	1048576	13	4053
2026-01-05 07:12:00.68	0.17	10.41	-26.5	-27.4	12.9	8.46e-05	0	43	102	1048576	13	4031
2026-01-05 07:12:01.69	0.02	10.47	-26.6	-27.7	12.7	6.06e-05	0	43	102	1048576	13	4102
2026-01-05 07:12:02.70	359.87	10.52	-26.5	-27.4	12.9	6.75e-05	0	43	102	1048576	13	4035
2026-01-05 07:12:03.71	359.72	10.57	-26.2	-26.9	13.2	3.89e-05	0	43	102	1048576	13	3901
2026-01-05 07:12:04.71	359.58	10.62	-26.2	-26.8	13.3	2.40e-05	0	43	102	1048576	13	3853
2026-01-05 07:12:05.71	359.43	10.68	-26.2	-26.8	13.3	1.94e-05	0	43	102	1048576	13	3855
2026-01-05 07:12:06.72	359.28	10.73	-26.2	-26.9	13.2	2.05e-05	0	43	102	1048576	13	3891
2026-01-05 07:12:07.73	359.13	10.78	-26.3	-27.1	13.2	3.31e-05	0	43	102	1048576	13	3937
2026-01-05 07:12:08.73	358.98	10.83	-26.2	-26.9	13.2	2.63e-05	0	43	102	1048576	13	3902
2026-01-05 07:12:09.74	358.83	10.88	-26.1	-26.7	13.4	2.86e-05	0	42	102	1048576	13	3831
2026-01-05 07:12:10.75	358.67	10.94	-26.1	-26.6	13.4	1.94e-05	0	43	102	1048576	13	3823
2026-01-05 07:12:11.76	358.52	10.99	-26.1	-26.7	13.4	2.05e-05	0	43	102	1048576	13	3833
2026-01-05 07:12:12.76	358.37	11.04	-26.1	-26.7	13.4	1.48e-05	0	43	102	1048576	13	3840
2026-01-05 07:12:13.77	358.21	11.09	-26.1	-26.7	13.4	1.71e-05	0	43	102	1048576	13	3838
2026-01-05 07:12:14.78	358.06	11.14	-26.1	-26.7	13.3	1.94e-05	0	43	102	1048576	13	3837
2026-01-05 07:12:15.79	357.91	11.20	-26.2	-26.9	13.2	1.71e-05	0	43	102	1048576	13	3892
2026-01-05 07:12:16.79	357.75	11.25	-26.1	-26.7	13.4	1.02e-05	0	43	102	1048576	13	3853
2026-01-05 07:12:17.79	357.60	11.30	-26.1	-26.6	13.4	1.37e-05	0	43	102	1048576	13	3828
2026-01-05 07:12:18.80	357.44	11.35	-26.2	-26.8	13.4	1.37e-05	0	43	102	1048576	13	3857
2026-01-05 07:12:19.81	357.28	11.40	-26.0	-26.4	13.5	1.25e-05	0	43	102	1048576	13	3781
2026-01-05 07:12:20.82	357.12	11.45	-25.9	-26.6	13.7	5.70e-06	0	43	102	1048576	12	3920
2026-01-05 07:12:21.83	356.97	11.50	-25.9	-26.6	13.7	1.02e-05	0	43	102	1048576	12	3914
2026-01-05 07:12:22.82	356.81	11.55	-25.9	-26.6	13.8	2.20e-06	0	43	102	1048576	12	3903
2026-01-05 07:12:23.82	356.65	11.60	-26.0	-26.8	13.6	8.00e-06	0	43	102	1048576	12	3955
2026-01-05 07:12:24.83	356.49	11.65	-25.8	-26.5	13.8	5.70e-06	0	43	102	1048576	12	3882
2026-01-05 07:12:25.84	356.33	11.71	-25.8	-26.4	13.9	1.10e-06	0	43	102	1048576	12	3855
2026-01-05 07:12:26.85	356.17	11.76	-25.8	-26.4	13.9	5.70e-06	0	43	102	1048576	12	3850
2026-01-05 07:12:27.85	356.01	11.81	-25.7	-26.2	13.9	8.00e-06	0	43	102	1048576	12	3812
2026-01-05 07:12:28.86	355.85	11.86	-25.8	-26.5	13.8	6.80e-06	0	43	102	1048576	12	3876
2026-01-05 07:12:29.87	355.69	11.91	-25.8	-26.4	13.9	1.10e-06	0	43	102	1048576	12	3846
2026-01-05 07:12:30.87	355.52	11.96	-25.8	-26.4	13.9	4.50e-06	0	43	102	1048576	12	3868
2026-01-05 07:12:31.88	355.36	12.01	-25.8	-26.4	13.8	5.70e-06	0	43	102	1048576	12	3871
2026-01-05 07:12:32.89	355.19	12.06	-25.8	-26.3	13.9	5.70e-06	0	43	102	1048576	12	3845
2026-01-05 07:12:33.90	355.03	12.11	-25.8	-26.4	13.9	5.70e-06	0	43	102	1048576	12	3866
2026-01-05 07:12:34.91	354.86	12.16	-25.7	-26.2	14.0	3.40e-06	0	43	102	1048576	12	3824
2026-01-05 07:12:35.92	354.70	12.21	-25.8	-26.4	13.9	1.10e-06	0	43	102	1048576	12	3850
2026-01-05 07:12:36.92	354.53	12.25	-25.8	-26.3	13.9	2.20e-06	0	43	102	1048576	12	3847
2026-01-05 07:12:37.93	354.36	12.30	-25.6	-26.1	14.1	0.00e+00	0	43	102	1048576	12	3779
2026-01-05 07:12:38.93	354.20	12.35	-25.5	-25.7	14.3	2.20e-06	0	43	102	1048576	12	3692
2026-01-05 07:12:39.94	354.03	12.40	-25.5	-25.7	14.3	2.20e-06	0	43	102	1048576	12	3697
2026-01-05 07:12:40.95	353.86	12.45	-25.4	-25.5	14.4	1.10e-06	0	43	102	1048576	12	3652
2026-01-05 07:12:41.95	353.69	12.50	-25.5	-26.2	14.3	2.20e-06	0	43	102	1048576	11	3920
2026-01-05 07:12:42.97	353.52	12.55	-25.5	-26.2	14.4	0.00e+00	0	43	102	1048576	11	3904
2026-01-05 07:12:43.97	353.35	12.59	-25.5	-26.3	14.3	3.40e-06	0	43	102	1048576	11	3937
2026-01-05 07:12:44.98	353.18	12.64	-25.7	-26.7	14.1	2.20e-06	0	43	102	1048576	11	4025
2026-01-05 07:12:45.99	353.01	12.69	-25.6	-26.4	14.2	2.20e-06	0	43	102	1048576	11	3961
2026-01-05 07:12:46.99	352.84	12.74	-25.5	-26.3	14.3	1.10e-06	0	43	102	1048576	11	3936
2026-01-05 07:12:48.00	352.66	12.79	-25.6	-26.4	14.2	2.20e-06	0	43	102	1048576	11	3965
2026-01-05 07:12:49.00	352.49	12.83	-25.6	-26.4	14.2	1.10e-06	0	43	102	1048576	11	3971
2026-01-05 07:12:50.01	352.32	12.88	-25.7	-26.6	14.2	1.10e-06	0	43	102	1048576	11	4008
2026-01-05 07:12:51.02	352.14	12.93	-25.6	-26.4	14.3	2.20e-06	0	43	102	1048576	11	3953
2026-01-05 07:12:52.03	351.97	12.97	-25.7	-26.6	14.2	1.10e-06	0	43	102	1048576	11	4013
2026-01-05 07:12:53.03	351.79	13.02	-25.6	-26.5	14.2	2.20e-06	0	43	102	1048576	11	3990
2026-01-05 07:12:54.04	351.62	13.07	-25.7	-26.6	14.2	1.10e-06	0	43	102	1048576	11	4002
2026-01-05 07:12:55.05	351.44	13.11	-25.6	-26.5	14.3	0.00e+00	0	43	102	1048576	11	3980
2026-01-05 07:12:56.05	351.26	13.16	-25.6	-26.5	14.2	1.10e-06	0	43	102	1048576	11	3991
2026-01-05 07:12:57.06	351.09	13.21	-25.8	-26.8	14.0	5.70e-06	0	43	102	1048576	11	4073
2026-01-05 07:12:58.07	350.91	13.25	-25.6	-26.5	14.2	1.10e-06	0	43	102	1048576	11	3993
2026-01-05 07:12:59.07	350.73	13.30	-25.6	-26.4	14.3	1.10e-06	0	43	102	1048576	11	3961
2026-01-05 07:13:00.08	350.55	13.34	-25.6	-26.4	14.3	0.00e+00	0	43	102	1048576	11	3950
2026-01-05 07:13:01.09	350.37	13.39	-25.5	-26.2	14.4	0.00e+00	0	43	102	1048576	11	3908
2026-01-05 07:13:02.09	350.19	13.43	-25.5	-26.2	14.4	1.10e-06	0	43	102	1048576	11	3918
2026-01-05 07:13:03.10	350.01	13.48	-25.5	-26.1	14.5	0.00e+00	0	43	102	1048576	11	3890
2026-01-05 07:13:04.10	349.83	13.52	-25.4	-26.1	14.5	1.10e-06	0	43	102	1048576	11	3887
2026-01-05 07:13:05.11	349.64	13.57	-25.6	-26.3	14.4	0.00e+00	0	43	102	1048576	11	3938
2026-01-05 07:13:06.12	349.46	13.61	-25.4	-26.0	14.6	0.00e+00	0	43	102	1048576	11	3845
2026-01-05 07:13:07.13	349.28	13.65	-25.3	-25.7	14.7	0.00e+00	0	43	102	1048576	11	3783
2026-01-05 07:13:08.14	349.09	13.70	-25.2	-25.6	14.8	0.00e+00	0	43	102	1048576	11	3765
2026-01-05 07:13:09.15	348.91	13.74	-25.3	-25.7	14.7	0.00e+00	0	43	102	1048576	11	3777
2026-01-05 07:13:10.16	348.72	13.78	-25.2	-25.5	14.8	0.00e+00	0	43	102	1048576	11	3722
2026-01-05 07:13:11.16	348.54	13.83	-25.2	-25.6	14.8	2.20e-06	0	43	102	1048576	11	3765
2026-01-05 07:13:12.17	348.35	13.87	-25.3	-25.7	14.7	0.00e+00	0	43	102	1048576	11	3786
2026-01-05 07:13:13.18	348.16	13.91	-25.3	-25.7	14.7	1.10e-06	0	43	102	1048576	11	3776
2026-01-05 07:13:14.18	347.98	13.96	-25.3	-25.7	14.7	0.00e+00	0	43	102	1048576	11	3772
2026-01-05 07:13:15.18	347.79	14.00	-25.3	-25.7	14.7	0.00e+00	0	43	102	1048576	11	3790
2026-01-05 07:13:16.19	347.60	14.04	-25.3	-25.8	14.7	0.00e+00	0	43	102	1048576	11	3815
2026-01-05 07:13:17.19	347.42	14.08	-25.4	-25.9	14.6	0.00e+00	0	43	102	1048576	11	3833
2026-01-05 07:13:18.20	347.23	14.12	-25.4	-25.9	14.6	0.00e+00	0	43	102	1048576	11	3834
2026-01-05 07:13:19.21	347.03	14.16	-25.3	-25.8	14.7	1.10e-06	0	43	102	1048576	11	3804
2026-01-05 07:13:20.21	346.85	14.20	-25.4	-26.0	14.6	0.00e+00	0	43	102	1048576	11	3844
2026-01-05 07:13:21.22	346.65	14.25	-25.3	-25.7	14.7	0.00e+00	0	43	102	1048576	11	3792
2026-01-05 07:13:22.23	346.46	14.29	-25.4	-25.9	14.7	0.00e+00	0	43	102	1048576	11	3838
2026-01-05 07:13:23.24	346.27	14.33	-25.5	-26.2	14.5	0.00e+00	0	43	102	1048576	11	3905
2026-01-05 07:13:24.24	346.08	14.37	-25.5	-26.2	14.5	1.10e-06	0	43	102	1048576	11	3915
2026-01-05 07:13:25.25	345.88	14.41	-25.5	-26.2	14.5	1.10e-06	0	43	102	1048576	11	3912
2026-01-05 07:13:26.25	345.69	14.44	-25.6	-26.3	14.4	1.10e-06	0	43	102	1048576	11	3930
2026-01-05 07:13:27.26	345.50	14.48	-25.6	-26.5	14.3	2.20e-06	0	44	102	1048576	11	3988
2026-01-05 07:13:28.27	345.30	14.52	-25.6	-26.4	14.4	0.00e+00	0	44	102	1048576	11	3949
2026-01-05 07:13:29.28	345.11	14.56	-25.5	-26.3	14.4	1.10e-06	0	44	102	1048576	11	3924
2026-01-05 07:13:30.29	344.91	14.60	-25.6	-26.5	14.3	0.00e+00	0	43	102	1048576	11	3983
2026-01-05 07:13:31.30	344.71	14.64	-25.7	-26.7	14.2	3.40e-06	0	43	102	1048576	11	4023
2026-01-05 07:13:32.30	344.52	14.68	-25.5	-26.3	14.5	0.00e+00	0	43	102	1048576	11	3921
2026-01-05 07:13:33.31	344.32	14.71	-25.4	-25.9	14.7	0.00e+00	0	43	102	1048576	11	3826
2026-01-05 07:13:34.32	344.12	14.75	-25.2	-25.6	14.8	1.10e-06	0	43	102	1048576	11	3752
2026-01-05 07:13:35.32	343.93	14.79	-25.2	-25.5	14.9	0.00e+00	0	43	102	1048576	11	3741
2026-01-05 07:13:36.32	343.73	14.82	-25.1	-25.4	15.0	0.00e+00	0	44	102	1048576	11	3699
2026-01-05 07:13:37.33	343.53	14.86	-25.1	-25.3	15.0	0.00e+00	0	43	102	1048576	11	3685
2026-01-05 07:13:38.34	343.33	14.90	-25.1	-25.3	15.0	0.00e+00	0	43	102	1048576	11	3690
2026-01-05 07:13:39.34	343.13	14.93	-25.0	-25.1	15.1	0.00e+00	0	43	102	1048576	11	3639
2026-01-05 07:13:40.35	342.93	14.97	-24.9	-24.9	15.2	0.00e+00	0	43	102	1048576	11	3603
2026-01-05 07:13:41.36	342.73	15.00	-25.0	-25.2	15.1	0.00e+00	0	43	102	1048576	11	3656
2026-01-05 07:13:42.36	342.53	15.04	-25.0	-25.1	15.1	0.00e+00	0	43	102	1048576	11	3649
2026-01-05 07:13:43.37	342.32	15.07	-25.1	-25.2	15.0	0.00e+00	0	44	102	1048576	11	3671
2026-01-05 07:13:44.38	342.12	15.11	-25.1	-25.3	15.0	0.00e+00	0	43	102	1048576	11	3690
2026-01-05 07:13:45.39	341.92	15.14	-25.1	-25.3	15.0	0.00e+00	0	43	102	1048576	11	3684
2026-01-05 07:13:46.39	341.71	15.17	-25.1	-25.3	15.0	0.00e+00	0	44	102	1048576	11	3693
2026-01-05 07:13:47.40	341.51	15.21	-25.2	-25.4	14.9	0.00e+00	0	43	102	1048576	11	3715
2026-01-05 07:13:48.41	341.30	15.24	-25.1	-25.4	15.0	0.00e+00	0	44	102	1048576	11	3705
2026-01-05 07:13:49.42	341.10	15.27	-25.1	-25.4	14.9	0.00e+00	0	43	102	1048576	11	3703
2026-01-05 07:13:50.42	340.89	15.31	-25.0	-25.2	15.1	0.00e+00	0	44	102	1048576	11	3660
2026-01-05 07:13:51.43	340.69	15.34	-25.0	-25.2	15.1	0.00e+00	0	43	102	1048576	11	3663
2026-01-05 07:13:52.44	340.48	15.37	-25.1	-25.4	15.0	1.10e-06	0	44	102	1048576	11	3709
2026-01-05 07:13:53.44	340.28	15.40	-25.2	-25.4	14.9	0.00e+00	0	43	102	1048576	11	3718
2026-01-05 07:13:54.45	340.07	15.43	-25.0	-25.1	15.1	0.00e+00	0	44	102	1048576	11	3644
2026-01-05 07:13:55.46	339.86	15.46	-25.0	-25.2	15.1	0.00e+00	0	43	102	1048576	11	3654
2026-01-05 07:13:56.47	339.65	15.49	-25.0	-25.2	15.1	0.00e+00	0	44	102	1048576	11	3658
2026-01-05 07:13:57.47	339.44	15.52	-25.1	-25.3	15.0	0.00e+00	0	44	102	1048576	11	3685
2026-01-05 07:13:58.47	339.24	15.55	-25.1	-25.4	15.0	0.00e+00	0	43	102	1048576	11	3705
2026-01-05 07:13:59.47	339.03	15.58	-25.0	-25.2	15.1	0.00e+00	0	43	102	1048576	11	3652
2026-01-05 07:14:00.48	338.82	15.61	-25.1	-25.3	15.0	0.00e+00	0	43	102	1048576	11	3678
2026-01-05 07:14:01.49	338.61	15.64	-25.0	-25.1	15.1	0.00e+00	0	44	102	1048576	11	3642
2026-01-05 07:14:02.49	338.40	15.67	-25.0	-25.0	15.2	0.00e+00	0	44	102	1048576	11	3625
2026-01-05 07:14:03.50	338.19	15.69	-25.1	-25.2	15.1	0.00e+00	0	43	102	1048576	11	3669
2026-01-05 07:14:04.51	337.97	15.72	-25.0	-25.1	15.1	0.00e+00	0	43	102	1048576	11	3642
2026-01-05 07:14:05.52	337.76	15.75	-24.9	-25.0	15.2	0.00e+00	0	43	102	1048576	11	3608
2026-01-05 07:14:06.53	337.55	15.78	-24.9	-25.3	15.3	0.00e+00	0	44	102	1048576	10	3787
2026-01-05 07:14:07.54	337.34	15.80	-24.9	-25.3	15.3	0.00e+00	0	43	102	1048576	10	3796
2026-01-05 07:14:08.54	337.12	15.83	-24.9	-25.3	15.3	0.00e+00	0	43	102	1048576	10	3792
2026-01-05 07:14:09.55	336.91	15.85	-24.8	-25.1	15.4	0.00e+00	0	44	102	1048576	10	3731
2026-01-05 07:14:10.56	336.70	15.88	-24.7	-24.9	15.5	0.00e+00	0	43	102	1048576	10	3680
2026-01-05 07:14:11.56	336.48	15.90	-24.7	-24.8	15.6	0.00e+00	0	44	102	1048576	10	3681
2026-01-05 07:14:12.57	336.27	15.93	-24.6	-24.8	15.6	0.00e+00	0	44	102	1048576	10	3667
2026-01-05 07:14:13.57	336.06	15.95	-24.6	-24.7	15.7	0.00e+00	0	44	102	1048576	10	3635
2026-01-05 07:14:14.58	335.84	15.98	-24.6	-24.7	15.7	0.00e+00	0	44	102	1048576	10	3642
2026-01-05 07:14:15.58	335.63	16.00	-24.6	-24.7	15.6	0.00e+00	0	44	102	1048576	10	3642
2026-01-05 07:14:16.59	335.41	16.02	-24.6	-24.8	15.6	0.00e+00	0	43	102	1048576	10	3672
2026-01-05 07:14:17.60	335.19	16.05	-24.6	-24.6	15.7	0.00e+00	0	44	102	1048576	10	3632
2026-01-05 07:14:18.61	334.98	16.07	-24.6	-24.7	15.7	0.00e+00	0	44	102	1048576	10	3645
2026-01-05 07:14:19.62	334.76	16.09	-24.6	-24.8	15.6	0.00e+00	0	44	102	1048576	10	3664
2026-01-05 07:14:20.63	334.54	16.11	-24.7	-25.0	15.5	0.00e+00	0	44	102	1048576	10	3716
2026-01-05 07:14:21.64	334.32	16.13	-24.7	-24.9	15.5	0.00e+00	0	43	102	1048576	10	3702
2026-01-05 07:14:22.65	334.10	16.15	-24.7	-24.9	15.6	0.00e+00	0	44	102	1048576	10	3690
2026-01-05 07:14:23.65	333.89	16.17	-24.6	-24.8	15.6	0.00e+00	0	43	102	1048576	10	3672
2026-01-05 07:14:24.66	333.67	16.19	-24.7	-24.9	15.5	0.00e+00	0	44	102	1048576	10	3691
2026-01-05 07:14:25.67	333.45	16.21	-24.6	-24.7	15.6	0.00e+00	0	43	102	1048576	10	3653
2026-01-05 07:14:26.68	333.23	16.23	-24.6	-24.7	15.7	0.00e+00	0	43	102	1048576	10	3647
2026-01-05 07:14:27.69	333.01	16.25	-24.7	-25.0	15.5	0.00e+00	0	44	102	1048576	10	3701
2026-01-05 07:14:28.70	332.79	16.27	-24.5	-24.6	15.7	0.00e+00	0	43	102	1048576	10	3619
2026-01-05 07:14:29.71	332.57	16.29	-24.3	-24.5	16.0	0.00e+00	0	43	102	1048576	9	3695
2026-01-05 07:14:30.71	332.35	16.30	-24.3	-24.5	16.0	0.00e+00	0	43	102	1048576	9	3690
2026-01-05 07:14:31.72	332.13	16.32	-24.2	-24.5	16.1	0.00e+00	0	43	102	1048576	9	3688
2026-01-05 07:14:32.73	331.91	16.34	-24.1	-24.2	16.2	0.00e+00	0	43	102	1048576	9	3635
2026-01-05 07:14:33.74	331.69	16.35	-24.2	-24.3	16.1	0.00e+00	0	43	102	1048576	9	3654
2026-01-05 07:14:34.74	331.47	16.37	-24.1	-24.2	16.2	0.00e+00	0	43	102	1048576	9	3640
2026-01-05 07:14:35.75	331.25	16.38	-24.3	-24.5	16.0	0.00e+00	0	43	102	1048576	9	3704
2026-01-05 07:14:36.76	331.02	16.40	-24.3	-24.6	16.0	0.00e+00	0	43	102	1048576	9	3729
2026-01-05 07:14:37.76	330.80	16.41	-24.5	-24.9	15.8	0.00e+00	0	44	102	1048576	9	3805
2026-01-05 07:14:38.77	330.58	16.43	-24.5	-25.1	15.7	0.00e+00	0	43	102	1048576	9	3837
2026-01-05 07:14:39.78	330.36	16.44	-24.5	-25.1	15.7	0.00e+00	0	44	102	1048576	9	3841
2026-01-05 07:14:40.79	330.14	16.45	-24.5	-25.1	15.7	0.00e+00	0	43	102	1048576	9	3836
2026-01-05 07:14:41.79	329.91	16.47	-24.5	-25.0	15.8	0.00e+00	0	43	102	1048576	9	3809
2026-01-05 07:14:42.80	329.69	16.48	-24.5	-25.1	15.7	0.00e+00	0	44	102	1048576	9	3839
2026-01-05 07:14:43.81	329.47	16.49	-24.7	-25.4	15.6	0.00e+00	0	44	102	1048576	9	3908
2026-01-05 07:14:44.81	329.25	16.50	-24.4	-24.9	15.8	0.00e+00	0	44	102	1048576	9	3782
2026-01-05 07:14:45.82	329.02	16.51	-24.3	-24.5	16.0	0.00e+00	0	43	102	1048576	9	3700
2026-01-05 07:14:46.83	328.80	16.52	-24.2	-24.3	16.2	0.00e+00	0	43	102	1048576	9	3644
2026-01-05 07:14:47.83	328.58	16.53	-24.2	-24.4	16.1	0.00e+00	0	44	102	1048576	9	3685
2026-01-05 07:14:48.83	328.35	16.54	-24.2	-24.3	16.1	0.00e+00	0	44	102	1048576	9	3644
2026-01-05 07:14:49.83	328.13	16.55	-24.2	-24.3	16.1	0.00e+00	0	44	102	1048576	9	3647
2026-01-05 07:14:50.84	327.91	16.56	-24.2	-24.3	16.2	0.00e+00	0	44	102	1048576	9	3651
2026-01-05 07:14:51.85	327.68	16.57	-24.3	-24.5	16.0	0.00e+00	0	44	102	1048576	9	3707
2026-01-05 07:14:52.86	327.46	16.58	-24.2	-24.4	16.1	0.00e+00	0	44	102	1048576	9	3684
2026-01-05 07:14:53.87	327.23	16.58	-24.2	-24.3	16.1	0.00e+00	0	44	102	1048576	9	3657
2026-01-05 07:14:54.87	327.01	16.59	-24.2	-24.3	16.1	0.00e+00	0	44	102	1048576	9	3660
2026-01-05 07:14:55.88	326.78	16.60	-24.2	-24.4	16.1	0.00e+00	0	44	102	1048576	9	3675
2026-01-05 07:14:56.89	326.56	16.60	-24.1	-24.1	16.2	0.00e+00	0	44	102	1048576	9	3614
2026-01-05 07:14:57.90	326.33	16.61	-24.1	-24.1	16.2	0.00e+00	0	44	102	1048576	9	3602
2026-01-05 07:14:58.90	326.11	16.61	-24.1	-24.2	16.2	0.00e+00	0	44	102	1048576	9	3618
2026-01-05 07:14:59.90	325.89	16.62	-24.2	-24.2	16.1	0.00e+00	0	44	102	1048576	9	3638
2026-01-05 07:15:00.92	325.66	16.62	-24.1	-24.1	16.2	0.00e+00	0	44	102	1048576	9	3610
2026-01-05 07:15:01.92	325.44	16.63	-24.2	-24.4	16.1	0.00e+00	0	44	102	1048576	9	3674
2026-01-05 07:15:02.93	325.21	16.63	-24.2	-24.4	16.0	0.00e+00	0	44	102	1048576	9	3681
2026-01-05 07:15:03.93	324.99	16.63	-24.3	-24.5	16.0	0.00e+00	0	44	102	1048576	9	3700
2026-01-05 07:15:04.94	324.76	16.63	-24.3	-24.5	16.0	0.00e+00	0	44	102	1048576	9	3705
2026-01-05 07:15:05.96	324.53	16.64	-24.4	-24.8	15.9	0.00e+00	0	44	102	1048576	9	3760
2026-01-05 07:15:06.97	324.31	16.64	-24.4	-24.7	15.9	0.00e+00	0	44	102	1048576	9	3750
2026-01-05 07:15:07.98	324.08	16.64	-24.5	-25.0	15.8	0.00e+00	0	44	102	1048576	9	3808
2026-01-05 07:15:08.98	323.86	16.64	-24.4	-24.9	15.8	0.00e+00	0	44	102	1048576	9	3791
2026-01-05 07:15:09.99	323.63	16.64	-24.4	-24.8	15.9	0.00e+00	0	44	102	1048576	9	3776
2026-01-05 07:15:11.00	323.41	16.64	-24.7	-25.4	15.6	0.00e+00	0	44	102	1048576	9	3904
2026-01-05 07:15:12.01	323.18	16.64	-24.6	-25.1	15.7	0.00e+00	0	44	102	1048576	9	3846
2026-01-05 07:15:13.01	322.96	16.64	-24.8	-25.6	15.5	0.00e+00	0	44	102	1048576	9	3955
2026-01-05 07:15:14.02	322.73	16.64	-24.7	-25.4	15.6	0.00e+00	0	44	102	1048576	9	3904
2026-01-05 07:15:15.02	322.51	16.63	-24.6	-25.2	15.6	0.00e+00	0	44	102	1048576	9	3873
2026-01-05 07:15:16.02	322.28	16.63	-24.7	-25.4	15.5	0.00e+00	0	44	102	1048576	9	3914
2026-01-05 07:15:17.03	322.06	16.63	-24.7	-25.5	15.5	0.00e+00	0	44	102	1048576	9	3933
2026-01-05 07:15:18.04	321.83	16.63	-24.9	-25.9	15.3	0.00e+00	0	44	102	1048576	9	4035
2026-01-05 07:15:19.04	321.61	16.62	-24.7	-25.4	15.6	0.00e+00	0	44	102	1048576	9	3900
2026-01-05 07:15:20.05	321.38	16.62	-24.5	-25.1	15.7	0.00e+00	0	44	102	1048576	9	3827
2026-01-05 07:15:21.05	321.16	16.61	-24.4	-24.9	15.9	0.00e+00	0	44	102	1048576	9	3784
2026-01-05 07:15:22.06	320.93	16.61	-24.5	-25.0	15.8	0.00e+00	0	44	102	1048576	9	3802
2026-01-05 07:15:23.06	320.71	16.60	-24.2	-24.4	16.1	0.00e+00	0	44	102	1048576	9	3665
2026-01-05 07:15:24.07	320.48	16.60	-24.4	-24.8	15.9	0.00e+00	0	44	102	1048576	9	3768
2026-01-05 07:15:25.08	320.26	16.59	-24.3	-24.5	16.0	0.00e+00	0	44	102	1048576	9	3702
2026-01-05 07:15:26.09	320.03	16.58	-24.2	-24.4	16.1	0.00e+00	0	44	102	1048576	9	3686
2026-01-05 07:15:27.10	319.81	16.57	-24.3	-24.5	16.0	0.00e+00	0	44	102	1048576	9	3707
2026-01-05 07:15:28.11	319.58	16.57	-24.3	-24.5	16.0	0.00e+00	0	44	102	1048576	9	3696
2026-01-05 07:15:29.11	319.36	16.56	-24.3	-24.5	16.0	0.00e+00	0	44	102	1048576	9	3701
2026-01-05 07:15:30.11	319.14	16.55	-24.4	-24.7	15.9	0.00e+00	0	44	102	1048576	9	3744
2026-01-05 07:15:31.12	318.91	16.54	-24.5	-24.9	15.8	0.00e+00	0	44	102	1048576	9	3802
2026-01-05 07:15:32.13	318.69	16.53	-24.3	-24.6	16.0	0.00e+00	0	44	102	1048576	9	3725
2026-01-05 07:15:33.14	318.46	16.52	-24.2	-24.4	16.1	0.00e+00	0	44	102	1048576	9	3684
2026-01-05 07:15:34.15	318.24	16.51	-24.2	-24.3	16.1	0.00e+00	0	44	102	1048576	9	3653
2026-01-05 07:15:35.15	318.02	16.50	-24.3	-24.5	16.0	0.00e+00	0	44	102	1048576	9	3695
2026-01-05 07:15:36.16	317.79	16.49	-24.1	-24.1	16.3	0.00e+00	0	44	102	1048576	9	3609
2026-01-05 07:15:37.17	317.57	16.48	-24.2	-24.3	16.2	0.00e+00	0	44	102	1048576	9	3645
2026-01-05 07:15:38.18	317.35	16.46	-24.1	-24.2	16.2	0.00e+00	0	44	102	1048576	9	3623
2026-01-05 07:15:39.19	317.12	16.45	-24.1	-24.2	16.2	0.00e+00	0	44	102	1048576	9	3621
2026-01-05 07:15:40.19	316.90	16.44	-24.1	-24.2	16.2	0.00e+00	0	44	102	1048576	9	3638
2026-01-05 07:15:41.20	316.68	16.42	-24.2	-24.3	16.1	0.00e+00	0	44	102	1048576	9	3651
2026-01-05 07:15:42.20	316.46	16.41	-24.3	-24.6	16.0	0.00e+00	0	44	102	1048576	9	3714
2026-01-05 07:15:43.21	316.24	16.40	-24.2	-24.5	16.1	1.10e-06	0	44	102	1048576	9	3687
2026-01-05 07:15:44.22	316.01	16.38	-24.3	-24.5	16.0	0.00e+00	0	44	102	1048576	9	3702
2026-01-05 07:15:45.22	315.79	16.37	-24.4	-24.7	15.9	0.00e+00	0	44	102	1048576	9	3743
2026-01-05 07:15:46.23	315.57	16.35	-24.3	-24.6	15.9	1.10e-06	0	44	102	1048576	9	3731
2026-01-05 07:15:47.24	315.35	16.33	-24.4	-24.9	15.8	0.00e+00	0	44	102	1048576	9	3785
2026-01-05 07:15:48.25	315.13	16.32	-24.5	-25.0	15.7	0.00e+00	0	44	102	1048576	9	3820
2026-01-05 07:15:49.26	314.91	16.30	-24.4	-24.8	15.9	0.00e+00	0	43	102	1048576	9	3765
2026-01-05 07:15:50.27	314.69	16.28	-24.4	-24.8	15.8	0.00e+00	0	44	102	1048576	9	3769
2026-01-05 07:15:51.27	314.47	16.26	-24.5	-25.0	15.8	0.00e+00	0	44	102	1048576	9	3827
2026-01-05 07:15:52.28	314.25	16.25	-24.6	-25.3	15.6	0.00e+00	0	44	102	1048576	9	3890
2026-01-05 07:15:53.29	314.03	16.23	-24.5	-24.9	15.8	0.00e+00	0	44	102	1048576	9	3798
2026-01-05 07:15:54.29	313.81	16.21	-24.3	-24.7	15.9	0.00e+00	0	44	102	1048576	9	3738
2026-01-05 07:15:55.30	313.59	16.19	-24.4	-24.7	15.9	0.00e+00	0	44	102	1048576	9	3744
2026-01-05 07:15:56.31	313.37	16.17	-24.4	-24.7	15.9	0.00e+00	0	44	102	1048576	9	3752
2026-01-05 07:15:57.31	313.16	16.15	-24.5	-25.1	15.7	0.00e+00	0	43	102	1048576	9	3831
2026-01-05 07:15:58.32	312.94	16.13	-24.4	-24.8	15.8	0.00e+00	0	44	102	1048576	9	3777
2026-01-05 07:15:59.33	312.72	16.11	-24.4	-24.9	15.8	0.00e+00	0	44	102	1048576	9	3783
2026-01-05 07:16:00.33	312.50	16.09	-24.5	-24.9	15.8	0.00e+00	0	44	102	1048576	9	3802
2026-01-05 07:16:01.34	312.29	16.06	-24.5	-24.9	15.8	0.00e+00	0	44	102	1048576	9	3798
2026-01-05 07:16:02.35	312.07	16.04	-24.5	-25.0	15.7	0.00e+00	0	44	102	1048576	9	3815
2026-01-05 07:16:03.35	311.85	16.02	-24.6	-25.2	15.6	0.00e+00	0	44	102	1048576	9	3862
2026-01-05 07:16:04.36	311.64	16.00	-24.6	-25.2	15.6	0.00e+00	0	44	102	1048576	9	3868
2026-01-05 07:16:05.37	311.42	15.97	-24.6	-25.2	15.6	0.00e+00	0	44	102	1048576	9	3864
2026-01-05 07:16:06.38	311.20	15.95	-24.6	-25.2	15.6	0.00e+00	0	44	102	1048576	9	3864
2026-01-05 07:16:07.38	310.99	15.92	-24.7	-25.4	15.5	0.00e+00	0	44	102	1048576	9	3908
2026-01-05 07:16:08.39	310.77	15.90	-24.7	-25.4	15.4	0.00e+00	0	44	102	1048576	9	3923
2026-01-05 07:16:09.39	310.56	15.87	-24.7	-25.4	15.5	0.00e+00	0	44	102	1048576	9	3908
2026-01-05 07:16:10.40	310.35	15.85	-24.8	-25.6	15.3	0.00e+00	0	44	102	1048576	9	3968
2026-01-05 07:16:11.41	310.13	15.82	-24.6	-25.2	15.6	0.00e+00	0	44	102	1048576	9	3860
2026-01-05 07:16:12.41	309.92	15.80	-24.5	-25.0	15.7	0.00e+00	0	44	102	1048576	9	3827
2026-01-05 07:16:13.42	309.71	15.77	-24.5	-24.9	15.7	0.00e+00	0	44	102	1048576	9	3798
2026-01-05 07:16:14.43	309.49	15.74	-24.6	-25.2	15.6	0.00e+00	0	44	102	1048576	9	3863
2026-01-05 07:16:15.43	309.28	15.72	-24.6	-25.1	15.6	0.00e+00	0	44	102	1048576	9	3847
2026-01-05 07:16:16.44	309.07	15.69	-24.6	-25.2	15.6	0.00e+00	0	44	102	1048576	9	3875
2026-01-05 07:16:17.44	308.86	15.66	-24.5	-25.1	15.6	0.00e+00	0	44	102	1048576	9	3839
2026-01-05 07:16:18.44	308.65	15.63	-24.7	-25.5	15.4	0.00e+00	0	44	102	1048576	9	3946
2026-01-05 07:16:19.45	308.44	15.60	-24.7	-25.5	15.4	0.00e+00	0	44	102	1048576	9	3931
2026-01-05 07:16:20.45	308.23	15.58	-24.5	-25.1	15.6	0.00e+00	0	44	102	1048576	9	3828
2026-01-05 07:16:21.46	308.02	15.55	-24.4	-24.8	15.8	0.00e+00	0	44	102	1048576	9	3775
2026-01-05 07:16:22.47	307.81	15.52	-24.4	-24.8	15.8	0.00e+00	0	43	102	1048576	9	3756
2026-01-05 07:16:23.48	307.60	15.49	-24.4	-24.8	15.8	0.00e+00	0	44	102	1048576	9	3760
2026-01-05 07:16:24.49	307.39	15.46	-24.4	-24.8	15.8	0.00e+00	0	44	102	1048576	9	3773
2026-01-05 07:16:25.49	307.19	15.42	-24.4	-24.9	15.7	0.00e+00	0	44	102	1048576	9	3792
2026-01-05 07:16:26.50	306.98	15.39	-24.5	-25.1	15.6	0.00e+00	0	44	102	1048576	9	3844
2026-01-05 07:16:27.51	306.77	15.36	-24.6	-25.3	15.5	0.00e+00	0	44	102	1048576	9	3880
2026-01-05 07:16:28.52	306.56	15.33	-24.7	-25.4	15.5	0.00e+00	0	44	102	1048576	9	3903
2026-01-05 07:16:29.53	306.36	15.30	-24.8	-25.6	15.3	0.00e+00	0	44	102	1048576	9	3972
2026-01-05 07:16:30.54	306.15	15.27	-24.8	-25.7	15.3	0.00e+00	0	44	102	1048576	9	3985
2026-01-05 07:16:31.55	305.94	15.23	-24.8	-25.8	15.2	0.00e+00	0	44	102	1048576	9	4010
2026-01-05 07:16:32.56	305.74	15.20	-24.7	-25.6	15.4	0.00e+00	0	44	102	1048576	9	3957
2026-01-05 07:16:33.57	305.53	15.17	-24.8	-25.6	15.3	0.00e+00	0	44	102	1048576	9	3962
2026-01-05 07:16:34.58	305.33	15.13	-24.7	-25.4	15.4	0.00e+00	0	44	102	1048576	9	3908
2026-01-05 07:16:35.58	305.13	15.10	-24.5	-25.1	15.6	0.00e+00	0	44	102	1048576	9	3839
2026-01-05 07:16:36.59	304.92	15.06	-24.5	-25.1	15.6	0.00e+00	0	44	102	1048576	9	3833
2026-01-05 07:16:37.59	304.72	15.03	-24.6	-25.2	15.5	0.00e+00	0	44	102	1048576	9	3874
2026-01-05 07:16:38.59	304.52	14.99	-24.6	-25.3	15.5	0.00e+00	0	44	102	1048576	9	3880
2026-01-05 07:16:39.60	304.32	14.96	-24.7	-25.5	15.4	0.00e+00	0	44	102	1048576	9	3929
2026-01-05 07:16:40.60	304.12	14.92	-24.7	-25.5	15.4	0.00e+00	0	43	102	1048576	9	3943
2026-01-05 07:16:41.61	303.92	14.89	-24.8	-25.8	15.2	1.10e-06	0	44	102	1048576	9	4001
2026-01-05 07:16:42.61	303.72	14.85	-24.8	-25.8	15.2	0.00e+00	0	44	102	1048576	9	4011
2026-01-05 07:16:43.62	303.52	14.82	-24.9	-25.9	15.1	0.00e+00	0	44	102	1048576	9	4028
2026-01-05 07:16:44.63	303.32	14.78	-24.8	-25.8	15.2	0.00e+00	0	44	102	1048576	9	4011
2026-01-05 07:16:45.63	303.12	14.74	-24.8	-25.7	15.3	0.00e+00	0	44	102	1048576	9	3984
2026-01-05 07:16:46.64	302.92	14.70	-24.8	-25.8	15.2	0.00e+00	0	44	102	1048576	9	4011
2026-01-05 07:16:47.64	302.73	14.67	-24.8	-25.6	15.3	0.00e+00	0	44	102	1048576	9	3968
2026-01-05 07:16:48.65	302.53	14.63	-24.6	-25.3	15.4	0.00e+00	0	44	102	1048576	9	3887
2026-01-05 07:16:49.66	302.33	14.59	-24.6	-25.3	15.5	0.00e+00	0	44	102	1048576	9	3885
2026-01-05 07:16:50.67	302.13	14.55	-24.5	-25.1	15.5	0.00e+00	0	44	102	1048576	9	3843
2026-01-05 07:16:51.68	301.94	14.51	-24.6	-25.3	15.5	0.00e+00	0	44	102	1048576	9	3884
2026-01-05 07:16:52.68	301.74	14.47	-24.6	-25.3	15.4	0.00e+00	0	44	102	1048576	9	3887
2026-01-05 07:16:53.68	301.55	14.43	-24.7	-25.4	15.3	0.00e+00	0	44	102	1048576	9	3918
2026-01-05 07:16:54.69	301.36	14.40	-24.8	-25.6	15.3	0.00e+00	0	44	102	1048576	9	3970
2026-01-05 07:16:55.70	301.16	14.36	-24.8	-25.7	15.2	0.00e+00	0	44	102	1048576	9	3993
2026-01-05 07:16:56.70	300.97	14.32	-24.8	-25.8	15.2	0.00e+00	0	44	102	1048576	9	4010
2026-01-05 07:16:57.71	300.78	14.27	-24.9	-25.9	15.1	0.00e+00	0	44	102	1048576	9	4034
2026-01-05 07:16:58.72	300.58	14.23	-24.9	-26.0	15.0	0.00e+00	0	44	102	1048576	9	4069
2026-01-05 07:16:59.72	300.39	14.19	-25.0	-26.1	15.0	0.00e+00	0	44	102	1048576	9	4081
2026-01-05 07:17:00.73	300.20	14.15	-25.0	-26.0	15.0	0.00e+00	0	44	102	1048576	9	4075
2026-01-05 07:17:01.74	300.01	14.11	-24.9	-26.0	15.0	2.20e-06	0	44	102	1048576	9	4069
2026-01-05 07:17:02.74	299.82	14.07	-24.9	-26.0	15.1	0.00e+00	0	44	102	1048576	9	4063
2026-01-05 07:17:03.75	299.63	14.03	-25.0	-26.1	15.0	0.00e+00	0	44	102	1048576	9	4080
2026-01-05 07:17:04.76	299.44	13.99	-25.0	-26.2	14.9	0.00e+00	0	44	102	1048576	9	4127
2026-01-05 07:17:05.76	299.26	13.94	-25.1	-25.9	14.8	0.00e+00	0	44	102	1048576	10	3929
2026-01-05 07:17:06.77	299.07	13.90	-25.2	-26.1	14.7	0.00e+00	0	44	102	1048576	10	3987
2026-01-05 07:17:07.78	298.88	13.86	-25.2	-26.1	14.7	1.10e-06	0	44	102	1048576	10	3990
2026-01-05 07:17:08.78	298.70	13.82	-25.2	-26.0	14.7	0.00e+00	0	44	102	1048576	10	3963
2026-01-05 07:17:09.79	298.51	13.77	-25.3	-26.3	14.5	1.10e-06	0	44	102	1048576	10	4040
2026-01-05 07:17:10.80	298.32	13.73	-25.3	-26.2	14.6	0.00e+00	0	44	102	1048576	10	4024
2026-01-05 07:17:11.81	298.14	13.68	-25.5	-26.7	14.4	0.00e+00	0	44	102	1048576	10	4133
2026-01-05 07:17:12.82	297.95	13.64	-25.4	-26.4	14.5	1.10e-06	0	44	102	1048576	10	4071
2026-01-05 07:17:13.83	297.77	13.60	-25.2	-26.0	14.7	0.00e+00	0	44	102	1048576	10	3962
2026-01-05 07:17:14.83	297.59	13.55	-25.1	-25.8	14.8	0.00e+00	0	44	102	1048576	10	3914
2026-01-05 07:17:15.83	297.40	13.51	-25.2	-26.0	14.7	0.00e+00	0	44	102	1048576	10	3961
2026-01-05 07:17:16.84	297.22	13.46	-25.3	-26.3	14.6	1.10e-06	0	44	102	1048576	10	4036
2026-01-05 07:17:17.85	297.04	13.42	-25.2	-26.0	14.7	0.00e+00	0	44	102	1048576	10	3958
2026-01-05 07:17:18.86	296.86	13.37	-25.1	-25.9	14.8	0.00e+00	0	44	102	1048576	10	3941
2026-01-05 07:17:19.87	296.68	13.33	-25.1	-25.9	14.7	0.00e+00	0	44	102	1048576	10	3947
2026-01-05 07:17:20.87	296.50	13.28	-25.2	-26.1	14.6	1.10e-06	0	44	102	1048576	10	3998
2026-01-05 07:17:21.88	296.32	13.24	-25.2	-26.0	14.7	0.00e+00	0	44	102	1048576	10	3956
2026-01-05 07:17:22.89	296.14	13.19	-25.2	-26.1	14.7	0.00e+00	0	44	102	1048576	10	3991
2026-01-05 07:17:23.89	295.96	13.14	-25.2	-26.1	14.7	0.00e+00	0	44	102	1048576	10	3986
2026-01-05 07:17:24.90	295.78	13.10	-25.4	-26.4	14.5	0.00e+00	0	44	102	1048576	10	4059
2026-01-05 07:17:25.91	295.60	13.05	-25.2	-26.1	14.7	0.00e+00	0	44	102	1048576	10	3981
2026-01-05 07:17:26.91	295.43	13.01	-25.3	-26.4	14.5	1.10e-06	0	44	102	1048576	10	4069
2026-01-05 07:17:27.91	295.25	12.96	-25.3	-26.2	14.6	1.10e-06	0	44	102	1048576	10	4008
2026-01-05 07:17:28.92	295.08	12.91	-25.1	-25.9	14.8	0.00e+00	0	44	102	1048576	10	3936
2026-01-05 07:17:29.93	294.90	12.86	-25.1	-25.8	14.8	0.00e+00	0	44	102	1048576	10	3911
2026-01-05 07:17:30.93	294.73	12.82	-25.1	-25.9	14.8	0.00e+00	0	44	102	1048576	10	3931
2026-01-05 07:17:31.94	294.56	12.77	-25.0	-25.7	14.9	0.00e+00	0	44	102	1048576	10	3884
2026-01-05 07:17:32.94	294.38	12.72	-25.0	-25.7	14.8	0.00e+00	0	44	102	1048576	10	3889
2026-01-05 07:17:33.94	294.21	12.67	-25.1	-25.9	14.7	0.00e+00	0	44	102	1048576	10	3949
2026-01-05 07:17:34.95	294.04	12.63	-25.0	-25.6	14.9	0.00e+00	0	44	102	1048576	10	3871
2026-01-05 07:17:35.96	293.87	12.58	-24.9	-25.5	14.9	0.00e+00	0	44	102	1048576	10	3838
2026-01-05 07:17:36.96	293.70	12.53	-25.0	-25.5	14.9	0.00e+00	0	44	102	1048576	10	3851
2026-01-05 07:17:37.97	293.53	12.48	-25.0	-25.6	14.9	0.00e+00	0	44	102	1048576	10	3871
2026-01-05 07:17:38.98	293.36	12.43	-25.0	-25.7	14.9	0.00e+00	0	44	102	1048576	10	3885
2026-01-05 07:17:39.99	293.19	12.38	-25.2	-26.0	14.7	0.00e+00	0	44	102	1048576	10	3966
2026-01-05 07:17:41.00	293.02	12.33	-25.1	-26.0	14.7	0.00e+00	0	44	102	1048576	10	3952
2026-01-05 07:17:42.01	292.85	12.29	-25.3	-26.3	14.5	0.00e+00	0	44	102	1048576	10	4049
2026-01-05 07:17:43.02	292.68	12.24	-25.3	-26.3	14.5	0.00e+00	0	44	102	1048576	10	4038
2026-01-05 07:17:44.02	292.51	12.19	-25.4	-26.6	14.3	0.00e+00	0	44	102	1048576	10	4123
2026-01-05 07:17:45.03	292.35	12.14	-25.4	-26.5	14.3	0.00e+00	0	44	102	1048576	10	4100
2026-01-05 07:17:46.03	292.18	12.09	-25.5	-26.7	14.2	1.10e-06	0	44	102	1048576	10	4150
2026-01-05 07:17:47.04	292.02	12.04	-25.4	-26.6	14.3	1.10e-06	0	44	102	1048576	10	4121
2026-01-05 07:17:48.04	291.85	11.99	-25.5	-26.8	14.1	3.40e-06	0	44	102	1048576	10	4184
2026-01-05 07:17:49.05	291.69	11.94	-25.7	-26.7	13.9	2.20e-06	0	44	102	1048576	11	4031
2026-01-05 07:17:50.05	291.53	11.89	-25.9	-27.3	13.6	1.02e-05	0	44	102	1048576	11	4195
2026-01-05 07:17:51.06	291.36	11.84	-25.7	-26.8	13.9	5.70e-06	0	44	102	1048576	11	4070
2026-01-05 07:17:52.06	291.20	11.79	-25.7	-26.7	13.9	2.20e-06	0	44	102	1048576	11	4039
2026-01-05 07:17:53.07	291.04	11.74	-25.7	-26.7	13.9	4.50e-06	0	44	102	1048576	11	4042
2026-01-05 07:17:54.07	290.88	11.69	-25.6	-26.6	13.9	8.00e-06	0	44	102	1048576	11	4022
2026-01-05 07:17:55.09	290.72	11.64	-25.6	-26.6	13.9	2.20e-06	0	44	102	1048576	11	4014
2026-01-05 07:17:56.09	290.56	11.59	-25.7	-26.7	13.9	5.70e-06	0	44	102	1048576	11	4045
2026-01-05 07:17:57.09	290.40	11.53	-25.6	-26.5	14.0	3.40e-06	0	44	102	1048576	11	3993
2026-01-05 07:17:58.10	290.24	11.48	-25.4	-26.0	14.3	0.00e+00	0	44	102	1048576	11	3866
2026-01-05 07:17:59.10	290.08	11.43	-25.3	-25.8	14.4	0.00e+00	0	44	102	1048576	11	3821
2026-01-05 07:18:00.11	289.92	11.38	-25.4	-26.0	14.3	0.00e+00	0	44	102	1048576	11	3875
2026-01-05 07:18:01.11	289.77	11.33	-25.4	-26.0	14.3	2.20e-06	0	44	102	1048576	11	3856
2026-01-05 07:18:02.12	289.61	11.28	-25.4	-26.1	14.2	1.10e-06	0	44	102	1048576	11	3888
2026-01-05 07:18:03.13	289.45	11.23	-25.5	-26.2	14.2	2.20e-06	0	44	102	1048576	11	3901
2026-01-05 07:18:04.14	289.30	11.18	-25.6	-26.6	13.9	2.20e-06	0	44	102	1048576	11	4007
2026-01-05 07:18:05.14	289.14	11.12	-25.5	-26.4	14.1	1.10e-06	0	44	102	1048576	11	3967
2026-01-05 07:18:06.15	288.99	11.07	-25.6	-26.6	13.9	6.80e-06	0	44	102	1048576	11	4002
2026-01-05 07:18:07.16	288.83	11.02	-25.6	-26.5	14.0	1.10e-06	0	44	102	1048576	11	3995
2026-01-05 07:18:08.17	288.68	10.97	-25.6	-26.5	14.0	2.20e-06	0	44	102	1048576	11	3984
2026-01-05 07:18:09.18	288.52	10.91	-25.7	-26.6	13.8	5.70e-06	0	44	102	1048576	11	4029
2026-01-05 07:18:10.18	288.37	10.86	-25.6	-26.6	13.9	9.10e-06	0	44	102	1048576	11	4019
2026-01-05 07:18:11.19	288.22	10.81	-25.6	-26.6	13.8	5.70e-06	0	44	102	1048576	11	4016
2026-01-05 07:18:12.19	288.07	10.76	-25.6	-26.5	13.9	4.50e-06	0	44	102	1048576	11	3993
2026-01-05 07:18:13.19	287.92	10.71	-25.7	-26.7	13.8	1.02e-05	0	44	102	1048576	11	4037
2026-01-05 07:18:14.20	287.77	10.65	-25.6	-26.6	13.9	3.40e-06	0	44	102	1048576	11	4012
2026-01-05 07:18:15.21	287.62	10.60	-25.7	-26.7	13.8	5.70e-06	0	44	102	1048576	11	4044
2026-01-05 07:18:16.22	287.47	10.55	-25.6	-26.6	13.9	9.10e-06	0	44	102	1048576	11	4018
2026-01-05 07:18:17.23	287.32	10.49	-25.7	-26.8	13.7	2.20e-06	0	44	102	1048576	11	4069
2026-01-05 07:18:18.23	287.17	10.44	-25.8	-27.0	13.6	8.00e-06	0	44	102	1048576	11	4135
2026-01-05 07:18:19.24	287.03	10.39	-25.7	-26.7	13.8	1.14e-05	0	44	102	1048576	11	4051
2026-01-05 07:18:20.25	286.88	10.34	-25.7	-26.7	13.8	3.40e-06	0	44	102	1048576	11	4037
2026-01-05 07:18:21.26	286.73	10.28	-25.7	-26.8	13.8	6.80e-06	0	44	102	1048576	11	4067
2026-01-05 07:18:22.27	286.58	10.23	-25.7	-26.8	13.8	5.70e-06	0	44	102	1048576	11	4068
2026-01-05 07:18:23.27	286.44	10.18	-25.8	-26.9	13.7	6.80e-06	0	44	102	1048576	11	4093
2026-01-05 07:18:24.28	286.29	10.12	-25.7	-26.8	13.7	9.10e-06	0	44	102	1048576	11	4086
2026-01-05 07:18:25.29	286.15	10.07	-25.8	-26.9	13.7	6.80e-06	0	44	102	1048576	11	4095
2026-01-05 07:18:26.30	286.01	10.02	-25.7	-26.8	13.7	3.40e-06	0	44	102	1048576	11	4073
2026-01-05 07:18:27.30	285.86	9.96	-25.8	-27.0	13.6	1.48e-05	0	43	102	1048576	11	4131
2026-01-05 07:18:28.31	285.72	9.91	-25.7	-26.8	13.7	5.70e-06	0	44	102	1048576	11	4064
2026-01-05 07:18:29.32	285.58	9.86	-25.8	-26.9	13.6	1.02e-05	0	44	102	1048576	11	4098
2026-01-05 07:18:30.32	285.44	9.80	-25.8	-27.0	13.5	9.10e-06	0	44	102	1048576	11	4133
2026-01-05 07:18:31.32	285.30	9.75	-25.8	-26.9	13.6	5.70e-06	0	44	102	1048576	11	4105
2026-01-05 07:18:32.33	285.16	9.70	-25.7	-26.8	13.7	6.80e-06	0	44	102	1048576	11	4066
2026-01-05 07:18:33.34	285.02	9.64	-25.8	-26.9	13.5	5.70e-06	0	44	102	1048576	11	4089
2026-01-05 07:18:34.34	284.88	9.59	-25.9	-27.3	13.3	1.83e-05	0	44	102	1048576	11	4209
2026-01-05 07:18:35.35	284.74	9.53	-25.9	-27.2	13.4	1.25e-05	0	44	102	1048576	11	4185
2026-01-05 07:18:36.36	284.60	9.48	-25.9	-27.3	13.3	2.28e-05	0	44	102	1048576	11	4209
2026-01-05 07:18:37.37	284.46	9.43	-26.0	-27.4	13.2	3.20e-05	0	44	102	1048576	11	4245
2026-01-05 07:18:38.38	284.32	9.37	-26.1	-27.7	13.0	4.69e-05	0	44	102	1048576	11	4317
2026-01-05 07:18:39.38	284.19	9.32	-26.0	-27.5	13.1	4.00e-05	0	44	102	1048576	11	4267
2026-01-05 07:18:40.39	284.05	9.26	-26.0	-27.1	13.0	5.14e-05	0	44	102	1048576	12	4063
2026-01-05 07:18:41.40	283.91	9.21	-26.2	-27.5	12.7	6.63e-05	0	44	102	1048576	12	4177
2026-01-05 07:18:42.41	283.78	9.16	-26.2	-27.5	12.7	9.95e-05	0	44	102	1048576	12	4179
2026-01-05 07:18:43.41	283.64	9.10	-26.0	-27.0	13.0	5.95e-05	0	44	102	1048576	12	4041
2026-01-05 07:18:44.42	283.51	9.05	-25.9	-26.8	13.1	4.69e-05	0	43	102	1048576	12	3992
2026-01-05 07:18:45.43	283.37	8.99	-25.9	-26.8	13.1	3.89e-05	0	44	102	1048576	12	3984
2026-01-05 07:18:46.43	283.24	8.94	-25.9	-26.8	13.1	3.89e-05	0	44	102	1048576	12	3987
2026-01-05 07:18:47.44	283.11	8.88	-25.9	-26.7	13.2	2.05e-05	0	44	102	1048576	12	3962
2026-01-05 07:18:48.45	282.98	8.83	-25.8	-26.5	13.3	2.28e-05	0	44	102	1048576	12	3922
2026-01-05 07:18:49.45	282.84	8.78	-25.8	-26.6	13.3	2.17e-05	0	44	102	1048576	12	3932
2026-01-05 07:18:50.46	282.71	8.72	-25.8	-26.5	13.4	1.83e-05	0	44	102	1048576	12	3899
2026-01-05 07:18:51.47	282.58	8.67	-25.8	-26.5	13.4	1.37e-05	0	44	102	1048576	12	3917
2026-01-05 07:18:52.48	282.45	8.61	-25.9	-26.7	13.2	2.51e-05	0	44	102	1048576	12	3959
2026-01-05 07:18:53.48	282.32	8.56	-25.9	-26.7	13.2	2.40e-05	0	44	102	1048576	12	3964
2026-01-05 07:18:54.49	282.19	8.50	-26.0	-27.0	13.1	2.51e-05	0	44	102	1048576	12	4027
2026-01-05 07:18:55.50	282.06	8.45	-26.1	-27.2	13.0	3.77e-05	0	44	102	1048576	12	4080
2026-01-05 07:18:56.51	281.93	8.39	-26.1	-27.3	12.9	5.14e-05	0	44	102	1048576	12	4124
2026-01-05 07:18:57.52	281.80	8.34	-26.2	-27.4	12.9	6.86e-05	0	44	102	1048576	12	4139
2026-01-05 07:18:58.53	281.68	8.28	-26.3	-27.6	12.7	1.10e-04	0	44	102	1048576	12	4201
2026-01-05 07:18:59.53	281.55	8.23	-26.1	-27.3	12.9	5.60e-05	0	44	102	1048576	12	4128
2026-01-05 07:19:00.54	281.42	8.18	-26.1	-27.3	12.9	5.14e-05	0	44	102	1048576	12	4113
2026-01-05 07:19:01.55	281.30	8.12	-26.1	-27.3	12.9	5.83e-05	0	44	102	1048576	12	4126
2026-01-05 07:19:02.55	281.17	8.07	-26.2	-27.5	12.7	7.20e-05	0	44	102	1048576	12	4173
2026-01-05 07:19:03.56	281.05	8.01	-26.1	-27.3	12.8	7.32e-05	0	44	102	1048576	12	4120
2026-01-05 07:19:04.56	280.92	7.96	-26.1	-27.3	12.9	5.49e-05	0	44	102	1048576	12	4113
2026-01-05 07:19:05.56	280.80	7.90	-26.2	-27.4	12.8	8.23e-05	0	44	102	1048576	12	4154
2026-01-05 07:19:06.57	280.68	7.85	-26.1	-27.3	12.8	7.20e-05	0	44	102	1048576	12	4108
2026-01-05 07:19:07.58	280.55	7.79	-26.1	-27.2	12.9	6.17e-05	0	44	102	1048576	12	4092
2026-01-05 07:19:08.59	280.43	7.74	-26.0	-27.1	12.9	5.14e-05	0	44	102	1048576	12	4065
2026-01-05 07:19:09.59	280.31	7.68	-26.1	-27.3	12.8	5.95e-05	0	44	102	1048576	12	4107
2026-01-05 07:19:10.60	280.19	7.63	-26.3	-27.7	12.5	9.95e-05	0	44	102	1048576	12	4245
2026-01-05 07:19:11.61	280.07	7.57	-26.3	-27.6	12.6	1.42e-04	0	44	102	1048576	12	4214
2026-01-05 07:19:12.62	279.94	7.52	-26.2	-27.4	12.7	1.02e-04	0	44	102	1048576	12	4156
2026-01-05 07:19:13.63	279.82	7.46	-26.1	-27.3	12.8	5.95e-05	0	44	102	1048576	12	4122
2026-01-05 07:19:14.63	279.70	7.41	-26.2	-27.4	12.7	6.06e-05	0	44	102	1048576	12	4147
2026-01-05 07:19:15.64	279.58	7.36	-26.2	-27.6	12.6	1.19e-04	0	44	102	1048576	12	4206
2026-01-05 07:19:16.65	279.47	7.30	-26.2	-27.5	12.7	9.72e-05	0	44	102	1048576	12	4182
2026-01-05 07:19:17.65	279.35	7.25	-26.2	-27.5	12.6	9.15e-05	0	44	102	1048576	12	4195
2026-01-05 07:19:18.66	279.23	7.19	-26.2	-27.4	12.7	1.13e-04	0	44	102	1048576	12	4157
2026-01-05 07:19:19.67	279.11	7.14	-26.3	-27.7	12.5	1.03e-04	0	44	102	1048576	12	4236
2026-01-05 07:19:20.68	278.99	7.08	-26.3	-27.7	12.6	1.52e-04	0	44	102	1048576	12	4215
2026-01-05 07:19:21.68	278.88	7.03	-31.7	-40.7	3.8	8.47e-01	0	44	104	1048576	23	10168
2026-01-05 07:19:22.69	278.76	6.97	-32.2	-41.9	3.8	8.45e-01	0	44	104	1048576	24	10960

#Closed at: 2026-01-05 07:19:23
#Recorded file [1 MB]: D:/data/31010_260105_101100.dat