passes_logs/2026/01/05/R2M6_AANII_01/R2M6_AANII_01__20260105_101737_FENGYUN_3D_rec.log

#Pass ID: 20260105_101737_FENGYUN 3D
#Satellite: FENGYUN 3D
#Configuration: FENGYUN 3D
#almurnet v.1.7.20240730
#Start time: 2026-01-05 10:17:36

#Version: 2.2.20231116
#Station: R2M6_AANII_01
#Location: 30.233357 lon 59.946436 lat
#TLE: 1 43010U 17072A   26004.50247883 -.00000063  00000+0 -78815-5 0  9998
#TLE: 2 43010  98.9915 336.1565 0001968 126.3752 233.7605 14.19691805421760

#Time	Az	El	Level	Level2	SNR	BER	BlckErr	Temp	State	Recorded	gain1	gain2
2026-01-05 10:17:36.92	96.79	6.97	-30.3	-41.1	3.8	8.47e-01	0	41	0	0	21	12557
2026-01-05 10:17:37.92	96.69	7.03	-30.3	-40.7	3.8	8.45e-01	0	41	104	0	22	11863
2026-01-05 10:17:38.93	96.60	7.09	-30.3	-40.6	3.8	8.45e-01	0	41	104	0	22	11840
2026-01-05 10:17:39.94	96.50	7.15	-30.2	-40.9	3.8	8.46e-01	0	41	104	0	21	12391
2026-01-05 10:17:40.94	96.40	7.22	-30.1	-40.7	3.8	8.45e-01	0	41	104	0	21	12273
2026-01-05 10:17:41.95	96.30	7.28	-30.0	-40.6	3.8	8.46e-01	0	41	104	0	21	12170
2026-01-05 10:17:42.96	96.20	7.34	-30.0	-40.5	3.8	8.47e-01	0	41	104	0	21	12120
2026-01-05 10:17:43.97	96.10	7.41	-30.0	-40.5	3.8	8.45e-01	0	41	104	0	21	12113
2026-01-05 10:17:44.97	96.01	7.47	-30.0	-40.5	3.8	8.47e-01	0	41	104	0	21	12112
2026-01-05 10:17:45.98	95.91	7.53	-30.0	-40.6	3.8	8.46e-01	0	41	104	0	21	12195
2026-01-05 10:17:46.98	95.81	7.60	-30.1	-40.7	3.8	8.47e-01	0	41	104	0	21	12240
2026-01-05 10:17:47.99	95.70	7.66	-30.1	-40.7	3.8	8.46e-01	0	41	104	0	21	12226
2026-01-05 10:17:49.00	95.60	7.72	-30.1	-40.8	3.8	8.46e-01	0	41	104	0	21	12255
2026-01-05 10:17:50.01	95.50	7.79	-30.2	-40.9	3.8	8.46e-01	0	41	104	0	21	12359
2026-01-05 10:17:51.01	95.40	7.85	-30.2	-40.9	3.8	8.47e-01	0	41	104	0	21	12330
2026-01-05 10:17:52.02	95.30	7.92	-30.2	-41.0	3.8	8.45e-01	0	42	104	0	21	12486
2026-01-05 10:17:53.03	95.19	7.98	-30.2	-41.0	3.8	8.45e-01	0	41	104	0	21	12421
2026-01-05 10:17:54.03	95.09	8.04	-30.3	-41.0	3.8	8.45e-01	0	42	104	0	21	12397
2026-01-05 10:17:55.04	94.99	8.11	-30.3	-41.1	3.8	8.46e-01	0	41	104	0	21	12439
2026-01-05 10:17:56.04	94.88	8.17	-30.3	-41.0	3.8	8.45e-01	0	41	104	0	21	12373
2026-01-05 10:17:57.05	94.78	8.24	-30.3	-41.1	3.8	8.46e-01	0	42	104	0	21	12405
2026-01-05 10:17:58.06	94.67	8.30	-30.3	-41.0	3.8	8.46e-01	0	42	104	0	21	12293
2026-01-05 10:17:59.07	94.57	8.37	-30.4	-41.0	3.8	8.47e-01	0	42	104	0	21	12301
2026-01-05 10:18:00.07	94.46	8.43	-30.4	-41.1	3.8	8.46e-01	0	42	104	0	21	12363
2026-01-05 10:18:01.08	94.35	8.49	-30.4	-41.0	3.8	8.46e-01	0	42	104	0	21	12183
2026-01-05 10:18:02.09	94.24	8.56	-30.5	-40.8	3.8	8.46e-01	0	42	104	0	21	11859
2026-01-05 10:18:03.09	94.14	8.62	-30.5	-40.4	3.8	8.47e-01	0	42	104	0	21	11372
2026-01-05 10:18:04.10	94.03	8.69	-30.5	-40.5	3.8	8.47e-01	0	42	104	0	21	11409
2026-01-05 10:18:05.11	93.92	8.75	-30.6	-41.0	3.8	8.45e-01	0	42	104	0	21	11939
2026-01-05 10:18:06.12	93.81	8.82	-30.6	-41.2	3.8	8.45e-01	0	42	104	0	21	12084
2026-01-05 10:18:07.12	93.70	8.88	-30.6	-40.6	3.8	8.46e-01	0	42	104	0	21	11424
2026-01-05 10:18:08.13	93.59	8.95	-30.5	-39.4	3.8	8.45e-01	0	42	104	0	21	10027
2026-01-05 10:18:09.14	93.48	9.01	-30.3	-37.8	4.0	8.42e-01	0	42	104	0	21	8505
2026-01-05 10:18:10.14	93.37	9.08	-30.1	-36.3	4.9	7.98e-01	0	42	104	0	21	7344
2026-01-05 10:18:11.15	93.26	9.14	-30.1	-36.2	5.0	7.71e-01	0	42	0	0	21	7211
2026-01-05 10:18:12.15	93.14	9.21	-30.4	-37.3	4.6	8.08e-01	0	42	0	0	21	7939
2026-01-05 10:18:13.16	93.03	9.27	-30.4	-36.5	5.1	7.89e-01	0	42	0	0	21	7297
2026-01-05 10:18:14.17	92.92	9.34	-30.0	-34.7	6.1	5.90e-01	0	42	102	1048576	21	6214
2026-01-05 10:18:15.17	92.80	9.40	-29.9	-34.1	6.5	2.49e-01	0	42	102	1048576	21	5878
2026-01-05 10:18:16.17	92.69	9.47	-30.4	-36.4	5.3	4.30e-01	0	42	102	1048576	21	7138
2026-01-05 10:18:17.18	92.58	9.54	-31.0	-38.4	4.6	8.17e-01	0	42	102	1048576	21	8455
2026-01-05 10:18:18.19	92.46	9.60	-30.5	-35.7	6.1	6.92e-01	0	42	102	1048576	21	6554
2026-01-05 10:18:19.20	92.34	9.67	-30.4	-35.4	6.4	2.66e-01	0	42	102	1048576	21	6359
2026-01-05 10:18:20.20	92.23	9.73	-30.7	-36.3	5.9	3.64e-01	0	42	102	1048576	21	6877
2026-01-05 10:18:21.21	92.11	9.80	-30.6	-36.0	6.1	3.67e-01	0	42	102	1048576	21	6656
2026-01-05 10:18:22.22	91.99	9.86	-30.6	-35.8	6.3	2.89e-01	0	42	102	1048576	21	6542
2026-01-05 10:18:23.23	91.87	9.93	-30.7	-35.9	6.3	2.88e-01	0	42	102	1048576	21	6558
2026-01-05 10:18:24.23	91.76	10.00	-30.6	-35.8	6.4	2.93e-01	0	42	102	1048576	21	6511
2026-01-05 10:18:25.24	91.64	10.06	-30.5	-35.4	6.7	2.32e-01	0	42	102	1048576	21	6281
2026-01-05 10:18:26.25	91.52	10.13	-30.2	-34.2	7.5	1.48e-01	0	42	102	1048576	21	5710
2026-01-05 10:18:27.25	91.40	10.20	-30.0	-33.3	8.1	9.12e-02	0	42	102	1048576	21	5304
2026-01-05 10:18:28.26	91.27	10.26	-29.6	-32.6	9.0	3.78e-02	0	42	102	1048576	20	5112
2026-01-05 10:18:29.27	91.15	10.33	-29.2	-32.0	9.9	1.71e-02	0	42	102	1048576	19	4966
2026-01-05 10:18:30.28	91.03	10.39	-28.7	-31.0	10.9	4.14e-03	0	42	102	1048576	18	4727
2026-01-05 10:18:31.28	90.91	10.46	-28.2	-30.3	11.7	1.41e-03	0	42	102	1048576	17	4587
2026-01-05 10:18:32.29	90.79	10.53	-27.7	-29.5	12.5	2.32e-04	0	42	102	1048576	16	4453
2026-01-05 10:18:33.30	90.66	10.59	-27.0	-28.5	13.3	5.03e-05	0	42	102	1048576	15	4259
2026-01-05 10:18:34.31	90.54	10.66	-26.6	-28.0	13.8	9.10e-06	0	42	102	1048576	14	4241
2026-01-05 10:18:35.32	90.41	10.73	-26.3	-27.4	14.2	2.20e-06	0	42	102	1048576	14	4073
2026-01-05 10:18:36.32	90.29	10.79	-26.2	-27.6	14.4	3.40e-06	0	42	102	1048576	13	4246
2026-01-05 10:18:37.33	90.16	10.86	-26.4	-28.0	14.2	1.10e-06	0	42	102	1048576	13	4338
2026-01-05 10:18:38.34	90.03	10.93	-26.4	-28.0	14.2	3.40e-06	0	43	102	1048576	13	4347
2026-01-05 10:18:39.35	89.91	10.99	-26.2	-27.6	14.4	1.10e-06	0	43	102	1048576	13	4230
2026-01-05 10:18:40.35	89.78	11.06	-26.2	-27.6	14.5	0.00e+00	0	42	102	1048576	13	4229
2026-01-05 10:18:41.36	89.65	11.13	-26.1	-27.4	14.6	0.00e+00	0	43	102	1048576	13	4167
2026-01-05 10:18:42.36	89.52	11.19	-26.1	-27.4	14.6	0.00e+00	0	43	102	1048576	13	4176
2026-01-05 10:18:43.37	89.39	11.26	-26.1	-27.4	14.6	2.20e-06	0	43	102	1048576	13	4162
2026-01-05 10:18:44.38	89.26	11.33	-26.1	-27.3	14.6	2.20e-06	0	42	102	1048576	13	4144
2026-01-05 10:18:45.39	89.13	11.40	-26.1	-27.3	14.7	0.00e+00	0	43	102	1048576	13	4137
2026-01-05 10:18:46.40	89.00	11.46	-26.2	-27.5	14.5	1.10e-06	0	43	102	1048576	13	4187
2026-01-05 10:18:47.40	88.87	11.53	-25.9	-26.9	14.9	0.00e+00	0	43	102	1048576	13	4049
2026-01-05 10:18:48.41	88.73	11.60	-25.8	-26.7	15.0	1.10e-06	0	43	102	1048576	13	3994
2026-01-05 10:18:49.42	88.60	11.66	-25.9	-26.8	15.0	1.10e-06	0	42	102	1048576	13	4017
2026-01-05 10:18:50.42	88.47	11.73	-25.9	-26.8	14.9	0.00e+00	0	43	102	1048576	13	4022
2026-01-05 10:18:51.43	88.33	11.80	-25.9	-26.9	14.9	0.00e+00	0	43	102	1048576	13	4032
2026-01-05 10:18:52.44	88.20	11.87	-25.9	-26.9	15.0	0.00e+00	0	43	102	1048576	13	4031
2026-01-05 10:18:53.45	88.06	11.93	-25.9	-27.0	14.9	0.00e+00	0	43	102	1048576	13	4053
2026-01-05 10:18:54.46	87.92	12.00	-26.0	-27.1	14.8	0.00e+00	0	43	102	1048576	13	4095
2026-01-05 10:18:55.47	87.78	12.07	-25.9	-27.0	14.9	0.00e+00	0	43	102	1048576	13	4069
2026-01-05 10:18:56.48	87.65	12.14	-26.0	-27.1	14.9	0.00e+00	0	43	102	1048576	13	4093
2026-01-05 10:18:57.48	87.51	12.20	-26.0	-27.1	14.9	0.00e+00	0	43	102	1048576	13	4084
2026-01-05 10:18:58.48	87.37	12.27	-25.9	-26.8	15.0	0.00e+00	0	43	102	1048576	13	4022
2026-01-05 10:18:59.49	87.23	12.34	-25.9	-26.9	15.0	0.00e+00	0	43	102	1048576	13	4032
2026-01-05 10:19:00.49	87.09	12.41	-25.9	-26.8	15.0	1.10e-06	0	43	102	1048576	13	4021
2026-01-05 10:19:01.50	86.95	12.47	-25.8	-26.6	15.2	1.10e-06	0	43	102	1048576	13	3963
2026-01-05 10:19:02.51	86.81	12.54	-25.7	-27.0	15.2	0.00e+00	0	43	102	1048576	12	4167
2026-01-05 10:19:03.52	86.67	12.61	-25.6	-26.7	15.4	0.00e+00	0	43	102	1048576	12	4081
2026-01-05 10:19:04.52	86.52	12.68	-25.5	-26.6	15.5	0.00e+00	0	43	102	1048576	12	4057
2026-01-05 10:19:05.52	86.38	12.74	-25.6	-26.7	15.4	1.10e-06	0	43	102	1048576	12	4089
2026-01-05 10:19:06.52	86.24	12.81	-25.5	-26.6	15.5	0.00e+00	0	43	102	1048576	12	4048
2026-01-05 10:19:07.53	86.09	12.88	-25.4	-26.4	15.6	0.00e+00	0	43	102	1048576	12	3997
2026-01-05 10:19:08.53	85.95	12.94	-25.5	-26.4	15.6	0.00e+00	0	43	102	1048576	12	4025
2026-01-05 10:19:09.54	85.80	13.01	-25.4	-26.3	15.6	0.00e+00	0	43	102	1048576	12	3985
2026-01-05 10:19:10.54	85.65	13.08	-25.4	-26.2	15.7	0.00e+00	0	43	102	1048576	12	3961
2026-01-05 10:19:11.55	85.51	13.15	-25.4	-26.2	15.7	0.00e+00	0	43	102	1048576	12	3968
2026-01-05 10:19:12.55	85.36	13.21	-25.4	-26.3	15.7	0.00e+00	0	43	102	1048576	12	3986
2026-01-05 10:19:13.56	85.21	13.28	-25.4	-26.3	15.7	0.00e+00	0	43	102	1048576	12	3977
2026-01-05 10:19:14.56	85.06	13.35	-25.4	-26.3	15.7	0.00e+00	0	43	102	1048576	12	3970
2026-01-05 10:19:15.57	84.91	13.42	-25.4	-26.3	15.7	2.20e-06	0	43	102	1048576	12	3973
2026-01-05 10:19:16.58	84.76	13.48	-25.4	-26.3	15.7	0.00e+00	0	43	102	1048576	12	3992
2026-01-05 10:19:17.58	84.61	13.55	-25.5	-26.4	15.6	0.00e+00	0	43	102	1048576	12	4023
2026-01-05 10:19:18.59	84.45	13.62	-25.4	-26.4	15.7	0.00e+00	0	43	102	1048576	12	3997
2026-01-05 10:19:19.60	84.30	13.69	-25.4	-26.2	15.8	0.00e+00	0	43	102	1048576	12	3957
2026-01-05 10:19:20.61	84.15	13.75	-25.5	-26.4	15.6	0.00e+00	0	43	102	1048576	12	4019
2026-01-05 10:19:21.61	83.99	13.82	-25.4	-26.2	15.8	0.00e+00	0	43	102	1048576	12	3960
2026-01-05 10:19:22.62	83.84	13.89	-25.5	-26.4	15.7	0.00e+00	0	43	102	1048576	12	4004
2026-01-05 10:19:23.63	83.68	13.96	-25.4	-26.2	15.8	0.00e+00	0	43	102	1048576	12	3963
2026-01-05 10:19:24.63	83.52	14.02	-25.3	-26.5	15.9	0.00e+00	0	43	102	1048576	11	4145
2026-01-05 10:19:25.64	83.37	14.09	-25.3	-26.6	15.9	0.00e+00	0	43	102	1048576	11	4163
2026-01-05 10:19:26.64	83.21	14.16	-25.3	-26.6	15.9	0.00e+00	0	43	102	1048576	11	4153
2026-01-05 10:19:27.65	83.05	14.22	-25.3	-26.5	16.0	0.00e+00	0	43	102	1048576	11	4126
2026-01-05 10:19:28.66	82.89	14.29	-25.3	-26.6	15.9	0.00e+00	0	43	102	1048576	11	4163
2026-01-05 10:19:29.66	82.73	14.36	-25.4	-26.7	15.8	0.00e+00	0	43	102	1048576	11	4199
2026-01-05 10:19:30.67	82.57	14.43	-25.5	-26.9	15.8	0.00e+00	0	43	102	1048576	11	4231
2026-01-05 10:19:31.68	82.41	14.49	-25.5	-26.9	15.8	0.00e+00	0	43	102	1048576	11	4232
2026-01-05 10:19:32.69	82.24	14.56	-25.4	-26.7	15.9	0.00e+00	0	43	102	1048576	11	4180
2026-01-05 10:19:33.70	82.08	14.63	-25.4	-26.7	15.8	0.00e+00	0	43	102	1048576	11	4202
2026-01-05 10:19:34.70	81.92	14.69	-25.6	-27.1	15.6	0.00e+00	0	43	102	1048576	11	4304
2026-01-05 10:19:35.71	81.75	14.76	-25.4	-26.8	15.8	0.00e+00	0	43	102	1048576	11	4225
2026-01-05 10:19:36.72	81.58	14.83	-25.3	-26.5	16.0	0.00e+00	0	43	102	1048576	11	4144
2026-01-05 10:19:37.72	81.42	14.90	-25.3	-26.5	16.0	0.00e+00	0	43	102	1048576	11	4140
2026-01-05 10:19:38.73	81.25	14.96	-25.2	-26.2	16.1	0.00e+00	0	43	102	1048576	11	4064
2026-01-05 10:19:39.74	81.08	15.03	-25.1	-26.1	16.2	0.00e+00	0	43	102	1048576	11	4032
2026-01-05 10:19:40.74	80.92	15.09	-25.2	-26.2	16.2	0.00e+00	0	43	102	1048576	11	4066
2026-01-05 10:19:41.75	80.75	15.16	-25.2	-26.2	16.2	0.00e+00	0	43	102	1048576	11	4047
2026-01-05 10:19:42.76	80.58	15.23	-25.0	-25.8	16.4	0.00e+00	0	43	102	1048576	11	3968
2026-01-05 10:19:43.77	80.40	15.29	-25.0	-25.8	16.4	0.00e+00	0	43	102	1048576	11	3963
2026-01-05 10:19:44.77	80.23	15.36	-25.0	-25.8	16.4	0.00e+00	0	43	102	1048576	11	3960
2026-01-05 10:19:45.78	80.06	15.43	-25.1	-26.0	16.3	0.00e+00	0	43	102	1048576	11	4009
2026-01-05 10:19:46.78	79.89	15.49	-25.0	-25.9	16.4	0.00e+00	0	43	102	1048576	11	3972
2026-01-05 10:19:47.79	79.71	15.56	-25.0	-25.9	16.4	0.00e+00	0	43	102	1048576	11	3972
2026-01-05 10:19:48.79	79.54	15.62	-25.0	-25.8	16.4	0.00e+00	0	43	102	1048576	11	3956
2026-01-05 10:19:49.80	79.36	15.69	-25.0	-25.8	16.4	0.00e+00	0	43	102	1048576	11	3954
2026-01-05 10:19:50.81	79.19	15.76	-25.1	-26.1	16.2	0.00e+00	0	43	102	1048576	11	4042
2026-01-05 10:19:51.82	79.01	15.82	-25.0	-25.8	16.4	0.00e+00	0	43	102	1048576	11	3947
2026-01-05 10:19:52.83	78.83	15.89	-25.0	-25.9	16.4	0.00e+00	0	43	102	1048576	11	3968
2026-01-05 10:19:53.83	78.65	15.95	-25.0	-25.8	16.4	0.00e+00	0	43	102	1048576	11	3965
2026-01-05 10:19:54.84	78.47	16.02	-25.1	-26.0	16.4	0.00e+00	0	43	102	1048576	11	3997
2026-01-05 10:19:55.85	78.29	16.08	-25.0	-25.8	16.5	0.00e+00	0	43	102	1048576	11	3947
2026-01-05 10:19:56.85	78.11	16.15	-25.0	-25.8	16.5	0.00e+00	0	43	102	1048576	11	3966
2026-01-05 10:19:57.86	77.93	16.21	-25.1	-26.0	16.3	0.00e+00	0	43	102	1048576	11	4014
2026-01-05 10:19:58.87	77.75	16.28	-25.0	-25.7	16.5	0.00e+00	0	43	102	1048576	11	3939
2026-01-05 10:19:59.88	77.56	16.34	-24.8	-25.4	16.7	0.00e+00	0	43	102	1048576	11	3868
2026-01-05 10:20:00.87	77.38	16.41	-24.8	-25.5	16.7	0.00e+00	0	43	102	1048576	11	3877
2026-01-05 10:20:01.88	77.19	16.47	-24.8	-25.4	16.7	0.00e+00	0	43	102	1048576	11	3865
2026-01-05 10:20:02.88	77.01	16.54	-24.7	-25.7	16.8	2.20e-06	0	43	102	1048576	10	4041
2026-01-05 10:20:03.89	76.82	16.60	-24.7	-25.7	16.8	1.10e-06	0	43	102	1048576	10	4041
2026-01-05 10:20:04.89	76.64	16.66	-24.8	-25.8	16.8	0.00e+00	0	43	102	1048576	10	4059
2026-01-05 10:20:05.90	76.45	16.73	-25.0	-26.2	16.5	0.00e+00	0	43	102	1048576	10	4170
2026-01-05 10:20:06.90	76.26	16.79	-24.9	-26.1	16.6	0.00e+00	0	43	102	1048576	10	4127
2026-01-05 10:20:07.91	76.07	16.86	-24.9	-26.0	16.6	0.00e+00	0	43	102	1048576	10	4122
2026-01-05 10:20:08.91	75.88	16.92	-25.0	-26.3	16.5	0.00e+00	0	43	102	1048576	10	4192
2026-01-05 10:20:09.92	75.69	16.98	-25.0	-26.3	16.5	0.00e+00	0	43	102	1048576	10	4184
2026-01-05 10:20:10.93	75.49	17.05	-24.9	-26.1	16.6	0.00e+00	0	43	102	1048576	10	4139
2026-01-05 10:20:11.94	75.30	17.11	-24.9	-26.0	16.6	0.00e+00	0	43	102	1048576	10	4123
2026-01-05 10:20:12.94	75.11	17.17	-24.9	-26.2	16.5	0.00e+00	0	43	102	1048576	10	4165
2026-01-05 10:20:13.95	74.91	17.23	-24.7	-25.7	16.8	0.00e+00	0	43	102	1048576	10	4037
2026-01-05 10:20:14.96	74.72	17.30	-24.5	-25.3	17.0	1.10e-06	0	43	102	1048576	10	3935
2026-01-05 10:20:15.96	74.52	17.36	-24.5	-25.3	17.1	0.00e+00	0	43	102	1048576	10	3925
2026-01-05 10:20:16.97	74.32	17.42	-24.6	-25.5	17.0	0.00e+00	0	43	102	1048576	10	3980
2026-01-05 10:20:17.98	74.12	17.48	-24.5	-25.3	17.1	0.00e+00	0	43	102	1048576	10	3926
2026-01-05 10:20:18.97	73.93	17.54	-24.9	-26.0	16.7	0.00e+00	0	43	102	1048576	10	4120
2026-01-05 10:20:19.98	73.73	17.60	-24.8	-25.9	16.7	0.00e+00	0	43	102	1048576	10	4077
2026-01-05 10:20:20.98	73.53	17.67	-24.8	-25.8	16.8	1.10e-06	0	43	102	1048576	10	4063
2026-01-05 10:20:21.98	73.33	17.73	-24.8	-26.0	16.7	0.00e+00	0	43	102	1048576	10	4102
2026-01-05 10:20:22.99	73.13	17.79	-24.6	-25.5	17.0	0.00e+00	0	43	102	1048576	10	3984
2026-01-05 10:20:24.00	72.92	17.85	-24.5	-25.3	17.0	3.40e-06	0	43	102	1048576	10	3946
2026-01-05 10:20:25.01	72.72	17.91	-24.6	-25.5	17.0	0.00e+00	0	43	102	1048576	10	3981
2026-01-05 10:20:26.02	72.51	17.97	-24.6	-25.4	17.0	0.00e+00	0	43	102	1048576	10	3948
2026-01-05 10:20:27.02	72.31	18.03	-24.5	-25.3	17.1	1.10e-06	0	43	102	1048576	10	3945
2026-01-05 10:20:28.03	72.10	18.09	-24.6	-25.5	17.0	0.00e+00	0	43	102	1048576	10	3985
2026-01-05 10:20:29.04	71.89	18.15	-24.5	-25.3	17.1	0.00e+00	0	43	102	1048576	10	3936
2026-01-05 10:20:30.04	71.69	18.21	-24.6	-25.3	17.2	0.00e+00	0	43	102	1048576	10	3917
2026-01-05 10:20:31.05	71.48	18.27	-24.7	-25.6	17.1	0.00e+00	0	43	102	1048576	10	3995
2026-01-05 10:20:32.06	71.27	18.32	-24.4	-25.1	17.4	0.00e+00	0	43	102	1048576	10	3861
2026-01-05 10:20:33.07	71.06	18.38	-24.4	-25.0	17.4	0.00e+00	0	43	102	1048576	10	3858
2026-01-05 10:20:34.08	70.85	18.44	-24.5	-25.2	17.3	0.00e+00	0	43	102	1048576	10	3888
2026-01-05 10:20:35.09	70.63	18.50	-24.2	-25.1	17.6	0.00e+00	0	43	102	1048576	9	3985
2026-01-05 10:20:36.10	70.42	18.56	-24.2	-25.0	17.6	0.00e+00	0	43	102	1048576	9	3953
2026-01-05 10:20:37.10	70.21	18.61	-24.2	-25.1	17.6	0.00e+00	0	43	102	1048576	9	3970
2026-01-05 10:20:38.11	69.99	18.67	-24.4	-25.6	17.4	0.00e+00	0	43	102	1048576	9	4092
2026-01-05 10:20:39.12	69.78	18.73	-24.7	-26.1	17.1	0.00e+00	0	43	102	1048576	9	4239
2026-01-05 10:20:40.12	69.56	18.78	-24.4	-25.6	17.3	0.00e+00	0	43	102	1048576	9	4097
2026-01-05 10:20:41.13	69.34	18.84	-24.3	-25.3	17.5	0.00e+00	0	43	102	1048576	9	4016
2026-01-05 10:20:42.13	69.13	18.90	-24.3	-25.2	17.6	0.00e+00	0	43	102	1048576	9	4004
2026-01-05 10:20:43.14	68.91	18.95	-24.2	-25.1	17.6	0.00e+00	0	43	102	1048576	9	3968
2026-01-05 10:20:44.15	68.69	19.01	-24.2	-25.1	17.5	0.00e+00	0	43	102	1048576	9	3982
2026-01-05 10:20:45.15	68.47	19.06	-24.2	-25.1	17.6	0.00e+00	0	43	102	1048576	9	3984
2026-01-05 10:20:46.15	68.25	19.12	-24.0	-24.7	17.8	0.00e+00	0	43	102	1048576	9	3871
2026-01-05 10:20:47.15	68.03	19.17	-23.9	-24.4	18.0	0.00e+00	0	43	102	1048576	9	3799
2026-01-05 10:20:48.15	67.81	19.22	-23.8	-24.2	18.1	0.00e+00	0	43	102	1048576	9	3757
2026-01-05 10:20:49.16	67.59	19.28	-23.8	-24.3	18.0	0.00e+00	0	43	102	1048576	9	3775
2026-01-05 10:20:50.17	67.36	19.33	-23.8	-24.6	18.2	0.00e+00	0	43	102	1048576	8	3956
2026-01-05 10:20:51.16	67.14	19.38	-23.9	-24.9	18.0	0.00e+00	0	43	102	1048576	8	4030
2026-01-05 10:20:52.17	66.91	19.44	-24.1	-25.4	17.7	0.00e+00	0	43	102	1048576	8	4163
2026-01-05 10:20:53.17	66.69	19.49	-24.2	-25.4	17.7	0.00e+00	0	43	102	1048576	8	4173
2026-01-05 10:20:54.18	66.46	19.54	-24.1	-25.4	17.7	0.00e+00	0	43	102	1048576	8	4162
2026-01-05 10:20:55.19	66.23	19.59	-24.0	-25.1	17.9	0.00e+00	0	43	102	1048576	8	4074
2026-01-05 10:20:56.19	66.01	19.64	-24.0	-25.0	17.9	0.00e+00	0	43	102	1048576	8	4067
2026-01-05 10:20:57.20	65.78	19.69	-24.1	-25.3	17.8	0.00e+00	0	43	102	1048576	8	4143
2026-01-05 10:20:58.21	65.54	19.74	-24.1	-25.2	17.8	0.00e+00	0	44	102	1048576	8	4113
2026-01-05 10:20:59.21	65.32	19.79	-24.1	-25.3	17.8	0.00e+00	0	43	102	1048576	8	4145
2026-01-05 10:21:00.22	65.08	19.84	-24.1	-25.4	17.8	0.00e+00	0	43	102	1048576	8	4162
2026-01-05 10:21:01.23	64.85	19.89	-24.1	-25.4	17.8	0.00e+00	0	43	102	1048576	8	4154
2026-01-05 10:21:02.23	64.62	19.94	-23.9	-24.9	18.0	0.00e+00	0	43	102	1048576	8	4035
2026-01-05 10:21:03.24	64.38	19.99	-23.9	-24.8	18.1	0.00e+00	0	43	102	1048576	8	4010
2026-01-05 10:21:04.24	64.15	20.04	-23.9	-24.9	18.0	0.00e+00	0	43	102	1048576	8	4043
2026-01-05 10:21:05.24	63.92	20.08	-23.9	-24.8	18.1	0.00e+00	0	43	102	1048576	8	4013
2026-01-05 10:21:06.25	63.68	20.13	-23.9	-25.0	18.0	0.00e+00	0	43	102	1048576	8	4049
2026-01-05 10:21:07.26	63.44	20.18	-24.1	-25.3	17.8	0.00e+00	0	43	102	1048576	8	4132
2026-01-05 10:21:08.26	63.21	20.22	-24.0	-25.2	17.8	0.00e+00	0	43	102	1048576	8	4101
2026-01-05 10:21:09.26	62.97	20.27	-24.1	-25.2	17.9	0.00e+00	0	43	102	1048576	8	4111
2026-01-05 10:21:10.27	62.73	20.32	-24.2	-25.5	17.7	0.00e+00	0	43	102	1048576	8	4175
2026-01-05 10:21:11.28	62.49	20.36	-24.4	-25.9	17.5	0.00e+00	0	43	102	1048576	8	4277
2026-01-05 10:21:12.28	62.25	20.41	-24.1	-25.4	17.7	0.00e+00	0	43	102	1048576	8	4149
2026-01-05 10:21:13.29	62.01	20.45	-24.2	-25.5	17.7	0.00e+00	0	43	102	1048576	8	4193
2026-01-05 10:21:14.29	61.77	20.49	-24.2	-25.5	17.7	0.00e+00	0	43	102	1048576	8	4194
2026-01-05 10:21:15.30	61.52	20.54	-24.1	-25.3	17.8	0.00e+00	0	43	102	1048576	8	4134
2026-01-05 10:21:16.31	61.28	20.58	-24.0	-25.1	17.9	0.00e+00	0	43	102	1048576	8	4087
2026-01-05 10:21:17.32	61.04	20.62	-24.0	-25.0	17.9	0.00e+00	0	43	102	1048576	8	4069
2026-01-05 10:21:18.32	60.79	20.66	-23.9	-24.9	18.0	0.00e+00	0	43	102	1048576	8	4043
2026-01-05 10:21:19.32	60.55	20.70	-23.6	-24.3	18.4	0.00e+00	0	43	102	1048576	8	3880
2026-01-05 10:21:20.33	60.30	20.74	-23.4	-23.8	18.6	0.00e+00	0	43	102	1048576	8	3776
2026-01-05 10:21:21.34	60.06	20.78	-23.5	-24.0	18.5	0.00e+00	0	43	102	1048576	8	3805
2026-01-05 10:21:22.35	59.81	20.82	-23.6	-24.2	18.4	0.00e+00	0	43	102	1048576	8	3864
2026-01-05 10:21:23.36	59.56	20.86	-23.5	-24.1	18.5	0.00e+00	0	43	102	1048576	8	3851
2026-01-05 10:21:24.36	59.31	20.90	-23.6	-24.3	18.4	0.00e+00	0	43	102	1048576	8	3881
2026-01-05 10:21:25.37	59.06	20.94	-23.8	-24.7	18.2	0.00e+00	0	43	102	1048576	8	3978
2026-01-05 10:21:26.37	58.82	20.98	-23.8	-24.7	18.1	0.00e+00	0	43	102	1048576	8	3984
2026-01-05 10:21:27.38	58.56	21.02	-23.6	-24.3	18.3	0.00e+00	0	43	102	1048576	8	3885
2026-01-05 10:21:28.39	58.31	21.05	-23.6	-24.1	18.4	0.00e+00	0	43	102	1048576	8	3853
2026-01-05 10:21:29.40	58.06	21.09	-23.6	-24.3	18.3	0.00e+00	0	44	102	1048576	8	3895
2026-01-05 10:21:30.40	57.81	21.12	-23.8	-24.6	18.2	0.00e+00	0	43	102	1048576	8	3967
2026-01-05 10:21:31.40	57.56	21.16	-23.9	-24.9	18.0	0.00e+00	0	43	102	1048576	8	4046
2026-01-05 10:21:32.41	57.30	21.19	-24.0	-25.0	18.0	0.00e+00	0	43	102	1048576	8	4067
2026-01-05 10:21:33.41	57.05	21.23	-23.7	-24.4	18.3	0.00e+00	0	43	102	1048576	8	3925
2026-01-05 10:21:34.42	56.80	21.26	-23.5	-24.0	18.5	0.00e+00	0	43	102	1048576	8	3810
2026-01-05 10:21:35.42	56.54	21.29	-23.5	-24.0	18.5	0.00e+00	0	43	102	1048576	8	3814
2026-01-05 10:21:36.42	56.29	21.33	-23.5	-24.0	18.6	0.00e+00	0	43	102	1048576	8	3810
2026-01-05 10:21:37.43	56.03	21.36	-23.5	-24.1	18.5	0.00e+00	0	43	102	1048576	8	3836
2026-01-05 10:21:38.44	55.78	21.39	-23.6	-24.2	18.4	0.00e+00	0	43	102	1048576	8	3874
2026-01-05 10:21:39.44	55.52	21.42	-23.6	-24.1	18.5	0.00e+00	0	44	102	1048576	8	3853
2026-01-05 10:21:40.45	55.26	21.45	-23.6	-24.3	18.4	0.00e+00	0	43	102	1048576	8	3886
2026-01-05 10:21:41.45	55.01	21.48	-23.7	-24.5	18.3	0.00e+00	0	43	102	1048576	8	3946
2026-01-05 10:21:42.46	54.75	21.51	-23.8	-24.7	18.2	0.00e+00	0	43	102	1048576	8	3982
2026-01-05 10:21:43.46	54.49	21.54	-23.8	-24.6	18.2	0.00e+00	0	43	102	1048576	8	3954
2026-01-05 10:21:44.47	54.23	21.56	-23.7	-24.4	18.3	0.00e+00	0	43	102	1048576	8	3927
2026-01-05 10:21:45.47	53.97	21.59	-23.7	-24.5	18.3	0.00e+00	0	43	102	1048576	8	3939
2026-01-05 10:21:46.48	53.71	21.62	-23.6	-24.2	18.4	0.00e+00	0	43	102	1048576	8	3872
2026-01-05 10:21:47.49	53.45	21.64	-23.4	-23.9	18.6	0.00e+00	0	43	102	1048576	8	3783
2026-01-05 10:21:48.50	53.19	21.67	-23.5	-24.0	18.5	0.00e+00	0	43	102	1048576	8	3819
2026-01-05 10:21:49.50	52.93	21.69	-23.5	-24.1	18.5	0.00e+00	0	44	102	1048576	8	3835
2026-01-05 10:21:50.50	52.67	21.72	-23.5	-23.9	18.6	0.00e+00	0	44	102	1048576	8	3803
2026-01-05 10:21:51.51	52.40	21.74	-23.4	-23.9	18.6	0.00e+00	0	43	102	1048576	8	3787
2026-01-05 10:21:52.53	52.14	21.76	-23.6	-24.2	18.5	0.00e+00	0	44	102	1048576	8	3859
2026-01-05 10:21:53.53	51.88	21.79	-23.8	-24.6	18.2	0.00e+00	0	43	102	1048576	8	3965
2026-01-05 10:21:54.53	51.62	21.81	-23.8	-24.6	18.3	0.00e+00	0	43	102	1048576	8	3960
2026-01-05 10:21:55.54	51.35	21.83	-23.6	-24.2	18.4	0.00e+00	0	43	102	1048576	8	3870
2026-01-05 10:21:56.55	51.09	21.85	-23.6	-24.2	18.4	0.00e+00	0	43	102	1048576	8	3855
2026-01-05 10:21:57.55	50.82	21.87	-23.7	-24.4	18.3	0.00e+00	0	43	102	1048576	8	3924
2026-01-05 10:21:58.56	50.56	21.89	-23.7	-24.5	18.3	0.00e+00	0	43	102	1048576	8	3932
2026-01-05 10:21:59.56	50.29	21.91	-23.7	-24.5	18.3	0.00e+00	0	43	102	1048576	8	3946
2026-01-05 10:22:00.57	50.03	21.92	-23.7	-24.4	18.3	0.00e+00	0	43	102	1048576	8	3909
2026-01-05 10:22:01.57	49.76	21.94	-23.4	-23.8	18.6	0.00e+00	0	43	102	1048576	8	3770
2026-01-05 10:22:02.57	49.50	21.96	-23.2	-23.9	18.8	0.00e+00	0	43	102	1048576	7	3901
2026-01-05 10:22:03.59	49.23	21.97	-23.2	-23.9	18.8	0.00e+00	0	43	102	1048576	7	3904
2026-01-05 10:22:04.59	48.96	21.99	-23.2	-24.0	18.8	0.00e+00	0	43	102	1048576	7	3919
2026-01-05 10:22:05.60	48.70	22.00	-23.3	-24.1	18.6	0.00e+00	0	43	102	1048576	7	3959
2026-01-05 10:22:06.61	48.43	22.02	-23.5	-24.5	18.5	0.00e+00	0	43	102	1048576	7	4054
2026-01-05 10:22:07.61	48.16	22.03	-23.5	-24.6	18.4	0.00e+00	0	43	102	1048576	7	4055
2026-01-05 10:22:08.62	47.89	22.04	-23.5	-24.5	18.5	0.00e+00	0	43	102	1048576	7	4036
2026-01-05 10:22:09.62	47.63	22.06	-23.6	-24.6	18.4	0.00e+00	0	43	102	1048576	7	4082
2026-01-05 10:22:10.63	47.36	22.07	-23.8	-25.1	18.2	0.00e+00	0	43	102	1048576	7	4198
2026-01-05 10:22:11.64	47.09	22.08	-23.7	-24.9	18.3	0.00e+00	0	43	102	1048576	7	4134
2026-01-05 10:22:12.65	46.82	22.09	-23.6	-24.7	18.4	0.00e+00	0	43	102	1048576	7	4094
2026-01-05 10:22:13.65	46.55	22.10	-23.7	-25.0	18.2	0.00e+00	0	43	102	1048576	7	4170
2026-01-05 10:22:14.65	46.29	22.10	-23.5	-24.6	18.4	0.00e+00	0	43	102	1048576	7	4078
2026-01-05 10:22:15.66	46.02	22.11	-23.2	-24.0	18.8	0.00e+00	0	43	102	1048576	7	3927
2026-01-05 10:22:16.67	45.75	22.12	-23.1	-23.6	18.9	0.00e+00	0	43	102	1048576	7	3831
2026-01-05 10:22:17.68	45.48	22.13	-23.2	-23.8	18.8	0.00e+00	0	43	102	1048576	7	3878
2026-01-05 10:22:18.69	45.21	22.13	-23.1	-23.7	18.9	0.00e+00	0	43	102	1048576	7	3851
2026-01-05 10:22:19.70	44.94	22.14	-23.1	-23.7	18.9	0.00e+00	0	43	102	1048576	7	3863
2026-01-05 10:22:20.70	44.67	22.14	-23.1	-23.8	18.8	0.00e+00	0	43	102	1048576	7	3874
2026-01-05 10:22:21.71	44.40	22.15	-23.2	-23.9	18.8	0.00e+00	0	43	102	1048576	7	3899
2026-01-05 10:22:22.72	44.13	22.15	-23.1	-23.7	18.9	0.00e+00	0	43	102	1048576	7	3845
2026-01-05 10:22:23.73	43.86	22.15	-23.1	-23.8	18.8	0.00e+00	0	43	102	1048576	7	3872
2026-01-05 10:22:24.74	43.59	22.15	-23.2	-23.9	18.8	0.00e+00	0	43	102	1048576	7	3894
2026-01-05 10:22:25.74	43.32	22.16	-23.4	-24.2	18.7	0.00e+00	0	44	102	1048576	7	3985
2026-01-05 10:22:26.74	43.05	22.16	-23.4	-24.4	18.6	0.00e+00	0	43	102	1048576	7	4010
2026-01-05 10:22:27.75	42.78	22.16	-23.4	-24.2	18.6	0.00e+00	0	43	102	1048576	7	3981
2026-01-05 10:22:28.75	42.52	22.15	-23.4	-24.4	18.6	0.00e+00	0	43	102	1048576	7	4025
2026-01-05 10:22:29.76	42.24	22.15	-23.5	-24.6	18.5	0.00e+00	0	43	102	1048576	7	4059
2026-01-05 10:22:30.77	41.97	22.15	-23.4	-24.4	18.6	0.00e+00	0	43	102	1048576	7	4017
2026-01-05 10:22:31.77	41.71	22.15	-23.4	-24.3	18.6	0.00e+00	0	43	102	1048576	7	3990
2026-01-05 10:22:32.78	41.44	22.14	-23.4	-24.3	18.6	0.00e+00	0	43	102	1048576	7	3996
2026-01-05 10:22:33.77	41.17	22.14	-23.4	-24.4	18.6	0.00e+00	0	43	102	1048576	7	4021
2026-01-05 10:22:34.78	40.90	22.14	-23.3	-24.0	18.7	0.00e+00	0	43	102	1048576	7	3934
2026-01-05 10:22:35.78	40.63	22.13	-23.3	-24.1	18.7	0.00e+00	0	43	102	1048576	7	3952
2026-01-05 10:22:36.79	40.36	22.12	-23.5	-24.6	18.4	0.00e+00	0	43	102	1048576	7	4062
2026-01-05 10:22:37.79	40.10	22.12	-23.5	-24.4	18.6	0.00e+00	0	43	102	1048576	7	4032
2026-01-05 10:22:38.80	39.83	22.11	-23.2	-24.0	18.7	0.00e+00	0	43	102	1048576	7	3922
2026-01-05 10:22:39.81	39.56	22.10	-23.1	-23.8	18.9	0.00e+00	0	43	102	1048576	7	3869
2026-01-05 10:22:40.81	39.29	22.09	-23.0	-23.5	18.9	0.00e+00	0	44	102	1048576	7	3815
2026-01-05 10:22:41.81	39.02	22.08	-22.9	-23.3	19.1	0.00e+00	0	43	102	1048576	7	3762
2026-01-05 10:22:42.82	38.76	22.07	-23.0	-23.4	19.0	0.00e+00	0	43	102	1048576	7	3786
2026-01-05 10:22:43.83	38.49	22.06	-23.0	-23.6	19.0	0.00e+00	0	43	102	1048576	7	3829
2026-01-05 10:22:44.83	38.22	22.05	-23.1	-23.6	18.9	0.00e+00	0	43	102	1048576	7	3843
2026-01-05 10:22:45.83	37.96	22.04	-23.1	-23.7	18.8	0.00e+00	0	43	102	1048576	7	3867
2026-01-05 10:22:46.84	37.69	22.02	-23.1	-23.7	18.9	0.00e+00	0	43	102	1048576	7	3866
2026-01-05 10:22:47.84	37.42	22.01	-23.0	-23.6	18.9	0.00e+00	0	43	102	1048576	7	3824
2026-01-05 10:22:48.85	37.15	22.00	-23.1	-23.7	18.9	0.00e+00	0	43	102	1048576	7	3854
2026-01-05 10:22:49.86	36.89	21.98	-23.2	-23.8	18.8	0.00e+00	0	44	102	1048576	7	3876
2026-01-05 10:22:50.87	36.62	21.97	-23.2	-24.0	18.8	0.00e+00	0	43	102	1048576	7	3923
2026-01-05 10:22:51.88	36.35	21.95	-23.2	-23.9	18.8	0.00e+00	0	43	102	1048576	7	3912
2026-01-05 10:22:52.89	36.09	21.93	-23.1	-23.7	18.9	0.00e+00	0	43	102	1048576	7	3864
2026-01-05 10:22:53.90	35.82	21.92	-23.1	-23.7	18.8	0.00e+00	0	43	102	1048576	7	3850
2026-01-05 10:22:54.90	35.56	21.90	-23.2	-23.9	18.8	0.00e+00	0	43	102	1048576	7	3894
2026-01-05 10:22:55.91	35.29	21.88	-23.1	-23.7	18.9	0.00e+00	0	43	102	1048576	7	3852
2026-01-05 10:22:56.92	35.03	21.86	-23.3	-24.1	18.6	0.00e+00	0	43	102	1048576	7	3958
2026-01-05 10:22:57.92	34.76	21.84	-23.2	-23.9	18.7	0.00e+00	0	43	102	1048576	7	3911
2026-01-05 10:22:58.92	34.50	21.82	-23.5	-24.4	18.5	0.00e+00	0	43	102	1048576	7	4032
2026-01-05 10:22:59.93	34.24	21.80	-23.3	-24.1	18.6	0.00e+00	0	43	102	1048576	7	3957
2026-01-05 10:23:00.93	33.98	21.78	-23.2	-23.9	18.7	0.00e+00	0	43	102	1048576	7	3912
2026-01-05 10:23:01.94	33.71	21.75	-23.1	-23.7	18.9	0.00e+00	0	43	102	1048576	7	3844
2026-01-05 10:23:02.95	33.45	21.73	-23.1	-23.7	18.9	0.00e+00	0	43	102	1048576	7	3856
2026-01-05 10:23:03.96	33.19	21.71	-22.9	-23.3	19.0	0.00e+00	0	43	102	1048576	7	3765
2026-01-05 10:23:04.97	32.92	21.68	-22.9	-23.3	19.1	0.00e+00	0	43	102	1048576	7	3754
2026-01-05 10:23:05.97	32.66	21.66	-22.9	-23.8	19.1	0.00e+00	0	44	102	1048576	6	3976
2026-01-05 10:23:06.98	32.40	21.63	-22.9	-23.9	19.1	0.00e+00	0	43	102	1048576	6	4006
2026-01-05 10:23:07.99	32.14	21.61	-22.9	-23.7	19.1	0.00e+00	0	43	102	1048576	6	3963
2026-01-05 10:23:08.99	31.88	21.58	-22.8	-23.6	19.2	0.00e+00	0	44	102	1048576	6	3940
2026-01-05 10:23:10.00	31.62	21.55	-22.8	-23.5	19.2	0.00e+00	0	43	102	1048576	6	3920
2026-01-05 10:23:11.00	31.37	21.52	-23.0	-24.0	18.9	0.00e+00	0	43	102	1048576	6	4040
2026-01-05 10:23:12.01	31.11	21.49	-23.2	-24.5	18.6	0.00e+00	0	43	102	1048576	6	4158
2026-01-05 10:23:13.01	30.85	21.47	-23.3	-24.7	18.7	0.00e+00	0	44	102	1048576	6	4208
2026-01-05 10:23:14.02	30.59	21.44	-23.5	-24.9	18.6	0.00e+00	0	43	102	1048576	6	4274
2026-01-05 10:23:15.03	30.34	21.41	-23.3	-24.6	18.6	0.00e+00	0	43	102	1048576	6	4194
2026-01-05 10:23:16.03	30.08	21.37	-23.4	-24.8	18.5	0.00e+00	0	43	102	1048576	6	4241
2026-01-05 10:23:17.04	29.82	21.34	-23.5	-25.0	18.4	0.00e+00	0	43	102	1048576	6	4295
2026-01-05 10:23:18.05	29.57	21.31	-23.6	-24.8	18.3	0.00e+00	0	43	102	1048576	7	4123
2026-01-05 10:23:19.05	29.32	21.28	-24.1	-25.3	17.8	0.00e+00	0	44	102	1048576	8	4126
2026-01-05 10:23:20.06	29.06	21.25	-23.9	-24.8	18.0	0.00e+00	0	43	102	1048576	8	4011
2026-01-05 10:23:21.06	28.81	21.21	-23.7	-24.5	18.2	0.00e+00	0	43	102	1048576	8	3932
2026-01-05 10:23:22.07	28.55	21.18	-23.6	-24.2	18.4	0.00e+00	0	44	102	1048576	8	3867
2026-01-05 10:23:23.07	28.30	21.14	-23.5	-24.0	18.4	0.00e+00	0	43	102	1048576	8	3825
2026-01-05 10:23:24.07	28.05	21.11	-23.3	-24.2	18.6	0.00e+00	0	43	102	1048576	7	3985
2026-01-05 10:23:25.09	27.80	21.07	-23.4	-24.4	18.5	0.00e+00	0	44	102	1048576	7	4014
2026-01-05 10:23:26.10	27.55	21.04	-23.3	-24.2	18.6	0.00e+00	0	43	102	1048576	7	3968
2026-01-05 10:23:27.10	27.30	21.00	-23.6	-24.6	18.3	0.00e+00	0	43	102	1048576	7	4084
2026-01-05 10:23:28.12	27.05	20.96	-23.2	-23.9	18.6	0.00e+00	0	43	102	1048576	7	3904
2026-01-05 10:23:29.12	26.80	20.92	-23.1	-23.7	18.8	0.00e+00	0	43	102	1048576	7	3861
2026-01-05 10:23:30.13	26.55	20.88	-23.1	-23.6	18.9	0.00e+00	0	44	102	1048576	7	3836
2026-01-05 10:23:31.13	26.30	20.85	-23.2	-24.0	18.7	0.00e+00	0	43	102	1048576	7	3914
2026-01-05 10:23:32.14	26.06	20.81	-23.1	-23.7	18.8	0.00e+00	0	43	102	1048576	7	3858
2026-01-05 10:23:33.14	25.81	20.77	-23.1	-23.7	18.8	0.00e+00	0	43	102	1048576	7	3866
2026-01-05 10:23:34.15	25.57	20.73	-23.1	-23.6	18.9	0.00e+00	0	43	102	1048576	7	3840
2026-01-05 10:23:35.16	25.32	20.68	-23.2	-23.9	18.7	0.00e+00	0	43	102	1048576	7	3899
2026-01-05 10:23:36.16	25.08	20.64	-23.2	-23.9	18.7	0.00e+00	0	43	102	1048576	7	3914
2026-01-05 10:23:37.17	24.83	20.60	-23.2	-24.0	18.7	0.00e+00	0	44	102	1048576	7	3918
2026-01-05 10:23:38.18	24.59	20.56	-23.2	-24.0	18.7	0.00e+00	0	43	102	1048576	7	3917
2026-01-05 10:23:39.18	24.35	20.52	-23.4	-24.2	18.5	0.00e+00	0	43	102	1048576	7	3985
2026-01-05 10:23:40.18	24.11	20.47	-23.3	-24.0	18.6	0.00e+00	0	43	102	1048576	7	3926
2026-01-05 10:23:41.19	23.87	20.43	-23.4	-24.3	18.5	0.00e+00	0	44	102	1048576	7	3999
2026-01-05 10:23:42.20	23.63	20.38	-23.4	-24.4	18.5	0.00e+00	0	44	102	1048576	7	4016
2026-01-05 10:23:43.21	23.39	20.34	-23.5	-24.5	18.4	0.00e+00	0	43	102	1048576	7	4047
2026-01-05 10:23:44.22	23.15	20.29	-23.4	-24.4	18.4	0.00e+00	0	43	102	1048576	7	4014
2026-01-05 10:23:45.22	22.91	20.25	-23.3	-24.2	18.5	0.00e+00	0	43	102	1048576	7	3971
2026-01-05 10:23:46.23	22.67	20.20	-23.2	-24.0	18.6	0.00e+00	0	44	102	1048576	7	3917
2026-01-05 10:23:47.24	22.43	20.16	-23.4	-24.4	18.5	0.00e+00	0	43	102	1048576	7	4028
2026-01-05 10:23:48.24	22.20	20.11	-23.7	-25.0	18.1	0.00e+00	0	43	102	1048576	7	4176
2026-01-05 10:23:49.25	21.96	20.06	-23.6	-24.7	18.3	0.00e+00	0	43	102	1048576	7	4101
2026-01-05 10:23:50.26	21.73	20.01	-23.9	-24.9	17.9	0.00e+00	0	44	102	1048576	8	4041
2026-01-05 10:23:51.26	21.50	19.97	-23.6	-24.3	18.2	0.00e+00	0	44	102	1048576	8	3890
2026-01-05 10:23:52.27	21.26	19.92	-23.4	-23.8	18.5	0.00e+00	0	43	102	1048576	8	3780
2026-01-05 10:23:53.28	21.03	19.87	-23.3	-24.1	18.6	0.00e+00	0	43	102	1048576	7	3945
2026-01-05 10:23:54.29	20.80	19.82	-23.3	-24.2	18.5	0.00e+00	0	43	102	1048576	7	3974
2026-01-05 10:23:55.30	20.57	19.77	-23.5	-24.5	18.4	0.00e+00	0	44	102	1048576	7	4040
2026-01-05 10:23:56.30	20.34	19.72	-23.6	-24.7	18.3	0.00e+00	0	43	102	1048576	7	4095
2026-01-05 10:23:57.31	20.11	19.67	-23.6	-24.7	18.3	0.00e+00	0	43	102	1048576	7	4097
2026-01-05 10:23:58.31	19.88	19.62	-23.5	-24.6	18.3	0.00e+00	0	43	102	1048576	7	4062
2026-01-05 10:23:59.32	19.65	19.57	-23.5	-24.6	18.3	0.00e+00	0	43	102	1048576	7	4082
2026-01-05 10:24:00.33	19.42	19.52	-23.7	-24.9	18.2	0.00e+00	0	43	102	1048576	7	4152
2026-01-05 10:24:01.34	19.20	19.46	-23.8	-25.2	18.0	0.00e+00	0	44	102	1048576	7	4220
2026-01-05 10:24:02.35	18.97	19.41	-23.8	-25.2	18.0	0.00e+00	0	43	102	1048576	7	4222
2026-01-05 10:24:03.36	18.75	19.36	-23.8	-25.3	17.9	0.00e+00	0	43	102	1048576	7	4249
2026-01-05 10:24:04.37	18.52	19.31	-23.7	-24.9	18.2	0.00e+00	0	43	102	1048576	7	4142
2026-01-05 10:24:05.38	18.30	19.25	-23.6	-24.7	18.2	0.00e+00	0	43	102	1048576	7	4107
2026-01-05 10:24:06.38	18.08	19.20	-23.7	-24.8	18.1	0.00e+00	0	44	102	1048576	7	4128
2026-01-05 10:24:07.39	17.86	19.14	-23.7	-25.0	18.0	0.00e+00	0	43	102	1048576	7	4164
2026-01-05 10:24:08.40	17.63	19.09	-23.9	-25.4	17.9	0.00e+00	0	43	102	1048576	7	4277
2026-01-05 10:24:09.41	17.41	19.03	-23.9	-24.9	17.9	0.00e+00	0	43	102	1048576	8	4038
2026-01-05 10:24:10.41	17.20	18.98	-23.8	-24.8	17.9	0.00e+00	0	44	102	1048576	8	4004
2026-01-05 10:24:11.42	16.98	18.92	-23.8	-24.7	18.0	0.00e+00	0	44	102	1048576	8	3987
2026-01-05 10:24:12.42	16.76	18.87	-23.7	-24.6	18.1	0.00e+00	0	44	102	1048576	8	3955
2026-01-05 10:24:13.43	16.54	18.81	-23.6	-24.3	18.2	0.00e+00	0	43	102	1048576	8	3901
2026-01-05 10:24:14.44	16.33	18.76	-23.7	-24.6	18.0	0.00e+00	0	44	102	1048576	8	3954
2026-01-05 10:24:15.44	16.11	18.70	-23.8	-24.7	17.9	0.00e+00	0	43	102	1048576	8	3989
2026-01-05 10:24:16.44	15.90	18.64	-23.8	-24.7	18.0	0.00e+00	0	44	102	1048576	8	3993
2026-01-05 10:24:17.45	15.69	18.59	-23.8	-24.7	17.9	0.00e+00	0	43	102	1048576	8	3996
2026-01-05 10:24:18.45	15.48	18.53	-23.9	-24.8	17.8	0.00e+00	0	44	102	1048576	8	4025
2026-01-05 10:24:19.46	15.26	18.47	-23.9	-25.0	17.8	0.00e+00	0	44	102	1048576	8	4056
2026-01-05 10:24:20.47	15.05	18.41	-23.9	-24.9	17.8	0.00e+00	0	43	102	1048576	8	4031
2026-01-05 10:24:21.48	14.84	18.36	-23.9	-24.9	17.8	0.00e+00	0	44	102	1048576	8	4032
2026-01-05 10:24:22.49	14.63	18.30	-24.1	-25.2	17.6	0.00e+00	0	44	102	1048576	8	4122
2026-01-05 10:24:23.49	14.43	18.24	-24.0	-25.2	17.7	0.00e+00	0	43	102	1048576	8	4108
2026-01-05 10:24:24.49	14.22	18.18	-23.9	-24.9	17.9	0.00e+00	0	44	102	1048576	8	4026
2026-01-05 10:24:25.50	14.01	18.12	-24.0	-25.1	17.7	0.00e+00	0	43	102	1048576	8	4093
2026-01-05 10:24:26.51	13.81	18.06	-24.1	-25.4	17.5	0.00e+00	0	44	102	1048576	8	4165
2026-01-05 10:24:27.52	13.60	18.00	-24.3	-25.8	17.3	0.00e+00	0	44	102	1048576	8	4267
2026-01-05 10:24:28.52	13.40	17.94	-24.4	-25.9	17.3	0.00e+00	0	43	102	1048576	8	4302
2026-01-05 10:24:29.53	13.19	17.88	-24.4	-26.0	17.2	0.00e+00	0	43	102	1048576	8	4314
2026-01-05 10:24:30.54	12.99	17.82	-24.2	-25.6	17.4	0.00e+00	0	43	102	1048576	8	4211
2026-01-05 10:24:31.55	12.79	17.76	-24.2	-25.5	17.5	0.00e+00	0	44	102	1048576	8	4200
2026-01-05 10:24:32.55	12.59	17.70	-24.3	-25.8	17.3	0.00e+00	0	43	102	1048576	8	4257
2026-01-05 10:24:33.56	12.39	17.64	-24.3	-25.7	17.4	0.00e+00	0	43	102	1048576	8	4249
2026-01-05 10:24:34.57	12.19	17.58	-24.2	-25.6	17.4	0.00e+00	0	44	102	1048576	8	4222
2026-01-05 10:24:35.57	11.99	17.52	-24.3	-25.7	17.4	0.00e+00	0	44	102	1048576	8	4248
2026-01-05 10:24:36.58	11.79	17.46	-24.2	-25.5	17.5	0.00e+00	0	43	102	1048576	8	4194
2026-01-05 10:24:37.59	11.59	17.39	-24.2	-25.5	17.5	0.00e+00	0	43	102	1048576	8	4187
2026-01-05 10:24:38.59	11.40	17.33	-24.0	-25.2	17.6	0.00e+00	0	44	102	1048576	8	4107
2026-01-05 10:24:39.60	11.20	17.27	-23.9	-24.9	17.7	0.00e+00	0	43	102	1048576	8	4038
2026-01-05 10:24:40.60	11.01	17.21	-23.9	-24.9	17.8	0.00e+00	0	43	102	1048576	8	4033
2026-01-05 10:24:41.61	10.82	17.14	-23.9	-25.0	17.7	0.00e+00	0	44	102	1048576	8	4067
2026-01-05 10:24:42.62	10.62	17.08	-24.0	-25.1	17.7	0.00e+00	0	43	102	1048576	8	4096
2026-01-05 10:24:43.62	10.43	17.02	-24.0	-25.1	17.6	0.00e+00	0	43	102	1048576	8	4097
2026-01-05 10:24:44.63	10.24	16.96	-24.0	-25.1	17.7	0.00e+00	0	43	102	1048576	8	4080
2026-01-05 10:24:45.63	10.05	16.89	-24.0	-25.2	17.6	1.60e-05	0	43	102	1048576	8	4109
2026-01-05 10:24:46.64	9.86	16.83	-23.9	-25.0	17.7	0.00e+00	0	43	102	1048576	8	4058
2026-01-05 10:24:47.65	9.67	16.77	-23.8	-24.7	17.9	0.00e+00	0	44	102	1048576	8	3979
2026-01-05 10:24:48.65	9.48	16.70	-23.9	-24.9	17.8	0.00e+00	0	43	102	1048576	8	4030
2026-01-05 10:24:49.65	9.30	16.64	-24.0	-25.2	17.6	0.00e+00	0	43	102	1048576	8	4110
2026-01-05 10:24:50.66	9.11	16.58	-24.0	-25.1	17.6	0.00e+00	0	44	102	1048576	8	4099
2026-01-05 10:24:51.66	8.93	16.51	-24.1	-25.4	17.5	0.00e+00	0	43	102	1048576	8	4170
2026-01-05 10:24:52.67	8.74	16.45	-24.1	-25.3	17.6	0.00e+00	0	43	102	1048576	8	4132
2026-01-05 10:24:53.67	8.56	16.38	-24.1	-25.2	17.5	0.00e+00	0	43	102	1048576	8	4127
2026-01-05 10:24:54.68	8.37	16.32	-24.0	-25.2	17.6	0.00e+00	0	43	102	1048576	8	4114
2026-01-05 10:24:55.68	8.19	16.25	-24.0	-25.2	17.6	0.00e+00	0	44	102	1048576	8	4117
2026-01-05 10:24:56.69	8.01	16.19	-24.1	-25.3	17.5	0.00e+00	0	44	102	1048576	8	4135
2026-01-05 10:24:57.70	7.83	16.12	-24.1	-25.3	17.5	0.00e+00	0	43	102	1048576	8	4152
2026-01-05 10:24:58.70	7.65	16.06	-24.1	-25.3	17.5	0.00e+00	0	43	102	1048576	8	4145
2026-01-05 10:24:59.70	7.47	15.99	-24.0	-25.2	17.5	0.00e+00	0	44	102	1048576	8	4110
2026-01-05 10:25:00.71	7.29	15.93	-24.1	-25.3	17.5	0.00e+00	0	44	102	1048576	8	4139
2026-01-05 10:25:01.72	7.12	15.86	-24.0	-25.2	17.5	0.00e+00	0	44	102	1048576	8	4114
2026-01-05 10:25:02.72	6.94	15.80	-24.0	-25.1	17.6	0.00e+00	0	44	102	1048576	8	4091
2026-01-05 10:25:03.73	6.76	15.73	-24.1	-25.3	17.4	0.00e+00	0	43	102	1048576	8	4148
2026-01-05 10:25:04.74	6.59	15.67	-24.4	-25.9	17.1	0.00e+00	0	43	102	1048576	8	4293
2026-01-05 10:25:05.75	6.41	15.60	-24.4	-25.4	17.2	0.00e+00	0	43	102	1048576	9	4066
2026-01-05 10:25:06.75	6.24	15.54	-24.3	-25.2	17.2	0.00e+00	0	43	102	1048576	9	4009
2026-01-05 10:25:07.75	6.07	15.47	-24.2	-25.0	17.3	0.00e+00	0	43	102	1048576	9	3961
2026-01-05 10:25:08.76	5.90	15.40	-24.3	-25.3	17.2	0.00e+00	0	43	102	1048576	9	4023
2026-01-05 10:25:09.77	5.72	15.34	-24.3	-25.3	17.1	0.00e+00	0	44	102	1048576	9	4037
2026-01-05 10:25:10.77	5.56	15.27	-24.4	-25.5	17.1	0.00e+00	0	43	102	1048576	9	4096
2026-01-05 10:25:11.77	5.39	15.21	-24.5	-25.7	17.0	0.00e+00	0	44	102	1048576	9	4137
2026-01-05 10:25:12.78	5.22	15.14	-24.5	-25.8	16.9	0.00e+00	0	44	102	1048576	9	4167
2026-01-05 10:25:13.79	5.05	15.07	-24.6	-25.9	16.8	0.00e+00	0	44	102	1048576	9	4196
2026-01-05 10:25:14.80	4.88	15.01	-24.7	-26.1	16.7	0.00e+00	0	43	102	1048576	9	4241
2026-01-05 10:25:15.81	4.71	14.94	-24.6	-26.0	16.8	1.10e-06	0	43	102	1048576	9	4211
2026-01-05 10:25:16.82	4.55	14.87	-24.7	-26.1	16.7	0.00e+00	0	44	102	1048576	9	4248
2026-01-05 10:25:17.82	4.38	14.81	-24.6	-26.0	16.8	0.00e+00	0	43	102	1048576	9	4215
2026-01-05 10:25:18.83	4.22	14.74	-24.6	-25.8	16.9	0.00e+00	0	43	102	1048576	9	4169
2026-01-05 10:25:19.84	4.05	14.67	-24.7	-26.1	16.7	0.00e+00	0	44	102	1048576	9	4230
2026-01-05 10:25:20.84	3.89	14.61	-24.7	-26.1	16.7	0.00e+00	0	44	102	1048576	9	4247
2026-01-05 10:25:21.85	3.73	14.54	-24.7	-26.2	16.6	0.00e+00	0	44	102	1048576	9	4271
2026-01-05 10:25:22.86	3.57	14.47	-24.7	-26.2	16.6	0.00e+00	0	43	102	1048576	9	4265
2026-01-05 10:25:23.86	3.41	14.41	-24.7	-26.1	16.7	0.00e+00	0	44	102	1048576	9	4242
2026-01-05 10:25:24.87	3.25	14.34	-24.8	-26.3	16.5	0.00e+00	0	44	102	1048576	9	4302
2026-01-05 10:25:25.88	3.09	14.27	-24.6	-26.0	16.7	0.00e+00	0	43	102	1048576	9	4215
2026-01-05 10:25:26.88	2.93	14.21	-24.5	-25.8	16.8	0.00e+00	0	44	102	1048576	9	4156
2026-01-05 10:25:27.89	2.77	14.14	-24.6	-25.9	16.8	0.00e+00	0	43	102	1048576	9	4194
2026-01-05 10:25:28.90	2.61	14.07	-24.7	-26.1	16.7	0.00e+00	0	43	102	1048576	9	4235
2026-01-05 10:25:29.91	2.46	14.00	-24.9	-26.5	16.5	0.00e+00	0	44	102	1048576	9	4361
2026-01-05 10:25:30.91	2.30	13.94	-24.8	-26.3	16.6	0.00e+00	0	43	102	1048576	9	4304
2026-01-05 10:25:31.92	2.15	13.87	-24.9	-26.7	16.3	0.00e+00	0	43	102	1048576	9	4406
2026-01-05 10:25:32.93	1.99	13.80	-24.8	-25.9	16.5	0.00e+00	0	43	102	1048576	10	4080
2026-01-05 10:25:33.93	1.84	13.74	-24.7	-25.8	16.6	0.00e+00	0	44	102	1048576	10	4047
2026-01-05 10:25:34.94	1.69	13.67	-24.8	-25.9	16.5	0.00e+00	0	44	102	1048576	10	4067
2026-01-05 10:25:35.94	1.54	13.60	-24.8	-25.9	16.5	0.00e+00	0	43	102	1048576	10	4087
2026-01-05 10:25:36.95	1.38	13.53	-24.9	-26.1	16.4	0.00e+00	0	43	102	1048576	10	4127
2026-01-05 10:25:37.95	1.23	13.47	-24.9	-26.1	16.4	0.00e+00	0	43	102	1048576	10	4122
2026-01-05 10:25:38.96	1.08	13.40	-25.0	-26.2	16.3	0.00e+00	0	44	102	1048576	10	4162
2026-01-05 10:25:39.96	0.94	13.33	-24.9	-26.0	16.4	0.00e+00	0	44	102	1048576	10	4120
2026-01-05 10:25:40.97	0.79	13.26	-25.0	-26.2	16.3	0.00e+00	0	44	102	1048576	10	4160
2026-01-05 10:25:41.97	0.64	13.20	-24.9	-26.1	16.4	0.00e+00	0	44	102	1048576	10	4136
2026-01-05 10:25:42.97	0.49	13.13	-24.9	-26.1	16.4	0.00e+00	0	43	102	1048576	10	4129
2026-01-05 10:25:43.98	0.35	13.06	-25.1	-26.5	16.1	0.00e+00	0	44	102	1048576	10	4245
2026-01-05 10:25:44.99	0.20	13.00	-24.9	-26.2	16.3	0.00e+00	0	44	102	1048576	10	4150
2026-01-05 10:25:46.00	0.05	12.93	-25.0	-26.2	16.3	0.00e+00	0	43	102	1048576	10	4158
2026-01-05 10:25:47.01	359.91	12.86	-25.1	-26.4	16.2	0.00e+00	0	44	102	1048576	10	4216
2026-01-05 10:25:48.01	359.77	12.79	-25.1	-26.5	16.1	0.00e+00	0	44	102	1048576	10	4228
2026-01-05 10:25:49.02	359.62	12.73	-25.1	-26.6	16.1	0.00e+00	0	43	102	1048576	10	4256
2026-01-05 10:25:50.03	359.48	12.66	-25.2	-26.7	16.0	0.00e+00	0	43	102	1048576	10	4305
2026-01-05 10:25:51.03	359.34	12.59	-25.1	-26.6	16.1	0.00e+00	0	44	102	1048576	10	4259
2026-01-05 10:25:52.04	359.20	12.52	-25.2	-26.7	16.0	0.00e+00	0	44	102	1048576	10	4293
2026-01-05 10:25:53.05	359.06	12.46	-25.2	-26.7	16.0	1.10e-06	0	44	102	1048576	10	4297
2026-01-05 10:25:54.06	358.92	12.39	-25.2	-26.8	15.9	0.00e+00	0	44	102	1048576	10	4318
2026-01-05 10:25:55.06	358.78	12.32	-25.3	-26.9	15.9	1.10e-06	0	44	102	1048576	10	4351
2026-01-05 10:25:56.07	358.64	12.26	-25.3	-27.0	15.8	0.00e+00	0	44	102	1048576	10	4366
2026-01-05 10:25:57.08	358.50	12.19	-25.4	-27.1	15.7	0.00e+00	0	44	102	1048576	10	4412
2026-01-05 10:25:58.08	358.36	12.12	-25.4	-27.1	15.8	0.00e+00	0	44	102	1048576	10	4409
2026-01-05 10:25:59.09	358.23	12.05	-25.4	-27.3	15.7	0.00e+00	0	44	102	1048576	10	4456
2026-01-05 10:26:00.10	358.09	11.99	-25.4	-27.1	15.8	0.00e+00	0	44	102	1048576	10	4400
2026-01-05 10:26:01.10	357.96	11.92	-25.3	-27.0	15.9	0.00e+00	0	44	102	1048576	10	4363
2026-01-05 10:26:02.11	357.82	11.85	-25.4	-27.2	15.7	0.00e+00	0	44	102	1048576	10	4432
2026-01-05 10:26:03.11	357.69	11.79	-25.3	-26.9	15.8	0.00e+00	0	44	102	1048576	10	4341
2026-01-05 10:26:04.12	357.55	11.72	-25.4	-27.1	15.7	0.00e+00	0	44	102	1048576	10	4404
2026-01-05 10:26:05.13	357.42	11.65	-25.6	-27.1	15.5	0.00e+00	0	43	102	1048576	11	4276
2026-01-05 10:26:06.13	357.29	11.58	-25.5	-26.9	15.6	0.00e+00	0	43	102	1048576	11	4230
2026-01-05 10:26:07.14	357.16	11.52	-25.4	-26.8	15.6	0.00e+00	0	44	102	1048576	11	4211
2026-01-05 10:26:08.14	357.03	11.45	-25.6	-27.0	15.5	0.00e+00	0	44	102	1048576	11	4274
2026-01-05 10:26:09.15	356.90	11.38	-25.6	-27.1	15.5	0.00e+00	0	44	102	1048576	11	4305
2026-01-05 10:26:10.16	356.77	11.32	-25.7	-27.4	15.3	0.00e+00	0	44	102	1048576	11	4357
2026-01-05 10:26:11.16	356.64	11.25	-25.6	-27.0	15.5	0.00e+00	0	44	102	1048576	11	4276
2026-01-05 10:26:12.17	356.51	11.18	-25.6	-27.0	15.5	0.00e+00	0	44	102	1048576	11	4274
2026-01-05 10:26:13.18	356.38	11.12	-25.6	-27.1	15.4	0.00e+00	0	43	102	1048576	11	4286
2026-01-05 10:26:14.18	356.25	11.05	-25.6	-27.1	15.4	0.00e+00	0	44	102	1048576	11	4296
2026-01-05 10:26:15.18	356.13	10.98	-25.7	-27.4	15.3	0.00e+00	0	44	102	1048576	11	4360
2026-01-05 10:26:16.19	356.00	10.92	-25.6	-27.2	15.3	0.00e+00	0	44	102	1048576	11	4306
2026-01-05 10:26:17.20	355.88	10.85	-25.8	-27.5	15.2	0.00e+00	0	43	102	1048576	11	4412
2026-01-05 10:26:18.20	355.75	10.78	-25.7	-27.4	15.2	0.00e+00	0	44	102	1048576	11	4385
2026-01-05 10:26:19.21	355.63	10.72	-25.8	-27.5	15.1	0.00e+00	0	44	102	1048576	11	4405
2026-01-05 10:26:20.21	355.50	10.65	-25.9	-27.9	14.9	0.00e+00	0	44	102	1048576	11	4513
2026-01-05 10:26:21.22	355.38	10.59	-25.7	-27.3	15.2	0.00e+00	0	43	102	1048576	11	4354
2026-01-05 10:26:22.23	355.26	10.52	-25.5	-27.0	15.4	0.00e+00	0	44	102	1048576	11	4270
2026-01-05 10:26:23.24	355.14	10.45	-25.7	-27.3	15.3	0.00e+00	0	44	102	1048576	11	4347
2026-01-05 10:26:24.24	355.01	10.39	-25.7	-27.4	15.2	0.00e+00	0	44	102	1048576	11	4361
2026-01-05 10:26:25.25	354.89	10.32	-25.8	-27.5	15.1	1.10e-06	0	44	102	1048576	11	4417
2026-01-05 10:26:26.26	354.77	10.25	-25.9	-27.8	15.0	0.00e+00	0	44	102	1048576	11	4489
2026-01-05 10:26:27.26	354.65	10.19	-25.8	-27.7	15.0	0.00e+00	0	44	102	1048576	11	4445
2026-01-05 10:26:28.27	354.53	10.12	-25.8	-27.6	15.0	0.00e+00	0	43	102	1048576	11	4445
2026-01-05 10:26:29.28	354.41	10.06	-25.9	-27.9	14.9	1.10e-06	0	44	102	1048576	11	4533
2026-01-05 10:26:30.29	354.30	9.99	-25.9	-27.8	14.9	2.20e-06	0	43	102	1048576	11	4490
2026-01-05 10:26:31.29	354.18	9.92	-25.9	-27.8	14.9	2.20e-06	0	44	102	1048576	11	4490
2026-01-05 10:26:32.30	354.06	9.86	-26.0	-27.6	14.7	1.10e-06	0	44	102	1048576	12	4318
2026-01-05 10:26:33.30	353.95	9.79	-26.0	-27.5	14.7	0.00e+00	0	44	102	1048576	12	4307
2026-01-05 10:26:34.31	353.83	9.73	-25.9	-27.3	14.9	0.00e+00	0	44	102	1048576	12	4235
2026-01-05 10:26:35.31	353.71	9.66	-25.9	-27.4	14.8	0.00e+00	0	43	102	1048576	12	4258
2026-01-05 10:26:36.32	353.60	9.60	-25.9	-27.4	14.8	1.10e-06	0	44	102	1048576	12	4281
2026-01-05 10:26:37.33	353.48	9.53	-25.9	-27.5	14.8	0.00e+00	0	44	102	1048576	12	4286
2026-01-05 10:26:38.34	353.37	9.47	-26.0	-27.6	14.7	0.00e+00	0	43	102	1048576	12	4312
2026-01-05 10:26:39.35	353.26	9.40	-26.0	-27.5	14.7	2.20e-06	0	44	102	1048576	12	4309
2026-01-05 10:26:40.36	353.14	9.33	-26.1	-27.7	14.6	1.10e-06	0	44	102	1048576	12	4363
2026-01-05 10:26:41.37	353.03	9.27	-26.1	-27.7	14.5	3.40e-06	0	44	102	1048576	12	4360
2026-01-05 10:26:42.37	352.92	9.20	-26.0	-27.5	14.7	0.00e+00	0	43	102	1048576	12	4310
2026-01-05 10:26:43.38	352.81	9.14	-26.1	-27.9	14.4	1.10e-06	0	43	102	1048576	12	4416
2026-01-05 10:26:44.39	352.70	9.07	-26.3	-28.3	14.2	2.20e-06	0	43	102	1048576	12	4536
2026-01-05 10:26:45.39	352.59	9.01	-26.3	-28.3	14.2	5.70e-06	0	44	102	1048576	12	4530
2026-01-05 10:26:46.40	352.48	8.94	-26.4	-28.4	14.2	2.20e-06	0	44	102	1048576	12	4562
2026-01-05 10:26:47.43	352.37	8.88	-26.4	-28.1	14.0	4.50e-06	0	44	102	1048576	13	4357
2026-01-05 10:26:48.37	352.26	8.82	-26.6	-28.5	13.8	9.10e-06	0	43	102	1048576	13	4471
2026-01-05 10:26:49.37	352.16	8.75	-26.5	-28.2	14.0	4.50e-06	0	44	102	1048576	13	4397
2026-01-05 10:26:50.38	352.05	8.69	-26.5	-28.3	13.9	2.20e-06	0	43	102	1048576	13	4419
2026-01-05 10:26:51.38	351.94	8.62	-26.4	-28.0	14.0	2.20e-06	0	44	102	1048576	13	4344
2026-01-05 10:26:52.39	351.83	8.56	-26.5	-28.3	13.9	1.10e-06	0	44	102	1048576	13	4408
2026-01-05 10:26:53.40	351.73	8.49	-26.7	-28.8	13.6	1.83e-05	0	44	102	1048576	13	4562
2026-01-05 10:26:54.41	351.62	8.43	-26.5	-28.2	14.0	5.70e-06	0	44	102	1048576	13	4382
2026-01-05 10:26:55.41	351.52	8.37	-26.3	-27.8	14.2	1.10e-06	0	44	102	1048576	13	4282
2026-01-05 10:26:56.42	351.41	8.30	-26.2	-27.6	14.3	1.10e-06	0	43	102	1048576	13	4226
2026-01-05 10:26:57.43	351.31	8.24	-26.2	-27.5	14.3	0.00e+00	0	43	102	1048576	13	4209
2026-01-05 10:26:58.43	351.20	8.17	-26.2	-27.7	14.2	2.20e-06	0	44	102	1048576	13	4247
2026-01-05 10:26:59.44	351.10	8.11	-26.2	-27.5	14.3	2.20e-06	0	44	102	1048576	13	4196
2026-01-05 10:27:00.45	351.00	8.05	-26.2	-27.6	14.2	2.20e-06	0	44	102	1048576	13	4230
2026-01-05 10:27:01.46	350.89	7.98	-26.2	-27.6	14.2	2.20e-06	0	44	102	1048576	13	4223
2026-01-05 10:27:02.46	350.79	7.92	-26.3	-27.8	14.1	2.20e-06	0	43	102	1048576	13	4270
2026-01-05 10:27:03.46	350.69	7.85	-26.3	-27.8	14.1	4.50e-06	0	44	102	1048576	13	4291
2026-01-05 10:27:04.48	350.59	7.79	-26.2	-27.6	14.3	1.10e-06	0	44	102	1048576	13	4215
2026-01-05 10:27:05.49	350.49	7.73	-26.3	-27.8	14.1	0.00e+00	0	43	102	1048576	13	4279
2026-01-05 10:27:06.50	350.39	7.66	-26.3	-27.7	14.2	1.10e-06	0	43	102	1048576	13	4259
2026-01-05 10:27:07.50	350.29	7.60	-26.3	-27.9	14.1	4.50e-06	0	43	102	1048576	13	4305
2026-01-05 10:27:08.51	350.19	7.54	-26.4	-28.0	14.0	3.40e-06	0	44	102	1048576	13	4335
2026-01-05 10:27:09.52	350.09	7.47	-26.4	-28.1	13.9	3.40e-06	0	44	102	1048576	13	4370
2026-01-05 10:27:10.52	349.99	7.41	-26.3	-27.9	14.0	2.20e-06	0	43	102	1048576	13	4304
2026-01-05 10:27:11.53	349.89	7.35	-26.6	-28.5	13.7	3.40e-06	0	44	102	1048576	13	4489
2026-01-05 10:27:12.54	349.80	7.28	-26.6	-28.6	13.6	1.25e-05	0	44	102	1048576	13	4532
2026-01-05 10:27:13.54	349.70	7.22	-26.5	-28.2	13.8	4.50e-06	0	43	102	1048576	13	4401
2026-01-05 10:27:14.54	349.60	7.16	-26.3	-27.9	14.0	4.50e-06	0	44	102	1048576	13	4311
2026-01-05 10:27:15.54	349.51	7.10	-26.4	-28.0	13.9	1.37e-05	0	43	102	1048576	13	4354
2026-01-05 10:27:16.55	349.41	7.03	-31.9	-40.7	4.2	1.71e-01	0	44	102	1048576	23	9832

#Closed at: 2026-01-05 10:27:17
#Recorded file [1 MB]: D:/data/31010_260105_131810.dat