passes_logs/2026/01/05/R2M6_AANII_01/R2M6_AANII_01__20260105_093549_NOAA_20_JPSS-1_rec.log

#Pass ID: 20260105_093549_NOAA 20 (JPSS-1)
#Satellite: NOAA 20 (JPSS-1)
#Configuration: NOAA 20
#almurnet v.1.7.20240730
#Start time: 2026-01-05 09:35:48

#Version: 2.2.20231116
#Station: R2M6_AANII_01
#Location: 30.233357 lon 59.946436 lat
#TLE: 1 43013U 17073A   26004.47528369  .00000132  00000+0  83671-4 0  9999
#TLE: 2 43013  98.7626 305.5264 0001854  54.5883 305.5466 14.19533142421242

#Time	Az	El	Level	Level2	SNR	BER	BlckErr	Temp	State	Recorded	gain1	gain2
2026-01-05 09:35:48.51	137.90	6.95	-31.0	-37.7	4.7	1.34e+00	0	41	0	0	23	7750
2026-01-05 09:35:49.52	137.87	7.03	-31.0	-37.5	4.8	1.33e+00	0	41	104	0	23	7597
2026-01-05 09:35:50.53	137.84	7.10	-31.0	-37.5	6.8	1.88e-01	0	41	0	0	23	7613
2026-01-05 09:35:51.53	137.80	7.18	-31.0	-37.4	6.9	1.76e-01	0	41	102	1048576	23	7518
2026-01-05 09:35:52.54	137.77	7.26	-31.1	-37.7	6.7	1.88e-01	0	41	102	1048576	23	7738
2026-01-05 09:35:53.55	137.73	7.34	-31.0	-37.6	6.7	2.04e-01	0	41	102	1048576	23	7660
2026-01-05 09:35:54.56	137.69	7.41	-31.0	-37.5	6.8	1.86e-01	0	41	102	1048576	23	7629
2026-01-05 09:35:55.57	137.66	7.49	-31.0	-37.4	6.9	1.76e-01	0	41	102	1048576	23	7505
2026-01-05 09:35:56.57	137.62	7.57	-30.9	-36.7	7.4	1.55e-01	0	41	102	1048576	23	7082
2026-01-05 09:35:57.58	137.59	7.65	-30.8	-36.8	7.8	9.86e-02	0	41	102	1048576	22	7180
2026-01-05 09:35:58.58	137.55	7.72	-30.8	-37.0	7.6	7.23e-02	0	41	102	1048576	22	7315
2026-01-05 09:35:59.59	137.51	7.80	-30.8	-36.9	7.7	1.13e-01	0	41	102	1048576	22	7275
2026-01-05 09:36:00.59	137.48	7.88	-30.6	-36.0	8.4	6.80e-02	0	41	102	1048576	22	6692
2026-01-05 09:36:01.59	137.44	7.96	-30.3	-34.9	9.2	2.44e-02	0	41	102	1048576	22	6103
2026-01-05 09:36:02.60	137.40	8.04	-30.1	-34.5	10.0	1.14e-02	0	41	102	1048576	21	5955
2026-01-05 09:36:03.62	137.37	8.12	-29.9	-33.7	10.6	5.26e-03	0	41	102	1048576	21	5572
2026-01-05 09:36:04.62	137.33	8.20	-29.7	-33.5	11.1	1.89e-03	0	41	102	1048576	20	5588
2026-01-05 09:36:05.63	137.29	8.28	-29.7	-33.4	11.2	1.19e-03	0	41	102	1048576	20	5554
2026-01-05 09:36:06.64	137.25	8.36	-29.7	-33.5	11.1	1.88e-03	0	41	102	1048576	20	5581
2026-01-05 09:36:07.65	137.22	8.44	-29.7	-33.4	11.2	1.44e-03	0	41	102	1048576	20	5530
2026-01-05 09:36:08.65	137.18	8.52	-29.8	-33.8	11.0	1.70e-03	0	41	102	1048576	20	5714
2026-01-05 09:36:09.65	137.14	8.60	-29.8	-33.7	11.0	2.17e-03	0	41	102	1048576	20	5656
2026-01-05 09:36:10.66	137.10	8.68	-29.7	-33.5	11.3	1.43e-03	0	41	102	1048576	20	5535
2026-01-05 09:36:11.66	137.06	8.76	-29.7	-33.5	11.3	1.18e-03	0	41	102	1048576	20	5543
2026-01-05 09:36:12.66	137.02	8.84	-29.7	-33.4	11.4	1.09e-03	0	42	102	1048576	20	5503
2026-01-05 09:36:13.67	136.98	8.93	-29.8	-33.6	11.2	9.91e-04	0	42	102	1048576	20	5598
2026-01-05 09:36:14.67	136.94	9.01	-29.7	-33.5	11.3	1.27e-03	0	41	102	1048576	20	5533
2026-01-05 09:36:15.68	136.90	9.09	-29.6	-33.1	11.6	7.77e-04	0	42	102	1048576	20	5351
2026-01-05 09:36:16.69	136.86	9.17	-29.5	-32.8	11.9	5.13e-04	0	42	102	1048576	20	5234
2026-01-05 09:36:17.69	136.82	9.25	-29.5	-32.6	12.0	3.55e-04	0	42	102	1048576	20	5157
2026-01-05 09:36:18.70	136.78	9.34	-29.4	-32.4	12.1	2.61e-04	0	41	102	1048576	20	5085
2026-01-05 09:36:19.71	136.74	9.42	-29.5	-32.5	12.1	2.55e-04	0	42	102	1048576	20	5124
2026-01-05 09:36:20.71	136.70	9.51	-29.4	-32.5	12.1	2.97e-04	0	42	102	1048576	20	5110
2026-01-05 09:36:21.72	136.66	9.59	-29.4	-32.4	12.1	1.96e-04	0	42	102	1048576	20	5094
2026-01-05 09:36:22.72	136.62	9.67	-29.4	-32.5	12.1	2.50e-04	0	42	102	1048576	20	5113
2026-01-05 09:36:23.73	136.57	9.76	-29.5	-32.7	12.0	2.71e-04	0	42	102	1048576	20	5197
2026-01-05 09:36:24.74	136.53	9.84	-29.5	-32.8	11.9	4.26e-04	0	42	102	1048576	20	5240
2026-01-05 09:36:25.74	136.49	9.93	-29.5	-32.8	11.9	4.20e-04	0	42	102	1048576	20	5225
2026-01-05 09:36:26.75	136.45	10.01	-29.7	-33.3	11.6	5.33e-04	0	42	102	1048576	20	5423
2026-01-05 09:36:27.76	136.40	10.10	-29.8	-33.4	11.5	7.81e-04	0	42	102	1048576	20	5506
2026-01-05 09:36:28.76	136.36	10.18	-29.8	-33.6	11.3	1.11e-03	0	42	102	1048576	20	5596
2026-01-05 09:36:29.76	136.32	10.27	-29.8	-33.5	11.4	9.12e-04	0	42	102	1048576	20	5540
2026-01-05 09:36:30.77	136.27	10.36	-29.8	-33.4	11.5	7.99e-04	0	42	102	1048576	20	5496
2026-01-05 09:36:31.78	136.23	10.44	-29.8	-33.5	11.5	7.06e-04	0	42	102	1048576	20	5509
2026-01-05 09:36:32.78	136.18	10.53	-29.8	-33.7	11.4	8.57e-04	0	42	102	1048576	20	5580
2026-01-05 09:36:33.79	136.14	10.62	-30.0	-34.0	11.1	1.11e-03	0	42	102	1048576	20	5753
2026-01-05 09:36:34.79	136.09	10.70	-29.8	-33.6	11.5	1.12e-03	0	42	102	1048576	20	5538
2026-01-05 09:36:35.80	136.05	10.79	-29.7	-33.1	11.8	6.05e-04	0	42	102	1048576	20	5328
2026-01-05 09:36:36.81	136.00	10.88	-29.6	-32.8	12.0	3.56e-04	0	42	102	1048576	20	5223
2026-01-05 09:36:37.81	135.96	10.97	-29.6	-32.9	12.0	3.11e-04	0	42	102	1048576	20	5265
2026-01-05 09:36:38.82	135.91	11.06	-29.7	-33.2	11.8	3.73e-04	0	42	102	1048576	20	5379
2026-01-05 09:36:39.82	135.86	11.15	-29.7	-33.2	11.8	5.13e-04	0	42	102	1048576	20	5362
2026-01-05 09:36:40.83	135.82	11.24	-29.9	-33.8	11.3	5.38e-04	0	42	102	1048576	20	5662
2026-01-05 09:36:41.84	135.77	11.33	-29.9	-33.7	11.4	1.01e-03	0	42	102	1048576	20	5596
2026-01-05 09:36:42.85	135.72	11.42	-30.0	-34.2	11.1	1.08e-03	0	42	102	1048576	20	5817
2026-01-05 09:36:43.85	135.67	11.51	-29.9	-33.8	11.4	1.59e-03	0	42	102	1048576	20	5638
2026-01-05 09:36:44.86	135.63	11.60	-29.7	-33.1	11.9	5.17e-04	0	42	102	1048576	20	5356
2026-01-05 09:36:45.87	135.58	11.69	-29.6	-32.8	12.1	2.83e-04	0	42	102	1048576	20	5202
2026-01-05 09:36:46.87	135.53	11.78	-29.4	-32.2	12.5	1.48e-04	0	42	102	1048576	20	4973
2026-01-05 09:36:47.88	135.48	11.87	-29.3	-31.9	12.7	7.01e-05	0	42	102	1048576	20	4867
2026-01-05 09:36:48.88	135.43	11.96	-29.3	-32.4	12.8	5.79e-05	0	42	102	1048576	19	5137
2026-01-05 09:36:49.89	135.38	12.06	-29.3	-32.3	12.9	5.03e-05	0	42	102	1048576	19	5092
2026-01-05 09:36:50.90	135.33	12.15	-29.4	-32.5	12.8	4.65e-05	0	42	102	1048576	19	5178
2026-01-05 09:36:51.91	135.28	12.24	-29.3	-32.4	12.8	6.17e-05	0	42	102	1048576	19	5149
2026-01-05 09:36:52.91	135.23	12.33	-29.3	-32.5	12.8	5.72e-05	0	42	102	1048576	19	5167
2026-01-05 09:36:53.92	135.18	12.43	-29.4	-32.7	12.7	7.01e-05	0	42	102	1048576	19	5243
2026-01-05 09:36:54.93	135.13	12.52	-29.5	-33.0	12.5	9.61e-05	0	42	102	1048576	19	5358
2026-01-05 09:36:55.93	135.08	12.62	-29.4	-32.8	12.6	9.38e-05	0	42	102	1048576	19	5287
2026-01-05 09:36:56.94	135.02	12.71	-29.4	-32.8	12.6	8.69e-05	0	42	102	1048576	19	5276
2026-01-05 09:36:57.95	134.97	12.81	-29.5	-32.9	12.5	9.38e-05	0	42	102	1048576	19	5327
2026-01-05 09:36:58.94	134.92	12.90	-29.5	-33.1	12.4	1.27e-04	0	42	102	1048576	19	5405
2026-01-05 09:36:59.95	134.87	13.00	-29.4	-32.7	12.6	1.13e-04	0	42	102	1048576	19	5273
2026-01-05 09:37:00.96	134.81	13.09	-29.3	-32.4	12.9	6.33e-05	0	42	102	1048576	19	5138
2026-01-05 09:37:01.97	134.76	13.19	-29.3	-32.3	12.9	4.42e-05	0	42	102	1048576	19	5108
2026-01-05 09:37:02.98	134.70	13.29	-29.3	-32.4	12.9	4.04e-05	0	42	102	1048576	19	5121
2026-01-05 09:37:03.98	134.65	13.38	-29.2	-32.0	13.2	4.95e-05	0	42	102	1048576	19	4968
2026-01-05 09:37:04.99	134.60	13.48	-29.2	-32.0	13.1	3.35e-05	0	43	102	1048576	19	4985
2026-01-05 09:37:06.00	134.54	13.58	-29.2	-32.1	13.1	2.89e-05	0	42	102	1048576	19	5020
2026-01-05 09:37:07.00	134.48	13.68	-29.4	-32.6	12.8	4.11e-05	0	43	102	1048576	19	5201
2026-01-05 09:37:08.01	134.43	13.77	-29.3	-32.3	13.0	4.11e-05	0	43	102	1048576	19	5088
2026-01-05 09:37:09.01	134.37	13.87	-29.4	-32.6	12.7	4.80e-05	0	43	102	1048576	19	5218
2026-01-05 09:37:10.02	134.31	13.97	-29.4	-32.5	12.8	5.79e-05	0	42	102	1048576	19	5175
2026-01-05 09:37:11.03	134.26	14.07	-29.3	-32.2	13.0	3.43e-05	0	43	102	1048576	19	5065
2026-01-05 09:37:12.04	134.20	14.17	-29.3	-32.3	13.0	2.36e-05	0	42	102	1048576	19	5091
2026-01-05 09:37:13.05	134.14	14.27	-29.4	-32.5	12.8	5.41e-05	0	43	102	1048576	19	5176
2026-01-05 09:37:14.06	134.08	14.37	-29.2	-32.1	13.1	4.42e-05	0	43	102	1048576	19	5010
2026-01-05 09:37:15.07	134.02	14.48	-29.2	-31.9	13.2	2.67e-05	0	43	102	1048576	19	4950
2026-01-05 09:37:16.08	133.96	14.58	-29.1	-31.8	13.3	1.37e-05	0	43	102	1048576	19	4917
2026-01-05 09:37:17.09	133.90	14.68	-29.2	-32.0	13.3	1.67e-05	0	43	102	1048576	19	4960
2026-01-05 09:37:18.09	133.84	14.78	-29.1	-31.8	13.4	2.36e-05	0	43	102	1048576	19	4890
2026-01-05 09:37:19.09	133.78	14.88	-29.1	-31.9	13.3	1.90e-05	0	43	102	1048576	19	4919
2026-01-05 09:37:20.10	133.72	14.99	-29.2	-32.0	13.3	1.75e-05	0	43	102	1048576	19	4969
2026-01-05 09:37:21.11	133.66	15.09	-29.2	-31.9	13.3	1.75e-05	0	43	102	1048576	19	4936
2026-01-05 09:37:22.11	133.60	15.19	-29.1	-31.8	13.4	1.37e-05	0	42	102	1048576	19	4913
2026-01-05 09:37:23.12	133.54	15.30	-29.2	-32.1	13.2	1.44e-05	0	42	102	1048576	19	4994
2026-01-05 09:37:24.12	133.47	15.40	-29.2	-31.8	13.5	1.06e-05	0	43	102	1048576	19	4893
2026-01-05 09:37:25.13	133.41	15.51	-29.1	-31.6	13.6	6.80e-06	0	43	102	1048576	19	4826
2026-01-05 09:37:26.14	133.35	15.62	-29.1	-31.7	13.6	6.80e-06	0	43	102	1048576	19	4846
2026-01-05 09:37:27.14	133.28	15.72	-29.3	-32.1	13.4	9.90e-06	0	43	102	1048576	19	4968
2026-01-05 09:37:28.15	133.22	15.83	-29.2	-31.7	13.6	1.14e-05	0	43	102	1048576	19	4850
2026-01-05 09:37:29.15	133.15	15.93	-29.1	-31.6	13.7	1.22e-05	0	43	102	1048576	19	4806
2026-01-05 09:37:30.16	133.09	16.04	-29.2	-31.7	13.6	6.80e-06	0	43	102	1048576	19	4838
2026-01-05 09:37:31.17	133.02	16.15	-29.2	-31.8	13.6	8.30e-06	0	43	102	1048576	19	4877
2026-01-05 09:37:32.17	132.95	16.26	-29.3	-32.0	13.4	6.80e-06	0	43	102	1048576	19	4961
2026-01-05 09:37:33.18	132.89	16.37	-29.2	-31.9	13.5	7.60e-06	0	43	102	1048576	19	4901
2026-01-05 09:37:34.19	132.82	16.48	-29.1	-31.7	13.6	9.90e-06	0	43	102	1048576	19	4840
2026-01-05 09:37:35.20	132.75	16.59	-29.1	-31.7	13.6	6.10e-06	0	43	102	1048576	19	4839
2026-01-05 09:37:36.20	132.68	16.69	-29.1	-31.5	13.8	1.14e-05	0	43	102	1048576	19	4768
2026-01-05 09:37:37.21	132.61	16.81	-29.1	-31.5	13.7	4.50e-06	0	43	102	1048576	19	4772
2026-01-05 09:37:38.22	132.54	16.92	-29.1	-31.6	13.7	9.10e-06	0	43	102	1048576	19	4797
2026-01-05 09:37:39.23	132.47	17.03	-29.1	-31.5	13.8	7.60e-06	0	43	102	1048576	19	4753
2026-01-05 09:37:40.23	132.40	17.14	-29.1	-31.6	13.7	6.10e-06	0	43	102	1048576	19	4789
2026-01-05 09:37:41.23	132.33	17.25	-29.2	-31.7	13.7	6.10e-06	0	43	102	1048576	19	4832
2026-01-05 09:37:42.24	132.26	17.36	-29.2	-31.8	13.7	7.60e-06	0	43	102	1048576	19	4856
2026-01-05 09:37:43.25	132.19	17.48	-29.2	-31.7	13.7	4.50e-06	0	43	102	1048576	19	4815
2026-01-05 09:37:44.25	132.11	17.59	-29.1	-31.6	13.8	3.80e-06	0	43	102	1048576	19	4794
2026-01-05 09:37:45.26	132.04	17.71	-29.2	-31.7	13.7	3.80e-06	0	43	102	1048576	19	4827
2026-01-05 09:37:46.27	131.96	17.82	-29.0	-31.3	14.0	6.10e-06	0	43	102	1048576	19	4687
2026-01-05 09:37:47.27	131.89	17.93	-29.0	-31.4	14.0	3.00e-06	0	43	102	1048576	19	4698
2026-01-05 09:37:48.28	131.81	18.05	-29.0	-31.3	14.1	3.00e-06	0	43	102	1048576	19	4663
2026-01-05 09:37:49.29	131.74	18.17	-29.0	-31.2	14.1	7.00e-07	0	43	102	1048576	19	4628
2026-01-05 09:37:50.30	131.66	18.28	-29.1	-31.5	13.9	7.00e-07	0	43	102	1048576	19	4741
2026-01-05 09:37:51.30	131.58	18.40	-29.2	-31.7	13.8	2.20e-06	0	43	102	1048576	19	4796
2026-01-05 09:37:52.31	131.51	18.52	-29.2	-31.7	13.9	6.80e-06	0	43	102	1048576	19	4799
2026-01-05 09:37:53.32	131.43	18.64	-29.2	-31.8	13.7	6.10e-06	0	43	102	1048576	19	4866
2026-01-05 09:37:54.33	131.35	18.76	-29.2	-31.8	13.8	4.50e-06	0	43	102	1048576	19	4849
2026-01-05 09:37:55.33	131.27	18.87	-29.2	-31.8	13.8	3.80e-06	0	43	102	1048576	19	4831
2026-01-05 09:37:56.33	131.19	18.99	-29.2	-31.8	13.8	3.00e-06	0	43	102	1048576	19	4848
2026-01-05 09:37:57.34	131.11	19.11	-29.2	-31.8	13.8	7.60e-06	0	43	102	1048576	19	4836
2026-01-05 09:37:58.34	131.03	19.23	-29.1	-31.6	13.9	1.50e-06	0	43	102	1048576	19	4782
2026-01-05 09:37:59.35	130.94	19.36	-29.2	-31.7	13.9	3.80e-06	0	43	102	1048576	19	4824
2026-01-05 09:38:00.34	130.86	19.48	-29.3	-31.9	13.8	3.00e-06	0	43	102	1048576	19	4882
2026-01-05 09:38:01.33	130.78	19.60	-29.3	-32.0	13.7	3.80e-06	0	43	102	1048576	19	4911
2026-01-05 09:38:02.34	130.69	19.72	-29.4	-32.2	13.6	8.30e-06	0	43	102	1048576	19	4983
2026-01-05 09:38:03.34	130.61	19.84	-29.4	-32.2	13.6	3.00e-06	0	43	102	1048576	19	4996
2026-01-05 09:38:04.35	130.52	19.97	-29.4	-32.3	13.6	7.60e-06	0	43	102	1048576	19	5015
2026-01-05 09:38:05.36	130.44	20.09	-29.4	-32.4	13.5	6.80e-06	0	43	102	1048576	19	5043
2026-01-05 09:38:06.37	130.35	20.22	-29.5	-32.4	13.5	9.10e-06	0	43	102	1048576	19	5061
2026-01-05 09:38:07.38	130.26	20.34	-29.5	-32.4	13.5	6.10e-06	0	43	102	1048576	19	5041
2026-01-05 09:38:08.39	130.17	20.47	-29.5	-32.5	13.5	6.80e-06	0	43	102	1048576	19	5075
2026-01-05 09:38:09.40	130.08	20.60	-29.5	-32.6	13.4	1.44e-05	0	43	102	1048576	19	5134
2026-01-05 09:38:10.41	129.99	20.72	-29.6	-32.7	13.3	1.06e-05	0	43	102	1048576	19	5167
2026-01-05 09:38:11.42	129.90	20.85	-29.6	-32.8	13.3	2.89e-05	0	43	102	1048576	19	5202
2026-01-05 09:38:12.42	129.81	20.98	-29.7	-33.0	13.2	1.83e-05	0	43	102	1048576	19	5262
2026-01-05 09:38:13.43	129.71	21.11	-29.8	-33.2	13.0	2.28e-05	0	43	102	1048576	19	5340
2026-01-05 09:38:14.44	129.62	21.24	-29.8	-33.3	13.0	4.11e-05	0	43	102	1048576	19	5383
2026-01-05 09:38:15.44	129.53	21.37	-29.8	-33.2	13.0	2.97e-05	0	43	102	1048576	19	5339
2026-01-05 09:38:16.45	129.43	21.50	-29.7	-33.1	13.2	3.43e-05	0	43	102	1048576	19	5280
2026-01-05 09:38:17.45	129.34	21.63	-29.9	-33.4	12.9	4.34e-05	0	43	102	1048576	19	5428
2026-01-05 09:38:18.46	129.24	21.76	-29.9	-33.5	12.9	5.26e-05	0	43	102	1048576	19	5451
2026-01-05 09:38:19.47	129.14	21.90	-29.9	-33.5	12.9	3.28e-05	0	43	102	1048576	19	5442
2026-01-05 09:38:20.48	129.04	22.03	-29.9	-33.6	12.8	5.64e-05	0	43	102	1048576	19	5495
2026-01-05 09:38:21.49	128.94	22.16	-29.9	-33.5	12.9	3.73e-05	0	43	102	1048576	19	5454
2026-01-05 09:38:22.49	128.84	22.30	-30.0	-33.4	12.6	7.70e-05	0	43	102	1048576	20	5314
2026-01-05 09:38:23.50	128.74	22.43	-30.2	-34.0	12.2	1.20e-04	0	43	102	1048576	20	5555
2026-01-05 09:38:24.50	128.64	22.57	-30.2	-33.9	12.2	3.38e-04	0	43	102	1048576	20	5539
2026-01-05 09:38:25.50	128.54	22.70	-30.0	-33.5	12.5	1.48e-04	0	43	102	1048576	20	5342
2026-01-05 09:38:26.51	128.43	22.84	-29.9	-33.1	12.8	8.54e-05	0	43	102	1048576	20	5181
2026-01-05 09:38:27.51	128.33	22.98	-29.8	-32.8	13.0	3.05e-05	0	43	102	1048576	20	5085
2026-01-05 09:38:28.52	128.22	23.11	-29.9	-33.0	12.9	3.35e-05	0	43	102	1048576	20	5160
2026-01-05 09:38:29.52	128.12	23.25	-29.9	-33.2	12.7	7.17e-05	0	43	102	1048576	20	5215
2026-01-05 09:38:30.53	128.01	23.39	-30.0	-33.3	12.7	1.01e-04	0	43	102	1048576	20	5277
2026-01-05 09:38:31.54	127.90	23.53	-30.1	-33.6	12.5	1.05e-04	0	43	102	1048576	20	5387
2026-01-05 09:38:32.54	127.79	23.67	-30.1	-33.6	12.5	1.39e-04	0	43	102	1048576	20	5380
2026-01-05 09:38:33.55	127.68	23.81	-30.2	-33.8	12.4	1.75e-04	0	43	102	1048576	20	5469
2026-01-05 09:38:34.56	127.57	23.96	-30.2	-34.0	12.3	2.07e-04	0	43	102	1048576	20	5534
2026-01-05 09:38:35.57	127.45	24.10	-30.2	-33.9	12.3	9.99e-05	0	43	102	1048576	20	5511
2026-01-05 09:38:36.58	127.34	24.24	-30.2	-33.8	12.4	2.01e-04	0	43	102	1048576	20	5472
2026-01-05 09:38:37.58	127.23	24.39	-30.1	-33.6	12.6	1.14e-04	0	43	102	1048576	20	5366
2026-01-05 09:38:38.59	127.11	24.53	-30.1	-33.7	12.5	9.23e-05	0	43	102	1048576	20	5427
2026-01-05 09:38:39.60	126.99	24.68	-30.2	-33.8	12.4	1.79e-04	0	43	102	1048576	20	5478
2026-01-05 09:38:40.60	126.87	24.82	-30.2	-33.9	12.4	1.81e-04	0	43	102	1048576	20	5511
2026-01-05 09:38:41.61	126.76	24.97	-30.3	-34.1	12.2	2.41e-04	0	43	102	1048576	20	5592
2026-01-05 09:38:42.62	126.63	25.12	-30.3	-34.2	12.2	2.56e-04	0	43	102	1048576	20	5615
2026-01-05 09:38:43.63	126.51	25.27	-30.3	-34.3	12.1	2.33e-04	0	43	102	1048576	20	5670
2026-01-05 09:38:44.64	126.39	25.41	-30.4	-34.5	11.9	3.43e-04	0	43	102	1048576	20	5784
2026-01-05 09:38:45.64	126.27	25.56	-30.4	-34.1	11.8	5.35e-04	0	43	102	1048576	21	5492
2026-01-05 09:38:46.65	126.14	25.71	-30.4	-34.1	11.9	3.17e-04	0	43	102	1048576	21	5481
2026-01-05 09:38:47.66	126.01	25.86	-30.5	-34.3	11.7	5.21e-04	0	43	102	1048576	21	5592
2026-01-05 09:38:48.66	125.89	26.02	-30.5	-34.2	11.8	6.85e-04	0	43	102	1048576	21	5530
2026-01-05 09:38:49.67	125.76	26.17	-30.6	-34.5	11.6	5.72e-04	0	43	102	1048576	21	5654
2026-01-05 09:38:50.68	125.63	26.32	-30.5	-34.2	11.8	5.47e-04	0	43	102	1048576	21	5528
2026-01-05 09:38:51.69	125.49	26.48	-30.5	-34.1	11.9	3.21e-04	0	43	102	1048576	21	5485
2026-01-05 09:38:52.70	125.36	26.63	-30.5	-34.2	11.8	4.42e-04	0	43	102	1048576	21	5530
2026-01-05 09:38:53.70	125.23	26.78	-30.6	-34.5	11.6	7.03e-04	0	43	102	1048576	21	5641
2026-01-05 09:38:54.70	125.09	26.94	-30.6	-34.6	11.5	9.30e-04	0	43	102	1048576	21	5701
2026-01-05 09:38:55.72	124.96	27.10	-30.5	-34.2	11.8	5.24e-04	0	43	102	1048576	21	5517
2026-01-05 09:38:56.72	124.82	27.25	-30.5	-34.0	12.0	3.60e-04	0	43	102	1048576	21	5447
2026-01-05 09:38:57.72	124.68	27.41	-30.4	-34.0	12.0	3.25e-04	0	43	102	1048576	21	5423
2026-01-05 09:38:58.73	124.54	27.57	-30.5	-34.1	11.9	3.57e-04	0	43	102	1048576	21	5449
2026-01-05 09:38:59.73	124.40	27.73	-30.4	-34.0	12.0	3.04e-04	0	43	102	1048576	21	5434
2026-01-05 09:39:00.74	124.25	27.89	-30.5	-34.2	11.8	4.00e-04	0	43	102	1048576	21	5521
2026-01-05 09:39:01.75	124.11	28.05	-30.6	-34.5	11.6	5.10e-04	0	43	102	1048576	21	5638
2026-01-05 09:39:02.75	123.96	28.21	-30.5	-34.3	11.8	6.69e-04	0	43	102	1048576	21	5556
2026-01-05 09:39:03.75	123.81	28.37	-30.4	-33.8	12.2	2.52e-04	0	43	102	1048576	21	5330
2026-01-05 09:39:04.76	123.66	28.53	-30.3	-33.6	12.3	2.03e-04	0	43	102	1048576	21	5261
2026-01-05 09:39:05.77	123.51	28.70	-30.3	-33.5	12.3	1.92e-04	0	43	102	1048576	21	5223
2026-01-05 09:39:06.78	123.36	28.86	-30.3	-33.5	12.4	1.50e-04	0	43	102	1048576	21	5222
2026-01-05 09:39:07.78	123.20	29.03	-30.4	-33.8	12.2	2.01e-04	0	43	102	1048576	21	5356
2026-01-05 09:39:08.78	123.05	29.19	-30.3	-33.5	12.4	2.26e-04	0	43	102	1048576	21	5227
2026-01-05 09:39:09.79	122.89	29.36	-30.2	-33.2	12.6	1.37e-04	0	43	102	1048576	21	5103
2026-01-05 09:39:10.80	122.73	29.53	-30.3	-33.4	12.5	1.15e-04	0	43	102	1048576	21	5184
2026-01-05 09:39:11.81	122.57	29.69	-30.2	-33.3	12.5	1.21e-04	0	43	102	1048576	21	5146
2026-01-05 09:39:12.81	122.41	29.86	-30.3	-33.6	12.3	1.48e-04	0	43	102	1048576	21	5267
2026-01-05 09:39:13.82	122.24	30.03	-30.3	-33.6	12.3	1.67e-04	0	43	102	1048576	21	5246
2026-01-05 09:39:14.82	122.08	30.20	-30.3	-33.5	12.4	1.74e-04	0	43	102	1048576	21	5216
2026-01-05 09:39:15.83	121.91	30.37	-30.4	-34.0	12.1	1.65e-04	0	43	102	1048576	21	5405
2026-01-05 09:39:16.84	121.74	30.54	-30.4	-33.9	12.2	2.38e-04	0	43	102	1048576	21	5368
2026-01-05 09:39:17.85	121.56	30.72	-30.4	-33.8	12.2	2.30e-04	0	43	102	1048576	21	5348
2026-01-05 09:39:18.85	121.39	30.89	-30.6	-34.5	11.7	3.53e-04	0	43	102	1048576	21	5634
2026-01-05 09:39:19.86	121.22	31.06	-30.5	-34.3	11.9	5.11e-04	0	43	102	1048576	21	5551
2026-01-05 09:39:20.86	121.04	31.24	-30.4	-33.9	12.2	2.32e-04	0	43	102	1048576	21	5373
2026-01-05 09:39:21.87	120.86	31.41	-30.3	-33.6	12.4	1.67e-04	0	43	102	1048576	21	5258
2026-01-05 09:39:22.88	120.68	31.59	-30.4	-33.8	12.2	1.69e-04	0	43	102	1048576	21	5330
2026-01-05 09:39:23.89	120.49	31.77	-30.5	-34.2	12.0	3.07e-04	0	43	102	1048576	21	5474
2026-01-05 09:39:24.89	120.31	31.94	-30.7	-34.7	11.6	4.98e-04	0	43	102	1048576	21	5719
2026-01-05 09:39:25.90	120.12	32.12	-30.7	-34.6	11.7	8.50e-04	0	43	102	1048576	21	5662
2026-01-05 09:39:26.91	119.93	32.30	-30.7	-34.8	11.5	7.76e-04	0	43	102	1048576	21	5780
2026-01-05 09:39:27.92	119.74	32.48	-30.7	-34.7	11.7	7.48e-04	0	43	102	1048576	21	5708
2026-01-05 09:39:28.93	119.54	32.66	-30.6	-34.4	11.9	4.92e-04	0	43	102	1048576	21	5564
2026-01-05 09:39:29.93	119.35	32.84	-30.7	-34.7	11.7	5.12e-04	0	43	102	1048576	21	5697
2026-01-05 09:39:30.94	119.15	33.02	-30.7	-34.8	11.6	6.83e-04	0	43	102	1048576	21	5756
2026-01-05 09:39:31.95	118.95	33.21	-30.9	-35.5	11.1	1.11e-03	0	43	102	1048576	21	6058
2026-01-05 09:39:32.94	118.75	33.39	-31.0	-35.1	11.1	1.68e-03	0	43	102	1048576	22	5781
2026-01-05 09:39:33.95	118.54	33.57	-31.0	-35.1	11.0	1.59e-03	0	43	102	1048576	22	5770
2026-01-05 09:39:34.96	118.33	33.76	-31.0	-35.1	11.0	1.59e-03	0	43	102	1048576	22	5797
2026-01-05 09:39:35.97	118.12	33.94	-30.8	-34.5	11.5	1.29e-03	0	43	102	1048576	22	5517
2026-01-05 09:39:36.97	117.91	34.13	-30.7	-34.3	11.7	6.78e-04	0	43	102	1048576	22	5397
2026-01-05 09:39:37.98	117.70	34.31	-30.7	-34.2	11.8	5.05e-04	0	43	102	1048576	22	5371
2026-01-05 09:39:38.99	117.48	34.50	-30.8	-34.5	11.5	5.98e-04	0	43	102	1048576	22	5497
2026-01-05 09:39:39.99	117.26	34.69	-30.7	-34.1	11.8	5.94e-04	0	43	102	1048576	22	5323
2026-01-05 09:39:40.99	117.04	34.88	-30.5	-33.6	12.2	2.75e-04	0	43	102	1048576	22	5131
2026-01-05 09:39:42.01	116.81	35.07	-30.7	-34.0	11.9	2.82e-04	0	43	102	1048576	22	5282
2026-01-05 09:39:43.01	116.58	35.26	-30.5	-33.5	12.2	3.34e-04	0	43	102	1048576	22	5109
2026-01-05 09:39:44.02	116.35	35.45	-30.5	-33.4	12.3	2.08e-04	0	43	102	1048576	22	5068
2026-01-05 09:39:45.02	116.12	35.64	-30.4	-33.3	12.4	1.98e-04	0	43	102	1048576	22	4998
2026-01-05 09:39:46.03	115.88	35.83	-30.5	-33.6	12.2	1.52e-04	0	43	102	1048576	22	5118
2026-01-05 09:39:47.03	115.65	36.02	-30.5	-33.6	12.2	2.10e-04	0	43	102	1048576	22	5148
2026-01-05 09:39:48.04	115.40	36.21	-30.6	-33.7	12.1	2.00e-04	0	43	102	1048576	22	5182
2026-01-05 09:39:49.05	115.16	36.41	-30.8	-34.3	11.7	3.41e-04	0	43	102	1048576	22	5409
2026-01-05 09:39:50.05	114.91	36.60	-30.6	-33.7	12.1	2.89e-04	0	43	102	1048576	22	5181
2026-01-05 09:39:51.06	114.66	36.79	-30.5	-33.4	12.4	1.61e-04	0	43	102	1048576	22	5034
2026-01-05 09:39:52.07	114.41	36.99	-30.4	-33.2	12.5	1.30e-04	0	43	102	1048576	22	4969
2026-01-05 09:39:53.07	114.15	37.18	-30.5	-33.5	12.3	1.58e-04	0	43	102	1048576	22	5083
2026-01-05 09:39:54.08	113.89	37.38	-30.5	-33.5	12.3	2.10e-04	0	43	102	1048576	22	5062
2026-01-05 09:39:55.09	113.63	37.57	-30.5	-33.3	12.4	1.59e-04	0	43	102	1048576	22	5016
2026-01-05 09:39:56.10	113.36	37.77	-30.5	-33.6	12.2	1.59e-04	0	43	102	1048576	22	5105
2026-01-05 09:39:57.10	113.09	37.97	-30.4	-33.3	12.4	1.46e-04	0	43	102	1048576	22	5014
2026-01-05 09:39:58.11	112.82	38.17	-30.5	-33.5	12.3	1.27e-04	0	43	102	1048576	22	5067
2026-01-05 09:39:59.11	112.55	38.36	-30.7	-33.9	12.1	2.39e-04	0	43	102	1048576	22	5221
2026-01-05 09:40:00.11	112.27	38.56	-30.8	-34.3	11.8	4.23e-04	0	43	102	1048576	22	5407
2026-01-05 09:40:01.12	111.98	38.76	-30.9	-34.7	11.4	8.67e-04	0	43	102	1048576	22	5576
2026-01-05 09:40:02.13	111.70	38.96	-30.8	-34.3	11.8	6.56e-04	0	43	102	1048576	22	5397
2026-01-05 09:40:03.14	111.41	39.16	-30.8	-34.2	11.9	4.07e-04	0	43	102	1048576	22	5334
2026-01-05 09:40:04.14	111.11	39.36	-30.9	-34.6	11.6	6.32e-04	0	43	102	1048576	22	5512
2026-01-05 09:40:05.15	110.82	39.56	-30.8	-34.4	11.7	5.39e-04	0	43	102	1048576	22	5453
2026-01-05 09:40:06.16	110.51	39.76	-31.0	-34.9	11.4	7.17e-04	0	43	102	1048576	22	5642
2026-01-05 09:40:07.17	110.21	39.96	-30.9	-34.7	11.6	8.64e-04	0	43	102	1048576	22	5576
2026-01-05 09:40:08.17	109.90	40.16	-30.8	-34.5	11.7	6.34e-04	0	43	102	1048576	22	5460
2026-01-05 09:40:09.18	109.59	40.36	-30.8	-34.4	11.8	4.05e-04	0	43	102	1048576	22	5409
2026-01-05 09:40:10.19	109.27	40.56	-30.9	-34.6	11.6	6.28e-04	0	43	102	1048576	22	5504
2026-01-05 09:40:11.20	108.95	40.76	-30.8	-34.3	11.8	4.36e-04	0	43	102	1048576	22	5396
2026-01-05 09:40:12.21	108.62	40.96	-30.7	-34.0	12.0	2.65e-04	0	43	102	1048576	22	5271
2026-01-05 09:40:13.22	108.29	41.17	-30.8	-34.2	12.0	3.91e-04	0	43	102	1048576	22	5334
2026-01-05 09:40:14.23	107.96	41.37	-30.8	-34.3	11.9	3.60e-04	0	43	102	1048576	22	5390
2026-01-05 09:40:15.22	107.63	41.57	-30.8	-34.4	11.7	5.89e-04	0	43	102	1048576	22	5446
2026-01-05 09:40:16.23	107.29	41.77	-31.0	-34.9	11.5	6.46e-04	0	43	102	1048576	22	5633
2026-01-05 09:40:17.24	106.94	41.97	-31.4	-36.2	10.4	3.28e-03	0	43	102	1048576	22	6259
2026-01-05 09:40:18.24	106.59	42.17	-31.5	-36.1	10.2	4.41e-03	0	43	102	1048576	23	6113
2026-01-05 09:40:19.25	106.24	42.37	-31.6	-36.6	9.8	7.18e-03	0	43	102	1048576	23	6350
2026-01-05 09:40:20.26	105.88	42.57	-31.6	-36.3	10.0	6.79e-03	0	43	102	1048576	23	6226
2026-01-05 09:40:21.26	105.52	42.77	-31.3	-35.3	10.8	3.47e-03	0	43	102	1048576	23	5700
2026-01-05 09:40:22.27	105.15	42.97	-31.1	-34.8	11.2	2.10e-03	0	43	102	1048576	23	5500
2026-01-05 09:40:23.27	104.78	43.17	-31.1	-34.8	11.2	1.67e-03	0	43	102	1048576	23	5495
2026-01-05 09:40:24.28	104.40	43.37	-30.9	-34.1	11.6	6.42e-04	0	43	102	1048576	23	5216
2026-01-05 09:40:25.29	104.02	43.57	-30.9	-34.5	11.7	4.15e-04	0	43	102	1048576	22	5480
2026-01-05 09:40:26.30	103.63	43.77	-31.0	-34.8	11.5	6.61e-04	0	43	102	1048576	22	5595
2026-01-05 09:40:27.31	103.24	43.97	-31.0	-34.9	11.5	1.02e-03	0	43	102	1048576	22	5635
2026-01-05 09:40:28.31	102.85	44.16	-31.0	-34.8	11.6	8.70e-04	0	43	102	1048576	22	5581
2026-01-05 09:40:29.32	102.44	44.36	-31.1	-35.2	11.3	9.74e-04	0	43	102	1048576	22	5759
2026-01-05 09:40:30.33	102.04	44.56	-31.1	-35.2	11.3	1.06e-03	0	43	102	1048576	22	5761
2026-01-05 09:40:31.33	101.63	44.75	-31.1	-35.3	11.2	1.05e-03	0	43	102	1048576	22	5819
2026-01-05 09:40:32.34	101.21	44.95	-31.3	-35.8	10.9	1.69e-03	0	43	102	1048576	22	6032
2026-01-05 09:40:33.35	100.79	45.14	-31.4	-36.2	10.6	3.95e-03	0	43	102	1048576	22	6270
2026-01-05 09:40:34.36	100.36	45.34	-31.3	-36.0	10.7	3.34e-03	0	43	102	1048576	22	6140
2026-01-05 09:40:35.37	99.93	45.53	-31.1	-35.3	11.1	2.01e-03	0	43	102	1048576	22	5824
2026-01-05 09:40:36.38	99.49	45.73	-31.1	-35.1	11.4	1.08e-03	0	43	102	1048576	22	5710
2026-01-05 09:40:37.37	99.05	45.91	-30.9	-34.6	11.8	5.38e-04	0	43	102	1048576	22	5491
2026-01-05 09:40:38.38	98.60	46.10	-30.8	-34.3	11.9	6.19e-04	0	43	102	1048576	22	5374
2026-01-05 09:40:39.39	98.15	46.29	-30.7	-33.8	12.3	3.51e-04	0	43	102	1048576	22	5174
2026-01-05 09:40:40.40	97.69	46.48	-30.6	-33.6	12.3	1.98e-04	0	43	102	1048576	22	5107
2026-01-05 09:40:41.40	97.23	46.67	-30.7	-33.8	12.2	1.99e-04	0	43	102	1048576	22	5179
2026-01-05 09:40:42.41	96.75	46.85	-30.7	-33.9	12.2	1.81e-04	0	43	102	1048576	22	5229
2026-01-05 09:40:43.42	96.28	47.04	-30.9	-34.4	11.9	2.82e-04	0	43	102	1048576	22	5432
2026-01-05 09:40:44.42	95.80	47.22	-30.9	-34.6	11.7	5.57e-04	0	43	102	1048576	22	5508
2026-01-05 09:40:45.43	95.31	47.40	-31.0	-34.8	11.6	5.55e-04	0	43	102	1048576	22	5568
2026-01-05 09:40:46.44	94.82	47.58	-31.0	-34.9	11.5	1.11e-03	0	43	102	1048576	22	5637
2026-01-05 09:40:47.45	94.32	47.76	-30.6	-33.7	12.3	3.11e-04	0	43	102	1048576	22	5148
2026-01-05 09:40:48.45	93.82	47.93	-30.4	-33.1	12.8	8.31e-05	0	43	102	1048576	22	4914
2026-01-05 09:40:49.45	93.31	48.11	-30.3	-33.2	13.1	3.28e-05	0	43	102	1048576	21	5023
2026-01-05 09:40:50.46	92.79	48.28	-30.4	-33.5	12.9	4.19e-05	0	43	102	1048576	21	5175
2026-01-05 09:40:51.47	92.27	48.45	-30.4	-33.6	12.8	3.81e-05	0	43	102	1048576	21	5203
2026-01-05 09:40:52.47	91.75	48.62	-30.4	-33.7	12.7	7.32e-05	0	43	102	1048576	21	5238
2026-01-05 09:40:53.48	91.21	48.79	-30.5	-33.8	12.6	1.04e-04	0	43	102	1048576	21	5284
2026-01-05 09:40:54.48	90.68	48.95	-30.8	-34.8	12.0	1.56e-04	0	43	102	1048576	21	5692
2026-01-05 09:40:55.49	90.13	49.11	-31.1	-35.2	11.4	7.67e-04	0	43	102	1048576	22	5752
2026-01-05 09:40:56.50	89.58	49.27	-31.2	-35.4	11.2	9.43e-04	0	43	102	1048576	22	5857
2026-01-05 09:40:57.51	89.02	49.43	-31.2	-35.6	11.1	1.28e-03	0	43	102	1048576	22	5933
2026-01-05 09:40:58.51	88.46	49.59	-31.3	-35.8	11.0	1.43e-03	0	43	102	1048576	22	6021
2026-01-05 09:40:59.52	87.89	49.74	-31.3	-35.8	10.9	2.31e-03	0	43	102	1048576	22	6063
2026-01-05 09:41:00.52	87.33	49.89	-31.2	-35.6	11.1	1.72e-03	0	43	102	1048576	22	5971
2026-01-05 09:41:01.53	86.74	50.04	-31.2	-35.5	11.1	1.46e-03	0	43	102	1048576	22	5903
2026-01-05 09:41:02.54	86.16	50.18	-31.0	-34.7	11.7	1.11e-03	0	43	102	1048576	22	5543
2026-01-05 09:41:03.55	85.57	50.33	-30.7	-33.9	12.2	2.29e-04	0	43	102	1048576	22	5218
2026-01-05 09:41:04.55	84.98	50.47	-30.7	-34.0	12.2	2.10e-04	0	43	102	1048576	22	5233
2026-01-05 09:41:05.56	84.37	50.60	-30.8	-34.3	12.0	2.09e-04	0	43	102	1048576	22	5373
2026-01-05 09:41:06.57	83.76	50.74	-31.0	-34.7	11.8	4.96e-04	0	43	102	1048576	22	5539
2026-01-05 09:41:07.57	83.16	50.87	-31.0	-34.8	11.7	5.02e-04	0	43	102	1048576	22	5569
2026-01-05 09:41:08.58	82.54	51.00	-31.2	-35.6	11.1	7.26e-04	0	43	102	1048576	22	5922
2026-01-05 09:41:09.59	81.91	51.12	-31.3	-35.6	11.1	2.14e-03	0	43	102	1048576	22	5935
2026-01-05 09:41:10.60	81.28	51.24	-31.0	-34.9	11.6	8.95e-04	0	43	102	1048576	22	5618
2026-01-05 09:41:11.60	80.66	51.36	-30.8	-34.3	11.9	5.77e-04	0	43	102	1048576	22	5367
2026-01-05 09:41:12.61	80.02	51.48	-30.7	-33.8	12.4	2.65e-04	0	43	102	1048576	22	5172
2026-01-05 09:41:13.62	79.37	51.59	-30.6	-33.7	12.5	1.18e-04	0	43	102	1048576	22	5116
2026-01-05 09:41:14.62	78.73	51.69	-30.5	-33.4	12.5	1.50e-04	0	43	102	1048576	22	5022
2026-01-05 09:41:15.63	78.08	51.80	-30.6	-33.6	12.5	8.77e-05	0	43	102	1048576	22	5100
2026-01-05 09:41:16.64	77.42	51.90	-30.1	-32.8	13.2	5.03e-05	0	43	102	1048576	21	4908
2026-01-05 09:41:17.64	76.76	51.99	-29.4	-31.4	14.5	4.50e-06	0	43	102	1048576	20	4532
2026-01-05 09:41:18.65	76.09	52.09	-28.9	-30.7	15.3	0.00e+00	0	43	102	1048576	19	4388
2026-01-05 09:41:19.66	75.42	52.18	-28.5	-30.1	16.0	0.00e+00	0	43	102	1048576	18	4324
2026-01-05 09:41:20.67	74.75	52.26	-28.5	-30.0	16.1	0.00e+00	0	43	102	1048576	18	4303
2026-01-05 09:41:21.68	74.07	52.34	-28.3	-29.6	16.3	0.00e+00	0	43	102	1048576	18	4178
2026-01-05 09:41:22.68	73.39	52.42	-28.1	-29.6	16.5	0.00e+00	0	43	102	1048576	17	4271
2026-01-05 09:41:23.69	72.71	52.49	-28.0	-29.4	16.7	0.00e+00	0	43	102	1048576	17	4215
2026-01-05 09:41:24.69	72.03	52.56	-27.9	-29.1	16.9	0.00e+00	0	43	102	1048576	17	4134
2026-01-05 09:41:25.70	71.33	52.63	-28.1	-29.6	16.6	0.00e+00	0	43	102	1048576	17	4288
2026-01-05 09:41:26.71	70.64	52.69	-27.9	-29.2	16.8	0.00e+00	0	43	102	1048576	17	4175
2026-01-05 09:41:27.71	69.95	52.74	-27.5	-28.7	17.3	0.00e+00	0	43	102	1048576	16	4156
2026-01-05 09:41:28.72	69.25	52.79	-27.4	-28.4	17.5	0.00e+00	0	43	102	1048576	16	4065
2026-01-05 09:41:29.73	68.55	52.84	-27.5	-28.8	17.3	0.00e+00	0	43	102	1048576	16	4158
2026-01-05 09:41:30.73	67.85	52.88	-27.6	-29.1	17.1	0.00e+00	0	43	102	1048576	16	4241
2026-01-05 09:41:31.74	67.14	52.92	-27.6	-29.0	17.2	0.00e+00	0	43	102	1048576	16	4229
2026-01-05 09:41:32.75	66.43	52.96	-27.5	-28.7	17.3	0.00e+00	0	43	102	1048576	16	4151
2026-01-05 09:41:33.75	65.73	52.99	-27.5	-28.7	17.4	0.00e+00	0	43	102	1048576	16	4133
2026-01-05 09:41:34.75	65.02	53.01	-27.4	-28.6	17.4	0.00e+00	0	43	102	1048576	16	4100
2026-01-05 09:41:35.76	64.31	53.03	-27.5	-28.8	17.2	0.00e+00	0	43	102	1048576	16	4173
2026-01-05 09:41:36.76	63.61	53.05	-27.7	-29.1	17.1	0.00e+00	0	43	102	1048576	16	4262
2026-01-05 09:41:37.77	62.89	53.06	-27.8	-29.5	16.9	0.00e+00	0	43	102	1048576	16	4370
2026-01-05 09:41:38.77	62.18	53.07	-27.8	-29.5	16.9	0.00e+00	0	43	102	1048576	16	4382
2026-01-05 09:41:39.78	61.47	53.07	-27.7	-29.2	17.0	7.00e-07	0	43	102	1048576	16	4277
2026-01-05 09:41:40.79	60.75	53.07	-27.9	-29.7	16.7	0.00e+00	0	43	102	1048576	16	4412
2026-01-05 09:41:41.79	60.05	53.06	-27.9	-29.7	16.8	0.00e+00	0	43	102	1048576	16	4434
2026-01-05 09:41:42.80	59.33	53.05	-27.9	-29.6	16.8	0.00e+00	0	43	102	1048576	16	4388
2026-01-05 09:41:43.80	58.63	53.04	-27.9	-29.8	16.8	0.00e+00	0	43	102	1048576	16	4439
2026-01-05 09:41:44.81	57.91	53.02	-27.8	-29.4	16.9	0.00e+00	0	43	102	1048576	16	4330
2026-01-05 09:41:45.81	57.21	52.99	-27.7	-29.2	17.0	0.00e+00	0	43	102	1048576	16	4273
2026-01-05 09:41:46.83	56.49	52.96	-28.1	-30.0	16.6	0.00e+00	0	43	102	1048576	16	4520
2026-01-05 09:41:47.83	55.79	52.93	-28.1	-30.1	16.5	0.00e+00	0	43	102	1048576	16	4546
2026-01-05 09:41:48.83	55.09	52.89	-28.1	-30.2	16.5	0.00e+00	0	43	102	1048576	16	4568
2026-01-05 09:41:49.84	54.39	52.85	-27.8	-29.3	16.9	0.00e+00	0	43	102	1048576	16	4316
2026-01-05 09:41:50.85	53.68	52.80	-27.9	-29.6	16.8	0.00e+00	0	43	102	1048576	16	4384
2026-01-05 09:41:51.85	52.99	52.75	-27.6	-29.1	17.1	0.00e+00	0	43	102	1048576	16	4245
2026-01-05 09:41:52.86	52.29	52.70	-27.5	-28.9	17.2	0.00e+00	0	43	102	1048576	16	4185
2026-01-05 09:41:53.86	51.60	52.64	-27.6	-28.9	17.2	0.00e+00	0	43	102	1048576	16	4202
2026-01-05 09:41:54.87	50.91	52.57	-27.7	-29.1	17.2	0.00e+00	0	43	102	1048576	16	4252
2026-01-05 09:41:55.88	50.22	52.51	-27.7	-29.1	17.1	0.00e+00	0	43	102	1048576	16	4250
2026-01-05 09:41:56.89	49.54	52.43	-27.7	-29.2	17.0	0.00e+00	0	43	102	1048576	16	4283
2026-01-05 09:41:57.89	48.86	52.36	-27.5	-28.7	17.4	0.00e+00	0	43	102	1048576	16	4128
2026-01-05 09:41:58.90	48.18	52.28	-27.4	-28.4	17.5	0.00e+00	0	43	102	1048576	16	4069
2026-01-05 09:41:59.91	47.51	52.19	-27.5	-28.6	17.4	0.00e+00	0	43	102	1048576	16	4124
2026-01-05 09:42:00.91	46.84	52.10	-27.8	-29.4	17.0	0.00e+00	0	43	102	1048576	16	4318
2026-01-05 09:42:01.92	46.18	52.01	-28.3	-30.6	16.3	0.00e+00	0	43	102	1048576	16	4679
2026-01-05 09:42:02.92	45.52	51.92	-28.4	-30.5	16.0	0.00e+00	0	43	102	1048576	17	4538
2026-01-05 09:42:03.93	44.86	51.82	-28.6	-30.8	15.9	0.00e+00	0	43	102	1048576	17	4639
2026-01-05 09:42:04.93	44.21	51.72	-28.8	-31.3	15.6	0.00e+00	0	43	102	1048576	17	4816
2026-01-05 09:42:05.94	43.57	51.61	-29.2	-31.8	14.9	7.00e-07	0	43	102	1048576	18	4872
2026-01-05 09:42:06.94	42.93	51.50	-29.4	-32.4	14.7	7.00e-07	0	43	102	1048576	18	5055
2026-01-05 09:42:07.95	42.29	51.38	-29.4	-32.4	14.6	0.00e+00	0	43	102	1048576	18	5058
2026-01-05 09:42:08.96	41.65	51.27	-29.7	-32.5	14.3	0.00e+00	0	43	102	1048576	19	4985
2026-01-05 09:42:09.97	41.02	51.15	-30.0	-33.3	13.7	4.50e-06	0	43	102	1048576	19	5298
2026-01-05 09:42:10.97	40.41	51.02	-30.0	-33.0	13.6	9.90e-06	0	43	102	1048576	20	5076
2026-01-05 09:42:11.98	39.79	50.90	-30.1	-33.4	13.3	9.90e-06	0	43	102	1048576	20	5207
2026-01-05 09:42:12.99	39.17	50.77	-30.4	-34.0	12.9	3.73e-05	0	43	102	1048576	20	5473
2026-01-05 09:42:14.00	38.57	50.63	-30.6	-34.2	12.4	1.11e-04	0	43	102	1048576	21	5448
2026-01-05 09:42:15.01	37.96	50.50	-30.5	-33.8	12.6	1.18e-04	0	43	102	1048576	21	5279
2026-01-05 09:42:16.01	37.37	50.36	-30.3	-33.4	12.8	6.56e-05	0	43	102	1048576	21	5121
2026-01-05 09:42:17.01	36.78	50.22	-30.4	-33.4	13.0	3.73e-05	0	43	102	1048576	21	5129
2026-01-05 09:42:18.02	36.20	50.07	-30.5	-34.0	12.6	6.48e-05	0	43	102	1048576	21	5341
2026-01-05 09:42:19.03	35.62	49.92	-30.6	-34.2	12.4	1.30e-04	0	43	102	1048576	21	5445
2026-01-05 09:42:20.03	35.05	49.77	-30.8	-34.6	12.1	1.85e-04	0	43	102	1048576	21	5612
2026-01-05 09:42:21.04	34.48	49.62	-30.8	-34.6	12.1	3.24e-04	0	43	102	1048576	21	5614
2026-01-05 09:42:22.04	33.92	49.47	-30.6	-34.1	12.4	2.68e-04	0	43	102	1048576	21	5406
2026-01-05 09:42:23.04	33.37	49.31	-30.6	-34.2	12.3	1.57e-04	0	43	102	1048576	21	5430
2026-01-05 09:42:24.04	32.82	49.15	-30.5	-33.8	12.6	1.07e-04	0	43	102	1048576	21	5274
2026-01-05 09:42:25.04	32.28	48.99	-30.5	-33.8	12.7	7.32e-05	0	43	102	1048576	21	5283
2026-01-05 09:42:26.04	31.75	48.83	-30.7	-34.3	12.3	1.47e-04	0	43	102	1048576	21	5488
2026-01-05 09:42:27.05	31.21	48.66	-30.7	-34.5	12.2	2.29e-04	0	43	102	1048576	21	5544
2026-01-05 09:42:28.06	30.68	48.50	-30.7	-34.4	12.2	2.40e-04	0	43	102	1048576	21	5533
2026-01-05 09:42:29.07	30.16	48.33	-30.7	-34.3	12.2	1.82e-04	0	43	102	1048576	21	5486
2026-01-05 09:42:30.07	29.65	48.15	-30.7	-34.5	12.1	2.25e-04	0	43	102	1048576	21	5567
2026-01-05 09:42:31.07	29.14	47.98	-30.7	-34.4	12.2	1.80e-04	0	43	102	1048576	21	5536
2026-01-05 09:42:32.09	28.63	47.80	-31.0	-34.9	11.6	3.71e-04	0	43	102	1048576	22	5605
2026-01-05 09:42:33.09	28.14	47.63	-31.2	-35.6	11.1	1.24e-03	0	43	102	1048576	22	5947
2026-01-05 09:42:34.10	27.64	47.45	-31.4	-36.2	10.6	2.99e-03	0	43	102	1048576	22	6265
2026-01-05 09:42:35.11	27.15	47.27	-31.6	-36.4	10.0	4.22e-03	0	44	102	1048576	23	6266
2026-01-05 09:42:36.11	26.67	47.09	-31.8	-37.0	9.6	1.06e-02	0	43	102	1048576	23	6584
2026-01-05 09:42:37.12	26.20	46.91	-31.7	-36.8	9.8	1.20e-02	0	43	102	1048576	23	6435
2026-01-05 09:42:38.13	25.73	46.72	-31.5	-36.2	10.1	9.75e-03	0	43	102	1048576	23	6159
2026-01-05 09:42:39.14	25.26	46.53	-31.6	-36.5	10.0	8.50e-03	0	43	102	1048576	23	6280
2026-01-05 09:42:40.15	24.80	46.35	-31.7	-36.8	9.7	1.04e-02	0	43	102	1048576	23	6458
2026-01-05 09:42:41.15	24.35	46.16	-31.7	-36.8	9.7	9.17e-03	0	43	102	1048576	23	6455
2026-01-05 09:42:42.15	23.90	45.97	-31.7	-36.9	9.7	9.79e-03	0	43	102	1048576	23	6495
2026-01-05 09:42:43.17	23.46	45.78	-31.8	-37.2	9.4	1.38e-02	0	43	102	1048576	23	6703
2026-01-05 09:42:44.18	23.02	45.59	-31.9	-37.7	9.0	2.13e-02	0	43	102	1048576	23	7018
2026-01-05 09:42:45.18	22.59	45.40	-31.8	-37.0	9.5	2.30e-02	0	43	102	1048576	23	6583
2026-01-05 09:42:46.18	22.16	45.21	-31.3	-35.5	10.7	5.28e-03	0	43	102	1048576	23	5824
2026-01-05 09:42:47.18	21.75	45.01	-31.2	-35.2	10.9	2.66e-03	0	43	102	1048576	23	5668
2026-01-05 09:42:48.18	21.33	44.82	-31.2	-35.2	10.9	1.94e-03	0	43	102	1048576	23	5673
2026-01-05 09:42:49.19	20.92	44.62	-31.3	-35.5	10.7	2.94e-03	0	43	102	1048576	23	5793
2026-01-05 09:42:50.19	20.52	44.43	-31.2	-35.2	10.9	2.10e-03	0	43	102	1048576	23	5655
2026-01-05 09:42:51.20	20.11	44.23	-31.4	-35.6	10.5	3.18e-03	0	43	102	1048576	23	5883
2026-01-05 09:42:52.21	19.72	44.04	-31.1	-34.7	11.2	2.86e-03	0	43	102	1048576	23	5462
2026-01-05 09:42:53.22	19.32	43.84	-30.7	-34.0	12.1	5.09e-04	0	43	102	1048576	22	5268
2026-01-05 09:42:54.23	18.94	43.64	-30.4	-32.9	12.8	1.29e-04	0	43	102	1048576	22	4842
2026-01-05 09:42:55.23	18.56	43.44	-30.4	-33.1	12.8	6.71e-05	0	43	102	1048576	22	4894
2026-01-05 09:42:56.24	18.18	43.24	-30.6	-33.6	12.3	1.07e-04	0	43	102	1048576	22	5080
2026-01-05 09:42:57.25	17.80	43.04	-30.7	-34.0	12.1	1.64e-04	0	43	102	1048576	22	5247
2026-01-05 09:42:58.26	17.44	42.84	-31.0	-35.0	11.4	5.82e-04	0	43	102	1048576	22	5690
2026-01-05 09:42:59.27	17.07	42.64	-31.2	-35.4	11.1	1.26e-03	0	43	102	1048576	22	5847
2026-01-05 09:43:00.27	16.72	42.44	-31.1	-35.1	11.3	1.48e-03	0	43	102	1048576	22	5743
2026-01-05 09:43:01.27	16.36	42.25	-31.0	-34.8	11.5	9.10e-04	0	43	102	1048576	22	5608
2026-01-05 09:43:02.28	16.01	42.04	-30.9	-34.7	11.6	8.76e-04	0	43	102	1048576	22	5537
2026-01-05 09:43:03.29	15.67	41.84	-31.0	-35.0	11.3	9.06e-04	0	43	102	1048576	22	5690
2026-01-05 09:43:04.29	15.33	41.65	-31.1	-35.2	11.2	9.94e-04	0	43	102	1048576	22	5770
2026-01-05 09:43:05.31	14.99	41.44	-31.2	-35.5	11.0	1.34e-03	0	43	102	1048576	22	5911
2026-01-05 09:43:06.32	14.65	41.24	-31.3	-36.0	10.6	2.93e-03	0	43	102	1048576	22	6157
2026-01-05 09:43:07.32	14.33	41.04	-31.5	-36.4	10.3	3.70e-03	0	43	102	1048576	22	6378
2026-01-05 09:43:08.33	14.00	40.84	-31.4	-36.1	10.5	3.98e-03	0	43	102	1048576	22	6229
2026-01-05 09:43:09.34	13.68	40.64	-31.5	-36.5	10.3	5.02e-03	0	43	102	1048576	22	6404
2026-01-05 09:43:10.35	13.36	40.44	-31.6	-36.6	9.8	1.03e-02	0	43	102	1048576	23	6367
2026-01-05 09:43:11.35	13.05	40.24	-31.7	-37.0	9.5	1.27e-02	0	43	102	1048576	23	6590
2026-01-05 09:43:12.36	12.74	40.04	-31.7	-36.9	9.5	1.46e-02	0	44	102	1048576	23	6516
2026-01-05 09:43:13.37	12.44	39.84	-31.6	-36.6	9.8	1.13e-02	0	43	102	1048576	23	6375
2026-01-05 09:43:14.37	12.14	39.64	-31.7	-36.8	9.6	1.14e-02	0	43	102	1048576	23	6467
2026-01-05 09:43:15.37	11.84	39.44	-31.8	-37.3	9.2	1.67e-02	0	43	102	1048576	23	6775
2026-01-05 09:43:16.38	11.55	39.25	-31.8	-37.4	9.2	2.74e-02	0	44	102	1048576	23	6823
2026-01-05 09:43:17.39	11.26	39.05	-31.8	-37.1	9.3	1.62e-02	0	44	102	1048576	23	6668
2026-01-05 09:43:18.39	10.97	38.85	-31.9	-37.5	9.1	2.39e-02	0	43	102	1048576	23	6906
2026-01-05 09:43:19.40	10.69	38.65	-31.9	-37.7	8.9	2.56e-02	0	43	102	1048576	23	7001
2026-01-05 09:43:20.41	10.41	38.45	-31.9	-37.5	9.0	2.76e-02	0	44	102	1048576	23	6864
2026-01-05 09:43:21.41	10.14	38.26	-31.8	-37.4	9.2	2.17e-02	0	43	102	1048576	23	6830
2026-01-05 09:43:22.42	9.86	38.06	-31.7	-36.8	9.6	1.63e-02	0	43	102	1048576	23	6497
2026-01-05 09:43:23.43	9.59	37.86	-31.5	-36.3	10.0	8.59e-03	0	43	102	1048576	23	6202
2026-01-05 09:43:24.44	9.33	37.67	-31.3	-35.4	10.5	5.44e-03	0	43	102	1048576	23	5802
2026-01-05 09:43:25.45	9.06	37.47	-31.2	-35.2	10.8	2.88e-03	0	43	102	1048576	23	5666
2026-01-05 09:43:26.45	8.80	37.28	-31.1	-34.7	11.1	2.03e-03	0	43	102	1048576	23	5463
2026-01-05 09:43:27.45	8.55	37.08	-30.8	-33.9	11.6	8.47e-04	0	43	102	1048576	23	5145
2026-01-05 09:43:28.46	8.29	36.89	-30.7	-34.2	11.8	4.82e-04	0	44	102	1048576	22	5353
2026-01-05 09:43:29.47	8.04	36.69	-30.9	-34.7	11.5	6.47e-04	0	43	102	1048576	22	5542
2026-01-05 09:43:30.48	7.80	36.50	-31.1	-35.2	11.1	9.65e-04	0	43	102	1048576	22	5784
2026-01-05 09:43:31.48	7.55	36.31	-31.2	-35.6	10.8	2.11e-03	0	43	102	1048576	22	5972
2026-01-05 09:43:32.49	7.31	36.12	-30.9	-34.8	11.4	1.28e-03	0	44	102	1048576	22	5627
2026-01-05 09:43:33.49	7.07	35.93	-30.7	-34.2	11.8	6.18e-04	0	43	102	1048576	22	5366
2026-01-05 09:43:34.50	6.84	35.74	-30.6	-33.9	12.0	3.91e-04	0	43	102	1048576	22	5241
2026-01-05 09:43:35.50	6.60	35.55	-30.7	-34.0	12.0	2.96e-04	0	43	102	1048576	22	5292
2026-01-05 09:43:36.51	6.37	35.36	-30.7	-34.2	11.8	3.89e-04	0	43	102	1048576	22	5347
2026-01-05 09:43:37.52	6.14	35.17	-30.8	-34.5	11.5	5.35e-04	0	43	102	1048576	22	5512
2026-01-05 09:43:38.52	5.92	34.98	-30.9	-34.6	11.5	7.54e-04	0	43	102	1048576	22	5540
2026-01-05 09:43:39.53	5.70	34.79	-31.0	-35.0	11.2	1.06e-03	0	43	102	1048576	22	5701
2026-01-05 09:43:40.54	5.48	34.60	-31.1	-35.5	10.8	1.98e-03	0	43	102	1048576	22	5933
2026-01-05 09:43:41.55	5.26	34.42	-31.2	-35.9	10.6	2.63e-03	0	43	102	1048576	22	6136
2026-01-05 09:43:42.55	5.05	34.23	-31.2	-35.7	10.6	3.73e-03	0	43	102	1048576	22	6060
2026-01-05 09:43:43.56	4.83	34.05	-31.3	-35.9	10.5	3.00e-03	0	44	102	1048576	22	6139
2026-01-05 09:43:44.56	4.62	33.86	-31.3	-35.9	10.5	5.15e-03	0	43	102	1048576	22	6167
2026-01-05 09:43:45.56	4.42	33.68	-31.1	-35.3	10.9	2.42e-03	0	44	102	1048576	22	5865
2026-01-05 09:43:46.57	4.21	33.50	-31.0	-35.0	11.1	1.74e-03	0	43	102	1048576	22	5721
2026-01-05 09:43:47.57	4.01	33.32	-30.8	-34.6	11.5	1.23e-03	0	44	102	1048576	22	5524
2026-01-05 09:43:48.58	3.81	33.13	-30.8	-34.3	11.7	6.83e-04	0	43	102	1048576	22	5423
2026-01-05 09:43:49.58	3.61	32.95	-30.7	-34.1	11.8	5.43e-04	0	43	102	1048576	22	5308
2026-01-05 09:43:50.59	3.42	32.77	-30.7	-34.0	12.0	5.37e-04	0	44	102	1048576	22	5286
2026-01-05 09:43:51.60	3.22	32.59	-30.7	-34.1	11.8	4.29e-04	0	43	102	1048576	22	5346
2026-01-05 09:43:52.61	3.03	32.41	-30.8	-34.4	11.6	6.85e-04	0	43	102	1048576	22	5454
2026-01-05 09:43:53.61	2.84	32.24	-30.9	-34.6	11.4	8.66e-04	0	43	102	1048576	22	5554
2026-01-05 09:43:54.62	2.65	32.06	-30.9	-34.9	11.3	1.20e-03	0	43	102	1048576	22	5687
2026-01-05 09:43:55.62	2.47	31.88	-31.1	-35.3	10.9	1.83e-03	0	43	102	1048576	22	5850
2026-01-05 09:43:56.63	2.29	31.70	-31.0	-35.2	11.0	2.15e-03	0	43	102	1048576	22	5823
2026-01-05 09:43:57.63	2.11	31.53	-31.1	-35.4	10.9	2.73e-03	0	43	102	1048576	22	5913
2026-01-05 09:43:58.64	1.93	31.36	-31.1	-35.6	10.7	3.28e-03	0	43	102	1048576	22	5989
2026-01-05 09:43:59.64	1.75	31.18	-31.0	-35.3	10.9	2.32e-03	0	43	102	1048576	22	5866
2026-01-05 09:44:00.65	1.57	31.01	-31.0	-35.2	11.1	1.63e-03	0	44	102	1048576	22	5805
2026-01-05 09:44:01.66	1.40	30.84	-31.0	-35.0	11.2	1.66e-03	0	43	102	1048576	22	5724
2026-01-05 09:44:02.67	1.23	30.66	-31.2	-35.7	10.6	2.35e-03	0	43	102	1048576	22	6054
2026-01-05 09:44:03.67	1.06	30.49	-31.2	-35.8	10.5	4.72e-03	0	43	102	1048576	22	6144
2026-01-05 09:44:04.68	0.89	30.32	-31.2	-35.9	10.5	3.61e-03	0	44	102	1048576	22	6168
2026-01-05 09:44:05.69	0.72	30.15	-31.1	-35.6	10.6	3.85e-03	0	43	102	1048576	22	6037
2026-01-05 09:44:06.70	0.56	29.98	-31.0	-35.3	10.9	2.54e-03	0	43	102	1048576	22	5905
2026-01-05 09:44:07.70	0.40	29.82	-30.9	-34.8	11.2	1.82e-03	0	44	102	1048576	22	5653
2026-01-05 09:44:08.71	0.24	29.65	-30.8	-34.5	11.4	9.70e-04	0	43	102	1048576	22	5518
2026-01-05 09:44:09.72	0.08	29.48	-30.9	-34.9	11.2	1.32e-03	0	43	102	1048576	22	5678
2026-01-05 09:44:10.73	359.92	29.31	-30.8	-34.7	11.4	1.50e-03	0	43	102	1048576	22	5592
2026-01-05 09:44:11.73	359.76	29.15	-30.8	-34.5	11.4	8.38e-04	0	44	102	1048576	22	5497
2026-01-05 09:44:12.74	359.61	28.98	-30.8	-34.6	11.4	9.47e-04	0	43	102	1048576	22	5547
2026-01-05 09:44:13.75	359.45	28.82	-30.8	-34.4	11.5	1.25e-03	0	44	102	1048576	22	5486
2026-01-05 09:44:14.76	359.30	28.66	-30.8	-34.4	11.5	1.00e-03	0	44	102	1048576	22	5470
2026-01-05 09:44:15.77	359.15	28.49	-30.8	-34.4	11.6	7.63e-04	0	44	102	1048576	22	5459
2026-01-05 09:44:16.77	359.01	28.33	-30.7	-34.1	11.7	6.12e-04	0	43	102	1048576	22	5362
2026-01-05 09:44:17.78	358.86	28.17	-30.7	-34.3	11.5	5.86e-04	0	43	102	1048576	22	5430
2026-01-05 09:44:18.79	358.71	28.01	-30.6	-33.9	11.8	5.92e-04	0	43	102	1048576	22	5269
2026-01-05 09:44:19.79	358.57	27.85	-30.5	-33.6	12.1	3.29e-04	0	43	102	1048576	22	5146
2026-01-05 09:44:20.80	358.43	27.69	-30.3	-33.1	12.3	2.03e-04	0	43	102	1048576	22	4956
2026-01-05 09:44:21.81	358.29	27.53	-30.4	-33.3	12.2	1.67e-04	0	43	102	1048576	22	5026
2026-01-05 09:44:22.81	358.15	27.38	-30.4	-33.4	12.2	2.26e-04	0	43	102	1048576	22	5060
2026-01-05 09:44:23.82	358.01	27.22	-30.3	-33.0	12.4	2.27e-04	0	43	102	1048576	22	4934
2026-01-05 09:44:24.83	357.87	27.06	-30.5	-34.1	12.0	1.79e-04	0	43	102	1048576	21	5452
2026-01-05 09:44:25.84	357.74	26.91	-30.4	-34.0	12.1	3.20e-04	0	43	102	1048576	21	5407
2026-01-05 09:44:26.84	357.61	26.76	-30.6	-34.5	11.6	3.58e-04	0	43	102	1048576	21	5643
2026-01-05 09:44:27.85	357.47	26.60	-30.5	-34.3	11.8	6.88e-04	0	43	102	1048576	21	5535
2026-01-05 09:44:28.85	357.34	26.45	-30.4	-33.9	12.1	3.48e-04	0	43	102	1048576	21	5396
2026-01-05 09:44:29.86	357.21	26.30	-30.3	-33.5	12.4	2.16e-04	0	43	102	1048576	21	5228
2026-01-05 09:44:30.87	357.08	26.14	-30.2	-33.2	12.5	1.17e-04	0	43	102	1048576	21	5102
2026-01-05 09:44:31.87	356.96	25.99	-30.2	-33.2	12.6	9.99e-05	0	43	102	1048576	21	5092
2026-01-05 09:44:32.88	356.83	25.84	-30.0	-32.8	12.8	8.08e-05	0	44	102	1048576	21	4939
2026-01-05 09:44:33.88	356.71	25.70	-29.8	-32.3	13.2	3.96e-05	0	43	102	1048576	21	4761
2026-01-05 09:44:34.89	356.58	25.55	-29.8	-32.2	13.2	1.14e-05	0	43	102	1048576	21	4720
2026-01-05 09:44:35.90	356.46	25.40	-29.8	-32.3	13.2	2.05e-05	0	43	102	1048576	21	4764
2026-01-05 09:44:36.91	356.34	25.25	-29.7	-32.4	13.4	1.22e-05	0	43	102	1048576	20	4890
2026-01-05 09:44:37.92	356.22	25.10	-29.7	-32.4	13.4	9.10e-06	0	43	102	1048576	20	4895
2026-01-05 09:44:38.92	356.10	24.96	-29.6	-32.0	13.7	9.10e-06	0	43	102	1048576	20	4773
2026-01-05 09:44:39.92	355.98	24.81	-29.5	-31.9	13.8	2.20e-06	0	43	102	1048576	20	4729
2026-01-05 09:44:40.93	355.87	24.67	-29.6	-32.1	13.7	1.50e-06	0	43	102	1048576	20	4789
2026-01-05 09:44:41.94	355.75	24.52	-29.5	-31.8	13.8	2.20e-06	0	43	102	1048576	20	4714
2026-01-05 09:44:42.95	355.63	24.38	-29.5	-31.8	13.8	9.10e-06	0	43	102	1048576	20	4689
2026-01-05 09:44:43.96	355.52	24.23	-29.5	-31.9	13.8	5.30e-06	0	43	102	1048576	20	4739
2026-01-05 09:44:44.97	355.41	24.09	-29.6	-32.1	13.6	8.30e-06	0	43	102	1048576	20	4810
2026-01-05 09:44:45.97	355.30	23.95	-29.5	-31.9	13.8	6.80e-06	0	43	102	1048576	20	4726
2026-01-05 09:44:46.98	355.19	23.81	-29.5	-31.9	13.8	6.80e-06	0	43	102	1048576	20	4727
2026-01-05 09:44:47.99	355.08	23.67	-29.6	-32.0	13.7	5.30e-06	0	43	102	1048576	20	4764
2026-01-05 09:44:48.99	354.97	23.53	-29.5	-31.8	13.8	4.50e-06	0	43	102	1048576	20	4691
2026-01-05 09:44:50.00	354.86	23.39	-29.5	-31.8	13.8	7.60e-06	0	43	102	1048576	20	4718
2026-01-05 09:44:51.01	354.76	23.25	-29.6	-32.0	13.7	2.20e-06	0	43	102	1048576	20	4780
2026-01-05 09:44:52.01	354.65	23.12	-29.6	-32.0	13.7	1.06e-05	0	43	102	1048576	20	4766
2026-01-05 09:44:53.02	354.55	22.98	-29.7	-32.3	13.4	6.10e-06	0	43	102	1048576	20	4883
2026-01-05 09:44:54.03	354.44	22.84	-29.7	-32.4	13.4	1.52e-05	0	43	102	1048576	20	4909
2026-01-05 09:44:55.03	354.34	22.71	-29.8	-32.6	13.2	2.28e-05	0	43	102	1048576	20	4999
2026-01-05 09:44:56.04	354.24	22.57	-29.8	-32.7	13.2	2.05e-05	0	43	102	1048576	20	5040
2026-01-05 09:44:57.05	354.14	22.44	-29.8	-32.8	13.1	2.44e-05	0	43	102	1048576	20	5046
2026-01-05 09:44:58.06	354.04	22.30	-29.9	-32.9	13.1	3.28e-05	0	43	102	1048576	20	5085
2026-01-05 09:44:59.06	353.94	22.17	-29.8	-32.8	13.0	3.50e-05	0	44	102	1048576	20	5073
2026-01-05 09:45:00.06	353.84	22.04	-29.9	-33.0	12.9	3.12e-05	0	43	102	1048576	20	5158
2026-01-05 09:45:01.07	353.74	21.90	-30.0	-33.3	12.7	5.64e-05	0	44	102	1048576	20	5255
2026-01-05 09:45:02.08	353.65	21.77	-29.9	-33.0	12.9	5.11e-05	0	43	102	1048576	20	5143
2026-01-05 09:45:03.08	353.55	21.64	-29.8	-32.8	13.0	3.73e-05	0	43	102	1048576	20	5078
2026-01-05 09:45:04.09	353.46	21.51	-29.9	-33.1	12.9	4.11e-05	0	43	102	1048576	20	5181
2026-01-05 09:45:05.10	353.36	21.38	-30.0	-33.4	12.7	7.62e-05	0	43	102	1048576	20	5290
2026-01-05 09:45:06.10	353.27	21.25	-30.0	-33.2	12.7	6.10e-05	0	43	102	1048576	20	5243
2026-01-05 09:45:07.11	353.18	21.12	-30.0	-33.4	12.6	6.79e-05	0	43	102	1048576	20	5289
2026-01-05 09:45:08.12	353.09	20.99	-29.9	-33.2	12.8	6.25e-05	0	43	102	1048576	20	5208
2026-01-05 09:45:09.13	353.00	20.87	-29.9	-33.1	12.8	5.95e-05	0	44	102	1048576	20	5196
2026-01-05 09:45:10.14	352.91	20.74	-30.0	-33.4	12.6	8.39e-05	0	43	102	1048576	20	5325
2026-01-05 09:45:11.14	352.82	20.61	-29.9	-33.2	12.8	7.01e-05	0	43	102	1048576	20	5224
2026-01-05 09:45:12.15	352.73	20.49	-30.0	-33.3	12.7	6.94e-05	0	44	102	1048576	20	5266
2026-01-05 09:45:13.16	352.64	20.36	-29.8	-32.8	13.0	5.18e-05	0	44	102	1048576	20	5069
2026-01-05 09:45:14.17	352.55	20.24	-29.7	-32.5	13.2	3.12e-05	0	43	102	1048576	20	4957
2026-01-05 09:45:15.18	352.47	20.11	-29.6	-32.3	13.3	1.67e-05	0	43	102	1048576	20	4891
2026-01-05 09:45:16.18	352.38	19.99	-29.7	-32.5	13.2	1.22e-05	0	44	102	1048576	20	4954
2026-01-05 09:45:17.18	352.30	19.87	-29.7	-32.6	13.2	2.51e-05	0	43	102	1048576	20	4984
2026-01-05 09:45:18.19	352.21	19.74	-29.6	-32.2	13.4	2.13e-05	0	43	102	1048576	20	4845
2026-01-05 09:45:19.20	352.13	19.62	-29.5	-32.1	13.5	1.37e-05	0	43	102	1048576	20	4807
2026-01-05 09:45:20.21	352.05	19.50	-29.5	-32.0	13.5	1.22e-05	0	43	102	1048576	20	4777
2026-01-05 09:45:21.22	351.97	19.38	-29.6	-32.3	13.3	1.67e-05	0	43	102	1048576	20	4881
2026-01-05 09:45:22.22	351.88	19.26	-29.5	-32.0	13.5	1.37e-05	0	43	102	1048576	20	4779
2026-01-05 09:45:23.22	351.80	19.14	-29.6	-32.2	13.4	1.44e-05	0	43	102	1048576	20	4872
2026-01-05 09:45:24.23	351.72	19.02	-29.7	-32.6	13.1	1.52e-05	0	44	102	1048576	20	4993
2026-01-05 09:45:25.23	351.65	18.90	-29.5	-31.9	13.5	1.60e-05	0	43	102	1048576	20	4760
2026-01-05 09:45:26.23	351.57	18.78	-29.5	-32.0	13.5	1.44e-05	0	43	102	1048576	20	4788
2026-01-05 09:45:27.24	351.49	18.67	-29.5	-32.0	13.4	1.29e-05	0	43	102	1048576	20	4796
2026-01-05 09:45:28.25	351.41	18.55	-29.6	-32.3	13.2	1.06e-05	0	43	102	1048576	20	4899
2026-01-05 09:45:29.25	351.34	18.43	-29.6	-32.3	13.2	1.98e-05	0	43	102	1048576	20	4922
2026-01-05 09:45:30.26	351.26	18.31	-29.6	-32.2	13.3	1.67e-05	0	43	102	1048576	20	4875
2026-01-05 09:45:31.27	351.18	18.20	-29.7	-32.5	13.1	2.28e-05	0	43	102	1048576	20	4979
2026-01-05 09:45:32.27	351.11	18.08	-29.7	-32.6	13.0	3.35e-05	0	43	102	1048576	20	5005
2026-01-05 09:45:33.28	351.03	17.97	-29.9	-33.0	12.7	6.25e-05	0	43	102	1048576	20	5172
2026-01-05 09:45:34.28	350.96	17.85	-29.8	-32.9	12.8	5.79e-05	0	43	102	1048576	20	5151
2026-01-05 09:45:35.29	350.89	17.74	-30.0	-33.5	12.4	8.69e-05	0	43	102	1048576	20	5361
2026-01-05 09:45:36.30	350.82	17.63	-30.1	-33.8	12.2	2.18e-04	0	43	102	1048576	20	5502
2026-01-05 09:45:37.31	350.74	17.51	-30.0	-33.3	12.5	1.75e-04	0	44	102	1048576	20	5300
2026-01-05 09:45:38.31	350.67	17.40	-29.9	-33.2	12.6	9.00e-05	0	43	102	1048576	20	5253
2026-01-05 09:45:39.32	350.60	17.29	-29.8	-32.9	12.8	6.33e-05	0	43	102	1048576	20	5138
2026-01-05 09:45:40.33	350.53	17.18	-29.9	-33.2	12.6	7.70e-05	0	43	102	1048576	20	5237
2026-01-05 09:45:41.34	350.46	17.07	-29.9	-33.0	12.7	6.63e-05	0	43	102	1048576	20	5189
2026-01-05 09:45:42.34	350.39	16.96	-29.8	-32.8	12.8	6.94e-05	0	43	102	1048576	20	5112
2026-01-05 09:45:43.35	350.32	16.85	-29.8	-33.0	12.7	7.47e-05	0	43	102	1048576	20	5165
2026-01-05 09:45:44.36	350.25	16.74	-29.8	-32.7	12.9	5.79e-05	0	43	102	1048576	20	5067
2026-01-05 09:45:45.37	350.19	16.63	-29.8	-32.8	12.8	5.03e-05	0	43	102	1048576	20	5089
2026-01-05 09:45:46.37	350.12	16.52	-29.7	-32.7	12.9	6.25e-05	0	43	102	1048576	20	5058
2026-01-05 09:45:47.37	350.05	16.41	-29.8	-32.8	12.8	5.87e-05	0	43	102	1048576	20	5087
2026-01-05 09:45:48.38	349.99	16.30	-29.8	-32.9	12.7	7.09e-05	0	43	102	1048576	20	5157
2026-01-05 09:45:49.38	349.92	16.19	-29.9	-33.1	12.6	9.46e-05	0	43	102	1048576	20	5216
2026-01-05 09:45:50.39	349.86	16.09	-29.9	-33.1	12.6	8.69e-05	0	43	102	1048576	20	5234
2026-01-05 09:45:51.40	349.79	15.98	-29.9	-33.1	12.6	9.61e-05	0	43	102	1048576	20	5217
2026-01-05 09:45:52.40	349.73	15.87	-29.9	-33.1	12.6	7.70e-05	0	44	102	1048576	20	5220
2026-01-05 09:45:53.41	349.66	15.77	-29.8	-32.9	12.6	7.78e-05	0	43	102	1048576	20	5152
2026-01-05 09:45:54.42	349.60	15.66	-29.9	-33.2	12.5	1.15e-04	0	43	102	1048576	20	5264
2026-01-05 09:45:55.42	349.54	15.56	-29.9	-33.3	12.4	1.40e-04	0	43	102	1048576	20	5292
2026-01-05 09:45:56.43	349.48	15.45	-29.9	-33.1	12.5	1.10e-04	0	43	102	1048576	20	5244
2026-01-05 09:45:57.44	349.41	15.35	-29.9	-33.1	12.5	1.29e-04	0	43	102	1048576	20	5240
2026-01-05 09:45:58.45	349.35	15.24	-29.9	-33.3	12.4	1.45e-04	0	43	102	1048576	20	5306
2026-01-05 09:45:59.45	349.29	15.14	-29.9	-33.3	12.3	1.46e-04	0	43	102	1048576	20	5329
2026-01-05 09:46:00.46	349.23	15.04	-30.0	-33.6	12.2	1.85e-04	0	43	102	1048576	20	5428
2026-01-05 09:46:01.48	349.17	14.93	-30.1	-33.9	12.0	3.04e-04	0	43	102	1048576	20	5545
2026-01-05 09:46:02.47	349.11	14.83	-30.1	-33.7	12.1	2.53e-04	0	43	102	1048576	20	5485
2026-01-05 09:46:03.48	349.05	14.73	-30.1	-33.8	12.0	3.31e-04	0	43	102	1048576	20	5509
2026-01-05 09:46:04.49	348.99	14.63	-30.1	-33.8	12.0	2.85e-04	0	43	102	1048576	20	5504
2026-01-05 09:46:05.50	348.94	14.53	-30.1	-33.8	12.0	2.71e-04	0	43	102	1048576	20	5508
2026-01-05 09:46:06.51	348.88	14.43	-30.1	-33.8	12.0	2.79e-04	0	43	102	1048576	20	5527
2026-01-05 09:46:07.51	348.82	14.33	-30.1	-34.0	11.8	4.82e-04	0	43	102	1048576	20	5615
2026-01-05 09:46:08.52	348.76	14.23	-30.1	-33.8	12.0	3.36e-04	0	43	102	1048576	20	5520
2026-01-05 09:46:09.52	348.71	14.13	-30.1	-33.9	12.0	3.56e-04	0	43	102	1048576	20	5551
2026-01-05 09:46:10.53	348.65	14.03	-30.1	-33.9	11.9	3.87e-04	0	43	102	1048576	20	5584
2026-01-05 09:46:11.54	348.59	13.93	-30.0	-33.6	12.1	2.96e-04	0	43	102	1048576	20	5452
2026-01-05 09:46:12.54	348.54	13.83	-30.1	-34.0	11.8	3.57e-04	0	43	102	1048576	20	5632
2026-01-05 09:46:13.55	348.48	13.74	-30.1	-34.0	11.8	5.02e-04	0	43	102	1048576	20	5631
2026-01-05 09:46:14.55	348.43	13.64	-30.1	-33.8	11.9	3.93e-04	0	43	102	1048576	20	5557
2026-01-05 09:46:15.56	348.38	13.54	-30.1	-33.9	11.8	4.17e-04	0	43	102	1048576	20	5597
2026-01-05 09:46:16.57	348.32	13.44	-30.1	-33.9	11.9	4.40e-04	0	43	102	1048576	20	5568
2026-01-05 09:46:17.58	348.27	13.35	-30.1	-33.8	11.9	4.59e-04	0	43	102	1048576	20	5556
2026-01-05 09:46:18.59	348.22	13.25	-30.1	-34.0	11.8	5.22e-04	0	43	102	1048576	20	5605
2026-01-05 09:46:19.60	348.16	13.15	-30.1	-33.9	11.8	4.83e-04	0	43	102	1048576	20	5564
2026-01-05 09:46:20.60	348.11	13.06	-30.1	-33.9	11.8	5.34e-04	0	44	102	1048576	20	5575
2026-01-05 09:46:21.61	348.06	12.96	-30.1	-33.8	11.8	4.26e-04	0	43	102	1048576	20	5555
2026-01-05 09:46:22.61	348.01	12.87	-30.1	-33.9	11.8	4.52e-04	0	43	102	1048576	20	5572
2026-01-05 09:46:23.62	347.96	12.78	-30.0	-33.8	11.9	4.30e-04	0	44	102	1048576	20	5525
2026-01-05 09:46:24.63	347.90	12.68	-30.1	-34.0	11.8	5.22e-04	0	43	102	1048576	20	5625
2026-01-05 09:46:25.64	347.85	12.59	-30.1	-34.0	11.8	5.65e-04	0	43	102	1048576	20	5624
2026-01-05 09:46:26.64	347.80	12.49	-30.1	-33.9	11.8	4.53e-04	0	44	102	1048576	20	5590
2026-01-05 09:46:27.65	347.75	12.40	-30.1	-34.1	11.7	5.45e-04	0	43	102	1048576	20	5659
2026-01-05 09:46:28.65	347.70	12.31	-30.1	-34.1	11.6	6.39e-04	0	43	102	1048576	20	5681
2026-01-05 09:46:29.66	347.65	12.22	-30.2	-34.3	11.4	8.92e-04	0	43	102	1048576	20	5778
2026-01-05 09:46:30.67	347.61	12.12	-30.1	-33.9	11.7	6.03e-04	0	43	102	1048576	20	5616
2026-01-05 09:46:31.68	347.56	12.03	-30.1	-34.0	11.7	5.11e-04	0	43	102	1048576	20	5657
2026-01-05 09:46:32.68	347.51	11.94	-30.1	-33.9	11.8	5.91e-04	0	43	102	1048576	20	5590
2026-01-05 09:46:33.69	347.46	11.85	-30.1	-34.1	11.6	6.01e-04	0	43	102	1048576	20	5668
2026-01-05 09:46:34.70	347.41	11.76	-30.2	-34.3	11.4	8.41e-04	0	43	102	1048576	20	5801
2026-01-05 09:46:35.70	347.37	11.67	-30.2	-34.2	11.5	9.36e-04	0	43	102	1048576	20	5724
2026-01-05 09:46:36.71	347.32	11.58	-30.1	-34.2	11.5	8.32e-04	0	43	102	1048576	20	5723
2026-01-05 09:46:37.72	347.27	11.49	-30.1	-34.2	11.5	8.22e-04	0	43	102	1048576	20	5718
2026-01-05 09:46:38.73	347.23	11.40	-30.2	-34.3	11.4	8.99e-04	0	43	102	1048576	20	5800
2026-01-05 09:46:39.74	347.18	11.31	-30.2	-34.4	11.3	1.03e-03	0	43	102	1048576	20	5830
2026-01-05 09:46:40.74	347.13	11.22	-30.2	-34.3	11.4	1.05e-03	0	44	102	1048576	20	5774
2026-01-05 09:46:41.75	347.09	11.13	-30.2	-34.4	11.3	1.03e-03	0	44	102	1048576	20	5836
2026-01-05 09:46:42.75	347.04	11.04	-30.2	-34.4	11.2	1.17e-03	0	43	102	1048576	20	5849
2026-01-05 09:46:43.75	347.00	10.96	-30.2	-34.3	11.4	9.98e-04	0	43	102	1048576	20	5810
2026-01-05 09:46:44.76	346.95	10.87	-30.2	-34.5	11.3	1.27e-03	0	43	102	1048576	20	5860
2026-01-05 09:46:45.77	346.91	10.78	-30.3	-34.6	11.1	1.35e-03	0	43	102	1048576	20	5923
2026-01-05 09:46:46.78	346.87	10.69	-30.3	-34.8	11.0	1.57e-03	0	43	102	1048576	20	6018
2026-01-05 09:46:47.79	346.82	10.61	-30.3	-34.8	10.9	2.00e-03	0	43	102	1048576	20	6048
2026-01-05 09:46:48.79	346.78	10.52	-30.3	-34.8	10.9	1.94e-03	0	43	102	1048576	20	6047
2026-01-05 09:46:49.79	346.74	10.43	-30.4	-35.2	10.6	2.78e-03	0	43	102	1048576	20	6252
2026-01-05 09:46:50.80	346.69	10.35	-30.4	-35.2	10.7	3.32e-03	0	43	102	1048576	20	6205
2026-01-05 09:46:51.81	346.65	10.26	-30.4	-35.0	10.8	2.38e-03	0	43	102	1048576	20	6118
2026-01-05 09:46:52.82	346.61	10.18	-30.4	-35.1	10.7	2.63e-03	0	44	102	1048576	20	6186
2026-01-05 09:46:53.82	346.57	10.09	-30.4	-35.1	10.7	2.82e-03	0	43	102	1048576	20	6167
2026-01-05 09:46:54.83	346.52	10.01	-30.4	-35.0	10.7	2.76e-03	0	43	102	1048576	20	6136
2026-01-05 09:46:55.84	346.48	9.92	-30.4	-35.1	10.7	2.80e-03	0	43	102	1048576	20	6177
2026-01-05 09:46:56.84	346.44	9.84	-30.5	-35.3	10.6	3.06e-03	0	43	102	1048576	20	6281
2026-01-05 09:46:57.85	346.40	9.75	-30.4	-35.2	10.5	3.72e-03	0	43	102	1048576	20	6267
2026-01-05 09:46:58.85	346.36	9.67	-30.4	-35.2	10.6	3.74e-03	0	43	102	1048576	20	6244
2026-01-05 09:46:59.85	346.32	9.59	-30.5	-35.4	10.4	4.36e-03	0	43	102	1048576	20	6371
2026-01-05 09:47:00.86	346.28	9.50	-30.5	-35.0	10.4	4.87e-03	0	43	102	1048576	21	6034
2026-01-05 09:47:01.87	346.24	9.42	-30.6	-35.3	10.1	6.02e-03	0	43	102	1048576	21	6202
2026-01-05 09:47:02.88	346.20	9.34	-30.6	-35.3	10.1	7.36e-03	0	43	102	1048576	21	6185
2026-01-05 09:47:03.89	346.16	9.25	-30.6	-35.2	10.1	6.50e-03	0	43	102	1048576	21	6164
2026-01-05 09:47:04.89	346.12	9.17	-30.6	-35.5	9.9	8.07e-03	0	44	102	1048576	21	6336
2026-01-05 09:47:05.90	346.08	9.09	-30.6	-35.4	10.0	8.45e-03	0	43	102	1048576	21	6271
2026-01-05 09:47:06.91	346.04	9.01	-30.6	-35.4	9.9	7.75e-03	0	43	102	1048576	21	6280
2026-01-05 09:47:07.91	346.00	8.93	-30.6	-35.3	10.0	7.70e-03	0	43	102	1048576	21	6202
2026-01-05 09:47:08.92	345.97	8.85	-30.7	-35.6	9.8	8.34e-03	0	44	102	1048576	21	6386
2026-01-05 09:47:09.93	345.93	8.76	-30.6	-35.6	9.8	9.77e-03	0	43	102	1048576	21	6340
2026-01-05 09:47:10.94	345.89	8.68	-30.6	-35.6	9.8	9.85e-03	0	43	102	1048576	21	6366
2026-01-05 09:47:11.95	345.85	8.60	-30.6	-35.6	9.7	1.08e-02	0	44	102	1048576	21	6382
2026-01-05 09:47:12.95	345.82	8.52	-30.7	-36.0	9.5	1.28e-02	0	43	102	1048576	21	6587
2026-01-05 09:47:13.96	345.78	8.44	-30.8	-36.2	9.3	1.88e-02	0	43	102	1048576	21	6697
2026-01-05 09:47:14.97	345.74	8.36	-30.8	-36.2	9.2	1.92e-02	0	43	102	1048576	21	6719
2026-01-05 09:47:15.98	345.70	8.28	-30.8	-36.3	9.2	2.05e-02	0	43	102	1048576	21	6766
2026-01-05 09:47:16.99	345.67	8.20	-30.9	-36.7	8.8	2.83e-02	0	43	102	1048576	21	7022
2026-01-05 09:47:17.99	345.63	8.13	-30.8	-36.4	9.1	2.60e-02	0	44	102	1048576	21	6819
2026-01-05 09:47:19.00	345.60	8.05	-30.9	-36.7	8.8	2.52e-02	0	43	102	1048576	21	7035
2026-01-05 09:47:20.01	345.56	7.97	-30.8	-36.4	8.9	2.78e-02	0	43	102	1048576	21	6886
