passes_logs/2026/01/05/R2M6_AANII_01/R2M6_AANII_01__20260105_020308_FENGYUN_3D_rec.log

#Pass ID: 20260105_020308_FENGYUN 3D
#Satellite: FENGYUN 3D
#Configuration: FENGYUN 3D
#almurnet v.1.7.20240730
#Start time: 2026-01-05 02:03:10

#Version: 2.2.20231116
#Station: R2M6_AANII_01
#Location: 30.233357 lon 59.946436 lat
#TLE: 1 43010U 17072A   26004.50247883 -.00000063  00000+0 -78815-5 0  9998
#TLE: 2 43010  98.9915 336.1565 0001968 126.3752 233.7605 14.19691805421760

#Time	Az	El	Level	Level2	SNR	BER	BlckErr	Temp	State	Recorded	gain1	gain2
2026-01-05 02:03:10.49	20.60	7.12	-27.6	-30.1	5.7	7.76e-01	0	41	0	0	15	4754
2026-01-05 02:03:11.49	20.63	7.20	-27.2	-29.5	5.6	7.77e-01	0	41	104	0	15	4742
2026-01-05 02:03:12.50	20.65	7.27	-28.2	-30.9	11.3	1.24e-03	0	41	0	0	16	4911
2026-01-05 02:03:13.51	20.68	7.35	-28.3	-31.2	10.6	1.75e-03	0	41	102	1048576	16	5005
2026-01-05 02:03:14.52	20.70	7.43	-28.3	-31.1	11.1	2.97e-03	0	41	102	1048576	16	4965
2026-01-05 02:03:15.53	20.72	7.51	-28.5	-31.2	11.0	2.39e-03	0	41	102	1048576	17	4879
2026-01-05 02:03:16.53	20.75	7.59	-28.6	-31.3	10.9	3.32e-03	0	41	102	1048576	17	4919
2026-01-05 02:03:17.54	20.77	7.66	-28.2	-30.9	11.5	1.56e-03	0	41	102	1048576	16	4912
2026-01-05 02:03:18.55	20.80	7.74	-28.0	-30.4	11.8	8.59e-04	0	41	102	1048576	16	4737
2026-01-05 02:03:19.55	20.82	7.82	-27.7	-30.0	12.2	4.27e-04	0	41	102	1048576	15	4724
2026-01-05 02:03:20.56	20.85	7.90	-27.5	-29.6	12.5	2.68e-04	0	41	102	1048576	15	4588
2026-01-05 02:03:21.57	20.87	7.98	-27.4	-30.0	12.6	1.43e-04	0	41	102	1048576	14	4826
2026-01-05 02:03:22.58	20.90	8.06	-27.3	-29.6	12.8	1.32e-04	0	42	102	1048576	14	4708
2026-01-05 02:03:23.58	20.92	8.14	-27.1	-29.2	13.0	1.22e-03	0	41	102	1048576	14	4586
2026-01-05 02:03:24.60	20.95	8.22	-27.0	-28.9	13.2	5.26e-05	0	41	102	1048576	14	4499
2026-01-05 02:03:25.60	20.97	8.30	-26.7	-29.0	13.0	1.12e-03	0	42	102	1048576	13	4686
2026-01-05 02:03:26.61	21.00	8.38	-26.9	-29.3	12.4	1.05e-03	0	42	102	1048576	13	4714
2026-01-05 02:03:27.62	21.03	8.46	-26.9	-29.2	13.3	2.74e-05	0	42	102	1048576	13	4708
2026-01-05 02:03:28.62	21.05	8.54	-27.1	-29.1	13.0	1.10e-03	0	42	102	1048576	14	4556
2026-01-05 02:03:29.63	21.08	8.62	-27.3	-29.5	12.9	4.92e-05	0	42	102	1048576	14	4677
2026-01-05 02:03:30.64	21.10	8.71	-27.3	-29.7	12.8	1.12e-04	0	42	102	1048576	14	4722
2026-01-05 02:03:31.65	21.13	8.79	-27.1	-29.1	13.2	7.70e-04	0	42	102	1048576	14	4559
2026-01-05 02:03:32.66	21.16	8.87	-26.7	-28.7	13.7	1.03e-03	0	42	102	1048576	13	4539
2026-01-05 02:03:33.66	21.18	8.95	-26.7	-28.8	13.7	1.02e-05	0	42	102	1048576	13	4552
2026-01-05 02:03:34.67	21.21	9.04	-26.6	-28.4	13.9	1.46e-03	0	42	102	1048576	13	4448
2026-01-05 02:03:35.68	21.24	9.12	-26.6	-28.5	13.8	9.82e-04	0	42	102	1048576	13	4473
2026-01-05 02:03:36.68	21.26	9.20	-26.4	-28.1	14.1	2.20e-06	0	42	102	1048576	13	4358
2026-01-05 02:03:37.69	21.29	9.29	-26.7	-28.7	13.7	1.00e-03	0	42	102	1048576	13	4528
2026-01-05 02:03:38.69	21.32	9.37	-26.6	-28.5	13.8	4.26e-04	0	42	102	1048576	13	4474
2026-01-05 02:03:39.70	21.34	9.45	-26.4	-28.0	14.2	2.20e-06	0	42	102	1048576	13	4321
2026-01-05 02:03:40.71	21.37	9.54	-26.4	-28.6	14.1	4.02e-04	0	42	102	1048576	12	4596
2026-01-05 02:03:41.72	21.40	9.62	-26.3	-28.3	14.3	1.51e-03	0	42	102	1048576	12	4529
2026-01-05 02:03:42.72	21.43	9.71	-26.4	-28.6	14.1	2.20e-06	0	42	102	1048576	12	4601
2026-01-05 02:03:43.73	21.46	9.79	-26.4	-28.4	14.2	4.87e-04	0	42	102	1048576	12	4561
2026-01-05 02:03:44.73	21.48	9.88	-26.5	-28.2	14.1	9.51e-04	0	42	102	1048576	13	4381
2026-01-05 02:03:45.74	21.51	9.96	-26.4	-28.0	14.2	3.40e-06	0	42	102	1048576	13	4328
2026-01-05 02:03:46.75	21.54	10.05	-26.7	-28.6	13.9	1.49e-03	0	42	102	1048576	13	4513
2026-01-05 02:03:47.75	21.57	10.14	-26.7	-28.6	13.9	3.81e-04	0	42	102	1048576	13	4500
2026-01-05 02:03:48.76	21.60	10.22	-26.5	-28.2	14.1	8.00e-06	0	42	102	1048576	13	4370
2026-01-05 02:03:49.76	21.62	10.31	-26.4	-28.6	14.2	4.51e-04	0	42	102	1048576	12	4601
2026-01-05 02:03:50.78	21.65	10.40	-26.4	-28.6	14.2	5.61e-04	0	42	102	1048576	12	4600
2026-01-05 02:03:51.78	21.68	10.48	-26.4	-28.5	14.2	1.10e-06	0	42	102	1048576	12	4576
2026-01-05 02:03:52.79	21.71	10.57	-26.4	-28.5	14.3	6.24e-04	0	42	102	1048576	12	4577
2026-01-05 02:03:53.79	21.74	10.66	-26.5	-28.7	14.2	1.40e-03	0	42	102	1048576	12	4627
2026-01-05 02:03:54.80	21.77	10.75	-26.4	-28.6	14.2	4.50e-06	0	42	102	1048576	12	4594
2026-01-05 02:03:55.80	21.80	10.84	-26.4	-28.5	14.3	5.73e-04	0	42	102	1048576	12	4563
2026-01-05 02:03:56.81	21.83	10.93	-26.5	-28.7	14.2	5.56e-04	0	42	102	1048576	12	4628
2026-01-05 02:03:57.82	21.86	11.02	-26.4	-28.0	14.3	1.10e-06	0	42	102	1048576	13	4314
2026-01-05 02:03:58.82	21.89	11.11	-26.5	-28.6	14.2	1.10e-06	0	42	102	1048576	12	4622
2026-01-05 02:03:59.83	21.92	11.20	-26.4	-28.5	14.3	6.19e-04	0	42	102	1048576	12	4572
2026-01-05 02:04:00.84	21.95	11.29	-26.3	-28.3	14.4	1.10e-06	0	43	102	1048576	12	4515
2026-01-05 02:04:01.85	21.98	11.38	-26.3	-28.2	14.5	6.12e-04	0	42	102	1048576	12	4488
2026-01-05 02:04:02.85	22.01	11.47	-26.3	-28.1	14.5	3.40e-06	0	42	102	1048576	12	4474
2026-01-05 02:04:03.86	22.04	11.56	-26.3	-28.3	14.5	1.10e-06	0	42	102	1048576	12	4505
2026-01-05 02:04:04.86	22.07	11.65	-26.2	-28.1	14.6	5.07e-04	0	42	102	1048576	12	4450
2026-01-05 02:04:05.87	22.10	11.74	-26.2	-28.1	14.6	0.00e+00	0	42	102	1048576	12	4454
2026-01-05 02:04:06.88	22.13	11.84	-26.3	-28.2	14.5	0.00e+00	0	42	102	1048576	12	4497
2026-01-05 02:04:07.89	22.17	11.93	-26.1	-27.8	14.7	0.00e+00	0	42	102	1048576	12	4386
2026-01-05 02:04:08.90	22.20	12.02	-26.2	-28.1	14.6	4.19e-04	0	42	102	1048576	12	4462
2026-01-05 02:04:09.90	22.23	12.12	-26.2	-27.9	14.7	0.00e+00	0	42	102	1048576	12	4409
2026-01-05 02:04:10.91	22.26	12.21	-26.2	-28.0	14.6	0.00e+00	0	43	102	1048576	12	4427
2026-01-05 02:04:11.91	22.29	12.30	-26.1	-27.9	14.7	1.10e-06	0	42	102	1048576	12	4394
2026-01-05 02:04:12.92	22.33	12.40	-26.1	-27.8	14.8	0.00e+00	0	43	102	1048576	12	4373
2026-01-05 02:04:13.93	22.36	12.49	-26.2	-28.0	14.6	3.52e-04	0	42	102	1048576	12	4436
2026-01-05 02:04:14.93	22.39	12.59	-26.1	-27.8	14.7	2.20e-06	0	42	102	1048576	12	4380
2026-01-05 02:04:15.94	22.42	12.69	-26.1	-27.8	14.8	0.00e+00	0	43	102	1048576	12	4362
2026-01-05 02:04:16.95	22.46	12.78	-26.1	-27.7	14.8	0.00e+00	0	42	102	1048576	12	4343
2026-01-05 02:04:17.95	22.49	12.88	-26.2	-28.0	14.7	0.00e+00	0	43	102	1048576	12	4423
2026-01-05 02:04:18.96	22.52	12.97	-26.2	-27.9	14.7	0.00e+00	0	43	102	1048576	12	4406
2026-01-05 02:04:19.97	22.56	13.07	-26.4	-28.4	14.4	2.20e-06	0	43	102	1048576	12	4559
2026-01-05 02:04:20.98	22.59	13.17	-26.3	-28.2	14.6	0.00e+00	0	42	102	1048576	12	4473
2026-01-05 02:04:21.99	22.63	13.27	-26.4	-28.4	14.5	2.20e-06	0	43	102	1048576	12	4550
2026-01-05 02:04:22.99	22.66	13.37	-26.3	-28.1	14.6	0.00e+00	0	43	102	1048576	12	4469
2026-01-05 02:04:24.00	22.69	13.47	-26.2	-28.0	14.7	0.00e+00	0	43	102	1048576	12	4433
2026-01-05 02:04:25.00	22.73	13.56	-26.1	-27.9	14.8	0.00e+00	0	43	102	1048576	12	4392
2026-01-05 02:04:26.01	22.76	13.66	-26.2	-27.9	14.8	1.10e-06	0	43	102	1048576	12	4396
2026-01-05 02:04:27.02	22.80	13.76	-26.2	-28.1	14.7	0.00e+00	0	42	102	1048576	12	4444
2026-01-05 02:04:28.03	22.83	13.86	-26.1	-27.8	14.9	0.00e+00	0	42	102	1048576	12	4366
2026-01-05 02:04:29.03	22.87	13.96	-25.9	-27.4	15.1	0.00e+00	0	43	102	1048576	12	4255
2026-01-05 02:04:30.04	22.90	14.07	-26.0	-27.9	15.2	0.00e+00	0	43	102	1048576	11	4505
2026-01-05 02:04:31.05	22.94	14.17	-26.0	-27.9	15.2	0.00e+00	0	43	102	1048576	11	4504
2026-01-05 02:04:32.06	22.98	14.27	-25.8	-27.6	15.4	0.00e+00	0	43	102	1048576	11	4411
2026-01-05 02:04:33.05	23.01	14.37	-26.0	-27.9	15.2	0.00e+00	0	43	102	1048576	11	4504
2026-01-05 02:04:34.06	23.05	14.47	-25.1	-26.8	15.0	0.00e+00	0	42	102	1048576	11	4348
2026-01-05 02:04:35.07	23.09	14.58	-25.8	-27.7	13.7	0.00e+00	0	43	102	1048576	11	4440
2026-01-05 02:04:36.08	23.12	14.68	-26.0	-28.0	15.1	0.00e+00	0	43	102	1048576	11	4523
2026-01-05 02:04:37.09	23.16	14.79	-25.8	-27.6	15.0	0.00e+00	0	43	102	1048576	11	4409
2026-01-05 02:04:38.09	23.20	14.89	-25.6	-27.2	15.6	5.86e-04	0	43	102	1048576	11	4300
2026-01-05 02:04:39.10	23.24	15.00	-25.6	-27.1	15.7	0.00e+00	0	43	102	1048576	11	4281
2026-01-05 02:04:40.11	23.27	15.10	-25.7	-27.2	15.6	0.00e+00	0	43	102	1048576	11	4314
2026-01-05 02:04:41.11	23.31	15.21	-25.5	-27.0	15.7	0.00e+00	0	43	102	1048576	11	4256
2026-01-05 02:04:42.12	23.35	15.31	-25.5	-26.9	15.8	0.00e+00	0	43	102	1048576	11	4229
2026-01-05 02:04:43.13	23.39	15.42	-25.6	-27.1	15.7	5.80e-04	0	43	102	1048576	11	4268
2026-01-05 02:04:44.14	23.43	15.53	-25.5	-27.3	15.9	0.00e+00	0	43	102	1048576	10	4439
2026-01-05 02:04:45.15	23.47	15.64	-25.3	-27.0	16.0	0.00e+00	0	43	102	1048576	10	4353
2026-01-05 02:04:46.15	23.51	15.74	-25.4	-27.2	15.9	0.00e+00	0	43	102	1048576	10	4420
2026-01-05 02:04:47.16	23.55	15.85	-25.5	-26.9	15.8	8.23e-04	0	43	102	1048576	11	4217
2026-01-05 02:04:48.17	23.59	15.96	-25.4	-26.6	16.0	0.00e+00	0	43	102	1048576	11	4155
2026-01-05 02:04:49.18	23.63	16.07	-24.5	-26.1	15.2	8.43e-04	0	43	102	1048576	10	4327
2026-01-05 02:04:50.19	23.67	16.18	-25.3	-27.0	14.5	7.69e-04	0	43	102	1048576	10	4355
2026-01-05 02:04:51.20	23.71	16.30	-25.2	-26.7	16.2	0.00e+00	0	43	102	1048576	10	4293
2026-01-05 02:04:52.20	23.75	16.41	-25.2	-26.7	16.2	8.06e-04	0	43	102	1048576	10	4281
2026-01-05 02:04:53.21	23.79	16.52	-25.1	-26.6	16.3	0.00e+00	0	43	102	1048576	10	4253
2026-01-05 02:04:54.22	23.83	16.63	-25.2	-26.8	16.2	0.00e+00	0	43	102	1048576	10	4303
2026-01-05 02:04:55.22	23.87	16.74	-25.0	-26.4	16.4	9.11e-04	0	43	102	1048576	10	4194
2026-01-05 02:04:56.23	23.91	16.86	-25.0	-26.2	16.5	1.43e-03	0	43	102	1048576	10	4164
2026-01-05 02:04:57.24	23.96	16.97	-25.0	-26.2	16.5	0.00e+00	0	43	102	1048576	10	4152
2026-01-05 02:04:58.24	24.00	17.08	-24.9	-26.2	16.5	1.46e-03	0	43	102	1048576	10	4147
2026-01-05 02:04:59.25	24.04	17.20	-24.9	-26.6	16.5	8.40e-04	0	43	102	1048576	9	4371
2026-01-05 02:05:00.25	24.09	17.31	-25.0	-26.3	16.4	0.00e+00	0	43	102	1048576	10	4181
2026-01-05 02:05:01.26	24.13	17.43	-24.9	-26.0	16.6	1.26e-03	0	43	102	1048576	10	4097
2026-01-05 02:05:02.27	24.17	17.55	-24.8	-26.4	16.6	9.54e-04	0	43	102	1048576	9	4312
2026-01-05 02:05:03.28	24.22	17.66	-24.8	-26.3	16.7	0.00e+00	0	43	102	1048576	9	4283
2026-01-05 02:05:04.28	24.26	17.78	-24.7	-26.2	16.8	9.42e-04	0	43	102	1048576	9	4256
2026-01-05 02:05:05.29	24.31	17.90	-24.7	-26.1	16.8	1.40e-03	0	43	102	1048576	9	4249
2026-01-05 02:05:06.29	24.35	18.02	-24.7	-26.1	16.8	0.00e+00	0	43	102	1048576	9	4240
2026-01-05 02:05:07.31	24.40	18.14	-24.7	-26.2	16.8	3.40e-04	0	43	102	1048576	9	4260
2026-01-05 02:05:08.31	24.44	18.26	-24.7	-26.1	16.8	1.32e-03	0	43	102	1048576	9	4224
2026-01-05 02:05:09.32	24.49	18.38	-24.7	-26.1	16.8	0.00e+00	0	43	102	1048576	9	4229
2026-01-05 02:05:10.32	24.53	18.50	-24.7	-26.1	16.8	1.26e-03	0	43	102	1048576	9	4246
2026-01-05 02:05:11.33	24.58	18.62	-24.8	-26.3	16.7	3.35e-04	0	43	102	1048576	9	4288
2026-01-05 02:05:12.33	24.63	18.74	-24.8	-26.4	16.7	0.00e+00	0	43	102	1048576	9	4312
2026-01-05 02:05:13.34	24.68	18.86	-24.7	-26.2	16.8	0.00e+00	0	43	102	1048576	9	4249
2026-01-05 02:05:14.35	24.72	18.99	-24.6	-26.0	16.9	2.86e-04	0	43	102	1048576	9	4216
2026-01-05 02:05:15.36	24.77	19.11	-24.7	-26.2	16.8	0.00e+00	0	43	102	1048576	9	4252
2026-01-05 02:05:16.37	24.82	19.24	-24.7	-26.2	16.8	2.53e-04	0	43	102	1048576	9	4260
2026-01-05 02:05:17.38	24.87	19.36	-24.6	-25.9	17.0	1.10e-03	0	43	102	1048576	9	4185
2026-01-05 02:05:18.38	24.92	19.49	-24.7	-26.0	16.9	0.00e+00	0	43	102	1048576	9	4219
2026-01-05 02:05:19.38	24.97	19.61	-24.7	-26.1	16.8	3.01e-04	0	43	102	1048576	9	4242
2026-01-05 02:05:20.39	25.02	19.74	-24.5	-25.6	17.2	0.00e+00	0	43	102	1048576	9	4108
2026-01-05 02:05:21.40	25.07	19.87	-24.4	-25.5	17.2	0.00e+00	0	43	102	1048576	9	4069
2026-01-05 02:05:22.40	25.12	19.99	-24.4	-25.4	17.3	0.00e+00	0	43	102	1048576	9	4060
2026-01-05 02:05:23.41	25.17	20.12	-24.3	-25.8	17.3	2.49e-04	0	43	102	1048576	8	4276
2026-01-05 02:05:24.41	25.22	20.25	-24.3	-25.7	17.4	0.00e+00	0	43	102	1048576	8	4249
2026-01-05 02:05:25.42	25.27	20.38	-24.3	-25.7	17.4	0.00e+00	0	43	102	1048576	8	4254
2026-01-05 02:05:26.42	25.32	20.51	-24.3	-25.7	17.3	2.76e-04	0	43	102	1048576	8	4248
2026-01-05 02:05:27.42	25.38	20.64	-24.3	-25.9	17.3	0.00e+00	0	43	102	1048576	8	4291
2026-01-05 02:05:28.43	25.43	20.78	-24.4	-26.0	17.2	2.02e-04	0	43	102	1048576	8	4317
2026-01-05 02:05:29.43	25.48	20.91	-24.3	-25.7	17.4	0.00e+00	0	43	102	1048576	8	4243
2026-01-05 02:05:30.44	25.54	21.04	-24.2	-25.6	17.4	0.00e+00	0	43	102	1048576	8	4226
2026-01-05 02:05:31.45	25.59	21.18	-24.2	-25.5	17.5	0.00e+00	0	43	102	1048576	8	4201
2026-01-05 02:05:32.46	25.65	21.31	-24.2	-25.5	17.5	0.00e+00	0	43	102	1048576	8	4184
2026-01-05 02:05:33.46	25.70	21.45	-24.2	-25.6	17.5	0.00e+00	0	43	102	1048576	8	4210
2026-01-05 02:05:34.47	25.76	21.58	-24.2	-25.6	17.5	0.00e+00	0	43	102	1048576	8	4228
2026-01-05 02:05:35.48	25.81	21.72	-24.1	-25.3	17.6	2.45e-04	0	43	102	1048576	8	4142
2026-01-05 02:05:36.48	25.87	21.86	-24.0	-25.2	17.7	0.00e+00	0	43	102	1048576	8	4112
2026-01-05 02:05:37.49	25.93	22.00	-24.0	-25.2	17.7	0.00e+00	0	43	102	1048576	8	4107
2026-01-05 02:05:38.50	25.99	22.14	-24.1	-25.2	17.7	0.00e+00	0	43	102	1048576	8	4120
2026-01-05 02:05:39.50	26.04	22.28	-24.1	-25.4	17.6	0.00e+00	0	43	102	1048576	8	4161
2026-01-05 02:05:40.50	26.10	22.42	-24.1	-25.4	17.6	0.00e+00	0	43	102	1048576	8	4165
2026-01-05 02:05:41.51	26.16	22.56	-24.0	-25.1	17.7	0.00e+00	0	43	102	1048576	8	4094
2026-01-05 02:05:42.52	26.22	22.70	-23.9	-25.0	17.9	0.00e+00	0	43	102	1048576	8	4059
2026-01-05 02:05:43.53	26.28	22.84	-24.0	-25.2	17.7	0.00e+00	0	43	102	1048576	8	4110
2026-01-05 02:05:44.53	26.34	22.99	-24.0	-25.1	17.8	0.00e+00	0	43	102	1048576	8	4088
2026-01-05 02:05:45.53	26.40	23.13	-23.9	-24.9	17.9	0.00e+00	0	43	102	1048576	8	4031
2026-01-05 02:05:46.54	26.46	23.28	-24.0	-25.1	17.8	0.00e+00	0	43	102	1048576	8	4077
2026-01-05 02:05:47.55	26.53	23.42	-23.9	-24.9	17.9	0.00e+00	0	43	102	1048576	8	4039
2026-01-05 02:05:48.56	26.59	23.57	-23.8	-24.8	18.0	0.00e+00	0	43	102	1048576	8	4008
2026-01-05 02:05:49.56	26.65	23.72	-23.8	-24.6	18.1	0.00e+00	0	43	102	1048576	8	3965
2026-01-05 02:05:50.57	26.72	23.87	-23.9	-25.0	17.9	0.00e+00	0	43	102	1048576	8	4049
2026-01-05 02:05:51.58	26.78	24.02	-23.9	-24.9	17.9	0.00e+00	0	43	102	1048576	8	4037
2026-01-05 02:05:52.58	26.85	24.17	-23.9	-25.3	17.9	0.00e+00	0	43	102	1048576	7	4259
2026-01-05 02:05:53.59	26.91	24.32	-23.9	-25.4	17.9	0.00e+00	0	43	102	1048576	7	4273
2026-01-05 02:05:54.60	26.98	24.47	-23.7	-25.0	18.1	0.00e+00	0	43	102	1048576	7	4176
2026-01-05 02:05:55.60	27.04	24.62	-23.7	-24.9	18.1	0.00e+00	0	43	102	1048576	7	4157
2026-01-05 02:05:56.61	27.11	24.78	-23.7	-25.0	18.1	0.00e+00	0	43	102	1048576	7	4162
2026-01-05 02:05:57.61	27.18	24.93	-23.7	-25.0	18.1	0.00e+00	0	43	102	1048576	7	4164
2026-01-05 02:05:58.62	27.25	25.09	-23.5	-24.6	18.3	0.00e+00	0	43	102	1048576	7	4069
2026-01-05 02:05:59.62	27.32	25.24	-23.6	-24.7	18.3	0.00e+00	0	43	102	1048576	7	4090
2026-01-05 02:06:00.63	27.39	25.40	-23.5	-24.6	18.3	0.00e+00	0	43	102	1048576	7	4073
2026-01-05 02:06:01.64	27.46	25.56	-23.4	-24.4	18.4	0.00e+00	0	43	102	1048576	7	4032
2026-01-05 02:06:02.65	27.53	25.72	-23.5	-24.5	18.4	0.00e+00	0	43	102	1048576	7	4050
2026-01-05 02:06:03.65	27.60	25.88	-23.5	-24.5	18.4	0.00e+00	0	43	102	1048576	7	4042
2026-01-05 02:06:04.66	27.67	26.04	-23.5	-24.5	18.4	0.00e+00	0	43	102	1048576	7	4053
2026-01-05 02:06:05.66	27.75	26.20	-23.5	-24.5	18.4	0.00e+00	0	43	102	1048576	7	4044
2026-01-05 02:06:06.66	27.82	26.36	-23.4	-24.4	18.4	1.48e-04	0	43	102	1048576	7	4030
2026-01-05 02:06:07.67	27.89	26.52	-23.4	-24.3	18.5	0.00e+00	0	43	102	1048576	7	4003
2026-01-05 02:06:08.68	27.97	26.69	-23.4	-24.4	18.5	0.00e+00	0	43	102	1048576	7	4019
2026-01-05 02:06:09.68	28.05	26.85	-23.5	-24.5	18.4	0.00e+00	0	43	102	1048576	7	4059
2026-01-05 02:06:10.69	28.12	27.02	-23.5	-24.6	18.4	0.00e+00	0	43	102	1048576	7	4068
2026-01-05 02:06:11.69	28.20	27.19	-23.6	-24.7	18.3	0.00e+00	0	43	102	1048576	7	4097
2026-01-05 02:06:12.70	28.28	27.36	-23.6	-24.7	18.1	0.00e+00	0	43	102	1048576	7	4086
2026-01-05 02:06:13.70	28.36	27.52	-23.6	-24.8	18.3	1.77e-04	0	43	102	1048576	7	4118
2026-01-05 02:06:14.71	28.44	27.69	-23.7	-24.9	18.2	0.00e+00	0	43	102	1048576	7	4142
2026-01-05 02:06:15.71	28.52	27.87	-23.6	-24.7	18.3	2.61e-04	0	43	102	1048576	7	4100
2026-01-05 02:06:16.71	28.60	28.04	-23.6	-24.7	18.4	0.00e+00	0	43	102	1048576	7	4087
2026-01-05 02:06:17.72	28.68	28.21	-23.7	-24.9	18.3	0.00e+00	0	43	102	1048576	7	4143
2026-01-05 02:06:18.72	28.77	28.38	-23.5	-24.6	18.4	2.24e-04	0	43	102	1048576	7	4075
2026-01-05 02:06:19.73	28.85	28.56	-23.4	-24.3	18.6	0.00e+00	0	43	102	1048576	7	3999
2026-01-05 02:06:20.73	28.93	28.74	-23.4	-24.4	18.5	0.00e+00	0	43	102	1048576	7	4017
2026-01-05 02:06:21.75	29.02	28.92	-23.6	-24.8	18.3	0.00e+00	0	43	102	1048576	7	4123
2026-01-05 02:06:22.75	29.11	29.09	-23.6	-24.8	18.3	3.01e-04	0	43	102	1048576	7	4125
2026-01-05 02:06:23.75	29.20	29.27	-23.8	-25.1	18.2	0.00e+00	0	43	102	1048576	7	4194
2026-01-05 02:06:24.75	29.28	29.45	-23.7	-25.1	18.2	2.14e-04	0	43	102	1048576	7	4192
2026-01-05 02:06:25.75	29.37	29.63	-23.8	-25.1	18.2	1.04e-04	0	43	102	1048576	7	4205
2026-01-05 02:06:26.75	29.46	29.82	-24.0	-25.6	17.9	0.00e+00	0	43	102	1048576	7	4318
2026-01-05 02:06:27.76	29.55	30.00	-24.0	-25.1	18.0	1.21e-04	0	43	102	1048576	8	4079
2026-01-05 02:06:28.77	29.65	30.19	-23.9	-24.8	18.1	0.00e+00	0	43	102	1048576	8	4014
2026-01-05 02:06:29.77	29.74	30.37	-23.8	-24.7	18.2	0.00e+00	0	43	102	1048576	8	3982
2026-01-05 02:06:30.78	29.84	30.56	-23.7	-24.4	18.3	0.00e+00	0	43	102	1048576	8	3916
2026-01-05 02:06:31.78	29.93	30.75	-23.7	-24.5	18.2	1.32e-04	0	43	102	1048576	8	3945
2026-01-05 02:06:32.80	30.03	30.94	-23.5	-24.1	18.5	0.00e+00	0	43	102	1048576	8	3840
2026-01-05 02:06:33.80	30.13	31.13	-23.2	-23.9	18.9	1.48e-04	0	43	102	1048576	7	3891
2026-01-05 02:06:34.81	30.23	31.32	-23.0	-23.5	19.1	0.00e+00	0	43	102	1048576	7	3801
2026-01-05 02:06:35.82	30.33	31.52	-23.0	-23.5	19.1	0.00e+00	0	43	102	1048576	7	3803
2026-01-05 02:06:36.82	30.43	31.71	-23.0	-23.9	19.1	2.60e-04	0	43	102	1048576	6	4008
2026-01-05 02:06:37.83	30.53	31.91	-23.1	-24.1	19.0	2.28e-04	0	43	102	1048576	6	4058
2026-01-05 02:06:38.84	30.64	32.11	-23.2	-24.4	18.8	0.00e+00	0	43	102	1048576	6	4122
2026-01-05 02:06:39.84	30.74	32.30	-23.3	-24.7	18.7	2.76e-04	0	44	102	1048576	6	4211
2026-01-05 02:06:40.85	30.85	32.50	-23.4	-24.8	18.6	2.79e-04	0	43	102	1048576	6	4232
2026-01-05 02:06:41.85	30.95	32.70	-23.5	-25.0	18.5	0.00e+00	0	43	102	1048576	6	4283
2026-01-05 02:06:42.86	31.06	32.90	-23.4	-24.3	18.6	2.88e-04	0	43	102	1048576	7	3991
2026-01-05 02:06:43.86	31.17	33.11	-23.3	-24.1	18.8	3.04e-04	0	43	102	1048576	7	3953
2026-01-05 02:06:44.87	31.28	33.31	-23.4	-24.3	18.7	0.00e+00	0	43	102	1048576	7	3993
2026-01-05 02:06:45.87	31.40	33.52	-23.2	-23.8	18.9	2.57e-04	0	43	102	1048576	7	3882
2026-01-05 02:06:46.87	31.51	33.72	-23.0	-24.0	19.1	9.72e-05	0	43	102	1048576	6	4032
2026-01-05 02:06:47.88	31.63	33.93	-23.0	-23.9	19.1	0.00e+00	0	43	102	1048576	6	4017
2026-01-05 02:06:48.88	31.74	34.14	-23.1	-24.1	19.0	1.77e-04	0	43	102	1048576	6	4068
2026-01-05 02:06:49.89	31.86	34.35	-23.0	-24.0	19.1	1.96e-04	0	43	102	1048576	6	4028
2026-01-05 02:06:50.89	31.98	34.56	-23.0	-24.0	19.1	0.00e+00	0	43	102	1048576	6	4030
2026-01-05 02:06:51.90	32.10	34.78	-22.9	-23.9	19.1	1.65e-04	0	43	102	1048576	6	3999
2026-01-05 02:06:52.91	32.23	34.99	-23.0	-24.0	19.1	1.69e-04	0	43	102	1048576	6	4038
2026-01-05 02:06:53.91	32.35	35.21	-23.0	-24.1	19.1	0.00e+00	0	43	102	1048576	6	4049
2026-01-05 02:06:54.92	32.48	35.43	-23.1	-24.2	19.0	1.98e-04	0	43	102	1048576	6	4092
2026-01-05 02:06:55.92	32.60	35.64	-23.1	-24.3	19.0	0.00e+00	0	43	102	1048576	6	4094
2026-01-05 02:06:56.93	32.73	35.87	-23.2	-24.4	18.9	0.00e+00	0	43	102	1048576	6	4127
2026-01-05 02:06:57.94	32.87	36.09	-23.2	-24.5	18.9	0.00e+00	0	43	102	1048576	6	4147
2026-01-05 02:06:58.95	33.00	36.31	-23.4	-24.8	18.7	0.00e+00	0	43	102	1048576	6	4219
2026-01-05 02:06:59.96	33.14	36.54	-23.0	-24.0	19.1	0.00e+00	0	43	102	1048576	6	4026
2026-01-05 02:07:00.96	33.27	36.76	-22.9	-23.7	19.3	0.00e+00	0	43	102	1048576	6	3960
2026-01-05 02:07:01.97	33.41	36.99	-22.9	-23.7	19.3	2.52e-04	0	43	102	1048576	6	3968
2026-01-05 02:07:02.97	33.55	37.22	-22.9	-23.8	19.2	0.00e+00	0	43	102	1048576	6	3991
2026-01-05 02:07:03.98	33.69	37.45	-23.1	-24.2	19.0	2.75e-04	0	43	102	1048576	6	4094
2026-01-05 02:07:04.99	33.84	37.68	-22.9	-23.8	19.2	0.00e+00	0	43	102	1048576	6	3982
2026-01-05 02:07:05.99	33.98	37.91	-22.8	-23.5	19.4	0.00e+00	0	43	102	1048576	6	3918
2026-01-05 02:07:07.00	34.13	38.15	-22.8	-23.5	19.4	0.00e+00	0	43	102	1048576	6	3910
2026-01-05 02:07:08.00	34.28	38.38	-22.9	-23.7	19.3	0.00e+00	0	44	102	1048576	6	3957
2026-01-05 02:07:09.01	34.44	38.62	-22.7	-23.4	19.4	0.00e+00	0	43	102	1048576	6	3884
2026-01-05 02:07:10.02	34.59	38.86	-22.9	-24.2	19.2	0.00e+00	0	43	102	1048576	5	4204
2026-01-05 02:07:11.03	34.75	39.10	-22.9	-24.4	19.2	0.00e+00	0	43	102	1048576	5	4235
2026-01-05 02:07:12.03	34.91	39.34	-23.3	-24.6	18.8	0.00e+00	0	43	102	1048576	6	4188
2026-01-05 02:07:13.04	35.07	39.59	-23.3	-24.7	18.8	0.00e+00	0	43	102	1048576	6	4213
2026-01-05 02:07:14.06	35.24	39.84	-23.5	-25.0	18.7	0.00e+00	0	43	102	1048576	6	4281
2026-01-05 02:07:15.06	35.40	40.08	-23.2	-24.3	19.0	0.00e+00	0	43	102	1048576	6	4106
2026-01-05 02:07:16.07	35.57	40.33	-23.1	-24.1	19.1	0.00e+00	0	43	102	1048576	6	4058
2026-01-05 02:07:17.08	35.74	40.58	-23.3	-24.5	18.9	0.00e+00	0	43	102	1048576	6	4153
2026-01-05 02:07:18.08	35.92	40.83	-23.2	-24.3	19.0	0.00e+00	0	43	102	1048576	6	4092
2026-01-05 02:07:19.08	36.09	41.08	-23.2	-24.3	19.0	0.00e+00	0	43	102	1048576	6	4101
2026-01-05 02:07:20.08	36.27	41.33	-23.1	-24.1	19.1	0.00e+00	0	43	102	1048576	6	4059
2026-01-05 02:07:21.09	36.45	41.59	-23.2	-24.3	19.0	0.00e+00	0	43	102	1048576	6	4103
2026-01-05 02:07:22.09	36.64	41.84	-23.2	-24.3	19.0	0.00e+00	0	43	102	1048576	6	4107
2026-01-05 02:07:23.10	36.83	42.10	-23.3	-24.6	18.9	0.00e+00	0	43	102	1048576	6	4181
2026-01-05 02:07:24.10	37.02	42.36	-23.3	-24.6	18.8	0.00e+00	0	43	102	1048576	6	4190
2026-01-05 02:07:25.11	37.21	42.62	-23.4	-24.7	18.8	0.00e+00	0	43	102	1048576	6	4214
2026-01-05 02:07:26.12	37.41	42.88	-23.1	-24.2	19.1	0.00e+00	0	43	102	1048576	6	4072
2026-01-05 02:07:27.13	37.61	43.15	-23.0	-24.0	19.2	0.00e+00	0	43	102	1048576	6	4035
2026-01-05 02:07:28.13	37.81	43.41	-23.1	-24.1	19.1	0.00e+00	0	43	102	1048576	6	4062
2026-01-05 02:07:29.14	38.02	43.68	-23.1	-24.1	19.1	0.00e+00	0	43	102	1048576	6	4056
2026-01-05 02:07:30.15	38.23	43.95	-23.2	-24.5	19.0	0.00e+00	0	43	102	1048576	6	4140
2026-01-05 02:07:31.16	38.45	44.22	-23.4	-24.7	18.8	0.00e+00	0	43	102	1048576	6	4202
2026-01-05 02:07:32.16	38.66	44.49	-23.6	-24.7	18.6	0.00e+00	0	43	102	1048576	7	4081
2026-01-05 02:07:33.17	38.89	44.76	-23.6	-24.8	18.0	0.00e+00	0	43	102	1048576	7	4149
2026-01-05 02:07:34.18	39.11	45.04	-24.1	-25.2	16.3	0.00e+00	0	43	102	1048576	8	4108
2026-01-05 02:07:35.19	39.34	45.32	-23.9	-24.8	18.3	0.00e+00	0	43	102	1048576	8	4016
2026-01-05 02:07:36.19	39.57	45.59	-23.7	-24.4	18.6	0.00e+00	0	43	102	1048576	8	3898
2026-01-05 02:07:37.20	39.81	45.87	-23.5	-24.1	18.7	0.00e+00	0	43	102	1048576	8	3830
2026-01-05 02:07:38.21	40.05	46.15	-23.6	-24.1	18.7	0.00e+00	0	43	102	1048576	8	3844
2026-01-05 02:07:39.21	40.30	46.43	-23.4	-23.8	18.9	0.00e+00	0	43	102	1048576	8	3757
2026-01-05 02:07:40.22	40.55	46.72	-23.6	-24.1	18.7	2.69e-04	0	43	102	1048576	8	3849
2026-01-05 02:07:41.23	40.80	47.00	-23.7	-24.4	18.6	0.00e+00	0	43	102	1048576	8	3906
2026-01-05 02:07:42.24	41.06	47.29	-23.6	-24.1	18.7	2.35e-04	0	43	102	1048576	8	3843
2026-01-05 02:07:43.24	41.33	47.57	-23.6	-24.2	18.7	0.00e+00	0	43	102	1048576	8	3856
2026-01-05 02:07:44.25	41.60	47.86	-23.5	-24.0	18.8	0.00e+00	0	43	102	1048576	8	3819
2026-01-05 02:07:45.25	41.87	48.15	-23.5	-24.1	18.7	0.00e+00	0	44	102	1048576	8	3831
2026-01-05 02:07:46.26	42.15	48.44	-23.5	-24.6	18.7	3.46e-04	0	43	102	1048576	7	4063
2026-01-05 02:07:47.27	42.43	48.73	-23.5	-24.6	18.7	0.00e+00	0	43	102	1048576	7	4065
2026-01-05 02:07:48.27	42.72	49.02	-23.6	-24.7	18.6	0.00e+00	0	44	102	1048576	7	4091
2026-01-05 02:07:49.28	43.02	49.32	-23.7	-24.9	18.6	3.13e-04	0	43	102	1048576	7	4141
2026-01-05 02:07:50.29	43.32	49.62	-23.8	-25.1	18.5	0.00e+00	0	44	102	1048576	7	4182
2026-01-05 02:07:51.29	43.62	49.91	-23.6	-24.7	18.7	7.66e-05	0	43	102	1048576	7	4094
2026-01-05 02:07:52.30	43.93	50.21	-23.5	-24.5	18.8	0.00e+00	0	44	102	1048576	7	4028
2026-01-05 02:07:53.31	44.25	50.51	-23.7	-24.8	18.6	0.00e+00	0	43	102	1048576	7	4117
2026-01-05 02:07:54.31	44.58	50.81	-24.1	-25.2	18.2	2.06e-04	0	44	102	1048576	8	4107
2026-01-05 02:07:55.32	44.91	51.11	-24.1	-25.4	18.1	2.73e-04	0	44	102	1048576	8	4149
2026-01-05 02:07:56.32	45.24	51.41	-24.1	-25.2	18.2	0.00e+00	0	43	102	1048576	8	4116
2026-01-05 02:07:57.33	45.59	51.71	-23.8	-24.5	18.5	0.00e+00	0	43	102	1048576	8	3931
2026-01-05 02:07:58.34	45.94	52.02	-23.9	-25.4	18.3	5.98e-04	0	43	102	1048576	7	4257
2026-01-05 02:07:59.34	46.30	52.32	-24.3	-25.7	17.9	0.00e+00	0	44	102	1048576	8	4238
2026-01-05 02:08:00.34	46.66	52.62	-24.4	-25.8	17.9	3.00e-04	0	43	102	1048576	8	4260
2026-01-05 02:08:01.35	47.04	52.93	-24.6	-25.7	17.7	1.77e-04	0	43	102	1048576	9	4128
2026-01-05 02:08:02.36	47.42	53.23	-24.5	-25.5	17.8	0.00e+00	0	44	102	1048576	9	4077
2026-01-05 02:08:03.36	47.81	53.54	-24.4	-25.4	17.8	1.04e-04	0	43	102	1048576	9	4049
2026-01-05 02:08:04.37	48.21	53.85	-24.4	-25.4	17.9	1.85e-04	0	44	102	1048576	9	4026
2026-01-05 02:08:05.37	48.61	54.15	-24.5	-25.6	17.7	0.00e+00	0	43	102	1048576	9	4080
2026-01-05 02:08:06.37	49.02	54.46	-24.4	-25.3	17.9	1.14e-05	0	43	102	1048576	9	4014
2026-01-05 02:08:07.37	49.44	54.77	-24.3	-25.6	18.0	5.78e-04	0	43	102	1048576	8	4215
2026-01-05 02:08:08.38	49.88	55.08	-24.3	-25.7	18.0	0.00e+00	0	43	102	1048576	8	4214
2026-01-05 02:08:09.39	50.32	55.39	-24.3	-25.7	18.0	7.80e-04	0	43	102	1048576	8	4226
2026-01-05 02:08:10.39	50.77	55.69	-24.6	-25.8	17.7	7.57e-04	0	43	102	1048576	9	4134
2026-01-05 02:08:11.39	51.23	56.00	-24.5	-25.6	17.8	0.00e+00	0	43	102	1048576	9	4096
2026-01-05 02:08:12.40	51.71	56.31	-24.0	-25.0	18.4	7.93e-04	0	43	102	1048576	8	4058
2026-01-05 02:08:13.40	52.19	56.62	-23.8	-24.6	18.6	6.80e-06	0	43	102	1048576	8	3941
2026-01-05 02:08:14.41	52.68	56.93	-23.9	-24.8	18.5	0.00e+00	0	43	102	1048576	8	3991
2026-01-05 02:08:15.42	53.19	57.24	-24.1	-25.2	18.2	3.40e-06	0	43	102	1048576	8	4096
2026-01-05 02:08:16.43	53.71	57.55	-24.2	-25.5	18.1	6.82e-04	0	44	102	1048576	8	4187
2026-01-05 02:08:17.43	54.23	57.85	-24.3	-25.8	18.0	0.00e+00	0	43	102	1048576	8	4257
2026-01-05 02:08:18.44	54.77	58.16	-24.2	-25.4	18.1	1.25e-04	0	43	102	1048576	8	4151
2026-01-05 02:08:19.45	55.33	58.47	-24.0	-25.1	18.3	0.00e+00	0	44	102	1048576	8	4075
2026-01-05 02:08:20.46	55.90	58.77	-23.9	-24.9	18.4	0.00e+00	0	44	102	1048576	8	4026
2026-01-05 02:08:21.46	56.47	59.08	-23.9	-24.9	18.4	4.12e-04	0	44	102	1048576	8	4040
2026-01-05 02:08:22.47	57.06	59.38	-23.8	-24.6	18.6	0.00e+00	0	43	102	1048576	8	3951
2026-01-05 02:08:23.48	57.67	59.68	-23.7	-24.3	18.7	0.00e+00	0	44	102	1048576	8	3883
2026-01-05 02:08:24.48	58.29	59.98	-23.7	-24.4	18.7	1.06e-04	0	44	102	1048576	8	3910
2026-01-05 02:08:25.49	58.93	60.28	-23.8	-24.6	18.6	1.41e-04	0	43	102	1048576	8	3941
2026-01-05 02:08:26.50	59.58	60.58	-23.5	-24.1	18.9	0.00e+00	0	44	102	1048576	8	3824
2026-01-05 02:08:27.51	60.24	60.87	-23.2	-23.9	19.2	4.23e-05	0	43	102	1048576	7	3889
2026-01-05 02:08:28.52	60.93	61.17	-23.3	-24.2	19.1	0.00e+00	0	43	102	1048576	7	3954
2026-01-05 02:08:29.52	61.62	61.46	-23.4	-24.3	19.0	0.00e+00	0	43	102	1048576	7	4001
2026-01-05 02:08:30.52	62.33	61.74	-23.0	-23.4	19.4	9.95e-05	0	43	102	1048576	7	3770
2026-01-05 02:08:31.53	63.06	62.03	-22.8	-23.1	19.6	0.00e+00	0	43	102	1048576	7	3700
2026-01-05 02:08:32.54	63.81	62.31	-23.0	-23.4	19.4	0.00e+00	0	43	102	1048576	7	3772
2026-01-05 02:08:33.55	64.57	62.59	-23.3	-24.1	19.1	0.00e+00	0	43	102	1048576	7	3956
2026-01-05 02:08:34.56	65.36	62.87	-23.5	-24.4	18.9	3.08e-05	0	43	102	1048576	7	4023
2026-01-05 02:08:35.57	66.16	63.14	-23.1	-23.6	19.3	0.00e+00	0	44	102	1048576	7	3829
2026-01-05 02:08:36.57	66.97	63.41	-22.7	-23.4	19.7	3.20e-05	0	44	102	1048576	6	3874
2026-01-05 02:08:37.58	67.81	63.68	-22.6	-23.1	19.9	0.00e+00	0	44	102	1048576	6	3822
2026-01-05 02:08:38.59	68.67	63.94	-23.0	-24.0	19.4	0.00e+00	0	44	102	1048576	6	4014
2026-01-05 02:08:39.60	69.55	64.20	-23.4	-24.8	19.1	0.00e+00	0	43	102	1048576	6	4213
2026-01-05 02:08:40.60	70.44	64.45	-23.3	-24.5	19.2	0.00e+00	0	44	102	1048576	6	4157
2026-01-05 02:08:41.60	71.35	64.70	-23.1	-24.1	19.4	0.00e+00	0	43	102	1048576	6	4042
2026-01-05 02:08:42.61	72.29	64.94	-23.1	-24.1	19.4	0.00e+00	0	44	102	1048576	6	4054
2026-01-05 02:08:43.62	73.24	65.18	-23.2	-24.3	19.3	0.00e+00	0	43	102	1048576	6	4086
2026-01-05 02:08:44.63	74.22	65.41	-23.2	-24.3	19.3	0.00e+00	0	43	102	1048576	6	4114
2026-01-05 02:08:45.63	75.21	65.64	-23.1	-24.2	19.3	0.00e+00	0	44	102	1048576	6	4071
2026-01-05 02:08:46.64	76.23	65.86	-23.2	-24.4	19.2	0.00e+00	0	44	102	1048576	6	4125
2026-01-05 02:08:47.64	77.26	66.07	-23.3	-24.7	19.1	0.00e+00	0	44	102	1048576	6	4190
2026-01-05 02:08:48.65	78.32	66.28	-23.2	-24.3	19.3	0.00e+00	0	43	102	1048576	6	4103
2026-01-05 02:08:49.66	79.40	66.48	-22.9	-23.6	19.6	0.00e+00	0	43	102	1048576	6	3933
2026-01-05 02:08:50.67	80.50	66.67	-22.9	-23.8	19.6	0.00e+00	0	44	102	1048576	6	3968
2026-01-05 02:08:51.68	81.61	66.86	-22.8	-23.5	19.7	0.00e+00	0	43	102	1048576	6	3915
2026-01-05 02:08:52.68	82.74	67.03	-22.4	-22.7	20.1	0.00e+00	0	43	102	1048576	6	3711
2026-01-05 02:08:53.69	83.90	67.20	-22.6	-23.2	19.6	0.00e+00	0	43	102	1048576	6	3861
2026-01-05 02:08:54.70	85.08	67.37	-22.6	-23.3	19.6	0.00e+00	0	44	102	1048576	6	3871
2026-01-05 02:08:55.71	86.27	67.52	-22.4	-22.8	19.9	0.00e+00	0	43	102	1048576	6	3746
2026-01-05 02:08:56.71	87.47	67.66	-22.5	-23.0	19.8	0.00e+00	0	43	102	1048576	6	3800
2026-01-05 02:08:57.72	88.70	67.80	-22.6	-23.7	19.7	0.00e+00	0	43	102	1048576	5	4078
2026-01-05 02:08:58.72	89.93	67.93	-22.5	-23.4	19.8	0.00e+00	0	44	102	1048576	5	3996
2026-01-05 02:08:59.73	91.19	68.04	-22.2	-22.9	20.1	0.00e+00	0	43	102	1048576	5	3883
2026-01-05 02:09:00.74	92.46	68.15	-22.4	-23.3	19.9	0.00e+00	0	43	102	1048576	5	3972
2026-01-05 02:09:01.74	93.73	68.25	-22.6	-23.6	19.8	0.00e+00	0	43	102	1048576	5	4049
2026-01-05 02:09:02.75	95.03	68.34	-22.6	-23.7	19.7	0.00e+00	0	43	102	1048576	5	4073
2026-01-05 02:09:03.76	96.34	68.41	-22.2	-22.8	20.1	1.16e-03	0	44	102	1048576	5	3872
2026-01-05 02:09:04.77	97.66	68.48	-22.4	-23.3	19.9	0.00e+00	0	43	102	1048576	5	3982
2026-01-05 02:09:05.77	98.97	68.54	-22.4	-23.2	19.9	0.00e+00	0	44	102	1048576	5	3951
2026-01-05 02:09:06.78	100.31	68.59	-22.0	-22.9	20.3	0.00e+00	0	43	102	1048576	4	4004
2026-01-05 02:09:07.79	101.65	68.62	-22.0	-22.9	20.3	0.00e+00	0	43	102	1048576	4	4009
2026-01-05 02:09:08.79	102.98	68.65	-22.1	-23.1	20.2	6.80e-06	0	43	102	1048576	4	4038
2026-01-05 02:09:09.80	104.32	68.66	-22.4	-23.7	19.9	0.00e+00	0	43	102	1048576	4	4183
2026-01-05 02:09:10.80	105.66	68.66	-22.6	-23.6	19.7	0.00e+00	0	44	102	1048576	5	4067
2026-01-05 02:09:11.81	107.00	68.66	-22.5	-23.4	19.9	0.00e+00	0	44	102	1048576	5	3998
2026-01-05 02:09:12.82	108.35	68.64	-22.5	-23.4	19.8	8.26e-04	0	44	102	1048576	5	4011
2026-01-05 02:09:13.82	109.68	68.61	-23.0	-24.4	19.3	0.00e+00	0	43	102	1048576	5	4261
2026-01-05 02:09:14.83	111.02	68.57	-22.9	-23.7	19.4	6.19e-04	0	43	102	1048576	6	3978
2026-01-05 02:09:15.84	112.35	68.52	-22.6	-23.6	19.7	6.25e-04	0	44	102	1048576	5	4062
2026-01-05 02:09:16.84	113.66	68.46	-22.5	-23.4	19.8	0.00e+00	0	43	102	1048576	5	4002
2026-01-05 02:09:17.85	114.97	68.39	-22.4	-23.2	19.9	5.92e-04	0	44	102	1048576	5	3971
2026-01-05 02:09:18.86	116.28	68.31	-22.4	-23.2	19.9	0.00e+00	0	43	102	1048576	5	3968
2026-01-05 02:09:19.87	117.58	68.22	-22.3	-23.2	19.9	0.00e+00	0	43	102	1048576	5	3950
2026-01-05 02:09:20.87	118.85	68.12	-22.3	-23.1	20.0	0.00e+00	0	44	102	1048576	5	3932
2026-01-05 02:09:21.88	120.11	68.01	-22.0	-22.7	19.9	3.43e-05	0	44	102	1048576	5	3889
2026-01-05 02:09:22.88	121.36	67.89	-22.5	-23.5	19.8	0.00e+00	0	44	102	1048576	5	4024
2026-01-05 02:09:23.89	122.60	67.76	-22.7	-24.0	19.5	3.33e-04	0	43	102	1048576	5	4146
2026-01-05 02:09:24.89	123.81	67.62	-22.4	-23.3	19.9	6.53e-04	0	44	102	1048576	5	3976
2026-01-05 02:09:25.90	125.02	67.47	-22.3	-23.0	20.0	0.00e+00	0	43	102	1048576	5	3918
2026-01-05 02:09:26.90	126.19	67.32	-22.6	-23.6	19.7	7.83e-04	0	43	102	1048576	5	4061
2026-01-05 02:09:27.91	127.37	67.15	-22.4	-23.3	19.9	2.31e-04	0	44	102	1048576	5	3994
2026-01-05 02:09:28.92	128.52	66.98	-22.5	-23.5	19.8	0.00e+00	0	44	102	1048576	5	4017
2026-01-05 02:09:29.93	129.65	66.80	-22.9	-24.2	19.5	1.04e-03	0	43	102	1048576	5	4206
2026-01-05 02:09:30.94	130.77	66.61	-22.5	-23.6	19.8	1.08e-03	0	44	102	1048576	5	4043
2026-01-05 02:09:31.94	131.85	66.41	-22.4	-23.3	19.9	0.00e+00	0	43	102	1048576	5	3979
2026-01-05 02:09:32.95	132.92	66.21	-22.5	-23.5	19.8	7.29e-04	0	43	102	1048576	5	4027
2026-01-05 02:09:33.95	133.97	66.00	-22.6	-23.6	19.7	6.16e-04	0	44	102	1048576	5	4062
2026-01-05 02:09:34.95	134.99	65.79	-22.7	-23.9	19.6	0.00e+00	0	44	102	1048576	5	4143
2026-01-05 02:09:35.96	136.01	65.56	-22.8	-24.2	19.4	3.36e-04	0	43	102	1048576	5	4206
2026-01-05 02:09:36.96	136.99	65.34	-23.0	-24.4	19.3	0.00e+00	0	43	102	1048576	5	4269
2026-01-05 02:09:37.97	137.96	65.10	-22.8	-24.1	19.5	0.00e+00	0	44	102	1048576	5	4183
2026-01-05 02:09:38.99	138.92	64.86	-22.8	-24.1	19.5	6.05e-04	0	43	102	1048576	5	4175
2026-01-05 02:09:39.99	139.85	64.62	-22.8	-24.0	19.6	0.00e+00	0	43	102	1048576	5	4159
2026-01-05 02:09:40.99	140.75	64.37	-22.8	-24.1	19.5	0.00e+00	0	44	102	1048576	5	4187
2026-01-05 02:09:42.00	141.64	64.11	-22.7	-23.9	19.6	0.00e+00	0	43	102	1048576	5	4136
2026-01-05 02:09:43.01	142.52	63.85	-22.8	-24.2	19.5	1.10e-03	0	44	102	1048576	5	4189
2026-01-05 02:09:44.01	143.36	63.59	-23.4	-24.8	19.0	0.00e+00	0	43	102	1048576	6	4228
2026-01-05 02:09:45.02	144.20	63.32	-23.1	-24.3	19.2	1.15e-03	0	44	102	1048576	6	4120
2026-01-05 02:09:46.02	145.01	63.05	-22.8	-23.6	19.5	1.04e-04	0	43	102	1048576	6	3942
2026-01-05 02:09:47.03	145.80	62.78	-22.8	-23.5	19.6	0.00e+00	0	44	102	1048576	6	3924
2026-01-05 02:09:48.04	146.58	62.50	-23.2	-24.4	19.2	1.91e-04	0	44	102	1048576	6	4132
2026-01-05 02:09:49.04	147.34	62.22	-23.2	-24.4	19.2	1.52e-04	0	43	102	1048576	6	4139
2026-01-05 02:09:50.05	148.08	61.93	-23.2	-24.5	19.1	0.00e+00	0	44	102	1048576	6	4163
2026-01-05 02:09:51.06	148.81	61.65	-23.4	-24.8	19.0	5.14e-05	0	43	102	1048576	6	4227
2026-01-05 02:09:52.06	149.52	61.36	-23.1	-24.3	19.2	2.20e-06	0	44	102	1048576	6	4110
2026-01-05 02:09:53.06	150.20	61.07	-23.1	-24.3	19.2	0.00e+00	0	43	102	1048576	6	4104
2026-01-05 02:09:54.07	150.88	60.77	-23.5	-25.0	18.9	6.80e-06	0	43	102	1048576	6	4293
2026-01-05 02:09:55.08	151.55	60.48	-23.4	-24.9	18.9	0.00e+00	0	43	102	1048576	6	4274
2026-01-05 02:09:56.08	152.19	60.18	-23.4	-24.9	18.9	0.00e+00	0	43	102	1048576	6	4276
2026-01-05 02:09:57.08	152.82	59.88	-23.5	-25.0	18.9	0.00e+00	0	44	102	1048576	6	4284
2026-01-05 02:09:58.09	153.43	59.58	-23.8	-25.1	18.6	4.50e-06	0	43	102	1048576	7	4199
2026-01-05 02:09:59.09	154.03	59.28	-24.2	-25.5	18.1	0.00e+00	0	44	102	1048576	8	4192
2026-01-05 02:10:00.09	154.62	58.98	-23.9	-24.9	18.4	0.00e+00	0	44	102	1048576	8	4032
2026-01-05 02:10:01.10	155.20	58.67	-23.8	-24.6	18.6	0.00e+00	0	44	102	1048576	8	3952
2026-01-05 02:10:02.10	155.76	58.36	-23.8	-24.7	18.5	0.00e+00	0	43	102	1048576	8	3990
2026-01-05 02:10:03.12	156.31	58.05	-24.1	-25.2	18.2	0.00e+00	0	44	102	1048576	8	4120
2026-01-05 02:10:04.12	156.85	57.75	-24.6	-25.8	17.7	0.00e+00	0	44	102	1048576	9	4168
2026-01-05 02:10:05.13	157.37	57.44	-24.4	-25.4	17.9	0.00e+00	0	43	102	1048576	9	4069
2026-01-05 02:10:06.13	157.89	57.13	-24.1	-24.9	18.1	0.00e+00	0	44	102	1048576	9	3926
2026-01-05 02:10:07.14	158.39	56.82	-23.9	-24.4	18.4	0.00e+00	0	44	102	1048576	9	3825
2026-01-05 02:10:08.15	158.88	56.51	-24.0	-24.5	18.3	0.00e+00	0	44	102	1048576	9	3839
2026-01-05 02:10:09.16	159.37	56.20	-24.2	-25.5	18.1	0.00e+00	0	43	102	1048576	8	4183
2026-01-05 02:10:10.16	159.83	55.89	-24.1	-25.4	18.1	0.00e+00	0	43	102	1048576	8	4163
2026-01-05 02:10:11.16	160.29	55.58	-24.2	-25.6	18.0	0.00e+00	0	44	102	1048576	8	4209
2026-01-05 02:10:12.17	160.74	55.27	-24.5	-26.1	17.7	2.28e-05	0	43	102	1048576	8	4345
2026-01-05 02:10:13.17	161.18	54.96	-24.3	-25.8	17.9	0.00e+00	0	44	102	1048576	8	4268
2026-01-05 02:10:14.18	161.61	54.65	-24.5	-25.6	17.8	0.00e+00	0	44	102	1048576	9	4102
2026-01-05 02:10:15.19	162.03	54.34	-24.2	-24.9	18.1	0.00e+00	0	43	102	1048576	9	3929
2026-01-05 02:10:16.19	162.44	54.03	-24.1	-24.7	18.2	0.00e+00	0	43	102	1048576	9	3883
2026-01-05 02:10:17.20	162.85	53.72	-24.2	-25.0	18.0	0.00e+00	0	43	102	1048576	9	3948
2026-01-05 02:10:18.21	163.25	53.41	-24.3	-25.7	17.9	0.00e+00	0	44	102	1048576	8	4239
2026-01-05 02:10:19.22	163.64	53.10	-24.4	-25.9	17.8	0.00e+00	0	43	102	1048576	8	4310
2026-01-05 02:10:20.22	164.01	52.80	-24.1	-25.3	18.1	1.10e-06	0	44	102	1048576	8	4150
2026-01-05 02:10:21.23	164.39	52.49	-24.0	-25.0	18.2	0.00e+00	0	43	102	1048576	8	4076
2026-01-05 02:10:22.24	164.75	52.18	-23.9	-24.9	18.3	0.00e+00	0	44	102	1048576	8	4037
2026-01-05 02:10:23.25	165.11	51.88	-23.9	-25.0	15.7	0.00e+00	0	44	102	1048576	8	4051
2026-01-05 02:10:24.26	165.46	51.57	-23.7	-24.5	16.1	0.00e+00	0	44	102	1048576	8	3936
2026-01-05 02:10:25.26	165.80	51.27	-23.9	-24.9	18.3	0.00e+00	0	43	102	1048576	8	4032
2026-01-05 02:10:26.27	166.14	50.97	-23.9	-24.9	18.3	0.00e+00	0	43	102	1048576	8	4048
2026-01-05 02:10:27.28	166.47	50.66	-24.0	-25.2	18.1	0.00e+00	0	44	102	1048576	8	4111
2026-01-05 02:10:28.28	166.79	50.37	-23.9	-24.9	18.3	0.00e+00	0	44	102	1048576	8	4036
2026-01-05 02:10:29.29	167.11	50.06	-23.9	-24.9	18.3	1.10e-06	0	44	102	1048576	8	4031
2026-01-05 02:10:30.30	167.42	49.77	-23.9	-24.8	18.3	7.66e-05	0	43	102	1048576	8	4025
2026-01-05 02:10:31.31	167.72	49.47	-23.7	-24.4	18.5	0.00e+00	0	44	102	1048576	8	3916
2026-01-05 02:10:32.31	168.02	49.17	-23.4	-23.8	18.9	0.00e+00	0	43	102	1048576	8	3768
2026-01-05 02:10:33.31	168.31	48.88	-23.1	-23.7	19.1	0.00e+00	0	44	102	1048576	7	3866
2026-01-05 02:10:34.32	168.60	48.58	-23.2	-23.9	19.0	0.00e+00	0	43	102	1048576	7	3904
2026-01-05 02:10:35.32	168.88	48.29	-23.4	-24.4	18.8	0.00e+00	0	43	102	1048576	7	4028
2026-01-05 02:10:36.33	169.16	48.00	-23.7	-25.0	18.4	0.00e+00	0	44	102	1048576	7	4187
2026-01-05 02:10:37.34	169.43	47.71	-23.7	-25.1	18.4	0.00e+00	0	44	102	1048576	7	4200
2026-01-05 02:10:38.35	169.70	47.42	-23.6	-24.8	18.5	3.40e-06	0	44	102	1048576	7	4123
2026-01-05 02:10:39.36	169.96	47.13	-23.4	-24.4	18.7	1.50e-04	0	43	102	1048576	7	4022
2026-01-05 02:10:40.36	170.22	46.85	-23.4	-24.3	18.8	0.00e+00	0	43	102	1048576	7	4003
2026-01-05 02:10:41.37	170.47	46.56	-23.4	-24.4	18.7	1.53e-04	0	44	102	1048576	7	4032
2026-01-05 02:10:42.38	170.72	46.28	-23.2	-24.0	18.9	7.89e-05	0	43	102	1048576	7	3933
2026-01-05 02:10:43.38	170.97	46.00	-23.2	-24.1	18.8	0.00e+00	0	44	102	1048576	7	3950
2026-01-05 02:10:44.39	171.21	45.72	-23.2	-24.0	18.9	4.69e-05	0	43	102	1048576	7	3947
2026-01-05 02:10:45.40	171.44	45.43	-23.2	-24.0	18.9	3.89e-05	0	44	102	1048576	7	3932
2026-01-05 02:10:46.41	171.68	45.16	-23.2	-23.9	18.9	0.00e+00	0	44	102	1048576	7	3923
2026-01-05 02:10:47.41	171.90	44.88	-23.1	-23.7	19.0	7.09e-05	0	44	102	1048576	7	3874
2026-01-05 02:10:48.41	172.13	44.61	-23.1	-23.8	18.9	7.43e-05	0	44	102	1048576	7	3892
2026-01-05 02:10:49.42	172.35	44.33	-23.2	-24.0	18.8	0.00e+00	0	44	102	1048576	7	3932
2026-01-05 02:10:50.42	172.56	44.06	-23.1	-23.8	18.9	1.11e-04	0	43	102	1048576	7	3886
2026-01-05 02:10:51.43	172.78	43.79	-23.2	-23.9	18.9	1.51e-04	0	43	102	1048576	7	3907
2026-01-05 02:10:52.44	172.99	43.52	-23.1	-23.7	19.0	0.00e+00	0	44	102	1048576	7	3855
2026-01-05 02:10:53.45	173.19	43.25	-22.9	-23.3	19.2	1.54e-04	0	44	102	1048576	7	3782
2026-01-05 02:10:54.46	173.40	42.99	-22.9	-23.4	19.2	0.00e+00	0	43	102	1048576	7	3787
2026-01-05 02:10:55.46	173.59	42.72	-22.9	-23.3	19.2	1.10e-06	0	44	102	1048576	7	3762
2026-01-05 02:10:56.47	173.79	42.46	-22.7	-23.4	19.4	1.71e-05	0	44	102	1048576	6	3903
2026-01-05 02:10:57.48	173.99	42.20	-22.8	-23.6	19.3	9.49e-05	0	44	102	1048576	6	3938
2026-01-05 02:10:58.49	174.18	41.93	-22.8	-23.7	19.2	0.00e+00	0	44	102	1048576	6	3970
2026-01-05 02:10:59.49	174.36	41.68	-22.9	-23.7	19.2	8.12e-05	0	44	102	1048576	6	3981
2026-01-05 02:11:00.50	174.55	41.42	-22.9	-23.7	19.2	2.49e-04	0	44	102	1048576	6	3977
2026-01-05 02:11:01.51	174.73	41.16	-22.9	-23.8	19.2	0.00e+00	0	44	102	1048576	6	3985
2026-01-05 02:11:02.52	174.91	40.91	-22.9	-23.9	19.1	3.17e-04	0	44	102	1048576	6	4017
2026-01-05 02:11:03.52	175.08	40.66	-22.9	-23.8	19.2	3.20e-05	0	43	102	1048576	6	3984
2026-01-05 02:11:04.52	175.26	40.41	-22.7	-23.4	19.4	0.00e+00	0	44	102	1048576	6	3903
2026-01-05 02:11:05.52	175.43	40.16	-22.7	-23.5	19.3	1.03e-04	0	44	102	1048576	6	3919
2026-01-05 02:11:06.53	175.59	39.91	-22.8	-23.5	19.3	1.22e-04	0	43	102	1048576	6	3937
2026-01-05 02:11:07.53	175.76	39.66	-22.9	-23.8	19.1	0.00e+00	0	43	102	1048576	6	4011
2026-01-05 02:11:08.54	175.92	39.42	-22.9	-23.9	19.1	1.41e-04	0	43	102	1048576	6	4021
2026-01-05 02:11:09.55	176.08	39.17	-22.9	-23.9	19.1	1.21e-04	0	44	102	1048576	6	4016
2026-01-05 02:11:10.56	176.24	38.93	-22.9	-23.7	19.2	0.00e+00	0	44	102	1048576	6	3980
2026-01-05 02:11:11.56	176.40	38.69	-22.8	-23.7	19.2	9.04e-05	0	44	102	1048576	6	3975
2026-01-05 02:11:12.56	176.55	38.45	-23.0	-23.9	19.1	1.13e-04	0	44	102	1048576	6	4034
2026-01-05 02:11:13.57	176.70	38.21	-23.0	-24.0	19.0	0.00e+00	0	43	102	1048576	6	4061
2026-01-05 02:11:14.58	176.86	37.98	-23.0	-23.9	19.1	8.81e-05	0	44	102	1048576	6	4034
2026-01-05 02:11:15.58	177.00	37.74	-23.0	-24.1	19.0	1.02e-04	0	44	102	1048576	6	4086
2026-01-05 02:11:16.59	177.15	37.51	-23.1	-24.2	18.9	2.20e-06	0	43	102	1048576	6	4106
2026-01-05 02:11:17.59	177.29	37.28	-23.2	-24.5	18.8	1.07e-04	0	44	102	1048576	6	4178
2026-01-05 02:11:18.60	177.43	37.05	-23.3	-24.6	18.7	0.00e+00	0	43	102	1048576	6	4204
2026-01-05 02:11:19.60	177.57	36.82	-23.4	-25.0	18.5	0.00e+00	0	44	102	1048576	6	4299
2026-01-05 02:11:20.60	177.71	36.59	-23.4	-24.4	18.5	1.04e-04	0	44	102	1048576	7	4040
2026-01-05 02:11:21.61	177.85	36.36	-23.1	-23.7	18.9	1.12e-04	0	44	102	1048576	7	3877
2026-01-05 02:11:22.61	177.98	36.14	-22.9	-23.4	19.0	0.00e+00	0	44	102	1048576	7	3798
2026-01-05 02:11:23.62	178.11	35.92	-22.8	-23.7	19.2	0.00e+00	0	44	102	1048576	6	3964
2026-01-05 02:11:24.63	178.24	35.69	-22.8	-23.6	19.2	1.45e-04	0	44	102	1048576	6	3952
2026-01-05 02:11:25.64	178.37	35.47	-22.7	-23.5	19.2	0.00e+00	0	44	102	1048576	6	3924
2026-01-05 02:11:26.64	178.50	35.25	-22.8	-23.6	19.2	1.20e-04	0	43	102	1048576	6	3946
2026-01-05 02:11:27.65	178.62	35.03	-22.8	-23.6	19.2	0.00e+00	0	44	102	1048576	6	3963
2026-01-05 02:11:28.65	178.75	34.82	-22.9	-23.8	19.1	3.40e-06	0	44	102	1048576	6	4004
2026-01-05 02:11:29.66	178.87	34.60	-22.9	-23.9	19.0	0.00e+00	0	44	102	1048576	6	4027
2026-01-05 02:11:30.66	178.99	34.39	-23.0	-24.1	18.9	0.00e+00	0	43	102	1048576	6	4075
2026-01-05 02:11:31.66	179.11	34.18	-23.0	-24.1	19.0	0.00e+00	0	44	102	1048576	6	4071
2026-01-05 02:11:32.67	179.23	33.96	-23.0	-24.1	18.9	0.00e+00	0	44	102	1048576	6	4082
2026-01-05 02:11:33.67	179.34	33.76	-23.0	-24.0	18.9	8.23e-05	0	43	102	1048576	6	4059
2026-01-05 02:11:34.68	179.46	33.55	-23.0	-24.0	18.9	2.20e-06	0	43	102	1048576	6	4058
2026-01-05 02:11:35.68	179.57	33.34	-23.1	-24.3	18.8	0.00e+00	0	44	102	1048576	6	4119
2026-01-05 02:11:36.69	179.68	33.13	-23.1	-24.3	18.8	0.00e+00	0	44	102	1048576	6	4136
2026-01-05 02:11:37.69	179.79	32.93	-23.1	-24.2	18.9	1.10e-06	0	44	102	1048576	6	4093
2026-01-05 02:11:38.70	179.90	32.72	-23.1	-24.3	18.8	0.00e+00	0	44	102	1048576	6	4134
2026-01-05 02:11:39.72	180.01	32.52	-23.2	-24.5	18.7	0.00e+00	0	44	102	1048576	6	4186
2026-01-05 02:11:40.72	180.12	32.32	-23.2	-24.5	18.7	0.00e+00	0	44	102	1048576	6	4178
2026-01-05 02:11:41.73	180.23	32.12	-23.2	-24.6	18.6	0.00e+00	0	44	102	1048576	6	4206
2026-01-05 02:11:42.73	180.33	31.92	-23.3	-24.7	18.6	0.00e+00	0	44	102	1048576	6	4221
2026-01-05 02:11:43.74	180.43	31.72	-23.4	-24.8	18.5	0.00e+00	0	44	102	1048576	6	4273
2026-01-05 02:11:44.75	180.54	31.52	-23.5	-24.7	18.3	0.00e+00	0	44	102	1048576	7	4117
2026-01-05 02:11:45.76	180.64	31.33	-23.8	-25.2	18.0	0.00e+00	0	44	102	1048576	7	4256
2026-01-05 02:11:46.76	180.74	31.14	-23.1	-24.3	17.6	0.00e+00	0	44	102	1048576	7	4150
2026-01-05 02:11:47.76	180.83	30.94	-23.6	-24.9	14.6	0.00e+00	0	44	102	1048576	7	4175
2026-01-05 02:11:48.77	180.93	30.75	-23.6	-24.8	18.2	0.00e+00	0	44	102	1048576	7	4152
2026-01-05 02:11:49.78	181.03	30.56	-23.5	-24.7	18.1	6.48e-04	0	44	102	1048576	7	4105
2026-01-05 02:11:50.79	181.12	30.37	-23.5	-24.6	18.4	0.00e+00	0	43	102	1048576	7	4080
2026-01-05 02:11:51.79	181.22	30.18	-23.6	-24.8	18.3	0.00e+00	0	44	102	1048576	7	4131
2026-01-05 02:11:52.80	181.31	30.00	-23.4	-24.5	18.4	0.00e+00	0	44	102	1048576	7	4051
2026-01-05 02:11:53.81	181.40	29.81	-23.6	-24.8	18.3	0.00e+00	0	44	102	1048576	7	4126
2026-01-05 02:11:54.82	181.49	29.63	-23.5	-24.5	18.4	0.00e+00	0	44	102	1048576	7	4056
2026-01-05 02:11:55.82	181.58	29.44	-23.2	-24.0	18.7	0.00e+00	0	44	102	1048576	7	3943
2026-01-05 02:11:56.83	181.67	29.26	-23.1	-24.3	18.8	7.49e-04	0	44	102	1048576	6	4118
2026-01-05 02:11:57.83	181.76	29.08	-23.2	-24.4	18.7	0.00e+00	0	44	102	1048576	6	4157
2026-01-05 02:11:58.84	181.85	28.90	-23.2	-24.4	18.7	7.33e-04	0	44	102	1048576	6	4154
2026-01-05 02:11:59.84	181.93	28.72	-23.2	-24.5	18.6	0.00e+00	0	44	102	1048576	6	4174
2026-01-05 02:12:00.84	182.02	28.54	-23.5	-25.0	18.4	0.00e+00	0	44	102	1048576	6	4312
2026-01-05 02:12:01.85	182.10	28.37	-23.4	-24.3	18.5	6.79e-04	0	44	102	1048576	7	4019
2026-01-05 02:12:02.86	182.19	28.19	-23.3	-24.1	18.6	7.47e-04	0	44	102	1048576	7	3967
2026-01-05 02:12:03.87	182.27	28.01	-23.3	-24.2	18.5	0.00e+00	0	44	102	1048576	7	3997
2026-01-05 02:12:04.88	182.35	27.84	-23.3	-24.3	18.5	0.00e+00	0	44	102	1048576	7	4012
2026-01-05 02:12:05.88	182.43	27.67	-23.3	-24.2	18.5	7.20e-04	0	44	102	1048576	7	4000
2026-01-05 02:12:06.89	182.51	27.50	-23.5	-24.6	18.3	0.00e+00	0	44	102	1048576	7	4092
2026-01-05 02:12:07.90	182.59	27.32	-23.3	-24.7	18.5	7.61e-04	0	44	102	1048576	6	4235
2026-01-05 02:12:08.91	182.67	27.15	-23.6	-24.7	18.3	6.87e-04	0	44	102	1048576	7	4124
2026-01-05 02:12:09.92	182.75	26.98	-23.8	-25.3	18.0	0.00e+00	0	44	102	1048576	7	4275
2026-01-05 02:12:10.92	182.83	26.82	-23.7	-25.0	18.1	7.16e-04	0	43	102	1048576	7	4182
2026-01-05 02:12:11.93	182.90	26.65	-23.4	-24.5	18.4	7.69e-04	0	44	102	1048576	7	4056
2026-01-05 02:12:12.94	182.98	26.48	-23.3	-24.2	18.5	0.00e+00	0	44	102	1048576	7	3994
2026-01-05 02:12:13.95	183.05	26.32	-23.3	-24.2	18.5	0.00e+00	0	44	102	1048576	7	4000
2026-01-05 02:12:14.95	183.13	26.16	-23.4	-24.3	18.5	6.72e-04	0	44	102	1048576	7	4023
2026-01-05 02:12:15.96	183.20	25.99	-23.6	-24.9	18.2	0.00e+00	0	44	102	1048576	7	4153
2026-01-05 02:12:16.96	183.27	25.83	-23.5	-24.7	18.3	7.08e-04	0	44	102	1048576	7	4103
2026-01-05 02:12:17.97	183.34	25.67	-23.7	-25.1	18.0	6.64e-04	0	44	102	1048576	7	4222
2026-01-05 02:12:18.97	183.42	25.51	-23.6	-24.9	18.1	0.00e+00	0	44	102	1048576	7	4173
2026-01-05 02:12:19.98	183.49	25.35	-23.6	-24.9	18.1	6.67e-04	0	43	102	1048576	7	4161
2026-01-05 02:12:20.99	183.56	25.19	-23.8	-25.2	18.0	1.54e-04	0	44	102	1048576	7	4244
2026-01-05 02:12:21.99	183.63	25.03	-23.7	-25.1	18.1	3.40e-06	0	43	102	1048576	7	4209
2026-01-05 02:12:23.00	183.69	24.88	-23.8	-25.3	17.9	1.59e-04	0	44	102	1048576	7	4283
2026-01-05 02:12:24.00	183.76	24.72	-23.9	-25.4	17.9	6.24e-04	0	44	102	1048576	7	4290
2026-01-05 02:12:25.00	183.83	24.57	-23.9	-25.6	17.8	2.20e-06	0	44	102	1048576	7	4340
2026-01-05 02:12:26.00	183.89	24.42	-23.9	-25.6	17.8	0.00e+00	0	44	102	1048576	7	4346
2026-01-05 02:12:27.01	183.96	24.26	-23.9	-25.5	17.8	9.74e-04	0	44	102	1048576	7	4319
2026-01-05 02:12:28.01	184.03	24.11	-24.1	-25.5	17.6	1.10e-06	0	44	102	1048576	8	4199
2026-01-05 02:12:29.02	184.09	23.96	-24.3	-25.9	17.4	9.83e-04	0	44	102	1048576	8	4307
2026-01-05 02:12:30.02	184.15	23.81	-24.2	-25.6	17.5	1.65e-04	0	44	102	1048576	8	4228
2026-01-05 02:12:31.03	184.22	23.66	-24.1	-25.4	17.6	3.40e-06	0	44	102	1048576	8	4185
2026-01-05 02:12:32.04	184.28	23.51	-24.2	-25.6	17.5	2.01e-04	0	44	102	1048576	8	4234
2026-01-05 02:12:33.05	184.34	23.36	-24.1	-25.5	17.6	1.76e-04	0	43	102	1048576	8	4200
2026-01-05 02:12:34.05	184.41	23.22	-24.2	-25.6	17.5	3.40e-06	0	43	102	1048576	8	4215
2026-01-05 02:12:35.06	184.47	23.07	-24.3	-25.8	17.4	1.88e-04	0	44	102	1048576	8	4287
2026-01-05 02:12:36.07	184.53	22.92	-24.1	-25.4	17.6	3.04e-04	0	44	102	1048576	8	4165
2026-01-05 02:12:37.07	184.59	22.78	-24.1	-25.4	17.6	3.40e-06	0	44	102	1048576	8	4167
2026-01-05 02:12:38.07	184.65	22.64	-24.1	-25.4	17.6	0.00e+00	0	43	102	1048576	8	4168
2026-01-05 02:12:39.08	184.71	22.49	-24.1	-25.3	17.6	1.97e-04	0	44	102	1048576	8	4145
2026-01-05 02:12:40.09	184.77	22.35	-24.1	-25.3	17.6	4.50e-06	0	44	102	1048576	8	4145
2026-01-05 02:12:41.10	184.83	22.21	-24.2	-25.6	17.5	1.70e-04	0	44	102	1048576	8	4237
2026-01-05 02:12:42.11	184.88	22.07	-24.1	-25.4	17.6	1.65e-04	0	44	102	1048576	8	4177
2026-01-05 02:12:43.11	184.94	21.93	-24.1	-25.4	17.6	0.00e+00	0	44	102	1048576	8	4174
2026-01-05 02:12:44.11	185.00	21.79	-24.1	-25.5	17.5	1.35e-04	0	44	102	1048576	8	4190
2026-01-05 02:12:45.13	185.05	21.65	-24.2	-25.5	17.6	0.00e+00	0	44	102	1048576	8	4203
2026-01-05 02:12:46.13	185.11	21.51	-24.2	-25.6	17.5	0.00e+00	0	44	102	1048576	8	4218
2026-01-05 02:12:47.14	185.17	21.37	-24.2	-25.6	17.5	0.00e+00	0	44	102	1048576	8	4222
2026-01-05 02:12:48.15	185.22	21.23	-24.5	-26.1	17.2	1.61e-04	0	44	102	1048576	8	4371
2026-01-05 02:12:49.16	185.28	21.10	-24.3	-25.8	17.3	0.00e+00	0	44	102	1048576	8	4294
2026-01-05 02:12:50.17	185.33	20.96	-24.1	-25.5	17.5	1.34e-04	0	43	102	1048576	8	4204
2026-01-05 02:12:51.18	185.38	20.83	-24.1	-25.5	17.5	1.21e-04	0	43	102	1048576	8	4204
2026-01-05 02:12:52.19	185.44	20.69	-24.2	-25.7	17.4	0.00e+00	0	44	102	1048576	8	4252
2026-01-05 02:12:53.20	185.49	20.56	-24.2	-25.7	17.4	1.68e-04	0	44	102	1048576	8	4260
2026-01-05 02:12:54.21	185.54	20.43	-24.3	-25.9	17.3	0.00e+00	0	43	102	1048576	8	4321
2026-01-05 02:12:55.22	185.59	20.30	-24.5	-26.2	17.2	0.00e+00	0	44	102	1048576	8	4387
2026-01-05 02:12:56.22	185.65	20.17	-24.4	-26.1	17.2	0.00e+00	0	43	102	1048576	8	4375
2026-01-05 02:12:57.23	185.70	20.03	-24.5	-26.2	17.1	0.00e+00	0	44	102	1048576	8	4393
2026-01-05 02:12:58.23	185.75	19.91	-24.5	-25.8	17.1	0.00e+00	0	44	102	1048576	9	4188
2026-01-05 02:12:59.23	185.80	19.78	-24.6	-26.0	17.0	0.00e+00	0	44	102	1048576	9	4234
2026-01-05 02:13:00.23	185.85	19.65	-24.8	-26.4	16.8	2.01e-04	0	44	102	1048576	9	4326
2026-01-05 02:13:01.24	185.90	19.52	-24.7	-26.2	16.9	0.00e+00	0	44	102	1048576	9	4271
2026-01-05 02:13:02.24	185.95	19.40	-24.8	-26.5	16.7	2.14e-04	0	44	102	1048576	9	4358
2026-01-05 02:13:03.25	185.99	19.27	-24.8	-26.4	16.7	0.00e+00	0	44	102	1048576	9	4326
2026-01-05 02:13:04.26	186.04	19.14	-24.9	-26.6	16.6	0.00e+00	0	43	102	1048576	9	4393
2026-01-05 02:13:05.27	186.09	19.02	-24.7	-26.3	16.8	0.00e+00	0	44	102	1048576	9	4308
2026-01-05 02:13:06.27	186.14	18.89	-24.8	-26.3	16.8	0.00e+00	0	43	102	1048576	9	4311
2026-01-05 02:13:07.28	186.19	18.77	-24.7	-26.3	16.8	0.00e+00	0	44	102	1048576	9	4304
2026-01-05 02:13:08.29	186.23	18.64	-24.7	-26.3	14.5	0.00e+00	0	44	102	1048576	9	4306
2026-01-05 02:13:09.29	186.28	18.52	-24.7	-26.3	16.8	0.00e+00	0	43	102	1048576	9	4301
2026-01-05 02:13:10.30	186.33	18.40	-24.8	-26.3	16.7	0.00e+00	0	44	102	1048576	9	4314
2026-01-05 02:13:11.31	186.37	18.28	-24.9	-26.7	16.5	6.13e-04	0	44	102	1048576	9	4408
2026-01-05 02:13:12.31	186.42	18.16	-24.8	-26.4	16.7	0.00e+00	0	43	102	1048576	9	4326
2026-01-05 02:13:13.32	186.46	18.04	-24.8	-26.4	16.7	0.00e+00	0	44	102	1048576	9	4333
2026-01-05 02:13:14.33	186.51	17.92	-24.8	-26.3	16.8	0.00e+00	0	43	102	1048576	9	4306
2026-01-05 02:13:15.34	186.55	17.80	-24.9	-26.6	16.6	0.00e+00	0	44	102	1048576	9	4380
2026-01-05 02:13:16.34	186.60	17.68	-24.9	-26.5	16.7	0.00e+00	0	44	102	1048576	9	4355
2026-01-05 02:13:17.35	186.64	17.56	-24.9	-26.6	16.6	0.00e+00	0	44	102	1048576	9	4389
2026-01-05 02:13:18.35	186.68	17.44	-25.1	-26.5	16.4	9.04e-05	0	44	102	1048576	10	4246
2026-01-05 02:13:19.36	186.73	17.32	-24.9	-26.2	16.6	0.00e+00	0	43	102	1048576	10	4149
2026-01-05 02:13:20.36	186.77	17.21	-24.9	-26.2	16.6	4.03e-04	0	44	102	1048576	10	4153
2026-01-05 02:13:21.37	186.81	17.09	-25.0	-26.2	16.5	0.00e+00	0	44	102	1048576	10	4169
2026-01-05 02:13:22.38	186.86	16.98	-25.0	-26.3	16.5	0.00e+00	0	44	102	1048576	10	4191
2026-01-05 02:13:23.39	186.90	16.86	-25.1	-26.5	16.4	4.06e-04	0	44	102	1048576	10	4234
2026-01-05 02:13:24.39	186.94	16.75	-24.9	-26.2	16.5	0.00e+00	0	44	102	1048576	10	4150
2026-01-05 02:13:25.40	186.98	16.63	-25.0	-26.4	16.4	3.58e-04	0	44	102	1048576	10	4211
2026-01-05 02:13:26.40	187.02	16.52	-25.0	-26.3	16.5	0.00e+00	0	43	102	1048576	10	4194
2026-01-05 02:13:27.41	187.06	16.41	-25.1	-26.6	16.3	1.71e-05	0	44	102	1048576	10	4267
2026-01-05 02:13:28.42	187.10	16.29	-25.1	-26.6	16.3	9.95e-05	0	44	102	1048576	10	4258
2026-01-05 02:13:29.42	187.14	16.18	-25.2	-26.7	16.3	3.56e-04	0	44	102	1048576	10	4288
2026-01-05 02:13:30.44	187.19	16.07	-25.2	-26.8	16.2	3.40e-06	0	44	102	1048576	10	4302
2026-01-05 02:13:31.44	187.22	15.96	-25.3	-27.0	16.1	3.13e-04	0	44	102	1048576	10	4370
2026-01-05 02:13:32.44	187.26	15.85	-25.5	-27.3	15.9	3.22e-04	0	44	102	1048576	10	4463
2026-01-05 02:13:33.45	187.30	15.74	-25.4	-27.2	16.0	1.10e-06	0	44	102	1048576	10	4432
2026-01-05 02:13:34.46	187.34	15.63	-25.6	-27.1	15.7	3.97e-04	0	44	102	1048576	11	4292
2026-01-05 02:13:35.47	187.38	15.52	-25.6	-27.1	15.7	4.35e-04	0	43	102	1048576	11	4280
2026-01-05 02:13:36.48	187.42	15.41	-25.7	-27.3	15.6	0.00e+00	0	43	102	1048576	11	4352
2026-01-05 02:13:37.48	187.46	15.31	-25.8	-27.7	15.4	4.54e-04	0	43	102	1048576	11	4444
2026-01-05 02:13:38.49	187.50	15.20	-25.8	-27.6	15.5	5.05e-04	0	44	102	1048576	11	4424
2026-01-05 02:13:39.49	187.53	15.09	-25.9	-27.7	15.4	0.00e+00	0	44	102	1048576	11	4456
2026-01-05 02:13:40.49	187.57	14.99	-26.0	-27.9	15.3	5.40e-04	0	43	102	1048576	11	4520
2026-01-05 02:13:41.49	187.61	14.88	-25.6	-27.3	14.8	5.10e-04	0	44	102	1048576	12	4380
2026-01-05 02:13:42.50	187.65	14.77	-26.3	-28.2	14.8	0.00e+00	0	44	102	1048576	12	4475
2026-01-05 02:13:43.50	187.68	14.67	-26.0	-27.6	14.6	5.71e-04	0	44	102	1048576	12	4320
2026-01-05 02:13:44.51	187.72	14.56	-25.9	-27.3	15.2	5.73e-04	0	44	102	1048576	12	4239
2026-01-05 02:13:45.52	187.76	14.46	-25.6	-26.8	15.5	1.10e-06	0	44	102	1048576	12	4091
2026-01-05 02:13:46.52	187.79	14.36	-25.7	-27.5	15.5	5.76e-04	0	44	102	1048576	11	4392
2026-01-05 02:13:47.53	187.83	14.25	-25.7	-27.3	15.6	0.00e+00	0	44	102	1048576	11	4348
2026-01-05 02:13:48.54	187.86	14.15	-25.8	-27.6	15.4	3.40e-06	0	44	102	1048576	11	4420
2026-01-05 02:13:49.55	187.90	14.05	-25.8	-27.6	15.4	0.00e+00	0	44	102	1048576	11	4437
2026-01-05 02:13:50.55	187.93	13.94	-25.9	-27.8	15.3	8.01e-04	0	44	102	1048576	11	4486
2026-01-05 02:13:51.56	187.97	13.84	-25.9	-27.8	15.3	0.00e+00	0	44	102	1048576	11	4489
2026-01-05 02:13:52.56	188.00	13.74	-25.9	-27.9	15.2	4.32e-04	0	44	102	1048576	11	4508
2026-01-05 02:13:53.57	188.04	13.64	-25.8	-27.7	15.4	2.47e-04	0	44	102	1048576	11	4454
2026-01-05 02:13:54.58	188.07	13.54	-25.9	-27.9	15.3	0.00e+00	0	44	102	1048576	11	4502
2026-01-05 02:13:55.58	188.11	13.44	-26.0	-28.0	15.1	9.03e-04	0	44	102	1048576	11	4552
2026-01-05 02:13:56.59	188.14	13.34	-25.9	-27.9	15.2	2.55e-04	0	44	102	1048576	11	4527
2026-01-05 02:13:57.60	188.17	13.24	-25.9	-27.9	15.2	0.00e+00	0	44	102	1048576	11	4510
2026-01-05 02:13:58.60	188.21	13.14	-26.0	-28.0	15.1	2.92e-04	0	44	102	1048576	11	4554
2026-01-05 02:13:59.60	188.24	13.04	-26.1	-27.9	14.9	0.00e+00	0	44	102	1048576	12	4394
2026-01-05 02:14:00.61	188.27	12.95	-26.2	-27.9	14.8	0.00e+00	0	44	102	1048576	12	4421
2026-01-05 02:14:01.62	188.31	12.85	-26.1	-27.8	14.9	2.37e-04	0	44	102	1048576	12	4369
2026-01-05 02:14:02.63	188.34	12.75	-26.3	-28.2	14.7	3.10e-04	0	44	102	1048576	12	4502
2026-01-05 02:14:03.63	188.37	12.65	-26.4	-28.4	14.6	1.10e-06	0	44	102	1048576	12	4554
2026-01-05 02:14:04.64	188.40	12.56	-26.2	-28.1	14.7	3.44e-04	0	44	102	1048576	12	4478
2026-01-05 02:14:05.65	188.44	12.46	-26.1	-27.8	14.9	3.23e-04	0	44	102	1048576	12	4388
2026-01-05 02:14:06.66	188.47	12.36	-26.2	-28.0	14.7	0.00e+00	0	44	102	1048576	12	4445
2026-01-05 02:14:07.66	188.50	12.27	-26.1	-27.9	14.8	3.15e-04	0	44	102	1048576	12	4404
2026-01-05 02:14:08.67	188.53	12.17	-26.0	-27.6	15.0	3.11e-04	0	44	102	1048576	12	4308
2026-01-05 02:14:09.68	188.56	12.08	-26.0	-27.5	15.0	0.00e+00	0	44	102	1048576	12	4298
2026-01-05 02:14:10.68	188.59	11.98	-26.0	-27.5	15.0	3.35e-04	0	43	102	1048576	12	4307
2026-01-05 02:14:11.69	188.63	11.89	-26.0	-27.6	15.0	3.10e-04	0	44	102	1048576	12	4323
2026-01-05 02:14:12.70	188.66	11.80	-26.0	-27.6	14.9	0.00e+00	0	44	102	1048576	12	4337
2026-01-05 02:14:13.70	188.69	11.70	-26.0	-27.6	15.0	0.00e+00	0	44	102	1048576	12	4323
2026-01-05 02:14:14.71	188.72	11.61	-26.0	-27.6	15.0	3.38e-04	0	44	102	1048576	12	4324
2026-01-05 02:14:15.72	188.75	11.52	-26.0	-27.6	15.0	1.10e-06	0	44	102	1048576	12	4311
2026-01-05 02:14:16.73	188.78	11.42	-26.0	-27.5	15.0	3.52e-04	0	43	102	1048576	12	4310
2026-01-05 02:14:17.74	188.81	11.33	-26.1	-27.7	14.8	0.00e+00	0	44	102	1048576	12	4349
2026-01-05 02:14:18.74	188.84	11.24	-26.0	-27.7	14.9	1.10e-06	0	44	102	1048576	12	4348
2026-01-05 02:14:19.74	188.87	11.15	-26.1	-27.9	14.8	0.00e+00	0	44	102	1048576	12	4400
2026-01-05 02:14:20.75	188.90	11.06	-26.2	-28.0	14.7	1.10e-06	0	44	102	1048576	12	4423
2026-01-05 02:14:21.75	188.93	10.97	-26.2	-28.1	14.7	0.00e+00	0	44	102	1048576	12	4458
2026-01-05 02:14:22.75	188.96	10.88	-26.3	-28.2	14.6	0.00e+00	0	44	102	1048576	12	4502
2026-01-05 02:14:23.76	188.99	10.79	-26.3	-28.2	14.6	3.33e-04	0	44	102	1048576	12	4487
2026-01-05 02:14:24.77	189.01	10.70	-26.3	-28.3	14.5	1.10e-06	0	44	102	1048576	12	4535
2026-01-05 02:14:25.78	189.04	10.61	-26.3	-28.3	14.5	1.10e-06	0	44	102	1048576	12	4533
2026-01-05 02:14:26.78	189.07	10.52	-26.5	-28.2	14.3	9.10e-06	0	44	102	1048576	13	4390
2026-01-05 02:14:27.79	189.10	10.43	-26.8	-28.8	13.9	4.50e-06	0	44	102	1048576	13	4564
2026-01-05 02:14:28.80	189.13	10.34	-26.9	-29.2	13.6	1.02e-05	0	44	102	1048576	13	4687
2026-01-05 02:14:29.81	189.16	10.26	-26.9	-29.1	13.7	6.80e-06	0	44	102	1048576	13	4648
2026-01-05 02:14:30.81	189.18	10.17	-27.0	-29.3	13.6	1.02e-05	0	44	102	1048576	13	4712
2026-01-05 02:14:31.82	189.21	10.08	-27.1	-29.2	13.4	2.05e-05	0	44	102	1048576	14	4547
2026-01-05 02:14:32.83	189.24	9.99	-27.0	-29.0	13.5	1.83e-05	0	44	102	1048576	14	4493
2026-01-05 02:14:33.83	189.27	9.91	-27.4	-29.7	13.1	3.66e-05	0	43	102	1048576	14	4728
2026-01-05 02:14:34.84	189.29	9.82	-27.4	-29.7	13.1	6.40e-05	0	43	102	1048576	14	4723
2026-01-05 02:14:35.85	189.32	9.73	-27.4	-29.7	13.0	4.80e-05	0	44	102	1048576	14	4729
2026-01-05 02:14:36.85	189.35	9.65	-27.7	-30.1	12.5	1.20e-04	0	44	102	1048576	15	4735
2026-01-05 02:14:37.86	189.38	9.56	-27.7	-29.9	12.6	1.73e-04	0	44	102	1048576	15	4679
2026-01-05 02:14:38.86	189.40	9.48	-27.3	-29.2	13.1	1.01e-04	0	44	102	1048576	15	4447
2026-01-05 02:14:39.87	189.43	9.39	-27.2	-29.3	13.3	1.18e-03	0	44	102	1048576	14	4609
2026-01-05 02:14:40.87	189.46	9.31	-27.0	-28.9	13.5	1.94e-05	0	44	102	1048576	14	4476
2026-01-05 02:14:41.88	189.48	9.22	-27.1	-29.1	13.4	2.74e-05	0	44	102	1048576	14	4529
2026-01-05 02:14:42.88	189.51	9.14	-27.3	-29.7	13.1	4.00e-05	0	44	102	1048576	14	4710
2026-01-05 02:14:43.88	189.53	9.06	-27.2	-29.3	13.3	5.60e-05	0	44	102	1048576	14	4609
2026-01-05 02:14:44.89	189.56	8.97	-27.1	-29.0	13.4	3.66e-05	0	44	102	1048576	14	4514
2026-01-05 02:14:45.90	189.59	8.89	-27.0	-29.3	13.5	1.60e-05	0	44	102	1048576	13	4716
2026-01-05 02:14:46.90	189.61	8.81	-26.9	-29.2	13.6	1.13e-03	0	44	102	1048576	13	4679
2026-01-05 02:14:47.91	189.64	8.72	-27.1	-29.1	13.3	3.31e-05	0	43	102	1048576	14	4552
2026-01-05 02:14:48.92	189.66	8.64	-27.4	-29.9	12.9	1.23e-03	0	43	102	1048576	14	4775
