passes_logs/2026/01/05/R2M6_AANII_01/R2M6_AANII_01__20260105_105514_SUOMI_NPP_rec.log

#Pass ID: 20260105_105514_SUOMI NPP
#Satellite: SUOMI NPP
#Configuration: NPP
#almurnet v.1.7.20240730
#Start time: 2026-01-05 10:55:14

#Version: 2.2.20231116
#Station: R2M6_AANII_01
#Location: 30.233357 lon 59.946436 lat
#TLE: 1 37849U 11061A   26003.96724563  .00000164  00000+0  98899-4 0  9990
#TLE: 2 37849  98.7800 306.1116 0002573  82.3190 277.8279 14.19522066735141

#Time	Az	El	Level	Level2	SNR	BER	BlckErr	Temp	State	Recorded	gain1	gain2
2026-01-05 10:55:14.56	176.80	7.02	-30.2	-33.4	5.4	1.22e+00	0	41	0	0	20	5232
2026-01-05 10:55:15.56	176.83	7.10	-31.0	-35.6	4.9	1.31e+00	0	41	104	0	22	6099
2026-01-05 10:55:16.56	176.87	7.18	-30.9	-35.0	8.1	9.81e-02	0	41	0	0	22	5777
2026-01-05 10:55:17.57	176.90	7.25	-30.9	-35.0	8.1	5.10e-02	0	41	102	1048576	22	5786
2026-01-05 10:55:18.58	176.94	7.33	-30.8	-34.7	8.3	6.30e-02	0	41	102	1048576	22	5624
2026-01-05 10:55:19.59	176.97	7.41	-30.6	-33.7	9.2	3.67e-02	0	41	102	1048576	22	5146
2026-01-05 10:55:20.59	177.01	7.49	-30.4	-32.9	9.8	1.72e-02	0	41	102	1048576	22	4810
2026-01-05 10:55:21.60	177.05	7.56	-30.2	-32.7	10.4	6.16e-03	0	41	102	1048576	21	4796
2026-01-05 10:55:22.60	177.08	7.64	-30.0	-32.1	10.8	2.71e-03	0	41	102	1048576	21	4585
2026-01-05 10:55:23.61	177.12	7.72	-30.0	-31.9	10.9	2.12e-03	0	41	102	1048576	21	4528
2026-01-05 10:55:24.61	177.15	7.80	-29.9	-32.0	10.9	2.68e-03	0	41	102	1048576	21	4537
2026-01-05 10:55:25.62	177.19	7.88	-30.0	-32.2	10.7	2.61e-03	0	41	102	1048576	21	4602
2026-01-05 10:55:26.63	177.23	7.96	-29.9	-31.9	11.0	2.06e-03	0	41	102	1048576	21	4502
2026-01-05 10:55:27.63	177.26	8.04	-30.0	-32.1	10.9	1.97e-03	0	41	102	1048576	21	4573
2026-01-05 10:55:28.64	177.30	8.12	-30.0	-31.9	11.0	2.06e-03	0	41	102	1048576	21	4509
2026-01-05 10:55:29.64	177.34	8.19	-30.0	-32.0	10.9	2.02e-03	0	41	102	1048576	21	4542
2026-01-05 10:55:30.64	177.38	8.27	-30.0	-32.2	10.8	1.85e-03	0	41	102	1048576	21	4598
2026-01-05 10:55:31.65	177.41	8.35	-30.0	-31.9	11.0	2.46e-03	0	41	102	1048576	21	4496
2026-01-05 10:55:32.64	177.45	8.43	-29.7	-31.7	11.6	1.18e-03	0	41	102	1048576	20	4496
2026-01-05 10:55:33.65	177.49	8.51	-29.5	-31.0	12.1	4.46e-04	0	41	102	1048576	20	4270
2026-01-05 10:55:34.66	177.53	8.60	-29.4	-30.7	12.3	2.45e-04	0	41	102	1048576	20	4182
2026-01-05 10:55:35.66	177.57	8.68	-29.3	-30.4	12.5	1.53e-04	0	41	102	1048576	20	4087
2026-01-05 10:55:36.67	177.60	8.76	-29.4	-30.6	12.4	1.30e-04	0	41	102	1048576	20	4130
2026-01-05 10:55:37.67	177.64	8.84	-29.4	-30.7	12.3	1.64e-04	0	42	102	1048576	20	4173
2026-01-05 10:55:38.67	177.68	8.92	-29.4	-30.6	12.4	1.63e-04	0	42	102	1048576	20	4132
2026-01-05 10:55:39.68	177.72	9.00	-29.3	-30.4	12.6	1.03e-04	0	42	102	1048576	20	4078
2026-01-05 10:55:40.68	177.76	9.08	-29.3	-30.5	12.5	1.04e-04	0	42	102	1048576	20	4088
2026-01-05 10:55:41.68	177.80	9.17	-29.3	-30.8	12.8	8.39e-05	0	42	102	1048576	19	4264
2026-01-05 10:55:42.69	177.84	9.25	-29.4	-31.1	12.5	9.00e-05	0	42	102	1048576	19	4377
2026-01-05 10:55:43.70	177.88	9.33	-29.4	-31.0	12.6	1.22e-04	0	42	102	1048576	19	4349
2026-01-05 10:55:44.70	177.92	9.42	-29.4	-31.0	12.6	6.63e-05	0	42	102	1048576	19	4335
2026-01-05 10:55:45.71	177.96	9.50	-29.4	-31.0	12.6	1.01e-04	0	42	102	1048576	19	4325
2026-01-05 10:55:46.71	178.00	9.58	-29.3	-30.6	12.9	9.68e-05	0	42	102	1048576	19	4216
2026-01-05 10:55:47.71	178.04	9.67	-29.3	-30.7	12.8	5.41e-05	0	42	102	1048576	19	4231
2026-01-05 10:55:48.71	178.08	9.75	-29.3	-30.8	12.8	6.79e-05	0	42	102	1048576	19	4277
2026-01-05 10:55:49.72	178.12	9.84	-29.4	-30.9	12.7	8.16e-05	0	42	102	1048576	19	4302
2026-01-05 10:55:50.73	178.17	9.92	-29.3	-30.8	12.8	9.76e-05	0	42	102	1048576	19	4268
2026-01-05 10:55:51.73	178.21	10.01	-29.3	-30.7	12.9	5.41e-05	0	42	102	1048576	19	4235
2026-01-05 10:55:52.74	178.25	10.09	-29.3	-30.8	12.8	4.65e-05	0	42	102	1048576	19	4276
2026-01-05 10:55:53.75	178.29	10.18	-29.3	-30.7	12.8	6.94e-05	0	42	102	1048576	19	4244
2026-01-05 10:55:54.77	178.34	10.27	-29.2	-30.3	13.2	3.73e-05	0	42	102	1048576	19	4099
2026-01-05 10:55:55.77	178.38	10.35	-29.4	-30.8	12.8	4.19e-05	0	42	102	1048576	19	4268
2026-01-05 10:55:56.78	178.42	10.44	-29.3	-30.8	12.8	6.02e-05	0	42	102	1048576	19	4256
2026-01-05 10:55:57.79	178.46	10.53	-29.2	-30.5	13.1	2.82e-05	0	42	102	1048576	19	4159
2026-01-05 10:55:58.80	178.51	10.62	-29.3	-30.7	12.9	3.66e-05	0	42	102	1048576	19	4221
2026-01-05 10:55:59.80	178.55	10.70	-29.3	-30.6	13.0	4.42e-05	0	42	102	1048576	19	4201
2026-01-05 10:56:00.81	178.60	10.79	-29.3	-30.5	13.1	3.43e-05	0	42	102	1048576	19	4166
2026-01-05 10:56:01.81	178.64	10.88	-29.2	-30.5	13.1	3.12e-05	0	42	102	1048576	19	4168
2026-01-05 10:56:02.82	178.68	10.97	-29.3	-30.6	13.1	4.57e-05	0	42	102	1048576	19	4184
2026-01-05 10:56:03.82	178.73	11.06	-29.2	-30.5	13.1	3.89e-05	0	42	102	1048576	19	4152
2026-01-05 10:56:04.83	178.77	11.15	-29.3	-30.7	13.0	3.28e-05	0	42	102	1048576	19	4217
2026-01-05 10:56:05.84	178.82	11.24	-29.3	-30.5	13.1	3.35e-05	0	42	102	1048576	19	4173
2026-01-05 10:56:06.84	178.86	11.33	-29.2	-30.5	13.1	2.51e-05	0	42	102	1048576	19	4152
2026-01-05 10:56:07.85	178.91	11.42	-29.3	-30.6	13.1	4.50e-05	0	42	102	1048576	19	4180
2026-01-05 10:56:08.86	178.96	11.51	-29.4	-30.9	12.8	3.35e-05	0	42	102	1048576	19	4290
2026-01-05 10:56:09.87	179.00	11.60	-29.3	-30.8	12.9	5.03e-05	0	42	102	1048576	19	4241
2026-01-05 10:56:10.87	179.05	11.69	-29.3	-30.6	13.0	4.88e-05	0	42	102	1048576	19	4197
2026-01-05 10:56:11.88	179.10	11.78	-29.2	-30.5	13.2	3.66e-05	0	42	102	1048576	19	4144
2026-01-05 10:56:12.88	179.14	11.87	-29.4	-31.0	12.9	3.96e-05	0	42	102	1048576	19	4310
2026-01-05 10:56:13.88	179.19	11.97	-29.3	-30.6	13.1	4.57e-05	0	42	102	1048576	19	4172
2026-01-05 10:56:14.89	179.24	12.06	-29.3	-30.7	13.0	4.42e-05	0	42	102	1048576	19	4230
2026-01-05 10:56:15.89	179.28	12.15	-29.3	-30.6	13.1	2.59e-05	0	42	102	1048576	19	4196
2026-01-05 10:56:16.90	179.33	12.24	-29.3	-30.5	13.2	2.67e-05	0	42	102	1048576	19	4147
2026-01-05 10:56:17.91	179.38	12.34	-29.3	-30.5	13.2	1.67e-05	0	43	102	1048576	19	4147
2026-01-05 10:56:18.91	179.43	12.43	-29.3	-30.7	13.0	3.12e-05	0	42	102	1048576	19	4217
2026-01-05 10:56:19.91	179.48	12.53	-29.2	-30.3	13.3	1.44e-05	0	42	102	1048576	19	4084
2026-01-05 10:56:20.92	179.53	12.62	-29.2	-30.2	13.4	2.28e-05	0	42	102	1048576	19	4061
2026-01-05 10:56:21.93	179.58	12.72	-29.2	-30.3	13.4	2.36e-05	0	42	102	1048576	19	4080
2026-01-05 10:56:22.94	179.63	12.81	-29.3	-30.5	13.2	2.36e-05	0	42	102	1048576	19	4166
2026-01-05 10:56:23.95	179.68	12.91	-29.3	-30.6	13.2	1.98e-05	0	42	102	1048576	19	4185
2026-01-05 10:56:24.96	179.73	13.00	-29.1	-30.0	13.5	2.21e-05	0	43	102	1048576	19	4005
2026-01-05 10:56:25.97	179.78	13.10	-29.2	-30.3	13.4	1.60e-05	0	42	102	1048576	19	4076
2026-01-05 10:56:26.98	179.83	13.20	-29.2	-30.2	13.4	1.22e-05	0	42	102	1048576	19	4069
2026-01-05 10:56:27.98	179.88	13.29	-29.3	-30.5	13.2	3.43e-05	0	43	102	1048576	19	4141
2026-01-05 10:56:28.98	179.93	13.39	-29.2	-30.2	13.4	1.44e-05	0	42	102	1048576	19	4066
2026-01-05 10:56:29.99	179.99	13.49	-29.2	-30.4	13.3	1.67e-05	0	43	102	1048576	19	4128
2026-01-05 10:56:31.00	180.04	13.59	-29.3	-30.5	13.3	2.82e-05	0	43	102	1048576	19	4150
2026-01-05 10:56:32.01	180.09	13.69	-29.3	-30.7	13.1	9.90e-06	0	42	102	1048576	19	4209
2026-01-05 10:56:33.01	180.14	13.79	-29.3	-30.7	13.2	2.89e-05	0	42	102	1048576	19	4193
2026-01-05 10:56:34.02	180.20	13.89	-29.4	-30.7	13.1	2.51e-05	0	43	102	1048576	19	4207
2026-01-05 10:56:35.03	180.25	13.99	-29.4	-30.8	13.0	2.05e-05	0	43	102	1048576	19	4243
2026-01-05 10:56:36.04	180.31	14.09	-29.4	-30.8	13.1	2.28e-05	0	43	102	1048576	19	4226
2026-01-05 10:56:37.05	180.36	14.19	-29.3	-30.6	13.2	2.59e-05	0	42	102	1048576	19	4184
2026-01-05 10:56:38.06	180.42	14.29	-29.2	-30.2	13.4	1.67e-05	0	43	102	1048576	19	4058
2026-01-05 10:56:39.06	180.47	14.39	-29.3	-30.6	13.3	2.28e-05	0	42	102	1048576	19	4169
2026-01-05 10:56:40.06	180.53	14.49	-29.2	-30.4	13.3	2.97e-05	0	43	102	1048576	19	4108
2026-01-05 10:56:41.07	180.58	14.59	-29.3	-30.4	13.3	1.14e-05	0	43	102	1048576	19	4113
2026-01-05 10:56:42.08	180.64	14.70	-29.2	-30.2	13.5	1.06e-05	0	43	102	1048576	19	4052
2026-01-05 10:56:43.08	180.69	14.80	-29.3	-30.6	13.2	2.21e-05	0	42	102	1048576	19	4179
2026-01-05 10:56:44.09	180.75	14.90	-29.5	-31.1	12.8	5.26e-05	0	43	102	1048576	19	4340
2026-01-05 10:56:45.10	180.81	15.01	-29.3	-30.6	13.3	2.36e-05	0	43	102	1048576	19	4174
2026-01-05 10:56:46.10	180.87	15.11	-29.1	-29.9	13.7	1.60e-05	0	43	102	1048576	19	3970
2026-01-05 10:56:47.10	180.92	15.21	-29.0	-29.8	13.8	6.10e-06	0	43	102	1048576	19	3931
2026-01-05 10:56:48.11	180.98	15.32	-28.9	-29.3	14.1	3.80e-06	0	42	102	1048576	19	3799
2026-01-05 10:56:49.12	181.04	15.43	-28.9	-29.5	14.0	2.20e-06	0	43	102	1048576	19	3839
2026-01-05 10:56:50.12	181.10	15.53	-29.0	-29.6	13.9	0.00e+00	0	43	102	1048576	19	3885
2026-01-05 10:56:51.13	181.16	15.64	-29.0	-29.8	13.8	2.20e-06	0	43	102	1048576	19	3927
2026-01-05 10:56:52.14	181.22	15.75	-29.2	-30.2	13.6	9.90e-06	0	43	102	1048576	19	4049
2026-01-05 10:56:53.10	181.28	15.85	-29.2	-30.1	13.6	6.80e-06	0	43	102	1048576	19	4026
2026-01-05 10:56:54.11	181.34	15.96	-29.3	-30.6	13.3	9.10e-06	0	43	102	1048576	19	4169
2026-01-05 10:56:55.11	181.40	16.06	-29.4	-30.8	13.2	1.75e-05	0	43	102	1048576	19	4221
2026-01-05 10:56:56.12	181.46	16.17	-29.3	-30.5	13.4	1.75e-05	0	43	102	1048576	19	4144
2026-01-05 10:56:57.13	181.53	16.28	-29.4	-30.7	13.3	1.29e-05	0	43	102	1048576	19	4196
2026-01-05 10:56:58.13	181.59	16.39	-29.5	-31.2	12.9	2.44e-05	0	43	102	1048576	19	4334
2026-01-05 10:56:59.14	181.65	16.50	-29.4	-30.7	13.3	2.51e-05	0	43	102	1048576	19	4197
2026-01-05 10:57:00.15	181.71	16.61	-29.5	-31.0	13.0	1.67e-05	0	43	102	1048576	19	4292
2026-01-05 10:57:01.15	181.78	16.72	-29.4	-30.8	13.2	2.21e-05	0	43	102	1048576	19	4212
2026-01-05 10:57:02.15	181.84	16.83	-29.3	-30.5	13.4	9.90e-06	0	43	102	1048576	19	4117
2026-01-05 10:57:03.15	181.91	16.94	-29.3	-30.6	13.4	1.29e-05	0	43	102	1048576	19	4157
2026-01-05 10:57:04.15	181.97	17.06	-29.3	-30.6	13.4	1.83e-05	0	43	102	1048576	19	4164
2026-01-05 10:57:05.16	182.04	17.17	-29.1	-30.0	13.8	8.30e-06	0	43	102	1048576	19	3988
2026-01-05 10:57:06.17	182.10	17.28	-29.1	-29.9	13.9	3.00e-06	0	43	102	1048576	19	3941
2026-01-05 10:57:07.18	182.17	17.40	-29.0	-29.7	14.0	3.80e-06	0	43	102	1048576	19	3900
2026-01-05 10:57:08.19	182.24	17.51	-29.1	-29.8	13.9	1.50e-06	0	43	102	1048576	19	3938
2026-01-05 10:57:09.20	182.30	17.63	-29.1	-30.0	13.8	3.80e-06	0	43	102	1048576	19	3981
2026-01-05 10:57:10.21	182.37	17.74	-28.9	-29.5	14.1	1.29e-05	0	43	102	1048576	19	3854
2026-01-05 10:57:11.21	182.44	17.86	-29.2	-30.1	13.7	1.50e-06	0	43	102	1048576	19	4022
2026-01-05 10:57:12.22	182.51	17.98	-29.3	-30.5	13.5	9.10e-06	0	43	102	1048576	19	4135
2026-01-05 10:57:13.22	182.58	18.09	-29.3	-30.4	13.6	9.10e-06	0	43	102	1048576	19	4094
2026-01-05 10:57:14.23	182.65	18.21	-29.1	-29.9	13.9	5.30e-06	0	43	102	1048576	19	3943
2026-01-05 10:57:15.24	182.72	18.33	-29.2	-30.2	13.6	7.60e-06	0	43	102	1048576	19	4051
2026-01-05 10:57:16.24	182.79	18.45	-29.2	-30.3	13.6	6.10e-06	0	43	102	1048576	19	4084
2026-01-05 10:57:17.25	182.86	18.57	-29.3	-30.4	13.6	7.60e-06	0	43	102	1048576	19	4100
2026-01-05 10:57:18.26	182.94	18.69	-29.5	-30.9	13.3	1.98e-05	0	43	102	1048576	19	4252
2026-01-05 10:57:19.26	183.01	18.81	-29.3	-30.6	13.5	1.75e-05	0	43	102	1048576	19	4157
2026-01-05 10:57:20.27	183.08	18.93	-29.4	-30.7	13.4	9.90e-06	0	43	102	1048576	19	4199
2026-01-05 10:57:21.27	183.15	19.05	-29.6	-31.2	13.1	2.74e-05	0	43	102	1048576	19	4347
2026-01-05 10:57:22.28	183.23	19.17	-29.7	-31.5	12.9	4.42e-05	0	43	102	1048576	19	4445
2026-01-05 10:57:23.28	183.30	19.29	-29.5	-30.9	13.2	2.21e-05	0	43	102	1048576	19	4263
2026-01-05 10:57:24.29	183.38	19.41	-29.6	-31.3	13.0	3.05e-05	0	43	102	1048576	19	4380
2026-01-05 10:57:25.30	183.46	19.54	-29.4	-30.9	13.3	2.59e-05	0	43	102	1048576	19	4239
2026-01-05 10:57:26.31	183.53	19.66	-29.6	-31.3	13.0	8.30e-06	0	43	102	1048576	19	4381
2026-01-05 10:57:27.31	183.61	19.79	-29.6	-31.3	13.0	3.73e-05	0	43	102	1048576	19	4381
2026-01-05 10:57:28.32	183.69	19.91	-29.6	-31.3	13.0	2.97e-05	0	43	102	1048576	19	4368
2026-01-05 10:57:29.33	183.77	20.04	-29.6	-31.4	13.0	6.10e-05	0	43	102	1048576	19	4395
2026-01-05 10:57:30.33	183.85	20.16	-29.7	-31.7	12.7	5.11e-05	0	43	102	1048576	19	4500
2026-01-05 10:57:31.33	183.92	20.29	-29.6	-31.2	13.1	2.21e-05	0	43	102	1048576	19	4350
2026-01-05 10:57:32.33	184.00	20.42	-29.6	-31.2	13.1	1.83e-05	0	43	102	1048576	19	4352
2026-01-05 10:57:33.34	184.09	20.55	-29.7	-31.5	12.9	4.34e-05	0	43	102	1048576	19	4438
2026-01-05 10:57:34.36	184.17	20.68	-29.5	-31.0	13.3	2.28e-05	0	43	102	1048576	19	4266
2026-01-05 10:57:35.37	184.25	20.81	-29.5	-31.0	13.2	1.75e-05	0	43	102	1048576	19	4281
2026-01-05 10:57:36.37	184.33	20.93	-29.4	-30.7	13.5	2.13e-05	0	43	102	1048576	19	4184
2026-01-05 10:57:37.38	184.42	21.07	-29.3	-30.5	13.7	9.90e-06	0	43	102	1048576	19	4104
2026-01-05 10:57:38.39	184.50	21.20	-29.4	-30.7	13.5	9.90e-06	0	43	102	1048576	19	4181
2026-01-05 10:57:39.40	184.59	21.33	-29.3	-30.4	13.7	1.75e-05	0	43	102	1048576	19	4076
2026-01-05 10:57:40.40	184.67	21.46	-29.2	-30.1	14.0	3.00e-06	0	43	102	1048576	19	3989
2026-01-05 10:57:41.41	184.76	21.59	-29.0	-29.6	14.2	1.50e-06	0	43	102	1048576	19	3863
2026-01-05 10:57:42.42	184.85	21.73	-28.9	-29.4	14.3	1.50e-06	0	43	102	1048576	19	3816
2026-01-05 10:57:43.42	184.93	21.86	-29.0	-29.5	14.3	1.50e-06	0	43	102	1048576	19	3818
2026-01-05 10:57:44.42	185.02	22.00	-29.0	-29.7	14.2	1.50e-06	0	43	102	1048576	19	3877
2026-01-05 10:57:45.43	185.11	22.13	-28.9	-29.2	14.5	7.00e-07	0	43	102	1048576	19	3753
2026-01-05 10:57:46.44	185.20	22.27	-28.9	-29.9	14.4	0.00e+00	0	43	102	1048576	18	4023
2026-01-05 10:57:47.45	185.29	22.41	-28.7	-29.4	14.7	0.00e+00	0	43	102	1048576	18	3888
2026-01-05 10:57:48.45	185.38	22.54	-28.7	-29.3	14.8	3.00e-06	0	43	102	1048576	18	3862
2026-01-05 10:57:49.46	185.48	22.68	-28.7	-29.3	14.8	0.00e+00	0	43	102	1048576	18	3844
2026-01-05 10:57:50.47	185.57	22.82	-28.6	-29.1	14.9	0.00e+00	0	43	102	1048576	18	3794
2026-01-05 10:57:51.48	185.67	22.96	-28.6	-29.0	15.0	3.80e-06	0	43	102	1048576	18	3789
2026-01-05 10:57:52.48	185.76	23.10	-28.5	-28.8	15.1	0.00e+00	0	43	102	1048576	18	3736
2026-01-05 10:57:53.48	185.85	23.24	-28.4	-28.5	15.2	0.00e+00	0	43	102	1048576	18	3655
2026-01-05 10:57:54.49	185.95	23.39	-28.3	-28.7	15.4	2.20e-06	0	43	102	1048576	17	3786
2026-01-05 10:57:55.49	186.05	23.53	-28.4	-29.0	15.3	0.00e+00	0	43	102	1048576	17	3857
2026-01-05 10:57:56.50	186.15	23.67	-28.4	-29.1	15.2	0.00e+00	0	43	102	1048576	17	3895
2026-01-05 10:57:57.51	186.25	23.81	-28.2	-28.5	15.6	7.00e-07	0	43	102	1048576	17	3726
2026-01-05 10:57:58.51	186.34	23.96	-28.3	-28.7	15.4	0.00e+00	0	43	102	1048576	17	3796
2026-01-05 10:57:59.52	186.45	24.10	-28.4	-28.9	15.3	0.00e+00	0	43	102	1048576	17	3848
2026-01-05 10:58:00.52	186.55	24.25	-28.3	-28.7	15.5	0.00e+00	0	43	102	1048576	17	3785
2026-01-05 10:58:01.53	186.65	24.40	-28.3	-28.7	15.4	0.00e+00	0	43	102	1048576	17	3790
2026-01-05 10:58:02.54	186.75	24.55	-28.3	-28.9	15.4	0.00e+00	0	43	102	1048576	17	3826
2026-01-05 10:58:03.55	186.86	24.69	-28.2	-28.5	15.6	0.00e+00	0	43	102	1048576	17	3725
2026-01-05 10:58:04.55	186.96	24.84	-28.2	-28.4	15.6	0.00e+00	0	43	102	1048576	17	3712
2026-01-05 10:58:05.56	187.07	24.99	-28.3	-28.7	15.5	0.00e+00	0	43	102	1048576	17	3786
2026-01-05 10:58:06.57	187.18	25.14	-28.2	-28.4	15.7	0.00e+00	0	43	102	1048576	17	3706
2026-01-05 10:58:07.57	187.29	25.29	-28.2	-28.6	15.5	0.00e+00	0	43	102	1048576	17	3769
2026-01-05 10:58:08.58	187.40	25.45	-28.4	-28.9	15.4	0.00e+00	0	43	102	1048576	17	3832
2026-01-05 10:58:09.59	187.51	25.60	-28.2	-28.5	15.6	7.00e-07	0	43	102	1048576	17	3721
2026-01-05 10:58:10.60	187.62	25.75	-28.5	-29.3	15.2	0.00e+00	0	43	102	1048576	17	3933
2026-01-05 10:58:11.60	187.73	25.91	-28.3	-28.8	15.5	0.00e+00	0	43	102	1048576	17	3795
2026-01-05 10:58:12.61	187.84	26.06	-28.2	-28.6	15.5	2.20e-06	0	43	102	1048576	17	3767
2026-01-05 10:58:13.62	187.96	26.22	-28.2	-28.4	15.6	0.00e+00	0	43	102	1048576	17	3714
2026-01-05 10:58:14.63	188.08	26.38	-28.0	-28.0	15.9	0.00e+00	0	43	102	1048576	17	3598
2026-01-05 10:58:15.63	188.19	26.53	-27.9	-27.9	16.0	0.00e+00	0	43	102	1048576	17	3582
2026-01-05 10:58:16.64	188.31	26.69	-27.9	-27.9	16.0	0.00e+00	0	43	102	1048576	17	3579
2026-01-05 10:58:17.65	188.43	26.85	-27.9	-27.7	16.1	0.00e+00	0	43	102	1048576	17	3537
2026-01-05 10:58:18.66	188.55	27.01	-27.7	-27.8	16.3	0.00e+00	0	43	102	1048576	16	3649
2026-01-05 10:58:19.67	188.67	27.17	-27.8	-28.1	16.1	0.00e+00	0	43	102	1048576	16	3731
2026-01-05 10:58:20.67	188.79	27.34	-27.8	-28.1	16.2	0.00e+00	0	43	102	1048576	16	3711
2026-01-05 10:58:21.68	188.92	27.50	-27.8	-27.9	16.3	0.00e+00	0	43	102	1048576	16	3669
2026-01-05 10:58:22.69	189.04	27.66	-28.2	-29.0	15.7	0.00e+00	0	43	102	1048576	16	3948
2026-01-05 10:58:23.70	189.17	27.83	-28.0	-28.4	16.0	0.00e+00	0	43	102	1048576	16	3789
2026-01-05 10:58:24.70	189.30	27.99	-28.0	-28.5	16.0	0.00e+00	0	43	102	1048576	16	3824
2026-01-05 10:58:25.71	189.43	28.16	-27.9	-28.4	16.1	0.00e+00	0	43	102	1048576	16	3789
2026-01-05 10:58:26.71	189.56	28.32	-28.4	-29.4	15.4	0.00e+00	0	43	102	1048576	16	4056
2026-01-05 10:58:27.72	189.69	28.49	-28.2	-28.9	15.7	0.00e+00	0	43	102	1048576	16	3925
2026-01-05 10:58:28.73	189.82	28.66	-28.4	-29.5	15.5	0.00e+00	0	43	102	1048576	16	4075
2026-01-05 10:58:29.74	189.96	28.83	-28.7	-29.7	15.0	0.00e+00	0	43	102	1048576	17	4051
2026-01-05 10:58:30.75	190.09	29.00	-28.7	-29.8	14.9	0.00e+00	0	43	102	1048576	17	4074
2026-01-05 10:58:31.75	190.23	29.17	-29.0	-30.4	14.6	7.00e-07	0	43	102	1048576	17	4239
2026-01-05 10:58:32.76	190.37	29.34	-29.1	-30.3	14.4	7.00e-07	0	43	102	1048576	18	4103
2026-01-05 10:58:33.77	190.51	29.52	-29.5	-31.2	13.8	2.20e-06	0	43	102	1048576	18	4378
2026-01-05 10:58:34.77	190.65	29.69	-29.4	-30.5	13.9	2.20e-06	0	43	102	1048576	19	4087
2026-01-05 10:58:35.78	190.79	29.86	-29.4	-30.4	14.0	3.00e-06	0	43	102	1048576	19	4064
2026-01-05 10:58:36.79	190.94	30.04	-29.6	-31.0	13.6	8.30e-06	0	43	102	1048576	19	4242
2026-01-05 10:58:37.79	191.08	30.21	-29.6	-31.1	13.6	4.50e-06	0	43	102	1048576	19	4265
2026-01-05 10:58:38.79	191.23	30.39	-29.9	-32.0	13.0	2.13e-05	0	43	102	1048576	19	4555
2026-01-05 10:58:39.80	191.38	30.57	-29.8	-31.1	13.1	4.65e-05	0	43	102	1048576	20	4183
2026-01-05 10:58:40.80	191.53	30.75	-30.3	-32.7	12.1	1.14e-04	0	43	102	1048576	20	4709
2026-01-05 10:58:41.81	191.68	30.93	-30.5	-32.5	11.8	2.65e-04	0	43	102	1048576	21	4567
2026-01-05 10:58:42.81	191.83	31.11	-30.4	-32.3	12.0	2.83e-04	0	43	102	1048576	21	4490
2026-01-05 10:58:43.81	191.99	31.29	-30.5	-32.7	11.7	8.29e-04	0	43	102	1048576	21	4618
2026-01-05 10:58:44.82	192.15	31.47	-30.5	-32.7	11.7	6.31e-04	0	43	102	1048576	21	4631
2026-01-05 10:58:45.83	192.31	31.66	-30.5	-32.7	11.7	7.55e-04	0	43	102	1048576	21	4633
2026-01-05 10:58:46.83	192.47	31.84	-30.7	-33.3	11.4	6.77e-04	0	43	102	1048576	21	4848
2026-01-05 10:58:47.84	192.63	32.02	-30.7	-33.2	11.4	1.03e-03	0	43	102	1048576	21	4798
2026-01-05 10:58:48.85	192.79	32.21	-30.6	-32.9	11.6	1.62e-03	0	43	102	1048576	21	4685
2026-01-05 10:58:49.86	192.96	32.40	-30.7	-33.2	11.3	1.11e-03	0	43	102	1048576	21	4821
2026-01-05 10:58:50.87	193.13	32.59	-30.7	-33.3	11.3	1.13e-03	0	43	102	1048576	21	4824
2026-01-05 10:58:51.88	193.30	32.78	-30.5	-32.6	11.8	4.13e-04	0	43	102	1048576	21	4577
2026-01-05 10:58:52.88	193.47	32.97	-30.3	-32.2	12.2	2.62e-04	0	43	102	1048576	21	4431
2026-01-05 10:58:53.89	193.65	33.16	-30.3	-32.0	12.3	1.23e-04	0	43	102	1048576	21	4365
2026-01-05 10:58:54.90	193.82	33.35	-30.4	-32.2	12.1	3.26e-04	0	43	102	1048576	21	4430
2026-01-05 10:58:55.90	194.00	33.54	-30.4	-32.4	12.0	3.52e-04	0	43	102	1048576	21	4503
2026-01-05 10:58:56.91	194.18	33.74	-30.5	-32.7	11.8	2.35e-04	0	43	102	1048576	21	4608
2026-01-05 10:58:57.92	194.36	33.93	-30.6	-32.8	11.7	3.81e-04	0	43	102	1048576	21	4649
2026-01-05 10:58:58.93	194.55	34.13	-30.3	-32.1	12.3	2.91e-04	0	43	102	1048576	21	4405
2026-01-05 10:58:59.94	194.74	34.32	-30.4	-32.2	12.1	2.35e-04	0	43	102	1048576	21	4442
2026-01-05 10:59:00.95	194.92	34.52	-30.4	-32.2	12.1	2.23e-04	0	43	102	1048576	21	4444
2026-01-05 10:59:01.96	195.12	34.72	-30.5	-32.6	11.9	4.47e-04	0	43	102	1048576	21	4583
2026-01-05 10:59:02.96	195.31	34.92	-30.7	-33.1	11.5	6.66e-04	0	43	102	1048576	21	4765
2026-01-05 10:59:03.96	195.50	35.12	-30.9	-33.9	10.9	1.56e-03	0	43	102	1048576	21	5080
2026-01-05 10:59:04.97	195.70	35.32	-30.7	-32.7	11.4	2.34e-03	0	43	102	1048576	22	4519
2026-01-05 10:59:05.98	195.90	35.52	-30.7	-32.5	11.6	8.90e-04	0	43	102	1048576	22	4465
2026-01-05 10:59:06.99	196.11	35.72	-30.8	-32.9	11.4	8.62e-04	0	43	102	1048576	22	4581
2026-01-05 10:59:08.00	196.31	35.93	-30.7	-32.5	11.6	3.91e-04	0	43	102	1048576	22	4450
2026-01-05 10:59:09.00	196.52	36.13	-30.2	-31.8	12.4	4.19e-04	0	43	102	1048576	21	4300
2026-01-05 10:59:10.01	196.73	36.34	-30.2	-31.6	12.5	9.30e-05	0	43	102	1048576	21	4243
2026-01-05 10:59:11.01	196.94	36.54	-30.1	-31.4	12.7	9.23e-05	0	43	102	1048576	21	4190
2026-01-05 10:59:12.02	197.16	36.75	-29.9	-30.9	13.0	6.63e-05	0	43	102	1048576	21	4044
2026-01-05 10:59:13.03	197.38	36.96	-30.2	-31.6	12.5	8.69e-05	0	43	102	1048576	21	4229
2026-01-05 10:59:14.03	197.60	37.17	-30.0	-31.2	13.0	4.34e-05	0	43	102	1048576	21	4121
2026-01-05 10:59:15.04	197.82	37.38	-30.1	-31.4	12.7	2.51e-05	0	43	102	1048576	21	4171
2026-01-05 10:59:16.05	198.05	37.59	-30.0	-31.0	13.0	3.96e-05	0	43	102	1048576	21	4060
2026-01-05 10:59:17.05	198.28	37.80	-30.0	-31.6	12.9	2.82e-05	0	43	102	1048576	20	4336
2026-01-05 10:59:18.06	198.51	38.01	-30.1	-31.7	12.8	7.70e-05	0	43	102	1048576	20	4373
2026-01-05 10:59:19.06	198.75	38.22	-30.1	-31.7	12.9	5.34e-05	0	43	102	1048576	20	4356
2026-01-05 10:59:20.07	198.99	38.44	-30.2	-32.0	12.7	7.93e-05	0	43	102	1048576	20	4457
2026-01-05 10:59:21.08	199.23	38.65	-30.1	-31.9	12.8	7.85e-05	0	43	102	1048576	20	4406
2026-01-05 10:59:22.09	199.47	38.87	-30.2	-32.3	12.6	1.35e-04	0	43	102	1048576	20	4544
2026-01-05 10:59:23.09	199.72	39.08	-30.1	-31.8	12.9	9.91e-05	0	43	102	1048576	20	4380
2026-01-05 10:59:24.10	199.97	39.30	-30.2	-32.2	12.5	1.40e-04	0	43	102	1048576	20	4526
2026-01-05 10:59:25.10	200.23	39.52	-30.0	-31.6	12.9	9.15e-05	0	43	102	1048576	20	4334
2026-01-05 10:59:26.11	200.49	39.74	-29.8	-31.0	13.3	2.97e-05	0	43	102	1048576	20	4136
2026-01-05 10:59:27.11	200.75	39.95	-29.6	-30.5	13.6	8.30e-06	0	43	102	1048576	20	3996
2026-01-05 10:59:28.12	201.01	40.17	-29.5	-30.4	13.8	8.30e-06	0	43	102	1048576	20	3949
2026-01-05 10:59:29.13	201.28	40.40	-29.5	-30.2	13.8	3.80e-06	0	43	102	1048576	20	3915
2026-01-05 10:59:30.14	201.55	40.62	-29.7	-30.6	13.6	1.14e-05	0	43	102	1048576	20	4029
2026-01-05 10:59:31.14	201.83	40.84	-29.5	-30.2	13.8	1.50e-06	0	43	102	1048576	20	3912
2026-01-05 10:59:32.14	202.11	41.06	-29.5	-30.6	14.0	1.50e-06	0	43	102	1048576	19	4100
2026-01-05 10:59:33.15	202.39	41.28	-29.2	-29.9	14.5	7.00e-07	0	43	102	1048576	19	3907
2026-01-05 10:59:34.16	202.68	41.51	-29.1	-29.7	14.5	0.00e+00	0	43	102	1048576	19	3844
2026-01-05 10:59:35.17	202.97	41.73	-29.1	-29.6	14.6	0.00e+00	0	43	102	1048576	19	3822
2026-01-05 10:59:36.18	203.27	41.96	-28.9	-29.1	15.0	0.00e+00	0	43	102	1048576	19	3684
2026-01-05 10:59:37.19	203.57	42.18	-29.3	-30.2	14.3	7.00e-07	0	43	102	1048576	19	3980
2026-01-05 10:59:38.20	203.87	42.41	-29.7	-31.1	13.7	6.10e-06	0	43	102	1048576	19	4241
2026-01-05 10:59:39.21	204.18	42.64	-29.9	-31.7	13.3	1.22e-05	0	43	102	1048576	19	4456
2026-01-05 10:59:40.21	204.49	42.86	-30.0	-31.5	13.0	2.82e-05	0	43	102	1048576	20	4287
2026-01-05 10:59:41.21	204.81	43.09	-29.9	-31.3	13.2	1.90e-05	0	43	102	1048576	20	4217
2026-01-05 10:59:42.22	205.13	43.32	-29.6	-30.3	13.9	9.90e-06	0	43	102	1048576	20	3940
2026-01-05 10:59:43.23	205.46	43.55	-29.6	-30.4	13.8	6.80e-06	0	43	102	1048576	20	3955
2026-01-05 10:59:44.23	205.78	43.77	-29.7	-30.9	13.5	1.06e-05	0	43	102	1048576	20	4087
2026-01-05 10:59:45.25	206.12	44.01	-30.0	-31.6	13.0	1.67e-05	0	43	102	1048576	20	4322
2026-01-05 10:59:46.25	206.46	44.23	-30.4	-32.5	12.4	9.07e-05	0	43	102	1048576	20	4630
2026-01-05 10:59:47.26	206.81	44.46	-30.4	-32.5	12.4	7.32e-05	0	43	102	1048576	20	4628
2026-01-05 10:59:48.27	207.16	44.69	-30.2	-32.2	12.6	5.95e-05	0	43	102	1048576	20	4512
2026-01-05 10:59:49.28	207.51	44.92	-30.2	-32.0	12.7	7.78e-05	0	43	102	1048576	20	4451
2026-01-05 10:59:50.28	207.87	45.15	-30.2	-32.2	12.7	1.42e-04	0	43	102	1048576	20	4502
2026-01-05 10:59:51.29	208.24	45.38	-30.3	-32.2	12.6	8.54e-05	0	43	102	1048576	20	4515
2026-01-05 10:59:52.30	208.61	45.61	-30.4	-32.3	12.3	1.97e-04	0	43	102	1048576	21	4459
2026-01-05 10:59:53.31	208.98	45.84	-31.0	-33.5	11.1	1.46e-03	0	43	102	1048576	22	4788
2026-01-05 10:59:54.31	209.36	46.07	-30.8	-33.0	11.4	8.41e-04	0	44	102	1048576	22	4596
2026-01-05 10:59:55.32	209.75	46.30	-30.5	-32.0	12.2	3.36e-04	0	44	102	1048576	22	4249
2026-01-05 10:59:56.33	210.14	46.53	-30.4	-32.1	12.3	1.72e-04	0	43	102	1048576	21	4390
2026-01-05 10:59:57.33	210.54	46.76	-30.2	-31.6	12.7	9.00e-05	0	43	102	1048576	21	4227
2026-01-05 10:59:58.34	210.94	46.99	-30.3	-32.0	12.5	1.59e-04	0	43	102	1048576	21	4353
2026-01-05 10:59:59.35	211.35	47.22	-30.5	-32.5	12.1	3.12e-04	0	43	102	1048576	21	4532
2026-01-05 11:00:00.36	211.77	47.45	-31.2	-34.2	10.6	1.06e-03	0	43	102	1048576	22	5063
2026-01-05 11:00:01.36	212.19	47.68	-31.2	-34.2	10.6	2.42e-03	0	43	102	1048576	22	5074
2026-01-05 11:00:02.37	212.62	47.91	-31.6	-35.1	9.5	9.25e-03	0	44	102	1048576	23	5352
2026-01-05 11:00:03.37	213.05	48.13	-31.7	-35.2	9.5	8.99e-03	0	43	102	1048576	23	5391
2026-01-05 11:00:04.37	213.49	48.36	-31.6	-34.9	9.6	1.72e-02	0	43	102	1048576	23	5296
2026-01-05 11:00:05.37	213.93	48.58	-31.4	-34.3	10.1	1.12e-02	0	43	102	1048576	23	5029
2026-01-05 11:00:06.38	214.39	48.81	-31.3	-33.9	10.5	3.72e-03	0	43	102	1048576	23	4855
2026-01-05 11:00:07.39	214.85	49.03	-31.0	-32.8	11.3	9.29e-04	0	43	102	1048576	23	4459
2026-01-05 11:00:08.39	215.31	49.26	-31.0	-33.5	11.1	7.99e-04	0	43	102	1048576	22	4777
2026-01-05 11:00:09.39	215.78	49.48	-31.4	-34.6	10.3	3.15e-03	0	43	102	1048576	22	5246
2026-01-05 11:00:10.40	216.26	49.70	-31.4	-34.6	10.3	3.47e-03	0	44	102	1048576	22	5220
2026-01-05 11:00:11.40	216.74	49.92	-31.5	-34.7	9.9	9.28e-03	0	43	102	1048576	23	5175
2026-01-05 11:00:12.41	217.24	50.14	-31.3	-33.7	10.7	8.05e-03	0	43	102	1048576	23	4778
2026-01-05 11:00:13.42	217.74	50.36	-30.8	-32.8	11.7	9.86e-04	0	43	102	1048576	22	4530
2026-01-05 11:00:14.42	218.25	50.58	-30.4	-31.7	12.3	1.38e-04	0	43	102	1048576	22	4161
2026-01-05 11:00:15.43	218.76	50.79	-30.5	-31.9	12.3	1.56e-04	0	43	102	1048576	22	4220
2026-01-05 11:00:16.43	219.28	51.01	-30.7	-32.6	11.8	3.11e-04	0	43	102	1048576	22	4451
2026-01-05 11:00:17.44	219.82	51.22	-30.7	-32.5	11.8	4.00e-04	0	43	102	1048576	22	4426
2026-01-05 11:00:18.44	220.35	51.43	-30.6	-32.1	12.2	5.78e-04	0	43	102	1048576	22	4277
2026-01-05 11:00:19.45	220.90	51.64	-30.1	-31.2	13.0	7.47e-05	0	43	102	1048576	21	4105
2026-01-05 11:00:20.45	221.45	51.85	-29.9	-30.6	13.4	2.28e-05	0	43	102	1048576	21	3910
2026-01-05 11:00:21.46	222.01	52.05	-29.6	-30.5	13.9	2.20e-06	0	43	102	1048576	20	3967
2026-01-05 11:00:22.47	222.58	52.26	-29.6	-30.3	14.0	3.80e-06	0	43	102	1048576	20	3925
2026-01-05 11:00:23.48	223.16	52.46	-29.9	-31.1	13.4	1.29e-05	0	43	102	1048576	20	4163
2026-01-05 11:00:24.49	223.74	52.66	-29.9	-31.3	13.4	1.22e-05	0	43	102	1048576	20	4202
2026-01-05 11:00:25.50	224.34	52.86	-29.3	-29.6	14.3	1.90e-05	0	43	102	1048576	20	3737
2026-01-05 11:00:26.51	224.94	53.06	-28.8	-28.9	15.2	0.00e+00	0	43	102	1048576	19	3641
2026-01-05 11:00:27.51	225.54	53.25	-28.3	-28.2	15.9	0.00e+00	0	43	102	1048576	18	3548
2026-01-05 11:00:28.52	226.16	53.44	-28.4	-28.4	15.7	0.00e+00	0	43	102	1048576	18	3589
2026-01-05 11:00:29.53	226.78	53.63	-28.3	-28.1	15.9	0.00e+00	0	43	102	1048576	18	3531
2026-01-05 11:00:30.54	227.42	53.81	-28.0	-27.8	16.4	0.00e+00	0	43	102	1048576	17	3538
2026-01-05 11:00:31.54	228.05	53.99	-28.3	-29.1	16.0	0.00e+00	0	43	102	1048576	16	3950
2026-01-05 11:00:32.55	228.70	54.17	-28.7	-29.6	15.4	0.00e+00	0	43	102	1048576	17	3986
2026-01-05 11:00:33.56	229.36	54.35	-28.6	-29.4	15.4	0.00e+00	0	43	102	1048576	17	3951
2026-01-05 11:00:34.56	230.02	54.52	-28.5	-29.0	15.7	0.00e+00	0	43	102	1048576	17	3833
2026-01-05 11:00:35.57	230.69	54.69	-28.6	-29.4	15.5	0.00e+00	0	43	102	1048576	17	3938
2026-01-05 11:00:36.57	231.37	54.86	-29.1	-30.0	14.9	0.00e+00	0	43	102	1048576	18	4004
2026-01-05 11:00:37.58	232.06	55.02	-29.2	-30.4	14.6	7.00e-07	0	43	102	1048576	18	4120
2026-01-05 11:00:38.59	232.76	55.18	-28.6	-28.9	15.5	0.00e+00	0	44	102	1048576	18	3707
2026-01-05 11:00:39.60	233.46	55.34	-28.4	-28.2	15.9	0.00e+00	0	43	102	1048576	18	3553
2026-01-05 11:00:40.60	234.17	55.49	-29.0	-29.9	15.0	0.00e+00	0	43	102	1048576	18	3972
2026-01-05 11:00:41.61	234.89	55.64	-29.3	-30.5	14.6	7.00e-07	0	43	102	1048576	18	4162
2026-01-05 11:00:42.62	235.61	55.78	-28.5	-28.6	15.7	0.00e+00	0	43	102	1048576	18	3647
2026-01-05 11:00:43.62	236.34	55.92	-28.0	-27.9	16.4	0.00e+00	0	43	102	1048576	17	3560
2026-01-05 11:00:44.63	237.08	56.05	-28.5	-29.1	15.6	0.00e+00	0	43	102	1048576	17	3859
2026-01-05 11:00:45.64	237.83	56.19	-29.4	-30.9	14.4	7.00e-07	0	43	102	1048576	18	4257
2026-01-05 11:00:46.65	238.59	56.31	-29.9	-31.6	13.6	6.10e-06	0	43	102	1048576	19	4372
2026-01-05 11:00:47.65	239.34	56.44	-29.4	-30.2	14.4	4.50e-06	0	43	102	1048576	19	3971
2026-01-05 11:00:48.66	240.11	56.55	-29.0	-29.3	15.0	0.00e+00	0	43	102	1048576	19	3723
2026-01-05 11:00:49.67	240.89	56.67	-28.7	-29.2	15.4	0.00e+00	0	43	102	1048576	18	3785
2026-01-05 11:00:50.67	241.66	56.77	-29.3	-30.6	14.6	7.00e-07	0	44	102	1048576	18	4191
2026-01-05 11:00:51.67	242.45	56.88	-29.8	-31.5	13.7	0.00e+00	0	43	102	1048576	19	4353
2026-01-05 11:00:52.68	243.24	56.98	-29.7	-31.1	13.9	5.30e-06	0	43	102	1048576	19	4242
2026-01-05 11:00:53.69	244.04	57.07	-29.9	-31.6	13.6	3.00e-06	0	43	102	1048576	19	4385
2026-01-05 11:00:54.70	244.84	57.16	-30.4	-32.2	12.5	3.66e-05	0	43	102	1048576	21	4394
2026-01-05 11:00:55.70	245.65	57.24	-31.0	-33.8	11.4	7.06e-04	0	43	102	1048576	21	4984
2026-01-05 11:00:56.71	246.46	57.32	-30.4	-31.6	12.6	5.06e-04	0	43	102	1048576	22	4121
2026-01-05 11:00:57.71	247.27	57.39	-29.7	-30.6	13.9	2.05e-05	0	43	102	1048576	20	3994
2026-01-05 11:00:58.71	248.09	57.46	-30.0	-31.4	13.5	7.00e-07	0	43	102	1048576	20	4243
2026-01-05 11:00:59.72	248.91	57.52	-30.6	-32.6	12.3	9.53e-05	0	43	102	1048576	21	4521
2026-01-05 11:01:00.73	249.74	57.58	-30.5	-32.3	12.4	2.93e-04	0	43	102	1048576	21	4445
2026-01-05 11:01:01.73	250.57	57.63	-30.6	-32.7	12.2	2.22e-04	0	44	102	1048576	21	4559
2026-01-05 11:01:02.74	251.41	57.67	-31.0	-33.3	11.4	9.60e-04	0	43	102	1048576	22	4698
2026-01-05 11:01:03.75	252.25	57.71	-31.5	-34.9	10.3	3.59e-03	0	43	102	1048576	22	5345
2026-01-05 11:01:04.76	253.09	57.75	-30.9	-32.4	11.6	2.32e-03	0	43	102	1048576	23	4297
2026-01-05 11:01:05.76	253.92	57.77	-30.5	-31.9	12.3	3.39e-04	0	43	102	1048576	22	4212
2026-01-05 11:01:06.77	254.77	57.80	-31.0	-33.3	11.5	7.00e-04	0	43	102	1048576	22	4679
2026-01-05 11:01:07.77	255.61	57.81	-31.1	-33.7	11.2	1.38e-03	0	43	102	1048576	22	4855
2026-01-05 11:01:08.78	256.45	57.82	-30.5	-31.8	12.5	1.09e-04	0	44	102	1048576	22	4167
2026-01-05 11:01:09.79	257.30	57.83	-29.5	-30.2	14.1	5.30e-06	0	43	102	1048576	20	3878
2026-01-05 11:01:10.80	258.15	57.83	-29.7	-30.6	13.9	6.10e-06	0	43	102	1048576	20	3991
2026-01-05 11:01:11.80	258.99	57.82	-29.8	-31.0	13.6	9.90e-06	0	43	102	1048576	20	4104
2026-01-05 11:01:12.80	259.83	57.81	-30.0	-31.5	13.4	1.06e-05	0	43	102	1048576	20	4281
2026-01-05 11:01:13.81	260.67	57.79	-29.8	-30.8	13.7	1.29e-05	0	44	102	1048576	20	4062
2026-01-05 11:01:14.82	261.52	57.77	-29.5	-30.0	14.2	3.00e-06	0	43	102	1048576	20	3833
2026-01-05 11:01:15.82	262.35	57.74	-29.8	-30.9	13.7	2.20e-06	0	44	102	1048576	20	4070
2026-01-05 11:01:16.83	263.19	57.70	-29.3	-30.0	14.7	4.50e-06	0	43	102	1048576	19	3919
2026-01-05 11:01:17.84	264.03	57.66	-28.4	-28.2	16.0	0.00e+00	0	43	102	1048576	18	3544
2026-01-05 11:01:18.85	264.86	57.62	-27.8	-27.8	16.8	0.00e+00	0	43	102	1048576	16	3629
2026-01-05 11:01:19.85	265.69	57.56	-28.4	-29.4	15.9	3.80e-06	0	43	102	1048576	16	4019
2026-01-05 11:01:20.86	266.52	57.51	-28.8	-29.9	15.3	0.00e+00	0	43	102	1048576	17	4063
2026-01-05 11:01:21.87	267.34	57.44	-29.3	-30.7	14.5	0.00e+00	0	43	102	1048576	18	4202
2026-01-05 11:01:22.87	268.16	57.38	-29.1	-30.1	14.9	4.50e-06	0	44	102	1048576	18	4019
2026-01-05 11:01:23.87	268.97	57.30	-28.6	-28.8	15.6	0.00e+00	0	43	102	1048576	18	3689
2026-01-05 11:01:24.88	269.78	57.22	-28.7	-29.1	15.5	0.00e+00	0	44	102	1048576	18	3755
2026-01-05 11:01:25.89	270.59	57.14	-28.9	-29.5	15.2	0.00e+00	0	43	102	1048576	18	3867
2026-01-05 11:01:26.89	271.38	57.05	-29.5	-30.6	14.2	0.00e+00	0	43	102	1048576	19	4081
2026-01-05 11:01:27.90	272.18	56.95	-29.7	-31.2	14.0	3.80e-06	0	43	102	1048576	19	4258
2026-01-05 11:01:28.91	272.97	56.85	-29.0	-29.2	15.1	0.00e+00	0	43	102	1048576	19	3699
2026-01-05 11:01:29.92	273.76	56.75	-28.7	-28.9	15.6	0.00e+00	0	43	102	1048576	18	3719
2026-01-05 11:01:30.92	274.53	56.64	-29.2	-30.3	14.8	0.00e+00	0	43	102	1048576	18	4093
2026-01-05 11:01:31.93	275.30	56.53	-29.6	-31.0	14.1	7.00e-07	0	44	102	1048576	19	4203
2026-01-05 11:01:32.94	276.07	56.41	-29.7	-31.2	14.0	7.00e-07	0	44	102	1048576	19	4269
2026-01-05 11:01:33.95	276.83	56.28	-29.6	-30.8	14.1	6.80e-06	0	43	102	1048576	19	4145
2026-01-05 11:01:34.96	277.58	56.15	-29.9	-31.7	13.6	7.60e-06	0	43	102	1048576	19	4419
2026-01-05 11:01:35.97	278.33	56.02	-29.4	-30.3	14.4	3.00e-06	0	43	102	1048576	19	3995
2026-01-05 11:01:36.97	279.06	55.89	-28.7	-29.2	15.5	0.00e+00	0	43	102	1048576	18	3781
2026-01-05 11:01:37.98	279.80	55.75	-28.3	-28.6	16.0	2.20e-06	0	44	102	1048576	17	3724
2026-01-05 11:01:38.99	280.52	55.60	-28.4	-28.9	15.9	0.00e+00	0	43	102	1048576	17	3797
2026-01-05 11:01:40.00	281.24	55.45	-28.5	-29.1	15.8	0.00e+00	0	43	102	1048576	17	3848
2026-01-05 11:01:41.00	281.94	55.30	-29.1	-30.2	14.8	0.00e+00	0	43	102	1048576	18	4046
2026-01-05 11:01:42.01	282.64	55.14	-28.8	-29.3	15.3	0.00e+00	0	44	102	1048576	18	3806
2026-01-05 11:01:43.01	283.33	54.98	-28.8	-29.2	15.4	7.00e-07	0	43	102	1048576	18	3791
2026-01-05 11:01:44.02	284.02	54.82	-28.4	-28.4	15.9	0.00e+00	0	43	102	1048576	18	3599
2026-01-05 11:01:45.03	284.69	54.65	-28.3	-28.7	15.9	0.00e+00	0	43	102	1048576	17	3757
2026-01-05 11:01:46.04	285.36	54.48	-28.5	-29.1	15.7	0.00e+00	0	44	102	1048576	17	3859
2026-01-05 11:01:47.04	286.02	54.31	-28.7	-29.6	15.5	0.00e+00	0	43	102	1048576	17	3998
2026-01-05 11:01:48.05	286.68	54.13	-29.2	-30.2	14.8	0.00e+00	0	43	102	1048576	18	4064
2026-01-05 11:01:49.05	287.32	53.95	-29.4	-30.3	14.4	1.50e-06	0	43	102	1048576	19	3981
2026-01-05 11:01:50.07	287.96	53.77	-28.7	-29.1	15.4	0.00e+00	0	43	102	1048576	18	3770
2026-01-05 11:01:51.07	288.58	53.59	-28.8	-29.3	15.3	0.00e+00	0	43	102	1048576	18	3819
2026-01-05 11:01:52.08	289.21	53.40	-29.0	-29.9	15.0	0.00e+00	0	43	102	1048576	18	3977
2026-01-05 11:01:53.08	289.82	53.21	-29.2	-30.3	14.8	0.00e+00	0	44	102	1048576	18	4080
2026-01-05 11:01:54.08	290.42	53.02	-28.5	-28.6	15.7	1.50e-06	0	43	102	1048576	18	3646
2026-01-05 11:01:55.08	291.01	52.82	-28.7	-29.2	15.5	0.00e+00	0	43	102	1048576	18	3781
2026-01-05 11:01:56.10	291.61	52.62	-29.3	-30.6	14.6	0.00e+00	0	43	102	1048576	18	4163
2026-01-05 11:01:57.10	292.18	52.42	-30.1	-31.6	13.2	3.80e-06	0	43	102	1048576	20	4288
2026-01-05 11:01:58.10	292.75	52.22	-30.7	-33.0	12.1	6.17e-05	0	44	102	1048576	21	4692
2026-01-05 11:01:59.11	293.32	52.02	-31.5	-34.4	10.2	3.28e-03	0	43	102	1048576	23	5025
2026-01-05 11:02:00.12	293.88	51.81	-31.4	-34.2	10.5	4.26e-03	0	43	102	1048576	23	4956
2026-01-05 11:02:01.12	294.43	51.61	-31.1	-33.2	11.1	2.79e-03	0	44	102	1048576	23	4555
2026-01-05 11:02:02.13	294.97	51.40	-30.4	-31.4	12.7	1.01e-04	0	43	102	1048576	22	4054
2026-01-05 11:02:03.13	295.50	51.19	-30.6	-32.0	12.4	8.23e-05	0	43	102	1048576	22	4228
2026-01-05 11:02:04.14	296.03	50.97	-31.3	-34.1	10.8	8.77e-04	0	44	102	1048576	22	4986
2026-01-05 11:02:05.15	296.55	50.76	-31.6	-34.9	9.8	1.02e-02	0	43	102	1048576	23	5249
2026-01-05 11:02:06.16	297.07	50.54	-31.4	-34.0	10.5	8.20e-03	0	43	102	1048576	23	4883
2026-01-05 11:02:07.16	297.57	50.33	-31.3	-33.8	10.7	1.98e-03	0	43	102	1048576	23	4806
2026-01-05 11:02:08.17	298.07	50.11	-32.0	-35.7	8.9	2.05e-02	0	43	102	1048576	24	5513
2026-01-05 11:02:09.18	298.56	49.89	-32.2	-36.7	7.9	7.96e-02	0	43	102	1048576	24	6063
2026-01-05 11:02:10.19	299.05	49.67	-31.6	-34.2	10.0	2.14e-02	0	43	102	1048576	24	4863
2026-01-05 11:02:11.20	299.53	49.44	-30.3	-31.3	12.8	3.07e-03	0	44	102	1048576	22	4044
2026-01-05 11:02:12.21	300.00	49.22	-29.6	-30.3	14.0	2.20e-06	0	43	102	1048576	20	3909
2026-01-05 11:02:13.21	300.46	49.00	-29.9	-31.1	13.5	3.00e-06	0	44	102	1048576	20	4155
2026-01-05 11:02:14.22	300.92	48.78	-30.2	-32.0	12.9	1.37e-05	0	43	102	1048576	20	4431
2026-01-05 11:02:15.23	301.37	48.55	-30.9	-33.5	11.6	4.97e-04	0	44	102	1048576	21	4856
2026-01-05 11:02:16.24	301.82	48.32	-31.5	-34.9	10.2	2.57e-03	0	44	102	1048576	22	5338
2026-01-05 11:02:17.24	302.25	48.10	-31.5	-34.4	10.2	1.25e-02	0	43	102	1048576	23	5042
2026-01-05 11:02:18.25	302.68	47.87	-30.7	-32.5	11.8	7.26e-04	0	44	102	1048576	22	4423
2026-01-05 11:02:19.26	303.11	47.64	-29.5	-30.1	14.1	2.13e-05	0	44	102	1048576	20	3860
2026-01-05 11:02:20.26	303.53	47.42	-28.7	-29.1	15.4	0.00e+00	0	44	102	1048576	18	3774
2026-01-05 11:02:21.27	303.94	47.19	-29.2	-30.3	14.7	0.00e+00	0	43	102	1048576	18	4079
2026-01-05 11:02:22.28	304.35	46.96	-29.9	-31.8	13.5	3.80e-06	0	44	102	1048576	19	4439
2026-01-05 11:02:23.28	304.75	46.73	-29.9	-31.1	13.5	1.67e-05	0	43	102	1048576	20	4151
2026-01-05 11:02:24.29	305.14	46.51	-29.1	-29.7	14.8	1.50e-06	0	44	102	1048576	19	3819
2026-01-05 11:02:25.29	305.53	46.28	-29.3	-30.0	14.6	0.00e+00	0	43	102	1048576	19	3912
2026-01-05 11:02:26.31	305.92	46.05	-29.7	-31.0	14.0	7.00e-07	0	44	102	1048576	19	4210
2026-01-05 11:02:27.31	306.30	45.82	-30.9	-33.4	11.6	1.59e-04	0	43	102	1048576	21	4839
2026-01-05 11:02:28.32	306.67	45.59	-30.9	-33.6	11.5	6.69e-04	0	43	102	1048576	21	4887
2026-01-05 11:02:29.32	307.04	45.36	-31.1	-33.7	11.0	1.11e-03	0	43	102	1048576	22	4855
2026-01-05 11:02:30.33	307.40	45.13	-30.9	-33.1	11.4	2.08e-03	0	44	102	1048576	22	4633
2026-01-05 11:02:31.33	307.76	44.90	-30.8	-32.7	11.8	9.74e-04	0	44	102	1048576	22	4469
2026-01-05 11:02:32.33	308.11	44.68	-30.9	-33.2	11.5	6.12e-04	0	43	102	1048576	22	4646
2026-01-05 11:02:33.34	308.46	44.45	-31.6	-34.7	9.9	2.63e-03	0	44	102	1048576	23	5176
2026-01-05 11:02:34.34	308.80	44.22	-31.8	-35.5	9.3	1.10e-02	0	43	102	1048576	23	5544
2026-01-05 11:02:35.35	309.14	43.99	-31.9	-35.9	9.1	2.13e-02	0	43	102	1048576	23	5728
2026-01-05 11:02:36.35	309.47	43.77	-32.0	-35.9	8.6	4.78e-02	0	44	102	1048576	24	5619
2026-01-05 11:02:37.36	309.80	43.54	-31.8	-35.1	9.2	2.63e-02	0	43	102	1048576	24	5270
2026-01-05 11:02:38.36	310.12	43.31	-32.2	-36.7	8.0	4.46e-02	0	43	102	1048576	24	6056
2026-01-05 11:02:39.37	310.44	43.09	-32.3	-37.2	7.6	9.23e-02	0	44	102	1048576	24	6301
2026-01-05 11:02:40.37	310.75	42.86	-32.6	-38.2	6.5	1.04e-01	0	44	102	1048576	25	6868
2026-01-05 11:02:41.38	311.06	42.63	-32.4	-37.2	7.3	2.05e-01	0	43	102	1048576	25	6238
2026-01-05 11:02:42.39	311.37	42.41	-32.4	-37.2	7.2	1.24e-01	0	44	102	1048576	25	6284
2026-01-05 11:02:43.40	311.67	42.18	-32.8	-39.5	5.7	2.17e-01	0	43	102	1048576	25	7765
2026-01-05 11:02:44.40	311.97	41.96	-32.8	-39.8	5.5	4.37e-01	0	43	102	1048576	25	7977
2026-01-05 11:02:45.41	312.27	41.74	-32.7	-39.1	6.0	3.77e-01	0	43	102	1048576	25	7462
2026-01-05 11:02:46.42	312.56	41.51	-32.8	-39.3	5.7	3.77e-01	0	44	102	1048576	25	7610
2026-01-05 11:02:47.42	312.84	41.29	-32.6	-38.2	6.5	3.06e-01	0	43	102	1048576	25	6858
2026-01-05 11:02:48.43	313.13	41.07	-32.2	-36.4	7.9	9.99e-02	0	44	102	1048576	25	5788
2026-01-05 11:02:49.44	313.40	40.85	-32.3	-36.7	7.6	6.94e-02	0	43	102	1048576	25	5975
2026-01-05 11:02:50.45	313.68	40.62	-32.3	-36.7	7.7	1.24e-01	0	43	102	1048576	25	5964
2026-01-05 11:02:51.45	313.95	40.41	-32.5	-37.5	7.1	9.79e-02	0	44	102	1048576	25	6419
2026-01-05 11:02:52.46	314.22	40.19	-32.5	-37.7	6.9	1.99e-01	0	44	102	1048576	25	6572
2026-01-05 11:02:53.46	314.48	39.97	-32.3	-36.6	7.6	8.22e-02	0	44	102	1048576	25	5903
2026-01-05 11:02:54.47	314.74	39.75	-32.3	-36.7	7.6	7.49e-02	0	44	102	1048576	25	5963
2026-01-05 11:02:55.47	315.00	39.53	-32.4	-37.1	7.3	1.23e-01	0	44	102	1048576	25	6204
2026-01-05 11:02:56.48	315.25	39.32	-32.0	-35.6	8.4	1.15e-01	0	43	102	1048576	25	5413
2026-01-05 11:02:57.49	315.50	39.10	-31.4	-33.7	10.2	3.90e-02	0	44	102	1048576	24	4697
2026-01-05 11:02:58.50	315.75	38.88	-30.7	-32.5	11.8	6.86e-04	0	44	102	1048576	22	4417
2026-01-05 11:02:59.50	315.99	38.67	-30.6	-32.2	12.0	1.72e-04	0	43	102	1048576	22	4319
2026-01-05 11:03:00.50	316.23	38.46	-30.8	-32.8	11.6	2.38e-04	0	43	102	1048576	22	4529
2026-01-05 11:03:01.51	316.47	38.25	-31.7	-35.3	9.5	7.93e-03	0	43	102	1048576	23	5458
2026-01-05 11:03:02.51	316.71	38.04	-32.1	-36.6	8.0	4.85e-02	0	44	102	1048576	24	6022
2026-01-05 11:03:03.52	316.94	37.82	-31.8	-35.3	8.9	5.79e-02	0	43	102	1048576	24	5393
2026-01-05 11:03:04.52	317.17	37.62	-30.8	-32.4	11.4	7.73e-03	0	44	102	1048576	23	4323
2026-01-05 11:03:05.53	317.39	37.41	-29.9	-30.8	13.3	5.18e-05	0	44	102	1048576	21	3992
2026-01-05 11:03:06.54	317.62	37.20	-29.4	-29.8	14.3	7.00e-07	0	44	102	1048576	20	3772
2026-01-05 11:03:07.55	317.84	36.99	-29.5	-30.2	14.0	7.00e-07	0	43	102	1048576	20	3893
2026-01-05 11:03:08.56	318.06	36.78	-29.8	-31.0	13.5	1.29e-05	0	43	102	1048576	20	4139
2026-01-05 11:03:09.56	318.27	36.58	-30.4	-32.7	12.4	5.49e-05	0	44	102	1048576	20	4695
2026-01-05 11:03:10.57	318.48	36.37	-31.0	-33.6	11.0	7.61e-04	0	43	102	1048576	22	4817
2026-01-05 11:03:11.58	318.69	36.17	-31.1	-33.9	10.5	2.61e-03	0	44	102	1048576	22	4934
2026-01-05 11:03:12.58	318.90	35.96	-30.9	-33.1	11.4	1.26e-03	0	44	102	1048576	22	4637
2026-01-05 11:03:13.59	319.11	35.76	-30.2	-31.4	12.9	2.72e-04	0	43	102	1048576	21	4166
2026-01-05 11:03:14.59	319.31	35.56	-29.6	-30.4	13.8	1.75e-05	0	43	102	1048576	20	3964
2026-01-05 11:03:15.60	319.51	35.36	-29.2	-29.7	14.7	0.00e+00	0	44	102	1048576	19	3843
2026-01-05 11:03:16.60	319.70	35.16	-29.2	-30.0	14.5	0.00e+00	0	43	102	1048576	19	3910
2026-01-05 11:03:17.61	319.90	34.96	-29.3	-30.0	14.5	0.00e+00	0	43	102	1048576	19	3919
2026-01-05 11:03:18.61	320.09	34.76	-29.5	-30.7	13.9	1.50e-06	0	43	102	1048576	19	4118
2026-01-05 11:03:19.62	320.28	34.57	-30.1	-31.8	12.9	1.60e-05	0	43	102	1048576	20	4394
2026-01-05 11:03:20.63	320.47	34.37	-30.8	-33.5	11.4	2.13e-04	0	44	102	1048576	21	4900
2026-01-05 11:03:21.63	320.66	34.18	-31.3	-34.5	10.3	3.50e-03	0	43	102	1048576	22	5208
2026-01-05 11:03:22.63	320.84	33.98	-31.6	-35.2	9.4	1.12e-02	0	44	102	1048576	23	5425
2026-01-05 11:03:23.64	321.02	33.79	-31.6	-34.9	9.5	1.65e-02	0	43	102	1048576	23	5273
2026-01-05 11:03:24.65	321.20	33.60	-31.3	-33.8	10.4	8.56e-03	0	43	102	1048576	23	4833
2026-01-05 11:03:25.66	321.38	33.40	-30.5	-32.0	12.0	1.02e-03	0	43	102	1048576	22	4273
2026-01-05 11:03:26.67	321.56	33.21	-29.6	-30.5	13.7	6.02e-05	0	43	102	1048576	20	3986
2026-01-05 11:03:27.67	321.73	33.02	-29.3	-30.1	14.4	1.50e-06	0	43	102	1048576	19	3949
2026-01-05 11:03:28.68	321.90	32.83	-29.2	-29.8	14.6	0.00e+00	0	44	102	1048576	19	3864
2026-01-05 11:03:29.69	322.07	32.65	-29.0	-29.3	14.9	0.00e+00	0	44	102	1048576	19	3726
2026-01-05 11:03:30.70	322.24	32.46	-29.5	-30.7	14.0	7.00e-07	0	43	102	1048576	19	4134
2026-01-05 11:03:31.71	322.41	32.27	-29.9	-31.7	13.4	1.14e-05	0	44	102	1048576	19	4441
2026-01-05 11:03:32.72	322.57	32.09	-30.4	-32.7	12.2	8.85e-05	0	44	102	1048576	20	4706
2026-01-05 11:03:33.72	322.73	31.90	-31.0	-33.6	11.0	1.08e-03	0	44	102	1048576	22	4834
2026-01-05 11:03:34.73	322.89	31.72	-31.1	-33.8	10.8	2.75e-03	0	44	102	1048576	22	4925
2026-01-05 11:03:35.74	323.05	31.54	-31.0	-33.4	11.0	2.19e-03	0	44	102	1048576	22	4766
2026-01-05 11:03:36.74	323.21	31.36	-30.7	-32.5	11.8	1.19e-03	0	43	102	1048576	22	4430
2026-01-05 11:03:37.75	323.37	31.17	-30.6	-32.3	11.9	5.85e-04	0	44	102	1048576	22	4370
2026-01-05 11:03:38.76	323.52	30.99	-30.4	-31.8	12.3	1.74e-04	0	44	102	1048576	22	4200
2026-01-05 11:03:39.76	323.67	30.82	-30.3	-32.0	12.3	1.24e-04	0	43	102	1048576	21	4369
2026-01-05 11:03:40.77	323.82	30.64	-30.2	-31.6	12.6	2.69e-04	0	43	102	1048576	21	4244
2026-01-05 11:03:41.78	323.97	30.46	-29.9	-30.9	13.2	2.21e-05	0	44	102	1048576	21	4012
2026-01-05 11:03:42.79	324.12	30.28	-30.6	-32.7	11.9	1.51e-04	0	43	102	1048576	21	4609
2026-01-05 11:03:43.79	324.26	30.11	-30.8	-33.2	11.5	7.85e-04	0	43	102	1048576	21	4799
2026-01-05 11:03:44.79	324.41	29.94	-31.3	-34.7	10.2	3.44e-03	0	43	102	1048576	22	5277
2026-01-05 11:03:45.80	324.55	29.76	-31.5	-34.8	9.8	1.10e-02	0	43	102	1048576	23	5260
2026-01-05 11:03:46.81	324.69	29.59	-31.4	-34.4	9.9	1.21e-02	0	44	102	1048576	23	5081
2026-01-05 11:03:47.82	324.83	29.42	-31.1	-33.3	10.8	5.66e-03	0	44	102	1048576	23	4648
2026-01-05 11:03:48.82	324.97	29.25	-30.5	-31.9	12.0	8.36e-04	0	43	102	1048576	22	4258
2026-01-05 11:03:49.83	325.11	29.08	-30.2	-31.8	12.5	1.60e-04	0	44	102	1048576	21	4291
2026-01-05 11:03:50.83	325.24	28.91	-29.5	-30.3	13.8	4.11e-05	0	43	102	1048576	20	3933
2026-01-05 11:03:51.83	325.38	28.74	-29.5	-30.2	13.8	2.20e-06	0	44	102	1048576	20	3923
2026-01-05 11:03:52.84	325.51	28.57	-29.6	-30.4	13.8	8.30e-06	0	43	102	1048576	20	3970
2026-01-05 11:03:53.85	325.64	28.41	-29.4	-30.4	14.1	3.00e-06	0	43	102	1048576	19	4056
2026-01-05 11:03:54.86	325.77	28.24	-29.5	-30.8	13.9	4.50e-06	0	44	102	1048576	19	4156
2026-01-05 11:03:55.86	325.90	28.08	-29.1	-29.8	14.5	3.00e-06	0	43	102	1048576	19	3874
2026-01-05 11:03:56.87	326.03	27.91	-29.3	-30.1	14.3	7.00e-07	0	43	102	1048576	19	3971
2026-01-05 11:03:57.88	326.16	27.75	-29.3	-30.2	14.2	3.00e-06	0	43	102	1048576	19	3996
2026-01-05 11:03:58.88	326.28	27.59	-29.3	-30.1	14.3	0.00e+00	0	43	102	1048576	19	3949
2026-01-05 11:03:59.89	326.40	27.42	-29.6	-31.0	13.7	2.20e-06	0	43	102	1048576	19	4226
2026-01-05 11:04:00.89	326.53	27.26	-29.5	-30.7	13.9	1.29e-05	0	44	102	1048576	19	4143
2026-01-05 11:04:01.90	326.65	27.10	-29.8	-31.4	13.5	8.30e-06	0	43	102	1048576	19	4345
2026-01-05 11:04:02.91	326.77	26.94	-30.0	-32.0	13.0	1.60e-05	0	43	102	1048576	19	4531
2026-01-05 11:04:03.92	326.89	26.78	-30.0	-31.7	12.9	1.90e-05	0	44	102	1048576	20	4351
2026-01-05 11:04:04.93	327.01	26.63	-30.3	-32.5	12.2	1.26e-04	0	44	102	1048576	20	4645
2026-01-05 11:04:05.93	327.12	26.47	-30.1	-32.0	12.6	2.17e-04	0	44	102	1048576	20	4471
2026-01-05 11:04:06.93	327.24	26.32	-30.1	-32.0	12.6	9.46e-05	0	43	102	1048576	20	4470
2026-01-05 11:04:07.95	327.35	26.16	-30.3	-32.4	12.4	1.06e-04	0	43	102	1048576	20	4605
2026-01-05 11:04:08.95	327.47	26.01	-30.5	-33.0	12.0	2.40e-04	0	43	102	1048576	20	4807
2026-01-05 11:04:09.96	327.58	25.85	-30.6	-32.9	11.6	4.36e-04	0	43	102	1048576	21	4709
2026-01-05 11:04:10.96	327.69	25.70	-30.8	-33.4	11.2	5.07e-04	0	43	102	1048576	21	4892
2026-01-05 11:04:11.97	327.80	25.55	-30.9	-33.7	11.0	1.62e-03	0	43	102	1048576	21	5009
2026-01-05 11:04:12.97	327.91	25.40	-30.8	-33.6	11.1	2.37e-03	0	43	102	1048576	21	4973
2026-01-05 11:04:13.98	328.02	25.25	-30.9	-33.9	10.9	1.88e-03	0	44	102	1048576	21	5095
2026-01-05 11:04:14.98	328.13	25.10	-31.3	-34.8	9.9	7.03e-03	0	43	102	1048576	22	5367
2026-01-05 11:04:15.99	328.23	24.95	-30.9	-33.4	10.9	4.54e-03	0	43	102	1048576	22	4805
2026-01-05 11:04:17.00	328.34	24.80	-30.7	-32.7	11.5	1.34e-03	0	44	102	1048576	22	4528
2026-01-05 11:04:18.00	328.44	24.65	-30.4	-31.8	12.1	4.67e-04	0	44	102	1048576	22	4220
2026-01-05 11:04:19.01	328.55	24.50	-29.9	-30.7	12.9	6.25e-05	0	43	102	1048576	21	3988
2026-01-05 11:04:20.01	328.65	24.36	-29.7	-30.9	13.3	2.36e-05	0	44	102	1048576	20	4122
2026-01-05 11:04:21.02	328.75	24.21	-29.5	-30.2	13.7	1.06e-05	0	44	102	1048576	20	3924
2026-01-05 11:04:22.03	328.85	24.07	-29.4	-30.6	13.9	2.20e-06	0	44	102	1048576	19	4107
2026-01-05 11:04:23.04	328.95	23.92	-29.5	-30.8	13.7	2.20e-06	0	43	102	1048576	19	4172
2026-01-05 11:04:24.05	329.05	23.78	-29.1	-29.7	14.4	9.10e-06	0	43	102	1048576	19	3871
2026-01-05 11:04:25.06	329.15	23.64	-29.2	-30.1	14.2	2.20e-06	0	43	102	1048576	19	3964
2026-01-05 11:04:26.06	329.25	23.50	-29.4	-30.5	13.9	1.50e-06	0	43	102	1048576	19	4104
2026-01-05 11:04:27.07	329.35	23.35	-29.6	-31.2	13.5	8.30e-06	0	43	102	1048576	19	4289
2026-01-05 11:04:28.08	329.44	23.21	-29.9	-32.0	12.9	2.51e-05	0	43	102	1048576	19	4557
2026-01-05 11:04:29.09	329.54	23.07	-30.1	-31.9	12.6	6.33e-05	0	43	102	1048576	20	4452
2026-01-05 11:04:30.09	329.63	22.94	-30.3	-32.5	12.1	7.32e-05	0	44	102	1048576	20	4672
2026-01-05 11:04:31.10	329.73	22.80	-30.3	-32.5	12.1	2.21e-04	0	43	102	1048576	20	4668
2026-01-05 11:04:32.11	329.82	22.66	-30.3	-32.6	12.2	3.46e-04	0	43	102	1048576	20	4677
2026-01-05 11:04:33.11	329.91	22.52	-30.3	-32.7	12.0	3.33e-04	0	44	102	1048576	20	4715
2026-01-05 11:04:34.12	330.00	22.39	-30.3	-32.5	12.1	3.23e-04	0	43	102	1048576	20	4665
2026-01-05 11:04:35.12	330.09	22.25	-30.2	-32.5	12.1	2.72e-04	0	44	102	1048576	20	4660
2026-01-05 11:04:36.13	330.18	22.12	-29.9	-31.6	12.8	1.11e-04	0	43	102	1048576	20	4359
2026-01-05 11:04:37.14	330.27	21.98	-29.8	-31.1	13.1	4.42e-05	0	43	102	1048576	20	4211
2026-01-05 11:04:38.15	330.36	21.85	-29.5	-30.6	13.2	2.44e-05	0	43	102	1048576	20	4111
2026-01-05 11:04:39.15	330.45	21.71	-29.4	-30.6	13.1	2.36e-05	0	43	102	1048576	20	4137
2026-01-05 11:04:40.16	330.53	21.58	-29.7	-31.2	12.9	5.72e-05	0	44	102	1048576	20	4275
2026-01-05 11:04:41.17	330.62	21.45	-29.5	-30.4	13.4	2.74e-05	0	43	102	1048576	20	4012
2026-01-05 11:04:42.17	330.70	21.32	-29.6	-30.6	13.4	1.60e-05	0	44	102	1048576	20	4061
2026-01-05 11:04:43.17	330.79	21.19	-29.5	-30.5	13.4	1.44e-05	0	44	102	1048576	20	4014
2026-01-05 11:04:44.18	330.87	21.06	-29.5	-30.5	13.4	8.30e-06	0	43	102	1048576	20	4019
2026-01-05 11:04:45.19	330.96	20.93	-29.8	-31.1	13.0	4.42e-05	0	44	102	1048576	20	4177
2026-01-05 11:04:46.20	331.04	20.80	-29.4	-30.2	13.6	9.10e-06	0	44	102	1048576	20	3935
2026-01-05 11:04:47.20	331.12	20.67	-29.4	-30.4	13.9	8.30e-06	0	44	102	1048576	19	4078
2026-01-05 11:04:48.21	331.20	20.54	-29.3	-30.2	14.0	2.20e-06	0	44	102	1048576	19	4006
2026-01-05 11:04:49.21	331.28	20.42	-29.1	-29.9	14.2	4.50e-06	0	44	102	1048576	19	3913
2026-01-05 11:04:50.22	331.36	20.29	-29.2	-30.0	14.1	3.00e-06	0	43	102	1048576	19	3965
2026-01-05 11:04:51.23	331.44	20.17	-29.2	-30.1	14.0	2.20e-06	0	44	102	1048576	19	3975
2026-01-05 11:04:52.24	331.52	20.04	-29.0	-29.6	14.3	2.20e-06	0	43	102	1048576	19	3852
2026-01-05 11:04:53.25	331.60	19.91	-29.0	-29.6	14.3	3.00e-06	0	44	102	1048576	19	3847
2026-01-05 11:04:54.25	331.68	19.79	-28.8	-29.1	14.6	0.00e+00	0	43	102	1048576	19	3719
2026-01-05 11:04:55.26	331.76	19.67	-28.8	-29.6	14.6	0.00e+00	0	44	102	1048576	18	3928
2026-01-05 11:04:56.27	331.83	19.54	-28.9	-29.9	14.4	0.00e+00	0	44	102	1048576	18	4021
2026-01-05 11:04:57.28	331.91	19.42	-28.9	-29.8	14.5	0.00e+00	0	44	102	1048576	18	3996
2026-01-05 11:04:58.28	331.98	19.30	-28.9	-29.8	14.5	0.00e+00	0	43	102	1048576	18	3993
2026-01-05 11:04:59.29	332.06	19.18	-29.0	-30.1	14.3	3.00e-06	0	44	102	1048576	18	4078
2026-01-05 11:05:00.29	332.13	19.06	-29.1	-30.3	14.1	7.00e-07	0	44	102	1048576	18	4147
2026-01-05 11:05:01.30	332.21	18.94	-29.1	-30.2	14.2	0.00e+00	0	44	102	1048576	18	4121
2026-01-05 11:05:02.31	332.28	18.82	-29.0	-30.1	14.3	0.00e+00	0	44	102	1048576	18	4080
2026-01-05 11:05:03.32	332.35	18.70	-29.1	-30.4	14.1	7.00e-07	0	44	102	1048576	18	4165
2026-01-05 11:05:04.31	332.42	18.58	-29.2	-30.7	13.9	3.80e-06	0	43	102	1048576	18	4255
2026-01-05 11:05:05.32	332.50	18.46	-29.2	-30.6	14.0	1.50e-06	0	44	102	1048576	18	4218
2026-01-05 11:05:06.32	332.57	18.35	-29.3	-30.7	13.9	3.00e-06	0	44	102	1048576	18	4257
2026-01-05 11:05:07.33	332.64	18.23	-29.4	-31.2	13.6	9.10e-06	0	44	102	1048576	18	4406
2026-01-05 11:05:08.34	332.71	18.11	-29.4	-31.1	13.6	8.30e-06	0	44	102	1048576	18	4398
2026-01-05 11:05:09.35	332.78	18.00	-29.5	-30.8	13.5	1.67e-05	0	44	102	1048576	19	4193
2026-01-05 11:05:10.35	332.85	17.88	-29.6	-31.2	13.2	1.60e-05	0	43	102	1048576	19	4327
2026-01-05 11:05:11.36	332.92	17.77	-29.7	-31.5	13.0	4.19e-05	0	44	102	1048576	19	4406
2026-01-05 11:05:12.37	332.98	17.65	-29.7	-31.5	13.0	4.34e-05	0	44	102	1048576	19	4412
2026-01-05 11:05:13.38	333.05	17.54	-29.8	-31.7	12.8	3.58e-05	0	44	102	1048576	19	4502
2026-01-05 11:05:14.38	333.12	17.43	-29.9	-32.0	12.7	7.01e-05	0	44	102	1048576	19	4573
2026-01-05 11:05:15.39	333.18	17.31	-29.8	-31.7	12.8	7.40e-05	0	44	102	1048576	19	4489
2026-01-05 11:05:16.40	333.25	17.20	-30.0	-32.2	12.5	6.86e-05	0	44	102	1048576	19	4659
2026-01-05 11:05:17.41	333.32	17.09	-30.1	-32.1	12.2	2.04e-04	0	44	102	1048576	20	4537
2026-01-05 11:05:18.42	333.38	16.98	-30.1	-32.1	12.1	3.76e-04	0	43	102	1048576	20	4565
2026-01-05 11:05:19.42	333.45	16.86	-30.0	-31.9	12.3	2.68e-04	0	44	102	1048576	20	4496
2026-01-05 11:05:20.43	333.51	16.75	-30.0	-31.9	12.2	2.54e-04	0	44	102	1048576	20	4477
2026-01-05 11:05:21.43	333.58	16.64	-30.0	-32.0	12.2	2.08e-04	0	43	102	1048576	20	4531
2026-01-05 11:05:22.43	333.64	16.54	-30.0	-32.0	12.1	2.54e-04	0	44	102	1048576	20	4536
2026-01-05 11:05:23.43	333.70	16.43	-30.0	-31.9	12.2	2.46e-04	0	44	102	1048576	20	4500
2026-01-05 11:05:24.44	333.76	16.32	-30.1	-32.3	12.0	2.69e-04	0	44	102	1048576	20	4630
2026-01-05 11:05:25.45	333.83	16.21	-30.1	-32.3	11.9	4.14e-04	0	44	102	1048576	20	4628
2026-01-05 11:05:26.46	333.89	16.10	-30.1	-32.1	12.0	2.96e-04	0	44	102	1048576	20	4560
2026-01-05 11:05:27.47	333.95	15.99	-29.9	-31.8	12.3	2.01e-04	0	43	102	1048576	20	4450
2026-01-05 11:05:28.47	334.01	15.89	-29.8	-31.5	12.5	1.45e-04	0	43	102	1048576	20	4359
2026-01-05 11:05:29.48	334.07	15.78	-30.0	-31.8	12.2	1.73e-04	0	44	102	1048576	20	4462
2026-01-05 11:05:30.49	334.13	15.67	-29.8	-31.4	12.5	1.86e-04	0	44	102	1048576	20	4331
2026-01-05 11:05:31.49	334.19	15.57	-29.7	-31.2	12.7	1.17e-04	0	43	102	1048576	20	4247
2026-01-05 11:05:32.50	334.25	15.46	-29.8	-31.3	12.5	8.16e-05	0	44	102	1048576	20	4296
2026-01-05 11:05:33.50	334.31	15.36	-29.7	-31.2	12.6	1.04e-04	0	43	102	1048576	20	4255
2026-01-05 11:05:34.50	334.37	15.26	-29.8	-31.3	12.6	9.46e-05	0	44	102	1048576	20	4277
2026-01-05 11:05:35.51	334.43	15.15	-29.6	-30.9	12.9	6.40e-05	0	44	102	1048576	20	4169
2026-01-05 11:05:36.52	334.48	15.05	-29.6	-30.8	12.8	5.18e-05	0	44	102	1048576	20	4147
2026-01-05 11:05:37.52	334.54	14.95	-29.6	-30.8	12.9	6.33e-05	0	44	102	1048576	20	4124
2026-01-05 11:05:38.52	334.60	14.84	-29.4	-30.3	13.2	4.04e-05	0	44	102	1048576	20	3979
2026-01-05 11:05:39.52	334.66	14.74	-29.5	-30.5	13.1	3.05e-05	0	43	102	1048576	20	4037
2026-01-05 11:05:40.53	334.71	14.64	-29.5	-30.6	13.0	1.90e-05	0	44	102	1048576	20	4072
2026-01-05 11:05:41.53	334.77	14.54	-29.5	-30.4	13.0	3.89e-05	0	44	102	1048576	20	4030
2026-01-05 11:05:42.54	334.82	14.44	-29.3	-30.0	13.3	3.20e-05	0	44	102	1048576	20	3902
2026-01-05 11:05:43.54	334.88	14.34	-29.4	-30.7	13.3	1.37e-05	0	44	102	1048576	19	4185
2026-01-05 11:05:44.55	334.93	14.24	-29.3	-30.4	13.4	1.37e-05	0	44	102	1048576	19	4093
2026-01-05 11:05:45.56	334.99	14.14	-29.3	-30.5	13.4	1.60e-05	0	44	102	1048576	19	4113
2026-01-05 11:05:46.57	335.04	14.04	-29.2	-30.2	13.6	1.52e-05	0	44	102	1048576	19	4038
2026-01-05 11:05:47.58	335.10	13.94	-29.2	-30.2	13.6	6.10e-06	0	44	102	1048576	19	4043
2026-01-05 11:05:48.59	335.15	13.84	-29.2	-30.2	13.6	8.30e-06	0	44	102	1048576	19	4030
2026-01-05 11:05:49.60	335.21	13.74	-29.1	-29.9	13.8	8.30e-06	0	44	102	1048576	19	3968
2026-01-05 11:05:50.61	335.26	13.64	-29.1	-29.9	13.7	6.80e-06	0	44	102	1048576	19	3960
2026-01-05 11:05:51.62	335.31	13.55	-29.1	-29.8	13.7	6.80e-06	0	43	102	1048576	19	3941
2026-01-05 11:05:52.63	335.36	13.45	-29.2	-30.1	13.6	7.60e-06	0	44	102	1048576	19	4020
2026-01-05 11:05:53.62	335.42	13.35	-29.2	-30.1	13.6	1.29e-05	0	43	102	1048576	19	4017
2026-01-05 11:05:54.63	335.47	13.26	-29.1	-29.9	13.7	9.90e-06	0	44	102	1048576	19	3964
2026-01-05 11:05:55.64	335.52	13.16	-29.3	-30.5	13.3	7.60e-06	0	44	102	1048576	19	4134
2026-01-05 11:05:56.65	335.57	13.06	-29.3	-30.5	13.3	1.98e-05	0	44	102	1048576	19	4147
2026-01-05 11:05:57.65	335.62	12.97	-29.3	-30.6	13.3	2.21e-05	0	43	102	1048576	19	4168
2026-01-05 11:05:58.66	335.67	12.87	-29.4	-30.7	13.2	2.67e-05	0	43	102	1048576	19	4202
2026-01-05 11:05:59.66	335.72	12.78	-29.5	-31.0	13.0	2.13e-05	0	43	102	1048576	19	4288
2026-01-05 11:06:00.66	335.77	12.69	-29.5	-31.1	12.9	5.34e-05	0	44	102	1048576	19	4337
2026-01-05 11:06:01.67	335.82	12.59	-29.5	-31.2	12.9	5.56e-05	0	44	102	1048576	19	4355
2026-01-05 11:06:02.68	335.87	12.50	-29.7	-31.5	12.6	8.62e-05	0	44	102	1048576	19	4464
2026-01-05 11:06:03.69	335.92	12.41	-29.8	-31.8	12.3	1.84e-04	0	43	102	1048576	19	4568
2026-01-05 11:06:04.69	335.97	12.31	-29.8	-32.0	12.3	1.66e-04	0	43	102	1048576	19	4638
2026-01-05 11:06:05.70	336.02	12.22	-29.8	-32.0	12.3	1.78e-04	0	44	102	1048576	19	4637
2026-01-05 11:06:06.71	336.07	12.13	-29.9	-32.2	12.1	2.55e-04	0	43	102	1048576	19	4706
2026-01-05 11:06:07.72	336.11	12.04	-29.9	-32.3	12.1	3.39e-04	0	43	102	1048576	19	4736
2026-01-05 11:06:08.73	336.16	11.94	-29.9	-32.4	12.0	3.09e-04	0	44	102	1048576	19	4779
2026-01-05 11:06:09.74	336.21	11.85	-29.9	-31.7	12.0	3.46e-04	0	44	102	1048576	20	4457
2026-01-05 11:06:10.74	336.26	11.76	-29.7	-31.4	12.2	3.16e-04	0	44	102	1048576	20	4359
2026-01-05 11:06:11.75	336.30	11.67	-29.7	-31.3	12.2	2.00e-04	0	43	102	1048576	20	4330
2026-01-05 11:06:12.76	336.35	11.58	-29.7	-31.3	12.3	1.55e-04	0	44	102	1048576	20	4327
2026-01-05 11:06:13.76	336.40	11.49	-29.8	-31.4	12.2	2.47e-04	0	44	102	1048576	20	4357
2026-01-05 11:06:14.77	336.44	11.40	-29.6	-31.0	12.4	2.14e-04	0	43	102	1048576	20	4239
2026-01-05 11:06:15.78	336.49	11.31	-29.6	-31.1	12.4	1.37e-04	0	44	102	1048576	20	4255
2026-01-05 11:06:16.79	336.54	11.22	-29.7	-31.2	12.3	1.49e-04	0	44	102	1048576	20	4285
2026-01-05 11:06:17.80	336.58	11.13	-29.5	-30.9	12.5	9.99e-05	0	44	102	1048576	20	4187
2026-01-05 11:06:18.80	336.63	11.05	-29.7	-31.2	12.3	1.85e-04	0	43	102	1048576	20	4306
2026-01-05 11:06:19.81	336.67	10.96	-29.5	-30.7	12.6	1.54e-04	0	44	102	1048576	20	4147
2026-01-05 11:06:20.82	336.72	10.87	-29.4	-30.5	12.7	7.32e-05	0	44	102	1048576	20	4084
2026-01-05 11:06:21.83	336.76	10.78	-29.3	-30.2	12.9	6.10e-05	0	44	102	1048576	20	3998
2026-01-05 11:06:22.84	336.81	10.69	-29.5	-30.8	12.5	9.30e-05	0	44	102	1048576	20	4169
2026-01-05 11:06:23.84	336.85	10.61	-29.4	-30.6	12.7	7.24e-05	0	44	102	1048576	20	4112
2026-01-05 11:06:24.85	336.89	10.52	-29.5	-30.6	12.6	9.46e-05	0	44	102	1048576	20	4120
2026-01-05 11:06:25.86	336.94	10.43	-29.4	-31.0	12.8	6.25e-05	0	44	102	1048576	19	4315
2026-01-05 11:06:26.87	336.98	10.35	-29.4	-31.0	12.8	5.87e-05	0	44	102	1048576	19	4306
2026-01-05 11:06:27.87	337.02	10.26	-29.5	-31.2	12.7	5.49e-05	0	43	102	1048576	19	4362
2026-01-05 11:06:28.88	337.07	10.18	-29.5	-31.4	12.5	7.70e-05	0	44	102	1048576	19	4435
2026-01-05 11:06:29.88	337.11	10.09	-29.4	-31.0	12.7	7.85e-05	0	44	102	1048576	19	4325
2026-01-05 11:06:30.89	337.15	10.01	-29.5	-31.2	12.6	5.79e-05	0	43	102	1048576	19	4391
2026-01-05 11:06:31.90	337.19	9.92	-29.3	-30.6	12.9	4.42e-05	0	43	102	1048576	19	4202
2026-01-05 11:06:32.90	337.24	9.84	-29.5	-31.2	12.6	4.42e-05	0	44	102	1048576	19	4396
2026-01-05 11:06:33.91	337.28	9.75	-29.3	-30.7	12.9	8.31e-05	0	44	102	1048576	19	4233
2026-01-05 11:06:34.92	337.32	9.67	-29.4	-30.9	12.7	4.19e-05	0	44	102	1048576	19	4302
2026-01-05 11:06:35.93	337.36	9.59	-29.3	-30.8	12.8	6.25e-05	0	44	102	1048576	19	4248
2026-01-05 11:06:36.93	337.40	9.50	-29.5	-31.3	12.5	1.17e-04	0	44	102	1048576	19	4413
2026-01-05 11:06:37.94	337.44	9.42	-29.5	-31.2	12.5	7.70e-05	0	44	102	1048576	19	4396
2026-01-05 11:06:38.95	337.48	9.34	-29.4	-31.0	12.7	7.47e-05	0	43	102	1048576	19	4333
2026-01-05 11:06:39.96	337.52	9.26	-29.4	-30.9	12.7	1.04e-04	0	43	102	1048576	19	4312
2026-01-05 11:06:40.97	337.56	9.17	-29.5	-31.2	12.5	1.18e-04	0	43	102	1048576	19	4379
2026-01-05 11:06:41.97	337.60	9.09	-29.5	-31.3	12.4	8.85e-05	0	44	102	1048576	19	4437
2026-01-05 11:06:42.98	337.64	9.01	-29.6	-31.6	12.2	1.80e-04	0	44	102	1048576	19	4544
