passes_logs/2026/01/05/R2M6_AANII_01/R2M6_AANII_01__20260105_053016_FENGYUN_3E_rec.log

#Pass ID: 20260105_053016_FENGYUN 3E
#Satellite: FENGYUN 3E
#Configuration: FENGYUN 3E
#almurnet v.1.7.20240730
#Start time: 2026-01-05 05:30:17

#Version: 2.2.20231116
#Station: R2M6_AANII_01
#Location: 30.233357 lon 59.946436 lat
#TLE: 1 49008U 21062A   26004.29457719  .00000106  00000+0  70678-4 0  9996
#TLE: 2 49008  98.7471   9.5487 0001503 159.9821 200.1414 14.19883545233329

#Time	Az	El	Level	Level2	SNR	BER	BlckErr	Temp	State	Recorded	gain1	gain2
2026-01-05 05:30:17.50	13.99	7.09	-29.0	-31.9	5.2	7.83e-01	0	41	0	0	17	4999
2026-01-05 05:30:18.50	13.95	7.16	-29.4	-32.4	5.1	7.90e-01	0	41	104	0	18	5080
2026-01-05 05:30:19.51	13.90	7.23	-29.3	-32.1	8.5	3.65e-02	0	41	0	0	18	4969
2026-01-05 05:30:20.51	13.86	7.31	-29.3	-32.0	8.6	4.44e-02	0	41	102	1048576	18	4924
2026-01-05 05:30:21.52	13.82	7.39	-29.2	-31.6	8.9	4.12e-02	0	41	102	1048576	18	4767
2026-01-05 05:30:22.53	13.77	7.46	-29.0	-31.7	9.2	2.13e-02	0	41	102	1048576	17	4915
2026-01-05 05:30:23.54	13.73	7.54	-29.0	-31.7	9.2	2.48e-02	0	41	102	1048576	17	4892
2026-01-05 05:30:24.55	13.68	7.61	-29.2	-31.8	8.8	3.08e-02	0	41	102	1048576	18	4859
2026-01-05 05:30:25.55	13.64	7.69	-29.2	-31.8	8.8	4.14e-02	0	41	102	1048576	18	4827
2026-01-05 05:30:26.56	13.59	7.77	-28.8	-31.1	9.6	1.50e-02	0	41	102	1048576	17	4707
2026-01-05 05:30:27.57	13.55	7.84	-28.4	-30.6	10.3	7.19e-03	0	41	102	1048576	16	4640
2026-01-05 05:30:28.57	13.50	7.92	-27.8	-29.6	11.0	3.39e-03	0	41	102	1048576	15	4449
2026-01-05 05:30:29.57	13.46	8.00	-27.4	-29.1	11.7	9.12e-04	0	41	102	1048576	14	4384
2026-01-05 05:30:30.58	13.41	8.07	-27.2	-28.7	11.9	3.62e-03	0	42	102	1048576	14	4272
2026-01-05 05:30:31.59	13.36	8.15	-26.8	-28.2	12.6	1.32e-04	0	41	102	1048576	13	4225
2026-01-05 05:30:32.60	13.32	8.23	-26.8	-28.2	12.6	9.38e-05	0	41	102	1048576	13	4234
2026-01-05 05:30:33.60	13.27	8.31	-26.6	-27.9	12.8	2.77e-03	0	42	102	1048576	13	4134
2026-01-05 05:30:34.61	13.22	8.39	-26.6	-28.1	12.9	5.49e-05	0	41	102	1048576	12	4320
2026-01-05 05:30:35.61	13.17	8.46	-26.7	-28.0	12.8	7.78e-05	0	41	102	1048576	13	4170
2026-01-05 05:30:36.61	13.13	8.54	-26.7	-27.9	12.8	6.63e-05	0	42	102	1048576	13	4138
2026-01-05 05:30:37.62	13.08	8.62	-26.7	-27.9	12.8	6.52e-05	0	41	102	1048576	13	4138
2026-01-05 05:30:38.62	13.03	8.70	-26.8	-28.2	12.6	9.88e-04	0	42	102	1048576	13	4234
2026-01-05 05:30:39.63	12.98	8.78	-26.7	-27.9	12.8	5.72e-05	0	42	102	1048576	13	4134
2026-01-05 05:30:40.63	12.93	8.86	-27.0	-28.7	12.3	1.05e-03	0	42	102	1048576	13	4367
2026-01-05 05:30:41.63	12.88	8.94	-26.9	-28.5	12.5	1.61e-04	0	42	102	1048576	13	4311
2026-01-05 05:30:42.64	12.83	9.02	-26.6	-27.8	12.9	7.55e-05	0	42	102	1048576	13	4110
2026-01-05 05:30:43.64	12.78	9.10	-26.5	-28.0	13.1	6.40e-04	0	42	102	1048576	12	4274
2026-01-05 05:30:44.64	12.73	9.18	-26.5	-27.9	13.1	2.28e-05	0	42	102	1048576	12	4246
2026-01-05 05:30:45.65	12.68	9.26	-26.6	-27.8	13.0	4.11e-05	0	42	102	1048576	13	4120
2026-01-05 05:30:46.65	12.63	9.34	-26.5	-27.5	13.1	4.46e-05	0	42	102	1048576	13	4050
2026-01-05 05:30:47.66	12.58	9.42	-26.6	-28.1	13.0	5.30e-04	0	42	102	1048576	12	4312
2026-01-05 05:30:48.67	12.53	9.50	-26.6	-27.7	13.0	5.03e-05	0	42	102	1048576	13	4099
2026-01-05 05:30:49.68	12.48	9.59	-26.7	-28.0	12.8	4.57e-05	0	42	102	1048576	13	4156
2026-01-05 05:30:50.68	12.42	9.67	-26.6	-27.8	13.0	5.77e-04	0	42	102	1048576	13	4115
2026-01-05 05:30:51.69	12.37	9.75	-26.7	-27.9	12.9	3.66e-05	0	42	102	1048576	13	4137
2026-01-05 05:30:52.70	12.32	9.83	-26.5	-27.6	13.1	5.41e-04	0	42	102	1048576	13	4056
2026-01-05 05:30:53.71	12.27	9.92	-26.4	-27.8	13.3	4.42e-04	0	42	102	1048576	12	4204
2026-01-05 05:30:54.71	12.21	10.00	-26.2	-27.2	13.7	1.25e-05	0	42	102	1048576	12	4063
2026-01-05 05:30:55.72	12.16	10.08	-26.2	-27.4	13.6	4.53e-04	0	42	102	1048576	12	4100
2026-01-05 05:30:56.72	12.10	10.16	-26.2	-27.3	13.6	4.70e-04	0	42	102	1048576	12	4083
2026-01-05 05:30:57.73	12.05	10.25	-26.3	-27.5	13.5	9.10e-06	0	42	102	1048576	12	4123
2026-01-05 05:30:58.73	12.00	10.33	-26.2	-27.2	13.7	4.82e-04	0	42	102	1048576	12	4063
2026-01-05 05:30:59.74	11.94	10.42	-26.0	-26.9	13.8	4.50e-06	0	42	102	1048576	12	3986
2026-01-05 05:31:00.74	11.89	10.50	-26.0	-26.9	13.9	1.14e-05	0	42	102	1048576	12	3976
2026-01-05 05:31:01.75	11.83	10.59	-26.1	-26.9	13.8	4.05e-04	0	42	102	1048576	12	3989
2026-01-05 05:31:02.76	11.77	10.67	-26.1	-27.0	13.8	4.27e-04	0	42	102	1048576	12	3992
2026-01-05 05:31:03.77	11.72	10.76	-26.3	-27.4	13.5	6.80e-06	0	42	102	1048576	12	4113
2026-01-05 05:31:04.77	11.66	10.84	-26.2	-27.2	13.7	4.50e-06	0	42	102	1048576	12	4045
2026-01-05 05:31:05.78	11.60	10.93	-26.1	-27.0	13.8	3.20e-04	0	42	102	1048576	12	4009
2026-01-05 05:31:06.79	11.54	11.01	-26.3	-27.5	13.5	1.02e-05	0	42	102	1048576	12	4129
2026-01-05 05:31:07.78	11.49	11.10	-26.1	-27.1	13.7	3.35e-04	0	42	102	1048576	12	4022
2026-01-05 05:31:08.79	11.43	11.19	-26.2	-27.2	13.7	5.70e-06	0	42	102	1048576	12	4053
2026-01-05 05:31:09.80	11.37	11.27	-26.0	-26.8	13.9	3.40e-06	0	42	102	1048576	12	3949
2026-01-05 05:31:10.80	11.31	11.36	-26.2	-27.3	13.7	4.05e-04	0	42	102	1048576	12	4086
2026-01-05 05:31:11.81	11.25	11.45	-26.2	-27.2	13.7	5.70e-06	0	42	102	1048576	12	4062
2026-01-05 05:31:12.81	11.19	11.54	-26.1	-27.0	13.9	4.50e-06	0	42	102	1048576	12	3986
2026-01-05 05:31:13.82	11.13	11.62	-26.3	-27.5	13.6	1.25e-05	0	42	102	1048576	12	4138
2026-01-05 05:31:14.83	11.07	11.71	-26.2	-27.3	13.7	1.14e-05	0	42	102	1048576	12	4065
2026-01-05 05:31:15.84	11.01	11.80	-26.0	-26.9	13.9	2.20e-06	0	42	102	1048576	12	3977
2026-01-05 05:31:16.84	10.95	11.89	-25.9	-27.2	14.1	2.20e-06	0	42	102	1048576	11	4141
2026-01-05 05:31:17.85	10.89	11.98	-26.0	-26.7	14.0	1.10e-06	0	42	102	1048576	12	3930
2026-01-05 05:31:18.85	10.83	12.07	-25.9	-26.7	14.1	1.10e-06	0	42	102	1048576	12	3913
2026-01-05 05:31:19.86	10.76	12.16	-26.0	-27.2	14.1	2.20e-06	0	42	102	1048576	11	4163
2026-01-05 05:31:20.87	10.70	12.25	-25.9	-27.1	14.2	1.10e-06	0	42	102	1048576	11	4124
2026-01-05 05:31:21.88	10.64	12.34	-26.0	-27.3	14.0	3.40e-06	0	42	102	1048576	11	4177
2026-01-05 05:31:22.88	10.57	12.43	-25.8	-26.8	14.3	1.10e-06	0	42	102	1048576	11	4051
2026-01-05 05:31:23.89	10.51	12.52	-25.9	-27.0	14.3	1.10e-06	0	42	102	1048576	11	4094
2026-01-05 05:31:24.90	10.44	12.61	-25.9	-27.1	14.2	0.00e+00	0	43	102	1048576	11	4119
2026-01-05 05:31:25.91	10.38	12.71	-25.9	-27.1	14.2	1.10e-06	0	42	102	1048576	11	4117
2026-01-05 05:31:26.92	10.31	12.80	-25.8	-26.9	14.3	2.07e-03	0	43	102	1048576	11	4082
2026-01-05 05:31:27.92	10.25	12.89	-25.7	-26.6	14.5	1.37e-05	0	43	102	1048576	11	4002
2026-01-05 05:31:28.93	10.18	12.98	-25.7	-26.6	14.5	0.00e+00	0	43	102	1048576	11	3990
2026-01-05 05:31:29.94	10.11	13.08	-25.7	-26.6	14.5	1.89e-03	0	43	102	1048576	11	3995
2026-01-05 05:31:30.94	10.05	13.17	-25.6	-26.5	14.6	0.00e+00	0	43	102	1048576	11	3964
2026-01-05 05:31:31.95	9.98	13.26	-25.9	-27.1	14.2	1.77e-03	0	43	102	1048576	11	4132
2026-01-05 05:31:32.96	9.91	13.36	-25.8	-26.7	14.4	0.00e+00	0	43	102	1048576	11	4026
2026-01-05 05:31:33.96	9.84	13.45	-25.7	-26.6	14.5	2.67e-04	0	43	102	1048576	11	3999
2026-01-05 05:31:34.97	9.77	13.54	-25.9	-27.0	14.3	1.91e-03	0	43	102	1048576	11	4093
2026-01-05 05:31:35.97	9.70	13.64	-25.6	-26.5	14.6	1.10e-06	0	43	102	1048576	11	3956
2026-01-05 05:31:36.98	9.63	13.73	-25.6	-26.4	14.6	2.06e-04	0	43	102	1048576	11	3947
2026-01-05 05:31:37.99	9.56	13.83	-25.6	-26.4	14.7	1.88e-03	0	42	102	1048576	11	3942
2026-01-05 05:31:39.00	9.49	13.93	-25.5	-26.2	14.8	1.76e-03	0	43	102	1048576	11	3899
2026-01-05 05:31:40.00	9.42	14.02	-25.5	-26.8	14.7	1.77e-04	0	43	102	1048576	10	4137
2026-01-05 05:31:41.00	9.35	14.12	-25.6	-26.4	14.7	1.10e-06	0	43	102	1048576	11	3940
2026-01-05 05:31:42.01	9.28	14.21	-25.9	-27.0	14.3	2.04e-03	0	43	102	1048576	11	4103
2026-01-05 05:31:43.02	9.20	14.31	-25.6	-26.4	14.7	1.59e-04	0	43	102	1048576	11	3948
2026-01-05 05:31:44.03	9.13	14.41	-25.4	-26.4	15.0	2.03e-03	0	43	102	1048576	10	4054
2026-01-05 05:31:45.03	9.06	14.51	-25.3	-26.2	15.1	1.91e-03	0	43	102	1048576	10	3993
2026-01-05 05:31:46.04	8.98	14.61	-25.4	-26.3	15.0	0.00e+00	0	42	102	1048576	10	4025
2026-01-05 05:31:47.04	8.91	14.70	-25.5	-26.7	14.8	1.94e-03	0	43	102	1048576	10	4122
2026-01-05 05:31:48.04	8.83	14.80	-25.4	-26.4	15.0	1.81e-03	0	43	102	1048576	10	4049
2026-01-05 05:31:49.05	8.76	14.90	-25.5	-26.6	14.9	1.92e-04	0	43	102	1048576	10	4085
2026-01-05 05:31:50.06	8.68	15.00	-25.7	-26.5	14.7	0.00e+00	0	43	102	1048576	11	3964
2026-01-05 05:31:51.07	8.60	15.10	-25.5	-26.6	14.9	0.00e+00	0	43	102	1048576	10	4091
2026-01-05 05:31:52.07	8.53	15.20	-25.6	-26.5	14.7	2.07e-04	0	43	102	1048576	11	3958
2026-01-05 05:31:53.08	8.45	15.30	-25.8	-26.9	14.5	0.00e+00	0	43	102	1048576	11	4059
2026-01-05 05:31:54.08	8.37	15.40	-25.6	-26.4	14.8	6.03e-04	0	43	102	1048576	11	3933
2026-01-05 05:31:55.09	8.29	15.50	-25.5	-26.0	15.0	0.00e+00	0	43	102	1048576	11	3839
2026-01-05 05:31:56.10	8.21	15.61	-25.3	-26.3	15.1	0.00e+00	0	43	102	1048576	10	4014
2026-01-05 05:31:57.11	8.13	15.71	-25.4	-26.4	15.1	0.00e+00	0	43	102	1048576	10	4037
2026-01-05 05:31:58.12	8.05	15.81	-25.5	-26.2	14.9	0.00e+00	0	43	102	1048576	11	3884
2026-01-05 05:31:59.12	7.97	15.91	-25.3	-26.2	15.2	0.00e+00	0	43	102	1048576	10	4006
2026-01-05 05:32:00.13	7.88	16.02	-25.3	-26.2	15.2	0.00e+00	0	43	102	1048576	10	3979
2026-01-05 05:32:01.13	7.80	16.12	-25.2	-26.0	14.3	0.00e+00	0	43	102	1048576	10	3949
2026-01-05 05:32:02.14	7.72	16.22	-25.4	-26.3	14.6	0.00e+00	0	43	102	1048576	10	4027
2026-01-05 05:32:03.15	7.63	16.33	-25.2	-26.0	15.3	0.00e+00	0	43	102	1048576	10	3946
2026-01-05 05:32:04.15	7.55	16.43	-25.0	-25.5	15.6	0.00e+00	0	43	102	1048576	10	3815
2026-01-05 05:32:05.16	7.46	16.54	-25.0	-25.6	15.5	0.00e+00	0	43	102	1048576	10	3835
2026-01-05 05:32:06.17	7.38	16.64	-25.1	-25.7	15.5	0.00e+00	0	43	102	1048576	10	3859
2026-01-05 05:32:07.17	7.29	16.75	-24.9	-25.7	15.7	1.33e-04	0	43	102	1048576	9	3969
2026-01-05 05:32:08.18	7.20	16.86	-24.8	-25.6	15.8	0.00e+00	0	43	102	1048576	9	3946
2026-01-05 05:32:09.19	7.12	16.96	-24.7	-25.4	15.9	0.00e+00	0	43	102	1048576	9	3903
2026-01-05 05:32:10.20	7.03	17.07	-24.9	-25.7	15.8	0.00e+00	0	43	102	1048576	9	3974
2026-01-05 05:32:11.21	6.94	17.18	-24.7	-25.3	16.0	1.05e-04	0	43	102	1048576	9	3870
2026-01-05 05:32:12.22	6.85	17.29	-24.5	-24.9	16.2	0.00e+00	0	43	102	1048576	9	3786
2026-01-05 05:32:13.22	6.76	17.39	-24.6	-25.1	16.1	3.08e-05	0	43	102	1048576	9	3825
2026-01-05 05:32:14.23	6.67	17.50	-24.5	-24.9	16.2	0.00e+00	0	43	102	1048576	9	3776
2026-01-05 05:32:15.24	6.57	17.61	-24.4	-24.7	16.3	0.00e+00	0	43	102	1048576	9	3728
2026-01-05 05:32:16.25	6.48	17.72	-24.6	-25.2	16.0	0.00e+00	0	43	102	1048576	9	3843
2026-01-05 05:32:17.25	6.39	17.83	-24.5	-24.9	16.2	3.43e-05	0	43	102	1048576	9	3791
2026-01-05 05:32:18.26	6.29	17.94	-24.5	-25.0	16.2	0.00e+00	0	43	102	1048576	9	3793
2026-01-05 05:32:19.27	6.20	18.05	-24.6	-25.1	16.1	2.95e-04	0	43	102	1048576	9	3828
2026-01-05 05:32:20.28	6.10	18.17	-24.5	-25.4	16.2	0.00e+00	0	43	102	1048576	8	4008
2026-01-05 05:32:21.29	6.01	18.28	-24.5	-25.0	16.1	0.00e+00	0	43	102	1048576	9	3810
2026-01-05 05:32:22.29	5.91	18.39	-24.6	-25.3	16.0	3.18e-04	0	43	102	1048576	9	3866
2026-01-05 05:32:23.30	5.81	18.50	-24.4	-25.3	16.3	3.35e-04	0	43	102	1048576	8	3979
2026-01-05 05:32:24.31	5.71	18.62	-24.5	-25.4	16.3	0.00e+00	0	43	102	1048576	8	3995
2026-01-05 05:32:25.31	5.62	18.73	-24.5	-25.4	16.2	0.00e+00	0	43	102	1048576	8	4014
2026-01-05 05:32:26.32	5.52	18.84	-24.5	-25.4	16.2	2.39e-04	0	43	102	1048576	8	4012
2026-01-05 05:32:27.33	5.41	18.96	-24.4	-25.3	16.3	0.00e+00	0	43	102	1048576	8	3976
2026-01-05 05:32:28.33	5.31	19.07	-24.5	-25.4	16.3	0.00e+00	0	43	102	1048576	8	4003
2026-01-05 05:32:29.33	5.21	19.18	-24.4	-25.3	16.3	2.02e-04	0	43	102	1048576	8	3971
2026-01-05 05:32:30.34	5.11	19.30	-24.4	-25.2	16.4	0.00e+00	0	43	102	1048576	8	3946
2026-01-05 05:32:31.35	5.00	19.42	-24.5	-25.0	16.2	2.28e-04	0	43	102	1048576	9	3800
2026-01-05 05:32:32.36	4.90	19.53	-24.3	-25.0	16.5	0.00e+00	0	43	102	1048576	8	3917
2026-01-05 05:32:33.35	4.80	19.65	-24.2	-24.8	16.6	0.00e+00	0	43	102	1048576	8	3862
2026-01-05 05:32:34.36	4.69	19.77	-24.2	-24.8	16.6	0.00e+00	0	43	102	1048576	8	3864
2026-01-05 05:32:35.36	4.58	19.88	-24.3	-25.1	16.4	0.00e+00	0	43	102	1048576	8	3930
2026-01-05 05:32:36.37	4.47	20.00	-24.2	-24.9	16.6	0.00e+00	0	43	102	1048576	8	3882
2026-01-05 05:32:37.37	4.37	20.12	-24.2	-24.7	16.7	0.00e+00	0	43	102	1048576	8	3833
2026-01-05 05:32:38.37	4.26	20.24	-24.1	-24.7	16.7	0.00e+00	0	43	102	1048576	8	3822
2026-01-05 05:32:39.38	4.15	20.36	-24.1	-24.5	16.8	0.00e+00	0	43	102	1048576	8	3794
2026-01-05 05:32:40.38	4.04	20.48	-24.1	-24.5	16.8	0.00e+00	0	43	102	1048576	8	3786
2026-01-05 05:32:41.39	3.92	20.60	-24.1	-24.6	16.7	0.00e+00	0	43	102	1048576	8	3819
2026-01-05 05:32:42.40	3.81	20.72	-24.2	-24.8	16.6	0.00e+00	0	43	102	1048576	8	3856
2026-01-05 05:32:43.41	3.69	20.84	-23.9	-24.1	17.0	1.68e-03	0	43	102	1048576	8	3699
2026-01-05 05:32:44.41	3.58	20.96	-23.7	-24.2	17.2	0.00e+00	0	43	102	1048576	7	3812
2026-01-05 05:32:45.42	3.46	21.08	-23.6	-24.1	17.2	2.20e-06	0	43	102	1048576	7	3800
2026-01-05 05:32:46.43	3.35	21.21	-23.6	-24.1	17.3	7.22e-04	0	43	102	1048576	7	3795
2026-01-05 05:32:47.44	3.23	21.33	-23.5	-23.9	17.3	0.00e+00	0	43	102	1048576	7	3754
2026-01-05 05:32:48.44	3.11	21.45	-23.6	-23.9	17.3	2.31e-04	0	43	102	1048576	7	3755
2026-01-05 05:32:49.45	2.99	21.58	-23.6	-24.1	17.3	0.00e+00	0	43	102	1048576	7	3789
2026-01-05 05:32:50.45	2.87	21.70	-23.6	-24.1	17.3	0.00e+00	0	43	102	1048576	7	3802
2026-01-05 05:32:51.46	2.75	21.83	-23.6	-24.0	17.3	2.41e-04	0	43	102	1048576	7	3776
2026-01-05 05:32:52.47	2.62	21.95	-23.8	-24.4	17.1	0.00e+00	0	43	102	1048576	7	3858
2026-01-05 05:32:53.47	2.50	22.08	-23.7	-24.3	17.2	1.83e-03	0	43	102	1048576	7	3849
2026-01-05 05:32:54.48	2.37	22.21	-23.8	-24.4	17.1	0.00e+00	0	43	102	1048576	7	3879
2026-01-05 05:32:55.48	2.25	22.33	-23.8	-24.4	17.2	1.81e-03	0	43	102	1048576	7	3858
2026-01-05 05:32:56.49	2.12	22.46	-23.8	-24.4	17.1	1.74e-03	0	43	102	1048576	7	3856
2026-01-05 05:32:57.50	1.99	22.59	-23.7	-24.2	17.2	0.00e+00	0	43	102	1048576	7	3831
2026-01-05 05:32:58.50	1.86	22.72	-23.7	-24.3	17.2	1.77e-03	0	43	102	1048576	7	3832
2026-01-05 05:32:59.51	1.73	22.84	-23.8	-24.4	17.2	0.00e+00	0	43	102	1048576	7	3856
2026-01-05 05:33:00.51	1.60	22.97	-23.7	-24.2	17.2	1.90e-04	0	43	102	1048576	7	3826
2026-01-05 05:33:01.52	1.47	23.10	-23.7	-24.2	17.2	1.65e-03	0	43	102	1048576	7	3817
2026-01-05 05:33:02.53	1.33	23.23	-24.1	-24.6	16.8	1.75e-03	0	43	102	1048576	8	3811
2026-01-05 05:33:03.53	1.20	23.36	-24.1	-24.6	16.8	1.91e-04	0	43	102	1048576	8	3800
2026-01-05 05:33:04.54	1.06	23.50	-24.1	-24.5	16.8	0.00e+00	0	43	102	1048576	8	3792
2026-01-05 05:33:05.55	0.93	23.63	-23.8	-24.5	17.1	1.73e-03	0	43	102	1048576	7	3894
2026-01-05 05:33:06.56	0.79	23.76	-23.8	-24.5	17.1	0.00e+00	0	43	102	1048576	7	3879
2026-01-05 05:33:07.56	0.65	23.89	-23.9	-24.8	17.0	0.00e+00	0	43	102	1048576	7	3949
2026-01-05 05:33:08.57	0.51	24.03	-24.2	-24.7	16.8	1.65e-03	0	43	102	1048576	8	3844
2026-01-05 05:33:09.58	0.36	24.16	-24.3	-25.0	16.6	0.00e+00	0	43	102	1048576	8	3889
2026-01-05 05:33:10.59	0.22	24.30	-24.2	-24.8	16.7	1.66e-03	0	43	102	1048576	8	3851
2026-01-05 05:33:11.59	0.08	24.43	-24.3	-24.9	16.6	0.00e+00	0	43	102	1048576	8	3892
2026-01-05 05:33:12.60	359.93	24.57	-24.3	-25.0	16.6	0.00e+00	0	43	102	1048576	8	3904
2026-01-05 05:33:13.60	359.78	24.70	-24.4	-25.3	16.5	1.80e-03	0	43	102	1048576	8	3965
2026-01-05 05:33:14.61	359.63	24.84	-24.4	-24.7	16.5	0.00e+00	0	43	102	1048576	9	3737
2026-01-05 05:33:15.62	359.48	24.98	-24.2	-24.8	16.7	1.89e-04	0	43	102	1048576	8	3851
2026-01-05 05:33:16.62	359.33	25.11	-24.1	-24.7	16.8	0.00e+00	0	43	102	1048576	8	3827
2026-01-05 05:33:17.63	359.18	25.25	-24.4	-25.2	16.5	0.00e+00	0	43	102	1048576	8	3955
2026-01-05 05:33:18.64	359.02	25.39	-24.3	-24.5	16.6	0.00e+00	0	43	102	1048576	9	3690
2026-01-05 05:33:19.64	358.87	25.53	-24.2	-24.7	16.8	0.00e+00	0	43	102	1048576	8	3824
2026-01-05 05:33:20.65	358.71	25.67	-24.0	-24.4	17.0	0.00e+00	0	43	102	1048576	8	3758
2026-01-05 05:33:21.66	358.55	25.81	-24.0	-24.4	16.9	0.00e+00	0	43	102	1048576	8	3753
2026-01-05 05:33:22.67	358.39	25.95	-24.0	-24.8	17.0	0.00e+00	0	43	102	1048576	7	3970
2026-01-05 05:33:23.67	358.23	26.09	-23.8	-24.0	17.2	0.00e+00	0	43	102	1048576	8	3668
2026-01-05 05:33:24.68	358.07	26.23	-23.8	-24.5	17.2	0.00e+00	0	43	102	1048576	7	3882
2026-01-05 05:33:25.69	357.91	26.37	-23.8	-24.3	17.2	0.00e+00	0	43	102	1048576	7	3847
2026-01-05 05:33:26.69	357.74	26.51	-23.9	-24.7	17.1	0.00e+00	0	43	102	1048576	7	3922
2026-01-05 05:33:27.70	357.57	26.66	-23.8	-24.4	17.2	0.00e+00	0	43	102	1048576	7	3854
2026-01-05 05:33:28.71	357.40	26.80	-23.4	-23.6	17.6	0.00e+00	0	43	102	1048576	7	3691
2026-01-05 05:33:29.72	357.23	26.94	-23.4	-23.6	17.6	0.00e+00	0	44	102	1048576	7	3677
2026-01-05 05:33:30.72	357.06	27.09	-23.4	-24.0	17.7	0.00e+00	0	43	102	1048576	6	3877
2026-01-05 05:33:31.73	356.89	27.23	-23.3	-23.9	17.7	0.00e+00	0	43	102	1048576	6	3852
2026-01-05 05:33:32.75	356.71	27.38	-23.3	-23.9	17.7	0.00e+00	0	43	102	1048576	6	3851
2026-01-05 05:33:33.75	356.54	27.52	-23.5	-24.2	17.6	0.00e+00	0	43	102	1048576	6	3931
2026-01-05 05:33:34.75	356.36	27.67	-23.1	-23.4	18.0	0.00e+00	0	43	102	1048576	6	3739
2026-01-05 05:33:35.76	356.18	27.81	-23.0	-23.3	18.1	0.00e+00	0	43	102	1048576	6	3711
2026-01-05 05:33:36.77	356.00	27.96	-23.1	-23.4	18.0	0.00e+00	0	43	102	1048576	6	3748
2026-01-05 05:33:37.78	355.81	28.11	-23.0	-23.2	18.1	0.00e+00	0	43	102	1048576	6	3691
2026-01-05 05:33:38.78	355.63	28.26	-22.9	-23.1	18.2	0.00e+00	0	43	102	1048576	6	3668
2026-01-05 05:33:39.79	355.44	28.41	-22.9	-23.6	18.2	0.00e+00	0	43	102	1048576	5	3888
2026-01-05 05:33:40.80	355.25	28.55	-22.8	-23.4	18.3	0.00e+00	0	44	102	1048576	5	3831
2026-01-05 05:33:41.80	355.06	28.70	-22.7	-23.2	18.3	0.00e+00	0	43	102	1048576	5	3799
2026-01-05 05:33:42.81	354.87	28.85	-22.7	-23.1	18.4	0.00e+00	0	43	102	1048576	5	3772
2026-01-05 05:33:43.81	354.68	29.00	-22.7	-23.2	18.3	0.00e+00	0	43	102	1048576	5	3792
2026-01-05 05:33:44.82	354.48	29.15	-22.7	-23.1	18.4	0.00e+00	0	43	102	1048576	5	3773
2026-01-05 05:33:45.82	354.28	29.30	-22.8	-23.3	18.3	0.00e+00	0	43	102	1048576	5	3812
2026-01-05 05:33:46.83	354.08	29.46	-22.9	-23.4	18.3	0.00e+00	0	43	102	1048576	5	3847
2026-01-05 05:33:47.83	353.88	29.61	-23.0	-23.7	18.1	0.00e+00	0	43	102	1048576	5	3916
2026-01-05 05:33:48.84	353.68	29.76	-23.0	-23.7	18.1	0.00e+00	0	43	102	1048576	5	3911
2026-01-05 05:33:49.85	353.47	29.91	-23.1	-23.5	18.0	0.00e+00	0	43	102	1048576	6	3757
2026-01-05 05:33:50.85	353.27	30.06	-23.3	-23.9	17.8	0.00e+00	0	43	102	1048576	6	3850
2026-01-05 05:33:51.86	353.06	30.22	-23.2	-23.8	17.9	0.00e+00	0	43	102	1048576	6	3821
2026-01-05 05:33:52.86	352.85	30.37	-23.2	-23.7	17.9	0.00e+00	0	43	102	1048576	6	3811
2026-01-05 05:33:53.87	352.63	30.52	-23.4	-24.1	17.7	0.00e+00	0	43	102	1048576	6	3889
2026-01-05 05:33:54.87	352.42	30.68	-23.4	-24.2	17.6	1.94e-05	0	43	102	1048576	6	3911
2026-01-05 05:33:55.88	352.20	30.83	-23.4	-24.0	17.7	0.00e+00	0	43	102	1048576	6	3888
2026-01-05 05:33:56.88	351.98	30.99	-23.4	-24.1	17.7	0.00e+00	0	43	102	1048576	6	3900
2026-01-05 05:33:57.89	351.76	31.14	-23.4	-24.1	17.7	0.00e+00	0	43	102	1048576	6	3908
2026-01-05 05:33:58.89	351.53	31.30	-23.7	-24.2	17.4	0.00e+00	0	43	102	1048576	7	3811
2026-01-05 05:33:59.89	351.31	31.45	-24.2	-24.8	16.8	0.00e+00	0	43	102	1048576	8	3849
2026-01-05 05:34:00.90	351.08	31.61	-24.0	-24.3	17.1	0.00e+00	0	43	102	1048576	8	3747
2026-01-05 05:34:01.90	350.85	31.77	-23.8	-24.4	17.3	0.00e+00	0	43	102	1048576	7	3863
2026-01-05 05:34:02.91	350.62	31.92	-23.9	-24.7	17.1	0.00e+00	0	43	102	1048576	7	3932
2026-01-05 05:34:03.91	350.38	32.08	-23.7	-24.2	17.3	0.00e+00	0	43	102	1048576	7	3824
2026-01-05 05:34:04.91	350.15	32.24	-24.1	-24.6	16.9	4.39e-04	0	43	102	1048576	8	3808
2026-01-05 05:34:05.92	349.91	32.40	-23.7	-23.6	17.4	0.00e+00	0	43	102	1048576	8	3585
2026-01-05 05:34:06.92	349.66	32.55	-23.6	-24.0	17.5	0.00e+00	0	43	102	1048576	7	3773
2026-01-05 05:34:07.93	349.42	32.71	-23.5	-23.9	17.6	0.00e+00	0	43	102	1048576	7	3741
2026-01-05 05:34:08.94	349.17	32.87	-23.5	-24.3	17.6	0.00e+00	0	43	102	1048576	6	3937
2026-01-05 05:34:09.95	348.92	33.03	-23.3	-23.9	17.8	1.21e-03	0	43	102	1048576	6	3852
2026-01-05 05:34:10.95	348.67	33.19	-23.4	-24.0	17.7	0.00e+00	0	43	102	1048576	6	3887
2026-01-05 05:34:11.96	348.41	33.35	-23.5	-24.3	17.6	1.75e-04	0	43	102	1048576	6	3955
2026-01-05 05:34:12.97	348.16	33.51	-23.3	-23.8	17.9	0.00e+00	0	43	102	1048576	6	3824
2026-01-05 05:34:13.97	347.90	33.67	-23.1	-23.5	18.0	7.62e-04	0	43	102	1048576	6	3756
2026-01-05 05:34:14.98	347.63	33.83	-23.2	-23.7	17.9	0.00e+00	0	43	102	1048576	6	3804
2026-01-05 05:34:15.98	347.37	33.99	-23.1	-23.5	18.1	0.00e+00	0	43	102	1048576	6	3753
2026-01-05 05:34:16.99	347.10	34.15	-23.1	-23.5	18.0	4.11e-05	0	43	102	1048576	6	3772
2026-01-05 05:34:18.00	346.83	34.31	-23.1	-23.4	18.1	0.00e+00	0	43	102	1048576	6	3747
2026-01-05 05:34:19.00	346.56	34.47	-23.3	-23.8	17.9	1.69e-04	0	43	102	1048576	6	3830
2026-01-05 05:34:20.01	346.28	34.63	-23.1	-23.5	18.0	1.99e-04	0	43	102	1048576	6	3750
2026-01-05 05:34:21.02	346.00	34.79	-23.1	-23.4	18.1	0.00e+00	0	43	102	1048576	6	3724
2026-01-05 05:34:22.03	345.72	34.95	-23.3	-23.9	17.8	2.56e-04	0	43	102	1048576	6	3847
2026-01-05 05:34:23.03	345.44	35.11	-23.2	-23.7	18.0	5.39e-04	0	43	102	1048576	6	3803
2026-01-05 05:34:24.05	345.15	35.27	-23.5	-24.3	17.6	0.00e+00	0	43	102	1048576	6	3944
2026-01-05 05:34:25.05	344.86	35.43	-23.2	-23.7	17.9	9.78e-04	0	44	102	1048576	6	3814
2026-01-05 05:34:26.06	344.56	35.59	-23.2	-23.7	17.9	0.00e+00	0	43	102	1048576	6	3812
2026-01-05 05:34:27.06	344.27	35.75	-23.3	-23.9	17.8	0.00e+00	0	43	102	1048576	6	3862
2026-01-05 05:34:28.07	343.97	35.91	-23.3	-23.9	17.8	0.00e+00	0	43	102	1048576	6	3857
2026-01-05 05:34:29.08	343.67	36.07	-23.3	-24.0	17.8	1.22e-03	0	43	102	1048576	6	3865
2026-01-05 05:34:30.09	343.36	36.23	-23.5	-24.2	17.7	0.00e+00	0	43	102	1048576	6	3926
2026-01-05 05:34:31.10	343.05	36.39	-23.7	-24.3	17.4	0.00e+00	0	43	102	1048576	7	3843
2026-01-05 05:34:32.10	342.74	36.55	-23.6	-24.0	17.6	1.34e-03	0	43	102	1048576	7	3767
2026-01-05 05:34:33.11	342.43	36.71	-23.7	-24.2	17.4	0.00e+00	0	43	102	1048576	7	3823
2026-01-05 05:34:34.11	342.11	36.87	-23.6	-24.1	17.5	0.00e+00	0	43	102	1048576	7	3782
2026-01-05 05:34:35.11	341.79	37.03	-23.6	-23.9	17.6	0.00e+00	0	43	102	1048576	7	3742
2026-01-05 05:34:36.12	341.47	37.19	-23.7	-24.3	17.4	0.00e+00	0	43	102	1048576	7	3828
2026-01-05 05:34:37.13	341.14	37.35	-23.5	-23.7	17.7	0.00e+00	0	43	102	1048576	7	3702
2026-01-05 05:34:38.13	340.81	37.51	-23.5	-24.3	17.7	0.00e+00	0	43	102	1048576	6	3932
2026-01-05 05:34:39.14	340.48	37.66	-23.3	-24.0	17.8	0.00e+00	0	43	102	1048576	6	3867
2026-01-05 05:34:40.15	340.14	37.82	-23.4	-24.1	17.7	0.00e+00	0	43	102	1048576	6	3890
2026-01-05 05:34:41.15	339.80	37.98	-23.4	-24.1	17.7	0.00e+00	0	43	102	1048576	6	3904
2026-01-05 05:34:42.16	339.46	38.14	-23.4	-23.6	17.7	0.00e+00	0	43	102	1048576	7	3679
2026-01-05 05:34:43.16	339.12	38.29	-23.5	-23.7	17.7	0.00e+00	0	43	102	1048576	7	3707
2026-01-05 05:34:44.17	338.76	38.45	-23.4	-24.1	17.7	0.00e+00	0	43	102	1048576	6	3897
2026-01-05 05:34:45.18	338.41	38.60	-23.4	-24.0	17.8	0.00e+00	0	44	102	1048576	6	3883
2026-01-05 05:34:46.18	338.06	38.76	-23.4	-24.1	17.8	0.00e+00	0	43	102	1048576	6	3893
2026-01-05 05:34:47.20	337.69	38.91	-23.5	-23.7	17.7	0.00e+00	0	43	102	1048576	7	3692
2026-01-05 05:34:48.21	337.33	39.07	-23.1	-23.0	18.1	0.00e+00	0	44	102	1048576	7	3539
2026-01-05 05:34:49.21	336.96	39.22	-23.1	-23.3	18.2	0.00e+00	0	44	102	1048576	6	3717
2026-01-05 05:34:50.22	336.59	39.37	-23.2	-23.6	18.0	0.00e+00	0	43	102	1048576	6	3780
2026-01-05 05:34:51.23	336.21	39.52	-23.4	-24.1	17.6	0.00e+00	0	43	102	1048576	6	3884
2026-01-05 05:34:52.24	335.84	39.67	-23.2	-23.6	17.8	0.00e+00	0	44	102	1048576	6	3782
2026-01-05 05:34:53.25	335.45	39.83	-23.5	-24.2	17.7	0.00e+00	0	44	102	1048576	6	3927
2026-01-05 05:34:54.26	335.07	39.97	-23.7	-24.2	17.4	0.00e+00	0	44	102	1048576	7	3814
2026-01-05 05:34:55.27	334.68	40.12	-23.9	-24.6	17.3	0.00e+00	0	43	102	1048576	7	3894
2026-01-05 05:34:56.27	334.29	40.27	-23.7	-24.2	17.4	0.00e+00	0	44	102	1048576	7	3822
2026-01-05 05:34:57.28	333.89	40.42	-23.9	-24.6	17.2	0.00e+00	0	43	102	1048576	7	3919
2026-01-05 05:34:58.28	333.49	40.56	-23.8	-24.3	17.4	0.00e+00	0	43	102	1048576	7	3835
2026-01-05 05:34:59.29	333.09	40.71	-24.0	-24.4	17.2	0.00e+00	0	44	102	1048576	8	3743
2026-01-05 05:35:00.29	332.69	40.85	-24.0	-24.3	17.2	0.00e+00	0	43	102	1048576	8	3733
2026-01-05 05:35:01.30	332.28	40.99	-24.0	-24.2	17.2	0.00e+00	0	43	102	1048576	8	3722
2026-01-05 05:35:02.31	331.86	41.13	-23.8	-23.9	17.3	0.00e+00	0	43	102	1048576	8	3649
2026-01-05 05:35:03.32	331.44	41.27	-23.6	-23.5	17.6	0.00e+00	0	43	102	1048576	8	3552
2026-01-05 05:35:04.31	331.03	41.41	-23.3	-23.3	17.9	0.00e+00	0	44	102	1048576	7	3615
2026-01-05 05:35:05.32	330.60	41.55	-23.2	-23.6	18.0	0.00e+00	0	43	102	1048576	6	3780
2026-01-05 05:35:06.32	330.18	41.68	-23.2	-23.8	17.9	2.74e-05	0	43	102	1048576	6	3820
2026-01-05 05:35:07.32	329.75	41.82	-23.0	-23.3	18.2	6.98e-05	0	43	102	1048576	6	3702
2026-01-05 05:35:08.33	329.31	41.95	-23.2	-23.6	18.1	0.00e+00	0	43	102	1048576	6	3775
2026-01-05 05:35:09.34	328.87	42.09	-23.1	-23.5	18.0	1.81e-04	0	43	102	1048576	6	3762
2026-01-05 05:35:10.35	328.43	42.22	-23.2	-23.6	18.0	2.15e-04	0	43	102	1048576	6	3773
2026-01-05 05:35:11.36	327.98	42.35	-23.4	-24.1	17.8	0.00e+00	0	43	102	1048576	6	3896
2026-01-05 05:35:12.36	327.53	42.47	-23.6	-23.9	17.6	2.71e-04	0	43	102	1048576	7	3755
2026-01-05 05:35:13.37	327.08	42.60	-23.5	-23.7	17.7	2.55e-04	0	43	102	1048576	7	3695
2026-01-05 05:35:14.38	326.62	42.73	-23.6	-23.9	17.6	0.00e+00	0	44	102	1048576	7	3751
2026-01-05 05:35:15.38	326.16	42.85	-23.7	-24.2	17.5	2.99e-04	0	43	102	1048576	7	3805
2026-01-05 05:35:16.39	325.69	42.97	-23.8	-24.3	17.4	2.84e-04	0	44	102	1048576	7	3851
2026-01-05 05:35:17.39	325.23	43.09	-23.8	-24.4	17.4	0.00e+00	0	44	102	1048576	7	3860
2026-01-05 05:35:18.40	324.76	43.21	-23.5	-23.8	17.7	3.67e-04	0	43	102	1048576	7	3722
2026-01-05 05:35:19.41	324.28	43.32	-23.6	-24.4	17.4	0.00e+00	0	43	102	1048576	6	3979
2026-01-05 05:35:20.41	323.80	43.44	-23.7	-24.3	17.4	0.00e+00	0	43	102	1048576	7	3836
2026-01-05 05:35:21.42	323.32	43.55	-23.8	-24.4	17.4	0.00e+00	0	43	102	1048576	7	3864
2026-01-05 05:35:22.43	322.83	43.66	-23.6	-23.9	17.6	0.00e+00	0	43	102	1048576	7	3744
2026-01-05 05:35:23.44	322.34	43.77	-23.7	-24.2	17.5	0.00e+00	0	44	102	1048576	7	3806
2026-01-05 05:35:24.44	321.86	43.87	-23.9	-24.6	17.3	0.00e+00	0	44	102	1048576	7	3903
2026-01-05 05:35:25.45	321.36	43.98	-24.0	-24.7	17.2	6.52e-05	0	43	102	1048576	7	3935
2026-01-05 05:35:26.46	320.86	44.08	-24.2	-24.8	17.0	0.00e+00	0	43	102	1048576	8	3843
2026-01-05 05:35:27.47	320.36	44.18	-24.3	-24.9	16.9	0.00e+00	0	43	102	1048576	8	3860
2026-01-05 05:35:28.47	319.86	44.28	-24.1	-24.4	17.1	1.26e-03	0	43	102	1048576	8	3768
2026-01-05 05:35:29.48	319.35	44.37	-23.7	-23.6	17.6	0.00e+00	0	43	102	1048576	8	3583
2026-01-05 05:35:30.48	318.84	44.46	-23.5	-23.8	17.7	8.75e-04	0	43	102	1048576	7	3722
2026-01-05 05:35:31.49	318.32	44.55	-23.4	-23.6	17.8	9.53e-04	0	43	102	1048576	7	3683
2026-01-05 05:35:32.50	317.81	44.64	-23.3	-23.4	17.9	0.00e+00	0	44	102	1048576	7	3625
2026-01-05 05:35:33.51	317.28	44.73	-23.3	-23.3	18.0	1.11e-03	0	43	102	1048576	7	3613
2026-01-05 05:35:34.51	316.77	44.81	-23.2	-23.7	18.0	0.00e+00	0	44	102	1048576	6	3796
2026-01-05 05:35:35.52	316.24	44.89	-23.4	-24.1	17.8	0.00e+00	0	44	102	1048576	6	3884
2026-01-05 05:35:36.53	315.71	44.97	-23.4	-24.1	17.8	1.14e-03	0	44	102	1048576	6	3906
2026-01-05 05:35:37.53	315.18	45.05	-23.3	-23.9	17.9	9.42e-04	0	43	102	1048576	6	3847
2026-01-05 05:35:38.54	314.65	45.12	-23.3	-23.9	17.9	1.42e-04	0	43	102	1048576	6	3855
2026-01-05 05:35:39.55	314.11	45.19	-23.4	-24.2	17.8	8.59e-04	0	43	102	1048576	6	3909
2026-01-05 05:35:40.56	313.57	45.26	-23.3	-23.9	18.0	8.19e-04	0	43	102	1048576	6	3838
2026-01-05 05:35:41.56	313.04	45.32	-23.3	-23.8	18.0	1.03e-04	0	43	102	1048576	6	3832
2026-01-05 05:35:42.57	312.49	45.38	-23.4	-24.2	17.8	1.06e-03	0	43	102	1048576	6	3909
2026-01-05 05:35:43.57	311.95	45.44	-23.5	-24.3	17.7	1.38e-03	0	44	102	1048576	6	3943
2026-01-05 05:35:44.57	311.41	45.50	-23.5	-23.7	17.8	0.00e+00	0	43	102	1048576	7	3697
2026-01-05 05:35:45.57	310.86	45.55	-23.6	-24.0	17.6	1.47e-03	0	44	102	1048576	7	3767
2026-01-05 05:35:46.57	310.32	45.61	-23.6	-23.9	17.7	0.00e+00	0	43	102	1048576	7	3740
2026-01-05 05:35:47.58	309.76	45.65	-23.7	-24.1	17.6	2.86e-05	0	44	102	1048576	7	3797
2026-01-05 05:35:48.58	309.21	45.70	-23.8	-24.3	17.5	1.34e-03	0	43	102	1048576	7	3843
2026-01-05 05:35:49.58	308.66	45.74	-23.8	-24.4	17.5	0.00e+00	0	43	102	1048576	7	3859
2026-01-05 05:35:50.59	308.10	45.78	-23.7	-24.1	17.6	1.11e-04	0	43	102	1048576	7	3791
2026-01-05 05:35:51.60	307.55	45.82	-23.5	-23.9	17.7	0.00e+00	0	43	102	1048576	7	3733
2026-01-05 05:35:52.61	306.98	45.85	-23.4	-24.0	17.9	0.00e+00	0	43	102	1048576	6	3871
2026-01-05 05:35:53.61	306.43	45.88	-23.3	-23.9	17.9	0.00e+00	0	43	102	1048576	6	3851
2026-01-05 05:35:54.62	305.86	45.91	-23.3	-23.9	18.0	0.00e+00	0	43	102	1048576	6	3847
2026-01-05 05:35:55.63	305.30	45.93	-23.8	-24.3	17.5	1.08e-03	0	43	102	1048576	7	3838
2026-01-05 05:35:56.64	304.74	45.96	-23.8	-24.5	17.4	0.00e+00	0	44	102	1048576	7	3876
2026-01-05 05:35:57.64	304.18	45.97	-23.8	-24.4	17.4	0.00e+00	0	44	102	1048576	7	3853
2026-01-05 05:35:58.65	303.61	45.99	-23.8	-24.5	17.4	0.00e+00	0	44	102	1048576	7	3880
2026-01-05 05:35:59.66	303.04	46.00	-23.8	-24.3	17.5	0.00e+00	0	44	102	1048576	7	3832
2026-01-05 05:36:00.66	302.48	46.01	-23.6	-24.0	17.7	0.00e+00	0	43	102	1048576	7	3758
2026-01-05 05:36:01.67	301.91	46.02	-23.5	-23.7	17.8	0.00e+00	0	44	102	1048576	7	3699
2026-01-05 05:36:02.67	301.35	46.02	-23.5	-23.8	17.7	0.00e+00	0	43	102	1048576	7	3728
2026-01-05 05:36:03.68	300.78	46.02	-23.6	-23.9	17.7	0.00e+00	0	44	102	1048576	7	3746
2026-01-05 05:36:04.69	300.22	46.02	-23.9	-24.7	17.3	0.00e+00	0	44	102	1048576	7	3930
2026-01-05 05:36:05.70	299.65	46.01	-24.2	-24.7	17.0	0.00e+00	0	44	102	1048576	8	3821
2026-01-05 05:36:06.70	299.09	46.00	-24.2	-24.7	17.0	0.00e+00	0	44	102	1048576	8	3825
2026-01-05 05:36:07.71	298.52	45.99	-23.9	-24.1	17.4	0.00e+00	0	44	102	1048576	8	3681
2026-01-05 05:36:08.72	297.95	45.97	-23.5	-23.3	17.8	0.00e+00	0	44	102	1048576	8	3502
2026-01-05 05:36:09.73	297.39	45.96	-23.5	-23.8	17.7	0.00e+00	0	44	102	1048576	7	3726
2026-01-05 05:36:10.74	296.82	45.93	-23.5	-23.9	17.7	0.00e+00	0	44	102	1048576	7	3737
2026-01-05 05:36:11.75	296.26	45.91	-23.6	-24.1	17.6	0.00e+00	0	44	102	1048576	7	3780
2026-01-05 05:36:12.76	295.70	45.88	-23.5	-23.7	17.7	0.00e+00	0	44	102	1048576	7	3702
2026-01-05 05:36:13.77	295.13	45.85	-23.7	-24.2	17.6	0.00e+00	0	44	102	1048576	7	3808
2026-01-05 05:36:14.78	294.57	45.82	-23.5	-23.8	17.7	0.00e+00	0	44	102	1048576	7	3732
2026-01-05 05:36:15.79	294.01	45.78	-23.2	-23.6	18.1	0.00e+00	0	44	102	1048576	6	3772
2026-01-05 05:36:16.80	293.45	45.74	-23.3	-23.8	18.0	0.00e+00	0	43	102	1048576	6	3832
2026-01-05 05:36:17.80	292.90	45.70	-23.4	-24.2	17.7	0.00e+00	0	44	102	1048576	6	3905
2026-01-05 05:36:18.82	292.34	45.65	-23.4	-24.0	17.8	4.92e-05	0	43	102	1048576	6	3879
2026-01-05 05:36:19.82	291.79	45.60	-23.4	-24.1	17.8	0.00e+00	0	44	102	1048576	6	3900
2026-01-05 05:36:20.83	291.24	45.55	-23.5	-24.3	17.7	0.00e+00	0	43	102	1048576	6	3943
2026-01-05 05:36:21.83	290.70	45.50	-23.6	-24.0	17.6	0.00e+00	0	43	102	1048576	7	3761
2026-01-05 05:36:22.84	290.15	45.44	-23.7	-24.1	17.5	0.00e+00	0	44	102	1048576	7	3800
2026-01-05 05:36:23.85	289.60	45.38	-23.5	-23.7	17.8	0.00e+00	0	44	102	1048576	7	3694
2026-01-05 05:36:24.86	289.06	45.32	-23.3	-23.3	18.0	0.00e+00	0	44	102	1048576	7	3604
2026-01-05 05:36:25.86	288.52	45.25	-23.4	-23.6	17.8	0.00e+00	0	44	102	1048576	7	3691
2026-01-05 05:36:26.86	287.98	45.19	-23.3	-23.8	18.0	1.10e-04	0	43	102	1048576	6	3826
2026-01-05 05:36:27.87	287.45	45.12	-23.4	-24.0	17.8	0.00e+00	0	43	102	1048576	6	3877
2026-01-05 05:36:28.87	286.92	45.04	-23.3	-23.8	17.9	0.00e+00	0	44	102	1048576	6	3832
2026-01-05 05:36:29.88	286.38	44.97	-23.2	-23.6	18.0	0.00e+00	0	44	102	1048576	6	3783
2026-01-05 05:36:30.89	285.85	44.89	-23.1	-23.5	18.1	2.91e-04	0	44	102	1048576	6	3756
2026-01-05 05:36:31.90	285.33	44.81	-23.3	-23.8	17.9	0.00e+00	0	44	102	1048576	6	3832
2026-01-05 05:36:32.90	284.81	44.72	-23.0	-23.2	18.2	3.11e-04	0	43	102	1048576	6	3685
2026-01-05 05:36:33.91	284.29	44.64	-22.8	-23.3	18.4	3.49e-04	0	44	102	1048576	5	3810
2026-01-05 05:36:34.91	283.77	44.55	-23.0	-23.7	18.2	0.00e+00	0	44	102	1048576	5	3910
2026-01-05 05:36:35.91	283.26	44.46	-23.2	-23.6	18.1	3.40e-04	0	44	102	1048576	6	3781
2026-01-05 05:36:36.92	282.75	44.37	-23.4	-24.1	17.8	3.02e-04	0	44	102	1048576	6	3888
2026-01-05 05:36:37.92	282.24	44.27	-23.2	-23.6	18.0	0.00e+00	0	44	102	1048576	6	3778
2026-01-05 05:36:38.93	281.73	44.17	-23.0	-23.8	18.2	3.34e-04	0	43	102	1048576	5	3925
2026-01-05 05:36:39.94	281.23	44.07	-23.1	-23.4	18.2	0.00e+00	0	44	102	1048576	6	3727
2026-01-05 05:36:40.95	280.73	43.97	-23.2	-23.7	18.0	0.00e+00	0	44	102	1048576	6	3811
2026-01-05 05:36:41.96	280.23	43.87	-23.1	-23.5	15.4	0.00e+00	0	44	102	1048576	6	3754
2026-01-05 05:36:42.97	279.74	43.76	-23.3	-23.9	17.8	1.52e-04	0	43	102	1048576	6	3856
2026-01-05 05:36:43.97	279.25	43.65	-23.1	-23.4	18.1	0.00e+00	0	44	102	1048576	6	3739
2026-01-05 05:36:44.97	278.77	43.54	-22.9	-23.1	18.3	0.00e+00	0	44	102	1048576	6	3665
2026-01-05 05:36:45.98	278.29	43.43	-23.0	-23.7	18.2	1.60e-04	0	44	102	1048576	5	3903
2026-01-05 05:36:46.98	277.81	43.32	-23.0	-23.8	18.1	0.00e+00	0	43	102	1048576	5	3930
2026-01-05 05:36:47.99	277.33	43.20	-23.2	-23.6	18.0	1.48e-05	0	44	102	1048576	6	3775
2026-01-05 05:36:49.00	276.86	43.08	-22.8	-22.9	18.4	0.00e+00	0	44	102	1048576	6	3615
2026-01-05 05:36:50.00	276.39	42.96	-22.7	-22.7	18.5	0.00e+00	0	44	102	1048576	6	3575
2026-01-05 05:36:51.01	275.93	42.84	-22.8	-22.8	18.4	9.61e-05	0	44	102	1048576	6	3608
2026-01-05 05:36:52.02	275.46	42.72	-22.7	-23.0	18.5	1.20e-03	0	44	102	1048576	5	3743
2026-01-05 05:36:53.02	275.01	42.59	-22.7	-23.0	18.5	0.00e+00	0	43	102	1048576	5	3752
2026-01-05 05:36:54.03	274.55	42.47	-22.7	-23.0	18.5	1.34e-03	0	44	102	1048576	5	3760
2026-01-05 05:36:55.04	274.10	42.34	-22.8	-23.3	18.4	4.39e-04	0	44	102	1048576	5	3810
2026-01-05 05:36:56.05	273.65	42.21	-22.8	-23.2	18.4	0.00e+00	0	43	102	1048576	5	3799
2026-01-05 05:36:57.05	273.21	42.08	-23.1	-23.4	18.1	1.41e-03	0	44	102	1048576	6	3727
2026-01-05 05:36:58.06	272.77	41.94	-23.0	-23.7	18.2	1.33e-03	0	44	102	1048576	5	3906
2026-01-05 05:36:59.07	272.33	41.81	-23.4	-24.0	17.7	0.00e+00	0	43	102	1048576	6	3869
2026-01-05 05:37:00.07	271.90	41.67	-23.9	-24.6	17.2	1.42e-03	0	44	102	1048576	7	3913
2026-01-05 05:37:01.06	271.48	41.54	-23.6	-23.9	17.5	1.36e-03	0	44	102	1048576	7	3761
2026-01-05 05:37:02.07	271.05	41.40	-23.3	-23.3	17.9	0.00e+00	0	44	102	1048576	7	3618
2026-01-05 05:37:03.08	270.63	41.26	-23.1	-23.5	18.0	1.25e-03	0	44	102	1048576	6	3752
2026-01-05 05:37:04.09	270.21	41.12	-23.1	-23.5	18.0	1.36e-03	0	44	102	1048576	6	3760
2026-01-05 05:37:05.09	269.79	40.98	-23.3	-24.0	17.8	0.00e+00	0	43	102	1048576	6	3867
2026-01-05 05:37:06.09	269.39	40.84	-23.7	-24.2	17.3	1.55e-03	0	44	102	1048576	7	3806
2026-01-05 05:37:07.10	268.98	40.69	-24.0	-24.9	17.1	1.72e-03	0	44	102	1048576	7	3978
2026-01-05 05:37:08.10	268.58	40.55	-23.6	-24.1	17.5	0.00e+00	0	44	102	1048576	7	3789
2026-01-05 05:37:09.11	268.17	40.40	-23.4	-24.0	17.8	1.58e-03	0	44	102	1048576	6	3877
2026-01-05 05:37:10.12	267.78	40.25	-23.2	-23.6	17.9	3.40e-06	0	44	102	1048576	6	3789
2026-01-05 05:37:11.12	267.39	40.11	-23.2	-23.7	17.9	1.22e-04	0	44	102	1048576	6	3794
2026-01-05 05:37:12.13	267.00	39.96	-23.1	-23.5	18.0	1.41e-03	0	43	102	1048576	6	3766
2026-01-05 05:37:13.14	266.61	39.81	-23.4	-24.0	17.7	0.00e+00	0	44	102	1048576	6	3875
2026-01-05 05:37:14.14	266.23	39.66	-23.1	-23.5	18.0	7.78e-05	0	44	102	1048576	6	3749
2026-01-05 05:37:15.15	265.85	39.51	-23.0	-23.8	18.1	0.00e+00	0	44	102	1048576	5	3933
2026-01-05 05:37:16.16	265.47	39.35	-23.2	-23.8	17.9	0.00e+00	0	44	102	1048576	6	3821
2026-01-05 05:37:17.17	265.10	39.20	-23.4	-24.1	17.7	0.00e+00	0	43	102	1048576	6	3887
2026-01-05 05:37:18.17	264.73	39.05	-23.3	-23.9	17.8	0.00e+00	0	44	102	1048576	6	3862
2026-01-05 05:37:19.18	264.37	38.89	-23.3	-24.0	17.7	1.10e-06	0	44	102	1048576	6	3869
2026-01-05 05:37:20.18	264.01	38.74	-23.5	-24.3	17.6	0.00e+00	0	43	102	1048576	6	3951
2026-01-05 05:37:21.19	263.65	38.58	-23.2	-23.7	17.9	0.00e+00	0	44	102	1048576	6	3806
2026-01-05 05:37:22.20	263.29	38.43	-23.2	-23.6	17.9	1.10e-06	0	43	102	1048576	6	3793
2026-01-05 05:37:23.20	262.95	38.27	-23.2	-23.6	17.9	0.00e+00	0	44	102	1048576	6	3783
2026-01-05 05:37:24.21	262.60	38.11	-23.4	-24.1	17.7	0.00e+00	0	44	102	1048576	6	3893
2026-01-05 05:37:25.22	262.25	37.96	-23.6	-24.4	17.5	1.10e-06	0	44	102	1048576	6	3974
2026-01-05 05:37:26.23	261.91	37.80	-23.3	-23.8	17.8	0.00e+00	0	43	102	1048576	6	3840
2026-01-05 05:37:27.24	261.57	37.64	-23.1	-23.5	18.0	0.00e+00	0	44	102	1048576	6	3761
2026-01-05 05:37:28.24	261.24	37.48	-23.1	-23.4	18.0	1.10e-06	0	43	102	1048576	6	3730
2026-01-05 05:37:29.24	260.91	37.32	-23.2	-23.6	18.0	0.00e+00	0	44	102	1048576	6	3780
2026-01-05 05:37:30.24	260.58	37.17	-23.0	-23.7	18.1	0.00e+00	0	43	102	1048576	5	3911
2026-01-05 05:37:31.25	260.26	37.01	-23.0	-23.8	18.1	0.00e+00	0	43	102	1048576	5	3924
2026-01-05 05:37:32.26	259.94	36.85	-23.3	-24.0	17.7	0.00e+00	0	44	102	1048576	6	3864
2026-01-05 05:37:33.26	259.62	36.69	-23.5	-23.8	17.5	0.00e+00	0	43	102	1048576	7	3734
2026-01-05 05:37:34.27	259.30	36.53	-23.3	-23.8	17.7	0.00e+00	0	44	102	1048576	6	3840
2026-01-05 05:37:35.26	259.00	36.37	-23.1	-23.5	18.0	0.00e+00	0	44	102	1048576	6	3763
2026-01-05 05:37:36.27	258.69	36.21	-23.2	-23.7	17.9	0.00e+00	0	44	102	1048576	6	3802
2026-01-05 05:37:37.28	258.38	36.05	-23.3	-24.0	17.7	0.00e+00	0	44	102	1048576	6	3867
2026-01-05 05:37:38.28	258.08	35.89	-23.4	-24.0	17.7	0.00e+00	0	44	102	1048576	6	3879
2026-01-05 05:37:39.29	257.78	35.72	-23.3	-23.9	17.7	0.00e+00	0	44	102	1048576	6	3847
2026-01-05 05:37:40.30	257.48	35.56	-23.3	-24.0	17.7	1.10e-06	0	44	102	1048576	6	3866
2026-01-05 05:37:41.31	257.18	35.40	-23.3	-23.9	17.7	0.00e+00	0	44	102	1048576	6	3844
2026-01-05 05:37:42.31	256.89	35.24	-22.9	-23.1	18.1	0.00e+00	0	44	102	1048576	6	3666
2026-01-05 05:37:43.32	256.60	35.08	-22.7	-23.1	18.3	0.00e+00	0	44	102	1048576	5	3778
2026-01-05 05:37:44.33	256.32	34.92	-22.8	-23.2	18.2	0.00e+00	0	44	102	1048576	5	3797
2026-01-05 05:37:45.33	256.04	34.76	-22.8	-23.3	18.3	0.00e+00	0	44	102	1048576	5	3814
2026-01-05 05:37:46.34	255.76	34.60	-22.9	-23.5	18.2	0.00e+00	0	44	102	1048576	5	3862
2026-01-05 05:37:47.35	255.48	34.43	-23.1	-23.4	18.0	0.00e+00	0	44	102	1048576	6	3732
2026-01-05 05:37:48.35	255.21	34.27	-22.9	-23.1	18.1	0.00e+00	0	44	102	1048576	6	3666
2026-01-05 05:37:49.36	254.93	34.11	-22.8	-22.8	18.2	0.00e+00	0	44	102	1048576	6	3614
2026-01-05 05:37:50.36	254.67	33.95	-22.8	-22.9	18.2	0.00e+00	0	44	102	1048576	6	3621
2026-01-05 05:37:51.36	254.40	33.79	-22.8	-23.3	18.3	0.00e+00	0	44	102	1048576	5	3823
2026-01-05 05:37:52.37	254.14	33.63	-22.6	-22.9	18.4	0.00e+00	0	43	102	1048576	5	3732
2026-01-05 05:37:53.38	253.88	33.47	-22.7	-23.1	18.3	0.00e+00	0	44	102	1048576	5	3783
2026-01-05 05:37:54.38	253.62	33.31	-22.8	-23.3	18.2	0.00e+00	0	44	102	1048576	5	3822
2026-01-05 05:37:55.40	253.36	33.15	-22.8	-23.4	18.2	0.00e+00	0	44	102	1048576	5	3842
2026-01-05 05:37:56.40	253.11	32.99	-22.9	-23.5	18.2	0.00e+00	0	44	102	1048576	5	3858
2026-01-05 05:37:57.41	252.86	32.83	-22.8	-23.3	18.2	0.00e+00	0	44	102	1048576	5	3823
2026-01-05 05:37:58.42	252.61	32.67	-22.8	-23.4	18.2	0.00e+00	0	44	102	1048576	5	3835
2026-01-05 05:37:59.42	252.36	32.51	-22.9	-23.5	18.1	0.00e+00	0	44	102	1048576	5	3874
2026-01-05 05:38:00.43	252.12	32.35	-23.0	-23.3	18.0	0.00e+00	0	44	102	1048576	6	3719
2026-01-05 05:38:01.43	251.88	32.20	-23.0	-23.3	18.0	0.00e+00	0	44	102	1048576	6	3717
2026-01-05 05:38:02.44	251.64	32.04	-23.1	-23.4	17.9	0.00e+00	0	44	102	1048576	6	3751
2026-01-05 05:38:03.45	251.40	31.88	-23.1	-23.5	17.9	0.00e+00	0	43	102	1048576	6	3749
2026-01-05 05:38:04.45	251.17	31.72	-23.1	-23.4	17.9	0.00e+00	0	44	102	1048576	6	3749
2026-01-05 05:38:05.45	250.94	31.56	-23.1	-23.5	17.9	0.00e+00	0	44	102	1048576	6	3759
2026-01-05 05:38:06.47	250.71	31.40	-22.8	-23.3	13.3	0.00e+00	0	44	102	1048576	6	3808
2026-01-05 05:38:07.47	250.48	31.25	-23.2	-23.6	17.8	0.00e+00	0	43	102	1048576	6	3776
2026-01-05 05:38:08.48	250.25	31.09	-23.2	-23.6	17.7	0.00e+00	0	44	102	1048576	6	3780
2026-01-05 05:38:09.48	250.03	30.94	-23.1	-23.5	17.9	0.00e+00	0	44	102	1048576	6	3761
2026-01-05 05:38:10.49	249.81	30.78	-23.3	-23.8	17.7	0.00e+00	0	43	102	1048576	6	3836
2026-01-05 05:38:11.49	249.59	30.63	-23.3	-23.8	17.7	1.73e-04	0	44	102	1048576	6	3821
2026-01-05 05:38:12.50	249.38	30.47	-23.3	-23.8	17.7	2.09e-04	0	44	102	1048576	6	3834
2026-01-05 05:38:13.51	249.16	30.31	-23.3	-23.9	17.7	0.00e+00	0	44	102	1048576	6	3842
2026-01-05 05:38:14.52	248.95	30.16	-23.2	-23.6	17.8	2.64e-04	0	44	102	1048576	6	3780
2026-01-05 05:38:15.52	248.74	30.01	-23.1	-23.5	17.8	8.55e-04	0	44	102	1048576	6	3749
2026-01-05 05:38:16.53	248.53	29.85	-23.2	-23.7	17.8	0.00e+00	0	44	102	1048576	6	3805
2026-01-05 05:38:17.54	248.32	29.70	-23.3	-23.9	17.6	1.40e-03	0	43	102	1048576	6	3850
2026-01-05 05:38:18.55	248.12	29.55	-23.4	-24.2	17.5	1.91e-03	0	44	102	1048576	6	3922
2026-01-05 05:38:19.56	247.91	29.39	-23.4	-24.0	17.6	7.13e-04	0	44	102	1048576	6	3883
2026-01-05 05:38:20.56	247.72	29.24	-23.2	-23.7	17.8	1.90e-03	0	44	102	1048576	6	3809
2026-01-05 05:38:21.57	247.52	29.09	-23.2	-23.7	17.7	1.49e-04	0	44	102	1048576	6	3812
2026-01-05 05:38:22.57	247.32	28.94	-23.2	-23.7	17.7	9.10e-04	0	44	102	1048576	6	3820
2026-01-05 05:38:23.58	247.12	28.79	-23.3	-23.9	17.6	2.02e-03	0	43	102	1048576	6	3860
2026-01-05 05:38:24.59	246.93	28.64	-23.5	-24.2	17.4	2.50e-03	0	44	102	1048576	6	3936
2026-01-05 05:38:25.60	246.74	28.49	-23.5	-24.4	17.3	9.27e-04	0	43	102	1048576	6	3967
2026-01-05 05:38:26.60	246.55	28.34	-23.6	-24.0	17.3	2.96e-03	0	44	102	1048576	7	3779
2026-01-05 05:38:27.61	246.36	28.19	-23.6	-24.1	17.2	2.59e-03	0	43	102	1048576	7	3797
2026-01-05 05:38:28.62	246.18	28.04	-23.5	-24.4	17.3	8.03e-04	0	44	102	1048576	6	3978
2026-01-05 05:38:29.63	245.99	27.89	-23.5	-24.3	17.4	2.42e-03	0	44	102	1048576	6	3953
2026-01-05 05:38:30.62	245.81	27.75	-23.6	-24.4	17.3	2.07e-03	0	44	102	1048576	6	3985
2026-01-05 05:38:31.63	245.63	27.60	-23.4	-24.2	17.4	0.00e+00	0	44	102	1048576	6	3924
2026-01-05 05:38:32.64	245.45	27.45	-23.4	-24.2	17.4	1.74e-03	0	44	102	1048576	6	3916
2026-01-05 05:38:33.64	245.27	27.31	-23.5	-24.4	17.3	5.70e-06	0	44	102	1048576	6	3966
2026-01-05 05:38:34.65	245.10	27.16	-23.5	-24.3	17.3	0.00e+00	0	44	102	1048576	6	3956
2026-01-05 05:38:35.66	244.92	27.01	-23.4	-24.1	17.5	0.00e+00	0	44	102	1048576	6	3894
2026-01-05 05:38:36.67	244.75	26.87	-23.4	-24.2	17.4	5.70e-06	0	44	102	1048576	6	3923
2026-01-05 05:38:37.68	244.58	26.72	-23.4	-24.2	17.4	0.00e+00	0	44	102	1048576	6	3920
2026-01-05 05:38:38.69	244.41	26.58	-23.4	-24.0	17.5	0.00e+00	0	44	102	1048576	6	3882
2026-01-05 05:38:39.70	244.24	26.44	-23.4	-24.1	17.5	4.50e-06	0	44	102	1048576	6	3892
2026-01-05 05:38:40.71	244.07	26.29	-23.4	-24.1	17.5	0.00e+00	0	44	102	1048576	6	3893
2026-01-05 05:38:41.71	243.91	26.15	-23.4	-24.2	17.4	0.00e+00	0	44	102	1048576	6	3919
2026-01-05 05:38:42.72	243.75	26.01	-23.4	-24.1	17.4	0.00e+00	0	44	102	1048576	6	3907
2026-01-05 05:38:43.73	243.58	25.87	-23.4	-24.2	17.4	0.00e+00	0	44	102	1048576	6	3927
2026-01-05 05:38:44.74	243.42	25.73	-23.3	-23.9	17.5	0.00e+00	0	44	102	1048576	6	3857
2026-01-05 05:38:45.74	243.26	25.59	-23.2	-23.7	17.6	0.00e+00	0	44	102	1048576	6	3817
2026-01-05 05:38:46.75	243.11	25.45	-23.2	-23.7	17.6	0.00e+00	0	44	102	1048576	6	3800
2026-01-05 05:38:47.76	242.95	25.31	-23.3	-23.9	17.5	0.00e+00	0	44	102	1048576	6	3847
2026-01-05 05:38:48.76	242.80	25.17	-23.2	-23.6	17.7	0.00e+00	0	44	102	1048576	6	3790
2026-01-05 05:38:49.76	242.64	25.03	-23.0	-23.4	17.8	0.00e+00	0	44	102	1048576	6	3731
2026-01-05 05:38:50.77	242.49	24.89	-23.1	-23.9	17.8	0.00e+00	0	44	102	1048576	5	3969
2026-01-05 05:38:51.77	242.34	24.76	-23.2	-23.7	17.6	2.20e-06	0	44	102	1048576	6	3799
2026-01-05 05:38:52.78	242.19	24.62	-23.3	-24.0	17.5	0.00e+00	0	44	102	1048576	6	3870
2026-01-05 05:38:53.79	242.04	24.48	-23.5	-24.3	17.3	0.00e+00	0	44	102	1048576	6	3955
2026-01-05 05:38:54.80	241.89	24.35	-23.5	-24.4	17.2	0.00e+00	0	44	102	1048576	6	3985
2026-01-05 05:38:55.81	241.75	24.21	-23.6	-24.1	17.1	0.00e+00	0	44	102	1048576	7	3809
2026-01-05 05:38:56.81	241.61	24.08	-23.7	-24.2	17.1	0.00e+00	0	44	102	1048576	7	3824
2026-01-05 05:38:57.82	241.46	23.94	-23.6	-23.9	17.2	0.00e+00	0	44	102	1048576	7	3766
2026-01-05 05:38:58.83	241.32	23.81	-23.6	-24.0	17.2	0.00e+00	0	44	102	1048576	7	3767
2026-01-05 05:38:59.83	241.18	23.67	-23.5	-23.8	17.3	0.00e+00	0	44	102	1048576	7	3722
2026-01-05 05:39:00.83	241.04	23.54	-23.5	-23.7	17.3	0.00e+00	0	44	102	1048576	7	3712
2026-01-05 05:39:01.83	240.90	23.41	-23.5	-23.8	17.3	0.00e+00	0	44	102	1048576	7	3743
2026-01-05 05:39:02.84	240.77	23.28	-23.8	-24.4	17.0	0.00e+00	0	44	102	1048576	7	3870
2026-01-05 05:39:03.84	240.63	23.15	-23.7	-24.2	17.1	0.00e+00	0	44	102	1048576	7	3817
2026-01-05 05:39:04.85	240.50	23.02	-23.6	-24.0	17.2	0.00e+00	0	44	102	1048576	7	3772
2026-01-05 05:39:05.85	240.36	22.89	-23.7	-24.2	17.1	0.00e+00	0	43	102	1048576	7	3825
2026-01-05 05:39:06.86	240.23	22.76	-23.6	-23.9	17.2	0.00e+00	0	44	102	1048576	7	3758
2026-01-05 05:39:07.86	240.10	22.63	-23.5	-23.8	17.2	0.00e+00	0	44	102	1048576	7	3725
2026-01-05 05:39:08.87	239.97	22.50	-23.5	-24.3	17.2	0.00e+00	0	44	102	1048576	6	3958
2026-01-05 05:39:09.87	239.84	22.37	-23.4	-24.1	17.4	0.00e+00	0	44	102	1048576	6	3897
2026-01-05 05:39:10.88	239.71	22.24	-23.2	-23.7	17.5	0.00e+00	0	44	102	1048576	6	3807
2026-01-05 05:39:11.89	239.59	22.11	-23.2	-23.6	17.6	0.00e+00	0	44	102	1048576	6	3786
2026-01-05 05:39:12.89	239.46	21.99	-23.3	-23.8	17.5	0.00e+00	0	44	102	1048576	6	3830
2026-01-05 05:39:13.90	239.34	21.86	-23.3	-23.9	17.4	0.00e+00	0	44	102	1048576	6	3859
2026-01-05 05:39:14.91	239.21	21.73	-23.5	-24.2	17.3	0.00e+00	0	44	102	1048576	6	3936
2026-01-05 05:39:15.91	239.09	21.61	-23.5	-24.3	17.2	0.00e+00	0	44	102	1048576	6	3959
2026-01-05 05:39:16.91	238.97	21.48	-23.7	-24.2	17.0	0.00e+00	0	44	102	1048576	7	3830
2026-01-05 05:39:17.91	238.85	21.36	-23.7	-24.4	16.9	0.00e+00	0	44	102	1048576	7	3863
2026-01-05 05:39:18.92	238.73	21.24	-23.9	-24.7	16.7	0.00e+00	0	44	102	1048576	7	3950
2026-01-05 05:39:19.93	238.61	21.11	-23.9	-24.7	16.8	9.06e-04	0	44	102	1048576	7	3940
2026-01-05 05:39:20.93	238.49	20.99	-23.9	-24.8	16.7	0.00e+00	0	43	102	1048576	7	3967
2026-01-05 05:39:21.93	238.38	20.87	-23.9	-24.8	16.7	0.00e+00	0	44	102	1048576	7	3961
2026-01-05 05:39:22.94	238.26	20.74	-24.1	-25.0	16.6	8.98e-04	0	44	102	1048576	7	4021
2026-01-05 05:39:23.95	238.14	20.62	-24.0	-25.0	16.6	0.00e+00	0	44	102	1048576	7	4010
2026-01-05 05:39:24.96	238.03	20.50	-24.1	-24.7	16.5	0.00e+00	0	44	102	1048576	8	3831
2026-01-05 05:39:25.97	237.92	20.38	-24.3	-25.1	16.3	1.10e-06	0	44	102	1048576	8	3932
2026-01-05 05:39:26.97	237.80	20.26	-24.2	-24.9	16.4	9.36e-04	0	44	102	1048576	8	3871
2026-01-05 05:39:27.99	237.69	20.14	-24.2	-24.9	16.3	0.00e+00	0	44	102	1048576	8	3889
2026-01-05 05:39:28.99	237.58	20.02	-24.3	-25.0	16.3	0.00e+00	0	44	102	1048576	8	3921
2026-01-05 05:39:30.00	237.47	19.90	-24.3	-25.0	16.3	9.52e-04	0	44	102	1048576	8	3919
2026-01-05 05:39:31.00	237.36	19.78	-24.5	-25.4	16.1	0.00e+00	0	44	102	1048576	8	4016
2026-01-05 05:39:32.00	237.26	19.66	-24.3	-25.1	16.3	8.95e-04	0	44	102	1048576	8	3938
2026-01-05 05:39:33.01	237.15	19.55	-24.3	-25.0	16.3	8.08e-04	0	44	102	1048576	8	3918
2026-01-05 05:39:34.01	237.04	19.43	-24.3	-25.1	16.2	0.00e+00	0	43	102	1048576	8	3942
2026-01-05 05:39:35.02	236.94	19.31	-24.2	-24.9	16.3	4.60e-04	0	44	102	1048576	8	3888
2026-01-05 05:39:36.02	236.83	19.20	-24.2	-24.9	16.3	3.08e-04	0	44	102	1048576	8	3885
2026-01-05 05:39:37.03	236.73	19.08	-24.3	-25.1	16.2	0.00e+00	0	44	102	1048576	8	3938
2026-01-05 05:39:38.03	236.63	18.97	-24.2	-24.8	16.4	3.35e-04	0	44	102	1048576	8	3865
2026-01-05 05:39:39.04	236.52	18.85	-24.3	-24.9	16.3	1.79e-03	0	44	102	1048576	8	3898
2026-01-05 05:39:40.05	236.42	18.74	-24.1	-25.1	16.4	0.00e+00	0	44	102	1048576	7	4035
2026-01-05 05:39:41.05	236.32	18.62	-24.0	-24.9	16.5	2.07e-04	0	44	102	1048576	7	4001
2026-01-05 05:39:42.06	236.22	18.51	-24.0	-25.0	16.5	1.93e-04	0	44	102	1048576	7	4004
2026-01-05 05:39:43.07	236.12	18.39	-24.0	-24.9	16.6	3.90e-04	0	44	102	1048576	7	3985
2026-01-05 05:39:44.07	236.03	18.28	-24.2	-24.8	16.4	1.10e-03	0	44	102	1048576	8	3854
2026-01-05 05:39:45.08	235.93	18.17	-24.1	-24.5	16.5	4.57e-05	0	44	102	1048576	8	3790
2026-01-05 05:39:46.08	235.83	18.06	-24.3	-25.1	16.2	4.97e-04	0	44	102	1048576	8	3946
2026-01-05 05:39:47.09	235.73	17.95	-24.2	-24.7	16.4	0.00e+00	0	44	102	1048576	8	3845
2026-01-05 05:39:48.10	235.64	17.84	-24.0	-24.5	16.5	1.53e-03	0	44	102	1048576	8	3784
2026-01-05 05:39:49.11	235.54	17.72	-24.0	-25.0	16.5	7.08e-04	0	44	102	1048576	7	4021
2026-01-05 05:39:50.12	235.45	17.61	-24.2	-24.8	16.4	1.81e-03	0	44	102	1048576	8	3860
2026-01-05 05:39:51.12	235.36	17.50	-24.2	-24.8	16.3	1.72e-03	0	44	102	1048576	8	3876
2026-01-05 05:39:52.12	235.27	17.40	-24.3	-25.1	16.1	4.68e-04	0	44	102	1048576	8	3948
2026-01-05 05:39:53.12	235.17	17.29	-24.4	-25.2	16.1	1.70e-03	0	44	102	1048576	8	3950
2026-01-05 05:39:54.12	235.08	17.18	-24.5	-25.4	16.0	1.83e-03	0	44	102	1048576	8	4017
2026-01-05 05:39:55.12	234.99	17.07	-24.5	-25.4	16.0	3.71e-04	0	44	102	1048576	8	4008
2026-01-05 05:39:56.12	234.90	16.96	-24.6	-25.6	15.9	1.82e-03	0	44	102	1048576	8	4063
2026-01-05 05:39:57.13	234.81	16.86	-24.5	-25.5	15.9	1.69e-03	0	44	102	1048576	8	4026
2026-01-05 05:39:58.14	234.73	16.75	-24.5	-25.5	15.8	2.45e-04	0	44	102	1048576	8	4041
2026-01-05 05:39:59.15	234.64	16.64	-24.7	-25.4	15.7	1.63e-03	0	44	102	1048576	9	3915
2026-01-05 05:40:00.15	234.55	16.54	-24.8	-25.7	15.5	0.00e+00	0	44	102	1048576	9	3993
2026-01-05 05:40:01.16	234.46	16.43	-24.6	-25.3	15.8	6.75e-05	0	44	102	1048576	9	3869
2026-01-05 05:40:02.16	234.38	16.32	-24.5	-24.9	15.9	0.00e+00	0	44	102	1048576	9	3789
2026-01-05 05:40:03.17	234.29	16.22	-24.5	-25.0	15.9	1.18e-03	0	44	102	1048576	9	3797
2026-01-05 05:40:04.18	234.21	16.11	-24.6	-25.1	15.9	0.00e+00	0	44	102	1048576	9	3834
2026-01-05 05:40:05.19	234.12	16.01	-24.5	-25.0	15.9	0.00e+00	0	44	102	1048576	9	3803
2026-01-05 05:40:06.19	234.04	15.91	-24.5	-25.0	15.9	1.10e-03	0	44	102	1048576	9	3819
2026-01-05 05:40:07.19	233.96	15.80	-24.6	-25.1	15.8	0.00e+00	0	44	102	1048576	9	3838
2026-01-05 05:40:08.20	233.87	15.70	-24.6	-25.2	15.8	1.11e-03	0	44	102	1048576	9	3860
2026-01-05 05:40:09.21	233.79	15.60	-24.7	-25.5	15.7	0.00e+00	0	44	102	1048576	9	3920
2026-01-05 05:40:10.21	233.71	15.49	-24.7	-25.4	15.7	0.00e+00	0	44	102	1048576	9	3899
2026-01-05 05:40:11.22	233.63	15.39	-24.7	-25.5	15.6	0.00e+00	0	44	102	1048576	9	3925
2026-01-05 05:40:12.23	233.55	15.29	-24.9	-25.9	15.4	0.00e+00	0	44	102	1048576	9	4019
2026-01-05 05:40:13.23	233.47	15.19	-25.0	-26.0	15.3	0.00e+00	0	44	102	1048576	9	4062
2026-01-05 05:40:14.24	233.39	15.09	-25.0	-26.0	15.3	0.00e+00	0	44	102	1048576	9	4062
2026-01-05 05:40:15.24	233.31	14.99	-25.1	-25.8	15.2	0.00e+00	0	44	102	1048576	10	3892
2026-01-05 05:40:16.25	233.24	14.89	-25.1	-25.7	15.2	0.00e+00	0	44	102	1048576	10	3884
2026-01-05 05:40:17.26	233.16	14.79	-25.2	-25.9	15.1	0.00e+00	0	44	102	1048576	10	3930
2026-01-05 05:40:18.27	233.08	14.69	-25.2	-26.0	15.0	0.00e+00	0	44	102	1048576	10	3953
2026-01-05 05:40:19.28	233.00	14.59	-25.4	-26.4	14.8	0.00e+00	0	44	102	1048576	10	4053
2026-01-05 05:40:20.28	232.93	14.49	-25.3	-26.2	14.9	0.00e+00	0	44	102	1048576	10	4005
2026-01-05 05:40:21.29	232.85	14.39	-25.4	-26.6	14.7	1.10e-06	0	44	102	1048576	10	4091
2026-01-05 05:40:22.29	232.78	14.29	-25.3	-26.2	14.9	0.00e+00	0	44	102	1048576	10	3993
2026-01-05 05:40:23.30	232.70	14.19	-25.2	-26.1	15.0	0.00e+00	0	44	102	1048576	10	3978
2026-01-05 05:40:24.31	232.63	14.10	-25.3	-26.1	14.9	0.00e+00	0	44	102	1048576	10	3986
2026-01-05 05:40:25.31	232.56	14.00	-25.3	-26.2	14.9	0.00e+00	0	44	102	1048576	10	3996
2026-01-05 05:40:26.32	232.48	13.90	-25.3	-26.3	14.9	1.10e-06	0	44	102	1048576	10	4017
2026-01-05 05:40:27.33	232.41	13.81	-25.4	-26.5	14.7	1.10e-06	0	44	102	1048576	10	4074
2026-01-05 05:40:28.33	232.34	13.71	-25.4	-26.4	14.8	0.00e+00	0	44	102	1048576	10	4052
2026-01-05 05:40:29.34	232.27	13.61	-25.4	-26.5	14.7	1.10e-06	0	44	102	1048576	10	4078
2026-01-05 05:40:30.35	232.20	13.52	-25.4	-26.5	14.7	0.00e+00	0	44	102	1048576	10	4092
2026-01-05 05:40:31.35	232.13	13.42	-25.4	-26.6	14.6	0.00e+00	0	44	102	1048576	10	4106
2026-01-05 05:40:32.36	232.06	13.33	-25.5	-26.6	14.6	0.00e+00	0	44	102	1048576	10	4117
2026-01-05 05:40:33.36	231.99	13.24	-25.5	-26.7	14.6	0.00e+00	0	44	102	1048576	10	4139
2026-01-05 05:40:34.37	231.92	13.14	-25.6	-26.8	14.5	0.00e+00	0	44	102	1048576	10	4164
2026-01-05 05:40:35.38	231.85	13.05	-25.6	-26.5	14.4	0.00e+00	0	44	102	1048576	11	3976
2026-01-05 05:40:36.37	231.78	12.95	-25.7	-26.6	14.4	1.10e-06	0	44	102	1048576	11	3988
2026-01-05 05:40:37.38	231.72	12.86	-25.7	-26.7	14.2	0.00e+00	0	44	102	1048576	11	4044
2026-01-05 05:40:38.38	231.65	12.77	-25.7	-26.7	14.3	2.20e-06	0	44	102	1048576	11	4030
2026-01-05 05:40:39.39	231.58	12.68	-25.8	-26.9	14.2	4.50e-06	0	44	102	1048576	11	4074
2026-01-05 05:40:40.40	231.52	12.58	-25.8	-26.9	14.1	0.00e+00	0	44	102	1048576	11	4081
2026-01-05 05:40:41.41	231.45	12.49	-25.9	-27.0	14.1	2.20e-06	0	44	102	1048576	11	4109
2026-01-05 05:40:42.42	231.38	12.40	-25.8	-27.0	14.1	0.00e+00	0	44	102	1048576	11	4105
2026-01-05 05:40:43.42	231.32	12.31	-25.8	-27.0	14.1	2.20e-06	0	44	102	1048576	11	4107
2026-01-05 05:40:44.43	231.26	12.22	-25.9	-27.1	14.0	1.10e-06	0	44	102	1048576	11	4138
2026-01-05 05:40:45.45	231.19	12.13	-25.9	-27.1	14.0	3.40e-06	0	44	102	1048576	11	4141
2026-01-05 05:40:46.45	231.13	12.04	-25.9	-27.2	13.9	4.50e-06	0	44	102	1048576	11	4166
2026-01-05 05:40:47.46	231.06	11.94	-25.9	-27.2	13.9	5.70e-06	0	44	102	1048576	11	4157
2026-01-05 05:40:48.46	231.00	11.86	-25.9	-27.2	13.9	4.50e-06	0	44	102	1048576	11	4160
2026-01-05 05:40:49.46	230.94	11.77	-25.9	-27.2	13.9	6.80e-06	0	44	102	1048576	11	4159
2026-01-05 05:40:50.47	230.88	11.68	-26.0	-27.4	13.8	3.40e-06	0	44	102	1048576	11	4217
2026-01-05 05:40:51.47	230.81	11.59	-26.1	-27.1	13.6	9.10e-06	0	44	102	1048576	12	4051
2026-01-05 05:40:52.48	230.75	11.50	-26.2	-27.3	13.4	1.02e-05	0	44	102	1048576	12	4101
2026-01-05 05:40:53.49	230.69	11.41	-26.2	-27.4	13.4	2.40e-05	0	44	102	1048576	12	4127
2026-01-05 05:40:54.50	230.63	11.32	-26.1	-27.0	13.6	6.80e-06	0	44	102	1048576	12	4019
2026-01-05 05:40:55.51	230.57	11.23	-25.9	-26.8	13.7	1.02e-05	0	44	102	1048576	12	3990
2026-01-05 05:40:56.51	230.51	11.15	-25.4	-26.3	12.1	8.00e-06	0	44	102	1048576	12	4006
2026-01-05 05:40:57.52	230.45	11.06	-26.1	-27.1	12.8	4.83e-04	0	44	102	1048576	12	4023
2026-01-05 05:40:58.53	230.39	10.97	-26.2	-27.2	13.4	8.00e-06	0	44	102	1048576	12	4071
2026-01-05 05:40:59.53	230.33	10.89	-26.2	-27.3	13.4	2.51e-05	0	44	102	1048576	12	4079
2026-01-05 05:41:00.53	230.28	10.80	-26.0	-27.4	13.7	6.80e-06	0	44	102	1048576	11	4222
2026-01-05 05:41:01.53	230.22	10.71	-26.0	-27.4	13.7	4.50e-06	0	44	102	1048576	11	4230
2026-01-05 05:41:02.54	230.16	10.63	-26.0	-26.9	13.7	1.13e-03	0	44	102	1048576	12	3981
2026-01-05 05:41:03.55	230.10	10.54	-26.0	-27.3	13.8	8.00e-06	0	44	102	1048576	11	4185
2026-01-05 05:41:04.55	230.05	10.46	-26.0	-27.3	13.7	8.00e-06	0	44	102	1048576	11	4204
2026-01-05 05:41:05.56	229.99	10.37	-26.1	-27.5	13.6	1.23e-03	0	44	102	1048576	11	4250
2026-01-05 05:41:06.56	229.93	10.29	-26.0	-27.4	13.7	4.50e-06	0	44	102	1048576	11	4226
2026-01-05 05:41:07.57	229.88	10.20	-26.0	-26.9	13.6	1.27e-03	0	44	102	1048576	12	3978
2026-01-05 05:41:08.58	229.82	10.12	-26.1	-27.1	13.5	1.14e-05	0	44	102	1048576	12	4040
2026-01-05 05:41:09.59	229.77	10.03	-26.1	-27.0	13.5	1.74e-04	0	44	102	1048576	12	4023
2026-01-05 05:41:10.60	229.71	9.95	-26.1	-27.1	13.5	1.24e-03	0	44	102	1048576	12	4033
2026-01-05 05:41:11.60	229.66	9.87	-26.1	-27.1	13.5	6.80e-06	0	44	102	1048576	12	4046
2026-01-05 05:41:12.61	229.60	9.78	-26.1	-27.1	13.5	4.92e-05	0	44	102	1048576	12	4028
2026-01-05 05:41:13.62	229.55	9.70	-26.1	-27.0	13.5	8.44e-04	0	44	102	1048576	12	4021
2026-01-05 05:41:14.63	229.49	9.62	-26.1	-27.0	13.5	1.40e-03	0	44	102	1048576	12	4027
2026-01-05 05:41:15.64	229.44	9.53	-26.1	-27.1	13.4	2.40e-05	0	44	102	1048576	12	4038
2026-01-05 05:41:16.64	229.39	9.45	-26.1	-27.1	13.4	1.60e-03	0	44	102	1048576	12	4051
2026-01-05 05:41:17.65	229.33	9.37	-26.2	-27.2	13.3	1.62e-03	0	44	102	1048576	12	4080
2026-01-05 05:41:18.65	229.28	9.29	-26.2	-27.4	13.2	2.17e-05	0	44	102	1048576	12	4127
2026-01-05 05:41:19.66	229.23	9.21	-26.2	-27.4	13.2	1.76e-03	0	44	102	1048576	12	4134
2026-01-05 05:41:20.67	229.18	9.13	-26.2	-27.4	13.2	2.63e-05	0	44	102	1048576	12	4123
2026-01-05 05:41:21.67	229.13	9.05	-26.2	-27.4	13.2	2.40e-05	0	44	102	1048576	12	4136
2026-01-05 05:41:22.68	229.08	8.96	-26.2	-27.4	13.2	1.63e-03	0	44	102	1048576	12	4128
2026-01-05 05:41:23.69	229.02	8.88	-26.3	-27.6	13.1	3.20e-05	0	44	102	1048576	12	4174
2026-01-05 05:41:24.69	228.97	8.80	-26.3	-27.7	13.0	4.11e-05	0	44	102	1048576	12	4193
2026-01-05 05:41:25.70	228.92	8.72	-26.4	-27.8	12.9	4.34e-05	0	44	102	1048576	12	4245
2026-01-05 05:41:26.71	228.87	8.64	-26.4	-27.8	12.9	5.14e-05	0	44	102	1048576	12	4234
2026-01-05 05:41:27.72	228.82	8.56	-26.3	-27.6	13.1	3.77e-05	0	44	102	1048576	12	4180
2026-01-05 05:41:28.72	228.77	8.48	-26.3	-27.7	13.0	5.26e-05	0	44	102	1048576	12	4201
2026-01-05 05:41:29.73	228.73	8.41	-26.3	-27.6	13.0	1.57e-03	0	44	102	1048576	12	4182
2026-01-05 05:41:30.74	228.68	8.33	-26.4	-27.8	12.9	4.92e-05	0	44	102	1048576	12	4228
2026-01-05 05:41:31.75	228.63	8.25	-26.4	-27.8	12.9	5.95e-05	0	44	102	1048576	12	4237
2026-01-05 05:41:32.76	228.58	8.17	-26.3	-27.7	12.9	5.60e-05	0	44	102	1048576	12	4219
2026-01-05 05:41:33.77	228.53	8.09	-26.4	-27.8	12.9	6.29e-05	0	44	102	1048576	12	4239
2026-01-05 05:41:34.77	228.48	8.01	-26.4	-27.9	12.9	7.32e-05	0	44	102	1048576	12	4254
2026-01-05 05:41:35.78	228.44	7.93	-26.4	-27.9	12.8	6.29e-05	0	44	102	1048576	12	4270
2026-01-05 05:41:36.78	228.39	7.86	-26.6	-28.2	12.6	9.95e-05	0	44	102	1048576	12	4356
2026-01-05 05:41:37.79	228.34	7.78	-26.5	-28.2	12.6	9.84e-05	0	44	102	1048576	12	4342
2026-01-05 05:41:38.80	228.29	7.70	-26.6	-28.3	12.5	1.11e-04	0	44	102	1048576	12	4389
2026-01-05 05:41:39.81	228.25	7.62	-26.8	-28.3	12.2	2.17e-04	0	44	102	1048576	13	4270
2026-01-05 05:41:40.81	228.20	7.55	-27.1	-28.9	11.8	4.06e-04	0	44	102	1048576	13	4469
2026-01-05 05:41:41.81	228.16	7.47	-27.0	-28.7	12.0	4.26e-04	0	44	102	1048576	13	4392
2026-01-05 05:41:42.82	228.11	7.40	-26.8	-28.3	12.2	2.62e-04	0	44	102	1048576	13	4277
2026-01-05 05:41:43.83	228.06	7.32	-26.7	-28.0	12.4	1.86e-04	0	44	102	1048576	13	4193
2026-01-05 05:41:44.83	228.02	7.24	-26.6	-27.9	12.5	1.64e-04	0	44	102	1048576	13	4161
2026-01-05 05:41:45.84	227.97	7.17	-26.7	-28.1	12.4	1.74e-04	0	44	102	1048576	13	4211
2026-01-05 05:41:46.84	227.93	7.09	-26.8	-28.4	12.2	2.52e-04	0	44	102	1048576	13	4297
2026-01-05 05:41:47.85	227.89	7.02	-32.1	-40.7	3.8	8.47e-01	0	44	104	1048576	24	9712
2026-01-05 05:41:48.85	227.84	6.94	-32.6	-42.6	3.8	8.47e-01	0	44	104	1048576	24	11338

#Closed at: 2026-01-05 05:41:48
#Recorded file [1 MB]: D:/data/31010_260105_083019.dat