passes_logs/2026/01/05/R2M6_AANII_01/R2M6_AANII_01__20260105_102531_NOAA_21_JPSS-2_rec.log

#Pass ID: 20260105_102531_NOAA 21 (JPSS-2)
#Satellite: NOAA 21 (JPSS-2)
#Configuration: NOAA 21
#almurnet v.1.7.20240730
#Start time: 2026-01-05 10:27:23

#Version: 2.2.20231116
#Station: R2M6_AANII_01
#Location: 30.233357 lon 59.946436 lat
#TLE: 1 54234U 22150A   26004.22845673  .00000174  00000+0  10347-3 0  9996
#TLE: 2 54234  98.7489 305.2591 0001115 345.0884  15.0259 14.19531906163281

#Time	Az	El	Level	Level2	SNR	BER	BlckErr	Temp	State	Recorded	gain1	gain2
2026-01-05 10:27:23.94	165.07	17.74	-32.5	-43.6	3.8	8.45e-01	0	43	0	0	24	12871
2026-01-05 10:27:24.94	165.09	17.86	-33.5	-44.8	3.8	1.49e+00	0	44	104	0	28	13204
2026-01-05 10:27:25.95	165.11	17.98	-33.5	-44.8	3.8	1.49e+00	0	43	104	0	28	13263
2026-01-05 10:27:26.95	165.13	18.10	-33.5	-44.9	3.8	1.49e+00	0	43	104	0	28	13333
2026-01-05 10:27:27.96	165.15	18.23	-33.6	-45.0	3.8	1.49e+00	0	43	104	0	28	13411
2026-01-05 10:27:28.97	165.17	18.35	-33.6	-45.0	3.8	1.49e+00	0	43	104	0	28	13423
2026-01-05 10:27:29.98	165.19	18.47	-33.6	-45.1	3.8	1.49e+00	0	44	104	0	28	13468
2026-01-05 10:27:30.99	165.21	18.60	-33.6	-45.1	3.8	1.49e+00	0	44	104	0	28	13503
2026-01-05 10:27:31.99	165.23	18.72	-33.7	-45.2	3.8	1.49e+00	0	43	104	0	28	13538
2026-01-05 10:27:33.00	165.25	18.85	-33.7	-45.2	3.8	1.49e+00	0	43	104	0	28	13530
2026-01-05 10:27:34.00	165.27	18.97	-33.6	-45.2	3.8	1.49e+00	0	43	104	0	28	13551
2026-01-05 10:27:35.01	165.29	19.10	-33.6	-45.1	3.8	1.49e+00	0	43	104	0	28	13485
2026-01-05 10:27:36.02	165.31	19.23	-33.6	-45.1	3.8	1.49e+00	0	43	104	0	28	13462
2026-01-05 10:27:37.02	165.33	19.36	-33.6	-45.1	3.8	1.49e+00	0	43	104	0	28	13470
2026-01-05 10:27:38.03	165.35	19.49	-33.6	-45.1	3.8	1.49e+00	0	43	104	0	28	13457
2026-01-05 10:27:39.04	165.37	19.62	-33.6	-45.0	3.8	1.49e+00	0	44	104	0	28	13419
2026-01-05 10:27:40.05	165.39	19.75	-33.6	-45.1	3.8	1.49e+00	0	43	104	0	28	13470
2026-01-05 10:27:41.06	165.41	19.88	-33.6	-45.1	3.8	1.49e+00	0	43	104	0	28	13442
2026-01-05 10:27:42.07	165.43	20.01	-33.6	-45.1	3.8	1.49e+00	0	43	104	0	28	13445
2026-01-05 10:27:43.08	165.45	20.14	-33.6	-45.1	3.8	1.49e+00	0	44	104	0	28	13431
2026-01-05 10:27:44.08	165.48	20.27	-33.6	-45.1	3.8	1.49e+00	0	43	104	0	28	13495
2026-01-05 10:27:45.09	165.50	20.41	-33.6	-45.1	3.8	1.49e+00	0	44	104	0	28	13465
2026-01-05 10:27:46.10	165.52	20.54	-33.6	-45.0	3.8	1.49e+00	0	43	104	0	28	13413
2026-01-05 10:27:47.11	165.54	20.68	-33.5	-44.9	3.8	1.49e+00	0	44	104	0	28	13338
2026-01-05 10:27:48.11	165.56	20.81	-33.5	-44.9	3.8	1.49e+00	0	43	104	0	28	13347
2026-01-05 10:27:49.11	165.59	20.95	-33.5	-44.8	3.8	1.49e+00	0	43	104	0	28	13284
2026-01-05 10:27:50.12	165.61	21.09	-33.4	-44.7	3.8	1.49e+00	0	44	104	0	28	13257
2026-01-05 10:27:51.12	165.63	21.23	-33.4	-44.6	3.8	1.49e+00	0	43	104	0	28	13162
2026-01-05 10:27:52.13	165.66	21.36	-33.3	-44.5	3.8	1.49e+00	0	44	104	0	28	13061
2026-01-05 10:27:53.14	165.68	21.50	-33.3	-44.5	3.8	1.49e+00	0	44	104	0	28	13016
2026-01-05 10:27:54.15	165.70	21.65	-33.3	-45.1	3.8	1.49e+00	0	43	104	0	27	13869
2026-01-05 10:27:55.15	165.73	21.79	-33.3	-45.0	3.8	1.49e+00	0	43	104	0	27	13829
2026-01-05 10:27:56.16	165.75	21.93	-33.2	-44.7	3.8	1.49e+00	0	44	104	0	27	13521
2026-01-05 10:27:57.17	165.77	22.07	-32.9	-42.5	3.8	1.49e+00	0	44	104	0	27	10786
2026-01-05 10:27:58.17	165.80	22.21	-33.0	-43.7	3.8	1.49e+00	0	43	104	0	27	12325
2026-01-05 10:27:59.18	165.82	22.36	-33.0	-43.6	3.8	1.49e+00	0	44	104	0	27	12143
2026-01-05 10:28:00.19	165.85	22.50	-33.0	-43.4	3.8	1.49e+00	0	44	104	0	27	11886
2026-01-05 10:28:01.19	165.87	22.65	-33.0	-43.1	3.8	1.49e+00	0	43	104	0	27	11568
2026-01-05 10:28:02.20	165.90	22.80	-33.0	-42.8	3.8	1.49e+00	0	44	104	0	27	11243
2026-01-05 10:28:03.21	165.92	22.95	-32.9	-42.8	3.8	1.49e+00	0	43	104	0	27	11247
2026-01-05 10:28:04.22	165.95	23.09	-33.0	-43.0	3.8	1.49e+00	0	43	104	0	27	11426
2026-01-05 10:28:05.22	165.97	23.24	-33.0	-43.4	3.8	1.49e+00	0	44	104	0	27	11860
2026-01-05 10:28:06.23	166.00	23.39	-33.0	-43.5	3.8	1.49e+00	0	43	104	0	27	12091
2026-01-05 10:28:07.24	166.02	23.54	-33.0	-43.1	3.8	1.49e+00	0	43	104	0	27	11530
2026-01-05 10:28:08.24	166.05	23.70	-32.8	-41.8	3.8	1.48e+00	0	44	104	0	27	10127
2026-01-05 10:28:09.25	166.08	23.85	-32.6	-40.4	4.4	1.44e+00	0	44	104	0	26	8783
2026-01-05 10:28:10.26	166.10	24.00	-32.4	-39.5	4.0	1.47e+00	0	44	104	0	26	8157
2026-01-05 10:28:11.27	166.13	24.16	-32.2	-38.3	5.5	5.29e-01	0	43	104	0	25	7292
2026-01-05 10:28:12.27	166.16	24.31	-32.0	-37.6	5.9	3.87e-01	0	44	102	1048576	25	6813
2026-01-05 10:28:13.28	166.18	24.47	-31.8	-36.5	6.6	2.34e-01	0	43	102	1048576	25	6170
2026-01-05 10:28:14.29	166.21	24.63	-31.5	-35.8	7.4	1.50e-01	0	43	102	1048576	24	5918
2026-01-05 10:28:15.29	166.24	24.79	-30.9	-34.4	8.7	5.51e-02	0	44	102	1048576	23	5351
2026-01-05 10:28:16.29	166.27	24.94	-30.3	-33.0	10.0	1.23e-02	0	44	102	1048576	22	4893
2026-01-05 10:28:17.30	166.30	25.10	-29.6	-32.1	11.3	1.92e-03	0	44	102	1048576	20	4790
2026-01-05 10:28:18.31	166.33	25.27	-29.3	-31.7	12.0	3.65e-04	0	44	102	1048576	19	4737
2026-01-05 10:28:19.31	166.35	25.43	-29.7	-32.8	11.2	8.46e-04	0	43	102	1048576	19	5118
2026-01-05 10:28:20.32	166.38	25.59	-29.9	-32.8	10.8	2.75e-03	0	44	102	1048576	20	5035
2026-01-05 10:28:21.33	166.41	25.76	-29.7	-32.2	11.2	1.65e-03	0	44	102	1048576	20	4826
2026-01-05 10:28:22.34	166.44	25.92	-29.5	-31.7	11.6	8.14e-04	0	43	102	1048576	20	4633
2026-01-05 10:28:23.34	166.47	26.09	-29.5	-31.8	11.5	8.89e-04	0	44	102	1048576	20	4691
2026-01-05 10:28:24.35	166.50	26.26	-29.5	-31.9	11.5	6.93e-04	0	44	102	1048576	20	4698
2026-01-05 10:28:25.36	166.53	26.42	-29.7	-32.4	11.1	1.28e-03	0	43	102	1048576	20	4882
2026-01-05 10:28:26.37	166.56	26.59	-30.0	-33.2	10.6	3.55e-03	0	44	102	1048576	20	5176
2026-01-05 10:28:27.37	166.59	26.76	-29.7	-32.2	11.3	1.86e-03	0	44	102	1048576	20	4801
2026-01-05 10:28:28.39	166.63	26.94	-29.1	-31.2	12.2	3.92e-04	0	43	102	1048576	19	4580
2026-01-05 10:28:29.39	166.66	27.11	-28.7	-30.5	13.0	6.25e-05	0	43	102	1048576	18	4469
2026-01-05 10:28:30.40	166.69	27.28	-28.1	-29.7	13.8	9.10e-06	0	43	102	1048576	17	4338
2026-01-05 10:28:31.40	166.72	27.46	-27.8	-29.0	14.2	1.50e-06	0	44	102	1048576	17	4120
2026-01-05 10:28:32.41	166.75	27.63	-27.5	-28.8	14.6	7.00e-07	0	44	102	1048576	16	4176
2026-01-05 10:28:33.42	166.79	27.81	-27.3	-28.4	14.8	0.00e+00	0	44	102	1048576	16	4063
2026-01-05 10:28:34.43	166.82	27.99	-26.9	-28.0	15.2	0.00e+00	0	44	102	1048576	15	4076
2026-01-05 10:28:35.43	166.85	28.17	-26.9	-28.0	15.2	0.00e+00	0	44	102	1048576	15	4059
2026-01-05 10:28:36.43	166.89	28.35	-26.9	-27.8	15.3	0.00e+00	0	44	102	1048576	15	4029
2026-01-05 10:28:37.44	166.92	28.53	-26.9	-27.9	15.2	0.00e+00	0	43	102	1048576	15	4044
2026-01-05 10:28:38.45	166.96	28.71	-26.9	-27.9	15.3	3.80e-06	0	43	102	1048576	15	4035
2026-01-05 10:28:39.45	166.99	28.90	-26.9	-27.8	15.3	0.00e+00	0	43	102	1048576	15	4018
2026-01-05 10:28:40.46	167.03	29.08	-26.8	-27.7	15.3	0.00e+00	0	43	102	1048576	15	3998
2026-01-05 10:28:41.47	167.06	29.27	-26.8	-28.2	15.4	1.50e-06	0	43	102	1048576	14	4221
2026-01-05 10:28:42.47	167.10	29.46	-26.7	-27.9	15.5	0.00e+00	0	44	102	1048576	14	4152
2026-01-05 10:28:43.48	167.14	29.65	-26.6	-27.8	15.6	0.00e+00	0	43	102	1048576	14	4116
2026-01-05 10:28:44.49	167.17	29.84	-26.6	-27.8	15.6	0.00e+00	0	44	102	1048576	14	4112
2026-01-05 10:28:45.49	167.21	30.03	-26.6	-27.8	15.6	0.00e+00	0	44	102	1048576	14	4115
2026-01-05 10:28:46.50	167.25	30.22	-26.5	-27.5	15.8	0.00e+00	0	44	102	1048576	14	4049
2026-01-05 10:28:47.51	167.29	30.41	-26.5	-27.6	15.7	1.29e-05	0	44	102	1048576	14	4066
2026-01-05 10:28:48.52	167.32	30.61	-26.5	-27.5	15.8	0.00e+00	0	44	102	1048576	14	4036
2026-01-05 10:28:49.53	167.36	30.81	-26.5	-27.6	15.7	0.00e+00	0	43	102	1048576	14	4070
2026-01-05 10:28:50.53	167.40	31.01	-26.5	-27.6	15.8	0.00e+00	0	44	102	1048576	14	4068
2026-01-05 10:28:51.53	167.44	31.20	-26.6	-27.6	15.7	7.00e-07	0	44	102	1048576	14	4074
2026-01-05 10:28:52.54	167.48	31.40	-26.6	-27.7	15.7	0.00e+00	0	43	102	1048576	14	4094
2026-01-05 10:28:53.54	167.52	31.61	-26.6	-27.8	15.7	0.00e+00	0	43	102	1048576	14	4119
2026-01-05 10:28:54.54	167.56	31.81	-26.6	-27.8	15.6	0.00e+00	0	44	102	1048576	14	4112
2026-01-05 10:28:55.55	167.61	32.01	-26.8	-28.1	15.5	0.00e+00	0	44	102	1048576	14	4192
2026-01-05 10:28:56.55	167.65	32.22	-26.7	-28.0	15.5	0.00e+00	0	43	102	1048576	14	4168
2026-01-05 10:28:57.56	167.69	32.43	-26.5	-27.6	15.8	0.00e+00	0	43	102	1048576	14	4061
2026-01-05 10:28:58.57	167.73	32.64	-26.5	-27.4	15.8	0.00e+00	0	43	102	1048576	14	4022
2026-01-05 10:28:59.57	167.78	32.84	-26.5	-27.5	15.8	0.00e+00	0	44	102	1048576	14	4037
2026-01-05 10:29:00.58	167.82	33.06	-26.6	-27.7	15.7	0.00e+00	0	43	102	1048576	14	4103
2026-01-05 10:29:01.59	167.87	33.27	-26.7	-27.9	15.6	0.00e+00	0	44	102	1048576	14	4157
2026-01-05 10:29:02.59	167.91	33.49	-26.6	-27.7	15.8	0.00e+00	0	43	102	1048576	14	4076
2026-01-05 10:29:03.60	167.96	33.70	-26.6	-27.7	15.7	0.00e+00	0	43	102	1048576	14	4102
2026-01-05 10:29:04.61	168.00	33.92	-26.7	-28.0	15.5	0.00e+00	0	43	102	1048576	14	4178
2026-01-05 10:29:05.61	168.05	34.14	-26.8	-28.3	15.4	0.00e+00	0	44	102	1048576	14	4244
2026-01-05 10:29:06.62	168.10	34.36	-27.0	-28.5	15.3	0.00e+00	0	43	102	1048576	14	4315
2026-01-05 10:29:07.62	168.15	34.58	-27.0	-28.7	15.2	0.00e+00	0	43	102	1048576	14	4368
2026-01-05 10:29:08.63	168.19	34.81	-27.2	-29.1	14.9	0.00e+00	0	43	102	1048576	14	4466
2026-01-05 10:29:09.64	168.24	35.03	-27.3	-29.3	14.9	0.00e+00	0	44	102	1048576	14	4527
2026-01-05 10:29:10.65	168.29	35.26	-27.3	-29.3	14.8	0.00e+00	0	43	102	1048576	14	4529
2026-01-05 10:29:11.66	168.35	35.49	-27.4	-29.5	14.7	0.00e+00	0	43	102	1048576	14	4605
2026-01-05 10:29:12.67	168.40	35.72	-27.5	-29.7	14.6	0.00e+00	0	43	102	1048576	14	4649
2026-01-05 10:29:13.68	168.45	35.96	-27.4	-29.5	14.7	0.00e+00	0	44	102	1048576	14	4591
2026-01-05 10:29:14.69	168.50	36.19	-27.4	-29.6	14.7	0.00e+00	0	43	102	1048576	14	4620
2026-01-05 10:29:15.69	168.56	36.43	-27.4	-29.4	14.8	0.00e+00	0	44	102	1048576	14	4573
2026-01-05 10:29:16.70	168.61	36.66	-27.5	-29.4	14.5	7.00e-07	0	44	102	1048576	15	4447
2026-01-05 10:29:17.71	168.66	36.90	-27.7	-29.8	14.3	7.00e-07	0	43	102	1048576	15	4565
2026-01-05 10:29:18.70	168.72	37.14	-27.9	-30.3	14.0	7.00e-07	0	44	102	1048576	15	4714
2026-01-05 10:29:19.71	168.78	37.38	-28.2	-30.5	13.8	2.20e-06	0	43	102	1048576	16	4661
2026-01-05 10:29:20.72	168.83	37.63	-28.3	-30.7	13.6	4.50e-06	0	43	102	1048576	16	4732
2026-01-05 10:29:21.73	168.89	37.88	-28.4	-30.8	13.6	1.14e-05	0	43	102	1048576	16	4769
2026-01-05 10:29:22.73	168.95	38.12	-28.4	-30.8	13.5	1.06e-05	0	43	102	1048576	16	4779
2026-01-05 10:29:23.74	169.01	38.37	-28.2	-30.5	13.8	6.10e-06	0	43	102	1048576	16	4652
2026-01-05 10:29:24.74	169.07	38.62	-28.3	-30.5	13.7	6.10e-06	0	43	102	1048576	16	4675
2026-01-05 10:29:25.76	169.13	38.88	-28.1	-30.1	14.0	2.20e-06	0	43	102	1048576	16	4540
2026-01-05 10:29:26.76	169.20	39.13	-28.1	-30.2	13.9	0.00e+00	0	43	102	1048576	16	4559
2026-01-05 10:29:27.77	169.26	39.39	-28.1	-30.1	13.9	5.30e-06	0	44	102	1048576	16	4553
2026-01-05 10:29:28.78	169.32	39.65	-28.2	-30.3	13.8	3.80e-06	0	44	102	1048576	16	4601
2026-01-05 10:29:29.78	169.39	39.91	-28.1	-30.1	14.0	3.80e-06	0	44	102	1048576	16	4552
2026-01-05 10:29:30.79	169.45	40.17	-27.9	-29.7	14.2	2.20e-06	0	43	102	1048576	16	4410
2026-01-05 10:29:31.79	169.52	40.44	-27.8	-29.3	14.5	1.50e-06	0	44	102	1048576	16	4316
2026-01-05 10:29:32.80	169.59	40.70	-28.0	-29.9	14.2	0.00e+00	0	44	102	1048576	16	4464
2026-01-05 10:29:33.81	169.66	40.97	-28.0	-29.8	14.2	0.00e+00	0	43	102	1048576	16	4454
2026-01-05 10:29:34.81	169.73	41.24	-28.1	-30.2	14.0	4.50e-06	0	44	102	1048576	16	4575
2026-01-05 10:29:35.82	169.80	41.51	-28.2	-30.4	13.8	7.00e-07	0	43	102	1048576	16	4642
2026-01-05 10:29:36.83	169.88	41.79	-28.3	-30.5	13.7	4.50e-06	0	44	102	1048576	16	4662
2026-01-05 10:29:37.84	169.95	42.07	-28.4	-30.8	13.5	6.80e-06	0	44	102	1048576	16	4768
2026-01-05 10:29:38.85	170.03	42.35	-28.5	-30.6	13.4	1.44e-05	0	43	102	1048576	17	4595
2026-01-05 10:29:39.86	170.10	42.63	-28.8	-31.2	13.0	2.28e-05	0	43	102	1048576	17	4785
2026-01-05 10:29:40.87	170.18	42.91	-28.9	-31.6	12.8	6.86e-05	0	44	102	1048576	17	4903
2026-01-05 10:29:41.88	170.26	43.20	-29.1	-31.5	12.6	9.15e-05	0	44	102	1048576	18	4743
2026-01-05 10:29:42.88	170.34	43.48	-29.2	-31.9	12.3	1.35e-04	0	44	102	1048576	18	4894
2026-01-05 10:29:43.89	170.42	43.77	-29.2	-31.8	12.5	1.32e-04	0	44	102	1048576	18	4844
2026-01-05 10:29:44.89	170.50	44.06	-29.0	-31.4	12.7	7.55e-05	0	43	102	1048576	18	4709
2026-01-05 10:29:45.90	170.59	44.36	-29.1	-31.6	12.6	8.23e-05	0	43	102	1048576	18	4783
2026-01-05 10:29:46.90	170.68	44.65	-29.1	-31.5	12.6	8.85e-05	0	43	102	1048576	18	4748
2026-01-05 10:29:47.91	170.76	44.95	-29.0	-31.2	12.8	7.24e-05	0	43	102	1048576	18	4679
2026-01-05 10:29:48.93	170.85	45.25	-29.1	-31.5	12.6	1.07e-04	0	44	102	1048576	18	4759
2026-01-05 10:29:49.93	170.94	45.55	-29.3	-31.9	12.4	1.27e-04	0	43	102	1048576	18	4905
2026-01-05 10:29:50.94	171.04	45.86	-29.5	-32.5	12.0	2.40e-04	0	44	102	1048576	18	5085
2026-01-05 10:29:51.95	171.13	46.16	-29.6	-32.3	11.8	4.76e-04	0	43	102	1048576	19	4926
2026-01-05 10:29:52.96	171.23	46.47	-29.6	-32.3	11.9	5.30e-04	0	44	102	1048576	19	4914
2026-01-05 10:29:53.97	171.33	46.78	-29.5	-32.2	11.8	4.90e-04	0	44	102	1048576	19	4912
2026-01-05 10:29:54.98	171.43	47.10	-29.5	-32.1	11.9	4.13e-04	0	44	102	1048576	19	4879
2026-01-05 10:29:55.99	171.53	47.42	-29.3	-31.6	12.2	2.15e-04	0	44	102	1048576	19	4678
2026-01-05 10:29:56.99	171.63	47.73	-29.1	-31.2	12.6	1.19e-04	0	43	102	1048576	19	4543
2026-01-05 10:29:58.00	171.74	48.05	-29.1	-31.0	12.7	6.86e-05	0	43	102	1048576	19	4490
2026-01-05 10:29:59.01	171.85	48.37	-29.2	-31.2	12.5	9.99e-05	0	43	102	1048576	19	4575
2026-01-05 10:30:00.02	171.96	48.70	-28.9	-30.6	12.9	5.64e-05	0	44	102	1048576	19	4368
2026-01-05 10:30:01.02	172.07	49.02	-28.8	-30.8	13.1	1.83e-05	0	44	102	1048576	18	4541
2026-01-05 10:30:02.03	172.19	49.35	-28.5	-30.1	13.6	1.60e-05	0	43	102	1048576	18	4308
2026-01-05 10:30:03.03	172.30	49.68	-28.4	-29.9	13.7	3.80e-06	0	43	102	1048576	18	4247
2026-01-05 10:30:04.04	172.43	50.02	-28.5	-30.0	13.6	9.10e-06	0	43	102	1048576	18	4282
2026-01-05 10:30:05.05	172.55	50.35	-28.7	-30.6	13.2	1.44e-05	0	43	102	1048576	18	4467
2026-01-05 10:30:06.06	172.67	50.69	-28.3	-29.6	13.8	3.80e-06	0	43	102	1048576	18	4157
2026-01-05 10:30:07.07	172.80	51.04	-28.2	-29.9	14.0	7.00e-07	0	43	102	1048576	17	4352
2026-01-05 10:30:08.07	172.93	51.38	-28.1	-29.6	14.1	1.50e-06	0	43	102	1048576	17	4273
2026-01-05 10:30:09.08	173.07	51.72	-28.3	-30.1	13.8	3.80e-06	0	43	102	1048576	17	4423
2026-01-05 10:30:10.09	173.20	52.07	-28.0	-29.4	14.2	3.80e-06	0	44	102	1048576	17	4222
2026-01-05 10:30:11.09	173.34	52.42	-27.6	-29.0	14.7	0.00e+00	0	43	102	1048576	16	4202
2026-01-05 10:30:12.10	173.49	52.77	-27.7	-29.0	14.8	7.00e-07	0	44	102	1048576	16	4214
2026-01-05 10:30:13.11	173.64	53.13	-27.4	-28.5	15.1	7.00e-07	0	43	102	1048576	16	4061
2026-01-05 10:30:14.12	173.79	53.49	-27.0	-28.1	15.3	0.00e+00	0	44	102	1048576	15	4073
2026-01-05 10:30:15.13	173.94	53.85	-26.9	-27.8	15.5	0.00e+00	0	43	102	1048576	15	4012
2026-01-05 10:30:16.13	174.10	54.21	-26.7	-28.0	15.7	0.00e+00	0	43	102	1048576	14	4153
2026-01-05 10:30:17.14	174.26	54.57	-26.4	-27.3	16.1	0.00e+00	0	43	102	1048576	14	3962
2026-01-05 10:30:18.15	174.43	54.94	-26.4	-27.3	16.1	0.00e+00	0	43	102	1048576	14	3976
2026-01-05 10:30:19.15	174.60	55.31	-26.5	-27.6	16.0	0.00e+00	0	43	102	1048576	14	4043
2026-01-05 10:30:20.16	174.77	55.68	-26.5	-27.5	16.0	0.00e+00	0	43	102	1048576	14	4021
2026-01-05 10:30:21.17	174.95	56.05	-26.6	-27.6	15.9	0.00e+00	0	43	102	1048576	14	4059
2026-01-05 10:30:22.18	175.13	56.43	-26.6	-27.6	15.9	0.00e+00	0	44	102	1048576	14	4064
2026-01-05 10:30:23.19	175.32	56.81	-26.8	-28.1	15.7	0.00e+00	0	43	102	1048576	14	4188
2026-01-05 10:30:24.20	175.52	57.19	-26.8	-28.1	15.7	0.00e+00	0	44	102	1048576	14	4196
2026-01-05 10:30:25.21	175.72	57.57	-26.7	-28.0	15.8	0.00e+00	0	44	102	1048576	14	4156
2026-01-05 10:30:26.22	175.93	57.96	-26.6	-27.7	15.9	0.00e+00	0	43	102	1048576	14	4082
2026-01-05 10:30:27.23	176.14	58.35	-26.3	-27.0	16.3	0.00e+00	0	44	102	1048576	14	3891
2026-01-05 10:30:28.23	176.35	58.73	-26.0	-26.9	16.6	0.00e+00	0	43	102	1048576	13	3976
2026-01-05 10:30:29.24	176.58	59.12	-26.2	-27.2	16.4	0.00e+00	0	43	102	1048576	13	4044
2026-01-05 10:30:30.25	176.81	59.52	-26.2	-27.2	16.4	0.00e+00	0	43	102	1048576	13	4063
2026-01-05 10:30:31.26	177.05	59.91	-26.1	-27.1	16.5	0.00e+00	0	43	102	1048576	13	4043
2026-01-05 10:30:32.27	177.29	60.31	-25.8	-26.8	16.9	0.00e+00	0	44	102	1048576	12	4063
2026-01-05 10:30:33.28	177.54	60.71	-25.6	-26.5	17.1	0.00e+00	0	44	102	1048576	12	3985
2026-01-05 10:30:34.28	177.80	61.11	-25.7	-26.6	17.0	0.00e+00	0	43	102	1048576	12	4006
2026-01-05 10:30:35.28	178.07	61.51	-25.5	-26.2	17.3	0.00e+00	0	44	102	1048576	12	3901
2026-01-05 10:30:36.30	178.35	61.92	-25.5	-26.3	17.3	0.00e+00	0	44	102	1048576	12	3932
2026-01-05 10:30:37.30	178.63	62.33	-25.5	-26.1	17.3	0.00e+00	0	43	102	1048576	12	3889
2026-01-05 10:30:38.31	178.93	62.74	-25.3	-26.3	17.6	0.00e+00	0	43	102	1048576	11	4021
2026-01-05 10:30:39.32	179.24	63.15	-25.3	-26.2	17.6	0.00e+00	0	43	102	1048576	11	4019
2026-01-05 10:30:40.32	179.55	63.56	-25.4	-26.5	17.5	0.00e+00	0	43	102	1048576	11	4071
2026-01-05 10:30:41.33	179.88	63.97	-25.2	-26.1	17.7	0.00e+00	0	43	102	1048576	11	3984
2026-01-05 10:30:42.34	180.22	64.39	-25.1	-25.9	17.8	0.00e+00	0	43	102	1048576	11	3938
2026-01-05 10:30:43.34	180.57	64.81	-25.1	-25.8	17.8	0.00e+00	0	43	102	1048576	11	3919
2026-01-05 10:30:44.35	180.94	65.23	-25.2	-26.0	17.7	0.00e+00	0	44	102	1048576	11	3968
2026-01-05 10:30:45.35	181.32	65.64	-25.4	-26.6	17.5	0.00e+00	0	43	102	1048576	11	4106
2026-01-05 10:30:46.37	181.72	66.07	-25.5	-26.6	17.4	7.00e-07	0	43	102	1048576	11	4118
2026-01-05 10:30:47.37	182.12	66.49	-25.6	-26.9	17.3	0.00e+00	0	43	102	1048576	11	4193
2026-01-05 10:30:48.38	182.55	66.91	-25.6	-26.9	17.2	0.00e+00	0	43	102	1048576	11	4188
2026-01-05 10:30:49.39	182.99	67.34	-25.6	-27.0	17.3	3.00e-06	0	43	102	1048576	11	4203
2026-01-05 10:30:50.39	183.45	67.76	-25.5	-26.7	17.4	0.00e+00	0	43	102	1048576	11	4142
2026-01-05 10:30:51.40	183.93	68.19	-25.7	-27.2	17.1	0.00e+00	0	43	102	1048576	11	4259
2026-01-05 10:30:52.41	184.44	68.62	-25.9	-27.5	16.9	3.80e-06	0	44	102	1048576	11	4354
2026-01-05 10:30:53.41	184.96	69.04	-26.0	-27.8	16.8	0.00e+00	0	43	102	1048576	11	4421
2026-01-05 10:30:54.42	185.51	69.47	-25.9	-27.2	16.8	0.00e+00	0	43	102	1048576	12	4153
2026-01-05 10:30:55.43	186.08	69.90	-25.5	-26.2	17.3	5.30e-06	0	44	102	1048576	12	3905
2026-01-05 10:30:56.44	186.68	70.32	-25.1	-25.8	17.9	0.00e+00	0	44	102	1048576	11	3899
2026-01-05 10:30:57.44	187.30	70.75	-25.0	-25.6	18.0	0.00e+00	0	43	102	1048576	11	3849
2026-01-05 10:30:58.45	187.96	71.18	-25.0	-25.7	17.9	0.00e+00	0	43	102	1048576	11	3880
2026-01-05 10:30:59.45	188.64	71.60	-25.3	-26.4	17.6	0.00e+00	0	43	102	1048576	11	4054
2026-01-05 10:31:00.45	189.36	72.02	-25.5	-26.7	17.4	0.00e+00	0	43	102	1048576	11	4134
2026-01-05 10:31:01.46	190.12	72.45	-25.4	-26.5	17.5	4.50e-06	0	43	102	1048576	11	4093
2026-01-05 10:31:02.46	190.91	72.87	-25.5	-26.7	17.3	0.00e+00	0	43	102	1048576	11	4139
2026-01-05 10:31:03.47	191.76	73.29	-25.3	-26.3	17.5	0.00e+00	0	43	102	1048576	11	4034
2026-01-05 10:31:04.48	192.64	73.71	-25.2	-26.0	17.8	0.00e+00	0	44	102	1048576	11	3950
2026-01-05 10:31:05.48	193.57	74.12	-25.1	-25.8	17.9	0.00e+00	0	43	102	1048576	11	3904
2026-01-05 10:31:06.49	194.56	74.54	-25.3	-26.2	17.7	0.00e+00	0	44	102	1048576	11	4009
2026-01-05 10:31:07.50	195.61	74.95	-25.4	-26.6	17.3	7.60e-06	0	43	102	1048576	11	4114
2026-01-05 10:31:08.51	196.71	75.36	-25.0	-25.6	17.8	0.00e+00	0	44	102	1048576	11	3858
2026-01-05 10:31:09.51	197.87	75.75	-25.0	-25.6	17.9	0.00e+00	0	44	102	1048576	11	3860
2026-01-05 10:31:10.51	199.10	76.15	-25.1	-25.8	17.9	0.00e+00	0	43	102	1048576	11	3901
2026-01-05 10:31:11.52	200.41	76.54	-25.4	-26.4	17.6	0.00e+00	0	43	102	1048576	11	4050
2026-01-05 10:31:12.52	201.79	76.92	-25.4	-26.6	17.5	0.00e+00	0	43	102	1048576	11	4100
2026-01-05 10:31:13.53	203.28	77.30	-25.5	-26.7	17.4	0.00e+00	0	43	102	1048576	11	4121
2026-01-05 10:31:14.53	204.83	77.67	-25.6	-27.0	17.3	0.00e+00	0	43	102	1048576	11	4210
2026-01-05 10:31:15.54	206.50	78.04	-25.3	-26.2	17.7	0.00e+00	0	43	102	1048576	11	4010
2026-01-05 10:31:16.54	208.26	78.39	-25.0	-25.6	18.0	0.00e+00	0	43	102	1048576	11	3847
2026-01-05 10:31:17.56	210.17	78.73	-25.3	-26.2	17.7	0.00e+00	0	44	102	1048576	11	3993
2026-01-05 10:31:18.56	212.16	79.06	-25.4	-26.5	17.5	0.00e+00	0	43	102	1048576	11	4082
2026-01-05 10:31:19.57	214.29	79.38	-25.4	-26.5	17.5	0.00e+00	0	43	102	1048576	11	4080
2026-01-05 10:31:20.58	216.55	79.68	-25.5	-26.7	17.4	0.00e+00	0	43	102	1048576	11	4129
2026-01-05 10:31:21.59	218.95	79.97	-25.4	-26.4	17.6	0.00e+00	0	44	102	1048576	11	4059
2026-01-05 10:31:22.59	221.46	80.23	-25.1	-25.9	17.7	0.00e+00	0	43	102	1048576	11	3934
2026-01-05 10:31:23.59	224.11	80.48	-25.0	-25.6	18.0	0.00e+00	0	43	102	1048576	11	3870
2026-01-05 10:31:24.61	226.95	80.71	-25.1	-25.9	17.9	0.00e+00	0	43	102	1048576	11	3929
2026-01-05 10:31:25.61	229.87	80.91	-25.4	-26.5	17.6	0.00e+00	0	43	102	1048576	11	4091
2026-01-05 10:31:26.61	232.92	81.09	-25.4	-26.5	17.6	0.00e+00	0	43	102	1048576	11	4090
2026-01-05 10:31:27.62	236.11	81.25	-25.6	-26.8	17.5	0.00e+00	0	43	102	1048576	11	4164
2026-01-05 10:31:28.63	239.41	81.38	-25.7	-27.2	17.2	0.00e+00	0	43	102	1048576	11	4266
2026-01-05 10:31:29.63	242.77	81.47	-25.7	-27.0	17.3	0.00e+00	0	43	102	1048576	11	4218
2026-01-05 10:31:30.64	246.23	81.54	-25.7	-27.0	17.3	0.00e+00	0	43	102	1048576	11	4222
2026-01-05 10:31:31.65	249.73	81.58	-25.8	-27.2	17.2	0.00e+00	0	43	102	1048576	11	4267
2026-01-05 10:31:32.66	253.25	81.59	-25.8	-27.3	17.2	0.00e+00	0	43	102	1048576	11	4279
2026-01-05 10:31:33.66	256.73	81.56	-25.3	-26.3	17.7	0.00e+00	0	44	102	1048576	11	4036
2026-01-05 10:31:34.67	260.21	81.51	-24.9	-25.4	18.1	0.00e+00	0	43	102	1048576	11	3811
2026-01-05 10:31:35.67	263.60	81.42	-25.3	-26.2	17.7	0.00e+00	0	44	102	1048576	11	4003
2026-01-05 10:31:36.68	266.94	81.31	-25.5	-26.6	17.5	0.00e+00	0	44	102	1048576	11	4117
2026-01-05 10:31:37.69	270.18	81.16	-25.4	-26.4	17.6	0.00e+00	0	43	102	1048576	11	4056
2026-01-05 10:31:38.69	273.28	80.99	-25.4	-26.5	17.5	0.00e+00	0	44	102	1048576	11	4091
2026-01-05 10:31:39.70	276.29	80.80	-25.9	-27.6	17.0	0.00e+00	0	43	102	1048576	11	4369
2026-01-05 10:31:40.70	279.13	80.58	-25.6	-26.4	17.2	0.00e+00	0	43	102	1048576	12	3958
2026-01-05 10:31:41.71	281.86	80.34	-25.3	-26.2	17.6	0.00e+00	0	43	102	1048576	11	4013
2026-01-05 10:31:42.72	284.46	80.08	-25.4	-26.6	17.5	0.00e+00	0	43	102	1048576	11	4095
2026-01-05 10:31:43.73	286.91	79.80	-25.9	-27.7	16.9	0.00e+00	0	43	102	1048576	11	4398
2026-01-05 10:31:44.73	289.21	79.51	-25.2	-26.1	17.6	0.00e+00	0	43	102	1048576	11	3992
2026-01-05 10:31:45.74	291.39	79.20	-24.5	-25.1	18.4	0.00e+00	0	43	102	1048576	10	3840
2026-01-05 10:31:46.75	293.45	78.88	-24.7	-25.4	18.3	0.00e+00	0	43	102	1048576	10	3916
2026-01-05 10:31:47.76	295.39	78.54	-25.0	-26.1	17.9	0.00e+00	0	43	102	1048576	10	4093
2026-01-05 10:31:48.76	297.19	78.19	-24.5	-25.1	18.4	0.00e+00	0	43	102	1048576	10	3850
2026-01-05 10:31:49.77	298.91	77.83	-24.7	-25.4	18.2	0.00e+00	0	43	102	1048576	10	3923
2026-01-05 10:31:50.77	300.51	77.47	-24.8	-25.7	18.0	0.00e+00	0	44	102	1048576	10	3988
2026-01-05 10:31:51.78	302.03	77.09	-24.9	-26.0	18.0	0.00e+00	0	43	102	1048576	10	4061
2026-01-05 10:31:52.79	303.46	76.71	-24.8	-25.6	18.1	0.00e+00	0	43	102	1048576	10	3980
2026-01-05 10:31:53.80	304.81	76.32	-25.2	-26.6	17.7	0.00e+00	0	43	102	1048576	10	4215
2026-01-05 10:31:54.81	306.08	75.93	-25.7	-27.2	17.1	2.20e-06	0	44	102	1048576	11	4268
2026-01-05 10:31:55.81	307.26	75.53	-25.6	-26.9	17.2	0.00e+00	0	43	102	1048576	11	4201
2026-01-05 10:31:56.82	308.39	75.12	-25.3	-26.2	17.6	0.00e+00	0	43	102	1048576	11	4007
2026-01-05 10:31:57.83	309.46	74.71	-25.4	-26.6	17.3	0.00e+00	0	43	102	1048576	11	4107
2026-01-05 10:31:58.83	310.46	74.31	-25.4	-26.6	17.3	0.00e+00	0	43	102	1048576	11	4121
2026-01-05 10:31:59.84	311.42	73.89	-24.9	-25.4	17.7	0.00e+00	0	44	102	1048576	11	3809
2026-01-05 10:32:00.85	312.33	73.47	-25.1	-25.8	17.7	7.00e-07	0	43	102	1048576	11	3906
2026-01-05 10:32:01.85	313.18	73.06	-25.3	-26.2	17.6	0.00e+00	0	43	102	1048576	11	4006
2026-01-05 10:32:02.86	314.00	72.63	-25.1	-25.9	17.7	0.00e+00	0	43	102	1048576	11	3928
2026-01-05 10:32:03.86	314.77	72.21	-24.8	-25.1	18.0	0.00e+00	0	44	102	1048576	11	3748
2026-01-05 10:32:04.87	315.51	71.79	-25.0	-26.1	17.9	0.00e+00	0	43	102	1048576	10	4081
2026-01-05 10:32:05.87	316.21	71.37	-24.7	-25.5	18.1	0.00e+00	0	43	102	1048576	10	3944
2026-01-05 10:32:06.88	316.88	70.94	-24.9	-26.0	17.8	0.00e+00	0	43	102	1048576	10	4071
2026-01-05 10:32:07.89	317.52	70.51	-25.6	-27.0	17.1	0.00e+00	0	44	102	1048576	11	4229
2026-01-05 10:32:08.90	318.13	70.09	-25.5	-26.8	17.2	0.00e+00	0	44	102	1048576	11	4156
2026-01-05 10:32:09.91	318.71	69.66	-25.4	-26.6	17.2	3.00e-06	0	43	102	1048576	11	4108
2026-01-05 10:32:10.91	319.26	69.24	-25.2	-26.2	17.4	0.00e+00	0	44	102	1048576	11	4005
2026-01-05 10:32:11.92	319.80	68.81	-25.5	-26.6	17.3	0.00e+00	0	44	102	1048576	11	4121
2026-01-05 10:32:12.93	320.31	68.38	-25.4	-26.5	17.3	0.00e+00	0	43	102	1048576	11	4093
2026-01-05 10:32:13.94	320.80	67.96	-26.4	-28.3	16.0	0.00e+00	0	43	102	1048576	12	4475
2026-01-05 10:32:14.94	321.27	67.53	-26.8	-28.6	15.6	0.00e+00	0	43	102	1048576	13	4430
2026-01-05 10:32:15.94	321.71	67.11	-26.7	-28.4	15.6	4.50e-06	0	43	102	1048576	13	4387
2026-01-05 10:32:16.95	322.15	66.69	-26.6	-28.2	15.7	0.00e+00	0	43	102	1048576	13	4331
2026-01-05 10:32:17.95	322.56	66.27	-26.5	-28.0	15.8	0.00e+00	0	44	102	1048576	13	4282
2026-01-05 10:32:18.96	322.96	65.85	-26.9	-28.9	15.5	0.00e+00	0	44	102	1048576	13	4512
2026-01-05 10:32:19.96	323.34	65.43	-26.5	-28.0	15.9	0.00e+00	0	44	102	1048576	13	4271
2026-01-05 10:32:20.95	323.71	65.02	-26.5	-28.0	15.9	0.00e+00	0	43	102	1048576	13	4279
2026-01-05 10:32:21.96	324.07	64.60	-27.4	-29.5	14.8	0.00e+00	0	43	102	1048576	14	4609
2026-01-05 10:32:22.97	324.42	64.19	-28.2	-30.4	13.8	3.00e-06	0	43	102	1048576	16	4652
2026-01-05 10:32:23.97	324.75	63.78	-28.3	-30.5	13.8	9.10e-06	0	43	102	1048576	16	4672
2026-01-05 10:32:24.98	325.07	63.36	-26.9	-28.0	15.4	0.00e+00	0	43	102	1048576	15	4056
2026-01-05 10:32:25.99	325.38	62.95	-25.6	-26.4	17.0	0.00e+00	0	44	102	1048576	12	3956
2026-01-05 10:32:26.99	325.68	62.55	-24.9	-25.5	17.8	0.00e+00	0	43	102	1048576	11	3840
2026-01-05 10:32:28.00	325.97	62.14	-24.7	-25.5	18.0	0.00e+00	0	43	102	1048576	10	3951
2026-01-05 10:32:28.99	326.25	61.74	-25.8	-27.4	16.8	0.00e+00	0	43	102	1048576	11	4313
2026-01-05 10:32:30.00	326.52	61.34	-26.4	-28.3	15.9	0.00e+00	0	43	102	1048576	12	4458
2026-01-05 10:32:31.01	326.79	60.93	-27.5	-29.7	14.6	0.00e+00	0	43	102	1048576	14	4645
2026-01-05 10:32:32.02	327.04	60.53	-27.5	-29.2	14.5	1.50e-06	0	43	102	1048576	15	4403
2026-01-05 10:32:33.03	327.29	60.14	-26.8	-27.7	15.3	7.00e-07	0	43	102	1048576	15	3985
2026-01-05 10:32:34.03	327.53	59.74	-26.5	-27.4	15.8	0.00e+00	0	44	102	1048576	14	4014
2026-01-05 10:32:35.04	327.76	59.35	-26.7	-28.0	15.6	0.00e+00	0	43	102	1048576	14	4153
2026-01-05 10:32:36.05	327.99	58.96	-26.4	-27.2	16.1	0.00e+00	0	43	102	1048576	14	3950
2026-01-05 10:32:37.05	328.21	58.57	-27.1	-28.9	15.0	0.00e+00	0	43	102	1048576	14	4419
2026-01-05 10:32:38.06	328.42	58.18	-27.3	-29.2	14.9	0.00e+00	0	43	102	1048576	14	4513
2026-01-05 10:32:39.06	328.63	57.80	-28.3	-30.7	13.6	8.30e-06	0	43	102	1048576	16	4735
2026-01-05 10:32:40.07	328.83	57.42	-28.6	-30.9	13.2	6.10e-06	0	43	102	1048576	17	4669
2026-01-05 10:32:41.08	329.03	57.04	-29.4	-32.3	12.0	1.88e-04	0	43	102	1048576	18	5066
2026-01-05 10:32:42.09	329.22	56.66	-29.1	-31.7	12.3	2.43e-04	0	43	102	1048576	18	4844
2026-01-05 10:32:43.09	329.41	56.29	-28.5	-30.0	13.3	2.82e-05	0	43	102	1048576	18	4316
2026-01-05 10:32:44.10	329.59	55.91	-27.4	-28.4	14.9	7.00e-07	0	43	102	1048576	16	4053
2026-01-05 10:32:45.11	329.77	55.54	-26.4	-27.2	16.0	0.00e+00	0	43	102	1048576	14	3956
2026-01-05 10:32:46.11	329.94	55.17	-26.3	-27.5	16.0	0.00e+00	0	43	102	1048576	13	4152
2026-01-05 10:32:47.12	330.11	54.81	-26.8	-28.6	15.3	0.00e+00	0	43	102	1048576	13	4436
2026-01-05 10:32:48.13	330.27	54.44	-27.2	-29.0	14.8	0.00e+00	0	43	102	1048576	14	4434
2026-01-05 10:32:49.13	330.43	54.08	-27.9	-30.2	13.9	2.20e-06	0	43	102	1048576	15	4704
2026-01-05 10:32:50.14	330.59	53.72	-28.2	-30.3	13.8	6.10e-06	0	43	102	1048576	16	4608
2026-01-05 10:32:51.15	330.74	53.37	-28.7	-31.0	13.1	4.42e-05	0	43	102	1048576	17	4709
2026-01-05 10:32:52.16	330.89	53.01	-28.6	-30.9	13.1	2.97e-05	0	43	102	1048576	17	4684
2026-01-05 10:32:53.16	331.04	52.66	-29.2	-31.8	12.3	1.27e-04	0	43	102	1048576	18	4875
2026-01-05 10:32:54.17	331.18	52.31	-28.6	-30.4	13.2	4.50e-05	0	43	102	1048576	18	4427
2026-01-05 10:32:55.18	331.32	51.96	-28.3	-29.6	13.6	1.67e-05	0	43	102	1048576	18	4178
2026-01-05 10:32:56.19	331.45	51.61	-28.0	-29.4	14.0	4.50e-06	0	43	102	1048576	17	4236
2026-01-05 10:32:57.20	331.59	51.27	-28.2	-29.8	13.8	4.50e-06	0	44	102	1048576	17	4354
2026-01-05 10:32:58.20	331.71	50.93	-28.7	-31.0	13.1	4.65e-05	0	43	102	1048576	17	4709
2026-01-05 10:32:59.21	331.84	50.59	-28.9	-31.6	12.7	7.85e-05	0	44	102	1048576	17	4904
2026-01-05 10:33:00.21	331.97	50.26	-29.5	-32.1	11.6	4.36e-04	0	43	102	1048576	19	4862
2026-01-05 10:33:01.22	332.09	49.92	-29.4	-31.7	12.0	4.61e-04	0	43	102	1048576	19	4740
2026-01-05 10:33:02.23	332.21	49.59	-29.3	-31.5	12.1	3.15e-04	0	43	102	1048576	19	4666
2026-01-05 10:33:03.23	332.32	49.27	-28.9	-30.7	12.6	1.45e-04	0	43	102	1048576	19	4408
2026-01-05 10:33:04.24	332.44	48.94	-28.6	-30.5	13.1	3.96e-05	0	44	102	1048576	18	4439
2026-01-05 10:33:05.25	332.55	48.61	-28.5	-30.0	13.4	3.05e-05	0	43	102	1048576	18	4306
2026-01-05 10:33:06.25	332.66	48.29	-28.6	-30.4	13.1	2.36e-05	0	43	102	1048576	18	4417
2026-01-05 10:33:07.26	332.77	47.97	-28.6	-30.4	13.2	1.67e-05	0	43	102	1048576	18	4414
2026-01-05 10:33:08.27	332.87	47.65	-28.6	-30.3	13.2	2.28e-05	0	43	102	1048576	18	4388
2026-01-05 10:33:09.27	332.97	47.34	-28.7	-30.5	13.1	3.81e-05	0	43	102	1048576	18	4447
2026-01-05 10:33:10.28	333.08	47.03	-28.2	-29.7	13.8	6.80e-06	0	43	102	1048576	17	4326
2026-01-05 10:33:11.29	333.18	46.72	-27.7	-29.3	14.4	3.00e-06	0	43	102	1048576	16	4297
2026-01-05 10:33:12.30	333.27	46.41	-27.8	-29.3	14.4	0.00e+00	0	43	102	1048576	16	4303
2026-01-05 10:33:13.31	333.37	46.10	-28.4	-30.8	13.4	7.60e-06	0	43	102	1048576	16	4766
2026-01-05 10:33:14.31	333.46	45.80	-28.9	-31.6	12.7	2.97e-05	0	44	102	1048576	17	4911
2026-01-05 10:33:15.33	333.56	45.49	-29.3	-32.1	12.1	1.92e-04	0	44	102	1048576	18	4970
2026-01-05 10:33:16.33	333.65	45.19	-29.8	-32.9	11.2	1.22e-03	0	43	102	1048576	19	5168
2026-01-05 10:33:17.34	333.74	44.89	-29.9	-33.4	10.9	1.87e-03	0	43	102	1048576	19	5378
2026-01-05 10:33:18.35	333.82	44.60	-29.9	-33.4	10.9	2.69e-03	0	43	102	1048576	19	5369
2026-01-05 10:33:19.35	333.91	44.31	-29.7	-32.6	11.4	1.16e-03	0	44	102	1048576	19	5053
2026-01-05 10:33:20.36	333.99	44.02	-29.5	-32.2	11.6	7.21e-04	0	43	102	1048576	19	4909
2026-01-05 10:33:21.36	334.07	43.73	-29.3	-31.6	12.0	3.82e-04	0	43	102	1048576	19	4709
2026-01-05 10:33:22.37	334.16	43.44	-29.3	-31.7	12.0	5.06e-04	0	44	102	1048576	19	4718
2026-01-05 10:33:23.37	334.24	43.16	-29.1	-31.0	12.4	1.68e-04	0	43	102	1048576	19	4504
2026-01-05 10:33:24.38	334.32	42.87	-28.9	-30.6	12.6	1.03e-04	0	44	102	1048576	19	4395
2026-01-05 10:33:25.39	334.39	42.59	-28.7	-30.7	12.9	6.94e-05	0	43	102	1048576	18	4511
2026-01-05 10:33:26.39	334.47	42.32	-28.4	-29.9	13.3	2.74e-05	0	44	102	1048576	18	4275
2026-01-05 10:33:27.40	334.54	42.04	-28.1	-29.6	13.6	6.80e-06	0	44	102	1048576	17	4287
2026-01-05 10:33:28.41	334.62	41.76	-27.9	-29.3	13.8	6.80e-06	0	43	102	1048576	17	4212
2026-01-05 10:33:29.41	334.69	41.49	-28.2	-29.8	13.5	4.50e-06	0	43	102	1048576	17	4348
2026-01-05 10:33:30.42	334.76	41.22	-28.3	-30.2	13.4	1.75e-05	0	43	102	1048576	17	4480
2026-01-05 10:33:31.43	334.83	40.95	-28.4	-30.5	13.3	9.90e-06	0	44	102	1048576	17	4555
2026-01-05 10:33:32.44	334.90	40.68	-28.8	-31.4	12.7	6.33e-05	0	44	102	1048576	17	4855
2026-01-05 10:33:33.44	334.97	40.42	-28.8	-31.4	12.7	6.79e-05	0	44	102	1048576	17	4872
2026-01-05 10:33:34.45	335.04	40.16	-28.9	-31.7	12.5	1.02e-04	0	43	102	1048576	17	4962
2026-01-05 10:33:35.46	335.10	39.90	-28.8	-31.5	12.6	7.47e-05	0	44	102	1048576	17	4877
2026-01-05 10:33:36.47	335.17	39.64	-28.8	-31.5	12.6	9.61e-05	0	43	102	1048576	17	4882
2026-01-05 10:33:37.47	335.23	39.38	-28.6	-30.8	13.0	6.10e-05	0	43	102	1048576	17	4651
2026-01-05 10:33:38.48	335.30	39.13	-28.4	-30.3	13.3	1.67e-05	0	44	102	1048576	17	4508
2026-01-05 10:33:39.49	335.36	38.87	-28.3	-30.2	13.5	1.22e-05	0	43	102	1048576	17	4461
2026-01-05 10:33:40.50	335.42	38.62	-28.3	-30.0	13.6	1.06e-05	0	43	102	1048576	17	4425
2026-01-05 10:33:41.50	335.48	38.37	-28.3	-30.1	13.6	7.60e-06	0	44	102	1048576	17	4429
2026-01-05 10:33:42.51	335.54	38.12	-28.1	-29.7	13.7	1.29e-05	0	43	102	1048576	17	4315
2026-01-05 10:33:43.51	335.60	37.88	-27.9	-29.1	14.1	3.00e-06	0	43	102	1048576	17	4155
2026-01-05 10:33:44.52	335.66	37.63	-28.0	-29.4	13.9	2.20e-06	0	43	102	1048576	17	4248
2026-01-05 10:33:45.52	335.71	37.39	-28.3	-30.1	13.5	9.10e-06	0	43	102	1048576	17	4447
2026-01-05 10:33:46.53	335.77	37.15	-28.3	-30.3	13.4	9.10e-06	0	44	102	1048576	17	4495
2026-01-05 10:33:47.54	335.83	36.91	-28.3	-30.3	13.3	2.67e-05	0	43	102	1048576	17	4507
2026-01-05 10:33:48.54	335.88	36.67	-28.0	-29.5	13.8	7.60e-06	0	44	102	1048576	17	4267
2026-01-05 10:33:49.54	335.93	36.44	-27.7	-29.3	14.3	7.00e-07	0	43	102	1048576	16	4308
2026-01-05 10:33:50.55	335.99	36.21	-27.5	-28.8	14.5	0.00e+00	0	43	102	1048576	16	4165
2026-01-05 10:33:51.56	336.04	35.97	-27.6	-29.0	14.4	7.00e-07	0	43	102	1048576	16	4231
2026-01-05 10:33:52.57	336.09	35.74	-27.7	-29.3	14.2	7.00e-07	0	43	102	1048576	16	4308
2026-01-05 10:33:53.58	336.15	35.51	-27.9	-29.6	14.0	7.00e-07	0	43	102	1048576	16	4412
2026-01-05 10:33:54.58	336.20	35.29	-28.0	-29.9	13.9	3.80e-06	0	44	102	1048576	16	4482
2026-01-05 10:33:55.59	336.25	35.06	-28.0	-29.9	13.9	1.50e-06	0	43	102	1048576	16	4492
2026-01-05 10:33:56.60	336.30	34.83	-27.9	-29.8	14.0	3.00e-06	0	43	102	1048576	16	4451
2026-01-05 10:33:57.60	336.34	34.61	-27.7	-29.3	14.3	7.00e-07	0	43	102	1048576	16	4313
2026-01-05 10:33:58.61	336.39	34.39	-27.7	-29.2	14.3	7.00e-07	0	43	102	1048576	16	4295
2026-01-05 10:33:59.61	336.44	34.17	-27.8	-29.5	14.2	7.00e-07	0	43	102	1048576	16	4372
2026-01-05 10:34:00.62	336.49	33.95	-27.9	-29.7	14.1	3.00e-06	0	44	102	1048576	16	4423
2026-01-05 10:34:01.62	336.53	33.74	-27.7	-29.3	14.3	2.20e-06	0	43	102	1048576	16	4320
2026-01-05 10:34:02.63	336.58	33.52	-27.5	-28.8	14.5	1.50e-06	0	43	102	1048576	16	4180
2026-01-05 10:34:03.64	336.63	33.31	-27.3	-28.4	14.8	0.00e+00	0	43	102	1048576	16	4056
2026-01-05 10:34:04.65	336.67	33.10	-27.1	-28.4	14.9	0.00e+00	0	43	102	1048576	15	4185
2026-01-05 10:34:05.66	336.71	32.88	-27.2	-28.7	14.7	0.00e+00	0	44	102	1048576	15	4255
2026-01-05 10:34:06.66	336.76	32.68	-27.3	-28.9	14.6	0.00e+00	0	44	102	1048576	15	4325
2026-01-05 10:34:07.66	336.80	32.47	-27.3	-28.8	14.6	0.00e+00	0	44	102	1048576	15	4290
2026-01-05 10:34:08.67	336.84	32.26	-27.3	-28.9	14.6	0.00e+00	0	43	102	1048576	15	4316
2026-01-05 10:34:09.68	336.89	32.06	-27.4	-29.1	14.5	0.00e+00	0	43	102	1048576	15	4391
2026-01-05 10:34:10.69	336.93	31.85	-27.2	-28.5	14.8	1.50e-06	0	44	102	1048576	15	4213
2026-01-05 10:34:11.69	336.97	31.65	-26.7	-27.9	15.4	0.00e+00	0	43	102	1048576	14	4155
2026-01-05 10:34:12.70	337.01	31.45	-26.6	-27.8	15.5	0.00e+00	0	43	102	1048576	14	4107
2026-01-05 10:34:13.71	337.05	31.25	-26.6	-27.8	15.4	0.00e+00	0	43	102	1048576	14	4130
2026-01-05 10:34:14.72	337.09	31.05	-26.6	-27.8	15.5	0.00e+00	0	43	102	1048576	14	4108
2026-01-05 10:34:15.72	337.13	30.86	-26.8	-28.3	15.2	0.00e+00	0	43	102	1048576	14	4241
2026-01-05 10:34:16.73	337.17	30.66	-26.9	-28.3	15.2	0.00e+00	0	43	102	1048576	14	4273
2026-01-05 10:34:17.73	337.21	30.47	-26.6	-27.8	15.5	0.00e+00	0	43	102	1048576	14	4113
2026-01-05 10:34:18.74	337.25	30.28	-26.3	-27.1	15.8	0.00e+00	0	43	102	1048576	14	3951
2026-01-05 10:34:19.74	337.28	30.09	-26.2	-27.4	15.9	0.00e+00	0	43	102	1048576	13	4129
2026-01-05 10:34:20.75	337.32	29.90	-26.3	-27.6	15.8	0.00e+00	0	43	102	1048576	13	4174
2026-01-05 10:34:21.75	337.36	29.71	-26.5	-28.1	15.5	0.00e+00	0	43	102	1048576	13	4327
2026-01-05 10:34:22.76	337.40	29.52	-26.6	-28.3	15.4	7.00e-07	0	43	102	1048576	13	4380
2026-01-05 10:34:23.77	337.43	29.33	-26.9	-29.0	15.0	0.00e+00	0	43	102	1048576	13	4566
2026-01-05 10:34:24.77	337.47	29.15	-27.0	-29.2	14.9	0.00e+00	0	43	102	1048576	13	4628
2026-01-05 10:34:25.78	337.50	28.96	-27.0	-28.7	14.9	1.50e-06	0	43	102	1048576	14	4377
2026-01-05 10:34:26.78	337.54	28.78	-27.2	-29.1	14.7	7.00e-07	0	43	102	1048576	14	4502
2026-01-05 10:34:27.79	337.57	28.60	-27.2	-29.3	14.6	1.50e-06	0	43	102	1048576	14	4543
2026-01-05 10:34:28.79	337.61	28.42	-27.0	-28.8	14.8	0.00e+00	0	43	102	1048576	14	4416
2026-01-05 10:34:29.80	337.64	28.24	-26.9	-28.6	14.9	7.00e-07	0	44	102	1048576	14	4344
2026-01-05 10:34:30.81	337.68	28.06	-26.9	-28.5	15.0	0.00e+00	0	43	102	1048576	14	4322
2026-01-05 10:34:31.81	337.71	27.89	-27.0	-28.6	14.9	0.00e+00	0	43	102	1048576	14	4351
2026-01-05 10:34:32.82	337.74	27.71	-26.9	-28.4	15.0	0.00e+00	0	43	102	1048576	14	4308
2026-01-05 10:34:33.83	337.78	27.53	-26.7	-28.0	15.2	0.00e+00	0	43	102	1048576	14	4181
2026-01-05 10:34:34.84	337.81	27.36	-26.6	-27.8	15.3	0.00e+00	0	43	102	1048576	14	4132
2026-01-05 10:34:35.84	337.84	27.19	-26.6	-27.8	15.3	0.00e+00	0	43	102	1048576	14	4131
2026-01-05 10:34:36.84	337.87	27.02	-26.7	-28.0	15.2	0.00e+00	0	44	102	1048576	14	4191
2026-01-05 10:34:37.85	337.91	26.85	-26.9	-28.4	15.0	0.00e+00	0	43	102	1048576	14	4294
2026-01-05 10:34:38.86	337.94	26.68	-26.8	-28.3	15.1	0.00e+00	0	44	102	1048576	14	4257
2026-01-05 10:34:39.87	337.97	26.51	-26.9	-28.5	14.9	0.00e+00	0	43	102	1048576	14	4323
2026-01-05 10:34:40.87	338.00	26.34	-26.9	-28.4	15.0	0.00e+00	0	43	102	1048576	14	4295
2026-01-05 10:34:41.88	338.03	26.17	-26.9	-28.6	14.9	0.00e+00	0	43	102	1048576	14	4344
2026-01-05 10:34:42.89	338.06	26.01	-26.9	-28.6	14.9	0.00e+00	0	44	102	1048576	14	4350
2026-01-05 10:34:43.90	338.09	25.84	-27.0	-28.7	14.8	0.00e+00	0	43	102	1048576	14	4384
2026-01-05 10:34:44.91	338.12	25.68	-27.0	-28.7	14.9	0.00e+00	0	44	102	1048576	14	4369
2026-01-05 10:34:45.91	338.15	25.52	-27.0	-28.8	14.8	0.00e+00	0	43	102	1048576	14	4404
2026-01-05 10:34:46.92	338.18	25.36	-27.3	-29.5	14.4	0.00e+00	0	43	102	1048576	14	4609
2026-01-05 10:34:47.93	338.21	25.20	-27.2	-29.3	14.4	0.00e+00	0	44	102	1048576	14	4559
2026-01-05 10:34:48.94	338.24	25.04	-27.4	-29.6	14.3	7.00e-07	0	43	102	1048576	14	4667
2026-01-05 10:34:49.94	338.27	24.88	-27.5	-29.4	14.1	1.50e-06	0	43	102	1048576	15	4491
2026-01-05 10:34:50.95	338.29	24.72	-27.5	-29.5	14.1	3.00e-06	0	43	102	1048576	15	4507
2026-01-05 10:34:51.96	338.32	24.56	-27.5	-29.3	14.1	7.00e-07	0	43	102	1048576	15	4461
2026-01-05 10:34:52.96	338.35	24.41	-27.7	-29.8	13.8	3.80e-06	0	43	102	1048576	15	4614
2026-01-05 10:34:53.97	338.38	24.25	-27.6	-29.5	14.0	2.20e-06	0	43	102	1048576	15	4522
2026-01-05 10:34:54.98	338.40	24.10	-27.4	-29.1	14.3	7.00e-07	0	43	102	1048576	15	4392
2026-01-05 10:34:55.99	338.43	23.95	-27.3	-29.0	14.3	2.20e-06	0	44	102	1048576	15	4368
2026-01-05 10:34:56.99	338.46	23.79	-27.4	-29.2	14.2	7.00e-07	0	44	102	1048576	15	4433
2026-01-05 10:34:58.00	338.48	23.64	-27.3	-29.0	14.3	7.00e-07	0	43	102	1048576	15	4373
2026-01-05 10:34:59.01	338.51	23.49	-27.5	-29.3	14.1	7.00e-07	0	43	102	1048576	15	4461
2026-01-05 10:35:00.01	338.54	23.34	-27.4	-29.1	14.2	1.50e-06	0	43	102	1048576	15	4396
2026-01-05 10:35:01.02	338.56	23.20	-27.6	-29.6	14.0	0.00e+00	0	43	102	1048576	15	4532
2026-01-05 10:35:02.02	338.59	23.05	-27.3	-29.0	14.3	7.00e-07	0	44	102	1048576	15	4352
2026-01-05 10:35:03.03	338.61	22.90	-26.9	-28.1	14.8	7.00e-07	0	44	102	1048576	15	4102
2026-01-05 10:35:04.04	338.64	22.75	-26.6	-27.8	15.2	0.00e+00	0	43	102	1048576	14	4130
2026-01-05 10:35:05.05	338.67	22.61	-26.3	-27.2	15.6	0.00e+00	0	43	102	1048576	14	3977
2026-01-05 10:35:06.05	338.69	22.47	-26.0	-27.0	15.9	0.00e+00	0	43	102	1048576	13	4031
2026-01-05 10:35:07.06	338.72	22.32	-26.0	-26.9	16.0	0.00e+00	0	44	102	1048576	13	3996
2026-01-05 10:35:08.07	338.74	22.18	-26.0	-26.9	16.0	0.00e+00	0	43	102	1048576	13	4016
2026-01-05 10:35:09.08	338.76	22.04	-25.9	-26.8	16.0	0.00e+00	0	44	102	1048576	13	3986
2026-01-05 10:35:10.08	338.79	21.90	-26.2	-27.4	15.7	0.00e+00	0	43	102	1048576	13	4128
2026-01-05 10:35:11.09	338.81	21.76	-26.2	-27.4	15.7	0.00e+00	0	43	102	1048576	13	4134
2026-01-05 10:35:12.10	338.84	21.62	-26.2	-27.3	15.7	0.00e+00	0	43	102	1048576	13	4121
2026-01-05 10:35:13.11	338.86	21.48	-26.3	-27.6	15.6	0.00e+00	0	43	102	1048576	13	4194
2026-01-05 10:35:14.11	338.88	21.34	-26.6	-28.4	15.1	0.00e+00	0	43	102	1048576	13	4402
2026-01-05 10:35:15.12	338.91	21.20	-26.3	-27.6	15.5	0.00e+00	0	44	102	1048576	13	4187
2026-01-05 10:35:16.13	338.93	21.06	-26.1	-27.2	15.8	0.00e+00	0	43	102	1048576	13	4078
2026-01-05 10:35:17.14	338.95	20.93	-26.1	-27.1	15.8	0.00e+00	0	43	102	1048576	13	4052
2026-01-05 10:35:18.14	338.98	20.79	-26.1	-27.2	15.7	0.00e+00	0	43	102	1048576	13	4096
2026-01-05 10:35:19.15	339.00	20.66	-26.2	-27.4	15.6	0.00e+00	0	43	102	1048576	13	4144
2026-01-05 10:35:20.16	339.02	20.52	-26.2	-27.4	15.6	0.00e+00	0	44	102	1048576	13	4141
2026-01-05 10:35:21.17	339.04	20.39	-26.2	-27.5	15.5	0.00e+00	0	44	102	1048576	13	4175
2026-01-05 10:35:22.17	339.07	20.26	-26.4	-27.9	15.3	0.00e+00	0	43	102	1048576	13	4277
2026-01-05 10:35:23.18	339.09	20.13	-26.3	-27.7	15.4	1.50e-06	0	43	102	1048576	13	4222
2026-01-05 10:35:24.18	339.11	20.00	-26.3	-27.6	15.4	0.00e+00	0	43	102	1048576	13	4200
2026-01-05 10:35:25.19	339.13	19.87	-26.4	-27.8	15.4	0.00e+00	0	43	102	1048576	13	4251
2026-01-05 10:35:26.19	339.15	19.74	-26.5	-28.1	15.2	3.80e-06	0	43	102	1048576	13	4343
2026-01-05 10:35:27.20	339.18	19.61	-26.5	-28.0	15.2	0.00e+00	0	44	102	1048576	13	4313
2026-01-05 10:35:28.21	339.20	19.48	-26.5	-28.2	15.1	0.00e+00	0	43	102	1048576	13	4380
2026-01-05 10:35:29.22	339.22	19.35	-26.5	-28.2	15.1	2.20e-06	0	44	102	1048576	13	4361
2026-01-05 10:35:30.23	339.24	19.23	-26.7	-28.7	14.8	0.00e+00	0	43	102	1048576	13	4509
2026-01-05 10:35:31.24	339.26	19.10	-26.7	-28.6	14.9	0.00e+00	0	44	102	1048576	13	4474
2026-01-05 10:35:32.24	339.28	18.97	-26.7	-28.6	14.9	4.50e-06	0	43	102	1048576	13	4489
2026-01-05 10:35:33.25	339.30	18.85	-27.0	-28.9	14.5	7.00e-07	0	43	102	1048576	14	4444
2026-01-05 10:35:34.26	339.32	18.72	-26.9	-28.6	14.6	0.00e+00	0	43	102	1048576	14	4375
2026-01-05 10:35:35.27	339.34	18.60	-26.8	-28.4	14.8	0.00e+00	0	44	102	1048576	14	4308
2026-01-05 10:35:36.27	339.36	18.48	-27.0	-28.7	14.5	7.00e-07	0	44	102	1048576	14	4404
2026-01-05 10:35:37.28	339.38	18.35	-27.0	-28.9	14.4	7.00e-07	0	44	102	1048576	14	4454
2026-01-05 10:35:38.29	339.40	18.23	-27.0	-28.7	14.5	3.80e-06	0	44	102	1048576	14	4414
2026-01-05 10:35:39.30	339.42	18.11	-27.1	-28.9	14.4	0.00e+00	0	44	102	1048576	14	4466
2026-01-05 10:35:40.30	339.44	17.99	-27.0	-28.8	14.5	0.00e+00	0	43	102	1048576	14	4416
2026-01-05 10:35:41.31	339.46	17.87	-27.1	-29.0	14.4	7.00e-07	0	43	102	1048576	14	4484
2026-01-05 10:35:42.31	339.48	17.75	-27.0	-28.9	14.4	2.20e-06	0	43	102	1048576	14	4458
2026-01-05 10:35:43.32	339.50	17.63	-27.1	-29.1	14.3	7.00e-07	0	43	102	1048576	14	4509
2026-01-05 10:35:44.32	339.52	17.51	-27.3	-29.5	14.1	7.00e-07	0	43	102	1048576	14	4649
2026-01-05 10:35:45.33	339.54	17.40	-27.2	-29.2	14.2	1.50e-06	0	43	102	1048576	14	4555
2026-01-05 10:35:46.34	339.56	17.28	-27.3	-29.6	14.0	7.00e-07	0	43	102	1048576	14	4676
2026-01-05 10:35:47.34	339.58	17.16	-27.2	-29.3	14.2	2.20e-06	0	43	102	1048576	14	4578
2026-01-05 10:35:48.35	339.60	17.05	-27.5	-29.9	13.8	1.50e-06	0	43	102	1048576	14	4759
2026-01-05 10:35:49.36	339.61	16.93	-27.7	-30.1	13.4	7.60e-06	0	43	102	1048576	15	4703
2026-01-05 10:35:50.36	339.63	16.82	-27.9	-30.4	13.2	2.21e-05	0	43	102	1048576	15	4829
2026-01-05 10:35:51.37	339.65	16.70	-27.8	-30.3	13.3	2.67e-05	0	44	102	1048576	15	4785
2026-01-05 10:35:52.38	339.67	16.59	-27.9	-30.4	13.2	2.82e-05	0	43	102	1048576	15	4831
2026-01-05 10:35:53.38	339.69	16.47	-28.2	-30.7	12.9	3.43e-05	0	44	102	1048576	16	4773
2026-01-05 10:35:54.39	339.71	16.36	-28.3	-30.8	12.8	7.32e-05	0	43	102	1048576	16	4833
2026-01-05 10:35:55.40	339.72	16.25	-28.2	-30.6	13.0	3.66e-05	0	44	102	1048576	16	4747
2026-01-05 10:35:56.41	339.74	16.14	-28.1	-30.5	13.0	3.58e-05	0	44	102	1048576	16	4721
2026-01-05 10:35:57.41	339.76	16.03	-28.1	-30.4	13.0	3.89e-05	0	44	102	1048576	16	4695
2026-01-05 10:35:58.42	339.78	15.91	-28.0	-30.1	13.2	2.89e-05	0	43	102	1048576	16	4600
2026-01-05 10:35:59.42	339.80	15.81	-27.7	-29.5	13.6	1.06e-05	0	43	102	1048576	16	4401
2026-01-05 10:36:00.43	339.81	15.70	-27.5	-28.9	14.0	6.80e-06	0	44	102	1048576	16	4228
2026-01-05 10:36:01.44	339.83	15.59	-27.3	-28.6	14.1	5.30e-06	0	43	102	1048576	16	4152
2026-01-05 10:36:02.45	339.85	15.48	-27.1	-28.6	14.2	3.00e-06	0	43	102	1048576	15	4258
2026-01-05 10:36:03.45	339.87	15.37	-27.1	-28.4	14.3	0.00e+00	0	43	102	1048576	15	4219
2026-01-05 10:36:04.46	339.88	15.26	-27.1	-28.5	14.2	7.00e-07	0	43	102	1048576	15	4250
2026-01-05 10:36:05.47	339.90	15.15	-27.1	-28.6	14.2	3.00e-06	0	43	102	1048576	15	4268
2026-01-05 10:36:06.48	339.92	15.05	-27.1	-28.4	14.3	7.00e-07	0	44	102	1048576	15	4226
2026-01-05 10:36:07.48	339.93	14.94	-27.1	-28.5	14.2	0.00e+00	0	44	102	1048576	15	4244
2026-01-05 10:36:08.49	339.95	14.83	-27.2	-28.7	14.1	7.00e-07	0	44	102	1048576	15	4311
2026-01-05 10:36:09.50	339.97	14.73	-27.1	-28.5	14.3	2.20e-06	0	43	102	1048576	15	4233
2026-01-05 10:36:10.50	339.98	14.62	-27.1	-28.7	14.1	0.00e+00	0	43	102	1048576	15	4286
2026-01-05 10:36:11.51	340.00	14.52	-27.2	-28.8	14.0	3.00e-06	0	43	102	1048576	15	4335
2026-01-05 10:36:12.52	340.02	14.41	-27.1	-28.5	14.2	2.20e-06	0	43	102	1048576	15	4243
2026-01-05 10:36:13.52	340.03	14.31	-27.2	-28.9	14.0	7.00e-07	0	44	102	1048576	15	4347
2026-01-05 10:36:14.53	340.05	14.21	-27.1	-28.6	14.2	5.30e-06	0	43	102	1048576	15	4257
2026-01-05 10:36:15.54	340.07	14.10	-27.1	-28.7	14.1	7.00e-07	0	44	102	1048576	15	4299
2026-01-05 10:36:16.54	340.08	14.00	-27.1	-28.6	14.1	7.00e-07	0	44	102	1048576	15	4283
2026-01-05 10:36:17.55	340.10	13.90	-27.2	-28.8	14.0	3.80e-06	0	44	102	1048576	15	4331
2026-01-05 10:36:18.56	340.11	13.80	-27.2	-28.8	14.0	3.00e-06	0	44	102	1048576	15	4329
2026-01-05 10:36:19.56	340.13	13.70	-27.1	-28.6	14.2	1.50e-06	0	44	102	1048576	15	4267
2026-01-05 10:36:20.57	340.15	13.60	-27.0	-28.4	14.3	1.50e-06	0	43	102	1048576	15	4210
2026-01-05 10:36:21.58	340.16	13.50	-27.2	-28.7	14.0	7.00e-07	0	43	102	1048576	15	4315
2026-01-05 10:36:22.59	340.18	13.40	-27.2	-28.9	14.0	4.50e-06	0	44	102	1048576	15	4347
2026-01-05 10:36:23.60	340.19	13.30	-27.2	-28.8	14.0	6.10e-06	0	43	102	1048576	15	4323
2026-01-05 10:36:24.60	340.21	13.20	-27.2	-28.9	14.0	7.00e-07	0	43	102	1048576	15	4358
2026-01-05 10:36:25.61	340.22	13.10	-27.3	-29.0	13.9	1.06e-05	0	44	102	1048576	15	4399
2026-01-05 10:36:26.62	340.24	13.00	-27.4	-29.2	13.7	8.30e-06	0	44	102	1048576	15	4463
2026-01-05 10:36:27.63	340.25	12.90	-27.4	-29.3	13.7	3.80e-06	0	44	102	1048576	15	4479
2026-01-05 10:36:28.63	340.27	12.80	-27.4	-29.2	13.7	6.80e-06	0	44	102	1048576	15	4458
2026-01-05 10:36:29.63	340.28	12.71	-27.5	-29.5	13.5	1.06e-05	0	44	102	1048576	15	4545
2026-01-05 10:36:30.65	340.30	12.61	-27.4	-29.4	13.6	1.29e-05	0	44	102	1048576	15	4500
2026-01-05 10:36:31.65	340.31	12.51	-27.3	-29.2	13.8	1.67e-05	0	44	102	1048576	15	4441
2026-01-05 10:36:32.66	340.33	12.42	-27.4	-29.4	13.6	1.22e-05	0	44	102	1048576	15	4507
2026-01-05 10:36:33.66	340.34	12.32	-27.4	-29.4	13.6	1.06e-05	0	44	102	1048576	15	4510
2026-01-05 10:36:34.67	340.36	12.23	-27.3	-29.1	13.7	1.14e-05	0	43	102	1048576	15	4429
2026-01-05 10:36:35.68	340.37	12.13	-27.5	-29.5	13.5	9.10e-06	0	44	102	1048576	15	4532
2026-01-05 10:36:36.68	340.39	12.04	-27.6	-29.8	13.4	1.90e-05	0	44	102	1048576	15	4633
2026-01-05 10:36:37.69	340.40	11.94	-27.6	-29.7	13.4	2.05e-05	0	43	102	1048576	15	4618
2026-01-05 10:36:38.69	340.42	11.85	-27.6	-29.8	13.3	1.52e-05	0	44	102	1048576	15	4648
2026-01-05 10:36:39.70	340.43	11.76	-27.7	-30.0	13.2	2.05e-05	0	43	102	1048576	15	4693
2026-01-05 10:36:40.71	340.45	11.66	-27.6	-29.8	13.3	1.90e-05	0	44	102	1048576	15	4652
2026-01-05 10:36:41.72	340.46	11.57	-27.6	-29.9	13.2	1.90e-05	0	43	102	1048576	15	4673
2026-01-05 10:36:42.73	340.47	11.48	-27.7	-30.1	13.1	2.28e-05	0	44	102	1048576	15	4738
2026-01-05 10:36:43.73	340.49	11.39	-27.7	-30.1	13.1	3.43e-05	0	44	102	1048576	15	4745
2026-01-05 10:36:44.74	340.50	11.29	-27.8	-30.2	13.0	3.66e-05	0	44	102	1048576	15	4780
2026-01-05 10:36:45.75	340.52	11.20	-27.9	-30.5	12.9	5.26e-05	0	43	102	1048576	15	4882
2026-01-05 10:36:46.76	340.53	11.11	-27.9	-30.6	12.8	6.56e-05	0	44	102	1048576	15	4897
2026-01-05 10:36:47.76	340.55	11.02	-27.9	-30.7	12.7	7.40e-05	0	44	102	1048576	15	4930
2026-01-05 10:36:48.77	340.56	10.93	-28.0	-30.8	12.7	6.94e-05	0	43	102	1048576	15	4958
2026-01-05 10:36:49.78	340.57	10.84	-28.0	-30.7	12.7	4.88e-05	0	43	102	1048576	15	4956
2026-01-05 10:36:50.78	340.59	10.75	-28.3	-31.1	12.3	1.27e-04	0	44	102	1048576	16	4955
2026-01-05 10:36:51.79	340.60	10.66	-28.5	-31.0	12.0	2.59e-04	0	43	102	1048576	17	4811
2026-01-05 10:36:52.79	340.61	10.57	-28.2	-30.4	12.5	1.43e-04	0	44	102	1048576	17	4592
2026-01-05 10:36:53.80	340.63	10.48	-28.0	-29.9	12.8	9.30e-05	0	43	102	1048576	17	4441
2026-01-05 10:36:54.81	340.64	10.40	-27.8	-29.2	13.1	3.20e-05	0	43	102	1048576	17	4250
2026-01-05 10:36:55.82	340.65	10.31	-27.7	-29.5	13.3	1.83e-05	0	43	102	1048576	16	4421
2026-01-05 10:36:56.82	340.67	10.22	-27.6	-29.4	13.4	1.22e-05	0	44	102	1048576	16	4396
2026-01-05 10:36:57.82	340.68	10.13	-27.7	-29.5	13.3	1.60e-05	0	44	102	1048576	16	4429
2026-01-05 10:36:58.83	340.69	10.05	-27.7	-29.6	13.2	3.35e-05	0	43	102	1048576	16	4456
2026-01-05 10:36:59.83	340.71	9.96	-27.8	-29.7	13.1	3.50e-05	0	43	102	1048576	16	4503
2026-01-05 10:37:00.84	340.72	9.87	-27.8	-29.8	13.1	3.12e-05	0	44	102	1048576	16	4531
2026-01-05 10:37:01.85	340.73	9.79	-27.9	-30.0	12.9	3.50e-05	0	44	102	1048576	16	4589
2026-01-05 10:37:02.85	340.75	9.70	-27.9	-30.1	12.9	6.86e-05	0	43	102	1048576	16	4615
2026-01-05 10:37:03.86	340.76	9.62	-27.9	-29.9	13.0	2.44e-05	0	44	102	1048576	16	4561
2026-01-05 10:37:04.86	340.77	9.53	-27.7	-29.6	13.2	2.97e-05	0	44	102	1048576	16	4462
2026-01-05 10:37:05.87	340.79	9.45	-27.7	-29.4	13.3	1.83e-05	0	44	102	1048576	16	4413
2026-01-05 10:37:06.88	340.80	9.36	-27.8	-29.7	13.1	2.59e-05	0	43	102	1048576	16	4486
2026-01-05 10:37:07.89	340.81	9.28	-27.7	-29.5	13.2	2.82e-05	0	43	102	1048576	16	4447
2026-01-05 10:37:08.89	340.83	9.19	-27.6	-29.4	13.3	2.05e-05	0	43	102	1048576	16	4408
2026-01-05 10:37:09.90	340.84	9.11	-27.7	-29.5	13.2	1.90e-05	0	43	102	1048576	16	4450
2026-01-05 10:37:10.90	340.85	9.03	-27.7	-29.6	13.1	2.89e-05	0	43	102	1048576	16	4461
2026-01-05 10:37:11.91	340.86	8.94	-27.8	-29.8	13.0	3.05e-05	0	44	102	1048576	16	4538
2026-01-05 10:37:12.92	340.88	8.86	-27.7	-29.6	13.1	4.42e-05	0	43	102	1048576	16	4484
2026-01-05 10:37:13.93	340.89	8.78	-27.8	-29.8	13.0	3.81e-05	0	44	102	1048576	16	4526
2026-01-05 10:37:14.94	340.90	8.69	-27.8	-29.9	12.9	3.66e-05	0	43	102	1048576	16	4554
2026-01-05 10:37:15.94	340.91	8.61	-27.9	-30.2	12.8	7.70e-05	0	43	102	1048576	16	4649
2026-01-05 10:37:16.95	340.93	8.53	-27.9	-30.0	12.8	5.34e-05	0	43	102	1048576	16	4609
2026-01-05 10:37:17.96	340.94	8.45	-27.9	-30.1	12.8	4.95e-05	0	44	102	1048576	16	4618
2026-01-05 10:37:18.97	340.95	8.37	-27.9	-30.1	12.8	6.56e-05	0	43	102	1048576	16	4629
2026-01-05 10:37:19.97	340.96	8.28	-27.9	-30.0	12.8	6.02e-05	0	43	102	1048576	16	4613
2026-01-05 10:37:20.98	340.98	8.20	-27.9	-30.2	12.7	6.33e-05	0	44	102	1048576	16	4661
2026-01-05 10:37:21.99	340.99	8.12	-27.9	-30.1	12.8	6.86e-05	0	44	102	1048576	16	4620
2026-01-05 10:37:23.00	341.00	8.04	-27.9	-30.2	12.7	9.23e-05	0	43	102	1048576	16	4653
2026-01-05 10:37:24.01	341.01	7.96	-27.9	-30.2	12.7	9.46e-05	0	44	102	1048576	16	4676
2026-01-05 10:37:25.01	341.02	7.88	-28.0	-30.2	12.6	8.31e-05	0	43	102	1048576	16	4684
2026-01-05 10:37:26.02	341.04	7.80	-28.1	-30.5	12.5	1.34e-04	0	44	102	1048576	16	4770
2026-01-05 10:37:27.03	341.05	7.72	-28.1	-30.6	12.4	1.33e-04	0	43	102	1048576	16	4810
2026-01-05 10:37:28.04	341.06	7.64	-28.1	-30.5	12.4	1.58e-04	0	43	102	1048576	16	4784
2026-01-05 10:37:29.04	341.07	7.56	-28.3	-31.1	12.1	2.43e-04	0	44	102	1048576	16	4971
2026-01-05 10:37:30.05	341.08	7.49	-28.1	-30.7	12.3	1.91e-04	0	44	102	1048576	16	4826
2026-01-05 10:37:31.06	341.10	7.41	-28.2	-30.8	12.2	1.82e-04	0	44	102	1048576	16	4894
2026-01-05 10:37:32.06	341.11	7.33	-28.2	-30.9	12.1	2.49e-04	0	44	102	1048576	16	4918
2026-01-05 10:37:33.07	341.12	7.25	-28.3	-31.1	12.0	3.54e-04	0	44	102	1048576	16	4967
2026-01-05 10:37:34.08	341.13	7.17	-28.3	-31.1	12.0	2.59e-04	0	44	102	1048576	16	4991
2026-01-05 10:37:35.09	341.14	7.10	-28.4	-31.5	11.8	4.82e-04	0	44	102	1048576	16	5108
2026-01-05 10:37:36.10	341.16	7.02	-32.3	-44.5	3.8	1.49e+00	0	43	104	1048576	24	14552
2026-01-05 10:37:37.10	341.17	6.94	-32.6	-44.5	3.8	1.49e+00	0	43	104	1048576	25	14212

#Closed at: 2026-01-05 10:37:37
#Recorded file [1 MB]: D:/data/31010_260105_132811.dat