passes_logs/2026/01/05/R2M6_AANII_01/R2M6_AANII_01__20260105_034336_FENGYUN_3D_rec.log

#Pass ID: 20260105_034336_FENGYUN 3D
#Satellite: FENGYUN 3D
#Configuration: FENGYUN 3D
#almurnet v.1.7.20240730
#Start time: 2026-01-05 03:43:36

#Version: 2.2.20231116
#Station: R2M6_AANII_01
#Location: 30.233357 lon 59.946436 lat
#TLE: 1 43010U 17072A   26004.50247883 -.00000063  00000+0 -78815-5 0  9998
#TLE: 2 43010  98.9915 336.1565 0001968 126.3752 233.7605 14.19691805421760

#Time	Az	El	Level	Level2	SNR	BER	BlckErr	Temp	State	Recorded	gain1	gain2
2026-01-05 03:43:36.89	12.96	7.02	-29.7	-34.5	4.8	8.08e-01	0	41	0	0	20	6244
2026-01-05 03:43:37.89	12.90	7.09	-30.1	-34.3	5.0	8.01e-01	0	41	104	0	20	5841
2026-01-05 03:43:38.90	12.83	7.17	-30.1	-34.4	7.8	6.84e-02	0	41	0	0	20	5852
2026-01-05 03:43:39.91	12.77	7.24	-30.2	-34.5	7.7	7.48e-02	0	41	102	1048576	20	5922
2026-01-05 03:43:40.92	12.70	7.31	-30.3	-34.7	7.6	8.91e-02	0	41	102	1048576	20	5975
2026-01-05 03:43:41.92	12.64	7.38	-30.3	-34.8	7.5	8.61e-02	0	41	102	1048576	20	6045
2026-01-05 03:43:42.93	12.57	7.45	-30.2	-34.4	7.8	7.82e-02	0	41	102	1048576	20	5857
2026-01-05 03:43:43.94	12.51	7.53	-30.0	-33.8	8.2	5.30e-02	0	41	102	1048576	20	5569
2026-01-05 03:43:44.95	12.44	7.60	-29.6	-33.1	9.2	2.57e-02	0	41	102	1048576	19	5358
2026-01-05 03:43:45.96	12.37	7.67	-29.2	-32.4	10.0	8.09e-03	0	41	102	1048576	18	5214
2026-01-05 03:43:46.97	12.31	7.74	-28.8	-31.4	10.7	3.27e-03	0	41	102	1048576	18	4820
2026-01-05 03:43:47.97	12.24	7.82	-28.4	-30.8	11.4	1.32e-03	0	41	102	1048576	17	4728
2026-01-05 03:43:48.98	12.17	7.89	-28.0	-30.3	12.0	7.43e-04	0	41	102	1048576	16	4687
2026-01-05 03:43:49.98	12.11	7.96	-27.7	-30.0	12.4	1.13e-04	0	41	102	1048576	15	4700
2026-01-05 03:43:50.99	12.04	8.04	-27.5	-29.5	12.8	5.37e-04	0	41	102	1048576	15	4533
2026-01-05 03:43:52.00	11.97	8.11	-27.3	-29.6	13.0	4.52e-04	0	41	102	1048576	14	4686
2026-01-05 03:43:53.01	11.90	8.19	-27.5	-30.0	12.7	2.74e-05	0	42	102	1048576	14	4803
2026-01-05 03:43:54.02	11.83	8.26	-27.3	-29.5	13.0	4.77e-04	0	41	102	1048576	14	4665
2026-01-05 03:43:55.03	11.76	8.33	-27.2	-29.3	13.2	4.15e-04	0	42	102	1048576	14	4582
2026-01-05 03:43:56.04	11.69	8.41	-27.3	-29.5	13.1	2.05e-05	0	41	102	1048576	14	4644
2026-01-05 03:43:57.04	11.62	8.48	-27.1	-29.2	13.2	3.35e-04	0	42	102	1048576	14	4556
2026-01-05 03:43:58.05	11.55	8.56	-27.1	-29.2	13.3	3.35e-04	0	42	102	1048576	14	4560
2026-01-05 03:43:59.05	11.47	8.63	-27.2	-29.4	13.1	1.25e-05	0	42	102	1048576	14	4614
2026-01-05 03:44:00.06	11.40	8.71	-27.3	-29.6	13.1	3.49e-04	0	42	102	1048576	14	4679
2026-01-05 03:44:01.06	11.33	8.78	-27.1	-29.1	13.3	1.74e-03	0	42	102	1048576	14	4532
2026-01-05 03:44:02.07	11.26	8.86	-27.0	-29.3	13.5	1.14e-05	0	42	102	1048576	13	4694
2026-01-05 03:44:03.08	11.19	8.93	-26.9	-29.2	13.5	1.91e-03	0	42	102	1048576	13	4672
2026-01-05 03:44:04.09	11.11	9.01	-26.9	-29.1	13.6	2.83e-04	0	42	102	1048576	13	4629
2026-01-05 03:44:05.09	11.04	9.09	-26.9	-29.2	13.6	3.03e-04	0	42	102	1048576	13	4665
2026-01-05 03:44:06.10	10.96	9.16	-26.9	-29.0	13.7	1.10e-06	0	42	102	1048576	13	4618
2026-01-05 03:44:07.11	10.89	9.24	-27.0	-29.3	13.5	2.57e-04	0	42	102	1048576	13	4710
2026-01-05 03:44:08.11	10.81	9.31	-26.9	-29.0	13.7	2.95e-04	0	42	102	1048576	13	4609
2026-01-05 03:44:09.12	10.74	9.39	-26.8	-28.8	13.9	2.59e-04	0	42	102	1048576	13	4538
2026-01-05 03:44:10.13	10.66	9.47	-26.8	-28.8	13.8	1.86e-03	0	42	102	1048576	13	4553
2026-01-05 03:44:11.13	10.59	9.54	-26.7	-28.6	14.0	2.20e-06	0	42	102	1048576	13	4499
2026-01-05 03:44:12.14	10.51	9.62	-26.7	-28.5	14.0	1.77e-03	0	42	102	1048576	13	4463
2026-01-05 03:44:13.15	10.43	9.70	-26.8	-28.8	13.9	1.20e-03	0	42	102	1048576	13	4540
2026-01-05 03:44:14.16	10.35	9.78	-26.8	-28.8	13.9	2.48e-04	0	42	102	1048576	13	4559
2026-01-05 03:44:15.16	10.28	9.86	-26.8	-28.8	13.9	1.64e-03	0	42	102	1048576	13	4562
2026-01-05 03:44:16.17	10.20	9.93	-26.7	-28.7	13.9	2.35e-04	0	42	102	1048576	13	4516
2026-01-05 03:44:17.18	10.12	10.01	-26.8	-28.8	13.9	2.52e-04	0	42	102	1048576	13	4551
2026-01-05 03:44:18.18	10.04	10.09	-26.7	-28.7	13.9	1.10e-06	0	42	102	1048576	13	4519
2026-01-05 03:44:19.19	9.96	10.17	-26.8	-28.8	13.9	1.58e-03	0	42	102	1048576	13	4563
2026-01-05 03:44:20.20	9.88	10.25	-26.9	-29.1	13.7	2.52e-04	0	42	102	1048576	13	4646
2026-01-05 03:44:21.21	9.80	10.33	-26.9	-29.2	13.7	1.54e-03	0	43	102	1048576	13	4660
2026-01-05 03:44:22.22	9.72	10.41	-26.8	-29.0	13.8	1.39e-03	0	42	102	1048576	13	4601
2026-01-05 03:44:23.23	9.64	10.49	-26.9	-29.0	13.8	2.30e-04	0	42	102	1048576	13	4610
2026-01-05 03:44:24.23	9.55	10.57	-26.9	-29.1	13.7	1.48e-03	0	42	102	1048576	13	4635
2026-01-05 03:44:25.24	9.47	10.65	-26.9	-29.0	13.8	6.05e-04	0	42	102	1048576	13	4621
2026-01-05 03:44:26.25	9.39	10.73	-26.9	-29.2	13.7	1.84e-04	0	42	102	1048576	13	4672
2026-01-05 03:44:27.26	9.30	10.81	-27.2	-29.3	13.4	9.10e-06	0	42	102	1048576	14	4578
2026-01-05 03:44:28.26	9.22	10.89	-27.4	-29.7	13.1	1.73e-03	0	43	102	1048576	14	4721
2026-01-05 03:44:29.27	9.14	10.97	-27.1	-29.1	13.5	1.89e-04	0	42	102	1048576	14	4509
2026-01-05 03:44:30.28	9.05	11.05	-26.8	-29.0	13.8	1.73e-03	0	42	102	1048576	13	4595
2026-01-05 03:44:31.29	8.96	11.13	-26.8	-28.8	13.9	0.00e+00	0	42	102	1048576	13	4557
2026-01-05 03:44:32.30	8.88	11.21	-26.9	-29.0	13.8	4.50e-06	0	42	102	1048576	13	4591
2026-01-05 03:44:33.30	8.79	11.29	-26.8	-28.8	13.9	1.56e-03	0	42	102	1048576	13	4557
2026-01-05 03:44:34.31	8.70	11.37	-26.8	-28.8	14.0	0.00e+00	0	43	102	1048576	13	4532
2026-01-05 03:44:35.32	8.62	11.46	-26.8	-28.8	13.9	2.17e-04	0	42	102	1048576	13	4553
2026-01-05 03:44:36.33	8.53	11.54	-26.8	-28.8	13.9	1.10e-06	0	42	102	1048576	13	4558
2026-01-05 03:44:37.34	8.44	11.62	-26.8	-28.9	13.9	1.72e-03	0	43	102	1048576	13	4579
2026-01-05 03:44:38.35	8.35	11.70	-26.7	-28.5	14.2	1.10e-06	0	42	102	1048576	13	4464
2026-01-05 03:44:39.36	8.26	11.79	-26.5	-28.2	14.3	2.20e-06	0	42	102	1048576	13	4370
2026-01-05 03:44:40.36	8.17	11.87	-26.5	-28.2	14.4	0.00e+00	0	43	102	1048576	13	4359
2026-01-05 03:44:41.36	8.08	11.95	-26.6	-28.3	14.3	0.00e+00	0	43	102	1048576	13	4397
2026-01-05 03:44:42.37	7.99	12.03	-26.6	-28.4	14.3	1.65e-03	0	43	102	1048576	13	4421
2026-01-05 03:44:43.38	7.90	12.12	-26.5	-28.2	14.4	0.00e+00	0	43	102	1048576	13	4363
2026-01-05 03:44:44.38	7.81	12.20	-26.6	-28.4	14.2	1.10e-06	0	43	102	1048576	13	4436
2026-01-05 03:44:45.38	7.71	12.28	-26.4	-28.4	14.5	0.00e+00	0	43	102	1048576	12	4536
2026-01-05 03:44:46.39	7.62	12.37	-26.4	-28.3	14.6	0.00e+00	0	43	102	1048576	12	4518
2026-01-05 03:44:47.40	7.53	12.45	-26.5	-28.1	14.4	0.00e+00	0	43	102	1048576	13	4344
2026-01-05 03:44:48.40	7.43	12.54	-26.8	-28.7	14.1	0.00e+00	0	43	102	1048576	13	4516
2026-01-05 03:44:49.41	7.34	12.62	-27.0	-28.9	13.7	2.20e-06	0	43	102	1048576	14	4457
2026-01-05 03:44:50.40	7.24	12.71	-27.3	-29.4	13.5	4.50e-06	0	43	102	1048576	14	4612
2026-01-05 03:44:51.41	7.15	12.79	-27.6	-29.7	13.0	2.51e-05	0	43	102	1048576	15	4585
2026-01-05 03:44:52.42	7.05	12.88	-27.7	-29.9	12.9	4.00e-05	0	43	102	1048576	15	4641
2026-01-05 03:44:53.42	6.95	12.96	-27.5	-29.6	13.1	1.83e-05	0	43	102	1048576	15	4546
2026-01-05 03:44:54.43	6.85	13.05	-27.6	-29.8	12.9	3.31e-05	0	43	102	1048576	15	4595
2026-01-05 03:44:55.44	6.76	13.14	-27.6	-29.6	13.1	1.83e-05	0	43	102	1048576	15	4550
2026-01-05 03:44:56.44	6.66	13.22	-27.6	-29.6	13.1	4.92e-05	0	43	102	1048576	15	4539
2026-01-05 03:44:57.44	6.56	13.31	-27.2	-29.3	13.5	1.25e-05	0	43	102	1048576	14	4585
2026-01-05 03:44:58.45	6.46	13.39	-27.0	-28.8	13.9	0.00e+00	0	43	102	1048576	14	4422
2026-01-05 03:44:59.45	6.36	13.48	-26.8	-28.4	14.1	2.20e-06	0	43	102	1048576	14	4308
2026-01-05 03:45:00.46	6.26	13.57	-26.8	-28.8	14.1	1.85e-04	0	43	102	1048576	13	4537
2026-01-05 03:45:01.46	6.15	13.65	-27.1	-29.0	13.7	4.50e-06	0	43	102	1048576	14	4469
2026-01-05 03:45:02.47	6.05	13.74	-27.2	-29.3	13.6	8.00e-06	0	43	102	1048576	14	4558
2026-01-05 03:45:03.48	5.95	13.83	-26.9	-28.4	14.1	3.40e-06	0	43	102	1048576	14	4317
2026-01-05 03:45:04.48	5.84	13.92	-26.6	-28.3	14.4	0.00e+00	0	43	102	1048576	13	4399
2026-01-05 03:45:05.49	5.74	14.01	-26.4	-27.8	14.7	0.00e+00	0	43	102	1048576	13	4253
2026-01-05 03:45:06.50	5.63	14.10	-26.4	-28.3	14.7	0.00e+00	0	43	102	1048576	12	4513
2026-01-05 03:45:07.50	5.53	14.18	-26.4	-28.4	14.7	1.10e-06	0	43	102	1048576	12	4523
2026-01-05 03:45:08.51	5.42	14.27	-26.5	-28.6	14.6	0.00e+00	0	43	102	1048576	12	4606
2026-01-05 03:45:09.51	5.31	14.36	-26.7	-28.6	14.3	1.90e-04	0	43	102	1048576	13	4466
2026-01-05 03:45:10.52	5.21	14.45	-26.7	-28.7	14.2	0.00e+00	0	43	102	1048576	13	4506
2026-01-05 03:45:11.53	5.10	14.54	-26.4	-27.8	14.7	2.17e-04	0	43	102	1048576	13	4241
2026-01-05 03:45:12.54	4.99	14.63	-26.1	-27.8	15.0	1.88e-04	0	43	102	1048576	12	4358
2026-01-05 03:45:13.54	4.88	14.72	-26.0	-27.6	15.2	0.00e+00	0	43	102	1048576	12	4294
2026-01-05 03:45:14.55	4.77	14.81	-26.0	-27.5	15.2	2.70e-04	0	43	102	1048576	12	4281
2026-01-05 03:45:15.55	4.66	14.90	-25.9	-27.4	15.3	0.00e+00	0	43	102	1048576	12	4236
2026-01-05 03:45:16.56	4.54	14.99	-25.9	-27.3	15.4	0.00e+00	0	43	102	1048576	12	4217
2026-01-05 03:45:17.57	4.43	15.08	-25.8	-27.0	15.5	0.00e+00	0	43	102	1048576	12	4151
2026-01-05 03:45:18.57	4.32	15.17	-25.8	-27.6	15.5	1.37e-04	0	43	102	1048576	11	4411
2026-01-05 03:45:19.57	4.20	15.26	-25.9	-27.6	15.5	0.00e+00	0	43	102	1048576	11	4420
2026-01-05 03:45:20.57	4.09	15.36	-25.8	-27.5	15.6	2.20e-06	0	43	102	1048576	11	4397
2026-01-05 03:45:21.58	3.97	15.45	-25.7	-27.3	15.7	0.00e+00	0	43	102	1048576	11	4332
2026-01-05 03:45:22.58	3.86	15.54	-25.7	-27.3	15.7	0.00e+00	0	43	102	1048576	11	4325
2026-01-05 03:45:23.59	3.74	15.63	-25.6	-27.1	15.8	0.00e+00	0	43	102	1048576	11	4270
2026-01-05 03:45:24.60	3.62	15.72	-25.6	-27.1	15.9	0.00e+00	0	43	102	1048576	11	4263
2026-01-05 03:45:25.60	3.50	15.82	-25.7	-27.3	15.7	0.00e+00	0	43	102	1048576	11	4310
2026-01-05 03:45:26.61	3.39	15.91	-25.7	-27.2	15.8	0.00e+00	0	43	102	1048576	11	4292
2026-01-05 03:45:27.62	3.26	16.00	-25.6	-27.1	15.9	0.00e+00	0	43	102	1048576	11	4258
2026-01-05 03:45:28.63	3.14	16.10	-25.5	-26.8	16.0	0.00e+00	0	43	102	1048576	11	4197
2026-01-05 03:45:29.63	3.02	16.19	-25.5	-26.8	16.0	0.00e+00	0	43	102	1048576	11	4193
2026-01-05 03:45:30.64	2.90	16.29	-25.4	-26.6	16.1	0.00e+00	0	43	102	1048576	11	4146
2026-01-05 03:45:31.64	2.78	16.38	-24.1	-25.9	15.8	0.00e+00	0	43	102	1048576	10	4389
2026-01-05 03:45:32.65	2.65	16.47	-25.1	-26.8	13.6	0.00e+00	0	43	102	1048576	10	4365
2026-01-05 03:45:33.65	2.53	16.57	-25.3	-27.0	12.7	0.00e+00	0	43	102	1048576	10	4360
2026-01-05 03:45:34.66	2.40	16.66	-25.3	-26.9	15.5	0.00e+00	0	43	102	1048576	10	4338
2026-01-05 03:45:35.67	2.27	16.76	-25.4	-27.0	15.4	0.00e+00	0	43	102	1048576	10	4360
2026-01-05 03:45:36.67	2.15	16.85	-25.3	-27.0	16.0	0.00e+00	0	43	102	1048576	10	4344
2026-01-05 03:45:37.68	2.02	16.95	-25.3	-27.0	16.2	0.00e+00	0	43	102	1048576	10	4353
2026-01-05 03:45:38.69	1.89	17.04	-25.5	-27.3	16.0	0.00e+00	0	43	102	1048576	10	4454
2026-01-05 03:45:39.70	1.76	17.14	-25.8	-27.4	15.7	1.59e-04	0	43	102	1048576	11	4360
2026-01-05 03:45:40.70	1.63	17.24	-25.8	-27.4	15.7	1.82e-04	0	43	102	1048576	11	4353
2026-01-05 03:45:41.71	1.50	17.33	-25.6	-27.1	15.9	5.37e-05	0	43	102	1048576	11	4259
2026-01-05 03:45:42.72	1.36	17.43	-25.6	-27.1	16.0	1.48e-03	0	43	102	1048576	11	4268
2026-01-05 03:45:43.72	1.23	17.53	-25.6	-27.0	16.0	0.00e+00	0	43	102	1048576	11	4256
2026-01-05 03:45:44.72	1.10	17.62	-25.6	-27.0	16.0	1.52e-03	0	43	102	1048576	11	4245
2026-01-05 03:45:45.73	0.96	17.72	-25.5	-26.9	16.0	0.00e+00	0	43	102	1048576	11	4216
2026-01-05 03:45:46.73	0.83	17.82	-25.5	-27.3	16.1	0.00e+00	0	43	102	1048576	10	4427
2026-01-05 03:45:47.74	0.69	17.91	-25.3	-26.8	16.3	1.59e-03	0	43	102	1048576	10	4308
2026-01-05 03:45:48.75	0.55	18.01	-25.2	-26.7	16.4	0.00e+00	0	43	102	1048576	10	4273
2026-01-05 03:45:49.75	0.41	18.11	-25.2	-26.7	16.4	2.33e-04	0	43	102	1048576	10	4283
2026-01-05 03:45:50.76	0.27	18.21	-25.1	-26.4	16.6	0.00e+00	0	43	102	1048576	10	4192
2026-01-05 03:45:51.77	0.13	18.31	-25.1	-26.6	16.5	1.36e-03	0	43	102	1048576	10	4237
2026-01-05 03:45:52.77	359.99	18.41	-25.1	-26.4	16.6	2.18e-04	0	43	102	1048576	10	4189
2026-01-05 03:45:53.77	359.85	18.50	-25.0	-26.4	16.7	1.44e-03	0	43	102	1048576	10	4183
2026-01-05 03:45:54.78	359.71	18.60	-25.1	-26.5	16.5	1.60e-03	0	43	102	1048576	10	4225
2026-01-05 03:45:55.79	359.56	18.70	-25.1	-26.5	16.6	1.98e-04	0	43	102	1048576	10	4220
2026-01-05 03:45:56.80	359.42	18.80	-25.2	-26.6	16.6	1.56e-03	0	43	102	1048576	10	4243
2026-01-05 03:45:57.81	359.27	18.90	-25.1	-26.5	16.6	0.00e+00	0	43	102	1048576	10	4215
2026-01-05 03:45:58.81	359.12	19.00	-25.0	-26.3	16.7	1.86e-04	0	43	102	1048576	10	4171
2026-01-05 03:45:59.82	358.97	19.10	-25.1	-26.5	16.6	1.43e-03	0	43	102	1048576	10	4212
2026-01-05 03:46:00.82	358.83	19.20	-24.9	-26.1	16.8	1.37e-03	0	43	102	1048576	10	4114
2026-01-05 03:46:01.83	358.68	19.30	-24.8	-25.8	16.9	1.92e-04	0	43	102	1048576	10	4049
2026-01-05 03:46:02.84	358.52	19.41	-24.8	-26.3	16.9	1.36e-03	0	43	102	1048576	9	4287
2026-01-05 03:46:03.85	358.37	19.51	-24.8	-26.3	17.0	1.49e-03	0	43	102	1048576	9	4280
2026-01-05 03:46:04.85	358.22	19.61	-24.8	-26.3	17.0	2.48e-04	0	43	102	1048576	9	4272
2026-01-05 03:46:05.85	358.06	19.71	-24.8	-26.3	17.0	1.41e-03	0	43	102	1048576	9	4271
2026-01-05 03:46:06.86	357.91	19.81	-24.8	-26.3	17.0	0.00e+00	0	43	102	1048576	9	4271
2026-01-05 03:46:07.87	357.75	19.91	-24.9	-26.5	16.9	2.44e-04	0	43	102	1048576	9	4330
2026-01-05 03:46:08.87	357.60	20.01	-24.8	-26.4	16.9	1.41e-03	0	43	102	1048576	9	4302
2026-01-05 03:46:09.88	357.44	20.12	-24.8	-26.3	16.9	1.30e-03	0	43	102	1048576	9	4291
2026-01-05 03:46:10.89	357.28	20.22	-24.9	-26.6	16.8	2.61e-04	0	43	102	1048576	9	4358
2026-01-05 03:46:11.90	357.11	20.32	-24.8	-26.4	16.9	0.00e+00	0	43	102	1048576	9	4313
2026-01-05 03:46:12.90	356.95	20.42	-24.8	-26.4	16.9	1.41e-03	0	43	102	1048576	9	4306
2026-01-05 03:46:13.91	356.79	20.53	-24.7	-26.2	17.1	0.00e+00	0	43	102	1048576	9	4248
2026-01-05 03:46:14.91	356.63	20.63	-24.7	-26.1	17.1	1.33e-03	0	43	102	1048576	9	4214
2026-01-05 03:46:15.91	356.46	20.73	-24.7	-26.1	17.1	0.00e+00	0	43	102	1048576	9	4234
2026-01-05 03:46:16.92	356.30	20.84	-24.5	-25.8	17.3	1.96e-04	0	43	102	1048576	9	4146
2026-01-05 03:46:17.92	356.13	20.94	-24.4	-25.5	17.4	1.25e-03	0	43	102	1048576	9	4079
2026-01-05 03:46:18.93	355.96	21.04	-24.4	-25.6	17.4	0.00e+00	0	43	102	1048576	9	4088
2026-01-05 03:46:19.94	355.79	21.15	-24.4	-25.9	17.5	1.85e-04	0	43	102	1048576	8	4284
2026-01-05 03:46:20.94	355.62	21.25	-24.4	-26.0	17.4	0.00e+00	0	43	102	1048576	8	4307
2026-01-05 03:46:21.95	355.45	21.35	-24.3	-25.7	17.6	1.19e-03	0	43	102	1048576	8	4251
2026-01-05 03:46:22.96	355.27	21.46	-24.4	-25.9	17.5	0.00e+00	0	43	102	1048576	8	4289
2026-01-05 03:46:23.96	355.10	21.56	-24.4	-26.0	17.4	0.00e+00	0	43	102	1048576	8	4316
2026-01-05 03:46:24.97	354.92	21.67	-24.4	-26.0	17.5	0.00e+00	0	43	102	1048576	8	4320
2026-01-05 03:46:25.97	354.75	21.77	-24.5	-25.8	17.3	0.00e+00	0	43	102	1048576	9	4139
2026-01-05 03:46:26.98	354.57	21.88	-24.7	-26.1	17.1	0.00e+00	0	43	102	1048576	9	4213
2026-01-05 03:46:27.98	354.39	21.98	-24.5	-25.6	17.4	0.00e+00	0	43	102	1048576	9	4091
2026-01-05 03:46:28.99	354.21	22.09	-24.5	-25.6	17.3	0.00e+00	0	43	102	1048576	9	4106
2026-01-05 03:46:30.00	354.02	22.19	-24.4	-25.4	17.5	0.00e+00	0	43	102	1048576	9	4054
2026-01-05 03:46:31.01	353.84	22.30	-24.4	-25.9	17.5	0.00e+00	0	43	102	1048576	8	4294
2026-01-05 03:46:32.02	353.66	22.40	-24.4	-25.8	17.5	0.00e+00	0	43	102	1048576	8	4273
2026-01-05 03:46:33.02	353.47	22.51	-24.4	-25.9	17.5	0.00e+00	0	43	102	1048576	8	4289
2026-01-05 03:46:34.03	353.28	22.62	-24.6	-25.8	17.3	0.00e+00	0	43	102	1048576	9	4148
2026-01-05 03:46:35.03	353.10	22.72	-24.9	-26.5	16.9	0.00e+00	0	43	102	1048576	9	4325
2026-01-05 03:46:36.04	352.91	22.83	-24.5	-25.7	17.4	2.76e-04	0	43	102	1048576	9	4130
2026-01-05 03:46:37.05	352.71	22.93	-24.5	-25.6	17.4	0.00e+00	0	43	102	1048576	9	4088
2026-01-05 03:46:38.06	352.52	23.04	-24.4	-25.5	17.5	2.67e-04	0	43	102	1048576	9	4063
2026-01-05 03:46:39.06	352.33	23.15	-24.5	-25.6	17.4	0.00e+00	0	43	102	1048576	9	4096
2026-01-05 03:46:40.06	352.13	23.25	-24.3	-25.8	17.6	0.00e+00	0	43	102	1048576	8	4260
2026-01-05 03:46:41.07	351.94	23.36	-24.4	-26.0	17.5	0.00e+00	0	43	102	1048576	8	4303
2026-01-05 03:46:42.08	351.74	23.47	-24.3	-25.6	17.7	0.00e+00	0	43	102	1048576	8	4224
2026-01-05 03:46:43.09	351.54	23.57	-24.1	-25.2	17.9	0.00e+00	0	43	102	1048576	8	4116
2026-01-05 03:46:44.09	351.34	23.68	-24.0	-25.1	18.0	0.00e+00	0	43	102	1048576	8	4090
2026-01-05 03:46:45.09	351.14	23.78	-24.0	-25.1	17.9	1.43e-04	0	43	102	1048576	8	4091
2026-01-05 03:46:46.10	350.93	23.89	-24.0	-25.1	17.9	0.00e+00	0	43	102	1048576	8	4079
2026-01-05 03:46:47.11	350.73	24.00	-24.1	-25.4	17.8	0.00e+00	0	43	102	1048576	8	4151
2026-01-05 03:46:48.11	350.52	24.10	-24.1	-25.2	17.9	0.00e+00	0	43	102	1048576	8	4117
2026-01-05 03:46:49.12	350.32	24.21	-24.1	-25.2	17.9	0.00e+00	0	43	102	1048576	8	4119
2026-01-05 03:46:50.12	350.11	24.32	-24.1	-25.3	17.8	0.00e+00	0	43	102	1048576	8	4141
2026-01-05 03:46:51.13	349.90	24.42	-24.2	-25.5	17.7	0.00e+00	0	44	102	1048576	8	4196
2026-01-05 03:46:52.14	349.68	24.53	-24.0	-25.0	18.0	0.00e+00	0	43	102	1048576	8	4060
2026-01-05 03:46:53.14	349.47	24.64	-23.8	-24.7	18.2	0.00e+00	0	43	102	1048576	8	3980
2026-01-05 03:46:54.15	349.26	24.75	-23.8	-24.7	18.2	0.00e+00	0	43	102	1048576	8	3983
2026-01-05 03:46:55.16	349.04	24.85	-23.9	-24.8	18.1	0.00e+00	0	43	102	1048576	8	4008
2026-01-05 03:46:56.16	348.82	24.96	-23.9	-25.3	18.1	0.00e+00	0	43	102	1048576	7	4247
2026-01-05 03:46:57.16	348.60	25.06	-23.8	-25.1	18.2	2.20e-06	0	43	102	1048576	7	4192
2026-01-05 03:46:58.17	348.38	25.17	-23.8	-25.2	18.1	0.00e+00	0	43	102	1048576	7	4232
2026-01-05 03:46:59.18	348.16	25.28	-23.9	-25.4	18.0	4.11e-05	0	43	102	1048576	7	4285
2026-01-05 03:47:00.18	347.94	25.38	-23.7	-25.0	18.3	0.00e+00	0	43	102	1048576	7	4171
2026-01-05 03:47:01.19	347.71	25.49	-23.6	-24.7	18.4	0.00e+00	0	43	102	1048576	7	4093
2026-01-05 03:47:02.20	347.48	25.60	-23.5	-24.6	18.5	0.00e+00	0	43	102	1048576	7	4064
2026-01-05 03:47:03.21	347.25	25.71	-23.6	-24.7	18.4	1.48e-05	0	43	102	1048576	7	4089
2026-01-05 03:47:04.22	347.02	25.81	-23.4	-24.4	18.6	0.00e+00	0	43	102	1048576	7	4013
2026-01-05 03:47:05.22	346.79	25.92	-23.5	-24.6	18.5	0.00e+00	0	43	102	1048576	7	4072
2026-01-05 03:47:06.23	346.56	26.02	-23.5	-24.6	18.5	2.17e-05	0	43	102	1048576	7	4069
2026-01-05 03:47:07.24	346.32	26.13	-23.5	-24.6	18.5	0.00e+00	0	43	102	1048576	7	4066
2026-01-05 03:47:08.24	346.09	26.24	-23.5	-24.4	18.6	1.48e-04	0	43	102	1048576	7	4020
2026-01-05 03:47:09.25	345.85	26.34	-23.4	-24.3	18.7	0.00e+00	0	43	102	1048576	7	3990
2026-01-05 03:47:10.26	345.61	26.45	-23.5	-24.5	18.6	0.00e+00	0	43	102	1048576	7	4034
2026-01-05 03:47:11.27	345.37	26.55	-23.3	-24.6	18.8	6.68e-04	0	43	102	1048576	6	4172
2026-01-05 03:47:12.28	345.12	26.66	-23.3	-24.6	18.8	0.00e+00	0	43	102	1048576	6	4172
2026-01-05 03:47:13.29	344.88	26.77	-23.3	-24.7	18.7	0.00e+00	0	43	102	1048576	6	4200
2026-01-05 03:47:14.29	344.63	26.87	-23.4	-24.8	18.7	0.00e+00	0	43	102	1048576	6	4231
2026-01-05 03:47:15.29	344.39	26.97	-23.5	-24.5	18.6	8.54e-04	0	43	102	1048576	7	4041
2026-01-05 03:47:16.30	344.14	27.08	-23.4	-24.4	18.6	0.00e+00	0	43	102	1048576	7	4019
2026-01-05 03:47:17.31	343.88	27.18	-23.4	-24.3	18.7	0.00e+00	0	43	102	1048576	7	3994
2026-01-05 03:47:18.31	343.63	27.29	-23.4	-24.3	18.7	9.81e-04	0	43	102	1048576	7	4000
2026-01-05 03:47:19.32	343.38	27.39	-23.3	-24.1	18.8	0.00e+00	0	43	102	1048576	7	3942
2026-01-05 03:47:20.32	343.12	27.50	-23.3	-24.6	18.8	1.17e-03	0	44	102	1048576	6	4174
2026-01-05 03:47:21.33	342.86	27.60	-23.3	-24.6	18.8	0.00e+00	0	43	102	1048576	6	4178
2026-01-05 03:47:22.34	342.60	27.70	-23.3	-24.5	18.8	0.00e+00	0	43	102	1048576	6	4164
2026-01-05 03:47:23.35	342.34	27.81	-23.3	-24.6	18.8	9.99e-04	0	43	102	1048576	6	4183
2026-01-05 03:47:24.35	342.08	27.91	-23.3	-24.6	18.8	1.04e-03	0	43	102	1048576	6	4184
2026-01-05 03:47:25.36	341.81	28.01	-23.4	-24.7	18.7	0.00e+00	0	43	102	1048576	6	4221
2026-01-05 03:47:26.36	341.55	28.11	-23.4	-24.7	18.7	1.03e-03	0	43	102	1048576	6	4215
2026-01-05 03:47:27.37	341.28	28.22	-23.4	-24.8	18.6	1.03e-03	0	43	102	1048576	6	4243
2026-01-05 03:47:28.38	341.01	28.32	-23.5	-24.4	18.6	0.00e+00	0	43	102	1048576	7	4026
2026-01-05 03:47:29.38	340.74	28.42	-23.4	-24.2	18.7	1.02e-03	0	43	102	1048576	7	3977
2026-01-05 03:47:30.39	340.46	28.52	-23.4	-24.4	18.6	9.67e-04	0	43	102	1048576	7	4020
2026-01-05 03:47:31.40	340.19	28.62	-23.4	-24.4	18.6	0.00e+00	0	43	102	1048576	7	4015
2026-01-05 03:47:32.40	339.91	28.72	-23.3	-24.2	18.8	9.75e-04	0	43	102	1048576	7	3960
2026-01-05 03:47:33.40	339.64	28.82	-23.3	-24.6	18.8	1.04e-03	0	44	102	1048576	6	4180
2026-01-05 03:47:34.41	339.35	28.92	-23.3	-24.6	18.8	0.00e+00	0	44	102	1048576	6	4175
2026-01-05 03:47:35.41	339.07	29.02	-23.4	-24.7	18.7	0.00e+00	0	43	102	1048576	6	4211
2026-01-05 03:47:36.42	338.79	29.12	-23.3	-24.7	18.7	1.01e-03	0	43	102	1048576	6	4210
2026-01-05 03:47:37.43	338.50	29.21	-23.4	-24.9	18.6	1.10e-06	0	43	102	1048576	6	4259
2026-01-05 03:47:38.44	338.21	29.31	-23.4	-24.8	18.6	8.43e-04	0	43	102	1048576	6	4242
2026-01-05 03:47:39.44	337.93	29.41	-23.3	-24.5	18.8	7.66e-04	0	43	102	1048576	6	4166
2026-01-05 03:47:40.45	337.63	29.50	-23.3	-24.5	18.8	0.00e+00	0	43	102	1048576	6	4165
2026-01-05 03:47:41.46	337.34	29.60	-23.3	-24.5	18.8	6.46e-04	0	44	102	1048576	6	4161
2026-01-05 03:47:42.47	337.05	29.70	-23.2	-24.5	18.8	0.00e+00	0	44	102	1048576	6	4152
2026-01-05 03:47:43.47	336.75	29.79	-23.2	-24.4	18.9	1.46e-04	0	44	102	1048576	6	4123
2026-01-05 03:47:44.48	336.45	29.89	-23.1	-24.2	19.0	0.00e+00	0	43	102	1048576	6	4090
2026-01-05 03:47:45.49	336.15	29.98	-23.1	-24.3	18.9	1.19e-04	0	44	102	1048576	6	4103
2026-01-05 03:47:46.50	335.85	30.07	-23.2	-24.4	18.9	0.00e+00	0	43	102	1048576	6	4120
2026-01-05 03:47:47.51	335.54	30.17	-23.1	-24.2	19.0	0.00e+00	0	44	102	1048576	6	4068
2026-01-05 03:47:48.51	335.24	30.26	-22.9	-23.8	19.2	0.00e+00	0	44	102	1048576	6	3993
2026-01-05 03:47:49.51	334.94	30.35	-23.1	-24.2	19.0	0.00e+00	0	44	102	1048576	6	4091
2026-01-05 03:47:50.52	334.63	30.44	-23.2	-24.5	18.8	2.16e-04	0	44	102	1048576	6	4143
2026-01-05 03:47:51.53	334.31	30.53	-23.3	-24.6	18.8	0.00e+00	0	43	102	1048576	6	4192
2026-01-05 03:47:52.53	334.00	30.62	-23.4	-24.7	18.7	0.00e+00	0	43	102	1048576	6	4217
2026-01-05 03:47:53.53	333.69	30.71	-23.3	-24.7	18.7	0.00e+00	0	44	102	1048576	6	4211
2026-01-05 03:47:54.54	333.38	30.80	-23.3	-24.6	18.8	0.00e+00	0	43	102	1048576	6	4184
2026-01-05 03:47:55.54	333.06	30.88	-23.1	-24.2	18.7	0.00e+00	0	44	102	1048576	6	4085
2026-01-05 03:47:56.55	332.74	30.97	-23.1	-24.1	19.0	0.00e+00	0	43	102	1048576	6	4050
2026-01-05 03:47:57.56	332.42	31.06	-23.0	-23.9	19.1	0.00e+00	0	44	102	1048576	6	4007
2026-01-05 03:47:58.57	332.09	31.14	-22.9	-24.4	19.1	0.00e+00	0	43	102	1048576	5	4239
2026-01-05 03:47:59.58	331.77	31.23	-23.0	-24.4	19.1	0.00e+00	0	43	102	1048576	5	4247
2026-01-05 03:48:00.58	331.45	31.31	-23.0	-24.4	19.1	0.00e+00	0	43	102	1048576	5	4251
2026-01-05 03:48:01.59	331.12	31.39	-23.1	-24.3	19.0	2.18e-04	0	44	102	1048576	6	4099
2026-01-05 03:48:02.60	330.79	31.47	-23.1	-24.2	19.0	0.00e+00	0	44	102	1048576	6	4083
2026-01-05 03:48:03.60	330.46	31.55	-23.2	-24.3	18.9	0.00e+00	0	44	102	1048576	6	4110
2026-01-05 03:48:04.61	330.12	31.63	-23.1	-24.2	19.0	1.89e-04	0	43	102	1048576	6	4070
2026-01-05 03:48:05.62	329.79	31.71	-22.8	-23.6	19.3	0.00e+00	0	43	102	1048576	6	3937
2026-01-05 03:48:06.63	329.45	31.79	-22.7	-23.4	19.4	0.00e+00	0	44	102	1048576	6	3880
2026-01-05 03:48:07.64	329.11	31.87	-22.7	-23.4	19.4	0.00e+00	0	43	102	1048576	6	3891
2026-01-05 03:48:08.64	328.77	31.95	-22.7	-23.3	19.5	1.23e-04	0	44	102	1048576	6	3864
2026-01-05 03:48:09.65	328.43	32.02	-22.6	-23.6	19.5	0.00e+00	0	44	102	1048576	5	4054
2026-01-05 03:48:10.66	328.09	32.10	-22.6	-23.7	19.5	4.50e-06	0	44	102	1048576	5	4068
2026-01-05 03:48:11.66	327.75	32.17	-22.6	-23.6	19.5	0.00e+00	0	43	102	1048576	5	4050
2026-01-05 03:48:12.66	327.40	32.24	-22.6	-23.7	19.5	0.00e+00	0	44	102	1048576	5	4070
2026-01-05 03:48:13.67	327.06	32.31	-22.8	-24.1	19.3	9.15e-05	0	44	102	1048576	5	4169
2026-01-05 03:48:14.68	326.71	32.39	-22.8	-24.0	19.3	0.00e+00	0	43	102	1048576	5	4150
2026-01-05 03:48:15.69	326.35	32.45	-22.6	-23.7	19.5	0.00e+00	0	43	102	1048576	5	4078
2026-01-05 03:48:16.70	326.00	32.52	-22.8	-24.0	19.4	3.03e-04	0	43	102	1048576	5	4134
2026-01-05 03:48:17.70	325.65	32.59	-22.8	-24.1	19.3	5.19e-04	0	43	102	1048576	5	4160
2026-01-05 03:48:18.71	325.29	32.66	-22.9	-24.3	19.2	0.00e+00	0	44	102	1048576	5	4230
2026-01-05 03:48:19.72	324.94	32.72	-22.9	-24.2	19.2	6.26e-04	0	44	102	1048576	5	4198
2026-01-05 03:48:20.73	324.58	32.79	-22.9	-24.2	19.2	3.31e-04	0	44	102	1048576	5	4201
2026-01-05 03:48:21.74	324.22	32.85	-22.9	-24.2	19.3	0.00e+00	0	44	102	1048576	5	4187
2026-01-05 03:48:22.74	323.86	32.91	-22.9	-24.3	19.2	1.42e-04	0	43	102	1048576	5	4221
2026-01-05 03:48:23.75	323.50	32.97	-23.1	-24.2	19.0	0.00e+00	0	43	102	1048576	6	4089
2026-01-05 03:48:24.76	323.13	33.03	-23.4	-24.8	18.7	0.00e+00	0	44	102	1048576	6	4235
2026-01-05 03:48:25.76	322.77	33.09	-23.3	-24.1	18.8	5.49e-04	0	44	102	1048576	7	3944
2026-01-05 03:48:26.77	322.40	33.15	-23.0	-24.1	19.1	4.81e-04	0	44	102	1048576	6	4049
2026-01-05 03:48:27.78	322.03	33.20	-23.1	-24.2	19.0	0.00e+00	0	44	102	1048576	6	4080
2026-01-05 03:48:28.78	321.67	33.26	-23.1	-24.1	19.1	0.00e+00	0	43	102	1048576	6	4061
2026-01-05 03:48:29.79	321.30	33.31	-23.0	-24.0	19.1	2.85e-04	0	43	102	1048576	6	4030
2026-01-05 03:48:30.80	320.92	33.36	-23.2	-24.3	19.0	0.00e+00	0	44	102	1048576	6	4101
2026-01-05 03:48:31.80	320.56	33.41	-22.9	-23.8	19.2	1.41e-04	0	43	102	1048576	6	3988
2026-01-05 03:48:32.82	320.18	33.46	-22.8	-23.5	19.4	9.49e-04	0	43	102	1048576	6	3922
2026-01-05 03:48:33.82	319.81	33.51	-22.7	-23.4	19.4	0.00e+00	0	43	102	1048576	6	3893
2026-01-05 03:48:34.82	319.43	33.56	-22.8	-23.6	19.3	9.58e-04	0	44	102	1048576	6	3944
2026-01-05 03:48:35.83	319.05	33.60	-22.8	-23.5	19.4	0.00e+00	0	43	102	1048576	6	3904
2026-01-05 03:48:36.83	318.68	33.65	-23.1	-24.1	19.1	0.00e+00	0	43	102	1048576	6	4055
2026-01-05 03:48:37.84	318.30	33.69	-22.8	-23.6	19.4	0.00e+00	0	44	102	1048576	6	3926
2026-01-05 03:48:38.85	317.92	33.73	-22.4	-23.3	19.7	2.74e-05	0	43	102	1048576	5	3970
2026-01-05 03:48:39.85	317.54	33.77	-22.3	-23.1	19.8	9.49e-05	0	44	102	1048576	5	3925
2026-01-05 03:48:40.86	317.16	33.81	-22.5	-23.4	19.7	0.00e+00	0	44	102	1048576	5	3995
2026-01-05 03:48:41.87	316.77	33.85	-22.7	-23.7	19.5	2.95e-04	0	43	102	1048576	5	4083
2026-01-05 03:48:42.88	316.39	33.88	-22.9	-24.2	19.3	0.00e+00	0	43	102	1048576	5	4196
2026-01-05 03:48:43.88	316.01	33.92	-22.6	-23.7	19.5	7.29e-04	0	44	102	1048576	5	4063
2026-01-05 03:48:44.89	315.62	33.95	-22.4	-23.2	19.8	8.50e-04	0	43	102	1048576	5	3956
2026-01-05 03:48:45.90	315.23	33.98	-22.5	-23.3	19.7	0.00e+00	0	44	102	1048576	5	3976
2026-01-05 03:48:46.90	314.85	34.01	-22.7	-23.8	19.4	7.55e-04	0	43	102	1048576	5	4101
2026-01-05 03:48:47.91	314.46	34.04	-22.5	-23.5	19.7	0.00e+00	0	43	102	1048576	5	4015
2026-01-05 03:48:48.91	314.08	34.07	-22.5	-23.5	19.6	1.32e-04	0	44	102	1048576	5	4008
2026-01-05 03:48:49.92	313.69	34.10	-22.8	-24.1	19.3	0.00e+00	0	44	102	1048576	5	4173
2026-01-05 03:48:50.93	313.30	34.12	-22.8	-24.0	19.4	6.34e-04	0	43	102	1048576	5	4145
2026-01-05 03:48:51.94	312.90	34.14	-22.7	-23.8	19.5	1.28e-04	0	43	102	1048576	5	4088
2026-01-05 03:48:52.94	312.52	34.16	-22.7	-23.9	19.4	5.64e-04	0	43	102	1048576	5	4116
2026-01-05 03:48:53.95	312.12	34.18	-22.7	-23.9	19.4	6.18e-04	0	44	102	1048576	5	4124
2026-01-05 03:48:54.95	311.74	34.20	-22.8	-24.0	19.4	1.29e-04	0	43	102	1048576	5	4143
2026-01-05 03:48:55.96	311.34	34.22	-22.8	-24.1	19.4	7.30e-04	0	43	102	1048576	5	4161
2026-01-05 03:48:56.97	310.95	34.23	-23.0	-24.0	19.2	0.00e+00	0	44	102	1048576	6	4024
2026-01-05 03:48:57.98	310.56	34.25	-22.8	-23.5	19.4	1.59e-04	0	43	102	1048576	6	3904
2026-01-05 03:48:58.98	310.17	34.26	-22.6	-23.6	19.6	9.68e-04	0	44	102	1048576	5	4058
2026-01-05 03:48:59.98	309.78	34.27	-22.7	-23.8	19.5	1.02e-03	0	44	102	1048576	5	4087
2026-01-05 03:49:00.99	309.38	34.28	-22.8	-24.0	19.4	1.35e-04	0	43	102	1048576	5	4148
2026-01-05 03:49:01.99	308.99	34.29	-22.6	-23.7	19.5	0.00e+00	0	43	102	1048576	5	4077
2026-01-05 03:49:03.00	308.59	34.29	-22.8	-24.0	19.4	1.44e-03	0	44	102	1048576	5	4152
2026-01-05 03:49:04.00	308.20	34.30	-22.9	-24.2	19.2	0.00e+00	0	43	102	1048576	5	4207
2026-01-05 03:49:05.01	307.81	34.30	-22.7	-23.9	19.4	1.17e-03	0	44	102	1048576	5	4123
2026-01-05 03:49:06.01	307.42	34.30	-22.8	-24.0	19.4	0.00e+00	0	44	102	1048576	5	4137
2026-01-05 03:49:07.02	307.02	34.30	-22.9	-24.3	19.2	1.28e-04	0	43	102	1048576	5	4225
2026-01-05 03:49:08.02	306.63	34.30	-22.8	-24.0	19.4	1.16e-03	0	44	102	1048576	5	4153
2026-01-05 03:49:09.03	306.23	34.30	-23.1	-24.2	19.0	0.00e+00	0	44	102	1048576	6	4077
2026-01-05 03:49:10.04	305.84	34.29	-23.4	-24.9	18.7	4.00e-05	0	44	102	1048576	6	4245
2026-01-05 03:49:11.04	305.45	34.29	-23.0	-23.9	19.2	0.00e+00	0	44	102	1048576	6	3998
2026-01-05 03:49:12.05	305.05	34.28	-22.6	-23.6	19.6	1.31e-03	0	44	102	1048576	5	4034
2026-01-05 03:49:13.06	304.66	34.27	-22.2	-22.8	19.9	0.00e+00	0	44	102	1048576	5	3863
2026-01-05 03:49:14.07	304.26	34.26	-22.2	-23.3	20.0	0.00e+00	0	43	102	1048576	4	4073
2026-01-05 03:49:15.07	303.87	34.25	-22.5	-23.8	19.7	0.00e+00	0	43	102	1048576	4	4223
2026-01-05 03:49:16.08	303.48	34.23	-22.7	-23.8	19.4	0.00e+00	0	44	102	1048576	5	4090
2026-01-05 03:49:17.08	303.09	34.22	-22.4	-23.2	19.8	0.00e+00	0	43	102	1048576	5	3954
2026-01-05 03:49:18.09	302.70	34.20	-22.3	-23.0	19.9	0.00e+00	0	44	102	1048576	5	3895
2026-01-05 03:49:19.10	302.30	34.18	-22.5	-23.4	19.7	0.00e+00	0	44	102	1048576	5	3998
2026-01-05 03:49:20.11	301.91	34.16	-22.6	-23.6	19.5	0.00e+00	0	43	102	1048576	5	4060
2026-01-05 03:49:21.11	301.52	34.14	-22.8	-24.1	19.3	0.00e+00	0	44	102	1048576	5	4180
2026-01-05 03:49:22.12	301.13	34.12	-22.6	-23.8	19.0	0.00e+00	0	44	102	1048576	5	4126
2026-01-05 03:49:23.12	300.75	34.09	-22.8	-24.1	17.1	0.00e+00	0	44	102	1048576	5	4163
2026-01-05 03:49:24.13	300.36	34.07	-23.1	-24.1	19.1	0.00e+00	0	44	102	1048576	6	4067
2026-01-05 03:49:25.14	299.97	34.04	-22.8	-23.6	19.3	0.00e+00	0	44	102	1048576	6	3936
2026-01-05 03:49:26.15	299.58	34.01	-22.6	-23.6	19.6	0.00e+00	0	44	102	1048576	5	4038
2026-01-05 03:49:27.16	299.19	33.98	-22.5	-23.4	19.7	0.00e+00	0	44	102	1048576	5	3990
2026-01-05 03:49:28.16	298.81	33.95	-22.5	-23.5	19.6	1.10e-06	0	44	102	1048576	5	4023
2026-01-05 03:49:29.17	298.42	33.92	-22.5	-23.5	19.6	0.00e+00	0	44	102	1048576	5	4028
2026-01-05 03:49:30.17	298.04	33.88	-22.3	-23.0	19.9	0.00e+00	0	44	102	1048576	5	3900
2026-01-05 03:49:31.18	297.65	33.85	-22.2	-22.8	19.9	0.00e+00	0	44	102	1048576	5	3863
2026-01-05 03:49:32.18	297.27	33.81	-22.4	-23.1	19.8	0.00e+00	0	44	102	1048576	5	3933
2026-01-05 03:49:33.19	296.89	33.77	-22.4	-23.1	19.8	0.00e+00	0	44	102	1048576	5	3938
2026-01-05 03:49:34.20	296.51	33.73	-22.4	-23.2	19.8	0.00e+00	0	44	102	1048576	5	3961
2026-01-05 03:49:35.21	296.12	33.69	-22.3	-23.0	19.9	1.27e-04	0	43	102	1048576	5	3898
2026-01-05 03:49:36.22	295.74	33.64	-22.4	-23.2	19.8	0.00e+00	0	44	102	1048576	5	3954
2026-01-05 03:49:37.22	295.37	33.60	-22.6	-23.7	19.5	2.35e-04	0	44	102	1048576	5	4073
2026-01-05 03:49:38.23	294.99	33.55	-22.7	-23.8	19.5	0.00e+00	0	44	102	1048576	5	4103
2026-01-05 03:49:39.24	294.61	33.51	-22.9	-24.3	19.2	0.00e+00	0	44	102	1048576	5	4215
2026-01-05 03:49:40.24	294.24	33.46	-22.8	-24.0	19.4	0.00e+00	0	44	102	1048576	5	4134
2026-01-05 03:49:41.25	293.87	33.41	-22.8	-24.1	19.3	0.00e+00	0	44	102	1048576	5	4159
2026-01-05 03:49:42.26	293.49	33.36	-22.6	-23.7	19.5	0.00e+00	0	44	102	1048576	5	4063
2026-01-05 03:49:43.26	293.12	33.31	-22.6	-23.5	19.6	0.00e+00	0	44	102	1048576	5	4034
2026-01-05 03:49:44.27	292.75	33.25	-22.6	-23.6	19.6	0.00e+00	0	44	102	1048576	5	4040
2026-01-05 03:49:45.27	292.39	33.20	-22.7	-23.8	19.5	0.00e+00	0	44	102	1048576	5	4090
2026-01-05 03:49:46.27	292.02	33.14	-22.6	-23.6	19.6	0.00e+00	0	44	102	1048576	5	4035
2026-01-05 03:49:47.28	291.65	33.08	-22.5	-23.5	19.6	0.00e+00	0	44	102	1048576	5	4022
2026-01-05 03:49:48.29	291.29	33.03	-22.6	-23.6	19.5	0.00e+00	0	44	102	1048576	5	4059
2026-01-05 03:49:49.30	290.92	32.97	-22.0	-22.9	16.2	7.78e-05	0	44	102	1048576	5	3970
2026-01-05 03:49:50.30	290.56	32.91	-22.3	-23.0	13.9	2.00e-04	0	43	102	1048576	5	3898
2026-01-05 03:49:51.30	290.20	32.84	-22.4	-23.2	19.7	0.00e+00	0	44	102	1048576	5	3944
2026-01-05 03:49:52.31	289.84	32.78	-22.5	-23.3	19.4	6.27e-04	0	44	102	1048576	5	3985
2026-01-05 03:49:53.32	289.48	32.72	-22.4	-23.6	19.8	3.08e-04	0	44	102	1048576	4	4171
2026-01-05 03:49:54.33	289.12	32.65	-22.3	-23.5	19.8	0.00e+00	0	43	102	1048576	4	4139
2026-01-05 03:49:55.34	288.77	32.58	-22.3	-23.5	19.8	2.67e-04	0	44	102	1048576	4	4133
2026-01-05 03:49:56.35	288.41	32.52	-22.4	-23.7	19.7	1.91e-04	0	44	102	1048576	4	4183
2026-01-05 03:49:57.36	288.06	32.45	-22.7	-23.8	19.4	0.00e+00	0	44	102	1048576	5	4105
2026-01-05 03:49:58.36	287.71	32.38	-22.9	-24.3	19.2	1.83e-05	0	44	102	1048576	5	4216
2026-01-05 03:49:59.36	287.36	32.31	-22.8	-24.0	19.3	7.84e-04	0	44	102	1048576	5	4145
2026-01-05 03:50:00.37	287.01	32.24	-22.7	-23.8	19.4	0.00e+00	0	44	102	1048576	5	4095
2026-01-05 03:50:01.37	286.67	32.16	-22.6	-23.7	19.5	9.98e-04	0	44	102	1048576	5	4069
2026-01-05 03:50:02.38	286.32	32.09	-22.6	-23.7	19.5	0.00e+00	0	44	102	1048576	5	4069
2026-01-05 03:50:03.39	285.98	32.01	-22.6	-23.6	19.5	0.00e+00	0	44	102	1048576	5	4059
2026-01-05 03:50:04.39	285.64	31.94	-22.5	-23.5	19.6	8.27e-04	0	44	102	1048576	5	4023
2026-01-05 03:50:05.39	285.30	31.86	-22.6	-23.6	19.5	6.57e-04	0	44	102	1048576	5	4049
2026-01-05 03:50:06.40	284.96	31.78	-22.6	-23.6	19.5	0.00e+00	0	44	102	1048576	5	4055
2026-01-05 03:50:07.41	284.62	31.71	-22.4	-23.2	19.7	0.00e+00	0	44	102	1048576	5	3964
2026-01-05 03:50:08.42	284.29	31.63	-22.3	-23.1	19.7	7.60e-04	0	44	102	1048576	5	3928
2026-01-05 03:50:09.43	283.95	31.54	-22.4	-23.3	19.7	0.00e+00	0	44	102	1048576	5	3967
2026-01-05 03:50:10.43	283.62	31.46	-22.4	-23.3	19.6	1.02e-03	0	43	102	1048576	5	3971
2026-01-05 03:50:11.44	283.29	31.38	-22.5	-23.4	19.6	9.92e-04	0	44	102	1048576	5	3999
2026-01-05 03:50:12.45	282.96	31.30	-22.5	-23.4	19.6	0.00e+00	0	43	102	1048576	5	4005
2026-01-05 03:50:13.45	282.64	31.21	-22.5	-23.4	19.6	9.03e-04	0	44	102	1048576	5	4009
2026-01-05 03:50:14.45	282.31	31.13	-22.6	-23.6	19.5	9.86e-04	0	44	102	1048576	5	4050
2026-01-05 03:50:15.46	281.99	31.05	-22.6	-23.7	19.4	0.00e+00	0	44	102	1048576	5	4071
2026-01-05 03:50:16.46	281.67	30.96	-22.8	-24.0	19.3	9.29e-04	0	43	102	1048576	5	4144
2026-01-05 03:50:17.47	281.35	30.87	-22.9	-24.3	19.1	9.75e-04	0	44	102	1048576	5	4227
2026-01-05 03:50:18.48	281.03	30.78	-23.1	-24.1	19.0	0.00e+00	0	44	102	1048576	6	4066
2026-01-05 03:50:19.48	280.72	30.70	-23.1	-24.1	19.0	1.17e-03	0	44	102	1048576	6	4068
2026-01-05 03:50:20.48	280.40	30.61	-23.0	-24.0	19.0	1.15e-03	0	43	102	1048576	6	4032
2026-01-05 03:50:21.49	280.09	30.52	-23.0	-23.9	19.1	1.71e-05	0	44	102	1048576	6	4011
2026-01-05 03:50:22.50	279.78	30.43	-22.8	-23.6	19.2	1.23e-03	0	44	102	1048576	6	3945
2026-01-05 03:50:23.50	279.47	30.34	-22.7	-23.7	19.4	0.00e+00	0	44	102	1048576	5	4083
2026-01-05 03:50:24.51	279.16	30.24	-22.7	-23.9	19.3	3.31e-05	0	44	102	1048576	5	4129
2026-01-05 03:50:25.52	278.85	30.15	-22.8	-24.0	19.3	0.00e+00	0	43	102	1048576	5	4144
2026-01-05 03:50:26.52	278.55	30.06	-22.7	-23.9	19.3	1.09e-03	0	44	102	1048576	5	4124
2026-01-05 03:50:27.53	278.25	29.97	-22.8	-24.1	19.2	0.00e+00	0	44	102	1048576	5	4179
2026-01-05 03:50:28.54	277.94	29.87	-22.9	-24.3	19.1	0.00e+00	0	44	102	1048576	5	4233
2026-01-05 03:50:29.54	277.65	29.78	-23.0	-24.4	19.1	5.90e-04	0	44	102	1048576	5	4250
2026-01-05 03:50:30.55	277.35	29.68	-23.3	-24.6	18.7	0.00e+00	0	44	102	1048576	6	4177
2026-01-05 03:50:31.55	277.06	29.59	-23.4	-24.2	18.6	6.86e-04	0	43	102	1048576	7	3984
2026-01-05 03:50:32.56	276.76	29.49	-23.2	-23.8	18.8	0.00e+00	0	44	102	1048576	7	3886
2026-01-05 03:50:33.56	276.47	29.39	-22.9	-23.4	19.1	0.00e+00	0	44	102	1048576	7	3778
2026-01-05 03:50:34.57	276.18	29.30	-22.9	-23.8	19.1	0.00e+00	0	44	102	1048576	6	3974
2026-01-05 03:50:35.58	275.89	29.20	-22.9	-23.8	19.1	0.00e+00	0	44	102	1048576	6	3982
2026-01-05 03:50:36.58	275.61	29.10	-22.9	-23.9	19.1	0.00e+00	0	44	102	1048576	6	4003
2026-01-05 03:50:37.59	275.32	29.00	-22.8	-23.7	19.2	0.00e+00	0	44	102	1048576	6	3950
2026-01-05 03:50:38.59	275.04	28.90	-22.8	-23.4	19.3	0.00e+00	0	44	102	1048576	6	3900
2026-01-05 03:50:39.59	274.76	28.80	-22.7	-23.4	19.3	0.00e+00	0	44	102	1048576	6	3893
2026-01-05 03:50:40.60	274.48	28.70	-22.7	-23.3	19.3	0.00e+00	0	44	102	1048576	6	3864
2026-01-05 03:50:41.61	274.20	28.60	-22.7	-23.8	19.3	0.00e+00	0	44	102	1048576	5	4103
2026-01-05 03:50:42.62	273.92	28.50	-22.7	-23.9	19.3	0.00e+00	0	44	102	1048576	5	4120
2026-01-05 03:50:43.62	273.65	28.40	-22.7	-24.0	19.2	1.10e-06	0	44	102	1048576	5	4136
2026-01-05 03:50:44.63	273.38	28.30	-22.7	-23.9	19.2	0.00e+00	0	44	102	1048576	5	4124
2026-01-05 03:50:45.63	273.11	28.20	-22.7	-23.9	19.3	0.00e+00	0	43	102	1048576	5	4119
2026-01-05 03:50:46.64	272.84	28.09	-22.7	-23.9	19.3	0.00e+00	0	44	102	1048576	5	4115
2026-01-05 03:50:47.65	272.57	27.99	-22.8	-24.0	19.2	0.00e+00	0	44	102	1048576	5	4135
2026-01-05 03:50:48.66	272.30	27.89	-22.8	-24.0	19.2	0.00e+00	0	44	102	1048576	5	4142
2026-01-05 03:50:49.66	272.04	27.78	-22.8	-24.1	19.1	0.00e+00	0	44	102	1048576	5	4182
2026-01-05 03:50:50.67	271.78	27.68	-22.9	-24.2	19.1	0.00e+00	0	44	102	1048576	5	4207
2026-01-05 03:50:51.67	271.52	27.58	-23.0	-24.5	18.9	0.00e+00	0	44	102	1048576	5	4264
2026-01-05 03:50:52.68	271.26	27.47	-23.3	-24.5	18.7	2.20e-06	0	44	102	1048576	6	4167
2026-01-05 03:50:53.69	271.00	27.37	-23.3	-24.6	18.6	0.00e+00	0	44	102	1048576	6	4189
2026-01-05 03:50:54.69	270.75	27.26	-23.1	-24.2	18.8	0.00e+00	0	44	102	1048576	6	4096
2026-01-05 03:50:55.70	270.49	27.16	-23.1	-24.1	18.9	1.10e-06	0	44	102	1048576	6	4060
2026-01-05 03:50:56.71	270.24	27.05	-23.1	-24.3	18.8	0.00e+00	0	44	102	1048576	6	4098
2026-01-05 03:50:57.72	269.99	26.95	-23.1	-24.1	18.8	0.00e+00	0	44	102	1048576	6	4069
2026-01-05 03:50:58.73	269.74	26.84	-23.1	-24.1	18.9	0.00e+00	0	44	102	1048576	6	4059
2026-01-05 03:50:59.73	269.49	26.74	-23.0	-24.0	18.9	0.00e+00	0	44	102	1048576	6	4034
2026-01-05 03:51:00.74	269.25	26.63	-23.0	-24.0	18.9	6.86e-05	0	44	102	1048576	6	4023
2026-01-05 03:51:01.75	269.00	26.53	-23.1	-24.2	18.8	0.00e+00	0	43	102	1048576	6	4083
2026-01-05 03:51:02.76	268.76	26.42	-23.0	-24.0	18.9	0.00e+00	0	44	102	1048576	6	4028
2026-01-05 03:51:03.77	268.52	26.31	-23.0	-24.0	19.0	0.00e+00	0	44	102	1048576	6	4023
2026-01-05 03:51:04.78	268.28	26.21	-23.2	-24.3	18.8	0.00e+00	0	44	102	1048576	6	4107
2026-01-05 03:51:05.79	268.04	26.10	-23.4	-24.8	18.5	0.00e+00	0	44	102	1048576	6	4249
2026-01-05 03:51:06.79	267.80	25.99	-23.4	-24.9	18.4	0.00e+00	0	44	102	1048576	6	4275
2026-01-05 03:51:07.80	267.57	25.89	-23.5	-24.6	18.3	2.06e-04	0	44	102	1048576	7	4085
2026-01-05 03:51:08.81	267.34	25.78	-23.8	-25.1	18.1	0.00e+00	0	44	102	1048576	7	4197
2026-01-05 03:51:09.81	267.11	25.67	-23.6	-24.7	18.3	2.09e-04	0	44	102	1048576	7	4106
2026-01-05 03:51:10.82	266.88	25.57	-23.5	-24.5	18.4	1.41e-04	0	44	102	1048576	7	4060
2026-01-05 03:51:11.82	266.65	25.46	-23.5	-24.4	18.4	0.00e+00	0	44	102	1048576	7	4034
2026-01-05 03:51:12.83	266.42	25.35	-23.5	-24.6	18.4	0.00e+00	0	44	102	1048576	7	4070
2026-01-05 03:51:13.84	266.20	25.24	-23.5	-24.4	18.4	0.00e+00	0	44	102	1048576	7	4034
2026-01-05 03:51:14.84	265.97	25.14	-23.5	-24.5	18.4	0.00e+00	0	44	102	1048576	7	4039
2026-01-05 03:51:15.85	265.75	25.03	-23.4	-24.4	18.5	0.00e+00	0	44	102	1048576	7	4016
2026-01-05 03:51:16.85	265.53	24.92	-23.5	-24.6	18.4	2.30e-04	0	44	102	1048576	7	4062
2026-01-05 03:51:17.86	265.31	24.82	-23.6	-24.7	18.3	0.00e+00	0	44	102	1048576	7	4104
2026-01-05 03:51:18.86	265.10	24.71	-23.7	-25.0	17.6	6.61e-04	0	44	102	1048576	7	4174
2026-01-05 03:51:19.87	264.88	24.60	-23.6	-24.8	17.0	7.26e-04	0	44	102	1048576	7	4127
2026-01-05 03:51:20.87	264.67	24.50	-23.6	-24.7	18.3	0.00e+00	0	44	102	1048576	7	4106
2026-01-05 03:51:21.88	264.45	24.39	-23.6	-24.7	18.3	9.90e-04	0	44	102	1048576	7	4089
2026-01-05 03:51:22.89	264.24	24.28	-23.6	-24.8	18.2	9.90e-04	0	44	102	1048576	7	4114
2026-01-05 03:51:23.90	264.03	24.17	-23.8	-25.1	18.0	0.00e+00	0	44	102	1048576	7	4206
2026-01-05 03:51:24.90	263.82	24.07	-23.6	-24.7	18.3	1.11e-03	0	44	102	1048576	7	4087
2026-01-05 03:51:25.91	263.62	23.96	-23.7	-24.9	18.2	1.11e-03	0	44	102	1048576	7	4145
2026-01-05 03:51:26.92	263.41	23.85	-23.5	-24.6	18.3	0.00e+00	0	44	102	1048576	7	4075
2026-01-05 03:51:27.92	263.21	23.74	-23.5	-24.6	18.3	2.35e-03	0	44	102	1048576	7	4068
2026-01-05 03:51:28.93	263.00	23.64	-23.6	-24.7	18.2	1.04e-03	0	44	102	1048576	7	4104
2026-01-05 03:51:29.94	262.80	23.53	-23.6	-24.7	18.2	3.66e-05	0	44	102	1048576	7	4111
2026-01-05 03:51:30.95	262.60	23.42	-23.7	-25.0	18.1	9.46e-04	0	44	102	1048576	7	4176
2026-01-05 03:51:31.95	262.40	23.32	-24.1	-25.3	17.7	1.40e-03	0	44	102	1048576	8	4134
2026-01-05 03:51:32.96	262.21	23.21	-23.9	-25.0	17.9	0.00e+00	0	44	102	1048576	8	4052
2026-01-05 03:51:33.97	262.01	23.10	-23.7	-25.0	18.1	1.36e-03	0	44	102	1048576	7	4169
2026-01-05 03:51:34.98	261.81	22.99	-23.8	-25.2	18.0	1.93e-03	0	44	102	1048576	7	4234
2026-01-05 03:51:35.98	261.62	22.89	-23.6	-24.8	18.2	0.00e+00	0	44	102	1048576	7	4117
2026-01-05 03:51:36.98	261.43	22.78	-23.6	-24.7	18.2	1.54e-03	0	44	102	1048576	7	4101
2026-01-05 03:51:37.99	261.24	22.68	-23.6	-24.7	18.2	1.05e-04	0	44	102	1048576	7	4091
2026-01-05 03:51:38.99	261.05	22.57	-23.8	-25.3	17.9	1.09e-04	0	44	102	1048576	7	4239
2026-01-05 03:51:40.00	260.86	22.46	-23.7	-24.9	18.1	1.52e-03	0	44	102	1048576	7	4145
2026-01-05 03:51:41.01	260.67	22.36	-23.6	-24.8	18.2	1.41e-03	0	44	102	1048576	7	4117
2026-01-05 03:51:42.02	260.49	22.25	-23.6	-24.8	18.2	7.09e-05	0	43	102	1048576	7	4121
2026-01-05 03:51:43.02	260.31	22.15	-23.7	-25.0	18.0	1.26e-03	0	44	102	1048576	7	4174
2026-01-05 03:51:44.02	260.12	22.04	-23.6	-24.8	18.1	1.27e-03	0	44	102	1048576	7	4135
2026-01-05 03:51:45.03	259.94	21.93	-23.8	-25.1	18.0	0.00e+00	0	44	102	1048576	7	4205
2026-01-05 03:51:46.03	259.76	21.83	-23.6	-24.8	18.1	1.04e-03	0	44	102	1048576	7	4114
2026-01-05 03:51:47.04	259.58	21.72	-23.6	-24.7	18.2	0.00e+00	0	44	102	1048576	7	4108
2026-01-05 03:51:48.04	259.41	21.62	-23.7	-24.9	18.1	0.00e+00	0	44	102	1048576	7	4140
2026-01-05 03:51:49.05	259.23	21.51	-23.6	-24.8	18.2	8.48e-04	0	44	102	1048576	7	4114
2026-01-05 03:51:50.05	259.05	21.41	-23.6	-24.7	18.2	9.07e-04	0	44	102	1048576	7	4103
2026-01-05 03:51:51.06	258.88	21.30	-23.6	-24.7	18.2	3.54e-05	0	44	102	1048576	7	4112
2026-01-05 03:51:52.06	258.71	21.20	-23.6	-24.8	18.1	3.40e-06	0	44	102	1048576	7	4128
2026-01-05 03:51:53.06	258.54	21.10	-23.8	-25.1	18.0	1.39e-03	0	44	102	1048576	7	4200
2026-01-05 03:51:54.07	258.37	20.99	-23.6	-24.8	18.1	0.00e+00	0	44	102	1048576	7	4118
2026-01-05 03:51:55.07	258.20	20.89	-23.6	-24.7	18.2	1.49e-03	0	44	102	1048576	7	4097
2026-01-05 03:51:56.08	258.03	20.78	-23.6	-24.9	18.1	1.50e-03	0	43	102	1048576	7	4139
2026-01-05 03:51:57.09	257.86	20.68	-23.8	-25.2	17.9	1.99e-04	0	44	102	1048576	7	4237
2026-01-05 03:51:58.10	257.69	20.58	-23.9	-25.3	17.8	1.41e-03	0	44	102	1048576	7	4260
2026-01-05 03:51:59.10	257.53	20.47	-23.9	-25.4	17.8	0.00e+00	0	44	102	1048576	7	4272
2026-01-05 03:52:00.11	257.36	20.37	-24.1	-25.3	17.6	1.83e-04	0	44	102	1048576	8	4141
2026-01-05 03:52:01.12	257.20	20.27	-24.3	-25.7	17.4	6.80e-06	0	44	102	1048576	8	4249
2026-01-05 03:52:02.13	257.04	20.16	-24.1	-25.4	17.5	1.29e-03	0	44	102	1048576	8	4161
2026-01-05 03:52:03.13	256.88	20.06	-24.1	-25.3	17.6	0.00e+00	0	44	102	1048576	8	4149
2026-01-05 03:52:04.14	256.72	19.96	-24.1	-25.4	17.5	6.80e-06	0	44	102	1048576	8	4160
2026-01-05 03:52:05.15	256.56	19.85	-24.2	-25.5	17.5	0.00e+00	0	44	102	1048576	8	4180
2026-01-05 03:52:06.16	256.40	19.75	-24.4	-25.9	17.2	0.00e+00	0	44	102	1048576	8	4297
2026-01-05 03:52:07.15	256.25	19.65	-24.1	-25.4	17.6	5.70e-06	0	44	102	1048576	8	4156
2026-01-05 03:52:08.16	256.09	19.55	-24.0	-25.1	17.7	0.00e+00	0	44	102	1048576	8	4094
2026-01-05 03:52:09.17	255.94	19.45	-24.0	-25.5	17.7	2.66e-04	0	43	102	1048576	7	4309
2026-01-05 03:52:10.18	255.78	19.35	-24.1	-25.2	17.6	4.50e-06	0	44	102	1048576	8	4125
2026-01-05 03:52:11.19	255.63	19.24	-24.2	-25.5	17.4	0.00e+00	0	44	102	1048576	8	4205
2026-01-05 03:52:12.20	255.48	19.14	-24.1	-25.4	17.5	0.00e+00	0	44	102	1048576	8	4165
2026-01-05 03:52:13.21	255.33	19.04	-24.2	-25.6	17.4	5.70e-06	0	44	102	1048576	8	4220
2026-01-05 03:52:14.21	255.18	18.94	-24.2	-25.4	17.5	0.00e+00	0	44	102	1048576	8	4175
2026-01-05 03:52:15.22	255.03	18.84	-24.1	-25.4	17.5	0.00e+00	0	44	102	1048576	8	4159
2026-01-05 03:52:16.23	254.88	18.74	-24.1	-25.4	17.5	0.00e+00	0	44	102	1048576	8	4165
2026-01-05 03:52:17.23	254.74	18.64	-24.2	-25.6	17.4	0.00e+00	0	44	102	1048576	8	4214
2026-01-05 03:52:18.24	254.59	18.54	-24.2	-25.5	17.4	0.00e+00	0	44	102	1048576	8	4187
2026-01-05 03:52:19.24	254.45	18.44	-24.2	-25.5	17.4	0.00e+00	0	44	102	1048576	8	4200
2026-01-05 03:52:20.24	254.31	18.34	-24.3	-25.8	17.3	0.00e+00	0	43	102	1048576	8	4270
2026-01-05 03:52:21.25	254.16	18.24	-24.4	-25.9	17.2	0.00e+00	0	44	102	1048576	8	4305
2026-01-05 03:52:22.26	254.02	18.14	-24.5	-26.1	17.1	5.70e-06	0	43	102	1048576	8	4360
2026-01-05 03:52:23.27	253.88	18.05	-24.5	-25.6	17.1	0.00e+00	0	44	102	1048576	9	4114
2026-01-05 03:52:24.27	253.74	17.95	-24.6	-25.9	17.0	0.00e+00	0	43	102	1048576	9	4177
2026-01-05 03:52:25.28	253.60	17.85	-24.7	-26.2	16.8	0.00e+00	0	44	102	1048576	9	4257
2026-01-05 03:52:26.28	253.47	17.75	-24.8	-26.3	16.7	0.00e+00	0	44	102	1048576	9	4275
2026-01-05 03:52:27.29	253.33	17.65	-24.5	-26.0	14.6	0.00e+00	0	44	102	1048576	9	4261
2026-01-05 03:52:28.30	253.19	17.56	-24.9	-26.5	14.1	0.00e+00	0	43	102	1048576	9	4328
2026-01-05 03:52:29.30	253.06	17.46	-24.8	-26.5	16.6	0.00e+00	0	44	102	1048576	9	4333
2026-01-05 03:52:30.31	252.92	17.36	-25.0	-26.7	14.2	0.00e+00	0	44	102	1048576	9	4393
2026-01-05 03:52:31.32	252.79	17.26	-25.0	-26.8	15.9	0.00e+00	0	44	102	1048576	9	4426
2026-01-05 03:52:32.32	252.66	17.17	-25.2	-26.7	16.2	0.00e+00	0	44	102	1048576	10	4291
2026-01-05 03:52:33.33	252.53	17.07	-25.3	-27.0	16.0	0.00e+00	0	44	102	1048576	10	4374
2026-01-05 03:52:34.34	252.40	16.97	-25.1	-26.5	16.3	0.00e+00	0	44	102	1048576	10	4234
2026-01-05 03:52:35.35	252.27	16.88	-25.0	-26.3	16.4	0.00e+00	0	44	102	1048576	10	4182
2026-01-05 03:52:36.35	252.14	16.78	-24.9	-26.6	16.5	2.29e-04	0	43	102	1048576	9	4360
2026-01-05 03:52:37.36	252.01	16.69	-24.9	-26.7	16.4	0.00e+00	0	44	102	1048576	9	4389
2026-01-05 03:52:38.37	251.88	16.59	-25.2	-26.6	16.2	0.00e+00	0	44	102	1048576	10	4253
2026-01-05 03:52:39.38	251.75	16.50	-25.3	-26.8	16.1	0.00e+00	0	43	102	1048576	10	4322
2026-01-05 03:52:40.38	251.63	16.40	-25.1	-26.4	16.3	3.19e-04	0	43	102	1048576	10	4208
2026-01-05 03:52:41.39	251.50	16.31	-25.0	-26.2	16.4	0.00e+00	0	43	102	1048576	10	4153
2026-01-05 03:52:42.39	251.38	16.21	-25.0	-26.8	16.4	3.67e-04	0	43	102	1048576	9	4419
2026-01-05 03:52:43.40	251.26	16.12	-25.1	-26.6	16.2	3.63e-04	0	44	102	1048576	10	4255
2026-01-05 03:52:44.41	251.13	16.02	-25.3	-26.8	16.1	0.00e+00	0	44	102	1048576	10	4320
2026-01-05 03:52:45.42	251.01	15.93	-25.3	-27.0	16.0	3.57e-04	0	43	102	1048576	10	4353
2026-01-05 03:52:46.42	250.89	15.84	-25.4	-27.2	15.8	0.00e+00	0	44	102	1048576	10	4423
2026-01-05 03:52:47.43	250.77	15.74	-25.2	-26.8	16.1	0.00e+00	0	44	102	1048576	10	4312
2026-01-05 03:52:48.44	250.65	15.65	-25.1	-26.6	16.1	5.83e-05	0	44	102	1048576	10	4265
2026-01-05 03:52:49.45	250.53	15.56	-25.2	-26.6	16.1	5.83e-05	0	44	102	1048576	10	4268
2026-01-05 03:52:50.46	250.41	15.46	-25.2	-26.8	16.0	0.00e+00	0	43	102	1048576	10	4319
2026-01-05 03:52:51.46	250.30	15.37	-25.4	-27.2	15.8	2.85e-03	0	44	102	1048576	10	4411
2026-01-05 03:52:52.46	250.18	15.28	-25.4	-27.2	15.8	0.00e+00	0	44	102	1048576	10	4412
2026-01-05 03:52:53.47	250.06	15.19	-25.3	-27.0	15.9	1.22e-03	0	44	102	1048576	10	4378
2026-01-05 03:52:54.47	249.95	15.10	-25.4	-27.1	15.9	0.00e+00	0	44	102	1048576	10	4394
2026-01-05 03:52:55.48	249.84	15.00	-25.4	-27.2	15.8	0.00e+00	0	44	102	1048576	10	4423
2026-01-05 03:52:56.49	249.72	14.91	-25.4	-27.2	15.8	0.00e+00	0	44	102	1048576	10	4431
2026-01-05 03:52:57.50	249.61	14.82	-25.5	-26.8	15.7	1.30e-04	0	44	102	1048576	11	4212
2026-01-05 03:52:58.51	249.50	14.73	-25.6	-27.2	15.5	2.44e-03	0	44	102	1048576	11	4301
2026-01-05 03:52:59.52	249.38	14.64	-25.7	-27.3	15.5	0.00e+00	0	44	102	1048576	11	4338
2026-01-05 03:53:00.52	249.27	14.55	-25.7	-27.4	15.4	2.27e-03	0	44	102	1048576	11	4365
2026-01-05 03:53:01.53	249.16	14.46	-25.8	-27.5	15.4	2.06e-04	0	44	102	1048576	11	4383
2026-01-05 03:53:02.54	249.05	14.37	-25.6	-27.1	15.6	9.05e-04	0	44	102	1048576	11	4271
2026-01-05 03:53:03.55	248.94	14.28	-25.5	-27.0	15.7	2.03e-03	0	44	102	1048576	11	4251
2026-01-05 03:53:04.55	248.84	14.19	-25.6	-27.0	15.6	2.02e-03	0	44	102	1048576	11	4261
2026-01-05 03:53:05.55	248.73	14.10	-25.6	-27.1	15.6	7.75e-04	0	44	102	1048576	11	4280
2026-01-05 03:53:06.56	248.62	14.01	-25.7	-27.3	15.5	1.58e-04	0	44	102	1048576	11	4321
2026-01-05 03:53:07.56	248.52	13.92	-25.7	-27.3	15.4	1.90e-03	0	44	102	1048576	11	4338
2026-01-05 03:53:08.57	248.41	13.83	-25.6	-27.1	15.6	0.00e+00	0	44	102	1048576	11	4277
2026-01-05 03:53:09.58	248.31	13.75	-25.6	-27.2	15.5	1.84e-03	0	44	102	1048576	11	4298
2026-01-05 03:53:10.59	248.20	13.66	-25.6	-27.2	15.5	1.91e-03	0	44	102	1048576	11	4316
2026-01-05 03:53:11.59	248.10	13.57	-25.7	-27.3	15.4	1.44e-04	0	44	102	1048576	11	4340
2026-01-05 03:53:12.60	248.00	13.48	-25.7	-27.3	15.4	2.00e-03	0	43	102	1048576	11	4350
2026-01-05 03:53:13.61	247.89	13.39	-25.7	-27.3	15.4	1.66e-03	0	44	102	1048576	11	4330
2026-01-05 03:53:14.61	247.79	13.31	-25.7	-27.4	15.4	0.00e+00	0	44	102	1048576	11	4355
2026-01-05 03:53:15.62	247.69	13.22	-25.7	-27.4	15.4	0.00e+00	0	44	102	1048576	11	4375
2026-01-05 03:53:16.63	247.59	13.13	-25.7	-27.4	15.4	1.71e-03	0	44	102	1048576	11	4358
2026-01-05 03:53:17.63	247.49	13.05	-25.7	-27.4	15.3	2.20e-06	0	44	102	1048576	11	4361
2026-01-05 03:53:18.64	247.39	12.96	-25.8	-27.6	15.2	1.40e-03	0	44	102	1048576	11	4418
2026-01-05 03:53:19.65	247.29	12.87	-25.7	-27.4	15.3	1.41e-03	0	44	102	1048576	11	4377
2026-01-05 03:53:20.66	247.19	12.79	-25.7	-27.3	15.4	0.00e+00	0	44	102	1048576	11	4354
2026-01-05 03:53:21.67	247.10	12.70	-25.7	-27.3	15.4	1.43e-03	0	44	102	1048576	11	4336
2026-01-05 03:53:22.68	247.00	12.62	-25.7	-27.4	15.3	0.00e+00	0	44	102	1048576	11	4382
2026-01-05 03:53:23.69	246.90	12.53	-25.7	-27.4	15.3	4.80e-05	0	44	102	1048576	11	4367
2026-01-05 03:53:24.70	246.81	12.45	-25.8	-27.6	15.2	0.00e+00	0	44	102	1048576	11	4433
2026-01-05 03:53:25.71	246.71	12.36	-25.8	-27.6	15.2	1.75e-03	0	44	102	1048576	11	4427
2026-01-05 03:53:26.71	246.62	12.28	-25.9	-27.7	15.1	0.00e+00	0	44	102	1048576	11	4458
2026-01-05 03:53:27.73	246.52	12.19	-25.9	-27.7	15.1	2.20e-06	0	44	102	1048576	11	4463
2026-01-05 03:53:28.73	246.43	12.11	-25.9	-27.8	15.1	0.00e+00	0	44	102	1048576	11	4487
2026-01-05 03:53:29.73	246.34	12.02	-25.9	-27.4	14.9	0.00e+00	0	44	102	1048576	12	4264
2026-01-05 03:53:30.74	246.24	11.94	-26.0	-27.7	14.7	0.00e+00	0	44	102	1048576	12	4338
2026-01-05 03:53:31.75	246.15	11.86	-26.0	-27.6	14.8	0.00e+00	0	44	102	1048576	12	4332
2026-01-05 03:53:32.76	246.06	11.77	-26.1	-27.8	14.7	4.49e-04	0	44	102	1048576	12	4363
2026-01-05 03:53:33.77	245.97	11.69	-26.1	-27.7	14.7	1.10e-06	0	44	102	1048576	12	4350
2026-01-05 03:53:34.77	245.88	11.61	-26.1	-27.9	14.6	1.10e-06	0	44	102	1048576	12	4403
2026-01-05 03:53:35.78	245.79	11.52	-26.1	-27.8	14.6	1.10e-06	0	44	102	1048576	12	4382
2026-01-05 03:53:36.79	245.70	11.44	-26.4	-28.4	14.3	0.00e+00	0	44	102	1048576	12	4543
2026-01-05 03:53:37.79	245.61	11.36	-26.2	-28.1	14.5	0.00e+00	0	44	102	1048576	12	4460
2026-01-05 03:53:38.80	245.52	11.28	-26.1	-27.9	14.6	0.00e+00	0	44	102	1048576	12	4395
2026-01-05 03:53:39.81	245.43	11.19	-26.1	-27.7	14.7	0.00e+00	0	44	102	1048576	12	4362
2026-01-05 03:53:40.82	245.35	11.11	-26.1	-27.8	14.6	0.00e+00	0	44	102	1048576	12	4375
2026-01-05 03:53:41.82	245.26	11.03	-26.1	-27.8	14.6	0.00e+00	0	44	102	1048576	12	4382
2026-01-05 03:53:42.83	245.17	10.95	-26.1	-27.8	14.6	0.00e+00	0	44	102	1048576	12	4387
2026-01-05 03:53:43.84	245.09	10.87	-26.2	-28.1	14.5	0.00e+00	0	44	102	1048576	12	4460
2026-01-05 03:53:44.85	245.00	10.79	-26.2	-28.0	14.5	0.00e+00	0	44	102	1048576	12	4444
2026-01-05 03:53:45.85	244.92	10.71	-26.2	-28.0	14.5	0.00e+00	0	44	102	1048576	12	4443
2026-01-05 03:53:46.86	244.83	10.63	-26.2	-28.1	14.4	0.00e+00	0	44	102	1048576	12	4456
2026-01-05 03:53:47.87	244.75	10.55	-26.2	-28.0	14.5	0.00e+00	0	44	102	1048576	12	4425
2026-01-05 03:53:48.88	244.67	10.47	-26.3	-28.2	14.4	0.00e+00	0	44	102	1048576	12	4485
2026-01-05 03:53:49.89	244.58	10.39	-26.2	-28.0	14.5	0.00e+00	0	44	102	1048576	12	4433
2026-01-05 03:53:50.89	244.50	10.31	-26.2	-28.1	14.4	0.00e+00	0	44	102	1048576	12	4475
2026-01-05 03:53:51.90	244.42	10.23	-26.2	-28.0	14.4	1.10e-06	0	44	102	1048576	12	4445
2026-01-05 03:53:52.90	244.34	10.15	-26.3	-28.2	14.3	1.10e-06	0	44	102	1048576	12	4499
2026-01-05 03:53:53.91	244.26	10.07	-26.2	-28.1	14.0	0.00e+00	0	44	102	1048576	12	4452
2026-01-05 03:53:54.92	244.17	9.99	-26.3	-28.2	13.8	0.00e+00	0	44	102	1048576	12	4492
2026-01-05 03:53:55.93	244.09	9.91	-26.2	-28.1	14.4	0.00e+00	0	44	102	1048576	12	4460
2026-01-05 03:53:56.93	244.02	9.83	-26.2	-28.1	14.3	0.00e+00	0	44	102	1048576	12	4469
2026-01-05 03:53:57.94	243.94	9.75	-26.4	-28.5	14.1	0.00e+00	0	44	102	1048576	12	4581
2026-01-05 03:53:58.95	243.86	9.68	-26.3	-28.2	14.3	2.20e-06	0	44	102	1048576	12	4493
2026-01-05 03:53:59.96	243.78	9.60	-26.3	-28.2	14.3	0.00e+00	0	44	102	1048576	12	4490
2026-01-05 03:54:00.97	243.70	9.52	-26.2	-28.1	14.3	0.00e+00	0	44	102	1048576	12	4485
2026-01-05 03:54:01.97	243.62	9.44	-26.4	-28.4	14.2	1.10e-06	0	44	102	1048576	12	4567
2026-01-05 03:54:02.98	243.55	9.37	-26.5	-28.7	14.0	0.00e+00	0	44	102	1048576	12	4646
2026-01-05 03:54:03.99	243.47	9.29	-26.5	-28.6	14.0	1.80e-04	0	44	102	1048576	12	4636
2026-01-05 03:54:05.00	243.39	9.21	-26.5	-28.7	14.0	0.00e+00	0	44	102	1048576	12	4643
2026-01-05 03:54:06.00	243.32	9.13	-26.2	-28.2	13.8	1.70e-04	0	44	102	1048576	12	4555
2026-01-05 03:54:07.01	243.24	9.06	-25.8	-27.4	12.1	1.79e-04	0	44	102	1048576	13	4344
2026-01-05 03:54:08.01	243.17	8.98	-26.7	-28.8	13.6	2.20e-06	0	44	102	1048576	13	4586
2026-01-05 03:54:09.02	243.09	8.91	-26.6	-28.6	11.6	1.98e-04	0	44	102	1048576	13	4498
2026-01-05 03:54:10.02	243.02	8.83	-26.8	-29.1	12.5	4.50e-06	0	44	102	1048576	13	4650
2026-01-05 03:54:11.04	242.94	8.75	-26.7	-28.6	13.6	4.50e-06	0	44	102	1048576	13	4515
2026-01-05 03:54:12.04	242.87	8.68	-26.5	-28.3	13.8	9.15e-05	0	44	102	1048576	13	4421
2026-01-05 03:54:13.04	242.80	8.60	-26.5	-28.8	13.8	1.09e-03	0	44	102	1048576	12	4682
2026-01-05 03:54:14.05	242.72	8.53	-26.5	-28.3	13.9	2.20e-06	0	44	102	1048576	13	4428
2026-01-05 03:54:15.06	242.65	8.45	-26.5	-28.3	13.8	2.31e-03	0	44	102	1048576	13	4427
2026-01-05 03:54:16.06	242.58	8.38	-26.6	-28.5	13.7	1.75e-04	0	44	102	1048576	13	4489
2026-01-05 03:54:17.07	242.51	8.30	-26.7	-28.8	13.5	6.80e-06	0	44	102	1048576	13	4562
2026-01-05 03:54:18.08	242.44	8.23	-26.6	-28.5	13.6	2.33e-04	0	44	102	1048576	13	4492
2026-01-05 03:54:19.09	242.37	8.15	-26.5	-28.4	13.7	1.83e-04	0	44	102	1048576	13	4465
2026-01-05 03:54:20.09	242.30	8.08	-26.6	-28.5	13.7	3.40e-06	0	44	102	1048576	13	4492
2026-01-05 03:54:21.10	242.23	8.01	-26.5	-28.4	13.7	2.32e-04	0	44	102	1048576	13	4459
2026-01-05 03:54:22.11	242.16	7.93	-26.7	-28.6	13.6	2.06e-03	0	44	102	1048576	13	4530
2026-01-05 03:54:23.12	242.09	7.86	-26.6	-28.6	13.6	3.40e-06	0	44	102	1048576	13	4514
2026-01-05 03:54:24.12	242.02	7.78	-26.7	-28.7	13.5	1.95e-03	0	44	102	1048576	13	4547
2026-01-05 03:54:25.13	241.95	7.71	-26.6	-28.5	13.6	1.85e-03	0	44	102	1048576	13	4491
2026-01-05 03:54:26.13	241.88	7.64	-26.7	-28.7	13.5	3.40e-06	0	44	102	1048576	13	4544
2026-01-05 03:54:27.14	241.81	7.57	-26.7	-28.7	13.5	1.81e-03	0	44	102	1048576	13	4548
2026-01-05 03:54:28.15	241.75	7.49	-26.7	-28.8	13.4	1.43e-03	0	44	102	1048576	13	4566
2026-01-05 03:54:29.16	241.68	7.42	-26.7	-28.8	13.4	9.10e-06	0	44	102	1048576	13	4570
2026-01-05 03:54:30.17	241.61	7.35	-26.7	-28.8	13.4	3.55e-04	0	44	102	1048576	13	4592
2026-01-05 03:54:31.17	241.54	7.27	-26.8	-29.1	13.2	1.24e-03	0	44	102	1048576	13	4670
2026-01-05 03:54:32.18	241.48	7.20	-26.8	-29.0	13.2	1.02e-05	0	44	102	1048576	13	4650
2026-01-05 03:54:33.18	241.41	7.13	-27.0	-29.4	13.0	1.56e-03	0	44	102	1048576	13	4768
2026-01-05 03:54:34.19	241.35	7.06	-27.5	-30.2	12.3	1.95e-03	0	44	102	1048576	14	4928
2026-01-05 03:54:35.20	241.28	6.99	-32.5	-43.9	3.8	8.47e-01	0	44	104	1048576	24	13401

#Closed at: 2026-01-05 03:54:35
#Recorded file [1 MB]: D:/data/31010_260105_064338.dat