passes_logs/2026/01/05/R2M6_AANII_01/R2M6_AANII_01__20260105_023258_AQUA_rec.log

#Pass ID: 20260105_023258_AQUA
#Satellite: AQUA
#Configuration: AQUA
#almurnet v.1.7.20240730
#Start time: 2026-01-05 02:32:57

#Version: 2.2.20231116
#Station: R2M6_AANII_01
#Location: 30.233357 lon 59.946436 lat
#TLE: 1 27424U 02022A   26003.93831470  .00001925  00000+0  39553-3 0  9995
#TLE: 2 27424  98.4067 330.1809 0002003  92.1713 343.8415 14.61796291259276

#Time	Az	El	Level	Level2	SNR	BER	BlckErr	Temp	State	Recorded	gain1	gain2
2026-01-05 02:32:57.96	13.63	6.94	-32.1	-42.4	4.6	7.20e-01	0	41	0	0	25	11781
2026-01-05 02:32:58.96	13.60	7.02	-32.0	-42.3	4.7	7.17e-01	0	41	104	0	24	11680
2026-01-05 02:32:59.97	13.56	7.10	-32.0	-41.2	9.9	6.22e-01	0	41	0	0	24	10398
2026-01-05 02:33:00.96	13.53	7.18	-32.0	-40.9	10.2	6.17e-01	0	41	102	524288	24	9984
2026-01-05 02:33:01.98	13.50	7.26	-32.0	-41.1	10.1	6.19e-01	0	41	102	524288	24	10179
2026-01-05 02:33:02.98	13.46	7.34	-32.0	-41.2	10.0	6.18e-01	0	41	102	524288	24	10304
2026-01-05 02:33:03.99	13.43	7.42	-32.0	-41.0	10.2	6.21e-01	0	41	102	524288	24	10100
2026-01-05 02:33:05.00	13.39	7.51	-32.0	-41.1	10.1	6.19e-01	0	41	102	524288	24	10194
2026-01-05 02:33:05.99	13.35	7.59	-32.0	-40.9	10.3	6.17e-01	0	41	102	524288	24	9955
2026-01-05 02:33:06.99	13.32	7.67	-32.0	-40.5	10.6	6.15e-01	0	41	102	524288	24	9627
2026-01-05 02:33:08.00	13.28	7.75	-31.9	-39.8	11.3	6.11e-01	0	41	102	524288	24	8997
2026-01-05 02:33:09.01	13.25	7.84	-31.8	-39.3	11.8	6.08e-01	0	41	102	524288	24	8520
2026-01-05 02:33:10.02	13.21	7.92	-31.7	-38.5	12.5	6.06e-01	0	41	102	524288	24	7895
2026-01-05 02:33:11.03	13.17	8.00	-31.6	-38.4	12.9	6.03e-01	0	41	102	524288	23	7941
2026-01-05 02:33:12.03	13.14	8.09	-31.4	-37.7	13.5	6.03e-01	0	41	102	524288	23	7458
2026-01-05 02:33:13.04	13.10	8.17	-31.3	-37.1	14.0	6.02e-01	0	41	102	524288	23	7065
2026-01-05 02:33:14.05	13.06	8.26	-31.2	-36.8	14.3	6.03e-01	0	41	102	524288	23	6871
2026-01-05 02:33:15.05	13.02	8.34	-31.1	-36.6	14.5	6.02e-01	0	41	102	524288	23	6707
2026-01-05 02:33:16.06	12.99	8.43	-31.1	-36.8	14.8	6.02e-01	0	41	102	524288	22	6931
2026-01-05 02:33:17.06	12.95	8.51	-31.1	-36.4	14.6	6.03e-01	0	41	102	524288	23	6616
2026-01-05 02:33:18.06	12.91	8.60	-31.4	-37.4	13.9	6.00e-01	0	41	102	524288	23	7219
2026-01-05 02:33:19.07	12.87	8.68	-31.2	-36.7	14.5	6.04e-01	0	41	102	524288	23	6764
2026-01-05 02:33:20.07	12.83	8.77	-30.9	-36.2	15.2	6.01e-01	0	42	102	524288	22	6612
2026-01-05 02:33:21.07	12.79	8.85	-30.7	-35.4	15.8	6.01e-01	0	42	102	524288	22	6185
2026-01-05 02:33:22.07	12.75	8.94	-30.5	-35.3	16.3	6.04e-01	0	41	102	524288	21	6232
2026-01-05 02:33:23.08	12.71	9.03	-30.4	-34.8	16.6	6.03e-01	0	41	102	524288	21	5986
2026-01-05 02:33:24.09	12.67	9.12	-30.3	-34.3	17.0	6.00e-01	0	42	102	524288	21	5766
2026-01-05 02:33:25.10	12.63	9.21	-30.2	-34.2	17.2	6.00e-01	0	41	102	524288	21	5678
2026-01-05 02:33:26.11	12.59	9.29	-30.2	-34.2	17.1	6.02e-01	0	41	102	524288	21	5697
2026-01-05 02:33:27.11	12.55	9.38	-30.2	-34.2	17.1	6.04e-01	0	42	102	524288	21	5682
2026-01-05 02:33:28.12	12.51	9.47	-30.2	-34.2	17.2	6.02e-01	0	42	102	524288	21	5687
2026-01-05 02:33:29.13	12.46	9.56	-30.3	-34.4	17.0	6.01e-01	0	42	102	524288	21	5775
2026-01-05 02:33:30.13	12.42	9.65	-30.2	-34.2	17.2	6.01e-01	0	42	102	524288	21	5670
2026-01-05 02:33:31.14	12.38	9.74	-30.2	-34.0	17.3	6.04e-01	0	42	102	524288	21	5591
2026-01-05 02:33:32.14	12.34	9.83	-30.2	-34.2	17.1	6.00e-01	0	42	102	524288	21	5709
2026-01-05 02:33:33.15	12.29	9.92	-30.2	-34.0	17.3	6.02e-01	0	42	102	524288	21	5612
2026-01-05 02:33:34.16	12.25	10.01	-30.2	-34.1	17.3	6.01e-01	0	42	102	524288	21	5627
2026-01-05 02:33:35.17	12.21	10.11	-30.3	-34.5	16.9	6.02e-01	0	42	102	524288	21	5839
2026-01-05 02:33:36.17	12.16	10.20	-30.2	-34.1	17.2	6.04e-01	0	42	102	524288	21	5654
2026-01-05 02:33:37.18	12.12	10.29	-30.2	-33.9	17.4	5.98e-01	0	42	102	524288	21	5564
2026-01-05 02:33:38.19	12.07	10.38	-30.2	-33.9	17.4	6.02e-01	0	42	102	524288	21	5560
2026-01-05 02:33:39.19	12.03	10.48	-30.1	-33.7	17.5	6.00e-01	0	42	102	524288	21	5483
2026-01-05 02:33:40.20	11.98	10.57	-30.1	-33.8	17.4	6.03e-01	0	42	102	524288	21	5515
2026-01-05 02:33:41.21	11.94	10.66	-30.1	-33.7	17.6	6.02e-01	0	42	102	524288	21	5454
2026-01-05 02:33:42.21	11.89	10.76	-30.1	-33.7	17.5	6.01e-01	0	42	102	524288	21	5473
2026-01-05 02:33:43.22	11.85	10.85	-30.0	-34.0	17.7	6.01e-01	0	42	102	524288	20	5682
2026-01-05 02:33:44.23	11.80	10.95	-30.1	-34.1	17.6	6.03e-01	0	42	102	524288	20	5758
2026-01-05 02:33:45.24	11.75	11.04	-30.1	-34.2	17.6	5.99e-01	0	42	102	524288	20	5778
2026-01-05 02:33:46.24	11.70	11.14	-30.2	-34.0	17.4	6.00e-01	0	42	102	524288	21	5573
2026-01-05 02:33:47.24	11.66	11.23	-30.2	-34.1	17.3	6.02e-01	0	42	102	524288	21	5622
2026-01-05 02:33:48.25	11.61	11.33	-30.1	-33.9	17.5	6.01e-01	0	42	102	524288	21	5517
2026-01-05 02:33:49.26	11.56	11.43	-30.1	-33.8	17.4	6.01e-01	0	42	102	524288	21	5497
2026-01-05 02:33:50.26	11.51	11.52	-30.2	-33.9	17.4	6.01e-01	0	42	102	524288	21	5553
2026-01-05 02:33:51.26	11.46	11.62	-30.2	-34.0	17.4	6.03e-01	0	42	102	524288	21	5582
2026-01-05 02:33:52.27	11.41	11.72	-29.2	-33.3	17.2	6.01e-01	0	42	102	524288	21	5729
2026-01-05 02:33:53.28	11.36	11.82	-30.2	-34.3	17.4	6.00e-01	0	42	102	524288	20	5784
2026-01-05 02:33:54.29	11.31	11.92	-30.0	-33.5	17.7	6.03e-01	0	42	102	524288	21	5376
2026-01-05 02:33:55.29	11.26	12.02	-30.0	-33.9	17.5	6.04e-01	0	42	102	524288	20	5638
2026-01-05 02:33:56.30	11.21	12.12	-30.0	-34.0	17.6	6.02e-01	0	42	102	524288	20	5692
2026-01-05 02:33:57.31	11.16	12.22	-30.1	-33.7	17.6	6.03e-01	0	42	102	524288	21	5466
2026-01-05 02:33:58.32	11.11	12.32	-30.3	-34.2	17.3	6.00e-01	0	42	102	524288	21	5661
2026-01-05 02:33:59.33	11.05	12.42	-30.3	-34.2	17.2	6.02e-01	0	42	102	524288	21	5675
2026-01-05 02:34:00.34	11.00	12.52	-30.1	-33.8	17.6	6.04e-01	0	42	102	524288	21	5489
2026-01-05 02:34:01.34	10.95	12.62	-30.0	-34.1	17.8	6.03e-01	0	42	102	524288	20	5715
2026-01-05 02:34:02.34	10.89	12.72	-30.2	-34.0	17.5	6.02e-01	0	42	102	524288	21	5557
2026-01-05 02:34:03.35	10.84	12.83	-30.2	-34.0	17.4	6.03e-01	0	42	102	524288	21	5593
2026-01-05 02:34:04.35	10.78	12.93	-30.2	-33.8	17.6	6.02e-01	0	42	102	524288	21	5493
2026-01-05 02:34:05.36	10.73	13.03	-30.2	-34.0	17.5	5.99e-01	0	42	102	524288	21	5556
2026-01-05 02:34:06.36	10.67	13.14	-30.0	-33.4	17.9	6.01e-01	0	42	102	524288	21	5340
2026-01-05 02:34:07.36	10.62	13.24	-30.0	-33.8	18.0	6.02e-01	0	42	102	524288	20	5583
2026-01-05 02:34:08.37	10.56	13.35	-30.0	-33.9	17.9	6.02e-01	0	42	102	524288	20	5627
2026-01-05 02:34:09.37	10.50	13.45	-29.9	-33.5	18.2	5.99e-01	0	42	102	524288	20	5469
2026-01-05 02:34:10.38	10.45	13.56	-29.8	-33.3	18.4	6.03e-01	0	42	102	524288	20	5366
2026-01-05 02:34:11.39	10.39	13.67	-29.8	-33.3	18.4	6.03e-01	0	42	102	524288	20	5374
2026-01-05 02:34:12.40	10.33	13.77	-29.9	-33.6	18.1	6.01e-01	0	43	102	524288	20	5504
2026-01-05 02:34:13.40	10.27	13.88	-29.9	-33.7	18.1	6.00e-01	0	42	102	524288	20	5536
2026-01-05 02:34:14.41	10.21	13.99	-29.8	-33.4	18.3	6.02e-01	0	42	102	524288	20	5411
2026-01-05 02:34:15.42	10.15	14.10	-29.8	-33.2	16.4	6.03e-01	0	42	102	524288	20	5337
2026-01-05 02:34:16.43	10.09	14.21	-29.8	-33.2	17.3	6.03e-01	0	42	102	524288	20	5317
2026-01-05 02:34:17.43	10.03	14.32	-29.8	-33.1	18.2	6.00e-01	0	42	102	524288	20	5306
2026-01-05 02:34:18.44	9.97	14.43	-29.8	-33.2	17.7	6.05e-01	0	43	102	524288	20	5313
2026-01-05 02:34:19.45	9.91	14.54	-29.9	-33.4	17.2	6.02e-01	0	42	102	524288	20	5407
2026-01-05 02:34:20.46	9.85	14.65	-29.9	-33.4	18.2	6.00e-01	0	42	102	524288	20	5401
2026-01-05 02:34:21.46	9.78	14.76	-29.8	-33.1	18.5	6.00e-01	0	42	102	524288	20	5299
2026-01-05 02:34:22.47	9.72	14.88	-29.7	-33.0	18.6	6.03e-01	0	42	102	524288	20	5260
2026-01-05 02:34:23.48	9.65	14.99	-29.7	-33.0	18.7	6.00e-01	0	43	102	524288	20	5231
2026-01-05 02:34:24.48	9.59	15.10	-29.7	-33.1	18.6	5.97e-01	0	43	102	524288	20	5273
2026-01-05 02:34:25.48	9.53	15.22	-29.7	-33.0	18.6	6.01e-01	0	42	102	524288	20	5254
2026-01-05 02:34:26.49	9.46	15.33	-29.7	-33.0	18.7	6.00e-01	0	43	102	524288	20	5241
2026-01-05 02:34:27.50	9.39	15.45	-29.8	-33.1	18.6	6.01e-01	0	43	102	524288	20	5294
2026-01-05 02:34:28.51	9.33	15.56	-29.8	-33.1	18.6	6.04e-01	0	43	102	524288	20	5284
2026-01-05 02:34:29.51	9.26	15.68	-29.7	-32.9	18.7	6.04e-01	0	43	102	524288	20	5205
2026-01-05 02:34:30.52	9.19	15.79	-29.6	-32.7	18.8	6.03e-01	0	43	102	524288	20	5147
2026-01-05 02:34:31.53	9.12	15.91	-29.6	-32.7	18.9	6.03e-01	0	42	102	524288	20	5145
2026-01-05 02:34:32.53	9.05	16.03	-29.6	-32.7	18.9	6.03e-01	0	42	102	524288	20	5144
2026-01-05 02:34:33.54	8.98	16.15	-29.6	-32.6	18.9	6.02e-01	0	43	102	524288	20	5105
2026-01-05 02:34:34.54	8.91	16.27	-29.5	-32.4	19.1	6.02e-01	0	43	102	524288	20	5032
2026-01-05 02:34:35.54	8.84	16.39	-29.6	-33.0	19.1	6.01e-01	0	42	102	524288	19	5328
2026-01-05 02:34:36.55	8.77	16.51	-29.5	-32.8	19.2	6.01e-01	0	43	102	524288	19	5279
2026-01-05 02:34:37.56	8.70	16.63	-29.5	-32.9	19.2	6.01e-01	0	43	102	524288	19	5309
2026-01-05 02:34:38.57	8.62	16.75	-29.5	-32.8	19.2	6.02e-01	0	43	102	524288	19	5255
2026-01-05 02:34:39.58	8.55	16.87	-29.5	-32.8	19.2	6.01e-01	0	43	102	524288	19	5258
2026-01-05 02:34:40.58	8.48	17.00	-29.6	-33.0	19.1	6.02e-01	0	43	102	524288	19	5320
2026-01-05 02:34:41.58	8.40	17.12	-29.5	-32.9	19.1	6.03e-01	0	43	102	524288	19	5301
2026-01-05 02:34:42.59	8.33	17.24	-29.6	-32.5	19.0	6.02e-01	0	43	102	524288	20	5063
2026-01-05 02:34:43.60	8.25	17.37	-29.7	-33.0	18.7	6.02e-01	0	43	102	524288	20	5231
2026-01-05 02:34:44.61	8.17	17.49	-29.7	-32.9	18.8	6.03e-01	0	43	102	524288	20	5192
2026-01-05 02:34:45.61	8.09	17.62	-29.7	-32.8	18.9	6.02e-01	0	43	102	524288	20	5162
2026-01-05 02:34:46.62	8.02	17.75	-29.7	-32.9	18.8	6.00e-01	0	43	102	524288	20	5196
2026-01-05 02:34:47.63	7.94	17.87	-29.8	-33.0	18.8	6.02e-01	0	43	102	524288	20	5229
2026-01-05 02:34:48.63	7.86	18.00	-29.8	-33.1	18.7	6.03e-01	0	43	102	524288	20	5268
2026-01-05 02:34:49.64	7.78	18.13	-29.8	-33.1	18.7	6.02e-01	0	43	102	524288	20	5261
2026-01-05 02:34:50.64	7.69	18.26	-29.8	-33.2	18.6	6.00e-01	0	43	102	524288	20	5318
2026-01-05 02:34:51.65	7.61	18.39	-29.9	-33.3	18.6	6.05e-01	0	43	102	524288	20	5334
2026-01-05 02:34:52.65	7.53	18.52	-30.0	-33.6	18.5	6.04e-01	0	43	102	524288	20	5443
2026-01-05 02:34:53.66	7.44	18.65	-29.9	-33.5	18.5	6.04e-01	0	43	102	524288	20	5419
2026-01-05 02:34:54.67	7.36	18.79	-29.8	-33.2	18.7	6.00e-01	0	43	102	524288	20	5302
2026-01-05 02:34:55.68	7.27	18.92	-29.8	-33.1	18.8	6.01e-01	0	43	102	524288	20	5247
2026-01-05 02:34:56.68	7.19	19.05	-29.8	-33.2	18.7	6.01e-01	0	43	102	524288	20	5303
2026-01-05 02:34:57.68	7.10	19.19	-29.8	-33.1	18.8	6.04e-01	0	43	102	524288	20	5247
2026-01-05 02:34:58.69	7.01	19.32	-29.8	-33.0	18.8	6.01e-01	0	43	102	524288	20	5224
2026-01-05 02:34:59.70	6.92	19.46	-29.8	-33.2	18.7	6.03e-01	0	43	102	524288	20	5305
2026-01-05 02:35:00.71	6.83	19.60	-29.7	-32.9	18.9	6.00e-01	0	43	102	524288	20	5192
2026-01-05 02:35:01.72	6.74	19.73	-29.7	-32.7	19.0	6.02e-01	0	43	102	524288	20	5112
2026-01-05 02:35:02.72	6.65	19.87	-29.7	-32.7	19.1	6.01e-01	0	43	102	524288	20	5107
2026-01-05 02:35:03.73	6.56	20.01	-29.6	-32.5	19.2	6.06e-01	0	43	102	524288	20	5053
2026-01-05 02:35:04.74	6.46	20.15	-29.6	-32.6	19.2	6.04e-01	0	43	102	524288	20	5053
2026-01-05 02:35:05.75	6.37	20.29	-29.7	-32.8	19.0	6.01e-01	0	43	102	524288	20	5136
2026-01-05 02:35:06.75	6.27	20.43	-29.8	-33.0	18.9	6.02e-01	0	43	102	524288	20	5227
2026-01-05 02:35:07.75	6.18	20.57	-29.7	-32.9	19.0	6.03e-01	0	43	102	524288	20	5182
2026-01-05 02:35:08.75	6.08	20.72	-29.8	-33.0	18.9	6.00e-01	0	43	102	524288	20	5207
2026-01-05 02:35:09.76	5.98	20.86	-29.9	-33.4	18.7	6.00e-01	0	43	102	524288	20	5354
2026-01-05 02:35:10.76	5.88	21.00	-29.9	-33.4	18.6	6.00e-01	0	43	102	524288	20	5385
2026-01-05 02:35:11.77	5.78	21.15	-30.1	-33.8	18.4	6.00e-01	0	43	102	524288	20	5530
2026-01-05 02:35:12.78	5.68	21.30	-30.1	-33.4	18.4	6.03e-01	0	43	102	524288	21	5239
2026-01-05 02:35:13.78	5.58	21.44	-30.1	-33.4	18.3	6.02e-01	0	43	102	524288	21	5271
2026-01-05 02:35:14.79	5.48	21.59	-30.2	-33.6	18.2	6.03e-01	0	43	102	524288	21	5326
2026-01-05 02:35:15.79	5.37	21.74	-30.2	-33.5	18.3	6.02e-01	0	43	102	524288	21	5299
2026-01-05 02:35:16.80	5.27	21.89	-30.1	-33.4	18.3	6.04e-01	0	43	102	524288	21	5261
2026-01-05 02:35:17.81	5.16	22.04	-30.2	-33.6	18.2	6.00e-01	0	43	102	524288	21	5324
2026-01-05 02:35:18.81	5.05	22.19	-30.3	-33.8	18.1	6.02e-01	0	43	102	524288	21	5407
2026-01-05 02:35:19.82	4.94	22.34	-30.1	-33.3	18.4	6.06e-01	0	43	102	524288	21	5217
2026-01-05 02:35:20.83	4.83	22.50	-30.0	-33.5	18.6	6.01e-01	0	43	102	524288	20	5398
2026-01-05 02:35:21.83	4.72	22.65	-30.0	-33.6	18.6	6.02e-01	0	43	102	524288	20	5439
2026-01-05 02:35:22.84	4.61	22.80	-30.1	-33.4	18.3	6.02e-01	0	43	102	524288	21	5263
2026-01-05 02:35:23.84	4.49	22.96	-30.4	-34.1	18.0	6.00e-01	0	43	102	524288	21	5521
2026-01-05 02:35:24.85	4.38	23.12	-30.3	-33.8	18.2	6.02e-01	0	43	102	524288	21	5417
2026-01-05 02:35:25.86	4.26	23.27	-30.4	-34.1	17.9	6.00e-01	0	43	102	524288	21	5544
2026-01-05 02:35:26.87	4.14	23.43	-30.3	-33.9	18.1	6.03e-01	0	43	102	524288	21	5445
2026-01-05 02:35:27.87	4.03	23.59	-29.6	-32.9	18.3	6.02e-01	0	43	102	524288	21	5311
2026-01-05 02:35:28.88	3.91	23.75	-29.2	-32.6	18.2	6.00e-01	0	43	102	524288	21	5310
2026-01-05 02:35:29.89	3.78	23.92	-30.2	-33.6	18.3	6.01e-01	0	43	102	524288	21	5320
2026-01-05 02:35:30.89	3.66	24.08	-30.3	-33.8	18.1	6.05e-01	0	43	102	524288	21	5392
2026-01-05 02:35:31.89	3.54	24.24	-30.2	-33.5	18.3	6.01e-01	0	43	102	524288	21	5297
2026-01-05 02:35:32.90	3.41	24.40	-30.0	-33.1	18.7	6.02e-01	0	43	102	524288	21	5132
2026-01-05 02:35:33.90	3.28	24.57	-30.0	-33.4	18.6	6.00e-01	0	43	102	524288	20	5370
2026-01-05 02:35:34.91	3.16	24.73	-30.1	-33.7	18.5	6.00e-01	0	43	102	524288	20	5466
2026-01-05 02:35:35.91	3.03	24.90	-30.1	-33.2	18.6	6.01e-01	0	43	102	524288	21	5151
2026-01-05 02:35:36.92	2.89	25.07	-30.0	-33.6	18.6	6.03e-01	0	43	102	524288	20	5447
2026-01-05 02:35:37.93	2.76	25.24	-30.0	-33.5	18.6	6.01e-01	0	43	102	524288	20	5404
2026-01-05 02:35:38.93	2.63	25.41	-29.9	-33.4	18.8	6.03e-01	0	43	102	524288	20	5338
2026-01-05 02:35:39.94	2.49	25.58	-30.0	-33.4	18.7	6.02e-01	0	43	102	524288	20	5361
2026-01-05 02:35:40.95	2.35	25.75	-29.9	-33.3	18.9	6.02e-01	0	43	102	524288	20	5312
2026-01-05 02:35:41.96	2.21	25.93	-30.0	-33.4	18.8	6.02e-01	0	43	102	524288	20	5361
2026-01-05 02:35:42.97	2.07	26.10	-30.0	-33.4	16.6	6.03e-01	0	43	102	524288	20	5371
2026-01-05 02:35:43.97	1.93	26.28	-29.9	-33.3	18.8	5.99e-01	0	43	102	524288	20	5319
2026-01-05 02:35:44.98	1.78	26.45	-29.9	-33.4	16.6	6.03e-01	0	43	102	524288	20	5337
2026-01-05 02:35:45.99	1.64	26.63	-29.8	-33.0	18.1	6.00e-01	0	43	102	524288	20	5178
2026-01-05 02:35:47.00	1.49	26.81	-29.7	-32.8	19.1	6.01e-01	0	43	102	524288	20	5110
2026-01-05 02:35:48.00	1.34	26.99	-29.8	-32.8	18.6	6.02e-01	0	43	102	524288	20	5133
2026-01-05 02:35:49.01	1.19	27.17	-29.7	-32.7	18.7	6.01e-01	0	43	102	524288	20	5074
2026-01-05 02:35:50.02	1.03	27.35	-29.8	-32.8	19.2	6.01e-01	0	43	102	524288	20	5131
2026-01-05 02:35:51.03	0.88	27.54	-29.9	-33.2	19.0	6.00e-01	0	43	102	524288	20	5272
2026-01-05 02:35:52.03	0.72	27.72	-29.8	-33.0	19.1	6.06e-01	0	43	102	524288	20	5189
2026-01-05 02:35:53.04	0.56	27.90	-29.9	-33.2	19.0	6.01e-01	0	43	102	524288	20	5273
2026-01-05 02:35:54.04	0.40	28.09	-30.0	-33.5	18.8	6.01e-01	0	43	102	524288	20	5382
2026-01-05 02:35:55.06	0.24	28.28	-29.7	-32.8	19.2	6.05e-01	0	43	102	524288	20	5123
2026-01-05 02:35:56.07	0.07	28.47	-29.5	-32.2	19.6	6.02e-01	0	43	102	524288	20	4909
2026-01-05 02:35:57.07	359.91	28.66	-29.4	-32.4	19.8	6.02e-01	0	43	102	524288	19	5093
2026-01-05 02:35:58.08	359.74	28.85	-29.5	-32.5	19.7	6.03e-01	0	43	102	524288	19	5127
2026-01-05 02:35:59.09	359.56	29.04	-29.4	-32.3	19.9	6.05e-01	0	43	102	524288	19	5038
2026-01-05 02:36:00.10	359.39	29.23	-29.6	-32.7	19.7	6.04e-01	0	43	102	524288	19	5200
2026-01-05 02:36:01.11	359.21	29.43	-29.6	-32.7	19.7	6.03e-01	0	43	102	524288	19	5195
2026-01-05 02:36:02.11	359.04	29.62	-29.6	-32.4	19.5	6.03e-01	0	43	102	524288	20	4957
2026-01-05 02:36:03.12	358.86	29.82	-29.8	-32.9	19.2	6.01e-01	0	43	102	524288	20	5141
2026-01-05 02:36:04.13	358.67	30.02	-29.6	-32.5	19.4	5.99e-01	0	43	102	524288	20	5011
2026-01-05 02:36:05.14	358.49	30.22	-29.5	-32.2	19.6	6.00e-01	0	43	102	524288	20	4901
2026-01-05 02:36:06.14	358.30	30.42	-29.6	-32.8	19.7	6.01e-01	0	43	102	524288	19	5209
2026-01-05 02:36:07.15	358.11	30.62	-29.5	-32.2	19.6	5.99e-01	0	43	102	524288	20	4895
2026-01-05 02:36:08.15	357.92	30.82	-29.4	-32.0	19.8	6.04e-01	0	43	102	524288	20	4820
2026-01-05 02:36:09.16	357.72	31.02	-29.4	-32.4	19.8	6.01e-01	0	43	102	524288	19	5075
2026-01-05 02:36:10.16	357.53	31.22	-29.5	-32.5	19.8	6.02e-01	0	43	102	524288	19	5117
2026-01-05 02:36:11.17	357.33	31.43	-29.6	-32.7	19.7	5.99e-01	0	43	102	524288	19	5184
2026-01-05 02:36:12.18	357.12	31.64	-29.7	-32.5	19.4	6.01e-01	0	43	102	524288	20	5011
2026-01-05 02:36:13.18	356.92	31.84	-29.8	-32.9	19.2	6.02e-01	0	43	102	524288	20	5157
2026-01-05 02:36:14.19	356.71	32.05	-29.6	-32.3	19.6	6.03e-01	0	43	102	524288	20	4927
2026-01-05 02:36:15.20	356.50	32.26	-29.6	-32.7	19.8	6.01e-01	0	43	102	524288	19	5183
2026-01-05 02:36:16.20	356.28	32.47	-29.6	-32.8	19.7	6.02e-01	0	43	102	524288	19	5198
2026-01-05 02:36:17.20	356.07	32.69	-29.6	-32.3	19.6	6.02e-01	0	43	102	524288	20	4940
2026-01-05 02:36:18.20	355.85	32.90	-29.7	-32.6	19.4	6.03e-01	0	43	102	524288	20	5040
2026-01-05 02:36:19.21	355.63	33.11	-29.6	-32.5	19.5	6.01e-01	0	43	102	524288	20	5004
2026-01-05 02:36:20.22	355.40	33.33	-29.7	-32.8	19.3	6.01e-01	0	43	102	524288	20	5095
2026-01-05 02:36:21.23	355.17	33.55	-29.9	-33.3	19.0	6.02e-01	0	43	102	524288	20	5281
2026-01-05 02:36:22.23	354.94	33.76	-29.9	-33.2	19.1	6.00e-01	0	43	102	524288	20	5244
2026-01-05 02:36:23.23	354.70	33.98	-30.1	-33.2	18.7	6.01e-01	0	43	102	524288	21	5157
2026-01-05 02:36:24.24	354.46	34.20	-29.9	-33.2	19.1	5.99e-01	0	43	102	524288	20	5253
2026-01-05 02:36:25.25	354.22	34.43	-29.8	-32.8	19.4	6.02e-01	0	43	102	524288	20	5090
2026-01-05 02:36:26.26	353.97	34.65	-29.9	-33.0	19.2	6.05e-01	0	43	102	524288	20	5183
2026-01-05 02:36:27.26	353.73	34.87	-30.1	-33.2	18.8	5.96e-01	0	43	102	524288	21	5148
2026-01-05 02:36:28.27	353.47	35.10	-30.3	-33.8	18.4	6.01e-01	0	43	102	524288	21	5385
2026-01-05 02:36:29.28	353.21	35.32	-30.4	-34.1	18.2	6.02e-01	0	43	102	524288	21	5490
2026-01-05 02:36:30.29	352.95	35.55	-30.4	-34.1	18.3	6.04e-01	0	43	102	524288	21	5484
2026-01-05 02:36:31.29	352.69	35.78	-30.6	-33.9	18.0	6.04e-01	0	43	102	524288	22	5305
2026-01-05 02:36:32.29	352.42	36.00	-30.4	-33.9	18.3	6.03e-01	0	43	102	524288	21	5416
2026-01-05 02:36:33.30	352.15	36.24	-30.3	-33.6	18.5	5.99e-01	0	43	102	524288	21	5271
2026-01-05 02:36:34.30	351.88	36.46	-30.3	-33.7	18.5	5.98e-01	0	43	102	524288	21	5316
2026-01-05 02:36:35.31	351.60	36.70	-30.6	-34.4	18.1	6.03e-01	0	43	102	524288	21	5615
2026-01-05 02:36:36.32	351.31	36.93	-30.9	-34.7	17.6	6.00e-01	0	43	102	524288	22	5630
2026-01-05 02:36:37.32	351.02	37.16	-30.9	-34.9	17.4	6.03e-01	0	43	102	524288	22	5723
2026-01-05 02:36:38.33	350.73	37.40	-30.6	-34.1	17.9	6.01e-01	0	43	102	524288	22	5379
2026-01-05 02:36:39.34	350.43	37.64	-30.6	-34.5	18.0	6.04e-01	0	43	102	524288	21	5643
2026-01-05 02:36:40.34	350.13	37.87	-30.8	-34.7	17.6	6.03e-01	0	43	102	524288	22	5600
2026-01-05 02:36:41.35	349.82	38.11	-31.0	-35.2	17.2	5.98e-01	0	43	102	524288	22	5851
2026-01-05 02:36:42.35	349.51	38.35	-31.1	-35.0	17.0	6.02e-01	0	43	102	524288	23	5646
2026-01-05 02:36:43.35	349.20	38.58	-31.1	-35.0	17.0	6.00e-01	0	43	102	524288	23	5646
2026-01-05 02:36:44.36	348.88	38.82	-31.1	-35.0	17.0	6.00e-01	0	43	102	524288	23	5630
2026-01-05 02:36:45.37	348.55	39.07	-31.0	-35.2	17.3	6.02e-01	0	43	102	524288	22	5812
2026-01-05 02:36:46.38	348.22	39.31	-31.0	-35.2	17.2	6.00e-01	0	43	102	524288	22	5846
2026-01-05 02:36:47.39	347.88	39.55	-31.2	-35.2	17.0	6.04e-01	0	43	102	524288	23	5705
2026-01-05 02:36:48.39	347.54	39.79	-31.0	-34.6	17.3	6.04e-01	0	43	102	524288	23	5460
2026-01-05 02:36:49.40	347.20	40.04	-30.9	-34.8	17.5	5.99e-01	0	43	102	524288	22	5661
2026-01-05 02:36:50.41	346.84	40.28	-31.1	-35.0	17.0	6.00e-01	0	43	102	524288	23	5646
2026-01-05 02:36:51.42	346.49	40.53	-30.8	-34.6	17.6	6.00e-01	0	43	102	524288	22	5576
2026-01-05 02:36:52.42	346.13	40.77	-30.7	-34.4	17.9	6.02e-01	0	43	102	524288	22	5462
2026-01-05 02:36:53.43	345.76	41.02	-31.0	-35.2	17.2	6.00e-01	0	43	102	524288	22	5844
2026-01-05 02:36:54.44	345.38	41.26	-31.1	-35.3	17.2	6.02e-01	0	43	102	524288	22	5872
2026-01-05 02:36:55.45	345.00	41.51	-31.0	-35.0	17.4	6.01e-01	0	43	102	524288	22	5748
2026-01-05 02:36:56.45	344.62	41.76	-30.9	-34.9	17.5	6.01e-01	0	43	102	524288	22	5687
2026-01-05 02:36:57.45	344.23	42.00	-30.9	-34.8	17.5	6.02e-01	0	43	102	524288	22	5660
2026-01-05 02:36:58.46	343.83	42.25	-30.8	-34.5	17.7	6.02e-01	0	43	102	524288	22	5543
2026-01-05 02:36:59.47	343.42	42.50	-30.9	-34.8	17.6	6.01e-01	0	43	102	524288	22	5655
2026-01-05 02:37:00.45	343.02	42.74	-31.2	-35.2	17.0	5.99e-01	0	43	102	524288	23	5699
2026-01-05 02:37:01.46	342.60	42.99	-31.2	-35.3	16.9	6.02e-01	0	43	102	524288	23	5749
2026-01-05 02:37:02.46	342.18	43.23	-31.0	-34.7	17.2	6.03e-01	0	43	102	524288	23	5497
2026-01-05 02:37:03.47	341.75	43.48	-30.7	-34.2	17.9	6.03e-01	0	43	102	524288	22	5390
2026-01-05 02:37:04.48	341.31	43.73	-30.6	-33.9	18.1	6.02e-01	0	43	102	524288	22	5289
2026-01-05 02:37:05.49	340.86	43.98	-30.8	-34.6	17.7	6.01e-01	0	43	102	524288	22	5557
2026-01-05 02:37:06.50	340.41	44.22	-30.9	-34.8	17.6	6.01e-01	0	43	102	524288	22	5652
2026-01-05 02:37:07.50	339.95	44.47	-30.7	-34.2	17.9	5.99e-01	0	43	102	524288	22	5427
2026-01-05 02:37:08.50	339.49	44.71	-30.5	-34.1	18.3	6.01e-01	0	43	102	524288	21	5439
2026-01-05 02:37:09.50	339.02	44.96	-30.4	-34.1	17.3	6.09e-01	0	43	102	524288	21	5500
2026-01-05 02:37:10.51	338.53	45.20	-30.6	-34.5	18.0	6.04e-01	0	43	102	524288	21	5624
2026-01-05 02:37:11.52	338.04	45.45	-30.6	-34.0	18.0	6.03e-01	0	43	102	524288	22	5342
2026-01-05 02:37:12.53	337.54	45.69	-30.6	-34.1	18.0	6.01e-01	0	43	102	524288	22	5347
2026-01-05 02:37:13.53	337.04	45.93	-30.7	-34.2	17.9	6.01e-01	0	43	102	524288	22	5412
2026-01-05 02:37:14.54	336.53	46.18	-30.6	-34.5	18.0	6.02e-01	0	43	102	524288	21	5627
2026-01-05 02:37:15.55	336.01	46.42	-30.6	-34.1	18.0	6.02e-01	0	43	102	524288	22	5377
2026-01-05 02:37:16.55	335.48	46.65	-30.6	-34.0	18.0	6.05e-01	0	43	102	524288	22	5337
2026-01-05 02:37:17.56	334.94	46.89	-30.7	-34.3	17.9	6.02e-01	0	43	102	524288	22	5433
2026-01-05 02:37:18.57	334.39	47.13	-30.9	-34.8	17.5	6.00e-01	0	43	102	524288	22	5654
2026-01-05 02:37:19.57	333.84	47.37	-30.9	-34.7	17.7	6.00e-01	0	43	102	524288	22	5606
2026-01-05 02:37:20.58	333.28	47.60	-30.5	-34.2	18.3	6.03e-01	0	43	102	524288	21	5518
2026-01-05 02:37:21.59	332.71	47.83	-30.5	-34.3	18.2	6.04e-01	0	43	102	524288	21	5532
2026-01-05 02:37:22.59	332.13	48.06	-30.8	-34.6	17.7	6.01e-01	0	43	102	524288	22	5548
2026-01-05 02:37:23.60	331.54	48.29	-31.0	-35.1	17.4	6.00e-01	0	43	102	524288	22	5768
2026-01-05 02:37:24.60	330.94	48.51	-30.6	-34.0	18.1	6.00e-01	0	43	102	524288	22	5300
2026-01-05 02:37:25.61	330.34	48.74	-30.6	-33.8	18.3	6.02e-01	0	43	102	524288	22	5242
2026-01-05 02:37:26.62	329.72	48.96	-31.0	-35.0	17.5	5.99e-01	0	43	102	524288	22	5738
2026-01-05 02:37:27.62	329.10	49.18	-30.8	-34.5	17.7	6.04e-01	0	43	102	524288	22	5524
2026-01-05 02:37:28.63	328.46	49.40	-30.6	-34.0	18.1	6.02e-01	0	43	102	524288	22	5320
2026-01-05 02:37:29.64	327.82	49.61	-30.6	-34.1	18.1	6.02e-01	0	43	102	524288	22	5333
2026-01-05 02:37:30.65	327.16	49.82	-30.8	-34.5	17.8	5.99e-01	0	43	102	524288	22	5507
2026-01-05 02:37:31.65	326.50	50.03	-30.9	-34.7	17.7	6.03e-01	0	43	102	524288	22	5587
2026-01-05 02:37:32.65	325.84	50.23	-30.6	-33.8	18.2	6.01e-01	0	43	102	524288	22	5250
2026-01-05 02:37:33.66	325.16	50.44	-30.3	-33.7	18.6	6.02e-01	0	43	102	524288	21	5313
2026-01-05 02:37:34.67	324.46	50.64	-30.5	-34.2	18.4	6.02e-01	0	43	102	524288	21	5504
2026-01-05 02:37:35.68	323.76	50.83	-30.6	-33.9	18.2	6.01e-01	0	43	102	524288	22	5289
2026-01-05 02:37:36.69	323.05	51.02	-30.4	-33.8	18.5	6.01e-01	0	43	102	524288	21	5351
2026-01-05 02:37:37.69	322.34	51.21	-30.3	-33.6	18.7	6.03e-01	0	43	102	524288	21	5261
2026-01-05 02:37:38.70	321.61	51.39	-30.5	-34.3	18.2	6.02e-01	0	43	102	524288	21	5547
2026-01-05 02:37:39.71	320.88	51.57	-30.5	-33.6	18.4	6.01e-01	0	43	102	524288	22	5145
2026-01-05 02:37:40.71	320.14	51.75	-30.1	-32.6	19.0	6.01e-01	0	43	102	524288	22	4801
2026-01-05 02:37:41.72	319.38	51.92	-30.3	-33.6	18.7	6.03e-01	0	43	102	524288	21	5272
2026-01-05 02:37:42.73	318.62	52.09	-30.4	-33.8	18.5	5.99e-01	0	43	102	524288	21	5355
2026-01-05 02:37:43.73	317.85	52.25	-30.2	-33.3	18.8	6.04e-01	0	43	102	524288	21	5172
2026-01-05 02:37:44.74	317.07	52.40	-30.2	-33.4	18.9	6.02e-01	0	43	102	524288	21	5182
2026-01-05 02:37:45.75	316.28	52.56	-30.2	-33.4	18.9	6.03e-01	0	43	102	524288	21	5182
2026-01-05 02:37:46.75	315.50	52.70	-30.3	-33.6	18.6	5.99e-01	0	43	102	524288	21	5284
2026-01-05 02:37:47.75	314.70	52.84	-30.2	-33.4	18.8	6.02e-01	0	43	102	524288	21	5175
2026-01-05 02:37:48.76	313.88	52.98	-30.0	-32.8	19.2	6.00e-01	0	43	102	524288	21	4962
2026-01-05 02:37:49.77	313.06	53.11	-30.6	-34.1	18.2	6.03e-01	0	43	102	524288	22	5330
2026-01-05 02:37:50.78	312.24	53.24	-30.5	-33.7	18.4	6.01e-01	0	43	102	524288	22	5186
2026-01-05 02:37:51.79	311.40	53.36	-30.1	-33.0	19.0	6.00e-01	0	43	102	524288	21	5053
2026-01-05 02:37:52.79	310.57	53.47	-30.2	-33.4	18.9	6.03e-01	0	43	102	524288	21	5187
2026-01-05 02:37:53.80	309.72	53.58	-30.4	-33.8	18.5	6.02e-01	0	43	102	524288	21	5349
2026-01-05 02:37:54.80	308.87	53.68	-30.2	-33.3	18.8	6.02e-01	0	43	102	524288	21	5149
2026-01-05 02:37:55.81	308.01	53.77	-30.1	-33.0	19.0	6.06e-01	0	43	102	524288	21	5028
2026-01-05 02:37:56.82	307.15	53.86	-30.5	-33.7	18.5	6.02e-01	0	43	102	524288	22	5179
2026-01-05 02:37:57.82	306.28	53.94	-30.7	-34.3	18.1	6.04e-01	0	43	102	524288	22	5434
2026-01-05 02:37:58.83	305.41	54.02	-31.1	-35.0	17.2	6.02e-01	0	43	102	524288	23	5617
2026-01-05 02:37:59.83	304.54	54.09	-30.5	-33.7	18.2	6.04e-01	0	43	102	524288	22	5197
2026-01-05 02:38:00.84	303.65	54.15	-30.5	-33.1	18.1	6.01e-01	0	43	102	524288	23	4871
2026-01-05 02:38:01.85	302.76	54.20	-30.6	-33.2	18.4	6.01e-01	0	43	102	524288	23	4878
2026-01-05 02:38:02.85	301.88	54.25	-30.7	-33.8	18.2	6.03e-01	0	43	102	524288	23	5104
2026-01-05 02:38:03.85	300.99	54.29	-31.7	-36.2	16.3	6.00e-01	0	43	102	524288	24	6082
2026-01-05 02:38:04.85	300.11	54.33	-31.7	-36.2	16.0	6.02e-01	0	43	102	524288	24	6084
2026-01-05 02:38:05.86	299.21	54.36	-31.1	-34.9	16.8	5.98e-01	0	43	102	524288	23	5598
2026-01-05 02:38:06.86	298.31	54.38	-30.1	-32.6	18.8	6.01e-01	0	43	102	524288	22	4783
2026-01-05 02:38:07.87	297.41	54.39	-30.5	-33.5	18.4	6.03e-01	0	43	102	524288	22	5122
2026-01-05 02:38:08.88	296.51	54.40	-30.3	-33.0	18.7	6.02e-01	0	43	102	524288	22	4916
2026-01-05 02:38:09.89	295.61	54.40	-30.5	-33.7	18.3	6.05e-01	0	43	102	524288	22	5183
2026-01-05 02:38:10.89	294.71	54.39	-30.4	-33.2	18.7	6.02e-01	0	43	102	524288	22	5011
2026-01-05 02:38:11.90	293.81	54.38	-30.4	-33.4	18.7	6.03e-01	0	43	102	524288	22	5087
2026-01-05 02:38:12.91	292.91	54.36	-30.7	-34.2	18.1	6.01e-01	0	43	102	524288	22	5377
2026-01-05 02:38:13.92	292.01	54.33	-30.8	-34.6	17.9	6.01e-01	0	43	102	524288	22	5542
2026-01-05 02:38:14.92	291.12	54.30	-30.7	-34.3	18.0	6.02e-01	0	43	102	524288	22	5455
2026-01-05 02:38:15.94	290.22	54.25	-30.3	-33.2	18.8	6.03e-01	0	43	102	524288	22	4994
2026-01-05 02:38:16.94	289.34	54.20	-30.2	-32.8	19.0	6.01e-01	0	43	102	524288	22	4856
2026-01-05 02:38:17.95	288.45	54.15	-29.9	-32.4	19.5	6.03e-01	0	43	102	524288	21	4844
2026-01-05 02:38:18.96	287.56	54.09	-30.1	-33.1	19.1	6.02e-01	0	43	102	524288	21	5090
2026-01-05 02:38:19.97	286.68	54.02	-30.1	-33.1	19.0	6.04e-01	0	43	102	524288	21	5074
2026-01-05 02:38:20.98	285.80	53.94	-29.8	-32.8	19.5	6.01e-01	0	43	102	524288	20	5084
2026-01-05 02:38:21.98	284.94	53.86	-30.2	-33.3	18.9	6.03e-01	0	43	102	524288	21	5155
2026-01-05 02:38:22.98	284.08	53.77	-30.2	-33.4	18.8	6.02e-01	0	43	102	524288	21	5197
2026-01-05 02:38:23.99	283.22	53.68	-30.2	-33.4	18.9	6.03e-01	0	43	102	524288	21	5188
2026-01-05 02:38:24.99	282.38	53.58	-29.8	-32.4	19.5	6.04e-01	0	43	102	524288	21	4823
2026-01-05 02:38:26.00	281.53	53.47	-30.1	-33.1	18.9	6.04e-01	0	43	102	524288	21	5096
2026-01-05 02:38:27.01	280.68	53.35	-30.1	-33.5	19.0	6.02e-01	0	43	102	524288	20	5369
2026-01-05 02:38:28.02	279.85	53.23	-29.7	-33.0	18.9	6.01e-01	0	43	102	524288	21	5236
2026-01-05 02:38:29.02	279.03	53.11	-29.3	-32.4	19.1	6.04e-01	0	43	102	524288	19	5166
2026-01-05 02:38:30.03	278.21	52.98	-30.4	-33.9	18.2	6.05e-01	0	43	102	524288	20	5372
2026-01-05 02:38:31.04	277.39	52.84	-30.0	-32.9	19.0	6.03e-01	0	43	102	524288	21	5012
2026-01-05 02:38:32.05	276.58	52.70	-29.7	-32.6	18.7	6.05e-01	0	43	102	524288	20	5030
2026-01-05 02:38:33.05	275.79	52.55	-29.9	-33.1	18.5	6.02e-01	0	43	102	524288	20	5200
2026-01-05 02:38:34.06	275.00	52.40	-29.7	-32.5	19.7	6.03e-01	0	43	102	524288	20	4977
2026-01-05 02:38:35.07	274.22	52.24	-29.8	-32.8	19.4	6.01e-01	0	43	102	524288	20	5104
2026-01-05 02:38:36.08	273.45	52.08	-29.8	-32.9	19.3	6.00e-01	0	43	102	524288	20	5143
2026-01-05 02:38:37.08	272.69	51.92	-29.8	-32.9	19.5	6.02e-01	0	43	102	524288	20	5114
2026-01-05 02:38:38.09	271.94	51.74	-30.4	-34.1	18.4	6.00e-01	0	43	102	524288	21	5472
2026-01-05 02:38:39.10	271.19	51.57	-30.2	-33.5	18.7	6.02e-01	0	43	102	524288	21	5255
2026-01-05 02:38:40.10	270.46	51.39	-30.2	-33.5	18.8	6.01e-01	0	43	102	524288	21	5233
2026-01-05 02:38:41.12	269.72	51.20	-30.8	-34.5	17.7	6.01e-01	0	43	102	524288	22	5523
2026-01-05 02:38:42.12	269.01	51.02	-30.5	-34.3	18.2	6.02e-01	0	43	102	524288	21	5568
2026-01-05 02:38:43.13	268.30	50.82	-30.4	-33.8	18.5	6.01e-01	0	43	102	524288	21	5372
2026-01-05 02:38:44.14	267.60	50.63	-30.4	-33.9	18.4	6.00e-01	0	43	102	524288	21	5395
2026-01-05 02:38:45.14	266.91	50.43	-30.3	-33.7	18.5	6.00e-01	0	43	102	524288	21	5328
2026-01-05 02:38:46.15	266.23	50.23	-30.5	-34.3	18.2	6.01e-01	0	43	102	524288	21	5580
2026-01-05 02:38:47.16	265.55	50.02	-30.2	-33.4	18.7	6.02e-01	0	43	102	524288	21	5222
2026-01-05 02:38:48.17	264.89	49.81	-30.5	-34.2	18.2	6.02e-01	0	43	102	524288	21	5519
2026-01-05 02:38:49.18	264.23	49.60	-30.4	-33.9	18.3	6.02e-01	0	43	102	524288	21	5408
2026-01-05 02:38:50.19	263.59	49.38	-30.0	-33.3	19.1	6.02e-01	0	43	102	524288	20	5290
2026-01-05 02:38:51.19	262.96	49.17	-30.2	-33.3	18.7	6.02e-01	0	43	102	524288	21	5190
2026-01-05 02:38:52.20	262.33	48.94	-30.1	-33.2	18.8	6.02e-01	0	43	102	524288	21	5131
2026-01-05 02:38:53.20	261.72	48.72	-30.2	-33.4	18.8	6.02e-01	0	43	102	524288	21	5195
2026-01-05 02:38:54.21	261.11	48.50	-30.4	-34.1	18.3	6.00e-01	0	43	102	524288	21	5484
2026-01-05 02:38:55.22	260.50	48.27	-30.8	-34.5	17.7	6.01e-01	0	43	102	524288	22	5525
2026-01-05 02:38:56.23	259.91	48.04	-30.8	-34.5	17.7	6.01e-01	0	43	102	524288	22	5538
2026-01-05 02:38:57.23	259.34	47.81	-30.5	-34.1	18.3	6.00e-01	0	43	102	524288	21	5495
2026-01-05 02:38:58.24	258.76	47.58	-30.7	-34.2	17.9	6.04e-01	0	43	102	524288	22	5421
2026-01-05 02:38:59.24	258.20	47.34	-31.0	-35.1	17.3	6.03e-01	0	43	102	524288	22	5817
2026-01-05 02:39:00.25	257.64	47.11	-30.7	-34.4	17.8	6.04e-01	0	43	102	524288	22	5491
2026-01-05 02:39:01.25	257.10	46.87	-30.6	-34.0	18.0	6.01e-01	0	43	102	524288	22	5317
2026-01-05 02:39:02.25	256.57	46.63	-30.6	-34.0	18.0	6.02e-01	0	43	102	524288	22	5342
2026-01-05 02:39:03.26	256.03	46.39	-30.6	-34.1	18.0	6.02e-01	0	43	102	524288	22	5383
2026-01-05 02:39:04.27	255.51	46.15	-30.4	-33.5	18.3	6.03e-01	0	43	102	524288	22	5132
2026-01-05 02:39:05.27	255.00	45.91	-29.9	-33.0	19.2	6.00e-01	0	43	102	524288	20	5192
2026-01-05 02:39:06.28	254.49	45.67	-29.6	-32.4	19.6	6.04e-01	0	43	102	524288	20	4974
2026-01-05 02:39:07.28	254.00	45.42	-29.8	-32.9	19.3	5.98e-01	0	43	102	524288	20	5132
2026-01-05 02:39:08.28	253.51	45.18	-29.6	-32.3	19.7	6.03e-01	0	43	102	524288	20	4935
2026-01-05 02:39:09.28	253.03	44.94	-29.6	-32.4	19.6	6.02e-01	0	43	102	524288	20	4959
2026-01-05 02:39:10.29	252.56	44.69	-29.4	-32.3	20.0	6.02e-01	0	43	102	524288	19	5044
2026-01-05 02:39:11.30	252.09	44.44	-29.4	-32.4	20.0	6.01e-01	0	43	102	524288	19	5078
2026-01-05 02:39:12.30	251.63	44.19	-29.4	-32.3	19.9	6.00e-01	0	43	102	524288	19	5045
2026-01-05 02:39:13.31	251.18	43.95	-29.4	-32.5	19.8	5.97e-01	0	43	102	524288	19	5089
2026-01-05 02:39:14.32	250.73	43.70	-29.5	-32.2	19.7	6.03e-01	0	43	102	524288	20	4895
2026-01-05 02:39:15.33	250.29	43.45	-29.6	-32.3	19.7	6.04e-01	0	43	102	524288	20	4916
2026-01-05 02:39:16.34	249.85	43.20	-29.6	-32.4	19.6	6.03e-01	0	43	102	524288	20	4957
2026-01-05 02:39:17.35	249.43	42.95	-29.6	-32.3	19.7	6.04e-01	0	43	102	524288	20	4928
2026-01-05 02:39:18.35	249.01	42.70	-29.8	-32.8	19.3	6.03e-01	0	43	102	524288	20	5102
2026-01-05 02:39:19.36	248.60	42.45	-29.9	-33.1	19.1	6.02e-01	0	43	102	524288	20	5221
2026-01-05 02:39:20.37	248.19	42.20	-30.0	-33.3	19.0	6.03e-01	0	43	102	524288	20	5310
2026-01-05 02:39:21.38	247.79	41.96	-29.9	-33.1	19.1	6.02e-01	0	43	102	524288	20	5206
2026-01-05 02:39:22.38	247.40	41.71	-30.1	-33.6	18.8	6.01e-01	0	43	102	524288	20	5425
2026-01-05 02:39:23.37	247.02	41.47	-30.2	-33.5	18.5	6.00e-01	0	43	102	524288	21	5267
2026-01-05 02:39:24.38	246.64	41.22	-30.0	-33.4	18.9	6.03e-01	0	43	102	524288	20	5323
2026-01-05 02:39:25.39	246.26	40.97	-30.0	-33.4	19.0	6.04e-01	0	43	102	524288	20	5323
2026-01-05 02:39:26.40	245.89	40.72	-30.3	-33.7	18.4	6.01e-01	0	43	102	524288	21	5351
2026-01-05 02:39:27.41	245.53	40.48	-30.4	-34.1	18.1	6.02e-01	0	43	102	524288	21	5486
2026-01-05 02:39:28.41	245.17	40.23	-30.2	-33.4	18.6	6.00e-01	0	43	102	524288	21	5214
2026-01-05 02:39:29.42	244.82	39.99	-30.2	-33.4	18.7	6.02e-01	0	43	102	524288	21	5224
2026-01-05 02:39:30.43	244.47	39.74	-30.6	-34.6	17.9	6.03e-01	0	43	102	524288	21	5710
2026-01-05 02:39:31.43	244.13	39.50	-30.6	-34.4	18.0	6.02e-01	0	43	102	524288	21	5635
2026-01-05 02:39:32.44	243.79	39.25	-30.7	-34.3	17.8	6.02e-01	0	43	102	524288	22	5459
2026-01-05 02:39:33.45	243.46	39.01	-31.0	-35.4	17.0	6.01e-01	0	43	102	524288	22	5939
2026-01-05 02:39:34.45	243.14	38.77	-31.1	-35.0	16.8	6.03e-01	0	43	102	524288	23	5678
2026-01-05 02:39:35.46	242.81	38.53	-30.6	-34.2	17.8	6.03e-01	0	43	102	524288	22	5422
2026-01-05 02:39:36.46	242.50	38.29	-30.8	-34.5	17.6	5.99e-01	0	43	102	524288	22	5564
2026-01-05 02:39:37.47	242.19	38.05	-31.1	-35.0	16.9	6.03e-01	0	43	102	524288	23	5676
2026-01-05 02:39:38.47	241.88	37.81	-31.0	-35.4	17.0	6.02e-01	0	43	102	524288	22	5946
2026-01-05 02:39:39.48	241.58	37.58	-30.8	-34.7	17.5	6.03e-01	0	43	102	524288	22	5609
2026-01-05 02:39:40.48	241.28	37.34	-31.1	-35.5	16.9	6.01e-01	0	43	102	524288	22	6008
2026-01-05 02:39:41.49	240.99	37.10	-31.4	-36.1	16.2	6.01e-01	0	43	102	524288	23	6179
2026-01-05 02:39:42.49	240.70	36.87	-31.4	-35.9	16.3	6.01e-01	0	43	102	524288	23	6050
2026-01-05 02:39:43.50	240.41	36.64	-31.3	-35.6	16.5	6.00e-01	0	43	102	524288	23	5937
2026-01-05 02:39:44.50	240.13	36.40	-31.3	-35.8	16.4	6.01e-01	0	43	102	524288	23	6004
2026-01-05 02:39:45.51	239.86	36.17	-31.2	-35.5	16.6	6.01e-01	0	43	102	524288	23	5892
2026-01-05 02:39:46.52	239.58	35.94	-30.9	-34.5	17.2	6.04e-01	0	43	102	524288	23	5443
2026-01-05 02:39:47.53	239.31	35.71	-30.5	-33.9	17.9	6.00e-01	0	43	102	524288	22	5318
2026-01-05 02:39:48.54	239.05	35.48	-30.5	-34.3	17.9	6.04e-01	0	43	102	524288	21	5583
2026-01-05 02:39:49.55	238.78	35.25	-30.8	-34.6	17.5	6.02e-01	0	43	102	524288	22	5586
2026-01-05 02:39:50.55	238.53	35.03	-30.8	-34.7	17.4	6.02e-01	0	43	102	524288	22	5644
2026-01-05 02:39:51.56	238.27	34.80	-30.7	-34.3	17.7	6.01e-01	0	43	102	524288	22	5466
2026-01-05 02:39:52.57	238.02	34.57	-30.9	-35.1	17.2	6.03e-01	0	43	102	524288	22	5787
2026-01-05 02:39:53.58	237.78	34.35	-31.1	-35.2	16.8	6.03e-01	0	43	102	524288	23	5751
2026-01-05 02:39:54.58	237.53	34.13	-30.9	-34.6	17.2	6.02e-01	0	43	102	524288	23	5480
2026-01-05 02:39:55.59	237.29	33.91	-30.4	-33.1	18.1	5.99e-01	0	43	102	524288	23	4903
2026-01-05 02:39:56.59	237.06	33.69	-29.9	-32.1	19.1	6.03e-01	0	43	102	524288	22	4664
2026-01-05 02:39:57.60	236.82	33.47	-29.7	-32.2	19.3	6.02e-01	0	43	102	524288	21	4778
2026-01-05 02:39:58.61	236.59	33.25	-29.7	-32.3	19.3	6.01e-01	0	43	102	524288	21	4814
2026-01-05 02:39:59.61	236.37	33.04	-29.8	-32.9	19.2	6.01e-01	0	43	102	524288	20	5159
2026-01-05 02:40:00.63	236.14	32.82	-29.7	-32.6	19.3	6.01e-01	0	43	102	524288	20	5036
2026-01-05 02:40:01.63	235.92	32.60	-29.6	-32.4	18.4	6.00e-01	0	43	102	524288	20	4965
2026-01-05 02:40:02.64	235.70	32.39	-29.6	-32.5	19.0	6.00e-01	0	43	102	524288	20	4994
2026-01-05 02:40:03.64	235.49	32.18	-29.7	-32.7	19.2	6.01e-01	0	43	102	524288	20	5093
2026-01-05 02:40:04.64	235.28	31.97	-29.6	-32.6	19.3	6.03e-01	0	43	102	524288	20	5041
2026-01-05 02:40:05.65	235.07	31.76	-29.6	-32.8	19.5	6.02e-01	0	43	102	524288	19	5239
2026-01-05 02:40:06.66	234.86	31.55	-29.6	-32.4	19.4	6.01e-01	0	43	102	524288	20	4973
2026-01-05 02:40:07.66	234.66	31.34	-29.6	-32.5	19.4	6.01e-01	0	43	102	524288	20	5027
2026-01-05 02:40:08.67	234.46	31.14	-29.8	-32.9	19.1	6.02e-01	0	43	102	524288	20	5173
2026-01-05 02:40:09.68	234.26	30.93	-29.8	-33.1	19.0	6.04e-01	0	43	102	524288	20	5260
2026-01-05 02:40:10.69	234.07	30.73	-29.7	-32.6	19.2	6.01e-01	0	43	102	524288	20	5072
2026-01-05 02:40:11.70	233.87	30.52	-29.5	-32.7	19.6	6.02e-01	0	43	102	524288	19	5192
2026-01-05 02:40:12.71	233.68	30.32	-29.4	-32.3	19.9	6.03e-01	0	43	102	524288	19	5056
2026-01-05 02:40:13.71	233.49	30.12	-29.4	-32.4	19.8	6.00e-01	0	43	102	524288	19	5083
2026-01-05 02:40:14.71	233.31	29.92	-29.5	-32.3	19.5	6.01e-01	0	43	102	524288	20	4968
2026-01-05 02:40:15.71	233.13	29.73	-29.5	-32.3	19.5	6.03e-01	0	43	102	524288	20	4936
2026-01-05 02:40:16.72	232.95	29.53	-29.5	-32.7	19.5	6.02e-01	0	43	102	524288	19	5195
2026-01-05 02:40:17.73	232.77	29.33	-29.4	-32.4	19.7	6.02e-01	0	43	102	524288	19	5071
2026-01-05 02:40:18.73	232.59	29.14	-29.4	-32.4	19.7	6.04e-01	0	43	102	524288	19	5099
2026-01-05 02:40:19.74	232.42	28.95	-29.4	-32.5	19.7	6.02e-01	0	43	102	524288	19	5128
2026-01-05 02:40:20.75	232.25	28.75	-29.5	-32.8	19.6	6.00e-01	0	43	102	524288	19	5228
2026-01-05 02:40:21.76	232.07	28.56	-29.5	-32.8	19.5	6.01e-01	0	43	102	524288	19	5225
2026-01-05 02:40:22.76	231.91	28.37	-29.4	-32.5	19.7	6.01e-01	0	43	102	524288	19	5145
2026-01-05 02:40:23.77	231.74	28.18	-29.4	-32.3	19.6	6.03e-01	0	43	102	524288	19	5069
2026-01-05 02:40:24.78	231.58	27.99	-29.5	-32.8	19.1	6.02e-01	0	43	102	524288	19	5239
2026-01-05 02:40:25.79	231.42	27.81	-29.6	-32.8	19.5	6.02e-01	0	43	102	524288	19	5253
2026-01-05 02:40:26.79	231.26	27.62	-29.8	-33.0	18.9	6.02e-01	0	43	102	524288	20	5211
2026-01-05 02:40:27.81	231.10	27.43	-30.0	-33.5	18.7	6.01e-01	0	43	102	524288	20	5423
2026-01-05 02:40:28.82	230.94	27.25	-29.9	-33.4	18.8	6.02e-01	0	43	102	524288	20	5349
2026-01-05 02:40:29.82	230.79	27.07	-29.9	-33.3	18.8	6.03e-01	0	43	102	524288	20	5327
2026-01-05 02:40:30.83	230.64	26.89	-29.9	-33.4	18.7	6.02e-01	0	43	102	524288	20	5354
2026-01-05 02:40:31.83	230.49	26.71	-29.8	-33.2	18.9	6.03e-01	0	44	102	524288	20	5275
2026-01-05 02:40:32.84	230.34	26.53	-29.9	-33.2	18.8	6.01e-01	0	43	102	524288	20	5301
2026-01-05 02:40:33.84	230.19	26.35	-29.9	-33.2	18.8	6.01e-01	0	43	102	524288	20	5312
2026-01-05 02:40:34.85	230.05	26.17	-30.1	-33.9	18.4	6.02e-01	0	43	102	524288	20	5556
2026-01-05 02:40:35.86	229.90	26.00	-30.0	-33.5	18.6	6.00e-01	0	43	102	524288	20	5423
2026-01-05 02:40:36.87	229.76	25.82	-29.8	-33.1	18.8	6.02e-01	0	43	102	524288	20	5271
2026-01-05 02:40:37.86	229.62	25.65	-29.8	-33.1	18.9	6.02e-01	0	43	102	524288	20	5247
2026-01-05 02:40:38.87	229.48	25.48	-29.7	-32.9	19.0	6.01e-01	0	43	102	524288	20	5198
2026-01-05 02:40:39.87	229.35	25.31	-29.8	-33.2	18.8	6.05e-01	0	43	102	524288	20	5289
2026-01-05 02:40:40.88	229.21	25.13	-29.8	-33.0	18.9	6.00e-01	0	43	102	524288	20	5237
2026-01-05 02:40:41.88	229.08	24.97	-29.8	-33.0	18.9	6.01e-01	0	43	102	524288	20	5229
2026-01-05 02:40:42.89	228.95	24.80	-29.9	-33.3	18.7	6.01e-01	0	43	102	524288	20	5327
2026-01-05 02:40:43.89	228.82	24.63	-29.7	-32.9	19.0	6.00e-01	0	43	102	524288	20	5185
2026-01-05 02:40:44.90	228.69	24.46	-29.6	-32.5	19.2	6.03e-01	0	43	102	524288	20	5052
2026-01-05 02:40:45.90	228.56	24.30	-29.6	-32.7	19.1	6.01e-01	0	43	102	524288	20	5100
2026-01-05 02:40:46.91	228.43	24.13	-29.7	-32.8	19.1	6.03e-01	0	43	102	524288	20	5145
2026-01-05 02:40:47.91	228.31	23.97	-29.8	-33.1	18.9	6.00e-01	0	43	102	524288	20	5268
2026-01-05 02:40:48.92	228.19	23.81	-29.9	-33.3	18.7	6.01e-01	0	43	102	524288	20	5330
2026-01-05 02:40:49.92	228.06	23.65	-30.0	-33.6	18.5	5.99e-01	0	43	102	524288	20	5470
2026-01-05 02:40:50.93	227.94	23.48	-29.9	-33.5	18.6	6.03e-01	0	43	102	524288	20	5428
2026-01-05 02:40:51.93	227.82	23.32	-30.0	-33.5	18.5	6.00e-01	0	43	102	524288	20	5445
2026-01-05 02:40:52.94	227.71	23.17	-30.0	-33.6	18.4	6.02e-01	0	43	102	524288	20	5473
2026-01-05 02:40:53.94	227.59	23.01	-29.9	-33.4	18.6	6.02e-01	0	43	102	524288	20	5370
2026-01-05 02:40:54.95	227.47	22.85	-29.9	-33.5	18.5	6.03e-01	0	43	102	524288	20	5426
2026-01-05 02:40:55.96	227.36	22.69	-29.9	-33.3	18.6	6.00e-01	0	43	102	524288	20	5346
2026-01-05 02:40:56.97	227.24	22.54	-29.9	-33.3	18.6	6.04e-01	0	43	102	524288	20	5341
2026-01-05 02:40:57.97	227.13	22.38	-29.9	-33.3	18.6	6.05e-01	0	43	102	524288	20	5354
2026-01-05 02:40:58.98	227.02	22.23	-29.9	-33.3	18.6	6.02e-01	0	43	102	524288	20	5349
2026-01-05 02:40:59.98	226.91	22.08	-30.0	-33.6	18.5	6.02e-01	0	43	102	524288	20	5452
2026-01-05 02:41:00.99	226.80	21.93	-29.8	-33.3	18.7	6.01e-01	0	43	102	524288	20	5333
2026-01-05 02:41:01.99	226.70	21.78	-29.8	-33.2	18.7	6.03e-01	0	43	102	524288	20	5327
2026-01-05 02:41:03.00	226.59	21.62	-29.9	-33.4	18.5	6.02e-01	0	43	102	524288	20	5398
2026-01-05 02:41:04.01	226.49	21.48	-29.9	-33.3	18.6	6.03e-01	0	43	102	524288	20	5356
2026-01-05 02:41:05.02	226.38	21.33	-29.9	-33.3	18.6	6.01e-01	0	43	102	524288	20	5370
2026-01-05 02:41:06.03	226.28	21.18	-29.9	-33.4	18.5	6.04e-01	0	43	102	524288	20	5387
2026-01-05 02:41:07.03	226.18	21.03	-29.9	-33.3	18.6	6.02e-01	0	43	102	524288	20	5372
2026-01-05 02:41:08.03	226.08	20.89	-29.9	-33.4	18.5	6.02e-01	0	43	102	524288	20	5390
2026-01-05 02:41:09.04	225.98	20.74	-29.8	-33.3	18.6	5.99e-01	0	43	102	524288	20	5364
2026-01-05 02:41:10.04	225.88	20.60	-29.8	-33.3	18.6	6.04e-01	0	43	102	524288	20	5356
2026-01-05 02:41:11.04	225.78	20.46	-29.8	-33.2	18.6	6.00e-01	0	43	102	524288	20	5332
2026-01-05 02:41:12.05	225.68	20.31	-29.8	-33.3	18.6	6.03e-01	0	43	102	524288	20	5345
2026-01-05 02:41:13.06	225.59	20.17	-29.8	-33.3	18.6	6.02e-01	0	43	102	524288	20	5352
2026-01-05 02:41:14.07	225.49	20.03	-30.1	-33.9	18.2	6.01e-01	0	43	102	524288	20	5579
2026-01-05 02:41:15.07	225.40	19.89	-29.9	-33.4	18.5	6.03e-01	0	43	102	524288	20	5385
2026-01-05 02:41:16.08	225.30	19.75	-29.8	-33.1	18.7	6.00e-01	0	43	102	524288	20	5290
2026-01-05 02:41:17.09	225.21	19.61	-29.8	-33.2	18.6	6.00e-01	0	43	102	524288	20	5309
2026-01-05 02:41:18.10	225.12	19.47	-29.8	-33.2	18.6	6.01e-01	0	43	102	524288	20	5319
2026-01-05 02:41:19.11	225.03	19.33	-29.8	-33.0	18.7	6.00e-01	0	43	102	524288	20	5261
2026-01-05 02:41:20.11	224.94	19.20	-29.8	-33.1	18.6	6.01e-01	0	43	102	524288	20	5286
2026-01-05 02:41:21.12	224.85	19.06	-29.7	-33.0	18.7	6.00e-01	0	43	102	524288	20	5251
2026-01-05 02:41:22.13	224.76	18.93	-29.7	-33.1	18.7	6.01e-01	0	43	102	524288	20	5267
2026-01-05 02:41:23.13	224.68	18.79	-29.8	-33.2	18.6	6.02e-01	0	43	102	524288	20	5319
2026-01-05 02:41:24.14	224.59	18.66	-29.7	-32.9	18.7	6.00e-01	0	43	102	524288	20	5224
2026-01-05 02:41:25.15	224.50	18.53	-29.7	-32.9	18.7	6.02e-01	0	43	102	524288	20	5197
2026-01-05 02:41:26.16	224.42	18.39	-29.7	-33.0	18.7	6.02e-01	0	43	102	524288	20	5243
2026-01-05 02:41:27.17	224.33	18.26	-29.7	-33.0	18.7	6.02e-01	0	43	102	524288	20	5237
2026-01-05 02:41:28.17	224.25	18.13	-29.8	-33.2	18.5	6.01e-01	0	43	102	524288	20	5349
2026-01-05 02:41:29.18	224.17	18.00	-29.9	-33.5	18.3	5.99e-01	0	43	102	524288	20	5470
2026-01-05 02:41:30.18	224.09	17.87	-29.8	-33.1	18.6	6.02e-01	0	43	102	524288	20	5296
2026-01-05 02:41:31.18	224.01	17.75	-29.4	-32.6	18.7	5.99e-01	0	43	102	524288	20	5234
2026-01-05 02:41:32.19	223.93	17.62	-28.5	-31.8	18.4	6.02e-01	0	43	102	524288	20	5257
2026-01-05 02:41:33.19	223.85	17.49	-29.7	-33.4	18.7	6.03e-01	0	43	102	524288	19	5478
2026-01-05 02:41:34.19	223.77	17.37	-29.7	-33.3	17.5	6.01e-01	0	43	102	524288	20	5426
2026-01-05 02:41:35.20	223.69	17.24	-29.7	-33.0	18.0	6.05e-01	0	43	102	524288	20	5278
2026-01-05 02:41:36.21	223.62	17.11	-29.8	-33.2	18.2	6.05e-01	0	43	102	524288	20	5320
2026-01-05 02:41:37.20	223.54	16.99	-29.8	-33.3	16.9	6.07e-01	0	43	102	524288	20	5394
2026-01-05 02:41:38.21	223.46	16.87	-29.8	-33.1	16.8	6.02e-01	0	43	102	524288	20	5313
2026-01-05 02:41:39.21	223.39	16.75	-29.8	-33.1	18.2	6.03e-01	0	43	102	524288	20	5313
2026-01-05 02:41:40.22	223.32	16.62	-29.8	-33.2	18.4	6.03e-01	0	43	102	524288	20	5356
2026-01-05 02:41:41.23	223.24	16.50	-29.7	-33.1	18.5	6.02e-01	0	43	102	524288	20	5316
2026-01-05 02:41:42.24	223.17	16.38	-29.8	-33.1	18.5	6.00e-01	0	43	102	524288	20	5323
2026-01-05 02:41:43.25	223.10	16.26	-29.8	-33.2	18.5	6.05e-01	0	43	102	524288	20	5330
2026-01-05 02:41:44.25	223.02	16.14	-29.8	-33.3	18.4	6.03e-01	0	43	102	524288	20	5395
2026-01-05 02:41:45.26	222.95	16.02	-29.7	-33.1	18.5	5.99e-01	0	43	102	524288	20	5288
2026-01-05 02:41:46.27	222.88	15.90	-29.7	-33.1	18.5	6.06e-01	0	43	102	524288	20	5308
2026-01-05 02:41:47.27	222.81	15.78	-29.8	-33.2	18.4	6.01e-01	0	43	102	524288	20	5331
2026-01-05 02:41:48.28	222.74	15.66	-29.7	-33.0	18.5	6.03e-01	0	43	102	524288	20	5282
2026-01-05 02:41:49.28	222.67	15.55	-29.7	-33.1	18.5	6.03e-01	0	43	102	524288	20	5313
2026-01-05 02:41:50.29	222.61	15.43	-29.7	-33.1	18.4	6.01e-01	0	43	102	524288	20	5324
2026-01-05 02:41:51.30	222.54	15.31	-29.7	-33.1	18.4	6.01e-01	0	43	102	524288	20	5323
2026-01-05 02:41:52.30	222.47	15.20	-29.7	-33.0	18.5	6.03e-01	0	43	102	524288	20	5268
2026-01-05 02:41:53.31	222.41	15.08	-29.6	-32.9	18.6	6.02e-01	0	43	102	524288	20	5229
2026-01-05 02:41:54.31	222.34	14.97	-29.7	-33.0	18.5	5.97e-01	0	43	102	524288	20	5288
2026-01-05 02:41:55.32	222.27	14.85	-29.7	-33.2	18.3	6.00e-01	0	43	102	524288	20	5350
2026-01-05 02:41:56.33	222.21	14.74	-29.7	-33.1	18.4	6.02e-01	0	43	102	524288	20	5305
2026-01-05 02:41:57.34	222.15	14.63	-29.7	-33.0	18.5	6.02e-01	0	43	102	524288	20	5272
2026-01-05 02:41:58.34	222.08	14.52	-29.7	-33.0	18.4	6.03e-01	0	43	102	524288	20	5285
2026-01-05 02:41:59.35	222.02	14.40	-29.7	-33.0	18.4	6.02e-01	0	43	102	524288	20	5294
2026-01-05 02:42:00.36	221.96	14.29	-28.7	-32.1	18.4	6.04e-01	0	43	102	524288	20	5347
2026-01-05 02:42:01.36	221.89	14.18	-29.8	-33.3	18.3	6.03e-01	0	43	102	524288	20	5382
2026-01-05 02:42:02.36	221.83	14.07	-29.6	-33.1	18.4	5.99e-01	0	43	102	524288	20	5377
2026-01-05 02:42:03.37	221.77	13.96	-29.6	-32.9	18.4	6.03e-01	0	43	102	524288	20	5247
2026-01-05 02:42:04.37	221.71	13.86	-29.7	-33.1	18.3	6.03e-01	0	43	102	524288	20	5303
2026-01-05 02:42:05.38	221.65	13.75	-29.8	-33.3	18.2	6.05e-01	0	43	102	524288	20	5385
2026-01-05 02:42:06.39	221.59	13.64	-29.7	-33.2	18.2	6.02e-01	0	43	102	524288	20	5367
2026-01-05 02:42:07.40	221.53	13.53	-29.7	-33.2	18.3	6.02e-01	0	43	102	524288	20	5347
2026-01-05 02:42:08.40	221.47	13.42	-29.8	-33.4	18.1	6.02e-01	0	43	102	524288	20	5461
2026-01-05 02:42:09.39	221.42	13.32	-29.9	-33.6	18.0	6.00e-01	0	43	102	524288	20	5542
2026-01-05 02:42:10.40	221.36	13.21	-29.9	-33.7	17.9	6.00e-01	0	43	102	524288	20	5556
2026-01-05 02:42:11.40	221.30	13.11	-29.9	-33.8	17.8	6.02e-01	0	43	102	524288	20	5622
2026-01-05 02:42:12.41	221.25	13.00	-29.9	-33.8	17.8	6.01e-01	0	43	102	524288	20	5640
2026-01-05 02:42:13.42	221.19	12.90	-29.9	-33.8	17.8	6.02e-01	0	43	102	524288	20	5641
2026-01-05 02:42:14.43	221.13	12.79	-29.9	-33.8	17.7	6.02e-01	0	43	102	524288	20	5636
2026-01-05 02:42:15.43	221.08	12.69	-29.9	-33.8	17.8	6.02e-01	0	43	102	524288	20	5610
2026-01-05 02:42:16.44	221.02	12.59	-29.9	-33.9	17.7	6.03e-01	0	43	102	524288	20	5659
2026-01-05 02:42:17.44	220.97	12.48	-29.9	-33.9	17.8	6.01e-01	0	43	102	524288	20	5649
2026-01-05 02:42:18.45	220.91	12.38	-29.9	-33.9	17.7	6.02e-01	0	43	102	524288	20	5654
2026-01-05 02:42:19.45	220.86	12.28	-30.0	-34.1	17.6	6.03e-01	0	43	102	524288	20	5736
2026-01-05 02:42:20.45	220.81	12.18	-29.8	-33.5	17.9	6.00e-01	0	43	102	524288	20	5522
2026-01-05 02:42:21.46	220.76	12.08	-29.7	-33.3	18.1	6.02e-01	0	43	102	524288	20	5406
2026-01-05 02:42:22.47	220.70	11.98	-29.8	-33.4	18.1	6.00e-01	0	43	102	524288	20	5457
2026-01-05 02:42:23.47	220.65	11.88	-29.7	-33.3	18.1	6.01e-01	0	43	102	524288	20	5422
2026-01-05 02:42:24.48	220.60	11.78	-29.8	-33.4	18.0	6.03e-01	0	43	102	524288	20	5474
2026-01-05 02:42:25.49	220.55	11.68	-29.8	-33.5	17.9	5.99e-01	0	43	102	524288	20	5522
2026-01-05 02:42:26.50	220.50	11.58	-29.7	-33.3	18.1	6.03e-01	0	43	102	524288	20	5414
2026-01-05 02:42:27.51	220.45	11.48	-29.7	-33.2	18.1	6.05e-01	0	43	102	524288	20	5408
2026-01-05 02:42:28.51	220.40	11.38	-29.8	-33.5	17.9	6.01e-01	0	44	102	524288	20	5503
2026-01-05 02:42:29.52	220.35	11.29	-29.8	-33.6	17.9	6.02e-01	0	43	102	524288	20	5533
2026-01-05 02:42:30.52	220.30	11.19	-29.8	-33.5	17.9	6.01e-01	0	43	102	524288	20	5510
2026-01-05 02:42:31.52	220.25	11.09	-29.9	-33.8	17.7	6.03e-01	0	43	102	524288	20	5645
2026-01-05 02:42:32.53	220.20	11.00	-29.9	-33.8	17.7	6.01e-01	0	43	102	524288	20	5653
2026-01-05 02:42:33.53	220.15	10.90	-29.9	-33.7	17.8	6.03e-01	0	43	102	524288	20	5603
2026-01-05 02:42:34.53	220.10	10.81	-29.8	-33.6	17.8	6.03e-01	0	43	102	524288	20	5574
2026-01-05 02:42:35.54	220.06	10.71	-30.0	-34.1	17.5	5.99e-01	0	43	102	524288	20	5766
2026-01-05 02:42:36.55	220.01	10.62	-30.0	-34.3	17.3	6.03e-01	0	43	102	524288	20	5865
2026-01-05 02:42:37.55	219.96	10.52	-30.1	-33.9	17.3	6.02e-01	0	43	102	524288	21	5594
2026-01-05 02:42:38.55	219.92	10.43	-30.0	-34.2	17.3	6.01e-01	0	43	102	524288	20	5856
2026-01-05 02:42:39.55	219.87	10.34	-30.0	-34.3	17.2	6.04e-01	0	43	102	524288	20	5901
2026-01-05 02:42:40.56	219.82	10.24	-30.0	-34.2	17.3	6.02e-01	0	43	102	524288	20	5851
2026-01-05 02:42:41.56	219.78	10.15	-30.0	-34.2	17.3	6.03e-01	0	43	102	524288	20	5859
2026-01-05 02:42:42.56	219.73	10.06	-30.1	-34.4	17.1	6.02e-01	0	43	102	524288	20	5958
2026-01-05 02:42:43.57	219.69	9.96	-30.0	-33.8	17.2	6.01e-01	0	43	102	524288	21	5589
2026-01-05 02:42:44.58	219.65	9.87	-30.1	-34.2	17.0	6.01e-01	0	44	102	524288	21	5746
2026-01-05 02:42:45.58	219.60	9.78	-30.1	-34.2	16.9	6.01e-01	0	43	102	524288	21	5760
2026-01-05 02:42:46.59	219.56	9.69	-30.0	-33.8	17.2	5.99e-01	0	43	102	524288	21	5557
2026-01-05 02:42:47.60	219.51	9.60	-29.9	-34.1	17.3	6.04e-01	0	43	102	524288	20	5811
2026-01-05 02:42:48.60	219.47	9.51	-30.2	-34.2	16.9	6.01e-01	0	43	102	524288	21	5736
2026-01-05 02:42:49.61	219.43	9.42	-30.2	-34.2	16.9	5.99e-01	0	43	102	524288	21	5744
2026-01-05 02:42:50.62	219.38	9.33	-30.1	-34.0	17.0	6.01e-01	0	43	102	524288	21	5635
2026-01-05 02:42:51.63	219.34	9.24	-30.1	-34.4	17.1	5.99e-01	0	43	102	524288	20	5947
2026-01-05 02:42:52.63	219.30	9.15	-30.1	-34.1	17.0	6.01e-01	0	43	102	524288	21	5676
2026-01-05 02:42:53.63	219.26	9.06	-30.1	-34.1	17.0	6.02e-01	0	43	102	524288	21	5699
2026-01-05 02:42:54.63	219.22	8.98	-30.1	-34.1	16.9	6.02e-01	0	43	102	524288	21	5701
2026-01-05 02:42:55.64	219.18	8.89	-30.1	-34.2	16.9	6.03e-01	0	43	102	524288	21	5737
2026-01-05 02:42:56.65	219.14	8.80	-30.3	-34.7	16.5	6.01e-01	0	43	102	524288	21	5972
2026-01-05 02:42:57.66	219.09	8.71	-30.2	-34.5	16.7	6.03e-01	0	43	102	524288	21	5869
2026-01-05 02:42:58.66	219.05	8.63	-30.1	-34.2	16.8	6.03e-01	0	43	102	524288	21	5754
2026-01-05 02:42:59.67	219.01	8.54	-30.1	-34.1	16.9	6.01e-01	0	43	102	524288	21	5688
2026-01-05 02:43:00.68	218.97	8.45	-30.1	-34.2	16.8	6.02e-01	0	43	102	524288	21	5774
2026-01-05 02:43:01.68	218.94	8.37	-30.2	-34.5	16.6	5.99e-01	0	43	102	524288	21	5917
2026-01-05 02:43:02.69	218.90	8.28	-30.2	-34.5	16.6	6.02e-01	0	43	102	524288	21	5883
2026-01-05 02:43:03.70	218.86	8.19	-30.2	-34.6	16.5	6.03e-01	0	43	102	524288	21	5939
2026-01-05 02:43:04.71	218.82	8.11	-30.2	-34.6	16.4	6.00e-01	0	43	102	524288	21	5969
2026-01-05 02:43:05.71	218.78	8.03	-30.2	-34.6	16.5	6.01e-01	0	43	102	524288	21	5939
2026-01-05 02:43:06.72	218.74	7.94	-30.2	-34.6	16.2	6.03e-01	0	43	102	524288	21	5956
2026-01-05 02:43:07.73	218.70	7.86	-30.3	-34.9	15.9	6.02e-01	0	43	102	524288	21	6105
2026-01-05 02:43:08.72	218.67	7.77	-30.3	-34.8	16.2	6.01e-01	0	43	102	524288	21	6047
2026-01-05 02:43:09.73	218.63	7.69	-30.3	-34.8	16.1	6.02e-01	0	43	102	524288	21	6051
2026-01-05 02:43:10.74	218.59	7.61	-30.2	-34.7	16.2	6.02e-01	0	43	102	524288	21	6015
2026-01-05 02:43:11.74	218.55	7.52	-30.4	-35.1	16.0	6.02e-01	0	43	102	524288	21	6225
2026-01-05 02:43:12.75	218.52	7.44	-30.3	-34.9	16.1	6.01e-01	0	43	102	524288	21	6121
2026-01-05 02:43:13.76	218.48	7.36	-30.3	-34.8	16.2	6.03e-01	0	43	102	524288	21	6047
2026-01-05 02:43:14.77	218.45	7.28	-30.2	-34.5	16.4	5.98e-01	0	43	102	524288	21	5929
2026-01-05 02:43:15.77	218.41	7.19	-30.3	-35.0	16.1	5.99e-01	0	43	102	524288	21	6143
2026-01-05 02:43:16.78	218.37	7.11	-30.4	-35.3	15.9	6.02e-01	0	43	102	524288	21	6317
2026-01-05 02:43:17.79	218.34	7.03	-32.9	-49.8	4.0	7.36e-01	0	43	104	524288	26	25258
2026-01-05 02:43:18.79	218.30	6.95	-33.3	-52.5	3.8	7.49e-01	0	43	104	524288	27	33035
2026-01-05 02:43:19.80	218.27	6.87	-33.5	-53.1	3.8	7.45e-01	0	43	104	524288	27	34180

#Closed at: 2026-01-05 02:43:20
#Recorded file [0 MB]: D:/data/31010_260105_053259.dat