passes_logs/2026/01/05/R2M6_AANII_01/R2M6_AANII_01__20260105_133702_FENGYUN_3D_rec.log

#Pass ID: 20260105_133702_FENGYUN 3D
#Satellite: FENGYUN 3D
#Configuration: FENGYUN 3D
#almurnet v.1.7.20240730
#Start time: 2026-01-05 13:37:02

#Version: 2.2.20231116
#Station: R2M6_AANII_01
#Location: 30.233357 lon 59.946436 lat
#TLE: 1 43010U 17072A   26004.99581904 -.00000126  00000+0 -37613-4 0  9996
#TLE: 2 43010  98.9917 336.6574 0001994 126.4096 233.7264 14.19691690421839

#Time	Az	El	Level	Level2	SNR	BER	BlckErr	Temp	State	Recorded	gain1	gain2
2026-01-05 13:37:02.55	201.01	6.98	-27.2	-28.9	5.7	7.65e-01	0	41	0	0	15	4394
2026-01-05 13:37:03.55	201.08	7.05	-28.4	-31.4	5.5	7.74e-01	0	41	104	0	16	5095
2026-01-05 13:37:04.56	201.16	7.11	-28.2	-30.9	11.3	1.84e-03	0	41	0	0	16	4905
2026-01-05 13:37:05.57	201.24	7.18	-28.2	-30.8	11.4	9.58e-04	0	41	102	1048576	16	4870
2026-01-05 13:37:06.58	201.32	7.25	-28.2	-30.8	11.5	1.65e-03	0	41	102	1048576	16	4857
2026-01-05 13:37:07.58	201.40	7.32	-27.8	-29.9	12.0	5.56e-04	0	41	102	1048576	16	4565
2026-01-05 13:37:08.58	201.47	7.39	-27.4	-29.0	12.6	1.72e-04	0	41	102	1048576	16	4288
2026-01-05 13:37:09.59	201.55	7.46	-27.1	-28.6	13.0	7.55e-05	0	41	102	1048576	15	4295
2026-01-05 13:37:10.60	201.63	7.53	-26.9	-28.1	13.3	3.43e-05	0	41	102	1048576	15	4168
2026-01-05 13:37:11.60	201.71	7.60	-26.6	-28.1	13.6	1.71e-05	0	41	102	1048576	14	4254
2026-01-05 13:37:12.61	201.79	7.67	-26.7	-28.3	13.5	1.37e-05	0	41	102	1048576	14	4299
2026-01-05 13:37:13.62	201.87	7.74	-26.6	-28.1	13.6	1.83e-05	0	41	102	1048576	14	4265
2026-01-05 13:37:14.62	201.96	7.81	-26.4	-27.6	13.9	4.50e-06	0	41	102	1048576	14	4128
2026-01-05 13:37:15.63	202.04	7.88	-26.2	-27.6	14.2	2.20e-06	0	41	102	1048576	13	4223
2026-01-05 13:37:16.64	202.12	7.95	-26.0	-27.2	14.5	2.20e-06	0	41	102	1048576	13	4112
2026-01-05 13:37:17.65	202.20	8.03	-26.0	-27.1	14.5	1.10e-06	0	41	102	1048576	13	4097
2026-01-05 13:37:18.65	202.28	8.10	-25.9	-27.0	14.6	1.10e-06	0	42	102	1048576	13	4056
2026-01-05 13:37:19.66	202.37	8.17	-26.0	-27.2	14.5	0.00e+00	0	41	102	1048576	13	4120
2026-01-05 13:37:20.66	202.45	8.24	-26.1	-27.3	14.5	2.20e-06	0	42	102	1048576	13	4132
2026-01-05 13:37:21.67	202.53	8.31	-26.0	-27.2	14.5	4.50e-06	0	41	102	1048576	13	4102
2026-01-05 13:37:22.68	202.62	8.38	-26.0	-27.2	14.5	1.10e-06	0	42	102	1048576	13	4107
2026-01-05 13:37:23.68	202.70	8.45	-26.0	-27.1	14.6	0.00e+00	0	42	102	1048576	13	4076
2026-01-05 13:37:24.69	202.79	8.53	-25.9	-27.0	14.7	1.10e-06	0	42	102	1048576	13	4068
2026-01-05 13:37:25.70	202.87	8.60	-26.1	-27.3	14.5	2.20e-06	0	42	102	1048576	13	4148
2026-01-05 13:37:26.70	202.96	8.67	-26.0	-27.2	14.6	1.10e-06	0	42	102	1048576	13	4106
2026-01-05 13:37:27.71	203.05	8.74	-26.0	-27.1	14.7	0.00e+00	0	42	102	1048576	13	4078
2026-01-05 13:37:28.71	203.13	8.82	-26.0	-27.0	14.7	0.00e+00	0	42	102	1048576	13	4070
2026-01-05 13:37:29.72	203.22	8.89	-26.0	-27.2	14.6	0.00e+00	0	42	102	1048576	13	4108
2026-01-05 13:37:30.72	203.31	8.96	-26.0	-27.1	14.7	2.20e-06	0	42	102	1048576	13	4083
2026-01-05 13:37:31.73	203.39	9.03	-25.9	-26.9	14.8	0.00e+00	0	42	102	1048576	13	4038
2026-01-05 13:37:32.74	203.48	9.11	-25.9	-26.9	14.8	0.00e+00	0	42	102	1048576	13	4042
2026-01-05 13:37:33.75	203.57	9.18	-25.9	-26.8	14.9	0.00e+00	0	42	102	1048576	13	4006
2026-01-05 13:37:34.76	203.66	9.26	-25.8	-27.0	15.0	1.37e-05	0	42	102	1048576	12	4172
2026-01-05 13:37:35.76	203.75	9.33	-25.8	-27.1	15.0	0.00e+00	0	42	102	1048576	12	4179
2026-01-05 13:37:36.76	203.84	9.40	-25.7	-26.9	15.1	0.00e+00	0	42	102	1048576	12	4139
2026-01-05 13:37:37.76	203.93	9.48	-25.7	-26.8	15.1	0.00e+00	0	42	102	1048576	12	4122
2026-01-05 13:37:38.77	204.02	9.55	-25.8	-27.2	14.9	0.00e+00	0	42	102	1048576	12	4215
2026-01-05 13:37:39.78	204.11	9.63	-25.7	-26.9	15.1	0.00e+00	0	42	102	1048576	12	4145
2026-01-05 13:37:40.79	204.20	9.70	-25.6	-26.7	15.2	0.00e+00	0	42	102	1048576	12	4069
2026-01-05 13:37:41.79	204.30	9.77	-25.7	-26.8	15.2	0.00e+00	0	42	102	1048576	12	4115
2026-01-05 13:37:42.78	204.39	9.85	-25.6	-26.6	15.3	0.00e+00	0	42	102	1048576	12	4051
2026-01-05 13:37:43.79	204.48	9.92	-25.7	-26.8	15.2	0.00e+00	0	42	102	1048576	12	4102
2026-01-05 13:37:44.80	204.57	10.00	-25.6	-26.7	15.3	0.00e+00	0	42	102	1048576	12	4076
2026-01-05 13:37:45.81	204.67	10.07	-25.6	-26.6	15.3	0.00e+00	0	42	102	1048576	12	4053
2026-01-05 13:37:46.82	204.76	10.15	-25.7	-26.8	15.2	0.00e+00	0	42	102	1048576	12	4112
2026-01-05 13:37:47.83	204.86	10.23	-25.5	-26.5	15.4	0.00e+00	0	42	102	1048576	12	4033
2026-01-05 13:37:48.84	204.95	10.30	-25.5	-26.4	15.5	0.00e+00	0	42	102	1048576	12	3990
2026-01-05 13:37:49.85	205.05	10.38	-25.5	-26.4	15.5	1.10e-06	0	42	102	1048576	12	4001
2026-01-05 13:37:50.86	205.15	10.45	-25.4	-26.2	15.6	0.00e+00	0	42	102	1048576	12	3941
2026-01-05 13:37:51.86	205.24	10.53	-25.4	-26.2	15.6	0.00e+00	0	42	102	1048576	12	3951
2026-01-05 13:37:52.87	205.34	10.61	-25.5	-26.4	15.5	0.00e+00	0	42	102	1048576	12	3991
2026-01-05 13:37:53.88	205.44	10.68	-25.3	-26.0	15.7	0.00e+00	0	42	102	1048576	12	3908
2026-01-05 13:37:54.89	205.54	10.76	-25.3	-26.4	15.8	0.00e+00	0	42	102	1048576	11	4106
2026-01-05 13:37:55.90	205.64	10.84	-25.3	-26.4	15.8	0.00e+00	0	42	102	1048576	11	4095
2026-01-05 13:37:56.91	205.74	10.92	-25.4	-26.7	15.7	0.00e+00	0	42	102	1048576	11	4167
2026-01-05 13:37:57.91	205.84	10.99	-25.4	-26.7	15.7	0.00e+00	0	42	102	1048576	11	4184
2026-01-05 13:37:58.92	205.94	11.07	-25.4	-26.6	15.7	0.00e+00	0	42	102	1048576	11	4155
2026-01-05 13:37:59.93	206.04	11.15	-25.4	-26.7	15.7	0.00e+00	0	43	102	1048576	11	4179
2026-01-05 13:38:00.94	206.14	11.23	-25.4	-26.7	15.7	2.20e-06	0	42	102	1048576	11	4167
2026-01-05 13:38:01.94	206.24	11.30	-25.4	-26.7	15.7	0.00e+00	0	43	102	1048576	11	4188
2026-01-05 13:38:02.95	206.35	11.38	-25.6	-27.2	15.4	0.00e+00	0	43	102	1048576	11	4318
2026-01-05 13:38:03.96	206.45	11.46	-25.5	-26.9	15.6	0.00e+00	0	43	102	1048576	11	4231
2026-01-05 13:38:04.97	206.55	11.54	-25.4	-26.8	15.7	0.00e+00	0	42	102	1048576	11	4202
2026-01-05 13:38:05.97	206.66	11.62	-25.4	-26.7	15.7	0.00e+00	0	42	102	1048576	11	4176
2026-01-05 13:38:06.98	206.76	11.70	-25.5	-26.8	15.6	0.00e+00	0	43	102	1048576	11	4214
2026-01-05 13:38:07.98	206.87	11.78	-25.4	-26.6	15.8	0.00e+00	0	43	102	1048576	11	4150
2026-01-05 13:38:08.99	206.97	11.86	-25.3	-26.6	15.8	0.00e+00	0	42	102	1048576	11	4147
2026-01-05 13:38:09.99	207.08	11.93	-25.4	-26.6	15.8	0.00e+00	0	42	102	1048576	11	4155
2026-01-05 13:38:11.00	207.18	12.01	-25.6	-27.0	15.6	0.00e+00	0	43	102	1048576	11	4258
2026-01-05 13:38:12.01	207.29	12.09	-25.3	-26.5	15.9	0.00e+00	0	43	102	1048576	11	4128
2026-01-05 13:38:13.01	207.40	12.17	-25.3	-26.4	15.9	9.10e-06	0	43	102	1048576	11	4099
2026-01-05 13:38:14.02	207.51	12.25	-25.3	-26.5	15.9	0.00e+00	0	43	102	1048576	11	4113
2026-01-05 13:38:15.03	207.62	12.33	-25.2	-26.3	16.0	0.00e+00	0	43	102	1048576	11	4066
2026-01-05 13:38:16.04	207.73	12.42	-25.3	-26.4	15.9	0.00e+00	0	43	102	1048576	11	4097
2026-01-05 13:38:17.04	207.84	12.50	-25.3	-26.4	16.0	0.00e+00	0	43	102	1048576	11	4096
2026-01-05 13:38:18.05	207.95	12.58	-25.4	-26.8	15.7	0.00e+00	0	43	102	1048576	11	4199
2026-01-05 13:38:19.05	208.06	12.66	-25.2	-26.2	16.0	0.00e+00	0	43	102	1048576	11	4056
2026-01-05 13:38:20.06	208.17	12.74	-25.1	-26.0	16.2	0.00e+00	0	43	102	1048576	11	3986
2026-01-05 13:38:21.07	208.28	12.82	-25.0	-25.9	16.3	0.00e+00	0	43	102	1048576	11	3971
2026-01-05 13:38:22.07	208.40	12.90	-25.1	-25.9	16.3	9.10e-06	0	43	102	1048576	11	3980
2026-01-05 13:38:23.08	208.51	12.98	-25.2	-26.2	16.1	0.00e+00	0	43	102	1048576	11	4035
2026-01-05 13:38:24.08	208.63	13.06	-25.0	-25.8	16.3	0.00e+00	0	43	102	1048576	11	3954
2026-01-05 13:38:25.09	208.74	13.15	-25.1	-25.9	16.2	1.02e-05	0	43	102	1048576	11	3978
2026-01-05 13:38:26.10	208.86	13.23	-25.2	-26.2	16.1	0.00e+00	0	43	102	1048576	11	4033
2026-01-05 13:38:27.11	208.97	13.31	-25.0	-25.7	16.4	0.00e+00	0	43	102	1048576	11	3917
2026-01-05 13:38:28.11	209.09	13.39	-24.9	-25.6	16.5	1.14e-05	0	43	102	1048576	11	3891
2026-01-05 13:38:29.12	209.21	13.48	-24.9	-25.6	16.4	0.00e+00	0	43	102	1048576	11	3894
2026-01-05 13:38:30.12	209.32	13.56	-25.1	-26.0	16.2	0.00e+00	0	43	102	1048576	11	4005
2026-01-05 13:38:31.13	209.44	13.64	-25.2	-26.3	16.1	6.80e-06	0	43	102	1048576	11	4081
2026-01-05 13:38:32.13	209.56	13.72	-25.1	-26.0	16.2	0.00e+00	0	43	102	1048576	11	4003
2026-01-05 13:38:33.14	209.68	13.81	-25.0	-25.9	16.3	0.00e+00	0	43	102	1048576	11	3965
2026-01-05 13:38:34.15	209.80	13.89	-25.1	-25.9	16.3	8.00e-06	0	43	102	1048576	11	3969
2026-01-05 13:38:35.16	209.93	13.98	-25.0	-25.8	16.4	0.00e+00	0	43	102	1048576	11	3944
2026-01-05 13:38:36.16	210.05	14.06	-25.1	-25.9	16.3	0.00e+00	0	43	102	1048576	11	3979
2026-01-05 13:38:37.16	210.17	14.14	-25.1	-26.0	16.2	0.00e+00	0	43	102	1048576	11	4005
2026-01-05 13:38:38.17	210.29	14.23	-24.9	-25.6	16.5	0.00e+00	0	43	102	1048576	11	3904
2026-01-05 13:38:39.18	210.42	14.31	-24.9	-25.5	16.5	0.00e+00	0	43	102	1048576	11	3876
2026-01-05 13:38:40.19	210.54	14.40	-24.8	-25.4	16.6	0.00e+00	0	43	102	1048576	11	3849
2026-01-05 13:38:41.19	210.67	14.48	-24.8	-25.4	16.6	0.00e+00	0	43	102	1048576	11	3845
2026-01-05 13:38:42.19	210.79	14.57	-24.9	-25.6	16.5	0.00e+00	0	43	102	1048576	11	3892
2026-01-05 13:38:43.20	210.92	14.65	-25.0	-25.7	16.4	8.00e-06	0	43	102	1048576	11	3931
2026-01-05 13:38:44.21	211.05	14.74	-24.8	-25.4	16.6	0.00e+00	0	43	102	1048576	11	3852
2026-01-05 13:38:45.22	211.18	14.82	-24.8	-25.3	16.6	0.00e+00	0	43	102	1048576	11	3834
2026-01-05 13:38:46.22	211.31	14.91	-24.8	-25.9	16.6	0.00e+00	0	43	102	1048576	10	4065
2026-01-05 13:38:47.23	211.44	14.99	-24.7	-25.6	16.8	0.00e+00	0	43	102	1048576	10	3995
2026-01-05 13:38:48.24	211.57	15.08	-24.7	-25.7	16.7	0.00e+00	0	43	102	1048576	10	4025
2026-01-05 13:38:49.25	211.70	15.17	-24.7	-25.7	16.7	0.00e+00	0	43	102	1048576	10	4018
2026-01-05 13:38:50.25	211.83	15.25	-24.7	-25.6	16.8	0.00e+00	0	43	102	1048576	10	3989
2026-01-05 13:38:51.25	211.96	15.34	-24.8	-25.9	16.6	0.00e+00	0	43	102	1048576	10	4080
2026-01-05 13:38:52.26	212.09	15.42	-24.6	-25.3	16.9	0.00e+00	0	43	102	1048576	10	3928
2026-01-05 13:38:53.27	212.23	15.51	-24.3	-24.8	17.2	0.00e+00	0	43	102	1048576	10	3814
2026-01-05 13:38:54.27	212.36	15.60	-24.3	-24.8	17.3	0.00e+00	0	43	102	1048576	10	3794
2026-01-05 13:38:55.28	212.50	15.69	-24.3	-24.8	17.2	0.00e+00	0	43	102	1048576	10	3816
2026-01-05 13:38:56.30	212.64	15.77	-24.3	-25.2	17.3	0.00e+00	0	43	102	1048576	9	4006
2026-01-05 13:38:57.30	212.77	15.86	-24.3	-25.2	17.3	0.00e+00	0	43	102	1048576	9	4006
2026-01-05 13:38:58.30	212.91	15.95	-24.3	-25.3	17.2	0.00e+00	0	43	102	1048576	9	4026
2026-01-05 13:38:59.31	213.05	16.04	-24.3	-25.3	17.2	0.00e+00	0	43	102	1048576	9	4037
2026-01-05 13:39:00.32	213.19	16.12	-24.2	-25.1	17.4	0.00e+00	0	43	102	1048576	9	3989
2026-01-05 13:39:01.33	213.33	16.21	-24.3	-25.3	17.3	0.00e+00	0	43	102	1048576	9	4029
2026-01-05 13:39:02.33	213.47	16.30	-24.3	-25.3	17.3	0.00e+00	0	43	102	1048576	9	4031
2026-01-05 13:39:03.34	213.61	16.39	-24.4	-25.5	17.1	0.00e+00	0	43	102	1048576	9	4091
2026-01-05 13:39:04.35	213.76	16.48	-24.5	-25.6	17.1	0.00e+00	0	43	102	1048576	9	4108
2026-01-05 13:39:05.36	213.90	16.57	-24.4	-25.4	17.2	0.00e+00	0	43	102	1048576	9	4060
2026-01-05 13:39:06.36	214.04	16.65	-24.4	-25.5	17.2	0.00e+00	0	43	102	1048576	9	4081
2026-01-05 13:39:07.37	214.19	16.74	-24.5	-25.7	17.1	0.00e+00	0	43	102	1048576	9	4123
2026-01-05 13:39:08.38	214.34	16.83	-24.4	-25.5	17.2	0.00e+00	0	43	102	1048576	9	4093
2026-01-05 13:39:09.39	214.48	16.92	-24.5	-25.6	17.1	0.00e+00	0	43	102	1048576	9	4105
2026-01-05 13:39:10.40	214.63	17.01	-24.5	-25.8	17.1	0.00e+00	0	43	102	1048576	9	4151
2026-01-05 13:39:11.41	214.78	17.10	-24.5	-25.7	17.1	0.00e+00	0	43	102	1048576	9	4130
2026-01-05 13:39:12.41	214.93	17.19	-24.7	-26.1	16.9	0.00e+00	0	43	102	1048576	9	4242
2026-01-05 13:39:13.42	215.08	17.28	-24.7	-26.2	16.8	0.00e+00	0	43	102	1048576	9	4269
2026-01-05 13:39:14.42	215.23	17.37	-24.5	-25.7	17.1	0.00e+00	0	43	102	1048576	9	4133
2026-01-05 13:39:15.43	215.38	17.46	-24.3	-25.2	17.4	0.00e+00	0	43	102	1048576	9	4006
2026-01-05 13:39:16.44	215.54	17.55	-24.2	-25.0	17.5	0.00e+00	0	43	102	1048576	9	3954
2026-01-05 13:39:17.45	215.69	17.64	-24.1	-24.9	17.5	0.00e+00	0	43	102	1048576	9	3932
2026-01-05 13:39:18.45	215.85	17.73	-24.2	-25.0	17.5	0.00e+00	0	43	102	1048576	9	3956
2026-01-05 13:39:19.46	216.00	17.82	-24.1	-24.8	17.6	0.00e+00	0	43	102	1048576	9	3919
2026-01-05 13:39:20.46	216.16	17.91	-23.9	-24.5	17.8	0.00e+00	0	43	102	1048576	9	3829
2026-01-05 13:39:21.47	216.32	18.01	-24.0	-24.6	17.7	5.70e-06	0	43	102	1048576	9	3865
2026-01-05 13:39:22.48	216.47	18.10	-24.0	-24.7	17.7	0.00e+00	0	43	102	1048576	9	3873
2026-01-05 13:39:23.48	216.63	18.19	-23.9	-24.5	17.8	0.00e+00	0	43	102	1048576	9	3829
2026-01-05 13:39:24.49	216.79	18.28	-24.0	-24.6	17.8	1.48e-05	0	43	102	1048576	9	3852
2026-01-05 13:39:25.50	216.95	18.37	-24.0	-24.6	17.7	0.00e+00	0	43	102	1048576	9	3860
2026-01-05 13:39:26.50	217.12	18.46	-23.9	-24.4	17.9	0.00e+00	0	43	102	1048576	9	3801
2026-01-05 13:39:27.51	217.28	18.55	-23.7	-24.6	18.0	0.00e+00	0	43	102	1048576	8	3952
2026-01-05 13:39:28.53	217.45	18.65	-23.7	-24.4	18.1	0.00e+00	0	43	102	1048576	8	3924
2026-01-05 13:39:29.53	217.61	18.74	-23.7	-24.4	18.1	0.00e+00	0	43	102	1048576	8	3925
2026-01-05 13:39:30.54	217.78	18.83	-23.7	-24.4	18.1	6.80e-06	0	43	102	1048576	8	3903
2026-01-05 13:39:31.54	217.94	18.92	-23.7	-24.5	18.1	0.00e+00	0	43	102	1048576	8	3940
2026-01-05 13:39:32.55	218.11	19.02	-23.8	-24.6	18.0	0.00e+00	0	43	102	1048576	8	3976
2026-01-05 13:39:33.56	218.28	19.11	-23.8	-24.8	17.9	3.40e-06	0	43	102	1048576	8	4010
2026-01-05 13:39:34.57	218.45	19.20	-24.0	-25.2	17.7	0.00e+00	0	43	102	1048576	8	4109
2026-01-05 13:39:35.58	218.62	19.29	-24.0	-25.2	17.7	0.00e+00	0	43	102	1048576	8	4120
2026-01-05 13:39:36.59	218.80	19.39	-23.9	-24.9	17.9	6.80e-06	0	43	102	1048576	8	4051
2026-01-05 13:39:37.59	218.97	19.48	-23.8	-24.8	17.9	0.00e+00	0	43	102	1048576	8	4006
2026-01-05 13:39:38.59	219.14	19.57	-23.9	-24.9	17.9	0.00e+00	0	43	102	1048576	8	4050
2026-01-05 13:39:39.60	219.32	19.66	-23.9	-24.9	17.9	0.00e+00	0	43	102	1048576	8	4037
2026-01-05 13:39:40.61	219.49	19.76	-23.9	-24.9	17.9	0.00e+00	0	43	102	1048576	8	4050
2026-01-05 13:39:41.62	219.67	19.85	-23.9	-24.8	17.9	0.00e+00	0	43	102	1048576	8	4020
2026-01-05 13:39:42.62	219.85	19.94	-23.7	-24.5	18.1	6.80e-06	0	43	102	1048576	8	3947
2026-01-05 13:39:43.63	220.03	20.04	-23.7	-24.5	18.1	0.00e+00	0	43	102	1048576	8	3949
2026-01-05 13:39:44.63	220.21	20.13	-23.7	-24.4	18.2	0.00e+00	0	43	102	1048576	8	3914
2026-01-05 13:39:45.64	220.39	20.22	-23.6	-24.3	18.2	0.00e+00	0	43	102	1048576	8	3895
2026-01-05 13:39:46.65	220.57	20.32	-23.7	-24.5	18.1	0.00e+00	0	43	102	1048576	8	3929
2026-01-05 13:39:47.66	220.76	20.41	-23.9	-24.8	18.0	0.00e+00	0	43	102	1048576	8	4016
2026-01-05 13:39:48.66	220.94	20.50	-23.8	-24.7	18.0	0.00e+00	0	43	102	1048576	8	3984
2026-01-05 13:39:49.67	221.13	20.60	-23.8	-24.7	18.0	0.00e+00	0	43	102	1048576	8	3978
2026-01-05 13:39:50.68	221.31	20.69	-23.8	-24.7	18.0	0.00e+00	0	43	102	1048576	8	3978
2026-01-05 13:39:51.69	221.50	20.79	-23.8	-24.6	18.1	0.00e+00	0	43	102	1048576	8	3958
2026-01-05 13:39:52.69	221.69	20.88	-23.7	-24.4	18.2	0.00e+00	0	43	102	1048576	8	3911
2026-01-05 13:39:53.69	221.88	20.97	-23.7	-24.5	18.1	0.00e+00	0	43	102	1048576	8	3939
2026-01-05 13:39:54.70	222.07	21.07	-23.6	-24.3	18.3	0.00e+00	0	43	102	1048576	8	3889
2026-01-05 13:39:55.71	222.26	21.16	-23.7	-24.4	18.2	0.00e+00	0	43	102	1048576	8	3918
2026-01-05 13:39:56.72	222.46	21.26	-23.5	-24.1	18.3	0.00e+00	0	43	102	1048576	8	3858
2026-01-05 13:39:57.72	222.65	21.35	-23.3	-23.6	18.6	0.00e+00	0	43	102	1048576	8	3735
2026-01-05 13:39:58.73	222.85	21.44	-23.2	-23.9	18.7	0.00e+00	0	43	102	1048576	7	3906
2026-01-05 13:39:59.74	223.05	21.54	-23.2	-23.8	18.8	0.00e+00	0	43	102	1048576	7	3885
2026-01-05 13:40:00.74	223.24	21.63	-23.2	-23.9	18.7	0.00e+00	0	43	102	1048576	7	3912
2026-01-05 13:40:01.74	223.44	21.72	-23.2	-23.9	18.7	0.00e+00	0	43	102	1048576	7	3905
2026-01-05 13:40:02.75	223.64	21.82	-23.2	-23.9	18.7	0.00e+00	0	43	102	1048576	7	3909
2026-01-05 13:40:03.76	223.84	21.91	-23.3	-24.2	18.6	0.00e+00	0	43	102	1048576	7	3970
2026-01-05 13:40:04.77	224.05	22.01	-23.3	-24.0	18.6	0.00e+00	0	43	102	1048576	7	3935
2026-01-05 13:40:05.78	224.25	22.10	-23.3	-24.0	18.7	0.00e+00	0	43	102	1048576	7	3933
2026-01-05 13:40:06.78	224.46	22.19	-23.4	-24.3	18.6	0.00e+00	0	43	102	1048576	7	3984
2026-01-05 13:40:07.79	224.66	22.29	-23.3	-24.1	18.6	0.00e+00	0	43	102	1048576	7	3958
2026-01-05 13:40:08.79	224.87	22.38	-23.3	-24.1	18.6	0.00e+00	0	43	102	1048576	7	3955
2026-01-05 13:40:09.80	225.08	22.48	-23.5	-24.5	18.4	0.00e+00	0	43	102	1048576	7	4041
2026-01-05 13:40:10.81	225.29	22.57	-23.3	-24.2	18.6	0.00e+00	0	43	102	1048576	7	3980
2026-01-05 13:40:11.81	225.50	22.66	-23.3	-24.0	18.7	0.00e+00	0	43	102	1048576	7	3941
2026-01-05 13:40:12.81	225.71	22.76	-23.2	-24.0	18.7	0.00e+00	0	43	102	1048576	7	3931
2026-01-05 13:40:13.82	225.93	22.85	-23.2	-23.8	18.8	0.00e+00	0	43	102	1048576	7	3887
2026-01-05 13:40:14.82	226.14	22.94	-23.1	-23.7	18.8	0.00e+00	0	43	102	1048576	7	3858
2026-01-05 13:40:15.83	226.36	23.04	-23.2	-23.9	18.8	0.00e+00	0	43	102	1048576	7	3900
2026-01-05 13:40:16.84	226.58	23.13	-23.1	-23.7	18.9	0.00e+00	0	43	102	1048576	7	3853
2026-01-05 13:40:17.85	226.80	23.22	-23.0	-23.6	18.9	0.00e+00	0	43	102	1048576	7	3822
2026-01-05 13:40:18.86	227.02	23.32	-23.1	-23.7	18.9	0.00e+00	0	43	102	1048576	7	3848
2026-01-05 13:40:19.86	227.24	23.41	-22.9	-23.3	19.0	0.00e+00	0	43	102	1048576	7	3775
2026-01-05 13:40:20.87	227.46	23.50	-22.9	-23.3	19.1	1.14e-05	0	43	102	1048576	7	3765
2026-01-05 13:40:21.87	227.68	23.60	-23.1	-23.6	18.9	0.00e+00	0	43	102	1048576	7	3831
2026-01-05 13:40:22.88	227.91	23.69	-22.9	-23.3	19.1	0.00e+00	0	43	102	1048576	7	3771
2026-01-05 13:40:23.89	228.14	23.78	-22.8	-23.1	19.2	0.00e+00	0	43	102	1048576	7	3720
2026-01-05 13:40:24.90	228.37	23.88	-22.8	-23.2	19.1	0.00e+00	0	43	102	1048576	7	3735
2026-01-05 13:40:25.90	228.60	23.97	-22.8	-23.1	19.2	0.00e+00	0	43	102	1048576	7	3709
2026-01-05 13:40:26.91	228.83	24.06	-22.8	-23.1	19.2	0.00e+00	0	43	102	1048576	7	3722
2026-01-05 13:40:27.92	229.06	24.15	-23.0	-23.5	19.0	0.00e+00	0	43	102	1048576	7	3803
2026-01-05 13:40:28.93	229.29	24.24	-23.1	-23.7	18.9	0.00e+00	0	43	102	1048576	7	3852
2026-01-05 13:40:29.93	229.53	24.34	-23.1	-23.7	18.9	6.80e-06	0	43	102	1048576	7	3853
2026-01-05 13:40:30.94	229.76	24.43	-23.2	-23.9	18.8	0.00e+00	0	43	102	1048576	7	3910
2026-01-05 13:40:31.94	230.00	24.52	-23.1	-23.8	18.8	0.00e+00	0	43	102	1048576	7	3880
2026-01-05 13:40:32.95	230.24	24.61	-23.1	-23.7	18.9	9.10e-06	0	43	102	1048576	7	3865
2026-01-05 13:40:33.96	230.48	24.70	-23.1	-23.7	18.9	1.10e-06	0	43	102	1048576	7	3859
2026-01-05 13:40:34.97	230.72	24.79	-23.3	-24.0	18.7	0.00e+00	0	43	102	1048576	7	3929
2026-01-05 13:40:35.98	230.97	24.88	-23.0	-23.5	19.0	1.02e-05	0	43	102	1048576	7	3799
2026-01-05 13:40:36.98	231.21	24.97	-23.0	-23.4	19.1	0.00e+00	0	43	102	1048576	7	3784
2026-01-05 13:40:37.99	231.46	25.06	-23.1	-23.8	18.9	0.00e+00	0	43	102	1048576	7	3866
2026-01-05 13:40:39.00	231.70	25.15	-23.2	-24.0	18.8	5.70e-06	0	43	102	1048576	7	3914
2026-01-05 13:40:40.01	231.95	25.24	-23.3	-24.1	18.7	0.00e+00	0	43	102	1048576	7	3959
2026-01-05 13:40:41.02	232.20	25.33	-23.3	-24.1	18.7	0.00e+00	0	43	102	1048576	7	3941
2026-01-05 13:40:42.03	232.46	25.42	-23.7	-25.0	18.3	6.80e-06	0	43	102	1048576	7	4162
2026-01-05 13:40:43.02	232.70	25.51	-23.2	-23.9	18.8	0.00e+00	0	43	102	1048576	7	3901
2026-01-05 13:40:44.03	232.96	25.60	-22.7	-23.4	19.3	0.00e+00	0	43	102	1048576	6	3891
2026-01-05 13:40:45.04	233.22	25.69	-22.4	-22.7	19.7	4.50e-06	0	43	102	1048576	6	3728
2026-01-05 13:40:46.05	233.47	25.78	-22.2	-22.7	19.9	0.00e+00	0	43	102	1048576	5	3836
2026-01-05 13:40:47.06	233.73	25.86	-22.2	-22.7	19.9	0.00e+00	0	43	102	1048576	5	3839
2026-01-05 13:40:48.06	233.99	25.95	-22.2	-22.8	19.8	0.00e+00	0	43	102	1048576	5	3864
2026-01-05 13:40:49.07	234.25	26.04	-22.4	-23.2	19.6	0.00e+00	0	43	102	1048576	5	3959
2026-01-05 13:40:50.08	234.51	26.13	-22.4	-23.1	19.7	0.00e+00	0	43	102	1048576	5	3927
2026-01-05 13:40:51.08	234.78	26.21	-22.4	-23.2	19.7	1.10e-06	0	43	102	1048576	5	3950
2026-01-05 13:40:52.09	235.04	26.30	-22.4	-23.2	19.7	0.00e+00	0	43	102	1048576	5	3949
2026-01-05 13:40:53.09	235.31	26.38	-22.3	-23.0	19.8	0.00e+00	0	43	102	1048576	5	3894
2026-01-05 13:40:54.10	235.58	26.47	-22.3	-23.0	19.8	0.00e+00	0	43	102	1048576	5	3910
2026-01-05 13:40:55.11	235.85	26.55	-22.2	-22.9	19.8	0.00e+00	0	44	102	1048576	5	3872
2026-01-05 13:40:56.12	236.12	26.64	-22.4	-23.3	19.6	0.00e+00	0	43	102	1048576	5	3967
2026-01-05 13:40:57.13	236.39	26.72	-22.4	-23.2	19.7	0.00e+00	0	44	102	1048576	5	3949
2026-01-05 13:40:58.13	236.66	26.81	-22.6	-23.7	19.4	0.00e+00	0	44	102	1048576	5	4070
2026-01-05 13:40:59.14	236.94	26.89	-22.4	-23.3	19.6	0.00e+00	0	43	102	1048576	5	3971
2026-01-05 13:41:00.15	237.22	26.97	-22.2	-22.8	19.9	0.00e+00	0	43	102	1048576	5	3859
2026-01-05 13:41:01.16	237.49	27.05	-22.1	-22.6	20.0	0.00e+00	0	43	102	1048576	5	3808
2026-01-05 13:41:02.16	237.77	27.14	-22.1	-22.7	20.0	0.00e+00	0	43	102	1048576	5	3822
2026-01-05 13:41:03.16	238.05	27.22	-21.9	-22.3	20.2	0.00e+00	0	43	102	1048576	5	3733
2026-01-05 13:41:04.17	238.33	27.30	-22.0	-22.4	20.1	0.00e+00	0	44	102	1048576	5	3761
2026-01-05 13:41:05.18	238.62	27.38	-22.1	-22.6	20.0	0.00e+00	0	44	102	1048576	5	3809
2026-01-05 13:41:06.19	238.90	27.46	-22.0	-22.5	20.0	0.00e+00	0	43	102	1048576	5	3777
2026-01-05 13:41:07.20	239.19	27.54	-22.1	-22.6	20.0	0.00e+00	0	44	102	1048576	5	3821
2026-01-05 13:41:08.20	239.48	27.62	-22.1	-22.6	20.0	0.00e+00	0	44	102	1048576	5	3814
2026-01-05 13:41:09.20	239.76	27.69	-22.2	-22.8	19.9	0.00e+00	0	44	102	1048576	5	3868
2026-01-05 13:41:10.21	240.06	27.77	-22.2	-22.9	19.9	0.00e+00	0	43	102	1048576	5	3873
2026-01-05 13:41:11.22	240.35	27.85	-22.1	-22.5	20.1	0.00e+00	0	43	102	1048576	5	3790
2026-01-05 13:41:12.23	240.64	27.93	-22.0	-22.5	20.1	0.00e+00	0	43	102	1048576	5	3779
2026-01-05 13:41:13.24	240.94	28.00	-22.1	-22.5	20.0	0.00e+00	0	43	102	1048576	5	3791
2026-01-05 13:41:14.24	241.23	28.08	-22.0	-22.4	20.1	0.00e+00	0	43	102	1048576	5	3755
2026-01-05 13:41:15.25	241.53	28.15	-22.0	-22.4	20.1	0.00e+00	0	43	102	1048576	5	3766
2026-01-05 13:41:16.26	241.83	28.23	-22.1	-22.7	20.0	0.00e+00	0	43	102	1048576	5	3822
2026-01-05 13:41:17.26	242.13	28.30	-22.4	-23.1	19.8	0.00e+00	0	44	102	1048576	5	3931
2026-01-05 13:41:18.26	242.43	28.37	-22.3	-23.1	19.8	0.00e+00	0	43	102	1048576	5	3929
2026-01-05 13:41:19.27	242.73	28.44	-22.5	-23.3	19.7	0.00e+00	0	43	102	1048576	5	3988
2026-01-05 13:41:20.28	243.03	28.52	-22.3	-22.9	19.9	0.00e+00	0	43	102	1048576	5	3888
2026-01-05 13:41:21.29	243.34	28.59	-22.2	-22.7	20.0	0.00e+00	0	44	102	1048576	5	3836
2026-01-05 13:41:22.29	243.65	28.66	-22.2	-22.8	19.9	0.00e+00	0	44	102	1048576	5	3859
2026-01-05 13:41:23.30	243.95	28.73	-22.2	-22.8	19.9	0.00e+00	0	43	102	1048576	5	3857
2026-01-05 13:41:24.31	244.26	28.80	-22.3	-23.0	19.8	0.00e+00	0	43	102	1048576	5	3899
2026-01-05 13:41:25.32	244.58	28.86	-22.2	-22.8	19.9	0.00e+00	0	43	102	1048576	5	3852
2026-01-05 13:41:26.33	244.89	28.93	-22.1	-22.6	20.0	0.00e+00	0	44	102	1048576	5	3808
2026-01-05 13:41:27.33	245.20	29.00	-22.2	-22.7	20.0	0.00e+00	0	43	102	1048576	5	3840
2026-01-05 13:41:28.34	245.51	29.06	-22.3	-23.0	19.8	0.00e+00	0	43	102	1048576	5	3896
2026-01-05 13:41:29.35	245.83	29.13	-22.2	-22.8	20.0	5.70e-06	0	43	102	1048576	5	3858
2026-01-05 13:41:30.36	246.15	29.19	-22.3	-22.9	19.9	0.00e+00	0	44	102	1048576	5	3886
2026-01-05 13:41:31.36	246.46	29.26	-22.3	-23.0	19.9	0.00e+00	0	43	102	1048576	5	3897
2026-01-05 13:41:32.37	246.78	29.32	-22.3	-23.0	19.9	8.00e-06	0	44	102	1048576	5	3896
2026-01-05 13:41:33.38	247.11	29.38	-22.3	-22.9	19.9	0.00e+00	0	44	102	1048576	5	3879
2026-01-05 13:41:34.39	247.43	29.44	-22.2	-22.8	19.9	0.00e+00	0	43	102	1048576	5	3867
2026-01-05 13:41:35.40	247.75	29.50	-22.1	-22.7	20.0	0.00e+00	0	43	102	1048576	5	3826
2026-01-05 13:41:36.41	248.08	29.56	-22.1	-22.6	20.0	0.00e+00	0	43	102	1048576	5	3819
2026-01-05 13:41:37.41	248.40	29.62	-22.2	-22.7	20.0	0.00e+00	0	43	102	1048576	5	3836
2026-01-05 13:41:38.42	248.73	29.68	-22.1	-22.7	20.0	9.10e-06	0	44	102	1048576	5	3827
2026-01-05 13:41:39.42	249.05	29.73	-22.1	-22.5	20.1	0.00e+00	0	43	102	1048576	5	3788
2026-01-05 13:41:40.43	249.38	29.79	-22.2	-22.7	20.0	0.00e+00	0	43	102	1048576	5	3835
2026-01-05 13:41:41.44	249.71	29.84	-22.2	-22.7	20.0	5.70e-06	0	44	102	1048576	5	3835
2026-01-05 13:41:42.44	250.04	29.90	-22.0	-22.4	20.1	0.00e+00	0	44	102	1048576	5	3770
2026-01-05 13:41:43.44	250.37	29.95	-22.2	-22.8	20.0	0.00e+00	0	43	102	1048576	5	3862
2026-01-05 13:41:44.45	250.71	30.00	-22.4	-23.2	19.8	0.00e+00	0	43	102	1048576	5	3948
2026-01-05 13:41:45.46	251.04	30.05	-22.4	-23.3	19.7	0.00e+00	0	43	102	1048576	5	3974
2026-01-05 13:41:46.47	251.38	30.10	-22.5	-23.4	19.7	0.00e+00	0	44	102	1048576	5	3994
2026-01-05 13:41:47.47	251.71	30.15	-22.4	-23.2	19.8	0.00e+00	0	43	102	1048576	5	3952
2026-01-05 13:41:48.48	252.05	30.20	-22.4	-23.2	19.8	0.00e+00	0	44	102	1048576	5	3946
2026-01-05 13:41:49.49	252.39	30.25	-22.4	-23.1	19.8	0.00e+00	0	44	102	1048576	5	3935
2026-01-05 13:41:50.50	252.73	30.29	-22.2	-22.9	19.9	9.10e-06	0	43	102	1048576	5	3873
2026-01-05 13:41:51.50	253.06	30.34	-22.2	-22.8	20.0	0.00e+00	0	43	102	1048576	5	3849
2026-01-05 13:41:52.51	253.41	30.38	-22.1	-22.6	20.1	0.00e+00	0	43	102	1048576	5	3819
2026-01-05 13:41:53.51	253.75	30.43	-22.1	-22.6	20.1	0.00e+00	0	43	102	1048576	5	3807
2026-01-05 13:41:54.51	254.09	30.47	-22.2	-22.8	20.0	0.00e+00	0	43	102	1048576	5	3848
2026-01-05 13:41:55.51	254.43	30.51	-22.1	-22.5	20.1	0.00e+00	0	44	102	1048576	5	3796
2026-01-05 13:41:56.52	254.77	30.55	-22.0	-22.4	20.2	0.00e+00	0	43	102	1048576	5	3761
2026-01-05 13:41:57.53	255.12	30.59	-22.0	-22.3	20.3	0.00e+00	0	44	102	1048576	5	3730
2026-01-05 13:41:58.54	255.47	30.63	-21.9	-22.1	20.3	0.00e+00	0	44	102	1048576	5	3690
2026-01-05 13:41:59.54	255.81	30.66	-21.9	-22.3	20.3	0.00e+00	0	43	102	1048576	5	3730
2026-01-05 13:42:00.55	256.16	30.70	-22.1	-22.6	20.1	0.00e+00	0	44	102	1048576	5	3805
2026-01-05 13:42:01.56	256.51	30.73	-22.1	-22.7	20.0	0.00e+00	0	44	102	1048576	5	3837
2026-01-05 13:42:02.56	256.85	30.77	-22.2	-22.8	20.0	0.00e+00	0	43	102	1048576	5	3851
2026-01-05 13:42:03.57	257.20	30.80	-22.2	-22.9	20.0	0.00e+00	0	43	102	1048576	5	3879
2026-01-05 13:42:04.57	257.55	30.83	-22.2	-22.9	20.0	0.00e+00	0	44	102	1048576	5	3868
2026-01-05 13:42:05.58	257.90	30.86	-22.2	-22.8	20.0	0.00e+00	0	44	102	1048576	5	3858
2026-01-05 13:42:06.58	258.25	30.89	-22.3	-23.1	19.8	0.00e+00	0	44	102	1048576	5	3920
2026-01-05 13:42:07.59	258.61	30.92	-22.3	-23.1	19.9	0.00e+00	0	43	102	1048576	5	3916
2026-01-05 13:42:08.59	258.96	30.94	-22.4	-23.2	19.8	0.00e+00	0	43	102	1048576	5	3958
2026-01-05 13:42:09.60	259.31	30.97	-22.5	-23.5	19.6	0.00e+00	0	43	102	1048576	5	4025
2026-01-05 13:42:10.61	259.67	30.99	-22.5	-23.4	19.7	0.00e+00	0	43	102	1048576	5	4006
2026-01-05 13:42:11.62	260.02	31.02	-22.5	-23.5	19.6	0.00e+00	0	43	102	1048576	5	4019
2026-01-05 13:42:12.62	260.37	31.04	-22.5	-23.3	19.7	0.00e+00	0	43	102	1048576	5	3979
2026-01-05 13:42:13.63	260.73	31.06	-22.4	-23.2	19.8	0.00e+00	0	43	102	1048576	5	3947
2026-01-05 13:42:14.64	261.09	31.08	-22.5	-23.4	19.7	0.00e+00	0	44	102	1048576	5	3999
2026-01-05 13:42:15.65	261.44	31.10	-22.6	-23.6	19.6	0.00e+00	0	44	102	1048576	5	4035
2026-01-05 13:42:16.65	261.80	31.12	-22.4	-23.2	19.8	0.00e+00	0	44	102	1048576	5	3946
2026-01-05 13:42:17.66	262.15	31.13	-22.2	-22.8	20.0	0.00e+00	0	43	102	1048576	5	3863
2026-01-05 13:42:18.67	262.51	31.15	-22.2	-22.8	20.0	0.00e+00	0	43	102	1048576	5	3856
2026-01-05 13:42:19.68	262.87	31.16	-22.3	-23.0	19.9	0.00e+00	0	44	102	1048576	5	3909
2026-01-05 13:42:20.68	263.23	31.17	-22.2	-22.9	20.0	0.00e+00	0	44	102	1048576	5	3867
2026-01-05 13:42:21.69	263.59	31.19	-22.2	-22.9	20.0	0.00e+00	0	43	102	1048576	5	3868
2026-01-05 13:42:22.70	263.94	31.20	-22.2	-22.8	20.0	0.00e+00	0	43	102	1048576	5	3851
2026-01-05 13:42:23.71	264.30	31.20	-22.2	-22.7	20.0	0.00e+00	0	44	102	1048576	5	3843
2026-01-05 13:42:24.71	264.66	31.21	-22.2	-22.8	20.0	0.00e+00	0	43	102	1048576	5	3868
2026-01-05 13:42:25.72	265.02	31.22	-22.3	-23.0	19.9	0.00e+00	0	43	102	1048576	5	3904
2026-01-05 13:42:26.72	265.38	31.22	-22.3	-23.1	19.8	0.00e+00	0	44	102	1048576	5	3932
2026-01-05 13:42:27.73	265.74	31.23	-22.5	-23.5	19.7	0.00e+00	0	44	102	1048576	5	4018
2026-01-05 13:42:28.73	266.09	31.23	-22.4	-23.2	19.7	0.00e+00	0	44	102	1048576	5	3955
2026-01-05 13:42:29.74	266.45	31.23	-22.2	-22.8	20.0	0.00e+00	0	44	102	1048576	5	3848
2026-01-05 13:42:30.75	266.81	31.23	-22.2	-22.8	20.0	0.00e+00	0	43	102	1048576	5	3855
2026-01-05 13:42:31.75	267.17	31.23	-22.2	-22.9	20.0	0.00e+00	0	43	102	1048576	5	3870
2026-01-05 13:42:32.76	267.53	31.23	-22.2	-22.9	19.9	0.00e+00	0	43	102	1048576	5	3883
2026-01-05 13:42:33.77	267.89	31.23	-22.3	-23.0	19.9	0.00e+00	0	44	102	1048576	5	3911
2026-01-05 13:42:34.77	268.25	31.22	-22.2	-22.8	20.0	0.00e+00	0	43	102	1048576	5	3851
2026-01-05 13:42:35.78	268.61	31.22	-22.2	-22.8	20.0	0.00e+00	0	43	102	1048576	5	3847
2026-01-05 13:42:36.78	268.96	31.21	-22.2	-22.9	20.0	0.00e+00	0	44	102	1048576	5	3871
2026-01-05 13:42:37.79	269.32	31.20	-22.2	-22.8	20.0	2.20e-06	0	44	102	1048576	5	3861
2026-01-05 13:42:38.80	269.68	31.19	-22.3	-23.1	19.9	0.00e+00	0	44	102	1048576	5	3914
2026-01-05 13:42:39.80	270.04	31.18	-22.3	-22.9	19.9	0.00e+00	0	44	102	1048576	5	3890
2026-01-05 13:42:40.81	270.39	31.17	-22.4	-23.2	19.8	2.20e-06	0	43	102	1048576	5	3956
2026-01-05 13:42:41.82	270.75	31.16	-22.3	-23.0	19.9	0.00e+00	0	43	102	1048576	5	3895
2026-01-05 13:42:42.82	271.11	31.14	-22.2	-22.9	20.0	0.00e+00	0	44	102	1048576	5	3878
2026-01-05 13:42:43.83	271.47	31.13	-22.3	-23.1	19.8	1.10e-06	0	43	102	1048576	5	3926
2026-01-05 13:42:44.83	271.82	31.11	-22.3	-23.1	19.8	0.00e+00	0	44	102	1048576	5	3932
2026-01-05 13:42:45.84	272.18	31.10	-22.4	-23.2	19.8	0.00e+00	0	43	102	1048576	5	3953
2026-01-05 13:42:46.85	272.53	31.08	-22.5	-23.5	19.6	3.40e-06	0	44	102	1048576	5	4019
2026-01-05 13:42:47.86	272.89	31.06	-22.5	-23.5	19.6	0.00e+00	0	43	102	1048576	5	4017
2026-01-05 13:42:48.86	273.24	31.04	-22.6	-23.6	19.6	0.00e+00	0	43	102	1048576	5	4052
2026-01-05 13:42:49.87	273.60	31.01	-22.7	-23.8	19.5	6.80e-06	0	44	102	1048576	5	4108
2026-01-05 13:42:50.88	273.95	30.99	-22.6	-23.6	19.6	0.00e+00	0	44	102	1048576	5	4042
2026-01-05 13:42:51.89	274.31	30.97	-22.4	-23.3	19.7	0.00e+00	0	43	102	1048576	5	3981
2026-01-05 13:42:52.89	274.66	30.94	-22.5	-23.3	19.7	4.50e-06	0	43	102	1048576	5	3983
2026-01-05 13:42:53.89	275.01	30.91	-22.3	-23.0	19.9	0.00e+00	0	43	102	1048576	5	3895
2026-01-05 13:42:54.90	275.36	30.88	-22.5	-23.4	19.7	0.00e+00	0	43	102	1048576	5	4007
2026-01-05 13:42:55.91	275.71	30.86	-22.4	-23.1	19.8	0.00e+00	0	44	102	1048576	5	3933
2026-01-05 13:42:56.92	276.06	30.83	-22.2	-22.9	20.0	0.00e+00	0	44	102	1048576	5	3871
2026-01-05 13:42:57.93	276.41	30.79	-22.2	-22.9	20.0	0.00e+00	0	43	102	1048576	5	3869
2026-01-05 13:42:58.94	276.76	30.76	-22.3	-23.1	19.9	2.20e-06	0	44	102	1048576	5	3923
2026-01-05 13:42:59.94	277.11	30.73	-22.3	-23.0	19.9	0.00e+00	0	44	102	1048576	5	3895
2026-01-05 13:43:00.94	277.45	30.69	-22.3	-22.9	19.9	0.00e+00	0	43	102	1048576	5	3882
2026-01-05 13:43:01.95	277.80	30.66	-22.4	-23.2	19.8	0.00e+00	0	44	102	1048576	5	3941
2026-01-05 13:43:02.96	278.15	30.62	-22.4	-23.2	19.8	0.00e+00	0	44	102	1048576	5	3954
2026-01-05 13:43:03.97	278.50	30.58	-22.5	-23.4	19.7	0.00e+00	0	44	102	1048576	5	3996
2026-01-05 13:43:04.97	278.84	30.54	-22.3	-23.0	19.9	0.00e+00	0	44	102	1048576	5	3912
2026-01-05 13:43:05.98	279.18	30.50	-22.2	-22.9	20.0	0.00e+00	0	44	102	1048576	5	3872
2026-01-05 13:43:06.99	279.53	30.46	-22.4	-23.2	19.8	0.00e+00	0	44	102	1048576	5	3950
2026-01-05 13:43:08.00	279.87	30.42	-22.3	-23.1	19.9	0.00e+00	0	44	102	1048576	5	3926
2026-01-05 13:43:09.00	280.21	30.38	-22.3	-23.1	19.8	0.00e+00	0	43	102	1048576	5	3926
2026-01-05 13:43:10.01	280.55	30.33	-22.5	-23.3	19.7	0.00e+00	0	44	102	1048576	5	3985
2026-01-05 13:43:11.02	280.89	30.29	-22.3	-23.0	19.9	0.00e+00	0	44	102	1048576	5	3906
2026-01-05 13:43:12.03	281.23	30.24	-22.2	-22.8	20.0	0.00e+00	0	44	102	1048576	5	3854
2026-01-05 13:43:13.03	281.56	30.19	-22.2	-22.8	20.0	0.00e+00	0	44	102	1048576	5	3859
2026-01-05 13:43:14.04	281.90	30.15	-22.0	-22.3	20.3	0.00e+00	0	43	102	1048576	5	3732
2026-01-05 13:43:15.05	282.24	30.10	-21.9	-22.2	20.3	0.00e+00	0	43	102	1048576	5	3718
2026-01-05 13:43:16.05	282.57	30.05	-22.1	-22.6	20.1	0.00e+00	0	44	102	1048576	5	3821
2026-01-05 13:43:17.06	282.90	29.99	-22.2	-22.7	20.0	0.00e+00	0	44	102	1048576	5	3838
2026-01-05 13:43:18.06	283.23	29.94	-22.4	-23.1	19.8	0.00e+00	0	43	102	1048576	5	3939
2026-01-05 13:43:19.07	283.56	29.89	-22.3	-23.0	19.9	0.00e+00	0	43	102	1048576	5	3912
2026-01-05 13:43:20.08	283.89	29.84	-22.3	-23.1	19.8	0.00e+00	0	43	102	1048576	5	3924
2026-01-05 13:43:21.08	284.22	29.78	-22.3	-23.0	19.9	0.00e+00	0	43	102	1048576	5	3901
2026-01-05 13:43:22.09	284.55	29.73	-22.4	-23.1	19.8	0.00e+00	0	43	102	1048576	5	3929
2026-01-05 13:43:23.10	284.88	29.67	-22.4	-23.3	19.7	0.00e+00	0	43	102	1048576	5	3977
2026-01-05 13:43:24.10	285.20	29.61	-22.5	-23.5	19.6	0.00e+00	0	43	102	1048576	5	4022
2026-01-05 13:43:25.10	285.52	29.55	-22.5	-23.4	19.7	0.00e+00	0	43	102	1048576	5	4009
2026-01-05 13:43:26.11	285.85	29.49	-22.4	-23.2	19.7	0.00e+00	0	43	102	1048576	5	3959
2026-01-05 13:43:27.12	286.17	29.43	-22.5	-23.4	19.6	0.00e+00	0	44	102	1048576	5	4006
2026-01-05 13:43:28.12	286.49	29.37	-22.9	-24.2	19.2	0.00e+00	0	44	102	1048576	5	4182
2026-01-05 13:43:29.13	286.81	29.31	-23.0	-24.1	19.1	0.00e+00	0	43	102	1048576	6	4050
2026-01-05 13:43:30.13	287.12	29.25	-23.1	-24.1	19.0	0.00e+00	0	44	102	1048576	6	4071
2026-01-05 13:43:31.14	287.44	29.19	-23.0	-24.0	19.1	0.00e+00	0	43	102	1048576	6	4035
2026-01-05 13:43:32.14	287.75	29.12	-22.7	-23.3	19.4	0.00e+00	0	43	102	1048576	6	3871
2026-01-05 13:43:33.15	288.07	29.06	-22.6	-23.1	19.5	0.00e+00	0	44	102	1048576	6	3822
2026-01-05 13:43:34.16	288.38	28.99	-22.8	-23.5	19.4	0.00e+00	0	43	102	1048576	6	3904
2026-01-05 13:43:35.17	288.70	28.93	-22.8	-23.5	19.4	0.00e+00	0	44	102	1048576	6	3902
2026-01-05 13:43:36.17	289.01	28.86	-22.6	-23.1	19.6	0.00e+00	0	43	102	1048576	6	3833
2026-01-05 13:43:37.18	289.32	28.79	-22.5	-22.9	19.7	0.00e+00	0	44	102	1048576	6	3781
2026-01-05 13:43:38.18	289.62	28.72	-22.5	-22.9	19.7	0.00e+00	0	43	102	1048576	6	3774
2026-01-05 13:43:39.19	289.93	28.65	-22.5	-23.0	19.6	0.00e+00	0	44	102	1048576	6	3799
2026-01-05 13:43:40.19	290.23	28.58	-22.4	-22.7	19.8	2.20e-06	0	44	102	1048576	6	3733
2026-01-05 13:43:41.19	290.54	28.51	-22.4	-22.7	19.8	0.00e+00	0	43	102	1048576	6	3725
2026-01-05 13:43:42.20	290.84	28.44	-22.5	-22.8	19.7	0.00e+00	0	43	102	1048576	6	3757
2026-01-05 13:43:43.20	291.14	28.37	-22.3	-22.6	19.8	0.00e+00	0	43	102	1048576	6	3705
2026-01-05 13:43:44.20	291.44	28.30	-22.4	-22.8	19.7	0.00e+00	0	43	102	1048576	6	3744
2026-01-05 13:43:45.21	291.74	28.22	-22.5	-22.9	19.7	0.00e+00	0	44	102	1048576	6	3776
2026-01-05 13:43:46.22	292.04	28.15	-22.6	-23.1	19.5	0.00e+00	0	43	102	1048576	6	3830
2026-01-05 13:43:47.22	292.33	28.08	-22.6	-23.1	19.6	0.00e+00	0	44	102	1048576	6	3819
2026-01-05 13:43:48.23	292.63	28.00	-22.6	-23.1	19.5	0.00e+00	0	44	102	1048576	6	3827
2026-01-05 13:43:49.23	292.92	27.93	-22.7	-23.3	19.4	0.00e+00	0	44	102	1048576	6	3874
2026-01-05 13:43:50.24	293.21	27.85	-22.8	-23.6	19.3	0.00e+00	0	44	102	1048576	6	3927
2026-01-05 13:43:51.25	293.50	27.77	-22.7	-23.3	19.4	0.00e+00	0	44	102	1048576	6	3873
2026-01-05 13:43:52.26	293.79	27.70	-22.7	-23.4	19.4	2.20e-06	0	44	102	1048576	6	3883
2026-01-05 13:43:53.27	294.08	27.62	-22.7	-23.3	19.5	0.00e+00	0	43	102	1048576	6	3856
2026-01-05 13:43:54.27	294.36	27.54	-22.6	-23.0	19.6	0.00e+00	0	43	102	1048576	6	3807
2026-01-05 13:43:55.28	294.65	27.46	-22.6	-23.1	19.5	0.00e+00	0	44	102	1048576	6	3825
2026-01-05 13:43:56.29	294.94	27.38	-22.8	-23.6	19.3	0.00e+00	0	43	102	1048576	6	3935
2026-01-05 13:43:57.30	295.22	27.30	-22.9	-23.7	19.2	0.00e+00	0	44	102	1048576	6	3957
2026-01-05 13:43:58.31	295.50	27.22	-23.1	-24.2	19.0	0.00e+00	0	44	102	1048576	6	4097
2026-01-05 13:43:59.31	295.78	27.14	-23.0	-23.9	19.1	0.00e+00	0	44	102	1048576	6	4023
2026-01-05 13:44:00.32	296.06	27.06	-22.9	-23.8	19.2	0.00e+00	0	44	102	1048576	6	3986
2026-01-05 13:44:01.33	296.33	26.98	-22.9	-23.7	19.2	1.10e-06	0	44	102	1048576	6	3964
2026-01-05 13:44:02.33	296.61	26.89	-22.9	-23.7	19.2	0.00e+00	0	43	102	1048576	6	3965
2026-01-05 13:44:03.34	296.88	26.81	-22.8	-23.5	19.3	0.00e+00	0	44	102	1048576	6	3918
2026-01-05 13:44:04.35	297.16	26.73	-23.0	-23.9	19.1	0.00e+00	0	44	102	1048576	6	4010
2026-01-05 13:44:05.36	297.43	26.64	-22.8	-23.6	19.3	0.00e+00	0	44	102	1048576	6	3934
2026-01-05 13:44:06.36	297.70	26.56	-22.8	-23.6	19.3	0.00e+00	0	44	102	1048576	6	3932
2026-01-05 13:44:07.37	297.97	26.48	-22.8	-23.6	19.3	0.00e+00	0	44	102	1048576	6	3940
2026-01-05 13:44:08.37	298.23	26.39	-22.8	-23.6	19.3	0.00e+00	0	44	102	1048576	6	3929
2026-01-05 13:44:09.38	298.50	26.31	-22.6	-23.2	19.5	0.00e+00	0	44	102	1048576	6	3840
2026-01-05 13:44:10.39	298.76	26.22	-22.5	-23.0	19.6	0.00e+00	0	43	102	1048576	6	3799
2026-01-05 13:44:11.39	299.02	26.13	-22.6	-23.1	19.5	0.00e+00	0	44	102	1048576	6	3817
2026-01-05 13:44:12.40	299.29	26.05	-22.7	-23.3	19.4	0.00e+00	0	43	102	1048576	6	3864
2026-01-05 13:44:13.40	299.54	25.96	-22.7	-23.4	19.3	0.00e+00	0	43	102	1048576	6	3903
2026-01-05 13:44:14.41	299.80	25.87	-22.8	-23.5	19.3	0.00e+00	0	44	102	1048576	6	3915
2026-01-05 13:44:15.42	300.06	25.79	-22.8	-23.5	19.3	0.00e+00	0	44	102	1048576	6	3908
2026-01-05 13:44:16.42	300.31	25.70	-22.8	-23.6	19.2	0.00e+00	0	43	102	1048576	6	3950
2026-01-05 13:44:17.43	300.57	25.61	-22.9	-23.8	19.1	0.00e+00	0	44	102	1048576	6	3983
2026-01-05 13:44:18.44	300.82	25.52	-22.9	-23.8	19.1	0.00e+00	0	44	102	1048576	6	3990
2026-01-05 13:44:19.44	301.07	25.44	-23.1	-24.1	19.0	0.00e+00	0	44	102	1048576	6	4069
2026-01-05 13:44:20.45	301.32	25.35	-23.1	-24.2	18.9	0.00e+00	0	44	102	1048576	6	4091
2026-01-05 13:44:21.46	301.57	25.26	-23.2	-24.4	18.8	0.00e+00	0	44	102	1048576	6	4136
2026-01-05 13:44:22.46	301.82	25.17	-23.2	-24.3	18.8	0.00e+00	0	43	102	1048576	6	4118
2026-01-05 13:44:23.47	302.07	25.08	-23.2	-24.3	18.9	0.00e+00	0	43	102	1048576	6	4101
2026-01-05 13:44:24.47	302.31	24.99	-23.1	-24.3	18.9	0.00e+00	0	44	102	1048576	6	4101
2026-01-05 13:44:25.48	302.55	24.90	-23.1	-24.3	18.9	0.00e+00	0	44	102	1048576	6	4104
2026-01-05 13:44:26.49	302.80	24.81	-23.2	-24.3	18.9	0.00e+00	0	44	102	1048576	6	4109
2026-01-05 13:44:27.49	303.04	24.72	-23.3	-24.5	18.8	0.00e+00	0	44	102	1048576	6	4158
2026-01-05 13:44:28.50	303.28	24.63	-23.3	-24.5	18.7	0.00e+00	0	44	102	1048576	6	4162
2026-01-05 13:44:29.51	303.51	24.54	-23.1	-24.3	18.9	0.00e+00	0	44	102	1048576	6	4102
2026-01-05 13:44:30.51	303.75	24.45	-23.1	-24.3	18.9	0.00e+00	0	44	102	1048576	6	4100
2026-01-05 13:44:31.52	303.99	24.36	-23.1	-24.2	18.9	0.00e+00	0	44	102	1048576	6	4081
2026-01-05 13:44:32.53	304.22	24.27	-23.1	-24.2	18.9	0.00e+00	0	44	102	1048576	6	4094
2026-01-05 13:44:33.54	304.45	24.17	-23.2	-24.3	18.8	0.00e+00	0	44	102	1048576	6	4120
2026-01-05 13:44:34.54	304.68	24.08	-23.1	-24.3	18.9	0.00e+00	0	44	102	1048576	6	4097
2026-01-05 13:44:35.55	304.91	23.99	-23.0	-24.0	19.0	0.00e+00	0	44	102	1048576	6	4020
2026-01-05 13:44:36.56	305.14	23.90	-23.0	-24.1	19.0	0.00e+00	0	44	102	1048576	6	4041
2026-01-05 13:44:37.56	305.37	23.81	-23.1	-24.3	18.9	0.00e+00	0	44	102	1048576	6	4096
2026-01-05 13:44:38.57	305.60	23.72	-23.4	-24.7	18.6	0.00e+00	0	44	102	1048576	6	4216
2026-01-05 13:44:39.57	305.82	23.62	-23.4	-24.9	18.5	0.00e+00	0	44	102	1048576	6	4265
2026-01-05 13:44:40.58	306.04	23.53	-23.4	-24.3	18.6	0.00e+00	0	44	102	1048576	7	4003
2026-01-05 13:44:41.59	306.27	23.44	-23.3	-24.2	18.7	0.00e+00	0	44	102	1048576	7	3970
2026-01-05 13:44:42.59	306.49	23.35	-23.3	-24.2	18.7	0.00e+00	0	44	102	1048576	7	3971
2026-01-05 13:44:43.59	306.70	23.25	-23.5	-24.6	18.4	0.00e+00	0	44	102	1048576	7	4088
2026-01-05 13:44:44.59	306.92	23.16	-23.5	-24.6	18.4	0.00e+00	0	44	102	1048576	7	4081
2026-01-05 13:44:45.59	307.14	23.07	-23.4	-24.4	18.5	0.00e+00	0	44	102	1048576	7	4025
2026-01-05 13:44:46.60	307.35	22.98	-23.4	-24.4	18.5	0.00e+00	0	44	102	1048576	7	4014
2026-01-05 13:44:47.60	307.57	22.88	-23.4	-24.3	18.6	0.00e+00	0	43	102	1048576	7	3990
2026-01-05 13:44:48.61	307.78	22.79	-23.4	-24.3	18.6	0.00e+00	0	44	102	1048576	7	3995
2026-01-05 13:44:49.61	307.99	22.70	-23.3	-24.1	18.7	0.00e+00	0	43	102	1048576	7	3952
2026-01-05 13:44:50.62	308.20	22.61	-23.3	-24.0	18.7	0.00e+00	0	44	102	1048576	7	3931
2026-01-05 13:44:51.62	308.41	22.51	-23.4	-24.3	18.6	0.00e+00	0	44	102	1048576	7	3989
2026-01-05 13:44:52.63	308.62	22.42	-23.4	-24.3	18.6	0.00e+00	0	44	102	1048576	7	3990
2026-01-05 13:44:53.64	308.83	22.33	-23.4	-24.2	18.6	0.00e+00	0	43	102	1048576	7	3981
2026-01-05 13:44:54.65	309.03	22.23	-23.5	-24.4	18.5	0.00e+00	0	44	102	1048576	7	4033
2026-01-05 13:44:55.65	309.24	22.14	-23.5	-24.6	18.4	0.00e+00	0	44	102	1048576	7	4077
2026-01-05 13:44:56.66	309.44	22.05	-23.5	-24.6	18.4	0.00e+00	0	44	102	1048576	7	4083
2026-01-05 13:44:57.66	309.64	21.95	-23.6	-24.8	18.3	0.00e+00	0	44	102	1048576	7	4119
2026-01-05 13:44:58.67	309.84	21.86	-23.5	-24.6	18.4	0.00e+00	0	44	102	1048576	7	4080
2026-01-05 13:44:59.68	310.05	21.77	-23.5	-24.5	18.5	0.00e+00	0	44	102	1048576	7	4044
2026-01-05 13:45:00.69	310.24	21.67	-23.6	-24.7	18.4	0.00e+00	0	44	102	1048576	7	4091
2026-01-05 13:45:01.69	310.44	21.58	-23.5	-24.5	18.5	0.00e+00	0	44	102	1048576	7	4048
2026-01-05 13:45:02.70	310.64	21.49	-23.6	-24.8	18.3	0.00e+00	0	44	102	1048576	7	4111
2026-01-05 13:45:03.70	310.83	21.39	-23.6	-24.8	18.3	0.00e+00	0	44	102	1048576	7	4111
2026-01-05 13:45:04.71	311.03	21.30	-23.6	-24.7	18.3	0.00e+00	0	44	102	1048576	7	4110
2026-01-05 13:45:05.72	311.22	21.21	-23.7	-24.9	18.2	0.00e+00	0	44	102	1048576	7	4149
2026-01-05 13:45:06.72	311.41	21.11	-23.8	-25.2	18.1	0.00e+00	0	43	102	1048576	7	4229
2026-01-05 13:45:07.73	311.60	21.02	-23.9	-25.4	18.0	0.00e+00	0	44	102	1048576	7	4277
2026-01-05 13:45:08.73	311.79	20.93	-24.1	-25.2	17.8	0.00e+00	0	43	102	1048576	8	4115
2026-01-05 13:45:09.73	311.98	20.84	-24.3	-25.8	17.6	0.00e+00	0	44	102	1048576	8	4263
2026-01-05 13:45:10.74	312.17	20.74	-24.3	-25.6	17.6	0.00e+00	0	43	102	1048576	8	4223
2026-01-05 13:45:11.75	312.35	20.65	-24.1	-25.2	17.8	0.00e+00	0	43	102	1048576	8	4111
2026-01-05 13:45:12.76	312.54	20.56	-24.0	-25.1	17.9	0.00e+00	0	44	102	1048576	8	4094
2026-01-05 13:45:13.77	312.72	20.46	-24.1	-25.4	17.7	0.00e+00	0	44	102	1048576	8	4152
2026-01-05 13:45:14.77	312.91	20.37	-24.1	-25.4	17.7	0.00e+00	0	43	102	1048576	8	4162
2026-01-05 13:45:15.78	313.09	20.28	-24.2	-25.5	17.6	0.00e+00	0	44	102	1048576	8	4193
2026-01-05 13:45:16.79	313.27	20.18	-24.2	-25.4	17.7	0.00e+00	0	43	102	1048576	8	4172
2026-01-05 13:45:17.79	313.45	20.09	-24.1	-25.3	17.8	0.00e+00	0	44	102	1048576	8	4123
2026-01-05 13:45:18.80	313.63	20.00	-24.2	-25.5	17.7	0.00e+00	0	43	102	1048576	8	4179
2026-01-05 13:45:19.81	313.81	19.91	-24.1	-25.3	17.8	0.00e+00	0	44	102	1048576	8	4130
2026-01-05 13:45:20.82	313.98	19.81	-24.1	-25.4	17.7	0.00e+00	0	44	102	1048576	8	4156
2026-01-05 13:45:21.83	314.16	19.72	-24.2	-25.5	17.6	0.00e+00	0	44	102	1048576	8	4187
2026-01-05 13:45:22.84	314.33	19.63	-24.3	-25.7	17.6	0.00e+00	0	44	102	1048576	8	4228
2026-01-05 13:45:23.85	314.51	19.54	-24.4	-26.0	17.4	0.00e+00	0	44	102	1048576	8	4326
2026-01-05 13:45:24.86	314.68	19.44	-24.5	-26.2	17.3	0.00e+00	0	44	102	1048576	8	4363
2026-01-05 13:45:25.87	314.85	19.35	-24.6	-25.8	17.2	0.00e+00	0	43	102	1048576	9	4165
2026-01-05 13:45:26.88	315.03	19.26	-24.7	-26.2	17.0	0.00e+00	0	44	102	1048576	9	4260
2026-01-05 13:45:27.88	315.19	19.17	-24.5	-25.6	17.3	0.00e+00	0	43	102	1048576	9	4114
2026-01-05 13:45:28.89	315.36	19.08	-24.4	-25.4	17.4	0.00e+00	0	44	102	1048576	9	4053
2026-01-05 13:45:29.89	315.53	18.98	-24.4	-25.5	17.4	0.00e+00	0	43	102	1048576	9	4066
2026-01-05 13:45:30.90	315.70	18.89	-24.2	-25.1	17.6	0.00e+00	0	44	102	1048576	9	3973
2026-01-05 13:45:31.90	315.86	18.80	-24.1	-24.8	17.7	0.00e+00	0	44	102	1048576	9	3907
2026-01-05 13:45:32.91	316.03	18.71	-24.2	-25.0	17.6	0.00e+00	0	44	102	1048576	9	3952
2026-01-05 13:45:33.92	316.19	18.62	-24.3	-25.2	17.5	0.00e+00	0	44	102	1048576	9	3995
2026-01-05 13:45:34.93	316.35	18.53	-24.5	-25.8	17.2	0.00e+00	0	44	102	1048576	9	4147
2026-01-05 13:45:35.93	316.51	18.44	-24.4	-25.5	17.3	0.00e+00	0	44	102	1048576	9	4091
2026-01-05 13:45:36.94	316.68	18.35	-24.3	-25.3	17.5	0.00e+00	0	44	102	1048576	9	4032
2026-01-05 13:45:37.95	316.84	18.26	-24.3	-25.2	17.5	0.00e+00	0	44	102	1048576	9	4004
2026-01-05 13:45:38.95	316.99	18.17	-24.3	-25.3	17.5	0.00e+00	0	44	102	1048576	9	4018
2026-01-05 13:45:39.96	317.15	18.07	-24.2	-25.0	17.6	0.00e+00	0	44	102	1048576	9	3958
2026-01-05 13:45:40.97	317.31	17.98	-24.2	-25.1	17.6	0.00e+00	0	44	102	1048576	9	3968
2026-01-05 13:45:41.97	317.47	17.89	-24.2	-25.0	17.6	0.00e+00	0	44	102	1048576	9	3951
2026-01-05 13:45:42.97	317.62	17.81	-24.2	-25.0	17.6	0.00e+00	0	44	102	1048576	9	3957
2026-01-05 13:45:43.97	317.77	17.72	-24.4	-25.4	17.4	0.00e+00	0	44	102	1048576	9	4063
2026-01-05 13:45:44.98	317.93	17.63	-24.4	-25.5	17.3	0.00e+00	0	44	102	1048576	9	4076
2026-01-05 13:45:45.98	318.08	17.54	-24.6	-25.9	17.1	0.00e+00	0	44	102	1048576	9	4171
2026-01-05 13:45:46.99	318.23	17.45	-24.6	-25.8	17.2	0.00e+00	0	43	102	1048576	9	4163
2026-01-05 13:45:48.00	318.38	17.36	-24.6	-25.9	17.1	0.00e+00	0	44	102	1048576	9	4179
2026-01-05 13:45:49.00	318.53	17.27	-24.6	-26.0	17.1	0.00e+00	0	44	102	1048576	9	4207
2026-01-05 13:45:50.00	318.68	17.18	-24.7	-26.1	17.0	0.00e+00	0	44	102	1048576	9	4233
2026-01-05 13:45:51.01	318.83	17.09	-24.6	-26.0	17.0	0.00e+00	0	44	102	1048576	9	4206
2026-01-05 13:45:52.01	318.98	17.00	-24.8	-26.3	16.9	0.00e+00	0	44	102	1048576	9	4292
2026-01-05 13:45:53.02	319.12	16.91	-24.7	-26.2	16.9	0.00e+00	0	44	102	1048576	9	4251
2026-01-05 13:45:54.03	319.27	16.83	-24.8	-26.4	16.8	0.00e+00	0	44	102	1048576	9	4313
2026-01-05 13:45:55.03	319.42	16.74	-25.1	-26.4	16.6	0.00e+00	0	44	102	1048576	10	4202
2026-01-05 13:45:56.04	319.56	16.65	-24.9	-26.0	16.8	0.00e+00	0	44	102	1048576	10	4094
2026-01-05 13:45:57.05	319.70	16.56	-24.9	-25.9	16.8	0.00e+00	0	44	102	1048576	10	4078
2026-01-05 13:45:58.06	319.85	16.47	-24.9	-26.0	16.7	0.00e+00	0	44	102	1048576	10	4099
2026-01-05 13:45:59.06	319.99	16.39	-24.9	-26.1	16.7	0.00e+00	0	44	102	1048576	10	4125
2026-01-05 13:46:00.06	320.13	16.30	-25.0	-26.4	16.6	0.00e+00	0	44	102	1048576	10	4183
2026-01-05 13:46:01.07	320.27	16.21	-25.1	-26.4	16.5	0.00e+00	0	44	102	1048576	10	4195
2026-01-05 13:46:02.08	320.41	16.12	-25.1	-26.6	16.5	0.00e+00	0	44	102	1048576	10	4242
2026-01-05 13:46:03.08	320.55	16.04	-25.3	-27.0	16.2	0.00e+00	0	44	102	1048576	10	4366
2026-01-05 13:46:04.09	320.69	15.95	-25.2	-26.7	16.3	0.00e+00	0	44	102	1048576	10	4290
2026-01-05 13:46:05.10	320.82	15.86	-25.3	-26.8	16.3	0.00e+00	0	44	102	1048576	10	4318
2026-01-05 13:46:06.10	320.96	15.78	-25.2	-26.8	16.3	0.00e+00	0	44	102	1048576	10	4297
2026-01-05 13:46:07.11	321.09	15.69	-25.3	-26.9	16.2	0.00e+00	0	44	102	1048576	10	4343
2026-01-05 13:46:08.12	321.23	15.60	-25.1	-26.6	16.4	0.00e+00	0	44	102	1048576	10	4245
2026-01-05 13:46:09.12	321.36	15.52	-25.1	-26.5	16.5	0.00e+00	0	44	102	1048576	10	4215
2026-01-05 13:46:10.13	321.50	15.43	-25.1	-26.6	16.4	0.00e+00	0	44	102	1048576	10	4246
2026-01-05 13:46:11.14	321.63	15.35	-25.2	-26.7	16.3	0.00e+00	0	44	102	1048576	10	4281
2026-01-05 13:46:12.15	321.76	15.26	-25.0	-26.3	16.5	0.00e+00	0	44	102	1048576	10	4161
2026-01-05 13:46:13.15	321.89	15.17	-25.0	-26.2	16.6	0.00e+00	0	44	102	1048576	10	4138
2026-01-05 13:46:14.15	322.02	15.09	-25.0	-26.3	16.5	0.00e+00	0	44	102	1048576	10	4180
2026-01-05 13:46:15.16	322.15	15.00	-25.1	-26.6	16.4	0.00e+00	0	44	102	1048576	10	4246
2026-01-05 13:46:16.17	322.28	14.92	-25.2	-26.7	16.3	0.00e+00	0	44	102	1048576	10	4274
2026-01-05 13:46:17.17	322.41	14.83	-25.2	-26.7	16.3	0.00e+00	0	44	102	1048576	10	4292
2026-01-05 13:46:18.18	322.54	14.75	-25.2	-26.8	16.2	0.00e+00	0	44	102	1048576	10	4308
2026-01-05 13:46:19.19	322.66	14.67	-25.3	-26.9	16.2	0.00e+00	0	44	102	1048576	10	4335
2026-01-05 13:46:20.20	322.79	14.58	-25.2	-26.8	16.2	0.00e+00	0	44	102	1048576	10	4312
2026-01-05 13:46:21.20	322.92	14.50	-25.3	-27.0	16.2	0.00e+00	0	44	102	1048576	10	4352
2026-01-05 13:46:22.21	323.04	14.41	-25.2	-26.8	16.2	0.00e+00	0	44	102	1048576	10	4306
2026-01-05 13:46:23.22	323.17	14.33	-25.4	-27.0	16.1	0.00e+00	0	44	102	1048576	10	4374
2026-01-05 13:46:24.22	323.29	14.25	-25.1	-26.6	16.3	0.00e+00	0	44	102	1048576	10	4245
2026-01-05 13:46:25.23	323.41	14.16	-25.0	-26.4	16.4	0.00e+00	0	44	102	1048576	10	4184
2026-01-05 13:46:26.23	323.53	14.08	-25.0	-26.3	16.5	0.00e+00	0	43	102	1048576	10	4169
2026-01-05 13:46:27.24	323.66	14.00	-25.0	-26.3	16.5	0.00e+00	0	44	102	1048576	10	4176
2026-01-05 13:46:28.24	323.78	13.91	-25.0	-26.3	16.5	0.00e+00	0	44	102	1048576	10	4178
2026-01-05 13:46:29.25	323.90	13.83	-25.1	-26.4	16.4	0.00e+00	0	44	102	1048576	10	4205
2026-01-05 13:46:30.25	324.01	13.75	-25.2	-26.6	16.3	0.00e+00	0	44	102	1048576	10	4262
2026-01-05 13:46:31.26	324.13	13.67	-25.1	-26.6	16.3	0.00e+00	0	44	102	1048576	10	4244
2026-01-05 13:46:32.26	324.25	13.58	-25.2	-26.8	16.2	0.00e+00	0	44	102	1048576	10	4303
2026-01-05 13:46:33.27	324.37	13.50	-25.3	-26.9	16.1	0.00e+00	0	44	102	1048576	10	4336
2026-01-05 13:46:34.28	324.49	13.42	-25.5	-27.3	15.9	0.00e+00	0	43	102	1048576	10	4455
2026-01-05 13:46:35.29	324.60	13.34	-25.6	-27.0	15.7	0.00e+00	0	43	102	1048576	11	4255
2026-01-05 13:46:36.30	324.72	13.26	-25.7	-27.4	15.6	0.00e+00	0	44	102	1048576	11	4365
2026-01-05 13:46:37.31	324.84	13.17	-25.6	-27.0	15.7	0.00e+00	0	44	102	1048576	11	4260
2026-01-05 13:46:38.32	324.95	13.09	-25.6	-27.1	15.7	0.00e+00	0	43	102	1048576	11	4268
2026-01-05 13:46:39.32	325.06	13.01	-25.6	-27.1	15.7	1.10e-06	0	44	102	1048576	11	4284
2026-01-05 13:46:40.33	325.18	12.93	-25.5	-26.9	15.8	0.00e+00	0	44	102	1048576	11	4234
2026-01-05 13:46:41.33	325.29	12.85	-25.6	-27.2	15.6	0.00e+00	0	44	102	1048576	11	4301
2026-01-05 13:46:42.34	325.40	12.77	-25.5	-26.9	15.8	0.00e+00	0	44	102	1048576	11	4231
2026-01-05 13:46:43.35	325.51	12.69	-25.4	-26.6	16.0	0.00e+00	0	44	102	1048576	11	4144
2026-01-05 13:46:44.36	325.63	12.61	-25.4	-26.7	15.9	0.00e+00	0	44	102	1048576	11	4166
2026-01-05 13:46:45.36	325.74	12.53	-25.5	-26.9	15.8	0.00e+00	0	44	102	1048576	11	4212
2026-01-05 13:46:46.37	325.85	12.45	-25.6	-27.1	15.7	0.00e+00	0	44	102	1048576	11	4272
2026-01-05 13:46:47.37	325.95	12.37	-25.6	-27.0	15.7	0.00e+00	0	44	102	1048576	11	4252
2026-01-05 13:46:48.38	326.06	12.29	-25.7	-27.2	15.6	0.00e+00	0	44	102	1048576	11	4318
2026-01-05 13:46:49.39	326.17	12.21	-25.7	-27.4	15.5	0.00e+00	0	44	102	1048576	11	4352
2026-01-05 13:46:50.40	326.28	12.13	-25.8	-27.5	15.4	0.00e+00	0	44	102	1048576	11	4385
2026-01-05 13:46:51.40	326.39	12.05	-25.8	-27.5	15.4	0.00e+00	0	43	102	1048576	11	4389
2026-01-05 13:46:52.41	326.49	11.97	-25.8	-27.6	15.4	0.00e+00	0	43	102	1048576	11	4421
2026-01-05 13:46:53.42	326.60	11.89	-25.9	-27.8	15.2	0.00e+00	0	44	102	1048576	11	4472
2026-01-05 13:46:54.42	326.71	11.82	-25.9	-27.4	15.1	0.00e+00	0	44	102	1048576	12	4258
2026-01-05 13:46:55.43	326.81	11.74	-26.3	-28.2	14.6	0.00e+00	0	43	102	1048576	12	4487
2026-01-05 13:46:56.43	326.91	11.66	-26.4	-28.0	14.4	1.10e-06	0	44	102	1048576	13	4317
2026-01-05 13:46:57.44	327.02	11.58	-26.2	-27.4	14.8	0.00e+00	0	44	102	1048576	13	4162
2026-01-05 13:46:58.44	327.12	11.50	-25.9	-26.9	15.1	1.10e-06	0	44	102	1048576	13	4016
2026-01-05 13:46:59.46	327.23	11.43	-25.8	-26.7	15.2	0.00e+00	0	44	102	1048576	13	3959
2026-01-05 13:47:00.47	327.33	11.35	-25.9	-26.8	15.1	0.00e+00	0	44	102	1048576	13	3994
2026-01-05 13:47:01.47	327.43	11.27	-26.0	-27.0	15.0	0.00e+00	0	44	102	1048576	13	4040
2026-01-05 13:47:02.48	327.53	11.19	-25.9	-26.8	15.1	0.00e+00	0	44	102	1048576	13	3994
2026-01-05 13:47:03.48	327.63	11.12	-26.0	-27.0	15.0	1.10e-06	0	44	102	1048576	13	4052
2026-01-05 13:47:04.49	327.73	11.04	-25.9	-26.9	15.0	0.00e+00	0	43	102	1048576	13	4028
2026-01-05 13:47:05.49	327.83	10.96	-25.8	-26.7	15.2	0.00e+00	0	44	102	1048576	13	3961
2026-01-05 13:47:06.50	327.93	10.89	-26.0	-26.9	15.1	0.00e+00	0	44	102	1048576	13	4029
2026-01-05 13:47:07.51	328.03	10.81	-25.9	-26.9	15.0	0.00e+00	0	44	102	1048576	13	4018
2026-01-05 13:47:08.52	328.13	10.73	-26.0	-27.0	15.0	0.00e+00	0	44	102	1048576	13	4037
2026-01-05 13:47:09.53	328.23	10.66	-26.0	-27.0	15.0	0.00e+00	0	44	102	1048576	13	4037
2026-01-05 13:47:10.54	328.32	10.58	-26.0	-27.0	14.9	0.00e+00	0	44	102	1048576	13	4061
2026-01-05 13:47:11.54	328.42	10.51	-26.1	-27.2	14.9	1.10e-06	0	43	102	1048576	13	4098
2026-01-05 13:47:12.55	328.52	10.43	-26.1	-27.3	14.8	0.00e+00	0	44	102	1048576	13	4117
2026-01-05 13:47:13.56	328.61	10.36	-26.3	-27.7	14.6	1.10e-06	0	44	102	1048576	13	4229
2026-01-05 13:47:14.56	328.71	10.28	-26.3	-27.7	14.6	0.00e+00	0	43	102	1048576	13	4223
2026-01-05 13:47:15.57	328.80	10.21	-26.2	-27.6	14.6	1.10e-06	0	44	102	1048576	13	4208
2026-01-05 13:47:16.58	328.90	10.13	-26.2	-27.5	14.6	0.00e+00	0	44	102	1048576	13	4191
2026-01-05 13:47:17.58	328.99	10.06	-26.3	-27.7	14.6	1.10e-06	0	43	102	1048576	13	4225
2026-01-05 13:47:18.58	329.08	9.98	-26.3	-27.7	14.5	2.20e-06	0	44	102	1048576	13	4243
2026-01-05 13:47:19.59	329.18	9.91	-26.2	-27.6	14.6	3.40e-06	0	44	102	1048576	13	4218
2026-01-05 13:47:20.60	329.27	9.83	-26.2	-27.6	14.5	3.40e-06	0	43	102	1048576	13	4224
2026-01-05 13:47:21.60	329.36	9.76	-26.4	-27.9	14.4	0.00e+00	0	44	102	1048576	13	4295
2026-01-05 13:47:22.61	329.45	9.69	-26.3	-27.8	14.5	2.20e-06	0	44	102	1048576	13	4265
2026-01-05 13:47:23.62	329.55	9.61	-26.3	-27.7	14.5	0.00e+00	0	44	102	1048576	13	4232
2026-01-05 13:47:24.63	329.64	9.54	-26.2	-27.6	14.5	0.00e+00	0	43	102	1048576	13	4212
2026-01-05 13:47:25.63	329.73	9.47	-26.3	-27.7	14.5	2.20e-06	0	43	102	1048576	13	4225
2026-01-05 13:47:26.64	329.82	9.39	-26.3	-27.7	14.5	2.20e-06	0	44	102	1048576	13	4235
2026-01-05 13:47:27.65	329.91	9.32	-26.2	-27.6	14.5	1.10e-06	0	44	102	1048576	13	4199
2026-01-05 13:47:28.66	330.00	9.25	-26.2	-27.4	14.6	0.00e+00	0	44	102	1048576	13	4158
2026-01-05 13:47:29.66	330.09	9.17	-26.2	-27.5	14.6	0.00e+00	0	44	102	1048576	13	4184
2026-01-05 13:47:30.67	330.17	9.10	-26.2	-27.6	14.5	0.00e+00	0	44	102	1048576	13	4197
2026-01-05 13:47:31.67	330.26	9.03	-26.3	-27.8	14.4	4.50e-06	0	44	102	1048576	13	4252
2026-01-05 13:47:32.68	330.35	8.96	-26.3	-27.7	14.5	0.00e+00	0	44	102	1048576	13	4235
2026-01-05 13:47:33.69	330.44	8.88	-26.3	-27.7	14.4	2.20e-06	0	44	102	1048576	13	4229
2026-01-05 13:47:34.70	330.52	8.81	-26.3	-27.8	14.4	3.40e-06	0	44	102	1048576	13	4249
2026-01-05 13:47:35.70	330.61	8.74	-26.5	-28.3	14.1	5.70e-06	0	44	102	1048576	13	4398
2026-01-05 13:47:36.71	330.70	8.67	-26.5	-28.1	14.2	1.10e-06	0	44	102	1048576	13	4353
2026-01-05 13:47:37.72	330.78	8.60	-26.4	-28.0	14.2	2.20e-06	0	44	102	1048576	13	4329
2026-01-05 13:47:38.73	330.87	8.52	-26.4	-28.0	14.2	6.80e-06	0	44	102	1048576	13	4330
2026-01-05 13:47:39.73	330.95	8.45	-26.5	-28.3	14.0	0.00e+00	0	44	102	1048576	13	4413
2026-01-05 13:47:40.74	331.04	8.38	-26.5	-28.3	14.0	5.70e-06	0	44	102	1048576	13	4418
2026-01-05 13:47:41.75	331.12	8.31	-26.6	-28.5	14.0	9.10e-06	0	44	102	1048576	13	4454
2026-01-05 13:47:42.76	331.20	8.24	-26.5	-28.2	14.0	2.20e-06	0	44	102	1048576	13	4391
2026-01-05 13:47:43.76	331.29	8.17	-26.6	-28.4	13.9	9.10e-06	0	44	102	1048576	13	4442
2026-01-05 13:47:44.77	331.37	8.10	-26.6	-28.4	13.9	3.40e-06	0	44	102	1048576	13	4443
2026-01-05 13:47:45.77	331.45	8.03	-26.6	-28.4	13.9	4.50e-06	0	44	102	1048576	13	4438
2026-01-05 13:47:46.78	331.53	7.96	-26.9	-29.0	13.6	1.48e-05	0	44	102	1048576	13	4632
2026-01-05 13:47:47.78	331.62	7.89	-26.7	-28.6	13.8	6.80e-06	0	44	102	1048576	13	4513
2026-01-05 13:47:48.79	331.70	7.82	-26.6	-28.5	13.9	4.50e-06	0	44	102	1048576	13	4461
2026-01-05 13:47:49.80	331.78	7.75	-26.5	-28.3	14.0	3.40e-06	0	44	102	1048576	13	4402
2026-01-05 13:47:50.80	331.86	7.68	-26.6	-28.4	13.9	9.10e-06	0	44	102	1048576	13	4443
2026-01-05 13:47:51.81	331.94	7.61	-26.5	-28.3	14.0	1.02e-05	0	44	102	1048576	13	4406
2026-01-05 13:47:52.82	332.02	7.54	-26.6	-28.5	13.8	6.80e-06	0	44	102	1048576	13	4468
2026-01-05 13:47:53.83	332.10	7.47	-26.6	-28.6	13.8	4.50e-06	0	44	102	1048576	13	4492
2026-01-05 13:47:54.83	332.18	7.40	-26.6	-28.5	13.8	1.14e-05	0	44	102	1048576	13	4469
2026-01-05 13:47:55.84	332.26	7.33	-26.9	-29.2	13.4	1.25e-05	0	44	102	1048576	13	4679
2026-01-05 13:47:56.85	332.34	7.27	-26.8	-29.0	13.5	1.94e-05	0	44	102	1048576	13	4625
2026-01-05 13:47:57.85	332.41	7.20	-26.7	-28.7	13.7	2.63e-05	0	44	102	1048576	13	4540
2026-01-05 13:47:58.87	332.49	7.13	-26.7	-28.8	13.6	5.70e-06	0	44	102	1048576	13	4555
2026-01-05 13:47:59.88	332.57	7.06	-32.4	-42.8	3.8	7.02e-01	0	44	104	1048576	24	11841
2026-01-05 13:48:00.89	332.65	6.99	-32.9	-44.3	3.8	8.47e-01	0	44	104	1048576	25	13342

#Closed at: 2026-01-05 13:48:01
#Recorded file [1 MB]: D:/data/31010_260105_163704.dat