passes_logs/2026/01/05/R2M6_AANII_01/R2M6_AANII_01__20260105_091526_SUOMI_NPP_rec.log

#Pass ID: 20260105_091526_SUOMI NPP
#Satellite: SUOMI NPP
#Configuration: NPP
#almurnet v.1.7.20240730
#Start time: 2026-01-05 09:15:26

#Version: 2.2.20231116
#Station: R2M6_AANII_01
#Location: 30.233357 lon 59.946436 lat
#TLE: 1 37849U 11061A   26003.96724563  .00000164  00000+0  98899-4 0  9990
#TLE: 2 37849  98.7800 306.1116 0002573  82.3190 277.8279 14.19522066735141

#Time	Az	El	Level	Level2	SNR	BER	BlckErr	Temp	State	Recorded	gain1	gain2
2026-01-05 09:15:26.95	125.18	7.04	-30.7	-35.0	5.0	1.30e+00	0	41	0	0	22	5869
2026-01-05 09:15:27.95	125.13	7.11	-31.1	-36.4	4.6	1.35e+00	0	41	104	0	23	6643
2026-01-05 09:15:28.96	125.07	7.19	-31.1	-36.3	6.5	2.50e-01	0	41	0	0	23	6528
2026-01-05 09:15:29.96	125.01	7.26	-31.2	-36.7	6.3	2.70e-01	0	41	102	1048576	23	6751
2026-01-05 09:15:30.97	124.96	7.34	-31.2	-36.4	6.5	2.57e-01	0	41	102	1048576	23	6565
2026-01-05 09:15:31.98	124.90	7.41	-31.1	-35.9	6.7	2.28e-01	0	41	102	1048576	23	6270
2026-01-05 09:15:32.98	124.84	7.48	-31.0	-35.2	7.3	1.55e-01	0	41	102	1048576	23	5895
2026-01-05 09:15:33.99	124.78	7.56	-30.8	-34.8	8.1	7.47e-02	0	41	102	1048576	22	5732
2026-01-05 09:15:35.00	124.73	7.63	-30.7	-34.6	8.2	5.41e-02	0	41	102	1048576	22	5650
2026-01-05 09:15:36.01	124.67	7.71	-30.7	-34.6	8.3	5.34e-02	0	41	102	1048576	22	5607
2026-01-05 09:15:37.01	124.61	7.78	-30.4	-33.1	9.4	2.40e-02	0	41	102	1048576	22	4940
2026-01-05 09:15:38.02	124.55	7.86	-30.3	-32.9	9.6	1.27e-02	0	41	102	1048576	22	4868
2026-01-05 09:15:39.02	124.49	7.93	-30.1	-32.6	10.2	8.60e-03	0	41	102	1048576	21	4812
2026-01-05 09:15:40.03	124.43	8.01	-30.0	-32.4	10.3	4.91e-03	0	41	102	1048576	21	4755
2026-01-05 09:15:41.03	124.37	8.09	-30.0	-32.2	10.5	4.75e-03	0	41	102	1048576	21	4662
2026-01-05 09:15:42.04	124.31	8.16	-30.2	-33.0	9.9	6.21e-03	0	41	102	1048576	21	4977
2026-01-05 09:15:43.05	124.25	8.24	-30.3	-33.2	9.8	1.02e-02	0	41	102	1048576	21	5060
2026-01-05 09:15:44.06	124.19	8.32	-30.3	-33.4	9.6	1.01e-02	0	41	102	1048576	21	5138
2026-01-05 09:15:45.06	124.13	8.39	-30.3	-33.3	9.7	1.33e-02	0	41	102	1048576	21	5079
2026-01-05 09:15:46.07	124.07	8.47	-30.2	-32.7	10.1	7.22e-03	0	41	102	1048576	21	4851
2026-01-05 09:15:47.08	124.01	8.55	-30.0	-32.2	10.6	3.70e-03	0	41	102	1048576	21	4653
2026-01-05 09:15:48.08	123.95	8.62	-30.0	-32.1	10.7	3.13e-03	0	41	102	1048576	21	4602
2026-01-05 09:15:49.09	123.88	8.70	-29.9	-31.9	10.8	3.06e-03	0	42	102	1048576	21	4544
2026-01-05 09:15:50.10	123.82	8.78	-30.1	-32.5	10.4	3.99e-03	0	42	102	1048576	21	4745
2026-01-05 09:15:51.10	123.76	8.86	-30.0	-32.2	10.6	3.75e-03	0	42	102	1048576	21	4639
2026-01-05 09:15:52.11	123.69	8.94	-30.0	-32.2	10.7	3.02e-03	0	42	102	1048576	21	4624
2026-01-05 09:15:53.11	123.63	9.01	-30.1	-32.4	10.5	3.84e-03	0	42	102	1048576	21	4691
2026-01-05 09:15:54.12	123.57	9.09	-30.1	-32.6	10.4	4.71e-03	0	42	102	1048576	21	4787
2026-01-05 09:15:55.13	123.50	9.17	-30.2	-32.9	10.1	5.15e-03	0	42	102	1048576	21	4911
2026-01-05 09:15:56.14	123.44	9.25	-30.2	-32.7	10.3	6.42e-03	0	42	102	1048576	21	4815
2026-01-05 09:15:57.14	123.37	9.33	-29.9	-31.8	10.9	3.20e-03	0	42	102	1048576	21	4491
2026-01-05 09:15:58.15	123.30	9.41	-29.8	-31.6	11.1	2.13e-03	0	42	102	1048576	21	4408
2026-01-05 09:15:59.14	123.24	9.49	-29.9	-31.6	11.1	1.63e-03	0	42	102	1048576	21	4424
2026-01-05 09:16:00.15	123.17	9.57	-30.0	-32.0	10.9	1.69e-03	0	42	102	1048576	21	4552
2026-01-05 09:16:01.16	123.11	9.65	-29.7	-31.8	11.4	1.53e-03	0	42	102	1048576	20	4555
2026-01-05 09:16:02.17	123.04	9.73	-29.6	-31.5	11.6	8.34e-04	0	42	102	1048576	20	4444
2026-01-05 09:16:03.18	122.97	9.81	-29.8	-32.0	11.3	1.16e-03	0	42	102	1048576	20	4632
2026-01-05 09:16:04.18	122.90	9.89	-29.9	-32.1	11.2	1.53e-03	0	42	102	1048576	20	4673
2026-01-05 09:16:05.18	122.83	9.97	-29.8	-32.0	11.3	1.62e-03	0	42	102	1048576	20	4616
2026-01-05 09:16:06.20	122.76	10.06	-30.0	-32.7	10.8	1.86e-03	0	42	102	1048576	20	4882
2026-01-05 09:16:07.21	122.70	10.14	-30.1	-32.8	10.8	2.68e-03	0	42	102	1048576	20	4916
2026-01-05 09:16:08.21	122.63	10.22	-30.1	-32.9	10.7	1.80e-03	0	42	102	1048576	20	4951
2026-01-05 09:16:09.22	122.56	10.30	-30.0	-32.7	10.8	2.96e-03	0	42	102	1048576	20	4879
2026-01-05 09:16:10.22	122.49	10.38	-30.1	-32.9	10.7	3.02e-03	0	42	102	1048576	20	4958
2026-01-05 09:16:11.23	122.41	10.47	-30.2	-33.1	10.5	2.74e-03	0	42	102	1048576	20	5058
2026-01-05 09:16:12.23	122.34	10.55	-30.2	-33.3	10.4	4.09e-03	0	42	102	1048576	20	5116
2026-01-05 09:16:13.24	122.27	10.63	-30.0	-32.7	10.9	2.68e-03	0	42	102	1048576	20	4882
2026-01-05 09:16:14.24	122.20	10.71	-30.0	-32.5	11.0	2.46e-03	0	42	102	1048576	20	4807
2026-01-05 09:16:15.25	122.13	10.80	-29.9	-32.2	11.2	1.51e-03	0	42	102	1048576	20	4675
2026-01-05 09:16:16.26	122.05	10.88	-30.0	-32.4	11.1	1.13e-03	0	42	102	1048576	20	4768
2026-01-05 09:16:17.26	121.98	10.96	-30.0	-32.3	11.2	1.75e-03	0	42	102	1048576	20	4712
2026-01-05 09:16:18.27	121.91	11.05	-29.8	-31.9	11.4	1.50e-03	0	42	102	1048576	20	4562
2026-01-05 09:16:19.28	121.83	11.13	-30.1	-32.7	10.9	1.13e-03	0	42	102	1048576	20	4850
2026-01-05 09:16:20.29	121.76	11.22	-30.0	-32.5	11.1	1.69e-03	0	42	102	1048576	20	4789
2026-01-05 09:16:21.30	121.68	11.30	-29.7	-31.6	11.7	9.21e-04	0	42	102	1048576	20	4467
2026-01-05 09:16:22.31	121.61	11.39	-29.6	-31.2	12.0	5.03e-04	0	42	102	1048576	20	4321
2026-01-05 09:16:23.32	121.53	11.47	-29.7	-31.4	11.9	4.22e-04	0	42	102	1048576	20	4399
2026-01-05 09:16:24.32	121.45	11.56	-29.6	-31.1	12.1	1.44e-04	0	42	102	1048576	20	4290
2026-01-05 09:16:25.33	121.38	11.65	-29.6	-31.2	12.1	2.23e-04	0	42	102	1048576	20	4318
2026-01-05 09:16:26.34	121.30	11.73	-29.5	-30.9	12.3	3.46e-04	0	42	102	1048576	20	4211
2026-01-05 09:16:27.35	121.22	11.82	-29.7	-31.5	11.8	4.35e-04	0	42	102	1048576	20	4432
2026-01-05 09:16:28.35	121.14	11.90	-29.7	-31.5	11.9	5.03e-04	0	42	102	1048576	20	4433
2026-01-05 09:16:29.36	121.06	11.99	-29.6	-31.2	12.1	1.81e-04	0	42	102	1048576	20	4327
2026-01-05 09:16:30.37	120.99	12.08	-29.6	-31.1	12.1	4.20e-04	0	42	102	1048576	20	4302
2026-01-05 09:16:31.38	120.90	12.17	-29.6	-31.1	12.2	2.68e-04	0	42	102	1048576	20	4276
2026-01-05 09:16:32.39	120.82	12.26	-29.6	-31.2	12.1	1.84e-04	0	42	102	1048576	20	4316
2026-01-05 09:16:33.39	120.74	12.34	-29.7	-31.3	12.0	3.60e-04	0	42	102	1048576	20	4359
2026-01-05 09:16:34.40	120.66	12.43	-29.4	-30.5	12.6	2.45e-04	0	43	102	1048576	20	4095
2026-01-05 09:16:35.41	120.58	12.52	-29.6	-31.2	12.2	1.85e-04	0	42	102	1048576	20	4302
2026-01-05 09:16:36.41	120.50	12.61	-29.8	-31.6	11.8	4.05e-04	0	42	102	1048576	20	4452
2026-01-05 09:16:37.42	120.42	12.70	-29.6	-31.2	12.1	1.54e-04	0	43	102	1048576	20	4329
2026-01-05 09:16:38.43	120.33	12.79	-29.8	-31.8	11.7	4.54e-04	0	42	102	1048576	20	4527
2026-01-05 09:16:39.44	120.25	12.88	-29.7	-31.4	12.0	3.50e-04	0	42	102	1048576	20	4372
2026-01-05 09:16:40.45	120.16	12.97	-29.7	-31.5	12.0	2.68e-04	0	43	102	1048576	20	4424
2026-01-05 09:16:41.46	120.08	13.06	-29.6	-31.1	12.2	3.27e-04	0	43	102	1048576	20	4287
2026-01-05 09:16:42.46	119.99	13.15	-29.4	-30.7	12.5	1.69e-04	0	42	102	1048576	20	4163
2026-01-05 09:16:43.47	119.91	13.24	-29.6	-31.1	12.2	2.20e-04	0	43	102	1048576	20	4289
2026-01-05 09:16:44.48	119.82	13.33	-29.6	-31.0	12.2	2.83e-04	0	43	102	1048576	20	4255
2026-01-05 09:16:45.49	119.73	13.42	-29.5	-30.8	12.4	1.65e-04	0	42	102	1048576	20	4190
2026-01-05 09:16:46.50	119.64	13.51	-29.4	-30.5	12.7	9.00e-05	0	43	102	1048576	20	4079
2026-01-05 09:16:47.51	119.56	13.60	-29.4	-30.4	12.7	5.95e-05	0	43	102	1048576	20	4057
2026-01-05 09:16:48.52	119.47	13.70	-29.5	-31.1	12.6	6.02e-05	0	42	102	1048576	19	4367
2026-01-05 09:16:49.53	119.38	13.79	-29.5	-31.3	12.6	1.17e-04	0	43	102	1048576	19	4423
2026-01-05 09:16:50.54	119.29	13.88	-29.5	-31.2	12.7	7.93e-05	0	43	102	1048576	19	4375
2026-01-05 09:16:51.54	119.20	13.97	-29.5	-31.2	12.6	1.11e-04	0	42	102	1048576	19	4396
2026-01-05 09:16:52.55	119.10	14.07	-29.3	-30.7	13.0	4.34e-05	0	43	102	1048576	19	4234
2026-01-05 09:16:53.55	119.01	14.16	-29.3	-30.6	13.1	2.21e-05	0	43	102	1048576	19	4180
2026-01-05 09:16:54.56	118.92	14.25	-29.4	-30.8	12.9	4.11e-05	0	43	102	1048576	19	4259
2026-01-05 09:16:55.57	118.83	14.35	-29.3	-30.7	13.0	3.43e-05	0	43	102	1048576	19	4228
2026-01-05 09:16:56.57	118.74	14.44	-29.5	-31.1	12.8	4.11e-05	0	42	102	1048576	19	4338
2026-01-05 09:16:57.58	118.64	14.54	-29.6	-31.6	12.4	1.25e-04	0	43	102	1048576	19	4515
2026-01-05 09:16:58.58	118.55	14.63	-29.7	-31.6	12.4	1.01e-04	0	43	102	1048576	19	4526
2026-01-05 09:16:59.59	118.45	14.73	-29.8	-31.9	12.2	2.14e-04	0	43	102	1048576	19	4620
2026-01-05 09:17:00.60	118.35	14.82	-29.9	-32.4	11.9	2.44e-04	0	43	102	1048576	19	4801
2026-01-05 09:17:01.60	118.26	14.92	-29.9	-32.4	11.8	3.01e-04	0	43	102	1048576	19	4798
2026-01-05 09:17:02.61	118.16	15.01	-29.9	-32.4	11.9	3.96e-04	0	43	102	1048576	19	4785
2026-01-05 09:17:03.62	118.06	15.11	-29.9	-31.9	11.8	4.69e-04	0	43	102	1048576	20	4520
2026-01-05 09:17:04.62	117.96	15.21	-30.2	-32.8	11.2	7.26e-04	0	43	102	1048576	20	4857
2026-01-05 09:17:05.63	117.87	15.30	-30.2	-32.7	11.3	1.31e-03	0	43	102	1048576	20	4827
2026-01-05 09:17:06.64	117.76	15.40	-30.1	-32.4	11.5	7.57e-04	0	43	102	1048576	20	4723
2026-01-05 09:17:07.65	117.66	15.50	-30.2	-32.9	11.2	1.38e-03	0	43	102	1048576	20	4889
2026-01-05 09:17:08.65	117.56	15.59	-30.3	-33.0	11.1	1.75e-03	0	43	102	1048576	20	4932
2026-01-05 09:17:09.66	117.46	15.69	-30.2	-32.9	11.1	1.21e-03	0	43	102	1048576	20	4911
2026-01-05 09:17:10.66	117.36	15.79	-30.1	-32.6	11.4	1.47e-03	0	43	102	1048576	20	4766
2026-01-05 09:17:11.67	117.26	15.89	-30.1	-32.3	11.6	1.10e-03	0	43	102	1048576	20	4689
2026-01-05 09:17:12.68	117.15	15.99	-30.2	-32.7	11.3	9.00e-04	0	43	102	1048576	20	4819
2026-01-05 09:17:13.68	117.05	16.09	-30.1	-32.4	11.5	9.11e-04	0	43	102	1048576	20	4721
2026-01-05 09:17:14.68	116.94	16.19	-29.9	-31.9	11.9	4.77e-04	0	43	102	1048576	20	4526
2026-01-05 09:17:15.69	116.84	16.29	-29.8	-31.5	12.2	2.55e-04	0	43	102	1048576	20	4402
2026-01-05 09:17:16.70	116.73	16.39	-29.6	-31.1	12.4	2.17e-04	0	43	102	1048576	20	4269
2026-01-05 09:17:17.70	116.62	16.49	-29.5	-30.8	12.6	1.03e-04	0	43	102	1048576	20	4165
2026-01-05 09:17:18.71	116.51	16.59	-29.5	-30.8	12.6	9.15e-05	0	43	102	1048576	20	4163
2026-01-05 09:17:19.72	116.40	16.69	-29.5	-30.7	12.8	6.33e-05	0	43	102	1048576	20	4128
2026-01-05 09:17:20.73	116.29	16.79	-29.4	-30.4	13.0	4.73e-05	0	43	102	1048576	20	4029
2026-01-05 09:17:21.74	116.18	16.89	-29.2	-30.4	13.4	2.28e-05	0	43	102	1048576	19	4104
2026-01-05 09:17:22.74	116.07	16.99	-29.3	-30.5	13.3	1.37e-05	0	43	102	1048576	19	4133
2026-01-05 09:17:23.75	115.96	17.10	-29.3	-30.5	13.4	9.10e-06	0	43	102	1048576	19	4146
2026-01-05 09:17:24.75	115.85	17.20	-29.3	-30.4	13.4	1.83e-05	0	43	102	1048576	19	4120
2026-01-05 09:17:25.76	115.73	17.30	-29.5	-31.0	13.0	4.11e-05	0	43	102	1048576	19	4292
2026-01-05 09:17:26.76	115.62	17.41	-29.3	-30.5	13.4	2.89e-05	0	43	102	1048576	19	4126
2026-01-05 09:17:27.77	115.50	17.51	-29.2	-30.2	13.5	1.44e-05	0	43	102	1048576	19	4061
2026-01-05 09:17:28.78	115.39	17.61	-29.2	-30.3	13.5	1.06e-05	0	43	102	1048576	19	4088
2026-01-05 09:17:29.78	115.27	17.72	-29.3	-30.5	13.4	1.29e-05	0	43	102	1048576	19	4121
2026-01-05 09:17:30.79	115.15	17.82	-29.2	-30.1	13.6	1.22e-05	0	43	102	1048576	19	4027
2026-01-05 09:17:31.80	115.03	17.93	-29.3	-30.5	13.4	1.52e-05	0	43	102	1048576	19	4136
2026-01-05 09:17:32.80	114.92	18.03	-29.5	-31.1	13.1	1.75e-05	0	43	102	1048576	19	4317
2026-01-05 09:17:33.81	114.79	18.14	-29.8	-32.0	12.4	7.70e-05	0	43	102	1048576	19	4639
2026-01-05 09:17:34.82	114.67	18.24	-29.8	-31.8	12.6	1.17e-04	0	43	102	1048576	19	4562
2026-01-05 09:17:35.81	114.55	18.35	-30.0	-32.4	12.2	1.22e-04	0	43	102	1048576	19	4749
2026-01-05 09:17:36.82	114.43	18.46	-29.8	-32.0	12.4	1.07e-04	0	43	102	1048576	19	4608
2026-01-05 09:17:37.83	114.31	18.56	-29.8	-32.0	12.4	1.22e-04	0	43	102	1048576	19	4634
2026-01-05 09:17:38.84	114.18	18.67	-29.8	-32.0	12.5	2.12e-04	0	43	102	1048576	19	4614
2026-01-05 09:17:39.84	114.06	18.78	-30.0	-32.0	12.0	2.17e-04	0	43	102	1048576	20	4534
2026-01-05 09:17:40.85	113.93	18.88	-30.2	-32.6	11.6	4.23e-04	0	43	102	1048576	20	4741
2026-01-05 09:17:41.86	113.80	18.99	-30.0	-32.1	11.9	5.05e-04	0	43	102	1048576	20	4576
2026-01-05 09:17:42.87	113.67	19.10	-29.9	-31.7	12.2	2.06e-04	0	43	102	1048576	20	4431
2026-01-05 09:17:43.87	113.54	19.21	-29.9	-31.9	12.0	2.17e-04	0	43	102	1048576	20	4494
2026-01-05 09:17:44.87	113.42	19.32	-29.8	-31.5	12.4	1.40e-04	0	43	102	1048576	20	4358
2026-01-05 09:17:45.88	113.28	19.43	-29.9	-31.7	12.3	1.34e-04	0	43	102	1048576	20	4426
2026-01-05 09:17:46.89	113.15	19.54	-30.1	-32.4	11.8	5.13e-04	0	43	102	1048576	20	4691
2026-01-05 09:17:47.90	113.02	19.65	-30.0	-32.1	12.0	5.49e-04	0	43	102	1048576	20	4575
2026-01-05 09:17:48.90	112.88	19.76	-30.0	-31.9	12.1	2.57e-04	0	43	102	1048576	20	4499
2026-01-05 09:17:49.91	112.75	19.87	-30.1	-32.2	12.0	2.65e-04	0	43	102	1048576	20	4578
2026-01-05 09:17:50.91	112.61	19.98	-30.1	-32.2	11.9	3.49e-04	0	43	102	1048576	20	4607
2026-01-05 09:17:51.91	112.48	20.09	-30.2	-32.5	11.7	6.92e-04	0	43	102	1048576	20	4700
2026-01-05 09:17:52.92	112.34	20.20	-30.2	-32.6	11.7	4.94e-04	0	43	102	1048576	20	4734
2026-01-05 09:17:53.93	112.20	20.31	-30.4	-33.3	11.2	9.48e-04	0	43	102	1048576	20	5007
2026-01-05 09:17:54.93	112.06	20.43	-30.3	-32.5	11.4	2.39e-03	0	43	102	1048576	21	4622
2026-01-05 09:17:55.93	111.92	20.54	-30.2	-32.0	11.7	6.16e-04	0	43	102	1048576	21	4459
2026-01-05 09:17:56.94	111.78	20.65	-30.2	-32.2	11.7	3.50e-04	0	43	102	1048576	21	4524
2026-01-05 09:17:57.94	111.64	20.76	-29.9	-31.3	12.3	2.86e-04	0	43	102	1048576	21	4219
2026-01-05 09:17:58.95	111.49	20.88	-30.0	-31.5	12.1	2.53e-04	0	43	102	1048576	21	4287
2026-01-05 09:17:59.96	111.35	20.99	-30.0	-31.6	12.1	4.90e-04	0	43	102	1048576	21	4298
2026-01-05 09:18:00.96	111.20	21.11	-30.0	-31.3	12.3	1.88e-04	0	43	102	1048576	21	4216
2026-01-05 09:18:01.96	111.05	21.22	-30.1	-31.8	12.0	2.85e-04	0	43	102	1048576	21	4368
2026-01-05 09:18:02.97	110.90	21.33	-30.1	-31.8	12.0	6.44e-04	0	43	102	1048576	21	4359
2026-01-05 09:18:03.98	110.75	21.45	-30.2	-32.1	11.7	3.74e-04	0	43	102	1048576	21	4456
2026-01-05 09:18:04.98	110.60	21.56	-30.4	-32.5	11.5	4.61e-04	0	43	102	1048576	21	4622
2026-01-05 09:18:05.99	110.45	21.68	-30.2	-31.9	11.9	4.01e-04	0	43	102	1048576	21	4409
2026-01-05 09:18:07.00	110.30	21.80	-30.2	-32.0	11.8	3.53e-04	0	43	102	1048576	21	4448
2026-01-05 09:18:08.00	110.14	21.91	-30.1	-31.8	12.0	4.25e-04	0	43	102	1048576	21	4360
2026-01-05 09:18:09.01	109.99	22.03	-30.1	-31.8	11.9	4.10e-04	0	43	102	1048576	21	4373
2026-01-05 09:18:10.02	109.83	22.15	-30.3	-32.3	11.7	4.03e-04	0	43	102	1048576	21	4526
2026-01-05 09:18:11.03	109.67	22.27	-30.0	-31.3	12.3	5.83e-04	0	43	102	1048576	21	4197
2026-01-05 09:18:12.04	109.51	22.38	-29.7	-31.1	12.8	7.17e-05	0	43	102	1048576	20	4211
2026-01-05 09:18:13.04	109.35	22.50	-29.7	-30.9	13.0	3.66e-05	0	43	102	1048576	20	4171
2026-01-05 09:18:14.05	109.19	22.62	-29.6	-30.6	13.1	3.05e-05	0	43	102	1048576	20	4082
2026-01-05 09:18:15.06	109.03	22.74	-29.4	-30.4	13.4	1.83e-05	0	43	102	1048576	20	3997
2026-01-05 09:18:16.05	108.87	22.85	-29.6	-30.7	13.1	1.98e-05	0	43	102	1048576	20	4097
2026-01-05 09:18:17.06	108.70	22.97	-29.5	-30.6	13.2	3.12e-05	0	43	102	1048576	20	4064
2026-01-05 09:18:18.07	108.53	23.09	-29.3	-30.0	13.6	8.30e-06	0	43	102	1048576	20	3892
2026-01-05 09:18:19.08	108.36	23.21	-29.3	-30.6	13.5	1.22e-05	0	43	102	1048576	19	4169
2026-01-05 09:18:20.09	108.19	23.33	-29.3	-30.5	13.5	1.29e-05	0	43	102	1048576	19	4143
2026-01-05 09:18:21.10	108.02	23.46	-29.5	-31.1	13.2	1.29e-05	0	43	102	1048576	19	4329
2026-01-05 09:18:22.11	107.85	23.58	-29.5	-31.1	13.2	1.60e-05	0	43	102	1048576	19	4320
2026-01-05 09:18:23.12	107.68	23.70	-29.4	-30.9	13.3	2.74e-05	0	43	102	1048576	19	4273
2026-01-05 09:18:24.12	107.50	23.82	-29.2	-30.4	13.7	1.52e-05	0	43	102	1048576	19	4109
2026-01-05 09:18:25.13	107.33	23.94	-29.3	-30.4	13.6	5.30e-06	0	43	102	1048576	19	4115
2026-01-05 09:18:26.14	107.15	24.06	-29.5	-31.1	13.2	1.98e-05	0	43	102	1048576	19	4329
2026-01-05 09:18:27.15	106.97	24.18	-29.3	-30.6	13.5	1.14e-05	0	43	102	1048576	19	4169
2026-01-05 09:18:28.15	106.79	24.30	-29.6	-31.2	13.1	2.59e-05	0	43	102	1048576	19	4351
2026-01-05 09:18:29.16	106.61	24.43	-29.7	-31.7	12.8	3.50e-05	0	43	102	1048576	19	4521
2026-01-05 09:18:30.16	106.42	24.55	-29.7	-31.6	12.8	6.02e-05	0	43	102	1048576	19	4488
2026-01-05 09:18:31.18	106.24	24.67	-29.8	-31.8	12.7	4.57e-05	0	43	102	1048576	19	4527
2026-01-05 09:18:32.18	106.05	24.80	-29.8	-31.9	12.7	5.11e-05	0	43	102	1048576	19	4570
2026-01-05 09:18:33.20	105.86	24.92	-29.8	-31.9	12.7	6.63e-05	0	43	102	1048576	19	4577
2026-01-05 09:18:34.20	105.67	25.04	-30.0	-32.1	12.1	9.99e-05	0	43	102	1048576	20	4554
2026-01-05 09:18:35.21	105.48	25.17	-30.5	-33.0	11.2	1.19e-03	0	43	102	1048576	21	4813
2026-01-05 09:18:36.22	105.29	25.29	-30.3	-32.4	11.6	7.99e-04	0	43	102	1048576	21	4575
2026-01-05 09:18:37.22	105.10	25.42	-30.4	-32.6	11.5	6.03e-04	0	43	102	1048576	21	4660
2026-01-05 09:18:38.23	104.90	25.54	-30.2	-32.2	11.7	4.58e-04	0	43	102	1048576	21	4523
2026-01-05 09:18:39.23	104.71	25.67	-30.4	-32.6	11.5	4.83e-04	0	43	102	1048576	21	4671
2026-01-05 09:18:40.25	104.51	25.79	-30.6	-33.3	11.0	1.12e-03	0	43	102	1048576	21	4920
2026-01-05 09:18:41.26	104.31	25.92	-30.5	-33.1	11.1	1.15e-03	0	43	102	1048576	21	4846
2026-01-05 09:18:42.26	104.11	26.04	-30.6	-33.5	10.8	2.16e-03	0	43	102	1048576	21	5004
2026-01-05 09:18:43.27	103.90	26.17	-30.9	-34.2	10.3	4.58e-03	0	43	102	1048576	21	5320
2026-01-05 09:18:44.28	103.70	26.29	-30.8	-34.1	10.3	6.18e-03	0	43	102	1048576	21	5271
2026-01-05 09:18:45.28	103.49	26.42	-30.9	-34.5	10.1	4.10e-03	0	43	102	1048576	21	5415
2026-01-05 09:18:46.29	103.28	26.55	-31.1	-34.7	9.5	6.80e-03	0	43	102	1048576	22	5448
2026-01-05 09:18:47.30	103.07	26.67	-31.3	-35.2	9.2	1.71e-02	0	43	102	1048576	22	5676
2026-01-05 09:18:48.31	102.86	26.80	-31.0	-34.3	9.9	1.34e-02	0	43	102	1048576	22	5258
2026-01-05 09:18:49.32	102.65	26.93	-30.9	-34.1	10.0	9.43e-03	0	43	102	1048576	22	5200
2026-01-05 09:18:50.31	102.43	27.05	-30.5	-32.7	11.0	5.98e-03	0	43	102	1048576	22	4640
2026-01-05 09:18:51.31	102.22	27.18	-30.4	-32.4	11.3	2.70e-03	0	43	102	1048576	22	4518
2026-01-05 09:18:52.32	102.00	27.30	-30.4	-32.3	11.4	1.11e-03	0	43	102	1048576	22	4481
2026-01-05 09:18:53.33	101.78	27.43	-30.5	-33.1	11.1	1.06e-03	0	43	102	1048576	21	4858
2026-01-05 09:18:54.34	101.56	27.56	-30.3	-32.6	11.5	1.04e-03	0	43	102	1048576	21	4664
2026-01-05 09:18:55.35	101.33	27.69	-30.1	-31.7	12.1	3.56e-04	0	43	102	1048576	21	4364
2026-01-05 09:18:56.36	101.11	27.82	-29.7	-31.1	12.9	6.10e-05	0	43	102	1048576	20	4241
2026-01-05 09:18:57.36	100.88	27.94	-29.6	-31.0	13.1	5.11e-05	0	43	102	1048576	20	4186
2026-01-05 09:18:58.37	100.65	28.07	-29.6	-30.7	13.2	5.95e-05	0	43	102	1048576	20	4107
2026-01-05 09:18:59.37	100.42	28.20	-29.8	-31.4	12.8	9.15e-05	0	43	102	1048576	20	4326
2026-01-05 09:19:00.37	100.19	28.32	-30.1	-32.3	12.1	2.46e-04	0	43	102	1048576	20	4641
2026-01-05 09:19:01.37	99.96	28.45	-30.4	-33.2	11.5	3.68e-04	0	43	102	1048576	20	4976
2026-01-05 09:19:02.38	99.72	28.58	-30.4	-33.0	11.6	6.95e-04	0	43	102	1048576	20	4902
2026-01-05 09:19:03.39	99.48	28.71	-30.2	-32.5	12.1	3.69e-04	0	43	102	1048576	20	4694
2026-01-05 09:19:04.39	99.24	28.83	-30.2	-32.5	11.9	2.00e-04	0	43	102	1048576	20	4707
2026-01-05 09:19:05.40	99.00	28.96	-30.1	-32.2	12.2	1.79e-04	0	43	102	1048576	20	4604
2026-01-05 09:19:06.41	98.75	29.09	-30.3	-32.9	11.7	3.78e-04	0	43	102	1048576	20	4861
2026-01-05 09:19:07.42	98.51	29.22	-30.4	-32.7	11.5	1.02e-03	0	43	102	1048576	21	4695
2026-01-05 09:19:08.42	98.26	29.35	-30.5	-33.0	11.3	9.16e-04	0	43	102	1048576	21	4796
2026-01-05 09:19:09.43	98.01	29.47	-30.6	-33.3	11.1	1.55e-03	0	43	102	1048576	21	4922
2026-01-05 09:19:10.44	97.76	29.60	-30.6	-33.2	11.1	1.33e-03	0	43	102	1048576	21	4869
2026-01-05 09:19:11.44	97.50	29.73	-30.7	-33.8	10.9	1.66e-03	0	43	102	1048576	21	5114
2026-01-05 09:19:12.45	97.25	29.86	-30.9	-34.3	10.3	3.51e-03	0	43	102	1048576	21	5320
2026-01-05 09:19:13.46	96.99	29.99	-30.6	-33.4	11.1	2.27e-03	0	43	102	1048576	21	4941
2026-01-05 09:19:14.47	96.73	30.11	-30.5	-32.9	11.4	9.28e-04	0	43	102	1048576	21	4738
2026-01-05 09:19:15.48	96.46	30.24	-30.2	-32.0	12.1	3.58e-04	0	43	102	1048576	21	4409
2026-01-05 09:19:16.48	96.20	30.37	-30.4	-32.5	11.7	4.39e-04	0	43	102	1048576	21	4605
2026-01-05 09:19:17.49	95.93	30.50	-30.4	-32.6	11.6	5.64e-04	0	43	102	1048576	21	4634
2026-01-05 09:19:18.49	95.67	30.62	-30.6	-33.3	11.2	1.60e-03	0	43	102	1048576	21	4901
2026-01-05 09:19:19.50	95.39	30.75	-30.5	-32.8	11.5	8.45e-04	0	43	102	1048576	21	4724
2026-01-05 09:19:20.51	95.12	30.88	-30.2	-32.1	12.1	2.85e-04	0	43	102	1048576	21	4450
2026-01-05 09:19:21.51	94.85	31.00	-30.4	-32.6	11.7	3.75e-04	0	43	102	1048576	21	4631
2026-01-05 09:19:22.52	94.57	31.13	-30.4	-32.7	11.5	1.12e-03	0	43	102	1048576	21	4666
2026-01-05 09:19:23.53	94.29	31.25	-30.7	-33.5	11.0	1.49e-03	0	43	102	1048576	21	4971
2026-01-05 09:19:24.53	94.01	31.38	-30.7	-33.5	11.0	1.79e-03	0	43	102	1048576	21	4973
2026-01-05 09:19:25.53	93.73	31.50	-30.6	-33.1	11.3	1.02e-03	0	43	102	1048576	21	4838
2026-01-05 09:19:26.54	93.44	31.63	-30.6	-33.3	11.1	1.39e-03	0	43	102	1048576	21	4900
2026-01-05 09:19:27.54	93.15	31.75	-30.7	-33.7	10.9	2.42e-03	0	43	102	1048576	21	5082
2026-01-05 09:19:28.55	92.86	31.88	-30.8	-34.2	10.4	5.71e-03	0	43	102	1048576	21	5275
2026-01-05 09:19:29.55	92.57	32.00	-30.9	-34.4	10.2	6.51e-03	0	43	102	1048576	21	5403
2026-01-05 09:19:30.56	92.27	32.13	-31.1	-34.7	9.6	7.34e-03	0	43	102	1048576	22	5435
2026-01-05 09:19:31.56	91.98	32.25	-30.8	-33.6	10.5	3.78e-03	0	43	102	1048576	22	4971
2026-01-05 09:19:32.57	91.68	32.37	-30.8	-33.6	10.5	3.94e-03	0	43	102	1048576	22	4969
2026-01-05 09:19:33.58	91.37	32.50	-30.9	-34.0	10.1	6.75e-03	0	43	102	1048576	22	5149
2026-01-05 09:19:34.59	91.07	32.62	-31.1	-34.7	9.6	9.03e-03	0	43	102	1048576	22	5465
2026-01-05 09:19:35.59	90.77	32.74	-31.2	-35.1	9.3	1.69e-02	0	43	102	1048576	22	5654
2026-01-05 09:19:36.59	90.46	32.86	-31.3	-35.5	9.0	1.76e-02	0	43	102	1048576	22	5856
2026-01-05 09:19:37.60	90.15	32.98	-31.3	-35.5	9.0	2.11e-02	0	43	102	1048576	22	5855
2026-01-05 09:19:38.61	89.83	33.11	-31.3	-35.5	9.1	1.92e-02	0	43	102	1048576	22	5838
2026-01-05 09:19:39.61	89.52	33.22	-31.5	-35.8	8.5	3.34e-02	0	43	102	1048576	23	5872
2026-01-05 09:19:40.62	89.20	33.34	-31.6	-36.3	8.1	6.31e-02	0	43	102	1048576	23	6128
2026-01-05 09:19:41.63	88.88	33.46	-31.7	-36.3	8.1	5.70e-02	0	43	102	1048576	23	6123
2026-01-05 09:19:42.64	88.55	33.58	-31.7	-36.4	8.0	7.15e-02	0	43	102	1048576	23	6191
2026-01-05 09:19:43.64	88.23	33.70	-31.7	-36.5	8.0	4.61e-02	0	43	102	1048576	23	6250
2026-01-05 09:19:44.65	87.90	33.82	-31.7	-36.4	8.0	5.07e-02	0	43	102	1048576	23	6169
2026-01-05 09:19:45.65	87.57	33.93	-31.9	-37.4	7.2	1.00e-01	0	43	102	1048576	23	6782
2026-01-05 09:19:46.66	87.24	34.05	-31.9	-37.2	7.0	1.64e-01	0	43	102	1048576	24	6594
2026-01-05 09:19:47.67	86.90	34.17	-31.8	-36.4	7.7	1.15e-01	0	43	102	1048576	24	6143
2026-01-05 09:19:48.68	86.57	34.28	-31.6	-35.4	8.3	6.71e-02	0	43	102	1048576	24	5601
2026-01-05 09:19:49.69	86.22	34.40	-31.3	-34.3	9.3	2.56e-02	0	43	102	1048576	24	5104
2026-01-05 09:19:50.70	85.88	34.51	-31.1	-34.0	9.9	1.21e-02	0	43	102	1048576	23	5043
2026-01-05 09:19:51.70	85.54	34.62	-31.0	-33.7	10.1	9.81e-03	0	44	102	1048576	23	4901
2026-01-05 09:19:52.72	85.19	34.73	-31.4	-35.1	9.1	1.88e-02	0	43	102	1048576	23	5535
2026-01-05 09:19:53.72	84.84	34.84	-31.6	-35.9	8.5	2.43e-02	0	43	102	1048576	23	5923
2026-01-05 09:19:54.73	84.49	34.95	-31.6	-36.0	8.4	4.18e-02	0	43	102	1048576	23	5977
2026-01-05 09:19:55.74	84.13	35.06	-31.9	-37.2	7.4	1.03e-01	0	43	102	1048576	23	6663
2026-01-05 09:19:56.74	83.78	35.17	-31.9	-37.3	7.5	1.01e-01	0	43	102	1048576	23	6700
2026-01-05 09:19:57.75	83.42	35.28	-31.8	-37.1	7.6	1.15e-01	0	43	102	1048576	23	6580
2026-01-05 09:19:58.76	83.06	35.39	-31.9	-37.3	7.4	1.09e-01	0	43	102	1048576	23	6731
2026-01-05 09:19:59.76	82.70	35.49	-32.0	-37.2	7.1	9.68e-02	0	43	102	1048576	24	6552
2026-01-05 09:20:00.77	82.33	35.60	-32.0	-37.0	7.4	8.53e-02	0	43	102	1048576	24	6372
2026-01-05 09:20:01.77	81.96	35.70	-31.8	-36.3	7.8	1.04e-01	0	43	102	1048576	24	6046
2026-01-05 09:20:02.78	81.59	35.80	-31.7	-35.6	8.3	5.88e-02	0	43	102	1048576	24	5677
2026-01-05 09:20:03.79	81.22	35.90	-31.5	-34.9	8.9	2.88e-02	0	43	102	1048576	24	5351
2026-01-05 09:20:04.79	80.85	36.00	-31.4	-34.6	9.1	2.11e-02	0	43	102	1048576	24	5177
2026-01-05 09:20:05.80	80.47	36.10	-31.3	-34.7	9.5	1.44e-02	0	43	102	1048576	23	5310
2026-01-05 09:20:06.81	80.09	36.20	-31.0	-33.7	10.2	7.58e-03	0	43	102	1048576	23	4873
2026-01-05 09:20:07.81	79.71	36.30	-31.1	-33.9	10.0	5.63e-03	0	43	102	1048576	23	4968
2026-01-05 09:20:08.82	79.32	36.39	-30.9	-33.4	10.3	5.36e-03	0	43	102	1048576	23	4770
2026-01-05 09:20:09.83	78.93	36.49	-30.5	-32.6	11.3	2.04e-03	0	43	102	1048576	22	4558
2026-01-05 09:20:10.83	78.55	36.58	-30.2	-32.2	11.9	9.85e-04	0	43	102	1048576	21	4513
2026-01-05 09:20:11.84	78.16	36.67	-30.3	-32.5	11.7	4.55e-04	0	43	102	1048576	21	4643
2026-01-05 09:20:12.84	77.77	36.76	-30.3	-32.6	11.9	4.96e-04	0	43	102	1048576	21	4674
2026-01-05 09:20:13.85	77.37	36.85	-30.2	-32.3	11.9	4.23e-04	0	43	102	1048576	21	4560
2026-01-05 09:20:14.85	76.97	36.94	-30.3	-32.5	11.7	4.11e-04	0	43	102	1048576	21	4646
2026-01-05 09:20:15.85	76.58	37.03	-30.3	-32.5	11.7	3.16e-04	0	43	102	1048576	21	4623
2026-01-05 09:20:16.86	76.17	37.11	-30.2	-32.3	11.9	3.45e-04	0	43	102	1048576	21	4559
2026-01-05 09:20:17.87	75.77	37.20	-30.1	-32.0	12.1	3.09e-04	0	43	102	1048576	21	4449
2026-01-05 09:20:18.87	75.37	37.28	-30.0	-31.5	12.5	1.88e-04	0	43	102	1048576	21	4283
2026-01-05 09:20:19.88	74.96	37.36	-30.1	-31.6	12.5	6.48e-05	0	43	102	1048576	21	4312
2026-01-05 09:20:20.88	74.55	37.44	-30.0	-31.5	12.6	1.01e-04	0	43	102	1048576	21	4264
2026-01-05 09:20:21.89	74.14	37.52	-30.0	-32.2	12.4	9.61e-05	0	43	102	1048576	20	4595
2026-01-05 09:20:22.90	73.72	37.60	-30.1	-32.4	12.2	1.52e-04	0	43	102	1048576	20	4672
2026-01-05 09:20:23.91	73.30	37.67	-29.9	-31.7	12.7	1.72e-04	0	43	102	1048576	20	4439
2026-01-05 09:20:24.91	72.89	37.75	-29.8	-31.6	12.8	6.94e-05	0	43	102	1048576	20	4391
2026-01-05 09:20:25.92	72.47	37.82	-29.9	-31.6	12.7	6.33e-05	0	43	102	1048576	20	4409
2026-01-05 09:20:26.93	72.04	37.89	-29.9	-31.6	12.7	6.71e-05	0	44	102	1048576	20	4415
2026-01-05 09:20:27.93	71.62	37.96	-29.9	-31.7	12.6	7.32e-05	0	43	102	1048576	20	4456
2026-01-05 09:20:28.94	71.20	38.02	-30.0	-32.1	12.4	1.34e-04	0	43	102	1048576	20	4582
2026-01-05 09:20:29.95	70.77	38.09	-29.3	-30.2	13.6	4.88e-05	0	43	102	1048576	20	3984
2026-01-05 09:20:30.95	70.34	38.15	-28.7	-29.5	14.8	7.00e-07	0	44	102	1048576	18	3930
2026-01-05 09:20:31.96	69.91	38.22	-28.5	-28.9	15.2	4.50e-06	0	44	102	1048576	18	3774
2026-01-05 09:20:32.97	69.48	38.28	-28.6	-29.0	15.2	7.00e-07	0	43	102	1048576	18	3797
2026-01-05 09:20:33.98	69.04	38.34	-28.6	-29.1	15.1	0.00e+00	0	43	102	1048576	18	3819
2026-01-05 09:20:34.98	68.61	38.39	-28.8	-29.6	14.8	6.10e-06	0	43	102	1048576	18	3955
2026-01-05 09:20:35.98	68.18	38.45	-28.9	-29.9	14.6	7.00e-07	0	43	102	1048576	18	4043
2026-01-05 09:20:36.99	67.74	38.50	-29.1	-30.3	14.4	0.00e+00	0	43	102	1048576	18	4135
2026-01-05 09:20:37.99	67.30	38.55	-28.8	-29.7	14.8	3.80e-06	0	43	102	1048576	18	3955
2026-01-05 09:20:39.00	66.86	38.60	-28.8	-29.5	14.9	0.00e+00	0	43	102	1048576	18	3921
2026-01-05 09:20:40.00	66.42	38.65	-29.2	-30.6	14.3	0.00e+00	0	43	102	1048576	18	4224
2026-01-05 09:20:41.01	65.98	38.69	-29.5	-30.9	13.7	3.00e-06	0	43	102	1048576	19	4224
2026-01-05 09:20:42.02	65.53	38.74	-29.8	-31.7	13.2	1.14e-05	0	43	102	1048576	19	4475
2026-01-05 09:20:43.03	65.09	38.78	-29.5	-31.0	13.7	1.06e-05	0	43	102	1048576	19	4236
2026-01-05 09:20:44.03	64.64	38.82	-29.0	-29.6	14.6	1.14e-05	0	43	102	1048576	19	3837
2026-01-05 09:20:45.04	64.19	38.86	-28.5	-28.9	15.3	7.00e-07	0	43	102	1048576	18	3751
2026-01-05 09:20:46.05	63.74	38.89	-28.6	-29.0	15.2	0.00e+00	0	43	102	1048576	18	3773
2026-01-05 09:20:47.05	63.30	38.93	-28.7	-29.3	15.2	5.30e-06	0	43	102	1048576	18	3859
2026-01-05 09:20:48.06	62.84	38.96	-28.9	-29.7	14.8	0.00e+00	0	43	102	1048576	18	3974
2026-01-05 09:20:49.06	62.39	38.99	-28.9	-29.7	14.8	0.00e+00	0	43	102	1048576	18	3969
2026-01-05 09:20:50.07	61.94	39.02	-29.0	-30.0	14.6	5.30e-06	0	44	102	1048576	18	4047
2026-01-05 09:20:51.07	61.49	39.05	-28.9	-29.8	14.7	0.00e+00	0	43	102	1048576	18	3982
2026-01-05 09:20:52.09	61.03	39.07	-28.8	-29.4	15.0	0.00e+00	0	43	102	1048576	18	3891
2026-01-05 09:20:53.10	60.58	39.09	-28.7	-29.4	15.0	3.00e-06	0	43	102	1048576	18	3874
2026-01-05 09:20:54.10	60.12	39.11	-28.8	-29.6	14.8	0.00e+00	0	43	102	1048576	18	3935
2026-01-05 09:20:55.11	59.67	39.13	-28.7	-29.2	15.0	0.00e+00	0	43	102	1048576	18	3837
2026-01-05 09:20:56.12	59.21	39.15	-29.0	-30.0	14.6	0.00e+00	0	43	102	1048576	18	4044
2026-01-05 09:20:57.12	58.76	39.16	-29.6	-31.2	13.6	2.20e-06	0	44	102	1048576	19	4306
2026-01-05 09:20:58.13	58.30	39.17	-29.7	-31.5	13.2	3.12e-05	0	43	102	1048576	19	4409
2026-01-05 09:20:59.14	57.84	39.18	-29.9	-31.5	12.8	6.25e-05	0	44	102	1048576	20	4357
2026-01-05 09:21:00.15	57.38	39.19	-29.9	-31.6	12.8	4.73e-05	0	43	102	1048576	20	4391
2026-01-05 09:21:01.16	56.92	39.20	-30.2	-32.6	12.1	2.10e-04	0	43	102	1048576	20	4732
2026-01-05 09:21:02.16	56.47	39.20	-30.6	-33.2	11.3	8.48e-04	0	43	102	1048576	21	4863
2026-01-05 09:21:03.17	56.01	39.20	-30.5	-32.9	11.6	9.56e-04	0	43	102	1048576	21	4734
2026-01-05 09:21:04.17	55.55	39.20	-30.1	-31.6	12.5	1.36e-04	0	43	102	1048576	21	4283
2026-01-05 09:21:05.18	55.09	39.20	-29.8	-30.8	13.1	3.35e-05	0	43	102	1048576	21	4030
2026-01-05 09:21:06.18	54.64	39.19	-30.0	-31.4	12.5	4.50e-05	0	44	102	1048576	21	4217
2026-01-05 09:21:07.18	54.18	39.19	-30.3	-32.2	12.1	5.95e-05	0	43	102	1048576	21	4495
2026-01-05 09:21:08.18	53.73	39.18	-30.2	-32.0	12.2	2.35e-04	0	43	102	1048576	21	4433
2026-01-05 09:21:09.19	53.27	39.17	-30.3	-32.3	12.0	2.74e-04	0	43	102	1048576	21	4510
2026-01-05 09:21:10.20	52.81	39.15	-30.2	-31.9	12.3	1.77e-04	0	43	102	1048576	21	4383
2026-01-05 09:21:11.21	52.36	39.14	-30.1	-31.6	12.5	1.04e-04	0	43	102	1048576	21	4286
2026-01-05 09:21:12.21	51.90	39.12	-30.3	-32.4	12.0	1.68e-04	0	43	102	1048576	21	4572
2026-01-05 09:21:13.22	51.45	39.10	-30.7	-33.5	11.1	5.32e-04	0	43	102	1048576	21	4959
2026-01-05 09:21:14.23	50.99	39.08	-30.8	-34.0	10.9	1.65e-03	0	44	102	1048576	21	5181
2026-01-05 09:21:15.23	50.54	39.06	-30.9	-33.7	10.6	4.01e-03	0	43	102	1048576	22	4952
2026-01-05 09:21:16.23	50.09	39.03	-31.0	-34.0	10.5	4.24e-03	0	44	102	1048576	22	5098
2026-01-05 09:21:17.24	49.64	39.01	-30.5	-32.6	11.4	3.65e-03	0	43	102	1048576	22	4562
2026-01-05 09:21:18.25	49.18	38.98	-30.7	-33.2	11.0	1.89e-03	0	43	102	1048576	22	4796
2026-01-05 09:21:19.26	48.73	38.95	-31.0	-34.1	10.4	2.97e-03	0	44	102	1048576	22	5140
2026-01-05 09:21:20.26	48.29	38.91	-31.1	-34.7	9.8	5.19e-03	0	43	102	1048576	22	5449
2026-01-05 09:21:21.27	47.83	38.88	-31.1	-34.7	9.9	1.62e-02	0	43	102	1048576	22	5424
2026-01-05 09:21:22.27	47.39	38.84	-31.2	-35.2	9.4	1.03e-02	0	43	102	1048576	22	5675
2026-01-05 09:21:23.28	46.94	38.80	-31.0	-34.2	10.2	9.53e-03	0	43	102	1048576	22	5226
2026-01-05 09:21:24.28	46.50	38.76	-31.1	-34.5	10.0	8.71e-03	0	43	102	1048576	22	5347
2026-01-05 09:21:25.29	46.05	38.72	-30.9	-34.0	10.5	8.81e-03	0	43	102	1048576	22	5115
2026-01-05 09:21:26.30	45.61	38.67	-31.1	-34.5	9.9	1.58e-02	0	43	102	1048576	22	5350
2026-01-05 09:21:27.31	45.16	38.62	-31.0	-34.3	10.1	1.40e-02	0	43	102	1048576	22	5284
2026-01-05 09:21:28.32	44.72	38.58	-30.8	-33.9	10.5	4.73e-03	0	44	102	1048576	22	5098
2026-01-05 09:21:29.33	44.28	38.53	-30.7	-33.5	10.6	3.08e-03	0	43	102	1048576	22	4955
2026-01-05 09:21:30.34	43.84	38.47	-31.1	-35.0	9.5	3.34e-03	0	44	102	1048576	22	5653
2026-01-05 09:21:31.34	43.41	38.42	-31.3	-35.6	9.1	2.23e-02	0	43	102	1048576	22	5905
2026-01-05 09:21:32.34	42.98	38.36	-31.5	-36.7	8.2	4.79e-02	0	44	102	1048576	22	6523
2026-01-05 09:21:33.35	42.54	38.31	-31.5	-36.3	8.1	9.16e-02	0	43	102	1048576	23	6224
2026-01-05 09:21:34.36	42.11	38.25	-31.7	-37.2	7.3	1.34e-01	0	44	102	1048576	23	6801
2026-01-05 09:21:35.36	41.68	38.19	-31.1	-34.6	9.2	5.40e-02	0	44	102	1048576	23	5405
2026-01-05 09:21:36.37	41.25	38.12	-30.5	-32.7	11.1	8.19e-03	0	43	102	1048576	22	4680
2026-01-05 09:21:37.38	40.82	38.06	-30.1	-31.9	12.1	3.09e-04	0	43	102	1048576	21	4457
2026-01-05 09:21:38.39	40.40	37.99	-30.3	-32.7	11.6	2.62e-04	0	43	102	1048576	21	4728
2026-01-05 09:21:39.39	39.98	37.92	-30.5	-33.2	11.3	8.83e-04	0	43	102	1048576	21	4935
2026-01-05 09:21:40.40	39.55	37.85	-30.6	-33.6	10.8	1.57e-03	0	43	102	1048576	21	5107
2026-01-05 09:21:41.41	39.13	37.78	-30.5	-33.2	11.0	1.16e-03	0	43	102	1048576	21	4912
2026-01-05 09:21:42.42	38.71	37.71	-30.5	-33.2	11.1	2.06e-03	0	43	102	1048576	21	4881
2026-01-05 09:21:43.42	38.30	37.64	-30.0	-31.5	12.4	8.37e-04	0	43	102	1048576	21	4272
2026-01-05 09:21:44.43	37.88	37.56	-29.4	-30.3	13.5	1.75e-05	0	43	102	1048576	20	3984
2026-01-05 09:21:45.44	37.47	37.48	-29.3	-30.4	13.9	7.00e-07	0	44	102	1048576	19	4095
2026-01-05 09:21:46.44	37.06	37.40	-29.1	-30.0	14.2	7.00e-07	0	43	102	1048576	19	3958
2026-01-05 09:21:47.45	36.65	37.32	-29.0	-29.7	14.4	0.00e+00	0	43	102	1048576	19	3882
2026-01-05 09:21:48.46	36.25	37.24	-28.9	-29.4	14.5	0.00e+00	0	43	102	1048576	19	3806
2026-01-05 09:21:49.46	35.84	37.16	-28.9	-29.5	14.5	0.00e+00	0	43	102	1048576	19	3829
2026-01-05 09:21:50.47	35.44	37.07	-29.1	-29.8	14.2	1.50e-06	0	43	102	1048576	19	3933
2026-01-05 09:21:51.47	35.04	36.99	-29.2	-30.1	14.0	1.50e-06	0	44	102	1048576	19	4012
2026-01-05 09:21:52.47	34.65	36.90	-29.4	-30.7	13.7	2.20e-06	0	44	102	1048576	19	4183
2026-01-05 09:21:53.48	34.25	36.81	-29.4	-30.7	13.7	8.30e-06	0	43	102	1048576	19	4179
2026-01-05 09:21:54.48	33.86	36.72	-29.0	-29.6	14.3	0.00e+00	0	44	102	1048576	19	3868
2026-01-05 09:21:55.49	33.47	36.63	-28.7	-29.4	14.8	0.00e+00	0	43	102	1048576	18	3882
2026-01-05 09:21:56.50	33.08	36.54	-28.7	-29.5	14.8	7.00e-07	0	44	102	1048576	18	3923
2026-01-05 09:21:57.50	32.69	36.44	-29.4	-31.2	13.7	7.00e-07	0	44	102	1048576	18	4430
2026-01-05 09:21:58.50	32.31	36.35	-30.0	-32.0	12.4	9.46e-05	0	43	102	1048576	20	4526
2026-01-05 09:21:59.51	31.93	36.25	-30.2	-32.5	12.0	4.38e-04	0	43	102	1048576	20	4729
2026-01-05 09:22:00.51	31.55	36.16	-30.0	-32.0	12.3	2.09e-04	0	43	102	1048576	20	4546
2026-01-05 09:22:01.52	31.17	36.06	-29.8	-31.3	12.9	5.03e-05	0	43	102	1048576	20	4298
2026-01-05 09:22:02.53	30.80	35.96	-29.9	-31.5	12.7	4.04e-05	0	43	102	1048576	20	4357
2026-01-05 09:22:03.53	30.43	35.86	-29.5	-30.5	13.4	4.11e-05	0	43	102	1048576	20	4049
2026-01-05 09:22:04.54	30.05	35.76	-29.2	-30.2	14.0	1.50e-06	0	43	102	1048576	19	4035
2026-01-05 09:22:05.55	29.68	35.65	-29.4	-30.6	13.8	2.20e-06	0	43	102	1048576	19	4134
2026-01-05 09:22:06.56	29.32	35.55	-29.5	-31.0	13.5	7.60e-06	0	44	102	1048576	19	4273
2026-01-05 09:22:07.56	28.96	35.44	-29.6	-31.3	13.2	2.28e-05	0	44	102	1048576	19	4369
2026-01-05 09:22:08.56	28.60	35.34	-29.6	-31.1	13.4	8.30e-06	0	44	102	1048576	19	4308
2026-01-05 09:22:09.57	28.24	35.23	-29.6	-31.3	13.3	9.10e-06	0	43	102	1048576	19	4361
2026-01-05 09:22:10.58	27.88	35.13	-29.9	-31.7	12.6	5.03e-05	0	43	102	1048576	20	4408
2026-01-05 09:22:11.59	27.52	35.02	-29.9	-31.4	12.8	1.19e-04	0	43	102	1048576	20	4319
2026-01-05 09:22:12.59	27.17	34.91	-29.5	-30.3	13.6	1.37e-05	0	44	102	1048576	20	3979
2026-01-05 09:22:13.60	26.82	34.80	-29.1	-29.8	14.3	3.00e-06	0	43	102	1048576	19	3899
2026-01-05 09:22:14.61	26.48	34.69	-29.0	-29.4	14.6	7.00e-07	0	43	102	1048576	19	3808
2026-01-05 09:22:15.62	26.13	34.57	-29.4	-30.7	13.8	3.00e-06	0	43	102	1048576	19	4152
2026-01-05 09:22:16.63	25.79	34.46	-30.0	-31.8	12.7	6.80e-06	0	43	102	1048576	20	4425
2026-01-05 09:22:17.64	25.45	34.35	-30.2	-32.4	12.2	2.55e-04	0	43	102	1048576	20	4645
2026-01-05 09:22:18.64	25.11	34.23	-30.2	-32.3	12.2	1.85e-04	0	43	102	1048576	20	4609
2026-01-05 09:22:19.65	24.78	34.12	-30.2	-32.3	12.3	1.66e-04	0	43	102	1048576	20	4581
2026-01-05 09:22:20.65	24.44	34.00	-30.2	-32.3	12.3	1.75e-04	0	43	102	1048576	20	4602
2026-01-05 09:22:21.66	24.11	33.89	-30.3	-32.8	12.0	4.96e-04	0	43	102	1048576	20	4779
2026-01-05 09:22:22.66	23.79	33.77	-30.2	-32.4	12.2	3.05e-04	0	43	102	1048576	20	4629
2026-01-05 09:22:23.67	23.46	33.65	-30.2	-32.3	12.2	3.29e-04	0	43	102	1048576	20	4609
2026-01-05 09:22:24.67	23.14	33.54	-30.5	-32.8	11.5	4.32e-04	0	43	102	1048576	21	4695
2026-01-05 09:22:25.68	22.82	33.42	-30.7	-33.5	11.0	1.33e-03	0	44	102	1048576	21	4969
2026-01-05 09:22:26.69	22.50	33.30	-30.6	-33.2	11.2	1.31e-03	0	44	102	1048576	21	4856
2026-01-05 09:22:27.69	22.18	33.18	-30.5	-32.7	11.6	1.16e-03	0	44	102	1048576	21	4660
2026-01-05 09:22:28.70	21.87	33.06	-30.7	-33.5	11.1	9.40e-04	0	43	102	1048576	21	4947
2026-01-05 09:22:29.71	21.56	32.94	-30.9	-33.7	10.6	4.22e-03	0	43	102	1048576	22	4927
2026-01-05 09:22:30.72	21.25	32.82	-31.2	-34.4	10.1	4.98e-03	0	43	102	1048576	22	5214
2026-01-05 09:22:31.72	20.94	32.70	-31.0	-33.8	10.5	7.84e-03	0	43	102	1048576	22	4972
2026-01-05 09:22:32.73	20.64	32.58	-30.8	-33.2	11.0	1.83e-03	0	44	102	1048576	22	4768
2026-01-05 09:22:33.73	20.34	32.45	-30.6	-32.7	11.3	1.40e-03	0	43	102	1048576	22	4578
2026-01-05 09:22:34.74	20.04	32.33	-30.8	-33.2	10.8	2.52e-03	0	43	102	1048576	22	4762
2026-01-05 09:22:35.75	19.74	32.21	-31.2	-34.8	9.7	6.64e-03	0	44	102	1048576	22	5451
2026-01-05 09:22:36.76	19.44	32.08	-31.3	-35.1	9.5	1.29e-02	0	44	102	1048576	22	5566
2026-01-05 09:22:37.77	19.15	31.96	-31.0	-33.8	10.4	8.73e-03	0	43	102	1048576	22	4985
2026-01-05 09:22:38.78	18.86	31.83	-30.8	-33.3	10.9	2.18e-03	0	43	102	1048576	22	4786
2026-01-05 09:22:39.78	18.57	31.71	-30.9	-33.3	10.9	1.70e-03	0	43	102	1048576	22	4777
2026-01-05 09:22:40.79	18.28	31.59	-30.7	-32.9	11.2	1.66e-03	0	43	102	1048576	22	4617
2026-01-05 09:22:41.80	18.00	31.46	-30.5	-32.3	11.6	6.90e-04	0	43	102	1048576	22	4408
2026-01-05 09:22:42.81	17.71	31.34	-29.9	-31.2	12.7	3.26e-04	0	43	102	1048576	21	4137
2026-01-05 09:22:43.81	17.44	31.21	-29.9	-31.0	12.8	8.85e-05	0	44	102	1048576	21	4087
2026-01-05 09:22:44.82	17.16	31.08	-29.9	-30.9	12.8	6.56e-05	0	43	102	1048576	21	4049
2026-01-05 09:22:45.83	16.88	30.96	-30.1	-31.7	12.3	6.63e-05	0	43	102	1048576	21	4305
2026-01-05 09:22:46.84	16.61	30.83	-30.1	-31.7	12.2	1.77e-04	0	43	102	1048576	21	4321
2026-01-05 09:22:47.84	16.34	30.71	-30.3	-32.2	12.0	4.01e-04	0	43	102	1048576	21	4472
2026-01-05 09:22:48.84	16.07	30.58	-30.6	-33.1	11.4	5.69e-04	0	43	102	1048576	21	4796
2026-01-05 09:22:49.85	15.80	30.45	-30.9	-34.3	10.4	2.01e-03	0	43	102	1048576	21	5289
2026-01-05 09:22:50.86	15.54	30.33	-31.3	-35.0	9.6	1.20e-02	0	43	102	1048576	22	5514
2026-01-05 09:22:51.87	15.28	30.20	-31.6	-35.7	8.6	2.46e-02	0	43	102	1048576	23	5764
2026-01-05 09:22:52.87	15.02	30.07	-31.2	-34.4	9.4	3.11e-02	0	44	102	1048576	23	5168
2026-01-05 09:22:53.88	14.76	29.95	-31.3	-34.5	9.5	2.27e-02	0	43	102	1048576	23	5223
2026-01-05 09:22:54.89	14.50	29.82	-31.2	-34.3	9.6	1.39e-02	0	43	102	1048576	23	5101
2026-01-05 09:22:55.89	14.25	29.69	-31.2	-34.1	9.9	9.45e-03	0	44	102	1048576	23	5032
2026-01-05 09:22:56.90	14.00	29.56	-31.4	-34.9	9.3	1.44e-02	0	43	102	1048576	23	5400
2026-01-05 09:22:57.91	13.74	29.44	-31.1	-33.7	10.1	1.22e-02	0	43	102	1048576	23	4882
2026-01-05 09:22:58.91	13.50	29.31	-30.8	-32.9	10.6	7.58e-03	0	43	102	1048576	23	4591
2026-01-05 09:22:59.92	13.25	29.18	-30.4	-32.1	11.6	2.21e-03	0	43	102	1048576	22	4386
2026-01-05 09:23:00.93	13.01	29.05	-30.2	-32.0	12.1	4.93e-04	0	43	102	1048576	21	4434
2026-01-05 09:23:01.93	12.76	28.93	-30.3	-32.2	11.8	2.64e-04	0	43	102	1048576	21	4491
2026-01-05 09:23:02.93	12.53	28.80	-30.5	-33.0	11.3	7.26e-04	0	43	102	1048576	21	4783
2026-01-05 09:23:03.93	12.29	28.67	-30.3	-32.2	11.8	4.39e-04	0	44	102	1048576	21	4515
2026-01-05 09:23:04.93	12.05	28.55	-30.2	-32.0	12.0	4.26e-04	0	43	102	1048576	21	4416
2026-01-05 09:23:05.94	11.82	28.42	-30.0	-31.3	12.5	2.18e-04	0	43	102	1048576	21	4199
2026-01-05 09:23:06.94	11.59	28.29	-29.7	-31.0	13.0	5.79e-05	0	43	102	1048576	20	4167
2026-01-05 09:23:07.94	11.36	28.17	-29.6	-30.6	13.2	1.52e-05	0	44	102	1048576	20	4062
2026-01-05 09:23:08.95	11.13	28.04	-29.8	-31.4	12.9	2.67e-05	0	43	102	1048576	20	4305
2026-01-05 09:23:09.96	10.90	27.91	-29.8	-31.2	12.9	4.34e-05	0	43	102	1048576	20	4260
2026-01-05 09:23:10.97	10.67	27.79	-29.8	-31.3	12.8	5.64e-05	0	44	102	1048576	20	4278
2026-01-05 09:23:11.98	10.45	27.66	-29.9	-31.7	12.5	7.47e-05	0	44	102	1048576	20	4401
2026-01-05 09:23:12.98	10.23	27.53	-30.0	-32.0	12.3	8.85e-05	0	44	102	1048576	20	4495
2026-01-05 09:23:13.99	10.01	27.41	-29.9	-31.5	12.6	1.27e-04	0	43	102	1048576	20	4359
2026-01-05 09:23:14.99	9.79	27.28	-29.8	-31.4	12.7	4.95e-05	0	43	102	1048576	20	4325
2026-01-05 09:23:15.99	9.58	27.15	-29.8	-31.4	12.7	7.24e-05	0	43	102	1048576	20	4301
2026-01-05 09:23:17.00	9.36	27.03	-30.0	-32.0	12.4	1.27e-04	0	43	102	1048576	20	4486
2026-01-05 09:23:18.01	9.15	26.90	-29.6	-30.6	13.2	6.94e-05	0	43	102	1048576	20	4058
2026-01-05 09:23:19.01	8.94	26.78	-29.6	-30.6	13.3	1.37e-05	0	43	102	1048576	20	4055
2026-01-05 09:23:20.02	8.73	26.65	-29.6	-30.7	13.2	2.59e-05	0	43	102	1048576	20	4097
2026-01-05 09:23:21.03	8.52	26.52	-29.4	-30.2	13.6	8.30e-06	0	43	102	1048576	20	3944
2026-01-05 09:23:22.04	8.31	26.40	-29.4	-30.7	13.5	6.80e-06	0	43	102	1048576	19	4183
2026-01-05 09:23:23.04	8.11	26.27	-29.5	-30.9	13.5	1.37e-05	0	44	102	1048576	19	4243
2026-01-05 09:23:24.05	7.90	26.15	-29.7	-31.5	13.1	2.13e-05	0	44	102	1048576	19	4405
2026-01-05 09:23:25.06	7.70	26.02	-29.5	-30.8	13.5	1.60e-05	0	44	102	1048576	19	4202
2026-01-05 09:23:26.06	7.50	25.90	-29.4	-30.7	13.6	4.50e-06	0	44	102	1048576	19	4166
2026-01-05 09:23:27.06	7.31	25.77	-29.4	-30.6	13.5	1.29e-05	0	43	102	1048576	19	4160
2026-01-05 09:23:28.07	7.11	25.65	-29.7	-31.6	13.0	1.14e-05	0	43	102	1048576	19	4448
2026-01-05 09:23:29.07	6.92	25.53	-29.6	-31.3	13.1	2.28e-05	0	43	102	1048576	19	4369
2026-01-05 09:23:30.08	6.72	25.40	-29.9	-32.0	12.7	3.20e-05	0	44	102	1048576	19	4587
2026-01-05 09:23:31.09	6.53	25.28	-30.1	-32.3	12.1	2.82e-04	0	43	102	1048576	20	4625
2026-01-05 09:23:32.10	6.34	25.15	-30.2	-32.6	11.9	4.26e-04	0	43	102	1048576	20	4738
2026-01-05 09:23:33.10	6.15	25.03	-30.3	-32.9	11.6	6.45e-04	0	43	102	1048576	20	4872
2026-01-05 09:23:34.11	5.96	24.91	-30.7	-33.5	10.8	1.25e-03	0	43	102	1048576	21	4984
2026-01-05 09:23:35.12	5.78	24.78	-30.7	-33.7	10.7	2.61e-03	0	44	102	1048576	21	5062
2026-01-05 09:23:36.12	5.59	24.66	-30.4	-32.7	11.3	1.89e-03	0	43	102	1048576	21	4685
2026-01-05 09:23:37.14	5.41	24.54	-30.6	-33.2	11.0	2.11e-03	0	43	102	1048576	21	4889
2026-01-05 09:23:38.14	5.23	24.42	-30.6	-33.4	11.0	2.17e-03	0	43	102	1048576	21	4953
2026-01-05 09:23:39.15	5.05	24.30	-30.7	-33.6	10.8	2.51e-03	0	43	102	1048576	21	5030
2026-01-05 09:23:40.16	4.87	24.17	-30.3	-32.4	11.5	9.22e-04	0	43	102	1048576	21	4571
2026-01-05 09:23:41.17	4.69	24.05	-30.3	-32.4	11.8	5.00e-04	0	43	102	1048576	21	4557
2026-01-05 09:23:42.18	4.51	23.93	-30.0	-31.6	12.2	4.03e-04	0	44	102	1048576	21	4288
2026-01-05 09:23:43.19	4.34	23.81	-29.9	-31.1	12.6	1.88e-04	0	44	102	1048576	21	4123
2026-01-05 09:23:44.20	4.16	23.69	-30.0	-31.3	12.4	1.16e-04	0	43	102	1048576	21	4206
2026-01-05 09:23:45.20	3.99	23.57	-30.0	-31.4	12.3	1.62e-04	0	43	102	1048576	21	4240
2026-01-05 09:23:46.21	3.82	23.45	-29.8	-30.9	12.5	1.91e-04	0	43	102	1048576	21	4085
2026-01-05 09:23:47.22	3.65	23.33	-30.0	-31.4	12.2	1.82e-04	0	43	102	1048576	21	4246
2026-01-05 09:23:48.23	3.48	23.21	-30.4	-32.5	11.5	4.90e-04	0	44	102	1048576	21	4600
2026-01-05 09:23:49.24	3.32	23.09	-30.3	-32.2	11.7	7.24e-04	0	44	102	1048576	21	4498
2026-01-05 09:23:50.24	3.15	22.97	-30.5	-32.8	11.3	1.07e-03	0	44	102	1048576	21	4717
2026-01-05 09:23:51.25	2.99	22.85	-30.4	-32.6	11.5	8.52e-04	0	43	102	1048576	21	4648
2026-01-05 09:23:52.25	2.83	22.74	-30.5	-32.9	11.2	1.35e-03	0	44	102	1048576	21	4753
2026-01-05 09:23:53.26	2.66	22.62	-30.0	-31.5	12.1	5.03e-04	0	43	102	1048576	21	4273
2026-01-05 09:23:54.27	2.50	22.50	-29.9	-31.7	12.4	1.28e-04	0	43	102	1048576	20	4429
2026-01-05 09:23:55.28	2.34	22.38	-29.6	-30.8	13.0	6.48e-05	0	43	102	1048576	20	4143
2026-01-05 09:23:56.29	2.18	22.26	-30.0	-31.8	12.4	5.79e-05	0	44	102	1048576	20	4449
2026-01-05 09:23:57.29	2.03	22.15	-30.2	-32.6	11.7	4.61e-04	0	44	102	1048576	20	4746
2026-01-05 09:23:58.30	1.87	22.03	-30.3	-32.8	11.7	4.23e-04	0	44	102	1048576	20	4795
2026-01-05 09:23:59.30	1.72	21.92	-30.6	-33.3	10.9	8.62e-04	0	44	102	1048576	21	4915
2026-01-05 09:24:00.30	1.57	21.80	-30.7	-33.6	10.7	2.85e-03	0	43	102	1048576	21	5025
2026-01-05 09:24:01.31	1.42	21.69	-30.9	-34.4	10.1	5.47e-03	0	43	102	1048576	21	5389
2026-01-05 09:24:02.31	1.27	21.57	-30.9	-33.8	10.3	7.85e-03	0	43	102	1048576	22	5005
2026-01-05 09:24:03.32	1.12	21.46	-30.9	-33.8	10.2	6.05e-03	0	43	102	1048576	22	5035
2026-01-05 09:24:04.33	0.97	21.34	-30.8	-33.4	10.5	4.26e-03	0	44	102	1048576	22	4875
2026-01-05 09:24:05.33	0.82	21.23	-30.7	-33.1	10.7	3.27e-03	0	44	102	1048576	22	4766
2026-01-05 09:24:06.34	0.67	21.11	-30.7	-33.2	10.7	3.49e-03	0	43	102	1048576	22	4776
2026-01-05 09:24:07.33	0.53	21.00	-30.8	-33.4	10.5	3.41e-03	0	44	102	1048576	22	4863
2026-01-05 09:24:08.34	0.39	20.89	-30.9	-33.7	10.2	7.24e-03	0	43	102	1048576	22	4992
2026-01-05 09:24:09.35	0.24	20.77	-30.6	-32.7	10.9	3.66e-03	0	43	102	1048576	22	4605
2026-01-05 09:24:10.35	0.10	20.66	-30.4	-32.2	11.3	1.09e-03	0	44	102	1048576	22	4408
2026-01-05 09:24:11.36	359.96	20.55	-30.2	-32.1	11.7	6.17e-04	0	43	102	1048576	21	4483
2026-01-05 09:24:12.37	359.82	20.44	-30.3	-32.4	11.5	9.99e-04	0	44	102	1048576	21	4577
2026-01-05 09:24:13.38	359.68	20.33	-30.3	-32.3	11.6	6.40e-04	0	43	102	1048576	21	4544
2026-01-05 09:24:14.38	359.54	20.21	-30.4	-32.7	11.3	1.45e-03	0	44	102	1048576	21	4706
2026-01-05 09:24:15.39	359.41	20.10	-30.4	-32.6	11.4	1.21e-03	0	43	102	1048576	21	4650
2026-01-05 09:24:16.39	359.27	19.99	-30.2	-32.1	11.7	6.48e-04	0	44	102	1048576	21	4492
2026-01-05 09:24:17.40	359.14	19.88	-30.2	-32.0	11.8	4.36e-04	0	43	102	1048576	21	4443
2026-01-05 09:24:18.40	359.00	19.77	-30.3	-32.4	11.5	6.78e-04	0	43	102	1048576	21	4589
2026-01-05 09:24:19.41	358.87	19.66	-30.3	-32.6	11.5	8.96e-04	0	43	102	1048576	21	4641
2026-01-05 09:24:20.42	358.74	19.55	-30.3	-32.4	11.4	7.24e-04	0	44	102	1048576	21	4596
2026-01-05 09:24:21.43	358.61	19.44	-30.3	-32.4	11.5	7.02e-04	0	43	102	1048576	21	4601
2026-01-05 09:24:22.44	358.48	19.33	-30.1	-31.9	11.8	7.70e-04	0	44	102	1048576	21	4406
2026-01-05 09:24:23.44	358.35	19.23	-29.9	-31.1	12.3	2.33e-04	0	43	102	1048576	21	4168
2026-01-05 09:24:24.44	358.22	19.12	-29.7	-31.2	12.6	9.84e-05	0	43	102	1048576	20	4274
2026-01-05 09:24:25.45	358.09	19.01	-29.6	-31.0	12.7	5.56e-05	0	43	102	1048576	20	4220
2026-01-05 09:24:26.46	357.97	18.90	-29.7	-31.2	12.6	7.01e-05	0	43	102	1048576	20	4268
2026-01-05 09:24:27.47	357.84	18.80	-29.8	-31.6	12.3	1.57e-04	0	43	102	1048576	20	4397
2026-01-05 09:24:28.48	357.72	18.69	-30.0	-32.1	12.1	1.33e-04	0	43	102	1048576	20	4569
2026-01-05 09:24:29.49	357.59	18.58	-30.1	-32.4	11.7	4.78e-04	0	43	102	1048576	20	4698
2026-01-05 09:24:30.49	357.47	18.48	-30.3	-33.1	11.3	7.93e-04	0	43	102	1048576	20	4954
2026-01-05 09:24:31.49	357.35	18.37	-30.4	-32.7	11.2	2.09e-03	0	43	102	1048576	21	4688
2026-01-05 09:24:32.50	357.23	18.26	-30.3	-32.5	11.3	1.31e-03	0	44	102	1048576	21	4657
2026-01-05 09:24:33.51	357.11	18.16	-30.2	-32.2	11.6	6.79e-04	0	43	102	1048576	21	4516
2026-01-05 09:24:34.51	356.99	18.05	-30.0	-31.7	11.9	4.31e-04	0	44	102	1048576	21	4353
2026-01-05 09:24:35.52	356.87	17.95	-30.0	-31.5	12.0	3.46e-04	0	43	102	1048576	21	4280
2026-01-05 09:24:36.53	356.76	17.84	-29.9	-31.2	12.2	1.94e-04	0	44	102	1048576	21	4207
2026-01-05 09:24:37.54	356.64	17.74	-29.9	-31.4	12.1	2.33e-04	0	43	102	1048576	21	4252
2026-01-05 09:24:38.54	356.52	17.64	-29.9	-31.2	12.2	2.70e-04	0	44	102	1048576	21	4179
2026-01-05 09:24:39.54	356.41	17.53	-29.8	-31.4	12.4	1.65e-04	0	43	102	1048576	20	4338
2026-01-05 09:24:40.55	356.29	17.43	-29.9	-31.7	12.2	1.87e-04	0	43	102	1048576	20	4452
2026-01-05 09:24:41.56	356.18	17.33	-30.0	-32.0	12.0	2.72e-04	0	43	102	1048576	20	4553
2026-01-05 09:24:42.56	356.07	17.23	-30.0	-32.0	12.0	4.22e-04	0	44	102	1048576	20	4542
2026-01-05 09:24:43.58	355.96	17.12	-30.0	-32.2	11.8	3.82e-04	0	44	102	1048576	20	4625
2026-01-05 09:24:44.59	355.84	17.02	-30.1	-32.4	11.7	4.72e-04	0	43	102	1048576	20	4708
2026-01-05 09:24:45.60	355.73	16.92	-30.2	-32.7	11.5	6.88e-04	0	43	102	1048576	20	4799
2026-01-05 09:24:46.60	355.63	16.82	-30.4	-33.2	11.1	1.43e-03	0	43	102	1048576	20	5012
2026-01-05 09:24:47.61	355.52	16.72	-30.3	-33.2	11.1	1.32e-03	0	43	102	1048576	20	4987
2026-01-05 09:24:48.62	355.41	16.62	-30.5	-33.7	10.8	1.92e-03	0	43	102	1048576	20	5211
2026-01-05 09:24:49.63	355.30	16.52	-30.5	-33.1	10.8	2.80e-03	0	44	102	1048576	21	4881
2026-01-05 09:24:50.63	355.20	16.42	-30.5	-33.3	10.6	3.20e-03	0	44	102	1048576	21	4957
2026-01-05 09:24:51.64	355.09	16.32	-30.6	-33.6	10.3	4.28e-03	0	43	102	1048576	21	5092
2026-01-05 09:24:52.65	354.98	16.22	-30.6	-33.6	10.4	4.32e-03	0	44	102	1048576	21	5070
2026-01-05 09:24:53.64	354.88	16.12	-30.6	-33.5	10.3	4.64e-03	0	43	102	1048576	21	5052
2026-01-05 09:24:54.65	354.78	16.02	-30.5	-33.3	10.6	3.99e-03	0	43	102	1048576	21	4953
2026-01-05 09:24:55.65	354.68	15.92	-30.4	-33.0	10.7	3.71e-03	0	43	102	1048576	21	4856
2026-01-05 09:24:56.65	354.57	15.82	-30.3	-32.7	11.0	2.25e-03	0	44	102	1048576	21	4718
2026-01-05 09:24:57.66	354.47	15.73	-30.1	-32.1	11.4	1.08e-03	0	43	102	1048576	21	4532
2026-01-05 09:24:58.65	354.37	15.63	-30.0	-31.8	11.7	7.20e-04	0	43	102	1048576	21	4395
2026-01-05 09:24:59.65	354.27	15.53	-29.8	-31.2	12.0	3.75e-04	0	44	102	1048576	21	4225
2026-01-05 09:25:00.66	354.17	15.44	-29.7	-31.4	12.3	3.28e-04	0	43	102	1048576	20	4349
2026-01-05 09:25:01.66	354.08	15.34	-29.4	-30.6	12.8	1.04e-04	0	43	102	1048576	20	4097
2026-01-05 09:25:02.67	353.98	15.24	-29.4	-30.4	12.9	5.26e-05	0	43	102	1048576	20	4047
2026-01-05 09:25:03.68	353.88	15.15	-29.4	-30.6	12.8	3.58e-05	0	43	102	1048576	20	4100
2026-01-05 09:25:04.68	353.78	15.05	-29.3	-30.3	13.0	4.57e-05	0	44	102	1048576	20	4032
2026-01-05 09:25:05.69	353.69	14.96	-29.3	-30.1	13.1	3.28e-05	0	43	102	1048576	20	3969
2026-01-05 09:25:06.70	353.59	14.86	-29.5	-31.1	12.9	5.41e-05	0	43	102	1048576	19	4333
2026-01-05 09:25:07.70	353.50	14.77	-29.4	-30.8	13.0	3.96e-05	0	44	102	1048576	19	4264
2026-01-05 09:25:08.71	353.40	14.67	-29.5	-31.2	12.8	4.19e-05	0	44	102	1048576	19	4377
2026-01-05 09:25:09.72	353.31	14.58	-29.5	-31.3	12.7	6.56e-05	0	43	102	1048576	19	4405
2026-01-05 09:25:10.73	353.21	14.48	-29.5	-31.3	12.7	8.16e-05	0	43	102	1048576	19	4406
2026-01-05 09:25:11.74	353.12	14.39	-29.6	-31.4	12.6	6.71e-05	0	43	102	1048576	19	4463
2026-01-05 09:25:12.74	353.03	14.30	-29.6	-31.5	12.5	1.33e-04	0	43	102	1048576	19	4468
2026-01-05 09:25:13.75	352.94	14.20	-29.5	-31.4	12.6	9.15e-05	0	44	102	1048576	19	4437
2026-01-05 09:25:14.76	352.85	14.11	-29.7	-31.7	12.4	1.05e-04	0	44	102	1048576	19	4554
2026-01-05 09:25:15.77	352.76	14.02	-29.6	-31.6	12.4	1.25e-04	0	43	102	1048576	19	4525
2026-01-05 09:25:16.78	352.67	13.92	-29.6	-31.5	12.5	1.24e-04	0	43	102	1048576	19	4481
2026-01-05 09:25:17.78	352.58	13.83	-29.5	-31.2	12.7	9.99e-05	0	43	102	1048576	19	4397
2026-01-05 09:25:18.78	352.49	13.74	-29.7	-31.8	12.3	1.23e-04	0	44	102	1048576	19	4570
2026-01-05 09:25:19.79	352.40	13.65	-29.7	-31.7	12.4	1.56e-04	0	43	102	1048576	19	4562
2026-01-05 09:25:20.80	352.32	13.56	-29.8	-32.0	12.1	1.75e-04	0	44	102	1048576	19	4667
2026-01-05 09:25:21.80	352.23	13.47	-29.9	-32.3	11.9	3.12e-04	0	44	102	1048576	19	4774
2026-01-05 09:25:22.81	352.14	13.38	-29.9	-32.1	11.7	4.68e-04	0	43	102	1048576	20	4622
2026-01-05 09:25:23.81	352.06	13.29	-30.0	-32.3	11.5	7.54e-04	0	44	102	1048576	20	4680
2026-01-05 09:25:24.82	351.97	13.20	-30.1	-32.7	11.2	1.15e-03	0	44	102	1048576	20	4830
2026-01-05 09:25:25.83	351.89	13.11	-30.2	-33.1	10.9	1.49e-03	0	44	102	1048576	20	4984
2026-01-05 09:25:26.83	351.81	13.02	-30.3	-33.2	10.8	2.12e-03	0	44	102	1048576	20	5049
2026-01-05 09:25:27.84	351.72	12.93	-30.4	-33.6	10.5	2.90e-03	0	44	102	1048576	20	5205
2026-01-05 09:25:28.84	351.64	12.84	-30.4	-33.6	10.6	3.84e-03	0	44	102	1048576	20	5188
2026-01-05 09:25:29.85	351.56	12.75	-30.4	-33.7	10.4	4.48e-03	0	43	102	1048576	20	5237
2026-01-05 09:25:30.85	351.48	12.66	-30.5	-33.6	10.3	5.31e-03	0	44	102	1048576	21	5119
2026-01-05 09:25:31.86	351.39	12.57	-30.4	-33.3	10.4	5.25e-03	0	44	102	1048576	21	4982
2026-01-05 09:25:32.86	351.31	12.49	-30.5	-33.5	10.3	5.32e-03	0	44	102	1048576	21	5066
2026-01-05 09:25:33.87	351.23	12.40	-30.5	-33.4	10.3	6.50e-03	0	43	102	1048576	21	5029
2026-01-05 09:25:34.88	351.15	12.31	-30.5	-33.5	10.1	6.14e-03	0	43	102	1048576	21	5082
2026-01-05 09:25:35.89	351.07	12.22	-30.6	-33.8	9.9	6.75e-03	0	44	102	1048576	21	5212
2026-01-05 09:25:36.90	351.00	12.13	-30.5	-33.5	10.2	6.97e-03	0	44	102	1048576	21	5065
2026-01-05 09:25:37.90	350.92	12.05	-30.4	-33.3	10.2	6.22e-03	0	43	102	1048576	21	5015
2026-01-05 09:25:38.90	350.84	11.96	-30.4	-33.3	10.3	5.05e-03	0	44	102	1048576	21	5029
2026-01-05 09:25:39.91	350.76	11.88	-30.6	-33.8	9.9	7.80e-03	0	44	102	1048576	21	5218
2026-01-05 09:25:40.92	350.69	11.79	-30.5	-33.6	10.0	9.46e-03	0	44	102	1048576	21	5151
2026-01-05 09:25:41.92	350.61	11.70	-30.6	-33.9	9.8	8.81e-03	0	44	102	1048576	21	5274
2026-01-05 09:25:42.93	350.53	11.62	-30.6	-34.0	9.8	1.00e-02	0	44	102	1048576	21	5317
2026-01-05 09:25:43.94	350.46	11.53	-30.7	-34.1	9.6	1.20e-02	0	44	102	1048576	21	5368
2026-01-05 09:25:44.94	350.38	11.45	-30.6	-34.1	9.6	1.34e-02	0	43	102	1048576	21	5347
2026-01-05 09:25:45.95	350.31	11.36	-30.7	-34.3	9.5	1.26e-02	0	44	102	1048576	21	5432
2026-01-05 09:25:46.95	350.23	11.28	-30.8	-34.6	9.3	1.75e-02	0	43	102	1048576	21	5584
2026-01-05 09:25:47.96	350.16	11.19	-30.7	-34.3	9.4	1.76e-02	0	44	102	1048576	21	5461
2026-01-05 09:25:48.97	350.09	11.11	-30.6	-33.9	9.8	1.28e-02	0	44	102	1048576	21	5257
2026-01-05 09:25:49.98	350.01	11.03	-30.5	-33.6	10.0	7.91e-03	0	43	102	1048576	21	5129
2026-01-05 09:25:50.98	349.94	10.94	-30.5	-33.6	10.0	6.82e-03	0	44	102	1048576	21	5169
2026-01-05 09:25:51.99	349.87	10.86	-30.4	-33.4	10.1	6.70e-03	0	43	102	1048576	21	5065
2026-01-05 09:25:53.00	349.80	10.78	-30.4	-33.4	10.1	6.68e-03	0	44	102	1048576	21	5056
2026-01-05 09:25:54.00	349.73	10.69	-30.3	-33.0	10.4	5.92e-03	0	44	102	1048576	21	4920
2026-01-05 09:25:55.01	349.66	10.61	-30.3	-33.0	10.4	4.70e-03	0	44	102	1048576	21	4902
2026-01-05 09:25:56.02	349.59	10.53	-30.3	-32.8	10.5	3.59e-03	0	44	102	1048576	21	4825
2026-01-05 09:25:57.03	349.52	10.45	-30.4	-33.2	10.2	4.44e-03	0	43	102	1048576	21	4996
2026-01-05 09:25:58.03	349.45	10.36	-30.3	-32.9	10.4	4.94e-03	0	44	102	1048576	21	4871
2026-01-05 09:25:59.03	349.38	10.28	-30.3	-32.9	10.5	3.86e-03	0	44	102	1048576	21	4864
2026-01-05 09:26:00.04	349.31	10.20	-30.4	-33.4	10.1	5.62e-03	0	43	102	1048576	21	5082
2026-01-05 09:26:01.05	349.24	10.12	-30.3	-33.1	10.2	5.52e-03	0	44	102	1048576	21	4962
2026-01-05 09:26:02.06	349.17	10.04	-30.3	-33.0	10.3	5.37e-03	0	44	102	1048576	21	4919
2026-01-05 09:26:03.06	349.11	9.96	-30.3	-33.1	10.2	5.62e-03	0	44	102	1048576	21	4942
2026-01-05 09:26:04.07	349.04	9.88	-30.4	-33.2	10.1	6.04e-03	0	44	102	1048576	21	5017
2026-01-05 09:26:05.07	348.97	9.80	-30.3	-33.2	10.2	6.77e-03	0	44	102	1048576	21	5000
2026-01-05 09:26:06.08	348.91	9.72	-30.4	-33.3	10.1	6.78e-03	0	44	102	1048576	21	5030
2026-01-05 09:26:07.08	348.84	9.64	-30.5	-33.9	9.6	9.89e-03	0	44	102	1048576	21	5285
2026-01-05 09:26:08.10	348.78	9.56	-30.5	-33.6	9.9	8.80e-03	0	43	102	1048576	21	5148
2026-01-05 09:26:09.10	348.71	9.48	-30.3	-33.2	10.1	7.25e-03	0	43	102	1048576	21	4992
2026-01-05 09:26:10.11	348.65	9.40	-30.4	-33.3	10.0	7.27e-03	0	43	102	1048576	21	5046
2026-01-05 09:26:11.12	348.58	9.32	-30.4	-33.4	10.0	6.80e-03	0	44	102	1048576	21	5078
2026-01-05 09:26:12.12	348.52	9.24	-30.5	-33.8	9.6	1.12e-02	0	44	102	1048576	21	5247
2026-01-05 09:26:13.13	348.45	9.16	-30.4	-33.5	9.9	1.01e-02	0	43	102	1048576	21	5145
2026-01-05 09:26:14.14	348.39	9.08	-30.5	-33.6	9.7	8.60e-03	0	43	102	1048576	21	5195
2026-01-05 09:26:15.14	348.33	9.01	-30.5	-33.9	9.5	1.24e-02	0	44	102	1048576	21	5300
2026-01-05 09:26:16.15	348.27	8.93	-30.4	-33.6	9.8	1.19e-02	0	43	102	1048576	21	5159
2026-01-05 09:26:17.16	348.20	8.85	-30.4	-33.6	9.7	1.27e-02	0	44	102	1048576	21	5166
2026-01-05 09:26:18.16	348.14	8.77	-30.5	-34.0	9.5	1.42e-02	0	44	102	1048576	21	5337
2026-01-05 09:26:19.17	348.08	8.70	-30.5	-33.9	9.5	1.33e-02	0	43	102	1048576	21	5329
2026-01-05 09:26:20.18	348.02	8.62	-30.5	-33.8	9.5	1.18e-02	0	44	102	1048576	21	5273
2026-01-05 09:26:21.19	347.96	8.54	-30.5	-33.8	9.5	1.45e-02	0	43	102	1048576	21	5292
2026-01-05 09:26:22.20	347.90	8.46	-30.5	-33.8	9.5	1.52e-02	0	44	102	1048576	21	5282
2026-01-05 09:26:23.21	347.84	8.39	-30.6	-34.1	9.3	1.69e-02	0	43	102	1048576	21	5405
2026-01-05 09:26:24.21	347.78	8.31	-30.7	-34.5	9.0	2.26e-02	0	44	102	1048576	21	5623
2026-01-05 09:26:25.22	347.72	8.23	-30.7	-34.5	9.0	2.33e-02	0	43	102	1048576	21	5621
2026-01-05 09:26:26.22	347.66	8.16	-30.8	-34.9	8.6	2.79e-02	0	44	102	1048576	21	5795
2026-01-05 09:26:27.23	347.60	8.08	-30.7	-34.9	8.6	3.66e-02	0	44	102	1048576	21	5806
2026-01-05 09:26:28.24	347.54	8.01	-30.8	-35.0	8.6	3.46e-02	0	43	102	1048576	21	5841
2026-01-05 09:26:29.24	347.48	7.93	-30.8	-35.0	8.6	4.66e-02	0	43	102	1048576	21	5848
2026-01-05 09:26:30.25	347.43	7.86	-30.8	-35.2	8.3	5.23e-02	0	44	102	1048576	21	5979
2026-01-05 09:26:31.26	347.37	7.78	-30.8	-35.1	8.5	4.56e-02	0	43	102	1048576	21	5916
2026-01-05 09:26:32.27	347.31	7.71	-30.9	-35.7	8.0	6.61e-02	0	43	102	1048576	21	6226
2026-01-05 09:26:33.28	347.25	7.63	-30.8	-35.1	8.5	4.88e-02	0	43	102	1048576	21	5903
2026-01-05 09:26:34.29	347.20	7.56	-30.7	-34.8	8.6	4.04e-02	0	44	102	1048576	21	5764
2026-01-05 09:26:35.29	347.14	7.48	-30.8	-35.1	8.4	3.91e-02	0	44	102	1048576	21	5912
2026-01-05 09:26:36.29	347.09	7.41	-30.7	-35.0	8.4	4.48e-02	0	43	102	1048576	21	5854
2026-01-05 09:26:37.31	347.03	7.34	-30.8	-35.0	8.4	4.48e-02	0	44	102	1048576	21	5904
2026-01-05 09:26:38.32	346.97	7.26	-30.7	-35.0	8.4	4.36e-02	0	43	102	1048576	21	5914
2026-01-05 09:26:39.32	346.92	7.19	-30.8	-35.3	8.1	5.78e-02	0	43	102	1048576	21	6072
2026-01-05 09:26:40.32	346.86	7.12	-31.2	-36.3	7.4	4.08e-02	0	44	102	1048576	22	6529
2026-01-05 09:26:41.33	346.81	7.04	-32.5	-45.0	3.8	1.49e+00	0	43	104	1048576	24	15178
2026-01-05 09:26:42.32	346.76	6.97	-32.8	-45.3	3.8	1.49e+00	0	43	104	1048576	25	15192
2026-01-05 09:26:43.33	346.70	6.90	-33.0	-45.3	3.9	1.49e+00	0	43	104	1048576	26	14707

#Closed at: 2026-01-05 09:26:43
#Recorded file [1 MB]: D:/data/31010_260105_121528.dat