passes_logs/2026/01/05/R2M6_AANII_01/R2M6_AANII_01__20260105_021323_NOAA_21_JPSS-2_rec.log

#Pass ID: 20260105_021323_NOAA 21 (JPSS-2)
#Satellite: NOAA 21 (JPSS-2)
#Configuration: NOAA 21
#almurnet v.1.7.20240730
#Start time: 2026-01-05 02:15:18

#Version: 2.2.20231116
#Station: R2M6_AANII_01
#Location: 30.233357 lon 59.946436 lat
#TLE: 1 54234U 22150A   26004.22845673  .00000174  00000+0  10347-3 0  9996
#TLE: 2 54234  98.7489 305.2591 0001115 345.0884  15.0259 14.19531906163281

#Time	Az	El	Level	Level2	SNR	BER	BlckErr	Temp	State	Recorded	gain1	gain2
2026-01-05 02:15:18.74	356.84	14.97	-33.2	-44.5	3.8	8.46e-01	0	43	0	0	26	13222
2026-01-05 02:15:19.74	356.69	15.04	-33.7	-45.7	3.8	1.49e+00	0	44	104	0	27	14404
2026-01-05 02:15:20.75	356.53	15.12	-33.8	-45.8	3.8	1.49e+00	0	44	104	0	27	14475
2026-01-05 02:15:21.76	356.37	15.19	-33.8	-45.9	3.8	1.49e+00	0	44	104	0	27	14544
2026-01-05 02:15:22.76	356.22	15.26	-33.8	-45.9	3.8	1.49e+00	0	44	104	0	27	14562
2026-01-05 02:15:23.77	356.06	15.33	-33.8	-45.9	3.8	1.49e+00	0	44	104	0	27	14541
2026-01-05 02:15:24.78	355.90	15.41	-33.8	-46.0	3.8	1.49e+00	0	44	104	0	27	14550
2026-01-05 02:15:25.79	355.74	15.48	-33.9	-46.0	3.8	1.49e+00	0	44	104	0	27	14640
2026-01-05 02:15:26.80	355.57	15.55	-33.9	-46.0	3.8	1.49e+00	0	44	104	0	27	14595
2026-01-05 02:15:27.80	355.41	15.62	-33.9	-46.1	3.8	1.49e+00	0	44	104	0	27	14645
2026-01-05 02:15:28.81	355.25	15.70	-33.9	-46.0	3.8	1.49e+00	0	43	104	0	27	14611
2026-01-05 02:15:29.81	355.09	15.77	-33.9	-46.0	3.8	1.49e+00	0	43	104	0	27	14609
2026-01-05 02:15:30.82	354.92	15.84	-33.9	-46.1	3.8	1.49e+00	0	43	104	0	27	14671
2026-01-05 02:15:31.83	354.75	15.91	-33.9	-46.0	3.8	1.49e+00	0	44	104	0	27	14628
2026-01-05 02:15:32.83	354.59	15.99	-33.9	-46.0	3.8	1.49e+00	0	44	104	0	27	14620
2026-01-05 02:15:33.84	354.42	16.06	-33.9	-46.1	3.8	1.49e+00	0	44	104	0	27	14652
2026-01-05 02:15:34.85	354.25	16.13	-33.9	-46.1	3.8	1.49e+00	0	44	104	0	27	14659
2026-01-05 02:15:35.85	354.08	16.20	-33.9	-46.0	3.8	1.49e+00	0	44	104	0	27	14617
2026-01-05 02:15:36.86	353.91	16.28	-33.9	-46.0	3.8	1.49e+00	0	44	104	0	27	14602
2026-01-05 02:15:37.87	353.74	16.35	-33.9	-46.0	3.8	1.49e+00	0	44	104	0	27	14596
2026-01-05 02:15:38.87	353.57	16.42	-33.9	-46.0	3.8	1.49e+00	0	44	104	0	27	14599
2026-01-05 02:15:39.88	353.40	16.49	-33.8	-46.0	3.8	1.49e+00	0	44	104	0	27	14598
2026-01-05 02:15:40.88	353.23	16.56	-33.8	-46.0	3.8	1.49e+00	0	44	104	0	27	14563
2026-01-05 02:15:41.89	353.05	16.64	-33.8	-45.9	3.8	1.49e+00	0	44	104	0	27	14493
2026-01-05 02:15:42.90	352.88	16.71	-33.8	-45.8	3.8	1.49e+00	0	44	104	0	27	14368
2026-01-05 02:15:43.90	352.70	16.78	-33.7	-45.7	3.8	1.49e+00	0	44	104	0	27	14360
2026-01-05 02:15:44.91	352.53	16.85	-33.7	-45.6	3.8	1.49e+00	0	44	104	0	27	14291
2026-01-05 02:15:45.91	352.35	16.92	-33.6	-45.6	3.8	1.49e+00	0	44	104	0	27	14213
2026-01-05 02:15:46.92	352.17	16.99	-33.6	-45.4	3.8	1.49e+00	0	44	104	0	27	14104
2026-01-05 02:15:47.92	351.99	17.07	-33.5	-45.3	3.8	1.49e+00	0	44	104	0	27	14010
2026-01-05 02:15:48.93	351.81	17.14	-33.4	-44.8	3.8	1.49e+00	0	44	104	0	27	13507
2026-01-05 02:15:49.94	351.63	17.21	-33.2	-44.5	3.8	1.49e+00	0	44	104	0	26	13253
2026-01-05 02:15:50.95	351.45	17.28	-33.1	-44.2	3.8	1.49e+00	0	44	104	0	26	12843
2026-01-05 02:15:51.95	351.27	17.35	-33.1	-44.2	3.8	1.49e+00	0	44	104	0	26	12856
2026-01-05 02:15:52.95	351.09	17.42	-33.2	-44.3	3.8	1.49e+00	0	44	104	0	26	13008
2026-01-05 02:15:53.96	350.90	17.49	-33.2	-44.4	3.8	1.49e+00	0	44	104	0	26	13089
2026-01-05 02:15:54.97	350.71	17.56	-33.2	-44.5	3.8	1.49e+00	0	44	104	0	26	13216
2026-01-05 02:15:55.97	350.53	17.63	-33.2	-44.6	3.8	1.49e+00	0	44	104	0	26	13397
2026-01-05 02:15:56.98	350.34	17.71	-33.2	-44.7	3.8	1.49e+00	0	44	104	0	26	13591
2026-01-05 02:15:57.99	350.15	17.78	-33.2	-44.8	3.8	1.49e+00	0	44	104	0	26	13749
2026-01-05 02:15:58.99	349.97	17.85	-33.2	-44.7	3.8	1.49e+00	0	44	104	0	26	13550
2026-01-05 02:16:00.00	349.78	17.92	-33.2	-44.5	3.8	1.49e+00	0	44	104	0	26	13232
2026-01-05 02:16:01.01	349.58	17.99	-33.1	-44.1	3.8	1.49e+00	0	44	104	0	26	12713
2026-01-05 02:16:02.02	349.39	18.06	-33.1	-43.5	3.8	1.49e+00	0	44	104	0	26	12001
2026-01-05 02:16:03.03	349.20	18.13	-33.0	-42.8	3.9	1.49e+00	0	44	104	0	26	11129
2026-01-05 02:16:04.03	349.01	18.20	-32.8	-41.8	4.2	1.46e+00	0	44	104	0	25	10083
2026-01-05 02:16:05.04	348.81	18.27	-32.7	-41.5	4.0	1.48e+00	0	44	104	0	25	9892
2026-01-05 02:16:06.05	348.62	18.34	-32.7	-40.7	4.5	1.07e+00	0	44	104	0	25	9094
2026-01-05 02:16:07.06	348.42	18.41	-32.8	-42.2	3.9	1.48e+00	0	44	104	0	25	10604
2026-01-05 02:16:08.06	348.23	18.48	-33.1	-43.6	3.8	1.49e+00	0	44	104	0	26	12127
2026-01-05 02:16:09.07	348.03	18.55	-33.2	-45.3	3.8	1.49e+00	0	44	104	0	26	14383
2026-01-05 02:16:10.08	347.83	18.61	-33.0	-43.3	3.8	1.49e+00	0	44	104	0	26	11758
2026-01-05 02:16:11.09	347.63	18.68	-32.4	-38.9	5.2	8.43e-01	0	44	104	0	25	7620
2026-01-05 02:16:12.09	347.43	18.75	-31.5	-35.6	7.6	1.48e-01	0	44	102	1048576	24	5775
2026-01-05 02:16:13.10	347.23	18.82	-30.8	-34.2	9.3	2.54e-02	0	44	102	1048576	22	5352
2026-01-05 02:16:14.11	347.02	18.89	-30.6	-34.2	9.7	1.13e-02	0	43	102	1048576	21	5431
2026-01-05 02:16:15.11	346.82	18.96	-30.8	-34.9	9.1	1.72e-02	0	44	102	1048576	21	5751
2026-01-05 02:16:16.13	346.61	19.02	-30.6	-34.1	9.7	1.38e-02	0	44	102	1048576	21	5404
2026-01-05 02:16:17.14	346.41	19.09	-30.5	-33.9	9.9	8.92e-03	0	44	102	1048576	21	5320
2026-01-05 02:16:18.14	346.20	19.16	-30.4	-33.7	10.1	7.43e-03	0	44	102	1048576	21	5229
2026-01-05 02:16:19.15	346.00	19.23	-30.6	-34.2	9.7	1.02e-02	0	44	102	1048576	21	5441
2026-01-05 02:16:20.16	345.79	19.29	-30.8	-34.8	9.2	2.01e-02	0	44	102	1048576	21	5722
2026-01-05 02:16:21.16	345.58	19.36	-30.4	-33.7	10.0	9.31e-03	0	43	102	1048576	21	5251
2026-01-05 02:16:22.17	345.37	19.43	-30.0	-33.1	10.8	4.08e-03	0	44	102	1048576	20	5128
2026-01-05 02:16:23.18	345.16	19.49	-29.6	-31.8	11.6	1.07e-03	0	44	102	1048576	20	4664
2026-01-05 02:16:24.18	344.95	19.56	-29.2	-31.4	12.3	2.56e-04	0	44	102	1048576	19	4618
2026-01-05 02:16:25.19	344.73	19.63	-29.0	-31.8	11.5	6.71e-05	0	44	102	1048576	17	4965
2026-01-05 02:16:26.19	344.52	19.69	-29.3	-32.1	12.2	2.19e-04	0	44	102	1048576	18	4954
2026-01-05 02:16:27.20	344.31	19.76	-29.1	-31.7	12.3	1.27e-04	0	44	102	1048576	18	4817
2026-01-05 02:16:28.21	344.09	19.82	-29.0	-31.8	12.6	9.30e-05	0	44	102	1048576	17	4983
2026-01-05 02:16:29.21	343.88	19.89	-29.0	-31.3	12.7	7.62e-05	0	44	102	1048576	18	4709
2026-01-05 02:16:30.21	343.66	19.95	-29.0	-31.4	12.7	7.93e-05	0	44	102	1048576	18	4717
2026-01-05 02:16:31.22	343.44	20.01	-28.9	-31.5	12.9	7.24e-05	0	44	102	1048576	17	4882
2026-01-05 02:16:32.23	343.22	20.08	-28.8	-31.3	13.0	5.87e-05	0	44	102	1048576	17	4788
2026-01-05 02:16:33.24	343.00	20.14	-28.3	-30.5	13.8	4.44e-03	0	44	102	1048576	16	4643
2026-01-05 02:16:34.24	342.78	20.21	-27.7	-29.7	14.4	4.16e-03	0	43	102	1048576	15	4538
2026-01-05 02:16:35.25	342.56	20.27	-27.4	-28.9	14.8	7.00e-07	0	44	102	1048576	15	4309
2026-01-05 02:16:36.25	342.34	20.33	-27.2	-29.1	15.0	0.00e+00	0	44	102	1048576	14	4480
2026-01-05 02:16:37.26	342.11	20.40	-27.2	-29.0	15.0	3.86e-03	0	44	102	1048576	14	4452
2026-01-05 02:16:38.27	341.89	20.46	-27.2	-29.1	15.0	0.00e+00	0	44	102	1048576	14	4470
2026-01-05 02:16:39.27	341.66	20.52	-27.2	-29.0	15.0	4.06e-03	0	44	102	1048576	14	4450
2026-01-05 02:16:40.28	341.44	20.58	-27.2	-29.0	15.0	0.00e+00	0	44	102	1048576	14	4453
2026-01-05 02:16:41.28	341.21	20.64	-27.2	-29.0	15.1	0.00e+00	0	44	102	1048576	14	4437
2026-01-05 02:16:42.30	340.98	20.70	-27.1	-28.9	15.1	4.79e-03	0	44	102	1048576	14	4412
2026-01-05 02:16:43.30	340.75	20.76	-27.2	-29.0	15.1	4.52e-03	0	44	102	1048576	14	4450
2026-01-05 02:16:44.31	340.52	20.82	-27.3	-29.3	14.9	1.29e-05	0	44	102	1048576	14	4523
2026-01-05 02:16:45.31	340.29	20.88	-27.3	-29.3	14.9	4.60e-03	0	44	102	1048576	14	4522
2026-01-05 02:16:46.31	340.06	20.94	-27.2	-29.0	15.1	0.00e+00	0	44	102	1048576	14	4436
2026-01-05 02:16:47.32	339.83	21.00	-27.2	-29.1	15.0	0.00e+00	0	44	102	1048576	14	4460
2026-01-05 02:16:48.32	339.59	21.06	-27.3	-29.2	15.0	4.14e-03	0	44	102	1048576	14	4506
2026-01-05 02:16:49.33	339.36	21.12	-27.3	-29.3	14.9	4.75e-03	0	44	102	1048576	14	4518
2026-01-05 02:16:50.33	339.12	21.18	-27.3	-29.3	14.9	0.00e+00	0	44	102	1048576	14	4517
2026-01-05 02:16:51.34	338.89	21.24	-27.4	-29.6	14.8	4.77e-03	0	44	102	1048576	14	4604
2026-01-05 02:16:52.35	338.65	21.29	-27.3	-29.3	14.9	0.00e+00	0	44	102	1048576	14	4521
2026-01-05 02:16:53.35	338.41	21.35	-27.3	-29.2	15.0	0.00e+00	0	44	102	1048576	14	4496
2026-01-05 02:16:54.36	338.17	21.41	-27.1	-28.9	15.1	4.48e-03	0	44	102	1048576	14	4421
2026-01-05 02:16:55.36	337.93	21.46	-27.1	-28.8	15.2	4.24e-03	0	44	102	1048576	14	4368
2026-01-05 02:16:56.37	337.69	21.52	-27.1	-28.7	15.2	0.00e+00	0	43	102	1048576	14	4366
2026-01-05 02:16:57.38	337.45	21.57	-27.1	-28.8	15.2	0.00e+00	0	44	102	1048576	14	4381
2026-01-05 02:16:58.39	337.21	21.63	-27.2	-29.0	15.1	4.53e-03	0	44	102	1048576	14	4450
2026-01-05 02:16:59.39	336.96	21.68	-26.9	-28.5	15.4	0.00e+00	0	44	102	1048576	14	4286
2026-01-05 02:17:00.39	336.72	21.74	-26.9	-28.9	15.4	4.65e-03	0	44	102	1048576	13	4524
2026-01-05 02:17:01.39	336.48	21.79	-26.9	-28.9	15.4	4.52e-03	0	44	102	1048576	13	4510
2026-01-05 02:17:02.40	336.23	21.84	-26.9	-28.9	15.4	0.00e+00	0	44	102	1048576	13	4535
2026-01-05 02:17:03.41	335.98	21.90	-27.1	-28.9	14.8	0.00e+00	0	44	102	1048576	14	4417
2026-01-05 02:17:04.42	335.73	21.95	-27.3	-29.3	14.2	3.30e-04	0	44	102	1048576	14	4521
2026-01-05 02:17:05.43	335.48	22.00	-27.3	-29.2	15.0	0.00e+00	0	44	102	1048576	14	4489
2026-01-05 02:17:06.43	335.24	22.05	-27.4	-29.6	14.7	6.29e-04	0	44	102	1048576	14	4601
2026-01-05 02:17:07.44	334.99	22.10	-27.5	-29.7	14.6	7.00e-07	0	44	102	1048576	14	4657
2026-01-05 02:17:08.45	334.73	22.15	-27.4	-29.5	14.8	0.00e+00	0	44	102	1048576	14	4588
2026-01-05 02:17:09.45	334.48	22.20	-27.4	-29.5	14.8	1.37e-03	0	44	102	1048576	14	4575
2026-01-05 02:17:10.46	334.23	22.25	-27.4	-29.4	14.9	1.47e-03	0	44	102	1048576	14	4570
2026-01-05 02:17:11.46	333.98	22.30	-27.4	-29.4	14.9	0.00e+00	0	44	102	1048576	14	4560
2026-01-05 02:17:12.47	333.72	22.35	-27.3	-29.3	15.0	0.00e+00	0	44	102	1048576	14	4513
2026-01-05 02:17:13.46	333.47	22.40	-27.3	-29.2	15.0	0.00e+00	0	44	102	1048576	14	4494
2026-01-05 02:17:14.47	333.21	22.44	-27.3	-29.4	14.9	0.00e+00	0	44	102	1048576	14	4544
2026-01-05 02:17:15.48	332.96	22.49	-27.3	-29.2	15.0	2.39e-03	0	44	102	1048576	14	4498
2026-01-05 02:17:16.49	332.70	22.54	-27.1	-28.8	15.2	2.33e-03	0	44	102	1048576	14	4389
2026-01-05 02:17:17.50	332.44	22.58	-27.0	-28.7	15.3	0.00e+00	0	44	102	1048576	14	4343
2026-01-05 02:17:18.50	332.18	22.63	-27.0	-28.7	15.3	0.00e+00	0	44	102	1048576	14	4346
2026-01-05 02:17:19.50	331.92	22.67	-27.1	-28.7	15.3	2.15e-03	0	44	102	1048576	14	4348
2026-01-05 02:17:20.51	331.66	22.72	-26.9	-28.4	15.5	0.00e+00	0	44	102	1048576	14	4268
2026-01-05 02:17:21.52	331.40	22.76	-27.0	-28.6	15.3	1.96e-03	0	44	102	1048576	14	4331
2026-01-05 02:17:22.52	331.14	22.80	-27.0	-28.7	15.3	2.11e-03	0	44	102	1048576	14	4355
2026-01-05 02:17:23.53	330.88	22.85	-27.1	-28.9	15.2	0.00e+00	0	44	102	1048576	14	4399
2026-01-05 02:17:24.54	330.61	22.89	-27.1	-28.9	15.2	2.18e-03	0	44	102	1048576	14	4411
2026-01-05 02:17:25.54	330.35	22.93	-27.1	-28.9	15.2	2.06e-03	0	44	102	1048576	14	4417
2026-01-05 02:17:26.55	330.08	22.97	-27.2	-29.0	15.1	0.00e+00	0	44	102	1048576	14	4442
2026-01-05 02:17:27.56	329.82	23.01	-27.2	-29.0	15.1	2.71e-03	0	44	102	1048576	14	4449
2026-01-05 02:17:28.57	329.55	23.05	-27.2	-29.0	15.1	2.85e-03	0	44	102	1048576	14	4433
2026-01-05 02:17:29.58	329.28	23.09	-27.1	-28.9	15.2	0.00e+00	0	43	102	1048576	14	4396
2026-01-05 02:17:30.58	329.02	23.12	-27.1	-28.9	15.2	2.44e-03	0	44	102	1048576	14	4405
2026-01-05 02:17:31.59	328.75	23.16	-27.2	-28.9	15.2	2.02e-03	0	44	102	1048576	14	4418
2026-01-05 02:17:32.59	328.48	23.20	-27.1	-28.9	15.2	0.00e+00	0	44	102	1048576	14	4410
2026-01-05 02:17:33.60	328.21	23.24	-27.2	-29.0	15.1	1.15e-03	0	44	102	1048576	14	4443
2026-01-05 02:17:34.60	327.94	23.27	-27.2	-29.0	15.2	0.00e+00	0	44	102	1048576	14	4426
2026-01-05 02:17:35.61	327.67	23.31	-27.2	-29.0	15.2	7.00e-07	0	44	102	1048576	14	4437
2026-01-05 02:17:36.62	327.40	23.34	-27.1	-28.9	15.2	1.05e-03	0	44	102	1048576	14	4399
2026-01-05 02:17:37.62	327.13	23.37	-27.1	-28.8	15.3	8.31e-04	0	44	102	1048576	14	4393
2026-01-05 02:17:38.63	326.85	23.41	-27.4	-29.4	14.9	0.00e+00	0	44	102	1048576	14	4558
2026-01-05 02:17:39.64	326.58	23.44	-27.3	-29.2	15.0	0.00e+00	0	44	102	1048576	14	4497
2026-01-05 02:17:40.65	326.30	23.47	-27.1	-28.8	15.3	0.00e+00	0	44	102	1048576	14	4372
2026-01-05 02:17:41.66	326.03	23.50	-27.0	-28.6	15.4	0.00e+00	0	43	102	1048576	14	4324
2026-01-05 02:17:42.67	325.75	23.53	-27.0	-28.5	15.4	4.51e-04	0	43	102	1048576	14	4293
2026-01-05 02:17:43.67	325.48	23.56	-27.0	-28.6	15.3	0.00e+00	0	44	102	1048576	14	4336
2026-01-05 02:17:44.68	325.20	23.59	-27.1	-28.9	15.2	0.00e+00	0	44	102	1048576	14	4409
2026-01-05 02:17:45.68	324.93	23.62	-27.2	-29.1	15.1	0.00e+00	0	44	102	1048576	14	4471
2026-01-05 02:17:46.68	324.65	23.65	-27.1	-28.9	15.2	0.00e+00	0	44	102	1048576	14	4418
2026-01-05 02:17:47.69	324.37	23.67	-27.2	-29.1	15.1	7.00e-07	0	44	102	1048576	14	4480
2026-01-05 02:17:48.69	324.10	23.70	-27.2	-29.0	15.2	0.00e+00	0	44	102	1048576	14	4427
2026-01-05 02:17:49.70	323.82	23.73	-27.0	-28.7	15.3	0.00e+00	0	44	102	1048576	14	4354
2026-01-05 02:17:50.71	323.54	23.75	-27.1	-28.8	15.3	0.00e+00	0	44	102	1048576	14	4370
2026-01-05 02:17:51.72	323.26	23.77	-27.0	-28.7	15.3	0.00e+00	0	44	102	1048576	14	4340
2026-01-05 02:17:52.71	322.98	23.80	-27.0	-28.7	15.3	0.00e+00	0	43	102	1048576	14	4339
2026-01-05 02:17:53.72	322.70	23.82	-27.0	-28.6	15.4	0.00e+00	0	44	102	1048576	14	4327
2026-01-05 02:17:54.73	322.42	23.84	-26.2	-28.1	15.3	0.00e+00	0	43	102	1048576	14	4448
2026-01-05 02:17:55.74	322.14	23.86	-27.0	-28.7	15.3	0.00e+00	0	43	102	1048576	14	4348
2026-01-05 02:17:56.75	321.85	23.88	-27.0	-29.0	15.4	0.00e+00	0	44	102	1048576	13	4549
2026-01-05 02:17:57.76	321.57	23.90	-26.9	-28.8	15.5	0.00e+00	0	43	102	1048576	13	4488
2026-01-05 02:17:58.77	321.29	23.92	-26.8	-28.6	15.6	0.00e+00	0	44	102	1048576	13	4431
2026-01-05 02:17:59.77	321.01	23.94	-26.8	-28.6	15.6	3.46e-03	0	43	102	1048576	13	4434
2026-01-05 02:18:00.77	320.73	23.96	-26.7	-28.3	15.7	4.01e-03	0	44	102	1048576	13	4359
2026-01-05 02:18:01.77	320.45	23.98	-26.7	-28.3	15.8	0.00e+00	0	44	102	1048576	13	4357
2026-01-05 02:18:02.78	320.16	23.99	-26.6	-28.2	15.8	0.00e+00	0	43	102	1048576	13	4333
2026-01-05 02:18:03.79	319.88	24.01	-26.7	-28.4	15.7	0.00e+00	0	44	102	1048576	13	4371
2026-01-05 02:18:04.79	319.60	24.02	-26.7	-28.5	15.7	1.87e-03	0	44	102	1048576	13	4393
2026-01-05 02:18:05.80	319.31	24.04	-26.7	-28.3	15.7	4.10e-03	0	44	102	1048576	13	4356
2026-01-05 02:18:06.81	319.02	24.05	-26.8	-28.6	15.6	3.68e-03	0	43	102	1048576	13	4435
2026-01-05 02:18:07.81	318.74	24.06	-26.8	-28.6	15.6	0.00e+00	0	44	102	1048576	13	4441
2026-01-05 02:18:08.82	318.46	24.07	-26.9	-28.9	15.4	0.00e+00	0	44	102	1048576	13	4521
2026-01-05 02:18:09.83	318.17	24.08	-26.8	-28.6	15.6	4.44e-03	0	44	102	1048576	13	4445
2026-01-05 02:18:10.84	317.88	24.09	-26.8	-28.7	15.5	9.96e-04	0	44	102	1048576	13	4473
2026-01-05 02:18:11.85	317.60	24.10	-26.9	-28.9	15.4	4.80e-03	0	43	102	1048576	13	4529
2026-01-05 02:18:12.85	317.31	24.11	-27.1	-28.9	15.2	4.83e-03	0	44	102	1048576	14	4408
2026-01-05 02:18:13.86	317.03	24.12	-27.1	-28.7	15.2	0.00e+00	0	44	102	1048576	14	4353
2026-01-05 02:18:14.86	316.74	24.12	-27.0	-28.6	15.4	4.53e-03	0	44	102	1048576	14	4319
2026-01-05 02:18:15.87	316.46	24.13	-27.0	-28.6	15.3	4.37e-03	0	44	102	1048576	14	4334
2026-01-05 02:18:16.88	316.17	24.14	-27.1	-28.7	15.2	1.52e-03	0	44	102	1048576	14	4369
2026-01-05 02:18:17.88	315.88	24.14	-27.1	-28.9	15.2	4.07e-03	0	44	102	1048576	14	4410
2026-01-05 02:18:18.89	315.60	24.14	-27.1	-28.9	15.2	2.18e-03	0	44	102	1048576	14	4404
2026-01-05 02:18:19.90	315.31	24.15	-27.1	-28.8	15.2	0.00e+00	0	43	102	1048576	14	4390
2026-01-05 02:18:20.90	315.02	24.15	-27.2	-29.0	15.1	4.66e-03	0	44	102	1048576	14	4438
2026-01-05 02:18:21.91	314.74	24.15	-27.1	-28.9	15.2	4.53e-03	0	44	102	1048576	14	4408
2026-01-05 02:18:22.92	314.45	24.15	-27.1	-28.8	15.2	1.38e-04	0	44	102	1048576	14	4380
2026-01-05 02:18:23.93	314.16	24.15	-27.2	-29.0	15.2	0.00e+00	0	44	102	1048576	14	4423
2026-01-05 02:18:24.93	313.88	24.15	-27.1	-28.9	15.2	7.00e-07	0	44	102	1048576	14	4397
2026-01-05 02:18:25.94	313.59	24.15	-27.3	-29.2	15.0	0.00e+00	0	44	102	1048576	14	4485
2026-01-05 02:18:26.95	313.30	24.15	-27.2	-29.0	15.1	4.53e-03	0	44	102	1048576	14	4425
2026-01-05 02:18:27.96	313.01	24.14	-27.0	-28.7	15.3	4.91e-03	0	44	102	1048576	14	4345
2026-01-05 02:18:28.96	312.73	24.14	-27.2	-28.9	15.1	0.00e+00	0	43	102	1048576	14	4414
2026-01-05 02:18:29.97	312.44	24.13	-26.9	-28.7	15.0	0.00e+00	0	44	102	1048576	14	4426
2026-01-05 02:18:30.97	312.16	24.13	-27.3	-29.2	14.7	7.00e-07	0	44	102	1048576	14	4494
2026-01-05 02:18:31.98	311.87	24.12	-27.2	-29.1	15.0	0.00e+00	0	44	102	1048576	14	4481
2026-01-05 02:18:32.99	311.58	24.12	-27.1	-28.9	15.2	7.64e-04	0	44	102	1048576	14	4398
2026-01-05 02:18:34.00	311.30	24.11	-27.2	-29.0	15.1	0.00e+00	0	44	102	1048576	14	4434
2026-01-05 02:18:35.00	311.01	24.10	-27.2	-29.1	15.0	0.00e+00	0	44	102	1048576	14	4473
2026-01-05 02:18:36.01	310.73	24.09	-27.1	-28.7	15.3	0.00e+00	0	44	102	1048576	14	4366
2026-01-05 02:18:37.02	310.44	24.08	-26.9	-28.9	15.5	4.89e-04	0	44	102	1048576	13	4512
2026-01-05 02:18:38.03	310.15	24.07	-26.9	-28.9	15.4	0.00e+00	0	43	102	1048576	13	4513
2026-01-05 02:18:39.04	309.87	24.06	-27.1	-28.9	15.2	2.50e-04	0	44	102	1048576	14	4417
2026-01-05 02:18:40.05	309.58	24.04	-27.3	-29.3	14.9	0.00e+00	0	44	102	1048576	14	4526
2026-01-05 02:18:41.05	309.30	24.03	-27.0	-28.6	15.3	0.00e+00	0	43	102	1048576	14	4336
2026-01-05 02:18:42.05	309.02	24.02	-26.9	-28.2	15.5	1.28e-04	0	44	102	1048576	14	4223
2026-01-05 02:18:43.06	308.73	24.00	-26.8	-28.7	15.5	0.00e+00	0	44	102	1048576	13	4472
2026-01-05 02:18:44.06	308.45	23.99	-26.8	-28.7	15.5	0.00e+00	0	44	102	1048576	13	4475
2026-01-05 02:18:45.06	308.17	23.97	-27.0	-29.0	15.4	0.00e+00	0	43	102	1048576	13	4544
2026-01-05 02:18:46.07	307.88	23.95	-26.8	-28.6	15.6	0.00e+00	0	43	102	1048576	13	4437
2026-01-05 02:18:47.08	307.60	23.94	-26.8	-28.5	15.6	0.00e+00	0	43	102	1048576	13	4421
2026-01-05 02:18:48.09	307.32	23.92	-26.8	-28.6	15.6	1.67e-04	0	44	102	1048576	13	4432
2026-01-05 02:18:49.09	307.04	23.90	-26.7	-28.5	15.6	3.13e-04	0	43	102	1048576	13	4410
2026-01-05 02:18:50.10	306.75	23.88	-26.8	-28.5	15.6	0.00e+00	0	44	102	1048576	13	4420
2026-01-05 02:18:51.11	306.47	23.86	-26.9	-28.9	15.4	2.16e-04	0	44	102	1048576	13	4522
2026-01-05 02:18:52.12	306.19	23.84	-26.8	-28.7	15.5	8.30e-06	0	44	102	1048576	13	4465
2026-01-05 02:18:53.12	305.91	23.81	-26.9	-28.8	15.4	0.00e+00	0	44	102	1048576	13	4501
2026-01-05 02:18:54.14	305.63	23.79	-27.0	-28.6	15.3	3.43e-05	0	43	102	1048576	14	4335
2026-01-05 02:18:55.14	305.35	23.77	-27.0	-28.5	15.4	3.34e-04	0	44	102	1048576	14	4292
2026-01-05 02:18:56.15	305.07	23.74	-27.0	-28.7	15.3	0.00e+00	0	43	102	1048576	14	4343
2026-01-05 02:18:57.16	304.79	23.72	-27.1	-28.8	15.2	7.00e-07	0	43	102	1048576	14	4395
2026-01-05 02:18:58.17	304.51	23.69	-27.3	-29.2	15.0	1.76e-03	0	44	102	1048576	14	4495
2026-01-05 02:18:59.17	304.23	23.67	-27.0	-28.6	15.3	0.00e+00	0	44	102	1048576	14	4327
2026-01-05 02:19:00.17	303.96	23.64	-26.8	-28.6	15.5	1.55e-03	0	43	102	1048576	13	4444
2026-01-05 02:19:01.18	303.68	23.61	-26.9	-28.9	15.3	0.00e+00	0	44	102	1048576	13	4535
2026-01-05 02:19:02.19	303.40	23.58	-27.2	-29.1	15.0	0.00e+00	0	44	102	1048576	14	4459
2026-01-05 02:19:03.20	303.12	23.55	-27.5	-29.2	14.7	7.00e-07	0	44	102	1048576	15	4375
2026-01-05 02:19:04.21	302.85	23.52	-27.3	-29.3	14.9	0.00e+00	0	44	102	1048576	14	4519
2026-01-05 02:19:05.22	302.57	23.49	-27.4	-29.5	14.8	0.00e+00	0	44	102	1048576	14	4577
2026-01-05 02:19:06.22	302.30	23.46	-27.4	-29.4	14.8	0.00e+00	0	44	102	1048576	14	4548
2026-01-05 02:19:07.23	302.02	23.43	-27.4	-29.6	14.7	0.00e+00	0	44	102	1048576	14	4606
2026-01-05 02:19:08.24	301.75	23.40	-27.5	-29.3	14.6	0.00e+00	0	44	102	1048576	15	4428
2026-01-05 02:19:09.25	301.47	23.36	-27.7	-29.6	14.4	3.80e-06	0	44	102	1048576	15	4512
2026-01-05 02:19:10.25	301.20	23.33	-27.6	-29.4	14.5	0.00e+00	0	44	102	1048576	15	4456
2026-01-05 02:19:11.26	300.93	23.30	-27.8	-29.9	14.2	1.50e-06	0	44	102	1048576	15	4589
2026-01-05 02:19:12.26	300.66	23.26	-27.5	-29.2	14.7	2.20e-06	0	44	102	1048576	15	4398
2026-01-05 02:19:13.27	300.39	23.22	-27.2	-29.1	15.0	0.00e+00	0	44	102	1048576	14	4471
2026-01-05 02:19:14.28	300.12	23.19	-27.0	-28.5	15.3	0.00e+00	0	43	102	1048576	14	4308
2026-01-05 02:19:15.28	299.85	23.15	-26.8	-28.6	15.6	0.00e+00	0	44	102	1048576	13	4433
2026-01-05 02:19:16.28	299.58	23.11	-26.7	-28.5	15.6	0.00e+00	0	44	102	1048576	13	4404
2026-01-05 02:19:17.29	299.31	23.07	-26.8	-28.6	15.6	4.73e-03	0	44	102	1048576	13	4425
2026-01-05 02:19:18.30	299.05	23.04	-26.8	-28.6	15.5	7.00e-07	0	44	102	1048576	13	4438
2026-01-05 02:19:19.31	298.78	23.00	-26.9	-28.9	15.3	0.00e+00	0	44	102	1048576	13	4534
2026-01-05 02:19:20.31	298.51	22.96	-27.2	-29.0	15.0	0.00e+00	0	44	102	1048576	14	4451
2026-01-05 02:19:21.32	298.25	22.91	-27.4	-29.5	14.8	7.00e-07	0	44	102	1048576	14	4586
2026-01-05 02:19:22.32	297.99	22.87	-27.4	-29.4	14.8	0.00e+00	0	43	102	1048576	14	4567
2026-01-05 02:19:23.33	297.72	22.83	-27.3	-29.4	14.8	0.00e+00	0	44	102	1048576	14	4553
2026-01-05 02:19:24.34	297.46	22.79	-27.2	-29.1	15.0	0.00e+00	0	43	102	1048576	14	4484
2026-01-05 02:19:25.34	297.20	22.75	-27.2	-29.1	15.0	0.00e+00	0	44	102	1048576	14	4472
2026-01-05 02:19:26.34	296.94	22.70	-27.3	-29.2	14.9	0.00e+00	0	43	102	1048576	14	4514
2026-01-05 02:19:27.35	296.67	22.66	-27.1	-28.9	15.1	3.82e-03	0	44	102	1048576	14	4400
2026-01-05 02:19:28.35	296.42	22.61	-27.1	-28.8	15.2	0.00e+00	0	44	102	1048576	14	4393
2026-01-05 02:19:29.36	296.16	22.57	-27.1	-28.7	15.2	0.00e+00	0	43	102	1048576	14	4367
2026-01-05 02:19:30.36	295.90	22.52	-27.1	-28.8	15.2	0.00e+00	0	44	102	1048576	14	4378
2026-01-05 02:19:31.37	295.64	22.48	-27.1	-28.8	15.1	0.00e+00	0	44	102	1048576	14	4388
2026-01-05 02:19:32.37	295.38	22.43	-27.2	-29.0	15.1	3.15e-03	0	43	102	1048576	14	4434
2026-01-05 02:19:33.38	295.13	22.38	-27.2	-29.1	15.0	1.85e-03	0	44	102	1048576	14	4471
2026-01-05 02:19:34.39	294.87	22.33	-27.2	-29.1	15.0	5.56e-05	0	43	102	1048576	14	4475
2026-01-05 02:19:35.40	294.61	22.28	-27.3	-29.2	14.9	7.00e-07	0	44	102	1048576	14	4513
2026-01-05 02:19:36.40	294.36	22.24	-27.3	-29.4	14.8	0.00e+00	0	44	102	1048576	14	4561
2026-01-05 02:19:37.40	294.11	22.19	-27.4	-29.6	14.6	3.42e-04	0	44	102	1048576	14	4610
2026-01-05 02:19:38.41	293.86	22.14	-27.5	-29.7	14.6	0.00e+00	0	44	102	1048576	14	4664
2026-01-05 02:19:39.42	293.61	22.09	-27.7	-29.6	14.4	0.00e+00	0	44	102	1048576	15	4522
2026-01-05 02:19:40.42	293.36	22.03	-27.7	-29.8	14.3	6.40e-05	0	43	102	1048576	15	4561
2026-01-05 02:19:41.43	293.11	21.98	-27.4	-29.0	14.7	5.41e-05	0	44	102	1048576	15	4328
2026-01-05 02:19:42.44	292.86	21.93	-27.2	-29.0	15.0	2.51e-05	0	43	102	1048576	14	4454
2026-01-05 02:19:43.44	292.61	21.88	-27.2	-29.1	15.0	2.97e-05	0	44	102	1048576	14	4467
2026-01-05 02:19:44.45	292.36	21.83	-27.3	-29.4	14.8	2.20e-06	0	44	102	1048576	14	4550
2026-01-05 02:19:45.46	292.11	21.77	-27.6	-29.5	14.4	7.95e-04	0	44	102	1048576	15	4478
2026-01-05 02:19:46.47	291.87	21.72	-27.7	-29.8	14.2	7.00e-07	0	44	102	1048576	15	4579
2026-01-05 02:19:47.47	291.62	21.66	-27.7	-29.8	14.3	1.50e-06	0	44	102	1048576	15	4564
2026-01-05 02:19:48.48	291.38	21.61	-27.6	-29.4	14.4	3.85e-03	0	44	102	1048576	15	4468
2026-01-05 02:19:49.49	291.13	21.55	-27.4	-29.0	14.7	0.00e+00	0	44	102	1048576	15	4348
2026-01-05 02:19:50.49	290.89	21.50	-27.4	-29.5	14.7	3.79e-03	0	44	102	1048576	14	4603
2026-01-05 02:19:51.50	290.65	21.44	-27.3	-29.2	14.8	0.00e+00	0	44	102	1048576	14	4514
2026-01-05 02:19:52.51	290.41	21.39	-27.1	-28.9	15.0	0.00e+00	0	44	102	1048576	14	4419
2026-01-05 02:19:53.51	290.17	21.33	-27.1	-28.8	15.1	0.00e+00	0	43	102	1048576	14	4395
2026-01-05 02:19:54.52	289.93	21.27	-27.0	-28.6	15.2	2.82e-03	0	44	102	1048576	14	4337
2026-01-05 02:19:55.52	289.70	21.21	-27.2	-29.0	15.0	0.00e+00	0	44	102	1048576	14	4440
2026-01-05 02:19:56.53	289.46	21.16	-27.3	-29.2	14.8	7.00e-07	0	44	102	1048576	14	4511
2026-01-05 02:19:57.53	289.22	21.10	-26.7	-28.9	14.6	0.00e+00	0	44	102	1048576	14	4625
2026-01-05 02:19:58.54	288.99	21.04	-27.5	-29.7	14.6	7.00e-07	0	44	102	1048576	14	4660
2026-01-05 02:19:59.54	288.76	20.98	-27.4	-29.6	14.6	1.22e-03	0	44	102	1048576	14	4619
2026-01-05 02:20:00.55	288.52	20.92	-27.4	-29.6	14.6	7.41e-04	0	44	102	1048576	14	4614
2026-01-05 02:20:01.56	288.29	20.86	-27.5	-29.7	14.5	7.00e-07	0	44	102	1048576	14	4663
2026-01-05 02:20:02.56	288.06	20.80	-27.5	-29.7	14.5	1.50e-06	0	44	102	1048576	14	4660
2026-01-05 02:20:03.57	287.83	20.74	-27.4	-29.6	14.6	0.00e+00	0	44	102	1048576	14	4616
2026-01-05 02:20:04.58	287.60	20.68	-27.6	-29.4	14.4	3.00e-06	0	43	102	1048576	15	4470
2026-01-05 02:20:05.59	287.37	20.62	-27.8	-29.9	14.1	1.73e-04	0	44	102	1048576	15	4620
2026-01-05 02:20:06.59	287.14	20.56	-27.9	-30.3	13.9	1.50e-06	0	44	102	1048576	15	4716
2026-01-05 02:20:07.60	286.91	20.49	-27.8	-30.0	14.0	6.10e-06	0	44	102	1048576	15	4640
2026-01-05 02:20:08.61	286.69	20.43	-27.8	-29.9	14.1	7.00e-07	0	44	102	1048576	15	4613
2026-01-05 02:20:09.62	286.46	20.37	-27.8	-29.9	14.1	2.20e-06	0	44	102	1048576	15	4612
2026-01-05 02:20:10.62	286.24	20.31	-27.9	-30.2	13.9	1.50e-06	0	44	102	1048576	15	4700
2026-01-05 02:20:11.62	286.02	20.24	-27.9	-30.3	13.8	3.47e-04	0	44	102	1048576	15	4743
2026-01-05 02:20:12.63	285.79	20.18	-28.3	-30.6	13.6	2.20e-06	0	44	102	1048576	16	4713
2026-01-05 02:20:13.64	285.57	20.12	-28.2	-30.4	13.7	9.90e-06	0	44	102	1048576	16	4639
2026-01-05 02:20:14.64	285.35	20.05	-27.8	-29.5	14.2	4.34e-04	0	44	102	1048576	16	4369
2026-01-05 02:20:15.65	285.13	19.99	-27.5	-29.3	14.5	3.26e-04	0	44	102	1048576	15	4416
2026-01-05 02:20:16.65	284.91	19.92	-27.4	-29.1	14.6	0.00e+00	0	44	102	1048576	15	4358
2026-01-05 02:20:17.66	284.70	19.86	-27.4	-29.6	14.6	4.99e-04	0	44	102	1048576	14	4621
2026-01-05 02:20:18.67	284.48	19.79	-27.3	-29.3	14.7	8.41e-04	0	44	102	1048576	14	4553
2026-01-05 02:20:19.68	284.26	19.73	-27.2	-29.1	14.9	0.00e+00	0	44	102	1048576	14	4474
2026-01-05 02:20:20.68	284.05	19.66	-27.1	-28.8	15.0	1.85e-03	0	44	102	1048576	14	4388
2026-01-05 02:20:21.69	283.83	19.60	-27.1	-28.9	14.9	2.21e-03	0	44	102	1048576	14	4429
2026-01-05 02:20:22.69	283.62	19.53	-27.0	-28.7	15.0	7.00e-07	0	44	102	1048576	14	4378
2026-01-05 02:20:23.70	283.41	19.46	-26.9	-28.9	15.2	3.28e-03	0	44	102	1048576	13	4533
2026-01-05 02:20:24.70	283.20	19.40	-26.9	-29.0	15.2	0.00e+00	0	44	102	1048576	13	4560
2026-01-05 02:20:25.71	282.99	19.33	-26.8	-28.6	15.4	0.00e+00	0	44	102	1048576	13	4455
2026-01-05 02:20:26.72	282.78	19.26	-26.8	-28.7	15.3	3.42e-03	0	44	102	1048576	13	4473
2026-01-05 02:20:27.72	282.57	19.20	-26.8	-28.8	15.3	3.42e-03	0	44	102	1048576	13	4495
2026-01-05 02:20:28.74	282.36	19.13	-26.9	-29.0	15.1	0.00e+00	0	44	102	1048576	13	4568
2026-01-05 02:20:29.74	282.16	19.06	-27.1	-28.8	15.0	0.00e+00	0	44	102	1048576	14	4395
2026-01-05 02:20:30.74	281.95	18.99	-27.1	-29.0	14.9	0.00e+00	0	44	102	1048576	14	4442
2026-01-05 02:20:31.74	281.75	18.93	-27.1	-28.9	14.9	0.00e+00	0	44	102	1048576	14	4433
2026-01-05 02:20:32.75	281.54	18.86	-27.1	-28.9	14.9	1.60e-03	0	44	102	1048576	14	4434
2026-01-05 02:20:33.76	281.34	18.79	-27.2	-29.0	14.8	0.00e+00	0	44	102	1048576	14	4462
2026-01-05 02:20:34.76	281.14	18.72	-27.1	-28.9	14.9	7.00e-07	0	43	102	1048576	14	4428
2026-01-05 02:20:35.76	280.94	18.65	-27.1	-28.8	14.9	7.00e-07	0	44	102	1048576	14	4399
2026-01-05 02:20:36.77	280.74	18.58	-27.1	-28.9	14.9	0.00e+00	0	43	102	1048576	14	4423
2026-01-05 02:20:37.78	280.54	18.51	-27.0	-28.8	15.0	0.00e+00	0	44	102	1048576	14	4379
2026-01-05 02:20:38.78	280.34	18.44	-27.0	-28.7	15.0	0.00e+00	0	44	102	1048576	14	4379
2026-01-05 02:20:39.79	280.14	18.37	-27.3	-29.2	14.7	7.00e-07	0	44	102	1048576	14	4528
2026-01-05 02:20:40.80	279.95	18.30	-27.2	-29.2	14.7	0.00e+00	0	44	102	1048576	14	4501
2026-01-05 02:20:41.80	279.75	18.24	-27.3	-29.5	14.5	2.20e-06	0	44	102	1048576	14	4593
2026-01-05 02:20:42.80	279.56	18.17	-27.3	-29.4	14.6	7.00e-07	0	44	102	1048576	14	4564
2026-01-05 02:20:43.81	279.36	18.10	-27.2	-29.1	14.7	0.00e+00	0	44	102	1048576	14	4485
2026-01-05 02:20:44.82	279.17	18.03	-27.1	-29.0	14.8	7.00e-07	0	44	102	1048576	14	4462
2026-01-05 02:20:45.83	278.98	17.95	-27.2	-29.2	14.7	0.00e+00	0	44	102	1048576	14	4508
2026-01-05 02:20:46.84	278.79	17.88	-27.2	-29.1	14.5	0.00e+00	0	44	102	1048576	14	4479
2026-01-05 02:20:47.84	278.60	17.81	-27.3	-29.3	14.6	0.00e+00	0	44	102	1048576	14	4555
2026-01-05 02:20:48.85	278.41	17.74	-27.3	-29.4	14.5	1.60e-04	0	44	102	1048576	14	4588
2026-01-05 02:20:49.86	278.22	17.67	-27.6	-29.5	14.2	3.63e-03	0	44	102	1048576	15	4501
2026-01-05 02:20:50.87	278.03	17.60	-27.8	-30.2	13.8	1.50e-06	0	44	102	1048576	15	4697
2026-01-05 02:20:51.87	277.84	17.53	-27.9	-30.3	13.7	8.30e-06	0	44	102	1048576	15	4736
2026-01-05 02:20:52.88	277.66	17.46	-28.2	-30.4	13.6	7.60e-06	0	44	102	1048576	16	4648
2026-01-05 02:20:53.89	277.47	17.39	-27.9	-30.2	13.7	4.78e-03	0	44	102	1048576	15	4727
2026-01-05 02:20:54.89	277.29	17.32	-27.7	-29.9	13.9	1.72e-03	0	44	102	1048576	15	4617
2026-01-05 02:20:55.90	277.11	17.24	-27.6	-29.7	14.0	4.89e-03	0	44	102	1048576	15	4548
2026-01-05 02:20:56.91	276.92	17.17	-27.7	-29.8	14.0	1.50e-06	0	44	102	1048576	15	4581
2026-01-05 02:20:57.92	276.74	17.10	-27.8	-30.1	13.8	2.20e-06	0	44	102	1048576	15	4676
2026-01-05 02:20:58.92	276.56	17.03	-27.6	-29.5	14.1	4.26e-03	0	44	102	1048576	15	4512
2026-01-05 02:20:59.92	276.38	16.96	-27.4	-29.7	14.4	4.73e-03	0	44	102	1048576	14	4654
2026-01-05 02:21:00.93	276.20	16.89	-27.6	-29.5	14.2	5.86e-04	0	44	102	1048576	15	4494
2026-01-05 02:21:01.94	276.02	16.81	-27.6	-29.6	14.1	4.43e-03	0	44	102	1048576	15	4529
2026-01-05 02:21:02.95	275.85	16.74	-27.7	-29.8	14.0	4.20e-03	0	44	102	1048576	15	4579
2026-01-05 02:21:03.96	275.67	16.67	-27.6	-29.6	14.1	2.73e-04	0	44	102	1048576	15	4535
2026-01-05 02:21:04.97	275.49	16.60	-27.6	-29.5	14.1	4.19e-03	0	44	102	1048576	15	4516
2026-01-05 02:21:05.98	275.32	16.52	-27.5	-29.8	14.3	3.95e-03	0	44	102	1048576	14	4698
2026-01-05 02:21:06.98	275.15	16.45	-27.4	-29.6	14.4	1.50e-06	0	44	102	1048576	14	4648
2026-01-05 02:21:07.99	274.97	16.38	-27.5	-29.4	14.2	3.86e-03	0	43	102	1048576	15	4469
2026-01-05 02:21:09.00	274.80	16.31	-27.3	-29.4	14.5	0.00e+00	0	44	102	1048576	14	4570
2026-01-05 02:21:10.01	274.63	16.23	-27.2	-29.0	14.7	0.00e+00	0	44	102	1048576	14	4466
2026-01-05 02:21:11.02	274.46	16.16	-27.1	-29.0	14.8	3.77e-03	0	44	102	1048576	14	4453
2026-01-05 02:21:12.02	274.29	16.09	-27.3	-29.3	14.6	3.68e-03	0	44	102	1048576	14	4543
2026-01-05 02:21:13.03	274.12	16.02	-27.2	-29.2	14.6	7.00e-07	0	44	102	1048576	14	4524
2026-01-05 02:21:14.03	273.95	15.94	-27.2	-29.2	14.6	3.80e-06	0	44	102	1048576	14	4525
2026-01-05 02:21:15.04	273.79	15.87	-27.4	-29.6	14.4	0.00e+00	0	44	102	1048576	14	4639
2026-01-05 02:21:16.05	273.62	15.80	-27.4	-29.5	14.4	7.00e-07	0	44	102	1048576	14	4626
2026-01-05 02:21:17.06	273.45	15.73	-27.4	-29.7	14.3	3.42e-03	0	44	102	1048576	14	4681
2026-01-05 02:21:18.06	273.29	15.65	-27.5	-29.8	14.3	4.02e-03	0	43	102	1048576	14	4695
2026-01-05 02:21:19.07	273.13	15.58	-27.6	-29.6	14.1	1.50e-06	0	44	102	1048576	15	4531
2026-01-05 02:21:20.08	272.96	15.51	-27.9	-30.2	13.7	1.29e-05	0	44	102	1048576	15	4725
2026-01-05 02:21:21.08	272.80	15.43	-27.8	-30.0	13.8	7.60e-06	0	44	102	1048576	15	4655
2026-01-05 02:21:22.09	272.64	15.36	-27.9	-30.3	13.6	9.10e-06	0	44	102	1048576	15	4753
2026-01-05 02:21:23.09	272.48	15.29	-27.9	-30.4	13.4	3.63e-03	0	44	102	1048576	15	4772
2026-01-05 02:21:24.10	272.32	15.22	-27.9	-30.3	13.5	5.30e-06	0	44	102	1048576	15	4748
2026-01-05 02:21:25.11	272.16	15.14	-27.9	-30.3	13.6	8.30e-06	0	44	102	1048576	15	4736
2026-01-05 02:21:26.12	272.00	15.07	-27.9	-30.3	13.6	1.29e-05	0	44	102	1048576	15	4733
2026-01-05 02:21:27.13	271.84	15.00	-27.8	-30.0	13.8	5.30e-06	0	43	102	1048576	15	4639
2026-01-05 02:21:28.14	271.69	14.92	-27.7	-29.7	13.9	5.30e-06	0	44	102	1048576	15	4575
2026-01-05 02:21:29.14	271.53	14.85	-27.7	-29.8	13.9	8.30e-06	0	44	102	1048576	15	4594
2026-01-05 02:21:30.15	271.38	14.78	-27.6	-29.6	14.0	4.50e-06	0	44	102	1048576	15	4545
2026-01-05 02:21:31.15	271.22	14.71	-27.6	-29.6	14.0	2.20e-06	0	44	102	1048576	15	4532
2026-01-05 02:21:32.16	271.07	14.63	-27.6	-29.7	14.0	1.43e-03	0	44	102	1048576	15	4560
2026-01-05 02:21:33.17	270.91	14.56	-27.4	-29.6	14.3	3.48e-03	0	44	102	1048576	14	4653
2026-01-05 02:21:34.18	270.76	14.49	-27.3	-29.4	14.4	0.00e+00	0	44	102	1048576	14	4591
2026-01-05 02:21:35.19	270.61	14.41	-27.2	-29.2	14.5	3.37e-03	0	44	102	1048576	14	4515
2026-01-05 02:21:36.20	270.46	14.34	-27.2	-29.1	14.6	0.00e+00	0	44	102	1048576	14	4486
2026-01-05 02:21:37.21	270.31	14.27	-27.3	-29.5	14.3	0.00e+00	0	44	102	1048576	14	4610
2026-01-05 02:21:38.21	270.16	14.20	-27.2	-29.1	14.5	2.60e-03	0	44	102	1048576	14	4492
2026-01-05 02:21:39.22	270.01	14.12	-27.2	-29.1	14.6	1.99e-03	0	44	102	1048576	14	4488
2026-01-05 02:21:40.23	269.86	14.05	-27.2	-29.2	14.5	7.00e-07	0	44	102	1048576	14	4507
2026-01-05 02:21:41.23	269.72	13.98	-27.3	-29.5	14.3	0.00e+00	0	44	102	1048576	14	4618
2026-01-05 02:21:42.24	269.57	13.90	-27.7	-29.8	13.8	2.30e-03	0	44	102	1048576	15	4594
2026-01-05 02:21:43.25	269.43	13.83	-28.1	-30.3	13.4	9.90e-06	0	44	102	1048576	16	4618
2026-01-05 02:21:44.26	269.28	13.76	-28.0	-30.5	13.4	3.11e-03	0	44	102	1048576	15	4839
2026-01-05 02:21:45.26	269.14	13.69	-28.4	-30.9	13.0	3.44e-03	0	44	102	1048576	16	4838
2026-01-05 02:21:46.27	268.99	13.61	-28.3	-30.8	13.1	2.51e-05	0	44	102	1048576	16	4798
2026-01-05 02:21:47.27	268.85	13.54	-28.5	-30.9	12.7	6.40e-05	0	44	102	1048576	17	4715
2026-01-05 02:21:48.27	268.71	13.47	-28.4	-30.9	13.0	3.51e-03	0	44	102	1048576	16	4846
2026-01-05 02:21:49.28	268.57	13.40	-28.4	-31.1	12.9	4.11e-05	0	44	102	1048576	16	4908
2026-01-05 02:21:50.29	268.43	13.33	-28.5	-30.7	12.8	3.72e-03	0	43	102	1048576	17	4668
2026-01-05 02:21:51.30	268.29	13.25	-28.5	-30.8	12.7	3.69e-03	0	44	102	1048576	17	4701
2026-01-05 02:21:52.30	268.15	13.18	-28.4	-31.1	12.9	4.11e-05	0	44	102	1048576	16	4894
2026-01-05 02:21:53.31	268.01	13.11	-28.5	-30.7	12.8	6.48e-05	0	44	102	1048576	17	4655
2026-01-05 02:21:54.31	267.87	13.04	-28.3	-30.8	13.1	3.62e-03	0	44	102	1048576	16	4785
2026-01-05 02:21:55.32	267.74	12.96	-28.1	-30.3	13.3	2.28e-05	0	44	102	1048576	16	4651
2026-01-05 02:21:56.32	267.60	12.89	-28.1	-30.2	13.4	3.69e-03	0	44	102	1048576	16	4605
2026-01-05 02:21:57.33	267.47	12.82	-27.9	-30.5	13.3	1.14e-05	0	44	102	1048576	15	4823
2026-01-05 02:21:58.33	267.33	12.75	-27.9	-30.5	13.4	1.29e-05	0	44	102	1048576	15	4818
2026-01-05 02:21:59.34	267.20	12.68	-27.9	-30.5	13.3	3.58e-03	0	44	102	1048576	15	4812
2026-01-05 02:22:00.34	267.06	12.61	-28.1	-30.3	13.3	3.59e-03	0	43	102	1048576	16	4646
2026-01-05 02:22:01.33	266.93	12.54	-28.1	-30.4	13.3	2.05e-05	0	44	102	1048576	16	4657
2026-01-05 02:22:02.34	266.80	12.46	-28.2	-30.5	13.2	2.28e-05	0	44	102	1048576	16	4689
2026-01-05 02:22:03.35	266.67	12.39	-28.3	-30.8	13.0	3.35e-05	0	44	102	1048576	16	4806
2026-01-05 02:22:04.35	266.54	12.32	-28.3	-30.9	13.0	3.05e-05	0	44	102	1048576	16	4819
2026-01-05 02:22:05.36	266.41	12.25	-28.3	-30.9	12.9	4.19e-05	0	44	102	1048576	16	4833
2026-01-05 02:22:06.37	266.28	12.18	-27.5	-30.2	12.9	3.52e-03	0	44	102	1048576	16	4884
2026-01-05 02:22:07.38	266.15	12.11	-28.0	-30.6	11.6	3.66e-05	0	44	102	1048576	16	4824
2026-01-05 02:22:08.39	266.02	12.03	-28.2	-30.6	13.1	1.83e-05	0	44	102	1048576	16	4733
2026-01-05 02:22:09.40	265.89	11.96	-28.3	-30.7	13.1	2.97e-05	0	44	102	1048576	16	4755
2026-01-05 02:22:10.40	265.76	11.89	-28.2	-30.5	13.2	2.89e-05	0	44	102	1048576	16	4704
2026-01-05 02:22:11.40	265.64	11.82	-28.0	-30.6	13.2	4.35e-03	0	43	102	1048576	15	4857
2026-01-05 02:22:12.41	265.51	11.75	-28.2	-30.5	13.2	2.89e-05	0	43	102	1048576	16	4713
2026-01-05 02:22:13.42	265.39	11.68	-28.2	-30.6	13.1	2.89e-05	0	44	102	1048576	16	4725
2026-01-05 02:22:14.43	265.26	11.61	-28.2	-30.5	13.1	2.74e-05	0	44	102	1048576	16	4705
2026-01-05 02:22:15.43	265.14	11.54	-28.3	-30.8	13.0	3.28e-05	0	44	102	1048576	16	4795
2026-01-05 02:22:16.44	265.01	11.47	-28.3	-30.8	12.9	5.61e-03	0	44	102	1048576	16	4817
2026-01-05 02:22:17.44	264.89	11.40	-28.2	-30.6	13.0	5.57e-03	0	44	102	1048576	16	4748
2026-01-05 02:22:18.45	264.77	11.32	-28.3	-30.8	12.9	3.26e-03	0	44	102	1048576	16	4804
2026-01-05 02:22:19.45	264.65	11.25	-28.3	-30.8	12.8	6.17e-05	0	44	102	1048576	16	4828
2026-01-05 02:22:20.46	264.53	11.18	-28.2	-30.7	12.9	8.06e-03	0	44	102	1048576	16	4795
2026-01-05 02:22:21.47	264.41	11.11	-28.3	-30.8	12.9	3.96e-03	0	44	102	1048576	16	4795
2026-01-05 02:22:22.47	264.29	11.04	-28.4	-31.1	12.7	9.78e-03	0	44	102	1048576	16	4906
2026-01-05 02:22:23.48	264.17	10.97	-28.4	-31.2	12.6	1.02e-02	0	44	102	1048576	16	4960
2026-01-05 02:22:24.49	264.05	10.90	-28.5	-30.9	12.5	3.94e-03	0	44	102	1048576	17	4731
2026-01-05 02:22:25.50	263.93	10.83	-28.7	-31.2	12.2	1.07e-02	0	44	102	1048576	17	4852
2026-01-05 02:22:26.50	263.81	10.76	-28.7	-31.3	12.1	1.00e-02	0	44	102	1048576	17	4887
2026-01-05 02:22:27.51	263.69	10.69	-28.6	-31.1	12.3	4.43e-03	0	44	102	1048576	17	4801
2026-01-05 02:22:28.52	263.58	10.62	-28.7	-31.3	12.2	9.77e-03	0	44	102	1048576	17	4871
2026-01-05 02:22:29.52	263.46	10.55	-28.6	-31.2	12.2	1.00e-02	0	44	102	1048576	17	4845
2026-01-05 02:22:30.53	263.35	10.48	-28.7	-31.3	12.2	2.16e-04	0	44	102	1048576	17	4877
2026-01-05 02:22:31.54	263.23	10.41	-28.7	-31.5	12.1	8.37e-03	0	43	102	1048576	17	4931
2026-01-05 02:22:32.54	263.12	10.34	-28.7	-31.2	12.2	7.24e-03	0	44	102	1048576	17	4852
2026-01-05 02:22:33.54	263.00	10.28	-28.4	-30.7	12.6	2.09e-03	0	44	102	1048576	17	4677
2026-01-05 02:22:34.55	262.89	10.21	-28.3	-31.0	12.7	6.35e-03	0	44	102	1048576	16	4874
2026-01-05 02:22:35.56	262.78	10.14	-28.3	-31.0	12.7	7.24e-05	0	44	102	1048576	16	4877
2026-01-05 02:22:36.57	262.67	10.07	-28.3	-30.9	12.7	7.09e-05	0	44	102	1048576	16	4863
2026-01-05 02:22:37.57	262.55	10.00	-28.3	-30.8	12.8	4.43e-03	0	44	102	1048576	16	4822
2026-01-05 02:22:38.58	262.44	9.93	-28.3	-31.0	12.7	4.81e-03	0	44	102	1048576	16	4884
2026-01-05 02:22:39.58	262.33	9.86	-28.4	-31.1	12.6	3.29e-04	0	44	102	1048576	16	4931
2026-01-05 02:22:40.59	262.22	9.79	-28.5	-31.3	12.5	9.68e-05	0	44	102	1048576	16	4973
2026-01-05 02:22:41.60	262.11	9.72	-28.5	-31.3	12.5	1.06e-04	0	44	102	1048576	16	4998
2026-01-05 02:22:42.61	262.00	9.65	-28.6	-31.1	12.3	1.60e-04	0	44	102	1048576	17	4824
2026-01-05 02:22:43.61	261.90	9.59	-28.7	-31.4	12.1	6.24e-03	0	43	102	1048576	17	4913
2026-01-05 02:22:44.62	261.79	9.52	-28.7	-31.5	12.0	5.70e-04	0	44	102	1048576	17	4944
2026-01-05 02:22:45.63	261.68	9.45	-28.8	-31.7	11.8	4.10e-04	0	44	102	1048576	17	5031
2026-01-05 02:22:46.63	261.57	9.38	-28.9	-31.8	11.8	4.83e-04	0	44	102	1048576	17	5079
2026-01-05 02:22:47.64	261.47	9.31	-28.9	-31.9	11.7	5.53e-04	0	44	102	1048576	17	5107
2026-01-05 02:22:48.65	261.36	9.24	-28.9	-32.0	11.7	6.09e-04	0	44	102	1048576	17	5143
2026-01-05 02:22:49.65	261.26	9.18	-28.9	-32.0	11.6	6.60e-04	0	44	102	1048576	17	5144
2026-01-05 02:22:50.66	261.15	9.11	-28.9	-32.0	11.6	6.98e-04	0	44	102	1048576	17	5143
2026-01-05 02:22:51.66	261.05	9.04	-28.9	-32.1	11.6	6.93e-04	0	44	102	1048576	17	5163
2026-01-05 02:22:52.67	260.94	8.97	-28.9	-31.9	11.7	6.29e-04	0	44	102	1048576	17	5085
2026-01-05 02:22:53.68	260.84	8.90	-28.8	-31.8	11.7	5.29e-04	0	44	102	1048576	17	5064
2026-01-05 02:22:54.69	260.74	8.84	-28.8	-31.7	11.8	5.15e-04	0	44	102	1048576	17	5023
2026-01-05 02:22:55.69	260.64	8.77	-28.7	-31.5	11.9	1.96e-03	0	44	102	1048576	17	4976
2026-01-05 02:22:56.70	260.53	8.70	-28.7	-31.5	11.9	4.48e-04	0	44	102	1048576	17	4970
2026-01-05 02:22:57.70	260.43	8.64	-28.8	-31.7	11.8	4.35e-04	0	44	102	1048576	17	5022
2026-01-05 02:22:58.71	260.33	8.57	-28.7	-31.5	11.8	1.40e-03	0	44	102	1048576	17	4967
2026-01-05 02:22:59.71	260.23	8.50	-28.6	-31.3	11.9	1.14e-03	0	44	102	1048576	17	4907
2026-01-05 02:23:00.72	260.13	8.43	-28.6	-31.3	11.9	3.66e-04	0	44	102	1048576	17	4913
2026-01-05 02:23:01.71	260.03	8.37	-28.7	-31.4	11.9	7.86e-04	0	44	102	1048576	17	4927
2026-01-05 02:23:02.72	259.93	8.30	-28.7	-31.5	11.8	4.30e-04	0	44	102	1048576	17	4963
2026-01-05 02:23:03.73	259.84	8.23	-28.7	-31.5	11.8	4.36e-04	0	44	102	1048576	17	4963
2026-01-05 02:23:04.73	259.74	8.17	-28.8	-31.7	11.7	5.72e-04	0	44	102	1048576	17	5046
2026-01-05 02:23:05.74	259.64	8.10	-28.7	-31.5	11.8	5.45e-04	0	44	102	1048576	17	4951
2026-01-05 02:23:06.75	259.54	8.04	-28.7	-31.6	11.7	5.25e-04	0	44	102	1048576	17	5009
2026-01-05 02:23:07.75	259.45	7.97	-28.9	-32.0	11.5	1.11e-03	0	44	102	1048576	17	5143
2026-01-05 02:23:08.76	259.35	7.90	-28.9	-31.9	11.5	1.40e-03	0	44	102	1048576	17	5124
2026-01-05 02:23:09.77	259.25	7.84	-29.0	-32.2	11.3	1.14e-03	0	44	102	1048576	17	5232
2026-01-05 02:23:10.78	259.16	7.77	-29.1	-32.0	11.2	2.50e-03	0	44	102	1048576	18	5029
2026-01-05 02:23:11.78	259.06	7.70	-29.1	-32.1	11.1	3.17e-03	0	44	102	1048576	18	5078
2026-01-05 02:23:12.79	258.97	7.64	-29.4	-32.9	10.5	3.33e-03	0	44	102	1048576	18	5381
2026-01-05 02:23:13.80	258.87	7.57	-29.2	-32.4	10.8	2.62e-03	0	44	102	1048576	18	5205
2026-01-05 02:23:14.81	258.78	7.51	-29.1	-32.2	11.0	3.91e-03	0	44	102	1048576	18	5137
2026-01-05 02:23:15.82	258.69	7.44	-29.1	-32.0	11.1	1.60e-03	0	44	102	1048576	18	5045
2026-01-05 02:23:16.82	258.59	7.38	-29.1	-32.0	11.1	3.06e-03	0	44	102	1048576	18	5042
2026-01-05 02:23:17.83	258.50	7.31	-29.0	-32.3	11.2	3.00e-03	0	44	102	1048576	17	5254
2026-01-05 02:23:18.83	258.41	7.25	-28.9	-32.0	11.4	1.07e-03	0	44	102	1048576	17	5177
2026-01-05 02:23:19.84	258.32	7.18	-28.9	-32.0	11.4	1.00e-03	0	44	102	1048576	17	5163
2026-01-05 02:23:20.85	258.23	7.11	-28.9	-32.1	11.3	1.09e-03	0	43	102	1048576	17	5203
2026-01-05 02:23:21.85	258.14	7.05	-32.5	-44.3	3.8	1.49e+00	0	44	104	1048576	24	13968
2026-01-05 02:23:22.86	258.05	6.99	-32.9	-45.0	3.8	1.49e+00	0	44	104	1048576	25	14598

#Closed at: 2026-01-05 02:23:22
#Recorded file [1 MB]: D:/data/31010_260105_051611.dat