passes_logs/2026/01/05/R2M6_AANII_01/R2M6_AANII_01__20260105_012313_NOAA_20_JPSS-1_rec.log

#Pass ID: 20260105_012313_NOAA 20 (JPSS-1)
#Satellite: NOAA 20 (JPSS-1)
#Configuration: NOAA 20
#almurnet v.1.7.20240730
#Start time: 2026-01-05 01:23:13

#Version: 2.2.20231116
#Station: R2M6_AANII_01
#Location: 30.233357 lon 59.946436 lat
#TLE: 1 43013U 17073A   26004.47528369  .00000132  00000+0  83671-4 0  9999
#TLE: 2 43013  98.7626 305.5264 0001854  54.5883 305.5466 14.19533142421242

#Time	Az	El	Level	Level2	SNR	BER	BlckErr	Temp	State	Recorded	gain1	gain2
2026-01-05 01:23:13.25	13.46	6.98	-32.0	-41.7	4.1	1.46e+00	0	41	0	0	24	11003
2026-01-05 01:23:14.25	13.41	7.05	-31.9	-41.3	4.2	1.43e+00	0	41	104	0	23	10666
2026-01-05 01:23:15.25	13.36	7.12	-31.9	-41.3	5.1	6.65e-01	0	41	0	0	23	10564
2026-01-05 01:23:16.26	13.31	7.20	-32.0	-41.4	5.0	6.74e-01	0	41	102	1048576	23	10634
2026-01-05 01:23:17.27	13.26	7.27	-31.9	-41.2	5.0	6.70e-01	0	41	102	1048576	23	10548
2026-01-05 01:23:18.28	13.20	7.35	-31.9	-40.9	5.2	6.06e-01	0	41	102	1048576	23	10188
2026-01-05 01:23:19.28	13.15	7.42	-31.9	-41.0	5.2	6.26e-01	0	41	102	1048576	23	10240
2026-01-05 01:23:20.29	13.10	7.50	-31.9	-40.9	5.3	5.77e-01	0	41	102	1048576	23	10097
2026-01-05 01:23:21.30	13.05	7.57	-31.8	-40.0	5.8	5.28e-01	0	41	102	1048576	23	9296
2026-01-05 01:23:22.30	12.99	7.65	-31.7	-39.3	6.2	3.59e-01	0	41	102	1048576	23	8647
2026-01-05 01:23:23.31	12.94	7.72	-31.5	-38.4	7.0	2.01e-01	0	41	102	1048576	23	7882
2026-01-05 01:23:24.32	12.89	7.80	-31.4	-37.5	7.7	1.21e-01	0	41	102	1048576	23	7249
2026-01-05 01:23:25.33	12.83	7.87	-31.2	-37.2	8.3	7.16e-02	0	41	102	1048576	22	7181
2026-01-05 01:23:26.33	12.78	7.95	-31.0	-36.4	9.0	3.13e-02	0	41	102	1048576	22	6647
2026-01-05 01:23:27.34	12.72	8.02	-30.9	-36.3	9.4	1.96e-02	0	41	102	1048576	21	6731
2026-01-05 01:23:28.35	12.67	8.10	-30.7	-35.7	9.9	1.10e-02	0	41	102	1048576	21	6358
2026-01-05 01:23:29.36	12.61	8.18	-30.6	-35.3	10.2	6.67e-03	0	41	102	1048576	21	6179
2026-01-05 01:23:30.36	12.56	8.25	-30.6	-35.2	10.3	5.14e-03	0	41	102	1048576	21	6099
2026-01-05 01:23:31.37	12.50	8.33	-30.5	-34.9	10.6	4.66e-03	0	41	102	1048576	21	5955
2026-01-05 01:23:32.38	12.45	8.41	-30.6	-35.1	10.4	3.38e-03	0	41	102	1048576	21	6044
2026-01-05 01:23:33.39	12.39	8.49	-30.5	-34.9	10.5	4.47e-03	0	41	102	1048576	21	5977
2026-01-05 01:23:34.39	12.33	8.56	-30.5	-34.8	10.7	3.81e-03	0	41	102	1048576	21	5918
2026-01-05 01:23:35.40	12.27	8.64	-30.5	-34.8	10.7	2.88e-03	0	41	102	1048576	21	5889
2026-01-05 01:23:36.41	12.22	8.72	-30.5	-34.9	10.7	2.97e-03	0	41	102	1048576	21	5926
2026-01-05 01:23:37.40	12.16	8.79	-30.5	-34.7	10.8	3.48e-03	0	42	102	1048576	21	5868
2026-01-05 01:23:38.41	12.10	8.87	-30.5	-34.8	10.7	2.65e-03	0	42	102	1048576	21	5907
2026-01-05 01:23:39.41	12.04	8.95	-30.5	-34.7	10.8	2.65e-03	0	42	102	1048576	21	5852
2026-01-05 01:23:40.42	11.98	9.03	-30.5	-35.2	10.6	2.32e-03	0	42	102	1048576	20	6190
2026-01-05 01:23:41.43	11.93	9.11	-30.5	-35.1	10.8	2.29e-03	0	42	102	1048576	20	6145
2026-01-05 01:23:42.44	11.87	9.19	-30.4	-34.9	11.0	2.05e-03	0	42	102	1048576	20	6060
2026-01-05 01:23:43.44	11.81	9.27	-30.5	-34.7	10.8	2.11e-03	0	42	102	1048576	21	5830
2026-01-05 01:23:44.45	11.75	9.35	-30.4	-35.0	11.0	2.10e-03	0	42	102	1048576	20	6079
2026-01-05 01:23:45.46	11.68	9.43	-30.5	-35.1	10.9	1.49e-03	0	42	102	1048576	20	6147
2026-01-05 01:23:46.47	11.62	9.51	-30.4	-34.8	11.2	1.43e-03	0	42	102	1048576	20	5967
2026-01-05 01:23:47.47	11.56	9.59	-30.4	-34.8	11.1	1.53e-03	0	42	102	1048576	20	6008
2026-01-05 01:23:48.48	11.50	9.67	-30.4	-34.7	11.3	1.46e-03	0	42	102	1048576	20	5940
2026-01-05 01:23:49.49	11.44	9.75	-30.4	-34.7	11.2	4.08e-03	0	42	102	1048576	20	5953
2026-01-05 01:23:50.49	11.38	9.83	-30.4	-35.0	11.1	1.52e-03	0	42	102	1048576	20	6055
2026-01-05 01:23:51.50	11.31	9.91	-30.3	-34.6	11.4	1.27e-03	0	42	102	1048576	20	5876
2026-01-05 01:23:52.50	11.25	9.99	-30.3	-34.4	11.5	4.06e-03	0	42	102	1048576	20	5785
2026-01-05 01:23:53.51	11.19	10.07	-30.3	-34.6	11.4	1.25e-03	0	42	102	1048576	20	5888
2026-01-05 01:23:54.52	11.12	10.16	-30.4	-34.6	11.4	1.05e-03	0	42	102	1048576	20	5892
2026-01-05 01:23:55.53	11.06	10.24	-30.3	-34.5	11.4	9.41e-04	0	42	102	1048576	20	5830
2026-01-05 01:23:56.53	11.00	10.32	-30.3	-34.4	11.5	3.79e-03	0	42	102	1048576	20	5804
2026-01-05 01:23:57.54	10.93	10.40	-30.4	-34.7	11.4	8.33e-04	0	42	102	1048576	20	5916
2026-01-05 01:23:58.54	10.86	10.49	-30.3	-34.6	11.4	9.97e-04	0	42	102	1048576	20	5875
2026-01-05 01:23:59.55	10.80	10.57	-30.3	-34.3	11.6	4.08e-03	0	42	102	1048576	20	5737
2026-01-05 01:24:00.56	10.73	10.65	-30.2	-34.2	11.7	6.58e-04	0	42	102	1048576	20	5690
2026-01-05 01:24:01.57	10.67	10.74	-30.3	-34.4	11.6	6.77e-04	0	42	102	1048576	20	5776
2026-01-05 01:24:02.57	10.60	10.82	-30.3	-34.3	11.7	3.81e-03	0	42	102	1048576	20	5730
2026-01-05 01:24:03.58	10.53	10.90	-30.3	-34.4	11.6	9.67e-04	0	42	102	1048576	20	5769
2026-01-05 01:24:04.59	10.46	10.99	-30.3	-34.3	11.6	8.35e-04	0	42	102	1048576	20	5745
2026-01-05 01:24:05.59	10.40	11.07	-30.3	-34.3	11.7	5.71e-04	0	42	102	1048576	20	5730
2026-01-05 01:24:06.60	10.33	11.16	-30.3	-34.3	11.7	9.46e-04	0	42	102	1048576	20	5714
2026-01-05 01:24:07.61	10.26	11.24	-30.3	-34.4	11.6	8.47e-04	0	42	102	1048576	20	5772
2026-01-05 01:24:08.61	10.19	11.33	-30.3	-34.3	11.7	7.08e-04	0	42	102	1048576	20	5721
2026-01-05 01:24:09.62	10.12	11.41	-30.3	-34.5	11.6	1.00e-03	0	42	102	1048576	20	5807
2026-01-05 01:24:10.62	10.05	11.50	-30.4	-34.9	11.3	4.14e-03	0	42	102	1048576	20	5979
2026-01-05 01:24:11.63	9.98	11.59	-30.4	-34.7	11.4	1.57e-03	0	42	102	1048576	20	5930
2026-01-05 01:24:12.64	9.91	11.67	-30.3	-34.5	11.6	1.01e-03	0	42	102	1048576	20	5793
2026-01-05 01:24:13.64	9.83	11.76	-30.3	-34.3	11.7	3.55e-03	0	42	102	1048576	20	5712
2026-01-05 01:24:14.64	9.76	11.84	-30.3	-34.2	11.8	3.08e-03	0	42	102	1048576	20	5698
2026-01-05 01:24:15.65	9.69	11.93	-30.3	-34.5	11.6	9.57e-04	0	42	102	1048576	20	5797
2026-01-05 01:24:16.66	9.62	12.02	-30.3	-34.5	11.7	3.39e-03	0	42	102	1048576	20	5790
2026-01-05 01:24:17.67	9.54	12.11	-30.2	-34.0	11.9	3.15e-03	0	43	102	1048576	20	5602
2026-01-05 01:24:18.67	9.47	12.19	-30.2	-33.9	12.0	3.97e-04	0	42	102	1048576	20	5565
2026-01-05 01:24:19.69	9.39	12.28	-30.2	-33.9	12.0	3.07e-03	0	42	102	1048576	20	5558
2026-01-05 01:24:20.69	9.32	12.37	-30.2	-34.0	12.0	3.17e-03	0	42	102	1048576	20	5586
2026-01-05 01:24:21.70	9.24	12.46	-30.2	-34.1	11.9	4.93e-04	0	42	102	1048576	20	5650
2026-01-05 01:24:22.71	9.17	12.55	-30.2	-33.9	12.1	3.04e-03	0	42	102	1048576	20	5541
2026-01-05 01:24:23.72	9.09	12.64	-30.2	-33.9	12.1	2.84e-03	0	42	102	1048576	20	5535
2026-01-05 01:24:24.73	9.01	12.73	-30.2	-34.0	12.0	7.57e-04	0	43	102	1048576	20	5593
2026-01-05 01:24:25.74	8.94	12.82	-30.2	-34.2	11.9	2.78e-03	0	42	102	1048576	20	5647
2026-01-05 01:24:26.74	8.86	12.91	-30.2	-34.1	12.0	3.30e-03	0	42	102	1048576	20	5626
2026-01-05 01:24:27.75	8.78	13.00	-30.2	-34.1	12.0	6.55e-04	0	43	102	1048576	20	5598
2026-01-05 01:24:28.75	8.70	13.09	-30.2	-33.9	12.1	3.09e-04	0	43	102	1048576	20	5537
2026-01-05 01:24:29.76	8.62	13.18	-30.3	-34.1	12.0	2.88e-03	0	42	102	1048576	20	5637
2026-01-05 01:24:30.77	8.54	13.27	-30.2	-34.0	12.0	5.65e-04	0	42	102	1048576	20	5583
2026-01-05 01:24:31.77	8.46	13.36	-30.2	-34.0	12.1	3.15e-03	0	42	102	1048576	20	5559
2026-01-05 01:24:32.78	8.38	13.46	-30.1	-34.1	11.9	3.11e-04	0	43	102	1048576	20	5665
2026-01-05 01:24:33.78	8.30	13.55	-30.2	-34.1	12.0	6.14e-04	0	43	102	1048576	20	5602
2026-01-05 01:24:34.79	8.22	13.64	-30.3	-34.1	12.0	3.08e-03	0	42	102	1048576	20	5630
2026-01-05 01:24:35.80	8.14	13.73	-30.2	-34.0	12.1	3.52e-04	0	43	102	1048576	20	5578
2026-01-05 01:24:36.81	8.05	13.83	-30.2	-33.9	12.2	5.31e-04	0	43	102	1048576	20	5513
2026-01-05 01:24:37.82	7.97	13.92	-30.2	-33.9	12.2	3.32e-03	0	42	102	1048576	20	5510
2026-01-05 01:24:38.82	7.89	14.01	-30.3	-34.2	12.0	3.07e-04	0	43	102	1048576	20	5649
2026-01-05 01:24:39.82	7.80	14.10	-30.2	-34.1	12.1	3.15e-04	0	43	102	1048576	20	5605
2026-01-05 01:24:40.83	7.72	14.20	-30.2	-33.8	12.3	2.83e-03	0	43	102	1048576	20	5475
2026-01-05 01:24:41.84	7.63	14.29	-30.2	-34.1	12.1	2.68e-03	0	43	102	1048576	20	5583
2026-01-05 01:24:42.84	7.54	14.39	-30.3	-34.1	12.1	2.38e-04	0	43	102	1048576	20	5614
2026-01-05 01:24:43.85	7.46	14.48	-30.2	-34.1	12.1	2.55e-03	0	43	102	1048576	20	5586
2026-01-05 01:24:44.86	7.37	14.58	-30.3	-34.3	11.9	2.98e-03	0	43	102	1048576	20	5703
2026-01-05 01:24:45.87	7.28	14.68	-30.3	-34.1	12.1	3.17e-04	0	43	102	1048576	20	5622
2026-01-05 01:24:46.87	7.19	14.77	-30.2	-34.0	12.2	2.33e-04	0	43	102	1048576	20	5553
2026-01-05 01:24:47.88	7.10	14.87	-30.3	-34.3	12.0	2.70e-03	0	43	102	1048576	20	5669
2026-01-05 01:24:48.89	7.01	14.96	-30.3	-34.1	12.2	2.60e-04	0	43	102	1048576	20	5577
2026-01-05 01:24:49.89	6.92	15.06	-30.2	-34.0	12.2	1.98e-04	0	43	102	1048576	20	5555
2026-01-05 01:24:50.90	6.83	15.16	-30.3	-34.1	12.2	1.59e-03	0	43	102	1048576	20	5594
2026-01-05 01:24:51.91	6.74	15.26	-30.3	-34.2	12.1	2.56e-04	0	43	102	1048576	20	5653
2026-01-05 01:24:52.92	6.65	15.35	-30.4	-34.6	11.8	3.97e-04	0	43	102	1048576	20	5803
2026-01-05 01:24:53.92	6.56	15.45	-30.4	-34.3	12.0	3.59e-04	0	43	102	1048576	20	5701
2026-01-05 01:24:54.92	6.46	15.55	-30.3	-34.1	12.1	4.39e-04	0	43	102	1048576	20	5582
2026-01-05 01:24:55.92	6.37	15.65	-30.3	-34.2	12.1	2.46e-04	0	43	102	1048576	20	5648
2026-01-05 01:24:56.94	6.27	15.75	-30.3	-34.1	12.2	2.80e-04	0	43	102	1048576	20	5589
2026-01-05 01:24:57.95	6.18	15.85	-30.3	-34.1	12.2	2.21e-04	0	43	102	1048576	20	5579
2026-01-05 01:24:58.95	6.08	15.95	-30.3	-34.1	12.2	2.17e-04	0	43	102	1048576	20	5576
2026-01-05 01:24:59.96	5.98	16.05	-30.5	-34.6	11.9	3.45e-04	0	43	102	1048576	20	5814
2026-01-05 01:25:00.97	5.89	16.15	-30.3	-34.0	12.3	4.14e-04	0	43	102	1048576	20	5534
2026-01-05 01:25:01.97	5.79	16.25	-30.2	-33.8	12.4	1.65e-04	0	43	102	1048576	20	5474
2026-01-05 01:25:02.97	5.69	16.35	-30.2	-34.0	12.3	1.50e-04	0	43	102	1048576	20	5517
2026-01-05 01:25:03.98	5.59	16.45	-30.4	-34.5	12.0	2.14e-04	0	43	102	1048576	20	5742
2026-01-05 01:25:04.99	5.49	16.55	-30.2	-34.0	12.2	3.06e-04	0	43	102	1048576	20	5520
2026-01-05 01:25:06.00	5.39	16.65	-30.3	-34.1	12.3	1.71e-04	0	43	102	1048576	20	5564
2026-01-05 01:25:07.00	5.29	16.76	-30.3	-34.0	12.3	1.76e-04	0	43	102	1048576	20	5549
2026-01-05 01:25:08.00	5.18	16.86	-30.2	-33.9	12.4	1.87e-04	0	43	102	1048576	20	5502
2026-01-05 01:25:09.01	5.08	16.96	-30.3	-34.1	12.2	2.58e-04	0	43	102	1048576	20	5587
2026-01-05 01:25:10.02	4.98	17.06	-30.3	-34.0	12.3	2.23e-04	0	43	102	1048576	20	5524
2026-01-05 01:25:11.02	4.87	17.17	-30.3	-34.1	12.3	1.53e-04	0	43	102	1048576	20	5590
2026-01-05 01:25:12.03	4.77	17.27	-30.4	-34.5	12.0	2.66e-04	0	43	102	1048576	20	5758
2026-01-05 01:25:13.04	4.66	17.38	-30.3	-34.1	12.2	2.02e-04	0	43	102	1048576	20	5577
2026-01-05 01:25:14.05	4.55	17.48	-30.3	-34.0	11.5	1.79e-04	0	43	102	1048576	20	5517
2026-01-05 01:25:15.06	4.45	17.59	-30.3	-34.1	12.1	4.41e-04	0	43	102	1048576	20	5591
2026-01-05 01:25:16.07	4.34	17.69	-30.5	-34.6	11.7	2.52e-04	0	43	102	1048576	20	5775
2026-01-05 01:25:17.08	4.23	17.80	-30.3	-34.2	12.1	2.52e-04	0	43	102	1048576	20	5623
2026-01-05 01:25:18.08	4.12	17.90	-30.4	-34.3	12.2	2.08e-04	0	43	102	1048576	20	5637
2026-01-05 01:25:19.09	4.01	18.01	-30.3	-34.0	12.4	2.39e-04	0	43	102	1048576	20	5524
2026-01-05 01:25:20.10	3.89	18.12	-30.3	-34.1	12.3	1.91e-04	0	43	102	1048576	20	5585
2026-01-05 01:25:21.10	3.78	18.22	-30.3	-34.1	12.3	1.74e-04	0	43	102	1048576	20	5563
2026-01-05 01:25:22.11	3.67	18.33	-30.4	-34.4	12.1	3.14e-03	0	43	102	1048576	20	5680
2026-01-05 01:25:23.12	3.55	18.44	-30.3	-34.1	12.4	2.27e-04	0	43	102	1048576	20	5572
2026-01-05 01:25:24.12	3.44	18.55	-30.4	-34.3	12.2	1.93e-04	0	43	102	1048576	20	5657
2026-01-05 01:25:25.13	3.32	18.66	-30.5	-34.2	11.9	3.24e-03	0	43	102	1048576	21	5520
2026-01-05 01:25:26.14	3.21	18.77	-30.4	-34.3	12.2	2.61e-04	0	43	102	1048576	20	5671
2026-01-05 01:25:27.15	3.09	18.88	-30.4	-34.3	12.2	2.29e-04	0	43	102	1048576	20	5644
2026-01-05 01:25:28.15	2.97	18.98	-30.4	-34.5	12.1	2.88e-03	0	43	102	1048576	20	5716
2026-01-05 01:25:29.16	2.85	19.09	-30.3	-34.1	12.3	3.06e-03	0	43	102	1048576	20	5576
2026-01-05 01:25:30.16	2.73	19.20	-30.4	-34.3	12.3	1.59e-04	0	43	102	1048576	20	5627
2026-01-05 01:25:31.17	2.61	19.32	-30.3	-34.1	12.4	1.52e-04	0	43	102	1048576	20	5569
2026-01-05 01:25:32.17	2.49	19.43	-30.4	-34.3	12.3	2.93e-03	0	43	102	1048576	20	5642
2026-01-05 01:25:33.18	2.37	19.54	-30.4	-34.3	12.3	5.68e-04	0	43	102	1048576	20	5634
2026-01-05 01:25:34.19	2.24	19.65	-30.4	-34.3	12.3	2.01e-04	0	43	102	1048576	20	5644
2026-01-05 01:25:35.19	2.12	19.76	-30.5	-34.5	12.1	2.75e-03	0	43	102	1048576	20	5729
2026-01-05 01:25:36.20	1.99	19.87	-30.4	-34.4	12.2	4.67e-04	0	43	102	1048576	20	5685
2026-01-05 01:25:37.21	1.86	19.99	-30.5	-34.5	12.1	2.62e-04	0	43	102	1048576	20	5725
2026-01-05 01:25:38.21	1.74	20.10	-30.5	-34.2	12.0	3.27e-03	0	43	102	1048576	21	5499
2026-01-05 01:25:39.22	1.61	20.21	-30.6	-34.4	11.9	7.58e-04	0	43	102	1048576	21	5577
2026-01-05 01:25:40.23	1.48	20.33	-30.4	-33.9	12.2	3.10e-03	0	43	102	1048576	21	5359
2026-01-05 01:25:41.24	1.35	20.44	-30.4	-34.2	12.4	1.79e-04	0	43	102	1048576	20	5593
2026-01-05 01:25:42.24	1.22	20.56	-30.4	-34.2	12.3	4.52e-04	0	43	102	1048576	20	5611
2026-01-05 01:25:43.25	1.08	20.67	-30.3	-34.1	12.4	2.90e-03	0	43	102	1048576	20	5557
2026-01-05 01:25:44.26	0.95	20.79	-30.4	-34.2	12.4	1.20e-04	0	43	102	1048576	20	5594
2026-01-05 01:25:45.27	0.81	20.90	-30.4	-34.3	12.4	4.93e-04	0	43	102	1048576	20	5609
2026-01-05 01:25:46.27	0.68	21.02	-30.3	-34.1	12.5	2.61e-03	0	43	102	1048576	20	5529
2026-01-05 01:25:47.28	0.54	21.14	-30.3	-34.1	12.5	2.94e-03	0	43	102	1048576	20	5530
2026-01-05 01:25:48.29	0.40	21.25	-30.4	-34.3	12.4	5.27e-04	0	43	102	1048576	20	5623
2026-01-05 01:25:49.30	0.26	21.37	-30.4	-34.3	12.4	3.01e-03	0	43	102	1048576	20	5614
2026-01-05 01:25:50.31	0.12	21.49	-30.4	-34.3	12.3	2.84e-03	0	43	102	1048576	20	5641
2026-01-05 01:25:51.31	359.98	21.61	-30.4	-34.3	12.3	1.81e-04	0	43	102	1048576	20	5635
2026-01-05 01:25:52.32	359.84	21.72	-30.4	-34.3	12.3	2.78e-03	0	43	102	1048576	20	5623
2026-01-05 01:25:53.32	359.70	21.84	-30.4	-34.4	12.3	2.89e-03	0	43	102	1048576	20	5649
2026-01-05 01:25:54.33	359.55	21.96	-30.4	-34.2	12.5	4.15e-04	0	43	102	1048576	20	5560
2026-01-05 01:25:55.34	359.41	22.08	-30.4	-34.1	12.5	2.58e-03	0	43	102	1048576	20	5526
2026-01-05 01:25:56.34	359.26	22.20	-30.4	-34.2	12.5	2.89e-03	0	43	102	1048576	20	5575
2026-01-05 01:25:57.36	359.11	22.32	-30.5	-34.4	12.3	4.23e-04	0	43	102	1048576	20	5654
2026-01-05 01:25:58.36	358.96	22.44	-30.4	-34.3	12.4	1.38e-04	0	43	102	1048576	20	5616
2026-01-05 01:25:59.37	358.81	22.56	-30.4	-34.2	12.5	2.72e-03	0	43	102	1048576	20	5584
2026-01-05 01:26:00.38	358.66	22.68	-30.4	-34.1	12.5	4.03e-04	0	43	102	1048576	20	5533
2026-01-05 01:26:01.38	358.51	22.80	-30.3	-34.0	12.6	1.06e-04	0	43	102	1048576	20	5514
2026-01-05 01:26:02.38	358.36	22.93	-30.4	-34.1	12.5	1.88e-03	0	43	102	1048576	20	5539
2026-01-05 01:26:03.38	358.20	23.05	-30.4	-34.2	12.5	4.67e-04	0	43	102	1048576	20	5586
2026-01-05 01:26:04.39	358.05	23.17	-30.4	-34.1	12.6	2.74e-03	0	43	102	1048576	20	5528
2026-01-05 01:26:05.40	357.89	23.29	-30.4	-34.1	12.6	9.00e-05	0	43	102	1048576	20	5547
2026-01-05 01:26:06.41	357.73	23.42	-30.4	-34.2	12.5	5.02e-04	0	43	102	1048576	20	5583
2026-01-05 01:26:07.42	357.57	23.54	-30.4	-34.2	12.5	2.91e-03	0	43	102	1048576	20	5579
2026-01-05 01:26:08.42	357.41	23.66	-30.3	-34.0	12.7	9.61e-05	0	43	102	1048576	20	5499
2026-01-05 01:26:09.42	357.25	23.79	-30.4	-34.2	12.5	1.36e-04	0	43	102	1048576	20	5554
2026-01-05 01:26:10.43	357.08	23.91	-30.4	-34.1	12.6	2.57e-03	0	43	102	1048576	20	5519
2026-01-05 01:26:11.44	356.91	24.04	-30.3	-34.0	12.7	7.85e-05	0	43	102	1048576	20	5476
2026-01-05 01:26:12.44	356.75	24.16	-30.4	-34.0	12.7	1.09e-04	0	43	102	1048576	20	5497
2026-01-05 01:26:13.45	356.58	24.29	-30.4	-34.1	12.7	2.26e-03	0	43	102	1048576	20	5522
2026-01-05 01:26:14.46	356.41	24.41	-30.3	-34.0	12.6	2.52e-03	0	43	102	1048576	20	5495
2026-01-05 01:26:15.47	356.24	24.54	-30.3	-34.0	12.7	6.71e-05	0	43	102	1048576	20	5476
2026-01-05 01:26:16.48	356.07	24.67	-30.4	-34.1	12.6	8.08e-05	0	43	102	1048576	20	5525
2026-01-05 01:26:17.48	355.89	24.79	-30.4	-34.1	12.6	2.46e-03	0	43	102	1048576	20	5542
2026-01-05 01:26:18.49	355.72	24.92	-30.4	-34.2	12.5	1.15e-04	0	43	102	1048576	20	5571
2026-01-05 01:26:19.49	355.54	25.05	-30.4	-34.3	12.5	1.07e-04	0	43	102	1048576	20	5602
2026-01-05 01:26:20.51	355.36	25.18	-30.4	-34.2	12.6	1.07e-04	0	43	102	1048576	20	5578
2026-01-05 01:26:21.51	355.18	25.31	-30.5	-34.0	12.3	2.46e-04	0	43	102	1048576	21	5381
2026-01-05 01:26:22.52	355.00	25.43	-30.7	-34.5	12.0	2.75e-04	0	43	102	1048576	21	5606
2026-01-05 01:26:23.52	354.82	25.56	-30.7	-34.5	12.0	3.26e-04	0	43	102	1048576	21	5600
2026-01-05 01:26:24.53	354.63	25.69	-30.6	-34.3	12.2	4.71e-04	0	43	102	1048576	21	5495
2026-01-05 01:26:25.54	354.45	25.82	-30.6	-34.4	12.1	2.13e-04	0	43	102	1048576	21	5534
2026-01-05 01:26:26.54	354.26	25.95	-30.6	-34.2	12.2	2.50e-04	0	43	102	1048576	21	5444
2026-01-05 01:26:27.55	354.07	26.08	-30.6	-34.3	12.2	1.81e-04	0	43	102	1048576	21	5483
2026-01-05 01:26:28.56	353.88	26.21	-30.5	-34.1	12.4	1.75e-04	0	43	102	1048576	21	5394
2026-01-05 01:26:29.57	353.69	26.34	-30.6	-34.1	12.3	1.69e-04	0	43	102	1048576	21	5418
2026-01-05 01:26:30.57	353.50	26.47	-30.8	-34.7	11.9	2.50e-04	0	43	102	1048576	21	5673
2026-01-05 01:26:31.57	353.30	26.60	-30.8	-34.8	11.9	5.51e-04	0	43	102	1048576	21	5684
2026-01-05 01:26:32.58	353.11	26.73	-30.6	-34.3	12.2	3.36e-04	0	43	102	1048576	21	5493
2026-01-05 01:26:33.59	352.91	26.87	-30.7	-34.5	12.1	2.77e-04	0	43	102	1048576	21	5580
2026-01-05 01:26:34.59	352.71	27.00	-30.7	-34.6	12.0	2.50e-04	0	43	102	1048576	21	5598
2026-01-05 01:26:35.60	352.51	27.13	-30.1	-34.1	11.9	3.45e-04	0	43	102	1048576	21	5703
2026-01-05 01:26:36.61	352.30	27.26	-30.9	-35.0	11.6	5.61e-04	0	43	102	1048576	21	5831
2026-01-05 01:26:37.61	352.10	27.39	-30.9	-35.0	11.2	5.34e-04	0	43	102	1048576	21	5811
2026-01-05 01:26:38.62	351.89	27.53	-31.0	-35.3	11.4	6.81e-04	0	43	102	1048576	21	5921
2026-01-05 01:26:39.62	351.68	27.66	-31.0	-34.9	11.1	8.77e-04	0	43	102	1048576	22	5629
2026-01-05 01:26:40.62	351.47	27.79	-31.0	-35.4	11.1	7.59e-04	0	43	102	1048576	21	5961
2026-01-05 01:26:41.62	351.26	27.93	-31.1	-35.2	11.3	9.54e-04	0	43	102	1048576	22	5753
2026-01-05 01:26:42.63	351.05	28.06	-31.1	-35.1	11.2	1.23e-03	0	43	102	1048576	22	5741
2026-01-05 01:26:43.63	350.83	28.19	-31.2	-35.6	11.0	1.26e-03	0	43	102	1048576	22	5953
2026-01-05 01:26:44.64	350.61	28.33	-31.2	-35.6	11.0	1.85e-03	0	43	102	1048576	22	5949
2026-01-05 01:26:45.65	350.39	28.46	-31.3	-35.8	10.8	2.69e-03	0	43	102	1048576	22	6052
2026-01-05 01:26:46.66	350.17	28.60	-31.4	-36.3	10.5	3.66e-03	0	43	102	1048576	22	6320
2026-01-05 01:26:47.66	349.95	28.73	-31.6	-36.2	10.1	4.92e-03	0	43	102	1048576	23	6172
2026-01-05 01:26:48.66	349.73	28.86	-31.7	-36.8	9.7	1.22e-02	0	43	102	1048576	23	6457
2026-01-05 01:26:49.67	349.50	29.00	-31.8	-37.1	9.5	1.47e-02	0	43	102	1048576	23	6618
2026-01-05 01:26:50.68	349.27	29.13	-31.9	-37.5	9.2	1.75e-02	0	43	102	1048576	23	6848
2026-01-05 01:26:51.68	349.04	29.27	-31.9	-37.6	9.1	2.78e-02	0	43	102	1048576	23	6932
2026-01-05 01:26:52.69	348.80	29.40	-32.0	-37.8	8.9	2.33e-02	0	43	102	1048576	23	7038
2026-01-05 01:26:53.70	348.57	29.54	-32.1	-37.6	8.7	2.85e-02	0	43	102	1048576	24	6823
2026-01-05 01:26:54.70	348.33	29.67	-32.0	-37.3	9.0	3.05e-02	0	43	102	1048576	24	6617
2026-01-05 01:26:55.71	348.09	29.81	-31.9	-37.6	9.2	2.35e-02	0	43	102	1048576	23	6886
2026-01-05 01:26:56.72	347.85	29.95	-31.9	-37.6	9.1	2.04e-02	0	43	102	1048576	23	6911
2026-01-05 01:26:57.72	347.61	30.08	-31.9	-37.7	9.1	2.27e-02	0	43	102	1048576	23	6955
2026-01-05 01:26:58.72	347.37	30.22	-31.9	-37.6	9.0	2.69e-02	0	43	102	1048576	23	6901
2026-01-05 01:26:59.72	347.12	30.35	-31.9	-37.4	9.3	2.40e-02	0	43	102	1048576	23	6789
2026-01-05 01:27:00.73	346.87	30.49	-31.7	-36.9	9.7	1.55e-02	0	43	102	1048576	23	6478
2026-01-05 01:27:01.73	346.62	30.62	-31.8	-36.8	9.8	1.07e-02	0	43	102	1048576	23	6475
2026-01-05 01:27:02.74	346.36	30.76	-31.8	-36.9	9.7	1.04e-02	0	43	102	1048576	23	6497
2026-01-05 01:27:03.74	346.11	30.89	-31.8	-36.9	9.7	1.10e-02	0	43	102	1048576	23	6471
2026-01-05 01:27:04.75	345.85	31.03	-31.7	-36.7	9.8	1.23e-02	0	43	102	1048576	23	6395
2026-01-05 01:27:05.75	345.59	31.16	-31.8	-37.2	9.5	1.29e-02	0	43	102	1048576	23	6655
2026-01-05 01:27:06.76	345.33	31.30	-31.9	-37.2	9.4	1.53e-02	0	43	102	1048576	23	6673
2026-01-05 01:27:07.77	345.06	31.44	-31.8	-37.0	9.6	1.29e-02	0	43	102	1048576	23	6571
2026-01-05 01:27:08.77	344.80	31.57	-31.8	-37.2	9.5	1.49e-02	0	43	102	1048576	23	6664
2026-01-05 01:27:09.78	344.53	31.71	-31.9	-37.3	9.4	1.71e-02	0	43	102	1048576	23	6747
2026-01-05 01:27:10.79	344.25	31.84	-31.9	-37.4	9.3	1.36e-02	0	43	102	1048576	23	6761
2026-01-05 01:27:11.79	343.98	31.98	-31.9	-37.4	9.4	1.73e-02	0	43	102	1048576	23	6764
2026-01-05 01:27:12.80	343.71	32.11	-31.9	-37.2	9.5	1.91e-02	0	43	102	1048576	23	6676
2026-01-05 01:27:13.81	343.43	32.25	-31.9	-37.5	9.3	1.90e-02	0	43	102	1048576	23	6838
2026-01-05 01:27:14.82	343.14	32.38	-31.9	-37.4	9.3	1.65e-02	0	43	102	1048576	23	6810
2026-01-05 01:27:15.82	342.86	32.52	-31.9	-37.5	9.2	2.34e-02	0	43	102	1048576	23	6844
2026-01-05 01:27:16.82	342.58	32.65	-32.0	-37.7	9.1	2.33e-02	0	43	102	1048576	23	6926
2026-01-05 01:27:17.83	342.29	32.79	-31.9	-37.0	9.3	2.12e-02	0	43	102	1048576	24	6450
2026-01-05 01:27:18.84	342.00	32.92	-31.7	-36.8	9.8	1.54e-02	0	43	102	1048576	23	6432
2026-01-05 01:27:19.84	341.71	33.05	-31.6	-36.4	10.1	1.12e-02	0	43	102	1048576	23	6218
2026-01-05 01:27:20.84	341.41	33.19	-31.6	-36.1	10.3	5.51e-03	0	43	102	1048576	23	6101
2026-01-05 01:27:21.84	341.12	33.32	-31.5	-35.9	10.5	6.47e-03	0	43	102	1048576	23	5959
2026-01-05 01:27:22.85	340.82	33.45	-31.3	-35.8	11.0	5.19e-03	0	43	102	1048576	22	6010
2026-01-05 01:27:23.85	340.52	33.58	-31.3	-35.8	11.0	1.42e-03	0	43	102	1048576	22	6018
2026-01-05 01:27:24.86	340.21	33.72	-31.5	-36.3	10.6	3.09e-03	0	43	102	1048576	22	6270
2026-01-05 01:27:25.87	339.90	33.85	-31.3	-35.6	11.1	5.10e-03	0	43	102	1048576	22	5917
2026-01-05 01:27:26.87	339.59	33.98	-31.2	-35.2	11.4	1.33e-03	0	43	102	1048576	22	5761
2026-01-05 01:27:27.87	339.28	34.11	-31.1	-34.9	11.5	3.39e-03	0	43	102	1048576	22	5636
2026-01-05 01:27:28.88	338.97	34.24	-31.1	-35.0	11.5	3.16e-03	0	43	102	1048576	22	5671
2026-01-05 01:27:29.88	338.65	34.37	-31.2	-35.3	11.4	1.00e-03	0	43	102	1048576	22	5785
2026-01-05 01:27:30.89	338.33	34.50	-31.4	-36.0	10.8	4.20e-03	0	43	102	1048576	22	6119
2026-01-05 01:27:31.89	338.01	34.63	-31.4	-36.1	10.8	2.69e-03	0	43	102	1048576	22	6153
2026-01-05 01:27:32.90	337.68	34.76	-31.5	-35.9	10.6	3.36e-03	0	43	102	1048576	23	5968
2026-01-05 01:27:33.91	337.35	34.89	-31.7	-36.5	10.1	7.30e-03	0	43	102	1048576	23	6268
2026-01-05 01:27:34.92	337.02	35.01	-31.6	-36.3	10.2	5.80e-03	0	43	102	1048576	23	6182
2026-01-05 01:27:35.92	336.69	35.14	-31.5	-35.9	10.5	4.40e-03	0	43	102	1048576	23	5954
2026-01-05 01:27:36.93	336.35	35.27	-31.4	-36.1	10.8	5.39e-03	0	43	102	1048576	22	6181
2026-01-05 01:27:37.94	336.01	35.39	-31.4	-36.0	10.8	2.29e-03	0	43	102	1048576	22	6114
2026-01-05 01:27:38.94	335.67	35.52	-31.4	-36.2	10.8	2.65e-03	0	43	102	1048576	22	6197
2026-01-05 01:27:39.94	335.33	35.64	-31.6	-36.2	10.3	5.76e-03	0	43	102	1048576	23	6096
2026-01-05 01:27:40.95	334.98	35.77	-31.8	-37.1	9.7	8.85e-03	0	43	102	1048576	23	6574
2026-01-05 01:27:41.95	334.63	35.89	-31.7	-36.5	10.1	9.23e-03	0	43	102	1048576	23	6299
2026-01-05 01:27:42.95	334.28	36.01	-31.6	-36.2	10.3	5.93e-03	0	43	102	1048576	23	6101
2026-01-05 01:27:43.96	333.93	36.13	-31.5	-36.0	10.5	7.11e-03	0	43	102	1048576	23	6004
2026-01-05 01:27:44.96	333.57	36.25	-31.6	-36.3	10.2	5.58e-03	0	43	102	1048576	23	6166
2026-01-05 01:27:45.97	333.21	36.37	-31.7	-36.4	10.2	6.25e-03	0	43	102	1048576	23	6208
2026-01-05 01:27:46.98	332.85	36.49	-31.7	-36.6	10.0	7.91e-03	0	43	102	1048576	23	6335
2026-01-05 01:27:47.99	332.48	36.61	-31.8	-36.9	9.8	9.89e-03	0	43	102	1048576	23	6488
2026-01-05 01:27:48.99	332.12	36.73	-31.7	-36.5	10.0	8.67e-03	0	43	102	1048576	23	6280
2026-01-05 01:27:50.00	331.74	36.84	-31.7	-36.7	9.9	6.61e-03	0	43	102	1048576	23	6372
2026-01-05 01:27:51.01	331.37	36.96	-31.7	-36.7	10.0	7.42e-03	0	43	102	1048576	23	6369
2026-01-05 01:27:52.02	330.99	37.07	-31.6	-36.3	10.2	6.94e-03	0	43	102	1048576	23	6190
2026-01-05 01:27:53.03	330.61	37.19	-31.7	-36.4	10.2	6.21e-03	0	43	102	1048576	23	6232
2026-01-05 01:27:54.03	330.23	37.30	-31.7	-36.6	10.0	6.67e-03	0	43	102	1048576	23	6331
2026-01-05 01:27:55.04	329.85	37.41	-31.7	-36.7	10.0	8.40e-03	0	43	102	1048576	23	6365
2026-01-05 01:27:56.05	329.46	37.52	-31.6	-36.1	10.4	5.23e-03	0	43	102	1048576	23	6071
2026-01-05 01:27:57.06	329.07	37.63	-31.5	-36.0	10.5	4.04e-03	0	43	102	1048576	23	5996
2026-01-05 01:27:58.06	328.68	37.74	-31.5	-35.7	10.7	3.01e-03	0	43	102	1048576	23	5865
2026-01-05 01:27:59.07	328.29	37.84	-31.5	-36.0	10.5	3.41e-03	0	43	102	1048576	23	6001
2026-01-05 01:28:00.07	327.89	37.95	-30.7	-35.0	10.6	3.11e-03	0	43	102	1048576	23	5905
2026-01-05 01:28:01.08	327.49	38.05	-31.6	-36.2	10.1	3.32e-03	0	43	102	1048576	23	6115
2026-01-05 01:28:02.08	327.09	38.15	-31.7	-36.5	10.1	5.94e-03	0	43	102	1048576	23	6274
2026-01-05 01:28:03.09	326.68	38.26	-31.5	-35.9	10.5	4.45e-03	0	43	102	1048576	23	5953
2026-01-05 01:28:04.10	326.28	38.36	-31.3	-35.6	11.1	2.45e-03	0	43	102	1048576	22	5904
2026-01-05 01:28:05.11	325.86	38.45	-31.1	-35.0	11.6	7.92e-04	0	43	102	1048576	22	5641
2026-01-05 01:28:06.11	325.45	38.55	-31.1	-34.9	11.7	6.54e-04	0	43	102	1048576	22	5615
2026-01-05 01:28:07.12	325.04	38.65	-31.1	-35.1	11.5	5.93e-04	0	43	102	1048576	22	5668
2026-01-05 01:28:08.13	324.62	38.74	-31.2	-35.2	11.4	8.54e-04	0	43	102	1048576	22	5751
2026-01-05 01:28:09.13	324.20	38.83	-31.1	-35.2	11.5	9.41e-04	0	44	102	1048576	22	5726
2026-01-05 01:28:10.14	323.78	38.93	-31.1	-35.1	11.6	7.98e-04	0	43	102	1048576	22	5672
2026-01-05 01:28:11.14	323.36	39.02	-31.0	-34.9	11.7	6.88e-04	0	43	102	1048576	22	5583
2026-01-05 01:28:12.15	322.93	39.10	-31.0	-34.8	11.7	1.11e-03	0	43	102	1048576	22	5549
2026-01-05 01:28:13.16	322.50	39.19	-31.1	-34.9	11.6	6.45e-04	0	43	102	1048576	22	5597
2026-01-05 01:28:14.16	322.07	39.28	-31.0	-34.8	11.7	5.21e-04	0	43	102	1048576	22	5549
2026-01-05 01:28:15.17	321.64	39.36	-30.8	-34.6	12.2	7.12e-04	0	43	102	1048576	21	5589
2026-01-05 01:28:16.18	321.20	39.44	-30.7	-34.4	12.4	1.81e-04	0	43	102	1048576	21	5482
2026-01-05 01:28:17.18	320.76	39.52	-30.6	-34.2	12.5	1.15e-04	0	43	102	1048576	21	5395
2026-01-05 01:28:18.19	320.32	39.60	-30.7	-34.2	12.5	2.55e-03	0	43	102	1048576	21	5410
2026-01-05 01:28:19.20	319.88	39.68	-30.7	-34.2	12.5	3.76e-04	0	43	102	1048576	21	5407
2026-01-05 01:28:20.20	319.44	39.75	-30.4	-33.5	13.0	5.79e-05	0	43	102	1048576	21	5147
2026-01-05 01:28:21.21	318.99	39.82	-30.4	-34.0	12.9	2.21e-03	0	43	102	1048576	20	5445
2026-01-05 01:28:22.22	318.54	39.90	-30.5	-33.6	12.9	1.87e-04	0	43	102	1048576	21	5181
2026-01-05 01:28:23.23	318.08	39.96	-30.2	-33.5	13.2	3.20e-05	0	43	102	1048576	20	5252
2026-01-05 01:28:24.23	317.64	40.03	-30.2	-33.4	13.3	1.22e-05	0	43	102	1048576	20	5186
2026-01-05 01:28:25.24	317.18	40.10	-30.3	-33.7	13.2	2.97e-04	0	43	102	1048576	20	5320
2026-01-05 01:28:26.25	316.72	40.16	-30.5	-33.8	12.7	3.96e-05	0	43	102	1048576	21	5239
2026-01-05 01:28:27.26	316.26	40.22	-30.8	-34.6	12.2	1.15e-04	0	43	102	1048576	21	5583
2026-01-05 01:28:28.26	315.81	40.28	-31.1	-34.9	11.6	3.04e-03	0	43	102	1048576	22	5581
2026-01-05 01:28:29.27	315.34	40.34	-30.8	-34.2	12.1	4.26e-04	0	43	102	1048576	22	5320
2026-01-05 01:28:30.28	314.88	40.40	-30.7	-34.4	12.3	5.12e-04	0	43	102	1048576	21	5497
2026-01-05 01:28:31.29	314.41	40.45	-30.6	-34.0	12.6	2.74e-03	0	43	102	1048576	21	5350
2026-01-05 01:28:32.29	313.95	40.50	-30.6	-34.1	12.6	4.41e-04	0	43	102	1048576	21	5360
2026-01-05 01:28:33.30	313.48	40.55	-30.7	-34.3	12.4	3.45e-04	0	43	102	1048576	21	5464
2026-01-05 01:28:34.31	313.01	40.60	-30.4	-33.6	12.9	1.61e-03	0	43	102	1048576	21	5174
2026-01-05 01:28:35.32	312.54	40.64	-30.2	-33.5	13.3	3.23e-04	0	43	102	1048576	20	5250
2026-01-05 01:28:36.32	312.07	40.69	-30.0	-32.8	13.7	2.15e-03	0	43	102	1048576	20	4994
2026-01-05 01:28:37.33	311.59	40.73	-30.0	-32.9	13.7	3.22e-04	0	43	102	1048576	20	5022
2026-01-05 01:28:38.34	311.12	40.76	-30.0	-32.7	13.8	2.91e-04	0	43	102	1048576	20	4951
2026-01-05 01:28:39.35	310.64	40.80	-30.1	-33.0	13.6	2.70e-03	0	43	102	1048576	20	5064
2026-01-05 01:28:40.35	310.17	40.84	-30.2	-33.4	13.4	3.95e-04	0	43	102	1048576	20	5180
2026-01-05 01:28:41.35	309.69	40.87	-30.0	-32.8	13.8	4.58e-04	0	43	102	1048576	20	4969
2026-01-05 01:28:42.36	309.22	40.90	-29.9	-33.0	14.0	2.58e-03	0	43	102	1048576	19	5166
2026-01-05 01:28:43.37	308.73	40.92	-29.9	-32.6	13.8	2.33e-03	0	43	102	1048576	20	4925
2026-01-05 01:28:44.38	308.25	40.95	-30.1	-33.1	13.6	4.42e-04	0	43	102	1048576	20	5073
2026-01-05 01:28:45.39	307.77	40.97	-30.1	-33.1	13.5	2.41e-03	0	43	102	1048576	20	5109
2026-01-05 01:28:46.39	307.29	40.99	-30.0	-33.0	13.6	2.75e-03	0	43	102	1048576	20	5047
2026-01-05 01:28:47.40	306.81	41.01	-30.2	-33.4	13.4	4.95e-05	0	43	102	1048576	20	5191
2026-01-05 01:28:48.40	306.33	41.03	-30.2	-33.5	13.3	2.36e-03	0	43	102	1048576	20	5230
2026-01-05 01:28:49.40	305.85	41.04	-30.4	-33.9	13.1	2.67e-03	0	43	102	1048576	20	5395
2026-01-05 01:28:50.41	305.37	41.05	-30.3	-33.7	13.2	2.66e-04	0	43	102	1048576	20	5320
2026-01-05 01:28:51.41	304.89	41.06	-30.3	-33.7	13.1	2.26e-03	0	43	102	1048576	20	5339
2026-01-05 01:28:52.42	304.40	41.07	-30.5	-33.7	12.9	2.15e-03	0	43	102	1048576	21	5202
2026-01-05 01:28:53.43	303.91	41.07	-30.6	-34.2	12.5	1.88e-04	0	43	102	1048576	21	5394
2026-01-05 01:28:54.43	303.43	41.08	-30.7	-34.4	12.3	9.38e-05	0	43	102	1048576	21	5504
2026-01-05 01:28:55.44	302.95	41.08	-31.1	-34.9	11.8	2.45e-03	0	43	102	1048576	22	5585
2026-01-05 01:28:56.44	302.47	41.07	-30.9	-34.8	12.1	4.90e-04	0	43	102	1048576	21	5674
2026-01-05 01:28:57.45	301.98	41.07	-30.8	-34.7	12.2	2.17e-04	0	43	102	1048576	21	5605
2026-01-05 01:28:58.46	301.50	41.06	-30.9	-34.8	12.1	1.84e-03	0	43	102	1048576	21	5656
2026-01-05 01:28:59.47	301.01	41.05	-30.8	-34.7	12.2	3.28e-04	0	43	102	1048576	21	5631
2026-01-05 01:29:00.47	300.53	41.04	-31.0	-34.6	11.9	3.81e-04	0	43	102	1048576	22	5449
2026-01-05 01:29:01.48	300.05	41.03	-31.0	-34.8	11.8	4.90e-04	0	43	102	1048576	22	5550
2026-01-05 01:29:02.49	299.56	41.01	-31.1	-34.9	11.6	4.96e-04	0	43	102	1048576	22	5592
2026-01-05 01:29:03.50	299.08	40.99	-31.0	-34.8	11.7	2.23e-03	0	43	102	1048576	22	5546
2026-01-05 01:29:04.50	298.60	40.97	-31.1	-34.9	11.6	5.72e-04	0	43	102	1048576	22	5611
2026-01-05 01:29:05.51	298.12	40.95	-31.3	-35.6	11.2	8.87e-04	0	43	102	1048576	22	5908
2026-01-05 01:29:06.51	297.64	40.93	-31.6	-36.1	10.4	5.92e-03	0	43	102	1048576	23	6038
2026-01-05 01:29:07.52	297.16	40.90	-31.8	-37.0	9.9	6.84e-03	0	43	102	1048576	23	6515
2026-01-05 01:29:08.52	296.69	40.87	-31.8	-36.8	9.9	1.32e-02	0	43	102	1048576	23	6410
2026-01-05 01:29:09.53	296.21	40.84	-31.5	-35.7	10.7	7.83e-03	0	43	102	1048576	23	5886
2026-01-05 01:29:10.53	295.73	40.80	-31.4	-36.1	10.8	4.96e-03	0	44	102	1048576	22	6138
2026-01-05 01:29:11.53	295.26	40.77	-31.3	-35.8	11.0	1.81e-03	0	43	102	1048576	22	6000
2026-01-05 01:29:12.54	294.78	40.73	-31.5	-35.7	10.7	2.57e-03	0	43	102	1048576	23	5851
2026-01-05 01:29:13.55	294.31	40.69	-31.7	-36.5	10.2	6.27e-03	0	43	102	1048576	23	6255
2026-01-05 01:29:14.56	293.84	40.64	-32.0	-37.5	9.4	1.29e-02	0	43	102	1048576	23	6793
2026-01-05 01:29:15.57	293.36	40.60	-32.2	-38.0	8.6	2.60e-02	0	43	102	1048576	24	6995
2026-01-05 01:29:16.58	292.89	40.55	-32.2	-38.1	8.5	4.71e-02	0	43	102	1048576	24	7066
2026-01-05 01:29:17.58	292.43	40.50	-32.3	-38.3	8.3	4.66e-02	0	43	102	1048576	24	7226
2026-01-05 01:29:18.59	291.96	40.45	-32.4	-38.8	8.0	6.62e-02	0	43	102	1048576	24	7500
2026-01-05 01:29:19.59	291.50	40.40	-32.4	-38.9	7.9	6.88e-02	0	43	102	1048576	24	7582
2026-01-05 01:29:20.59	291.04	40.34	-32.3	-38.6	8.1	7.52e-02	0	43	102	1048576	24	7418
2026-01-05 01:29:21.60	290.57	40.28	-32.3	-38.5	8.2	6.14e-02	0	43	102	1048576	24	7352
2026-01-05 01:29:22.61	290.11	40.22	-32.4	-38.8	8.0	6.03e-02	0	44	102	1048576	24	7511
2026-01-05 01:29:23.62	289.65	40.16	-32.3	-38.3	8.3	6.83e-02	0	43	102	1048576	24	7205
2026-01-05 01:29:24.62	289.20	40.10	-32.1	-37.6	8.9	3.38e-02	0	43	102	1048576	24	6802
2026-01-05 01:29:25.63	288.74	40.03	-32.1	-37.5	8.9	2.38e-02	0	43	102	1048576	24	6709
2026-01-05 01:29:26.63	288.29	39.97	-32.0	-37.2	9.1	2.49e-02	0	43	102	1048576	24	6566
2026-01-05 01:29:27.64	287.84	39.90	-32.0	-37.2	9.2	2.05e-02	0	43	102	1048576	24	6525
2026-01-05 01:29:28.65	287.39	39.83	-31.9	-36.7	9.5	1.87e-02	0	43	102	1048576	24	6294
2026-01-05 01:29:29.65	286.94	39.75	-31.7	-36.1	10.0	1.18e-02	0	43	102	1048576	24	5965
2026-01-05 01:29:30.66	286.50	39.68	-31.5	-35.8	10.7	4.36e-03	0	44	102	1048576	23	5894
2026-01-05 01:29:31.65	286.06	39.60	-31.2	-34.8	11.3	1.63e-03	0	43	102	1048576	23	5478
2026-01-05 01:29:32.65	285.62	39.52	-31.1	-34.7	11.4	9.53e-04	0	44	102	1048576	23	5417
2026-01-05 01:29:33.66	285.18	39.44	-30.9	-34.6	11.8	7.94e-04	0	43	102	1048576	22	5489
2026-01-05 01:29:34.67	284.74	39.36	-30.5	-33.9	12.7	1.47e-04	0	43	102	1048576	21	5297
2026-01-05 01:29:35.67	284.31	39.28	-30.3	-33.2	13.1	3.89e-05	0	43	102	1048576	21	5048
2026-01-05 01:29:36.68	283.88	39.19	-30.2	-33.3	13.3	1.75e-05	0	43	102	1048576	20	5183
2026-01-05 01:29:37.69	283.45	39.11	-30.1	-33.3	13.4	1.67e-05	0	43	102	1048576	20	5159
2026-01-05 01:29:38.70	283.02	39.02	-30.2	-33.4	13.0	2.21e-05	0	43	102	1048576	20	5217
2026-01-05 01:29:39.70	282.60	38.93	-30.1	-33.3	13.2	2.74e-05	0	43	102	1048576	20	5186
2026-01-05 01:29:40.70	282.18	38.84	-29.9	-32.8	13.7	6.80e-06	0	44	102	1048576	20	4991
2026-01-05 01:29:41.71	281.75	38.74	-29.8	-32.9	13.9	8.23e-05	0	44	102	1048576	19	5150
2026-01-05 01:29:42.72	281.33	38.65	-29.6	-32.3	14.4	1.50e-06	0	43	102	1048576	19	4904
2026-01-05 01:29:43.73	280.92	38.55	-29.5	-32.0	14.5	7.00e-07	0	43	102	1048576	19	4806
2026-01-05 01:29:44.73	280.51	38.46	-29.6	-32.3	14.4	3.65e-04	0	43	102	1048576	19	4916
2026-01-05 01:29:45.74	280.09	38.36	-29.5	-32.5	14.5	7.00e-07	0	43	102	1048576	18	5120
2026-01-05 01:29:46.74	279.69	38.26	-29.7	-32.6	14.1	3.00e-06	0	43	102	1048576	19	5047
2026-01-05 01:29:47.75	279.28	38.16	-29.8	-32.8	14.0	2.04e-03	0	43	102	1048576	19	5103
2026-01-05 01:29:48.76	278.88	38.05	-29.9	-33.1	13.9	4.87e-04	0	44	102	1048576	19	5214
2026-01-05 01:29:49.76	278.48	37.95	-29.9	-33.3	13.7	7.60e-06	0	43	102	1048576	19	5273
2026-01-05 01:29:50.77	278.08	37.84	-29.9	-33.1	13.8	2.52e-03	0	44	102	1048576	19	5208
2026-01-05 01:29:51.77	277.69	37.74	-29.7	-32.6	14.1	1.92e-04	0	43	102	1048576	19	5043
2026-01-05 01:29:52.78	277.29	37.63	-29.6	-32.3	14.3	1.50e-06	0	43	102	1048576	19	4936
2026-01-05 01:29:53.79	276.90	37.52	-29.6	-32.3	14.3	7.00e-07	0	43	102	1048576	19	4908
2026-01-05 01:29:54.79	276.52	37.41	-29.9	-33.1	13.8	1.81e-03	0	44	102	1048576	19	5220
2026-01-05 01:29:55.79	276.13	37.30	-29.9	-32.8	13.7	5.30e-06	0	44	102	1048576	20	4997
2026-01-05 01:29:56.80	275.75	37.19	-30.2	-33.5	13.2	7.60e-06	0	43	102	1048576	20	5250
2026-01-05 01:29:57.80	275.37	37.07	-30.2	-33.4	13.2	2.50e-03	0	43	102	1048576	20	5220
2026-01-05 01:29:58.81	274.99	36.96	-30.4	-34.1	12.7	9.46e-05	0	43	102	1048576	20	5527
2026-01-05 01:29:59.82	274.62	36.84	-30.3	-33.9	12.8	1.05e-04	0	44	102	1048576	20	5436
2026-01-05 01:30:00.83	274.24	36.73	-30.1	-33.3	13.2	2.48e-03	0	43	102	1048576	20	5194
2026-01-05 01:30:01.83	273.88	36.61	-29.9	-32.6	13.6	1.37e-05	0	43	102	1048576	20	4941
2026-01-05 01:30:02.83	273.51	36.49	-29.9	-33.2	13.8	1.90e-05	0	43	102	1048576	19	5237
2026-01-05 01:30:03.84	273.15	36.37	-29.9	-32.8	13.6	1.33e-03	0	43	102	1048576	20	5019
2026-01-05 01:30:04.85	272.79	36.25	-29.9	-32.6	13.7	7.60e-06	0	43	102	1048576	20	4944
2026-01-05 01:30:05.86	272.43	36.13	-30.0	-33.1	13.4	1.81e-03	0	43	102	1048576	20	5125
2026-01-05 01:30:06.86	272.07	36.01	-30.2	-33.5	13.1	1.99e-04	0	43	102	1048576	20	5273
2026-01-05 01:30:07.87	271.72	35.89	-30.5	-34.3	12.6	9.00e-05	0	43	102	1048576	20	5620
2026-01-05 01:30:08.87	271.37	35.76	-30.3	-34.0	12.8	2.84e-03	0	43	102	1048576	20	5461
2026-01-05 01:30:09.88	271.02	35.64	-30.0	-33.0	13.4	5.07e-04	0	43	102	1048576	20	5100
2026-01-05 01:30:10.88	270.68	35.51	-29.8	-32.5	13.8	3.00e-06	0	43	102	1048576	20	4912
2026-01-05 01:30:11.89	270.34	35.39	-29.9	-33.1	13.7	2.65e-03	0	43	102	1048576	19	5224
2026-01-05 01:30:12.89	270.00	35.26	-29.9	-33.0	13.8	2.48e-03	0	44	102	1048576	19	5197
2026-01-05 01:30:13.90	269.66	35.14	-29.9	-33.1	13.7	6.80e-06	0	43	102	1048576	19	5236
2026-01-05 01:30:14.91	269.32	35.01	-30.1	-33.3	13.2	2.63e-03	0	43	102	1048576	20	5178
2026-01-05 01:30:15.92	268.99	34.88	-30.1	-33.3	13.2	3.32e-03	0	43	102	1048576	20	5222
2026-01-05 01:30:16.93	268.66	34.75	-30.3	-33.8	12.8	3.12e-05	0	43	102	1048576	20	5411
2026-01-05 01:30:17.94	268.33	34.62	-30.1	-33.3	13.1	2.61e-03	0	43	102	1048576	20	5208
2026-01-05 01:30:18.95	268.01	34.49	-30.1	-33.3	13.2	2.96e-03	0	43	102	1048576	20	5212
2026-01-05 01:30:19.96	267.68	34.36	-30.2	-33.6	13.0	3.20e-05	0	43	102	1048576	20	5321
2026-01-05 01:30:20.96	267.37	34.23	-30.2	-33.6	13.0	2.57e-03	0	43	102	1048576	20	5323
2026-01-05 01:30:21.97	267.05	34.10	-30.3	-33.8	12.8	3.03e-03	0	43	102	1048576	20	5396
2026-01-05 01:30:22.97	266.74	33.97	-30.4	-34.1	12.6	6.79e-05	0	44	102	1048576	20	5534
2026-01-05 01:30:23.98	266.43	33.84	-30.5	-34.0	12.3	1.55e-04	0	44	102	1048576	21	5376
2026-01-05 01:30:24.98	266.12	33.71	-30.8	-34.8	11.8	3.24e-03	0	43	102	1048576	21	5723
2026-01-05 01:30:25.99	265.81	33.57	-30.8	-34.9	11.7	4.45e-04	0	44	102	1048576	21	5750
2026-01-05 01:30:27.00	265.51	33.44	-31.1	-35.3	11.2	1.17e-03	0	43	102	1048576	22	5804
2026-01-05 01:30:28.00	265.21	33.31	-31.1	-35.3	11.1	4.24e-03	0	43	102	1048576	22	5837
2026-01-05 01:30:29.01	264.91	33.17	-31.2	-35.4	11.1	1.41e-03	0	43	102	1048576	22	5890
2026-01-05 01:30:30.02	264.61	33.04	-31.0	-34.9	11.5	4.07e-03	0	44	102	1048576	22	5641
2026-01-05 01:30:31.03	264.32	32.90	-31.0	-34.9	11.4	9.35e-04	0	43	102	1048576	22	5657
2026-01-05 01:30:32.03	264.03	32.77	-31.0	-35.0	11.4	1.00e-03	0	43	102	1048576	22	5673
2026-01-05 01:30:33.04	263.74	32.63	-31.2	-35.5	11.0	3.98e-03	0	43	102	1048576	22	5926
2026-01-05 01:30:34.05	263.45	32.50	-31.3	-35.9	10.7	2.35e-03	0	43	102	1048576	22	6101
2026-01-05 01:30:35.06	263.16	32.36	-31.6	-36.3	10.0	5.67e-03	0	43	102	1048576	23	6221
2026-01-05 01:30:36.06	262.88	32.23	-31.6	-36.5	9.9	1.02e-02	0	43	102	1048576	23	6303
2026-01-05 01:30:37.07	262.60	32.09	-31.7	-36.9	9.5	1.18e-02	0	43	102	1048576	23	6541
2026-01-05 01:30:38.08	262.32	31.96	-31.5	-36.0	10.2	7.40e-03	0	43	102	1048576	23	6070
2026-01-05 01:30:39.09	262.05	31.82	-31.4	-36.1	10.5	7.30e-03	0	43	102	1048576	22	6233
2026-01-05 01:30:40.09	261.78	31.69	-31.4	-36.1	10.5	3.71e-03	0	43	102	1048576	22	6231
2026-01-05 01:30:41.09	261.51	31.55	-31.3	-36.0	10.6	3.23e-03	0	43	102	1048576	22	6181
2026-01-05 01:30:42.10	261.24	31.41	-31.5	-36.5	10.2	6.13e-03	0	43	102	1048576	22	6414
2026-01-05 01:30:43.10	260.98	31.28	-31.5	-36.5	10.2	7.47e-03	0	43	102	1048576	22	6411
2026-01-05 01:30:44.12	260.71	31.14	-31.6	-36.4	9.9	7.25e-03	0	43	102	1048576	23	6279
2026-01-05 01:30:45.13	260.45	31.00	-31.7	-36.7	9.7	1.12e-02	0	43	102	1048576	23	6433
2026-01-05 01:30:46.13	260.19	30.87	-31.5	-36.0	10.2	8.70e-03	0	43	102	1048576	23	6081
2026-01-05 01:30:47.13	259.93	30.73	-31.4	-35.9	10.3	5.07e-03	0	43	102	1048576	23	5992
2026-01-05 01:30:48.14	259.68	30.60	-31.5	-36.2	10.1	6.17e-03	0	43	102	1048576	23	6172
2026-01-05 01:30:49.15	259.43	30.46	-31.3	-35.5	10.5	4.71e-03	0	43	102	1048576	23	5845
2026-01-05 01:30:50.15	259.18	30.32	-31.3	-35.8	10.7	2.74e-03	0	44	102	1048576	22	6050
2026-01-05 01:30:51.15	258.93	30.19	-31.4	-36.1	10.5	3.90e-03	0	43	102	1048576	22	6219
2026-01-05 01:30:52.16	258.68	30.05	-31.2	-35.5	10.9	2.30e-03	0	43	102	1048576	22	5922
2026-01-05 01:30:53.17	258.44	29.92	-31.1	-35.4	11.0	2.17e-03	0	43	102	1048576	22	5870
2026-01-05 01:30:54.18	258.20	29.78	-31.2	-35.6	10.8	2.08e-03	0	44	102	1048576	22	5996
2026-01-05 01:30:55.18	257.96	29.64	-31.1	-35.3	11.0	2.09e-03	0	43	102	1048576	22	5847
2026-01-05 01:30:56.19	257.72	29.51	-31.1	-35.4	11.0	1.55e-03	0	43	102	1048576	22	5857
2026-01-05 01:30:57.20	257.48	29.37	-31.0	-35.0	11.3	1.38e-03	0	43	102	1048576	22	5691
2026-01-05 01:30:58.21	257.25	29.23	-30.8	-34.7	11.8	6.66e-04	0	43	102	1048576	21	5691
2026-01-05 01:30:59.22	257.01	29.10	-30.8	-34.7	11.8	4.42e-04	0	44	102	1048576	21	5682
2026-01-05 01:31:00.22	256.79	28.96	-30.7	-34.7	11.8	4.56e-04	0	43	102	1048576	21	5666
2026-01-05 01:31:01.23	256.56	28.83	-30.8	-34.9	11.6	7.22e-04	0	43	102	1048576	21	5778
2026-01-05 01:31:02.23	256.33	28.69	-30.7	-34.6	11.9	4.33e-04	0	43	102	1048576	21	5644
2026-01-05 01:31:03.24	256.11	28.56	-30.8	-34.8	11.8	6.06e-04	0	43	102	1048576	21	5715
2026-01-05 01:31:04.25	255.88	28.42	-30.6	-34.3	12.0	3.92e-04	0	43	102	1048576	21	5517
2026-01-05 01:31:05.25	255.66	28.29	-30.6	-34.3	12.0	3.19e-04	0	43	102	1048576	21	5526
2026-01-05 01:31:06.26	255.45	28.15	-30.6	-34.2	12.1	2.23e-04	0	44	102	1048576	21	5449
2026-01-05 01:31:07.26	255.23	28.02	-30.6	-34.4	12.0	3.51e-04	0	43	102	1048576	21	5539
2026-01-05 01:31:08.27	255.01	27.89	-30.5	-34.0	12.3	2.39e-04	0	43	102	1048576	21	5367
2026-01-05 01:31:09.28	254.80	27.75	-30.4	-34.2	12.5	1.52e-04	0	43	102	1048576	20	5555
2026-01-05 01:31:10.28	254.59	27.62	-30.4	-34.1	12.6	9.46e-05	0	44	102	1048576	20	5555
2026-01-05 01:31:11.29	254.38	27.48	-30.4	-34.3	12.4	1.28e-04	0	43	102	1048576	20	5628
2026-01-05 01:31:12.30	254.17	27.35	-30.6	-34.2	12.1	2.03e-04	0	43	102	1048576	21	5480
2026-01-05 01:31:13.31	253.97	27.22	-30.7	-34.6	11.8	5.52e-04	0	43	102	1048576	21	5635
2026-01-05 01:31:14.32	253.76	27.08	-30.6	-34.4	12.0	3.54e-04	0	43	102	1048576	21	5552
2026-01-05 01:31:15.33	253.56	26.95	-30.7	-34.6	11.8	3.78e-04	0	43	102	1048576	21	5641
2026-01-05 01:31:16.33	253.36	26.82	-30.7	-34.6	11.8	5.47e-04	0	43	102	1048576	21	5648
2026-01-05 01:31:17.33	253.16	26.69	-30.5	-34.1	12.2	8.70e-04	0	44	102	1048576	21	5420
2026-01-05 01:31:18.33	252.96	26.56	-30.5	-34.4	12.3	2.17e-04	0	43	102	1048576	20	5665
2026-01-05 01:31:19.34	252.77	26.43	-30.4	-34.1	12.5	1.41e-04	0	43	102	1048576	20	5544
2026-01-05 01:31:20.34	252.57	26.30	-30.3	-34.0	12.6	2.70e-03	0	43	102	1048576	20	5484
2026-01-05 01:31:21.34	252.38	26.17	-30.4	-34.1	12.5	1.16e-04	0	43	102	1048576	20	5530
2026-01-05 01:31:22.34	252.19	26.04	-30.5	-34.5	12.2	1.57e-04	0	43	102	1048576	20	5726
2026-01-05 01:31:23.35	252.00	25.90	-30.6	-34.3	12.0	2.64e-03	0	43	102	1048576	21	5523
2026-01-05 01:31:24.36	251.81	25.77	-30.8	-34.9	11.5	3.01e-03	0	43	102	1048576	21	5796
2026-01-05 01:31:25.37	251.63	25.64	-30.5	-34.2	12.1	4.12e-04	0	43	102	1048576	21	5475
2026-01-05 01:31:26.37	251.44	25.51	-30.4	-34.3	12.3	2.38e-04	0	43	102	1048576	20	5631
2026-01-05 01:31:27.37	251.26	25.39	-30.3	-34.0	12.6	4.29e-04	0	43	102	1048576	20	5502
2026-01-05 01:31:28.38	251.08	25.26	-30.5	-34.5	12.2	1.52e-04	0	43	102	1048576	20	5727
2026-01-05 01:31:29.39	250.90	25.13	-30.5	-34.0	12.2	3.19e-04	0	43	102	1048576	21	5388
2026-01-05 01:31:30.39	250.72	25.00	-30.3	-33.9	12.6	2.40e-03	0	43	102	1048576	20	5445
2026-01-05 01:31:31.40	250.54	24.87	-30.2	-33.7	12.7	2.90e-04	0	43	102	1048576	20	5392
2026-01-05 01:31:32.40	250.37	24.74	-30.3	-34.1	12.5	2.18e-04	0	43	102	1048576	20	5532
2026-01-05 01:31:33.42	250.19	24.62	-30.4	-34.2	12.4	2.78e-03	0	43	102	1048576	20	5608
2026-01-05 01:31:34.42	250.02	24.49	-30.5	-34.1	12.1	9.58e-04	0	43	102	1048576	21	5439
2026-01-05 01:31:35.43	249.84	24.36	-30.5	-34.2	12.0	3.37e-03	0	43	102	1048576	21	5465
2026-01-05 01:31:36.43	249.68	24.24	-30.5	-34.1	12.0	6.16e-04	0	43	102	1048576	21	5457
2026-01-05 01:31:37.43	249.51	24.11	-30.6	-34.5	11.8	1.90e-03	0	43	102	1048576	21	5603
2026-01-05 01:31:38.44	249.34	23.99	-30.6	-34.5	11.8	4.48e-03	0	43	102	1048576	21	5626
2026-01-05 01:31:39.45	249.17	23.86	-30.5	-34.0	12.1	4.87e-04	0	43	102	1048576	21	5411
2026-01-05 01:31:40.46	249.01	23.73	-30.4	-34.3	12.2	1.88e-03	0	43	102	1048576	20	5659
2026-01-05 01:31:41.46	248.84	23.61	-30.4	-34.3	12.2	3.96e-03	0	43	102	1048576	20	5646
2026-01-05 01:31:42.47	248.68	23.49	-30.4	-34.4	12.2	3.68e-03	0	43	102	1048576	20	5668
2026-01-05 01:31:43.48	248.52	23.36	-30.7	-34.7	11.6	2.31e-03	0	43	102	1048576	21	5698
2026-01-05 01:31:44.48	248.36	23.24	-30.8	-34.9	11.4	4.75e-03	0	43	102	1048576	21	5807
2026-01-05 01:31:45.48	248.20	23.12	-30.6	-34.5	11.7	4.51e-03	0	43	102	1048576	21	5634
2026-01-05 01:31:46.48	248.05	22.99	-30.6	-34.4	11.8	6.07e-04	0	43	102	1048576	21	5585
2026-01-05 01:31:47.49	247.89	22.87	-30.5	-34.6	12.0	3.90e-03	0	43	102	1048576	20	5786
2026-01-05 01:31:48.49	247.74	22.75	-30.6	-34.5	11.7	4.15e-03	0	43	102	1048576	21	5622
2026-01-05 01:31:49.50	247.58	22.63	-30.7	-34.8	11.5	1.08e-03	0	43	102	1048576	21	5771
2026-01-05 01:31:50.51	247.43	22.50	-30.7	-34.8	11.4	4.08e-03	0	43	102	1048576	21	5783
2026-01-05 01:31:51.52	247.28	22.38	-30.7	-34.7	11.5	4.42e-03	0	43	102	1048576	21	5722
2026-01-05 01:31:52.52	247.13	22.26	-30.7	-34.8	11.5	7.35e-04	0	43	102	1048576	21	5775
2026-01-05 01:31:53.53	246.98	22.14	-30.6	-34.6	11.6	6.93e-04	0	43	102	1048576	21	5685
2026-01-05 01:31:54.54	246.83	22.02	-30.5	-34.2	11.9	7.93e-04	0	43	102	1048576	21	5510
2026-01-05 01:31:55.54	246.69	21.90	-30.5	-34.3	11.8	4.31e-04	0	43	102	1048576	21	5531
2026-01-05 01:31:56.55	246.54	21.78	-30.5	-34.2	11.9	4.49e-04	0	43	102	1048576	21	5525
2026-01-05 01:31:57.56	246.40	21.66	-30.7	-34.6	11.7	2.25e-03	0	43	102	1048576	21	5689
2026-01-05 01:31:58.56	246.26	21.55	-30.7	-34.7	11.5	1.38e-03	0	43	102	1048576	21	5722
2026-01-05 01:31:59.57	246.11	21.43	-30.6	-34.6	11.6	2.92e-03	0	43	102	1048576	21	5705
2026-01-05 01:32:00.57	245.97	21.31	-30.6	-34.6	11.6	6.99e-04	0	43	102	1048576	21	5666
2026-01-05 01:32:01.58	245.83	21.19	-30.7	-35.0	11.3	1.42e-03	0	43	102	1048576	21	5863
2026-01-05 01:32:02.58	245.70	21.08	-30.8	-35.1	11.2	3.40e-03	0	43	102	1048576	21	5895
2026-01-05 01:32:03.59	245.56	20.96	-30.7	-34.8	11.4	8.53e-04	0	43	102	1048576	21	5760
2026-01-05 01:32:04.60	245.42	20.84	-30.7	-34.8	11.4	1.02e-03	0	43	102	1048576	21	5779
2026-01-05 01:32:05.61	245.29	20.72	-30.7	-34.8	11.4	1.30e-03	0	43	102	1048576	21	5798
2026-01-05 01:32:06.61	245.15	20.61	-30.7	-34.7	11.4	9.46e-04	0	43	102	1048576	21	5746
2026-01-05 01:32:07.62	245.02	20.49	-30.6	-34.6	11.5	7.88e-04	0	43	102	1048576	21	5706
2026-01-05 01:32:08.62	244.89	20.38	-30.7	-34.9	11.2	1.04e-03	0	43	102	1048576	21	5846
2026-01-05 01:32:09.63	244.75	20.26	-30.7	-34.7	11.4	1.36e-03	0	43	102	1048576	21	5761
2026-01-05 01:32:10.64	244.62	20.15	-30.6	-34.6	11.5	9.05e-04	0	43	102	1048576	21	5701
2026-01-05 01:32:11.64	244.49	20.04	-30.5	-34.3	11.7	5.32e-04	0	43	102	1048576	21	5545
2026-01-05 01:32:12.64	244.37	19.92	-30.6	-34.4	11.7	2.29e-03	0	43	102	1048576	21	5604
2026-01-05 01:32:13.65	244.24	19.81	-30.6	-34.7	11.4	8.14e-04	0	43	102	1048576	21	5732
2026-01-05 01:32:14.66	244.11	19.70	-30.6	-34.6	11.5	9.28e-04	0	43	102	1048576	21	5673
2026-01-05 01:32:15.66	243.99	19.58	-30.6	-34.5	11.5	2.07e-03	0	43	102	1048576	21	5669
2026-01-05 01:32:16.67	243.86	19.47	-30.7	-34.9	11.3	1.08e-03	0	43	102	1048576	21	5834
2026-01-05 01:32:17.67	243.74	19.36	-30.8	-35.2	11.1	1.82e-03	0	43	102	1048576	21	5958
2026-01-05 01:32:18.68	243.62	19.25	-30.8	-35.1	11.1	1.74e-03	0	43	102	1048576	21	5912
2026-01-05 01:32:19.69	243.49	19.14	-30.7	-35.0	11.2	1.41e-03	0	43	102	1048576	21	5876
2026-01-05 01:32:20.69	243.37	19.03	-30.7	-34.8	11.3	1.32e-03	0	43	102	1048576	21	5806
2026-01-05 01:32:21.70	243.25	18.92	-30.7	-34.8	11.3	1.11e-03	0	43	102	1048576	21	5804
2026-01-05 01:32:22.71	243.13	18.81	-30.6	-34.7	11.3	1.27e-03	0	43	102	1048576	21	5754
2026-01-05 01:32:23.71	243.02	18.70	-30.7	-34.9	10.9	1.14e-03	0	43	102	1048576	21	5837
2026-01-05 01:32:24.72	242.90	18.59	-30.6	-34.6	11.4	1.32e-03	0	43	102	1048576	21	5723
2026-01-05 01:32:25.72	242.78	18.48	-30.5	-34.7	11.4	7.25e-04	0	43	102	1048576	20	5836
2026-01-05 01:32:26.72	242.67	18.37	-30.5	-34.4	11.5	1.22e-03	0	43	102	1048576	21	5623
2026-01-05 01:32:27.73	242.55	18.26	-30.7	-35.0	11.1	1.06e-03	0	43	102	1048576	21	5890
2026-01-05 01:32:28.73	242.44	18.16	-30.7	-34.9	11.1	1.95e-03	0	43	102	1048576	21	5851
2026-01-05 01:32:29.74	242.33	18.05	-30.6	-34.7	11.3	1.15e-03	0	43	102	1048576	21	5770
2026-01-05 01:32:30.75	242.21	17.94	-30.7	-35.0	11.1	1.39e-03	0	43	102	1048576	21	5891
2026-01-05 01:32:31.76	242.10	17.83	-30.7	-35.0	11.1	1.74e-03	0	43	102	1048576	21	5886
2026-01-05 01:32:32.76	241.99	17.73	-30.7	-35.1	11.1	1.58e-03	0	43	102	1048576	21	5927
2026-01-05 01:32:33.77	241.88	17.62	-30.7	-35.1	11.0	1.77e-03	0	43	102	1048576	21	5929
2026-01-05 01:32:34.78	241.77	17.52	-30.7	-35.0	11.1	1.62e-03	0	44	102	1048576	21	5897
2026-01-05 01:32:35.78	241.66	17.41	-30.6	-34.5	11.4	1.32e-03	0	43	102	1048576	21	5681
2026-01-05 01:32:36.79	241.55	17.31	-30.4	-34.1	11.7	5.96e-04	0	43	102	1048576	21	5482
2026-01-05 01:32:37.79	241.45	17.20	-30.3	-34.3	11.7	4.92e-04	0	43	102	1048576	20	5690
2026-01-05 01:32:38.80	241.34	17.10	-30.3	-34.2	11.9	3.71e-04	0	43	102	1048576	20	5663
2026-01-05 01:32:39.80	241.24	16.99	-30.4	-34.5	11.7	3.89e-04	0	43	102	1048576	20	5803
2026-01-05 01:32:40.81	241.13	16.89	-30.4	-34.5	11.8	9.89e-04	0	43	102	1048576	20	5771
2026-01-05 01:32:41.81	241.03	16.79	-30.4	-34.6	11.7	5.01e-04	0	43	102	1048576	20	5839
2026-01-05 01:32:42.81	240.93	16.68	-30.5	-34.3	11.5	7.74e-04	0	43	102	1048576	21	5602
2026-01-05 01:32:43.82	240.82	16.58	-30.6	-34.7	11.3	4.70e-03	0	43	102	1048576	21	5771
2026-01-05 01:32:44.83	240.72	16.48	-30.5	-34.5	11.3	1.60e-03	0	43	102	1048576	21	5680
2026-01-05 01:32:45.83	240.62	16.38	-30.5	-34.8	11.5	9.47e-04	0	43	102	1048576	20	5914
2026-01-05 01:32:46.84	240.52	16.28	-30.4	-34.6	11.6	4.58e-03	0	43	102	1048576	20	5860
2026-01-05 01:32:47.85	240.42	16.17	-30.5	-34.4	11.4	1.18e-03	0	43	102	1048576	21	5662
2026-01-05 01:32:48.85	240.32	16.07	-30.6	-34.6	11.2	1.13e-03	0	43	102	1048576	21	5734
2026-01-05 01:32:49.86	240.22	15.97	-30.4	-34.7	11.4	1.30e-03	0	43	102	1048576	20	5907
2026-01-05 01:32:50.87	240.12	15.87	-30.2	-34.1	12.0	4.55e-03	0	43	102	1048576	20	5619
2026-01-05 01:32:51.88	240.03	15.77	-30.2	-33.9	12.1	2.92e-04	0	43	102	1048576	20	5521
2026-01-05 01:32:52.88	239.93	15.67	-30.1	-33.8	12.1	2.60e-04	0	43	102	1048576	20	5506
2026-01-05 01:32:53.89	239.83	15.57	-30.3	-34.2	11.8	3.75e-03	0	43	102	1048576	20	5683
2026-01-05 01:32:54.90	239.74	15.47	-30.2	-33.9	12.0	4.48e-04	0	43	102	1048576	20	5549
2026-01-05 01:32:55.90	239.65	15.37	-30.2	-33.9	12.1	2.83e-04	0	43	102	1048576	20	5547
2026-01-05 01:32:56.91	239.55	15.28	-30.3	-34.3	11.8	3.79e-03	0	43	102	1048576	20	5695
2026-01-05 01:32:57.92	239.46	15.18	-30.4	-34.7	11.5	2.20e-03	0	43	102	1048576	20	5875
2026-01-05 01:32:58.92	239.37	15.08	-30.4	-34.6	11.5	1.03e-03	0	43	102	1048576	20	5858
2026-01-05 01:32:59.93	239.27	14.98	-30.3	-34.4	11.7	6.79e-04	0	43	102	1048576	20	5779
2026-01-05 01:33:00.93	239.18	14.89	-30.4	-34.7	11.5	1.34e-03	0	43	102	1048576	20	5883
2026-01-05 01:33:01.94	239.09	14.79	-30.5	-34.9	11.3	1.48e-03	0	44	102	1048576	20	5998
2026-01-05 01:33:02.94	239.00	14.69	-30.5	-34.6	11.2	1.31e-03	0	43	102	1048576	21	5732
2026-01-05 01:33:03.95	238.91	14.60	-30.7	-35.0	10.9	2.04e-03	0	43	102	1048576	21	5946
2026-01-05 01:33:04.96	238.82	14.50	-30.5	-34.6	11.1	3.06e-03	0	43	102	1048576	21	5768
2026-01-05 01:33:05.97	238.73	14.40	-30.5	-34.5	11.2	1.53e-03	0	43	102	1048576	21	5701
2026-01-05 01:33:06.97	238.65	14.31	-30.5	-34.4	11.3	1.37e-03	0	43	102	1048576	21	5647
2026-01-05 01:33:07.98	238.56	14.21	-30.4	-34.8	11.4	2.94e-03	0	44	102	1048576	20	5936
2026-01-05 01:33:08.99	238.47	14.12	-30.4	-34.8	11.4	3.25e-03	0	43	102	1048576	20	5954
2026-01-05 01:33:10.00	238.39	14.02	-30.3	-34.5	11.5	8.17e-04	0	43	102	1048576	20	5810
2026-01-05 01:33:11.01	238.30	13.93	-30.4	-34.8	11.4	3.40e-03	0	44	102	1048576	20	5938
2026-01-05 01:33:12.01	238.22	13.84	-30.4	-34.6	11.5	3.37e-03	0	43	102	1048576	20	5855
2026-01-05 01:33:13.02	238.13	13.74	-30.4	-34.6	11.4	8.51e-04	0	43	102	1048576	20	5882
2026-01-05 01:33:14.03	238.05	13.65	-30.4	-34.7	11.4	3.35e-03	0	43	102	1048576	20	5916
2026-01-05 01:33:15.04	237.96	13.56	-30.4	-34.7	11.4	3.86e-03	0	43	102	1048576	20	5908
2026-01-05 01:33:16.04	237.88	13.46	-30.4	-34.7	11.4	1.11e-03	0	43	102	1048576	20	5919
2026-01-05 01:33:17.05	237.80	13.37	-30.4	-34.7	11.3	4.02e-03	0	43	102	1048576	20	5919
2026-01-05 01:33:18.05	237.72	13.28	-30.5	-34.7	11.0	4.93e-03	0	43	102	1048576	21	5811
2026-01-05 01:33:19.06	237.64	13.19	-30.7	-35.1	10.6	2.73e-03	0	44	102	1048576	21	6026
2026-01-05 01:33:20.07	237.56	13.10	-30.6	-34.9	10.8	2.74e-03	0	44	102	1048576	21	5921
2026-01-05 01:33:21.07	237.48	13.01	-30.5	-34.8	10.9	5.27e-03	0	43	102	1048576	21	5852
2026-01-05 01:33:22.08	237.40	12.91	-30.5	-34.7	10.9	1.91e-03	0	43	102	1048576	21	5840
2026-01-05 01:33:23.08	237.32	12.82	-30.6	-35.0	10.7	5.31e-03	0	43	102	1048576	21	5949
2026-01-05 01:33:24.09	237.24	12.73	-30.7	-35.1	10.6	6.22e-03	0	43	102	1048576	21	6034
2026-01-05 01:33:25.10	237.16	12.64	-30.6	-35.1	10.6	3.42e-03	0	43	102	1048576	21	6032
2026-01-05 01:33:26.10	237.08	12.55	-30.7	-35.3	10.5	7.08e-03	0	44	102	1048576	21	6116
2026-01-05 01:33:27.11	237.01	12.46	-30.7	-35.2	10.6	3.91e-03	0	44	102	1048576	21	6043
2026-01-05 01:33:28.12	236.93	12.38	-30.8	-35.6	10.3	4.68e-03	0	44	102	1048576	21	6244
2026-01-05 01:33:29.13	236.85	12.29	-30.7	-35.2	10.5	7.71e-03	0	43	102	1048576	21	6082
2026-01-05 01:33:30.14	236.78	12.20	-30.8	-35.6	10.2	5.46e-03	0	44	102	1048576	21	6275
2026-01-05 01:33:31.14	236.70	12.11	-30.7	-35.3	10.4	5.51e-03	0	44	102	1048576	21	6146
2026-01-05 01:33:32.16	236.63	12.02	-30.8	-35.7	10.1	7.88e-03	0	43	102	1048576	21	6358
2026-01-05 01:33:33.17	236.55	11.93	-30.9	-36.1	9.8	1.01e-02	0	44	102	1048576	21	6536
2026-01-05 01:33:34.18	236.48	11.84	-30.8	-35.6	10.2	7.07e-03	0	43	102	1048576	21	6281
2026-01-05 01:33:35.18	236.40	11.76	-30.8	-35.6	10.2	9.46e-03	0	43	102	1048576	21	6271
2026-01-05 01:33:36.19	236.33	11.67	-30.7	-35.5	10.2	5.62e-03	0	44	102	1048576	21	6237
2026-01-05 01:33:37.19	236.26	11.58	-30.8	-35.6	10.2	6.42e-03	0	44	102	1048576	21	6260
2026-01-05 01:33:38.20	236.19	11.50	-30.8	-35.7	10.1	6.20e-03	0	44	102	1048576	21	6345
2026-01-05 01:33:39.20	236.12	11.41	-30.8	-35.9	9.9	9.64e-03	0	43	102	1048576	21	6443
2026-01-05 01:33:40.21	236.04	11.32	-30.8	-35.7	10.0	6.98e-03	0	43	102	1048576	21	6358
2026-01-05 01:33:41.22	235.97	11.24	-30.8	-35.7	10.0	7.38e-03	0	44	102	1048576	21	6357
2026-01-05 01:33:42.22	235.90	11.15	-30.8	-35.8	9.9	9.80e-03	0	44	102	1048576	21	6419
2026-01-05 01:33:43.22	235.83	11.07	-30.8	-35.8	10.0	7.92e-03	0	43	102	1048576	21	6380
2026-01-05 01:33:44.23	235.76	10.98	-30.9	-36.2	9.7	9.18e-03	0	44	102	1048576	21	6597
2026-01-05 01:33:45.24	235.70	10.90	-30.8	-35.9	9.8	9.86e-03	0	44	102	1048576	21	6470
2026-01-05 01:33:46.24	235.63	10.81	-30.8	-36.0	9.7	1.11e-02	0	44	102	1048576	21	6569
2026-01-05 01:33:47.25	235.56	10.73	-30.8	-36.3	9.3	1.59e-02	0	44	102	1048576	21	6805
2026-01-05 01:33:48.25	235.49	10.65	-31.0	-36.5	9.4	1.68e-02	0	44	102	1048576	21	6796
2026-01-05 01:33:49.26	235.42	10.56	-31.0	-36.4	9.3	1.56e-02	0	44	102	1048576	21	6767
2026-01-05 01:33:50.26	235.36	10.48	-31.0	-36.1	9.2	1.91e-02	0	43	102	1048576	22	6477
2026-01-05 01:33:51.27	235.29	10.40	-31.0	-36.2	9.2	2.12e-02	0	44	102	1048576	22	6518
2026-01-05 01:33:52.28	235.22	10.31	-31.0	-36.1	9.2	1.86e-02	0	44	102	1048576	22	6502
2026-01-05 01:33:53.29	235.16	10.23	-31.1	-36.4	9.0	2.27e-02	0	44	102	1048576	22	6653
2026-01-05 01:33:54.29	235.09	10.15	-31.1	-36.5	8.9	2.75e-02	0	43	102	1048576	22	6721
2026-01-05 01:33:55.30	235.03	10.06	-31.1	-36.5	9.0	2.22e-02	0	44	102	1048576	22	6686
2026-01-05 01:33:56.31	234.96	9.98	-31.2	-36.9	8.6	3.70e-02	0	44	102	1048576	22	6974
2026-01-05 01:33:57.31	234.90	9.90	-31.1	-36.4	9.0	2.93e-02	0	44	102	1048576	22	6670
2026-01-05 01:33:58.32	234.83	9.82	-30.9	-35.8	9.4	1.73e-02	0	44	102	1048576	22	6365
2026-01-05 01:33:59.33	234.77	9.74	-29.9	-35.4	9.3	1.45e-02	0	44	102	1048576	21	6757
2026-01-05 01:34:00.33	234.71	9.66	-30.9	-36.4	9.3	1.92e-02	0	44	102	1048576	21	6756
2026-01-05 01:34:01.34	234.64	9.58	-30.9	-36.3	9.5	1.66e-02	0	44	102	1048576	21	6687
2026-01-05 01:34:02.35	234.58	9.49	-30.9	-36.2	9.5	1.52e-02	0	43	102	1048576	21	6675
2026-01-05 01:34:03.36	234.52	9.41	-30.9	-36.3	9.4	1.65e-02	0	44	102	1048576	21	6728
2026-01-05 01:34:04.37	234.46	9.33	-30.9	-36.3	9.4	1.52e-02	0	44	102	1048576	21	6693
2026-01-05 01:34:05.37	234.40	9.25	-31.0	-36.6	9.2	1.60e-02	0	43	102	1048576	21	6880
2026-01-05 01:34:06.38	234.34	9.17	-31.0	-36.3	9.1	2.51e-02	0	44	102	1048576	22	6594
2026-01-05 01:34:07.39	234.27	9.09	-30.9	-36.5	9.2	2.01e-02	0	43	102	1048576	21	6831
2026-01-05 01:34:08.40	234.21	9.01	-30.9	-36.4	9.3	1.82e-02	0	44	102	1048576	21	6765
2026-01-05 01:34:09.41	234.15	8.94	-30.9	-36.6	9.1	2.25e-02	0	44	102	1048576	21	6879
2026-01-05 01:34:10.41	234.09	8.86	-31.0	-36.4	8.8	2.59e-02	0	44	102	1048576	22	6699
2026-01-05 01:34:11.42	234.03	8.78	-31.1	-36.7	8.6	3.86e-02	0	44	102	1048576	22	6858
2026-01-05 01:34:12.43	233.98	8.70	-31.0	-36.0	9.1	2.51e-02	0	44	102	1048576	22	6471
2026-01-05 01:34:13.43	233.92	8.62	-30.9	-36.4	9.3	2.31e-02	0	43	102	1048576	21	6768
2026-01-05 01:34:14.44	233.86	8.54	-31.0	-36.7	9.0	2.25e-02	0	44	102	1048576	21	6984
2026-01-05 01:34:15.45	233.80	8.46	-30.9	-36.5	9.1	2.27e-02	0	44	102	1048576	21	6883
2026-01-05 01:34:16.46	233.74	8.39	-31.0	-36.8	8.9	2.81e-02	0	43	102	1048576	21	7041
2026-01-05 01:34:17.46	233.68	8.31	-30.9	-36.3	9.2	3.05e-02	0	44	102	1048576	21	6774
2026-01-05 01:34:18.47	233.63	8.23	-31.0	-36.8	8.9	2.16e-02	0	44	102	1048576	21	7041
2026-01-05 01:34:19.47	233.57	8.16	-31.0	-36.8	8.8	3.37e-02	0	44	102	1048576	21	7045
2026-01-05 01:34:20.47	233.52	8.08	-30.9	-36.7	8.9	3.30e-02	0	44	102	1048576	21	6994
2026-01-05 01:34:21.48	233.46	8.00	-31.0	-36.6	8.6	2.96e-02	0	44	102	1048576	22	6832
2026-01-05 01:34:22.49	233.40	7.93	-31.1	-37.1	8.2	4.72e-02	0	44	102	1048576	22	7158
2026-01-05 01:34:23.49	233.35	7.85	-31.1	-37.1	8.1	6.60e-02	0	44	102	1048576	22	7159
2026-01-05 01:34:24.50	233.29	7.77	-31.1	-36.9	8.3	5.40e-02	0	43	102	1048576	22	7038
2026-01-05 01:34:25.50	233.24	7.70	-31.1	-37.1	8.2	4.94e-02	0	43	102	1048576	22	7132
2026-01-05 01:34:26.51	233.18	7.62	-31.1	-37.2	8.1	6.87e-02	0	44	102	1048576	22	7231
2026-01-05 01:34:27.51	233.13	7.55	-31.1	-36.9	8.3	5.55e-02	0	44	102	1048576	22	7019
2026-01-05 01:34:28.52	233.07	7.47	-31.1	-36.9	8.3	5.31e-02	0	44	102	1048576	22	7057
2026-01-05 01:34:29.53	233.02	7.40	-31.0	-36.8	8.3	5.55e-02	0	43	102	1048576	22	6974
2026-01-05 01:34:30.53	232.97	7.32	-31.1	-37.0	8.2	5.51e-02	0	44	102	1048576	22	7100
2026-01-05 01:34:31.54	232.91	7.25	-31.1	-37.1	8.1	6.98e-02	0	44	102	1048576	22	7147
2026-01-05 01:34:32.55	232.86	7.17	-31.1	-37.0	8.2	5.55e-02	0	44	102	1048576	22	7089
2026-01-05 01:34:33.56	232.81	7.10	-32.4	-46.7	3.8	3.57e-01	0	44	104	1048576	24	18719
2026-01-05 01:34:34.55	232.76	7.03	-32.8	-47.1	3.8	1.49e+00	0	44	104	1048576	25	18664
2026-01-05 01:34:35.57	232.70	6.95	-33.1	-47.2	3.8	1.49e+00	0	44	104	1048576	26	18291

#Closed at: 2026-01-05 01:34:35
#Recorded file [1 MB]: D:/data/31010_260105_042315.dat