passes_logs/2026/01/05/R2M6_AANII_01/R2M6_AANII_01__20260105_230325_SUOMI_NPP_rec.log

#Pass ID: 20260105_230325_SUOMI NPP
#Satellite: SUOMI NPP
#Configuration: NPP
#almurnet v.1.7.20240730
#Start time: 2026-01-05 23:03:24

#Version: 2.2.20231116
#Station: R2M6_AANII_01
#Location: 30.233357 lon 59.946436 lat
#TLE: 1 37849U 11061A   26004.95404768  .00000136  00000+0  85334-4 0  9991
#TLE: 2 37849  98.7801 307.0898 0002575  80.6707 279.4760 14.19522289735281

#Time	Az	El	Level	Level2	SNR	BER	BlckErr	Temp	State	Recorded	gain1	gain2
2026-01-05 23:03:24.77	27.47	6.97	-30.7	-34.6	5.3	1.20e+00	0	41	0	0	21	5602
2026-01-05 23:03:25.77	27.55	7.04	-31.6	-37.4	4.7	1.32e+00	0	41	104	0	23	6987
2026-01-05 23:03:26.77	27.63	7.10	-31.7	-37.7	6.2	2.57e-01	0	41	0	0	23	7207
2026-01-05 23:03:27.78	27.72	7.17	-31.7	-37.7	6.3	2.82e-01	0	41	102	1048576	23	7174
2026-01-05 23:03:28.79	27.80	7.24	-31.8	-38.1	6.1	2.95e-01	0	41	102	1048576	23	7426
2026-01-05 23:03:29.80	27.88	7.31	-31.7	-37.3	6.6	2.93e-01	0	41	102	1048576	23	6896
2026-01-05 23:03:30.81	27.96	7.38	-31.6	-36.8	7.0	1.53e-01	0	41	102	1048576	23	6532
2026-01-05 23:03:31.82	28.05	7.44	-31.4	-36.0	7.6	1.06e-01	0	41	102	1048576	23	6095
2026-01-05 23:03:32.83	28.13	7.51	-31.2	-35.6	8.4	8.04e-02	0	41	102	1048576	22	5934
2026-01-05 23:03:33.83	28.21	7.58	-31.1	-35.1	8.7	3.62e-02	0	41	102	1048576	22	5701
2026-01-05 23:03:34.84	28.30	7.65	-30.9	-34.3	9.3	2.06e-02	0	41	102	1048576	22	5323
2026-01-05 23:03:35.85	28.38	7.72	-30.9	-34.6	9.5	1.48e-02	0	42	102	1048576	21	5533
2026-01-05 23:03:36.86	28.46	7.79	-30.9	-34.6	9.5	9.98e-03	0	41	102	1048576	21	5525
2026-01-05 23:03:37.87	28.55	7.86	-30.7	-33.9	10.0	9.66e-03	0	42	102	1048576	21	5231
2026-01-05 23:03:38.87	28.63	7.92	-30.5	-33.4	10.4	5.51e-03	0	41	102	1048576	21	5012
2026-01-05 23:03:39.88	28.72	7.99	-30.3	-33.1	10.8	2.61e-03	0	41	102	1048576	20	4966
2026-01-05 23:03:40.88	28.81	8.06	-30.1	-32.6	11.0	1.41e-03	0	41	102	1048576	20	4800
2026-01-05 23:03:41.89	28.89	8.13	-30.3	-33.0	11.1	1.42e-03	0	42	102	1048576	20	4930
2026-01-05 23:03:42.89	28.98	8.20	-30.2	-32.8	10.9	1.37e-03	0	41	102	1048576	20	4865
2026-01-05 23:03:43.90	29.07	8.27	-30.2	-32.7	11.2	2.58e-03	0	41	102	1048576	20	4805
2026-01-05 23:03:44.91	29.15	8.34	-30.2	-32.7	11.4	9.21e-04	0	42	102	1048576	20	4819
2026-01-05 23:03:45.92	29.24	8.41	-30.3	-33.0	11.1	1.08e-03	0	42	102	1048576	20	4935
2026-01-05 23:03:46.93	29.33	8.48	-30.1	-32.5	11.6	1.32e-03	0	42	102	1048576	20	4727
2026-01-05 23:03:47.93	29.42	8.55	-30.1	-32.5	11.6	5.17e-04	0	42	102	1048576	20	4720
2026-01-05 23:03:48.94	29.51	8.62	-30.1	-32.5	11.5	4.98e-04	0	42	102	1048576	20	4735
2026-01-05 23:03:49.95	29.60	8.69	-30.2	-32.7	11.4	7.74e-04	0	42	102	1048576	20	4813
2026-01-05 23:03:50.95	29.69	8.76	-30.1	-32.3	11.7	7.38e-04	0	42	102	1048576	20	4671
2026-01-05 23:03:51.97	29.78	8.83	-30.1	-32.6	11.5	6.08e-04	0	42	102	1048576	20	4768
2026-01-05 23:03:52.97	29.87	8.90	-30.4	-33.3	11.0	1.39e-03	0	42	102	1048576	20	5046
2026-01-05 23:03:53.98	29.96	8.98	-30.1	-32.4	11.7	9.09e-04	0	42	102	1048576	20	4698
2026-01-05 23:03:54.99	30.05	9.05	-30.1	-32.3	11.7	7.16e-04	0	42	102	1048576	20	4661
2026-01-05 23:03:56.00	30.15	9.12	-30.1	-32.3	11.8	5.49e-04	0	42	102	1048576	20	4636
2026-01-05 23:03:57.00	30.24	9.19	-30.1	-32.4	11.7	4.81e-04	0	42	102	1048576	20	4694
2026-01-05 23:03:58.01	30.33	9.26	-30.1	-32.3	11.8	2.27e-03	0	42	102	1048576	20	4655
2026-01-05 23:03:59.02	30.42	9.33	-30.3	-32.9	11.4	5.84e-04	0	42	102	1048576	20	4872
2026-01-05 23:04:00.03	30.52	9.40	-30.1	-32.4	11.7	7.04e-04	0	42	102	1048576	20	4699
2026-01-05 23:04:01.03	30.61	9.48	-30.0	-32.0	12.0	1.82e-03	0	42	102	1048576	20	4550
2026-01-05 23:04:02.04	30.71	9.55	-30.0	-32.0	12.0	2.79e-04	0	42	102	1048576	20	4546
2026-01-05 23:04:03.04	30.80	9.62	-29.9	-31.8	12.2	2.49e-04	0	42	102	1048576	20	4469
2026-01-05 23:04:04.05	30.90	9.69	-30.0	-32.5	12.1	1.45e-03	0	42	102	1048576	19	4792
2026-01-05 23:04:05.06	30.99	9.77	-29.9	-32.2	12.3	1.55e-03	0	42	102	1048576	19	4682
2026-01-05 23:04:06.06	31.09	9.84	-30.0	-32.4	12.2	1.75e-04	0	42	102	1048576	19	4758
2026-01-05 23:04:07.07	31.19	9.91	-30.0	-32.3	12.3	1.83e-04	0	42	102	1048576	19	4737
2026-01-05 23:04:08.07	31.28	9.98	-29.7	-31.7	12.7	1.54e-03	0	42	102	1048576	19	4535
2026-01-05 23:04:09.08	31.38	10.06	-29.9	-32.1	12.4	7.70e-05	0	42	102	1048576	19	4666
2026-01-05 23:04:10.09	31.48	10.13	-29.9	-32.3	12.3	1.39e-04	0	42	102	1048576	19	4726
2026-01-05 23:04:11.10	31.58	10.20	-29.6	-31.4	12.9	1.53e-03	0	42	102	1048576	19	4409
2026-01-05 23:04:12.11	31.68	10.28	-29.7	-31.5	12.8	6.33e-05	0	42	102	1048576	19	4454
2026-01-05 23:04:13.12	31.78	10.35	-29.8	-31.8	12.6	8.31e-05	0	42	102	1048576	19	4546
2026-01-05 23:04:14.13	31.88	10.43	-29.8	-31.9	12.6	1.65e-03	0	42	102	1048576	19	4589
2026-01-05 23:04:15.13	31.98	10.50	-29.9	-32.1	12.5	6.71e-05	0	42	102	1048576	19	4654
2026-01-05 23:04:16.14	32.08	10.58	-29.9	-32.1	12.4	1.85e-04	0	42	102	1048576	19	4663
2026-01-05 23:04:17.15	32.18	10.65	-30.1	-32.2	11.9	1.64e-03	0	42	102	1048576	20	4618
2026-01-05 23:04:18.15	32.29	10.72	-30.2	-32.6	11.7	4.49e-04	0	42	102	1048576	20	4752
2026-01-05 23:04:19.16	32.39	10.80	-30.2	-32.5	11.8	1.78e-03	0	43	102	1048576	20	4716
2026-01-05 23:04:20.17	32.49	10.87	-30.2	-32.7	11.6	5.77e-04	0	42	102	1048576	20	4789
2026-01-05 23:04:21.17	32.60	10.95	-30.2	-32.5	11.8	4.93e-04	0	42	102	1048576	20	4724
2026-01-05 23:04:22.17	32.70	11.02	-30.2	-32.6	11.7	2.08e-03	0	42	102	1048576	20	4754
2026-01-05 23:04:23.18	32.81	11.10	-30.2	-32.5	11.8	5.12e-04	0	42	102	1048576	20	4720
2026-01-05 23:04:24.18	32.91	11.17	-30.3	-32.8	11.6	6.12e-04	0	42	102	1048576	20	4822
2026-01-05 23:04:25.19	33.02	11.25	-30.3	-32.9	11.5	2.04e-03	0	42	102	1048576	20	4852
2026-01-05 23:04:26.19	33.12	11.32	-30.2	-32.6	11.8	1.62e-03	0	42	102	1048576	20	4732
2026-01-05 23:04:27.20	33.23	11.40	-30.3	-32.8	11.6	5.29e-04	0	42	102	1048576	20	4814
2026-01-05 23:04:28.21	33.34	11.48	-30.2	-32.6	11.8	1.23e-03	0	42	102	1048576	20	4726
2026-01-05 23:04:29.21	33.44	11.55	-30.1	-32.2	12.1	1.09e-03	0	42	102	1048576	20	4585
2026-01-05 23:04:30.21	33.55	11.63	-30.3	-32.9	11.6	5.24e-04	0	42	102	1048576	20	4854
2026-01-05 23:04:31.22	33.66	11.71	-30.3	-32.9	11.6	1.40e-03	0	43	102	1048576	20	4853
2026-01-05 23:04:32.23	33.77	11.78	-30.3	-32.9	11.6	1.68e-03	0	43	102	1048576	20	4851
2026-01-05 23:04:33.23	33.88	11.86	-30.2	-32.5	11.8	3.57e-04	0	42	102	1048576	20	4715
2026-01-05 23:04:34.24	33.99	11.94	-30.0	-32.1	12.2	8.70e-04	0	42	102	1048576	20	4575
2026-01-05 23:04:35.25	34.10	12.01	-30.0	-32.1	12.1	7.65e-04	0	43	102	1048576	20	4580
2026-01-05 23:04:36.26	34.21	12.09	-30.1	-32.2	12.1	3.22e-04	0	43	102	1048576	20	4615
2026-01-05 23:04:37.26	34.33	12.17	-29.9	-31.8	12.3	6.16e-04	0	43	102	1048576	20	4458
2026-01-05 23:04:38.27	34.44	12.24	-30.0	-32.3	12.4	5.15e-04	0	43	102	1048576	19	4734
2026-01-05 23:04:39.28	34.55	12.32	-29.9	-31.8	12.4	1.52e-04	0	43	102	1048576	20	4462
2026-01-05 23:04:40.29	34.67	12.40	-29.8	-31.5	12.6	1.11e-04	0	42	102	1048576	20	4355
2026-01-05 23:04:41.29	34.78	12.48	-29.9	-31.8	12.4	6.81e-04	0	43	102	1048576	20	4462
2026-01-05 23:04:42.30	34.90	12.56	-30.1	-32.3	12.1	2.08e-04	0	43	102	1048576	20	4629
2026-01-05 23:04:43.30	35.01	12.63	-30.1	-32.2	12.1	7.57e-04	0	43	102	1048576	20	4609
2026-01-05 23:04:44.31	35.13	12.71	-30.0	-31.9	12.3	7.96e-04	0	43	102	1048576	20	4503
2026-01-05 23:04:45.31	35.25	12.79	-30.2	-32.5	11.9	2.17e-04	0	43	102	1048576	20	4714
2026-01-05 23:04:46.32	35.36	12.87	-30.1	-32.3	12.1	9.56e-04	0	43	102	1048576	20	4619
2026-01-05 23:04:47.33	35.48	12.95	-30.0	-31.8	12.4	1.92e-04	0	43	102	1048576	20	4469
2026-01-05 23:04:48.34	35.60	13.03	-30.0	-32.1	12.2	1.54e-04	0	43	102	1048576	20	4548
2026-01-05 23:04:49.34	35.72	13.11	-29.9	-31.7	12.5	4.94e-04	0	43	102	1048576	20	4402
2026-01-05 23:04:50.35	35.84	13.19	-30.0	-31.8	12.4	1.27e-04	0	43	102	1048576	20	4461
2026-01-05 23:04:51.35	35.96	13.27	-30.1	-32.1	12.3	2.12e-04	0	43	102	1048576	20	4540
2026-01-05 23:04:52.36	36.08	13.35	-30.1	-32.2	12.2	4.32e-04	0	43	102	1048576	20	4565
2026-01-05 23:04:53.37	36.20	13.43	-30.1	-32.2	12.1	5.05e-04	0	43	102	1048576	20	4595
2026-01-05 23:04:54.37	36.33	13.51	-29.9	-31.5	12.6	9.38e-05	0	43	102	1048576	20	4370
2026-01-05 23:04:55.39	36.45	13.59	-29.8	-31.2	12.7	2.87e-04	0	43	102	1048576	20	4260
2026-01-05 23:04:56.39	36.57	13.67	-29.5	-31.1	13.3	2.33e-04	0	43	102	1048576	19	4295
2026-01-05 23:04:57.40	36.70	13.75	-29.7	-31.4	13.1	3.12e-05	0	43	102	1048576	19	4410
2026-01-05 23:04:58.40	36.82	13.83	-29.7	-31.4	13.1	2.03e-04	0	43	102	1048576	19	4413
2026-01-05 23:04:59.41	36.95	13.91	-29.7	-31.5	13.1	2.49e-04	0	43	102	1048576	19	4432
2026-01-05 23:05:00.42	37.08	13.99	-29.5	-31.0	13.3	2.89e-05	0	43	102	1048576	19	4272
2026-01-05 23:05:01.43	37.20	14.07	-29.5	-31.0	13.4	1.06e-05	0	43	102	1048576	19	4267
2026-01-05 23:05:02.43	37.33	14.15	-29.6	-31.2	13.3	2.60e-04	0	43	102	1048576	19	4332
2026-01-05 23:05:03.44	37.46	14.23	-29.7	-31.4	13.2	2.28e-05	0	43	102	1048576	19	4402
2026-01-05 23:05:04.45	37.59	14.31	-29.8	-31.8	12.9	3.28e-05	0	43	102	1048576	19	4540
2026-01-05 23:05:05.46	37.72	14.40	-29.8	-31.8	13.0	1.93e-04	0	43	102	1048576	19	4509
2026-01-05 23:05:06.47	37.85	14.48	-29.9	-31.9	12.9	7.62e-05	0	43	102	1048576	19	4561
2026-01-05 23:05:07.48	37.98	14.56	-29.9	-31.9	12.8	1.09e-04	0	43	102	1048576	19	4562
2026-01-05 23:05:08.49	38.11	14.64	-29.9	-31.5	12.8	6.48e-05	0	43	102	1048576	20	4332
2026-01-05 23:05:09.50	38.25	14.72	-29.8	-31.4	12.9	4.65e-05	0	43	102	1048576	20	4294
2026-01-05 23:05:10.51	38.38	14.81	-29.9	-31.6	12.7	7.70e-05	0	43	102	1048576	20	4369
2026-01-05 23:05:11.51	38.51	14.89	-29.9	-31.5	12.8	6.40e-05	0	43	102	1048576	20	4345
2026-01-05 23:05:12.52	38.65	14.97	-29.9	-31.6	12.8	5.87e-05	0	43	102	1048576	20	4354
2026-01-05 23:05:13.52	38.78	15.05	-29.9	-31.6	12.7	1.07e-04	0	43	102	1048576	20	4382
2026-01-05 23:05:14.53	38.92	15.14	-29.8	-31.2	13.0	5.95e-05	0	43	102	1048576	20	4227
2026-01-05 23:05:15.53	39.06	15.22	-29.8	-31.2	13.0	2.44e-05	0	43	102	1048576	20	4231
2026-01-05 23:05:16.54	39.19	15.30	-29.8	-31.3	12.9	5.41e-05	0	43	102	1048576	20	4281
2026-01-05 23:05:17.55	39.33	15.39	-29.9	-31.4	12.9	3.12e-05	0	43	102	1048576	20	4295
2026-01-05 23:05:18.54	39.47	15.47	-29.8	-31.3	12.9	1.72e-04	0	43	102	1048576	20	4261
2026-01-05 23:05:19.55	39.61	15.55	-29.9	-31.4	12.9	1.58e-04	0	43	102	1048576	20	4307
2026-01-05 23:05:20.56	39.75	15.64	-29.7	-30.9	13.2	3.28e-05	0	43	102	1048576	20	4149
2026-01-05 23:05:21.56	39.89	15.72	-29.7	-31.5	13.2	2.59e-04	0	43	102	1048576	19	4416
2026-01-05 23:05:22.57	40.04	15.80	-29.8	-31.7	13.1	2.51e-05	0	43	102	1048576	19	4469
2026-01-05 23:05:23.58	40.18	15.89	-29.6	-31.2	13.4	1.29e-05	0	43	102	1048576	19	4316
2026-01-05 23:05:24.59	40.32	15.97	-29.6	-31.2	13.4	2.59e-05	0	43	102	1048576	19	4320
2026-01-05 23:05:25.60	40.47	16.06	-29.7	-31.5	13.3	2.59e-05	0	43	102	1048576	19	4395
2026-01-05 23:05:26.60	40.61	16.14	-29.5	-30.9	13.6	7.60e-06	0	43	102	1048576	19	4217
2026-01-05 23:05:27.61	40.76	16.22	-29.4	-30.7	13.8	3.80e-06	0	43	102	1048576	19	4152
2026-01-05 23:05:28.61	40.91	16.31	-29.5	-30.9	13.7	3.80e-06	0	43	102	1048576	19	4209
2026-01-05 23:05:29.62	41.05	16.39	-29.4	-30.6	13.8	3.80e-06	0	43	102	1048576	19	4134
2026-01-05 23:05:30.62	41.20	16.48	-29.5	-30.9	13.7	3.80e-06	0	43	102	1048576	19	4221
2026-01-05 23:05:31.63	41.35	16.56	-29.6	-31.0	13.7	4.50e-06	0	43	102	1048576	19	4230
2026-01-05 23:05:32.64	41.50	16.65	-29.5	-30.7	13.8	6.80e-06	0	43	102	1048576	19	4153
2026-01-05 23:05:33.65	41.65	16.73	-29.4	-30.5	13.9	2.20e-06	0	43	102	1048576	19	4100
2026-01-05 23:05:34.65	41.80	16.82	-29.3	-30.3	14.1	7.00e-07	0	43	102	1048576	19	4027
2026-01-05 23:05:35.65	41.96	16.90	-29.3	-30.2	14.1	2.20e-06	0	43	102	1048576	19	4013
2026-01-05 23:05:36.66	42.11	16.99	-29.2	-30.1	14.2	2.20e-06	0	43	102	1048576	19	3977
2026-01-05 23:05:37.66	42.26	17.07	-29.3	-30.2	14.1	0.00e+00	0	43	102	1048576	19	4018
2026-01-05 23:05:38.67	42.42	17.16	-29.3	-30.3	14.1	0.00e+00	0	43	102	1048576	19	4024
2026-01-05 23:05:39.67	42.57	17.25	-29.4	-30.4	14.0	4.50e-06	0	43	102	1048576	19	4061
2026-01-05 23:05:40.67	42.73	17.33	-29.4	-30.5	14.0	1.52e-05	0	43	102	1048576	19	4086
2026-01-05 23:05:41.68	42.89	17.42	-29.3	-30.3	14.1	3.00e-06	0	43	102	1048576	19	4024
2026-01-05 23:05:42.69	43.05	17.50	-29.1	-29.8	14.4	2.20e-06	0	43	102	1048576	19	3897
2026-01-05 23:05:43.70	43.21	17.59	-29.0	-29.6	14.6	0.00e+00	0	43	102	1048576	19	3832
2026-01-05 23:05:44.71	43.37	17.68	-29.2	-30.0	14.4	1.50e-06	0	43	102	1048576	19	3936
2026-01-05 23:05:45.72	43.53	17.76	-29.2	-29.9	14.4	0.00e+00	0	43	102	1048576	19	3919
2026-01-05 23:05:46.72	43.69	17.85	-29.2	-30.0	14.3	1.50e-06	0	43	102	1048576	19	3938
2026-01-05 23:05:47.73	43.86	17.94	-29.3	-30.4	14.1	7.00e-07	0	43	102	1048576	19	4055
2026-01-05 23:05:48.74	44.02	18.02	-29.3	-30.2	14.2	3.80e-06	0	43	102	1048576	19	4015
2026-01-05 23:05:49.75	44.19	18.11	-29.1	-29.6	14.5	8.16e-05	0	43	102	1048576	19	3842
2026-01-05 23:05:50.75	44.35	18.20	-29.2	-30.1	14.3	0.00e+00	0	43	102	1048576	19	3974
2026-01-05 23:05:51.76	44.52	18.28	-29.2	-30.1	14.3	2.20e-06	0	43	102	1048576	19	3973
2026-01-05 23:05:52.77	44.69	18.37	-29.1	-29.9	14.4	7.00e-07	0	43	102	1048576	19	3911
2026-01-05 23:05:53.77	44.85	18.46	-29.2	-30.1	14.3	0.00e+00	0	43	102	1048576	19	3961
2026-01-05 23:05:54.77	45.02	18.54	-29.1	-29.8	14.5	0.00e+00	0	43	102	1048576	19	3885
2026-01-05 23:05:55.78	45.19	18.63	-29.0	-29.6	14.6	0.00e+00	0	43	102	1048576	19	3830
2026-01-05 23:05:56.78	45.36	18.72	-29.0	-29.4	14.7	0.00e+00	0	43	102	1048576	19	3775
2026-01-05 23:05:57.79	45.54	18.81	-29.3	-30.2	14.2	0.00e+00	0	43	102	1048576	19	3989
2026-01-05 23:05:58.80	45.71	18.89	-29.0	-29.5	14.6	8.08e-05	0	43	102	1048576	19	3816
2026-01-05 23:05:59.81	45.89	18.98	-29.0	-29.5	14.7	0.00e+00	0	43	102	1048576	19	3799
2026-01-05 23:06:00.82	46.06	19.07	-29.1	-29.6	14.6	0.00e+00	0	43	102	1048576	19	3847
2026-01-05 23:06:01.83	46.24	19.16	-28.9	-29.8	14.8	0.00e+00	0	43	102	1048576	18	3986
2026-01-05 23:06:02.84	46.42	19.25	-28.9	-29.8	14.8	0.00e+00	0	43	102	1048576	18	3987
2026-01-05 23:06:03.84	46.59	19.33	-29.1	-30.1	14.6	0.00e+00	0	43	102	1048576	18	4063
2026-01-05 23:06:04.85	46.77	19.42	-29.0	-29.9	14.7	0.00e+00	0	43	102	1048576	18	4000
2026-01-05 23:06:05.86	46.95	19.51	-28.7	-29.3	15.1	0.00e+00	0	43	102	1048576	18	3831
2026-01-05 23:06:06.86	47.14	19.60	-28.9	-29.8	14.8	7.60e-06	0	43	102	1048576	18	3986
2026-01-05 23:06:07.87	47.32	19.68	-28.9	-29.8	14.8	3.00e-06	0	43	102	1048576	18	3980
2026-01-05 23:06:08.88	47.50	19.77	-29.1	-30.3	14.5	7.00e-07	0	43	102	1048576	18	4119
2026-01-05 23:06:09.88	47.69	19.86	-29.1	-30.2	14.5	7.00e-07	0	43	102	1048576	18	4087
2026-01-05 23:06:10.89	47.87	19.95	-29.2	-30.4	14.4	0.00e+00	0	43	102	1048576	18	4156
2026-01-05 23:06:11.89	48.06	20.03	-29.1	-30.3	14.5	7.00e-07	0	43	102	1048576	18	4108
2026-01-05 23:06:12.90	48.25	20.12	-29.3	-30.8	14.2	2.20e-06	0	43	102	1048576	18	4267
2026-01-05 23:06:13.91	48.43	20.21	-29.0	-30.1	14.6	7.00e-07	0	43	102	1048576	18	4060
2026-01-05 23:06:14.91	48.62	20.30	-28.8	-29.5	15.0	7.00e-07	0	43	102	1048576	18	3883
2026-01-05 23:06:15.93	48.82	20.39	-28.7	-29.7	15.2	0.00e+00	0	43	102	1048576	17	4034
2026-01-05 23:06:16.93	49.01	20.47	-28.6	-29.6	15.2	0.00e+00	0	43	102	1048576	17	4014
2026-01-05 23:06:17.93	49.20	20.56	-28.9	-30.3	14.8	0.00e+00	0	43	102	1048576	17	4220
2026-01-05 23:06:18.94	49.39	20.65	-28.8	-29.4	15.1	0.00e+00	0	43	102	1048576	18	3859
2026-01-05 23:06:19.95	49.59	20.74	-28.6	-29.4	15.3	0.00e+00	0	43	102	1048576	17	3961
2026-01-05 23:06:20.95	49.78	20.83	-28.5	-29.4	15.2	0.00e+00	0	43	102	1048576	17	3977
2026-01-05 23:06:21.95	49.98	20.91	-28.8	-30.0	14.7	7.00e-07	0	43	102	1048576	17	4114
2026-01-05 23:06:22.97	50.18	21.00	-28.6	-29.5	15.3	7.00e-07	0	43	102	1048576	17	3989
2026-01-05 23:06:23.97	50.38	21.09	-28.5	-29.2	15.5	0.00e+00	0	43	102	1048576	17	3907
2026-01-05 23:06:24.99	50.58	21.18	-28.6	-29.4	15.3	0.00e+00	0	43	102	1048576	17	3956
2026-01-05 23:06:25.99	50.78	21.27	-28.6	-29.5	15.3	0.00e+00	0	43	102	1048576	17	3998
2026-01-05 23:06:27.00	50.99	21.35	-28.8	-30.0	15.0	0.00e+00	0	43	102	1048576	17	4118
2026-01-05 23:06:28.01	51.19	21.44	-28.9	-30.1	14.9	8.30e-06	0	43	102	1048576	17	4171
2026-01-05 23:06:29.01	51.39	21.53	-29.0	-30.3	14.8	9.10e-06	0	43	102	1048576	17	4227
2026-01-05 23:06:30.03	51.60	21.62	-28.9	-29.8	14.8	0.00e+00	0	43	102	1048576	18	3980
2026-01-05 23:06:31.03	51.81	21.70	-28.8	-29.6	15.0	0.00e+00	0	43	102	1048576	18	3913
2026-01-05 23:06:32.04	52.02	21.79	-29.3	-30.6	14.3	0.00e+00	0	43	102	1048576	18	4214
2026-01-05 23:06:33.04	52.23	21.88	-28.9	-29.8	14.8	4.50e-05	0	43	102	1048576	18	3977
2026-01-05 23:06:34.05	52.44	21.97	-29.0	-29.9	14.8	7.00e-07	0	43	102	1048576	18	4003
2026-01-05 23:06:35.06	52.65	22.05	-29.0	-30.0	14.7	7.00e-07	0	43	102	1048576	18	4030
2026-01-05 23:06:36.07	52.87	22.14	-29.0	-30.0	14.7	4.80e-05	0	43	102	1048576	18	4030
2026-01-05 23:06:37.07	53.08	22.23	-29.0	-30.1	14.7	2.18e-04	0	43	102	1048576	18	4056
2026-01-05 23:06:38.07	53.29	22.31	-29.0	-30.0	14.7	0.00e+00	0	43	102	1048576	18	4042
2026-01-05 23:06:39.08	53.51	22.40	-29.0	-29.9	14.8	3.20e-04	0	43	102	1048576	18	4003
2026-01-05 23:06:40.09	53.73	22.49	-29.1	-30.1	14.7	1.17e-04	0	43	102	1048576	18	4069
2026-01-05 23:06:41.10	53.95	22.57	-29.2	-30.3	14.5	0.00e+00	0	43	102	1048576	18	4120
2026-01-05 23:06:42.11	54.17	22.66	-29.1	-30.3	14.5	1.50e-06	0	43	102	1048576	18	4109
2026-01-05 23:06:43.12	54.39	22.75	-29.2	-30.4	14.5	4.50e-05	0	43	102	1048576	18	4136
2026-01-05 23:06:44.12	54.61	22.83	-29.2	-30.4	14.5	0.00e+00	0	43	102	1048576	18	4154
2026-01-05 23:06:45.13	54.84	22.92	-29.3	-30.6	14.4	1.50e-06	0	43	102	1048576	18	4203
2026-01-05 23:06:46.14	55.06	23.00	-29.3	-30.7	14.3	4.27e-05	0	43	102	1048576	18	4229
2026-01-05 23:06:47.15	55.29	23.09	-29.3	-30.6	14.3	7.00e-07	0	43	102	1048576	18	4212
2026-01-05 23:06:48.15	55.52	23.18	-29.3	-30.6	14.4	2.20e-06	0	43	102	1048576	18	4209
2026-01-05 23:06:49.16	55.75	23.26	-29.4	-31.0	14.1	0.00e+00	0	43	102	1048576	18	4327
2026-01-05 23:06:50.17	55.98	23.35	-29.5	-30.8	14.0	2.20e-06	0	43	102	1048576	19	4153
2026-01-05 23:06:51.17	56.21	23.43	-29.7	-31.2	13.7	3.00e-06	0	43	102	1048576	19	4295
2026-01-05 23:06:52.18	56.44	23.52	-29.5	-30.6	14.0	2.20e-06	0	43	102	1048576	19	4116
2026-01-05 23:06:53.20	56.68	23.60	-29.7	-31.1	13.8	7.00e-07	0	43	102	1048576	19	4258
2026-01-05 23:06:54.21	56.91	23.69	-29.8	-31.4	13.6	3.35e-05	0	43	102	1048576	19	4358
2026-01-05 23:06:55.22	57.15	23.77	-29.6	-30.9	13.9	4.80e-05	0	43	102	1048576	19	4203
2026-01-05 23:06:56.22	57.39	23.85	-29.4	-30.3	14.2	0.00e+00	0	43	102	1048576	19	4024
2026-01-05 23:06:57.22	57.62	23.94	-29.4	-30.4	14.2	5.11e-05	0	43	102	1048576	19	4052
2026-01-05 23:06:58.23	57.86	24.02	-29.3	-30.2	14.4	2.74e-05	0	43	102	1048576	19	3991
2026-01-05 23:06:59.24	58.11	24.10	-29.5	-30.7	14.0	7.00e-07	0	43	102	1048576	19	4136
2026-01-05 23:07:00.24	58.35	24.19	-29.8	-31.6	13.5	2.20e-06	0	43	102	1048576	19	4406
2026-01-05 23:07:01.25	58.59	24.27	-29.7	-31.3	13.7	7.60e-06	0	43	102	1048576	19	4300
2026-01-05 23:07:02.26	58.84	24.35	-29.9	-31.7	13.4	7.60e-06	0	43	102	1048576	19	4441
2026-01-05 23:07:03.27	59.08	24.43	-29.8	-31.5	13.6	3.00e-06	0	43	102	1048576	19	4360
2026-01-05 23:07:04.28	59.33	24.52	-29.9	-31.8	13.4	1.29e-05	0	43	102	1048576	19	4460
2026-01-05 23:07:05.28	59.58	24.60	-29.9	-31.2	13.4	1.60e-05	0	43	102	1048576	20	4199
2026-01-05 23:07:06.29	59.83	24.68	-29.6	-30.5	13.9	3.80e-06	0	43	102	1048576	20	3977
2026-01-05 23:07:07.29	60.08	24.76	-29.6	-30.6	13.8	1.40e-04	0	43	102	1048576	20	4008
2026-01-05 23:07:08.30	60.33	24.84	-29.7	-30.7	13.7	3.00e-06	0	43	102	1048576	20	4049
2026-01-05 23:07:09.31	60.59	24.92	-29.7	-31.1	13.8	3.00e-06	0	43	102	1048576	19	4248
2026-01-05 23:07:10.31	60.84	25.00	-29.7	-31.3	13.7	3.53e-04	0	43	102	1048576	19	4305
2026-01-05 23:07:11.32	61.10	25.08	-29.6	-30.8	14.0	4.50e-06	0	43	102	1048576	19	4165
2026-01-05 23:07:12.33	61.36	25.16	-29.4	-30.4	14.3	2.20e-06	0	43	102	1048576	19	4041
2026-01-05 23:07:13.33	61.61	25.24	-29.4	-31.0	14.2	0.00e+00	0	43	102	1048576	18	4318
2026-01-05 23:07:14.33	61.87	25.31	-29.6	-30.9	14.0	4.50e-06	0	43	102	1048576	19	4179
2026-01-05 23:07:15.34	62.13	25.39	-29.6	-30.9	14.0	3.21e-04	0	43	102	1048576	19	4193
2026-01-05 23:07:16.34	62.40	25.47	-29.8	-31.5	13.6	1.14e-05	0	43	102	1048576	19	4377
2026-01-05 23:07:17.35	62.66	25.55	-29.9	-31.6	13.5	1.06e-05	0	43	102	1048576	19	4408
2026-01-05 23:07:18.36	62.93	25.62	-29.8	-31.4	13.7	4.50e-05	0	43	102	1048576	19	4351
2026-01-05 23:07:19.36	63.19	25.70	-29.5	-30.6	14.2	7.00e-07	0	43	102	1048576	19	4088
2026-01-05 23:07:20.37	63.46	25.78	-29.1	-29.5	14.8	0.00e+00	0	43	102	1048576	19	3795
2026-01-05 23:07:21.37	63.73	25.85	-29.2	-29.9	14.7	2.74e-05	0	43	102	1048576	19	3893
2026-01-05 23:07:22.38	64.00	25.93	-29.4	-30.5	14.3	0.00e+00	0	43	102	1048576	19	4069
2026-01-05 23:07:23.39	64.27	26.00	-29.6	-31.0	14.0	7.00e-07	0	44	102	1048576	19	4214
2026-01-05 23:07:24.39	64.54	26.08	-30.0	-31.4	13.3	6.80e-06	0	43	102	1048576	20	4264
2026-01-05 23:07:25.40	64.82	26.15	-30.0	-31.6	13.2	3.35e-05	0	43	102	1048576	20	4316
2026-01-05 23:07:26.41	65.09	26.22	-29.9	-31.3	13.3	1.90e-05	0	43	102	1048576	20	4227
2026-01-05 23:07:27.41	65.37	26.30	-29.6	-30.6	13.8	7.60e-06	0	44	102	1048576	20	4004
2026-01-05 23:07:28.42	65.65	26.37	-29.3	-29.7	14.4	3.96e-05	0	43	102	1048576	20	3761
2026-01-05 23:07:29.43	65.93	26.44	-29.2	-29.8	14.7	0.00e+00	0	43	102	1048576	19	3869
2026-01-05 23:07:30.44	66.21	26.51	-29.2	-29.9	14.7	0.00e+00	0	43	102	1048576	19	3886
2026-01-05 23:07:31.44	66.49	26.58	-29.3	-30.2	14.5	0.00e+00	0	43	102	1048576	19	3971
2026-01-05 23:07:32.45	66.77	26.65	-29.6	-31.0	14.0	7.00e-07	0	43	102	1048576	19	4208
2026-01-05 23:07:33.46	67.06	26.72	-29.8	-31.4	13.8	7.60e-06	0	43	102	1048576	19	4327
2026-01-05 23:07:34.47	67.34	26.79	-29.9	-31.7	13.6	4.50e-06	0	43	102	1048576	19	4423
2026-01-05 23:07:35.47	67.63	26.86	-30.0	-31.6	13.2	9.10e-06	0	43	102	1048576	20	4307
2026-01-05 23:07:36.47	67.91	26.93	-30.0	-31.5	13.2	3.12e-05	0	43	102	1048576	20	4291
2026-01-05 23:07:37.48	68.20	26.99	-29.9	-31.3	13.5	1.29e-05	0	44	102	1048576	20	4220
2026-01-05 23:07:38.49	68.49	27.06	-29.9	-31.2	13.4	7.60e-06	0	43	102	1048576	20	4194
2026-01-05 23:07:39.50	68.79	27.13	-29.9	-31.2	13.5	8.30e-06	0	44	102	1048576	20	4183
2026-01-05 23:07:40.51	69.08	27.19	-30.0	-31.5	13.4	1.14e-05	0	43	102	1048576	20	4262
2026-01-05 23:07:41.51	69.37	27.26	-29.9	-31.2	13.5	2.74e-05	0	43	102	1048576	20	4171
2026-01-05 23:07:42.52	69.67	27.32	-29.8	-30.8	13.8	5.30e-06	0	43	102	1048576	20	4064
2026-01-05 23:07:43.52	69.96	27.39	-29.7	-30.8	13.8	7.60e-06	0	43	102	1048576	20	4042
2026-01-05 23:07:44.53	70.26	27.45	-29.8	-30.8	13.7	5.30e-06	0	43	102	1048576	20	4061
2026-01-05 23:07:45.54	70.56	27.51	-30.0	-31.3	13.5	1.48e-04	0	43	102	1048576	20	4207
2026-01-05 23:07:46.55	70.86	27.57	-30.0	-31.5	13.4	1.22e-05	0	43	102	1048576	20	4268
2026-01-05 23:07:47.55	71.16	27.63	-30.2	-31.9	13.2	1.90e-05	0	43	102	1048576	20	4386
2026-01-05 23:07:48.56	71.46	27.69	-30.3	-32.3	12.8	4.11e-05	0	43	102	1048576	20	4516
2026-01-05 23:07:49.57	71.77	27.75	-30.3	-32.2	12.9	4.80e-05	0	43	102	1048576	20	4476
2026-01-05 23:07:50.58	72.07	27.81	-30.3	-32.2	12.9	5.11e-05	0	43	102	1048576	20	4490
2026-01-05 23:07:51.58	72.37	27.87	-30.1	-31.7	13.2	7.55e-05	0	43	102	1048576	20	4348
2026-01-05 23:07:52.59	72.68	27.93	-29.9	-31.3	13.5	1.75e-05	0	43	102	1048576	20	4192
2026-01-05 23:07:53.60	72.99	27.98	-30.0	-31.4	13.4	9.10e-06	0	43	102	1048576	20	4230
2026-01-05 23:07:54.60	73.29	28.04	-30.6	-32.6	12.2	3.81e-05	0	43	102	1048576	21	4551
2026-01-05 23:07:55.61	73.61	28.09	-31.0	-33.8	11.4	6.66e-04	0	43	102	1048576	21	4987
2026-01-05 23:07:56.62	73.92	28.15	-31.1	-33.8	11.1	1.93e-03	0	43	102	1048576	22	4874
2026-01-05 23:07:57.62	74.23	28.20	-31.1	-33.6	11.1	2.06e-03	0	43	102	1048576	22	4836
2026-01-05 23:07:58.63	74.54	28.25	-31.1	-33.5	11.2	1.25e-03	0	43	102	1048576	22	4793
2026-01-05 23:07:59.64	74.85	28.31	-31.3	-34.2	10.8	1.38e-03	0	43	102	1048576	22	5037
2026-01-05 23:08:00.65	75.17	28.36	-31.1	-33.6	11.2	2.43e-03	0	43	102	1048576	22	4813
2026-01-05 23:08:01.65	75.48	28.41	-31.4	-34.8	10.4	1.17e-03	0	43	102	1048576	22	5292
2026-01-05 23:08:02.65	75.80	28.46	-31.6	-34.8	10.0	6.57e-03	0	43	102	1048576	23	5225
2026-01-05 23:08:03.66	76.12	28.50	-31.4	-34.3	10.3	5.29e-03	0	43	102	1048576	23	5002
2026-01-05 23:08:04.67	76.44	28.55	-31.4	-34.2	10.4	4.85e-03	0	43	102	1048576	23	4950
2026-01-05 23:08:05.67	76.75	28.60	-31.4	-34.3	10.3	4.71e-03	0	43	102	1048576	23	5012
2026-01-05 23:08:06.68	77.07	28.64	-31.3	-33.9	10.6	4.64e-03	0	43	102	1048576	23	4858
2026-01-05 23:08:07.69	77.40	28.69	-31.4	-34.3	10.3	4.12e-03	0	44	102	1048576	23	5032
2026-01-05 23:08:08.69	77.72	28.73	-31.6	-34.9	9.9	7.84e-03	0	43	102	1048576	23	5258
2026-01-05 23:08:09.70	78.04	28.78	-31.6	-35.0	9.7	1.20e-02	0	43	102	1048576	23	5315
2026-01-05 23:08:10.70	78.36	28.82	-31.2	-33.6	10.8	5.84e-03	0	43	102	1048576	23	4730
2026-01-05 23:08:11.71	78.69	28.86	-30.7	-32.6	11.9	1.05e-03	0	44	102	1048576	22	4465
2026-01-05 23:08:12.72	79.01	28.90	-30.4	-31.7	12.5	1.21e-04	0	43	102	1048576	22	4169
2026-01-05 23:08:13.73	79.34	28.94	-30.3	-31.9	12.8	9.99e-05	0	43	102	1048576	21	4304
2026-01-05 23:08:14.74	79.67	28.98	-30.5	-32.4	12.4	9.76e-05	0	44	102	1048576	21	4473
2026-01-05 23:08:15.74	79.99	29.02	-30.6	-32.9	12.0	3.16e-04	0	44	102	1048576	21	4655
2026-01-05 23:08:16.75	80.32	29.05	-30.5	-32.4	12.3	3.41e-04	0	43	102	1048576	21	4494
2026-01-05 23:08:17.76	80.65	29.09	-30.0	-31.1	13.1	1.14e-04	0	43	102	1048576	21	4072
2026-01-05 23:08:18.76	80.98	29.12	-29.8	-30.5	13.5	1.67e-05	0	43	102	1048576	21	3896
2026-01-05 23:08:19.77	81.31	29.16	-29.7	-30.7	13.8	6.80e-06	0	43	102	1048576	20	4036
2026-01-05 23:08:20.78	81.65	29.19	-30.0	-31.7	13.1	6.10e-06	0	43	102	1048576	20	4356
2026-01-05 23:08:21.78	81.98	29.22	-30.2	-32.0	12.9	4.42e-05	0	43	102	1048576	20	4457
2026-01-05 23:08:22.79	82.31	29.25	-30.3	-32.3	12.7	5.11e-05	0	43	102	1048576	20	4553
2026-01-05 23:08:23.80	82.64	29.28	-30.0	-31.5	13.2	7.09e-05	0	43	102	1048576	20	4298
2026-01-05 23:08:24.80	82.98	29.31	-29.8	-30.9	13.6	3.66e-05	0	43	102	1048576	20	4110
2026-01-05 23:08:25.80	83.31	29.34	-29.6	-30.3	14.0	1.50e-06	0	43	102	1048576	20	3941
2026-01-05 23:08:26.80	83.64	29.37	-29.6	-30.5	13.9	2.44e-05	0	43	102	1048576	20	3983
2026-01-05 23:08:27.81	83.98	29.39	-29.7	-30.8	13.7	1.75e-05	0	43	102	1048576	20	4073
2026-01-05 23:08:28.82	84.31	29.42	-29.8	-30.9	13.6	5.30e-06	0	43	102	1048576	20	4114
2026-01-05 23:08:29.83	84.65	29.44	-29.5	-30.2	14.0	2.97e-05	0	43	102	1048576	20	3908
2026-01-05 23:08:30.84	84.99	29.46	-29.3	-30.2	14.4	3.05e-05	0	43	102	1048576	19	3990
2026-01-05 23:08:31.84	85.33	29.49	-29.4	-30.3	14.4	0.00e+00	0	43	102	1048576	19	4014
2026-01-05 23:08:32.85	85.66	29.51	-29.3	-30.3	14.4	0.00e+00	0	43	102	1048576	19	4005
2026-01-05 23:08:33.85	86.00	29.53	-29.7	-31.3	13.8	4.19e-05	0	43	102	1048576	19	4301
2026-01-05 23:08:34.85	86.34	29.54	-29.9	-31.4	13.3	6.10e-06	0	43	102	1048576	20	4252
2026-01-05 23:08:35.86	86.68	29.56	-30.0	-31.6	13.2	2.28e-05	0	43	102	1048576	20	4322
2026-01-05 23:08:36.87	87.02	29.58	-30.3	-32.2	12.8	2.59e-05	0	43	102	1048576	20	4517
2026-01-05 23:08:37.88	87.36	29.59	-30.2	-32.1	12.9	7.32e-05	0	44	102	1048576	20	4481
2026-01-05 23:08:38.88	87.70	29.61	-30.3	-32.4	12.7	5.49e-05	0	44	102	1048576	20	4569
2026-01-05 23:08:39.89	88.04	29.62	-30.2	-32.0	12.9	4.65e-05	0	43	102	1048576	20	4422
2026-01-05 23:08:40.89	88.38	29.63	-30.2	-32.1	12.9	2.74e-05	0	44	102	1048576	20	4473
2026-01-05 23:08:41.90	88.72	29.64	-30.3	-32.4	12.7	4.95e-05	0	43	102	1048576	20	4572
2026-01-05 23:08:42.90	89.06	29.65	-30.4	-32.7	12.5	6.02e-05	0	43	102	1048576	20	4661
2026-01-05 23:08:43.91	89.40	29.66	-29.9	-31.3	13.4	4.11e-05	0	43	102	1048576	20	4226
2026-01-05 23:08:44.91	89.74	29.67	-29.6	-30.3	14.1	9.10e-06	0	43	102	1048576	20	3924
2026-01-05 23:08:45.92	90.08	29.68	-29.3	-29.6	14.5	7.00e-07	0	43	102	1048576	20	3737
2026-01-05 23:08:46.93	90.43	29.68	-29.3	-30.2	14.6	0.00e+00	0	43	102	1048576	19	3961
2026-01-05 23:08:47.93	90.77	29.69	-29.7	-31.0	14.0	3.89e-05	0	43	102	1048576	19	4215
2026-01-05 23:08:48.94	91.11	29.69	-30.1	-31.6	13.3	8.30e-06	0	43	102	1048576	20	4315
2026-01-05 23:08:49.95	91.45	29.69	-30.4	-32.6	12.6	4.95e-05	0	44	102	1048576	20	4635
2026-01-05 23:08:50.95	91.79	29.69	-30.3	-32.2	12.8	6.63e-05	0	43	102	1048576	20	4509
2026-01-05 23:08:51.96	92.14	29.69	-30.2	-32.0	13.0	3.58e-05	0	43	102	1048576	20	4437
2026-01-05 23:08:52.97	92.48	29.69	-30.2	-32.0	12.9	5.64e-05	0	44	102	1048576	20	4435
2026-01-05 23:08:53.97	92.82	29.69	-30.2	-32.1	12.9	5.49e-05	0	43	102	1048576	20	4486
2026-01-05 23:08:54.98	93.16	29.69	-30.2	-32.1	12.9	4.42e-05	0	43	102	1048576	20	4455
2026-01-05 23:08:55.98	93.50	29.68	-30.2	-32.0	13.0	3.58e-05	0	43	102	1048576	20	4433
2026-01-05 23:08:56.99	93.85	29.68	-30.1	-31.8	13.1	4.11e-05	0	43	102	1048576	20	4368
2026-01-05 23:08:57.99	94.19	29.67	-30.1	-31.8	13.1	2.67e-05	0	43	102	1048576	20	4367
2026-01-05 23:08:59.00	94.53	29.66	-30.1	-31.6	13.2	2.28e-05	0	43	102	1048576	20	4325
2026-01-05 23:09:00.01	94.87	29.65	-30.1	-31.9	13.0	2.82e-05	0	43	102	1048576	20	4420
2026-01-05 23:09:01.02	95.21	29.64	-30.5	-32.8	12.4	5.11e-05	0	43	102	1048576	20	4734
2026-01-05 23:09:02.02	95.55	29.63	-30.9	-33.6	11.6	4.13e-04	0	43	102	1048576	21	4909
2026-01-05 23:09:03.03	95.90	29.62	-31.0	-33.5	11.3	1.03e-03	0	43	102	1048576	22	4789
2026-01-05 23:09:04.03	96.23	29.61	-30.9	-33.1	11.5	1.20e-03	0	43	102	1048576	22	4635
2026-01-05 23:09:05.04	96.58	29.59	-30.8	-32.9	11.6	6.32e-04	0	43	102	1048576	22	4573
2026-01-05 23:09:06.05	96.92	29.58	-30.9	-33.0	11.6	6.47e-04	0	43	102	1048576	22	4599
2026-01-05 23:09:07.05	97.25	29.56	-30.6	-32.3	12.1	3.96e-04	0	43	102	1048576	22	4356
2026-01-05 23:09:08.06	97.59	29.55	-30.7	-32.4	12.0	3.69e-04	0	43	102	1048576	22	4408
2026-01-05 23:09:09.07	97.93	29.53	-30.7	-32.6	11.9	4.74e-04	0	43	102	1048576	22	4448
2026-01-05 23:09:10.08	98.27	29.51	-30.7	-32.5	12.0	3.78e-04	0	43	102	1048576	22	4428
2026-01-05 23:09:11.08	98.61	29.49	-30.6	-32.1	12.1	2.73e-04	0	43	102	1048576	22	4301
2026-01-05 23:09:12.08	98.95	29.47	-30.8	-32.8	11.7	4.32e-04	0	43	102	1048576	22	4547
2026-01-05 23:09:13.09	99.29	29.44	-31.0	-33.5	11.3	8.19e-04	0	43	102	1048576	22	4795
2026-01-05 23:09:14.09	99.62	29.42	-31.1	-33.8	11.0	2.10e-03	0	43	102	1048576	22	4910
2026-01-05 23:09:15.10	99.96	29.40	-31.1	-33.8	10.9	2.06e-03	0	44	102	1048576	22	4923
2026-01-05 23:09:16.10	100.29	29.37	-31.2	-34.2	10.7	2.91e-03	0	44	102	1048576	22	5067
2026-01-05 23:09:17.10	100.62	29.34	-31.0	-33.6	11.1	2.14e-03	0	43	102	1048576	22	4844
2026-01-05 23:09:18.11	100.96	29.32	-30.8	-33.0	11.5	1.03e-03	0	44	102	1048576	22	4642
2026-01-05 23:09:19.12	101.30	29.29	-31.0	-33.7	11.1	1.54e-03	0	43	102	1048576	22	4872
2026-01-05 23:09:20.12	101.63	29.26	-31.0	-33.7	11.0	1.63e-03	0	43	102	1048576	22	4885
2026-01-05 23:09:21.13	101.96	29.23	-31.1	-33.9	10.9	2.70e-03	0	44	102	1048576	22	4963
2026-01-05 23:09:22.13	102.29	29.19	-31.0	-33.5	11.2	1.74e-03	0	43	102	1048576	22	4818
2026-01-05 23:09:23.13	102.62	29.16	-31.0	-33.6	11.1	9.51e-04	0	43	102	1048576	22	4831
2026-01-05 23:09:24.14	102.95	29.13	-31.0	-33.5	11.2	8.61e-04	0	43	102	1048576	22	4797
2026-01-05 23:09:25.15	103.29	29.09	-31.3	-34.4	10.6	2.39e-03	0	44	102	1048576	22	5173
2026-01-05 23:09:26.15	103.61	29.06	-31.9	-36.3	8.7	1.43e-02	0	44	102	1048576	23	5959
2026-01-05 23:09:27.16	103.94	29.02	-32.2	-36.8	8.2	4.91e-02	0	43	102	1048576	24	6118
2026-01-05 23:09:28.16	104.27	28.98	-32.2	-37.1	7.8	6.94e-02	0	44	102	1048576	24	6301
2026-01-05 23:09:29.17	104.60	28.95	-31.9	-35.6	8.9	4.99e-02	0	43	102	1048576	24	5495
2026-01-05 23:09:30.18	104.93	28.91	-31.6	-34.5	9.8	1.48e-02	0	43	102	1048576	24	5010
2026-01-05 23:09:31.18	105.25	28.87	-31.3	-33.9	10.6	5.27e-03	0	43	102	1048576	23	4844
2026-01-05 23:09:32.19	105.58	28.82	-31.3	-33.8	10.7	2.56e-03	0	43	102	1048576	23	4808
2026-01-05 23:09:33.19	105.90	28.78	-31.1	-33.3	10.9	1.72e-03	0	44	102	1048576	23	4648
2026-01-05 23:09:34.20	106.22	28.74	-30.9	-32.8	11.4	1.14e-03	0	44	102	1048576	23	4446
2026-01-05 23:09:35.21	106.55	28.69	-30.9	-32.5	11.5	9.47e-04	0	43	102	1048576	23	4355
2026-01-05 23:09:36.22	106.87	28.65	-30.7	-32.4	12.0	5.68e-04	0	43	102	1048576	22	4402
2026-01-05 23:09:37.22	107.19	28.60	-30.8	-32.8	11.7	5.03e-04	0	43	102	1048576	22	4536
2026-01-05 23:09:38.23	107.51	28.56	-30.6	-32.2	12.1	2.49e-04	0	43	102	1048576	22	4331
2026-01-05 23:09:39.24	107.83	28.51	-30.8	-32.7	11.8	2.08e-04	0	43	102	1048576	22	4506
2026-01-05 23:09:40.25	108.15	28.46	-30.8	-32.7	11.7	5.30e-04	0	44	102	1048576	22	4506
2026-01-05 23:09:41.25	108.47	28.41	-30.7	-32.7	11.8	4.89e-04	0	44	102	1048576	22	4503
2026-01-05 23:09:42.25	108.78	28.36	-30.7	-32.6	11.8	6.12e-04	0	43	102	1048576	22	4466
2026-01-05 23:09:43.25	109.09	28.31	-30.6	-32.3	12.1	4.26e-04	0	43	102	1048576	22	4354
2026-01-05 23:09:44.26	109.41	28.26	-30.7	-32.5	11.9	5.55e-04	0	44	102	1048576	22	4413
2026-01-05 23:09:45.26	109.72	28.21	-30.5	-31.9	12.4	1.56e-04	0	43	102	1048576	22	4221
2026-01-05 23:09:46.27	110.03	28.15	-30.4	-32.2	12.5	7.85e-05	0	44	102	1048576	21	4414
2026-01-05 23:09:47.28	110.35	28.10	-30.3	-31.8	12.7	6.63e-05	0	43	102	1048576	21	4295
2026-01-05 23:09:48.28	110.65	28.04	-30.6	-32.6	12.3	1.69e-04	0	44	102	1048576	21	4560
2026-01-05 23:09:49.29	110.96	27.99	-30.2	-31.7	12.8	8.46e-05	0	44	102	1048576	21	4242
2026-01-05 23:09:50.29	111.27	27.93	-30.3	-31.7	12.8	8.01e-05	0	43	102	1048576	21	4268
2026-01-05 23:09:51.30	111.58	27.87	-30.4	-32.1	12.5	7.70e-05	0	44	102	1048576	21	4377
2026-01-05 23:09:52.31	111.89	27.81	-30.7	-33.0	12.0	1.32e-04	0	43	102	1048576	21	4687
2026-01-05 23:09:53.31	112.19	27.76	-31.1	-33.8	11.0	7.11e-04	0	43	102	1048576	22	4892
2026-01-05 23:09:54.32	112.49	27.70	-31.1	-33.8	11.0	1.35e-03	0	44	102	1048576	22	4913
2026-01-05 23:09:55.33	112.80	27.64	-31.3	-34.4	10.5	3.23e-03	0	43	102	1048576	22	5151
2026-01-05 23:09:56.34	113.10	27.57	-31.0	-33.5	11.1	3.13e-03	0	44	102	1048576	22	4807
2026-01-05 23:09:57.34	113.40	27.51	-31.1	-34.0	10.8	3.42e-03	0	43	102	1048576	22	4976
2026-01-05 23:09:58.35	113.70	27.45	-31.0	-33.5	11.1	1.13e-03	0	43	102	1048576	22	4817
2026-01-05 23:09:59.36	114.00	27.39	-31.2	-34.1	10.7	1.23e-03	0	43	102	1048576	22	5040
2026-01-05 23:10:00.37	114.30	27.32	-31.5	-34.5	10.2	3.66e-03	0	44	102	1048576	23	5091
2026-01-05 23:10:01.37	114.59	27.26	-31.7	-35.3	9.6	7.55e-03	0	43	102	1048576	23	5402
2026-01-05 23:10:02.36	114.88	27.20	-31.9	-35.8	9.2	1.63e-02	0	43	102	1048576	23	5649
2026-01-05 23:10:03.37	115.17	27.13	-31.6	-34.9	9.9	1.48e-02	0	43	102	1048576	23	5232
2026-01-05 23:10:04.38	115.47	27.06	-31.4	-34.1	10.4	4.75e-03	0	43	102	1048576	23	4927
2026-01-05 23:10:05.38	115.76	27.00	-31.2	-33.5	10.9	1.98e-03	0	43	102	1048576	23	4700
2026-01-05 23:10:06.39	116.05	26.93	-31.5	-34.5	10.2	3.06e-03	0	43	102	1048576	23	5076
2026-01-05 23:10:07.40	116.34	26.86	-31.7	-35.0	9.7	5.25e-03	0	43	102	1048576	23	5315
2026-01-05 23:10:08.41	116.63	26.79	-31.8	-35.6	9.3	1.87e-02	0	43	102	1048576	23	5580
2026-01-05 23:10:09.41	116.91	26.72	-31.7	-35.3	9.6	1.40e-02	0	43	102	1048576	23	5410
2026-01-05 23:10:10.42	117.20	26.65	-31.6	-34.7	10.0	9.16e-03	0	43	102	1048576	23	5167
2026-01-05 23:10:11.43	117.48	26.58	-31.3	-33.8	10.7	3.63e-03	0	43	102	1048576	23	4804
2026-01-05 23:10:12.43	117.76	26.51	-31.4	-34.0	10.7	3.51e-03	0	43	102	1048576	23	4878
2026-01-05 23:10:13.44	118.04	26.44	-31.3	-33.8	10.7	2.52e-03	0	44	102	1048576	23	4800
2026-01-05 23:10:14.44	118.32	26.37	-31.2	-33.5	10.9	2.54e-03	0	43	102	1048576	23	4700
2026-01-05 23:10:15.45	118.60	26.30	-31.2	-33.3	11.1	1.99e-03	0	43	102	1048576	23	4610
2026-01-05 23:10:16.46	118.88	26.22	-31.0	-33.0	11.2	1.58e-03	0	44	102	1048576	23	4501
2026-01-05 23:10:17.47	119.16	26.15	-31.0	-33.0	11.3	9.35e-04	0	43	102	1048576	23	4491
2026-01-05 23:10:18.48	119.43	26.07	-30.9	-32.5	11.6	6.15e-04	0	44	102	1048576	23	4338
2026-01-05 23:10:19.49	119.71	26.00	-31.2	-33.6	10.8	1.09e-03	0	43	102	1048576	23	4718
2026-01-05 23:10:20.49	119.98	25.92	-31.2	-33.4	10.9	1.30e-03	0	44	102	1048576	23	4665
2026-01-05 23:10:21.49	120.25	25.85	-31.2	-33.5	10.8	2.43e-03	0	43	102	1048576	23	4692
2026-01-05 23:10:22.50	120.52	25.77	-31.1	-33.1	11.2	2.23e-03	0	43	102	1048576	23	4527
2026-01-05 23:10:23.51	120.79	25.70	-31.1	-33.6	11.1	1.23e-03	0	43	102	1048576	22	4822
2026-01-05 23:10:24.51	121.06	25.62	-31.1	-33.6	11.1	1.59e-03	0	43	102	1048576	22	4826
2026-01-05 23:10:25.52	121.32	25.54	-30.7	-32.4	12.0	3.65e-04	0	43	102	1048576	22	4395
2026-01-05 23:10:26.53	121.59	25.46	-30.7	-32.5	11.9	2.11e-04	0	43	102	1048576	22	4433
2026-01-05 23:10:27.54	121.85	25.39	-30.7	-32.4	12.0	5.25e-04	0	43	102	1048576	22	4385
2026-01-05 23:10:28.54	122.11	25.31	-30.7	-32.6	11.9	5.03e-04	0	43	102	1048576	22	4440
2026-01-05 23:10:29.55	122.38	25.23	-30.9	-33.1	11.5	8.53e-04	0	43	102	1048576	22	4616
2026-01-05 23:10:30.55	122.63	25.15	-30.7	-32.5	11.9	7.39e-04	0	43	102	1048576	22	4405
2026-01-05 23:10:31.56	122.89	25.07	-30.6	-32.3	12.1	3.11e-04	0	44	102	1048576	22	4338
2026-01-05 23:10:32.56	123.15	24.99	-30.5	-31.8	12.3	1.88e-04	0	44	102	1048576	22	4203
2026-01-05 23:10:33.57	123.41	24.91	-30.0	-31.1	13.1	2.28e-05	0	43	102	1048576	21	4064
2026-01-05 23:10:34.57	123.66	24.83	-30.1	-31.2	13.0	9.30e-05	0	43	102	1048576	21	4104
2026-01-05 23:10:35.58	123.91	24.75	-30.2	-31.6	12.8	6.79e-05	0	44	102	1048576	21	4226
2026-01-05 23:10:36.58	124.17	24.67	-30.4	-32.0	12.6	1.62e-04	0	43	102	1048576	21	4331
2026-01-05 23:10:37.59	124.42	24.59	-30.1	-31.2	13.1	1.27e-04	0	43	102	1048576	21	4088
2026-01-05 23:10:38.59	124.67	24.50	-29.9	-31.2	13.4	1.83e-05	0	43	102	1048576	20	4182
2026-01-05 23:10:39.60	124.91	24.42	-29.8	-30.9	13.5	9.10e-06	0	43	102	1048576	20	4096
2026-01-05 23:10:40.60	125.16	24.34	-29.7	-30.7	13.8	5.30e-06	0	43	102	1048576	20	4026
2026-01-05 23:10:41.61	125.41	24.26	-30.1	-31.9	12.9	1.07e-04	0	44	102	1048576	20	4411
2026-01-05 23:10:42.62	125.65	24.17	-30.3	-32.3	12.7	7.93e-05	0	43	102	1048576	20	4528
2026-01-05 23:10:43.62	125.89	24.09	-30.5	-32.4	12.2	1.43e-04	0	43	102	1048576	21	4497
2026-01-05 23:10:44.62	126.14	24.01	-30.5	-32.4	12.2	3.49e-04	0	43	102	1048576	21	4501
2026-01-05 23:10:45.63	126.38	23.92	-30.5	-32.4	12.2	2.43e-04	0	43	102	1048576	21	4494
2026-01-05 23:10:46.63	126.61	23.84	-30.1	-31.2	13.0	1.92e-04	0	44	102	1048576	21	4114
2026-01-05 23:10:47.64	126.85	23.76	-29.7	-30.7	13.7	1.22e-05	0	44	102	1048576	20	4046
2026-01-05 23:10:48.65	127.09	23.67	-30.0	-31.4	13.2	6.80e-06	0	44	102	1048576	20	4262
2026-01-05 23:10:49.66	127.33	23.59	-30.1	-31.9	12.9	2.28e-05	0	44	102	1048576	20	4410
2026-01-05 23:10:50.67	127.56	23.50	-30.6	-32.8	12.0	1.09e-04	0	44	102	1048576	21	4607
2026-01-05 23:10:51.67	127.80	23.42	-30.7	-33.0	11.8	8.00e-04	0	44	102	1048576	21	4693
2026-01-05 23:10:52.68	128.03	23.33	-30.3	-32.0	12.5	4.11e-04	0	44	102	1048576	21	4353
2026-01-05 23:10:53.69	128.26	23.24	-30.1	-31.3	12.9	9.15e-05	0	43	102	1048576	21	4140
2026-01-05 23:10:54.69	128.49	23.16	-29.8	-30.9	13.6	1.22e-05	0	43	102	1048576	20	4091
2026-01-05 23:10:55.70	128.72	23.07	-29.7	-30.8	13.6	9.46e-05	0	44	102	1048576	20	4085
2026-01-05 23:10:56.71	128.95	22.99	-29.6	-30.5	13.8	9.61e-05	0	44	102	1048576	20	3985
2026-01-05 23:10:57.72	129.17	22.90	-29.7	-30.7	13.6	8.30e-06	0	44	102	1048576	20	4046
2026-01-05 23:10:58.72	129.40	22.81	-29.7	-30.7	13.6	6.56e-05	0	44	102	1048576	20	4045
2026-01-05 23:10:59.73	129.62	22.73	-29.5	-30.3	13.9	5.18e-05	0	43	102	1048576	20	3925
2026-01-05 23:11:00.73	129.84	22.64	-29.3	-29.6	14.3	5.30e-06	0	44	102	1048576	20	3741
2026-01-05 23:11:01.74	130.06	22.55	-29.0	-29.3	14.9	6.10e-05	0	43	102	1048576	19	3732
2026-01-05 23:11:02.75	130.28	22.47	-29.2	-29.8	14.6	5.56e-05	0	44	102	1048576	19	3868
2026-01-05 23:11:03.75	130.50	22.38	-29.3	-30.1	14.4	6.80e-06	0	43	102	1048576	19	3958
2026-01-05 23:11:04.76	130.72	22.29	-29.9	-31.6	13.4	7.17e-05	0	44	102	1048576	19	4408
2026-01-05 23:11:05.77	130.94	22.20	-30.5	-32.6	12.0	2.11e-04	0	44	102	1048576	21	4560
2026-01-05 23:11:06.77	131.15	22.12	-31.1	-33.9	10.8	1.28e-03	0	44	102	1048576	22	4967
2026-01-05 23:11:07.78	131.37	22.03	-31.4	-34.7	10.1	5.55e-03	0	44	102	1048576	22	5305
2026-01-05 23:11:08.79	131.58	21.94	-31.3	-34.7	10.1	5.45e-03	0	44	102	1048576	22	5275
2026-01-05 23:11:09.80	131.79	21.85	-31.1	-33.9	10.7	3.70e-03	0	44	102	1048576	22	4978
2026-01-05 23:11:10.80	132.00	21.77	-30.8	-32.9	11.4	1.51e-03	0	44	102	1048576	22	4595
2026-01-05 23:11:11.80	132.21	21.68	-30.6	-32.3	11.9	5.54e-04	0	44	102	1048576	22	4380
2026-01-05 23:11:12.81	132.42	21.59	-30.5	-31.9	12.1	2.88e-04	0	44	102	1048576	22	4260
2026-01-05 23:11:13.82	132.63	21.50	-30.7	-32.7	11.5	5.34e-04	0	44	102	1048576	22	4522
2026-01-05 23:11:14.83	132.83	21.41	-30.8	-32.9	11.4	8.76e-04	0	43	102	1048576	22	4597
2026-01-05 23:11:15.83	133.04	21.32	-30.8	-32.9	11.4	9.57e-04	0	43	102	1048576	22	4605
2026-01-05 23:11:16.84	133.24	21.24	-31.0	-33.4	11.0	1.26e-03	0	44	102	1048576	22	4781
2026-01-05 23:11:17.85	133.44	21.15	-30.5	-32.1	12.0	4.39e-04	0	44	102	1048576	22	4308
2026-01-05 23:11:18.85	133.64	21.06	-29.9	-30.8	13.0	6.40e-05	0	44	102	1048576	21	4009
2026-01-05 23:11:19.86	133.84	20.97	-29.4	-30.1	13.9	6.33e-05	0	44	102	1048576	20	3881
2026-01-05 23:11:20.87	134.04	20.88	-29.2	-30.0	14.3	4.88e-05	0	44	102	1048576	19	3939
2026-01-05 23:11:21.88	134.24	20.79	-29.2	-30.0	14.4	1.50e-06	0	43	102	1048576	19	3926
2026-01-05 23:11:22.88	134.44	20.71	-29.4	-30.6	14.0	6.10e-05	0	44	102	1048576	19	4094
2026-01-05 23:11:23.89	134.64	20.62	-29.7	-31.1	13.7	7.32e-05	0	44	102	1048576	19	4269
2026-01-05 23:11:24.89	134.83	20.53	-29.5	-30.8	13.9	3.80e-06	0	43	102	1048576	19	4150
2026-01-05 23:11:25.90	135.02	20.44	-29.5	-30.7	13.9	1.01e-04	0	43	102	1048576	19	4140
2026-01-05 23:11:26.91	135.22	20.35	-29.5	-30.6	13.9	8.77e-05	0	44	102	1048576	19	4114
2026-01-05 23:11:27.92	135.41	20.26	-29.5	-30.7	13.9	3.00e-06	0	43	102	1048576	19	4152
2026-01-05 23:11:28.92	135.60	20.17	-29.4	-30.5	14.0	2.20e-06	0	44	102	1048576	19	4080
2026-01-05 23:11:29.93	135.79	20.08	-29.4	-30.6	13.9	7.24e-05	0	44	102	1048576	19	4114
2026-01-05 23:11:30.94	135.98	20.00	-29.9	-31.7	13.1	6.10e-06	0	44	102	1048576	19	4467
2026-01-05 23:11:31.95	136.16	19.91	-29.9	-31.3	13.0	6.79e-05	0	44	102	1048576	20	4257
2026-01-05 23:11:32.96	136.35	19.82	-30.0	-31.6	12.8	7.55e-05	0	44	102	1048576	20	4349
2026-01-05 23:11:33.96	136.53	19.73	-29.9	-31.4	12.9	5.72e-05	0	44	102	1048576	20	4292
2026-01-05 23:11:34.97	136.72	19.64	-29.8	-31.1	13.1	2.36e-05	0	44	102	1048576	20	4190
2026-01-05 23:11:35.98	136.90	19.55	-29.6	-30.5	13.5	1.44e-05	0	44	102	1048576	20	4020
2026-01-05 23:11:36.99	137.09	19.46	-29.5	-30.4	13.6	6.80e-06	0	43	102	1048576	20	3984
2026-01-05 23:11:38.00	137.27	19.38	-29.6	-31.0	13.6	9.90e-06	0	44	102	1048576	19	4238
2026-01-05 23:11:39.01	137.45	19.29	-29.2	-29.9	14.2	3.00e-06	0	43	102	1048576	19	3931
2026-01-05 23:11:40.02	137.63	19.20	-29.2	-29.9	14.2	7.00e-07	0	44	102	1048576	19	3925
2026-01-05 23:11:41.03	137.81	19.11	-29.4	-30.6	13.8	5.30e-06	0	44	102	1048576	19	4137
2026-01-05 23:11:42.04	137.98	19.02	-29.5	-30.7	13.7	6.80e-06	0	44	102	1048576	19	4160
2026-01-05 23:11:43.05	138.16	18.93	-29.8	-31.5	13.2	6.10e-06	0	44	102	1048576	19	4397
2026-01-05 23:11:44.05	138.33	18.84	-29.5	-31.0	13.5	2.78e-04	0	43	102	1048576	19	4238
2026-01-05 23:11:45.05	138.51	18.76	-29.5	-30.8	13.6	6.80e-06	0	44	102	1048576	19	4198
2026-01-05 23:11:46.06	138.68	18.67	-29.5	-30.9	13.5	3.80e-06	0	44	102	1048576	19	4240
2026-01-05 23:11:47.06	138.85	18.58	-29.5	-30.8	13.6	3.00e-06	0	44	102	1048576	19	4188
2026-01-05 23:11:48.07	139.02	18.49	-29.1	-29.7	14.2	2.20e-06	0	44	102	1048576	19	3884
2026-01-05 23:11:49.08	139.19	18.41	-29.0	-29.6	14.3	2.20e-06	0	44	102	1048576	19	3851
2026-01-05 23:11:50.09	139.36	18.32	-29.0	-30.0	14.4	0.00e+00	0	44	102	1048576	18	4041
2026-01-05 23:11:51.09	139.53	18.23	-29.2	-30.5	14.1	1.50e-06	0	44	102	1048576	18	4202
2026-01-05 23:11:52.10	139.70	18.14	-29.3	-30.9	13.8	3.00e-06	0	44	102	1048576	18	4328
2026-01-05 23:11:53.11	139.87	18.05	-29.3	-30.7	13.9	3.80e-06	0	44	102	1048576	18	4270
2026-01-05 23:11:54.11	140.03	17.97	-29.2	-30.6	14.0	3.80e-06	0	43	102	1048576	18	4224
2026-01-05 23:11:55.12	140.19	17.88	-29.3	-30.8	13.9	2.20e-06	0	43	102	1048576	18	4279
2026-01-05 23:11:56.13	140.36	17.79	-29.1	-30.4	13.8	2.20e-06	0	43	102	1048576	18	4161
2026-01-05 23:11:57.13	140.52	17.71	-29.2	-30.6	14.0	4.50e-06	0	43	102	1048576	18	4232
2026-01-05 23:11:58.14	140.68	17.62	-29.2	-30.7	13.9	2.21e-05	0	43	102	1048576	18	4244
2026-01-05 23:11:59.15	140.84	17.53	-29.0	-30.2	14.2	3.00e-06	0	44	102	1048576	18	4097
2026-01-05 23:12:00.15	141.00	17.44	-28.9	-29.8	14.4	2.20e-06	0	43	102	1048576	18	4008
2026-01-05 23:12:01.16	141.16	17.36	-28.8	-30.0	14.6	6.32e-04	0	43	102	1048576	17	4151
2026-01-05 23:12:02.17	141.32	17.27	-28.9	-30.5	14.3	7.00e-07	0	44	102	1048576	17	4285
2026-01-05 23:12:03.17	141.48	17.18	-28.8	-30.2	14.5	1.50e-06	0	44	102	1048576	17	4190
2026-01-05 23:12:04.18	141.63	17.10	-28.8	-30.2	14.1	3.54e-03	0	44	102	1048576	17	4230
2026-01-05 23:12:05.19	141.79	17.01	-28.8	-30.4	13.9	5.77e-03	0	44	102	1048576	17	4294
2026-01-05 23:12:06.19	141.94	16.93	-29.0	-30.4	13.7	3.43e-03	0	43	102	1048576	18	4205
2026-01-05 23:12:07.20	142.10	16.84	-29.0	-30.2	13.9	9.34e-04	0	44	102	1048576	18	4160
2026-01-05 23:12:08.20	142.25	16.75	-29.1	-30.4	13.8	1.51e-03	0	44	102	1048576	18	4199
2026-01-05 23:12:09.20	142.40	16.67	-29.2	-30.8	13.6	4.42e-04	0	43	102	1048576	18	4315
2026-01-05 23:12:10.21	142.55	16.58	-29.2	-30.8	13.5	2.82e-05	0	43	102	1048576	18	4323
2026-01-05 23:12:11.22	142.70	16.50	-29.3	-31.0	13.4	9.73e-04	0	44	102	1048576	18	4394
2026-01-05 23:12:12.22	142.85	16.41	-29.1	-30.4	13.7	1.06e-04	0	43	102	1048576	18	4212
2026-01-05 23:12:13.23	143.00	16.32	-28.9	-30.5	13.9	7.55e-05	0	43	102	1048576	17	4342
2026-01-05 23:12:14.23	143.15	16.24	-28.8	-30.4	13.8	4.08e-03	0	44	102	1048576	17	4321
2026-01-05 23:12:15.24	143.30	16.15	-28.8	-30.3	13.8	4.00e-03	0	43	102	1048576	17	4283
2026-01-05 23:12:16.25	143.44	16.07	-29.2	-30.7	13.4	2.21e-03	0	44	102	1048576	18	4316
2026-01-05 23:12:17.25	143.59	15.98	-29.1	-30.7	13.5	3.04e-04	0	43	102	1048576	18	4318
2026-01-05 23:12:18.26	143.73	15.90	-29.3	-31.3	13.0	1.54e-03	0	44	102	1048576	18	4491
2026-01-05 23:12:19.27	143.88	15.81	-29.6	-31.5	12.5	4.86e-03	0	44	102	1048576	19	4479
2026-01-05 23:12:20.28	144.02	15.73	-29.7	-31.8	12.4	2.74e-03	0	44	102	1048576	19	4581
2026-01-05 23:12:21.28	144.16	15.65	-29.9	-32.4	12.0	2.63e-03	0	43	102	1048576	19	4804
2026-01-05 23:12:22.29	144.31	15.56	-30.0	-32.1	11.7	4.23e-03	0	44	102	1048576	20	4625
2026-01-05 23:12:23.30	144.45	15.48	-29.9	-32.0	11.8	2.49e-03	0	44	102	1048576	20	4572
2026-01-05 23:12:24.31	144.59	15.39	-30.1	-32.5	11.7	7.01e-04	0	43	102	1048576	20	4711
2026-01-05 23:12:25.31	144.73	15.31	-29.9	-31.9	12.1	2.40e-03	0	44	102	1048576	20	4500
2026-01-05 23:12:26.31	144.86	15.22	-29.9	-32.3	12.2	2.03e-03	0	44	102	1048576	19	4728
2026-01-05 23:12:27.32	145.00	15.14	-30.0	-32.0	12.0	3.49e-04	0	44	102	1048576	20	4550
2026-01-05 23:12:28.33	145.14	15.06	-29.4	-31.4	12.3	8.83e-03	0	44	102	1048576	19	4573
2026-01-05 23:12:29.33	145.28	14.97	-29.5	-31.7	12.1	9.13e-03	0	44	102	1048576	19	4689
2026-01-05 23:12:30.34	145.41	14.89	-29.4	-31.4	12.3	1.22e-02	0	44	102	1048576	19	4522
2026-01-05 23:12:31.34	145.55	14.81	-29.2	-31.3	12.8	4.01e-03	0	44	102	1048576	18	4566
2026-01-05 23:12:32.34	145.68	14.73	-29.4	-31.9	12.5	5.59e-03	0	44	102	1048576	18	4796
2026-01-05 23:12:33.35	145.81	14.64	-29.4	-31.5	12.2	9.36e-03	0	44	102	1048576	19	4586
2026-01-05 23:12:34.36	145.95	14.56	-29.8	-32.5	11.7	1.67e-02	0	44	102	1048576	19	4891
2026-01-05 23:12:35.37	146.08	14.48	-29.8	-32.4	11.2	1.65e-02	0	43	102	1048576	20	4815
2026-01-05 23:12:36.37	146.21	14.39	-29.8	-32.2	11.5	9.37e-03	0	43	102	1048576	20	4717
2026-01-05 23:12:37.38	146.34	14.31	-30.1	-32.8	11.1	4.19e-03	0	44	102	1048576	20	4920
2026-01-05 23:12:38.39	146.47	14.23	-30.3	-33.0	11.2	3.64e-03	0	44	102	1048576	20	4920
2026-01-05 23:12:39.39	146.60	14.15	-30.2	-32.8	11.3	9.04e-04	0	44	102	1048576	20	4874
2026-01-05 23:12:40.40	146.73	14.07	-30.5	-33.6	10.7	3.54e-03	0	44	102	1048576	20	5193
2026-01-05 23:12:41.40	146.85	13.98	-30.3	-33.2	11.0	4.34e-03	0	44	102	1048576	20	5008
2026-01-05 23:12:42.40	146.98	13.90	-30.3	-33.0	11.2	1.50e-03	0	44	102	1048576	20	4929
2026-01-05 23:12:43.41	147.11	13.82	-30.4	-33.3	11.0	4.13e-03	0	44	102	1048576	20	5033
2026-01-05 23:12:44.41	147.23	13.74	-30.2	-32.9	11.2	1.14e-03	0	44	102	1048576	20	4893
2026-01-05 23:12:45.42	147.36	13.66	-30.4	-33.4	10.9	1.70e-03	0	44	102	1048576	20	5107
2026-01-05 23:12:46.43	147.48	13.58	-30.3	-33.2	11.0	5.03e-03	0	44	102	1048576	20	5008
2026-01-05 23:12:47.44	147.61	13.50	-30.3	-33.2	11.1	1.70e-03	0	44	102	1048576	20	5012
2026-01-05 23:12:48.45	147.73	13.42	-30.3	-33.2	11.0	1.40e-03	0	44	102	1048576	20	5008
2026-01-05 23:12:49.45	147.85	13.34	-30.1	-32.6	11.5	4.03e-03	0	43	102	1048576	20	4769
2026-01-05 23:12:50.46	147.98	13.26	-30.2	-32.8	11.4	3.32e-03	0	44	102	1048576	20	4846
2026-01-05 23:12:51.47	148.10	13.17	-30.4	-33.3	10.9	2.28e-03	0	44	102	1048576	20	5038
2026-01-05 23:12:52.48	148.22	13.09	-30.1	-32.5	11.5	3.48e-03	0	44	102	1048576	20	4732
2026-01-05 23:12:53.49	148.34	13.01	-30.2	-32.7	11.4	2.81e-03	0	43	102	1048576	20	4813
2026-01-05 23:12:54.50	148.46	12.93	-30.0	-32.1	11.8	6.53e-04	0	43	102	1048576	20	4591
2026-01-05 23:12:55.50	148.58	12.85	-30.0	-32.1	11.7	4.81e-04	0	44	102	1048576	20	4609
2026-01-05 23:12:56.50	148.69	12.78	-30.2	-32.7	11.4	3.31e-03	0	44	102	1048576	20	4821
2026-01-05 23:12:57.51	148.81	12.70	-29.9	-31.8	11.9	6.16e-04	0	44	102	1048576	20	4506
2026-01-05 23:12:58.51	148.93	12.62	-29.8	-32.0	12.2	2.19e-04	0	44	102	1048576	19	4645
2026-01-05 23:12:59.51	149.04	12.54	-29.8	-32.0	12.2	2.55e-03	0	44	102	1048576	19	4650
2026-01-05 23:13:00.52	149.16	12.46	-29.9	-32.3	12.0	3.19e-04	0	44	102	1048576	19	4773
2026-01-05 23:13:01.53	149.27	12.38	-30.0	-32.3	11.6	6.37e-04	0	44	102	1048576	20	4666
2026-01-05 23:13:02.54	149.39	12.30	-29.8	-32.1	12.2	3.42e-04	0	44	102	1048576	19	4688
2026-01-05 23:13:03.55	149.50	12.22	-29.8	-32.1	12.2	3.68e-04	0	44	102	1048576	19	4698
2026-01-05 23:13:04.55	149.62	12.15	-29.9	-31.9	11.9	4.63e-04	0	44	102	1048576	20	4538
2026-01-05 23:13:05.56	149.73	12.07	-29.9	-32.2	12.1	2.72e-04	0	44	102	1048576	19	4724
2026-01-05 23:13:06.57	149.84	11.99	-30.0	-32.3	11.6	4.10e-04	0	44	102	1048576	20	4661
2026-01-05 23:13:07.58	149.95	11.91	-30.1	-32.5	11.4	1.30e-03	0	44	102	1048576	20	4751
2026-01-05 23:13:08.58	150.06	11.83	-29.9	-32.0	11.8	6.32e-04	0	44	102	1048576	20	4571
2026-01-05 23:13:09.58	150.17	11.76	-30.1	-32.6	11.4	7.56e-04	0	44	102	1048576	20	4777
2026-01-05 23:13:10.59	150.28	11.68	-30.0	-32.3	11.5	8.15e-04	0	44	102	1048576	20	4696
2026-01-05 23:13:11.60	150.39	11.60	-30.1	-32.8	11.2	9.09e-04	0	44	102	1048576	20	4875
2026-01-05 23:13:12.60	150.50	11.52	-30.3	-33.2	10.8	2.95e-03	0	44	102	1048576	20	5073
2026-01-05 23:13:13.61	150.61	11.45	-30.2	-33.1	10.9	2.30e-03	0	44	102	1048576	20	5010
2026-01-05 23:13:14.61	150.72	11.37	-30.4	-33.8	10.3	3.06e-03	0	44	102	1048576	20	5340
2026-01-05 23:13:15.61	150.82	11.30	-30.3	-33.0	10.5	7.27e-03	0	44	102	1048576	21	4922
2026-01-05 23:13:16.62	150.93	11.22	-30.2	-32.9	10.9	2.41e-03	0	44	102	1048576	20	4969
2026-01-05 23:13:17.63	151.04	11.14	-30.3	-33.4	10.6	2.66e-03	0	44	102	1048576	20	5133
2026-01-05 23:13:18.64	151.14	11.07	-30.2	-33.0	10.9	2.30e-03	0	44	102	1048576	20	4968
2026-01-05 23:13:19.65	151.25	10.99	-30.1	-32.6	11.1	1.84e-03	0	44	102	1048576	20	4835
2026-01-05 23:13:20.65	151.35	10.91	-30.2	-33.2	10.8	2.48e-03	0	44	102	1048576	20	5057
2026-01-05 23:13:21.66	151.46	10.84	-30.2	-33.1	10.8	2.55e-03	0	44	102	1048576	20	5038
2026-01-05 23:13:22.67	151.56	10.76	-30.4	-33.7	10.3	3.26e-03	0	44	102	1048576	20	5294
2026-01-05 23:13:23.67	151.66	10.69	-30.3	-33.0	10.5	7.13e-03	0	44	102	1048576	21	4892
2026-01-05 23:13:24.68	151.77	10.61	-30.4	-33.7	10.3	4.92e-03	0	44	102	1048576	20	5260
2026-01-05 23:13:25.69	151.87	10.54	-30.7	-34.2	9.6	6.11e-03	0	44	102	1048576	21	5425
2026-01-05 23:13:26.69	151.97	10.46	-30.5	-34.1	10.0	1.20e-02	0	44	102	1048576	20	5436
2026-01-05 23:13:27.69	152.07	10.39	-30.4	-33.8	10.2	5.50e-03	0	44	102	1048576	20	5336
2026-01-05 23:13:28.70	152.17	10.31	-30.5	-33.7	9.9	9.84e-03	0	44	102	1048576	21	5190
2026-01-05 23:13:29.70	152.27	10.24	-30.5	-33.5	10.1	5.82e-03	0	43	102	1048576	21	5096
2026-01-05 23:13:30.71	152.37	10.16	-30.5	-33.8	9.9	1.11e-02	0	44	102	1048576	21	5228
2026-01-05 23:13:31.71	152.47	10.09	-30.5	-34.1	9.9	1.05e-02	0	44	102	1048576	20	5489
2026-01-05 23:13:32.72	152.57	10.02	-30.2	-33.4	10.4	5.58e-03	0	44	102	1048576	20	5177
2026-01-05 23:13:33.73	152.67	9.94	-30.2	-33.1	10.6	7.13e-03	0	44	102	1048576	20	5081
2026-01-05 23:13:34.73	152.76	9.87	-30.0	-32.6	11.0	1.91e-03	0	44	102	1048576	20	4863
2026-01-05 23:13:35.74	152.86	9.79	-29.9	-32.3	11.2	1.59e-03	0	44	102	1048576	20	4762
2026-01-05 23:13:36.75	152.96	9.72	-30.0	-32.5	11.0	1.76e-03	0	44	102	1048576	20	4842
2026-01-05 23:13:37.75	153.05	9.65	-29.9	-32.7	11.4	3.74e-03	0	44	102	1048576	19	4979
2026-01-05 23:13:38.76	153.15	9.57	-29.8	-32.5	11.5	1.02e-03	0	44	102	1048576	19	4908
2026-01-05 23:13:39.76	153.24	9.50	-29.7	-32.1	11.7	1.11e-03	0	43	102	1048576	19	4768
2026-01-05 23:13:40.77	153.34	9.43	-29.6	-32.1	11.7	3.19e-03	0	44	102	1048576	19	4784
2026-01-05 23:13:41.78	153.43	9.36	-29.6	-32.1	11.7	1.15e-03	0	44	102	1048576	19	4800
2026-01-05 23:13:42.78	153.53	9.28	-29.5	-32.1	12.0	2.96e-04	0	43	102	1048576	18	4900
2026-01-05 23:13:43.79	153.62	9.21	-29.5	-31.8	11.9	2.84e-03	0	44	102	1048576	19	4666
2026-01-05 23:13:44.79	153.71	9.14	-29.5	-31.9	11.8	7.45e-04	0	44	102	1048576	19	4752
2026-01-05 23:13:45.80	153.81	9.07	-29.4	-31.9	12.1	3.68e-04	0	44	102	1048576	18	4822
2026-01-05 23:13:46.81	153.90	8.99	-29.7	-32.2	11.6	3.46e-04	0	44	102	1048576	19	4835
2026-01-05 23:13:47.81	153.99	8.92	-29.6	-31.9	11.8	6.71e-04	0	44	102	1048576	19	4702
2026-01-05 23:13:48.82	154.08	8.85	-29.6	-31.8	11.9	2.55e-03	0	44	102	1048576	19	4664
2026-01-05 23:13:49.83	154.17	8.78	-29.7	-32.1	11.8	4.08e-04	0	44	102	1048576	19	4752
2026-01-05 23:13:50.83	154.26	8.71	-29.7	-32.1	11.8	7.15e-04	0	44	102	1048576	19	4736
2026-01-05 23:13:51.84	154.35	8.64	-29.8	-32.2	11.7	3.03e-03	0	44	102	1048576	19	4792
2026-01-05 23:13:52.85	154.44	8.57	-29.8	-32.4	11.6	6.86e-04	0	44	102	1048576	19	4833
2026-01-05 23:13:53.86	154.53	8.49	-29.8	-32.5	11.5	9.15e-04	0	44	102	1048576	19	4874
2026-01-05 23:13:54.86	154.62	8.42	-29.9	-32.7	11.3	3.31e-03	0	44	102	1048576	19	4959
2026-01-05 23:13:55.87	154.71	8.35	-29.9	-32.6	11.3	3.39e-03	0	44	102	1048576	19	4933
2026-01-05 23:13:56.88	154.80	8.28	-30.0	-32.9	11.3	1.30e-03	0	44	102	1048576	19	5024
2026-01-05 23:13:57.89	154.88	8.21	-29.9	-32.7	11.3	3.21e-03	0	44	102	1048576	19	4978
2026-01-05 23:13:58.89	154.97	8.14	-29.8	-32.4	11.6	3.32e-03	0	44	102	1048576	19	4848
2026-01-05 23:13:59.90	155.06	8.07	-29.8	-32.6	11.4	1.01e-03	0	44	102	1048576	19	4931
2026-01-05 23:14:00.90	155.14	8.00	-29.8	-32.6	11.4	3.65e-03	0	44	102	1048576	19	4923
2026-01-05 23:14:01.91	155.23	7.93	-29.9	-32.8	11.2	3.22e-03	0	44	102	1048576	19	5030
2026-01-05 23:14:02.92	155.32	7.86	-29.9	-32.7	11.3	1.60e-03	0	44	102	1048576	19	4965
2026-01-05 23:14:03.93	155.40	7.79	-29.9	-32.9	11.2	3.73e-03	0	44	102	1048576	19	5057
2026-01-05 23:14:04.94	155.49	7.72	-30.2	-33.1	10.6	4.52e-03	0	44	102	1048576	20	5074
2026-01-05 23:14:05.95	155.57	7.65	-30.1	-32.9	10.7	3.44e-03	0	44	102	1048576	20	4997
2026-01-05 23:14:06.95	155.65	7.58	-29.9	-32.4	11.1	1.73e-03	0	44	102	1048576	20	4797
2026-01-05 23:14:07.96	155.74	7.52	-30.1	-32.9	10.8	4.49e-03	0	44	102	1048576	20	4959
2026-01-05 23:14:08.97	155.82	7.45	-30.0	-32.6	10.9	2.98e-03	0	44	102	1048576	20	4865
2026-01-05 23:14:09.97	155.90	7.38	-30.0	-32.7	10.9	2.31e-03	0	44	102	1048576	20	4900
2026-01-05 23:14:10.98	155.99	7.31	-30.1	-32.8	10.8	2.08e-03	0	44	102	1048576	20	4945
2026-01-05 23:14:11.99	156.07	7.24	-30.2	-33.1	10.6	3.02e-03	0	44	102	1048576	20	5057
2026-01-05 23:14:12.99	156.15	7.17	-30.1	-32.9	10.7	5.73e-03	0	44	102	1048576	20	4989
2026-01-05 23:14:14.00	156.23	7.10	-30.3	-33.7	10.1	5.39e-03	0	44	102	1048576	20	5319
2026-01-05 23:14:15.00	156.31	7.04	-32.2	-44.8	3.8	1.49e+00	0	44	104	1048576	24	15325
2026-01-05 23:14:16.01	156.39	6.97	-32.9	-45.5	3.8	1.49e+00	0	44	104	1048576	25	15464
2026-01-05 23:14:17.02	156.47	6.90	-33.3	-45.9	3.8	1.49e+00	0	44	104	1048576	26	15306

#Closed at: 2026-01-05 23:14:17
#Recorded file [1 MB]: D:/data/31010_260106_020326.dat