passes_logs/2026/01/05/R2M6_AANII_01/R2M6_AANII_01__20260105_152306_FENGYUN_3E_rec.log

#Pass ID: 20260105_152306_FENGYUN 3E
#Satellite: FENGYUN 3E
#Configuration: FENGYUN 3E
#almurnet v.1.7.20240730
#Start time: 2026-01-05 15:23:06

#Version: 2.2.20231116
#Station: R2M6_AANII_01
#Location: 30.233357 lon 59.946436 lat
#TLE: 1 49008U 21062A   26004.99925679  .00000018  00000+0  29282-4 0  9995
#TLE: 2 49008  98.7472  10.2448 0001540 159.6420 200.4818 14.19883565233423

#Time	Az	El	Level	Level2	SNR	BER	BlckErr	Temp	State	Recorded	gain1	gain2
2026-01-05 15:23:06.66	184.97	6.99	-26.4	-28.2	5.7	7.54e-01	0	41	0	0	12	4430
2026-01-05 15:23:07.66	185.02	7.06	-27.9	-30.3	5.5	7.69e-01	0	42	104	0	15	4730
2026-01-05 15:23:08.67	185.07	7.14	-27.6	-29.6	10.9	2.09e-03	0	42	0	0	15	4526
2026-01-05 15:23:09.68	185.12	7.21	-27.7	-29.9	10.8	1.76e-03	0	42	102	1048576	15	4597
2026-01-05 15:23:10.68	185.17	7.29	-27.9	-30.3	10.5	3.91e-03	0	42	102	1048576	15	4742
2026-01-05 15:23:11.68	185.22	7.36	-27.4	-28.9	11.4	1.41e-03	0	42	102	1048576	15	4307
2026-01-05 15:23:12.68	185.27	7.44	-26.7	-27.8	12.4	2.08e-04	0	42	102	1048576	14	4104
2026-01-05 15:23:13.69	185.32	7.51	-26.4	-27.3	12.7	7.43e-05	0	42	102	1048576	14	3959
2026-01-05 15:23:14.69	185.37	7.59	-26.0	-26.8	13.3	3.08e-05	0	42	102	1048576	13	3938
2026-01-05 15:23:15.70	185.42	7.67	-26.0	-27.2	13.3	1.37e-05	0	42	102	1048576	12	4161
2026-01-05 15:23:16.71	185.48	7.74	-25.9	-27.2	13.3	1.60e-05	0	42	102	1048576	12	4148
2026-01-05 15:23:17.71	185.53	7.82	-26.0	-27.2	13.3	1.14e-05	0	42	102	1048576	12	4157
2026-01-05 15:23:18.72	185.58	7.90	-26.1	-27.5	13.2	1.60e-05	0	42	102	1048576	12	4237
2026-01-05 15:23:19.73	185.63	7.97	-25.9	-27.0	13.5	1.71e-05	0	42	102	1048576	12	4092
2026-01-05 15:23:20.73	185.68	8.05	-26.0	-27.3	13.3	3.89e-05	0	42	102	1048576	12	4189
2026-01-05 15:23:21.74	185.74	8.13	-26.1	-27.4	13.2	4.23e-05	0	42	102	1048576	12	4215
2026-01-05 15:23:22.75	185.79	8.21	-25.9	-27.2	13.4	1.37e-05	0	42	102	1048576	12	4151
2026-01-05 15:23:23.76	185.84	8.28	-26.0	-27.3	13.3	3.66e-05	0	42	102	1048576	12	4196
2026-01-05 15:23:24.76	185.90	8.36	-25.8	-26.9	13.5	8.00e-06	0	42	102	1048576	12	4072
2026-01-05 15:23:25.77	185.95	8.44	-26.0	-27.3	13.3	1.14e-05	0	42	102	1048576	12	4179
2026-01-05 15:23:26.78	186.00	8.52	-25.9	-27.1	13.4	2.74e-05	0	42	102	1048576	12	4135
2026-01-05 15:23:27.79	186.06	8.60	-25.7	-26.5	13.7	2.20e-06	0	42	102	1048576	12	3990
2026-01-05 15:23:28.79	186.11	8.68	-25.6	-26.4	13.8	2.20e-06	0	42	102	1048576	12	3942
2026-01-05 15:23:29.79	186.17	8.76	-25.7	-26.6	13.7	2.20e-06	0	42	102	1048576	12	4011
2026-01-05 15:23:30.80	186.22	8.84	-25.6	-26.3	13.9	4.50e-06	0	42	102	1048576	12	3932
2026-01-05 15:23:31.81	186.28	8.92	-25.5	-26.2	14.0	2.20e-06	0	42	102	1048576	12	3888
2026-01-05 15:23:32.82	186.33	9.00	-25.7	-27.2	13.7	5.70e-06	0	42	102	1048576	11	4265
2026-01-05 15:23:33.83	186.39	9.08	-25.6	-27.0	13.8	0.00e+00	0	42	102	1048576	11	4210
2026-01-05 15:23:34.83	186.44	9.16	-25.6	-26.9	13.9	1.10e-06	0	43	102	1048576	11	4179
2026-01-05 15:23:35.83	186.50	9.24	-25.5	-26.7	14.0	6.80e-06	0	43	102	1048576	11	4122
2026-01-05 15:23:36.84	186.56	9.32	-25.6	-26.9	13.9	3.40e-06	0	43	102	1048576	11	4195
2026-01-05 15:23:37.85	186.61	9.40	-25.6	-26.8	14.0	2.20e-06	0	42	102	1048576	11	4160
2026-01-05 15:23:38.86	186.67	9.48	-25.5	-26.8	14.0	3.40e-06	0	43	102	1048576	11	4157
2026-01-05 15:23:39.87	186.73	9.56	-25.6	-26.9	13.9	3.40e-06	0	43	102	1048576	11	4191
2026-01-05 15:23:40.88	186.79	9.64	-25.5	-26.7	14.1	2.20e-06	0	43	102	1048576	11	4119
2026-01-05 15:23:41.88	186.85	9.73	-25.3	-26.2	14.3	3.40e-06	0	43	102	1048576	11	4010
2026-01-05 15:23:42.89	186.90	9.81	-25.7	-27.1	13.8	2.20e-06	0	43	102	1048576	11	4246
2026-01-05 15:23:43.89	186.96	9.89	-25.2	-26.1	14.4	1.10e-06	0	43	102	1048576	11	3981
2026-01-05 15:23:44.90	187.02	9.97	-25.3	-26.1	14.4	1.10e-06	0	43	102	1048576	11	3984
2026-01-05 15:23:45.91	187.08	10.06	-25.4	-26.4	14.3	1.10e-06	0	43	102	1048576	11	4048
2026-01-05 15:23:46.92	187.14	10.14	-25.2	-26.0	14.5	0.00e+00	0	43	102	1048576	11	3942
2026-01-05 15:23:47.93	187.20	10.23	-25.0	-25.5	14.7	0.00e+00	0	43	102	1048576	11	3821
2026-01-05 15:23:48.93	187.26	10.31	-25.1	-25.8	14.6	0.00e+00	0	43	102	1048576	11	3894
2026-01-05 15:23:49.94	187.32	10.39	-25.2	-26.1	14.4	0.00e+00	0	43	102	1048576	11	3968
2026-01-05 15:23:50.95	187.39	10.48	-25.1	-25.8	14.6	0.00e+00	0	43	102	1048576	11	3910
2026-01-05 15:23:51.96	187.45	10.56	-25.3	-26.2	14.4	1.10e-06	0	43	102	1048576	11	4000
2026-01-05 15:23:52.96	187.51	10.65	-25.2	-26.1	14.4	0.00e+00	0	43	102	1048576	11	3965
2026-01-05 15:23:53.97	187.57	10.73	-25.1	-26.3	14.6	0.00e+00	0	43	102	1048576	10	4120
2026-01-05 15:23:54.98	187.63	10.82	-25.1	-26.4	14.5	0.00e+00	0	43	102	1048576	10	4164
2026-01-05 15:23:55.99	187.70	10.90	-25.1	-26.3	14.6	0.00e+00	0	43	102	1048576	10	4132
2026-01-05 15:23:56.99	187.76	10.99	-25.2	-26.6	14.5	0.00e+00	0	43	102	1048576	10	4206
2026-01-05 15:23:58.00	187.82	11.08	-25.2	-26.6	14.5	0.00e+00	0	43	102	1048576	10	4211
2026-01-05 15:23:59.01	187.89	11.16	-25.1	-26.2	14.7	0.00e+00	0	43	102	1048576	10	4119
2026-01-05 15:24:00.01	187.95	11.25	-25.1	-26.3	14.6	0.00e+00	0	43	102	1048576	10	4146
2026-01-05 15:24:01.03	188.02	11.34	-25.2	-26.6	14.5	0.00e+00	0	43	102	1048576	10	4214
2026-01-05 15:24:02.03	188.08	11.42	-25.0	-26.2	14.7	0.00e+00	0	43	102	1048576	10	4114
2026-01-05 15:24:03.04	188.15	11.51	-25.0	-26.2	14.7	0.00e+00	0	43	102	1048576	10	4112
2026-01-05 15:24:04.05	188.21	11.60	-24.8	-25.8	14.9	0.00e+00	0	43	102	1048576	10	4005
2026-01-05 15:24:05.05	188.28	11.69	-25.2	-26.6	14.5	0.00e+00	0	43	102	1048576	10	4226
2026-01-05 15:24:06.06	188.35	11.78	-25.4	-26.9	14.3	2.20e-06	0	43	102	1048576	10	4291
2026-01-05 15:24:07.07	188.41	11.87	-25.2	-26.6	14.5	0.00e+00	0	43	102	1048576	10	4209
2026-01-05 15:24:08.06	188.48	11.95	-24.8	-25.8	14.9	0.00e+00	0	43	102	1048576	10	4016
2026-01-05 15:24:09.07	188.55	12.04	-24.6	-25.2	15.3	0.00e+00	0	43	102	1048576	10	3855
2026-01-05 15:24:10.07	188.61	12.13	-24.8	-25.6	15.0	1.10e-06	0	43	102	1048576	10	3974
2026-01-05 15:24:11.08	188.68	12.22	-24.8	-25.7	15.0	1.02e-05	0	43	102	1048576	10	3987
2026-01-05 15:24:12.09	188.75	12.31	-24.9	-25.9	14.9	0.00e+00	0	43	102	1048576	10	4037
2026-01-05 15:24:13.10	188.82	12.41	-24.7	-25.4	15.1	0.00e+00	0	43	102	1048576	10	3930
2026-01-05 15:24:14.11	188.89	12.50	-24.7	-25.5	15.1	8.00e-06	0	43	102	1048576	10	3934
2026-01-05 15:24:15.11	188.96	12.59	-24.8	-25.8	14.9	0.00e+00	0	43	102	1048576	10	4011
2026-01-05 15:24:16.11	189.03	12.68	-24.7	-25.6	15.0	0.00e+00	0	43	102	1048576	10	3977
2026-01-05 15:24:17.12	189.10	12.77	-24.7	-25.5	15.0	9.10e-06	0	43	102	1048576	10	3954
2026-01-05 15:24:18.13	189.17	12.86	-24.7	-25.5	15.0	0.00e+00	0	43	102	1048576	10	3955
2026-01-05 15:24:19.14	189.25	12.96	-24.8	-25.7	15.0	0.00e+00	0	43	102	1048576	10	4009
2026-01-05 15:24:20.14	189.32	13.05	-24.8	-25.7	15.0	1.14e-05	0	43	102	1048576	10	4008
2026-01-05 15:24:21.14	189.39	13.14	-25.0	-26.1	14.8	0.00e+00	0	43	102	1048576	10	4098
2026-01-05 15:24:22.15	189.46	13.23	-24.7	-25.6	15.0	0.00e+00	0	43	102	1048576	10	3987
2026-01-05 15:24:23.16	189.54	13.33	-24.6	-25.3	15.2	0.00e+00	0	43	102	1048576	10	3898
2026-01-05 15:24:24.17	189.61	13.42	-24.7	-25.4	15.1	0.00e+00	0	43	102	1048576	10	3937
2026-01-05 15:24:25.17	189.69	13.52	-24.6	-25.9	15.2	0.00e+00	0	43	102	1048576	9	4160
2026-01-05 15:24:26.18	189.76	13.61	-24.7	-25.9	15.1	1.10e-06	0	43	102	1048576	9	4168
2026-01-05 15:24:27.19	189.84	13.71	-24.8	-26.3	14.9	0.00e+00	0	43	102	1048576	9	4268
2026-01-05 15:24:28.19	189.91	13.80	-24.6	-25.8	15.2	0.00e+00	0	43	102	1048576	9	4146
2026-01-05 15:24:29.20	189.99	13.90	-24.5	-25.6	15.4	0.00e+00	0	44	102	1048576	9	4084
2026-01-05 15:24:30.20	190.06	13.99	-24.4	-25.4	15.5	0.00e+00	0	43	102	1048576	9	4026
2026-01-05 15:24:31.21	190.14	14.09	-24.4	-25.4	15.4	0.00e+00	0	43	102	1048576	9	4042
2026-01-05 15:24:32.21	190.22	14.19	-24.3	-25.2	15.6	0.00e+00	0	44	102	1048576	9	3985
2026-01-05 15:24:33.22	190.30	14.28	-24.3	-25.3	15.5	0.00e+00	0	43	102	1048576	9	4001
2026-01-05 15:24:34.23	190.38	14.38	-24.3	-25.2	15.6	0.00e+00	0	43	102	1048576	9	3985
2026-01-05 15:24:35.24	190.45	14.48	-24.7	-26.2	15.0	0.00e+00	0	43	102	1048576	9	4248
2026-01-05 15:24:36.24	190.53	14.58	-24.3	-25.2	15.6	0.00e+00	0	43	102	1048576	9	3993
2026-01-05 15:24:37.25	190.61	14.67	-24.2	-25.0	15.7	0.00e+00	0	44	102	1048576	9	3928
2026-01-05 15:24:38.26	190.70	14.77	-24.2	-25.0	15.7	0.00e+00	0	44	102	1048576	9	3925
2026-01-05 15:24:39.26	190.78	14.87	-24.3	-25.3	15.6	0.00e+00	0	44	102	1048576	9	4014
2026-01-05 15:24:40.27	190.86	14.97	-24.4	-25.4	15.5	0.00e+00	0	44	102	1048576	9	4044
2026-01-05 15:24:41.28	190.94	15.07	-24.6	-25.8	15.3	0.00e+00	0	44	102	1048576	9	4133
2026-01-05 15:24:42.29	191.02	15.17	-24.3	-25.2	15.6	0.00e+00	0	44	102	1048576	9	3978
2026-01-05 15:24:43.30	191.11	15.27	-24.3	-25.2	15.6	0.00e+00	0	44	102	1048576	9	3988
2026-01-05 15:24:44.30	191.19	15.37	-24.3	-25.2	15.6	0.00e+00	0	44	102	1048576	9	3981
2026-01-05 15:24:45.31	191.27	15.48	-24.4	-25.4	15.5	0.00e+00	0	44	102	1048576	9	4020
2026-01-05 15:24:46.32	191.36	15.58	-24.3	-25.2	15.6	0.00e+00	0	44	102	1048576	9	3974
2026-01-05 15:24:47.33	191.45	15.68	-24.3	-25.2	15.7	0.00e+00	0	44	102	1048576	9	3974
2026-01-05 15:24:48.34	191.53	15.78	-24.3	-25.2	15.6	0.00e+00	0	44	102	1048576	9	3995
2026-01-05 15:24:49.35	191.62	15.89	-24.5	-25.6	15.4	0.00e+00	0	44	102	1048576	9	4073
2026-01-05 15:24:50.35	191.71	15.99	-24.1	-24.8	15.8	0.00e+00	0	43	102	1048576	9	3887
2026-01-05 15:24:51.36	191.79	16.09	-23.9	-24.9	16.1	0.00e+00	0	44	102	1048576	8	4006
2026-01-05 15:24:52.37	191.88	16.20	-23.9	-24.7	16.1	0.00e+00	0	44	102	1048576	8	3971
2026-01-05 15:24:53.38	191.97	16.30	-23.8	-24.6	16.2	0.00e+00	0	44	102	1048576	8	3935
2026-01-05 15:24:54.39	192.06	16.41	-23.8	-24.5	16.3	0.00e+00	0	44	102	1048576	8	3920
2026-01-05 15:24:55.39	192.15	16.51	-23.8	-24.7	16.2	0.00e+00	0	44	102	1048576	8	3954
2026-01-05 15:24:56.40	192.24	16.62	-23.7	-24.8	16.4	0.00e+00	0	44	102	1048576	7	4104
2026-01-05 15:24:57.40	192.33	16.72	-23.7	-24.8	16.4	0.00e+00	0	43	102	1048576	7	4099
2026-01-05 15:24:58.41	192.42	16.83	-23.6	-24.7	16.4	0.00e+00	0	44	102	1048576	7	4069
2026-01-05 15:24:59.42	192.52	16.94	-23.6	-24.7	16.4	0.00e+00	0	44	102	1048576	7	4067
2026-01-05 15:25:00.43	192.61	17.04	-23.7	-24.7	16.4	0.00e+00	0	44	102	1048576	7	4078
2026-01-05 15:25:01.43	192.70	17.15	-23.5	-24.5	16.5	0.00e+00	0	44	102	1048576	7	4020
2026-01-05 15:25:02.44	192.80	17.26	-23.5	-24.4	16.6	0.00e+00	0	44	102	1048576	7	3993
2026-01-05 15:25:03.45	192.89	17.37	-23.5	-24.4	16.6	0.00e+00	0	44	102	1048576	7	3989
2026-01-05 15:25:04.45	192.99	17.47	-23.5	-24.4	16.6	2.20e-06	0	44	102	1048576	7	3985
2026-01-05 15:25:05.46	193.09	17.58	-23.4	-24.2	16.7	0.00e+00	0	44	102	1048576	7	3951
2026-01-05 15:25:06.47	193.18	17.69	-23.6	-24.6	16.5	0.00e+00	0	44	102	1048576	7	4037
2026-01-05 15:25:07.47	193.28	17.80	-23.5	-24.4	16.6	2.20e-06	0	44	102	1048576	7	3991
2026-01-05 15:25:08.48	193.38	17.91	-23.4	-24.1	16.8	0.00e+00	0	44	102	1048576	7	3914
2026-01-05 15:25:09.48	193.48	18.02	-23.4	-24.1	16.8	0.00e+00	0	44	102	1048576	7	3912
2026-01-05 15:25:10.49	193.58	18.13	-23.4	-24.1	16.8	0.00e+00	0	44	102	1048576	7	3899
2026-01-05 15:25:11.50	193.68	18.25	-23.3	-23.9	16.9	0.00e+00	0	44	102	1048576	7	3855
2026-01-05 15:25:12.50	193.78	18.36	-23.3	-24.0	16.8	0.00e+00	0	44	102	1048576	7	3881
2026-01-05 15:25:13.51	193.88	18.47	-23.3	-23.9	16.8	0.00e+00	0	44	102	1048576	7	3866
2026-01-05 15:25:14.52	193.98	18.58	-23.3	-23.8	16.9	0.00e+00	0	44	102	1048576	7	3850
2026-01-05 15:25:15.52	194.09	18.70	-23.2	-23.6	17.0	0.00e+00	0	44	102	1048576	7	3799
2026-01-05 15:25:16.53	194.19	18.81	-23.1	-23.6	17.0	0.00e+00	0	44	102	1048576	7	3798
2026-01-05 15:25:17.54	194.30	18.93	-23.2	-23.7	17.0	0.00e+00	0	44	102	1048576	7	3812
2026-01-05 15:25:18.55	194.40	19.04	-23.2	-23.8	16.9	0.00e+00	0	44	102	1048576	7	3848
2026-01-05 15:25:19.55	194.51	19.15	-23.1	-23.5	17.1	0.00e+00	0	44	102	1048576	7	3766
2026-01-05 15:25:20.56	194.62	19.27	-23.1	-23.5	17.1	0.00e+00	0	44	102	1048576	7	3775
2026-01-05 15:25:21.56	194.72	19.39	-23.1	-23.6	17.0	0.00e+00	0	44	102	1048576	7	3793
2026-01-05 15:25:22.56	194.83	19.50	-23.5	-24.4	16.6	0.00e+00	0	44	102	1048576	7	4003
2026-01-05 15:25:23.57	194.94	19.62	-23.1	-23.5	17.1	0.00e+00	0	44	102	1048576	7	3786
2026-01-05 15:25:24.57	195.05	19.73	-23.1	-23.6	17.0	0.00e+00	0	44	102	1048576	7	3811
2026-01-05 15:25:25.58	195.16	19.85	-23.1	-23.6	17.0	0.00e+00	0	44	102	1048576	7	3822
2026-01-05 15:25:26.59	195.28	19.97	-23.1	-23.5	17.0	0.00e+00	0	44	102	1048576	7	3799
2026-01-05 15:25:27.60	195.39	20.09	-23.1	-23.7	17.0	0.00e+00	0	44	102	1048576	7	3843
2026-01-05 15:25:28.60	195.50	20.21	-23.2	-24.4	16.8	0.00e+00	0	44	102	1048576	6	4127
2026-01-05 15:25:29.61	195.62	20.33	-23.3	-24.6	16.7	0.00e+00	0	44	102	1048576	6	4172
2026-01-05 15:25:30.62	195.73	20.45	-23.3	-24.5	16.7	0.00e+00	0	44	102	1048576	6	4156
2026-01-05 15:25:31.62	195.85	20.57	-23.3	-24.7	16.7	0.00e+00	0	44	102	1048576	6	4196
2026-01-05 15:25:32.63	195.97	20.69	-23.3	-24.6	16.7	0.00e+00	0	44	102	1048576	6	4188
2026-01-05 15:25:33.63	196.08	20.81	-23.3	-24.1	16.7	0.00e+00	0	44	102	1048576	7	3935
2026-01-05 15:25:34.64	196.20	20.93	-23.3	-24.1	16.7	0.00e+00	0	44	102	1048576	7	3951
2026-01-05 15:25:35.63	196.32	21.05	-23.2	-23.9	16.8	0.00e+00	0	44	102	1048576	7	3890
2026-01-05 15:25:36.64	196.44	21.18	-23.3	-24.0	16.8	0.00e+00	0	44	102	1048576	7	3905
2026-01-05 15:25:37.64	196.56	21.30	-23.2	-23.9	16.9	0.00e+00	0	44	102	1048576	7	3878
2026-01-05 15:25:38.65	196.69	21.42	-23.1	-24.1	17.0	0.00e+00	0	44	102	1048576	6	4048
2026-01-05 15:25:39.65	196.81	21.55	-23.1	-24.2	17.0	0.00e+00	0	44	102	1048576	6	4061
2026-01-05 15:25:40.66	196.94	21.67	-23.1	-24.1	17.0	0.00e+00	0	44	102	1048576	6	4039
2026-01-05 15:25:41.66	197.06	21.80	-23.2	-24.3	16.9	0.00e+00	0	44	102	1048576	6	4092
2026-01-05 15:25:42.67	197.19	21.92	-23.0	-24.0	17.1	0.00e+00	0	44	102	1048576	6	4026
2026-01-05 15:25:43.67	197.31	22.05	-23.0	-24.6	16.9	0.00e+00	0	44	102	1048576	5	4304
2026-01-05 15:25:44.68	197.44	22.17	-22.7	-23.9	17.4	0.00e+00	0	44	102	1048576	5	4103
2026-01-05 15:25:45.69	197.57	22.30	-22.8	-24.0	17.3	0.00e+00	0	44	102	1048576	5	4141
2026-01-05 15:25:46.69	197.70	22.43	-22.7	-23.8	17.4	0.00e+00	0	44	102	1048576	5	4089
2026-01-05 15:25:47.70	197.83	22.56	-22.6	-23.7	17.5	0.00e+00	0	44	102	1048576	5	4052
2026-01-05 15:25:48.71	197.97	22.69	-22.5	-23.4	17.6	0.00e+00	0	44	102	1048576	5	3979
2026-01-05 15:25:49.71	198.10	22.81	-22.7	-23.8	17.4	0.00e+00	0	44	102	1048576	5	4098
2026-01-05 15:25:50.72	198.24	22.94	-22.8	-24.0	17.3	0.00e+00	0	44	102	1048576	5	4140
2026-01-05 15:25:51.73	198.37	23.08	-22.8	-24.0	17.3	0.00e+00	0	44	102	1048576	5	4143
2026-01-05 15:25:52.73	198.51	23.21	-22.7	-23.8	17.4	0.00e+00	0	44	102	1048576	5	4083
2026-01-05 15:25:53.74	198.65	23.34	-22.8	-23.9	17.4	0.00e+00	0	44	102	1048576	5	4098
2026-01-05 15:25:54.75	198.79	23.47	-22.8	-23.5	17.3	0.00e+00	0	44	102	1048576	6	3903
2026-01-05 15:25:55.76	198.93	23.60	-22.8	-23.5	17.4	0.00e+00	0	44	102	1048576	6	3899
2026-01-05 15:25:56.77	199.07	23.73	-22.8	-23.4	17.4	0.00e+00	0	44	102	1048576	6	3870
2026-01-05 15:25:57.78	199.21	23.87	-22.7	-23.3	17.5	1.10e-06	0	44	102	1048576	6	3855
2026-01-05 15:25:58.79	199.36	24.00	-22.8	-23.4	17.5	0.00e+00	0	44	102	1048576	6	3870
2026-01-05 15:25:59.79	199.50	24.14	-22.6	-23.1	17.6	0.00e+00	0	44	102	1048576	6	3804
2026-01-05 15:26:00.80	199.65	24.27	-22.8	-23.5	17.4	6.80e-06	0	44	102	1048576	6	3892
2026-01-05 15:26:01.81	199.80	24.41	-22.8	-23.4	17.4	0.00e+00	0	44	102	1048576	6	3861
2026-01-05 15:26:02.81	199.95	24.54	-22.8	-23.4	17.4	0.00e+00	0	44	102	1048576	6	3881
2026-01-05 15:26:03.82	200.10	24.68	-22.8	-23.4	17.4	5.70e-06	0	44	102	1048576	6	3869
2026-01-05 15:26:04.83	200.25	24.81	-22.6	-23.5	17.6	0.00e+00	0	44	102	1048576	5	4011
2026-01-05 15:26:05.84	200.40	24.95	-22.7	-23.7	17.5	0.00e+00	0	44	102	1048576	5	4037
2026-01-05 15:26:06.84	200.56	25.09	-22.6	-23.4	17.6	0.00e+00	0	44	102	1048576	5	3984
2026-01-05 15:26:07.85	200.71	25.23	-22.4	-23.2	17.8	0.00e+00	0	44	102	1048576	5	3924
2026-01-05 15:26:08.86	200.87	25.37	-22.5	-23.4	17.7	0.00e+00	0	44	102	1048576	5	3963
2026-01-05 15:26:09.87	201.03	25.51	-22.5	-23.4	17.6	0.00e+00	0	44	102	1048576	5	3980
2026-01-05 15:26:10.87	201.19	25.64	-22.4	-23.0	17.8	0.00e+00	0	44	102	1048576	5	3891
2026-01-05 15:26:11.88	201.35	25.79	-22.4	-23.0	17.8	0.00e+00	0	44	102	1048576	5	3892
2026-01-05 15:26:12.89	201.51	25.93	-22.4	-23.1	17.8	0.00e+00	0	44	102	1048576	5	3894
2026-01-05 15:26:13.89	201.67	26.07	-22.4	-23.1	17.8	0.00e+00	0	44	102	1048576	5	3912
2026-01-05 15:26:14.90	201.84	26.21	-22.2	-22.7	18.0	0.00e+00	0	44	102	1048576	5	3792
2026-01-05 15:26:15.91	202.00	26.35	-22.4	-23.1	17.8	0.00e+00	0	44	102	1048576	5	3913
2026-01-05 15:26:16.91	202.17	26.49	-22.4	-23.0	17.8	0.00e+00	0	44	102	1048576	5	3887
2026-01-05 15:26:17.92	202.34	26.64	-22.3	-22.9	17.9	0.00e+00	0	44	102	1048576	5	3845
2026-01-05 15:26:18.93	202.51	26.78	-22.4	-23.0	17.9	0.00e+00	0	44	102	1048576	5	3882
2026-01-05 15:26:19.94	202.69	26.93	-22.5	-23.4	17.7	0.00e+00	0	44	102	1048576	5	3964
2026-01-05 15:26:20.94	202.86	27.07	-22.3	-22.9	17.9	0.00e+00	0	44	102	1048576	5	3859
2026-01-05 15:26:21.95	203.03	27.22	-22.1	-22.5	18.2	0.00e+00	0	44	102	1048576	5	3753
2026-01-05 15:26:22.96	203.21	27.36	-22.1	-22.5	18.2	0.00e+00	0	44	102	1048576	5	3757
2026-01-05 15:26:23.97	203.39	27.51	-22.0	-22.3	18.3	0.00e+00	0	44	102	1048576	5	3708
2026-01-05 15:26:24.98	203.57	27.66	-22.2	-22.6	18.2	0.00e+00	0	44	102	1048576	5	3772
2026-01-05 15:26:25.99	203.75	27.80	-22.2	-22.6	18.2	0.00e+00	0	44	102	1048576	5	3768
2026-01-05 15:26:27.00	203.94	27.95	-22.2	-22.6	18.2	0.00e+00	0	44	102	1048576	5	3767
2026-01-05 15:26:28.00	204.12	28.10	-22.4	-23.1	18.0	0.00e+00	0	44	102	1048576	5	3892
2026-01-05 15:26:29.01	204.31	28.25	-22.2	-22.6	18.2	0.00e+00	0	44	102	1048576	5	3772
2026-01-05 15:26:30.02	204.50	28.40	-22.0	-22.3	18.4	0.00e+00	0	44	102	1048576	5	3696
2026-01-05 15:26:31.02	204.69	28.55	-22.2	-22.6	18.2	0.00e+00	0	44	102	1048576	5	3776
2026-01-05 15:26:32.03	204.88	28.70	-22.1	-22.4	18.4	0.00e+00	0	44	102	1048576	5	3722
2026-01-05 15:26:33.04	205.07	28.85	-22.2	-22.7	18.2	0.00e+00	0	44	102	1048576	5	3788
2026-01-05 15:26:34.04	205.27	29.00	-22.1	-22.4	18.3	0.00e+00	0	44	102	1048576	5	3728
2026-01-05 15:26:35.05	205.47	29.15	-22.1	-22.4	18.3	0.00e+00	0	44	102	1048576	5	3742
2026-01-05 15:26:36.05	205.66	29.30	-22.2	-22.6	18.2	0.00e+00	0	44	102	1048576	5	3772
2026-01-05 15:26:37.07	205.87	29.45	-22.3	-22.9	18.1	0.00e+00	0	44	102	1048576	5	3835
2026-01-05 15:26:38.07	206.07	29.61	-22.2	-22.6	18.2	0.00e+00	0	44	102	1048576	5	3780
2026-01-05 15:26:39.08	206.28	29.76	-22.2	-22.6	18.2	0.00e+00	0	44	102	1048576	5	3773
2026-01-05 15:26:40.08	206.48	29.91	-22.2	-22.7	18.1	0.00e+00	0	44	102	1048576	5	3800
2026-01-05 15:26:41.08	206.69	30.07	-22.1	-22.5	18.3	0.00e+00	0	44	102	1048576	5	3757
2026-01-05 15:26:42.09	206.90	30.22	-22.3	-22.8	18.1	0.00e+00	0	44	102	1048576	5	3844
2026-01-05 15:26:43.09	207.11	30.37	-22.2	-22.7	18.1	0.00e+00	0	44	102	1048576	5	3819
2026-01-05 15:26:44.09	207.32	30.53	-22.2	-22.7	18.1	0.00e+00	0	44	102	1048576	5	3833
2026-01-05 15:26:45.10	207.54	30.68	-22.2	-22.7	18.1	0.00e+00	0	44	102	1048576	5	3827
2026-01-05 15:26:46.10	207.76	30.84	-22.3	-22.9	18.0	0.00e+00	0	44	102	1048576	5	3873
2026-01-05 15:26:47.11	207.98	31.00	-22.2	-22.8	18.0	0.00e+00	0	44	102	1048576	5	3862
2026-01-05 15:26:48.12	208.20	31.15	-22.2	-22.9	17.9	0.00e+00	0	44	102	1048576	5	3873
2026-01-05 15:26:49.13	208.43	31.31	-22.3	-22.9	18.0	0.00e+00	0	44	102	1048576	5	3875
2026-01-05 15:26:50.14	208.66	31.47	-22.0	-22.4	18.2	0.00e+00	0	44	102	1048576	5	3745
2026-01-05 15:26:51.14	208.88	31.63	-22.0	-22.3	18.2	0.00e+00	0	44	102	1048576	5	3729
2026-01-05 15:26:52.14	209.11	31.78	-22.1	-22.6	18.1	0.00e+00	0	44	102	1048576	5	3791
2026-01-05 15:26:53.15	209.35	31.94	-22.2	-22.6	18.1	0.00e+00	0	44	102	1048576	5	3793
2026-01-05 15:26:54.15	209.58	32.10	-22.0	-22.2	18.4	0.00e+00	0	44	102	1048576	5	3694
2026-01-05 15:26:55.15	209.82	32.26	-22.0	-22.3	18.3	0.00e+00	0	44	102	1048576	5	3718
2026-01-05 15:26:56.16	210.06	32.42	-22.1	-22.4	18.3	0.00e+00	0	44	102	1048576	5	3732
2026-01-05 15:26:57.17	210.30	32.58	-22.2	-22.6	18.2	0.00e+00	0	44	102	1048576	5	3774
2026-01-05 15:26:58.18	210.55	32.74	-22.1	-22.5	18.3	0.00e+00	0	44	102	1048576	5	3745
2026-01-05 15:26:59.18	210.80	32.90	-22.3	-22.7	18.2	0.00e+00	0	44	102	1048576	5	3810
2026-01-05 15:27:00.18	211.04	33.06	-22.1	-22.4	18.3	0.00e+00	0	44	102	1048576	5	3724
2026-01-05 15:27:01.19	211.30	33.22	-22.1	-22.3	18.4	0.00e+00	0	44	102	1048576	5	3716
2026-01-05 15:27:02.20	211.55	33.38	-22.0	-22.1	18.5	0.00e+00	0	44	102	1048576	5	3662
2026-01-05 15:27:03.21	211.81	33.55	-22.5	-22.6	18.9	0.00e+00	0	44	102	1048576	5	3668
2026-01-05 15:27:04.21	212.07	33.71	-22.4	-22.6	19.0	0.00e+00	0	44	102	1048576	5	3648
2026-01-05 15:27:05.21	212.33	33.87	-22.4	-22.5	19.0	0.00e+00	0	44	102	1048576	5	3634
2026-01-05 15:27:06.22	212.60	34.03	-22.4	-22.5	19.0	0.00e+00	0	44	102	1048576	5	3639
2026-01-05 15:27:07.23	212.86	34.19	-22.8	-23.2	18.7	0.00e+00	0	44	102	1048576	5	3798
2026-01-05 15:27:08.23	213.13	34.35	-22.8	-23.3	18.6	0.00e+00	0	44	102	1048576	5	3811
2026-01-05 15:27:09.24	213.41	34.52	-22.8	-23.3	18.6	0.00e+00	0	44	102	1048576	5	3804
2026-01-05 15:27:10.25	213.68	34.68	-22.9	-23.5	18.5	0.00e+00	0	44	102	1048576	5	3871
2026-01-05 15:27:11.26	213.96	34.84	-22.7	-23.1	18.7	0.00e+00	0	44	102	1048576	5	3773
2026-01-05 15:27:12.27	214.24	35.01	-23.1	-23.4	18.3	0.00e+00	0	44	102	1048576	6	3733
2026-01-05 15:27:13.27	214.53	35.17	-23.0	-23.3	18.4	0.00e+00	0	44	102	1048576	6	3703
2026-01-05 15:27:14.28	214.81	35.33	-23.2	-23.7	18.2	0.00e+00	0	44	102	1048576	6	3796
2026-01-05 15:27:15.29	215.10	35.50	-23.3	-23.8	18.1	0.00e+00	0	44	102	1048576	6	3819
2026-01-05 15:27:16.30	215.40	35.66	-23.0	-23.2	18.4	0.00e+00	0	44	102	1048576	6	3695
2026-01-05 15:27:17.30	215.69	35.82	-22.8	-22.8	18.7	0.00e+00	0	44	102	1048576	6	3590
2026-01-05 15:27:18.31	215.99	35.99	-22.8	-22.8	18.7	0.00e+00	0	44	102	1048576	6	3589
2026-01-05 15:27:19.32	216.29	36.15	-22.9	-23.0	18.6	0.00e+00	0	44	102	1048576	6	3642
2026-01-05 15:27:20.32	216.59	36.31	-22.8	-22.8	18.7	0.00e+00	0	44	102	1048576	6	3587
2026-01-05 15:27:21.33	216.90	36.48	-22.8	-22.7	18.7	0.00e+00	0	44	102	1048576	6	3575
2026-01-05 15:27:22.34	217.21	36.64	-22.9	-22.9	18.6	0.00e+00	0	44	102	1048576	6	3629
2026-01-05 15:27:23.35	217.53	36.80	-22.8	-22.8	18.7	0.00e+00	0	44	102	1048576	6	3593
2026-01-05 15:27:24.35	217.84	36.97	-22.9	-23.1	18.5	0.00e+00	0	44	102	1048576	6	3659
2026-01-05 15:27:25.36	218.16	37.13	-23.0	-23.3	18.4	0.00e+00	0	44	102	1048576	6	3702
2026-01-05 15:27:26.37	218.48	37.29	-22.9	-23.1	18.6	0.00e+00	0	44	102	1048576	6	3659
2026-01-05 15:27:27.38	218.81	37.45	-23.1	-23.6	18.3	0.00e+00	0	44	102	1048576	6	3770
2026-01-05 15:27:28.38	219.14	37.61	-23.2	-23.7	18.2	0.00e+00	0	44	102	1048576	6	3798
2026-01-05 15:27:29.38	219.47	37.78	-23.1	-23.5	18.3	0.00e+00	0	44	102	1048576	6	3747
2026-01-05 15:27:30.39	219.80	37.94	-23.0	-23.2	18.5	0.00e+00	0	44	102	1048576	6	3681
2026-01-05 15:27:31.39	220.14	38.10	-23.1	-23.3	18.4	0.00e+00	0	44	102	1048576	6	3720
2026-01-05 15:27:32.40	220.48	38.26	-23.0	-23.2	18.5	0.00e+00	0	44	102	1048576	6	3699
2026-01-05 15:27:33.41	220.83	38.42	-23.1	-23.5	18.3	0.00e+00	0	44	102	1048576	6	3752
2026-01-05 15:27:34.41	221.18	38.58	-23.0	-23.1	18.5	0.00e+00	0	44	102	1048576	6	3674
2026-01-05 15:27:35.42	221.53	38.74	-23.0	-23.2	18.5	0.00e+00	0	44	102	1048576	6	3683
2026-01-05 15:27:36.42	221.88	38.90	-23.1	-23.3	18.4	0.00e+00	0	44	102	1048576	6	3711
2026-01-05 15:27:37.43	222.24	39.06	-23.0	-23.3	18.4	0.00e+00	0	44	102	1048576	6	3706
2026-01-05 15:27:38.44	222.60	39.21	-23.1	-23.3	18.4	0.00e+00	0	44	102	1048576	6	3711
2026-01-05 15:27:39.45	222.97	39.37	-23.0	-23.3	18.4	0.00e+00	0	44	102	1048576	6	3708
2026-01-05 15:27:40.46	223.34	39.53	-23.2	-23.5	18.3	0.00e+00	0	44	102	1048576	6	3766
2026-01-05 15:27:41.46	223.71	39.68	-23.1	-23.4	18.4	0.00e+00	0	44	102	1048576	6	3723
2026-01-05 15:27:42.47	224.09	39.84	-23.0	-23.2	18.5	0.00e+00	0	44	102	1048576	6	3698
2026-01-05 15:27:43.47	224.47	39.99	-23.1	-23.3	18.4	0.00e+00	0	44	102	1048576	6	3721
2026-01-05 15:27:44.48	224.85	40.15	-23.1	-23.3	18.4	0.00e+00	0	44	102	1048576	6	3710
2026-01-05 15:27:45.49	225.24	40.30	-23.1	-23.4	18.4	0.00e+00	0	44	102	1048576	6	3741
2026-01-05 15:27:46.49	225.63	40.46	-23.0	-23.3	18.5	0.00e+00	0	44	102	1048576	6	3702
2026-01-05 15:27:47.50	226.02	40.61	-22.9	-23.1	18.6	2.20e-06	0	44	102	1048576	6	3657
2026-01-05 15:27:48.51	226.42	40.76	-22.9	-23.0	18.6	0.00e+00	0	44	102	1048576	6	3634
2026-01-05 15:27:49.52	226.83	40.91	-23.1	-23.3	18.4	0.00e+00	0	44	102	1048576	6	3711
2026-01-05 15:27:50.53	227.23	41.06	-23.0	-23.2	18.5	0.00e+00	0	44	102	1048576	6	3691
2026-01-05 15:27:51.53	227.64	41.21	-22.9	-23.0	18.6	0.00e+00	0	44	102	1048576	6	3644
2026-01-05 15:27:52.54	228.05	41.35	-23.0	-23.3	18.5	0.00e+00	0	44	102	1048576	6	3705
2026-01-05 15:27:53.54	228.47	41.50	-23.2	-23.5	18.3	0.00e+00	0	44	102	1048576	6	3763
2026-01-05 15:27:54.56	228.89	41.65	-23.4	-24.0	18.2	0.00e+00	0	44	102	1048576	6	3861
2026-01-05 15:27:55.56	229.31	41.79	-23.3	-23.8	18.3	0.00e+00	0	44	102	1048576	6	3822
2026-01-05 15:27:56.57	229.74	41.93	-23.2	-23.6	18.3	0.00e+00	0	44	102	1048576	6	3783
2026-01-05 15:27:57.58	230.17	42.07	-23.1	-23.4	18.4	0.00e+00	0	44	102	1048576	6	3727
2026-01-05 15:27:58.59	230.61	42.22	-22.8	-22.8	18.7	0.00e+00	0	44	102	1048576	6	3604
2026-01-05 15:27:59.59	231.05	42.35	-22.7	-22.5	18.9	0.00e+00	0	44	102	1048576	6	3531
2026-01-05 15:28:00.59	231.49	42.49	-22.8	-22.7	18.8	0.00e+00	0	44	102	1048576	6	3584
2026-01-05 15:28:01.60	231.93	42.63	-22.9	-23.1	18.6	0.00e+00	0	44	102	1048576	6	3658
2026-01-05 15:28:02.61	232.39	42.76	-23.1	-23.5	18.4	0.00e+00	0	44	102	1048576	6	3759
2026-01-05 15:28:03.62	232.84	42.90	-23.2	-23.6	18.3	0.00e+00	0	44	102	1048576	6	3778
2026-01-05 15:28:04.62	233.30	43.03	-23.4	-24.0	18.1	0.00e+00	0	44	102	1048576	6	3867
2026-01-05 15:28:05.62	233.75	43.16	-23.2	-23.6	18.4	0.00e+00	0	44	102	1048576	6	3780
2026-01-05 15:28:06.63	234.22	43.29	-23.0	-23.3	18.5	0.00e+00	0	44	102	1048576	6	3705
2026-01-05 15:28:07.63	234.68	43.41	-23.3	-23.8	18.2	0.00e+00	0	44	102	1048576	6	3832
2026-01-05 15:28:08.64	235.16	43.54	-23.2	-23.6	18.3	0.00e+00	0	44	102	1048576	6	3782
2026-01-05 15:28:09.64	235.63	43.66	-23.1	-23.3	18.5	0.00e+00	0	44	102	1048576	6	3716
2026-01-05 15:28:10.64	236.11	43.78	-22.9	-23.0	18.6	0.00e+00	0	44	102	1048576	6	3623
2026-01-05 15:28:11.65	236.59	43.90	-23.1	-23.4	18.5	0.00e+00	0	44	102	1048576	6	3723
2026-01-05 15:28:12.65	237.07	44.02	-23.0	-23.2	18.6	0.00e+00	0	44	102	1048576	6	3675
2026-01-05 15:28:13.66	237.57	44.14	-23.1	-23.3	18.5	0.00e+00	0	44	102	1048576	6	3701
2026-01-05 15:28:14.67	238.06	44.25	-23.1	-23.3	18.5	0.00e+00	0	44	102	1048576	6	3704
2026-01-05 15:28:15.68	238.56	44.36	-23.3	-23.8	18.3	0.00e+00	0	44	102	1048576	6	3826
2026-01-05 15:28:16.68	239.06	44.47	-23.1	-23.4	18.5	0.00e+00	0	44	102	1048576	6	3722
2026-01-05 15:28:17.69	239.56	44.58	-23.2	-23.7	18.3	0.00e+00	0	44	102	1048576	6	3798
2026-01-05 15:28:18.70	240.07	44.69	-23.2	-23.6	18.4	0.00e+00	0	44	102	1048576	6	3769
2026-01-05 15:28:19.71	240.58	44.79	-23.3	-23.8	18.3	0.00e+00	0	44	102	1048576	6	3817
2026-01-05 15:28:20.71	241.09	44.89	-23.2	-23.6	18.3	0.00e+00	0	44	102	1048576	6	3778
2026-01-05 15:28:21.72	241.61	44.99	-22.9	-23.0	18.6	0.00e+00	0	44	102	1048576	6	3648
2026-01-05 15:28:22.73	242.13	45.09	-22.9	-22.9	18.7	0.00e+00	0	44	102	1048576	6	3626
2026-01-05 15:28:23.73	242.65	45.18	-23.1	-23.4	18.5	0.00e+00	0	44	102	1048576	6	3730
2026-01-05 15:28:24.74	243.18	45.28	-23.5	-24.2	18.1	0.00e+00	0	44	102	1048576	6	3917
2026-01-05 15:28:25.75	243.71	45.37	-23.9	-24.7	17.6	0.00e+00	0	44	102	1048576	7	3919
2026-01-05 15:28:26.75	244.24	45.45	-24.3	-25.0	17.2	0.00e+00	0	44	102	1048576	8	3906
2026-01-05 15:28:27.76	244.78	45.54	-23.9	-24.1	17.6	0.00e+00	0	44	102	1048576	8	3679
2026-01-05 15:28:28.76	245.31	45.62	-23.9	-24.2	17.6	0.00e+00	0	44	102	1048576	8	3697
2026-01-05 15:28:29.77	245.86	45.70	-24.1	-24.6	17.4	0.00e+00	0	44	102	1048576	8	3804
2026-01-05 15:28:30.79	246.41	45.78	-24.1	-24.4	17.5	0.00e+00	0	44	102	1048576	8	3759
2026-01-05 15:28:31.79	246.95	45.85	-24.1	-24.6	17.4	0.00e+00	0	44	102	1048576	8	3789
2026-01-05 15:28:32.80	247.50	45.93	-24.0	-24.3	17.6	0.00e+00	0	44	102	1048576	8	3721
2026-01-05 15:28:33.80	248.05	45.99	-24.0	-24.3	17.6	0.00e+00	0	44	102	1048576	8	3722
2026-01-05 15:28:34.81	248.60	46.06	-23.7	-23.7	17.9	0.00e+00	0	44	102	1048576	8	3586
2026-01-05 15:28:35.81	249.15	46.12	-23.5	-23.1	18.2	0.00e+00	0	44	102	1048576	8	3472
2026-01-05 15:28:36.82	249.71	46.19	-23.4	-23.5	18.2	0.00e+00	0	44	102	1048576	7	3654
2026-01-05 15:28:37.83	250.27	46.24	-23.4	-23.6	18.1	0.00e+00	0	44	102	1048576	7	3677
2026-01-05 15:28:38.84	250.84	46.30	-23.3	-23.3	18.3	0.00e+00	0	44	102	1048576	7	3603
2026-01-05 15:28:39.85	251.40	46.35	-23.3	-23.3	18.2	0.00e+00	0	44	102	1048576	7	3608
2026-01-05 15:28:40.85	251.96	46.40	-23.7	-24.2	17.8	0.00e+00	0	44	102	1048576	7	3815
2026-01-05 15:28:41.86	252.53	46.45	-23.6	-23.9	17.9	0.00e+00	0	44	102	1048576	7	3742
2026-01-05 15:28:42.87	253.10	46.49	-23.6	-24.0	18.0	0.00e+00	0	44	102	1048576	7	3753
2026-01-05 15:28:43.88	253.67	46.53	-23.7	-24.1	17.9	0.00e+00	0	44	102	1048576	7	3776
2026-01-05 15:28:44.89	254.25	46.57	-23.4	-23.6	18.2	0.00e+00	0	44	102	1048576	7	3667
2026-01-05 15:28:45.90	254.82	46.60	-23.3	-23.2	18.3	0.00e+00	0	44	102	1048576	7	3581
2026-01-05 15:28:46.90	255.39	46.63	-23.5	-23.8	18.1	5.70e-06	0	44	102	1048576	7	3709
2026-01-05 15:28:47.91	255.97	46.66	-23.2	-23.2	18.4	0.00e+00	0	44	102	1048576	7	3572
2026-01-05 15:28:48.92	256.55	46.69	-23.3	-23.2	18.2	0.00e+00	0	44	102	1048576	7	3590
2026-01-05 15:28:49.93	257.13	46.71	-23.4	-23.6	18.1	1.10e-06	0	44	102	1048576	7	3665
2026-01-05 15:28:50.94	257.71	46.73	-23.6	-23.9	18.0	0.00e+00	0	44	102	1048576	7	3740
2026-01-05 15:28:51.94	258.28	46.74	-23.8	-24.2	17.8	0.00e+00	0	44	102	1048576	7	3812
2026-01-05 15:28:52.94	258.85	46.76	-23.8	-24.4	17.8	1.10e-06	0	44	102	1048576	7	3849
2026-01-05 15:28:53.95	259.44	46.77	-23.6	-24.0	18.0	0.00e+00	0	44	102	1048576	7	3771
2026-01-05 15:28:54.95	260.01	46.77	-23.5	-23.7	18.1	0.00e+00	0	44	102	1048576	7	3682
2026-01-05 15:28:55.97	260.60	46.78	-23.4	-23.5	18.2	0.00e+00	0	44	102	1048576	7	3645
2026-01-05 15:28:56.97	261.17	46.78	-23.2	-23.2	18.4	0.00e+00	0	44	102	1048576	7	3578
2026-01-05 15:28:57.97	261.75	46.77	-23.3	-23.3	18.3	0.00e+00	0	44	102	1048576	7	3597
2026-01-05 15:28:58.98	262.33	46.77	-23.4	-23.6	18.2	0.00e+00	0	44	102	1048576	7	3660
2026-01-05 15:28:59.99	262.91	46.76	-23.5	-23.7	18.1	0.00e+00	0	44	102	1048576	7	3683
2026-01-05 15:29:01.00	263.49	46.75	-23.3	-23.3	18.2	0.00e+00	0	44	102	1048576	7	3610
2026-01-05 15:29:02.00	264.07	46.73	-23.3	-23.4	18.3	0.00e+00	0	44	102	1048576	7	3620
2026-01-05 15:29:03.00	264.64	46.71	-23.4	-23.4	18.2	0.00e+00	0	44	102	1048576	7	3627
2026-01-05 15:29:04.01	265.22	46.69	-23.6	-23.9	18.0	0.00e+00	0	44	102	1048576	7	3729
2026-01-05 15:29:05.02	265.80	46.67	-23.8	-24.4	17.8	0.00e+00	0	44	102	1048576	7	3845
2026-01-05 15:29:06.03	266.37	46.64	-23.9	-24.5	17.7	0.00e+00	0	44	102	1048576	7	3874
2026-01-05 15:29:07.03	266.94	46.61	-23.6	-24.0	18.0	0.00e+00	0	44	102	1048576	7	3761
2026-01-05 15:29:08.04	267.52	46.57	-23.3	-23.3	18.3	0.00e+00	0	44	102	1048576	7	3587
2026-01-05 15:29:09.05	268.09	46.54	-23.4	-23.5	18.2	0.00e+00	0	44	102	1048576	7	3638
2026-01-05 15:29:10.05	268.66	46.50	-23.6	-23.9	18.0	0.00e+00	0	44	102	1048576	7	3729
2026-01-05 15:29:11.06	269.23	46.45	-23.5	-23.7	18.1	0.00e+00	0	44	102	1048576	7	3683
2026-01-05 15:29:12.07	269.80	46.41	-23.7	-24.1	17.9	0.00e+00	0	44	102	1048576	7	3791
2026-01-05 15:29:13.08	270.36	46.36	-23.7	-24.2	17.8	0.00e+00	0	44	102	1048576	7	3813
2026-01-05 15:29:14.08	270.92	46.31	-23.8	-24.3	17.8	0.00e+00	0	44	102	1048576	7	3814
2026-01-05 15:29:15.09	271.49	46.25	-23.6	-24.0	18.0	0.00e+00	0	44	102	1048576	7	3749
2026-01-05 15:29:16.10	272.05	46.19	-23.4	-23.5	18.2	0.00e+00	0	44	102	1048576	7	3641
2026-01-05 15:29:17.10	272.60	46.13	-23.5	-23.8	18.1	0.00e+00	0	44	102	1048576	7	3702
2026-01-05 15:29:18.11	273.16	46.07	-23.6	-23.9	18.0	0.00e+00	0	44	102	1048576	7	3732
2026-01-05 15:29:19.12	273.71	46.00	-23.9	-24.7	17.6	0.00e+00	0	44	102	1048576	7	3908
2026-01-05 15:29:20.13	274.26	45.93	-23.9	-24.6	17.6	0.00e+00	0	44	102	1048576	7	3906
2026-01-05 15:29:21.13	274.81	45.86	-23.9	-24.5	17.7	0.00e+00	0	44	102	1048576	7	3883
2026-01-05 15:29:22.13	275.35	45.79	-23.7	-24.1	17.9	0.00e+00	0	44	102	1048576	7	3791
2026-01-05 15:29:23.14	275.89	45.71	-23.7	-24.1	17.9	0.00e+00	0	44	102	1048576	7	3787
2026-01-05 15:29:24.15	276.44	45.63	-23.7	-24.1	17.8	0.00e+00	0	44	102	1048576	7	3784
2026-01-05 15:29:25.16	276.98	45.55	-23.6	-24.0	18.0	0.00e+00	0	44	102	1048576	7	3746
2026-01-05 15:29:26.17	277.51	45.47	-23.8	-24.4	17.7	0.00e+00	0	44	102	1048576	7	3850
2026-01-05 15:29:27.18	278.05	45.38	-24.1	-24.5	17.5	0.00e+00	0	44	102	1048576	8	3770
2026-01-05 15:29:28.18	278.57	45.29	-24.1	-24.6	17.5	0.00e+00	0	44	102	1048576	8	3800
2026-01-05 15:29:29.19	279.10	45.20	-24.1	-24.4	17.5	0.00e+00	0	44	102	1048576	8	3762
2026-01-05 15:29:30.20	279.62	45.10	-24.1	-24.5	17.5	0.00e+00	0	44	102	1048576	8	3763
2026-01-05 15:29:31.20	280.14	45.01	-24.1	-24.5	17.5	0.00e+00	0	44	102	1048576	8	3761
2026-01-05 15:29:32.21	280.66	44.91	-23.8	-23.8	17.8	0.00e+00	0	44	102	1048576	8	3612
2026-01-05 15:29:33.22	281.17	44.81	-23.8	-23.8	17.8	0.00e+00	0	44	102	1048576	8	3620
2026-01-05 15:29:34.23	281.68	44.70	-23.8	-23.9	17.8	0.00e+00	0	44	102	1048576	8	3643
2026-01-05 15:29:35.23	282.19	44.60	-23.8	-23.9	17.8	0.00e+00	0	44	102	1048576	8	3643
2026-01-05 15:29:36.24	282.69	44.49	-23.8	-23.8	17.8	0.00e+00	0	44	102	1048576	8	3619
2026-01-05 15:29:37.25	283.19	44.38	-23.8	-23.8	17.8	0.00e+00	0	44	102	1048576	8	3610
2026-01-05 15:29:38.25	283.69	44.27	-23.6	-23.5	18.0	0.00e+00	0	45	102	1048576	8	3556
2026-01-05 15:29:39.26	284.18	44.16	-23.4	-23.1	18.2	0.00e+00	0	44	102	1048576	8	3460
2026-01-05 15:29:40.27	284.67	44.04	-23.4	-23.6	18.1	0.00e+00	0	44	102	1048576	7	3674
2026-01-05 15:29:41.27	285.16	43.92	-23.6	-23.9	18.0	0.00e+00	0	44	102	1048576	7	3743
2026-01-05 15:29:42.27	285.63	43.80	-23.7	-24.1	17.9	0.00e+00	0	44	102	1048576	7	3779
2026-01-05 15:29:43.27	286.11	43.68	-23.6	-24.0	17.9	0.00e+00	0	44	102	1048576	7	3760
2026-01-05 15:29:44.28	286.59	43.56	-23.2	-23.2	18.4	0.00e+00	0	44	102	1048576	7	3581
2026-01-05 15:29:45.29	287.06	43.44	-23.1	-22.8	18.5	0.00e+00	0	44	102	1048576	7	3504
2026-01-05 15:29:46.30	287.53	43.31	-23.1	-22.9	18.6	0.00e+00	0	44	102	1048576	7	3507
2026-01-05 15:29:47.30	287.99	43.18	-23.3	-23.4	18.3	0.00e+00	0	44	102	1048576	7	3620
2026-01-05 15:29:48.31	288.45	43.05	-23.3	-23.2	18.4	0.00e+00	0	44	102	1048576	7	3591
2026-01-05 15:29:49.32	288.91	42.92	-23.4	-23.4	18.2	0.00e+00	0	44	102	1048576	7	3634
2026-01-05 15:29:50.32	289.36	42.79	-23.3	-23.4	18.2	0.00e+00	0	44	102	1048576	7	3620
2026-01-05 15:29:51.33	289.81	42.65	-23.4	-23.6	18.2	0.00e+00	0	44	102	1048576	7	3661
2026-01-05 15:29:52.34	290.26	42.52	-23.4	-23.6	18.1	0.00e+00	0	44	102	1048576	7	3664
2026-01-05 15:29:53.35	290.70	42.38	-23.4	-23.5	18.1	0.00e+00	0	44	102	1048576	7	3656
2026-01-05 15:29:54.35	291.14	42.24	-23.2	-23.2	18.4	0.00e+00	0	44	102	1048576	7	3583
2026-01-05 15:29:55.36	291.57	42.10	-23.1	-22.9	18.5	0.00e+00	0	44	102	1048576	7	3522
2026-01-05 15:29:56.36	292.00	41.96	-23.1	-23.0	18.4	0.00e+00	0	44	102	1048576	7	3531
2026-01-05 15:29:57.37	292.43	41.82	-23.3	-23.2	18.3	0.00e+00	0	44	102	1048576	7	3596
2026-01-05 15:29:58.38	292.86	41.68	-23.2	-23.1	18.4	0.00e+00	0	44	102	1048576	7	3564
2026-01-05 15:29:59.39	293.28	41.53	-23.3	-23.3	18.3	0.00e+00	0	44	102	1048576	7	3614
2026-01-05 15:30:00.39	293.69	41.39	-23.3	-23.3	18.2	0.00e+00	0	44	102	1048576	7	3603
2026-01-05 15:30:01.40	294.10	41.24	-23.2	-23.2	18.3	0.00e+00	0	44	102	1048576	7	3581
2026-01-05 15:30:02.40	294.51	41.09	-23.3	-23.4	18.2	0.00e+00	0	44	102	1048576	7	3634
2026-01-05 15:30:03.41	294.91	40.95	-23.3	-23.2	18.3	0.00e+00	0	44	102	1048576	7	3592
2026-01-05 15:30:04.42	295.32	40.80	-23.2	-23.1	18.4	0.00e+00	0	44	102	1048576	7	3563
2026-01-05 15:30:05.43	295.72	40.64	-23.1	-22.9	18.5	0.00e+00	0	44	102	1048576	7	3521
2026-01-05 15:30:06.44	296.11	40.49	-23.2	-23.0	18.4	0.00e+00	0	44	102	1048576	7	3548
2026-01-05 15:30:07.44	296.50	40.34	-23.1	-22.9	18.5	0.00e+00	0	44	102	1048576	7	3523
2026-01-05 15:30:08.45	296.89	40.19	-23.0	-22.7	18.6	0.00e+00	0	44	102	1048576	7	3469
2026-01-05 15:30:09.45	297.27	40.04	-23.1	-22.9	18.5	0.00e+00	0	44	102	1048576	7	3511
2026-01-05 15:30:10.46	297.65	39.88	-23.1	-22.8	18.5	0.00e+00	0	44	102	1048576	7	3502
2026-01-05 15:30:11.46	298.02	39.73	-22.8	-22.9	18.7	0.00e+00	0	44	102	1048576	6	3611
2026-01-05 15:30:12.47	298.39	39.57	-22.8	-22.8	18.8	0.00e+00	0	44	102	1048576	6	3596
2026-01-05 15:30:13.48	298.76	39.42	-22.9	-23.0	18.7	0.00e+00	0	44	102	1048576	6	3637
2026-01-05 15:30:14.48	299.13	39.26	-23.0	-23.1	18.6	0.00e+00	0	44	102	1048576	6	3666
2026-01-05 15:30:15.49	299.49	39.10	-23.0	-23.1	18.6	0.00e+00	0	44	102	1048576	6	3662
2026-01-05 15:30:16.50	299.85	38.94	-23.1	-23.4	18.5	0.00e+00	0	44	102	1048576	6	3729
2026-01-05 15:30:17.51	300.21	38.78	-23.3	-23.7	18.3	0.00e+00	0	44	102	1048576	6	3809
2026-01-05 15:30:18.51	300.56	38.63	-23.3	-23.9	18.2	0.00e+00	0	44	102	1048576	6	3836
2026-01-05 15:30:19.52	300.90	38.47	-23.3	-23.8	18.3	0.00e+00	0	44	102	1048576	6	3815
2026-01-05 15:30:20.53	301.25	38.31	-23.2	-23.6	18.4	0.00e+00	0	44	102	1048576	6	3769
2026-01-05 15:30:21.54	301.59	38.15	-23.0	-23.2	18.5	0.00e+00	0	44	102	1048576	6	3689
2026-01-05 15:30:22.54	301.93	37.99	-22.9	-23.1	18.6	0.00e+00	0	44	102	1048576	6	3663
2026-01-05 15:30:23.54	302.26	37.83	-23.0	-23.3	18.5	0.00e+00	0	44	102	1048576	6	3704
2026-01-05 15:30:24.55	302.59	37.67	-23.0	-23.2	18.6	0.00e+00	0	44	102	1048576	6	3678
2026-01-05 15:30:25.56	302.92	37.51	-22.9	-23.1	18.6	0.00e+00	0	44	102	1048576	6	3659
2026-01-05 15:30:26.56	303.25	37.35	-23.0	-23.2	18.5	0.00e+00	0	44	102	1048576	6	3695
2026-01-05 15:30:27.56	303.57	37.18	-23.0	-23.3	18.5	0.00e+00	0	44	102	1048576	6	3709
2026-01-05 15:30:28.57	303.89	37.02	-23.1	-23.4	18.4	0.00e+00	0	44	102	1048576	6	3737
2026-01-05 15:30:29.58	304.20	36.86	-23.1	-23.4	18.4	0.00e+00	0	44	102	1048576	6	3740
2026-01-05 15:30:30.59	304.52	36.70	-23.0	-23.3	18.5	0.00e+00	0	44	102	1048576	6	3712
2026-01-05 15:30:31.60	304.83	36.54	-23.1	-23.4	18.5	0.00e+00	0	44	102	1048576	6	3724
2026-01-05 15:30:32.60	305.13	36.37	-23.1	-23.4	18.2	0.00e+00	0	44	102	1048576	6	3731
2026-01-05 15:30:33.61	305.44	36.21	-22.9	-22.9	18.7	0.00e+00	0	44	102	1048576	6	3628
2026-01-05 15:30:34.62	305.74	36.05	-23.0	-23.1	18.5	0.00e+00	0	44	102	1048576	6	3670
2026-01-05 15:30:35.63	306.04	35.89	-22.8	-22.9	18.7	0.00e+00	0	44	102	1048576	6	3609
2026-01-05 15:30:36.63	306.33	35.72	-22.6	-22.3	19.0	0.00e+00	0	44	102	1048576	6	3492
2026-01-05 15:30:37.63	306.62	35.56	-22.5	-22.2	19.0	0.00e+00	0	44	102	1048576	6	3469
2026-01-05 15:30:38.64	306.91	35.40	-22.6	-22.4	18.9	0.00e+00	0	44	102	1048576	6	3522
2026-01-05 15:30:39.65	307.20	35.24	-22.7	-22.6	18.8	0.00e+00	0	44	102	1048576	6	3558
2026-01-05 15:30:40.65	307.48	35.08	-22.8	-22.8	18.6	0.00e+00	0	44	102	1048576	6	3600
2026-01-05 15:30:41.66	307.76	34.91	-22.9	-22.9	18.7	0.00e+00	0	44	102	1048576	6	3620
2026-01-05 15:30:42.67	308.04	34.75	-23.0	-23.3	18.5	0.00e+00	0	44	102	1048576	6	3706
2026-01-05 15:30:43.67	308.32	34.59	-23.1	-23.5	18.4	0.00e+00	0	44	102	1048576	6	3749
2026-01-05 15:30:44.67	308.59	34.43	-23.3	-23.9	18.2	0.00e+00	0	44	102	1048576	6	3838
2026-01-05 15:30:45.68	308.86	34.27	-23.4	-23.9	18.2	0.00e+00	0	44	102	1048576	6	3856
2026-01-05 15:30:46.69	309.13	34.11	-23.3	-23.8	18.2	0.00e+00	0	44	102	1048576	6	3828
2026-01-05 15:30:47.69	309.39	33.94	-23.2	-23.6	18.3	0.00e+00	0	44	102	1048576	6	3769
2026-01-05 15:30:48.70	309.65	33.78	-23.0	-23.3	18.5	0.00e+00	0	44	102	1048576	6	3704
2026-01-05 15:30:49.71	309.91	33.62	-23.0	-23.1	18.5	0.00e+00	0	44	102	1048576	6	3670
2026-01-05 15:30:50.72	310.17	33.46	-23.1	-23.4	18.4	0.00e+00	0	44	102	1048576	6	3736
2026-01-05 15:30:51.72	310.42	33.30	-22.9	-23.1	18.6	0.00e+00	0	44	102	1048576	6	3663
2026-01-05 15:30:52.73	310.68	33.14	-22.8	-22.8	18.6	0.00e+00	0	44	102	1048576	6	3601
2026-01-05 15:30:53.74	310.93	32.98	-22.8	-22.9	18.7	0.00e+00	0	44	102	1048576	6	3620
2026-01-05 15:30:54.74	311.17	32.82	-22.8	-22.8	18.7	0.00e+00	0	44	102	1048576	6	3590
2026-01-05 15:30:55.75	311.42	32.66	-22.8	-22.7	18.7	0.00e+00	0	44	102	1048576	6	3586
2026-01-05 15:30:56.76	311.66	32.50	-22.9	-22.9	18.7	0.00e+00	0	44	102	1048576	6	3620
2026-01-05 15:30:57.77	311.90	32.34	-22.8	-22.9	18.7	0.00e+00	0	44	102	1048576	6	3609
2026-01-05 15:30:58.78	312.14	32.18	-22.8	-22.7	18.7	0.00e+00	0	44	102	1048576	6	3582
2026-01-05 15:30:59.79	312.38	32.02	-22.8	-22.9	18.7	0.00e+00	0	44	102	1048576	6	3614
2026-01-05 15:31:00.79	312.61	31.87	-23.0	-23.2	18.5	0.00e+00	0	44	102	1048576	6	3679
2026-01-05 15:31:01.80	312.84	31.71	-23.0	-23.3	18.4	0.00e+00	0	44	102	1048576	6	3711
2026-01-05 15:31:02.81	313.07	31.55	-23.2	-23.5	18.3	0.00e+00	0	44	102	1048576	6	3760
2026-01-05 15:31:03.81	313.30	31.40	-23.2	-23.5	18.3	0.00e+00	0	44	102	1048576	6	3755
2026-01-05 15:31:04.83	313.53	31.24	-23.3	-23.8	18.1	0.00e+00	0	44	102	1048576	6	3824
2026-01-05 15:31:05.84	313.75	31.08	-23.4	-24.0	18.0	0.00e+00	0	44	102	1048576	6	3868
2026-01-05 15:31:06.84	313.97	30.93	-23.4	-24.0	18.1	0.00e+00	0	44	102	1048576	6	3871
2026-01-05 15:31:07.85	314.19	30.77	-23.4	-24.1	18.0	0.00e+00	0	44	102	1048576	6	3901
2026-01-05 15:31:08.86	314.41	30.62	-23.4	-24.0	18.0	0.00e+00	0	44	102	1048576	6	3879
2026-01-05 15:31:09.86	314.62	30.46	-23.4	-24.0	18.1	0.00e+00	0	44	102	1048576	6	3872
2026-01-05 15:31:10.87	314.83	30.31	-23.5	-24.2	17.9	0.00e+00	0	44	102	1048576	6	3922
2026-01-05 15:31:11.88	315.04	30.15	-23.4	-24.0	18.0	0.00e+00	0	44	102	1048576	6	3866
2026-01-05 15:31:12.88	315.25	30.00	-23.2	-23.6	18.2	0.00e+00	0	44	102	1048576	6	3780
2026-01-05 15:31:13.89	315.46	29.85	-23.2	-23.7	18.2	0.00e+00	0	44	102	1048576	6	3808
2026-01-05 15:31:14.90	315.66	29.70	-23.2	-23.6	18.3	0.00e+00	0	44	102	1048576	6	3775
2026-01-05 15:31:15.91	315.87	29.54	-23.2	-23.6	18.3	0.00e+00	0	44	102	1048576	6	3780
2026-01-05 15:31:16.91	316.07	29.39	-23.3	-23.9	18.1	0.00e+00	0	44	102	1048576	6	3855
2026-01-05 15:31:17.92	316.27	29.24	-23.3	-23.8	18.1	0.00e+00	0	45	102	1048576	6	3815
2026-01-05 15:31:18.92	316.46	29.09	-23.5	-24.3	17.9	0.00e+00	0	44	102	1048576	6	3930
2026-01-05 15:31:19.93	316.66	28.94	-23.4	-24.1	17.9	0.00e+00	0	44	102	1048576	6	3897
2026-01-05 15:31:20.94	316.85	28.79	-23.3	-23.8	18.1	0.00e+00	0	44	102	1048576	6	3824
2026-01-05 15:31:21.95	317.05	28.64	-23.4	-24.2	18.0	0.00e+00	0	44	102	1048576	6	3907
2026-01-05 15:31:22.95	317.23	28.49	-23.5	-24.3	17.9	0.00e+00	0	44	102	1048576	6	3941
2026-01-05 15:31:23.96	317.42	28.34	-23.5	-24.4	17.8	0.00e+00	0	44	102	1048576	6	3953
2026-01-05 15:31:24.97	317.61	28.20	-23.7	-24.1	17.7	0.00e+00	0	44	102	1048576	7	3789
2026-01-05 15:31:25.98	317.80	28.05	-23.9	-24.6	17.5	0.00e+00	0	44	102	1048576	7	3898
2026-01-05 15:31:26.98	317.98	27.90	-23.6	-24.0	17.7	0.00e+00	0	44	102	1048576	7	3755
2026-01-05 15:31:27.99	318.16	27.75	-23.3	-23.3	18.1	0.00e+00	0	44	102	1048576	7	3605
2026-01-05 15:31:29.00	318.34	27.61	-23.3	-23.2	18.2	0.00e+00	0	44	102	1048576	7	3590
2026-01-05 15:31:30.01	318.52	27.46	-23.3	-23.3	18.1	0.00e+00	0	44	102	1048576	7	3611
2026-01-05 15:31:31.02	318.70	27.32	-23.1	-22.9	18.3	0.00e+00	0	44	102	1048576	7	3519
2026-01-05 15:31:32.03	318.88	27.17	-23.2	-23.0	18.2	0.00e+00	0	44	102	1048576	7	3552
2026-01-05 15:31:33.04	319.05	27.03	-23.0	-22.7	18.4	0.00e+00	0	44	102	1048576	7	3475
2026-01-05 15:31:34.04	319.22	26.89	-22.9	-22.6	18.5	0.00e+00	0	44	102	1048576	7	3457
2026-01-05 15:31:35.05	319.39	26.74	-23.1	-22.9	18.3	0.00e+00	0	44	102	1048576	7	3511
2026-01-05 15:31:36.06	319.56	26.60	-22.9	-22.6	18.4	0.00e+00	0	44	102	1048576	7	3459
2026-01-05 15:31:37.07	319.73	26.46	-23.0	-22.6	18.4	0.00e+00	0	44	102	1048576	7	3464
2026-01-05 15:31:38.07	319.90	26.32	-23.0	-22.7	18.4	0.00e+00	0	44	102	1048576	7	3487
2026-01-05 15:31:39.07	320.06	26.18	-23.1	-23.0	18.2	0.00e+00	0	44	102	1048576	7	3543
2026-01-05 15:31:40.08	320.23	26.03	-23.1	-22.9	18.3	0.00e+00	0	44	102	1048576	7	3513
2026-01-05 15:31:41.09	320.39	25.89	-23.3	-23.3	18.1	0.00e+00	0	44	102	1048576	7	3604
2026-01-05 15:31:42.09	320.55	25.76	-23.2	-23.2	18.1	0.00e+00	0	44	102	1048576	7	3588
2026-01-05 15:31:43.10	320.71	25.62	-23.3	-23.3	18.1	0.00e+00	0	44	102	1048576	7	3606
2026-01-05 15:31:44.11	320.87	25.48	-23.3	-23.4	18.1	0.00e+00	0	44	102	1048576	7	3626
2026-01-05 15:31:45.12	321.02	25.34	-23.4	-23.6	17.9	0.00e+00	0	44	102	1048576	7	3677
2026-01-05 15:31:46.12	321.18	25.20	-23.3	-23.4	18.0	0.00e+00	0	44	102	1048576	7	3622
2026-01-05 15:31:47.13	321.33	25.07	-23.3	-23.3	18.1	0.00e+00	0	44	102	1048576	7	3613
2026-01-05 15:31:48.14	321.49	24.93	-23.4	-23.5	18.0	0.00e+00	0	44	102	1048576	7	3657
2026-01-05 15:31:49.14	321.64	24.79	-23.3	-23.3	18.1	0.00e+00	0	44	102	1048576	7	3612
2026-01-05 15:31:50.15	321.79	24.66	-23.3	-23.3	18.1	0.00e+00	0	44	102	1048576	7	3610
2026-01-05 15:31:51.16	321.94	24.52	-23.4	-23.5	17.9	0.00e+00	0	44	102	1048576	7	3654
2026-01-05 15:31:52.17	322.09	24.39	-23.4	-23.6	17.9	0.00e+00	0	44	102	1048576	7	3684
2026-01-05 15:31:53.17	322.23	24.25	-23.3	-23.3	18.0	0.00e+00	0	44	102	1048576	7	3621
2026-01-05 15:31:54.17	322.38	24.12	-23.4	-23.5	17.9	0.00e+00	0	44	102	1048576	7	3652
2026-01-05 15:31:55.18	322.52	23.99	-23.4	-23.6	17.9	0.00e+00	0	44	102	1048576	7	3675
2026-01-05 15:31:56.19	322.67	23.86	-23.4	-23.6	17.9	0.00e+00	0	44	102	1048576	7	3676
2026-01-05 15:31:57.20	322.81	23.72	-23.4	-23.6	17.8	0.00e+00	0	44	102	1048576	7	3676
2026-01-05 15:31:58.21	322.95	23.59	-23.5	-23.8	17.8	0.00e+00	0	44	102	1048576	7	3713
2026-01-05 15:31:59.21	323.09	23.46	-23.5	-23.8	17.8	0.00e+00	0	44	102	1048576	7	3715
2026-01-05 15:32:00.22	323.23	23.33	-23.5	-23.7	17.8	0.00e+00	0	44	102	1048576	7	3706
2026-01-05 15:32:01.22	323.36	23.20	-23.5	-23.8	17.7	0.00e+00	0	44	102	1048576	7	3727
2026-01-05 15:32:02.23	323.50	23.07	-23.6	-24.0	17.6	0.00e+00	0	44	102	1048576	7	3773
2026-01-05 15:32:03.24	323.64	22.94	-23.5	-23.9	17.7	0.00e+00	0	44	102	1048576	7	3737
2026-01-05 15:32:04.25	323.77	22.81	-23.6	-23.9	17.7	0.00e+00	0	44	102	1048576	7	3749
2026-01-05 15:32:05.26	323.90	22.68	-23.7	-24.1	17.6	0.00e+00	0	44	102	1048576	7	3794
2026-01-05 15:32:06.26	324.04	22.56	-23.6	-24.1	17.6	0.00e+00	0	44	102	1048576	7	3787
2026-01-05 15:32:07.26	324.17	22.43	-23.6	-24.1	17.6	0.00e+00	0	44	102	1048576	7	3783
2026-01-05 15:32:08.26	324.29	22.31	-23.7	-24.2	17.5	0.00e+00	0	44	102	1048576	7	3809
2026-01-05 15:32:09.26	324.42	22.18	-23.5	-23.8	17.7	0.00e+00	0	44	102	1048576	7	3730
2026-01-05 15:32:10.27	324.55	22.05	-23.6	-23.9	17.6	0.00e+00	0	44	102	1048576	7	3747
2026-01-05 15:32:11.28	324.68	21.93	-23.6	-24.0	17.6	0.00e+00	0	44	102	1048576	7	3767
2026-01-05 15:32:12.29	324.81	21.80	-23.5	-23.8	17.7	0.00e+00	0	44	102	1048576	7	3725
2026-01-05 15:32:13.30	324.93	21.68	-23.4	-23.6	17.8	0.00e+00	0	45	102	1048576	7	3686
2026-01-05 15:32:14.31	325.06	21.56	-23.5	-23.7	17.8	0.00e+00	0	44	102	1048576	7	3698
2026-01-05 15:32:15.31	325.18	21.43	-23.5	-23.8	17.7	0.00e+00	0	44	102	1048576	7	3726
2026-01-05 15:32:16.32	325.30	21.31	-23.6	-24.0	17.6	0.00e+00	0	44	102	1048576	7	3774
2026-01-05 15:32:17.33	325.42	21.19	-23.6	-24.1	17.6	0.00e+00	0	44	102	1048576	7	3787
2026-01-05 15:32:18.33	325.54	21.07	-23.8	-24.5	17.4	0.00e+00	0	44	102	1048576	7	3875
2026-01-05 15:32:19.34	325.66	20.94	-23.9	-24.5	17.3	0.00e+00	0	44	102	1048576	7	3892
2026-01-05 15:32:20.35	325.78	20.82	-23.9	-24.5	17.3	0.00e+00	0	44	102	1048576	7	3894
2026-01-05 15:32:21.36	325.90	20.70	-23.9	-24.6	17.3	0.00e+00	0	44	102	1048576	7	3909
2026-01-05 15:32:22.37	326.02	20.58	-23.9	-24.7	17.2	0.00e+00	0	44	102	1048576	7	3926
2026-01-05 15:32:23.37	326.13	20.46	-24.1	-24.4	17.1	0.00e+00	0	44	102	1048576	8	3761
2026-01-05 15:32:24.38	326.25	20.34	-24.0	-24.3	17.2	0.00e+00	0	44	102	1048576	8	3730
2026-01-05 15:32:25.39	326.36	20.23	-24.0	-24.4	17.1	0.00e+00	0	44	102	1048576	8	3758
2026-01-05 15:32:26.40	326.47	20.11	-24.1	-24.5	17.1	0.00e+00	0	44	102	1048576	8	3773
2026-01-05 15:32:27.41	326.59	19.99	-24.2	-24.7	17.0	0.00e+00	0	44	102	1048576	8	3827
2026-01-05 15:32:28.42	326.70	19.87	-24.1	-24.5	17.1	0.00e+00	0	44	102	1048576	8	3770
2026-01-05 15:32:29.42	326.81	19.76	-24.0	-24.2	17.2	0.00e+00	0	44	102	1048576	8	3714
2026-01-05 15:32:30.43	326.92	19.64	-23.9	-24.2	17.2	0.00e+00	0	44	102	1048576	8	3700
2026-01-05 15:32:31.44	327.03	19.52	-24.0	-24.4	17.1	0.00e+00	0	44	102	1048576	8	3748
2026-01-05 15:32:32.45	327.14	19.41	-24.1	-24.5	17.1	0.00e+00	0	44	102	1048576	8	3777
2026-01-05 15:32:33.46	327.25	19.29	-24.1	-24.6	17.0	0.00e+00	0	44	102	1048576	8	3805
2026-01-05 15:32:34.47	327.35	19.18	-24.2	-24.7	17.0	0.00e+00	0	44	102	1048576	8	3824
2026-01-05 15:32:35.48	327.46	19.06	-24.1	-24.6	17.0	0.00e+00	0	44	102	1048576	8	3802
2026-01-05 15:32:36.49	327.57	18.95	-24.1	-24.6	17.0	0.00e+00	0	44	102	1048576	8	3801
2026-01-05 15:32:37.49	327.67	18.84	-24.1	-24.6	17.0	0.00e+00	0	44	102	1048576	8	3790
2026-01-05 15:32:38.49	327.77	18.72	-24.2	-24.7	16.9	0.00e+00	0	44	102	1048576	8	3829
2026-01-05 15:32:39.50	327.88	18.61	-24.2	-24.8	16.9	0.00e+00	0	44	102	1048576	8	3846
2026-01-05 15:32:40.51	327.98	18.50	-24.1	-24.5	17.0	0.00e+00	0	44	102	1048576	8	3787
2026-01-05 15:32:41.51	328.08	18.39	-24.0	-24.4	17.1	0.00e+00	0	44	102	1048576	8	3757
2026-01-05 15:32:42.52	328.18	18.28	-24.0	-24.3	17.1	0.00e+00	0	44	102	1048576	8	3739
2026-01-05 15:32:43.53	328.28	18.17	-24.0	-24.4	17.1	0.00e+00	0	45	102	1048576	8	3746
2026-01-05 15:32:44.53	328.38	18.06	-24.1	-24.6	17.0	0.00e+00	0	44	102	1048576	8	3814
2026-01-05 15:32:45.54	328.48	17.95	-24.1	-24.5	17.0	0.00e+00	0	44	102	1048576	8	3779
2026-01-05 15:32:46.54	328.58	17.84	-24.2	-24.7	16.9	0.00e+00	0	44	102	1048576	8	3820
2026-01-05 15:32:47.55	328.68	17.73	-24.2	-24.8	16.8	0.00e+00	0	44	102	1048576	8	3840
2026-01-05 15:32:48.56	328.77	17.62	-24.3	-24.9	16.8	0.00e+00	0	44	102	1048576	8	3872
2026-01-05 15:32:49.56	328.87	17.51	-24.2	-24.9	16.8	0.00e+00	0	44	102	1048576	8	3863
2026-01-05 15:32:50.57	328.96	17.40	-24.4	-25.1	16.7	0.00e+00	0	44	102	1048576	8	3916
2026-01-05 15:32:51.58	329.06	17.30	-24.4	-25.1	16.7	0.00e+00	0	44	102	1048576	8	3924
2026-01-05 15:32:52.58	329.15	17.19	-24.4	-25.2	16.6	0.00e+00	0	44	102	1048576	8	3935
2026-01-05 15:32:53.59	329.25	17.08	-24.4	-25.3	16.6	0.00e+00	0	44	102	1048576	8	3957
2026-01-05 15:32:54.59	329.34	16.98	-24.5	-25.4	16.5	0.00e+00	0	44	102	1048576	8	3994
2026-01-05 15:32:55.61	329.43	16.87	-24.6	-25.1	16.4	0.00e+00	0	44	102	1048576	9	3826
2026-01-05 15:32:56.61	329.53	16.77	-24.5	-24.9	16.5	0.00e+00	0	44	102	1048576	9	3769
2026-01-05 15:32:57.62	329.62	16.66	-24.6	-25.1	16.4	0.00e+00	0	44	102	1048576	9	3817
2026-01-05 15:32:58.62	329.71	16.56	-24.7	-25.3	16.3	0.00e+00	0	44	102	1048576	9	3856
2026-01-05 15:32:59.63	329.80	16.45	-24.8	-25.6	16.2	0.00e+00	0	44	102	1048576	9	3925
2026-01-05 15:33:00.64	329.89	16.35	-24.9	-25.7	16.1	0.00e+00	0	44	102	1048576	9	3954
2026-01-05 15:33:01.65	329.98	16.24	-24.7	-25.4	16.2	0.00e+00	0	44	102	1048576	9	3901
2026-01-05 15:33:02.65	330.06	16.14	-24.9	-25.7	16.1	0.00e+00	0	45	102	1048576	9	3956
2026-01-05 15:33:03.66	330.15	16.04	-24.8	-25.6	16.1	0.00e+00	0	44	102	1048576	9	3930
2026-01-05 15:33:04.67	330.24	15.94	-24.9	-25.7	16.0	0.00e+00	0	44	102	1048576	9	3965
2026-01-05 15:33:05.68	330.33	15.83	-25.0	-25.9	15.9	0.00e+00	0	44	102	1048576	9	4024
2026-01-05 15:33:06.69	330.41	15.73	-25.0	-26.0	15.9	0.00e+00	0	44	102	1048576	9	4037
2026-01-05 15:33:07.69	330.50	15.63	-25.0	-25.9	15.9	0.00e+00	0	44	102	1048576	9	4009
2026-01-05 15:33:08.70	330.58	15.53	-25.0	-26.1	15.8	0.00e+00	0	45	102	1048576	9	4058
2026-01-05 15:33:09.71	330.67	15.43	-25.1	-25.7	15.8	0.00e+00	0	44	102	1048576	10	3851
2026-01-05 15:33:10.71	330.75	15.33	-25.0	-25.6	15.8	0.00e+00	0	44	102	1048576	10	3833
2026-01-05 15:33:11.72	330.83	15.23	-25.1	-25.7	15.8	0.00e+00	0	44	102	1048576	10	3853
2026-01-05 15:33:12.71	330.92	15.13	-25.1	-25.6	15.8	0.00e+00	0	44	102	1048576	10	3842
2026-01-05 15:33:13.71	331.00	15.03	-25.1	-25.8	15.7	0.00e+00	0	44	102	1048576	10	3878
2026-01-05 15:33:14.72	331.08	14.93	-25.1	-25.7	15.7	0.00e+00	0	44	102	1048576	10	3864
2026-01-05 15:33:15.73	331.16	14.84	-25.0	-25.4	15.9	0.00e+00	0	45	102	1048576	10	3797
2026-01-05 15:33:16.73	331.24	14.74	-25.0	-25.5	15.8	0.00e+00	0	44	102	1048576	10	3812
2026-01-05 15:33:17.74	331.32	14.64	-25.0	-25.5	15.9	0.00e+00	0	44	102	1048576	10	3798
2026-01-05 15:33:18.75	331.40	14.54	-25.1	-25.6	15.8	0.00e+00	0	45	102	1048576	10	3847
2026-01-05 15:33:19.75	331.48	14.45	-25.0	-25.5	15.8	0.00e+00	0	44	102	1048576	10	3814
2026-01-05 15:33:20.76	331.56	14.35	-25.1	-25.7	15.7	0.00e+00	0	44	102	1048576	10	3857
2026-01-05 15:33:21.77	331.64	14.25	-25.1	-25.7	15.7	0.00e+00	0	44	102	1048576	10	3864
2026-01-05 15:33:22.78	331.72	14.16	-25.1	-25.7	15.7	0.00e+00	0	44	102	1048576	10	3848
2026-01-05 15:33:23.79	331.79	14.06	-25.2	-25.8	15.6	0.00e+00	0	44	102	1048576	10	3889
2026-01-05 15:33:24.79	331.87	13.97	-25.2	-25.8	15.7	0.00e+00	0	44	102	1048576	10	3894
2026-01-05 15:33:25.80	331.95	13.87	-25.3	-26.2	15.4	0.00e+00	0	44	102	1048576	10	3985
2026-01-05 15:33:26.81	332.02	13.78	-25.4	-26.4	15.3	0.00e+00	0	45	102	1048576	10	4037
2026-01-05 15:33:27.82	332.10	13.68	-25.4	-26.3	15.4	0.00e+00	0	44	102	1048576	10	4012
2026-01-05 15:33:28.82	332.17	13.59	-25.5	-26.5	15.3	0.00e+00	0	44	102	1048576	10	4057
2026-01-05 15:33:29.83	332.25	13.49	-25.3	-26.2	15.4	0.00e+00	0	44	102	1048576	10	3986
2026-01-05 15:33:30.84	332.32	13.40	-25.6	-26.4	15.1	0.00e+00	0	44	102	1048576	11	3926
2026-01-05 15:33:31.84	332.40	13.31	-25.5	-26.1	15.1	0.00e+00	0	44	102	1048576	11	3864
2026-01-05 15:33:32.85	332.47	13.22	-25.7	-26.5	15.0	1.10e-06	0	44	102	1048576	11	3949
2026-01-05 15:33:33.86	332.54	13.12	-25.6	-26.4	15.1	1.10e-06	0	44	102	1048576	11	3914
2026-01-05 15:33:34.86	332.61	13.03	-25.5	-26.2	15.1	0.00e+00	0	44	102	1048576	11	3869
2026-01-05 15:33:35.87	332.69	12.94	-25.6	-26.3	15.0	0.00e+00	0	44	102	1048576	11	3897
2026-01-05 15:33:36.88	332.76	12.85	-25.5	-26.2	15.2	0.00e+00	0	44	102	1048576	11	3868
2026-01-05 15:33:37.89	332.83	12.76	-25.7	-26.4	15.0	0.00e+00	0	45	102	1048576	11	3931
2026-01-05 15:33:38.90	332.90	12.66	-25.5	-26.2	15.1	2.20e-06	0	44	102	1048576	11	3866
2026-01-05 15:33:39.90	332.97	12.57	-25.6	-26.4	15.0	0.00e+00	0	45	102	1048576	11	3922
2026-01-05 15:33:40.90	333.04	12.49	-25.6	-26.4	15.0	5.70e-06	0	44	102	1048576	11	3931
2026-01-05 15:33:41.91	333.11	12.39	-25.6	-26.4	15.0	0.00e+00	0	45	102	1048576	11	3939
2026-01-05 15:33:42.92	333.18	12.31	-25.8	-26.7	14.8	1.10e-06	0	44	102	1048576	11	4008
2026-01-05 15:33:43.92	333.25	12.22	-25.7	-26.5	14.9	0.00e+00	0	45	102	1048576	11	3950
2026-01-05 15:33:44.92	333.32	12.13	-25.7	-26.6	14.9	0.00e+00	0	45	102	1048576	11	3986
2026-01-05 15:33:45.93	333.38	12.04	-25.7	-26.6	14.9	0.00e+00	0	44	102	1048576	11	3980
2026-01-05 15:33:46.94	333.45	11.95	-25.8	-26.7	14.8	0.00e+00	0	44	102	1048576	11	4006
2026-01-05 15:33:47.94	333.52	11.86	-25.8	-26.7	14.8	0.00e+00	0	44	102	1048576	11	4012
2026-01-05 15:33:48.95	333.59	11.77	-25.9	-27.0	14.6	0.00e+00	0	44	102	1048576	11	4091
2026-01-05 15:33:49.95	333.65	11.69	-25.9	-27.0	14.6	0.00e+00	0	44	102	1048576	11	4080
2026-01-05 15:33:50.96	333.72	11.60	-26.0	-27.3	14.5	1.10e-06	0	44	102	1048576	11	4153
2026-01-05 15:33:51.97	333.78	11.51	-25.9	-26.9	14.6	0.00e+00	0	44	102	1048576	11	4068
2026-01-05 15:33:52.97	333.85	11.43	-26.0	-27.2	14.5	0.00e+00	0	44	102	1048576	11	4137
2026-01-05 15:33:53.98	333.91	11.34	-25.9	-26.9	14.6	3.40e-06	0	44	102	1048576	11	4063
2026-01-05 15:33:54.99	333.98	11.25	-25.8	-26.7	14.7	0.00e+00	0	44	102	1048576	11	4003
2026-01-05 15:33:56.00	334.04	11.17	-25.7	-26.6	14.8	1.10e-06	0	44	102	1048576	11	3990
2026-01-05 15:33:57.01	334.11	11.08	-25.9	-27.0	14.5	2.20e-06	0	44	102	1048576	11	4093
2026-01-05 15:33:58.01	334.17	11.00	-25.8	-26.9	14.7	0.00e+00	0	44	102	1048576	11	4052
2026-01-05 15:33:59.02	334.24	10.91	-25.8	-26.8	14.7	1.10e-06	0	44	102	1048576	11	4031
2026-01-05 15:34:00.02	334.30	10.83	-25.8	-26.8	14.7	1.10e-06	0	44	102	1048576	11	4029
2026-01-05 15:34:01.03	334.36	10.74	-25.9	-27.1	14.5	0.00e+00	0	44	102	1048576	11	4099
2026-01-05 15:34:02.04	334.42	10.66	-25.9	-26.9	14.6	0.00e+00	0	44	102	1048576	11	4057
2026-01-05 15:34:03.04	334.48	10.57	-25.9	-27.0	14.5	1.10e-06	0	44	102	1048576	11	4083
2026-01-05 15:34:04.05	334.55	10.49	-25.9	-27.1	14.5	1.10e-06	0	44	102	1048576	11	4106
2026-01-05 15:34:05.05	334.61	10.41	-26.0	-27.1	14.5	3.40e-06	0	44	102	1048576	11	4121
2026-01-05 15:34:06.06	334.67	10.32	-26.0	-27.3	14.4	4.50e-06	0	44	102	1048576	11	4152
2026-01-05 15:34:07.06	334.73	10.24	-26.1	-27.4	14.3	0.00e+00	0	44	102	1048576	11	4185
2026-01-05 15:34:08.07	334.79	10.16	-26.1	-27.0	14.2	2.20e-06	0	44	102	1048576	12	3979
2026-01-05 15:34:09.08	334.85	10.07	-26.4	-27.7	13.8	0.00e+00	0	44	102	1048576	12	4163
2026-01-05 15:34:10.08	334.91	9.99	-26.2	-27.2	14.0	1.10e-06	0	44	102	1048576	12	4043
2026-01-05 15:34:11.09	334.97	9.91	-26.1	-27.0	14.2	1.10e-06	0	44	102	1048576	12	3977
2026-01-05 15:34:12.10	335.03	9.83	-26.0	-26.8	14.3	1.10e-06	0	44	102	1048576	12	3925
2026-01-05 15:34:13.10	335.09	9.75	-26.2	-27.2	14.0	0.00e+00	0	44	102	1048576	12	4034
2026-01-05 15:34:14.11	335.15	9.66	-26.3	-27.4	13.9	0.00e+00	0	44	102	1048576	12	4079
2026-01-05 15:34:15.11	335.20	9.58	-26.3	-27.3	13.9	6.80e-06	0	44	102	1048576	12	4064
2026-01-05 15:34:16.11	335.26	9.50	-26.3	-27.4	13.9	1.10e-06	0	44	102	1048576	12	4093
2026-01-05 15:34:17.12	335.32	9.42	-26.2	-27.3	13.9	1.10e-06	0	45	102	1048576	12	4058
2026-01-05 15:34:18.12	335.38	9.34	-26.4	-27.7	13.7	5.70e-06	0	44	102	1048576	12	4169
2026-01-05 15:34:19.13	335.43	9.26	-26.4	-27.7	13.7	4.50e-06	0	44	102	1048576	12	4173
2026-01-05 15:34:20.14	335.49	9.18	-26.5	-27.8	13.6	8.00e-06	0	44	102	1048576	12	4210
2026-01-05 15:34:21.14	335.55	9.10	-26.7	-27.8	13.3	8.00e-06	0	44	102	1048576	13	4100
2026-01-05 15:34:22.15	335.60	9.02	-27.1	-28.3	12.7	7.55e-05	0	44	102	1048576	14	4135
2026-01-05 15:34:23.16	335.66	8.94	-26.8	-27.4	13.2	3.54e-05	0	44	102	1048576	14	3898
2026-01-05 15:34:24.16	335.71	8.87	-26.7	-27.3	13.3	1.94e-05	0	45	102	1048576	14	3865
2026-01-05 15:34:25.17	335.77	8.79	-26.5	-27.0	13.5	1.48e-05	0	45	102	1048576	14	3788
2026-01-05 15:34:26.18	335.82	8.71	-26.5	-26.9	13.6	6.80e-06	0	44	102	1048576	14	3759
2026-01-05 15:34:27.19	335.88	8.63	-26.6	-27.1	13.4	9.10e-06	0	44	102	1048576	14	3811
2026-01-05 15:34:28.20	335.93	8.55	-26.7	-27.4	13.2	1.83e-05	0	45	102	1048576	14	3895
2026-01-05 15:34:29.20	335.99	8.47	-26.7	-27.4	13.2	1.14e-05	0	44	102	1048576	14	3884
2026-01-05 15:34:30.21	336.04	8.40	-26.8	-27.7	13.1	3.43e-05	0	44	102	1048576	14	3961
2026-01-05 15:34:31.22	336.10	8.32	-26.6	-27.1	13.4	2.05e-05	0	44	102	1048576	14	3813
2026-01-05 15:34:32.22	336.15	8.24	-26.7	-27.4	13.2	2.05e-05	0	45	102	1048576	14	3905
2026-01-05 15:34:33.23	336.20	8.17	-26.7	-27.5	13.2	2.51e-05	0	45	102	1048576	14	3909
2026-01-05 15:34:34.23	336.26	8.09	-26.7	-27.4	13.2	2.51e-05	0	45	102	1048576	14	3885
2026-01-05 15:34:35.24	336.31	8.01	-26.9	-27.8	13.0	3.20e-05	0	44	102	1048576	14	3985
2026-01-05 15:34:36.25	336.36	7.94	-26.8	-27.5	13.1	2.74e-05	0	45	102	1048576	14	3911
2026-01-05 15:34:37.26	336.41	7.86	-26.9	-27.9	12.9	3.66e-05	0	45	102	1048576	14	4021
2026-01-05 15:34:38.27	336.47	7.78	-27.0	-28.0	12.8	5.83e-05	0	44	102	1048576	14	4060
2026-01-05 15:34:39.28	336.52	7.71	-26.9	-27.9	12.9	5.49e-05	0	44	102	1048576	14	4021
2026-01-05 15:34:40.29	336.57	7.63	-27.1	-28.2	12.6	9.95e-05	0	44	102	1048576	14	4119
2026-01-05 15:34:41.29	336.62	7.56	-26.8	-27.7	12.9	4.23e-05	0	44	102	1048576	14	3967
