passes_logs/2026/01/05/R2M6_AANII_01/R2M6_AANII_01__20260105_002332_FENGYUN_3D_rec.log

#Pass ID: 20260105_002332_FENGYUN 3D
#Satellite: FENGYUN 3D
#Configuration: FENGYUN 3D
#almurnet v.1.7.20240730
#Start time: 2026-01-05 00:23:31

#Version: 2.2.20231116
#Station: R2M6_AANII_01
#Location: 30.233357 lon 59.946436 lat
#TLE: 1 43010U 17072A   26004.50247883 -.00000063  00000+0 -78815-5 0  9998
#TLE: 2 43010  98.9915 336.1565 0001968 126.3752 233.7605 14.19691805421760

#Time	Az	El	Level	Level2	SNR	BER	BlckErr	Temp	State	Recorded	gain1	gain2
2026-01-05 00:23:31.82	35.68	6.99	-28.7	-31.7	5.5	7.54e-01	0	41	0	0	17	5050
2026-01-05 00:23:32.82	35.79	7.04	-30.6	-35.2	4.9	7.94e-01	0	41	104	0	21	6167
2026-01-05 00:23:33.82	35.91	7.09	-30.9	-36.2	6.5	1.98e-01	0	41	0	0	21	6638
2026-01-05 00:23:34.83	36.03	7.15	-30.6	-35.2	7.2	1.52e-01	0	41	102	1048576	21	6088
2026-01-05 00:23:35.84	36.15	7.20	-30.8	-35.9	6.7	1.39e-01	0	41	102	1048576	21	6484
2026-01-05 00:23:36.84	36.27	7.25	-30.7	-35.4	7.0	1.43e-01	0	41	102	1048576	21	6196
2026-01-05 00:23:37.85	36.39	7.31	-30.4	-34.8	7.8	8.95e-02	0	41	102	1048576	20	5979
2026-01-05 00:23:38.85	36.50	7.36	-30.0	-33.5	8.7	3.52e-02	0	41	102	1048576	20	5420
2026-01-05 00:23:39.86	36.63	7.41	-29.7	-32.6	9.4	1.74e-02	0	41	102	1048576	20	5054
2026-01-05 00:23:40.87	36.75	7.47	-29.4	-32.3	10.0	7.48e-03	0	41	102	1048576	19	5038
2026-01-05 00:23:41.88	36.87	7.52	-29.2	-31.8	10.4	4.27e-03	0	41	102	1048576	19	4842
2026-01-05 00:23:42.88	36.99	7.58	-28.9	-31.0	10.9	2.09e-03	0	41	102	1048576	19	4574
2026-01-05 00:23:43.89	37.11	7.63	-28.8	-31.1	11.2	1.31e-03	0	41	102	1048576	18	4705
2026-01-05 00:23:44.91	37.24	7.68	-28.6	-30.7	11.4	7.93e-04	0	41	102	1048576	18	4571
2026-01-05 00:23:45.91	37.36	7.74	-28.7	-30.8	11.4	6.98e-04	0	41	102	1048576	18	4617
2026-01-05 00:23:46.92	37.48	7.79	-28.4	-30.2	11.9	3.54e-04	0	41	102	1048576	18	4414
2026-01-05 00:23:47.92	37.60	7.84	-28.0	-29.7	12.5	1.34e-04	0	42	102	1048576	17	4363
2026-01-05 00:23:48.93	37.73	7.90	-27.8	-29.6	12.9	9.04e-05	0	42	102	1048576	16	4439
2026-01-05 00:23:49.93	37.85	7.95	-27.5	-29.0	13.2	5.49e-05	0	42	102	1048576	16	4262
2026-01-05 00:23:50.94	37.98	8.01	-27.7	-29.3	13.0	1.48e-05	0	42	102	1048576	16	4359
2026-01-05 00:23:51.93	38.10	8.06	-27.4	-28.8	13.4	1.48e-05	0	41	102	1048576	16	4194
2026-01-05 00:23:52.94	38.23	8.11	-27.6	-29.1	13.2	6.17e-05	0	42	102	1048576	16	4282
2026-01-05 00:23:53.95	38.36	8.17	-27.5	-28.9	13.4	8.00e-06	0	42	102	1048576	16	4218
2026-01-05 00:23:54.95	38.48	8.22	-27.3	-28.4	13.6	3.40e-06	0	42	102	1048576	16	4096
2026-01-05 00:23:55.96	38.61	8.27	-27.1	-28.6	13.7	2.20e-06	0	42	102	1048576	15	4265
2026-01-05 00:23:56.96	38.74	8.33	-27.3	-28.9	13.5	3.40e-06	0	42	102	1048576	15	4353
2026-01-05 00:23:57.97	38.87	8.38	-27.2	-28.9	13.5	4.50e-06	0	42	102	1048576	15	4344
2026-01-05 00:23:58.97	38.99	8.43	-27.2	-28.8	13.6	3.40e-06	0	42	102	1048576	15	4315
2026-01-05 00:23:59.98	39.12	8.49	-27.2	-28.7	13.6	3.40e-06	0	42	102	1048576	15	4283
2026-01-05 00:24:00.99	39.25	8.54	-27.4	-29.2	13.3	9.10e-06	0	42	102	1048576	15	4439
2026-01-05 00:24:02.00	39.38	8.59	-27.2	-28.8	13.6	5.70e-06	0	42	102	1048576	15	4321
2026-01-05 00:24:03.00	39.51	8.65	-27.2	-28.6	13.7	2.20e-06	0	42	102	1048576	15	4268
2026-01-05 00:24:04.01	39.64	8.70	-27.3	-28.9	13.5	4.50e-06	0	42	102	1048576	15	4348
2026-01-05 00:24:05.02	39.78	8.75	-27.1	-28.5	13.8	3.40e-06	0	42	102	1048576	15	4238
2026-01-05 00:24:06.03	39.91	8.81	-27.3	-29.0	13.5	4.50e-06	0	42	102	1048576	15	4366
2026-01-05 00:24:07.03	40.04	8.86	-27.1	-28.6	13.7	4.50e-06	0	42	102	1048576	15	4252
2026-01-05 00:24:08.03	40.17	8.91	-27.1	-28.6	13.7	4.50e-06	0	42	102	1048576	15	4249
2026-01-05 00:24:09.04	40.31	8.97	-27.1	-28.5	13.8	1.10e-06	0	42	102	1048576	15	4234
2026-01-05 00:24:10.04	40.44	9.02	-27.1	-28.6	13.8	0.00e+00	0	42	102	1048576	15	4255
2026-01-05 00:24:11.05	40.57	9.08	-27.1	-28.5	13.8	5.70e-06	0	42	102	1048576	15	4226
2026-01-05 00:24:12.06	40.71	9.13	-27.1	-28.4	13.9	2.20e-06	0	42	102	1048576	15	4202
2026-01-05 00:24:13.07	40.85	9.18	-27.1	-28.4	13.9	3.40e-06	0	42	102	1048576	15	4191
2026-01-05 00:24:14.07	40.98	9.24	-27.1	-28.5	13.8	3.40e-06	0	42	102	1048576	15	4227
2026-01-05 00:24:15.08	41.12	9.29	-27.3	-28.9	13.6	3.40e-06	0	42	102	1048576	15	4329
2026-01-05 00:24:16.09	41.25	9.34	-27.1	-28.5	13.8	3.40e-06	0	42	102	1048576	15	4210
2026-01-05 00:24:17.10	41.39	9.40	-26.9	-28.0	14.1	3.40e-06	0	42	102	1048576	15	4083
2026-01-05 00:24:18.10	41.53	9.45	-26.8	-27.8	13.6	0.00e+00	0	42	102	1048576	15	4026
2026-01-05 00:24:19.11	41.67	9.50	-26.8	-28.4	13.7	0.00e+00	0	42	102	1048576	14	4299
2026-01-05 00:24:20.11	41.81	9.56	-26.9	-28.4	14.2	0.00e+00	0	42	102	1048576	14	4309
2026-01-05 00:24:21.12	41.94	9.61	-26.9	-28.5	14.1	1.10e-06	0	42	102	1048576	14	4321
2026-01-05 00:24:22.12	42.08	9.66	-27.0	-28.7	14.0	1.10e-06	0	42	102	1048576	14	4401
2026-01-05 00:24:23.12	42.22	9.71	-26.9	-28.6	14.1	0.00e+00	0	42	102	1048576	14	4368
2026-01-05 00:24:24.13	42.36	9.77	-26.9	-28.5	14.2	0.00e+00	0	42	102	1048576	14	4336
2026-01-05 00:24:25.14	42.51	9.82	-27.0	-28.7	14.0	4.57e-05	0	42	102	1048576	14	4392
2026-01-05 00:24:26.15	42.65	9.87	-26.9	-28.4	14.3	0.00e+00	0	42	102	1048576	14	4305
2026-01-05 00:24:27.15	42.79	9.93	-26.9	-28.5	14.2	2.86e-05	0	42	102	1048576	14	4331
2026-01-05 00:24:28.16	42.93	9.98	-26.8	-28.3	14.3	1.10e-06	0	42	102	1048576	14	4278
2026-01-05 00:24:29.15	43.07	10.03	-26.7	-28.1	14.4	0.00e+00	0	42	102	1048576	14	4225
2026-01-05 00:24:30.15	43.22	10.08	-26.6	-27.9	14.5	2.51e-04	0	42	102	1048576	14	4165
2026-01-05 00:24:31.16	43.36	10.14	-26.9	-28.4	14.3	0.00e+00	0	42	102	1048576	14	4293
2026-01-05 00:24:32.16	43.50	10.19	-26.8	-28.2	14.4	0.00e+00	0	42	102	1048576	14	4255
2026-01-05 00:24:33.16	43.65	10.24	-26.7	-28.1	14.4	0.00e+00	0	42	102	1048576	14	4230
2026-01-05 00:24:34.17	43.79	10.30	-26.8	-28.2	14.4	3.47e-04	0	42	102	1048576	14	4248
2026-01-05 00:24:35.18	43.94	10.35	-26.7	-28.2	14.4	2.20e-06	0	43	102	1048576	14	4234
2026-01-05 00:24:36.18	44.09	10.40	-26.7	-28.0	14.5	3.76e-04	0	43	102	1048576	14	4195
2026-01-05 00:24:37.19	44.23	10.45	-26.8	-28.7	14.4	4.19e-04	0	42	102	1048576	13	4496
2026-01-05 00:24:38.20	44.38	10.51	-26.7	-28.6	14.4	0.00e+00	0	42	102	1048576	13	4478
2026-01-05 00:24:39.20	44.53	10.56	-26.8	-28.8	14.3	4.51e-04	0	43	102	1048576	13	4514
2026-01-05 00:24:40.21	44.68	10.61	-26.8	-28.8	14.3	0.00e+00	0	43	102	1048576	13	4522
2026-01-05 00:24:41.22	44.83	10.66	-26.8	-28.9	14.3	0.00e+00	0	42	102	1048576	13	4549
2026-01-05 00:24:42.23	44.98	10.72	-26.9	-29.0	14.2	2.59e-04	0	43	102	1048576	13	4591
2026-01-05 00:24:43.23	45.13	10.77	-26.8	-28.7	14.3	3.47e-04	0	43	102	1048576	13	4511
2026-01-05 00:24:44.24	45.28	10.82	-26.9	-28.9	14.3	0.00e+00	0	43	102	1048576	13	4569
2026-01-05 00:24:45.24	45.43	10.87	-27.0	-28.8	14.0	2.75e-04	0	42	102	1048576	14	4422
2026-01-05 00:24:46.24	45.58	10.92	-27.1	-29.0	13.9	2.12e-04	0	43	102	1048576	14	4485
2026-01-05 00:24:47.25	45.73	10.98	-26.9	-28.6	14.1	1.10e-06	0	43	102	1048576	14	4364
2026-01-05 00:24:48.26	45.89	11.03	-26.9	-28.6	14.2	4.92e-05	0	43	102	1048576	14	4361
2026-01-05 00:24:49.27	46.04	11.08	-26.9	-28.6	14.2	1.10e-06	0	43	102	1048576	14	4358
2026-01-05 00:24:50.28	46.20	11.13	-26.9	-28.7	14.1	0.00e+00	0	43	102	1048576	14	4416
2026-01-05 00:24:51.28	46.35	11.18	-26.5	-28.1	14.2	1.67e-04	0	43	102	1048576	14	4312
2026-01-05 00:24:52.28	46.50	11.23	-26.3	-27.8	14.3	2.00e-04	0	43	102	1048576	14	4281
2026-01-05 00:24:53.29	46.66	11.29	-26.4	-28.0	14.2	0.00e+00	0	43	102	1048576	14	4314
2026-01-05 00:24:54.30	46.82	11.34	-26.7	-28.3	14.2	0.00e+00	0	43	102	1048576	14	4327
2026-01-05 00:24:55.31	46.97	11.39	-27.0	-28.7	14.1	1.49e-04	0	43	102	1048576	14	4393
2026-01-05 00:24:56.32	47.13	11.44	-26.7	-28.1	14.5	0.00e+00	0	43	102	1048576	14	4215
2026-01-05 00:24:57.32	47.29	11.49	-26.5	-27.6	14.8	1.38e-04	0	43	102	1048576	14	4093
2026-01-05 00:24:58.33	47.45	11.54	-26.4	-27.4	14.9	0.00e+00	0	43	102	1048576	14	4036
2026-01-05 00:24:59.33	47.60	11.59	-26.4	-27.3	15.0	0.00e+00	0	43	102	1048576	14	4006
2026-01-05 00:25:00.34	47.76	11.65	-26.5	-27.5	14.9	0.00e+00	0	43	102	1048576	14	4048
2026-01-05 00:25:01.34	47.92	11.70	-26.5	-28.1	14.8	0.00e+00	0	43	102	1048576	13	4316
2026-01-05 00:25:02.35	48.08	11.75	-26.4	-27.8	14.9	0.00e+00	0	43	102	1048576	13	4247
2026-01-05 00:25:03.35	48.24	11.80	-26.4	-27.8	15.0	0.00e+00	0	43	102	1048576	13	4239
2026-01-05 00:25:04.35	48.40	11.85	-26.5	-28.0	14.9	4.89e-04	0	43	102	1048576	13	4286
2026-01-05 00:25:05.36	48.57	11.90	-26.4	-27.8	15.0	0.00e+00	0	43	102	1048576	13	4250
2026-01-05 00:25:06.36	48.73	11.95	-26.4	-28.4	14.9	0.00e+00	0	43	102	1048576	12	4533
2026-01-05 00:25:07.36	48.89	12.00	-26.3	-28.2	15.1	0.00e+00	0	43	102	1048576	12	4463
2026-01-05 00:25:08.37	49.05	12.05	-26.3	-28.2	15.1	0.00e+00	0	43	102	1048576	12	4453
2026-01-05 00:25:09.38	49.22	12.10	-26.2	-28.0	15.2	0.00e+00	0	43	102	1048576	12	4399
2026-01-05 00:25:10.39	49.38	12.15	-26.3	-28.0	15.2	0.00e+00	0	43	102	1048576	12	4411
2026-01-05 00:25:11.39	49.55	12.20	-26.3	-28.1	15.1	0.00e+00	0	43	102	1048576	12	4426
2026-01-05 00:25:12.40	49.71	12.25	-26.3	-28.2	15.1	0.00e+00	0	43	102	1048576	12	4451
2026-01-05 00:25:13.41	49.88	12.30	-26.3	-28.0	15.2	0.00e+00	0	43	102	1048576	12	4414
2026-01-05 00:25:14.42	50.05	12.35	-26.2	-27.9	15.2	0.00e+00	0	43	102	1048576	12	4369
2026-01-05 00:25:15.43	50.22	12.40	-26.2	-27.9	15.2	0.00e+00	0	43	102	1048576	12	4370
2026-01-05 00:25:16.43	50.38	12.45	-26.2	-28.0	15.2	0.00e+00	0	43	102	1048576	12	4389
2026-01-05 00:25:17.44	50.55	12.50	-26.3	-28.0	15.2	0.00e+00	0	43	102	1048576	12	4413
2026-01-05 00:25:18.45	50.72	12.55	-26.2	-27.8	15.3	0.00e+00	0	43	102	1048576	12	4352
2026-01-05 00:25:19.46	50.89	12.59	-26.1	-27.8	15.3	0.00e+00	0	43	102	1048576	12	4333
2026-01-05 00:25:20.47	51.06	12.64	-26.1	-27.7	15.4	0.00e+00	0	43	102	1048576	12	4318
2026-01-05 00:25:21.47	51.23	12.69	-26.1	-27.6	15.4	0.00e+00	0	43	102	1048576	12	4283
2026-01-05 00:25:22.48	51.40	12.74	-26.0	-27.4	15.5	0.00e+00	0	43	102	1048576	12	4246
2026-01-05 00:25:23.49	51.58	12.79	-26.2	-27.8	15.3	0.00e+00	0	43	102	1048576	12	4335
2026-01-05 00:25:24.50	51.75	12.84	-26.3	-28.0	15.2	0.00e+00	0	43	102	1048576	12	4401
2026-01-05 00:25:25.51	51.92	12.89	-26.2	-28.0	15.2	0.00e+00	0	43	102	1048576	12	4393
2026-01-05 00:25:26.52	52.10	12.93	-26.3	-28.2	15.1	0.00e+00	0	43	102	1048576	12	4452
2026-01-05 00:25:27.52	52.27	12.98	-26.3	-28.2	15.1	0.00e+00	0	43	102	1048576	12	4447
2026-01-05 00:25:28.52	52.44	13.03	-26.3	-28.1	15.1	0.00e+00	0	43	102	1048576	12	4432
2026-01-05 00:25:29.53	52.62	13.08	-26.1	-27.7	15.4	0.00e+00	0	43	102	1048576	12	4321
2026-01-05 00:25:30.54	52.80	13.12	-26.0	-27.5	15.5	0.00e+00	0	43	102	1048576	12	4269
2026-01-05 00:25:31.54	52.97	13.17	-26.1	-27.6	15.5	0.00e+00	0	43	102	1048576	12	4284
2026-01-05 00:25:32.55	53.15	13.22	-26.0	-27.4	15.6	0.00e+00	0	43	102	1048576	12	4228
2026-01-05 00:25:33.55	53.32	13.27	-26.1	-27.6	15.5	0.00e+00	0	43	102	1048576	12	4289
2026-01-05 00:25:34.56	53.50	13.31	-26.0	-27.3	15.6	0.00e+00	0	43	102	1048576	12	4216
2026-01-05 00:25:35.57	53.68	13.36	-25.9	-27.1	15.7	0.00e+00	0	43	102	1048576	12	4159
2026-01-05 00:25:36.57	53.86	13.41	-26.0	-27.4	15.6	0.00e+00	0	43	102	1048576	12	4221
2026-01-05 00:25:37.58	54.04	13.45	-26.2	-27.8	15.4	0.00e+00	0	43	102	1048576	12	4342
2026-01-05 00:25:38.58	54.22	13.50	-26.1	-27.7	15.4	0.00e+00	0	43	102	1048576	12	4319
2026-01-05 00:25:39.58	54.40	13.54	-26.2	-27.8	15.3	0.00e+00	0	43	102	1048576	12	4357
2026-01-05 00:25:40.59	54.58	13.59	-26.3	-28.1	15.1	0.00e+00	0	43	102	1048576	12	4439
2026-01-05 00:25:41.59	54.76	13.63	-26.3	-28.1	15.2	0.00e+00	0	43	102	1048576	12	4438
2026-01-05 00:25:42.60	54.94	13.68	-26.3	-28.0	15.3	0.00e+00	0	43	102	1048576	12	4414
2026-01-05 00:25:43.61	55.13	13.73	-26.2	-27.9	15.3	0.00e+00	0	43	102	1048576	12	4380
2026-01-05 00:25:44.62	55.31	13.77	-26.4	-28.3	15.0	0.00e+00	0	43	102	1048576	12	4484
2026-01-05 00:25:45.63	55.50	13.82	-26.3	-28.1	15.2	0.00e+00	0	43	102	1048576	12	4433
2026-01-05 00:25:46.63	55.68	13.86	-26.3	-28.1	15.2	0.00e+00	0	43	102	1048576	12	4434
2026-01-05 00:25:47.63	55.86	13.90	-26.3	-28.0	15.2	0.00e+00	0	43	102	1048576	12	4402
2026-01-05 00:25:48.63	56.05	13.95	-26.0	-27.5	15.5	0.00e+00	0	43	102	1048576	12	4255
2026-01-05 00:25:49.63	56.23	13.99	-25.9	-27.1	15.7	0.00e+00	0	43	102	1048576	12	4148
2026-01-05 00:25:50.64	56.42	14.04	-25.8	-27.5	15.9	0.00e+00	0	43	102	1048576	11	4367
2026-01-05 00:25:51.65	56.61	14.08	-25.9	-27.8	15.7	6.42e-04	0	43	102	1048576	11	4442
2026-01-05 00:25:52.66	56.80	14.12	-26.0	-27.5	15.5	0.00e+00	0	43	102	1048576	12	4255
2026-01-05 00:25:53.66	56.98	14.17	-26.4	-28.3	15.1	5.68e-04	0	43	102	1048576	12	4476
2026-01-05 00:25:54.67	57.17	14.21	-26.3	-27.7	15.2	0.00e+00	0	43	102	1048576	13	4203
2026-01-05 00:25:55.68	57.36	14.25	-26.1	-27.2	15.4	0.00e+00	0	43	102	1048576	13	4065
2026-01-05 00:25:56.68	57.55	14.30	-26.0	-27.3	15.6	0.00e+00	0	43	102	1048576	12	4212
2026-01-05 00:25:57.69	57.74	14.34	-25.9	-27.1	15.7	0.00e+00	0	43	102	1048576	12	4167
2026-01-05 00:25:58.70	57.93	14.38	-25.8	-27.1	15.7	0.00e+00	0	43	102	1048576	12	4145
2026-01-05 00:25:59.70	58.12	14.42	-25.8	-27.5	15.9	0.00e+00	0	43	102	1048576	11	4380
2026-01-05 00:26:00.71	58.32	14.47	-25.8	-27.4	15.9	8.04e-04	0	43	102	1048576	11	4353
2026-01-05 00:26:01.71	58.51	14.51	-25.6	-27.1	16.1	0.00e+00	0	43	102	1048576	11	4261
2026-01-05 00:26:02.72	58.70	14.55	-25.6	-27.1	16.1	5.83e-04	0	43	102	1048576	11	4261
2026-01-05 00:26:03.73	58.89	14.59	-25.7	-27.2	16.1	4.59e-04	0	43	102	1048576	11	4269
2026-01-05 00:26:04.73	59.09	14.63	-25.8	-27.4	16.0	0.00e+00	0	43	102	1048576	11	4340
2026-01-05 00:26:05.74	59.28	14.67	-25.9	-27.6	15.9	3.68e-04	0	43	102	1048576	11	4386
2026-01-05 00:26:06.75	59.48	14.71	-25.7	-27.3	16.0	2.88e-04	0	43	102	1048576	11	4325
2026-01-05 00:26:07.76	59.67	14.75	-25.8	-27.4	16.0	0.00e+00	0	43	102	1048576	11	4332
2026-01-05 00:26:08.76	59.87	14.79	-25.7	-27.3	16.0	0.00e+00	0	43	102	1048576	11	4325
2026-01-05 00:26:09.77	60.07	14.83	-25.7	-27.2	16.0	2.77e-04	0	43	102	1048576	11	4288
2026-01-05 00:26:10.77	60.26	14.87	-25.9	-27.6	15.9	0.00e+00	0	43	102	1048576	11	4396
2026-01-05 00:26:11.78	60.46	14.91	-25.7	-27.2	16.0	1.48e-04	0	43	102	1048576	11	4285
2026-01-05 00:26:12.79	60.66	14.95	-25.6	-27.1	16.1	3.27e-04	0	43	102	1048576	11	4258
2026-01-05 00:26:13.80	60.86	14.99	-25.5	-26.9	16.2	0.00e+00	0	43	102	1048576	11	4210
2026-01-05 00:26:14.80	61.06	15.03	-25.6	-27.1	16.1	4.11e-04	0	43	102	1048576	11	4252
2026-01-05 00:26:15.80	61.26	15.07	-25.6	-27.0	16.2	0.00e+00	0	43	102	1048576	11	4222
2026-01-05 00:26:16.81	61.46	15.10	-25.5	-26.8	16.3	0.00e+00	0	43	102	1048576	11	4179
2026-01-05 00:26:17.81	61.66	15.14	-25.6	-26.9	16.2	2.71e-04	0	43	102	1048576	11	4209
2026-01-05 00:26:18.82	61.86	15.18	-25.5	-26.8	16.3	4.24e-04	0	43	102	1048576	11	4176
2026-01-05 00:26:19.83	62.06	15.22	-25.4	-26.7	16.4	0.00e+00	0	43	102	1048576	11	4143
2026-01-05 00:26:20.83	62.26	15.25	-25.5	-26.7	16.3	9.43e-04	0	43	102	1048576	11	4164
2026-01-05 00:26:21.84	62.47	15.29	-25.7	-27.2	16.1	9.90e-04	0	43	102	1048576	11	4277
2026-01-05 00:26:22.85	62.67	15.33	-25.6	-27.0	16.2	0.00e+00	0	43	102	1048576	11	4221
2026-01-05 00:26:23.86	62.87	15.36	-25.5	-26.8	16.3	1.12e-03	0	43	102	1048576	11	4188
2026-01-05 00:26:24.86	63.08	15.40	-25.5	-26.9	16.3	0.00e+00	0	43	102	1048576	11	4208
2026-01-05 00:26:25.87	63.28	15.43	-25.5	-26.7	16.4	0.00e+00	0	43	102	1048576	11	4148
2026-01-05 00:26:26.88	63.49	15.47	-25.5	-26.8	16.3	0.00e+00	0	43	102	1048576	11	4168
2026-01-05 00:26:27.89	63.69	15.50	-25.6	-27.1	16.2	0.00e+00	0	43	102	1048576	11	4256
2026-01-05 00:26:28.90	63.90	15.54	-25.4	-26.5	16.5	0.00e+00	0	43	102	1048576	11	4109
2026-01-05 00:26:29.91	64.11	15.57	-25.3	-27.0	16.5	0.00e+00	0	43	102	1048576	10	4343
2026-01-05 00:26:30.91	64.31	15.61	-25.4	-27.1	16.4	8.91e-04	0	43	102	1048576	10	4375
2026-01-05 00:26:31.92	64.52	15.64	-25.4	-27.1	16.4	0.00e+00	0	43	102	1048576	10	4366
2026-01-05 00:26:32.93	64.73	15.67	-25.5	-26.8	16.3	8.60e-04	0	43	102	1048576	11	4194
2026-01-05 00:26:33.94	64.94	15.71	-25.5	-26.9	16.3	0.00e+00	0	43	102	1048576	11	4208
2026-01-05 00:26:34.95	65.15	15.74	-25.7	-27.2	16.1	0.00e+00	0	43	102	1048576	11	4274
2026-01-05 00:26:35.95	65.36	15.77	-25.5	-26.7	16.3	0.00e+00	0	43	102	1048576	11	4166
2026-01-05 00:26:36.95	65.57	15.80	-25.5	-26.9	16.3	0.00e+00	0	43	102	1048576	11	4207
2026-01-05 00:26:37.96	65.78	15.84	-25.7	-27.2	16.1	0.00e+00	0	44	102	1048576	11	4286
2026-01-05 00:26:38.97	65.99	15.87	-25.4	-26.6	16.4	0.00e+00	0	43	102	1048576	11	4131
2026-01-05 00:26:39.98	66.20	15.90	-25.6	-27.0	16.2	0.00e+00	0	43	102	1048576	11	4236
2026-01-05 00:26:40.99	66.41	15.93	-25.4	-26.5	16.4	0.00e+00	0	43	102	1048576	11	4102
2026-01-05 00:26:41.99	66.62	15.96	-25.3	-26.4	16.5	0.00e+00	0	43	102	1048576	11	4085
2026-01-05 00:26:42.99	66.83	15.99	-25.4	-26.5	16.5	0.00e+00	0	43	102	1048576	11	4103
2026-01-05 00:26:44.00	67.05	16.02	-25.4	-26.6	16.4	0.00e+00	0	43	102	1048576	11	4125
2026-01-05 00:26:45.01	67.26	16.05	-25.5	-26.8	16.3	0.00e+00	0	43	102	1048576	11	4180
2026-01-05 00:26:46.02	67.48	16.08	-25.7	-27.2	16.1	0.00e+00	0	43	102	1048576	11	4291
2026-01-05 00:26:47.03	67.69	16.11	-25.6	-26.9	16.2	0.00e+00	0	43	102	1048576	11	4218
2026-01-05 00:26:48.03	67.90	16.14	-25.5	-26.8	16.3	0.00e+00	0	43	102	1048576	11	4194
2026-01-05 00:26:49.04	68.12	16.16	-25.6	-27.0	16.2	0.00e+00	0	44	102	1048576	11	4228
2026-01-05 00:26:50.04	68.33	16.19	-25.4	-26.6	16.4	0.00e+00	0	43	102	1048576	11	4121
2026-01-05 00:26:51.05	68.55	16.22	-25.4	-26.6	16.4	0.00e+00	0	43	102	1048576	11	4126
2026-01-05 00:26:52.06	68.77	16.25	-25.4	-26.6	16.4	0.00e+00	0	43	102	1048576	11	4138
2026-01-05 00:26:53.06	68.98	16.27	-25.3	-26.5	16.5	0.00e+00	0	43	102	1048576	11	4100
2026-01-05 00:26:54.06	69.20	16.30	-25.4	-26.6	16.4	0.00e+00	0	43	102	1048576	11	4142
2026-01-05 00:26:55.07	69.41	16.33	-25.2	-26.2	16.6	0.00e+00	0	43	102	1048576	11	4019
2026-01-05 00:26:56.08	69.63	16.35	-25.2	-26.1	16.7	0.00e+00	0	43	102	1048576	11	4016
2026-01-05 00:26:57.09	69.85	16.38	-25.4	-26.5	16.4	0.00e+00	0	43	102	1048576	11	4112
2026-01-05 00:26:58.10	70.07	16.40	-25.4	-26.5	16.5	0.00e+00	0	43	102	1048576	11	4101
2026-01-05 00:26:59.10	70.29	16.43	-25.7	-27.2	16.1	0.00e+00	0	43	102	1048576	11	4295
2026-01-05 00:27:00.10	70.50	16.45	-25.6	-27.0	16.2	0.00e+00	0	43	102	1048576	11	4249
2026-01-05 00:27:01.11	70.72	16.47	-25.7	-27.3	16.0	0.00e+00	0	43	102	1048576	11	4325
2026-01-05 00:27:02.12	70.94	16.50	-25.6	-26.9	16.2	0.00e+00	0	43	102	1048576	11	4214
2026-01-05 00:27:03.13	71.17	16.52	-25.5	-26.9	16.3	0.00e+00	0	44	102	1048576	11	4200
2026-01-05 00:27:04.13	71.38	16.54	-25.4	-26.6	16.4	0.00e+00	0	43	102	1048576	11	4139
2026-01-05 00:27:05.14	71.61	16.57	-25.3	-26.4	16.5	0.00e+00	0	43	102	1048576	11	4073
2026-01-05 00:27:06.14	71.83	16.59	-25.3	-26.3	16.6	0.00e+00	0	43	102	1048576	11	4055
2026-01-05 00:27:07.15	72.05	16.61	-25.4	-26.6	16.4	0.00e+00	0	44	102	1048576	11	4123
2026-01-05 00:27:08.15	72.27	16.63	-25.3	-26.3	16.6	0.00e+00	0	43	102	1048576	11	4052
2026-01-05 00:27:09.16	72.49	16.65	-25.2	-26.1	16.2	2.20e-06	0	43	102	1048576	11	3992
2026-01-05 00:27:10.17	72.71	16.67	-25.2	-26.1	16.6	0.00e+00	0	43	102	1048576	11	4013
2026-01-05 00:27:11.17	72.93	16.69	-25.2	-26.0	16.7	0.00e+00	0	44	102	1048576	11	3987
2026-01-05 00:27:12.18	73.16	16.71	-25.2	-26.1	16.6	2.20e-06	0	43	102	1048576	11	4007
2026-01-05 00:27:13.19	73.38	16.73	-25.3	-26.4	16.5	0.00e+00	0	43	102	1048576	11	4075
2026-01-05 00:27:14.20	73.61	16.75	-25.1	-26.0	16.7	0.00e+00	0	43	102	1048576	11	3977
2026-01-05 00:27:15.21	73.83	16.77	-25.1	-26.0	16.7	1.70e-04	0	43	102	1048576	11	3983
2026-01-05 00:27:16.21	74.05	16.79	-25.2	-26.1	16.6	0.00e+00	0	43	102	1048576	11	4016
2026-01-05 00:27:17.22	74.28	16.80	-25.2	-26.3	16.5	1.50e-04	0	43	102	1048576	11	4066
2026-01-05 00:27:18.23	74.50	16.82	-25.1	-26.0	16.6	4.50e-06	0	43	102	1048576	11	4003
2026-01-05 00:27:19.23	74.73	16.84	-25.1	-26.0	16.6	0.00e+00	0	43	102	1048576	11	3994
2026-01-05 00:27:20.23	74.95	16.85	-25.2	-26.2	16.5	6.40e-05	0	43	102	1048576	11	4041
2026-01-05 00:27:21.24	75.18	16.87	-25.2	-26.2	16.5	1.10e-06	0	43	102	1048576	11	4046
2026-01-05 00:27:22.25	75.40	16.89	-25.2	-26.3	16.5	0.00e+00	0	43	102	1048576	11	4061
2026-01-05 00:27:23.26	75.63	16.90	-25.3	-26.4	16.4	1.14e-05	0	43	102	1048576	11	4082
2026-01-05 00:27:24.26	75.85	16.92	-25.0	-25.8	16.7	1.27e-04	0	44	102	1048576	11	3954
2026-01-05 00:27:25.27	76.08	16.93	-25.0	-25.7	16.8	0.00e+00	0	44	102	1048576	11	3917
2026-01-05 00:27:26.27	76.30	16.94	-24.9	-25.7	16.8	1.96e-04	0	43	102	1048576	11	3908
2026-01-05 00:27:27.28	76.53	16.96	-25.0	-25.7	16.8	1.54e-04	0	43	102	1048576	11	3925
2026-01-05 00:27:28.29	76.76	16.97	-25.0	-25.8	16.7	0.00e+00	0	43	102	1048576	11	3935
2026-01-05 00:27:29.29	76.98	16.98	-25.1	-25.9	16.7	2.69e-04	0	44	102	1048576	11	3970
2026-01-05 00:27:30.30	77.21	17.00	-25.1	-26.0	16.6	0.00e+00	0	43	102	1048576	11	4003
2026-01-05 00:27:31.31	77.44	17.01	-25.0	-25.8	16.8	0.00e+00	0	44	102	1048576	11	3936
2026-01-05 00:27:32.31	77.67	17.02	-25.1	-26.4	16.7	3.71e-04	0	43	102	1048576	10	4210
2026-01-05 00:27:33.32	77.89	17.03	-25.1	-26.5	16.6	3.89e-04	0	43	102	1048576	10	4227
2026-01-05 00:27:34.32	78.12	17.04	-25.1	-26.5	16.6	0.00e+00	0	43	102	1048576	10	4241
2026-01-05 00:27:35.32	78.35	17.05	-25.1	-26.5	16.6	2.77e-04	0	44	102	1048576	10	4237
2026-01-05 00:27:36.33	78.58	17.06	-25.2	-26.6	16.5	2.05e-04	0	44	102	1048576	10	4262
2026-01-05 00:27:37.33	78.80	17.07	-25.1	-26.6	16.6	0.00e+00	0	44	102	1048576	10	4251
2026-01-05 00:27:38.33	79.03	17.08	-25.0	-26.4	16.7	1.21e-04	0	43	102	1048576	10	4194
2026-01-05 00:27:39.34	79.26	17.09	-25.1	-26.5	16.6	1.77e-04	0	44	102	1048576	10	4218
2026-01-05 00:27:40.35	79.49	17.09	-25.0	-26.4	16.7	0.00e+00	0	44	102	1048576	10	4202
2026-01-05 00:27:41.35	79.72	17.10	-25.0	-26.4	16.7	2.14e-04	0	44	102	1048576	10	4202
2026-01-05 00:27:42.36	79.94	17.11	-25.1	-26.5	16.6	2.16e-04	0	43	102	1048576	10	4225
2026-01-05 00:27:43.37	80.17	17.12	-25.1	-26.6	16.6	0.00e+00	0	44	102	1048576	10	4252
2026-01-05 00:27:44.37	80.40	17.12	-25.0	-26.4	16.6	0.00e+00	0	44	102	1048576	10	4195
2026-01-05 00:27:45.38	80.63	17.13	-25.1	-26.4	16.7	3.88e-04	0	43	102	1048576	10	4205
2026-01-05 00:27:46.39	80.86	17.13	-25.1	-26.5	16.6	0.00e+00	0	43	102	1048576	10	4245
2026-01-05 00:27:47.39	81.09	17.14	-25.1	-26.4	16.6	3.44e-04	0	43	102	1048576	10	4218
2026-01-05 00:27:48.40	81.32	17.14	-25.1	-26.5	16.6	0.00e+00	0	44	102	1048576	10	4221
2026-01-05 00:27:49.41	81.55	17.15	-25.0	-26.3	16.7	0.00e+00	0	43	102	1048576	10	4191
2026-01-05 00:27:50.42	81.78	17.15	-25.0	-26.2	16.8	2.20e-06	0	43	102	1048576	10	4159
2026-01-05 00:27:51.43	82.01	17.15	-25.1	-26.4	16.6	0.00e+00	0	44	102	1048576	10	4215
2026-01-05 00:27:52.43	82.24	17.16	-25.1	-26.5	16.6	0.00e+00	0	44	102	1048576	10	4231
2026-01-05 00:27:53.44	82.47	17.16	-25.2	-26.7	16.4	0.00e+00	0	43	102	1048576	10	4296
2026-01-05 00:27:54.44	82.70	17.16	-25.3	-27.0	16.3	1.15e-04	0	43	102	1048576	10	4361
2026-01-05 00:27:55.45	82.93	17.16	-25.4	-27.2	16.2	0.00e+00	0	43	102	1048576	10	4429
2026-01-05 00:27:56.45	83.16	17.16	-25.3	-26.9	16.3	6.80e-06	0	43	102	1048576	10	4350
2026-01-05 00:27:57.46	83.39	17.16	-25.3	-27.0	16.3	0.00e+00	0	44	102	1048576	10	4373
2026-01-05 00:27:58.46	83.62	17.16	-25.4	-27.1	16.2	0.00e+00	0	44	102	1048576	10	4402
2026-01-05 00:27:59.46	83.84	17.16	-25.2	-26.8	16.4	0.00e+00	0	43	102	1048576	10	4315
2026-01-05 00:28:00.47	84.07	17.16	-25.2	-26.8	16.4	0.00e+00	0	43	102	1048576	10	4315
2026-01-05 00:28:01.48	84.31	17.16	-25.2	-26.6	16.5	0.00e+00	0	44	102	1048576	10	4272
2026-01-05 00:28:02.49	84.54	17.16	-25.2	-26.7	16.5	0.00e+00	0	44	102	1048576	10	4286
2026-01-05 00:28:03.50	84.77	17.16	-25.2	-26.8	16.4	0.00e+00	0	43	102	1048576	10	4315
2026-01-05 00:28:04.50	84.99	17.15	-25.2	-26.7	16.5	0.00e+00	0	43	102	1048576	10	4286
2026-01-05 00:28:05.51	85.22	17.15	-25.2	-26.7	16.5	0.00e+00	0	43	102	1048576	10	4271
2026-01-05 00:28:06.52	85.46	17.15	-25.1	-26.5	16.6	0.00e+00	0	43	102	1048576	10	4234
2026-01-05 00:28:07.52	85.68	17.14	-24.9	-26.1	16.8	0.00e+00	0	44	102	1048576	10	4134
2026-01-05 00:28:08.53	85.91	17.14	-24.8	-25.9	16.9	0.00e+00	0	43	102	1048576	10	4080
2026-01-05 00:28:09.54	86.14	17.13	-24.9	-26.1	16.8	0.00e+00	0	43	102	1048576	10	4121
2026-01-05 00:28:10.55	86.37	17.13	-25.0	-26.2	16.7	0.00e+00	0	43	102	1048576	10	4147
2026-01-05 00:28:11.55	86.60	17.12	-25.1	-26.5	16.6	0.00e+00	0	43	102	1048576	10	4228
2026-01-05 00:28:12.56	86.83	17.12	-25.1	-26.5	16.5	0.00e+00	0	44	102	1048576	10	4239
2026-01-05 00:28:13.57	87.06	17.11	-25.1	-26.5	16.6	0.00e+00	0	43	102	1048576	10	4227
2026-01-05 00:28:14.58	87.29	17.10	-25.1	-26.5	16.5	0.00e+00	0	43	102	1048576	10	4245
2026-01-05 00:28:15.59	87.52	17.10	-25.2	-26.7	16.4	0.00e+00	0	44	102	1048576	10	4293
2026-01-05 00:28:16.59	87.75	17.09	-25.3	-26.9	16.3	0.00e+00	0	44	102	1048576	10	4335
2026-01-05 00:28:17.60	87.98	17.08	-25.2	-26.8	16.3	0.00e+00	0	44	102	1048576	10	4325
2026-01-05 00:28:18.61	88.21	17.07	-25.1	-26.5	16.5	0.00e+00	0	44	102	1048576	10	4244
2026-01-05 00:28:19.62	88.44	17.06	-25.1	-26.6	16.5	0.00e+00	0	44	102	1048576	10	4263
2026-01-05 00:28:20.63	88.67	17.05	-25.2	-26.7	16.4	0.00e+00	0	44	102	1048576	10	4277
2026-01-05 00:28:21.64	88.90	17.04	-25.2	-26.8	16.4	0.00e+00	0	44	102	1048576	10	4313
2026-01-05 00:28:22.65	89.12	17.03	-25.2	-26.7	16.4	0.00e+00	0	44	102	1048576	10	4301
2026-01-05 00:28:23.66	89.35	17.02	-25.2	-26.8	16.4	0.00e+00	0	43	102	1048576	10	4322
2026-01-05 00:28:24.66	89.58	17.01	-25.2	-26.7	16.4	0.00e+00	0	43	102	1048576	10	4295
2026-01-05 00:28:25.67	89.81	17.00	-25.2	-26.6	16.5	0.00e+00	0	44	102	1048576	10	4269
2026-01-05 00:28:26.68	90.04	16.99	-25.3	-26.9	16.3	0.00e+00	0	43	102	1048576	10	4342
2026-01-05 00:28:27.69	90.26	16.97	-25.3	-27.0	16.3	0.00e+00	0	43	102	1048576	10	4365
2026-01-05 00:28:28.69	90.49	16.96	-25.3	-26.9	16.3	0.00e+00	0	44	102	1048576	10	4340
2026-01-05 00:28:29.70	90.72	16.95	-25.4	-27.1	16.2	0.00e+00	0	43	102	1048576	10	4404
2026-01-05 00:28:30.71	90.94	16.93	-25.4	-27.2	16.1	0.00e+00	0	43	102	1048576	10	4430
2026-01-05 00:28:31.71	91.17	16.92	-25.5	-27.4	16.1	0.00e+00	0	44	102	1048576	10	4484
2026-01-05 00:28:32.73	91.40	16.91	-25.5	-26.9	16.0	0.00e+00	0	43	102	1048576	11	4241
2026-01-05 00:28:33.73	91.62	16.89	-25.5	-26.9	16.0	0.00e+00	0	43	102	1048576	11	4251
2026-01-05 00:28:34.74	91.85	16.88	-25.4	-26.7	16.2	0.00e+00	0	43	102	1048576	11	4171
2026-01-05 00:28:35.74	92.07	16.86	-25.4	-26.6	16.2	0.00e+00	0	43	102	1048576	11	4157
2026-01-05 00:28:36.75	92.30	16.84	-25.3	-26.4	16.3	0.00e+00	0	43	102	1048576	11	4106
2026-01-05 00:28:37.76	92.53	16.83	-25.2	-26.3	16.4	1.10e-06	0	43	102	1048576	11	4070
2026-01-05 00:28:38.76	92.75	16.81	-25.3	-26.5	16.3	0.00e+00	0	44	102	1048576	11	4114
2026-01-05 00:28:39.77	92.98	16.79	-25.3	-26.4	16.3	0.00e+00	0	44	102	1048576	11	4094
2026-01-05 00:28:40.78	93.20	16.77	-25.2	-26.2	16.4	6.52e-05	0	44	102	1048576	11	4051
2026-01-05 00:28:41.78	93.42	16.76	-25.2	-26.3	16.3	7.20e-05	0	43	102	1048576	11	4080
2026-01-05 00:28:42.79	93.65	16.74	-25.4	-26.6	16.2	0.00e+00	0	44	102	1048576	11	4163
2026-01-05 00:28:43.80	93.87	16.72	-25.5	-26.9	16.0	2.28e-05	0	43	102	1048576	11	4228
2026-01-05 00:28:44.81	94.10	16.70	-25.4	-26.8	16.1	8.35e-05	0	44	102	1048576	11	4199
2026-01-05 00:28:45.81	94.32	16.68	-25.5	-27.0	16.0	0.00e+00	0	43	102	1048576	11	4248
2026-01-05 00:28:46.82	94.54	16.66	-25.6	-27.1	15.9	8.01e-05	0	44	102	1048576	11	4288
2026-01-05 00:28:47.83	94.77	16.64	-25.7	-27.3	15.8	3.26e-04	0	44	102	1048576	11	4351
2026-01-05 00:28:48.84	94.99	16.62	-25.8	-27.5	15.6	0.00e+00	0	44	102	1048576	11	4400
2026-01-05 00:28:49.85	95.21	16.59	-25.8	-27.7	15.6	3.40e-06	0	43	102	1048576	11	4449
2026-01-05 00:28:50.85	95.43	16.57	-25.7	-27.3	15.7	1.69e-04	0	43	102	1048576	11	4345
2026-01-05 00:28:51.85	95.65	16.55	-25.5	-27.0	15.9	0.00e+00	0	44	102	1048576	11	4266
2026-01-05 00:28:52.86	95.87	16.53	-25.6	-27.0	15.9	9.49e-05	0	43	102	1048576	11	4272
2026-01-05 00:28:53.87	96.09	16.50	-25.5	-27.0	15.9	0.00e+00	0	44	102	1048576	11	4271
2026-01-05 00:28:54.88	96.32	16.48	-25.6	-27.1	15.9	0.00e+00	0	43	102	1048576	11	4276
2026-01-05 00:28:55.88	96.53	16.46	-25.5	-26.9	16.0	0.00e+00	0	44	102	1048576	11	4222
2026-01-05 00:28:56.88	96.75	16.43	-25.6	-27.1	15.9	0.00e+00	0	43	102	1048576	11	4287
2026-01-05 00:28:57.90	96.97	16.41	-25.5	-26.9	16.0	0.00e+00	0	43	102	1048576	11	4228
2026-01-05 00:28:58.90	97.19	16.38	-25.4	-26.6	16.1	0.00e+00	0	43	102	1048576	11	4159
2026-01-05 00:28:59.91	97.41	16.36	-25.4	-26.6	16.1	3.08e-05	0	44	102	1048576	11	4152
2026-01-05 00:29:00.92	97.63	16.33	-25.4	-26.7	16.1	0.00e+00	0	43	102	1048576	11	4180
2026-01-05 00:29:01.92	97.85	16.31	-25.4	-26.7	16.1	1.72e-04	0	44	102	1048576	11	4168
2026-01-05 00:29:02.93	98.06	16.28	-25.5	-26.9	16.0	1.84e-04	0	44	102	1048576	11	4232
2026-01-05 00:29:03.94	98.28	16.25	-25.4	-26.7	16.1	0.00e+00	0	43	102	1048576	11	4169
2026-01-05 00:29:04.95	98.50	16.23	-25.4	-26.7	16.0	1.34e-04	0	44	102	1048576	11	4185
2026-01-05 00:29:05.95	98.72	16.20	-25.4	-26.8	16.0	1.79e-04	0	43	102	1048576	11	4197
2026-01-05 00:29:06.96	98.93	16.17	-25.5	-27.0	15.9	0.00e+00	0	43	102	1048576	11	4258
2026-01-05 00:29:07.97	99.15	16.14	-25.4	-26.8	16.0	9.49e-05	0	44	102	1048576	11	4209
2026-01-05 00:29:08.98	99.36	16.11	-25.4	-26.7	16.1	1.68e-04	0	43	102	1048576	11	4176
2026-01-05 00:29:09.98	99.58	16.09	-25.4	-26.6	16.1	0.00e+00	0	44	102	1048576	11	4157
2026-01-05 00:29:10.98	99.79	16.06	-25.4	-26.8	16.0	5.83e-05	0	43	102	1048576	11	4203
2026-01-05 00:29:11.99	100.01	16.03	-25.4	-26.7	16.1	0.00e+00	0	43	102	1048576	11	4163
2026-01-05 00:29:12.99	100.22	16.00	-25.4	-26.8	16.0	0.00e+00	0	43	102	1048576	11	4196
2026-01-05 00:29:13.99	100.43	15.97	-25.7	-27.3	15.7	4.23e-05	0	43	102	1048576	11	4341
2026-01-05 00:29:15.00	100.64	15.94	-25.5	-27.0	15.9	0.00e+00	0	44	102	1048576	11	4255
2026-01-05 00:29:16.01	100.86	15.91	-25.5	-27.0	15.9	0.00e+00	0	43	102	1048576	11	4265
2026-01-05 00:29:17.02	101.07	15.87	-25.6	-27.1	15.9	0.00e+00	0	43	102	1048576	11	4284
2026-01-05 00:29:18.02	101.28	15.84	-25.7	-27.3	15.7	2.95e-04	0	44	102	1048576	11	4345
2026-01-05 00:29:19.03	101.49	15.81	-25.6	-27.1	15.8	0.00e+00	0	43	102	1048576	11	4294
2026-01-05 00:29:20.03	101.70	15.78	-25.7	-27.4	15.7	0.00e+00	0	43	102	1048576	11	4360
2026-01-05 00:29:21.04	101.91	15.75	-25.9	-27.9	15.4	0.00e+00	0	43	102	1048576	11	4503
2026-01-05 00:29:22.05	102.12	15.71	-26.1	-27.7	15.1	0.00e+00	0	44	102	1048576	12	4348
2026-01-05 00:29:23.05	102.33	15.68	-26.4	-28.4	14.8	3.16e-04	0	43	102	1048576	12	4537
2026-01-05 00:29:24.06	102.54	15.65	-26.1	-27.9	15.0	0.00e+00	0	44	102	1048576	12	4392
2026-01-05 00:29:25.06	102.75	15.61	-26.0	-27.7	15.1	0.00e+00	0	44	102	1048576	12	4334
2026-01-05 00:29:26.07	102.95	15.58	-26.0	-27.7	15.1	1.10e-06	0	43	102	1048576	12	4333
2026-01-05 00:29:27.08	103.16	15.54	-26.1	-27.9	15.0	0.00e+00	0	44	102	1048576	12	4398
2026-01-05 00:29:28.08	103.37	15.51	-25.9	-27.4	15.3	0.00e+00	0	44	102	1048576	12	4255
2026-01-05 00:29:29.09	103.58	15.47	-25.8	-27.0	15.5	0.00e+00	0	43	102	1048576	12	4161
2026-01-05 00:29:30.10	103.78	15.44	-25.7	-26.9	15.6	0.00e+00	0	44	102	1048576	12	4129
2026-01-05 00:29:31.11	103.99	15.40	-25.7	-27.0	15.5	0.00e+00	0	43	102	1048576	12	4140
2026-01-05 00:29:32.11	104.19	15.37	-25.7	-26.9	15.6	0.00e+00	0	44	102	1048576	12	4119
2026-01-05 00:29:33.12	104.40	15.33	-25.7	-27.0	15.5	0.00e+00	0	44	102	1048576	12	4142
2026-01-05 00:29:34.12	104.60	15.29	-25.7	-27.0	15.5	0.00e+00	0	44	102	1048576	12	4151
2026-01-05 00:29:35.14	104.81	15.26	-25.9	-27.4	15.3	0.00e+00	0	44	102	1048576	12	4271
2026-01-05 00:29:36.14	105.01	15.22	-25.8	-27.2	15.4	0.00e+00	0	44	102	1048576	12	4203
2026-01-05 00:29:37.15	105.21	15.18	-25.7	-27.0	15.5	0.00e+00	0	44	102	1048576	12	4150
2026-01-05 00:29:38.16	105.42	15.15	-25.7	-26.9	15.5	0.00e+00	0	44	102	1048576	12	4143
2026-01-05 00:29:39.17	105.62	15.11	-25.8	-27.6	15.5	0.00e+00	0	43	102	1048576	11	4431
2026-01-05 00:29:40.17	105.82	15.07	-25.7	-27.4	15.6	0.00e+00	0	44	102	1048576	11	4369
2026-01-05 00:29:41.17	106.02	15.03	-25.8	-27.5	15.6	2.20e-06	0	43	102	1048576	11	4393
2026-01-05 00:29:42.18	106.22	14.99	-25.9	-27.7	15.4	0.00e+00	0	44	102	1048576	11	4466
2026-01-05 00:29:43.19	106.42	14.95	-25.8	-27.6	15.5	8.00e-06	0	43	102	1048576	11	4438
2026-01-05 00:29:44.20	106.62	14.91	-25.9	-27.9	15.3	2.97e-05	0	44	102	1048576	11	4515
2026-01-05 00:29:45.20	106.82	14.88	-25.8	-27.6	15.4	0.00e+00	0	43	102	1048576	11	4428
2026-01-05 00:29:46.21	107.02	14.84	-25.8	-27.5	15.5	2.17e-05	0	43	102	1048576	11	4412
2026-01-05 00:29:47.22	107.21	14.80	-25.8	-27.5	15.5	2.05e-05	0	43	102	1048576	11	4399
2026-01-05 00:29:48.22	107.41	14.76	-25.8	-27.5	15.6	0.00e+00	0	44	102	1048576	11	4386
2026-01-05 00:29:49.23	107.61	14.71	-25.8	-27.6	15.5	0.00e+00	0	44	102	1048576	11	4411
2026-01-05 00:29:50.23	107.80	14.67	-25.6	-27.2	15.7	1.83e-05	0	44	102	1048576	11	4316
2026-01-05 00:29:51.24	108.00	14.63	-25.6	-27.2	15.7	0.00e+00	0	43	102	1048576	11	4319
2026-01-05 00:29:52.24	108.19	14.59	-25.7	-27.4	15.6	1.37e-05	0	44	102	1048576	11	4363
2026-01-05 00:29:53.25	108.39	14.55	-25.7	-27.4	15.6	4.46e-05	0	44	102	1048576	11	4381
2026-01-05 00:29:54.26	108.58	14.51	-25.8	-27.6	15.4	0.00e+00	0	44	102	1048576	11	4445
2026-01-05 00:29:55.26	108.77	14.47	-25.8	-27.7	15.4	5.95e-05	0	43	102	1048576	11	4451
2026-01-05 00:29:56.27	108.97	14.42	-25.7	-27.5	15.5	0.00e+00	0	43	102	1048576	11	4398
2026-01-05 00:29:57.27	109.16	14.38	-25.8	-27.7	15.4	0.00e+00	0	43	102	1048576	11	4444
2026-01-05 00:29:58.27	109.35	14.34	-25.9	-27.8	15.3	2.51e-05	0	44	102	1048576	11	4490
2026-01-05 00:29:59.27	109.54	14.30	-25.9	-27.8	15.3	3.40e-06	0	44	102	1048576	11	4496
2026-01-05 00:30:00.27	109.73	14.26	-25.9	-27.4	15.2	0.00e+00	0	44	102	1048576	12	4261
2026-01-05 00:30:01.28	109.92	14.21	-26.0	-27.6	15.1	2.20e-06	0	44	102	1048576	12	4328
2026-01-05 00:30:02.29	110.11	14.17	-26.1	-27.8	15.0	0.00e+00	0	44	102	1048576	12	4370
2026-01-05 00:30:03.30	110.30	14.12	-26.1	-27.8	15.0	0.00e+00	0	44	102	1048576	12	4362
2026-01-05 00:30:04.30	110.49	14.08	-26.2	-28.0	14.8	3.40e-06	0	43	102	1048576	12	4442
2026-01-05 00:30:05.31	110.68	14.04	-26.2	-27.9	14.9	0.00e+00	0	43	102	1048576	12	4425
2026-01-05 00:30:06.32	110.87	13.99	-26.2	-28.1	14.8	0.00e+00	0	43	102	1048576	12	4453
2026-01-05 00:30:07.32	111.05	13.95	-26.2	-28.1	14.8	3.10e-04	0	44	102	1048576	12	4462
2026-01-05 00:30:08.33	111.24	13.90	-26.4	-28.4	14.6	0.00e+00	0	43	102	1048576	12	4555
2026-01-05 00:30:09.33	111.42	13.86	-26.1	-27.8	14.9	0.00e+00	0	44	102	1048576	12	4378
2026-01-05 00:30:10.34	111.61	13.81	-26.0	-27.5	15.1	0.00e+00	0	44	102	1048576	12	4307
2026-01-05 00:30:11.34	111.79	13.77	-26.0	-27.6	15.1	6.29e-05	0	44	102	1048576	12	4314
2026-01-05 00:30:12.35	111.98	13.72	-25.9	-27.5	15.2	0.00e+00	0	43	102	1048576	12	4289
2026-01-05 00:30:13.35	112.16	13.68	-25.9	-27.4	15.2	0.00e+00	0	43	102	1048576	12	4258
2026-01-05 00:30:14.36	112.34	13.63	-25.9	-27.3	15.2	1.65e-04	0	43	102	1048576	12	4228
2026-01-05 00:30:15.37	112.53	13.59	-25.9	-27.3	15.3	0.00e+00	0	44	102	1048576	12	4229
2026-01-05 00:30:16.37	112.71	13.54	-26.0	-27.5	15.1	1.33e-04	0	44	102	1048576	12	4293
2026-01-05 00:30:17.38	112.89	13.49	-26.0	-27.6	15.0	0.00e+00	0	44	102	1048576	12	4331
2026-01-05 00:30:18.39	113.07	13.45	-25.9	-27.4	15.1	0.00e+00	0	44	102	1048576	12	4276
2026-01-05 00:30:19.40	113.25	13.40	-26.0	-27.5	15.1	1.40e-04	0	43	102	1048576	12	4295
2026-01-05 00:30:20.40	113.43	13.35	-26.1	-27.9	14.9	0.00e+00	0	43	102	1048576	12	4398
2026-01-05 00:30:21.41	113.61	13.31	-26.1	-27.9	14.9	0.00e+00	0	44	102	1048576	12	4398
2026-01-05 00:30:22.42	113.79	13.26	-26.2	-28.0	14.8	0.00e+00	0	44	102	1048576	12	4433
2026-01-05 00:30:23.42	113.97	13.21	-26.2	-28.1	14.8	2.75e-04	0	44	102	1048576	12	4450
2026-01-05 00:30:24.43	114.15	13.16	-26.2	-28.0	14.8	0.00e+00	0	44	102	1048576	12	4436
2026-01-05 00:30:25.44	114.33	13.12	-26.2	-28.1	14.8	2.27e-04	0	43	102	1048576	12	4462
2026-01-05 00:30:26.45	114.50	13.07	-26.2	-28.1	14.8	1.98e-04	0	44	102	1048576	12	4462
2026-01-05 00:30:27.45	114.68	13.02	-26.3	-28.1	14.7	0.00e+00	0	44	102	1048576	12	4475
2026-01-05 00:30:28.46	114.85	12.97	-26.3	-28.2	14.7	1.09e-04	0	43	102	1048576	12	4475
2026-01-05 00:30:29.47	115.03	12.92	-26.3	-28.3	14.7	1.50e-04	0	43	102	1048576	12	4515
2026-01-05 00:30:30.48	115.21	12.88	-26.3	-28.3	14.6	0.00e+00	0	43	102	1048576	12	4516
2026-01-05 00:30:31.49	115.38	12.83	-26.4	-28.4	14.6	2.18e-04	0	44	102	1048576	12	4559
2026-01-05 00:30:32.49	115.55	12.78	-26.5	-28.6	14.4	2.92e-04	0	43	102	1048576	12	4621
2026-01-05 00:30:33.50	115.73	12.73	-26.5	-28.7	14.4	0.00e+00	0	43	102	1048576	12	4641
2026-01-05 00:30:34.51	115.90	12.68	-26.6	-28.4	14.3	3.84e-04	0	44	102	1048576	13	4444
2026-01-05 00:30:35.51	116.07	12.63	-26.5	-28.3	14.3	4.39e-04	0	44	102	1048576	13	4417
2026-01-05 00:30:36.52	116.24	12.58	-26.4	-28.0	14.5	0.00e+00	0	43	102	1048576	13	4316
2026-01-05 00:30:37.52	116.41	12.53	-26.4	-28.5	14.5	3.67e-04	0	43	102	1048576	12	4579
2026-01-05 00:30:38.53	116.58	12.48	-26.3	-28.3	14.6	1.10e-06	0	44	102	1048576	12	4523
2026-01-05 00:30:39.54	116.75	12.43	-26.3	-28.2	14.6	1.10e-06	0	44	102	1048576	12	4486
2026-01-05 00:30:40.54	116.92	12.38	-26.2	-28.0	14.7	0.00e+00	0	44	102	1048576	12	4445
2026-01-05 00:30:41.55	117.09	12.33	-26.2	-28.0	14.7	2.18e-04	0	43	102	1048576	12	4444
2026-01-05 00:30:42.56	117.26	12.28	-26.3	-28.3	14.6	1.10e-06	0	44	102	1048576	12	4511
2026-01-05 00:30:43.56	117.42	12.23	-26.3	-28.3	14.6	1.10e-06	0	44	102	1048576	12	4531
2026-01-05 00:30:44.57	117.59	12.18	-26.3	-28.3	14.6	1.38e-04	0	44	102	1048576	12	4512
2026-01-05 00:30:45.58	117.76	12.13	-26.3	-28.3	14.5	1.10e-06	0	43	102	1048576	12	4516
2026-01-05 00:30:46.59	117.92	12.08	-26.4	-28.5	14.4	1.01e-04	0	44	102	1048576	12	4596
2026-01-05 00:30:47.59	118.09	12.03	-26.5	-28.7	14.3	0.00e+00	0	44	102	1048576	12	4636
2026-01-05 00:30:48.60	118.25	11.98	-26.5	-28.2	14.3	4.50e-06	0	44	102	1048576	13	4393
2026-01-05 00:30:49.61	118.42	11.93	-26.6	-28.4	14.2	5.49e-05	0	44	102	1048576	13	4452
2026-01-05 00:30:50.61	118.58	11.88	-26.5	-28.3	14.2	1.10e-06	0	44	102	1048576	13	4419
2026-01-05 00:30:51.62	118.74	11.83	-26.4	-28.1	14.3	3.89e-05	0	44	102	1048576	13	4353
2026-01-05 00:30:52.63	118.90	11.78	-26.5	-28.3	14.3	0.00e+00	0	44	102	1048576	13	4411
2026-01-05 00:30:53.63	119.06	11.73	-26.5	-28.3	14.3	0.00e+00	0	43	102	1048576	13	4416
2026-01-05 00:30:54.64	119.23	11.67	-26.6	-28.4	14.2	1.10e-06	0	44	102	1048576	13	4437
2026-01-05 00:30:55.64	119.39	11.62	-26.5	-28.3	14.2	1.10e-06	0	44	102	1048576	13	4408
2026-01-05 00:30:56.65	119.55	11.57	-26.5	-28.2	14.3	0.00e+00	0	43	102	1048576	13	4380
2026-01-05 00:30:57.66	119.71	11.52	-26.5	-28.1	14.3	3.40e-06	0	44	102	1048576	13	4353
2026-01-05 00:30:58.67	119.87	11.47	-26.6	-28.3	14.2	0.00e+00	0	43	102	1048576	13	4424
2026-01-05 00:30:59.68	120.03	11.42	-26.7	-28.6	14.1	1.10e-06	0	44	102	1048576	13	4506
2026-01-05 00:31:00.68	120.18	11.37	-26.8	-28.8	13.9	0.00e+00	0	44	102	1048576	13	4570
2026-01-05 00:31:01.69	120.34	11.31	-26.8	-29.0	13.8	3.40e-06	0	44	102	1048576	13	4608
2026-01-05 00:31:02.68	120.49	11.26	-26.9	-29.1	13.7	3.40e-06	0	44	102	1048576	13	4661
2026-01-05 00:31:03.69	120.65	11.21	-26.9	-29.3	13.6	4.50e-06	0	44	102	1048576	13	4706
2026-01-05 00:31:04.69	120.81	11.16	-27.0	-29.3	13.6	5.70e-06	0	44	102	1048576	13	4711
2026-01-05 00:31:05.70	120.96	11.11	-27.1	-29.0	13.5	6.80e-06	0	44	102	1048576	14	4520
2026-01-05 00:31:06.71	121.12	11.05	-27.1	-29.2	13.4	1.14e-05	0	44	102	1048576	14	4576
2026-01-05 00:31:07.71	121.27	11.00	-27.0	-29.0	13.5	5.70e-06	0	44	102	1048576	14	4506
2026-01-05 00:31:08.72	121.43	10.95	-27.1	-29.1	13.4	6.80e-06	0	44	102	1048576	14	4542
2026-01-05 00:31:09.73	121.58	10.90	-27.0	-28.9	13.6	4.50e-06	0	44	102	1048576	14	4470
2026-01-05 00:31:10.74	121.73	10.84	-26.9	-28.6	13.7	4.50e-06	0	44	102	1048576	14	4381
2026-01-05 00:31:11.74	121.88	10.79	-26.8	-28.4	13.8	3.40e-06	0	44	102	1048576	14	4338
2026-01-05 00:31:12.75	122.04	10.74	-26.8	-28.5	13.8	1.10e-06	0	43	102	1048576	14	4354
2026-01-05 00:31:13.76	122.19	10.68	-26.8	-28.4	13.8	4.50e-06	0	44	102	1048576	14	4334
2026-01-05 00:31:14.76	122.34	10.63	-26.8	-28.5	13.8	3.40e-06	0	44	102	1048576	14	4365
2026-01-05 00:31:15.76	122.49	10.58	-26.9	-28.6	13.7	2.20e-06	0	44	102	1048576	14	4408
2026-01-05 00:31:16.77	122.64	10.53	-26.9	-28.6	13.7	2.20e-06	0	43	102	1048576	14	4383
2026-01-05 00:31:17.77	122.78	10.47	-26.8	-28.5	13.7	4.50e-06	0	44	102	1048576	14	4366
2026-01-05 00:31:18.78	122.93	10.42	-26.8	-28.5	13.8	2.20e-06	0	44	102	1048576	14	4350
2026-01-05 00:31:19.79	123.08	10.37	-26.8	-28.5	13.8	3.40e-06	0	44	102	1048576	14	4355
2026-01-05 00:31:20.78	123.23	10.32	-26.9	-28.8	13.6	1.10e-06	0	43	102	1048576	14	4435
2026-01-05 00:31:21.78	123.37	10.26	-26.9	-28.6	13.7	1.10e-06	0	44	102	1048576	14	4404
2026-01-05 00:31:22.79	123.52	10.21	-26.7	-28.3	13.8	3.40e-06	0	44	102	1048576	14	4305
2026-01-05 00:31:23.79	123.66	10.16	-26.7	-28.3	13.8	2.20e-06	0	44	102	1048576	14	4309
2026-01-05 00:31:24.79	123.81	10.10	-26.7	-28.2	13.9	1.01e-04	0	44	102	1048576	14	4285
2026-01-05 00:31:25.80	123.95	10.05	-26.6	-28.0	14.0	3.40e-06	0	44	102	1048576	14	4223
2026-01-05 00:31:26.81	124.10	10.00	-26.6	-28.0	14.0	2.20e-06	0	44	102	1048576	14	4222
2026-01-05 00:31:27.81	124.24	9.94	-26.8	-28.3	13.8	2.20e-06	0	44	102	1048576	14	4317
2026-01-05 00:31:28.81	124.38	9.89	-26.9	-28.6	13.7	3.40e-06	0	44	102	1048576	14	4390
2026-01-05 00:31:29.81	124.52	9.84	-26.8	-28.5	13.7	4.50e-06	0	44	102	1048576	14	4362
2026-01-05 00:31:30.81	124.67	9.78	-26.8	-28.4	13.7	6.80e-06	0	44	102	1048576	14	4341
2026-01-05 00:31:31.81	124.81	9.73	-26.9	-28.7	13.6	4.50e-06	0	43	102	1048576	14	4411
2026-01-05 00:31:32.82	124.95	9.68	-26.9	-28.6	13.6	5.70e-06	0	44	102	1048576	14	4409
2026-01-05 00:31:33.83	125.09	9.62	-26.8	-28.5	13.6	5.70e-06	0	44	102	1048576	14	4386
2026-01-05 00:31:34.84	125.23	9.57	-27.0	-29.0	13.3	1.25e-05	0	44	102	1048576	14	4523
2026-01-05 00:31:35.84	125.37	9.51	-27.0	-28.8	13.4	1.25e-05	0	44	102	1048576	14	4466
2026-01-05 00:31:36.85	125.51	9.46	-27.1	-29.1	13.3	1.02e-05	0	44	102	1048576	14	4560
2026-01-05 00:31:37.86	125.65	9.41	-27.1	-29.1	13.3	1.37e-05	0	43	102	1048576	14	4559
2026-01-05 00:31:38.87	125.79	9.35	-27.3	-29.6	13.0	1.37e-05	0	44	102	1048576	14	4698
2026-01-05 00:31:39.87	125.92	9.30	-27.2	-29.4	13.1	2.86e-05	0	44	102	1048576	14	4651
2026-01-05 00:31:40.87	126.06	9.25	-27.1	-29.3	13.1	3.28e-04	0	44	102	1048576	14	4608
2026-01-05 00:31:41.88	126.20	9.19	-27.0	-29.1	13.2	6.80e-06	0	44	102	1048576	14	4550
2026-01-05 00:31:42.89	126.34	9.14	-27.1	-29.3	13.1	7.62e-04	0	44	102	1048576	14	4623
2026-01-05 00:31:43.89	126.47	9.08	-27.2	-29.4	13.1	2.74e-05	0	44	102	1048576	14	4633
2026-01-05 00:31:44.90	126.61	9.03	-27.1	-29.3	13.1	2.17e-05	0	43	102	1048576	14	4628
2026-01-05 00:31:45.90	126.74	8.98	-27.3	-29.7	12.8	4.99e-04	0	44	102	1048576	14	4756
2026-01-05 00:31:46.91	126.87	8.92	-27.3	-29.6	12.9	4.02e-04	0	44	102	1048576	14	4720
2026-01-05 00:31:47.91	127.01	8.87	-27.4	-29.9	12.7	4.46e-05	0	44	102	1048576	14	4813
2026-01-05 00:31:48.92	127.14	8.81	-27.3	-29.7	12.8	3.08e-05	0	43	102	1048576	14	4754
2026-01-05 00:31:49.92	127.27	8.76	-27.3	-29.7	12.8	2.88e-04	0	44	102	1048576	14	4742
2026-01-05 00:31:50.93	127.41	8.71	-27.2	-29.5	12.9	3.08e-05	0	44	102	1048576	14	4667
2026-01-05 00:31:51.93	127.54	8.65	-27.3	-29.7	12.7	3.40e-04	0	44	102	1048576	14	4752
2026-01-05 00:31:52.94	127.67	8.60	-27.3	-29.8	12.7	3.91e-04	0	44	102	1048576	14	4772
2026-01-05 00:31:53.93	127.80	8.54	-27.2	-29.4	12.9	3.08e-05	0	44	102	1048576	14	4656
2026-01-05 00:31:54.94	127.93	8.49	-27.4	-29.9	12.6	4.16e-04	0	44	102	1048576	14	4815
2026-01-05 00:31:55.95	128.06	8.44	-27.3	-29.8	12.7	2.40e-05	0	44	102	1048576	14	4768
2026-01-05 00:31:56.95	128.19	8.38	-27.4	-29.8	12.6	5.14e-05	0	44	102	1048576	14	4793
2026-01-05 00:31:57.95	128.32	8.33	-27.3	-29.8	12.6	3.46e-04	0	44	102	1048576	14	4780
2026-01-05 00:31:58.94	128.44	8.27	-27.6	-29.8	12.3	3.66e-04	0	44	102	1048576	15	4680
2026-01-05 00:31:59.95	128.57	8.22	-27.7	-30.2	12.1	1.59e-04	0	44	102	1048576	15	4786
2026-01-05 00:32:00.95	128.70	8.17	-27.6	-29.9	12.2	3.54e-04	0	44	102	1048576	15	4714
2026-01-05 00:32:01.96	128.83	8.11	-27.5	-29.7	12.4	2.86e-04	0	44	102	1048576	15	4631
2026-01-05 00:32:02.97	128.96	8.06	-27.4	-29.4	12.5	7.78e-05	0	44	102	1048576	15	4555
2026-01-05 00:32:03.98	129.08	8.00	-27.5	-29.7	12.4	2.78e-04	0	44	102	1048576	15	4630
2026-01-05 00:32:04.98	129.21	7.95	-27.5	-29.8	12.3	3.09e-04	0	43	102	1048576	15	4680
2026-01-05 00:32:05.98	129.33	7.90	-27.6	-29.9	12.2	1.12e-04	0	43	102	1048576	15	4710
2026-01-05 00:32:06.99	129.46	7.84	-27.5	-29.8	12.2	3.51e-04	0	44	102	1048576	15	4682
2026-01-05 00:32:08.00	129.58	7.79	-27.7	-30.1	12.1	4.27e-04	0	44	102	1048576	15	4788
2026-01-05 00:32:09.01	129.71	7.73	-27.6	-29.9	12.2	1.73e-04	0	43	102	1048576	15	4702
2026-01-05 00:32:10.01	129.83	7.68	-27.5	-29.7	12.2	2.66e-04	0	44	102	1048576	15	4686
2026-01-05 00:32:11.01	129.95	7.62	-27.4	-29.5	12.4	3.70e-04	0	44	102	1048576	15	4602
2026-01-05 00:32:12.02	130.08	7.57	-27.6	-30.0	12.1	2.35e-04	0	44	102	1048576	15	4758
2026-01-05 00:32:13.03	130.20	7.52	-27.5	-29.7	12.2	4.15e-04	0	44	102	1048576	15	4659
2026-01-05 00:32:14.03	130.32	7.46	-27.5	-29.9	12.1	1.94e-04	0	44	102	1048576	15	4720
2026-01-05 00:32:15.04	130.44	7.41	-27.7	-30.2	11.9	2.51e-04	0	44	102	1048576	15	4812
2026-01-05 00:32:16.04	130.56	7.35	-27.5	-29.7	12.2	4.08e-04	0	44	102	1048576	15	4649
2026-01-05 00:32:17.04	130.68	7.30	-27.5	-29.7	12.3	1.15e-04	0	44	102	1048576	15	4647
2026-01-05 00:32:18.05	130.80	7.25	-27.7	-30.1	11.9	1.76e-04	0	44	102	1048576	15	4785
2026-01-05 00:32:19.05	130.92	7.19	-27.4	-29.5	12.3	1.41e-04	0	44	102	1048576	15	4607
2026-01-05 00:32:20.06	131.04	7.14	-27.5	-29.8	12.1	3.31e-04	0	44	102	1048576	15	4692
2026-01-05 00:32:21.07	131.16	7.08	-27.6	-30.1	12.0	1.88e-04	0	44	102	1048576	15	4782
2026-01-05 00:32:22.07	131.28	7.03	-32.5	-43.5	3.8	8.46e-01	0	44	104	1048576	25	12714
2026-01-05 00:32:23.07	131.40	6.98	-32.9	-44.3	3.8	8.45e-01	0	44	104	1048576	25	13460

#Closed at: 2026-01-05 00:32:23
#Recorded file [1 MB]: D:/data/31010_260105_032333.dat