passes_logs/2026/01/05/R2M6_AANII_01/R2M6_AANII_01__20260105_030356_NOAA_20_JPSS-1_rec.log

#Pass ID: 20260105_030356_NOAA 20 (JPSS-1)
#Satellite: NOAA 20 (JPSS-1)
#Configuration: NOAA 20
#almurnet v.1.7.20240730
#Start time: 2026-01-05 03:03:57

#Version: 2.2.20231116
#Station: R2M6_AANII_01
#Location: 30.233357 lon 59.946436 lat
#TLE: 1 43013U 17073A   26004.47528369  .00000132  00000+0  83671-4 0  9999
#TLE: 2 43013  98.7626 305.5264 0001854  54.5883 305.5466 14.19533142421242

#Time	Az	El	Level	Level2	SNR	BER	BlckErr	Temp	State	Recorded	gain1	gain2
2026-01-05 03:03:57.96	7.86	7.08	-32.3	-44.3	3.8	1.49e+00	0	41	0	0	24	14397
2026-01-05 03:03:58.95	7.74	7.13	-32.1	-42.1	4.1	1.43e+00	0	41	104	0	24	11329
2026-01-05 03:03:59.96	7.62	7.18	-32.1	-41.6	4.7	9.48e-01	0	41	0	0	24	10803
2026-01-05 03:04:00.96	7.50	7.23	-32.0	-41.2	4.9	7.64e-01	0	41	102	1048576	24	10337
2026-01-05 03:04:01.97	7.37	7.29	-32.0	-40.8	5.1	7.06e-01	0	41	102	1048576	24	9976
2026-01-05 03:04:02.98	7.25	7.34	-32.0	-40.5	5.2	6.33e-01	0	41	102	1048576	24	9668
2026-01-05 03:04:03.98	7.13	7.39	-31.9	-40.8	5.4	5.66e-01	0	41	102	1048576	23	9987
2026-01-05 03:04:04.99	7.00	7.44	-32.0	-41.0	5.3	5.74e-01	0	41	102	1048576	23	10148
2026-01-05 03:04:05.99	6.88	7.49	-32.0	-41.0	5.0	6.34e-01	0	41	102	1048576	24	10105
2026-01-05 03:04:07.00	6.75	7.55	-32.1	-41.4	4.8	7.58e-01	0	41	102	1048576	24	10530
2026-01-05 03:04:08.00	6.63	7.60	-32.1	-41.1	5.0	7.37e-01	0	41	102	1048576	24	10199
2026-01-05 03:04:09.01	6.50	7.65	-32.0	-40.5	5.3	6.30e-01	0	41	102	1048576	24	9620
2026-01-05 03:04:10.02	6.37	7.70	-31.9	-40.4	5.6	5.17e-01	0	41	102	1048576	23	9584
2026-01-05 03:04:11.02	6.25	7.75	-31.8	-39.6	6.1	3.39e-01	0	41	102	1048576	23	8866
2026-01-05 03:04:12.03	6.12	7.80	-31.7	-38.9	6.7	2.39e-01	0	41	102	1048576	23	8272
2026-01-05 03:04:13.04	5.99	7.85	-31.6	-38.0	7.4	1.62e-01	0	41	102	1048576	23	7591
2026-01-05 03:04:14.05	5.86	7.91	-31.4	-37.7	8.0	9.68e-02	0	41	102	1048576	22	7450
2026-01-05 03:04:15.05	5.74	7.96	-31.2	-36.9	8.6	4.55e-02	0	42	102	1048576	22	6964
2026-01-05 03:04:16.06	5.61	8.01	-31.0	-36.2	9.2	2.90e-02	0	41	102	1048576	22	6533
2026-01-05 03:04:17.06	5.48	8.06	-30.9	-36.3	9.5	1.92e-02	0	41	102	1048576	21	6706
2026-01-05 03:04:18.06	5.35	8.11	-30.9	-36.2	9.7	1.34e-02	0	41	102	1048576	21	6620
2026-01-05 03:04:19.07	5.22	8.16	-31.0	-36.4	9.5	1.62e-02	0	42	102	1048576	21	6719
2026-01-05 03:04:20.08	5.09	8.21	-31.1	-36.2	9.3	1.76e-02	0	41	102	1048576	22	6498
2026-01-05 03:04:21.08	4.96	8.26	-31.0	-35.9	9.5	1.61e-02	0	42	102	1048576	22	6363
2026-01-05 03:04:22.09	4.82	8.32	-30.9	-36.2	9.7	1.49e-02	0	42	102	1048576	21	6610
2026-01-05 03:04:23.10	4.69	8.37	-31.0	-36.4	9.5	1.48e-02	0	42	102	1048576	21	6734
2026-01-05 03:04:24.11	4.56	8.42	-31.1	-36.2	9.3	1.64e-02	0	42	102	1048576	22	6512
2026-01-05 03:04:25.11	4.42	8.47	-31.2	-36.8	8.9	2.58e-02	0	42	102	1048576	22	6819
2026-01-05 03:04:26.12	4.29	8.52	-31.1	-36.4	9.2	2.50e-02	0	42	102	1048576	22	6609
2026-01-05 03:04:27.13	4.16	8.57	-31.2	-36.7	9.0	2.10e-02	0	42	102	1048576	22	6787
2026-01-05 03:04:28.12	4.02	8.62	-31.3	-37.2	8.5	3.71e-02	0	42	102	1048576	22	7088
2026-01-05 03:04:29.13	3.89	8.67	-31.2	-36.7	9.0	3.45e-02	0	42	102	1048576	22	6777
2026-01-05 03:04:30.14	3.75	8.72	-31.1	-36.3	9.3	2.24e-02	0	42	102	1048576	22	6557
2026-01-05 03:04:31.14	3.62	8.77	-31.1	-36.1	9.5	1.57e-02	0	42	102	1048576	22	6455
2026-01-05 03:04:32.15	3.48	8.82	-31.1	-36.1	9.5	1.76e-02	0	42	102	1048576	22	6430
2026-01-05 03:04:33.15	3.34	8.88	-31.1	-36.3	9.4	1.66e-02	0	42	102	1048576	22	6540
2026-01-05 03:04:34.16	3.20	8.93	-31.1	-36.1	9.5	1.47e-02	0	42	102	1048576	22	6427
2026-01-05 03:04:35.16	3.07	8.98	-31.0	-35.8	9.8	1.16e-02	0	42	102	1048576	22	6251
2026-01-05 03:04:36.17	2.93	9.03	-30.9	-35.5	10.0	9.49e-03	0	42	102	1048576	22	6104
2026-01-05 03:04:37.17	2.79	9.08	-30.9	-35.9	10.0	1.11e-02	0	42	102	1048576	21	6402
2026-01-05 03:04:38.18	2.65	9.13	-30.9	-36.0	9.9	8.14e-03	0	42	102	1048576	21	6498
2026-01-05 03:04:39.19	2.51	9.18	-31.0	-36.2	9.8	1.02e-02	0	42	102	1048576	21	6602
2026-01-05 03:04:40.19	2.37	9.23	-30.9	-36.1	9.9	1.22e-02	0	42	102	1048576	21	6528
2026-01-05 03:04:41.20	2.23	9.28	-30.9	-36.1	9.9	9.40e-03	0	42	102	1048576	21	6546
2026-01-05 03:04:42.21	2.08	9.33	-30.9	-36.0	10.0	8.31e-03	0	42	102	1048576	21	6464
2026-01-05 03:04:43.21	1.94	9.38	-30.9	-36.1	10.0	1.09e-02	0	42	102	1048576	21	6516
2026-01-05 03:04:44.22	1.80	9.43	-30.9	-36.0	10.0	8.28e-03	0	42	102	1048576	21	6474
2026-01-05 03:04:45.22	1.66	9.48	-30.9	-36.0	10.0	7.63e-03	0	42	102	1048576	21	6466
2026-01-05 03:04:46.23	1.51	9.53	-31.0	-35.9	9.7	9.37e-03	0	42	102	1048576	22	6302
2026-01-05 03:04:47.23	1.37	9.58	-31.1	-36.0	9.7	1.39e-02	0	42	102	1048576	22	6353
2026-01-05 03:04:48.24	1.23	9.63	-31.1	-36.2	9.5	1.46e-02	0	42	102	1048576	22	6467
2026-01-05 03:04:49.24	1.08	9.68	-31.0	-35.8	9.8	1.16e-02	0	42	102	1048576	22	6270
2026-01-05 03:04:50.24	0.94	9.72	-31.0	-36.3	9.8	1.28e-02	0	42	102	1048576	21	6626
2026-01-05 03:04:51.25	0.79	9.77	-31.1	-36.1	9.6	1.30e-02	0	42	102	1048576	22	6421
2026-01-05 03:04:52.26	0.64	9.82	-31.2	-36.5	9.3	1.72e-02	0	42	102	1048576	22	6604
2026-01-05 03:04:53.27	0.49	9.87	-31.2	-36.3	9.4	1.58e-02	0	43	102	1048576	22	6509
2026-01-05 03:04:54.27	0.35	9.92	-31.2	-36.5	9.3	1.81e-02	0	42	102	1048576	22	6602
2026-01-05 03:04:55.28	0.20	9.97	-31.1	-36.3	9.5	1.51e-02	0	42	102	1048576	22	6516
2026-01-05 03:04:56.29	0.05	10.02	-31.1	-36.1	9.6	1.33e-02	0	42	102	1048576	22	6417
2026-01-05 03:04:57.29	359.90	10.07	-31.1	-36.2	9.6	1.27e-02	0	43	102	1048576	22	6437
2026-01-05 03:04:58.30	359.75	10.12	-31.1	-36.1	9.6	1.19e-02	0	42	102	1048576	22	6383
2026-01-05 03:04:59.30	359.60	10.17	-31.1	-36.2	9.6	1.37e-02	0	42	102	1048576	22	6450
2026-01-05 03:05:00.31	359.45	10.22	-31.1	-36.0	9.7	1.20e-02	0	42	102	1048576	22	6317
2026-01-05 03:05:01.32	359.30	10.26	-31.0	-35.7	9.9	9.38e-03	0	42	102	1048576	22	6207
2026-01-05 03:05:02.33	359.15	10.31	-30.9	-35.9	10.1	7.22e-03	0	42	102	1048576	21	6431
2026-01-05 03:05:03.33	359.00	10.36	-31.0	-36.2	9.9	7.76e-03	0	43	102	1048576	21	6570
2026-01-05 03:05:04.34	358.84	10.41	-31.0	-35.7	10.0	8.91e-03	0	42	102	1048576	22	6186
2026-01-05 03:05:05.34	358.69	10.46	-30.9	-35.9	10.1	7.01e-03	0	43	102	1048576	21	6408
2026-01-05 03:05:06.35	358.54	10.50	-30.9	-35.8	10.3	5.92e-03	0	42	102	1048576	21	6342
2026-01-05 03:05:07.36	358.38	10.55	-30.8	-35.4	10.5	4.39e-03	0	42	102	1048576	21	6167
2026-01-05 03:05:08.37	358.23	10.60	-30.8	-35.4	10.6	3.79e-03	0	43	102	1048576	21	6127
2026-01-05 03:05:09.38	358.07	10.65	-30.8	-35.4	10.6	3.62e-03	0	43	102	1048576	21	6119
2026-01-05 03:05:10.39	357.91	10.70	-29.7	-34.3	10.6	3.20e-03	0	43	102	1048576	21	6129
2026-01-05 03:05:11.40	357.76	10.74	-30.4	-35.1	10.5	4.03e-03	0	43	102	1048576	21	6133
2026-01-05 03:05:12.40	357.60	10.79	-30.7	-35.3	10.3	3.37e-03	0	43	102	1048576	21	6065
2026-01-05 03:05:13.41	357.44	10.84	-30.7	-35.1	10.8	3.34e-03	0	43	102	1048576	21	6001
2026-01-05 03:05:14.42	357.28	10.89	-30.7	-35.0	10.8	2.45e-03	0	43	102	1048576	21	5947
2026-01-05 03:05:15.42	357.13	10.93	-30.7	-35.0	10.9	2.11e-03	0	43	102	1048576	21	5946
2026-01-05 03:05:16.42	356.97	10.98	-30.7	-35.1	10.8	2.29e-03	0	43	102	1048576	21	5993
2026-01-05 03:05:17.43	356.81	11.03	-30.7	-35.0	10.9	3.10e-03	0	43	102	1048576	21	5938
2026-01-05 03:05:18.43	356.65	11.07	-30.6	-34.7	11.1	1.97e-03	0	43	102	1048576	21	5796
2026-01-05 03:05:19.44	356.49	11.12	-30.5	-35.0	11.3	1.27e-03	0	43	102	1048576	20	6028
2026-01-05 03:05:20.45	356.33	11.16	-30.5	-34.8	11.4	1.05e-03	0	43	102	1048576	20	5965
2026-01-05 03:05:21.45	356.17	11.21	-30.5	-34.9	11.4	9.70e-04	0	43	102	1048576	20	5984
2026-01-05 03:05:22.46	356.00	11.26	-30.4	-34.8	11.4	9.72e-04	0	43	102	1048576	20	5933
2026-01-05 03:05:23.47	355.84	11.30	-30.5	-34.8	11.4	8.97e-04	0	43	102	1048576	20	5957
2026-01-05 03:05:24.48	355.68	11.35	-30.5	-34.9	11.4	3.18e-03	0	43	102	1048576	20	5972
2026-01-05 03:05:25.48	355.51	11.39	-30.4	-34.7	11.5	8.29e-04	0	43	102	1048576	20	5908
2026-01-05 03:05:26.49	355.35	11.44	-29.9	-34.1	11.6	8.26e-04	0	43	102	1048576	20	5851
2026-01-05 03:05:27.50	355.18	11.48	-30.4	-34.6	11.6	2.56e-03	0	43	102	1048576	20	5863
2026-01-05 03:05:28.50	355.02	11.53	-30.4	-34.6	11.4	2.58e-03	0	43	102	1048576	20	5844
2026-01-05 03:05:29.51	354.85	11.58	-30.4	-34.7	11.5	6.32e-04	0	43	102	1048576	20	5902
2026-01-05 03:05:30.51	354.69	11.62	-30.4	-34.7	11.5	2.62e-03	0	43	102	1048576	20	5912
2026-01-05 03:05:31.52	354.52	11.66	-30.4	-34.8	11.5	2.44e-03	0	43	102	1048576	20	5931
2026-01-05 03:05:32.53	354.35	11.71	-30.6	-34.6	11.2	9.96e-04	0	43	102	1048576	21	5744
2026-01-05 03:05:33.54	354.18	11.75	-30.7	-35.0	11.0	1.31e-03	0	43	102	1048576	21	5902
2026-01-05 03:05:34.54	354.02	11.80	-30.7	-35.0	11.0	3.80e-03	0	43	102	1048576	21	5901
2026-01-05 03:05:35.54	353.85	11.84	-30.5	-34.5	11.4	1.44e-03	0	43	102	1048576	21	5684
2026-01-05 03:05:36.55	353.68	11.89	-30.5	-34.5	11.3	1.09e-03	0	43	102	1048576	21	5714
2026-01-05 03:05:37.56	353.51	11.93	-30.5	-34.4	11.4	2.80e-03	0	43	102	1048576	21	5624
2026-01-05 03:05:38.57	353.34	11.97	-30.5	-34.8	11.5	1.03e-03	0	43	102	1048576	20	5922
2026-01-05 03:05:39.58	353.17	12.02	-30.5	-34.9	11.5	8.19e-04	0	43	102	1048576	20	5956
2026-01-05 03:05:40.59	352.99	12.06	-30.5	-34.4	11.4	2.82e-03	0	43	102	1048576	21	5633
2026-01-05 03:05:41.60	352.82	12.10	-30.4	-34.6	11.6	1.30e-03	0	43	102	1048576	20	5831
2026-01-05 03:05:42.61	352.65	12.15	-30.4	-34.6	11.6	2.00e-03	0	43	102	1048576	20	5833
2026-01-05 03:05:43.61	352.48	12.19	-30.5	-34.9	11.4	2.55e-03	0	43	102	1048576	20	5964
2026-01-05 03:05:44.62	352.30	12.23	-30.7	-35.0	11.0	1.87e-03	0	43	102	1048576	21	5905
2026-01-05 03:05:45.63	352.13	12.27	-30.6	-34.7	11.2	3.63e-03	0	43	102	1048576	21	5755
2026-01-05 03:05:46.63	351.95	12.32	-30.3	-34.3	11.8	1.92e-03	0	43	102	1048576	20	5704
2026-01-05 03:05:47.64	351.78	12.36	-30.2	-33.9	12.2	7.72e-04	0	43	102	1048576	20	5517
2026-01-05 03:05:48.64	351.60	12.40	-30.0	-33.4	12.5	8.77e-04	0	43	102	1048576	20	5315
2026-01-05 03:05:49.65	351.43	12.44	-29.9	-33.1	12.7	7.43e-04	0	43	102	1048576	20	5202
2026-01-05 03:05:50.65	351.25	12.48	-30.0	-33.7	12.7	4.93e-04	0	43	102	1048576	19	5556
2026-01-05 03:05:51.66	351.07	12.52	-29.9	-33.2	12.6	5.16e-04	0	43	102	1048576	20	5262
2026-01-05 03:05:52.67	350.90	12.56	-30.0	-33.3	12.6	7.58e-04	0	43	102	1048576	20	5266
2026-01-05 03:05:53.68	350.72	12.60	-30.1	-33.6	12.4	3.98e-04	0	43	102	1048576	20	5403
2026-01-05 03:05:54.68	350.54	12.65	-30.0	-33.5	12.5	6.62e-04	0	43	102	1048576	20	5339
2026-01-05 03:05:55.69	350.36	12.69	-30.1	-33.6	12.4	1.05e-03	0	43	102	1048576	20	5394
2026-01-05 03:05:56.70	350.18	12.73	-30.1	-33.7	12.3	1.91e-04	0	43	102	1048576	20	5428
2026-01-05 03:05:57.70	350.00	12.77	-30.1	-33.6	12.4	1.56e-04	0	43	102	1048576	20	5407
2026-01-05 03:05:58.71	349.82	12.81	-30.1	-33.8	12.3	1.94e-03	0	43	102	1048576	20	5477
2026-01-05 03:05:59.71	349.64	12.84	-30.2	-34.1	12.1	7.52e-04	0	43	102	1048576	20	5598
2026-01-05 03:06:00.71	349.46	12.88	-30.3	-34.2	12.0	3.39e-04	0	43	102	1048576	20	5646
2026-01-05 03:06:01.72	349.28	12.92	-30.2	-34.1	12.0	2.40e-03	0	43	102	1048576	20	5615
2026-01-05 03:06:02.72	349.10	12.96	-30.3	-34.4	11.8	7.90e-04	0	43	102	1048576	20	5739
2026-01-05 03:06:03.73	348.91	13.00	-30.3	-34.2	12.0	4.24e-04	0	43	102	1048576	20	5666
2026-01-05 03:06:04.74	348.73	13.04	-30.2	-33.9	12.2	4.99e-04	0	43	102	1048576	20	5517
2026-01-05 03:06:05.74	348.54	13.08	-30.2	-33.9	12.2	4.57e-04	0	43	102	1048576	20	5513
2026-01-05 03:06:06.74	348.36	13.11	-30.2	-34.0	12.1	1.96e-03	0	43	102	1048576	20	5564
2026-01-05 03:06:07.75	348.18	13.15	-30.3	-34.3	11.9	4.79e-04	0	43	102	1048576	20	5681
2026-01-05 03:06:08.76	347.99	13.19	-30.3	-34.2	11.9	6.02e-04	0	43	102	1048576	20	5677
2026-01-05 03:06:09.77	347.80	13.23	-30.3	-34.3	11.9	1.89e-03	0	43	102	1048576	20	5696
2026-01-05 03:06:10.78	347.62	13.26	-30.4	-34.7	11.7	5.55e-04	0	43	102	1048576	20	5861
2026-01-05 03:06:11.79	347.43	13.30	-30.3	-34.3	11.9	8.60e-04	0	43	102	1048576	20	5709
2026-01-05 03:06:12.80	347.24	13.34	-30.2	-33.8	12.3	8.50e-04	0	43	102	1048576	20	5480
2026-01-05 03:06:13.80	347.05	13.37	-30.1	-33.5	12.4	1.54e-04	0	43	102	1048576	20	5366
2026-01-05 03:06:14.81	346.87	13.41	-30.1	-33.6	12.4	2.91e-04	0	43	102	1048576	20	5413
2026-01-05 03:06:15.81	346.68	13.44	-30.1	-33.7	12.3	1.50e-04	0	43	102	1048576	20	5449
2026-01-05 03:06:16.82	346.49	13.48	-30.1	-33.6	12.4	1.24e-04	0	43	102	1048576	20	5383
2026-01-05 03:06:17.82	346.30	13.52	-30.1	-33.6	12.4	1.36e-04	0	43	102	1048576	20	5371
2026-01-05 03:06:18.82	346.11	13.55	-30.1	-33.6	12.4	1.38e-04	0	43	102	1048576	20	5396
2026-01-05 03:06:19.82	345.92	13.58	-30.1	-33.6	12.4	1.73e-03	0	43	102	1048576	20	5397
2026-01-05 03:06:20.83	345.73	13.62	-30.1	-33.7	12.4	1.63e-04	0	43	102	1048576	20	5424
2026-01-05 03:06:21.83	345.54	13.65	-30.1	-33.5	12.5	1.39e-04	0	43	102	1048576	20	5367
2026-01-05 03:06:22.84	345.35	13.69	-30.0	-33.3	12.6	3.11e-04	0	43	102	1048576	20	5283
2026-01-05 03:06:23.85	345.15	13.72	-30.0	-33.4	12.6	1.14e-04	0	43	102	1048576	20	5333
2026-01-05 03:06:24.85	344.96	13.75	-30.0	-33.3	12.6	1.22e-04	0	43	102	1048576	20	5260
2026-01-05 03:06:25.86	344.77	13.79	-29.9	-33.1	12.7	3.38e-04	0	43	102	1048576	20	5205
2026-01-05 03:06:26.86	344.58	13.82	-29.9	-33.1	12.8	6.48e-05	0	43	102	1048576	20	5198
2026-01-05 03:06:27.87	344.38	13.85	-30.0	-33.3	12.6	7.78e-05	0	43	102	1048576	20	5272
2026-01-05 03:06:28.87	344.19	13.88	-29.9	-33.1	12.7	7.55e-05	0	43	102	1048576	20	5205
2026-01-05 03:06:29.88	343.99	13.92	-30.0	-33.3	12.6	3.14e-04	0	43	102	1048576	20	5284
2026-01-05 03:06:30.89	343.80	13.95	-30.1	-33.7	12.4	9.76e-05	0	43	102	1048576	20	5430
2026-01-05 03:06:31.90	343.60	13.98	-30.0	-33.4	12.6	1.20e-04	0	43	102	1048576	20	5304
2026-01-05 03:06:32.90	343.40	14.01	-29.9	-32.9	12.8	7.17e-05	0	43	102	1048576	20	5132
2026-01-05 03:06:33.90	343.21	14.04	-29.9	-33.5	12.9	4.50e-05	0	43	102	1048576	19	5467
2026-01-05 03:06:34.90	343.01	14.07	-29.9	-33.5	12.9	5.11e-05	0	43	102	1048576	19	5451
2026-01-05 03:06:35.91	342.82	14.10	-30.0	-33.7	12.7	6.40e-05	0	43	102	1048576	19	5524
2026-01-05 03:06:36.92	342.62	14.13	-30.1	-33.7	11.8	8.54e-05	0	43	102	1048576	20	5445
2026-01-05 03:06:37.93	342.42	14.16	-30.0	-33.2	12.7	8.54e-05	0	43	102	1048576	20	5229
2026-01-05 03:06:38.94	342.22	14.19	-29.8	-33.4	12.1	5.11e-05	0	43	102	1048576	19	5395
2026-01-05 03:06:39.95	342.02	14.22	-29.8	-33.2	12.0	2.74e-05	0	43	102	1048576	19	5304
2026-01-05 03:06:40.96	341.82	14.25	-29.7	-33.0	13.2	1.29e-05	0	43	102	1048576	19	5261
2026-01-05 03:06:41.97	341.62	14.27	-29.8	-33.3	13.0	2.05e-05	0	43	102	1048576	19	5381
2026-01-05 03:06:42.98	341.42	14.30	-29.8	-33.3	13.1	2.89e-05	0	43	102	1048576	19	5363
2026-01-05 03:06:43.99	341.22	14.33	-29.8	-33.3	13.1	4.88e-05	0	43	102	1048576	19	5351
2026-01-05 03:06:44.99	341.02	14.36	-29.9	-33.4	13.0	2.59e-05	0	43	102	1048576	19	5431
2026-01-05 03:06:46.00	340.81	14.38	-29.9	-33.4	13.0	3.89e-05	0	43	102	1048576	19	5403
2026-01-05 03:06:47.01	340.61	14.41	-29.9	-33.4	12.9	1.05e-04	0	43	102	1048576	19	5425
2026-01-05 03:06:48.02	340.41	14.44	-29.9	-33.5	12.9	4.19e-05	0	43	102	1048576	19	5468
2026-01-05 03:06:49.02	340.21	14.46	-30.0	-33.7	12.8	4.57e-05	0	43	102	1048576	19	5535
2026-01-05 03:06:50.02	340.01	14.49	-29.8	-33.1	13.2	2.78e-04	0	43	102	1048576	19	5293
2026-01-05 03:06:51.03	339.80	14.51	-29.7	-33.0	13.3	2.43e-03	0	43	102	1048576	19	5232
2026-01-05 03:06:52.04	339.60	14.54	-29.8	-33.1	13.2	2.13e-05	0	43	102	1048576	19	5269
2026-01-05 03:06:53.05	339.39	14.56	-29.8	-33.1	13.2	2.36e-05	0	43	102	1048576	19	5286
2026-01-05 03:06:54.05	339.19	14.59	-29.9	-33.4	13.0	2.44e-03	0	43	102	1048576	19	5381
2026-01-05 03:06:55.06	338.99	14.61	-29.9	-33.5	13.0	3.05e-05	0	43	102	1048576	19	5439
2026-01-05 03:06:56.07	338.78	14.64	-30.0	-33.6	12.8	4.11e-05	0	43	102	1048576	19	5494
2026-01-05 03:06:57.08	338.57	14.66	-30.0	-33.7	12.8	2.32e-03	0	43	102	1048576	19	5508
2026-01-05 03:06:58.08	338.37	14.68	-30.0	-33.7	12.8	2.55e-03	0	43	102	1048576	19	5535
2026-01-05 03:06:59.08	338.17	14.70	-30.0	-33.3	12.7	7.24e-05	0	43	102	1048576	20	5259
2026-01-05 03:07:00.09	337.96	14.73	-29.9	-33.5	12.9	2.56e-03	0	43	102	1048576	19	5453
2026-01-05 03:07:01.10	337.75	14.75	-29.8	-33.3	13.1	2.39e-03	0	43	102	1048576	19	5344
2026-01-05 03:07:02.11	337.54	14.77	-29.9	-33.5	13.0	1.35e-04	0	43	102	1048576	19	5432
2026-01-05 03:07:03.12	337.34	14.79	-29.9	-33.5	13.0	2.50e-03	0	43	102	1048576	19	5455
2026-01-05 03:07:04.13	337.13	14.81	-30.0	-33.3	12.7	2.48e-03	0	43	102	1048576	20	5256
2026-01-05 03:07:05.13	336.92	14.83	-30.1	-33.7	12.4	1.86e-04	0	43	102	1048576	20	5408
2026-01-05 03:07:06.14	336.71	14.85	-30.1	-33.6	12.5	1.29e-04	0	43	102	1048576	20	5368
2026-01-05 03:07:07.15	336.50	14.87	-30.2	-33.8	12.3	3.08e-03	0	43	102	1048576	20	5464
2026-01-05 03:07:08.15	336.30	14.89	-30.3	-34.3	12.0	1.05e-03	0	43	102	1048576	20	5664
2026-01-05 03:07:09.16	336.09	14.91	-30.2	-33.9	12.3	2.94e-03	0	43	102	1048576	20	5518
2026-01-05 03:07:10.16	335.88	14.93	-30.2	-33.8	12.3	3.31e-03	0	43	102	1048576	20	5482
2026-01-05 03:07:11.17	335.67	14.95	-30.2	-33.7	12.4	1.07e-03	0	43	102	1048576	20	5444
2026-01-05 03:07:12.18	335.46	14.97	-30.2	-33.8	12.3	2.68e-03	0	43	102	1048576	20	5449
2026-01-05 03:07:13.18	335.25	14.98	-30.2	-33.8	12.3	3.19e-03	0	43	102	1048576	20	5474
2026-01-05 03:07:14.19	335.04	15.00	-30.3	-34.2	12.1	7.15e-04	0	43	102	1048576	20	5621
2026-01-05 03:07:15.19	334.83	15.02	-30.3	-34.2	12.1	2.60e-03	0	43	102	1048576	20	5640
2026-01-05 03:07:16.20	334.62	15.03	-30.4	-34.3	12.0	2.99e-03	0	43	102	1048576	20	5685
2026-01-05 03:07:17.21	334.41	15.05	-30.2	-33.8	12.3	3.52e-04	0	43	102	1048576	20	5488
2026-01-05 03:07:18.21	334.20	15.07	-30.1	-33.6	12.5	2.68e-03	0	43	102	1048576	20	5389
2026-01-05 03:07:19.22	333.99	15.08	-30.1	-33.5	12.6	2.58e-03	0	43	102	1048576	20	5341
2026-01-05 03:07:20.22	333.78	15.10	-30.0	-33.3	12.7	8.54e-05	0	43	102	1048576	20	5267
2026-01-05 03:07:21.24	333.56	15.11	-30.0	-33.4	12.7	2.59e-03	0	43	102	1048576	20	5292
2026-01-05 03:07:22.24	333.35	15.12	-30.0	-33.2	12.8	2.40e-03	0	43	102	1048576	20	5206
2026-01-05 03:07:23.25	333.14	15.14	-29.9	-33.1	12.8	2.25e-04	0	43	102	1048576	20	5190
2026-01-05 03:07:24.26	332.92	15.15	-30.0	-33.2	12.7	2.38e-03	0	43	102	1048576	20	5229
2026-01-05 03:07:25.27	332.71	15.16	-30.0	-33.3	12.7	3.05e-03	0	43	102	1048576	20	5256
2026-01-05 03:07:26.27	332.50	15.18	-30.1	-33.7	12.5	1.26e-04	0	43	102	1048576	20	5416
2026-01-05 03:07:27.28	332.29	15.19	-30.3	-34.1	12.1	2.25e-04	0	43	102	1048576	20	5590
2026-01-05 03:07:28.29	332.07	15.20	-30.2	-34.0	12.3	3.22e-03	0	43	102	1048576	20	5536
2026-01-05 03:07:29.30	331.86	15.21	-30.3	-34.2	12.1	7.82e-04	0	43	102	1048576	20	5627
2026-01-05 03:07:30.30	331.65	15.22	-30.3	-34.2	12.1	3.00e-04	0	43	102	1048576	20	5629
2026-01-05 03:07:31.31	331.43	15.23	-30.2	-33.9	12.3	6.04e-04	0	43	102	1048576	20	5513
2026-01-05 03:07:32.32	331.22	15.24	-30.1	-33.7	12.4	2.94e-04	0	43	102	1048576	20	5433
2026-01-05 03:07:33.32	331.01	15.25	-30.2	-33.8	12.3	1.52e-04	0	43	102	1048576	20	5461
2026-01-05 03:07:34.33	330.79	15.26	-30.1	-33.7	12.4	2.52e-04	0	43	102	1048576	20	5405
2026-01-05 03:07:35.34	330.58	15.27	-30.1	-33.6	12.5	2.77e-04	0	43	102	1048576	20	5371
2026-01-05 03:07:36.35	330.36	15.28	-30.1	-33.5	12.6	1.04e-04	0	43	102	1048576	20	5330
2026-01-05 03:07:37.36	330.15	15.29	-30.1	-33.6	12.5	5.52e-04	0	43	102	1048576	20	5394
2026-01-05 03:07:38.36	329.93	15.30	-30.1	-33.5	12.6	5.39e-04	0	43	102	1048576	20	5358
2026-01-05 03:07:39.37	329.72	15.30	-30.0	-33.4	12.6	2.75e-03	0	43	102	1048576	20	5292
2026-01-05 03:07:40.38	329.50	15.31	-30.1	-33.5	12.5	8.69e-05	0	43	102	1048576	20	5344
2026-01-05 03:07:41.38	329.29	15.32	-30.1	-33.6	12.5	1.36e-03	0	43	102	1048576	20	5365
2026-01-05 03:07:42.39	329.07	15.32	-30.2	-33.8	12.4	2.60e-03	0	43	102	1048576	20	5460
2026-01-05 03:07:43.39	328.86	15.33	-30.2	-34.0	12.3	2.43e-04	0	43	102	1048576	20	5536
2026-01-05 03:07:44.40	328.64	15.34	-30.1	-33.5	12.5	1.31e-04	0	43	102	1048576	20	5351
2026-01-05 03:07:45.41	328.43	15.34	-30.0	-33.3	12.7	9.30e-05	0	43	102	1048576	20	5265
2026-01-05 03:07:46.41	328.21	15.34	-30.0	-33.3	12.7	7.01e-05	0	43	102	1048576	20	5246
2026-01-05 03:07:47.41	328.00	15.35	-30.1	-33.4	12.6	8.16e-05	0	43	102	1048576	20	5299
2026-01-05 03:07:48.42	327.78	15.35	-30.1	-33.5	12.6	9.30e-05	0	43	102	1048576	20	5329
2026-01-05 03:07:49.42	327.57	15.36	-30.0	-33.4	12.7	5.16e-04	0	43	102	1048576	20	5292
2026-01-05 03:07:50.43	327.35	15.36	-30.1	-33.7	12.5	1.06e-04	0	43	102	1048576	20	5424
2026-01-05 03:07:51.43	327.14	15.36	-30.1	-33.7	12.4	1.64e-04	0	43	102	1048576	20	5411
2026-01-05 03:07:52.44	326.92	15.36	-30.0	-33.4	12.6	3.12e-04	0	43	102	1048576	20	5315
2026-01-05 03:07:53.44	326.71	15.37	-30.1	-33.5	12.6	9.61e-05	0	43	102	1048576	20	5338
2026-01-05 03:07:54.44	326.49	15.37	-30.1	-33.5	12.6	9.00e-05	0	43	102	1048576	20	5351
2026-01-05 03:07:55.45	326.28	15.37	-30.1	-33.6	12.5	1.36e-04	0	43	102	1048576	20	5377
2026-01-05 03:07:56.46	326.06	15.37	-30.1	-33.6	12.5	1.25e-04	0	43	102	1048576	20	5360
2026-01-05 03:07:57.47	325.85	15.37	-30.1	-33.5	12.6	9.38e-05	0	43	102	1048576	20	5337
2026-01-05 03:07:58.48	325.63	15.37	-30.0	-33.4	12.6	8.01e-05	0	43	102	1048576	20	5295
2026-01-05 03:07:59.47	325.42	15.37	-30.1	-33.5	12.6	8.69e-05	0	43	102	1048576	20	5357
2026-01-05 03:08:00.47	325.20	15.37	-29.3	-32.9	12.4	1.22e-04	0	43	102	1048576	20	5412
2026-01-05 03:08:01.48	324.99	15.36	-30.2	-33.8	12.3	1.27e-04	0	43	102	1048576	20	5479
2026-01-05 03:08:02.49	324.77	15.36	-30.3	-34.5	12.0	4.95e-04	0	43	102	1048576	19	5863
2026-01-05 03:08:03.50	324.55	15.36	-30.2	-33.9	11.3	1.86e-04	0	43	102	1048576	20	5526
2026-01-05 03:08:04.51	324.34	15.36	-30.3	-34.1	12.1	2.12e-04	0	43	102	1048576	20	5610
2026-01-05 03:08:05.51	324.12	15.35	-30.2	-34.0	11.2	2.78e-04	0	43	102	1048576	20	5540
2026-01-05 03:08:06.51	323.91	15.35	-30.1	-33.6	12.5	2.71e-03	0	43	102	1048576	20	5385
2026-01-05 03:08:07.52	323.69	15.35	-30.0	-33.3	12.7	8.85e-05	0	43	102	1048576	20	5260
2026-01-05 03:08:08.53	323.48	15.34	-30.0	-33.2	12.8	6.94e-05	0	43	102	1048576	20	5223
2026-01-05 03:08:09.54	323.26	15.34	-30.0	-33.1	12.8	2.88e-03	0	43	102	1048576	20	5189
2026-01-05 03:08:10.54	323.05	15.33	-29.9	-33.0	12.9	5.26e-05	0	43	102	1048576	20	5145
2026-01-05 03:08:11.55	322.83	15.33	-30.0	-33.7	12.9	7.24e-05	0	43	102	1048576	19	5503
2026-01-05 03:08:12.55	322.62	15.32	-30.0	-33.6	12.9	4.27e-05	0	43	102	1048576	19	5478
2026-01-05 03:08:13.55	322.40	15.31	-29.9	-33.1	12.8	1.86e-04	0	43	102	1048576	20	5165
2026-01-05 03:08:14.56	322.19	15.31	-30.0	-33.3	12.7	6.63e-05	0	43	102	1048576	20	5267
2026-01-05 03:08:15.56	321.98	15.30	-30.1	-33.5	12.5	9.61e-05	0	43	102	1048576	20	5348
2026-01-05 03:08:16.57	321.76	15.29	-30.1	-33.6	12.5	1.87e-04	0	43	102	1048576	20	5404
2026-01-05 03:08:17.57	321.55	15.28	-30.2	-33.9	12.3	2.60e-03	0	43	102	1048576	20	5507
2026-01-05 03:08:18.58	321.33	15.28	-30.3	-34.1	12.2	2.39e-04	0	43	102	1048576	20	5582
2026-01-05 03:08:19.58	321.12	15.27	-30.3	-34.0	12.2	2.53e-04	0	43	102	1048576	20	5558
2026-01-05 03:08:20.59	320.90	15.26	-30.3	-34.3	12.0	3.20e-03	0	43	102	1048576	20	5660
2026-01-05 03:08:21.59	320.69	15.25	-29.3	-33.1	12.0	3.72e-04	0	43	102	1048576	20	5607
2026-01-05 03:08:22.60	320.48	15.24	-30.3	-34.3	12.0	2.78e-04	0	43	102	1048576	20	5683
2026-01-05 03:08:23.61	320.26	15.23	-30.4	-34.5	11.9	3.32e-03	0	43	102	1048576	20	5748
2026-01-05 03:08:24.62	320.05	15.22	-30.4	-34.3	11.9	3.20e-03	0	43	102	1048576	20	5694
2026-01-05 03:08:25.63	319.83	15.21	-30.2	-33.9	12.3	2.88e-04	0	43	102	1048576	20	5518
2026-01-05 03:08:26.63	319.62	15.19	-30.1	-33.6	12.4	2.60e-03	0	43	102	1048576	20	5391
2026-01-05 03:08:27.64	319.41	15.18	-30.1	-33.6	12.5	2.66e-03	0	43	102	1048576	20	5366
2026-01-05 03:08:28.65	319.19	15.17	-30.1	-33.6	12.5	9.84e-05	0	43	102	1048576	20	5370
2026-01-05 03:08:29.65	318.98	15.16	-30.2	-33.8	12.3	2.55e-03	0	43	102	1048576	20	5468
2026-01-05 03:08:30.66	318.77	15.14	-30.2	-33.9	12.2	2.37e-03	0	43	102	1048576	20	5511
2026-01-05 03:08:31.67	318.56	15.13	-30.3	-34.1	12.2	4.44e-04	0	43	102	1048576	20	5587
2026-01-05 03:08:32.68	318.34	15.12	-30.3	-34.1	12.1	2.88e-04	0	43	102	1048576	20	5590
2026-01-05 03:08:33.68	318.13	15.10	-30.2	-34.0	12.2	2.29e-03	0	43	102	1048576	20	5554
2026-01-05 03:08:34.68	317.92	15.09	-30.2	-34.0	12.2	3.11e-04	0	43	102	1048576	20	5552
2026-01-05 03:08:35.69	317.71	15.07	-30.3	-34.1	12.1	2.56e-03	0	44	102	1048576	20	5603
2026-01-05 03:08:36.70	317.50	15.06	-30.2	-34.0	12.2	2.93e-03	0	43	102	1048576	20	5542
2026-01-05 03:08:37.70	317.29	15.04	-30.2	-33.8	12.3	2.92e-04	0	43	102	1048576	20	5467
2026-01-05 03:08:38.71	317.08	15.02	-30.1	-33.6	12.4	2.78e-03	0	43	102	1048576	20	5400
2026-01-05 03:08:39.71	316.87	15.01	-30.2	-33.8	12.3	2.63e-03	0	43	102	1048576	20	5465
2026-01-05 03:08:40.72	316.66	14.99	-30.1	-33.6	12.5	4.99e-04	0	43	102	1048576	20	5374
2026-01-05 03:08:41.73	316.45	14.97	-30.0	-33.3	12.6	2.48e-03	0	43	102	1048576	20	5285
2026-01-05 03:08:42.73	316.24	14.96	-30.1	-33.5	12.5	2.22e-03	0	43	102	1048576	20	5349
2026-01-05 03:08:43.74	316.03	14.94	-30.1	-33.6	12.5	5.28e-04	0	43	102	1048576	20	5376
2026-01-05 03:08:44.74	315.82	14.92	-30.2	-33.8	12.3	1.85e-03	0	44	102	1048576	20	5484
2026-01-05 03:08:45.75	315.61	14.90	-30.1	-33.5	12.5	1.94e-03	0	43	102	1048576	20	5358
2026-01-05 03:08:46.76	315.40	14.88	-29.9	-33.2	12.7	8.23e-05	0	43	102	1048576	20	5214
2026-01-05 03:08:47.77	315.19	14.86	-29.9	-33.4	13.0	1.95e-03	0	43	102	1048576	19	5401
2026-01-05 03:08:48.78	314.98	14.84	-29.8	-33.3	13.1	2.05e-03	0	43	102	1048576	19	5352
2026-01-05 03:08:49.78	314.77	14.82	-29.9	-33.4	13.0	4.04e-05	0	43	102	1048576	19	5395
2026-01-05 03:08:50.79	314.57	14.80	-29.8	-33.2	13.1	2.41e-03	0	43	102	1048576	19	5345
2026-01-05 03:08:51.79	314.36	14.78	-29.8	-33.2	13.1	2.21e-03	0	43	102	1048576	19	5317
2026-01-05 03:08:52.81	314.15	14.76	-30.0	-33.6	12.8	5.49e-05	0	43	102	1048576	19	5499
2026-01-05 03:08:53.81	313.94	14.74	-29.9	-33.1	12.7	6.79e-05	0	43	102	1048576	20	5198
2026-01-05 03:08:54.82	313.74	14.71	-29.9	-33.6	12.9	2.70e-03	0	43	102	1048576	19	5483
2026-01-05 03:08:55.83	313.53	14.69	-30.0	-33.2	12.7	3.23e-04	0	43	102	1048576	20	5242
2026-01-05 03:08:56.83	313.32	14.67	-30.0	-33.5	12.5	8.54e-05	0	44	102	1048576	20	5338
2026-01-05 03:08:57.84	313.12	14.64	-30.0	-33.2	12.6	2.52e-03	0	43	102	1048576	20	5243
2026-01-05 03:08:58.85	312.91	14.62	-29.9	-33.0	12.8	3.43e-04	0	43	102	1048576	20	5169
2026-01-05 03:08:59.85	312.71	14.60	-29.9	-33.6	12.8	5.87e-05	0	43	102	1048576	19	5494
2026-01-05 03:09:00.86	312.50	14.57	-29.9	-33.6	12.8	6.17e-05	0	44	102	1048576	19	5490
2026-01-05 03:09:01.87	312.30	14.55	-29.9	-33.6	12.8	3.84e-04	0	43	102	1048576	19	5512
2026-01-05 03:09:02.88	312.09	14.52	-30.0	-33.7	12.8	5.56e-05	0	43	102	1048576	19	5510
2026-01-05 03:09:03.88	311.89	14.50	-29.9	-33.6	12.8	1.59e-04	0	43	102	1048576	19	5496
2026-01-05 03:09:04.88	311.69	14.47	-30.0	-33.7	12.7	2.26e-04	0	43	102	1048576	19	5534
2026-01-05 03:09:05.88	311.49	14.45	-30.0	-33.3	12.6	1.93e-03	0	43	102	1048576	20	5265
2026-01-05 03:09:06.88	311.29	14.42	-30.1	-33.6	12.5	3.49e-04	0	43	102	1048576	20	5394
2026-01-05 03:09:07.89	311.08	14.39	-30.1	-33.6	12.4	5.74e-04	0	43	102	1048576	20	5384
2026-01-05 03:09:08.90	310.88	14.37	-30.2	-33.9	12.2	2.25e-03	0	43	102	1048576	20	5505
2026-01-05 03:09:09.90	310.68	14.34	-30.1	-33.7	12.3	1.91e-04	0	43	102	1048576	20	5443
2026-01-05 03:09:10.91	310.48	14.31	-30.2	-34.0	12.2	1.59e-03	0	43	102	1048576	20	5547
2026-01-05 03:09:11.92	310.28	14.29	-30.2	-33.8	12.2	2.47e-04	0	44	102	1048576	20	5482
2026-01-05 03:09:12.93	310.08	14.26	-30.1	-33.7	12.3	1.78e-04	0	43	102	1048576	20	5423
2026-01-05 03:09:13.93	309.88	14.23	-30.1	-33.7	12.3	1.43e-03	0	43	102	1048576	20	5437
2026-01-05 03:09:14.93	309.68	14.20	-30.1	-33.7	12.3	1.62e-04	0	43	102	1048576	20	5437
2026-01-05 03:09:15.94	309.48	14.17	-30.2	-34.1	12.0	1.37e-03	0	43	102	1048576	20	5597
2026-01-05 03:09:16.95	309.28	14.14	-30.1	-33.8	12.2	2.37e-04	0	43	102	1048576	20	5476
2026-01-05 03:09:17.95	309.08	14.11	-30.2	-34.1	12.0	2.34e-04	0	43	102	1048576	20	5609
2026-01-05 03:09:18.96	308.88	14.08	-30.1	-33.7	12.3	1.04e-03	0	44	102	1048576	20	5446
2026-01-05 03:09:19.97	308.69	14.05	-30.1	-33.6	12.4	1.46e-04	0	44	102	1048576	20	5390
2026-01-05 03:09:20.98	308.49	14.02	-30.1	-33.7	12.3	1.62e-04	0	43	102	1048576	20	5438
2026-01-05 03:09:21.98	308.29	13.99	-30.1	-33.8	12.2	1.15e-03	0	43	102	1048576	20	5487
2026-01-05 03:09:22.99	308.10	13.96	-30.2	-33.9	12.2	2.32e-04	0	43	102	1048576	20	5519
2026-01-05 03:09:24.00	307.90	13.93	-30.3	-34.4	11.8	3.62e-04	0	43	102	1048576	20	5734
2026-01-05 03:09:25.00	307.71	13.90	-30.3	-34.2	11.9	9.27e-04	0	43	102	1048576	20	5671
2026-01-05 03:09:26.01	307.51	13.86	-30.3	-34.4	11.7	4.36e-04	0	44	102	1048576	20	5751
2026-01-05 03:09:27.01	307.32	13.83	-30.2	-34.1	11.9	3.76e-04	0	43	102	1048576	20	5604
2026-01-05 03:09:28.02	307.12	13.80	-30.1	-33.8	12.2	2.49e-04	0	43	102	1048576	20	5503
2026-01-05 03:09:29.03	306.93	13.77	-30.0	-33.5	12.4	7.48e-04	0	43	102	1048576	20	5351
2026-01-05 03:09:30.04	306.73	13.73	-30.0	-33.4	12.5	1.39e-04	0	43	102	1048576	20	5322
2026-01-05 03:09:31.05	306.54	13.70	-29.9	-33.1	12.7	9.23e-05	0	43	102	1048576	20	5200
2026-01-05 03:09:32.05	306.35	13.66	-30.0	-33.8	12.6	1.26e-03	0	43	102	1048576	19	5587
2026-01-05 03:09:33.06	306.16	13.63	-29.9	-33.5	12.8	2.45e-03	0	43	102	1048576	19	5475
2026-01-05 03:09:34.07	305.96	13.60	-29.9	-33.5	12.8	4.95e-05	0	43	102	1048576	19	5461
2026-01-05 03:09:35.08	305.77	13.56	-30.0	-33.8	12.6	5.34e-05	0	43	102	1048576	19	5579
2026-01-05 03:09:36.07	305.58	13.53	-29.9	-33.7	12.7	2.28e-03	0	43	102	1048576	19	5529
2026-01-05 03:09:37.08	305.39	13.49	-29.9	-33.2	12.5	9.91e-05	0	43	102	1048576	20	5263
2026-01-05 03:09:38.09	305.20	13.46	-30.1	-33.8	12.2	1.83e-04	0	43	102	1048576	20	5502
2026-01-05 03:09:39.09	305.01	13.42	-30.0	-33.5	12.4	2.01e-04	0	43	102	1048576	20	5358
2026-01-05 03:09:40.09	304.83	13.39	-30.0	-33.5	12.3	1.69e-04	0	43	102	1048576	20	5377
2026-01-05 03:09:41.10	304.64	13.35	-30.1	-33.6	12.2	1.91e-04	0	43	102	1048576	20	5424
2026-01-05 03:09:42.11	304.45	13.31	-30.1	-33.8	12.1	2.28e-04	0	43	102	1048576	20	5493
2026-01-05 03:09:43.11	304.26	13.28	-30.0	-33.3	12.5	1.47e-04	0	43	102	1048576	20	5297
2026-01-05 03:09:44.12	304.07	13.24	-29.9	-33.6	12.7	1.27e-03	0	43	102	1048576	19	5496
2026-01-05 03:09:45.12	303.89	13.20	-29.8	-33.4	12.8	6.63e-05	0	43	102	1048576	19	5443
2026-01-05 03:09:46.12	303.70	13.17	-29.8	-33.5	12.7	6.71e-05	0	43	102	1048576	19	5459
2026-01-05 03:09:47.13	303.52	13.13	-29.9	-33.7	12.6	1.76e-03	0	43	102	1048576	19	5547
2026-01-05 03:09:48.14	303.33	13.09	-29.8	-33.4	12.8	7.17e-05	0	43	102	1048576	19	5418
2026-01-05 03:09:49.14	303.15	13.05	-29.8	-33.3	12.9	5.56e-05	0	43	102	1048576	19	5377
2026-01-05 03:09:50.15	302.96	13.01	-29.8	-33.3	12.9	1.88e-03	0	43	102	1048576	19	5387
2026-01-05 03:09:51.16	302.78	12.97	-29.8	-33.4	12.3	2.19e-03	0	44	102	1048576	19	5419
2026-01-05 03:09:52.17	302.60	12.94	-29.9	-33.5	12.6	5.18e-05	0	43	102	1048576	19	5473
2026-01-05 03:09:53.17	302.41	12.90	-29.8	-33.4	12.8	2.37e-03	0	43	102	1048576	19	5432
2026-01-05 03:09:54.18	302.23	12.86	-29.8	-33.5	12.7	2.24e-03	0	44	102	1048576	19	5465
2026-01-05 03:09:55.18	302.05	12.82	-29.9	-33.7	12.5	8.54e-05	0	43	102	1048576	19	5564
2026-01-05 03:09:56.19	301.87	12.78	-30.0	-33.5	12.3	2.32e-03	0	43	102	1048576	20	5383
2026-01-05 03:09:57.20	301.69	12.74	-30.1	-33.9	12.0	2.71e-03	0	43	102	1048576	20	5564
2026-01-05 03:09:58.20	301.51	12.70	-30.3	-34.4	11.7	5.59e-04	0	43	102	1048576	20	5755
2026-01-05 03:09:59.21	301.33	12.66	-30.1	-33.9	12.0	1.96e-03	0	43	102	1048576	20	5541
2026-01-05 03:10:00.21	301.15	12.62	-30.2	-34.2	11.8	1.39e-03	0	43	102	1048576	20	5690
2026-01-05 03:10:01.22	300.97	12.58	-30.3	-34.5	11.5	7.03e-04	0	43	102	1048576	20	5838
2026-01-05 03:10:02.23	300.79	12.54	-30.2	-34.0	11.9	1.25e-03	0	43	102	1048576	20	5603
2026-01-05 03:10:03.23	300.62	12.50	-30.0	-33.6	12.2	2.94e-03	0	43	102	1048576	20	5442
2026-01-05 03:10:04.24	300.44	12.45	-30.0	-33.6	12.2	1.80e-04	0	43	102	1048576	20	5413
2026-01-05 03:10:05.24	300.26	12.41	-30.1	-33.8	12.1	1.89e-03	0	43	102	1048576	20	5511
2026-01-05 03:10:06.25	300.09	12.37	-30.1	-33.9	12.0	3.76e-03	0	43	102	1048576	20	5572
2026-01-05 03:10:07.25	299.91	12.33	-30.4	-34.6	11.5	7.58e-04	0	44	102	1048576	20	5860
2026-01-05 03:10:08.26	299.74	12.29	-30.2	-34.2	11.8	1.47e-03	0	43	102	1048576	20	5665
2026-01-05 03:10:09.27	299.56	12.24	-30.1	-33.8	12.0	2.18e-03	0	43	102	1048576	20	5515
2026-01-05 03:10:10.28	299.39	12.20	-30.0	-33.7	12.1	2.23e-03	0	43	102	1048576	20	5453
2026-01-05 03:10:11.29	299.21	12.16	-30.0	-33.6	12.2	7.63e-04	0	43	102	1048576	20	5408
2026-01-05 03:10:12.30	299.04	12.12	-30.0	-33.4	12.3	7.84e-04	0	44	102	1048576	20	5357
2026-01-05 03:10:13.31	298.86	12.07	-30.0	-33.6	12.1	1.99e-03	0	43	102	1048576	20	5430
2026-01-05 03:10:14.32	298.69	12.03	-30.1	-33.8	12.0	1.64e-03	0	43	102	1048576	20	5533
2026-01-05 03:10:15.32	298.52	11.99	-30.1	-33.9	12.0	1.93e-03	0	43	102	1048576	20	5557
2026-01-05 03:10:16.33	298.35	11.94	-30.1	-33.9	11.9	2.04e-03	0	44	102	1048576	20	5552
2026-01-05 03:10:17.34	298.18	11.90	-30.2	-34.1	11.8	2.28e-03	0	43	102	1048576	20	5661
2026-01-05 03:10:18.35	298.01	11.85	-30.2	-34.3	11.6	2.44e-03	0	43	102	1048576	20	5730
2026-01-05 03:10:19.35	297.84	11.81	-30.3	-34.5	11.5	2.16e-03	0	43	102	1048576	20	5828
2026-01-05 03:10:20.36	297.67	11.77	-30.4	-34.7	11.3	1.08e-03	0	43	102	1048576	20	5943
2026-01-05 03:10:21.37	297.50	11.72	-30.4	-34.7	11.3	4.03e-03	0	44	102	1048576	20	5933
2026-01-05 03:10:22.37	297.33	11.68	-30.4	-34.9	11.2	2.98e-03	0	44	102	1048576	20	6003
2026-01-05 03:10:23.38	297.16	11.63	-30.4	-34.9	11.2	1.27e-03	0	44	102	1048576	20	6014
2026-01-05 03:10:24.39	297.00	11.59	-30.5	-34.6	11.0	4.06e-03	0	43	102	1048576	21	5790
2026-01-05 03:10:25.39	296.83	11.54	-30.5	-34.6	11.0	2.01e-03	0	43	102	1048576	21	5797
2026-01-05 03:10:26.40	296.66	11.50	-30.5	-34.7	10.9	2.09e-03	0	43	102	1048576	21	5834
2026-01-05 03:10:27.40	296.50	11.45	-30.5	-34.7	10.9	3.93e-03	0	43	102	1048576	21	5841
2026-01-05 03:10:28.40	296.34	11.41	-30.6	-35.0	10.7	4.67e-03	0	44	102	1048576	21	5961
2026-01-05 03:10:29.41	296.17	11.36	-30.7	-35.2	10.5	3.87e-03	0	43	102	1048576	21	6070
2026-01-05 03:10:30.42	296.01	11.32	-30.6	-35.1	10.6	5.40e-03	0	44	102	1048576	21	6034
2026-01-05 03:10:31.42	295.84	11.27	-30.8	-35.6	10.3	6.13e-03	0	44	102	1048576	21	6259
2026-01-05 03:10:32.43	295.68	11.22	-30.9	-36.1	9.8	8.57e-03	0	43	102	1048576	21	6549
2026-01-05 03:10:33.44	295.52	11.18	-30.9	-36.2	9.7	1.31e-02	0	43	102	1048576	21	6594
2026-01-05 03:10:34.45	295.36	11.13	-31.0	-36.3	9.7	1.20e-02	0	43	102	1048576	21	6653
2026-01-05 03:10:35.45	295.20	11.09	-31.1	-36.3	9.3	1.32e-02	0	43	102	1048576	22	6570
2026-01-05 03:10:36.46	295.03	11.04	-31.1	-36.5	9.2	2.50e-02	0	43	102	1048576	22	6656
2026-01-05 03:10:37.47	294.87	10.99	-31.0	-36.1	9.4	1.95e-02	0	43	102	1048576	22	6467
2026-01-05 03:10:38.47	294.71	10.95	-31.0	-35.9	9.6	1.47e-02	0	44	102	1048576	22	6311
2026-01-05 03:10:39.48	294.55	10.90	-30.9	-36.3	9.7	1.09e-02	0	44	102	1048576	21	6641
2026-01-05 03:10:40.49	294.40	10.85	-31.0	-36.1	9.5	1.48e-02	0	43	102	1048576	22	6428
2026-01-05 03:10:41.50	294.24	10.80	-31.2	-36.7	9.0	1.80e-02	0	43	102	1048576	22	6780
2026-01-05 03:10:42.51	294.08	10.76	-31.2	-36.8	8.8	3.25e-02	0	43	102	1048576	22	6869
2026-01-05 03:10:43.51	293.92	10.71	-31.1	-36.5	9.1	2.48e-02	0	43	102	1048576	22	6649
2026-01-05 03:10:44.52	293.76	10.66	-31.1	-36.2	9.4	1.88e-02	0	43	102	1048576	22	6484
2026-01-05 03:10:45.53	293.61	10.61	-31.0	-36.0	9.5	1.50e-02	0	44	102	1048576	22	6394
2026-01-05 03:10:46.53	293.45	10.57	-31.1	-36.2	9.4	1.56e-02	0	43	102	1048576	22	6478
2026-01-05 03:10:47.54	293.30	10.52	-31.1	-36.3	9.3	1.75e-02	0	43	102	1048576	22	6564
2026-01-05 03:10:48.55	293.14	10.47	-31.1	-36.3	9.2	2.07e-02	0	43	102	1048576	22	6585
2026-01-05 03:10:49.56	292.99	10.42	-31.1	-36.3	9.2	2.18e-02	0	43	102	1048576	22	6544
2026-01-05 03:10:50.56	292.84	10.37	-31.0	-36.1	9.4	1.77e-02	0	43	102	1048576	22	6470
2026-01-05 03:10:51.56	292.68	10.33	-31.0	-36.0	9.5	1.79e-02	0	44	102	1048576	22	6400
2026-01-05 03:10:52.57	292.53	10.28	-31.0	-36.0	9.5	1.49e-02	0	43	102	1048576	22	6391
2026-01-05 03:10:53.58	292.38	10.23	-31.0	-36.5	9.5	1.49e-02	0	43	102	1048576	21	6771
2026-01-05 03:10:54.59	292.23	10.18	-31.0	-36.0	9.4	1.74e-02	0	43	102	1048576	22	6425
2026-01-05 03:10:55.60	292.07	10.13	-31.0	-36.5	9.4	1.74e-02	0	43	102	1048576	21	6804
2026-01-05 03:10:56.60	291.92	10.08	-31.0	-36.5	9.4	1.58e-02	0	43	102	1048576	21	6784
2026-01-05 03:10:57.60	291.78	10.03	-31.0	-36.5	9.4	1.49e-02	0	43	102	1048576	21	6816
2026-01-05 03:10:58.61	291.63	9.98	-31.0	-36.3	9.2	2.02e-02	0	43	102	1048576	22	6583
2026-01-05 03:10:59.62	291.48	9.93	-31.1	-36.7	8.8	2.43e-02	0	43	102	1048576	22	6816
2026-01-05 03:11:00.62	291.33	9.89	-31.2	-36.7	8.8	3.33e-02	0	43	102	1048576	22	6855
2026-01-05 03:11:01.63	291.18	9.84	-31.1	-36.4	9.1	2.71e-02	0	44	102	1048576	22	6637
2026-01-05 03:11:02.63	291.03	9.79	-31.0	-36.1	9.3	2.26e-02	0	44	102	1048576	22	6475
2026-01-05 03:11:03.64	290.89	9.74	-31.0	-36.2	9.3	2.00e-02	0	43	102	1048576	22	6542
2026-01-05 03:11:04.65	290.74	9.69	-31.0	-36.1	9.3	2.07e-02	0	43	102	1048576	22	6503
2026-01-05 03:11:05.66	290.59	9.64	-31.0	-36.6	9.2	2.24e-02	0	43	102	1048576	21	6913
2026-01-05 03:11:06.66	290.45	9.59	-31.0	-36.1	9.3	2.01e-02	0	43	102	1048576	22	6483
2026-01-05 03:11:07.67	290.30	9.54	-30.9	-36.4	9.4	1.77e-02	0	44	102	1048576	21	6767
2026-01-05 03:11:08.68	290.16	9.49	-30.9	-36.5	9.3	1.95e-02	0	44	102	1048576	21	6822
2026-01-05 03:11:09.69	290.01	9.44	-30.9	-36.4	9.3	1.84e-02	0	44	102	1048576	21	6796
2026-01-05 03:11:10.69	289.87	9.39	-31.0	-36.7	9.1	1.97e-02	0	43	102	1048576	21	6957
2026-01-05 03:11:11.70	289.73	9.34	-31.0	-36.3	9.0	2.41e-02	0	43	102	1048576	22	6639
2026-01-05 03:11:12.71	289.58	9.29	-31.0	-36.4	8.9	2.63e-02	0	43	102	1048576	22	6662
2026-01-05 03:11:13.72	289.44	9.24	-31.0	-36.4	8.9	2.80e-02	0	43	102	1048576	22	6720
2026-01-05 03:11:14.73	289.30	9.19	-31.0	-36.5	8.9	2.76e-02	0	43	102	1048576	22	6728
2026-01-05 03:11:15.74	289.16	9.14	-31.0	-36.5	8.8	3.12e-02	0	43	102	1048576	22	6779
2026-01-05 03:11:16.74	289.02	9.09	-31.0	-36.6	8.7	3.37e-02	0	44	102	1048576	22	6867
2026-01-05 03:11:17.74	288.88	9.04	-31.0	-36.6	8.7	4.03e-02	0	43	102	1048576	22	6817
2026-01-05 03:11:18.75	288.74	8.99	-30.9	-36.5	9.1	2.69e-02	0	44	102	1048576	21	6901
2026-01-05 03:11:19.76	288.60	8.94	-30.8	-36.4	9.1	2.44e-02	0	43	102	1048576	21	6856
2026-01-05 03:11:20.77	288.46	8.88	-30.9	-36.8	8.9	2.66e-02	0	44	102	1048576	21	7053
2026-01-05 03:11:21.77	288.32	8.83	-30.8	-36.5	9.1	2.71e-02	0	44	102	1048576	21	6885
2026-01-05 03:11:22.77	288.19	8.78	-30.7	-36.1	9.4	2.17e-02	0	43	102	1048576	21	6645
2026-01-05 03:11:23.78	288.05	8.73	-30.7	-35.9	9.5	1.77e-02	0	44	102	1048576	21	6580
2026-01-05 03:11:24.78	287.91	8.68	-30.7	-36.0	9.4	1.58e-02	0	43	102	1048576	21	6622
2026-01-05 03:11:25.79	287.78	8.63	-30.8	-36.3	9.2	2.15e-02	0	43	102	1048576	21	6806
2026-01-05 03:11:26.79	287.64	8.58	-30.8	-36.2	9.2	2.35e-02	0	43	102	1048576	21	6765
2026-01-05 03:11:27.80	287.51	8.53	-30.8	-36.3	9.1	1.85e-02	0	44	102	1048576	21	6837
2026-01-05 03:11:28.81	287.37	8.48	-30.7	-36.1	9.3	2.05e-02	0	44	102	1048576	21	6715
2026-01-05 03:11:29.82	287.24	8.43	-30.7	-36.0	9.4	1.97e-02	0	43	102	1048576	21	6616
2026-01-05 03:11:30.83	287.10	8.38	-30.7	-36.0	9.3	1.61e-02	0	43	102	1048576	21	6652
2026-01-05 03:11:31.84	286.97	8.32	-30.8	-36.4	9.0	2.26e-02	0	44	102	1048576	21	6859
2026-01-05 03:11:32.85	286.84	8.27	-30.8	-36.5	8.9	3.07e-02	0	43	102	1048576	21	6926
2026-01-05 03:11:33.85	286.70	8.22	-30.8	-36.5	8.9	2.70e-02	0	44	102	1048576	21	6952
2026-01-05 03:11:34.86	286.57	8.17	-30.8	-36.6	8.8	3.00e-02	0	44	102	1048576	21	7011
2026-01-05 03:11:35.87	286.44	8.12	-30.8	-36.7	8.7	3.39e-02	0	44	102	1048576	21	7107
2026-01-05 03:11:36.88	286.31	8.07	-30.7	-36.4	8.9	3.37e-02	0	44	102	1048576	21	6921
2026-01-05 03:11:37.88	286.18	8.02	-30.6	-36.0	9.2	2.46e-02	0	44	102	1048576	21	6649
2026-01-05 03:11:38.89	286.05	7.96	-30.5	-35.6	9.5	1.49e-02	0	44	102	1048576	21	6446
2026-01-05 03:11:39.90	285.92	7.91	-30.5	-35.4	9.7	1.33e-02	0	44	102	1048576	21	6367
2026-01-05 03:11:40.91	285.79	7.86	-30.5	-35.9	9.7	1.39e-02	0	43	102	1048576	20	6734
2026-01-05 03:11:41.90	285.66	7.81	-30.4	-35.8	9.7	1.19e-02	0	43	102	1048576	20	6673
2026-01-05 03:11:42.91	285.54	7.76	-30.5	-35.7	9.4	1.26e-02	0	43	102	1048576	21	6542
2026-01-05 03:11:43.91	285.41	7.71	-30.7	-36.3	8.9	2.33e-02	0	44	102	1048576	21	6893
2026-01-05 03:11:44.92	285.28	7.66	-30.5	-35.7	9.4	1.87e-02	0	43	102	1048576	21	6535
2026-01-05 03:11:45.93	285.15	7.60	-30.4	-35.3	9.7	1.26e-02	0	44	102	1048576	21	6281
2026-01-05 03:11:46.93	285.03	7.55	-30.3	-35.3	10.1	8.95e-03	0	43	102	1048576	20	6418
2026-01-05 03:11:47.94	284.90	7.50	-30.4	-35.6	9.9	1.09e-02	0	43	102	1048576	20	6553
2026-01-05 03:11:48.95	284.78	7.45	-30.4	-35.5	9.9	1.02e-02	0	44	102	1048576	20	6534
2026-01-05 03:11:49.95	284.65	7.40	-30.4	-35.6	9.9	8.59e-03	0	44	102	1048576	20	6545
2026-01-05 03:11:50.96	284.53	7.35	-30.3	-35.5	10.0	1.32e-02	0	43	102	1048576	20	6498
2026-01-05 03:11:51.96	284.40	7.29	-30.3	-35.3	10.0	8.50e-03	0	43	102	1048576	20	6422
2026-01-05 03:11:52.97	284.28	7.24	-30.4	-35.7	9.7	1.12e-02	0	43	102	1048576	20	6641
2026-01-05 03:11:53.98	284.16	7.19	-30.2	-35.1	10.2	1.04e-02	0	43	102	1048576	20	6304
2026-01-05 03:11:54.98	284.04	7.14	-30.4	-35.8	9.6	1.14e-02	0	44	102	1048576	20	6731
2026-01-05 03:11:55.99	283.91	7.09	-30.3	-35.4	9.9	1.01e-02	0	44	102	1048576	20	6484
2026-01-05 03:11:56.99	283.79	7.03	-32.4	-46.8	3.8	1.31e+00	0	43	104	1048576	24	18959
2026-01-05 03:11:58.00	283.67	6.98	-33.0	-47.5	3.8	1.49e+00	0	44	104	1048576	25	19173

#Closed at: 2026-01-05 03:11:59
#Recorded file [1 MB]: D:/data/31010_260105_060359.dat