passes_logs/2026/01/05/R2M6_AANII_01/R2M6_AANII_01__20260105_024303_SUOMI_NPP_rec.log

#Pass ID: 20260105_024303_SUOMI NPP
#Satellite: SUOMI NPP
#Configuration: NPP
#almurnet v.1.7.20240730
#Start time: 2026-01-05 02:43:27

#Version: 2.2.20231116
#Station: R2M6_AANII_01
#Location: 30.233357 lon 59.946436 lat
#TLE: 1 37849U 11061A   26003.96724563  .00000164  00000+0  98899-4 0  9990
#TLE: 2 37849  98.7800 306.1116 0002573  82.3190 277.8279 14.19522066735141

#Time	Az	El	Level	Level2	SNR	BER	BlckErr	Temp	State	Recorded	gain1	gain2
2026-01-05 02:43:27.14	6.61	8.40	-33.6	-52.8	3.8	7.45e-01	0	43	0	0	28	32583
2026-01-05 02:43:28.14	6.49	8.46	-33.9	-46.5	3.8	1.49e+00	0	43	104	0	27	15335
2026-01-05 02:43:29.14	6.37	8.52	-33.9	-46.6	3.8	1.49e+00	0	43	104	0	27	15409
2026-01-05 02:43:30.15	6.26	8.58	-33.9	-46.6	3.8	1.49e+00	0	43	104	0	27	15432
2026-01-05 02:43:31.16	6.14	8.64	-34.0	-46.6	3.8	1.49e+00	0	43	104	0	27	15424
2026-01-05 02:43:32.17	6.02	8.70	-34.0	-46.6	3.8	1.49e+00	0	43	104	0	27	15438
2026-01-05 02:43:33.18	5.90	8.76	-34.0	-46.6	3.8	1.49e+00	0	43	104	0	27	15446
2026-01-05 02:43:34.18	5.78	8.82	-33.9	-46.6	3.8	1.49e+00	0	43	104	0	27	15440
2026-01-05 02:43:35.18	5.66	8.88	-33.9	-46.5	3.8	1.49e+00	0	43	104	0	27	15388
2026-01-05 02:43:36.19	5.54	8.94	-33.9	-46.5	3.8	1.49e+00	0	43	104	0	27	15343
2026-01-05 02:43:37.20	5.41	9.00	-33.9	-46.5	3.8	1.49e+00	0	43	104	0	27	15334
2026-01-05 02:43:38.21	5.29	9.06	-33.9	-46.5	3.8	1.49e+00	0	43	104	0	27	15376
2026-01-05 02:43:39.21	5.17	9.12	-33.9	-46.5	3.8	1.49e+00	0	43	104	0	27	15312
2026-01-05 02:43:40.22	5.05	9.18	-33.9	-46.5	3.8	1.49e+00	0	43	104	0	27	15319
2026-01-05 02:43:41.23	4.92	9.24	-33.9	-46.4	3.8	1.49e+00	0	43	104	0	27	15309
2026-01-05 02:43:42.23	4.80	9.30	-33.9	-46.4	3.8	1.49e+00	0	43	104	0	27	15276
2026-01-05 02:43:43.24	4.67	9.36	-33.9	-46.5	3.8	1.49e+00	0	43	104	0	27	15317
2026-01-05 02:43:44.24	4.55	9.42	-33.9	-46.6	3.8	1.49e+00	0	44	104	0	27	15402
2026-01-05 02:43:45.25	4.42	9.48	-33.9	-46.6	3.8	1.49e+00	0	43	104	0	27	15460
2026-01-05 02:43:46.26	4.30	9.54	-33.9	-46.5	3.8	1.49e+00	0	43	104	0	27	15375
2026-01-05 02:43:47.27	4.17	9.60	-33.9	-46.5	3.8	1.49e+00	0	43	104	0	27	15383
2026-01-05 02:43:48.28	4.04	9.66	-33.9	-46.5	3.8	1.49e+00	0	43	104	0	27	15394
2026-01-05 02:43:49.28	3.92	9.72	-33.9	-46.5	3.8	1.49e+00	0	43	104	0	27	15380
2026-01-05 02:43:50.29	3.79	9.78	-33.9	-46.5	3.8	1.49e+00	0	43	104	0	27	15347
2026-01-05 02:43:51.30	3.66	9.84	-33.9	-46.4	3.8	1.49e+00	0	43	104	0	27	15296
2026-01-05 02:43:52.30	3.53	9.90	-33.8	-46.4	3.8	1.49e+00	0	44	104	0	27	15304
2026-01-05 02:43:53.31	3.40	9.96	-33.8	-46.3	3.8	1.49e+00	0	43	104	0	27	15205
2026-01-05 02:43:54.32	3.27	10.02	-33.8	-46.2	3.8	1.49e+00	0	43	104	0	27	15126
2026-01-05 02:43:55.32	3.14	10.08	-33.7	-46.1	3.8	1.49e+00	0	43	104	0	27	15028
2026-01-05 02:43:56.33	3.00	10.14	-33.7	-46.0	3.8	1.49e+00	0	43	104	0	27	14915
2026-01-05 02:43:57.34	2.87	10.20	-33.6	-45.8	3.8	1.49e+00	0	43	104	0	27	14782
2026-01-05 02:43:58.35	2.74	10.26	-33.5	-45.7	3.8	1.49e+00	0	43	104	0	27	14598
2026-01-05 02:43:59.35	2.61	10.32	-33.4	-45.9	3.8	1.49e+00	0	44	104	0	26	15290
2026-01-05 02:44:00.36	2.47	10.38	-33.2	-45.3	3.8	1.49e+00	0	44	104	0	26	14517
2026-01-05 02:44:01.37	2.34	10.44	-33.0	-45.1	3.8	1.49e+00	0	43	104	0	26	14491
2026-01-05 02:44:02.38	2.20	10.50	-32.9	-45.4	3.8	1.49e+00	0	43	104	0	25	15149
2026-01-05 02:44:03.39	2.06	10.56	-32.9	-45.3	3.8	1.49e+00	0	43	104	0	25	14985
2026-01-05 02:44:04.39	1.93	10.62	-32.9	-45.2	3.8	1.49e+00	0	43	104	0	25	14815
2026-01-05 02:44:05.40	1.79	10.68	-32.9	-45.1	3.8	1.49e+00	0	43	104	0	25	14591
2026-01-05 02:44:06.41	1.65	10.74	-32.9	-44.9	3.8	1.49e+00	0	43	104	0	25	14283
2026-01-05 02:44:07.42	1.52	10.80	-32.9	-44.6	3.8	1.49e+00	0	43	104	0	25	13846
2026-01-05 02:44:08.43	1.38	10.86	-32.8	-44.2	3.8	1.49e+00	0	44	104	0	25	13370
2026-01-05 02:44:09.43	1.24	10.92	-32.8	-43.8	3.8	1.49e+00	0	43	104	0	25	12789
2026-01-05 02:44:10.44	1.10	10.98	-32.8	-43.5	3.8	1.49e+00	0	43	104	0	25	12405
2026-01-05 02:44:11.45	0.96	11.04	-32.8	-43.2	3.8	1.49e+00	0	44	104	0	25	12006
2026-01-05 02:44:12.45	0.82	11.10	-32.8	-43.3	3.9	1.49e+00	0	43	104	0	25	12051
2026-01-05 02:44:13.46	0.68	11.16	-32.8	-43.7	3.8	1.49e+00	0	43	104	0	25	12636
2026-01-05 02:44:14.47	0.53	11.22	-32.8	-44.5	3.8	1.49e+00	0	43	104	0	25	13717
2026-01-05 02:44:15.47	0.39	11.28	-32.9	-45.2	3.8	1.49e+00	0	43	104	0	25	14814
2026-01-05 02:44:16.48	0.25	11.33	-32.9	-45.5	3.8	1.49e+00	0	44	104	0	25	15334
2026-01-05 02:44:17.48	0.11	11.39	-32.9	-44.9	3.8	1.49e+00	0	43	104	0	25	14328
2026-01-05 02:44:18.49	359.96	11.45	-32.7	-43.0	3.8	1.49e+00	0	44	104	0	25	11739
2026-01-05 02:44:19.50	359.81	11.51	-32.6	-41.1	4.3	1.38e+00	0	43	104	0	25	9625
2026-01-05 02:44:20.51	359.67	11.57	-32.4	-39.8	4.1	1.43e+00	0	43	104	0	25	8456
2026-01-05 02:44:21.52	359.52	11.63	-32.3	-39.3	5.3	8.50e-01	0	44	104	0	24	8065
2026-01-05 02:44:22.52	359.38	11.69	-32.3	-39.6	4.3	1.12e+00	0	43	104	0	24	8349
2026-01-05 02:44:23.53	359.23	11.75	-32.3	-39.4	5.2	6.15e-01	0	43	104	0	24	8185
2026-01-05 02:44:24.54	359.08	11.81	-32.3	-39.1	5.5	4.95e-01	0	44	102	1048576	24	7919
2026-01-05 02:44:25.54	358.93	11.87	-32.1	-38.3	6.0	4.04e-01	0	43	102	1048576	24	7317
2026-01-05 02:44:26.55	358.78	11.93	-32.0	-37.7	6.3	3.13e-01	0	44	102	1048576	24	6909
2026-01-05 02:44:27.55	358.63	11.99	-32.0	-37.5	6.5	2.58e-01	0	43	102	1048576	24	6776
2026-01-05 02:44:28.56	358.48	12.05	-32.0	-38.0	6.5	2.22e-01	0	44	102	1048576	23	7159
2026-01-05 02:44:29.57	358.33	12.11	-32.0	-37.5	6.5	2.25e-01	0	44	102	1048576	24	6760
2026-01-05 02:44:30.57	358.18	12.17	-31.9	-37.6	6.8	2.17e-01	0	44	102	1048576	23	6936
2026-01-05 02:44:31.58	358.03	12.22	-32.0	-37.8	6.4	1.72e-01	0	43	102	1048576	24	6969
2026-01-05 02:44:32.59	357.87	12.28	-32.1	-37.9	6.3	2.75e-01	0	44	102	1048576	24	7041
2026-01-05 02:44:33.60	357.72	12.34	-31.9	-37.5	6.8	1.99e-01	0	44	102	1048576	23	6859
2026-01-05 02:44:34.60	357.57	12.40	-31.7	-36.6	7.6	1.38e-01	0	43	102	1048576	23	6295
2026-01-05 02:44:35.61	357.41	12.46	-31.5	-35.8	8.2	8.79e-02	0	44	102	1048576	23	5864
2026-01-05 02:44:36.62	357.25	12.52	-31.3	-35.4	8.9	3.94e-02	0	44	102	1048576	22	5737
2026-01-05 02:44:37.62	357.10	12.58	-31.1	-34.6	9.5	2.19e-02	0	43	102	1048576	22	5375
2026-01-05 02:44:38.63	356.94	12.64	-31.0	-34.7	9.8	1.16e-02	0	43	102	1048576	21	5510
2026-01-05 02:44:39.63	356.79	12.69	-31.0	-34.4	9.7	1.16e-02	0	44	102	1048576	22	5310
2026-01-05 02:44:40.64	356.63	12.75	-31.1	-34.7	9.4	1.59e-02	0	43	102	1048576	22	5448
2026-01-05 02:44:41.65	356.47	12.81	-31.2	-34.9	9.3	1.54e-02	0	43	102	1048576	22	5507
2026-01-05 02:44:42.65	356.31	12.87	-31.2	-34.8	9.4	2.24e-02	0	43	102	1048576	22	5461
2026-01-05 02:44:43.66	356.15	12.93	-31.3	-35.3	8.9	2.72e-02	0	43	102	1048576	22	5715
2026-01-05 02:44:44.66	355.99	12.98	-31.3	-35.2	9.1	2.72e-02	0	44	102	1048576	22	5655
2026-01-05 02:44:45.67	355.83	13.04	-31.2	-34.8	9.3	2.19e-02	0	44	102	1048576	22	5491
2026-01-05 02:44:46.68	355.66	13.10	-31.1	-34.6	9.5	1.95e-02	0	43	102	1048576	22	5367
2026-01-05 02:44:47.68	355.50	13.16	-31.1	-34.5	9.5	1.56e-02	0	44	102	1048576	22	5355
2026-01-05 02:44:48.69	355.34	13.22	-31.2	-34.7	9.4	1.28e-02	0	43	102	1048576	22	5438
2026-01-05 02:44:49.70	355.18	13.27	-30.2	-33.5	9.6	1.65e-02	0	43	102	1048576	22	5283
2026-01-05 02:44:50.71	355.01	13.33	-30.9	-34.2	10.1	9.11e-03	0	43	102	1048576	21	5309
2026-01-05 02:44:51.72	354.84	13.39	-31.0	-34.7	9.8	8.94e-03	0	43	102	1048576	21	5504
2026-01-05 02:44:52.73	354.68	13.45	-31.3	-35.2	9.1	1.68e-02	0	43	102	1048576	22	5643
2026-01-05 02:44:53.73	354.51	13.50	-31.2	-35.0	9.2	2.16e-02	0	44	102	1048576	22	5561
2026-01-05 02:44:54.74	354.34	13.56	-31.1	-34.6	9.5	1.90e-02	0	43	102	1048576	22	5360
2026-01-05 02:44:55.75	354.18	13.62	-30.9	-34.4	10.0	9.97e-03	0	44	102	1048576	21	5383
2026-01-05 02:44:56.76	354.01	13.67	-31.0	-34.6	9.9	6.89e-03	0	44	102	1048576	21	5459
2026-01-05 02:44:57.76	353.84	13.73	-30.9	-34.4	10.0	1.01e-02	0	44	102	1048576	21	5390
2026-01-05 02:44:58.77	353.67	13.79	-31.0	-34.2	9.9	8.82e-03	0	44	102	1048576	22	5177
2026-01-05 02:44:59.77	353.50	13.84	-31.2	-34.7	9.5	1.12e-02	0	44	102	1048576	22	5410
2026-01-05 02:45:00.78	353.33	13.90	-31.2	-34.9	9.4	1.77e-02	0	44	102	1048576	22	5504
2026-01-05 02:45:01.79	353.16	13.96	-31.2	-34.8	9.4	1.83e-02	0	44	102	1048576	22	5484
2026-01-05 02:45:02.79	352.98	14.01	-31.2	-35.0	9.3	2.01e-02	0	43	102	1048576	22	5547
2026-01-05 02:45:03.80	352.81	14.07	-31.2	-35.0	9.3	1.60e-02	0	43	102	1048576	22	5532
2026-01-05 02:45:04.81	352.64	14.12	-31.3	-35.1	9.2	1.98e-02	0	43	102	1048576	22	5609
2026-01-05 02:45:05.81	352.46	14.18	-31.3	-35.2	9.1	2.33e-02	0	44	102	1048576	22	5654
2026-01-05 02:45:06.82	352.29	14.23	-31.1	-34.5	9.7	1.80e-02	0	43	102	1048576	22	5320
2026-01-05 02:45:07.83	352.11	14.29	-30.8	-33.9	10.5	7.89e-03	0	44	102	1048576	21	5140
2026-01-05 02:45:08.83	351.94	14.35	-30.5	-33.2	11.0	2.98e-03	0	44	102	1048576	21	4865
2026-01-05 02:45:09.84	351.76	14.40	-30.5	-32.9	11.2	1.70e-03	0	44	102	1048576	21	4751
2026-01-05 02:45:10.84	351.58	14.46	-30.4	-33.1	11.4	1.13e-03	0	44	102	1048576	20	4920
2026-01-05 02:45:11.85	351.40	14.51	-30.4	-33.3	11.2	9.79e-04	0	44	102	1048576	20	5032
2026-01-05 02:45:12.86	351.22	14.56	-30.5	-33.0	11.1	1.40e-03	0	44	102	1048576	21	4817
2026-01-05 02:45:13.87	351.04	14.62	-30.6	-33.4	10.9	2.35e-03	0	43	102	1048576	21	4962
2026-01-05 02:45:14.87	350.86	14.67	-30.5	-33.1	11.1	2.47e-03	0	44	102	1048576	21	4844
2026-01-05 02:45:15.88	350.68	14.73	-30.3	-32.8	11.6	7.59e-04	0	44	102	1048576	20	4831
2026-01-05 02:45:16.89	350.50	14.78	-30.1	-32.3	11.9	7.67e-04	0	44	102	1048576	20	4627
2026-01-05 02:45:17.89	350.32	14.84	-29.9	-31.8	12.3	2.81e-04	0	43	102	1048576	20	4479
2026-01-05 02:45:18.90	350.13	14.89	-30.0	-31.9	12.3	2.04e-04	0	44	102	1048576	20	4512
2026-01-05 02:45:19.91	349.95	14.94	-30.0	-31.9	12.3	6.10e-04	0	44	102	1048576	20	4491
2026-01-05 02:45:20.91	349.77	15.00	-30.2	-32.5	11.9	6.49e-04	0	44	102	1048576	20	4720
2026-01-05 02:45:21.92	349.58	15.05	-30.2	-32.4	11.9	3.98e-04	0	44	102	1048576	20	4681
2026-01-05 02:45:22.93	349.39	15.10	-30.1	-32.3	12.0	6.91e-04	0	44	102	1048576	20	4625
2026-01-05 02:45:23.94	349.21	15.15	-30.3	-32.7	11.7	8.32e-04	0	44	102	1048576	20	4776
2026-01-05 02:45:24.94	349.02	15.21	-30.0	-31.9	12.3	3.79e-04	0	43	102	1048576	20	4495
2026-01-05 02:45:25.95	348.83	15.26	-29.8	-31.3	12.7	3.40e-04	0	44	102	1048576	20	4285
2026-01-05 02:45:26.95	348.64	15.31	-29.7	-31.6	12.9	3.04e-04	0	44	102	1048576	19	4484
2026-01-05 02:45:27.96	348.45	15.36	-29.8	-31.9	12.8	4.80e-05	0	44	102	1048576	19	4558
2026-01-05 02:45:28.97	348.26	15.42	-30.0	-32.3	12.4	2.91e-04	0	44	102	1048576	19	4711
2026-01-05 02:45:29.98	348.07	15.47	-30.0	-32.0	12.2	3.55e-04	0	44	102	1048576	20	4543
2026-01-05 02:45:30.99	347.88	15.52	-30.2	-32.7	11.7	3.56e-04	0	44	102	1048576	20	4782
2026-01-05 02:45:32.00	347.69	15.57	-30.2	-32.7	11.7	7.24e-04	0	44	102	1048576	20	4791
2026-01-05 02:45:33.01	347.50	15.62	-30.3	-32.8	11.6	8.06e-04	0	44	102	1048576	20	4818
2026-01-05 02:45:34.02	347.30	15.67	-30.1	-32.2	12.0	4.97e-04	0	43	102	1048576	20	4622
2026-01-05 02:45:35.02	347.11	15.72	-30.1	-32.3	12.0	5.45e-04	0	44	102	1048576	20	4650
2026-01-05 02:45:36.03	346.91	15.77	-30.2	-32.5	11.9	6.80e-04	0	44	102	1048576	20	4700
2026-01-05 02:45:37.03	346.72	15.82	-30.3	-32.9	11.6	4.23e-04	0	44	102	1048576	20	4841
2026-01-05 02:45:38.04	346.52	15.87	-30.1	-32.2	12.1	8.03e-04	0	44	102	1048576	20	4584
2026-01-05 02:45:39.04	346.33	15.92	-29.9	-31.7	12.4	1.81e-03	0	44	102	1048576	20	4411
2026-01-05 02:45:40.05	346.13	15.97	-29.8	-32.0	12.6	9.76e-05	0	44	102	1048576	19	4602
2026-01-05 02:45:41.05	345.93	16.02	-29.7	-31.7	12.9	4.24e-04	0	44	102	1048576	19	4500
2026-01-05 02:45:42.06	345.73	16.07	-29.7	-31.6	13.0	2.28e-03	0	44	102	1048576	19	4466
2026-01-05 02:45:43.06	345.54	16.12	-29.6	-31.4	13.1	3.35e-05	0	44	102	1048576	19	4391
2026-01-05 02:45:44.07	345.34	16.16	-29.5	-31.1	13.3	2.36e-04	0	44	102	1048576	19	4304
2026-01-05 02:45:45.08	345.13	16.21	-29.6	-31.3	13.2	2.18e-04	0	44	102	1048576	19	4362
2026-01-05 02:45:46.09	344.93	16.26	-29.6	-31.2	13.2	2.32e-03	0	44	102	1048576	19	4328
2026-01-05 02:45:47.09	344.73	16.31	-29.6	-31.2	13.2	1.85e-04	0	44	102	1048576	19	4327
2026-01-05 02:45:48.10	344.53	16.35	-29.8	-31.8	12.8	2.20e-04	0	44	102	1048576	19	4522
2026-01-05 02:45:49.11	344.33	16.40	-30.0	-32.4	12.5	2.42e-03	0	44	102	1048576	19	4740
2026-01-05 02:45:50.11	344.12	16.45	-30.0	-32.0	12.3	3.67e-04	0	43	102	1048576	20	4528
2026-01-05 02:45:51.11	343.92	16.49	-30.0	-32.0	12.3	3.29e-04	0	44	102	1048576	20	4513
2026-01-05 02:45:52.12	343.71	16.54	-29.9	-32.1	12.6	2.39e-03	0	43	102	1048576	19	4650
2026-01-05 02:45:53.13	343.51	16.59	-29.8	-31.7	12.9	5.34e-05	0	44	102	1048576	19	4508
2026-01-05 02:45:54.13	343.30	16.63	-29.7	-31.5	13.0	1.60e-04	0	44	102	1048576	19	4439
2026-01-05 02:45:55.14	343.10	16.68	-29.8	-31.8	12.9	6.02e-05	0	44	102	1048576	19	4515
2026-01-05 02:45:56.13	342.89	16.72	-29.6	-31.3	13.2	2.97e-05	0	44	102	1048576	19	4352
2026-01-05 02:45:57.14	342.68	16.76	-29.7	-31.5	13.1	2.60e-03	0	44	102	1048576	19	4422
2026-01-05 02:45:58.14	342.48	16.81	-29.8	-31.6	12.9	4.34e-05	0	44	102	1048576	19	4476
2026-01-05 02:45:59.15	342.27	16.85	-29.7	-31.6	13.0	3.58e-05	0	44	102	1048576	19	4455
2026-01-05 02:46:00.16	342.05	16.90	-29.6	-31.2	13.3	2.56e-03	0	44	102	1048576	19	4312
2026-01-05 02:46:01.17	341.84	16.94	-29.5	-30.9	13.5	6.53e-04	0	43	102	1048576	19	4220
2026-01-05 02:46:02.17	341.63	16.98	-29.4	-30.6	13.6	1.22e-05	0	43	102	1048576	19	4150
2026-01-05 02:46:03.18	341.42	17.03	-29.5	-31.4	13.6	2.45e-03	0	44	102	1048576	18	4461
2026-01-05 02:46:04.18	341.21	17.07	-29.7	-31.3	13.3	2.76e-03	0	44	102	1048576	19	4355
2026-01-05 02:46:05.19	341.00	17.11	-29.7	-31.3	13.2	1.53e-04	0	44	102	1048576	19	4340
2026-01-05 02:46:06.20	340.78	17.15	-29.8	-31.8	13.0	2.89e-03	0	44	102	1048576	19	4519
2026-01-05 02:46:07.20	340.57	17.19	-29.9	-31.6	12.7	2.84e-03	0	44	102	1048576	20	4374
2026-01-05 02:46:08.21	340.35	17.23	-30.1	-32.1	12.4	3.32e-04	0	44	102	1048576	20	4526
2026-01-05 02:46:09.23	340.14	17.27	-30.1	-32.1	12.3	3.01e-03	0	44	102	1048576	20	4527
2026-01-05 02:46:10.23	339.92	17.31	-30.3	-32.6	12.0	2.84e-03	0	44	102	1048576	20	4699
2026-01-05 02:46:11.24	339.70	17.35	-30.3	-32.3	11.9	7.14e-04	0	44	102	1048576	21	4500
2026-01-05 02:46:12.25	339.49	17.39	-30.1	-32.1	12.3	2.74e-03	0	43	102	1048576	20	4531
2026-01-05 02:46:13.26	339.27	17.43	-29.9	-31.6	12.7	2.81e-03	0	43	102	1048576	20	4356
2026-01-05 02:46:14.26	339.05	17.47	-29.9	-31.6	12.7	1.97e-04	0	44	102	1048576	20	4362
2026-01-05 02:46:15.27	338.83	17.51	-30.1	-32.1	12.3	1.28e-04	0	44	102	1048576	20	4543
2026-01-05 02:46:16.28	338.61	17.55	-30.3	-32.8	11.8	3.17e-03	0	44	102	1048576	20	4792
2026-01-05 02:46:17.29	338.39	17.59	-30.3	-32.8	11.8	6.15e-04	0	44	102	1048576	20	4781
2026-01-05 02:46:18.30	338.17	17.62	-30.4	-32.9	11.7	3.50e-03	0	44	102	1048576	20	4800
2026-01-05 02:46:19.31	337.95	17.66	-30.1	-32.2	12.3	2.51e-04	0	44	102	1048576	20	4574
2026-01-05 02:46:20.32	337.72	17.70	-29.9	-31.4	12.8	2.07e-04	0	44	102	1048576	20	4318
2026-01-05 02:46:21.32	337.50	17.73	-29.6	-31.2	13.3	2.58e-03	0	44	102	1048576	19	4325
2026-01-05 02:46:22.32	337.28	17.77	-29.6	-31.1	13.4	2.21e-05	0	44	102	1048576	19	4298
2026-01-05 02:46:23.33	337.06	17.81	-29.6	-31.2	13.3	8.08e-05	0	44	102	1048576	19	4326
2026-01-05 02:46:24.34	336.83	17.84	-29.7	-31.4	13.2	2.81e-03	0	44	102	1048576	19	4383
2026-01-05 02:46:25.35	336.61	17.88	-29.7	-31.5	13.2	3.05e-05	0	44	102	1048576	19	4408
2026-01-05 02:46:26.35	336.38	17.91	-29.7	-31.3	13.3	1.52e-05	0	44	102	1048576	19	4345
2026-01-05 02:46:27.36	336.16	17.94	-29.3	-30.8	13.9	2.60e-03	0	44	102	1048576	18	4267
2026-01-05 02:46:28.37	335.93	17.98	-29.1	-30.4	14.2	2.31e-03	0	44	102	1048576	18	4158
2026-01-05 02:46:29.38	335.70	18.01	-29.1	-30.3	14.2	1.50e-06	0	44	102	1048576	18	4141
2026-01-05 02:46:30.38	335.48	18.04	-29.0	-30.0	14.5	2.31e-03	0	44	102	1048576	18	4033
2026-01-05 02:46:31.38	335.25	18.07	-28.9	-30.2	14.6	2.53e-03	0	44	102	1048576	17	4184
2026-01-05 02:46:32.39	335.02	18.11	-28.7	-29.8	14.8	5.77e-04	0	44	102	1048576	17	4090
2026-01-05 02:46:33.39	334.80	18.14	-28.8	-30.1	14.7	0.00e+00	0	44	102	1048576	17	4162
2026-01-05 02:46:34.39	334.57	18.17	-28.8	-30.0	14.8	2.39e-03	0	44	102	1048576	17	4132
2026-01-05 02:46:35.40	334.34	18.20	-29.0	-30.0	14.4	3.41e-04	0	44	102	1048576	18	4045
2026-01-05 02:46:36.40	334.11	18.23	-29.2	-30.5	14.2	0.00e+00	0	44	102	1048576	18	4178
2026-01-05 02:46:37.41	333.88	18.26	-29.3	-30.7	14.0	2.38e-03	0	44	102	1048576	18	4263
2026-01-05 02:46:38.42	333.65	18.29	-29.3	-30.8	14.0	6.10e-06	0	44	102	1048576	18	4268
2026-01-05 02:46:39.42	333.42	18.31	-29.3	-30.8	14.0	3.00e-06	0	44	102	1048576	18	4282
2026-01-05 02:46:40.42	333.19	18.34	-29.4	-31.1	13.7	3.80e-06	0	44	102	1048576	18	4377
2026-01-05 02:46:41.42	332.96	18.37	-29.4	-31.2	13.7	4.50e-06	0	44	102	1048576	18	4397
2026-01-05 02:46:42.43	332.73	18.40	-29.7	-31.5	13.2	1.83e-05	0	44	102	1048576	19	4416
2026-01-05 02:46:43.44	332.49	18.42	-29.8	-31.6	13.1	2.51e-05	0	44	102	1048576	19	4445
2026-01-05 02:46:44.44	332.26	18.45	-29.9	-32.0	12.9	2.97e-05	0	44	102	1048576	19	4562
2026-01-05 02:46:45.44	332.03	18.48	-29.9	-31.5	12.7	1.04e-04	0	44	102	1048576	20	4341
2026-01-05 02:46:46.45	331.79	18.50	-30.0	-31.8	12.6	1.66e-03	0	44	102	1048576	20	4413
2026-01-05 02:46:47.46	331.56	18.53	-30.2	-32.5	12.1	1.27e-04	0	44	102	1048576	20	4650
2026-01-05 02:46:48.46	331.32	18.55	-30.3	-32.8	11.9	2.93e-03	0	44	102	1048576	20	4764
2026-01-05 02:46:49.47	331.09	18.58	-30.3	-32.6	12.0	1.25e-03	0	43	102	1048576	20	4695
2026-01-05 02:46:50.48	330.85	18.60	-30.3	-32.8	11.9	1.22e-03	0	43	102	1048576	20	4771
2026-01-05 02:46:51.48	330.62	18.62	-30.3	-32.6	12.0	3.02e-04	0	44	102	1048576	20	4714
2026-01-05 02:46:52.49	330.38	18.64	-30.5	-33.2	11.6	9.65e-04	0	44	102	1048576	20	4925
2026-01-05 02:46:53.50	330.14	18.67	-30.7	-33.2	11.2	1.50e-03	0	44	102	1048576	21	4851
2026-01-05 02:46:54.50	329.91	18.69	-30.5	-32.9	11.5	7.78e-04	0	44	102	1048576	21	4708
2026-01-05 02:46:55.51	329.67	18.71	-30.3	-32.6	12.0	1.07e-03	0	44	102	1048576	20	4720
2026-01-05 02:46:56.51	329.43	18.73	-30.3	-32.7	12.0	1.34e-03	0	44	102	1048576	20	4733
2026-01-05 02:46:57.51	329.20	18.75	-30.2	-32.2	12.3	3.13e-04	0	44	102	1048576	20	4565
2026-01-05 02:46:58.52	328.96	18.77	-29.9	-31.6	12.7	1.06e-03	0	44	102	1048576	20	4351
2026-01-05 02:46:59.52	328.72	18.79	-29.8	-31.8	13.0	7.48e-04	0	43	102	1048576	19	4485
2026-01-05 02:47:00.53	328.48	18.81	-29.9	-32.0	12.9	3.43e-05	0	44	102	1048576	19	4561
2026-01-05 02:47:01.53	328.24	18.82	-29.9	-32.0	12.9	6.31e-04	0	44	102	1048576	19	4569
2026-01-05 02:47:02.53	328.00	18.84	-30.0	-31.9	12.5	8.54e-04	0	44	102	1048576	20	4443
2026-01-05 02:47:03.54	327.76	18.86	-30.2	-32.4	12.2	1.32e-04	0	44	102	1048576	20	4631
2026-01-05 02:47:04.54	327.53	18.88	-30.3	-32.6	12.0	1.02e-03	0	44	102	1048576	20	4685
2026-01-05 02:47:05.55	327.28	18.89	-30.2	-32.4	12.1	9.23e-04	0	44	102	1048576	20	4614
2026-01-05 02:47:06.55	327.05	18.91	-30.0	-31.7	12.5	1.36e-04	0	44	102	1048576	20	4394
2026-01-05 02:47:07.56	326.80	18.92	-29.9	-32.1	12.7	7.83e-04	0	44	102	1048576	19	4632
2026-01-05 02:47:08.57	326.56	18.94	-30.0	-31.8	12.6	2.89e-03	0	44	102	1048576	20	4429
2026-01-05 02:47:09.57	326.32	18.95	-30.3	-32.6	12.0	2.53e-04	0	43	102	1048576	20	4720
2026-01-05 02:47:10.58	326.08	18.96	-30.4	-32.9	11.8	1.04e-03	0	44	102	1048576	20	4831
2026-01-05 02:47:11.59	325.84	18.98	-30.4	-33.0	11.7	7.62e-04	0	44	102	1048576	20	4860
2026-01-05 02:47:12.59	325.60	18.99	-30.6	-33.0	11.4	3.79e-03	0	44	102	1048576	21	4777
2026-01-05 02:47:13.60	325.35	19.00	-30.6	-33.2	11.1	1.61e-03	0	44	102	1048576	21	4865
2026-01-05 02:47:14.60	325.11	19.01	-30.6	-33.3	11.1	1.80e-03	0	44	102	1048576	21	4882
2026-01-05 02:47:15.61	324.87	19.02	-30.7	-33.4	11.0	4.60e-03	0	44	102	1048576	21	4944
2026-01-05 02:47:16.62	324.63	19.03	-30.6	-33.1	11.3	1.71e-03	0	44	102	1048576	21	4820
2026-01-05 02:47:17.63	324.38	19.04	-30.6	-33.3	11.2	1.71e-03	0	44	102	1048576	21	4872
2026-01-05 02:47:18.63	324.14	19.05	-30.6	-33.0	11.3	4.32e-03	0	44	102	1048576	21	4763
2026-01-05 02:47:19.64	323.90	19.06	-30.4	-32.4	11.7	8.33e-04	0	44	102	1048576	21	4557
2026-01-05 02:47:20.65	323.65	19.07	-30.3	-32.8	11.8	1.50e-03	0	43	102	1048576	20	4805
2026-01-05 02:47:21.66	323.41	19.08	-30.3	-32.7	11.9	4.10e-04	0	44	102	1048576	20	4745
2026-01-05 02:47:22.67	323.16	19.08	-30.4	-33.0	11.7	4.59e-04	0	44	102	1048576	20	4856
2026-01-05 02:47:23.67	322.92	19.09	-30.3	-32.7	11.8	1.01e-03	0	44	102	1048576	20	4760
2026-01-05 02:47:24.68	322.68	19.10	-30.2	-32.5	12.0	5.29e-04	0	44	102	1048576	20	4706
2026-01-05 02:47:25.69	322.43	19.10	-30.3	-32.8	11.8	6.76e-04	0	44	102	1048576	20	4782
2026-01-05 02:47:26.70	322.19	19.11	-30.3	-32.7	11.8	3.71e-03	0	44	102	1048576	20	4749
2026-01-05 02:47:27.70	321.95	19.11	-30.1	-32.2	12.3	2.51e-04	0	44	102	1048576	20	4562
2026-01-05 02:47:28.70	321.70	19.12	-29.9	-31.6	12.7	3.17e-04	0	44	102	1048576	20	4377
2026-01-05 02:47:29.71	321.46	19.12	-29.8	-31.7	13.0	2.38e-03	0	44	102	1048576	19	4487
2026-01-05 02:47:30.72	321.21	19.12	-29.7	-31.4	13.2	2.97e-05	0	44	102	1048576	19	4373
2026-01-05 02:47:31.73	320.97	19.12	-29.7	-31.4	13.2	4.42e-05	0	44	102	1048576	19	4382
2026-01-05 02:47:32.73	320.73	19.13	-29.7	-31.6	13.1	2.24e-03	0	44	102	1048576	19	4458
2026-01-05 02:47:33.74	320.48	19.13	-29.8	-31.8	12.9	2.57e-03	0	43	102	1048576	19	4524
2026-01-05 02:47:34.75	320.23	19.13	-29.8	-31.9	12.8	4.80e-05	0	44	102	1048576	19	4545
2026-01-05 02:47:35.76	319.99	19.13	-29.9	-32.0	12.8	2.66e-03	0	44	102	1048576	19	4593
2026-01-05 02:47:36.76	319.75	19.13	-29.9	-31.6	12.6	2.64e-03	0	44	102	1048576	20	4395
2026-01-05 02:47:37.76	319.50	19.13	-30.1	-32.1	12.3	4.90e-04	0	44	102	1048576	20	4527
2026-01-05 02:47:38.77	319.26	19.12	-30.1	-32.2	12.2	2.71e-03	0	44	102	1048576	20	4587
2026-01-05 02:47:39.77	319.02	19.12	-30.3	-32.7	11.9	2.44e-03	0	44	102	1048576	20	4742
2026-01-05 02:47:40.77	318.77	19.12	-30.2	-32.5	12.0	8.20e-04	0	43	102	1048576	20	4683
2026-01-05 02:47:41.78	318.53	19.12	-30.2	-32.4	12.1	3.81e-04	0	44	102	1048576	20	4650
2026-01-05 02:47:42.79	318.28	19.11	-30.1	-32.3	12.2	1.82e-03	0	44	102	1048576	20	4617
2026-01-05 02:47:43.79	318.04	19.11	-30.1	-32.3	12.2	6.25e-04	0	44	102	1048576	20	4596
2026-01-05 02:47:44.80	317.80	19.10	-30.2	-32.3	12.1	2.04e-03	0	44	102	1048576	20	4624
2026-01-05 02:47:45.81	317.55	19.10	-30.3	-32.7	11.9	2.67e-03	0	44	102	1048576	20	4750
2026-01-05 02:47:46.81	317.31	19.09	-30.2	-32.5	12.0	5.12e-04	0	44	102	1048576	20	4692
2026-01-05 02:47:47.82	317.06	19.09	-30.2	-32.4	12.1	2.74e-03	0	44	102	1048576	20	4627
2026-01-05 02:47:48.82	316.82	19.08	-30.3	-32.6	11.8	2.65e-03	0	43	102	1048576	20	4729
2026-01-05 02:47:49.84	316.57	19.07	-30.3	-32.8	11.8	6.97e-04	0	44	102	1048576	20	4789
2026-01-05 02:47:50.84	316.33	19.06	-30.5	-33.0	11.3	3.16e-03	0	44	102	1048576	21	4774
2026-01-05 02:47:51.84	316.09	19.06	-30.6	-33.0	11.3	1.58e-03	0	44	102	1048576	21	4791
2026-01-05 02:47:52.85	315.85	19.05	-30.9	-34.1	10.6	3.23e-03	0	44	102	1048576	21	5207
2026-01-05 02:47:53.86	315.60	19.04	-30.9	-34.1	10.6	6.74e-03	0	44	102	1048576	21	5195
2026-01-05 02:47:54.86	315.36	19.03	-30.8	-33.9	10.7	5.02e-03	0	44	102	1048576	21	5128
2026-01-05 02:47:55.87	315.12	19.02	-29.4	-32.6	10.9	2.50e-03	0	44	102	1048576	20	5198
2026-01-05 02:47:56.87	314.88	19.00	-30.8	-33.6	10.9	4.37e-03	0	44	102	1048576	21	5011
2026-01-05 02:47:57.88	314.63	18.99	-30.8	-33.8	10.4	4.52e-03	0	44	102	1048576	21	5082
2026-01-05 02:47:58.88	314.39	18.98	-30.3	-32.9	11.3	1.03e-03	0	44	102	1048576	20	4805
2026-01-05 02:47:59.89	314.15	18.97	-30.3	-32.7	11.9	2.58e-03	0	44	102	1048576	20	4737
2026-01-05 02:48:00.89	313.91	18.95	-30.0	-31.9	12.5	2.80e-03	0	44	102	1048576	20	4468
2026-01-05 02:48:01.90	313.67	18.94	-29.9	-32.0	12.8	1.64e-03	0	43	102	1048576	19	4574
2026-01-05 02:48:02.91	313.43	18.93	-29.9	-31.9	12.8	4.65e-05	0	43	102	1048576	19	4562
2026-01-05 02:48:03.91	313.19	18.91	-30.0	-32.1	12.7	2.45e-03	0	44	102	1048576	19	4628
2026-01-05 02:48:04.92	312.94	18.90	-29.8	-31.8	13.0	4.42e-04	0	43	102	1048576	19	4517
2026-01-05 02:48:05.93	312.70	18.88	-29.6	-31.1	13.4	1.98e-05	0	44	102	1048576	19	4278
2026-01-05 02:48:06.93	312.46	18.86	-29.6	-31.3	13.3	1.98e-05	0	44	102	1048576	19	4336
2026-01-05 02:48:07.94	312.22	18.85	-29.5	-31.0	13.5	2.83e-04	0	44	102	1048576	19	4267
2026-01-05 02:48:08.94	311.99	18.83	-29.3	-30.9	13.8	6.10e-06	0	44	102	1048576	18	4319
2026-01-05 02:48:09.95	311.75	18.81	-29.6	-31.1	13.4	7.60e-06	0	43	102	1048576	19	4292
2026-01-05 02:48:10.95	311.51	18.79	-29.5	-31.0	13.4	1.83e-04	0	44	102	1048576	19	4264
2026-01-05 02:48:11.96	311.27	18.77	-29.6	-31.3	13.3	2.36e-05	0	44	102	1048576	19	4360
2026-01-05 02:48:12.96	311.03	18.76	-29.7	-31.4	13.1	2.11e-03	0	44	102	1048576	19	4391
2026-01-05 02:48:13.96	310.79	18.74	-29.7	-31.4	13.2	2.44e-05	0	44	102	1048576	19	4393
2026-01-05 02:48:14.97	310.55	18.71	-29.6	-31.1	13.4	2.31e-03	0	44	102	1048576	19	4278
2026-01-05 02:48:15.98	310.32	18.69	-29.5	-31.0	13.5	2.12e-03	0	44	102	1048576	19	4244
2026-01-05 02:48:16.99	310.08	18.67	-29.6	-31.0	13.5	1.44e-05	0	44	102	1048576	19	4268
2026-01-05 02:48:18.00	309.84	18.65	-29.5	-30.9	13.6	2.02e-03	0	44	102	1048576	19	4213
2026-01-05 02:48:19.00	309.60	18.63	-29.5	-30.9	13.6	2.07e-03	0	44	102	1048576	19	4215
2026-01-05 02:48:20.01	309.37	18.60	-29.7	-31.2	13.3	1.66e-03	0	44	102	1048576	19	4321
2026-01-05 02:48:21.01	309.13	18.58	-29.5	-30.9	13.6	9.10e-06	0	44	102	1048576	19	4214
2026-01-05 02:48:22.02	308.90	18.56	-29.8	-31.6	13.1	1.15e-03	0	43	102	1048576	19	4440
2026-01-05 02:48:23.03	308.66	18.53	-29.7	-31.4	13.2	1.17e-03	0	43	102	1048576	19	4385
2026-01-05 02:48:24.04	308.42	18.51	-30.0	-32.1	12.8	2.67e-05	0	44	102	1048576	19	4615
2026-01-05 02:48:25.04	308.19	18.48	-29.8	-31.7	13.0	8.63e-04	0	43	102	1048576	19	4476
2026-01-05 02:48:26.06	307.95	18.46	-29.7	-31.4	13.3	4.07e-04	0	44	102	1048576	19	4368
2026-01-05 02:48:27.06	307.72	18.43	-29.7	-31.4	13.2	2.67e-05	0	43	102	1048576	19	4361
2026-01-05 02:48:28.06	307.49	18.40	-29.8	-31.8	13.0	1.98e-05	0	44	102	1048576	19	4486
2026-01-05 02:48:29.07	307.26	18.38	-29.8	-31.8	13.0	4.35e-04	0	44	102	1048576	19	4497
2026-01-05 02:48:30.08	307.02	18.35	-29.7	-31.4	13.2	1.44e-05	0	43	102	1048576	19	4375
2026-01-05 02:48:31.09	306.79	18.32	-29.5	-30.8	13.6	1.14e-03	0	43	102	1048576	19	4204
2026-01-05 02:48:32.10	306.56	18.29	-29.4	-31.0	13.4	1.24e-03	0	44	102	1048576	18	4358
2026-01-05 02:48:33.11	306.33	18.26	-29.5	-30.9	12.8	9.10e-06	0	44	102	1048576	19	4221
2026-01-05 02:48:34.12	306.10	18.23	-29.6	-31.1	13.4	1.52e-03	0	44	102	1048576	19	4282
2026-01-05 02:48:35.12	305.87	18.20	-29.6	-31.1	12.7	1.59e-03	0	43	102	1048576	19	4293
2026-01-05 02:48:36.13	305.64	18.17	-29.9	-31.9	12.5	3.12e-05	0	44	102	1048576	19	4538
2026-01-05 02:48:37.13	305.41	18.14	-30.0	-31.9	12.4	1.51e-03	0	44	102	1048576	20	4477
2026-01-05 02:48:38.14	305.18	18.11	-30.1	-32.0	12.3	1.37e-03	0	44	102	1048576	20	4511
2026-01-05 02:48:39.15	304.95	18.08	-30.3	-32.7	11.9	2.80e-04	0	43	102	1048576	20	4738
2026-01-05 02:48:40.16	304.72	18.05	-30.4	-32.5	11.7	2.04e-03	0	44	102	1048576	21	4581
2026-01-05 02:48:41.16	304.49	18.02	-30.4	-33.0	11.7	1.90e-03	0	44	102	1048576	20	4873
2026-01-05 02:48:42.16	304.27	17.98	-30.4	-33.1	11.5	3.08e-03	0	44	102	1048576	20	4907
2026-01-05 02:48:43.16	304.04	17.95	-30.3	-32.7	11.9	1.47e-03	0	44	102	1048576	20	4749
2026-01-05 02:48:44.17	303.82	17.92	-30.4	-32.9	11.8	1.66e-03	0	44	102	1048576	20	4815
2026-01-05 02:48:45.18	303.59	17.88	-30.2	-32.3	12.1	2.76e-03	0	44	102	1048576	20	4613
2026-01-05 02:48:46.18	303.37	17.85	-30.1	-32.2	12.2	1.75e-03	0	44	102	1048576	20	4584
2026-01-05 02:48:47.19	303.14	17.81	-30.2	-32.3	12.1	1.92e-03	0	44	102	1048576	20	4625
2026-01-05 02:48:48.20	302.92	17.78	-30.1	-32.3	12.1	2.05e-03	0	43	102	1048576	20	4608
2026-01-05 02:48:49.21	302.69	17.74	-30.1	-32.3	12.2	2.62e-04	0	43	102	1048576	20	4595
2026-01-05 02:48:50.21	302.47	17.71	-30.3	-32.6	11.8	9.47e-04	0	43	102	1048576	20	4739
2026-01-05 02:48:51.22	302.25	17.67	-30.2	-32.3	12.1	2.60e-04	0	44	102	1048576	20	4622
2026-01-05 02:48:52.23	302.03	17.63	-30.2	-32.4	12.0	3.83e-04	0	44	102	1048576	20	4647
2026-01-05 02:48:53.23	301.81	17.59	-30.4	-33.1	11.6	6.05e-04	0	43	102	1048576	20	4917
2026-01-05 02:48:54.24	301.59	17.56	-30.3	-32.8	11.8	5.07e-04	0	44	102	1048576	20	4789
2026-01-05 02:48:55.25	301.36	17.52	-30.4	-33.1	11.6	6.98e-04	0	44	102	1048576	20	4885
2026-01-05 02:48:56.25	301.15	17.48	-30.4	-33.0	11.7	5.07e-04	0	44	102	1048576	20	4851
2026-01-05 02:48:57.26	300.93	17.44	-30.5	-32.8	11.5	7.06e-04	0	44	102	1048576	21	4684
2026-01-05 02:48:58.26	300.71	17.40	-30.1	-32.1	12.3	3.21e-04	0	44	102	1048576	20	4545
2026-01-05 02:48:59.27	300.49	17.36	-30.0	-31.8	12.5	1.38e-03	0	44	102	1048576	20	4439
2026-01-05 02:49:00.28	300.27	17.32	-29.9	-31.9	12.8	3.91e-04	0	44	102	1048576	19	4558
2026-01-05 02:49:01.29	300.06	17.28	-29.9	-32.0	12.7	2.81e-04	0	44	102	1048576	19	4585
2026-01-05 02:49:02.29	299.84	17.24	-30.0	-32.3	12.5	1.95e-03	0	44	102	1048576	19	4678
2026-01-05 02:49:03.30	299.62	17.20	-30.0	-32.2	12.6	2.11e-03	0	44	102	1048576	19	4672
2026-01-05 02:49:04.30	299.41	17.16	-29.9	-32.1	12.6	2.63e-04	0	44	102	1048576	19	4618
2026-01-05 02:49:05.31	299.20	17.12	-29.9	-32.0	12.7	1.97e-03	0	44	102	1048576	19	4593
2026-01-05 02:49:06.31	298.98	17.08	-29.9	-32.2	12.6	1.87e-03	0	44	102	1048576	19	4648
2026-01-05 02:49:07.32	298.77	17.03	-29.9	-32.0	12.7	2.58e-04	0	44	102	1048576	19	4609
2026-01-05 02:49:08.33	298.56	16.99	-29.9	-32.0	12.7	1.95e-03	0	44	102	1048576	19	4603
2026-01-05 02:49:09.33	298.35	16.95	-30.0	-31.9	12.5	1.95e-03	0	43	102	1048576	20	4447
2026-01-05 02:49:10.34	298.13	16.91	-30.0	-31.8	12.5	4.29e-04	0	43	102	1048576	20	4424
2026-01-05 02:49:11.35	297.92	16.86	-30.1	-32.0	12.4	2.12e-03	0	43	102	1048576	20	4467
2026-01-05 02:49:12.35	297.71	16.82	-30.2	-32.4	12.2	2.19e-03	0	43	102	1048576	20	4611
2026-01-05 02:49:13.36	297.50	16.77	-30.1	-32.1	12.4	6.87e-04	0	44	102	1048576	20	4501
2026-01-05 02:49:14.37	297.29	16.73	-29.7	-31.4	13.2	1.69e-03	0	44	102	1048576	19	4356
2026-01-05 02:49:15.38	297.09	16.68	-29.6	-31.1	13.4	1.56e-03	0	44	102	1048576	19	4266
2026-01-05 02:49:16.38	296.88	16.64	-29.5	-30.8	13.5	3.60e-04	0	44	102	1048576	19	4184
2026-01-05 02:49:17.39	296.67	16.59	-29.5	-31.2	13.6	1.77e-03	0	44	102	1048576	18	4401
2026-01-05 02:49:18.39	296.47	16.55	-29.4	-31.1	13.7	1.97e-03	0	43	102	1048576	18	4379
2026-01-05 02:49:19.40	296.26	16.50	-29.5	-30.8	13.5	2.66e-04	0	43	102	1048576	19	4180
2026-01-05 02:49:20.41	296.05	16.46	-29.7	-31.4	13.2	2.19e-03	0	43	102	1048576	19	4363
2026-01-05 02:49:21.42	295.85	16.41	-29.9	-31.8	12.9	5.18e-05	0	44	102	1048576	19	4504
2026-01-05 02:49:22.42	295.65	16.36	-30.0	-31.8	12.4	2.63e-04	0	44	102	1048576	20	4432
2026-01-05 02:49:23.43	295.44	16.31	-30.2	-32.4	12.0	2.84e-03	0	44	102	1048576	20	4638
2026-01-05 02:49:24.44	295.24	16.27	-29.8	-31.9	11.6	3.05e-03	0	44	102	1048576	21	4593
2026-01-05 02:49:25.45	295.04	16.22	-30.7	-33.3	11.1	1.67e-03	0	44	102	1048576	21	4862
2026-01-05 02:49:26.45	294.84	16.17	-30.8	-33.9	10.7	5.39e-03	0	44	102	1048576	21	5096
2026-01-05 02:49:27.46	294.64	16.12	-30.8	-33.7	10.9	5.87e-03	0	44	102	1048576	21	5024
2026-01-05 02:49:28.46	294.44	16.07	-30.6	-33.1	11.2	1.37e-03	0	44	102	1048576	21	4797
2026-01-05 02:49:29.47	294.24	16.03	-30.6	-33.2	11.2	4.19e-03	0	44	102	1048576	21	4817
2026-01-05 02:49:30.47	294.04	15.98	-30.5	-32.8	11.3	4.51e-03	0	44	102	1048576	21	4689
2026-01-05 02:49:31.48	293.84	15.93	-30.6	-33.0	11.3	2.28e-03	0	44	102	1048576	21	4742
2026-01-05 02:49:32.49	293.64	15.88	-30.7	-33.3	11.0	1.87e-03	0	44	102	1048576	21	4889
2026-01-05 02:49:33.49	293.45	15.83	-30.7	-33.4	10.9	4.76e-03	0	44	102	1048576	21	4933
2026-01-05 02:49:34.50	293.25	15.78	-30.7	-33.5	10.9	3.71e-03	0	44	102	1048576	21	4963
2026-01-05 02:49:35.51	293.06	15.73	-30.8	-33.7	10.8	2.17e-03	0	44	102	1048576	21	5023
2026-01-05 02:49:36.51	292.86	15.68	-30.9	-34.1	10.5	4.24e-03	0	44	102	1048576	21	5186
2026-01-05 02:49:37.52	292.67	15.63	-30.7	-33.3	11.0	3.43e-03	0	44	102	1048576	21	4895
2026-01-05 02:49:38.52	292.48	15.58	-30.5	-32.9	11.3	1.20e-03	0	43	102	1048576	21	4734
2026-01-05 02:49:39.53	292.28	15.53	-30.4	-32.9	11.7	6.28e-04	0	44	102	1048576	20	4815
2026-01-05 02:49:40.54	292.09	15.47	-30.3	-32.6	11.9	8.40e-04	0	44	102	1048576	20	4703
2026-01-05 02:49:41.55	291.90	15.42	-30.1	-32.2	12.2	2.35e-04	0	44	102	1048576	20	4548
2026-01-05 02:49:42.55	291.71	15.37	-30.0	-32.0	12.3	8.98e-04	0	43	102	1048576	20	4482
2026-01-05 02:49:43.55	291.52	15.32	-30.0	-31.8	12.3	1.69e-04	0	44	102	1048576	20	4430
2026-01-05 02:49:44.56	291.33	15.27	-30.1	-32.0	12.3	2.23e-04	0	43	102	1048576	20	4495
2026-01-05 02:49:45.56	291.14	15.21	-30.1	-32.1	12.2	1.77e-03	0	44	102	1048576	20	4529
2026-01-05 02:49:46.57	290.95	15.16	-30.3	-32.6	11.9	3.15e-04	0	44	102	1048576	20	4715
2026-01-05 02:49:47.58	290.76	15.11	-30.1	-32.0	12.2	3.13e-04	0	44	102	1048576	20	4489
2026-01-05 02:49:48.58	290.58	15.06	-30.2	-32.3	12.1	1.84e-03	0	43	102	1048576	20	4612
2026-01-05 02:49:49.58	290.39	15.00	-30.2	-32.3	12.0	2.10e-03	0	43	102	1048576	20	4623
2026-01-05 02:49:50.59	290.21	14.95	-30.1	-32.1	12.1	3.76e-04	0	44	102	1048576	20	4552
2026-01-05 02:49:51.60	290.02	14.90	-30.1	-32.2	12.1	1.86e-03	0	44	102	1048576	20	4580
2026-01-05 02:49:52.61	289.84	14.84	-30.3	-32.8	11.7	2.38e-03	0	43	102	1048576	20	4812
2026-01-05 02:49:53.61	289.66	14.79	-30.4	-32.9	11.6	5.73e-04	0	44	102	1048576	20	4837
2026-01-05 02:49:54.62	289.47	14.73	-30.3	-32.8	11.7	2.71e-03	0	44	102	1048576	20	4780
2026-01-05 02:49:55.63	289.29	14.68	-30.2	-32.6	11.8	2.43e-03	0	44	102	1048576	20	4707
2026-01-05 02:49:56.63	289.11	14.63	-30.2	-32.4	11.9	4.29e-04	0	44	102	1048576	20	4660
2026-01-05 02:49:57.64	288.93	14.57	-30.1	-32.2	12.1	2.23e-04	0	44	102	1048576	20	4579
2026-01-05 02:49:58.64	288.75	14.52	-30.5	-32.8	11.4	2.22e-03	0	43	102	1048576	20	4678
2026-01-05 02:49:59.65	288.57	14.46	-30.0	-31.8	11.2	1.25e-04	0	43	102	1048576	20	4432
2026-01-05 02:50:00.66	288.39	14.41	-29.9	-31.7	12.3	2.12e-03	0	43	102	1048576	20	4406
2026-01-05 02:50:01.67	288.21	14.35	-30.1	-32.1	11.9	2.03e-03	0	44	102	1048576	20	4532
2026-01-05 02:50:02.68	288.04	14.30	-30.1	-32.3	11.9	4.04e-04	0	44	102	1048576	20	4614
2026-01-05 02:50:03.69	287.86	14.24	-30.3	-32.7	11.7	2.20e-03	0	44	102	1048576	20	4761
2026-01-05 02:50:04.69	287.68	14.18	-30.4	-33.1	11.4	5.14e-03	0	44	102	1048576	20	4925
2026-01-05 02:50:05.69	287.51	14.13	-30.6	-33.3	10.9	1.21e-03	0	44	102	1048576	21	4901
2026-01-05 02:50:06.70	287.33	14.07	-30.9	-34.1	10.3	5.95e-03	0	44	102	1048576	21	5229
2026-01-05 02:50:07.70	287.16	14.02	-31.0	-34.5	10.0	1.07e-02	0	43	102	1048576	21	5406
2026-01-05 02:50:08.71	286.99	13.96	-31.3	-35.0	9.3	1.43e-02	0	44	102	1048576	22	5542
2026-01-05 02:50:09.71	286.82	13.91	-31.3	-35.4	9.0	2.65e-02	0	44	102	1048576	22	5713
2026-01-05 02:50:10.72	286.64	13.85	-31.4	-35.7	8.7	3.26e-02	0	44	102	1048576	22	5877
2026-01-05 02:50:11.73	286.47	13.79	-31.5	-35.8	8.6	3.27e-02	0	44	102	1048576	22	5919
2026-01-05 02:50:12.73	286.30	13.74	-31.3	-35.4	8.9	3.49e-02	0	44	102	1048576	22	5728
2026-01-05 02:50:13.74	286.13	13.68	-31.4	-35.6	8.8	3.89e-02	0	44	102	1048576	22	5819
2026-01-05 02:50:14.75	285.96	13.62	-31.3	-35.1	9.1	2.86e-02	0	44	102	1048576	22	5566
2026-01-05 02:50:15.75	285.79	13.56	-31.3	-35.0	9.2	1.97e-02	0	44	102	1048576	22	5545
2026-01-05 02:50:16.76	285.62	13.51	-31.0	-34.2	9.9	1.65e-02	0	44	102	1048576	22	5165
2026-01-05 02:50:17.77	285.46	13.45	-31.0	-34.0	10.1	1.18e-02	0	43	102	1048576	22	5087
2026-01-05 02:50:18.77	285.29	13.39	-31.0	-33.9	10.0	8.74e-03	0	43	102	1048576	22	5064
2026-01-05 02:50:19.78	285.12	13.34	-30.8	-34.0	10.3	9.32e-03	0	44	102	1048576	21	5188
2026-01-05 02:50:20.79	284.96	13.28	-30.7	-33.7	10.5	4.81e-03	0	44	102	1048576	21	5052
2026-01-05 02:50:21.80	284.79	13.22	-30.6	-33.4	10.8	3.50e-03	0	43	102	1048576	21	4936
2026-01-05 02:50:22.80	284.63	13.16	-30.6	-33.2	10.9	7.18e-03	0	44	102	1048576	21	4866
2026-01-05 02:50:23.82	284.46	13.10	-30.7	-33.6	10.7	2.39e-03	0	44	102	1048576	21	5013
2026-01-05 02:50:24.82	284.30	13.05	-30.6	-33.4	10.7	3.36e-03	0	44	102	1048576	21	4939
2026-01-05 02:50:25.83	284.14	12.99	-30.6	-33.2	10.9	5.19e-03	0	44	102	1048576	21	4856
2026-01-05 02:50:26.84	283.98	12.93	-30.7	-33.6	10.6	2.57e-03	0	44	102	1048576	21	5020
2026-01-05 02:50:27.84	283.82	12.87	-30.7	-33.7	10.5	4.03e-03	0	44	102	1048576	21	5086
2026-01-05 02:50:28.85	283.66	12.81	-30.9	-34.2	10.2	7.45e-03	0	44	102	1048576	21	5292
2026-01-05 02:50:29.86	283.50	12.75	-30.8	-33.8	10.4	8.33e-03	0	44	102	1048576	21	5123
2026-01-05 02:50:30.86	283.34	12.70	-30.6	-33.1	11.0	3.28e-03	0	44	102	1048576	21	4851
2026-01-05 02:50:31.87	283.18	12.64	-30.5	-33.1	10.9	4.94e-03	0	44	102	1048576	21	4828
2026-01-05 02:50:32.88	283.02	12.58	-30.3	-32.9	11.4	4.46e-03	0	44	102	1048576	20	4853
2026-01-05 02:50:33.88	282.87	12.52	-30.2	-32.6	11.7	1.69e-03	0	44	102	1048576	20	4734
2026-01-05 02:50:34.89	282.71	12.46	-30.2	-32.5	11.7	3.25e-03	0	43	102	1048576	20	4689
2026-01-05 02:50:35.90	282.55	12.40	-30.3	-32.8	11.5	3.27e-03	0	44	102	1048576	20	4814
2026-01-05 02:50:36.90	282.40	12.34	-30.1	-32.3	11.9	1.03e-03	0	44	102	1048576	20	4610
2026-01-05 02:50:37.91	282.24	12.29	-30.2	-32.5	11.7	3.07e-03	0	44	102	1048576	20	4705
2026-01-05 02:50:38.91	282.09	12.23	-30.4	-33.1	11.3	3.29e-03	0	44	102	1048576	20	4933
2026-01-05 02:50:39.92	281.94	12.17	-30.3	-33.0	11.4	1.61e-03	0	44	102	1048576	20	4871
2026-01-05 02:50:40.93	281.78	12.11	-30.2	-32.6	11.6	6.49e-04	0	44	102	1048576	20	4723
2026-01-05 02:50:41.93	281.63	12.05	-30.2	-32.6	11.6	3.24e-03	0	44	102	1048576	20	4749
2026-01-05 02:50:42.94	281.48	11.99	-30.3	-32.8	11.5	1.19e-03	0	44	102	1048576	20	4824
2026-01-05 02:50:43.94	281.33	11.93	-30.5	-33.0	11.0	1.73e-03	0	44	102	1048576	21	4810
2026-01-05 02:50:44.95	281.18	11.87	-30.5	-32.8	11.1	4.44e-03	0	44	102	1048576	21	4739
2026-01-05 02:50:45.95	281.03	11.81	-30.6	-33.3	10.8	2.48e-03	0	44	102	1048576	21	4899
2026-01-05 02:50:46.96	280.88	11.75	-30.6	-33.2	10.8	5.75e-03	0	44	102	1048576	21	4865
2026-01-05 02:50:47.97	280.73	11.69	-30.5	-33.0	10.9	2.26e-03	0	44	102	1048576	21	4811
2026-01-05 02:50:48.97	280.59	11.63	-30.4	-32.9	11.0	2.49e-03	0	44	102	1048576	21	4756
2026-01-05 02:50:49.98	280.44	11.57	-30.4	-33.3	11.1	4.47e-03	0	44	102	1048576	20	5011
2026-01-05 02:50:50.99	280.29	11.51	-30.4	-32.8	11.1	1.68e-03	0	44	102	1048576	21	4719
2026-01-05 02:50:51.99	280.15	11.46	-30.4	-33.3	10.6	1.96e-03	0	44	102	1048576	20	5016
2026-01-05 02:50:52.99	280.00	11.40	-30.3	-32.9	11.4	4.49e-03	0	44	102	1048576	20	4857
2026-01-05 02:50:53.99	279.86	11.34	-30.2	-32.6	11.4	3.44e-03	0	44	102	1048576	20	4751
2026-01-05 02:50:55.00	279.71	11.28	-30.1	-32.3	11.7	5.06e-04	0	44	102	1048576	20	4653
2026-01-05 02:50:56.01	279.57	11.22	-29.9	-31.7	12.1	3.25e-03	0	44	102	1048576	20	4446
2026-01-05 02:50:57.02	279.43	11.16	-30.0	-32.4	12.0	2.89e-03	0	44	102	1048576	19	4753
2026-01-05 02:50:58.02	279.29	11.10	-30.0	-32.4	12.1	3.33e-04	0	44	102	1048576	19	4752
2026-01-05 02:50:59.02	279.14	11.04	-29.8	-31.8	12.5	1.56e-04	0	44	102	1048576	19	4543
2026-01-05 02:51:00.03	279.00	10.98	-29.7	-31.5	12.7	2.87e-03	0	44	102	1048576	19	4450
2026-01-05 02:51:01.03	278.86	10.92	-29.6	-31.4	12.7	2.53e-03	0	44	102	1048576	19	4428
2026-01-05 02:51:02.04	278.72	10.86	-29.7	-31.7	12.5	1.02e-04	0	44	102	1048576	19	4528
2026-01-05 02:51:03.05	278.58	10.80	-29.6	-31.4	12.8	2.89e-03	0	44	102	1048576	19	4396
2026-01-05 02:51:04.06	278.44	10.74	-29.6	-31.3	12.8	2.31e-03	0	44	102	1048576	19	4378
2026-01-05 02:51:05.06	278.31	10.68	-29.6	-31.2	12.9	4.65e-05	0	44	102	1048576	19	4359
2026-01-05 02:51:06.07	278.17	10.62	-29.7	-31.5	12.7	6.71e-05	0	44	102	1048576	19	4443
2026-01-05 02:51:07.07	278.03	10.56	-29.8	-31.9	12.4	4.91e-04	0	44	102	1048576	19	4572
2026-01-05 02:51:08.08	277.89	10.50	-30.0	-31.9	12.0	2.44e-04	0	44	102	1048576	20	4505
2026-01-05 02:51:09.08	277.76	10.44	-30.0	-32.4	12.1	3.03e-04	0	44	102	1048576	19	4776
2026-01-05 02:51:10.09	277.62	10.38	-29.9	-31.7	12.1	6.83e-04	0	44	102	1048576	20	4446
2026-01-05 02:51:11.10	277.49	10.32	-29.9	-31.8	12.1	2.68e-04	0	44	102	1048576	20	4475
2026-01-05 02:51:12.11	277.35	10.26	-29.9	-32.2	12.2	9.58e-04	0	44	102	1048576	19	4708
2026-01-05 02:51:13.12	277.22	10.20	-29.9	-31.9	11.9	3.04e-04	0	44	102	1048576	20	4493
2026-01-05 02:51:14.12	277.09	10.14	-29.9	-32.3	12.2	2.22e-04	0	44	102	1048576	19	4720
2026-01-05 02:51:15.13	276.95	10.08	-29.8	-31.8	12.4	1.81e-03	0	44	102	1048576	19	4569
2026-01-05 02:51:16.14	276.82	10.02	-29.7	-31.7	12.5	1.41e-04	0	44	102	1048576	19	4538
2026-01-05 02:51:17.15	276.69	9.96	-29.7	-31.7	12.5	1.73e-04	0	44	102	1048576	19	4526
2026-01-05 02:51:18.15	276.56	9.90	-29.6	-31.5	12.6	4.58e-04	0	44	102	1048576	19	4455
2026-01-05 02:51:19.16	276.43	9.84	-29.7	-31.7	12.5	1.03e-04	0	44	102	1048576	19	4509
2026-01-05 02:51:20.17	276.30	9.78	-29.7	-31.7	12.5	9.76e-05	0	44	102	1048576	19	4528
2026-01-05 02:51:21.17	276.17	9.72	-29.8	-32.0	12.2	1.82e-03	0	44	102	1048576	19	4644
2026-01-05 02:51:22.18	276.04	9.66	-29.7	-31.7	12.5	2.25e-03	0	44	102	1048576	19	4537
2026-01-05 02:51:23.19	275.91	9.60	-29.8	-31.9	12.3	1.87e-04	0	44	102	1048576	19	4593
2026-01-05 02:51:24.19	275.78	9.54	-29.9	-32.3	12.0	2.52e-03	0	44	102	1048576	19	4744
2026-01-05 02:51:25.20	275.66	9.48	-30.0	-32.0	11.7	2.94e-03	0	44	102	1048576	20	4567
2026-01-05 02:51:26.20	275.53	9.42	-29.9	-31.9	11.9	3.87e-04	0	44	102	1048576	20	4510
2026-01-05 02:51:27.21	275.40	9.36	-30.0	-32.2	11.7	4.32e-04	0	44	102	1048576	20	4623
2026-01-05 02:51:28.21	275.28	9.30	-29.0	-31.7	11.4	3.25e-03	0	44	102	1048576	19	4926
2026-01-05 02:51:29.22	275.15	9.24	-30.2	-32.8	10.9	8.69e-04	0	44	102	1048576	20	4849
2026-01-05 02:51:30.23	275.03	9.18	-30.2	-32.8	11.1	3.96e-03	0	44	102	1048576	20	4837
2026-01-05 02:51:31.24	274.91	9.12	-30.2	-32.7	10.5	3.79e-03	0	44	102	1048576	20	4817
2026-01-05 02:51:32.24	274.78	9.06	-30.2	-32.9	11.1	1.40e-03	0	44	102	1048576	20	4902
2026-01-05 02:51:33.25	274.66	9.00	-30.3	-33.1	10.9	4.23e-03	0	44	102	1048576	20	4983
2026-01-05 02:51:34.26	274.54	8.94	-30.5	-33.3	10.4	7.05e-03	0	43	102	1048576	21	4968
2026-01-05 02:51:35.27	274.41	8.88	-30.4	-33.4	10.7	3.39e-03	0	44	102	1048576	20	5116
2026-01-05 02:51:36.27	274.29	8.82	-30.3	-33.3	10.8	4.38e-03	0	44	102	1048576	20	5052
2026-01-05 02:51:37.28	274.17	8.76	-30.4	-33.4	10.7	4.54e-03	0	44	102	1048576	20	5098
2026-01-05 02:51:38.29	274.05	8.70	-30.3	-33.0	11.0	1.95e-03	0	44	102	1048576	20	4925
2026-01-05 02:51:39.29	273.93	8.64	-30.1	-32.5	11.3	4.00e-03	0	44	102	1048576	20	4756
2026-01-05 02:51:40.30	273.81	8.58	-30.1	-32.6	11.3	2.84e-03	0	44	102	1048576	20	4781
2026-01-05 02:51:41.31	273.69	8.52	-30.2	-32.9	11.0	5.33e-03	0	44	102	1048576	20	4917
2026-01-05 02:51:42.31	273.57	8.46	-29.9	-32.0	11.6	2.37e-03	0	44	102	1048576	20	4579
2026-01-05 02:51:43.31	273.46	8.40	-29.8	-32.1	12.0	2.37e-03	0	44	102	1048576	19	4670
2026-01-05 02:51:44.33	273.34	8.34	-29.7	-31.8	12.2	4.08e-03	0	44	102	1048576	19	4574
2026-01-05 02:51:45.33	273.22	8.28	-29.7	-31.8	12.2	4.17e-03	0	44	102	1048576	19	4597
2026-01-05 02:51:46.34	273.11	8.22	-29.8	-32.2	11.8	1.87e-03	0	44	102	1048576	19	4750
2026-01-05 02:51:47.34	272.99	8.16	-29.9	-32.5	11.7	4.85e-03	0	44	102	1048576	19	4836
2026-01-05 02:51:48.35	272.87	8.10	-29.9	-32.5	11.7	2.54e-03	0	44	102	1048576	19	4833
2026-01-05 02:51:49.35	272.76	8.04	-29.8	-32.2	11.9	2.16e-03	0	44	102	1048576	19	4735
2026-01-05 02:51:50.36	272.65	7.98	-30.0	-32.4	11.3	7.81e-04	0	44	102	1048576	20	4746
2026-01-05 02:51:51.37	272.53	7.92	-30.1	-32.8	11.0	3.59e-03	0	44	102	1048576	20	4875
2026-01-05 02:51:52.37	272.42	7.86	-30.2	-33.0	10.8	6.11e-03	0	44	102	1048576	20	4966
2026-01-05 02:51:53.38	272.30	7.80	-30.3	-33.4	10.5	3.30e-03	0	44	102	1048576	20	5146
2026-01-05 02:51:54.39	272.19	7.74	-30.3	-33.2	10.6	6.06e-03	0	44	102	1048576	20	5071
2026-01-05 02:51:55.39	272.08	7.69	-30.4	-33.8	10.2	1.11e-02	0	44	102	1048576	20	5310
2026-01-05 02:51:56.40	271.97	7.63	-30.3	-33.3	10.6	6.47e-03	0	44	102	1048576	20	5079
2026-01-05 02:51:57.41	271.86	7.57	-30.3	-33.2	10.7	4.99e-03	0	44	102	1048576	20	5041
2026-01-05 02:51:58.41	271.75	7.51	-30.1	-32.8	10.9	6.54e-03	0	44	102	1048576	20	4875
2026-01-05 02:51:59.42	271.64	7.45	-30.1	-32.6	11.1	6.26e-03	0	44	102	1048576	20	4812
2026-01-05 02:52:00.43	271.52	7.39	-30.1	-32.6	11.1	2.37e-03	0	44	102	1048576	20	4803
2026-01-05 02:52:01.43	271.42	7.33	-29.9	-32.6	11.5	5.05e-03	0	44	102	1048576	19	4909
2026-01-05 02:52:02.44	271.31	7.27	-30.0	-32.7	11.4	5.23e-03	0	44	102	1048576	19	4942
2026-01-05 02:52:03.45	271.20	7.21	-29.8	-32.3	11.7	1.94e-03	0	44	102	1048576	19	4773
2026-01-05 02:52:04.46	271.09	7.15	-29.8	-32.4	11.6	4.79e-03	0	44	102	1048576	19	4824
2026-01-05 02:52:05.46	270.98	7.09	-29.8	-31.8	11.5	5.39e-03	0	44	102	1048576	20	4544
2026-01-05 02:52:06.46	270.88	7.04	-32.5	-44.7	3.7	2.22e-03	0	44	102	1048576	24	14760

#Closed at: 2026-01-05 02:52:07
#Recorded file [1 MB]: D:/data/31010_260105_054423.dat