passes_logs/2026/01/05/R2M6_AANII_01/R2M6_AANII_01__20260105_115555_FENGYUN_3D_rec.log

#Pass ID: 20260105_115555_FENGYUN 3D
#Satellite: FENGYUN 3D
#Configuration: FENGYUN 3D
#almurnet v.1.7.20240730
#Start time: 2026-01-05 11:55:54

#Version: 2.2.20231116
#Station: R2M6_AANII_01
#Location: 30.233357 lon 59.946436 lat
#TLE: 1 43010U 17072A   26004.50247883 -.00000063  00000+0 -78815-5 0  9998
#TLE: 2 43010  98.9915 336.1565 0001968 126.3752 233.7605 14.19691805421760

#Time	Az	El	Level	Level2	SNR	BER	BlckErr	Temp	State	Recorded	gain1	gain2
2026-01-05 11:55:54.52	147.33	6.93	-28.0	-30.9	5.4	7.87e-01	0	41	0	0	17	5017
2026-01-05 11:55:55.52	147.32	7.01	-28.7	-33.2	5.2	7.96e-01	0	41	104	0	17	6009
2026-01-05 11:55:56.53	147.30	7.09	-28.9	-33.6	8.2	6.74e-02	0	41	0	0	17	6197
2026-01-05 11:55:57.54	147.28	7.17	-28.8	-33.0	8.6	5.28e-02	0	41	102	1048576	17	5869
2026-01-05 11:55:58.54	147.27	7.24	-28.7	-32.8	8.8	2.75e-02	0	41	102	1048576	17	5766
2026-01-05 11:55:59.55	147.25	7.32	-28.6	-32.4	9.1	3.33e-02	0	41	102	1048576	17	5567
2026-01-05 11:56:00.56	147.23	7.40	-28.3	-31.5	9.8	1.73e-02	0	41	102	1048576	17	5189
2026-01-05 11:56:01.57	147.21	7.48	-28.0	-30.4	10.6	5.73e-03	0	41	102	1048576	17	4793
2026-01-05 11:56:02.58	147.19	7.56	-27.7	-30.2	11.0	3.30e-03	0	41	102	1048576	16	4817
2026-01-05 11:56:03.58	147.18	7.64	-27.5	-29.8	11.4	1.76e-03	0	41	102	1048576	16	4650
2026-01-05 11:56:04.59	147.16	7.72	-27.4	-29.4	11.6	1.06e-03	0	41	102	1048576	16	4527
2026-01-05 11:56:05.59	147.14	7.80	-27.5	-29.5	11.6	1.04e-03	0	42	102	1048576	16	4542
2026-01-05 11:56:06.60	147.12	7.88	-27.4	-29.3	11.7	8.85e-04	0	41	102	1048576	16	4501
2026-01-05 11:56:07.61	147.10	7.96	-27.3	-29.1	11.9	6.33e-04	0	41	102	1048576	16	4413
2026-01-05 11:56:08.61	147.08	8.04	-27.0	-28.8	12.2	4.28e-04	0	42	102	1048576	15	4433
2026-01-05 11:56:09.62	147.07	8.12	-26.7	-28.7	12.6	2.30e-04	0	42	102	1048576	14	4508
2026-01-05 11:56:10.62	147.05	8.20	-26.5	-28.0	13.0	7.66e-05	0	42	102	1048576	14	4307
2026-01-05 11:56:11.63	147.03	8.28	-26.3	-27.6	13.3	3.08e-05	0	41	102	1048576	14	4173
2026-01-05 11:56:12.63	147.01	8.36	-26.2	-27.9	13.4	2.97e-05	0	42	102	1048576	13	4367
2026-01-05 11:56:13.64	146.99	8.45	-26.2	-27.9	13.4	2.97e-05	0	42	102	1048576	13	4369
2026-01-05 11:56:14.64	146.97	8.53	-26.3	-28.1	13.3	2.97e-05	0	42	102	1048576	13	4450
2026-01-05 11:56:15.65	146.95	8.61	-26.2	-27.8	13.5	2.05e-05	0	42	102	1048576	13	4329
2026-01-05 11:56:16.66	146.93	8.69	-26.2	-27.8	13.5	2.74e-05	0	42	102	1048576	13	4345
2026-01-05 11:56:17.67	146.91	8.78	-26.1	-27.6	13.6	1.14e-05	0	42	102	1048576	13	4284
2026-01-05 11:56:18.67	146.89	8.86	-26.1	-27.7	13.6	2.17e-05	0	42	102	1048576	13	4313
2026-01-05 11:56:19.68	146.87	8.94	-26.1	-27.5	13.7	3.40e-06	0	42	102	1048576	13	4256
2026-01-05 11:56:20.68	146.85	9.03	-26.1	-27.7	13.6	9.10e-06	0	42	102	1048576	13	4296
2026-01-05 11:56:21.69	146.83	9.11	-26.1	-27.5	13.7	1.71e-05	0	42	102	1048576	13	4241
2026-01-05 11:56:22.70	146.81	9.20	-25.9	-27.2	13.9	3.40e-06	0	42	102	1048576	13	4164
2026-01-05 11:56:23.71	146.79	9.28	-25.8	-26.8	14.1	4.50e-06	0	42	102	1048576	13	4063
2026-01-05 11:56:24.71	146.77	9.37	-25.7	-27.3	14.2	1.10e-06	0	42	102	1048576	12	4289
2026-01-05 11:56:25.71	146.75	9.45	-25.7	-27.2	14.2	1.10e-06	0	42	102	1048576	12	4270
2026-01-05 11:56:26.72	146.73	9.54	-25.7	-27.1	14.3	2.20e-06	0	42	102	1048576	12	4243
2026-01-05 11:56:27.73	146.71	9.62	-25.8	-27.5	14.1	6.80e-06	0	42	102	1048576	12	4336
2026-01-05 11:56:28.74	146.68	9.71	-25.7	-27.2	14.2	3.40e-06	0	42	102	1048576	12	4264
2026-01-05 11:56:29.75	146.66	9.80	-25.6	-27.0	14.4	2.20e-06	0	42	102	1048576	12	4210
2026-01-05 11:56:30.75	146.64	9.88	-25.6	-27.0	14.4	1.48e-05	0	42	102	1048576	12	4215
2026-01-05 11:56:31.77	146.62	9.97	-25.5	-26.8	14.5	0.00e+00	0	42	102	1048576	12	4151
2026-01-05 11:56:32.77	146.60	10.06	-25.5	-26.7	14.6	2.20e-06	0	42	102	1048576	12	4134
2026-01-05 11:56:33.78	146.58	10.14	-25.6	-27.0	14.4	9.10e-06	0	42	102	1048576	12	4205
2026-01-05 11:56:34.78	146.55	10.23	-25.5	-26.8	14.5	2.20e-06	0	42	102	1048576	12	4157
2026-01-05 11:56:35.79	146.53	10.32	-25.6	-26.9	14.5	2.20e-06	0	42	102	1048576	12	4173
2026-01-05 11:56:36.80	146.51	10.41	-25.5	-26.7	14.6	1.10e-06	0	42	102	1048576	12	4126
2026-01-05 11:56:37.80	146.49	10.50	-25.5	-26.7	14.6	0.00e+00	0	42	102	1048576	12	4128
2026-01-05 11:56:38.81	146.46	10.59	-25.5	-26.8	14.6	0.00e+00	0	42	102	1048576	12	4144
2026-01-05 11:56:39.81	146.44	10.68	-25.7	-27.0	14.4	6.80e-06	0	42	102	1048576	12	4222
2026-01-05 11:56:40.83	146.42	10.77	-25.5	-26.6	14.7	1.10e-06	0	42	102	1048576	12	4095
2026-01-05 11:56:41.83	146.40	10.86	-25.4	-26.4	14.8	0.00e+00	0	42	102	1048576	12	4048
2026-01-05 11:56:42.83	146.37	10.95	-25.4	-26.3	14.8	0.00e+00	0	42	102	1048576	12	4033
2026-01-05 11:56:43.84	146.35	11.04	-25.5	-26.6	14.7	0.00e+00	0	42	102	1048576	12	4104
2026-01-05 11:56:44.85	146.32	11.13	-25.3	-26.2	14.9	0.00e+00	0	42	102	1048576	12	4006
2026-01-05 11:56:45.85	146.30	11.22	-25.3	-26.8	15.0	1.10e-06	0	42	102	1048576	11	4241
2026-01-05 11:56:46.86	146.28	11.31	-25.3	-26.7	15.0	0.00e+00	0	42	102	1048576	11	4233
2026-01-05 11:56:47.86	146.25	11.40	-25.5	-27.0	14.8	2.20e-06	0	42	102	1048576	11	4324
2026-01-05 11:56:48.87	146.23	11.50	-25.4	-26.9	14.9	0.00e+00	0	42	102	1048576	11	4274
2026-01-05 11:56:49.88	146.20	11.59	-25.3	-26.7	15.0	0.00e+00	0	42	102	1048576	11	4237
2026-01-05 11:56:50.88	146.18	11.68	-25.3	-26.6	15.1	0.00e+00	0	42	102	1048576	11	4209
2026-01-05 11:56:51.89	146.15	11.78	-25.3	-26.7	15.1	1.10e-06	0	42	102	1048576	11	4226
2026-01-05 11:56:52.90	146.13	11.87	-25.3	-26.6	15.1	0.00e+00	0	43	102	1048576	11	4197
2026-01-05 11:56:53.88	146.10	11.96	-25.4	-26.9	14.9	0.00e+00	0	42	102	1048576	11	4283
2026-01-05 11:56:54.89	146.08	12.06	-25.3	-26.6	15.1	0.00e+00	0	42	102	1048576	11	4205
2026-01-05 11:56:55.90	146.05	12.15	-25.2	-26.4	15.2	0.00e+00	0	43	102	1048576	11	4150
2026-01-05 11:56:56.90	146.03	12.25	-25.2	-26.4	15.2	0.00e+00	0	42	102	1048576	11	4149
2026-01-05 11:56:57.91	146.00	12.34	-25.3	-26.7	15.1	0.00e+00	0	42	102	1048576	11	4219
2026-01-05 11:56:58.91	145.98	12.44	-25.2	-26.4	15.2	1.10e-06	0	42	102	1048576	11	4158
2026-01-05 11:56:59.92	145.95	12.54	-25.2	-26.4	15.3	0.00e+00	0	43	102	1048576	11	4135
2026-01-05 11:57:00.93	145.92	12.63	-25.3	-26.6	15.2	0.00e+00	0	42	102	1048576	11	4192
2026-01-05 11:57:01.94	145.90	12.73	-25.2	-26.4	15.3	0.00e+00	0	43	102	1048576	11	4156
2026-01-05 11:57:02.95	145.87	12.83	-25.2	-26.5	15.2	0.00e+00	0	43	102	1048576	11	4171
2026-01-05 11:57:03.95	145.84	12.93	-25.3	-26.6	15.2	0.00e+00	0	43	102	1048576	11	4210
2026-01-05 11:57:04.96	145.81	13.02	-25.2	-26.5	15.2	0.00e+00	0	43	102	1048576	11	4173
2026-01-05 11:57:05.97	145.79	13.12	-25.3	-26.7	15.1	0.00e+00	0	43	102	1048576	11	4221
2026-01-05 11:57:06.98	145.76	13.22	-25.4	-27.0	15.0	0.00e+00	0	43	102	1048576	11	4307
2026-01-05 11:57:07.99	145.73	13.32	-25.3	-26.8	15.1	0.00e+00	0	43	102	1048576	11	4249
2026-01-05 11:57:08.99	145.70	13.42	-25.3	-26.8	15.1	0.00e+00	0	43	102	1048576	11	4243
2026-01-05 11:57:10.00	145.67	13.52	-25.5	-27.1	15.0	0.00e+00	0	43	102	1048576	11	4325
2026-01-05 11:57:11.01	145.65	13.62	-25.2	-26.6	15.2	0.00e+00	0	43	102	1048576	11	4194
2026-01-05 11:57:12.02	145.62	13.73	-25.2	-26.5	15.3	0.00e+00	0	43	102	1048576	11	4168
2026-01-05 11:57:13.02	145.59	13.83	-25.3	-26.7	15.2	0.00e+00	0	43	102	1048576	11	4219
2026-01-05 11:57:14.03	145.56	13.93	-25.2	-26.5	15.3	0.00e+00	0	43	102	1048576	11	4160
2026-01-05 11:57:15.04	145.53	14.03	-25.1	-26.1	15.5	0.00e+00	0	43	102	1048576	11	4075
2026-01-05 11:57:16.04	145.50	14.13	-25.0	-26.0	15.6	0.00e+00	0	43	102	1048576	11	4041
2026-01-05 11:57:17.05	145.47	14.24	-25.0	-26.1	15.6	0.00e+00	0	43	102	1048576	11	4056
2026-01-05 11:57:18.06	145.44	14.34	-25.0	-25.9	15.6	2.20e-06	0	43	102	1048576	11	4028
2026-01-05 11:57:19.07	145.41	14.45	-24.9	-25.7	15.7	0.00e+00	0	43	102	1048576	11	3971
2026-01-05 11:57:20.07	145.38	14.55	-24.9	-25.8	15.7	0.00e+00	0	43	102	1048576	11	3988
2026-01-05 11:57:21.08	145.35	14.66	-25.0	-26.1	15.5	0.00e+00	0	43	102	1048576	11	4058
2026-01-05 11:57:22.09	145.32	14.76	-25.0	-26.1	15.5	0.00e+00	0	43	102	1048576	11	4062
2026-01-05 11:57:23.10	145.29	14.87	-25.0	-25.9	15.6	0.00e+00	0	43	102	1048576	11	4021
2026-01-05 11:57:24.10	145.25	14.97	-24.9	-25.9	15.7	0.00e+00	0	43	102	1048576	11	4001
2026-01-05 11:57:25.10	145.22	15.08	-25.0	-26.0	15.6	0.00e+00	0	43	102	1048576	11	4045
2026-01-05 11:57:26.11	145.19	15.19	-24.8	-25.6	15.8	0.00e+00	0	43	102	1048576	11	3926
2026-01-05 11:57:27.12	145.16	15.29	-24.7	-25.9	15.9	0.00e+00	0	43	102	1048576	10	4122
2026-01-05 11:57:28.13	145.13	15.40	-24.8	-26.1	15.8	0.00e+00	0	43	102	1048576	10	4170
2026-01-05 11:57:29.13	145.09	15.51	-24.6	-25.6	16.1	0.00e+00	0	43	102	1048576	10	4025
2026-01-05 11:57:30.14	145.06	15.62	-24.5	-25.3	16.3	0.00e+00	0	43	102	1048576	10	3960
2026-01-05 11:57:31.15	145.03	15.73	-24.4	-25.2	16.3	0.00e+00	0	43	102	1048576	10	3940
2026-01-05 11:57:32.16	144.99	15.84	-24.4	-25.2	16.4	0.00e+00	0	43	102	1048576	10	3946
2026-01-05 11:57:33.16	144.96	15.95	-24.4	-25.2	16.4	3.40e-06	0	43	102	1048576	10	3941
2026-01-05 11:57:34.16	144.92	16.06	-24.4	-25.1	16.4	0.00e+00	0	43	102	1048576	10	3923
2026-01-05 11:57:35.17	144.89	16.17	-24.6	-25.5	16.2	0.00e+00	0	43	102	1048576	10	4003
2026-01-05 11:57:36.18	144.86	16.29	-24.7	-25.7	16.1	0.00e+00	0	43	102	1048576	10	4068
2026-01-05 11:57:37.19	144.82	16.40	-24.5	-25.3	16.3	0.00e+00	0	43	102	1048576	10	3961
2026-01-05 11:57:38.19	144.79	16.51	-24.3	-24.9	16.5	0.00e+00	0	43	102	1048576	10	3867
2026-01-05 11:57:39.20	144.75	16.63	-24.3	-25.0	16.5	9.10e-06	0	43	102	1048576	10	3893
2026-01-05 11:57:40.21	144.71	16.74	-24.3	-25.0	16.5	0.00e+00	0	43	102	1048576	10	3888
2026-01-05 11:57:41.21	144.68	16.85	-24.2	-25.3	16.6	0.00e+00	0	43	102	1048576	9	4070
2026-01-05 11:57:42.22	144.64	16.97	-24.2	-25.3	16.7	9.10e-06	0	43	102	1048576	9	4055
2026-01-05 11:57:43.23	144.60	17.09	-24.1	-25.1	16.8	0.00e+00	0	43	102	1048576	9	4007
2026-01-05 11:57:44.24	144.57	17.20	-24.1	-25.0	16.8	0.00e+00	0	43	102	1048576	9	3988
2026-01-05 11:57:45.25	144.53	17.32	-24.1	-25.0	16.8	0.00e+00	0	43	102	1048576	9	3989
2026-01-05 11:57:46.26	144.49	17.44	-24.0	-24.8	16.9	0.00e+00	0	43	102	1048576	9	3938
2026-01-05 11:57:47.26	144.45	17.56	-24.0	-24.7	17.0	0.00e+00	0	43	102	1048576	9	3908
2026-01-05 11:57:48.27	144.42	17.67	-24.0	-24.7	17.0	0.00e+00	0	43	102	1048576	9	3913
2026-01-05 11:57:49.28	144.38	17.79	-24.0	-24.8	16.9	0.00e+00	0	43	102	1048576	9	3925
2026-01-05 11:57:50.28	144.34	17.91	-24.0	-24.7	17.0	0.00e+00	0	43	102	1048576	9	3915
2026-01-05 11:57:51.29	144.30	18.03	-23.9	-24.5	17.1	0.00e+00	0	43	102	1048576	9	3877
2026-01-05 11:57:52.29	144.26	18.15	-23.9	-24.6	17.1	0.00e+00	0	43	102	1048576	9	3890
2026-01-05 11:57:53.29	144.22	18.27	-23.9	-24.6	17.1	0.00e+00	0	43	102	1048576	9	3889
2026-01-05 11:57:54.30	144.18	18.40	-23.9	-24.6	17.1	0.00e+00	0	43	102	1048576	9	3893
2026-01-05 11:57:55.31	144.14	18.52	-23.9	-24.6	17.1	0.00e+00	0	43	102	1048576	9	3898
2026-01-05 11:57:56.32	144.10	18.64	-24.0	-24.7	17.1	0.00e+00	0	43	102	1048576	9	3911
2026-01-05 11:57:57.33	144.06	18.77	-24.1	-24.9	17.0	0.00e+00	0	43	102	1048576	9	3954
2026-01-05 11:57:58.34	144.01	18.89	-23.9	-24.6	17.1	0.00e+00	0	43	102	1048576	9	3893
2026-01-05 11:57:59.35	143.97	19.02	-23.8	-24.3	17.3	0.00e+00	0	43	102	1048576	9	3821
2026-01-05 11:58:00.35	143.93	19.14	-23.7	-24.7	17.4	0.00e+00	0	43	102	1048576	8	4014
2026-01-05 11:58:01.35	143.89	19.27	-23.7	-24.6	17.4	0.00e+00	0	43	102	1048576	8	3997
2026-01-05 11:58:02.36	143.84	19.39	-23.8	-24.7	17.4	0.00e+00	0	43	102	1048576	8	4020
2026-01-05 11:58:03.37	143.80	19.52	-23.7	-24.7	17.4	0.00e+00	0	43	102	1048576	8	4012
2026-01-05 11:58:04.36	143.76	19.65	-23.9	-25.0	17.3	0.00e+00	0	43	102	1048576	8	4081
2026-01-05 11:58:05.37	143.71	19.78	-23.9	-24.9	17.3	0.00e+00	0	43	102	1048576	8	4071
2026-01-05 11:58:06.38	143.67	19.91	-23.6	-24.4	17.6	0.00e+00	0	43	102	1048576	8	3950
2026-01-05 11:58:07.39	143.62	20.04	-23.5	-24.2	17.7	0.00e+00	0	43	102	1048576	8	3906
2026-01-05 11:58:08.40	143.58	20.17	-23.5	-24.2	17.7	0.00e+00	0	43	102	1048576	8	3903
2026-01-05 11:58:09.40	143.53	20.30	-23.6	-24.4	17.6	0.00e+00	0	43	102	1048576	8	3932
2026-01-05 11:58:10.41	143.48	20.43	-23.6	-24.4	17.6	0.00e+00	0	43	102	1048576	8	3954
2026-01-05 11:58:11.42	143.44	20.57	-23.4	-24.0	17.8	0.00e+00	0	43	102	1048576	8	3858
2026-01-05 11:58:12.42	143.39	20.70	-23.4	-23.9	17.9	0.00e+00	0	43	102	1048576	8	3815
2026-01-05 11:58:13.43	143.34	20.83	-23.4	-23.9	17.9	0.00e+00	0	43	102	1048576	8	3815
2026-01-05 11:58:14.44	143.29	20.97	-23.4	-24.0	17.9	0.00e+00	0	43	102	1048576	8	3848
2026-01-05 11:58:15.44	143.24	21.10	-23.4	-23.9	17.9	0.00e+00	0	43	102	1048576	8	3828
2026-01-05 11:58:16.45	143.20	21.24	-23.5	-24.1	17.8	0.00e+00	0	43	102	1048576	8	3869
2026-01-05 11:58:17.46	143.15	21.38	-23.5	-24.1	17.8	1.10e-06	0	43	102	1048576	8	3880
2026-01-05 11:58:18.47	143.10	21.51	-23.3	-23.7	18.0	0.00e+00	0	43	102	1048576	8	3776
2026-01-05 11:58:19.48	143.04	21.65	-23.2	-24.0	18.1	0.00e+00	0	43	102	1048576	7	3961
2026-01-05 11:58:20.48	142.99	21.79	-23.2	-24.0	18.1	0.00e+00	0	43	102	1048576	7	3962
2026-01-05 11:58:21.49	142.94	21.93	-23.2	-24.0	18.1	0.00e+00	0	43	102	1048576	7	3950
2026-01-05 11:58:22.50	142.89	22.07	-23.2	-24.0	18.2	0.00e+00	0	43	102	1048576	7	3945
2026-01-05 11:58:23.50	142.84	22.21	-23.2	-24.0	18.2	0.00e+00	0	43	102	1048576	7	3949
2026-01-05 11:58:24.51	142.79	22.36	-23.1	-23.9	18.2	0.00e+00	0	43	102	1048576	7	3932
2026-01-05 11:58:25.51	142.73	22.50	-23.2	-24.0	18.2	0.00e+00	0	43	102	1048576	7	3952
2026-01-05 11:58:26.52	142.68	22.64	-23.2	-24.1	18.1	4.50e-06	0	43	102	1048576	7	3987
2026-01-05 11:58:27.53	142.62	22.79	-23.2	-24.0	18.1	0.00e+00	0	43	102	1048576	7	3965
2026-01-05 11:58:28.54	142.57	22.93	-23.2	-24.0	18.2	0.00e+00	0	43	102	1048576	7	3961
2026-01-05 11:58:29.54	142.51	23.08	-23.2	-24.1	18.1	2.20e-06	0	43	102	1048576	7	3987
2026-01-05 11:58:30.56	142.46	23.23	-23.2	-24.1	18.1	0.00e+00	0	43	102	1048576	7	3980
2026-01-05 11:58:31.57	142.40	23.38	-23.2	-24.0	18.2	0.00e+00	0	43	102	1048576	7	3954
2026-01-05 11:58:32.57	142.34	23.52	-23.1	-23.9	18.2	1.10e-06	0	43	102	1048576	7	3939
2026-01-05 11:58:33.58	142.28	23.67	-23.3	-24.1	18.1	0.00e+00	0	43	102	1048576	7	3992
2026-01-05 11:58:34.58	142.23	23.82	-23.2	-24.0	18.2	0.00e+00	0	43	102	1048576	7	3966
2026-01-05 11:58:35.59	142.17	23.97	-23.1	-23.8	18.3	6.80e-06	0	43	102	1048576	7	3897
2026-01-05 11:58:36.60	142.11	24.13	-23.0	-23.7	18.4	0.00e+00	0	43	102	1048576	7	3882
2026-01-05 11:58:37.60	142.05	24.28	-23.2	-24.0	18.2	0.00e+00	0	43	102	1048576	7	3946
2026-01-05 11:58:38.61	141.99	24.43	-23.3	-24.2	18.1	1.02e-05	0	43	102	1048576	7	3991
2026-01-05 11:58:39.62	141.92	24.59	-23.2	-24.0	18.2	0.00e+00	0	43	102	1048576	7	3944
2026-01-05 11:58:40.62	141.86	24.74	-23.1	-23.8	18.4	0.00e+00	0	43	102	1048576	7	3904
2026-01-05 11:58:41.63	141.80	24.90	-23.1	-23.7	18.4	6.80e-06	0	43	102	1048576	7	3884
2026-01-05 11:58:42.63	141.74	25.05	-23.0	-23.7	18.4	0.00e+00	0	43	102	1048576	7	3871
2026-01-05 11:58:43.64	141.67	25.21	-22.9	-23.4	18.6	0.00e+00	0	43	102	1048576	7	3798
2026-01-05 11:58:44.65	141.61	25.37	-22.9	-23.4	18.6	0.00e+00	0	43	102	1048576	7	3805
2026-01-05 11:58:45.66	141.54	25.53	-22.8	-23.2	18.6	0.00e+00	0	44	102	1048576	7	3772
2026-01-05 11:58:46.67	141.48	25.69	-23.0	-23.6	18.5	0.00e+00	0	43	102	1048576	7	3844
2026-01-05 11:58:47.68	141.41	25.85	-22.9	-23.3	18.6	0.00e+00	0	43	102	1048576	7	3796
2026-01-05 11:58:48.69	141.34	26.02	-22.6	-23.3	18.9	0.00e+00	0	43	102	1048576	6	3888
2026-01-05 11:58:49.69	141.27	26.18	-22.7	-23.5	18.7	0.00e+00	0	43	102	1048576	6	3942
2026-01-05 11:58:50.70	141.20	26.34	-22.6	-23.3	18.8	0.00e+00	0	43	102	1048576	6	3902
2026-01-05 11:58:51.71	141.13	26.51	-22.6	-23.3	18.9	0.00e+00	0	43	102	1048576	6	3887
2026-01-05 11:58:52.71	141.06	26.68	-22.7	-23.5	18.8	0.00e+00	0	43	102	1048576	6	3928
2026-01-05 11:58:53.72	140.99	26.84	-22.8	-23.8	18.7	0.00e+00	0	43	102	1048576	6	4002
2026-01-05 11:58:54.73	140.92	27.01	-22.9	-23.8	18.6	0.00e+00	0	43	102	1048576	6	4015
2026-01-05 11:58:55.74	140.85	27.18	-22.9	-23.8	18.6	0.00e+00	0	43	102	1048576	6	4019
2026-01-05 11:58:56.74	140.77	27.35	-22.8	-23.7	18.7	0.00e+00	0	43	102	1048576	6	3982
2026-01-05 11:58:57.75	140.70	27.52	-22.7	-23.4	18.9	0.00e+00	0	43	102	1048576	6	3911
2026-01-05 11:58:58.76	140.62	27.70	-22.7	-23.4	18.9	0.00e+00	0	43	102	1048576	6	3915
2026-01-05 11:58:59.77	140.55	27.87	-22.6	-23.2	19.0	0.00e+00	0	43	102	1048576	6	3858
2026-01-05 11:59:00.78	140.47	28.05	-22.6	-23.2	19.0	0.00e+00	0	43	102	1048576	6	3866
2026-01-05 11:59:01.78	140.39	28.22	-22.4	-22.8	19.2	0.00e+00	0	43	102	1048576	6	3784
2026-01-05 11:59:02.79	140.31	28.40	-22.3	-22.6	19.3	0.00e+00	0	43	102	1048576	6	3730
2026-01-05 11:59:03.80	140.23	28.58	-22.4	-22.8	19.2	0.00e+00	0	43	102	1048576	6	3767
2026-01-05 11:59:04.81	140.15	28.75	-22.3	-22.6	19.3	0.00e+00	0	43	102	1048576	6	3724
2026-01-05 11:59:05.81	140.07	28.93	-22.4	-22.8	19.2	0.00e+00	0	43	102	1048576	6	3768
2026-01-05 11:59:06.82	139.99	29.11	-22.3	-22.6	19.3	0.00e+00	0	43	102	1048576	6	3730
2026-01-05 11:59:07.82	139.90	29.30	-22.2	-22.9	19.4	0.00e+00	0	43	102	1048576	5	3904
2026-01-05 11:59:08.83	139.82	29.48	-22.2	-22.8	19.4	0.00e+00	0	43	102	1048576	5	3888
2026-01-05 11:59:09.83	139.73	29.66	-22.4	-23.3	19.2	0.00e+00	0	43	102	1048576	5	3992
2026-01-05 11:59:10.83	139.65	29.85	-22.3	-23.2	19.3	0.00e+00	0	43	102	1048576	5	3962
2026-01-05 11:59:11.84	139.56	30.03	-22.3	-23.2	19.3	0.00e+00	0	43	102	1048576	5	3975
2026-01-05 11:59:12.85	139.47	30.22	-22.4	-23.3	19.2	0.00e+00	0	43	102	1048576	5	4006
2026-01-05 11:59:13.85	139.38	30.41	-22.5	-23.6	19.1	0.00e+00	0	43	102	1048576	5	4079
2026-01-05 11:59:14.86	139.29	30.60	-22.5	-23.5	19.1	0.00e+00	0	43	102	1048576	5	4044
2026-01-05 11:59:15.87	139.20	30.79	-22.5	-23.5	19.1	0.00e+00	0	43	102	1048576	5	4051
2026-01-05 11:59:16.87	139.11	30.98	-22.5	-23.6	19.1	0.00e+00	0	43	102	1048576	5	4075
2026-01-05 11:59:17.88	139.01	31.18	-22.3	-23.1	19.3	0.00e+00	0	43	102	1048576	5	3962
2026-01-05 11:59:18.89	138.92	31.37	-22.1	-22.7	19.5	0.00e+00	0	43	102	1048576	5	3854
2026-01-05 11:59:19.90	138.82	31.57	-22.1	-22.7	19.6	0.00e+00	0	43	102	1048576	5	3855
2026-01-05 11:59:20.90	138.72	31.76	-22.2	-22.8	19.5	0.00e+00	0	43	102	1048576	5	3882
2026-01-05 11:59:21.91	138.62	31.96	-22.0	-22.5	19.7	0.00e+00	0	43	102	1048576	5	3801
2026-01-05 11:59:22.92	138.52	32.16	-22.2	-22.8	19.5	0.00e+00	0	43	102	1048576	5	3875
2026-01-05 11:59:23.92	138.42	32.36	-22.1	-22.8	19.5	0.00e+00	0	44	102	1048576	5	3874
2026-01-05 11:59:24.93	138.32	32.56	-22.2	-23.0	19.4	0.00e+00	0	43	102	1048576	5	3916
2026-01-05 11:59:25.94	138.21	32.77	-22.2	-22.9	19.4	0.00e+00	0	43	102	1048576	5	3908
2026-01-05 11:59:26.95	138.11	32.97	-22.2	-22.9	19.5	0.00e+00	0	43	102	1048576	5	3895
2026-01-05 11:59:27.95	138.00	33.18	-22.2	-23.0	19.4	0.00e+00	0	43	102	1048576	5	3927
2026-01-05 11:59:28.96	137.89	33.38	-22.1	-22.7	19.5	0.00e+00	0	43	102	1048576	5	3868
2026-01-05 11:59:29.97	137.78	33.59	-22.0	-22.5	19.7	0.00e+00	0	43	102	1048576	5	3820
2026-01-05 11:59:30.97	137.67	33.80	-22.1	-22.6	19.6	0.00e+00	0	44	102	1048576	5	3843
2026-01-05 11:59:31.98	137.56	34.01	-22.1	-22.6	19.6	3.40e-06	0	43	102	1048576	5	3844
2026-01-05 11:59:32.99	137.45	34.23	-22.1	-22.7	19.6	0.00e+00	0	43	102	1048576	5	3861
2026-01-05 11:59:33.99	137.33	34.44	-22.1	-22.8	19.6	0.00e+00	0	44	102	1048576	5	3869
2026-01-05 11:59:35.01	137.21	34.66	-22.2	-22.8	19.6	4.50e-06	0	44	102	1048576	5	3887
2026-01-05 11:59:36.01	137.09	34.87	-22.2	-22.8	19.6	0.00e+00	0	44	102	1048576	5	3880
2026-01-05 11:59:37.02	136.97	35.09	-22.3	-23.2	19.4	0.00e+00	0	43	102	1048576	5	3966
2026-01-05 11:59:38.02	136.85	35.31	-22.1	-22.8	19.6	2.20e-06	0	43	102	1048576	5	3870
2026-01-05 11:59:39.03	136.73	35.53	-22.2	-23.0	19.5	0.00e+00	0	43	102	1048576	5	3928
2026-01-05 11:59:40.04	136.60	35.75	-22.3	-23.1	19.5	0.00e+00	0	44	102	1048576	5	3941
2026-01-05 11:59:41.04	136.48	35.97	-22.2	-23.0	19.5	1.10e-06	0	43	102	1048576	5	3923
2026-01-05 11:59:42.04	136.35	36.20	-22.2	-22.9	19.5	0.00e+00	0	43	102	1048576	5	3902
2026-01-05 11:59:43.04	136.22	36.42	-22.1	-22.6	19.7	0.00e+00	0	44	102	1048576	5	3840
2026-01-05 11:59:44.05	136.08	36.65	-22.2	-22.8	19.6	0.00e+00	0	43	102	1048576	5	3877
2026-01-05 11:59:45.05	135.95	36.87	-22.0	-22.6	19.7	0.00e+00	0	43	102	1048576	5	3825
2026-01-05 11:59:46.06	135.81	37.11	-22.0	-22.4	19.8	0.00e+00	0	43	102	1048576	5	3793
2026-01-05 11:59:47.07	135.67	37.34	-22.1	-22.7	19.6	0.00e+00	0	43	102	1048576	5	3869
2026-01-05 11:59:48.07	135.53	37.57	-22.0	-22.6	19.7	0.00e+00	0	43	102	1048576	5	3826
2026-01-05 11:59:49.08	135.39	37.80	-22.0	-22.5	19.8	0.00e+00	0	44	102	1048576	5	3806
2026-01-05 11:59:50.09	135.25	38.04	-22.1	-22.7	19.7	3.40e-06	0	43	102	1048576	5	3849
2026-01-05 11:59:51.10	135.10	38.28	-22.0	-22.4	19.8	0.00e+00	0	43	102	1048576	5	3794
2026-01-05 11:59:52.10	134.95	38.52	-22.0	-22.5	19.8	0.00e+00	0	43	102	1048576	5	3802
2026-01-05 11:59:53.11	134.80	38.76	-22.1	-22.6	19.7	0.00e+00	0	43	102	1048576	5	3836
2026-01-05 11:59:54.12	134.64	39.00	-22.1	-22.6	19.7	0.00e+00	0	43	102	1048576	5	3828
2026-01-05 11:59:55.12	134.49	39.24	-22.1	-22.6	19.7	0.00e+00	0	43	102	1048576	5	3840
2026-01-05 11:59:56.12	134.33	39.48	-22.1	-22.7	19.7	0.00e+00	0	43	102	1048576	5	3847
2026-01-05 11:59:57.13	134.17	39.73	-22.0	-22.5	19.8	0.00e+00	0	43	102	1048576	5	3803
2026-01-05 11:59:58.14	134.01	39.98	-22.1	-22.7	19.7	0.00e+00	0	44	102	1048576	5	3848
2026-01-05 11:59:59.15	133.84	40.23	-22.4	-23.4	19.3	0.00e+00	0	43	102	1048576	5	4014
2026-01-05 12:00:00.15	133.67	40.48	-22.6	-23.8	19.1	0.00e+00	0	44	102	1048576	5	4114
2026-01-05 12:00:01.16	133.50	40.73	-22.7	-23.8	19.1	0.00e+00	0	44	102	1048576	5	4131
2026-01-05 12:00:02.16	133.33	40.98	-22.6	-23.8	19.1	0.00e+00	0	44	102	1048576	5	4122
2026-01-05 12:00:03.17	133.15	41.24	-22.7	-23.8	19.2	0.00e+00	0	43	102	1048576	5	4123
2026-01-05 12:00:04.18	132.97	41.49	-22.8	-24.2	19.0	0.00e+00	0	44	102	1048576	5	4208
2026-01-05 12:00:05.18	132.79	41.75	-22.4	-23.2	19.5	0.00e+00	0	43	102	1048576	5	3973
2026-01-05 12:00:06.19	132.60	42.01	-22.2	-22.9	19.6	0.00e+00	0	44	102	1048576	5	3895
2026-01-05 12:00:07.20	132.41	42.27	-22.2	-22.9	19.6	0.00e+00	0	44	102	1048576	5	3895
2026-01-05 12:00:08.20	132.22	42.53	-22.3	-23.0	19.6	0.00e+00	0	44	102	1048576	5	3928
2026-01-05 12:00:09.21	132.03	42.80	-22.3	-23.1	19.5	0.00e+00	0	43	102	1048576	5	3936
2026-01-05 12:00:10.22	131.83	43.06	-22.4	-23.3	19.4	0.00e+00	0	44	102	1048576	5	3986
2026-01-05 12:00:11.23	131.63	43.33	-22.5	-23.6	19.3	0.00e+00	0	43	102	1048576	5	4058
2026-01-05 12:00:12.23	131.42	43.60	-22.4	-23.3	19.4	0.00e+00	0	44	102	1048576	5	3997
2026-01-05 12:00:13.24	131.21	43.87	-22.4	-23.3	19.4	0.00e+00	0	43	102	1048576	5	3991
2026-01-05 12:00:14.24	131.00	44.14	-22.5	-23.5	19.4	0.00e+00	0	43	102	1048576	5	4029
2026-01-05 12:00:15.24	130.79	44.41	-22.4	-23.3	19.5	0.00e+00	0	43	102	1048576	5	3981
2026-01-05 12:00:16.24	130.57	44.68	-22.5	-23.5	19.4	0.00e+00	0	44	102	1048576	5	4038
2026-01-05 12:00:17.25	130.35	44.96	-22.6	-23.8	19.2	0.00e+00	0	44	102	1048576	5	4114
2026-01-05 12:00:18.26	130.12	45.23	-22.6	-23.8	19.3	0.00e+00	0	44	102	1048576	5	4112
2026-01-05 12:00:19.26	129.89	45.51	-22.7	-23.9	19.2	0.00e+00	0	43	102	1048576	5	4127
2026-01-05 12:00:20.27	129.65	45.79	-22.7	-23.9	19.2	0.00e+00	0	43	102	1048576	5	4148
2026-01-05 12:00:21.28	129.41	46.07	-22.7	-23.9	19.2	0.00e+00	0	44	102	1048576	5	4142
2026-01-05 12:00:22.28	129.17	46.35	-22.7	-23.8	19.3	0.00e+00	0	43	102	1048576	5	4104
2026-01-05 12:00:23.29	128.92	46.64	-22.6	-23.7	19.3	0.00e+00	0	44	102	1048576	5	4086
2026-01-05 12:00:24.30	128.66	46.92	-22.8	-24.1	19.1	0.00e+00	0	43	102	1048576	5	4192
2026-01-05 12:00:25.30	128.41	47.21	-23.0	-24.1	18.9	0.00e+00	0	43	102	1048576	6	4064
2026-01-05 12:00:26.31	128.14	47.49	-22.8	-23.6	19.1	0.00e+00	0	44	102	1048576	6	3957
2026-01-05 12:00:27.31	127.88	47.78	-22.7	-23.3	19.3	0.00e+00	0	43	102	1048576	6	3877
2026-01-05 12:00:28.32	127.60	48.07	-22.5	-23.0	19.5	1.10e-06	0	43	102	1048576	6	3801
2026-01-05 12:00:29.33	127.33	48.36	-22.6	-23.2	19.4	0.00e+00	0	43	102	1048576	6	3857
2026-01-05 12:00:30.34	127.04	48.66	-22.8	-23.6	19.2	0.00e+00	0	44	102	1048576	6	3943
2026-01-05 12:00:31.34	126.75	48.95	-23.0	-23.9	19.0	0.00e+00	0	43	102	1048576	6	4028
2026-01-05 12:00:32.35	126.46	49.25	-23.1	-24.3	18.8	0.00e+00	0	43	102	1048576	6	4130
2026-01-05 12:00:33.36	126.16	49.54	-23.1	-24.2	18.9	0.00e+00	0	43	102	1048576	6	4086
2026-01-05 12:00:34.37	125.85	49.84	-23.0	-24.0	19.0	1.10e-06	0	43	102	1048576	6	4033
2026-01-05 12:00:35.37	125.54	50.14	-23.1	-24.3	18.8	0.00e+00	0	43	102	1048576	6	4128
2026-01-05 12:00:36.38	125.22	50.44	-23.4	-24.9	18.5	0.00e+00	0	43	102	1048576	6	4278
2026-01-05 12:00:37.39	124.89	50.74	-23.6	-24.9	18.3	2.20e-06	0	44	102	1048576	7	4157
2026-01-05 12:00:38.39	124.56	51.04	-23.5	-24.7	18.4	0.00e+00	0	44	102	1048576	7	4106
2026-01-05 12:00:39.40	124.22	51.34	-23.3	-24.1	18.7	0.00e+00	0	44	102	1048576	7	3949
2026-01-05 12:00:40.41	123.88	51.64	-23.1	-23.8	18.9	0.00e+00	0	43	102	1048576	7	3876
2026-01-05 12:00:41.41	123.53	51.94	-23.3	-24.1	18.7	0.00e+00	0	44	102	1048576	7	3954
2026-01-05 12:00:42.42	123.17	52.25	-23.4	-24.3	18.6	0.00e+00	0	43	102	1048576	7	4015
2026-01-05 12:00:43.42	122.80	52.55	-23.3	-24.2	18.7	0.00e+00	0	43	102	1048576	7	3971
2026-01-05 12:00:44.43	122.42	52.86	-23.2	-23.9	18.8	0.00e+00	0	43	102	1048576	7	3900
2026-01-05 12:00:45.44	122.04	53.17	-23.3	-24.1	18.7	0.00e+00	0	44	102	1048576	7	3966
2026-01-05 12:00:46.45	121.65	53.47	-23.4	-24.3	18.6	0.00e+00	0	43	102	1048576	7	4006
2026-01-05 12:00:47.45	121.25	53.78	-23.5	-24.6	18.5	0.00e+00	0	44	102	1048576	7	4093
2026-01-05 12:00:48.46	120.84	54.09	-23.4	-24.4	18.6	0.00e+00	0	44	102	1048576	7	4026
2026-01-05 12:00:49.47	120.42	54.39	-23.3	-24.2	18.7	0.00e+00	0	43	102	1048576	7	3975
2026-01-05 12:00:50.48	119.99	54.70	-23.4	-24.3	18.6	0.00e+00	0	44	102	1048576	7	4004
2026-01-05 12:00:51.48	119.56	55.01	-23.4	-24.4	18.6	0.00e+00	0	44	102	1048576	7	4037
2026-01-05 12:00:52.49	119.11	55.32	-23.4	-24.3	18.6	0.00e+00	0	44	102	1048576	7	4006
2026-01-05 12:00:53.50	118.66	55.63	-23.1	-23.8	18.9	0.00e+00	0	43	102	1048576	7	3900
2026-01-05 12:00:54.50	118.19	55.93	-22.9	-23.3	19.1	0.00e+00	0	44	102	1048576	7	3772
2026-01-05 12:00:55.51	117.72	56.24	-22.8	-23.7	19.2	0.00e+00	0	44	102	1048576	6	3971
2026-01-05 12:00:56.52	117.23	56.55	-22.8	-23.5	19.2	0.00e+00	0	44	102	1048576	6	3931
2026-01-05 12:00:57.52	116.73	56.86	-22.7	-23.4	19.4	0.00e+00	0	44	102	1048576	6	3890
2026-01-05 12:00:58.54	116.22	57.17	-22.6	-23.2	19.5	0.00e+00	0	44	102	1048576	6	3858
2026-01-05 12:00:59.54	115.70	57.47	-22.5	-23.1	19.5	0.00e+00	0	44	102	1048576	6	3823
2026-01-05 12:01:00.55	115.17	57.78	-22.5	-23.0	19.5	0.00e+00	0	44	102	1048576	6	3815
2026-01-05 12:01:01.56	114.62	58.09	-22.7	-23.5	19.3	0.00e+00	0	44	102	1048576	6	3909
2026-01-05 12:01:02.57	114.06	58.39	-22.9	-23.7	19.2	0.00e+00	0	44	102	1048576	6	3977
2026-01-05 12:01:03.57	113.49	58.69	-22.8	-23.6	19.2	0.00e+00	0	44	102	1048576	6	3961
2026-01-05 12:01:04.58	112.91	58.99	-23.2	-24.5	18.8	0.00e+00	0	44	102	1048576	6	4163
2026-01-05 12:01:05.59	112.31	59.29	-23.2	-24.4	18.9	0.00e+00	0	44	102	1048576	6	4139
2026-01-05 12:01:06.60	111.69	59.59	-22.9	-23.9	19.1	0.00e+00	0	44	102	1048576	6	4021
2026-01-05 12:01:07.60	111.07	59.89	-23.0	-24.0	19.1	0.00e+00	0	44	102	1048576	6	4053
2026-01-05 12:01:08.61	110.43	60.19	-22.7	-23.4	19.4	0.00e+00	0	44	102	1048576	6	3913
2026-01-05 12:01:09.62	109.77	60.48	-22.4	-22.7	19.7	0.00e+00	0	44	102	1048576	6	3737
2026-01-05 12:01:10.63	109.10	60.77	-22.4	-22.8	19.7	0.00e+00	0	44	102	1048576	6	3756
2026-01-05 12:01:11.63	108.42	61.06	-22.4	-22.7	19.8	0.00e+00	0	44	102	1048576	6	3730
2026-01-05 12:01:12.64	107.72	61.35	-22.2	-22.9	19.9	0.00e+00	0	44	102	1048576	5	3894
2026-01-05 12:01:13.64	107.00	61.63	-22.3	-23.0	19.8	0.00e+00	0	44	102	1048576	5	3903
2026-01-05 12:01:14.65	106.27	61.91	-22.4	-23.2	19.7	0.00e+00	0	43	102	1048576	5	3946
2026-01-05 12:01:15.65	105.52	62.19	-22.6	-23.6	19.5	0.00e+00	0	44	102	1048576	5	4062
2026-01-05 12:01:16.66	104.75	62.46	-22.4	-23.3	19.6	0.00e+00	0	44	102	1048576	5	3996
2026-01-05 12:01:17.67	103.96	62.74	-22.1	-22.6	20.0	0.00e+00	0	43	102	1048576	5	3832
2026-01-05 12:01:18.68	103.15	63.01	-21.7	-22.4	20.4	0.00e+00	0	43	102	1048576	4	3870
2026-01-05 12:01:19.68	102.33	63.27	-21.9	-22.7	20.2	0.00e+00	0	44	102	1048576	4	3940
2026-01-05 12:01:20.69	101.49	63.53	-22.0	-23.0	20.1	0.00e+00	0	44	102	1048576	4	4030
2026-01-05 12:01:21.69	100.63	63.78	-21.9	-22.7	20.2	0.00e+00	0	44	102	1048576	4	3953
2026-01-05 12:01:22.70	99.75	64.04	-21.9	-22.7	20.2	0.00e+00	0	44	102	1048576	4	3951
2026-01-05 12:01:23.70	98.86	64.28	-21.7	-22.4	20.4	0.00e+00	0	44	102	1048576	4	3873
2026-01-05 12:01:24.70	97.95	64.52	-21.4	-21.6	20.8	0.00e+00	0	44	102	1048576	4	3696
2026-01-05 12:01:25.71	97.01	64.76	-21.4	-21.6	20.8	0.00e+00	0	43	102	1048576	4	3708
2026-01-05 12:01:26.72	96.05	64.99	-21.3	-21.4	20.8	0.00e+00	0	44	102	1048576	4	3662
2026-01-05 12:01:27.72	95.08	65.21	-21.4	-21.7	20.7	0.00e+00	0	44	102	1048576	4	3729
2026-01-05 12:01:28.73	94.08	65.43	-21.3	-21.6	20.7	0.00e+00	0	43	102	1048576	4	3707
2026-01-05 12:01:29.74	93.06	65.65	-21.0	-21.5	21.1	0.00e+00	0	43	102	1048576	3	3773
2026-01-05 12:01:30.75	92.03	65.85	-20.9	-21.2	21.3	0.00e+00	0	44	102	1048576	3	3704
2026-01-05 12:01:31.76	90.97	66.05	-21.2	-21.9	20.9	0.00e+00	0	44	102	1048576	3	3871
2026-01-05 12:01:32.76	89.90	66.25	-21.4	-22.2	20.7	0.00e+00	0	44	102	1048576	3	3946
2026-01-05 12:01:33.77	88.81	66.43	-21.2	-21.7	21.0	0.00e+00	0	44	102	1048576	3	3834
2026-01-05 12:01:34.78	87.69	66.61	-21.5	-22.3	20.7	0.00e+00	0	44	102	1048576	3	3966
2026-01-05 12:01:35.79	86.56	66.78	-21.3	-22.0	20.9	0.00e+00	0	44	102	1048576	3	3901
2026-01-05 12:01:36.80	85.41	66.94	-20.9	-21.2	21.2	2.20e-06	0	43	102	1048576	3	3727
2026-01-05 12:01:37.81	84.24	67.10	-20.7	-21.2	21.5	0.00e+00	0	44	102	1048576	2	3810
2026-01-05 12:01:38.81	83.06	67.24	-20.8	-21.5	21.3	0.00e+00	0	44	102	1048576	2	3882
2026-01-05 12:01:39.82	81.86	67.38	-21.0	-21.9	21.1	1.10e-06	0	44	102	1048576	2	3982
2026-01-05 12:01:40.83	80.65	67.50	-21.1	-22.1	21.0	0.00e+00	0	43	102	1048576	2	4030
2026-01-05 12:01:41.83	79.43	67.62	-21.0	-21.8	21.2	0.00e+00	0	44	102	1048576	2	3958
2026-01-05 12:01:42.84	78.18	67.73	-21.1	-22.1	21.1	0.00e+00	0	44	102	1048576	2	4021
2026-01-05 12:01:43.85	76.93	67.83	-21.0	-21.9	21.2	0.00e+00	0	44	102	1048576	2	3976
2026-01-05 12:01:44.86	75.66	67.92	-21.2	-22.2	21.0	0.00e+00	0	43	102	1048576	2	4060
2026-01-05 12:01:45.86	74.39	67.99	-21.4	-22.6	21.0	6.80e-06	0	44	102	1048576	2	4134
2026-01-05 12:01:46.87	73.10	68.06	-21.2	-22.3	21.1	0.00e+00	0	44	102	1048576	2	4062
2026-01-05 12:01:47.88	71.80	68.12	-21.2	-22.3	21.2	0.00e+00	0	44	102	1048576	2	4059
2026-01-05 12:01:48.89	70.50	68.17	-21.0	-21.8	21.4	1.10e-06	0	44	102	1048576	2	3938
2026-01-05 12:01:49.90	69.19	68.21	-21.1	-21.9	21.3	0.00e+00	0	44	102	1048576	2	3976
2026-01-05 12:01:50.90	67.89	68.24	-21.2	-22.2	21.2	0.00e+00	0	43	102	1048576	2	4036
2026-01-05 12:01:51.90	66.59	68.25	-21.4	-22.6	21.0	0.00e+00	0	44	102	1048576	2	4138
2026-01-05 12:01:52.91	65.27	68.26	-21.6	-22.6	20.7	0.00e+00	0	43	102	1048576	3	4033
2026-01-05 12:01:53.92	63.95	68.25	-21.6	-22.5	20.8	0.00e+00	0	44	102	1048576	3	4002
2026-01-05 12:01:54.93	62.63	68.24	-21.7	-22.8	20.6	0.00e+00	0	44	102	1048576	3	4080
2026-01-05 12:01:55.94	61.32	68.21	-21.7	-22.7	20.7	0.00e+00	0	43	102	1048576	3	4065
2026-01-05 12:01:56.95	60.01	68.18	-21.6	-22.5	20.8	0.00e+00	0	44	102	1048576	3	3996
2026-01-05 12:01:57.95	58.72	68.13	-21.8	-23.0	20.6	0.00e+00	0	44	102	1048576	3	4123
2026-01-05 12:01:58.96	57.42	68.07	-21.8	-22.9	20.6	0.00e+00	0	43	102	1048576	3	4089
2026-01-05 12:01:59.97	56.13	68.01	-21.4	-22.0	21.0	0.00e+00	0	44	102	1048576	3	3895
2026-01-05 12:02:00.98	54.85	67.93	-21.1	-21.4	21.3	0.00e+00	0	43	102	1048576	3	3754
2026-01-05 12:02:01.98	53.59	67.84	-21.0	-21.3	21.4	0.00e+00	0	43	102	1048576	3	3730
2026-01-05 12:02:02.99	52.33	67.74	-21.1	-21.4	21.3	0.00e+00	0	43	102	1048576	3	3757
2026-01-05 12:02:03.99	51.10	67.64	-21.2	-21.7	21.2	0.00e+00	0	43	102	1048576	3	3828
2026-01-05 12:02:05.00	49.87	67.52	-21.3	-21.9	21.1	0.00e+00	0	44	102	1048576	3	3865
2026-01-05 12:02:06.01	48.65	67.40	-21.3	-22.0	21.0	0.00e+00	0	44	102	1048576	3	3890
2026-01-05 12:02:07.01	47.46	67.26	-21.6	-22.5	20.8	0.00e+00	0	43	102	1048576	3	4013
2026-01-05 12:02:08.02	46.27	67.12	-21.2	-21.8	21.1	0.00e+00	0	43	102	1048576	3	3838
2026-01-05 12:02:09.02	45.11	66.97	-21.4	-22.1	21.0	0.00e+00	0	44	102	1048576	3	3904
2026-01-05 12:02:10.03	43.96	66.81	-21.6	-22.6	20.8	0.00e+00	0	44	102	1048576	3	4030
2026-01-05 12:02:11.04	42.82	66.64	-21.4	-22.2	21.0	0.00e+00	0	44	102	1048576	3	3927
2026-01-05 12:02:12.05	41.71	66.46	-21.5	-22.3	20.9	0.00e+00	0	44	102	1048576	3	3952
2026-01-05 12:02:13.05	40.62	66.28	-21.9	-23.2	20.5	0.00e+00	0	44	102	1048576	3	4169
2026-01-05 12:02:14.06	39.54	66.09	-21.6	-22.6	20.8	0.00e+00	0	44	102	1048576	3	4027
2026-01-05 12:02:15.06	38.49	65.89	-21.8	-22.9	20.6	0.00e+00	0	44	102	1048576	3	4091
2026-01-05 12:02:16.07	37.45	65.68	-22.3	-23.5	20.0	0.00e+00	0	44	102	1048576	4	4119
2026-01-05 12:02:17.07	36.44	65.47	-21.8	-22.5	20.5	0.00e+00	0	44	102	1048576	4	3891
2026-01-05 12:02:18.08	35.44	65.26	-21.8	-22.5	20.5	0.00e+00	0	43	102	1048576	4	3889
2026-01-05 12:02:19.09	34.46	65.03	-21.6	-22.1	20.7	0.00e+00	0	44	102	1048576	4	3796
2026-01-05 12:02:20.10	33.49	64.80	-21.5	-21.7	20.9	0.00e+00	0	44	102	1048576	4	3719
2026-01-05 12:02:21.10	32.56	64.57	-21.7	-22.3	20.6	0.00e+00	0	43	102	1048576	4	3844
2026-01-05 12:02:22.11	31.64	64.33	-21.7	-22.3	20.6	0.00e+00	0	44	102	1048576	4	3857
2026-01-05 12:02:23.12	30.73	64.08	-21.6	-22.1	20.7	0.00e+00	0	43	102	1048576	4	3809
2026-01-05 12:02:24.12	29.86	63.83	-21.7	-22.2	20.7	0.00e+00	0	44	102	1048576	4	3824
2026-01-05 12:02:25.12	29.00	63.58	-21.8	-22.6	20.5	0.00e+00	0	44	102	1048576	4	3911
2026-01-05 12:02:26.13	28.16	63.32	-21.7	-22.2	20.6	0.00e+00	0	44	102	1048576	4	3824
2026-01-05 12:02:27.13	27.34	63.06	-21.6	-22.1	20.7	0.00e+00	0	44	102	1048576	4	3795
2026-01-05 12:02:28.14	26.53	62.79	-21.8	-22.5	20.5	0.00e+00	0	44	102	1048576	4	3892
2026-01-05 12:02:29.15	25.74	62.52	-21.8	-22.5	20.5	0.00e+00	0	43	102	1048576	4	3888
2026-01-05 12:02:30.16	24.96	62.24	-22.1	-23.1	20.2	0.00e+00	0	44	102	1048576	4	4043
2026-01-05 12:02:31.17	24.21	61.97	-22.3	-23.4	20.1	0.00e+00	0	44	102	1048576	4	4112
2026-01-05 12:02:32.18	23.47	61.69	-22.3	-23.4	20.1	0.00e+00	0	44	102	1048576	4	4111
2026-01-05 12:02:33.18	22.75	61.40	-22.5	-23.5	19.8	0.00e+00	0	44	102	1048576	5	4026
2026-01-05 12:02:34.19	22.05	61.12	-22.5	-23.4	19.8	0.00e+00	0	44	102	1048576	5	4007
2026-01-05 12:02:35.20	21.36	60.83	-22.3	-23.0	20.0	0.00e+00	0	44	102	1048576	5	3905
2026-01-05 12:02:36.20	20.69	60.54	-22.4	-23.2	19.9	0.00e+00	0	44	102	1048576	5	3943
2026-01-05 12:02:37.21	20.03	60.25	-22.4	-23.2	19.9	0.00e+00	0	44	102	1048576	5	3944
2026-01-05 12:02:38.21	19.39	59.95	-22.5	-23.4	19.8	0.00e+00	0	44	102	1048576	5	3999
2026-01-05 12:02:39.22	18.76	59.66	-22.6	-23.6	19.7	0.00e+00	0	44	102	1048576	5	4048
2026-01-05 12:02:40.23	18.15	59.36	-22.4	-23.2	19.9	0.00e+00	0	44	102	1048576	5	3957
2026-01-05 12:02:41.24	17.55	59.06	-22.5	-23.3	19.8	0.00e+00	0	44	102	1048576	5	3977
2026-01-05 12:02:42.24	16.97	58.76	-22.7	-23.8	19.6	0.00e+00	0	44	102	1048576	5	4102
2026-01-05 12:02:43.25	16.39	58.46	-22.4	-23.1	20.0	0.00e+00	0	44	102	1048576	5	3918
2026-01-05 12:02:44.26	15.83	58.15	-22.4	-23.1	19.9	0.00e+00	0	44	102	1048576	5	3926
2026-01-05 12:02:45.26	15.29	57.85	-22.8	-24.0	19.5	0.00e+00	0	44	102	1048576	5	4132
2026-01-05 12:02:46.27	14.75	57.54	-23.0	-24.0	19.2	0.00e+00	0	44	102	1048576	6	4044
2026-01-05 12:02:47.28	14.23	57.24	-23.1	-24.3	19.1	0.00e+00	0	44	102	1048576	6	4092
2026-01-05 12:02:48.29	13.72	56.93	-23.3	-24.5	19.0	0.00e+00	0	44	102	1048576	6	4144
2026-01-05 12:02:49.30	13.22	56.62	-23.2	-24.3	19.1	0.00e+00	0	43	102	1048576	6	4108
2026-01-05 12:02:50.30	12.73	56.32	-23.4	-24.8	18.9	0.00e+00	0	44	102	1048576	6	4228
2026-01-05 12:02:51.31	12.25	56.01	-23.3	-24.6	18.9	0.00e+00	0	44	102	1048576	6	4185
2026-01-05 12:02:52.32	11.79	55.70	-23.3	-24.6	19.0	0.00e+00	0	44	102	1048576	6	4172
2026-01-05 12:02:53.32	11.33	55.40	-23.3	-24.6	19.0	0.00e+00	0	43	102	1048576	6	4168
2026-01-05 12:02:54.34	10.88	55.09	-23.1	-24.1	19.1	0.00e+00	0	44	102	1048576	6	4055
2026-01-05 12:02:55.34	10.45	54.78	-23.3	-24.6	18.9	0.00e+00	0	44	102	1048576	6	4169
2026-01-05 12:02:56.35	10.02	54.47	-23.5	-24.6	18.7	0.00e+00	0	44	102	1048576	7	4072
2026-01-05 12:02:57.35	9.60	54.17	-23.6	-24.7	18.6	0.00e+00	0	44	102	1048576	7	4087
2026-01-05 12:02:58.35	9.20	53.86	-22.9	-23.2	19.4	0.00e+00	0	44	102	1048576	7	3738
2026-01-05 12:02:59.36	8.79	53.56	-22.5	-22.9	19.8	0.00e+00	0	44	102	1048576	6	3770
2026-01-05 12:03:00.36	8.40	53.25	-22.5	-22.8	19.8	0.00e+00	0	44	102	1048576	6	3750
2026-01-05 12:03:01.36	8.02	52.95	-22.6	-23.1	19.7	0.00e+00	0	44	102	1048576	6	3812
2026-01-05 12:03:02.37	7.64	52.64	-22.7	-23.3	19.6	0.00e+00	0	43	102	1048576	6	3851
2026-01-05 12:03:03.37	7.28	52.34	-22.8	-23.6	19.4	0.00e+00	0	43	102	1048576	6	3935
2026-01-05 12:03:04.38	6.92	52.04	-23.0	-23.9	19.3	0.00e+00	0	44	102	1048576	6	4012
2026-01-05 12:03:05.39	6.56	51.73	-23.0	-23.9	19.2	0.00e+00	0	44	102	1048576	6	4018
2026-01-05 12:03:06.39	6.22	51.43	-22.8	-23.4	19.5	0.00e+00	0	44	102	1048576	6	3893
2026-01-05 12:03:07.39	5.88	51.13	-22.9	-23.8	19.3	0.00e+00	0	44	102	1048576	6	3980
2026-01-05 12:03:08.40	5.55	50.83	-23.2	-24.4	19.0	0.00e+00	0	44	102	1048576	6	4142
2026-01-05 12:03:09.41	5.22	50.53	-23.2	-24.5	19.0	0.00e+00	0	44	102	1048576	6	4157
2026-01-05 12:03:10.41	4.90	50.24	-23.0	-23.9	19.3	0.00e+00	0	44	102	1048576	6	4008
2026-01-05 12:03:11.42	4.59	49.94	-22.7	-23.4	19.5	0.00e+00	0	44	102	1048576	6	3876
2026-01-05 12:03:12.43	4.28	49.64	-22.8	-23.6	19.4	0.00e+00	0	44	102	1048576	6	3933
2026-01-05 12:03:13.43	3.98	49.35	-22.9	-23.8	19.3	0.00e+00	0	44	102	1048576	6	3982
2026-01-05 12:03:14.44	3.69	49.05	-22.6	-23.1	19.7	0.00e+00	0	44	102	1048576	6	3806
2026-01-05 12:03:15.45	3.39	48.76	-22.3	-22.6	19.9	0.00e+00	0	44	102	1048576	6	3702
2026-01-05 12:03:16.45	3.11	48.47	-22.2	-22.8	20.0	0.00e+00	0	44	102	1048576	5	3862
2026-01-05 12:03:17.46	2.83	48.18	-22.3	-22.9	19.9	0.00e+00	0	44	102	1048576	5	3891
2026-01-05 12:03:18.47	2.56	47.89	-22.5	-23.4	19.7	0.00e+00	0	43	102	1048576	5	4004
2026-01-05 12:03:19.48	2.29	47.60	-22.6	-23.6	19.6	0.00e+00	0	44	102	1048576	5	4053
2026-01-05 12:03:20.49	2.02	47.31	-22.4	-23.3	19.8	0.00e+00	0	43	102	1048576	5	3970
2026-01-05 12:03:21.49	1.77	47.03	-22.4	-23.1	19.8	0.00e+00	0	44	102	1048576	5	3933
2026-01-05 12:03:22.50	1.51	46.74	-22.4	-23.2	19.8	0.00e+00	0	43	102	1048576	5	3958
2026-01-05 12:03:23.50	1.27	46.46	-22.4	-23.3	19.8	0.00e+00	0	44	102	1048576	5	3977
2026-01-05 12:03:24.51	1.02	46.18	-22.5	-23.4	19.7	0.00e+00	0	44	102	1048576	5	4004
2026-01-05 12:03:25.52	0.78	45.90	-22.3	-23.0	19.9	0.00e+00	0	43	102	1048576	5	3902
2026-01-05 12:03:26.52	0.54	45.62	-22.0	-22.3	20.3	0.00e+00	0	44	102	1048576	5	3734
2026-01-05 12:03:27.53	0.31	45.34	-21.8	-21.9	20.4	0.00e+00	0	43	102	1048576	5	3660
2026-01-05 12:03:28.54	0.08	45.07	-21.9	-22.3	20.2	0.00e+00	0	43	102	1048576	5	3729
2026-01-05 12:03:29.54	359.86	44.79	-22.1	-22.6	20.1	0.00e+00	0	44	102	1048576	5	3801
2026-01-05 12:03:30.55	359.64	44.52	-22.3	-22.9	19.9	0.00e+00	0	44	102	1048576	5	3896
2026-01-05 12:03:31.56	359.42	44.25	-22.5	-23.4	19.7	0.00e+00	0	44	102	1048576	5	3997
2026-01-05 12:03:32.57	359.21	43.97	-22.4	-23.2	19.7	0.00e+00	0	44	102	1048576	5	3962
2026-01-05 12:03:33.57	359.00	43.71	-22.4	-23.1	19.8	0.00e+00	0	44	102	1048576	5	3934
2026-01-05 12:03:34.58	358.80	43.44	-22.4	-23.3	19.8	0.00e+00	0	43	102	1048576	5	3966
2026-01-05 12:03:35.59	358.60	43.17	-22.4	-23.1	19.8	0.00e+00	0	44	102	1048576	5	3934
2026-01-05 12:03:36.60	358.40	42.91	-22.2	-22.8	20.0	0.00e+00	0	44	102	1048576	5	3852
2026-01-05 12:03:37.60	358.20	42.64	-22.2	-22.8	19.9	0.00e+00	0	44	102	1048576	5	3862
2026-01-05 12:03:38.61	358.01	42.38	-22.3	-23.1	19.8	0.00e+00	0	44	102	1048576	5	3928
2026-01-05 12:03:39.61	357.82	42.12	-22.4	-23.2	19.8	0.00e+00	0	44	102	1048576	5	3951
2026-01-05 12:03:40.62	357.64	41.86	-22.3	-23.0	19.9	0.00e+00	0	43	102	1048576	5	3916
2026-01-05 12:03:41.63	357.45	41.61	-22.3	-23.1	19.8	0.00e+00	0	44	102	1048576	5	3925
2026-01-05 12:03:42.63	357.27	41.35	-22.2	-22.8	19.9	0.00e+00	0	44	102	1048576	5	3869
2026-01-05 12:03:43.63	357.10	41.10	-22.1	-22.6	20.1	0.00e+00	0	44	102	1048576	5	3798
2026-01-05 12:03:44.65	356.92	40.84	-22.1	-22.5	20.1	0.00e+00	0	44	102	1048576	5	3796
2026-01-05 12:03:45.65	356.75	40.59	-22.0	-22.3	20.2	0.00e+00	0	44	102	1048576	5	3743
2026-01-05 12:03:46.66	356.58	40.34	-22.0	-22.5	20.1	0.00e+00	0	44	102	1048576	5	3781
2026-01-05 12:03:47.67	356.42	40.09	-21.9	-22.2	20.2	0.00e+00	0	44	102	1048576	5	3720
2026-01-05 12:03:48.67	356.25	39.85	-21.7	-22.2	20.5	0.00e+00	0	44	102	1048576	4	3828
2026-01-05 12:03:49.68	356.09	39.60	-21.7	-22.2	20.5	0.00e+00	0	44	102	1048576	4	3828
2026-01-05 12:03:50.69	355.93	39.36	-21.9	-22.7	20.2	0.00e+00	0	44	102	1048576	4	3940
2026-01-05 12:03:51.69	355.78	39.12	-21.8	-22.6	20.3	0.00e+00	0	44	102	1048576	4	3908
2026-01-05 12:03:52.70	355.62	38.87	-21.9	-22.6	20.3	0.00e+00	0	44	102	1048576	4	3926
2026-01-05 12:03:53.71	355.47	38.63	-22.0	-22.8	20.2	0.00e+00	0	44	102	1048576	4	3974
2026-01-05 12:03:54.71	355.32	38.40	-22.0	-22.8	20.2	0.00e+00	0	44	102	1048576	4	3981
2026-01-05 12:03:55.72	355.18	38.16	-21.9	-22.7	20.2	0.00e+00	0	44	102	1048576	4	3955
2026-01-05 12:03:56.73	355.03	37.92	-21.9	-22.7	20.2	0.00e+00	0	44	102	1048576	4	3947
2026-01-05 12:03:57.73	354.89	37.69	-21.8	-22.4	20.3	0.00e+00	0	44	102	1048576	4	3879
2026-01-05 12:03:58.74	354.75	37.46	-21.7	-22.3	20.4	0.00e+00	0	44	102	1048576	4	3848
2026-01-05 12:03:59.75	354.61	37.23	-21.8	-22.6	20.3	0.00e+00	0	44	102	1048576	4	3912
2026-01-05 12:04:00.75	354.47	37.00	-21.9	-22.6	20.3	0.00e+00	0	44	102	1048576	4	3918
2026-01-05 12:04:01.76	354.34	36.77	-22.1	-23.0	20.0	0.00e+00	0	44	102	1048576	4	4025
2026-01-05 12:04:02.77	354.21	36.54	-22.0	-22.9	20.1	0.00e+00	0	43	102	1048576	4	3998
2026-01-05 12:04:03.77	354.08	36.32	-22.0	-22.8	20.2	0.00e+00	0	44	102	1048576	4	3972
2026-01-05 12:04:04.78	353.95	36.09	-22.0	-22.9	20.1	0.00e+00	0	44	102	1048576	4	4002
2026-01-05 12:04:05.78	353.82	35.87	-22.1	-23.0	20.0	0.00e+00	0	44	102	1048576	4	4025
2026-01-05 12:04:06.80	353.69	35.65	-22.1	-23.1	20.0	0.00e+00	0	43	102	1048576	4	4041
2026-01-05 12:04:07.80	353.57	35.43	-22.3	-23.4	19.8	0.00e+00	0	44	102	1048576	4	4122
2026-01-05 12:04:08.81	353.45	35.21	-22.2	-23.3	19.9	0.00e+00	0	43	102	1048576	4	4086
2026-01-05 12:04:09.81	353.33	35.00	-22.2	-23.3	19.9	0.00e+00	0	43	102	1048576	4	4096
2026-01-05 12:04:10.81	353.21	34.78	-22.3	-23.5	19.8	0.00e+00	0	44	102	1048576	4	4124
2026-01-05 12:04:11.82	353.09	34.57	-22.3	-23.6	19.8	0.00e+00	0	43	102	1048576	4	4153
2026-01-05 12:04:12.83	352.98	34.35	-22.4	-23.7	19.7	0.00e+00	0	44	102	1048576	4	4177
2026-01-05 12:04:13.84	352.86	34.14	-22.3	-23.6	19.7	0.00e+00	0	43	102	1048576	4	4160
2026-01-05 12:04:14.85	352.75	33.93	-22.4	-23.8	19.7	0.00e+00	0	44	102	1048576	4	4202
2026-01-05 12:04:15.85	352.64	33.72	-22.4	-23.7	19.7	0.00e+00	0	44	102	1048576	4	4186
2026-01-05 12:04:16.86	352.53	33.51	-22.4	-23.8	19.7	0.00e+00	0	44	102	1048576	4	4202
2026-01-05 12:04:17.87	352.42	33.30	-22.6	-23.6	19.5	0.00e+00	0	44	102	1048576	5	4039
2026-01-05 12:04:18.88	352.32	33.10	-22.8	-24.1	19.2	0.00e+00	0	44	102	1048576	5	4170
2026-01-05 12:04:19.89	352.21	32.89	-22.6	-23.6	19.5	0.00e+00	0	43	102	1048576	5	4047
2026-01-05 12:04:20.90	352.11	32.69	-22.7	-23.8	19.4	0.00e+00	0	44	102	1048576	5	4096
2026-01-05 12:04:21.91	352.00	32.49	-22.5	-23.5	19.5	0.00e+00	0	44	102	1048576	5	4014
2026-01-05 12:04:22.91	351.90	32.29	-22.4	-23.2	19.7	0.00e+00	0	44	102	1048576	5	3962
2026-01-05 12:04:23.91	351.80	32.09	-22.5	-23.4	19.6	0.00e+00	0	44	102	1048576	5	4006
2026-01-05 12:04:24.92	351.70	31.89	-22.4	-23.3	19.6	0.00e+00	0	44	102	1048576	5	3978
2026-01-05 12:04:25.93	351.61	31.70	-22.5	-23.5	19.6	0.00e+00	0	44	102	1048576	5	4019
2026-01-05 12:04:26.94	351.51	31.50	-22.5	-23.4	19.6	0.00e+00	0	44	102	1048576	5	3991
2026-01-05 12:04:27.94	351.42	31.31	-22.7	-23.8	19.4	0.00e+00	0	44	102	1048576	5	4090
2026-01-05 12:04:28.95	351.32	31.11	-22.5	-23.4	19.6	0.00e+00	0	44	102	1048576	5	4012
2026-01-05 12:04:29.96	351.23	30.92	-22.3	-23.1	19.7	0.00e+00	0	44	102	1048576	5	3932
2026-01-05 12:04:30.97	351.14	30.73	-22.3	-23.0	19.8	0.00e+00	0	43	102	1048576	5	3909
2026-01-05 12:04:31.97	351.05	30.54	-22.3	-23.1	19.7	0.00e+00	0	44	102	1048576	5	3933
2026-01-05 12:04:32.98	350.96	30.35	-22.2	-22.9	19.8	0.00e+00	0	44	102	1048576	5	3878
2026-01-05 12:04:33.99	350.87	30.16	-22.3	-23.0	19.8	0.00e+00	0	44	102	1048576	5	3904
2026-01-05 12:04:35.00	350.78	29.98	-22.2	-22.8	19.9	0.00e+00	0	44	102	1048576	5	3853
2026-01-05 12:04:36.00	350.69	29.79	-22.3	-22.9	19.8	0.00e+00	0	44	102	1048576	5	3890
2026-01-05 12:04:37.01	350.61	29.61	-22.2	-22.9	19.8	0.00e+00	0	44	102	1048576	5	3877
2026-01-05 12:04:38.01	350.53	29.43	-22.4	-23.1	19.7	0.00e+00	0	44	102	1048576	5	3937
2026-01-05 12:04:39.02	350.44	29.25	-22.3	-23.1	19.7	0.00e+00	0	44	102	1048576	5	3926
2026-01-05 12:04:40.03	350.36	29.06	-22.4	-23.2	19.7	0.00e+00	0	44	102	1048576	5	3946
2026-01-05 12:04:41.03	350.28	28.89	-22.4	-23.2	19.7	0.00e+00	0	44	102	1048576	5	3948
2026-01-05 12:04:42.04	350.20	28.71	-22.5	-23.4	19.5	0.00e+00	0	44	102	1048576	5	4000
2026-01-05 12:04:43.04	350.12	28.53	-22.4	-23.2	19.7	0.00e+00	0	44	102	1048576	5	3950
2026-01-05 12:04:44.05	350.04	28.35	-22.4	-23.2	19.7	0.00e+00	0	43	102	1048576	5	3947
2026-01-05 12:04:45.05	349.96	28.18	-22.4	-23.3	19.6	0.00e+00	0	44	102	1048576	5	3983
2026-01-05 12:04:46.07	349.89	28.00	-22.3	-23.0	19.7	0.00e+00	0	44	102	1048576	5	3918
2026-01-05 12:04:47.07	349.81	27.83	-22.3	-23.0	19.7	0.00e+00	0	44	102	1048576	5	3914
2026-01-05 12:04:48.08	349.74	27.66	-22.3	-22.9	19.8	0.00e+00	0	43	102	1048576	5	3885
2026-01-05 12:04:49.09	349.66	27.49	-22.3	-23.0	19.7	0.00e+00	0	44	102	1048576	5	3915
2026-01-05 12:04:50.09	349.59	27.32	-22.2	-22.9	19.8	0.00e+00	0	44	102	1048576	5	3881
2026-01-05 12:04:51.10	349.52	27.15	-22.3	-23.0	19.7	0.00e+00	0	44	102	1048576	5	3907
2026-01-05 12:04:52.11	349.44	26.98	-22.3	-23.0	19.7	0.00e+00	0	44	102	1048576	5	3897
2026-01-05 12:04:53.12	349.37	26.81	-22.4	-23.3	19.5	0.00e+00	0	44	102	1048576	5	3966
2026-01-05 12:04:54.12	349.30	26.65	-22.6	-23.6	19.4	0.00e+00	0	44	102	1048576	5	4043
2026-01-05 12:04:55.13	349.23	26.48	-22.5	-23.5	19.4	0.00e+00	0	44	102	1048576	5	4023
2026-01-05 12:04:56.14	349.16	26.32	-22.6	-23.6	19.3	0.00e+00	0	44	102	1048576	5	4051
2026-01-05 12:04:57.15	349.10	26.15	-22.6	-23.7	19.3	0.00e+00	0	44	102	1048576	5	4070
2026-01-05 12:04:58.16	349.03	25.99	-22.7	-23.8	19.2	0.00e+00	0	44	102	1048576	5	4111
2026-01-05 12:04:59.16	348.96	25.83	-22.7	-23.9	19.2	0.00e+00	0	44	102	1048576	5	4120
2026-01-05 12:05:00.16	348.90	25.67	-22.7	-23.8	19.3	0.00e+00	0	44	102	1048576	5	4098
2026-01-05 12:05:01.17	348.83	25.51	-22.7	-23.8	19.2	0.00e+00	0	43	102	1048576	5	4109
2026-01-05 12:05:02.18	348.77	25.35	-22.7	-23.9	19.2	0.00e+00	0	44	102	1048576	5	4117
2026-01-05 12:05:03.19	348.70	25.20	-22.7	-24.0	19.2	0.00e+00	0	43	102	1048576	5	4144
2026-01-05 12:05:04.19	348.64	25.04	-22.7	-23.9	19.2	0.00e+00	0	44	102	1048576	5	4132
2026-01-05 12:05:05.19	348.58	24.88	-22.8	-24.1	19.1	0.00e+00	0	44	102	1048576	5	4176
2026-01-05 12:05:06.20	348.52	24.73	-22.9	-24.2	19.0	0.00e+00	0	44	102	1048576	5	4206
2026-01-05 12:05:07.22	348.46	24.57	-22.9	-24.3	19.0	0.00e+00	0	44	102	1048576	5	4220
2026-01-05 12:05:08.22	348.40	24.42	-22.9	-24.3	18.9	0.00e+00	0	43	102	1048576	5	4240
2026-01-05 12:05:09.24	348.33	24.27	-22.9	-24.3	19.0	0.00e+00	0	44	102	1048576	5	4215
2026-01-05 12:05:10.25	348.28	24.11	-22.9	-24.3	18.9	0.00e+00	0	44	102	1048576	5	4224
2026-01-05 12:05:11.25	348.22	23.96	-23.0	-24.4	18.9	0.00e+00	0	44	102	1048576	5	4266
2026-01-05 12:05:12.26	348.16	23.81	-23.3	-24.6	18.6	0.00e+00	0	44	102	1048576	6	4179
2026-01-05 12:05:13.26	348.10	23.67	-23.5	-24.5	18.4	0.00e+00	0	44	102	1048576	7	4046
2026-01-05 12:05:14.27	348.05	23.52	-23.1	-23.8	18.7	0.00e+00	0	43	102	1048576	7	3889
2026-01-05 12:05:15.28	347.99	23.37	-23.0	-23.5	18.9	0.00e+00	0	44	102	1048576	7	3806
2026-01-05 12:05:16.28	347.93	23.22	-22.9	-23.3	19.0	0.00e+00	0	44	102	1048576	7	3762
2026-01-05 12:05:17.29	347.88	23.08	-22.9	-23.4	18.9	0.00e+00	0	44	102	1048576	7	3781
2026-01-05 12:05:18.30	347.82	22.93	-23.0	-23.4	18.9	0.00e+00	0	44	102	1048576	7	3801
2026-01-05 12:05:19.31	347.77	22.79	-23.0	-23.4	18.9	0.00e+00	0	44	102	1048576	7	3796
2026-01-05 12:05:20.31	347.72	22.65	-23.0	-23.4	18.9	0.00e+00	0	44	102	1048576	7	3785
2026-01-05 12:05:21.32	347.66	22.50	-23.0	-23.6	18.8	0.00e+00	0	44	102	1048576	7	3833
2026-01-05 12:05:22.33	347.61	22.36	-23.0	-23.6	18.8	0.00e+00	0	44	102	1048576	7	3829
2026-01-05 12:05:23.33	347.56	22.22	-23.2	-23.8	18.7	0.00e+00	0	44	102	1048576	7	3888
2026-01-05 12:05:24.33	347.51	22.08	-23.2	-23.8	18.7	0.00e+00	0	44	102	1048576	7	3893
2026-01-05 12:05:25.33	347.46	21.94	-23.3	-24.1	18.5	0.00e+00	0	44	102	1048576	7	3947
2026-01-05 12:05:26.34	347.41	21.80	-23.3	-24.1	18.5	0.00e+00	0	43	102	1048576	7	3946
2026-01-05 12:05:27.35	347.36	21.66	-23.3	-24.2	18.5	0.00e+00	0	44	102	1048576	7	3976
2026-01-05 12:05:28.35	347.31	21.53	-23.3	-24.1	18.5	0.00e+00	0	44	102	1048576	7	3954
2026-01-05 12:05:29.35	347.26	21.39	-23.3	-24.1	18.5	0.00e+00	0	44	102	1048576	7	3961
2026-01-05 12:05:30.36	347.21	21.25	-23.4	-24.3	18.4	0.00e+00	0	44	102	1048576	7	4006
2026-01-05 12:05:31.37	347.16	21.12	-23.5	-24.5	18.3	0.00e+00	0	44	102	1048576	7	4064
2026-01-05 12:05:32.38	347.11	20.98	-23.5	-24.6	18.2	0.00e+00	0	44	102	1048576	7	4079
2026-01-05 12:05:33.39	347.07	20.85	-23.4	-24.4	18.4	0.00e+00	0	44	102	1048576	7	4017
2026-01-05 12:05:34.40	347.02	20.72	-23.5	-24.5	18.3	0.00e+00	0	44	102	1048576	7	4046
2026-01-05 12:05:35.40	346.97	20.58	-23.5	-24.5	18.2	0.00e+00	0	44	102	1048576	7	4052
2026-01-05 12:05:36.41	346.93	20.45	-23.5	-24.5	18.2	0.00e+00	0	44	102	1048576	7	4058
2026-01-05 12:05:37.42	346.88	20.32	-23.5	-24.6	18.2	0.00e+00	0	43	102	1048576	7	4067
2026-01-05 12:05:38.43	346.84	20.19	-23.4	-24.4	18.3	0.00e+00	0	44	102	1048576	7	4021
2026-01-05 12:05:39.44	346.79	20.06	-23.4	-24.4	18.3	0.00e+00	0	44	102	1048576	7	4025
2026-01-05 12:05:40.44	346.75	19.93	-23.5	-24.6	18.2	0.00e+00	0	44	102	1048576	7	4081
2026-01-05 12:05:41.45	346.70	19.80	-23.6	-24.7	18.1	0.00e+00	0	44	102	1048576	7	4094
2026-01-05 12:05:42.45	346.66	19.67	-23.5	-24.6	18.2	0.00e+00	0	44	102	1048576	7	4074
2026-01-05 12:05:43.45	346.62	19.55	-23.5	-24.6	18.2	0.00e+00	0	44	102	1048576	7	4072
2026-01-05 12:05:44.46	346.57	19.42	-23.5	-24.6	18.2	0.00e+00	0	44	102	1048576	7	4086
2026-01-05 12:05:45.46	346.53	19.30	-23.5	-24.6	18.2	0.00e+00	0	44	102	1048576	7	4063
2026-01-05 12:05:46.46	346.49	19.17	-23.6	-24.7	18.1	0.00e+00	0	44	102	1048576	7	4101
2026-01-05 12:05:47.47	346.45	19.05	-23.6	-24.8	18.1	0.00e+00	0	44	102	1048576	7	4112
2026-01-05 12:05:48.48	346.41	18.92	-23.6	-24.7	18.1	0.00e+00	0	44	102	1048576	7	4105
2026-01-05 12:05:49.49	346.37	18.80	-23.6	-24.8	18.1	0.00e+00	0	44	102	1048576	7	4117
2026-01-05 12:05:50.50	346.33	18.67	-23.7	-25.1	17.9	0.00e+00	0	44	102	1048576	7	4193
2026-01-05 12:05:51.51	346.29	18.55	-23.8	-25.2	17.8	0.00e+00	0	44	102	1048576	7	4239
2026-01-05 12:05:52.52	346.25	18.43	-23.9	-25.3	17.7	0.00e+00	0	44	102	1048576	7	4269
2026-01-05 12:05:53.52	346.21	18.31	-23.9	-25.4	17.7	0.00e+00	0	44	102	1048576	7	4278
2026-01-05 12:05:54.53	346.17	18.19	-23.9	-25.5	17.7	0.00e+00	0	44	102	1048576	7	4304
2026-01-05 12:05:55.54	346.13	18.07	-24.0	-25.6	17.6	0.00e+00	0	44	102	1048576	7	4348
2026-01-05 12:05:56.55	346.09	17.95	-24.2	-25.6	17.4	0.00e+00	0	44	102	1048576	8	4223
2026-01-05 12:05:57.55	346.05	17.83	-24.2	-25.6	17.4	0.00e+00	0	44	102	1048576	8	4208
2026-01-05 12:05:58.56	346.02	17.71	-24.2	-25.6	17.4	0.00e+00	0	44	102	1048576	8	4215
2026-01-05 12:05:59.57	345.98	17.59	-24.2	-25.6	17.4	0.00e+00	0	44	102	1048576	8	4216
2026-01-05 12:06:00.57	345.94	17.48	-24.1	-25.4	17.4	0.00e+00	0	44	102	1048576	8	4175
2026-01-05 12:06:01.58	345.90	17.36	-24.1	-25.3	17.5	0.00e+00	0	43	102	1048576	8	4150
2026-01-05 12:06:02.59	345.87	17.24	-24.1	-25.4	17.5	0.00e+00	0	44	102	1048576	8	4171
2026-01-05 12:06:03.60	345.83	17.13	-24.2	-25.5	17.4	0.00e+00	0	44	102	1048576	8	4201
2026-01-05 12:06:04.61	345.80	17.01	-24.2	-25.6	17.4	0.00e+00	0	43	102	1048576	8	4219
2026-01-05 12:06:05.62	345.76	16.90	-24.2	-25.7	17.3	0.00e+00	0	44	102	1048576	8	4238
2026-01-05 12:06:06.63	345.72	16.78	-24.2	-25.6	17.3	0.00e+00	0	44	102	1048576	8	4225
2026-01-05 12:06:07.63	345.69	16.67	-24.2	-25.7	17.3	0.00e+00	0	44	102	1048576	8	4247
2026-01-05 12:06:08.63	345.66	16.56	-24.4	-26.0	17.1	0.00e+00	0	44	102	1048576	8	4339
2026-01-05 12:06:09.64	345.62	16.44	-24.4	-25.5	17.1	0.00e+00	0	44	102	1048576	9	4080
2026-01-05 12:06:10.64	345.59	16.33	-24.3	-25.3	17.2	0.00e+00	0	44	102	1048576	9	4027
2026-01-05 12:06:11.64	345.55	16.22	-24.3	-25.3	17.2	0.00e+00	0	44	102	1048576	9	4049
2026-01-05 12:06:12.65	345.52	16.11	-24.5	-25.7	17.0	0.00e+00	0	44	102	1048576	9	4142
2026-01-05 12:06:13.66	345.49	16.00	-24.4	-25.5	17.0	0.00e+00	0	44	102	1048576	9	4093
2026-01-05 12:06:14.67	345.45	15.89	-24.4	-25.5	17.1	0.00e+00	0	44	102	1048576	9	4078
2026-01-05 12:06:15.68	345.42	15.78	-24.4	-25.4	17.1	0.00e+00	0	43	102	1048576	9	4066
2026-01-05 12:06:16.69	345.39	15.67	-24.4	-25.5	17.1	0.00e+00	0	44	102	1048576	9	4079
2026-01-05 12:06:17.70	345.36	15.56	-24.4	-25.5	17.0	0.00e+00	0	44	102	1048576	9	4083
2026-01-05 12:06:18.71	345.32	15.45	-24.5	-25.6	17.0	0.00e+00	0	44	102	1048576	9	4111
2026-01-05 12:06:19.71	345.29	15.35	-24.5	-25.8	16.9	0.00e+00	0	44	102	1048576	9	4161
2026-01-05 12:06:20.73	345.26	15.24	-24.5	-25.8	16.9	0.00e+00	0	44	102	1048576	9	4162
2026-01-05 12:06:21.73	345.23	15.13	-24.6	-25.9	16.8	0.00e+00	0	43	102	1048576	9	4193
2026-01-05 12:06:22.74	345.20	15.02	-24.6	-25.9	16.8	0.00e+00	0	43	102	1048576	9	4202
2026-01-05 12:06:23.74	345.17	14.92	-24.6	-25.9	16.8	0.00e+00	0	44	102	1048576	9	4197
2026-01-05 12:06:24.75	345.14	14.81	-24.7	-26.1	16.7	0.00e+00	0	44	102	1048576	9	4238
2026-01-05 12:06:25.76	345.11	14.71	-24.7	-26.2	16.6	0.00e+00	0	44	102	1048576	9	4258
2026-01-05 12:06:26.77	345.08	14.60	-24.8	-26.3	16.6	0.00e+00	0	44	102	1048576	9	4282
2026-01-05 12:06:27.78	345.05	14.50	-24.8	-26.3	16.6	0.00e+00	0	44	102	1048576	9	4288
2026-01-05 12:06:28.78	345.02	14.40	-24.8	-26.3	16.6	0.00e+00	0	44	102	1048576	9	4293
2026-01-05 12:06:29.79	344.99	14.29	-24.8	-26.5	16.4	0.00e+00	0	44	102	1048576	9	4347
2026-01-05 12:06:30.80	344.96	14.19	-24.7	-26.3	16.6	0.00e+00	0	44	102	1048576	9	4288
2026-01-05 12:06:31.81	344.93	14.09	-24.8	-26.4	16.5	0.00e+00	0	44	102	1048576	9	4311
2026-01-05 12:06:32.82	344.90	13.98	-24.9	-26.5	16.4	0.00e+00	0	44	102	1048576	9	4360
2026-01-05 12:06:33.82	344.88	13.88	-24.9	-26.6	16.4	2.20e-06	0	44	102	1048576	9	4370
2026-01-05 12:06:34.83	344.85	13.78	-24.9	-26.6	16.4	0.00e+00	0	44	102	1048576	9	4375
2026-01-05 12:06:35.83	344.82	13.68	-25.0	-26.4	16.2	0.00e+00	0	44	102	1048576	10	4203
2026-01-05 12:06:36.84	344.79	13.58	-25.2	-26.8	16.0	0.00e+00	0	44	102	1048576	10	4312
2026-01-05 12:06:37.85	344.76	13.48	-25.1	-26.5	16.1	0.00e+00	0	44	102	1048576	10	4251
2026-01-05 12:06:38.86	344.74	13.38	-25.2	-26.7	16.0	0.00e+00	0	44	102	1048576	10	4283
2026-01-05 12:06:39.86	344.71	13.28	-25.1	-26.6	16.0	0.00e+00	0	44	102	1048576	10	4275
2026-01-05 12:06:40.87	344.68	13.18	-25.1	-26.6	16.1	0.00e+00	0	44	102	1048576	10	4253
2026-01-05 12:06:41.86	344.66	13.09	-25.1	-26.6	16.1	0.00e+00	0	44	102	1048576	10	4253
2026-01-05 12:06:42.87	344.63	12.99	-25.1	-26.6	16.1	1.10e-06	0	44	102	1048576	10	4265
2026-01-05 12:06:43.87	344.60	12.89	-25.2	-26.8	16.0	0.00e+00	0	44	102	1048576	10	4313
2026-01-05 12:06:44.88	344.58	12.80	-25.4	-27.1	15.8	0.00e+00	0	44	102	1048576	10	4402
2026-01-05 12:06:45.89	344.55	12.70	-25.2	-26.8	15.9	0.00e+00	0	44	102	1048576	10	4310
2026-01-05 12:06:46.90	344.53	12.60	-25.2	-26.7	16.0	0.00e+00	0	44	102	1048576	10	4284
2026-01-05 12:06:47.90	344.50	12.51	-25.3	-26.9	15.9	0.00e+00	0	44	102	1048576	10	4348
2026-01-05 12:06:48.91	344.48	12.41	-25.4	-27.3	15.7	0.00e+00	0	44	102	1048576	10	4446
2026-01-05 12:06:49.92	344.45	12.32	-25.3	-27.0	15.8	0.00e+00	0	44	102	1048576	10	4378
2026-01-05 12:06:50.93	344.43	12.22	-25.4	-27.1	15.7	0.00e+00	0	44	102	1048576	10	4393
2026-01-05 12:06:51.93	344.40	12.13	-25.4	-27.1	15.7	0.00e+00	0	44	102	1048576	10	4403
2026-01-05 12:06:52.94	344.38	12.03	-25.3	-27.0	15.8	0.00e+00	0	44	102	1048576	10	4372
2026-01-05 12:06:53.94	344.35	11.94	-25.4	-27.2	15.7	1.10e-06	0	44	102	1048576	10	4418
2026-01-05 12:06:54.95	344.33	11.85	-25.4	-27.1	15.7	1.10e-06	0	44	102	1048576	10	4398
2026-01-05 12:06:55.96	344.31	11.75	-25.4	-27.1	15.7	0.00e+00	0	44	102	1048576	10	4409
2026-01-05 12:06:56.97	344.28	11.66	-25.4	-27.1	15.7	0.00e+00	0	44	102	1048576	10	4409
2026-01-05 12:06:57.97	344.26	11.57	-25.6	-27.2	15.4	0.00e+00	0	44	102	1048576	11	4303
2026-01-05 12:06:58.97	344.23	11.48	-25.8	-27.6	15.1	0.00e+00	0	44	102	1048576	11	4440
2026-01-05 12:06:59.98	344.21	11.38	-25.6	-27.1	15.4	0.00e+00	0	44	102	1048576	11	4291
2026-01-05 12:07:00.99	344.19	11.29	-25.5	-26.9	15.6	0.00e+00	0	44	102	1048576	11	4228
2026-01-05 12:07:02.00	344.17	11.20	-25.4	-26.7	15.6	0.00e+00	0	44	102	1048576	11	4192
2026-01-05 12:07:03.01	344.14	11.11	-25.5	-26.8	15.6	0.00e+00	0	44	102	1048576	11	4216
2026-01-05 12:07:04.01	344.12	11.02	-25.5	-26.8	15.5	0.00e+00	0	44	102	1048576	11	4217
2026-01-05 12:07:05.02	344.10	10.93	-25.6	-27.0	15.4	0.00e+00	0	44	102	1048576	11	4274
2026-01-05 12:07:06.03	344.08	10.84	-25.5	-26.8	15.5	0.00e+00	0	44	102	1048576	11	4224
2026-01-05 12:07:07.03	344.05	10.75	-25.5	-27.0	15.5	0.00e+00	0	44	102	1048576	11	4252
2026-01-05 12:07:08.04	344.03	10.66	-25.6	-27.2	15.3	0.00e+00	0	44	102	1048576	11	4309
2026-01-05 12:07:09.04	344.01	10.57	-25.5	-26.9	15.5	0.00e+00	0	44	102	1048576	11	4237
2026-01-05 12:07:10.04	343.99	10.49	-25.6	-27.2	15.3	0.00e+00	0	44	102	1048576	11	4303
2026-01-05 12:07:11.05	343.97	10.40	-25.6	-27.2	15.3	0.00e+00	0	44	102	1048576	11	4312
2026-01-05 12:07:12.06	343.95	10.31	-25.6	-27.2	15.3	1.10e-06	0	44	102	1048576	11	4313
2026-01-05 12:07:13.06	343.92	10.22	-25.7	-27.3	15.2	0.00e+00	0	44	102	1048576	11	4348
2026-01-05 12:07:14.07	343.90	10.13	-25.7	-27.4	15.2	0.00e+00	0	44	102	1048576	11	4362
2026-01-05 12:07:15.08	343.88	10.05	-25.9	-27.9	14.8	0.00e+00	0	44	102	1048576	11	4523
2026-01-05 12:07:16.09	343.86	9.96	-25.7	-27.5	15.1	1.10e-06	0	44	102	1048576	11	4400
2026-01-05 12:07:17.09	343.84	9.87	-25.7	-27.4	15.1	0.00e+00	0	44	102	1048576	11	4387
2026-01-05 12:07:18.10	343.82	9.79	-25.7	-27.4	15.1	0.00e+00	0	44	102	1048576	11	4385
2026-01-05 12:07:19.11	343.80	9.70	-25.8	-27.7	14.9	0.00e+00	0	44	102	1048576	11	4469
2026-01-05 12:07:20.12	343.78	9.62	-25.8	-27.6	15.0	0.00e+00	0	44	102	1048576	11	4445
2026-01-05 12:07:21.12	343.76	9.53	-25.8	-27.6	15.0	0.00e+00	0	44	102	1048576	11	4440
2026-01-05 12:07:22.13	343.74	9.45	-25.8	-27.7	14.9	0.00e+00	0	44	102	1048576	11	4477
2026-01-05 12:07:23.13	343.72	9.36	-25.9	-27.5	14.7	0.00e+00	0	44	102	1048576	12	4299
2026-01-05 12:07:24.13	343.70	9.28	-25.8	-27.3	14.8	0.00e+00	0	44	102	1048576	12	4234
2026-01-05 12:07:25.14	343.68	9.19	-25.8	-27.2	14.9	0.00e+00	0	44	102	1048576	12	4219
2026-01-05 12:07:26.15	343.66	9.11	-25.9	-27.4	14.7	0.00e+00	0	44	102	1048576	12	4271
2026-01-05 12:07:27.14	343.64	9.03	-26.0	-27.5	14.6	1.10e-06	0	44	102	1048576	12	4299
2026-01-05 12:07:28.15	343.63	8.95	-25.9	-27.3	14.7	1.10e-06	0	44	102	1048576	12	4259
2026-01-05 12:07:29.16	343.61	8.86	-26.0	-27.5	14.7	0.00e+00	0	44	102	1048576	12	4307
2026-01-05 12:07:30.17	343.59	8.78	-25.9	-27.4	14.7	2.20e-06	0	44	102	1048576	12	4279
2026-01-05 12:07:31.18	343.57	8.70	-26.1	-27.8	14.5	1.10e-06	0	44	102	1048576	12	4376
