passes_logs/2026/01/05/R2M6_AANII_01/R2M6_AANII_01__20260105_223404_NOAA_21_JPSS-2_rec.log

#Pass ID: 20260105_223404_NOAA 21 (JPSS-2)
#Satellite: NOAA 21 (JPSS-2)
#Configuration: NOAA 21
#almurnet v.1.7.20240730
#Start time: 2026-01-05 22:34:04

#Version: 2.2.20231116
#Station: R2M6_AANII_01
#Location: 30.233357 lon 59.946436 lat
#TLE: 1 54234U 22150A   26005.21525222  .00000150  00000+0  91957-4 0  9992
#TLE: 2 54234  98.7490 306.2339 0001053 341.6032  18.5106 14.19532220163427

#Time	Az	El	Level	Level2	SNR	BER	BlckErr	Temp	State	Recorded	gain1	gain2
2026-01-05 22:34:04.95	31.79	7.02	-30.1	-35.3	4.6	1.39e+00	0	41	0	0	21	6518
2026-01-05 22:34:05.95	31.90	7.08	-31.1	-37.7	4.3	1.43e+00	0	41	104	0	22	7625
2026-01-05 22:34:06.96	32.00	7.14	-30.9	-36.0	7.0	2.00e-01	0	41	0	0	22	6441
2026-01-05 22:34:07.96	32.10	7.19	-31.2	-36.8	6.5	2.38e-01	0	41	102	1048576	22	6913
2026-01-05 22:34:08.97	32.21	7.25	-31.0	-36.3	6.9	1.82e-01	0	41	102	1048576	22	6595
2026-01-05 22:34:09.98	32.31	7.31	-30.8	-35.8	7.6	1.00e-01	0	41	102	1048576	21	6378
2026-01-05 22:34:10.99	32.42	7.37	-30.6	-35.2	8.0	8.44e-02	0	41	102	1048576	21	6086
2026-01-05 22:34:11.98	32.52	7.43	-30.5	-34.8	8.3	5.02e-02	0	41	102	1048576	21	5906
2026-01-05 22:34:12.98	32.63	7.49	-30.5	-34.7	8.3	4.85e-02	0	41	102	1048576	21	5858
2026-01-05 22:34:13.99	32.74	7.55	-30.5	-34.6	8.5	4.53e-02	0	41	102	1048576	21	5779
2026-01-05 22:34:14.99	32.84	7.61	-30.9	-36.1	7.4	9.32e-02	0	41	102	1048576	21	6569
2026-01-05 22:34:16.00	32.95	7.67	-30.7	-35.2	8.0	7.11e-02	0	41	102	1048576	21	6103
2026-01-05 22:34:17.01	33.06	7.73	-30.2	-33.9	9.0	2.68e-02	0	41	102	1048576	21	5456
2026-01-05 22:34:18.02	33.17	7.80	-29.9	-33.3	9.8	1.55e-02	0	41	102	1048576	20	5317
2026-01-05 22:34:19.03	33.28	7.86	-29.6	-32.9	10.5	6.30e-03	0	41	102	1048576	19	5252
2026-01-05 22:34:20.04	33.39	7.92	-29.4	-32.3	10.9	2.81e-03	0	41	102	1048576	19	5011
2026-01-05 22:34:21.05	33.50	7.98	-29.1	-31.9	11.6	7.88e-04	0	41	102	1048576	18	4975
2026-01-05 22:34:22.05	33.61	8.04	-28.9	-31.3	11.9	7.29e-04	0	41	102	1048576	18	4781
2026-01-05 22:34:23.06	33.72	8.10	-28.7	-31.0	12.1	3.00e-04	0	42	102	1048576	18	4675
2026-01-05 22:34:24.07	33.83	8.16	-28.8	-31.6	12.0	3.20e-04	0	42	102	1048576	17	4989
2026-01-05 22:34:25.08	33.94	8.22	-28.8	-31.6	12.0	5.19e-04	0	42	102	1048576	17	4996
2026-01-05 22:34:26.08	34.05	8.28	-28.9	-31.9	12.0	4.69e-04	0	42	102	1048576	17	5075
2026-01-05 22:34:27.09	34.17	8.34	-28.8	-31.6	12.2	2.42e-04	0	42	102	1048576	17	4970
2026-01-05 22:34:28.09	34.28	8.40	-28.8	-31.6	12.1	2.53e-04	0	42	102	1048576	17	4991
2026-01-05 22:34:29.10	34.39	8.46	-28.7	-31.5	12.2	4.96e-04	0	42	102	1048576	17	4939
2026-01-05 22:34:30.11	34.51	8.52	-28.8	-31.7	12.1	1.88e-04	0	42	102	1048576	17	5024
2026-01-05 22:34:31.11	34.62	8.58	-28.8	-31.7	12.1	4.44e-04	0	42	102	1048576	17	5010
2026-01-05 22:34:32.12	34.74	8.65	-29.0	-31.7	11.8	6.48e-04	0	42	102	1048576	18	4903
2026-01-05 22:34:33.12	34.85	8.71	-28.9	-31.3	12.1	2.81e-04	0	42	102	1048576	18	4766
2026-01-05 22:34:34.13	34.97	8.77	-28.8	-31.6	12.2	2.28e-04	0	42	102	1048576	17	4963
2026-01-05 22:34:35.14	35.08	8.83	-28.8	-31.6	12.2	1.87e-04	0	42	102	1048576	17	4968
2026-01-05 22:34:36.14	35.20	8.89	-29.1	-31.8	11.8	2.97e-04	0	42	102	1048576	18	4916
2026-01-05 22:34:37.15	35.32	8.95	-28.9	-31.3	12.2	3.46e-04	0	42	102	1048576	18	4735
2026-01-05 22:34:38.15	35.43	9.01	-28.6	-30.6	12.7	8.23e-05	0	42	102	1048576	18	4509
2026-01-05 22:34:39.15	35.55	9.07	-28.5	-30.8	12.8	6.10e-05	0	42	102	1048576	17	4671
2026-01-05 22:34:40.16	35.67	9.14	-29.0	-31.5	12.1	1.83e-04	0	42	102	1048576	18	4812
2026-01-05 22:34:41.16	35.79	9.20	-28.5	-30.4	12.9	5.64e-05	0	42	102	1048576	18	4434
2026-01-05 22:34:42.17	35.91	9.26	-28.6	-30.9	12.7	7.09e-05	0	42	102	1048576	17	4725
2026-01-05 22:34:43.18	36.03	9.32	-28.5	-30.8	12.8	6.10e-05	0	42	102	1048576	17	4676
2026-01-05 22:34:44.18	36.15	9.38	-28.5	-30.8	12.8	4.65e-05	0	42	102	1048576	17	4671
2026-01-05 22:34:45.19	36.27	9.44	-28.5	-30.7	12.9	7.40e-05	0	42	102	1048576	17	4642
2026-01-05 22:34:46.20	36.39	9.51	-28.8	-31.5	12.4	1.25e-04	0	42	102	1048576	17	4913
2026-01-05 22:34:47.21	36.51	9.57	-28.6	-30.9	12.7	6.10e-05	0	42	102	1048576	17	4730
2026-01-05 22:34:48.22	36.64	9.63	-28.8	-31.5	12.3	1.88e-04	0	42	102	1048576	17	4933
2026-01-05 22:34:49.23	36.76	9.69	-28.4	-30.5	13.0	3.58e-05	0	42	102	1048576	17	4598
2026-01-05 22:34:50.24	36.88	9.75	-28.2	-29.9	13.3	3.43e-05	0	42	102	1048576	17	4416
2026-01-05 22:34:51.24	37.01	9.82	-28.2	-30.0	13.3	1.44e-05	0	42	102	1048576	17	4438
2026-01-05 22:34:52.25	37.13	9.88	-28.2	-30.6	13.1	2.13e-05	0	42	102	1048576	16	4747
2026-01-05 22:34:53.25	37.26	9.94	-28.0	-29.9	13.6	9.90e-06	0	42	102	1048576	16	4528
2026-01-05 22:34:54.26	37.38	10.00	-28.0	-30.0	13.6	6.10e-06	0	42	102	1048576	16	4554
2026-01-05 22:34:55.27	37.51	10.07	-28.1	-30.2	13.4	1.14e-05	0	42	102	1048576	16	4608
2026-01-05 22:34:56.27	37.63	10.13	-28.1	-30.3	13.4	1.14e-05	0	42	102	1048576	16	4645
2026-01-05 22:34:57.28	37.76	10.19	-28.2	-30.6	13.2	3.35e-05	0	42	102	1048576	16	4728
2026-01-05 22:34:58.28	37.89	10.25	-28.2	-30.5	13.3	1.75e-05	0	42	102	1048576	16	4705
2026-01-05 22:34:59.28	38.02	10.31	-28.1	-30.4	13.4	1.75e-05	0	42	102	1048576	16	4666
2026-01-05 22:35:00.29	38.14	10.38	-28.2	-30.5	13.3	1.60e-05	0	42	102	1048576	16	4711
2026-01-05 22:35:01.30	38.27	10.44	-28.2	-30.4	13.4	7.60e-06	0	42	102	1048576	16	4679
2026-01-05 22:35:02.30	38.40	10.50	-28.2	-30.5	13.4	9.90e-06	0	42	102	1048576	16	4694
2026-01-05 22:35:03.32	38.53	10.56	-28.2	-30.5	13.3	1.98e-05	0	42	102	1048576	16	4714
2026-01-05 22:35:04.32	38.66	10.63	-28.0	-30.0	13.6	1.06e-05	0	42	102	1048576	16	4550
2026-01-05 22:35:05.33	38.80	10.69	-28.0	-30.0	13.6	5.30e-06	0	43	102	1048576	16	4529
2026-01-05 22:35:06.33	38.93	10.75	-27.9	-29.8	13.8	4.50e-06	0	42	102	1048576	16	4491
2026-01-05 22:35:07.34	39.06	10.81	-28.0	-30.0	13.7	5.30e-06	0	42	102	1048576	16	4524
2026-01-05 22:35:08.34	39.19	10.88	-28.0	-30.1	13.6	7.60e-06	0	42	102	1048576	16	4576
2026-01-05 22:35:09.35	39.33	10.94	-28.1	-30.4	13.4	1.37e-05	0	43	102	1048576	16	4662
2026-01-05 22:35:10.35	39.46	11.00	-28.1	-30.3	13.5	8.30e-06	0	43	102	1048576	16	4649
2026-01-05 22:35:11.36	39.59	11.06	-28.2	-30.5	13.4	1.60e-05	0	42	102	1048576	16	4697
2026-01-05 22:35:12.36	39.73	11.13	-28.3	-30.7	13.3	3.96e-05	0	43	102	1048576	16	4747
2026-01-05 22:35:13.37	39.86	11.19	-28.3	-30.7	13.3	2.21e-05	0	42	102	1048576	16	4760
2026-01-05 22:35:14.38	40.00	11.25	-28.2	-30.6	13.3	1.75e-05	0	43	102	1048576	16	4738
2026-01-05 22:35:15.38	40.14	11.31	-28.3	-30.7	13.3	2.13e-05	0	42	102	1048576	16	4759
2026-01-05 22:35:16.39	40.27	11.38	-28.2	-30.4	13.4	1.44e-05	0	43	102	1048576	16	4676
2026-01-05 22:35:17.40	40.41	11.44	-28.1	-30.2	13.6	1.29e-05	0	43	102	1048576	16	4592
2026-01-05 22:35:18.40	40.55	11.50	-28.3	-30.8	13.2	2.44e-05	0	43	102	1048576	16	4806
2026-01-05 22:35:19.40	40.69	11.57	-28.3	-30.6	13.3	2.44e-05	0	43	102	1048576	16	4734
2026-01-05 22:35:20.41	40.83	11.63	-28.1	-30.1	13.6	1.29e-05	0	43	102	1048576	16	4574
2026-01-05 22:35:21.42	40.97	11.69	-28.0	-30.0	13.7	6.10e-06	0	43	102	1048576	16	4537
2026-01-05 22:35:22.42	41.11	11.75	-28.0	-30.0	13.8	6.10e-06	0	43	102	1048576	16	4520
2026-01-05 22:35:23.43	41.25	11.82	-28.1	-30.3	13.5	6.10e-06	0	43	102	1048576	16	4623
2026-01-05 22:35:24.44	41.39	11.88	-28.2	-30.4	13.5	1.75e-05	0	43	102	1048576	16	4649
2026-01-05 22:35:25.45	41.54	11.94	-28.1	-30.3	13.6	4.50e-06	0	43	102	1048576	16	4625
2026-01-05 22:35:26.46	41.68	12.01	-28.1	-30.3	13.6	7.60e-06	0	43	102	1048576	16	4624
2026-01-05 22:35:27.47	41.82	12.07	-28.1	-30.3	13.6	6.80e-06	0	43	102	1048576	16	4640
2026-01-05 22:35:28.47	41.97	12.13	-28.1	-30.4	13.6	1.90e-05	0	43	102	1048576	16	4642
2026-01-05 22:35:29.48	42.11	12.19	-28.1	-30.2	13.6	1.14e-05	0	43	102	1048576	16	4605
2026-01-05 22:35:30.48	42.26	12.26	-28.1	-30.2	13.7	2.79e-04	0	43	102	1048576	16	4586
2026-01-05 22:35:31.50	42.41	12.32	-28.2	-30.4	13.5	2.61e-04	0	43	102	1048576	16	4649
2026-01-05 22:35:32.50	42.55	12.38	-27.9	-29.9	13.8	4.50e-06	0	43	102	1048576	16	4488
2026-01-05 22:35:33.51	42.70	12.45	-27.9	-29.8	13.9	3.00e-06	0	43	102	1048576	16	4462
2026-01-05 22:35:34.52	42.85	12.51	-27.9	-29.8	13.9	1.50e-06	0	43	102	1048576	16	4467
2026-01-05 22:35:35.52	43.00	12.57	-27.9	-29.8	13.9	4.50e-06	0	43	102	1048576	16	4468
2026-01-05 22:35:36.53	43.15	12.64	-28.0	-30.1	13.7	1.77e-04	0	43	102	1048576	16	4556
2026-01-05 22:35:37.54	43.30	12.70	-28.0	-30.1	13.7	3.11e-04	0	43	102	1048576	16	4555
2026-01-05 22:35:38.55	43.45	12.76	-28.0	-29.9	13.8	4.50e-06	0	43	102	1048576	16	4509
2026-01-05 22:35:39.55	43.60	12.82	-27.9	-29.9	13.9	3.80e-06	0	43	102	1048576	16	4488
2026-01-05 22:35:40.56	43.75	12.89	-28.0	-30.1	13.7	8.41e-04	0	43	102	1048576	16	4549
2026-01-05 22:35:41.57	43.90	12.95	-28.0	-30.1	13.8	5.30e-06	0	43	102	1048576	16	4548
2026-01-05 22:35:42.58	44.06	13.01	-28.0	-29.9	13.9	7.48e-04	0	43	102	1048576	16	4494
2026-01-05 22:35:43.58	44.21	13.08	-28.2	-30.5	13.5	5.70e-04	0	43	102	1048576	16	4684
2026-01-05 22:35:44.59	44.36	13.14	-28.2	-30.5	13.5	1.75e-05	0	43	102	1048576	16	4692
2026-01-05 22:35:45.59	44.52	13.20	-28.0	-30.0	13.8	3.00e-04	0	43	102	1048576	16	4523
2026-01-05 22:35:46.60	44.67	13.26	-27.9	-29.7	14.0	2.18e-04	0	43	102	1048576	16	4440
2026-01-05 22:35:47.61	44.83	13.33	-27.7	-29.3	14.2	1.67e-05	0	43	102	1048576	16	4327
2026-01-05 22:35:48.62	44.99	13.39	-27.8	-29.5	14.1	8.77e-05	0	43	102	1048576	16	4382
2026-01-05 22:35:49.63	45.14	13.45	-27.8	-29.5	14.2	1.44e-05	0	43	102	1048576	16	4366
2026-01-05 22:35:50.64	45.30	13.51	-27.9	-29.7	14.0	1.50e-06	0	43	102	1048576	16	4450
2026-01-05 22:35:51.65	45.46	13.58	-27.9	-29.7	14.0	2.41e-04	0	43	102	1048576	16	4438
2026-01-05 22:35:52.65	45.62	13.64	-27.8	-29.6	14.1	3.53e-04	0	43	102	1048576	16	4392
2026-01-05 22:35:53.66	45.78	13.70	-27.9	-29.7	14.0	3.80e-06	0	43	102	1048576	16	4435
2026-01-05 22:35:54.67	45.94	13.76	-27.8	-29.6	14.1	5.05e-04	0	43	102	1048576	16	4407
2026-01-05 22:35:55.67	46.10	13.83	-27.9	-29.8	14.0	2.20e-06	0	43	102	1048576	16	4459
2026-01-05 22:35:56.68	46.27	13.89	-27.9	-29.7	14.0	1.50e-06	0	43	102	1048576	16	4432
2026-01-05 22:35:57.68	46.43	13.95	-27.9	-29.8	14.0	4.42e-04	0	43	102	1048576	16	4452
2026-01-05 22:35:58.69	46.59	14.01	-28.2	-30.5	13.6	3.40e-04	0	43	102	1048576	16	4671
2026-01-05 22:35:59.69	46.75	14.08	-28.0	-30.0	13.9	9.10e-06	0	43	102	1048576	16	4522
2026-01-05 22:36:00.70	46.92	14.14	-28.0	-29.8	14.0	3.80e-06	0	43	102	1048576	16	4473
2026-01-05 22:36:01.70	47.08	14.20	-27.9	-29.8	14.0	1.50e-06	0	43	102	1048576	16	4467
2026-01-05 22:36:02.71	47.25	14.26	-27.9	-29.6	14.1	2.20e-06	0	43	102	1048576	16	4401
2026-01-05 22:36:03.72	47.42	14.32	-27.8	-30.0	14.0	2.20e-06	0	43	102	1048576	15	4649
2026-01-05 22:36:04.73	47.59	14.39	-27.8	-30.0	14.0	6.31e-04	0	43	102	1048576	15	4645
2026-01-05 22:36:05.74	47.75	14.45	-27.7	-29.9	14.1	1.50e-06	0	43	102	1048576	15	4619
2026-01-05 22:36:06.75	47.92	14.51	-27.6	-29.6	14.3	1.50e-06	0	43	102	1048576	15	4517
2026-01-05 22:36:07.76	48.09	14.57	-27.7	-29.8	14.1	2.20e-06	0	43	102	1048576	15	4577
2026-01-05 22:36:08.76	48.26	14.63	-27.7	-29.7	14.2	1.50e-06	0	43	102	1048576	15	4537
2026-01-05 22:36:09.77	48.43	14.69	-27.5	-29.3	14.5	1.50e-06	0	43	102	1048576	15	4429
2026-01-05 22:36:10.78	48.61	14.76	-27.6	-29.5	14.3	1.50e-06	0	43	102	1048576	15	4497
2026-01-05 22:36:11.78	48.78	14.82	-27.5	-29.4	14.4	2.20e-06	0	43	102	1048576	15	4447
2026-01-05 22:36:12.79	48.95	14.88	-27.7	-29.7	14.3	1.50e-06	0	43	102	1048576	15	4554
2026-01-05 22:36:13.79	49.12	14.94	-27.6	-29.6	14.3	2.20e-06	0	43	102	1048576	15	4527
2026-01-05 22:36:14.79	49.30	15.00	-27.8	-30.0	14.1	1.50e-06	0	43	102	1048576	15	4639
2026-01-05 22:36:15.80	49.47	15.06	-27.7	-29.8	14.2	7.00e-07	0	43	102	1048576	15	4566
2026-01-05 22:36:16.81	49.65	15.12	-27.7	-29.9	14.1	7.00e-07	0	43	102	1048576	15	4598
2026-01-05 22:36:17.82	49.82	15.18	-27.7	-29.8	14.2	2.20e-06	0	43	102	1048576	15	4563
2026-01-05 22:36:18.83	50.00	15.24	-27.8	-29.9	14.1	1.50e-06	0	43	102	1048576	15	4625
2026-01-05 22:36:19.84	50.18	15.31	-27.7	-29.8	14.2	0.00e+00	0	43	102	1048576	15	4568
2026-01-05 22:36:20.85	50.36	15.37	-27.7	-29.9	14.2	2.20e-06	0	43	102	1048576	15	4593
2026-01-05 22:36:21.85	50.54	15.43	-27.7	-29.9	14.2	2.20e-06	0	43	102	1048576	15	4594
2026-01-05 22:36:22.86	50.72	15.49	-27.9	-30.2	14.0	3.00e-06	0	43	102	1048576	15	4710
2026-01-05 22:36:23.87	50.90	15.55	-27.8	-30.0	14.1	1.50e-06	0	43	102	1048576	15	4623
2026-01-05 22:36:24.88	51.08	15.61	-27.7	-29.9	14.2	7.00e-07	0	43	102	1048576	15	4598
2026-01-05 22:36:25.89	51.26	15.67	-27.8	-30.0	14.1	2.20e-06	0	43	102	1048576	15	4650
2026-01-05 22:36:26.89	51.44	15.73	-27.7	-29.8	14.2	2.20e-06	0	43	102	1048576	15	4581
2026-01-05 22:36:27.90	51.63	15.79	-27.6	-29.5	14.4	0.00e+00	0	43	102	1048576	15	4493
2026-01-05 22:36:28.91	51.81	15.85	-27.6	-29.6	14.4	1.50e-06	0	43	102	1048576	15	4508
2026-01-05 22:36:29.92	52.00	15.91	-27.6	-29.4	14.5	1.50e-06	0	43	102	1048576	15	4462
2026-01-05 22:36:30.92	52.18	15.96	-27.5	-29.2	14.6	7.00e-07	0	43	102	1048576	15	4400
2026-01-05 22:36:31.93	52.37	16.02	-27.5	-29.3	14.6	7.00e-07	0	43	102	1048576	15	4418
2026-01-05 22:36:32.94	52.56	16.08	-27.7	-29.7	14.3	1.50e-06	0	43	102	1048576	15	4527
2026-01-05 22:36:33.95	52.75	16.14	-27.7	-29.8	14.2	1.50e-06	0	43	102	1048576	15	4574
2026-01-05 22:36:34.95	52.93	16.20	-27.7	-29.8	14.3	3.00e-06	0	43	102	1048576	15	4563
2026-01-05 22:36:35.96	53.12	16.26	-27.8	-30.0	14.1	5.30e-06	0	43	102	1048576	15	4638
2026-01-05 22:36:36.96	53.31	16.32	-27.9	-30.1	14.0	2.20e-06	0	43	102	1048576	15	4678
2026-01-05 22:36:37.97	53.50	16.38	-28.2	-30.3	13.8	3.80e-06	0	43	102	1048576	16	4617
2026-01-05 22:36:38.98	53.69	16.43	-28.4	-30.8	13.6	4.50e-06	0	43	102	1048576	16	4753
2026-01-05 22:36:39.99	53.89	16.49	-28.2	-30.3	13.8	3.80e-06	0	43	102	1048576	16	4622
2026-01-05 22:36:40.99	54.08	16.55	-27.9	-29.8	14.1	7.00e-07	0	43	102	1048576	16	4441
2026-01-05 22:36:42.00	54.27	16.61	-27.8	-29.4	14.4	1.50e-06	0	43	102	1048576	16	4328
2026-01-05 22:36:43.00	54.47	16.67	-27.9	-29.7	14.2	1.50e-06	0	43	102	1048576	16	4415
2026-01-05 22:36:44.01	54.66	16.72	-27.6	-29.4	14.5	1.50e-06	0	43	102	1048576	15	4457
2026-01-05 22:36:45.02	54.86	16.78	-27.5	-29.3	14.6	0.00e+00	0	43	102	1048576	15	4418
2026-01-05 22:36:46.03	55.06	16.84	-27.6	-29.6	14.4	7.00e-07	0	43	102	1048576	15	4499
2026-01-05 22:36:47.04	55.25	16.89	-27.6	-29.4	14.4	0.00e+00	0	43	102	1048576	15	4464
2026-01-05 22:36:48.04	55.45	16.95	-27.7	-29.8	14.2	1.50e-06	0	43	102	1048576	15	4581
2026-01-05 22:36:49.05	55.65	17.01	-27.5	-29.3	14.5	7.00e-07	0	43	102	1048576	15	4425
2026-01-05 22:36:50.06	55.85	17.06	-27.4	-29.1	14.6	0.00e+00	0	43	102	1048576	15	4364
2026-01-05 22:36:51.07	56.05	17.12	-27.4	-29.1	14.7	3.80e-06	0	43	102	1048576	15	4368
2026-01-05 22:36:52.07	56.25	17.17	-27.8	-29.9	14.2	1.50e-06	0	43	102	1048576	15	4614
2026-01-05 22:36:53.08	56.45	17.23	-27.9	-30.2	14.1	3.00e-06	0	43	102	1048576	15	4693
2026-01-05 22:36:54.08	56.65	17.29	-28.3	-30.6	13.8	1.24e-03	0	43	102	1048576	16	4700
2026-01-05 22:36:55.09	56.86	17.34	-27.8	-30.0	14.2	3.00e-06	0	43	102	1048576	15	4637
2026-01-05 22:36:56.10	57.06	17.40	-27.6	-29.5	14.5	1.50e-06	0	43	102	1048576	15	4478
2026-01-05 22:36:57.11	57.27	17.45	-27.6	-29.4	14.6	0.00e+00	0	43	102	1048576	15	4457
2026-01-05 22:36:58.12	57.47	17.50	-27.9	-30.2	14.1	0.00e+00	0	43	102	1048576	15	4689
2026-01-05 22:36:59.13	57.68	17.56	-27.4	-28.9	14.8	0.00e+00	0	43	102	1048576	15	4311
2026-01-05 22:37:00.13	57.88	17.61	-27.2	-28.6	15.1	2.67e-04	0	43	102	1048576	15	4207
2026-01-05 22:37:01.14	58.09	17.67	-27.2	-28.6	15.0	3.56e-04	0	43	102	1048576	15	4228
2026-01-05 22:37:02.15	58.30	17.72	-27.2	-28.6	15.0	0.00e+00	0	43	102	1048576	15	4218
2026-01-05 22:37:03.15	58.51	17.77	-27.2	-29.1	15.1	0.00e+00	0	43	102	1048576	14	4474
2026-01-05 22:37:04.16	58.72	17.83	-27.4	-29.0	14.8	4.45e-04	0	43	102	1048576	15	4333
2026-01-05 22:37:05.16	58.93	17.88	-27.4	-28.9	14.9	7.00e-07	0	43	102	1048576	15	4311
2026-01-05 22:37:06.17	59.14	17.93	-27.3	-28.9	14.9	3.33e-04	0	43	102	1048576	15	4294
2026-01-05 22:37:07.18	59.35	17.98	-27.4	-29.1	14.8	2.72e-04	0	43	102	1048576	15	4363
2026-01-05 22:37:08.18	59.56	18.04	-27.5	-29.1	14.7	0.00e+00	0	43	102	1048576	15	4373
2026-01-05 22:37:09.19	59.77	18.09	-27.6	-29.5	14.5	2.27e-04	0	43	102	1048576	15	4471
2026-01-05 22:37:10.20	59.99	18.14	-27.3	-28.7	15.0	2.70e-04	0	43	102	1048576	15	4244
2026-01-05 22:37:11.21	60.20	18.19	-27.1	-28.4	15.1	0.00e+00	0	43	102	1048576	15	4168
2026-01-05 22:37:12.21	60.42	18.24	-27.2	-28.6	15.0	2.86e-04	0	43	102	1048576	15	4220
2026-01-05 22:37:13.22	60.63	18.29	-27.1	-28.3	15.2	2.37e-04	0	44	102	1048576	15	4148
2026-01-05 22:37:14.22	60.85	18.34	-27.0	-28.2	15.3	0.00e+00	0	43	102	1048576	15	4101
2026-01-05 22:37:15.23	61.07	18.39	-27.2	-28.5	15.1	3.96e-05	0	43	102	1048576	15	4195
2026-01-05 22:37:16.24	61.29	18.44	-27.1	-28.2	15.3	3.50e-05	0	43	102	1048576	15	4118
2026-01-05 22:37:17.24	61.50	18.49	-27.1	-28.4	15.2	0.00e+00	0	43	102	1048576	15	4162
2026-01-05 22:37:18.25	61.72	18.54	-27.2	-28.4	15.2	1.81e-04	0	43	102	1048576	15	4175
2026-01-05 22:37:19.26	61.94	18.59	-27.0	-28.2	15.3	0.00e+00	0	43	102	1048576	15	4100
2026-01-05 22:37:20.26	62.16	18.64	-27.0	-28.1	15.3	0.00e+00	0	43	102	1048576	15	4084
2026-01-05 22:37:21.26	62.38	18.68	-27.0	-28.7	15.3	5.64e-04	0	43	102	1048576	14	4353
2026-01-05 22:37:22.26	62.60	18.73	-27.0	-28.6	15.4	5.72e-04	0	43	102	1048576	14	4316
2026-01-05 22:37:23.27	62.83	18.78	-26.9	-28.3	15.5	0.00e+00	0	43	102	1048576	14	4243
2026-01-05 22:37:24.28	63.05	18.83	-26.9	-28.3	15.5	0.00e+00	0	43	102	1048576	14	4242
2026-01-05 22:37:25.29	63.28	18.87	-26.9	-28.4	15.5	0.00e+00	0	43	102	1048576	14	4258
2026-01-05 22:37:26.29	63.50	18.92	-27.0	-28.6	15.4	0.00e+00	0	43	102	1048576	14	4317
2026-01-05 22:37:27.30	63.73	18.97	-26.9	-28.8	15.5	1.13e-03	0	43	102	1048576	13	4480
2026-01-05 22:37:28.31	63.95	19.01	-26.8	-28.5	15.6	2.09e-03	0	43	102	1048576	13	4418
2026-01-05 22:37:29.31	64.18	19.06	-26.8	-28.7	15.6	0.00e+00	0	43	102	1048576	13	4467
2026-01-05 22:37:30.32	64.41	19.10	-26.9	-28.8	15.5	0.00e+00	0	43	102	1048576	13	4493
2026-01-05 22:37:31.33	64.64	19.15	-26.7	-28.5	15.7	0.00e+00	0	43	102	1048576	13	4405
2026-01-05 22:37:32.33	64.86	19.19	-26.7	-28.5	15.7	0.00e+00	0	43	102	1048576	13	4407
2026-01-05 22:37:33.34	65.09	19.24	-26.8	-28.7	15.6	2.54e-03	0	44	102	1048576	13	4459
2026-01-05 22:37:34.35	65.32	19.28	-26.9	-28.8	15.5	0.00e+00	0	43	102	1048576	13	4506
2026-01-05 22:37:35.36	65.56	19.32	-26.8	-28.6	15.6	0.00e+00	0	43	102	1048576	13	4438
2026-01-05 22:37:36.36	65.79	19.37	-26.8	-28.6	15.5	0.00e+00	0	43	102	1048576	13	4448
2026-01-05 22:37:37.37	66.02	19.41	-26.7	-28.5	15.7	0.00e+00	0	43	102	1048576	13	4397
2026-01-05 22:37:38.38	66.25	19.45	-26.7	-28.3	15.8	0.00e+00	0	43	102	1048576	13	4359
2026-01-05 22:37:39.39	66.49	19.49	-26.6	-28.2	15.8	0.00e+00	0	43	102	1048576	13	4335
2026-01-05 22:37:40.39	66.72	19.53	-26.6	-28.2	15.9	0.00e+00	0	43	102	1048576	13	4323
2026-01-05 22:37:41.40	66.95	19.58	-26.6	-28.3	15.8	0.00e+00	0	43	102	1048576	13	4339
2026-01-05 22:37:42.41	67.19	19.62	-26.5	-28.0	16.0	0.00e+00	0	43	102	1048576	13	4257
2026-01-05 22:37:43.41	67.42	19.66	-26.5	-27.9	16.0	0.00e+00	0	44	102	1048576	13	4245
2026-01-05 22:37:44.42	67.66	19.70	-26.6	-28.2	15.8	1.44e-05	0	43	102	1048576	13	4325
2026-01-05 22:37:45.43	67.90	19.73	-26.7	-28.4	15.8	6.10e-06	0	43	102	1048576	13	4368
2026-01-05 22:37:46.43	68.14	19.77	-26.7	-28.4	15.7	0.00e+00	0	43	102	1048576	13	4381
2026-01-05 22:37:47.44	68.37	19.81	-26.8	-28.6	15.6	0.00e+00	0	43	102	1048576	13	4443
2026-01-05 22:37:48.45	68.61	19.85	-26.8	-28.6	15.6	0.00e+00	0	43	102	1048576	13	4442
2026-01-05 22:37:49.46	68.85	19.89	-26.8	-28.6	15.6	0.00e+00	0	43	102	1048576	13	4445
2026-01-05 22:37:50.46	69.09	19.92	-26.8	-28.6	15.6	1.17e-04	0	43	102	1048576	13	4437
2026-01-05 22:37:51.47	69.33	19.96	-26.8	-28.7	15.6	1.30e-04	0	43	102	1048576	13	4461
2026-01-05 22:37:52.47	69.57	20.00	-26.8	-28.7	15.6	0.00e+00	0	43	102	1048576	13	4468
2026-01-05 22:37:53.48	69.82	20.03	-26.8	-28.2	15.6	1.67e-05	0	43	102	1048576	14	4200
2026-01-05 22:37:54.48	70.06	20.07	-26.7	-27.9	15.8	2.20e-06	0	43	102	1048576	14	4137
2026-01-05 22:37:55.49	70.30	20.10	-26.7	-28.0	15.8	0.00e+00	0	43	102	1048576	14	4147
2026-01-05 22:37:56.50	70.54	20.14	-26.8	-28.1	15.6	9.90e-06	0	43	102	1048576	14	4199
2026-01-05 22:37:57.51	70.79	20.17	-26.9	-28.5	15.5	1.14e-05	0	43	102	1048576	14	4291
2026-01-05 22:37:58.52	71.03	20.21	-27.0	-28.5	15.4	0.00e+00	0	43	102	1048576	14	4308
2026-01-05 22:37:59.52	71.28	20.24	-26.7	-27.9	15.8	3.00e-06	0	43	102	1048576	14	4136
2026-01-05 22:38:00.53	71.52	20.27	-26.6	-27.8	15.9	0.00e+00	0	43	102	1048576	14	4094
2026-01-05 22:38:01.53	71.77	20.30	-26.7	-27.8	15.8	0.00e+00	0	44	102	1048576	14	4118
2026-01-05 22:38:02.53	72.01	20.33	-26.8	-28.1	15.7	0.00e+00	0	43	102	1048576	14	4184
2026-01-05 22:38:03.53	72.26	20.37	-27.0	-28.5	15.4	0.00e+00	0	43	102	1048576	14	4303
2026-01-05 22:38:04.54	72.51	20.40	-27.0	-28.6	15.4	0.00e+00	0	44	102	1048576	14	4323
2026-01-05 22:38:05.54	72.75	20.43	-26.9	-28.5	15.5	5.30e-06	0	43	102	1048576	14	4289
2026-01-05 22:38:06.55	73.00	20.46	-27.1	-28.7	15.3	0.00e+00	0	43	102	1048576	14	4363
2026-01-05 22:38:07.56	73.25	20.49	-27.0	-28.5	15.4	0.00e+00	0	44	102	1048576	14	4303
2026-01-05 22:38:08.57	73.50	20.51	-26.8	-28.2	15.6	0.00e+00	0	43	102	1048576	14	4207
2026-01-05 22:38:09.58	73.75	20.54	-26.7	-27.9	15.8	0.00e+00	0	43	102	1048576	14	4140
2026-01-05 22:38:10.59	74.00	20.57	-26.7	-27.9	15.8	0.00e+00	0	43	102	1048576	14	4131
2026-01-05 22:38:11.60	74.25	20.60	-26.8	-28.1	15.7	1.50e-06	0	43	102	1048576	14	4173
2026-01-05 22:38:12.60	74.50	20.62	-26.9	-28.2	15.6	0.00e+00	0	43	102	1048576	14	4224
2026-01-05 22:38:13.61	74.76	20.65	-26.7	-28.0	15.7	0.00e+00	0	43	102	1048576	14	4150
2026-01-05 22:38:14.62	75.01	20.68	-26.7	-28.0	15.8	0.00e+00	0	44	102	1048576	14	4150
2026-01-05 22:38:15.62	75.26	20.70	-26.7	-27.8	15.8	0.00e+00	0	44	102	1048576	14	4109
2026-01-05 22:38:16.63	75.51	20.72	-26.7	-27.8	15.8	0.00e+00	0	43	102	1048576	14	4115
2026-01-05 22:38:17.64	75.77	20.75	-26.8	-28.1	15.7	0.00e+00	0	43	102	1048576	14	4186
2026-01-05 22:38:18.65	76.02	20.77	-27.0	-28.5	15.5	0.00e+00	0	44	102	1048576	14	4303
2026-01-05 22:38:19.66	76.28	20.80	-27.1	-28.8	15.3	0.00e+00	0	43	102	1048576	14	4369
2026-01-05 22:38:20.66	76.53	20.82	-27.1	-28.8	15.3	0.00e+00	0	44	102	1048576	14	4366
2026-01-05 22:38:21.67	76.78	20.84	-27.1	-28.8	15.3	0.00e+00	0	43	102	1048576	14	4369
2026-01-05 22:38:22.68	77.04	20.86	-27.1	-28.8	15.3	0.00e+00	0	43	102	1048576	14	4395
2026-01-05 22:38:23.69	77.30	20.88	-27.3	-29.2	15.0	0.00e+00	0	44	102	1048576	14	4504
2026-01-05 22:38:24.70	77.55	20.90	-27.2	-29.1	15.1	0.00e+00	0	44	102	1048576	14	4467
2026-01-05 22:38:25.70	77.81	20.92	-27.4	-29.5	14.9	7.00e-07	0	43	102	1048576	14	4591
2026-01-05 22:38:26.71	78.07	20.94	-27.1	-28.9	15.2	0.00e+00	0	43	102	1048576	14	4416
2026-01-05 22:38:27.71	78.32	20.96	-26.9	-28.4	15.5	4.42e-05	0	43	102	1048576	14	4255
2026-01-05 22:38:28.72	78.58	20.98	-26.7	-28.0	15.7	0.00e+00	0	43	102	1048576	14	4157
2026-01-05 22:38:29.72	78.83	20.99	-26.7	-27.8	15.8	1.55e-04	0	43	102	1048576	14	4110
2026-01-05 22:38:30.73	79.09	21.01	-26.7	-27.8	15.8	0.00e+00	0	44	102	1048576	14	4109
2026-01-05 22:38:31.73	79.35	21.03	-26.6	-27.7	15.8	0.00e+00	0	43	102	1048576	14	4092
2026-01-05 22:38:32.74	79.61	21.04	-26.7	-28.0	15.8	7.07e-04	0	43	102	1048576	14	4152
2026-01-05 22:38:33.74	79.86	21.06	-26.6	-28.2	15.8	1.09e-03	0	43	102	1048576	13	4340
2026-01-05 22:38:34.75	80.12	21.07	-26.7	-28.3	15.8	0.00e+00	0	43	102	1048576	13	4363
2026-01-05 22:38:35.75	80.38	21.09	-26.9	-28.9	15.5	1.46e-03	0	44	102	1048576	13	4514
2026-01-05 22:38:36.76	80.64	21.10	-26.8	-28.6	15.6	0.00e+00	0	43	102	1048576	13	4436
2026-01-05 22:38:37.77	80.90	21.11	-26.6	-28.2	15.9	0.00e+00	0	43	102	1048576	13	4313
2026-01-05 22:38:38.78	81.16	21.13	-26.6	-28.1	15.9	1.00e-03	0	44	102	1048576	13	4304
2026-01-05 22:38:39.77	81.42	21.14	-26.6	-28.1	15.9	8.29e-04	0	44	102	1048576	13	4302
2026-01-05 22:38:40.78	81.68	21.15	-26.5	-28.0	16.0	0.00e+00	0	43	102	1048576	13	4266
2026-01-05 22:38:41.78	81.93	21.16	-26.6	-28.1	15.9	0.00e+00	0	44	102	1048576	13	4306
2026-01-05 22:38:42.79	82.20	21.17	-26.6	-28.2	15.9	3.72e-04	0	43	102	1048576	13	4318
2026-01-05 22:38:43.79	82.45	21.18	-26.7	-28.3	15.8	0.00e+00	0	43	102	1048576	13	4365
2026-01-05 22:38:44.80	82.72	21.19	-26.6	-28.2	15.9	1.18e-04	0	44	102	1048576	13	4325
2026-01-05 22:38:45.80	82.98	21.19	-26.6	-28.3	15.8	6.10e-06	0	44	102	1048576	13	4345
2026-01-05 22:38:46.81	83.24	21.20	-26.5	-27.9	16.0	0.00e+00	0	43	102	1048576	13	4242
2026-01-05 22:38:47.82	83.50	21.21	-26.5	-27.9	16.1	0.00e+00	0	44	102	1048576	13	4232
2026-01-05 22:38:48.83	83.76	21.22	-26.4	-27.8	16.1	2.74e-05	0	44	102	1048576	13	4209
2026-01-05 22:38:49.84	84.02	21.22	-26.5	-27.9	16.0	0.00e+00	0	43	102	1048576	13	4253
2026-01-05 22:38:50.84	84.28	21.23	-26.5	-28.0	16.0	1.39e-04	0	43	102	1048576	13	4259
2026-01-05 22:38:51.85	84.54	21.23	-26.6	-28.2	15.9	3.50e-05	0	44	102	1048576	13	4319
2026-01-05 22:38:52.85	84.80	21.23	-26.5	-28.0	16.0	0.00e+00	0	43	102	1048576	13	4279
2026-01-05 22:38:53.86	85.07	21.24	-26.5	-28.0	15.9	0.00e+00	0	44	102	1048576	13	4279
2026-01-05 22:38:54.87	85.33	21.24	-26.5	-28.0	16.0	0.00e+00	0	44	102	1048576	13	4267
2026-01-05 22:38:55.88	85.59	21.24	-26.5	-28.0	15.9	0.00e+00	0	43	102	1048576	13	4277
2026-01-05 22:38:56.88	85.85	21.24	-26.6	-28.2	15.9	0.00e+00	0	44	102	1048576	13	4339
2026-01-05 22:38:57.89	86.11	21.25	-26.6	-28.3	15.8	0.00e+00	0	44	102	1048576	13	4348
2026-01-05 22:38:58.90	86.38	21.25	-26.7	-28.4	15.7	0.00e+00	0	44	102	1048576	13	4390
2026-01-05 22:38:59.91	86.64	21.25	-26.6	-28.2	15.8	0.00e+00	0	44	102	1048576	13	4340
2026-01-05 22:39:00.91	86.90	21.25	-26.7	-28.4	15.7	0.00e+00	0	44	102	1048576	13	4392
2026-01-05 22:39:01.92	87.16	21.24	-26.5	-28.1	16.0	0.00e+00	0	43	102	1048576	13	4289
2026-01-05 22:39:02.92	87.42	21.24	-26.5	-28.0	16.0	0.00e+00	0	44	102	1048576	13	4273
2026-01-05 22:39:03.93	87.68	21.24	-26.7	-28.3	15.8	0.00e+00	0	44	102	1048576	13	4359
2026-01-05 22:39:04.93	87.94	21.24	-26.6	-28.3	15.8	0.00e+00	0	44	102	1048576	13	4345
2026-01-05 22:39:05.95	88.21	21.23	-26.9	-28.8	15.5	0.00e+00	0	44	102	1048576	13	4501
2026-01-05 22:39:06.95	88.47	21.23	-26.8	-28.8	15.5	0.00e+00	0	43	102	1048576	13	4484
2026-01-05 22:39:07.96	88.73	21.22	-26.9	-28.8	15.5	0.00e+00	0	44	102	1048576	13	4499
2026-01-05 22:39:08.96	88.99	21.22	-26.9	-28.8	15.5	0.00e+00	0	43	102	1048576	13	4505
2026-01-05 22:39:09.96	89.25	21.21	-27.0	-28.7	15.4	0.00e+00	0	44	102	1048576	14	4337
2026-01-05 22:39:10.97	89.51	21.20	-26.8	-28.2	15.6	0.00e+00	0	44	102	1048576	14	4205
2026-01-05 22:39:11.98	89.77	21.20	-26.7	-27.9	15.7	0.00e+00	0	43	102	1048576	14	4147
2026-01-05 22:39:12.99	90.04	21.19	-26.6	-27.7	15.9	0.00e+00	0	43	102	1048576	14	4094
2026-01-05 22:39:14.00	90.30	21.18	-26.8	-28.1	15.7	0.00e+00	0	44	102	1048576	14	4196
2026-01-05 22:39:15.00	90.56	21.17	-26.7	-28.0	15.7	0.00e+00	0	43	102	1048576	14	4158
2026-01-05 22:39:16.00	90.82	21.16	-26.6	-27.8	15.9	0.00e+00	0	43	102	1048576	14	4104
2026-01-05 22:39:17.02	91.08	21.15	-26.6	-27.6	16.0	7.00e-07	0	43	102	1048576	14	4051
2026-01-05 22:39:18.03	91.34	21.14	-26.6	-27.6	15.9	0.00e+00	0	44	102	1048576	14	4049
2026-01-05 22:39:19.04	91.60	21.13	-26.6	-27.7	15.9	0.00e+00	0	44	102	1048576	14	4094
2026-01-05 22:39:20.04	91.86	21.12	-26.7	-27.9	15.8	1.50e-06	0	44	102	1048576	14	4134
2026-01-05 22:39:21.05	92.12	21.10	-26.5	-27.6	16.0	0.00e+00	0	43	102	1048576	14	4050
2026-01-05 22:39:22.06	92.38	21.09	-26.6	-27.7	15.9	0.00e+00	0	43	102	1048576	14	4084
2026-01-05 22:39:23.07	92.64	21.08	-26.7	-27.8	15.8	0.00e+00	0	43	102	1048576	14	4112
2026-01-05 22:39:24.07	92.90	21.06	-26.6	-27.8	15.9	0.00e+00	0	43	102	1048576	14	4102
2026-01-05 22:39:25.08	93.16	21.05	-26.9	-28.3	15.5	0.00e+00	0	43	102	1048576	14	4248
2026-01-05 22:39:26.09	93.42	21.03	-26.9	-28.4	15.5	0.00e+00	0	44	102	1048576	14	4260
2026-01-05 22:39:27.10	93.68	21.02	-27.1	-28.7	15.3	0.00e+00	0	43	102	1048576	14	4367
2026-01-05 22:39:28.10	93.93	21.00	-27.0	-28.6	15.4	0.00e+00	0	44	102	1048576	14	4338
2026-01-05 22:39:29.11	94.19	20.98	-26.8	-28.1	15.6	0.00e+00	0	44	102	1048576	14	4201
2026-01-05 22:39:30.11	94.45	20.97	-26.9	-28.3	15.5	0.00e+00	0	44	102	1048576	14	4245
2026-01-05 22:39:31.12	94.70	20.95	-27.0	-28.7	15.3	0.00e+00	0	44	102	1048576	14	4349
2026-01-05 22:39:32.13	94.96	20.93	-26.9	-28.4	15.5	0.00e+00	0	44	102	1048576	14	4262
2026-01-05 22:39:33.14	95.22	20.91	-27.2	-29.0	15.1	0.00e+00	0	44	102	1048576	14	4448
2026-01-05 22:39:34.14	95.47	20.89	-27.0	-28.6	15.4	0.00e+00	0	43	102	1048576	14	4318
2026-01-05 22:39:35.15	95.73	20.87	-26.8	-28.2	15.6	0.00e+00	0	44	102	1048576	14	4215
2026-01-05 22:39:36.16	95.99	20.85	-26.7	-27.9	15.8	0.00e+00	0	44	102	1048576	14	4127
2026-01-05 22:39:37.16	96.24	20.83	-26.7	-27.9	15.8	0.00e+00	0	43	102	1048576	14	4122
2026-01-05 22:39:38.17	96.50	20.80	-26.5	-27.4	16.0	0.00e+00	0	44	102	1048576	14	4012
2026-01-05 22:39:39.18	96.75	20.78	-26.4	-27.2	16.1	0.00e+00	0	44	102	1048576	14	3958
2026-01-05 22:39:40.19	97.01	20.76	-26.4	-27.3	16.1	0.00e+00	0	43	102	1048576	14	3993
2026-01-05 22:39:41.19	97.26	20.73	-26.5	-27.4	16.0	0.00e+00	0	43	102	1048576	14	4016
2026-01-05 22:39:42.20	97.51	20.71	-26.4	-27.3	16.1	0.00e+00	0	44	102	1048576	14	3981
2026-01-05 22:39:43.20	97.77	20.68	-26.4	-27.3	16.1	0.00e+00	0	44	102	1048576	14	3972
2026-01-05 22:39:44.21	98.02	20.66	-26.4	-27.3	16.0	0.00e+00	0	44	102	1048576	14	3990
2026-01-05 22:39:45.22	98.27	20.63	-26.6	-27.7	15.8	1.06e-05	0	44	102	1048576	14	4079
2026-01-05 22:39:46.22	98.52	20.61	-26.7	-27.9	15.7	0.00e+00	0	44	102	1048576	14	4148
2026-01-05 22:39:47.22	98.77	20.58	-26.8	-28.1	15.6	0.00e+00	0	44	102	1048576	14	4195
2026-01-05 22:39:48.23	99.02	20.55	-26.9	-28.4	15.5	0.00e+00	0	44	102	1048576	14	4264
2026-01-05 22:39:49.23	99.27	20.52	-26.9	-28.3	15.5	0.00e+00	0	44	102	1048576	14	4246
2026-01-05 22:39:50.23	99.52	20.50	-27.0	-28.5	15.4	3.28e-05	0	44	102	1048576	14	4293
2026-01-05 22:39:51.24	99.77	20.47	-26.9	-28.3	15.5	0.00e+00	0	44	102	1048576	14	4245
2026-01-05 22:39:52.24	100.02	20.44	-26.8	-28.2	15.6	0.00e+00	0	44	102	1048576	14	4219
2026-01-05 22:39:53.24	100.27	20.41	-26.8	-28.0	15.7	0.00e+00	0	44	102	1048576	14	4168
2026-01-05 22:39:54.25	100.51	20.38	-26.8	-28.1	15.6	0.00e+00	0	44	102	1048576	14	4190
2026-01-05 22:39:55.26	100.76	20.34	-26.6	-27.7	15.9	0.00e+00	0	44	102	1048576	14	4084
2026-01-05 22:39:56.27	101.01	20.31	-26.6	-27.6	15.9	5.34e-05	0	43	102	1048576	14	4065
2026-01-05 22:39:57.28	101.26	20.28	-26.7	-27.8	15.8	0.00e+00	0	44	102	1048576	14	4116
2026-01-05 22:39:58.28	101.50	20.25	-26.4	-27.3	16.1	0.00e+00	0	44	102	1048576	14	3978
2026-01-05 22:39:59.29	101.75	20.22	-26.4	-27.3	16.1	0.00e+00	0	44	102	1048576	14	3967
2026-01-05 22:40:00.28	101.99	20.18	-26.5	-27.5	16.0	0.00e+00	0	44	102	1048576	14	4028
2026-01-05 22:40:01.27	102.23	20.15	-26.6	-27.6	15.9	0.00e+00	0	44	102	1048576	14	4054
2026-01-05 22:40:02.28	102.48	20.11	-26.6	-27.6	15.9	7.00e-07	0	44	102	1048576	14	4048
2026-01-05 22:40:03.28	102.72	20.08	-26.6	-27.6	15.9	0.00e+00	0	44	102	1048576	14	4048
2026-01-05 22:40:04.29	102.96	20.04	-26.5	-27.5	16.0	0.00e+00	0	44	102	1048576	14	4019
2026-01-05 22:40:05.30	103.21	20.01	-26.4	-27.2	16.1	3.05e-05	0	44	102	1048576	14	3945
2026-01-05 22:40:06.31	103.45	19.97	-26.3	-27.1	16.2	5.79e-05	0	43	102	1048576	14	3929
2026-01-05 22:40:07.32	103.69	19.94	-26.4	-27.3	16.1	0.00e+00	0	44	102	1048576	14	3974
2026-01-05 22:40:08.32	103.93	19.90	-26.5	-27.4	16.0	7.70e-05	0	44	102	1048576	14	4006
2026-01-05 22:40:09.33	104.17	19.86	-26.5	-27.5	16.0	0.00e+00	0	43	102	1048576	14	4018
2026-01-05 22:40:10.33	104.41	19.82	-26.5	-27.4	16.0	0.00e+00	0	44	102	1048576	14	3992
2026-01-05 22:40:11.34	104.65	19.78	-26.4	-27.3	16.1	9.61e-05	0	44	102	1048576	14	3979
2026-01-05 22:40:12.35	104.89	19.75	-26.5	-27.4	16.0	1.11e-04	0	44	102	1048576	14	4016
2026-01-05 22:40:13.35	105.13	19.71	-26.5	-27.5	15.9	0.00e+00	0	44	102	1048576	14	4030
2026-01-05 22:40:14.35	105.36	19.67	-26.5	-27.6	15.9	0.00e+00	0	43	102	1048576	14	4049
2026-01-05 22:40:15.37	105.60	19.63	-26.5	-27.5	15.9	0.00e+00	0	43	102	1048576	14	4042
2026-01-05 22:40:16.37	105.84	19.59	-26.5	-27.4	16.0	0.00e+00	0	44	102	1048576	14	3997
2026-01-05 22:40:17.38	106.07	19.54	-26.5	-27.5	15.9	2.36e-05	0	44	102	1048576	14	4031
2026-01-05 22:40:18.38	106.31	19.50	-26.5	-27.6	15.9	5.95e-05	0	44	102	1048576	14	4054
2026-01-05 22:40:19.39	106.54	19.46	-26.5	-27.4	16.0	6.10e-06	0	44	102	1048576	14	4010
2026-01-05 22:40:20.40	106.78	19.42	-26.5	-27.5	15.9	0.00e+00	0	43	102	1048576	14	4042
2026-01-05 22:40:21.41	107.01	19.38	-26.6	-27.8	15.8	0.00e+00	0	44	102	1048576	14	4105
2026-01-05 22:40:22.42	107.24	19.33	-26.6	-27.7	15.8	0.00e+00	0	44	102	1048576	14	4089
2026-01-05 22:40:23.42	107.47	19.29	-26.6	-27.8	15.8	4.19e-05	0	44	102	1048576	14	4109
2026-01-05 22:40:24.42	107.70	19.25	-26.6	-27.8	15.8	0.00e+00	0	44	102	1048576	14	4108
2026-01-05 22:40:25.43	107.93	19.20	-26.7	-27.9	15.7	6.10e-06	0	43	102	1048576	14	4143
2026-01-05 22:40:26.44	108.17	19.16	-26.7	-28.0	15.6	0.00e+00	0	44	102	1048576	14	4162
2026-01-05 22:40:27.45	108.40	19.11	-26.7	-28.0	15.6	2.52e-04	0	44	102	1048576	14	4170
2026-01-05 22:40:28.46	108.62	19.07	-26.7	-27.8	15.7	8.30e-06	0	44	102	1048576	14	4116
2026-01-05 22:40:29.46	108.85	19.02	-26.7	-27.8	15.7	0.00e+00	0	44	102	1048576	14	4125
2026-01-05 22:40:30.46	109.08	18.98	-26.7	-27.9	15.7	0.00e+00	0	43	102	1048576	14	4134
2026-01-05 22:40:31.47	109.30	18.93	-26.6	-27.8	15.8	5.30e-06	0	43	102	1048576	14	4104
2026-01-05 22:40:32.47	109.53	18.88	-26.8	-28.2	15.5	1.50e-06	0	44	102	1048576	14	4208
2026-01-05 22:40:33.48	109.75	18.84	-26.9	-28.4	15.4	0.00e+00	0	44	102	1048576	14	4273
2026-01-05 22:40:34.48	109.98	18.79	-26.9	-28.3	15.5	6.80e-06	0	44	102	1048576	14	4257
2026-01-05 22:40:35.49	110.20	18.74	-26.8	-28.3	15.5	0.00e+00	0	44	102	1048576	14	4237
2026-01-05 22:40:36.50	110.43	18.69	-27.0	-28.6	15.3	0.00e+00	0	44	102	1048576	14	4321
2026-01-05 22:40:37.50	110.65	18.65	-26.9	-28.3	15.5	0.00e+00	0	44	102	1048576	14	4248
2026-01-05 22:40:38.51	110.87	18.60	-26.8	-28.2	15.5	0.00e+00	0	44	102	1048576	14	4216
2026-01-05 22:40:39.52	111.09	18.55	-26.8	-28.2	15.5	0.00e+00	0	44	102	1048576	14	4234
2026-01-05 22:40:40.53	111.31	18.50	-26.8	-28.0	15.5	7.60e-06	0	44	102	1048576	14	4179
2026-01-05 22:40:41.54	111.53	18.45	-26.7	-27.9	15.6	0.00e+00	0	44	102	1048576	14	4149
2026-01-05 22:40:42.55	111.75	18.40	-26.6	-27.8	15.7	0.00e+00	0	44	102	1048576	14	4107
2026-01-05 22:40:43.56	111.97	18.35	-26.7	-27.8	15.7	0.00e+00	0	44	102	1048576	14	4122
2026-01-05 22:40:44.56	112.19	18.30	-26.6	-27.6	15.8	0.00e+00	0	44	102	1048576	14	4067
2026-01-05 22:40:45.57	112.41	18.25	-26.4	-27.3	16.0	0.00e+00	0	44	102	1048576	14	3995
2026-01-05 22:40:46.57	112.62	18.20	-26.5	-27.6	15.8	0.00e+00	0	44	102	1048576	14	4051
2026-01-05 22:40:47.58	112.84	18.14	-26.7	-28.0	15.6	0.00e+00	0	44	102	1048576	14	4164
2026-01-05 22:40:48.58	113.05	18.09	-26.8	-28.2	15.5	0.00e+00	0	44	102	1048576	14	4214
2026-01-05 22:40:49.59	113.27	18.04	-26.9	-28.4	15.4	0.00e+00	0	44	102	1048576	14	4283
2026-01-05 22:40:50.60	113.48	17.99	-27.1	-28.8	15.2	0.00e+00	0	44	102	1048576	14	4374
2026-01-05 22:40:51.60	113.69	17.94	-27.1	-28.9	15.1	0.00e+00	0	44	102	1048576	14	4410
2026-01-05 22:40:52.61	113.90	17.88	-27.1	-28.9	15.1	0.00e+00	0	44	102	1048576	14	4413
2026-01-05 22:40:53.61	114.11	17.83	-27.2	-29.0	15.0	0.00e+00	0	44	102	1048576	14	4444
2026-01-05 22:40:54.62	114.33	17.78	-27.1	-28.9	15.1	0.00e+00	0	43	102	1048576	14	4410
2026-01-05 22:40:55.63	114.54	17.72	-27.1	-28.8	15.2	0.00e+00	0	44	102	1048576	14	4385
2026-01-05 22:40:56.63	114.74	17.67	-27.0	-28.7	15.2	0.00e+00	0	43	102	1048576	14	4350
2026-01-05 22:40:57.64	114.95	17.62	-27.2	-29.1	15.0	7.00e-07	0	43	102	1048576	14	4472
2026-01-05 22:40:58.65	115.16	17.56	-27.1	-28.9	15.1	0.00e+00	0	44	102	1048576	14	4424
2026-01-05 22:40:59.65	115.37	17.51	-27.0	-28.7	15.2	7.00e-07	0	43	102	1048576	14	4366
2026-01-05 22:41:00.65	115.57	17.45	-27.1	-28.9	15.1	0.00e+00	0	44	102	1048576	14	4406
2026-01-05 22:41:01.66	115.78	17.40	-27.1	-28.9	15.0	7.00e-07	0	44	102	1048576	14	4428
2026-01-05 22:41:02.67	115.98	17.34	-27.2	-29.1	14.9	0.00e+00	0	44	102	1048576	14	4479
2026-01-05 22:41:03.68	116.19	17.29	-27.2	-29.0	15.0	0.00e+00	0	44	102	1048576	14	4457
2026-01-05 22:41:04.69	116.39	17.23	-27.3	-29.3	14.8	7.00e-07	0	44	102	1048576	14	4525
2026-01-05 22:41:05.69	116.59	17.18	-27.4	-29.6	14.7	7.00e-07	0	44	102	1048576	14	4618
2026-01-05 22:41:06.70	116.80	17.12	-27.5	-29.3	14.5	0.00e+00	0	44	102	1048576	15	4430
2026-01-05 22:41:07.71	117.00	17.06	-27.7	-29.8	14.2	7.00e-07	0	44	102	1048576	15	4590
2026-01-05 22:41:08.71	117.20	17.01	-27.6	-29.4	14.4	0.00e+00	0	44	102	1048576	15	4467
2026-01-05 22:41:09.72	117.40	16.95	-27.3	-28.9	14.7	7.00e-07	0	44	102	1048576	15	4325
2026-01-05 22:41:10.73	117.60	16.89	-27.2	-28.6	14.9	0.00e+00	0	44	102	1048576	15	4221
2026-01-05 22:41:11.73	117.79	16.84	-27.2	-28.6	15.0	0.00e+00	0	44	102	1048576	15	4227
2026-01-05 22:41:12.74	117.99	16.78	-27.1	-28.4	15.0	0.00e+00	0	44	102	1048576	15	4171
2026-01-05 22:41:13.74	118.19	16.72	-27.0	-28.2	15.2	0.00e+00	0	44	102	1048576	15	4114
2026-01-05 22:41:14.75	118.38	16.66	-27.1	-28.3	15.1	0.00e+00	0	44	102	1048576	15	4156
2026-01-05 22:41:15.76	118.58	16.61	-27.2	-28.7	14.9	0.00e+00	0	43	102	1048576	15	4251
2026-01-05 22:41:16.75	118.77	16.55	-27.3	-28.8	14.8	0.00e+00	0	44	102	1048576	15	4275
2026-01-05 22:41:17.76	118.97	16.49	-27.3	-28.8	14.8	8.69e-05	0	44	102	1048576	15	4288
2026-01-05 22:41:18.78	119.16	16.43	-27.3	-28.8	14.8	0.00e+00	0	44	102	1048576	15	4297
2026-01-05 22:41:19.78	119.35	16.37	-27.3	-28.9	14.7	0.00e+00	0	44	102	1048576	15	4317
2026-01-05 22:41:20.79	119.55	16.31	-27.4	-29.1	14.6	0.00e+00	0	44	102	1048576	15	4357
2026-01-05 22:41:21.79	119.74	16.26	-27.4	-29.0	14.6	0.00e+00	0	44	102	1048576	15	4345
2026-01-05 22:41:22.79	119.92	16.20	-27.4	-29.0	14.7	2.89e-05	0	43	102	1048576	15	4335
2026-01-05 22:41:23.80	120.11	16.14	-27.3	-28.9	14.7	3.80e-06	0	44	102	1048576	15	4303
2026-01-05 22:41:24.81	120.30	16.08	-27.3	-28.8	14.8	7.00e-07	0	44	102	1048576	15	4295
2026-01-05 22:41:25.81	120.49	16.02	-27.5	-29.3	14.5	7.00e-07	0	44	102	1048576	15	4423
2026-01-05 22:41:26.82	120.68	15.96	-27.3	-28.9	14.7	2.20e-06	0	44	102	1048576	15	4317
2026-01-05 22:41:27.83	120.87	15.90	-27.3	-28.9	14.7	0.00e+00	0	44	102	1048576	15	4325
2026-01-05 22:41:28.83	121.05	15.84	-27.4	-29.0	14.6	3.00e-06	0	44	102	1048576	15	4361
2026-01-05 22:41:29.84	121.24	15.78	-27.4	-29.1	14.6	1.98e-05	0	44	102	1048576	15	4379
2026-01-05 22:41:30.85	121.42	15.72	-27.4	-29.2	14.5	0.00e+00	0	44	102	1048576	15	4395
2026-01-05 22:41:31.86	121.61	15.66	-27.4	-29.0	14.6	4.04e-05	0	44	102	1048576	15	4361
2026-01-05 22:41:32.86	121.79	15.60	-27.4	-29.0	14.6	4.50e-06	0	43	102	1048576	15	4356
2026-01-05 22:41:33.87	121.97	15.54	-27.4	-29.1	14.6	1.50e-06	0	44	102	1048576	15	4369
2026-01-05 22:41:34.88	122.15	15.48	-27.2	-28.6	14.8	0.00e+00	0	44	102	1048576	15	4235
2026-01-05 22:41:35.89	122.33	15.42	-27.2	-28.7	14.8	0.00e+00	0	44	102	1048576	15	4255
2026-01-05 22:41:36.89	122.51	15.35	-27.1	-28.5	14.9	0.00e+00	0	44	102	1048576	15	4200
2026-01-05 22:41:37.90	122.69	15.29	-27.3	-28.8	14.7	0.00e+00	0	44	102	1048576	15	4284
2026-01-05 22:41:38.91	122.87	15.23	-27.2	-28.5	14.8	0.00e+00	0	44	102	1048576	15	4219
2026-01-05 22:41:39.91	123.05	15.17	-27.2	-28.5	14.9	5.30e-06	0	44	102	1048576	15	4201
2026-01-05 22:41:40.92	123.23	15.11	-27.3	-28.7	14.7	5.95e-05	0	44	102	1048576	15	4276
2026-01-05 22:41:41.93	123.40	15.05	-27.2	-28.6	14.8	0.00e+00	0	44	102	1048576	15	4230
2026-01-05 22:41:42.93	123.58	14.99	-27.2	-28.6	14.8	0.00e+00	0	43	102	1048576	15	4246
2026-01-05 22:41:43.95	123.76	14.92	-27.2	-28.7	14.7	6.56e-04	0	44	102	1048576	15	4273
2026-01-05 22:41:44.96	123.93	14.86	-27.2	-29.2	14.7	7.54e-04	0	44	102	1048576	14	4524
2026-01-05 22:41:45.96	124.10	14.80	-27.1	-29.0	14.9	0.00e+00	0	44	102	1048576	14	4447
2026-01-05 22:41:46.97	124.28	14.74	-27.1	-28.9	14.9	0.00e+00	0	44	102	1048576	14	4435
2026-01-05 22:41:47.98	124.45	14.68	-27.2	-29.1	14.8	0.00e+00	0	44	102	1048576	14	4474
2026-01-05 22:41:48.98	124.62	14.62	-27.2	-29.1	14.8	0.00e+00	0	44	102	1048576	14	4491
2026-01-05 22:41:49.99	124.79	14.55	-27.2	-29.2	14.7	1.80e-04	0	44	102	1048576	14	4506
2026-01-05 22:41:50.99	124.96	14.49	-27.5	-29.3	14.3	8.69e-05	0	44	102	1048576	15	4444
2026-01-05 22:41:52.00	125.13	14.43	-27.2	-28.7	14.7	0.00e+00	0	44	102	1048576	15	4276
2026-01-05 22:41:53.01	125.30	14.37	-27.1	-28.5	14.8	0.00e+00	0	43	102	1048576	15	4211
2026-01-05 22:41:54.02	125.47	14.30	-27.1	-28.4	14.8	0.00e+00	0	43	102	1048576	15	4191
2026-01-05 22:41:55.02	125.64	14.24	-27.2	-28.6	14.8	7.00e-07	0	44	102	1048576	15	4232
2026-01-05 22:41:56.03	125.80	14.18	-27.1	-28.4	14.9	4.73e-05	0	44	102	1048576	15	4179
2026-01-05 22:41:57.03	125.97	14.12	-26.9	-28.0	15.1	0.00e+00	0	43	102	1048576	15	4084
2026-01-05 22:41:58.04	126.14	14.05	-27.1	-28.3	14.9	0.00e+00	0	44	102	1048576	15	4150
2026-01-05 22:41:59.05	126.30	13.99	-27.1	-28.3	14.9	0.00e+00	0	44	102	1048576	15	4165
2026-01-05 22:42:00.06	126.47	13.93	-27.2	-28.6	14.7	7.00e-07	0	44	102	1048576	15	4241
2026-01-05 22:42:01.06	126.63	13.87	-27.1	-28.4	14.8	0.00e+00	0	44	102	1048576	15	4193
2026-01-05 22:42:02.07	126.79	13.80	-27.2	-28.7	14.7	0.00e+00	0	44	102	1048576	15	4266
2026-01-05 22:42:03.08	126.95	13.74	-27.5	-29.5	14.2	7.00e-07	0	44	102	1048576	15	4481
2026-01-05 22:42:04.08	127.12	13.68	-27.5	-29.3	14.3	0.00e+00	0	43	102	1048576	15	4446
2026-01-05 22:42:05.09	127.28	13.61	-27.6	-29.6	14.1	2.20e-06	0	44	102	1048576	15	4531
2026-01-05 22:42:06.09	127.44	13.55	-27.5	-29.4	14.2	0.00e+00	0	44	102	1048576	15	4460
2026-01-05 22:42:07.10	127.60	13.49	-27.4	-29.1	14.4	0.00e+00	0	44	102	1048576	15	4384
2026-01-05 22:42:08.11	127.76	13.42	-27.5	-29.5	14.2	1.26e-04	0	44	102	1048576	15	4491
2026-01-05 22:42:09.11	127.91	13.36	-27.5	-29.5	14.2	7.00e-07	0	44	102	1048576	15	4497
2026-01-05 22:42:10.11	128.07	13.30	-27.6	-29.7	14.0	3.80e-06	0	43	102	1048576	15	4564
2026-01-05 22:42:11.12	128.23	13.24	-27.6	-29.5	14.1	1.50e-06	0	44	102	1048576	15	4513
2026-01-05 22:42:12.13	128.38	13.17	-27.6	-29.6	14.1	3.00e-06	0	44	102	1048576	15	4525
2026-01-05 22:42:13.14	128.54	13.11	-27.6	-29.7	14.0	3.00e-06	0	44	102	1048576	15	4556
2026-01-05 22:42:14.15	128.69	13.04	-27.8	-30.1	13.7	1.17e-04	0	44	102	1048576	15	4702
2026-01-05 22:42:15.15	128.85	12.98	-27.7	-29.8	13.9	4.50e-05	0	44	102	1048576	15	4609
2026-01-05 22:42:16.16	129.00	12.92	-27.8	-30.0	13.8	3.80e-06	0	44	102	1048576	15	4650
2026-01-05 22:42:17.17	129.16	12.85	-27.8	-30.0	13.8	3.00e-06	0	44	102	1048576	15	4648
2026-01-05 22:42:18.18	129.31	12.79	-27.8	-30.1	13.7	2.20e-06	0	44	102	1048576	15	4700
2026-01-05 22:42:19.19	129.46	12.73	-27.8	-30.2	13.6	5.30e-06	0	44	102	1048576	15	4715
2026-01-05 22:42:20.19	129.61	12.66	-27.8	-30.1	13.7	3.80e-06	0	44	102	1048576	15	4703
2026-01-05 22:42:21.20	129.76	12.60	-27.8	-30.1	13.7	1.06e-05	0	44	102	1048576	15	4691
2026-01-05 22:42:22.21	129.91	12.54	-27.8	-30.1	13.7	8.30e-06	0	44	102	1048576	15	4690
2026-01-05 22:42:23.21	130.06	12.47	-27.7	-30.0	13.8	6.80e-06	0	44	102	1048576	15	4651
2026-01-05 22:42:24.22	130.21	12.41	-27.7	-29.9	13.8	5.30e-06	0	44	102	1048576	15	4631
2026-01-05 22:42:25.23	130.36	12.35	-27.6	-29.5	14.0	7.00e-07	0	44	102	1048576	15	4520
2026-01-05 22:42:26.23	130.50	12.28	-27.6	-29.6	14.0	1.50e-06	0	44	102	1048576	15	4525
2026-01-05 22:42:27.24	130.65	12.22	-27.6	-29.5	14.0	1.50e-06	0	43	102	1048576	15	4520
2026-01-05 22:42:28.25	130.80	12.16	-27.6	-29.6	14.0	3.00e-06	0	44	102	1048576	15	4531
2026-01-05 22:42:29.25	130.94	12.09	-27.7	-29.8	13.9	1.50e-06	0	44	102	1048576	15	4588
2026-01-05 22:42:30.25	131.09	12.03	-27.8	-30.1	13.6	6.10e-06	0	44	102	1048576	15	4704
2026-01-05 22:42:31.25	131.23	11.97	-27.6	-29.7	13.9	7.00e-07	0	44	102	1048576	15	4586
2026-01-05 22:42:32.26	131.38	11.90	-27.7	-29.9	13.8	1.50e-06	0	44	102	1048576	15	4628
2026-01-05 22:42:33.26	131.52	11.84	-27.8	-30.1	13.6	6.80e-06	0	44	102	1048576	15	4687
2026-01-05 22:42:34.26	131.66	11.78	-27.7	-29.8	13.8	7.60e-06	0	44	102	1048576	15	4616
2026-01-05 22:42:35.27	131.80	11.71	-27.8	-30.1	13.6	3.00e-06	0	44	102	1048576	15	4698
2026-01-05 22:42:36.28	131.94	11.65	-27.9	-30.3	13.4	7.60e-06	0	44	102	1048576	15	4773
2026-01-05 22:42:37.28	132.08	11.59	-28.0	-30.6	13.3	1.44e-05	0	44	102	1048576	15	4870
2026-01-05 22:42:38.29	132.22	11.52	-27.9	-30.4	13.4	8.30e-06	0	44	102	1048576	15	4804
2026-01-05 22:42:39.29	132.36	11.46	-28.3	-30.7	13.1	1.75e-05	0	44	102	1048576	16	4772
2026-01-05 22:42:40.30	132.50	11.40	-28.1	-30.4	13.3	1.83e-05	0	44	102	1048576	16	4683
2026-01-05 22:42:41.31	132.64	11.33	-28.1	-30.2	13.4	2.21e-05	0	44	102	1048576	16	4614
2026-01-05 22:42:42.32	132.78	11.27	-28.1	-30.3	13.3	1.75e-05	0	44	102	1048576	16	4645
2026-01-05 22:42:43.32	132.92	11.21	-28.1	-30.4	13.3	1.44e-05	0	44	102	1048576	16	4654
2026-01-05 22:42:44.33	133.05	11.14	-28.2	-30.7	13.1	9.69e-04	0	44	102	1048576	16	4752
2026-01-05 22:42:45.34	133.19	11.08	-28.2	-30.5	13.2	2.97e-05	0	44	102	1048576	16	4720
2026-01-05 22:42:46.34	133.32	11.02	-28.3	-30.9	12.9	5.79e-05	0	44	102	1048576	16	4842
2026-01-05 22:42:47.35	133.46	10.95	-28.2	-30.5	13.2	2.89e-05	0	44	102	1048576	16	4692
2026-01-05 22:42:48.36	133.60	10.89	-28.4	-31.0	12.8	3.50e-05	0	44	102	1048576	16	4886
2026-01-05 22:42:49.37	133.73	10.83	-28.4	-31.2	12.7	7.38e-04	0	43	102	1048576	16	4949
2026-01-05 22:42:50.38	133.86	10.76	-28.4	-31.2	12.7	6.00e-04	0	44	102	1048576	16	4939
2026-01-05 22:42:51.38	134.00	10.70	-28.6	-31.1	12.5	1.27e-04	0	44	102	1048576	17	4804
2026-01-05 22:42:52.39	134.13	10.64	-28.6	-31.0	12.5	1.41e-04	0	44	102	1048576	17	4772
2026-01-05 22:42:53.40	134.26	10.57	-28.6	-31.0	12.5	1.19e-04	0	44	102	1048576	17	4780
2026-01-05 22:42:54.40	134.39	10.51	-28.6	-31.1	12.5	9.30e-05	0	44	102	1048576	17	4797
2026-01-05 22:42:55.41	134.52	10.45	-28.5	-30.9	12.6	2.50e-04	0	44	102	1048576	17	4728
2026-01-05 22:42:56.42	134.65	10.38	-28.6	-31.1	12.4	2.31e-04	0	44	102	1048576	17	4807
2026-01-05 22:42:57.43	134.78	10.32	-28.7	-31.4	12.2	2.64e-04	0	44	102	1048576	17	4920
2026-01-05 22:42:58.44	134.91	10.26	-28.4	-30.6	12.7	1.88e-04	0	43	102	1048576	17	4657
2026-01-05 22:42:59.44	135.04	10.19	-28.3	-30.4	12.8	1.99e-04	0	44	102	1048576	17	4587
2026-01-05 22:43:00.45	135.17	10.13	-28.1	-30.0	13.1	3.89e-05	0	44	102	1048576	17	4448
2026-01-05 22:43:01.45	135.29	10.07	-28.3	-30.3	12.9	2.27e-04	0	43	102	1048576	17	4555
2026-01-05 22:43:02.46	135.42	10.01	-28.4	-30.5	12.8	3.04e-04	0	44	102	1048576	17	4614
2026-01-05 22:43:03.46	135.55	9.94	-28.3	-30.3	12.9	5.49e-05	0	44	102	1048576	17	4562
2026-01-05 22:43:04.47	135.67	9.88	-28.3	-30.4	12.8	7.09e-05	0	44	102	1048576	17	4595
2026-01-05 22:43:05.48	135.80	9.82	-28.3	-30.4	12.8	3.37e-04	0	44	102	1048576	17	4585
2026-01-05 22:43:06.49	135.92	9.75	-28.3	-30.3	12.8	4.80e-05	0	44	102	1048576	17	4554
2026-01-05 22:43:07.49	136.05	9.69	-28.3	-30.4	12.8	2.78e-04	0	44	102	1048576	17	4585
2026-01-05 22:43:08.50	136.17	9.63	-28.2	-30.1	13.0	2.58e-04	0	44	102	1048576	17	4491
2026-01-05 22:43:09.51	136.30	9.57	-28.3	-30.5	12.7	6.17e-05	0	43	102	1048576	17	4606
2026-01-05 22:43:10.51	136.42	9.50	-28.3	-30.5	12.7	6.17e-05	0	44	102	1048576	17	4601
2026-01-05 22:43:11.52	136.54	9.44	-28.4	-30.7	12.6	6.43e-04	0	44	102	1048576	17	4679
2026-01-05 22:43:12.53	136.66	9.38	-28.3	-30.5	12.7	7.09e-05	0	43	102	1048576	17	4613
2026-01-05 22:43:13.54	136.78	9.32	-28.4	-30.6	12.6	7.43e-04	0	44	102	1048576	17	4643
2026-01-05 22:43:14.55	136.91	9.25	-28.4	-31.1	12.6	1.18e-04	0	44	102	1048576	16	4925
2026-01-05 22:43:15.55	137.02	9.19	-28.4	-31.1	12.6	8.69e-05	0	44	102	1048576	16	4941
2026-01-05 22:43:16.56	137.14	9.13	-28.4	-31.3	12.5	1.01e-04	0	44	102	1048576	16	4981
2026-01-05 22:43:17.56	137.26	9.07	-28.5	-30.9	12.4	1.27e-04	0	44	102	1048576	17	4747
2026-01-05 22:43:18.57	137.38	9.01	-28.4	-30.8	12.4	1.17e-04	0	43	102	1048576	17	4722
2026-01-05 22:43:19.57	137.50	8.94	-28.4	-30.7	12.5	2.07e-04	0	43	102	1048576	17	4695
2026-01-05 22:43:20.58	137.62	8.88	-28.4	-30.8	12.4	1.07e-04	0	44	102	1048576	17	4719
2026-01-05 22:43:21.59	137.74	8.82	-28.4	-30.6	12.5	1.27e-04	0	44	102	1048576	17	4669
2026-01-05 22:43:22.59	137.85	8.76	-28.7	-31.4	12.0	2.17e-04	0	44	102	1048576	17	4941
2026-01-05 22:43:23.60	137.97	8.70	-28.6	-31.1	12.1	3.19e-04	0	44	102	1048576	17	4838
2026-01-05 22:43:24.61	138.09	8.63	-28.5	-31.0	12.2	2.55e-04	0	44	102	1048576	17	4792
2026-01-05 22:43:25.61	138.20	8.57	-28.4	-30.8	12.3	1.90e-04	0	44	102	1048576	17	4734
2026-01-05 22:43:26.61	138.31	8.51	-28.6	-31.2	12.1	2.12e-04	0	44	102	1048576	17	4852
2026-01-05 22:43:27.62	138.43	8.45	-28.6	-31.3	12.1	2.78e-04	0	44	102	1048576	17	4887
2026-01-05 22:43:28.63	138.54	8.39	-28.6	-31.3	12.1	3.06e-04	0	44	102	1048576	17	4882
2026-01-05 22:43:29.64	138.66	8.32	-28.6	-31.2	12.0	3.17e-04	0	44	102	1048576	17	4881
2026-01-05 22:43:30.65	138.77	8.26	-28.5	-31.1	12.1	2.12e-04	0	44	102	1048576	17	4838
2026-01-05 22:43:31.65	138.88	8.20	-28.4	-30.9	12.3	2.59e-04	0	44	102	1048576	17	4754
2026-01-05 22:43:32.65	138.99	8.14	-28.3	-30.6	12.4	1.20e-04	0	44	102	1048576	17	4678
2026-01-05 22:43:33.65	139.11	8.08	-28.5	-30.9	12.2	2.40e-04	0	44	102	1048576	17	4772
2026-01-05 22:43:34.66	139.22	8.02	-28.4	-30.7	12.3	1.43e-04	0	44	102	1048576	17	4699
2026-01-05 22:43:35.67	139.33	7.96	-28.4	-30.9	12.2	1.87e-04	0	43	102	1048576	17	4766
2026-01-05 22:43:36.67	139.44	7.90	-28.4	-30.8	12.2	2.61e-04	0	44	102	1048576	17	4750
2026-01-05 22:43:37.67	139.55	7.84	-28.5	-31.1	12.1	2.66e-04	0	43	102	1048576	17	4835
2026-01-05 22:43:38.68	139.66	7.77	-28.5	-31.2	11.9	3.34e-04	0	44	102	1048576	17	4877
2026-01-05 22:43:39.69	139.77	7.71	-28.5	-31.1	12.0	3.33e-04	0	44	102	1048576	17	4840
2026-01-05 22:43:40.69	139.87	7.65	-28.4	-30.8	12.1	2.33e-04	0	44	102	1048576	17	4760
2026-01-05 22:43:41.69	139.98	7.59	-28.2	-30.4	12.3	1.67e-04	0	44	102	1048576	17	4641
2026-01-05 22:43:42.70	140.09	7.53	-28.3	-30.5	12.3	1.36e-04	0	44	102	1048576	17	4684
2026-01-05 22:43:43.71	140.20	7.47	-28.3	-30.6	12.2	2.21e-04	0	44	102	1048576	17	4692
2026-01-05 22:43:44.72	140.30	7.41	-28.3	-31.1	12.2	1.99e-04	0	44	102	1048576	16	5001
2026-01-05 22:43:45.72	140.41	7.35	-28.3	-31.3	12.0	3.05e-04	0	44	102	1048576	16	5076
2026-01-05 22:43:46.73	140.52	7.29	-28.5	-31.3	11.7	5.76e-04	0	44	102	1048576	17	4946
2026-01-05 22:43:47.74	140.62	7.23	-28.4	-30.9	12.0	3.62e-04	0	44	102	1048576	17	4825
2026-01-05 22:43:48.74	140.73	7.17	-28.6	-31.4	11.6	5.43e-04	0	44	102	1048576	17	4992
2026-01-05 22:43:49.75	140.83	7.11	-28.7	-31.8	11.3	8.82e-04	0	44	102	1048576	17	5152
2026-01-05 22:43:50.76	140.94	7.05	-32.4	-44.3	3.8	1.49e+00	0	44	104	1048576	24	14190
2026-01-05 22:43:51.77	141.04	6.99	-33.0	-45.3	3.8	1.49e+00	0	44	104	1048576	25	14835
2026-01-05 22:43:52.78	141.15	6.93	-33.3	-45.5	3.8	1.49e+00	0	44	104	1048576	26	14597
2026-01-05 22:43:53.78	141.25	6.87	-33.5	-45.4	3.8	1.49e+00	0	44	104	1048576	27	14133

#Closed at: 2026-01-05 22:43:54
#Recorded file [1 MB]: D:/data/31010_260106_013406.dat