passes_logs/2026/01/05/R2M6_AANII_01/R2M6_AANII_01__20260105_232403_NOAA_20_JPSS-1_rec.log

#Pass ID: 20260105_232403_NOAA 20 (JPSS-1)
#Satellite: NOAA 20 (JPSS-1)
#Configuration: NOAA 20
#almurnet v.1.7.20240730
#Start time: 2026-01-05 23:24:04

#Version: 2.2.20231116
#Station: R2M6_AANII_01
#Location: 30.233357 lon 59.946436 lat
#TLE: 1 43013U 17073A   26005.46207808  .00000128  00000+0  81791-4 0  9997
#TLE: 2 43013  98.7627 306.5027 0001826  53.0458 307.0885 14.19533487421381

#Time	Az	El	Level	Level2	SNR	BER	BlckErr	Temp	State	Recorded	gain1	gain2
2026-01-05 23:24:04.60	24.05	7.11	-31.0	-37.0	5.1	1.25e+00	0	41	0	0	22	7141
2026-01-05 23:24:05.60	24.11	7.19	-31.2	-37.9	4.9	1.30e+00	0	41	104	0	22	7776
2026-01-05 23:24:06.60	24.17	7.26	-31.3	-38.1	7.3	1.10e-01	0	41	0	0	22	7900
2026-01-05 23:24:07.60	24.22	7.33	-31.1	-37.2	8.0	7.15e-02	0	41	102	1048576	22	7262
2026-01-05 23:24:08.61	24.28	7.40	-31.0	-36.5	8.7	5.16e-02	0	41	102	1048576	22	6792
2026-01-05 23:24:09.63	24.34	7.48	-31.0	-37.0	8.6	4.04e-02	0	41	102	1048576	21	7198
2026-01-05 23:24:10.64	24.40	7.55	-30.9	-36.9	8.7	3.43e-02	0	41	102	1048576	21	7156
2026-01-05 23:24:11.64	24.46	7.63	-30.9	-36.7	8.9	2.66e-02	0	41	102	1048576	21	7017
2026-01-05 23:24:12.65	24.52	7.70	-30.8	-36.1	9.3	2.76e-02	0	41	102	1048576	21	6690
2026-01-05 23:24:13.66	24.58	7.78	-30.6	-35.7	9.6	1.67e-02	0	41	102	1048576	21	6432
2026-01-05 23:24:14.66	24.64	7.85	-30.6	-35.5	9.8	1.05e-02	0	41	102	1048576	21	6332
2026-01-05 23:24:15.67	24.70	7.92	-30.5	-35.3	9.9	1.02e-02	0	41	102	1048576	21	6249
2026-01-05 23:24:16.68	24.76	8.00	-30.6	-35.5	9.8	8.79e-03	0	42	102	1048576	21	6318
2026-01-05 23:24:17.69	24.82	8.08	-30.6	-35.5	9.8	1.25e-02	0	42	102	1048576	21	6359
2026-01-05 23:24:18.69	24.88	8.15	-30.6	-35.4	9.9	9.40e-03	0	42	102	1048576	21	6293
2026-01-05 23:24:19.70	24.94	8.23	-30.8	-36.2	9.3	1.23e-02	0	42	102	1048576	21	6711
2026-01-05 23:24:20.70	25.00	8.30	-30.7	-36.1	9.3	2.06e-02	0	42	102	1048576	21	6675
2026-01-05 23:24:21.71	25.06	8.38	-30.6	-35.6	9.8	1.20e-02	0	42	102	1048576	21	6365
2026-01-05 23:24:22.71	25.12	8.45	-30.4	-35.3	10.4	7.53e-03	0	42	102	1048576	20	6318
2026-01-05 23:24:23.72	25.19	8.53	-30.4	-35.3	10.4	5.16e-03	0	42	102	1048576	20	6356
2026-01-05 23:24:24.72	25.25	8.61	-30.3	-35.0	10.6	3.80e-03	0	42	102	1048576	20	6168
2026-01-05 23:24:25.73	25.31	8.68	-30.3	-35.1	10.5	3.83e-03	0	42	102	1048576	20	6232
2026-01-05 23:24:26.74	25.38	8.76	-30.4	-35.2	10.5	3.83e-03	0	42	102	1048576	20	6255
2026-01-05 23:24:27.74	25.44	8.84	-30.4	-35.2	10.5	3.75e-03	0	42	102	1048576	20	6273
2026-01-05 23:24:28.75	25.50	8.91	-30.3	-35.0	10.6	3.89e-03	0	42	102	1048576	20	6189
2026-01-05 23:24:29.76	25.57	8.99	-30.5	-35.2	10.2	4.25e-03	0	42	102	1048576	21	6147
2026-01-05 23:24:30.77	25.63	9.07	-30.5	-34.9	10.4	6.65e-03	0	42	102	1048576	21	6019
2026-01-05 23:24:31.78	25.70	9.15	-30.4	-35.3	10.4	4.14e-03	0	42	102	1048576	20	6330
2026-01-05 23:24:32.79	25.76	9.23	-30.4	-35.2	10.6	3.97e-03	0	42	102	1048576	20	6264
2026-01-05 23:24:33.80	25.83	9.31	-30.5	-35.5	10.3	3.92e-03	0	42	102	1048576	20	6436
2026-01-05 23:24:34.80	25.89	9.38	-30.7	-35.6	9.9	7.92e-03	0	42	102	1048576	21	6382
2026-01-05 23:24:35.81	25.96	9.46	-30.6	-35.7	9.8	1.05e-02	0	42	102	1048576	21	6410
2026-01-05 23:24:36.82	26.03	9.54	-30.5	-35.2	10.2	7.99e-03	0	42	102	1048576	21	6177
2026-01-05 23:24:37.83	26.09	9.62	-30.8	-36.3	9.3	1.47e-02	0	42	102	1048576	21	6789
2026-01-05 23:24:38.83	26.16	9.70	-30.7	-35.8	9.7	1.55e-02	0	42	102	1048576	21	6490
2026-01-05 23:24:39.84	26.23	9.78	-30.7	-35.8	9.8	1.09e-02	0	42	102	1048576	21	6476
2026-01-05 23:24:40.85	26.30	9.86	-30.9	-36.6	9.2	2.08e-02	0	42	102	1048576	21	6903
2026-01-05 23:24:41.85	26.36	9.94	-30.8	-36.2	9.4	1.91e-02	0	42	102	1048576	21	6706
2026-01-05 23:24:42.86	26.43	10.02	-30.6	-35.5	10.0	1.33e-02	0	42	102	1048576	21	6291
2026-01-05 23:24:43.87	26.50	10.10	-30.6	-35.4	10.1	8.62e-03	0	42	102	1048576	21	6260
2026-01-05 23:24:44.87	26.57	10.18	-30.7	-35.5	10.0	9.41e-03	0	42	102	1048576	21	6317
2026-01-05 23:24:45.88	26.64	10.26	-30.7	-35.8	9.8	8.34e-03	0	42	102	1048576	21	6480
2026-01-05 23:24:46.88	26.71	10.35	-30.7	-35.6	10.0	1.11e-02	0	42	102	1048576	21	6342
2026-01-05 23:24:47.89	26.78	10.43	-30.4	-35.2	10.7	5.46e-03	0	42	102	1048576	20	6238
2026-01-05 23:24:48.90	26.85	10.51	-30.3	-34.7	11.1	2.48e-03	0	42	102	1048576	20	5983
2026-01-05 23:24:49.90	26.92	10.59	-30.1	-34.1	11.5	1.12e-03	0	42	102	1048576	20	5717
2026-01-05 23:24:50.91	26.99	10.67	-30.1	-34.1	11.6	2.37e-03	0	42	102	1048576	20	5671
2026-01-05 23:24:51.92	27.06	10.76	-30.0	-33.6	11.9	5.30e-04	0	42	102	1048576	20	5478
2026-01-05 23:24:52.93	27.14	10.84	-30.0	-33.7	11.8	4.87e-04	0	42	102	1048576	20	5520
2026-01-05 23:24:53.94	27.21	10.92	-30.0	-33.7	11.9	1.99e-03	0	42	102	1048576	20	5503
2026-01-05 23:24:54.95	27.28	11.01	-30.2	-34.2	11.5	6.85e-04	0	42	102	1048576	20	5752
2026-01-05 23:24:55.95	27.36	11.09	-30.0	-33.6	11.9	6.09e-04	0	43	102	1048576	20	5487
2026-01-05 23:24:56.96	27.43	11.17	-29.9	-33.8	12.2	1.60e-03	0	42	102	1048576	19	5647
2026-01-05 23:24:57.97	27.50	11.26	-30.0	-33.6	11.9	3.31e-04	0	43	102	1048576	20	5476
2026-01-05 23:24:58.98	27.58	11.34	-30.2	-34.2	11.6	1.79e-03	0	43	102	1048576	20	5714
2026-01-05 23:24:59.98	27.65	11.43	-30.0	-33.6	12.0	5.69e-04	0	43	102	1048576	20	5464
2026-01-05 23:25:00.99	27.73	11.51	-29.8	-33.2	12.3	2.45e-04	0	42	102	1048576	20	5295
2026-01-05 23:25:02.00	27.80	11.60	-29.7	-33.4	12.5	1.40e-03	0	43	102	1048576	19	5458
2026-01-05 23:25:03.01	27.88	11.68	-29.8	-33.7	12.4	1.11e-04	0	43	102	1048576	19	5588
2026-01-05 23:25:04.01	27.96	11.77	-29.9	-33.7	12.3	1.76e-04	0	42	102	1048576	19	5624
2026-01-05 23:25:05.02	28.03	11.85	-29.8	-33.6	12.4	1.30e-03	0	42	102	1048576	19	5581
2026-01-05 23:25:06.03	28.11	11.94	-29.9	-33.7	12.4	1.33e-03	0	43	102	1048576	19	5596
2026-01-05 23:25:07.03	28.19	12.03	-29.8	-33.5	12.5	1.27e-04	0	43	102	1048576	19	5510
2026-01-05 23:25:08.03	28.27	12.11	-29.8	-33.5	12.5	1.29e-03	0	43	102	1048576	19	5532
2026-01-05 23:25:09.03	28.34	12.20	-29.8	-33.6	12.4	1.41e-03	0	42	102	1048576	19	5578
2026-01-05 23:25:10.04	28.42	12.29	-30.0	-34.1	12.1	1.90e-04	0	43	102	1048576	19	5755
2026-01-05 23:25:11.04	28.50	12.37	-29.9	-33.7	12.3	1.35e-03	0	43	102	1048576	19	5614
2026-01-05 23:25:12.05	28.58	12.46	-29.8	-33.6	12.4	1.25e-03	0	43	102	1048576	19	5579
2026-01-05 23:25:13.06	28.66	12.55	-29.8	-33.6	12.4	1.32e-04	0	43	102	1048576	19	5552
2026-01-05 23:25:14.06	28.74	12.64	-30.0	-34.1	12.1	1.20e-03	0	43	102	1048576	19	5752
2026-01-05 23:25:15.07	28.83	12.73	-29.9	-33.7	12.4	1.35e-03	0	43	102	1048576	19	5586
2026-01-05 23:25:16.08	28.91	12.81	-30.0	-34.0	12.2	1.51e-04	0	43	102	1048576	19	5711
2026-01-05 23:25:17.09	28.99	12.90	-30.0	-33.8	11.9	1.70e-03	0	43	102	1048576	20	5546
2026-01-05 23:25:18.10	29.07	12.99	-30.3	-34.7	11.3	2.07e-03	0	43	102	1048576	20	5961
2026-01-05 23:25:19.10	29.16	13.08	-30.1	-34.0	11.8	8.26e-04	0	43	102	1048576	20	5624
2026-01-05 23:25:20.11	29.24	13.17	-29.8	-33.6	12.5	2.55e-04	0	43	102	1048576	19	5552
2026-01-05 23:25:21.12	29.32	13.26	-29.7	-33.1	12.9	1.66e-03	0	43	102	1048576	19	5325
2026-01-05 23:25:22.12	29.41	13.35	-29.6	-32.9	13.0	3.73e-05	0	43	102	1048576	19	5279
2026-01-05 23:25:23.13	29.49	13.44	-29.6	-33.0	12.9	1.65e-03	0	43	102	1048576	19	5284
2026-01-05 23:25:24.14	29.58	13.54	-29.5	-32.6	13.2	1.98e-03	0	43	102	1048576	19	5139
2026-01-05 23:25:25.14	29.67	13.63	-29.5	-32.6	13.1	4.33e-04	0	43	102	1048576	19	5164
2026-01-05 23:25:26.15	29.75	13.72	-29.5	-32.7	13.1	1.51e-03	0	43	102	1048576	19	5198
2026-01-05 23:25:27.16	29.84	13.81	-29.5	-32.7	13.1	1.74e-03	0	43	102	1048576	19	5175
2026-01-05 23:25:28.17	29.93	13.90	-29.5	-32.7	13.1	4.42e-04	0	43	102	1048576	19	5177
2026-01-05 23:25:29.17	30.02	13.99	-29.7	-33.1	12.8	1.39e-03	0	43	102	1048576	19	5349
2026-01-05 23:25:30.18	30.10	14.09	-29.6	-32.9	13.0	4.37e-04	0	43	102	1048576	19	5279
2026-01-05 23:25:31.19	30.19	14.18	-29.6	-33.0	12.9	4.25e-04	0	43	102	1048576	19	5290
2026-01-05 23:25:32.20	30.28	14.27	-29.5	-32.7	13.1	1.48e-03	0	43	102	1048576	19	5195
2026-01-05 23:25:33.20	30.37	14.37	-29.5	-32.7	13.1	3.11e-04	0	43	102	1048576	19	5200
2026-01-05 23:25:34.21	30.47	14.46	-29.6	-33.0	12.9	2.47e-04	0	43	102	1048576	19	5318
2026-01-05 23:25:35.22	30.56	14.56	-29.9	-33.7	12.4	1.63e-03	0	43	102	1048576	19	5608
2026-01-05 23:25:36.22	30.65	14.65	-29.7	-33.1	12.9	1.62e-03	0	43	102	1048576	19	5359
2026-01-05 23:25:37.23	30.74	14.75	-29.8	-33.3	12.7	8.46e-05	0	43	102	1048576	19	5444
2026-01-05 23:25:38.24	30.83	14.84	-29.9	-33.6	12.5	1.68e-03	0	43	102	1048576	19	5553
2026-01-05 23:25:39.25	30.93	14.94	-29.7	-33.2	12.9	1.59e-03	0	43	102	1048576	19	5361
2026-01-05 23:25:40.25	31.02	15.03	-29.7	-33.1	12.9	6.71e-05	0	43	102	1048576	19	5338
2026-01-05 23:25:41.26	31.12	15.13	-29.6	-32.9	13.0	1.54e-03	0	43	102	1048576	19	5253
2026-01-05 23:25:42.27	31.21	15.23	-29.6	-32.9	13.0	1.52e-03	0	43	102	1048576	19	5262
2026-01-05 23:25:43.28	31.31	15.32	-29.7	-33.2	12.9	3.66e-05	0	43	102	1048576	19	5360
2026-01-05 23:25:44.28	31.41	15.42	-29.7	-33.2	12.9	5.72e-05	0	43	102	1048576	19	5363
2026-01-05 23:25:45.29	31.50	15.52	-29.6	-32.9	13.1	1.50e-03	0	43	102	1048576	19	5261
2026-01-05 23:25:46.29	31.60	15.61	-29.5	-32.5	13.3	5.18e-05	0	43	102	1048576	19	5107
2026-01-05 23:25:47.30	31.70	15.71	-29.4	-32.4	13.4	1.83e-05	0	43	102	1048576	19	5061
2026-01-05 23:25:48.30	31.80	15.81	-29.5	-32.5	13.3	1.47e-03	0	43	102	1048576	19	5086
2026-01-05 23:25:49.31	31.90	15.91	-29.6	-32.7	13.2	1.23e-04	0	43	102	1048576	19	5179
2026-01-05 23:25:50.31	32.00	16.01	-29.6	-32.7	13.2	2.89e-05	0	43	102	1048576	19	5192
2026-01-05 23:25:51.32	32.10	16.11	-29.6	-32.8	13.2	3.30e-04	0	43	102	1048576	19	5209
2026-01-05 23:25:52.33	32.20	16.21	-29.8	-33.4	12.7	4.26e-04	0	43	102	1048576	19	5458
2026-01-05 23:25:53.33	32.30	16.31	-29.6	-32.9	13.1	3.50e-05	0	43	102	1048576	19	5247
2026-01-05 23:25:54.34	32.41	16.41	-29.7	-33.1	13.0	4.81e-04	0	43	102	1048576	19	5333
2026-01-05 23:25:55.35	32.51	16.51	-29.8	-33.4	12.8	6.32e-04	0	43	102	1048576	19	5426
2026-01-05 23:25:56.36	32.61	16.61	-29.8	-33.3	12.8	4.95e-05	0	43	102	1048576	19	5396
2026-01-05 23:25:57.37	32.72	16.71	-29.8	-33.4	12.8	4.80e-05	0	43	102	1048576	19	5425
2026-01-05 23:25:58.37	32.82	16.81	-29.8	-33.0	12.6	5.95e-04	0	43	102	1048576	20	5197
2026-01-05 23:25:59.38	32.93	16.91	-29.7	-32.5	13.0	5.03e-04	0	43	102	1048576	20	4998
2026-01-05 23:26:00.39	33.04	17.02	-29.7	-33.2	12.9	3.96e-05	0	43	102	1048576	19	5365
2026-01-05 23:26:01.39	33.14	17.12	-29.7	-33.1	13.0	3.89e-05	0	43	102	1048576	19	5329
2026-01-05 23:26:02.40	33.25	17.22	-29.7	-33.2	12.9	5.13e-04	0	43	102	1048576	19	5351
2026-01-05 23:26:03.41	33.36	17.33	-29.8	-33.3	12.9	4.95e-05	0	43	102	1048576	19	5402
2026-01-05 23:26:04.42	33.47	17.43	-29.7	-33.1	13.0	4.19e-05	0	43	102	1048576	19	5336
2026-01-05 23:26:05.42	33.58	17.53	-29.7	-33.0	13.0	3.96e-05	0	43	102	1048576	19	5290
2026-01-05 23:26:06.42	33.69	17.64	-29.8	-33.3	12.9	4.34e-05	0	43	102	1048576	19	5390
2026-01-05 23:26:07.43	33.81	17.74	-29.7	-33.1	13.0	4.42e-05	0	43	102	1048576	19	5319
2026-01-05 23:26:08.43	33.92	17.85	-29.7	-33.0	13.0	4.42e-05	0	43	102	1048576	19	5297
2026-01-05 23:26:09.44	34.03	17.95	-29.8	-33.2	12.9	9.06e-04	0	43	102	1048576	19	5371
2026-01-05 23:26:10.45	34.15	18.06	-29.7	-33.2	13.0	4.34e-05	0	43	102	1048576	19	5354
2026-01-05 23:26:11.45	34.26	18.16	-29.7	-33.0	13.1	3.43e-05	0	43	102	1048576	19	5270
2026-01-05 23:26:12.45	34.37	18.27	-29.7	-33.1	13.0	4.10e-04	0	43	102	1048576	19	5313
2026-01-05 23:26:13.46	34.49	18.38	-29.7	-33.0	13.1	4.19e-05	0	43	102	1048576	19	5287
2026-01-05 23:26:14.47	34.61	18.48	-29.7	-33.2	13.0	3.43e-05	0	43	102	1048576	19	5351
2026-01-05 23:26:15.47	34.73	18.59	-29.6	-32.9	13.2	4.50e-05	0	43	102	1048576	19	5219
2026-01-05 23:26:16.48	34.85	18.70	-29.8	-33.4	12.8	5.72e-05	0	43	102	1048576	19	5450
2026-01-05 23:26:17.49	34.97	18.81	-29.9	-33.5	12.8	6.86e-05	0	43	102	1048576	19	5483
2026-01-05 23:26:18.49	35.09	18.92	-29.9	-33.6	12.7	6.25e-05	0	43	102	1048576	19	5510
2026-01-05 23:26:19.50	35.21	19.02	-30.1	-33.7	12.2	1.51e-04	0	43	102	1048576	20	5471
2026-01-05 23:26:20.51	35.33	19.13	-30.1	-33.7	12.2	3.20e-04	0	43	102	1048576	20	5483
2026-01-05 23:26:21.51	35.45	19.24	-30.1	-33.8	12.2	2.00e-04	0	43	102	1048576	20	5489
2026-01-05 23:26:22.52	35.58	19.35	-30.3	-34.4	11.8	2.17e-04	0	43	102	1048576	20	5773
2026-01-05 23:26:23.53	35.70	19.46	-30.5	-34.5	11.3	8.54e-04	0	43	102	1048576	21	5721
2026-01-05 23:26:24.53	35.83	19.57	-30.5	-34.5	11.3	1.58e-03	0	43	102	1048576	21	5696
2026-01-05 23:26:25.53	35.95	19.68	-30.8	-35.5	10.6	1.76e-03	0	43	102	1048576	21	6186
2026-01-05 23:26:26.54	36.08	19.80	-30.8	-35.5	10.6	4.10e-03	0	43	102	1048576	21	6160
2026-01-05 23:26:27.55	36.21	19.91	-30.5	-34.4	11.4	1.40e-03	0	43	102	1048576	21	5643
2026-01-05 23:26:28.55	36.34	20.02	-30.2	-34.1	11.7	6.41e-04	0	43	102	1048576	20	5705
2026-01-05 23:26:29.56	36.47	20.13	-30.1	-33.8	11.9	2.37e-04	0	43	102	1048576	20	5509
2026-01-05 23:26:30.56	36.60	20.25	-30.0	-33.7	12.4	8.01e-05	0	43	102	1048576	19	5568
2026-01-05 23:26:31.57	36.73	20.36	-30.0	-33.3	12.5	8.46e-05	0	43	102	1048576	20	5290
2026-01-05 23:26:32.58	36.86	20.47	-30.0	-33.5	12.0	1.23e-04	0	43	102	1048576	20	5355
2026-01-05 23:26:33.58	37.00	20.59	-30.1	-33.9	11.9	1.66e-04	0	43	102	1048576	20	5526
2026-01-05 23:26:34.59	37.13	20.70	-30.2	-34.1	11.8	3.76e-04	0	43	102	1048576	20	5614
2026-01-05 23:26:35.59	37.27	20.82	-30.1	-33.8	12.0	2.55e-04	0	43	102	1048576	20	5505
2026-01-05 23:26:36.60	37.41	20.93	-30.2	-34.1	12.0	5.16e-04	0	43	102	1048576	20	5640
2026-01-05 23:26:37.61	37.54	21.05	-30.3	-34.2	12.0	3.32e-04	0	43	102	1048576	20	5644
2026-01-05 23:26:38.61	37.68	21.16	-30.2	-34.0	12.1	2.54e-04	0	43	102	1048576	20	5570
2026-01-05 23:26:39.62	37.82	21.28	-30.3	-34.4	11.9	4.17e-04	0	44	102	1048576	20	5731
2026-01-05 23:26:40.62	37.96	21.40	-30.3	-34.2	12.0	3.65e-04	0	43	102	1048576	20	5657
2026-01-05 23:26:41.63	38.10	21.51	-30.2	-33.9	12.2	2.73e-04	0	43	102	1048576	20	5523
2026-01-05 23:26:42.63	38.25	21.63	-30.2	-34.1	12.1	2.27e-04	0	43	102	1048576	20	5596
2026-01-05 23:26:43.63	38.39	21.75	-30.1	-33.8	12.3	4.34e-04	0	43	102	1048576	20	5486
2026-01-05 23:26:44.63	38.53	21.86	-30.2	-33.8	12.3	1.93e-04	0	43	102	1048576	20	5490
2026-01-05 23:26:45.64	38.68	21.98	-30.1	-33.8	12.3	1.94e-04	0	43	102	1048576	20	5474
2026-01-05 23:26:46.64	38.83	22.10	-30.2	-34.0	12.2	3.82e-04	0	43	102	1048576	20	5564
2026-01-05 23:26:47.65	38.98	22.22	-30.1	-33.7	12.3	2.51e-04	0	43	102	1048576	20	5439
2026-01-05 23:26:48.66	39.13	22.34	-30.0	-33.2	12.7	1.34e-04	0	43	102	1048576	20	5252
2026-01-05 23:26:49.66	39.27	22.46	-29.9	-33.0	12.9	3.29e-04	0	43	102	1048576	20	5171
2026-01-05 23:26:50.66	39.43	22.58	-29.9	-33.6	12.8	5.24e-04	0	43	102	1048576	19	5510
2026-01-05 23:26:51.66	39.58	22.70	-29.9	-33.5	12.9	5.41e-05	0	44	102	1048576	19	5464
2026-01-05 23:26:52.67	39.73	22.82	-29.8	-33.1	13.2	3.05e-05	0	43	102	1048576	19	5298
2026-01-05 23:26:53.67	39.89	22.94	-29.8	-33.3	13.1	3.65e-04	0	43	102	1048576	19	5365
2026-01-05 23:26:54.68	40.04	23.06	-29.7	-33.0	13.3	1.80e-04	0	43	102	1048576	19	5246
2026-01-05 23:26:55.69	40.20	23.19	-29.7	-32.8	13.4	2.05e-05	0	43	102	1048576	19	5183
2026-01-05 23:26:56.70	40.36	23.31	-29.7	-32.9	13.3	1.24e-04	0	43	102	1048576	19	5225
2026-01-05 23:26:57.71	40.52	23.43	-29.7	-32.8	13.4	2.97e-05	0	43	102	1048576	19	5182
2026-01-05 23:26:58.72	40.68	23.56	-29.6	-32.7	13.5	1.83e-05	0	43	102	1048576	19	5130
2026-01-05 23:26:59.71	40.84	23.68	-29.6	-32.7	13.5	1.07e-04	0	43	102	1048576	19	5142
2026-01-05 23:27:00.72	41.01	23.80	-29.6	-32.8	13.4	3.73e-05	0	43	102	1048576	19	5167
2026-01-05 23:27:01.72	41.17	23.93	-29.6	-32.8	13.4	1.29e-05	0	43	102	1048576	19	5163
2026-01-05 23:27:02.72	41.33	24.05	-29.8	-33.1	13.2	8.30e-06	0	43	102	1048576	19	5281
2026-01-05 23:27:03.73	41.50	24.18	-29.6	-32.8	13.5	1.44e-05	0	43	102	1048576	19	5163
2026-01-05 23:27:04.73	41.67	24.30	-29.7	-32.8	13.5	9.90e-06	0	44	102	1048576	19	5191
2026-01-05 23:27:05.73	41.84	24.43	-29.7	-33.0	13.3	8.30e-06	0	43	102	1048576	19	5247
2026-01-05 23:27:06.74	42.01	24.55	-29.6	-32.8	13.5	1.29e-05	0	43	102	1048576	19	5167
2026-01-05 23:27:07.74	42.18	24.68	-29.6	-32.7	13.5	9.15e-05	0	43	102	1048576	19	5141
2026-01-05 23:27:08.75	42.36	24.81	-29.8	-33.3	13.1	1.37e-05	0	43	102	1048576	19	5353
2026-01-05 23:27:09.75	42.53	24.93	-30.0	-33.4	12.7	1.25e-04	0	43	102	1048576	20	5288
2026-01-05 23:27:10.75	42.71	25.06	-29.9	-33.1	12.8	1.06e-04	0	43	102	1048576	20	5184
2026-01-05 23:27:11.76	42.89	25.19	-30.2	-33.9	12.3	1.91e-04	0	43	102	1048576	20	5521
2026-01-05 23:27:12.76	43.07	25.31	-30.2	-33.8	12.4	1.78e-04	0	43	102	1048576	20	5483
2026-01-05 23:27:13.77	43.25	25.44	-29.9	-33.1	12.8	9.76e-05	0	43	102	1048576	20	5195
2026-01-05 23:27:14.77	43.43	25.57	-29.9	-32.9	13.0	5.49e-05	0	43	102	1048576	20	5126
2026-01-05 23:27:15.78	43.61	25.70	-29.8	-32.8	13.1	3.28e-05	0	43	102	1048576	20	5068
2026-01-05 23:27:16.78	43.80	25.83	-30.1	-33.5	12.6	1.01e-04	0	43	102	1048576	20	5338
2026-01-05 23:27:17.79	43.98	25.96	-29.9	-33.0	12.9	1.37e-04	0	43	102	1048576	20	5151
2026-01-05 23:27:18.79	44.17	26.09	-29.7	-32.5	13.3	1.19e-04	0	44	102	1048576	20	4975
2026-01-05 23:27:19.80	44.36	26.22	-29.8	-32.7	13.2	1.90e-05	0	43	102	1048576	20	5020
2026-01-05 23:27:20.81	44.55	26.35	-29.9	-33.0	13.0	1.20e-04	0	43	102	1048576	20	5139
2026-01-05 23:27:21.80	44.74	26.48	-30.3	-34.1	12.2	2.27e-04	0	44	102	1048576	20	5604
2026-01-05 23:27:22.81	44.94	26.61	-30.2	-33.9	12.3	2.84e-04	0	43	102	1048576	20	5502
2026-01-05 23:27:23.82	45.14	26.75	-30.1	-33.7	12.6	1.09e-04	0	43	102	1048576	20	5408
2026-01-05 23:27:24.83	45.33	26.88	-30.0	-33.2	12.9	7.17e-05	0	43	102	1048576	20	5203
2026-01-05 23:27:25.83	45.53	27.01	-29.9	-32.9	13.1	5.41e-05	0	43	102	1048576	20	5087
2026-01-05 23:27:26.84	45.73	27.14	-30.0	-33.1	12.9	3.73e-05	0	44	102	1048576	20	5194
2026-01-05 23:27:27.85	45.94	27.28	-30.0	-33.4	12.8	3.30e-04	0	43	102	1048576	20	5283
2026-01-05 23:27:28.85	46.14	27.41	-30.0	-33.3	12.7	7.85e-05	0	43	102	1048576	20	5274
2026-01-05 23:27:29.86	46.35	27.54	-30.0	-33.4	12.8	9.07e-05	0	43	102	1048576	20	5278
2026-01-05 23:27:30.86	46.55	27.68	-30.0	-33.4	12.7	5.26e-05	0	43	102	1048576	20	5287
2026-01-05 23:27:31.87	46.76	27.81	-30.1	-33.5	12.7	7.78e-05	0	43	102	1048576	20	5351
2026-01-05 23:27:32.88	46.98	27.94	-30.1	-33.5	12.7	1.20e-04	0	43	102	1048576	20	5324
2026-01-05 23:27:33.88	47.19	28.08	-30.2	-33.8	12.5	1.20e-04	0	43	102	1048576	20	5467
2026-01-05 23:27:34.89	47.40	28.21	-30.3	-34.1	12.3	1.65e-04	0	43	102	1048576	20	5570
2026-01-05 23:27:35.89	47.62	28.35	-30.3	-34.1	12.3	1.75e-04	0	43	102	1048576	20	5556
2026-01-05 23:27:36.89	47.83	28.48	-30.4	-34.3	12.1	1.93e-04	0	43	102	1048576	20	5672
2026-01-05 23:27:37.90	48.06	28.62	-30.3	-33.7	12.2	3.09e-04	0	43	102	1048576	21	5309
2026-01-05 23:27:38.91	48.28	28.75	-30.3	-33.6	12.3	1.75e-04	0	43	102	1048576	21	5254
2026-01-05 23:27:39.92	48.50	28.89	-30.4	-33.8	12.1	2.01e-04	0	43	102	1048576	21	5357
2026-01-05 23:27:40.93	48.73	29.03	-30.8	-35.1	11.2	6.94e-04	0	43	102	1048576	21	5923
2026-01-05 23:27:41.94	48.96	29.16	-30.7	-34.8	11.5	1.44e-03	0	44	102	1048576	21	5765
2026-01-05 23:27:42.94	49.18	29.30	-30.5	-34.1	11.9	3.83e-04	0	43	102	1048576	21	5484
2026-01-05 23:27:43.95	49.42	29.44	-30.5	-34.3	11.9	4.21e-04	0	44	102	1048576	21	5550
2026-01-05 23:27:44.95	49.65	29.57	-30.5	-34.2	11.9	4.26e-04	0	43	102	1048576	21	5538
2026-01-05 23:27:45.96	49.88	29.71	-30.6	-34.4	11.8	9.22e-04	0	43	102	1048576	21	5575
2026-01-05 23:27:46.96	50.12	29.85	-30.5	-34.1	12.0	4.39e-04	0	43	102	1048576	21	5469
2026-01-05 23:27:47.97	50.36	29.98	-30.5	-34.1	12.0	3.58e-04	0	43	102	1048576	21	5460
2026-01-05 23:27:48.98	50.60	30.12	-30.6	-34.4	11.8	4.78e-04	0	43	102	1048576	21	5584
2026-01-05 23:27:49.98	50.84	30.26	-30.4	-34.0	12.0	2.97e-04	0	43	102	1048576	21	5425
2026-01-05 23:27:50.99	51.09	30.40	-30.4	-33.9	12.1	2.40e-04	0	43	102	1048576	21	5391
2026-01-05 23:27:52.00	51.34	30.53	-30.6	-34.5	11.7	3.48e-04	0	43	102	1048576	21	5640
2026-01-05 23:27:53.01	51.59	30.67	-30.6	-34.5	11.7	4.61e-04	0	43	102	1048576	21	5656
2026-01-05 23:27:54.01	51.84	30.81	-30.8	-35.0	11.4	7.85e-04	0	43	102	1048576	21	5864
2026-01-05 23:27:55.02	52.09	30.95	-30.4	-34.0	12.0	6.32e-04	0	43	102	1048576	21	5428
2026-01-05 23:27:56.03	52.35	31.09	-30.4	-33.8	12.2	2.50e-04	0	43	102	1048576	21	5314
2026-01-05 23:27:57.03	52.60	31.22	-30.3	-33.5	12.4	1.56e-04	0	43	102	1048576	21	5200
2026-01-05 23:27:58.03	52.86	31.36	-30.3	-33.7	12.3	1.46e-04	0	43	102	1048576	21	5290
2026-01-05 23:27:59.04	53.12	31.50	-30.3	-33.7	12.3	1.17e-04	0	44	102	1048576	21	5286
2026-01-05 23:28:00.05	53.39	31.64	-30.5	-34.1	12.0	2.46e-04	0	43	102	1048576	21	5453
2026-01-05 23:28:01.06	53.66	31.78	-30.6	-34.4	11.8	4.09e-04	0	43	102	1048576	21	5593
2026-01-05 23:28:02.07	53.93	31.91	-30.8	-35.1	11.3	6.93e-04	0	44	102	1048576	21	5894
2026-01-05 23:28:03.07	54.20	32.05	-30.9	-35.5	11.0	1.55e-03	0	43	102	1048576	21	6110
2026-01-05 23:28:04.08	54.47	32.19	-31.0	-35.3	10.8	2.09e-03	0	44	102	1048576	22	5874
2026-01-05 23:28:05.09	54.75	32.33	-31.0	-35.1	11.0	1.89e-03	0	44	102	1048576	22	5810
2026-01-05 23:28:06.09	55.02	32.46	-31.0	-35.3	10.9	2.22e-03	0	43	102	1048576	22	5881
2026-01-05 23:28:07.10	55.30	32.60	-30.9	-34.8	11.2	1.38e-03	0	43	102	1048576	22	5649
2026-01-05 23:28:08.11	55.59	32.74	-31.0	-35.2	10.9	1.70e-03	0	44	102	1048576	22	5842
2026-01-05 23:28:09.12	55.87	32.88	-31.0	-35.1	11.0	2.12e-03	0	44	102	1048576	22	5800
2026-01-05 23:28:10.13	56.16	33.02	-31.2	-35.8	10.5	3.66e-03	0	43	102	1048576	22	6128
2026-01-05 23:28:11.14	56.45	33.15	-31.3	-36.3	10.1	5.13e-03	0	43	102	1048576	22	6395
2026-01-05 23:28:12.15	56.75	33.29	-31.4	-36.6	9.9	7.28e-03	0	44	102	1048576	22	6536
2026-01-05 23:28:13.16	57.04	33.43	-31.4	-36.7	9.8	9.75e-03	0	44	102	1048576	22	6613
2026-01-05 23:28:14.17	57.34	33.57	-31.5	-36.3	9.7	1.17e-02	0	44	102	1048576	23	6306
2026-01-05 23:28:15.18	57.64	33.70	-31.4	-36.2	9.8	1.18e-02	0	44	102	1048576	23	6244
2026-01-05 23:28:16.18	57.94	33.84	-31.5	-36.4	9.7	1.22e-02	0	44	102	1048576	23	6356
2026-01-05 23:28:17.19	58.25	33.97	-31.5	-36.5	9.6	1.25e-02	0	43	102	1048576	23	6410
2026-01-05 23:28:18.20	58.55	34.11	-31.7	-37.0	9.2	1.79e-02	0	44	102	1048576	23	6695
2026-01-05 23:28:19.21	58.87	34.24	-31.8	-37.6	8.8	2.84e-02	0	44	102	1048576	23	6993
2026-01-05 23:28:20.22	59.18	34.38	-31.8	-37.6	8.8	2.99e-02	0	44	102	1048576	23	7002
2026-01-05 23:28:21.22	59.49	34.51	-31.7	-37.3	9.0	2.91e-02	0	44	102	1048576	23	6833
2026-01-05 23:28:22.22	59.81	34.65	-31.6	-36.9	9.3	2.27e-02	0	43	102	1048576	23	6606
2026-01-05 23:28:23.23	60.13	34.78	-31.6	-36.9	9.3	1.66e-02	0	44	102	1048576	23	6603
2026-01-05 23:28:24.25	60.45	34.92	-31.6	-36.9	9.3	2.01e-02	0	43	102	1048576	23	6588
2026-01-05 23:28:25.25	60.78	35.05	-31.6	-36.6	9.5	1.38e-02	0	43	102	1048576	23	6452
2026-01-05 23:28:26.26	61.11	35.18	-31.5	-36.5	9.7	1.23e-02	0	44	102	1048576	23	6393
2026-01-05 23:28:27.26	61.43	35.31	-31.6	-36.9	9.3	1.54e-02	0	44	102	1048576	23	6611
2026-01-05 23:28:28.27	61.77	35.44	-31.7	-37.1	9.1	1.91e-02	0	43	102	1048576	23	6734
2026-01-05 23:28:29.28	62.10	35.58	-31.6	-36.8	9.4	1.66e-02	0	44	102	1048576	23	6538
2026-01-05 23:28:30.28	62.44	35.71	-31.6	-36.9	9.3	1.73e-02	0	44	102	1048576	23	6611
2026-01-05 23:28:31.29	62.78	35.84	-31.8	-37.5	9.0	2.27e-02	0	44	102	1048576	23	6915
2026-01-05 23:28:32.30	63.13	35.97	-31.6	-36.6	9.6	2.02e-02	0	44	102	1048576	23	6400
2026-01-05 23:28:33.30	63.47	36.09	-31.4	-35.8	10.1	8.15e-03	0	44	102	1048576	23	6020
2026-01-05 23:28:34.31	63.82	36.22	-31.3	-35.4	10.4	5.47e-03	0	44	102	1048576	23	5833
2026-01-05 23:28:35.32	64.18	36.35	-31.2	-35.2	10.7	3.77e-03	0	44	102	1048576	23	5740
2026-01-05 23:28:36.33	64.53	36.48	-31.2	-35.2	10.7	3.07e-03	0	43	102	1048576	23	5728
2026-01-05 23:28:37.33	64.89	36.60	-31.2	-35.3	10.6	4.01e-03	0	44	102	1048576	23	5738
2026-01-05 23:28:38.34	65.25	36.73	-31.2	-35.4	10.5	3.66e-03	0	44	102	1048576	23	5791
2026-01-05 23:28:39.34	65.61	36.85	-31.4	-35.9	10.1	6.68e-03	0	44	102	1048576	23	6080
2026-01-05 23:28:40.35	65.97	36.97	-31.4	-36.1	10.0	6.86e-03	0	43	102	1048576	23	6167
2026-01-05 23:28:41.36	66.34	37.10	-31.5	-36.3	9.8	1.08e-02	0	44	102	1048576	23	6270
2026-01-05 23:28:42.36	66.71	37.22	-31.4	-35.9	10.2	9.12e-03	0	43	102	1048576	23	6039
2026-01-05 23:28:43.37	67.09	37.34	-31.2	-35.1	10.8	3.79e-03	0	44	102	1048576	23	5672
2026-01-05 23:28:44.37	67.46	37.46	-30.9	-34.1	11.5	1.60e-03	0	44	102	1048576	23	5242
2026-01-05 23:28:45.38	67.84	37.58	-30.7	-34.0	11.9	7.11e-04	0	44	102	1048576	22	5300
2026-01-05 23:28:46.39	68.22	37.70	-30.6	-33.7	12.1	4.55e-04	0	43	102	1048576	22	5183
2026-01-05 23:28:47.39	68.61	37.82	-30.5	-33.6	12.2	2.43e-04	0	44	102	1048576	22	5133
2026-01-05 23:28:48.40	69.00	37.93	-30.6	-33.9	12.1	2.32e-04	0	43	102	1048576	22	5251
2026-01-05 23:28:49.41	69.39	38.05	-30.8	-34.5	11.6	6.97e-04	0	44	102	1048576	22	5478
2026-01-05 23:28:50.42	69.78	38.16	-30.9	-34.7	11.4	9.72e-04	0	44	102	1048576	22	5575
2026-01-05 23:28:51.43	70.18	38.28	-31.0	-35.2	11.0	1.51e-03	0	44	102	1048576	22	5815
2026-01-05 23:28:52.43	70.57	38.39	-30.8	-34.5	11.5	1.36e-03	0	44	102	1048576	22	5500
2026-01-05 23:28:53.44	70.98	38.50	-30.8	-34.3	11.8	6.57e-04	0	44	102	1048576	22	5403
2026-01-05 23:28:54.44	71.38	38.61	-30.7	-34.2	11.8	4.45e-04	0	44	102	1048576	22	5382
2026-01-05 23:28:55.45	71.78	38.72	-30.9	-34.8	11.4	5.60e-04	0	44	102	1048576	22	5609
2026-01-05 23:28:56.46	72.19	38.82	-31.0	-35.2	11.1	1.37e-03	0	44	102	1048576	22	5804
2026-01-05 23:28:57.46	72.60	38.93	-31.2	-35.6	10.8	1.99e-03	0	44	102	1048576	22	5981
2026-01-05 23:28:58.47	73.02	39.03	-31.2	-35.6	10.8	2.91e-03	0	44	102	1048576	22	5988
2026-01-05 23:28:59.48	73.44	39.14	-31.1	-35.5	10.9	2.50e-03	0	44	102	1048576	22	5950
2026-01-05 23:29:00.49	73.86	39.24	-31.2	-35.6	10.8	2.36e-03	0	44	102	1048576	22	6005
2026-01-05 23:29:01.49	74.28	39.34	-31.3	-36.0	10.4	3.90e-03	0	44	102	1048576	22	6207
2026-01-05 23:29:02.50	74.70	39.44	-31.4	-36.5	10.1	5.11e-03	0	44	102	1048576	22	6475
2026-01-05 23:29:03.50	75.13	39.53	-31.4	-36.4	10.2	7.33e-03	0	44	102	1048576	22	6424
2026-01-05 23:29:04.51	75.56	39.63	-31.3	-36.2	10.4	4.70e-03	0	44	102	1048576	22	6305
2026-01-05 23:29:05.51	75.99	39.72	-31.3	-36.0	10.5	4.21e-03	0	44	102	1048576	22	6213
2026-01-05 23:29:06.52	76.43	39.82	-31.2	-35.6	10.7	3.37e-03	0	44	102	1048576	22	6020
2026-01-05 23:29:07.53	76.87	39.91	-31.1	-35.4	11.0	2.45e-03	0	44	102	1048576	22	5906
2026-01-05 23:29:08.54	77.31	40.00	-31.2	-35.6	10.8	2.15e-03	0	44	102	1048576	22	5979
2026-01-05 23:29:09.54	77.75	40.09	-31.3	-35.9	10.6	2.86e-03	0	44	102	1048576	22	6130
2026-01-05 23:29:10.54	78.19	40.17	-31.3	-36.1	10.4	4.97e-03	0	44	102	1048576	22	6253
2026-01-05 23:29:11.55	78.64	40.26	-31.2	-35.7	10.6	2.82e-03	0	44	102	1048576	22	6063
2026-01-05 23:29:12.55	79.08	40.34	-31.3	-36.1	10.5	3.24e-03	0	44	102	1048576	22	6226
2026-01-05 23:29:13.55	79.53	40.42	-31.4	-36.4	10.2	5.68e-03	0	43	102	1048576	22	6392
2026-01-05 23:29:14.56	79.99	40.50	-31.1	-35.4	11.0	3.66e-03	0	44	102	1048576	22	5893
2026-01-05 23:29:15.56	80.44	40.58	-30.8	-34.4	11.7	1.07e-03	0	44	102	1048576	22	5438
2026-01-05 23:29:16.57	80.90	40.65	-30.7	-34.0	12.0	3.62e-04	0	44	102	1048576	22	5266
2026-01-05 23:29:17.58	81.36	40.73	-30.9	-34.6	11.6	3.50e-04	0	43	102	1048576	22	5511
2026-01-05 23:29:18.58	81.82	40.80	-31.2	-35.5	10.9	1.30e-03	0	44	102	1048576	22	5948
2026-01-05 23:29:19.59	82.28	40.87	-31.4	-36.2	10.4	4.06e-03	0	43	102	1048576	22	6307
2026-01-05 23:29:20.59	82.75	40.94	-31.5	-36.3	9.9	5.27e-03	0	44	102	1048576	23	6261
2026-01-05 23:29:21.59	83.21	41.00	-31.6	-36.4	9.9	1.23e-02	0	44	102	1048576	23	6310
2026-01-05 23:29:22.59	83.68	41.07	-31.3	-35.4	10.6	4.88e-03	0	43	102	1048576	23	5784
2026-01-05 23:29:23.60	84.15	41.13	-31.0	-34.7	11.2	1.86e-03	0	44	102	1048576	23	5461
2026-01-05 23:29:24.60	84.62	41.19	-30.9	-34.3	11.4	1.25e-03	0	44	102	1048576	23	5314
2026-01-05 23:29:25.60	85.10	41.25	-31.0	-34.6	11.2	8.89e-04	0	44	102	1048576	23	5446
2026-01-05 23:29:26.60	85.57	41.30	-31.2	-35.1	10.8	2.01e-03	0	43	102	1048576	23	5651
2026-01-05 23:29:27.61	86.05	41.36	-31.4	-35.7	10.4	3.21e-03	0	44	102	1048576	23	5925
2026-01-05 23:29:28.62	86.53	41.41	-31.6	-36.5	9.8	7.10e-03	0	44	102	1048576	23	6319
2026-01-05 23:29:29.62	87.01	41.46	-31.7	-37.0	9.4	1.40e-02	0	44	102	1048576	23	6627
2026-01-05 23:29:30.63	87.49	41.51	-31.7	-36.9	9.5	1.80e-02	0	44	102	1048576	23	6550
2026-01-05 23:29:31.64	87.98	41.55	-31.5	-36.1	10.1	1.16e-02	0	44	102	1048576	23	6147
2026-01-05 23:29:32.65	88.47	41.60	-31.3	-35.6	10.5	4.71e-03	0	44	102	1048576	23	5863
2026-01-05 23:29:33.66	88.96	41.64	-31.2	-35.0	10.9	2.50e-03	0	44	102	1048576	23	5601
2026-01-05 23:29:34.67	89.45	41.68	-31.1	-34.8	11.1	1.93e-03	0	44	102	1048576	23	5503
2026-01-05 23:29:35.67	89.93	41.71	-31.4	-35.7	10.5	2.35e-03	0	44	102	1048576	23	5929
2026-01-05 23:29:36.68	90.42	41.75	-31.5	-36.2	10.0	7.00e-03	0	44	102	1048576	23	6202
2026-01-05 23:29:37.68	90.91	41.78	-31.6	-36.7	9.7	1.04e-02	0	44	102	1048576	23	6433
2026-01-05 23:29:38.69	91.41	41.81	-31.6	-36.7	9.7	1.06e-02	0	44	102	1048576	23	6463
2026-01-05 23:29:39.70	91.90	41.84	-31.3	-35.6	10.5	7.59e-03	0	44	102	1048576	23	5866
2026-01-05 23:29:40.70	92.39	41.86	-31.1	-34.9	11.1	2.16e-03	0	44	102	1048576	23	5549
2026-01-05 23:29:41.70	92.88	41.88	-31.0	-34.5	11.4	1.40e-03	0	44	102	1048576	23	5365
2026-01-05 23:29:42.71	93.38	41.90	-31.1	-35.0	11.0	1.13e-03	0	44	102	1048576	23	5583
2026-01-05 23:29:43.72	93.88	41.92	-31.3	-35.4	10.7	1.93e-03	0	44	102	1048576	23	5765
2026-01-05 23:29:44.72	94.37	41.94	-31.4	-35.7	10.4	3.79e-03	0	44	102	1048576	23	5930
2026-01-05 23:29:45.73	94.87	41.95	-31.6	-36.6	9.7	5.31e-03	0	44	102	1048576	23	6377
2026-01-05 23:29:46.74	95.37	41.96	-31.4	-35.8	10.5	7.63e-03	0	43	102	1048576	23	5994
2026-01-05 23:29:47.75	95.87	41.97	-30.9	-34.3	11.4	1.88e-03	0	44	102	1048576	23	5293
2026-01-05 23:29:48.76	96.37	41.98	-30.6	-33.8	12.2	4.86e-04	0	44	102	1048576	22	5184
2026-01-05 23:29:49.76	96.87	41.98	-30.3	-32.8	12.8	6.79e-05	0	44	102	1048576	22	4812
2026-01-05 23:29:50.77	97.37	41.98	-30.1	-32.8	13.2	3.81e-05	0	44	102	1048576	21	4905
2026-01-05 23:29:51.78	97.87	41.98	-29.9	-32.3	13.5	1.60e-05	0	44	102	1048576	21	4729
2026-01-05 23:29:52.78	98.36	41.98	-29.7	-32.3	13.9	4.50e-06	0	44	102	1048576	20	4839
2026-01-05 23:29:53.79	98.86	41.97	-29.4	-31.5	14.3	2.28e-05	0	44	102	1048576	20	4570
2026-01-05 23:29:54.80	99.36	41.97	-29.5	-31.6	14.3	2.20e-06	0	44	102	1048576	20	4596
2026-01-05 23:29:55.81	99.86	41.96	-29.8	-32.6	13.6	9.10e-06	0	44	102	1048576	20	4950
2026-01-05 23:29:56.81	100.35	41.94	-30.0	-33.0	13.3	1.60e-05	0	44	102	1048576	20	5084
2026-01-05 23:29:57.82	100.85	41.93	-29.9	-32.7	13.6	1.22e-05	0	44	102	1048576	20	4976
2026-01-05 23:29:58.83	101.35	41.91	-29.8	-32.6	13.7	1.14e-05	0	44	102	1048576	20	4947
2026-01-05 23:29:59.84	101.85	41.89	-30.0	-33.0	13.3	8.30e-06	0	44	102	1048576	20	5108
2026-01-05 23:30:00.85	102.35	41.87	-30.4	-34.1	12.7	4.04e-05	0	44	102	1048576	20	5523
2026-01-05 23:30:01.85	102.84	41.84	-30.8	-34.9	11.8	1.65e-04	0	44	102	1048576	21	5764
2026-01-05 23:30:02.85	103.33	41.82	-30.8	-34.9	11.8	6.10e-04	0	44	102	1048576	21	5768
2026-01-05 23:30:03.86	103.82	41.79	-30.6	-34.3	12.1	3.91e-04	0	44	102	1048576	21	5525
2026-01-05 23:30:04.86	104.31	41.76	-30.6	-34.2	12.3	1.81e-04	0	44	102	1048576	21	5450
2026-01-05 23:30:05.87	104.80	41.72	-30.9	-35.1	11.7	4.63e-04	0	44	102	1048576	21	5847
2026-01-05 23:30:06.88	105.30	41.69	-30.9	-35.1	11.6	6.07e-04	0	44	102	1048576	21	5849
2026-01-05 23:30:07.89	105.79	41.65	-30.8	-35.0	11.6	5.03e-04	0	44	102	1048576	21	5805
2026-01-05 23:30:08.89	106.27	41.61	-30.9	-35.2	11.5	6.03e-04	0	44	102	1048576	21	5894
2026-01-05 23:30:09.90	106.76	41.57	-31.2	-35.6	10.9	1.42e-03	0	44	102	1048576	22	5962
2026-01-05 23:30:10.91	107.25	41.52	-31.3	-35.8	10.7	2.40e-03	0	43	102	1048576	22	6079
2026-01-05 23:30:11.91	107.73	41.47	-31.7	-36.8	9.6	3.91e-03	0	44	102	1048576	23	6472
2026-01-05 23:30:12.92	108.21	41.42	-31.8	-37.5	9.1	2.16e-02	0	44	102	1048576	23	6870
2026-01-05 23:30:13.93	108.69	41.37	-32.1	-37.9	8.4	3.87e-02	0	44	102	1048576	24	7021
2026-01-05 23:30:14.94	109.18	41.32	-32.0	-37.8	8.4	4.87e-02	0	44	102	1048576	24	6961
2026-01-05 23:30:15.94	109.65	41.26	-31.7	-36.3	9.6	1.80e-02	0	44	102	1048576	24	6145
2026-01-05 23:30:16.95	110.13	41.21	-31.6	-36.0	9.8	1.05e-02	0	44	102	1048576	24	6002
2026-01-05 23:30:17.95	110.60	41.15	-31.7	-36.5	9.5	1.01e-02	0	43	102	1048576	24	6239
2026-01-05 23:30:18.96	111.07	41.08	-31.9	-37.1	9.0	2.27e-02	0	44	102	1048576	24	6536
2026-01-05 23:30:19.97	111.55	41.02	-31.5	-35.7	10.0	1.40e-02	0	44	102	1048576	24	5822
2026-01-05 23:30:20.97	112.01	40.95	-31.4	-35.3	10.4	5.87e-03	0	44	102	1048576	24	5613
2026-01-05 23:30:21.97	112.48	40.89	-31.4	-35.4	10.3	3.74e-03	0	44	102	1048576	24	5697
2026-01-05 23:30:22.97	112.94	40.82	-31.2	-35.3	10.8	3.21e-03	0	44	102	1048576	23	5724
2026-01-05 23:30:23.98	113.40	40.75	-31.6	-36.4	10.0	5.23e-03	0	44	102	1048576	23	6261
2026-01-05 23:30:24.99	113.87	40.67	-31.1	-34.9	11.1	4.76e-03	0	44	102	1048576	23	5543
2026-01-05 23:30:25.99	114.32	40.60	-30.6	-33.7	12.3	3.10e-04	0	44	102	1048576	22	5150
2026-01-05 23:30:27.00	114.78	40.52	-30.5	-33.4	12.5	1.12e-04	0	43	102	1048576	22	5048
2026-01-05 23:30:28.00	115.23	40.44	-30.8	-34.3	11.9	1.75e-04	0	44	102	1048576	22	5396
2026-01-05 23:30:29.01	115.69	40.36	-31.2	-35.7	10.9	1.60e-03	0	44	102	1048576	22	6018
2026-01-05 23:30:30.02	116.14	40.28	-31.2	-35.6	10.9	2.87e-03	0	44	102	1048576	22	6004
2026-01-05 23:30:31.02	116.59	40.19	-30.5	-33.5	12.4	7.23e-04	0	44	102	1048576	22	5059
2026-01-05 23:30:32.02	117.03	40.11	-30.1	-32.8	13.2	4.95e-05	0	44	102	1048576	21	4898
2026-01-05 23:30:33.03	117.47	40.02	-30.1	-32.9	13.1	2.67e-05	0	44	102	1048576	21	4953
2026-01-05 23:30:34.03	117.91	39.93	-30.4	-33.6	12.7	5.64e-05	0	44	102	1048576	21	5202
2026-01-05 23:30:35.04	118.35	39.84	-30.2	-33.2	12.9	7.40e-05	0	44	102	1048576	21	5068
2026-01-05 23:30:36.04	118.79	39.75	-29.6	-31.9	14.0	7.60e-06	0	44	102	1048576	20	4714
2026-01-05 23:30:37.05	119.22	39.65	-29.3	-31.7	14.6	1.50e-06	0	44	102	1048576	19	4717
2026-01-05 23:30:38.05	119.65	39.56	-29.1	-31.2	14.9	1.50e-06	0	44	102	1048576	19	4575
2026-01-05 23:30:39.05	120.08	39.46	-29.3	-31.7	14.6	0.00e+00	0	44	102	1048576	19	4749
2026-01-05 23:30:40.06	120.51	39.36	-29.7	-32.7	14.0	3.00e-06	0	44	102	1048576	19	5094
2026-01-05 23:30:41.06	120.93	39.26	-29.7	-32.8	13.9	7.60e-06	0	44	102	1048576	19	5106
2026-01-05 23:30:42.06	121.34	39.16	-29.4	-31.9	14.4	2.20e-06	0	44	102	1048576	19	4808
2026-01-05 23:30:43.07	121.76	39.06	-29.2	-31.2	14.9	7.00e-07	0	44	102	1048576	19	4584
2026-01-05 23:30:44.07	122.18	38.95	-29.4	-31.9	14.4	0.00e+00	0	44	102	1048576	19	4818
2026-01-05 23:30:45.08	122.59	38.85	-29.5	-32.3	14.3	7.00e-07	0	44	102	1048576	19	4920
2026-01-05 23:30:46.09	123.01	38.74	-29.9	-32.9	13.4	9.10e-06	0	44	102	1048576	20	5069
2026-01-05 23:30:47.10	123.41	38.63	-29.4	-31.6	14.3	3.80e-06	0	44	102	1048576	20	4602
2026-01-05 23:30:48.10	123.82	38.52	-28.9	-30.5	15.3	0.00e+00	0	44	102	1048576	19	4363
2026-01-05 23:30:49.11	124.22	38.41	-28.7	-30.6	15.6	0.00e+00	0	44	102	1048576	18	4479
2026-01-05 23:30:50.12	124.62	38.30	-28.8	-31.0	15.3	0.00e+00	0	44	102	1048576	18	4604
2026-01-05 23:30:51.13	125.02	38.18	-29.1	-31.8	14.8	0.00e+00	0	44	102	1048576	18	4875
2026-01-05 23:30:52.13	125.41	38.07	-29.4	-32.4	14.5	7.00e-07	0	43	102	1048576	18	5087
2026-01-05 23:30:53.14	125.81	37.95	-29.2	-32.0	14.7	0.00e+00	0	44	102	1048576	18	4935
2026-01-05 23:30:54.14	126.19	37.84	-28.9	-31.2	15.2	0.00e+00	0	44	102	1048576	18	4673
2026-01-05 23:30:55.15	126.58	37.72	-28.7	-30.6	15.5	0.00e+00	0	43	102	1048576	18	4475
2026-01-05 23:30:56.16	126.97	37.60	-29.0	-31.3	15.1	0.00e+00	0	44	102	1048576	18	4713
2026-01-05 23:30:57.16	127.34	37.48	-29.1	-31.7	14.9	0.00e+00	0	44	102	1048576	18	4848
2026-01-05 23:30:58.16	127.72	37.36	-29.2	-31.8	14.7	0.00e+00	0	44	102	1048576	18	4876
2026-01-05 23:30:59.17	128.10	37.24	-28.9	-31.1	15.2	0.00e+00	0	44	102	1048576	18	4624
2026-01-05 23:31:00.17	128.47	37.12	-28.8	-30.8	15.4	0.00e+00	0	44	102	1048576	18	4556
2026-01-05 23:31:01.18	128.84	37.00	-28.9	-31.2	15.0	0.00e+00	0	44	102	1048576	18	4691
2026-01-05 23:31:02.19	129.21	36.87	-29.1	-31.6	14.9	0.00e+00	0	44	102	1048576	18	4823
2026-01-05 23:31:03.19	129.57	36.75	-29.4	-32.5	14.4	7.00e-07	0	44	102	1048576	18	5133
2026-01-05 23:31:04.19	129.93	36.62	-29.4	-32.4	14.5	1.50e-06	0	44	102	1048576	18	5089
2026-01-05 23:31:05.19	130.28	36.50	-29.2	-32.0	14.7	7.00e-07	0	44	102	1048576	18	4960
2026-01-05 23:31:06.20	130.64	36.37	-29.4	-32.4	14.4	0.00e+00	0	44	102	1048576	18	5106
2026-01-05 23:31:07.20	130.99	36.24	-29.7	-32.6	14.0	2.20e-06	0	44	102	1048576	19	5071
2026-01-05 23:31:08.21	131.35	36.12	-29.8	-33.1	13.6	9.10e-06	0	44	102	1048576	19	5241
2026-01-05 23:31:09.22	131.69	35.99	-29.9	-33.4	13.5	1.52e-05	0	44	102	1048576	19	5343
2026-01-05 23:31:10.22	132.04	35.86	-29.9	-33.3	13.5	5.30e-06	0	44	102	1048576	19	5330
2026-01-05 23:31:11.23	132.38	35.73	-29.9	-33.2	13.5	6.80e-06	0	44	102	1048576	19	5279
2026-01-05 23:31:12.23	132.72	35.60	-29.9	-32.8	13.5	9.10e-06	0	44	102	1048576	20	5013
2026-01-05 23:31:13.24	133.06	35.46	-29.5	-31.7	14.1	7.60e-06	0	44	102	1048576	20	4656
2026-01-05 23:31:14.25	133.39	35.33	-29.5	-31.6	14.2	2.20e-06	0	44	102	1048576	20	4617
2026-01-05 23:31:15.25	133.72	35.20	-29.3	-31.2	14.4	7.00e-07	0	44	102	1048576	20	4484
2026-01-05 23:31:16.25	134.05	35.07	-29.1	-31.1	14.9	0.00e+00	0	44	102	1048576	19	4555
2026-01-05 23:31:17.26	134.38	34.93	-28.9	-30.7	15.1	0.00e+00	0	44	102	1048576	19	4420
2026-01-05 23:31:18.26	134.70	34.80	-29.2	-31.5	14.7	0.00e+00	0	44	102	1048576	19	4662
2026-01-05 23:31:19.26	135.02	34.67	-29.7	-32.6	14.0	3.00e-06	0	43	102	1048576	19	5063
2026-01-05 23:31:20.27	135.34	34.53	-30.0	-33.2	13.2	1.06e-05	0	44	102	1048576	20	5181
2026-01-05 23:31:21.28	135.66	34.40	-30.1	-33.4	13.0	5.11e-05	0	44	102	1048576	20	5258
2026-01-05 23:31:22.28	135.97	34.26	-29.5	-31.8	14.0	8.30e-06	0	44	102	1048576	20	4681
2026-01-05 23:31:23.28	136.28	34.13	-29.3	-31.2	14.4	1.83e-05	0	44	102	1048576	20	4485
2026-01-05 23:31:24.28	136.59	33.99	-29.6	-32.0	13.9	3.80e-06	0	44	102	1048576	20	4744
2026-01-05 23:31:25.29	136.89	33.85	-30.2	-33.7	12.8	1.37e-05	0	44	102	1048576	20	5390
2026-01-05 23:31:26.29	137.19	33.72	-31.0	-35.5	11.2	8.34e-04	0	44	102	1048576	21	6067
2026-01-05 23:31:27.30	137.50	33.58	-31.2	-35.9	10.6	2.42e-03	0	44	102	1048576	22	6137
2026-01-05 23:31:28.30	137.79	33.45	-30.9	-34.9	11.2	2.81e-03	0	44	102	1048576	22	5690
2026-01-05 23:31:29.31	138.09	33.31	-30.3	-33.0	12.6	2.26e-04	0	44	102	1048576	22	4892
2026-01-05 23:31:30.32	138.39	33.17	-29.8	-32.1	13.5	2.67e-05	0	44	102	1048576	21	4683
2026-01-05 23:31:31.32	138.68	33.03	-29.8	-32.4	13.6	5.30e-06	0	44	102	1048576	20	4900
2026-01-05 23:31:32.33	138.97	32.89	-30.0	-33.1	13.2	6.80e-06	0	44	102	1048576	20	5157
2026-01-05 23:31:33.34	139.25	32.76	-30.5	-34.5	12.3	9.23e-05	0	44	102	1048576	20	5737
2026-01-05 23:31:34.35	139.54	32.62	-31.0	-35.2	11.1	9.88e-04	0	44	102	1048576	22	5826
2026-01-05 23:31:35.35	139.82	32.48	-30.8	-34.6	11.4	1.62e-03	0	44	102	1048576	22	5534
2026-01-05 23:31:36.36	140.10	32.34	-30.2	-33.1	12.9	1.90e-04	0	44	102	1048576	21	5024
2026-01-05 23:31:37.36	140.37	32.20	-29.5	-31.7	14.1	2.81e-04	0	44	102	1048576	20	4641
2026-01-05 23:31:38.36	140.65	32.06	-29.4	-32.0	14.3	1.50e-06	0	44	102	1048576	19	4828
2026-01-05 23:31:39.37	140.92	31.93	-29.8	-32.9	13.7	4.50e-06	0	44	102	1048576	19	5180
2026-01-05 23:31:40.37	141.19	31.79	-30.4	-34.4	12.3	5.48e-04	0	44	102	1048576	20	5696
2026-01-05 23:31:41.38	141.46	31.65	-31.2	-36.0	10.4	2.14e-03	0	44	102	1048576	22	6221
2026-01-05 23:31:42.39	141.72	31.51	-31.4	-36.4	10.2	6.44e-03	0	44	102	1048576	22	6418
2026-01-05 23:31:43.40	141.99	31.37	-30.8	-34.5	11.5	2.94e-03	0	44	102	1048576	22	5497
2026-01-05 23:31:44.40	142.25	31.23	-30.2	-33.2	12.7	1.02e-03	0	44	102	1048576	21	5096
2026-01-05 23:31:45.41	142.51	31.09	-30.1	-32.8	13.0	5.64e-05	0	44	102	1048576	21	4944
2026-01-05 23:31:46.42	142.77	30.95	-30.3	-34.1	12.6	8.41e-04	0	44	102	1048576	20	5534
2026-01-05 23:31:47.43	143.02	30.81	-30.7	-34.6	11.8	1.19e-03	0	44	102	1048576	21	5661
2026-01-05 23:31:48.43	143.27	30.68	-30.9	-35.4	11.2	6.19e-04	0	44	102	1048576	21	6015
2026-01-05 23:31:49.44	143.53	30.54	-31.5	-36.4	9.8	6.60e-03	0	44	102	1048576	23	6336
2026-01-05 23:31:50.44	143.77	30.40	-31.6	-36.9	9.4	1.52e-02	0	43	102	1048576	23	6607
2026-01-05 23:31:51.45	144.02	30.26	-31.5	-36.4	9.7	1.51e-02	0	44	102	1048576	23	6306
2026-01-05 23:31:52.46	144.26	30.12	-30.8	-34.6	11.4	1.85e-03	0	44	102	1048576	22	5561
2026-01-05 23:31:53.47	144.51	29.98	-30.4	-33.7	12.4	8.08e-04	0	44	102	1048576	21	5263
2026-01-05 23:31:54.47	144.75	29.85	-30.3	-33.3	12.6	6.17e-05	0	44	102	1048576	21	5140
2026-01-05 23:31:55.48	144.99	29.71	-30.1	-33.4	12.9	1.17e-03	0	44	102	1048576	20	5250
2026-01-05 23:31:56.49	145.22	29.57	-30.9	-35.4	11.2	1.75e-03	0	44	102	1048576	21	6038
2026-01-05 23:31:57.50	145.46	29.43	-31.3	-36.3	10.2	5.15e-03	0	43	102	1048576	22	6372
2026-01-05 23:31:58.50	145.69	29.29	-31.7	-37.1	9.1	1.07e-02	0	44	102	1048576	23	6747
2026-01-05 23:31:59.51	145.92	29.16	-31.3	-35.9	10.1	1.33e-02	0	44	102	1048576	23	6051
2026-01-05 23:32:00.51	146.15	29.02	-30.7	-34.1	11.7	1.44e-03	0	44	102	1048576	22	5351
2026-01-05 23:32:01.52	146.37	28.88	-29.5	-31.8	13.9	1.82e-03	0	44	102	1048576	20	4703
2026-01-05 23:32:02.53	146.60	28.75	-28.8	-30.8	15.2	7.00e-07	0	44	102	1048576	18	4564
2026-01-05 23:32:03.54	146.82	28.61	-28.5	-30.2	15.6	0.00e+00	0	44	102	1048576	18	4381
2026-01-05 23:32:04.54	147.04	28.47	-28.6	-31.0	15.4	1.52e-03	0	44	102	1048576	17	4720
2026-01-05 23:32:05.54	147.26	28.34	-29.2	-32.0	14.6	7.00e-07	0	44	102	1048576	18	4958
2026-01-05 23:32:06.55	147.48	28.20	-30.0	-33.5	13.3	3.00e-06	0	44	102	1048576	19	5426
2026-01-05 23:32:07.56	147.70	28.07	-30.3	-34.0	12.5	1.71e-03	0	44	102	1048576	20	5540
2026-01-05 23:32:08.56	147.91	27.93	-30.4	-34.2	12.3	1.92e-03	0	44	102	1048576	20	5631
2026-01-05 23:32:09.56	148.12	27.80	-30.1	-33.4	12.8	9.91e-05	0	44	102	1048576	20	5297
2026-01-05 23:32:10.57	148.33	27.66	-29.5	-31.8	13.9	1.29e-05	0	44	102	1048576	20	4679
2026-01-05 23:32:11.58	148.54	27.53	-29.2	-31.3	14.6	2.14e-03	0	44	102	1048576	19	4629
2026-01-05 23:32:12.59	148.75	27.39	-29.0	-31.0	14.8	3.80e-06	0	44	102	1048576	19	4511
2026-01-05 23:32:13.60	148.95	27.26	-29.0	-31.5	14.8	3.80e-06	0	43	102	1048576	18	4804
2026-01-05 23:32:14.61	149.16	27.12	-29.1	-31.8	14.6	1.23e-03	0	44	102	1048576	18	4882
2026-01-05 23:32:15.61	149.36	26.99	-29.6	-32.5	13.8	2.20e-06	0	44	102	1048576	19	5051
2026-01-05 23:32:16.62	149.56	26.86	-29.9	-33.4	13.3	1.90e-05	0	44	102	1048576	19	5376
2026-01-05 23:32:17.63	149.76	26.72	-30.0	-33.4	12.8	3.12e-05	0	44	102	1048576	20	5285
2026-01-05 23:32:18.63	149.95	26.59	-30.1	-33.6	12.7	6.94e-05	0	44	102	1048576	20	5365
2026-01-05 23:32:19.64	150.15	26.46	-30.0	-33.2	12.9	5.34e-05	0	44	102	1048576	20	5194
2026-01-05 23:32:20.65	150.34	26.33	-29.8	-32.7	13.3	3.50e-05	0	44	102	1048576	20	5014
2026-01-05 23:32:21.66	150.54	26.19	-29.7	-32.5	13.4	2.44e-05	0	44	102	1048576	20	4931
2026-01-05 23:32:22.66	150.73	26.06	-29.5	-32.4	13.9	5.30e-06	0	44	102	1048576	19	4994
2026-01-05 23:32:23.67	150.92	25.93	-29.3	-32.2	14.3	7.78e-05	0	44	102	1048576	18	5053
2026-01-05 23:32:24.67	151.10	25.80	-29.3	-32.2	14.3	1.50e-06	0	43	102	1048576	18	5059
2026-01-05 23:32:25.68	151.29	25.67	-29.5	-32.8	13.9	2.20e-06	0	44	102	1048576	18	5256
2026-01-05 23:32:26.69	151.48	25.54	-29.7	-32.8	13.5	5.30e-06	0	44	102	1048576	19	5161
2026-01-05 23:32:27.69	151.66	25.41	-29.8	-33.2	13.4	1.37e-05	0	44	102	1048576	19	5305
2026-01-05 23:32:28.70	151.84	25.28	-29.9	-33.5	13.1	2.13e-05	0	44	102	1048576	19	5418
2026-01-05 23:32:29.71	152.02	25.15	-30.1	-33.5	12.7	6.86e-05	0	44	102	1048576	20	5324
2026-01-05 23:32:30.71	152.20	25.02	-30.0	-33.1	12.9	5.11e-05	0	44	102	1048576	20	5187
2026-01-05 23:32:31.72	152.38	24.89	-29.8	-32.7	13.2	3.28e-05	0	44	102	1048576	20	5013
2026-01-05 23:32:32.73	152.55	24.77	-29.8	-33.2	13.2	1.52e-05	0	43	102	1048576	19	5326
2026-01-05 23:32:33.74	152.73	24.64	-29.6	-32.7	13.6	1.44e-05	0	43	102	1048576	19	5106
2026-01-05 23:32:34.74	152.90	24.51	-29.4	-32.6	13.9	3.00e-06	0	44	102	1048576	18	5211
2026-01-05 23:32:35.75	153.07	24.38	-29.2	-32.1	14.3	2.20e-06	0	44	102	1048576	18	5012
2026-01-05 23:32:36.76	153.24	24.26	-29.0	-31.6	14.6	0.00e+00	0	44	102	1048576	18	4833
2026-01-05 23:32:37.76	153.41	24.13	-29.1	-31.9	14.5	7.00e-07	0	44	102	1048576	18	4937
2026-01-05 23:32:38.77	153.58	24.00	-29.1	-31.8	14.5	7.00e-07	0	44	102	1048576	18	4908
2026-01-05 23:32:39.78	153.75	23.88	-29.0	-31.6	14.6	0.00e+00	0	44	102	1048576	18	4850
2026-01-05 23:32:40.79	153.91	23.75	-29.3	-32.2	14.2	0.00e+00	0	43	102	1048576	18	5048
2026-01-05 23:32:41.80	154.08	23.63	-29.3	-32.3	14.2	2.20e-06	0	44	102	1048576	18	5093
2026-01-05 23:32:42.80	154.24	23.50	-29.3	-32.3	14.2	5.30e-06	0	44	102	1048576	18	5069
2026-01-05 23:32:43.81	154.40	23.38	-29.7	-32.9	13.4	4.50e-06	0	44	102	1048576	19	5200
2026-01-05 23:32:44.81	154.56	23.26	-29.5	-32.3	13.8	9.10e-06	0	44	102	1048576	19	4979
2026-01-05 23:32:45.82	154.72	23.13	-29.4	-32.5	14.0	1.52e-03	0	43	102	1048576	18	5152
2026-01-05 23:32:46.83	154.88	23.01	-29.5	-32.7	13.9	1.50e-06	0	44	102	1048576	18	5244
2026-01-05 23:32:47.83	155.04	22.89	-29.4	-32.7	13.9	1.50e-06	0	44	102	1048576	18	5227
2026-01-05 23:32:48.84	155.19	22.76	-29.5	-32.4	13.8	1.93e-03	0	44	102	1048576	19	5031
2026-01-05 23:32:49.85	155.35	22.64	-29.6	-32.5	13.7	1.93e-03	0	44	102	1048576	19	5076
2026-01-05 23:32:50.85	155.50	22.52	-29.5	-32.3	13.8	3.00e-06	0	44	102	1048576	19	4967
2026-01-05 23:32:51.86	155.65	22.40	-29.5	-32.3	13.8	1.97e-03	0	44	102	1048576	19	4985
2026-01-05 23:32:52.86	155.80	22.28	-29.5	-32.3	13.8	1.91e-03	0	44	102	1048576	19	4983
2026-01-05 23:32:53.87	155.95	22.16	-29.5	-32.4	13.7	9.10e-06	0	44	102	1048576	19	5028
2026-01-05 23:32:54.88	156.10	22.04	-29.5	-32.4	13.8	9.10e-06	0	44	102	1048576	19	5019
2026-01-05 23:32:55.89	156.25	21.92	-29.7	-33.0	13.4	1.73e-03	0	44	102	1048576	19	5253
2026-01-05 23:32:56.89	156.39	21.80	-29.7	-32.8	13.5	1.22e-05	0	44	102	1048576	19	5182
2026-01-05 23:32:57.90	156.54	21.68	-29.7	-33.0	13.3	7.60e-06	0	44	102	1048576	19	5247
2026-01-05 23:32:58.91	156.68	21.56	-29.9	-33.5	13.0	1.64e-03	0	44	102	1048576	19	5443
2026-01-05 23:32:59.91	156.83	21.44	-29.9	-33.4	13.0	2.59e-05	0	44	102	1048576	19	5423
2026-01-05 23:33:00.92	156.97	21.32	-29.9	-33.2	12.8	6.48e-05	0	44	102	1048576	20	5223
2026-01-05 23:33:01.93	157.11	21.21	-30.0	-33.3	12.7	1.87e-03	0	44	102	1048576	20	5299
2026-01-05 23:33:02.94	157.25	21.09	-29.9	-33.2	12.7	8.46e-05	0	44	102	1048576	20	5252
2026-01-05 23:33:03.94	157.39	20.97	-29.9	-33.5	12.8	2.03e-03	0	44	102	1048576	19	5465
2026-01-05 23:33:04.95	157.53	20.86	-29.8	-33.2	13.1	2.29e-03	0	44	102	1048576	19	5342
2026-01-05 23:33:05.96	157.66	20.74	-29.9	-33.5	13.0	2.67e-05	0	44	102	1048576	19	5459
2026-01-05 23:33:06.97	157.80	20.62	-29.7	-33.0	13.1	2.21e-03	0	44	102	1048576	19	5275
2026-01-05 23:33:07.97	157.94	20.51	-29.7	-33.1	13.1	2.12e-03	0	43	102	1048576	19	5281
2026-01-05 23:33:08.98	158.07	20.39	-29.8	-33.3	13.1	2.67e-05	0	44	102	1048576	19	5396
2026-01-05 23:33:09.98	158.20	20.28	-29.7	-33.1	13.1	1.98e-03	0	44	102	1048576	19	5284
2026-01-05 23:33:10.99	158.33	20.17	-30.0	-33.3	12.7	1.87e-03	0	44	102	1048576	20	5262
2026-01-05 23:33:12.00	158.47	20.05	-29.8	-32.9	12.9	6.71e-05	0	44	102	1048576	20	5125
2026-01-05 23:33:13.00	158.60	19.94	-29.9	-33.5	13.0	1.84e-03	0	44	102	1048576	19	5448
2026-01-05 23:33:14.01	158.72	19.83	-30.0	-33.3	12.6	1.87e-03	0	44	102	1048576	20	5282
2026-01-05 23:33:15.02	158.85	19.71	-30.1	-33.6	12.4	1.23e-04	0	44	102	1048576	20	5422
2026-01-05 23:33:16.03	158.98	19.60	-30.3	-34.2	12.0	2.05e-03	0	44	102	1048576	20	5673
2026-01-05 23:33:17.03	159.11	19.49	-30.2	-33.9	12.2	1.94e-03	0	44	102	1048576	20	5546
2026-01-05 23:33:18.03	159.23	19.38	-29.9	-33.1	12.7	1.69e-04	0	44	102	1048576	20	5215
2026-01-05 23:33:19.03	159.36	19.27	-29.9	-33.6	12.8	1.96e-03	0	44	102	1048576	19	5501
2026-01-05 23:33:20.03	159.48	19.16	-29.9	-33.2	12.7	1.80e-03	0	44	102	1048576	20	5230
2026-01-05 23:33:21.03	159.60	19.05	-30.0	-33.4	12.5	7.09e-05	0	44	102	1048576	20	5325
2026-01-05 23:33:22.04	159.72	18.94	-30.3	-34.2	12.0	6.23e-04	0	43	102	1048576	20	5650
2026-01-05 23:33:23.05	159.85	18.83	-30.0	-33.3	12.6	2.09e-03	0	44	102	1048576	20	5284
2026-01-05 23:33:24.05	159.97	18.72	-29.6	-32.4	13.2	4.19e-05	0	44	102	1048576	20	4940
2026-01-05 23:33:25.06	160.09	18.61	-29.6	-32.7	13.4	4.19e-04	0	44	102	1048576	19	5138
2026-01-05 23:33:26.07	160.21	18.50	-29.7	-33.0	13.2	4.11e-04	0	44	102	1048576	19	5263
2026-01-05 23:33:27.08	160.32	18.39	-29.9	-33.5	12.9	3.89e-05	0	44	102	1048576	19	5446
2026-01-05 23:33:28.08	160.44	18.28	-29.9	-33.5	12.9	2.22e-03	0	44	102	1048576	19	5460
2026-01-05 23:33:29.09	160.56	18.18	-30.0	-33.5	12.4	4.52e-04	0	44	102	1048576	20	5367
2026-01-05 23:33:30.10	160.67	18.07	-30.3	-34.3	11.9	3.69e-04	0	44	102	1048576	20	5714
2026-01-05 23:33:31.11	160.79	17.96	-30.1	-33.7	12.3	2.37e-03	0	44	102	1048576	20	5451
2026-01-05 23:33:32.12	160.90	17.86	-30.1	-33.9	12.2	5.82e-04	0	44	102	1048576	20	5526
2026-01-05 23:33:33.12	161.02	17.75	-30.1	-33.7	12.3	1.89e-04	0	44	102	1048576	20	5475
2026-01-05 23:33:34.13	161.13	17.64	-30.2	-33.9	12.2	2.54e-03	0	44	102	1048576	20	5537
2026-01-05 23:33:35.14	161.24	17.54	-30.3	-34.4	11.8	9.48e-04	0	44	102	1048576	20	5754
2026-01-05 23:33:36.14	161.35	17.43	-30.1	-33.7	12.2	3.18e-04	0	44	102	1048576	20	5469
2026-01-05 23:33:37.16	161.46	17.33	-30.0	-33.4	12.5	1.84e-04	0	44	102	1048576	20	5324
2026-01-05 23:33:38.16	161.57	17.22	-30.1	-33.6	12.4	4.28e-04	0	44	102	1048576	20	5410
2026-01-05 23:33:39.16	161.68	17.12	-30.1	-33.6	12.3	1.50e-04	0	44	102	1048576	20	5423
2026-01-05 23:33:40.17	161.79	17.02	-30.1	-33.7	12.2	4.93e-04	0	43	102	1048576	20	5470
2026-01-05 23:33:41.17	161.89	16.91	-30.2	-33.9	12.1	2.69e-03	0	44	102	1048576	20	5550
2026-01-05 23:33:42.18	162.00	16.81	-30.0	-33.5	12.4	1.74e-04	0	44	102	1048576	20	5360
2026-01-05 23:33:43.19	162.11	16.71	-30.0	-33.3	12.5	8.44e-04	0	44	102	1048576	20	5310
2026-01-05 23:33:44.19	162.21	16.61	-29.9	-33.3	12.5	1.22e-04	0	44	102	1048576	20	5308
2026-01-05 23:33:45.20	162.32	16.50	-29.9	-33.3	12.5	1.20e-04	0	44	102	1048576	20	5310
2026-01-05 23:33:46.21	162.42	16.40	-29.9	-33.3	12.5	1.12e-03	0	44	102	1048576	20	5315
2026-01-05 23:33:47.21	162.52	16.30	-29.9	-33.8	12.5	1.09e-03	0	43	102	1048576	19	5637
2026-01-05 23:33:48.22	162.63	16.20	-29.9	-33.8	12.5	1.20e-04	0	43	102	1048576	19	5641
2026-01-05 23:33:49.22	162.73	16.10	-29.9	-33.7	12.6	9.15e-04	0	44	102	1048576	19	5600
2026-01-05 23:33:50.23	162.83	16.00	-29.9	-33.8	12.6	8.81e-04	0	44	102	1048576	19	5622
2026-01-05 23:33:51.24	162.93	15.90	-30.1	-33.9	12.0	2.71e-04	0	44	102	1048576	20	5577
2026-01-05 23:33:52.25	163.03	15.80	-30.2	-34.1	11.9	1.34e-03	0	44	102	1048576	20	5663
2026-01-05 23:33:53.25	163.13	15.70	-30.0	-33.7	12.2	9.73e-04	0	44	102	1048576	20	5484
2026-01-05 23:33:54.25	163.23	15.60	-30.0	-33.7	12.2	2.27e-04	0	44	102	1048576	20	5473
2026-01-05 23:33:55.26	163.33	15.50	-30.1	-33.9	12.0	8.41e-04	0	44	102	1048576	20	5566
2026-01-05 23:33:56.26	163.42	15.41	-30.1	-34.0	12.0	9.08e-04	0	44	102	1048576	20	5606
2026-01-05 23:33:57.27	163.52	15.31	-30.1	-33.7	12.2	2.46e-04	0	44	102	1048576	20	5494
2026-01-05 23:33:58.28	163.62	15.21	-30.1	-33.8	12.1	9.07e-04	0	44	102	1048576	20	5523
2026-01-05 23:33:59.29	163.71	15.11	-30.1	-33.8	12.1	8.34e-04	0	44	102	1048576	20	5556
2026-01-05 23:34:00.29	163.81	15.02	-30.1	-33.9	12.0	3.34e-04	0	43	102	1048576	20	5555
2026-01-05 23:34:01.30	163.90	14.92	-30.0	-33.5	12.3	2.54e-03	0	44	102	1048576	20	5404
2026-01-05 23:34:02.30	164.00	14.82	-30.0	-33.5	12.3	1.04e-03	0	44	102	1048576	20	5385
2026-01-05 23:34:03.31	164.09	14.73	-30.1	-33.8	12.1	2.39e-04	0	44	102	1048576	20	5514
2026-01-05 23:34:04.32	164.18	14.63	-30.2	-34.1	11.9	1.46e-03	0	44	102	1048576	20	5638
2026-01-05 23:34:05.32	164.28	14.53	-30.1	-33.8	12.0	3.37e-04	0	44	102	1048576	20	5531
2026-01-05 23:34:06.33	164.37	14.44	-30.0	-33.4	12.4	2.28e-04	0	44	102	1048576	20	5348
2026-01-05 23:34:07.34	164.46	14.34	-30.0	-33.4	12.4	1.27e-03	0	44	102	1048576	20	5347
2026-01-05 23:34:08.34	164.55	14.25	-30.0	-33.6	12.2	2.22e-04	0	44	102	1048576	20	5444
2026-01-05 23:34:09.35	164.64	14.16	-30.0	-33.4	12.3	1.84e-04	0	44	102	1048576	20	5354
2026-01-05 23:34:10.36	164.73	14.06	-30.0	-33.5	12.3	1.41e-03	0	44	102	1048576	20	5388
2026-01-05 23:34:11.37	164.82	13.97	-30.0	-33.6	12.3	2.84e-04	0	44	102	1048576	20	5413
2026-01-05 23:34:12.37	164.91	13.87	-30.1	-33.9	12.0	2.63e-03	0	44	102	1048576	20	5545
2026-01-05 23:34:13.38	164.99	13.78	-30.1	-33.8	12.0	1.56e-03	0	44	102	1048576	20	5538
2026-01-05 23:34:14.38	165.08	13.69	-30.1	-34.0	11.9	1.73e-03	0	44	102	1048576	20	5596
2026-01-05 23:34:15.38	165.17	13.60	-30.2	-34.3	11.7	2.51e-03	0	44	102	1048576	20	5721
2026-01-05 23:34:16.39	165.25	13.50	-30.2	-34.3	11.7	1.75e-03	0	44	102	1048576	20	5743
2026-01-05 23:34:17.40	165.34	13.41	-30.2	-34.3	11.7	1.61e-03	0	44	102	1048576	20	5743
2026-01-05 23:34:18.40	165.42	13.32	-30.3	-34.5	11.6	3.23e-03	0	44	102	1048576	20	5819
2026-01-05 23:34:19.40	165.51	13.23	-30.3	-34.5	11.5	3.10e-03	0	44	102	1048576	20	5855
2026-01-05 23:34:20.41	165.59	13.14	-30.3	-34.6	11.5	1.92e-03	0	44	102	1048576	20	5861
2026-01-05 23:34:21.41	165.68	13.05	-30.2	-34.3	11.6	3.05e-03	0	44	102	1048576	20	5760
2026-01-05 23:34:22.42	165.76	12.96	-30.3	-34.4	11.6	2.86e-03	0	44	102	1048576	20	5797
2026-01-05 23:34:23.43	165.84	12.87	-30.3	-34.4	11.5	2.07e-03	0	44	102	1048576	20	5827
2026-01-05 23:34:24.44	165.92	12.78	-30.4	-34.8	11.3	9.12e-04	0	44	102	1048576	20	5974
2026-01-05 23:34:25.44	166.01	12.69	-30.3	-34.7	11.3	3.59e-03	0	44	102	1048576	20	5946
2026-01-05 23:34:26.45	166.09	12.60	-30.1	-34.0	11.8	7.54e-04	0	44	102	1048576	20	5623
2026-01-05 23:34:27.46	166.17	12.51	-30.1	-33.9	11.9	4.16e-04	0	44	102	1048576	20	5571
2026-01-05 23:34:28.45	166.25	12.42	-29.9	-33.4	12.2	2.55e-03	0	44	102	1048576	20	5391
2026-01-05 23:34:29.46	166.33	12.33	-30.0	-33.9	12.3	3.23e-04	0	44	102	1048576	19	5696
2026-01-05 23:34:30.47	166.41	12.25	-29.9	-33.8	12.4	2.44e-03	0	44	102	1048576	19	5654
2026-01-05 23:34:31.48	166.49	12.16	-30.0	-34.0	12.2	2.23e-03	0	44	102	1048576	19	5732
2026-01-05 23:34:32.48	166.57	12.07	-30.0	-33.6	12.1	3.42e-04	0	44	102	1048576	20	5451
2026-01-05 23:34:33.49	166.64	11.98	-30.1	-34.0	11.8	2.41e-03	0	44	102	1048576	20	5621
2026-01-05 23:34:34.49	166.72	11.90	-30.1	-33.9	11.9	3.51e-03	0	44	102	1048576	20	5571
2026-01-05 23:34:35.50	166.80	11.81	-30.0	-33.5	12.1	4.89e-04	0	44	102	1048576	20	5427
2026-01-05 23:34:36.51	166.88	11.72	-29.8	-33.6	12.5	2.48e-03	0	44	102	1048576	19	5552
2026-01-05 23:34:37.52	166.95	11.64	-29.8	-33.5	12.6	3.80e-03	0	44	102	1048576	19	5490
2026-01-05 23:34:38.53	167.03	11.55	-30.0	-34.0	12.2	3.78e-04	0	44	102	1048576	19	5729
2026-01-05 23:34:39.53	167.10	11.46	-30.0	-33.7	12.0	2.57e-03	0	44	102	1048576	20	5503
2026-01-05 23:34:40.54	167.18	11.38	-30.1	-33.8	11.9	2.44e-03	0	44	102	1048576	20	5544
2026-01-05 23:34:41.54	167.25	11.29	-30.1	-33.8	11.9	3.62e-04	0	44	102	1048576	20	5562
2026-01-05 23:34:42.55	167.33	11.21	-30.1	-33.9	11.8	2.55e-03	0	44	102	1048576	20	5588
2026-01-05 23:34:43.56	167.40	11.12	-30.2	-34.1	11.7	2.87e-03	0	44	102	1048576	20	5685
2026-01-05 23:34:44.56	167.48	11.04	-30.2	-34.3	11.6	7.70e-04	0	44	102	1048576	20	5748
2026-01-05 23:34:45.57	167.55	10.95	-30.3	-34.6	11.4	3.10e-03	0	44	102	1048576	20	5892
2026-01-05 23:34:46.58	167.62	10.87	-30.4	-34.9	11.1	3.86e-03	0	44	102	1048576	20	6045
2026-01-05 23:34:47.59	167.69	10.79	-30.4	-35.1	11.0	1.51e-03	0	44	102	1048576	20	6127
2026-01-05 23:34:48.60	167.77	10.70	-30.6	-35.3	10.4	3.41e-03	0	44	102	1048576	21	6142
2026-01-05 23:34:49.60	167.84	10.62	-30.6	-35.0	10.6	7.02e-03	0	44	102	1048576	21	6002
2026-01-05 23:34:50.61	167.91	10.54	-30.6	-35.2	10.5	3.29e-03	0	44	102	1048576	21	6094
2026-01-05 23:34:51.61	167.98	10.45	-30.6	-35.1	10.5	3.89e-03	0	44	102	1048576	21	6059
2026-01-05 23:34:52.62	168.05	10.37	-30.6	-35.3	10.4	6.09e-03	0	44	102	1048576	21	6169
2026-01-05 23:34:53.63	168.12	10.29	-30.7	-35.6	10.1	5.61e-03	0	44	102	1048576	21	6332
2026-01-05 23:34:54.63	168.19	10.21	-30.7	-35.4	10.4	4.89e-03	0	44	102	1048576	21	6190
2026-01-05 23:34:55.64	168.26	10.12	-30.7	-35.5	10.2	5.22e-03	0	44	102	1048576	21	6254
2026-01-05 23:34:56.65	168.33	10.04	-30.7	-35.5	10.2	6.78e-03	0	44	102	1048576	21	6282
2026-01-05 23:34:57.66	168.40	9.96	-30.7	-35.7	10.1	8.36e-03	0	44	102	1048576	21	6344
2026-01-05 23:34:58.67	168.46	9.88	-30.7	-35.6	10.1	8.10e-03	0	44	102	1048576	21	6304
2026-01-05 23:34:59.67	168.53	9.80	-30.6	-35.1	10.4	5.18e-03	0	44	102	1048576	21	6083
2026-01-05 23:35:00.68	168.60	9.72	-30.5	-34.9	10.6	6.42e-03	0	44	102	1048576	21	5973
2026-01-05 23:35:01.69	168.67	9.64	-30.5	-35.2	10.8	2.62e-03	0	44	102	1048576	20	6214
2026-01-05 23:35:02.69	168.73	9.56	-30.4	-35.1	10.8	2.62e-03	0	44	102	1048576	20	6172
2026-01-05 23:35:03.70	168.80	9.48	-30.3	-34.9	11.0	4.58e-03	0	44	102	1048576	20	6067
2026-01-05 23:35:04.71	168.87	9.40	-30.3	-34.8	11.0	2.74e-03	0	44	102	1048576	20	6042
2026-01-05 23:35:05.72	168.93	9.32	-30.3	-34.6	11.2	1.61e-03	0	44	102	1048576	20	5942
2026-01-05 23:35:06.73	169.00	9.24	-30.3	-34.7	11.1	1.43e-03	0	44	102	1048576	20	6010
2026-01-05 23:35:07.73	169.06	9.16	-30.3	-34.8	11.0	4.60e-03	0	44	102	1048576	20	6014
2026-01-05 23:35:08.74	169.13	9.08	-30.2	-34.5	11.2	1.33e-03	0	44	102	1048576	20	5892
2026-01-05 23:35:09.75	169.19	9.00	-30.3	-34.8	11.0	1.61e-03	0	44	102	1048576	20	6034
2026-01-05 23:35:10.75	169.26	8.92	-30.3	-34.7	11.1	1.78e-03	0	44	102	1048576	20	5989
2026-01-05 23:35:11.76	169.32	8.84	-30.2	-34.5	11.1	1.31e-03	0	44	102	1048576	20	5929
2026-01-05 23:35:12.77	169.38	8.77	-30.3	-34.9	10.9	1.45e-03	0	44	102	1048576	20	6073
2026-01-05 23:35:13.78	169.45	8.69	-30.2	-34.6	11.1	1.61e-03	0	44	102	1048576	20	5945
2026-01-05 23:35:14.79	169.51	8.61	-30.2	-34.5	11.1	1.62e-03	0	44	102	1048576	20	5933
2026-01-05 23:35:15.79	169.57	8.53	-30.2	-34.5	11.2	1.48e-03	0	43	102	1048576	20	5905
2026-01-05 23:35:16.80	169.63	8.46	-30.3	-34.8	10.9	1.59e-03	0	44	102	1048576	20	6072
2026-01-05 23:35:17.81	169.70	8.38	-30.3	-34.8	10.9	2.06e-03	0	44	102	1048576	20	6049
2026-01-05 23:35:18.81	169.76	8.30	-30.3	-34.8	11.0	3.74e-03	0	44	102	1048576	20	6044
2026-01-05 23:35:19.81	169.82	8.23	-30.4	-35.3	10.5	2.94e-03	0	44	102	1048576	20	6322
2026-01-05 23:35:20.82	169.88	8.15	-30.4	-35.2	10.6	3.60e-03	0	44	102	1048576	20	6236
2026-01-05 23:35:21.83	169.94	8.07	-30.5	-35.5	10.3	6.39e-03	0	44	102	1048576	20	6445
2026-01-05 23:35:22.83	170.00	8.00	-30.6	-35.6	9.8	6.30e-03	0	44	102	1048576	21	6389
2026-01-05 23:35:23.84	170.06	7.92	-30.6	-35.6	9.9	1.22e-02	0	43	102	1048576	21	6379
2026-01-05 23:35:24.85	170.12	7.85	-30.6	-35.5	10.0	1.00e-02	0	44	102	1048576	21	6312
2026-01-05 23:35:25.86	170.18	7.77	-30.7	-35.8	9.7	1.22e-02	0	44	102	1048576	21	6468
2026-01-05 23:35:26.87	170.24	7.69	-30.7	-36.0	9.6	1.23e-02	0	44	102	1048576	21	6574
2026-01-05 23:35:27.87	170.30	7.62	-30.7	-35.9	9.6	1.50e-02	0	44	102	1048576	21	6549
2026-01-05 23:35:28.88	170.36	7.55	-30.8	-36.4	9.2	1.88e-02	0	44	102	1048576	21	6829
2026-01-05 23:35:29.89	170.41	7.47	-30.8	-36.4	9.2	2.28e-02	0	44	102	1048576	21	6797
2026-01-05 23:35:30.89	170.47	7.40	-30.7	-36.0	9.6	1.71e-02	0	44	102	1048576	21	6575
2026-01-05 23:35:31.90	170.53	7.32	-30.7	-35.8	9.7	1.37e-02	0	44	102	1048576	21	6471
2026-01-05 23:35:32.91	170.59	7.25	-30.7	-35.7	9.7	9.78e-03	0	44	102	1048576	21	6455
2026-01-05 23:35:33.92	170.65	7.17	-30.7	-36.0	9.6	1.12e-02	0	44	102	1048576	21	6592
2026-01-05 23:35:34.92	170.70	7.10	-30.8	-36.4	9.3	1.81e-02	0	44	102	1048576	21	6795
2026-01-05 23:35:35.93	170.76	7.03	-32.5	-46.0	3.8	1.34e+00	0	44	104	1048576	24	17166
2026-01-05 23:35:36.94	170.82	6.95	-32.8	-47.2	3.8	1.49e+00	0	44	104	1048576	25	18861
2026-01-05 23:35:37.94	170.87	6.88	-33.0	-47.2	3.8	1.49e+00	0	44	104	1048576	26	18360
