passes_logs/2026/01/18/R3.2S_Murmansk/R3.2S_Murmansk__20260118_065326_SUOMI_NPP_rec.log

#Pass ID: 20260118_065326_SUOMI NPP
#Satellite: SUOMI NPP
#Configuration: NPP
#almurnet v.1.7.20251203
#Start time: 2026-01-18 06:53:26

#Version: 2.2.20231116
#Station: R3.2S_Murmansk
#Location: 33.079688 lon 68.888172 lat
#TLE: 1 37849U 11061A   26017.57099531  .00000072  00000+0  54974-4 0  9996
#TLE: 2 37849  98.7814 319.5974 0002398  59.1749 300.9663 14.19525865737072

#Time	Az	El	Level	Level2	SNR	BER	BlckErr	Temp	State	Recorded	gain1	gain2
2026-01-18 06:53:26.39	91.25	2.00	-52.0	-67.0	3.8	1.49e+00	0	38	0	0	76	19260
2026-01-18 06:53:27.39	91.20	2.06	-52.0	-67.0	3.8	1.49e+00	0	38	104	0	74	21668
2026-01-18 06:53:28.41	91.14	2.12	-52.0	-67.0	3.8	1.49e+00	0	38	104	0	74	21578
2026-01-18 06:53:29.41	91.09	2.18	-52.0	-67.0	3.8	1.49e+00	0	38	104	0	74	21656
2026-01-18 06:53:30.42	91.04	2.24	-52.0	-67.0	3.8	1.49e+00	0	38	104	0	74	21577
2026-01-18 06:53:31.43	90.98	2.30	-52.0	-67.0	3.8	1.49e+00	0	38	104	0	74	21589
2026-01-18 06:53:32.44	90.93	2.36	-52.0	-67.0	3.8	1.49e+00	0	38	104	0	74	21585
2026-01-18 06:53:33.45	90.87	2.42	-52.0	-67.0	3.8	1.49e+00	0	38	104	0	74	21553
2026-01-18 06:53:34.46	90.82	2.48	-52.0	-67.0	3.8	1.49e+00	0	38	104	0	74	21620
2026-01-18 06:53:35.47	90.76	2.54	-52.0	-67.0	3.8	1.49e+00	0	38	104	0	74	21581
2026-01-18 06:53:36.47	90.71	2.60	-52.0	-67.0	3.8	1.49e+00	0	38	104	0	74	21583
2026-01-18 06:53:37.48	90.65	2.66	-52.0	-67.0	3.8	1.49e+00	0	37	104	0	74	21531
2026-01-18 06:53:38.49	90.59	2.72	-52.0	-67.0	3.8	1.49e+00	0	38	104	0	74	21507
2026-01-18 06:53:39.50	90.54	2.78	-52.0	-66.9	3.8	1.49e+00	0	38	104	0	74	21431
2026-01-18 06:53:40.51	90.48	2.84	-52.0	-66.9	3.8	1.49e+00	0	38	104	0	74	21430
2026-01-18 06:53:41.51	90.42	2.90	-52.0	-66.9	3.8	1.49e+00	0	38	104	0	74	21440
2026-01-18 06:53:42.52	90.37	2.96	-52.0	-66.9	3.8	1.49e+00	0	37	104	0	74	21407
2026-01-18 06:53:43.53	90.31	3.03	-52.0	-67.0	3.8	1.49e+00	0	38	104	0	74	21507
2026-01-18 06:53:44.54	90.25	3.09	-52.0	-67.0	3.8	1.49e+00	0	37	104	0	74	21526
2026-01-18 06:53:45.55	90.19	3.15	-52.0	-67.0	3.8	1.49e+00	0	37	104	0	74	21518
2026-01-18 06:53:46.55	90.14	3.21	-52.0	-67.0	3.8	1.49e+00	0	37	104	0	74	21514
2026-01-18 06:53:47.56	90.08	3.27	-52.0	-66.9	3.8	1.49e+00	0	37	104	0	74	21452
2026-01-18 06:53:48.57	90.02	3.33	-52.0	-66.9	3.8	1.49e+00	0	37	104	0	74	21347
2026-01-18 06:53:49.58	89.96	3.40	-52.0	-66.9	3.8	1.49e+00	0	37	104	0	74	21272
2026-01-18 06:53:50.59	89.90	3.46	-52.0	-66.9	3.8	1.49e+00	0	37	104	0	74	21349
2026-01-18 06:53:51.59	89.84	3.52	-52.0	-66.9	3.8	1.49e+00	0	37	104	0	74	21501
2026-01-18 06:53:52.60	89.78	3.58	-52.0	-66.9	3.8	1.49e+00	0	37	104	0	74	21495
2026-01-18 06:53:53.61	89.72	3.64	-52.0	-66.9	3.8	1.49e+00	0	37	104	0	74	21488
2026-01-18 06:53:54.62	89.66	3.71	-52.0	-66.9	3.8	1.49e+00	0	37	104	0	74	21355
2026-01-18 06:53:55.63	89.60	3.77	-52.0	-66.7	3.8	1.49e+00	0	37	104	0	74	20954
2026-01-18 06:53:56.64	89.54	3.83	-52.0	-66.4	3.8	1.49e+00	0	37	104	0	74	20218
2026-01-18 06:53:57.65	89.48	3.89	-52.0	-66.0	3.8	1.49e+00	0	37	104	0	74	19271
2026-01-18 06:53:58.65	89.42	3.96	-51.9	-65.6	3.8	1.49e+00	0	37	104	0	74	18432
2026-01-18 06:53:59.66	89.36	4.02	-51.9	-65.1	3.8	1.49e+00	0	37	104	0	74	17363
2026-01-18 06:54:00.67	89.29	4.08	-51.8	-64.0	4.0	1.47e+00	0	37	0	0	74	15392
2026-01-18 06:54:01.68	89.23	4.15	-51.8	-64.0	3.9	1.45e+00	0	37	104	0	74	15330
2026-01-18 06:54:02.69	89.17	4.21	-51.7	-62.7	4.4	1.39e+00	132	37	0	0	74	13184
2026-01-18 06:54:03.69	89.11	4.27	-51.7	-61.7	4.8	8.82e-01	0	37	0	2097152	74	11767
2026-01-18 06:54:04.70	89.04	4.34	-51.6	-61.1	5.2	6.65e-01	0	37	0	3145728	74	10964
2026-01-18 06:54:05.71	88.98	4.40	-51.4	-60.0	5.9	5.62e-01	0	37	0	5242880	74	9646
2026-01-18 06:54:06.72	88.92	4.47	-51.4	-59.7	6.1	2.85e-01	0	37	0	7340032	74	9286
2026-01-18 06:54:07.73	88.85	4.53	-51.2	-58.5	7.1	1.86e-01	0	37	0	9437184	74	8163
2026-01-18 06:54:08.73	88.79	4.59	-51.2	-58.5	7.1	1.30e-01	0	37	0	11534336	74	8142
2026-01-18 06:54:09.74	88.72	4.66	-51.1	-58.0	7.6	9.77e-02	0	37	0	12582912	74	7711
2026-01-18 06:54:10.75	88.66	4.72	-51.0	-57.7	7.9	9.47e-02	0	37	0	14680064	74	7396
2026-01-18 06:54:11.76	88.59	4.79	-51.0	-57.7	7.9	6.85e-02	0	37	0	16777216	73	7879
2026-01-18 06:54:12.77	88.53	4.85	-51.1	-58.2	7.4	1.09e-01	0	37	0	18874368	73	8354
2026-01-18 06:54:13.77	88.46	4.92	-51.1	-58.4	7.3	1.56e-01	0	37	0	20971520	73	8473
2026-01-18 06:54:14.78	88.40	4.98	-51.2	-58.9	6.8	1.86e-01	0	37	0	22020096	73	8998
2026-01-18 06:54:15.79	88.33	5.05	-51.4	-59.8	6.1	2.20e-01	0	37	0	24117248	73	10006
2026-01-18 06:54:16.80	88.26	5.11	-48.9	-51.9	14.3	1.76e-03	0	37	0	26214400	69	5072
2026-01-18 06:54:17.81	88.20	5.18	-50.7	-56.3	9.7	1.03e-04	0	37	0	28311552	72	7051
2026-01-18 06:54:18.81	88.13	5.24	-51.8	-63.8	4.1	2.27e-01	0	37	0	29360128	74	15015
2026-01-18 06:54:19.82	88.06	5.31	-49.6	-53.1	12.9	1.30e+00	0	37	0	29360128	71	5206
2026-01-18 06:54:20.83	87.99	5.37	-51.7	-61.9	4.9	1.60e-01	0	37	0	31457280	73	12765
2026-01-18 06:54:21.84	87.92	5.44	-50.0	-54.1	11.7	4.14e-01	0	37	0	32505856	72	5521
2026-01-18 06:54:22.85	87.86	5.50	-49.4	-52.8	13.5	2.21e-05	0	37	0	34603008	70	5302
2026-01-18 06:54:23.85	87.79	5.57	-49.7	-53.4	12.7	5.64e-05	0	37	0	36700160	70	5692
2026-01-18 06:54:24.86	87.72	5.64	-49.1	-52.2	14.0	2.20e-06	0	37	0	38797312	70	4954
2026-01-18 06:54:25.87	87.65	5.70	-49.1	-52.2	13.9	5.30e-06	0	37	0	39845888	70	4947
2026-01-18 06:54:26.88	87.58	5.77	-48.8	-51.7	14.6	7.00e-07	0	37	0	41943040	69	4936
2026-01-18 06:54:27.89	87.51	5.83	-48.9	-51.9	14.4	7.00e-07	0	37	0	44040192	69	5076
2026-01-18 06:54:28.89	87.44	5.90	-48.9	-51.9	14.4	7.00e-07	0	37	0	46137344	69	5065
2026-01-18 06:54:29.90	87.37	5.97	-48.9	-51.8	14.5	0.00e+00	0	37	0	48234496	69	5020
2026-01-18 06:54:30.91	87.30	6.03	-49.1	-52.3	14.1	1.50e-06	0	37	0	50331648	69	5290
2026-01-18 06:54:31.92	87.22	6.10	-49.2	-52.3	14.0	7.00e-07	0	37	0	51380224	69	5311
2026-01-18 06:54:32.93	87.15	6.17	-49.2	-52.3	14.0	2.20e-06	0	37	0	53477376	69	5330
2026-01-18 06:54:33.93	87.08	6.24	-48.8	-51.6	14.7	7.00e-07	0	37	0	55574528	69	4908
2026-01-18 06:54:34.94	87.01	6.30	-49.1	-52.2	14.2	1.50e-06	0	37	0	57671680	69	5258
2026-01-18 06:54:35.95	86.93	6.37	-49.1	-52.1	14.2	0.00e+00	0	37	0	59768832	69	5201
2026-01-18 06:54:36.96	86.86	6.44	-49.3	-52.5	13.9	1.50e-06	0	36	0	60817408	69	5444
2026-01-18 06:54:37.97	86.79	6.51	-48.9	-51.8	14.5	1.50e-06	0	37	0	62914560	69	5022
2026-01-18 06:54:38.97	86.71	6.57	-48.8	-51.6	14.8	0.00e+00	0	37	0	65011712	69	4885
2026-01-18 06:54:39.98	86.64	6.64	-48.8	-51.6	14.8	0.00e+00	0	37	0	67108864	69	4901
2026-01-18 06:54:40.99	86.56	6.71	-48.8	-51.7	14.7	0.00e+00	0	37	0	68157440	69	4941
2026-01-18 06:54:42.00	86.49	6.78	-48.9	-51.8	14.6	0.00e+00	0	37	0	70254592	69	5004
2026-01-18 06:54:43.00	86.41	6.85	-48.8	-51.5	14.9	0.00e+00	0	37	0	72351744	69	4868
2026-01-18 06:54:44.01	86.34	6.91	-48.8	-51.5	14.9	0.00e+00	0	37	0	74448896	69	4860
2026-01-18 06:54:45.02	86.26	6.98	-48.9	-51.8	14.6	0.00e+00	0	37	0	76546048	69	5010
2026-01-18 06:54:46.03	86.18	7.05	-48.7	-51.6	14.7	7.00e-07	0	37	0	78643200	69	4918
2026-01-18 06:54:47.03	86.11	7.12	-48.8	-51.8	14.6	7.00e-07	0	37	0	79691776	69	4993
2026-01-18 06:54:48.04	86.03	7.19	-48.6	-51.4	15.0	7.00e-07	0	37	0	81788928	69	4801
2026-01-18 06:54:49.05	85.95	7.26	-48.7	-51.5	14.9	0.00e+00	0	37	0	83886080	69	4870
2026-01-18 06:54:50.06	85.87	7.33	-48.7	-51.6	14.8	0.00e+00	0	37	0	85983232	69	4888
2026-01-18 06:54:51.07	85.80	7.40	-48.3	-51.0	15.4	0.00e+00	0	36	0	88080384	68	4834
2026-01-18 06:54:52.07	85.72	7.47	-48.2	-50.7	15.7	0.00e+00	0	37	0	89128960	68	4684
2026-01-18 06:54:53.08	85.64	7.54	-48.4	-51.1	15.3	0.00e+00	0	37	0	91226112	68	4872
2026-01-18 06:54:54.09	85.56	7.61	-48.1	-50.6	15.8	0.00e+00	0	37	0	93323264	68	4609
2026-01-18 06:54:55.10	85.48	7.68	-48.1	-50.5	15.9	0.00e+00	0	37	0	95420416	68	4582
2026-01-18 06:54:56.10	85.40	7.75	-48.0	-50.5	15.8	0.00e+00	0	37	0	97517568	67	4856
2026-01-18 06:54:57.11	85.32	7.82	-47.7	-50.0	16.4	0.00e+00	0	36	0	98566144	67	4546
2026-01-18 06:54:58.12	85.24	7.89	-47.7	-49.9	16.4	0.00e+00	0	37	0	100663296	67	4544
2026-01-18 06:54:59.13	85.15	7.96	-47.6	-49.9	16.4	0.00e+00	0	36	0	102760448	67	4519
2026-01-18 06:55:00.14	85.07	8.03	-47.8	-50.2	16.2	0.00e+00	0	36	0	104857600	67	4666
2026-01-18 06:55:01.15	84.99	8.10	-47.8	-50.1	16.2	0.00e+00	0	37	0	106954752	67	4646
2026-01-18 06:55:02.15	84.91	8.17	-47.8	-50.1	16.2	0.00e+00	0	37	0	108003328	67	4648
2026-01-18 06:55:03.16	84.82	8.24	-47.7	-50.0	16.3	0.00e+00	0	36	0	110100480	67	4576
2026-01-18 06:55:04.17	84.74	8.31	-47.7	-50.1	16.3	0.00e+00	0	37	0	112197632	67	4611
2026-01-18 06:55:05.18	84.65	8.38	-47.5	-49.7	16.6	0.00e+00	0	36	0	114294784	67	4441
2026-01-18 06:55:06.19	84.57	8.46	-47.6	-49.9	16.5	0.00e+00	0	37	0	116391936	66	4804
2026-01-18 06:55:07.19	84.49	8.53	-47.7	-50.0	16.4	0.00e+00	0	37	0	117440512	66	4836
2026-01-18 06:55:08.20	84.40	8.60	-47.6	-49.9	16.5	0.00e+00	0	36	0	119537664	66	4798
2026-01-18 06:55:09.21	84.31	8.67	-47.7	-50.0	16.4	0.00e+00	0	36	0	121634816	66	4824
2026-01-18 06:55:10.22	84.23	8.74	-47.6	-49.8	16.6	0.00e+00	0	36	0	123731968	66	4728
2026-01-18 06:55:11.23	84.14	8.82	-47.7	-50.0	16.4	0.00e+00	0	36	0	125829120	66	4830
2026-01-18 06:55:12.23	84.05	8.89	-47.9	-50.2	16.1	0.00e+00	0	37	0	126877696	66	4973
2026-01-18 06:55:13.24	83.97	8.96	-47.8	-50.2	16.2	0.00e+00	0	36	0	128974848	66	4956
2026-01-18 06:55:14.25	83.88	9.03	-47.8	-50.1	16.3	0.00e+00	0	36	0	131072000	66	4895
2026-01-18 06:55:15.26	83.79	9.11	-47.8	-50.1	16.3	0.00e+00	0	37	0	133169152	66	4923
2026-01-18 06:55:16.27	83.70	9.18	-47.7	-49.9	16.5	0.00e+00	0	36	0	135266304	66	4806
2026-01-18 06:55:17.27	83.61	9.25	-47.8	-50.2	16.3	0.00e+00	0	36	0	136314880	66	4938
2026-01-18 06:55:18.28	83.52	9.33	-47.8	-50.1	16.3	0.00e+00	0	37	0	138412032	66	4908
2026-01-18 06:55:19.29	83.43	9.40	-47.9	-50.3	16.2	0.00e+00	0	36	0	140509184	66	4991
2026-01-18 06:55:20.30	83.34	9.47	-48.1	-50.5	16.0	0.00e+00	0	37	0	142606336	66	5126
2026-01-18 06:55:21.31	83.25	9.55	-47.8	-50.1	16.3	0.00e+00	0	36	0	144703488	66	4908
2026-01-18 06:55:22.32	83.15	9.62	-47.8	-50.1	16.4	0.00e+00	0	36	0	146800640	66	4901
2026-01-18 06:55:23.32	83.06	9.69	-47.9	-50.2	16.3	0.00e+00	0	37	0	147849216	66	4952
2026-01-18 06:55:24.33	82.97	9.77	-47.8	-50.1	16.4	0.00e+00	0	36	0	149946368	66	4905
2026-01-18 06:55:25.34	82.88	9.84	-47.8	-50.1	16.4	0.00e+00	0	36	0	152043520	66	4906
2026-01-18 06:55:26.35	82.78	9.92	-47.6	-49.8	16.7	0.00e+00	0	36	0	154140672	66	4717
2026-01-18 06:55:27.36	82.69	9.99	-47.7	-49.9	16.7	0.00e+00	0	36	0	155189248	66	4766
2026-01-18 06:55:28.37	82.59	10.07	-47.6	-49.8	16.7	0.00e+00	0	37	0	157286400	66	4727
2026-01-18 06:55:29.37	82.50	10.14	-47.6	-49.8	16.7	0.00e+00	0	36	0	159383552	66	4749
2026-01-18 06:55:30.38	82.40	10.22	-47.6	-49.8	16.7	0.00e+00	0	36	0	161480704	66	4737
2026-01-18 06:55:31.39	82.30	10.29	-47.8	-50.1	16.3	0.00e+00	0	36	0	163577856	66	4876
2026-01-18 06:55:32.40	82.21	10.37	-47.7	-50.0	16.5	0.00e+00	0	36	0	165675008	66	4831
2026-01-18 06:55:33.40	82.11	10.44	-47.8	-50.1	16.4	0.00e+00	0	36	0	166723584	66	4915
2026-01-18 06:55:34.41	82.01	10.52	-47.7	-49.9	16.6	0.00e+00	0	36	0	168820736	66	4776
2026-01-18 06:55:35.41	81.91	10.59	-47.6	-49.8	16.7	0.00e+00	0	36	0	170917888	66	4743
2026-01-18 06:55:36.42	81.82	10.67	-47.7	-49.9	16.7	0.00e+00	0	36	0	173015040	66	4776
2026-01-18 06:55:37.43	81.72	10.75	-47.5	-49.7	16.9	0.00e+00	0	36	0	175112192	66	4653
2026-01-18 06:55:38.44	81.62	10.82	-47.4	-49.5	17.0	0.00e+00	0	36	0	176160768	66	4583
2026-01-18 06:55:39.45	81.51	10.90	-47.6	-49.7	16.8	0.00e+00	0	36	0	178257920	66	4703
2026-01-18 06:55:40.45	81.41	10.97	-47.7	-50.0	16.6	0.00e+00	0	36	0	180355072	66	4822
2026-01-18 06:55:41.46	81.31	11.05	-47.9	-50.3	16.2	0.00e+00	0	36	0	182452224	66	5021
2026-01-18 06:55:42.47	81.21	11.13	-47.9	-50.2	16.3	0.00e+00	0	36	0	183500800	66	4956
2026-01-18 06:55:43.48	81.11	11.20	-47.9	-50.3	16.2	0.00e+00	0	36	0	185597952	66	5011
2026-01-18 06:55:44.48	81.00	11.28	-48.0	-50.3	16.2	0.00e+00	0	36	0	187695104	66	5036
2026-01-18 06:55:45.49	80.90	11.36	-48.0	-50.4	16.1	0.00e+00	0	36	0	189792256	66	5089
2026-01-18 06:55:46.50	80.80	11.44	-47.7	-50.0	16.6	0.00e+00	0	36	0	191889408	66	4823
2026-01-18 06:55:47.50	80.69	11.51	-47.6	-49.9	16.7	0.00e+00	0	36	0	193986560	66	4769
2026-01-18 06:55:48.51	80.59	11.59	-47.7	-49.9	16.6	0.00e+00	0	36	0	195035136	66	4808
2026-01-18 06:55:49.52	80.48	11.67	-47.8	-50.1	16.5	0.00e+00	0	36	0	197132288	66	4896
2026-01-18 06:55:50.52	80.37	11.75	-47.6	-49.7	16.8	0.00e+00	0	37	0	199229440	66	4701
2026-01-18 06:55:51.53	80.27	11.82	-47.8	-50.1	16.5	0.00e+00	0	37	0	201326592	66	4879
2026-01-18 06:55:52.54	80.16	11.90	-47.8	-50.2	16.5	0.00e+00	0	36	0	203423744	66	4928
2026-01-18 06:55:53.55	80.05	11.98	-47.8	-50.2	16.4	0.00e+00	0	36	0	204472320	66	4953
2026-01-18 06:55:54.56	79.94	12.06	-47.8	-50.1	16.5	0.00e+00	0	36	0	206569472	66	4891
2026-01-18 06:55:55.57	79.83	12.14	-47.7	-50.0	16.6	0.00e+00	0	36	0	208666624	66	4820
2026-01-18 06:55:56.57	79.72	12.22	-47.6	-49.7	16.8	0.00e+00	0	37	0	210763776	66	4702
2026-01-18 06:55:57.58	79.61	12.30	-47.5	-49.7	16.9	0.00e+00	0	36	0	211812352	66	4654
2026-01-18 06:55:58.59	79.50	12.38	-47.5	-49.6	17.0	0.00e+00	0	36	0	213909504	66	4605
2026-01-18 06:55:59.60	79.38	12.46	-47.4	-49.5	17.1	0.00e+00	0	36	0	216006656	66	4572
2026-01-18 06:56:00.61	79.27	12.54	-47.6	-49.7	16.9	0.00e+00	0	36	0	218103808	66	4680
2026-01-18 06:56:01.62	79.16	12.62	-47.6	-49.8	16.8	0.00e+00	0	36	0	220200960	66	4716
2026-01-18 06:56:02.63	79.04	12.70	-47.8	-50.0	16.7	0.00e+00	0	36	0	222298112	66	4849
2026-01-18 06:56:03.64	78.93	12.78	-47.7	-50.0	16.6	0.00e+00	0	36	0	223346688	66	4840
2026-01-18 06:56:04.65	78.81	12.86	-47.5	-49.7	16.9	0.00e+00	0	36	0	225443840	66	4676
2026-01-18 06:56:05.65	78.70	12.94	-47.5	-49.6	17.1	0.00e+00	0	36	0	227540992	66	4616
2026-01-18 06:56:06.66	78.58	13.02	-47.2	-49.2	17.5	0.00e+00	0	37	0	229638144	66	4401
2026-01-18 06:56:07.67	78.46	13.10	-47.0	-48.8	17.8	0.00e+00	0	36	0	231735296	66	4227
2026-01-18 06:56:08.68	78.35	13.18	-47.1	-49.0	17.6	0.00e+00	0	36	0	232783872	65	4566
2026-01-18 06:56:09.69	78.23	13.26	-47.0	-48.9	17.7	0.00e+00	0	36	0	234881024	65	4536
2026-01-18 06:56:10.69	78.11	13.34	-47.3	-49.2	17.4	0.00e+00	0	36	0	236978176	65	4702
2026-01-18 06:56:11.70	77.99	13.42	-47.1	-49.1	17.6	0.00e+00	0	36	0	239075328	65	4616
2026-01-18 06:56:12.71	77.87	13.50	-47.2	-49.2	17.4	0.00e+00	0	36	0	241172480	65	4680
2026-01-18 06:56:13.71	77.75	13.58	-47.3	-49.3	17.3	0.00e+00	0	36	0	242221056	65	4741
2026-01-18 06:56:14.72	77.62	13.66	-47.3	-49.3	17.3	0.00e+00	0	36	0	244318208	65	4736
2026-01-18 06:56:15.73	77.50	13.75	-47.0	-48.8	17.8	0.00e+00	0	36	0	246415360	65	4476
2026-01-18 06:56:16.74	77.38	13.83	-47.4	-49.4	17.3	0.00e+00	0	36	0	248512512	65	4788
2026-01-18 06:56:17.75	77.25	13.91	-47.4	-49.5	17.2	0.00e+00	0	36	0	250609664	65	4826
2026-01-18 06:56:18.76	77.13	13.99	-47.3	-49.4	17.3	0.00e+00	0	36	0	251658240	65	4769
2026-01-18 06:56:19.76	77.00	14.07	-47.5	-49.5	17.2	0.00e+00	0	36	0	253755392	65	4868
2026-01-18 06:56:20.77	76.88	14.16	-47.6	-49.7	17.0	0.00e+00	0	36	0	255852544	66	4675
2026-01-18 06:56:21.78	76.75	14.24	-47.6	-49.7	17.0	0.00e+00	0	36	0	257949696	66	4695
2026-01-18 06:56:22.79	76.62	14.32	-47.8	-50.0	16.8	0.00e+00	0	36	0	260046848	66	4815
2026-01-18 06:56:23.79	76.49	14.40	-47.5	-49.6	17.1	0.00e+00	0	36	0	261095424	66	4606
2026-01-18 06:56:24.80	76.37	14.49	-47.8	-50.0	16.7	0.00e+00	0	36	0	263192576	66	4859
2026-01-18 06:56:25.81	76.24	14.57	-47.8	-50.0	16.7	0.00e+00	0	36	0	265289728	66	4859
2026-01-18 06:56:26.81	76.11	14.65	-47.9	-50.1	16.6	0.00e+00	0	36	0	267386880	66	4899
2026-01-18 06:56:27.82	75.97	14.74	-47.8	-50.1	16.7	0.00e+00	0	36	0	269484032	66	4876
2026-01-18 06:56:28.83	75.84	14.82	-47.9	-50.2	16.5	0.00e+00	0	36	0	270532608	66	4930
2026-01-18 06:56:29.84	75.71	14.90	-47.7	-49.9	16.8	0.00e+00	0	36	0	272629760	66	4782
2026-01-18 06:56:30.85	75.58	14.99	-47.6	-49.8	17.0	0.00e+00	0	36	0	274726912	66	4715
2026-01-18 06:56:31.85	75.44	15.07	-47.3	-49.3	17.5	0.00e+00	0	36	0	276824064	66	4449
2026-01-18 06:56:32.87	75.30	15.16	-47.5	-49.6	17.1	0.00e+00	0	36	0	278921216	66	4642
2026-01-18 06:56:33.87	75.17	15.24	-47.3	-49.3	17.5	0.00e+00	0	36	0	279969792	66	4451
2026-01-18 06:56:34.88	75.03	15.32	-47.2	-49.2	17.5	0.00e+00	0	36	0	282066944	65	4690
2026-01-18 06:56:35.89	74.90	15.41	-47.3	-49.3	17.4	0.00e+00	0	36	0	284164096	65	4711
2026-01-18 06:56:36.89	74.76	15.49	-47.2	-49.1	17.6	0.00e+00	0	36	0	286261248	65	4633
2026-01-18 06:56:37.90	74.62	15.58	-47.2	-49.2	17.5	0.00e+00	0	36	0	288358400	65	4689
2026-01-18 06:56:38.90	74.48	15.66	-47.1	-49.1	17.6	0.00e+00	0	36	0	289406976	65	4605
2026-01-18 06:56:39.91	74.34	15.74	-46.9	-48.8	17.9	0.00e+00	0	36	0	291504128	65	4473
2026-01-18 06:56:40.92	74.20	15.83	-47.0	-48.9	17.8	0.00e+00	0	36	0	293601280	65	4502
2026-01-18 06:56:41.93	74.05	15.92	-46.7	-48.5	18.1	0.00e+00	0	36	0	295698432	65	4337
2026-01-18 06:56:42.94	73.91	16.00	-46.7	-48.5	18.3	0.00e+00	0	36	0	297795584	65	4299
2026-01-18 06:56:43.95	73.77	16.09	-46.7	-48.5	18.2	0.00e+00	0	36	0	298844160	65	4308
2026-01-18 06:56:44.96	73.62	16.17	-46.5	-48.2	18.4	0.00e+00	0	36	0	300941312	65	4167
2026-01-18 06:56:45.96	73.48	16.26	-46.6	-48.4	18.3	0.00e+00	0	36	0	303038464	64	4494
2026-01-18 06:56:46.97	73.33	16.34	-46.4	-48.1	18.6	0.00e+00	0	36	0	305135616	64	4371
2026-01-18 06:56:47.98	73.18	16.43	-46.3	-47.9	18.7	0.00e+00	0	36	0	307232768	64	4290
2026-01-18 06:56:48.99	73.03	16.51	-46.2	-47.8	18.9	0.00e+00	0	36	0	308281344	64	4225
2026-01-18 06:56:49.99	72.89	16.60	-46.4	-48.1	18.7	0.00e+00	0	36	0	310378496	64	4341
2026-01-18 06:56:51.00	72.74	16.69	-46.4	-48.2	18.6	0.00e+00	0	36	0	312475648	64	4394
2026-01-18 06:56:52.01	72.58	16.77	-46.6	-48.3	18.4	0.00e+00	0	36	0	314572800	64	4488
2026-01-18 06:56:53.01	72.43	16.86	-46.4	-48.0	18.6	0.00e+00	0	36	0	316669952	64	4321
2026-01-18 06:56:54.02	72.28	16.94	-46.4	-48.1	18.6	0.00e+00	0	36	0	317718528	64	4367
2026-01-18 06:56:55.03	72.13	17.03	-46.4	-48.1	18.6	0.00e+00	0	36	0	319815680	64	4377
2026-01-18 06:56:56.04	71.97	17.12	-46.5	-48.2	18.5	0.00e+00	0	36	0	321912832	64	4412
2026-01-18 06:56:57.05	71.82	17.20	-46.5	-48.2	18.5	0.00e+00	0	36	0	324009984	64	4431
2026-01-18 06:56:58.05	71.66	17.29	-46.6	-48.3	18.4	0.00e+00	0	36	0	326107136	64	4458
2026-01-18 06:56:59.06	71.50	17.38	-46.6	-48.3	18.4	0.00e+00	0	36	0	327155712	64	4466
2026-01-18 06:57:00.07	71.35	17.46	-46.8	-48.6	18.2	0.00e+00	0	36	0	329252864	64	4622
2026-01-18 06:57:01.07	71.19	17.55	-46.5	-48.2	18.5	0.00e+00	0	36	0	331350016	64	4394
2026-01-18 06:57:02.08	71.03	17.64	-46.6	-48.4	18.3	0.00e+00	0	36	0	333447168	64	4507
2026-01-18 06:57:03.09	70.87	17.72	-46.8	-48.6	18.2	0.00e+00	0	36	0	335544320	64	4630
2026-01-18 06:57:04.10	70.71	17.81	-46.8	-48.6	18.1	0.00e+00	0	36	0	337641472	64	4633
2026-01-18 06:57:05.11	70.54	17.90	-46.8	-48.6	18.1	0.00e+00	0	36	0	338690048	64	4633
2026-01-18 06:57:06.11	70.38	17.98	-46.8	-48.6	18.1	0.00e+00	0	36	0	340787200	64	4626
2026-01-18 06:57:07.12	70.21	18.07	-46.8	-48.6	18.1	0.00e+00	0	36	0	342884352	64	4631
2026-01-18 06:57:08.13	70.05	18.16	-46.7	-48.5	18.2	0.00e+00	0	36	0	344981504	64	4569
2026-01-18 06:57:09.13	69.88	18.25	-46.5	-48.2	18.6	0.00e+00	0	36	0	346030080	64	4413
2026-01-18 06:57:10.14	69.72	18.33	-46.5	-48.3	18.5	0.00e+00	0	36	0	348127232	64	4456
2026-01-18 06:57:11.15	69.55	18.42	-46.6	-48.3	18.4	0.00e+00	0	36	0	350224384	64	4475
2026-01-18 06:57:12.16	69.38	18.51	-46.7	-48.4	18.3	0.00e+00	0	36	0	352321536	64	4531
2026-01-18 06:57:13.17	69.21	18.60	-46.5	-48.2	18.6	0.00e+00	0	36	0	354418688	64	4400
2026-01-18 06:57:14.18	69.03	18.69	-46.5	-48.2	18.5	0.00e+00	0	36	0	355467264	64	4441
2026-01-18 06:57:15.18	68.86	18.77	-46.6	-48.3	18.4	0.00e+00	0	36	0	357564416	64	4493
2026-01-18 06:57:16.19	68.69	18.86	-46.6	-48.3	18.4	0.00e+00	0	36	0	359661568	64	4484
2026-01-18 06:57:17.19	68.52	18.95	-46.6	-48.3	18.5	0.00e+00	0	36	0	361758720	64	4482
2026-01-18 06:57:18.20	68.34	19.04	-46.9	-48.7	18.1	0.00e+00	0	36	0	363855872	64	4689
2026-01-18 06:57:19.21	68.16	19.12	-47.0	-48.9	17.9	0.00e+00	0	36	0	365953024	64	4800
2026-01-18 06:57:20.21	67.99	19.21	-47.0	-48.9	18.0	0.00e+00	0	36	0	367001600	64	4762
2026-01-18 06:57:21.22	67.81	19.30	-46.9	-48.7	18.1	0.00e+00	0	36	0	369098752	64	4674
2026-01-18 06:57:22.22	67.63	19.39	-47.1	-49.0	17.7	0.00e+00	0	36	0	371195904	65	4578
2026-01-18 06:57:23.23	67.45	19.47	-47.2	-49.1	17.7	0.00e+00	0	36	0	373293056	65	4627
2026-01-18 06:57:24.23	67.27	19.56	-47.3	-49.3	17.6	0.00e+00	0	36	0	375390208	65	4707
2026-01-18 06:57:25.24	67.08	19.65	-47.3	-49.3	17.6	0.00e+00	0	36	0	376438784	65	4721
2026-01-18 06:57:26.25	66.90	19.74	-47.4	-49.4	17.5	0.00e+00	0	36	0	378535936	65	4765
2026-01-18 06:57:27.26	66.72	19.83	-47.1	-49.0	17.8	0.00e+00	0	36	0	380633088	65	4577
2026-01-18 06:57:28.26	66.53	19.91	-47.1	-48.9	17.9	0.00e+00	0	36	0	382730240	65	4544
2026-01-18 06:57:29.27	66.34	20.00	-47.0	-48.9	17.9	0.00e+00	0	36	0	383778816	65	4531
2026-01-18 06:57:30.28	66.15	20.09	-46.9	-48.6	18.1	0.00e+00	0	36	0	385875968	65	4377
2026-01-18 06:57:31.29	65.96	20.18	-47.1	-48.9	17.9	0.00e+00	0	36	0	387973120	65	4545
2026-01-18 06:57:32.29	65.78	20.26	-47.1	-49.0	17.9	0.00e+00	0	36	0	390070272	65	4578
2026-01-18 06:57:33.30	65.58	20.35	-47.3	-49.2	17.6	0.00e+00	0	36	0	392167424	65	4702
2026-01-18 06:57:34.31	65.39	20.44	-47.4	-49.4	17.4	0.00e+00	0	36	0	394264576	65	4788
2026-01-18 06:57:35.32	65.20	20.53	-47.4	-49.4	17.4	0.00e+00	0	36	0	395313152	65	4807
2026-01-18 06:57:36.33	65.00	20.62	-47.6	-49.7	17.3	0.00e+00	0	36	0	397410304	65	4929
2026-01-18 06:57:37.33	64.81	20.70	-47.7	-49.8	17.1	0.00e+00	0	36	0	399507456	65	5016
2026-01-18 06:57:38.34	64.61	20.79	-47.5	-49.5	17.4	0.00e+00	0	36	0	401604608	65	4869
2026-01-18 06:57:39.35	64.41	20.88	-47.4	-49.5	17.4	0.00e+00	0	36	0	403701760	66	4556
2026-01-18 06:57:40.36	64.21	20.97	-47.2	-49.1	17.8	0.00e+00	0	36	0	404750336	66	4349
2026-01-18 06:57:41.36	64.01	21.05	-47.2	-49.1	17.8	0.00e+00	0	36	0	406847488	66	4385
2026-01-18 06:57:42.37	63.81	21.14	-47.0	-48.9	18.1	0.00e+00	0	36	0	408944640	66	4258
2026-01-18 06:57:43.38	63.61	21.23	-46.8	-48.6	18.3	0.00e+00	0	36	0	411041792	65	4358
2026-01-18 06:57:44.38	63.40	21.31	-46.7	-48.5	18.4	0.00e+00	0	36	0	412090368	65	4304
2026-01-18 06:57:45.39	63.20	21.40	-46.3	-48.0	18.9	0.00e+00	0	36	0	414187520	64	4292
2026-01-18 06:57:46.40	62.99	21.49	-46.6	-48.3	18.6	0.00e+00	0	36	0	416284672	64	4475
2026-01-18 06:57:47.41	62.78	21.57	-46.4	-48.1	18.8	0.00e+00	0	36	0	418381824	64	4342
2026-01-18 06:57:48.42	62.57	21.66	-46.6	-48.3	18.6	0.00e+00	0	36	0	420478976	64	4454
2026-01-18 06:57:49.42	62.37	21.75	-46.9	-48.7	18.2	0.00e+00	0	36	0	422576128	64	4685
2026-01-18 06:57:50.43	62.15	21.83	-46.9	-48.7	18.2	0.00e+00	0	36	0	423624704	64	4662
2026-01-18 06:57:51.44	61.94	21.92	-46.9	-48.7	18.2	0.00e+00	0	36	0	425721856	64	4701
2026-01-18 06:57:52.45	61.73	22.01	-46.9	-48.6	18.3	0.00e+00	0	36	0	427819008	64	4640
2026-01-18 06:57:53.46	61.51	22.09	-46.8	-48.6	18.3	0.00e+00	0	36	0	429916160	64	4632
2026-01-18 06:57:54.46	61.30	22.18	-46.8	-48.5	18.3	0.00e+00	0	36	0	432013312	64	4583
2026-01-18 06:57:55.47	61.08	22.26	-46.7	-48.5	18.4	0.00e+00	0	36	0	433061888	64	4568
2026-01-18 06:57:56.48	60.86	22.35	-46.8	-48.5	18.4	0.00e+00	0	36	0	435159040	64	4589
2026-01-18 06:57:57.49	60.64	22.44	-46.6	-48.3	18.6	0.00e+00	0	36	0	437256192	64	4471
2026-01-18 06:57:58.49	60.42	22.52	-46.5	-48.2	18.7	0.00e+00	0	36	0	439353344	64	4397
2026-01-18 06:57:59.50	60.20	22.61	-45.9	-47.3	19.6	0.00e+00	0	36	0	441450496	63	4224
2026-01-18 06:58:00.51	59.98	22.69	-45.8	-47.2	19.7	0.00e+00	0	36	0	442499072	63	4171
2026-01-18 06:58:01.52	59.75	22.78	-45.9	-47.4	19.5	0.00e+00	0	36	0	444596224	63	4265
2026-01-18 06:58:02.53	59.53	22.86	-45.8	-47.3	19.5	0.00e+00	0	36	0	446693376	63	4202
2026-01-18 06:58:03.53	59.30	22.94	-45.9	-47.4	19.6	0.00e+00	0	36	0	448790528	63	4265
2026-01-18 06:58:04.54	59.07	23.03	-45.5	-46.9	19.9	0.00e+00	0	36	0	450887680	63	4044
2026-01-18 06:58:05.55	58.84	23.11	-45.9	-47.4	19.5	0.00e+00	0	36	0	451936256	63	4291
2026-01-18 06:58:06.56	58.61	23.20	-46.1	-47.6	19.3	0.00e+00	0	36	0	454033408	63	4379
2026-01-18 06:58:07.57	58.38	23.28	-46.4	-48.1	19.0	0.00e+00	0	36	0	456130560	63	4636
2026-01-18 06:58:08.57	58.15	23.36	-46.1	-47.7	19.2	0.00e+00	0	36	0	458227712	63	4413
2026-01-18 06:58:09.58	57.91	23.45	-46.2	-47.8	19.1	0.00e+00	0	36	0	460324864	63	4486
2026-01-18 06:58:10.59	57.68	23.53	-46.3	-48.0	19.0	0.00e+00	0	36	0	461373440	63	4567
2026-01-18 06:58:11.60	57.44	23.61	-46.1	-47.7	19.2	0.00e+00	0	36	0	463470592	63	4412
2026-01-18 06:58:12.61	57.20	23.69	-45.9	-47.4	19.5	0.00e+00	0	36	0	465567744	63	4290
2026-01-18 06:58:13.61	56.96	23.78	-45.7	-47.2	19.7	0.00e+00	0	36	0	467664896	63	4164
2026-01-18 06:58:14.62	56.72	23.86	-45.6	-47.0	19.9	0.00e+00	0	36	0	469762048	63	4075
2026-01-18 06:58:15.63	56.48	23.94	-45.4	-46.8	20.1	0.00e+00	0	36	0	470810624	62	4197
2026-01-18 06:58:16.63	56.24	24.02	-45.5	-46.9	20.0	0.00e+00	0	36	0	472907776	62	4267
2026-01-18 06:58:17.64	55.99	24.10	-45.6	-47.0	19.9	0.00e+00	0	36	0	475004928	62	4324
2026-01-18 06:58:18.65	55.75	24.18	-45.7	-47.1	19.8	0.00e+00	0	36	0	477102080	62	4362
2026-01-18 06:58:19.66	55.50	24.26	-45.8	-47.2	19.7	0.00e+00	0	36	0	479199232	62	4413
2026-01-18 06:58:20.67	55.25	24.34	-45.7	-47.1	19.9	0.00e+00	0	36	0	480247808	62	4351
2026-01-18 06:58:21.67	55.00	24.42	-45.6	-47.0	19.9	0.00e+00	0	36	0	482344960	62	4300
2026-01-18 06:58:22.68	54.75	24.50	-45.5	-46.9	19.9	0.00e+00	0	36	0	484442112	62	4277
2026-01-18 06:58:23.69	54.50	24.58	-45.6	-46.9	19.9	0.00e+00	0	36	0	486539264	62	4290
2026-01-18 06:58:24.70	54.24	24.66	-45.4	-46.8	20.0	0.00e+00	0	36	0	488636416	62	4215
2026-01-18 06:58:25.71	53.99	24.73	-45.3	-46.6	20.2	0.00e+00	0	36	0	489684992	62	4112
2026-01-18 06:58:26.71	53.74	24.81	-45.2	-46.5	20.3	0.00e+00	0	36	0	491782144	62	4074
2026-01-18 06:58:27.72	53.48	24.89	-45.3	-46.7	20.2	0.00e+00	0	36	0	493879296	62	4158
2026-01-18 06:58:28.73	53.22	24.96	-45.4	-46.7	20.1	0.00e+00	0	36	0	495976448	62	4177
2026-01-18 06:58:29.74	52.96	25.04	-45.2	-46.5	20.3	0.00e+00	0	36	0	498073600	62	4082
2026-01-18 06:58:30.75	52.70	25.12	-45.2	-46.5	20.4	0.00e+00	0	36	0	499122176	62	4074
2026-01-18 06:58:31.75	52.44	25.19	-45.3	-46.7	20.2	0.00e+00	0	36	0	501219328	62	4147
2026-01-18 06:58:32.76	52.17	25.27	-45.4	-46.8	20.1	0.00e+00	0	36	0	503316480	62	4204
2026-01-18 06:58:33.77	51.91	25.34	-45.7	-47.1	19.8	0.00e+00	0	36	0	505413632	62	4372
2026-01-18 06:58:34.78	51.64	25.42	-46.0	-47.5	19.5	0.00e+00	0	36	0	507510784	62	4567
2026-01-18 06:58:35.78	51.38	25.49	-46.2	-47.7	19.3	0.00e+00	0	36	0	508559360	62	4681
2026-01-18 06:58:36.79	51.11	25.56	-46.3	-47.8	19.2	0.00e+00	0	36	0	510656512	63	4468
2026-01-18 06:58:37.80	50.84	25.63	-46.3	-47.9	19.1	0.00e+00	0	36	0	512753664	63	4530
2026-01-18 06:58:38.80	50.57	25.71	-46.5	-48.1	19.0	0.00e+00	0	36	0	514850816	63	4611
2026-01-18 06:58:39.81	50.30	25.78	-46.5	-48.1	19.0	0.00e+00	0	36	0	516947968	63	4625
2026-01-18 06:58:40.82	50.02	25.85	-46.3	-47.9	19.1	0.00e+00	0	36	0	517996544	63	4529
2026-01-18 06:58:41.83	49.75	25.92	-45.9	-47.3	19.7	0.00e+00	0	36	0	520093696	63	4227
2026-01-18 06:58:42.84	49.47	25.99	-45.8	-47.3	19.7	0.00e+00	0	36	0	522190848	63	4215
2026-01-18 06:58:43.84	49.19	26.06	-45.9	-47.4	19.6	0.00e+00	0	36	0	524288000	63	4249
2026-01-18 06:58:44.85	48.92	26.13	-46.1	-47.6	19.4	0.00e+00	0	36	0	526385152	63	4365
2026-01-18 06:58:45.86	48.64	26.19	-46.1	-47.7	19.4	0.00e+00	0	36	0	527433728	63	4398
2026-01-18 06:58:46.87	48.35	26.26	-46.1	-47.6	19.3	0.00e+00	0	36	0	529530880	63	4380
2026-01-18 06:58:47.87	48.07	26.33	-46.1	-47.6	19.4	0.00e+00	0	36	0	531628032	63	4354
2026-01-18 06:58:48.88	47.79	26.40	-46.2	-47.8	19.2	0.00e+00	0	36	0	533725184	63	4460
2026-01-18 06:58:49.89	47.51	26.46	-46.4	-48.0	19.0	0.00e+00	0	36	0	535822336	63	4557
2026-01-18 06:58:50.90	47.22	26.53	-46.1	-47.7	19.3	0.00e+00	0	36	0	537919488	63	4410
2026-01-18 06:58:51.90	46.94	26.59	-45.8	-47.2	19.8	0.00e+00	0	36	0	538968064	63	4171
2026-01-18 06:58:52.91	46.65	26.65	-45.9	-47.3	19.7	0.00e+00	0	36	0	541065216	63	4230
2026-01-18 06:58:53.92	46.36	26.72	-46.0	-47.5	19.5	0.00e+00	0	36	0	543162368	63	4315
2026-01-18 06:58:54.93	46.07	26.78	-46.0	-47.5	19.5	0.00e+00	0	36	0	545259520	63	4332
2026-01-18 06:58:55.94	45.77	26.84	-46.0	-47.5	19.5	0.00e+00	0	36	0	546308096	63	4320
2026-01-18 06:58:56.95	45.48	26.90	-45.9	-47.3	19.6	0.00e+00	0	36	0	548405248	63	4227
2026-01-18 06:58:57.95	45.19	26.96	-46.0	-47.5	19.5	0.00e+00	0	36	0	550502400	63	4328
2026-01-18 06:58:58.96	44.89	27.02	-46.0	-47.5	19.5	0.00e+00	0	36	0	552599552	63	4297
2026-01-18 06:58:59.97	44.60	27.08	-46.1	-47.7	19.4	0.00e+00	0	36	0	554696704	63	4400
2026-01-18 06:59:00.98	44.30	27.14	-46.0	-47.5	19.5	0.00e+00	0	36	0	555745280	63	4313
2026-01-18 06:59:01.99	44.00	27.20	-46.1	-47.6	19.4	0.00e+00	0	36	0	557842432	63	4357
2026-01-18 06:59:02.99	43.71	27.26	-46.0	-47.4	19.5	0.00e+00	0	36	0	559939584	63	4287
2026-01-18 06:59:04.00	43.40	27.31	-46.1	-47.6	19.3	0.00e+00	0	36	0	562036736	63	4390
2026-01-18 06:59:05.01	43.10	27.37	-45.9	-47.3	19.6	0.00e+00	0	36	0	564133888	63	4237
2026-01-18 06:59:06.02	42.80	27.42	-45.8	-47.2	19.8	0.00e+00	0	36	0	566231040	63	4162
2026-01-18 06:59:07.03	42.50	27.48	-46.0	-47.5	19.6	0.00e+00	0	36	0	567279616	63	4309
2026-01-18 06:59:08.03	42.19	27.53	-45.6	-47.0	20.0	0.00e+00	0	36	0	569376768	63	4080
2026-01-18 06:59:09.04	41.89	27.58	-45.8	-47.2	19.8	0.00e+00	0	36	0	571473920	63	4167
2026-01-18 06:59:10.05	41.58	27.63	-45.9	-47.4	19.5	0.00e+00	0	36	0	573571072	63	4277
2026-01-18 06:59:11.06	41.27	27.68	-46.3	-47.9	19.1	0.00e+00	0	36	0	574619648	63	4507
2026-01-18 06:59:12.06	40.97	27.73	-46.4	-48.0	19.0	0.00e+00	0	36	0	576716800	63	4584
2026-01-18 06:59:13.07	40.66	27.78	-46.2	-47.8	19.2	0.00e+00	0	36	0	578813952	63	4459
2026-01-18 06:59:14.08	40.35	27.83	-46.1	-47.7	19.3	0.00e+00	0	36	0	580911104	63	4395
2026-01-18 06:59:15.09	40.04	27.88	-46.3	-47.9	19.1	0.00e+00	0	36	0	583008256	63	4507
2026-01-18 06:59:16.10	39.72	27.92	-46.4	-47.9	19.1	0.00e+00	0	36	0	585105408	63	4535
2026-01-18 06:59:17.11	39.41	27.97	-46.4	-48.0	19.0	0.00e+00	0	36	0	586153984	63	4588
2026-01-18 06:59:18.11	39.10	28.01	-46.4	-48.0	19.1	0.00e+00	0	36	0	588251136	63	4564
2026-01-18 06:59:19.12	38.78	28.06	-46.3	-47.9	19.1	0.00e+00	0	36	0	590348288	63	4517
2026-01-18 06:59:20.13	38.47	28.10	-46.4	-48.0	19.0	0.00e+00	0	36	0	592445440	64	4299
2026-01-18 06:59:21.14	38.15	28.14	-46.5	-48.1	18.8	0.00e+00	0	36	0	594542592	64	4365
2026-01-18 06:59:22.15	37.83	28.18	-46.7	-48.3	18.7	0.00e+00	0	36	0	595591168	64	4474
2026-01-18 06:59:23.15	37.52	28.22	-46.8	-48.5	18.5	0.00e+00	0	36	0	597688320	64	4562
2026-01-18 06:59:24.16	37.20	28.26	-47.0	-48.8	18.0	0.00e+00	0	36	0	599785472	64	4738
2026-01-18 06:59:25.17	36.88	28.30	-47.3	-49.2	17.9	0.00e+00	0	36	0	601882624	65	4669
2026-01-18 06:59:26.17	36.56	28.34	-47.4	-49.4	17.7	0.00e+00	0	36	0	602931200	65	4772
2026-01-18 06:59:27.18	36.24	28.37	-47.6	-49.6	17.5	0.00e+00	0	36	0	605028352	65	4894
2026-01-18 06:59:28.19	35.92	28.41	-47.6	-49.5	17.5	0.00e+00	0	36	0	607125504	66	4589
2026-01-18 06:59:29.20	35.59	28.44	-47.3	-49.2	17.9	0.00e+00	0	36	0	609222656	66	4394
2026-01-18 06:59:30.21	35.27	28.48	-47.1	-48.8	18.2	0.00e+00	0	36	0	611319808	66	4242
2026-01-18 06:59:31.21	34.95	28.51	-47.6	-49.6	17.5	0.00e+00	0	36	0	613416960	66	4606
2026-01-18 06:59:32.22	34.62	28.54	-47.7	-49.8	17.3	0.00e+00	0	36	0	614465536	66	4717
2026-01-18 06:59:33.23	34.30	28.57	-47.6	-49.6	17.5	0.00e+00	0	36	0	616562688	66	4604
2026-01-18 06:59:34.24	33.97	28.60	-47.4	-49.3	17.8	0.00e+00	0	36	0	618659840	66	4451
2026-01-18 06:59:35.25	33.64	28.63	-47.0	-48.8	18.2	0.00e+00	0	36	0	620756992	66	4216
2026-01-18 06:59:36.25	33.32	28.66	-47.1	-48.9	18.1	0.00e+00	0	36	0	622854144	65	4502
2026-01-18 06:59:37.26	32.99	28.68	-47.2	-49.1	18.0	0.00e+00	0	36	0	623902720	65	4615
2026-01-18 06:59:38.27	32.66	28.71	-47.1	-49.0	18.0	0.00e+00	0	36	0	625999872	65	4555
2026-01-18 06:59:39.27	32.34	28.73	-47.3	-49.3	17.7	0.00e+00	0	36	0	628097024	65	4721
2026-01-18 06:59:40.28	32.01	28.76	-47.7	-49.8	17.3	0.00e+00	0	36	0	630194176	66	4715
2026-01-18 06:59:41.29	31.68	28.78	-47.7	-49.8	17.3	0.00e+00	0	36	0	631242752	66	4714
2026-01-18 06:59:42.30	31.35	28.80	-47.6	-49.7	17.4	0.00e+00	0	36	0	633339904	66	4660
2026-01-18 06:59:43.31	31.02	28.82	-47.7	-49.7	17.3	0.00e+00	0	36	0	635437056	66	4700
2026-01-18 06:59:44.31	30.69	28.84	-47.4	-49.4	17.7	0.00e+00	0	36	0	637534208	66	4512
2026-01-18 06:59:45.32	30.36	28.86	-47.3	-49.2	17.7	0.00e+00	0	36	0	639631360	66	4407
2026-01-18 06:59:46.33	30.02	28.88	-47.3	-49.2	17.8	0.00e+00	0	36	0	641728512	66	4410
2026-01-18 06:59:47.34	29.69	28.89	-47.5	-49.5	17.5	0.00e+00	0	36	0	642777088	66	4582
2026-01-18 06:59:48.34	29.36	28.91	-47.9	-50.2	16.9	0.00e+00	0	36	0	644874240	66	4941
2026-01-18 06:59:49.35	29.03	28.92	-48.3	-50.8	16.2	0.00e+00	0	36	0	646971392	67	5021
2026-01-18 06:59:50.36	28.70	28.93	-48.2	-50.6	16.3	0.00e+00	0	36	0	649068544	67	4923
2026-01-18 06:59:51.37	28.36	28.94	-48.0	-50.3	16.7	0.00e+00	0	36	0	651165696	67	4747
2026-01-18 06:59:52.38	28.03	28.96	-47.7	-49.8	17.2	0.00e+00	0	36	0	652214272	67	4485
2026-01-18 06:59:53.38	27.70	28.96	-47.1	-49.0	18.0	0.00e+00	0	36	0	654311424	66	4304
2026-01-18 06:59:54.39	27.36	28.97	-46.9	-48.7	18.3	0.00e+00	0	36	0	656408576	65	4413
2026-01-18 06:59:55.40	27.03	28.98	-46.2	-47.8	19.1	0.00e+00	0	36	0	658505728	64	4220
2026-01-18 06:59:56.41	26.69	28.99	-46.4	-48.0	19.0	0.00e+00	0	36	0	660602880	64	4300
2026-01-18 06:59:57.41	26.36	28.99	-46.4	-48.0	19.0	0.00e+00	0	36	0	661651456	64	4308
2026-01-18 06:59:58.42	26.03	29.00	-46.6	-48.3	18.7	0.00e+00	0	36	0	663748608	64	4442
2026-01-18 06:59:59.43	25.69	29.00	-46.8	-48.5	18.4	0.00e+00	0	36	0	665845760	64	4556
2026-01-18 07:00:00.44	25.36	29.00	-47.0	-48.7	18.3	0.00e+00	0	36	0	667942912	64	4694
2026-01-18 07:00:01.44	25.03	29.00	-47.0	-48.8	18.3	0.00e+00	0	36	0	670040064	64	4724
2026-01-18 07:00:02.45	24.69	29.00	-47.2	-49.0	18.0	0.00e+00	0	36	0	671088640	65	4568
2026-01-18 07:00:03.46	24.36	29.00	-47.3	-49.2	17.9	0.00e+00	0	36	0	673185792	65	4655
2026-01-18 07:00:04.47	24.02	29.00	-47.4	-49.3	17.8	0.00e+00	0	36	0	675282944	65	4707
2026-01-18 07:00:05.48	23.69	28.99	-47.1	-48.9	18.2	0.00e+00	0	36	0	677380096	65	4499
2026-01-18 07:00:06.49	23.35	28.99	-46.9	-48.5	18.5	0.00e+00	0	36	0	679477248	65	4334
2026-01-18 07:00:07.49	23.02	28.98	-46.6	-48.2	18.8	0.00e+00	0	36	0	680525824	65	4171
2026-01-18 07:00:08.50	22.69	28.98	-46.6	-48.3	18.8	0.00e+00	0	36	0	682622976	65	4196
2026-01-18 07:00:09.51	22.35	28.97	-46.8	-48.5	18.6	0.00e+00	0	36	0	684720128	65	4332
2026-01-18 07:00:10.52	22.02	28.96	-47.0	-48.7	18.3	0.00e+00	0	36	0	686817280	65	4430
2026-01-18 07:00:11.52	21.69	28.95	-47.2	-49.1	18.0	0.00e+00	0	36	0	688914432	65	4607
2026-01-18 07:00:12.53	21.36	28.94	-47.4	-49.3	17.8	0.00e+00	0	36	0	689963008	65	4748
2026-01-18 07:00:13.54	21.02	28.93	-47.5	-49.4	17.6	0.00e+00	0	36	0	692060160	65	4809
2026-01-18 07:00:14.55	20.69	28.91	-47.5	-49.5	17.6	0.00e+00	0	36	0	694157312	65	4829
2026-01-18 07:00:15.56	20.36	28.90	-47.4	-49.3	17.9	0.00e+00	0	36	0	696254464	65	4745
2026-01-18 07:00:16.56	20.03	28.88	-47.0	-48.8	18.3	0.00e+00	0	36	0	698351616	65	4443
2026-01-18 07:00:17.57	19.70	28.87	-46.8	-48.5	18.5	0.00e+00	0	36	0	699400192	65	4326
2026-01-18 07:00:18.58	19.36	28.85	-46.9	-48.7	18.4	0.00e+00	0	36	0	701497344	65	4407
2026-01-18 07:00:19.59	19.03	28.83	-47.0	-48.8	18.2	0.00e+00	0	36	0	703594496	65	4474
2026-01-18 07:00:20.59	18.70	28.81	-46.9	-48.7	18.3	0.00e+00	0	36	0	705691648	65	4424
2026-01-18 07:00:21.60	18.37	28.79	-46.9	-48.6	18.5	0.00e+00	0	36	0	707788800	65	4373
2026-01-18 07:00:22.61	18.04	28.77	-46.7	-48.4	18.6	0.00e+00	0	36	0	709885952	65	4268
2026-01-18 07:00:23.62	17.71	28.75	-46.4	-48.0	19.0	0.00e+00	0	36	0	710934528	64	4316
2026-01-18 07:00:24.63	17.39	28.72	-46.4	-48.0	19.0	0.00e+00	0	36	0	713031680	64	4327
2026-01-18 07:00:25.64	17.06	28.70	-46.1	-47.6	19.3	0.00e+00	0	36	0	715128832	64	4132
2026-01-18 07:00:26.64	16.73	28.67	-46.0	-47.5	19.4	0.00e+00	0	36	0	717225984	63	4336
2026-01-18 07:00:27.65	16.40	28.65	-46.0	-47.4	19.6	0.00e+00	0	36	0	718274560	63	4285
2026-01-18 07:00:28.66	16.08	28.62	-45.8	-47.2	19.8	0.00e+00	0	36	0	720371712	63	4193
2026-01-18 07:00:29.67	15.75	28.59	-45.8	-47.2	19.9	0.00e+00	0	36	0	722468864	63	4169
2026-01-18 07:00:30.67	15.43	28.56	-45.6	-47.0	20.0	0.00e+00	0	36	0	724566016	63	4053
2026-01-18 07:00:31.68	15.10	28.53	-45.4	-46.7	20.3	0.00e+00	0	36	0	726663168	62	4188
2026-01-18 07:00:32.69	14.78	28.50	-46.1	-47.6	19.5	0.00e+00	0	36	0	727711744	62	4612
2026-01-18 07:00:33.70	14.45	28.46	-46.5	-48.1	19.0	0.00e+00	0	36	0	729808896	63	4619
2026-01-18 07:00:34.71	14.13	28.43	-46.5	-48.2	18.9	0.00e+00	0	36	0	731906048	64	4397
2026-01-18 07:00:35.71	13.81	28.40	-46.6	-48.2	18.8	0.00e+00	0	36	0	734003200	64	4430
2026-01-18 07:00:36.72	13.49	28.36	-46.4	-48.0	19.0	0.00e+00	0	36	0	736100352	64	4314
2026-01-18 07:00:37.73	13.17	28.32	-46.5	-48.1	18.9	0.00e+00	0	36	0	738197504	64	4353
2026-01-18 07:00:38.74	12.85	28.29	-46.5	-48.2	18.8	0.00e+00	0	36	0	739246080	64	4401
2026-01-18 07:00:39.75	12.53	28.25	-46.6	-48.3	18.7	0.00e+00	0	36	0	741343232	64	4451
2026-01-18 07:00:40.75	12.21	28.21	-47.0	-48.7	18.4	0.00e+00	0	36	0	743440384	64	4692
2026-01-18 07:00:41.76	11.89	28.17	-47.0	-48.7	18.4	0.00e+00	0	36	0	745537536	64	4698
2026-01-18 07:00:42.77	11.58	28.13	-46.7	-48.4	18.7	0.00e+00	0	36	0	746586112	64	4505
2026-01-18 07:00:43.78	11.26	28.08	-46.4	-48.0	19.0	0.00e+00	0	36	0	748683264	64	4316
2026-01-18 07:00:44.79	10.95	28.04	-46.1	-47.5	19.5	0.00e+00	0	36	0	750780416	63	4322
2026-01-18 07:00:45.79	10.63	28.00	-45.6	-46.9	20.1	0.00e+00	0	36	0	752877568	63	4049
2026-01-18 07:00:46.80	10.32	27.95	-45.7	-47.1	20.0	0.00e+00	0	36	0	754974720	63	4102
2026-01-18 07:00:47.81	10.01	27.91	-46.1	-47.5	19.6	0.00e+00	0	36	0	757071872	63	4325
2026-01-18 07:00:48.81	9.70	27.86	-46.4	-47.9	19.2	0.00e+00	0	36	0	758120448	63	4529
2026-01-18 07:00:49.82	9.39	27.81	-46.7	-48.3	18.8	0.00e+00	0	36	0	760217600	64	4445
2026-01-18 07:00:50.83	9.08	27.76	-46.4	-47.9	19.1	0.00e+00	0	36	0	762314752	64	4286
2026-01-18 07:00:51.84	8.77	27.71	-46.1	-47.6	19.4	0.00e+00	0	36	0	764411904	64	4120
2026-01-18 07:00:52.85	8.46	27.66	-46.0	-47.5	19.5	0.00e+00	0	36	0	766509056	64	4052
2026-01-18 07:00:53.85	8.16	27.61	-46.3	-47.8	19.4	0.00e+00	0	36	0	767557632	63	4451
2026-01-18 07:00:54.86	7.85	27.56	-46.5	-48.0	19.1	0.00e+00	0	36	0	769654784	63	4592
2026-01-18 07:00:55.87	7.55	27.51	-46.6	-48.2	18.9	0.00e+00	0	36	0	771751936	64	4392
2026-01-18 07:00:56.88	7.24	27.45	-46.6	-48.2	18.8	0.00e+00	0	36	0	773849088	64	4439
2026-01-18 07:00:57.89	6.94	27.40	-46.8	-48.4	18.6	0.00e+00	0	36	0	774897664	64	4539
2026-01-18 07:00:58.89	6.64	27.35	-46.9	-48.6	18.5	0.00e+00	0	36	0	776994816	64	4608
2026-01-18 07:00:59.90	6.34	27.29	-47.0	-48.8	18.3	0.00e+00	0	36	0	779091968	64	4727
2026-01-18 07:01:00.91	6.04	27.23	-47.1	-48.8	18.2	0.00e+00	0	36	0	781189120	64	4740
2026-01-18 07:01:01.92	5.74	27.18	-47.6	-49.5	17.6	0.00e+00	0	36	0	783286272	65	4861
2026-01-18 07:01:02.93	5.44	27.12	-48.1	-50.3	16.8	0.00e+00	0	36	0	785383424	66	5026
2026-01-18 07:01:03.93	5.15	27.06	-48.1	-50.3	16.8	0.00e+00	0	36	0	786432000	67	4716
2026-01-18 07:01:04.94	4.85	27.00	-48.1	-50.3	16.8	0.00e+00	0	36	0	788529152	67	4739
2026-01-18 07:01:05.95	4.56	26.94	-48.2	-50.4	16.7	0.00e+00	0	36	0	790626304	67	4797
2026-01-18 07:01:06.95	4.27	26.88	-48.4	-50.8	16.4	0.00e+00	0	36	0	792723456	67	4990
2026-01-18 07:01:07.96	3.98	26.82	-48.6	-51.1	16.1	0.00e+00	0	36	0	794820608	67	5160
2026-01-18 07:01:08.97	3.68	26.76	-48.8	-51.2	15.9	0.00e+00	0	36	0	795869184	68	4983
2026-01-18 07:01:09.98	3.39	26.69	-48.6	-51.0	16.1	0.00e+00	0	36	0	797966336	68	4858
2026-01-18 07:01:10.99	3.11	26.63	-48.2	-50.4	16.8	0.00e+00	0	36	0	800063488	68	4531
2026-01-18 07:01:11.99	2.82	26.57	-48.1	-50.3	16.9	0.00e+00	0	36	0	802160640	68	4483
2026-01-18 07:01:13.00	2.53	26.50	-47.7	-49.7	17.3	0.00e+00	0	36	0	804257792	67	4411
2026-01-18 07:01:14.01	2.25	26.44	-47.3	-49.2	17.8	0.00e+00	0	36	0	805306368	66	4401
2026-01-18 07:01:15.02	1.97	26.37	-46.7	-48.4	18.5	0.00e+00	0	36	0	807403520	65	4266
2026-01-18 07:01:16.03	1.68	26.30	-46.4	-48.0	18.8	0.00e+00	0	36	0	809500672	64	4337
2026-01-18 07:01:17.03	1.40	26.24	-46.4	-48.0	18.8	0.00e+00	0	36	0	811597824	64	4303
2026-01-18 07:01:18.04	1.12	26.17	-46.1	-47.6	19.3	0.00e+00	0	36	0	813694976	64	4131
2026-01-18 07:01:19.05	0.84	26.10	-46.0	-47.5	19.5	0.00e+00	0	36	0	814743552	63	4311
2026-01-18 07:01:20.06	0.57	26.03	-45.7	-47.1	19.9	0.00e+00	0	36	0	816840704	63	4114
2026-01-18 07:01:21.07	0.29	25.96	-45.7	-47.2	19.8	0.00e+00	0	36	0	818937856	63	4151
2026-01-18 07:01:22.07	0.02	25.89	-45.8	-47.2	19.7	0.00e+00	0	36	0	821035008	63	4161
2026-01-18 07:01:23.08	359.74	25.82	-46.1	-47.7	19.4	0.00e+00	0	36	0	823132160	63	4398
2026-01-18 07:01:24.09	359.47	25.75	-46.5	-48.1	18.9	0.00e+00	0	36	0	824180736	63	4634
2026-01-18 07:01:25.10	359.20	25.68	-46.6	-48.3	18.7	0.00e+00	0	36	0	826277888	64	4485
2026-01-18 07:01:26.10	358.93	25.61	-46.8	-48.5	18.4	0.00e+00	0	36	0	828375040	64	4582
2026-01-18 07:01:27.11	358.66	25.53	-46.4	-48.0	18.9	0.00e+00	0	36	0	830472192	64	4338
2026-01-18 07:01:28.12	358.39	25.46	-46.4	-48.0	18.9	0.00e+00	0	36	0	832569344	64	4322
2026-01-18 07:01:29.13	358.12	25.39	-46.8	-48.7	18.3	0.00e+00	0	36	0	833617920	64	4655
2026-01-18 07:01:30.14	357.86	25.31	-47.0	-48.9	18.1	0.00e+00	0	36	0	835715072	64	4764
2026-01-18 07:01:31.15	357.60	25.24	-47.2	-49.1	17.9	0.00e+00	0	36	0	837812224	65	4612
2026-01-18 07:01:32.15	357.33	25.16	-47.2	-49.1	17.9	0.00e+00	0	36	0	839909376	65	4625
2026-01-18 07:01:33.16	357.07	25.09	-47.0	-48.9	18.1	0.00e+00	0	36	0	842006528	65	4529
2026-01-18 07:01:34.17	356.81	25.01	-47.4	-49.4	17.6	0.00e+00	0	36	0	843055104	65	4809
2026-01-18 07:01:35.18	356.55	24.94	-47.5	-49.6	17.3	0.00e+00	0	36	0	845152256	65	4925
2026-01-18 07:01:36.19	356.30	24.86	-47.4	-49.5	17.5	0.00e+00	0	36	0	847249408	65	4847
2026-01-18 07:01:37.19	356.04	24.78	-47.6	-49.8	17.2	0.00e+00	0	36	0	849346560	65	4996
2026-01-18 07:01:38.20	355.79	24.71	-47.6	-49.7	17.1	0.00e+00	0	36	0	851443712	66	4675
2026-01-18 07:01:39.21	355.53	24.63	-47.7	-49.8	17.3	0.00e+00	0	36	0	852492288	66	4714
2026-01-18 07:01:40.21	355.28	24.55	-47.3	-49.3	17.7	0.00e+00	0	36	0	854589440	66	4451
2026-01-18 07:01:41.22	355.03	24.47	-47.0	-48.8	18.2	0.00e+00	0	36	0	856686592	65	4471
2026-01-18 07:01:42.23	354.78	24.39	-46.6	-48.3	18.6	0.00e+00	0	36	0	858783744	65	4213
2026-01-18 07:01:43.24	354.53	24.31	-46.3	-47.8	19.1	0.00e+00	0	36	0	860880896	64	4226
2026-01-18 07:01:44.25	354.28	24.23	-46.0	-47.5	19.5	0.00e+00	0	36	0	861929472	63	4300
2026-01-18 07:01:45.26	354.04	24.15	-46.0	-47.5	19.5	0.00e+00	0	36	0	864026624	63	4316
2026-01-18 07:01:46.27	353.79	24.07	-45.9	-47.4	19.5	0.00e+00	0	36	0	866123776	63	4277
2026-01-18 07:01:47.28	353.55	23.99	-45.8	-47.3	19.7	0.00e+00	0	36	0	868220928	63	4213
2026-01-18 07:01:48.28	353.31	23.91	-45.8	-47.3	19.7	0.00e+00	0	36	0	870318080	63	4204
2026-01-18 07:01:49.29	353.06	23.83	-45.9	-47.4	19.6	0.00e+00	0	36	0	871366656	63	4271
2026-01-18 07:01:50.30	352.82	23.75	-45.7	-47.2	19.8	0.00e+00	0	36	0	873463808	63	4154
2026-01-18 07:01:51.31	352.59	23.67	-45.6	-46.9	20.0	0.00e+00	0	36	0	875560960	63	4050
2026-01-18 07:01:52.31	352.35	23.58	-45.6	-47.1	19.8	0.00e+00	0	36	0	877658112	63	4102
2026-01-18 07:01:53.32	352.11	23.50	-45.7	-47.1	19.8	0.00e+00	0	36	0	879755264	63	4114
2026-01-18 07:01:54.33	351.88	23.42	-45.6	-47.1	19.9	0.00e+00	0	36	0	880803840	63	4100
2026-01-18 07:01:55.34	351.64	23.34	-45.3	-46.6	20.2	0.00e+00	0	36	0	882900992	62	4128
2026-01-18 07:01:56.35	351.41	23.25	-45.1	-46.4	20.4	0.00e+00	0	36	0	884998144	62	4039
2026-01-18 07:01:57.35	351.18	23.17	-44.8	-46.1	20.7	0.00e+00	0	36	0	887095296	61	4104
2026-01-18 07:01:58.36	350.95	23.09	-44.5	-45.7	21.1	0.00e+00	0	36	0	889192448	61	3921
2026-01-18 07:01:59.37	350.72	23.00	-44.5	-45.7	21.1	0.00e+00	0	36	0	890241024	60	4150
2026-01-18 07:02:00.38	350.50	22.92	-44.5	-45.7	21.1	0.00e+00	0	36	0	892338176	60	4146
2026-01-18 07:02:01.38	350.27	22.83	-44.8	-46.0	20.7	0.00e+00	0	36	0	894435328	60	4335
2026-01-18 07:02:02.39	350.05	22.75	-45.1	-46.4	20.4	0.00e+00	0	36	0	896532480	60	4499
2026-01-18 07:02:03.40	349.82	22.66	-45.3	-46.7	20.2	0.00e+00	0	36	0	898629632	61	4406
2026-01-18 07:02:04.41	349.60	22.58	-45.7	-47.2	19.8	0.00e+00	0	36	0	900726784	61	4652
2026-01-18 07:02:05.41	349.38	22.50	-45.7	-47.2	19.7	0.00e+00	0	36	0	901775360	62	4416
2026-01-18 07:02:06.42	349.16	22.41	-46.0	-47.6	19.4	0.00e+00	0	36	0	903872512	62	4606
2026-01-18 07:02:07.43	348.94	22.32	-46.2	-47.8	19.1	0.00e+00	0	36	0	905969664	63	4456
2026-01-18 07:02:08.44	348.72	22.24	-46.1	-47.6	19.3	0.00e+00	0	36	0	908066816	63	4390
2026-01-18 07:02:09.45	348.51	22.15	-46.0	-47.5	19.4	0.00e+00	0	36	0	909115392	63	4328
2026-01-18 07:02:10.45	348.29	22.07	-45.7	-47.1	19.8	0.00e+00	0	36	0	911212544	63	4116
2026-01-18 07:02:11.46	348.08	21.98	-45.7	-47.1	19.8	0.00e+00	0	36	0	913309696	63	4121
2026-01-18 07:02:12.47	347.87	21.90	-45.6	-47.0	19.9	0.00e+00	0	36	0	915406848	63	4073
2026-01-18 07:02:13.48	347.66	21.81	-45.6	-47.0	19.9	0.00e+00	0	36	0	917504000	63	4067
2026-01-18 07:02:14.49	347.44	21.72	-45.5	-47.0	19.9	0.00e+00	0	36	0	918552576	63	4053
2026-01-18 07:02:15.50	347.24	21.64	-45.4	-46.9	20.1	0.00e+00	0	36	0	920649728	62	4243
2026-01-18 07:02:16.51	347.03	21.55	-45.1	-46.4	20.4	0.00e+00	0	36	0	922746880	62	4021
2026-01-18 07:02:17.51	346.82	21.46	-44.6	-45.8	20.9	0.00e+00	0	36	0	924844032	61	4002
2026-01-18 07:02:18.52	346.62	21.38	-44.3	-45.5	21.2	0.00e+00	0	36	0	926941184	60	4055
2026-01-18 07:02:19.53	346.41	21.29	-44.3	-45.4	21.6	0.00e+00	0	36	0	929038336	59	4273
2026-01-18 07:02:20.54	346.21	21.20	-44.3	-45.4	21.6	0.00e+00	0	36	0	930086912	59	4272
2026-01-18 07:02:21.54	346.01	21.12	-44.3	-45.5	21.5	0.00e+00	0	36	0	932184064	59	4315
2026-01-18 07:02:22.55	345.81	21.03	-44.5	-45.7	21.3	0.00e+00	0	36	0	934281216	59	4417
2026-01-18 07:02:23.56	345.61	20.94	-44.6	-45.9	20.8	0.00e+00	0	36	0	936378368	60	4261
2026-01-18 07:02:24.57	345.41	20.85	-44.6	-45.8	20.9	0.00e+00	0	36	0	937426944	60	4232
2026-01-18 07:02:25.58	345.21	20.77	-44.7	-45.9	20.8	0.00e+00	0	36	0	939524096	60	4291
2026-01-18 07:02:26.58	345.02	20.68	-44.8	-46.1	20.7	0.00e+00	0	36	0	941621248	60	4347
2026-01-18 07:02:27.59	344.82	20.59	-44.6	-45.9	20.9	0.00e+00	0	36	0	943718400	60	4257
2026-01-18 07:02:28.60	344.63	20.50	-44.7	-45.9	20.8	0.00e+00	0	36	0	945815552	60	4279
2026-01-18 07:02:29.61	344.43	20.42	-44.6	-45.8	20.9	0.00e+00	0	36	0	947912704	60	4231
2026-01-18 07:02:30.62	344.24	20.33	-44.8	-46.1	20.7	0.00e+00	0	36	0	948961280	60	4341
2026-01-18 07:02:31.62	344.05	20.24	-44.7	-45.9	20.8	0.00e+00	0	36	0	951058432	60	4279
2026-01-18 07:02:32.63	343.86	20.15	-44.9	-46.2	20.6	0.00e+00	0	36	0	953155584	60	4409
2026-01-18 07:02:33.64	343.67	20.07	-45.1	-46.4	20.4	0.00e+00	0	36	0	955252736	60	4497
2026-01-18 07:02:34.65	343.48	19.98	-44.9	-46.2	20.6	0.00e+00	0	36	0	957349888	60	4412
2026-01-18 07:02:35.65	343.30	19.89	-45.1	-46.4	20.4	0.00e+00	0	36	0	958398464	60	4520
2026-01-18 07:02:36.66	343.11	19.80	-45.2	-46.5	20.3	0.00e+00	0	36	0	960495616	60	4574
2026-01-18 07:02:37.67	342.93	19.71	-45.2	-46.6	20.2	0.00e+00	0	36	0	962592768	61	4353
2026-01-18 07:02:38.68	342.75	19.63	-45.2	-46.5	20.3	0.00e+00	0	36	0	964689920	61	4336
2026-01-18 07:02:39.68	342.57	19.54	-45.3	-46.6	20.2	0.00e+00	0	36	0	965738496	61	4379
2026-01-18 07:02:40.69	342.38	19.45	-45.3	-46.6	20.2	0.00e+00	0	36	0	967835648	61	4382
2026-01-18 07:02:41.70	342.20	19.36	-45.0	-46.2	20.5	0.00e+00	0	36	0	969932800	61	4193
2026-01-18 07:02:42.71	342.02	19.28	-44.7	-45.9	20.8	0.00e+00	0	36	0	972029952	61	4029
2026-01-18 07:02:43.72	341.85	19.19	-44.6	-45.8	20.9	0.00e+00	0	36	0	974127104	61	3993
2026-01-18 07:02:44.73	341.67	19.10	-44.6	-45.8	21.0	0.00e+00	0	36	0	976224256	61	3970
2026-01-18 07:02:45.73	341.50	19.01	-44.3	-45.4	21.3	0.00e+00	0	36	0	977272832	60	4027
2026-01-18 07:02:46.74	341.32	18.93	-44.4	-45.6	21.1	0.00e+00	0	36	0	979369984	60	4125
2026-01-18 07:02:47.75	341.15	18.84	-44.5	-45.7	21.0	0.00e+00	0	36	0	981467136	60	4179
2026-01-18 07:02:48.76	340.97	18.75	-44.8	-46.0	20.7	0.00e+00	0	36	0	983564288	60	4334
2026-01-18 07:02:49.77	340.80	18.66	-45.2	-46.5	20.3	0.00e+00	0	36	0	985661440	60	4571
2026-01-18 07:02:50.77	340.63	18.58	-45.6	-47.1	19.8	0.00e+00	0	36	0	986710016	61	4599
2026-01-18 07:02:51.78	340.46	18.49	-45.8	-47.3	19.6	0.00e+00	0	36	0	988807168	62	4468
2026-01-18 07:02:52.79	340.29	18.40	-45.9	-47.4	19.5	0.00e+00	0	36	0	990904320	62	4543
2026-01-18 07:02:53.80	340.13	18.31	-45.9	-47.4	19.4	0.00e+00	0	36	0	993001472	62	4537
2026-01-18 07:02:54.80	339.96	18.23	-46.0	-47.4	19.4	0.00e+00	0	36	0	995098624	62	4541
2026-01-18 07:02:55.81	339.79	18.14	-45.8	-47.2	19.7	0.00e+00	0	36	0	996147200	62	4409
2026-01-18 07:02:56.82	339.63	18.05	-45.5	-46.9	19.9	0.00e+00	0	36	0	998244352	62	4282
2026-01-18 07:02:57.83	339.46	17.96	-45.4	-46.7	20.1	0.00e+00	0	36	0	1000341504	62	4187
2026-01-18 07:02:58.84	339.30	17.88	-45.2	-46.5	20.3	0.00e+00	0	36	0	1002438656	62	4073
2026-01-18 07:02:59.85	339.14	17.79	-45.3	-46.7	20.1	0.00e+00	0	36	0	1004535808	62	4149
2026-01-18 07:03:00.85	338.98	17.70	-45.4	-46.7	20.0	0.00e+00	0	36	0	1005584384	62	4192
2026-01-18 07:03:01.86	338.82	17.62	-45.5	-46.9	20.0	0.00e+00	0	36	0	1007681536	62	4267
2026-01-18 07:03:02.87	338.66	17.53	-45.6	-47.1	19.8	0.00e+00	0	36	0	1009778688	62	4349
2026-01-18 07:03:03.87	338.50	17.44	-46.0	-47.5	19.4	0.00e+00	0	36	0	1011875840	62	4575
2026-01-18 07:03:04.88	338.35	17.36	-46.1	-47.7	19.3	0.00e+00	0	36	0	1013972992	62	4654
2026-01-18 07:03:05.89	338.19	17.27	-46.1	-47.6	19.3	0.00e+00	0	36	0	1015021568	63	4375
2026-01-18 07:03:06.90	338.03	17.18	-46.6	-48.3	18.6	0.00e+00	0	36	0	1017118720	63	4725
2026-01-18 07:03:07.91	337.88	17.10	-46.7	-48.4	18.5	0.00e+00	0	36	0	1019215872	63	4783
2026-01-18 07:03:08.91	337.73	17.01	-46.8	-48.5	18.3	0.00e+00	0	36	0	1021313024	64	4584
2026-01-18 07:03:09.92	337.57	16.93	-46.8	-48.5	18.3	0.00e+00	0	36	0	1023410176	64	4589
2026-01-18 07:03:10.93	337.42	16.84	-46.8	-48.6	18.3	0.00e+00	0	36	0	1024458752	64	4600
2026-01-18 07:03:11.93	337.27	16.75	-46.7	-48.4	18.4	0.00e+00	0	36	0	1026555904	64	4520
2026-01-18 07:03:12.94	337.12	16.67	-46.5	-48.1	18.7	0.00e+00	0	36	0	1028653056	64	4361
2026-01-18 07:03:13.95	336.97	16.58	-46.2	-47.7	19.0	0.00e+00	0	36	0	1030750208	64	4184
2026-01-18 07:03:14.96	336.82	16.50	-46.1	-47.6	19.3	0.00e+00	0	36	0	1032847360	63	4372
2026-01-18 07:03:15.97	336.68	16.41	-46.2	-47.7	19.1	0.00e+00	0	36	0	1033895936	63	4438
2026-01-18 07:03:16.97	336.53	16.33	-46.1	-47.6	19.2	0.00e+00	0	36	0	1035993088	63	4372
2026-01-18 07:03:17.98	336.38	16.24	-46.1	-47.7	19.2	0.00e+00	0	36	0	1038090240	63	4413
2026-01-18 07:03:18.99	336.24	16.16	-46.4	-48.0	18.9	0.00e+00	0	36	0	1040187392	63	4578
2026-01-18 07:03:20.00	336.09	16.07	-46.8	-48.6	18.3	0.00e+00	0	36	0	1042284544	64	4600
2026-01-18 07:03:21.01	335.95	15.98	-46.6	-48.3	18.5	0.00e+00	0	36	0	1044381696	64	4446
2026-01-18 07:03:22.01	335.81	15.90	-46.5	-48.2	18.5	0.00e+00	0	36	0	1045430272	64	4434
2026-01-18 07:03:23.02	335.67	15.82	-46.6	-48.3	18.5	0.00e+00	0	36	0	1047527424	64	4457
2026-01-18 07:03:24.03	335.53	15.73	-46.5	-48.2	18.5	0.00e+00	0	36	0	1049624576	64	4433
2026-01-18 07:03:25.04	335.39	15.65	-46.3	-48.0	18.8	0.00e+00	0	36	0	1051721728	64	4300
2026-01-18 07:03:26.05	335.25	15.56	-46.2	-47.8	18.9	0.00e+00	0	36	0	1052770304	64	4206
2026-01-18 07:03:27.05	335.11	15.48	-46.1	-47.7	19.0	0.00e+00	0	36	0	1054867456	64	4166
2026-01-18 07:03:28.06	334.97	15.39	-45.9	-47.4	19.3	0.00e+00	0	36	0	1056964608	63	4262
2026-01-18 07:03:29.07	334.84	15.31	-45.9	-47.4	19.4	0.00e+00	0	36	0	1059061760	63	4260
2026-01-18 07:03:30.08	334.70	15.22	-45.7	-47.1	19.6	0.00e+00	0	36	0	1061158912	63	4145
2026-01-18 07:03:31.09	334.56	15.14	-45.6	-47.0	19.7	0.00e+00	0	36	0	1062207488	62	4324
2026-01-18 07:03:32.09	334.43	15.06	-45.5	-46.9	19.8	0.00e+00	0	36	0	1064304640	62	4265
2026-01-18 07:03:33.10	334.30	14.97	-45.4	-46.8	19.9	0.00e+00	0	36	0	1066401792	62	4219
2026-01-18 07:03:34.11	334.16	14.89	-45.5	-46.9	19.8	0.00e+00	0	36	0	1068498944	62	4290
2026-01-18 07:03:35.12	334.03	14.81	-45.6	-47.0	19.8	0.00e+00	0	36	0	1070596096	62	4295
2026-01-18 07:03:36.13	333.90	14.72	-46.1	-47.6	19.2	0.00e+00	0	36	0	1072693248	62	4623
2026-01-18 07:03:37.13	333.77	14.64	-45.7	-47.2	19.5	0.00e+00	0	36	0	1073741824	62	4408
2026-01-18 07:03:38.14	333.64	14.56	-45.9	-47.4	19.4	0.00e+00	0	36	0	1075838976	62	4503
2026-01-18 07:03:39.15	333.51	14.48	-46.1	-47.6	19.1	0.00e+00	0	36	0	1077936128	63	4364
2026-01-18 07:03:40.15	333.38	14.39	-46.1	-47.7	19.1	0.00e+00	0	36	0	1080033280	63	4402
2026-01-18 07:03:41.16	333.25	14.31	-46.1	-47.6	19.2	0.00e+00	0	36	0	1081081856	63	4353
2026-01-18 07:03:42.17	333.13	14.23	-46.3	-47.8	18.9	0.00e+00	0	36	0	1083179008	63	4487
2026-01-18 07:03:43.18	333.00	14.15	-46.2	-47.8	19.0	0.00e+00	0	36	0	1085276160	63	4460
2026-01-18 07:03:44.19	332.88	14.06	-45.9	-47.4	19.3	0.00e+00	0	36	0	1087373312	63	4272
2026-01-18 07:03:45.19	332.75	13.98	-46.2	-47.7	19.1	0.00e+00	0	36	0	1089470464	63	4415
2026-01-18 07:03:46.20	332.63	13.90	-46.1	-47.6	19.1	0.00e+00	0	36	0	1091567616	63	4370
2026-01-18 07:03:47.21	332.50	13.82	-46.1	-47.7	19.1	0.00e+00	0	36	0	1092616192	63	4397
2026-01-18 07:03:48.22	332.38	13.74	-46.2	-47.8	19.0	0.00e+00	0	36	0	1094713344	63	4468
2026-01-18 07:03:49.23	332.26	13.65	-46.3	-47.8	18.9	0.00e+00	0	36	0	1096810496	63	4492
2026-01-18 07:03:50.23	332.14	13.57	-46.5	-48.1	18.7	0.00e+00	0	36	0	1098907648	63	4640
2026-01-18 07:03:51.24	332.02	13.49	-46.6	-48.4	18.3	0.00e+00	0	36	0	1101004800	64	4510
2026-01-18 07:03:52.25	331.90	13.41	-47.0	-48.9	17.8	0.00e+00	0	36	0	1102053376	64	4793
2026-01-18 07:03:53.26	331.78	13.33	-47.0	-48.9	17.8	0.00e+00	0	36	0	1104150528	64	4800
2026-01-18 07:03:54.27	331.66	13.25	-47.4	-49.4	17.4	0.00e+00	0	36	0	1106247680	65	4787
2026-01-18 07:03:55.27	331.54	13.17	-47.5	-49.5	17.2	0.00e+00	0	36	0	1108344832	65	4845
2026-01-18 07:03:56.28	331.42	13.09	-47.6	-49.7	17.0	0.00e+00	0	36	0	1109393408	65	4953
2026-01-18 07:03:57.29	331.31	13.01	-47.5	-49.6	17.2	0.00e+00	0	36	0	1111490560	65	4889
2026-01-18 07:03:58.30	331.19	12.93	-47.4	-49.4	17.3	0.00e+00	0	36	0	1113587712	65	4766
2026-01-18 07:03:59.31	331.08	12.85	-47.1	-49.0	17.7	0.00e+00	0	36	0	1115684864	65	4589
2026-01-18 07:04:00.31	330.96	12.77	-46.6	-48.3	18.4	0.00e+00	0	36	0	1117782016	65	4207
2026-01-18 07:04:01.32	330.85	12.69	-46.5	-48.2	18.4	0.00e+00	0	36	0	1119879168	65	4191
2026-01-18 07:04:02.33	330.73	12.61	-46.2	-47.8	18.9	0.00e+00	0	36	0	1120927744	64	4202
2026-01-18 07:04:03.34	330.62	12.53	-46.1	-47.6	19.0	0.00e+00	0	36	0	1123024896	64	4140
2026-01-18 07:04:04.35	330.51	12.45	-46.0	-47.5	19.2	0.00e+00	0	36	0	1125122048	63	4314
2026-01-18 07:04:05.35	330.40	12.37	-45.9	-47.5	19.2	0.00e+00	0	36	0	1127219200	63	4298
2026-01-18 07:04:06.36	330.29	12.29	-46.0	-47.6	19.1	0.00e+00	0	36	0	1129316352	63	4353
2026-01-18 07:04:07.37	330.18	12.21	-46.1	-47.6	19.0	0.00e+00	0	36	0	1130364928	63	4390
2026-01-18 07:04:08.38	330.07	12.13	-46.4	-48.1	18.6	0.00e+00	0	36	0	1132462080	63	4626
2026-01-18 07:04:09.39	329.96	12.06	-46.6	-48.3	18.4	0.00e+00	0	36	0	1134559232	63	4734
2026-01-18 07:04:10.39	329.85	11.98	-46.8	-48.6	18.0	0.00e+00	0	36	0	1136656384	64	4632
2026-01-18 07:04:11.40	329.74	11.90	-47.0	-48.9	17.7	0.00e+00	0	36	0	1138753536	64	4797
2026-01-18 07:04:12.41	329.63	11.82	-47.3	-49.3	17.3	0.00e+00	0	36	0	1139802112	65	4737
2026-01-18 07:04:13.42	329.53	11.74	-47.7	-49.9	16.8	0.00e+00	0	36	0	1141899264	65	5073
2026-01-18 07:04:14.43	329.42	11.67	-47.9	-50.1	16.6	0.00e+00	0	36	0	1143996416	66	4905
2026-01-18 07:04:15.43	329.32	11.59	-47.9	-50.2	16.5	0.00e+00	0	36	0	1146093568	66	4944
2026-01-18 07:04:16.44	329.21	11.51	-48.1	-50.4	16.3	0.00e+00	0	36	0	1148190720	66	5060
2026-01-18 07:04:17.45	329.11	11.43	-48.2	-50.6	16.1	0.00e+00	0	36	0	1149239296	67	4906
2026-01-18 07:04:18.46	329.00	11.36	-48.0	-50.4	16.3	0.00e+00	0	36	0	1151336448	67	4762
2026-01-18 07:04:19.47	328.90	11.28	-47.9	-50.2	16.5	0.00e+00	0	36	0	1153433600	67	4683
2026-01-18 07:04:20.47	328.80	11.20	-47.9	-50.1	16.5	0.00e+00	0	36	0	1155530752	67	4648
2026-01-18 07:04:21.48	328.70	11.13	-47.8	-50.0	16.6	0.00e+00	0	36	0	1157627904	67	4581
2026-01-18 07:04:22.49	328.59	11.05	-47.9	-50.1	16.6	0.00e+00	0	36	0	1158676480	67	4620
2026-01-18 07:04:23.50	328.49	10.97	-47.8	-50.0	16.7	0.00e+00	0	36	0	1160773632	67	4578
2026-01-18 07:04:24.51	328.39	10.90	-47.8	-49.9	16.8	0.00e+00	0	36	0	1162870784	67	4524
2026-01-18 07:04:25.51	328.29	10.82	-47.8	-49.9	16.7	0.00e+00	0	36	0	1164967936	67	4541
2026-01-18 07:04:26.52	328.19	10.74	-47.7	-49.8	16.8	0.00e+00	0	36	0	1167065088	67	4457
2026-01-18 07:04:27.53	328.09	10.67	-47.9	-50.1	16.5	0.00e+00	0	36	0	1168113664	67	4620
2026-01-18 07:04:28.53	328.00	10.59	-47.7	-49.8	16.8	0.00e+00	0	36	0	1170210816	67	4486
2026-01-18 07:04:29.54	327.90	10.52	-47.9	-50.1	16.5	0.00e+00	0	36	0	1172307968	67	4621
2026-01-18 07:04:30.55	327.80	10.44	-47.8	-50.0	16.7	0.00e+00	0	36	0	1174405120	67	4560
2026-01-18 07:04:31.56	327.70	10.37	-47.7	-49.9	16.7	0.00e+00	0	36	0	1176502272	67	4524
2026-01-18 07:04:32.56	327.61	10.29	-48.1	-50.4	16.2	0.00e+00	0	36	0	1177550848	67	4785
2026-01-18 07:04:33.57	327.51	10.22	-47.9	-50.2	16.4	0.00e+00	0	36	0	1179648000	67	4663
2026-01-18 07:04:34.58	327.42	10.14	-48.1	-50.4	16.2	0.00e+00	0	36	0	1181745152	67	4799
2026-01-18 07:04:35.59	327.32	10.07	-48.1	-50.5	16.1	0.00e+00	0	36	0	1183842304	67	4862
2026-01-18 07:04:36.59	327.23	9.99	-48.2	-50.7	15.9	0.00e+00	0	36	0	1185939456	67	4938
2026-01-18 07:04:37.60	327.13	9.92	-48.2	-50.6	16.0	0.00e+00	0	36	0	1186988032	67	4878
2026-01-18 07:04:38.60	327.04	9.85	-48.4	-50.9	15.7	0.00e+00	0	36	0	1189085184	67	5095
2026-01-18 07:04:39.61	326.95	9.77	-48.2	-50.6	16.0	0.00e+00	0	36	0	1191182336	67	4885
2026-01-18 07:04:40.62	326.86	9.70	-48.2	-50.6	15.9	0.00e+00	0	36	0	1193279488	67	4920
2026-01-18 07:04:41.63	326.76	9.62	-48.0	-50.4	16.2	0.00e+00	0	36	0	1195376640	67	4776
2026-01-18 07:04:42.63	326.67	9.55	-47.9	-50.2	16.3	0.00e+00	0	36	0	1196425216	67	4676
2026-01-18 07:04:43.65	326.58	9.48	-47.7	-49.9	16.6	0.00e+00	0	36	0	1198522368	67	4504
2026-01-18 07:04:44.66	326.49	9.40	-47.6	-49.7	16.8	0.00e+00	0	36	0	1200619520	67	4431
2026-01-18 07:04:45.66	326.40	9.33	-47.5	-49.6	16.9	0.00e+00	0	36	0	1202716672	66	4634
2026-01-18 07:04:46.67	326.31	9.26	-47.1	-49.0	17.5	0.00e+00	0	36	0	1204813824	66	4301
2026-01-18 07:04:47.68	326.22	9.18	-46.8	-48.7	17.7	0.00e+00	0	36	0	1205862400	65	4408
2026-01-18 07:04:48.69	326.13	9.11	-46.9	-48.7	17.7	0.00e+00	0	36	0	1207959552	65	4432
2026-01-18 07:04:49.69	326.05	9.04	-46.7	-48.5	17.9	0.00e+00	0	36	0	1210056704	65	4337
2026-01-18 07:04:50.70	325.96	8.97	-46.7	-48.6	17.9	0.00e+00	0	36	0	1212153856	65	4344
2026-01-18 07:04:51.71	325.87	8.89	-46.6	-48.4	18.0	0.00e+00	0	36	0	1214251008	65	4253
2026-01-18 07:04:52.72	325.78	8.82	-46.6	-48.4	18.0	0.00e+00	0	36	0	1215299584	65	4265
2026-01-18 07:04:53.73	325.70	8.75	-46.6	-48.4	18.0	0.00e+00	0	36	0	1217396736	65	4282
2026-01-18 07:04:54.73	325.61	8.68	-46.8	-48.6	17.8	0.00e+00	0	36	0	1219493888	65	4372
2026-01-18 07:04:55.74	325.53	8.60	-46.9	-48.7	17.7	0.00e+00	0	36	0	1221591040	65	4434
2026-01-18 07:04:56.75	325.44	8.53	-46.9	-48.8	17.6	0.00e+00	0	36	0	1223688192	65	4489
2026-01-18 07:04:57.76	325.36	8.46	-47.1	-49.0	17.4	0.00e+00	0	36	0	1224736768	65	4579
2026-01-18 07:04:58.77	325.27	8.39	-47.2	-49.2	17.2	0.00e+00	0	36	0	1226833920	65	4694
2026-01-18 07:04:59.77	325.19	8.32	-47.4	-49.5	16.9	0.00e+00	0	36	0	1228931072	65	4849
2026-01-18 07:05:00.77	325.11	8.25	-47.6	-49.7	16.7	0.00e+00	0	36	0	1231028224	65	4973
2026-01-18 07:05:01.77	325.03	8.18	-47.7	-50.0	16.5	0.00e+00	0	36	0	1233125376	66	4822
2026-01-18 07:05:02.78	324.94	8.11	-47.9	-50.3	16.2	0.00e+00	0	36	0	1234173952	66	4992
2026-01-18 07:05:03.79	324.86	8.04	-48.2	-50.6	15.8	0.00e+00	0	36	0	1236271104	67	4892
