passes_logs/2026/01/18/R3.2S_Murmansk/R3.2S_Murmansk__20260118_231405_FENGYUN_3D_rec.log

#Pass ID: 20260118_231405_FENGYUN 3D
#Satellite: FENGYUN 3D
#Configuration: FENGYUN 3D
#almurnet v.1.7.20251203
#Start time: 2026-01-18 23:14:06

#Version: 2.2.20231116
#Station: R3.2S_Murmansk
#Location: 33.079688 lon 68.888172 lat
#TLE: 1 43010U 17072A   26018.59788810  .00000129  00000+0  82801-4 0  9992
#TLE: 2 43010  98.9937 350.4692 0002400 102.4643 257.6801 14.19696801423766

#Time	Az	El	Level	Level2	SNR	BER	BlckErr	Temp	State	Recorded	gain1	gain2
2026-01-18 23:14:06.06	19.46	2.04	-51.8	-63.7	3.8	8.46e-01	0	35	0	0	74	14795
2026-01-18 23:14:07.05	19.56	2.08	-51.8	-63.7	3.8	8.47e-01	0	35	104	0	74	14797
2026-01-18 23:14:08.06	19.66	2.12	-51.8	-63.6	3.8	8.47e-01	0	35	104	0	74	14574
2026-01-18 23:14:09.07	19.76	2.16	-51.8	-63.6	3.8	8.46e-01	0	35	104	0	74	14632
2026-01-18 23:14:10.08	19.87	2.21	-51.8	-63.6	3.8	8.47e-01	0	35	104	0	74	14597
2026-01-18 23:14:11.09	19.97	2.25	-51.8	-63.7	3.8	8.47e-01	0	35	104	0	74	14712
2026-01-18 23:14:12.09	20.08	2.29	-51.8	-63.6	3.8	8.48e-01	0	35	104	0	74	14688
2026-01-18 23:14:13.10	20.18	2.33	-51.8	-63.6	3.8	8.45e-01	0	35	104	0	74	14699
2026-01-18 23:14:14.11	20.29	2.38	-51.8	-63.7	3.8	8.46e-01	0	35	104	0	74	14756
2026-01-18 23:14:15.12	20.39	2.42	-51.8	-63.6	3.8	8.45e-01	0	35	104	0	74	14694
2026-01-18 23:14:16.12	20.50	2.46	-51.8	-63.6	3.8	8.46e-01	0	35	104	0	74	14707
2026-01-18 23:14:17.13	20.61	2.50	-51.8	-63.6	3.8	8.45e-01	0	35	104	0	74	14660
2026-01-18 23:14:18.14	20.71	2.55	-51.8	-63.7	3.8	8.46e-01	0	35	104	0	74	14721
2026-01-18 23:14:19.15	20.82	2.59	-51.8	-63.6	3.8	8.45e-01	0	35	104	0	74	14619
2026-01-18 23:14:20.15	20.93	2.63	-51.8	-63.6	3.8	8.45e-01	0	35	104	0	74	14546
2026-01-18 23:14:21.16	21.03	2.67	-51.8	-63.6	3.8	8.46e-01	0	35	104	0	74	14672
2026-01-18 23:14:22.17	21.14	2.72	-51.8	-63.6	3.8	8.46e-01	0	35	104	0	74	14631
2026-01-18 23:14:23.18	21.25	2.76	-51.8	-63.6	3.8	8.46e-01	0	35	104	0	74	14595
2026-01-18 23:14:24.19	21.36	2.80	-51.8	-63.6	3.8	8.47e-01	0	35	104	0	74	14708
2026-01-18 23:14:25.19	21.46	2.84	-51.8	-63.7	3.8	8.47e-01	0	35	104	0	74	14747
2026-01-18 23:14:26.20	21.57	2.89	-51.8	-63.7	3.8	8.45e-01	0	35	104	0	74	14802
2026-01-18 23:14:27.21	21.68	2.93	-51.8	-63.7	3.8	8.46e-01	0	35	104	0	74	14859
2026-01-18 23:14:28.22	21.79	2.97	-51.8	-63.7	3.8	8.47e-01	0	35	104	0	74	14794
2026-01-18 23:14:29.23	21.90	3.01	-51.8	-63.7	3.8	8.46e-01	0	35	104	0	74	14790
2026-01-18 23:14:30.24	22.01	3.06	-51.8	-63.7	3.8	8.47e-01	0	35	104	0	74	14741
2026-01-18 23:14:31.25	22.12	3.10	-51.8	-63.7	3.8	8.45e-01	0	35	104	0	74	14725
2026-01-18 23:14:32.25	22.23	3.14	-51.8	-63.7	3.8	8.46e-01	0	35	104	0	74	14734
2026-01-18 23:14:33.26	22.34	3.18	-51.8	-63.6	3.8	8.45e-01	0	35	104	0	74	14674
2026-01-18 23:14:34.27	22.46	3.22	-51.8	-63.7	3.8	8.47e-01	0	36	104	0	74	14737
2026-01-18 23:14:35.28	22.57	3.27	-51.8	-63.7	3.8	8.46e-01	0	35	104	0	74	14771
2026-01-18 23:14:36.29	22.68	3.31	-51.8	-63.7	3.8	8.45e-01	0	35	104	0	74	14744
2026-01-18 23:14:37.29	22.79	3.35	-51.8	-63.6	3.8	8.47e-01	0	35	104	0	74	14687
2026-01-18 23:14:38.30	22.90	3.39	-51.8	-63.6	3.8	8.46e-01	0	35	104	0	74	14620
2026-01-18 23:14:39.31	23.02	3.44	-51.8	-63.7	3.8	8.45e-01	0	35	104	0	74	14751
2026-01-18 23:14:40.32	23.13	3.48	-51.8	-63.7	3.8	8.46e-01	0	35	104	0	74	14800
2026-01-18 23:14:41.33	23.24	3.52	-51.8	-63.7	3.8	8.47e-01	0	35	104	0	74	14774
2026-01-18 23:14:42.33	23.36	3.56	-51.8	-63.7	3.8	8.47e-01	0	36	104	0	74	14722
2026-01-18 23:14:43.34	23.47	3.60	-51.8	-63.6	3.8	8.46e-01	0	35	104	0	74	14665
2026-01-18 23:14:44.35	23.58	3.65	-51.8	-63.6	3.8	8.46e-01	0	36	104	0	74	14607
2026-01-18 23:14:45.36	23.70	3.69	-51.8	-63.5	3.8	8.45e-01	0	35	104	0	74	14524
2026-01-18 23:14:46.37	23.81	3.73	-51.8	-63.6	3.8	8.47e-01	0	35	104	0	74	14621
2026-01-18 23:14:47.37	23.93	3.77	-51.8	-63.6	3.8	8.46e-01	0	35	104	0	74	14657
2026-01-18 23:14:48.38	24.04	3.81	-51.7	-63.8	3.8	8.46e-01	0	35	104	0	74	14974
2026-01-18 23:14:49.39	24.16	3.86	-51.8	-63.6	3.8	8.47e-01	0	36	104	0	74	14690
2026-01-18 23:14:50.40	24.28	3.90	-51.8	-63.5	3.8	8.46e-01	0	36	104	0	74	14487
2026-01-18 23:14:51.41	24.39	3.94	-51.8	-63.5	3.8	8.46e-01	0	36	104	0	74	14452
2026-01-18 23:14:52.41	24.51	3.98	-51.8	-63.4	3.8	8.46e-01	0	36	104	0	74	14230
2026-01-18 23:14:53.42	24.63	4.02	-51.8	-63.5	3.8	8.46e-01	0	36	104	0	74	14516
2026-01-18 23:14:54.43	24.74	4.06	-51.8	-63.6	3.8	8.47e-01	0	36	104	0	74	14660
2026-01-18 23:14:55.44	24.86	4.11	-51.8	-63.7	3.8	8.47e-01	0	36	104	0	74	14723
2026-01-18 23:14:56.45	24.98	4.15	-51.8	-63.7	3.8	8.47e-01	0	36	104	0	74	14721
2026-01-18 23:14:57.45	25.10	4.19	-51.8	-63.7	3.8	8.46e-01	0	36	104	0	74	14780
2026-01-18 23:14:58.46	25.22	4.23	-51.8	-63.5	3.8	8.46e-01	0	36	104	0	74	14535
2026-01-18 23:14:59.47	25.34	4.27	-51.8	-63.5	3.8	8.47e-01	0	36	104	0	74	14391
2026-01-18 23:15:00.47	25.45	4.31	-51.8	-63.5	3.8	8.46e-01	0	36	104	0	74	14454
2026-01-18 23:15:01.48	25.57	4.36	-51.8	-63.6	3.8	8.47e-01	0	36	104	0	74	14656
2026-01-18 23:15:02.49	25.70	4.40	-51.8	-63.7	3.8	8.46e-01	0	36	104	0	74	14796
2026-01-18 23:15:03.50	25.82	4.44	-51.8	-63.7	3.8	8.46e-01	0	36	104	0	74	14743
2026-01-18 23:15:04.51	25.94	4.48	-51.8	-63.4	3.8	8.46e-01	0	36	104	0	74	14227
2026-01-18 23:15:05.51	26.06	4.52	-51.7	-62.7	3.8	8.46e-01	0	36	104	0	74	13155
2026-01-18 23:15:06.52	26.18	4.56	-51.6	-62.2	3.8	8.46e-01	0	36	104	0	73	13196
2026-01-18 23:15:07.53	26.30	4.60	-51.7	-62.5	3.8	8.44e-01	0	36	104	0	73	13650
2026-01-18 23:15:08.54	26.42	4.64	-51.7	-62.9	3.8	8.45e-01	0	36	104	0	73	14338
2026-01-18 23:15:09.55	26.54	4.69	-51.7	-63.1	3.8	8.46e-01	0	36	104	0	74	13742
2026-01-18 23:15:10.56	26.67	4.73	-51.6	-61.9	3.8	8.46e-01	0	36	104	0	74	11957
2026-01-18 23:15:11.56	26.79	4.77	-51.2	-59.0	4.6	8.34e-01	0	36	0	0	73	9151
2026-01-18 23:15:12.57	26.91	4.81	-50.6	-56.4	6.2	4.51e-01	0	36	0	1048576	73	6749
2026-01-18 23:15:13.58	27.04	4.85	-49.6	-53.5	8.9	6.87e-02	0	36	0	6291456	71	5457
2026-01-18 23:15:14.59	27.16	4.89	-48.7	-51.7	10.9	4.32e-03	0	36	0	12582912	68	5246
2026-01-18 23:15:15.60	27.29	4.93	-48.2	-50.9	11.7	1.08e-03	0	36	0	17825792	68	4794
2026-01-18 23:15:16.60	27.41	4.97	-47.7	-50.2	12.4	2.79e-04	0	36	0	23068672	67	4666
2026-01-18 23:15:17.61	27.53	5.01	-47.5	-49.9	12.7	9.72e-05	0	36	0	29360128	65	5054
2026-01-18 23:15:18.62	27.66	5.05	-46.2	-48.0	14.8	9.04e-05	0	36	0	34603008	64	4305
2026-01-18 23:15:19.63	27.79	5.10	-47.7	-50.1	12.8	1.14e-05	0	36	0	40894464	65	5205
2026-01-18 23:15:20.63	27.91	5.14	-47.9	-50.4	12.4	4.12e-04	0	36	0	46137344	67	4773
2026-01-18 23:15:21.64	28.04	5.18	-50.1	-55.0	7.5	4.28e-02	0	36	0	51380224	70	6812
2026-01-18 23:15:22.65	28.16	5.22	-46.3	-47.9	14.7	1.82e-01	0	36	0	55574528	64	4284
2026-01-18 23:15:23.66	28.29	5.26	-44.5	-45.7	17.7	0.00e+00	0	36	0	61865984	59	4428
2026-01-18 23:15:24.66	28.42	5.30	-44.2	-45.4	18.0	0.00e+00	0	36	0	67108864	59	4288
2026-01-18 23:15:25.67	28.55	5.34	-44.3	-45.5	18.0	0.00e+00	0	36	0	73400320	59	4317
2026-01-18 23:15:26.68	28.67	5.38	-44.2	-45.4	18.2	0.00e+00	0	36	0	78643200	59	4255
2026-01-18 23:15:27.69	28.80	5.42	-44.0	-45.2	18.3	0.00e+00	0	36	0	84934656	59	4172
2026-01-18 23:15:28.69	28.93	5.46	-44.2	-45.4	18.2	0.00e+00	0	36	0	90177536	59	4256
2026-01-18 23:15:29.70	29.06	5.50	-44.0	-45.1	18.4	0.00e+00	0	36	0	95420416	59	4144
2026-01-18 23:15:30.71	29.19	5.54	-44.2	-45.4	18.2	0.00e+00	0	36	0	101711872	59	4249
2026-01-18 23:15:31.72	29.32	5.58	-44.0	-45.1	18.4	0.00e+00	0	36	0	106954752	59	4137
2026-01-18 23:15:32.73	29.45	5.62	-44.2	-45.4	18.2	0.00e+00	0	36	0	112197632	59	4246
2026-01-18 23:15:33.74	29.58	5.66	-44.1	-45.2	18.3	0.00e+00	0	36	0	118489088	59	4190
2026-01-18 23:15:34.74	29.71	5.70	-43.9	-45.1	18.5	0.00e+00	0	36	0	123731968	59	4122
2026-01-18 23:15:35.75	29.84	5.74	-44.0	-45.1	18.5	0.00e+00	0	36	0	128974848	59	4131
2026-01-18 23:15:36.76	29.97	5.78	-43.9	-45.1	18.5	0.00e+00	0	36	0	135266304	59	4122
2026-01-18 23:15:37.76	30.10	5.82	-44.0	-45.2	18.4	0.00e+00	0	36	0	141557760	59	4164
2026-01-18 23:15:38.77	30.24	5.86	-44.2	-45.4	18.2	0.00e+00	0	36	0	146800640	59	4290
2026-01-18 23:15:39.78	30.37	5.90	-44.1	-45.3	18.3	0.00e+00	0	36	0	152043520	59	4222
2026-01-18 23:15:40.79	30.50	5.94	-43.9	-45.1	18.5	0.00e+00	0	36	0	158334976	59	4122
2026-01-18 23:15:41.80	30.64	5.98	-43.9	-45.0	18.6	0.00e+00	0	36	0	163577856	59	4094
2026-01-18 23:15:42.80	30.77	6.02	-43.9	-45.0	18.6	0.00e+00	0	36	0	169869312	59	4091
2026-01-18 23:15:43.81	30.90	6.06	-43.7	-44.9	18.8	0.00e+00	0	36	0	175112192	59	4007
2026-01-18 23:15:44.82	31.04	6.09	-43.9	-45.0	18.6	0.00e+00	0	36	0	180355072	59	4081
2026-01-18 23:15:45.83	31.17	6.13	-43.9	-45.0	18.7	0.00e+00	0	36	0	186646528	59	4073
2026-01-18 23:15:46.83	31.31	6.17	-44.0	-45.2	18.5	0.00e+00	0	36	0	191889408	59	4155
2026-01-18 23:15:47.84	31.44	6.21	-43.9	-45.0	18.6	0.00e+00	0	36	0	197132288	59	4090
2026-01-18 23:15:48.85	31.58	6.25	-43.9	-45.0	18.7	0.00e+00	0	36	0	203423744	59	4082
2026-01-18 23:15:49.86	31.71	6.29	-44.0	-45.2	18.5	0.00e+00	0	36	0	209715200	59	4169
2026-01-18 23:15:50.87	31.85	6.33	-44.0	-45.2	18.5	0.00e+00	0	36	0	214958080	59	4171
2026-01-18 23:15:51.88	31.99	6.37	-43.7	-44.9	18.9	0.00e+00	0	36	0	220200960	59	4010
2026-01-18 23:15:52.88	32.12	6.41	-43.8	-44.9	18.8	0.00e+00	0	36	0	226492416	59	4037
2026-01-18 23:15:53.89	32.26	6.44	-43.8	-44.9	18.8	0.00e+00	0	36	0	231735296	59	4035
2026-01-18 23:15:54.90	32.40	6.48	-43.5	-44.6	19.1	0.00e+00	0	36	0	236978176	59	3906
2026-01-18 23:15:55.91	32.54	6.52	-43.7	-44.8	18.9	0.00e+00	0	36	0	243269632	59	3991
2026-01-18 23:15:56.91	32.67	6.56	-43.6	-44.7	19.0	0.00e+00	0	36	0	248512512	59	3934
2026-01-18 23:15:57.92	32.81	6.60	-43.7	-44.8	19.0	0.00e+00	0	36	0	254803968	59	3967
2026-01-18 23:15:58.93	32.95	6.64	-43.7	-44.8	18.9	0.00e+00	0	36	0	260046848	59	3983
2026-01-18 23:15:59.93	33.09	6.67	-43.5	-44.6	19.1	0.00e+00	0	36	0	265289728	59	3892
2026-01-18 23:16:00.94	33.23	6.71	-43.7	-44.8	18.9	0.00e+00	0	36	0	271581184	58	4214
2026-01-18 23:16:01.95	33.37	6.75	-43.4	-44.5	19.2	0.00e+00	0	36	0	276824064	58	4072
2026-01-18 23:16:02.96	33.51	6.79	-43.8	-44.9	18.8	0.00e+00	0	36	0	282066944	58	4282
2026-01-18 23:16:03.96	33.65	6.83	-43.5	-44.6	19.1	0.00e+00	0	36	0	288358400	58	4142
2026-01-18 23:16:04.97	33.79	6.86	-43.5	-44.6	19.1	0.00e+00	0	36	0	294649856	58	4130
2026-01-18 23:16:05.98	33.93	6.90	-43.6	-44.7	19.1	0.00e+00	0	36	0	299892736	58	4163
2026-01-18 23:16:06.98	34.08	6.94	-43.7	-44.8	19.0	0.00e+00	0	36	0	305135616	58	4206
2026-01-18 23:16:07.99	34.22	6.98	-43.8	-45.0	18.8	0.00e+00	0	36	0	311427072	58	4299
2026-01-18 23:16:09.00	34.36	7.01	-43.9	-45.1	18.7	0.00e+00	0	36	0	316669952	58	4346
2026-01-18 23:16:10.01	34.50	7.05	-43.7	-44.8	19.0	0.00e+00	0	36	0	321912832	58	4206
2026-01-18 23:16:11.02	34.65	7.09	-43.5	-44.6	19.2	0.00e+00	0	36	0	328204288	58	4114
2026-01-18 23:16:12.03	34.79	7.12	-43.7	-44.8	19.0	0.00e+00	0	36	0	333447168	58	4206
2026-01-18 23:16:13.03	34.93	7.16	-43.4	-44.5	19.3	0.00e+00	0	36	0	339738624	58	4058
2026-01-18 23:16:14.04	35.08	7.20	-43.4	-44.5	19.3	0.00e+00	0	36	0	344981504	58	4070
2026-01-18 23:16:15.05	35.22	7.23	-43.5	-44.5	19.3	0.00e+00	0	36	0	350224384	58	4086
2026-01-18 23:16:16.05	35.37	7.27	-43.8	-44.9	19.0	0.00e+00	0	36	0	356515840	58	4249
2026-01-18 23:16:17.06	35.51	7.31	-43.5	-44.6	19.2	0.00e+00	0	36	0	362807296	58	4126
2026-01-18 23:16:18.07	35.66	7.34	-43.4	-44.4	19.4	0.00e+00	0	36	0	368050176	58	4042
2026-01-18 23:16:19.08	35.81	7.38	-43.4	-44.4	19.4	0.00e+00	0	36	0	373293056	58	4039
2026-01-18 23:16:20.09	35.95	7.42	-43.5	-44.6	19.2	0.00e+00	0	36	0	379584512	58	4138
2026-01-18 23:16:21.10	36.10	7.45	-43.5	-44.5	19.3	0.00e+00	0	36	0	384827392	58	4092
2026-01-18 23:16:22.11	36.25	7.49	-43.5	-44.6	19.3	0.00e+00	0	36	0	390070272	58	4123
2026-01-18 23:16:23.12	36.40	7.53	-43.5	-44.6	19.2	0.00e+00	0	36	0	396361728	58	4133
2026-01-18 23:16:24.12	36.54	7.56	-43.6	-44.7	19.1	0.00e+00	0	36	0	401604608	58	4185
2026-01-18 23:16:25.13	36.69	7.60	-43.6	-44.7	19.2	0.00e+00	0	36	0	406847488	58	4148
2026-01-18 23:16:26.14	36.84	7.63	-43.4	-44.5	19.4	0.00e+00	0	36	0	413138944	58	4071
2026-01-18 23:16:27.15	36.99	7.67	-43.6	-44.7	19.1	0.00e+00	0	36	0	418381824	58	4183
2026-01-18 23:16:28.15	37.14	7.70	-43.7	-44.9	19.0	0.00e+00	0	36	0	424673280	58	4253
2026-01-18 23:16:29.16	37.29	7.74	-43.7	-44.8	19.1	0.00e+00	0	36	0	429916160	58	4211
2026-01-18 23:16:30.17	37.44	7.77	-43.5	-44.6	19.3	0.00e+00	0	36	0	436207616	58	4128
2026-01-18 23:16:31.18	37.59	7.81	-43.5	-44.6	19.3	0.00e+00	0	36	0	441450496	58	4139
2026-01-18 23:16:32.19	37.74	7.84	-43.6	-44.7	19.2	0.00e+00	0	36	0	447741952	58	4152
2026-01-18 23:16:33.19	37.89	7.88	-43.5	-44.5	19.4	0.00e+00	0	36	0	452984832	58	4089
2026-01-18 23:16:34.20	38.04	7.91	-43.2	-44.3	19.6	0.00e+00	0	36	0	458227712	58	3974
2026-01-18 23:16:35.21	38.19	7.95	-43.3	-44.4	19.5	0.00e+00	0	36	0	464519168	58	4013
2026-01-18 23:16:36.22	38.34	7.98	-43.4	-44.4	19.5	0.00e+00	0	36	0	469762048	58	4044
2026-01-18 23:16:37.23	38.50	8.02	-43.3	-44.3	19.6	0.00e+00	0	36	0	475004928	58	4000
2026-01-18 23:16:38.24	38.65	8.05	-43.3	-44.4	19.5	0.00e+00	0	36	0	481296384	58	4012
2026-01-18 23:16:39.25	38.80	8.08	-43.5	-44.6	19.3	0.00e+00	0	36	0	486539264	58	4102
2026-01-18 23:16:40.25	38.96	8.12	-43.5	-44.6	19.3	0.00e+00	0	36	0	491782144	58	4119
2026-01-18 23:16:41.26	39.11	8.15	-43.3	-44.3	19.5	0.00e+00	0	36	0	498073600	58	3996
2026-01-18 23:16:42.27	39.27	8.19	-43.4	-44.5	19.5	0.00e+00	0	36	0	504365056	58	4062
2026-01-18 23:16:43.28	39.42	8.22	-43.1	-44.1	19.8	0.00e+00	0	36	0	509607936	58	3899
2026-01-18 23:16:44.28	39.57	8.25	-43.1	-44.1	19.8	0.00e+00	0	36	0	514850816	57	4114
2026-01-18 23:16:45.29	39.73	8.29	-43.2	-44.2	19.7	0.00e+00	0	36	0	521142272	57	4191
2026-01-18 23:16:46.30	39.88	8.32	-43.0	-44.0	19.8	0.00e+00	0	36	0	526385152	57	4095
2026-01-18 23:16:47.31	40.04	8.35	-43.0	-44.0	19.9	0.00e+00	0	36	0	532676608	57	4072
2026-01-18 23:16:48.32	40.20	8.38	-43.0	-44.0	19.8	0.00e+00	0	36	0	537919488	57	4075
2026-01-18 23:16:49.32	40.35	8.42	-42.9	-43.9	20.0	0.00e+00	0	36	0	543162368	57	4021
2026-01-18 23:16:50.33	40.51	8.45	-43.0	-44.0	19.8	0.00e+00	0	36	0	549453824	57	4096
2026-01-18 23:16:51.34	40.67	8.48	-42.9	-43.9	19.9	0.00e+00	0	36	0	554696704	57	4039
2026-01-18 23:16:52.35	40.83	8.51	-43.0	-44.0	19.8	0.00e+00	0	36	0	559939584	57	4085
2026-01-18 23:16:53.35	40.98	8.55	-43.0	-44.0	19.9	0.00e+00	0	36	0	566231040	57	4084
2026-01-18 23:16:54.36	41.14	8.58	-43.0	-44.0	19.9	0.00e+00	0	36	0	572522496	57	4094
2026-01-18 23:16:55.37	41.30	8.61	-43.1	-44.1	19.8	0.00e+00	0	36	0	577765376	57	4122
2026-01-18 23:16:56.38	41.46	8.64	-43.0	-44.1	19.9	0.00e+00	0	36	0	583008256	57	4100
2026-01-18 23:16:57.39	41.62	8.67	-43.1	-44.1	19.8	0.00e+00	0	36	0	589299712	57	4132
2026-01-18 23:16:58.39	41.78	8.70	-43.0	-44.0	19.9	0.00e+00	0	36	0	594542592	57	4094
2026-01-18 23:16:59.40	41.94	8.74	-43.0	-43.9	19.9	0.00e+00	0	36	0	599785472	57	4048
2026-01-18 23:17:00.41	42.10	8.77	-43.0	-44.0	20.0	0.00e+00	0	36	0	606076928	57	4068
2026-01-18 23:17:01.42	42.26	8.80	-42.9	-43.9	20.0	0.00e+00	0	36	0	611319808	57	4029
2026-01-18 23:17:02.43	42.42	8.83	-42.8	-43.8	20.1	0.00e+00	0	36	0	617611264	57	4000
2026-01-18 23:17:03.43	42.58	8.86	-42.8	-43.8	20.2	0.00e+00	0	36	0	622854144	57	3964
2026-01-18 23:17:04.44	42.74	8.89	-42.9	-43.9	20.0	0.00e+00	0	36	0	628097024	57	4038
2026-01-18 23:17:05.45	42.90	8.92	-43.0	-44.1	19.9	0.00e+00	0	36	0	634388480	57	4100
2026-01-18 23:17:06.46	43.07	8.95	-43.0	-44.0	20.0	0.00e+00	0	36	0	640679936	57	4054
2026-01-18 23:17:07.47	43.23	8.98	-42.9	-43.9	20.0	0.00e+00	0	36	0	645922816	57	4035
2026-01-18 23:17:08.48	43.39	9.01	-43.0	-44.0	20.0	0.00e+00	0	36	0	651165696	57	4065
2026-01-18 23:17:09.49	43.56	9.04	-43.1	-44.2	19.9	0.00e+00	0	36	0	657457152	57	4149
2026-01-18 23:17:10.49	43.72	9.07	-42.9	-43.9	20.0	0.00e+00	0	36	0	662700032	57	4045
2026-01-18 23:17:11.50	43.88	9.10	-43.0	-44.0	20.0	0.00e+00	0	36	0	667942912	57	4080
2026-01-18 23:17:12.51	44.05	9.13	-42.9	-43.9	20.1	0.00e+00	0	36	0	674234368	57	4026
2026-01-18 23:17:13.52	44.21	9.16	-42.7	-43.7	20.2	0.00e+00	0	36	0	679477248	57	3946
2026-01-18 23:17:14.53	44.38	9.19	-42.7	-43.7	20.3	0.00e+00	0	36	0	684720128	57	3920
2026-01-18 23:17:15.54	44.54	9.21	-42.8	-43.8	20.1	0.00e+00	0	36	0	691011584	57	3999
2026-01-18 23:17:16.55	44.71	9.24	-42.9	-43.9	20.1	0.00e+00	0	36	0	696254464	57	4024
2026-01-18 23:17:17.55	44.87	9.27	-42.9	-43.9	20.1	0.00e+00	0	36	0	702545920	57	4029
2026-01-18 23:17:18.56	45.04	9.30	-43.0	-44.0	19.9	0.00e+00	0	36	0	707788800	57	4086
2026-01-18 23:17:19.57	45.21	9.33	-43.1	-44.1	19.9	0.00e+00	0	36	0	714080256	57	4134
2026-01-18 23:17:20.58	45.37	9.35	-43.1	-44.1	19.9	0.00e+00	0	36	0	719323136	57	4132
2026-01-18 23:17:21.59	45.54	9.38	-43.1	-44.1	19.9	0.00e+00	0	36	0	725614592	57	4143
2026-01-18 23:17:22.59	45.71	9.41	-43.2	-44.2	19.8	0.00e+00	0	36	0	730857472	57	4180
2026-01-18 23:17:23.60	45.87	9.44	-43.1	-44.2	19.8	0.00e+00	0	36	0	736100352	57	4146
2026-01-18 23:17:24.61	46.04	9.46	-43.0	-44.0	20.0	0.00e+00	0	36	0	742391808	57	4063
2026-01-18 23:17:25.62	46.21	9.49	-43.0	-44.1	19.9	0.00e+00	0	36	0	747634688	57	4107
2026-01-18 23:17:26.63	46.38	9.52	-42.9	-43.9	20.1	0.00e+00	0	36	0	752877568	57	4014
2026-01-18 23:17:27.63	46.55	9.54	-42.8	-43.7	20.3	0.00e+00	0	36	0	759169024	57	3953
2026-01-18 23:17:28.64	46.72	9.57	-42.8	-43.8	20.3	0.00e+00	0	36	0	764411904	57	3962
2026-01-18 23:17:29.65	46.89	9.60	-42.9	-43.8	20.2	0.00e+00	0	36	0	769654784	57	3997
2026-01-18 23:17:30.66	47.06	9.62	-42.9	-43.9	20.1	0.00e+00	0	36	0	775946240	57	4020
2026-01-18 23:17:31.67	47.23	9.65	-43.0	-44.0	20.0	0.00e+00	0	36	0	782237696	57	4088
2026-01-18 23:17:32.67	47.40	9.67	-43.1	-44.1	20.0	0.00e+00	0	36	0	787480576	57	4115
2026-01-18 23:17:33.68	47.57	9.70	-43.1	-44.2	19.9	0.00e+00	0	36	0	792723456	57	4158
2026-01-18 23:17:34.69	47.74	9.72	-43.1	-44.1	19.9	0.00e+00	0	36	0	799014912	57	4127
2026-01-18 23:17:35.70	47.91	9.75	-43.0	-44.0	20.0	0.00e+00	0	36	0	804257792	57	4072
2026-01-18 23:17:36.71	48.08	9.77	-42.9	-43.9	20.1	0.00e+00	0	36	0	810549248	57	4047
2026-01-18 23:17:37.72	48.25	9.80	-42.9	-43.9	20.0	0.00e+00	0	36	0	815792128	57	4048
2026-01-18 23:17:38.72	48.42	9.82	-42.8	-43.8	20.2	0.00e+00	0	36	0	821035008	57	3995
2026-01-18 23:17:39.73	48.60	9.85	-42.7	-43.7	20.3	0.00e+00	0	36	0	827326464	57	3935
2026-01-18 23:17:40.74	48.77	9.87	-42.9	-43.8	20.2	0.00e+00	0	36	0	832569344	57	4000
2026-01-18 23:17:41.75	48.94	9.89	-42.8	-43.7	20.3	0.00e+00	0	36	0	837812224	57	3953
2026-01-18 23:17:42.75	49.11	9.92	-42.6	-43.6	20.4	0.00e+00	0	36	0	844103680	57	3891
2026-01-18 23:17:43.76	49.29	9.94	-42.7	-43.7	20.3	0.00e+00	0	36	0	850395136	57	3938
2026-01-18 23:17:44.77	49.46	9.96	-42.6	-43.6	20.5	0.00e+00	0	36	0	855638016	57	3869
2026-01-18 23:17:45.78	49.64	9.99	-42.5	-43.4	20.6	0.00e+00	0	36	0	860880896	57	3816
2026-01-18 23:17:46.79	49.81	10.01	-42.5	-43.5	20.5	0.00e+00	0	36	0	867172352	57	3836
2026-01-18 23:17:47.79	49.98	10.03	-42.4	-43.4	20.6	0.00e+00	0	36	0	872415232	56	4011
2026-01-18 23:17:48.80	50.16	10.06	-42.5	-43.4	20.6	0.00e+00	0	36	0	877658112	56	4051
2026-01-18 23:17:49.81	50.33	10.08	-42.6	-43.5	20.5	0.00e+00	0	36	0	883949568	56	4081
2026-01-18 23:17:50.82	50.51	10.10	-42.6	-43.5	20.5	0.00e+00	0	36	0	889192448	56	4085
2026-01-18 23:17:51.83	50.69	10.12	-42.4	-43.4	20.6	0.00e+00	0	36	0	895483904	56	4016
2026-01-18 23:17:52.84	50.86	10.14	-42.5	-43.5	20.6	0.00e+00	0	36	0	900726784	56	4065
2026-01-18 23:17:53.84	51.04	10.16	-42.6	-43.6	20.5	0.00e+00	0	36	0	905969664	56	4101
2026-01-18 23:17:54.85	51.21	10.18	-42.5	-43.4	20.6	0.00e+00	0	36	0	912261120	56	4032
2026-01-18 23:17:55.86	51.39	10.21	-42.5	-43.4	20.6	0.00e+00	0	36	0	918552576	56	4048
2026-01-18 23:17:56.87	51.57	10.23	-42.3	-43.2	20.8	0.00e+00	0	36	0	923795456	56	3943
2026-01-18 23:17:57.87	51.74	10.25	-42.3	-43.2	20.8	0.00e+00	0	36	0	929038336	56	3938
2026-01-18 23:17:58.88	51.92	10.27	-42.3	-43.2	20.8	0.00e+00	0	36	0	935329792	56	3942
2026-01-18 23:17:59.89	52.10	10.29	-42.2	-43.1	20.9	0.00e+00	0	36	0	940572672	56	3890
2026-01-18 23:18:00.88	52.27	10.31	-42.2	-43.1	20.9	0.00e+00	0	36	0	945815552	56	3905
2026-01-18 23:18:01.89	52.45	10.33	-42.3	-43.2	20.8	0.00e+00	0	36	0	952107008	56	3928
2026-01-18 23:18:02.89	52.63	10.34	-42.2	-43.1	20.9	0.00e+00	0	36	0	957349888	56	3913
2026-01-18 23:18:03.90	52.81	10.36	-42.4	-43.3	20.7	0.00e+00	0	36	0	962592768	56	3976
2026-01-18 23:18:04.91	52.98	10.38	-42.6	-43.6	20.5	0.00e+00	0	36	0	968884224	56	4105
2026-01-18 23:18:05.92	53.16	10.40	-42.7	-43.6	20.4	0.00e+00	0	36	0	974127104	56	4135
2026-01-18 23:18:06.92	53.34	10.42	-42.8	-43.7	20.3	0.00e+00	0	36	0	980418560	56	4191
2026-01-18 23:18:07.93	53.52	10.44	-42.8	-43.7	20.3	0.00e+00	0	36	0	985661440	56	4183
2026-01-18 23:18:08.94	53.70	10.45	-42.8	-43.8	20.2	0.00e+00	0	36	0	990904320	56	4209
2026-01-18 23:18:09.95	53.88	10.47	-42.6	-43.6	20.5	0.00e+00	0	36	0	997195776	56	4102
2026-01-18 23:18:10.96	54.06	10.49	-42.6	-43.5	20.5	0.00e+00	0	36	0	1003487232	56	4076
2026-01-18 23:18:11.97	54.24	10.51	-42.5	-43.4	20.6	0.00e+00	0	36	0	1008730112	56	4033
2026-01-18 23:18:12.98	54.42	10.52	-42.6	-43.6	20.5	0.00e+00	0	36	0	1013972992	56	4104
2026-01-18 23:18:13.99	54.60	10.54	-42.5	-43.4	20.6	0.00e+00	0	36	0	1020264448	56	4051
2026-01-18 23:18:14.99	54.78	10.56	-42.5	-43.5	20.5	0.00e+00	0	36	0	1025507328	56	4071
2026-01-18 23:18:16.00	54.96	10.57	-42.6	-43.6	20.5	0.00e+00	0	36	0	1030750208	56	4102
2026-01-18 23:18:17.01	55.15	10.59	-42.6	-43.5	20.5	0.00e+00	0	36	0	1037041664	56	4078
2026-01-18 23:18:18.02	55.33	10.61	-42.6	-43.5	20.5	0.00e+00	0	36	0	1042284544	56	4096
2026-01-18 23:18:19.03	55.51	10.62	-42.7	-43.7	20.3	0.00e+00	0	36	0	1047527424	56	4152
2026-01-18 23:18:20.04	55.69	10.64	-42.6	-43.5	20.5	0.00e+00	0	36	0	1053818880	56	4084
2026-01-18 23:18:21.05	55.87	10.65	-42.5	-43.4	20.6	0.00e+00	0	36	0	1059061760	56	4033
2026-01-18 23:18:22.05	56.05	10.67	-42.5	-43.4	20.6	0.00e+00	0	36	0	1065353216	56	4040
2026-01-18 23:18:23.06	56.24	10.68	-42.6	-43.5	20.5	0.00e+00	0	36	0	1070596096	56	4086
2026-01-18 23:18:24.07	56.42	10.69	-42.6	-43.6	20.4	0.00e+00	0	36	0	1076887552	56	4118
2026-01-18 23:18:25.07	56.60	10.71	-42.6	-43.5	20.5	0.00e+00	0	36	0	1082130432	56	4082
2026-01-18 23:18:26.08	56.78	10.72	-42.6	-43.5	20.5	0.00e+00	0	36	0	1088421888	56	4092
2026-01-18 23:18:27.09	56.97	10.74	-42.6	-43.6	20.4	0.00e+00	0	36	0	1093664768	56	4123
2026-01-18 23:18:28.10	57.15	10.75	-42.6	-43.6	20.4	0.00e+00	0	36	0	1098907648	56	4124
2026-01-18 23:18:29.11	57.33	10.76	-42.5	-43.5	20.5	0.00e+00	0	37	0	1105199104	56	4060
2026-01-18 23:18:30.11	57.52	10.77	-42.6	-43.6	20.4	0.00e+00	0	37	0	1110441984	56	4110
2026-01-18 23:18:31.12	57.70	10.79	-42.6	-43.6	20.4	0.00e+00	0	36	0	1115684864	56	4126
2026-01-18 23:18:32.13	57.88	10.80	-42.7	-43.7	20.3	0.00e+00	0	36	0	1121976320	56	4164
2026-01-18 23:18:33.14	58.07	10.81	-42.6	-43.6	20.4	0.00e+00	0	36	0	1127219200	56	4123
2026-01-18 23:18:34.15	58.25	10.82	-42.5	-43.4	20.6	0.00e+00	0	36	0	1132462080	56	4044
2026-01-18 23:18:35.15	58.43	10.83	-42.6	-43.5	20.5	0.00e+00	0	37	0	1138753536	56	4085
2026-01-18 23:18:36.16	58.62	10.85	-42.4	-43.3	20.7	0.00e+00	0	36	0	1145044992	56	4000
2026-01-18 23:18:37.17	58.80	10.86	-42.5	-43.4	20.6	0.00e+00	0	36	0	1150287872	56	4034
2026-01-18 23:18:38.18	58.99	10.87	-42.5	-43.4	20.6	0.00e+00	0	36	0	1155530752	56	4036
2026-01-18 23:18:39.19	59.17	10.88	-42.3	-43.2	20.8	0.00e+00	0	36	0	1161822208	56	3958
2026-01-18 23:18:40.19	59.36	10.89	-42.3	-43.2	20.8	0.00e+00	0	36	0	1167065088	56	3951
2026-01-18 23:18:41.20	59.54	10.90	-42.3	-43.2	20.8	0.00e+00	0	36	0	1173356544	56	3939
2026-01-18 23:18:42.21	59.73	10.91	-42.3	-43.3	20.8	0.00e+00	0	36	0	1178599424	56	3964
2026-01-18 23:18:43.22	59.91	10.92	-42.4	-43.3	20.7	0.00e+00	0	36	0	1183842304	56	3997
2026-01-18 23:18:44.22	60.10	10.93	-42.3	-43.3	20.8	0.00e+00	0	36	0	1190133760	56	3966
2026-01-18 23:18:45.23	60.28	10.94	-42.3	-43.2	20.8	0.00e+00	0	36	0	1195376640	56	3945
2026-01-18 23:18:46.24	60.47	10.94	-42.4	-43.4	20.7	0.00e+00	0	36	0	1200619520	56	4006
2026-01-18 23:18:47.24	60.65	10.95	-42.3	-43.2	20.8	0.00e+00	0	36	0	1206910976	56	3951
2026-01-18 23:18:48.25	60.84	10.96	-42.5	-43.4	20.6	0.00e+00	0	36	0	1212153856	56	4050
2026-01-18 23:18:49.26	61.03	10.97	-42.5	-43.4	20.6	0.00e+00	0	36	0	1218445312	56	4034
2026-01-18 23:18:50.27	61.21	10.98	-42.5	-43.4	20.6	0.00e+00	0	36	0	1223688192	56	4044
2026-01-18 23:18:51.27	61.40	10.98	-42.5	-43.4	20.6	0.00e+00	0	36	0	1229979648	56	4031
2026-01-18 23:18:52.28	61.58	10.99	-42.5	-43.4	20.6	0.00e+00	0	36	0	1235222528	56	4038
2026-01-18 23:18:53.29	61.77	11.00	-42.5	-43.4	20.6	0.00e+00	0	36	0	1240465408	56	4034
2026-01-18 23:18:54.30	61.96	11.00	-42.5	-43.5	20.6	0.00e+00	0	36	0	1246756864	56	4052
2026-01-18 23:18:55.30	62.14	11.01	-42.3	-43.2	20.8	0.00e+00	0	36	0	1251999744	56	3941
2026-01-18 23:18:56.31	62.33	11.02	-42.4	-43.4	20.6	0.00e+00	0	36	0	1258291200	56	4007
2026-01-18 23:18:57.32	62.51	11.02	-42.3	-43.3	20.8	0.00e+00	0	36	0	1263534080	56	3962
2026-01-18 23:18:58.33	62.70	11.03	-42.2	-43.1	20.9	0.00e+00	0	36	0	1268776960	56	3896
2026-01-18 23:18:59.34	62.89	11.03	-42.3	-43.2	20.8	0.00e+00	0	36	0	1275068416	56	3924
2026-01-18 23:19:00.34	63.07	11.04	-42.2	-43.1	20.9	0.00e+00	0	36	0	1280311296	56	3906
2026-01-18 23:19:01.35	63.26	11.04	-42.3	-43.2	20.8	0.00e+00	0	36	0	1285554176	56	3943
2026-01-18 23:19:02.36	63.45	11.05	-42.4	-43.3	20.8	0.00e+00	0	36	0	1291845632	56	3980
2026-01-18 23:19:03.37	63.64	11.05	-42.3	-43.2	20.8	0.00e+00	0	36	0	1298137088	56	3958
2026-01-18 23:19:04.37	63.82	11.05	-42.4	-43.3	20.7	0.00e+00	0	36	0	1303379968	56	3990
2026-01-18 23:19:05.38	64.01	11.06	-42.3	-43.2	20.8	0.00e+00	0	36	0	1308622848	56	3948
2026-01-18 23:19:06.39	64.20	11.06	-42.4	-43.3	20.7	0.00e+00	0	36	0	1314914304	56	4001
2026-01-18 23:19:07.40	64.38	11.06	-42.3	-43.3	20.8	0.00e+00	0	36	0	1320157184	56	3974
2026-01-18 23:19:08.41	64.57	11.07	-42.5	-43.5	20.6	0.00e+00	0	36	0	1325400064	56	4052
2026-01-18 23:19:09.41	64.76	11.07	-42.4	-43.3	20.7	0.00e+00	0	36	0	1331691520	56	3995
2026-01-18 23:19:10.43	64.95	11.07	-42.2	-43.2	20.9	0.00e+00	0	36	0	1336934400	56	3916
2026-01-18 23:19:11.43	65.13	11.07	-42.3	-43.2	20.8	0.00e+00	0	36	0	1343225856	56	3949
2026-01-18 23:19:12.44	65.32	11.08	-42.4	-43.4	20.6	0.00e+00	0	36	0	1348468736	56	4016
2026-01-18 23:19:13.45	65.51	11.08	-42.5	-43.4	20.6	0.00e+00	0	36	0	1353711616	56	4039
2026-01-18 23:19:14.46	65.70	11.08	-42.4	-43.4	20.7	0.00e+00	0	36	0	1360003072	56	4021
2026-01-18 23:19:15.47	65.88	11.08	-42.5	-43.4	20.6	0.00e+00	0	36	0	1366294528	56	4051
2026-01-18 23:19:16.48	66.07	11.08	-42.6	-43.6	20.4	0.00e+00	0	36	0	1371537408	56	4111
2026-01-18 23:19:17.48	66.26	11.08	-42.5	-43.5	20.6	0.00e+00	0	36	0	1376780288	56	4059
2026-01-18 23:19:18.49	66.44	11.08	-42.5	-43.4	20.6	0.00e+00	0	36	0	1383071744	56	4049
2026-01-18 23:19:19.50	66.63	11.08	-42.5	-43.4	20.6	0.00e+00	0	36	0	1388314624	56	4042
2026-01-18 23:19:20.51	66.82	11.08	-42.4	-43.3	20.7	0.00e+00	0	36	0	1393557504	56	3993
2026-01-18 23:19:21.51	67.01	11.08	-42.3	-43.2	20.9	0.00e+00	0	36	0	1399848960	56	3928
2026-01-18 23:19:22.52	67.19	11.08	-42.3	-43.2	20.7	0.00e+00	0	36	0	1405091840	56	3942
2026-01-18 23:19:23.53	67.38	11.08	-42.3	-43.2	20.8	0.00e+00	0	36	0	1410334720	56	3924
2026-01-18 23:19:24.54	67.57	11.08	-42.3	-43.3	20.8	0.00e+00	0	37	0	1416626176	56	3968
2026-01-18 23:19:25.54	67.75	11.07	-42.3	-43.2	20.7	0.00e+00	0	36	0	1421869056	56	3957
2026-01-18 23:19:26.55	67.94	11.07	-42.4	-43.4	20.7	0.00e+00	0	36	0	1428160512	56	4008
2026-01-18 23:19:27.56	68.13	11.07	-42.4	-43.4	20.6	0.00e+00	0	36	0	1433403392	56	4012
2026-01-18 23:19:28.57	68.32	11.07	-42.5	-43.5	20.5	0.00e+00	0	36	0	1439694848	56	4081
2026-01-18 23:19:29.57	68.50	11.06	-42.6	-43.5	20.4	0.00e+00	0	36	0	1444937728	56	4091
2026-01-18 23:19:30.58	68.69	11.06	-42.6	-43.5	20.5	0.00e+00	0	36	0	1451229184	56	4088
2026-01-18 23:19:31.59	68.88	11.06	-42.5	-43.4	20.6	0.00e+00	0	36	0	1456472064	56	4029
2026-01-18 23:19:32.60	69.07	11.05	-42.3	-43.3	20.7	0.00e+00	0	36	0	1461714944	56	3963
2026-01-18 23:19:33.61	69.25	11.05	-42.4	-43.3	20.6	0.00e+00	0	36	0	1468006400	56	4002
2026-01-18 23:19:34.62	69.44	11.05	-42.4	-43.3	20.7	0.00e+00	0	36	0	1473249280	56	3973
2026-01-18 23:19:35.62	69.63	11.04	-42.3	-43.3	20.7	0.00e+00	0	36	0	1478492160	56	3974
2026-01-18 23:19:36.63	69.81	11.04	-42.5	-43.4	20.6	0.00e+00	0	36	0	1484783616	56	4051
2026-01-18 23:19:37.64	70.00	11.03	-42.6	-43.5	20.5	0.00e+00	0	36	0	1490026496	56	4094
2026-01-18 23:19:38.65	70.19	11.03	-42.6	-43.6	20.4	0.00e+00	0	36	0	1495269376	56	4119
2026-01-18 23:19:39.66	70.37	11.02	-42.5	-43.4	20.5	0.00e+00	0	36	0	1501560832	56	4051
2026-01-18 23:19:40.66	70.56	11.01	-42.6	-43.5	20.5	0.00e+00	0	37	0	1507852288	56	4093
2026-01-18 23:19:41.67	70.75	11.01	-42.7	-43.6	20.4	0.00e+00	0	36	0	1513095168	56	4143
2026-01-18 23:19:42.68	70.93	11.00	-42.6	-43.6	20.5	0.00e+00	0	36	0	1518338048	56	4111
2026-01-18 23:19:43.69	71.12	10.99	-42.5	-43.5	20.6	0.00e+00	0	36	0	1524629504	56	4068
2026-01-18 23:19:44.69	71.30	10.99	-42.7	-43.6	20.4	0.00e+00	0	36	0	1529872384	56	4134
2026-01-18 23:19:45.70	71.49	10.98	-42.5	-43.5	20.5	0.00e+00	0	36	0	1536163840	56	4072
2026-01-18 23:19:46.71	71.68	10.97	-42.5	-43.5	20.5	0.00e+00	0	36	0	1541406720	56	4061
2026-01-18 23:19:47.72	71.86	10.97	-42.5	-43.4	20.6	0.00e+00	0	36	0	1546649600	56	4037
2026-01-18 23:19:48.73	72.05	10.96	-42.5	-43.4	20.7	0.00e+00	0	36	0	1552941056	56	4039
2026-01-18 23:19:49.74	72.24	10.95	-42.4	-43.4	20.5	0.00e+00	0	36	0	1558183936	56	4024
2026-01-18 23:19:50.75	72.42	10.94	-42.5	-43.4	20.6	0.00e+00	0	36	0	1563426816	56	4047
2026-01-18 23:19:51.75	72.61	10.93	-42.5	-43.5	20.5	0.00e+00	0	36	0	1569718272	56	4066
2026-01-18 23:19:52.76	72.79	10.92	-42.5	-43.4	20.6	0.00e+00	0	36	0	1576009728	56	4050
2026-01-18 23:19:53.77	72.98	10.91	-42.6	-43.5	20.5	0.00e+00	0	36	0	1581252608	56	4082
2026-01-18 23:19:54.78	73.16	10.90	-42.6	-43.5	20.5	0.00e+00	0	36	0	1586495488	56	4087
2026-01-18 23:19:55.79	73.35	10.89	-42.4	-43.3	20.7	0.00e+00	0	36	0	1592786944	56	3989
2026-01-18 23:19:56.80	73.54	10.88	-42.5	-43.4	20.6	0.00e+00	0	36	0	1598029824	56	4042
2026-01-18 23:19:57.81	73.72	10.87	-42.6	-43.6	20.5	0.00e+00	0	36	0	1603272704	56	4102
2026-01-18 23:19:58.82	73.91	10.86	-42.5	-43.4	20.6	0.00e+00	0	36	0	1609564160	56	4050
2026-01-18 23:19:59.82	74.09	10.85	-42.6	-43.5	20.5	0.00e+00	0	36	0	1614807040	56	4088
2026-01-18 23:20:00.82	74.27	10.84	-42.7	-43.7	20.3	0.00e+00	0	36	0	1621098496	56	4154
2026-01-18 23:20:01.83	74.46	10.83	-42.7	-43.7	20.3	0.00e+00	0	36	0	1626341376	56	4182
2026-01-18 23:20:02.84	74.64	10.82	-42.7	-43.7	20.4	0.00e+00	0	36	0	1631584256	56	4154
2026-01-18 23:20:03.85	74.83	10.81	-42.7	-43.7	20.4	0.00e+00	0	37	0	1637875712	56	4163
2026-01-18 23:20:04.85	75.01	10.79	-42.4	-43.4	20.6	0.00e+00	0	36	0	1643118592	56	4027
2026-01-18 23:20:05.86	75.19	10.78	-42.6	-43.5	20.4	0.00e+00	0	36	0	1649410048	56	4087
2026-01-18 23:20:06.87	75.38	10.77	-42.5	-43.4	20.6	0.00e+00	0	36	0	1654652928	56	4051
2026-01-18 23:20:07.88	75.56	10.76	-42.4	-43.3	20.7	0.00e+00	0	36	0	1660944384	56	3985
2026-01-18 23:20:08.89	75.75	10.74	-42.4	-43.3	20.7	0.00e+00	0	36	0	1666187264	56	3980
2026-01-18 23:20:09.90	75.93	10.73	-42.4	-43.3	20.6	0.00e+00	0	36	0	1671430144	56	4004
2026-01-18 23:20:10.91	76.11	10.72	-42.5	-43.4	20.6	0.00e+00	0	36	0	1677721600	56	4048
2026-01-18 23:20:11.91	76.29	10.70	-42.5	-43.5	20.6	0.00e+00	0	36	0	1682964480	56	4057
2026-01-18 23:20:12.92	76.48	10.69	-42.5	-43.5	20.5	0.00e+00	0	36	0	1688207360	56	4063
2026-01-18 23:20:13.93	76.66	10.67	-42.6	-43.5	20.4	0.00e+00	0	36	0	1694498816	56	4095
2026-01-18 23:20:14.94	76.84	10.66	-42.6	-43.5	20.5	0.00e+00	0	36	0	1699741696	56	4081
2026-01-18 23:20:15.95	77.03	10.64	-42.5	-43.4	20.6	0.00e+00	0	36	0	1706033152	56	4031
2026-01-18 23:20:16.95	77.21	10.63	-42.6	-43.6	20.4	0.00e+00	0	36	0	1711276032	56	4104
2026-01-18 23:20:17.96	77.39	10.61	-42.6	-43.6	20.4	0.00e+00	0	36	0	1717567488	56	4111
2026-01-18 23:20:18.97	77.57	10.60	-42.7	-43.6	20.3	0.00e+00	0	36	0	1722810368	56	4131
2026-01-18 23:20:19.98	77.75	10.58	-42.6	-43.6	20.2	0.00e+00	0	36	0	1729101824	56	4135
2026-01-18 23:20:20.99	77.93	10.57	-42.6	-43.6	20.2	0.00e+00	0	36	0	1734344704	56	4135
2026-01-18 23:20:22.00	78.12	10.55	-42.7	-43.8	20.1	0.00e+00	0	36	0	1739587584	56	4197
2026-01-18 23:20:23.01	78.30	10.53	-42.6	-43.7	20.2	0.00e+00	0	36	0	1745879040	56	4149
2026-01-18 23:20:24.02	78.48	10.52	-42.9	-43.9	20.0	0.00e+00	0	36	0	1751121920	56	4260
2026-01-18 23:20:25.02	78.66	10.50	-42.8	-43.9	20.0	0.00e+00	0	36	0	1756364800	56	4254
2026-01-18 23:20:26.03	78.84	10.48	-42.9	-44.0	19.9	0.00e+00	0	36	0	1762656256	56	4292
2026-01-18 23:20:27.04	79.02	10.46	-42.8	-43.9	20.0	0.00e+00	0	36	0	1767899136	56	4246
2026-01-18 23:20:28.05	79.20	10.45	-42.7	-43.7	20.1	0.00e+00	0	36	0	1773142016	56	4185
2026-01-18 23:20:29.05	79.38	10.43	-42.6	-43.6	20.2	0.00e+00	0	36	0	1779433472	56	4114
2026-01-18 23:20:30.06	79.56	10.41	-42.6	-43.6	20.2	0.00e+00	0	36	0	1785724928	56	4114
2026-01-18 23:20:31.07	79.74	10.39	-42.6	-43.6	20.2	0.00e+00	0	36	0	1790967808	56	4133
2026-01-18 23:20:32.08	79.92	10.37	-42.5	-43.5	20.4	0.00e+00	0	36	0	1796210688	56	4055
2026-01-18 23:20:33.09	80.10	10.35	-42.4	-43.4	20.4	0.00e+00	0	36	0	1802502144	56	4033
2026-01-18 23:20:34.10	80.27	10.33	-42.4	-43.4	20.4	0.00e+00	0	36	0	1807745024	56	4036
2026-01-18 23:20:35.11	80.45	10.32	-42.6	-43.6	20.2	0.00e+00	0	36	0	1814036480	56	4109
2026-01-18 23:20:36.12	80.63	10.30	-42.7	-43.7	20.2	0.00e+00	0	36	0	1819279360	56	4161
2026-01-18 23:20:37.12	80.81	10.28	-42.6	-43.6	20.2	0.00e+00	0	36	0	1824522240	56	4142
2026-01-18 23:20:38.13	80.99	10.26	-42.6	-43.6	20.2	0.00e+00	0	36	0	1830813696	56	4140
2026-01-18 23:20:39.14	81.16	10.24	-42.6	-43.6	20.2	0.00e+00	0	36	0	1836056576	56	4126
2026-01-18 23:20:40.15	81.34	10.21	-42.7	-43.8	20.1	0.00e+00	0	36	0	1841299456	56	4196
2026-01-18 23:20:41.16	81.52	10.19	-42.6	-43.6	20.2	0.00e+00	0	36	0	1847590912	56	4133
2026-01-18 23:20:42.17	81.70	10.17	-42.7	-43.7	20.1	0.00e+00	0	36	0	1853882368	56	4176
2026-01-18 23:20:43.17	81.87	10.15	-42.7	-43.7	20.1	0.00e+00	0	36	0	1859125248	56	4189
2026-01-18 23:20:44.18	82.05	10.13	-42.7	-43.8	20.0	0.00e+00	0	36	0	1864368128	56	4201
2026-01-18 23:20:45.19	82.22	10.11	-42.7	-43.7	20.1	0.00e+00	0	36	0	1870659584	56	4179
2026-01-18 23:20:46.20	82.40	10.09	-42.9	-44.0	19.9	0.00e+00	0	36	0	1875902464	56	4295
2026-01-18 23:20:47.21	82.58	10.06	-42.9	-44.0	19.8	0.00e+00	0	36	0	1881145344	56	4324
2026-01-18 23:20:48.21	82.75	10.04	-43.0	-44.1	19.8	0.00e+00	0	36	0	1887436800	56	4358
2026-01-18 23:20:49.22	82.93	10.02	-42.9	-44.0	19.8	0.00e+00	0	36	0	1892679680	56	4309
2026-01-18 23:20:50.23	83.10	10.00	-43.0	-44.0	19.8	0.00e+00	0	36	0	1898971136	56	4330
2026-01-18 23:20:51.24	83.28	9.97	-42.9	-43.9	19.9	0.00e+00	0	36	0	1904214016	56	4267
2026-01-18 23:20:52.25	83.45	9.95	-42.9	-43.9	19.9	0.00e+00	0	36	0	1909456896	56	4273
2026-01-18 23:20:53.25	83.62	9.93	-43.0	-44.0	19.8	0.00e+00	0	36	0	1915748352	56	4325
2026-01-18 23:20:54.26	83.80	9.90	-43.0	-44.0	19.8	0.00e+00	0	37	0	1922039808	56	4324
2026-01-18 23:20:55.27	83.97	9.88	-43.1	-44.1	19.7	0.00e+00	0	36	0	1927282688	56	4384
2026-01-18 23:20:56.28	84.14	9.86	-43.2	-44.3	19.5	0.00e+00	0	36	0	1932525568	56	4479
2026-01-18 23:20:57.29	84.32	9.83	-43.0	-44.1	19.7	0.00e+00	0	36	0	1938817024	57	4100
2026-01-18 23:20:58.30	84.49	9.81	-43.1	-44.1	19.7	0.00e+00	0	36	0	1944059904	57	4144
2026-01-18 23:20:59.30	84.66	9.78	-43.1	-44.2	19.6	0.00e+00	0	36	0	1949302784	57	4180
2026-01-18 23:21:00.31	84.83	9.76	-43.3	-44.4	19.4	0.00e+00	0	36	0	1955594240	57	4248
2026-01-18 23:21:01.32	85.01	9.73	-43.1	-44.1	19.7	0.00e+00	0	36	0	1960837120	57	4145
2026-01-18 23:21:02.33	85.18	9.71	-43.2	-44.3	19.6	0.00e+00	0	36	0	1966080000	57	4206
2026-01-18 23:21:03.33	85.35	9.68	-43.3	-44.4	19.5	0.00e+00	0	36	0	1972371456	57	4258
2026-01-18 23:21:04.34	85.52	9.66	-43.3	-44.4	19.4	0.00e+00	0	36	0	1977614336	57	4279
2026-01-18 23:21:05.35	85.69	9.63	-43.1	-44.2	19.6	0.00e+00	0	36	0	1983905792	57	4152
2026-01-18 23:21:06.36	85.86	9.61	-43.0	-44.0	19.7	0.00e+00	0	36	0	1989148672	57	4088
2026-01-18 23:21:07.36	86.03	9.58	-42.9	-44.0	19.8	0.00e+00	0	36	0	1995440128	57	4059
2026-01-18 23:21:08.37	86.20	9.55	-42.8	-43.9	19.9	0.00e+00	0	36	0	2000683008	57	4008
2026-01-18 23:21:09.38	86.37	9.53	-42.8	-43.8	19.9	0.00e+00	0	36	0	2006974464	57	4004
2026-01-18 23:21:10.39	86.54	9.50	-42.8	-43.8	19.9	0.00e+00	0	36	0	2012217344	57	3986
2026-01-18 23:21:11.39	86.71	9.47	-42.8	-43.9	19.9	0.00e+00	0	36	0	2017460224	57	4009
2026-01-18 23:21:12.40	86.88	9.45	-42.8	-43.8	20.0	0.00e+00	0	36	0	2023751680	57	4001
2026-01-18 23:21:13.41	87.04	9.42	-42.8	-43.9	19.9	0.00e+00	0	36	0	2028994560	57	4014
2026-01-18 23:21:14.42	87.21	9.39	-42.9	-44.0	19.8	0.00e+00	0	36	0	2034237440	57	4054
2026-01-18 23:21:15.43	87.38	9.36	-43.0	-44.0	19.7	0.00e+00	0	36	0	2040528896	57	4079
2026-01-18 23:21:16.44	87.55	9.34	-42.9	-43.9	19.9	0.00e+00	0	36	0	2045771776	57	4035
2026-01-18 23:21:17.45	87.72	9.31	-42.9	-43.9	19.8	0.00e+00	0	36	0	2051014656	57	4037
2026-01-18 23:21:18.46	87.88	9.28	-43.0	-44.1	19.7	0.00e+00	0	36	0	2057306112	57	4114
2026-01-18 23:21:19.46	88.05	9.25	-43.2	-44.2	19.6	0.00e+00	0	36	0	2063597568	57	4182
2026-01-18 23:21:20.47	88.21	9.22	-43.0	-44.1	19.7	0.00e+00	0	36	0	2068840448	57	4128
2026-01-18 23:21:21.48	88.38	9.19	-43.1	-44.2	19.6	0.00e+00	0	37	0	2074083328	57	4151
2026-01-18 23:21:22.49	88.55	9.17	-43.1	-44.2	19.5	0.00e+00	0	36	0	2080374784	57	4169
2026-01-18 23:21:23.49	88.71	9.14	-43.3	-44.4	19.4	0.00e+00	0	36	0	2085617664	57	4249
2026-01-18 23:21:24.50	88.87	9.11	-43.2	-44.3	19.5	0.00e+00	0	36	0	2091909120	57	4214
2026-01-18 23:21:25.51	89.04	9.08	-43.2	-44.3	19.4	0.00e+00	0	36	0	2097152000	57	4205
2026-01-18 23:21:26.52	89.20	9.05	-43.3	-44.5	19.3	0.00e+00	0	36	0	2102394880	57	4302
2026-01-18 23:21:27.53	89.37	9.02	-43.4	-44.5	19.2	0.00e+00	0	36	0	2108686336	57	4333
2026-01-18 23:21:28.54	89.53	8.99	-43.1	-44.2	19.6	0.00e+00	0	36	0	2113929216	57	4149
2026-01-18 23:21:29.55	89.70	8.96	-43.1	-44.2	19.5	0.00e+00	0	37	0	2119172096	57	4167
2026-01-18 23:21:30.55	89.86	8.93	-43.0	-44.0	19.7	0.00e+00	0	36	0	2125463552	57	4074
2026-01-18 23:21:31.56	90.02	8.90	-43.0	-44.1	19.6	0.00e+00	0	36	0	2131755008	57	4118
2026-01-18 23:21:32.57	90.18	8.87	-43.2	-44.3	19.5	0.00e+00	0	36	0	2136997888	57	4214
2026-01-18 23:21:33.58	90.35	8.84	-43.1	-44.2	19.6	0.00e+00	0	36	0	2142240768	57	4148
2026-01-18 23:21:34.59	90.51	8.81	-43.3	-44.4	19.4	0.00e+00	0	36	0	2148532224	57	4253
2026-01-18 23:21:35.59	90.67	8.77	-43.1	-44.2	19.5	0.00e+00	0	37	0	2153775104	57	4174
2026-01-18 23:21:36.60	90.83	8.74	-43.1	-44.1	19.5	0.00e+00	0	36	0	2159017984	57	4144
2026-01-18 23:21:37.61	90.99	8.71	-43.2	-44.3	19.4	0.00e+00	0	36	0	2165309440	57	4209
2026-01-18 23:21:38.61	91.15	8.68	-43.3	-44.4	19.4	0.00e+00	0	37	0	2170552320	57	4244
2026-01-18 23:21:39.62	91.31	8.65	-43.2	-44.3	19.4	0.00e+00	0	37	0	2176843776	57	4229
2026-01-18 23:21:40.63	91.47	8.62	-43.2	-44.2	19.4	0.00e+00	0	36	0	2182086656	57	4192
2026-01-18 23:21:41.64	91.63	8.59	-43.3	-44.5	19.2	0.00e+00	0	36	0	2187329536	57	4294
2026-01-18 23:21:42.65	91.79	8.55	-43.4	-44.5	19.2	0.00e+00	0	36	0	2193620992	57	4296
2026-01-18 23:21:43.65	91.94	8.52	-43.4	-44.5	19.2	0.00e+00	0	36	0	2198863872	57	4297
2026-01-18 23:21:44.66	92.10	8.49	-43.5	-44.6	19.1	0.00e+00	0	37	0	2205155328	57	4377
2026-01-18 23:21:45.67	92.26	8.46	-43.5	-44.6	19.1	0.00e+00	0	36	0	2210398208	57	4370
2026-01-18 23:21:46.68	92.42	8.42	-43.6	-44.7	19.0	0.00e+00	0	36	0	2216689664	57	4429
2026-01-18 23:21:47.68	92.58	8.39	-43.5	-44.6	19.1	0.00e+00	0	36	0	2221932544	57	4373
2026-01-18 23:21:48.69	92.73	8.36	-43.6	-44.7	19.0	0.00e+00	0	36	0	2227175424	57	4436
2026-01-18 23:21:49.70	92.89	8.32	-43.6	-44.7	19.0	0.00e+00	0	36	0	2233466880	58	4167
2026-01-18 23:21:50.71	93.05	8.29	-43.5	-44.7	19.1	0.00e+00	0	36	0	2238709760	58	4146
2026-01-18 23:21:51.71	93.20	8.26	-43.4	-44.6	19.1	0.00e+00	0	36	0	2243952640	58	4105
2026-01-18 23:21:52.72	93.36	8.22	-43.6	-44.7	18.9	0.00e+00	0	36	0	2250244096	58	4185
2026-01-18 23:21:53.73	93.51	8.19	-43.5	-44.6	19.1	0.00e+00	0	36	0	2255486976	58	4144
2026-01-18 23:21:54.74	93.67	8.16	-43.7	-44.8	18.9	0.00e+00	0	36	0	2261778432	58	4231
2026-01-18 23:21:55.75	93.82	8.12	-43.5	-44.7	19.0	0.00e+00	0	36	0	2267021312	58	4159
2026-01-18 23:21:56.75	93.98	8.09	-43.6	-44.7	19.0	0.00e+00	0	36	0	2272264192	58	4177
2026-01-18 23:21:57.76	94.13	8.06	-43.3	-44.4	19.3	0.00e+00	0	36	0	2278555648	58	4040
2026-01-18 23:21:58.77	94.28	8.02	-43.4	-44.6	19.1	0.00e+00	0	36	0	2284847104	58	4110
2026-01-18 23:21:59.78	94.44	7.99	-43.3	-44.4	19.3	0.00e+00	0	36	0	2290089984	58	4040
2026-01-18 23:22:00.79	94.59	7.95	-43.3	-44.4	19.2	0.00e+00	0	36	0	2295332864	58	4043
2026-01-18 23:22:01.79	94.74	7.92	-43.5	-44.6	19.1	0.00e+00	0	37	0	2301624320	58	4142
2026-01-18 23:22:02.80	94.89	7.88	-43.4	-44.5	19.2	0.00e+00	0	36	0	2306867200	58	4058
2026-01-18 23:22:03.81	95.05	7.85	-43.2	-44.3	19.3	0.00e+00	0	36	0	2312110080	58	3980
2026-01-18 23:22:04.82	95.20	7.81	-43.3	-44.3	19.3	0.00e+00	0	36	0	2318401536	58	4004
2026-01-18 23:22:05.83	95.35	7.78	-43.3	-44.4	19.3	0.00e+00	0	36	0	2323644416	58	4015
2026-01-18 23:22:06.83	95.50	7.74	-43.4	-44.5	19.2	0.00e+00	0	36	0	2328887296	58	4056
2026-01-18 23:22:07.84	95.65	7.71	-43.5	-44.6	19.0	0.00e+00	0	36	0	2335178752	58	4116
2026-01-18 23:22:08.85	95.80	7.67	-43.7	-44.9	18.8	0.00e+00	0	36	0	2340421632	58	4284
2026-01-18 23:22:09.86	95.95	7.64	-43.7	-44.9	18.7	0.00e+00	0	36	0	2346713088	58	4275
2026-01-18 23:22:10.87	96.10	7.60	-43.8	-45.0	18.6	0.00e+00	0	37	0	2351955968	58	4339
2026-01-18 23:22:11.87	96.25	7.56	-43.7	-44.9	18.8	0.00e+00	0	36	0	2358247424	58	4277
2026-01-18 23:22:12.88	96.40	7.53	-43.9	-45.1	18.6	0.00e+00	0	36	0	2363490304	58	4357
2026-01-18 23:22:13.89	96.54	7.49	-43.8	-45.0	18.7	0.00e+00	0	36	0	2369781760	58	4315
2026-01-18 23:22:14.90	96.69	7.46	-43.7	-44.9	18.7	0.00e+00	0	37	0	2375024640	58	4260
2026-01-18 23:22:15.91	96.84	7.42	-43.8	-44.9	18.7	0.00e+00	0	36	0	2380267520	58	4290
2026-01-18 23:22:16.91	96.99	7.38	-43.7	-44.9	18.7	0.00e+00	0	36	0	2386558976	58	4259
2026-01-18 23:22:17.92	97.13	7.35	-43.8	-45.0	18.6	0.00e+00	0	36	0	2391801856	58	4305
2026-01-18 23:22:18.93	97.28	7.31	-43.6	-44.8	18.8	0.00e+00	0	36	0	2397044736	58	4204
2026-01-18 23:22:19.94	97.43	7.27	-43.5	-44.6	19.0	0.00e+00	0	36	0	2403336192	58	4123
2026-01-18 23:22:20.95	97.57	7.24	-43.6	-44.7	18.9	0.00e+00	0	36	0	2408579072	58	4167
2026-01-18 23:22:21.95	97.72	7.20	-43.7	-44.9	18.8	0.00e+00	0	36	0	2413821952	58	4247
2026-01-18 23:22:22.96	97.86	7.16	-43.8	-45.0	18.7	0.00e+00	0	36	0	2420113408	58	4310
2026-01-18 23:22:23.97	98.01	7.12	-44.1	-45.3	18.4	0.00e+00	0	36	0	2426404864	58	4454
2026-01-18 23:22:24.98	98.15	7.09	-43.8	-45.0	18.6	0.00e+00	0	36	0	2431647744	58	4326
2026-01-18 23:22:25.99	98.30	7.05	-44.1	-45.3	18.4	0.00e+00	0	36	0	2436890624	58	4465
2026-01-18 23:22:26.99	98.44	7.01	-43.9	-45.1	18.5	0.00e+00	0	36	0	2443182080	58	4369
2026-01-18 23:22:28.00	98.58	6.98	-44.1	-45.3	18.3	0.00e+00	0	36	0	2448424960	58	4491
2026-01-18 23:22:29.01	98.72	6.94	-43.8	-45.0	18.6	0.00e+00	0	36	0	2454716416	58	4294
2026-01-18 23:22:30.02	98.87	6.90	-43.9	-45.1	18.5	0.00e+00	0	36	0	2459959296	58	4355
2026-01-18 23:22:31.03	99.01	6.86	-43.8	-45.0	18.6	0.00e+00	0	37	0	2465202176	58	4305
2026-01-18 23:22:32.04	99.15	6.82	-43.9	-45.1	18.4	0.00e+00	0	36	0	2471493632	58	4391
2026-01-18 23:22:33.04	99.29	6.79	-44.0	-45.2	18.4	0.00e+00	0	36	0	2476736512	58	4412
2026-01-18 23:22:34.05	99.43	6.75	-44.0	-45.2	18.3	0.00e+00	0	36	0	2481979392	58	4435
2026-01-18 23:22:35.06	99.58	6.71	-43.8	-45.0	18.6	0.00e+00	0	36	0	2488270848	58	4292
2026-01-18 23:22:36.07	99.72	6.67	-44.0	-45.2	18.3	0.00e+00	0	36	0	2494562304	58	4440
2026-01-18 23:22:37.07	99.85	6.63	-43.9	-45.1	18.4	0.00e+00	0	37	0	2499805184	58	4364
2026-01-18 23:22:38.08	99.99	6.60	-43.9	-45.1	18.5	0.00e+00	0	36	0	2505048064	58	4350
2026-01-18 23:22:39.09	100.13	6.56	-43.9	-45.1	18.5	0.00e+00	0	36	0	2511339520	58	4350
2026-01-18 23:22:40.10	100.27	6.52	-43.8	-45.0	18.5	0.00e+00	0	36	0	2516582400	58	4326
2026-01-18 23:22:41.11	100.41	6.48	-43.8	-45.0	18.5	0.00e+00	0	36	0	2521825280	58	4321
2026-01-18 23:22:42.11	100.55	6.44	-43.5	-44.7	18.9	0.00e+00	0	36	0	2528116736	58	4146
2026-01-18 23:22:43.12	100.69	6.40	-43.7	-44.9	18.6	0.00e+00	0	36	0	2533359616	58	4253
2026-01-18 23:22:44.13	100.83	6.36	-43.9	-45.1	18.3	0.00e+00	0	36	0	2539651072	58	4391
2026-01-18 23:22:45.14	100.96	6.32	-43.7	-44.9	18.6	0.00e+00	0	36	0	2544893952	58	4274
2026-01-18 23:22:46.15	101.10	6.28	-43.9	-45.1	18.3	0.00e+00	0	36	0	2550136832	58	4387
2026-01-18 23:22:47.15	101.24	6.25	-44.0	-45.2	18.3	0.00e+00	0	36	0	2556428288	58	4404
2026-01-18 23:22:48.16	101.37	6.21	-43.8	-45.0	18.4	0.00e+00	0	36	0	2562719744	59	4094
2026-01-18 23:22:49.18	101.51	6.17	-44.2	-45.4	18.0	0.00e+00	0	36	0	2567962624	59	4278
2026-01-18 23:22:50.18	101.64	6.13	-44.1	-45.4	18.1	0.00e+00	0	36	0	2573205504	59	4248
2026-01-18 23:22:51.19	101.78	6.09	-44.1	-45.3	18.2	0.00e+00	0	36	0	2579496960	59	4223
2026-01-18 23:22:52.20	101.92	6.05	-44.1	-45.4	18.1	0.00e+00	0	37	0	2584739840	59	4264
2026-01-18 23:22:53.21	102.05	6.01	-44.2	-45.4	18.0	0.00e+00	0	37	0	2589982720	59	4277
2026-01-18 23:22:54.22	102.18	5.97	-44.3	-45.5	17.9	0.00e+00	0	36	0	2596274176	59	4338
2026-01-18 23:22:55.23	102.32	5.93	-44.0	-45.3	18.2	0.00e+00	0	36	0	2601517056	59	4198
2026-01-18 23:22:56.23	102.45	5.89	-44.2	-45.5	18.0	0.00e+00	0	36	0	2606759936	59	4292
2026-01-18 23:22:57.24	102.58	5.85	-44.2	-45.5	17.9	0.00e+00	0	37	0	2613051392	59	4312
2026-01-18 23:22:58.25	102.72	5.81	-44.2	-45.5	17.9	0.00e+00	0	36	0	2618294272	59	4299
2026-01-18 23:22:59.26	102.85	5.77	-44.1	-45.3	18.1	0.00e+00	0	36	0	2624585728	59	4219
2026-01-18 23:23:00.27	102.98	5.73	-44.1	-45.3	18.0	0.00e+00	0	36	0	2629828608	59	4241
2026-01-18 23:23:01.28	103.11	5.69	-44.2	-45.4	18.0	0.00e+00	0	37	0	2636120064	59	4287
2026-01-18 23:23:02.28	103.24	5.65	-44.3	-45.6	17.8	0.00e+00	0	37	0	2641362944	59	4353
2026-01-18 23:23:03.29	103.37	5.61	-44.7	-46.0	17.4	0.00e+00	0	36	0	2647654400	59	4569
2026-01-18 23:23:04.30	103.51	5.57	-44.1	-45.4	18.0	0.00e+00	0	36	0	2652897280	59	4252
2026-01-18 23:23:05.31	103.64	5.53	-44.3	-45.6	17.8	0.00e+00	0	36	0	2658140160	59	4375
2026-01-18 23:23:06.31	103.77	5.49	-44.6	-46.0	17.4	0.00e+00	0	36	0	2664431616	59	4564
2026-01-18 23:23:07.32	103.90	5.45	-44.3	-45.6	17.7	0.00e+00	0	36	0	2669674496	59	4385
2026-01-18 23:23:08.33	104.02	5.41	-44.5	-45.8	17.5	0.00e+00	0	37	0	2674917376	59	4492
2026-01-18 23:23:09.33	104.15	5.37	-44.5	-45.8	17.5	0.00e+00	0	36	0	2681208832	59	4481
2026-01-18 23:23:10.34	104.28	5.33	-44.4	-45.8	17.3	0.00e+00	0	37	0	2686451712	60	4198
2026-01-18 23:23:11.35	104.41	5.28	-44.3	-45.6	17.4	0.00e+00	0	37	0	2691694592	60	4131
2026-01-18 23:23:12.36	104.54	5.24	-44.2	-45.6	17.5	0.00e+00	0	36	0	2697986048	60	4100
2026-01-18 23:23:13.37	104.67	5.20	-44.3	-45.6	17.4	0.00e+00	0	37	0	2704277504	60	4136
2026-01-18 23:23:14.38	104.79	5.16	-44.4	-45.8	17.2	0.00e+00	0	36	0	2709520384	60	4207
2026-01-18 23:23:15.38	104.92	5.12	-44.2	-45.5	17.5	0.00e+00	0	36	0	2714763264	60	4092
2026-01-18 23:23:16.39	105.05	5.08	-44.4	-45.7	17.3	0.00e+00	0	37	0	2721054720	60	4172
2026-01-18 23:23:17.40	105.17	5.04	-44.2	-45.5	17.5	0.00e+00	0	37	0	2726297600	60	4079
2026-01-18 23:23:18.41	105.30	5.00	-44.7	-46.0	17.3	0.00e+00	0	37	0	2732589056	59	4592
2026-01-18 23:23:19.42	105.42	4.96	-52.5	-64.4	3.8	8.46e-01	0	36	104	2734686208	75	15203
2026-01-18 23:23:20.42	105.55	4.92	-52.7	-64.7	3.8	8.46e-01	0	37	104	2734686208	75	15699
2026-01-18 23:23:21.43	105.67	4.87	-53.0	-65.0	3.8	8.46e-01	0	36	104	2734686208	76	15233
2026-01-18 23:23:22.44	105.80	4.83	-53.1	-65.1	3.8	8.46e-01	0	37	104	2734686208	76	15488
2026-01-18 23:23:23.45	105.92	4.79	-53.3	-65.2	3.8	8.47e-01	0	36	104	2734686208	77	14803
2026-01-18 23:23:24.46	106.05	4.75	-53.3	-65.3	3.8	8.46e-01	0	36	104	2734686208	77	14997
2026-01-18 23:23:25.46	106.17	4.71	-53.5	-65.4	3.8	8.47e-01	0	36	104	2734686208	77	15208
2026-01-18 23:23:26.47	106.29	4.67	-53.5	-65.5	3.8	8.46e-01	0	36	104	2734686208	77	15317
2026-01-18 23:23:27.48	106.41	4.63	-53.6	-65.5	3.8	8.47e-01	0	37	104	2734686208	77	15323
2026-01-18 23:23:28.49	106.54	4.58	-53.6	-65.5	3.8	8.46e-01	0	36	104	2734686208	77	15400
2026-01-18 23:23:29.49	106.66	4.54	-53.7	-65.6	3.8	8.46e-01	0	37	104	2734686208	77	15560
2026-01-18 23:23:30.50	106.78	4.50	-53.7	-65.7	3.8	8.46e-01	0	36	104	2734686208	77	15655
2026-01-18 23:23:31.51	106.90	4.46	-53.8	-65.7	3.8	8.46e-01	0	36	104	2734686208	78	14833
2026-01-18 23:23:32.52	107.02	4.42	-53.8	-65.7	3.8	8.46e-01	0	36	104	2734686208	78	14879
2026-01-18 23:23:33.53	107.14	4.38	-53.8	-65.8	3.8	8.46e-01	0	36	104	2734686208	78	14915
2026-01-18 23:23:34.53	107.26	4.34	-53.8	-65.8	3.8	8.46e-01	0	36	104	2734686208	78	14970
2026-01-18 23:23:35.54	107.38	4.29	-53.8	-65.8	3.8	8.46e-01	0	36	104	2734686208	78	14981
2026-01-18 23:23:36.55	107.50	4.25	-53.9	-65.9	3.8	8.46e-01	0	36	104	2734686208	78	15053
2026-01-18 23:23:37.56	107.62	4.21	-53.9	-65.8	3.8	8.46e-01	0	36	104	2734686208	78	15045
2026-01-18 23:23:38.57	107.74	4.17	-53.9	-65.9	3.8	8.46e-01	0	37	104	2734686208	78	15076
2026-01-18 23:23:39.57	107.86	4.13	-53.9	-65.9	3.8	8.46e-01	0	36	104	2734686208	78	15098
2026-01-18 23:23:40.58	107.98	4.08	-53.9	-65.9	3.8	8.45e-01	0	36	104	2734686208	78	15139
2026-01-18 23:23:41.59	108.10	4.04	-53.9	-65.9	3.8	8.46e-01	0	37	104	2734686208	78	15113
2026-01-18 23:23:42.60	108.22	4.00	-53.9	-65.9	3.8	8.46e-01	0	37	104	2734686208	78	15182
2026-01-18 23:23:43.61	108.33	3.96	-54.0	-65.9	3.8	8.46e-01	0	36	104	2734686208	78	15183
2026-01-18 23:23:44.61	108.45	3.92	-53.9	-65.9	3.8	8.46e-01	0	37	104	2734686208	78	15180
2026-01-18 23:23:45.62	108.57	3.87	-54.0	-65.9	3.8	8.45e-01	0	37	104	2734686208	78	15212
2026-01-18 23:23:46.63	108.68	3.83	-54.0	-65.9	3.8	8.45e-01	0	37	104	2734686208	78	15225
2026-01-18 23:23:47.64	108.80	3.79	-54.0	-66.0	3.8	8.46e-01	0	37	104	2734686208	78	15298
2026-01-18 23:23:48.65	108.92	3.75	-54.0	-66.0	3.8	8.45e-01	0	36	104	2734686208	78	15258
2026-01-18 23:23:49.65	109.03	3.70	-54.0	-66.0	3.8	8.46e-01	0	36	104	2734686208	78	15234
2026-01-18 23:23:50.66	109.15	3.66	-53.9	-65.9	3.8	8.46e-01	0	37	104	2734686208	78	15156
2026-01-18 23:23:51.67	109.26	3.62	-53.9	-65.9	3.8	8.46e-01	0	37	104	2734686208	78	15185
2026-01-18 23:23:52.68	109.38	3.58	-53.9	-65.9	3.8	8.47e-01	0	37	104	2734686208	78	15166
2026-01-18 23:23:53.69	109.49	3.53	-53.9	-65.9	3.8	8.46e-01	0	36	104	2734686208	78	15150
2026-01-18 23:23:54.70	109.61	3.49	-53.9	-65.9	3.8	8.45e-01	0	37	104	2734686208	78	15111
2026-01-18 23:23:55.70	109.72	3.45	-53.9	-65.9	3.8	8.46e-01	0	37	104	2734686208	78	15144
2026-01-18 23:23:56.71	109.83	3.41	-53.9	-65.9	3.8	8.45e-01	0	36	104	2734686208	78	15134
2026-01-18 23:23:57.72	109.95	3.36	-53.9	-65.9	3.8	8.46e-01	0	37	104	2734686208	78	15127
2026-01-18 23:23:58.73	110.06	3.32	-53.9	-65.9	3.8	8.46e-01	0	37	104	2734686208	78	15109
2026-01-18 23:23:59.73	110.17	3.28	-53.9	-65.9	3.8	8.46e-01	0	37	104	2734686208	78	15106
2026-01-18 23:24:00.74	110.28	3.24	-53.9	-65.9	3.8	8.46e-01	0	37	104	2734686208	78	15164
2026-01-18 23:24:01.75	110.40	3.19	-53.9	-65.9	3.8	8.45e-01	0	36	104	2734686208	78	15148
2026-01-18 23:24:02.76	110.51	3.15	-53.9	-65.9	3.8	8.46e-01	0	37	104	2734686208	78	15139
2026-01-18 23:24:03.77	110.62	3.11	-53.9	-65.9	3.8	8.47e-01	0	37	104	2734686208	78	15084
2026-01-18 23:24:04.77	110.73	3.07	-53.9	-65.9	3.8	8.45e-01	0	37	104	2734686208	78	15086
2026-01-18 23:24:05.78	110.84	3.02	-53.9	-65.9	3.8	8.46e-01	0	37	104	2734686208	78	15118
2026-01-18 23:24:06.79	110.95	2.98	-53.9	-65.9	3.8	8.47e-01	0	37	104	2734686208	78	15165
2026-01-18 23:24:07.80	111.06	2.94	-53.9	-65.9	3.8	8.45e-01	0	37	104	2734686208	78	15132
2026-01-18 23:24:08.81	111.17	2.90	-53.9	-65.9	3.8	8.46e-01	0	36	104	2734686208	78	15070
2026-01-18 23:24:09.82	111.28	2.85	-53.9	-65.9	3.8	8.46e-01	0	36	104	2734686208	78	15089
2026-01-18 23:24:10.83	111.39	2.81	-53.9	-65.9	3.8	8.45e-01	0	36	104	2734686208	78	15073
2026-01-18 23:24:11.84	111.50	2.77	-53.9	-65.9	3.8	8.46e-01	0	37	104	2734686208	78	15116
2026-01-18 23:24:12.84	111.61	2.73	-53.9	-65.9	3.8	8.46e-01	0	37	104	2734686208	78	15062
2026-01-18 23:24:13.85	111.71	2.68	-53.9	-65.9	3.8	8.47e-01	0	37	104	2734686208	78	15129
2026-01-18 23:24:14.86	111.82	2.64	-53.9	-65.9	3.8	8.45e-01	0	36	104	2734686208	78	15071
2026-01-18 23:24:15.87	111.93	2.60	-53.9	-65.9	3.8	8.47e-01	0	36	104	2734686208	78	15068
2026-01-18 23:24:16.87	112.04	2.55	-53.9	-65.9	3.8	8.46e-01	0	36	104	2734686208	78	15059
2026-01-18 23:24:17.88	112.14	2.51	-53.9	-65.8	3.8	8.46e-01	0	36	104	2734686208	78	15042
2026-01-18 23:24:18.89	112.25	2.47	-53.9	-65.8	3.8	8.46e-01	0	37	104	2734686208	78	15041
2026-01-18 23:24:19.90	112.36	2.43	-53.9	-65.8	3.8	8.46e-01	0	37	104	2734686208	78	15048
2026-01-18 23:24:20.91	112.46	2.38	-53.9	-65.8	3.8	8.46e-01	0	36	104	2734686208	78	15046
2026-01-18 23:24:21.92	112.57	2.34	-53.9	-65.9	3.8	8.46e-01	0	37	104	2734686208	78	15065
2026-01-18 23:24:22.92	112.67	2.30	-53.9	-65.8	3.8	8.45e-01	0	37	104	2734686208	78	15030
2026-01-18 23:24:23.93	112.78	2.25	-53.9	-65.9	3.8	8.46e-01	0	37	104	2734686208	78	15058
2026-01-18 23:24:24.94	112.88	2.21	-53.9	-65.8	3.8	8.46e-01	0	37	104	2734686208	78	15015
2026-01-18 23:24:25.95	112.99	2.17	-53.9	-65.9	3.8	8.48e-01	0	36	104	2734686208	78	15055
2026-01-18 23:24:26.95	113.09	2.13	-53.9	-65.8	3.8	8.46e-01	0	37	104	2734686208	78	15025
2026-01-18 23:24:27.96	113.20	2.08	-53.8	-65.8	3.8	8.47e-01	0	37	104	2734686208	78	15041
2026-01-18 23:24:28.97	113.30	2.04	-53.9	-65.9	3.8	8.46e-01	0	37	104	2734686208	78	15052
2026-01-18 23:24:29.98	113.40	2.00	-53.8	-65.8	3.8	8.46e-01	0	36	104	2734686208	78	15006
2026-01-18 23:24:30.99	113.51	1.95	-53.9	-65.8	3.8	8.46e-01	0	37	104	2734686208	78	15028

#Closed at: 2026-01-18 23:24:31
#Recorded file [2734 MB]: D:/lorett/data/31041_260119_021405.dat