passes_logs/2026/01/18/R3.2S_Murmansk/R3.2S_Murmansk__20260118_085254_NOAA_20_JPSS-1_rec.log

#Pass ID: 20260118_085254_NOAA 20 (JPSS-1)
#Satellite: NOAA 20 (JPSS-1)
#Configuration: NOAA 20
#almurnet v.1.7.20251203
#Start time: 2026-01-18 08:52:54

#Version: 2.2.20231116
#Station: R3.2S_Murmansk
#Location: 33.079688 lon 68.888172 lat
#TLE: 1 43013U 17073A   26017.58553584  .00000066  00000+0  52288-4 0  9998
#TLE: 2 43013  98.7639 318.4977 0001406  35.6039 324.5231 14.19536575423107

#Time	Az	El	Level	Level2	SNR	BER	BlckErr	Temp	State	Recorded	gain1	gain2
2026-01-18 08:52:54.57	136.43	2.02	-51.9	-66.8	3.8	1.49e+00	0	34	0	0	75	20064
2026-01-18 08:52:55.58	136.42	2.08	-51.9	-66.8	3.8	1.49e+00	0	34	104	0	74	21238
2026-01-18 08:52:56.59	136.40	2.15	-51.8	-66.8	3.8	1.49e+00	0	34	104	0	74	21200
2026-01-18 08:52:57.60	136.39	2.21	-51.8	-66.8	3.8	1.49e+00	0	34	104	0	74	21158
2026-01-18 08:52:58.61	136.38	2.28	-51.9	-66.8	3.8	1.49e+00	0	34	104	0	74	21137
2026-01-18 08:52:59.61	136.36	2.34	-51.8	-66.8	3.8	1.49e+00	0	34	104	0	74	21151
2026-01-18 08:53:00.62	136.35	2.41	-51.8	-66.8	3.8	1.49e+00	0	34	104	0	74	21168
2026-01-18 08:53:01.63	136.33	2.47	-51.8	-66.8	3.8	1.49e+00	0	34	104	0	74	21159
2026-01-18 08:53:02.64	136.32	2.54	-51.8	-66.8	3.8	1.49e+00	0	34	104	0	74	21136
2026-01-18 08:53:03.65	136.31	2.60	-51.8	-66.8	3.8	1.49e+00	0	34	104	0	74	21126
2026-01-18 08:53:04.65	136.29	2.67	-51.8	-66.8	3.8	1.49e+00	0	34	104	0	74	21113
2026-01-18 08:53:05.66	136.28	2.74	-51.8	-66.8	3.8	1.49e+00	0	34	104	0	74	21060
2026-01-18 08:53:06.67	136.26	2.80	-51.8	-66.8	3.8	1.49e+00	0	34	104	0	74	21083
2026-01-18 08:53:07.68	136.25	2.87	-51.8	-66.8	3.8	1.49e+00	0	34	104	0	74	21050
2026-01-18 08:53:08.69	136.23	2.94	-51.8	-66.8	3.8	1.49e+00	0	34	104	0	74	21136
2026-01-18 08:53:09.69	136.22	3.00	-51.8	-66.8	3.8	1.49e+00	0	34	104	0	74	21056
2026-01-18 08:53:10.70	136.20	3.07	-51.8	-66.8	3.8	1.49e+00	0	34	104	0	74	21118
2026-01-18 08:53:11.71	136.19	3.14	-51.8	-66.7	3.8	1.49e+00	0	34	104	0	74	20977
2026-01-18 08:53:12.72	136.17	3.20	-51.8	-66.7	3.8	1.49e+00	0	34	104	0	74	20974
2026-01-18 08:53:13.73	136.16	3.27	-51.8	-66.6	3.8	1.49e+00	0	34	104	0	74	20775
2026-01-18 08:53:14.73	136.14	3.34	-51.8	-66.5	3.8	1.49e+00	0	34	104	0	74	20415
2026-01-18 08:53:15.74	136.13	3.41	-51.8	-66.4	3.8	1.49e+00	0	34	104	0	74	20077
2026-01-18 08:53:16.75	136.11	3.47	-51.8	-66.1	3.8	1.49e+00	0	34	104	0	74	19562
2026-01-18 08:53:17.76	136.09	3.54	-51.8	-65.9	3.8	1.49e+00	0	35	104	0	74	19095
2026-01-18 08:53:18.77	136.08	3.61	-51.8	-65.6	3.8	1.49e+00	0	35	104	0	74	18492
2026-01-18 08:53:19.77	136.06	3.68	-51.7	-65.2	3.8	1.49e+00	0	35	104	0	74	17641
2026-01-18 08:53:20.78	136.05	3.75	-51.7	-65.0	3.9	1.49e+00	0	35	104	0	74	17107
2026-01-18 08:53:21.79	136.03	3.81	-51.7	-64.9	3.9	1.49e+00	0	35	104	0	74	16947
2026-01-18 08:53:22.80	136.02	3.88	-51.7	-64.2	4.0	1.48e+00	0	35	104	0	74	15727
2026-01-18 08:53:23.81	136.00	3.95	-51.7	-64.1	4.0	1.48e+00	0	35	104	0	74	15556
2026-01-18 08:53:24.81	135.98	4.02	-51.7	-63.7	4.1	1.45e+00	0	35	104	0	74	14835
2026-01-18 08:53:25.82	135.97	4.09	-51.6	-63.7	4.1	1.44e+00	0	35	0	0	74	14746
2026-01-18 08:53:26.83	135.95	4.16	-51.6	-63.2	4.2	1.39e+00	0	35	0	0	74	13889
2026-01-18 08:53:27.83	135.93	4.23	-51.6	-62.8	4.3	1.36e+00	116	35	0	0	74	13313
2026-01-18 08:53:28.84	135.92	4.30	-51.5	-61.9	4.7	1.10e+00	0	35	0	1048576	74	12023
2026-01-18 08:53:29.85	135.90	4.37	-51.3	-60.4	5.5	6.37e-01	0	35	0	3145728	74	10064
2026-01-18 08:53:30.86	135.88	4.44	-51.2	-59.4	6.2	3.29e-01	0	35	0	5242880	74	9017
2026-01-18 08:53:31.87	135.87	4.51	-50.9	-57.8	7.7	2.03e-01	0	35	0	7340032	73	7927
2026-01-18 08:53:32.87	135.85	4.58	-50.4	-56.0	9.5	2.70e-02	0	35	0	9437184	72	6818
2026-01-18 08:53:33.88	135.83	4.65	-50.1	-55.2	10.3	8.09e-03	0	35	0	10485760	72	6235
2026-01-18 08:53:34.89	135.82	4.72	-49.8	-54.2	11.5	3.01e-03	0	35	0	12582912	71	5856
2026-01-18 08:53:35.90	135.80	4.79	-49.5	-53.5	12.3	4.29e-04	0	35	0	14680064	71	5404
2026-01-18 08:53:36.91	135.78	4.86	-49.0	-52.5	13.2	9.61e-05	0	35	0	16777216	70	5139
2026-01-18 08:53:37.91	135.76	4.94	-48.7	-51.9	13.8	8.30e-06	0	35	0	18874368	69	5087
2026-01-18 08:53:38.92	135.75	5.01	-48.2	-51.1	14.7	0.00e+00	0	35	0	19922944	68	4873
2026-01-18 08:53:39.93	135.73	5.08	-49.8	-54.0	11.9	2.21e-05	0	35	0	22020096	70	6077
2026-01-18 08:53:40.94	135.71	5.15	-48.3	-51.0	15.0	2.89e-05	0	35	0	24117248	68	4834
2026-01-18 08:53:41.95	135.69	5.22	-50.4	-56.0	9.7	0.00e+00	0	35	0	26214400	71	7271
2026-01-18 08:53:42.95	135.68	5.30	-51.3	-58.7	7.4	2.07e-02	0	35	0	28311552	73	8819
2026-01-18 08:53:43.96	135.66	5.37	-49.1	-52.6	13.2	1.31e-03	0	35	0	29360128	68	5823
2026-01-18 08:53:44.97	135.64	5.44	-48.3	-51.1	14.8	0.00e+00	0	35	0	31457280	68	4898
2026-01-18 08:53:45.98	135.62	5.51	-48.4	-51.3	14.6	0.00e+00	0	35	0	33554432	68	4999
2026-01-18 08:53:46.99	135.60	5.59	-48.0	-50.6	15.4	0.00e+00	0	35	0	35651584	68	4644
2026-01-18 08:53:48.00	135.58	5.66	-47.9	-50.4	15.6	0.00e+00	0	35	0	37748736	67	4762
2026-01-18 08:53:49.01	135.56	5.73	-47.9	-50.5	15.5	0.00e+00	0	35	0	38797312	67	4835
2026-01-18 08:53:50.01	135.55	5.81	-48.0	-50.5	15.4	0.00e+00	0	35	0	40894464	67	4859
2026-01-18 08:53:51.02	135.53	5.88	-48.3	-51.1	14.9	0.00e+00	0	35	0	42991616	67	5182
2026-01-18 08:53:52.03	135.51	5.96	-47.9	-50.3	15.7	0.00e+00	0	35	0	45088768	67	4748
2026-01-18 08:53:53.04	135.49	6.03	-47.7	-50.1	15.9	0.00e+00	0	35	0	47185920	67	4632
2026-01-18 08:53:54.05	135.47	6.11	-47.3	-49.4	16.6	0.00e+00	0	35	0	48234496	66	4532
2026-01-18 08:53:55.05	135.45	6.18	-47.3	-49.5	16.6	0.00e+00	0	35	0	50331648	66	4568
2026-01-18 08:53:56.06	135.43	6.26	-47.3	-49.4	16.7	0.00e+00	0	35	0	52428800	66	4518
2026-01-18 08:53:57.07	135.41	6.33	-47.2	-49.3	16.9	0.00e+00	0	35	0	54525952	66	4461
2026-01-18 08:53:58.08	135.39	6.41	-47.1	-49.2	17.0	0.00e+00	0	35	0	56623104	66	4418
2026-01-18 08:53:59.09	135.37	6.48	-47.1	-49.2	17.0	0.00e+00	0	35	0	58720256	66	4419
2026-01-18 08:54:00.10	135.35	6.56	-47.1	-49.2	17.0	0.00e+00	0	35	0	59768832	66	4423
2026-01-18 08:54:01.10	135.33	6.63	-47.1	-49.2	17.0	0.00e+00	0	35	0	61865984	66	4414
2026-01-18 08:54:02.11	135.31	6.71	-47.1	-49.1	17.1	0.00e+00	0	35	0	63963136	66	4383
2026-01-18 08:54:03.12	135.29	6.79	-47.3	-49.5	16.8	0.00e+00	0	35	0	66060288	66	4563
2026-01-18 08:54:04.12	135.27	6.86	-47.3	-49.5	16.7	0.00e+00	0	35	0	67108864	66	4563
2026-01-18 08:54:05.13	135.25	6.94	-46.9	-49.0	17.2	0.00e+00	0	35	0	69206016	65	4552
2026-01-18 08:54:06.14	135.23	7.02	-46.9	-48.9	17.4	0.00e+00	0	35	0	71303168	65	4498
2026-01-18 08:54:07.15	135.21	7.10	-46.7	-48.6	17.6	0.00e+00	0	35	0	73400320	65	4387
2026-01-18 08:54:08.16	135.19	7.17	-47.0	-48.9	17.3	0.00e+00	0	35	0	75497472	65	4545
2026-01-18 08:54:09.16	135.17	7.25	-47.0	-49.0	17.3	0.00e+00	0	35	0	76546048	65	4567
2026-01-18 08:54:10.17	135.15	7.33	-47.0	-49.0	17.3	0.00e+00	0	35	0	78643200	65	4553
2026-01-18 08:54:11.18	135.13	7.41	-46.9	-48.8	17.4	0.00e+00	0	35	0	80740352	65	4493
2026-01-18 08:54:12.19	135.10	7.49	-46.9	-48.9	17.4	0.00e+00	0	35	0	82837504	65	4513
2026-01-18 08:54:13.20	135.08	7.57	-46.8	-48.6	17.7	0.00e+00	0	35	0	84934656	65	4378
2026-01-18 08:54:14.21	135.06	7.65	-46.8	-48.7	17.6	0.00e+00	0	35	0	87031808	65	4403
2026-01-18 08:54:15.21	135.04	7.72	-46.9	-48.7	17.6	0.00e+00	0	35	0	88080384	65	4435
2026-01-18 08:54:16.22	135.02	7.80	-46.7	-48.6	17.8	0.00e+00	0	35	0	90177536	65	4354
2026-01-18 08:54:17.22	134.99	7.88	-46.7	-48.5	17.9	0.00e+00	0	36	0	92274688	65	4306
2026-01-18 08:54:18.23	134.97	7.96	-46.8	-48.7	17.7	0.00e+00	0	35	0	94371840	65	4406
2026-01-18 08:54:19.24	134.95	8.04	-46.8	-48.7	17.8	0.00e+00	0	35	0	96468992	65	4393
2026-01-18 08:54:20.25	134.93	8.13	-46.8	-48.7	17.8	0.00e+00	0	35	0	97517568	65	4399
2026-01-18 08:54:21.26	134.90	8.21	-46.7	-48.5	17.9	0.00e+00	0	35	0	99614720	65	4315
2026-01-18 08:54:22.27	134.88	8.29	-46.9	-48.7	17.7	0.00e+00	0	35	0	101711872	65	4423
2026-01-18 08:54:23.27	134.86	8.37	-46.7	-48.5	18.0	0.00e+00	0	35	0	103809024	65	4307
2026-01-18 08:54:24.28	134.84	8.45	-46.8	-48.6	17.9	0.00e+00	0	35	0	105906176	65	4373
2026-01-18 08:54:25.29	134.81	8.53	-46.7	-48.5	18.0	0.00e+00	0	35	0	106954752	65	4324
2026-01-18 08:54:26.29	134.79	8.61	-46.6	-48.4	18.1	0.00e+00	0	36	0	109051904	65	4263
2026-01-18 08:54:27.30	134.77	8.70	-46.5	-48.2	18.3	0.00e+00	0	35	0	111149056	64	4405
2026-01-18 08:54:28.31	134.74	8.78	-46.4	-48.1	18.4	0.00e+00	0	36	0	113246208	64	4360
2026-01-18 08:54:29.32	134.72	8.86	-46.4	-48.1	18.4	0.00e+00	0	35	0	115343360	64	4380
2026-01-18 08:54:30.33	134.69	8.95	-46.4	-48.0	18.5	0.00e+00	0	36	0	116391936	64	4331
2026-01-18 08:54:31.33	134.67	9.03	-46.4	-48.1	18.4	0.00e+00	0	36	0	118489088	64	4347
2026-01-18 08:54:32.34	134.65	9.11	-46.3	-47.9	18.6	0.00e+00	0	35	0	120586240	64	4269
2026-01-18 08:54:33.35	134.62	9.20	-46.3	-47.9	18.6	0.00e+00	0	36	0	122683392	64	4267
2026-01-18 08:54:34.36	134.60	9.28	-46.2	-47.9	18.7	0.00e+00	0	36	0	124780544	64	4255
2026-01-18 08:54:35.37	134.57	9.37	-46.3	-48.0	18.6	0.00e+00	0	35	0	125829120	64	4295
2026-01-18 08:54:36.37	134.55	9.45	-46.3	-47.9	18.6	0.00e+00	0	36	0	127926272	64	4270
2026-01-18 08:54:37.38	134.52	9.54	-46.3	-47.9	18.7	0.00e+00	0	36	0	130023424	64	4251
2026-01-18 08:54:38.39	134.50	9.62	-46.1	-47.7	18.9	0.00e+00	0	36	0	132120576	64	4168
2026-01-18 08:54:39.40	134.47	9.71	-46.2	-47.8	18.8	0.00e+00	0	36	0	134217728	64	4203
2026-01-18 08:54:40.41	134.45	9.79	-46.2	-47.8	18.7	0.00e+00	0	36	0	135266304	64	4231
2026-01-18 08:54:41.41	134.42	9.88	-46.2	-47.8	18.8	0.00e+00	0	36	0	137363456	64	4211
2026-01-18 08:54:42.42	134.39	9.97	-46.2	-47.8	18.7	0.00e+00	0	36	0	139460608	64	4227
2026-01-18 08:54:43.43	134.37	10.05	-46.2	-47.9	18.7	0.00e+00	0	36	0	141557760	64	4245
2026-01-18 08:54:44.44	134.34	10.14	-46.0	-47.6	19.0	0.00e+00	0	36	0	143654912	64	4105
2026-01-18 08:54:45.45	134.31	10.23	-46.0	-47.6	19.0	0.00e+00	0	35	0	144703488	64	4101
2026-01-18 08:54:46.45	134.29	10.32	-45.9	-47.4	19.2	0.00e+00	0	36	0	146800640	63	4291
2026-01-18 08:54:47.46	134.26	10.40	-46.1	-47.6	19.1	0.00e+00	0	35	0	148897792	63	4359
2026-01-18 08:54:48.47	134.23	10.49	-46.0	-47.5	19.2	0.00e+00	0	36	0	150994944	63	4320
2026-01-18 08:54:49.48	134.21	10.58	-46.0	-47.5	19.2	0.00e+00	0	36	0	153092096	63	4292
2026-01-18 08:54:50.48	134.18	10.67	-45.9	-47.4	19.3	0.00e+00	0	36	0	154140672	63	4288
2026-01-18 08:54:51.49	134.15	10.76	-45.9	-47.4	19.3	0.00e+00	0	36	0	156237824	63	4267
2026-01-18 08:54:52.50	134.12	10.85	-46.0	-47.5	19.2	0.00e+00	0	36	0	158334976	63	4309
2026-01-18 08:54:53.51	134.10	10.94	-45.9	-47.4	19.4	0.00e+00	0	35	0	160432128	63	4251
2026-01-18 08:54:54.52	134.07	11.03	-45.9	-47.4	19.3	0.00e+00	0	36	0	162529280	63	4284
2026-01-18 08:54:55.53	134.04	11.12	-46.1	-47.6	19.2	0.00e+00	0	36	0	163577856	63	4346
2026-01-18 08:54:56.53	134.01	11.21	-46.1	-47.6	19.2	0.00e+00	0	36	0	165675008	63	4359
2026-01-18 08:54:57.54	133.98	11.30	-46.1	-47.6	19.2	0.00e+00	0	36	0	167772160	63	4359
2026-01-18 08:54:58.55	133.95	11.40	-45.9	-47.4	19.4	0.00e+00	0	35	0	169869312	63	4251
2026-01-18 08:54:59.56	133.92	11.49	-45.8	-47.2	19.5	0.00e+00	0	36	0	171966464	63	4193
2026-01-18 08:55:00.57	133.89	11.58	-45.9	-47.3	19.4	0.00e+00	0	36	0	173015040	63	4241
2026-01-18 08:55:01.57	133.86	11.67	-45.8	-47.3	19.5	0.00e+00	0	36	0	175112192	63	4217
2026-01-18 08:55:02.58	133.83	11.77	-45.8	-47.2	19.5	0.00e+00	0	36	0	177209344	63	4187
2026-01-18 08:55:03.59	133.80	11.86	-45.8	-47.2	19.6	0.00e+00	0	36	0	179306496	63	4174
2026-01-18 08:55:04.60	133.77	11.95	-45.8	-47.2	19.5	0.00e+00	0	36	0	181403648	63	4185
2026-01-18 08:55:05.61	133.74	12.05	-45.8	-47.2	19.6	0.00e+00	0	35	0	182452224	63	4184
2026-01-18 08:55:06.61	133.71	12.14	-45.8	-47.3	19.6	0.00e+00	0	36	0	184549376	63	4204
2026-01-18 08:55:07.62	133.68	12.24	-45.8	-47.3	19.5	0.00e+00	0	36	0	186646528	63	4211
2026-01-18 08:55:08.63	133.65	12.33	-45.8	-47.2	19.6	0.00e+00	0	35	0	188743680	63	4186
2026-01-18 08:55:09.64	133.62	12.43	-45.7	-47.1	19.7	0.00e+00	0	36	0	190840832	63	4140
2026-01-18 08:55:10.65	133.59	12.52	-45.7	-47.1	19.7	0.00e+00	0	36	0	191889408	63	4124
2026-01-18 08:55:11.65	133.56	12.62	-45.8	-47.2	19.6	0.00e+00	0	36	0	193986560	63	4163
2026-01-18 08:55:12.66	133.52	12.72	-45.7	-47.1	19.8	0.00e+00	0	36	0	196083712	63	4105
2026-01-18 08:55:13.67	133.49	12.81	-45.8	-47.2	19.7	0.00e+00	0	36	0	198180864	63	4168
2026-01-18 08:55:14.68	133.46	12.91	-45.8	-47.3	19.6	0.00e+00	0	36	0	200278016	63	4197
2026-01-18 08:55:15.68	133.43	13.01	-45.7	-47.1	19.8	0.00e+00	0	36	0	202375168	63	4106
2026-01-18 08:55:16.69	133.39	13.11	-45.6	-47.0	19.9	0.00e+00	0	36	0	203423744	63	4077
2026-01-18 08:55:17.70	133.36	13.20	-45.6	-47.0	19.8	0.00e+00	0	36	0	205520896	63	4088
2026-01-18 08:55:18.70	133.33	13.30	-45.7	-47.1	19.8	0.00e+00	0	36	0	207618048	63	4104
2026-01-18 08:55:19.71	133.29	13.40	-45.8	-47.2	19.7	0.00e+00	0	36	0	209715200	63	4160
2026-01-18 08:55:20.72	133.26	13.50	-45.6	-47.0	19.9	0.00e+00	0	36	0	210763776	63	4061
2026-01-18 08:55:21.73	133.23	13.60	-45.6	-47.0	19.9	0.00e+00	0	36	0	212860928	63	4076
2026-01-18 08:55:22.74	133.19	13.70	-45.6	-46.9	19.9	0.00e+00	0	36	0	214958080	63	4051
2026-01-18 08:55:23.75	133.16	13.80	-45.6	-47.0	19.9	0.00e+00	0	36	0	217055232	63	4055
2026-01-18 08:55:24.76	133.12	13.91	-45.7	-47.1	19.8	0.00e+00	0	36	0	219152384	63	4118
2026-01-18 08:55:25.76	133.09	14.01	-45.6	-47.0	19.9	0.00e+00	0	36	0	220200960	63	4090
2026-01-18 08:55:26.77	133.05	14.11	-45.7	-47.1	19.8	0.00e+00	0	36	0	222298112	63	4111
2026-01-18 08:55:27.78	133.02	14.21	-45.6	-46.9	19.9	0.00e+00	0	36	0	224395264	63	4047
2026-01-18 08:55:28.79	132.98	14.32	-45.5	-46.9	20.0	0.00e+00	0	36	0	226492416	63	4031
2026-01-18 08:55:29.79	132.94	14.42	-45.5	-46.9	20.0	0.00e+00	0	36	0	228589568	63	4026
2026-01-18 08:55:30.80	132.91	14.52	-45.6	-46.9	20.0	0.00e+00	0	36	0	230686720	63	4041
2026-01-18 08:55:31.81	132.87	14.63	-45.5	-46.8	20.1	0.00e+00	0	36	0	231735296	63	3999
2026-01-18 08:55:32.82	132.83	14.73	-45.5	-46.9	20.0	0.00e+00	0	36	0	233832448	62	4257
2026-01-18 08:55:33.83	132.79	14.84	-45.4	-46.8	20.1	0.00e+00	0	36	0	235929600	62	4195
2026-01-18 08:55:34.83	132.76	14.94	-45.5	-46.9	20.1	0.00e+00	0	36	0	238026752	62	4246
2026-01-18 08:55:35.84	132.72	15.05	-45.5	-46.9	20.0	0.00e+00	0	36	0	239075328	62	4248
2026-01-18 08:55:36.85	132.68	15.16	-45.4	-46.8	20.2	0.00e+00	0	36	0	241172480	62	4198
2026-01-18 08:55:37.86	132.64	15.26	-45.5	-46.9	20.0	0.00e+00	0	36	0	243269632	62	4267
2026-01-18 08:55:38.87	132.60	15.37	-45.5	-46.8	20.1	0.00e+00	0	36	0	245366784	62	4220
2026-01-18 08:55:39.87	132.56	15.48	-45.4	-46.7	20.2	0.00e+00	0	36	0	247463936	62	4174
2026-01-18 08:55:40.88	132.52	15.59	-45.3	-46.7	20.3	0.00e+00	0	36	0	249561088	62	4154
2026-01-18 08:55:41.89	132.49	15.70	-45.4	-46.7	20.2	0.00e+00	0	36	0	250609664	62	4184
2026-01-18 08:55:42.90	132.44	15.80	-45.4	-46.7	20.3	0.00e+00	0	36	0	252706816	62	4163
2026-01-18 08:55:43.91	132.40	15.91	-45.4	-46.7	20.2	0.00e+00	0	36	0	254803968	62	4179
2026-01-18 08:55:44.91	132.36	16.02	-45.5	-46.9	20.1	0.00e+00	0	36	0	256901120	62	4257
2026-01-18 08:55:45.92	132.32	16.13	-45.5	-46.9	20.1	0.00e+00	0	36	0	258998272	62	4243
2026-01-18 08:55:46.93	132.28	16.25	-45.6	-47.0	20.0	0.00e+00	0	36	0	260046848	62	4317
2026-01-18 08:55:47.93	132.24	16.36	-45.5	-46.9	20.1	0.00e+00	0	36	0	262144000	62	4243
2026-01-18 08:55:48.94	132.20	16.47	-45.4	-46.7	20.3	0.00e+00	0	36	0	264241152	62	4160
2026-01-18 08:55:49.95	132.15	16.58	-45.3	-46.6	20.3	0.00e+00	0	36	0	266338304	62	4123
2026-01-18 08:55:50.96	132.11	16.70	-45.4	-46.7	20.3	0.00e+00	0	36	0	267386880	62	4158
2026-01-18 08:55:51.97	132.07	16.81	-45.4	-46.8	20.2	0.00e+00	0	36	0	269484032	62	4199
2026-01-18 08:55:52.97	132.03	16.92	-45.3	-46.6	20.3	0.00e+00	0	36	0	271581184	62	4145
2026-01-18 08:55:53.98	131.98	17.04	-45.4	-46.7	20.3	0.00e+00	0	36	0	273678336	62	4160
2026-01-18 08:55:54.99	131.94	17.15	-45.4	-46.7	20.3	0.00e+00	0	36	0	275775488	62	4157
2026-01-18 08:55:56.00	131.89	17.27	-45.5	-46.8	20.2	0.00e+00	0	36	0	277872640	62	4237
2026-01-18 08:55:57.00	131.85	17.39	-45.3	-46.7	20.3	0.00e+00	0	36	0	278921216	62	4151
2026-01-18 08:55:58.01	131.80	17.50	-45.3	-46.6	20.4	0.00e+00	0	36	0	281018368	62	4118
2026-01-18 08:55:59.02	131.76	17.62	-45.4	-46.6	20.4	0.00e+00	0	36	0	283115520	62	4144
2026-01-18 08:56:00.03	131.71	17.74	-45.3	-46.6	20.5	0.00e+00	0	36	0	285212672	62	4102
2026-01-18 08:56:01.04	131.66	17.86	-45.3	-46.6	20.4	0.00e+00	0	36	0	287309824	62	4125
2026-01-18 08:56:02.04	131.62	17.98	-45.4	-46.7	20.3	0.00e+00	0	36	0	288358400	62	4177
2026-01-18 08:56:03.05	131.57	18.10	-45.3	-46.6	20.4	0.00e+00	0	36	0	290455552	62	4136
2026-01-18 08:56:04.06	131.52	18.22	-45.3	-46.6	20.4	0.00e+00	0	36	0	292552704	62	4145
2026-01-18 08:56:05.07	131.47	18.34	-45.3	-46.6	20.4	0.00e+00	0	36	0	294649856	62	4143
2026-01-18 08:56:06.08	131.43	18.46	-45.4	-46.7	20.4	0.00e+00	0	36	0	296747008	62	4147
2026-01-18 08:56:07.09	131.38	18.58	-45.3	-46.6	20.4	0.00e+00	0	36	0	297795584	62	4145
2026-01-18 08:56:08.09	131.33	18.70	-45.3	-46.6	20.4	0.00e+00	0	36	0	299892736	62	4143
2026-01-18 08:56:09.10	131.28	18.83	-45.3	-46.6	20.5	0.00e+00	0	36	0	301989888	62	4123
2026-01-18 08:56:10.11	131.23	18.95	-45.4	-46.7	20.4	0.00e+00	0	36	0	304087040	62	4148
2026-01-18 08:56:11.12	131.18	19.07	-45.3	-46.6	20.5	0.00e+00	0	36	0	306184192	62	4106
2026-01-18 08:56:12.13	131.13	19.20	-45.3	-46.6	20.5	0.00e+00	0	36	0	307232768	62	4132
2026-01-18 08:56:13.14	131.07	19.32	-45.4	-46.7	20.4	0.00e+00	0	36	0	309329920	62	4176
2026-01-18 08:56:14.15	131.02	19.45	-45.4	-46.6	20.5	0.00e+00	0	36	0	311427072	62	4143
2026-01-18 08:56:15.15	130.97	19.58	-45.3	-46.6	20.5	0.00e+00	0	36	0	313524224	62	4138
2026-01-18 08:56:16.16	130.92	19.70	-45.4	-46.7	20.4	0.00e+00	0	36	0	315621376	62	4192
2026-01-18 08:56:17.17	130.86	19.83	-45.4	-46.7	20.4	0.00e+00	0	36	0	317718528	62	4177
2026-01-18 08:56:18.18	130.81	19.96	-45.3	-46.6	20.5	0.00e+00	0	36	0	318767104	62	4120
2026-01-18 08:56:19.19	130.76	20.09	-45.3	-46.6	20.5	0.00e+00	0	36	0	320864256	62	4116
2026-01-18 08:56:20.19	130.70	20.22	-45.3	-46.6	20.5	0.00e+00	0	36	0	322961408	62	4110
2026-01-18 08:56:21.20	130.65	20.35	-45.3	-46.5	20.6	0.00e+00	0	36	0	325058560	62	4093
2026-01-18 08:56:22.21	130.59	20.48	-45.2	-46.5	20.6	0.00e+00	0	36	0	326107136	62	4072
2026-01-18 08:56:23.22	130.53	20.61	-45.2	-46.5	20.6	0.00e+00	0	36	0	328204288	62	4066
2026-01-18 08:56:24.23	130.48	20.75	-45.3	-46.5	20.6	0.00e+00	0	36	0	330301440	62	4085
2026-01-18 08:56:25.23	130.42	20.88	-45.1	-46.4	20.8	0.00e+00	0	36	0	332398592	62	4019
2026-01-18 08:56:26.24	130.36	21.01	-45.2	-46.4	20.7	0.00e+00	0	36	0	334495744	62	4034
2026-01-18 08:56:27.25	130.30	21.15	-45.2	-46.4	20.7	0.00e+00	0	36	0	335544320	62	4046
2026-01-18 08:56:28.26	130.24	21.28	-45.2	-46.4	20.7	0.00e+00	0	36	0	337641472	62	4043
2026-01-18 08:56:29.26	130.19	21.42	-45.1	-46.4	20.7	0.00e+00	0	36	0	339738624	62	4023
2026-01-18 08:56:30.27	130.13	21.55	-45.2	-46.4	20.7	0.00e+00	0	36	0	341835776	62	4049
2026-01-18 08:56:31.28	130.06	21.69	-45.1	-46.3	20.9	0.00e+00	0	36	0	343932928	62	3974
2026-01-18 08:56:32.29	130.00	21.83	-45.0	-46.2	20.9	0.00e+00	0	36	0	346030080	62	3948
2026-01-18 08:56:33.30	129.94	21.97	-45.0	-46.2	20.9	0.00e+00	0	36	0	347078656	62	3944
2026-01-18 08:56:34.31	129.88	22.11	-45.0	-46.3	20.9	0.00e+00	0	36	0	349175808	62	3959
2026-01-18 08:56:35.31	129.82	22.25	-45.0	-46.2	20.9	0.00e+00	0	36	0	351272960	62	3950
2026-01-18 08:56:36.32	129.75	22.39	-45.1	-46.3	20.7	0.00e+00	0	36	0	353370112	62	4004
2026-01-18 08:56:37.33	129.69	22.53	-45.1	-46.4	20.8	0.00e+00	0	36	0	354418688	62	4020
2026-01-18 08:56:38.33	129.62	22.67	-45.1	-46.4	20.8	0.00e+00	0	36	0	356515840	62	4022
2026-01-18 08:56:39.34	129.56	22.82	-45.2	-46.4	20.7	0.00e+00	0	36	0	358612992	62	4033
2026-01-18 08:56:40.35	129.49	22.96	-45.2	-46.5	20.7	0.00e+00	0	36	0	360710144	62	4073
2026-01-18 08:56:41.36	129.43	23.11	-45.4	-46.6	20.6	0.00e+00	0	36	0	362807296	62	4139
2026-01-18 08:56:42.37	129.36	23.25	-45.3	-46.6	20.6	0.00e+00	0	36	0	363855872	62	4122
2026-01-18 08:56:43.37	129.29	23.40	-45.5	-46.8	20.4	0.00e+00	0	36	0	365953024	62	4207
2026-01-18 08:56:44.38	129.22	23.54	-45.5	-46.8	20.3	0.00e+00	0	36	0	368050176	62	4233
2026-01-18 08:56:45.39	129.15	23.69	-45.5	-46.8	20.4	0.00e+00	0	36	0	370147328	62	4237
2026-01-18 08:56:46.40	129.08	23.84	-45.6	-46.9	20.3	0.00e+00	0	36	0	372244480	62	4260
2026-01-18 08:56:47.41	129.01	23.99	-45.6	-46.9	20.3	0.00e+00	0	36	0	374341632	62	4278
2026-01-18 08:56:48.42	128.94	24.14	-45.6	-46.9	20.3	0.00e+00	0	36	0	375390208	62	4287
2026-01-18 08:56:49.43	128.87	24.29	-45.7	-47.0	20.2	0.00e+00	0	36	0	377487360	62	4337
2026-01-18 08:56:50.43	128.80	24.44	-45.8	-47.1	20.1	0.00e+00	0	36	0	379584512	62	4386
2026-01-18 08:56:51.44	128.72	24.60	-45.8	-47.2	20.1	0.00e+00	0	36	0	381681664	62	4413
2026-01-18 08:56:52.45	128.65	24.75	-45.9	-47.3	20.0	0.00e+00	0	36	0	382730240	62	4446
2026-01-18 08:56:53.46	128.57	24.90	-46.0	-47.4	19.9	0.00e+00	0	36	0	384827392	62	4505
2026-01-18 08:56:54.47	128.50	25.06	-45.9	-47.3	19.9	0.00e+00	0	36	0	386924544	62	4482
2026-01-18 08:56:55.47	128.42	25.21	-46.1	-47.5	19.8	0.00e+00	0	36	0	389021696	62	4569
2026-01-18 08:56:56.48	128.34	25.37	-46.2	-47.6	19.6	0.00e+00	0	36	0	391118848	62	4637
2026-01-18 08:56:57.49	128.27	25.53	-46.2	-47.6	19.7	0.00e+00	0	36	0	393216000	62	4627
2026-01-18 08:56:58.50	128.19	25.69	-46.3	-47.7	19.6	0.00e+00	0	36	0	394264576	63	4436
2026-01-18 08:56:59.50	128.11	25.85	-46.4	-47.9	19.4	0.00e+00	0	36	0	396361728	63	4514
2026-01-18 08:57:00.51	128.03	26.01	-46.4	-47.9	19.4	0.00e+00	0	36	0	398458880	63	4514
2026-01-18 08:57:01.52	127.94	26.17	-46.5	-48.0	19.4	0.00e+00	0	36	0	400556032	63	4547
2026-01-18 08:57:02.53	127.86	26.33	-46.5	-48.1	19.2	0.00e+00	0	36	0	402653184	63	4599
2026-01-18 08:57:03.53	127.78	26.49	-46.7	-48.2	19.1	0.00e+00	0	36	0	403701760	63	4682
2026-01-18 08:57:04.54	127.70	26.66	-46.6	-48.2	19.1	0.00e+00	0	36	0	405798912	64	4394
2026-01-18 08:57:05.55	127.61	26.82	-46.8	-48.4	18.9	0.00e+00	0	36	0	407896064	64	4501
2026-01-18 08:57:06.56	127.52	26.99	-46.9	-48.5	18.7	0.00e+00	0	36	0	409993216	64	4582
2026-01-18 08:57:07.57	127.44	27.16	-47.0	-48.7	18.6	0.00e+00	0	36	0	411041792	64	4660
2026-01-18 08:57:08.58	127.35	27.32	-47.2	-48.9	18.4	0.00e+00	0	36	0	413138944	64	4771
2026-01-18 08:57:09.58	127.26	27.49	-47.3	-49.0	18.3	0.00e+00	0	36	0	415236096	65	4571
2026-01-18 08:57:10.59	127.17	27.66	-47.4	-49.2	18.1	0.00e+00	0	36	0	417333248	65	4689
2026-01-18 08:57:11.60	127.08	27.83	-47.5	-49.3	18.0	0.00e+00	0	36	0	419430400	65	4735
2026-01-18 08:57:12.61	126.99	28.00	-47.6	-49.5	17.8	0.00e+00	0	36	0	421527552	65	4823
2026-01-18 08:57:13.61	126.90	28.18	-47.7	-49.5	17.7	0.00e+00	0	36	0	422576128	65	4862
2026-01-18 08:57:14.62	126.80	28.35	-47.7	-49.5	17.7	0.00e+00	0	36	0	424673280	65	4857
2026-01-18 08:57:15.63	126.71	28.53	-47.7	-49.6	17.8	0.00e+00	0	36	0	426770432	66	4608
2026-01-18 08:57:16.64	126.61	28.70	-47.8	-49.7	17.6	0.00e+00	0	36	0	428867584	66	4652
2026-01-18 08:57:17.65	126.51	28.88	-47.8	-49.7	17.6	0.00e+00	0	36	0	430964736	66	4670
2026-01-18 08:57:18.65	126.42	29.05	-47.8	-49.7	17.6	0.00e+00	0	36	0	432013312	66	4680
2026-01-18 08:57:19.66	126.32	29.23	-47.8	-49.7	17.6	0.00e+00	0	36	0	434110464	66	4691
2026-01-18 08:57:20.67	126.21	29.41	-48.0	-50.0	17.3	0.00e+00	0	36	0	436207616	66	4837
2026-01-18 08:57:21.67	126.11	29.59	-48.1	-50.1	17.2	0.00e+00	0	36	0	438304768	66	4913
2026-01-18 08:57:22.68	126.01	29.78	-48.2	-50.3	17.1	0.00e+00	0	36	0	440401920	67	4722
2026-01-18 08:57:23.69	125.91	29.96	-48.3	-50.4	16.9	0.00e+00	0	36	0	441450496	67	4810
2026-01-18 08:57:24.70	125.80	30.14	-48.5	-50.6	16.8	0.00e+00	0	36	0	443547648	67	4902
2026-01-18 08:57:25.71	125.69	30.33	-48.7	-50.9	16.4	0.00e+00	0	36	0	445644800	67	5088
2026-01-18 08:57:26.71	125.59	30.51	-48.5	-50.7	16.6	0.00e+00	0	36	0	447741952	67	4968
2026-01-18 08:57:27.72	125.48	30.70	-48.6	-50.8	16.6	0.00e+00	0	36	0	449839104	67	4998
2026-01-18 08:57:28.73	125.37	30.89	-48.4	-50.6	16.8	0.00e+00	0	36	0	450887680	67	4892
2026-01-18 08:57:29.74	125.26	31.08	-48.5	-50.7	16.7	0.00e+00	0	36	0	452984832	67	4950
2026-01-18 08:57:30.75	125.14	31.27	-48.5	-50.6	16.8	0.00e+00	0	36	0	455081984	67	4900
2026-01-18 08:57:31.75	125.03	31.46	-48.5	-50.7	16.7	0.00e+00	0	36	0	457179136	67	4966
2026-01-18 08:57:32.76	124.91	31.65	-48.6	-50.8	16.5	0.00e+00	0	36	0	459276288	67	5031
2026-01-18 08:57:33.77	124.79	31.85	-48.9	-51.1	16.3	0.00e+00	0	36	0	460324864	68	4919
2026-01-18 08:57:34.77	124.68	32.04	-49.0	-51.4	16.2	0.00e+00	0	36	0	462422016	68	5043
2026-01-18 08:57:35.78	124.56	32.24	-49.0	-51.4	16.0	0.00e+00	0	36	0	464519168	68	5077
2026-01-18 08:57:36.79	124.43	32.43	-49.1	-51.5	16.0	0.00e+00	0	36	0	466616320	68	5119
2026-01-18 08:57:37.80	124.31	32.63	-49.1	-51.4	16.1	0.00e+00	0	36	0	468713472	68	5094
2026-01-18 08:57:38.81	124.19	32.83	-49.1	-51.6	16.0	0.00e+00	0	36	0	469762048	68	5162
2026-01-18 08:57:39.81	124.06	33.03	-49.1	-51.5	16.0	0.00e+00	0	36	0	471859200	68	5156
2026-01-18 08:57:40.82	123.93	33.23	-49.2	-51.6	15.9	0.00e+00	0	36	0	473956352	69	4926
2026-01-18 08:57:41.83	123.80	33.44	-49.1	-51.4	16.0	0.00e+00	0	36	0	476053504	69	4800
2026-01-18 08:57:42.84	123.67	33.64	-49.2	-51.6	15.9	0.00e+00	0	36	0	478150656	69	4894
2026-01-18 08:57:43.84	123.54	33.85	-49.2	-51.7	15.8	0.00e+00	0	36	0	479199232	69	4959
2026-01-18 08:57:44.85	123.40	34.05	-49.2	-51.6	15.9	0.00e+00	0	36	0	481296384	69	4913
2026-01-18 08:57:45.86	123.27	34.26	-49.3	-51.7	15.8	0.00e+00	0	36	0	483393536	69	4975
2026-01-18 08:57:46.87	123.13	34.47	-49.1	-51.4	16.1	0.00e+00	0	36	0	485490688	69	4806
2026-01-18 08:57:47.88	122.99	34.68	-49.1	-51.5	16.1	0.00e+00	0	36	0	487587840	69	4817
2026-01-18 08:57:48.89	122.85	34.89	-49.2	-51.6	15.9	0.00e+00	0	36	0	488636416	69	4907
2026-01-18 08:57:49.90	122.70	35.11	-49.2	-51.6	15.9	0.00e+00	0	35	0	490733568	69	4889
2026-01-18 08:57:50.91	122.56	35.32	-49.3	-51.8	15.7	0.00e+00	0	36	0	492830720	69	5031
2026-01-18 08:57:51.91	122.41	35.53	-49.4	-51.9	15.6	0.00e+00	0	36	0	494927872	69	5056
2026-01-18 08:57:52.92	122.26	35.75	-49.4	-51.9	15.7	0.00e+00	0	36	0	497025024	69	5070
2026-01-18 08:57:53.93	122.11	35.97	-49.3	-51.8	15.7	0.00e+00	0	36	0	498073600	69	5030
2026-01-18 08:57:54.94	121.95	36.19	-49.3	-51.8	15.7	0.00e+00	0	36	0	500170752	69	5022
2026-01-18 08:57:55.94	121.80	36.41	-49.3	-51.7	15.8	0.00e+00	0	36	0	502267904	69	4971
2026-01-18 08:57:56.95	121.64	36.63	-49.2	-51.7	15.9	0.00e+00	0	36	0	504365056	69	4945
2026-01-18 08:57:57.95	121.48	36.85	-49.1	-51.6	16.0	0.00e+00	0	36	0	506462208	69	4872
2026-01-18 08:57:58.96	121.32	37.07	-49.1	-51.5	16.0	0.00e+00	0	36	0	507510784	69	4818
2026-01-18 08:57:59.97	121.15	37.30	-49.0	-51.3	16.3	0.00e+00	0	36	0	509607936	69	4715
2026-01-18 08:58:00.97	120.99	37.52	-49.0	-51.2	16.4	0.00e+00	0	36	0	511705088	69	4704
2026-01-18 08:58:01.98	120.82	37.75	-48.7	-50.8	16.7	0.00e+00	0	36	0	513802240	69	4489
2026-01-18 08:58:02.99	120.64	37.98	-48.5	-50.5	17.1	0.00e+00	0	36	0	515899392	68	4582
2026-01-18 08:58:03.99	120.47	38.21	-48.5	-50.5	17.1	0.00e+00	0	36	0	516947968	68	4577
2026-01-18 08:58:05.00	120.29	38.44	-48.4	-50.4	17.2	0.00e+00	0	36	0	519045120	68	4521
2026-01-18 08:58:06.01	120.11	38.67	-48.3	-50.2	17.4	0.00e+00	0	36	0	521142272	68	4440
2026-01-18 08:58:07.02	119.93	38.91	-48.3	-50.3	17.3	0.00e+00	0	36	0	523239424	68	4475
2026-01-18 08:58:08.02	119.75	39.14	-48.3	-50.3	17.3	0.00e+00	0	36	0	525336576	68	4461
2026-01-18 08:58:09.03	119.56	39.38	-48.1	-50.0	17.5	0.00e+00	0	36	0	526385152	68	4321
2026-01-18 08:58:10.04	119.37	39.62	-48.0	-49.9	17.7	0.00e+00	0	36	0	528482304	68	4259
2026-01-18 08:58:11.05	119.17	39.86	-47.5	-49.2	18.2	0.00e+00	0	36	0	530579456	67	4193
2026-01-18 08:58:12.06	118.98	40.10	-47.3	-49.0	18.5	0.00e+00	0	36	0	532676608	66	4325
2026-01-18 08:58:13.06	118.78	40.34	-47.4	-49.0	18.5	0.00e+00	0	36	0	534773760	66	4332
2026-01-18 08:58:14.07	118.58	40.58	-47.5	-49.3	18.2	0.00e+00	0	36	0	536870912	66	4446
2026-01-18 08:58:15.08	118.37	40.82	-47.5	-49.3	18.2	0.00e+00	0	36	0	537919488	66	4454
2026-01-18 08:58:16.09	118.16	41.07	-47.7	-49.5	18.0	0.00e+00	0	36	0	540016640	66	4583
2026-01-18 08:58:17.10	117.95	41.32	-47.8	-49.7	17.8	0.00e+00	0	36	0	542113792	66	4672
2026-01-18 08:58:18.11	117.73	41.56	-47.9	-49.8	17.8	0.00e+00	0	36	0	544210944	66	4721
2026-01-18 08:58:19.12	117.51	41.81	-48.1	-50.1	17.4	0.00e+00	0	36	0	545259520	66	4891
2026-01-18 08:58:20.12	117.29	42.06	-48.1	-50.1	17.4	0.00e+00	0	36	0	547356672	67	4628
2026-01-18 08:58:21.13	117.07	42.31	-48.1	-50.0	17.5	0.00e+00	0	36	0	549453824	67	4575
2026-01-18 08:58:22.14	116.84	42.57	-48.0	-49.9	17.6	0.00e+00	0	36	0	551550976	67	4523
2026-01-18 08:58:23.15	116.60	42.82	-48.0	-49.9	17.6	0.00e+00	0	36	0	553648128	67	4520
2026-01-18 08:58:24.15	116.37	43.07	-48.0	-49.9	17.7	0.00e+00	0	36	0	554696704	67	4518
2026-01-18 08:58:25.16	116.13	43.33	-48.0	-49.8	17.7	0.00e+00	0	36	0	556793856	67	4489
2026-01-18 08:58:26.17	115.88	43.59	-48.0	-49.9	17.6	0.00e+00	0	36	0	558891008	67	4522
2026-01-18 08:58:27.17	115.64	43.84	-47.6	-49.4	18.1	0.00e+00	0	36	0	560988160	67	4259
2026-01-18 08:58:28.18	115.38	44.10	-47.6	-49.4	18.1	0.00e+00	0	36	0	563085312	67	4270
2026-01-18 08:58:29.19	115.13	44.36	-47.6	-49.4	18.2	0.00e+00	0	36	0	565182464	67	4243
2026-01-18 08:58:30.20	114.87	44.63	-47.3	-48.9	18.6	0.00e+00	0	36	0	566231040	66	4277
2026-01-18 08:58:31.20	114.60	44.89	-47.0	-48.6	18.9	0.00e+00	0	36	0	568328192	66	4133
2026-01-18 08:58:32.21	114.33	45.15	-47.0	-48.6	19.0	0.00e+00	0	36	0	570425344	65	4363
2026-01-18 08:58:33.22	114.06	45.41	-46.8	-48.3	19.2	0.00e+00	0	36	0	572522496	65	4229
2026-01-18 08:58:34.23	113.78	45.68	-46.7	-48.3	19.2	0.00e+00	0	36	0	573571072	65	4209
2026-01-18 08:58:35.23	113.50	45.94	-46.7	-48.5	19.0	0.00e+00	0	36	0	575668224	65	4311
2026-01-18 08:58:36.24	113.21	46.21	-47.0	-48.6	18.9	0.00e+00	0	36	0	577765376	65	4356
2026-01-18 08:58:37.25	112.91	46.48	-47.2	-48.8	18.7	0.00e+00	0	36	0	579862528	65	4489
2026-01-18 08:58:38.26	112.61	46.75	-47.5	-49.3	18.2	0.00e+00	0	36	0	581959680	65	4711
2026-01-18 08:58:39.27	112.31	47.02	-47.5	-49.2	18.3	0.00e+00	0	36	0	584056832	65	4697
2026-01-18 08:58:40.28	112.00	47.29	-47.5	-49.2	18.3	0.00e+00	0	35	0	585105408	65	4673
2026-01-18 08:58:41.29	111.68	47.57	-47.4	-49.2	18.4	0.00e+00	0	35	0	587202560	65	4654
2026-01-18 08:58:42.29	111.37	47.84	-47.5	-49.2	18.2	0.00e+00	0	36	0	589299712	65	4693
2026-01-18 08:58:43.30	111.04	48.11	-47.4	-49.1	18.4	0.00e+00	0	36	0	591396864	65	4640
2026-01-18 08:58:44.31	110.71	48.38	-47.4	-49.1	18.4	0.00e+00	0	36	0	593494016	65	4628
2026-01-18 08:58:45.31	110.37	48.66	-47.4	-49.1	18.4	0.00e+00	0	36	0	594542592	65	4639
2026-01-18 08:58:46.32	110.03	48.93	-47.1	-48.7	18.8	0.00e+00	0	36	0	596639744	65	4423
2026-01-18 08:58:47.33	109.67	49.21	-47.0	-48.6	18.9	0.00e+00	0	36	0	598736896	65	4386
2026-01-18 08:58:48.33	109.32	49.48	-47.0	-48.5	19.0	0.00e+00	0	36	0	600834048	65	4325
2026-01-18 08:58:49.34	108.96	49.76	-46.8	-48.3	19.2	0.00e+00	0	35	0	601882624	65	4203
2026-01-18 08:58:50.35	108.59	50.04	-46.6	-48.1	19.3	0.00e+00	0	36	0	603979776	65	4138
2026-01-18 08:58:51.36	108.21	50.31	-46.7	-48.3	19.2	0.00e+00	0	36	0	606076928	65	4197
2026-01-18 08:58:52.37	107.82	50.59	-46.7	-48.2	19.3	0.00e+00	0	35	0	608174080	65	4148
2026-01-18 08:58:53.37	107.44	50.87	-46.8	-48.3	19.1	0.00e+00	0	35	0	610271232	65	4228
2026-01-18 08:58:54.38	107.04	51.15	-46.8	-48.3	19.2	0.00e+00	0	36	0	612368384	65	4218
2026-01-18 08:58:55.39	106.63	51.43	-46.7	-48.2	19.4	0.00e+00	0	36	0	613416960	65	4152
2026-01-18 08:58:56.40	106.21	51.70	-46.5	-48.0	19.6	0.00e+00	0	36	0	615514112	65	4061
2026-01-18 08:58:57.41	105.79	51.98	-46.4	-47.9	19.6	0.00e+00	0	36	0	617611264	64	4252
2026-01-18 08:58:58.42	105.36	52.26	-46.0	-47.3	20.2	0.00e+00	0	36	0	619708416	64	3982
2026-01-18 08:58:59.42	104.93	52.54	-45.9	-47.1	20.4	0.00e+00	0	36	0	621805568	63	4140
2026-01-18 08:59:00.43	104.48	52.82	-46.0	-47.3	20.3	0.00e+00	0	36	0	622854144	63	4207
2026-01-18 08:59:01.44	104.02	53.10	-45.9	-47.2	20.3	0.00e+00	0	35	0	624951296	63	4157
2026-01-18 08:59:02.45	103.56	53.37	-45.9	-47.2	20.3	0.00e+00	0	36	0	627048448	63	4181
2026-01-18 08:59:03.45	103.09	53.65	-46.1	-47.4	20.2	0.00e+00	0	36	0	629145600	63	4269
2026-01-18 08:59:04.46	102.61	53.92	-46.2	-47.6	20.0	0.00e+00	0	36	0	630194176	63	4366
2026-01-18 08:59:05.47	102.12	54.20	-46.4	-47.8	19.9	0.00e+00	0	36	0	632291328	63	4466
2026-01-18 08:59:06.48	101.61	54.48	-46.5	-47.9	19.7	0.00e+00	0	36	0	634388480	63	4531
2026-01-18 08:59:07.48	101.11	54.75	-46.5	-47.9	19.7	0.00e+00	0	36	0	636485632	63	4537
2026-01-18 08:59:08.49	100.59	55.02	-46.3	-47.7	19.9	0.00e+00	0	36	0	638582784	63	4414
2026-01-18 08:59:09.50	100.06	55.30	-46.3	-47.7	19.9	0.00e+00	0	36	0	640679936	63	4438
2026-01-18 08:59:10.51	99.51	55.57	-46.5	-47.9	19.7	0.00e+00	0	36	0	641728512	63	4520
2026-01-18 08:59:11.52	98.96	55.84	-46.6	-48.0	19.7	0.00e+00	0	36	0	643825664	63	4569
2026-01-18 08:59:12.53	98.40	56.11	-46.5	-48.0	19.5	0.00e+00	0	36	0	645922816	64	4297
2026-01-18 08:59:13.53	97.83	56.37	-46.7	-48.2	19.4	0.00e+00	0	36	0	648019968	64	4411
2026-01-18 08:59:14.54	97.24	56.64	-47.2	-48.8	18.8	0.00e+00	0	36	0	650117120	64	4738
2026-01-18 08:59:15.55	96.65	56.90	-47.4	-49.1	18.5	0.00e+00	0	36	0	651165696	65	4625
2026-01-18 08:59:16.55	96.04	57.16	-47.6	-49.3	18.3	0.00e+00	0	36	0	653262848	65	4752
2026-01-18 08:59:17.56	95.42	57.42	-47.9	-49.7	18.0	0.00e+00	0	36	0	655360000	66	4665
2026-01-18 08:59:18.56	94.80	57.68	-48.2	-50.1	17.5	0.00e+00	0	36	0	657457152	66	4901
2026-01-18 08:59:19.57	94.15	57.94	-48.3	-50.3	17.3	0.00e+00	0	35	0	659554304	67	4719
2026-01-18 08:59:20.58	93.50	58.19	-48.2	-50.2	17.4	0.00e+00	0	36	0	660602880	67	4661
2026-01-18 08:59:21.59	92.83	58.44	-48.0	-49.8	17.9	0.00e+00	0	36	0	662700032	67	4488
2026-01-18 08:59:22.59	92.15	58.69	-47.9	-49.7	18.0	0.00e+00	0	36	0	664797184	67	4426
2026-01-18 08:59:23.60	91.46	58.93	-47.7	-49.5	18.2	0.00e+00	0	36	0	666894336	67	4294
2026-01-18 08:59:24.61	90.75	59.18	-47.5	-49.2	18.5	0.00e+00	0	35	0	668991488	66	4400
2026-01-18 08:59:25.62	90.03	59.42	-47.2	-48.7	18.9	0.00e+00	0	36	0	670040064	66	4193
2026-01-18 08:59:26.63	89.29	59.65	-47.0	-48.6	19.0	0.00e+00	0	36	0	672137216	65	4360
2026-01-18 08:59:27.63	88.55	59.88	-47.0	-48.6	19.0	0.00e+00	0	36	0	674234368	65	4350
2026-01-18 08:59:28.64	87.79	60.11	-47.2	-48.8	18.8	0.00e+00	0	36	0	676331520	65	4479
2026-01-18 08:59:29.65	87.02	60.34	-47.4	-49.1	18.5	0.00e+00	0	36	0	678428672	65	4639
2026-01-18 08:59:30.66	86.23	60.56	-47.0	-48.6	19.1	0.00e+00	0	36	0	679477248	65	4344
2026-01-18 08:59:31.67	85.43	60.78	-46.3	-47.7	19.9	0.00e+00	0	36	0	681574400	64	4172
2026-01-18 08:59:32.67	84.62	60.99	-45.9	-47.2	20.4	0.00e+00	0	36	0	683671552	63	4189
2026-01-18 08:59:33.68	83.79	61.20	-45.4	-46.6	20.9	0.00e+00	0	35	0	685768704	62	4138
2026-01-18 08:59:34.69	82.94	61.40	-45.5	-46.8	20.8	0.00e+00	0	36	0	687865856	62	4212
2026-01-18 08:59:35.69	82.09	61.60	-45.2	-46.4	21.2	0.00e+00	0	36	0	688914432	62	4026
2026-01-18 08:59:36.70	81.22	61.79	-45.2	-46.3	21.3	0.00e+00	0	36	0	691011584	62	3988
2026-01-18 08:59:37.71	80.34	61.98	-45.3	-46.5	21.1	0.00e+00	0	35	0	693108736	62	4060
2026-01-18 08:59:38.72	79.44	62.16	-44.9	-46.0	21.5	0.00e+00	0	36	0	695205888	61	4096
2026-01-18 08:59:39.73	78.53	62.34	-44.6	-45.7	21.9	0.00e+00	0	35	0	697303040	61	3925
2026-01-18 08:59:40.73	77.61	62.51	-44.7	-45.8	21.8	0.00e+00	0	36	0	698351616	61	3981
2026-01-18 08:59:41.74	76.67	62.68	-45.1	-46.3	21.4	0.00e+00	0	36	0	700448768	61	4194
2026-01-18 08:59:42.75	75.72	62.84	-44.9	-46.0	21.6	0.00e+00	0	35	0	702545920	61	4083
2026-01-18 08:59:43.75	74.77	62.99	-44.9	-46.0	21.6	0.00e+00	0	35	0	704643072	61	4077
2026-01-18 08:59:44.76	73.79	63.13	-45.0	-46.1	21.6	0.00e+00	0	35	0	706740224	61	4120
2026-01-18 08:59:45.77	72.81	63.27	-45.1	-46.2	21.4	0.00e+00	0	35	0	708837376	61	4182
2026-01-18 08:59:46.78	71.81	63.41	-44.9	-46.1	21.4	0.00e+00	0	36	0	709885952	61	4123
2026-01-18 08:59:47.79	70.80	63.53	-44.6	-45.7	21.9	0.00e+00	0	36	0	711983104	61	3947
2026-01-18 08:59:48.79	69.79	63.65	-44.4	-45.5	22.0	0.00e+00	0	36	0	714080256	60	4083
2026-01-18 08:59:49.80	68.76	63.76	-44.5	-45.6	22.0	0.00e+00	0	35	0	716177408	60	4105
2026-01-18 08:59:50.81	67.72	63.86	-44.7	-45.8	21.8	0.00e+00	0	36	0	717225984	60	4215
2026-01-18 08:59:51.81	66.68	63.96	-44.8	-45.9	21.7	0.00e+00	0	35	0	719323136	60	4258
2026-01-18 08:59:52.82	65.62	64.05	-44.8	-45.9	21.7	0.00e+00	0	35	0	721420288	60	4273
2026-01-18 08:59:53.83	64.56	64.13	-44.8	-45.9	21.7	0.00e+00	0	35	0	723517440	60	4257
2026-01-18 08:59:54.84	63.49	64.20	-44.7	-45.8	21.8	0.00e+00	0	36	0	725614592	60	4236
2026-01-18 08:59:55.85	62.41	64.27	-44.7	-45.8	21.8	0.00e+00	0	36	0	726663168	60	4238
2026-01-18 08:59:56.85	61.33	64.32	-44.2	-45.3	22.3	0.00e+00	0	35	0	728760320	60	3965
2026-01-18 08:59:57.86	60.24	64.37	-44.5	-45.5	22.3	0.00e+00	0	35	0	730857472	59	4332
2026-01-18 08:59:58.87	59.15	64.41	-44.7	-45.8	22.1	0.00e+00	0	35	0	732954624	59	4455
2026-01-18 08:59:59.88	58.05	64.44	-44.5	-45.6	22.0	0.00e+00	0	35	0	735051776	60	4116
2026-01-18 09:00:00.89	56.96	64.47	-44.2	-45.3	22.3	0.00e+00	0	35	0	737148928	60	3968
2026-01-18 09:00:01.90	55.85	64.48	-44.1	-45.1	22.5	0.00e+00	0	35	0	738197504	60	3898
2026-01-18 09:00:02.90	54.76	64.49	-44.1	-45.1	22.4	0.00e+00	0	36	0	740294656	60	3904
2026-01-18 09:00:03.91	53.66	64.48	-44.2	-45.3	22.3	0.00e+00	0	36	0	742391808	60	3983
2026-01-18 09:00:04.92	52.56	64.47	-44.5	-45.6	22.1	0.00e+00	0	35	0	744488960	60	4121
2026-01-18 09:00:05.93	51.46	64.45	-44.3	-45.4	22.3	0.00e+00	0	35	0	745537536	60	4006
2026-01-18 09:00:06.93	50.37	64.43	-44.4	-45.5	22.0	0.00e+00	0	35	0	747634688	60	4058
2026-01-18 09:00:07.94	49.28	64.39	-44.6	-45.7	21.9	0.00e+00	0	35	0	749731840	60	4167
2026-01-18 09:00:08.95	48.19	64.35	-44.9	-46.1	21.5	0.00e+00	0	35	0	751828992	60	4360
2026-01-18 09:00:09.96	47.10	64.29	-45.1	-46.2	21.4	0.00e+00	0	35	0	753926144	60	4436
2026-01-18 09:00:10.97	46.02	64.23	-45.2	-46.4	21.4	0.00e+00	0	36	0	754974720	61	4250
2026-01-18 09:00:11.98	44.95	64.16	-45.3	-46.6	21.1	0.00e+00	0	36	0	757071872	61	4345
2026-01-18 09:00:12.98	43.89	64.09	-45.3	-46.4	21.2	0.00e+00	0	35	0	759169024	61	4284
2026-01-18 09:00:13.99	42.83	64.00	-45.3	-46.5	21.2	0.00e+00	0	35	0	761266176	61	4307
2026-01-18 09:00:14.99	41.79	63.91	-45.2	-46.4	21.3	0.00e+00	0	36	0	763363328	61	4248
2026-01-18 09:00:16.00	40.74	63.81	-44.9	-46.0	21.6	0.00e+00	0	35	0	765460480	61	4078
2026-01-18 09:00:17.01	39.71	63.70	-44.9	-46.1	21.6	0.00e+00	0	36	0	766509056	61	4102
2026-01-18 09:00:18.02	38.68	63.59	-44.8	-45.9	21.7	0.00e+00	0	36	0	768606208	61	4022
2026-01-18 09:00:19.03	37.67	63.47	-44.8	-45.9	21.7	0.00e+00	0	36	0	770703360	61	4042
2026-01-18 09:00:20.03	36.68	63.34	-44.5	-45.6	22.0	0.00e+00	0	36	0	772800512	61	3887
2026-01-18 09:00:21.04	35.68	63.20	-44.3	-45.3	22.2	0.00e+00	0	36	0	773849088	60	4001
2026-01-18 09:00:22.05	34.70	63.06	-44.0	-45.0	22.5	0.00e+00	0	36	0	775946240	60	3844
2026-01-18 09:00:23.06	33.74	62.91	-44.4	-45.5	22.4	0.00e+00	0	35	0	778043392	59	4293
2026-01-18 09:00:24.06	32.79	62.75	-44.3	-45.3	22.5	0.00e+00	0	36	0	780140544	59	4224
2026-01-18 09:00:25.07	31.85	62.59	-44.3	-45.4	22.5	0.00e+00	0	35	0	782237696	59	4250
2026-01-18 09:00:26.08	30.91	62.42	-44.6	-45.7	22.2	0.00e+00	0	35	0	784334848	59	4418
2026-01-18 09:00:27.09	30.00	62.25	-44.6	-45.6	22.0	0.00e+00	0	35	0	785383424	60	4143
2026-01-18 09:00:28.09	29.10	62.07	-44.7	-45.8	21.8	0.00e+00	0	35	0	787480576	60	4224
2026-01-18 09:00:29.10	28.21	61.88	-44.9	-46.1	21.6	0.00e+00	0	35	0	789577728	60	4366
2026-01-18 09:00:30.11	27.33	61.69	-45.0	-46.2	21.4	0.00e+00	0	36	0	791674880	60	4394
2026-01-18 09:00:31.11	26.48	61.50	-45.2	-46.3	21.4	0.00e+00	0	35	0	793772032	60	4479
2026-01-18 09:00:32.12	25.63	61.30	-45.9	-47.2	20.5	0.00e+00	0	35	0	794820608	62	4424
2026-01-18 09:00:33.13	24.79	61.09	-46.5	-47.9	19.9	0.00e+00	0	35	0	796917760	63	4509
2026-01-18 09:00:34.14	23.97	60.88	-46.6	-48.0	19.7	0.00e+00	0	35	0	799014912	64	4316
2026-01-18 09:00:35.14	23.17	60.67	-46.7	-48.1	19.5	0.00e+00	0	35	0	801112064	64	4381
2026-01-18 09:00:36.15	22.38	60.45	-46.9	-48.5	19.2	0.00e+00	0	36	0	802160640	64	4555
2026-01-18 09:00:37.15	21.61	60.23	-47.6	-49.3	18.4	0.00e+00	0	35	0	804257792	65	4726
2026-01-18 09:00:38.16	20.84	60.00	-48.0	-49.8	17.9	0.00e+00	0	35	0	806354944	66	4758
2026-01-18 09:00:39.17	20.08	59.77	-48.5	-50.5	17.3	0.00e+00	0	35	0	808452096	67	4823
2026-01-18 09:00:40.18	19.34	59.54	-48.9	-51.0	16.8	0.00e+00	0	36	0	810549248	68	4838
2026-01-18 09:00:41.19	18.62	59.30	-49.1	-51.2	16.5	0.00e+00	0	35	0	812646400	68	4979
2026-01-18 09:00:42.19	17.91	59.06	-49.0	-51.2	16.7	0.00e+00	0	36	0	813694976	68	4938
2026-01-18 09:00:43.20	17.21	58.82	-49.0	-51.2	16.6	0.00e+00	0	36	0	815792128	68	4975
2026-01-18 09:00:44.21	16.52	58.57	-49.1	-51.3	16.5	0.00e+00	0	36	0	817889280	68	5014
2026-01-18 09:00:45.22	15.85	58.32	-49.1	-51.4	16.4	0.00e+00	0	36	0	819986432	68	5064
2026-01-18 09:00:46.23	15.19	58.07	-49.4	-51.8	16.1	0.00e+00	0	36	0	822083584	69	5028
2026-01-18 09:00:47.23	14.54	57.81	-48.9	-51.1	16.8	0.00e+00	0	35	0	823132160	69	4623
2026-01-18 09:00:48.24	13.91	57.56	-48.7	-50.8	17.1	0.00e+00	0	36	0	825229312	69	4456
2026-01-18 09:00:49.25	13.28	57.30	-48.5	-50.5	17.4	0.00e+00	0	35	0	827326464	68	4558
2026-01-18 09:00:50.26	12.67	57.04	-48.3	-50.2	17.5	0.00e+00	0	36	0	829423616	68	4438
2026-01-18 09:00:51.26	12.07	56.78	-48.0	-49.8	18.0	0.00e+00	0	36	0	830472192	68	4222
2026-01-18 09:00:52.27	11.48	56.51	-47.6	-49.3	18.4	0.00e+00	0	36	0	832569344	67	4224
2026-01-18 09:00:53.28	10.90	56.25	-47.4	-49.0	18.7	0.00e+00	0	35	0	834666496	66	4332
2026-01-18 09:00:54.29	10.34	55.98	-47.2	-48.7	19.0	0.00e+00	0	36	0	836763648	66	4179
2026-01-18 09:00:55.29	9.78	55.71	-47.1	-48.6	19.1	0.00e+00	0	36	0	838860800	66	4141
2026-01-18 09:00:56.30	9.24	55.44	-47.2	-48.7	19.0	0.00e+00	0	36	0	840957952	66	4192
2026-01-18 09:00:57.31	8.70	55.17	-46.5	-48.0	19.7	0.00e+00	0	36	0	842006528	65	4060
2026-01-18 09:00:58.32	8.18	54.90	-46.4	-47.7	20.0	0.00e+00	0	36	0	844103680	64	4190
2026-01-18 09:00:59.33	7.66	54.62	-46.4	-47.7	20.0	0.00e+00	0	35	0	846200832	64	4192
2026-01-18 09:01:00.33	7.16	54.35	-46.0	-47.3	20.5	0.00e+00	0	35	0	848297984	63	4222
2026-01-18 09:01:01.34	6.66	54.07	-46.2	-47.5	20.3	0.00e+00	0	35	0	850395136	63	4323
2026-01-18 09:01:02.35	6.18	53.80	-46.6	-48.1	19.6	0.00e+00	0	36	0	851443712	64	4368
2026-01-18 09:01:03.36	5.70	53.52	-47.1	-48.7	19.1	0.00e+00	0	36	0	853540864	64	4671
2026-01-18 09:01:04.37	5.23	53.25	-47.0	-48.5	19.2	0.00e+00	0	36	0	855638016	64	4594
2026-01-18 09:01:05.38	4.77	52.97	-47.0	-48.6	19.1	0.00e+00	0	36	0	857735168	64	4621
2026-01-18 09:01:06.38	4.33	52.69	-47.2	-48.8	18.9	0.00e+00	0	35	0	859832320	64	4709
2026-01-18 09:01:07.39	3.89	52.42	-47.3	-48.9	18.8	0.00e+00	0	36	0	860880896	65	4511
2026-01-18 09:01:08.40	3.45	52.14	-47.3	-48.9	18.8	0.00e+00	0	36	0	862978048	65	4518
2026-01-18 09:01:09.41	3.03	51.86	-47.6	-49.3	18.4	0.00e+00	0	36	0	865075200	65	4714
2026-01-18 09:01:10.42	2.61	51.58	-47.8	-49.6	18.1	0.00e+00	0	36	0	867172352	66	4634
2026-01-18 09:01:11.42	2.20	51.31	-47.7	-49.4	18.2	0.00e+00	0	35	0	869269504	66	4526
2026-01-18 09:01:12.43	1.80	51.03	-47.7	-49.4	18.3	0.00e+00	0	35	0	870318080	66	4526
2026-01-18 09:01:13.44	1.40	50.75	-47.8	-49.5	18.2	0.00e+00	0	36	0	872415232	66	4579
2026-01-18 09:01:14.45	1.02	50.47	-47.8	-49.6	18.2	0.00e+00	0	36	0	874512384	66	4628
2026-01-18 09:01:15.45	0.64	50.20	-47.9	-49.7	18.1	0.00e+00	0	36	0	876609536	66	4680
2026-01-18 09:01:16.46	0.27	49.92	-47.9	-49.6	18.1	0.00e+00	0	36	0	878706688	66	4643
2026-01-18 09:01:17.47	359.90	49.64	-47.9	-49.6	18.1	0.00e+00	0	35	0	879755264	66	4643
2026-01-18 09:01:18.48	359.54	49.37	-48.1	-49.9	17.8	0.00e+00	0	36	0	881852416	66	4812
2026-01-18 09:01:19.49	359.19	49.09	-48.2	-50.0	17.7	0.00e+00	0	36	0	883949568	66	4868
2026-01-18 09:01:20.50	358.84	48.82	-48.0	-49.9	17.8	0.00e+00	0	36	0	886046720	67	4515
2026-01-18 09:01:21.51	358.50	48.54	-47.8	-49.6	18.2	0.00e+00	0	35	0	888143872	67	4355
2026-01-18 09:01:22.51	358.17	48.27	-47.6	-49.2	18.5	0.00e+00	0	35	0	889192448	67	4187
2026-01-18 09:01:23.52	357.84	48.00	-47.5	-49.2	18.5	0.00e+00	0	35	0	891289600	66	4415
2026-01-18 09:01:24.53	357.51	47.72	-47.5	-49.1	18.6	0.00e+00	0	36	0	893386752	66	4370
2026-01-18 09:01:25.54	357.20	47.45	-47.5	-49.1	18.6	0.00e+00	0	35	0	895483904	66	4389
2026-01-18 09:01:26.55	356.88	47.18	-47.6	-49.3	18.4	0.00e+00	0	35	0	897581056	66	4450
2026-01-18 09:01:27.55	356.58	46.91	-47.7	-49.4	18.3	0.00e+00	0	35	0	898629632	66	4508
2026-01-18 09:01:28.56	356.28	46.65	-47.5	-49.2	18.6	0.00e+00	0	35	0	900726784	66	4402
2026-01-18 09:01:29.57	355.98	46.38	-47.6	-49.2	18.5	0.00e+00	0	36	0	902823936	66	4440
2026-01-18 09:01:30.58	355.69	46.11	-47.6	-49.4	18.3	0.00e+00	0	36	0	904921088	66	4505
2026-01-18 09:01:31.59	355.41	45.84	-47.8	-49.5	18.2	0.00e+00	0	35	0	907018240	66	4584
2026-01-18 09:01:32.60	355.12	45.58	-47.6	-49.3	18.4	0.00e+00	0	35	0	908066816	66	4487
2026-01-18 09:01:33.60	354.85	45.32	-47.5	-49.1	18.6	0.00e+00	0	36	0	910163968	66	4382
2026-01-18 09:01:34.61	354.58	45.05	-47.7	-49.4	18.3	0.00e+00	0	35	0	912261120	66	4523
2026-01-18 09:01:35.62	354.31	44.79	-48.0	-49.8	17.9	0.00e+00	0	35	0	914358272	66	4754
2026-01-18 09:01:36.62	354.05	44.53	-48.1	-50.0	17.8	0.00e+00	0	35	0	916455424	66	4815
2026-01-18 09:01:37.63	353.79	44.27	-48.1	-49.9	17.8	0.00e+00	0	36	0	917504000	66	4793
2026-01-18 09:01:38.64	353.54	44.01	-48.2	-50.2	17.5	0.00e+00	0	36	0	919601152	67	4671
2026-01-18 09:01:39.65	353.29	43.75	-48.6	-50.6	17.1	0.00e+00	0	36	0	921698304	67	4914
2026-01-18 09:01:40.65	353.04	43.50	-48.8	-50.9	16.9	0.00e+00	0	35	0	923795456	68	4795
2026-01-18 09:01:41.66	352.80	43.24	-48.9	-51.0	16.8	0.00e+00	0	36	0	925892608	68	4869
2026-01-18 09:01:42.67	352.56	42.99	-48.9	-51.1	16.7	0.00e+00	0	35	0	927989760	68	4899
2026-01-18 09:01:43.68	352.33	42.73	-49.1	-51.4	16.4	0.00e+00	0	35	0	929038336	68	5043
2026-01-18 09:01:44.68	352.10	42.48	-49.0	-51.2	16.6	0.00e+00	0	35	0	931135488	68	4932
2026-01-18 09:01:45.69	351.87	42.23	-49.0	-51.2	16.6	0.00e+00	0	36	0	933232640	68	4970
2026-01-18 09:01:46.70	351.65	41.98	-49.1	-51.4	16.4	0.00e+00	0	36	0	935329792	68	5081
2026-01-18 09:01:47.71	351.43	41.73	-49.5	-51.9	15.9	0.00e+00	0	36	0	936378368	69	5081
2026-01-18 09:01:48.72	351.21	41.48	-49.6	-52.1	15.7	0.00e+00	0	36	0	938475520	69	5217
2026-01-18 09:01:49.72	351.00	41.24	-49.9	-52.5	15.2	0.00e+00	0	36	0	940572672	70	5155
2026-01-18 09:01:50.73	350.79	40.99	-50.0	-52.8	15.0	0.00e+00	0	36	0	942669824	70	5318
2026-01-18 09:01:51.74	350.58	40.75	-50.3	-53.4	14.3	7.00e-07	0	36	0	944766976	71	5370
2026-01-18 09:01:52.75	350.38	40.51	-50.4	-53.5	14.2	7.00e-07	0	35	0	945815552	71	5448
2026-01-18 09:01:53.76	350.18	40.26	-50.5	-53.6	14.0	1.50e-06	0	36	0	947912704	71	5528
2026-01-18 09:01:54.77	349.98	40.02	-50.3	-53.4	14.4	3.00e-06	0	36	0	950009856	71	5341
2026-01-18 09:01:55.77	349.79	39.79	-50.1	-53.0	14.7	1.50e-06	0	35	0	952107008	71	5123
2026-01-18 09:01:56.78	349.60	39.55	-49.9	-52.6	15.1	0.00e+00	0	36	0	954204160	71	4917
2026-01-18 09:01:57.79	349.41	39.31	-49.8	-52.4	15.3	0.00e+00	0	36	0	956301312	71	4812
2026-01-18 09:01:58.80	349.22	39.08	-49.7	-52.3	15.5	0.00e+00	0	36	0	957349888	71	4715
2026-01-18 09:01:59.81	349.04	38.84	-49.6	-52.1	15.6	0.00e+00	0	36	0	959447040	71	4622
2026-01-18 09:02:00.81	348.86	38.61	-49.4	-51.8	15.9	0.00e+00	0	36	0	961544192	70	4743
2026-01-18 09:02:01.82	348.68	38.38	-49.3	-51.7	16.0	0.00e+00	0	35	0	963641344	70	4681
2026-01-18 09:02:02.83	348.50	38.15	-49.3	-51.7	16.1	0.00e+00	0	35	0	964689920	70	4685
2026-01-18 09:02:03.83	348.33	37.92	-49.2	-51.5	16.2	0.00e+00	0	36	0	966787072	70	4574
2026-01-18 09:02:04.84	348.16	37.69	-49.2	-51.5	16.2	0.00e+00	0	36	0	968884224	70	4570
2026-01-18 09:02:05.85	347.99	37.47	-49.2	-51.6	16.1	0.00e+00	0	36	0	970981376	70	4636
2026-01-18 09:02:06.86	347.83	37.24	-49.2	-51.5	16.2	0.00e+00	0	36	0	973078528	70	4569
2026-01-18 09:02:07.87	347.66	37.02	-49.1	-51.4	16.2	0.00e+00	0	36	0	974127104	70	4542
2026-01-18 09:02:08.87	347.50	36.80	-48.9	-51.2	16.5	0.00e+00	0	36	0	976224256	69	4659
2026-01-18 09:02:09.88	347.34	36.58	-48.8	-51.0	16.8	0.00e+00	0	36	0	978321408	69	4556
2026-01-18 09:02:10.89	347.19	36.36	-48.8	-50.9	16.7	0.00e+00	0	36	0	980418560	69	4531
2026-01-18 09:02:11.90	347.03	36.14	-48.8	-50.9	16.8	0.00e+00	0	36	0	982515712	69	4518
2026-01-18 09:02:12.91	346.88	35.92	-48.9	-51.1	16.6	0.00e+00	0	35	0	984612864	69	4626
2026-01-18 09:02:13.91	346.73	35.70	-48.9	-51.1	16.6	0.00e+00	0	36	0	985661440	69	4607
2026-01-18 09:02:14.92	346.58	35.49	-48.8	-51.0	16.7	0.00e+00	0	35	0	987758592	69	4563
2026-01-18 09:02:15.93	346.43	35.27	-48.6	-50.7	16.9	0.00e+00	0	36	0	989855744	69	4435
2026-01-18 09:02:16.94	346.29	35.06	-48.5	-50.5	17.1	0.00e+00	0	36	0	991952896	69	4336
2026-01-18 09:02:17.95	346.15	34.85	-48.4	-50.4	17.3	0.00e+00	0	35	0	994050048	68	4498
2026-01-18 09:02:18.95	346.01	34.64	-48.2	-50.1	17.4	0.00e+00	0	36	0	995098624	68	4387
2026-01-18 09:02:19.96	345.87	34.43	-48.2	-50.2	17.5	0.00e+00	0	36	0	997195776	68	4412
2026-01-18 09:02:20.97	345.73	34.22	-48.5	-50.6	17.1	0.00e+00	0	36	0	999292928	68	4604
2026-01-18 09:02:21.98	345.60	34.02	-48.6	-50.7	16.9	0.00e+00	0	36	0	1001390080	68	4662
2026-01-18 09:02:22.99	345.46	33.81	-48.8	-51.0	16.6	0.00e+00	0	35	0	1003487232	68	4860
2026-01-18 09:02:23.99	345.33	33.61	-48.9	-51.1	16.6	0.00e+00	0	36	0	1004535808	68	4905
2026-01-18 09:02:25.00	345.20	33.40	-48.9	-51.1	16.5	0.00e+00	0	36	0	1006632960	68	4892
2026-01-18 09:02:26.01	345.07	33.20	-48.9	-51.1	16.5	0.00e+00	0	36	0	1008730112	68	4877
2026-01-18 09:02:27.02	344.94	33.00	-48.9	-51.1	16.5	0.00e+00	0	36	0	1010827264	68	4905
2026-01-18 09:02:28.03	344.82	32.80	-48.8	-50.9	16.7	0.00e+00	0	36	0	1012924416	68	4797
2026-01-18 09:02:29.03	344.70	32.60	-48.8	-51.0	16.6	0.00e+00	0	35	0	1013972992	68	4834
2026-01-18 09:02:30.04	344.57	32.41	-49.0	-51.2	16.4	0.00e+00	0	36	0	1016070144	68	4981
2026-01-18 09:02:31.05	344.45	32.21	-48.9	-51.1	16.5	0.00e+00	0	35	0	1018167296	68	4917
2026-01-18 09:02:32.06	344.33	32.01	-49.1	-51.4	16.2	0.00e+00	0	36	0	1020264448	68	5080
2026-01-18 09:02:33.07	344.22	31.82	-49.1	-51.4	16.2	0.00e+00	0	35	0	1022361600	68	5058
2026-01-18 09:02:34.07	344.10	31.63	-49.2	-51.6	16.0	0.00e+00	0	36	0	1023410176	68	5204
2026-01-18 09:02:35.08	343.99	31.44	-49.1	-51.5	16.1	0.00e+00	0	35	0	1025507328	69	4839
2026-01-18 09:02:36.09	343.87	31.25	-49.3	-51.7	15.8	0.00e+00	0	35	0	1027604480	69	4979
2026-01-18 09:02:37.10	343.76	31.06	-49.3	-51.8	15.8	0.00e+00	0	36	0	1029701632	69	5019
2026-01-18 09:02:38.11	343.65	30.87	-49.6	-52.1	15.5	0.00e+00	0	35	0	1031798784	69	5217
2026-01-18 09:02:39.11	343.54	30.68	-49.6	-52.3	15.3	0.00e+00	0	36	0	1032847360	69	5281
2026-01-18 09:02:40.12	343.43	30.50	-49.7	-52.3	15.2	0.00e+00	0	36	0	1034944512	69	5332
2026-01-18 09:02:41.13	343.33	30.31	-49.7	-52.4	15.2	0.00e+00	0	35	0	1037041664	69	5376
2026-01-18 09:02:42.14	343.22	30.13	-49.8	-52.5	15.1	0.00e+00	0	36	0	1039138816	70	5122
2026-01-18 09:02:43.15	343.12	29.94	-49.8	-52.5	15.0	0.00e+00	0	35	0	1041235968	70	5153
2026-01-18 09:02:44.15	343.01	29.76	-49.7	-52.4	15.1	0.00e+00	0	36	0	1042284544	70	5083
2026-01-18 09:02:45.16	342.91	29.58	-49.9	-52.6	14.9	0.00e+00	0	36	0	1044381696	70	5218
2026-01-18 09:02:46.17	342.81	29.40	-49.9	-52.8	14.8	0.00e+00	0	36	0	1046478848	70	5298
2026-01-18 09:02:47.17	342.71	29.22	-50.0	-52.9	14.6	7.00e-07	0	36	0	1048576000	70	5378
2026-01-18 09:02:48.18	342.61	29.05	-49.9	-52.7	14.9	0.00e+00	0	36	0	1050673152	70	5274
2026-01-18 09:02:49.19	342.52	28.87	-50.0	-52.9	14.7	0.00e+00	0	36	0	1051721728	70	5350
2026-01-18 09:02:50.20	342.42	28.69	-49.9	-52.7	14.9	0.00e+00	0	36	0	1053818880	70	5247
2026-01-18 09:02:51.20	342.32	28.52	-49.8	-52.5	15.0	0.00e+00	0	35	0	1055916032	70	5154
2026-01-18 09:02:52.21	342.23	28.35	-49.7	-52.4	15.2	0.00e+00	0	35	0	1058013184	70	5044
2026-01-18 09:02:53.22	342.14	28.17	-49.6	-52.3	15.2	0.00e+00	0	35	0	1060110336	70	5007
2026-01-18 09:02:54.23	342.04	28.00	-49.6	-52.2	15.4	0.00e+00	0	36	0	1061158912	70	4954
2026-01-18 09:02:55.24	341.95	27.83	-49.4	-51.9	15.6	0.00e+00	0	36	0	1063256064	70	4814
2026-01-18 09:02:56.25	341.86	27.66	-49.3	-51.7	15.8	0.00e+00	0	35	0	1065353216	70	4675
2026-01-18 09:02:57.25	341.78	27.49	-49.2	-51.6	15.9	0.00e+00	0	36	0	1067450368	70	4635
2026-01-18 09:02:58.26	341.69	27.32	-49.2	-51.7	15.8	0.00e+00	0	36	0	1069547520	70	4668
2026-01-18 09:02:59.27	341.60	27.16	-49.1	-51.5	16.0	0.00e+00	0	36	0	1071644672	70	4577
2026-01-18 09:03:00.27	341.51	26.99	-49.1	-51.4	16.1	0.00e+00	0	36	0	1072693248	70	4521
2026-01-18 09:03:01.28	341.43	26.83	-49.1	-51.4	16.1	0.00e+00	0	35	0	1074790400	70	4537
2026-01-18 09:03:02.29	341.35	26.66	-49.0	-51.4	16.1	0.00e+00	0	36	0	1076887552	70	4519
2026-01-18 09:03:03.30	341.26	26.50	-49.0	-51.3	16.2	0.00e+00	0	36	0	1078984704	69	4739
2026-01-18 09:03:04.31	341.18	26.34	-49.0	-51.3	16.1	0.00e+00	0	36	0	1080033280	69	4750
2026-01-18 09:03:05.31	341.10	26.18	-48.8	-51.1	16.4	0.00e+00	0	36	0	1082130432	69	4619
2026-01-18 09:03:06.32	341.02	26.02	-48.7	-51.0	16.5	0.00e+00	0	35	0	1084227584	69	4559
2026-01-18 09:03:07.33	340.94	25.86	-48.7	-50.9	16.6	0.00e+00	0	36	0	1086324736	69	4516
2026-01-18 09:03:08.34	340.86	25.70	-48.6	-50.8	16.6	0.00e+00	0	36	0	1088421888	69	4467
2026-01-18 09:03:09.35	340.78	25.54	-48.6	-50.8	16.6	0.00e+00	0	35	0	1089470464	69	4488
2026-01-18 09:03:10.36	340.70	25.38	-48.7	-50.9	16.6	0.00e+00	0	35	0	1091567616	69	4511
2026-01-18 09:03:11.36	340.63	25.23	-48.7	-50.9	16.6	0.00e+00	0	36	0	1093664768	69	4501
2026-01-18 09:03:12.37	340.55	25.07	-48.6	-50.8	16.7	0.00e+00	0	36	0	1095761920	69	4445
2026-01-18 09:03:13.38	340.47	24.92	-48.6	-50.7	16.8	0.00e+00	0	36	0	1097859072	69	4413
2026-01-18 09:03:14.39	340.40	24.76	-48.5	-50.7	16.8	0.00e+00	0	36	0	1099956224	69	4408
2026-01-18 09:03:15.39	340.33	24.61	-48.3	-50.4	17.0	0.00e+00	0	35	0	1101004800	68	4527
2026-01-18 09:03:16.40	340.25	24.46	-48.4	-50.5	16.9	0.00e+00	0	36	0	1103101952	68	4593
2026-01-18 09:03:17.41	340.18	24.31	-48.2	-50.3	17.2	0.00e+00	0	35	0	1105199104	68	4442
2026-01-18 09:03:18.42	340.11	24.16	-48.1	-50.0	17.4	0.00e+00	0	36	0	1107296256	68	4322
2026-01-18 09:03:19.43	340.04	24.01	-48.0	-50.0	17.4	0.00e+00	0	36	0	1108344832	68	4321
2026-01-18 09:03:20.43	339.97	23.86	-47.9	-49.8	17.5	0.00e+00	0	35	0	1110441984	67	4474
2026-01-18 09:03:21.44	339.90	23.71	-47.8	-49.7	17.6	0.00e+00	0	36	0	1112539136	67	4408
2026-01-18 09:03:22.45	339.83	23.56	-47.7	-49.6	17.8	0.00e+00	0	36	0	1114636288	67	4341
2026-01-18 09:03:23.45	339.77	23.42	-47.7	-49.6	17.8	0.00e+00	0	36	0	1116733440	67	4344
2026-01-18 09:03:24.46	339.70	23.27	-47.6	-49.5	17.9	0.00e+00	0	36	0	1117782016	67	4302
2026-01-18 09:03:25.47	339.63	23.13	-47.6	-49.4	17.9	0.00e+00	0	36	0	1119879168	67	4283
2026-01-18 09:03:26.48	339.57	22.98	-47.6	-49.4	17.9	0.00e+00	0	36	0	1121976320	67	4266
2026-01-18 09:03:27.49	339.50	22.84	-47.5	-49.3	18.0	0.00e+00	0	36	0	1124073472	66	4467
2026-01-18 09:03:28.49	339.44	22.70	-47.4	-49.2	18.1	0.00e+00	0	36	0	1126170624	66	4431
2026-01-18 09:03:29.50	339.37	22.56	-47.4	-49.2	18.1	0.00e+00	0	35	0	1128267776	66	4392
2026-01-18 09:03:30.51	339.31	22.42	-47.3	-49.0	18.3	0.00e+00	0	36	0	1129316352	66	4309
2026-01-18 09:03:31.52	339.25	22.28	-47.2	-48.9	18.3	0.00e+00	0	36	0	1131413504	66	4289
2026-01-18 09:03:32.53	339.18	22.14	-47.2	-48.9	18.4	0.00e+00	0	36	0	1133510656	66	4287
2026-01-18 09:03:33.53	339.12	22.00	-47.2	-49.0	18.3	0.00e+00	0	36	0	1135607808	66	4298
2026-01-18 09:03:34.54	339.06	21.86	-47.2	-48.8	18.4	0.00e+00	0	36	0	1136656384	66	4241
2026-01-18 09:03:35.55	339.00	21.72	-47.1	-48.9	18.4	0.00e+00	0	35	0	1138753536	66	4243
2026-01-18 09:03:36.56	338.94	21.59	-47.1	-48.7	18.5	0.00e+00	0	35	0	1140850688	66	4187
2026-01-18 09:03:37.57	338.88	21.45	-47.1	-48.8	18.5	0.00e+00	0	36	0	1142947840	66	4201
2026-01-18 09:03:38.57	338.82	21.32	-47.1	-48.8	18.4	0.00e+00	0	36	0	1145044992	66	4231
2026-01-18 09:03:39.58	338.76	21.18	-47.1	-48.8	18.5	0.00e+00	0	35	0	1147142144	66	4205
2026-01-18 09:03:40.59	338.71	21.05	-47.1	-48.8	18.5	0.00e+00	0	36	0	1148190720	66	4207
2026-01-18 09:03:41.60	338.65	20.91	-47.1	-48.8	18.5	0.00e+00	0	35	0	1150287872	66	4197
2026-01-18 09:03:42.61	338.59	20.78	-47.2	-48.9	18.4	0.00e+00	0	36	0	1152385024	66	4247
2026-01-18 09:03:43.61	338.54	20.65	-47.2	-48.9	18.4	0.00e+00	0	35	0	1154482176	66	4247
2026-01-18 09:03:44.62	338.48	20.52	-47.1	-48.9	18.4	0.00e+00	0	35	0	1156579328	66	4243
2026-01-18 09:03:45.63	338.43	20.39	-47.1	-48.9	18.4	0.00e+00	0	36	0	1157627904	66	4253
2026-01-18 09:03:46.64	338.37	20.26	-47.2	-49.0	18.2	0.00e+00	0	36	0	1159725056	66	4295
2026-01-18 09:03:47.65	338.32	20.13	-47.2	-49.0	18.2	0.00e+00	0	36	0	1161822208	66	4296
2026-01-18 09:03:48.65	338.26	20.00	-47.3	-49.1	18.2	0.00e+00	0	35	0	1163919360	66	4341
2026-01-18 09:03:49.66	338.21	19.87	-47.4	-49.2	18.0	0.00e+00	0	36	0	1164967936	66	4415
2026-01-18 09:03:50.67	338.16	19.75	-47.3	-49.1	18.1	0.00e+00	0	36	0	1167065088	66	4375
2026-01-18 09:03:51.68	338.11	19.62	-47.3	-49.0	18.1	0.00e+00	0	35	0	1169162240	66	4339
2026-01-18 09:03:52.69	338.05	19.49	-47.3	-49.1	18.1	0.00e+00	0	35	0	1171259392	66	4350
2026-01-18 09:03:53.70	338.00	19.37	-47.3	-49.0	18.1	0.00e+00	0	36	0	1173356544	66	4335
2026-01-18 09:03:54.71	337.95	19.24	-47.2	-48.9	18.2	0.00e+00	0	36	0	1175453696	66	4284
2026-01-18 09:03:55.71	337.90	19.12	-47.1	-48.8	18.4	0.00e+00	0	36	0	1176502272	66	4199
2026-01-18 09:03:56.72	337.85	18.99	-47.1	-48.8	18.3	0.00e+00	0	36	0	1178599424	66	4228
2026-01-18 09:03:57.73	337.80	18.87	-47.0	-48.7	18.5	0.00e+00	0	36	0	1180696576	66	4171
2026-01-18 09:03:58.74	337.75	18.75	-46.9	-48.6	18.6	0.00e+00	0	36	0	1182793728	65	4342
2026-01-18 09:03:59.75	337.70	18.63	-47.0	-48.7	18.5	0.00e+00	0	36	0	1184890880	65	4403
2026-01-18 09:04:00.75	337.66	18.51	-46.9	-48.5	18.6	0.00e+00	0	35	0	1185939456	65	4332
2026-01-18 09:04:01.76	337.61	18.38	-46.9	-48.6	18.6	0.00e+00	0	35	0	1188036608	65	4350
2026-01-18 09:04:02.77	337.56	18.26	-46.9	-48.5	18.6	0.00e+00	0	35	0	1190133760	65	4336
2026-01-18 09:04:03.78	337.51	18.14	-46.8	-48.5	18.6	0.00e+00	0	35	0	1192230912	65	4303
2026-01-18 09:04:04.79	337.47	18.02	-46.9	-48.5	18.6	0.00e+00	0	36	0	1194328064	65	4317
2026-01-18 09:04:05.80	337.42	17.91	-46.9	-48.5	18.6	0.00e+00	0	35	0	1195376640	65	4309
2026-01-18 09:04:06.80	337.38	17.79	-46.9	-48.6	18.5	0.00e+00	0	36	0	1197473792	65	4353
2026-01-18 09:04:07.81	337.33	17.67	-47.0	-48.7	18.4	0.00e+00	0	35	0	1199570944	65	4439
2026-01-18 09:04:08.82	337.29	17.55	-47.0	-48.7	18.4	0.00e+00	0	35	0	1201668096	65	4412
2026-01-18 09:04:09.83	337.24	17.44	-47.1	-48.8	18.3	0.00e+00	0	35	0	1203765248	65	4455
2026-01-18 09:04:10.84	337.20	17.32	-47.1	-48.8	18.3	0.00e+00	0	35	0	1204813824	65	4482
2026-01-18 09:04:11.85	337.15	17.21	-47.1	-48.9	18.2	0.00e+00	0	35	0	1206910976	65	4500
2026-01-18 09:04:12.85	337.11	17.09	-47.2	-49.0	18.1	0.00e+00	0	35	0	1209008128	65	4553
2026-01-18 09:04:13.86	337.07	16.98	-47.2	-49.0	18.1	0.00e+00	0	35	0	1211105280	65	4586
2026-01-18 09:04:14.87	337.02	16.86	-47.3	-49.1	17.9	0.00e+00	0	35	0	1213202432	65	4649
2026-01-18 09:04:15.88	336.98	16.75	-47.4	-49.2	17.9	0.00e+00	0	35	0	1214251008	65	4671
2026-01-18 09:04:16.89	336.94	16.64	-47.4	-49.3	17.8	0.00e+00	0	36	0	1216348160	65	4723
2026-01-18 09:04:17.90	336.90	16.52	-47.4	-49.2	17.9	0.00e+00	0	36	0	1218445312	65	4672
2026-01-18 09:04:18.91	336.85	16.41	-47.4	-49.3	17.8	0.00e+00	0	36	0	1220542464	65	4728
2026-01-18 09:04:19.91	336.81	16.30	-47.4	-49.2	17.9	0.00e+00	0	35	0	1222639616	65	4685
2026-01-18 09:04:20.92	336.77	16.19	-47.4	-49.3	17.8	0.00e+00	0	36	0	1223688192	65	4707
2026-01-18 09:04:21.93	336.73	16.08	-47.5	-49.3	17.7	0.00e+00	0	36	0	1225785344	65	4742
2026-01-18 09:04:22.94	336.69	15.97	-47.5	-49.4	17.7	0.00e+00	0	36	0	1227882496	65	4764
2026-01-18 09:04:23.94	336.65	15.86	-47.5	-49.4	17.7	0.00e+00	0	35	0	1229979648	65	4776
2026-01-18 09:04:24.95	336.61	15.75	-47.5	-49.4	17.7	0.00e+00	0	35	0	1232076800	65	4788
2026-01-18 09:04:25.96	336.57	15.64	-47.6	-49.5	17.6	0.00e+00	0	36	0	1233125376	65	4823
2026-01-18 09:04:26.97	336.53	15.54	-47.6	-49.5	17.5	0.00e+00	0	36	0	1235222528	65	4852
