passes_logs/2026/01/18/R3.2S_Murmansk/R3.2S_Murmansk__20260118_143429_FENGYUN_3D_rec.log

#Pass ID: 20260118_143429_FENGYUN 3D
#Satellite: FENGYUN 3D
#Configuration: FENGYUN 3D
#almurnet v.1.7.20251203
#Start time: 2026-01-18 14:34:29

#Version: 2.2.20231116
#Station: R3.2S_Murmansk
#Location: 33.079688 lon 68.888172 lat
#TLE: 1 43010U 17072A   26017.61121112  .00000213  00000+0  12257-3 0  9991
#TLE: 2 43010  98.9934 349.4672 0002374 103.9362 256.2078 14.19696413423628

#Time	Az	El	Level	Level2	SNR	BER	BlckErr	Temp	State	Recorded	gain1	gain2
2026-01-18 14:34:29.48	229.05	2.02	-52.4	-64.3	3.8	8.45e-01	0	34	0	0	76	14142
2026-01-18 14:34:30.49	229.14	2.07	-52.3	-64.3	3.8	8.47e-01	0	34	104	0	75	14933
2026-01-18 14:34:31.50	229.23	2.12	-52.3	-64.3	3.8	8.45e-01	0	34	104	0	75	14902
2026-01-18 14:34:32.51	229.32	2.17	-52.3	-64.3	3.8	8.46e-01	0	34	104	0	75	14890
2026-01-18 14:34:33.52	229.41	2.22	-52.3	-64.3	3.8	8.47e-01	0	35	104	0	75	14914
2026-01-18 14:34:34.53	229.50	2.27	-52.3	-64.3	3.8	8.46e-01	0	35	104	0	75	14898
2026-01-18 14:34:35.53	229.59	2.32	-52.3	-64.2	3.8	8.47e-01	0	35	104	0	75	14854
2026-01-18 14:34:36.54	229.68	2.37	-52.3	-64.2	3.8	8.47e-01	0	35	104	0	75	14799
2026-01-18 14:34:37.55	229.77	2.42	-52.3	-64.1	3.8	8.46e-01	0	35	104	0	75	14651
2026-01-18 14:34:38.56	229.86	2.47	-52.3	-64.1	3.8	8.47e-01	0	35	104	0	75	14645
2026-01-18 14:34:39.56	229.95	2.52	-52.3	-64.2	3.8	8.45e-01	0	35	104	0	75	14740
2026-01-18 14:34:40.57	230.04	2.57	-52.3	-64.2	3.8	8.46e-01	0	35	104	0	75	14747
2026-01-18 14:34:41.58	230.13	2.63	-52.3	-64.2	3.8	8.46e-01	0	35	104	0	75	14753
2026-01-18 14:34:42.59	230.23	2.68	-52.3	-64.1	3.8	8.47e-01	0	35	104	0	75	14615
2026-01-18 14:34:43.60	230.32	2.73	-52.3	-64.1	3.8	8.46e-01	0	35	104	0	75	14685
2026-01-18 14:34:44.61	230.41	2.78	-52.3	-64.1	3.8	8.47e-01	0	35	104	0	75	14677
2026-01-18 14:34:45.62	230.50	2.83	-52.3	-64.1	3.8	8.46e-01	0	35	104	0	75	14708
2026-01-18 14:34:46.62	230.60	2.88	-52.3	-64.2	3.8	8.46e-01	0	35	104	0	75	14775
2026-01-18 14:34:47.63	230.69	2.93	-52.3	-64.2	3.8	8.47e-01	0	35	104	0	75	14808
2026-01-18 14:34:48.64	230.78	2.98	-52.3	-64.3	3.8	8.47e-01	0	35	104	0	75	14884
2026-01-18 14:34:49.65	230.88	3.03	-52.3	-64.2	3.8	8.46e-01	0	35	104	0	75	14858
2026-01-18 14:34:50.66	230.97	3.08	-52.3	-64.2	3.8	8.46e-01	0	35	104	0	75	14833
2026-01-18 14:34:51.67	231.07	3.13	-52.3	-64.2	3.8	8.45e-01	0	35	104	0	75	14768
2026-01-18 14:34:52.67	231.16	3.18	-52.3	-64.1	3.8	8.45e-01	0	35	104	0	75	14636
2026-01-18 14:34:53.68	231.26	3.23	-52.3	-64.0	3.8	8.46e-01	0	35	104	0	75	14525
2026-01-18 14:34:54.69	231.35	3.28	-52.3	-64.1	3.8	8.45e-01	0	35	104	0	75	14587
2026-01-18 14:34:55.70	231.45	3.33	-52.3	-64.2	3.8	8.47e-01	0	35	104	0	75	14712
2026-01-18 14:34:56.71	231.55	3.38	-52.3	-64.2	3.8	8.46e-01	0	35	104	0	75	14736
2026-01-18 14:34:57.71	231.64	3.43	-52.3	-64.2	3.8	8.45e-01	0	35	104	0	75	14785
2026-01-18 14:34:58.72	231.74	3.49	-52.3	-64.2	3.8	8.46e-01	0	35	104	0	75	14831
2026-01-18 14:34:59.73	231.84	3.54	-52.3	-64.2	3.8	8.46e-01	0	36	104	0	75	14798
2026-01-18 14:35:00.74	231.93	3.59	-52.3	-64.2	3.8	8.46e-01	0	35	104	0	75	14800
2026-01-18 14:35:01.74	232.03	3.64	-52.3	-64.2	3.8	8.46e-01	0	35	104	0	75	14814
2026-01-18 14:35:02.75	232.13	3.69	-52.3	-64.1	3.8	8.47e-01	0	36	104	0	75	14626
2026-01-18 14:35:03.76	232.23	3.74	-52.3	-64.1	3.8	8.46e-01	0	35	104	0	75	14579
2026-01-18 14:35:04.77	232.33	3.79	-52.3	-63.9	3.8	8.47e-01	0	35	104	0	75	14218
2026-01-18 14:35:05.78	232.43	3.84	-52.3	-63.9	3.8	8.46e-01	0	36	104	0	75	14284
2026-01-18 14:35:06.79	232.53	3.89	-52.3	-64.0	3.8	8.46e-01	0	36	104	0	75	14493
2026-01-18 14:35:07.79	232.63	3.94	-52.3	-64.0	3.8	8.46e-01	0	36	104	0	75	14526
2026-01-18 14:35:08.80	232.73	3.99	-52.3	-64.1	3.8	8.47e-01	0	35	104	0	75	14561
2026-01-18 14:35:09.81	232.83	4.05	-52.3	-63.9	3.8	8.46e-01	0	36	104	0	75	14299
2026-01-18 14:35:10.81	232.93	4.10	-52.3	-63.9	3.8	8.48e-01	0	35	104	0	75	14252
2026-01-18 14:35:11.82	233.03	4.15	-52.3	-63.8	3.8	8.47e-01	0	36	104	0	75	14182
2026-01-18 14:35:12.83	233.13	4.20	-52.3	-64.0	3.8	8.47e-01	0	36	104	0	75	14471
2026-01-18 14:35:13.84	233.23	4.25	-52.3	-64.2	3.8	8.46e-01	0	36	104	0	75	14736
2026-01-18 14:35:14.85	233.33	4.30	-52.3	-64.2	3.8	8.45e-01	0	36	104	0	75	14849
2026-01-18 14:35:15.85	233.44	4.35	-52.2	-63.3	3.8	8.45e-01	0	36	104	0	75	13407
2026-01-18 14:35:16.86	233.54	4.40	-52.0	-61.5	4.0	8.44e-01	0	36	104	0	75	10866
2026-01-18 14:35:17.87	233.64	4.46	-51.6	-58.8	4.9	8.27e-01	0	36	0	0	75	7936
2026-01-18 14:35:18.88	233.75	4.51	-51.3	-57.7	5.7	6.28e-01	0	36	0	0	74	7376
2026-01-18 14:35:19.89	233.85	4.56	-51.4	-57.7	5.6	6.86e-01	0	36	0	4194304	74	7432
2026-01-18 14:35:20.89	233.95	4.61	-50.8	-55.9	7.1	2.18e-01	0	36	0	9437184	73	6383
2026-01-18 14:35:21.90	234.06	4.66	-49.9	-53.6	9.4	4.85e-02	0	36	0	14680064	71	5524
2026-01-18 14:35:22.91	234.16	4.71	-49.0	-51.9	11.2	4.35e-03	0	36	0	20971520	70	4809
2026-01-18 14:35:23.92	234.27	4.76	-47.7	-49.9	13.2	1.92e-04	0	36	0	26214400	67	4533
2026-01-18 14:35:24.93	234.38	4.82	-46.5	-48.3	14.9	0.00e+00	0	36	0	31457280	65	4206
2026-01-18 14:35:25.93	234.48	4.87	-45.6	-47.0	16.2	0.00e+00	0	36	0	37748736	63	4097
2026-01-18 14:35:26.94	234.59	4.92	-44.7	-46.0	17.3	0.00e+00	0	36	0	42991616	61	4097
2026-01-18 14:35:27.95	234.69	4.97	-44.1	-45.4	17.9	0.00e+00	0	36	0	49283072	60	4005
2026-01-18 14:35:28.96	234.80	5.02	-44.4	-45.6	18.0	0.00e+00	0	36	0	54525952	59	4380
2026-01-18 14:35:29.97	234.91	5.07	-44.7	-46.0	17.7	0.00e+00	0	36	0	59768832	59	4560
2026-01-18 14:35:30.98	235.02	5.13	-46.5	-48.2	15.0	0.00e+00	0	36	0	66060288	63	4700
2026-01-18 14:35:31.99	235.13	5.18	-49.1	-52.0	11.4	1.60e-05	0	36	0	72351744	68	5431
2026-01-18 14:35:33.00	235.23	5.23	-46.2	-47.8	15.4	0.00e+00	0	36	0	77594624	64	4240
2026-01-18 14:35:34.00	235.34	5.28	-46.0	-47.5	15.8	0.00e+00	0	36	0	82837504	62	4590
2026-01-18 14:35:35.01	235.45	5.33	-44.3	-45.6	18.1	0.00e+00	0	36	0	89128960	59	4344
2026-01-18 14:35:36.02	235.56	5.38	-44.2	-45.4	18.3	0.00e+00	0	36	0	94371840	59	4243
2026-01-18 14:35:37.03	235.67	5.44	-44.6	-45.8	17.8	0.00e+00	0	36	0	99614720	59	4476
2026-01-18 14:35:38.03	235.78	5.49	-43.8	-45.0	18.7	0.00e+00	0	36	0	105906176	59	4057
2026-01-18 14:35:39.04	235.89	5.54	-44.1	-45.3	18.4	0.00e+00	0	36	0	111149056	59	4222
2026-01-18 14:35:40.05	236.00	5.59	-44.2	-45.4	18.2	0.00e+00	0	36	0	116391936	59	4284
2026-01-18 14:35:41.06	236.12	5.64	-44.3	-45.5	18.2	0.00e+00	0	36	0	122683392	59	4310
2026-01-18 14:35:42.07	236.23	5.69	-44.1	-45.3	18.4	0.00e+00	0	36	0	127926272	59	4208
2026-01-18 14:35:43.08	236.34	5.75	-44.2	-45.3	18.4	0.00e+00	0	36	0	134217728	59	4238
2026-01-18 14:35:44.08	236.45	5.80	-44.2	-45.4	18.3	0.00e+00	0	36	0	139460608	59	4243
2026-01-18 14:35:45.09	236.57	5.85	-44.0	-45.1	18.6	0.00e+00	0	36	0	145752064	59	4121
2026-01-18 14:35:46.10	236.68	5.90	-43.7	-44.8	18.9	0.00e+00	0	36	0	150994944	59	3992
2026-01-18 14:35:47.11	236.79	5.95	-43.7	-44.8	19.0	0.00e+00	0	36	0	157286400	59	3973
2026-01-18 14:35:48.12	236.91	6.00	-44.1	-45.3	18.5	0.00e+00	0	36	0	162529280	59	4213
2026-01-18 14:35:49.13	237.02	6.06	-43.8	-44.9	18.9	0.00e+00	0	36	0	167772160	59	4012
2026-01-18 14:35:50.14	237.14	6.11	-43.8	-44.9	18.8	0.00e+00	0	36	0	174063616	59	4027
2026-01-18 14:35:51.14	237.25	6.16	-43.7	-44.7	19.0	0.00e+00	0	36	0	179306496	59	3957
2026-01-18 14:35:52.15	237.37	6.21	-43.5	-44.6	19.1	0.00e+00	0	36	0	184549376	59	3898
2026-01-18 14:35:53.16	237.49	6.26	-43.7	-44.8	19.0	0.00e+00	0	36	0	190840832	59	3989
2026-01-18 14:35:54.17	237.60	6.32	-43.6	-44.6	19.1	0.00e+00	0	36	0	196083712	59	3913
2026-01-18 14:35:55.18	237.72	6.37	-43.6	-44.7	19.1	0.00e+00	0	36	0	201326592	59	3925
2026-01-18 14:35:56.19	237.84	6.42	-43.6	-44.8	19.0	0.00e+00	0	36	0	207618048	59	3961
2026-01-18 14:35:57.19	237.95	6.47	-43.5	-44.6	19.2	0.00e+00	0	36	0	213909504	59	3901
2026-01-18 14:35:58.20	238.07	6.52	-43.4	-44.4	19.3	0.00e+00	0	36	0	219152384	58	4048
2026-01-18 14:35:59.21	238.19	6.58	-43.7	-44.8	19.0	0.00e+00	0	36	0	224395264	58	4240
2026-01-18 14:36:00.22	238.31	6.63	-43.7	-44.9	19.0	0.00e+00	0	36	0	230686720	58	4250
2026-01-18 14:36:01.23	238.43	6.68	-44.0	-45.1	18.7	0.00e+00	0	36	0	235929600	58	4389
2026-01-18 14:36:02.24	238.55	6.73	-44.0	-45.2	18.7	0.00e+00	0	36	0	242221056	58	4393
2026-01-18 14:36:03.25	238.67	6.78	-43.9	-45.1	18.7	0.00e+00	0	36	0	247463936	58	4362
2026-01-18 14:36:04.25	238.79	6.83	-44.1	-45.3	18.5	0.00e+00	0	36	0	252706816	58	4473
2026-01-18 14:36:05.26	238.91	6.89	-43.8	-44.9	18.9	0.00e+00	0	36	0	258998272	58	4252
2026-01-18 14:36:06.26	239.03	6.94	-43.8	-44.9	18.9	0.00e+00	0	36	0	264241152	58	4261
2026-01-18 14:36:07.27	239.15	6.99	-43.9	-45.0	18.8	0.00e+00	0	36	0	269484032	58	4325
2026-01-18 14:36:08.28	239.28	7.04	-43.8	-45.0	18.9	0.00e+00	0	36	0	275775488	58	4299
2026-01-18 14:36:09.29	239.40	7.09	-43.6	-44.7	19.2	0.00e+00	0	36	0	282066944	58	4164
2026-01-18 14:36:10.30	239.52	7.15	-43.4	-44.5	19.4	0.00e+00	0	36	0	287309824	58	4073
2026-01-18 14:36:11.31	239.65	7.20	-43.4	-44.5	19.4	0.00e+00	0	36	0	292552704	58	4058
2026-01-18 14:36:12.32	239.77	7.25	-43.4	-44.5	19.4	0.00e+00	0	36	0	298844160	58	4061
2026-01-18 14:36:13.32	239.90	7.30	-43.7	-44.8	19.1	0.00e+00	0	36	0	304087040	58	4208
2026-01-18 14:36:14.33	240.02	7.35	-43.6	-44.6	19.3	0.00e+00	0	36	0	309329920	58	4142
2026-01-18 14:36:15.34	240.15	7.41	-43.5	-44.6	19.3	0.00e+00	0	36	0	315621376	58	4111
2026-01-18 14:36:16.35	240.27	7.46	-43.7	-44.8	19.1	0.00e+00	0	36	0	320864256	58	4235
2026-01-18 14:36:17.36	240.40	7.51	-43.6	-44.7	19.3	0.00e+00	0	36	0	327155712	58	4150
2026-01-18 14:36:18.36	240.52	7.56	-43.4	-44.4	19.5	0.00e+00	0	36	0	332398592	58	4049
2026-01-18 14:36:19.37	240.65	7.61	-43.3	-44.4	19.5	0.00e+00	0	36	0	337641472	58	4010
2026-01-18 14:36:20.38	240.78	7.66	-43.4	-44.4	19.5	0.00e+00	0	36	0	343932928	58	4022
2026-01-18 14:36:21.39	240.91	7.72	-43.4	-44.4	19.5	0.00e+00	0	36	0	350224384	58	4041
2026-01-18 14:36:22.40	241.04	7.77	-43.7	-44.7	19.2	0.00e+00	0	36	0	355467264	58	4181
2026-01-18 14:36:23.41	241.16	7.82	-43.5	-44.5	19.4	0.00e+00	0	36	0	360710144	58	4098
2026-01-18 14:36:24.41	241.29	7.87	-43.3	-44.4	19.6	0.00e+00	0	36	0	367001600	58	4015
2026-01-18 14:36:25.42	241.42	7.92	-43.4	-44.4	19.6	0.00e+00	0	36	0	372244480	58	4025
2026-01-18 14:36:26.43	241.55	7.98	-43.2	-44.2	19.8	0.00e+00	0	36	0	377487360	58	3929
2026-01-18 14:36:27.44	241.68	8.03	-43.1	-44.2	19.8	0.00e+00	0	36	0	383778816	58	3917
2026-01-18 14:36:28.44	241.81	8.08	-43.2	-44.3	19.7	0.00e+00	0	36	0	389021696	58	3973
2026-01-18 14:36:29.45	241.95	8.13	-43.4	-44.4	19.6	0.00e+00	0	36	0	394264576	58	4021
2026-01-18 14:36:30.46	242.08	8.18	-43.4	-44.4	19.5	0.00e+00	0	36	0	400556032	58	4035
2026-01-18 14:36:31.47	242.21	8.23	-43.3	-44.3	19.6	0.00e+00	0	36	0	405798912	58	3999
2026-01-18 14:36:32.48	242.34	8.29	-43.1	-44.1	19.9	0.00e+00	0	36	0	412090368	58	3878
2026-01-18 14:36:33.49	242.48	8.34	-43.0	-44.0	20.0	0.00e+00	0	36	0	417333248	57	4075
2026-01-18 14:36:34.50	242.61	8.39	-43.0	-44.0	19.9	0.00e+00	0	36	0	423624704	57	4094
2026-01-18 14:36:35.51	242.74	8.44	-42.9	-43.8	20.1	0.00e+00	0	36	0	428867584	57	4000
2026-01-18 14:36:36.51	242.88	8.49	-42.9	-43.8	20.1	0.00e+00	0	36	0	435159040	57	3997
2026-01-18 14:36:37.52	243.01	8.54	-42.9	-43.9	20.1	0.00e+00	0	36	0	440401920	57	4017
2026-01-18 14:36:38.53	243.15	8.59	-43.0	-44.0	20.0	0.00e+00	0	36	0	445644800	57	4064
2026-01-18 14:36:39.54	243.29	8.65	-42.8	-43.8	20.2	0.00e+00	0	36	0	451936256	57	3972
2026-01-18 14:36:40.55	243.42	8.70	-42.9	-43.9	20.1	0.00e+00	0	36	0	457179136	57	4035
2026-01-18 14:36:41.56	243.56	8.75	-43.3	-44.4	19.7	0.00e+00	0	36	0	462422016	57	4243
2026-01-18 14:36:42.56	243.70	8.80	-43.2	-44.2	19.8	0.00e+00	0	36	0	468713472	57	4166
2026-01-18 14:36:43.57	243.83	8.85	-43.1	-44.1	19.9	0.00e+00	0	36	0	473956352	57	4140
2026-01-18 14:36:44.58	243.97	8.90	-43.1	-44.2	19.8	0.00e+00	0	36	0	480247808	57	4148
2026-01-18 14:36:45.59	244.11	8.95	-42.9	-43.9	20.1	0.00e+00	0	36	0	485490688	57	4046
2026-01-18 14:36:46.60	244.25	9.00	-43.0	-44.0	20.1	0.00e+00	0	36	0	491782144	57	4062
2026-01-18 14:36:47.61	244.39	9.06	-43.1	-44.1	20.0	0.00e+00	0	36	0	497025024	57	4110
2026-01-18 14:36:48.61	244.53	9.11	-43.0	-44.0	20.1	0.00e+00	0	36	0	502267904	57	4059
2026-01-18 14:36:49.62	244.67	9.16	-42.9	-43.9	20.1	0.00e+00	0	36	0	508559360	57	4046
2026-01-18 14:36:50.63	244.81	9.21	-42.8	-43.8	20.2	0.00e+00	0	36	0	513802240	57	3990
2026-01-18 14:36:51.63	244.95	9.26	-42.9	-43.9	20.2	0.00e+00	0	36	0	520093696	57	4015
2026-01-18 14:36:52.64	245.09	9.31	-42.9	-43.9	20.2	0.00e+00	0	36	0	525336576	57	4019
2026-01-18 14:36:53.65	245.24	9.36	-42.7	-43.6	20.4	0.00e+00	0	36	0	530579456	57	3905
2026-01-18 14:36:54.66	245.38	9.41	-42.8	-43.7	20.3	0.00e+00	0	36	0	536870912	57	3950
2026-01-18 14:36:55.67	245.52	9.46	-42.7	-43.7	20.3	0.00e+00	0	36	0	542113792	57	3936
2026-01-18 14:36:56.68	245.67	9.51	-42.9	-43.8	20.2	0.00e+00	0	36	0	547356672	57	3995
2026-01-18 14:36:57.69	245.81	9.56	-42.7	-43.6	20.5	0.00e+00	0	36	0	553648128	57	3902
2026-01-18 14:36:58.70	245.96	9.61	-42.8	-43.7	20.3	0.00e+00	0	36	0	559939584	57	3948
2026-01-18 14:36:59.70	246.10	9.66	-42.8	-43.7	20.4	0.00e+00	0	36	0	565182464	57	3941
2026-01-18 14:37:00.71	246.25	9.71	-42.8	-43.7	20.4	0.00e+00	0	36	0	570425344	57	3944
2026-01-18 14:37:01.72	246.40	9.76	-42.7	-43.7	20.4	0.00e+00	0	36	0	576716800	57	3922
2026-01-18 14:37:02.72	246.54	9.81	-42.7	-43.7	20.4	0.00e+00	0	36	0	581959680	57	3938
2026-01-18 14:37:03.73	246.69	9.87	-42.8	-43.7	20.4	0.00e+00	0	36	0	587202560	57	3956
2026-01-18 14:37:04.74	246.84	9.92	-42.9	-43.9	20.2	0.00e+00	0	36	0	593494016	57	4020
2026-01-18 14:37:05.75	246.99	9.97	-42.7	-43.6	20.5	0.00e+00	0	36	0	598736896	57	3909
2026-01-18 14:37:06.76	247.14	10.02	-42.6	-43.5	20.6	0.00e+00	0	36	0	605028352	57	3864
2026-01-18 14:37:07.77	247.28	10.07	-42.6	-43.5	20.6	0.00e+00	0	36	0	610271232	57	3848
2026-01-18 14:37:08.77	247.43	10.12	-42.6	-43.6	20.5	0.00e+00	0	36	0	615514112	57	3885
2026-01-18 14:37:09.78	247.58	10.17	-42.7	-43.7	20.5	0.00e+00	0	36	0	621805568	57	3916
2026-01-18 14:37:10.79	247.74	10.22	-42.5	-43.4	20.7	0.00e+00	0	36	0	628097024	57	3812
2026-01-18 14:37:11.80	247.89	10.26	-42.6	-43.5	20.7	0.00e+00	0	36	0	633339904	56	4072
2026-01-18 14:37:12.81	248.04	10.31	-42.5	-43.5	20.7	0.00e+00	0	36	0	638582784	56	4060
2026-01-18 14:37:13.81	248.19	10.36	-42.5	-43.5	20.6	0.00e+00	0	36	0	644874240	56	4069
2026-01-18 14:37:14.82	248.34	10.41	-42.7	-43.6	20.5	0.00e+00	0	36	0	650117120	56	4141
2026-01-18 14:37:15.83	248.50	10.46	-42.6	-43.6	20.6	0.00e+00	0	36	0	655360000	56	4110
2026-01-18 14:37:16.84	248.65	10.51	-42.6	-43.6	20.6	0.00e+00	0	36	0	661651456	56	4103
2026-01-18 14:37:17.85	248.81	10.56	-42.4	-43.4	20.8	0.00e+00	0	36	0	666894336	56	4011
2026-01-18 14:37:18.86	248.96	10.61	-42.5	-43.5	20.7	0.00e+00	0	36	0	672137216	56	4068
2026-01-18 14:37:19.87	249.12	10.66	-42.6	-43.5	20.6	0.00e+00	0	36	0	678428672	56	4076
2026-01-18 14:37:20.87	249.27	10.71	-42.6	-43.6	20.6	0.00e+00	0	36	0	683671552	56	4106
2026-01-18 14:37:21.88	249.43	10.76	-42.6	-43.6	20.6	0.00e+00	0	36	0	689963008	56	4100
2026-01-18 14:37:22.89	249.58	10.81	-42.6	-43.5	20.7	0.00e+00	0	36	0	695205888	56	4077
2026-01-18 14:37:23.90	249.74	10.86	-42.6	-43.5	20.6	0.00e+00	0	36	0	701497344	56	4085
2026-01-18 14:37:24.90	249.90	10.90	-42.6	-43.5	20.6	0.00e+00	0	36	0	706740224	56	4096
2026-01-18 14:37:25.91	250.06	10.95	-42.5	-43.4	20.8	0.00e+00	0	36	0	713031680	56	4033
2026-01-18 14:37:26.92	250.22	11.00	-42.5	-43.4	20.8	0.00e+00	0	36	0	718274560	56	4035
2026-01-18 14:37:27.92	250.37	11.05	-42.4	-43.4	20.8	0.00e+00	0	36	0	723517440	56	4010
2026-01-18 14:37:28.93	250.53	11.10	-42.4	-43.3	20.9	0.00e+00	0	36	0	729808896	56	3985
2026-01-18 14:37:29.94	250.70	11.14	-42.3	-43.2	20.9	0.00e+00	0	36	0	735051776	56	3958
2026-01-18 14:37:30.95	250.86	11.19	-42.1	-43.0	21.1	0.00e+00	0	36	0	740294656	56	3855
2026-01-18 14:37:31.96	251.02	11.24	-42.2	-43.1	21.1	0.00e+00	0	36	0	746586112	56	3873
2026-01-18 14:37:32.97	251.18	11.29	-42.2	-43.1	21.1	0.00e+00	0	36	0	751828992	56	3871
2026-01-18 14:37:33.98	251.34	11.34	-42.2	-43.1	21.1	0.00e+00	0	36	0	757071872	56	3885
2026-01-18 14:37:34.99	251.51	11.38	-42.1	-43.0	21.1	0.00e+00	0	36	0	763363328	56	3861
2026-01-18 14:37:35.99	251.67	11.43	-42.2	-43.1	21.1	0.00e+00	0	36	0	769654784	56	3896
2026-01-18 14:37:37.00	251.83	11.48	-42.2	-43.1	21.0	0.00e+00	0	36	0	774897664	56	3911
2026-01-18 14:37:38.01	252.00	11.53	-42.2	-43.2	21.0	0.00e+00	0	36	0	780140544	56	3922
2026-01-18 14:37:39.02	252.16	11.57	-42.2	-43.1	21.1	0.00e+00	0	36	0	786432000	56	3882
2026-01-18 14:37:40.02	252.33	11.62	-42.2	-43.1	21.0	0.00e+00	0	36	0	791674880	56	3911
2026-01-18 14:37:41.03	252.49	11.67	-42.1	-43.0	21.2	0.00e+00	0	36	0	797966336	56	3833
2026-01-18 14:37:42.04	252.66	11.71	-42.1	-43.0	21.2	0.00e+00	0	36	0	803209216	56	3841
2026-01-18 14:37:43.04	252.83	11.76	-42.1	-43.0	21.2	0.00e+00	0	36	0	808452096	56	3847
2026-01-18 14:37:44.05	252.99	11.81	-42.2	-43.1	21.1	0.00e+00	0	36	0	814743552	56	3888
2026-01-18 14:37:45.07	253.16	11.85	-42.0	-43.0	21.2	0.00e+00	0	36	0	819986432	56	3825
2026-01-18 14:37:46.07	253.33	11.90	-42.1	-43.0	21.2	0.00e+00	0	36	0	825229312	56	3864
2026-01-18 14:37:47.08	253.50	11.94	-42.2	-43.1	21.1	0.00e+00	0	36	0	831520768	56	3891
2026-01-18 14:37:48.09	253.67	11.99	-42.2	-43.1	21.1	0.00e+00	0	36	0	837812224	56	3872
2026-01-18 14:37:49.10	253.84	12.04	-42.1	-43.0	21.2	0.00e+00	0	36	0	843055104	56	3864
2026-01-18 14:37:50.10	254.01	12.08	-42.2	-43.1	21.1	0.00e+00	0	36	0	848297984	56	3882
2026-01-18 14:37:51.11	254.18	12.13	-42.0	-42.9	21.3	0.00e+00	0	36	0	854589440	56	3819
2026-01-18 14:37:52.12	254.35	12.17	-42.1	-43.0	21.2	0.00e+00	0	36	0	859832320	56	3834
2026-01-18 14:37:53.13	254.52	12.22	-42.0	-42.9	21.3	0.00e+00	0	36	0	865075200	56	3799
2026-01-18 14:37:54.13	254.70	12.26	-42.1	-43.0	21.2	0.00e+00	0	36	0	871366656	56	3837
2026-01-18 14:37:55.14	254.87	12.31	-42.0	-42.9	21.3	0.00e+00	0	36	0	876609536	56	3786
2026-01-18 14:37:56.15	255.04	12.35	-41.9	-42.8	21.3	0.00e+00	0	36	0	882900992	55	4000
2026-01-18 14:37:57.16	255.22	12.40	-41.9	-42.7	21.4	0.00e+00	0	36	0	888143872	55	3951
2026-01-18 14:37:58.17	255.39	12.44	-41.9	-42.8	21.3	0.00e+00	0	36	0	893386752	55	3995
2026-01-18 14:37:59.18	255.57	12.49	-41.9	-42.7	21.4	0.00e+00	0	36	0	899678208	55	3956
2026-01-18 14:38:00.19	255.74	12.53	-41.9	-42.8	21.3	0.00e+00	0	36	0	905969664	55	3969
2026-01-18 14:38:01.19	255.92	12.57	-41.8	-42.7	21.4	0.00e+00	0	36	0	911212544	55	3926
2026-01-18 14:38:02.20	256.10	12.62	-41.8	-42.7	21.4	0.00e+00	0	36	0	916455424	55	3946
2026-01-18 14:38:03.20	256.27	12.66	-41.9	-42.7	21.4	0.00e+00	0	36	0	922746880	55	3953
2026-01-18 14:38:04.21	256.45	12.71	-41.9	-42.8	21.3	0.00e+00	0	36	0	927989760	55	3974
2026-01-18 14:38:05.22	256.63	12.75	-41.8	-42.7	21.4	0.00e+00	0	36	0	933232640	55	3930
2026-01-18 14:38:06.23	256.81	12.79	-41.7	-42.6	21.6	0.00e+00	0	36	0	939524096	55	3879
2026-01-18 14:38:07.24	256.99	12.83	-41.8	-42.6	21.5	0.00e+00	0	36	0	944766976	55	3901
2026-01-18 14:38:08.25	257.17	12.88	-41.8	-42.7	21.4	0.00e+00	0	36	0	950009856	55	3929
2026-01-18 14:38:09.26	257.35	12.92	-41.7	-42.5	21.6	0.00e+00	0	36	0	956301312	55	3867
2026-01-18 14:38:10.26	257.53	12.96	-41.6	-42.4	21.7	0.00e+00	0	36	0	961544192	55	3806
2026-01-18 14:38:11.27	257.71	13.00	-41.4	-42.2	21.9	0.00e+00	0	36	0	967835648	54	3950
2026-01-18 14:38:12.28	257.89	13.05	-41.4	-42.2	21.9	0.00e+00	0	36	0	973078528	54	3924
2026-01-18 14:38:13.29	258.07	13.09	-41.4	-42.2	21.9	0.00e+00	0	36	0	979369984	54	3947
2026-01-18 14:38:14.30	258.26	13.13	-41.4	-42.3	21.8	0.00e+00	0	36	0	984612864	54	3972
2026-01-18 14:38:15.30	258.44	13.17	-41.4	-42.2	21.9	0.00e+00	0	36	0	990904320	54	3956
2026-01-18 14:38:16.31	258.62	13.21	-41.5	-42.3	21.8	0.00e+00	0	36	0	996147200	54	3982
2026-01-18 14:38:17.32	258.81	13.25	-41.5	-42.3	21.8	0.00e+00	0	36	0	1001390080	54	4002
2026-01-18 14:38:18.33	258.99	13.29	-41.6	-42.4	21.7	0.00e+00	0	36	0	1007681536	54	4050
2026-01-18 14:38:19.34	259.18	13.34	-41.7	-42.5	21.6	0.00e+00	0	36	0	1012924416	54	4095
2026-01-18 14:38:20.35	259.36	13.38	-41.8	-42.6	21.5	0.00e+00	0	36	0	1018167296	54	4129
2026-01-18 14:38:21.35	259.55	13.42	-41.5	-42.4	21.8	0.00e+00	0	36	0	1024458752	54	4012
2026-01-18 14:38:22.36	259.73	13.46	-41.5	-42.3	21.8	0.00e+00	0	36	0	1029701632	54	3982
2026-01-18 14:38:23.37	259.92	13.50	-41.6	-42.4	21.7	0.00e+00	0	36	0	1034944512	54	4038
2026-01-18 14:38:24.38	260.11	13.54	-41.6	-42.5	21.7	0.00e+00	0	36	0	1041235968	54	4058
2026-01-18 14:38:25.39	260.30	13.58	-41.4	-42.2	21.9	0.00e+00	0	36	0	1047527424	54	3954
2026-01-18 14:38:26.40	260.49	13.61	-41.2	-42.1	22.1	0.00e+00	0	36	0	1052770304	54	3882
2026-01-18 14:38:27.40	260.67	13.65	-41.4	-42.2	22.0	0.00e+00	0	36	0	1058013184	54	3927
2026-01-18 14:38:28.41	260.86	13.69	-41.5	-42.3	21.8	0.00e+00	0	36	0	1064304640	54	3993
2026-01-18 14:38:29.42	261.06	13.73	-41.5	-42.3	21.8	0.00e+00	0	36	0	1069547520	54	4004
2026-01-18 14:38:30.43	261.25	13.77	-41.6	-42.5	21.7	0.00e+00	0	36	0	1075838976	54	4055
2026-01-18 14:38:31.44	261.44	13.81	-41.7	-42.6	21.6	0.00e+00	0	36	0	1081081856	54	4103
2026-01-18 14:38:32.44	261.63	13.84	-41.8	-42.7	21.5	0.00e+00	0	36	0	1086324736	54	4155
2026-01-18 14:38:33.45	261.82	13.88	-41.8	-42.7	21.5	0.00e+00	0	36	0	1092616192	54	4176
2026-01-18 14:38:34.46	262.01	13.92	-41.8	-42.6	21.5	0.00e+00	0	36	0	1097859072	54	4143
2026-01-18 14:38:35.47	262.21	13.96	-41.6	-42.4	21.7	0.00e+00	0	36	0	1103101952	54	4046
2026-01-18 14:38:36.48	262.40	13.99	-41.4	-42.2	21.9	0.00e+00	0	36	0	1109393408	54	3954
2026-01-18 14:38:37.49	262.59	14.03	-41.3	-42.2	22.0	0.00e+00	0	36	0	1115684864	54	3917
2026-01-18 14:38:38.50	262.79	14.07	-41.3	-42.1	22.0	0.00e+00	0	36	0	1120927744	54	3906
2026-01-18 14:38:39.51	262.98	14.10	-41.4	-42.2	21.9	0.00e+00	0	36	0	1126170624	54	3947
2026-01-18 14:38:40.52	263.18	14.14	-41.2	-42.0	22.1	0.00e+00	0	36	0	1132462080	54	3845
2026-01-18 14:38:41.53	263.37	14.17	-41.2	-42.0	22.1	0.00e+00	0	36	0	1137704960	54	3854
2026-01-18 14:38:42.54	263.57	14.21	-41.2	-42.0	22.1	0.00e+00	0	36	0	1142947840	54	3866
2026-01-18 14:38:43.54	263.77	14.24	-41.4	-42.2	21.9	0.00e+00	0	36	0	1149239296	54	3940
2026-01-18 14:38:44.55	263.96	14.28	-41.4	-42.2	21.9	0.00e+00	0	36	0	1154482176	54	3947
2026-01-18 14:38:45.56	264.16	14.31	-41.4	-42.3	21.9	0.00e+00	0	36	0	1160773632	54	3967
2026-01-18 14:38:46.57	264.36	14.35	-41.5	-42.3	21.8	0.00e+00	0	36	0	1166016512	54	3992
2026-01-18 14:38:47.57	264.56	14.38	-41.4	-42.2	21.9	0.00e+00	0	36	0	1171259392	54	3956
2026-01-18 14:38:48.58	264.76	14.42	-41.3	-42.2	22.0	0.00e+00	0	36	0	1177550848	54	3930
2026-01-18 14:38:49.59	264.95	14.45	-41.4	-42.2	22.0	0.00e+00	0	36	0	1183842304	54	3947
2026-01-18 14:38:50.60	265.15	14.48	-41.3	-42.2	22.0	0.00e+00	0	36	0	1189085184	54	3936
2026-01-18 14:38:51.61	265.36	14.52	-41.2	-42.0	22.1	0.00e+00	0	36	0	1194328064	54	3844
2026-01-18 14:38:52.61	265.55	14.55	-41.0	-41.8	22.3	0.00e+00	0	36	0	1200619520	54	3776
2026-01-18 14:38:53.62	265.76	14.58	-41.0	-41.8	22.3	0.00e+00	0	36	0	1205862400	54	3775
2026-01-18 14:38:54.63	265.96	14.61	-41.0	-41.8	22.3	0.00e+00	0	36	0	1211105280	54	3762
2026-01-18 14:38:55.64	266.16	14.64	-41.0	-41.8	22.3	0.00e+00	0	36	0	1217396736	54	3759
2026-01-18 14:38:56.65	266.36	14.68	-41.1	-41.9	22.3	0.00e+00	0	36	0	1222639616	54	3784
2026-01-18 14:38:57.66	266.56	14.71	-41.0	-41.8	22.3	0.00e+00	0	36	0	1227882496	54	3761
2026-01-18 14:38:58.66	266.77	14.74	-41.2	-42.0	22.1	0.00e+00	0	36	0	1234173952	54	3855
2026-01-18 14:38:59.68	266.97	14.77	-41.1	-41.9	22.2	0.00e+00	0	36	0	1239416832	54	3809
2026-01-18 14:39:00.69	267.18	14.80	-41.1	-42.0	22.2	0.00e+00	0	36	0	1245708288	54	3827
2026-01-18 14:39:01.69	267.38	14.83	-41.1	-42.0	22.2	0.00e+00	0	36	0	1250951168	54	3831
2026-01-18 14:39:02.70	267.58	14.86	-41.2	-42.1	22.1	0.00e+00	0	36	0	1257242624	54	3882
2026-01-18 14:39:03.71	267.79	14.89	-41.2	-42.1	22.1	0.00e+00	0	36	0	1262485504	54	3881
2026-01-18 14:39:04.72	267.99	14.92	-41.3	-42.2	22.0	0.00e+00	0	36	0	1268776960	54	3918
2026-01-18 14:39:05.73	268.20	14.95	-41.1	-41.9	22.3	0.00e+00	0	36	0	1274019840	54	3801
2026-01-18 14:39:06.73	268.41	14.98	-41.1	-42.0	22.2	0.00e+00	0	36	0	1279262720	54	3827
2026-01-18 14:39:07.74	268.61	15.00	-41.2	-42.0	22.2	0.00e+00	0	36	0	1285554176	54	3840
2026-01-18 14:39:08.75	268.82	15.03	-41.1	-41.9	22.2	0.00e+00	0	36	0	1290797056	54	3824
2026-01-18 14:39:09.76	269.03	15.06	-41.1	-41.9	22.2	0.00e+00	0	36	0	1296039936	54	3811
2026-01-18 14:39:10.77	269.23	15.09	-41.1	-41.9	22.2	0.00e+00	0	36	0	1302331392	54	3823
2026-01-18 14:39:11.77	269.44	15.11	-41.2	-42.0	22.2	0.00e+00	0	36	0	1307574272	54	3841
2026-01-18 14:39:12.78	269.65	15.14	-41.3	-42.1	22.0	0.00e+00	0	36	0	1313865728	54	3905
2026-01-18 14:39:13.79	269.86	15.17	-41.3	-42.2	22.0	0.00e+00	0	36	0	1319108608	54	3926
2026-01-18 14:39:14.80	270.07	15.19	-41.4	-42.3	21.9	0.00e+00	0	36	0	1325400064	54	3965
2026-01-18 14:39:15.80	270.28	15.22	-41.4	-42.2	22.0	0.00e+00	0	36	0	1330642944	54	3944
2026-01-18 14:39:16.81	270.49	15.24	-41.3	-42.2	22.0	0.00e+00	0	36	0	1335885824	54	3924
2026-01-18 14:39:17.82	270.70	15.27	-41.1	-42.0	22.2	0.00e+00	0	36	0	1342177280	54	3836
2026-01-18 14:39:18.83	270.91	15.29	-41.2	-42.0	22.1	0.00e+00	0	36	0	1347420160	54	3866
2026-01-18 14:39:19.83	271.12	15.32	-41.1	-41.9	22.3	0.00e+00	0	36	0	1353711616	54	3791
2026-01-18 14:39:20.84	271.33	15.34	-41.1	-41.9	22.3	0.00e+00	0	36	0	1358954496	54	3809
2026-01-18 14:39:21.85	271.54	15.36	-41.2	-42.0	22.2	0.00e+00	0	36	0	1364197376	54	3841
2026-01-18 14:39:22.85	271.75	15.39	-41.2	-42.0	22.1	0.00e+00	0	36	0	1370488832	54	3860
2026-01-18 14:39:23.86	271.96	15.41	-41.2	-42.1	22.1	0.00e+00	0	36	0	1375731712	54	3870
2026-01-18 14:39:24.87	272.18	15.43	-41.3	-42.1	22.1	0.00e+00	0	36	0	1380974592	54	3892
2026-01-18 14:39:25.88	272.39	15.46	-41.2	-42.1	22.1	0.00e+00	0	36	0	1387266048	54	3891
2026-01-18 14:39:26.89	272.60	15.48	-41.3	-42.1	22.1	0.00e+00	0	36	0	1393557504	54	3905
2026-01-18 14:39:27.89	272.81	15.50	-41.3	-42.2	22.1	0.00e+00	0	36	0	1398800384	54	3916
2026-01-18 14:39:28.90	273.03	15.52	-41.2	-42.0	22.2	0.00e+00	0	36	0	1404043264	54	3855
2026-01-18 14:39:29.91	273.24	15.54	-41.0	-41.9	22.3	0.00e+00	0	36	0	1410334720	54	3788
2026-01-18 14:39:30.92	273.46	15.56	-41.1	-42.0	22.2	0.00e+00	0	36	0	1415577600	54	3828
2026-01-18 14:39:31.93	273.67	15.58	-41.2	-42.0	22.2	0.00e+00	0	36	0	1420820480	54	3846
2026-01-18 14:39:32.93	273.88	15.60	-41.1	-41.9	22.3	0.00e+00	0	36	0	1427111936	54	3811
2026-01-18 14:39:33.94	274.10	15.62	-41.2	-42.0	22.2	0.00e+00	0	36	0	1432354816	54	3839
2026-01-18 14:39:34.95	274.31	15.64	-41.1	-41.9	22.3	0.00e+00	0	36	0	1438646272	54	3796
2026-01-18 14:39:35.96	274.53	15.66	-41.1	-42.0	22.2	0.00e+00	0	36	0	1443889152	54	3835
2026-01-18 14:39:36.97	274.75	15.68	-41.2	-42.1	22.2	0.00e+00	0	36	0	1449132032	54	3877
2026-01-18 14:39:37.97	274.96	15.69	-41.4	-42.3	22.0	0.00e+00	0	36	0	1455423488	54	3964
2026-01-18 14:39:38.98	275.18	15.71	-41.4	-42.3	21.9	0.00e+00	0	36	0	1461714944	54	3979
2026-01-18 14:39:39.99	275.39	15.73	-41.4	-42.3	21.9	0.00e+00	0	36	0	1466957824	54	3987
2026-01-18 14:39:41.00	275.61	15.75	-41.4	-42.3	22.0	0.00e+00	0	36	0	1472200704	54	3971
2026-01-18 14:39:42.01	275.83	15.76	-41.4	-42.3	22.0	0.00e+00	0	36	0	1478492160	54	3974
2026-01-18 14:39:43.01	276.04	15.78	-41.4	-42.2	22.0	0.00e+00	0	36	0	1483735040	54	3946
2026-01-18 14:39:44.02	276.26	15.79	-41.2	-42.0	22.3	0.00e+00	0	36	0	1488977920	54	3834
2026-01-18 14:39:45.03	276.48	15.81	-41.2	-42.0	22.2	0.00e+00	0	36	0	1495269376	54	3860
2026-01-18 14:39:46.04	276.70	15.82	-41.1	-41.9	22.3	0.00e+00	0	36	0	1500512256	54	3824
2026-01-18 14:39:47.05	276.92	15.84	-41.1	-41.9	22.3	0.00e+00	0	36	0	1505755136	54	3822
2026-01-18 14:39:48.06	277.14	15.85	-41.1	-42.0	22.3	0.00e+00	0	36	0	1512046592	54	3826
2026-01-18 14:39:49.06	277.35	15.87	-41.2	-42.0	22.2	0.00e+00	0	36	0	1517289472	54	3858
2026-01-18 14:39:50.07	277.57	15.88	-41.2	-42.0	22.2	0.00e+00	0	36	0	1523580928	54	3857
2026-01-18 14:39:51.08	277.79	15.89	-41.1	-41.9	22.3	0.00e+00	0	36	0	1528823808	54	3822
2026-01-18 14:39:52.09	278.01	15.91	-41.1	-41.9	22.3	0.00e+00	0	36	0	1535115264	54	3817
2026-01-18 14:39:53.10	278.23	15.92	-41.1	-41.9	22.4	0.00e+00	0	36	0	1540358144	54	3794
2026-01-18 14:39:54.11	278.45	15.93	-41.0	-41.8	22.4	0.00e+00	0	36	0	1546649600	54	3747
2026-01-18 14:39:55.12	278.67	15.94	-41.0	-41.8	22.4	0.00e+00	0	36	0	1551892480	54	3777
2026-01-18 14:39:56.13	278.89	15.95	-41.1	-41.9	22.4	0.00e+00	0	36	0	1557135360	54	3789
2026-01-18 14:39:57.13	279.11	15.96	-41.1	-41.9	22.4	0.00e+00	0	36	0	1563426816	54	3798
2026-01-18 14:39:58.14	279.33	15.97	-41.1	-42.0	22.3	0.00e+00	0	36	0	1568669696	54	3828
2026-01-18 14:39:59.15	279.55	15.98	-41.2	-42.0	22.3	0.00e+00	0	36	0	1573912576	54	3830
2026-01-18 14:40:00.16	279.77	15.99	-41.1	-41.9	22.4	0.00e+00	0	36	0	1580204032	54	3792
2026-01-18 14:40:01.16	279.99	16.00	-41.1	-41.9	22.4	0.00e+00	0	36	0	1585446912	54	3797
2026-01-18 14:40:02.17	280.21	16.01	-41.1	-41.9	22.4	0.00e+00	0	36	0	1590689792	54	3802
2026-01-18 14:40:03.18	280.43	16.02	-41.0	-41.8	22.4	0.00e+00	0	36	0	1596981248	54	3780
2026-01-18 14:40:04.19	280.65	16.03	-41.0	-41.8	22.5	0.00e+00	0	36	0	1603272704	53	3967
2026-01-18 14:40:05.20	280.87	16.04	-41.0	-41.8	22.4	0.00e+00	0	36	0	1608515584	53	4000
2026-01-18 14:40:06.21	281.09	16.04	-41.0	-41.8	22.5	0.00e+00	0	36	0	1613758464	53	3966
2026-01-18 14:40:07.21	281.31	16.05	-41.1	-41.9	22.4	0.00e+00	0	36	0	1620049920	53	4024
2026-01-18 14:40:08.22	281.53	16.06	-41.2	-42.0	22.3	0.00e+00	0	36	0	1625292800	53	4095
2026-01-18 14:40:09.23	281.76	16.06	-41.1	-41.9	22.4	0.00e+00	0	36	0	1631584256	53	4048
2026-01-18 14:40:10.24	281.98	16.07	-41.1	-41.9	22.4	0.00e+00	0	36	0	1636827136	53	4044
2026-01-18 14:40:11.25	282.20	16.07	-41.2	-42.0	22.3	0.00e+00	0	36	0	1642070016	53	4087
2026-01-18 14:40:12.25	282.42	16.08	-41.3	-42.1	22.2	0.00e+00	0	36	0	1648361472	53	4117
2026-01-18 14:40:13.26	282.64	16.08	-41.3	-42.1	22.2	0.00e+00	0	36	0	1653604352	53	4122
2026-01-18 14:40:14.26	282.86	16.09	-41.4	-42.2	22.1	0.00e+00	0	36	0	1658847232	53	4172
2026-01-18 14:40:15.27	283.08	16.09	-41.4	-42.3	22.1	0.00e+00	0	36	0	1665138688	53	4197
2026-01-18 14:40:16.28	283.30	16.09	-41.3	-42.1	22.2	0.00e+00	0	36	0	1671430144	53	4134
2026-01-18 14:40:17.29	283.53	16.09	-41.3	-42.1	22.2	0.00e+00	0	36	0	1676673024	53	4143
2026-01-18 14:40:18.30	283.75	16.10	-41.3	-42.1	22.2	0.00e+00	0	36	0	1681915904	53	4117
2026-01-18 14:40:19.30	283.97	16.10	-41.3	-42.1	22.2	0.00e+00	0	36	0	1688207360	53	4130
2026-01-18 14:40:20.31	284.19	16.10	-41.3	-42.1	22.2	0.00e+00	0	36	0	1693450240	53	4135
2026-01-18 14:40:21.32	284.41	16.10	-41.3	-42.2	22.2	0.00e+00	0	36	0	1698693120	53	4151
2026-01-18 14:40:22.32	284.63	16.10	-41.4	-42.2	22.1	0.00e+00	0	36	0	1704984576	53	4163
2026-01-18 14:40:23.34	284.86	16.10	-41.3	-42.1	22.2	0.00e+00	0	36	0	1710227456	53	4143
2026-01-18 14:40:24.34	285.08	16.10	-41.2	-42.0	22.3	0.00e+00	0	36	0	1716518912	53	4082
2026-01-18 14:40:25.35	285.30	16.10	-41.2	-42.0	22.4	0.00e+00	0	36	0	1721761792	53	4059
2026-01-18 14:40:26.36	285.52	16.10	-41.3	-42.1	22.3	0.00e+00	0	36	0	1727004672	53	4110
2026-01-18 14:40:27.36	285.74	16.10	-41.2	-42.0	22.3	0.00e+00	0	36	0	1733296128	53	4067
2026-01-18 14:40:28.37	285.96	16.10	-41.2	-42.1	22.3	0.00e+00	0	36	0	1738539008	53	4106
2026-01-18 14:40:29.38	286.19	16.10	-41.3	-42.1	22.3	0.00e+00	0	36	0	1743781888	53	4100
2026-01-18 14:40:30.38	286.40	16.09	-41.3	-42.1	22.3	0.00e+00	0	36	0	1750073344	53	4106
2026-01-18 14:40:31.39	286.63	16.09	-41.2	-42.1	22.3	0.00e+00	0	36	0	1756364800	53	4109
2026-01-18 14:40:32.40	286.85	16.09	-41.2	-42.0	22.3	0.00e+00	0	36	0	1761607680	53	4077
2026-01-18 14:40:33.41	287.07	16.08	-41.2	-42.1	22.3	0.00e+00	0	36	0	1766850560	53	4114
2026-01-18 14:40:34.42	287.29	16.08	-41.4	-42.3	22.1	0.00e+00	0	36	0	1773142016	53	4200
2026-01-18 14:40:35.43	287.51	16.07	-41.5	-42.4	22.0	0.00e+00	0	36	0	1778384896	53	4257
2026-01-18 14:40:36.43	287.73	16.07	-41.6	-42.5	21.9	0.00e+00	0	36	0	1783627776	53	4302
2026-01-18 14:40:37.44	287.96	16.06	-41.6	-42.5	21.9	0.00e+00	0	36	0	1789919232	53	4311
2026-01-18 14:40:38.45	288.18	16.06	-41.6	-42.5	21.9	0.00e+00	0	36	0	1795162112	53	4296
2026-01-18 14:40:39.46	288.40	16.05	-41.6	-42.4	22.0	0.00e+00	0	36	0	1801453568	53	4280
2026-01-18 14:40:40.46	288.62	16.05	-41.5	-42.4	22.0	0.00e+00	0	36	0	1806696448	53	4245
2026-01-18 14:40:41.47	288.84	16.04	-41.4	-42.3	22.1	0.00e+00	0	36	0	1811939328	53	4211
2026-01-18 14:40:42.48	289.06	16.03	-41.5	-42.4	22.0	0.00e+00	0	36	0	1818230784	53	4258
2026-01-18 14:40:43.49	289.28	16.02	-41.5	-42.4	22.0	0.00e+00	0	36	0	1824522240	53	4264
2026-01-18 14:40:44.50	289.50	16.02	-41.5	-42.4	22.0	0.00e+00	0	36	0	1829765120	53	4263
2026-01-18 14:40:45.51	289.72	16.01	-41.5	-42.4	22.0	0.00e+00	0	36	0	1835008000	53	4256
2026-01-18 14:40:46.51	289.94	16.00	-41.4	-42.2	22.1	0.00e+00	0	36	0	1841299456	53	4193
2026-01-18 14:40:47.52	290.16	15.99	-41.2	-42.1	22.3	0.00e+00	0	36	0	1846542336	53	4100
2026-01-18 14:40:48.53	290.38	15.98	-41.2	-42.0	22.3	0.00e+00	0	36	0	1851785216	53	4073
2026-01-18 14:40:49.54	290.60	15.97	-41.3	-42.1	22.3	0.00e+00	0	36	0	1858076672	53	4106
2026-01-18 14:40:50.54	290.82	15.96	-41.3	-42.1	22.3	0.00e+00	0	36	0	1863319552	53	4120
2026-01-18 14:40:51.55	291.04	15.95	-41.3	-42.1	22.3	0.00e+00	0	36	0	1868562432	53	4124
2026-01-18 14:40:52.56	291.26	15.94	-41.4	-42.2	22.2	0.00e+00	0	36	0	1874853888	53	4178
2026-01-18 14:40:53.57	291.48	15.93	-41.4	-42.2	22.1	0.00e+00	0	36	0	1880096768	53	4190
2026-01-18 14:40:54.58	291.70	15.91	-41.5	-42.3	22.1	0.00e+00	0	36	0	1886388224	53	4209
2026-01-18 14:40:55.59	291.92	15.90	-41.6	-42.4	22.0	0.00e+00	0	36	0	1891631104	53	4276
2026-01-18 14:40:56.59	292.14	15.89	-41.6	-42.5	21.9	0.00e+00	0	36	0	1897922560	53	4304
2026-01-18 14:40:57.60	292.35	15.87	-41.7	-42.5	21.8	0.00e+00	0	36	0	1903165440	53	4335
2026-01-18 14:40:58.61	292.57	15.86	-41.8	-42.6	21.8	0.00e+00	0	36	0	1909456896	54	4133
2026-01-18 14:40:59.62	292.79	15.85	-41.7	-42.5	21.9	0.00e+00	0	36	0	1914699776	54	4093
2026-01-18 14:41:00.62	293.01	15.83	-41.6	-42.4	22.0	0.00e+00	0	36	0	1919942656	54	4043
2026-01-18 14:41:01.63	293.23	15.82	-41.7	-42.5	21.9	0.00e+00	0	36	0	1926234112	54	4080
2026-01-18 14:41:02.64	293.44	15.80	-41.6	-42.5	21.9	0.00e+00	0	36	0	1931476992	54	4059
2026-01-18 14:41:03.65	293.66	15.79	-41.7	-42.5	21.9	0.00e+00	0	36	0	1936719872	54	4081
2026-01-18 14:41:04.66	293.88	15.77	-41.7	-42.6	21.8	0.00e+00	0	36	0	1943011328	54	4115
2026-01-18 14:41:05.67	294.10	15.76	-41.8	-42.6	21.8	0.00e+00	0	36	0	1948254208	54	4126
2026-01-18 14:41:06.68	294.31	15.74	-41.8	-42.6	21.7	0.00e+00	0	36	0	1953497088	54	4129
2026-01-18 14:41:07.69	294.53	15.72	-41.7	-42.5	21.9	0.00e+00	0	36	0	1959788544	54	4093
2026-01-18 14:41:08.69	294.74	15.70	-41.6	-42.5	21.9	0.00e+00	0	36	0	1966080000	54	4061
2026-01-18 14:41:09.70	294.96	15.69	-41.6	-42.4	21.9	0.00e+00	0	36	0	1971322880	54	4044
2026-01-18 14:41:10.71	295.18	15.67	-41.7	-42.6	21.8	0.00e+00	0	36	0	1976565760	54	4109
2026-01-18 14:41:11.72	295.39	15.65	-41.7	-42.5	21.9	0.00e+00	0	36	0	1982857216	54	4090
2026-01-18 14:41:12.72	295.60	15.63	-41.7	-42.6	21.8	0.00e+00	0	36	0	1988100096	54	4109
2026-01-18 14:41:13.74	295.82	15.61	-41.8	-42.7	21.7	0.00e+00	0	36	0	1994391552	54	4177
2026-01-18 14:41:14.74	296.04	15.59	-41.8	-42.7	21.7	0.00e+00	0	36	0	1999634432	54	4164
2026-01-18 14:41:15.75	296.25	15.57	-41.9	-42.8	21.6	0.00e+00	0	36	0	2004877312	54	4198
2026-01-18 14:41:16.76	296.46	15.55	-41.8	-42.7	21.7	0.00e+00	0	36	0	2011168768	54	4178
2026-01-18 14:41:17.76	296.68	15.53	-41.8	-42.7	21.7	0.00e+00	0	36	0	2016411648	54	4160
2026-01-18 14:41:18.77	296.89	15.51	-41.8	-42.7	21.7	0.00e+00	0	36	0	2021654528	54	4155
2026-01-18 14:41:19.78	297.10	15.49	-41.8	-42.6	21.7	0.00e+00	0	36	0	2027945984	54	4143
2026-01-18 14:41:20.79	297.32	15.47	-41.7	-42.6	21.8	0.00e+00	0	36	0	2034237440	54	4123
2026-01-18 14:41:21.80	297.53	15.45	-41.7	-42.6	21.8	0.00e+00	0	36	0	2039480320	54	4105
2026-01-18 14:41:22.81	297.74	15.42	-41.7	-42.6	21.8	0.00e+00	0	36	0	2044723200	54	4104
2026-01-18 14:41:23.81	297.95	15.40	-41.7	-42.6	21.8	0.00e+00	0	36	0	2051014656	54	4125
2026-01-18 14:41:24.82	298.16	15.38	-41.8	-42.7	21.7	0.00e+00	0	36	0	2056257536	54	4170
2026-01-18 14:41:25.83	298.38	15.36	-41.9	-42.7	21.7	0.00e+00	0	36	0	2061500416	54	4181
2026-01-18 14:41:26.84	298.59	15.33	-41.7	-42.6	21.8	0.00e+00	0	36	0	2067791872	54	4100
2026-01-18 14:41:27.84	298.80	15.31	-41.8	-42.7	21.7	0.00e+00	0	36	0	2073034752	54	4155
2026-01-18 14:41:28.85	299.01	15.28	-41.8	-42.6	21.8	0.00e+00	0	36	0	2079326208	54	4126
2026-01-18 14:41:29.86	299.22	15.26	-41.8	-42.6	21.8	0.00e+00	0	36	0	2084569088	54	4131
2026-01-18 14:41:30.87	299.43	15.23	-41.8	-42.7	21.7	0.00e+00	0	36	0	2089811968	54	4168
2026-01-18 14:41:31.87	299.63	15.21	-42.0	-42.8	21.6	0.00e+00	0	36	0	2096103424	54	4237
2026-01-18 14:41:32.88	299.84	15.18	-42.0	-42.9	21.5	0.00e+00	0	36	0	2102394880	54	4259
2026-01-18 14:41:33.89	300.05	15.16	-42.1	-43.0	21.5	0.00e+00	0	36	0	2107637760	54	4293
2026-01-18 14:41:34.90	300.26	15.13	-42.0	-42.9	21.5	0.00e+00	0	36	0	2112880640	54	4278
2026-01-18 14:41:35.91	300.47	15.10	-42.1	-42.9	21.4	0.00e+00	0	36	0	2119172096	54	4290
2026-01-18 14:41:36.91	300.67	15.08	-42.0	-42.9	21.5	0.00e+00	0	36	0	2124414976	54	4266
2026-01-18 14:41:37.92	300.88	15.05	-42.1	-43.0	21.4	0.00e+00	0	36	0	2129657856	54	4307
2026-01-18 14:41:38.93	301.09	15.02	-42.1	-43.0	21.4	0.00e+00	0	36	0	2135949312	54	4309
2026-01-18 14:41:39.94	301.30	14.99	-42.2	-43.1	21.3	0.00e+00	0	36	0	2141192192	54	4357
2026-01-18 14:41:40.95	301.50	14.97	-42.1	-43.0	21.5	0.00e+00	0	36	0	2146435072	54	4293
2026-01-18 14:41:41.96	301.71	14.94	-42.0	-42.9	21.5	0.00e+00	0	36	0	2152726528	54	4264
2026-01-18 14:41:42.97	301.91	14.91	-42.1	-43.0	21.4	0.00e+00	0	36	0	2157969408	54	4321
2026-01-18 14:41:43.97	302.12	14.88	-42.0	-42.9	21.5	0.00e+00	0	36	0	2164260864	54	4269
2026-01-18 14:41:44.98	302.32	14.85	-41.9	-42.7	21.6	0.00e+00	0	36	0	2169503744	54	4190
2026-01-18 14:41:45.99	302.52	14.82	-41.9	-42.8	21.6	0.00e+00	0	36	0	2175795200	54	4208
2026-01-18 14:41:47.00	302.73	14.79	-41.9	-42.8	21.6	0.00e+00	0	36	0	2181038080	54	4224
2026-01-18 14:41:48.01	302.93	14.76	-41.9	-42.8	21.6	0.00e+00	0	36	0	2187329536	54	4205
2026-01-18 14:41:49.01	303.13	14.73	-41.9	-42.8	21.6	0.00e+00	0	36	0	2192572416	54	4221
2026-01-18 14:41:50.02	303.34	14.70	-42.0	-42.9	21.5	0.00e+00	0	36	0	2197815296	54	4244
2026-01-18 14:41:51.03	303.54	14.67	-41.9	-42.8	21.6	0.00e+00	0	36	0	2204106752	54	4221
2026-01-18 14:41:52.03	303.74	14.64	-42.0	-42.8	21.5	0.00e+00	0	36	0	2209349632	54	4237
2026-01-18 14:41:53.04	303.94	14.60	-41.8	-42.7	21.7	0.00e+00	0	36	0	2214592512	54	4171
2026-01-18 14:41:54.05	304.14	14.57	-41.9	-42.8	21.6	0.00e+00	0	36	0	2220883968	54	4220
2026-01-18 14:41:55.06	304.34	14.54	-41.8	-42.7	21.6	0.00e+00	0	36	0	2226126848	54	4176
2026-01-18 14:41:56.07	304.54	14.51	-41.9	-42.7	21.6	0.00e+00	0	36	0	2231369728	54	4181
2026-01-18 14:41:57.07	304.74	14.47	-42.0	-42.8	21.5	0.00e+00	0	36	0	2237661184	54	4238
2026-01-18 14:41:58.08	304.94	14.44	-42.0	-42.8	21.5	0.00e+00	0	36	0	2243952640	54	4241
2026-01-18 14:41:59.09	305.14	14.41	-42.0	-42.9	21.5	0.00e+00	0	36	0	2249195520	54	4266
2026-01-18 14:42:00.10	305.34	14.37	-42.0	-42.9	21.4	0.00e+00	0	36	0	2254438400	54	4278
2026-01-18 14:42:01.10	305.53	14.34	-42.0	-42.9	21.5	0.00e+00	0	36	0	2260729856	54	4244
2026-01-18 14:42:02.11	305.73	14.30	-41.9	-42.8	21.6	0.00e+00	0	36	0	2265972736	54	4208
2026-01-18 14:42:03.12	305.93	14.27	-41.9	-42.8	21.6	0.00e+00	0	36	0	2272264192	54	4202
2026-01-18 14:42:04.13	306.12	14.24	-41.9	-42.8	21.5	0.00e+00	0	36	0	2277507072	54	4223
2026-01-18 14:42:05.14	306.32	14.20	-42.0	-42.9	21.4	0.00e+00	0	36	0	2282749952	54	4270
2026-01-18 14:42:06.15	306.51	14.16	-42.0	-42.9	21.5	0.00e+00	0	36	0	2289041408	54	4247
2026-01-18 14:42:07.15	306.71	14.13	-42.0	-42.8	21.5	0.00e+00	0	36	0	2294284288	54	4233
2026-01-18 14:42:08.16	306.90	14.09	-42.0	-42.9	21.4	0.00e+00	0	36	0	2299527168	54	4260
2026-01-18 14:42:09.17	307.10	14.06	-42.1	-43.0	21.4	0.00e+00	0	36	0	2305818624	54	4299
2026-01-18 14:42:10.18	307.29	14.02	-41.9	-42.8	21.5	0.00e+00	0	36	0	2311061504	54	4210
2026-01-18 14:42:11.19	307.48	13.98	-42.0	-42.9	21.4	0.00e+00	0	36	0	2317352960	54	4271
2026-01-18 14:42:12.19	307.68	13.95	-42.1	-43.0	21.3	0.00e+00	0	36	0	2322595840	54	4312
2026-01-18 14:42:13.20	307.87	13.91	-42.0	-42.9	21.4	0.00e+00	0	36	0	2328887296	54	4282
2026-01-18 14:42:14.21	308.06	13.87	-42.2	-43.1	21.3	0.00e+00	0	36	0	2334130176	54	4343
2026-01-18 14:42:15.22	308.25	13.84	-42.1	-43.0	21.3	0.00e+00	0	36	0	2339373056	54	4331
2026-01-18 14:42:16.22	308.44	13.80	-42.1	-43.0	21.3	0.00e+00	0	36	0	2345664512	54	4298
2026-01-18 14:42:17.23	308.63	13.76	-42.1	-43.0	21.3	0.00e+00	0	36	0	2350907392	54	4333
2026-01-18 14:42:18.24	308.82	13.72	-42.2	-43.1	21.2	0.00e+00	0	36	0	2357198848	54	4352
2026-01-18 14:42:19.25	309.01	13.68	-42.0	-42.8	21.5	0.00e+00	0	36	0	2362441728	54	4236
2026-01-18 14:42:20.26	309.20	13.65	-42.0	-42.9	21.4	0.00e+00	0	36	0	2367684608	54	4276
2026-01-18 14:42:21.27	309.39	13.61	-42.1	-43.0	21.3	0.00e+00	0	36	0	2373976064	54	4325
2026-01-18 14:42:22.27	309.57	13.57	-42.1	-43.0	21.2	0.00e+00	0	36	0	2379218944	54	4336
2026-01-18 14:42:23.28	309.76	13.53	-42.1	-43.0	21.3	0.00e+00	0	36	0	2385510400	54	4313
2026-01-18 14:42:24.29	309.95	13.49	-42.1	-43.0	21.2	0.00e+00	0	36	0	2390753280	54	4323
2026-01-18 14:42:25.30	310.14	13.45	-42.1	-43.0	21.3	0.00e+00	0	36	0	2397044736	54	4312
2026-01-18 14:42:26.31	310.32	13.41	-42.2	-43.1	21.2	0.00e+00	0	36	0	2402287616	54	4343
2026-01-18 14:42:27.31	310.51	13.37	-42.1	-43.0	21.2	0.00e+00	0	36	0	2407530496	54	4334
2026-01-18 14:42:28.32	310.69	13.33	-42.1	-43.1	21.2	0.00e+00	0	36	0	2413821952	54	4343
2026-01-18 14:42:29.34	310.88	13.29	-42.1	-43.1	21.2	0.00e+00	0	36	0	2419064832	54	4344
2026-01-18 14:42:30.34	311.06	13.25	-42.2	-43.1	21.2	0.00e+00	0	36	0	2424307712	54	4357
2026-01-18 14:42:31.35	311.24	13.21	-42.2	-43.1	21.1	0.00e+00	0	36	0	2430599168	55	4138
2026-01-18 14:42:32.36	311.43	13.17	-42.4	-43.3	21.0	0.00e+00	0	36	0	2435842048	55	4212
2026-01-18 14:42:33.37	311.61	13.12	-42.2	-43.1	21.1	0.00e+00	0	36	0	2442133504	55	4139
2026-01-18 14:42:34.37	311.79	13.08	-42.3	-43.2	21.1	0.00e+00	0	36	0	2447376384	55	4155
2026-01-18 14:42:35.38	311.97	13.04	-42.2	-43.1	21.1	0.00e+00	0	36	0	2453667840	55	4141
2026-01-18 14:42:36.39	312.15	13.00	-42.1	-43.0	21.2	0.00e+00	0	36	0	2458910720	55	4062
2026-01-18 14:42:37.40	312.34	12.96	-42.1	-43.0	21.2	0.00e+00	0	36	0	2465202176	55	4071
2026-01-18 14:42:38.40	312.51	12.92	-42.2	-43.1	21.2	0.00e+00	0	36	0	2470445056	55	4101
2026-01-18 14:42:39.41	312.69	12.87	-42.1	-43.0	21.2	0.00e+00	0	36	0	2475687936	55	4080
2026-01-18 14:42:40.42	312.87	12.83	-42.2	-43.1	21.2	0.00e+00	0	36	0	2481979392	55	4099
2026-01-18 14:42:41.43	313.05	12.79	-42.2	-43.1	21.1	0.00e+00	0	36	0	2487222272	55	4119
2026-01-18 14:42:42.44	313.23	12.74	-42.2	-43.1	21.1	0.00e+00	0	36	0	2492465152	55	4136
2026-01-18 14:42:43.44	313.41	12.70	-42.3	-43.2	21.0	0.00e+00	0	36	0	2498756608	55	4190
2026-01-18 14:42:44.45	313.58	12.66	-42.4	-43.3	20.9	0.00e+00	0	36	0	2503999488	55	4238
2026-01-18 14:42:45.46	313.76	12.61	-42.4	-43.3	20.9	0.00e+00	0	36	0	2509242368	55	4215
2026-01-18 14:42:46.47	313.94	12.57	-42.4	-43.3	20.9	0.00e+00	0	36	0	2515533824	55	4215
2026-01-18 14:42:47.48	314.11	12.53	-42.3	-43.2	21.0	0.00e+00	0	36	0	2521825280	55	4151
2026-01-18 14:42:48.49	314.29	12.48	-42.2	-43.1	21.1	0.00e+00	0	36	0	2527068160	55	4141
2026-01-18 14:42:49.50	314.46	12.44	-42.2	-43.1	21.1	0.00e+00	0	36	0	2532311040	55	4106
2026-01-18 14:42:50.51	314.64	12.39	-42.2	-43.1	21.1	0.00e+00	0	36	0	2538602496	55	4120
2026-01-18 14:42:51.52	314.81	12.35	-42.2	-43.1	21.1	0.00e+00	0	36	0	2543845376	55	4120
2026-01-18 14:42:52.53	314.98	12.31	-42.2	-43.1	21.1	0.00e+00	0	36	0	2550136832	55	4122
2026-01-18 14:42:53.53	315.15	12.26	-42.3	-43.2	21.0	0.00e+00	0	36	0	2555379712	55	4164
2026-01-18 14:42:54.54	315.33	12.22	-42.3	-43.2	21.0	0.00e+00	0	36	0	2560622592	55	4162
2026-01-18 14:42:55.55	315.50	12.17	-42.4	-43.3	20.8	0.00e+00	0	36	0	2566914048	55	4236
2026-01-18 14:42:56.56	315.67	12.13	-42.3	-43.2	20.9	0.00e+00	0	36	0	2572156928	55	4187
2026-01-18 14:42:57.56	315.84	12.08	-42.4	-43.4	20.8	0.00e+00	0	36	0	2577399808	55	4250
2026-01-18 14:42:58.57	316.01	12.04	-42.4	-43.4	20.8	0.00e+00	0	36	0	2583691264	55	4264
2026-01-18 14:42:59.58	316.18	11.99	-42.5	-43.4	20.7	0.00e+00	0	36	0	2589982720	55	4269
2026-01-18 14:43:00.59	316.35	11.94	-42.5	-43.5	20.7	0.00e+00	0	36	0	2595225600	55	4295
2026-01-18 14:43:01.60	316.52	11.90	-42.6	-43.5	20.6	0.00e+00	0	36	0	2600468480	55	4320
2026-01-18 14:43:02.61	316.68	11.85	-42.6	-43.5	20.6	0.00e+00	0	36	0	2606759936	55	4339
2026-01-18 14:43:03.62	316.85	11.81	-42.7	-43.6	20.5	0.00e+00	0	36	0	2612002816	55	4391
2026-01-18 14:43:04.63	317.02	11.76	-42.9	-43.9	20.4	0.00e+00	0	36	0	2617245696	56	4257
2026-01-18 14:43:05.63	317.18	11.71	-42.8	-43.7	20.5	0.00e+00	0	36	0	2623537152	56	4179
2026-01-18 14:43:06.64	317.35	11.67	-42.7	-43.7	20.6	0.00e+00	0	36	0	2628780032	56	4150
2026-01-18 14:43:07.65	317.51	11.62	-42.6	-43.6	20.6	0.00e+00	0	36	0	2635071488	56	4120
2026-01-18 14:43:08.66	317.68	11.57	-42.7	-43.7	20.6	0.00e+00	0	36	0	2640314368	56	4155
2026-01-18 14:43:09.66	317.84	11.53	-42.7	-43.7	20.6	0.00e+00	0	36	0	2645557248	56	4150
2026-01-18 14:43:10.67	318.01	11.48	-42.7	-43.7	20.6	0.00e+00	0	36	0	2651848704	56	4152
2026-01-18 14:43:11.68	318.17	11.43	-42.8	-43.8	20.4	0.00e+00	0	36	0	2657091584	56	4218
2026-01-18 14:43:12.69	318.33	11.39	-42.8	-43.7	20.5	0.00e+00	0	36	0	2663383040	56	4185
2026-01-18 14:43:13.69	318.49	11.34	-42.8	-43.8	20.4	0.00e+00	0	36	0	2668625920	56	4227
2026-01-18 14:43:14.70	318.66	11.29	-43.0	-43.9	20.3	0.00e+00	0	36	0	2674917376	56	4291
2026-01-18 14:43:15.71	318.82	11.24	-42.9	-43.8	20.4	0.00e+00	0	36	0	2680160256	56	4234
2026-01-18 14:43:16.72	318.98	11.20	-42.9	-43.9	20.3	0.00e+00	0	36	0	2685403136	56	4265
2026-01-18 14:43:17.73	319.14	11.15	-42.9	-43.9	20.3	0.00e+00	0	36	0	2691694592	56	4269
2026-01-18 14:43:18.73	319.30	11.10	-42.9	-43.8	20.4	0.00e+00	0	36	0	2696937472	56	4233
2026-01-18 14:43:19.74	319.46	11.05	-42.9	-43.9	20.3	0.00e+00	0	36	0	2702180352	56	4261
2026-01-18 14:43:20.75	319.62	11.01	-43.0	-44.0	20.2	0.00e+00	0	36	0	2708471808	56	4292
2026-01-18 14:43:21.76	319.77	10.96	-42.7	-43.7	20.5	0.00e+00	0	36	0	2713714688	56	4162
2026-01-18 14:43:22.77	319.93	10.91	-42.7	-43.6	20.5	0.00e+00	0	36	0	2720006144	56	4132
2026-01-18 14:43:23.77	320.09	10.86	-42.7	-43.6	20.6	0.00e+00	0	36	0	2725249024	56	4123
2026-01-18 14:43:24.78	320.24	10.81	-42.7	-43.6	20.5	0.00e+00	0	36	0	2731540480	56	4133
2026-01-18 14:43:25.79	320.40	10.76	-42.7	-43.7	20.5	0.00e+00	0	36	0	2736783360	56	4162
2026-01-18 14:43:26.80	320.56	10.72	-42.8	-43.8	20.4	0.00e+00	0	36	0	2743074816	56	4215
2026-01-18 14:43:27.81	320.71	10.67	-42.8	-43.8	20.3	0.00e+00	0	36	0	2748317696	56	4208
2026-01-18 14:43:28.81	320.87	10.62	-42.8	-43.8	20.3	0.00e+00	0	36	0	2753560576	56	4216
2026-01-18 14:43:29.82	321.02	10.57	-42.8	-43.7	20.4	0.00e+00	0	36	0	2759852032	56	4181
2026-01-18 14:43:30.83	321.17	10.52	-42.8	-43.8	20.4	0.00e+00	0	36	0	2765094912	56	4207
2026-01-18 14:43:31.84	321.33	10.47	-42.6	-43.6	20.5	0.00e+00	0	36	0	2770337792	56	4123
2026-01-18 14:43:32.84	321.48	10.42	-42.7	-43.7	20.4	0.00e+00	0	36	0	2776629248	56	4163
2026-01-18 14:43:33.85	321.63	10.37	-42.7	-43.6	20.5	0.00e+00	0	36	0	2781872128	56	4144
2026-01-18 14:43:34.86	321.78	10.32	-42.8	-43.7	20.4	0.00e+00	0	36	0	2787115008	56	4178
2026-01-18 14:43:35.87	321.94	10.27	-42.9	-43.8	20.3	0.00e+00	0	36	0	2793406464	56	4237
2026-01-18 14:43:36.88	322.09	10.23	-42.9	-43.9	20.3	0.00e+00	0	36	0	2798649344	56	4248
2026-01-18 14:43:37.88	322.24	10.18	-42.9	-43.9	20.2	0.00e+00	0	36	0	2804940800	56	4278
2026-01-18 14:43:38.89	322.39	10.13	-43.0	-44.0	20.2	0.00e+00	0	36	0	2810183680	56	4303
2026-01-18 14:43:39.90	322.53	10.08	-43.0	-44.0	20.1	0.00e+00	0	36	0	2816475136	56	4340
2026-01-18 14:43:40.91	322.68	10.03	-43.1	-44.1	20.0	0.00e+00	0	36	0	2821718016	56	4372
2026-01-18 14:43:41.92	322.83	9.98	-43.1	-44.1	20.0	0.00e+00	0	36	0	2828009472	56	4356
2026-01-18 14:43:42.93	322.98	9.93	-43.1	-44.2	19.9	0.00e+00	0	36	0	2833252352	56	4400
2026-01-18 14:43:43.93	323.13	9.88	-43.1	-44.1	20.0	0.00e+00	0	36	0	2838495232	57	4135
2026-01-18 14:43:44.94	323.27	9.83	-43.0	-43.9	20.1	0.00e+00	0	36	0	2844786688	57	4050
2026-01-18 14:43:45.95	323.42	9.78	-43.0	-44.0	20.1	0.00e+00	0	36	0	2850029568	57	4061
2026-01-18 14:43:46.96	323.57	9.73	-43.0	-44.0	20.0	0.00e+00	0	36	0	2855272448	57	4085
2026-01-18 14:43:47.97	323.71	9.68	-43.0	-43.9	20.1	0.00e+00	0	36	0	2861563904	57	4051
2026-01-18 14:43:48.97	323.86	9.63	-43.1	-44.1	20.0	0.00e+00	0	36	0	2866806784	57	4108
2026-01-18 14:43:49.98	324.00	9.58	-43.1	-44.0	20.0	0.00e+00	0	36	0	2873098240	57	4095
2026-01-18 14:43:50.99	324.14	9.53	-43.1	-44.0	20.0	0.00e+00	0	36	0	2878341120	57	4097
2026-01-18 14:43:52.00	324.29	9.48	-43.1	-44.1	20.0	0.00e+00	0	36	0	2884632576	57	4099
2026-01-18 14:43:53.01	324.43	9.43	-43.1	-44.1	20.0	0.00e+00	0	36	0	2889875456	57	4113
2026-01-18 14:43:54.01	324.57	9.38	-43.1	-44.1	19.9	0.00e+00	0	36	0	2895118336	57	4138
2026-01-18 14:43:55.02	324.71	9.33	-43.2	-44.2	19.9	0.00e+00	0	36	0	2901409792	57	4157
2026-01-18 14:43:56.03	324.86	9.28	-43.3	-44.3	19.7	0.00e+00	0	36	0	2906652672	57	4220
2026-01-18 14:43:57.04	325.00	9.22	-43.4	-44.4	19.6	0.00e+00	0	36	0	2912944128	57	4289
2026-01-18 14:43:58.04	325.14	9.17	-43.5	-44.6	19.5	0.00e+00	0	36	0	2918187008	57	4356
2026-01-18 14:43:59.05	325.28	9.12	-43.4	-44.4	19.6	0.00e+00	0	36	0	2923429888	57	4279
2026-01-18 14:44:00.06	325.42	9.07	-43.3	-44.4	19.7	0.00e+00	0	36	0	2929721344	57	4256
2026-01-18 14:44:01.07	325.56	9.02	-43.3	-44.3	19.7	0.00e+00	0	36	0	2934964224	57	4224
2026-01-18 14:44:02.07	325.69	8.97	-43.4	-44.4	19.6	0.00e+00	0	36	0	2940207104	57	4288
2026-01-18 14:44:03.08	325.83	8.92	-43.4	-44.5	19.6	0.00e+00	0	36	0	2946498560	57	4302
2026-01-18 14:44:04.09	325.97	8.87	-43.4	-44.4	19.6	0.00e+00	0	36	0	2952790016	57	4278
2026-01-18 14:44:05.10	326.11	8.82	-43.2	-44.2	19.7	0.00e+00	0	36	0	2958032896	57	4190
2026-01-18 14:44:06.10	326.24	8.77	-43.3	-44.3	19.7	0.00e+00	0	36	0	2963275776	57	4208
2026-01-18 14:44:07.11	326.38	8.72	-43.3	-44.4	19.6	0.00e+00	0	36	0	2969567232	57	4254
2026-01-18 14:44:08.12	326.52	8.67	-43.2	-44.2	19.7	0.00e+00	0	36	0	2974810112	57	4173
2026-01-18 14:44:09.13	326.65	8.62	-43.2	-44.2	19.7	0.00e+00	0	36	0	2980052992	57	4188
2026-01-18 14:44:10.13	326.79	8.57	-43.3	-44.3	19.7	0.00e+00	0	36	0	2986344448	57	4227
2026-01-18 14:44:11.13	326.92	8.51	-43.3	-44.3	19.7	0.00e+00	0	36	0	2991587328	57	4210
2026-01-18 14:44:12.14	327.05	8.46	-43.4	-44.5	19.5	0.00e+00	0	36	0	2997878784	57	4293
2026-01-18 14:44:13.15	327.19	8.41	-43.5	-44.6	19.4	0.00e+00	0	36	0	3003121664	57	4345
2026-01-18 14:44:14.16	327.32	8.36	-43.5	-44.6	19.4	0.00e+00	0	36	0	3008364544	57	4362
2026-01-18 14:44:15.16	327.45	8.31	-43.5	-44.6	19.4	0.00e+00	0	36	0	3014656000	57	4361
2026-01-18 14:44:16.17	327.59	8.26	-43.4	-44.4	19.5	0.00e+00	0	36	0	3019898880	57	4283
2026-01-18 14:44:17.18	327.72	8.21	-43.4	-44.5	19.4	0.00e+00	0	36	0	3025141760	57	4314
2026-01-18 14:44:18.19	327.85	8.16	-43.5	-44.6	19.4	0.00e+00	0	36	0	3031433216	57	4386
2026-01-18 14:44:19.19	327.98	8.11	-43.5	-44.6	19.4	0.00e+00	0	36	0	3037724672	57	4365
2026-01-18 14:44:20.20	328.11	8.05	-43.5	-44.6	19.3	0.00e+00	0	36	0	3042967552	57	4361
2026-01-18 14:44:21.21	328.24	8.00	-43.6	-44.7	19.3	0.00e+00	0	36	0	3048210432	57	4414
2026-01-18 14:44:22.22	328.37	7.95	-43.7	-44.8	19.2	0.00e+00	0	36	0	3054501888	57	4457
2026-01-18 14:44:23.23	328.50	7.90	-43.5	-44.6	19.4	0.00e+00	0	36	0	3059744768	57	4347
2026-01-18 14:44:24.23	328.63	7.85	-43.5	-44.6	19.3	0.00e+00	0	36	0	3064987648	57	4371
2026-01-18 14:44:25.24	328.76	7.80	-43.6	-44.7	19.2	0.00e+00	0	36	0	3071279104	58	4159
2026-01-18 14:44:26.25	328.89	7.75	-43.6	-44.6	19.3	0.00e+00	0	36	0	3076521984	58	4132
2026-01-18 14:44:27.25	329.01	7.70	-43.5	-44.6	19.4	0.00e+00	0	36	0	3082813440	58	4105
2026-01-18 14:44:28.26	329.14	7.64	-43.5	-44.6	19.3	0.00e+00	0	36	0	3088056320	58	4126
2026-01-18 14:44:29.27	329.27	7.59	-43.5	-44.6	19.4	0.00e+00	0	36	0	3093299200	58	4109
2026-01-18 14:44:30.28	329.39	7.54	-43.4	-44.5	19.4	0.00e+00	0	36	0	3099590656	58	4074
2026-01-18 14:44:31.28	329.52	7.49	-43.5	-44.6	19.3	0.00e+00	0	36	0	3105882112	58	4119
2026-01-18 14:44:32.29	329.64	7.44	-43.5	-44.5	19.4	0.00e+00	0	36	0	3111124992	58	4091
2026-01-18 14:44:33.30	329.77	7.39	-43.6	-44.7	19.2	0.00e+00	0	36	0	3116367872	58	4175
2026-01-18 14:44:34.31	329.89	7.34	-43.6	-44.7	19.2	0.00e+00	0	36	0	3122659328	58	4185
2026-01-18 14:44:35.32	330.02	7.28	-43.7	-44.8	19.1	0.00e+00	0	36	0	3127902208	58	4205
2026-01-18 14:44:36.32	330.14	7.23	-43.8	-44.9	19.0	0.00e+00	0	36	0	3133145088	58	4268
2026-01-18 14:44:37.33	330.26	7.18	-43.7	-44.8	19.1	0.00e+00	0	36	0	3139436544	58	4219
2026-01-18 14:44:38.34	330.39	7.13	-43.7	-44.8	19.1	0.00e+00	0	36	0	3144679424	58	4208
2026-01-18 14:44:39.35	330.51	7.08	-43.8	-44.9	19.0	0.00e+00	0	36	0	3149922304	58	4263
2026-01-18 14:44:40.35	330.63	7.03	-43.9	-45.0	18.9	0.00e+00	0	36	0	3156213760	58	4312
2026-01-18 14:44:41.36	330.75	6.98	-44.0	-45.2	18.7	0.00e+00	0	36	0	3161456640	58	4410
2026-01-18 14:44:42.37	330.87	6.92	-44.0	-45.2	18.7	0.00e+00	0	36	0	3167748096	58	4393
2026-01-18 14:44:43.38	330.99	6.87	-44.1	-45.2	18.6	0.00e+00	0	36	0	3172990976	58	4418
2026-01-18 14:44:44.38	331.11	6.82	-44.2	-45.3	18.5	0.00e+00	0	36	0	3179282432	58	4472
2026-01-18 14:44:45.39	331.23	6.77	-44.3	-45.5	18.3	0.00e+00	0	36	0	3184525312	59	4338
2026-01-18 14:44:46.40	331.35	6.72	-44.2	-45.4	18.4	0.00e+00	0	36	0	3190816768	59	4266
2026-01-18 14:44:47.41	331.47	6.67	-44.3	-45.5	18.3	0.00e+00	0	36	0	3196059648	59	4338
2026-01-18 14:44:48.41	331.59	6.61	-44.3	-45.4	18.4	0.00e+00	0	36	0	3201302528	59	4289
2026-01-18 14:44:49.42	331.71	6.56	-44.4	-45.6	18.2	0.00e+00	0	36	0	3207593984	59	4352
2026-01-18 14:44:50.43	331.83	6.51	-44.4	-45.6	18.2	0.00e+00	0	36	0	3212836864	59	4367
2026-01-18 14:44:51.44	331.95	6.46	-44.5	-45.7	18.1	0.00e+00	0	36	0	3218079744	59	4403
2026-01-18 14:44:52.45	332.06	6.41	-44.5	-45.7	18.1	0.00e+00	0	36	0	3224371200	59	4406
2026-01-18 14:44:53.46	332.18	6.36	-44.6	-45.8	18.0	0.00e+00	0	36	0	3229614080	59	4481
2026-01-18 14:44:54.46	332.30	6.31	-44.4	-45.6	18.2	0.00e+00	0	36	0	3234856960	59	4369
2026-01-18 14:44:55.47	332.41	6.25	-44.3	-45.5	18.2	0.00e+00	0	36	0	3241148416	59	4335
2026-01-18 14:44:56.48	332.53	6.20	-44.5	-45.7	17.8	0.00e+00	0	36	0	3247439872	60	4180
2026-01-18 14:44:57.49	332.64	6.15	-44.2	-45.4	18.0	0.00e+00	0	36	0	3252682752	60	4049
2026-01-18 14:44:58.50	332.76	6.10	-44.3	-45.6	17.9	0.00e+00	0	36	0	3257925632	60	4105
2026-01-18 14:44:59.51	332.87	6.05	-44.1	-45.3	18.1	0.00e+00	0	36	0	3264217088	60	3987
2026-01-18 14:45:00.51	332.99	6.00	-44.0	-45.2	18.2	0.00e+00	0	36	0	3269459968	60	3923
2026-01-18 14:45:01.52	333.10	5.95	-44.3	-45.5	18.2	0.00e+00	0	36	0	3275751424	59	4339
2026-01-18 14:45:02.53	333.21	5.89	-44.2	-45.4	18.3	0.00e+00	0	36	0	3280994304	59	4285
2026-01-18 14:45:03.54	333.33	5.84	-44.5	-45.7	18.0	0.00e+00	0	36	0	3286237184	59	4421
2026-01-18 14:45:04.54	333.44	5.79	-44.4	-45.7	18.0	0.00e+00	0	36	0	3292528640	59	4412
2026-01-18 14:45:05.55	333.55	5.74	-44.5	-45.7	17.9	0.00e+00	0	36	0	3297771520	59	4440
2026-01-18 14:45:06.56	333.66	5.69	-44.7	-45.9	17.7	0.00e+00	0	36	0	3303014400	59	4545
2026-01-18 14:45:07.57	333.77	5.64	-44.7	-46.0	17.6	0.00e+00	0	36	0	3309305856	59	4579
2026-01-18 14:45:08.58	333.88	5.59	-44.3	-45.6	17.7	0.00e+00	0	36	0	3315597312	60	4101
2026-01-18 14:45:09.59	334.00	5.53	-44.3	-45.6	17.7	0.00e+00	0	36	0	3320840192	60	4099
2026-01-18 14:45:10.60	334.11	5.48	-44.4	-45.7	17.5	0.00e+00	0	36	0	3326083072	60	4155
2026-01-18 14:45:11.60	334.22	5.43	-44.2	-45.5	17.9	0.00e+00	0	36	0	3332374528	59	4307
2026-01-18 14:45:12.61	334.33	5.38	-44.5	-45.8	17.5	0.00e+00	0	36	0	3337617408	59	4481
2026-01-18 14:45:13.62	334.43	5.33	-44.8	-46.2	16.7	0.00e+00	0	36	0	3342860288	60	4399
2026-01-18 14:45:14.63	334.54	5.28	-44.2	-45.5	17.2	0.00e+00	0	36	0	3349151744	60	4078
2026-01-18 14:45:15.63	334.65	5.23	-44.3	-45.7	17.3	0.00e+00	0	36	0	3354394624	59	4420
2026-01-18 14:45:16.64	334.76	5.18	-44.3	-45.6	17.3	0.00e+00	0	36	0	3360686080	59	4391
2026-01-18 14:45:17.65	334.87	5.13	-44.5	-45.9	17.2	0.00e+00	0	36	0	3365928960	59	4510
2026-01-18 14:45:18.66	334.97	5.07	-44.4	-45.8	17.0	0.00e+00	0	36	0	3371171840	60	4208
2026-01-18 14:45:19.66	335.08	5.02	-44.5	-45.8	17.0	0.00e+00	0	36	0	3377463296	60	4228
2026-01-18 14:45:20.67	335.19	4.97	-46.7	-48.6	14.7	0.00e+00	0	36	0	3382706176	63	4915
2026-01-18 14:45:21.68	335.29	4.92	-52.7	-64.7	3.8	8.46e-01	0	36	104	3384803328	75	15661
2026-01-18 14:45:22.69	335.40	4.87	-53.0	-65.0	3.8	8.47e-01	0	36	104	3384803328	76	15279
2026-01-18 14:45:23.70	335.51	4.82	-53.2	-65.2	3.8	8.47e-01	0	36	104	3384803328	76	15585
2026-01-18 14:45:24.71	335.61	4.77	-53.3	-65.3	3.8	8.46e-01	0	36	104	3384803328	77	15001
2026-01-18 14:45:25.71	335.72	4.72	-53.5	-65.4	3.8	8.47e-01	0	36	104	3384803328	77	15204
2026-01-18 14:45:26.72	335.82	4.67	-53.6	-65.6	3.8	8.47e-01	0	36	104	3384803328	77	15421
2026-01-18 14:45:27.73	335.92	4.61	-53.7	-65.6	3.8	8.47e-01	0	36	104	3384803328	77	15572
2026-01-18 14:45:28.73	336.03	4.56	-53.8	-65.8	3.8	8.47e-01	0	36	104	3384803328	78	14903
2026-01-18 14:45:29.74	336.13	4.51	-53.8	-65.8	3.8	8.47e-01	0	36	104	3384803328	78	15016
2026-01-18 14:45:30.75	336.24	4.46	-53.9	-65.9	3.8	8.45e-01	0	36	104	3384803328	78	15103
2026-01-18 14:45:31.76	336.34	4.41	-53.9	-65.9	3.8	8.46e-01	0	36	104	3384803328	78	15146
2026-01-18 14:45:32.76	336.44	4.36	-53.9	-66.0	3.8	8.46e-01	0	36	104	3384803328	78	15233
2026-01-18 14:45:33.77	336.54	4.31	-54.0	-65.9	3.8	8.47e-01	0	36	104	3384803328	78	15218
2026-01-18 14:45:34.78	336.64	4.26	-54.0	-66.0	3.8	8.46e-01	0	36	104	3384803328	78	15290
2026-01-18 14:45:35.79	336.75	4.21	-54.0	-66.0	3.8	8.46e-01	0	36	104	3384803328	78	15247
2026-01-18 14:45:36.80	336.85	4.16	-54.0	-66.0	3.8	8.47e-01	0	36	104	3384803328	78	15283
2026-01-18 14:45:37.80	336.95	4.11	-54.0	-66.0	3.8	8.45e-01	0	36	104	3384803328	78	15333
2026-01-18 14:45:38.81	337.05	4.06	-54.0	-66.0	3.8	8.46e-01	0	36	104	3384803328	78	15333
2026-01-18 14:45:39.82	337.15	4.00	-54.0	-66.0	3.8	8.46e-01	0	36	104	3384803328	78	15270
2026-01-18 14:45:40.83	337.25	3.95	-54.0	-65.9	3.8	8.45e-01	0	36	104	3384803328	78	15220
2026-01-18 14:45:41.84	337.35	3.90	-54.0	-66.0	3.8	8.46e-01	0	36	104	3384803328	78	15251
2026-01-18 14:45:42.84	337.45	3.85	-53.9	-65.9	3.8	8.48e-01	0	36	104	3384803328	78	15222
2026-01-18 14:45:43.85	337.55	3.80	-53.9	-65.9	3.8	8.45e-01	0	36	104	3384803328	78	15109
2026-01-18 14:45:44.86	337.64	3.75	-53.9	-65.9	3.8	8.46e-01	0	36	104	3384803328	78	15127
2026-01-18 14:45:45.87	337.74	3.70	-53.9	-65.9	3.8	8.46e-01	0	36	104	3384803328	78	15113
2026-01-18 14:45:46.88	337.84	3.65	-53.9	-65.9	3.8	8.46e-01	0	36	104	3384803328	78	15121
2026-01-18 14:45:47.89	337.94	3.60	-53.9	-65.9	3.8	8.47e-01	0	36	104	3384803328	78	15123
2026-01-18 14:45:48.89	338.03	3.55	-53.9	-65.9	3.8	8.45e-01	0	36	104	3384803328	78	15117
2026-01-18 14:45:49.90	338.13	3.50	-53.9	-65.9	3.8	8.46e-01	0	36	104	3384803328	78	15087
2026-01-18 14:45:50.91	338.23	3.45	-53.9	-65.9	3.8	8.46e-01	0	36	104	3384803328	78	15072
2026-01-18 14:45:51.92	338.33	3.40	-53.9	-65.8	3.8	8.46e-01	0	36	104	3384803328	78	15037
2026-01-18 14:45:52.93	338.42	3.35	-53.9	-65.9	3.8	8.46e-01	0	36	104	3384803328	78	15090
2026-01-18 14:45:53.94	338.52	3.30	-53.9	-65.9	3.8	8.46e-01	0	36	104	3384803328	78	15078
2026-01-18 14:45:54.94	338.61	3.25	-53.9	-65.9	3.8	8.46e-01	0	36	104	3384803328	78	15084
2026-01-18 14:45:55.95	338.71	3.20	-53.9	-65.8	3.8	8.46e-01	0	36	104	3384803328	78	15050
2026-01-18 14:45:56.96	338.80	3.15	-53.8	-65.8	3.8	8.46e-01	0	36	104	3384803328	78	15032
2026-01-18 14:45:57.97	338.90	3.10	-53.8	-65.8	3.8	8.46e-01	0	36	104	3384803328	78	15029
2026-01-18 14:45:58.98	338.99	3.05	-53.9	-65.8	3.8	8.45e-01	0	36	104	3384803328	78	15000
