passes_logs/2026/01/18/R3.2S_Murmansk/R3.2S_Murmansk__20260118_093138_FENGYUN_3D_rec.log

#Pass ID: 20260118_093138_FENGYUN 3D
#Satellite: FENGYUN 3D
#Configuration: FENGYUN 3D
#almurnet v.1.7.20251203
#Start time: 2026-01-18 09:31:38

#Version: 2.2.20231116
#Station: R3.2S_Murmansk
#Location: 33.079688 lon 68.888172 lat
#TLE: 1 43010U 17072A   26017.61121112  .00000213  00000+0  12257-3 0  9991
#TLE: 2 43010  98.9934 349.4672 0002374 103.9362 256.2078 14.19696413423628

#Time	Az	El	Level	Level2	SNR	BER	BlckErr	Temp	State	Recorded	gain1	gain2
2026-01-18 09:31:38.99	105.02	2.03	-52.0	-64.0	3.8	8.46e-01	0	34	0	0	76	13623
2026-01-18 09:31:39.99	104.98	2.09	-52.0	-64.0	3.8	8.47e-01	0	34	104	0	74	15289
2026-01-18 09:31:41.00	104.94	2.15	-52.0	-63.9	3.8	8.47e-01	0	34	104	0	74	15193
2026-01-18 09:31:42.01	104.90	2.22	-52.0	-63.9	3.8	8.47e-01	0	34	104	0	74	15143
2026-01-18 09:31:43.02	104.85	2.28	-52.0	-63.9	3.8	8.46e-01	0	34	104	0	74	15073
2026-01-18 09:31:44.03	104.81	2.34	-52.0	-63.9	3.8	8.46e-01	0	34	104	0	74	15123
2026-01-18 09:31:45.03	104.77	2.40	-52.0	-63.8	3.8	8.45e-01	0	34	104	0	74	15050
2026-01-18 09:31:46.04	104.72	2.46	-52.0	-63.8	3.8	8.47e-01	0	34	104	0	74	15012
2026-01-18 09:31:47.05	104.68	2.53	-52.0	-63.8	3.8	8.47e-01	0	34	104	0	74	14969
2026-01-18 09:31:48.06	104.63	2.59	-52.0	-63.8	3.8	8.46e-01	0	34	104	0	74	14985
2026-01-18 09:31:49.07	104.59	2.65	-52.0	-63.9	3.8	8.47e-01	0	34	104	0	74	15061
2026-01-18 09:31:50.07	104.54	2.71	-52.0	-63.8	3.8	8.46e-01	0	34	104	0	74	14966
2026-01-18 09:31:51.08	104.50	2.78	-52.0	-63.8	3.8	8.46e-01	0	34	104	0	74	15013
2026-01-18 09:31:52.09	104.45	2.84	-52.0	-63.8	3.8	8.46e-01	0	34	104	0	74	14958
2026-01-18 09:31:53.10	104.41	2.90	-52.0	-63.6	3.8	8.45e-01	0	34	104	0	74	14673
2026-01-18 09:31:54.11	104.36	2.97	-52.0	-63.6	3.8	8.47e-01	0	34	104	0	74	14650
2026-01-18 09:31:55.11	104.32	3.03	-52.0	-63.6	3.8	8.45e-01	0	34	104	0	74	14593
2026-01-18 09:31:56.12	104.27	3.09	-51.0	-63.0	3.9	8.42e-01	0	34	104	0	74	13629
2026-01-18 09:31:57.13	104.22	3.16	-51.0	-63.0	3.9	8.41e-01	0	34	104	0	74	13660
2026-01-18 09:31:58.14	104.18	3.22	-51.0	-63.0	3.9	8.41e-01	0	34	104	0	74	13724
2026-01-18 09:31:59.15	104.13	3.29	-51.0	-63.1	3.9	8.42e-01	0	34	104	0	73	14640
2026-01-18 09:32:00.15	104.08	3.35	-50.9	-63.4	3.8	8.43e-01	0	34	104	0	73	15150
2026-01-18 09:32:01.16	104.04	3.41	-50.8	-63.6	3.8	8.44e-01	0	34	104	0	73	15525
2026-01-18 09:32:02.17	103.99	3.48	-50.7	-63.7	3.8	8.44e-01	0	34	104	0	73	15621
2026-01-18 09:32:03.18	103.94	3.54	-50.6	-63.5	3.9	8.42e-01	0	35	104	0	73	15229
2026-01-18 09:32:04.19	103.89	3.61	-50.2	-62.9	3.9	8.40e-01	0	34	104	0	72	15207
2026-01-18 09:32:05.20	103.85	3.67	-49.4	-62.3	4.0	8.40e-01	0	34	104	0	70	15778
2026-01-18 09:32:06.21	103.80	3.74	-48.8	-61.2	4.0	8.40e-01	0	34	104	0	69	14764
2026-01-18 09:32:07.21	103.75	3.80	-48.2	-60.1	4.1	8.37e-01	0	35	104	0	68	13803
2026-01-18 09:32:08.22	103.70	3.87	-47.7	-59.2	4.2	8.36e-01	0	35	104	0	66	13980
2026-01-18 09:32:09.23	103.65	3.93	-47.5	-58.0	4.4	8.31e-01	0	34	104	0	66	12155
2026-01-18 09:32:10.24	103.60	4.00	-47.4	-57.4	4.6	8.27e-01	0	34	104	0	66	11313
2026-01-18 09:32:11.25	103.55	4.06	-47.6	-56.3	4.8	8.18e-01	0	35	104	0	66	9956
2026-01-18 09:32:12.25	103.50	4.13	-47.9	-55.2	5.0	8.11e-01	0	35	104	0	66	8801
2026-01-18 09:32:13.26	103.45	4.20	-48.3	-54.5	5.1	8.03e-01	0	35	104	0	67	7678
2026-01-18 09:32:14.27	103.40	4.26	-48.5	-53.4	8.7	5.69e-02	0	35	0	2097152	67	6791
2026-01-18 09:32:15.28	103.35	4.33	-48.6	-52.9	9.3	3.42e-02	0	35	0	7340032	67	6381
2026-01-18 09:32:16.29	103.30	4.39	-48.4	-52.1	10.1	2.37e-02	0	35	0	13631488	67	5829
2026-01-18 09:32:17.29	103.25	4.46	-49.0	-52.1	10.6	1.13e-02	0	35	0	18874368	68	5512
2026-01-18 09:32:18.30	103.20	4.53	-48.6	-51.5	11.4	1.46e-03	0	35	0	25165824	68	5124
2026-01-18 09:32:19.31	103.15	4.59	-48.2	-50.9	12.0	4.10e-04	0	35	0	30408704	68	4778
2026-01-18 09:32:20.32	103.10	4.66	-48.4	-51.2	11.6	5.65e-04	0	35	0	36700160	68	4973
2026-01-18 09:32:21.33	103.05	4.73	-48.3	-51.0	11.8	7.69e-04	0	35	0	41943040	68	4864
2026-01-18 09:32:22.33	102.99	4.79	-48.6	-51.5	11.3	8.70e-04	0	35	0	47185920	68	5141
2026-01-18 09:32:23.34	102.94	4.86	-49.1	-52.3	10.5	4.03e-03	0	35	0	53477376	68	5610
2026-01-18 09:32:24.35	102.89	4.93	-49.5	-53.2	9.6	1.16e-02	0	35	0	58720256	69	5892
2026-01-18 09:32:25.35	102.84	5.00	-49.8	-53.9	8.9	3.08e-02	0	35	0	63963136	70	6010
2026-01-18 09:32:26.36	102.78	5.06	-50.3	-54.8	7.9	9.15e-02	0	35	0	70254592	71	6335
2026-01-18 09:32:27.37	102.73	5.13	-49.5	-53.3	9.2	8.28e-02	0	35	0	75497472	71	5304
2026-01-18 09:32:28.38	102.68	5.20	-48.7	-51.8	11.1	5.71e-03	0	35	0	81788928	68	5283
2026-01-18 09:32:29.39	102.62	5.27	-51.2	-59.0	4.6	8.38e-01	0	35	0	82837504	73	9165
2026-01-18 09:32:30.39	102.57	5.34	-46.4	-48.1	15.0	5.26e-05	0	35	0	88080384	63	4649
2026-01-18 09:32:31.40	102.51	5.40	-49.7	-53.5	9.2	2.75e-01	0	35	0	94371840	71	5431
2026-01-18 09:32:32.41	102.46	5.47	-45.9	-47.5	15.7	0.00e+00	0	35	0	100663296	63	4305
2026-01-18 09:32:33.42	102.40	5.54	-45.6	-47.1	16.2	0.00e+00	0	35	0	105906176	62	4370
2026-01-18 09:32:34.42	102.35	5.61	-45.5	-47.1	16.2	0.00e+00	0	35	0	111149056	62	4342
2026-01-18 09:32:35.43	102.29	5.68	-45.1	-46.6	16.7	0.00e+00	0	35	0	117440512	62	4125
2026-01-18 09:32:36.44	102.24	5.75	-44.9	-46.3	17.0	0.00e+00	0	35	0	122683392	61	4221
2026-01-18 09:32:37.45	102.18	5.82	-45.0	-46.4	16.8	0.00e+00	0	35	0	127926272	61	4273
2026-01-18 09:32:38.46	102.12	5.89	-44.6	-45.9	17.2	0.00e+00	0	35	0	134217728	61	4045
2026-01-18 09:32:39.46	102.07	5.96	-44.3	-45.6	17.4	0.00e+00	0	35	0	139460608	60	4144
2026-01-18 09:32:40.47	102.01	6.03	-44.2	-45.6	17.4	0.00e+00	0	35	0	144703488	60	4110
2026-01-18 09:32:41.47	101.95	6.10	-44.2	-45.6	17.3	2.20e-06	0	35	0	150994944	60	4111
2026-01-18 09:32:42.48	101.90	6.17	-44.2	-45.5	17.3	2.74e-05	0	35	0	156237824	60	4063
2026-01-18 09:32:43.49	101.84	6.24	-44.4	-45.7	17.4	3.40e-06	0	35	0	162529280	59	4417
2026-01-18 09:32:44.50	101.78	6.31	-44.2	-45.4	17.7	1.10e-06	0	35	0	167772160	59	4284
2026-01-18 09:32:45.51	101.72	6.38	-44.1	-45.3	18.3	0.00e+00	0	35	0	174063616	59	4216
2026-01-18 09:32:46.51	101.66	6.45	-44.4	-45.7	18.0	0.00e+00	0	35	0	179306496	59	4410
2026-01-18 09:32:47.53	101.60	6.52	-44.3	-45.5	18.1	0.00e+00	0	35	0	185597952	59	4316
2026-01-18 09:32:48.53	101.54	6.59	-44.1	-45.3	18.4	0.00e+00	0	35	0	190840832	59	4210
2026-01-18 09:32:49.54	101.48	6.66	-44.0	-45.2	18.4	0.00e+00	0	35	0	196083712	59	4173
2026-01-18 09:32:50.55	101.42	6.74	-44.2	-45.4	18.3	0.00e+00	0	35	0	202375168	59	4269
2026-01-18 09:32:51.56	101.36	6.81	-44.0	-45.2	18.5	0.00e+00	0	35	0	207618048	59	4171
2026-01-18 09:32:52.57	101.30	6.88	-44.1	-45.3	18.4	0.00e+00	0	35	0	212860928	59	4213
2026-01-18 09:32:53.57	101.24	6.95	-44.0	-45.2	18.5	0.00e+00	0	35	0	219152384	59	4148
2026-01-18 09:32:54.58	101.18	7.02	-44.0	-45.2	18.5	0.00e+00	0	35	0	224395264	59	4171
2026-01-18 09:32:55.59	101.12	7.10	-44.0	-45.1	18.6	0.00e+00	0	35	0	229638144	59	4143
2026-01-18 09:32:56.60	101.06	7.17	-43.9	-45.1	18.6	0.00e+00	0	35	0	235929600	59	4116
2026-01-18 09:32:57.61	101.00	7.24	-43.9	-45.1	18.7	0.00e+00	0	35	0	242221056	59	4100
2026-01-18 09:32:58.62	100.93	7.31	-43.9	-45.0	18.7	0.00e+00	0	35	0	247463936	59	4079
2026-01-18 09:32:59.63	100.87	7.39	-44.1	-45.3	18.4	0.00e+00	0	35	0	252706816	59	4208
2026-01-18 09:33:00.63	100.81	7.46	-43.6	-44.8	18.9	0.00e+00	0	35	0	258998272	59	3969
2026-01-18 09:33:01.64	100.74	7.53	-43.8	-44.9	18.8	0.00e+00	0	35	0	264241152	59	4045
2026-01-18 09:33:02.65	100.68	7.61	-43.8	-44.9	18.8	0.00e+00	0	35	0	270532608	59	4029
2026-01-18 09:33:03.66	100.61	7.68	-43.6	-44.8	18.9	0.00e+00	0	35	0	275775488	59	3959
2026-01-18 09:33:04.66	100.55	7.75	-43.5	-44.6	19.1	0.00e+00	0	35	0	281018368	59	3910
2026-01-18 09:33:05.67	100.49	7.83	-43.4	-44.6	19.2	0.00e+00	0	35	0	287309824	58	4100
2026-01-18 09:33:06.68	100.42	7.90	-43.5	-44.6	19.1	0.00e+00	0	35	0	292552704	58	4124
2026-01-18 09:33:07.69	100.35	7.98	-43.5	-44.6	19.1	0.00e+00	0	35	0	297795584	58	4130
2026-01-18 09:33:08.69	100.29	8.05	-43.5	-44.6	19.1	0.00e+00	0	35	0	304087040	58	4135
2026-01-18 09:33:09.70	100.22	8.13	-43.7	-44.8	18.9	0.00e+00	0	35	0	310378496	58	4239
2026-01-18 09:33:10.71	100.16	8.20	-43.6	-44.7	19.0	0.00e+00	0	35	0	315621376	58	4193
2026-01-18 09:33:11.72	100.09	8.28	-43.4	-44.4	19.3	0.00e+00	0	35	0	320864256	58	4047
2026-01-18 09:33:12.73	100.02	8.35	-43.4	-44.5	19.3	0.00e+00	0	35	0	327155712	58	4054
2026-01-18 09:33:13.73	99.95	8.43	-43.4	-44.5	19.3	0.00e+00	0	35	0	332398592	58	4060
2026-01-18 09:33:14.74	99.89	8.50	-43.5	-44.6	19.2	0.00e+00	0	35	0	337641472	58	4105
2026-01-18 09:33:15.75	99.82	8.58	-43.4	-44.5	19.3	0.00e+00	0	35	0	343932928	58	4070
2026-01-18 09:33:16.76	99.75	8.66	-43.6	-44.7	19.1	0.00e+00	0	35	0	349175808	58	4157
2026-01-18 09:33:17.77	99.68	8.73	-43.5	-44.6	19.2	0.00e+00	0	35	0	355467264	58	4126
2026-01-18 09:33:18.77	99.61	8.81	-43.6	-44.7	19.1	0.00e+00	0	35	0	360710144	58	4156
2026-01-18 09:33:19.78	99.54	8.88	-43.5	-44.6	19.2	0.00e+00	0	35	0	365953024	58	4135
2026-01-18 09:33:20.79	99.47	8.96	-43.4	-44.4	19.4	0.00e+00	0	35	0	372244480	58	4043
2026-01-18 09:33:21.80	99.40	9.04	-43.3	-44.4	19.4	0.00e+00	0	35	0	378535936	58	4017
2026-01-18 09:33:22.81	99.33	9.12	-43.4	-44.5	19.3	0.00e+00	0	35	0	383778816	58	4092
2026-01-18 09:33:23.82	99.26	9.19	-43.3	-44.4	19.4	0.00e+00	0	35	0	389021696	58	4038
2026-01-18 09:33:24.83	99.18	9.27	-43.4	-44.5	19.3	0.00e+00	0	35	0	395313152	58	4074
2026-01-18 09:33:25.83	99.11	9.35	-43.5	-44.6	19.3	0.00e+00	0	35	0	400556032	58	4099
2026-01-18 09:33:26.84	99.04	9.43	-43.3	-44.3	19.5	0.00e+00	0	35	0	405798912	58	4002
2026-01-18 09:33:27.85	98.97	9.51	-43.3	-44.3	19.5	0.00e+00	0	35	0	412090368	58	4000
2026-01-18 09:33:28.86	98.89	9.58	-43.3	-44.4	19.5	0.00e+00	0	35	0	417333248	58	4008
2026-01-18 09:33:29.87	98.82	9.66	-43.3	-44.4	19.4	0.00e+00	0	35	0	422576128	58	4040
2026-01-18 09:33:30.87	98.74	9.74	-43.3	-44.4	19.4	0.00e+00	0	35	0	428867584	58	4020
2026-01-18 09:33:31.88	98.67	9.82	-43.2	-44.2	19.6	0.00e+00	0	36	0	434110464	58	3955
2026-01-18 09:33:32.89	98.59	9.90	-43.2	-44.2	19.6	0.00e+00	0	35	0	440401920	58	3951
2026-01-18 09:33:33.90	98.52	9.98	-43.1	-44.2	19.7	0.00e+00	0	35	0	445644800	58	3923
2026-01-18 09:33:34.91	98.44	10.06	-43.1	-44.2	19.6	0.00e+00	0	36	0	451936256	58	3928
2026-01-18 09:33:35.91	98.37	10.14	-43.1	-44.1	19.7	0.00e+00	0	35	0	457179136	58	3904
2026-01-18 09:33:36.92	98.29	10.22	-43.2	-44.3	19.6	0.00e+00	0	35	0	463470592	58	3962
2026-01-18 09:33:37.93	98.21	10.30	-43.0	-44.1	19.8	0.00e+00	0	36	0	468713472	58	3885
2026-01-18 09:33:38.93	98.13	10.38	-43.0	-44.1	19.8	0.00e+00	0	35	0	473956352	58	3877
2026-01-18 09:33:39.94	98.05	10.46	-43.1	-44.1	19.8	0.00e+00	0	35	0	480247808	58	3889
2026-01-18 09:33:40.95	97.98	10.54	-43.0	-44.0	19.8	0.00e+00	0	36	0	485490688	58	3859
2026-01-18 09:33:41.96	97.90	10.62	-42.9	-44.0	19.9	0.00e+00	0	35	0	490733568	57	4052
2026-01-18 09:33:42.97	97.82	10.70	-42.9	-43.9	19.9	0.00e+00	0	35	0	497025024	57	4046
2026-01-18 09:33:43.97	97.74	10.79	-42.7	-43.7	20.1	0.00e+00	0	35	0	502267904	57	3952
2026-01-18 09:33:44.98	97.66	10.87	-42.8	-43.8	20.1	0.00e+00	0	35	0	507510784	57	3977
2026-01-18 09:33:45.99	97.57	10.95	-42.7	-43.7	20.1	0.00e+00	0	36	0	513802240	57	3951
2026-01-18 09:33:47.00	97.49	11.03	-42.7	-43.7	20.1	0.00e+00	0	36	0	520093696	57	3946
2026-01-18 09:33:48.01	97.41	11.11	-42.6	-43.6	20.2	0.00e+00	0	35	0	525336576	57	3908
2026-01-18 09:33:49.02	97.33	11.20	-42.7	-43.8	20.1	0.00e+00	0	35	0	530579456	57	3960
2026-01-18 09:33:50.03	97.25	11.28	-42.6	-43.6	20.2	0.00e+00	0	35	0	536870912	57	3912
2026-01-18 09:33:51.03	97.16	11.36	-42.7	-43.7	20.2	0.00e+00	0	36	0	542113792	57	3922
2026-01-18 09:33:52.04	97.08	11.45	-42.7	-43.7	20.2	0.00e+00	0	35	0	548405248	57	3923
2026-01-18 09:33:53.05	96.99	11.53	-42.5	-43.5	20.3	0.00e+00	0	36	0	553648128	57	3866
2026-01-18 09:33:54.05	96.91	11.61	-42.6	-43.6	20.3	0.00e+00	0	35	0	558891008	57	3875
2026-01-18 09:33:55.06	96.82	11.70	-42.6	-43.6	20.2	0.00e+00	0	35	0	565182464	57	3905
2026-01-18 09:33:56.07	96.74	11.78	-42.6	-43.6	20.3	0.00e+00	0	35	0	570425344	57	3881
2026-01-18 09:33:57.08	96.65	11.87	-42.6	-43.6	20.3	0.00e+00	0	35	0	575668224	57	3898
2026-01-18 09:33:58.09	96.56	11.95	-42.7	-43.7	20.2	0.00e+00	0	35	0	581959680	57	3922
2026-01-18 09:33:59.10	96.48	12.04	-42.3	-43.3	20.6	0.00e+00	0	36	0	588251136	56	3974
2026-01-18 09:34:00.10	96.39	12.12	-42.3	-43.3	20.6	0.00e+00	0	35	0	593494016	56	3985
2026-01-18 09:34:01.11	96.30	12.21	-42.4	-43.4	20.5	0.00e+00	0	36	0	598736896	56	4014
2026-01-18 09:34:02.12	96.21	12.29	-42.4	-43.3	20.6	0.00e+00	0	35	0	605028352	56	3991
2026-01-18 09:34:03.13	96.12	12.38	-42.3	-43.3	20.7	0.00e+00	0	36	0	610271232	56	3966
2026-01-18 09:34:04.14	96.03	12.46	-42.3	-43.3	20.6	0.00e+00	0	35	0	615514112	56	3979
2026-01-18 09:34:05.14	95.94	12.55	-42.1	-43.0	20.9	0.00e+00	0	36	0	621805568	56	3860
2026-01-18 09:34:06.15	95.85	12.64	-42.1	-43.0	20.9	0.00e+00	0	36	0	627048448	56	3859
2026-01-18 09:34:07.16	95.76	12.72	-42.1	-43.1	20.8	0.00e+00	0	35	0	633339904	56	3883
2026-01-18 09:34:08.17	95.66	12.81	-42.2	-43.2	20.7	0.00e+00	0	35	0	638582784	56	3932
2026-01-18 09:34:09.17	95.57	12.90	-42.2	-43.1	20.8	0.00e+00	0	36	0	643825664	56	3905
2026-01-18 09:34:10.18	95.48	12.98	-42.2	-43.2	20.8	0.00e+00	0	36	0	650117120	56	3914
2026-01-18 09:34:11.19	95.38	13.07	-42.2	-43.2	20.7	0.00e+00	0	36	0	656408576	56	3922
2026-01-18 09:34:12.20	95.29	13.16	-42.4	-43.4	20.6	0.00e+00	0	36	0	661651456	56	4006
2026-01-18 09:34:13.21	95.19	13.25	-42.3	-43.3	20.7	0.00e+00	0	35	0	666894336	56	3965
2026-01-18 09:34:14.22	95.10	13.34	-42.4	-43.4	20.6	0.00e+00	0	36	0	673185792	56	4012
2026-01-18 09:34:15.23	95.00	13.43	-42.4	-43.4	20.5	0.00e+00	0	36	0	678428672	56	4039
2026-01-18 09:34:16.23	94.90	13.51	-42.3	-43.2	20.7	0.00e+00	0	36	0	683671552	56	3956
2026-01-18 09:34:17.24	94.81	13.60	-42.3	-43.3	20.7	0.00e+00	0	36	0	689963008	56	3967
2026-01-18 09:34:18.25	94.71	13.69	-42.4	-43.4	20.6	0.00e+00	0	36	0	695205888	56	4009
2026-01-18 09:34:19.26	94.61	13.78	-42.2	-43.2	20.8	0.00e+00	0	35	0	700448768	56	3928
2026-01-18 09:34:20.27	94.51	13.87	-42.3	-43.2	20.7	0.00e+00	0	36	0	706740224	56	3950
2026-01-18 09:34:21.27	94.41	13.96	-42.3	-43.2	20.7	0.00e+00	0	36	0	711983104	56	3947
2026-01-18 09:34:22.28	94.31	14.05	-42.3	-43.2	20.7	0.00e+00	0	36	0	718274560	56	3958
2026-01-18 09:34:23.29	94.21	14.14	-42.1	-43.1	20.9	0.00e+00	0	36	0	723517440	56	3873
2026-01-18 09:34:24.29	94.11	14.23	-42.0	-43.0	21.0	0.00e+00	0	35	0	728760320	56	3843
2026-01-18 09:34:25.30	94.00	14.32	-42.2	-43.1	20.8	0.00e+00	0	35	0	735051776	56	3910
2026-01-18 09:34:26.31	93.90	14.42	-42.1	-43.0	21.0	0.00e+00	0	36	0	741343232	56	3846
2026-01-18 09:34:27.32	93.80	14.51	-42.1	-43.0	20.9	0.00e+00	0	36	0	746586112	56	3863
2026-01-18 09:34:28.33	93.69	14.60	-42.1	-43.0	20.9	0.00e+00	0	36	0	751828992	56	3859
2026-01-18 09:34:29.33	93.59	14.69	-41.8	-42.8	21.1	0.00e+00	0	36	0	758120448	55	3970
2026-01-18 09:34:30.34	93.48	14.78	-41.9	-42.8	21.1	0.00e+00	0	35	0	763363328	55	3996
2026-01-18 09:34:31.35	93.37	14.88	-41.8	-42.7	21.2	0.00e+00	0	35	0	768606208	55	3928
2026-01-18 09:34:32.36	93.27	14.97	-41.8	-42.8	21.1	0.00e+00	0	36	0	774897664	55	3972
2026-01-18 09:34:33.37	93.16	15.06	-41.9	-42.9	21.0	0.00e+00	0	36	0	780140544	55	4005
2026-01-18 09:34:34.37	93.05	15.15	-41.7	-42.6	21.2	0.00e+00	0	35	0	785383424	55	3890
2026-01-18 09:34:35.38	92.94	15.25	-41.6	-42.5	21.4	0.00e+00	0	35	0	791674880	55	3833
2026-01-18 09:34:36.39	92.83	15.34	-41.5	-42.5	21.4	0.00e+00	0	36	0	796917760	55	3828
2026-01-18 09:34:37.40	92.72	15.44	-41.4	-42.3	21.5	0.00e+00	0	36	0	803209216	54	3997
2026-01-18 09:34:38.41	92.61	15.53	-41.5	-42.4	21.5	0.00e+00	0	36	0	808452096	54	4007
2026-01-18 09:34:39.41	92.49	15.62	-41.4	-42.3	21.5	0.00e+00	0	36	0	814743552	54	3997
2026-01-18 09:34:40.42	92.38	15.72	-41.4	-42.2	21.6	0.00e+00	0	36	0	819986432	54	3956
2026-01-18 09:34:41.43	92.27	15.81	-41.3	-42.2	21.6	0.00e+00	0	36	0	826277888	54	3953
2026-01-18 09:34:42.44	92.15	15.91	-41.2	-42.1	21.8	0.00e+00	0	36	0	831520768	54	3885
2026-01-18 09:34:43.45	92.04	16.01	-41.2	-42.1	21.8	0.00e+00	0	36	0	836763648	54	3872
2026-01-18 09:34:44.45	91.92	16.10	-41.3	-42.2	21.9	0.00e+00	0	36	0	843055104	54	3930
2026-01-18 09:34:45.46	91.81	16.20	-41.4	-42.3	21.8	0.00e+00	0	36	0	848297984	54	3962
2026-01-18 09:34:46.47	91.69	16.29	-41.3	-42.2	21.9	0.00e+00	0	36	0	853540864	54	3923
2026-01-18 09:34:47.48	91.57	16.39	-41.4	-42.3	21.8	0.00e+00	0	36	0	859832320	54	3959
2026-01-18 09:34:48.49	91.45	16.49	-41.4	-42.3	21.8	0.00e+00	0	36	0	865075200	54	3976
2026-01-18 09:34:49.49	91.33	16.58	-41.5	-42.3	21.8	0.00e+00	0	36	0	870318080	54	3984
2026-01-18 09:34:50.50	91.21	16.68	-41.4	-42.3	21.8	0.00e+00	0	36	0	876609536	54	3975
2026-01-18 09:34:51.51	91.09	16.78	-41.5	-42.4	21.7	0.00e+00	0	36	0	882900992	54	4027
2026-01-18 09:34:52.52	90.97	16.88	-41.5	-42.4	21.7	0.00e+00	0	36	0	888143872	54	4032
2026-01-18 09:34:53.53	90.84	16.98	-41.6	-42.5	21.6	0.00e+00	0	36	0	893386752	54	4062
2026-01-18 09:34:54.53	90.72	17.07	-41.6	-42.4	21.7	0.00e+00	0	36	0	899678208	54	4042
2026-01-18 09:34:55.54	90.59	17.17	-41.6	-42.4	21.7	0.00e+00	0	36	0	904921088	54	4050
2026-01-18 09:34:56.55	90.47	17.27	-41.6	-42.5	21.7	0.00e+00	0	36	0	911212544	54	4062
2026-01-18 09:34:57.55	90.34	17.37	-41.4	-42.3	21.8	0.00e+00	0	36	0	916455424	54	3973
2026-01-18 09:34:58.56	90.21	17.47	-41.2	-42.0	22.1	0.00e+00	0	36	0	921698304	54	3868
2026-01-18 09:34:59.57	90.09	17.57	-41.2	-42.0	22.1	0.00e+00	0	36	0	927989760	54	3850
2026-01-18 09:35:00.58	89.96	17.67	-41.1	-41.9	22.2	0.00e+00	0	36	0	933232640	54	3822
2026-01-18 09:35:01.59	89.83	17.77	-41.1	-41.9	22.2	0.00e+00	0	36	0	938475520	54	3790
2026-01-18 09:35:02.60	89.70	17.87	-41.1	-42.0	22.1	0.00e+00	0	36	0	944766976	54	3834
2026-01-18 09:35:03.60	89.57	17.97	-40.9	-41.8	22.3	0.00e+00	0	36	0	951058432	53	3964
2026-01-18 09:35:04.61	89.43	18.07	-41.1	-41.9	22.2	0.00e+00	0	36	0	956301312	53	4024
2026-01-18 09:35:05.62	89.30	18.17	-41.0	-41.9	22.3	0.00e+00	0	36	0	961544192	53	4006
2026-01-18 09:35:06.63	89.16	18.27	-41.0	-41.8	22.3	0.00e+00	0	36	0	967835648	53	3993
2026-01-18 09:35:07.63	89.03	18.37	-41.1	-41.9	22.2	0.00e+00	0	36	0	973078528	53	4022
2026-01-18 09:35:08.64	88.89	18.48	-41.0	-41.8	22.3	0.00e+00	0	36	0	978321408	53	3985
2026-01-18 09:35:09.65	88.76	18.58	-41.0	-41.8	22.3	0.00e+00	0	36	0	984612864	53	4003
2026-01-18 09:35:10.66	88.62	18.68	-41.0	-41.8	22.3	0.00e+00	0	36	0	989855744	53	3982
2026-01-18 09:35:11.67	88.48	18.78	-40.9	-41.7	22.4	0.00e+00	0	36	0	996147200	53	3946
2026-01-18 09:35:12.68	88.34	18.89	-40.6	-41.4	22.7	0.00e+00	0	36	0	1001390080	53	3822
2026-01-18 09:35:13.69	88.20	18.99	-40.7	-41.5	22.6	0.00e+00	0	36	0	1006632960	53	3841
2026-01-18 09:35:14.70	88.05	19.09	-40.7	-41.5	22.6	0.00e+00	0	36	0	1012924416	53	3854
2026-01-18 09:35:15.71	87.91	19.20	-40.6	-41.4	22.7	0.00e+00	0	36	0	1019215872	53	3821
2026-01-18 09:35:16.71	87.77	19.30	-40.6	-41.4	22.7	0.00e+00	0	36	0	1024458752	53	3818
2026-01-18 09:35:17.72	87.62	19.41	-40.6	-41.4	22.7	0.00e+00	0	36	0	1029701632	53	3822
2026-01-18 09:35:18.73	87.48	19.51	-40.6	-41.4	22.8	0.00e+00	0	36	0	1035993088	53	3790
2026-01-18 09:35:19.74	87.33	19.62	-40.6	-41.4	22.8	0.00e+00	0	36	0	1041235968	53	3781
2026-01-18 09:35:20.75	87.18	19.72	-40.6	-41.4	22.7	0.00e+00	0	36	0	1046478848	53	3819
2026-01-18 09:35:21.76	87.03	19.83	-40.7	-41.5	22.6	0.00e+00	0	36	0	1052770304	53	3848
2026-01-18 09:35:22.76	86.88	19.93	-40.7	-41.5	22.6	0.00e+00	0	36	0	1058013184	53	3848
2026-01-18 09:35:23.77	86.73	20.04	-40.6	-41.4	22.8	0.00e+00	0	36	0	1063256064	53	3788
2026-01-18 09:35:24.78	86.58	20.14	-40.5	-41.3	22.9	0.00e+00	0	36	0	1069547520	53	3755
2026-01-18 09:35:25.78	86.43	20.25	-40.6	-41.4	22.8	0.00e+00	0	36	0	1074790400	53	3782
2026-01-18 09:35:26.79	86.27	20.35	-40.4	-41.2	22.9	0.00e+00	0	36	0	1081081856	52	3940
2026-01-18 09:35:27.80	86.12	20.46	-40.5	-41.2	22.9	0.00e+00	0	36	0	1086324736	52	3957
2026-01-18 09:35:28.81	85.96	20.57	-40.4	-41.2	22.9	0.00e+00	0	36	0	1092616192	52	3940
2026-01-18 09:35:29.81	85.80	20.67	-40.3	-41.1	23.0	0.00e+00	0	36	0	1097859072	52	3897
2026-01-18 09:35:30.82	85.64	20.78	-40.3	-41.1	23.1	0.00e+00	0	36	0	1104150528	52	3894
2026-01-18 09:35:31.83	85.48	20.89	-40.3	-41.0	23.1	0.00e+00	0	36	0	1109393408	52	3865
2026-01-18 09:35:32.84	85.32	21.00	-40.2	-41.0	23.2	0.00e+00	0	36	0	1114636288	52	3839
2026-01-18 09:35:33.85	85.16	21.10	-40.4	-41.1	23.0	0.00e+00	0	36	0	1120927744	52	3912
2026-01-18 09:35:34.85	85.00	21.21	-40.3	-41.1	23.1	0.00e+00	0	36	0	1126170624	52	3876
2026-01-18 09:35:35.86	84.83	21.32	-40.1	-40.9	23.2	0.00e+00	0	36	0	1131413504	52	3813
2026-01-18 09:35:36.87	84.67	21.43	-40.1	-40.9	23.2	0.00e+00	0	36	0	1137704960	52	3806
2026-01-18 09:35:37.88	84.50	21.54	-40.1	-40.8	23.3	0.00e+00	0	36	0	1142947840	52	3770
2026-01-18 09:35:38.89	84.33	21.65	-40.1	-40.8	23.3	0.00e+00	0	36	0	1148190720	52	3775
2026-01-18 09:35:39.89	84.16	21.75	-40.1	-40.9	23.3	0.00e+00	0	36	0	1154482176	52	3796
2026-01-18 09:35:40.90	83.99	21.86	-40.0	-40.7	23.4	0.00e+00	0	36	0	1160773632	52	3731
2026-01-18 09:35:41.91	83.82	21.97	-40.0	-40.8	23.4	0.00e+00	0	36	0	1166016512	51	3965
2026-01-18 09:35:42.92	83.65	22.08	-40.0	-40.8	23.4	0.00e+00	0	36	0	1171259392	51	3974
2026-01-18 09:35:43.93	83.47	22.19	-40.1	-40.8	23.4	0.00e+00	0	36	0	1177550848	51	3998
2026-01-18 09:35:44.93	83.30	22.30	-40.1	-40.9	23.4	0.00e+00	0	36	0	1182793728	51	4017
2026-01-18 09:35:45.94	83.12	22.41	-40.0	-40.8	23.4	0.00e+00	0	36	0	1189085184	51	3971
2026-01-18 09:35:46.95	82.94	22.52	-40.1	-40.9	23.4	0.00e+00	0	36	0	1194328064	51	4022
2026-01-18 09:35:47.96	82.76	22.63	-40.2	-40.9	23.3	0.00e+00	0	36	0	1199570944	51	4049
2026-01-18 09:35:48.97	82.58	22.75	-40.1	-40.9	23.3	0.00e+00	0	36	0	1205862400	51	4033
2026-01-18 09:35:49.97	82.40	22.86	-40.1	-40.9	23.4	0.00e+00	0	36	0	1211105280	51	4022
2026-01-18 09:35:50.98	82.22	22.97	-40.1	-40.8	23.4	0.00e+00	0	36	0	1216348160	51	4004
2026-01-18 09:35:51.99	82.03	23.08	-40.1	-40.8	23.4	0.00e+00	0	36	0	1222639616	51	3990
2026-01-18 09:35:53.00	81.85	23.19	-40.1	-40.9	23.4	0.00e+00	0	36	0	1228931072	51	4020
2026-01-18 09:35:54.01	81.66	23.30	-40.1	-40.8	23.4	0.00e+00	0	36	0	1234173952	51	3990
2026-01-18 09:35:55.02	81.47	23.41	-40.0	-40.7	23.5	0.00e+00	0	36	0	1239416832	51	3943
2026-01-18 09:35:56.03	81.28	23.53	-40.0	-40.8	23.5	0.00e+00	0	36	0	1245708288	51	3964
2026-01-18 09:35:57.03	81.09	23.64	-39.9	-40.7	23.6	0.00e+00	0	36	0	1250951168	51	3918
2026-01-18 09:35:58.04	80.90	23.75	-40.0	-40.8	23.5	0.00e+00	0	36	0	1256194048	51	3971
2026-01-18 09:35:59.05	80.70	23.86	-39.9	-40.6	23.6	0.00e+00	0	36	0	1262485504	51	3912
2026-01-18 09:36:00.06	80.50	23.97	-39.9	-40.7	23.6	0.00e+00	0	36	0	1267728384	51	3938
2026-01-18 09:36:01.07	80.31	24.09	-40.0	-40.7	23.5	0.00e+00	0	36	0	1274019840	51	3957
2026-01-18 09:36:02.07	80.11	24.20	-40.0	-40.8	23.5	0.00e+00	0	36	0	1279262720	51	3972
2026-01-18 09:36:03.08	79.91	24.31	-39.9	-40.7	23.6	0.00e+00	0	36	0	1284505600	51	3940
2026-01-18 09:36:04.09	79.71	24.42	-39.9	-40.7	23.6	0.00e+00	0	36	0	1290797056	51	3921
2026-01-18 09:36:05.10	79.51	24.54	-40.0	-40.8	23.5	0.00e+00	0	36	0	1297088512	51	3976
2026-01-18 09:36:06.11	79.30	24.65	-39.9	-40.7	23.6	0.00e+00	0	36	0	1302331392	51	3929
2026-01-18 09:36:07.11	79.10	24.76	-39.9	-40.6	23.7	0.00e+00	0	36	0	1307574272	51	3896
2026-01-18 09:36:08.12	78.89	24.88	-39.9	-40.7	23.6	0.00e+00	0	36	0	1313865728	51	3929
2026-01-18 09:36:09.13	78.68	24.99	-39.9	-40.6	23.6	0.00e+00	0	36	0	1319108608	51	3913
2026-01-18 09:36:10.14	78.47	25.10	-39.9	-40.7	23.6	0.00e+00	0	36	0	1324351488	51	3921
2026-01-18 09:36:11.15	78.26	25.22	-39.9	-40.7	23.6	0.00e+00	0	36	0	1330642944	51	3929
2026-01-18 09:36:12.15	78.05	25.33	-40.0	-40.7	23.6	0.00e+00	0	36	0	1335885824	51	3954
2026-01-18 09:36:13.16	77.83	25.44	-39.9	-40.6	23.7	0.00e+00	0	36	0	1341128704	51	3905
2026-01-18 09:36:14.17	77.61	25.55	-39.7	-40.5	23.8	0.00e+00	0	36	0	1347420160	51	3834
2026-01-18 09:36:15.18	77.39	25.67	-39.6	-40.3	23.9	0.00e+00	0	36	0	1352663040	51	3764
2026-01-18 09:36:16.18	77.18	25.78	-39.7	-40.4	23.9	0.00e+00	0	36	0	1358954496	51	3806
2026-01-18 09:36:17.19	76.95	25.89	-39.5	-40.2	24.1	0.00e+00	0	36	0	1364197376	51	3716
2026-01-18 09:36:18.20	76.73	26.01	-39.4	-40.1	24.1	0.00e+00	0	36	0	1370488832	50	3909
2026-01-18 09:36:19.20	76.51	26.12	-39.4	-40.2	24.1	0.00e+00	0	36	0	1375731712	50	3917
2026-01-18 09:36:20.21	76.28	26.23	-39.4	-40.2	24.1	0.00e+00	0	36	0	1382023168	50	3918
2026-01-18 09:36:21.22	76.05	26.35	-39.4	-40.2	24.1	0.00e+00	0	36	0	1387266048	50	3921
2026-01-18 09:36:22.23	75.82	26.46	-39.4	-40.2	24.1	0.00e+00	0	36	0	1392508928	50	3916
2026-01-18 09:36:23.23	75.60	26.57	-39.3	-40.1	24.2	0.00e+00	0	36	0	1398800384	50	3873
2026-01-18 09:36:24.24	75.36	26.69	-39.3	-40.0	24.3	0.00e+00	0	36	0	1404043264	50	3843
2026-01-18 09:36:25.25	75.13	26.80	-39.3	-40.0	24.2	0.00e+00	0	36	0	1409286144	50	3840
2026-01-18 09:36:26.26	74.89	26.91	-39.3	-40.0	24.2	0.00e+00	0	36	0	1415577600	50	3862
2026-01-18 09:36:27.27	74.65	27.03	-39.4	-40.2	24.1	0.00e+00	0	36	0	1420820480	50	3925
2026-01-18 09:36:28.27	74.42	27.14	-39.2	-40.0	24.3	0.00e+00	0	36	0	1426063360	50	3829
2026-01-18 09:36:29.28	74.17	27.25	-39.2	-40.0	24.3	0.00e+00	0	36	0	1432354816	50	3834
2026-01-18 09:36:30.29	73.93	27.37	-39.3	-40.1	24.2	0.00e+00	0	36	0	1437597696	50	3880
2026-01-18 09:36:31.30	73.68	27.48	-39.3	-40.1	24.2	0.00e+00	0	36	0	1443889152	50	3874
2026-01-18 09:36:32.31	73.44	27.59	-39.2	-40.0	24.3	0.00e+00	0	36	0	1449132032	50	3832
2026-01-18 09:36:33.31	73.19	27.70	-39.3	-40.0	24.3	0.00e+00	0	36	0	1455423488	50	3847
2026-01-18 09:36:34.32	72.94	27.82	-39.2	-39.9	24.4	0.00e+00	0	36	0	1460666368	50	3793
2026-01-18 09:36:35.33	72.69	27.93	-39.3	-40.0	24.3	0.00e+00	0	36	0	1466957824	50	3837
2026-01-18 09:36:36.34	72.44	28.04	-39.3	-40.0	24.3	0.00e+00	0	36	0	1472200704	50	3849
2026-01-18 09:36:37.35	72.18	28.15	-39.3	-40.0	24.3	0.00e+00	0	36	0	1477443584	50	3861
2026-01-18 09:36:38.36	71.92	28.26	-39.4	-40.2	24.2	0.00e+00	0	36	0	1483735040	50	3916
2026-01-18 09:36:39.36	71.67	28.37	-39.5	-40.2	24.1	0.00e+00	0	36	0	1488977920	50	3930
2026-01-18 09:36:40.37	71.40	28.49	-39.3	-40.0	24.3	0.00e+00	0	36	0	1494220800	50	3867
2026-01-18 09:36:41.38	71.14	28.60	-39.5	-40.2	24.1	0.00e+00	0	36	0	1500512256	50	3942
2026-01-18 09:36:42.38	70.88	28.71	-39.4	-40.1	24.2	0.00e+00	0	36	0	1505755136	50	3886
2026-01-18 09:36:43.39	70.61	28.82	-39.3	-40.1	24.2	0.00e+00	0	36	0	1512046592	50	3879
2026-01-18 09:36:44.40	70.34	28.93	-39.4	-40.1	24.2	0.00e+00	0	36	0	1517289472	50	3905
2026-01-18 09:36:45.41	70.07	29.04	-39.4	-40.2	24.1	0.00e+00	0	36	0	1523580928	50	3917
2026-01-18 09:36:46.42	69.80	29.15	-39.2	-39.9	24.4	0.00e+00	0	36	0	1528823808	50	3820
2026-01-18 09:36:47.42	69.53	29.26	-39.3	-40.0	24.3	0.00e+00	0	36	0	1534066688	50	3833
2026-01-18 09:36:48.43	69.25	29.37	-39.4	-40.1	24.2	0.00e+00	0	36	0	1540358144	50	3886
2026-01-18 09:36:49.44	68.98	29.47	-39.3	-40.1	24.2	0.00e+00	0	36	0	1545601024	50	3873
2026-01-18 09:36:50.45	68.70	29.58	-39.3	-40.0	24.3	0.00e+00	0	36	0	1551892480	50	3849
2026-01-18 09:36:51.45	68.42	29.69	-39.3	-40.0	24.3	0.00e+00	0	36	0	1557135360	50	3834
2026-01-18 09:36:52.46	68.13	29.80	-39.3	-40.0	24.3	0.00e+00	0	36	0	1562378240	50	3843
2026-01-18 09:36:53.47	67.85	29.91	-39.0	-39.7	24.6	0.00e+00	0	36	0	1568669696	50	3727
2026-01-18 09:36:54.48	67.56	30.01	-39.1	-39.8	24.5	0.00e+00	0	36	0	1573912576	50	3747
2026-01-18 09:36:55.49	67.27	30.12	-39.0	-39.7	24.6	0.00e+00	0	36	0	1579155456	50	3731
2026-01-18 09:36:56.49	66.98	30.22	-38.9	-39.6	24.6	0.00e+00	0	36	0	1585446912	49	3906
2026-01-18 09:36:57.50	66.69	30.33	-38.9	-39.6	24.6	0.00e+00	0	36	0	1591738368	49	3912
2026-01-18 09:36:58.51	66.39	30.44	-38.9	-39.6	24.7	0.00e+00	0	36	0	1596981248	49	3882
2026-01-18 09:36:59.51	66.10	30.54	-38.9	-39.6	24.7	0.00e+00	0	36	0	1602224128	49	3878
2026-01-18 09:37:00.52	65.80	30.64	-38.8	-39.5	24.8	0.00e+00	0	36	0	1608515584	49	3836
2026-01-18 09:37:01.53	65.50	30.75	-38.8	-39.5	24.7	0.00e+00	0	36	0	1613758464	49	3864
2026-01-18 09:37:02.54	65.20	30.85	-38.8	-39.5	24.7	0.00e+00	0	36	0	1619001344	49	3867
2026-01-18 09:37:03.55	64.89	30.95	-38.6	-39.3	24.9	0.00e+00	0	36	0	1625292800	49	3758
2026-01-18 09:37:04.55	64.59	31.05	-38.7	-39.4	24.9	0.00e+00	0	36	0	1630535680	49	3781
2026-01-18 09:37:05.56	64.28	31.16	-38.8	-39.5	24.8	0.00e+00	0	36	0	1636827136	49	3838
2026-01-18 09:37:06.57	63.97	31.26	-38.8	-39.6	24.7	0.00e+00	0	36	0	1642070016	49	3874
2026-01-18 09:37:07.58	63.66	31.36	-38.9	-39.6	24.6	0.00e+00	0	36	0	1647312896	49	3911
2026-01-18 09:37:08.59	63.34	31.46	-38.8	-39.5	24.8	0.00e+00	0	36	0	1653604352	49	3843
2026-01-18 09:37:09.59	63.03	31.55	-38.8	-39.6	24.7	0.00e+00	0	36	0	1659895808	49	3871
2026-01-18 09:37:10.60	62.71	31.65	-38.8	-39.5	24.7	0.00e+00	0	36	0	1665138688	49	3857
2026-01-18 09:37:11.61	62.39	31.75	-38.6	-39.3	24.9	0.00e+00	0	36	0	1670381568	49	3768
2026-01-18 09:37:12.62	62.07	31.85	-38.6	-39.3	25.0	0.00e+00	0	36	0	1676673024	49	3754
2026-01-18 09:37:13.62	61.75	31.94	-38.7	-39.4	24.8	0.00e+00	0	36	0	1681915904	49	3812
2026-01-18 09:37:14.63	61.42	32.04	-38.7	-39.4	24.9	0.00e+00	0	36	0	1687158784	49	3813
2026-01-18 09:37:15.64	61.09	32.13	-38.8	-39.5	24.8	0.00e+00	0	36	0	1693450240	49	3840
2026-01-18 09:37:16.65	60.76	32.23	-38.8	-39.5	24.8	0.00e+00	0	36	0	1698693120	49	3846
2026-01-18 09:37:17.65	60.43	32.32	-38.7	-39.4	24.9	0.00e+00	0	36	0	1703936000	49	3802
2026-01-18 09:37:18.66	60.10	32.41	-38.7	-39.4	24.9	0.00e+00	0	36	0	1710227456	49	3820
2026-01-18 09:37:19.67	59.76	32.50	-38.7	-39.4	24.9	0.00e+00	0	36	0	1715470336	49	3788
2026-01-18 09:37:20.67	59.43	32.59	-38.8	-39.5	24.8	0.00e+00	0	36	0	1721761792	49	3829
2026-01-18 09:37:21.68	59.09	32.68	-38.5	-39.2	25.1	0.00e+00	0	36	0	1727004672	49	3713
2026-01-18 09:37:22.69	58.75	32.77	-38.6	-39.3	25.0	0.00e+00	0	36	0	1732247552	49	3751
2026-01-18 09:37:23.70	58.40	32.86	-38.6	-39.4	25.0	0.00e+00	0	36	0	1738539008	49	3785
2026-01-18 09:37:24.71	58.06	32.95	-38.5	-39.2	25.1	0.00e+00	0	36	0	1744830464	49	3706
2026-01-18 09:37:25.71	57.72	33.03	-38.4	-39.1	25.1	0.00e+00	0	36	0	1750073344	48	3910
2026-01-18 09:37:26.72	57.37	33.12	-38.4	-39.1	25.1	0.00e+00	0	36	0	1755316224	48	3892
2026-01-18 09:37:27.73	57.02	33.20	-38.6	-39.3	25.0	0.00e+00	0	36	0	1761607680	48	3963
2026-01-18 09:37:28.74	56.66	33.29	-38.5	-39.2	25.1	0.00e+00	0	36	0	1766850560	48	3919
2026-01-18 09:37:29.75	56.31	33.37	-38.6	-39.3	25.0	0.00e+00	0	36	0	1772093440	48	3967
2026-01-18 09:37:30.75	55.96	33.45	-38.5	-39.2	25.1	0.00e+00	0	36	0	1778384896	48	3950
2026-01-18 09:37:31.76	55.60	33.53	-38.7	-39.4	24.9	0.00e+00	0	36	0	1783627776	48	4017
2026-01-18 09:37:32.77	55.24	33.61	-38.6	-39.3	25.0	0.00e+00	0	36	0	1788870656	48	3996
2026-01-18 09:37:33.78	54.88	33.69	-38.6	-39.3	25.0	0.00e+00	0	36	0	1795162112	48	3960
2026-01-18 09:37:34.78	54.52	33.76	-38.6	-39.3	25.0	0.00e+00	0	36	0	1800404992	48	3963
2026-01-18 09:37:35.79	54.15	33.84	-38.5	-39.2	25.1	0.00e+00	0	36	0	1806696448	48	3948
2026-01-18 09:37:36.80	53.79	33.91	-38.6	-39.3	25.0	0.00e+00	0	36	0	1811939328	48	3998
2026-01-18 09:37:37.80	53.42	33.99	-38.7	-39.5	24.8	0.00e+00	0	36	0	1818230784	48	4060
2026-01-18 09:37:38.81	53.05	34.06	-38.7	-39.4	24.9	0.00e+00	0	36	0	1823473664	48	4049
2026-01-18 09:37:39.82	52.68	34.13	-38.8	-39.5	24.8	0.00e+00	0	36	0	1829765120	48	4062
2026-01-18 09:37:40.83	52.31	34.20	-38.6	-39.3	25.0	0.00e+00	0	36	0	1835008000	48	3990
2026-01-18 09:37:41.84	51.93	34.27	-38.5	-39.2	25.1	0.00e+00	0	36	0	1840250880	48	3937
2026-01-18 09:37:42.85	51.56	34.33	-38.4	-39.1	25.2	0.00e+00	0	36	0	1846542336	48	3882
2026-01-18 09:37:43.85	51.18	34.40	-38.4	-39.1	25.1	0.00e+00	0	36	0	1851785216	48	3913
2026-01-18 09:37:44.86	50.80	34.47	-38.4	-39.1	25.1	0.00e+00	0	36	0	1857028096	48	3901
2026-01-18 09:37:45.87	50.42	34.53	-38.5	-39.1	25.1	0.00e+00	0	36	0	1863319552	48	3912
2026-01-18 09:37:46.88	50.04	34.59	-38.4	-39.1	25.2	0.00e+00	0	36	0	1868562432	48	3904
2026-01-18 09:37:47.89	49.66	34.65	-38.6	-39.3	25.0	0.00e+00	0	36	0	1873805312	48	4004
2026-01-18 09:37:48.89	49.28	34.71	-38.9	-39.6	24.7	0.00e+00	0	36	0	1880096768	48	4132
2026-01-18 09:37:49.90	48.89	34.77	-38.9	-39.7	24.7	0.00e+00	0	36	0	1886388224	48	4153
2026-01-18 09:37:50.91	48.50	34.83	-38.8	-39.5	24.8	0.00e+00	0	36	0	1891631104	48	4092
2026-01-18 09:37:51.92	48.11	34.88	-38.9	-39.6	24.7	0.00e+00	0	36	0	1896873984	48	4106
2026-01-18 09:37:52.93	47.72	34.94	-38.9	-39.6	24.8	0.00e+00	0	36	0	1903165440	48	4104
2026-01-18 09:37:53.93	47.33	34.99	-38.7	-39.4	25.0	0.00e+00	0	36	0	1908408320	48	4009
2026-01-18 09:37:54.94	46.94	35.04	-38.7	-39.4	24.9	0.00e+00	0	36	0	1914699776	48	4015
2026-01-18 09:37:55.95	46.55	35.09	-38.8	-39.5	24.9	0.00e+00	0	36	0	1919942656	48	4056
2026-01-18 09:37:56.96	46.15	35.14	-38.8	-39.5	24.8	0.00e+00	0	36	0	1925185536	48	4083
2026-01-18 09:37:57.97	45.76	35.18	-38.7	-39.4	24.9	0.00e+00	0	36	0	1931476992	48	4049
2026-01-18 09:37:58.97	45.36	35.23	-38.7	-39.4	24.9	0.00e+00	0	36	0	1936719872	48	4048
2026-01-18 09:37:59.98	44.96	35.27	-38.6	-39.3	25.0	0.00e+00	0	36	0	1941962752	48	3977
2026-01-18 09:38:00.99	44.56	35.31	-38.6	-39.3	25.0	0.00e+00	0	36	0	1948254208	48	3989
2026-01-18 09:38:02.00	44.16	35.35	-38.4	-39.1	25.2	0.00e+00	0	36	0	1954545664	48	3891
2026-01-18 09:38:03.01	43.76	35.39	-38.4	-39.1	25.2	0.00e+00	0	36	0	1959788544	48	3911
2026-01-18 09:38:04.01	43.36	35.43	-38.7	-39.4	24.9	0.00e+00	0	36	0	1965031424	48	4013
2026-01-18 09:38:05.02	42.96	35.47	-38.7	-39.5	24.9	0.00e+00	0	36	0	1971322880	48	4054
2026-01-18 09:38:06.03	42.55	35.50	-38.7	-39.4	24.9	0.00e+00	0	36	0	1976565760	48	4049
2026-01-18 09:38:07.04	42.15	35.53	-38.4	-39.1	25.2	0.00e+00	0	36	0	1981808640	48	3894
2026-01-18 09:38:08.05	41.74	35.56	-38.3	-38.9	25.3	0.00e+00	0	36	0	1988100096	48	3815
2026-01-18 09:38:09.05	41.34	35.59	-38.2	-38.9	25.3	0.00e+00	0	36	0	1993342976	48	3817
2026-01-18 09:38:10.06	40.93	35.62	-38.2	-38.9	25.4	0.00e+00	0	36	0	1999634432	48	3805
2026-01-18 09:38:11.07	40.52	35.65	-38.3	-39.0	25.3	0.00e+00	0	36	0	2004877312	48	3847
2026-01-18 09:38:12.08	40.11	35.67	-38.3	-39.0	25.3	0.00e+00	0	36	0	2010120192	48	3851
2026-01-18 09:38:13.09	39.70	35.70	-38.3	-39.0	25.3	0.00e+00	0	36	0	2016411648	48	3855
2026-01-18 09:38:14.09	39.30	35.72	-38.2	-38.9	25.4	0.00e+00	0	36	0	2022703104	48	3808
2026-01-18 09:38:15.10	38.89	35.74	-38.3	-39.0	25.3	0.00e+00	0	36	0	2027945984	48	3861
2026-01-18 09:38:16.11	38.48	35.75	-38.5	-39.2	25.2	0.00e+00	0	36	0	2033188864	48	3924
2026-01-18 09:38:17.12	38.06	35.77	-38.6	-39.3	25.0	0.00e+00	0	36	0	2039480320	48	3975
2026-01-18 09:38:18.13	37.65	35.79	-38.5	-39.3	25.1	0.00e+00	0	36	0	2044723200	48	3961
2026-01-18 09:38:19.13	37.24	35.80	-38.5	-39.2	25.1	0.00e+00	0	36	0	2049966080	48	3938
2026-01-18 09:38:20.14	36.83	35.81	-38.5	-39.2	25.2	0.00e+00	0	36	0	2056257536	48	3915
2026-01-18 09:38:21.15	36.42	35.82	-38.3	-39.0	25.3	0.00e+00	0	36	0	2061500416	48	3854
2026-01-18 09:38:22.16	36.00	35.83	-38.5	-39.2	25.2	0.00e+00	0	36	0	2066743296	48	3924
2026-01-18 09:38:23.17	35.59	35.83	-38.7	-39.4	25.0	0.00e+00	0	36	0	2073034752	48	4011
2026-01-18 09:38:24.17	35.18	35.84	-38.7	-39.5	24.9	0.00e+00	0	36	0	2078277632	48	4056
2026-01-18 09:38:25.18	34.77	35.84	-38.6	-39.4	25.0	0.00e+00	0	36	0	2084569088	48	4005
2026-01-18 09:38:26.19	34.36	35.84	-38.4	-39.1	25.2	0.00e+00	0	36	0	2089811968	48	3894
2026-01-18 09:38:27.19	33.95	35.84	-38.5	-39.2	25.1	0.00e+00	0	36	0	2095054848	48	3926
2026-01-18 09:38:28.20	33.53	35.84	-38.5	-39.2	25.1	0.00e+00	0	36	0	2101346304	48	3948
2026-01-18 09:38:29.21	33.12	35.84	-38.3	-39.0	25.3	0.00e+00	0	36	0	2107637760	48	3849
2026-01-18 09:38:30.22	32.71	35.83	-38.4	-39.1	25.2	0.00e+00	0	36	0	2112880640	48	3870
2026-01-18 09:38:31.23	32.29	35.82	-38.4	-39.1	25.2	0.00e+00	0	36	0	2118123520	48	3904
2026-01-18 09:38:32.24	31.88	35.81	-38.4	-39.1	25.3	0.00e+00	0	36	0	2124414976	48	3875
2026-01-18 09:38:33.25	31.47	35.80	-38.5	-39.2	25.2	0.00e+00	0	36	0	2129657856	48	3921
2026-01-18 09:38:34.25	31.06	35.79	-38.3	-39.0	25.3	0.00e+00	0	36	0	2134900736	48	3849
2026-01-18 09:38:35.26	30.65	35.78	-38.3	-39.0	25.3	0.00e+00	0	36	0	2141192192	48	3859
2026-01-18 09:38:36.27	30.23	35.76	-38.3	-39.0	25.4	0.00e+00	0	36	0	2146435072	48	3825
2026-01-18 09:38:37.28	29.82	35.74	-38.5	-39.2	25.2	0.00e+00	0	36	0	2151677952	48	3930
2026-01-18 09:38:38.29	29.41	35.72	-38.6	-39.3	25.1	0.00e+00	0	36	0	2157969408	48	3964
2026-01-18 09:38:39.29	29.01	35.70	-38.8	-39.5	24.8	0.00e+00	0	36	0	2164260864	48	4078
2026-01-18 09:38:40.30	28.60	35.68	-38.8	-39.6	24.8	0.00e+00	0	36	0	2169503744	48	4105
2026-01-18 09:38:41.31	28.19	35.66	-38.7	-39.4	24.9	0.00e+00	0	36	0	2174746624	48	4031
2026-01-18 09:38:42.31	27.78	35.63	-38.7	-39.4	24.9	0.00e+00	0	36	0	2181038080	48	4043
2026-01-18 09:38:43.32	27.38	35.60	-38.8	-39.5	24.9	0.00e+00	0	36	0	2186280960	48	4071
2026-01-18 09:38:44.33	26.97	35.57	-38.8	-39.5	24.9	0.00e+00	0	36	0	2192572416	48	4053
2026-01-18 09:38:45.34	26.56	35.54	-38.5	-39.2	25.1	0.00e+00	0	36	0	2197815296	48	3956
2026-01-18 09:38:46.35	26.16	35.51	-38.4	-39.1	25.2	0.00e+00	0	36	0	2203058176	48	3883
2026-01-18 09:38:47.36	25.75	35.48	-38.3	-39.0	25.3	0.00e+00	0	36	0	2209349632	48	3839
2026-01-18 09:38:48.36	25.35	35.44	-38.3	-39.0	25.3	0.00e+00	0	36	0	2214592512	48	3855
2026-01-18 09:38:49.37	24.95	35.41	-38.2	-38.9	25.4	0.00e+00	0	36	0	2219835392	48	3793
2026-01-18 09:38:50.38	24.55	35.37	-38.2	-38.9	25.4	0.00e+00	0	36	0	2226126848	48	3805
2026-01-18 09:38:51.38	24.15	35.33	-38.2	-38.9	25.4	0.00e+00	0	36	0	2231369728	48	3802
2026-01-18 09:38:52.39	23.75	35.29	-38.2	-38.9	25.4	0.00e+00	0	36	0	2237661184	48	3810
2026-01-18 09:38:53.40	23.35	35.24	-38.3	-39.0	25.3	0.00e+00	0	36	0	2242904064	48	3825
2026-01-18 09:38:54.41	22.95	35.20	-38.4	-39.1	25.3	0.00e+00	0	36	0	2249195520	48	3877
2026-01-18 09:38:55.42	22.56	35.15	-38.5	-39.2	25.1	0.00e+00	0	36	0	2254438400	48	3938
2026-01-18 09:38:56.43	22.16	35.10	-38.6	-39.3	25.0	0.00e+00	0	36	0	2259681280	48	4001
2026-01-18 09:38:57.44	21.77	35.06	-38.6	-39.3	25.0	0.00e+00	0	36	0	2265972736	48	3975
2026-01-18 09:38:58.45	21.37	35.00	-38.4	-39.1	25.2	0.00e+00	0	36	0	2271215616	48	3902
2026-01-18 09:38:59.45	20.99	34.95	-38.4	-39.1	25.2	0.00e+00	0	36	0	2277507072	48	3899
2026-01-18 09:39:00.46	20.59	34.90	-38.4	-39.1	25.2	0.00e+00	0	36	0	2282749952	48	3882
2026-01-18 09:39:01.47	20.21	34.84	-38.4	-39.0	25.2	0.00e+00	0	36	0	2287992832	48	3865
2026-01-18 09:39:02.48	19.82	34.79	-38.2	-38.9	25.4	0.00e+00	0	36	0	2294284288	48	3782
2026-01-18 09:39:03.49	19.43	34.73	-38.1	-38.8	25.5	0.00e+00	0	36	0	2299527168	48	3771
2026-01-18 09:39:04.49	19.05	34.67	-38.2	-38.9	25.4	0.00e+00	0	36	0	2304770048	48	3805
2026-01-18 09:39:05.50	18.67	34.61	-38.3	-39.0	25.3	0.00e+00	0	36	0	2311061504	48	3837
2026-01-18 09:39:06.51	18.28	34.55	-38.2	-38.9	25.4	0.00e+00	0	36	0	2317352960	48	3800
2026-01-18 09:39:07.52	17.90	34.49	-38.2	-38.9	25.4	0.00e+00	0	36	0	2322595840	48	3816
2026-01-18 09:39:08.52	17.53	34.42	-38.3	-39.0	25.3	0.00e+00	0	36	0	2327838720	48	3853
2026-01-18 09:39:09.53	17.15	34.36	-38.5	-39.2	25.1	0.00e+00	0	36	0	2334130176	48	3957
2026-01-18 09:39:10.54	16.77	34.29	-38.6	-39.3	25.1	0.00e+00	0	36	0	2339373056	48	3971
2026-01-18 09:39:11.55	16.40	34.22	-38.6	-39.3	25.0	0.00e+00	0	36	0	2344615936	48	3987
2026-01-18 09:39:12.56	16.02	34.15	-38.5	-39.2	25.1	0.00e+00	0	36	0	2350907392	48	3926
2026-01-18 09:39:13.56	15.66	34.08	-38.5	-39.2	25.1	0.00e+00	0	36	0	2356150272	48	3954
2026-01-18 09:39:14.57	15.29	34.01	-38.4	-39.1	25.2	0.00e+00	0	36	0	2362441728	48	3890
2026-01-18 09:39:15.58	14.92	33.94	-38.4	-39.1	25.2	0.00e+00	0	36	0	2367684608	48	3911
2026-01-18 09:39:16.59	14.55	33.86	-38.5	-39.3	25.1	0.00e+00	0	36	0	2372927488	48	3962
2026-01-18 09:39:17.59	14.19	33.79	-38.5	-39.2	25.1	0.00e+00	0	36	0	2379218944	48	3951
2026-01-18 09:39:18.60	13.83	33.71	-38.5	-39.2	25.1	0.00e+00	0	36	0	2385510400	48	3958
2026-01-18 09:39:19.61	13.47	33.63	-38.5	-39.2	25.2	0.00e+00	0	36	0	2390753280	48	3923
2026-01-18 09:39:20.62	13.11	33.56	-38.5	-39.2	25.1	0.00e+00	0	36	0	2395996160	48	3954
2026-01-18 09:39:21.62	12.75	33.48	-38.5	-39.2	25.1	0.00e+00	0	36	0	2402287616	48	3947
2026-01-18 09:39:22.63	12.39	33.40	-38.4	-39.2	25.2	0.00e+00	0	36	0	2407530496	48	3920
2026-01-18 09:39:23.64	12.04	33.31	-38.2	-38.9	25.4	0.00e+00	0	36	0	2412773376	48	3788
2026-01-18 09:39:24.65	11.69	33.23	-38.1	-38.8	25.4	0.00e+00	0	36	0	2419064832	48	3749
2026-01-18 09:39:25.66	11.34	33.15	-38.2	-38.9	25.4	0.00e+00	0	36	0	2424307712	48	3802
2026-01-18 09:39:26.66	10.99	33.06	-38.4	-39.1	25.2	0.00e+00	0	36	0	2429550592	48	3877
2026-01-18 09:39:27.67	10.64	32.98	-38.5	-39.2	25.1	0.00e+00	0	36	0	2435842048	48	3940
2026-01-18 09:39:28.68	10.30	32.89	-38.4	-39.1	25.2	0.00e+00	0	36	0	2441084928	48	3910
2026-01-18 09:39:29.69	9.96	32.80	-38.3	-39.0	25.3	0.00e+00	0	36	0	2447376384	48	3827
2026-01-18 09:39:30.70	9.61	32.71	-38.2	-38.8	25.4	0.00e+00	0	36	0	2452619264	48	3775
2026-01-18 09:39:31.70	9.28	32.63	-38.3	-39.0	25.3	0.00e+00	0	36	0	2458910720	48	3850
2026-01-18 09:39:32.71	8.94	32.54	-38.4	-39.1	25.2	0.00e+00	0	36	0	2464153600	48	3893
2026-01-18 09:39:33.72	8.60	32.44	-38.5	-39.2	25.1	0.00e+00	0	36	0	2470445056	48	3914
2026-01-18 09:39:34.73	8.27	32.35	-38.5	-39.2	25.1	0.00e+00	0	36	0	2475687936	48	3923
2026-01-18 09:39:35.74	7.94	32.26	-38.5	-39.2	25.0	0.00e+00	0	36	0	2480930816	48	3958
2026-01-18 09:39:36.75	7.61	32.17	-38.6	-39.3	25.0	0.00e+00	0	36	0	2487222272	48	4000
2026-01-18 09:39:37.75	7.28	32.07	-38.5	-39.2	25.0	0.00e+00	0	36	0	2492465152	48	3951
2026-01-18 09:39:38.76	6.96	31.98	-38.5	-39.2	25.1	0.00e+00	0	36	0	2497708032	48	3942
2026-01-18 09:39:39.77	6.63	31.88	-38.6	-39.3	25.0	0.00e+00	0	36	0	2503999488	48	3959
2026-01-18 09:39:40.78	6.31	31.79	-38.6	-39.2	25.1	0.00e+00	0	36	0	2509242368	48	3953
2026-01-18 09:39:41.79	5.99	31.69	-38.6	-39.3	25.0	0.00e+00	0	36	0	2514485248	48	3998
2026-01-18 09:39:42.80	5.67	31.59	-38.7	-39.4	24.9	0.00e+00	0	36	0	2520776704	48	4045
2026-01-18 09:39:43.81	5.35	31.49	-38.8	-39.5	24.8	0.00e+00	0	36	0	2527068160	48	4066
2026-01-18 09:39:44.81	5.04	31.39	-38.6	-39.3	25.0	0.00e+00	0	36	0	2532311040	48	4000
2026-01-18 09:39:45.82	4.73	31.29	-38.6	-39.3	25.0	0.00e+00	0	36	0	2537553920	48	3976
2026-01-18 09:39:46.83	4.42	31.19	-38.6	-39.3	25.0	0.00e+00	0	36	0	2543845376	48	3995
2026-01-18 09:39:47.84	4.11	31.09	-38.5	-39.2	25.1	0.00e+00	0	36	0	2549088256	48	3942
2026-01-18 09:39:48.85	3.80	30.99	-38.5	-39.2	25.1	0.00e+00	0	36	0	2555379712	48	3931
2026-01-18 09:39:49.86	3.50	30.89	-38.6	-39.3	25.0	0.00e+00	0	36	0	2560622592	48	3960
2026-01-18 09:39:50.87	3.19	30.78	-38.5	-39.2	25.1	0.00e+00	0	36	0	2565865472	48	3955
2026-01-18 09:39:51.87	2.90	30.68	-38.6	-39.4	24.9	0.00e+00	0	36	0	2572156928	48	4011
2026-01-18 09:39:52.88	2.60	30.58	-38.6	-39.3	25.0	0.00e+00	0	36	0	2577399808	48	3997
2026-01-18 09:39:53.89	2.30	30.47	-38.6	-39.3	25.0	0.00e+00	0	36	0	2582642688	48	3997
2026-01-18 09:39:54.90	2.01	30.37	-38.6	-39.3	25.0	0.00e+00	0	36	0	2588934144	48	3963
2026-01-18 09:39:55.91	1.71	30.26	-38.6	-39.3	25.0	0.00e+00	0	36	0	2595225600	48	3966
2026-01-18 09:39:56.91	1.42	30.16	-38.7	-39.4	24.9	0.00e+00	0	36	0	2600468480	48	4016
2026-01-18 09:39:57.92	1.13	30.05	-38.7	-39.4	24.9	0.00e+00	0	36	0	2605711360	48	4043
2026-01-18 09:39:58.93	0.85	29.95	-38.7	-39.4	24.9	0.00e+00	0	36	0	2612002816	48	4047
2026-01-18 09:39:59.94	0.56	29.84	-38.6	-39.3	25.0	0.00e+00	0	36	0	2617245696	48	3981
2026-01-18 09:40:00.95	0.28	29.73	-38.6	-39.3	25.0	0.00e+00	0	36	0	2622488576	48	3992
2026-01-18 09:40:01.95	360.00	29.62	-38.5	-39.2	25.1	0.00e+00	0	36	0	2628780032	48	3917
2026-01-18 09:40:02.96	359.72	29.52	-38.5	-39.2	25.1	0.00e+00	0	36	0	2634022912	48	3952
2026-01-18 09:40:03.97	359.44	29.41	-38.7	-39.4	24.9	0.00e+00	0	36	0	2640314368	48	4027
2026-01-18 09:40:04.98	359.16	29.30	-38.7	-39.5	24.8	0.00e+00	0	36	0	2645557248	48	4055
2026-01-18 09:40:05.99	358.89	29.19	-38.7	-39.4	24.9	0.00e+00	0	36	0	2650800128	48	4044
2026-01-18 09:40:06.99	358.62	29.08	-38.6	-39.3	24.9	0.00e+00	0	36	0	2657091584	48	3998
2026-01-18 09:40:08.00	358.35	28.97	-38.7	-39.4	24.9	0.00e+00	0	36	0	2663383040	48	4023
2026-01-18 09:40:09.01	358.08	28.86	-38.7	-39.4	24.9	0.00e+00	0	36	0	2668625920	48	4046
2026-01-18 09:40:10.02	357.81	28.75	-38.7	-39.4	24.9	0.00e+00	0	36	0	2673868800	48	4035
2026-01-18 09:40:11.03	357.55	28.64	-38.7	-39.4	24.9	0.00e+00	0	36	0	2680160256	48	4013
2026-01-18 09:40:12.03	357.29	28.53	-38.7	-39.4	24.9	0.00e+00	0	36	0	2685403136	48	4038
2026-01-18 09:40:13.04	357.03	28.42	-38.6	-39.3	25.0	0.00e+00	0	36	0	2690646016	48	3977
2026-01-18 09:40:14.05	356.77	28.31	-38.7	-39.4	24.9	0.00e+00	0	36	0	2696937472	48	4014
2026-01-18 09:40:15.05	356.51	28.20	-38.8	-39.5	24.8	0.00e+00	0	36	0	2702180352	48	4080
2026-01-18 09:40:16.06	356.26	28.09	-38.9	-39.6	24.7	0.00e+00	0	36	0	2707423232	48	4110
2026-01-18 09:40:17.07	356.00	27.97	-38.9	-39.6	24.7	0.00e+00	0	36	0	2713714688	48	4114
2026-01-18 09:40:18.08	355.75	27.86	-38.9	-39.6	24.7	0.00e+00	0	36	0	2718957568	48	4132
2026-01-18 09:40:19.08	355.50	27.75	-38.7	-39.4	24.9	0.00e+00	0	36	0	2725249024	48	4022
2026-01-18 09:40:20.09	355.25	27.64	-38.7	-39.4	24.9	0.00e+00	0	36	0	2730491904	48	4013
2026-01-18 09:40:21.10	355.01	27.53	-38.7	-39.4	24.8	0.00e+00	0	36	0	2736783360	48	4042
2026-01-18 09:40:22.11	354.76	27.41	-38.9	-39.6	24.7	0.00e+00	0	36	0	2742026240	48	4104
2026-01-18 09:40:23.12	354.52	27.30	-38.9	-39.6	24.6	0.00e+00	0	36	0	2748317696	48	4140
2026-01-18 09:40:24.12	354.28	27.19	-39.0	-39.7	24.5	0.00e+00	0	36	0	2753560576	48	4186
2026-01-18 09:40:25.13	354.04	27.08	-39.0	-39.7	24.6	0.00e+00	0	36	0	2758803456	48	4181
2026-01-18 09:40:26.14	353.80	26.96	-39.0	-39.7	24.6	0.00e+00	0	36	0	2765094912	48	4176
2026-01-18 09:40:27.15	353.56	26.85	-39.0	-39.7	24.6	0.00e+00	0	36	0	2770337792	48	4170
2026-01-18 09:40:28.16	353.33	26.74	-39.0	-39.7	24.6	0.00e+00	0	36	0	2775580672	48	4168
2026-01-18 09:40:29.17	353.10	26.62	-39.1	-39.8	24.5	0.00e+00	0	36	0	2781872128	48	4234
2026-01-18 09:40:30.17	352.87	26.51	-39.1	-39.9	24.4	0.00e+00	0	36	0	2787115008	48	4248
2026-01-18 09:40:31.18	352.64	26.40	-39.1	-39.8	24.5	0.00e+00	0	36	0	2792357888	48	4224
2026-01-18 09:40:32.19	352.41	26.28	-39.2	-40.0	24.3	0.00e+00	0	36	0	2798649344	49	4056
2026-01-18 09:40:33.20	352.18	26.17	-39.2	-39.9	24.4	0.00e+00	0	36	0	2804940800	49	4027
2026-01-18 09:40:34.21	351.96	26.06	-39.2	-39.9	24.3	0.00e+00	0	36	0	2810183680	49	4048
2026-01-18 09:40:35.22	351.73	25.94	-39.3	-40.1	24.3	0.00e+00	0	36	0	2815426560	49	4099
2026-01-18 09:40:36.23	351.51	25.83	-39.3	-40.1	24.2	0.00e+00	0	36	0	2821718016	49	4112
2026-01-18 09:40:37.23	351.29	25.72	-39.5	-40.2	24.1	0.00e+00	0	36	0	2826960896	49	4181
2026-01-18 09:40:38.24	351.08	25.60	-39.4	-40.2	24.2	0.00e+00	0	36	0	2833252352	49	4151
2026-01-18 09:40:39.25	350.86	25.49	-39.3	-40.1	24.3	0.00e+00	0	36	0	2838495232	49	4106
2026-01-18 09:40:40.26	350.64	25.38	-39.4	-40.1	24.2	0.00e+00	0	36	0	2843738112	49	4130
2026-01-18 09:40:41.26	350.43	25.27	-39.5	-40.3	24.0	0.00e+00	0	36	0	2850029568	49	4211
2026-01-18 09:40:42.27	350.22	25.15	-39.6	-40.4	23.9	0.00e+00	0	36	0	2855272448	49	4258
2026-01-18 09:40:43.28	350.01	25.04	-39.8	-40.5	23.8	0.00e+00	0	36	0	2860515328	50	4097
2026-01-18 09:40:44.29	349.80	24.93	-39.8	-40.5	23.9	0.00e+00	0	36	0	2866806784	50	4080
2026-01-18 09:40:45.30	349.59	24.81	-39.7	-40.4	23.9	0.00e+00	0	36	0	2873098240	50	4045
2026-01-18 09:40:46.30	349.39	24.70	-39.5	-40.3	24.1	0.00e+00	0	36	0	2878341120	50	3974
2026-01-18 09:40:47.31	349.18	24.59	-39.6	-40.3	24.0	0.00e+00	0	36	0	2883584000	50	3982
2026-01-18 09:40:48.32	348.98	24.48	-39.5	-40.2	24.1	0.00e+00	0	36	0	2889875456	50	3951
2026-01-18 09:40:49.33	348.78	24.36	-39.4	-40.1	24.2	0.00e+00	0	36	0	2895118336	50	3888
2026-01-18 09:40:50.34	348.58	24.25	-39.4	-40.1	24.1	0.00e+00	0	36	0	2900361216	50	3913
2026-01-18 09:40:51.35	348.38	24.14	-39.4	-40.1	24.2	0.00e+00	0	36	0	2906652672	50	3890
2026-01-18 09:40:52.35	348.18	24.03	-39.4	-40.1	24.2	0.00e+00	0	36	0	2911895552	50	3888
2026-01-18 09:40:53.36	347.99	23.91	-39.5	-40.2	24.1	0.00e+00	0	36	0	2918187008	50	3952
2026-01-18 09:40:54.37	347.79	23.80	-39.4	-40.2	24.1	0.00e+00	0	36	0	2923429888	50	3926
2026-01-18 09:40:55.38	347.60	23.69	-39.6	-40.3	24.0	0.00e+00	0	36	0	2928672768	50	3996
2026-01-18 09:40:56.39	347.41	23.58	-39.7	-40.5	23.9	0.00e+00	0	36	0	2934964224	50	4054
2026-01-18 09:40:57.39	347.22	23.47	-39.8	-40.6	23.8	0.00e+00	0	36	0	2941255680	50	4105
2026-01-18 09:40:58.40	347.03	23.35	-39.9	-40.6	23.7	0.00e+00	0	36	0	2946498560	50	4145
2026-01-18 09:40:59.41	346.84	23.24	-39.8	-40.6	23.7	0.00e+00	0	36	0	2951741440	50	4107
2026-01-18 09:41:00.42	346.66	23.13	-39.8	-40.5	23.8	0.00e+00	0	36	0	2958032896	50	4095
2026-01-18 09:41:01.43	346.47	23.02	-39.7	-40.4	23.9	0.00e+00	0	36	0	2963275776	50	4042
2026-01-18 09:41:02.43	346.29	22.91	-39.7	-40.4	23.9	0.00e+00	0	36	0	2968518656	50	4028
2026-01-18 09:41:03.44	346.11	22.80	-39.6	-40.3	24.0	0.00e+00	0	36	0	2974810112	50	3987
2026-01-18 09:41:04.44	345.93	22.69	-39.6	-40.4	23.9	0.00e+00	0	36	0	2980052992	50	4005
2026-01-18 09:41:05.45	345.75	22.58	-39.6	-40.3	23.9	0.00e+00	0	36	0	2985295872	50	3998
2026-01-18 09:41:06.46	345.57	22.47	-39.5	-40.3	24.0	0.00e+00	0	36	0	2991587328	50	3965
2026-01-18 09:41:07.47	345.39	22.36	-39.5	-40.2	24.1	0.00e+00	0	36	0	2996830208	50	3932
2026-01-18 09:41:08.48	345.22	22.25	-39.4	-40.1	24.2	0.00e+00	0	36	0	3003121664	50	3892
2026-01-18 09:41:09.49	345.04	22.14	-39.5	-40.2	24.1	0.00e+00	0	36	0	3008364544	50	3953
2026-01-18 09:41:10.49	344.87	22.03	-39.6	-40.3	23.9	0.00e+00	0	36	0	3014656000	50	4002
2026-01-18 09:41:11.50	344.70	21.92	-39.6	-40.3	24.0	0.00e+00	0	36	0	3019898880	50	3978
2026-01-18 09:41:12.51	344.53	21.81	-39.5	-40.3	24.0	0.00e+00	0	36	0	3026190336	50	3971
2026-01-18 09:41:13.52	344.36	21.70	-39.4	-40.2	24.1	0.00e+00	0	36	0	3031433216	50	3919
2026-01-18 09:41:14.52	344.19	21.59	-39.4	-40.1	24.1	0.00e+00	0	36	0	3036676096	50	3900
2026-01-18 09:41:15.53	344.03	21.49	-39.5	-40.2	24.0	0.00e+00	0	36	0	3042967552	50	3956
2026-01-18 09:41:16.54	343.86	21.38	-39.6	-40.3	23.9	0.00e+00	0	36	0	3048210432	50	4000
2026-01-18 09:41:17.54	343.70	21.27	-39.6	-40.4	23.9	0.00e+00	0	36	0	3053453312	50	4013
2026-01-18 09:41:18.55	343.53	21.16	-39.7	-40.5	23.8	0.00e+00	0	36	0	3059744768	50	4069
2026-01-18 09:41:19.55	343.37	21.06	-39.8	-40.6	23.7	0.00e+00	0	36	0	3064987648	50	4111
2026-01-18 09:41:20.56	343.21	20.95	-39.8	-40.6	23.7	0.00e+00	0	36	0	3070230528	50	4121
2026-01-18 09:41:21.57	343.05	20.84	-39.9	-40.7	23.6	0.00e+00	0	36	0	3076521984	50	4149
2026-01-18 09:41:22.58	342.89	20.73	-39.9	-40.7	23.6	0.00e+00	0	36	0	3081764864	50	4148
2026-01-18 09:41:23.59	342.73	20.63	-40.0	-40.7	23.6	0.00e+00	0	36	0	3088056320	50	4171
2026-01-18 09:41:24.59	342.58	20.52	-40.1	-40.9	23.4	0.00e+00	0	36	0	3093299200	50	4257
2026-01-18 09:41:25.60	342.42	20.41	-40.0	-40.8	23.5	0.00e+00	0	36	0	3099590656	50	4204
2026-01-18 09:41:26.61	342.27	20.31	-40.1	-40.9	23.4	0.00e+00	0	36	0	3104833536	50	4246
2026-01-18 09:41:27.62	342.12	20.20	-40.0	-40.8	23.5	0.00e+00	0	36	0	3111124992	50	4224
2026-01-18 09:41:28.62	341.96	20.10	-39.9	-40.7	23.6	0.00e+00	0	36	0	3116367872	50	4158
2026-01-18 09:41:29.63	341.81	19.99	-39.9	-40.7	23.6	0.00e+00	0	36	0	3121610752	50	4167
2026-01-18 09:41:30.64	341.66	19.89	-40.0	-40.7	23.5	0.00e+00	0	36	0	3127902208	50	4174
2026-01-18 09:41:31.65	341.51	19.78	-39.9	-40.7	23.6	0.00e+00	0	36	0	3133145088	50	4166
2026-01-18 09:41:32.65	341.37	19.68	-40.0	-40.8	23.5	0.00e+00	0	36	0	3138387968	50	4196
2026-01-18 09:41:33.66	341.22	19.57	-40.0	-40.8	23.5	0.00e+00	0	36	0	3144679424	50	4198
2026-01-18 09:41:34.67	341.07	19.47	-40.0	-40.7	23.5	0.00e+00	0	36	0	3149922304	50	4192
2026-01-18 09:41:35.68	340.93	19.36	-40.2	-40.9	23.3	0.00e+00	0	36	0	3155165184	50	4279
2026-01-18 09:41:36.69	340.78	19.26	-40.2	-41.0	23.3	0.00e+00	0	36	0	3161456640	51	4066
2026-01-18 09:41:37.69	340.64	19.16	-40.2	-41.0	23.3	0.00e+00	0	36	0	3166699520	51	4065
2026-01-18 09:41:38.70	340.50	19.05	-40.3	-41.1	23.2	0.00e+00	0	36	0	3172990976	51	4103
2026-01-18 09:41:39.71	340.36	18.95	-40.4	-41.1	23.1	0.00e+00	0	36	0	3178233856	51	4141
2026-01-18 09:41:40.72	340.22	18.85	-40.3	-41.1	23.2	0.00e+00	0	36	0	3184525312	51	4106
2026-01-18 09:41:41.72	340.08	18.75	-40.4	-41.2	23.1	0.00e+00	0	36	0	3189768192	51	4152
2026-01-18 09:41:42.73	339.94	18.64	-40.5	-41.3	23.0	0.00e+00	0	36	0	3196059648	51	4221
2026-01-18 09:41:43.74	339.80	18.54	-40.4	-41.2	23.0	0.00e+00	0	36	0	3201302528	51	4164
2026-01-18 09:41:44.75	339.67	18.44	-40.5	-41.3	23.0	0.00e+00	0	36	0	3206545408	51	4230
2026-01-18 09:41:45.75	339.53	18.34	-40.6	-41.4	22.8	0.00e+00	0	36	0	3212836864	51	4279
2026-01-18 09:41:46.76	339.40	18.24	-40.6	-41.3	22.9	0.00e+00	0	36	0	3218079744	51	4235
2026-01-18 09:41:47.77	339.27	18.14	-40.6	-41.4	22.9	0.00e+00	0	36	0	3223322624	51	4244
2026-01-18 09:41:48.77	339.13	18.04	-40.5	-41.3	22.9	0.00e+00	0	36	0	3229614080	51	4219
2026-01-18 09:41:49.78	339.00	17.93	-40.6	-41.4	22.8	0.00e+00	0	36	0	3234856960	51	4284
2026-01-18 09:41:50.79	338.87	17.83	-40.7	-41.5	22.8	0.00e+00	0	36	0	3240099840	51	4308
2026-01-18 09:41:51.80	338.74	17.73	-40.7	-41.5	22.8	0.00e+00	0	37	0	3246391296	51	4302
2026-01-18 09:41:52.80	338.61	17.63	-40.7	-41.5	22.7	0.00e+00	0	36	0	3252682752	52	4061
2026-01-18 09:41:53.81	338.49	17.53	-40.8	-41.6	22.6	0.00e+00	0	36	0	3257925632	52	4107
2026-01-18 09:41:54.82	338.36	17.44	-40.6	-41.4	22.7	0.00e+00	0	36	0	3263168512	52	4043
2026-01-18 09:41:55.83	338.23	17.34	-40.6	-41.4	22.7	0.00e+00	0	36	0	3269459968	52	4037
2026-01-18 09:41:56.84	338.11	17.24	-40.8	-41.6	22.6	0.00e+00	0	36	0	3274702848	52	4116
2026-01-18 09:41:57.85	337.98	17.14	-40.8	-41.6	22.6	0.00e+00	0	36	0	3280994304	52	4131
2026-01-18 09:41:58.85	337.86	17.04	-40.8	-41.6	22.6	0.00e+00	0	36	0	3286237184	52	4121
2026-01-18 09:41:59.86	337.73	16.94	-40.8	-41.6	22.6	0.00e+00	0	36	0	3291480064	52	4102
2026-01-18 09:42:00.87	337.61	16.84	-40.7	-41.5	22.6	0.00e+00	0	36	0	3297771520	52	4081
2026-01-18 09:42:01.88	337.49	16.75	-40.8	-41.6	22.6	0.00e+00	0	36	0	3303014400	52	4102
2026-01-18 09:42:02.89	337.37	16.65	-40.8	-41.6	22.6	0.00e+00	0	36	0	3308257280	52	4120
2026-01-18 09:42:03.90	337.25	16.55	-40.9	-41.8	22.4	0.00e+00	0	36	0	3314548736	52	4195
2026-01-18 09:42:04.91	337.13	16.46	-41.0	-41.8	22.4	0.00e+00	0	36	0	3320840192	52	4198
2026-01-18 09:42:05.91	337.01	16.36	-40.9	-41.8	22.4	0.00e+00	0	36	0	3326083072	52	4198
2026-01-18 09:42:06.92	336.90	16.26	-41.0	-41.8	22.3	0.00e+00	0	36	0	3331325952	52	4237
2026-01-18 09:42:07.93	336.78	16.17	-41.0	-41.8	22.4	0.00e+00	0	36	0	3337617408	52	4227
2026-01-18 09:42:08.94	336.66	16.07	-40.9	-41.8	22.4	0.00e+00	0	36	0	3342860288	52	4196
2026-01-18 09:42:09.95	336.55	15.98	-41.0	-41.8	22.3	0.00e+00	0	36	0	3348103168	52	4220
2026-01-18 09:42:10.95	336.43	15.88	-41.0	-41.8	22.3	0.00e+00	0	36	0	3354394624	52	4208
2026-01-18 09:42:11.96	336.32	15.79	-41.1	-41.9	22.3	0.00e+00	0	36	0	3359637504	52	4252
2026-01-18 09:42:12.97	336.21	15.69	-41.1	-41.9	22.2	0.00e+00	0	36	0	3365928960	52	4283
2026-01-18 09:42:13.98	336.09	15.60	-41.2	-42.0	22.1	0.00e+00	0	36	0	3371171840	52	4323
2026-01-18 09:42:14.99	335.98	15.50	-41.1	-41.9	22.2	0.00e+00	0	36	0	3376414720	52	4279
2026-01-18 09:42:15.99	335.87	15.41	-41.1	-41.9	22.2	0.00e+00	0	36	0	3382706176	52	4271
2026-01-18 09:42:17.00	335.76	15.32	-41.1	-42.0	22.1	0.00e+00	0	36	0	3388997632	52	4303
2026-01-18 09:42:18.01	335.65	15.22	-41.2	-42.0	22.1	0.00e+00	0	36	0	3394240512	52	4312
2026-01-18 09:42:19.02	335.54	15.13	-41.3	-42.1	22.0	0.00e+00	0	36	0	3399483392	53	4124
2026-01-18 09:42:20.02	335.44	15.04	-41.3	-42.2	22.0	0.00e+00	0	36	0	3405774848	53	4169
2026-01-18 09:42:21.03	335.33	14.94	-41.4	-42.3	21.9	0.00e+00	0	36	0	3411017728	53	4199
2026-01-18 09:42:22.04	335.22	14.85	-41.3	-42.1	22.0	0.00e+00	0	36	0	3416260608	53	4136
2026-01-18 09:42:23.05	335.12	14.76	-41.3	-42.2	21.9	0.00e+00	0	36	0	3422552064	53	4165
2026-01-18 09:42:24.05	335.01	14.67	-41.5	-42.4	21.8	0.00e+00	0	36	0	3427794944	53	4250
2026-01-18 09:42:25.06	334.91	14.57	-41.4	-42.3	21.8	0.00e+00	0	37	0	3433037824	53	4216
2026-01-18 09:42:26.07	334.80	14.48	-41.6	-42.5	21.6	0.00e+00	0	36	0	3439329280	53	4317
2026-01-18 09:42:27.07	334.70	14.39	-41.6	-42.5	21.6	0.00e+00	0	36	0	3444572160	53	4313
2026-01-18 09:42:28.08	334.60	14.30	-41.6	-42.4	21.7	0.00e+00	0	36	0	3450863616	53	4274
2026-01-18 09:42:29.09	334.50	14.21	-41.5	-42.4	21.7	0.00e+00	0	36	0	3456106496	53	4265
2026-01-18 09:42:30.09	334.40	14.12	-41.6	-42.5	21.7	0.00e+00	0	36	0	3462397952	53	4295
2026-01-18 09:42:31.10	334.30	14.03	-41.5	-42.4	21.7	0.00e+00	0	36	0	3467640832	53	4250
2026-01-18 09:42:32.11	334.20	13.94	-41.5	-42.3	21.7	0.00e+00	0	36	0	3473932288	53	4241
2026-01-18 09:42:33.11	334.10	13.85	-41.6	-42.4	21.7	0.00e+00	0	36	0	3479175168	53	4278
2026-01-18 09:42:34.12	334.00	13.76	-41.7	-42.5	21.6	0.00e+00	0	36	0	3484418048	53	4337
2026-01-18 09:42:35.13	333.90	13.67	-41.6	-42.4	21.6	0.00e+00	0	36	0	3490709504	53	4289
2026-01-18 09:42:36.13	333.80	13.58	-41.6	-42.4	21.7	0.00e+00	0	36	0	3495952384	53	4264
2026-01-18 09:42:37.14	333.71	13.49	-41.6	-42.4	21.6	0.00e+00	0	36	0	3501195264	53	4284
2026-01-18 09:42:38.15	333.61	13.41	-41.5	-42.4	21.7	0.00e+00	0	36	0	3507486720	53	4260
2026-01-18 09:42:39.16	333.51	13.32	-41.7	-42.6	21.5	0.00e+00	0	36	0	3512729600	54	4102
2026-01-18 09:42:40.17	333.42	13.23	-41.8	-42.6	21.5	0.00e+00	0	36	0	3517972480	54	4133
2026-01-18 09:42:41.18	333.32	13.14	-41.7	-42.6	21.5	0.00e+00	0	36	0	3524263936	54	4121
2026-01-18 09:42:42.19	333.23	13.05	-41.7	-42.6	21.5	0.00e+00	0	36	0	3529506816	54	4122
2026-01-18 09:42:43.20	333.14	12.97	-41.7	-42.6	21.5	0.00e+00	0	36	0	3535798272	54	4111
2026-01-18 09:42:44.20	333.05	12.88	-41.6	-42.5	21.6	0.00e+00	0	36	0	3541041152	54	4075
2026-01-18 09:42:45.21	332.95	12.79	-41.7	-42.6	21.5	0.00e+00	0	36	0	3547332608	54	4105
2026-01-18 09:42:46.22	332.86	12.71	-41.9	-42.8	21.3	0.00e+00	0	36	0	3552575488	54	4204
2026-01-18 09:42:47.23	332.77	12.62	-41.9	-42.7	21.3	0.00e+00	0	36	0	3558866944	54	4192
2026-01-18 09:42:48.23	332.68	12.53	-41.9	-42.8	21.3	0.00e+00	0	36	0	3564109824	54	4226
2026-01-18 09:42:49.24	332.59	12.45	-41.9	-42.8	21.3	0.00e+00	0	36	0	3569352704	54	4210
2026-01-18 09:42:50.25	332.50	12.36	-42.0	-42.9	21.2	0.00e+00	0	36	0	3575644160	54	4249
2026-01-18 09:42:51.26	332.41	12.28	-41.9	-42.8	21.3	0.00e+00	0	36	0	3580887040	54	4204
2026-01-18 09:42:52.27	332.32	12.19	-42.0	-43.0	21.1	0.00e+00	0	36	0	3586129920	54	4296
2026-01-18 09:42:53.27	332.24	12.11	-42.0	-42.9	21.1	0.00e+00	0	36	0	3592421376	54	4272
2026-01-18 09:42:54.28	332.15	12.02	-42.2	-43.1	21.0	0.00e+00	0	36	0	3597664256	54	4353
2026-01-18 09:42:55.29	332.06	11.94	-42.1	-43.0	21.1	0.00e+00	0	36	0	3602907136	54	4325
2026-01-18 09:42:56.29	331.98	11.85	-42.2	-43.1	20.9	0.00e+00	0	36	0	3609198592	54	4357
2026-01-18 09:42:57.30	331.89	11.77	-42.3	-43.2	20.9	0.00e+00	0	36	0	3615490048	55	4167
2026-01-18 09:42:58.31	331.80	11.68	-42.4	-43.3	20.7	0.00e+00	0	36	0	3620732928	55	4214
2026-01-18 09:42:59.32	331.72	11.60	-42.2	-43.1	20.9	0.00e+00	0	36	0	3625975808	55	4144
2026-01-18 09:43:00.33	331.63	11.52	-42.2	-43.1	20.9	0.00e+00	0	36	0	3632267264	55	4137
2026-01-18 09:43:01.33	331.55	11.43	-42.3	-43.2	20.8	0.00e+00	0	36	0	3637510144	55	4163
2026-01-18 09:43:02.34	331.47	11.35	-42.3	-43.3	20.8	0.00e+00	0	36	0	3643801600	55	4205
2026-01-18 09:43:03.35	331.39	11.27	-42.3	-43.3	20.7	0.00e+00	0	36	0	3649044480	55	4211
2026-01-18 09:43:04.36	331.30	11.19	-42.2	-43.1	20.9	0.00e+00	0	36	0	3654287360	55	4130
2026-01-18 09:43:05.37	331.22	11.10	-42.2	-43.1	20.9	0.00e+00	0	36	0	3660578816	55	4135
2026-01-18 09:43:06.38	331.14	11.02	-42.2	-43.1	20.9	0.00e+00	0	36	0	3665821696	55	4125
2026-01-18 09:43:07.38	331.06	10.94	-42.2	-43.1	20.9	0.00e+00	0	36	0	3671064576	55	4099
2026-01-18 09:43:08.39	330.98	10.86	-42.1	-43.0	21.0	0.00e+00	0	36	0	3677356032	55	4090
2026-01-18 09:43:09.40	330.90	10.78	-42.2	-43.1	20.9	0.00e+00	0	36	0	3683647488	55	4140
2026-01-18 09:43:10.41	330.82	10.69	-42.3	-43.2	20.8	0.00e+00	0	36	0	3688890368	55	4164
2026-01-18 09:43:11.42	330.74	10.61	-42.3	-43.3	20.7	0.00e+00	0	36	0	3694133248	55	4194
