passes_logs/2026/01/18/R3.2S_Murmansk/R3.2S_Murmansk__20260118_025359_FENGYUN_3D_rec.log

#Pass ID: 20260118_025359_FENGYUN 3D
#Satellite: FENGYUN 3D
#Configuration: FENGYUN 3D
#almurnet v.1.7.20251203
#Start time: 2026-01-18 02:54:00

#Version: 2.2.20231116
#Station: R3.2S_Murmansk
#Location: 33.079688 lon 68.888172 lat
#TLE: 1 43010U 17072A   26017.61121112  .00000213  00000+0  12257-3 0  9991
#TLE: 2 43010  98.9934 349.4672 0002374 103.9362 256.2078 14.19696413423628

#Time	Az	El	Level	Level2	SNR	BER	BlckErr	Temp	State	Recorded	gain1	gain2
2026-01-18 02:54:00.10	25.60	2.07	-51.5	-63.3	3.8	8.47e-01	0	34	0	0	74	14171
2026-01-18 02:54:01.10	25.60	2.14	-51.4	-63.0	3.8	8.46e-01	0	34	104	0	73	14399
2026-01-18 02:54:02.10	25.60	2.20	-51.4	-62.9	3.8	8.46e-01	0	34	104	0	73	14238
2026-01-18 02:54:03.11	25.61	2.26	-51.4	-62.7	3.8	8.46e-01	0	33	104	0	73	13979
2026-01-18 02:54:04.12	25.61	2.33	-51.4	-63.0	3.8	8.45e-01	0	34	104	0	73	14399
2026-01-18 02:54:05.13	25.61	2.40	-51.4	-62.8	3.8	8.45e-01	0	34	104	0	73	14130
2026-01-18 02:54:06.14	25.61	2.46	-51.4	-62.9	3.8	8.45e-01	0	34	104	0	73	14290
2026-01-18 02:54:07.14	25.61	2.53	-51.4	-62.9	3.8	8.47e-01	0	34	104	0	73	14363
2026-01-18 02:54:08.15	25.61	2.59	-51.4	-63.1	3.8	8.46e-01	0	34	104	0	73	14684
2026-01-18 02:54:09.16	25.61	2.66	-51.4	-63.1	3.8	8.46e-01	0	34	104	0	73	14685
2026-01-18 02:54:10.17	25.61	2.72	-51.4	-62.8	3.8	8.48e-01	0	34	104	0	73	14128
2026-01-18 02:54:11.18	25.61	2.79	-51.4	-62.5	3.8	8.46e-01	0	34	104	0	73	13690
2026-01-18 02:54:12.19	25.61	2.86	-51.3	-61.4	3.8	8.46e-01	0	34	104	0	73	12004
2026-01-18 02:54:13.19	25.61	2.92	-51.1	-59.9	4.2	8.40e-01	0	34	0	0	73	10088
2026-01-18 02:54:14.20	25.62	2.99	-50.9	-58.5	4.7	8.12e-01	0	34	0	0	73	8643
2026-01-18 02:54:15.21	25.62	3.06	-50.8	-58.0	4.9	8.07e-01	0	34	0	0	73	8099
2026-01-18 02:54:16.22	25.62	3.12	-50.4	-56.4	5.9	3.98e-01	0	34	0	2097152	72	7194
2026-01-18 02:54:17.22	25.62	3.19	-50.0	-54.9	7.3	2.47e-01	0	34	0	7340032	71	6376
2026-01-18 02:54:18.23	25.62	3.26	-49.7	-54.2	8.0	9.39e-02	0	34	0	13631488	71	5880
2026-01-18 02:54:19.24	25.62	3.32	-49.0	-52.7	9.5	2.96e-02	0	34	0	18874368	70	5265
2026-01-18 02:54:20.25	25.62	3.39	-49.1	-52.8	9.4	1.30e-02	0	34	0	24117248	69	5639
2026-01-18 02:54:21.26	25.62	3.46	-48.5	-51.7	10.6	6.40e-03	0	34	0	30408704	69	4928
2026-01-18 02:54:22.26	25.62	3.53	-48.2	-51.2	11.1	5.79e-03	0	34	0	35651584	68	4941
2026-01-18 02:54:23.27	25.62	3.59	-47.0	-49.3	13.0	1.25e-04	0	34	0	40894464	66	4455
2026-01-18 02:54:24.28	25.62	3.66	-46.8	-48.9	13.4	3.08e-05	0	34	0	47185920	65	4524
2026-01-18 02:54:25.29	25.62	3.73	-45.5	-47.1	15.3	0.00e+00	0	34	0	52428800	62	4360
2026-01-18 02:54:26.30	25.62	3.80	-44.9	-46.4	16.0	1.10e-06	0	34	0	58720256	61	4261
2026-01-18 02:54:27.31	25.62	3.87	-44.2	-45.5	16.9	0.00e+00	0	35	0	63963136	60	4083
2026-01-18 02:54:28.31	25.62	3.94	-44.0	-45.3	17.5	0.00e+00	0	34	0	70254592	59	4208
2026-01-18 02:54:29.32	25.63	4.01	-44.1	-45.4	17.4	0.00e+00	0	34	0	75497472	59	4253
2026-01-18 02:54:30.33	25.63	4.08	-43.6	-44.9	17.9	0.00e+00	0	34	0	81788928	59	4012
2026-01-18 02:54:31.34	25.63	4.15	-44.3	-45.7	17.1	0.00e+00	0	34	0	87031808	59	4402
2026-01-18 02:54:32.35	25.63	4.22	-44.8	-46.3	16.2	0.00e+00	0	34	0	92274688	60	4470
2026-01-18 02:54:33.36	25.63	4.29	-45.9	-47.8	14.7	1.10e-06	0	34	0	98566144	62	4707
2026-01-18 02:54:34.36	25.63	4.35	-46.3	-48.2	14.2	0.00e+00	0	34	0	103809024	63	4683
2026-01-18 02:54:35.37	25.63	4.43	-46.2	-48.1	14.4	0.00e+00	0	34	0	109051904	63	4600
2026-01-18 02:54:36.38	25.63	4.50	-46.7	-48.8	13.6	2.17e-05	0	34	0	115343360	63	4996
2026-01-18 02:54:37.39	25.63	4.57	-46.8	-49.0	13.3	2.74e-05	0	34	0	120586240	64	4824
2026-01-18 02:54:38.40	25.63	4.64	-47.5	-50.0	12.2	1.97e-04	0	34	0	125829120	65	5150
2026-01-18 02:54:39.41	25.63	4.71	-48.7	-52.0	10.1	3.49e-03	0	35	0	132120576	67	5788
2026-01-18 02:54:40.42	25.63	4.78	-49.2	-53.0	9.2	1.96e-02	0	34	0	138412032	68	6091
2026-01-18 02:54:41.43	25.63	4.85	-49.5	-53.8	8.3	7.16e-02	0	35	0	143654912	69	6313
2026-01-18 02:54:42.43	25.63	4.92	-49.3	-53.3	8.8	3.35e-02	0	34	0	148897792	69	5967
2026-01-18 02:54:43.45	25.63	4.99	-49.8	-54.5	7.7	6.27e-02	0	35	0	155189248	70	6471
2026-01-18 02:54:44.46	25.63	5.07	-49.2	-52.6	9.6	1.99e-01	0	35	0	160432128	70	5206
2026-01-18 02:54:45.46	25.63	5.14	-47.0	-49.1	13.9	0.00e+00	0	35	0	166723584	64	4876
2026-01-18 02:54:46.47	25.63	5.21	-50.1	-55.1	7.1	6.90e-01	0	35	0	170917888	72	6165
2026-01-18 02:54:47.48	25.63	5.28	-49.2	-52.5	10.1	4.90e-02	0	34	0	176160768	70	5148
2026-01-18 02:54:48.49	25.63	5.36	-49.3	-52.8	10.0	1.48e-05	0	35	0	181403648	69	5655
2026-01-18 02:54:49.50	25.63	5.43	-50.5	-56.4	4.6	8.41e-01	0	35	104	183500800	72	7159
2026-01-18 02:54:50.51	25.63	5.50	-46.5	-48.2	14.8	1.10e-06	0	35	0	185597952	65	4190
2026-01-18 02:54:51.52	25.63	5.57	-46.0	-47.6	15.7	0.00e+00	0	35	0	191889408	63	4351
2026-01-18 02:54:52.52	25.63	5.65	-45.1	-46.5	16.9	0.00e+00	0	34	0	197132288	62	4059
2026-01-18 02:54:53.53	25.63	5.72	-45.8	-47.4	16.0	0.00e+00	0	35	0	202375168	62	4505
2026-01-18 02:54:54.54	25.63	5.80	-45.8	-47.4	16.0	0.00e+00	0	35	0	208666624	62	4502
2026-01-18 02:54:55.55	25.63	5.87	-44.8	-46.0	17.3	0.00e+00	0	35	0	213909504	61	4098
2026-01-18 02:54:56.56	25.63	5.94	-44.6	-45.8	17.6	0.00e+00	0	35	0	220200960	60	4228
2026-01-18 02:54:57.56	25.63	6.02	-44.6	-45.8	17.6	0.00e+00	0	34	0	225443840	60	4221
2026-01-18 02:54:58.57	25.63	6.09	-44.1	-45.3	18.1	0.00e+00	0	34	0	230686720	60	3967
2026-01-18 02:54:59.58	25.63	6.17	-44.2	-45.4	18.3	0.00e+00	0	35	0	236978176	59	4272
2026-01-18 02:55:00.59	25.63	6.24	-44.1	-45.3	18.5	0.00e+00	0	35	0	242221056	59	4197
2026-01-18 02:55:01.60	25.63	6.32	-44.0	-45.1	18.6	0.00e+00	0	35	0	247463936	59	4127
2026-01-18 02:55:02.61	25.63	6.39	-43.8	-44.9	18.8	0.00e+00	0	35	0	253755392	59	4029
2026-01-18 02:55:03.62	25.63	6.47	-43.8	-44.9	18.8	0.00e+00	0	35	0	260046848	59	4029
2026-01-18 02:55:04.62	25.63	6.55	-43.9	-45.0	18.7	0.00e+00	0	35	0	265289728	59	4076
2026-01-18 02:55:05.63	25.63	6.62	-43.8	-44.9	18.8	0.00e+00	0	35	0	270532608	59	4025
2026-01-18 02:55:06.64	25.63	6.70	-43.5	-44.6	19.2	0.00e+00	0	35	0	276824064	59	3881
2026-01-18 02:55:07.64	25.63	6.77	-43.6	-44.7	19.1	0.00e+00	0	35	0	282066944	59	3945
2026-01-18 02:55:08.65	25.63	6.85	-43.7	-44.8	19.0	0.00e+00	0	35	0	288358400	59	3993
2026-01-18 02:55:09.66	25.63	6.93	-43.9	-45.0	18.8	0.00e+00	0	35	0	293601280	59	4062
2026-01-18 02:55:10.67	25.63	7.01	-43.6	-44.7	19.1	0.00e+00	0	35	0	298844160	59	3928
2026-01-18 02:55:11.68	25.63	7.08	-43.5	-44.6	19.2	0.00e+00	0	35	0	305135616	59	3902
2026-01-18 02:55:12.69	25.63	7.16	-43.4	-44.5	19.3	0.00e+00	0	35	0	310378496	58	4077
2026-01-18 02:55:13.70	25.63	7.24	-43.6	-44.7	19.1	0.00e+00	0	35	0	315621376	58	4153
2026-01-18 02:55:14.71	25.63	7.32	-43.4	-44.5	19.3	0.00e+00	0	35	0	321912832	58	4065
2026-01-18 02:55:15.72	25.63	7.40	-43.5	-44.6	19.2	0.00e+00	0	35	0	328204288	58	4111
2026-01-18 02:55:16.73	25.63	7.48	-43.6	-44.7	19.1	0.00e+00	0	35	0	333447168	58	4185
2026-01-18 02:55:17.73	25.63	7.56	-43.5	-44.6	19.3	0.00e+00	0	35	0	338690048	58	4100
2026-01-18 02:55:18.74	25.62	7.63	-43.5	-44.6	19.3	0.00e+00	0	35	0	344981504	58	4108
2026-01-18 02:55:19.75	25.62	7.71	-43.4	-44.5	19.4	0.00e+00	0	35	0	350224384	58	4063
2026-01-18 02:55:20.75	25.62	7.79	-43.5	-44.5	19.3	0.00e+00	0	35	0	355467264	58	4098
2026-01-18 02:55:21.76	25.62	7.87	-43.5	-44.6	19.3	0.00e+00	0	35	0	361758720	58	4105
2026-01-18 02:55:22.77	25.62	7.95	-43.3	-44.3	19.6	0.00e+00	0	35	0	367001600	58	3991
2026-01-18 02:55:23.78	25.62	8.04	-43.4	-44.5	19.4	0.00e+00	0	35	0	373293056	58	4072
2026-01-18 02:55:24.79	25.62	8.12	-43.3	-44.3	19.6	0.00e+00	0	35	0	378535936	58	3978
2026-01-18 02:55:25.80	25.62	8.20	-43.3	-44.3	19.6	0.00e+00	0	35	0	383778816	58	4001
2026-01-18 02:55:26.81	25.62	8.28	-43.2	-44.3	19.7	0.00e+00	0	35	0	390070272	58	3962
2026-01-18 02:55:27.81	25.62	8.36	-43.3	-44.3	19.6	0.00e+00	0	35	0	395313152	58	3999
2026-01-18 02:55:28.82	25.62	8.44	-43.3	-44.3	19.7	0.00e+00	0	35	0	401604608	58	3978
2026-01-18 02:55:29.83	25.62	8.52	-43.2	-44.2	19.7	0.00e+00	0	35	0	406847488	58	3944
2026-01-18 02:55:30.84	25.62	8.61	-43.1	-44.2	19.8	0.00e+00	0	35	0	413138944	58	3916
2026-01-18 02:55:31.84	25.61	8.69	-43.2	-44.2	19.7	0.00e+00	0	35	0	418381824	58	3937
2026-01-18 02:55:32.85	25.61	8.77	-43.3	-44.4	19.6	0.00e+00	0	35	0	423624704	58	4009
2026-01-18 02:55:33.86	25.61	8.86	-43.3	-44.3	19.6	0.00e+00	0	35	0	429916160	58	4001
2026-01-18 02:55:34.87	25.61	8.94	-43.3	-44.3	19.7	0.00e+00	0	35	0	435159040	58	3977
2026-01-18 02:55:35.87	25.61	9.02	-43.4	-44.5	19.5	0.00e+00	0	35	0	440401920	58	4064
2026-01-18 02:55:36.88	25.61	9.11	-43.2	-44.2	19.8	0.00e+00	0	35	0	446693376	58	3929
2026-01-18 02:55:37.89	25.61	9.19	-43.0	-44.0	20.0	0.00e+00	0	35	0	451936256	58	3841
2026-01-18 02:55:38.90	25.61	9.28	-42.9	-43.9	20.1	0.00e+00	0	35	0	458227712	57	4015
2026-01-18 02:55:39.91	25.61	9.36	-43.0	-44.0	20.0	0.00e+00	0	35	0	463470592	57	4076
2026-01-18 02:55:40.91	25.60	9.45	-42.9	-43.9	20.1	0.00e+00	0	35	0	469762048	57	4029
2026-01-18 02:55:41.92	25.60	9.53	-42.9	-43.8	20.1	0.00e+00	0	35	0	475004928	57	4002
2026-01-18 02:55:42.93	25.60	9.62	-43.0	-44.0	20.0	0.00e+00	0	35	0	481296384	57	4054
2026-01-18 02:55:43.94	25.60	9.70	-42.9	-43.9	20.1	0.00e+00	0	35	0	486539264	57	4017
2026-01-18 02:55:44.95	25.60	9.79	-42.9	-43.9	20.2	0.00e+00	0	35	0	491782144	57	4013
2026-01-18 02:55:45.95	25.60	9.88	-43.0	-44.0	20.0	0.00e+00	0	35	0	498073600	57	4064
2026-01-18 02:55:46.96	25.60	9.96	-42.9	-43.9	20.2	0.00e+00	0	35	0	503316480	57	4016
2026-01-18 02:55:47.97	25.59	10.05	-43.0	-44.0	20.0	0.00e+00	0	35	0	508559360	57	4073
2026-01-18 02:55:48.98	25.59	10.14	-43.0	-43.9	20.0	0.00e+00	0	35	0	514850816	57	4049
2026-01-18 02:55:49.98	25.59	10.23	-42.8	-43.8	20.3	0.00e+00	0	35	0	520093696	57	3983
2026-01-18 02:55:50.99	25.59	10.31	-42.9	-43.9	20.2	0.00e+00	0	35	0	525336576	57	4020
2026-01-18 02:55:52.00	25.59	10.40	-42.9	-43.8	20.2	0.00e+00	0	35	0	531628032	57	4004
2026-01-18 02:55:53.01	25.59	10.49	-42.8	-43.7	20.3	0.00e+00	0	35	0	537919488	57	3942
2026-01-18 02:55:54.01	25.59	10.58	-42.8	-43.8	20.3	0.00e+00	0	35	0	543162368	57	3985
2026-01-18 02:55:55.02	25.58	10.67	-42.9	-43.9	20.2	0.00e+00	0	35	0	548405248	57	4022
2026-01-18 02:55:56.03	25.58	10.76	-42.8	-43.8	20.2	0.00e+00	0	35	0	554696704	57	3992
2026-01-18 02:55:57.04	25.58	10.85	-42.7	-43.6	20.4	0.00e+00	0	35	0	559939584	57	3913
2026-01-18 02:55:58.04	25.58	10.94	-42.7	-43.6	20.5	0.00e+00	0	35	0	566231040	57	3887
2026-01-18 02:55:59.05	25.58	11.03	-42.8	-43.7	20.3	0.00e+00	0	35	0	571473920	57	3945
2026-01-18 02:56:00.06	25.57	11.12	-42.8	-43.7	20.3	0.00e+00	0	35	0	576716800	57	3956
2026-01-18 02:56:01.07	25.57	11.22	-42.8	-43.8	20.3	0.00e+00	0	35	0	583008256	57	3974
2026-01-18 02:56:02.08	25.57	11.31	-42.7	-43.6	20.5	0.00e+00	0	35	0	588251136	57	3886
2026-01-18 02:56:03.08	25.57	11.40	-42.5	-43.5	20.6	0.00e+00	0	35	0	593494016	57	3827
2026-01-18 02:56:04.09	25.57	11.49	-42.7	-43.7	20.4	0.00e+00	0	35	0	599785472	57	3919
2026-01-18 02:56:05.10	25.56	11.58	-42.6	-43.5	20.6	0.00e+00	0	35	0	606076928	57	3861
2026-01-18 02:56:06.11	25.56	11.68	-42.5	-43.4	20.7	0.00e+00	0	35	0	611319808	57	3801
2026-01-18 02:56:07.12	25.56	11.77	-42.6	-43.5	20.6	0.00e+00	0	35	0	616562688	56	4084
2026-01-18 02:56:08.12	25.56	11.87	-42.4	-43.3	20.8	0.00e+00	0	35	0	622854144	56	4003
2026-01-18 02:56:09.13	25.56	11.96	-42.4	-43.3	20.8	0.00e+00	0	35	0	628097024	56	3997
2026-01-18 02:56:10.14	25.55	12.05	-42.4	-43.4	20.8	0.00e+00	0	35	0	633339904	56	4005
2026-01-18 02:56:11.15	25.55	12.15	-42.5	-43.4	20.7	0.00e+00	0	35	0	639631360	56	4050
2026-01-18 02:56:12.16	25.55	12.25	-42.8	-43.8	20.4	0.00e+00	0	35	0	644874240	56	4210
2026-01-18 02:56:13.17	25.55	12.34	-42.7	-43.7	20.5	0.00e+00	0	35	0	651165696	56	4160
2026-01-18 02:56:14.17	25.54	12.44	-42.7	-43.6	20.5	0.00e+00	0	35	0	656408576	56	4123
2026-01-18 02:56:15.18	25.54	12.53	-42.6	-43.5	20.7	0.00e+00	0	35	0	661651456	56	4071
2026-01-18 02:56:16.19	25.54	12.63	-42.5	-43.4	20.7	0.00e+00	0	35	0	667942912	56	4026
2026-01-18 02:56:17.19	25.54	12.73	-42.4	-43.4	20.8	0.00e+00	0	35	0	673185792	56	4009
2026-01-18 02:56:18.20	25.53	12.83	-42.4	-43.3	20.9	0.00e+00	0	35	0	679477248	56	3980
2026-01-18 02:56:19.21	25.53	12.92	-42.2	-43.1	21.0	0.00e+00	0	35	0	684720128	56	3903
2026-01-18 02:56:20.22	25.53	13.02	-42.1	-43.1	21.1	0.00e+00	0	35	0	691011584	56	3869
2026-01-18 02:56:21.22	25.52	13.12	-42.2	-43.1	21.1	0.00e+00	0	35	0	696254464	56	3885
2026-01-18 02:56:22.23	25.52	13.22	-42.2	-43.1	21.1	0.00e+00	0	35	0	701497344	56	3877
2026-01-18 02:56:23.24	25.52	13.32	-42.1	-42.9	21.2	0.00e+00	0	35	0	707788800	56	3823
2026-01-18 02:56:24.25	25.52	13.42	-42.1	-43.0	21.2	0.00e+00	0	35	0	713031680	56	3831
2026-01-18 02:56:25.26	25.51	13.52	-42.1	-43.0	21.2	0.00e+00	0	35	0	718274560	56	3834
2026-01-18 02:56:26.27	25.51	13.62	-42.0	-42.9	21.3	0.00e+00	0	35	0	724566016	56	3802
2026-01-18 02:56:27.27	25.51	13.72	-42.0	-42.9	21.2	0.00e+00	0	35	0	729808896	55	4024
2026-01-18 02:56:28.28	25.50	13.83	-41.8	-42.7	21.4	0.00e+00	0	35	0	736100352	55	3939
2026-01-18 02:56:29.29	25.50	13.93	-41.7	-42.6	21.5	0.00e+00	0	35	0	741343232	55	3877
2026-01-18 02:56:30.30	25.50	14.03	-41.7	-42.5	21.6	0.00e+00	0	35	0	746586112	55	3855
2026-01-18 02:56:31.31	25.49	14.14	-41.7	-42.5	21.6	0.00e+00	0	35	0	752877568	55	3859
2026-01-18 02:56:32.31	25.49	14.24	-41.5	-42.4	21.7	0.00e+00	0	35	0	759169024	55	3791
2026-01-18 02:56:33.32	25.49	14.34	-41.6	-42.5	21.6	0.00e+00	0	35	0	764411904	55	3833
2026-01-18 02:56:34.33	25.48	14.45	-41.7	-42.5	21.6	0.00e+00	0	35	0	769654784	55	3857
2026-01-18 02:56:35.33	25.48	14.55	-41.7	-42.5	21.6	0.00e+00	0	35	0	775946240	55	3865
2026-01-18 02:56:36.34	25.48	14.66	-41.8	-42.6	21.5	0.00e+00	0	35	0	781189120	55	3903
2026-01-18 02:56:37.35	25.47	14.76	-41.6	-42.5	21.6	0.00e+00	0	35	0	786432000	55	3851
2026-01-18 02:56:38.36	25.47	14.87	-41.7	-42.5	21.6	0.00e+00	0	35	0	792723456	55	3859
2026-01-18 02:56:39.37	25.46	14.98	-41.4	-42.3	21.8	0.00e+00	0	35	0	797966336	54	3979
2026-01-18 02:56:40.37	25.46	15.08	-41.3	-42.2	21.9	0.00e+00	0	35	0	803209216	54	3923
2026-01-18 02:56:41.38	25.46	15.19	-41.5	-42.3	21.8	0.00e+00	0	35	0	809500672	54	3984
2026-01-18 02:56:42.39	25.45	15.30	-41.4	-42.3	21.8	0.00e+00	0	35	0	814743552	54	3983
2026-01-18 02:56:43.40	25.45	15.41	-41.4	-42.3	21.8	0.00e+00	0	35	0	821035008	54	3975
2026-01-18 02:56:44.40	25.44	15.52	-41.3	-42.1	22.0	0.00e+00	0	35	0	826277888	54	3902
2026-01-18 02:56:45.41	25.44	15.63	-41.3	-42.2	22.0	0.00e+00	0	35	0	832569344	54	3917
2026-01-18 02:56:46.42	25.44	15.74	-41.3	-42.2	22.0	0.00e+00	0	35	0	837812224	54	3922
2026-01-18 02:56:47.43	25.43	15.85	-41.2	-42.0	22.1	0.00e+00	0	35	0	844103680	54	3840
2026-01-18 02:56:48.44	25.43	15.96	-41.2	-42.0	22.1	0.00e+00	0	35	0	849346560	54	3866
2026-01-18 02:56:49.44	25.42	16.07	-41.2	-42.0	22.1	0.00e+00	0	35	0	854589440	54	3844
2026-01-18 02:56:50.45	25.42	16.18	-41.2	-42.0	22.1	0.00e+00	0	35	0	860880896	54	3848
2026-01-18 02:56:51.46	25.41	16.30	-41.1	-41.9	22.2	0.00e+00	0	35	0	866123776	54	3820
2026-01-18 02:56:52.47	25.41	16.41	-41.1	-42.0	22.2	0.00e+00	0	35	0	871366656	54	3831
2026-01-18 02:56:53.48	25.41	16.52	-41.1	-41.9	22.3	0.00e+00	0	35	0	877658112	54	3788
2026-01-18 02:56:54.49	25.40	16.64	-41.0	-41.9	22.3	0.00e+00	0	35	0	882900992	54	3790
2026-01-18 02:56:55.50	25.40	16.75	-41.0	-41.9	22.3	0.00e+00	0	35	0	888143872	54	3787
2026-01-18 02:56:56.50	25.39	16.87	-41.1	-41.9	22.3	0.00e+00	0	35	0	894435328	54	3810
2026-01-18 02:56:57.51	25.39	16.98	-41.1	-41.9	22.3	0.00e+00	0	35	0	900726784	54	3799
2026-01-18 02:56:58.52	25.38	17.10	-40.9	-41.7	22.4	0.00e+00	0	35	0	905969664	53	3949
2026-01-18 02:56:59.53	25.38	17.22	-40.9	-41.7	22.4	0.00e+00	0	35	0	911212544	53	3946
2026-01-18 02:57:00.54	25.37	17.34	-40.8	-41.7	22.5	0.00e+00	0	35	0	917504000	53	3918
2026-01-18 02:57:01.55	25.37	17.45	-40.8	-41.6	22.5	0.00e+00	0	35	0	922746880	53	3898
2026-01-18 02:57:02.56	25.36	17.57	-40.9	-41.7	22.5	0.00e+00	0	35	0	929038336	53	3930
2026-01-18 02:57:03.56	25.35	17.69	-40.9	-41.7	22.5	0.00e+00	0	35	0	934281216	53	3921
2026-01-18 02:57:04.57	25.35	17.81	-40.8	-41.6	22.6	0.00e+00	0	35	0	939524096	53	3875
2026-01-18 02:57:05.58	25.34	17.93	-40.8	-41.6	22.5	0.00e+00	0	35	0	945815552	53	3907
2026-01-18 02:57:06.59	25.34	18.05	-40.7	-41.6	22.6	0.00e+00	0	35	0	951058432	53	3870
2026-01-18 02:57:07.60	25.33	18.18	-40.9	-41.7	22.5	0.00e+00	0	35	0	956301312	53	3932
2026-01-18 02:57:08.60	25.33	18.30	-40.7	-41.5	22.7	0.00e+00	0	35	0	962592768	53	3843
2026-01-18 02:57:09.61	25.32	18.42	-40.7	-41.5	22.7	0.00e+00	0	35	0	968884224	53	3855
2026-01-18 02:57:10.62	25.31	18.55	-40.7	-41.5	22.7	0.00e+00	0	35	0	974127104	53	3866
2026-01-18 02:57:11.63	25.31	18.67	-40.5	-41.3	22.8	0.00e+00	0	35	0	979369984	53	3763
2026-01-18 02:57:12.64	25.30	18.80	-40.4	-41.2	22.9	0.00e+00	0	35	0	985661440	52	3935
2026-01-18 02:57:13.64	25.30	18.92	-40.5	-41.3	22.9	0.00e+00	0	35	0	990904320	52	3960
2026-01-18 02:57:14.65	25.29	19.05	-40.3	-41.1	23.0	0.00e+00	0	35	0	996147200	52	3890
2026-01-18 02:57:15.66	25.28	19.17	-40.3	-41.1	23.1	0.00e+00	0	35	0	1002438656	52	3875
2026-01-18 02:57:16.67	25.28	19.30	-40.4	-41.2	23.0	0.00e+00	0	35	0	1007681536	52	3939
2026-01-18 02:57:17.68	25.27	19.43	-40.4	-41.2	23.0	0.00e+00	0	35	0	1013972992	52	3938
2026-01-18 02:57:18.68	25.26	19.56	-40.3	-41.1	23.1	0.00e+00	0	35	0	1019215872	52	3888
2026-01-18 02:57:19.69	25.26	19.69	-40.3	-41.1	23.1	0.00e+00	0	35	0	1024458752	52	3885
2026-01-18 02:57:20.70	25.25	19.82	-40.1	-40.9	23.3	0.00e+00	0	35	0	1030750208	52	3794
2026-01-18 02:57:21.71	25.24	19.95	-40.1	-40.9	23.3	0.00e+00	0	35	0	1037041664	52	3797
2026-01-18 02:57:22.71	25.24	20.08	-40.2	-41.0	23.2	0.00e+00	0	35	0	1042284544	52	3827
2026-01-18 02:57:23.72	25.23	20.21	-40.1	-40.9	23.3	0.00e+00	0	35	0	1047527424	52	3782
2026-01-18 02:57:24.73	25.22	20.34	-40.1	-40.9	23.3	0.00e+00	0	35	0	1053818880	52	3799
2026-01-18 02:57:25.74	25.22	20.48	-40.2	-40.9	23.2	0.00e+00	0	35	0	1059061760	52	3823
2026-01-18 02:57:26.74	25.21	20.61	-40.0	-40.7	23.4	0.00e+00	0	35	0	1064304640	52	3735
2026-01-18 02:57:27.75	25.20	20.75	-40.1	-40.9	23.4	0.00e+00	0	35	0	1070596096	51	4013
2026-01-18 02:57:28.76	25.19	20.88	-40.2	-40.9	23.3	0.00e+00	0	35	0	1075838976	51	4042
2026-01-18 02:57:29.77	25.19	21.02	-40.1	-40.9	23.4	0.00e+00	0	35	0	1081081856	51	4025
2026-01-18 02:57:30.78	25.18	21.16	-40.1	-40.8	23.4	0.00e+00	0	35	0	1087373312	51	4003
2026-01-18 02:57:31.79	25.17	21.30	-40.1	-40.8	23.4	0.00e+00	0	35	0	1092616192	51	3992
2026-01-18 02:57:32.79	25.16	21.43	-40.0	-40.8	23.4	0.00e+00	0	35	0	1098907648	51	3987
2026-01-18 02:57:33.80	25.15	21.57	-40.1	-40.8	23.4	0.00e+00	0	35	0	1104150528	51	3998
2026-01-18 02:57:34.81	25.15	21.71	-40.0	-40.8	23.5	0.00e+00	0	35	0	1110441984	51	3970
2026-01-18 02:57:35.82	25.14	21.85	-40.1	-40.8	23.4	0.00e+00	0	35	0	1115684864	51	4001
2026-01-18 02:57:36.83	25.13	22.00	-40.0	-40.7	23.5	0.00e+00	0	35	0	1121976320	51	3956
2026-01-18 02:57:37.83	25.12	22.14	-40.1	-40.9	23.4	0.00e+00	0	35	0	1127219200	51	4009
2026-01-18 02:57:38.84	25.11	22.28	-40.0	-40.8	23.5	0.00e+00	0	35	0	1132462080	51	3964
2026-01-18 02:57:39.84	25.10	22.43	-40.1	-40.8	23.5	0.00e+00	0	35	0	1138753536	51	3995
2026-01-18 02:57:40.85	25.09	22.57	-40.1	-40.8	23.4	0.00e+00	0	35	0	1143996416	51	3990
2026-01-18 02:57:41.86	25.08	22.72	-40.0	-40.7	23.5	0.00e+00	0	35	0	1149239296	51	3954
2026-01-18 02:57:42.87	25.08	22.86	-39.9	-40.7	23.6	0.00e+00	0	35	0	1155530752	51	3932
2026-01-18 02:57:43.88	25.07	23.01	-40.0	-40.7	23.5	0.00e+00	0	35	0	1160773632	51	3954
2026-01-18 02:57:44.89	25.06	23.16	-39.9	-40.6	23.6	0.00e+00	0	35	0	1166016512	51	3911
2026-01-18 02:57:45.90	25.05	23.31	-39.9	-40.7	23.6	0.00e+00	0	35	0	1172307968	51	3918
2026-01-18 02:57:46.91	25.04	23.46	-40.0	-40.8	23.5	0.00e+00	0	35	0	1178599424	51	3971
2026-01-18 02:57:47.92	25.03	23.61	-39.8	-40.6	23.7	0.00e+00	0	35	0	1183842304	51	3878
2026-01-18 02:57:48.93	25.02	23.76	-39.9	-40.6	23.7	0.00e+00	0	35	0	1189085184	51	3908
2026-01-18 02:57:49.93	25.01	23.92	-39.9	-40.7	23.6	0.00e+00	0	35	0	1195376640	51	3926
2026-01-18 02:57:50.94	25.00	24.07	-39.9	-40.7	23.6	0.00e+00	0	35	0	1200619520	51	3939
2026-01-18 02:57:51.95	24.99	24.23	-39.9	-40.7	23.7	0.00e+00	0	35	0	1206910976	51	3921
2026-01-18 02:57:52.96	24.98	24.38	-39.7	-40.5	23.8	0.00e+00	0	35	0	1212153856	51	3845
2026-01-18 02:57:53.97	24.97	24.54	-39.7	-40.5	23.8	0.00e+00	0	35	0	1217396736	51	3841
2026-01-18 02:57:54.98	24.95	24.70	-39.8	-40.6	23.7	0.00e+00	0	35	0	1223688192	51	3880
2026-01-18 02:57:55.99	24.94	24.85	-39.6	-40.4	23.9	0.00e+00	0	35	0	1228931072	51	3786
2026-01-18 02:57:56.99	24.93	25.01	-39.6	-40.3	24.0	0.00e+00	0	35	0	1234173952	51	3763
2026-01-18 02:57:58.00	24.92	25.17	-39.6	-40.3	24.0	0.00e+00	0	35	0	1240465408	51	3762
2026-01-18 02:57:59.01	24.91	25.34	-39.5	-40.2	24.0	0.00e+00	0	35	0	1246756864	51	3734
2026-01-18 02:58:00.02	24.90	25.50	-39.5	-40.2	24.1	0.00e+00	0	35	0	1251999744	50	3943
2026-01-18 02:58:01.03	24.89	25.66	-39.5	-40.3	24.0	0.00e+00	0	35	0	1257242624	50	3959
2026-01-18 02:58:02.03	24.87	25.82	-39.5	-40.2	24.1	0.00e+00	0	35	0	1263534080	50	3951
2026-01-18 02:58:03.04	24.86	25.99	-39.4	-40.1	24.2	0.00e+00	0	35	0	1268776960	50	3900
2026-01-18 02:58:04.05	24.85	26.16	-39.4	-40.1	24.2	0.00e+00	0	35	0	1274019840	50	3889
2026-01-18 02:58:05.06	24.84	26.33	-39.5	-40.2	24.1	0.00e+00	0	35	0	1280311296	50	3936
2026-01-18 02:58:06.07	24.82	26.49	-39.4	-40.1	24.2	0.00e+00	0	35	0	1285554176	50	3910
2026-01-18 02:58:07.07	24.81	26.66	-39.4	-40.1	24.2	0.00e+00	0	35	0	1291845632	50	3896
2026-01-18 02:58:08.08	24.80	26.83	-39.4	-40.1	24.2	0.00e+00	0	35	0	1297088512	50	3885
2026-01-18 02:58:09.09	24.79	27.01	-39.4	-40.1	24.2	0.00e+00	0	35	0	1302331392	50	3900
2026-01-18 02:58:10.10	24.77	27.18	-39.4	-40.1	24.2	0.00e+00	0	35	0	1308622848	50	3884
2026-01-18 02:58:11.10	24.76	27.35	-39.4	-40.1	24.2	0.00e+00	0	35	0	1314914304	50	3910
2026-01-18 02:58:12.11	24.75	27.53	-39.5	-40.3	24.1	0.00e+00	0	35	0	1320157184	50	3959
2026-01-18 02:58:13.12	24.73	27.70	-39.6	-40.3	24.1	0.00e+00	0	35	0	1325400064	50	3978
2026-01-18 02:58:14.12	24.72	27.88	-39.6	-40.3	24.0	0.00e+00	0	35	0	1331691520	50	3981
2026-01-18 02:58:15.13	24.70	28.06	-39.4	-40.1	24.2	0.00e+00	0	35	0	1336934400	50	3910
2026-01-18 02:58:16.14	24.69	28.24	-39.4	-40.1	24.2	0.00e+00	0	35	0	1342177280	50	3910
2026-01-18 02:58:17.15	24.67	28.42	-39.5	-40.3	24.1	0.00e+00	0	35	0	1348468736	50	3967
2026-01-18 02:58:18.16	24.66	28.60	-39.6	-40.3	24.0	0.00e+00	0	35	0	1353711616	50	3988
2026-01-18 02:58:19.16	24.64	28.78	-39.7	-40.4	24.0	0.00e+00	0	35	0	1358954496	50	4031
2026-01-18 02:58:20.17	24.63	28.97	-39.7	-40.4	24.0	0.00e+00	0	35	0	1365245952	50	4033
2026-01-18 02:58:21.18	24.61	29.15	-39.5	-40.3	24.1	0.00e+00	0	35	0	1370488832	50	3970
2026-01-18 02:58:22.19	24.60	29.34	-39.5	-40.2	24.1	0.00e+00	0	35	0	1376780288	50	3940
2026-01-18 02:58:23.19	24.58	29.53	-39.5	-40.3	24.1	0.00e+00	0	35	0	1382023168	50	3963
2026-01-18 02:58:24.20	24.56	29.72	-39.5	-40.2	24.1	0.00e+00	0	35	0	1388314624	50	3954
2026-01-18 02:58:25.21	24.55	29.91	-39.5	-40.2	24.1	0.00e+00	0	35	0	1393557504	50	3953
2026-01-18 02:58:26.22	24.53	30.10	-39.5	-40.2	24.2	0.00e+00	0	35	0	1399848960	50	3943
2026-01-18 02:58:27.23	24.51	30.29	-39.5	-40.3	24.1	0.00e+00	0	35	0	1405091840	50	3976
2026-01-18 02:58:28.23	24.50	30.49	-39.5	-40.2	24.2	0.00e+00	0	35	0	1410334720	50	3953
2026-01-18 02:58:29.24	24.48	30.68	-39.5	-40.2	24.2	0.00e+00	0	35	0	1416626176	50	3954
2026-01-18 02:58:30.25	24.46	30.88	-39.5	-40.3	24.1	0.00e+00	0	35	0	1421869056	50	3976
2026-01-18 02:58:31.26	24.44	31.08	-39.4	-40.2	24.2	0.00e+00	0	35	0	1427111936	50	3917
2026-01-18 02:58:32.27	24.42	31.28	-39.5	-40.3	24.1	0.00e+00	0	35	0	1433403392	50	3959
2026-01-18 02:58:33.28	24.41	31.48	-39.4	-40.1	24.3	0.00e+00	0	35	0	1438646272	50	3896
2026-01-18 02:58:34.29	24.39	31.68	-39.4	-40.1	24.3	0.00e+00	0	35	0	1443889152	50	3898
2026-01-18 02:58:35.29	24.37	31.88	-39.3	-40.0	24.4	0.00e+00	0	35	0	1450180608	50	3831
2026-01-18 02:58:36.30	24.35	32.09	-39.3	-40.1	24.3	0.00e+00	0	35	0	1456472064	50	3874
2026-01-18 02:58:37.31	24.33	32.30	-39.2	-39.9	24.5	0.00e+00	0	35	0	1461714944	50	3798
2026-01-18 02:58:38.32	24.31	32.51	-39.2	-40.0	24.4	0.00e+00	0	35	0	1466957824	50	3827
2026-01-18 02:58:39.32	24.29	32.71	-38.9	-39.6	24.8	0.00e+00	0	35	0	1473249280	49	3882
2026-01-18 02:58:40.34	24.27	32.93	-38.8	-39.5	24.9	0.00e+00	0	35	0	1478492160	49	3829
2026-01-18 02:58:41.34	24.24	33.14	-38.8	-39.5	24.8	0.00e+00	0	35	0	1484783616	49	3864
2026-01-18 02:58:42.35	24.22	33.35	-38.9	-39.6	24.7	0.00e+00	0	35	0	1490026496	49	3890
2026-01-18 02:58:43.36	24.20	33.57	-39.0	-39.7	24.6	0.00e+00	0	35	0	1495269376	49	3956
2026-01-18 02:58:44.37	24.18	33.79	-39.0	-39.8	24.6	0.00e+00	0	35	0	1501560832	49	3960
2026-01-18 02:58:45.37	24.16	34.00	-39.1	-39.8	24.6	0.00e+00	0	35	0	1506803712	49	3976
2026-01-18 02:58:46.38	24.13	34.23	-39.1	-39.9	24.5	0.00e+00	0	35	0	1512046592	49	4010
2026-01-18 02:58:47.39	24.11	34.45	-39.0	-39.7	24.7	0.00e+00	0	35	0	1518338048	49	3937
2026-01-18 02:58:48.40	24.09	34.67	-38.8	-39.5	24.9	0.00e+00	0	35	0	1523580928	49	3834
2026-01-18 02:58:49.40	24.06	34.89	-38.7	-39.4	24.9	0.00e+00	0	35	0	1529872384	49	3821
2026-01-18 02:58:50.41	24.04	35.12	-38.7	-39.4	25.0	0.00e+00	0	35	0	1535115264	49	3792
2026-01-18 02:58:51.42	24.01	35.35	-38.7	-39.4	24.9	0.00e+00	0	35	0	1541406720	49	3822
2026-01-18 02:58:52.43	23.99	35.58	-38.8	-39.5	24.9	0.00e+00	0	35	0	1546649600	49	3831
2026-01-18 02:58:53.44	23.96	35.81	-39.0	-39.7	24.7	0.00e+00	0	35	0	1551892480	49	3939
2026-01-18 02:58:54.44	23.94	36.04	-39.0	-39.8	24.7	0.00e+00	0	35	0	1558183936	49	3959
2026-01-18 02:58:55.45	23.91	36.28	-39.0	-39.7	24.7	0.00e+00	0	35	0	1563426816	49	3954
2026-01-18 02:58:56.46	23.88	36.52	-38.8	-39.5	24.8	0.00e+00	0	35	0	1569718272	49	3867
2026-01-18 02:58:57.47	23.86	36.76	-38.7	-39.4	25.0	0.00e+00	0	35	0	1574961152	49	3789
2026-01-18 02:58:58.48	23.83	37.00	-38.4	-39.1	25.2	0.00e+00	0	35	0	1580204032	48	3877
2026-01-18 02:58:59.48	23.80	37.24	-38.4	-39.1	25.2	0.00e+00	0	35	0	1586495488	48	3890
2026-01-18 02:59:00.49	23.77	37.48	-38.3	-39.0	25.3	0.00e+00	0	35	0	1591738368	48	3855
2026-01-18 02:59:01.50	23.74	37.73	-38.5	-39.2	25.1	0.00e+00	0	35	0	1598029824	48	3957
2026-01-18 02:59:02.51	23.71	37.97	-38.6	-39.3	25.0	0.00e+00	0	35	0	1603272704	48	3990
2026-01-18 02:59:03.52	23.68	38.22	-38.8	-39.5	24.9	0.00e+00	0	35	0	1609564160	48	4077
2026-01-18 02:59:04.52	23.65	38.47	-39.0	-39.7	24.7	0.00e+00	0	35	0	1614807040	48	4166
2026-01-18 02:59:05.53	23.62	38.73	-39.0	-39.8	24.7	0.00e+00	0	35	0	1620049920	48	4201
2026-01-18 02:59:06.54	23.59	38.98	-39.0	-39.8	24.7	0.00e+00	0	35	0	1626341376	48	4199
2026-01-18 02:59:07.55	23.56	39.24	-38.8	-39.5	24.9	0.00e+00	0	35	0	1631584256	48	4081
2026-01-18 02:59:08.56	23.52	39.50	-38.8	-39.5	24.9	0.00e+00	0	35	0	1636827136	48	4092
2026-01-18 02:59:09.57	23.49	39.76	-38.9	-39.6	24.9	0.00e+00	0	35	0	1643118592	48	4106
2026-01-18 02:59:10.58	23.45	40.02	-39.0	-39.7	24.7	0.00e+00	0	35	0	1648361472	48	4174
2026-01-18 02:59:11.59	23.42	40.29	-39.2	-39.9	24.6	0.00e+00	0	35	0	1654652928	48	4251
2026-01-18 02:59:12.59	23.38	40.55	-39.1	-39.8	24.6	0.00e+00	0	35	0	1659895808	48	4230
2026-01-18 02:59:13.60	23.35	40.82	-39.1	-39.8	24.7	0.00e+00	0	35	0	1666187264	48	4204
2026-01-18 02:59:14.61	23.31	41.09	-39.0	-39.7	24.7	0.00e+00	0	35	0	1671430144	48	4169
2026-01-18 02:59:15.62	23.27	41.36	-39.1	-39.8	24.7	0.00e+00	0	36	0	1677721600	48	4198
2026-01-18 02:59:16.62	23.23	41.64	-39.0	-39.7	24.8	0.00e+00	0	35	0	1682964480	48	4154
2026-01-18 02:59:17.63	23.20	41.91	-38.9	-39.5	24.9	0.00e+00	0	35	0	1688207360	48	4098
2026-01-18 02:59:18.64	23.16	42.19	-38.8	-39.5	24.9	0.00e+00	0	35	0	1694498816	48	4072
2026-01-18 02:59:19.65	23.11	42.47	-38.9	-39.6	24.9	0.00e+00	0	35	0	1699741696	48	4105
2026-01-18 02:59:20.66	23.07	42.76	-39.1	-39.8	24.6	0.00e+00	0	35	0	1704984576	48	4225
2026-01-18 02:59:21.67	23.03	43.04	-39.2	-39.9	24.6	0.00e+00	0	35	0	1711276032	48	4270
2026-01-18 02:59:22.68	22.99	43.33	-39.4	-40.1	24.4	0.00e+00	0	35	0	1716518912	49	4144
2026-01-18 02:59:23.68	22.94	43.62	-39.6	-40.4	24.2	0.00e+00	0	35	0	1721761792	49	4254
2026-01-18 02:59:24.69	22.90	43.91	-39.6	-40.4	24.2	0.00e+00	0	35	0	1728053248	49	4258
2026-01-18 02:59:25.70	22.85	44.20	-39.6	-40.4	24.2	0.00e+00	0	35	0	1734344704	49	4257
2026-01-18 02:59:26.71	22.81	44.50	-39.7	-40.4	24.2	0.00e+00	0	35	0	1739587584	50	4034
2026-01-18 02:59:27.72	22.76	44.80	-39.5	-40.2	24.4	0.00e+00	0	35	0	1744830464	50	3936
2026-01-18 02:59:28.72	22.71	45.10	-39.4	-40.1	24.4	0.00e+00	0	35	0	1751121920	50	3899
2026-01-18 02:59:29.73	22.66	45.40	-39.6	-40.3	24.3	0.00e+00	0	35	0	1756364800	50	3977
2026-01-18 02:59:30.74	22.61	45.71	-39.6	-40.4	24.2	0.00e+00	0	35	0	1762656256	50	4010
2026-01-18 02:59:31.75	22.56	46.01	-39.7	-40.5	24.1	0.00e+00	0	36	0	1767899136	50	4066
2026-01-18 02:59:32.75	22.51	46.32	-39.9	-40.6	24.0	0.00e+00	0	35	0	1773142016	50	4130
2026-01-18 02:59:33.76	22.45	46.63	-39.9	-40.6	24.0	0.00e+00	0	35	0	1779433472	50	4129
2026-01-18 02:59:34.77	22.40	46.95	-39.9	-40.6	24.0	0.00e+00	0	35	0	1784676352	50	4120
2026-01-18 02:59:35.78	22.34	47.27	-39.7	-40.4	24.2	0.00e+00	0	35	0	1789919232	50	4018
2026-01-18 02:59:36.79	22.28	47.59	-39.6	-40.3	24.3	0.00e+00	0	35	0	1796210688	50	3972
2026-01-18 02:59:37.80	22.23	47.91	-39.5	-40.2	24.4	0.00e+00	0	35	0	1801453568	50	3949
2026-01-18 02:59:38.80	22.17	48.23	-39.6	-40.4	24.2	0.00e+00	0	35	0	1807745024	50	4017
2026-01-18 02:59:39.81	22.10	48.56	-39.9	-40.6	24.0	0.00e+00	0	35	0	1812987904	50	4134
2026-01-18 02:59:40.82	22.04	48.88	-39.9	-40.6	24.0	0.00e+00	0	35	0	1819279360	50	4137
2026-01-18 02:59:41.83	21.98	49.22	-39.7	-40.4	24.2	0.00e+00	0	35	0	1824522240	50	4040
2026-01-18 02:59:42.84	21.91	49.55	-39.5	-40.2	24.4	0.00e+00	0	36	0	1829765120	50	3947
2026-01-18 02:59:43.84	21.84	49.88	-39.4	-40.1	24.5	0.00e+00	0	35	0	1836056576	50	3906
2026-01-18 02:59:44.85	21.78	50.22	-39.6	-40.3	24.3	0.00e+00	0	35	0	1841299456	50	3982
2026-01-18 02:59:45.86	21.70	50.56	-39.7	-40.5	24.2	0.00e+00	0	35	0	1847590912	50	4052
2026-01-18 02:59:46.87	21.63	50.91	-40.0	-40.7	23.9	0.00e+00	0	35	0	1852833792	50	4185
2026-01-18 02:59:47.88	21.56	51.25	-40.1	-40.8	23.8	0.00e+00	0	35	0	1858076672	50	4237
2026-01-18 02:59:48.88	21.48	51.60	-40.1	-40.8	23.8	0.00e+00	0	35	0	1864368128	50	4220
2026-01-18 02:59:49.89	21.41	51.95	-40.2	-41.0	23.7	0.00e+00	0	35	0	1869611008	50	4292
2026-01-18 02:59:50.90	21.33	52.30	-40.4	-41.1	23.6	0.00e+00	0	35	0	1875902464	51	4143
2026-01-18 02:59:51.91	21.24	52.66	-40.3	-41.0	23.7	0.00e+00	0	35	0	1881145344	51	4098
2026-01-18 02:59:52.92	21.16	53.02	-40.3	-41.1	23.6	0.00e+00	0	35	0	1887436800	51	4114
2026-01-18 02:59:53.92	21.07	53.38	-40.4	-41.2	23.5	0.00e+00	0	35	0	1892679680	51	4165
2026-01-18 02:59:54.93	20.99	53.74	-40.4	-41.1	23.6	0.00e+00	0	35	0	1897922560	51	4145
2026-01-18 02:59:55.94	20.89	54.11	-40.6	-41.4	23.4	0.00e+00	0	35	0	1904214016	51	4269
2026-01-18 02:59:56.95	20.80	54.48	-40.7	-41.5	23.2	0.00e+00	0	35	0	1909456896	52	4056
2026-01-18 02:59:57.96	20.71	54.85	-40.7	-41.5	23.2	0.00e+00	0	35	0	1914699776	52	4072
2026-01-18 02:59:58.96	20.61	55.22	-40.7	-41.5	23.2	0.00e+00	0	35	0	1920991232	52	4088
2026-01-18 02:59:59.97	20.51	55.60	-40.6	-41.4	23.3	0.00e+00	0	35	0	1926234112	52	4035
2026-01-18 03:00:00.98	20.40	55.98	-40.4	-41.2	23.4	0.00e+00	0	35	0	1932525568	52	3943
2026-01-18 03:00:01.99	20.30	56.36	-40.1	-40.9	23.7	0.00e+00	0	35	0	1937768448	52	3791
2026-01-18 03:00:03.00	20.19	56.74	-40.0	-40.7	23.9	0.00e+00	0	35	0	1943011328	52	3732
2026-01-18 03:00:04.01	20.07	57.13	-40.3	-41.1	23.7	0.00e+00	0	35	0	1949302784	51	4110
2026-01-18 03:00:05.01	19.96	57.52	-40.5	-41.2	23.5	0.00e+00	0	35	0	1955594240	51	4187
2026-01-18 03:00:06.02	19.84	57.91	-40.5	-41.3	23.4	0.00e+00	0	35	0	1960837120	51	4216
2026-01-18 03:00:07.03	19.71	58.30	-39.9	-40.7	24.0	0.00e+00	0	35	0	1966080000	51	3922
2026-01-18 03:00:08.04	19.58	58.70	-39.7	-40.4	24.2	0.00e+00	0	35	0	1972371456	51	3819
2026-01-18 03:00:09.05	19.45	59.10	-39.7	-40.4	24.3	0.00e+00	0	35	0	1977614336	51	3794
2026-01-18 03:00:10.05	19.32	59.50	-39.5	-40.2	24.5	0.00e+00	0	35	0	1982857216	51	3716
2026-01-18 03:00:11.06	19.18	59.90	-39.1	-39.9	24.8	0.00e+00	0	35	0	1989148672	50	3781
2026-01-18 03:00:12.07	19.03	60.31	-39.1	-39.8	24.9	0.00e+00	0	35	0	1994391552	50	3746
2026-01-18 03:00:13.08	18.88	60.72	-39.3	-40.0	24.6	0.00e+00	0	35	0	1999634432	50	3861
2026-01-18 03:00:14.08	18.73	61.13	-39.6	-40.3	24.4	0.00e+00	0	35	0	2005925888	50	4000
2026-01-18 03:00:15.09	18.57	61.54	-39.5	-40.3	24.4	0.00e+00	0	35	0	2011168768	50	3964
2026-01-18 03:00:16.10	18.40	61.96	-39.5	-40.2	24.5	0.00e+00	0	35	0	2017460224	50	3923
2026-01-18 03:00:17.11	18.23	62.38	-39.3	-40.0	24.6	0.00e+00	0	35	0	2022703104	50	3854
2026-01-18 03:00:18.12	18.05	62.80	-39.3	-40.0	24.6	0.00e+00	0	35	0	2028994560	50	3855
2026-01-18 03:00:19.13	17.87	63.22	-39.2	-39.9	24.8	0.00e+00	0	35	0	2034237440	50	3788
2026-01-18 03:00:20.13	17.68	63.64	-39.1	-39.8	24.9	0.00e+00	0	35	0	2040528896	50	3743
2026-01-18 03:00:21.14	17.48	64.07	-38.6	-39.3	25.2	0.00e+00	0	35	0	2045771776	49	3761
2026-01-18 03:00:22.15	17.27	64.50	-38.7	-39.4	25.2	0.00e+00	0	35	0	2051014656	49	3802
2026-01-18 03:00:23.16	17.06	64.94	-38.8	-39.5	25.1	0.00e+00	0	35	0	2057306112	49	3853
2026-01-18 03:00:24.16	16.84	65.37	-38.8	-39.5	25.1	0.00e+00	0	35	0	2062548992	49	3849
2026-01-18 03:00:25.17	16.61	65.80	-38.9	-39.6	25.0	0.00e+00	0	35	0	2067791872	49	3891
2026-01-18 03:00:26.18	16.37	66.24	-38.9	-39.6	24.9	0.00e+00	0	35	0	2074083328	49	3904
2026-01-18 03:00:27.19	16.11	66.68	-38.8	-39.5	25.1	0.00e+00	0	35	0	2079326208	49	3846
2026-01-18 03:00:28.19	15.85	67.12	-39.0	-39.8	24.9	0.00e+00	0	35	0	2084569088	49	3959
2026-01-18 03:00:29.20	15.58	67.57	-39.1	-39.8	24.8	0.00e+00	0	35	0	2090860544	49	3991
2026-01-18 03:00:30.21	15.29	68.01	-39.1	-39.8	24.8	0.00e+00	0	35	0	2097152000	49	3999
2026-01-18 03:00:31.22	15.00	68.46	-38.7	-39.4	25.1	0.00e+00	0	35	0	2102394880	49	3806
2026-01-18 03:00:32.23	14.68	68.91	-38.7	-39.4	25.2	0.00e+00	0	35	0	2107637760	49	3799
2026-01-18 03:00:33.24	14.35	69.36	-38.5	-39.1	25.3	0.00e+00	0	35	0	2113929216	48	3908
2026-01-18 03:00:34.24	14.01	69.81	-38.0	-38.7	25.8	0.00e+00	0	35	0	2119172096	48	3702
2026-01-18 03:00:35.25	13.65	70.27	-37.6	-38.3	25.6	0.00e+00	0	35	0	2125463552	47	3756
2026-01-18 03:00:36.26	13.27	70.72	-37.9	-38.6	25.4	0.00e+00	0	35	0	2130706432	47	3880
2026-01-18 03:00:37.27	12.87	71.18	-37.8	-38.5	25.4	0.00e+00	0	35	0	2135949312	47	3864
2026-01-18 03:00:38.28	12.45	71.64	-37.8	-38.5	25.4	0.00e+00	0	35	0	2142240768	47	3863
2026-01-18 03:00:39.28	12.01	72.09	-37.7	-38.3	25.6	0.00e+00	0	35	0	2147483648	47	3779
2026-01-18 03:00:40.29	11.54	72.55	-37.5	-38.2	25.7	0.00e+00	0	35	0	2152726528	47	3731
2026-01-18 03:00:41.30	11.04	73.01	-37.5	-38.2	25.7	0.00e+00	0	35	0	2159017984	47	3737
2026-01-18 03:00:42.31	10.52	73.48	-37.3	-37.9	25.9	0.00e+00	0	35	0	2165309440	46	3809
2026-01-18 03:00:43.32	9.96	73.94	-37.1	-37.8	26.1	0.00e+00	0	35	0	2170552320	46	3745
2026-01-18 03:00:44.32	9.38	74.40	-36.8	-37.4	26.4	0.00e+00	0	35	0	2175795200	45	3803
2026-01-18 03:00:45.33	8.75	74.86	-36.9	-37.6	26.2	0.00e+00	0	35	0	2182086656	45	3890
2026-01-18 03:00:46.34	8.07	75.32	-37.2	-37.8	26.0	0.00e+00	0	35	0	2187329536	45	3996
2026-01-18 03:00:47.35	7.36	75.78	-37.2	-37.8	26.0	0.00e+00	0	35	0	2192572416	45	3999
2026-01-18 03:00:48.36	6.59	76.24	-37.2	-37.9	26.0	0.00e+00	0	35	0	2198863872	45	4025
2026-01-18 03:00:49.37	5.77	76.70	-37.3	-38.0	25.8	0.00e+00	0	35	0	2204106752	45	4098
2026-01-18 03:00:50.37	4.89	77.15	-37.1	-37.8	26.0	0.00e+00	0	35	0	2210398208	45	3996
2026-01-18 03:00:51.38	3.94	77.61	-37.0	-37.7	26.1	0.00e+00	0	35	0	2215641088	45	3933
2026-01-18 03:00:52.39	2.92	78.07	-36.9	-37.6	26.2	0.00e+00	0	35	0	2220883968	45	3888
2026-01-18 03:00:53.40	1.81	78.52	-37.3	-38.0	25.8	0.00e+00	0	35	0	2227175424	45	4078
2026-01-18 03:00:54.41	0.61	78.96	-36.6	-37.3	26.4	0.00e+00	0	35	0	2233466880	45	3768
2026-01-18 03:00:55.41	359.32	79.40	-36.5	-37.1	26.6	0.00e+00	0	35	0	2238709760	45	3694
2026-01-18 03:00:56.42	357.90	79.84	-36.8	-37.5	26.3	0.00e+00	0	35	0	2243952640	45	3834
2026-01-18 03:00:57.43	356.35	80.28	-36.7	-37.4	26.4	0.00e+00	0	35	0	2250244096	45	3805
2026-01-18 03:00:58.44	354.66	80.70	-36.6	-37.2	26.5	0.00e+00	0	35	0	2255486976	45	3733
2026-01-18 03:00:59.44	352.82	81.12	-36.3	-37.0	26.7	0.00e+00	0	35	0	2260729856	44	3851
2026-01-18 03:01:00.45	350.78	81.53	-36.2	-36.8	26.8	0.00e+00	0	35	0	2267021312	44	3761
2026-01-18 03:01:01.46	348.53	81.92	-36.4	-37.0	26.7	0.00e+00	0	35	0	2272264192	44	3861
2026-01-18 03:01:02.47	346.04	82.31	-36.4	-37.1	26.6	0.00e+00	0	35	0	2277507072	44	3898
2026-01-18 03:01:03.48	343.30	82.68	-36.4	-37.0	26.7	0.00e+00	0	35	0	2283798528	44	3860
2026-01-18 03:01:04.48	340.31	83.03	-36.4	-37.1	26.6	0.00e+00	0	35	0	2289041408	44	3898
2026-01-18 03:01:05.49	336.97	83.36	-36.2	-36.9	26.8	0.00e+00	0	35	0	2295332864	44	3783
2026-01-18 03:01:06.50	333.28	83.67	-36.2	-36.9	26.8	0.00e+00	0	35	0	2300575744	44	3793
2026-01-18 03:01:07.51	329.25	83.94	-36.3	-37.0	26.7	0.00e+00	0	35	0	2306867200	44	3850
2026-01-18 03:01:08.52	324.84	84.19	-36.2	-36.8	26.9	0.00e+00	0	35	0	2312110080	44	3776
2026-01-18 03:01:09.53	320.07	84.40	-36.4	-37.1	26.7	0.00e+00	0	35	0	2318401536	44	3874
2026-01-18 03:01:10.54	314.96	84.57	-36.5	-37.2	26.6	0.00e+00	0	35	0	2323644416	44	3920
2026-01-18 03:01:11.55	309.58	84.69	-36.5	-37.1	26.6	0.00e+00	0	35	0	2328887296	44	3910
2026-01-18 03:01:12.55	304.05	84.76	-36.5	-37.2	26.6	0.00e+00	0	35	0	2335178752	44	3937
2026-01-18 03:01:13.56	298.36	84.79	-36.4	-37.0	26.7	0.00e+00	0	35	0	2340421632	44	3861
2026-01-18 03:01:14.57	292.67	84.76	-36.6	-37.2	26.6	0.00e+00	0	35	0	2345664512	44	3948
2026-01-18 03:01:15.58	287.10	84.68	-36.8	-37.4	26.3	0.00e+00	0	35	0	2351955968	44	4043
2026-01-18 03:01:16.59	281.75	84.55	-36.9	-37.6	26.2	0.00e+00	0	35	0	2357198848	44	4132
2026-01-18 03:01:17.60	276.67	84.38	-37.0	-37.6	26.2	0.00e+00	0	35	0	2362441728	44	4142
2026-01-18 03:01:18.61	271.94	84.17	-36.7	-37.4	26.4	0.00e+00	0	35	0	2368733184	44	4031
2026-01-18 03:01:19.61	267.61	83.92	-36.7	-37.3	26.5	0.00e+00	0	35	0	2375024640	44	4002
2026-01-18 03:01:20.62	263.61	83.64	-36.7	-37.4	26.4	0.00e+00	0	35	0	2380267520	44	4029
2026-01-18 03:01:21.63	259.96	83.33	-36.7	-37.4	26.4	0.00e+00	0	35	0	2385510400	44	4039
2026-01-18 03:01:22.64	256.65	82.99	-36.6	-37.3	26.5	0.00e+00	0	35	0	2391801856	44	3986
2026-01-18 03:01:23.64	253.68	82.64	-36.7	-37.3	26.4	0.00e+00	0	35	0	2397044736	44	4004
2026-01-18 03:01:24.65	250.97	82.27	-36.5	-37.2	26.5	0.00e+00	0	35	0	2403336192	44	3942
2026-01-18 03:01:25.66	248.51	81.89	-36.5	-37.2	26.6	0.00e+00	0	35	0	2408579072	44	3927
2026-01-18 03:01:26.67	246.28	81.49	-36.7	-37.4	26.4	0.00e+00	0	35	0	2413821952	44	4011
2026-01-18 03:01:27.67	244.27	81.08	-36.9	-37.6	26.3	0.00e+00	0	35	0	2420113408	44	4107
2026-01-18 03:01:28.68	242.43	80.66	-36.7	-37.4	26.4	0.00e+00	0	35	0	2425356288	44	4020
2026-01-18 03:01:29.69	240.75	80.23	-36.7	-37.3	26.5	0.00e+00	0	35	0	2430599168	44	4002
2026-01-18 03:01:30.70	239.21	79.80	-36.7	-37.4	26.4	0.00e+00	0	35	0	2436890624	44	4032
2026-01-18 03:01:31.70	237.82	79.36	-36.6	-37.3	26.5	0.00e+00	0	35	0	2443182080	44	3959
2026-01-18 03:01:32.71	236.52	78.92	-36.4	-37.1	26.7	0.00e+00	0	35	0	2448424960	44	3882
2026-01-18 03:01:33.73	235.32	78.47	-36.4	-37.1	26.7	0.00e+00	0	35	0	2453667840	44	3878
2026-01-18 03:01:34.73	234.23	78.02	-36.5	-37.2	26.6	0.00e+00	0	35	0	2459959296	44	3929
2026-01-18 03:01:35.74	233.22	77.56	-36.6	-37.3	26.5	0.00e+00	0	35	0	2465202176	44	3962
2026-01-18 03:01:36.75	232.27	77.11	-36.5	-37.1	26.6	0.00e+00	0	35	0	2470445056	44	3899
2026-01-18 03:01:37.76	231.40	76.65	-36.7	-37.4	26.4	0.00e+00	0	35	0	2476736512	44	4022
2026-01-18 03:01:38.77	230.58	76.19	-36.8	-37.5	26.3	0.00e+00	0	35	0	2481979392	44	4057
2026-01-18 03:01:39.77	229.83	75.73	-36.7	-37.3	26.5	0.00e+00	0	35	0	2488270848	44	4003
2026-01-18 03:01:40.78	229.11	75.27	-36.9	-37.5	26.2	0.00e+00	0	35	0	2493513728	44	4092
2026-01-18 03:01:41.79	228.45	74.81	-37.2	-37.9	26.0	0.00e+00	0	35	0	2498756608	45	4017
2026-01-18 03:01:42.80	227.82	74.34	-37.2	-37.9	25.9	0.00e+00	0	35	0	2505048064	45	4033
2026-01-18 03:01:43.81	227.23	73.88	-37.2	-37.9	26.0	0.00e+00	0	35	0	2511339520	45	4042
2026-01-18 03:01:44.81	226.68	73.42	-37.4	-38.1	25.8	0.00e+00	0	35	0	2516582400	45	4112
2026-01-18 03:01:45.82	226.16	72.96	-37.8	-38.5	25.5	0.00e+00	0	35	0	2521825280	46	4058
2026-01-18 03:01:46.83	225.67	72.50	-38.1	-38.8	25.2	0.00e+00	0	35	0	2528116736	46	4236
2026-01-18 03:01:47.84	225.20	72.04	-38.1	-38.9	25.2	0.00e+00	0	35	0	2533359616	47	4011
2026-01-18 03:01:48.84	224.76	71.58	-38.1	-38.8	25.2	0.00e+00	0	35	0	2538602496	47	3978
2026-01-18 03:01:49.85	224.34	71.12	-38.2	-38.9	25.1	0.00e+00	0	35	0	2544893952	47	4035
2026-01-18 03:01:50.86	223.94	70.67	-38.6	-39.3	24.8	0.00e+00	0	35	0	2550136832	47	4221
2026-01-18 03:01:51.87	223.57	70.21	-38.2	-38.9	25.1	0.00e+00	0	35	0	2555379712	47	4012
2026-01-18 03:01:52.88	223.21	69.75	-38.0	-38.7	25.3	0.00e+00	0	35	0	2561671168	47	3948
2026-01-18 03:01:53.88	222.87	69.31	-38.3	-39.0	25.1	0.00e+00	0	35	0	2566914048	47	4083
2026-01-18 03:01:54.89	222.54	68.85	-38.5	-39.2	24.9	0.00e+00	0	35	0	2573205504	47	4185
2026-01-18 03:01:55.90	222.23	68.40	-38.5	-39.2	24.8	0.00e+00	0	35	0	2578448384	47	4175
2026-01-18 03:01:56.90	221.93	67.96	-38.3	-39.0	25.0	0.00e+00	0	35	0	2584739840	47	4059
2026-01-18 03:01:57.91	221.65	67.51	-38.1	-38.8	25.2	0.00e+00	0	35	0	2589982720	47	3992
2026-01-18 03:01:58.92	221.37	67.06	-38.3	-39.1	25.0	0.00e+00	0	35	0	2596274176	47	4100
2026-01-18 03:01:59.93	221.11	66.62	-38.3	-39.0	25.0	0.00e+00	0	35	0	2601517056	47	4074
2026-01-18 03:02:00.92	220.87	66.19	-38.2	-38.9	25.2	0.00e+00	0	35	0	2606759936	47	4011
2026-01-18 03:02:01.93	220.62	65.75	-38.1	-38.8	25.2	0.00e+00	0	35	0	2613051392	47	3981
2026-01-18 03:02:02.94	220.39	65.31	-38.0	-38.7	25.3	0.00e+00	0	35	0	2618294272	47	3943
2026-01-18 03:02:03.95	220.17	64.88	-38.1	-38.8	25.2	0.00e+00	0	35	0	2623537152	47	3962
2026-01-18 03:02:04.95	219.96	64.45	-37.7	-38.4	25.6	0.00e+00	0	35	0	2629828608	47	3783
2026-01-18 03:02:05.96	219.75	64.02	-37.8	-38.5	25.5	0.00e+00	0	35	0	2635071488	47	3846
2026-01-18 03:02:06.97	219.56	63.59	-37.9	-38.6	25.4	0.00e+00	0	35	0	2640314368	47	3906
2026-01-18 03:02:07.98	219.36	63.16	-37.9	-38.5	25.4	0.00e+00	0	35	0	2646605824	47	3867
2026-01-18 03:02:08.99	219.18	62.74	-37.9	-38.5	25.4	0.00e+00	0	35	0	2651848704	47	3864
2026-01-18 03:02:09.99	219.00	62.32	-38.0	-38.7	25.3	0.00e+00	0	35	0	2658140160	47	3950
2026-01-18 03:02:11.00	218.83	61.90	-38.3	-39.0	25.1	0.00e+00	0	35	0	2663383040	47	4059
2026-01-18 03:02:12.01	218.67	61.48	-38.6	-39.3	24.7	0.00e+00	0	35	0	2669674496	47	4242
2026-01-18 03:02:13.02	218.51	61.06	-39.2	-40.0	24.7	0.00e+00	0	35	0	2674917376	48	4301
2026-01-18 03:02:14.03	218.35	60.65	-39.2	-39.9	24.8	0.00e+00	0	35	0	2681208832	49	4009
2026-01-18 03:02:15.04	218.20	60.24	-39.2	-39.9	24.7	0.00e+00	0	35	0	2686451712	49	4016
2026-01-18 03:02:16.04	218.06	59.84	-39.2	-39.9	24.7	0.00e+00	0	35	0	2691694592	49	4012
2026-01-18 03:02:17.05	217.92	59.43	-39.5	-40.2	24.5	0.00e+00	0	35	0	2697986048	49	4172
2026-01-18 03:02:18.06	217.78	59.03	-39.7	-40.4	24.3	0.00e+00	0	35	0	2703228928	49	4265
2026-01-18 03:02:19.07	217.65	58.63	-39.8	-40.6	24.1	0.00e+00	0	35	0	2708471808	50	4111
2026-01-18 03:02:20.08	217.52	58.23	-40.0	-40.7	24.0	0.00e+00	0	35	0	2714763264	50	4188
2026-01-18 03:02:21.08	217.40	57.84	-40.1	-40.8	23.9	0.00e+00	0	35	0	2720006144	50	4224
2026-01-18 03:02:22.09	217.28	57.45	-40.1	-40.8	23.9	0.00e+00	0	35	0	2725249024	50	4238
2026-01-18 03:02:23.10	217.17	57.06	-40.3	-41.0	23.7	0.00e+00	0	35	0	2731540480	51	4097
2026-01-18 03:02:24.10	217.05	56.67	-40.6	-41.4	23.4	0.00e+00	0	35	0	2737831936	51	4244
2026-01-18 03:02:25.11	216.94	56.29	-40.7	-41.5	23.3	0.00e+00	0	35	0	2743074816	51	4295
2026-01-18 03:02:26.12	216.84	55.91	-40.6	-41.4	23.4	0.00e+00	0	35	0	2748317696	51	4248
2026-01-18 03:02:27.13	216.73	55.53	-40.3	-41.1	23.7	0.00e+00	0	35	0	2754609152	51	4100
2026-01-18 03:02:28.14	216.63	55.15	-40.3	-41.0	23.7	0.00e+00	0	35	0	2759852032	51	4093
2026-01-18 03:02:29.14	216.53	54.78	-40.2	-40.9	23.8	0.00e+00	0	35	0	2766143488	51	4034
2026-01-18 03:02:30.15	216.44	54.41	-40.0	-40.7	24.0	0.00e+00	0	35	0	2771386368	51	3940
2026-01-18 03:02:31.16	216.34	54.04	-39.9	-40.7	24.0	0.00e+00	0	35	0	2776629248	51	3935
2026-01-18 03:02:32.17	216.25	53.67	-40.0	-40.7	24.0	0.00e+00	0	35	0	2782920704	51	3943
2026-01-18 03:02:33.18	216.17	53.30	-39.7	-40.4	24.2	0.00e+00	0	35	0	2788163584	51	3820
2026-01-18 03:02:34.18	216.08	52.95	-39.7	-40.4	24.2	0.00e+00	0	35	0	2793406464	51	3812
2026-01-18 03:02:35.19	216.00	52.59	-39.7	-40.4	24.3	0.00e+00	0	35	0	2799697920	51	3808
2026-01-18 03:02:36.20	215.91	52.23	-39.8	-40.6	24.1	0.00e+00	0	35	0	2805989376	51	3898
2026-01-18 03:02:37.21	215.83	51.87	-40.0	-40.8	23.9	0.00e+00	0	35	0	2811232256	51	3979
2026-01-18 03:02:38.22	215.76	51.52	-39.9	-40.7	24.0	0.00e+00	0	35	0	2816475136	51	3915
2026-01-18 03:02:39.23	215.68	51.17	-39.7	-40.4	24.3	0.00e+00	0	35	0	2822766592	51	3798
2026-01-18 03:02:40.23	215.61	50.83	-39.4	-40.1	24.5	0.00e+00	0	35	0	2828009472	50	3900
2026-01-18 03:02:41.25	215.53	50.48	-39.4	-40.1	24.5	0.00e+00	0	35	0	2833252352	50	3898
2026-01-18 03:02:42.25	215.46	50.14	-39.5	-40.3	24.4	0.00e+00	0	35	0	2839543808	50	3965
2026-01-18 03:02:43.26	215.40	49.80	-39.7	-40.4	24.2	0.00e+00	0	35	0	2844786688	50	4048
2026-01-18 03:02:44.27	215.33	49.47	-39.6	-40.4	24.3	0.00e+00	0	35	0	2851078144	50	4009
2026-01-18 03:02:45.28	215.26	49.13	-39.4	-40.2	24.4	0.00e+00	0	35	0	2856321024	50	3914
2026-01-18 03:02:46.28	215.20	48.80	-39.4	-40.2	24.5	0.00e+00	0	35	0	2861563904	50	3915
2026-01-18 03:02:47.29	215.13	48.47	-39.3	-40.0	24.5	0.00e+00	0	35	0	2867855360	50	3859
2026-01-18 03:02:48.30	215.07	48.15	-39.4	-40.1	24.5	0.00e+00	0	35	0	2874146816	50	3877
2026-01-18 03:02:49.31	215.01	47.82	-39.4	-40.1	24.5	0.00e+00	0	35	0	2879389696	50	3875
2026-01-18 03:02:50.32	214.95	47.50	-39.3	-40.0	24.6	0.00e+00	0	35	0	2884632576	50	3843
2026-01-18 03:02:51.32	214.90	47.18	-39.4	-40.1	24.5	0.00e+00	0	35	0	2890924032	50	3887
2026-01-18 03:02:52.33	214.84	46.86	-39.4	-40.2	24.4	0.00e+00	0	35	0	2896166912	50	3918
2026-01-18 03:02:53.34	214.79	46.55	-39.5	-40.2	24.3	0.00e+00	0	35	0	2901409792	50	3957
2026-01-18 03:02:54.35	214.73	46.24	-39.4	-40.1	24.5	0.00e+00	0	35	0	2907701248	50	3898
2026-01-18 03:02:55.36	214.68	45.92	-39.3	-40.0	24.5	0.00e+00	0	35	0	2912944128	50	3865
2026-01-18 03:02:56.36	214.63	45.62	-39.2	-39.9	24.7	0.00e+00	0	35	0	2918187008	50	3790
2026-01-18 03:02:57.37	214.58	45.31	-39.0	-39.7	24.8	0.00e+00	0	35	0	2924478464	50	3695
2026-01-18 03:02:58.38	214.53	45.01	-38.9	-39.6	24.9	0.00e+00	0	35	0	2929721344	49	3894
2026-01-18 03:02:59.39	214.48	44.71	-39.1	-39.7	24.8	0.00e+00	0	35	0	2936012800	49	3958
2026-01-18 03:03:00.40	214.43	44.41	-39.1	-39.8	24.7	0.00e+00	0	35	0	2941255680	49	4000
2026-01-18 03:03:01.40	214.38	44.11	-39.2	-40.0	24.6	0.00e+00	0	35	0	2947547136	49	4066
2026-01-18 03:03:02.41	214.34	43.82	-39.2	-40.0	24.6	0.00e+00	0	35	0	2952790016	49	4066
2026-01-18 03:03:03.42	214.29	43.53	-39.1	-39.9	24.7	0.00e+00	0	35	0	2959081472	49	4008
2026-01-18 03:03:04.43	214.25	43.24	-39.1	-39.8	24.8	0.00e+00	0	35	0	2964324352	49	3963
2026-01-18 03:03:05.43	214.21	42.95	-39.1	-39.8	24.7	0.00e+00	0	35	0	2969567232	49	3997
2026-01-18 03:03:06.44	214.16	42.66	-39.1	-39.8	24.7	0.00e+00	0	35	0	2975858688	49	3964
2026-01-18 03:03:07.44	214.12	42.38	-38.9	-39.6	24.9	0.00e+00	0	35	0	2981101568	49	3873
2026-01-18 03:03:08.45	214.08	42.10	-38.9	-39.6	24.9	0.00e+00	0	35	0	2986344448	49	3883
2026-01-18 03:03:09.46	214.04	41.82	-38.8	-39.5	24.9	0.00e+00	0	35	0	2992635904	49	3848
2026-01-18 03:03:10.47	214.00	41.54	-38.9	-39.6	24.9	0.00e+00	0	35	0	2997878784	49	3892
2026-01-18 03:03:11.48	213.96	41.27	-38.9	-39.6	24.9	0.00e+00	0	35	0	3003121664	49	3905
2026-01-18 03:03:12.49	213.93	41.00	-38.8	-39.5	25.0	0.00e+00	0	35	0	3009413120	49	3836
2026-01-18 03:03:13.49	213.89	40.73	-38.7	-39.4	25.0	0.00e+00	0	35	0	3014656000	49	3808
2026-01-18 03:03:14.50	213.85	40.46	-38.8	-39.5	25.0	0.00e+00	0	35	0	3020947456	49	3833
2026-01-18 03:03:15.50	213.82	40.19	-38.4	-39.1	25.3	0.00e+00	0	35	0	3026190336	48	3899
2026-01-18 03:03:16.51	213.78	39.93	-38.4	-39.0	25.4	0.00e+00	0	35	0	3032481792	48	3856
2026-01-18 03:03:17.52	213.75	39.66	-38.4	-39.0	25.3	0.00e+00	0	35	0	3037724672	48	3867
2026-01-18 03:03:18.53	213.71	39.40	-38.3	-39.0	25.4	0.00e+00	0	35	0	3044016128	48	3854
2026-01-18 03:03:19.54	213.68	39.14	-38.3	-39.0	25.4	0.00e+00	0	35	0	3049259008	48	3842
2026-01-18 03:03:20.55	213.65	38.88	-38.4	-39.0	25.3	0.00e+00	0	35	0	3054501888	48	3868
2026-01-18 03:03:21.55	213.62	38.63	-38.3	-39.0	25.3	0.00e+00	0	35	0	3060793344	48	3867
2026-01-18 03:03:22.56	213.58	38.38	-38.5	-39.2	25.2	0.00e+00	0	35	0	3066036224	48	3933
2026-01-18 03:03:23.57	213.55	38.13	-38.3	-39.0	25.3	0.00e+00	0	35	0	3071279104	48	3860
2026-01-18 03:03:24.58	213.52	37.88	-38.3	-39.0	25.3	0.00e+00	0	35	0	3077570560	48	3864
2026-01-18 03:03:25.58	213.49	37.63	-38.3	-39.0	25.3	0.00e+00	0	35	0	3082813440	48	3863
2026-01-18 03:03:26.59	213.46	37.38	-38.3	-38.9	25.4	0.00e+00	0	35	0	3088056320	48	3823
2026-01-18 03:03:27.60	213.43	37.14	-38.3	-39.0	25.4	0.00e+00	0	35	0	3094347776	48	3834
2026-01-18 03:03:28.61	213.41	36.90	-38.2	-38.9	25.4	0.00e+00	0	35	0	3100639232	48	3796
2026-01-18 03:03:29.62	213.38	36.65	-38.3	-39.0	25.3	0.00e+00	0	35	0	3105882112	48	3852
2026-01-18 03:03:30.63	213.35	36.41	-38.4	-39.1	25.2	0.00e+00	0	35	0	3111124992	48	3899
2026-01-18 03:03:31.63	213.32	36.18	-38.6	-39.3	25.1	0.00e+00	0	35	0	3117416448	48	3973
2026-01-18 03:03:32.64	213.30	35.94	-38.8	-39.5	24.9	0.00e+00	0	35	0	3122659328	48	4053
2026-01-18 03:03:33.65	213.27	35.71	-38.9	-39.6	24.8	0.00e+00	0	35	0	3128950784	48	4124
2026-01-18 03:03:34.66	213.24	35.48	-39.0	-39.7	24.7	0.00e+00	0	35	0	3134193664	48	4190
2026-01-18 03:03:35.67	213.22	35.25	-39.0	-39.7	24.7	0.00e+00	0	35	0	3139436544	48	4191
2026-01-18 03:03:36.67	213.19	35.02	-39.1	-39.8	24.6	0.00e+00	0	35	0	3145728000	48	4233
2026-01-18 03:03:37.68	213.17	34.79	-39.0	-39.7	24.7	0.00e+00	0	36	0	3150970880	48	4174
2026-01-18 03:03:38.69	213.14	34.57	-39.0	-39.7	24.7	0.00e+00	0	35	0	3156213760	48	4169
2026-01-18 03:03:39.70	213.12	34.34	-38.9	-39.7	24.7	0.00e+00	0	35	0	3162505216	48	4154
2026-01-18 03:03:40.71	213.10	34.12	-38.8	-39.5	24.9	0.00e+00	0	35	0	3168796672	48	4067
2026-01-18 03:03:41.72	213.07	33.90	-38.9	-39.6	24.8	0.00e+00	0	35	0	3174039552	48	4107
2026-01-18 03:03:42.72	213.05	33.68	-38.9	-39.6	24.8	0.00e+00	0	35	0	3179282432	48	4124
2026-01-18 03:03:43.74	213.03	33.46	-38.8	-39.5	24.8	0.00e+00	0	35	0	3185573888	48	4077
2026-01-18 03:03:44.74	213.01	33.25	-38.9	-39.6	24.8	0.00e+00	0	35	0	3190816768	48	4106
2026-01-18 03:03:45.75	212.98	33.03	-38.9	-39.6	24.7	0.00e+00	0	35	0	3196059648	48	4133
2026-01-18 03:03:46.76	212.96	32.82	-38.9	-39.6	24.7	0.00e+00	0	35	0	3202351104	48	4134
2026-01-18 03:03:47.76	212.94	32.61	-39.0	-39.7	24.7	0.00e+00	0	36	0	3207593984	48	4156
2026-01-18 03:03:48.77	212.92	32.40	-39.0	-39.7	24.6	0.00e+00	0	35	0	3213885440	48	4187
2026-01-18 03:03:49.78	212.90	32.19	-39.1	-39.8	24.6	0.00e+00	0	35	0	3219128320	48	4201
2026-01-18 03:03:50.79	212.88	31.98	-39.1	-39.9	24.5	0.00e+00	0	35	0	3224371200	48	4251
2026-01-18 03:03:51.80	212.86	31.77	-39.1	-39.8	24.5	0.00e+00	0	35	0	3230662656	48	4225
2026-01-18 03:03:52.80	212.84	31.57	-39.1	-39.8	24.6	0.00e+00	0	35	0	3236954112	48	4229
2026-01-18 03:03:53.81	212.82	31.37	-39.1	-39.8	24.5	0.00e+00	0	35	0	3242196992	48	4221
2026-01-18 03:03:54.82	212.80	31.17	-39.0	-39.7	24.7	0.00e+00	0	35	0	3247439872	48	4166
2026-01-18 03:03:55.83	212.78	30.97	-39.0	-39.7	24.6	0.00e+00	0	35	0	3253731328	48	4191
2026-01-18 03:03:56.83	212.77	30.77	-39.1	-39.8	24.6	0.00e+00	0	35	0	3258974208	48	4208
2026-01-18 03:03:57.84	212.75	30.57	-38.8	-39.5	24.8	0.00e+00	0	35	0	3264217088	48	4087
2026-01-18 03:03:58.85	212.73	30.37	-38.9	-39.6	24.8	0.00e+00	0	35	0	3270508544	48	4100
2026-01-18 03:03:59.86	212.71	30.18	-38.9	-39.6	24.7	0.00e+00	0	35	0	3275751424	48	4099
2026-01-18 03:04:00.85	212.70	29.99	-38.7	-39.4	24.9	0.00e+00	0	35	0	3280994304	48	4023
2026-01-18 03:04:01.86	212.68	29.80	-38.8	-39.5	24.8	0.00e+00	0	35	0	3287285760	48	4078
2026-01-18 03:04:02.87	212.66	29.61	-38.9	-39.6	24.7	0.00e+00	0	35	0	3292528640	48	4100
2026-01-18 03:04:03.88	212.64	29.42	-38.8	-39.5	24.8	0.00e+00	0	35	0	3298820096	48	4074
2026-01-18 03:04:04.88	212.63	29.23	-38.9	-39.6	24.7	0.00e+00	0	35	0	3304062976	48	4115
2026-01-18 03:04:05.89	212.61	29.04	-38.9	-39.6	24.6	0.00e+00	0	35	0	3309305856	48	4142
2026-01-18 03:04:06.90	212.60	28.85	-39.0	-39.7	24.6	0.00e+00	0	35	0	3315597312	48	4168
2026-01-18 03:04:07.91	212.58	28.67	-39.1	-39.8	24.5	0.00e+00	0	35	0	3321888768	48	4216
2026-01-18 03:04:08.92	212.56	28.49	-39.1	-39.8	24.5	0.00e+00	0	36	0	3327131648	48	4231
2026-01-18 03:04:09.93	212.55	28.30	-39.1	-39.8	24.5	0.00e+00	0	35	0	3332374528	48	4233
2026-01-18 03:04:10.94	212.53	28.12	-39.1	-39.9	24.4	0.00e+00	0	35	0	3338665984	48	4254
2026-01-18 03:04:11.95	212.52	27.94	-39.2	-39.9	24.4	0.00e+00	0	35	0	3343908864	48	4289
2026-01-18 03:04:12.95	212.50	27.76	-39.1	-39.9	24.4	0.00e+00	0	35	0	3349151744	49	4011
2026-01-18 03:04:13.96	212.49	27.59	-39.1	-39.8	24.5	0.00e+00	0	35	0	3355443200	49	3980
2026-01-18 03:04:14.97	212.48	27.41	-39.1	-39.9	24.4	0.00e+00	0	35	0	3360686080	49	4006
2026-01-18 03:04:15.98	212.46	27.23	-39.0	-39.8	24.5	0.00e+00	0	35	0	3365928960	49	3963
2026-01-18 03:04:16.98	212.45	27.06	-38.9	-39.6	24.6	0.00e+00	0	35	0	3372220416	49	3911
2026-01-18 03:04:17.99	212.43	26.89	-38.9	-39.6	24.6	0.00e+00	0	35	0	3377463296	49	3895
2026-01-18 03:04:19.00	212.42	26.72	-38.9	-39.6	24.6	0.00e+00	0	35	0	3383754752	49	3912
2026-01-18 03:04:20.01	212.41	26.54	-38.9	-39.6	24.6	0.00e+00	0	35	0	3388997632	49	3881
2026-01-18 03:04:21.02	212.39	26.37	-39.0	-39.7	24.6	0.00e+00	0	35	0	3395289088	49	3931
2026-01-18 03:04:22.02	212.38	26.21	-39.0	-39.7	24.5	0.00e+00	0	35	0	3400531968	49	3957
2026-01-18 03:04:23.03	212.37	26.04	-39.1	-39.8	24.5	0.00e+00	0	35	0	3406823424	49	3961
2026-01-18 03:04:24.04	212.36	25.87	-39.0	-39.7	24.5	0.00e+00	0	35	0	3412066304	49	3955
2026-01-18 03:04:25.05	212.34	25.71	-39.1	-39.9	24.4	0.00e+00	0	35	0	3417309184	49	4015
2026-01-18 03:04:26.05	212.33	25.54	-39.2	-40.0	24.3	0.00e+00	0	35	0	3423600640	49	4055
2026-01-18 03:04:27.06	212.32	25.38	-39.3	-40.1	24.2	0.00e+00	0	35	0	3428843520	49	4102
2026-01-18 03:04:28.07	212.31	25.22	-39.4	-40.1	24.2	0.00e+00	0	35	0	3434086400	49	4121
2026-01-18 03:04:29.08	212.30	25.05	-39.5	-40.2	24.1	0.00e+00	0	35	0	3440377856	49	4173
2026-01-18 03:04:30.09	212.28	24.89	-39.5	-40.2	24.1	0.00e+00	0	35	0	3445620736	49	4183
2026-01-18 03:04:31.09	212.27	24.73	-39.5	-40.2	24.1	0.00e+00	0	35	0	3450863616	49	4182
2026-01-18 03:04:32.10	212.26	24.57	-39.5	-40.3	24.0	0.00e+00	0	35	0	3457155072	49	4206
2026-01-18 03:04:33.11	212.25	24.42	-39.5	-40.3	24.0	0.00e+00	0	35	0	3463446528	49	4218
2026-01-18 03:04:34.11	212.24	24.26	-39.7	-40.4	23.9	0.00e+00	0	35	0	3468689408	49	4282
2026-01-18 03:04:35.12	212.23	24.10	-39.6	-40.3	23.9	0.00e+00	0	35	0	3473932288	49	4241
2026-01-18 03:04:36.13	212.22	23.95	-39.7	-40.5	23.8	0.00e+00	0	35	0	3480223744	49	4298
2026-01-18 03:04:37.14	212.21	23.80	-39.6	-40.4	23.9	0.00e+00	0	35	0	3485466624	49	4257
2026-01-18 03:04:38.15	212.20	23.64	-39.7	-40.5	23.8	0.00e+00	0	35	0	3491758080	50	4063
2026-01-18 03:04:39.15	212.19	23.49	-39.7	-40.5	23.8	0.00e+00	0	35	0	3497000960	50	4077
2026-01-18 03:04:40.16	212.18	23.34	-39.7	-40.5	23.8	0.00e+00	0	35	0	3502243840	50	4064
2026-01-18 03:04:41.17	212.17	23.19	-39.6	-40.4	23.9	0.00e+00	0	35	0	3508535296	50	4006
2026-01-18 03:04:42.18	212.16	23.04	-39.5	-40.3	24.0	0.00e+00	0	35	0	3513778176	50	3969
2026-01-18 03:04:43.18	212.15	22.89	-39.6	-40.4	23.9	0.00e+00	0	35	0	3519021056	50	4011
2026-01-18 03:04:44.19	212.14	22.74	-39.5	-40.3	24.0	0.00e+00	0	35	0	3525312512	50	3968
2026-01-18 03:04:45.20	212.13	22.60	-39.6	-40.3	23.9	0.00e+00	0	35	0	3530555392	50	3998
2026-01-18 03:04:46.20	212.12	22.45	-39.7	-40.5	23.8	0.00e+00	0	35	0	3536846848	50	4054
2026-01-18 03:04:47.21	212.11	22.30	-39.6	-40.3	23.9	0.00e+00	0	35	0	3542089728	50	3999
2026-01-18 03:04:48.22	212.10	22.16	-39.6	-40.4	23.9	0.00e+00	0	35	0	3548381184	50	4012
2026-01-18 03:04:49.23	212.09	22.02	-39.7	-40.4	23.8	0.00e+00	0	35	0	3553624064	50	4047
2026-01-18 03:04:50.24	212.08	21.87	-39.7	-40.4	23.8	0.00e+00	0	35	0	3558866944	50	4035
2026-01-18 03:04:51.24	212.07	21.73	-39.8	-40.5	23.7	0.00e+00	0	35	0	3565158400	50	4082
2026-01-18 03:04:52.25	212.06	21.59	-39.8	-40.6	23.7	0.00e+00	0	35	0	3570401280	50	4109
2026-01-18 03:04:53.26	212.05	21.45	-39.8	-40.5	23.7	0.00e+00	0	35	0	3576692736	50	4074
2026-01-18 03:04:54.27	212.05	21.31	-39.9	-40.6	23.6	0.00e+00	0	35	0	3581935616	50	4133
2026-01-18 03:04:55.27	212.04	21.17	-39.9	-40.7	23.6	0.00e+00	0	35	0	3587178496	50	4152
2026-01-18 03:04:56.28	212.03	21.03	-39.9	-40.7	23.6	0.00e+00	0	36	0	3593469952	50	4162
2026-01-18 03:04:57.29	212.02	20.89	-40.0	-40.8	23.5	0.00e+00	0	35	0	3598712832	50	4213
2026-01-18 03:04:58.30	212.01	20.76	-40.1	-40.8	23.4	0.00e+00	0	35	0	3603955712	50	4222
2026-01-18 03:04:59.31	212.00	20.62	-40.1	-40.8	23.5	0.00e+00	0	35	0	3610247168	50	4228
2026-01-18 03:05:00.32	212.00	20.49	-40.2	-40.9	23.3	0.00e+00	0	35	0	3616538624	50	4280
2026-01-18 03:05:01.32	211.99	20.35	-40.2	-41.0	23.3	0.00e+00	0	35	0	3621781504	50	4317
2026-01-18 03:05:02.33	211.98	20.22	-40.4	-41.2	23.1	0.00e+00	0	35	0	3627024384	51	4169
2026-01-18 03:05:03.34	211.97	20.08	-40.3	-41.0	23.2	0.00e+00	0	35	0	3633315840	51	4091
2026-01-18 03:05:04.35	211.97	19.95	-40.2	-41.0	23.3	0.00e+00	0	35	0	3638558720	51	4082
2026-01-18 03:05:05.35	211.96	19.82	-40.3	-41.1	23.2	0.00e+00	0	35	0	3643801600	51	4108
2026-01-18 03:05:06.36	211.95	19.69	-40.4	-41.1	23.1	0.00e+00	0	35	0	3650093056	51	4144
2026-01-18 03:05:07.37	211.94	19.56	-40.4	-41.2	23.0	0.00e+00	0	35	0	3655335936	51	4179
2026-01-18 03:05:08.38	211.94	19.43	-40.4	-41.2	23.0	0.00e+00	0	35	0	3661627392	51	4192
2026-01-18 03:05:09.39	211.93	19.30	-40.4	-41.2	23.1	0.00e+00	0	35	0	3666870272	51	4169
2026-01-18 03:05:10.39	211.92	19.17	-40.6	-41.4	22.9	0.00e+00	0	35	0	3672113152	51	4248
2026-01-18 03:05:11.40	211.92	19.05	-40.5	-41.3	22.9	0.00e+00	0	35	0	3678404608	51	4226
2026-01-18 03:05:12.41	211.91	18.92	-40.5	-41.3	22.9	0.00e+00	0	35	0	3684696064	51	4226
2026-01-18 03:05:13.42	211.90	18.79	-40.6	-41.4	22.9	0.00e+00	0	35	0	3689938944	51	4271
2026-01-18 03:05:14.43	211.90	18.67	-40.6	-41.4	22.9	0.00e+00	0	36	0	3695181824	51	4244
2026-01-18 03:05:15.43	211.89	18.54	-40.6	-41.4	22.9	0.00e+00	0	35	0	3701473280	51	4251
2026-01-18 03:05:16.44	211.88	18.42	-40.7	-41.5	22.7	0.00e+00	0	35	0	3706716160	51	4325
2026-01-18 03:05:17.45	211.88	18.29	-40.8	-41.6	22.6	0.00e+00	0	35	0	3711959040	52	4117
2026-01-18 03:05:18.46	211.87	18.17	-40.9	-41.7	22.5	0.00e+00	0	35	0	3718250496	52	4154
2026-01-18 03:05:19.46	211.86	18.05	-40.7	-41.5	22.7	0.00e+00	0	35	0	3723493376	52	4070
2026-01-18 03:05:20.47	211.86	17.93	-40.6	-41.5	22.7	0.00e+00	0	35	0	3728736256	52	4057
2026-01-18 03:05:21.48	211.85	17.80	-40.8	-41.6	22.6	0.00e+00	0	35	0	3735027712	52	4121
2026-01-18 03:05:22.49	211.85	17.68	-40.8	-41.6	22.5	0.00e+00	0	35	0	3740270592	52	4136
2026-01-18 03:05:23.49	211.84	17.56	-40.8	-41.6	22.6	0.00e+00	0	35	0	3746562048	52	4108
2026-01-18 03:05:24.50	211.83	17.44	-40.9	-41.7	22.4	0.00e+00	0	35	0	3751804928	52	4178
2026-01-18 03:05:25.50	211.83	17.33	-40.7	-41.5	22.6	0.00e+00	0	35	0	3758096384	52	4093
2026-01-18 03:05:26.51	211.82	17.21	-40.8	-41.6	22.5	0.00e+00	0	35	0	3763339264	52	4110
2026-01-18 03:05:27.52	211.82	17.09	-40.9	-41.7	22.5	0.00e+00	0	35	0	3769630720	52	4160
2026-01-18 03:05:28.53	211.81	16.97	-41.0	-41.8	22.4	0.00e+00	0	35	0	3774873600	52	4204
2026-01-18 03:05:29.54	211.81	16.85	-41.0	-41.8	22.3	0.00e+00	0	35	0	3780116480	52	4213
2026-01-18 03:05:30.54	211.80	16.74	-41.0	-41.9	22.3	0.00e+00	0	35	0	3786407936	52	4247
