passes_logs/2026/01/18/R3.2S_Murmansk/R3.2S_Murmansk__20260118_115427_SUOMI_NPP_rec.log

#Pass ID: 20260118_115427_SUOMI NPP
#Satellite: SUOMI NPP
#Configuration: NPP
#almurnet v.1.7.20251203
#Start time: 2026-01-18 11:54:27

#Version: 2.2.20231116
#Station: R3.2S_Murmansk
#Location: 33.079688 lon 68.888172 lat
#TLE: 1 37849U 11061A   26017.57099531  .00000072  00000+0  54974-4 0  9996
#TLE: 2 37849  98.7814 319.5974 0002398  59.1749 300.9663 14.19525865737072

#Time	Az	El	Level	Level2	SNR	BER	BlckErr	Temp	State	Recorded	gain1	gain2
2026-01-18 11:54:27.63	210.00	2.03	-52.3	-67.3	3.8	1.49e+00	0	34	0	0	76	19967
2026-01-18 11:54:28.64	210.07	2.09	-52.3	-67.3	3.8	1.49e+00	0	34	104	0	75	21143
2026-01-18 11:54:29.65	210.14	2.15	-52.3	-67.3	3.8	1.49e+00	0	34	104	0	75	21102
2026-01-18 11:54:30.66	210.21	2.20	-52.3	-67.3	3.8	1.49e+00	0	34	104	0	75	21145
2026-01-18 11:54:31.67	210.28	2.26	-52.3	-67.3	3.8	1.49e+00	0	34	104	0	75	21085
2026-01-18 11:54:32.67	210.35	2.32	-52.3	-67.3	3.8	1.49e+00	0	34	104	0	75	21048
2026-01-18 11:54:33.69	210.42	2.37	-52.3	-67.2	3.8	1.49e+00	0	34	104	0	75	20924
2026-01-18 11:54:34.69	210.49	2.43	-52.3	-67.2	3.8	1.49e+00	0	34	104	0	75	20827
2026-01-18 11:54:35.70	210.56	2.49	-52.3	-67.1	3.8	1.49e+00	0	34	104	0	75	20747
2026-01-18 11:54:36.71	210.63	2.54	-52.3	-67.1	3.8	1.49e+00	0	34	104	0	75	20709
2026-01-18 11:54:37.72	210.71	2.60	-52.3	-67.2	3.8	1.49e+00	0	34	104	0	75	20808
2026-01-18 11:54:38.73	210.78	2.66	-52.3	-67.1	3.8	1.49e+00	0	34	104	0	75	20761
2026-01-18 11:54:39.73	210.85	2.72	-52.3	-67.2	3.8	1.49e+00	0	34	104	0	75	20845
2026-01-18 11:54:40.74	210.92	2.77	-52.3	-67.2	3.8	1.49e+00	0	34	104	0	75	20935
2026-01-18 11:54:41.75	210.99	2.83	-52.3	-67.2	3.8	1.49e+00	0	34	104	0	75	20857
2026-01-18 11:54:42.76	211.07	2.89	-52.3	-67.2	3.8	1.49e+00	0	34	104	0	75	20884
2026-01-18 11:54:43.77	211.14	2.95	-52.3	-67.2	3.8	1.49e+00	0	34	104	0	75	20942
2026-01-18 11:54:44.77	211.21	3.00	-52.3	-67.2	3.8	1.49e+00	0	34	104	0	75	20840
2026-01-18 11:54:45.78	211.29	3.06	-52.3	-67.2	3.8	1.49e+00	0	34	104	0	75	20868
2026-01-18 11:54:46.79	211.36	3.12	-52.3	-67.2	3.8	1.49e+00	0	34	104	0	75	20862
2026-01-18 11:54:47.80	211.43	3.18	-52.3	-67.1	3.8	1.49e+00	0	34	104	0	75	20773
2026-01-18 11:54:48.80	211.51	3.23	-52.3	-67.1	3.8	1.49e+00	0	34	104	0	75	20656
2026-01-18 11:54:49.81	211.58	3.29	-52.3	-67.1	3.8	1.49e+00	0	35	104	0	75	20563
2026-01-18 11:54:50.82	211.66	3.35	-52.3	-67.0	3.8	1.49e+00	0	34	104	0	75	20501
2026-01-18 11:54:51.83	211.73	3.41	-52.3	-67.0	3.8	1.49e+00	0	34	104	0	75	20525
2026-01-18 11:54:52.83	211.81	3.47	-52.3	-67.1	3.8	1.49e+00	0	34	104	0	75	20715
2026-01-18 11:54:53.84	211.88	3.53	-52.3	-67.2	3.8	1.49e+00	0	34	104	0	75	20815
2026-01-18 11:54:54.85	211.96	3.58	-52.3	-67.2	3.8	1.49e+00	0	35	104	0	75	20885
2026-01-18 11:54:55.86	212.03	3.64	-52.3	-67.2	3.8	1.49e+00	0	34	104	0	75	20921
2026-01-18 11:54:56.87	212.11	3.70	-52.3	-67.2	3.8	1.49e+00	0	35	104	0	75	20777
2026-01-18 11:54:57.87	212.19	3.76	-52.3	-67.0	3.8	1.49e+00	0	34	104	0	75	20450
2026-01-18 11:54:58.88	212.26	3.82	-52.3	-66.9	3.8	1.49e+00	0	35	104	0	75	20284
2026-01-18 11:54:59.89	212.34	3.88	-52.3	-67.0	3.8	1.49e+00	0	35	104	0	75	20440
2026-01-18 11:55:00.90	212.42	3.94	-52.3	-67.1	3.8	1.49e+00	0	35	104	0	75	20763
2026-01-18 11:55:01.91	212.50	4.00	-52.3	-67.2	3.8	1.49e+00	0	35	104	0	75	21009
2026-01-18 11:55:02.91	212.58	4.05	-52.3	-67.1	3.8	1.49e+00	0	35	104	0	75	20649
2026-01-18 11:55:03.92	212.65	4.11	-52.3	-66.5	3.8	1.49e+00	0	35	104	0	75	19176
2026-01-18 11:55:04.93	212.73	4.17	-52.2	-65.1	3.8	1.49e+00	0	35	104	0	75	16371
2026-01-18 11:55:05.94	212.81	4.23	-52.1	-63.4	4.3	1.41e+00	0	35	0	0	75	13542
2026-01-18 11:55:06.95	212.89	4.29	-51.9	-61.7	5.0	1.12e+00	0	35	0	1048576	75	11120
2026-01-18 11:55:07.95	212.97	4.35	-51.8	-60.6	5.7	5.24e-01	0	35	0	3145728	75	9771
2026-01-18 11:55:08.96	213.05	4.41	-51.6	-59.6	6.4	2.70e-01	0	35	0	4194304	75	8723
2026-01-18 11:55:09.97	213.13	4.47	-51.4	-58.3	7.6	1.56e-01	0	35	0	6291456	74	7964
2026-01-18 11:55:10.98	213.21	4.53	-51.1	-57.2	8.7	6.35e-02	0	35	0	8388608	74	6993
2026-01-18 11:55:11.98	213.29	4.59	-50.8	-56.4	9.6	1.61e-02	0	35	0	10485760	73	6724
2026-01-18 11:55:12.99	213.38	4.65	-50.4	-55.2	10.8	4.48e-03	0	35	0	12582912	72	6218
2026-01-18 11:55:14.00	213.46	4.71	-49.8	-53.6	12.6	2.88e-04	0	35	0	13631488	71	5477
2026-01-18 11:55:15.01	213.54	4.77	-49.5	-52.9	13.3	5.87e-05	0	35	0	15728640	70	5386
2026-01-18 11:55:16.02	213.62	4.83	-48.9	-51.8	14.4	3.80e-06	0	35	0	17825792	69	5023
2026-01-18 11:55:17.02	213.70	4.89	-48.4	-51.1	15.1	0.00e+00	0	35	0	19922944	68	4913
2026-01-18 11:55:18.03	213.79	4.95	-48.0	-50.5	15.7	0.00e+00	0	35	0	22020096	68	4561
2026-01-18 11:55:19.04	213.87	5.01	-48.1	-50.6	15.6	0.00e+00	0	35	0	23068672	68	4624
2026-01-18 11:55:20.05	213.95	5.07	-48.9	-51.9	14.4	7.00e-07	0	35	0	25165824	68	5343
2026-01-18 11:55:21.06	214.04	5.14	-49.7	-53.3	13.0	7.60e-06	0	35	0	27262976	70	5619
2026-01-18 11:55:22.07	214.12	5.20	-49.7	-53.6	12.7	1.22e-05	0	35	0	29360128	70	5810
2026-01-18 11:55:23.07	214.21	5.26	-49.8	-53.7	12.5	1.22e-05	0	35	0	31457280	70	5883
2026-01-18 11:55:24.08	214.29	5.32	-51.5	-58.4	7.8	2.59e-05	0	35	0	32505856	73	8540
2026-01-18 11:55:25.09	214.38	5.38	-48.6	-51.3	15.0	0.00e+00	0	35	0	34603008	69	4743
2026-01-18 11:55:26.10	214.46	5.44	-48.6	-51.4	14.8	0.00e+00	0	35	0	36700160	69	4800
2026-01-18 11:55:27.10	214.55	5.50	-48.2	-50.8	15.5	0.00e+00	0	35	0	38797312	68	4709
2026-01-18 11:55:28.11	214.64	5.56	-48.2	-50.7	15.5	0.00e+00	0	35	0	40894464	68	4703
2026-01-18 11:55:29.12	214.72	5.62	-48.1	-50.6	15.7	0.00e+00	0	35	0	41943040	68	4606
2026-01-18 11:55:30.13	214.81	5.69	-47.8	-50.2	16.0	0.00e+00	0	35	0	44040192	67	4666
2026-01-18 11:55:31.13	214.90	5.75	-48.0	-50.4	15.8	0.00e+00	0	35	0	46137344	67	4780
2026-01-18 11:55:32.14	214.98	5.81	-47.9	-50.3	15.9	0.00e+00	0	35	0	48234496	67	4722
2026-01-18 11:55:33.15	215.07	5.87	-47.8	-50.1	16.1	0.00e+00	0	35	0	50331648	67	4647
2026-01-18 11:55:34.16	215.16	5.93	-47.8	-50.2	16.1	0.00e+00	0	35	0	51380224	67	4659
2026-01-18 11:55:35.17	215.25	6.00	-47.7	-49.9	16.3	0.00e+00	0	35	0	53477376	67	4529
2026-01-18 11:55:36.17	215.34	6.06	-47.5	-49.6	16.6	0.00e+00	0	35	0	55574528	66	4639
2026-01-18 11:55:37.18	215.43	6.12	-47.5	-49.6	16.6	0.00e+00	0	35	0	57671680	66	4643
2026-01-18 11:55:38.19	215.52	6.18	-47.4	-49.6	16.7	0.00e+00	0	35	0	59768832	66	4606
2026-01-18 11:55:39.20	215.61	6.24	-47.5	-49.6	16.6	0.00e+00	0	35	0	60817408	66	4634
2026-01-18 11:55:40.21	215.70	6.31	-47.5	-49.6	16.6	0.00e+00	0	35	0	62914560	66	4641
2026-01-18 11:55:41.21	215.79	6.37	-47.7	-50.0	16.4	0.00e+00	0	35	0	65011712	66	4819
2026-01-18 11:55:42.22	215.88	6.43	-47.4	-49.4	16.9	0.00e+00	0	35	0	67108864	66	4537
2026-01-18 11:55:43.23	215.97	6.49	-47.4	-49.5	16.9	0.00e+00	0	35	0	69206016	66	4555
2026-01-18 11:55:44.24	216.07	6.56	-47.3	-49.3	17.0	0.00e+00	0	35	0	70254592	66	4459
2026-01-18 11:55:45.25	216.16	6.62	-47.4	-49.5	16.8	0.00e+00	0	35	0	72351744	66	4591
2026-01-18 11:55:46.25	216.25	6.68	-47.4	-49.5	16.9	0.00e+00	0	35	0	74448896	66	4562
2026-01-18 11:55:47.26	216.34	6.75	-47.3	-49.3	17.0	0.00e+00	0	35	0	76546048	66	4488
2026-01-18 11:55:48.27	216.44	6.81	-47.4	-49.4	16.9	0.00e+00	0	35	0	78643200	66	4534
2026-01-18 11:55:49.28	216.53	6.87	-47.3	-49.3	17.0	0.00e+00	0	35	0	79691776	66	4478
2026-01-18 11:55:50.28	216.63	6.94	-47.2	-49.3	17.1	0.00e+00	0	35	0	81788928	66	4446
2026-01-18 11:55:51.29	216.72	7.00	-47.3	-49.3	17.1	0.00e+00	0	35	0	83886080	66	4456
2026-01-18 11:55:52.30	216.82	7.06	-47.2	-49.1	17.2	0.00e+00	0	35	0	85983232	66	4390
2026-01-18 11:55:53.31	216.91	7.13	-47.1	-49.1	17.3	0.00e+00	0	35	0	88080384	66	4364
2026-01-18 11:55:54.31	217.01	7.19	-47.2	-49.2	17.2	0.00e+00	0	35	0	89128960	66	4407
2026-01-18 11:55:55.32	217.10	7.26	-47.2	-49.2	17.2	0.00e+00	0	35	0	91226112	66	4421
2026-01-18 11:55:56.33	217.20	7.32	-47.3	-49.3	17.1	0.00e+00	0	35	0	93323264	66	4453
2026-01-18 11:55:57.34	217.30	7.38	-47.2	-49.2	17.2	0.00e+00	0	35	0	95420416	66	4439
2026-01-18 11:55:58.34	217.39	7.45	-47.2	-49.1	17.3	0.00e+00	0	35	0	97517568	66	4376
2026-01-18 11:55:59.35	217.49	7.51	-47.2	-49.2	17.3	0.00e+00	0	35	0	98566144	66	4392
2026-01-18 11:56:00.36	217.59	7.58	-46.9	-48.8	17.6	0.00e+00	0	35	0	100663296	65	4477
2026-01-18 11:56:01.37	217.69	7.64	-47.1	-49.0	17.4	0.00e+00	0	35	0	102760448	65	4563
2026-01-18 11:56:02.37	217.79	7.70	-47.0	-48.9	17.5	0.00e+00	0	35	0	104857600	65	4544
2026-01-18 11:56:03.38	217.89	7.77	-47.0	-48.8	17.6	0.00e+00	0	35	0	106954752	65	4477
2026-01-18 11:56:04.39	217.99	7.83	-47.0	-48.9	17.5	0.00e+00	0	35	0	108003328	65	4532
2026-01-18 11:56:05.40	218.09	7.90	-47.0	-48.9	17.5	0.00e+00	0	35	0	110100480	65	4517
2026-01-18 11:56:06.41	218.19	7.96	-46.9	-48.8	17.7	0.00e+00	0	35	0	112197632	65	4458
2026-01-18 11:56:07.42	218.29	8.03	-47.0	-48.9	17.5	0.00e+00	0	35	0	114294784	65	4531
2026-01-18 11:56:08.42	218.39	8.09	-46.9	-48.7	17.7	0.00e+00	0	35	0	116391936	65	4440
2026-01-18 11:56:09.43	218.50	8.16	-46.9	-48.7	17.8	0.00e+00	0	35	0	118489088	65	4420
2026-01-18 11:56:10.44	218.60	8.22	-47.1	-49.0	17.5	0.00e+00	0	35	0	119537664	65	4586
2026-01-18 11:56:11.45	218.70	8.29	-47.1	-49.0	17.5	0.00e+00	0	35	0	121634816	65	4583
2026-01-18 11:56:12.45	218.81	8.36	-47.1	-49.0	17.4	0.00e+00	0	35	0	123731968	65	4577
2026-01-18 11:56:13.46	218.91	8.42	-47.3	-49.3	17.3	0.00e+00	0	35	0	125829120	65	4708
2026-01-18 11:56:14.47	219.01	8.49	-47.2	-49.1	17.4	0.00e+00	0	35	0	126877696	65	4627
2026-01-18 11:56:15.48	219.12	8.55	-47.3	-49.3	17.3	0.00e+00	0	35	0	128974848	65	4723
2026-01-18 11:56:16.49	219.23	8.62	-47.5	-49.6	16.9	0.00e+00	0	35	0	131072000	65	4912
2026-01-18 11:56:17.49	219.33	8.68	-47.5	-49.6	17.0	0.00e+00	0	35	0	133169152	65	4872
2026-01-18 11:56:18.50	219.44	8.75	-47.5	-49.5	17.0	0.00e+00	0	35	0	135266304	65	4867
2026-01-18 11:56:19.51	219.54	8.82	-47.7	-49.8	16.7	0.00e+00	0	35	0	136314880	66	4742
2026-01-18 11:56:20.52	219.65	8.88	-47.6	-49.7	16.9	0.00e+00	0	35	0	138412032	66	4688
2026-01-18 11:56:21.53	219.76	8.95	-47.5	-49.6	17.0	0.00e+00	0	35	0	140509184	66	4626
2026-01-18 11:56:22.53	219.87	9.01	-47.6	-49.6	17.0	0.00e+00	0	35	0	142606336	66	4631
2026-01-18 11:56:23.54	219.98	9.08	-47.4	-49.3	17.2	0.00e+00	0	35	0	144703488	66	4481
2026-01-18 11:56:24.55	220.09	9.15	-47.3	-49.2	17.4	0.00e+00	0	35	0	146800640	66	4407
2026-01-18 11:56:25.56	220.20	9.21	-47.3	-49.2	17.4	0.00e+00	0	35	0	147849216	66	4402
2026-01-18 11:56:26.57	220.31	9.28	-47.2	-49.1	17.5	0.00e+00	0	35	0	149946368	66	4357
2026-01-18 11:56:27.57	220.42	9.35	-47.1	-49.0	17.6	0.00e+00	0	35	0	152043520	66	4334
2026-01-18 11:56:28.58	220.53	9.42	-47.1	-49.0	17.6	0.00e+00	0	35	0	154140672	66	4321
2026-01-18 11:56:29.59	220.64	9.48	-47.0	-48.8	17.8	0.00e+00	0	35	0	155189248	66	4222
2026-01-18 11:56:30.60	220.75	9.55	-47.0	-48.8	17.8	0.00e+00	0	35	0	157286400	65	4466
2026-01-18 11:56:31.61	220.86	9.62	-47.1	-48.9	17.7	0.00e+00	0	35	0	159383552	65	4540
2026-01-18 11:56:32.61	220.98	9.68	-47.1	-49.0	17.6	0.00e+00	0	35	0	161480704	65	4555
2026-01-18 11:56:33.62	221.09	9.75	-47.0	-48.8	17.8	0.00e+00	0	35	0	163577856	65	4453
2026-01-18 11:56:34.63	221.20	9.82	-46.9	-48.7	17.9	0.00e+00	0	35	0	165675008	65	4431
2026-01-18 11:56:35.64	221.32	9.89	-46.9	-48.7	17.9	0.00e+00	0	35	0	166723584	65	4403
2026-01-18 11:56:36.65	221.43	9.95	-46.8	-48.6	18.1	0.00e+00	0	35	0	168820736	65	4341
2026-01-18 11:56:37.65	221.55	10.02	-46.7	-48.5	18.1	0.00e+00	0	35	0	170917888	65	4301
2026-01-18 11:56:38.66	221.66	10.09	-46.6	-48.3	18.3	0.00e+00	0	35	0	173015040	65	4231
2026-01-18 11:56:39.67	221.78	10.16	-46.7	-48.4	18.2	0.00e+00	0	36	0	175112192	65	4262
2026-01-18 11:56:40.68	221.90	10.23	-46.8	-48.5	18.1	0.00e+00	0	35	0	176160768	65	4331
2026-01-18 11:56:41.69	222.02	10.29	-46.7	-48.4	18.2	0.00e+00	0	36	0	178257920	65	4258
2026-01-18 11:56:42.69	222.13	10.36	-46.9	-48.6	18.0	0.00e+00	0	35	0	180355072	65	4368
2026-01-18 11:56:43.70	222.25	10.43	-46.8	-48.5	18.1	0.00e+00	0	35	0	182452224	65	4309
2026-01-18 11:56:44.71	222.37	10.50	-46.8	-48.6	18.1	0.00e+00	0	35	0	183500800	65	4357
2026-01-18 11:56:45.72	222.49	10.57	-46.9	-48.7	17.9	0.00e+00	0	35	0	185597952	65	4425
2026-01-18 11:56:46.73	222.61	10.63	-47.0	-48.8	17.9	0.00e+00	0	35	0	187695104	65	4452
2026-01-18 11:56:47.73	222.73	10.70	-47.0	-48.8	17.8	0.00e+00	0	36	0	189792256	65	4482
2026-01-18 11:56:48.74	222.86	10.77	-46.9	-48.7	17.9	0.00e+00	0	35	0	191889408	65	4393
2026-01-18 11:56:49.75	222.98	10.84	-47.1	-48.9	17.8	0.00e+00	0	35	0	193986560	65	4518
2026-01-18 11:56:50.75	223.10	10.91	-46.9	-48.7	18.0	0.00e+00	0	35	0	195035136	65	4421
2026-01-18 11:56:51.76	223.22	10.98	-47.0	-48.8	17.9	0.00e+00	0	35	0	197132288	65	4463
2026-01-18 11:56:52.77	223.35	11.05	-46.9	-48.7	18.0	0.00e+00	0	35	0	199229440	65	4393
2026-01-18 11:56:53.78	223.47	11.12	-46.9	-48.6	18.1	0.00e+00	0	35	0	201326592	65	4381
2026-01-18 11:56:54.79	223.60	11.19	-47.0	-48.8	18.0	0.00e+00	0	35	0	203423744	65	4447
2026-01-18 11:56:55.79	223.72	11.25	-47.0	-48.9	17.8	0.00e+00	0	35	0	204472320	65	4496
2026-01-18 11:56:56.80	223.85	11.32	-47.1	-48.9	17.8	0.00e+00	0	35	0	206569472	65	4524
2026-01-18 11:56:57.81	223.97	11.39	-47.1	-49.0	17.8	0.00e+00	0	35	0	208666624	65	4548
2026-01-18 11:56:58.81	224.10	11.46	-47.2	-49.0	17.7	0.00e+00	0	36	0	210763776	65	4590
2026-01-18 11:56:59.82	224.23	11.53	-47.3	-49.2	17.6	0.00e+00	0	35	0	211812352	65	4667
2026-01-18 11:57:00.83	224.36	11.60	-47.4	-49.3	17.5	0.00e+00	0	35	0	213909504	65	4728
2026-01-18 11:57:01.84	224.48	11.67	-47.4	-49.4	17.4	0.00e+00	0	35	0	216006656	65	4767
2026-01-18 11:57:02.85	224.61	11.74	-47.4	-49.3	17.4	0.00e+00	0	35	0	218103808	65	4733
2026-01-18 11:57:03.85	224.74	11.81	-47.3	-49.2	17.6	0.00e+00	0	35	0	220200960	65	4679
2026-01-18 11:57:04.86	224.87	11.88	-47.1	-48.9	17.8	0.00e+00	0	35	0	222298112	65	4541
2026-01-18 11:57:05.87	225.00	11.95	-47.1	-49.0	17.8	0.00e+00	0	35	0	223346688	65	4562
2026-01-18 11:57:06.88	225.14	12.02	-46.9	-48.7	18.1	0.00e+00	0	35	0	225443840	65	4402
2026-01-18 11:57:07.89	225.27	12.09	-46.9	-48.7	18.0	0.00e+00	0	35	0	227540992	65	4414
2026-01-18 11:57:08.89	225.40	12.16	-47.0	-48.7	18.0	0.00e+00	0	35	0	229638144	65	4439
2026-01-18 11:57:09.90	225.54	12.23	-46.7	-48.4	18.3	0.00e+00	0	35	0	231735296	65	4286
2026-01-18 11:57:10.91	225.67	12.30	-46.8	-48.5	18.3	0.00e+00	0	35	0	232783872	65	4294
2026-01-18 11:57:11.92	225.81	12.37	-46.8	-48.5	18.3	0.00e+00	0	36	0	234881024	65	4308
2026-01-18 11:57:12.93	225.94	12.44	-46.6	-48.3	18.5	0.00e+00	0	35	0	236978176	65	4198
2026-01-18 11:57:13.93	226.08	12.51	-46.6	-48.2	18.6	0.00e+00	0	35	0	239075328	65	4164
2026-01-18 11:57:14.95	226.21	12.58	-46.4	-48.0	18.8	0.00e+00	0	35	0	241172480	64	4303
2026-01-18 11:57:15.95	226.35	12.65	-46.1	-47.6	19.1	0.00e+00	0	36	0	242221056	64	4143
2026-01-18 11:57:16.96	226.49	12.72	-46.3	-47.9	18.9	0.00e+00	0	35	0	244318208	64	4246
2026-01-18 11:57:17.97	226.63	12.79	-46.0	-47.5	19.2	0.00e+00	0	35	0	246415360	64	4095
2026-01-18 11:57:18.98	226.77	12.86	-46.0	-47.5	19.2	0.00e+00	0	35	0	248512512	64	4090
2026-01-18 11:57:19.99	226.91	12.93	-46.2	-47.7	19.1	0.00e+00	0	35	0	250609664	63	4435
2026-01-18 11:57:20.99	227.05	13.00	-46.2	-47.7	19.1	0.00e+00	0	36	0	251658240	63	4404
2026-01-18 11:57:22.00	227.19	13.08	-46.2	-47.8	19.1	0.00e+00	0	36	0	253755392	63	4443
2026-01-18 11:57:23.01	227.33	13.15	-46.3	-47.8	19.0	0.00e+00	0	35	0	255852544	63	4481
2026-01-18 11:57:24.02	227.47	13.22	-46.4	-48.0	18.9	0.00e+00	0	35	0	257949696	63	4554
2026-01-18 11:57:25.03	227.62	13.29	-46.2	-47.7	19.1	0.00e+00	0	35	0	260046848	63	4403
2026-01-18 11:57:26.03	227.76	13.36	-46.2	-47.7	19.1	0.00e+00	0	35	0	262144000	63	4427
2026-01-18 11:57:27.04	227.90	13.43	-46.2	-47.7	19.1	0.00e+00	0	35	0	263192576	63	4421
2026-01-18 11:57:28.05	228.05	13.50	-46.3	-47.8	19.0	0.00e+00	0	36	0	265289728	63	4481
2026-01-18 11:57:29.05	228.19	13.57	-46.1	-47.6	19.2	0.00e+00	0	35	0	267386880	63	4373
2026-01-18 11:57:30.06	228.34	13.64	-46.1	-47.6	19.3	0.00e+00	0	36	0	269484032	63	4348
2026-01-18 11:57:31.07	228.49	13.71	-46.3	-47.9	19.0	0.00e+00	0	36	0	270532608	63	4497
2026-01-18 11:57:32.08	228.64	13.79	-46.3	-47.8	19.0	0.00e+00	0	35	0	272629760	63	4490
2026-01-18 11:57:33.09	228.79	13.86	-46.3	-47.9	18.9	0.00e+00	0	35	0	274726912	63	4513
2026-01-18 11:57:34.09	228.93	13.93	-46.6	-48.3	18.6	0.00e+00	0	35	0	276824064	63	4713
2026-01-18 11:57:35.10	229.08	14.00	-46.7	-48.3	18.5	0.00e+00	0	35	0	278921216	64	4488
2026-01-18 11:57:36.11	229.23	14.07	-46.7	-48.4	18.4	0.00e+00	0	36	0	279969792	64	4509
2026-01-18 11:57:37.11	229.38	14.14	-46.9	-48.6	18.2	0.00e+00	0	35	0	282066944	64	4617
2026-01-18 11:57:38.12	229.54	14.21	-46.9	-48.6	18.2	0.00e+00	0	35	0	284164096	64	4646
2026-01-18 11:57:39.13	229.69	14.29	-46.9	-48.6	18.2	0.00e+00	0	35	0	286261248	64	4640
2026-01-18 11:57:40.14	229.84	14.36	-46.9	-48.6	18.2	0.00e+00	0	36	0	288358400	64	4632
2026-01-18 11:57:41.15	230.00	14.43	-46.9	-48.6	18.2	0.00e+00	0	35	0	290455552	64	4608
2026-01-18 11:57:42.15	230.15	14.50	-46.6	-48.3	18.5	0.00e+00	0	36	0	291504128	64	4447
2026-01-18 11:57:43.16	230.31	14.57	-46.7	-48.3	18.5	0.00e+00	0	36	0	293601280	64	4484
2026-01-18 11:57:44.17	230.46	14.64	-46.4	-47.9	18.8	0.00e+00	0	35	0	295698432	64	4287
2026-01-18 11:57:45.18	230.62	14.71	-46.4	-48.0	18.8	0.00e+00	0	36	0	297795584	64	4319
2026-01-18 11:57:46.18	230.78	14.79	-46.2	-47.7	19.1	0.00e+00	0	36	0	298844160	64	4184
2026-01-18 11:57:47.19	230.94	14.86	-46.1	-47.5	19.4	0.00e+00	0	36	0	300941312	63	4326
2026-01-18 11:57:48.20	231.10	14.93	-45.9	-47.3	19.5	0.00e+00	0	36	0	303038464	63	4238
2026-01-18 11:57:49.21	231.26	15.00	-45.9	-47.3	19.6	0.00e+00	0	36	0	305135616	63	4223
2026-01-18 11:57:50.22	231.42	15.07	-45.9	-47.3	19.5	0.00e+00	0	35	0	307232768	63	4238
2026-01-18 11:57:51.23	231.58	15.14	-45.8	-47.3	19.6	0.00e+00	0	35	0	308281344	63	4199
2026-01-18 11:57:52.23	231.74	15.22	-45.8	-47.3	19.6	0.00e+00	0	35	0	310378496	63	4202
2026-01-18 11:57:53.24	231.90	15.29	-45.7	-47.1	19.8	0.00e+00	0	35	0	312475648	63	4113
2026-01-18 11:57:54.25	232.07	15.36	-45.7	-47.1	19.7	0.00e+00	0	35	0	314572800	63	4123
2026-01-18 11:57:55.26	232.23	15.43	-45.7	-47.1	19.7	0.00e+00	0	35	0	316669952	63	4110
2026-01-18 11:57:56.26	232.40	15.50	-45.6	-47.0	19.8	0.00e+00	0	35	0	318767104	63	4070
2026-01-18 11:57:57.27	232.56	15.57	-45.7	-47.0	19.8	0.00e+00	0	36	0	319815680	63	4091
2026-01-18 11:57:58.28	232.73	15.65	-45.5	-46.8	20.0	0.00e+00	0	36	0	321912832	63	3997
2026-01-18 11:57:59.29	232.90	15.72	-45.6	-47.0	19.9	0.00e+00	0	36	0	324009984	62	4298
2026-01-18 11:58:00.29	233.07	15.79	-45.6	-47.0	19.8	0.00e+00	0	35	0	326107136	62	4315
2026-01-18 11:58:01.30	233.24	15.86	-45.7	-47.1	19.8	0.00e+00	0	36	0	327155712	62	4351
2026-01-18 11:58:02.31	233.41	15.93	-45.8	-47.2	19.7	0.00e+00	0	36	0	329252864	62	4395
2026-01-18 11:58:03.32	233.58	16.00	-46.0	-47.5	19.4	0.00e+00	0	36	0	331350016	62	4562
2026-01-18 11:58:04.33	233.75	16.07	-46.1	-47.6	19.4	0.00e+00	0	35	0	333447168	62	4606
2026-01-18 11:58:05.33	233.92	16.15	-46.1	-47.6	19.3	0.00e+00	0	36	0	335544320	62	4645
2026-01-18 11:58:06.34	234.09	16.22	-46.2	-47.7	19.2	0.00e+00	0	35	0	337641472	63	4434
2026-01-18 11:58:07.35	234.27	16.29	-46.2	-47.7	19.2	0.00e+00	0	36	0	338690048	63	4431
2026-01-18 11:58:08.36	234.44	16.36	-46.1	-47.6	19.3	0.00e+00	0	36	0	340787200	63	4359
2026-01-18 11:58:09.37	234.62	16.43	-46.1	-47.6	19.3	0.00e+00	0	36	0	342884352	63	4358
2026-01-18 11:58:10.37	234.79	16.50	-46.1	-47.5	19.4	0.00e+00	0	36	0	344981504	63	4318
2026-01-18 11:58:11.38	234.97	16.57	-45.8	-47.2	19.7	0.00e+00	0	35	0	347078656	63	4164
2026-01-18 11:58:12.39	235.15	16.64	-45.9	-47.4	19.5	0.00e+00	0	36	0	348127232	63	4261
2026-01-18 11:58:13.40	235.33	16.72	-46.0	-47.4	19.5	0.00e+00	0	36	0	350224384	63	4284
2026-01-18 11:58:14.40	235.51	16.79	-46.0	-47.5	19.4	0.00e+00	0	35	0	352321536	63	4309
2026-01-18 11:58:15.41	235.69	16.86	-46.1	-47.6	19.3	0.00e+00	0	35	0	354418688	63	4371
2026-01-18 11:58:16.42	235.87	16.93	-46.1	-47.6	19.3	0.00e+00	0	36	0	355467264	63	4364
2026-01-18 11:58:17.43	236.05	17.00	-46.0	-47.4	19.5	0.00e+00	0	35	0	357564416	63	4285
2026-01-18 11:58:18.44	236.24	17.07	-45.8	-47.2	19.7	0.00e+00	0	36	0	359661568	63	4158
2026-01-18 11:58:19.45	236.42	17.14	-45.7	-47.1	19.8	0.00e+00	0	35	0	361758720	63	4125
2026-01-18 11:58:20.45	236.60	17.21	-45.4	-46.7	20.2	0.00e+00	0	36	0	363855872	62	4161
2026-01-18 11:58:21.46	236.79	17.28	-45.4	-46.7	20.2	0.00e+00	0	35	0	365953024	62	4146
2026-01-18 11:58:22.47	236.98	17.35	-45.3	-46.6	20.2	0.00e+00	0	35	0	367001600	62	4142
2026-01-18 11:58:23.48	237.16	17.42	-45.3	-46.6	20.3	0.00e+00	0	36	0	369098752	62	4100
2026-01-18 11:58:24.49	237.35	17.49	-45.2	-46.5	20.4	0.00e+00	0	36	0	371195904	62	4077
2026-01-18 11:58:25.49	237.54	17.56	-45.1	-46.4	20.4	0.00e+00	0	36	0	373293056	62	4038
2026-01-18 11:58:26.50	237.73	17.63	-45.2	-46.4	20.4	0.00e+00	0	36	0	375390208	61	4286
2026-01-18 11:58:27.51	237.92	17.70	-45.1	-46.4	20.4	0.00e+00	0	35	0	376438784	61	4258
2026-01-18 11:58:28.52	238.11	17.77	-44.9	-46.2	20.7	0.00e+00	0	35	0	378535936	61	4148
2026-01-18 11:58:29.52	238.30	17.84	-45.0	-46.3	20.5	0.00e+00	0	35	0	380633088	61	4210
2026-01-18 11:58:30.53	238.49	17.91	-45.0	-46.3	20.6	0.00e+00	0	36	0	382730240	61	4197
2026-01-18 11:58:31.54	238.69	17.98	-45.0	-46.2	20.6	0.00e+00	0	36	0	384827392	61	4192
2026-01-18 11:58:32.55	238.88	18.05	-45.1	-46.4	20.5	0.00e+00	0	36	0	385875968	61	4259
2026-01-18 11:58:33.56	239.08	18.12	-45.2	-46.5	20.4	0.00e+00	0	36	0	387973120	61	4307
2026-01-18 11:58:34.57	239.28	18.19	-45.2	-46.5	20.3	0.00e+00	0	35	0	390070272	61	4329
2026-01-18 11:58:35.57	239.47	18.26	-45.3	-46.6	20.3	0.00e+00	0	35	0	392167424	61	4355
2026-01-18 11:58:36.58	239.67	18.33	-45.3	-46.5	20.4	0.00e+00	0	35	0	394264576	61	4334
2026-01-18 11:58:37.59	239.87	18.39	-45.2	-46.4	20.4	0.00e+00	0	35	0	395313152	61	4289
2026-01-18 11:58:38.59	240.07	18.46	-45.1	-46.3	20.5	0.00e+00	0	35	0	397410304	61	4233
2026-01-18 11:58:39.60	240.27	18.53	-45.2	-46.5	20.4	0.00e+00	0	35	0	399507456	61	4311
2026-01-18 11:58:40.61	240.47	18.60	-45.2	-46.5	20.4	0.00e+00	0	35	0	401604608	61	4302
2026-01-18 11:58:41.62	240.68	18.67	-45.5	-46.8	20.1	0.00e+00	0	36	0	403701760	61	4479
2026-01-18 11:58:42.63	240.88	18.74	-45.4	-46.7	20.1	0.00e+00	0	36	0	404750336	61	4429
2026-01-18 11:58:43.63	241.08	18.80	-45.5	-46.8	20.1	0.00e+00	0	36	0	406847488	61	4488
2026-01-18 11:58:44.64	241.29	18.87	-45.5	-46.9	20.0	0.00e+00	0	35	0	408944640	61	4514
2026-01-18 11:58:45.65	241.50	18.94	-45.6	-46.9	20.0	0.00e+00	0	36	0	411041792	61	4533
2026-01-18 11:58:46.66	241.70	19.01	-45.6	-47.0	20.0	0.00e+00	0	35	0	413138944	61	4548
2026-01-18 11:58:47.67	241.91	19.07	-45.7	-47.1	19.9	0.00e+00	0	36	0	414187520	62	4366
2026-01-18 11:58:48.67	242.12	19.14	-45.9	-47.3	19.7	0.00e+00	0	36	0	416284672	62	4449
2026-01-18 11:58:49.68	242.33	19.21	-45.8	-47.2	19.8	0.00e+00	0	36	0	418381824	62	4419
2026-01-18 11:58:50.69	242.54	19.27	-45.9	-47.3	19.7	0.00e+00	0	36	0	420478976	62	4457
2026-01-18 11:58:51.70	242.75	19.34	-45.8	-47.2	19.8	0.00e+00	0	36	0	422576128	62	4397
2026-01-18 11:58:52.71	242.96	19.41	-45.6	-47.0	20.0	0.00e+00	0	35	0	423624704	62	4315
2026-01-18 11:58:53.71	243.18	19.47	-45.5	-46.9	20.1	0.00e+00	0	35	0	425721856	62	4254
2026-01-18 11:58:54.72	243.39	19.54	-45.5	-46.8	20.1	0.00e+00	0	35	0	427819008	62	4237
2026-01-18 11:58:55.73	243.61	19.60	-45.4	-46.7	20.2	0.00e+00	0	36	0	429916160	62	4183
2026-01-18 11:58:56.73	243.82	19.67	-45.3	-46.6	20.3	0.00e+00	0	36	0	432013312	62	4105
2026-01-18 11:58:57.74	244.04	19.73	-45.5	-46.9	20.1	0.00e+00	0	35	0	433061888	62	4252
2026-01-18 11:58:58.75	244.26	19.80	-45.8	-47.1	19.8	0.00e+00	0	36	0	435159040	62	4380
2026-01-18 11:58:59.76	244.48	19.86	-46.0	-47.4	19.6	0.00e+00	0	35	0	437256192	62	4543
2026-01-18 11:59:00.77	244.70	19.93	-46.0	-47.5	19.5	0.00e+00	0	36	0	439353344	62	4549
2026-01-18 11:59:01.77	244.91	19.99	-46.3	-47.8	19.2	0.00e+00	0	36	0	441450496	63	4460
2026-01-18 11:59:02.78	245.14	20.05	-46.3	-47.8	19.3	0.00e+00	0	35	0	442499072	63	4445
2026-01-18 11:59:03.79	245.36	20.12	-46.2	-47.7	19.3	0.00e+00	0	36	0	444596224	63	4408
2026-01-18 11:59:04.80	245.58	20.18	-46.1	-47.6	19.4	0.00e+00	0	36	0	446693376	63	4346
2026-01-18 11:59:05.81	245.81	20.24	-46.1	-47.6	19.5	0.00e+00	0	36	0	448790528	63	4350
2026-01-18 11:59:06.81	246.03	20.31	-46.3	-47.8	19.3	0.00e+00	0	35	0	450887680	63	4474
2026-01-18 11:59:07.82	246.26	20.37	-46.2	-47.7	19.3	0.00e+00	0	36	0	451936256	63	4417
2026-01-18 11:59:08.83	246.48	20.43	-46.5	-48.0	19.1	0.00e+00	0	36	0	454033408	63	4591
2026-01-18 11:59:09.83	246.71	20.49	-46.6	-48.2	18.9	0.00e+00	0	36	0	456130560	63	4689
2026-01-18 11:59:10.84	246.94	20.55	-46.3	-47.8	19.2	0.00e+00	0	36	0	458227712	63	4486
2026-01-18 11:59:11.85	247.17	20.61	-46.3	-47.7	19.3	0.00e+00	0	36	0	460324864	63	4437
2026-01-18 11:59:12.86	247.40	20.68	-46.0	-47.4	19.6	0.00e+00	0	36	0	461373440	63	4291
2026-01-18 11:59:13.87	247.63	20.74	-45.9	-47.3	19.7	0.00e+00	0	36	0	463470592	63	4196
2026-01-18 11:59:14.87	247.86	20.80	-46.2	-47.6	19.4	0.00e+00	0	36	0	465567744	63	4370
2026-01-18 11:59:15.88	248.09	20.86	-46.4	-47.9	19.2	0.00e+00	0	36	0	467664896	63	4515
2026-01-18 11:59:16.89	248.33	20.92	-46.8	-48.4	18.6	0.00e+00	0	36	0	469762048	64	4542
2026-01-18 11:59:17.89	248.56	20.97	-47.1	-48.9	18.1	0.00e+00	0	36	0	470810624	64	4803
2026-01-18 11:59:18.90	248.80	21.03	-47.3	-49.2	17.9	0.00e+00	0	36	0	472907776	65	4652
2026-01-18 11:59:19.91	249.03	21.09	-47.1	-48.8	18.2	0.00e+00	0	36	0	475004928	65	4471
2026-01-18 11:59:20.92	249.27	21.15	-46.8	-48.4	18.6	0.00e+00	0	36	0	477102080	65	4258
2026-01-18 11:59:21.93	249.51	21.21	-46.4	-48.0	19.0	0.00e+00	0	36	0	479199232	64	4298
2026-01-18 11:59:22.93	249.75	21.27	-46.2	-47.6	19.3	0.00e+00	0	36	0	481296384	64	4133
2026-01-18 11:59:23.94	249.99	21.32	-46.2	-47.6	19.3	0.00e+00	0	36	0	482344960	64	4138
2026-01-18 11:59:24.95	250.23	21.38	-46.0	-47.5	19.6	0.00e+00	0	35	0	484442112	63	4308
2026-01-18 11:59:25.96	250.47	21.44	-46.2	-47.7	19.3	0.00e+00	0	36	0	486539264	63	4436
2026-01-18 11:59:26.96	250.71	21.49	-46.0	-47.4	19.6	0.00e+00	0	35	0	488636416	63	4259
2026-01-18 11:59:27.97	250.96	21.55	-45.9	-47.3	19.8	0.00e+00	0	36	0	489684992	63	4196
2026-01-18 11:59:28.98	251.20	21.60	-45.7	-47.0	20.0	0.00e+00	0	36	0	491782144	63	4096
2026-01-18 11:59:29.99	251.45	21.66	-45.8	-47.1	19.9	0.00e+00	0	36	0	493879296	63	4122
2026-01-18 11:59:31.00	251.69	21.71	-46.1	-47.5	19.5	0.00e+00	0	35	0	495976448	63	4331
2026-01-18 11:59:32.01	251.94	21.77	-46.4	-47.9	19.1	0.00e+00	0	36	0	498073600	63	4524
2026-01-18 11:59:33.01	252.18	21.82	-46.3	-47.8	19.2	0.00e+00	0	35	0	499122176	63	4464
2026-01-18 11:59:34.02	252.43	21.87	-46.5	-48.1	19.0	0.00e+00	0	35	0	501219328	63	4608
2026-01-18 11:59:35.03	252.68	21.93	-46.1	-47.6	19.5	0.00e+00	0	36	0	503316480	63	4344
2026-01-18 11:59:36.03	252.93	21.98	-45.7	-47.1	19.9	0.00e+00	0	35	0	505413632	63	4102
2026-01-18 11:59:37.04	253.18	22.03	-45.6	-47.0	20.0	0.00e+00	0	35	0	507510784	63	4062
2026-01-18 11:59:38.05	253.43	22.08	-45.4	-46.7	20.2	0.00e+00	0	36	0	509607936	62	4186
2026-01-18 11:59:39.06	253.69	22.13	-45.6	-46.9	20.1	0.00e+00	0	36	0	510656512	62	4272
2026-01-18 11:59:40.07	253.94	22.18	-45.7	-47.0	20.0	0.00e+00	0	36	0	512753664	62	4326
2026-01-18 11:59:41.07	254.19	22.23	-45.6	-47.0	20.0	0.00e+00	0	36	0	514850816	62	4299
2026-01-18 11:59:42.08	254.45	22.28	-45.9	-47.3	19.7	0.00e+00	0	36	0	516947968	62	4470
2026-01-18 11:59:43.09	254.70	22.33	-46.1	-47.6	19.5	0.00e+00	0	36	0	517996544	62	4634
2026-01-18 11:59:44.10	254.96	22.38	-46.5	-48.0	19.1	0.00e+00	0	36	0	520093696	63	4582
2026-01-18 11:59:45.11	255.22	22.43	-46.8	-48.4	18.6	0.00e+00	0	36	0	522190848	64	4541
2026-01-18 11:59:46.12	255.48	22.48	-47.0	-48.7	18.3	0.00e+00	0	36	0	524288000	64	4695
2026-01-18 11:59:47.13	255.74	22.52	-47.2	-48.9	18.1	0.00e+00	0	36	0	526385152	64	4794
2026-01-18 11:59:48.13	255.99	22.57	-46.8	-48.4	18.7	0.00e+00	0	36	0	528482304	65	4269
2026-01-18 11:59:49.14	256.26	22.62	-46.4	-47.9	19.1	0.00e+00	0	36	0	529530880	64	4248
2026-01-18 11:59:50.15	256.52	22.66	-46.0	-47.4	19.6	0.00e+00	0	36	0	531628032	63	4261
2026-01-18 11:59:51.16	256.78	22.71	-46.0	-47.4	19.6	0.00e+00	0	36	0	533725184	63	4261
2026-01-18 11:59:52.16	257.04	22.75	-46.3	-47.8	19.3	0.00e+00	0	36	0	535822336	63	4449
2026-01-18 11:59:53.17	257.30	22.80	-46.7	-48.3	18.8	0.00e+00	0	36	0	537919488	63	4708
2026-01-18 11:59:54.18	257.57	22.84	-46.8	-48.5	18.5	0.00e+00	0	36	0	538968064	64	4591
2026-01-18 11:59:55.19	257.83	22.88	-47.1	-48.9	18.2	0.00e+00	0	36	0	541065216	64	4797
2026-01-18 11:59:56.20	258.10	22.92	-46.9	-48.6	18.4	0.00e+00	0	36	0	543162368	64	4636
2026-01-18 11:59:57.21	258.36	22.97	-46.8	-48.5	18.6	0.00e+00	0	36	0	545259520	64	4548
2026-01-18 11:59:58.21	258.63	23.01	-46.7	-48.3	18.8	0.00e+00	0	36	0	546308096	64	4444
2026-01-18 11:59:59.22	258.90	23.05	-46.7	-48.3	18.7	0.00e+00	0	35	0	548405248	64	4455
2026-01-18 12:00:00.23	259.17	23.09	-46.7	-48.3	18.8	0.00e+00	0	36	0	550502400	64	4450
2026-01-18 12:00:01.24	259.44	23.13	-46.8	-48.4	18.6	0.00e+00	0	36	0	552599552	64	4538
2026-01-18 12:00:02.24	259.70	23.17	-46.7	-48.3	18.7	0.00e+00	0	35	0	554696704	64	4462
2026-01-18 12:00:03.25	259.97	23.21	-46.6	-48.2	18.8	0.00e+00	0	36	0	556793856	64	4405
2026-01-18 12:00:04.26	260.24	23.24	-46.5	-48.0	19.0	0.00e+00	0	35	0	557842432	64	4327
2026-01-18 12:00:05.27	260.52	23.28	-46.6	-48.2	18.8	0.00e+00	0	36	0	559939584	64	4397
2026-01-18 12:00:06.27	260.79	23.32	-46.9	-48.5	18.5	0.00e+00	0	36	0	562036736	64	4592
2026-01-18 12:00:07.28	261.06	23.35	-47.4	-49.3	17.8	0.00e+00	0	36	0	564133888	65	4717
2026-01-18 12:00:08.29	261.33	23.39	-48.1	-50.3	16.9	0.00e+00	0	36	0	566231040	66	4985
2026-01-18 12:00:09.30	261.61	23.42	-48.5	-50.7	16.3	0.00e+00	0	36	0	567279616	67	4979
2026-01-18 12:00:10.31	261.88	23.46	-48.5	-50.8	16.4	0.00e+00	0	35	0	569376768	67	4985
2026-01-18 12:00:11.31	262.15	23.49	-47.9	-49.9	17.2	0.00e+00	0	36	0	571473920	67	4526
2026-01-18 12:00:12.32	262.43	23.52	-47.7	-49.5	17.5	0.00e+00	0	35	0	573571072	67	4337
2026-01-18 12:00:13.33	262.71	23.56	-47.5	-49.3	17.8	0.00e+00	0	35	0	575668224	66	4446
2026-01-18 12:00:14.34	262.98	23.59	-47.5	-49.4	17.7	0.00e+00	0	36	0	576716800	66	4508
2026-01-18 12:00:15.35	263.26	23.62	-47.6	-49.5	17.6	0.00e+00	0	35	0	578813952	66	4592
2026-01-18 12:00:16.35	263.54	23.65	-47.8	-49.8	17.3	0.00e+00	0	36	0	580911104	66	4743
2026-01-18 12:00:17.36	263.82	23.68	-47.8	-49.7	17.4	0.00e+00	0	36	0	583008256	66	4681
2026-01-18 12:00:18.37	264.09	23.71	-47.7	-49.6	17.5	0.00e+00	0	36	0	585105408	66	4648
2026-01-18 12:00:19.37	264.37	23.73	-47.7	-49.6	17.5	0.00e+00	0	35	0	586153984	66	4625
2026-01-18 12:00:20.38	264.65	23.76	-47.7	-49.6	17.5	0.00e+00	0	36	0	588251136	66	4619
2026-01-18 12:00:21.39	264.93	23.79	-47.9	-49.9	17.2	0.00e+00	0	35	0	590348288	66	4784
2026-01-18 12:00:22.40	265.21	23.82	-47.8	-49.8	17.4	0.00e+00	0	36	0	592445440	66	4740
2026-01-18 12:00:23.40	265.49	23.84	-48.0	-50.0	17.1	0.00e+00	0	35	0	594542592	66	4862
2026-01-18 12:00:24.41	265.77	23.87	-48.0	-50.1	17.1	0.00e+00	0	36	0	595591168	66	4878
2026-01-18 12:00:25.42	266.06	23.89	-48.3	-50.5	16.6	0.00e+00	0	36	0	597688320	67	4854
2026-01-18 12:00:26.43	266.34	23.91	-48.5	-50.8	16.4	0.00e+00	0	36	0	599785472	67	4987
2026-01-18 12:00:27.43	266.62	23.94	-48.5	-50.7	16.4	0.00e+00	0	36	0	601882624	67	4952
2026-01-18 12:00:28.44	266.90	23.96	-48.1	-50.1	17.1	0.00e+00	0	36	0	603979776	67	4641
2026-01-18 12:00:29.45	267.19	23.98	-47.8	-49.7	17.4	0.00e+00	0	36	0	605028352	67	4406
2026-01-18 12:00:30.46	267.47	24.00	-47.3	-49.1	18.0	0.00e+00	0	36	0	607125504	66	4368
2026-01-18 12:00:31.46	267.75	24.02	-47.0	-48.6	18.4	0.00e+00	0	36	0	609222656	65	4371
2026-01-18 12:00:32.47	268.04	24.04	-46.8	-48.4	18.7	0.00e+00	0	36	0	611319808	65	4247
2026-01-18 12:00:33.48	268.32	24.06	-46.6	-48.2	18.8	0.00e+00	0	36	0	613416960	65	4168
2026-01-18 12:00:34.49	268.61	24.08	-46.4	-47.9	19.2	0.00e+00	0	36	0	614465536	64	4255
2026-01-18 12:00:35.49	268.89	24.09	-46.1	-47.5	19.4	0.00e+00	0	36	0	616562688	64	4087
2026-01-18 12:00:36.50	269.18	24.11	-46.0	-47.4	19.7	0.00e+00	0	36	0	618659840	63	4250
2026-01-18 12:00:37.51	269.47	24.13	-46.0	-47.4	19.7	0.00e+00	0	35	0	620756992	63	4248
2026-01-18 12:00:38.51	269.75	24.14	-46.6	-48.1	19.0	0.00e+00	0	36	0	622854144	63	4625
2026-01-18 12:00:39.52	270.04	24.16	-47.1	-48.9	18.2	0.00e+00	0	36	0	623902720	64	4761
2026-01-18 12:00:40.53	270.32	24.17	-47.5	-49.4	17.7	0.00e+00	0	36	0	625999872	65	4779
2026-01-18 12:00:41.54	270.61	24.18	-47.5	-49.3	17.8	0.00e+00	0	36	0	628097024	65	4740
2026-01-18 12:00:42.54	270.90	24.19	-47.0	-48.7	18.4	0.00e+00	0	36	0	630194176	65	4428
2026-01-18 12:00:43.55	271.18	24.21	-46.5	-48.0	19.0	0.00e+00	0	36	0	632291328	65	4092
2026-01-18 12:00:44.55	271.47	24.22	-46.3	-47.8	19.2	0.00e+00	0	36	0	633339904	64	4233
2026-01-18 12:00:45.56	271.76	24.23	-46.6	-48.1	18.9	0.00e+00	0	36	0	635437056	64	4376
2026-01-18 12:00:46.57	272.05	24.24	-46.7	-48.3	18.8	0.00e+00	0	36	0	637534208	64	4460
2026-01-18 12:00:47.57	272.33	24.24	-47.0	-48.7	18.4	0.00e+00	0	36	0	639631360	64	4689
2026-01-18 12:00:48.58	272.62	24.25	-47.1	-48.7	18.3	0.00e+00	0	36	0	641728512	64	4699
2026-01-18 12:00:49.59	272.91	24.26	-46.6	-48.2	18.8	0.00e+00	0	36	0	642777088	64	4406
2026-01-18 12:00:50.60	273.20	24.27	-46.6	-48.1	18.9	0.00e+00	0	36	0	644874240	64	4388
2026-01-18 12:00:51.61	273.49	24.27	-46.8	-48.4	18.7	0.00e+00	0	36	0	646971392	64	4508
2026-01-18 12:00:52.62	273.78	24.28	-46.9	-48.6	18.5	0.00e+00	0	35	0	649068544	64	4630
2026-01-18 12:00:53.63	274.07	24.28	-47.0	-48.6	18.5	0.00e+00	0	36	0	651165696	64	4647
2026-01-18 12:00:54.63	274.35	24.28	-46.8	-48.5	18.6	0.00e+00	0	36	0	653262848	64	4548
2026-01-18 12:00:55.64	274.64	24.29	-46.4	-47.9	19.2	0.00e+00	0	36	0	654311424	64	4254
2026-01-18 12:00:56.65	274.93	24.29	-45.9	-47.3	19.8	0.00e+00	0	36	0	656408576	63	4236
2026-01-18 12:00:57.65	275.22	24.29	-45.8	-47.2	19.9	0.00e+00	0	36	0	658505728	63	4174
2026-01-18 12:00:58.66	275.51	24.29	-45.7	-47.0	20.1	0.00e+00	0	36	0	660602880	63	4070
2026-01-18 12:00:59.67	275.80	24.29	-45.8	-47.2	19.8	0.00e+00	0	36	0	661651456	63	4181
2026-01-18 12:01:00.68	276.09	24.29	-46.1	-47.6	19.6	0.00e+00	0	36	0	663748608	63	4360
2026-01-18 12:01:01.69	276.38	24.28	-46.3	-47.8	19.4	0.00e+00	0	36	0	665845760	63	4459
2026-01-18 12:01:02.69	276.66	24.28	-46.4	-47.9	19.3	0.00e+00	0	36	0	667942912	63	4511
2026-01-18 12:01:03.70	276.95	24.28	-46.5	-48.0	19.2	0.00e+00	0	36	0	670040064	63	4563
2026-01-18 12:01:04.71	277.24	24.27	-46.2	-47.7	19.4	0.00e+00	0	36	0	671088640	63	4401
2026-01-18 12:01:05.72	277.53	24.27	-46.2	-47.6	19.5	0.00e+00	0	36	0	673185792	63	4384
2026-01-18 12:01:06.73	277.82	24.26	-46.1	-47.5	19.6	0.00e+00	0	35	0	675282944	63	4323
2026-01-18 12:01:07.73	278.11	24.26	-46.0	-47.4	19.8	0.00e+00	0	36	0	677380096	63	4258
2026-01-18 12:01:08.74	278.40	24.25	-46.0	-47.4	19.8	0.00e+00	0	36	0	679477248	63	4249
2026-01-18 12:01:09.75	278.68	24.24	-45.8	-47.1	20.0	0.00e+00	0	36	0	681574400	63	4131
2026-01-18 12:01:10.75	278.97	24.23	-45.9	-47.2	19.9	0.00e+00	0	36	0	682622976	63	4191
2026-01-18 12:01:11.76	279.26	24.22	-46.1	-47.5	19.7	0.00e+00	0	36	0	684720128	63	4327
2026-01-18 12:01:12.76	279.54	24.21	-46.2	-47.6	19.5	0.00e+00	0	36	0	686817280	63	4381
2026-01-18 12:01:13.77	279.83	24.20	-46.4	-47.9	19.3	0.00e+00	0	36	0	688914432	63	4503
2026-01-18 12:01:14.78	280.12	24.19	-46.4	-47.9	19.2	0.00e+00	0	36	0	689963008	63	4537
2026-01-18 12:01:15.79	280.41	24.18	-46.4	-47.9	19.3	0.00e+00	0	36	0	692060160	63	4502
2026-01-18 12:01:16.80	280.69	24.17	-46.2	-47.6	19.5	0.00e+00	0	36	0	694157312	63	4380
2026-01-18 12:01:17.80	280.98	24.15	-46.0	-47.4	19.8	0.00e+00	0	35	0	696254464	63	4247
2026-01-18 12:01:18.81	281.27	24.14	-45.7	-47.0	20.1	0.00e+00	0	36	0	698351616	63	4082
2026-01-18 12:01:19.82	281.55	24.12	-45.7	-47.0	20.1	0.00e+00	0	36	0	699400192	63	4081
2026-01-18 12:01:20.83	281.84	24.11	-45.8	-47.1	20.0	0.00e+00	0	36	0	701497344	63	4133
2026-01-18 12:01:21.83	282.12	24.09	-45.9	-47.3	19.8	0.00e+00	0	36	0	703594496	63	4223
2026-01-18 12:01:22.84	282.41	24.07	-46.1	-47.5	19.7	0.00e+00	0	35	0	705691648	63	4315
2026-01-18 12:01:23.85	282.69	24.05	-46.0	-47.4	19.7	0.00e+00	0	36	0	707788800	63	4287
2026-01-18 12:01:24.86	282.98	24.03	-46.2	-47.6	19.6	0.00e+00	0	36	0	709885952	63	4362
2026-01-18 12:01:25.86	283.26	24.01	-46.3	-47.8	19.4	0.00e+00	0	35	0	710934528	63	4481
2026-01-18 12:01:26.87	283.54	23.99	-46.4	-47.9	19.3	0.00e+00	0	36	0	713031680	63	4541
2026-01-18 12:01:27.88	283.83	23.97	-46.5	-47.9	19.2	0.00e+00	0	36	0	715128832	63	4545
2026-01-18 12:01:28.89	284.11	23.95	-46.5	-48.0	19.3	0.00e+00	0	36	0	717225984	63	4554
2026-01-18 12:01:29.89	284.39	23.93	-46.4	-47.9	19.3	0.00e+00	0	36	0	718274560	63	4524
2026-01-18 12:01:30.90	284.67	23.91	-46.4	-47.9	19.3	0.00e+00	0	36	0	720371712	63	4516
2026-01-18 12:01:31.91	284.96	23.88	-46.2	-47.7	19.5	0.00e+00	0	36	0	722468864	63	4409
2026-01-18 12:01:32.92	285.24	23.86	-46.3	-47.8	19.4	0.00e+00	0	36	0	724566016	63	4460
2026-01-18 12:01:33.92	285.52	23.83	-45.8	-47.1	20.0	0.00e+00	0	36	0	726663168	63	4140
2026-01-18 12:01:34.93	285.80	23.81	-45.7	-47.1	20.1	0.00e+00	0	36	0	728760320	63	4100
2026-01-18 12:01:35.94	286.08	23.78	-45.5	-46.8	20.3	0.00e+00	0	36	0	729808896	62	4206
2026-01-18 12:01:36.95	286.36	23.75	-45.7	-47.0	20.2	0.00e+00	0	36	0	731906048	62	4315
2026-01-18 12:01:37.95	286.63	23.73	-45.9	-47.2	19.9	0.00e+00	0	36	0	734003200	62	4426
2026-01-18 12:01:38.96	286.91	23.70	-46.1	-47.6	19.6	0.00e+00	0	35	0	736100352	62	4603
2026-01-18 12:01:39.97	287.19	23.67	-46.1	-47.5	19.6	0.00e+00	0	35	0	738197504	63	4340
2026-01-18 12:01:40.97	287.47	23.64	-45.8	-47.1	19.9	0.00e+00	0	36	0	739246080	63	4145
2026-01-18 12:01:41.98	287.74	23.61	-45.6	-46.9	20.2	0.00e+00	0	36	0	741343232	63	4016
2026-01-18 12:01:42.99	288.02	23.58	-45.3	-46.5	20.5	0.00e+00	0	36	0	743440384	62	4079
2026-01-18 12:01:43.99	288.30	23.55	-45.4	-46.7	20.4	0.00e+00	0	36	0	745537536	62	4156
2026-01-18 12:01:45.00	288.57	23.51	-45.2	-46.5	20.6	0.00e+00	0	36	0	746586112	62	4058
2026-01-18 12:01:46.01	288.85	23.48	-45.4	-46.7	20.4	0.00e+00	0	36	0	748683264	62	4181
2026-01-18 12:01:47.01	289.12	23.45	-45.6	-46.9	20.2	0.00e+00	0	35	0	750780416	62	4249
2026-01-18 12:01:48.02	289.39	23.41	-45.4	-46.6	20.5	0.00e+00	0	35	0	752877568	62	4131
2026-01-18 12:01:49.03	289.67	23.38	-45.1	-46.3	20.8	0.00e+00	0	36	0	754974720	62	3981
2026-01-18 12:01:50.04	289.94	23.34	-44.9	-46.1	21.0	0.00e+00	0	36	0	757071872	61	4102
2026-01-18 12:01:51.05	290.21	23.31	-44.9	-46.0	21.0	0.00e+00	0	36	0	758120448	61	4097
2026-01-18 12:01:52.05	290.48	23.27	-44.7	-45.9	21.1	0.00e+00	0	36	0	760217600	61	4009
2026-01-18 12:01:53.06	290.75	23.23	-44.8	-46.0	21.0	0.00e+00	0	36	0	762314752	61	4075
2026-01-18 12:01:54.07	291.02	23.20	-45.1	-46.3	20.7	0.00e+00	0	36	0	764411904	61	4232
2026-01-18 12:01:55.07	291.29	23.16	-45.4	-46.7	20.4	0.00e+00	0	36	0	766509056	61	4399
2026-01-18 12:01:56.09	291.56	23.12	-45.6	-46.9	20.2	0.00e+00	0	35	0	767557632	61	4524
2026-01-18 12:01:57.09	291.83	23.08	-46.0	-47.4	19.8	0.00e+00	0	35	0	769654784	62	4525
2026-01-18 12:01:58.10	292.09	23.04	-46.0	-47.3	19.8	0.00e+00	0	36	0	771751936	62	4493
2026-01-18 12:01:59.11	292.36	23.00	-45.9	-47.3	19.9	0.00e+00	0	36	0	773849088	62	4449
2026-01-18 12:02:00.12	292.63	22.96	-45.7	-47.1	20.1	0.00e+00	0	36	0	774897664	62	4355
2026-01-18 12:02:01.12	292.89	22.91	-45.8	-47.1	20.0	0.00e+00	0	36	0	776994816	62	4379
2026-01-18 12:02:02.13	293.16	22.87	-45.7	-47.1	20.0	0.00e+00	0	36	0	779091968	62	4341
2026-01-18 12:02:03.14	293.42	22.83	-45.5	-46.9	20.2	0.00e+00	0	36	0	781189120	62	4243
2026-01-18 12:02:04.15	293.68	22.79	-45.3	-46.6	20.5	0.00e+00	0	36	0	783286272	62	4105
2026-01-18 12:02:05.15	293.94	22.74	-45.3	-46.6	20.5	0.00e+00	0	36	0	785383424	62	4113
2026-01-18 12:02:06.16	294.21	22.70	-44.9	-46.1	20.9	0.00e+00	0	36	0	786432000	61	4145
2026-01-18 12:02:07.17	294.47	22.65	-44.9	-46.2	20.9	0.00e+00	0	35	0	788529152	61	4150
2026-01-18 12:02:08.18	294.73	22.61	-44.4	-45.5	21.4	0.00e+00	0	35	0	790626304	60	4095
2026-01-18 12:02:09.19	294.99	22.56	-44.1	-45.2	21.7	0.00e+00	0	35	0	792723456	60	3930
2026-01-18 12:02:10.19	295.24	22.51	-44.0	-45.1	21.8	0.00e+00	0	36	0	794820608	60	3902
2026-01-18 12:02:11.20	295.50	22.47	-44.3	-45.4	21.8	0.00e+00	0	36	0	795869184	59	4252
2026-01-18 12:02:12.20	295.76	22.42	-44.3	-45.3	21.8	0.00e+00	0	36	0	797966336	59	4242
2026-01-18 12:02:13.21	296.01	22.37	-44.6	-45.7	21.5	0.00e+00	0	36	0	800063488	59	4421
2026-01-18 12:02:14.22	296.27	22.32	-44.5	-45.6	21.3	0.00e+00	0	35	0	802160640	60	4139
2026-01-18 12:02:15.23	296.53	22.27	-44.7	-45.9	21.1	0.00e+00	0	36	0	804257792	60	4265
2026-01-18 12:02:16.24	296.78	22.22	-44.7	-45.9	21.1	0.00e+00	0	35	0	805306368	60	4276
2026-01-18 12:02:17.25	297.03	22.17	-44.8	-45.9	21.1	0.00e+00	0	36	0	807403520	60	4283
2026-01-18 12:02:18.25	297.28	22.12	-44.6	-45.7	21.3	0.00e+00	0	36	0	809500672	60	4179
2026-01-18 12:02:19.26	297.54	22.07	-44.6	-45.8	21.2	0.00e+00	0	36	0	811597824	60	4209
2026-01-18 12:02:20.27	297.79	22.02	-44.6	-45.7	21.2	0.00e+00	0	35	0	813694976	60	4189
2026-01-18 12:02:21.28	298.04	21.97	-44.8	-46.0	21.1	0.00e+00	0	36	0	814743552	60	4296
2026-01-18 12:02:22.29	298.29	21.92	-45.1	-46.3	20.7	0.00e+00	0	36	0	816840704	60	4470
2026-01-18 12:02:23.29	298.53	21.87	-45.1	-46.4	20.6	0.00e+00	0	35	0	818937856	60	4513
2026-01-18 12:02:24.30	298.78	21.81	-45.2	-46.5	20.6	0.00e+00	0	36	0	821035008	61	4313
2026-01-18 12:02:25.31	299.03	21.76	-45.2	-46.5	20.6	0.00e+00	0	36	0	823132160	61	4310
2026-01-18 12:02:26.32	299.27	21.70	-45.1	-46.4	20.7	0.00e+00	0	36	0	824180736	61	4262
2026-01-18 12:02:27.32	299.52	21.65	-45.0	-46.3	20.8	0.00e+00	0	36	0	826277888	61	4194
2026-01-18 12:02:28.33	299.76	21.60	-45.0	-46.2	20.8	0.00e+00	0	36	0	828375040	61	4166
2026-01-18 12:02:29.34	300.00	21.54	-45.2	-46.4	20.6	0.00e+00	0	35	0	830472192	61	4278
2026-01-18 12:02:30.35	300.25	21.49	-45.0	-46.3	20.8	0.00e+00	0	36	0	832569344	61	4198
2026-01-18 12:02:31.35	300.49	21.43	-45.2	-46.4	20.7	0.00e+00	0	36	0	833617920	61	4274
2026-01-18 12:02:32.36	300.73	21.37	-45.4	-46.7	20.4	0.00e+00	0	36	0	835715072	61	4439
2026-01-18 12:02:33.36	300.97	21.32	-45.5	-46.8	20.3	0.00e+00	0	36	0	837812224	61	4460
2026-01-18 12:02:34.37	301.21	21.26	-45.4	-46.7	20.4	0.00e+00	0	36	0	839909376	61	4392
2026-01-18 12:02:35.38	301.44	21.20	-45.3	-46.6	20.5	0.00e+00	0	36	0	842006528	61	4363
2026-01-18 12:02:36.39	301.68	21.14	-45.1	-46.4	20.7	0.00e+00	0	36	0	843055104	61	4246
2026-01-18 12:02:37.39	301.92	21.09	-45.0	-46.2	20.8	0.00e+00	0	36	0	845152256	61	4188
2026-01-18 12:02:38.40	302.15	21.03	-45.2	-46.4	20.6	0.00e+00	0	36	0	847249408	61	4291
2026-01-18 12:02:39.41	302.39	20.97	-45.5	-46.8	20.3	0.00e+00	0	35	0	849346560	61	4451
2026-01-18 12:02:40.42	302.62	20.91	-45.7	-47.1	20.0	0.00e+00	0	36	0	851443712	62	4353
2026-01-18 12:02:41.43	302.85	20.85	-45.8	-47.1	20.0	0.00e+00	0	36	0	852492288	62	4383
2026-01-18 12:02:42.43	303.08	20.79	-45.9	-47.3	19.8	0.00e+00	0	36	0	854589440	62	4474
2026-01-18 12:02:43.44	303.32	20.73	-45.8	-47.2	19.9	0.00e+00	0	36	0	856686592	62	4414
2026-01-18 12:02:44.44	303.54	20.67	-46.2	-47.7	19.6	0.00e+00	0	36	0	858783744	62	4662
2026-01-18 12:02:45.45	303.77	20.61	-46.4	-47.8	19.4	0.00e+00	0	36	0	860880896	63	4484
2026-01-18 12:02:46.46	304.00	20.55	-46.6	-48.1	19.1	0.00e+00	0	36	0	861929472	63	4638
2026-01-18 12:02:47.47	304.23	20.49	-46.5	-48.0	19.2	0.00e+00	0	36	0	864026624	63	4571
2026-01-18 12:02:48.47	304.45	20.43	-46.3	-47.7	19.5	0.00e+00	0	36	0	866123776	63	4415
2026-01-18 12:02:49.48	304.68	20.37	-45.9	-47.3	19.8	0.00e+00	0	36	0	868220928	63	4204
2026-01-18 12:02:50.49	304.91	20.30	-45.7	-47.0	20.1	0.00e+00	0	36	0	870318080	63	4071
2026-01-18 12:02:51.50	305.13	20.24	-45.6	-46.9	20.2	0.00e+00	0	36	0	871366656	63	4050
2026-01-18 12:02:52.51	305.35	20.18	-45.5	-46.8	20.3	0.00e+00	0	36	0	873463808	63	3967
2026-01-18 12:02:53.51	305.57	20.12	-45.7	-47.0	20.1	0.00e+00	0	36	0	875560960	62	4311
2026-01-18 12:02:54.52	305.80	20.05	-45.9	-47.3	19.9	0.00e+00	0	36	0	877658112	62	4443
2026-01-18 12:02:55.53	306.02	19.99	-46.0	-47.4	19.8	0.00e+00	0	36	0	879755264	62	4501
2026-01-18 12:02:56.54	306.24	19.92	-46.1	-47.5	19.6	0.00e+00	0	36	0	880803840	62	4597
2026-01-18 12:02:57.54	306.45	19.86	-46.2	-47.6	19.6	0.00e+00	0	36	0	882900992	63	4356
2026-01-18 12:02:58.55	306.67	19.80	-46.3	-47.7	19.5	0.00e+00	0	35	0	884998144	63	4412
2026-01-18 12:02:59.56	306.89	19.73	-46.2	-47.7	19.5	0.00e+00	0	36	0	887095296	63	4407
2026-01-18 12:03:00.57	307.11	19.67	-46.2	-47.7	19.5	0.00e+00	0	36	0	889192448	63	4405
2026-01-18 12:03:01.58	307.32	19.60	-46.4	-47.9	19.3	0.00e+00	0	36	0	890241024	63	4494
2026-01-18 12:03:02.59	307.54	19.54	-46.6	-48.2	19.1	0.00e+00	0	36	0	892338176	63	4659
2026-01-18 12:03:03.59	307.75	19.47	-46.6	-48.2	18.9	0.00e+00	0	36	0	894435328	64	4426
2026-01-18 12:03:04.60	307.96	19.41	-46.9	-48.6	18.5	0.00e+00	0	36	0	896532480	64	4601
2026-01-18 12:03:05.61	308.17	19.34	-47.0	-48.7	18.5	0.00e+00	0	36	0	898629632	64	4657
2026-01-18 12:03:06.62	308.38	19.28	-46.8	-48.4	18.7	0.00e+00	0	36	0	899678208	64	4519
2026-01-18 12:03:07.63	308.59	19.21	-46.6	-48.2	18.9	0.00e+00	0	36	0	901775360	64	4418
2026-01-18 12:03:08.63	308.80	19.14	-46.7	-48.3	18.8	0.00e+00	0	36	0	903872512	64	4458
2026-01-18 12:03:09.64	309.01	19.08	-46.7	-48.3	18.8	0.00e+00	0	36	0	905969664	64	4491
2026-01-18 12:03:10.65	309.22	19.01	-46.6	-48.2	18.9	0.00e+00	0	36	0	908066816	64	4420
2026-01-18 12:03:11.66	309.42	18.94	-46.9	-48.5	18.6	0.00e+00	0	36	0	909115392	64	4565
2026-01-18 12:03:12.67	309.63	18.88	-46.9	-48.5	18.6	0.00e+00	0	35	0	911212544	64	4590
2026-01-18 12:03:13.67	309.83	18.81	-47.2	-48.9	18.2	0.00e+00	0	36	0	913309696	64	4778
2026-01-18 12:03:14.68	310.03	18.74	-46.8	-48.5	18.6	0.00e+00	0	36	0	915406848	64	4554
2026-01-18 12:03:15.69	310.24	18.67	-46.6	-48.2	18.9	0.00e+00	0	36	0	917504000	64	4429
2026-01-18 12:03:16.70	310.44	18.61	-46.6	-48.2	19.0	0.00e+00	0	36	0	918552576	64	4392
2026-01-18 12:03:17.70	310.64	18.54	-46.3	-47.8	19.2	0.00e+00	0	36	0	920649728	64	4241
2026-01-18 12:03:18.71	310.84	18.47	-46.2	-47.6	19.4	0.00e+00	0	36	0	922746880	64	4135
2026-01-18 12:03:19.72	311.04	18.40	-46.3	-47.8	19.3	0.00e+00	0	36	0	924844032	64	4195
2026-01-18 12:03:20.73	311.24	18.33	-46.4	-47.9	19.2	0.00e+00	0	36	0	926941184	64	4278
2026-01-18 12:03:21.73	311.43	18.27	-46.9	-48.5	18.6	0.00e+00	0	36	0	929038336	64	4579
2026-01-18 12:03:22.74	311.63	18.20	-46.9	-48.5	18.6	0.00e+00	0	36	0	930086912	64	4575
2026-01-18 12:03:23.75	311.83	18.13	-46.9	-48.5	18.6	0.00e+00	0	36	0	932184064	64	4571
2026-01-18 12:03:24.75	312.02	18.06	-46.8	-48.4	18.7	0.00e+00	0	36	0	934281216	64	4515
2026-01-18 12:03:25.77	312.21	17.99	-46.7	-48.3	18.7	0.00e+00	0	36	0	936378368	64	4491
2026-01-18 12:03:26.77	312.41	17.92	-46.5	-48.0	19.0	0.00e+00	0	36	0	937426944	64	4316
2026-01-18 12:03:27.78	312.60	17.85	-46.3	-47.9	19.2	0.00e+00	0	36	0	939524096	64	4244
2026-01-18 12:03:28.79	312.79	17.78	-46.6	-48.1	18.9	0.00e+00	0	36	0	941621248	64	4377
2026-01-18 12:03:29.80	312.98	17.71	-46.3	-47.8	19.2	0.00e+00	0	36	0	943718400	64	4209
2026-01-18 12:03:30.81	313.17	17.64	-46.6	-48.2	18.8	0.00e+00	0	36	0	945815552	64	4402
2026-01-18 12:03:31.81	313.36	17.58	-46.5	-48.1	18.9	0.00e+00	0	36	0	946864128	64	4375
2026-01-18 12:03:32.82	313.55	17.51	-46.5	-48.1	18.9	0.00e+00	0	36	0	948961280	64	4373
2026-01-18 12:03:33.83	313.73	17.44	-46.5	-48.0	18.9	0.00e+00	0	36	0	951058432	64	4317
2026-01-18 12:03:34.84	313.92	17.37	-46.2	-47.7	19.3	0.00e+00	0	36	0	953155584	64	4165
2026-01-18 12:03:35.85	314.11	17.30	-46.0	-47.5	19.5	0.00e+00	0	36	0	955252736	64	4056
2026-01-18 12:03:36.85	314.29	17.23	-46.1	-47.5	19.4	0.00e+00	0	36	0	957349888	64	4093
2026-01-18 12:03:37.86	314.47	17.16	-46.0	-47.5	19.6	0.00e+00	0	36	0	958398464	63	4294
2026-01-18 12:03:38.87	314.66	17.09	-46.1	-47.5	19.5	0.00e+00	0	36	0	960495616	63	4325
2026-01-18 12:03:39.88	314.84	17.01	-46.2	-47.6	19.5	0.00e+00	0	36	0	962592768	63	4380
2026-01-18 12:03:40.89	315.02	16.94	-46.3	-47.8	19.2	0.00e+00	0	36	0	964689920	63	4453
2026-01-18 12:03:41.90	315.20	16.87	-46.4	-47.8	19.2	0.00e+00	0	36	0	965738496	63	4493
2026-01-18 12:03:42.91	315.38	16.80	-46.6	-48.2	18.9	0.00e+00	0	36	0	967835648	63	4686
2026-01-18 12:03:43.91	315.56	16.73	-46.6	-48.2	18.8	0.00e+00	0	36	0	969932800	64	4395
2026-01-18 12:03:44.92	315.74	16.66	-46.4	-47.9	19.0	0.00e+00	0	36	0	972029952	64	4283
2026-01-18 12:03:45.93	315.92	16.59	-46.4	-47.9	19.1	0.00e+00	0	36	0	974127104	64	4265
2026-01-18 12:03:46.94	316.09	16.52	-46.3	-47.8	19.0	0.00e+00	0	36	0	976224256	64	4240
2026-01-18 12:03:47.94	316.27	16.45	-46.6	-48.2	18.8	0.00e+00	0	36	0	977272832	64	4414
2026-01-18 12:03:48.95	316.44	16.38	-47.0	-48.8	18.2	0.00e+00	0	36	0	979369984	64	4713
2026-01-18 12:03:49.96	316.62	16.31	-47.1	-48.8	18.2	0.00e+00	0	36	0	981467136	64	4732
2026-01-18 12:03:50.97	316.79	16.24	-47.5	-49.3	17.7	0.00e+00	0	36	0	983564288	65	4749
2026-01-18 12:03:51.97	316.96	16.17	-47.6	-49.5	17.5	0.00e+00	0	36	0	985661440	65	4859
2026-01-18 12:03:52.98	317.13	16.10	-47.4	-49.3	17.7	0.00e+00	0	36	0	986710016	65	4724
2026-01-18 12:03:53.99	317.30	16.03	-47.4	-49.3	17.7	0.00e+00	0	36	0	988807168	65	4724
2026-01-18 12:03:54.99	317.47	15.96	-47.1	-48.9	18.1	0.00e+00	0	36	0	990904320	65	4505
2026-01-18 12:03:56.00	317.64	15.88	-46.7	-48.3	18.6	0.00e+00	0	36	0	993001472	65	4226
2026-01-18 12:03:57.01	317.81	15.81	-46.3	-47.8	19.0	0.00e+00	0	36	0	994050048	64	4228
2026-01-18 12:03:58.02	317.98	15.74	-46.0	-47.4	19.5	0.00e+00	0	36	0	996147200	63	4276
2026-01-18 12:03:59.02	318.14	15.67	-46.0	-47.5	19.5	0.00e+00	0	36	0	998244352	63	4311
2026-01-18 12:04:00.03	318.31	15.60	-46.2	-47.7	19.3	0.00e+00	0	36	0	1000341504	63	4419
2026-01-18 12:04:01.04	318.48	15.53	-46.2	-47.6	19.3	0.00e+00	0	36	0	1002438656	63	4391
2026-01-18 12:04:02.04	318.64	15.46	-46.5	-48.0	19.0	0.00e+00	0	36	0	1004535808	63	4576
2026-01-18 12:04:03.05	318.80	15.39	-46.5	-48.1	18.9	0.00e+00	0	36	0	1005584384	63	4607
2026-01-18 12:04:04.06	318.97	15.32	-46.5	-48.1	18.9	0.00e+00	0	36	0	1007681536	63	4622
2026-01-18 12:04:05.07	319.13	15.25	-46.3	-47.8	19.2	0.00e+00	0	36	0	1009778688	63	4467
2026-01-18 12:04:06.07	319.29	15.17	-46.1	-47.6	19.4	0.00e+00	0	36	0	1011875840	63	4344
2026-01-18 12:04:07.08	319.45	15.10	-45.9	-47.3	19.6	0.00e+00	0	36	0	1013972992	63	4230
2026-01-18 12:04:08.09	319.61	15.03	-45.7	-47.1	19.8	0.00e+00	0	36	0	1015021568	63	4121
2026-01-18 12:04:09.10	319.77	14.96	-45.6	-46.9	20.0	0.00e+00	0	36	0	1017118720	63	4031
2026-01-18 12:04:10.10	319.93	14.89	-45.5	-46.8	20.1	0.00e+00	0	36	0	1019215872	62	4211
2026-01-18 12:04:11.11	320.09	14.82	-45.7	-47.0	19.9	0.00e+00	0	36	0	1021313024	62	4322
2026-01-18 12:04:12.12	320.25	14.75	-45.9	-47.3	19.6	0.00e+00	0	36	0	1022361600	62	4456
2026-01-18 12:04:13.13	320.40	14.68	-46.2	-47.6	19.3	0.00e+00	0	36	0	1024458752	62	4651
2026-01-18 12:04:14.13	320.56	14.61	-46.5	-48.0	19.0	0.00e+00	0	36	0	1026555904	63	4580
2026-01-18 12:04:15.14	320.71	14.54	-46.6	-48.2	18.6	0.00e+00	0	36	0	1028653056	64	4421
2026-01-18 12:04:16.15	320.87	14.46	-46.6	-48.2	18.7	0.00e+00	0	36	0	1030750208	64	4404
2026-01-18 12:04:17.15	321.02	14.39	-46.5	-48.0	18.8	0.00e+00	0	36	0	1032847360	64	4340
2026-01-18 12:04:18.16	321.17	14.32	-46.3	-47.8	19.0	0.00e+00	0	36	0	1033895936	64	4238
2026-01-18 12:04:19.17	321.32	14.25	-46.3	-47.8	18.9	0.00e+00	0	36	0	1035993088	64	4242
2026-01-18 12:04:20.18	321.48	14.18	-46.3	-47.9	18.9	0.00e+00	0	36	0	1038090240	64	4272
2026-01-18 12:04:21.19	321.63	14.11	-46.6	-48.2	18.6	0.00e+00	0	36	0	1040187392	64	4440
2026-01-18 12:04:22.19	321.78	14.04	-46.7	-48.3	18.5	0.00e+00	0	36	0	1042284544	64	4476
2026-01-18 12:04:23.20	321.93	13.97	-46.8	-48.5	18.4	0.00e+00	0	36	0	1043333120	64	4552
2026-01-18 12:04:24.21	322.08	13.90	-47.1	-48.8	18.0	0.00e+00	0	36	0	1045430272	64	4756
2026-01-18 12:04:25.22	322.22	13.83	-47.3	-49.2	17.6	0.00e+00	0	36	0	1047527424	65	4689
2026-01-18 12:04:26.22	322.37	13.76	-47.3	-49.2	17.7	0.00e+00	0	36	0	1049624576	65	4665
2026-01-18 12:04:27.23	322.52	13.69	-47.3	-49.2	17.7	0.00e+00	0	36	0	1051721728	65	4660
2026-01-18 12:04:28.24	322.66	13.62	-47.1	-48.8	18.0	0.00e+00	0	36	0	1052770304	65	4487
2026-01-18 12:04:29.25	322.81	13.54	-46.8	-48.6	18.2	0.00e+00	0	36	0	1054867456	65	4347
2026-01-18 12:04:30.26	322.95	13.47	-46.8	-48.5	18.3	0.00e+00	0	36	0	1056964608	65	4306
2026-01-18 12:04:31.26	323.10	13.40	-46.5	-48.1	18.6	0.00e+00	0	36	0	1059061760	64	4383
2026-01-18 12:04:32.27	323.24	13.33	-46.5	-48.1	18.6	0.00e+00	0	36	0	1061158912	64	4372
2026-01-18 12:04:33.28	323.38	13.26	-46.5	-48.1	18.7	0.00e+00	0	36	0	1062207488	64	4355
2026-01-18 12:04:34.28	323.52	13.19	-46.4	-48.0	18.7	0.00e+00	0	36	0	1064304640	64	4329
2026-01-18 12:04:35.29	323.67	13.12	-46.6	-48.3	18.5	0.00e+00	0	36	0	1066401792	64	4451
2026-01-18 12:04:36.30	323.81	13.05	-46.8	-48.5	18.3	0.00e+00	0	36	0	1068498944	64	4553
2026-01-18 12:04:37.31	323.95	12.98	-46.9	-48.7	18.1	0.00e+00	0	36	0	1070596096	64	4655
2026-01-18 12:04:38.32	324.09	12.91	-46.9	-48.7	18.1	0.00e+00	0	36	0	1071644672	64	4673
2026-01-18 12:04:39.33	324.23	12.84	-46.9	-48.6	18.1	0.00e+00	0	36	0	1073741824	64	4638
2026-01-18 12:04:40.34	324.36	12.77	-46.8	-48.5	18.2	0.00e+00	0	36	0	1075838976	64	4596
2026-01-18 12:04:41.35	324.50	12.70	-46.7	-48.4	18.3	0.00e+00	0	36	0	1077936128	64	4518
2026-01-18 12:04:42.35	324.64	12.63	-46.7	-48.4	18.3	0.00e+00	0	36	0	1080033280	64	4522
2026-01-18 12:04:43.36	324.77	12.56	-46.6	-48.3	18.4	0.00e+00	0	36	0	1081081856	64	4469
2026-01-18 12:04:44.37	324.91	12.49	-46.7	-48.3	18.4	0.00e+00	0	36	0	1083179008	64	4489
2026-01-18 12:04:45.38	325.05	12.42	-46.6	-48.3	18.4	0.00e+00	0	36	0	1085276160	64	4487
2026-01-18 12:04:46.38	325.18	12.35	-46.8	-48.5	18.2	0.00e+00	0	36	0	1087373312	64	4571
2026-01-18 12:04:47.39	325.31	12.28	-47.1	-48.9	17.8	0.00e+00	0	36	0	1089470464	64	4787
2026-01-18 12:04:48.40	325.45	12.21	-47.4	-49.3	17.4	0.00e+00	0	36	0	1090519040	65	4749
2026-01-18 12:04:49.41	325.58	12.14	-47.4	-49.4	17.4	0.00e+00	0	36	0	1092616192	65	4778
2026-01-18 12:04:50.42	325.71	12.07	-47.6	-49.6	17.2	0.00e+00	0	36	0	1094713344	65	4876
2026-01-18 12:04:51.43	325.84	12.00	-47.5	-49.5	17.3	0.00e+00	0	36	0	1096810496	65	4820
2026-01-18 12:04:52.43	325.97	11.93	-47.4	-49.4	17.4	0.00e+00	0	36	0	1098907648	65	4790
2026-01-18 12:04:53.44	326.10	11.87	-47.1	-49.0	17.8	0.00e+00	0	36	0	1101004800	65	4573
2026-01-18 12:04:54.45	326.23	11.80	-47.1	-48.9	17.8	0.00e+00	0	36	0	1102053376	65	4528
2026-01-18 12:04:55.45	326.36	11.73	-47.0	-48.8	17.9	0.00e+00	0	36	0	1104150528	65	4475
2026-01-18 12:04:56.46	326.49	11.66	-46.9	-48.7	18.0	0.00e+00	0	36	0	1106247680	65	4410
2026-01-18 12:04:57.47	326.62	11.59	-46.9	-48.6	18.0	0.00e+00	0	36	0	1108344832	65	4391
2026-01-18 12:04:58.48	326.75	11.52	-46.6	-48.2	18.4	0.00e+00	0	36	0	1109393408	65	4182
2026-01-18 12:04:59.49	326.87	11.45	-46.5	-48.1	18.5	0.00e+00	0	36	0	1111490560	64	4368
2026-01-18 12:05:00.49	327.00	11.38	-46.3	-47.9	18.8	0.00e+00	0	36	0	1113587712	64	4244
2026-01-18 12:05:01.50	327.12	11.31	-46.4	-48.0	18.7	0.00e+00	0	36	0	1115684864	64	4308
2026-01-18 12:05:02.51	327.25	11.25	-46.3	-48.0	18.7	0.00e+00	0	36	0	1117782016	64	4297
2026-01-18 12:05:03.52	327.37	11.18	-46.4	-48.0	18.6	0.00e+00	0	36	0	1118830592	64	4338
2026-01-18 12:05:04.53	327.50	11.11	-46.6	-48.3	18.3	0.00e+00	0	36	0	1120927744	64	4492
2026-01-18 12:05:05.54	327.62	11.04	-46.5	-48.1	18.5	0.00e+00	0	36	0	1123024896	64	4388
2026-01-18 12:05:06.55	327.75	10.97	-46.6	-48.3	18.3	0.00e+00	0	36	0	1125122048	64	4488
2026-01-18 12:05:07.55	327.87	10.90	-46.6	-48.3	18.3	0.00e+00	0	36	0	1127219200	64	4475
2026-01-18 12:05:08.56	327.99	10.84	-46.6	-48.3	18.3	0.00e+00	0	36	0	1129316352	64	4454
2026-01-18 12:05:09.57	328.11	10.77	-46.7	-48.4	18.3	0.00e+00	0	36	0	1130364928	64	4507
2026-01-18 12:05:10.58	328.23	10.70	-46.5	-48.2	18.5	0.00e+00	0	36	0	1132462080	64	4412
2026-01-18 12:05:11.59	328.35	10.63	-46.5	-48.1	18.5	0.00e+00	0	36	0	1134559232	64	4380
2026-01-18 12:05:12.60	328.47	10.56	-46.6	-48.3	18.3	0.00e+00	0	36	0	1136656384	64	4450
2026-01-18 12:05:13.61	328.59	10.49	-46.5	-48.2	18.3	0.00e+00	0	36	0	1137704960	64	4426
2026-01-18 12:05:14.61	328.71	10.43	-46.8	-48.5	18.1	0.00e+00	0	36	0	1139802112	64	4584
2026-01-18 12:05:15.62	328.83	10.36	-46.8	-48.6	18.0	0.00e+00	0	36	0	1141899264	64	4631
2026-01-18 12:05:16.63	328.94	10.29	-47.1	-48.9	17.7	0.00e+00	0	36	0	1143996416	64	4784
2026-01-18 12:05:17.64	329.06	10.22	-47.2	-49.1	17.5	0.00e+00	0	36	0	1146093568	64	4894
2026-01-18 12:05:18.65	329.18	10.16	-47.3	-49.2	17.4	0.00e+00	0	36	0	1148190720	65	4672
2026-01-18 12:05:19.66	329.29	10.09	-47.5	-49.5	17.2	0.00e+00	0	36	0	1149239296	65	4826
2026-01-18 12:05:20.67	329.41	10.02	-47.5	-49.6	17.1	0.00e+00	0	36	0	1151336448	65	4875
2026-01-18 12:05:21.67	329.52	9.96	-47.4	-49.4	17.2	0.00e+00	0	36	0	1153433600	65	4809
2026-01-18 12:05:22.68	329.64	9.89	-47.4	-49.3	17.3	0.00e+00	0	36	0	1155530752	65	4748
2026-01-18 12:05:23.69	329.75	9.82	-47.3	-49.2	17.4	0.00e+00	0	36	0	1157627904	65	4695
2026-01-18 12:05:24.70	329.87	9.75	-47.1	-49.0	17.6	0.00e+00	0	36	0	1158676480	65	4579
2026-01-18 12:05:25.71	329.98	9.69	-47.0	-48.8	17.7	0.00e+00	0	36	0	1160773632	65	4469
2026-01-18 12:05:26.71	330.09	9.62	-46.9	-48.7	17.8	0.00e+00	0	36	0	1162870784	65	4417
2026-01-18 12:05:27.72	330.20	9.56	-46.9	-48.8	17.8	0.00e+00	0	36	0	1164967936	65	4448
2026-01-18 12:05:28.73	330.31	9.49	-47.0	-48.8	17.7	0.00e+00	0	36	0	1167065088	65	4468
2026-01-18 12:05:29.74	330.43	9.42	-46.9	-48.7	17.8	0.00e+00	0	36	0	1168113664	65	4423
2026-01-18 12:05:30.75	330.54	9.36	-47.1	-49.0	17.6	0.00e+00	0	36	0	1170210816	65	4549
2026-01-18 12:05:31.75	330.65	9.29	-47.1	-49.0	17.6	0.00e+00	0	36	0	1172307968	65	4547
2026-01-18 12:05:32.76	330.76	9.22	-47.1	-49.0	17.5	0.00e+00	0	36	0	1174405120	65	4590
2026-01-18 12:05:33.77	330.86	9.16	-47.4	-49.4	17.2	0.00e+00	0	36	0	1176502272	65	4766
2026-01-18 12:05:34.78	330.97	9.09	-47.4	-49.4	17.2	0.00e+00	0	36	0	1177550848	65	4782
2026-01-18 12:05:35.78	331.08	9.03	-47.5	-49.6	17.0	0.00e+00	0	36	0	1179648000	65	4883
2026-01-18 12:05:36.79	331.19	8.96	-47.5	-49.6	17.0	0.00e+00	0	36	0	1181745152	65	4877
2026-01-18 12:05:37.80	331.30	8.89	-47.6	-49.7	16.8	0.00e+00	0	36	0	1183842304	65	4982
2026-01-18 12:05:38.81	331.40	8.83	-47.7	-49.8	16.7	0.00e+00	0	36	0	1185939456	65	5018
2026-01-18 12:05:39.82	331.51	8.76	-47.7	-49.9	16.7	0.00e+00	0	36	0	1186988032	66	4772
2026-01-18 12:05:40.83	331.62	8.70	-47.8	-50.0	16.6	0.00e+00	0	36	0	1189085184	66	4821
2026-01-18 12:05:41.83	331.72	8.63	-47.7	-49.9	16.7	0.00e+00	0	36	0	1191182336	66	4767
2026-01-18 12:05:42.84	331.83	8.57	-47.6	-49.7	16.8	0.00e+00	0	36	0	1193279488	66	4671
2026-01-18 12:05:43.85	331.93	8.50	-47.4	-49.4	17.1	0.00e+00	0	36	0	1195376640	66	4509
2026-01-18 12:05:44.86	332.03	8.44	-47.3	-49.3	17.2	0.00e+00	0	36	0	1196425216	66	4472
2026-01-18 12:05:45.87	332.14	8.37	-47.4	-49.5	17.0	0.00e+00	0	36	0	1198522368	66	4557
2026-01-18 12:05:46.88	332.24	8.31	-47.3	-49.2	17.2	0.00e+00	0	36	0	1200619520	66	4434
2026-01-18 12:05:47.88	332.34	8.24	-47.1	-49.0	17.4	0.00e+00	0	36	0	1202716672	66	4340
2026-01-18 12:05:48.89	332.45	8.18	-47.1	-49.0	17.4	0.00e+00	0	36	0	1204813824	66	4325
2026-01-18 12:05:49.90	332.55	8.11	-47.1	-49.1	17.4	0.00e+00	0	36	0	1205862400	66	4348
2026-01-18 12:05:50.91	332.65	8.05	-47.1	-48.9	17.5	0.00e+00	0	36	0	1207959552	66	4282
2026-01-18 12:05:51.92	332.75	7.98	-47.0	-48.9	17.6	0.00e+00	0	36	0	1210056704	66	4244
2026-01-18 12:05:52.93	332.85	7.92	-47.1	-49.0	17.4	0.00e+00	0	36	0	1212153856	65	4577
2026-01-18 12:05:53.93	332.95	7.86	-47.3	-49.3	17.1	0.00e+00	0	36	0	1214251008	65	4731
2026-01-18 12:05:54.94	333.05	7.79	-47.1	-49.1	17.4	0.00e+00	0	36	0	1215299584	65	4605
2026-01-18 12:05:55.95	333.15	7.73	-47.2	-49.1	17.3	0.00e+00	0	36	0	1217396736	65	4625
2026-01-18 12:05:56.96	333.25	7.66	-47.5	-49.6	16.9	0.00e+00	0	36	0	1219493888	65	4884
2026-01-18 12:05:57.97	333.35	7.60	-47.4	-49.5	16.9	0.00e+00	0	36	0	1221591040	65	4822
2026-01-18 12:05:58.97	333.45	7.54	-47.6	-49.8	16.7	0.00e+00	0	36	0	1223688192	65	5021
2026-01-18 12:05:59.98	333.54	7.47	-47.6	-49.8	16.6	0.00e+00	0	36	0	1224736768	65	5002
