passes_logs/2026/01/18/R3.2S_Murmansk/R3.2S_Murmansk__20260118_222028_KANOPUS-V_5_rec.log

#Pass ID: 20260118_222028_KANOPUS-V 5
#Satellite: KANOPUS-V 5
#Configuration: KANOPUS-V_8320
#almurnet v.1.7.20251203
#Start time: 2026-01-18 22:20:29

#Version: 2.2.20231116
#Station: R3.2S_Murmansk
#Location: 33.079688 lon 68.888172 lat
#TLE: 1 43876U 18111A   26018.65182262  .00003158  00000+0  13545-3 0  9996
#TLE: 2 43876  97.3687 287.0998 0001777  87.4650 272.6790 15.23458333392021

#Time	Az	El	Level	Level2	SNR	BER	BlckErr	Temp	State	Recorded	gain1	gain2
2026-01-18 22:20:29.14	20.74	2.02	-52.9	-61.7	3.8	7.44e-01	0	35	0	0	77	9905
2026-01-18 22:20:30.15	20.75	2.09	-52.9	-61.8	3.8	7.45e-01	0	35	104	0	76	10542
2026-01-18 22:20:31.16	20.75	2.16	-52.9	-61.8	3.8	7.45e-01	0	35	104	0	76	10534
2026-01-18 22:20:32.17	20.75	2.23	-52.9	-61.8	3.8	7.45e-01	0	35	104	0	76	10544
2026-01-18 22:20:33.18	20.75	2.30	-52.9	-61.7	3.8	7.47e-01	0	35	104	0	76	10495
2026-01-18 22:20:34.19	20.75	2.37	-52.9	-61.7	3.8	7.46e-01	0	35	104	0	76	10516
2026-01-18 22:20:35.19	20.75	2.44	-52.9	-61.7	3.8	7.45e-01	0	35	104	0	76	10476
2026-01-18 22:20:36.20	20.75	2.51	-52.9	-61.8	3.8	7.44e-01	0	35	104	0	76	10535
2026-01-18 22:20:37.21	20.75	2.59	-52.9	-61.7	3.8	7.45e-01	0	35	104	0	76	10487
2026-01-18 22:20:38.22	20.75	2.66	-52.9	-61.7	3.8	7.44e-01	0	35	104	0	76	10483
2026-01-18 22:20:39.23	20.75	2.73	-52.9	-61.7	3.8	7.44e-01	0	35	104	0	76	10454
2026-01-18 22:20:40.24	20.75	2.81	-52.9	-61.7	3.8	7.46e-01	0	35	104	0	76	10445
2026-01-18 22:20:41.25	20.75	2.88	-52.9	-61.7	3.8	7.45e-01	0	35	104	0	76	10505
2026-01-18 22:20:42.25	20.76	2.95	-52.9	-61.7	3.8	7.45e-01	0	35	104	0	76	10515
2026-01-18 22:20:43.26	20.76	3.03	-52.9	-61.7	3.8	7.45e-01	0	35	104	0	76	10525
2026-01-18 22:20:44.27	20.76	3.10	-52.9	-61.7	3.8	7.45e-01	0	35	104	0	76	10467
2026-01-18 22:20:45.28	20.76	3.17	-52.9	-61.7	3.8	7.45e-01	0	35	104	0	76	10432
2026-01-18 22:20:46.29	20.76	3.25	-52.9	-61.8	3.8	7.46e-01	0	35	104	0	76	10537
2026-01-18 22:20:47.30	20.76	3.32	-52.9	-61.7	3.8	7.45e-01	0	35	104	0	76	10501
2026-01-18 22:20:48.31	20.76	3.40	-52.9	-61.7	3.8	7.46e-01	0	35	104	0	76	10503
2026-01-18 22:20:49.32	20.76	3.47	-52.9	-61.7	3.8	7.46e-01	0	35	104	0	76	10518
2026-01-18 22:20:50.32	20.76	3.55	-52.9	-61.7	3.8	7.44e-01	0	35	104	0	76	10517
2026-01-18 22:20:51.33	20.76	3.62	-52.9	-61.7	3.8	7.46e-01	0	35	104	0	76	10506
2026-01-18 22:20:52.34	20.76	3.70	-52.9	-61.7	3.8	7.45e-01	0	35	104	0	76	10476
2026-01-18 22:20:53.34	20.76	3.78	-52.9	-61.7	3.8	7.45e-01	0	35	104	0	76	10483
2026-01-18 22:20:54.35	20.76	3.85	-52.9	-61.7	3.8	7.44e-01	0	35	104	0	76	10490
2026-01-18 22:20:55.36	20.76	3.93	-52.9	-61.7	3.8	7.46e-01	0	35	104	0	76	10490
2026-01-18 22:20:56.37	20.76	4.01	-52.9	-61.7	3.8	7.45e-01	0	35	104	0	76	10484
2026-01-18 22:20:57.37	20.76	4.08	-52.9	-61.7	3.8	7.45e-01	0	35	104	0	76	10495
2026-01-18 22:20:58.38	20.76	4.16	-52.9	-61.7	3.8	7.46e-01	0	35	104	0	76	10517
2026-01-18 22:20:59.39	20.76	4.24	-52.9	-61.7	3.8	7.46e-01	0	35	104	0	76	10488
2026-01-18 22:21:00.40	20.76	4.32	-52.9	-61.7	3.8	7.45e-01	0	36	104	0	76	10479
2026-01-18 22:21:01.41	20.77	4.40	-52.9	-61.7	3.8	7.45e-01	0	36	104	0	76	10484
2026-01-18 22:21:02.42	20.77	4.48	-52.9	-61.7	3.8	7.45e-01	0	35	104	0	76	10465
2026-01-18 22:21:03.43	20.77	4.56	-52.9	-61.7	3.8	7.45e-01	0	36	104	0	76	10497
2026-01-18 22:21:04.43	20.77	4.64	-52.9	-61.7	3.8	7.46e-01	0	35	104	0	76	10490
2026-01-18 22:21:05.44	20.77	4.72	-52.9	-61.7	3.8	7.45e-01	0	36	104	0	76	10492
2026-01-18 22:21:06.45	20.77	4.80	-52.9	-61.7	3.8	7.45e-01	0	36	104	0	76	10498
2026-01-18 22:21:07.46	20.77	4.88	-52.9	-61.7	3.8	7.45e-01	0	36	104	0	76	10487
2026-01-18 22:21:08.47	20.77	4.96	-52.9	-61.7	3.8	7.47e-01	0	36	104	0	76	10483
2026-01-18 22:21:09.48	20.77	5.04	-52.9	-61.7	3.8	7.46e-01	0	36	104	0	76	10489
2026-01-18 22:21:10.48	20.77	5.12	-52.9	-61.7	3.8	7.46e-01	0	36	104	0	76	10530
2026-01-18 22:21:11.49	20.77	5.20	-52.9	-61.7	3.8	7.45e-01	0	36	104	0	76	10507
2026-01-18 22:21:12.50	20.77	5.29	-53.0	-61.8	3.8	7.45e-01	0	36	104	0	76	10614
2026-01-18 22:21:13.51	20.77	5.37	-52.9	-61.8	3.8	7.45e-01	0	36	104	0	76	10572
2026-01-18 22:21:14.52	20.77	5.45	-52.9	-61.7	3.8	7.44e-01	0	36	104	0	76	10510
2026-01-18 22:21:15.52	20.77	5.53	-52.9	-61.8	3.8	7.45e-01	0	36	104	0	76	10569
2026-01-18 22:21:16.53	20.77	5.62	-53.0	-61.8	3.8	7.45e-01	0	36	104	0	76	10621
2026-01-18 22:21:17.53	20.77	5.70	-53.0	-61.8	3.8	7.45e-01	0	36	104	0	76	10580
2026-01-18 22:21:18.54	20.76	5.79	-52.9	-61.8	3.8	7.44e-01	0	36	104	0	76	10580
2026-01-18 22:21:19.55	20.76	5.87	-53.0	-61.8	3.8	7.45e-01	0	36	104	0	76	10635
2026-01-18 22:21:20.56	20.76	5.96	-53.1	-61.9	3.8	7.44e-01	0	36	104	0	76	10713
2026-01-18 22:21:21.57	20.76	6.04	-53.0	-61.8	3.8	7.44e-01	0	36	104	0	76	10608
2026-01-18 22:21:22.58	20.76	6.13	-53.0	-61.8	3.8	7.46e-01	0	36	104	0	76	10582
2026-01-18 22:21:23.58	20.76	6.21	-53.0	-61.8	3.8	7.45e-01	0	36	104	0	76	10647
2026-01-18 22:21:24.59	20.76	6.30	-53.1	-61.9	3.8	7.47e-01	0	36	104	0	76	10769
2026-01-18 22:21:25.60	20.76	6.39	-53.0	-61.9	3.8	7.46e-01	0	36	104	0	76	10668
2026-01-18 22:21:26.61	20.76	6.48	-53.0	-61.9	3.8	7.44e-01	0	36	104	0	76	10688
2026-01-18 22:21:27.61	20.76	6.56	-53.1	-61.9	3.8	7.45e-01	0	36	104	0	76	10697
2026-01-18 22:21:28.62	20.76	6.65	-53.1	-62.0	3.8	7.43e-01	0	36	104	0	76	10799
2026-01-18 22:21:29.63	20.76	6.74	-53.1	-61.9	3.8	7.46e-01	0	36	104	0	76	10763
2026-01-18 22:21:30.64	20.76	6.83	-53.1	-61.9	3.8	7.46e-01	0	36	104	0	76	10686
2026-01-18 22:21:31.65	20.76	6.92	-53.1	-61.9	3.8	7.44e-01	0	36	104	0	76	10739
2026-01-18 22:21:32.65	20.76	7.01	-53.2	-62.1	3.8	7.45e-01	0	36	104	0	76	10906
2026-01-18 22:21:33.66	20.76	7.10	-53.1	-62.0	3.8	7.45e-01	0	36	104	0	77	10192
2026-01-18 22:21:34.67	20.76	7.19	-53.1	-62.0	3.8	7.44e-01	0	36	104	0	77	10190
2026-01-18 22:21:35.68	20.75	7.28	-53.2	-62.0	3.8	7.45e-01	0	36	104	0	77	10240
2026-01-18 22:21:36.68	20.75	7.37	-53.3	-62.1	3.8	7.45e-01	0	36	104	0	77	10361
2026-01-18 22:21:37.69	20.75	7.46	-53.2	-62.0	3.8	7.43e-01	0	36	104	0	77	10245
2026-01-18 22:21:38.70	20.75	7.56	-53.2	-62.0	3.8	7.45e-01	0	36	104	0	77	10243
2026-01-18 22:21:39.71	20.75	7.65	-53.2	-62.0	3.8	7.44e-01	0	36	104	0	77	10287
2026-01-18 22:21:40.71	20.75	7.74	-53.3	-62.1	3.8	7.47e-01	0	36	104	0	77	10372
2026-01-18 22:21:41.72	20.75	7.84	-53.2	-62.0	3.8	7.45e-01	0	36	104	0	77	10287
2026-01-18 22:21:42.73	20.75	7.93	-53.2	-62.1	3.8	7.45e-01	0	36	104	0	77	10314
2026-01-18 22:21:43.74	20.75	8.03	-53.3	-62.1	3.8	7.44e-01	0	36	104	0	77	10356
2026-01-18 22:21:44.75	20.74	8.12	-53.4	-62.2	3.8	7.45e-01	0	36	104	0	77	10511
2026-01-18 22:21:45.76	20.74	8.22	-53.2	-62.1	3.8	7.45e-01	0	36	104	0	77	10323
2026-01-18 22:21:46.77	20.74	8.32	-53.3	-62.1	3.8	7.45e-01	0	36	104	0	77	10346
2026-01-18 22:21:47.77	20.74	8.41	-53.3	-62.1	3.8	7.46e-01	0	36	104	0	77	10396
2026-01-18 22:21:48.78	20.74	8.51	-53.4	-62.2	3.8	7.45e-01	0	36	104	0	77	10517
2026-01-18 22:21:49.79	20.74	8.61	-53.3	-62.1	3.8	7.47e-01	0	36	104	0	77	10408
2026-01-18 22:21:50.80	20.74	8.71	-53.3	-62.2	3.8	7.45e-01	0	36	104	0	77	10420
2026-01-18 22:21:51.81	20.73	8.80	-53.4	-62.2	3.8	7.46e-01	0	36	104	0	77	10491
2026-01-18 22:21:52.81	20.73	8.90	-53.4	-62.3	3.8	7.44e-01	0	36	104	0	77	10563
2026-01-18 22:21:53.82	20.73	9.00	-53.3	-62.2	3.8	7.45e-01	0	36	104	0	77	10440
2026-01-18 22:21:54.83	20.73	9.10	-53.4	-62.2	3.8	7.45e-01	0	36	104	0	77	10507
2026-01-18 22:21:55.84	20.73	9.21	-53.4	-62.2	3.8	7.46e-01	0	36	104	0	77	10494
2026-01-18 22:21:56.85	20.73	9.31	-53.5	-62.3	3.8	7.44e-01	0	36	104	0	77	10617
2026-01-18 22:21:57.85	20.72	9.41	-53.4	-62.2	3.8	7.44e-01	0	36	104	0	77	10481
2026-01-18 22:21:58.86	20.72	9.51	-53.4	-62.2	3.8	7.44e-01	0	36	104	0	77	10515
2026-01-18 22:21:59.87	20.72	9.62	-53.4	-62.3	3.8	7.44e-01	0	36	104	0	77	10566
2026-01-18 22:22:00.87	20.72	9.72	-53.5	-62.4	3.8	7.45e-01	0	36	104	0	77	10670
2026-01-18 22:22:01.88	20.72	9.82	-53.4	-62.3	3.8	7.46e-01	0	37	104	0	77	10558
2026-01-18 22:22:02.89	20.71	9.93	-53.5	-62.3	3.8	7.45e-01	0	36	104	0	77	10579
2026-01-18 22:22:03.90	20.71	10.03	-53.5	-62.3	3.8	7.47e-01	0	36	104	0	77	10643
2026-01-18 22:22:04.91	20.71	10.14	-53.5	-62.4	3.8	7.45e-01	0	36	104	0	77	10733
2026-01-18 22:22:05.91	20.71	10.25	-53.5	-62.3	3.8	7.43e-01	0	36	104	0	77	10593
2026-01-18 22:22:06.92	20.70	10.35	-53.5	-62.3	3.8	7.45e-01	0	36	104	0	77	10606
2026-01-18 22:22:07.93	20.70	10.46	-53.5	-62.3	3.8	7.43e-01	0	36	104	0	77	10651
2026-01-18 22:22:08.94	20.70	10.57	-53.6	-62.4	3.8	7.44e-01	0	36	104	0	77	10724
2026-01-18 22:22:09.95	20.70	10.68	-53.5	-62.3	3.8	7.47e-01	0	36	104	0	77	10603
2026-01-18 22:22:10.95	20.69	10.79	-53.5	-62.4	3.8	7.46e-01	0	36	104	0	77	10660
2026-01-18 22:22:11.96	20.69	10.90	-53.6	-62.4	3.8	7.45e-01	0	37	104	0	77	10723
2026-01-18 22:22:12.97	20.69	11.01	-53.6	-62.5	3.8	7.45e-01	0	37	104	0	77	10781
2026-01-18 22:22:13.97	20.68	11.12	-53.5	-62.4	3.8	7.44e-01	0	36	104	0	77	10678
2026-01-18 22:22:14.98	20.68	11.24	-53.6	-62.4	3.8	7.43e-01	0	36	104	0	77	10700
2026-01-18 22:22:15.99	20.68	11.35	-53.6	-62.4	3.8	7.45e-01	0	36	104	0	77	10718
2026-01-18 22:22:17.00	20.68	11.47	-53.6	-62.5	3.8	7.46e-01	0	36	104	0	77	10814
2026-01-18 22:22:18.01	20.67	11.58	-53.6	-62.4	3.8	7.44e-01	0	36	104	0	77	10695
2026-01-18 22:22:19.01	20.67	11.70	-53.6	-62.4	3.8	7.45e-01	0	36	104	0	77	10765
2026-01-18 22:22:20.02	20.67	11.81	-53.6	-62.4	3.8	7.44e-01	0	36	104	0	77	10736
2026-01-18 22:22:21.03	20.66	11.93	-53.6	-62.5	3.8	7.45e-01	0	37	104	0	77	10799
2026-01-18 22:22:22.04	20.66	12.05	-53.6	-62.4	3.8	7.46e-01	0	36	104	0	77	10749
2026-01-18 22:22:23.05	20.66	12.17	-53.6	-62.4	3.8	7.44e-01	0	37	104	0	77	10758
2026-01-18 22:22:24.05	20.65	12.29	-53.6	-62.4	3.8	7.46e-01	0	36	104	0	77	10735
2026-01-18 22:22:25.06	20.65	12.41	-53.7	-62.5	3.8	7.45e-01	0	36	104	0	77	10833
2026-01-18 22:22:26.07	20.64	12.53	-53.6	-62.4	3.8	7.46e-01	0	37	104	0	77	10774
2026-01-18 22:22:27.08	20.64	12.65	-53.6	-62.4	3.8	7.45e-01	0	37	104	0	77	10769
2026-01-18 22:22:28.09	20.64	12.77	-53.6	-62.5	3.8	7.45e-01	0	36	104	0	77	10779
2026-01-18 22:22:29.09	20.63	12.89	-53.7	-62.5	3.8	7.46e-01	0	37	104	0	77	10848
2026-01-18 22:22:30.10	20.63	13.02	-53.6	-62.5	3.8	7.44e-01	0	36	104	0	77	10787
2026-01-18 22:22:31.11	20.62	13.14	-53.6	-62.5	3.8	7.45e-01	0	37	104	0	77	10779
2026-01-18 22:22:32.12	20.62	13.27	-53.7	-62.5	3.8	7.43e-01	0	37	104	0	77	10879
2026-01-18 22:22:33.13	20.62	13.40	-53.7	-62.6	3.8	7.45e-01	0	37	104	0	78	10314
2026-01-18 22:22:34.13	20.61	13.52	-53.7	-62.5	3.8	7.44e-01	0	36	104	0	78	10242
2026-01-18 22:22:35.14	20.61	13.65	-53.7	-62.6	3.8	7.46e-01	0	37	104	0	78	10322
2026-01-18 22:22:36.15	20.60	13.78	-53.7	-62.6	3.8	7.45e-01	0	37	104	0	78	10312
2026-01-18 22:22:37.15	20.60	13.91	-53.8	-62.6	3.8	7.46e-01	0	37	104	0	78	10350
2026-01-18 22:22:38.16	20.59	14.04	-53.7	-62.5	3.8	7.46e-01	0	37	104	0	78	10265
2026-01-18 22:22:39.17	20.59	14.18	-53.7	-62.6	3.8	7.44e-01	0	37	104	0	78	10315
2026-01-18 22:22:40.18	20.58	14.31	-53.7	-62.6	3.8	7.45e-01	0	36	104	0	78	10329
2026-01-18 22:22:41.19	20.58	14.44	-53.8	-62.6	3.8	7.45e-01	0	36	104	0	78	10409
2026-01-18 22:22:42.19	20.57	14.58	-53.7	-62.6	3.8	7.46e-01	0	36	104	0	78	10308
2026-01-18 22:22:43.20	20.57	14.71	-53.8	-62.6	3.8	7.45e-01	0	37	104	0	78	10366
2026-01-18 22:22:44.21	20.56	14.85	-53.8	-62.6	3.8	7.47e-01	0	37	104	0	78	10408
2026-01-18 22:22:45.22	20.56	14.99	-53.8	-62.7	3.8	7.44e-01	0	36	104	0	78	10423
2026-01-18 22:22:46.23	20.55	15.13	-53.8	-62.6	3.8	7.44e-01	0	36	104	0	78	10363
2026-01-18 22:22:47.23	20.54	15.27	-53.8	-62.7	3.8	7.44e-01	0	36	104	0	78	10418
2026-01-18 22:22:48.24	20.54	15.41	-53.8	-62.6	3.8	7.45e-01	0	36	104	0	78	10359
2026-01-18 22:22:49.25	20.53	15.55	-53.9	-62.7	3.8	7.46e-01	0	36	104	0	78	10463
2026-01-18 22:22:50.25	20.53	15.70	-53.8	-62.6	3.8	7.45e-01	0	36	104	0	78	10397
2026-01-18 22:22:51.26	20.52	15.84	-53.8	-62.7	3.8	7.46e-01	0	37	104	0	78	10458
2026-01-18 22:22:52.27	20.51	15.99	-53.8	-62.7	3.8	7.46e-01	0	37	104	0	78	10458
2026-01-18 22:22:53.28	20.51	16.13	-53.9	-62.7	3.8	7.44e-01	0	36	104	0	78	10473
2026-01-18 22:22:54.28	20.50	16.28	-53.8	-62.7	3.8	7.46e-01	0	37	104	0	78	10434
2026-01-18 22:22:55.29	20.49	16.43	-53.9	-62.7	3.8	7.46e-01	0	36	104	0	78	10484
2026-01-18 22:22:56.30	20.49	16.58	-53.9	-62.7	3.8	7.45e-01	0	37	104	0	78	10495
2026-01-18 22:22:57.31	20.48	16.73	-53.9	-62.7	3.8	7.45e-01	0	37	104	0	78	10505
2026-01-18 22:22:58.32	20.47	16.89	-53.8	-62.7	3.8	7.45e-01	0	36	104	0	78	10460
2026-01-18 22:22:59.32	20.47	17.04	-53.9	-62.7	3.8	7.46e-01	0	36	104	0	78	10480
2026-01-18 22:23:00.33	20.46	17.19	-53.9	-62.8	3.8	7.45e-01	0	37	104	0	78	10541
2026-01-18 22:23:01.34	20.45	17.35	-53.9	-62.8	3.8	7.45e-01	0	37	104	0	78	10558
2026-01-18 22:23:02.34	20.44	17.51	-53.9	-62.7	3.8	7.45e-01	0	37	104	0	78	10452
2026-01-18 22:23:03.35	20.44	17.67	-53.9	-62.7	3.8	7.46e-01	0	36	104	0	78	10532
2026-01-18 22:23:04.36	20.43	17.83	-53.9	-62.8	3.8	7.46e-01	0	37	104	0	78	10540
2026-01-18 22:23:05.37	20.42	17.99	-53.9	-62.8	3.8	7.43e-01	0	37	104	0	78	10554
2026-01-18 22:23:06.37	20.41	18.15	-53.9	-62.7	3.8	7.46e-01	0	37	104	0	78	10522
2026-01-18 22:23:07.38	20.40	18.32	-53.9	-62.8	3.8	7.46e-01	0	37	104	0	78	10578
2026-01-18 22:23:08.39	20.40	18.48	-53.9	-62.8	3.8	7.46e-01	0	37	104	0	78	10551
2026-01-18 22:23:09.39	20.39	18.65	-54.0	-62.8	3.8	7.44e-01	0	37	104	0	78	10580
2026-01-18 22:23:10.40	20.38	18.82	-53.9	-62.8	3.8	7.44e-01	0	37	104	0	78	10559
2026-01-18 22:23:11.41	20.37	18.99	-53.9	-62.8	3.8	7.44e-01	0	37	104	0	78	10562
2026-01-18 22:23:12.42	20.36	19.16	-53.9	-62.8	3.8	7.47e-01	0	36	104	0	78	10598
2026-01-18 22:23:13.42	20.35	19.34	-54.0	-62.8	3.8	7.46e-01	0	37	104	0	78	10609
2026-01-18 22:23:14.43	20.34	19.51	-53.9	-62.8	3.8	7.46e-01	0	37	104	0	78	10535
2026-01-18 22:23:15.44	20.33	19.69	-54.0	-62.8	3.8	7.46e-01	0	37	104	0	78	10600
2026-01-18 22:23:16.45	20.32	19.87	-54.0	-62.8	3.8	7.43e-01	0	37	104	0	78	10646
2026-01-18 22:23:17.46	20.31	20.05	-54.0	-62.8	3.8	7.46e-01	0	37	104	0	78	10636
2026-01-18 22:23:18.47	20.30	20.23	-54.0	-62.8	3.8	7.46e-01	0	37	104	0	78	10629
2026-01-18 22:23:19.47	20.29	20.41	-54.0	-62.8	3.8	7.44e-01	0	37	104	0	78	10580
2026-01-18 22:23:20.48	20.28	20.60	-54.0	-62.9	3.8	7.45e-01	0	37	104	0	78	10688
2026-01-18 22:23:21.49	20.27	20.78	-54.0	-62.8	3.8	7.46e-01	0	37	104	0	78	10639
2026-01-18 22:23:22.49	20.26	20.97	-54.0	-62.8	3.8	7.45e-01	0	37	104	0	78	10620
2026-01-18 22:23:23.50	20.25	21.16	-54.0	-62.8	3.8	7.42e-01	0	36	104	0	78	10650
2026-01-18 22:23:24.51	20.23	21.35	-54.0	-62.9	3.8	7.45e-01	0	37	104	0	78	10726
2026-01-18 22:23:25.52	20.22	21.55	-54.0	-62.9	3.8	7.46e-01	0	36	104	0	78	10662
2026-01-18 22:23:26.53	20.21	21.74	-54.0	-62.8	3.8	7.45e-01	0	37	104	0	78	10654
2026-01-18 22:23:27.53	20.20	21.94	-54.0	-62.9	3.8	7.47e-01	0	37	104	0	78	10699
2026-01-18 22:23:28.55	20.19	22.14	-54.1	-62.9	3.8	7.44e-01	0	37	104	0	78	10680
2026-01-18 22:23:29.55	20.17	22.34	-54.1	-62.9	3.8	7.45e-01	0	37	104	0	78	10688
2026-01-18 22:23:30.56	20.16	22.55	-54.0	-62.9	3.8	7.46e-01	0	37	104	0	78	10719
2026-01-18 22:23:31.56	20.15	22.75	-54.1	-62.9	3.8	7.46e-01	0	37	104	0	78	10726
2026-01-18 22:23:32.58	20.13	22.96	-54.1	-62.9	3.8	7.46e-01	0	37	104	0	78	10769
2026-01-18 22:23:33.58	20.12	23.17	-54.1	-62.9	3.8	7.45e-01	0	37	104	0	78	10727
2026-01-18 22:23:34.59	20.11	23.38	-54.1	-62.9	3.8	7.46e-01	0	37	104	0	78	10731
2026-01-18 22:23:35.60	20.09	23.60	-54.1	-62.9	3.8	7.45e-01	0	37	104	0	78	10737
2026-01-18 22:23:36.61	20.08	23.81	-54.1	-63.0	3.8	7.46e-01	0	37	104	0	78	10787
2026-01-18 22:23:37.62	20.06	24.03	-54.1	-62.9	3.8	7.45e-01	0	37	104	0	78	10758
2026-01-18 22:23:38.62	20.05	24.25	-54.1	-62.9	3.8	7.45e-01	0	37	104	0	78	10731
2026-01-18 22:23:39.63	20.03	24.48	-54.1	-62.9	3.8	7.47e-01	0	37	104	0	78	10756
2026-01-18 22:23:40.64	20.01	24.70	-54.1	-63.0	3.8	7.45e-01	0	36	104	0	78	10816
2026-01-18 22:23:41.64	20.00	24.93	-54.1	-62.9	3.8	7.44e-01	0	37	104	0	78	10776
2026-01-18 22:23:42.65	19.98	25.16	-54.1	-63.0	3.8	7.45e-01	0	37	104	0	78	10790
2026-01-18 22:23:43.66	19.97	25.39	-54.1	-62.9	3.8	7.44e-01	0	37	104	0	78	10775
2026-01-18 22:23:44.67	19.95	25.63	-54.2	-63.0	3.8	7.46e-01	0	37	104	0	78	10875
2026-01-18 22:23:45.68	19.93	25.87	-54.1	-63.0	3.8	7.45e-01	0	37	104	0	78	10804
2026-01-18 22:23:46.68	19.91	26.11	-54.1	-63.0	3.8	7.44e-01	0	37	104	0	78	10801
2026-01-18 22:23:47.69	19.89	26.35	-54.1	-63.0	3.8	7.46e-01	0	37	104	0	78	10806
2026-01-18 22:23:48.70	19.88	26.60	-54.2	-63.0	3.8	7.45e-01	0	37	104	0	78	10883
2026-01-18 22:23:49.71	19.86	26.85	-54.2	-63.0	3.8	7.43e-01	0	37	104	0	78	10839
2026-01-18 22:23:50.71	19.84	27.10	-54.2	-63.0	3.8	7.46e-01	0	37	104	0	78	10834
2026-01-18 22:23:51.72	19.82	27.35	-54.2	-63.0	3.8	7.43e-01	0	37	104	0	78	10832
2026-01-18 22:23:52.73	19.80	27.61	-54.2	-63.0	3.8	7.45e-01	0	37	104	0	78	10901
2026-01-18 22:23:53.74	19.78	27.87	-54.2	-63.0	3.8	7.47e-01	0	37	104	0	79	10282
2026-01-18 22:23:54.75	19.76	28.13	-54.2	-63.0	3.8	7.46e-01	0	36	104	0	79	10285
2026-01-18 22:23:55.75	19.73	28.40	-54.2	-63.1	3.8	7.45e-01	0	37	104	0	79	10312
2026-01-18 22:23:56.76	19.71	28.67	-54.3	-63.1	3.8	7.46e-01	0	37	104	0	79	10333
2026-01-18 22:23:57.77	19.69	28.94	-54.2	-63.1	3.8	7.45e-01	0	37	104	0	79	10304
2026-01-18 22:23:58.78	19.67	29.22	-54.2	-63.1	3.8	7.47e-01	0	37	104	0	79	10306
2026-01-18 22:23:59.79	19.64	29.50	-54.2	-63.1	3.8	7.44e-01	0	37	104	0	79	10358
2026-01-18 22:24:00.79	19.62	29.78	-54.3	-63.1	3.8	7.46e-01	0	37	104	0	79	10388
2026-01-18 22:24:01.80	19.59	30.06	-54.2	-63.1	3.8	7.46e-01	0	37	104	0	79	10308
2026-01-18 22:24:02.81	19.57	30.35	-54.3	-63.0	3.8	7.46e-01	0	37	104	0	79	10284
2026-01-18 22:24:03.82	19.54	30.65	-54.3	-63.1	3.8	7.47e-01	0	37	104	0	79	10393
2026-01-18 22:24:04.83	19.52	30.94	-54.3	-63.2	3.8	7.45e-01	0	37	104	0	79	10414
2026-01-18 22:24:05.83	19.49	31.24	-54.3	-63.1	3.8	7.45e-01	0	37	104	0	79	10403
2026-01-18 22:24:06.84	19.46	31.54	-54.3	-63.1	3.8	7.45e-01	0	37	104	0	79	10392
2026-01-18 22:24:07.85	19.43	31.85	-54.3	-63.1	3.8	7.46e-01	0	37	104	0	79	10393
2026-01-18 22:24:08.86	19.40	32.16	-54.3	-63.2	3.8	7.46e-01	0	37	104	0	79	10484
2026-01-18 22:24:09.87	19.37	32.48	-54.3	-63.1	3.8	7.45e-01	0	37	104	0	79	10371
2026-01-18 22:24:10.87	19.34	32.80	-54.3	-63.2	3.8	7.45e-01	0	37	104	0	79	10430
2026-01-18 22:24:11.88	19.31	33.12	-54.3	-63.2	3.8	7.44e-01	0	37	104	0	79	10462
2026-01-18 22:24:12.89	19.28	33.45	-54.4	-63.2	3.8	7.45e-01	0	36	104	0	79	10453
2026-01-18 22:24:13.90	19.25	33.78	-54.3	-63.2	3.8	7.44e-01	0	37	104	0	79	10437
2026-01-18 22:24:14.90	19.22	34.11	-54.3	-63.2	3.8	7.44e-01	0	37	104	0	79	10483
2026-01-18 22:24:15.91	19.18	34.45	-54.4	-63.1	3.8	7.45e-01	0	37	104	0	79	10409
2026-01-18 22:24:16.92	19.15	34.80	-54.4	-63.2	3.8	7.45e-01	0	37	104	0	79	10484
2026-01-18 22:24:17.93	19.11	35.15	-54.3	-63.2	3.8	7.45e-01	0	37	104	0	79	10462
2026-01-18 22:24:18.93	19.07	35.50	-54.4	-63.2	3.8	7.44e-01	0	37	104	0	79	10488
2026-01-18 22:24:19.94	19.04	35.86	-54.4	-63.2	3.8	7.45e-01	0	37	104	0	79	10499
2026-01-18 22:24:20.95	19.00	36.22	-54.4	-63.2	3.8	7.47e-01	0	37	104	0	79	10484
2026-01-18 22:24:21.96	18.96	36.59	-54.4	-63.2	3.8	7.45e-01	0	37	104	0	79	10446
2026-01-18 22:24:22.97	18.92	36.96	-54.4	-63.2	3.8	7.46e-01	0	37	104	0	79	10524
2026-01-18 22:24:23.98	18.87	37.34	-54.4	-63.2	3.8	7.45e-01	0	37	104	0	79	10488
2026-01-18 22:24:24.99	18.83	37.72	-54.4	-63.2	3.8	7.46e-01	0	37	104	0	79	10528
2026-01-18 22:24:25.99	18.79	38.10	-54.4	-63.3	3.8	7.45e-01	0	37	104	0	79	10537
2026-01-18 22:24:27.00	18.74	38.50	-54.4	-63.2	3.8	7.44e-01	0	37	104	0	79	10512
2026-01-18 22:24:28.01	18.69	38.89	-54.4	-63.3	3.8	7.45e-01	0	37	104	0	79	10550
2026-01-18 22:24:29.02	18.64	39.30	-54.5	-63.3	3.8	7.46e-01	0	37	104	0	79	10597
2026-01-18 22:24:30.03	18.59	39.71	-54.4	-63.2	3.8	7.45e-01	0	37	104	0	79	10530
2026-01-18 22:24:31.03	18.54	40.12	-54.4	-63.3	3.8	7.44e-01	0	37	104	0	79	10562
2026-01-18 22:24:32.04	18.49	40.54	-54.5	-63.3	3.8	7.46e-01	0	36	104	0	79	10654
2026-01-18 22:24:33.05	18.44	40.96	-54.5	-63.3	3.8	7.46e-01	0	37	104	0	79	10639
2026-01-18 22:24:34.06	18.38	41.39	-54.4	-63.3	3.8	7.46e-01	0	37	104	0	79	10580
2026-01-18 22:24:35.07	18.32	41.83	-54.5	-63.3	3.8	7.47e-01	0	37	104	0	79	10596
2026-01-18 22:24:36.08	18.26	42.27	-54.5	-63.3	3.8	7.44e-01	0	37	104	0	79	10644
2026-01-18 22:24:37.08	18.20	42.72	-54.5	-63.3	3.8	7.47e-01	0	37	104	0	79	10650
2026-01-18 22:24:38.09	18.14	43.18	-54.5	-63.3	3.8	7.44e-01	0	37	104	0	79	10614
2026-01-18 22:24:39.10	18.07	43.64	-54.5	-63.3	3.8	7.45e-01	0	37	104	0	79	10641
2026-01-18 22:24:40.11	18.01	44.10	-54.5	-63.3	3.8	7.46e-01	0	37	104	0	79	10631
2026-01-18 22:24:41.12	17.94	44.58	-54.5	-63.3	3.8	7.46e-01	0	37	104	0	79	10648
2026-01-18 22:24:42.12	17.87	45.06	-54.5	-63.3	3.8	7.47e-01	0	37	104	0	79	10620
2026-01-18 22:24:43.13	17.79	45.54	-54.5	-63.4	3.8	7.46e-01	0	37	104	0	79	10657
2026-01-18 22:24:44.14	17.71	46.04	-54.5	-63.4	3.8	7.45e-01	0	37	104	0	79	10704
2026-01-18 22:24:45.15	17.63	46.54	-54.5	-63.4	3.8	7.45e-01	0	37	104	0	79	10671
2026-01-18 22:24:46.15	17.55	47.04	-54.5	-63.4	3.8	7.45e-01	0	37	104	0	79	10673
2026-01-18 22:24:47.16	17.47	47.55	-54.5	-63.4	3.8	7.46e-01	0	37	104	0	79	10703
2026-01-18 22:24:48.17	17.38	48.08	-54.6	-63.4	3.8	7.44e-01	0	37	104	0	79	10733
2026-01-18 22:24:49.18	17.29	48.60	-54.6	-63.4	3.8	7.45e-01	0	37	104	0	79	10694
2026-01-18 22:24:50.19	17.19	49.14	-54.5	-63.4	3.8	7.44e-01	0	37	104	0	79	10694
2026-01-18 22:24:51.19	17.09	49.68	-54.5	-63.4	3.8	7.45e-01	0	37	104	0	79	10717
2026-01-18 22:24:52.20	16.99	50.23	-54.6	-63.4	3.8	7.46e-01	0	37	104	0	79	10743
2026-01-18 22:24:53.21	16.88	50.78	-54.6	-63.4	3.8	7.45e-01	0	37	104	0	79	10758
2026-01-18 22:24:54.22	16.77	51.35	-54.6	-63.4	3.8	7.45e-01	0	37	104	0	79	10681
2026-01-18 22:24:55.23	16.66	51.92	-54.6	-63.4	3.8	7.46e-01	0	37	104	0	79	10718
2026-01-18 22:24:56.23	16.54	52.50	-54.6	-63.4	3.8	7.45e-01	0	37	104	0	79	10725
2026-01-18 22:24:57.24	16.41	53.08	-54.6	-63.4	3.8	7.46e-01	0	37	104	0	79	10726
2026-01-18 22:24:58.25	16.28	53.68	-54.6	-63.4	3.8	7.44e-01	0	37	104	0	79	10687
2026-01-18 22:24:59.26	16.14	54.28	-54.6	-63.4	3.8	7.44e-01	0	37	104	0	79	10757
2026-01-18 22:25:00.27	16.00	54.89	-54.6	-63.4	3.8	7.45e-01	0	37	104	0	79	10777
2026-01-18 22:25:01.27	15.85	55.50	-54.6	-63.4	3.8	7.47e-01	0	37	104	0	79	10764
2026-01-18 22:25:02.28	15.70	56.13	-54.6	-63.4	3.8	7.47e-01	0	37	104	0	79	10759
2026-01-18 22:25:03.29	15.53	56.76	-54.6	-63.4	3.8	7.45e-01	0	37	104	0	79	10759
2026-01-18 22:25:04.30	15.36	57.40	-54.6	-63.5	3.8	7.46e-01	0	37	104	0	79	10868
2026-01-18 22:25:05.31	15.18	58.05	-54.6	-63.5	3.8	7.44e-01	0	37	104	0	79	10798
2026-01-18 22:25:06.31	14.99	58.70	-54.6	-63.5	3.8	7.45e-01	0	37	104	0	79	10788
2026-01-18 22:25:07.32	14.79	59.36	-54.6	-63.5	3.8	7.45e-01	0	37	104	0	79	10840
2026-01-18 22:25:08.33	14.58	60.03	-54.7	-63.5	3.8	7.44e-01	0	37	104	0	79	10823
2026-01-18 22:25:09.34	14.36	60.71	-54.6	-63.5	3.8	7.46e-01	0	37	104	0	79	10812
2026-01-18 22:25:10.35	14.12	61.40	-54.6	-63.5	3.8	7.45e-01	0	37	104	0	79	10814
2026-01-18 22:25:11.35	13.87	62.08	-54.6	-63.5	3.8	7.45e-01	0	37	104	0	79	10801
2026-01-18 22:25:12.36	13.61	62.79	-54.7	-63.5	3.8	7.45e-01	0	37	104	0	79	10868
2026-01-18 22:25:13.37	13.33	63.49	-54.6	-63.5	3.8	7.45e-01	0	37	104	0	79	10820
2026-01-18 22:25:14.37	13.03	64.20	-54.6	-63.5	3.8	7.45e-01	0	37	104	0	79	10819
2026-01-18 22:25:15.38	12.71	64.92	-54.7	-63.5	3.8	7.45e-01	0	37	104	0	79	10840
2026-01-18 22:25:16.39	12.37	65.65	-54.7	-63.5	3.8	7.46e-01	0	37	104	0	79	10871
2026-01-18 22:25:17.40	12.01	66.39	-54.7	-63.5	3.8	7.47e-01	0	37	104	0	79	10856
2026-01-18 22:25:18.41	11.62	67.13	-54.7	-63.5	3.8	7.45e-01	0	37	104	0	79	10804
2026-01-18 22:25:19.41	11.20	67.87	-54.7	-63.5	3.8	7.47e-01	0	37	104	0	79	10861
2026-01-18 22:25:20.42	10.75	68.62	-54.7	-63.6	3.8	7.46e-01	0	37	104	0	79	10934
2026-01-18 22:25:21.43	10.26	69.38	-54.7	-63.5	3.8	7.46e-01	0	37	104	0	79	10853
2026-01-18 22:25:22.44	9.73	70.15	-54.7	-63.5	3.8	7.46e-01	0	37	104	0	79	10834
2026-01-18 22:25:23.45	9.15	70.92	-54.7	-63.5	3.8	7.45e-01	0	37	104	0	79	10879
2026-01-18 22:25:24.46	8.53	71.69	-54.7	-63.5	3.8	7.44e-01	0	37	104	0	79	10893
2026-01-18 22:25:25.46	7.84	72.46	-54.7	-63.5	3.8	7.45e-01	0	37	104	0	79	10860
2026-01-18 22:25:26.47	7.09	73.24	-54.7	-63.5	3.8	7.45e-01	0	37	104	0	79	10864
2026-01-18 22:25:27.48	6.25	74.02	-54.7	-63.5	3.8	7.45e-01	0	37	104	0	79	10886
2026-01-18 22:25:28.49	5.33	74.81	-54.7	-63.5	3.8	7.45e-01	0	37	104	0	79	10896
2026-01-18 22:25:29.49	4.31	75.59	-54.7	-63.5	3.8	7.46e-01	0	37	104	0	79	10851
2026-01-18 22:25:30.50	3.16	76.37	-54.7	-63.6	3.8	7.48e-01	0	37	104	0	79	10909
2026-01-18 22:25:31.51	1.85	77.16	-54.7	-63.5	3.8	7.46e-01	0	37	104	0	79	10885
2026-01-18 22:25:32.52	0.38	77.94	-54.7	-63.5	3.8	7.47e-01	0	37	104	0	79	10901
2026-01-18 22:25:33.52	358.71	78.71	-54.6	-63.5	3.8	7.46e-01	0	37	104	0	79	10816
2026-01-18 22:25:34.53	356.77	79.48	-54.7	-63.5	3.8	7.46e-01	0	37	104	0	79	10866
2026-01-18 22:25:35.54	354.52	80.24	-54.7	-63.5	3.8	7.46e-01	0	37	104	0	79	10898
2026-01-18 22:25:36.55	351.89	80.98	-54.7	-63.5	3.8	7.44e-01	0	37	104	0	79	10902
2026-01-18 22:25:37.56	348.78	81.71	-54.7	-63.5	3.8	7.46e-01	0	37	104	0	79	10869
2026-01-18 22:25:38.57	345.08	82.41	-54.7	-63.5	3.8	7.44e-01	0	37	104	0	79	10890
2026-01-18 22:25:39.58	340.64	83.07	-54.7	-63.5	3.8	7.45e-01	0	37	104	0	79	10870
2026-01-18 22:25:40.58	335.35	83.68	-54.7	-63.5	3.8	7.45e-01	0	37	104	0	79	10862
2026-01-18 22:25:41.59	328.92	84.23	-54.7	-63.5	3.8	7.47e-01	0	37	104	0	79	10853
2026-01-18 22:25:42.60	321.24	84.69	-54.7	-63.6	3.8	7.46e-01	0	37	104	0	79	10905
2026-01-18 22:25:43.61	312.28	85.05	-54.7	-63.5	3.8	7.46e-01	0	37	104	0	79	10899
2026-01-18 22:25:44.62	302.22	85.26	-54.7	-63.6	3.8	7.48e-01	0	37	104	0	79	10905
2026-01-18 22:25:45.63	291.56	85.32	-54.7	-63.5	3.8	7.44e-01	0	37	104	0	79	10873
2026-01-18 22:25:46.63	281.10	85.22	-54.7	-63.6	3.8	7.45e-01	0	37	104	0	79	10918
2026-01-18 22:25:47.64	271.28	84.97	-54.7	-63.5	3.8	7.45e-01	0	37	104	0	79	10897
2026-01-18 22:25:48.65	262.63	84.59	-54.7	-63.6	3.8	7.46e-01	0	37	104	0	79	10957
2026-01-18 22:25:49.66	255.28	84.10	-54.6	-63.5	3.8	7.44e-01	0	37	104	0	80	10177
2026-01-18 22:25:50.67	249.14	83.53	-54.6	-63.5	3.8	7.46e-01	0	37	104	0	80	10247
2026-01-18 22:25:51.68	244.05	82.90	-54.7	-63.5	3.8	7.45e-01	0	37	104	0	80	10239
2026-01-18 22:25:52.68	239.85	82.23	-54.7	-63.5	3.8	7.46e-01	0	37	104	0	80	10292
2026-01-18 22:25:53.69	236.31	81.53	-54.6	-63.5	3.8	7.46e-01	0	37	104	0	80	10219
2026-01-18 22:25:54.70	233.33	80.79	-54.7	-63.5	3.8	7.43e-01	0	37	104	0	80	10283
2026-01-18 22:25:55.71	230.81	80.04	-54.7	-63.5	3.8	7.45e-01	0	37	104	0	80	10231
2026-01-18 22:25:56.71	228.66	79.29	-54.7	-63.5	3.8	7.45e-01	0	37	104	0	80	10257
2026-01-18 22:25:57.72	226.79	78.52	-54.7	-63.5	3.8	7.45e-01	0	37	104	0	80	10209
2026-01-18 22:25:58.73	225.16	77.74	-54.7	-63.5	3.8	7.45e-01	0	37	104	0	80	10264
2026-01-18 22:25:59.74	223.73	76.95	-54.7	-63.6	3.8	7.45e-01	0	37	104	0	80	10307
2026-01-18 22:26:00.75	222.47	76.17	-54.7	-63.5	3.8	7.45e-01	0	37	104	0	80	10285
2026-01-18 22:26:01.75	221.36	75.39	-54.7	-63.5	3.8	7.45e-01	0	37	104	0	80	10223
2026-01-18 22:26:02.76	220.35	74.60	-54.7	-63.5	3.8	7.44e-01	0	37	104	0	80	10289
2026-01-18 22:26:03.77	219.45	73.82	-54.7	-63.5	3.8	7.45e-01	0	37	104	0	80	10269
2026-01-18 22:26:04.78	218.64	73.03	-54.7	-63.6	3.8	7.44e-01	0	37	104	0	80	10294
2026-01-18 22:26:05.79	217.90	72.25	-54.7	-63.5	3.8	7.47e-01	0	37	104	0	80	10245
2026-01-18 22:26:06.79	217.24	71.48	-54.7	-63.5	3.8	7.46e-01	0	37	104	0	80	10278
2026-01-18 22:26:07.80	216.62	70.71	-54.7	-63.5	3.8	7.45e-01	0	37	104	0	80	10278
2026-01-18 22:26:08.81	216.06	69.94	-54.7	-63.5	3.8	7.43e-01	0	37	104	0	80	10289
2026-01-18 22:26:09.82	215.54	69.17	-54.7	-63.5	3.8	7.46e-01	0	37	104	0	80	10186
2026-01-18 22:26:10.83	215.06	68.42	-54.7	-63.5	3.8	7.45e-01	0	37	104	0	80	10277
2026-01-18 22:26:11.83	214.62	67.67	-54.7	-63.5	3.8	7.44e-01	0	37	104	0	80	10254
2026-01-18 22:26:12.84	214.21	66.92	-54.7	-63.5	3.8	7.46e-01	0	37	104	0	80	10231
2026-01-18 22:26:13.85	213.82	66.18	-54.6	-63.5	3.8	7.45e-01	0	37	104	0	80	10239
2026-01-18 22:26:14.86	213.47	65.44	-54.6	-63.5	3.8	7.46e-01	0	37	104	0	80	10223
2026-01-18 22:26:15.87	213.13	64.72	-54.7	-63.5	3.8	7.45e-01	0	37	104	0	80	10229
2026-01-18 22:26:16.87	212.82	64.00	-54.6	-63.5	3.8	7.45e-01	0	37	104	0	80	10240
2026-01-18 22:26:17.88	212.53	63.29	-54.6	-63.4	3.8	7.46e-01	0	37	104	0	80	10171
2026-01-18 22:26:18.89	212.25	62.58	-54.6	-63.5	3.8	7.46e-01	0	37	104	0	80	10240
2026-01-18 22:26:19.90	211.99	61.88	-54.6	-63.5	3.8	7.46e-01	0	37	104	0	80	10248
2026-01-18 22:26:20.91	211.74	61.19	-54.6	-63.5	3.8	7.46e-01	0	37	104	0	80	10204
2026-01-18 22:26:21.92	211.51	60.50	-54.6	-63.5	3.8	7.47e-01	0	37	104	0	80	10222
2026-01-18 22:26:22.93	211.29	59.82	-54.6	-63.5	3.8	7.45e-01	0	37	104	0	80	10188
2026-01-18 22:26:23.93	211.08	59.16	-54.6	-63.5	3.8	7.45e-01	0	37	104	0	80	10208
2026-01-18 22:26:24.94	210.89	58.49	-54.6	-63.5	3.8	7.45e-01	0	37	104	0	80	10197
2026-01-18 22:26:25.95	210.70	57.84	-54.6	-63.4	3.8	7.46e-01	0	37	104	0	80	10173
2026-01-18 22:26:26.96	210.52	57.19	-54.6	-63.4	3.8	7.45e-01	0	37	104	0	80	10165
2026-01-18 22:26:27.96	210.35	56.56	-54.6	-63.5	3.8	7.45e-01	0	37	104	0	80	10187
2026-01-18 22:26:28.97	210.19	55.93	-54.6	-63.4	3.8	7.47e-01	0	37	104	0	80	10160
2026-01-18 22:26:29.98	210.03	55.30	-54.6	-63.4	3.8	7.45e-01	0	37	104	0	80	10156
2026-01-18 22:26:30.99	209.88	54.68	-54.6	-63.4	3.8	7.46e-01	0	37	104	0	80	10161
2026-01-18 22:26:31.99	209.74	54.08	-54.6	-63.4	3.8	7.46e-01	0	37	104	0	80	10148
2026-01-18 22:26:33.00	209.61	53.48	-54.6	-63.4	3.8	7.45e-01	0	37	104	0	80	10132
2026-01-18 22:26:34.01	209.48	52.88	-54.6	-63.4	3.8	7.42e-01	0	37	104	0	80	10172
2026-01-18 22:26:35.02	209.35	52.30	-54.6	-63.4	3.8	7.44e-01	0	37	104	0	80	10125
2026-01-18 22:26:36.03	209.24	51.72	-54.6	-63.4	3.8	7.46e-01	0	37	104	0	80	10116
2026-01-18 22:26:37.04	209.12	51.15	-54.6	-63.4	3.8	7.44e-01	0	37	104	0	80	10135
2026-01-18 22:26:38.05	209.01	50.58	-54.5	-63.4	3.8	7.46e-01	0	37	104	0	80	10099
2026-01-18 22:26:39.06	208.90	50.03	-54.5	-63.4	3.8	7.46e-01	0	37	104	0	80	10094
2026-01-18 22:26:40.06	208.80	49.48	-54.5	-63.4	3.8	7.45e-01	0	37	104	0	80	10107
2026-01-18 22:26:41.07	208.71	48.94	-54.5	-63.4	3.8	7.44e-01	0	37	104	0	80	10090
2026-01-18 22:26:42.08	208.61	48.40	-54.5	-63.4	3.8	7.45e-01	0	37	104	0	80	10076
2026-01-18 22:26:43.09	208.52	47.88	-54.5	-63.4	3.8	7.45e-01	0	37	104	0	80	10089
2026-01-18 22:26:44.10	208.43	47.36	-54.5	-63.4	3.8	7.46e-01	0	37	104	0	80	10108
2026-01-18 22:26:45.10	208.35	46.85	-54.5	-63.3	3.8	7.44e-01	0	37	104	0	80	10032
2026-01-18 22:26:46.11	208.27	46.34	-54.5	-63.4	3.8	7.45e-01	0	37	104	0	80	10068
2026-01-18 22:26:47.12	208.19	45.84	-54.5	-63.3	3.8	7.47e-01	0	37	104	0	80	10045
2026-01-18 22:26:48.13	208.11	45.35	-54.5	-63.4	3.8	7.45e-01	0	37	104	0	80	10094
2026-01-18 22:26:49.14	208.04	44.86	-54.5	-63.3	3.8	7.44e-01	0	37	104	0	80	10019
2026-01-18 22:26:50.14	207.97	44.38	-54.5	-63.3	3.8	7.46e-01	0	37	104	0	80	10058
2026-01-18 22:26:51.15	207.90	43.91	-54.5	-63.3	3.8	7.46e-01	0	37	104	0	80	10032
2026-01-18 22:26:52.16	207.83	43.44	-54.5	-63.3	3.8	7.46e-01	0	37	104	0	80	10030
2026-01-18 22:26:53.17	207.77	42.98	-54.5	-63.3	3.8	7.44e-01	0	37	104	0	80	10034
2026-01-18 22:26:54.18	207.70	42.53	-54.4	-63.3	3.8	7.44e-01	0	37	104	0	80	9987
2026-01-18 22:26:55.19	207.64	42.08	-54.4	-63.3	3.8	7.45e-01	0	37	104	0	80	10030
2026-01-18 22:26:56.19	207.58	41.64	-54.4	-63.3	3.8	7.45e-01	0	37	104	0	80	10005
2026-01-18 22:26:57.20	207.53	41.20	-54.4	-63.3	3.8	7.45e-01	0	37	104	0	80	9984
2026-01-18 22:26:58.21	207.47	40.77	-54.4	-63.3	3.8	7.44e-01	0	37	104	0	80	9976
2026-01-18 22:26:59.22	207.42	40.35	-54.4	-63.3	3.8	7.46e-01	0	37	104	0	80	9969
2026-01-18 22:27:00.23	207.36	39.93	-54.4	-63.2	3.8	7.47e-01	0	37	104	0	80	9927
2026-01-18 22:27:01.23	207.31	39.52	-54.4	-63.2	3.8	7.45e-01	0	37	104	0	80	9942
2026-01-18 22:27:02.24	207.26	39.11	-54.4	-63.3	3.8	7.45e-01	0	37	104	0	80	9975
2026-01-18 22:27:03.25	207.21	38.70	-54.4	-63.3	3.8	7.47e-01	0	37	104	0	80	9963
2026-01-18 22:27:04.26	207.17	38.31	-54.4	-63.3	3.8	7.45e-01	0	37	104	0	80	9956
2026-01-18 22:27:05.27	207.12	37.91	-54.4	-63.2	3.8	7.45e-01	0	37	104	0	80	9896
2026-01-18 22:27:06.27	207.08	37.53	-54.4	-63.2	3.8	7.45e-01	0	37	104	0	80	9900
2026-01-18 22:27:07.28	207.04	37.15	-54.4	-63.2	3.8	7.43e-01	0	37	104	0	80	9917
2026-01-18 22:27:08.29	206.99	36.77	-54.4	-63.2	3.8	7.45e-01	0	37	104	0	80	9857
2026-01-18 22:27:09.30	206.95	36.40	-54.4	-63.2	3.8	7.45e-01	0	37	104	0	80	9925
2026-01-18 22:27:10.31	206.91	36.03	-54.4	-63.2	3.8	7.46e-01	0	37	104	0	80	9850
2026-01-18 22:27:11.32	206.87	35.67	-54.3	-63.2	3.8	7.45e-01	0	37	104	0	80	9836
2026-01-18 22:27:12.32	206.84	35.31	-54.3	-63.2	3.8	7.46e-01	0	37	104	0	80	9848
2026-01-18 22:27:13.33	206.80	34.96	-54.3	-63.2	3.8	7.45e-01	0	37	104	0	80	9878
2026-01-18 22:27:14.34	206.76	34.61	-54.3	-63.2	3.8	7.45e-01	0	37	104	0	80	9833
2026-01-18 22:27:15.35	206.73	34.27	-54.3	-63.2	3.8	7.46e-01	0	37	104	0	80	9839
2026-01-18 22:27:16.35	206.69	33.93	-54.3	-63.1	3.8	7.45e-01	0	37	104	0	80	9829
2026-01-18 22:27:17.36	206.66	33.60	-54.3	-63.1	3.8	7.46e-01	0	37	104	0	80	9803
2026-01-18 22:27:18.37	206.63	33.26	-54.3	-63.1	3.8	7.45e-01	0	37	104	0	80	9827
2026-01-18 22:27:19.38	206.60	32.94	-54.3	-63.1	3.8	7.45e-01	0	37	104	0	80	9819
2026-01-18 22:27:20.39	206.56	32.61	-54.3	-63.1	3.8	7.44e-01	0	37	104	0	80	9806
2026-01-18 22:27:21.39	206.53	32.30	-54.3	-63.1	3.8	7.45e-01	0	37	104	0	80	9813
2026-01-18 22:27:22.40	206.50	31.98	-54.3	-63.1	3.8	7.45e-01	0	37	104	0	80	9822
2026-01-18 22:27:23.41	206.48	31.67	-54.3	-63.1	3.8	7.44e-01	0	37	104	0	80	9785
2026-01-18 22:27:24.42	206.45	31.36	-54.3	-63.1	3.8	7.46e-01	0	37	104	0	80	9813
2026-01-18 22:27:25.42	206.42	31.06	-54.2	-63.1	3.8	7.45e-01	0	37	104	0	80	9760
2026-01-18 22:27:26.43	206.39	30.76	-54.2	-63.1	3.8	7.46e-01	0	37	104	0	80	9783
2026-01-18 22:27:27.44	206.37	30.46	-54.2	-63.0	3.8	7.45e-01	0	37	104	0	80	9696
2026-01-18 22:27:28.45	206.34	30.17	-54.2	-63.1	3.8	7.46e-01	0	37	104	0	80	9774
2026-01-18 22:27:29.45	206.31	29.89	-54.2	-63.1	3.8	7.45e-01	0	37	104	0	80	9736
2026-01-18 22:27:30.46	206.29	29.60	-54.2	-63.1	3.8	7.46e-01	0	37	104	0	80	9732
2026-01-18 22:27:31.47	206.27	29.32	-54.2	-63.1	3.8	7.45e-01	0	37	104	0	80	9738
2026-01-18 22:27:32.48	206.24	29.04	-54.2	-63.1	3.8	7.44e-01	0	37	104	0	80	9749
2026-01-18 22:27:33.49	206.22	28.76	-54.2	-63.0	3.8	7.45e-01	0	37	104	0	80	9714
2026-01-18 22:27:34.49	206.20	28.49	-54.2	-63.0	3.8	7.45e-01	0	37	104	0	80	9714
2026-01-18 22:27:35.50	206.17	28.22	-54.2	-63.0	3.8	7.46e-01	0	37	104	0	80	9716
2026-01-18 22:27:36.51	206.15	27.95	-54.2	-63.0	3.8	7.46e-01	0	37	104	0	80	9705
2026-01-18 22:27:37.52	206.13	27.69	-54.2	-63.1	3.8	7.46e-01	0	37	104	0	80	9729
2026-01-18 22:27:38.52	206.11	27.43	-54.2	-63.0	3.8	7.46e-01	0	37	104	0	80	9716
2026-01-18 22:27:39.53	206.09	27.17	-54.2	-63.0	3.8	7.45e-01	0	37	104	0	80	9692
2026-01-18 22:27:40.54	206.07	26.92	-54.2	-63.0	3.8	7.46e-01	0	37	104	0	80	9700
2026-01-18 22:27:41.55	206.05	26.67	-54.2	-63.0	3.8	7.46e-01	0	37	104	0	80	9657
2026-01-18 22:27:42.56	206.03	26.42	-54.1	-63.0	3.8	7.45e-01	0	37	104	0	80	9673
2026-01-18 22:27:43.56	206.01	26.18	-54.2	-63.0	3.8	7.44e-01	0	37	104	0	80	9685
2026-01-18 22:27:44.57	205.99	25.93	-54.2	-63.0	3.8	7.45e-01	0	37	104	0	80	9640
2026-01-18 22:27:45.58	205.98	25.69	-54.1	-63.0	3.8	7.44e-01	0	37	104	0	80	9619
2026-01-18 22:27:46.59	205.96	25.45	-54.1	-63.0	3.8	7.44e-01	0	37	104	0	80	9627
2026-01-18 22:27:47.60	205.94	25.22	-54.1	-63.0	3.8	7.45e-01	0	37	104	0	80	9613
2026-01-18 22:27:48.61	205.92	24.98	-54.1	-63.0	3.8	7.46e-01	0	37	104	0	80	9649
2026-01-18 22:27:49.62	205.91	24.75	-54.1	-63.0	3.8	7.45e-01	0	37	104	0	80	9653
2026-01-18 22:27:50.62	205.89	24.53	-54.1	-62.9	3.8	7.46e-01	0	37	104	0	80	9591
2026-01-18 22:27:51.63	205.87	24.30	-54.1	-63.0	3.8	7.45e-01	0	37	104	0	80	9619
2026-01-18 22:27:52.64	205.86	24.08	-54.1	-63.0	3.8	7.45e-01	0	37	104	0	80	9608
2026-01-18 22:27:53.65	205.84	23.86	-54.1	-63.0	3.8	7.45e-01	0	37	104	0	80	9609
2026-01-18 22:27:54.65	205.83	23.64	-54.1	-62.9	3.8	7.46e-01	0	37	104	0	80	9582
2026-01-18 22:27:55.66	205.81	23.42	-54.1	-62.9	3.8	7.46e-01	0	37	104	0	80	9575
2026-01-18 22:27:56.67	205.80	23.21	-54.1	-62.9	3.8	7.45e-01	0	37	104	0	80	9552
2026-01-18 22:27:57.68	205.78	22.99	-54.1	-62.9	3.8	7.45e-01	0	37	104	0	80	9598
2026-01-18 22:27:58.69	205.77	22.78	-54.1	-62.9	3.8	7.47e-01	0	37	104	0	80	9529
2026-01-18 22:27:59.70	205.76	22.58	-54.1	-62.9	3.8	7.48e-01	0	37	104	0	80	9532
2026-01-18 22:28:00.70	205.74	22.37	-54.0	-62.9	3.8	7.44e-01	0	37	104	0	80	9501
2026-01-18 22:28:01.71	205.73	22.17	-54.0	-62.9	3.8	7.47e-01	0	37	104	0	80	9543
2026-01-18 22:28:02.72	205.72	21.97	-54.0	-62.9	3.8	7.46e-01	0	37	104	0	80	9510
2026-01-18 22:28:03.72	205.71	21.77	-54.0	-62.9	3.8	7.44e-01	0	37	104	0	80	9542
2026-01-18 22:28:04.73	205.69	21.57	-54.0	-62.9	3.8	7.47e-01	0	37	104	0	80	9506
2026-01-18 22:28:05.74	205.68	21.37	-54.0	-62.9	3.8	7.44e-01	0	37	104	0	80	9511
2026-01-18 22:28:06.75	205.67	21.18	-54.0	-62.8	3.8	7.45e-01	0	37	104	0	80	9480
2026-01-18 22:28:07.75	205.66	20.99	-54.0	-62.8	3.8	7.45e-01	0	37	104	0	80	9488
2026-01-18 22:28:08.76	205.64	20.80	-54.0	-62.8	3.8	7.47e-01	0	37	104	0	80	9451
2026-01-18 22:28:09.77	205.63	20.61	-54.0	-62.9	3.8	7.44e-01	0	37	104	0	80	9497
2026-01-18 22:28:10.78	205.62	20.42	-54.0	-62.8	3.8	7.46e-01	0	37	104	0	80	9481
2026-01-18 22:28:11.79	205.61	20.24	-54.0	-62.8	3.8	7.46e-01	0	37	104	0	79	10050
2026-01-18 22:28:12.80	205.60	20.05	-54.0	-62.9	3.8	7.44e-01	0	37	104	0	79	10073
2026-01-18 22:28:13.80	205.59	19.87	-54.0	-62.9	3.8	7.45e-01	0	37	104	0	79	10113
2026-01-18 22:28:14.81	205.58	19.69	-54.0	-62.9	3.8	7.48e-01	0	37	104	0	79	10087
2026-01-18 22:28:15.82	205.57	19.52	-54.0	-62.9	3.8	7.45e-01	0	37	104	0	79	10088
2026-01-18 22:28:16.83	205.56	19.34	-54.0	-62.9	3.8	7.44e-01	0	37	104	0	79	10086
2026-01-18 22:28:17.83	205.55	19.17	-54.0	-62.9	3.8	7.44e-01	0	37	104	0	79	10065
2026-01-18 22:28:18.84	205.54	18.99	-54.0	-62.8	3.8	7.44e-01	0	37	104	0	79	10032
2026-01-18 22:28:19.85	205.53	18.82	-54.0	-62.8	3.8	7.44e-01	0	37	104	0	79	10038
2026-01-18 22:28:20.86	205.52	18.65	-54.0	-62.8	3.8	7.44e-01	0	37	104	0	79	10015
2026-01-18 22:28:21.86	205.51	18.48	-54.0	-62.8	3.8	7.45e-01	0	37	104	0	79	10009
2026-01-18 22:28:22.87	205.50	18.31	-54.0	-62.8	3.8	7.45e-01	0	37	104	0	79	10006
2026-01-18 22:28:23.88	205.49	18.15	-54.0	-62.8	3.8	7.46e-01	0	37	104	0	79	9983
2026-01-18 22:28:24.89	205.49	17.98	-53.9	-62.8	3.8	7.46e-01	0	37	104	0	79	10014
2026-01-18 22:28:25.90	205.48	17.82	-54.0	-62.8	3.8	7.45e-01	0	37	104	0	79	10006
2026-01-18 22:28:26.90	205.47	17.66	-53.9	-62.8	3.8	7.47e-01	0	37	104	0	79	9956
2026-01-18 22:28:27.91	205.46	17.50	-53.9	-62.7	3.8	7.45e-01	0	37	104	0	79	9929
2026-01-18 22:28:28.92	205.45	17.34	-53.9	-62.8	3.8	7.46e-01	0	37	104	0	79	9954
2026-01-18 22:28:29.93	205.44	17.18	-53.9	-62.8	3.8	7.45e-01	0	37	104	0	79	9968
2026-01-18 22:28:30.93	205.44	17.02	-53.9	-62.7	3.8	7.45e-01	0	37	104	0	79	9938
2026-01-18 22:28:31.94	205.43	16.87	-53.9	-62.8	3.8	7.46e-01	0	37	104	0	79	9972
2026-01-18 22:28:32.95	205.42	16.71	-53.9	-62.7	3.8	7.45e-01	0	37	104	0	79	9939
2026-01-18 22:28:33.96	205.41	16.56	-53.9	-62.8	3.8	7.48e-01	0	37	104	0	79	9969
2026-01-18 22:28:34.97	205.41	16.41	-53.9	-62.7	3.8	7.45e-01	0	37	104	0	79	9904
2026-01-18 22:28:35.97	205.40	16.26	-53.9	-62.8	3.8	7.46e-01	0	37	104	0	79	9948
2026-01-18 22:28:36.98	205.39	16.11	-53.9	-62.7	3.8	7.45e-01	0	37	104	0	79	9925
2026-01-18 22:28:37.99	205.39	15.96	-53.9	-62.7	3.8	7.47e-01	0	37	104	0	79	9938
2026-01-18 22:28:39.00	205.38	15.82	-53.9	-62.7	3.8	7.45e-01	0	37	104	0	79	9922
2026-01-18 22:28:40.01	205.37	15.67	-53.9	-62.7	3.8	7.46e-01	0	37	104	0	79	9906
2026-01-18 22:28:41.01	205.37	15.53	-53.9	-62.7	3.8	7.46e-01	0	37	104	0	79	9864
2026-01-18 22:28:42.02	205.36	15.38	-53.9	-62.7	3.8	7.45e-01	0	37	104	0	79	9924
2026-01-18 22:28:43.03	205.35	15.24	-53.9	-62.7	3.8	7.46e-01	0	37	104	0	79	9875
2026-01-18 22:28:44.04	205.35	15.10	-53.9	-62.7	3.8	7.46e-01	0	37	104	0	79	9878
2026-01-18 22:28:45.05	205.34	14.96	-53.8	-62.7	3.8	7.45e-01	0	37	104	0	79	9842
2026-01-18 22:28:46.05	205.33	14.82	-53.8	-62.7	3.8	7.44e-01	0	37	104	0	79	9907
2026-01-18 22:28:47.06	205.33	14.68	-53.8	-62.7	3.8	7.45e-01	0	37	104	0	79	9854
2026-01-18 22:28:48.07	205.32	14.54	-53.8	-62.7	3.8	7.45e-01	0	37	104	0	79	9832
2026-01-18 22:28:49.08	205.32	14.41	-53.8	-62.6	3.8	7.45e-01	0	37	104	0	79	9824
2026-01-18 22:28:50.08	205.31	14.27	-53.8	-62.7	3.8	7.46e-01	0	37	104	0	79	9831
2026-01-18 22:28:51.09	205.31	14.14	-53.8	-62.6	3.8	7.45e-01	0	37	104	0	79	9818
2026-01-18 22:28:52.10	205.30	14.01	-53.8	-62.6	3.8	7.46e-01	0	37	104	0	79	9824
2026-01-18 22:28:53.11	205.30	13.87	-53.8	-62.6	3.8	7.45e-01	0	37	104	0	79	9798
2026-01-18 22:28:54.11	205.29	13.74	-53.8	-62.7	3.8	7.46e-01	0	37	104	0	79	9842
2026-01-18 22:28:55.12	205.29	13.61	-53.8	-62.6	3.8	7.46e-01	0	37	104	0	79	9737
2026-01-18 22:28:56.13	205.28	13.48	-53.8	-62.6	3.8	7.45e-01	0	37	104	0	79	9773
2026-01-18 22:28:57.14	205.28	13.35	-53.7	-62.6	3.8	7.46e-01	0	37	104	0	79	9726
2026-01-18 22:28:58.15	205.27	13.23	-53.8	-62.6	3.8	7.44e-01	0	37	104	0	79	9791
2026-01-18 22:28:59.16	205.27	13.10	-53.8	-62.6	3.8	7.45e-01	0	37	104	0	79	9768
2026-01-18 22:29:00.17	205.26	12.97	-53.7	-62.6	3.8	7.45e-01	0	37	104	0	79	9776
2026-01-18 22:29:01.17	205.26	12.85	-53.7	-62.6	3.8	7.46e-01	0	37	104	0	79	9755
2026-01-18 22:29:02.18	205.25	12.72	-53.8	-62.6	3.8	7.46e-01	0	37	104	0	79	9762
2026-01-18 22:29:03.19	205.25	12.60	-53.7	-62.6	3.8	7.46e-01	0	37	104	0	79	9726
2026-01-18 22:29:04.20	205.24	12.48	-53.7	-62.5	3.8	7.45e-01	0	37	104	0	79	9703
2026-01-18 22:29:05.21	205.24	12.36	-53.7	-62.5	3.8	7.46e-01	0	37	104	0	79	9712
2026-01-18 22:29:06.21	205.24	12.24	-53.7	-62.6	3.8	7.44e-01	0	37	104	0	79	9752
2026-01-18 22:29:07.22	205.23	12.12	-53.7	-62.6	3.8	7.45e-01	0	37	104	0	79	9733
2026-01-18 22:29:08.23	205.23	12.00	-53.7	-62.5	3.8	7.46e-01	0	37	104	0	79	9700
2026-01-18 22:29:09.24	205.22	11.88	-53.7	-62.5	3.8	7.45e-01	0	37	104	0	79	9691
2026-01-18 22:29:10.25	205.22	11.76	-53.7	-62.5	3.8	7.47e-01	0	37	104	0	79	9717
2026-01-18 22:29:11.25	205.22	11.64	-53.7	-62.5	3.8	7.45e-01	0	37	104	0	79	9687
2026-01-18 22:29:12.26	205.21	11.53	-53.7	-62.5	3.8	7.46e-01	0	37	104	0	79	9648
2026-01-18 22:29:13.27	205.21	11.41	-53.6	-62.5	3.8	7.45e-01	0	37	104	0	79	9630
2026-01-18 22:29:14.28	205.20	11.30	-53.7	-62.5	3.8	7.46e-01	0	37	104	0	79	9669
2026-01-18 22:29:15.29	205.20	11.18	-53.6	-62.5	3.8	7.46e-01	0	37	104	0	79	9657
2026-01-18 22:29:16.29	205.20	11.07	-53.6	-62.5	3.8	7.44e-01	0	37	104	0	79	9612
2026-01-18 22:29:17.30	205.19	10.96	-53.6	-62.5	3.8	7.45e-01	0	37	104	0	79	9608
2026-01-18 22:29:18.31	205.19	10.84	-53.7	-62.5	3.8	7.44e-01	0	37	104	0	79	9633
2026-01-18 22:29:19.32	205.19	10.73	-53.6	-62.4	3.8	7.44e-01	0	37	104	0	79	9596
2026-01-18 22:29:20.33	205.18	10.62	-53.6	-62.4	3.8	7.44e-01	0	37	104	0	79	9589
2026-01-18 22:29:21.33	205.18	10.51	-53.6	-62.4	3.8	7.44e-01	0	37	104	0	79	9597
2026-01-18 22:29:22.34	205.18	10.40	-53.6	-62.5	3.8	7.45e-01	0	37	104	0	79	9630
2026-01-18 22:29:23.35	205.18	10.29	-53.6	-62.4	3.8	7.46e-01	0	37	104	0	79	9572
2026-01-18 22:29:24.36	205.17	10.18	-53.6	-62.4	3.8	7.46e-01	0	37	104	0	79	9556
2026-01-18 22:29:25.36	205.17	10.08	-53.6	-62.4	3.8	7.45e-01	0	37	104	0	79	9543
2026-01-18 22:29:26.37	205.17	9.97	-53.6	-62.4	3.8	7.44e-01	0	37	104	0	79	9548
2026-01-18 22:29:27.38	205.16	9.86	-53.5	-62.4	3.8	7.47e-01	0	37	104	0	79	9579
2026-01-18 22:29:28.39	205.16	9.76	-53.5	-62.4	3.8	7.43e-01	0	37	104	0	79	9514
2026-01-18 22:29:29.39	205.16	9.65	-53.5	-62.4	3.8	7.46e-01	0	37	104	0	79	9521
2026-01-18 22:29:30.40	205.16	9.55	-53.5	-62.4	3.8	7.44e-01	0	37	104	0	79	9577
2026-01-18 22:29:31.41	205.15	9.45	-53.5	-62.4	3.8	7.45e-01	0	37	104	0	79	9517
2026-01-18 22:29:32.42	205.15	9.34	-53.5	-62.3	3.8	7.44e-01	0	37	104	0	79	9477
2026-01-18 22:29:33.42	205.15	9.24	-53.5	-62.4	3.8	7.45e-01	0	37	104	0	78	10065
2026-01-18 22:29:34.43	205.15	9.14	-53.5	-62.3	3.8	7.44e-01	0	37	104	0	78	10043
2026-01-18 22:29:35.44	205.14	9.04	-53.5	-62.3	3.8	7.45e-01	0	37	104	0	78	10002
2026-01-18 22:29:36.45	205.14	8.93	-53.4	-62.3	3.8	7.45e-01	0	37	104	0	78	10000
2026-01-18 22:29:37.45	205.14	8.84	-53.5	-62.3	3.8	7.45e-01	0	37	104	0	78	10005
2026-01-18 22:29:38.47	205.14	8.73	-53.5	-62.3	3.8	7.44e-01	0	37	104	0	78	10017
2026-01-18 22:29:39.47	205.13	8.64	-53.4	-62.3	3.8	7.45e-01	0	37	104	0	78	9977
2026-01-18 22:29:40.48	205.13	8.54	-53.4	-62.2	3.8	7.45e-01	0	37	104	0	78	9930
2026-01-18 22:29:41.49	205.13	8.44	-53.4	-62.3	3.8	7.45e-01	0	37	104	0	78	9985
2026-01-18 22:29:42.49	205.13	8.34	-53.4	-62.3	3.8	7.44e-01	0	37	104	0	78	9969
2026-01-18 22:29:43.50	205.13	8.24	-53.4	-62.2	3.8	7.44e-01	0	37	104	0	78	9905
2026-01-18 22:29:44.51	205.12	8.15	-53.4	-62.2	3.8	7.45e-01	0	37	104	0	78	9876
2026-01-18 22:29:45.52	205.12	8.05	-53.4	-62.2	3.8	7.45e-01	0	37	104	0	78	9923
2026-01-18 22:29:46.53	205.12	7.95	-53.4	-62.2	3.8	7.45e-01	0	37	104	0	78	9931
2026-01-18 22:29:47.53	205.12	7.86	-53.4	-62.2	3.8	7.46e-01	0	37	104	0	78	9874
2026-01-18 22:29:48.54	205.12	7.76	-53.3	-62.2	3.8	7.44e-01	0	37	104	0	78	9862
2026-01-18 22:29:49.55	205.12	7.67	-53.4	-62.2	3.8	7.44e-01	0	37	104	0	78	9923
2026-01-18 22:29:50.56	205.11	7.57	-53.3	-62.1	3.8	7.43e-01	0	37	104	0	78	9829
2026-01-18 22:29:51.56	205.11	7.48	-53.3	-62.1	3.8	7.46e-01	0	37	104	0	78	9825
2026-01-18 22:29:52.57	205.11	7.39	-53.2	-62.1	3.8	7.45e-01	0	37	104	0	78	9761
2026-01-18 22:29:53.58	205.11	7.30	-53.3	-62.1	3.8	7.46e-01	0	37	104	0	78	9823
2026-01-18 22:29:54.58	205.11	7.20	-53.3	-62.1	3.8	7.44e-01	0	37	104	0	78	9822
2026-01-18 22:29:55.59	205.11	7.11	-53.3	-62.1	3.8	7.46e-01	0	37	104	0	78	9750
2026-01-18 22:29:56.60	205.11	7.02	-53.2	-62.0	3.8	7.45e-01	0	37	104	0	78	9697
2026-01-18 22:29:57.61	205.10	6.93	-53.3	-62.1	3.8	7.45e-01	0	37	104	0	78	9762
2026-01-18 22:29:58.62	205.10	6.84	-53.2	-62.1	3.8	7.45e-01	0	37	104	0	78	9742
2026-01-18 22:29:59.63	205.10	6.75	-53.2	-62.0	3.8	7.44e-01	0	37	104	0	78	9698
2026-01-18 22:30:00.64	205.10	6.66	-53.1	-61.9	3.8	7.46e-01	0	37	104	0	78	9601
2026-01-18 22:30:01.64	205.10	6.57	-53.2	-62.1	3.8	7.44e-01	0	37	104	0	78	9751
2026-01-18 22:30:02.65	205.10	6.48	-53.2	-62.0	3.8	7.45e-01	0	37	104	0	78	9675
2026-01-18 22:30:03.66	205.10	6.39	-53.2	-62.0	3.8	7.45e-01	0	37	104	0	78	9623
2026-01-18 22:30:04.67	205.10	6.31	-53.1	-61.9	3.8	7.45e-01	0	37	104	0	78	9588
2026-01-18 22:30:05.68	205.09	6.22	-53.2	-62.0	3.8	7.46e-01	0	37	104	0	78	9682
2026-01-18 22:30:06.68	205.09	6.13	-53.1	-62.0	3.8	7.44e-01	0	37	104	0	78	9621
2026-01-18 22:30:07.69	205.09	6.05	-53.1	-62.0	3.8	7.45e-01	0	37	104	0	78	9611
2026-01-18 22:30:08.70	205.09	5.96	-53.0	-61.9	3.8	7.44e-01	0	37	104	0	78	9512
2026-01-18 22:30:09.71	205.09	5.87	-53.1	-62.0	3.8	7.44e-01	0	37	104	0	78	9664
2026-01-18 22:30:10.71	205.09	5.79	-53.1	-62.0	3.8	7.46e-01	0	37	104	0	78	9610
2026-01-18 22:30:11.72	205.09	5.70	-53.0	-61.9	3.8	7.47e-01	0	37	104	0	78	9546
2026-01-18 22:30:12.73	205.09	5.62	-52.9	-61.8	3.8	7.46e-01	0	37	104	0	77	9946
2026-01-18 22:30:13.74	205.09	5.53	-53.1	-61.9	3.8	7.44e-01	0	37	104	0	77	10115
2026-01-18 22:30:14.75	205.09	5.45	-53.0	-61.8	3.8	7.45e-01	0	37	104	0	77	10019
2026-01-18 22:30:15.75	205.09	5.37	-53.0	-61.8	3.8	7.48e-01	0	37	104	0	77	9991
2026-01-18 22:30:16.76	205.08	5.28	-52.8	-61.7	3.8	7.45e-01	0	37	104	0	77	9867
2026-01-18 22:30:17.77	205.08	5.20	-53.0	-61.9	3.8	7.44e-01	0	37	104	0	77	10062
2026-01-18 22:30:18.77	205.08	5.12	-52.9	-61.7	3.8	7.44e-01	0	37	104	0	77	9940
2026-01-18 22:30:19.78	205.08	5.03	-52.9	-61.7	3.8	7.46e-01	0	37	104	0	77	9890
2026-01-18 22:30:20.79	205.08	4.95	-53.1	-61.9	3.8	7.45e-01	0	37	104	0	77	10109
2026-01-18 22:30:21.80	205.08	4.87	-53.5	-62.4	3.8	7.45e-01	0	37	104	0	77	10657
2026-01-18 22:30:22.81	205.08	4.79	-53.8	-62.7	3.8	7.45e-01	0	37	104	0	78	10467
2026-01-18 22:30:23.82	205.08	4.71	-54.0	-62.8	3.8	7.45e-01	0	37	104	0	78	10645
2026-01-18 22:30:24.82	205.08	4.63	-54.1	-63.0	3.8	7.45e-01	0	37	104	0	78	10838
2026-01-18 22:30:25.83	205.08	4.55	-54.2	-63.1	3.9	7.45e-01	0	37	104	0	79	10334
2026-01-18 22:30:26.84	205.08	4.47	-54.3	-63.2	3.8	7.45e-01	0	37	104	0	79	10447
2026-01-18 22:30:27.85	205.08	4.39	-54.4	-63.2	3.8	7.45e-01	0	37	104	0	79	10525
2026-01-18 22:30:28.86	205.08	4.31	-54.5	-63.3	3.8	7.46e-01	0	37	104	0	79	10637
2026-01-18 22:30:29.87	205.08	4.23	-54.5	-63.4	3.8	7.43e-01	0	37	104	0	79	10714
2026-01-18 22:30:30.87	205.08	4.15	-54.6	-63.4	3.8	7.45e-01	0	37	104	0	79	10701
2026-01-18 22:30:31.88	205.08	4.07	-54.6	-63.4	3.8	7.46e-01	0	37	104	0	79	10764
2026-01-18 22:30:32.89	205.08	3.99	-54.6	-63.5	3.8	7.45e-01	0	37	104	0	79	10782
2026-01-18 22:30:33.90	205.08	3.92	-54.7	-63.5	3.8	7.45e-01	0	37	104	0	79	10858
2026-01-18 22:30:34.90	205.08	3.84	-54.7	-63.5	3.8	7.43e-01	0	37	104	0	79	10880
2026-01-18 22:30:35.91	205.08	3.76	-54.7	-63.5	3.8	7.45e-01	0	37	104	0	79	10887
2026-01-18 22:30:36.92	205.08	3.68	-54.7	-63.5	3.8	7.45e-01	0	37	104	0	80	10255
2026-01-18 22:30:37.93	205.08	3.61	-54.7	-63.5	3.8	7.46e-01	0	37	104	0	80	10272
2026-01-18 22:30:38.94	205.08	3.53	-54.7	-63.5	3.8	7.47e-01	0	37	104	0	80	10280
2026-01-18 22:30:39.95	205.08	3.46	-54.7	-63.5	3.8	7.46e-01	0	37	104	0	80	10293
2026-01-18 22:30:40.95	205.08	3.38	-54.7	-63.5	3.8	7.45e-01	0	37	104	0	80	10277
2026-01-18 22:30:41.96	205.08	3.30	-54.7	-63.6	3.8	7.44e-01	0	37	104	0	80	10318
2026-01-18 22:30:42.97	205.08	3.23	-54.8	-63.6	3.8	7.45e-01	0	37	104	0	80	10385
2026-01-18 22:30:43.98	205.08	3.15	-54.7	-63.6	3.8	7.45e-01	0	37	104	0	80	10352
2026-01-18 22:30:44.99	205.08	3.08	-54.7	-63.6	3.8	7.44e-01	0	37	104	0	80	10319
2026-01-18 22:30:45.99	205.08	3.01	-54.7	-63.5	3.8	7.46e-01	0	37	104	0	80	10262
2026-01-18 22:30:47.00	205.08	2.93	-54.7	-63.5	3.8	7.45e-01	0	37	104	0	80	10285
2026-01-18 22:30:48.01	205.08	2.86	-54.7	-63.5	3.8	7.46e-01	0	37	104	0	80	10259
2026-01-18 22:30:49.02	205.08	2.78	-54.7	-63.5	3.8	7.45e-01	0	37	104	0	80	10261
2026-01-18 22:30:50.03	205.08	2.71	-54.7	-63.5	3.8	7.46e-01	0	37	104	0	80	10248
2026-01-18 22:30:51.04	205.08	2.64	-54.7	-63.5	3.8	7.43e-01	0	37	104	0	80	10231
2026-01-18 22:30:52.05	205.08	2.56	-54.7	-63.5	3.8	7.47e-01	0	37	104	0	80	10251
2026-01-18 22:30:53.05	205.08	2.49	-54.6	-63.5	3.8	7.46e-01	0	37	104	0	80	10249
2026-01-18 22:30:54.06	205.08	2.42	-54.6	-63.5	3.8	7.46e-01	0	37	104	0	80	10230
2026-01-18 22:30:55.07	205.08	2.35	-54.6	-63.5	3.8	7.46e-01	0	37	104	0	80	10224
2026-01-18 22:30:56.08	205.08	2.27	-54.6	-63.5	3.8	7.45e-01	0	37	104	0	80	10246
2026-01-18 22:30:57.09	205.08	2.20	-54.6	-63.5	3.8	7.45e-01	0	37	104	0	80	10218
2026-01-18 22:30:58.10	205.08	2.13	-54.6	-63.5	3.8	7.46e-01	0	37	104	0	80	10222
2026-01-18 22:30:59.10	205.08	2.06	-54.6	-63.5	3.8	7.45e-01	0	37	104	0	80	10220
2026-01-18 22:31:00.11	205.08	1.99	-54.6	-63.5	3.8	7.45e-01	0	37	104	0	80	10215

#Closed at: 2026-01-18 22:31:01
#Recorded file [0 MB]: D:/lorett/data/31041_260119_012028.dat