passes_logs/2026/01/18/R3.2S_Murmansk/R3.2S_Murmansk__20260118_021602_NOAA_20_JPSS-1_rec.log

#Pass ID: 20260118_021602_NOAA 20 (JPSS-1)
#Satellite: NOAA 20 (JPSS-1)
#Configuration: NOAA 20
#almurnet v.1.7.20251203
#Start time: 2026-01-18 02:16:01

#Version: 2.2.20231116
#Station: R3.2S_Murmansk
#Location: 33.079688 lon 68.888172 lat
#TLE: 1 43013U 17073A   26017.58553584  .00000066  00000+0  52288-4 0  9998
#TLE: 2 43013  98.7639 318.4977 0001406  35.6039 324.5231 14.19536575423107

#Time	Az	El	Level	Level2	SNR	BER	BlckErr	Temp	State	Recorded	gain1	gain2
2026-01-18 02:16:01.95	32.38	1.99	-51.5	-66.5	3.8	1.49e+00	0	33	0	0	75	19182
2026-01-18 02:16:02.95	32.34	2.05	-51.5	-66.5	3.8	1.49e+00	0	33	104	0	73	21605
2026-01-18 02:16:03.95	32.31	2.12	-51.5	-66.4	3.8	1.49e+00	0	33	104	0	73	21494
2026-01-18 02:16:04.96	32.28	2.18	-51.5	-66.4	3.8	1.49e+00	0	33	104	0	73	21478
2026-01-18 02:16:05.97	32.24	2.24	-51.5	-66.5	3.8	1.49e+00	0	33	104	0	73	21508
2026-01-18 02:16:06.98	32.21	2.30	-51.5	-66.5	3.8	1.49e+00	0	33	104	0	73	21511
2026-01-18 02:16:07.98	32.17	2.37	-51.5	-66.4	3.8	1.49e+00	0	33	104	0	73	21437
2026-01-18 02:16:08.99	32.14	2.43	-51.5	-66.4	3.8	1.49e+00	0	33	104	0	73	21309
2026-01-18 02:16:10.00	32.10	2.49	-51.5	-66.4	3.8	1.49e+00	0	33	104	0	73	21376
2026-01-18 02:16:11.01	32.07	2.56	-51.5	-66.4	3.8	1.49e+00	0	34	104	0	73	21402
2026-01-18 02:16:12.02	32.03	2.62	-51.5	-66.4	3.8	1.49e+00	0	34	104	0	73	21459
2026-01-18 02:16:13.02	32.00	2.68	-51.5	-66.4	3.8	1.49e+00	0	33	104	0	73	21430
2026-01-18 02:16:14.03	31.96	2.75	-51.5	-66.3	3.8	1.49e+00	0	34	104	0	73	21240
2026-01-18 02:16:15.04	31.93	2.81	-51.5	-66.4	3.8	1.49e+00	0	33	104	0	73	21340
2026-01-18 02:16:16.04	31.89	2.88	-51.5	-66.3	3.8	1.49e+00	0	34	104	0	73	21189
2026-01-18 02:16:17.05	31.85	2.94	-51.5	-66.3	3.8	1.49e+00	0	34	104	0	73	21028
2026-01-18 02:16:18.06	31.82	3.00	-51.4	-65.9	3.8	1.49e+00	0	34	104	0	73	20165
2026-01-18 02:16:19.07	31.78	3.07	-51.4	-65.2	3.8	1.49e+00	0	34	104	0	73	18653
2026-01-18 02:16:20.08	31.74	3.13	-51.4	-64.9	3.8	1.49e+00	0	34	104	0	73	17901
2026-01-18 02:16:21.09	31.71	3.20	-51.4	-64.4	3.8	1.49e+00	0	34	104	0	73	17066
2026-01-18 02:16:22.10	31.67	3.26	-51.4	-64.2	3.9	1.48e+00	0	34	104	0	73	16686
2026-01-18 02:16:23.11	31.63	3.33	-51.4	-64.6	3.8	1.49e+00	0	34	104	0	73	17455
2026-01-18 02:16:24.11	31.60	3.39	-51.4	-65.2	3.8	1.49e+00	0	34	104	0	73	18610
2026-01-18 02:16:25.12	31.56	3.46	-51.4	-65.6	3.8	1.49e+00	0	34	104	0	73	19535
2026-01-18 02:16:26.13	31.52	3.52	-51.5	-66.2	3.8	1.49e+00	0	34	104	0	73	20884
2026-01-18 02:16:27.14	31.48	3.59	-51.5	-66.0	3.8	1.49e+00	0	34	104	0	73	20448
2026-01-18 02:16:28.15	31.44	3.66	-51.4	-65.2	3.8	1.49e+00	0	34	104	0	73	18564
2026-01-18 02:16:29.15	31.41	3.72	-51.4	-64.0	4.0	1.49e+00	0	34	104	0	73	16182
2026-01-18 02:16:30.16	31.37	3.79	-51.3	-62.9	4.2	1.43e+00	0	34	0	0	73	14266
2026-01-18 02:16:31.17	31.33	3.85	-51.1	-60.9	5.0	1.08e+00	0	34	0	1048576	73	11355
2026-01-18 02:16:32.18	31.29	3.92	-50.9	-59.6	5.8	5.37e-01	0	34	0	3145728	73	9752
2026-01-18 02:16:33.18	31.25	3.99	-50.7	-58.0	7.1	1.96e-01	0	34	0	4194304	73	8111
2026-01-18 02:16:34.19	31.21	4.05	-50.5	-57.1	8.0	1.09e-01	0	34	0	6291456	73	7346
2026-01-18 02:16:35.20	31.17	4.12	-50.3	-56.4	8.7	3.85e-02	0	34	0	8388608	72	7162
2026-01-18 02:16:36.21	31.13	4.19	-50.1	-55.7	9.5	1.73e-02	0	34	0	10485760	72	6586
2026-01-18 02:16:37.22	31.09	4.26	-50.1	-55.7	9.5	1.80e-02	0	34	0	11534336	72	6573
2026-01-18 02:16:38.23	31.05	4.32	-49.9	-54.9	10.4	4.54e-03	0	34	0	13631488	71	6382
2026-01-18 02:16:39.23	31.01	4.39	-49.9	-54.9	10.4	4.61e-03	0	34	0	15728640	71	6405
2026-01-18 02:16:40.24	30.97	4.46	-49.9	-54.9	10.4	3.82e-03	0	34	0	17825792	71	6381
2026-01-18 02:16:41.25	30.93	4.53	-50.0	-55.3	9.9	6.49e-03	0	34	0	19922944	71	6705
2026-01-18 02:16:42.26	30.89	4.59	-50.1	-55.8	9.5	8.22e-03	0	34	0	22020096	71	7048
2026-01-18 02:16:43.27	30.85	4.66	-50.4	-56.6	8.6	3.84e-02	0	34	0	23068672	71	7730
2026-01-18 02:16:44.28	30.81	4.73	-50.5	-57.1	8.1	4.03e-02	0	34	0	25165824	71	8221
2026-01-18 02:16:45.29	30.76	4.80	-50.5	-57.1	8.1	7.75e-02	0	34	0	27262976	71	8238
2026-01-18 02:16:46.29	30.72	4.87	-50.7	-58.4	6.8	1.40e-01	0	34	0	29360128	72	8985
2026-01-18 02:16:47.30	30.68	4.93	-50.9	-59.6	5.9	2.99e-01	0	34	0	31457280	72	10350
2026-01-18 02:16:48.31	30.64	5.00	-50.9	-59.6	5.8	4.08e-01	0	34	0	32505856	72	10321
2026-01-18 02:16:49.32	30.60	5.07	-51.0	-60.1	5.4	4.31e-01	0	34	0	34603008	72	10968
2026-01-18 02:16:50.33	30.55	5.14	-50.4	-55.8	9.7	1.73e-02	0	34	0	36700160	72	6683
2026-01-18 02:16:51.34	30.51	5.21	-51.2	-59.5	6.2	1.04e-01	0	34	0	38797312	72	10181
2026-01-18 02:16:52.34	30.47	5.28	-51.2	-62.3	4.3	1.03e+00	0	34	104	39845888	72	14066
2026-01-18 02:16:53.35	30.42	5.35	-50.0	-54.5	11.8	1.50e-06	0	34	0	40894464	70	6422
2026-01-18 02:16:54.36	30.38	5.42	-51.6	-62.7	4.3	1.47e+00	0	34	104	40894464	73	14002
2026-01-18 02:16:55.37	30.34	5.49	-48.3	-51.0	15.1	2.38e-03	0	34	0	41943040	68	4815
2026-01-18 02:16:56.37	30.29	5.56	-48.0	-50.5	15.8	0.00e+00	0	34	0	44040192	68	4567
2026-01-18 02:16:57.38	30.25	5.63	-48.3	-50.8	15.4	0.00e+00	0	34	0	46137344	68	4748
2026-01-18 02:16:58.39	30.20	5.70	-48.2	-50.8	15.4	0.00e+00	0	34	0	48234496	68	4726
2026-01-18 02:16:59.40	30.16	5.77	-48.2	-50.8	15.5	0.00e+00	0	34	0	49283072	68	4736
2026-01-18 02:17:00.40	30.11	5.84	-48.1	-50.6	15.8	0.00e+00	0	34	0	51380224	68	4607
2026-01-18 02:17:01.41	30.07	5.91	-48.2	-50.7	15.7	0.00e+00	0	34	0	53477376	68	4658
2026-01-18 02:17:02.42	30.02	5.99	-48.2	-50.7	15.6	0.00e+00	0	34	0	55574528	68	4691
2026-01-18 02:17:03.43	29.98	6.06	-48.0	-50.4	15.9	0.00e+00	0	34	0	56623104	68	4534
2026-01-18 02:17:04.44	29.93	6.13	-48.4	-51.1	15.3	0.00e+00	0	34	0	58720256	68	4899
2026-01-18 02:17:05.44	29.89	6.20	-48.0	-50.3	16.0	0.00e+00	0	34	0	60817408	68	4477
2026-01-18 02:17:06.45	29.84	6.27	-48.1	-50.6	15.7	0.00e+00	0	34	0	62914560	67	4891
2026-01-18 02:17:07.46	29.79	6.34	-47.9	-50.3	16.1	0.00e+00	0	34	0	65011712	67	4712
2026-01-18 02:17:08.47	29.75	6.42	-48.0	-50.3	16.0	0.00e+00	0	34	0	67108864	67	4748
2026-01-18 02:17:09.48	29.70	6.49	-48.1	-50.5	15.9	0.00e+00	0	34	0	68157440	67	4836
2026-01-18 02:17:10.49	29.65	6.56	-47.8	-50.1	16.3	0.00e+00	0	34	0	70254592	67	4614
2026-01-18 02:17:11.49	29.60	6.63	-47.9	-50.2	16.1	0.00e+00	0	34	0	72351744	67	4696
2026-01-18 02:17:12.50	29.56	6.71	-47.8	-50.1	16.3	0.00e+00	0	34	0	74448896	67	4606
2026-01-18 02:17:13.51	29.51	6.78	-48.0	-50.4	16.0	0.00e+00	0	35	0	76546048	67	4776
2026-01-18 02:17:14.51	29.46	6.85	-48.0	-50.4	16.0	0.00e+00	0	34	0	77594624	67	4791
2026-01-18 02:17:15.52	29.41	6.93	-47.8	-50.0	16.3	0.00e+00	0	35	0	79691776	67	4591
2026-01-18 02:17:16.53	29.36	7.00	-47.9	-50.2	16.2	0.00e+00	0	34	0	81788928	67	4679
2026-01-18 02:17:17.54	29.31	7.07	-47.8	-50.0	16.4	0.00e+00	0	34	0	83886080	67	4590
2026-01-18 02:17:18.55	29.26	7.15	-47.8	-50.0	16.5	0.00e+00	0	35	0	84934656	67	4574
2026-01-18 02:17:19.55	29.21	7.22	-47.9	-50.1	16.3	0.00e+00	0	35	0	87031808	67	4644
2026-01-18 02:17:20.56	29.16	7.30	-47.7	-49.9	16.6	0.00e+00	0	34	0	89128960	67	4528
2026-01-18 02:17:21.57	29.11	7.37	-47.8	-50.1	16.4	0.00e+00	0	35	0	91226112	67	4613
2026-01-18 02:17:22.58	29.06	7.45	-47.7	-49.9	16.6	0.00e+00	0	34	0	93323264	67	4525
2026-01-18 02:17:23.59	29.01	7.52	-47.7	-49.8	16.7	0.00e+00	0	35	0	95420416	67	4487
2026-01-18 02:17:24.59	28.96	7.60	-47.7	-49.8	16.6	0.00e+00	0	35	0	96468992	67	4491
2026-01-18 02:17:25.60	28.91	7.67	-47.7	-49.9	16.6	0.00e+00	0	34	0	98566144	67	4529
2026-01-18 02:17:26.61	28.86	7.75	-47.6	-49.8	16.7	0.00e+00	0	35	0	100663296	67	4448
2026-01-18 02:17:27.61	28.80	7.82	-47.7	-49.9	16.7	0.00e+00	0	34	0	102760448	67	4496
2026-01-18 02:17:28.62	28.75	7.90	-47.8	-50.1	16.5	0.00e+00	0	34	0	104857600	67	4602
2026-01-18 02:17:29.63	28.70	7.98	-47.8	-50.0	16.5	0.00e+00	0	34	0	105906176	67	4593
2026-01-18 02:17:30.64	28.65	8.05	-47.8	-50.0	16.5	0.00e+00	0	35	0	108003328	67	4598
2026-01-18 02:17:31.64	28.59	8.13	-47.7	-49.8	16.7	0.00e+00	0	35	0	110100480	67	4465
2026-01-18 02:17:32.65	28.54	8.21	-47.7	-49.9	16.6	0.00e+00	0	35	0	112197632	67	4528
2026-01-18 02:17:33.66	28.48	8.28	-47.5	-49.5	17.1	0.00e+00	0	35	0	114294784	67	4325
2026-01-18 02:17:34.67	28.43	8.36	-47.7	-49.8	16.8	0.00e+00	0	35	0	115343360	66	4727
2026-01-18 02:17:35.68	28.38	8.44	-47.7	-49.8	16.8	0.00e+00	0	34	0	117440512	66	4734
2026-01-18 02:17:36.69	28.32	8.52	-47.6	-49.7	16.9	0.00e+00	0	34	0	119537664	66	4681
2026-01-18 02:17:37.70	28.27	8.60	-47.7	-49.9	16.8	0.00e+00	0	35	0	121634816	66	4765
2026-01-18 02:17:38.70	28.21	8.67	-47.6	-49.7	16.9	0.00e+00	0	35	0	123731968	66	4661
2026-01-18 02:17:39.71	28.15	8.75	-47.3	-49.3	17.4	0.00e+00	0	35	0	124780544	66	4461
2026-01-18 02:17:40.72	28.10	8.83	-47.4	-49.4	17.2	0.00e+00	0	35	0	126877696	66	4528
2026-01-18 02:17:41.73	28.04	8.91	-47.5	-49.5	17.1	0.00e+00	0	34	0	128974848	66	4574
2026-01-18 02:17:42.74	27.99	8.99	-47.5	-49.5	17.2	0.00e+00	0	35	0	131072000	66	4556
2026-01-18 02:17:43.74	27.93	9.07	-47.6	-49.6	17.1	0.00e+00	0	34	0	133169152	66	4630
2026-01-18 02:17:44.75	27.87	9.15	-47.3	-49.3	17.4	0.00e+00	0	35	0	135266304	66	4471
2026-01-18 02:17:45.76	27.81	9.23	-47.4	-49.3	17.4	0.00e+00	0	35	0	136314880	66	4471
2026-01-18 02:17:46.77	27.76	9.31	-47.4	-49.3	17.4	0.00e+00	0	35	0	138412032	66	4471
2026-01-18 02:17:47.78	27.70	9.39	-47.3	-49.2	17.5	0.00e+00	0	35	0	140509184	66	4415
2026-01-18 02:17:48.79	27.64	9.47	-47.4	-49.4	17.2	0.00e+00	0	34	0	142606336	66	4536
2026-01-18 02:17:49.79	27.58	9.55	-47.3	-49.3	17.4	0.00e+00	0	35	0	143654912	66	4458
2026-01-18 02:17:50.80	27.52	9.63	-47.3	-49.2	17.5	0.00e+00	0	35	0	145752064	66	4396
2026-01-18 02:17:51.81	27.46	9.71	-47.4	-49.3	17.3	0.00e+00	0	35	0	147849216	66	4487
2026-01-18 02:17:52.82	27.40	9.79	-47.2	-49.1	17.6	0.00e+00	0	35	0	149946368	66	4381
2026-01-18 02:17:53.83	27.34	9.87	-47.2	-49.0	17.7	0.00e+00	0	35	0	152043520	66	4316
2026-01-18 02:17:54.83	27.28	9.95	-47.1	-49.0	17.7	0.00e+00	0	35	0	153092096	66	4314
2026-01-18 02:17:55.84	27.22	10.04	-47.1	-48.9	17.8	0.00e+00	0	35	0	155189248	66	4274
2026-01-18 02:17:56.85	27.15	10.12	-47.2	-49.1	17.7	0.00e+00	0	35	0	157286400	66	4357
2026-01-18 02:17:57.86	27.09	10.20	-47.0	-48.8	17.9	0.00e+00	0	35	0	159383552	66	4236
2026-01-18 02:17:58.86	27.03	10.28	-47.1	-48.9	17.9	0.00e+00	0	35	0	161480704	66	4266
2026-01-18 02:17:59.87	26.97	10.37	-47.0	-48.8	17.9	0.00e+00	0	35	0	163577856	66	4207
2026-01-18 02:18:00.88	26.90	10.45	-47.0	-48.8	17.9	0.00e+00	0	35	0	164626432	65	4471
2026-01-18 02:18:01.89	26.84	10.53	-47.0	-48.8	18.0	0.00e+00	0	35	0	166723584	65	4453
2026-01-18 02:18:02.90	26.78	10.62	-46.9	-48.6	18.1	0.00e+00	0	35	0	168820736	65	4387
2026-01-18 02:18:03.90	26.71	10.70	-46.9	-48.6	18.1	0.00e+00	0	35	0	170917888	65	4376
2026-01-18 02:18:04.91	26.65	10.79	-46.9	-48.7	18.1	0.00e+00	0	35	0	171966464	65	4395
2026-01-18 02:18:05.92	26.58	10.87	-46.9	-48.7	18.1	0.00e+00	0	35	0	174063616	65	4396
2026-01-18 02:18:06.93	26.52	10.96	-46.9	-48.7	18.0	0.00e+00	0	35	0	176160768	65	4426
2026-01-18 02:18:07.94	26.45	11.04	-46.8	-48.5	18.2	0.00e+00	0	35	0	178257920	65	4330
2026-01-18 02:18:08.95	26.39	11.13	-46.8	-48.5	18.3	0.00e+00	0	35	0	180355072	65	4331
2026-01-18 02:18:09.95	26.32	11.21	-46.8	-48.5	18.3	0.00e+00	0	35	0	181403648	65	4319
2026-01-18 02:18:10.96	26.25	11.30	-46.8	-48.5	18.3	0.00e+00	0	35	0	183500800	65	4337
2026-01-18 02:18:11.97	26.18	11.38	-46.7	-48.4	18.4	0.00e+00	0	35	0	185597952	65	4289
2026-01-18 02:18:12.97	26.12	11.47	-46.7	-48.4	18.4	0.00e+00	0	35	0	187695104	65	4269
2026-01-18 02:18:13.98	26.05	11.56	-46.7	-48.4	18.4	0.00e+00	0	35	0	189792256	65	4252
2026-01-18 02:18:14.99	25.98	11.64	-46.7	-48.4	18.4	0.00e+00	0	35	0	191889408	65	4263
2026-01-18 02:18:16.00	25.91	11.73	-46.6	-48.3	18.5	0.00e+00	0	35	0	192937984	65	4205
2026-01-18 02:18:17.00	25.84	11.82	-46.7	-48.4	18.4	0.00e+00	0	35	0	195035136	65	4275
2026-01-18 02:18:18.01	25.77	11.90	-46.7	-48.3	18.5	0.00e+00	0	35	0	197132288	65	4238
2026-01-18 02:18:19.02	25.70	11.99	-46.6	-48.3	18.6	0.00e+00	0	35	0	199229440	65	4197
2026-01-18 02:18:20.03	25.63	12.08	-46.7	-48.3	18.5	0.00e+00	0	35	0	200278016	65	4238
2026-01-18 02:18:21.04	25.56	12.17	-46.6	-48.3	18.6	0.00e+00	0	35	0	202375168	65	4216
2026-01-18 02:18:22.04	25.49	12.26	-46.6	-48.3	18.6	0.00e+00	0	35	0	204472320	65	4202
2026-01-18 02:18:23.05	25.41	12.35	-46.7	-48.3	18.5	0.00e+00	0	35	0	206569472	65	4239
2026-01-18 02:18:24.06	25.34	12.44	-46.7	-48.3	18.5	0.00e+00	0	35	0	208666624	65	4238
2026-01-18 02:18:25.07	25.27	12.53	-46.7	-48.3	18.5	0.00e+00	0	35	0	210763776	65	4240
2026-01-18 02:18:26.07	25.19	12.62	-46.7	-48.4	18.5	0.00e+00	0	35	0	211812352	65	4283
2026-01-18 02:18:27.08	25.12	12.71	-46.7	-48.4	18.5	0.00e+00	0	35	0	213909504	65	4266
2026-01-18 02:18:28.09	25.05	12.80	-46.8	-48.4	18.5	0.00e+00	0	35	0	216006656	65	4288
2026-01-18 02:18:29.10	24.97	12.89	-46.6	-48.2	18.7	0.00e+00	0	35	0	218103808	65	4173
2026-01-18 02:18:30.10	24.89	12.98	-46.6	-48.2	18.6	0.00e+00	0	35	0	220200960	65	4191
2026-01-18 02:18:31.11	24.82	13.07	-46.7	-48.4	18.5	0.00e+00	0	35	0	221249536	65	4249
2026-01-18 02:18:32.12	24.74	13.16	-46.8	-48.5	18.5	0.00e+00	0	35	0	223346688	65	4293
2026-01-18 02:18:33.13	24.66	13.25	-46.6	-48.3	18.7	0.00e+00	0	35	0	225443840	65	4198
2026-01-18 02:18:34.14	24.59	13.34	-46.7	-48.3	18.6	0.00e+00	0	35	0	227540992	65	4233
2026-01-18 02:18:35.14	24.51	13.44	-46.6	-48.3	18.6	0.00e+00	0	35	0	228589568	65	4200
2026-01-18 02:18:36.15	24.43	13.53	-46.7	-48.3	18.6	0.00e+00	0	35	0	230686720	65	4231
2026-01-18 02:18:37.16	24.35	13.62	-46.7	-48.3	18.6	0.00e+00	0	35	0	232783872	65	4234
2026-01-18 02:18:38.17	24.27	13.72	-46.5	-48.1	18.8	0.00e+00	0	35	0	234881024	65	4142
2026-01-18 02:18:39.18	24.19	13.81	-46.6	-48.3	18.7	0.00e+00	0	35	0	236978176	65	4199
2026-01-18 02:18:40.19	24.11	13.90	-46.5	-48.1	18.8	0.00e+00	0	35	0	239075328	65	4137
2026-01-18 02:18:41.19	24.03	14.00	-46.5	-48.1	18.8	0.00e+00	0	35	0	240123904	65	4134
2026-01-18 02:18:42.20	23.95	14.09	-46.5	-48.1	18.8	0.00e+00	0	35	0	242221056	65	4136
2026-01-18 02:18:43.21	23.86	14.19	-46.7	-48.3	18.7	0.00e+00	0	35	0	244318208	65	4226
2026-01-18 02:18:44.22	23.78	14.28	-46.6	-48.3	18.7	0.00e+00	0	35	0	246415360	65	4202
2026-01-18 02:18:45.23	23.70	14.38	-46.7	-48.3	18.6	0.00e+00	0	35	0	248512512	65	4222
2026-01-18 02:18:46.23	23.61	14.47	-46.6	-48.2	18.8	0.00e+00	0	35	0	249561088	65	4167
2026-01-18 02:18:47.24	23.53	14.57	-46.6	-48.2	18.8	0.00e+00	0	35	0	251658240	65	4161
2026-01-18 02:18:48.25	23.44	14.67	-46.7	-48.3	18.7	0.00e+00	0	35	0	253755392	65	4210
2026-01-18 02:18:49.26	23.36	14.76	-46.6	-48.2	18.8	0.00e+00	0	35	0	255852544	65	4155
2026-01-18 02:18:50.27	23.27	14.86	-46.6	-48.3	18.7	0.00e+00	0	35	0	257949696	65	4197
2026-01-18 02:18:51.27	23.19	14.96	-46.6	-48.2	18.8	0.00e+00	0	35	0	258998272	65	4150
2026-01-18 02:18:52.28	23.10	15.05	-46.7	-48.3	18.7	0.00e+00	0	35	0	261095424	65	4221
2026-01-18 02:18:53.29	23.01	15.15	-46.6	-48.2	18.8	0.00e+00	0	35	0	263192576	65	4160
2026-01-18 02:18:54.30	22.92	15.25	-46.5	-48.1	18.9	0.00e+00	0	35	0	265289728	65	4140
2026-01-18 02:18:55.31	22.83	15.35	-46.6	-48.2	18.8	0.00e+00	0	35	0	267386880	65	4153
2026-01-18 02:18:56.31	22.74	15.45	-46.5	-48.1	18.9	0.00e+00	0	35	0	268435456	65	4125
2026-01-18 02:18:57.32	22.65	15.55	-46.5	-48.1	18.9	0.00e+00	0	35	0	270532608	65	4099
2026-01-18 02:18:58.33	22.56	15.65	-46.6	-48.2	18.8	0.00e+00	0	35	0	272629760	65	4180
2026-01-18 02:18:59.34	22.47	15.75	-46.6	-48.2	18.8	0.00e+00	0	35	0	274726912	65	4161
2026-01-18 02:19:00.34	22.38	15.85	-46.5	-48.1	18.9	0.00e+00	0	35	0	276824064	65	4109
2026-01-18 02:19:01.35	22.28	15.95	-46.6	-48.2	18.8	0.00e+00	0	35	0	277872640	65	4164
2026-01-18 02:19:02.36	22.19	16.05	-46.6	-48.2	18.8	0.00e+00	0	35	0	279969792	65	4171
2026-01-18 02:19:03.37	22.09	16.15	-46.6	-48.1	18.9	0.00e+00	0	35	0	282066944	65	4141
2026-01-18 02:19:04.37	22.00	16.25	-46.6	-48.2	18.8	0.00e+00	0	35	0	284164096	65	4181
2026-01-18 02:19:05.38	21.90	16.35	-46.6	-48.1	18.9	0.00e+00	0	35	0	286261248	65	4137
2026-01-18 02:19:06.39	21.81	16.46	-46.5	-48.1	19.0	0.00e+00	0	35	0	287309824	65	4115
2026-01-18 02:19:07.40	21.71	16.56	-46.6	-48.2	18.9	0.00e+00	0	35	0	289406976	65	4152
2026-01-18 02:19:08.41	21.61	16.66	-46.6	-48.2	18.9	0.00e+00	0	35	0	291504128	65	4154
2026-01-18 02:19:09.41	21.51	16.76	-46.6	-48.2	18.9	0.00e+00	0	35	0	293601280	65	4147
2026-01-18 02:19:10.42	21.41	16.87	-46.5	-48.1	19.0	0.00e+00	0	35	0	295698432	65	4120
2026-01-18 02:19:11.43	21.31	16.97	-46.6	-48.2	18.8	0.00e+00	0	35	0	296747008	65	4189
2026-01-18 02:19:12.44	21.21	17.08	-46.7	-48.3	18.8	0.00e+00	0	35	0	298844160	65	4213
2026-01-18 02:19:13.44	21.11	17.18	-46.7	-48.3	18.7	0.00e+00	0	35	0	300941312	65	4232
2026-01-18 02:19:14.45	21.01	17.29	-46.7	-48.3	18.8	0.00e+00	0	35	0	303038464	65	4227
2026-01-18 02:19:15.46	20.91	17.39	-46.7	-48.3	18.8	0.00e+00	0	35	0	305135616	65	4232
2026-01-18 02:19:16.47	20.80	17.50	-46.8	-48.4	18.7	0.00e+00	0	35	0	306184192	65	4269
2026-01-18 02:19:17.48	20.70	17.60	-46.8	-48.5	18.6	0.00e+00	0	35	0	308281344	65	4304
2026-01-18 02:19:18.49	20.59	17.71	-46.7	-48.3	18.8	0.00e+00	0	35	0	310378496	65	4225
2026-01-18 02:19:19.49	20.49	17.82	-46.8	-48.4	18.7	0.00e+00	0	35	0	312475648	65	4258
2026-01-18 02:19:20.50	20.38	17.93	-46.8	-48.4	18.7	0.00e+00	0	35	0	314572800	65	4278
2026-01-18 02:19:21.51	20.27	18.03	-46.8	-48.4	18.7	0.00e+00	0	35	0	315621376	65	4263
2026-01-18 02:19:22.52	20.16	18.14	-46.8	-48.4	18.7	0.00e+00	0	35	0	317718528	65	4267
2026-01-18 02:19:23.53	20.05	18.25	-46.8	-48.4	18.7	0.00e+00	0	35	0	319815680	65	4253
2026-01-18 02:19:24.53	19.95	18.36	-46.7	-48.4	18.8	0.00e+00	0	35	0	321912832	65	4246
2026-01-18 02:19:25.54	19.83	18.47	-46.8	-48.4	18.7	0.00e+00	0	35	0	324009984	65	4288
2026-01-18 02:19:26.55	19.72	18.58	-46.7	-48.3	18.8	0.00e+00	0	35	0	325058560	65	4234
2026-01-18 02:19:27.56	19.61	18.69	-46.7	-48.3	18.8	0.00e+00	0	35	0	327155712	65	4240
2026-01-18 02:19:28.56	19.50	18.80	-46.8	-48.5	18.7	0.00e+00	0	35	0	329252864	65	4302
2026-01-18 02:19:29.57	19.38	18.91	-46.7	-48.3	18.8	0.00e+00	0	35	0	331350016	65	4236
2026-01-18 02:19:30.58	19.27	19.02	-46.7	-48.3	18.8	0.00e+00	0	35	0	333447168	65	4218
2026-01-18 02:19:31.59	19.15	19.13	-46.8	-48.4	18.8	0.00e+00	0	35	0	334495744	65	4251
2026-01-18 02:19:32.60	19.04	19.24	-46.8	-48.4	18.7	0.00e+00	0	35	0	336592896	65	4264
2026-01-18 02:19:33.61	18.92	19.35	-46.7	-48.3	18.7	0.00e+00	0	35	0	338690048	65	4241
2026-01-18 02:19:34.62	18.80	19.47	-46.7	-48.3	18.8	0.00e+00	0	35	0	340787200	65	4226
2026-01-18 02:19:35.62	18.68	19.58	-46.8	-48.4	18.7	0.00e+00	0	35	0	342884352	65	4276
2026-01-18 02:19:36.63	18.56	19.69	-46.8	-48.4	18.8	0.00e+00	0	35	0	343932928	65	4270
2026-01-18 02:19:37.64	18.44	19.81	-46.8	-48.4	18.7	0.00e+00	0	35	0	346030080	65	4262
2026-01-18 02:19:38.65	18.32	19.92	-46.8	-48.5	18.7	0.00e+00	0	35	0	348127232	65	4302
2026-01-18 02:19:39.66	18.19	20.03	-46.9	-48.6	18.5	0.00e+00	0	35	0	350224384	65	4366
2026-01-18 02:19:40.67	18.07	20.15	-46.9	-48.6	18.6	0.00e+00	0	35	0	352321536	65	4342
2026-01-18 02:19:41.67	17.95	20.26	-46.9	-48.5	18.7	0.00e+00	0	35	0	354418688	65	4308
2026-01-18 02:19:42.68	17.82	20.38	-46.9	-48.5	18.7	0.00e+00	0	35	0	355467264	65	4311
2026-01-18 02:19:43.69	17.69	20.49	-46.8	-48.5	18.7	0.00e+00	0	35	0	357564416	65	4292
2026-01-18 02:19:44.70	17.56	20.61	-46.8	-48.4	18.7	0.00e+00	0	35	0	359661568	65	4283
2026-01-18 02:19:45.71	17.43	20.73	-46.8	-48.4	18.8	0.00e+00	0	35	0	361758720	65	4260
2026-01-18 02:19:46.72	17.30	20.85	-46.8	-48.4	18.8	0.00e+00	0	35	0	363855872	65	4275
2026-01-18 02:19:47.72	17.17	20.96	-46.8	-48.4	18.7	0.00e+00	0	35	0	364904448	65	4289
2026-01-18 02:19:48.73	17.04	21.08	-46.9	-48.6	18.6	0.00e+00	0	35	0	367001600	65	4350
2026-01-18 02:19:49.74	16.91	21.20	-47.0	-48.7	18.5	0.00e+00	0	35	0	369098752	65	4431
2026-01-18 02:19:50.75	16.77	21.32	-47.0	-48.7	18.5	0.00e+00	0	35	0	371195904	65	4422
2026-01-18 02:19:51.76	16.64	21.44	-46.9	-48.5	18.7	0.00e+00	0	35	0	373293056	65	4315
2026-01-18 02:19:52.77	16.50	21.56	-46.8	-48.5	18.7	0.00e+00	0	35	0	374341632	65	4294
2026-01-18 02:19:53.77	16.37	21.67	-46.9	-48.6	18.7	0.00e+00	0	35	0	376438784	65	4343
2026-01-18 02:19:54.78	16.23	21.79	-46.9	-48.5	18.7	0.00e+00	0	35	0	378535936	65	4339
2026-01-18 02:19:55.79	16.09	21.92	-46.9	-48.5	18.7	0.00e+00	0	35	0	380633088	65	4327
2026-01-18 02:19:56.80	15.95	22.04	-47.0	-48.6	18.6	0.00e+00	0	35	0	382730240	65	4373
2026-01-18 02:19:57.81	15.81	22.16	-46.9	-48.5	18.7	0.00e+00	0	35	0	383778816	65	4337
2026-01-18 02:19:58.81	15.66	22.28	-46.9	-48.5	18.6	0.00e+00	0	35	0	385875968	65	4340
2026-01-18 02:19:59.82	15.52	22.40	-47.0	-48.6	18.7	0.00e+00	0	35	0	387973120	65	4366
2026-01-18 02:20:00.83	15.37	22.52	-47.1	-48.7	18.5	0.00e+00	0	35	0	390070272	65	4432
2026-01-18 02:20:01.84	15.23	22.65	-46.9	-48.6	18.6	0.00e+00	0	35	0	392167424	65	4363
2026-01-18 02:20:02.85	15.08	22.77	-47.0	-48.6	18.6	0.00e+00	0	35	0	393216000	65	4387
2026-01-18 02:20:03.85	14.93	22.89	-47.0	-48.7	18.5	0.00e+00	0	35	0	395313152	65	4412
2026-01-18 02:20:04.86	14.78	23.02	-46.9	-48.6	18.6	0.00e+00	0	35	0	397410304	65	4363
2026-01-18 02:20:05.87	14.63	23.14	-46.9	-48.5	18.7	0.00e+00	0	35	0	399507456	65	4317
2026-01-18 02:20:06.88	14.48	23.27	-46.8	-48.4	18.8	0.00e+00	0	35	0	401604608	65	4277
2026-01-18 02:20:07.88	14.33	23.39	-46.9	-48.5	18.7	0.00e+00	0	35	0	402653184	65	4333
2026-01-18 02:20:08.89	14.17	23.52	-47.0	-48.6	18.6	0.00e+00	0	35	0	404750336	65	4367
2026-01-18 02:20:09.90	14.01	23.64	-47.0	-48.6	18.6	0.00e+00	0	35	0	406847488	65	4388
2026-01-18 02:20:10.91	13.86	23.77	-47.0	-48.7	18.6	0.00e+00	0	35	0	408944640	65	4404
2026-01-18 02:20:11.91	13.70	23.89	-47.0	-48.6	18.6	0.00e+00	0	35	0	411041792	65	4384
2026-01-18 02:20:12.92	13.54	24.02	-47.0	-48.7	18.6	0.00e+00	0	35	0	412090368	65	4392
2026-01-18 02:20:13.93	13.38	24.15	-47.0	-48.7	18.5	0.00e+00	0	35	0	414187520	65	4423
2026-01-18 02:20:14.94	13.21	24.28	-47.1	-48.8	18.5	0.00e+00	0	35	0	416284672	65	4457
2026-01-18 02:20:15.95	13.05	24.41	-47.0	-48.7	18.6	0.00e+00	0	35	0	418381824	65	4398
2026-01-18 02:20:16.96	12.88	24.53	-47.1	-48.8	18.5	0.00e+00	0	35	0	420478976	65	4449
2026-01-18 02:20:17.97	12.72	24.66	-47.0	-48.7	18.6	0.00e+00	0	35	0	421527552	65	4398
2026-01-18 02:20:18.97	12.55	24.79	-47.0	-48.6	18.6	0.00e+00	0	35	0	423624704	65	4379
2026-01-18 02:20:19.98	12.38	24.92	-47.0	-48.6	18.7	0.00e+00	0	35	0	425721856	65	4382
2026-01-18 02:20:20.99	12.21	25.05	-47.0	-48.6	18.7	0.00e+00	0	35	0	427819008	65	4378
2026-01-18 02:20:22.00	12.04	25.18	-47.1	-48.7	18.6	0.00e+00	0	36	0	429916160	65	4429
2026-01-18 02:20:23.01	11.86	25.31	-47.1	-48.8	18.5	0.00e+00	0	35	0	430964736	65	4459
2026-01-18 02:20:24.01	11.69	25.44	-47.2	-48.8	18.5	0.00e+00	0	35	0	433061888	65	4487
2026-01-18 02:20:25.02	11.51	25.57	-47.3	-49.0	18.3	0.00e+00	0	35	0	435159040	65	4561
2026-01-18 02:20:26.03	11.33	25.71	-47.3	-49.0	18.3	0.00e+00	0	36	0	437256192	65	4571
2026-01-18 02:20:27.04	11.15	25.84	-47.3	-49.0	18.3	0.00e+00	0	35	0	439353344	65	4577
2026-01-18 02:20:28.04	10.97	25.97	-47.3	-49.1	18.2	0.00e+00	0	35	0	440401920	65	4606
2026-01-18 02:20:29.05	10.79	26.10	-47.4	-49.1	18.2	0.00e+00	0	35	0	442499072	65	4646
2026-01-18 02:20:30.06	10.60	26.24	-47.3	-49.0	18.3	0.00e+00	0	35	0	444596224	65	4547
2026-01-18 02:20:31.07	10.42	26.37	-47.2	-48.9	18.4	0.00e+00	0	36	0	446693376	65	4528
2026-01-18 02:20:32.08	10.23	26.50	-47.3	-49.0	18.3	0.00e+00	0	35	0	448790528	65	4576
2026-01-18 02:20:33.09	10.04	26.64	-47.1	-48.7	18.6	0.00e+00	0	35	0	449839104	65	4422
2026-01-18 02:20:34.10	9.85	26.77	-47.0	-48.6	18.8	0.00e+00	0	35	0	451936256	65	4359
2026-01-18 02:20:35.10	9.66	26.90	-47.0	-48.6	18.7	0.00e+00	0	35	0	454033408	65	4377
2026-01-18 02:20:36.11	9.46	27.04	-47.2	-48.9	18.5	0.00e+00	0	35	0	456130560	65	4516
2026-01-18 02:20:37.12	9.26	27.18	-47.2	-48.9	18.4	0.00e+00	0	36	0	458227712	65	4540
2026-01-18 02:20:38.13	9.07	27.31	-47.3	-49.0	18.3	0.00e+00	0	35	0	459276288	65	4584
2026-01-18 02:20:39.14	8.87	27.45	-47.4	-49.2	18.2	0.00e+00	0	36	0	461373440	65	4665
2026-01-18 02:20:40.15	8.66	27.58	-47.5	-49.3	18.1	0.00e+00	0	35	0	463470592	65	4732
2026-01-18 02:20:41.15	8.46	27.72	-47.5	-49.3	18.1	0.00e+00	0	36	0	465567744	65	4740
2026-01-18 02:20:42.16	8.26	27.85	-47.6	-49.5	17.9	0.00e+00	0	36	0	467664896	65	4825
2026-01-18 02:20:43.16	8.05	27.99	-47.5	-49.3	18.1	0.00e+00	0	36	0	469762048	65	4744
2026-01-18 02:20:44.17	7.85	28.13	-47.7	-49.5	17.9	0.00e+00	0	35	0	470810624	65	4856
2026-01-18 02:20:45.18	7.63	28.27	-47.7	-49.6	17.8	0.00e+00	0	36	0	472907776	66	4615
2026-01-18 02:20:46.19	7.42	28.40	-48.0	-49.9	17.5	0.00e+00	0	35	0	475004928	66	4803
2026-01-18 02:20:47.20	7.21	28.54	-48.1	-50.1	17.3	0.00e+00	0	35	0	477102080	66	4897
2026-01-18 02:20:48.21	6.99	28.68	-48.2	-50.2	17.2	0.00e+00	0	36	0	478150656	67	4696
2026-01-18 02:20:49.22	6.77	28.82	-48.5	-50.6	16.8	0.00e+00	0	35	0	480247808	67	4897
2026-01-18 02:20:50.22	6.56	28.96	-48.6	-50.8	16.6	0.00e+00	0	36	0	482344960	67	5025
2026-01-18 02:20:51.23	6.33	29.09	-49.1	-51.5	16.1	0.00e+00	0	36	0	484442112	68	5104
2026-01-18 02:20:52.24	6.11	29.23	-49.3	-51.8	15.7	0.00e+00	0	36	0	486539264	69	5002
2026-01-18 02:20:53.25	5.89	29.37	-49.5	-52.1	15.5	0.00e+00	0	36	0	487587840	69	5175
2026-01-18 02:20:54.26	5.66	29.51	-49.6	-52.3	15.2	0.00e+00	0	36	0	489684992	69	5282
2026-01-18 02:20:55.27	5.43	29.65	-49.7	-52.5	15.0	0.00e+00	0	36	0	491782144	70	5111
2026-01-18 02:20:56.27	5.20	29.79	-49.7	-52.4	15.2	0.00e+00	0	35	0	493879296	70	5059
2026-01-18 02:20:57.28	4.96	29.93	-49.7	-52.4	15.1	0.00e+00	0	35	0	495976448	70	5087
2026-01-18 02:20:58.29	4.73	30.07	-49.8	-52.5	15.1	0.00e+00	0	36	0	498073600	70	5133
2026-01-18 02:20:59.30	4.49	30.21	-49.7	-52.4	15.2	0.00e+00	0	35	0	499122176	70	5092
2026-01-18 02:21:00.31	4.25	30.35	-49.6	-52.2	15.3	0.00e+00	0	36	0	501219328	70	4958
2026-01-18 02:21:01.31	4.01	30.49	-49.6	-52.2	15.4	0.00e+00	0	36	0	503316480	70	4937
2026-01-18 02:21:02.32	3.77	30.63	-49.6	-52.2	15.4	0.00e+00	0	36	0	505413632	70	4936
2026-01-18 02:21:03.33	3.52	30.77	-49.6	-52.1	15.4	0.00e+00	0	35	0	506462208	70	4913
2026-01-18 02:21:04.34	3.27	30.91	-49.5	-52.1	15.5	0.00e+00	0	35	0	508559360	70	4897
2026-01-18 02:21:05.34	3.02	31.05	-49.5	-52.1	15.5	0.00e+00	0	36	0	510656512	70	4884
2026-01-18 02:21:06.35	2.77	31.19	-49.5	-52.1	15.5	0.00e+00	0	36	0	512753664	70	4881
2026-01-18 02:21:07.36	2.52	31.33	-49.4	-52.0	15.6	0.00e+00	0	35	0	514850816	70	4820
2026-01-18 02:21:08.37	2.26	31.47	-49.6	-52.2	15.4	0.00e+00	0	35	0	516947968	70	4943
2026-01-18 02:21:09.38	2.00	31.61	-49.6	-52.2	15.4	0.00e+00	0	35	0	517996544	70	4930
2026-01-18 02:21:10.38	1.74	31.75	-49.6	-52.2	15.3	0.00e+00	0	35	0	520093696	70	4978
2026-01-18 02:21:11.39	1.47	31.89	-49.8	-52.6	15.0	7.00e-07	0	35	0	522190848	70	5169
2026-01-18 02:21:12.40	1.21	32.04	-49.9	-52.7	15.0	0.00e+00	0	35	0	524288000	70	5240
2026-01-18 02:21:13.41	0.94	32.18	-49.8	-52.5	15.1	0.00e+00	0	35	0	526385152	70	5141
2026-01-18 02:21:14.42	0.67	32.32	-49.7	-52.4	15.2	0.00e+00	0	35	0	527433728	70	5045
2026-01-18 02:21:15.43	0.39	32.46	-49.7	-52.4	15.2	0.00e+00	0	36	0	529530880	70	5079
2026-01-18 02:21:16.43	0.12	32.60	-49.4	-51.9	15.6	0.00e+00	0	36	0	531628032	70	4799
2026-01-18 02:21:17.44	359.84	32.74	-49.5	-52.0	15.6	0.00e+00	0	36	0	533725184	70	4839
2026-01-18 02:21:18.45	359.56	32.88	-49.4	-52.0	15.7	0.00e+00	0	36	0	534773760	70	4824
2026-01-18 02:21:19.46	359.28	33.02	-49.3	-51.7	15.8	0.00e+00	0	35	0	536870912	70	4693
2026-01-18 02:21:20.47	358.99	33.16	-49.4	-51.9	15.7	0.00e+00	0	36	0	538968064	70	4797
2026-01-18 02:21:21.47	358.70	33.30	-49.4	-51.9	15.8	0.00e+00	0	35	0	541065216	70	4782
2026-01-18 02:21:22.48	358.41	33.44	-49.2	-51.6	16.0	0.00e+00	0	36	0	543162368	70	4645
2026-01-18 02:21:23.49	358.12	33.58	-49.2	-51.6	16.1	0.00e+00	0	35	0	545259520	70	4609
2026-01-18 02:21:24.50	357.82	33.71	-48.9	-51.1	16.5	0.00e+00	0	36	0	546308096	69	4624
2026-01-18 02:21:25.50	357.53	33.85	-48.7	-50.9	16.8	0.00e+00	0	35	0	548405248	69	4501
2026-01-18 02:21:26.51	357.23	33.99	-48.4	-50.4	17.2	0.00e+00	0	36	0	550502400	68	4536
2026-01-18 02:21:27.52	356.92	34.13	-48.3	-50.2	17.4	0.00e+00	0	36	0	552599552	68	4434
2026-01-18 02:21:28.53	356.62	34.27	-48.3	-50.2	17.4	0.00e+00	0	36	0	554696704	68	4419
2026-01-18 02:21:29.53	356.31	34.40	-48.1	-50.0	17.6	0.00e+00	0	36	0	555745280	68	4334
2026-01-18 02:21:30.54	356.00	34.54	-48.2	-50.1	17.6	0.00e+00	0	35	0	557842432	68	4343
2026-01-18 02:21:31.55	355.69	34.68	-48.1	-50.0	17.6	0.00e+00	0	36	0	559939584	68	4328
2026-01-18 02:21:32.56	355.37	34.81	-48.1	-50.0	17.7	0.00e+00	0	36	0	562036736	68	4303
2026-01-18 02:21:33.56	355.05	34.95	-48.2	-50.1	17.5	0.00e+00	0	36	0	564133888	68	4391
2026-01-18 02:21:34.57	354.73	35.09	-48.4	-50.4	17.3	0.00e+00	0	36	0	565182464	68	4496
2026-01-18 02:21:35.58	354.40	35.22	-48.5	-50.5	17.1	0.00e+00	0	36	0	567279616	68	4572
2026-01-18 02:21:36.59	354.08	35.36	-48.7	-50.8	16.9	0.00e+00	0	36	0	569376768	68	4714
2026-01-18 02:21:37.60	353.75	35.49	-48.7	-50.9	16.8	0.00e+00	0	36	0	571473920	68	4762
2026-01-18 02:21:38.60	353.42	35.62	-48.6	-50.7	16.9	0.00e+00	0	36	0	573571072	68	4693
2026-01-18 02:21:39.61	353.08	35.76	-48.6	-50.7	17.0	0.00e+00	0	36	0	574619648	68	4660
2026-01-18 02:21:40.62	352.74	35.89	-48.4	-50.5	17.2	0.00e+00	0	36	0	576716800	68	4551
2026-01-18 02:21:41.63	352.40	36.02	-48.4	-50.4	17.3	0.00e+00	0	36	0	578813952	68	4521
2026-01-18 02:21:42.64	352.05	36.15	-48.3	-50.3	17.4	0.00e+00	0	36	0	580911104	68	4450
2026-01-18 02:21:43.64	351.71	36.28	-48.4	-50.4	17.2	0.00e+00	0	36	0	583008256	68	4525
2026-01-18 02:21:44.65	351.36	36.41	-48.5	-50.5	17.2	0.00e+00	0	36	0	585105408	68	4573
2026-01-18 02:21:45.66	351.01	36.54	-48.4	-50.5	17.2	0.00e+00	0	36	0	586153984	68	4548
2026-01-18 02:21:46.67	350.65	36.67	-48.4	-50.5	17.2	0.00e+00	0	36	0	588251136	68	4548
2026-01-18 02:21:47.68	350.29	36.80	-48.5	-50.5	17.2	0.00e+00	0	36	0	590348288	68	4584
2026-01-18 02:21:48.68	349.94	36.92	-48.6	-50.7	17.0	0.00e+00	0	36	0	592445440	68	4673
2026-01-18 02:21:49.69	349.57	37.05	-48.7	-50.8	16.9	0.00e+00	0	36	0	593494016	68	4724
2026-01-18 02:21:50.70	349.21	37.17	-48.9	-51.1	16.6	0.00e+00	0	36	0	595591168	68	4917
2026-01-18 02:21:51.70	348.84	37.30	-49.0	-51.2	16.5	0.00e+00	0	36	0	597688320	68	4969
2026-01-18 02:21:52.71	348.47	37.42	-49.1	-51.3	16.4	0.00e+00	0	36	0	599785472	68	5037
2026-01-18 02:21:53.72	348.09	37.54	-48.8	-50.9	16.8	0.00e+00	0	36	0	601882624	68	4798
2026-01-18 02:21:54.73	347.71	37.66	-48.6	-50.7	17.0	0.00e+00	0	36	0	602931200	68	4659
2026-01-18 02:21:55.73	347.34	37.78	-48.5	-50.5	17.1	0.00e+00	0	35	0	605028352	68	4594
2026-01-18 02:21:56.75	346.95	37.91	-48.5	-50.5	17.2	0.00e+00	0	36	0	607125504	68	4562
2026-01-18 02:21:57.75	346.56	38.02	-48.4	-50.4	17.3	0.00e+00	0	36	0	609222656	68	4527
2026-01-18 02:21:58.76	346.17	38.14	-48.3	-50.2	17.5	0.00e+00	0	36	0	611319808	68	4431
2026-01-18 02:21:59.77	345.78	38.26	-48.3	-50.3	17.5	0.00e+00	0	36	0	613416960	68	4448
2026-01-18 02:22:00.77	345.39	38.37	-48.2	-50.1	17.6	0.00e+00	0	36	0	614465536	68	4381
2026-01-18 02:22:01.78	344.99	38.48	-48.3	-50.3	17.4	0.00e+00	0	35	0	616562688	68	4457
2026-01-18 02:22:02.79	344.59	38.60	-48.3	-50.2	17.5	0.00e+00	0	36	0	618659840	68	4397
2026-01-18 02:22:03.79	344.19	38.71	-48.1	-50.0	17.6	0.00e+00	0	36	0	620756992	68	4332
2026-01-18 02:22:04.80	343.79	38.82	-48.0	-49.8	17.8	0.00e+00	0	36	0	621805568	68	4242
2026-01-18 02:22:05.81	343.38	38.93	-47.8	-49.5	18.1	0.00e+00	0	36	0	623902720	67	4317
2026-01-18 02:22:06.82	342.96	39.03	-47.8	-49.5	18.1	0.00e+00	0	36	0	625999872	67	4329
2026-01-18 02:22:07.82	342.55	39.14	-47.7	-49.5	18.2	0.00e+00	0	36	0	628097024	67	4296
2026-01-18 02:22:08.83	342.14	39.24	-47.6	-49.4	18.2	0.00e+00	0	36	0	630194176	67	4257
2026-01-18 02:22:09.84	341.72	39.35	-47.6	-49.2	18.4	0.00e+00	0	36	0	631242752	67	4191
2026-01-18 02:22:10.85	341.29	39.45	-47.7	-49.5	18.2	0.00e+00	0	36	0	633339904	67	4301
2026-01-18 02:22:11.86	340.87	39.55	-47.6	-49.3	18.3	0.00e+00	0	36	0	635437056	67	4223
2026-01-18 02:22:12.86	340.44	39.65	-47.5	-49.2	18.4	0.00e+00	0	36	0	637534208	67	4176
2026-01-18 02:22:13.87	340.01	39.75	-47.4	-49.0	18.6	0.00e+00	0	36	0	639631360	66	4326
2026-01-18 02:22:14.88	339.58	39.84	-47.5	-49.2	18.5	0.00e+00	0	36	0	641728512	66	4402
2026-01-18 02:22:15.88	339.15	39.94	-47.5	-49.2	18.4	0.00e+00	0	36	0	642777088	66	4428
2026-01-18 02:22:16.89	338.71	40.03	-47.6	-49.4	18.3	0.00e+00	0	36	0	644874240	66	4512
2026-01-18 02:22:17.90	338.27	40.12	-47.5	-49.3	18.4	0.00e+00	0	36	0	646971392	66	4445
2026-01-18 02:22:18.91	337.83	40.21	-47.5	-49.1	18.5	0.00e+00	0	36	0	649068544	66	4388
2026-01-18 02:22:19.92	337.38	40.30	-47.5	-49.1	18.5	0.00e+00	0	36	0	650117120	66	4387
2026-01-18 02:22:20.92	336.94	40.38	-47.3	-49.0	18.7	0.00e+00	0	36	0	652214272	66	4304
2026-01-18 02:22:21.93	336.49	40.46	-47.2	-48.8	18.9	0.00e+00	0	36	0	654311424	66	4208
2026-01-18 02:22:22.94	336.03	40.55	-46.9	-48.5	19.1	0.00e+00	0	36	0	656408576	65	4307
2026-01-18 02:22:23.95	335.58	40.63	-46.8	-48.2	19.3	0.00e+00	0	36	0	658505728	65	4183
2026-01-18 02:22:24.96	335.12	40.70	-46.8	-48.2	19.4	0.00e+00	0	36	0	660602880	65	4185
2026-01-18 02:22:25.96	334.67	40.78	-46.5	-47.9	19.6	0.00e+00	0	36	0	661651456	65	4042
2026-01-18 02:22:26.97	334.20	40.86	-46.4	-47.8	19.9	0.00e+00	0	36	0	663748608	64	4209
2026-01-18 02:22:27.98	333.74	40.93	-46.3	-47.7	19.9	0.00e+00	0	36	0	665845760	64	4163
2026-01-18 02:22:28.98	333.28	41.00	-46.2	-47.6	20.0	0.00e+00	0	36	0	667942912	64	4105
2026-01-18 02:22:29.99	332.81	41.07	-46.2	-47.6	20.1	0.00e+00	0	36	0	670040064	64	4119
2026-01-18 02:22:31.00	332.34	41.13	-46.6	-48.0	19.6	0.00e+00	0	36	0	671088640	64	4317
2026-01-18 02:22:32.01	331.87	41.20	-46.9	-48.4	19.3	0.00e+00	0	36	0	673185792	64	4511
2026-01-18 02:22:33.01	331.40	41.26	-46.9	-48.4	19.3	0.00e+00	0	36	0	675282944	64	4519
2026-01-18 02:22:34.02	330.92	41.32	-46.6	-48.0	19.7	0.00e+00	0	36	0	677380096	64	4321
2026-01-18 02:22:35.03	330.45	41.38	-46.3	-47.7	19.9	0.00e+00	0	36	0	678428672	64	4167
2026-01-18 02:22:36.04	329.97	41.43	-46.4	-47.8	19.8	0.00e+00	0	36	0	680525824	64	4236
2026-01-18 02:22:37.04	329.49	41.49	-46.5	-47.9	19.8	0.00e+00	0	36	0	682622976	64	4271
2026-01-18 02:22:38.05	329.01	41.54	-46.5	-48.0	19.7	0.00e+00	0	36	0	684720128	64	4295
2026-01-18 02:22:39.06	328.53	41.59	-46.4	-47.8	19.9	0.00e+00	0	36	0	686817280	64	4195
2026-01-18 02:22:40.07	328.04	41.63	-46.4	-47.8	19.8	0.00e+00	0	36	0	688914432	64	4211
2026-01-18 02:22:41.08	327.55	41.68	-46.5	-47.9	19.7	0.00e+00	0	36	0	689963008	64	4283
2026-01-18 02:22:42.08	327.07	41.72	-46.5	-47.9	19.8	0.00e+00	0	36	0	692060160	64	4259
2026-01-18 02:22:43.09	326.58	41.76	-46.4	-47.8	19.8	0.00e+00	0	36	0	694157312	64	4221
2026-01-18 02:22:44.10	326.09	41.80	-46.5	-47.9	19.8	0.00e+00	0	35	0	696254464	64	4254
2026-01-18 02:22:45.11	325.60	41.83	-46.4	-47.8	19.8	0.00e+00	0	36	0	698351616	64	4204
2026-01-18 02:22:46.12	325.11	41.87	-46.3	-47.7	19.9	0.00e+00	0	36	0	699400192	64	4167
2026-01-18 02:22:47.13	324.61	41.90	-46.3	-47.7	20.0	0.00e+00	0	35	0	701497344	64	4169
2026-01-18 02:22:48.14	324.12	41.93	-46.4	-47.8	19.8	0.00e+00	0	36	0	703594496	64	4235
2026-01-18 02:22:49.14	323.63	41.95	-46.7	-48.2	19.5	0.00e+00	0	36	0	705691648	64	4404
2026-01-18 02:22:50.15	323.13	41.97	-46.8	-48.3	19.4	0.00e+00	0	36	0	707788800	64	4465
2026-01-18 02:22:51.16	322.64	42.00	-46.9	-48.4	19.2	0.00e+00	0	36	0	708837376	64	4515
2026-01-18 02:22:52.17	322.14	42.01	-46.9	-48.4	19.3	0.00e+00	0	36	0	710934528	64	4524
2026-01-18 02:22:53.18	321.64	42.03	-46.9	-48.4	19.2	0.00e+00	0	36	0	713031680	64	4533
2026-01-18 02:22:54.19	321.14	42.04	-46.9	-48.4	19.4	0.00e+00	0	36	0	715128832	64	4494
2026-01-18 02:22:55.19	320.65	42.06	-46.8	-48.3	19.4	0.00e+00	0	36	0	717225984	64	4459
2026-01-18 02:22:56.20	320.15	42.06	-47.0	-48.5	19.2	0.00e+00	0	36	0	718274560	64	4571
2026-01-18 02:22:57.21	319.65	42.07	-47.4	-49.1	18.7	0.00e+00	0	35	0	720371712	65	4603
2026-01-18 02:22:58.22	319.15	42.07	-47.6	-49.3	18.4	0.00e+00	0	36	0	722468864	65	4710
2026-01-18 02:22:59.22	318.66	42.08	-47.6	-49.3	18.3	0.00e+00	0	36	0	724566016	66	4482
2026-01-18 02:23:00.23	318.16	42.08	-47.4	-49.1	18.6	0.00e+00	0	36	0	726663168	66	4343
2026-01-18 02:23:01.23	317.66	42.07	-47.5	-49.2	18.5	0.00e+00	0	36	0	727711744	66	4406
2026-01-18 02:23:02.24	317.16	42.07	-47.7	-49.4	18.3	0.00e+00	0	36	0	729808896	66	4515
2026-01-18 02:23:03.25	316.66	42.06	-47.8	-49.5	18.1	0.00e+00	0	36	0	731906048	66	4582
2026-01-18 02:23:04.25	316.17	42.05	-48.1	-49.9	17.8	0.00e+00	0	35	0	734003200	66	4780
2026-01-18 02:23:05.26	315.67	42.03	-48.2	-50.1	17.6	0.00e+00	0	36	0	736100352	67	4634
2026-01-18 02:23:06.27	315.17	42.02	-48.4	-50.4	17.4	0.00e+00	0	36	0	737148928	67	4771
2026-01-18 02:23:07.28	314.68	42.00	-48.5	-50.5	17.1	0.00e+00	0	36	0	739246080	67	4856
2026-01-18 02:23:08.29	314.18	41.98	-48.8	-50.9	16.9	0.00e+00	0	36	0	741343232	68	4809
2026-01-18 02:23:09.29	313.69	41.96	-48.9	-51.1	16.8	0.00e+00	0	36	0	743440384	68	4894
2026-01-18 02:23:10.30	313.19	41.93	-49.0	-51.2	16.7	0.00e+00	0	36	0	745537536	68	4944
2026-01-18 02:23:11.31	312.70	41.91	-48.8	-50.9	16.9	0.00e+00	0	36	0	746586112	68	4774
2026-01-18 02:23:12.32	312.20	41.88	-48.7	-50.7	17.1	0.00e+00	0	36	0	748683264	68	4699
2026-01-18 02:23:13.33	311.71	41.84	-48.6	-50.7	17.2	0.00e+00	0	36	0	750780416	68	4663
2026-01-18 02:23:14.33	311.22	41.81	-48.8	-50.8	17.0	0.00e+00	0	35	0	752877568	68	4753
2026-01-18 02:23:15.34	310.73	41.77	-49.0	-51.2	16.7	0.00e+00	0	36	0	754974720	68	4943
2026-01-18 02:23:16.35	310.24	41.73	-49.7	-52.2	15.6	0.00e+00	0	36	0	756023296	69	5260
2026-01-18 02:23:17.36	309.75	41.69	-50.1	-52.9	14.9	0.00e+00	0	36	0	758120448	70	5402
2026-01-18 02:23:18.36	309.27	41.65	-50.7	-54.0	13.9	0.00e+00	0	36	0	760217600	71	5767
2026-01-18 02:23:19.37	308.79	41.60	-50.6	-53.9	13.9	3.00e-06	0	35	0	762314752	72	5350
2026-01-18 02:23:20.38	308.30	41.55	-50.4	-53.4	14.3	7.00e-07	0	36	0	764411904	72	5047
2026-01-18 02:23:21.39	307.82	41.50	-50.0	-52.7	15.2	0.00e+00	0	36	0	765460480	71	4939
2026-01-18 02:23:22.40	307.34	41.45	-49.6	-52.1	15.7	0.00e+00	0	35	0	767557632	71	4614
2026-01-18 02:23:23.41	306.86	41.39	-49.5	-51.8	16.0	0.00e+00	0	35	0	769654784	70	4752
2026-01-18 02:23:24.41	306.38	41.34	-49.7	-52.2	15.8	0.00e+00	0	36	0	771751936	70	4937
2026-01-18 02:23:25.42	305.91	41.28	-49.9	-52.6	15.2	0.00e+00	0	35	0	773849088	70	5173
2026-01-18 02:23:26.42	305.44	41.21	-50.3	-53.2	14.7	0.00e+00	0	36	0	774897664	71	5256
2026-01-18 02:23:27.43	304.97	41.15	-50.2	-53.0	14.9	7.00e-07	0	36	0	776994816	71	5134
2026-01-18 02:23:28.44	304.49	41.08	-50.1	-52.8	15.1	0.00e+00	0	35	0	779091968	71	5027
2026-01-18 02:23:29.45	304.03	41.02	-49.7	-52.2	15.7	0.00e+00	0	36	0	781189120	71	4660
2026-01-18 02:23:30.46	303.56	40.95	-49.2	-51.5	16.3	0.00e+00	0	36	0	783286272	70	4576
2026-01-18 02:23:31.46	303.10	40.88	-48.7	-50.7	17.1	0.00e+00	0	36	0	784334848	69	4420
2026-01-18 02:23:32.47	302.64	40.80	-48.2	-50.1	17.7	0.00e+00	0	36	0	786432000	68	4356
2026-01-18 02:23:33.48	302.18	40.73	-48.0	-49.8	18.1	0.00e+00	0	36	0	788529152	68	4196
2026-01-18 02:23:34.49	301.72	40.65	-47.6	-49.3	18.4	0.00e+00	0	36	0	790626304	67	4194
2026-01-18 02:23:35.49	301.26	40.57	-47.5	-49.1	18.6	0.00e+00	0	36	0	792723456	66	4376
2026-01-18 02:23:36.50	300.81	40.49	-47.7	-49.4	18.3	0.00e+00	0	35	0	793772032	66	4518
2026-01-18 02:23:37.51	300.36	40.40	-47.7	-49.4	18.4	0.00e+00	0	36	0	795869184	66	4498
2026-01-18 02:23:38.52	299.91	40.32	-47.3	-48.9	18.8	0.00e+00	0	35	0	797966336	66	4270
2026-01-18 02:23:39.53	299.46	40.23	-47.1	-48.7	19.1	0.00e+00	0	36	0	800063488	66	4150
2026-01-18 02:23:40.53	299.02	40.14	-46.4	-47.8	19.9	0.00e+00	0	36	0	802160640	64	4197
2026-01-18 02:23:41.54	298.58	40.05	-46.0	-47.3	20.3	0.00e+00	0	36	0	803209216	64	4004
2026-01-18 02:23:42.55	298.14	39.96	-46.0	-47.3	20.5	0.00e+00	0	35	0	805306368	63	4211
2026-01-18 02:23:43.56	297.70	39.87	-46.1	-47.4	20.3	0.00e+00	0	36	0	807403520	63	4248
2026-01-18 02:23:44.56	297.27	39.77	-46.3	-47.6	20.1	0.00e+00	0	36	0	809500672	63	4387
2026-01-18 02:23:45.57	296.84	39.68	-46.4	-47.8	19.9	0.00e+00	0	36	0	811597824	63	4475
2026-01-18 02:23:46.58	296.41	39.58	-46.4	-47.8	20.0	0.00e+00	0	36	0	812646400	63	4448
2026-01-18 02:23:47.59	295.99	39.48	-46.3	-47.6	20.1	0.00e+00	0	36	0	814743552	63	4388
2026-01-18 02:23:48.60	295.56	39.37	-45.8	-47.0	20.7	0.00e+00	0	36	0	816840704	63	4095
2026-01-18 02:23:49.61	295.14	39.27	-45.3	-46.5	21.2	0.00e+00	0	36	0	818937856	62	4081
2026-01-18 02:23:50.61	294.73	39.17	-45.3	-46.5	21.2	0.00e+00	0	35	0	821035008	62	4063
2026-01-18 02:23:51.62	294.31	39.06	-45.3	-46.5	21.2	0.00e+00	0	36	0	822083584	62	4074
2026-01-18 02:23:52.63	293.90	38.95	-45.5	-46.7	21.0	0.00e+00	0	36	0	824180736	62	4181
2026-01-18 02:23:53.64	293.49	38.85	-45.7	-47.0	20.8	0.00e+00	0	35	0	826277888	62	4296
2026-01-18 02:23:54.64	293.08	38.74	-45.7	-47.0	20.7	0.00e+00	0	36	0	828375040	62	4325
2026-01-18 02:23:55.65	292.68	38.63	-45.6	-46.8	20.9	0.00e+00	0	36	0	830472192	62	4222
2026-01-18 02:23:56.66	292.28	38.51	-45.6	-46.9	20.9	0.00e+00	0	35	0	832569344	62	4257
2026-01-18 02:23:57.67	291.88	38.40	-45.5	-46.7	21.0	0.00e+00	0	35	0	833617920	62	4189
2026-01-18 02:23:58.68	291.48	38.28	-45.5	-46.7	21.0	0.00e+00	0	36	0	835715072	62	4159
2026-01-18 02:23:59.69	291.09	38.17	-45.5	-46.8	21.0	0.00e+00	0	35	0	837812224	62	4205
2026-01-18 02:24:00.70	290.69	38.05	-45.7	-46.9	20.8	0.00e+00	0	36	0	839909376	62	4284
2026-01-18 02:24:01.71	290.31	37.93	-45.8	-47.1	20.6	0.00e+00	0	36	0	840957952	62	4369
2026-01-18 02:24:02.72	289.92	37.81	-45.9	-47.2	20.6	0.00e+00	0	36	0	843055104	62	4399
2026-01-18 02:24:03.72	289.54	37.69	-46.1	-47.4	20.3	0.00e+00	0	36	0	845152256	62	4518
2026-01-18 02:24:04.73	289.16	37.57	-46.2	-47.6	20.2	0.00e+00	0	36	0	847249408	62	4607
2026-01-18 02:24:05.74	288.79	37.45	-46.1	-47.4	20.3	0.00e+00	0	36	0	849346560	63	4256
2026-01-18 02:24:06.75	288.41	37.32	-46.0	-47.3	20.4	0.00e+00	0	35	0	850395136	63	4227
2026-01-18 02:24:07.76	288.04	37.20	-46.1	-47.4	20.3	0.00e+00	0	36	0	852492288	63	4278
2026-01-18 02:24:08.77	287.67	37.08	-46.3	-47.7	20.1	0.00e+00	0	36	0	854589440	63	4402
2026-01-18 02:24:09.77	287.31	36.95	-46.3	-47.7	20.1	0.00e+00	0	35	0	856686592	63	4409
2026-01-18 02:24:10.78	286.95	36.82	-46.2	-47.5	20.2	0.00e+00	0	36	0	858783744	63	4331
2026-01-18 02:24:11.79	286.59	36.70	-46.2	-47.5	20.2	0.00e+00	0	36	0	860880896	63	4318
2026-01-18 02:24:12.80	286.23	36.57	-46.3	-47.6	20.1	0.00e+00	0	36	0	861929472	63	4370
2026-01-18 02:24:13.80	285.88	36.44	-46.3	-47.7	20.0	0.00e+00	0	36	0	864026624	63	4416
2026-01-18 02:24:14.81	285.53	36.31	-46.5	-47.9	19.8	0.00e+00	0	35	0	866123776	63	4518
2026-01-18 02:24:15.82	285.18	36.18	-46.7	-48.1	19.6	0.00e+00	0	36	0	868220928	63	4624
2026-01-18 02:24:16.83	284.84	36.05	-46.7	-48.1	19.5	0.00e+00	0	35	0	869269504	63	4648
2026-01-18 02:24:17.84	284.49	35.91	-46.6	-48.0	19.6	0.00e+00	0	35	0	871366656	64	4332
2026-01-18 02:24:18.84	284.16	35.78	-46.5	-47.9	19.7	0.00e+00	0	36	0	873463808	64	4291
2026-01-18 02:24:19.85	283.82	35.65	-46.4	-47.9	19.8	0.00e+00	0	35	0	875560960	64	4248
2026-01-18 02:24:20.86	283.48	35.52	-46.5	-47.9	19.7	0.00e+00	0	36	0	877658112	64	4265
2026-01-18 02:24:21.87	283.15	35.38	-46.6	-48.0	19.6	0.00e+00	0	35	0	879755264	64	4325
2026-01-18 02:24:22.88	282.82	35.25	-46.8	-48.3	19.4	0.00e+00	0	36	0	880803840	64	4486
2026-01-18 02:24:23.88	282.50	35.11	-46.9	-48.4	19.2	0.00e+00	0	36	0	882900992	64	4507
2026-01-18 02:24:24.89	282.18	34.98	-47.0	-48.5	19.1	0.00e+00	0	36	0	884998144	64	4581
2026-01-18 02:24:25.89	281.86	34.84	-47.1	-48.7	19.0	0.00e+00	0	36	0	887095296	64	4663
2026-01-18 02:24:26.90	281.54	34.70	-47.4	-49.0	18.7	0.00e+00	0	36	0	889192448	65	4596
2026-01-18 02:24:27.91	281.22	34.57	-47.7	-49.5	18.2	0.00e+00	0	36	0	890241024	66	4584
2026-01-18 02:24:28.92	280.91	34.43	-47.9	-49.8	17.9	0.00e+00	0	36	0	892338176	66	4707
2026-01-18 02:24:29.93	280.60	34.29	-47.9	-49.8	17.9	0.00e+00	0	36	0	894435328	66	4706
2026-01-18 02:24:30.94	280.29	34.15	-47.9	-49.7	18.0	0.00e+00	0	35	0	896532480	66	4688
2026-01-18 02:24:31.94	279.99	34.02	-47.9	-49.7	17.9	0.00e+00	0	36	0	897581056	66	4700
2026-01-18 02:24:32.95	279.69	33.88	-47.9	-49.7	18.0	0.00e+00	0	36	0	899678208	66	4667
2026-01-18 02:24:33.96	279.39	33.74	-47.9	-49.8	17.9	0.00e+00	0	35	0	901775360	66	4709
2026-01-18 02:24:34.97	279.09	33.60	-48.1	-50.0	17.6	0.00e+00	0	36	0	903872512	66	4847
2026-01-18 02:24:35.98	278.80	33.46	-48.3	-50.3	17.3	0.00e+00	0	36	0	905969664	67	4740
2026-01-18 02:24:36.99	278.51	33.32	-48.5	-50.6	17.1	0.00e+00	0	36	0	908066816	67	4880
2026-01-18 02:24:37.99	278.22	33.18	-48.5	-50.5	17.1	0.00e+00	0	35	0	909115392	67	4855
2026-01-18 02:24:39.00	277.93	33.04	-48.5	-50.6	17.0	0.00e+00	0	36	0	911212544	67	4876
2026-01-18 02:24:40.01	277.65	32.90	-48.6	-50.6	17.0	0.00e+00	0	35	0	913309696	67	4909
2026-01-18 02:24:41.02	277.36	32.76	-48.7	-50.8	16.8	0.00e+00	0	36	0	915406848	67	5037
2026-01-18 02:24:42.02	277.09	32.62	-49.1	-51.4	16.3	0.00e+00	0	36	0	917504000	68	5077
2026-01-18 02:24:43.03	276.81	32.48	-49.2	-51.6	16.2	0.00e+00	0	36	0	918552576	69	4876
2026-01-18 02:24:44.04	276.53	32.34	-49.2	-51.6	16.2	0.00e+00	0	35	0	920649728	69	4880
2026-01-18 02:24:45.05	276.26	32.20	-49.2	-51.6	16.1	0.00e+00	0	35	0	922746880	69	4891
2026-01-18 02:24:46.05	275.99	32.06	-49.1	-51.4	16.4	0.00e+00	0	36	0	924844032	69	4767
2026-01-18 02:24:47.06	275.73	31.92	-48.8	-51.0	16.7	0.00e+00	0	36	0	926941184	69	4568
2026-01-18 02:24:48.07	275.46	31.77	-48.9	-51.0	16.7	0.00e+00	0	36	0	927989760	69	4586
2026-01-18 02:24:49.08	275.20	31.63	-49.1	-51.4	16.4	0.00e+00	0	36	0	930086912	69	4782
2026-01-18 02:24:50.09	274.94	31.49	-49.4	-51.8	15.9	0.00e+00	0	36	0	932184064	69	5031
2026-01-18 02:24:51.09	274.68	31.35	-49.5	-52.0	15.7	0.00e+00	0	36	0	934281216	69	5150
2026-01-18 02:24:52.10	274.42	31.21	-49.4	-51.8	15.9	0.00e+00	0	36	0	936378368	69	5014
2026-01-18 02:24:53.11	274.17	31.07	-49.3	-51.6	16.0	0.00e+00	0	36	0	937426944	69	4925
2026-01-18 02:24:54.12	273.92	30.93	-49.2	-51.5	16.2	0.00e+00	0	36	0	939524096	69	4834
2026-01-18 02:24:55.12	273.67	30.79	-49.0	-51.2	16.5	0.00e+00	0	36	0	941621248	69	4694
2026-01-18 02:24:56.13	273.42	30.65	-48.7	-50.8	16.9	0.00e+00	0	36	0	943718400	69	4469
2026-01-18 02:24:57.14	273.18	30.51	-48.7	-50.8	16.9	0.00e+00	0	36	0	945815552	69	4458
2026-01-18 02:24:58.15	272.94	30.37	-48.8	-50.9	16.8	0.00e+00	0	36	0	947912704	69	4515
2026-01-18 02:24:59.16	272.69	30.23	-48.8	-51.0	16.8	0.00e+00	0	36	0	948961280	69	4554
2026-01-18 02:25:00.17	272.46	30.09	-48.9	-51.0	16.7	0.00e+00	0	35	0	951058432	69	4596
2026-01-18 02:25:01.18	272.22	29.95	-48.8	-50.9	16.7	0.00e+00	0	36	0	953155584	69	4539
2026-01-18 02:25:02.18	271.99	29.81	-48.6	-50.6	17.0	0.00e+00	0	35	0	955252736	69	4382
2026-01-18 02:25:03.19	271.75	29.67	-48.4	-50.3	17.3	0.00e+00	0	36	0	956301312	68	4479
2026-01-18 02:25:04.20	271.52	29.53	-48.2	-50.1	17.6	0.00e+00	0	36	0	958398464	68	4353
2026-01-18 02:25:05.21	271.29	29.39	-47.9	-49.7	17.9	0.00e+00	0	35	0	960495616	67	4435
2026-01-18 02:25:06.22	271.07	29.25	-47.9	-49.8	17.8	0.00e+00	0	35	0	962592768	67	4451
2026-01-18 02:25:07.22	270.84	29.11	-48.0	-49.9	17.7	0.00e+00	0	36	0	964689920	67	4526
2026-01-18 02:25:08.23	270.62	28.97	-48.1	-50.1	17.5	0.00e+00	0	36	0	965738496	67	4602
2026-01-18 02:25:09.24	270.40	28.83	-47.9	-49.8	17.8	0.00e+00	0	36	0	967835648	67	4457
2026-01-18 02:25:10.25	270.18	28.69	-47.9	-49.7	17.8	0.00e+00	0	35	0	969932800	67	4427
2026-01-18 02:25:11.26	269.97	28.55	-47.8	-49.7	17.9	0.00e+00	0	36	0	972029952	67	4398
2026-01-18 02:25:12.26	269.75	28.42	-47.8	-49.6	18.0	0.00e+00	0	36	0	974127104	67	4343
2026-01-18 02:25:13.27	269.54	28.28	-47.7	-49.5	18.0	0.00e+00	0	36	0	976224256	67	4326
2026-01-18 02:25:14.28	269.33	28.14	-47.4	-49.0	18.5	0.00e+00	0	36	0	977272832	66	4334
2026-01-18 02:25:15.28	269.12	28.00	-47.4	-49.1	18.5	0.00e+00	0	35	0	979369984	66	4353
2026-01-18 02:25:16.29	268.91	27.87	-47.4	-49.1	18.4	0.00e+00	0	36	0	981467136	66	4377
2026-01-18 02:25:17.30	268.71	27.73	-47.4	-49.1	18.5	0.00e+00	0	35	0	983564288	66	4341
2026-01-18 02:25:18.31	268.50	27.59	-47.5	-49.2	18.3	0.00e+00	0	36	0	984612864	66	4428
2026-01-18 02:25:19.32	268.30	27.46	-47.6	-49.3	18.2	0.00e+00	0	36	0	986710016	66	4470
2026-01-18 02:25:20.33	268.10	27.32	-47.5	-49.2	18.3	0.00e+00	0	35	0	988807168	66	4404
2026-01-18 02:25:21.33	267.90	27.18	-47.5	-49.3	18.3	0.00e+00	0	35	0	990904320	66	4447
2026-01-18 02:25:22.34	267.70	27.05	-47.5	-49.2	18.2	0.00e+00	0	36	0	993001472	66	4438
2026-01-18 02:25:23.35	267.51	26.91	-47.3	-48.9	18.5	0.00e+00	0	35	0	994050048	66	4291
2026-01-18 02:25:24.35	267.32	26.78	-47.3	-49.0	18.5	0.00e+00	0	35	0	996147200	66	4307
2026-01-18 02:25:25.36	267.12	26.64	-47.4	-49.1	18.4	0.00e+00	0	36	0	998244352	66	4369
2026-01-18 02:25:26.37	266.93	26.51	-47.2	-48.9	18.6	0.00e+00	0	35	0	1000341504	66	4246
2026-01-18 02:25:27.38	266.74	26.38	-47.3	-49.0	18.5	0.00e+00	0	36	0	1002438656	66	4312
2026-01-18 02:25:28.39	266.56	26.24	-47.5	-49.2	18.3	0.00e+00	0	36	0	1004535808	66	4424
2026-01-18 02:25:29.39	266.37	26.11	-47.6	-49.4	18.1	0.00e+00	0	36	0	1005584384	66	4509
2026-01-18 02:25:30.40	266.19	25.98	-47.7	-49.5	18.0	0.00e+00	0	36	0	1007681536	66	4563
2026-01-18 02:25:31.41	266.01	25.84	-47.7	-49.5	18.0	0.00e+00	0	35	0	1009778688	66	4571
2026-01-18 02:25:32.42	265.82	25.71	-47.8	-49.7	17.8	0.00e+00	0	36	0	1011875840	66	4682
2026-01-18 02:25:33.42	265.65	25.58	-47.8	-49.7	17.8	0.00e+00	0	36	0	1012924416	66	4667
2026-01-18 02:25:34.43	265.47	25.45	-47.6	-49.4	18.1	0.00e+00	0	35	0	1015021568	66	4498
2026-01-18 02:25:35.44	265.29	25.32	-47.6	-49.4	18.1	0.00e+00	0	35	0	1017118720	66	4505
2026-01-18 02:25:36.45	265.12	25.18	-47.5	-49.3	18.2	0.00e+00	0	36	0	1019215872	66	4464
2026-01-18 02:25:37.46	264.94	25.05	-47.5	-49.2	18.3	0.00e+00	0	35	0	1021313024	66	4413
2026-01-18 02:25:38.46	264.77	24.92	-47.4	-49.2	18.3	0.00e+00	0	36	0	1023410176	66	4394
2026-01-18 02:25:39.47	264.60	24.79	-47.6	-49.3	18.1	0.00e+00	0	36	0	1024458752	66	4491
2026-01-18 02:25:40.48	264.43	24.66	-47.6	-49.4	18.1	0.00e+00	0	35	0	1026555904	66	4497
2026-01-18 02:25:41.49	264.26	24.54	-47.5	-49.2	18.2	0.00e+00	0	36	0	1028653056	66	4406
2026-01-18 02:25:42.50	264.10	24.41	-47.4	-49.1	18.4	0.00e+00	0	36	0	1030750208	66	4365
2026-01-18 02:25:43.50	263.93	24.28	-47.4	-49.1	18.3	0.00e+00	0	35	0	1032847360	66	4388
2026-01-18 02:25:44.51	263.77	24.15	-47.4	-49.2	18.3	0.00e+00	0	36	0	1033895936	66	4395
2026-01-18 02:25:45.52	263.61	24.02	-47.5	-49.3	18.2	0.00e+00	0	36	0	1035993088	66	4448
2026-01-18 02:25:46.53	263.45	23.90	-47.5	-49.2	18.2	0.00e+00	0	36	0	1038090240	66	4434
2026-01-18 02:25:47.53	263.29	23.77	-47.6	-49.3	18.1	0.00e+00	0	36	0	1040187392	66	4476
2026-01-18 02:25:48.54	263.13	23.64	-47.7	-49.5	17.9	0.00e+00	0	35	0	1041235968	66	4590
2026-01-18 02:25:49.55	262.97	23.52	-47.8	-49.6	17.8	0.00e+00	0	35	0	1043333120	66	4621
2026-01-18 02:25:50.56	262.82	23.39	-47.8	-49.7	17.7	0.00e+00	0	36	0	1045430272	66	4682
2026-01-18 02:25:51.56	262.66	23.27	-47.9	-49.8	17.7	0.00e+00	0	36	0	1047527424	66	4723
2026-01-18 02:25:52.57	262.51	23.14	-47.9	-49.8	17.6	0.00e+00	0	36	0	1049624576	66	4743
2026-01-18 02:25:53.58	262.36	23.01	-47.8	-49.7	17.8	0.00e+00	0	36	0	1051721728	66	4659
2026-01-18 02:25:54.59	262.21	22.89	-47.7	-49.6	17.8	0.00e+00	0	35	0	1052770304	66	4602
2026-01-18 02:25:55.60	262.06	22.77	-47.7	-49.5	17.9	0.00e+00	0	36	0	1054867456	66	4556
2026-01-18 02:25:56.61	261.91	22.64	-47.5	-49.3	18.1	0.00e+00	0	36	0	1056964608	66	4454
2026-01-18 02:25:57.61	261.76	22.52	-47.3	-48.9	18.4	0.00e+00	0	36	0	1059061760	66	4285
2026-01-18 02:25:58.62	261.62	22.40	-47.3	-49.0	18.4	0.00e+00	0	35	0	1061158912	66	4315
2026-01-18 02:25:59.63	261.47	22.27	-47.3	-48.9	18.4	0.00e+00	0	36	0	1062207488	66	4281
2026-01-18 02:26:00.64	261.33	22.15	-47.2	-48.9	18.5	0.00e+00	0	35	0	1064304640	66	4258
2026-01-18 02:26:01.64	261.19	22.03	-47.2	-48.9	18.5	0.00e+00	0	36	0	1066401792	66	4264
2026-01-18 02:26:02.65	261.04	21.91	-47.4	-49.1	18.3	0.00e+00	0	36	0	1068498944	66	4347
2026-01-18 02:26:03.66	260.90	21.79	-47.5	-49.2	18.2	0.00e+00	0	36	0	1070596096	66	4428
2026-01-18 02:26:04.67	260.77	21.67	-47.6	-49.4	17.9	0.00e+00	0	35	0	1071644672	66	4538
2026-01-18 02:26:05.67	260.63	21.55	-47.8	-49.7	17.7	0.00e+00	0	36	0	1073741824	66	4681
2026-01-18 02:26:06.68	260.49	21.43	-47.9	-49.8	17.6	0.00e+00	0	36	0	1075838976	66	4745
2026-01-18 02:26:07.69	260.35	21.31	-48.0	-50.0	17.4	0.00e+00	0	36	0	1077936128	66	4838
2026-01-18 02:26:08.70	260.22	21.19	-47.9	-49.8	17.5	0.00e+00	0	36	0	1080033280	66	4756
2026-01-18 02:26:09.70	260.09	21.07	-47.9	-49.8	17.5	0.00e+00	0	35	0	1081081856	66	4739
2026-01-18 02:26:10.71	259.95	20.95	-47.8	-49.7	17.6	0.00e+00	0	36	0	1083179008	66	4700
2026-01-18 02:26:11.72	259.82	20.84	-47.6	-49.4	17.9	0.00e+00	0	36	0	1085276160	66	4545
2026-01-18 02:26:12.73	259.69	20.72	-47.6	-49.4	17.9	0.00e+00	0	36	0	1087373312	66	4524
2026-01-18 02:26:13.74	259.56	20.60	-47.6	-49.4	17.9	0.00e+00	0	36	0	1089470464	66	4541
2026-01-18 02:26:14.74	259.43	20.49	-47.6	-49.5	17.9	0.00e+00	0	36	0	1090519040	66	4565
2026-01-18 02:26:15.75	259.31	20.37	-47.6	-49.4	17.9	0.00e+00	0	36	0	1092616192	66	4542
2026-01-18 02:26:16.76	259.18	20.25	-47.7	-49.5	17.8	0.00e+00	0	36	0	1094713344	66	4597
2026-01-18 02:26:17.77	259.05	20.14	-47.6	-49.4	17.9	0.00e+00	0	35	0	1096810496	66	4526
2026-01-18 02:26:18.77	258.93	20.02	-47.6	-49.4	17.9	0.00e+00	0	36	0	1098907648	66	4517
2026-01-18 02:26:19.78	258.81	19.91	-47.7	-49.5	17.8	0.00e+00	0	35	0	1099956224	66	4590
2026-01-18 02:26:20.79	258.68	19.79	-47.6	-49.5	17.8	0.00e+00	0	36	0	1102053376	66	4559
2026-01-18 02:26:21.80	258.56	19.68	-47.6	-49.4	17.9	0.00e+00	0	36	0	1104150528	66	4517
2026-01-18 02:26:22.81	258.44	19.57	-47.6	-49.4	17.9	0.00e+00	0	36	0	1106247680	66	4507
2026-01-18 02:26:23.81	258.32	19.45	-47.6	-49.4	17.9	0.00e+00	0	36	0	1108344832	66	4540
2026-01-18 02:26:24.82	258.20	19.34	-47.6	-49.4	17.9	0.00e+00	0	36	0	1109393408	66	4530
2026-01-18 02:26:25.83	258.08	19.23	-47.6	-49.4	17.9	0.00e+00	0	35	0	1111490560	66	4525
2026-01-18 02:26:26.84	257.96	19.12	-47.5	-49.2	18.0	0.00e+00	0	36	0	1113587712	66	4440
2026-01-18 02:26:27.85	257.85	19.00	-47.6	-49.4	17.9	0.00e+00	0	36	0	1115684864	66	4513
2026-01-18 02:26:28.85	257.73	18.89	-47.7	-49.5	17.8	0.00e+00	0	36	0	1117782016	66	4585
2026-01-18 02:26:29.86	257.62	18.78	-47.7	-49.6	17.7	0.00e+00	0	36	0	1118830592	66	4611
2026-01-18 02:26:30.87	257.50	18.67	-47.7	-49.6	17.7	0.00e+00	0	35	0	1120927744	66	4611
2026-01-18 02:26:31.88	257.39	18.56	-47.8	-49.6	17.7	0.00e+00	0	36	0	1123024896	66	4651
2026-01-18 02:26:32.88	257.28	18.45	-47.7	-49.6	17.6	0.00e+00	0	36	0	1125122048	66	4644
2026-01-18 02:26:33.89	257.17	18.34	-47.6	-49.5	17.8	0.00e+00	0	35	0	1127219200	66	4554
2026-01-18 02:26:34.90	257.06	18.23	-47.6	-49.5	17.8	0.00e+00	0	36	0	1128267776	66	4559
2026-01-18 02:26:35.91	256.95	18.13	-47.5	-49.4	17.9	0.00e+00	0	36	0	1130364928	66	4494
2026-01-18 02:26:36.92	256.84	18.02	-47.5	-49.3	18.0	0.00e+00	0	35	0	1132462080	66	4461
2026-01-18 02:26:37.93	256.73	17.91	-47.5	-49.3	18.0	0.00e+00	0	36	0	1134559232	66	4450
2026-01-18 02:26:38.93	256.62	17.80	-47.4	-49.1	18.1	0.00e+00	0	35	0	1136656384	66	4389
2026-01-18 02:26:39.94	256.52	17.69	-47.2	-49.0	18.3	0.00e+00	0	36	0	1137704960	66	4300
2026-01-18 02:26:40.94	256.41	17.59	-47.3	-49.0	18.3	0.00e+00	0	36	0	1139802112	66	4312
2026-01-18 02:26:41.95	256.31	17.48	-47.3	-49.0	18.3	0.00e+00	0	36	0	1141899264	66	4302
2026-01-18 02:26:42.96	256.20	17.38	-47.2	-49.0	18.3	0.00e+00	0	36	0	1143996416	66	4299
2026-01-18 02:26:43.97	256.10	17.27	-47.2	-49.0	18.3	0.00e+00	0	36	0	1146093568	66	4292
2026-01-18 02:26:44.98	255.99	17.16	-47.2	-48.9	18.3	0.00e+00	0	36	0	1147142144	66	4275
2026-01-18 02:26:45.99	255.89	17.06	-47.2	-48.9	18.3	0.00e+00	0	36	0	1149239296	66	4279
2026-01-18 02:26:47.00	255.79	16.95	-47.1	-48.8	18.4	0.00e+00	0	36	0	1151336448	66	4218
2026-01-18 02:26:48.01	255.69	16.85	-47.2	-48.9	18.3	0.00e+00	0	36	0	1153433600	66	4256
2026-01-18 02:26:49.01	255.59	16.75	-47.2	-48.9	18.3	0.00e+00	0	35	0	1155530752	66	4286
2026-01-18 02:26:50.02	255.49	16.64	-47.2	-49.0	18.3	0.00e+00	0	36	0	1156579328	66	4300
2026-01-18 02:26:51.03	255.39	16.54	-47.3	-49.1	18.1	0.00e+00	0	36	0	1158676480	66	4352
2026-01-18 02:26:52.04	255.29	16.44	-47.4	-49.1	18.1	0.00e+00	0	36	0	1160773632	66	4382
2026-01-18 02:26:53.04	255.20	16.33	-47.4	-49.1	18.1	0.00e+00	0	36	0	1162870784	66	4381
2026-01-18 02:26:54.05	255.10	16.23	-47.5	-49.3	17.9	0.00e+00	0	36	0	1164967936	66	4472
2026-01-18 02:26:55.06	255.01	16.13	-47.6	-49.4	17.8	0.00e+00	0	36	0	1167065088	66	4534
2026-01-18 02:26:56.07	254.91	16.03	-47.7	-49.6	17.6	0.00e+00	0	36	0	1168113664	66	4616
2026-01-18 02:26:57.08	254.82	15.93	-47.7	-49.5	17.7	0.00e+00	0	36	0	1170210816	66	4597
2026-01-18 02:26:58.08	254.72	15.83	-47.7	-49.7	17.6	0.00e+00	0	36	0	1172307968	66	4654
2026-01-18 02:26:59.09	254.63	15.73	-47.7	-49.6	17.6	0.00e+00	0	36	0	1174405120	66	4638
2026-01-18 02:27:00.10	254.54	15.62	-47.7	-49.6	17.6	0.00e+00	0	36	0	1175453696	66	4645
2026-01-18 02:27:01.11	254.44	15.52	-47.7	-49.6	17.6	0.00e+00	0	36	0	1177550848	66	4623
2026-01-18 02:27:02.12	254.35	15.43	-47.7	-49.6	17.6	0.00e+00	0	36	0	1179648000	66	4621
2026-01-18 02:27:03.12	254.26	15.33	-47.6	-49.4	17.7	0.00e+00	0	36	0	1181745152	66	4542
2026-01-18 02:27:04.13	254.17	15.23	-47.6	-49.5	17.7	0.00e+00	0	36	0	1183842304	66	4568
2026-01-18 02:27:05.14	254.08	15.13	-47.8	-49.7	17.5	0.00e+00	0	36	0	1184890880	66	4668
2026-01-18 02:27:06.15	253.99	15.03	-47.6	-49.4	17.7	0.00e+00	0	36	0	1186988032	66	4543
2026-01-18 02:27:07.15	253.91	14.93	-47.6	-49.5	17.7	0.00e+00	0	36	0	1189085184	66	4554
2026-01-18 02:27:08.16	253.82	14.84	-47.7	-49.6	17.6	0.00e+00	0	35	0	1191182336	66	4625
2026-01-18 02:27:09.17	253.73	14.74	-47.6	-49.5	17.7	0.00e+00	0	36	0	1193279488	66	4564
2026-01-18 02:27:10.18	253.65	14.64	-47.7	-49.6	17.6	0.00e+00	0	35	0	1195376640	66	4619
2026-01-18 02:27:11.19	253.56	14.54	-47.8	-49.7	17.4	0.00e+00	0	36	0	1196425216	66	4690
2026-01-18 02:27:12.20	253.47	14.45	-47.8	-49.8	17.4	0.00e+00	0	36	0	1198522368	66	4727
2026-01-18 02:27:13.20	253.39	14.35	-47.9	-49.9	17.2	0.00e+00	0	36	0	1200619520	66	4783
2026-01-18 02:27:14.21	253.31	14.26	-48.0	-50.0	17.1	0.00e+00	0	35	0	1202716672	66	4859
2026-01-18 02:27:15.22	253.22	14.16	-48.0	-50.0	17.1	0.00e+00	0	36	0	1203765248	66	4850
2026-01-18 02:27:16.23	253.14	14.07	-48.1	-50.1	17.0	0.00e+00	0	36	0	1205862400	66	4911
2026-01-18 02:27:17.24	253.06	13.97	-48.1	-50.2	17.0	0.00e+00	0	36	0	1207959552	66	4927
2026-01-18 02:27:18.25	252.97	13.88	-48.1	-50.2	16.9	0.00e+00	0	36	0	1210056704	66	4930
2026-01-18 02:27:19.25	252.89	13.78	-48.1	-50.2	16.9	0.00e+00	0	36	0	1212153856	66	4968
2026-01-18 02:27:20.26	252.81	13.69	-48.1	-50.2	16.9	0.00e+00	0	36	0	1214251008	67	4677
2026-01-18 02:27:21.27	252.73	13.59	-48.2	-50.3	16.8	0.00e+00	0	36	0	1215299584	67	4721
2026-01-18 02:27:22.28	252.65	13.50	-48.1	-50.2	16.9	0.00e+00	0	36	0	1217396736	67	4705
2026-01-18 02:27:23.29	252.57	13.41	-48.1	-50.2	16.9	0.00e+00	0	36	0	1219493888	67	4696
2026-01-18 02:27:24.29	252.49	13.32	-48.1	-50.3	16.9	0.00e+00	0	36	0	1221591040	67	4716
2026-01-18 02:27:25.30	252.42	13.22	-48.2	-50.3	16.8	0.00e+00	0	36	0	1223688192	67	4751
2026-01-18 02:27:26.31	252.34	13.13	-48.2	-50.3	16.7	0.00e+00	0	36	0	1224736768	67	4756
2026-01-18 02:27:27.32	252.26	13.04	-48.3	-50.5	16.6	0.00e+00	0	36	0	1226833920	67	4827
2026-01-18 02:27:28.33	252.18	12.95	-48.4	-50.6	16.5	0.00e+00	0	36	0	1228931072	67	4901
2026-01-18 02:27:29.33	252.11	12.86	-48.4	-50.6	16.5	0.00e+00	0	35	0	1231028224	67	4884
2026-01-18 02:27:30.34	252.03	12.77	-48.3	-50.5	16.6	0.00e+00	0	36	0	1232076800	67	4843
2026-01-18 02:27:31.35	251.96	12.67	-48.5	-50.8	16.3	0.00e+00	0	35	0	1234173952	67	4988
2026-01-18 02:27:32.36	251.88	12.58	-48.4	-50.7	16.4	0.00e+00	0	36	0	1236271104	67	4935
2026-01-18 02:27:33.37	251.81	12.49	-48.4	-50.6	16.5	0.00e+00	0	36	0	1238368256	67	4888
2026-01-18 02:27:34.37	251.73	12.41	-48.5	-50.8	16.2	0.00e+00	0	36	0	1240465408	67	5029
2026-01-18 02:27:35.38	251.66	12.32	-48.6	-50.9	16.1	0.00e+00	0	36	0	1242562560	67	5065
2026-01-18 02:27:36.39	251.59	12.23	-48.6	-51.0	16.0	0.00e+00	0	36	0	1243611136	67	5144
2026-01-18 02:27:37.40	251.52	12.14	-48.6	-50.9	16.1	0.00e+00	0	36	0	1245708288	67	5074
