passes_logs/2026/01/18/R3.2S_Murmansk/R3.2S_Murmansk__20260118_062525_KANOPUS-V_5_rec.log

#Pass ID: 20260118_062525_KANOPUS-V 5
#Satellite: KANOPUS-V 5
#Configuration: KANOPUS-V_8320
#almurnet v.1.7.20251203
#Start time: 2026-01-18 06:25:27

#Version: 2.2.20231116
#Station: R3.2S_Murmansk
#Location: 33.079688 lon 68.888172 lat
#TLE: 1 43876U 18111A   26017.66658644  .00002803  00000+0  12058-3 0  9992
#TLE: 2 43876  97.3688 286.1324 0001777  87.2776 272.8665 15.23451717391876

#Time	Az	El	Level	Level2	SNR	BER	BlckErr	Temp	State	Recorded	gain1	gain2
2026-01-18 06:25:27.16	122.72	2.14	-52.7	-61.6	3.8	7.44e-01	0	34	0	0	76	10368
2026-01-18 06:25:28.16	122.66	2.20	-52.7	-61.6	3.8	7.45e-01	0	34	104	0	76	10412
2026-01-18 06:25:29.17	122.61	2.27	-52.8	-61.7	3.8	7.45e-01	0	34	104	0	76	10421
2026-01-18 06:25:30.17	122.56	2.34	-52.8	-61.6	3.8	7.46e-01	0	34	104	0	76	10373
2026-01-18 06:25:31.18	122.50	2.41	-52.8	-61.6	3.8	7.46e-01	0	34	104	0	76	10402
2026-01-18 06:25:32.19	122.45	2.48	-52.7	-61.6	3.8	7.45e-01	0	34	104	0	76	10380
2026-01-18 06:25:33.20	122.39	2.55	-52.8	-61.6	3.8	7.44e-01	0	34	104	0	76	10363
2026-01-18 06:25:34.21	122.34	2.62	-52.8	-61.6	3.8	7.43e-01	0	34	104	0	76	10358
2026-01-18 06:25:35.21	122.28	2.69	-52.8	-61.6	3.8	7.47e-01	0	34	104	0	76	10351
2026-01-18 06:25:36.22	122.23	2.76	-52.8	-61.6	3.8	7.46e-01	0	34	104	0	76	10381
2026-01-18 06:25:37.23	122.17	2.83	-52.7	-61.6	3.8	7.45e-01	0	34	104	0	76	10387
2026-01-18 06:25:38.24	122.11	2.90	-52.7	-61.6	3.8	7.46e-01	0	34	104	0	76	10383
2026-01-18 06:25:39.24	122.06	2.97	-52.8	-61.6	3.8	7.46e-01	0	34	104	0	76	10361
2026-01-18 06:25:40.25	122.00	3.04	-52.8	-61.6	3.8	7.46e-01	0	34	104	0	76	10352
2026-01-18 06:25:41.26	121.94	3.11	-52.7	-61.6	3.8	7.45e-01	0	34	104	0	76	10351
2026-01-18 06:25:42.26	121.88	3.18	-52.8	-61.6	3.8	7.46e-01	0	34	104	0	76	10358
2026-01-18 06:25:43.27	121.82	3.25	-52.8	-61.6	3.8	7.45e-01	0	35	104	0	76	10355
2026-01-18 06:25:44.28	121.76	3.33	-52.7	-61.6	3.8	7.45e-01	0	34	104	0	76	10341
2026-01-18 06:25:45.29	121.70	3.40	-52.7	-61.6	3.8	7.46e-01	0	34	104	0	76	10384
2026-01-18 06:25:46.30	121.64	3.47	-52.7	-61.6	3.8	7.44e-01	0	34	104	0	76	10363
2026-01-18 06:25:47.31	121.58	3.54	-52.7	-61.6	3.8	7.46e-01	0	34	104	0	76	10347
2026-01-18 06:25:48.31	121.52	3.62	-52.7	-61.6	3.8	7.46e-01	0	34	104	0	76	10382
2026-01-18 06:25:49.32	121.46	3.69	-52.7	-61.6	3.8	7.45e-01	0	34	104	0	76	10355
2026-01-18 06:25:50.33	121.40	3.76	-52.7	-61.6	3.8	7.47e-01	0	34	104	0	76	10355
2026-01-18 06:25:51.34	121.34	3.84	-52.7	-61.6	3.8	7.44e-01	0	34	104	0	76	10348
2026-01-18 06:25:52.35	121.27	3.91	-52.6	-61.6	3.8	7.46e-01	0	35	104	0	76	10356
2026-01-18 06:25:53.35	121.21	3.98	-52.8	-61.6	3.8	7.46e-01	0	35	104	0	76	10313
2026-01-18 06:25:54.36	121.15	4.06	-52.7	-61.6	3.8	7.45e-01	0	34	104	0	76	10363
2026-01-18 06:25:55.37	121.08	4.13	-52.7	-61.6	3.8	7.44e-01	0	35	104	0	76	10342
2026-01-18 06:25:56.38	121.02	4.21	-52.7	-61.6	3.8	7.46e-01	0	35	104	0	76	10368
2026-01-18 06:25:57.38	120.96	4.28	-52.8	-61.6	3.8	7.45e-01	0	35	104	0	76	10361
2026-01-18 06:25:58.39	120.89	4.36	-52.8	-61.6	3.8	7.46e-01	0	34	104	0	76	10329
2026-01-18 06:25:59.40	120.83	4.43	-52.8	-61.6	3.8	7.47e-01	0	35	104	0	76	10322
2026-01-18 06:26:00.40	120.76	4.51	-52.8	-61.6	3.8	7.45e-01	0	35	104	0	76	10302
2026-01-18 06:26:01.41	120.69	4.58	-52.7	-61.6	3.8	7.45e-01	0	35	104	0	76	10342
2026-01-18 06:26:02.42	120.63	4.66	-52.7	-61.6	3.8	7.45e-01	0	35	104	0	76	10359
2026-01-18 06:26:03.43	120.56	4.74	-52.7	-61.6	3.8	7.44e-01	0	35	104	0	76	10338
2026-01-18 06:26:04.44	120.49	4.81	-52.7	-61.6	3.8	7.45e-01	0	35	104	0	76	10343
2026-01-18 06:26:05.45	120.42	4.89	-52.7	-61.6	3.8	7.46e-01	0	35	104	0	76	10339
2026-01-18 06:26:06.45	120.35	4.97	-52.7	-61.6	3.8	7.45e-01	0	35	104	0	76	10322
2026-01-18 06:26:07.46	120.28	5.04	-52.7	-61.5	3.8	7.47e-01	0	35	104	0	76	10279
2026-01-18 06:26:08.47	120.22	5.12	-52.8	-61.7	3.8	7.46e-01	0	35	104	0	76	10458
2026-01-18 06:26:09.48	120.14	5.20	-52.9	-61.7	3.8	7.45e-01	0	35	104	0	76	10504
2026-01-18 06:26:10.49	120.07	5.28	-52.9	-61.7	3.8	7.44e-01	0	35	104	0	76	10442
2026-01-18 06:26:11.49	120.00	5.36	-52.9	-61.7	3.8	7.44e-01	0	35	104	0	76	10496
2026-01-18 06:26:12.50	119.93	5.44	-52.9	-61.7	3.8	7.46e-01	0	35	104	0	76	10524
2026-01-18 06:26:13.51	119.86	5.52	-52.9	-61.8	3.8	7.46e-01	0	35	104	0	76	10566
2026-01-18 06:26:14.52	119.79	5.59	-52.9	-61.7	3.8	7.44e-01	0	35	104	0	76	10490
2026-01-18 06:26:15.52	119.71	5.67	-53.0	-61.8	3.8	7.45e-01	0	35	104	0	76	10608
2026-01-18 06:26:16.53	119.64	5.75	-52.9	-61.8	3.8	7.45e-01	0	35	104	0	76	10547
2026-01-18 06:26:17.54	119.56	5.83	-53.0	-61.8	3.8	7.45e-01	0	35	104	0	76	10609
2026-01-18 06:26:18.54	119.49	5.91	-52.9	-61.8	3.8	7.46e-01	0	35	104	0	76	10612
2026-01-18 06:26:19.55	119.41	6.00	-52.9	-61.9	3.8	7.45e-01	0	35	104	0	76	10672
2026-01-18 06:26:20.56	119.34	6.08	-53.1	-61.9	3.8	7.45e-01	0	35	104	0	76	10713
2026-01-18 06:26:21.57	119.26	6.16	-53.0	-61.9	3.8	7.45e-01	0	35	104	0	76	10681
2026-01-18 06:26:22.58	119.18	6.24	-53.1	-61.9	3.8	7.46e-01	0	35	104	0	76	10701
2026-01-18 06:26:23.59	119.11	6.32	-53.1	-61.9	3.8	7.45e-01	0	35	104	0	76	10695
2026-01-18 06:26:24.59	119.03	6.40	-53.1	-62.0	3.8	7.45e-01	0	35	104	0	76	10779
2026-01-18 06:26:25.60	118.95	6.49	-53.1	-61.9	3.8	7.44e-01	0	35	104	0	76	10736
2026-01-18 06:26:26.60	118.87	6.57	-53.1	-61.9	3.8	7.44e-01	0	35	104	0	76	10766
2026-01-18 06:26:27.61	118.79	6.65	-53.1	-62.0	3.8	7.45e-01	0	35	104	0	76	10787
2026-01-18 06:26:28.62	118.71	6.74	-53.2	-62.0	3.8	7.45e-01	0	35	104	0	76	10838
2026-01-18 06:26:29.63	118.63	6.82	-53.1	-62.0	3.8	7.45e-01	0	35	104	0	77	10228
2026-01-18 06:26:30.63	118.55	6.91	-53.2	-62.0	3.8	7.45e-01	0	35	104	0	77	10284
2026-01-18 06:26:31.64	118.46	6.99	-53.2	-62.1	3.8	7.46e-01	0	35	104	0	77	10294
2026-01-18 06:26:32.65	118.38	7.08	-53.2	-62.1	3.8	7.45e-01	0	35	104	0	77	10329
2026-01-18 06:26:33.66	118.30	7.16	-53.2	-62.0	3.8	7.44e-01	0	35	104	0	77	10257
2026-01-18 06:26:34.66	118.21	7.25	-53.3	-62.1	3.8	7.46e-01	0	35	104	0	77	10398
2026-01-18 06:26:35.67	118.13	7.33	-53.2	-62.1	3.8	7.46e-01	0	35	104	0	77	10327
2026-01-18 06:26:36.68	118.04	7.42	-53.3	-62.1	3.8	7.45e-01	0	35	104	0	77	10406
2026-01-18 06:26:37.69	117.95	7.50	-53.2	-62.0	3.8	7.45e-01	0	35	104	0	77	10281
2026-01-18 06:26:38.69	117.87	7.59	-53.3	-62.2	3.8	7.46e-01	0	35	104	0	77	10443
2026-01-18 06:26:39.70	117.78	7.68	-53.3	-62.2	3.8	7.46e-01	0	35	104	0	77	10435
2026-01-18 06:26:40.71	117.69	7.77	-53.4	-62.2	3.8	7.46e-01	0	35	104	0	77	10464
2026-01-18 06:26:41.72	117.60	7.85	-53.3	-62.1	3.8	7.44e-01	0	35	104	0	77	10360
2026-01-18 06:26:42.72	117.51	7.94	-53.4	-62.2	3.8	7.46e-01	0	35	104	0	77	10519
2026-01-18 06:26:43.73	117.42	8.03	-53.4	-62.2	3.8	7.45e-01	0	35	104	0	77	10494
2026-01-18 06:26:44.74	117.33	8.12	-53.4	-62.3	3.8	7.44e-01	0	35	104	0	77	10556
2026-01-18 06:26:45.75	117.24	8.21	-53.3	-62.2	3.8	7.45e-01	0	35	104	0	77	10447
2026-01-18 06:26:46.76	117.15	8.30	-53.4	-62.3	3.8	7.45e-01	0	35	104	0	77	10568
2026-01-18 06:26:47.77	117.05	8.39	-53.5	-62.3	3.8	7.45e-01	0	35	104	0	77	10597
2026-01-18 06:26:48.77	116.96	8.48	-53.5	-62.4	3.8	7.45e-01	0	35	104	0	77	10680
2026-01-18 06:26:49.78	116.86	8.57	-53.4	-62.3	3.8	7.45e-01	0	35	104	0	77	10548
2026-01-18 06:26:50.79	116.77	8.66	-53.5	-62.4	3.8	7.45e-01	0	35	104	0	77	10691
2026-01-18 06:26:51.80	116.67	8.76	-53.5	-62.4	3.8	7.46e-01	0	35	104	0	77	10659
2026-01-18 06:26:52.80	116.57	8.85	-53.5	-62.4	3.8	7.45e-01	0	35	104	0	77	10680
2026-01-18 06:26:53.81	116.47	8.94	-53.5	-62.3	3.8	7.45e-01	0	35	104	0	77	10578
2026-01-18 06:26:54.82	116.38	9.03	-53.5	-62.4	3.8	7.46e-01	0	35	104	0	77	10703
2026-01-18 06:26:55.83	116.28	9.13	-53.5	-62.3	3.8	7.44e-01	0	35	104	0	77	10610
2026-01-18 06:26:56.83	116.18	9.22	-53.5	-62.4	3.8	7.46e-01	0	35	104	0	77	10665
2026-01-18 06:26:57.84	116.07	9.31	-53.5	-62.3	3.8	7.45e-01	0	35	104	0	77	10584
2026-01-18 06:26:58.85	115.97	9.41	-53.6	-62.4	3.8	7.46e-01	0	35	104	0	77	10735
2026-01-18 06:26:59.86	115.87	9.50	-53.5	-62.4	3.8	7.46e-01	0	35	104	0	77	10669
2026-01-18 06:27:00.87	115.76	9.60	-53.6	-62.4	3.8	7.46e-01	0	35	104	0	77	10709
2026-01-18 06:27:01.87	115.66	9.69	-53.5	-62.3	3.8	7.44e-01	0	35	104	0	77	10607
2026-01-18 06:27:02.88	115.55	9.79	-53.6	-62.5	3.8	7.45e-01	0	36	104	0	77	10843
2026-01-18 06:27:03.89	115.45	9.89	-53.6	-62.4	3.8	7.44e-01	0	35	104	0	77	10762
2026-01-18 06:27:04.90	115.34	9.98	-53.7	-62.5	3.8	7.48e-01	0	35	104	0	77	10869
2026-01-18 06:27:05.91	115.23	10.08	-53.6	-62.4	3.8	7.44e-01	0	35	104	0	77	10693
2026-01-18 06:27:06.91	115.12	10.18	-53.7	-62.5	3.8	7.45e-01	0	35	104	0	77	10865
2026-01-18 06:27:07.92	115.01	10.28	-53.7	-62.5	3.8	7.44e-01	0	35	104	0	77	10892
2026-01-18 06:27:08.93	114.90	10.38	-53.7	-62.6	3.8	7.45e-01	0	35	104	0	78	10338
2026-01-18 06:27:09.94	114.79	10.48	-53.6	-62.5	3.8	7.43e-01	0	35	104	0	78	10202
2026-01-18 06:27:10.94	114.68	10.57	-53.8	-62.6	3.8	7.45e-01	0	35	104	0	78	10317
2026-01-18 06:27:11.95	114.56	10.67	-53.7	-62.6	3.8	7.47e-01	0	35	104	0	78	10301
2026-01-18 06:27:12.96	114.45	10.78	-53.8	-62.6	3.8	7.43e-01	0	35	104	0	78	10317
2026-01-18 06:27:13.97	114.33	10.88	-53.7	-62.5	3.8	7.46e-01	0	35	104	0	78	10239
2026-01-18 06:27:14.98	114.21	10.98	-53.8	-62.6	3.8	7.43e-01	0	35	104	0	78	10331
2026-01-18 06:27:15.98	114.10	11.08	-53.7	-62.6	3.8	7.44e-01	0	35	104	0	78	10348
2026-01-18 06:27:16.99	113.98	11.18	-53.8	-62.6	3.8	7.45e-01	0	35	104	0	78	10350
2026-01-18 06:27:18.00	113.86	11.28	-53.7	-62.5	3.8	7.46e-01	0	35	104	0	78	10269
2026-01-18 06:27:19.01	113.73	11.39	-53.8	-62.6	3.8	7.45e-01	0	35	104	0	78	10360
2026-01-18 06:27:20.02	113.61	11.49	-53.7	-62.6	3.8	7.45e-01	0	36	104	0	78	10325
2026-01-18 06:27:21.03	113.49	11.60	-53.8	-62.6	3.8	7.45e-01	0	35	104	0	78	10380
2026-01-18 06:27:22.03	113.36	11.70	-53.7	-62.6	3.8	7.46e-01	0	36	104	0	78	10298
2026-01-18 06:27:23.04	113.24	11.81	-53.8	-62.6	3.8	7.46e-01	0	35	104	0	78	10362
2026-01-18 06:27:24.05	113.11	11.91	-53.8	-62.6	3.8	7.45e-01	0	36	104	0	78	10342
2026-01-18 06:27:25.06	112.98	12.02	-53.8	-62.6	3.8	7.46e-01	0	36	104	0	78	10387
2026-01-18 06:27:26.07	112.85	12.12	-53.7	-62.6	3.8	7.44e-01	0	36	104	0	78	10345
2026-01-18 06:27:27.07	112.72	12.23	-53.8	-62.7	3.8	7.46e-01	0	35	104	0	78	10447
2026-01-18 06:27:28.08	112.59	12.34	-53.8	-62.6	3.8	7.46e-01	0	35	104	0	78	10397
2026-01-18 06:27:29.09	112.46	12.45	-53.8	-62.7	3.8	7.45e-01	0	36	104	0	78	10442
2026-01-18 06:27:30.10	112.33	12.56	-53.8	-62.6	3.8	7.45e-01	0	36	104	0	78	10398
2026-01-18 06:27:31.11	112.19	12.67	-53.8	-62.7	3.8	7.45e-01	0	35	104	0	78	10433
2026-01-18 06:27:32.11	112.06	12.77	-53.8	-62.7	3.8	7.44e-01	0	36	104	0	78	10424
2026-01-18 06:27:33.12	111.92	12.88	-53.8	-62.7	3.8	7.45e-01	0	36	104	0	78	10433
2026-01-18 06:27:34.13	111.78	13.00	-53.8	-62.7	3.8	7.44e-01	0	35	104	0	78	10440
2026-01-18 06:27:35.14	111.64	13.11	-53.8	-62.7	3.8	7.45e-01	0	35	104	0	78	10477
2026-01-18 06:27:36.15	111.50	13.22	-53.8	-62.7	3.8	7.47e-01	0	36	104	0	78	10454
2026-01-18 06:27:37.15	111.36	13.33	-53.9	-62.7	3.8	7.46e-01	0	35	104	0	78	10462
2026-01-18 06:27:38.16	111.21	13.44	-53.8	-62.7	3.8	7.45e-01	0	36	104	0	78	10451
2026-01-18 06:27:39.17	111.07	13.56	-53.9	-62.7	3.8	7.45e-01	0	36	104	0	78	10478
2026-01-18 06:27:40.17	110.92	13.67	-53.8	-62.7	3.8	7.46e-01	0	36	104	0	78	10464
2026-01-18 06:27:41.18	110.77	13.78	-49.1	-62.6	3.8	7.45e-01	0	35	104	0	70	16334
2026-01-18 06:27:42.19	110.62	13.90	-53.7	-62.7	3.8	7.46e-01	0	35	104	0	78	10448
2026-01-18 06:27:43.20	110.47	14.02	-50.4	-53.7	7.4	6.58e-01	0	36	104	0	72	5274
2026-01-18 06:27:44.20	110.32	14.13	-49.9	-53.3	8.3	6.42e-01	0	36	0	10485760	70	5594
2026-01-18 06:27:45.21	110.16	14.25	-49.3	-52.3	9.2	6.31e-01	0	36	0	25165824	70	5032
2026-01-18 06:27:46.22	110.01	14.37	-49.5	-52.7	8.9	6.34e-01	0	36	0	41943040	70	5253
2026-01-18 06:27:47.23	109.85	14.48	-48.1	-50.8	10.8	6.18e-01	0	36	0	56623104	67	4992
2026-01-18 06:27:48.24	109.69	14.60	-46.5	-48.8	12.7	6.12e-01	0	36	0	71303168	65	4448
2026-01-18 06:27:49.25	109.53	14.72	-45.0	-47.0	14.3	6.09e-01	0	36	0	88080384	62	4310
2026-01-18 06:27:50.25	109.37	14.84	-43.9	-45.8	15.2	6.08e-01	0	35	0	102760448	59	4488
2026-01-18 06:27:51.26	109.21	14.96	-43.1	-44.9	15.9	6.07e-01	0	36	0	119537664	58	4249
2026-01-18 06:27:52.27	109.04	15.08	-42.5	-44.3	16.4	6.08e-01	0	35	0	134217728	57	4215
2026-01-18 06:27:53.28	108.88	15.20	-42.5	-44.2	16.4	6.08e-01	0	36	0	150994944	56	4427
2026-01-18 06:27:54.29	108.71	15.32	-42.4	-44.2	16.6	6.07e-01	0	36	0	165675008	56	4397
2026-01-18 06:27:55.29	108.54	15.44	-42.3	-44.1	16.6	6.07e-01	0	35	0	180355072	56	4367
2026-01-18 06:27:56.30	108.37	15.57	-42.4	-44.1	16.6	6.08e-01	0	35	0	197132288	56	4380
2026-01-18 06:27:57.30	108.20	15.69	-42.4	-44.1	16.6	6.08e-01	0	36	0	211812352	56	4366
2026-01-18 06:27:58.31	108.02	15.81	-42.4	-44.2	16.5	6.07e-01	0	36	0	226492416	56	4417
2026-01-18 06:27:59.32	107.85	15.94	-42.4	-44.2	16.5	6.08e-01	0	35	0	243269632	56	4402
2026-01-18 06:28:00.33	107.67	16.06	-42.5	-44.3	16.4	6.08e-01	0	36	0	257949696	56	4457
2026-01-18 06:28:01.34	107.49	16.19	-42.4	-44.2	16.5	6.07e-01	0	35	0	272629760	56	4435
2026-01-18 06:28:02.35	107.30	16.32	-42.3	-44.1	16.5	6.08e-01	0	36	0	287309824	56	4388
2026-01-18 06:28:03.36	107.12	16.44	-42.4	-44.5	16.4	5.79e-01	0	36	0	304087040	56	4550
2026-01-18 06:28:04.36	106.94	16.57	-42.5	-44.5	16.3	5.80e-01	0	36	0	320864256	56	4571
2026-01-18 06:28:05.37	106.75	16.70	-42.4	-44.4	16.4	5.80e-01	0	36	0	335544320	56	4508
2026-01-18 06:28:06.38	106.56	16.83	-42.2	-44.2	16.6	5.80e-01	0	36	0	352321536	56	4395
2026-01-18 06:28:07.39	106.37	16.96	-42.3	-44.2	16.6	5.79e-01	0	35	0	367001600	56	4437
2026-01-18 06:28:08.39	106.18	17.09	-42.1	-44.1	16.7	5.80e-01	0	35	0	381681664	56	4365
2026-01-18 06:28:09.40	105.98	17.22	-42.2	-44.2	16.6	5.80e-01	0	36	0	396361728	56	4406
2026-01-18 06:28:10.41	105.78	17.35	-42.1	-44.1	16.7	5.80e-01	0	36	0	413138944	56	4385
2026-01-18 06:28:11.42	105.58	17.48	-42.0	-44.0	16.8	5.79e-01	0	36	0	427819008	56	4314
2026-01-18 06:28:12.43	105.38	17.61	-42.0	-44.0	16.8	5.80e-01	0	36	0	442499072	56	4334
2026-01-18 06:28:13.43	105.18	17.74	-42.1	-44.1	16.9	5.81e-01	0	36	0	459276288	55	4617
2026-01-18 06:28:14.44	104.97	17.88	-42.2	-44.2	16.9	5.80e-01	0	36	0	473956352	55	4656
2026-01-18 06:28:15.45	104.76	18.01	-42.2	-44.2	16.8	5.79e-01	0	36	0	488636416	55	4702
2026-01-18 06:28:16.46	104.55	18.15	-42.1	-44.1	16.9	5.80e-01	0	36	0	505413632	55	4624
2026-01-18 06:28:17.47	104.34	18.28	-42.2	-44.1	16.8	5.80e-01	0	35	0	522190848	55	4648
2026-01-18 06:28:18.48	104.13	18.42	-41.9	-43.9	17.0	5.79e-01	0	36	0	536870912	55	4501
2026-01-18 06:28:19.49	103.91	18.56	-41.7	-43.7	17.2	5.80e-01	0	36	0	551550976	55	4394
2026-01-18 06:28:20.49	103.69	18.69	-41.8	-43.8	17.1	5.80e-01	0	36	0	568328192	55	4454
2026-01-18 06:28:21.50	103.47	18.83	-41.6	-43.5	17.4	5.80e-01	0	35	0	583008256	55	4312
2026-01-18 06:28:22.51	103.25	18.97	-41.7	-43.6	17.2	5.79e-01	0	36	0	597688320	55	4375
2026-01-18 06:28:23.52	103.02	19.11	-41.6	-43.5	17.4	5.80e-01	0	36	0	614465536	55	4313
2026-01-18 06:28:24.53	102.79	19.25	-41.6	-43.5	17.3	5.79e-01	0	36	0	629145600	55	4340
2026-01-18 06:28:25.53	102.56	19.39	-41.6	-43.5	17.3	5.80e-01	0	36	0	643825664	55	4325
2026-01-18 06:28:26.54	102.33	19.53	-41.6	-43.5	17.3	5.79e-01	0	36	0	660602880	55	4336
2026-01-18 06:28:27.55	102.09	19.67	-41.6	-43.5	17.4	5.79e-01	0	36	0	675282944	55	4318
2026-01-18 06:28:28.56	101.85	19.81	-41.5	-43.4	17.4	5.80e-01	0	36	0	689963008	55	4275
2026-01-18 06:28:29.56	101.62	19.95	-41.5	-43.4	17.4	5.79e-01	0	36	0	706740224	54	4532
2026-01-18 06:28:30.57	101.37	20.09	-41.5	-43.5	17.4	5.79e-01	0	36	0	723517440	54	4559
2026-01-18 06:28:31.58	101.12	20.24	-41.5	-43.3	17.4	5.99e-01	0	36	0	738197504	54	4492
2026-01-18 06:28:32.59	100.88	20.38	-41.5	-43.4	17.4	5.92e-01	0	36	0	752877568	54	4512
2026-01-18 06:28:33.59	100.63	20.52	-41.6	-43.4	17.4	6.00e-01	0	36	0	769654784	54	4526
2026-01-18 06:28:34.60	100.37	20.67	-41.4	-43.2	17.5	6.00e-01	0	36	0	784334848	54	4418
2026-01-18 06:28:35.61	100.11	20.81	-41.2	-43.1	17.6	5.98e-01	0	36	0	799014912	54	4342
2026-01-18 06:28:36.62	99.85	20.96	-41.2	-43.0	17.7	6.02e-01	0	36	0	815792128	54	4317
2026-01-18 06:28:37.63	99.59	21.11	-41.1	-42.9	17.7	6.01e-01	0	36	0	830472192	54	4274
2026-01-18 06:28:38.63	99.33	21.25	-41.1	-42.8	17.8	6.03e-01	0	36	0	845152256	54	4225
2026-01-18 06:28:39.64	99.06	21.40	-41.0	-42.8	17.8	6.02e-01	0	36	0	861929472	54	4218
2026-01-18 06:28:40.65	98.79	21.55	-41.1	-42.9	17.8	6.02e-01	0	36	0	876609536	54	4244
2026-01-18 06:28:41.66	98.51	21.70	-41.2	-43.0	17.7	6.00e-01	0	36	0	891289600	54	4298
2026-01-18 06:28:42.67	98.23	21.84	-41.2	-43.0	17.7	6.02e-01	0	36	0	908066816	54	4310
2026-01-18 06:28:43.67	97.95	21.99	-41.2	-43.1	17.6	6.01e-01	0	36	0	924844032	54	4377
2026-01-18 06:28:44.68	97.67	22.14	-41.2	-43.1	17.6	6.03e-01	0	36	0	939524096	54	4387
2026-01-18 06:28:45.69	97.38	22.29	-41.2	-43.1	17.6	6.03e-01	0	36	0	954204160	54	4391
2026-01-18 06:28:46.70	97.09	22.44	-41.3	-43.3	17.5	6.03e-01	0	36	0	970981376	54	4469
2026-01-18 06:28:47.70	96.80	22.59	-41.3	-43.3	17.5	6.02e-01	0	36	0	985661440	54	4478
2026-01-18 06:28:48.71	96.51	22.74	-41.3	-43.3	17.4	6.03e-01	0	36	0	1000341504	54	4470
2026-01-18 06:28:49.72	96.21	22.90	-41.4	-43.4	17.4	6.01e-01	0	36	0	1017118720	54	4524
2026-01-18 06:28:50.73	95.90	23.05	-41.3	-43.3	17.5	6.01e-01	0	36	0	1031798784	54	4453
2026-01-18 06:28:51.74	95.60	23.20	-41.3	-43.2	17.5	6.01e-01	0	36	0	1046478848	54	4412
2026-01-18 06:28:52.75	95.28	23.35	-41.4	-43.2	17.5	6.01e-01	0	35	0	1063256064	54	4408
2026-01-18 06:28:53.75	94.97	23.50	-41.2	-43.0	17.7	6.03e-01	0	36	0	1077936128	54	4296
2026-01-18 06:28:54.76	94.66	23.66	-41.3	-43.1	17.6	6.02e-01	0	36	0	1094713344	54	4369
2026-01-18 06:28:55.77	94.34	23.81	-41.1	-42.9	17.7	6.05e-01	0	36	0	1109393408	54	4290
2026-01-18 06:28:56.78	94.01	23.96	-41.0	-42.8	17.9	6.04e-01	0	36	0	1126170624	54	4225
2026-01-18 06:28:57.79	93.68	24.12	-41.2	-43.0	17.7	6.03e-01	0	36	0	1140850688	54	4313
2026-01-18 06:28:58.79	93.36	24.27	-41.0	-42.8	17.8	6.02e-01	0	36	0	1155530752	54	4225
2026-01-18 06:28:59.80	93.02	24.42	-40.9	-42.7	17.9	6.04e-01	0	36	0	1172307968	53	4412
2026-01-18 06:29:00.80	92.69	24.58	-41.0	-42.8	17.9	6.07e-01	0	36	0	1186988032	53	4446
2026-01-18 06:29:01.81	92.34	24.73	-40.8	-42.6	18.0	6.03e-01	0	36	0	1201668096	53	4344
2026-01-18 06:29:02.82	92.00	24.89	-41.0	-42.8	17.8	6.02e-01	0	36	0	1218445312	53	4472
2026-01-18 06:29:03.83	91.65	25.04	-40.9	-42.8	17.9	6.02e-01	0	36	0	1233125376	53	4451
2026-01-18 06:29:04.84	91.29	25.19	-41.0	-42.8	17.8	6.03e-01	0	36	0	1247805440	53	4471
2026-01-18 06:29:05.84	90.94	25.35	-41.2	-43.1	17.6	6.03e-01	0	36	0	1264582656	53	4633
2026-01-18 06:29:06.85	90.58	25.50	-41.1	-43.0	17.7	6.03e-01	0	36	0	1279262720	53	4586
2026-01-18 06:29:07.86	90.21	25.66	-41.1	-43.0	17.7	6.04e-01	0	36	0	1296039936	53	4569
2026-01-18 06:29:08.87	89.84	25.81	-41.2	-43.1	17.6	6.04e-01	0	36	0	1310720000	53	4606
2026-01-18 06:29:09.88	89.47	25.97	-41.3	-43.1	17.6	6.00e-01	0	36	0	1327497216	53	4651
2026-01-18 06:29:10.89	89.09	26.12	-41.1	-43.0	17.7	6.05e-01	0	36	0	1342177280	53	4560
2026-01-18 06:29:11.89	88.71	26.27	-41.2	-43.0	17.7	6.04e-01	0	36	0	1356857344	53	4574
2026-01-18 06:29:12.90	88.33	26.43	-41.2	-43.0	17.6	6.02e-01	0	36	0	1373634560	53	4586
2026-01-18 06:29:13.91	87.94	26.58	-41.1	-42.9	17.8	6.04e-01	0	36	0	1388314624	53	4528
2026-01-18 06:29:14.92	87.54	26.73	-41.1	-42.9	17.8	6.04e-01	0	36	0	1402994688	53	4521
2026-01-18 06:29:15.92	87.15	26.88	-41.1	-43.0	17.7	6.05e-01	0	36	0	1419771904	53	4550
2026-01-18 06:29:16.93	86.75	27.04	-41.2	-43.1	17.7	6.01e-01	0	36	0	1434451968	53	4623
2026-01-18 06:29:17.94	86.34	27.19	-41.3	-43.3	17.5	6.00e-01	0	36	0	1449132032	53	4727
2026-01-18 06:29:18.95	85.93	27.34	-41.3	-43.3	17.5	6.04e-01	0	36	0	1465909248	53	4715
2026-01-18 06:29:19.96	85.51	27.49	-41.4	-43.4	17.5	6.04e-01	0	36	0	1480589312	53	4778
2026-01-18 06:29:20.97	85.09	27.64	-41.5	-43.4	17.4	6.06e-01	0	36	0	1497366528	53	4801
2026-01-18 06:29:21.97	84.67	27.79	-41.4	-43.3	17.5	6.04e-01	0	36	0	1512046592	53	4722
2026-01-18 06:29:22.98	84.24	27.94	-41.5	-43.4	17.4	6.04e-01	0	36	0	1528823808	53	4780
2026-01-18 06:29:23.99	83.81	28.09	-41.3	-43.2	17.6	6.02e-01	0	36	0	1543503872	53	4666
2026-01-18 06:29:25.00	83.37	28.23	-41.5	-43.4	17.5	6.03e-01	0	36	0	1558183936	53	4782
2026-01-18 06:29:26.00	82.94	28.38	-41.5	-43.4	17.4	6.04e-01	0	36	0	1574961152	53	4778
2026-01-18 06:29:27.01	82.49	28.52	-41.5	-43.4	17.5	6.03e-01	0	36	0	1589641216	53	4762
2026-01-18 06:29:28.02	82.04	28.67	-41.6	-43.5	17.3	6.03e-01	0	36	0	1604321280	53	4837
2026-01-18 06:29:29.03	81.58	28.81	-41.7	-43.7	17.2	6.01e-01	0	36	0	1621098496	53	4932
2026-01-18 06:29:30.04	81.13	28.96	-41.8	-43.8	17.2	6.06e-01	0	36	0	1635778560	54	4732
2026-01-18 06:29:31.05	80.66	29.10	-41.9	-43.8	17.1	6.05e-01	0	36	0	1650458624	54	4748
2026-01-18 06:29:32.05	80.20	29.24	-41.8	-43.8	17.2	6.03e-01	0	36	0	1665138688	54	4722
2026-01-18 06:29:33.06	79.72	29.38	-41.8	-43.7	17.2	6.01e-01	0	36	0	1684013056	54	4700
2026-01-18 06:29:34.07	79.25	29.52	-41.5	-43.4	17.4	6.03e-01	0	36	0	1698693120	54	4543
2026-01-18 06:29:35.08	78.77	29.65	-41.5	-43.5	17.3	6.05e-01	0	36	0	1713373184	54	4574
2026-01-18 06:29:36.09	78.28	29.79	-41.7	-43.7	17.3	6.04e-01	0	36	0	1730150400	54	4670
2026-01-18 06:29:37.09	77.79	29.92	-41.6	-43.6	17.4	6.05e-01	0	36	0	1744830464	54	4604
2026-01-18 06:29:38.10	77.30	30.06	-41.8	-43.8	17.2	6.04e-01	0	36	0	1759510528	54	4718
2026-01-18 06:29:39.11	76.80	30.19	-41.8	-43.8	17.2	6.04e-01	0	36	0	1774190592	54	4708
2026-01-18 06:29:40.12	76.29	30.32	-41.8	-43.7	17.3	6.02e-01	0	36	0	1790967808	54	4692
2026-01-18 06:29:41.13	75.79	30.45	-41.6	-43.4	17.5	6.04e-01	0	36	0	1805647872	54	4524
2026-01-18 06:29:42.13	75.28	30.57	-41.4	-43.2	17.6	6.05e-01	0	36	0	1820327936	54	4414
2026-01-18 06:29:43.14	74.76	30.70	-41.5	-43.3	17.6	6.03e-01	0	36	0	1837105152	54	4455
2026-01-18 06:29:44.15	74.24	30.82	-41.6	-43.5	17.4	6.04e-01	0	36	0	1851785216	54	4566
2026-01-18 06:29:45.16	73.71	30.94	-41.7	-43.7	17.3	6.05e-01	0	36	0	1866465280	54	4694
2026-01-18 06:29:46.16	73.19	31.06	-41.8	-43.9	17.1	6.03e-01	0	36	0	1883242496	54	4764
2026-01-18 06:29:47.17	72.65	31.18	-41.7	-43.8	17.2	6.05e-01	0	36	0	1900019712	54	4718
2026-01-18 06:29:48.18	72.12	31.29	-41.7	-43.7	17.2	5.99e-01	0	36	0	1914699776	54	4705
2026-01-18 06:29:49.19	71.57	31.40	-41.7	-43.8	17.2	6.03e-01	0	36	0	1929379840	54	4744
2026-01-18 06:29:50.20	71.03	31.51	-41.8	-43.9	17.1	6.04e-01	0	36	0	1946157056	54	4781
2026-01-18 06:29:51.21	70.48	31.62	-41.9	-43.9	17.1	6.05e-01	0	36	0	1960837120	54	4808
2026-01-18 06:29:52.21	69.93	31.73	-42.1	-44.1	17.0	6.03e-01	0	36	0	1975517184	54	4891
2026-01-18 06:29:53.22	69.37	31.83	-41.7	-43.8	17.2	6.03e-01	0	36	0	1992294400	54	4706
2026-01-18 06:29:54.23	68.81	31.93	-41.8	-43.9	17.1	6.03e-01	0	36	0	2006974464	54	4797
2026-01-18 06:29:55.24	68.24	32.03	-42.1	-44.3	16.8	6.02e-01	0	36	0	2021654528	54	5022
2026-01-18 06:29:56.24	67.68	32.13	-42.3	-44.5	16.6	6.04e-01	0	36	0	2038431744	55	4855
2026-01-18 06:29:57.25	67.11	32.22	-42.3	-44.4	16.7	6.03e-01	0	36	0	2053111808	55	4797
2026-01-18 06:29:58.26	66.53	32.31	-42.2	-44.3	16.9	6.03e-01	0	36	0	2069889024	55	4706
2026-01-18 06:29:59.27	65.95	32.40	-41.9	-44.0	17.1	6.03e-01	0	36	0	2084569088	55	4565
2026-01-18 06:30:00.28	65.37	32.48	-42.0	-44.1	17.0	6.02e-01	0	36	0	2101346304	55	4640
2026-01-18 06:30:01.29	64.78	32.56	-42.1	-44.4	16.8	6.05e-01	0	36	0	2116026368	55	4767
2026-01-18 06:30:02.29	64.20	32.64	-42.2	-44.5	16.7	6.03e-01	0	36	0	2130706432	55	4859
2026-01-18 06:30:03.30	63.60	32.72	-42.2	-44.6	16.6	5.99e-01	0	36	0	2147483648	55	4911
2026-01-18 06:30:04.31	63.01	32.79	-42.2	-44.6	16.6	6.03e-01	0	36	0	2162163712	55	4888
2026-01-18 06:30:05.31	62.42	32.86	-42.3	-44.6	16.5	6.04e-01	0	36	0	2176843776	55	4923
2026-01-18 06:30:06.32	61.81	32.93	-42.3	-44.7	16.5	6.04e-01	0	36	0	2193620992	55	4936
2026-01-18 06:30:07.33	61.21	32.99	-42.1	-44.5	16.7	6.04e-01	0	36	0	2208301056	55	4829
2026-01-18 06:30:08.34	60.60	33.05	-41.9	-44.3	16.9	6.04e-01	0	36	0	2222981120	55	4732
2026-01-18 06:30:09.35	60.00	33.11	-42.1	-44.5	16.7	6.03e-01	0	36	0	2239758336	55	4818
2026-01-18 06:30:10.35	59.39	33.16	-42.3	-44.7	16.5	6.03e-01	0	36	0	2254438400	55	4983
2026-01-18 06:30:11.36	58.78	33.21	-42.2	-44.6	16.6	6.04e-01	0	36	0	2271215616	55	4881
2026-01-18 06:30:12.37	58.16	33.26	-42.0	-44.3	16.8	6.04e-01	0	36	0	2285895680	55	4714
2026-01-18 06:30:13.38	57.55	33.30	-41.9	-44.1	17.0	6.04e-01	0	36	0	2302672896	55	4625
2026-01-18 06:30:14.38	56.94	33.34	-41.9	-44.1	16.9	6.05e-01	0	36	0	2317352960	55	4649
2026-01-18 06:30:15.39	56.32	33.38	-42.0	-44.3	16.8	6.04e-01	0	36	0	2332033024	55	4738
2026-01-18 06:30:16.40	55.70	33.41	-42.1	-44.5	16.7	6.07e-01	0	36	0	2348810240	55	4838
2026-01-18 06:30:17.41	55.07	33.44	-42.0	-44.3	16.8	6.05e-01	0	36	0	2363490304	55	4752
2026-01-18 06:30:18.42	54.45	33.47	-41.9	-44.1	17.0	6.06e-01	0	36	0	2378170368	55	4633
2026-01-18 06:30:19.42	53.83	33.49	-41.9	-44.2	16.9	6.05e-01	0	36	0	2394947584	55	4704
2026-01-18 06:30:20.43	53.21	33.51	-42.0	-44.3	16.8	6.04e-01	0	36	0	2409627648	55	4742
2026-01-18 06:30:21.44	52.58	33.53	-42.0	-44.3	16.9	6.03e-01	0	36	0	2424307712	55	4732
2026-01-18 06:30:22.45	51.95	33.54	-42.1	-44.4	16.7	6.04e-01	0	36	0	2441084928	55	4812
2026-01-18 06:30:23.46	51.33	33.54	-42.2	-44.6	16.6	6.04e-01	0	36	0	2455764992	55	4874
2026-01-18 06:30:24.46	50.71	33.55	-42.0	-44.2	16.9	6.03e-01	0	36	0	2472542208	55	4699
2026-01-18 06:30:25.47	50.08	33.55	-42.0	-44.2	17.0	6.04e-01	0	36	0	2487222272	55	4661
2026-01-18 06:30:26.48	49.45	33.55	-41.9	-44.1	17.1	6.04e-01	0	36	0	2503999488	55	4603
2026-01-18 06:30:27.49	48.83	33.54	-42.1	-44.4	16.8	6.04e-01	0	36	0	2518679552	55	4760
2026-01-18 06:30:28.50	48.20	33.53	-42.3	-44.7	16.6	6.04e-01	0	36	0	2533359616	55	4946
2026-01-18 06:30:29.51	47.57	33.51	-42.2	-44.6	16.6	6.05e-01	0	36	0	2550136832	55	4917
2026-01-18 06:30:30.52	46.95	33.50	-42.3	-44.7	16.6	6.04e-01	0	36	0	2564816896	55	4934
2026-01-18 06:30:31.53	46.32	33.48	-42.2	-44.5	16.7	6.06e-01	0	36	0	2579496960	55	4835
2026-01-18 06:30:32.54	45.70	33.45	-42.1	-44.5	16.7	6.05e-01	0	36	0	2596274176	55	4823
2026-01-18 06:30:33.54	45.08	33.42	-42.2	-44.6	16.5	6.05e-01	0	36	0	2610954240	55	4915
2026-01-18 06:30:34.55	44.46	33.39	-42.3	-44.7	16.5	6.04e-01	0	36	0	2625634304	55	4943
2026-01-18 06:30:35.56	43.84	33.36	-42.3	-44.7	16.5	6.04e-01	0	36	0	2642411520	55	4950
2026-01-18 06:30:36.56	43.23	33.32	-42.3	-44.8	16.4	6.05e-01	0	36	0	2659188736	55	5021
2026-01-18 06:30:37.57	42.61	33.27	-42.5	-44.9	16.4	6.04e-01	0	36	0	2673868800	55	5086
2026-01-18 06:30:38.58	42.00	33.23	-42.4	-44.8	16.5	6.04e-01	0	36	0	2688548864	55	4992
2026-01-18 06:30:39.59	41.39	33.18	-42.3	-44.7	16.6	6.03e-01	0	36	0	2705326080	55	4952
2026-01-18 06:30:40.59	40.78	33.13	-42.4	-44.9	16.4	6.03e-01	0	36	0	2720006144	55	5042
2026-01-18 06:30:41.60	40.17	33.07	-42.6	-45.2	16.2	6.03e-01	0	36	0	2734686208	55	5219
2026-01-18 06:30:42.61	39.57	33.01	-42.5	-45.0	16.2	6.03e-01	0	36	0	2751463424	55	5142
2026-01-18 06:30:43.62	38.96	32.95	-42.4	-44.8	16.4	6.04e-01	0	36	0	2766143488	55	5031
2026-01-18 06:30:44.63	38.36	32.88	-42.4	-44.8	16.4	6.04e-01	0	36	0	2780823552	55	5009
2026-01-18 06:30:45.63	37.77	32.81	-42.4	-44.8	16.4	6.03e-01	0	36	0	2797600768	55	5021
2026-01-18 06:30:46.64	37.17	32.74	-42.6	-45.1	16.2	6.06e-01	0	36	0	2812280832	55	5168
2026-01-18 06:30:47.65	36.58	32.67	-42.7	-45.0	16.2	6.04e-01	0	36	0	2826960896	55	5157
2026-01-18 06:30:48.66	35.99	32.59	-42.7	-44.9	16.2	6.04e-01	0	36	0	2843738112	56	4762
2026-01-18 06:30:49.66	35.41	32.51	-42.5	-44.6	16.4	6.04e-01	0	36	0	2860515328	56	4621
2026-01-18 06:30:50.67	34.83	32.42	-42.3	-44.3	16.7	6.04e-01	0	36	0	2875195392	56	4470
2026-01-18 06:30:51.68	34.25	32.34	-42.4	-44.4	16.6	6.04e-01	0	36	0	2889875456	56	4520
2026-01-18 06:30:52.69	33.67	32.25	-42.5	-44.7	16.4	6.03e-01	0	36	0	2906652672	56	4664
2026-01-18 06:30:53.70	33.10	32.16	-42.6	-44.8	16.3	6.02e-01	0	36	0	2921332736	56	4732
2026-01-18 06:30:54.70	32.53	32.06	-42.6	-44.9	16.2	6.03e-01	0	36	0	2936012800	56	4809
2026-01-18 06:30:55.71	31.97	31.96	-42.6	-44.9	16.3	6.03e-01	0	36	0	2952790016	56	4782
2026-01-18 06:30:56.72	31.41	31.86	-42.7	-45.0	16.2	6.02e-01	0	36	0	2967470080	56	4817
2026-01-18 06:30:57.73	30.85	31.76	-42.6	-44.9	16.3	6.01e-01	0	36	0	2982150144	56	4783
2026-01-18 06:30:58.74	30.29	31.66	-42.7	-44.8	16.2	6.04e-01	0	36	0	2996830208	56	4759
2026-01-18 06:30:59.74	29.75	31.55	-42.4	-44.5	16.5	6.03e-01	0	36	0	3013607424	56	4578
2026-01-18 06:31:00.75	29.20	31.44	-42.4	-44.5	16.5	6.04e-01	0	36	0	3028287488	56	4565
2026-01-18 06:31:01.76	28.66	31.33	-42.4	-44.4	16.6	6.02e-01	0	36	0	3045064704	56	4543
2026-01-18 06:31:02.77	28.12	31.21	-42.4	-44.4	16.6	6.03e-01	0	36	0	3061841920	56	4537
2026-01-18 06:31:03.78	27.59	31.10	-42.5	-44.5	16.5	6.05e-01	0	36	0	3076521984	56	4574
2026-01-18 06:31:04.79	27.06	30.98	-42.6	-44.7	16.4	6.05e-01	0	36	0	3091202048	56	4686
2026-01-18 06:31:05.79	26.54	30.86	-42.6	-44.8	16.3	6.04e-01	0	36	0	3105882112	56	4729
2026-01-18 06:31:06.80	26.01	30.74	-42.7	-44.8	16.2	6.04e-01	0	36	0	3122659328	56	4736
2026-01-18 06:31:07.81	25.50	30.62	-42.7	-44.8	16.2	6.05e-01	0	36	0	3137339392	56	4732
2026-01-18 06:31:08.82	24.98	30.49	-42.4	-44.6	16.5	6.03e-01	0	36	0	3152019456	56	4635
2026-01-18 06:31:09.82	24.48	30.36	-42.3	-44.4	16.6	6.03e-01	0	36	0	3168796672	56	4515
2026-01-18 06:31:10.83	23.98	30.23	-42.4	-44.5	16.5	6.03e-01	0	36	0	3183476736	56	4577
2026-01-18 06:31:11.84	23.48	30.10	-42.4	-44.5	16.5	6.04e-01	0	36	0	3198156800	56	4583
2026-01-18 06:31:12.84	22.99	29.97	-42.5	-44.5	16.5	6.02e-01	0	36	0	3214934016	56	4597
2026-01-18 06:31:13.85	22.49	29.84	-42.5	-44.4	16.6	6.04e-01	0	36	0	3229614080	56	4520
2026-01-18 06:31:14.86	22.01	29.70	-42.5	-44.4	16.6	6.03e-01	0	36	0	3246391296	56	4543
2026-01-18 06:31:15.87	21.53	29.57	-42.6	-44.5	16.5	6.03e-01	0	36	0	3261071360	56	4586
2026-01-18 06:31:16.88	21.05	29.43	-42.6	-44.6	16.5	6.03e-01	0	36	0	3277848576	56	4602
2026-01-18 06:31:17.88	20.58	29.29	-42.5	-44.5	16.6	6.04e-01	0	36	0	3292528640	56	4549
2026-01-18 06:31:18.89	20.11	29.15	-42.5	-44.6	16.5	6.05e-01	0	36	0	3307208704	56	4618
2026-01-18 06:31:19.90	19.65	29.01	-42.5	-44.5	16.4	6.03e-01	0	36	0	3323985920	56	4586
2026-01-18 06:31:20.91	19.19	28.87	-42.4	-44.5	16.6	6.03e-01	0	36	0	3338665984	56	4547
2026-01-18 06:31:21.92	18.73	28.72	-42.6	-44.5	16.5	6.02e-01	0	36	0	3353346048	56	4594
2026-01-18 06:31:22.93	18.28	28.58	-42.6	-44.4	16.6	6.04e-01	0	36	0	3370123264	56	4532
2026-01-18 06:31:23.93	17.84	28.44	-42.6	-44.5	16.6	6.03e-01	0	36	0	3384803328	56	4546
2026-01-18 06:31:24.94	17.40	28.29	-42.6	-44.4	16.5	6.04e-01	0	36	0	3399483392	56	4529
2026-01-18 06:31:25.95	16.96	28.14	-42.6	-44.5	16.6	6.02e-01	0	36	0	3416260608	56	4555
2026-01-18 06:31:26.96	16.53	28.00	-42.5	-44.5	16.5	6.05e-01	0	36	0	3430940672	56	4575
2026-01-18 06:31:27.96	16.10	27.85	-42.5	-44.6	16.4	6.05e-01	0	36	0	3447717888	56	4623
2026-01-18 06:31:28.97	15.68	27.70	-42.6	-44.7	16.3	6.05e-01	0	36	0	3462397952	56	4667
2026-01-18 06:31:29.98	15.26	27.55	-42.5	-44.6	16.4	6.04e-01	0	36	0	3479175168	56	4633
2026-01-18 06:31:30.99	14.84	27.40	-42.4	-44.5	16.5	6.01e-01	0	36	0	3493855232	56	4560
2026-01-18 06:31:31.99	14.43	27.25	-42.3	-44.3	16.6	6.01e-01	0	36	0	3508535296	56	4475
2026-01-18 06:31:33.00	14.03	27.10	-42.4	-44.4	16.6	6.05e-01	0	36	0	3525312512	56	4497
2026-01-18 06:31:34.01	13.62	26.95	-42.4	-44.3	16.7	6.01e-01	0	36	0	3539992576	56	4481
2026-01-18 06:31:35.02	13.23	26.80	-42.3	-44.3	16.6	6.03e-01	0	36	0	3554672640	56	4474
2026-01-18 06:31:36.02	12.84	26.65	-42.4	-44.4	16.5	6.04e-01	0	36	0	3571449856	56	4539
2026-01-18 06:31:37.03	12.45	26.49	-42.4	-44.5	16.5	6.05e-01	0	36	0	3586129920	56	4562
2026-01-18 06:31:38.04	12.06	26.34	-42.3	-44.3	16.6	6.05e-01	0	36	0	3600809984	56	4488
2026-01-18 06:31:39.05	11.68	26.19	-42.3	-44.3	16.6	6.03e-01	0	36	0	3617587200	56	4464
2026-01-18 06:31:40.06	11.30	26.03	-42.3	-44.3	16.7	6.03e-01	0	36	0	3632267264	56	4453
2026-01-18 06:31:41.07	10.93	25.88	-42.3	-44.2	16.7	6.04e-01	0	36	0	3649044480	56	4434
2026-01-18 06:31:42.07	10.56	25.73	-42.1	-44.1	16.9	6.06e-01	0	36	0	3663724544	56	4343
2026-01-18 06:31:43.08	10.19	25.57	-42.2	-44.1	16.8	6.02e-01	0	36	0	3680501760	56	4367
2026-01-18 06:31:44.09	9.83	25.42	-42.1	-44.1	16.8	6.04e-01	0	36	0	3695181824	56	4342
2026-01-18 06:31:45.10	9.47	25.27	-42.2	-44.2	16.7	6.05e-01	0	36	0	3709861888	56	4430
2026-01-18 06:31:46.11	9.12	25.11	-42.3	-44.3	16.6	6.06e-01	0	36	0	3726639104	56	4473
2026-01-18 06:31:47.11	8.77	24.96	-42.3	-44.4	16.6	6.05e-01	0	36	0	3741319168	56	4496
2026-01-18 06:31:48.12	8.43	24.81	-42.1	-44.2	16.7	6.05e-01	0	36	0	3755999232	56	4404
2026-01-18 06:31:49.13	8.08	24.65	-42.1	-44.1	16.8	6.00e-01	0	36	0	3772776448	56	4368
2026-01-18 06:31:50.14	7.75	24.50	-42.1	-44.0	16.8	6.04e-01	0	36	0	3787456512	56	4325
2026-01-18 06:31:51.14	7.41	24.35	-42.0	-44.0	17.0	6.05e-01	0	36	0	3802136576	55	4551
2026-01-18 06:31:52.15	7.08	24.19	-42.0	-43.9	17.0	6.04e-01	0	36	0	3818913792	55	4541
2026-01-18 06:31:53.16	6.75	24.04	-42.1	-44.0	17.0	6.04e-01	0	36	0	3835691008	55	4579
2026-01-18 06:31:54.17	6.43	23.89	-42.0	-43.9	17.0	6.04e-01	0	36	0	3850371072	55	4523
2026-01-18 06:31:55.18	6.11	23.73	-42.1	-44.1	16.9	6.05e-01	0	36	0	3865051136	55	4632
2026-01-18 06:31:56.19	5.79	23.58	-42.1	-44.1	16.9	6.05e-01	0	36	0	3881828352	55	4642
2026-01-18 06:31:57.20	5.48	23.43	-42.1	-44.1	16.9	6.04e-01	0	36	0	3896508416	55	4647
2026-01-18 06:31:58.20	5.17	23.28	-42.2	-44.2	16.8	6.05e-01	0	36	0	3911188480	55	4689
2026-01-18 06:31:59.21	4.86	23.13	-42.0	-44.1	16.9	6.04e-01	0	36	0	3927965696	55	4602
2026-01-18 06:32:00.22	4.56	22.97	-42.0	-44.0	17.0	6.04e-01	0	36	0	3942645760	55	4563
2026-01-18 06:32:01.23	4.26	22.82	-42.0	-44.0	17.0	6.01e-01	0	36	0	3957325824	55	4579
2026-01-18 06:32:02.24	3.96	22.67	-42.0	-44.0	17.0	6.02e-01	0	36	0	3974103040	55	4598
2026-01-18 06:32:03.24	3.67	22.52	-42.0	-44.0	16.9	6.04e-01	0	36	0	3988783104	55	4582
2026-01-18 06:32:04.25	3.38	22.37	-42.1	-44.1	16.9	6.00e-01	0	36	0	4003463168	55	4636
2026-01-18 06:32:05.26	3.10	22.22	-42.1	-44.2	16.8	6.05e-01	0	36	0	4020240384	55	4669
2026-01-18 06:32:06.27	2.81	22.07	-42.1	-44.2	16.8	6.04e-01	0	36	0	4037017600	55	4698
2026-01-18 06:32:07.28	2.53	21.93	-42.3	-44.4	16.7	6.03e-01	0	36	0	4051697664	55	4776
2026-01-18 06:32:08.29	2.25	21.78	-42.2	-44.3	16.8	6.01e-01	0	36	0	4066377728	55	4710
2026-01-18 06:32:09.29	1.98	21.63	-42.2	-44.3	16.8	6.02e-01	0	36	0	4083154944	55	4740
2026-01-18 06:32:10.30	1.71	21.48	-42.3	-44.4	16.6	6.01e-01	0	36	0	4097835008	55	4795
2026-01-18 06:32:11.31	1.44	21.34	-42.3	-44.5	16.6	6.02e-01	0	36	0	4112515072	55	4821
2026-01-18 06:32:12.32	1.17	21.19	-42.3	-44.4	16.6	6.05e-01	0	36	0	4129292288	55	4811
2026-01-18 06:32:13.32	0.91	21.04	-42.3	-44.4	16.6	6.05e-01	0	36	0	4143972352	55	4805
2026-01-18 06:32:14.33	0.65	20.90	-42.4	-44.5	16.5	6.05e-01	0	36	0	4158652416	55	4827
2026-01-18 06:32:15.34	0.40	20.75	-42.4	-44.5	16.5	6.04e-01	0	36	0	4175429632	55	4829
2026-01-18 06:32:16.35	0.14	20.61	-42.3	-44.4	16.6	6.04e-01	0	36	0	4190109696	55	4811
2026-01-18 06:32:17.36	359.89	20.47	-42.2	-44.4	16.6	6.06e-01	0	36	0	4204789760	55	4763
2026-01-18 06:32:18.37	359.64	20.32	-42.3	-44.4	16.6	6.06e-01	0	36	0	4221566976	55	4802
2026-01-18 06:32:19.37	359.40	20.18	-42.2	-44.4	16.6	6.06e-01	0	36	0	4238344192	55	4781
2026-01-18 06:32:20.38	359.15	20.04	-42.2	-44.4	16.6	6.07e-01	0	36	0	4253024256	55	4799
2026-01-18 06:32:21.39	358.91	19.90	-42.3	-44.5	16.5	6.05e-01	0	36	0	4267704320	55	4850
2026-01-18 06:32:22.39	358.67	19.76	-42.3	-44.6	16.5	6.04e-01	0	36	0	4284481536	55	4898
2026-01-18 06:32:23.40	358.44	19.61	-42.3	-44.6	16.5	6.05e-01	0	36	0	4299161600	55	4886
2026-01-18 06:32:24.41	358.20	19.47	-42.3	-44.5	16.5	6.05e-01	0	36	0	4313841664	55	4854
2026-01-18 06:32:25.42	357.97	19.33	-42.4	-44.7	16.4	6.05e-01	0	36	0	4328521728	55	4932
2026-01-18 06:32:26.42	357.75	19.20	-42.4	-44.6	16.4	6.06e-01	0	36	0	4345298944	55	4925
2026-01-18 06:32:27.43	357.52	19.06	-42.4	-44.6	16.4	6.06e-01	0	36	0	4359979008	55	4883
2026-01-18 06:32:28.44	357.30	18.92	-42.4	-44.6	16.4	6.05e-01	0	36	0	4374659072	55	4894
2026-01-18 06:32:29.45	357.07	18.78	-42.3	-44.5	16.5	6.05e-01	0	36	0	4391436288	55	4842
2026-01-18 06:32:30.46	356.86	18.65	-42.5	-44.6	16.4	6.04e-01	0	36	0	4406116352	55	4914
2026-01-18 06:32:31.47	356.64	18.51	-42.6	-44.7	16.4	6.05e-01	0	36	0	4422893568	55	4958
2026-01-18 06:32:32.47	356.43	18.38	-42.6	-44.7	16.3	6.05e-01	0	36	0	4437573632	55	4972
2026-01-18 06:32:33.48	356.21	18.24	-42.6	-44.7	16.3	6.05e-01	0	36	0	4454350848	55	4983
2026-01-18 06:32:34.49	356.00	18.11	-42.5	-44.7	16.3	6.06e-01	0	36	0	4469030912	55	4951
2026-01-18 06:32:35.50	355.80	17.97	-42.6	-44.8	16.2	6.04e-01	0	36	0	4483710976	55	5000
2026-01-18 06:32:36.51	355.59	17.84	-42.6	-44.7	16.1	6.03e-01	0	36	0	4500488192	56	4696
2026-01-18 06:32:37.51	355.39	17.71	-42.5	-44.7	16.1	6.06e-01	0	36	0	4515168256	56	4690
2026-01-18 06:32:38.52	355.19	17.57	-42.5	-44.7	16.2	6.00e-01	0	36	0	4529848320	56	4682
2026-01-18 06:32:39.53	354.99	17.44	-42.6	-44.8	16.1	6.00e-01	0	36	0	4546625536	56	4740
2026-01-18 06:32:40.54	354.79	17.31	-42.6	-44.8	16.1	5.99e-01	0	36	0	4561305600	56	4741
2026-01-18 06:32:41.55	354.59	17.18	-42.7	-44.9	16.0	5.80e-01	0	36	0	4575985664	56	4798
2026-01-18 06:32:42.55	354.40	17.05	-42.7	-44.9	16.1	5.78e-01	0	36	0	4592762880	56	4781
2026-01-18 06:32:43.56	354.21	16.92	-42.7	-44.9	16.1	5.80e-01	0	36	0	4609540096	56	4782
2026-01-18 06:32:44.57	354.02	16.79	-42.7	-44.9	16.1	5.80e-01	0	36	0	4624220160	56	4792
2026-01-18 06:32:45.58	353.83	16.67	-42.8	-45.0	16.0	5.80e-01	0	36	0	4638900224	56	4836
2026-01-18 06:32:46.58	353.65	16.54	-42.8	-45.0	16.0	5.79e-01	0	36	0	4655677440	56	4842
2026-01-18 06:32:47.59	353.46	16.41	-42.9	-45.2	15.8	5.80e-01	0	36	0	4670357504	56	4929
2026-01-18 06:32:48.60	353.28	16.29	-42.8	-45.1	15.9	5.79e-01	0	36	0	4685037568	56	4874
2026-01-18 06:32:49.60	353.10	16.16	-42.9	-45.2	15.8	5.79e-01	0	36	0	4701814784	56	4933
2026-01-18 06:32:50.61	352.93	16.04	-43.1	-45.4	15.6	5.80e-01	0	36	0	4716494848	56	5043
2026-01-18 06:32:51.62	352.75	15.91	-44.5	-45.4	15.7	5.80e-01	0	36	0	4731174912	59	4284
2026-01-18 06:32:52.63	352.57	15.79	-44.5	-45.5	15.6	5.80e-01	0	36	0	4747952128	59	4327
2026-01-18 06:32:53.64	352.40	15.67	-53.9	-62.9	3.8	7.44e-01	0	36	104	4752146432	78	10667
2026-01-18 06:32:54.64	352.23	15.54	-53.9	-62.8	3.8	7.46e-01	0	36	104	4752146432	78	10599
2026-01-18 06:32:55.65	352.06	15.42	-53.9	-62.8	3.8	7.46e-01	0	36	104	4752146432	78	10560
2026-01-18 06:32:56.66	351.89	15.30	-53.9	-62.8	3.8	7.46e-01	0	36	104	4752146432	78	10549
2026-01-18 06:32:57.67	351.73	15.18	-53.9	-62.7	3.8	7.43e-01	0	36	104	4752146432	78	10493
2026-01-18 06:32:58.68	351.56	15.06	-53.9	-62.7	3.8	7.46e-01	0	36	104	4752146432	78	10507
2026-01-18 06:32:59.68	351.40	14.94	-53.9	-62.7	3.8	7.45e-01	0	36	104	4752146432	78	10521
2026-01-18 06:33:00.69	351.24	14.82	-53.9	-62.7	3.8	7.46e-01	0	36	104	4752146432	78	10503
2026-01-18 06:33:01.70	351.08	14.70	-53.9	-62.7	3.8	7.44e-01	0	36	104	4752146432	78	10491
2026-01-18 06:33:02.71	350.92	14.58	-53.9	-62.7	3.8	7.46e-01	0	36	104	4752146432	78	10446
2026-01-18 06:33:03.72	350.76	14.47	-53.9	-62.7	3.8	7.45e-01	0	36	104	4752146432	78	10500
2026-01-18 06:33:04.73	350.61	14.35	-53.9	-62.7	3.8	7.44e-01	0	36	104	4752146432	78	10486
2026-01-18 06:33:05.74	350.45	14.23	-53.8	-62.7	3.8	7.46e-01	0	36	104	4752146432	78	10443
2026-01-18 06:33:06.74	350.30	14.12	-53.9	-62.7	3.8	7.46e-01	0	36	104	4752146432	78	10467
2026-01-18 06:33:07.75	350.15	14.00	-53.9	-62.7	3.8	7.45e-01	0	36	104	4752146432	78	10473
2026-01-18 06:33:08.76	350.00	13.89	-53.8	-62.7	3.8	7.44e-01	0	36	104	4752146432	78	10416
2026-01-18 06:33:09.77	349.85	13.77	-53.8	-62.7	3.8	7.45e-01	0	36	104	4752146432	78	10443
2026-01-18 06:33:10.77	349.71	13.66	-53.8	-62.7	3.8	7.46e-01	0	36	104	4752146432	78	10435
2026-01-18 06:33:11.78	349.56	13.55	-53.8	-62.7	3.8	7.46e-01	0	36	104	4752146432	78	10422
2026-01-18 06:33:12.79	349.42	13.43	-53.8	-62.6	3.8	7.45e-01	0	36	104	4752146432	78	10351
2026-01-18 06:33:13.80	349.28	13.32	-53.8	-62.6	3.8	7.45e-01	0	36	104	4752146432	78	10359
2026-01-18 06:33:14.80	349.14	13.21	-53.8	-62.7	3.8	7.46e-01	0	36	104	4752146432	78	10416
2026-01-18 06:33:15.81	348.99	13.10	-53.8	-62.7	3.8	7.47e-01	0	36	104	4752146432	78	10420
2026-01-18 06:33:16.82	348.86	12.99	-53.7	-62.6	3.8	7.45e-01	0	36	104	4752146432	78	10306
2026-01-18 06:33:17.83	348.72	12.88	-53.7	-62.5	3.8	7.46e-01	0	36	104	4752146432	78	10285
2026-01-18 06:33:18.84	348.58	12.77	-53.8	-62.6	3.8	7.45e-01	0	36	104	4752146432	78	10346
2026-01-18 06:33:19.84	348.45	12.66	-53.8	-62.6	3.8	7.46e-01	0	36	104	4752146432	78	10347
2026-01-18 06:33:20.85	348.31	12.55	-53.7	-62.5	3.8	7.45e-01	0	36	104	4752146432	78	10252
2026-01-18 06:33:21.86	348.18	12.44	-53.7	-62.5	3.8	7.45e-01	0	36	104	4752146432	78	10266
2026-01-18 06:33:22.86	348.05	12.34	-53.7	-62.6	3.8	7.44e-01	0	36	104	4752146432	78	10315
2026-01-18 06:33:23.87	347.92	12.23	-53.7	-62.6	3.8	7.45e-01	0	36	104	4752146432	78	10316
2026-01-18 06:33:24.88	347.79	12.12	-53.7	-62.5	3.8	7.44e-01	0	36	104	4752146432	78	10243
2026-01-18 06:33:25.89	347.66	12.02	-53.7	-62.5	3.8	7.47e-01	0	36	104	4752146432	78	10231
2026-01-18 06:33:26.89	347.54	11.91	-53.7	-62.5	3.8	7.47e-01	0	36	104	4752146432	78	10276
2026-01-18 06:33:27.90	347.41	11.81	-53.7	-62.5	3.8	7.45e-01	0	36	104	4752146432	78	10260
2026-01-18 06:33:28.91	347.29	11.70	-53.6	-62.4	3.8	7.45e-01	0	36	104	4752146432	78	10152
2026-01-18 06:33:29.92	347.17	11.60	-53.6	-62.4	3.8	7.45e-01	0	36	104	4752146432	78	10163
2026-01-18 06:33:30.93	347.04	11.49	-53.7	-62.5	3.8	7.45e-01	0	36	104	4752146432	78	10209
2026-01-18 06:33:31.94	346.92	11.39	-53.7	-62.5	3.8	7.45e-01	0	36	104	4752146432	78	10281
2026-01-18 06:33:32.94	346.80	11.29	-53.6	-62.4	3.8	7.46e-01	0	36	104	4752146432	78	10155
2026-01-18 06:33:33.95	346.68	11.19	-53.6	-62.4	3.8	7.45e-01	0	36	104	4752146432	78	10132
2026-01-18 06:33:34.96	346.57	11.08	-53.6	-62.5	3.8	7.44e-01	0	36	104	4752146432	78	10181
2026-01-18 06:33:35.96	346.45	10.98	-53.6	-62.4	3.8	7.46e-01	0	36	104	4752146432	78	10156
2026-01-18 06:33:36.97	346.33	10.88	-53.6	-62.4	3.8	7.46e-01	0	36	104	4752146432	78	10140
2026-01-18 06:33:37.98	346.22	10.78	-53.6	-62.4	3.8	7.46e-01	0	36	104	4752146432	78	10096
2026-01-18 06:33:38.99	346.10	10.68	-53.6	-62.4	3.8	7.45e-01	0	36	104	4752146432	78	10161
2026-01-18 06:33:40.00	345.99	10.58	-53.6	-62.4	3.8	7.46e-01	0	36	104	4752146432	78	10164
2026-01-18 06:33:41.00	345.88	10.48	-53.5	-62.4	3.8	7.45e-01	0	36	104	4752146432	78	10088
2026-01-18 06:33:42.01	345.77	10.39	-53.5	-62.3	3.8	7.45e-01	0	36	104	4752146432	78	10059
2026-01-18 06:33:43.02	345.66	10.29	-53.6	-62.4	3.8	7.46e-01	0	36	104	4752146432	78	10139
2026-01-18 06:33:44.03	345.55	10.19	-53.6	-62.4	3.8	7.46e-01	0	36	104	4752146432	78	10148
2026-01-18 06:33:45.03	345.44	10.09	-53.5	-62.3	3.8	7.45e-01	0	36	104	4752146432	78	10059
2026-01-18 06:33:46.04	345.33	10.00	-53.5	-62.3	3.8	7.47e-01	0	36	104	4752146432	78	10051
2026-01-18 06:33:47.05	345.23	9.90	-53.5	-62.4	3.8	7.45e-01	0	36	104	4752146432	78	10099
2026-01-18 06:33:48.06	345.12	9.80	-53.5	-62.4	3.8	7.44e-01	0	36	104	4752146432	78	10100
2026-01-18 06:33:49.06	345.02	9.71	-53.5	-62.3	3.8	7.44e-01	0	36	104	4752146432	78	10020
2026-01-18 06:33:50.07	344.92	9.61	-53.5	-62.3	3.8	7.45e-01	0	36	104	4752146432	78	10055
2026-01-18 06:33:51.08	344.81	9.52	-53.5	-62.3	3.8	7.46e-01	0	36	104	4752146432	78	10043
2026-01-18 06:33:52.09	344.71	9.42	-53.5	-62.4	3.8	7.46e-01	0	36	104	4752146432	78	10080
2026-01-18 06:33:53.09	344.61	9.33	-53.4	-62.2	3.8	7.45e-01	0	36	104	4752146432	78	9940
2026-01-18 06:33:54.10	344.51	9.24	-53.4	-62.3	3.8	7.44e-01	0	36	104	4752146432	78	9945
2026-01-18 06:33:55.11	344.41	9.14	-53.5	-62.3	3.8	7.47e-01	0	36	104	4752146432	78	10048
2026-01-18 06:33:56.12	344.31	9.05	-53.5	-62.3	3.8	7.45e-01	0	36	104	4752146432	78	10041
2026-01-18 06:33:57.13	344.21	8.96	-53.4	-62.3	3.8	7.45e-01	0	36	104	4752146432	78	9949
2026-01-18 06:33:58.13	344.12	8.87	-53.4	-62.3	3.8	7.46e-01	0	36	104	4752146432	78	9967
2026-01-18 06:33:59.14	344.02	8.77	-53.5	-62.3	3.8	7.46e-01	0	36	104	4752146432	78	10003
2026-01-18 06:34:00.14	343.93	8.68	-53.5	-62.3	3.8	7.46e-01	0	36	104	4752146432	78	9995
2026-01-18 06:34:01.15	343.83	8.59	-53.4	-62.3	3.8	7.45e-01	0	36	104	4752146432	78	9959
2026-01-18 06:34:02.16	343.74	8.50	-53.4	-62.2	3.8	7.44e-01	0	36	104	4752146432	78	9931
2026-01-18 06:34:03.16	343.64	8.41	-53.4	-62.3	3.8	7.44e-01	0	36	104	4752146432	78	10005
2026-01-18 06:34:04.17	343.55	8.32	-53.4	-62.3	3.8	7.48e-01	0	36	104	4752146432	78	9960
2026-01-18 06:34:05.18	343.46	8.23	-53.4	-62.2	3.8	7.45e-01	0	36	104	4752146432	78	9886
2026-01-18 06:34:06.19	343.37	8.14	-53.4	-62.2	3.8	7.44e-01	0	36	104	4752146432	78	9900
2026-01-18 06:34:07.19	343.28	8.06	-53.4	-62.2	3.8	7.46e-01	0	36	104	4752146432	78	9942
2026-01-18 06:34:08.20	343.19	7.97	-53.4	-62.2	3.8	7.46e-01	0	36	104	4752146432	78	9923
2026-01-18 06:34:09.21	343.10	7.88	-53.3	-62.2	3.8	7.44e-01	0	36	104	4752146432	78	9852
2026-01-18 06:34:10.21	343.01	7.79	-53.3	-62.2	3.8	7.45e-01	0	36	104	4752146432	78	9863
2026-01-18 06:34:11.22	342.92	7.71	-53.4	-62.2	3.8	7.46e-01	0	36	104	4752146432	78	9902
2026-01-18 06:34:12.23	342.84	7.62	-53.4	-62.2	3.8	7.45e-01	0	36	104	4752146432	78	9903
2026-01-18 06:34:13.24	342.75	7.53	-53.3	-62.1	3.8	7.45e-01	0	36	104	4752146432	78	9789
2026-01-18 06:34:14.24	342.67	7.45	-53.3	-62.1	3.8	7.45e-01	0	36	104	4752146432	78	9805
2026-01-18 06:34:15.25	342.58	7.36	-53.3	-62.2	3.8	7.45e-01	0	36	104	4752146432	78	9870
2026-01-18 06:34:16.26	342.50	7.27	-53.3	-62.2	3.8	7.46e-01	0	36	104	4752146432	78	9854
2026-01-18 06:34:17.27	342.41	7.19	-53.2	-62.1	3.8	7.46e-01	0	36	104	4752146432	78	9745
2026-01-18 06:34:18.28	342.33	7.10	-53.3	-62.1	3.8	7.46e-01	0	36	104	4752146432	78	9785
2026-01-18 06:34:19.28	342.25	7.02	-53.3	-62.2	3.8	7.45e-01	0	36	104	4752146432	78	9833
2026-01-18 06:34:20.29	342.17	6.94	-53.3	-62.1	3.8	7.45e-01	0	36	104	4752146432	78	9817
2026-01-18 06:34:21.30	342.09	6.85	-53.2	-62.0	3.8	7.43e-01	0	36	104	4752146432	78	9671
2026-01-18 06:34:22.31	342.01	6.77	-53.2	-62.0	3.8	7.45e-01	0	36	104	4752146432	78	9686
2026-01-18 06:34:23.31	341.93	6.68	-53.3	-62.1	3.8	7.45e-01	0	36	104	4752146432	78	9796
2026-01-18 06:34:24.32	341.85	6.60	-53.2	-62.1	3.8	7.47e-01	0	36	104	4752146432	78	9745
2026-01-18 06:34:25.33	341.77	6.52	-53.1	-62.0	3.8	7.45e-01	0	36	104	4752146432	78	9634
2026-01-18 06:34:26.34	341.69	6.44	-53.1	-62.0	3.8	7.45e-01	0	36	104	4752146432	78	9639
2026-01-18 06:34:27.35	341.61	6.35	-53.2	-62.1	3.8	7.45e-01	0	36	104	4752146432	78	9764
2026-01-18 06:34:28.35	341.54	6.27	-53.2	-62.0	3.8	7.45e-01	0	36	104	4752146432	78	9700
2026-01-18 06:34:29.36	341.46	6.19	-53.1	-61.9	3.8	7.45e-01	0	36	104	4752146432	78	9549
2026-01-18 06:34:30.37	341.38	6.11	-53.1	-61.9	3.8	7.45e-01	0	36	104	4752146432	78	9606
2026-01-18 06:34:31.38	341.31	6.03	-53.2	-62.0	3.8	7.44e-01	0	36	104	4752146432	78	9684
2026-01-18 06:34:32.38	341.23	5.95	-53.1	-62.0	3.8	7.44e-01	0	36	104	4752146432	78	9629
2026-01-18 06:34:33.39	341.16	5.87	-53.0	-61.8	3.8	7.45e-01	0	36	104	4752146432	78	9484
2026-01-18 06:34:34.40	341.09	5.79	-53.1	-61.9	3.8	7.46e-01	0	36	104	4752146432	78	9539
2026-01-18 06:34:35.41	341.01	5.71	-53.1	-61.9	3.8	7.46e-01	0	36	104	4752146432	78	9593
2026-01-18 06:34:36.41	340.94	5.63	-53.1	-61.9	3.8	7.46e-01	0	36	104	4752146432	78	9547
2026-01-18 06:34:37.42	340.87	5.55	-52.9	-61.8	3.8	7.45e-01	0	36	104	4752146432	77	9952
2026-01-18 06:34:38.43	340.80	5.47	-53.0	-61.8	3.8	7.46e-01	0	36	104	4752146432	77	9998
2026-01-18 06:34:39.44	340.73	5.39	-53.1	-61.9	3.8	7.45e-01	0	36	104	4752146432	77	10100
2026-01-18 06:34:40.45	340.66	5.32	-53.0	-61.8	3.8	7.45e-01	0	36	104	4752146432	77	9999
2026-01-18 06:34:41.46	340.59	5.24	-52.8	-61.7	3.8	7.44e-01	0	36	104	4752146432	77	9848
2026-01-18 06:34:42.46	340.52	5.16	-52.9	-61.8	3.8	7.45e-01	0	36	104	4752146432	77	9978
2026-01-18 06:34:43.47	340.45	5.08	-53.0	-61.8	3.8	7.46e-01	0	36	104	4752146432	77	10014
2026-01-18 06:34:44.48	340.38	5.01	-53.1	-61.9	3.8	7.44e-01	0	36	104	4752146432	77	10081
2026-01-18 06:34:45.49	340.31	4.93	-53.4	-62.3	3.8	7.46e-01	0	36	104	4752146432	77	10575
2026-01-18 06:34:46.50	340.24	4.85	-53.7	-62.5	3.8	7.46e-01	0	36	104	4752146432	77	10828
2026-01-18 06:34:47.51	340.18	4.77	-53.9	-62.8	3.8	7.45e-01	0	36	104	4752146432	78	10560
2026-01-18 06:34:48.52	340.11	4.70	-54.1	-62.9	3.8	7.45e-01	0	36	104	4752146432	78	10675
2026-01-18 06:34:49.52	340.05	4.62	-54.2	-63.0	3.8	7.46e-01	0	36	104	4752146432	78	10869
2026-01-18 06:34:50.53	339.98	4.55	-54.3	-63.1	3.8	7.44e-01	0	36	104	4752146432	79	10406
2026-01-18 06:34:51.54	339.91	4.47	-54.4	-63.2	3.8	7.45e-01	0	36	104	4752146432	79	10493
2026-01-18 06:34:52.54	339.85	4.40	-54.5	-63.3	3.8	7.45e-01	0	36	104	4752146432	79	10629
2026-01-18 06:34:53.55	339.79	4.32	-54.6	-63.4	3.8	7.45e-01	0	36	104	4752146432	79	10740
2026-01-18 06:34:54.56	339.72	4.25	-54.6	-63.4	3.8	7.45e-01	0	36	104	4752146432	79	10741
2026-01-18 06:34:55.57	339.66	4.17	-54.6	-63.5	3.8	7.46e-01	0	36	104	4752146432	79	10844
2026-01-18 06:34:56.58	339.60	4.10	-54.7	-63.5	3.8	7.46e-01	0	36	104	4752146432	79	10860
2026-01-18 06:34:57.59	339.53	4.03	-54.7	-63.5	3.8	7.44e-01	0	36	104	4752146432	79	10881
2026-01-18 06:34:58.60	339.47	3.95	-54.7	-63.5	3.8	7.46e-01	0	36	104	4752146432	79	10902
2026-01-18 06:34:59.60	339.41	3.88	-54.7	-63.5	3.8	7.45e-01	0	36	104	4752146432	80	10282
2026-01-18 06:35:00.61	339.35	3.81	-54.7	-63.6	3.8	7.45e-01	0	36	104	4752146432	80	10366
2026-01-18 06:35:01.62	339.29	3.73	-54.7	-63.6	3.8	7.44e-01	0	36	104	4752146432	80	10352
2026-01-18 06:35:02.63	339.23	3.66	-54.7	-63.6	3.8	7.45e-01	0	36	104	4752146432	80	10381
2026-01-18 06:35:03.64	339.17	3.59	-54.8	-63.6	3.8	7.45e-01	0	36	104	4752146432	80	10393
2026-01-18 06:35:04.64	339.11	3.52	-54.8	-63.6	3.8	7.44e-01	0	36	104	4752146432	80	10383
2026-01-18 06:35:05.65	339.05	3.44	-54.8	-63.6	3.8	7.44e-01	0	36	104	4752146432	80	10386
2026-01-18 06:35:06.66	338.99	3.37	-54.8	-63.6	3.8	7.46e-01	0	36	104	4752146432	80	10408
2026-01-18 06:35:07.67	338.93	3.30	-54.8	-63.6	3.8	7.45e-01	0	36	104	4752146432	80	10362
2026-01-18 06:35:08.68	338.87	3.23	-54.7	-63.6	3.8	7.44e-01	0	36	104	4752146432	80	10294
2026-01-18 06:35:09.68	338.82	3.16	-54.7	-63.6	3.8	7.44e-01	0	36	104	4752146432	80	10334
2026-01-18 06:35:10.69	338.76	3.09	-54.7	-63.6	3.8	7.46e-01	0	36	104	4752146432	80	10317
2026-01-18 06:35:11.70	338.70	3.02	-54.7	-63.6	3.8	7.45e-01	0	36	104	4752146432	80	10350
2026-01-18 06:35:12.71	338.65	2.95	-54.7	-63.6	3.8	7.45e-01	0	36	104	4752146432	80	10374
2026-01-18 06:35:13.72	338.59	2.87	-54.7	-63.6	3.8	7.45e-01	0	36	104	4752146432	80	10315
2026-01-18 06:35:14.73	338.53	2.80	-54.7	-63.6	3.8	7.45e-01	0	36	104	4752146432	80	10298
2026-01-18 06:35:15.73	338.48	2.74	-54.7	-63.6	3.8	7.45e-01	0	36	104	4752146432	80	10328
2026-01-18 06:35:16.74	338.42	2.67	-54.7	-63.6	3.8	7.43e-01	0	36	104	4752146432	80	10329
2026-01-18 06:35:17.75	338.37	2.60	-54.7	-63.6	3.8	7.46e-01	0	36	104	4752146432	80	10320
2026-01-18 06:35:18.76	338.32	2.53	-54.7	-63.6	3.8	7.44e-01	0	36	104	4752146432	80	10310
2026-01-18 06:35:19.76	338.26	2.46	-54.7	-63.6	3.8	7.44e-01	0	36	104	4752146432	80	10334
2026-01-18 06:35:20.77	338.21	2.39	-54.7	-63.5	3.8	7.45e-01	0	36	104	4752146432	80	10279
2026-01-18 06:35:21.78	338.15	2.32	-54.7	-63.6	3.8	7.46e-01	0	36	104	4752146432	80	10343
2026-01-18 06:35:22.79	338.10	2.25	-54.7	-63.6	3.8	7.47e-01	0	36	104	4752146432	80	10301
2026-01-18 06:35:23.80	338.05	2.18	-54.7	-63.6	3.8	7.47e-01	0	36	104	4752146432	80	10312
2026-01-18 06:35:24.80	338.00	2.12	-54.7	-63.5	3.8	7.45e-01	0	36	104	4752146432	80	10253
2026-01-18 06:35:25.81	337.95	2.05	-54.7	-63.6	3.8	7.46e-01	0	36	104	4752146432	80	10304
2026-01-18 06:35:26.82	337.89	1.98	-54.7	-63.6	3.8	7.45e-01	0	36	104	4752146432	80	10309
2026-01-18 06:35:27.83	337.84	1.91	-54.7	-63.5	3.8	7.46e-01	0	36	104	4752146432	80	10268
2026-01-18 06:35:28.84	337.79	1.85	-54.7	-63.5	3.8	7.44e-01	0	36	104	4752146432	80	10281

#Closed at: 2026-01-18 06:35:28
#Recorded file [4752 MB]: D:/lorett/data/31041_260118_092526.dat