passes_logs/2026/01/18/R3.2S_Murmansk/R3.2S_Murmansk__20260118_133844_SUOMI_NPP_rec.log

#Pass ID: 20260118_133844_SUOMI NPP
#Satellite: SUOMI NPP
#Configuration: NPP
#almurnet v.1.7.20251203
#Start time: 2026-01-18 13:38:46

#Version: 2.2.20231116
#Station: R3.2S_Murmansk
#Location: 33.079688 lon 68.888172 lat
#TLE: 1 37849U 11061A   26017.57099531  .00000072  00000+0  54974-4 0  9996
#TLE: 2 37849  98.7814 319.5974 0002398  59.1749 300.9663 14.19525865737072

#Time	Az	El	Level	Level2	SNR	BER	BlckErr	Temp	State	Recorded	gain1	gain2
2026-01-18 13:38:46.43	260.38	2.06	-52.1	-67.1	3.8	1.49e+00	0	34	0	0	76	19446
2026-01-18 13:38:47.44	260.49	2.10	-52.1	-67.1	3.8	1.49e+00	0	34	104	0	74	21878
2026-01-18 13:38:48.45	260.60	2.13	-52.1	-67.1	3.8	1.49e+00	0	34	104	0	74	21859
2026-01-18 13:38:49.46	260.72	2.17	-52.1	-67.1	3.8	1.49e+00	0	34	104	0	74	21807
2026-01-18 13:38:50.47	260.83	2.21	-52.1	-67.1	3.8	1.49e+00	0	34	104	0	74	21837
2026-01-18 13:38:51.47	260.95	2.25	-52.1	-67.1	3.8	1.49e+00	0	34	104	0	74	21763
2026-01-18 13:38:52.48	261.06	2.28	-52.1	-67.1	3.8	1.49e+00	0	34	104	0	74	21769
2026-01-18 13:38:53.49	261.18	2.32	-52.1	-67.1	3.8	1.49e+00	0	34	104	0	74	21786
2026-01-18 13:38:54.50	261.29	2.36	-52.1	-67.0	3.8	1.49e+00	0	34	104	0	74	21736
2026-01-18 13:38:55.50	261.41	2.39	-52.1	-67.0	3.8	1.49e+00	0	34	104	0	74	21736
2026-01-18 13:38:56.51	261.52	2.43	-52.1	-67.1	3.8	1.49e+00	0	34	104	0	74	21795
2026-01-18 13:38:57.52	261.64	2.47	-52.1	-67.1	3.8	1.49e+00	0	34	104	0	74	21787
2026-01-18 13:38:58.53	261.76	2.50	-52.1	-67.1	3.8	1.49e+00	0	34	104	0	74	21815
2026-01-18 13:38:59.54	261.87	2.54	-52.1	-67.1	3.8	1.49e+00	0	34	104	0	74	21821
2026-01-18 13:39:00.54	261.99	2.58	-52.1	-67.0	3.8	1.49e+00	0	34	104	0	74	21752
2026-01-18 13:39:01.55	262.11	2.61	-52.1	-67.0	3.8	1.49e+00	0	34	104	0	74	21660
2026-01-18 13:39:02.56	262.22	2.65	-52.1	-67.0	3.8	1.49e+00	0	34	104	0	74	21744
2026-01-18 13:39:03.57	262.34	2.69	-52.1	-67.1	3.8	1.49e+00	0	34	104	0	74	21761
2026-01-18 13:39:04.57	262.46	2.72	-52.1	-67.1	3.8	1.49e+00	0	34	104	0	74	21806
2026-01-18 13:39:05.58	262.58	2.76	-52.1	-67.1	3.8	1.49e+00	0	34	104	0	74	21758
2026-01-18 13:39:06.59	262.70	2.80	-52.1	-67.1	3.8	1.49e+00	0	34	104	0	74	21758
2026-01-18 13:39:07.60	262.82	2.83	-52.1	-67.0	3.8	1.49e+00	0	34	104	0	74	21719
2026-01-18 13:39:08.61	262.94	2.87	-52.1	-67.1	3.8	1.49e+00	0	34	104	0	74	21760
2026-01-18 13:39:09.61	263.05	2.90	-52.1	-67.0	3.8	1.49e+00	0	34	104	0	74	21708
2026-01-18 13:39:10.62	263.17	2.94	-52.1	-67.1	3.8	1.49e+00	0	34	104	0	74	21783
2026-01-18 13:39:11.63	263.29	2.98	-52.1	-67.0	3.8	1.49e+00	0	34	104	0	74	21717
2026-01-18 13:39:12.64	263.41	3.01	-52.1	-67.0	3.8	1.49e+00	0	35	104	0	74	21691
2026-01-18 13:39:13.64	263.53	3.05	-52.1	-67.0	3.8	1.49e+00	0	34	104	0	74	21745
2026-01-18 13:39:14.65	263.66	3.08	-52.1	-67.0	3.8	1.49e+00	0	34	104	0	74	21746
2026-01-18 13:39:15.66	263.78	3.12	-52.1	-67.0	3.8	1.49e+00	0	35	104	0	74	21748
2026-01-18 13:39:16.67	263.90	3.16	-52.1	-67.0	3.8	1.49e+00	0	35	104	0	74	21714
2026-01-18 13:39:17.67	264.02	3.19	-52.1	-67.0	3.8	1.49e+00	0	34	104	0	74	21617
2026-01-18 13:39:18.68	264.14	3.23	-52.1	-67.0	3.8	1.49e+00	0	35	104	0	74	21577
2026-01-18 13:39:19.69	264.26	3.26	-52.1	-67.0	3.8	1.49e+00	0	35	104	0	74	21526
2026-01-18 13:39:20.70	264.39	3.30	-52.1	-67.0	3.8	1.49e+00	0	35	104	0	74	21716
2026-01-18 13:39:21.71	264.51	3.33	-52.1	-67.0	3.8	1.49e+00	0	34	104	0	74	21642
2026-01-18 13:39:22.72	264.63	3.37	-52.1	-66.9	3.8	1.49e+00	0	35	104	0	74	21430
2026-01-18 13:39:23.72	264.76	3.40	-52.1	-66.9	3.8	1.49e+00	0	35	104	0	74	21478
2026-01-18 13:39:24.73	264.88	3.44	-52.1	-67.0	3.8	1.49e+00	0	35	104	0	74	21632
2026-01-18 13:39:25.74	265.00	3.48	-52.1	-67.0	3.8	1.49e+00	0	35	104	0	74	21681
2026-01-18 13:39:26.75	265.13	3.51	-52.1	-67.0	3.8	1.49e+00	0	35	104	0	74	21658
2026-01-18 13:39:27.76	265.25	3.55	-52.1	-67.0	3.8	1.49e+00	0	35	104	0	74	21736
2026-01-18 13:39:28.77	265.38	3.58	-52.1	-66.9	3.8	1.49e+00	0	35	104	0	74	21505
2026-01-18 13:39:29.78	265.50	3.62	-52.0	-66.8	3.8	1.49e+00	0	35	104	0	74	21034
2026-01-18 13:39:30.79	265.63	3.65	-52.0	-66.8	3.8	1.49e+00	0	35	104	0	74	21064
2026-01-18 13:39:31.79	265.75	3.69	-52.1	-67.0	3.8	1.49e+00	0	35	104	0	74	21588
2026-01-18 13:39:32.80	265.88	3.72	-52.1	-67.0	3.8	1.49e+00	0	35	104	0	74	21654
2026-01-18 13:39:33.81	266.01	3.76	-52.1	-66.9	3.8	1.49e+00	0	35	104	0	74	21274
2026-01-18 13:39:34.82	266.13	3.79	-52.1	-66.8	3.8	1.49e+00	0	35	104	0	74	21087
2026-01-18 13:39:35.83	266.26	3.82	-52.1	-66.7	3.8	1.49e+00	0	35	104	0	74	21012
2026-01-18 13:39:36.83	266.39	3.86	-52.1	-66.8	3.8	1.49e+00	0	35	104	0	74	21192
2026-01-18 13:39:37.84	266.51	3.89	-52.1	-67.0	3.8	1.49e+00	0	35	104	0	74	21659
2026-01-18 13:39:38.85	266.64	3.93	-52.1	-67.0	3.8	1.49e+00	0	35	104	0	74	21661
2026-01-18 13:39:39.86	266.77	3.96	-52.1	-67.0	3.8	1.49e+00	0	35	104	0	74	21691
2026-01-18 13:39:40.86	266.90	4.00	-52.1	-67.0	3.8	1.49e+00	0	35	104	0	74	21676
2026-01-18 13:39:41.87	267.03	4.03	-52.1	-66.9	3.8	1.49e+00	0	35	104	0	74	21345
2026-01-18 13:39:42.88	267.16	4.06	-52.1	-66.8	3.8	1.49e+00	0	35	104	0	74	21249
2026-01-18 13:39:43.89	267.29	4.10	-52.1	-67.0	3.8	1.49e+00	0	35	104	0	74	21713
2026-01-18 13:39:44.90	267.42	4.13	-52.1	-67.0	3.8	1.49e+00	0	35	104	0	74	21558
2026-01-18 13:39:45.91	267.55	4.17	-52.1	-67.0	3.8	1.49e+00	0	35	104	0	74	21556
2026-01-18 13:39:46.91	267.67	4.20	-52.1	-67.0	3.8	1.49e+00	0	35	104	0	74	21518
2026-01-18 13:39:47.92	267.80	4.23	-52.1	-66.8	3.8	1.49e+00	0	35	104	0	74	21082
2026-01-18 13:39:48.93	267.94	4.27	-52.1	-66.6	3.8	1.49e+00	0	35	104	0	74	20721
2026-01-18 13:39:49.94	268.07	4.30	-52.0	-66.7	3.8	1.49e+00	0	35	104	0	74	20850
2026-01-18 13:39:50.95	268.20	4.33	-52.1	-66.7	3.8	1.49e+00	0	35	104	0	74	20859
2026-01-18 13:39:51.95	268.33	4.37	-52.1	-66.9	3.8	1.49e+00	0	35	104	0	74	21331
2026-01-18 13:39:52.96	268.46	4.40	-52.1	-66.9	3.8	1.49e+00	0	35	104	0	74	21362
2026-01-18 13:39:53.97	268.59	4.43	-52.1	-66.8	3.8	1.49e+00	0	35	104	0	74	21210
2026-01-18 13:39:54.98	268.73	4.47	-52.1	-66.9	3.8	1.49e+00	0	35	104	0	74	21302
2026-01-18 13:39:55.99	268.86	4.50	-52.1	-66.8	3.8	1.49e+00	0	35	104	0	74	21157
2026-01-18 13:39:57.00	268.99	4.53	-52.1	-66.8	3.8	1.49e+00	0	35	104	0	74	21061
2026-01-18 13:39:58.00	269.12	4.57	-52.1	-66.9	3.8	1.49e+00	0	35	104	0	74	21349
2026-01-18 13:39:59.01	269.26	4.60	-52.1	-67.0	3.8	1.49e+00	0	35	104	0	74	21618
2026-01-18 13:40:00.02	269.39	4.63	-52.1	-67.0	3.8	1.49e+00	0	35	104	0	74	21750
2026-01-18 13:40:01.03	269.53	4.66	-52.1	-66.8	3.8	1.49e+00	0	35	104	0	74	21236
2026-01-18 13:40:02.04	269.66	4.70	-52.0	-66.0	3.8	1.49e+00	0	35	104	0	74	19352
2026-01-18 13:40:03.04	269.79	4.73	-51.9	-64.2	4.0	1.49e+00	0	35	104	0	74	15642
2026-01-18 13:40:04.05	269.93	4.76	-51.8	-62.5	4.5	1.28e+00	14	35	0	0	74	12877
2026-01-18 13:40:05.06	270.06	4.79	-51.7	-61.6	5.0	7.79e-01	0	35	0	2097152	74	11577
2026-01-18 13:40:06.07	270.20	4.83	-51.6	-60.4	5.6	6.22e-01	0	35	0	4194304	74	10133
2026-01-18 13:40:07.08	270.34	4.86	-51.3	-58.8	6.9	2.32e-01	0	35	0	5242880	74	8403
2026-01-18 13:40:08.09	270.47	4.89	-50.7	-56.5	9.2	6.10e-02	0	35	0	7340032	73	6817
2026-01-18 13:40:09.09	270.61	4.92	-50.0	-54.5	11.3	5.68e-03	0	35	0	9437184	72	5751
2026-01-18 13:40:10.10	270.74	4.95	-49.3	-52.9	13.1	7.24e-05	0	35	0	11534336	70	5364
2026-01-18 13:40:11.11	270.88	4.99	-48.9	-52.0	13.9	3.80e-06	0	35	0	13631488	69	5136
2026-01-18 13:40:12.12	271.02	5.02	-48.5	-51.3	14.7	7.00e-07	0	35	0	14680064	69	4751
2026-01-18 13:40:13.13	271.16	5.05	-49.0	-52.3	13.8	7.00e-07	0	35	0	16777216	69	5292
2026-01-18 13:40:14.13	271.29	5.08	-49.9	-53.9	12.0	5.82e-04	0	35	0	18874368	70	6025
2026-01-18 13:40:15.14	271.43	5.11	-49.3	-52.9	13.1	1.50e-06	0	35	0	20971520	69	5677
2026-01-18 13:40:16.15	271.57	5.14	-50.0	-54.5	11.1	4.34e-05	0	35	0	23068672	71	6119
2026-01-18 13:40:17.15	271.71	5.17	-51.0	-56.9	8.9	1.88e-02	0	35	0	24117248	73	7133
2026-01-18 13:40:18.16	271.85	5.21	-47.7	-50.1	15.9	0.00e+00	0	35	0	26214400	67	4629
2026-01-18 13:40:19.17	271.99	5.24	-48.5	-51.3	14.7	0.00e+00	0	35	0	28311552	67	5314
2026-01-18 13:40:20.18	272.13	5.27	-48.4	-51.2	14.8	7.00e-07	0	36	0	30408704	67	5271
2026-01-18 13:40:21.19	272.27	5.30	-48.5	-51.3	14.7	0.00e+00	0	35	0	32505856	67	5284
2026-01-18 13:40:22.19	272.40	5.33	-48.2	-50.8	15.3	0.00e+00	0	36	0	33554432	67	4997
2026-01-18 13:40:23.20	272.55	5.36	-48.4	-51.1	15.0	7.00e-07	0	35	0	35651584	67	5192
2026-01-18 13:40:24.21	272.69	5.39	-48.4	-51.2	14.9	0.00e+00	0	35	0	37748736	67	5221
2026-01-18 13:40:25.22	272.83	5.42	-48.5	-51.3	14.8	0.00e+00	0	35	0	39845888	67	5284
2026-01-18 13:40:26.23	272.97	5.45	-48.4	-51.1	15.0	0.00e+00	0	35	0	41943040	67	5200
2026-01-18 13:40:27.23	273.11	5.48	-48.3	-51.0	15.0	1.50e-06	0	35	0	44040192	67	5150
2026-01-18 13:40:28.24	273.25	5.51	-48.4	-51.1	15.1	0.00e+00	0	35	0	45088768	67	5192
2026-01-18 13:40:29.25	273.39	5.54	-48.4	-51.2	15.0	0.00e+00	0	35	0	47185920	67	5225
2026-01-18 13:40:30.25	273.53	5.57	-48.6	-51.5	14.7	0.00e+00	0	35	0	49283072	67	5420
2026-01-18 13:40:31.26	273.68	5.60	-48.6	-51.4	14.7	7.00e-07	0	36	0	51380224	67	5377
2026-01-18 13:40:32.27	273.82	5.63	-48.6	-51.4	14.7	0.00e+00	0	35	0	52428800	67	5367
2026-01-18 13:40:33.28	273.96	5.66	-48.4	-51.1	15.0	0.00e+00	0	35	0	54525952	67	5194
2026-01-18 13:40:34.29	274.11	5.69	-48.4	-51.1	15.0	0.00e+00	0	36	0	56623104	67	5208
2026-01-18 13:40:35.29	274.25	5.72	-48.6	-51.5	14.6	0.00e+00	0	36	0	58720256	67	5438
2026-01-18 13:40:36.30	274.39	5.75	-48.6	-51.4	14.7	1.50e-06	0	35	0	60817408	67	5390
2026-01-18 13:40:37.31	274.54	5.77	-48.5	-51.4	14.8	7.00e-07	0	35	0	61865984	67	5349
2026-01-18 13:40:38.32	274.68	5.80	-48.9	-51.9	14.3	0.00e+00	0	35	0	63963136	68	5363
2026-01-18 13:40:39.32	274.83	5.83	-48.7	-51.6	14.7	7.00e-07	0	36	0	66060288	68	5183
2026-01-18 13:40:40.33	274.97	5.86	-48.6	-51.4	14.8	0.00e+00	0	36	0	68157440	68	5074
2026-01-18 13:40:41.33	275.12	5.89	-48.4	-51.1	15.2	0.00e+00	0	36	0	70254592	68	4892
2026-01-18 13:40:42.34	275.26	5.92	-48.5	-51.2	15.1	0.00e+00	0	36	0	72351744	68	4929
2026-01-18 13:40:43.35	275.41	5.94	-48.5	-51.1	15.2	0.00e+00	0	35	0	73400320	68	4907
2026-01-18 13:40:44.36	275.55	5.97	-48.3	-50.9	15.4	0.00e+00	0	35	0	75497472	68	4796
2026-01-18 13:40:45.37	275.70	6.00	-48.3	-50.9	15.4	0.00e+00	0	36	0	77594624	68	4774
2026-01-18 13:40:46.38	275.85	6.03	-48.4	-51.0	15.3	0.00e+00	0	36	0	79691776	68	4857
2026-01-18 13:40:47.38	275.99	6.06	-48.4	-51.1	15.2	0.00e+00	0	36	0	80740352	68	4898
2026-01-18 13:40:48.39	276.14	6.08	-48.4	-51.1	15.2	0.00e+00	0	35	0	82837504	68	4874
2026-01-18 13:40:49.40	276.29	6.11	-48.3	-50.9	15.4	0.00e+00	0	36	0	84934656	68	4799
2026-01-18 13:40:50.41	276.44	6.14	-48.5	-51.2	15.1	0.00e+00	0	36	0	87031808	68	4929
2026-01-18 13:40:51.41	276.58	6.17	-48.4	-50.9	15.4	0.00e+00	0	36	0	89128960	68	4803
2026-01-18 13:40:52.42	276.73	6.19	-48.4	-51.0	15.3	0.00e+00	0	36	0	90177536	68	4831
2026-01-18 13:40:53.43	276.88	6.22	-48.4	-51.0	15.3	0.00e+00	0	36	0	92274688	68	4852
2026-01-18 13:40:54.44	277.03	6.25	-48.6	-51.3	15.1	0.00e+00	0	35	0	94371840	68	4993
2026-01-18 13:40:55.45	277.18	6.27	-48.6	-51.3	15.0	0.00e+00	0	35	0	96468992	68	5041
2026-01-18 13:40:56.45	277.33	6.30	-48.7	-51.5	14.9	0.00e+00	0	35	0	98566144	68	5118
2026-01-18 13:40:57.46	277.48	6.33	-48.8	-51.6	14.8	7.00e-07	0	35	0	100663296	68	5186
2026-01-18 13:40:58.47	277.63	6.35	-48.9	-51.8	14.5	0.00e+00	0	36	0	101711872	68	5321
2026-01-18 13:40:59.48	277.78	6.38	-48.9	-51.8	14.6	0.00e+00	0	35	0	103809024	68	5281
2026-01-18 13:41:00.48	277.93	6.40	-48.8	-51.6	14.7	0.00e+00	0	36	0	105906176	68	5200
2026-01-18 13:41:01.49	278.08	6.43	-48.6	-51.3	15.0	0.00e+00	0	36	0	108003328	68	5030
2026-01-18 13:41:02.50	278.23	6.46	-48.6	-51.3	15.0	0.00e+00	0	36	0	109051904	68	5006
2026-01-18 13:41:03.51	278.38	6.48	-48.5	-51.1	15.3	0.00e+00	0	35	0	111149056	68	4872
2026-01-18 13:41:04.52	278.53	6.51	-48.4	-51.0	15.3	0.00e+00	0	36	0	113246208	68	4835
2026-01-18 13:41:05.53	278.68	6.53	-48.2	-50.7	15.7	0.00e+00	0	36	0	115343360	68	4681
2026-01-18 13:41:06.54	278.83	6.56	-48.4	-50.9	15.5	0.00e+00	0	36	0	117440512	68	4803
2026-01-18 13:41:07.55	278.99	6.58	-48.5	-51.1	15.3	0.00e+00	0	36	0	119537664	68	4903
2026-01-18 13:41:08.55	279.14	6.61	-48.7	-51.4	15.0	0.00e+00	0	36	0	120586240	68	5100
2026-01-18 13:41:09.56	279.29	6.63	-48.8	-51.7	14.7	0.00e+00	0	35	0	122683392	68	5255
2026-01-18 13:41:10.57	279.44	6.66	-49.1	-52.2	14.3	1.50e-06	0	36	0	124780544	68	5535
2026-01-18 13:41:11.58	279.60	6.68	-49.0	-52.0	14.4	7.00e-07	0	36	0	126877696	68	5411
2026-01-18 13:41:12.59	279.75	6.71	-49.0	-51.9	14.5	0.00e+00	0	36	0	128974848	68	5385
2026-01-18 13:41:13.59	279.90	6.73	-48.9	-51.7	14.7	0.00e+00	0	36	0	130023424	68	5273
2026-01-18 13:41:14.60	280.06	6.75	-49.0	-51.9	14.4	7.00e-07	0	36	0	132120576	68	5399
2026-01-18 13:41:15.61	280.21	6.78	-49.0	-51.9	14.5	0.00e+00	0	36	0	134217728	68	5386
2026-01-18 13:41:16.62	280.37	6.80	-48.8	-51.7	14.7	7.00e-07	0	36	0	136314880	68	5224
2026-01-18 13:41:17.62	280.52	6.82	-48.8	-51.6	14.8	0.00e+00	0	36	0	137363456	68	5215
2026-01-18 13:41:18.63	280.67	6.85	-48.9	-51.7	14.7	0.00e+00	0	36	0	139460608	68	5275
2026-01-18 13:41:19.64	280.83	6.87	-48.8	-51.6	14.8	0.00e+00	0	35	0	141557760	68	5209
2026-01-18 13:41:20.64	280.98	6.89	-48.9	-51.8	14.6	0.00e+00	0	36	0	143654912	68	5320
2026-01-18 13:41:21.65	281.14	6.92	-48.9	-51.8	14.6	2.20e-06	0	36	0	145752064	68	5327
2026-01-18 13:41:22.66	281.29	6.94	-48.9	-51.8	14.7	0.00e+00	0	35	0	147849216	68	5282
2026-01-18 13:41:23.66	281.45	6.96	-48.8	-51.6	14.8	0.00e+00	0	36	0	148897792	68	5213
2026-01-18 13:41:24.67	281.61	6.98	-48.7	-51.5	15.0	0.00e+00	0	35	0	150994944	68	5115
2026-01-18 13:41:25.68	281.76	7.01	-48.7	-51.4	15.1	0.00e+00	0	36	0	153092096	68	5056
2026-01-18 13:41:26.69	281.92	7.03	-48.6	-51.1	15.3	0.00e+00	0	35	0	155189248	68	4922
2026-01-18 13:41:27.70	282.08	7.05	-48.4	-50.9	15.6	0.00e+00	0	36	0	157286400	68	4764
2026-01-18 13:41:28.71	282.23	7.07	-48.3	-50.7	15.8	0.00e+00	0	36	0	158334976	68	4669
2026-01-18 13:41:29.71	282.39	7.09	-48.4	-50.8	15.6	0.00e+00	0	36	0	160432128	68	4755
2026-01-18 13:41:30.72	282.55	7.12	-48.5	-51.1	15.4	0.00e+00	0	36	0	162529280	68	4877
2026-01-18 13:41:31.73	282.70	7.14	-48.8	-51.5	15.0	0.00e+00	0	36	0	164626432	68	5155
2026-01-18 13:41:32.73	282.86	7.16	-49.0	-51.8	14.7	7.00e-07	0	35	0	166723584	68	5340
2026-01-18 13:41:33.74	283.02	7.18	-49.1	-52.1	14.5	0.00e+00	0	36	0	167772160	68	5495
2026-01-18 13:41:34.75	283.18	7.20	-49.2	-52.2	14.4	7.00e-07	0	36	0	169869312	68	5543
2026-01-18 13:41:35.76	283.34	7.22	-49.3	-52.4	14.2	1.50e-06	0	36	0	171966464	69	5351
2026-01-18 13:41:36.77	283.50	7.24	-49.4	-52.6	14.0	7.00e-07	0	36	0	174063616	69	5475
2026-01-18 13:41:37.77	283.65	7.26	-49.5	-52.7	13.8	8.30e-06	0	35	0	176160768	69	5584
2026-01-18 13:41:38.78	283.81	7.28	-49.5	-52.7	13.8	7.60e-06	0	36	0	177209344	69	5579
2026-01-18 13:41:39.79	283.97	7.30	-49.5	-52.8	13.8	5.30e-06	0	36	0	179306496	69	5611
2026-01-18 13:41:40.80	284.13	7.32	-49.3	-52.4	14.2	2.20e-06	0	36	0	181403648	69	5378
2026-01-18 13:41:41.81	284.29	7.34	-49.2	-52.2	14.4	7.00e-07	0	35	0	183500800	69	5258
2026-01-18 13:41:42.81	284.45	7.36	-49.1	-52.0	14.6	2.20e-06	0	35	0	185597952	69	5151
2026-01-18 13:41:43.82	284.61	7.38	-49.1	-51.9	14.6	0.00e+00	0	36	0	186646528	69	5084
2026-01-18 13:41:44.83	284.77	7.40	-48.9	-51.6	14.9	0.00e+00	0	36	0	188743680	69	4923
2026-01-18 13:41:45.84	284.93	7.42	-48.8	-51.5	15.1	0.00e+00	0	36	0	190840832	69	4849
2026-01-18 13:41:46.85	285.10	7.44	-48.8	-51.5	15.1	0.00e+00	0	36	0	192937984	69	4834
2026-01-18 13:41:47.86	285.26	7.45	-48.8	-51.5	15.1	7.00e-07	0	36	0	195035136	69	4857
2026-01-18 13:41:48.87	285.42	7.47	-49.1	-51.9	14.7	0.00e+00	0	36	0	196083712	69	5082
2026-01-18 13:41:49.87	285.58	7.49	-49.1	-52.0	14.6	0.00e+00	0	36	0	198180864	69	5127
2026-01-18 13:41:50.88	285.74	7.51	-48.9	-51.7	15.0	0.00e+00	0	36	0	200278016	69	4934
2026-01-18 13:41:51.89	285.90	7.53	-48.8	-51.4	15.2	0.00e+00	0	36	0	202375168	69	4810
2026-01-18 13:41:52.90	286.06	7.54	-48.7	-51.3	15.4	0.00e+00	0	36	0	204472320	69	4726
2026-01-18 13:41:53.91	286.23	7.56	-48.6	-51.1	15.6	0.00e+00	0	36	0	205520896	69	4616
2026-01-18 13:41:54.91	286.39	7.58	-48.8	-51.4	15.3	0.00e+00	0	36	0	207618048	69	4763
2026-01-18 13:41:55.92	286.55	7.60	-48.8	-51.4	15.3	0.00e+00	0	36	0	209715200	69	4803
2026-01-18 13:41:56.93	286.71	7.61	-49.0	-51.8	14.8	0.00e+00	0	36	0	211812352	69	5017
2026-01-18 13:41:57.94	286.88	7.63	-49.2	-52.0	14.7	0.00e+00	0	36	0	213909504	69	5154
2026-01-18 13:41:58.94	287.04	7.65	-49.2	-52.2	14.5	0.00e+00	0	36	0	216006656	69	5227
2026-01-18 13:41:59.95	287.20	7.66	-49.5	-52.6	14.1	7.00e-07	0	36	0	217055232	69	5477
2026-01-18 13:42:00.96	287.37	7.68	-49.5	-52.6	14.1	7.00e-07	0	36	0	219152384	69	5478
2026-01-18 13:42:01.97	287.53	7.70	-49.6	-52.8	13.9	5.30e-06	0	36	0	221249536	69	5633
2026-01-18 13:42:02.98	287.69	7.71	-49.5	-52.6	14.1	3.80e-06	0	36	0	223346688	69	5466
2026-01-18 13:42:03.98	287.86	7.73	-49.3	-52.3	14.4	2.20e-06	0	36	0	224395264	69	5315
2026-01-18 13:42:04.99	288.02	7.74	-49.1	-52.0	14.7	7.00e-07	0	36	0	226492416	69	5113
2026-01-18 13:42:06.00	288.19	7.76	-48.9	-51.5	15.2	0.00e+00	0	36	0	228589568	69	4841
2026-01-18 13:42:07.01	288.35	7.77	-48.6	-51.1	15.6	0.00e+00	0	36	0	230686720	69	4607
2026-01-18 13:42:08.02	288.52	7.79	-48.4	-50.8	15.9	0.00e+00	0	36	0	232783872	68	4746
2026-01-18 13:42:09.03	288.68	7.80	-48.6	-51.1	15.7	0.00e+00	0	36	0	234881024	68	4894
2026-01-18 13:42:10.04	288.85	7.82	-48.6	-51.1	15.6	0.00e+00	0	36	0	235929600	68	4886
2026-01-18 13:42:11.04	289.01	7.83	-48.7	-51.2	15.5	0.00e+00	0	35	0	238026752	68	4962
2026-01-18 13:42:12.05	289.18	7.84	-48.7	-51.2	15.6	0.00e+00	0	36	0	240123904	68	4938
2026-01-18 13:42:13.05	289.34	7.86	-48.6	-51.1	15.6	0.00e+00	0	36	0	242221056	68	4874
2026-01-18 13:42:14.06	289.51	7.87	-48.6	-51.1	15.6	0.00e+00	0	36	0	244318208	68	4885
2026-01-18 13:42:15.07	289.67	7.89	-48.6	-51.1	15.7	0.00e+00	0	36	0	245366784	68	4898
2026-01-18 13:42:16.07	289.84	7.90	-48.4	-50.7	16.1	0.00e+00	0	36	0	247463936	68	4677
2026-01-18 13:42:17.08	290.00	7.91	-48.1	-50.3	16.4	0.00e+00	0	36	0	249561088	68	4475
2026-01-18 13:42:18.09	290.17	7.92	-48.1	-50.3	16.5	0.00e+00	0	36	0	251658240	68	4456
2026-01-18 13:42:19.09	290.33	7.94	-48.2	-50.5	16.3	0.00e+00	0	36	0	252706816	68	4551
2026-01-18 13:42:20.10	290.50	7.95	-48.4	-50.7	16.0	0.00e+00	0	36	0	254803968	68	4700
2026-01-18 13:42:21.11	290.67	7.96	-48.6	-51.0	15.8	0.00e+00	0	36	0	256901120	68	4850
2026-01-18 13:42:22.12	290.83	7.97	-48.5	-50.9	15.9	0.00e+00	0	36	0	258998272	68	4770
2026-01-18 13:42:23.12	291.00	7.99	-48.4	-50.8	15.9	0.00e+00	0	36	0	261095424	68	4736
2026-01-18 13:42:24.13	291.17	8.00	-48.4	-50.7	16.1	0.00e+00	0	36	0	263192576	68	4683
2026-01-18 13:42:25.14	291.33	8.01	-48.2	-50.4	16.3	0.00e+00	0	36	0	264241152	68	4527
2026-01-18 13:42:26.15	291.50	8.02	-48.1	-50.4	16.4	0.00e+00	0	36	0	266338304	68	4505
2026-01-18 13:42:27.16	291.67	8.03	-48.2	-50.4	16.4	0.00e+00	0	36	0	268435456	68	4531
2026-01-18 13:42:28.16	291.83	8.04	-48.1	-50.4	16.4	0.00e+00	0	36	0	270532608	68	4515
2026-01-18 13:42:29.17	292.00	8.05	-48.2	-50.5	16.3	0.00e+00	0	36	0	272629760	68	4587
2026-01-18 13:42:30.18	292.17	8.06	-48.6	-51.1	15.7	0.00e+00	0	35	0	273678336	68	4903
2026-01-18 13:42:31.19	292.34	8.07	-48.9	-51.6	15.2	0.00e+00	0	36	0	275775488	68	5195
2026-01-18 13:42:32.20	292.51	8.08	-49.1	-52.0	14.8	0.00e+00	0	36	0	277872640	68	5425
2026-01-18 13:42:33.20	292.67	8.09	-49.1	-51.9	14.9	0.00e+00	0	36	0	279969792	68	5354
2026-01-18 13:42:34.21	292.84	8.10	-49.1	-51.8	14.8	0.00e+00	0	36	0	281018368	68	5325
2026-01-18 13:42:35.22	293.01	8.11	-49.1	-51.9	14.8	7.00e-07	0	36	0	283115520	68	5389
2026-01-18 13:42:36.23	293.18	8.12	-49.0	-51.7	15.0	0.00e+00	0	36	0	285212672	68	5248
2026-01-18 13:42:37.24	293.35	8.13	-49.0	-51.8	15.0	0.00e+00	0	36	0	287309824	68	5313
2026-01-18 13:42:38.24	293.51	8.14	-49.1	-51.9	14.8	7.00e-07	0	36	0	289406976	68	5386
2026-01-18 13:42:39.25	293.68	8.15	-49.1	-51.8	15.0	0.00e+00	0	36	0	291504128	68	5311
2026-01-18 13:42:40.26	293.85	8.16	-49.0	-51.6	15.1	0.00e+00	0	36	0	292552704	68	5211
2026-01-18 13:42:41.26	294.02	8.16	-49.2	-52.1	14.7	0.00e+00	0	35	0	294649856	68	5471
2026-01-18 13:42:42.27	294.19	8.17	-49.2	-52.0	14.8	0.00e+00	0	36	0	296747008	69	5135
2026-01-18 13:42:43.28	294.36	8.18	-49.1	-51.9	14.8	0.00e+00	0	36	0	298844160	69	5083
2026-01-18 13:42:44.29	294.53	8.19	-49.2	-52.0	14.8	0.00e+00	0	36	0	300941312	69	5122
2026-01-18 13:42:45.30	294.70	8.20	-49.0	-51.7	15.0	0.00e+00	0	36	0	301989888	69	4974
2026-01-18 13:42:46.31	294.87	8.20	-49.1	-51.9	14.9	0.00e+00	0	36	0	304087040	69	5080
2026-01-18 13:42:47.31	295.03	8.21	-49.1	-51.9	14.8	0.00e+00	0	36	0	306184192	69	5089
2026-01-18 13:42:48.32	295.20	8.22	-49.3	-52.2	14.6	0.00e+00	0	36	0	308281344	69	5247
2026-01-18 13:42:49.33	295.37	8.22	-49.4	-52.4	14.4	0.00e+00	0	36	0	310378496	69	5370
2026-01-18 13:42:50.34	295.54	8.23	-49.5	-52.6	14.2	2.20e-06	0	36	0	311427072	69	5486
2026-01-18 13:42:51.34	295.71	8.24	-49.6	-52.8	13.9	3.00e-06	0	36	0	313524224	69	5626
2026-01-18 13:42:52.35	295.88	8.24	-49.7	-53.0	13.8	2.20e-06	0	36	0	315621376	69	5735
2026-01-18 13:42:53.36	296.05	8.25	-49.7	-52.9	13.8	1.50e-06	0	36	0	317718528	70	5385
2026-01-18 13:42:54.37	296.22	8.25	-49.8	-53.1	13.7	4.50e-06	0	35	0	319815680	70	5494
2026-01-18 13:42:55.38	296.39	8.26	-49.7	-53.0	13.8	5.30e-06	0	36	0	320864256	70	5414
2026-01-18 13:42:56.39	296.56	8.26	-49.6	-52.8	14.0	3.00e-06	0	36	0	322961408	70	5317
2026-01-18 13:42:57.39	296.73	8.27	-49.6	-52.7	14.1	1.50e-06	0	35	0	325058560	70	5242
2026-01-18 13:42:58.40	296.90	8.27	-49.6	-52.8	14.0	7.00e-07	0	36	0	327155712	70	5291
2026-01-18 13:42:59.41	297.07	8.28	-49.5	-52.5	14.3	2.20e-06	0	36	0	329252864	70	5137
2026-01-18 13:43:00.41	297.24	8.28	-49.3	-52.3	14.4	1.50e-06	0	36	0	330301440	70	4994
2026-01-18 13:43:01.42	297.41	8.28	-49.5	-52.5	14.3	0.00e+00	0	36	0	332398592	70	5139
2026-01-18 13:43:02.43	297.58	8.29	-49.5	-52.6	14.2	0.00e+00	0	36	0	334495744	70	5200
2026-01-18 13:43:03.44	297.75	8.29	-49.6	-52.8	14.0	7.00e-07	0	36	0	336592896	70	5298
2026-01-18 13:43:04.45	297.92	8.29	-49.6	-52.7	14.1	3.00e-06	0	36	0	338690048	70	5257
2026-01-18 13:43:05.45	298.09	8.30	-49.5	-52.6	14.2	2.20e-06	0	36	0	339738624	70	5179
2026-01-18 13:43:06.46	298.26	8.30	-49.3	-52.2	14.6	0.00e+00	0	36	0	341835776	70	4956
2026-01-18 13:43:07.47	298.43	8.30	-49.3	-52.2	14.6	7.00e-07	0	36	0	343932928	70	4937
2026-01-18 13:43:08.48	298.60	8.31	-49.3	-52.2	14.4	0.00e+00	0	36	0	346030080	70	4973
2026-01-18 13:43:09.48	298.77	8.31	-49.2	-51.9	14.8	0.00e+00	0	36	0	348127232	70	4810
2026-01-18 13:43:10.49	298.94	8.31	-49.0	-51.7	15.0	0.00e+00	0	36	0	349175808	70	4670
2026-01-18 13:43:11.50	299.11	8.31	-49.0	-51.6	15.1	0.00e+00	0	36	0	351272960	69	4923
2026-01-18 13:43:12.51	299.28	8.31	-49.0	-51.7	15.1	0.00e+00	0	36	0	353370112	69	4962
2026-01-18 13:43:13.51	299.45	8.31	-49.1	-51.9	14.9	0.00e+00	0	36	0	355467264	69	5051
2026-01-18 13:43:14.52	299.62	8.32	-49.1	-52.0	14.8	0.00e+00	0	36	0	357564416	69	5104
2026-01-18 13:43:15.53	299.79	8.32	-49.2	-52.1	14.7	0.00e+00	0	36	0	358612992	69	5170
2026-01-18 13:43:16.54	299.96	8.32	-49.3	-52.2	14.6	0.00e+00	0	36	0	360710144	69	5259
2026-01-18 13:43:17.54	300.13	8.32	-49.3	-52.2	14.5	0.00e+00	0	36	0	362807296	69	5263
2026-01-18 13:43:18.55	300.30	8.32	-49.3	-52.1	14.6	0.00e+00	0	36	0	364904448	69	5208
2026-01-18 13:43:19.56	300.47	8.32	-49.1	-51.8	14.9	0.00e+00	0	36	0	367001600	69	5029
2026-01-18 13:43:20.57	300.64	8.32	-48.9	-51.6	15.2	7.00e-07	0	36	0	368050176	69	4895
2026-01-18 13:43:21.58	300.81	8.32	-48.7	-51.3	15.5	0.00e+00	0	36	0	370147328	69	4724
2026-01-18 13:43:22.59	300.99	8.32	-48.7	-51.2	15.6	0.00e+00	0	36	0	372244480	69	4674
2026-01-18 13:43:23.59	301.15	8.32	-48.6	-51.1	15.6	0.00e+00	0	36	0	374341632	69	4637
2026-01-18 13:43:24.60	301.33	8.32	-48.6	-51.1	15.5	0.00e+00	0	36	0	376438784	69	4640
2026-01-18 13:43:25.61	301.50	8.31	-48.6	-51.2	15.6	0.00e+00	0	36	0	377487360	69	4656
2026-01-18 13:43:26.61	301.66	8.31	-48.7	-51.2	15.6	0.00e+00	0	36	0	379584512	69	4694
2026-01-18 13:43:27.62	301.84	8.31	-48.7	-51.2	15.6	0.00e+00	0	36	0	381681664	69	4702
2026-01-18 13:43:28.63	302.01	8.31	-48.6	-51.0	15.7	0.00e+00	0	36	0	383778816	69	4598
2026-01-18 13:43:29.64	302.18	8.31	-48.5	-50.9	15.8	0.00e+00	0	36	0	385875968	68	4787
2026-01-18 13:43:30.65	302.35	8.30	-48.3	-50.7	16.0	0.00e+00	0	36	0	386924544	68	4671
2026-01-18 13:43:31.65	302.52	8.30	-48.1	-50.4	16.3	0.00e+00	0	36	0	389021696	68	4517
2026-01-18 13:43:32.66	302.69	8.30	-48.0	-50.2	16.5	0.00e+00	0	36	0	391118848	68	4414
2026-01-18 13:43:33.67	302.86	8.30	-47.8	-50.0	16.7	0.00e+00	0	36	0	393216000	67	4549
2026-01-18 13:43:34.68	303.03	8.29	-47.9	-50.1	16.6	0.00e+00	0	36	0	395313152	67	4605
2026-01-18 13:43:35.68	303.20	8.29	-47.9	-50.1	16.6	0.00e+00	0	35	0	396361728	67	4612
2026-01-18 13:43:36.69	303.37	8.29	-48.0	-50.2	16.4	0.00e+00	0	36	0	398458880	67	4684
2026-01-18 13:43:37.70	303.54	8.28	-48.2	-50.6	16.1	0.00e+00	0	36	0	400556032	67	4882
2026-01-18 13:43:38.71	303.71	8.28	-48.4	-50.8	15.8	0.00e+00	0	36	0	402653184	67	5022
2026-01-18 13:43:39.72	303.88	8.27	-48.4	-50.9	15.7	0.00e+00	0	36	0	404750336	67	5064
2026-01-18 13:43:40.73	304.05	8.27	-48.3	-50.7	15.9	0.00e+00	0	36	0	405798912	67	4982
2026-01-18 13:43:41.73	304.22	8.27	-48.3	-50.7	15.9	0.00e+00	0	36	0	407896064	67	4952
2026-01-18 13:43:42.74	304.39	8.26	-48.2	-50.6	16.1	0.00e+00	0	35	0	409993216	67	4873
2026-01-18 13:43:43.74	304.55	8.26	-48.3	-50.6	16.0	0.00e+00	0	36	0	412090368	67	4897
2026-01-18 13:43:44.75	304.72	8.25	-48.1	-50.3	16.3	0.00e+00	0	36	0	414187520	67	4734
2026-01-18 13:43:45.76	304.89	8.24	-48.0	-50.2	16.4	0.00e+00	0	36	0	415236096	67	4685
2026-01-18 13:43:46.77	305.06	8.24	-48.1	-50.4	16.2	0.00e+00	0	36	0	417333248	67	4763
2026-01-18 13:43:47.77	305.23	8.23	-48.1	-50.5	16.1	0.00e+00	0	36	0	419430400	67	4819
2026-01-18 13:43:48.78	305.40	8.23	-48.3	-50.7	15.9	0.00e+00	0	36	0	421527552	67	4955
2026-01-18 13:43:49.79	305.57	8.22	-48.4	-50.8	15.7	0.00e+00	0	36	0	423624704	67	5037
2026-01-18 13:43:50.80	305.74	8.21	-48.3	-50.8	15.8	0.00e+00	0	36	0	424673280	67	5009
2026-01-18 13:43:51.81	305.91	8.21	-48.3	-50.6	15.9	7.00e-07	0	36	0	426770432	67	4924
2026-01-18 13:43:52.81	306.08	8.20	-48.3	-50.7	15.9	0.00e+00	0	36	0	428867584	67	4943
2026-01-18 13:43:53.82	306.25	8.19	-48.1	-50.4	16.1	0.00e+00	0	36	0	430964736	67	4793
2026-01-18 13:43:54.83	306.42	8.18	-47.9	-50.1	16.4	0.00e+00	0	36	0	433061888	67	4641
2026-01-18 13:43:55.84	306.58	8.18	-47.7	-49.8	16.7	0.00e+00	0	36	0	435159040	67	4492
2026-01-18 13:43:56.85	306.75	8.17	-47.8	-50.0	16.6	0.00e+00	0	36	0	436207616	67	4567
2026-01-18 13:43:57.85	306.92	8.16	-47.8	-50.0	16.5	0.00e+00	0	36	0	438304768	67	4575
2026-01-18 13:43:58.86	307.09	8.15	-47.8	-50.0	16.6	0.00e+00	0	36	0	440401920	67	4568
2026-01-18 13:43:59.87	307.26	8.14	-47.8	-50.0	16.5	0.00e+00	0	36	0	442499072	67	4589
2026-01-18 13:44:00.88	307.43	8.14	-48.0	-50.3	16.3	0.00e+00	0	36	0	443547648	67	4726
2026-01-18 13:44:01.89	307.60	8.13	-48.0	-50.3	16.3	0.00e+00	0	36	0	445644800	67	4717
2026-01-18 13:44:02.89	307.76	8.12	-48.0	-50.3	16.3	0.00e+00	0	36	0	447741952	67	4712
2026-01-18 13:44:03.90	307.93	8.11	-47.9	-50.1	16.5	0.00e+00	0	36	0	449839104	67	4643
2026-01-18 13:44:04.91	308.10	8.10	-47.7	-49.8	16.7	0.00e+00	0	36	0	451936256	67	4473
2026-01-18 13:44:05.92	308.27	8.09	-47.5	-49.5	17.0	0.00e+00	0	36	0	452984832	66	4570
2026-01-18 13:44:06.92	308.43	8.08	-47.4	-49.4	17.1	0.00e+00	0	36	0	455081984	66	4541
2026-01-18 13:44:07.93	308.60	8.07	-47.1	-49.0	17.4	0.00e+00	0	36	0	457179136	66	4328
2026-01-18 13:44:08.94	308.77	8.06	-47.0	-48.8	17.6	0.00e+00	0	36	0	459276288	65	4475
2026-01-18 13:44:09.95	308.94	8.05	-47.0	-48.9	17.6	0.00e+00	0	36	0	461373440	65	4526
2026-01-18 13:44:10.95	309.10	8.04	-47.0	-48.8	17.7	0.00e+00	0	36	0	463470592	65	4464
2026-01-18 13:44:11.96	309.27	8.03	-46.9	-48.7	17.8	0.00e+00	0	36	0	464519168	65	4416
2026-01-18 13:44:12.97	309.44	8.02	-47.0	-48.9	17.5	0.00e+00	0	36	0	466616320	65	4519
2026-01-18 13:44:13.98	309.60	8.00	-47.0	-48.9	17.5	0.00e+00	0	36	0	468713472	65	4537
2026-01-18 13:44:14.99	309.77	7.99	-47.2	-49.2	17.3	0.00e+00	0	36	0	470810624	65	4669
2026-01-18 13:44:15.99	309.94	7.98	-47.3	-49.3	17.2	0.00e+00	0	36	0	471859200	65	4742
2026-01-18 13:44:17.00	310.10	7.97	-47.3	-49.3	17.2	0.00e+00	0	36	0	473956352	65	4719
2026-01-18 13:44:18.01	310.27	7.96	-47.6	-49.6	16.8	0.00e+00	0	36	0	476053504	65	4925
2026-01-18 13:44:19.02	310.44	7.94	-47.5	-49.5	16.9	0.00e+00	0	36	0	478150656	65	4863
2026-01-18 13:44:20.02	310.60	7.93	-47.4	-49.5	17.0	0.00e+00	0	36	0	480247808	65	4827
2026-01-18 13:44:21.03	310.77	7.92	-47.5	-49.6	16.9	0.00e+00	0	36	0	482344960	65	4881
2026-01-18 13:44:22.04	310.93	7.91	-47.4	-49.4	17.0	0.00e+00	0	36	0	483393536	65	4803
2026-01-18 13:44:23.05	311.10	7.89	-47.4	-49.5	17.0	0.00e+00	0	36	0	485490688	65	4837
2026-01-18 13:44:24.06	311.26	7.88	-47.6	-49.7	16.8	0.00e+00	0	36	0	487587840	65	4951
2026-01-18 13:44:25.07	311.43	7.87	-47.6	-49.7	16.8	0.00e+00	0	36	0	489684992	65	4941
2026-01-18 13:44:26.07	311.59	7.85	-47.6	-49.8	16.7	0.00e+00	0	35	0	491782144	65	5000
2026-01-18 13:44:27.08	311.76	7.84	-47.7	-49.8	16.6	0.00e+00	0	36	0	492830720	65	5021
2026-01-18 13:44:28.09	311.92	7.82	-47.8	-50.0	16.5	0.00e+00	0	36	0	494927872	66	4843
2026-01-18 13:44:29.10	312.09	7.81	-47.6	-49.7	16.8	0.00e+00	0	36	0	497025024	66	4655
2026-01-18 13:44:30.10	312.25	7.80	-47.6	-49.7	16.8	0.00e+00	0	36	0	499122176	66	4664
2026-01-18 13:44:31.11	312.42	7.78	-47.2	-49.2	17.2	0.00e+00	0	36	0	500170752	66	4413
2026-01-18 13:44:32.12	312.58	7.77	-47.2	-49.1	17.4	0.00e+00	0	36	0	502267904	66	4363
2026-01-18 13:44:33.13	312.75	7.75	-47.2	-49.1	17.3	0.00e+00	0	36	0	504365056	66	4369
2026-01-18 13:44:34.14	312.91	7.74	-47.2	-49.2	17.2	0.00e+00	0	36	0	506462208	66	4427
2026-01-18 13:44:35.15	313.07	7.72	-47.3	-49.3	17.1	0.00e+00	0	36	0	508559360	66	4483
2026-01-18 13:44:36.15	313.24	7.70	-47.4	-49.4	17.1	0.00e+00	0	36	0	510656512	66	4500
2026-01-18 13:44:37.16	313.40	7.69	-47.4	-49.4	17.1	0.00e+00	0	36	0	511705088	66	4511
2026-01-18 13:44:38.17	313.56	7.67	-47.5	-49.5	16.9	0.00e+00	0	35	0	513802240	66	4587
2026-01-18 13:44:39.18	313.73	7.66	-47.5	-49.7	16.8	0.00e+00	0	36	0	515899392	66	4653
2026-01-18 13:44:40.18	313.89	7.64	-47.6	-49.7	16.7	0.00e+00	0	36	0	517996544	66	4694
2026-01-18 13:44:41.19	314.05	7.62	-47.6	-49.7	16.7	0.00e+00	0	36	0	520093696	66	4683
2026-01-18 13:44:42.20	314.21	7.61	-47.7	-49.8	16.6	0.00e+00	0	36	0	521142272	66	4730
2026-01-18 13:44:43.21	314.38	7.59	-47.7	-49.9	16.5	0.00e+00	0	36	0	523239424	66	4775
2026-01-18 13:44:44.21	314.54	7.57	-47.8	-50.0	16.5	0.00e+00	0	36	0	525336576	66	4865
2026-01-18 13:44:45.22	314.70	7.56	-47.9	-50.2	16.3	0.00e+00	0	36	0	527433728	66	4956
2026-01-18 13:44:46.23	314.86	7.54	-47.9	-50.2	16.3	0.00e+00	0	36	0	529530880	66	4929
2026-01-18 13:44:47.24	315.02	7.52	-48.0	-50.3	16.2	0.00e+00	0	36	0	530579456	66	5001
2026-01-18 13:44:48.24	315.18	7.50	-48.0	-50.3	16.1	0.00e+00	0	36	0	532676608	66	5024
2026-01-18 13:44:49.25	315.35	7.49	-48.1	-50.4	16.1	0.00e+00	0	36	0	534773760	66	5074
2026-01-18 13:44:50.26	315.51	7.47	-47.8	-50.1	16.3	0.00e+00	0	36	0	536870912	66	4883
2026-01-18 13:44:51.27	315.67	7.45	-47.8	-50.0	16.3	0.00e+00	0	36	0	538968064	66	4867
2026-01-18 13:44:52.28	315.83	7.43	-47.6	-49.8	16.6	0.00e+00	0	36	0	540016640	66	4727
2026-01-18 13:44:53.29	315.99	7.41	-47.4	-49.5	16.9	0.00e+00	0	36	0	542113792	66	4582
2026-01-18 13:44:54.29	316.15	7.39	-47.3	-49.4	17.0	0.00e+00	0	36	0	544210944	66	4509
2026-01-18 13:44:55.30	316.31	7.37	-47.1	-49.0	17.4	0.00e+00	0	36	0	546308096	66	4317
2026-01-18 13:44:56.31	316.47	7.35	-46.9	-48.8	17.6	0.00e+00	0	36	0	548405248	65	4446
2026-01-18 13:44:57.32	316.63	7.33	-46.9	-48.7	17.7	0.00e+00	0	36	0	549453824	65	4424
2026-01-18 13:44:58.33	316.79	7.31	-46.7	-48.5	17.8	0.00e+00	0	36	0	551550976	65	4306
2026-01-18 13:44:59.33	316.95	7.30	-46.6	-48.3	18.0	0.00e+00	0	36	0	553648128	65	4229
2026-01-18 13:45:00.34	317.10	7.28	-46.4	-48.2	18.1	0.00e+00	0	36	0	555745280	64	4398
2026-01-18 13:45:01.35	317.26	7.26	-46.3	-48.0	18.3	0.00e+00	0	35	0	557842432	64	4306
2026-01-18 13:45:02.36	317.42	7.23	-46.8	-48.6	17.7	0.00e+00	0	36	0	558891008	64	4624
2026-01-18 13:45:03.36	317.58	7.21	-46.8	-48.7	17.6	0.00e+00	0	36	0	560988160	64	4668
2026-01-18 13:45:04.37	317.74	7.19	-47.2	-49.1	17.2	0.00e+00	0	36	0	563085312	65	4648
2026-01-18 13:45:05.38	317.90	7.17	-47.1	-49.1	17.2	0.00e+00	0	36	0	565182464	65	4639
2026-01-18 13:45:06.39	318.05	7.15	-47.0	-48.9	17.4	0.00e+00	0	36	0	567279616	65	4541
2026-01-18 13:45:07.40	318.21	7.13	-47.1	-49.1	17.2	0.00e+00	0	36	0	568328192	65	4635
2026-01-18 13:45:08.41	318.37	7.11	-46.9	-48.7	17.6	0.00e+00	0	36	0	570425344	65	4433
2026-01-18 13:45:09.42	318.53	7.09	-46.8	-48.7	17.6	0.00e+00	0	36	0	572522496	65	4413
2026-01-18 13:45:10.42	318.68	7.07	-47.1	-49.0	17.4	0.00e+00	0	36	0	574619648	65	4578
2026-01-18 13:45:11.43	318.84	7.05	-46.8	-48.7	17.6	0.00e+00	0	36	0	576716800	65	4408
2026-01-18 13:45:12.44	318.99	7.02	-46.7	-48.5	17.8	0.00e+00	0	36	0	578813952	65	4323
2026-01-18 13:45:13.45	319.15	7.00	-46.8	-48.7	17.7	0.00e+00	0	35	0	579862528	65	4402
2026-01-18 13:45:14.46	319.31	6.98	-47.0	-48.9	17.4	0.00e+00	0	36	0	581959680	65	4512
2026-01-18 13:45:15.47	319.46	6.96	-47.1	-49.0	17.3	0.00e+00	0	36	0	584056832	65	4582
2026-01-18 13:45:16.47	319.62	6.93	-47.0	-49.0	17.3	0.00e+00	0	36	0	586153984	65	4560
2026-01-18 13:45:17.48	319.77	6.91	-47.3	-49.4	16.9	0.00e+00	0	36	0	587202560	65	4784
2026-01-18 13:45:18.49	319.93	6.89	-47.3	-49.3	17.0	0.00e+00	0	36	0	589299712	65	4723
2026-01-18 13:45:19.50	320.08	6.87	-47.1	-49.1	17.2	0.00e+00	0	36	0	591396864	65	4635
2026-01-18 13:45:20.51	320.24	6.84	-47.1	-49.0	17.3	0.00e+00	0	36	0	593494016	65	4570
2026-01-18 13:45:21.52	320.39	6.82	-47.2	-49.2	17.1	0.00e+00	0	35	0	595591168	65	4699
2026-01-18 13:45:22.52	320.54	6.80	-47.5	-49.6	16.8	0.00e+00	0	36	0	596639744	65	4877
2026-01-18 13:45:23.53	320.70	6.77	-47.3	-49.3	17.0	0.00e+00	0	36	0	598736896	65	4740
2026-01-18 13:45:24.54	320.85	6.75	-47.2	-49.1	17.2	0.00e+00	0	36	0	600834048	65	4649
2026-01-18 13:45:25.55	321.01	6.72	-46.9	-48.8	17.5	0.00e+00	0	36	0	602931200	65	4483
2026-01-18 13:45:26.56	321.16	6.70	-46.7	-48.5	17.7	0.00e+00	0	36	0	605028352	65	4340
2026-01-18 13:45:27.57	321.31	6.68	-46.6	-48.4	17.9	0.00e+00	0	36	0	607125504	65	4243
2026-01-18 13:45:28.57	321.46	6.65	-46.7	-48.5	17.8	0.00e+00	0	36	0	608174080	64	4586
2026-01-18 13:45:29.58	321.62	6.63	-46.6	-48.4	17.9	0.00e+00	0	36	0	610271232	64	4516
2026-01-18 13:45:30.59	321.77	6.60	-46.6	-48.3	17.9	0.00e+00	0	36	0	612368384	64	4489
2026-01-18 13:45:31.60	321.92	6.58	-46.6	-48.4	17.8	0.00e+00	0	36	0	614465536	64	4537
2026-01-18 13:45:32.60	322.07	6.55	-46.8	-48.7	17.5	0.00e+00	0	36	0	615514112	64	4682
2026-01-18 13:45:33.61	322.22	6.53	-47.2	-49.3	17.0	0.00e+00	0	36	0	617611264	65	4720
2026-01-18 13:45:34.62	322.37	6.50	-47.1	-49.1	17.2	0.00e+00	0	36	0	619708416	65	4621
2026-01-18 13:45:35.63	322.52	6.48	-47.2	-49.2	17.2	0.00e+00	0	36	0	621805568	65	4662
2026-01-18 13:45:36.64	322.67	6.45	-47.3	-49.4	16.8	0.00e+00	0	35	0	623902720	65	4803
2026-01-18 13:45:37.64	322.82	6.43	-47.5	-49.7	16.6	0.00e+00	0	36	0	625999872	65	4949
2026-01-18 13:45:38.65	322.97	6.40	-47.3	-49.4	16.9	0.00e+00	0	36	0	627048448	65	4785
2026-01-18 13:45:39.66	323.12	6.37	-47.4	-49.6	16.7	0.00e+00	0	36	0	629145600	65	4890
2026-01-18 13:45:40.67	323.27	6.35	-47.4	-49.5	16.7	0.00e+00	0	36	0	631242752	65	4855
2026-01-18 13:45:41.68	323.42	6.32	-47.5	-49.7	16.6	0.00e+00	0	36	0	633339904	65	4966
2026-01-18 13:45:42.68	323.57	6.30	-47.5	-49.6	16.7	0.00e+00	0	36	0	635437056	65	4905
2026-01-18 13:45:43.69	323.72	6.27	-47.5	-49.6	16.6	0.00e+00	0	36	0	636485632	65	4923
2026-01-18 13:45:44.70	323.87	6.24	-47.3	-49.4	16.9	0.00e+00	0	36	0	638582784	65	4762
2026-01-18 13:45:45.71	324.02	6.22	-47.5	-49.7	16.6	0.00e+00	0	36	0	640679936	65	4942
2026-01-18 13:45:46.71	324.16	6.19	-47.6	-49.9	16.4	0.00e+00	0	36	0	642777088	66	4761
2026-01-18 13:45:47.72	324.31	6.16	-47.5	-49.7	16.6	0.00e+00	0	36	0	643825664	66	4670
2026-01-18 13:45:48.73	324.46	6.14	-47.8	-50.1	16.3	0.00e+00	0	36	0	645922816	66	4871
2026-01-18 13:45:49.74	324.61	6.11	-47.8	-50.1	16.2	0.00e+00	0	36	0	648019968	66	4876
2026-01-18 13:45:50.75	324.75	6.08	-47.8	-50.2	16.1	0.00e+00	0	36	0	650117120	66	4936
2026-01-18 13:45:51.75	324.90	6.05	-48.0	-50.5	15.8	0.00e+00	0	36	0	652214272	66	5104
2026-01-18 13:45:52.76	325.04	6.03	-48.2	-50.7	15.5	0.00e+00	0	36	0	654311424	66	5277
2026-01-18 13:45:53.77	325.19	6.00	-48.3	-50.9	15.3	0.00e+00	0	36	0	655360000	67	5079
2026-01-18 13:45:54.78	325.34	5.97	-48.1	-50.6	15.6	0.00e+00	0	36	0	657457152	67	4881
2026-01-18 13:45:55.79	325.48	5.94	-48.3	-50.8	15.5	0.00e+00	0	36	0	659554304	67	5007
2026-01-18 13:45:56.79	325.63	5.91	-48.3	-50.9	15.3	0.00e+00	0	36	0	661651456	67	5076
2026-01-18 13:45:57.80	325.77	5.89	-48.1	-50.6	15.6	0.00e+00	0	36	0	663748608	67	4910
2026-01-18 13:45:58.81	325.92	5.86	-48.1	-50.6	15.6	0.00e+00	0	36	0	664797184	67	4886
2026-01-18 13:45:59.82	326.06	5.83	-48.4	-51.0	15.3	0.00e+00	0	36	0	666894336	67	5132
2026-01-18 13:46:00.82	326.20	5.80	-48.4	-51.0	15.2	0.00e+00	0	36	0	668991488	67	5145
2026-01-18 13:46:01.83	326.35	5.77	-48.6	-51.4	14.8	0.00e+00	0	36	0	671088640	67	5370
2026-01-18 13:46:02.84	326.49	5.74	-48.8	-51.7	14.6	7.00e-07	0	36	0	673185792	68	5238
2026-01-18 13:46:03.85	326.64	5.71	-48.9	-51.9	14.4	0.00e+00	0	36	0	674234368	68	5351
2026-01-18 13:46:04.86	326.78	5.69	-49.0	-52.0	14.2	0.00e+00	0	36	0	676331520	68	5462
2026-01-18 13:46:05.86	326.92	5.66	-49.3	-52.7	13.6	3.80e-06	0	36	0	678428672	69	5543
2026-01-18 13:46:06.87	327.06	5.63	-48.7	-51.5	14.7	1.50e-06	0	36	0	680525824	69	4856
2026-01-18 13:46:07.88	327.21	5.60	-48.6	-51.4	14.8	0.00e+00	0	36	0	682622976	69	4806
2026-01-18 13:46:08.89	327.35	5.57	-48.4	-51.0	15.2	0.00e+00	0	36	0	683671552	68	4833
2026-01-18 13:46:09.89	327.49	5.54	-48.4	-51.0	15.3	0.00e+00	0	36	0	685768704	68	4819
2026-01-18 13:46:10.90	327.63	5.51	-48.5	-51.2	15.0	0.00e+00	0	36	0	687865856	68	4941
2026-01-18 13:46:11.91	327.77	5.48	-48.2	-50.8	15.5	0.00e+00	0	36	0	689963008	68	4716
2026-01-18 13:46:12.91	327.91	5.45	-48.2	-50.7	15.5	0.00e+00	0	36	0	692060160	68	4674
2026-01-18 13:46:13.92	328.05	5.42	-48.3	-50.9	15.4	0.00e+00	0	36	0	693108736	68	4803
2026-01-18 13:46:14.93	328.19	5.39	-48.7	-51.6	14.6	0.00e+00	0	36	0	695205888	68	5192
2026-01-18 13:46:15.94	328.33	5.36	-48.4	-51.0	15.3	0.00e+00	0	36	0	697303040	68	4825
2026-01-18 13:46:16.94	328.47	5.33	-48.6	-51.5	14.8	0.00e+00	0	36	0	699400192	68	5113
2026-01-18 13:46:17.95	328.61	5.30	-48.8	-51.8	14.4	0.00e+00	0	36	0	701497344	68	5325
2026-01-18 13:46:18.96	328.75	5.27	-48.9	-52.0	14.3	7.00e-07	0	36	0	702545920	68	5408
2026-01-18 13:46:19.97	328.89	5.24	-48.8	-51.7	14.6	7.00e-07	0	36	0	704643072	68	5239
2026-01-18 13:46:20.98	329.03	5.21	-48.9	-52.0	14.2	0.00e+00	0	36	0	706740224	68	5427
2026-01-18 13:46:21.98	329.17	5.18	-48.8	-51.7	14.5	7.00e-07	0	36	0	708837376	68	5269
2026-01-18 13:46:22.99	329.30	5.14	-49.1	-52.2	14.0	2.20e-06	0	36	0	710934528	68	5587
2026-01-18 13:46:24.00	329.44	5.11	-48.9	-51.9	14.3	1.50e-06	0	36	0	711983104	68	5369
2026-01-18 13:46:25.01	329.58	5.08	-48.9	-52.0	14.1	1.50e-06	0	36	0	714080256	68	5458
2026-01-18 13:46:26.02	329.72	5.05	-49.2	-52.5	13.6	4.50e-06	0	36	0	716177408	68	5782
2026-01-18 13:46:27.02	329.85	5.02	-49.3	-52.7	13.4	9.90e-06	0	36	0	718274560	69	5545
2026-01-18 13:46:28.03	329.99	4.99	-52.3	-64.4	4.2	3.17e-01	89	36	0	720371712	75	15072
2026-01-18 13:46:29.04	330.13	4.96	-52.8	-67.8	3.8	1.49e+00	0	36	104	720371712	76	21162
2026-01-18 13:46:30.05	330.26	4.93	-53.1	-68.0	3.8	1.49e+00	0	36	104	720371712	76	21746
2026-01-18 13:46:31.06	330.40	4.89	-53.2	-68.2	3.8	1.49e+00	0	36	104	720371712	76	22175
2026-01-18 13:46:32.07	330.53	4.86	-53.3	-68.4	3.8	1.49e+00	0	36	104	720371712	77	21270
2026-01-18 13:46:33.07	330.67	4.83	-53.5	-68.5	3.8	1.49e+00	0	36	104	720371712	77	21565
2026-01-18 13:46:34.08	330.80	4.80	-53.6	-68.6	3.8	1.49e+00	0	36	104	720371712	77	21844
2026-01-18 13:46:35.09	330.94	4.77	-53.7	-68.7	3.8	1.49e+00	0	36	104	720371712	77	22078
2026-01-18 13:46:36.10	331.07	4.73	-53.8	-68.8	3.8	1.49e+00	0	36	104	720371712	78	21088
2026-01-18 13:46:37.11	331.21	4.70	-53.8	-68.8	3.8	1.49e+00	0	36	104	720371712	78	21241
2026-01-18 13:46:38.11	331.34	4.67	-53.9	-68.9	3.8	1.49e+00	0	36	104	720371712	78	21333
2026-01-18 13:46:39.12	331.47	4.64	-53.9	-68.9	3.8	1.49e+00	0	36	104	720371712	78	21456
2026-01-18 13:46:40.13	331.61	4.60	-53.9	-69.0	3.8	1.49e+00	0	36	104	720371712	78	21595
2026-01-18 13:46:41.14	331.74	4.57	-54.0	-69.0	3.8	1.49e+00	0	36	104	720371712	78	21579
2026-01-18 13:46:42.14	331.87	4.54	-54.0	-69.0	3.8	1.49e+00	0	36	104	720371712	78	21612
2026-01-18 13:46:43.15	332.00	4.51	-54.0	-69.0	3.8	1.49e+00	0	36	104	720371712	78	21627
2026-01-18 13:46:44.16	332.14	4.47	-54.0	-69.0	3.8	1.49e+00	0	36	104	720371712	78	21638
2026-01-18 13:46:45.17	332.27	4.44	-54.0	-69.0	3.8	1.49e+00	0	36	104	720371712	78	21691
2026-01-18 13:46:46.18	332.40	4.41	-54.0	-69.0	3.8	1.49e+00	0	36	104	720371712	78	21583
2026-01-18 13:46:47.19	332.53	4.37	-54.0	-69.0	3.8	1.49e+00	0	36	104	720371712	78	21649
2026-01-18 13:46:48.19	332.66	4.34	-53.9	-69.0	3.8	1.49e+00	0	36	104	720371712	78	21551
2026-01-18 13:46:49.20	332.79	4.31	-54.0	-69.0	3.8	1.49e+00	0	36	104	720371712	78	21601
2026-01-18 13:46:50.21	332.92	4.27	-53.9	-68.9	3.8	1.49e+00	0	36	104	720371712	78	21462
2026-01-18 13:46:51.21	333.05	4.24	-53.9	-68.9	3.8	1.49e+00	0	36	104	720371712	78	21454
2026-01-18 13:46:52.22	333.18	4.21	-53.9	-68.9	3.8	1.49e+00	0	36	104	720371712	78	21409
2026-01-18 13:46:53.23	333.31	4.17	-53.9	-68.9	3.8	1.49e+00	0	36	104	720371712	78	21394
2026-01-18 13:46:54.24	333.44	4.14	-53.9	-68.9	3.8	1.49e+00	0	36	104	720371712	78	21415
2026-01-18 13:46:55.25	333.57	4.11	-53.9	-68.9	3.8	1.49e+00	0	36	104	720371712	78	21400
2026-01-18 13:46:56.26	333.70	4.07	-53.9	-68.9	3.8	1.49e+00	0	36	104	720371712	78	21333
2026-01-18 13:46:57.26	333.83	4.04	-53.9	-68.9	3.8	1.49e+00	0	36	104	720371712	78	21353
2026-01-18 13:46:58.27	333.95	4.01	-53.9	-68.9	3.8	1.49e+00	0	36	104	720371712	78	21322
2026-01-18 13:46:59.28	334.08	3.97	-53.8	-68.9	3.8	1.49e+00	0	36	104	720371712	78	21275
2026-01-18 13:47:00.29	334.21	3.94	-53.8	-68.9	3.8	1.49e+00	0	36	104	720371712	78	21315
2026-01-18 13:47:01.30	334.34	3.90	-53.8	-68.9	3.8	1.49e+00	0	36	104	720371712	78	21326
2026-01-18 13:47:02.31	334.46	3.87	-53.8	-68.9	3.8	1.49e+00	0	36	104	720371712	78	21278
2026-01-18 13:47:03.31	334.59	3.84	-53.8	-68.8	3.8	1.49e+00	0	36	104	720371712	78	21223
2026-01-18 13:47:04.32	334.72	3.80	-53.8	-68.9	3.8	1.49e+00	0	36	104	720371712	78	21293
2026-01-18 13:47:05.33	334.84	3.77	-53.8	-68.9	3.8	1.49e+00	0	36	104	720371712	78	21288
2026-01-18 13:47:06.34	334.97	3.73	-53.8	-68.8	3.8	1.49e+00	0	36	104	720371712	78	21239
2026-01-18 13:47:07.34	335.09	3.70	-53.8	-68.9	3.8	1.49e+00	0	36	104	720371712	78	21270
2026-01-18 13:47:08.35	335.22	3.66	-53.8	-68.8	3.8	1.49e+00	0	36	104	720371712	78	21223
2026-01-18 13:47:09.36	335.34	3.63	-53.8	-68.8	3.8	1.49e+00	0	36	104	720371712	78	21231
2026-01-18 13:47:10.37	335.47	3.59	-53.8	-68.8	3.8	1.49e+00	0	36	104	720371712	78	21175
2026-01-18 13:47:11.38	335.59	3.56	-53.8	-68.8	3.8	1.49e+00	0	36	104	720371712	78	21186
2026-01-18 13:47:12.39	335.72	3.52	-53.8	-68.8	3.8	1.49e+00	0	36	104	720371712	78	21228
2026-01-18 13:47:13.39	335.84	3.49	-53.8	-68.8	3.8	1.49e+00	0	36	104	720371712	78	21221
2026-01-18 13:47:14.40	335.96	3.45	-53.8	-68.8	3.8	1.49e+00	0	36	104	720371712	78	21245
2026-01-18 13:47:15.41	336.09	3.42	-53.8	-68.8	3.8	1.49e+00	0	36	104	720371712	78	21171
2026-01-18 13:47:16.42	336.21	3.38	-53.8	-68.8	3.8	1.49e+00	0	36	104	720371712	78	21202
2026-01-18 13:47:17.42	336.33	3.35	-53.8	-68.8	3.8	1.49e+00	0	36	104	720371712	78	21256
2026-01-18 13:47:18.44	336.46	3.31	-53.8	-68.8	3.8	1.49e+00	0	36	104	720371712	78	21182
2026-01-18 13:47:19.44	336.58	3.28	-53.8	-68.8	3.8	1.49e+00	0	36	104	720371712	78	21118
2026-01-18 13:47:20.45	336.70	3.24	-53.8	-68.8	3.8	1.49e+00	0	36	104	720371712	78	21183
2026-01-18 13:47:21.46	336.82	3.21	-53.8	-68.8	3.8	1.49e+00	0	36	104	720371712	78	21192
2026-01-18 13:47:22.47	336.94	3.17	-53.8	-68.8	3.8	1.49e+00	0	36	104	720371712	78	21161
2026-01-18 13:47:23.47	337.06	3.14	-53.8	-68.8	3.8	1.49e+00	0	36	104	720371712	78	21142
2026-01-18 13:47:24.48	337.18	3.10	-53.8	-68.8	3.8	1.49e+00	0	36	104	720371712	78	21091
2026-01-18 13:47:25.49	337.30	3.06	-53.8	-68.8	3.8	1.49e+00	0	36	104	720371712	78	21113
2026-01-18 13:47:26.50	337.42	3.03	-53.8	-68.8	3.8	1.49e+00	0	36	104	720371712	78	21122
2026-01-18 13:47:27.50	337.54	2.99	-53.8	-68.8	3.8	1.49e+00	0	36	104	720371712	78	21077
2026-01-18 13:47:28.51	337.66	2.96	-53.7	-68.8	3.8	1.49e+00	0	36	104	720371712	78	21076
2026-01-18 13:47:29.52	337.78	2.92	-53.7	-68.7	3.8	1.49e+00	0	36	104	720371712	78	20969
2026-01-18 13:47:30.53	337.90	2.89	-53.8	-68.8	3.8	1.49e+00	0	36	104	720371712	78	21067
2026-01-18 13:47:31.53	338.02	2.85	-53.7	-68.8	3.8	1.49e+00	0	36	104	720371712	78	21051
2026-01-18 13:47:32.54	338.14	2.81	-53.7	-68.8	3.8	1.49e+00	0	36	104	720371712	78	21059
2026-01-18 13:47:33.55	338.26	2.78	-53.7	-68.7	3.8	1.49e+00	0	36	104	720371712	78	21012
2026-01-18 13:47:34.56	338.37	2.74	-53.8	-68.8	3.8	1.49e+00	0	36	104	720371712	78	21142
2026-01-18 13:47:35.57	338.49	2.71	-53.7	-68.7	3.8	1.49e+00	0	36	104	720371712	78	21003
2026-01-18 13:47:36.57	338.61	2.67	-53.7	-68.8	3.8	1.49e+00	0	36	104	720371712	78	21148
2026-01-18 13:47:37.58	338.73	2.63	-53.7	-68.7	3.8	1.49e+00	0	36	104	720371712	78	21014
2026-01-18 13:47:38.59	338.84	2.60	-53.7	-68.8	3.8	1.49e+00	0	36	104	720371712	78	21093
2026-01-18 13:47:39.60	338.96	2.56	-53.7	-68.8	3.8	1.49e+00	0	36	104	720371712	78	21045
2026-01-18 13:47:40.61	339.08	2.52	-53.7	-68.7	3.8	1.49e+00	0	36	104	720371712	78	21001
2026-01-18 13:47:41.61	339.19	2.49	-53.7	-68.7	3.8	1.49e+00	0	36	104	720371712	78	20946
2026-01-18 13:47:42.62	339.31	2.45	-53.7	-68.7	3.8	1.49e+00	0	36	104	720371712	78	20991
2026-01-18 13:47:43.62	339.42	2.42	-53.7	-68.7	3.8	1.49e+00	0	36	104	720371712	78	21015
2026-01-18 13:47:44.64	339.54	2.38	-53.7	-68.7	3.8	1.49e+00	0	36	104	720371712	78	20941
2026-01-18 13:47:45.64	339.65	2.34	-53.7	-68.7	3.8	1.49e+00	0	36	104	720371712	78	20971
2026-01-18 13:47:46.65	339.77	2.31	-53.7	-68.7	3.8	1.49e+00	0	36	104	720371712	78	20946
2026-01-18 13:47:47.66	339.88	2.27	-53.7	-68.7	3.8	1.49e+00	0	36	104	720371712	78	20942
2026-01-18 13:47:48.67	340.00	2.23	-53.7	-68.7	3.8	1.49e+00	0	36	104	720371712	78	20981
2026-01-18 13:47:49.67	340.11	2.20	-53.7	-68.7	3.8	1.49e+00	0	36	104	720371712	78	20911
2026-01-18 13:47:50.68	340.22	2.16	-53.7	-68.7	3.8	1.49e+00	0	36	104	720371712	78	20954
2026-01-18 13:47:51.69	340.34	2.12	-53.7	-68.7	3.8	1.49e+00	0	36	104	720371712	78	20973
2026-01-18 13:47:52.70	340.45	2.09	-53.7	-68.7	3.8	1.49e+00	0	36	104	720371712	78	20957
2026-01-18 13:47:53.71	340.56	2.05	-53.7	-68.7	3.8	1.49e+00	0	36	104	720371712	78	20961
2026-01-18 13:47:54.71	340.67	2.01	-53.7	-68.7	3.8	1.49e+00	0	36	104	720371712	78	20947
2026-01-18 13:47:55.72	340.79	1.97	-53.7	-68.7	3.8	1.49e+00	0	36	104	720371712	78	20962
2026-01-18 13:47:56.73	340.90	1.94	-53.7	-68.7	3.8	1.49e+00	0	36	104	720371712	78	20969

#Closed at: 2026-01-18 13:47:57
#Recorded file [720 MB]: D:/lorett/data/31041_260118_163846.dat