passes_logs/2026/01/18/R3.2S_Murmansk/R3.2S_Murmansk__20260118_064421_TY-40_rec.log

#Pass ID: 20260118_064421_TY-40
#Satellite: TY-40
#Configuration: TY-39
#almurnet v.1.7.20251203
#Start time: 2026-01-18 06:44:23

#Version: 2.2.20231116
#Station: R3.2S_Murmansk
#Location: 33.079688 lon 68.888172 lat
#TLE: 1 56846U 23081A   26017.60585494  .00003007  00000-0  13564-3 0  9992
#TLE: 2 56846  97.3893  90.4747 0001757  76.7026 283.4406 15.21776640145106

#Time	Az	El	Level	Level2	SNR	BER	BlckErr	Temp	State	Recorded	gain1	gain2
2026-01-18 06:44:23.50	26.14	2.12	-52.1	-54.2	3.7	0.00e+00	0	39	0	0	76	17670
2026-01-18 06:44:24.49	26.26	2.17	-52.1	-54.3	3.7	0.00e+00	0	39	104	0	75	18824
2026-01-18 06:44:25.50	26.39	2.22	-52.1	-54.2	3.7	0.00e+00	0	39	104	0	75	18713
2026-01-18 06:44:26.51	26.52	2.27	-52.1	-54.2	3.7	0.00e+00	0	39	104	0	75	18745
2026-01-18 06:44:27.52	26.65	2.32	-52.1	-54.2	3.7	0.00e+00	0	39	104	0	75	18724
2026-01-18 06:44:28.52	26.78	2.37	-52.1	-54.2	3.7	0.00e+00	0	39	104	0	75	18754
2026-01-18 06:44:29.53	26.91	2.43	-52.1	-54.2	3.7	0.00e+00	0	39	104	0	75	18744
2026-01-18 06:44:30.54	27.04	2.48	-52.1	-54.2	3.7	0.00e+00	0	39	104	0	75	18747
2026-01-18 06:44:31.55	27.17	2.53	-52.1	-54.2	3.7	0.00e+00	0	39	104	0	75	18726
2026-01-18 06:44:32.56	27.30	2.58	-52.1	-54.2	3.7	0.00e+00	0	39	104	0	75	18749
2026-01-18 06:44:33.56	27.43	2.63	-52.1	-54.2	3.7	0.00e+00	0	39	104	0	75	18797
2026-01-18 06:44:34.57	27.57	2.68	-52.1	-54.2	3.7	0.00e+00	0	39	104	0	75	18756
2026-01-18 06:44:35.58	27.70	2.74	-52.1	-54.2	3.7	0.00e+00	0	39	104	0	75	18726
2026-01-18 06:44:36.59	27.84	2.79	-52.1	-54.2	3.7	0.00e+00	0	39	104	0	75	18775
2026-01-18 06:44:37.60	27.97	2.84	-52.1	-54.2	3.7	0.00e+00	0	39	104	0	75	18715
2026-01-18 06:44:38.60	28.10	2.89	-52.1	-54.2	3.7	0.00e+00	0	39	104	0	75	18810
2026-01-18 06:44:39.61	28.24	2.94	-52.1	-54.2	3.7	0.00e+00	0	39	104	0	75	18646
2026-01-18 06:44:40.62	28.38	3.00	-52.1	-54.2	3.7	0.00e+00	0	39	104	0	75	18755
2026-01-18 06:44:41.63	28.51	3.05	-52.1	-54.2	3.7	0.00e+00	0	39	104	0	75	18760
2026-01-18 06:44:42.64	28.65	3.10	-52.1	-54.2	3.7	0.00e+00	0	39	104	0	75	18762
2026-01-18 06:44:43.64	28.79	3.15	-52.1	-54.2	3.7	0.00e+00	0	39	104	0	75	18798
2026-01-18 06:44:44.65	28.93	3.20	-52.1	-54.2	3.7	0.00e+00	0	39	104	0	75	18685
2026-01-18 06:44:45.66	29.07	3.25	-52.1	-54.2	3.7	0.00e+00	0	39	104	0	75	18745
2026-01-18 06:44:46.67	29.21	3.31	-52.1	-54.2	3.7	0.00e+00	0	40	104	0	75	18771
2026-01-18 06:44:47.68	29.35	3.36	-52.1	-54.2	3.7	0.00e+00	0	39	104	0	75	18727
2026-01-18 06:44:48.69	29.49	3.41	-52.1	-54.2	3.7	0.00e+00	0	40	104	0	75	18785
2026-01-18 06:44:49.69	29.63	3.46	-52.1	-54.2	3.7	0.00e+00	0	40	104	0	75	18741
2026-01-18 06:44:50.70	29.77	3.51	-52.1	-54.2	3.7	0.00e+00	0	40	104	0	75	18793
2026-01-18 06:44:51.71	29.92	3.57	-52.1	-54.3	3.7	0.00e+00	0	40	104	0	75	18824
2026-01-18 06:44:52.71	30.06	3.62	-52.1	-54.2	3.7	0.00e+00	0	40	104	0	75	18782
2026-01-18 06:44:53.72	30.20	3.67	-52.1	-54.2	3.7	0.00e+00	0	40	104	0	75	18778
2026-01-18 06:44:54.73	30.35	3.72	-52.1	-54.2	3.7	0.00e+00	0	40	104	0	75	18764
2026-01-18 06:44:55.74	30.50	3.78	-52.1	-54.2	3.7	0.00e+00	0	40	104	0	75	18769
2026-01-18 06:44:56.75	30.64	3.83	-52.1	-54.2	3.7	0.00e+00	0	40	104	0	75	18723
2026-01-18 06:44:57.75	30.79	3.88	-52.1	-54.2	3.7	0.00e+00	0	40	104	0	75	18811
2026-01-18 06:44:58.76	30.94	3.93	-52.1	-54.3	3.7	0.00e+00	0	40	104	0	75	18823
2026-01-18 06:44:59.77	31.08	3.98	-52.1	-54.2	3.7	0.00e+00	0	40	104	0	75	18816
2026-01-18 06:45:00.78	31.23	4.04	-52.1	-54.2	3.7	0.00e+00	0	40	104	0	75	18746
2026-01-18 06:45:01.79	31.38	4.09	-52.1	-54.2	3.7	0.00e+00	0	40	104	0	75	18720
2026-01-18 06:45:02.79	31.53	4.14	-52.1	-54.2	3.7	0.00e+00	0	40	104	0	75	18776
2026-01-18 06:45:03.80	31.68	4.19	-52.1	-54.2	3.7	0.00e+00	0	40	104	0	75	18758
2026-01-18 06:45:04.81	31.84	4.24	-52.1	-54.2	3.7	0.00e+00	0	40	104	0	75	18806
2026-01-18 06:45:05.82	31.99	4.30	-52.1	-54.2	3.7	0.00e+00	0	40	104	0	75	18818
2026-01-18 06:45:06.83	32.14	4.35	-52.1	-54.2	3.7	0.00e+00	0	40	104	0	75	18700
2026-01-18 06:45:07.83	32.29	4.40	-52.1	-54.2	3.7	0.00e+00	0	40	104	0	75	18800
2026-01-18 06:45:08.84	32.45	4.45	-52.1	-54.2	3.7	0.00e+00	0	40	104	0	75	18763
2026-01-18 06:45:09.85	32.60	4.50	-52.1	-54.2	3.7	0.00e+00	0	40	104	0	75	18788
2026-01-18 06:45:10.86	32.76	4.56	-52.1	-54.2	3.7	0.00e+00	0	40	104	0	75	18792
2026-01-18 06:45:11.86	32.91	4.61	-52.1	-54.2	3.7	0.00e+00	0	40	104	0	75	18744
2026-01-18 06:45:12.87	33.07	4.66	-52.1	-54.2	3.7	0.00e+00	0	40	104	0	75	18775
2026-01-18 06:45:13.88	33.23	4.71	-52.1	-54.2	3.7	0.00e+00	0	40	104	0	75	18704
2026-01-18 06:45:14.89	33.39	4.76	-52.1	-54.2	3.7	0.00e+00	0	41	104	0	75	18701
2026-01-18 06:45:15.89	33.54	4.82	-52.1	-54.2	3.7	0.00e+00	0	41	104	0	75	18795
2026-01-18 06:45:16.90	33.70	4.87	-52.1	-54.2	3.7	0.00e+00	0	41	104	0	75	18687
2026-01-18 06:45:17.91	33.87	4.92	-52.1	-54.2	3.7	0.00e+00	0	41	104	0	75	18767
2026-01-18 06:45:18.91	34.02	4.97	-52.1	-54.2	3.7	0.00e+00	0	41	104	0	75	18759
2026-01-18 06:45:19.92	34.19	5.02	-52.1	-54.2	3.7	0.00e+00	0	41	104	0	75	18769
2026-01-18 06:45:20.93	34.35	5.08	-52.1	-54.3	3.7	0.00e+00	0	41	104	0	75	18826
2026-01-18 06:45:21.94	34.51	5.13	-51.6	-53.8	3.7	0.00e+00	0	41	104	0	75	17807
2026-01-18 06:45:22.95	34.68	5.18	-52.4	-54.6	3.7	0.00e+00	0	41	104	0	75	19501
2026-01-18 06:45:23.96	34.84	5.23	-52.0	-54.1	3.7	0.00e+00	0	41	104	0	75	18428
2026-01-18 06:45:24.97	35.01	5.28	-51.7	-53.8	3.7	0.00e+00	0	41	104	0	75	17922
2026-01-18 06:45:25.98	35.17	5.34	-51.9	-54.0	3.7	0.00e+00	0	41	104	0	75	18290
2026-01-18 06:45:26.99	35.34	5.39	-51.9	-54.1	3.7	0.00e+00	0	41	104	0	75	18406
2026-01-18 06:45:27.99	35.51	5.44	-51.9	-54.1	3.7	0.00e+00	0	41	104	0	75	18482
2026-01-18 06:45:29.00	35.68	5.49	-52.1	-54.3	3.7	0.00e+00	0	41	104	0	75	18831
2026-01-18 06:45:30.01	35.85	5.54	-52.1	-54.2	3.7	0.00e+00	0	41	104	0	75	18796
2026-01-18 06:45:31.02	36.02	5.59	-52.5	-54.7	3.7	0.00e+00	0	41	104	0	75	19747
2026-01-18 06:45:32.03	36.19	5.64	-52.5	-54.6	3.7	0.00e+00	0	41	104	0	75	19599
2026-01-18 06:45:33.03	36.36	5.70	-52.4	-54.5	3.7	0.00e+00	0	41	104	0	75	19407
2026-01-18 06:45:34.04	36.53	5.75	-52.3	-54.4	3.7	0.00e+00	0	41	104	0	75	19157
2026-01-18 06:45:35.05	36.70	5.80	-52.6	-54.7	3.7	0.00e+00	0	41	104	0	75	19826
2026-01-18 06:45:36.06	36.87	5.85	-52.5	-54.6	3.7	0.00e+00	0	41	104	0	75	19620
2026-01-18 06:45:37.06	37.05	5.90	-52.4	-54.6	3.7	0.00e+00	0	41	104	0	75	19562
2026-01-18 06:45:38.07	37.22	5.95	-52.3	-54.5	3.7	0.00e+00	0	41	104	0	75	19344
2026-01-18 06:45:39.08	37.40	6.00	-52.6	-54.8	3.7	0.00e+00	0	41	104	0	75	19955
2026-01-18 06:45:40.09	37.58	6.05	-52.5	-54.7	3.7	0.00e+00	0	41	104	0	75	19791
2026-01-18 06:45:41.10	37.75	6.11	-52.5	-54.6	3.7	0.00e+00	0	41	104	0	75	19685
2026-01-18 06:45:42.10	37.93	6.16	-52.4	-54.6	3.7	0.00e+00	0	41	104	0	75	19499
2026-01-18 06:45:43.11	38.11	6.21	-52.7	-54.8	3.7	0.00e+00	0	41	104	0	75	20048
2026-01-18 06:45:44.12	38.29	6.26	-52.6	-54.7	3.7	0.00e+00	0	41	104	0	75	19878
2026-01-18 06:45:45.13	38.47	6.31	-52.5	-54.7	3.7	0.00e+00	0	41	104	0	75	19757
2026-01-18 06:45:46.14	38.65	6.36	-52.5	-54.6	3.7	0.00e+00	0	41	104	0	75	19554
2026-01-18 06:45:47.14	38.83	6.41	-52.7	-54.8	3.7	0.00e+00	0	41	104	0	75	20110
2026-01-18 06:45:48.15	39.01	6.46	-52.6	-54.7	3.7	0.00e+00	0	41	104	0	75	19900
2026-01-18 06:45:49.16	39.20	6.51	-52.6	-54.7	3.7	0.00e+00	0	41	104	0	75	19892
2026-01-18 06:45:50.17	39.38	6.56	-52.5	-54.6	3.7	0.00e+00	0	42	104	0	75	19664
2026-01-18 06:45:51.18	39.57	6.61	-52.8	-54.9	3.7	0.00e+00	0	41	104	0	76	19129
2026-01-18 06:45:52.19	39.75	6.66	-52.7	-54.8	3.7	0.00e+00	0	41	104	0	76	18917
2026-01-18 06:45:53.19	39.94	6.71	-52.6	-54.8	3.7	0.00e+00	0	41	104	0	76	18836
2026-01-18 06:45:54.20	40.13	6.76	-52.6	-54.7	3.7	0.00e+00	0	42	104	0	76	18695
2026-01-18 06:45:55.21	40.31	6.81	-52.8	-54.9	3.7	0.00e+00	0	42	104	0	76	19203
2026-01-18 06:45:56.22	40.50	6.86	-52.7	-54.8	3.7	0.00e+00	0	41	104	0	76	19006
2026-01-18 06:45:57.22	40.69	6.91	-52.7	-54.8	3.7	0.00e+00	0	42	104	0	76	18885
2026-01-18 06:45:58.23	40.88	6.96	-52.6	-54.7	3.7	0.00e+00	0	42	104	0	76	18777
2026-01-18 06:45:59.24	41.07	7.01	-52.8	-55.0	3.7	0.00e+00	0	42	104	0	76	19298
2026-01-18 06:46:00.25	41.27	7.06	-52.8	-54.9	3.7	0.00e+00	0	42	104	0	76	19143
2026-01-18 06:46:01.25	41.46	7.11	-52.7	-54.9	3.7	0.00e+00	0	42	104	0	76	19043
2026-01-18 06:46:02.26	41.65	7.16	-52.6	-54.8	3.7	0.00e+00	0	42	104	0	76	18837
2026-01-18 06:46:03.27	41.85	7.21	-52.9	-55.0	3.7	0.00e+00	0	42	104	0	76	19279
2026-01-18 06:46:04.28	42.04	7.26	-52.8	-54.9	3.7	0.00e+00	0	42	104	0	76	19172
2026-01-18 06:46:05.29	42.24	7.31	-52.7	-54.9	3.7	0.00e+00	0	42	104	0	76	19048
2026-01-18 06:46:06.30	42.44	7.36	-52.7	-54.8	3.7	0.00e+00	0	42	104	0	76	18981
2026-01-18 06:46:07.31	42.63	7.41	-52.9	-55.0	3.7	0.00e+00	0	42	104	0	76	19323
2026-01-18 06:46:08.31	42.83	7.45	-52.8	-54.9	3.7	0.00e+00	0	42	104	0	76	19156
2026-01-18 06:46:09.32	43.03	7.50	-52.8	-54.9	3.7	0.00e+00	0	42	104	0	76	19076
2026-01-18 06:46:10.33	43.23	7.55	-52.7	-54.9	3.7	0.00e+00	0	42	104	0	76	19072
2026-01-18 06:46:11.34	43.43	7.60	-52.9	-55.0	3.7	0.00e+00	0	42	104	0	76	19380
2026-01-18 06:46:12.35	43.63	7.65	-52.8	-54.9	3.7	0.00e+00	0	42	104	0	76	19206
2026-01-18 06:46:13.35	43.84	7.69	-52.8	-54.9	3.7	0.00e+00	0	42	104	0	76	19177
2026-01-18 06:46:14.36	44.04	7.74	-52.8	-54.9	3.7	0.00e+00	0	42	104	0	76	19063
2026-01-18 06:46:15.37	44.24	7.79	-52.9	-55.0	3.7	0.00e+00	0	42	104	0	76	19428
2026-01-18 06:46:16.38	44.45	7.84	-52.8	-54.9	3.7	0.00e+00	0	42	104	0	76	19254
2026-01-18 06:46:17.39	44.66	7.88	-52.8	-54.9	3.7	0.00e+00	0	42	104	0	76	19215
2026-01-18 06:46:18.39	44.86	7.93	-52.8	-54.9	3.7	0.00e+00	0	42	104	0	76	19144
2026-01-18 06:46:19.40	45.07	7.98	-52.9	-55.0	3.7	0.00e+00	0	42	104	0	76	19476
2026-01-18 06:46:20.41	45.28	8.03	-52.9	-55.0	3.7	0.00e+00	0	42	104	0	76	19435
2026-01-18 06:46:21.42	45.49	8.07	-52.8	-54.9	3.7	0.00e+00	0	42	104	0	76	19223
2026-01-18 06:46:22.42	45.69	8.12	-52.8	-55.0	3.7	0.00e+00	0	42	104	0	76	19295
2026-01-18 06:46:23.43	45.91	8.17	-52.9	-55.1	3.7	0.00e+00	0	42	104	0	76	19486
2026-01-18 06:46:24.44	46.12	8.21	-52.9	-55.0	3.7	0.00e+00	0	42	104	0	76	19422
2026-01-18 06:46:25.45	46.33	8.26	-52.8	-55.0	3.7	0.00e+00	0	42	104	0	76	19315
2026-01-18 06:46:26.45	46.54	8.30	-52.9	-55.0	3.7	0.00e+00	0	42	104	0	76	19321
2026-01-18 06:46:27.46	46.76	8.35	-52.9	-55.0	3.7	0.00e+00	0	42	104	0	76	19478
2026-01-18 06:46:28.47	46.97	8.39	-52.9	-55.0	3.7	0.00e+00	0	42	104	0	76	19441
2026-01-18 06:46:29.48	47.19	8.44	-52.9	-55.0	3.7	0.00e+00	0	42	104	0	76	19323
2026-01-18 06:46:30.40	47.38	8.48	-52.9	-55.0	3.7	0.00e+00	0	42	104	0	76	19402
2026-01-18 06:46:31.41	47.60	8.53	-52.9	-55.1	3.7	0.00e+00	0	42	104	0	76	19538
2026-01-18 06:46:32.42	47.82	8.57	-52.9	-55.0	3.7	0.00e+00	0	42	104	0	76	19414
2026-01-18 06:46:33.43	48.04	8.62	-52.9	-55.0	3.7	0.00e+00	0	42	104	0	76	19371
2026-01-18 06:46:34.44	48.26	8.66	-52.9	-55.1	3.7	0.00e+00	0	42	104	0	76	19549
2026-01-18 06:46:35.45	48.48	8.70	-53.0	-55.1	3.7	0.00e+00	0	42	104	0	76	19533
2026-01-18 06:46:36.45	48.70	8.75	-52.9	-55.1	3.7	0.00e+00	0	42	104	0	76	19502
2026-01-18 06:46:37.46	48.92	8.79	-52.9	-55.0	3.7	0.00e+00	0	42	104	0	76	19439
2026-01-18 06:46:38.47	49.15	8.84	-53.0	-55.1	3.7	0.00e+00	0	42	104	0	76	19546
2026-01-18 06:46:39.48	49.37	8.88	-53.0	-55.1	3.7	0.00e+00	0	42	104	0	76	19617
2026-01-18 06:46:40.49	49.59	8.92	-53.0	-55.1	3.7	0.00e+00	0	42	104	0	76	19552
2026-01-18 06:46:41.49	49.82	8.96	-52.9	-55.0	3.7	0.00e+00	0	42	104	0	76	19467
2026-01-18 06:46:42.50	50.04	9.01	-53.0	-55.1	3.7	0.00e+00	0	42	104	0	76	19576
2026-01-18 06:46:43.51	50.27	9.05	-53.0	-55.1	3.7	0.00e+00	0	42	104	0	76	19697
2026-01-18 06:46:44.52	50.50	9.09	-53.0	-55.1	3.7	0.00e+00	0	42	104	0	76	19550
2026-01-18 06:46:45.53	50.73	9.13	-52.9	-55.0	3.7	0.00e+00	0	42	104	0	76	19457
2026-01-18 06:46:46.53	50.96	9.17	-53.0	-55.1	3.7	0.00e+00	0	42	104	0	76	19616
2026-01-18 06:46:47.54	51.19	9.22	-53.0	-55.1	3.7	0.00e+00	0	42	104	0	76	19652
2026-01-18 06:46:48.55	51.42	9.26	-53.0	-55.1	3.7	0.00e+00	0	42	104	0	76	19572
2026-01-18 06:46:49.56	51.65	9.30	-53.0	-55.1	3.7	0.00e+00	0	42	104	0	76	19549
2026-01-18 06:46:50.57	51.88	9.34	-53.0	-55.1	3.7	0.00e+00	0	42	104	0	76	19683
2026-01-18 06:46:51.57	52.11	9.38	-53.0	-55.1	3.7	0.00e+00	0	42	104	0	76	19694
2026-01-18 06:46:52.58	52.35	9.42	-53.0	-55.1	3.7	0.00e+00	0	42	104	0	76	19610
2026-01-18 06:46:53.59	52.58	9.46	-53.0	-55.1	3.7	0.00e+00	0	42	104	0	76	19618
2026-01-18 06:46:54.60	52.82	9.50	-53.0	-55.1	3.7	0.00e+00	0	42	104	0	76	19691
2026-01-18 06:46:55.60	53.05	9.54	-53.0	-55.1	3.7	0.00e+00	0	42	104	0	76	19685
2026-01-18 06:46:56.61	53.29	9.58	-53.0	-55.2	3.6	0.00e+00	0	42	104	0	76	19718
2026-01-18 06:46:57.62	53.53	9.61	-53.0	-55.1	3.7	0.00e+00	0	42	104	0	76	19652
2026-01-18 06:46:58.63	53.77	9.65	-53.1	-55.2	3.7	0.00e+00	0	42	104	0	76	19786
2026-01-18 06:46:59.63	54.01	9.69	-53.0	-55.2	3.7	0.00e+00	0	42	104	0	76	19759
2026-01-18 06:47:00.64	54.25	9.73	-53.0	-55.2	3.7	0.00e+00	0	42	104	0	76	19749
2026-01-18 06:47:01.65	54.49	9.77	-53.0	-55.1	3.7	0.00e+00	0	42	104	0	76	19600
2026-01-18 06:47:02.66	54.73	9.80	-53.1	-55.2	3.7	0.00e+00	0	42	104	0	76	19732
2026-01-18 06:47:03.67	54.97	9.84	-53.0	-55.2	3.7	0.00e+00	0	42	104	0	76	19725
2026-01-18 06:47:04.67	55.21	9.88	-53.0	-55.2	3.7	0.00e+00	0	42	104	0	76	19707
2026-01-18 06:47:05.68	55.46	9.91	-53.0	-55.1	3.7	0.00e+00	0	42	104	0	76	19641
2026-01-18 06:47:06.69	55.70	9.95	-53.1	-55.2	3.7	0.00e+00	0	42	104	0	76	19809
2026-01-18 06:47:07.70	55.95	9.98	-53.1	-55.2	3.7	0.00e+00	0	42	104	0	76	19790
2026-01-18 06:47:08.71	56.19	10.02	-53.0	-55.2	3.7	0.00e+00	0	42	104	0	76	19745
2026-01-18 06:47:09.71	56.44	10.05	-53.0	-55.1	3.7	0.00e+00	0	42	104	0	76	19554
2026-01-18 06:47:10.72	56.69	10.09	-53.1	-55.2	3.7	0.00e+00	0	42	104	0	76	19882
2026-01-18 06:47:11.73	56.94	10.12	-53.0	-55.2	3.7	0.00e+00	0	42	104	0	76	19735
2026-01-18 06:47:12.74	57.18	10.16	-53.0	-55.1	3.7	0.00e+00	0	42	104	0	76	19650
2026-01-18 06:47:13.75	57.43	10.19	-53.0	-55.1	3.7	0.00e+00	0	42	104	0	76	19660
2026-01-18 06:47:14.76	57.69	10.22	-53.1	-55.2	3.7	0.00e+00	0	42	104	0	76	19899
2026-01-18 06:47:15.77	57.94	10.26	-53.1	-55.2	3.7	0.00e+00	0	42	104	0	76	19817
2026-01-18 06:47:16.77	58.19	10.29	-53.0	-55.2	3.7	0.00e+00	0	42	104	0	76	19750
2026-01-18 06:47:17.78	58.44	10.32	-53.0	-55.2	3.7	0.00e+00	0	42	104	0	76	19727
2026-01-18 06:47:18.79	58.69	10.35	-53.1	-55.2	3.7	0.00e+00	0	42	104	0	76	19860
2026-01-18 06:47:19.80	58.95	10.38	-53.1	-55.2	3.7	0.00e+00	0	42	104	0	76	19847
2026-01-18 06:47:20.80	59.20	10.41	-53.1	-55.2	3.7	0.00e+00	0	42	104	0	76	19821
2026-01-18 06:47:21.81	59.45	10.44	-53.0	-55.1	3.7	0.00e+00	0	42	104	0	76	19653
2026-01-18 06:47:22.82	59.71	10.47	-53.1	-55.2	3.7	0.00e+00	0	42	104	0	76	19916
2026-01-18 06:47:23.83	59.97	10.50	-53.1	-55.2	3.7	0.00e+00	0	42	104	0	76	19916
2026-01-18 06:47:24.84	60.22	10.53	-53.1	-55.2	3.7	0.00e+00	0	42	104	0	76	19850
2026-01-18 06:47:25.85	60.48	10.56	-53.0	-55.2	3.7	0.00e+00	0	42	104	0	76	19708
2026-01-18 06:47:26.85	60.74	10.59	-53.1	-55.2	3.7	0.00e+00	0	42	104	0	76	19902
2026-01-18 06:47:27.86	61.00	10.62	-53.1	-55.2	3.7	0.00e+00	0	42	104	0	76	19923
2026-01-18 06:47:28.87	61.26	10.65	-53.1	-55.2	3.7	0.00e+00	0	42	104	0	76	19895
2026-01-18 06:47:29.88	61.52	10.67	-53.1	-55.2	3.7	0.00e+00	0	42	104	0	76	19798
2026-01-18 06:47:30.88	61.77	10.70	-53.2	-55.3	3.7	0.00e+00	0	42	104	0	76	20029
2026-01-18 06:47:31.89	62.04	10.73	-53.1	-55.2	3.7	0.00e+00	0	42	104	0	76	19926
2026-01-18 06:47:32.90	62.30	10.75	-53.1	-55.2	3.7	0.00e+00	0	42	104	0	76	19924
2026-01-18 06:47:33.91	62.56	10.78	-53.1	-55.2	3.7	0.00e+00	0	42	104	0	76	19846
2026-01-18 06:47:34.91	62.82	10.80	-53.2	-55.3	3.7	0.00e+00	0	42	104	0	76	20068
2026-01-18 06:47:35.92	63.08	10.83	-53.1	-55.3	3.7	0.00e+00	0	42	104	0	76	19989
2026-01-18 06:47:36.93	63.35	10.85	-53.1	-55.2	3.7	0.00e+00	0	42	104	0	76	19910
2026-01-18 06:47:37.94	63.61	10.88	-53.1	-55.2	3.7	0.00e+00	0	42	104	0	76	19814
2026-01-18 06:47:38.95	63.88	10.90	-53.2	-55.3	3.7	0.00e+00	0	42	104	0	76	20027
2026-01-18 06:47:39.95	64.14	10.92	-53.1	-55.3	3.7	0.00e+00	0	42	104	0	76	20020
2026-01-18 06:47:40.96	64.41	10.95	-53.1	-55.2	3.7	0.00e+00	0	42	104	0	76	19920
2026-01-18 06:47:41.97	64.67	10.97	-53.1	-55.2	3.7	0.00e+00	0	42	104	0	76	19812
2026-01-18 06:47:42.97	64.94	10.99	-53.2	-55.3	3.7	0.00e+00	0	42	104	0	76	20036
2026-01-18 06:47:43.98	65.21	11.01	-53.1	-55.3	3.7	0.00e+00	0	42	104	0	76	19935
2026-01-18 06:47:44.99	65.47	11.03	-53.1	-55.2	3.7	0.00e+00	0	42	104	0	76	19886
2026-01-18 06:47:46.00	65.74	11.05	-53.1	-55.2	3.7	0.00e+00	0	42	104	0	76	19854
2026-01-18 06:47:47.00	66.01	11.07	-53.2	-55.3	3.7	0.00e+00	0	42	104	0	76	20099
2026-01-18 06:47:48.01	66.28	11.09	-53.1	-55.2	3.7	0.00e+00	0	43	104	0	76	19823
2026-01-18 06:47:49.02	66.55	11.11	-53.1	-55.2	3.7	0.00e+00	0	42	104	0	76	19928
2026-01-18 06:47:50.03	66.82	11.13	-53.1	-55.2	3.7	0.00e+00	0	43	104	0	76	19804
2026-01-18 06:47:51.03	67.09	11.15	-53.2	-55.3	3.7	0.00e+00	0	42	104	0	76	20061
2026-01-18 06:47:52.04	67.36	11.17	-53.2	-55.3	3.7	0.00e+00	0	42	104	0	76	19983
2026-01-18 06:47:53.05	67.63	11.18	-53.1	-55.3	3.7	0.00e+00	0	43	104	0	76	20006
2026-01-18 06:47:54.06	67.90	11.20	-53.1	-55.2	3.7	0.00e+00	0	42	104	0	76	19843
2026-01-18 06:47:55.07	68.17	11.22	-53.2	-55.3	3.7	0.00e+00	0	42	104	0	76	20002
2026-01-18 06:47:56.07	68.44	11.23	-53.1	-55.3	3.7	0.00e+00	0	42	104	0	76	19974
2026-01-18 06:47:57.08	68.72	11.25	-53.1	-55.2	3.7	0.00e+00	0	42	104	0	76	19819
2026-01-18 06:47:58.09	68.99	11.26	-53.1	-55.2	3.7	0.00e+00	0	43	104	0	76	19886
2026-01-18 06:47:59.10	69.26	11.27	-53.2	-55.3	3.7	0.00e+00	0	42	104	0	76	19972
2026-01-18 06:48:00.10	69.54	11.29	-53.1	-55.3	3.7	0.00e+00	0	42	104	0	76	19968
2026-01-18 06:48:01.11	69.81	11.30	-53.1	-55.2	3.7	0.00e+00	0	42	104	0	76	19787
2026-01-18 06:48:02.12	70.08	11.31	-53.0	-55.0	3.7	0.00e+00	0	42	104	0	76	19367
2026-01-18 06:48:03.13	70.36	11.33	-53.1	-55.2	3.7	0.00e+00	0	42	104	0	76	19861
2026-01-18 06:48:04.13	70.63	11.34	-53.1	-55.2	3.7	0.00e+00	0	42	104	0	76	19820
2026-01-18 06:48:05.14	70.91	11.35	-53.0	-55.1	3.7	0.00e+00	0	43	104	0	76	19563
2026-01-18 06:48:06.15	71.18	11.36	-53.1	-55.3	3.7	0.00e+00	0	43	104	0	76	19974
2026-01-18 06:48:07.16	71.46	11.37	-53.2	-55.3	3.7	0.00e+00	0	42	104	0	76	20097
2026-01-18 06:48:08.17	71.73	11.38	-53.2	-55.3	3.7	0.00e+00	0	42	104	0	76	20005
2026-01-18 06:48:09.18	72.01	11.39	-53.1	-55.2	3.7	0.00e+00	0	42	104	0	76	19909
2026-01-18 06:48:10.19	72.29	11.40	-53.1	-55.3	3.7	0.00e+00	0	42	104	0	76	19965
2026-01-18 06:48:11.19	72.56	11.40	-53.2	-55.3	3.7	0.00e+00	0	42	104	0	76	20069
2026-01-18 06:48:12.20	72.84	11.41	-53.2	-55.3	3.7	0.00e+00	0	42	104	0	76	20068
2026-01-18 06:48:13.21	73.11	11.42	-53.2	-55.3	3.7	0.00e+00	0	42	104	0	76	20016
2026-01-18 06:48:14.22	73.39	11.43	-53.1	-55.3	3.7	0.00e+00	0	42	104	0	76	19991
2026-01-18 06:48:15.23	73.67	11.43	-53.2	-55.3	3.7	0.00e+00	0	42	104	0	76	20080
2026-01-18 06:48:16.23	73.94	11.44	-53.2	-55.3	3.7	0.00e+00	0	42	104	0	76	19972
2026-01-18 06:48:17.24	74.22	11.44	-53.1	-55.3	3.7	0.00e+00	0	42	104	0	76	19999
2026-01-18 06:48:18.25	74.50	11.45	-53.1	-55.2	3.7	0.00e+00	0	42	104	0	76	19873
2026-01-18 06:48:19.26	74.78	11.45	-53.2	-55.3	3.7	0.00e+00	0	42	104	0	76	20077
2026-01-18 06:48:20.27	75.06	11.45	-53.2	-55.3	3.7	0.00e+00	0	42	104	0	76	20006
2026-01-18 06:48:21.28	75.33	11.46	-53.1	-55.2	3.7	0.00e+00	0	42	104	0	76	19930
2026-01-18 06:48:22.29	75.61	11.46	-53.1	-55.3	3.7	0.00e+00	0	43	104	0	76	19985
2026-01-18 06:48:23.29	75.89	11.46	-53.2	-55.3	3.7	0.00e+00	0	42	104	0	76	20081
2026-01-18 06:48:24.30	76.17	11.46	-53.2	-55.3	3.7	0.00e+00	0	42	104	0	76	19979
2026-01-18 06:48:25.31	76.44	11.46	-53.1	-55.2	3.7	0.00e+00	0	42	104	0	76	19924
2026-01-18 06:48:26.32	76.72	11.46	-53.1	-55.3	3.7	0.00e+00	0	43	104	0	76	19964
2026-01-18 06:48:27.33	77.00	11.46	-53.2	-55.3	3.7	0.00e+00	0	42	104	0	76	20101
2026-01-18 06:48:28.34	77.28	11.46	-53.2	-55.3	3.7	0.00e+00	0	42	104	0	76	20020
2026-01-18 06:48:29.35	77.56	11.46	-53.1	-55.3	3.7	0.00e+00	0	43	104	0	76	19960
2026-01-18 06:48:30.35	77.83	11.46	-53.1	-55.3	3.7	0.00e+00	0	42	104	0	76	20018
2026-01-18 06:48:31.36	78.11	11.46	-53.2	-55.3	3.7	0.00e+00	0	42	104	0	76	20095
2026-01-18 06:48:32.37	78.39	11.45	-53.2	-55.3	3.7	0.00e+00	0	42	104	0	76	19964
2026-01-18 06:48:33.38	78.67	11.45	-53.1	-55.3	3.7	0.00e+00	0	42	104	0	76	19940
2026-01-18 06:48:34.39	78.94	11.45	-53.2	-55.3	3.7	0.00e+00	0	43	104	0	76	19990
2026-01-18 06:48:35.39	79.22	11.44	-53.2	-55.3	3.7	0.00e+00	0	43	104	0	76	20099
2026-01-18 06:48:36.40	79.50	11.44	-53.2	-55.3	3.7	0.00e+00	0	42	104	0	76	20011
2026-01-18 06:48:37.41	79.77	11.43	-53.1	-55.3	3.7	0.00e+00	0	43	104	0	76	20003
2026-01-18 06:48:38.41	80.05	11.43	-53.2	-55.3	3.7	0.00e+00	0	42	104	0	76	19968
2026-01-18 06:48:39.42	80.33	11.42	-53.2	-55.3	3.7	0.00e+00	0	43	104	0	76	20060
2026-01-18 06:48:40.42	80.60	11.41	-53.2	-55.3	3.7	0.00e+00	0	42	104	0	76	20050
2026-01-18 06:48:41.43	80.88	11.40	-53.1	-55.3	3.7	0.00e+00	0	42	104	0	76	19965
2026-01-18 06:48:42.44	81.16	11.40	-53.2	-55.3	3.7	0.00e+00	0	43	104	0	76	20022
2026-01-18 06:48:43.45	81.43	11.39	-53.2	-55.3	3.7	0.00e+00	0	42	104	0	76	20088
2026-01-18 06:48:44.46	81.71	11.38	-53.2	-55.3	3.7	0.00e+00	0	43	104	0	76	19992
2026-01-18 06:48:45.48	81.99	11.37	-53.1	-55.3	3.7	0.00e+00	0	42	104	0	76	19957
2026-01-18 06:48:46.48	82.26	11.36	-53.2	-55.3	3.7	0.00e+00	0	42	104	0	76	20005
2026-01-18 06:48:47.49	82.54	11.35	-53.2	-55.3	3.7	0.00e+00	0	43	104	0	76	20013
2026-01-18 06:48:48.50	82.81	11.34	-53.2	-55.3	3.7	0.00e+00	0	42	104	0	76	19989
2026-01-18 06:48:49.51	83.09	11.32	-53.1	-55.3	3.7	0.00e+00	0	43	104	0	76	19977
2026-01-18 06:48:50.51	83.36	11.31	-53.2	-55.3	3.7	0.00e+00	0	42	104	0	76	19981
2026-01-18 06:48:51.52	83.64	11.30	-53.2	-55.3	3.7	0.00e+00	0	43	104	0	76	20022
2026-01-18 06:48:52.53	83.91	11.29	-53.2	-55.3	3.7	0.00e+00	0	43	104	0	76	19974
2026-01-18 06:48:53.54	84.18	11.27	-53.1	-55.2	3.7	0.00e+00	0	43	104	0	76	19884
2026-01-18 06:48:54.55	84.46	11.26	-53.2	-55.3	3.7	0.00e+00	0	43	104	0	76	20039
2026-01-18 06:48:55.56	84.73	11.24	-53.2	-55.3	3.7	0.00e+00	0	43	104	0	76	20010
2026-01-18 06:48:56.56	85.00	11.23	-53.2	-55.3	3.7	0.00e+00	0	42	104	0	76	20052
2026-01-18 06:48:57.57	85.28	11.21	-53.1	-55.2	3.7	0.00e+00	0	42	104	0	76	19875
2026-01-18 06:48:58.58	85.55	11.20	-53.2	-55.3	3.7	0.00e+00	0	42	104	0	76	20108
2026-01-18 06:48:59.59	85.82	11.18	-53.2	-55.3	3.7	0.00e+00	0	43	104	0	76	19976
2026-01-18 06:49:00.60	86.09	11.16	-53.1	-55.3	3.7	0.00e+00	0	43	104	0	76	19967
2026-01-18 06:49:01.61	86.36	11.15	-53.1	-55.3	3.7	0.00e+00	0	42	104	0	76	19944
2026-01-18 06:49:02.61	86.63	11.13	-53.2	-55.3	3.7	0.00e+00	0	42	104	0	76	20097
2026-01-18 06:49:03.62	86.90	11.11	-53.2	-55.3	3.7	0.00e+00	0	43	104	0	76	20011
2026-01-18 06:49:04.63	87.17	11.09	-53.1	-55.3	3.7	0.00e+00	0	43	104	0	76	19979
2026-01-18 06:49:05.63	87.44	11.07	-53.1	-55.2	3.7	0.00e+00	0	43	104	0	76	19866
2026-01-18 06:49:06.64	87.71	11.05	-53.2	-55.3	3.7	0.00e+00	0	42	104	0	76	20083
2026-01-18 06:49:07.65	87.98	11.03	-53.2	-55.3	3.7	0.00e+00	0	42	104	0	76	19972
2026-01-18 06:49:08.66	88.25	11.01	-53.1	-55.3	3.7	0.00e+00	0	43	104	0	76	19992
2026-01-18 06:49:09.67	88.52	10.99	-53.1	-55.2	3.7	0.00e+00	0	43	104	0	76	19875
2026-01-18 06:49:10.67	88.78	10.97	-53.2	-55.3	3.7	0.00e+00	0	43	104	0	76	20061
2026-01-18 06:49:11.68	89.05	10.94	-53.1	-55.3	3.7	0.00e+00	0	42	104	0	76	20029
2026-01-18 06:49:12.69	89.32	10.92	-53.1	-55.3	3.7	0.00e+00	0	43	104	0	76	19987
2026-01-18 06:49:13.70	89.58	10.90	-53.1	-55.2	3.7	0.00e+00	0	42	104	0	76	19833
2026-01-18 06:49:14.71	89.85	10.87	-53.2	-55.3	3.7	0.00e+00	0	42	104	0	76	20013
2026-01-18 06:49:15.71	90.11	10.85	-53.2	-55.3	3.7	0.00e+00	0	43	104	0	76	20000
2026-01-18 06:49:16.72	90.38	10.83	-53.1	-55.3	3.7	0.00e+00	0	43	104	0	76	19979
2026-01-18 06:49:17.73	90.64	10.80	-53.1	-55.2	3.7	0.00e+00	0	43	104	0	76	19856
2026-01-18 06:49:18.74	90.90	10.78	-53.2	-55.3	3.7	0.00e+00	0	43	104	0	76	20111
2026-01-18 06:49:19.75	91.17	10.75	-53.1	-55.3	3.7	0.00e+00	0	43	104	0	76	19963
2026-01-18 06:49:20.75	91.43	10.72	-53.1	-55.2	3.7	0.00e+00	0	42	104	0	76	19868
2026-01-18 06:49:21.76	91.69	10.70	-53.1	-55.2	3.7	0.00e+00	0	42	104	0	76	19803
2026-01-18 06:49:22.77	91.95	10.67	-53.2	-55.3	3.7	0.00e+00	0	42	104	0	76	20041
2026-01-18 06:49:23.78	92.21	10.64	-53.1	-55.2	3.7	0.00e+00	0	42	104	0	76	19911
2026-01-18 06:49:24.79	92.47	10.61	-53.1	-55.2	3.7	0.00e+00	0	43	104	0	76	19924
2026-01-18 06:49:25.79	92.73	10.59	-53.1	-55.2	3.7	0.00e+00	0	43	104	0	76	19801
2026-01-18 06:49:26.80	92.99	10.56	-53.2	-55.3	3.7	0.00e+00	0	42	104	0	76	20034
2026-01-18 06:49:27.81	93.25	10.53	-53.1	-55.2	3.7	0.00e+00	0	43	104	0	76	19907
2026-01-18 06:49:28.82	93.51	10.50	-53.1	-55.2	3.7	0.00e+00	0	42	104	0	76	19929
2026-01-18 06:49:29.83	93.76	10.47	-53.1	-55.2	3.7	0.00e+00	0	42	104	0	76	19786
2026-01-18 06:49:30.84	94.02	10.44	-53.2	-55.3	3.7	0.00e+00	0	42	104	0	76	20087
2026-01-18 06:49:31.85	94.28	10.41	-53.1	-55.3	3.7	0.00e+00	0	43	104	0	76	19962
2026-01-18 06:49:32.85	94.53	10.38	-53.1	-55.2	3.7	0.00e+00	0	42	104	0	76	19890
2026-01-18 06:49:33.86	94.78	10.35	-53.1	-55.2	3.7	0.00e+00	0	42	104	0	76	19722
2026-01-18 06:49:34.87	95.04	10.31	-53.2	-55.3	3.7	0.00e+00	0	42	104	0	76	20057
2026-01-18 06:49:35.88	95.29	10.28	-53.1	-55.2	3.7	0.00e+00	0	43	104	0	76	19872
2026-01-18 06:49:36.89	95.54	10.25	-53.1	-55.2	3.7	0.00e+00	0	42	104	0	76	19880
2026-01-18 06:49:37.89	95.79	10.22	-53.0	-55.2	3.7	0.00e+00	0	42	104	0	76	19744
2026-01-18 06:49:38.90	96.04	10.18	-53.2	-55.3	3.7	0.00e+00	0	42	104	0	76	19994
2026-01-18 06:49:39.91	96.29	10.15	-53.1	-55.2	3.7	0.00e+00	0	43	104	0	76	19891
2026-01-18 06:49:40.92	96.55	10.11	-53.1	-55.2	3.7	0.00e+00	0	42	104	0	76	19865
2026-01-18 06:49:41.93	96.79	10.08	-53.0	-55.2	3.7	0.00e+00	0	43	104	0	76	19743
2026-01-18 06:49:42.94	97.04	10.05	-53.1	-55.3	3.7	0.00e+00	0	42	104	0	76	19985
2026-01-18 06:49:43.95	97.29	10.01	-53.1	-55.2	3.7	0.00e+00	0	42	104	0	76	19878
2026-01-18 06:49:44.95	97.54	9.97	-53.1	-55.2	3.7	0.00e+00	0	43	104	0	76	19850
2026-01-18 06:49:45.96	97.78	9.94	-53.0	-55.2	3.7	0.00e+00	0	43	104	0	76	19750
2026-01-18 06:49:46.97	98.03	9.90	-53.1	-55.2	3.7	0.00e+00	0	42	104	0	76	19924
2026-01-18 06:49:47.98	98.27	9.87	-53.1	-55.2	3.7	0.00e+00	0	42	104	0	76	19817
2026-01-18 06:49:48.99	98.52	9.83	-53.1	-55.2	3.7	0.00e+00	0	42	104	0	76	19856
2026-01-18 06:49:49.99	98.76	9.79	-53.0	-55.2	3.7	0.00e+00	0	43	104	0	76	19750
2026-01-18 06:49:51.00	99.00	9.76	-53.1	-55.2	3.7	0.00e+00	0	42	104	0	76	19928
2026-01-18 06:49:52.01	99.24	9.72	-53.1	-55.2	3.7	0.00e+00	0	43	104	0	76	19802
2026-01-18 06:49:53.02	99.49	9.68	-53.1	-55.2	3.7	0.00e+00	0	43	104	0	76	19866
2026-01-18 06:49:54.02	99.72	9.64	-53.0	-55.2	3.7	0.00e+00	0	42	104	0	76	19731
2026-01-18 06:49:55.03	99.96	9.60	-53.1	-55.2	3.7	0.00e+00	0	43	104	0	76	19912
2026-01-18 06:49:56.04	100.20	9.56	-53.1	-55.2	3.7	0.00e+00	0	42	104	0	76	19837
2026-01-18 06:49:57.05	100.44	9.52	-53.1	-55.2	3.7	0.00e+00	0	43	104	0	76	19804
2026-01-18 06:49:58.05	100.68	9.49	-53.0	-55.1	3.7	0.00e+00	0	42	104	0	76	19657
2026-01-18 06:49:59.06	100.91	9.45	-53.1	-55.2	3.7	0.00e+00	0	42	104	0	76	19919
2026-01-18 06:50:00.07	101.15	9.41	-53.1	-55.2	3.7	0.00e+00	0	43	104	0	76	19831
2026-01-18 06:50:01.07	101.38	9.37	-53.1	-55.2	3.7	0.00e+00	0	42	104	0	76	19824
2026-01-18 06:50:02.08	101.62	9.33	-53.0	-55.1	3.7	0.00e+00	0	43	104	0	76	19645
2026-01-18 06:50:03.09	101.85	9.28	-53.1	-55.3	3.7	0.00e+00	0	42	104	0	76	19939
2026-01-18 06:50:04.10	102.08	9.24	-53.1	-55.2	3.7	0.00e+00	0	42	104	0	76	19819
2026-01-18 06:50:05.11	102.32	9.20	-53.1	-55.2	3.7	0.00e+00	0	42	104	0	76	19793
2026-01-18 06:50:06.11	102.54	9.16	-53.0	-55.1	3.7	0.00e+00	0	42	104	0	76	19682
2026-01-18 06:50:07.12	102.77	9.12	-53.1	-55.3	3.7	0.00e+00	0	42	104	0	76	19939
2026-01-18 06:50:08.12	103.00	9.08	-53.1	-55.2	3.7	0.00e+00	0	42	104	0	76	19831
2026-01-18 06:50:09.13	103.23	9.03	-53.1	-55.2	3.7	0.00e+00	0	42	104	0	76	19825
2026-01-18 06:50:10.14	103.46	8.99	-53.0	-55.1	3.7	0.00e+00	0	43	104	0	76	19698
2026-01-18 06:50:11.15	103.69	8.95	-53.1	-55.2	3.7	0.00e+00	0	42	104	0	76	19903
2026-01-18 06:50:12.15	103.91	8.91	-53.1	-55.2	3.7	0.00e+00	0	42	104	0	76	19766
2026-01-18 06:50:13.16	104.14	8.86	-53.1	-55.2	3.7	0.00e+00	0	42	104	0	76	19794
2026-01-18 06:50:14.17	104.36	8.82	-53.0	-55.1	3.7	0.00e+00	0	43	104	0	76	19670
2026-01-18 06:50:15.17	104.58	8.78	-53.1	-55.2	3.7	0.00e+00	0	42	104	0	76	19877
2026-01-18 06:50:16.18	104.81	8.73	-53.0	-55.2	3.7	0.00e+00	0	42	104	0	76	19760
2026-01-18 06:50:17.19	105.03	8.69	-53.1	-55.2	3.7	0.00e+00	0	42	104	0	76	19814
2026-01-18 06:50:18.20	105.25	8.64	-53.0	-55.1	3.7	0.00e+00	0	42	104	0	76	19688
2026-01-18 06:50:19.21	105.47	8.60	-53.1	-55.2	3.7	0.00e+00	0	42	104	0	76	19911
2026-01-18 06:50:20.21	105.69	8.55	-53.1	-55.2	3.7	0.00e+00	0	42	104	0	76	19759
2026-01-18 06:50:21.22	105.91	8.51	-53.1	-55.2	3.7	0.00e+00	0	42	104	0	76	19775
2026-01-18 06:50:22.23	106.13	8.46	-53.0	-55.2	3.7	0.00e+00	0	42	104	0	76	19766
2026-01-18 06:50:23.23	106.34	8.42	-53.1	-55.2	3.7	0.00e+00	0	42	104	0	76	19882
2026-01-18 06:50:24.24	106.56	8.37	-53.1	-55.2	3.7	0.00e+00	0	42	104	0	76	19800
2026-01-18 06:50:25.25	106.78	8.33	-53.1	-55.2	3.7	0.00e+00	0	42	104	0	76	19775
2026-01-18 06:50:26.26	106.99	8.28	-53.0	-55.1	3.7	0.00e+00	0	43	104	0	76	19671
2026-01-18 06:50:27.27	107.21	8.23	-53.1	-55.2	3.7	0.00e+00	0	43	104	0	76	19873
2026-01-18 06:50:28.27	107.42	8.19	-53.1	-55.2	3.7	0.00e+00	0	42	104	0	76	19856
2026-01-18 06:50:29.28	107.63	8.14	-53.1	-55.2	3.7	0.00e+00	0	42	104	0	76	19751
2026-01-18 06:50:30.29	107.84	8.09	-53.0	-55.2	3.7	0.00e+00	0	43	104	0	76	19711
2026-01-18 06:50:31.30	108.05	8.05	-53.1	-55.2	3.7	0.00e+00	0	42	104	0	76	19885
2026-01-18 06:50:32.31	108.26	8.00	-53.1	-55.2	3.7	0.00e+00	0	42	104	0	76	19848
2026-01-18 06:50:33.31	108.47	7.95	-53.1	-55.2	3.7	0.00e+00	0	42	104	0	76	19778
2026-01-18 06:50:34.32	108.68	7.91	-53.0	-55.2	3.7	0.00e+00	0	42	104	0	76	19717
2026-01-18 06:50:35.33	108.89	7.86	-53.1	-55.2	3.7	0.00e+00	0	42	104	0	76	19805
2026-01-18 06:50:36.34	109.09	7.81	-53.1	-55.2	3.7	0.00e+00	0	42	104	0	76	19792
2026-01-18 06:50:37.34	109.30	7.76	-53.0	-55.2	3.7	0.00e+00	0	42	104	0	76	19740
2026-01-18 06:50:38.35	109.50	7.71	-53.0	-55.1	3.7	0.00e+00	0	42	104	0	76	19626
2026-01-18 06:50:39.36	109.71	7.67	-53.1	-55.2	3.6	0.00e+00	0	42	104	0	76	19781
2026-01-18 06:50:40.36	109.91	7.62	-53.1	-55.2	3.7	0.00e+00	0	42	104	0	76	19779
2026-01-18 06:50:41.37	110.11	7.57	-53.0	-55.2	3.7	0.00e+00	0	42	104	0	76	19727
2026-01-18 06:50:42.38	110.32	7.52	-53.0	-55.1	3.7	0.00e+00	0	42	104	0	76	19638
2026-01-18 06:50:43.39	110.52	7.47	-53.1	-55.2	3.7	0.00e+00	0	42	104	0	76	19780
2026-01-18 06:50:44.40	110.72	7.42	-53.0	-55.2	3.7	0.00e+00	0	42	104	0	76	19762
2026-01-18 06:50:45.41	110.92	7.37	-53.0	-55.1	3.7	0.00e+00	0	42	104	0	76	19634
2026-01-18 06:50:46.41	111.11	7.33	-53.0	-55.1	3.7	0.00e+00	0	43	104	0	76	19560
2026-01-18 06:50:47.42	111.31	7.28	-53.1	-55.2	3.7	0.00e+00	0	42	104	0	76	19848
2026-01-18 06:50:48.43	111.51	7.23	-53.1	-55.3	3.7	0.00e+00	0	42	104	0	76	19964
2026-01-18 06:50:49.44	111.70	7.18	-53.1	-55.2	3.7	0.00e+00	0	43	104	0	76	19805
2026-01-18 06:50:50.44	111.90	7.13	-53.0	-55.1	3.7	0.00e+00	0	42	104	0	76	19670
2026-01-18 06:50:51.45	112.09	7.08	-53.0	-55.2	3.7	0.00e+00	0	42	104	0	76	19724
2026-01-18 06:50:52.46	112.29	7.03	-53.1	-55.2	3.7	0.00e+00	0	42	104	0	76	19829
2026-01-18 06:50:53.47	112.48	6.98	-53.0	-55.1	3.7	0.00e+00	0	42	104	0	76	19691
2026-01-18 06:50:54.47	112.67	6.93	-53.0	-55.2	3.7	0.00e+00	0	43	104	0	76	19772
2026-01-18 06:50:55.48	112.86	6.88	-53.0	-55.2	3.7	0.00e+00	0	42	104	0	76	19714
2026-01-18 06:50:56.49	113.05	6.83	-53.1	-55.1	3.7	0.00e+00	0	42	104	0	76	19687
2026-01-18 06:50:57.50	113.24	6.78	-53.0	-55.1	3.7	0.00e+00	0	42	104	0	76	19493
2026-01-18 06:50:58.51	113.43	6.73	-53.0	-55.1	3.7	0.00e+00	0	42	104	0	76	19585
2026-01-18 06:50:59.51	113.62	6.68	-53.0	-55.1	3.7	0.00e+00	0	42	104	0	76	19645
2026-01-18 06:51:00.52	113.81	6.63	-53.0	-55.2	3.7	0.00e+00	0	42	104	0	76	19710
2026-01-18 06:51:01.53	113.99	6.58	-52.9	-55.0	3.7	0.00e+00	0	43	104	0	76	19389
2026-01-18 06:51:02.54	114.18	6.53	-53.0	-55.1	3.7	0.00e+00	0	42	104	0	76	19604
2026-01-18 06:51:03.55	114.36	6.47	-52.9	-55.0	3.7	0.00e+00	0	42	104	0	76	19325
2026-01-18 06:51:04.55	114.55	6.42	-52.9	-55.0	3.7	0.00e+00	0	42	104	0	76	19421
2026-01-18 06:51:05.56	114.73	6.37	-52.8	-54.9	3.7	0.00e+00	0	43	104	0	76	19111
2026-01-18 06:51:06.57	114.91	6.32	-52.9	-55.0	3.7	0.00e+00	0	43	104	0	76	19350
2026-01-18 06:51:07.58	115.10	6.27	-52.8	-54.9	3.7	0.00e+00	0	42	104	0	76	19205
2026-01-18 06:51:08.59	115.28	6.22	-52.8	-54.9	3.7	0.00e+00	0	42	104	0	76	19229
2026-01-18 06:51:09.59	115.46	6.17	-52.7	-54.8	3.7	0.00e+00	0	42	104	0	76	18942
2026-01-18 06:51:10.59	115.63	6.12	-52.8	-54.9	3.7	0.00e+00	0	42	104	0	76	19227
2026-01-18 06:51:11.60	115.81	6.07	-52.7	-54.8	3.7	0.00e+00	0	42	104	0	76	18994
2026-01-18 06:51:12.61	115.99	6.01	-52.8	-54.9	3.7	0.00e+00	0	42	104	0	76	19098
2026-01-18 06:51:13.62	116.17	5.96	-52.6	-54.8	3.7	0.00e+00	0	42	104	0	76	18824
2026-01-18 06:51:14.63	116.34	5.91	-52.8	-54.9	3.7	0.00e+00	0	42	104	0	76	19211
2026-01-18 06:51:15.64	116.52	5.86	-52.7	-54.8	3.7	0.00e+00	0	42	104	0	76	19006
2026-01-18 06:51:16.65	116.70	5.81	-52.7	-54.9	3.7	0.00e+00	0	42	104	0	76	19064
2026-01-18 06:51:17.65	116.87	5.76	-52.5	-54.7	3.7	0.00e+00	0	43	104	0	76	18660
2026-01-18 06:51:18.66	117.04	5.70	-52.8	-54.9	3.7	0.00e+00	0	42	104	0	76	19064
2026-01-18 06:51:19.66	117.21	5.65	-52.6	-54.7	3.7	0.00e+00	0	43	104	0	76	18788
2026-01-18 06:51:20.67	117.39	5.60	-52.6	-54.7	3.7	0.00e+00	0	42	104	0	76	18808
2026-01-18 06:51:21.68	117.56	5.55	-52.5	-54.6	3.7	0.00e+00	0	42	104	0	76	18463
2026-01-18 06:51:22.69	117.73	5.50	-52.7	-54.8	3.7	0.00e+00	0	42	104	0	76	18949
2026-01-18 06:51:23.70	117.90	5.44	-52.5	-54.7	3.7	0.00e+00	0	42	104	0	76	18664
2026-01-18 06:51:24.71	118.07	5.39	-52.6	-54.7	3.7	0.00e+00	0	42	104	0	76	18653
2026-01-18 06:51:25.71	118.23	5.34	-52.4	-54.5	3.7	0.00e+00	0	42	104	0	76	18225
2026-01-18 06:51:26.72	118.40	5.29	-52.6	-54.8	3.7	0.00e+00	0	43	104	0	76	18890
2026-01-18 06:51:27.73	118.57	5.24	-52.4	-54.6	3.7	0.00e+00	0	43	104	0	76	18395
2026-01-18 06:51:28.73	118.73	5.18	-52.5	-54.6	3.7	0.00e+00	0	43	104	0	76	18461
2026-01-18 06:51:29.74	118.90	5.13	-52.2	-54.3	3.7	0.00e+00	0	42	104	0	76	17826
2026-01-18 06:51:30.75	119.06	5.08	-52.6	-54.7	3.7	0.00e+00	0	42	104	0	76	18691
2026-01-18 06:51:31.75	119.23	5.03	-52.4	-54.5	3.7	0.00e+00	0	43	104	0	76	18218
2026-01-18 06:51:32.76	119.39	4.98	-52.5	-54.6	3.7	0.00e+00	0	42	104	0	76	18462
2026-01-18 06:51:33.77	119.55	4.92	-52.8	-55.0	3.7	0.00e+00	0	43	104	0	76	19382
2026-01-18 06:51:34.77	119.71	4.87	-53.2	-55.3	3.7	0.00e+00	0	42	104	0	76	19991
2026-01-18 06:51:35.78	119.87	4.82	-53.4	-55.5	3.7	0.00e+00	0	43	104	0	77	19323
2026-01-18 06:51:36.79	120.03	4.77	-53.5	-55.7	3.7	0.00e+00	0	43	104	0	77	19706
2026-01-18 06:51:37.80	120.19	4.71	-53.6	-55.8	3.7	0.00e+00	0	42	104	0	77	20018
2026-01-18 06:51:38.80	120.35	4.66	-53.8	-55.9	3.7	0.00e+00	0	43	104	0	78	19116
2026-01-18 06:51:39.81	120.51	4.61	-53.8	-56.0	3.7	0.00e+00	0	43	104	0	78	19318
2026-01-18 06:51:40.82	120.67	4.56	-53.9	-56.1	3.7	0.00e+00	0	42	104	0	78	19518
2026-01-18 06:51:41.83	120.82	4.50	-54.0	-56.1	3.7	0.00e+00	0	43	104	0	78	19636
2026-01-18 06:51:42.84	120.98	4.45	-54.1	-56.2	3.7	0.00e+00	0	43	104	0	78	19873
2026-01-18 06:51:43.85	121.14	4.40	-54.1	-56.2	3.7	0.00e+00	0	42	104	0	78	19922
2026-01-18 06:51:44.85	121.29	4.35	-54.1	-56.3	3.7	0.00e+00	0	42	104	0	78	19972
2026-01-18 06:51:45.86	121.44	4.29	-54.2	-56.3	3.7	0.00e+00	0	42	104	0	78	20119
2026-01-18 06:51:46.87	121.60	4.24	-54.2	-56.3	3.7	0.00e+00	0	43	104	0	78	20143
2026-01-18 06:51:47.88	121.75	4.19	-54.3	-56.4	3.7	0.00e+00	0	42	104	0	79	19127
2026-01-18 06:51:48.89	121.90	4.14	-54.3	-56.4	3.7	0.00e+00	0	42	104	0	79	19226
2026-01-18 06:51:49.89	122.05	4.08	-54.3	-56.5	3.7	0.00e+00	0	42	104	0	79	19266
2026-01-18 06:51:50.90	122.20	4.03	-54.3	-56.5	3.7	0.00e+00	0	42	104	0	79	19290
2026-01-18 06:51:51.91	122.35	3.98	-54.3	-56.5	3.7	0.00e+00	0	42	104	0	79	19310
2026-01-18 06:51:52.91	122.50	3.93	-54.4	-56.5	3.7	0.00e+00	0	43	104	0	79	19327
2026-01-18 06:51:53.92	122.65	3.87	-54.4	-56.5	3.7	0.00e+00	0	42	104	0	79	19383
2026-01-18 06:51:54.93	122.80	3.82	-54.4	-56.5	3.7	0.00e+00	0	42	104	0	79	19385
2026-01-18 06:51:55.94	122.95	3.77	-54.4	-56.6	3.7	0.00e+00	0	42	104	0	79	19494
2026-01-18 06:51:56.94	123.09	3.72	-54.4	-56.5	3.7	0.00e+00	0	42	104	0	79	19442
2026-01-18 06:51:57.95	123.24	3.66	-54.4	-56.5	3.7	0.00e+00	0	42	104	0	79	19453
2026-01-18 06:51:58.96	123.38	3.61	-54.4	-56.5	3.7	0.00e+00	0	42	104	0	79	19477
2026-01-18 06:51:59.97	123.53	3.56	-54.4	-56.5	3.7	0.00e+00	0	42	104	0	79	19470
2026-01-18 06:52:00.98	123.67	3.51	-54.4	-56.5	3.7	0.00e+00	0	43	104	0	79	19461
2026-01-18 06:52:01.99	123.82	3.45	-54.4	-56.5	3.7	0.00e+00	0	43	104	0	79	19436
2026-01-18 06:52:02.99	123.96	3.40	-54.4	-56.5	3.7	0.00e+00	0	42	104	0	79	19407
2026-01-18 06:52:04.00	124.10	3.35	-54.4	-56.5	3.7	0.00e+00	0	43	104	0	79	19443
2026-01-18 06:52:05.01	124.24	3.30	-54.4	-56.5	3.7	0.00e+00	0	42	104	0	79	19362
2026-01-18 06:52:06.02	124.38	3.24	-54.4	-56.5	3.7	0.00e+00	0	42	104	0	79	19406
2026-01-18 06:52:07.02	124.52	3.19	-54.4	-56.5	3.7	0.00e+00	0	42	104	0	79	19423
2026-01-18 06:52:08.03	124.66	3.14	-54.4	-56.5	3.7	0.00e+00	0	43	104	0	79	19346
2026-01-18 06:52:09.04	124.80	3.09	-54.4	-56.5	3.7	0.00e+00	0	42	104	0	79	19371
2026-01-18 06:52:10.05	124.94	3.04	-54.4	-56.5	3.7	0.00e+00	0	42	104	0	79	19375
2026-01-18 06:52:11.05	125.08	2.98	-54.4	-56.5	3.7	0.00e+00	0	42	104	0	79	19374
2026-01-18 06:52:12.06	125.22	2.93	-54.4	-56.5	3.7	0.00e+00	0	42	104	0	79	19360
2026-01-18 06:52:13.07	125.35	2.88	-54.4	-56.5	3.7	0.00e+00	0	42	104	0	79	19310
2026-01-18 06:52:14.08	125.49	2.83	-54.4	-56.5	3.7	0.00e+00	0	43	104	0	79	19394
2026-01-18 06:52:15.09	125.63	2.77	-54.4	-56.5	3.7	0.00e+00	0	42	104	0	79	19343
2026-01-18 06:52:16.09	125.76	2.72	-54.3	-56.5	3.7	0.00e+00	0	42	104	0	79	19327
2026-01-18 06:52:17.10	125.89	2.67	-54.3	-56.5	3.7	0.00e+00	0	42	104	0	79	19346
2026-01-18 06:52:18.11	126.03	2.62	-54.4	-56.5	3.7	0.00e+00	0	42	104	0	79	19329
2026-01-18 06:52:19.12	126.16	2.57	-54.3	-56.5	3.7	0.00e+00	0	42	104	0	79	19325
2026-01-18 06:52:20.12	126.29	2.51	-54.3	-56.5	3.7	0.00e+00	0	42	104	0	79	19289
2026-01-18 06:52:21.13	126.42	2.46	-54.3	-56.5	3.7	0.00e+00	0	43	104	0	79	19331
2026-01-18 06:52:22.14	126.56	2.41	-54.3	-56.5	3.7	0.00e+00	0	42	104	0	79	19286
2026-01-18 06:52:23.15	126.69	2.36	-54.3	-56.5	3.7	0.00e+00	0	43	104	0	79	19323
2026-01-18 06:52:24.15	126.82	2.31	-54.3	-56.5	3.7	0.00e+00	0	42	104	0	79	19277
2026-01-18 06:52:25.16	126.95	2.25	-54.3	-56.5	3.7	0.00e+00	0	43	104	0	79	19340
2026-01-18 06:52:26.17	127.08	2.20	-54.3	-56.5	3.7	0.00e+00	0	43	104	0	79	19328
2026-01-18 06:52:27.18	127.21	2.15	-54.3	-56.5	3.7	0.00e+00	0	43	104	0	79	19273
2026-01-18 06:52:28.19	127.33	2.10	-54.3	-56.5	3.7	0.00e+00	0	42	104	0	79	19346
2026-01-18 06:52:29.19	127.46	2.05	-54.3	-56.5	3.7	0.00e+00	0	43	104	0	79	19282
2026-01-18 06:52:30.20	127.59	1.99	-54.3	-56.5	3.7	0.00e+00	0	42	104	0	79	19298

#Closed at: 2026-01-18 06:52:30
#Recorded file [0 MB]: D:/lorett/data/31041_260118_094423.dat