passes_logs/2026/01/18/R3.2S_Murmansk/R3.2S_Murmansk__20260118_051439_SUOMI_NPP_rec.log

#Pass ID: 20260118_051439_SUOMI NPP
#Satellite: SUOMI NPP
#Configuration: NPP
#almurnet v.1.7.20251203
#Start time: 2026-01-18 05:14:39

#Version: 2.2.20231116
#Station: R3.2S_Murmansk
#Location: 33.079688 lon 68.888172 lat
#TLE: 1 37849U 11061A   26017.57099531  .00000072  00000+0  54974-4 0  9996
#TLE: 2 37849  98.7814 319.5974 0002398  59.1749 300.9663 14.19525865737072

#Time	Az	El	Level	Level2	SNR	BER	BlckErr	Temp	State	Recorded	gain1	gain2
2026-01-18 05:14:39.91	62.25	2.00	-51.9	-66.9	3.8	1.49e+00	0	34	0	0	75	20180
2026-01-18 05:14:40.90	62.19	2.06	-51.9	-66.9	3.8	1.49e+00	0	34	104	0	74	21329
2026-01-18 05:14:41.91	62.13	2.12	-51.9	-66.9	3.8	1.49e+00	0	34	104	0	74	21267
2026-01-18 05:14:42.92	62.06	2.18	-51.9	-66.8	3.8	1.49e+00	0	34	104	0	74	21257
2026-01-18 05:14:43.93	62.00	2.23	-51.9	-66.9	3.8	1.49e+00	0	34	104	0	74	21279
2026-01-18 05:14:44.94	61.93	2.29	-51.9	-66.9	3.8	1.49e+00	0	34	104	0	74	21274
2026-01-18 05:14:45.94	61.87	2.35	-51.9	-66.9	3.8	1.49e+00	0	34	104	0	74	21349
2026-01-18 05:14:46.95	61.80	2.40	-51.9	-66.9	3.8	1.49e+00	0	34	104	0	74	21330
2026-01-18 05:14:47.96	61.73	2.46	-51.9	-66.9	3.8	1.49e+00	0	34	104	0	74	21287
2026-01-18 05:14:48.97	61.67	2.52	-51.9	-66.9	3.8	1.49e+00	0	34	104	0	74	21343
2026-01-18 05:14:49.98	61.60	2.58	-51.9	-66.9	3.8	1.49e+00	0	34	104	0	74	21358
2026-01-18 05:14:50.98	61.53	2.64	-51.9	-66.9	3.8	1.49e+00	0	34	104	0	74	21353
2026-01-18 05:14:51.99	61.47	2.69	-51.9	-66.9	3.8	1.49e+00	0	34	104	0	74	21314
2026-01-18 05:14:53.00	61.40	2.75	-51.9	-66.9	3.8	1.49e+00	0	34	104	0	74	21318
2026-01-18 05:14:54.01	61.33	2.81	-51.9	-66.9	3.8	1.49e+00	0	34	104	0	74	21304
2026-01-18 05:14:55.02	61.26	2.87	-51.9	-66.9	3.8	1.49e+00	0	34	104	0	74	21332
2026-01-18 05:14:56.03	61.19	2.93	-51.9	-66.9	3.8	1.49e+00	0	34	104	0	74	21290
2026-01-18 05:14:57.03	61.12	2.99	-51.9	-66.8	3.8	1.49e+00	0	34	104	0	74	21217
2026-01-18 05:14:58.04	61.05	3.04	-51.9	-66.8	3.8	1.49e+00	0	34	104	0	74	21222
2026-01-18 05:14:59.05	60.99	3.10	-51.9	-66.9	3.8	1.49e+00	0	34	104	0	74	21280
2026-01-18 05:15:00.06	60.92	3.16	-51.9	-66.9	3.8	1.49e+00	0	34	104	0	74	21340
2026-01-18 05:15:01.07	60.85	3.22	-51.9	-66.9	3.8	1.49e+00	0	34	104	0	74	21278
2026-01-18 05:15:02.08	60.77	3.28	-51.9	-66.8	3.8	1.49e+00	0	34	104	0	74	21236
2026-01-18 05:15:03.08	60.70	3.34	-51.9	-66.8	3.8	1.49e+00	0	34	104	0	74	21238
2026-01-18 05:15:04.09	60.63	3.40	-51.9	-66.8	3.8	1.49e+00	0	34	104	0	74	21078
2026-01-18 05:15:05.10	60.56	3.46	-51.9	-66.7	3.8	1.49e+00	0	34	104	0	74	20990
2026-01-18 05:15:06.11	60.49	3.51	-51.9	-66.8	3.8	1.49e+00	0	34	104	0	74	21055
2026-01-18 05:15:07.12	60.42	3.57	-51.9	-66.8	3.8	1.49e+00	0	34	104	0	74	21093
2026-01-18 05:15:08.13	60.35	3.63	-51.9	-66.8	3.8	1.49e+00	0	35	104	0	74	21204
2026-01-18 05:15:09.13	60.28	3.69	-51.9	-66.9	3.8	1.49e+00	0	34	104	0	74	21293
2026-01-18 05:15:10.14	60.20	3.75	-51.9	-66.9	3.8	1.49e+00	0	34	104	0	74	21336
2026-01-18 05:15:11.15	60.13	3.81	-51.9	-66.8	3.8	1.49e+00	0	35	104	0	74	21109
2026-01-18 05:15:12.16	60.06	3.87	-51.9	-66.5	3.8	1.49e+00	0	35	104	0	74	20416
2026-01-18 05:15:13.16	59.98	3.93	-51.9	-66.1	3.8	1.49e+00	0	35	104	0	74	19591
2026-01-18 05:15:14.17	59.91	3.99	-51.8	-65.6	3.8	1.49e+00	0	35	104	0	74	18359
2026-01-18 05:15:15.18	59.83	4.05	-51.8	-65.0	3.8	1.49e+00	0	34	104	0	74	17171
2026-01-18 05:15:16.19	59.76	4.11	-51.8	-64.3	4.0	1.49e+00	0	35	104	0	74	15772
2026-01-18 05:15:17.20	59.68	4.17	-51.7	-63.5	4.1	1.46e+00	0	35	0	0	74	14443
2026-01-18 05:15:18.21	59.61	4.23	-51.6	-62.7	4.4	1.34e+00	90	35	0	0	74	13184
2026-01-18 05:15:19.21	59.53	4.29	-51.6	-62.2	4.6	9.98e-01	0	35	0	2097152	74	12381
2026-01-18 05:15:20.22	59.46	4.35	-51.5	-61.6	4.9	8.81e-01	0	35	0	3145728	74	11586
2026-01-18 05:15:21.23	59.38	4.41	-51.5	-60.8	5.3	6.07e-01	0	35	0	5242880	74	10608
2026-01-18 05:15:22.24	59.31	4.47	-51.4	-60.7	5.4	5.09e-01	0	35	0	7340032	74	10429
2026-01-18 05:15:23.25	59.23	4.53	-51.4	-60.5	5.5	5.12e-01	0	35	0	9437184	74	10203
2026-01-18 05:15:24.25	59.15	4.59	-51.4	-60.1	5.8	3.91e-01	0	35	0	11534336	74	9790
2026-01-18 05:15:25.26	59.07	4.65	-51.4	-60.2	5.7	3.75e-01	0	35	0	12582912	74	9843
2026-01-18 05:15:26.27	59.00	4.72	-51.4	-60.2	5.7	3.96e-01	0	35	0	14680064	74	9900
2026-01-18 05:15:27.28	58.92	4.78	-51.5	-60.9	5.2	5.25e-01	0	35	0	16777216	74	10737
2026-01-18 05:15:28.29	58.84	4.84	-51.5	-60.9	5.2	5.35e-01	0	35	0	18874368	74	10769
2026-01-18 05:15:29.30	58.76	4.90	-51.6	-61.9	4.7	7.90e-01	0	35	0	20971520	74	12057
2026-01-18 05:15:30.31	58.68	4.96	-51.6	-62.1	4.6	8.65e-01	0	35	0	22020096	74	12237
2026-01-18 05:15:31.31	58.60	5.02	-51.7	-62.7	4.4	1.35e+00	82	35	0	23068672	74	13202
2026-01-18 05:15:32.32	58.52	5.08	-51.5	-60.9	5.3	6.73e-01	0	35	0	25165824	74	10693
2026-01-18 05:15:33.33	58.44	5.14	-51.6	-61.3	5.1	4.21e-01	0	35	0	27262976	74	11220
2026-01-18 05:15:34.34	58.36	5.21	-51.8	-64.2	3.9	1.49e+00	0	35	104	27262976	74	15699
2026-01-18 05:15:35.34	58.28	5.27	-50.8	-56.8	9.2	4.89e-03	0	35	0	27262976	72	7481
2026-01-18 05:15:36.35	58.20	5.33	-51.8	-64.0	3.8	1.32e+00	0	35	104	28311552	74	15321
2026-01-18 05:15:37.36	58.12	5.39	-49.9	-54.2	11.9	7.18e-04	0	35	0	28311552	71	5869
2026-01-18 05:15:38.37	58.03	5.45	-50.1	-54.5	11.4	8.48e-04	0	35	0	30408704	71	6081
2026-01-18 05:15:39.38	57.95	5.52	-50.0	-54.2	11.8	8.16e-04	0	35	0	32505856	71	5913
2026-01-18 05:15:40.38	57.87	5.58	-49.9	-54.1	12.0	6.41e-04	0	35	0	34603008	71	5789
2026-01-18 05:15:41.39	57.79	5.64	-49.9	-54.0	12.1	3.93e-04	0	35	0	35651584	71	5760
2026-01-18 05:15:42.40	57.70	5.70	-49.8	-53.8	12.3	2.66e-04	0	35	0	37748736	71	5651
2026-01-18 05:15:43.41	57.62	5.76	-49.6	-53.4	12.7	2.01e-04	0	35	0	39845888	71	5366
2026-01-18 05:15:44.41	57.54	5.83	-49.6	-53.4	12.8	7.40e-05	0	35	0	41943040	71	5357
2026-01-18 05:15:45.42	57.45	5.89	-49.7	-53.6	12.6	1.37e-04	0	35	0	44040192	71	5475
2026-01-18 05:15:46.43	57.37	5.95	-49.1	-52.4	13.8	3.43e-05	0	35	0	46137344	70	5053
2026-01-18 05:15:47.44	57.28	6.01	-48.8	-51.8	14.4	1.50e-06	0	35	0	47185920	69	5041
2026-01-18 05:15:48.45	57.19	6.08	-48.7	-51.7	14.5	0.00e+00	0	35	0	49283072	69	4968
2026-01-18 05:15:49.45	57.11	6.14	-48.7	-51.7	14.6	0.00e+00	0	35	0	51380224	69	4943
2026-01-18 05:15:50.46	57.02	6.20	-48.8	-51.8	14.5	7.00e-07	0	35	0	53477376	69	5011
2026-01-18 05:15:51.47	56.93	6.27	-48.7	-51.7	14.6	0.00e+00	0	35	0	55574528	69	4930
2026-01-18 05:15:52.48	56.85	6.33	-48.7	-51.6	14.7	0.00e+00	0	35	0	56623104	69	4926
2026-01-18 05:15:53.49	56.76	6.39	-48.7	-51.6	14.7	0.00e+00	0	35	0	58720256	69	4921
2026-01-18 05:15:54.49	56.67	6.46	-48.8	-51.9	14.5	7.00e-07	0	35	0	60817408	69	5065
2026-01-18 05:15:55.50	56.58	6.52	-48.6	-51.5	14.9	0.00e+00	0	35	0	62914560	69	4815
2026-01-18 05:15:56.51	56.49	6.58	-48.8	-51.9	14.4	0.00e+00	0	35	0	65011712	69	5078
2026-01-18 05:15:57.51	56.41	6.65	-48.9	-52.0	14.3	0.00e+00	0	35	0	66060288	69	5126
2026-01-18 05:15:58.53	56.31	6.71	-48.8	-51.9	14.5	0.00e+00	0	35	0	68157440	69	5050
2026-01-18 05:15:59.53	56.23	6.77	-48.9	-52.0	14.4	0.00e+00	0	35	0	70254592	69	5110
2026-01-18 05:16:00.54	56.13	6.84	-48.9	-52.0	14.4	1.50e-06	0	35	0	72351744	69	5125
2026-01-18 05:16:01.55	56.04	6.90	-48.8	-51.8	14.6	7.00e-07	0	35	0	74448896	69	4992
2026-01-18 05:16:02.56	55.95	6.97	-48.7	-51.7	14.6	0.00e+00	0	35	0	75497472	69	4963
2026-01-18 05:16:03.56	55.86	7.03	-48.7	-51.6	14.8	7.00e-07	0	35	0	77594624	69	4911
2026-01-18 05:16:04.57	55.77	7.09	-48.7	-51.6	14.7	0.00e+00	0	35	0	79691776	69	4926
2026-01-18 05:16:05.58	55.68	7.16	-48.6	-51.5	14.8	0.00e+00	0	35	0	81788928	69	4863
2026-01-18 05:16:06.59	55.58	7.22	-48.3	-51.0	15.4	0.00e+00	0	35	0	83886080	68	4847
2026-01-18 05:16:07.60	55.49	7.29	-48.5	-51.4	15.1	0.00e+00	0	35	0	84934656	68	5055
2026-01-18 05:16:08.60	55.40	7.35	-48.5	-51.3	15.0	0.00e+00	0	35	0	87031808	68	5032
2026-01-18 05:16:09.61	55.30	7.42	-48.5	-51.4	15.1	0.00e+00	0	35	0	89128960	68	5044
2026-01-18 05:16:10.62	55.21	7.48	-48.4	-51.0	15.4	0.00e+00	0	35	0	91226112	68	4861
2026-01-18 05:16:11.63	55.11	7.55	-48.4	-51.1	15.4	0.00e+00	0	35	0	93323264	68	4878
2026-01-18 05:16:12.64	55.01	7.61	-48.4	-51.1	15.3	0.00e+00	0	35	0	94371840	68	4922
2026-01-18 05:16:13.65	54.92	7.68	-48.4	-51.0	15.4	0.00e+00	0	35	0	96468992	68	4862
2026-01-18 05:16:14.65	54.82	7.74	-48.3	-50.9	15.6	0.00e+00	0	35	0	98566144	68	4792
2026-01-18 05:16:15.66	54.73	7.81	-48.5	-51.2	15.3	0.00e+00	0	35	0	100663296	68	4954
2026-01-18 05:16:16.67	54.63	7.87	-48.2	-50.8	15.6	0.00e+00	0	35	0	102760448	68	4758
2026-01-18 05:16:17.68	54.53	7.94	-48.2	-50.8	15.7	0.00e+00	0	35	0	103809024	68	4727
2026-01-18 05:16:18.68	54.43	8.00	-48.0	-50.5	16.0	0.00e+00	0	35	0	105906176	68	4560
2026-01-18 05:16:19.69	54.33	8.07	-47.8	-50.2	16.1	0.00e+00	0	35	0	108003328	67	4699
2026-01-18 05:16:20.70	54.23	8.13	-47.8	-50.2	16.2	0.00e+00	0	35	0	110100480	67	4676
2026-01-18 05:16:21.70	54.13	8.20	-47.9	-50.3	16.2	0.00e+00	0	35	0	112197632	67	4714
2026-01-18 05:16:22.71	54.03	8.27	-47.8	-50.1	16.3	0.00e+00	0	35	0	113246208	67	4621
2026-01-18 05:16:23.72	53.93	8.33	-47.7	-50.0	16.4	0.00e+00	0	36	0	115343360	67	4555
2026-01-18 05:16:24.73	53.83	8.40	-47.8	-50.2	16.2	0.00e+00	0	35	0	117440512	67	4667
2026-01-18 05:16:25.74	53.73	8.46	-47.6	-49.8	16.6	0.00e+00	0	35	0	119537664	67	4461
2026-01-18 05:16:26.75	53.63	8.53	-47.8	-50.1	16.4	0.00e+00	0	36	0	121634816	67	4609
2026-01-18 05:16:27.75	53.53	8.60	-47.6	-49.9	16.5	0.00e+00	0	36	0	122683392	67	4515
2026-01-18 05:16:28.76	53.42	8.66	-47.6	-49.9	16.6	0.00e+00	0	35	0	124780544	67	4494
2026-01-18 05:16:29.77	53.32	8.73	-47.6	-49.9	16.6	0.00e+00	0	35	0	126877696	67	4508
2026-01-18 05:16:30.78	53.21	8.80	-47.7	-50.0	16.4	0.00e+00	0	36	0	128974848	67	4574
2026-01-18 05:16:31.78	53.11	8.86	-47.9	-50.3	16.2	0.00e+00	0	35	0	131072000	67	4707
2026-01-18 05:16:32.79	53.01	8.93	-47.8	-50.2	16.3	0.00e+00	0	35	0	132120576	67	4655
2026-01-18 05:16:33.80	52.90	9.00	-47.8	-50.1	16.3	0.00e+00	0	35	0	134217728	67	4646
2026-01-18 05:16:34.81	52.79	9.06	-47.8	-50.1	16.3	0.00e+00	0	35	0	136314880	67	4651
2026-01-18 05:16:35.81	52.69	9.13	-47.8	-50.1	16.3	0.00e+00	0	35	0	138412032	67	4650
2026-01-18 05:16:36.83	52.58	9.20	-48.0	-50.3	16.2	0.00e+00	0	35	0	140509184	67	4754
2026-01-18 05:16:37.83	52.47	9.26	-48.0	-50.5	16.1	0.00e+00	0	36	0	141557760	67	4816
2026-01-18 05:16:38.84	52.36	9.33	-47.9	-50.3	16.2	0.00e+00	0	35	0	143654912	67	4725
2026-01-18 05:16:39.85	52.26	9.40	-48.0	-50.4	16.1	0.00e+00	0	35	0	145752064	67	4780
2026-01-18 05:16:40.86	52.15	9.47	-48.1	-50.5	16.0	0.00e+00	0	35	0	147849216	67	4837
2026-01-18 05:16:41.86	52.04	9.53	-48.1	-50.5	16.0	0.00e+00	0	35	0	149946368	67	4831
2026-01-18 05:16:42.87	51.93	9.60	-48.2	-50.8	15.8	0.00e+00	0	35	0	150994944	67	4990
2026-01-18 05:16:43.88	51.82	9.67	-48.2	-50.6	15.9	0.00e+00	0	35	0	153092096	67	4910
2026-01-18 05:16:44.89	51.71	9.74	-48.1	-50.4	16.1	0.00e+00	0	35	0	155189248	67	4813
2026-01-18 05:16:45.90	51.59	9.80	-48.0	-50.4	16.1	0.00e+00	0	35	0	157286400	67	4788
2026-01-18 05:16:46.91	51.48	9.87	-48.1	-50.5	16.1	0.00e+00	0	36	0	159383552	67	4826
2026-01-18 05:16:47.91	51.37	9.94	-48.2	-50.6	15.9	0.00e+00	0	35	0	161480704	67	4910
2026-01-18 05:16:48.93	51.25	10.01	-48.3	-50.9	15.7	0.00e+00	0	35	0	162529280	67	5056
2026-01-18 05:16:49.93	51.14	10.08	-48.3	-50.8	15.8	0.00e+00	0	36	0	164626432	67	4987
2026-01-18 05:16:50.94	51.03	10.14	-48.2	-50.7	15.9	0.00e+00	0	36	0	166723584	67	4962
2026-01-18 05:16:51.95	50.91	10.21	-48.0	-50.3	16.3	0.00e+00	0	35	0	168820736	67	4746
2026-01-18 05:16:52.96	50.80	10.28	-48.0	-50.3	16.3	0.00e+00	0	36	0	169869312	67	4735
2026-01-18 05:16:53.96	50.68	10.35	-47.9	-50.1	16.4	0.00e+00	0	35	0	171966464	67	4646
2026-01-18 05:16:54.97	50.56	10.42	-47.9	-50.1	16.5	0.00e+00	0	35	0	174063616	67	4641
2026-01-18 05:16:55.98	50.45	10.49	-48.1	-50.4	16.1	0.00e+00	0	35	0	176160768	67	4812
2026-01-18 05:16:56.99	50.33	10.55	-47.9	-50.2	16.3	0.00e+00	0	35	0	178257920	67	4704
2026-01-18 05:16:58.00	50.21	10.62	-48.0	-50.3	16.3	0.00e+00	0	36	0	179306496	67	4741
2026-01-18 05:16:59.00	50.09	10.69	-48.0	-50.4	16.2	0.00e+00	0	36	0	181403648	67	4784
2026-01-18 05:17:00.01	49.97	10.76	-47.9	-50.1	16.5	0.00e+00	0	35	0	183500800	67	4636
2026-01-18 05:17:01.02	49.85	10.83	-47.9	-50.2	16.4	0.00e+00	0	36	0	185597952	67	4697
2026-01-18 05:17:02.03	49.73	10.90	-47.8	-50.0	16.5	0.00e+00	0	35	0	187695104	67	4595
2026-01-18 05:17:03.04	49.61	10.97	-47.6	-49.7	16.9	0.00e+00	0	36	0	189792256	67	4423
2026-01-18 05:17:04.04	49.49	11.04	-47.5	-49.7	17.0	0.00e+00	0	35	0	190840832	67	4394
2026-01-18 05:17:05.05	49.37	11.10	-47.7	-49.9	16.7	0.00e+00	0	36	0	192937984	67	4522
2026-01-18 05:17:06.06	49.24	11.17	-47.7	-49.9	16.8	0.00e+00	0	35	0	195035136	67	4494
2026-01-18 05:17:07.07	49.12	11.24	-47.6	-49.8	16.8	0.00e+00	0	35	0	197132288	67	4446
2026-01-18 05:17:08.08	49.00	11.31	-47.6	-49.7	16.9	0.00e+00	0	36	0	198180864	67	4411
2026-01-18 05:17:09.09	48.87	11.38	-47.5	-49.6	17.0	0.00e+00	0	35	0	200278016	66	4620
2026-01-18 05:17:10.09	48.75	11.45	-47.3	-49.3	17.3	0.00e+00	0	35	0	202375168	66	4446
2026-01-18 05:17:11.10	48.62	11.52	-47.2	-49.2	17.3	0.00e+00	0	36	0	204472320	66	4437
2026-01-18 05:17:12.11	48.49	11.59	-47.4	-49.5	17.1	0.00e+00	0	36	0	206569472	66	4563
2026-01-18 05:17:13.12	48.37	11.66	-47.4	-49.5	17.1	0.00e+00	0	35	0	208666624	66	4566
2026-01-18 05:17:14.13	48.24	11.73	-47.4	-49.4	17.2	0.00e+00	0	36	0	209715200	66	4538
2026-01-18 05:17:15.13	48.11	11.80	-47.3	-49.4	17.2	0.00e+00	0	36	0	211812352	66	4514
2026-01-18 05:17:16.14	47.98	11.87	-47.2	-49.3	17.3	0.00e+00	0	35	0	213909504	66	4445
2026-01-18 05:17:17.15	47.85	11.94	-47.4	-49.4	17.2	0.00e+00	0	35	0	216006656	66	4529
2026-01-18 05:17:18.16	47.72	12.01	-47.2	-49.1	17.5	0.00e+00	0	36	0	218103808	66	4385
2026-01-18 05:17:19.17	47.59	12.08	-47.1	-49.0	17.6	0.00e+00	0	36	0	219152384	66	4333
2026-01-18 05:17:20.17	47.46	12.15	-47.0	-49.0	17.7	0.00e+00	0	35	0	221249536	66	4295
2026-01-18 05:17:21.18	47.33	12.22	-47.0	-48.9	17.7	0.00e+00	0	35	0	223346688	66	4286
2026-01-18 05:17:22.19	47.19	12.29	-47.0	-48.9	17.7	0.00e+00	0	35	0	225443840	66	4269
2026-01-18 05:17:23.20	47.06	12.36	-47.1	-49.1	17.6	0.00e+00	0	36	0	226492416	66	4358
2026-01-18 05:17:24.21	46.92	12.43	-47.2	-49.1	17.5	0.00e+00	0	36	0	228589568	66	4379
2026-01-18 05:17:25.22	46.79	12.50	-47.1	-49.0	17.6	0.00e+00	0	35	0	230686720	65	4574
2026-01-18 05:17:26.23	46.65	12.57	-46.9	-48.8	17.8	0.00e+00	0	35	0	232783872	65	4469
2026-01-18 05:17:27.23	46.52	12.64	-47.1	-49.0	17.6	0.00e+00	0	35	0	234881024	65	4578
2026-01-18 05:17:28.24	46.38	12.71	-46.9	-48.8	17.9	0.00e+00	0	36	0	236978176	65	4481
2026-01-18 05:17:29.25	46.24	12.78	-47.0	-48.9	17.8	0.00e+00	0	35	0	238026752	65	4529
2026-01-18 05:17:30.26	46.10	12.85	-47.1	-49.0	17.6	0.00e+00	0	36	0	240123904	65	4591
2026-01-18 05:17:31.27	45.97	12.92	-47.0	-48.9	17.7	0.00e+00	0	36	0	242221056	65	4538
2026-01-18 05:17:32.28	45.83	12.99	-47.2	-49.2	17.5	0.00e+00	0	36	0	244318208	65	4662
2026-01-18 05:17:33.28	45.69	13.06	-47.2	-49.2	17.5	0.00e+00	0	36	0	246415360	65	4661
2026-01-18 05:17:34.29	45.55	13.13	-47.2	-49.2	17.4	0.00e+00	0	36	0	247463936	65	4687
2026-01-18 05:17:35.30	45.40	13.20	-47.2	-49.1	17.5	0.00e+00	0	35	0	249561088	65	4650
2026-01-18 05:17:36.31	45.26	13.27	-47.0	-49.0	17.7	0.00e+00	0	35	0	251658240	65	4574
2026-01-18 05:17:37.32	45.12	13.35	-47.1	-49.0	17.7	0.00e+00	0	36	0	253755392	65	4578
2026-01-18 05:17:38.33	44.97	13.42	-47.0	-49.0	17.7	0.00e+00	0	36	0	255852544	65	4570
2026-01-18 05:17:39.34	44.83	13.49	-47.0	-49.0	17.7	0.00e+00	0	36	0	256901120	65	4563
2026-01-18 05:17:40.34	44.69	13.56	-47.1	-49.1	17.5	0.00e+00	0	36	0	258998272	65	4635
2026-01-18 05:17:41.35	44.54	13.63	-47.0	-49.0	17.7	0.00e+00	0	36	0	261095424	65	4568
2026-01-18 05:17:42.36	44.39	13.70	-47.3	-49.4	17.2	0.00e+00	0	36	0	263192576	65	4794
2026-01-18 05:17:43.37	44.24	13.77	-47.2	-49.3	17.4	0.00e+00	0	36	0	265289728	65	4733
2026-01-18 05:17:44.38	44.10	13.84	-47.3	-49.4	17.3	0.00e+00	0	36	0	266338304	65	4779
2026-01-18 05:17:45.39	43.95	13.91	-47.4	-49.5	17.2	0.00e+00	0	36	0	268435456	65	4829
2026-01-18 05:17:46.39	43.80	13.98	-47.2	-49.2	17.4	0.00e+00	0	36	0	270532608	65	4699
2026-01-18 05:17:47.40	43.65	14.05	-47.3	-49.4	17.3	0.00e+00	0	36	0	272629760	65	4767
2026-01-18 05:17:48.40	43.50	14.12	-47.3	-49.3	17.4	0.00e+00	0	36	0	274726912	65	4746
2026-01-18 05:17:49.41	43.35	14.19	-47.3	-49.4	17.4	0.00e+00	0	35	0	276824064	65	4769
2026-01-18 05:17:50.42	43.19	14.27	-47.3	-49.3	17.4	0.00e+00	0	36	0	277872640	65	4725
2026-01-18 05:17:51.43	43.04	14.34	-47.2	-49.2	17.5	0.00e+00	0	36	0	279969792	65	4678
2026-01-18 05:17:52.44	42.89	14.41	-47.4	-49.4	17.3	0.00e+00	0	36	0	282066944	65	4795
2026-01-18 05:17:53.45	42.73	14.48	-47.2	-49.2	17.4	0.00e+00	0	36	0	284164096	65	4693
2026-01-18 05:17:54.45	42.58	14.55	-47.2	-49.2	17.5	0.00e+00	0	36	0	285212672	65	4701
2026-01-18 05:17:55.46	42.42	14.62	-47.3	-49.3	17.5	0.00e+00	0	36	0	287309824	65	4717
2026-01-18 05:17:56.47	42.26	14.69	-47.4	-49.4	17.3	0.00e+00	0	36	0	289406976	65	4804
2026-01-18 05:17:57.48	42.11	14.76	-47.4	-49.5	17.2	0.00e+00	0	36	0	291504128	65	4832
2026-01-18 05:17:58.48	41.95	14.83	-47.1	-49.1	17.6	0.00e+00	0	36	0	293601280	65	4629
2026-01-18 05:17:59.49	41.79	14.90	-47.3	-49.4	17.4	0.00e+00	0	36	0	294649856	65	4780
2026-01-18 05:18:00.50	41.63	14.97	-47.6	-49.7	17.0	0.00e+00	0	36	0	296747008	65	4966
2026-01-18 05:18:01.51	41.47	15.04	-47.6	-49.8	16.9	0.00e+00	0	36	0	298844160	65	4984
2026-01-18 05:18:02.52	41.31	15.11	-47.9	-50.2	16.6	0.00e+00	0	36	0	300941312	66	4931
2026-01-18 05:18:03.53	41.14	15.19	-48.0	-50.3	16.5	0.00e+00	0	36	0	303038464	66	4995
2026-01-18 05:18:04.53	40.98	15.26	-47.9	-50.2	16.6	0.00e+00	0	36	0	305135616	66	4932
2026-01-18 05:18:05.54	40.82	15.33	-47.8	-50.0	16.8	0.00e+00	0	36	0	306184192	66	4816
2026-01-18 05:18:06.55	40.65	15.40	-47.6	-49.7	17.1	0.00e+00	0	36	0	308281344	66	4665
2026-01-18 05:18:07.56	40.49	15.47	-47.5	-49.6	17.2	0.00e+00	0	36	0	310378496	66	4614
2026-01-18 05:18:08.57	40.32	15.54	-47.4	-49.5	17.2	0.00e+00	0	36	0	312475648	66	4560
2026-01-18 05:18:09.57	40.16	15.61	-47.3	-49.3	17.4	0.00e+00	0	36	0	313524224	66	4487
2026-01-18 05:18:10.58	39.99	15.68	-47.5	-49.5	17.2	0.00e+00	0	36	0	315621376	66	4593
2026-01-18 05:18:11.59	39.82	15.75	-47.6	-49.7	17.0	0.00e+00	0	36	0	317718528	66	4686
2026-01-18 05:18:12.60	39.65	15.82	-47.6	-49.7	17.0	0.00e+00	0	36	0	319815680	66	4703
2026-01-18 05:18:13.61	39.48	15.89	-47.4	-49.4	17.3	0.00e+00	0	36	0	321912832	66	4527
2026-01-18 05:18:14.61	39.31	15.96	-47.4	-49.5	17.3	0.00e+00	0	36	0	324009984	66	4546
2026-01-18 05:18:15.62	39.14	16.03	-47.5	-49.5	17.2	0.00e+00	0	36	0	325058560	66	4598
2026-01-18 05:18:16.63	38.96	16.10	-47.4	-49.4	17.4	0.00e+00	0	36	0	327155712	66	4508
2026-01-18 05:18:17.64	38.79	16.17	-47.6	-49.8	17.0	0.00e+00	0	36	0	329252864	66	4721
2026-01-18 05:18:18.65	38.62	16.24	-47.4	-49.4	17.4	0.00e+00	0	36	0	331350016	66	4508
2026-01-18 05:18:19.66	38.44	16.31	-47.3	-49.3	17.5	0.00e+00	0	36	0	333447168	66	4468
2026-01-18 05:18:20.67	38.26	16.38	-47.2	-49.1	17.6	0.00e+00	0	36	0	334495744	66	4363
2026-01-18 05:18:21.67	38.09	16.45	-47.1	-49.1	17.6	0.00e+00	0	36	0	336592896	66	4352
2026-01-18 05:18:22.68	37.91	16.52	-47.4	-49.4	17.4	0.00e+00	0	36	0	338690048	66	4503
2026-01-18 05:18:23.69	37.73	16.59	-47.3	-49.3	17.3	0.00e+00	0	36	0	340787200	66	4472
2026-01-18 05:18:24.70	37.55	16.66	-47.3	-49.3	17.4	0.00e+00	0	36	0	341835776	66	4478
2026-01-18 05:18:25.71	37.37	16.73	-47.4	-49.4	17.4	0.00e+00	0	36	0	343932928	66	4534
2026-01-18 05:18:26.71	37.19	16.80	-47.5	-49.6	17.2	0.00e+00	0	36	0	346030080	66	4617
2026-01-18 05:18:27.72	37.01	16.87	-47.6	-49.6	17.1	0.00e+00	0	36	0	348127232	66	4647
2026-01-18 05:18:28.73	36.83	16.93	-47.6	-49.8	17.0	0.00e+00	0	36	0	350224384	66	4727
2026-01-18 05:18:29.74	36.64	17.00	-47.8	-50.1	16.7	0.00e+00	0	36	0	352321536	66	4872
2026-01-18 05:18:30.74	36.46	17.07	-47.7	-49.8	17.0	0.00e+00	0	36	0	353370112	66	4741
2026-01-18 05:18:31.75	36.27	17.14	-47.6	-49.7	17.1	0.00e+00	0	36	0	355467264	66	4702
2026-01-18 05:18:32.76	36.09	17.21	-47.5	-49.6	17.2	0.00e+00	0	36	0	357564416	66	4622
2026-01-18 05:18:33.77	35.90	17.28	-47.4	-49.4	17.4	0.00e+00	0	36	0	359661568	66	4501
2026-01-18 05:18:34.77	35.71	17.35	-47.2	-49.2	17.6	0.00e+00	0	36	0	361758720	66	4425
2026-01-18 05:18:35.78	35.53	17.41	-47.0	-48.9	17.9	0.00e+00	0	35	0	362807296	66	4260
2026-01-18 05:18:36.79	35.34	17.48	-47.2	-49.0	17.8	0.00e+00	0	36	0	364904448	66	4337
2026-01-18 05:18:37.79	35.15	17.55	-47.2	-49.1	17.7	0.00e+00	0	35	0	367001600	66	4381
2026-01-18 05:18:38.80	34.96	17.62	-47.1	-49.0	17.8	0.00e+00	0	36	0	369098752	66	4316
2026-01-18 05:18:39.80	34.76	17.68	-47.2	-49.1	17.7	0.00e+00	0	36	0	370147328	66	4387
2026-01-18 05:18:40.81	34.57	17.75	-46.7	-48.5	18.3	0.00e+00	0	36	0	372244480	65	4308
2026-01-18 05:18:41.82	34.38	17.82	-46.8	-48.7	18.1	0.00e+00	0	36	0	374341632	65	4411
2026-01-18 05:18:42.83	34.18	17.89	-46.6	-48.3	18.4	0.00e+00	0	36	0	376438784	65	4242
2026-01-18 05:18:43.84	33.99	17.95	-46.7	-48.6	18.2	0.00e+00	0	36	0	378535936	65	4349
2026-01-18 05:18:44.85	33.79	18.02	-46.6	-48.5	18.3	0.00e+00	0	36	0	380633088	65	4294
2026-01-18 05:18:45.86	33.59	18.09	-46.7	-48.5	18.3	0.00e+00	0	36	0	381681664	65	4305
2026-01-18 05:18:46.87	33.39	18.15	-46.6	-48.4	18.4	0.00e+00	0	36	0	383778816	65	4252
2026-01-18 05:18:47.87	33.20	18.22	-46.3	-48.0	18.7	0.00e+00	0	36	0	385875968	64	4304
2026-01-18 05:18:48.88	32.99	18.29	-46.2	-47.9	18.8	0.00e+00	0	36	0	387973120	64	4280
2026-01-18 05:18:49.88	32.80	18.35	-46.2	-47.8	18.9	0.00e+00	0	36	0	390070272	64	4236
2026-01-18 05:18:50.89	32.59	18.42	-46.1	-47.7	19.1	0.00e+00	0	36	0	391118848	63	4418
2026-01-18 05:18:51.90	32.39	18.48	-46.2	-47.8	19.0	0.00e+00	0	35	0	393216000	63	4473
2026-01-18 05:18:52.91	32.19	18.55	-45.9	-47.5	19.2	0.00e+00	0	36	0	395313152	63	4321
2026-01-18 05:18:53.92	31.98	18.61	-46.1	-47.8	19.1	0.00e+00	0	36	0	397410304	63	4444
2026-01-18 05:18:54.93	31.78	18.68	-46.2	-47.8	19.0	0.00e+00	0	36	0	399507456	63	4472
2026-01-18 05:18:55.93	31.57	18.74	-46.1	-47.7	19.1	0.00e+00	0	36	0	400556032	63	4421
2026-01-18 05:18:56.94	31.36	18.81	-46.1	-47.8	19.0	0.00e+00	0	36	0	402653184	63	4456
2026-01-18 05:18:57.95	31.16	18.87	-46.1	-47.7	19.0	0.00e+00	0	36	0	404750336	63	4422
2026-01-18 05:18:58.95	30.95	18.94	-46.0	-47.6	19.2	0.00e+00	0	36	0	406847488	63	4369
2026-01-18 05:18:59.96	30.74	19.00	-45.7	-47.2	19.6	0.00e+00	0	36	0	408944640	63	4184
2026-01-18 05:19:00.97	30.53	19.06	-45.9	-47.4	19.5	0.00e+00	0	36	0	409993216	63	4269
2026-01-18 05:19:01.98	30.31	19.13	-45.6	-47.0	19.7	0.00e+00	0	36	0	412090368	63	4098
2026-01-18 05:19:02.99	30.10	19.19	-45.5	-46.9	19.8	0.00e+00	0	36	0	414187520	63	4047
2026-01-18 05:19:03.99	29.89	19.25	-45.6	-47.1	19.7	0.00e+00	0	36	0	416284672	62	4350
2026-01-18 05:19:05.00	29.68	19.32	-45.6	-47.0	19.7	0.00e+00	0	36	0	418381824	62	4338
2026-01-18 05:19:06.01	29.46	19.38	-45.6	-47.0	19.7	0.00e+00	0	36	0	419430400	62	4329
2026-01-18 05:19:07.02	29.24	19.44	-45.6	-47.1	19.7	0.00e+00	0	36	0	421527552	62	4364
2026-01-18 05:19:08.03	29.03	19.50	-45.6	-47.1	19.6	0.00e+00	0	36	0	423624704	62	4370
2026-01-18 05:19:09.03	28.81	19.56	-45.7	-47.2	19.6	0.00e+00	0	36	0	425721856	62	4410
2026-01-18 05:19:10.04	28.59	19.62	-45.9	-47.4	19.4	0.00e+00	0	36	0	427819008	62	4533
2026-01-18 05:19:11.05	28.37	19.69	-46.0	-47.6	19.2	0.00e+00	0	36	0	428867584	62	4639
2026-01-18 05:19:12.06	28.15	19.75	-45.9	-47.4	19.4	0.00e+00	0	36	0	430964736	62	4524
2026-01-18 05:19:13.07	27.93	19.81	-45.8	-47.3	19.5	0.00e+00	0	36	0	433061888	62	4479
2026-01-18 05:19:14.07	27.71	19.87	-45.7	-47.3	19.5	0.00e+00	0	35	0	435159040	62	4458
2026-01-18 05:19:15.08	27.49	19.93	-45.6	-47.2	19.7	0.00e+00	0	35	0	437256192	62	4392
2026-01-18 05:19:16.09	27.26	19.99	-45.6	-47.1	19.7	0.00e+00	0	35	0	438304768	62	4365
2026-01-18 05:19:17.10	27.04	20.04	-45.5	-47.0	19.8	0.00e+00	0	35	0	440401920	62	4314
2026-01-18 05:19:18.11	26.81	20.10	-45.4	-46.8	19.9	0.00e+00	0	35	0	442499072	62	4229
2026-01-18 05:19:19.12	26.58	20.16	-45.5	-46.9	19.9	0.00e+00	0	36	0	444596224	62	4279
2026-01-18 05:19:20.12	26.36	20.22	-45.5	-47.0	19.8	0.00e+00	0	35	0	446693376	62	4305
2026-01-18 05:19:21.13	26.13	20.28	-45.6	-47.1	19.8	0.00e+00	0	36	0	447741952	62	4342
2026-01-18 05:19:22.14	25.90	20.33	-45.6	-47.1	19.8	0.00e+00	0	36	0	449839104	62	4364
2026-01-18 05:19:23.15	25.67	20.39	-45.7	-47.1	19.7	0.00e+00	0	35	0	451936256	62	4383
2026-01-18 05:19:24.16	25.44	20.45	-45.5	-46.9	19.9	0.00e+00	0	35	0	454033408	62	4280
2026-01-18 05:19:25.16	25.21	20.50	-45.1	-46.5	20.3	0.00e+00	0	35	0	456130560	62	4071
2026-01-18 05:19:26.17	24.97	20.56	-45.0	-46.3	20.5	0.00e+00	0	35	0	457179136	62	3982
2026-01-18 05:19:27.18	24.74	20.62	-45.0	-46.4	20.4	0.00e+00	0	35	0	459276288	61	4251
2026-01-18 05:19:28.19	24.51	20.67	-45.1	-46.5	20.3	0.00e+00	0	36	0	461373440	61	4294
2026-01-18 05:19:29.20	24.27	20.73	-45.3	-46.6	20.2	0.00e+00	0	35	0	463470592	61	4382
2026-01-18 05:19:30.20	24.04	20.78	-45.2	-46.5	20.2	0.00e+00	0	35	0	465567744	61	4313
2026-01-18 05:19:31.21	23.80	20.83	-45.0	-46.3	20.5	0.00e+00	0	35	0	467664896	61	4212
2026-01-18 05:19:32.22	23.56	20.89	-45.0	-46.3	20.4	0.00e+00	0	36	0	468713472	61	4233
2026-01-18 05:19:33.23	23.32	20.94	-45.1	-46.5	20.3	0.00e+00	0	35	0	470810624	61	4296
2026-01-18 05:19:34.24	23.08	20.99	-44.9	-46.2	20.5	0.00e+00	0	35	0	472907776	61	4186
2026-01-18 05:19:35.25	22.84	21.05	-45.1	-46.4	20.4	0.00e+00	0	36	0	475004928	61	4283
2026-01-18 05:19:36.26	22.60	21.10	-45.2	-46.5	20.2	0.00e+00	0	36	0	476053504	61	4330
2026-01-18 05:19:37.26	22.36	21.15	-45.1	-46.5	20.3	0.00e+00	0	35	0	478150656	61	4306
2026-01-18 05:19:38.27	22.12	21.20	-44.9	-46.2	20.6	0.00e+00	0	36	0	480247808	61	4176
2026-01-18 05:19:39.28	21.87	21.25	-45.3	-46.6	20.1	0.00e+00	0	36	0	482344960	61	4382
2026-01-18 05:19:40.29	21.63	21.30	-45.5	-46.9	20.0	0.00e+00	0	36	0	484442112	61	4508
2026-01-18 05:19:41.30	21.38	21.35	-45.4	-46.8	20.0	0.00e+00	0	36	0	485490688	61	4479
2026-01-18 05:19:42.31	21.14	21.40	-45.3	-46.6	20.2	0.00e+00	0	36	0	487587840	61	4389
2026-01-18 05:19:43.32	20.89	21.45	-45.3	-46.6	20.2	0.00e+00	0	36	0	489684992	61	4387
2026-01-18 05:19:44.32	20.64	21.50	-45.3	-46.7	20.2	0.00e+00	0	35	0	491782144	61	4395
2026-01-18 05:19:45.33	20.40	21.54	-45.3	-46.7	20.1	0.00e+00	0	36	0	493879296	61	4409
2026-01-18 05:19:46.34	20.15	21.59	-49.9	-53.0	14.9	0.00e+00	0	35	0	495976448	70	5456
2026-01-18 05:19:47.35	19.90	21.64	-51.6	-56.6	10.5	7.35e-03	0	35	0	497025024	74	6562
2026-01-18 05:19:48.36	19.65	21.68	-51.5	-56.4	10.7	5.08e-03	0	35	0	499122176	74	6400
2026-01-18 05:19:49.36	19.40	21.73	-51.4	-56.1	10.9	2.81e-03	0	35	0	501219328	74	6192
2026-01-18 05:19:50.37	19.14	21.77	-51.2	-55.7	11.4	6.68e-04	0	35	0	503316480	74	5878
2026-01-18 05:19:51.38	18.89	21.82	-51.2	-55.6	11.5	9.99e-04	0	35	0	504365056	74	5818
2026-01-18 05:19:52.38	18.64	21.86	-51.1	-55.5	11.6	3.56e-04	0	35	0	506462208	73	6077
2026-01-18 05:19:53.39	18.38	21.91	-50.6	-54.4	12.7	1.07e-04	0	35	0	508559360	73	5363
2026-01-18 05:19:54.40	18.13	21.95	-49.8	-52.9	14.3	7.60e-06	0	36	0	510656512	71	5052
2026-01-18 05:19:55.40	17.88	21.99	-49.4	-52.2	15.1	0.00e+00	0	36	0	512753664	70	4936
2026-01-18 05:19:56.41	17.62	22.04	-49.1	-51.7	15.5	0.00e+00	0	35	0	514850816	70	4690
2026-01-18 05:19:57.42	17.36	22.08	-49.0	-51.6	15.7	0.00e+00	0	36	0	515899392	69	4873
2026-01-18 05:19:58.43	17.10	22.12	-49.1	-51.7	15.5	0.00e+00	0	35	0	517996544	69	4961
2026-01-18 05:19:59.44	16.85	22.16	-49.2	-51.8	15.4	0.00e+00	0	35	0	520093696	69	5040
2026-01-18 05:20:00.45	16.59	22.20	-49.2	-51.9	15.3	0.00e+00	0	35	0	522190848	69	5059
2026-01-18 05:20:01.45	16.33	22.24	-49.1	-51.7	15.5	0.00e+00	0	35	0	524288000	69	4959
2026-01-18 05:20:02.46	16.07	22.28	-49.0	-51.4	15.8	0.00e+00	0	35	0	525336576	69	4808
2026-01-18 05:20:03.47	15.81	22.31	-49.0	-51.4	15.8	0.00e+00	0	35	0	527433728	69	4812
2026-01-18 05:20:04.48	15.54	22.35	-49.2	-51.8	15.5	0.00e+00	0	36	0	529530880	69	4998
2026-01-18 05:20:05.49	15.28	22.39	-49.5	-52.2	15.0	0.00e+00	0	35	0	531628032	69	5262
2026-01-18 05:20:06.50	15.02	22.43	-49.6	-52.4	14.9	0.00e+00	0	36	0	532676608	70	5065
2026-01-18 05:20:07.51	14.75	22.46	-49.7	-52.6	14.7	1.50e-06	0	36	0	534773760	70	5169
2026-01-18 05:20:08.51	14.49	22.50	-49.8	-52.8	14.5	1.50e-06	0	35	0	536870912	70	5293
2026-01-18 05:20:09.52	14.23	22.53	-50.0	-53.2	14.0	2.20e-06	0	35	0	538968064	70	5586
2026-01-18 05:20:10.53	13.96	22.56	-50.2	-53.5	13.8	3.80e-06	0	36	0	541065216	70	5759
2026-01-18 05:20:11.54	13.69	22.60	-50.5	-54.1	13.2	1.83e-05	0	35	0	543162368	71	5809
2026-01-18 05:20:12.54	13.43	22.63	-50.4	-54.0	13.1	2.97e-05	0	36	0	544210944	71	5783
2026-01-18 05:20:13.55	13.16	22.66	-50.5	-54.2	13.0	2.21e-05	0	36	0	546308096	71	5873
2026-01-18 05:20:14.56	12.89	22.69	-50.4	-54.0	13.3	2.13e-05	0	35	0	548405248	71	5730
2026-01-18 05:20:15.57	12.63	22.72	-50.3	-53.7	13.4	5.30e-06	0	36	0	550502400	71	5577
2026-01-18 05:20:16.58	12.36	22.76	-50.3	-53.7	13.6	1.37e-05	0	36	0	552599552	71	5541
2026-01-18 05:20:17.59	12.09	22.78	-50.0	-53.2	14.1	8.30e-06	0	35	0	553648128	71	5220
2026-01-18 05:20:18.60	11.82	22.81	-49.9	-52.9	14.3	1.50e-06	0	35	0	555745280	71	5072
2026-01-18 05:20:19.60	11.55	22.84	-49.9	-53.0	14.2	7.00e-07	0	35	0	557842432	71	5112
2026-01-18 05:20:20.61	11.28	22.87	-49.8	-52.8	14.5	0.00e+00	0	36	0	559939584	71	5010
2026-01-18 05:20:21.62	11.01	22.90	-49.9	-52.9	14.3	1.50e-06	0	36	0	562036736	71	5098
2026-01-18 05:20:22.62	10.74	22.92	-49.7	-52.6	14.7	0.00e+00	0	36	0	563085312	71	4890
2026-01-18 05:20:23.63	10.47	22.95	-49.9	-53.1	14.2	7.00e-07	0	36	0	565182464	71	5166
2026-01-18 05:20:24.64	10.19	22.97	-49.7	-52.6	14.6	0.00e+00	0	36	0	567279616	71	4925
2026-01-18 05:20:25.65	9.92	23.00	-49.8	-52.9	14.4	7.00e-07	0	36	0	569376768	71	5062
2026-01-18 05:20:26.66	9.65	23.02	-50.1	-53.4	13.8	7.00e-07	0	35	0	571473920	71	5370
2026-01-18 05:20:27.66	9.37	23.04	-50.0	-53.3	14.0	3.00e-06	0	36	0	572522496	71	5280
2026-01-18 05:20:28.67	9.10	23.07	-49.9	-53.0	14.2	1.50e-06	0	35	0	574619648	71	5156
2026-01-18 05:20:29.68	8.82	23.09	-49.9	-53.0	14.2	3.00e-06	0	35	0	576716800	71	5148
2026-01-18 05:20:30.69	8.55	23.11	-49.8	-52.9	14.4	1.50e-06	0	35	0	578813952	71	5043
2026-01-18 05:20:31.70	8.27	23.13	-50.0	-53.1	14.0	0.00e+00	0	35	0	580911104	71	5205
2026-01-18 05:20:32.70	8.00	23.15	-50.3	-53.6	13.6	2.20e-06	0	35	0	581959680	71	5497
2026-01-18 05:20:33.71	7.72	23.17	-50.3	-53.7	13.6	6.80e-06	0	35	0	584056832	71	5553
2026-01-18 05:20:34.72	7.45	23.18	-50.4	-53.9	13.3	1.14e-05	0	35	0	586153984	71	5693
2026-01-18 05:20:35.73	7.17	23.20	-50.4	-54.0	13.2	3.35e-05	0	35	0	588251136	71	5745
2026-01-18 05:20:36.74	6.89	23.22	-50.4	-53.9	13.3	2.44e-05	0	35	0	590348288	71	5711
2026-01-18 05:20:37.75	6.61	23.23	-50.3	-53.8	13.5	4.42e-05	0	35	0	591396864	71	5608
2026-01-18 05:20:38.75	6.34	23.25	-50.5	-54.1	13.1	1.98e-05	0	35	0	593494016	71	5796
2026-01-18 05:20:39.76	6.06	23.26	-50.3	-53.8	13.4	1.75e-05	0	35	0	595591168	71	5654
2026-01-18 05:20:40.77	5.78	23.28	-50.1	-53.3	13.9	1.14e-05	0	35	0	597688320	71	5313
2026-01-18 05:20:41.77	5.51	23.29	-49.9	-53.1	14.1	3.00e-06	0	36	0	599785472	71	5186
2026-01-18 05:20:42.78	5.23	23.30	-50.1	-53.4	13.8	1.50e-06	0	36	0	600834048	71	5379
2026-01-18 05:20:43.79	4.95	23.31	-50.1	-53.4	13.8	3.00e-06	0	36	0	602931200	71	5375
2026-01-18 05:20:44.79	4.67	23.32	-50.2	-53.7	13.6	4.50e-06	0	35	0	605028352	71	5534
2026-01-18 05:20:45.80	4.39	23.34	-50.6	-54.5	12.7	1.22e-05	0	35	0	607125504	71	6091
2026-01-18 05:20:46.81	4.11	23.34	-50.6	-54.5	12.7	5.03e-05	0	35	0	609222656	71	6082
2026-01-18 05:20:47.82	3.83	23.35	-50.4	-54.0	13.2	7.24e-05	0	35	0	611319808	71	5776
2026-01-18 05:20:48.83	3.55	23.36	-50.5	-54.2	13.0	4.50e-05	0	35	0	612368384	71	5917
2026-01-18 05:20:49.83	3.28	23.37	-50.4	-54.1	13.1	3.66e-05	0	36	0	614465536	71	5841
2026-01-18 05:20:50.84	3.00	23.37	-50.2	-53.7	13.5	2.44e-05	0	35	0	616562688	71	5565
2026-01-18 05:20:51.85	2.72	23.38	-50.1	-53.4	13.8	2.20e-06	0	36	0	618659840	71	5374
2026-01-18 05:20:52.86	2.43	23.39	-49.9	-53.1	14.1	0.00e+00	0	35	0	619708416	71	5211
2026-01-18 05:20:53.87	2.15	23.39	-49.5	-52.3	14.9	7.00e-07	0	35	0	621805568	71	4724
2026-01-18 05:20:54.87	1.88	23.39	-49.3	-52.0	15.2	0.00e+00	0	35	0	623902720	70	4834
2026-01-18 05:20:55.88	1.60	23.40	-49.4	-52.2	15.1	0.00e+00	0	36	0	625999872	70	4929
2026-01-18 05:20:56.89	1.31	23.40	-49.4	-52.2	15.1	7.00e-07	0	35	0	628097024	70	4941
2026-01-18 05:20:57.89	1.04	23.40	-49.3	-52.1	15.1	0.00e+00	0	35	0	629145600	70	4903
2026-01-18 05:20:58.90	0.76	23.40	-49.4	-52.3	15.0	0.00e+00	0	35	0	631242752	70	4985
2026-01-18 05:20:59.91	0.48	23.40	-49.5	-52.5	14.7	0.00e+00	0	35	0	633339904	70	5105
2026-01-18 05:21:00.92	0.19	23.40	-49.4	-52.2	14.9	0.00e+00	0	36	0	635437056	70	4939
2026-01-18 05:21:01.93	359.91	23.40	-49.4	-52.2	14.9	0.00e+00	0	35	0	637534208	70	4979
2026-01-18 05:21:02.93	359.64	23.39	-49.2	-52.0	15.3	0.00e+00	0	35	0	639631360	70	4820
2026-01-18 05:21:03.94	359.36	23.39	-49.1	-51.7	15.5	0.00e+00	0	35	0	640679936	70	4676
2026-01-18 05:21:04.95	359.07	23.39	-49.1	-51.6	15.5	0.00e+00	0	35	0	642777088	70	4650
2026-01-18 05:21:05.96	358.79	23.38	-49.2	-51.8	15.4	0.00e+00	0	35	0	644874240	70	4746
2026-01-18 05:21:06.97	358.51	23.38	-48.9	-51.5	15.7	0.00e+00	0	35	0	646971392	69	4841
2026-01-18 05:21:07.97	358.24	23.37	-48.9	-51.4	15.8	0.00e+00	0	36	0	648019968	69	4796
2026-01-18 05:21:08.98	357.96	23.36	-48.8	-51.3	15.9	0.00e+00	0	36	0	650117120	69	4712
2026-01-18 05:21:09.99	357.68	23.36	-48.8	-51.3	15.9	0.00e+00	0	35	0	652214272	69	4708
2026-01-18 05:21:10.99	357.40	23.35	-48.7	-51.1	16.1	0.00e+00	0	35	0	654311424	69	4634
2026-01-18 05:21:12.00	357.12	23.34	-48.7	-51.1	16.0	0.00e+00	0	36	0	656408576	69	4621
2026-01-18 05:21:13.01	356.84	23.33	-48.4	-50.6	16.5	0.00e+00	0	35	0	658505728	68	4651
2026-01-18 05:21:14.02	356.56	23.32	-48.3	-50.4	16.7	0.00e+00	0	35	0	659554304	68	4542
2026-01-18 05:21:15.03	356.28	23.31	-48.3	-50.4	16.7	0.00e+00	0	35	0	661651456	68	4533
2026-01-18 05:21:16.03	356.00	23.30	-48.3	-50.5	16.7	0.00e+00	0	35	0	663748608	68	4581
2026-01-18 05:21:17.04	355.73	23.28	-48.3	-50.6	16.6	0.00e+00	0	35	0	665845760	68	4599
2026-01-18 05:21:18.05	355.45	23.27	-48.5	-50.8	16.5	0.00e+00	0	35	0	667942912	68	4709
2026-01-18 05:21:19.06	355.17	23.26	-48.5	-50.9	16.4	0.00e+00	0	35	0	668991488	68	4763
2026-01-18 05:21:20.06	354.89	23.24	-48.5	-50.8	16.4	0.00e+00	0	35	0	671088640	68	4755
2026-01-18 05:21:21.07	354.62	23.22	-47.8	-49.8	17.3	0.00e+00	0	35	0	673185792	67	4474
2026-01-18 05:21:22.08	354.34	23.21	-47.6	-49.5	17.6	0.00e+00	0	35	0	675282944	67	4311
2026-01-18 05:21:23.09	354.06	23.19	-47.4	-49.3	17.8	0.00e+00	0	35	0	676331520	66	4471
2026-01-18 05:21:24.10	353.78	23.17	-47.4	-49.3	17.8	0.00e+00	0	35	0	678428672	66	4464
2026-01-18 05:21:25.10	353.51	23.16	-47.7	-49.6	17.5	0.00e+00	0	36	0	680525824	66	4644
2026-01-18 05:21:26.11	353.24	23.14	-47.4	-49.2	17.8	0.00e+00	0	35	0	682622976	66	4415
2026-01-18 05:21:27.12	352.96	23.12	-47.4	-49.2	17.9	0.00e+00	0	36	0	684720128	66	4416
2026-01-18 05:21:28.13	352.68	23.10	-47.3	-49.1	17.9	0.00e+00	0	35	0	686817280	66	4372
2026-01-18 05:21:29.13	352.41	23.07	-47.2	-49.0	18.1	0.00e+00	0	35	0	687865856	66	4314
2026-01-18 05:21:30.14	352.14	23.05	-47.2	-48.9	18.1	0.00e+00	0	35	0	689963008	66	4273
2026-01-18 05:21:31.15	351.86	23.03	-47.1	-48.9	18.2	0.00e+00	0	35	0	692060160	65	4503
2026-01-18 05:21:32.16	351.59	23.01	-47.0	-48.7	18.3	0.00e+00	0	35	0	694157312	65	4425
2026-01-18 05:21:33.16	351.32	22.98	-47.1	-48.8	18.2	0.00e+00	0	35	0	696254464	65	4478
2026-01-18 05:21:34.17	351.04	22.96	-46.9	-48.6	18.5	0.00e+00	0	35	0	697303040	65	4357
2026-01-18 05:21:35.18	350.77	22.93	-47.1	-48.9	18.1	0.00e+00	0	35	0	699400192	65	4526
2026-01-18 05:21:36.19	350.50	22.91	-47.4	-49.2	17.9	0.00e+00	0	35	0	701497344	65	4692
2026-01-18 05:21:37.20	350.23	22.88	-47.3	-49.2	17.9	0.00e+00	0	35	0	703594496	65	4652
2026-01-18 05:21:38.21	349.96	22.85	-47.3	-49.2	17.9	0.00e+00	0	35	0	704643072	65	4657
2026-01-18 05:21:39.21	349.69	22.83	-47.5	-49.4	17.6	0.00e+00	0	35	0	706740224	65	4779
2026-01-18 05:21:40.22	349.42	22.80	-47.6	-49.5	17.6	0.00e+00	0	35	0	708837376	65	4830
2026-01-18 05:21:41.23	349.15	22.77	-47.5	-49.5	17.6	0.00e+00	0	35	0	710934528	66	4564
2026-01-18 05:21:42.24	348.88	22.74	-47.3	-49.2	17.8	0.00e+00	0	35	0	713031680	66	4413
2026-01-18 05:21:43.24	348.61	22.71	-47.2	-48.9	18.1	0.00e+00	0	35	0	715128832	66	4280
2026-01-18 05:21:44.25	348.35	22.68	-47.0	-48.7	18.3	0.00e+00	0	35	0	716177408	66	4174
2026-01-18 05:21:45.26	348.08	22.64	-46.6	-48.1	18.8	0.00e+00	0	35	0	718274560	65	4144
2026-01-18 05:21:46.27	347.81	22.61	-46.8	-48.4	18.7	0.00e+00	0	35	0	720371712	65	4272
2026-01-18 05:21:47.27	347.55	22.58	-46.9	-48.6	18.4	0.00e+00	0	35	0	722468864	65	4382
2026-01-18 05:21:48.28	347.28	22.54	-47.2	-49.0	18.0	0.00e+00	0	36	0	724566016	65	4585
2026-01-18 05:21:49.29	347.02	22.51	-47.5	-49.4	17.6	0.00e+00	0	35	0	725614592	65	4802
2026-01-18 05:21:50.30	346.75	22.48	-47.4	-49.3	17.8	0.00e+00	0	35	0	727711744	66	4453
2026-01-18 05:21:51.31	346.49	22.44	-47.4	-49.3	17.8	0.00e+00	0	35	0	729808896	66	4449
2026-01-18 05:21:52.32	346.22	22.40	-47.0	-48.7	18.3	0.00e+00	0	35	0	731906048	66	4160
2026-01-18 05:21:53.32	345.96	22.37	-47.0	-48.7	18.3	0.00e+00	0	35	0	734003200	65	4433
2026-01-18 05:21:54.33	345.70	22.33	-46.6	-48.2	18.7	0.00e+00	0	35	0	735051776	65	4191
2026-01-18 05:21:55.34	345.44	22.29	-46.7	-48.3	18.6	0.00e+00	0	35	0	737148928	65	4229
2026-01-18 05:21:56.34	345.18	22.25	-46.7	-48.4	18.6	0.00e+00	0	35	0	739246080	65	4262
2026-01-18 05:21:57.35	344.92	22.21	-47.0	-48.8	18.2	0.00e+00	0	35	0	741343232	65	4473
2026-01-18 05:21:58.36	344.66	22.18	-47.0	-48.8	18.2	0.00e+00	0	35	0	743440384	65	4459
2026-01-18 05:21:59.37	344.40	22.13	-47.1	-49.0	18.1	0.00e+00	0	35	0	744488960	65	4548
2026-01-18 05:22:00.38	344.14	22.09	-47.3	-49.2	17.8	0.00e+00	0	35	0	746586112	65	4694
2026-01-18 05:22:01.38	343.89	22.05	-47.6	-49.5	17.5	0.00e+00	0	35	0	748683264	65	4852
2026-01-18 05:22:02.39	343.63	22.01	-47.6	-49.6	17.5	0.00e+00	0	35	0	750780416	66	4636
2026-01-18 05:22:03.40	343.37	21.97	-48.1	-50.3	16.8	0.00e+00	0	35	0	752877568	66	5004
2026-01-18 05:22:04.41	343.12	21.93	-48.1	-50.3	16.8	0.00e+00	0	35	0	753926144	67	4740
2026-01-18 05:22:05.42	342.86	21.88	-48.1	-50.3	16.7	0.00e+00	0	35	0	756023296	67	4736
2026-01-18 05:22:06.42	342.61	21.84	-47.9	-50.1	16.9	0.00e+00	0	36	0	758120448	67	4607
2026-01-18 05:22:07.43	342.36	21.79	-47.6	-49.6	17.4	0.00e+00	0	35	0	760217600	67	4382
2026-01-18 05:22:08.44	342.11	21.75	-47.7	-49.7	17.3	0.00e+00	0	35	0	762314752	67	4435
2026-01-18 05:22:09.44	341.86	21.70	-47.4	-49.3	17.7	0.00e+00	0	35	0	763363328	66	4480
2026-01-18 05:22:10.45	341.61	21.66	-47.4	-49.3	17.7	0.00e+00	0	36	0	765460480	66	4471
2026-01-18 05:22:11.46	341.36	21.61	-47.3	-49.1	17.8	0.00e+00	0	35	0	767557632	66	4382
2026-01-18 05:22:12.47	341.11	21.56	-47.2	-49.1	17.9	0.00e+00	0	35	0	769654784	66	4346
2026-01-18 05:22:13.48	340.86	21.52	-47.3	-49.1	17.8	0.00e+00	0	36	0	771751936	66	4391
2026-01-18 05:22:14.49	340.61	21.47	-47.4	-49.3	17.6	0.00e+00	0	35	0	772800512	66	4491
2026-01-18 05:22:15.49	340.36	21.42	-47.3	-49.2	17.7	0.00e+00	0	35	0	774897664	66	4429
2026-01-18 05:22:16.50	340.12	21.37	-47.2	-49.1	17.9	0.00e+00	0	36	0	776994816	66	4362
2026-01-18 05:22:17.51	339.87	21.32	-47.0	-48.8	18.1	0.00e+00	0	35	0	779091968	66	4224
2026-01-18 05:22:18.52	339.63	21.27	-46.8	-48.6	18.4	0.00e+00	0	35	0	781189120	65	4346
2026-01-18 05:22:19.52	339.39	21.22	-47.1	-48.9	18.0	0.00e+00	0	35	0	782237696	65	4510
2026-01-18 05:22:20.53	339.14	21.17	-47.0	-48.8	18.2	0.00e+00	0	35	0	784334848	65	4470
2026-01-18 05:22:21.54	338.90	21.12	-46.9	-48.7	18.3	0.00e+00	0	35	0	786432000	65	4396
2026-01-18 05:22:22.55	338.66	21.07	-46.8	-48.5	18.4	0.00e+00	0	35	0	788529152	65	4336
2026-01-18 05:22:23.56	338.42	21.02	-46.5	-48.1	18.6	0.00e+00	0	35	0	790626304	65	4143
2026-01-18 05:22:24.57	338.18	20.96	-46.6	-48.2	18.7	0.00e+00	0	35	0	791674880	65	4184
2026-01-18 05:22:25.57	337.94	20.91	-46.5	-48.2	18.6	0.00e+00	0	35	0	793772032	65	4149
2026-01-18 05:22:26.58	337.70	20.86	-46.9	-48.6	18.3	0.00e+00	0	35	0	795869184	65	4382
2026-01-18 05:22:27.58	337.47	20.80	-46.9	-48.7	18.2	0.00e+00	0	35	0	797966336	65	4441
2026-01-18 05:22:28.59	337.23	20.75	-47.2	-49.0	17.9	0.00e+00	0	35	0	800063488	65	4597
2026-01-18 05:22:29.60	336.99	20.70	-47.1	-48.9	18.0	0.00e+00	0	35	0	801112064	65	4518
2026-01-18 05:22:30.61	336.76	20.64	-47.3	-49.3	17.7	0.00e+00	0	35	0	803209216	65	4718
2026-01-18 05:22:31.61	336.53	20.59	-47.2	-49.0	17.7	0.00e+00	0	35	0	805306368	65	4586
2026-01-18 05:22:32.63	336.29	20.53	-47.4	-49.4	17.5	0.00e+00	0	35	0	807403520	65	4812
2026-01-18 05:22:33.63	336.06	20.47	-47.3	-49.3	17.7	0.00e+00	0	35	0	809500672	65	4712
2026-01-18 05:22:34.64	335.83	20.42	-47.3	-49.2	17.7	0.00e+00	0	35	0	810549248	65	4690
2026-01-18 05:22:35.65	335.60	20.36	-47.4	-49.4	17.6	0.00e+00	0	35	0	812646400	65	4760
2026-01-18 05:22:36.66	335.37	20.30	-47.7	-49.9	17.0	0.00e+00	0	35	0	814743552	66	4781
2026-01-18 05:22:37.66	335.14	20.25	-48.1	-50.5	16.4	0.00e+00	0	35	0	816840704	66	5143
2026-01-18 05:22:38.67	334.91	20.19	-48.5	-51.1	15.8	0.00e+00	0	35	0	818937856	67	5212
2026-01-18 05:22:39.68	334.69	20.13	-48.7	-51.3	15.7	0.00e+00	0	35	0	819986432	68	5040
2026-01-18 05:22:40.69	334.46	20.07	-48.7	-51.4	15.7	0.00e+00	0	35	0	822083584	68	5066
2026-01-18 05:22:41.69	334.24	20.01	-48.4	-50.9	16.1	0.00e+00	0	35	0	824180736	68	4794
2026-01-18 05:22:42.70	334.01	19.95	-47.9	-50.1	16.8	0.00e+00	0	35	0	826277888	67	4632
2026-01-18 05:22:43.70	333.79	19.89	-47.6	-49.7	17.2	0.00e+00	0	35	0	828375040	66	4682
2026-01-18 05:22:44.71	333.57	19.83	-47.3	-49.2	17.7	0.00e+00	0	35	0	830472192	66	4435
2026-01-18 05:22:45.72	333.35	19.77	-46.8	-48.6	18.3	0.00e+00	0	35	0	831520768	65	4388
2026-01-18 05:22:46.73	333.13	19.71	-46.6	-48.4	18.5	0.00e+00	0	35	0	833617920	65	4274
2026-01-18 05:22:47.73	332.91	19.65	-46.7	-48.5	18.4	0.00e+00	0	35	0	835715072	65	4310
2026-01-18 05:22:48.74	332.69	19.59	-46.0	-47.6	19.2	0.00e+00	0	35	0	837812224	64	4106
2026-01-18 05:22:49.75	332.47	19.53	-46.1	-47.7	19.2	0.00e+00	0	35	0	838860800	63	4397
2026-01-18 05:22:50.76	332.25	19.47	-45.8	-47.2	19.6	0.00e+00	0	35	0	840957952	63	4189
2026-01-18 05:22:51.76	332.04	19.41	-45.8	-47.3	19.5	0.00e+00	0	35	0	843055104	63	4239
2026-01-18 05:22:52.77	331.82	19.34	-45.8	-47.3	19.6	0.00e+00	0	35	0	845152256	63	4227
2026-01-18 05:22:53.78	331.61	19.28	-45.7	-47.2	19.7	0.00e+00	0	35	0	847249408	63	4165
2026-01-18 05:22:54.79	331.39	19.22	-45.7	-47.2	19.7	0.00e+00	0	35	0	848297984	63	4150
2026-01-18 05:22:55.80	331.18	19.16	-45.7	-47.2	19.6	0.00e+00	0	35	0	850395136	63	4169
2026-01-18 05:22:56.80	330.97	19.09	-45.7	-47.1	19.7	0.00e+00	0	35	0	852492288	63	4135
2026-01-18 05:22:57.81	330.76	19.03	-45.6	-47.0	19.8	0.00e+00	0	35	0	854589440	63	4075
2026-01-18 05:22:58.82	330.55	18.97	-45.5	-46.9	19.9	0.00e+00	0	35	0	856686592	62	4266
2026-01-18 05:22:59.83	330.34	18.90	-45.3	-46.6	20.1	0.00e+00	0	35	0	858783744	62	4144
2026-01-18 05:23:00.84	330.13	18.84	-45.3	-46.7	20.0	0.00e+00	0	35	0	859832320	62	4188
2026-01-18 05:23:01.84	329.92	18.77	-45.6	-47.1	19.8	0.00e+00	0	35	0	861929472	62	4347
2026-01-18 05:23:02.85	329.72	18.71	-46.0	-47.5	19.0	0.00e+00	0	35	0	864026624	62	4589
2026-01-18 05:23:03.86	329.51	18.64	-46.4	-48.1	18.8	0.00e+00	0	35	0	866123776	63	4600
2026-01-18 05:23:04.86	329.31	18.58	-46.7	-48.5	18.4	0.00e+00	0	35	0	867172352	64	4546
2026-01-18 05:23:05.87	329.10	18.51	-47.0	-48.9	18.0	0.00e+00	0	35	0	869269504	64	4785
2026-01-18 05:23:06.88	328.90	18.45	-47.4	-49.4	17.4	0.00e+00	0	35	0	871366656	65	4808
2026-01-18 05:23:07.89	328.70	18.38	-47.5	-49.7	17.1	0.00e+00	0	35	0	873463808	65	4944
2026-01-18 05:23:08.90	328.50	18.32	-47.4	-49.5	17.4	0.00e+00	0	35	0	875560960	65	4830
2026-01-18 05:23:09.91	328.29	18.25	-47.5	-49.6	17.3	0.00e+00	0	35	0	876609536	65	4895
2026-01-18 05:23:10.91	328.10	18.19	-47.1	-49.1	17.7	0.00e+00	0	35	0	878706688	65	4635
2026-01-18 05:23:11.92	327.90	18.12	-46.9	-48.7	18.1	0.00e+00	0	35	0	880803840	65	4436
2026-01-18 05:23:12.93	327.70	18.05	-46.4	-48.1	18.6	0.00e+00	0	35	0	882900992	64	4386
2026-01-18 05:23:13.94	327.50	17.99	-46.3	-47.9	18.8	0.00e+00	0	35	0	884998144	64	4282
2026-01-18 05:23:14.94	327.31	17.92	-46.2	-47.8	18.9	0.00e+00	0	35	0	887095296	64	4241
2026-01-18 05:23:15.95	327.11	17.85	-46.1	-47.6	19.1	0.00e+00	0	35	0	888143872	64	4145
2026-01-18 05:23:16.96	326.92	17.78	-46.0	-47.6	19.2	0.00e+00	0	35	0	890241024	63	4366
2026-01-18 05:23:17.97	326.72	17.72	-45.8	-47.3	19.5	0.00e+00	0	35	0	892338176	63	4206
2026-01-18 05:23:18.98	326.53	17.65	-45.8	-47.3	19.5	0.00e+00	0	35	0	894435328	63	4227
2026-01-18 05:23:19.98	326.34	17.58	-45.8	-47.3	19.5	0.00e+00	0	35	0	895483904	63	4219
2026-01-18 05:23:20.99	326.15	17.51	-45.9	-47.4	19.5	0.00e+00	0	35	0	897581056	63	4245
2026-01-18 05:23:22.00	325.96	17.45	-45.8	-47.3	19.6	0.00e+00	0	35	0	899678208	63	4196
2026-01-18 05:23:23.01	325.77	17.38	-46.0	-47.6	19.2	0.00e+00	0	36	0	901775360	63	4361
2026-01-18 05:23:24.01	325.58	17.31	-46.3	-47.9	18.9	0.00e+00	0	35	0	903872512	63	4544
2026-01-18 05:23:25.02	325.40	17.24	-46.6	-48.4	18.4	0.00e+00	0	35	0	905969664	64	4518
2026-01-18 05:23:26.03	325.21	17.17	-46.9	-48.7	18.1	0.00e+00	0	35	0	907018240	64	4686
2026-01-18 05:23:27.04	325.02	17.10	-46.6	-48.3	18.5	0.00e+00	0	35	0	909115392	64	4473
2026-01-18 05:23:28.05	324.84	17.04	-46.3	-48.0	18.7	0.00e+00	0	35	0	911212544	64	4307
2026-01-18 05:23:29.06	324.66	16.97	-46.2	-47.8	18.9	0.00e+00	0	35	0	913309696	64	4216
2026-01-18 05:23:30.06	324.47	16.90	-46.3	-47.9	18.8	0.00e+00	0	35	0	915406848	64	4279
2026-01-18 05:23:31.07	324.29	16.83	-46.2	-47.8	19.0	0.00e+00	0	35	0	916455424	64	4227
2026-01-18 05:23:32.08	324.11	16.76	-46.3	-48.0	18.8	0.00e+00	0	35	0	918552576	64	4309
2026-01-18 05:23:33.09	323.93	16.69	-46.4	-48.2	18.6	0.00e+00	0	35	0	920649728	64	4397
2026-01-18 05:23:34.10	323.75	16.62	-46.4	-48.1	18.6	0.00e+00	0	35	0	922746880	64	4386
2026-01-18 05:23:35.10	323.57	16.55	-46.5	-48.2	18.5	0.00e+00	0	36	0	923795456	64	4425
2026-01-18 05:23:36.11	323.39	16.48	-46.5	-48.3	18.5	0.00e+00	0	35	0	925892608	64	4450
2026-01-18 05:23:37.12	323.22	16.41	-46.3	-48.0	18.7	0.00e+00	0	35	0	927989760	64	4334
2026-01-18 05:23:38.13	323.04	16.34	-46.3	-48.0	18.8	0.00e+00	0	35	0	930086912	64	4313
2026-01-18 05:23:39.13	322.87	16.27	-46.2	-47.9	18.9	0.00e+00	0	35	0	932184064	64	4248
2026-01-18 05:23:40.14	322.69	16.20	-46.2	-47.9	18.9	0.00e+00	0	35	0	934281216	64	4254
2026-01-18 05:23:41.15	322.52	16.13	-46.1	-47.7	19.1	0.00e+00	0	35	0	935329792	64	4150
2026-01-18 05:23:42.16	322.34	16.06	-46.1	-47.7	19.0	0.00e+00	0	35	0	937426944	64	4166
2026-01-18 05:23:43.16	322.17	15.99	-45.9	-47.4	19.4	0.00e+00	0	35	0	939524096	63	4268
2026-01-18 05:23:44.17	322.00	15.92	-45.7	-47.1	19.7	0.00e+00	0	35	0	941621248	63	4136
2026-01-18 05:23:45.18	321.83	15.85	-45.7	-47.2	19.5	0.00e+00	0	35	0	943718400	63	4182
2026-01-18 05:23:46.19	321.66	15.78	-45.8	-47.3	19.5	0.00e+00	0	35	0	944766976	63	4231
2026-01-18 05:23:47.20	321.49	15.71	-46.0	-47.5	19.3	0.00e+00	0	35	0	946864128	63	4324
2026-01-18 05:23:48.20	321.32	15.64	-46.1	-47.6	19.2	0.00e+00	0	35	0	948961280	63	4368
2026-01-18 05:23:49.21	321.16	15.57	-46.0	-47.6	19.2	0.00e+00	0	35	0	951058432	63	4359
2026-01-18 05:23:50.22	320.99	15.50	-45.9	-47.4	19.4	0.00e+00	0	35	0	953155584	63	4249
2026-01-18 05:23:51.23	320.82	15.43	-45.6	-47.0	19.7	0.00e+00	0	35	0	954204160	63	4094
2026-01-18 05:23:52.24	320.66	15.36	-45.4	-46.8	20.0	0.00e+00	0	35	0	956301312	62	4208
2026-01-18 05:23:53.24	320.50	15.29	-45.1	-46.4	20.3	0.00e+00	0	35	0	958398464	62	4047
2026-01-18 05:23:54.25	320.33	15.22	-45.1	-46.4	20.3	0.00e+00	0	35	0	960495616	62	4017
2026-01-18 05:23:55.26	320.17	15.15	-45.1	-46.4	20.3	0.00e+00	0	35	0	962592768	62	4041
2026-01-18 05:23:56.27	320.01	15.08	-45.0	-46.3	20.4	0.00e+00	0	35	0	963641344	61	4211
2026-01-18 05:23:57.28	319.85	15.01	-45.2	-46.5	20.2	0.00e+00	0	35	0	965738496	61	4320
2026-01-18 05:23:58.29	319.69	14.94	-45.2	-46.5	20.2	0.00e+00	0	35	0	967835648	61	4339
2026-01-18 05:23:59.30	319.53	14.87	-45.3	-46.7	20.1	0.00e+00	0	35	0	969932800	61	4399
2026-01-18 05:24:00.31	319.37	14.80	-45.4	-46.7	20.0	0.00e+00	0	35	0	972029952	61	4436
2026-01-18 05:24:01.31	319.21	14.73	-45.7	-47.1	19.6	0.00e+00	0	35	0	974127104	61	4643
2026-01-18 05:24:02.32	319.05	14.65	-45.8	-47.2	19.5	0.00e+00	0	35	0	975175680	62	4435
2026-01-18 05:24:03.33	318.90	14.58	-45.9	-47.4	19.4	0.00e+00	0	35	0	977272832	62	4537
2026-01-18 05:24:04.34	318.74	14.51	-46.0	-47.6	19.3	0.00e+00	0	35	0	979369984	62	4615
2026-01-18 05:24:05.35	318.59	14.44	-46.1	-47.6	19.2	0.00e+00	0	35	0	981467136	62	4632
2026-01-18 05:24:06.35	318.43	14.37	-46.0	-47.5	19.3	0.00e+00	0	35	0	982515712	62	4573
2026-01-18 05:24:07.36	318.28	14.30	-45.9	-47.4	19.4	0.00e+00	0	35	0	984612864	62	4543
2026-01-18 05:24:08.37	318.13	14.23	-45.7	-47.1	19.6	0.00e+00	0	35	0	986710016	62	4384
2026-01-18 05:24:09.38	317.97	14.16	-45.5	-46.9	19.9	0.00e+00	0	35	0	988807168	62	4249
2026-01-18 05:24:10.39	317.82	14.09	-45.4	-46.8	19.9	0.00e+00	0	35	0	990904320	62	4231
2026-01-18 05:24:11.39	317.67	14.02	-45.4	-46.8	19.9	0.00e+00	0	35	0	991952896	62	4218
2026-01-18 05:24:12.40	317.52	13.95	-45.4	-46.8	19.9	0.00e+00	0	35	0	994050048	62	4218
2026-01-18 05:24:13.41	317.37	13.88	-45.4	-46.8	19.9	0.00e+00	0	35	0	996147200	62	4206
2026-01-18 05:24:14.42	317.23	13.80	-45.7	-47.2	19.6	0.00e+00	0	35	0	998244352	62	4404
2026-01-18 05:24:15.43	317.08	13.73	-46.0	-47.5	19.3	0.00e+00	0	35	0	1000341504	62	4577
2026-01-18 05:24:16.43	316.93	13.66	-46.0	-47.6	19.2	0.00e+00	0	35	0	1002438656	62	4615
2026-01-18 05:24:17.44	316.79	13.59	-46.4	-48.1	18.7	0.00e+00	0	35	0	1003487232	63	4601
2026-01-18 05:24:18.44	316.64	13.52	-46.3	-47.9	18.8	0.00e+00	0	35	0	1005584384	63	4542
2026-01-18 05:24:19.45	316.50	13.45	-46.5	-48.2	18.6	0.00e+00	0	35	0	1007681536	63	4677
2026-01-18 05:24:20.46	316.35	13.38	-46.5	-48.2	18.6	0.00e+00	0	36	0	1009778688	63	4671
2026-01-18 05:24:21.47	316.21	13.31	-46.4	-48.0	18.7	0.00e+00	0	35	0	1010827264	63	4594
2026-01-18 05:24:22.48	316.07	13.24	-46.3	-47.9	18.9	0.00e+00	0	35	0	1012924416	63	4508
2026-01-18 05:24:23.48	315.93	13.17	-46.3	-47.9	18.9	0.00e+00	0	35	0	1015021568	63	4506
2026-01-18 05:24:24.49	315.78	13.10	-46.3	-47.9	18.8	0.00e+00	0	35	0	1017118720	63	4543
2026-01-18 05:24:25.50	315.64	13.03	-46.1	-47.6	19.1	0.00e+00	0	35	0	1019215872	63	4380
2026-01-18 05:24:26.51	315.50	12.96	-46.2	-47.8	18.9	0.00e+00	0	35	0	1021313024	63	4481
2026-01-18 05:24:27.52	315.36	12.89	-46.0	-47.5	19.3	0.00e+00	0	35	0	1022361600	63	4308
2026-01-18 05:24:28.53	315.23	12.82	-45.9	-47.4	19.3	0.00e+00	0	35	0	1024458752	63	4266
2026-01-18 05:24:29.53	315.09	12.75	-45.6	-47.0	19.7	0.00e+00	0	35	0	1026555904	63	4063
2026-01-18 05:24:30.54	314.95	12.68	-45.6	-47.1	19.6	0.00e+00	0	35	0	1028653056	63	4103
2026-01-18 05:24:31.54	314.82	12.61	-45.6	-47.0	19.6	0.00e+00	0	35	0	1030750208	63	4075
2026-01-18 05:24:32.55	314.68	12.54	-45.5	-46.9	19.8	0.00e+00	0	35	0	1031798784	62	4247
2026-01-18 05:24:33.56	314.55	12.47	-45.7	-47.1	19.6	0.00e+00	0	35	0	1033895936	62	4376
2026-01-18 05:24:34.57	314.41	12.40	-45.8	-47.3	19.4	0.00e+00	0	35	0	1035993088	62	4447
2026-01-18 05:24:35.58	314.28	12.33	-46.2	-47.9	18.9	0.00e+00	0	35	0	1038090240	63	4494
2026-01-18 05:24:36.59	314.14	12.26	-46.6	-48.3	18.5	0.00e+00	0	35	0	1039138816	63	4744
2026-01-18 05:24:37.59	314.01	12.19	-46.9	-48.8	17.9	0.00e+00	0	35	0	1041235968	64	4721
2026-01-18 05:24:38.60	313.88	12.12	-47.0	-48.9	17.8	0.00e+00	0	35	0	1043333120	64	4785
2026-01-18 05:24:39.61	313.75	12.05	-47.2	-49.2	17.5	0.00e+00	0	35	0	1045430272	65	4681
2026-01-18 05:24:40.62	313.62	11.98	-47.1	-49.0	17.7	0.00e+00	0	35	0	1047527424	65	4547
2026-01-18 05:24:41.63	313.49	11.91	-46.9	-48.7	18.0	0.00e+00	0	35	0	1049624576	65	4419
2026-01-18 05:24:42.64	313.36	11.84	-47.0	-48.9	17.8	0.00e+00	0	35	0	1050673152	65	4499
2026-01-18 05:24:43.65	313.23	11.77	-46.5	-48.2	18.5	0.00e+00	0	35	0	1052770304	64	4405
2026-01-18 05:24:44.65	313.10	11.70	-46.5	-48.2	18.5	0.00e+00	0	35	0	1054867456	64	4409
2026-01-18 05:24:45.66	312.97	11.63	-46.3	-48.0	18.7	0.00e+00	0	35	0	1056964608	64	4294
2026-01-18 05:24:46.67	312.85	11.56	-46.3	-48.0	18.6	0.00e+00	0	35	0	1059061760	64	4309
2026-01-18 05:24:47.68	312.72	11.49	-46.2	-47.8	18.8	0.00e+00	0	35	0	1060110336	64	4205
2026-01-18 05:24:48.68	312.60	11.42	-46.2	-47.8	18.8	0.00e+00	0	35	0	1062207488	64	4230
2026-01-18 05:24:49.69	312.47	11.35	-46.3	-47.9	18.7	0.00e+00	0	35	0	1064304640	64	4275
2026-01-18 05:24:50.70	312.35	11.28	-46.3	-47.9	18.7	0.00e+00	0	35	0	1066401792	64	4269
2026-01-18 05:24:51.70	312.22	11.21	-46.6	-48.3	18.3	0.00e+00	0	35	0	1067450368	64	4477
2026-01-18 05:24:52.71	312.10	11.14	-46.6	-48.4	18.3	0.00e+00	0	35	0	1069547520	64	4501
2026-01-18 05:24:53.72	311.98	11.07	-46.6	-48.4	18.3	0.00e+00	0	35	0	1071644672	64	4497
2026-01-18 05:24:54.73	311.85	11.00	-46.3	-48.0	18.6	0.00e+00	0	35	0	1073741824	64	4312
2026-01-18 05:24:55.74	311.73	10.93	-46.4	-48.1	18.4	0.00e+00	0	35	0	1075838976	64	4364
2026-01-18 05:24:56.75	311.61	10.87	-46.5	-48.2	18.4	0.00e+00	0	35	0	1077936128	64	4404
2026-01-18 05:24:57.75	311.49	10.80	-46.4	-48.1	18.5	0.00e+00	0	35	0	1078984704	64	4379
2026-01-18 05:24:58.76	311.37	10.73	-46.7	-48.4	18.2	0.00e+00	0	35	0	1081081856	64	4542
2026-01-18 05:24:59.77	311.25	10.66	-46.5	-48.2	18.3	0.00e+00	0	35	0	1083179008	64	4440
2026-01-18 05:25:00.78	311.13	10.59	-46.8	-48.5	18.0	0.00e+00	0	35	0	1085276160	64	4598
2026-01-18 05:25:01.79	311.02	10.52	-46.9	-48.7	17.9	0.00e+00	0	35	0	1087373312	64	4703
2026-01-18 05:25:02.79	310.90	10.45	-47.0	-48.9	17.7	0.00e+00	0	35	0	1088421888	64	4764
2026-01-18 05:25:03.80	310.78	10.39	-47.1	-49.0	17.6	0.00e+00	0	35	0	1090519040	64	4841
2026-01-18 05:25:04.81	310.67	10.32	-47.2	-49.1	17.5	0.00e+00	0	35	0	1092616192	64	4910
2026-01-18 05:25:05.82	310.55	10.25	-47.1	-49.1	17.5	0.00e+00	0	35	0	1094713344	64	4889
2026-01-18 05:25:06.83	310.44	10.18	-46.8	-48.7	17.9	0.00e+00	0	35	0	1096810496	64	4661
2026-01-18 05:25:07.83	310.32	10.11	-47.0	-49.0	17.6	0.00e+00	0	35	0	1097859072	64	4826
2026-01-18 05:25:08.84	310.21	10.04	-46.9	-48.8	17.7	0.00e+00	0	35	0	1099956224	64	4744
2026-01-18 05:25:09.85	310.09	9.98	-47.0	-49.0	17.6	0.00e+00	0	35	0	1102053376	64	4824
2026-01-18 05:25:10.86	309.98	9.91	-47.2	-49.3	17.3	0.00e+00	0	35	0	1104150528	65	4709
2026-01-18 05:25:11.86	309.87	9.84	-47.2	-49.2	17.4	0.00e+00	0	35	0	1106247680	65	4694
2026-01-18 05:25:12.87	309.76	9.77	-47.3	-49.4	17.1	0.00e+00	0	35	0	1107296256	65	4797
2026-01-18 05:25:13.88	309.65	9.71	-47.5	-49.7	16.9	0.00e+00	0	35	0	1109393408	65	4928
2026-01-18 05:25:14.89	309.53	9.64	-47.7	-50.0	16.6	0.00e+00	0	35	0	1111490560	66	4838
2026-01-18 05:25:15.90	309.42	9.57	-47.9	-50.2	16.4	0.00e+00	0	35	0	1113587712	66	4955
2026-01-18 05:25:16.91	309.31	9.50	-47.8	-50.0	16.5	0.00e+00	0	35	0	1115684864	66	4865
2026-01-18 05:25:17.91	309.21	9.44	-47.8	-50.0	16.5	0.00e+00	0	35	0	1116733440	66	4853
2026-01-18 05:25:18.92	309.10	9.37	-47.9	-50.1	16.4	0.00e+00	0	35	0	1118830592	66	4911
2026-01-18 05:25:19.93	308.99	9.30	-47.8	-50.1	16.5	0.00e+00	0	35	0	1120927744	66	4886
2026-01-18 05:25:20.94	308.88	9.23	-47.6	-49.8	16.8	0.00e+00	0	35	0	1123024896	66	4722
2026-01-18 05:25:21.95	308.77	9.17	-47.3	-49.4	17.1	0.00e+00	0	36	0	1125122048	66	4496
2026-01-18 05:25:22.95	308.67	9.10	-47.1	-49.0	17.5	0.00e+00	0	36	0	1126170624	66	4315
2026-01-18 05:25:23.96	308.56	9.03	-47.0	-48.9	17.6	0.00e+00	0	35	0	1128267776	66	4253
2026-01-18 05:25:24.97	308.45	8.97	-47.0	-48.9	17.6	0.00e+00	0	35	0	1130364928	65	4497
2026-01-18 05:25:25.98	308.35	8.90	-46.9	-48.8	17.7	0.00e+00	0	35	0	1132462080	65	4485
2026-01-18 05:25:26.99	308.24	8.83	-46.8	-48.6	17.9	0.00e+00	0	35	0	1134559232	65	4364
2026-01-18 05:25:27.99	308.14	8.77	-46.7	-48.5	18.0	0.00e+00	0	35	0	1135607808	65	4319
2026-01-18 05:25:29.00	308.04	8.70	-46.9	-48.8	17.7	0.00e+00	0	35	0	1137704960	65	4475
2026-01-18 05:25:30.01	307.93	8.63	-47.0	-49.0	17.5	0.00e+00	0	35	0	1139802112	65	4551
2026-01-18 05:25:31.02	307.83	8.57	-47.2	-49.1	17.3	0.00e+00	0	35	0	1141899264	65	4637
2026-01-18 05:25:32.02	307.73	8.50	-47.2	-49.2	17.3	0.00e+00	0	35	0	1143996416	65	4688
2026-01-18 05:25:33.03	307.63	8.44	-47.2	-49.2	17.3	0.00e+00	0	35	0	1145044992	65	4653
2026-01-18 05:25:34.04	307.53	8.37	-47.4	-49.5	17.0	0.00e+00	0	35	0	1147142144	65	4854
2026-01-18 05:25:35.05	307.42	8.30	-47.4	-49.5	17.0	0.00e+00	0	35	0	1149239296	65	4840
2026-01-18 05:25:36.06	307.32	8.24	-47.5	-49.6	16.9	0.00e+00	0	35	0	1151336448	65	4902
2026-01-18 05:25:37.07	307.22	8.17	-47.4	-49.5	16.9	0.00e+00	0	35	0	1153433600	65	4834
2026-01-18 05:25:38.07	307.12	8.11	-47.4	-49.5	16.9	0.00e+00	0	35	0	1154482176	65	4860
2026-01-18 05:25:39.08	307.03	8.04	-47.4	-49.4	17.0	0.00e+00	0	35	0	1156579328	65	4795
2026-01-18 05:25:40.09	306.93	7.98	-47.3	-49.4	17.0	0.00e+00	0	35	0	1158676480	65	4760
2026-01-18 05:25:41.10	306.83	7.91	-47.4	-49.4	17.0	0.00e+00	0	35	0	1160773632	65	4798
2026-01-18 05:25:42.10	306.73	7.84	-47.2	-49.2	17.2	0.00e+00	0	35	0	1162870784	65	4681
2026-01-18 05:25:43.11	306.63	7.78	-47.1	-49.1	17.3	0.00e+00	0	35	0	1164967936	65	4625
2026-01-18 05:25:44.12	306.54	7.71	-47.0	-49.0	17.4	0.00e+00	0	35	0	1166016512	65	4552
2026-01-18 05:25:45.13	306.44	7.65	-47.1	-49.0	17.4	0.00e+00	0	35	0	1168113664	65	4578
2026-01-18 05:25:46.14	306.35	7.58	-47.1	-49.1	17.3	0.00e+00	0	35	0	1170210816	65	4612
2026-01-18 05:25:47.15	306.25	7.52	-47.0	-49.0	17.4	0.00e+00	0	35	0	1172307968	65	4567
2026-01-18 05:25:48.15	306.16	7.45	-47.2	-49.2	17.2	0.00e+00	0	35	0	1173356544	65	4675
2026-01-18 05:25:49.16	306.06	7.39	-47.3	-49.3	17.0	0.00e+00	0	35	0	1175453696	65	4753
2026-01-18 05:25:50.17	305.97	7.32	-47.3	-49.3	17.0	0.00e+00	0	35	0	1177550848	65	4747
2026-01-18 05:25:51.17	305.87	7.26	-47.2	-49.3	17.0	0.00e+00	0	35	0	1179648000	65	4732
2026-01-18 05:25:52.18	305.78	7.20	-47.3	-49.3	17.0	0.00e+00	0	35	0	1181745152	65	4755
2026-01-18 05:25:53.19	305.69	7.13	-47.5	-49.7	16.7	0.00e+00	0	35	0	1182793728	65	4947
2026-01-18 05:25:54.20	305.59	7.07	-47.7	-50.0	16.4	0.00e+00	0	35	0	1184890880	65	5106
2026-01-18 05:25:55.20	305.50	7.00	-47.7	-50.0	16.3	0.00e+00	0	35	0	1186988032	66	4843
2026-01-18 05:25:56.21	305.41	6.94	-47.9	-50.2	16.2	0.00e+00	0	35	0	1189085184	66	4968
2026-01-18 05:25:57.22	305.32	6.88	-48.0	-50.4	16.0	0.00e+00	0	35	0	1191182336	66	5057
2026-01-18 05:25:58.23	305.23	6.81	-47.9	-50.4	16.0	0.00e+00	0	35	0	1193279488	66	5046
2026-01-18 05:25:59.24	305.14	6.75	-48.1	-50.6	15.8	0.00e+00	0	35	0	1194328064	66	5172
2026-01-18 05:26:00.24	305.05	6.68	-48.3	-50.9	15.4	0.00e+00	0	35	0	1196425216	67	5053
2026-01-18 05:26:01.25	304.96	6.62	-48.4	-51.0	15.3	0.00e+00	0	35	0	1198522368	67	5149
2026-01-18 05:26:02.26	304.87	6.56	-48.5	-51.2	15.1	0.00e+00	0	35	0	1200619520	67	5221
2026-01-18 05:26:03.27	304.78	6.49	-48.5	-51.3	15.0	0.00e+00	0	35	0	1201668096	67	5314
2026-01-18 05:26:04.28	304.69	6.43	-48.6	-51.4	14.9	0.00e+00	0	35	0	1203765248	67	5365
2026-01-18 05:26:05.28	304.61	6.37	-48.8	-51.8	14.7	7.00e-07	0	35	0	1205862400	68	5286
2026-01-18 05:26:06.29	304.52	6.30	-48.8	-51.7	14.7	7.00e-07	0	35	0	1207959552	68	5239
2026-01-18 05:26:07.30	304.43	6.24	-48.9	-52.0	14.4	7.00e-07	0	35	0	1210056704	68	5405
2026-01-18 05:26:08.31	304.34	6.18	-48.9	-51.8	14.6	7.00e-07	0	35	0	1212153856	68	5308
2026-01-18 05:26:09.31	304.26	6.11	-49.0	-52.1	14.2	7.00e-07	0	35	0	1213202432	68	5517
2026-01-18 05:26:10.32	304.17	6.05	-49.0	-52.0	14.3	0.00e+00	0	35	0	1215299584	68	5431
2026-01-18 05:26:11.33	304.09	5.99	-49.0	-52.0	14.4	1.50e-06	0	35	0	1217396736	68	5418
2026-01-18 05:26:12.34	304.00	5.93	-48.9	-51.9	14.4	0.00e+00	0	35	0	1219493888	68	5399
2026-01-18 05:26:13.35	303.92	5.86	-48.9	-51.8	14.5	0.00e+00	0	35	0	1221591040	68	5312
2026-01-18 05:26:14.35	303.83	5.80	-48.9	-51.9	14.4	0.00e+00	0	35	0	1222639616	68	5367
2026-01-18 05:26:15.36	303.75	5.74	-48.8	-51.7	14.6	7.00e-07	0	35	0	1224736768	68	5264
2026-01-18 05:26:16.37	303.67	5.68	-49.0	-52.1	14.2	0.00e+00	0	35	0	1226833920	68	5493
2026-01-18 05:26:17.38	303.58	5.61	-48.9	-51.9	14.4	1.50e-06	0	35	0	1228931072	68	5362
