passes_logs/2026/01/18/R3.2S_Murmansk/R3.2S_Murmansk__20260118_053456_NOAA_20_JPSS-1_rec.log

#Pass ID: 20260118_053456_NOAA 20 (JPSS-1)
#Satellite: NOAA 20 (JPSS-1)
#Configuration: NOAA 20
#almurnet v.1.7.20251203
#Start time: 2026-01-18 05:34:57

#Version: 2.2.20231116
#Station: R3.2S_Murmansk
#Location: 33.079688 lon 68.888172 lat
#TLE: 1 43013U 17073A   26017.58553584  .00000066  00000+0  52288-4 0  9998
#TLE: 2 43013  98.7639 318.4977 0001406  35.6039 324.5231 14.19536575423107

#Time	Az	El	Level	Level2	SNR	BER	BlckErr	Temp	State	Recorded	gain1	gain2
2026-01-18 05:34:57.17	68.65	2.04	-51.9	-66.9	3.8	1.49e+00	0	33	0	0	75	20084
2026-01-18 05:34:58.17	68.59	2.09	-51.9	-66.9	3.8	1.49e+00	0	33	104	0	74	21315
2026-01-18 05:34:59.18	68.52	2.15	-51.9	-66.8	3.8	1.49e+00	0	33	104	0	74	21179
2026-01-18 05:35:00.19	68.46	2.21	-51.9	-66.8	3.8	1.49e+00	0	33	104	0	74	21178
2026-01-18 05:35:01.20	68.40	2.27	-51.9	-66.8	3.8	1.49e+00	0	33	104	0	74	21199
2026-01-18 05:35:02.21	68.33	2.32	-51.9	-66.8	3.8	1.49e+00	0	33	104	0	74	21250
2026-01-18 05:35:03.22	68.26	2.38	-51.9	-66.8	3.8	1.49e+00	0	34	104	0	74	21214
2026-01-18 05:35:04.23	68.20	2.44	-51.9	-66.8	3.8	1.49e+00	0	33	104	0	74	21202
2026-01-18 05:35:05.23	68.13	2.50	-51.9	-66.8	3.8	1.49e+00	0	34	104	0	74	21259
2026-01-18 05:35:06.24	68.07	2.55	-51.9	-66.9	3.8	1.49e+00	0	33	104	0	74	21263
2026-01-18 05:35:07.25	68.00	2.61	-51.9	-66.9	3.8	1.49e+00	0	34	104	0	74	21285
2026-01-18 05:35:08.26	67.94	2.67	-51.9	-66.8	3.8	1.49e+00	0	33	104	0	74	21199
2026-01-18 05:35:09.27	67.87	2.73	-51.9	-66.8	3.8	1.49e+00	0	34	104	0	74	21249
2026-01-18 05:35:10.27	67.80	2.79	-51.9	-66.8	3.8	1.49e+00	0	34	104	0	74	21208
2026-01-18 05:35:11.28	67.73	2.85	-51.9	-66.8	3.8	1.49e+00	0	34	104	0	74	21216
2026-01-18 05:35:12.29	67.67	2.90	-51.9	-66.8	3.8	1.49e+00	0	34	104	0	74	21226
2026-01-18 05:35:13.30	67.60	2.96	-51.9	-66.8	3.8	1.49e+00	0	34	104	0	74	21161
2026-01-18 05:35:14.31	67.53	3.02	-51.9	-66.8	3.8	1.49e+00	0	34	104	0	74	21069
2026-01-18 05:35:15.31	67.46	3.08	-51.9	-66.8	3.8	1.49e+00	0	34	104	0	74	21150
2026-01-18 05:35:16.32	67.39	3.14	-51.9	-66.8	3.8	1.49e+00	0	34	104	0	74	21059
2026-01-18 05:35:17.33	67.32	3.20	-51.9	-66.8	3.8	1.49e+00	0	34	104	0	74	21187
2026-01-18 05:35:18.34	67.25	3.26	-51.9	-66.8	3.8	1.49e+00	0	34	104	0	74	21165
2026-01-18 05:35:19.35	67.18	3.32	-51.9	-66.8	3.8	1.49e+00	0	34	104	0	74	21192
2026-01-18 05:35:20.36	67.11	3.38	-51.9	-66.8	3.8	1.49e+00	0	34	104	0	74	21087
2026-01-18 05:35:21.36	67.05	3.43	-51.9	-66.8	3.8	1.49e+00	0	34	104	0	74	21036
2026-01-18 05:35:22.37	66.97	3.49	-51.9	-66.7	3.8	1.49e+00	0	34	104	0	74	20992
2026-01-18 05:35:23.38	66.90	3.55	-51.9	-66.7	3.8	1.49e+00	0	34	104	0	74	20983
2026-01-18 05:35:24.39	66.83	3.61	-51.9	-66.8	3.8	1.49e+00	0	34	104	0	74	21083
2026-01-18 05:35:25.40	66.76	3.67	-51.9	-66.8	3.8	1.49e+00	0	34	104	0	74	21160
2026-01-18 05:35:26.41	66.69	3.73	-51.9	-66.9	3.8	1.49e+00	0	34	104	0	74	21282
2026-01-18 05:35:27.41	66.62	3.79	-51.9	-66.8	3.8	1.49e+00	0	34	104	0	74	21087
2026-01-18 05:35:28.42	66.54	3.85	-51.9	-66.7	3.8	1.49e+00	0	34	104	0	74	20827
2026-01-18 05:35:29.43	66.47	3.91	-51.8	-66.4	3.8	1.49e+00	0	34	104	0	74	20288
2026-01-18 05:35:30.44	66.40	3.97	-51.8	-65.9	3.8	1.49e+00	0	34	104	0	74	19003
2026-01-18 05:35:31.45	66.33	4.03	-51.8	-65.6	3.8	1.49e+00	0	34	104	0	74	18362
2026-01-18 05:35:32.45	66.25	4.09	-51.8	-64.9	3.8	1.49e+00	0	34	104	0	74	16985
2026-01-18 05:35:33.46	66.18	4.15	-51.7	-64.1	4.0	1.49e+00	0	34	104	0	74	15547
2026-01-18 05:35:34.47	66.10	4.21	-51.7	-63.8	4.0	1.44e+00	0	34	0	0	74	15027
2026-01-18 05:35:35.48	66.03	4.27	-51.6	-62.9	4.3	1.38e+00	0	34	0	0	74	13500
2026-01-18 05:35:36.48	65.95	4.33	-51.6	-62.0	4.6	1.15e+00	0	34	0	1048576	74	12226
2026-01-18 05:35:37.49	65.88	4.39	-51.5	-61.1	5.1	8.35e-01	0	34	0	3145728	74	10936
2026-01-18 05:35:38.50	65.80	4.46	-51.4	-60.2	5.7	4.59e-01	0	34	0	4194304	74	9832
2026-01-18 05:35:39.51	65.73	4.52	-51.2	-59.5	6.2	3.18e-01	0	34	0	6291456	74	9096
2026-01-18 05:35:40.52	65.65	4.58	-51.2	-59.0	6.7	2.38e-01	0	34	0	8388608	74	8579
2026-01-18 05:35:41.53	65.57	4.64	-51.2	-59.1	6.5	2.27e-01	0	34	0	10485760	74	8694
2026-01-18 05:35:42.53	65.50	4.70	-51.1	-58.7	6.9	1.70e-01	0	34	0	12582912	74	8274
2026-01-18 05:35:43.54	65.42	4.76	-51.2	-59.1	6.5	1.75e-01	0	34	0	13631488	74	8741
2026-01-18 05:35:44.55	65.34	4.82	-51.2	-59.3	6.4	2.59e-01	0	34	0	15728640	74	8891
2026-01-18 05:35:45.56	65.27	4.88	-51.3	-59.9	5.8	3.48e-01	0	35	0	17825792	74	9600
2026-01-18 05:35:46.57	65.19	4.95	-51.5	-60.9	5.2	4.64e-01	0	35	0	19922944	74	10757
2026-01-18 05:35:47.57	65.11	5.01	-51.6	-62.0	4.7	6.77e-01	0	35	0	22020096	74	12159
2026-01-18 05:35:48.58	65.03	5.07	-50.9	-57.2	8.2	8.16e-01	0	35	0	24117248	73	7393
2026-01-18 05:35:49.59	64.95	5.13	-50.4	-55.4	10.5	7.39e-04	0	35	0	25165824	71	6742
2026-01-18 05:35:50.60	64.87	5.19	-51.6	-62.6	4.5	2.10e-02	7	35	0	27262976	73	13789
2026-01-18 05:35:51.60	64.79	5.25	-51.2	-58.8	4.7	1.48e+00	0	35	104	27262976	74	8428
2026-01-18 05:35:52.61	64.71	5.32	-51.1	-57.9	8.2	1.99e-04	0	35	0	28311552	72	8552
2026-01-18 05:35:53.62	64.63	5.38	-50.3	-55.2	10.3	1.48e+00	0	35	104	28311552	72	6267
2026-01-18 05:35:54.63	64.55	5.44	-49.8	-53.6	12.5	1.22e-04	0	34	0	29360128	71	5523
2026-01-18 05:35:55.64	64.47	5.50	-49.9	-53.9	12.2	2.19e-04	0	34	0	31457280	71	5687
2026-01-18 05:35:56.64	64.39	5.56	-49.7	-53.5	12.6	1.50e-04	0	35	0	33554432	71	5452
2026-01-18 05:35:57.65	64.30	5.63	-49.6	-53.2	13.0	8.54e-05	0	35	0	35651584	71	5248
2026-01-18 05:35:58.66	64.22	5.69	-49.3	-52.6	13.6	2.13e-05	0	35	0	37748736	70	5204
2026-01-18 05:35:59.67	64.14	5.75	-49.1	-52.2	14.0	1.22e-05	0	35	0	38797312	70	4980
2026-01-18 05:36:00.68	64.06	5.82	-49.3	-52.6	13.6	3.80e-06	0	34	0	40894464	70	5189
2026-01-18 05:36:01.69	63.97	5.88	-49.1	-52.2	14.1	1.50e-06	0	34	0	42991616	70	4960
2026-01-18 05:36:02.69	63.89	5.94	-48.8	-51.8	14.6	7.00e-07	0	35	0	45088768	69	4988
2026-01-18 05:36:03.70	63.80	6.00	-48.7	-51.6	14.7	0.00e+00	0	35	0	46137344	69	4900
2026-01-18 05:36:04.70	63.72	6.07	-49.0	-52.0	14.3	0.00e+00	0	35	0	48234496	69	5126
2026-01-18 05:36:05.71	63.63	6.13	-48.8	-51.7	14.6	1.50e-06	0	35	0	50331648	69	4941
2026-01-18 05:36:06.72	63.55	6.19	-48.7	-51.4	14.9	0.00e+00	0	35	0	52428800	69	4799
2026-01-18 05:36:07.73	63.46	6.26	-48.7	-51.5	14.9	7.00e-07	0	35	0	54525952	69	4848
2026-01-18 05:36:08.74	63.38	6.32	-48.7	-51.4	15.0	0.00e+00	0	35	0	55574528	69	4788
2026-01-18 05:36:09.74	63.29	6.38	-48.7	-51.4	15.0	0.00e+00	0	35	0	57671680	69	4778
2026-01-18 05:36:10.75	63.20	6.45	-48.6	-51.3	15.1	0.00e+00	0	35	0	59768832	69	4748
2026-01-18 05:36:11.76	63.12	6.51	-48.5	-51.2	15.3	0.00e+00	0	35	0	61865984	69	4673
2026-01-18 05:36:12.77	63.03	6.57	-48.8	-51.6	14.8	0.00e+00	0	35	0	63963136	69	4915
2026-01-18 05:36:13.78	62.94	6.64	-48.7	-51.4	14.9	0.00e+00	0	35	0	66060288	69	4798
2026-01-18 05:36:14.78	62.85	6.70	-48.7	-51.4	15.0	0.00e+00	0	35	0	67108864	69	4765
2026-01-18 05:36:15.79	62.76	6.77	-48.8	-51.6	14.8	0.00e+00	0	34	0	69206016	69	4908
2026-01-18 05:36:16.80	62.67	6.83	-48.7	-51.4	14.9	7.00e-07	0	35	0	71303168	69	4797
2026-01-18 05:36:17.81	62.58	6.90	-48.7	-51.4	15.0	7.00e-07	0	35	0	73400320	69	4811
2026-01-18 05:36:18.82	62.49	6.96	-48.6	-51.3	15.2	0.00e+00	0	35	0	74448896	69	4721
2026-01-18 05:36:19.83	62.40	7.02	-48.9	-51.8	14.8	0.00e+00	0	35	0	76546048	69	4986
2026-01-18 05:36:20.83	62.31	7.09	-48.8	-51.6	14.9	0.00e+00	0	35	0	78643200	69	4884
2026-01-18 05:36:21.84	62.22	7.15	-48.8	-51.5	15.0	0.00e+00	0	35	0	80740352	69	4865
2026-01-18 05:36:22.85	62.13	7.22	-48.7	-51.5	15.0	0.00e+00	0	35	0	82837504	69	4827
2026-01-18 05:36:23.86	62.03	7.28	-48.6	-51.3	15.2	7.00e-07	0	35	0	83886080	69	4734
2026-01-18 05:36:24.86	61.94	7.35	-48.8	-51.6	14.8	0.00e+00	0	35	0	85983232	69	4907
2026-01-18 05:36:25.87	61.85	7.41	-48.6	-51.2	15.1	0.00e+00	0	35	0	88080384	69	4703
2026-01-18 05:36:26.88	61.75	7.48	-48.7	-51.4	15.0	0.00e+00	0	35	0	90177536	69	4768
2026-01-18 05:36:27.89	61.66	7.54	-48.8	-51.5	14.8	0.00e+00	0	35	0	92274688	69	4869
2026-01-18 05:36:28.89	61.57	7.61	-48.7	-51.3	15.0	7.00e-07	0	35	0	94371840	69	4758
2026-01-18 05:36:29.90	61.47	7.67	-48.7	-51.3	15.1	0.00e+00	0	35	0	95420416	69	4758
2026-01-18 05:36:30.91	61.38	7.74	-48.7	-51.4	15.1	0.00e+00	0	35	0	97517568	69	4787
2026-01-18 05:36:31.92	61.28	7.81	-48.7	-51.4	15.1	0.00e+00	0	35	0	99614720	69	4807
2026-01-18 05:36:32.93	61.18	7.87	-48.7	-51.3	15.2	0.00e+00	0	35	0	101711872	69	4752
2026-01-18 05:36:33.93	61.09	7.94	-48.6	-51.3	15.3	0.00e+00	0	35	0	102760448	69	4714
2026-01-18 05:36:34.94	60.99	8.00	-48.6	-51.2	15.3	0.00e+00	0	35	0	104857600	69	4705
2026-01-18 05:36:35.95	60.89	8.07	-48.6	-51.2	15.4	0.00e+00	0	35	0	106954752	69	4660
2026-01-18 05:36:36.96	60.79	8.13	-48.7	-51.3	15.2	0.00e+00	0	35	0	109051904	69	4733
2026-01-18 05:36:37.96	60.70	8.20	-48.8	-51.5	15.1	0.00e+00	0	35	0	111149056	69	4831
2026-01-18 05:36:38.97	60.60	8.27	-48.5	-51.0	15.6	0.00e+00	0	35	0	113246208	69	4557
2026-01-18 05:36:39.98	60.50	8.33	-48.3	-50.7	16.0	0.00e+00	0	35	0	114294784	68	4670
2026-01-18 05:36:40.99	60.40	8.40	-48.3	-50.7	15.9	0.00e+00	0	35	0	116391936	68	4702
2026-01-18 05:36:42.00	60.30	8.47	-48.4	-50.8	15.8	0.00e+00	0	35	0	118489088	68	4751
2026-01-18 05:36:43.00	60.20	8.53	-48.4	-50.9	15.8	0.00e+00	0	35	0	120586240	68	4786
2026-01-18 05:36:44.01	60.09	8.60	-48.2	-50.6	16.1	0.00e+00	0	35	0	122683392	68	4629
2026-01-18 05:36:45.02	59.99	8.67	-48.3	-50.6	16.1	0.00e+00	0	35	0	123731968	68	4639
2026-01-18 05:36:46.03	59.89	8.73	-48.3	-50.7	16.0	0.00e+00	0	35	0	125829120	68	4657
2026-01-18 05:36:47.04	59.79	8.80	-48.3	-50.6	16.1	0.00e+00	0	35	0	127926272	68	4648
2026-01-18 05:36:48.04	59.68	8.87	-48.2	-50.5	16.2	0.00e+00	0	35	0	130023424	68	4575
2026-01-18 05:36:49.05	59.58	8.93	-48.3	-50.7	15.9	0.00e+00	0	35	0	131072000	68	4697
2026-01-18 05:36:50.06	59.48	9.00	-48.3	-50.7	16.0	0.00e+00	0	35	0	133169152	68	4696
2026-01-18 05:36:51.07	59.37	9.07	-48.3	-50.7	15.9	0.00e+00	0	35	0	135266304	68	4703
2026-01-18 05:36:52.07	59.27	9.14	-48.3	-50.7	16.0	0.00e+00	0	35	0	137363456	68	4664
2026-01-18 05:36:53.08	59.16	9.20	-48.3	-50.7	16.0	0.00e+00	0	35	0	139460608	68	4662
2026-01-18 05:36:54.09	59.05	9.27	-48.3	-50.7	16.1	0.00e+00	0	35	0	141557760	68	4655
2026-01-18 05:36:55.10	58.95	9.34	-48.2	-50.6	16.1	0.00e+00	0	35	0	142606336	68	4621
2026-01-18 05:36:56.11	58.84	9.41	-48.4	-50.8	15.9	0.00e+00	0	35	0	144703488	68	4752
2026-01-18 05:36:57.12	58.73	9.47	-48.5	-50.9	15.8	0.00e+00	0	35	0	146800640	68	4799
2026-01-18 05:36:58.13	58.62	9.54	-48.6	-51.1	15.7	0.00e+00	0	35	0	148897792	68	4875
2026-01-18 05:36:59.13	58.51	9.61	-48.5	-50.9	15.8	0.00e+00	0	35	0	150994944	68	4790
2026-01-18 05:37:00.14	58.41	9.68	-48.5	-50.9	15.8	0.00e+00	0	35	0	152043520	68	4810
2026-01-18 05:37:01.15	58.29	9.75	-48.6	-51.1	15.6	0.00e+00	0	35	0	154140672	68	4898
2026-01-18 05:37:02.16	58.18	9.81	-48.4	-50.8	16.0	0.00e+00	0	35	0	156237824	68	4709
2026-01-18 05:37:03.17	58.07	9.88	-48.4	-50.8	16.0	0.00e+00	0	35	0	158334976	68	4710
2026-01-18 05:37:04.17	57.96	9.95	-48.5	-50.9	15.8	0.00e+00	0	35	0	160432128	68	4814
2026-01-18 05:37:05.18	57.85	10.02	-48.4	-50.8	16.0	0.00e+00	0	35	0	161480704	68	4743
2026-01-18 05:37:06.19	57.74	10.09	-48.5	-51.0	15.8	0.00e+00	0	35	0	163577856	68	4824
2026-01-18 05:37:07.20	57.62	10.16	-48.5	-51.0	15.7	0.00e+00	0	35	0	165675008	68	4848
2026-01-18 05:37:08.21	57.51	10.23	-48.4	-50.8	16.0	0.00e+00	0	35	0	167772160	68	4736
2026-01-18 05:37:09.21	57.40	10.29	-48.4	-50.8	16.0	0.00e+00	0	35	0	169869312	68	4743
2026-01-18 05:37:10.22	57.28	10.36	-48.4	-50.8	16.0	0.00e+00	0	35	0	170917888	68	4735
2026-01-18 05:37:11.23	57.17	10.43	-48.4	-50.8	16.0	0.00e+00	0	35	0	173015040	68	4745
2026-01-18 05:37:12.24	57.05	10.50	-48.4	-50.7	16.1	0.00e+00	0	35	0	175112192	68	4703
2026-01-18 05:37:13.24	56.93	10.57	-48.3	-50.7	16.2	0.00e+00	0	35	0	177209344	68	4657
2026-01-18 05:37:14.25	56.82	10.64	-48.4	-50.7	16.2	0.00e+00	0	35	0	179306496	68	4681
2026-01-18 05:37:15.26	56.70	10.71	-48.3	-50.6	16.2	0.00e+00	0	35	0	180355072	68	4638
2026-01-18 05:37:16.27	56.58	10.78	-48.2	-50.5	16.3	0.00e+00	0	35	0	182452224	68	4575
2026-01-18 05:37:17.28	56.46	10.85	-48.4	-50.7	16.2	0.00e+00	0	35	0	184549376	68	4685
2026-01-18 05:37:18.29	56.34	10.92	-48.5	-50.9	16.0	0.00e+00	0	35	0	186646528	68	4764
2026-01-18 05:37:19.29	56.22	10.99	-48.2	-50.5	16.4	0.00e+00	0	35	0	188743680	68	4577
2026-01-18 05:37:20.30	56.10	11.06	-48.2	-50.5	16.4	0.00e+00	0	35	0	189792256	68	4555
2026-01-18 05:37:21.31	55.98	11.13	-48.1	-50.3	16.6	0.00e+00	0	35	0	191889408	68	4452
2026-01-18 05:37:22.32	55.86	11.20	-48.1	-50.2	16.6	0.00e+00	0	35	0	193986560	68	4439
2026-01-18 05:37:23.33	55.74	11.27	-48.0	-50.2	16.7	0.00e+00	0	35	0	196083712	68	4394
2026-01-18 05:37:24.33	55.61	11.34	-48.0	-50.2	16.7	0.00e+00	0	35	0	198180864	68	4400
2026-01-18 05:37:25.34	55.49	11.41	-48.0	-50.1	16.7	0.00e+00	0	35	0	199229440	68	4385
2026-01-18 05:37:26.35	55.37	11.48	-47.9	-50.0	16.8	0.00e+00	0	35	0	201326592	67	4588
2026-01-18 05:37:27.36	55.24	11.55	-47.8	-49.8	17.0	0.00e+00	0	35	0	203423744	67	4480
2026-01-18 05:37:28.36	55.12	11.62	-47.8	-49.8	17.0	0.00e+00	0	35	0	205520896	67	4481
2026-01-18 05:37:29.37	54.99	11.69	-47.8	-49.9	17.0	0.00e+00	0	35	0	207618048	67	4499
2026-01-18 05:37:30.38	54.86	11.76	-47.8	-49.9	16.9	0.00e+00	0	35	0	208666624	67	4503
2026-01-18 05:37:31.39	54.74	11.83	-47.7	-49.7	17.1	0.00e+00	0	35	0	210763776	67	4438
2026-01-18 05:37:32.40	54.61	11.90	-47.7	-49.7	17.1	0.00e+00	0	35	0	212860928	67	4434
2026-01-18 05:37:33.41	54.48	11.97	-47.7	-49.7	17.1	0.00e+00	0	35	0	214958080	67	4425
2026-01-18 05:37:34.41	54.35	12.04	-47.7	-49.7	17.1	0.00e+00	0	35	0	217055232	67	4420
2026-01-18 05:37:35.42	54.22	12.11	-47.7	-49.7	17.1	0.00e+00	0	35	0	218103808	67	4434
2026-01-18 05:37:36.43	54.09	12.18	-47.7	-49.8	17.1	0.00e+00	0	35	0	220200960	67	4463
2026-01-18 05:37:37.44	53.96	12.25	-47.7	-49.8	17.1	0.00e+00	0	35	0	222298112	67	4445
2026-01-18 05:37:38.44	53.83	12.32	-47.7	-49.7	17.1	0.00e+00	0	35	0	224395264	67	4431
2026-01-18 05:37:39.45	53.70	12.39	-47.7	-49.7	17.2	0.00e+00	0	35	0	226492416	67	4402
2026-01-18 05:37:40.46	53.56	12.46	-47.7	-49.7	17.1	0.00e+00	0	35	0	228589568	67	4423
2026-01-18 05:37:41.47	53.43	12.53	-47.7	-49.8	17.1	0.00e+00	0	35	0	229638144	67	4459
2026-01-18 05:37:42.48	53.30	12.61	-47.7	-49.7	17.2	0.00e+00	0	35	0	231735296	67	4437
2026-01-18 05:37:43.49	53.16	12.68	-47.8	-49.8	17.0	0.00e+00	0	35	0	233832448	67	4472
2026-01-18 05:37:44.50	53.02	12.75	-47.8	-49.8	17.0	0.00e+00	0	35	0	235929600	67	4491
2026-01-18 05:37:45.50	52.89	12.82	-47.8	-49.8	17.0	0.00e+00	0	35	0	236978176	67	4493
2026-01-18 05:37:46.51	52.75	12.89	-47.5	-49.5	17.4	0.00e+00	0	35	0	239075328	67	4313
2026-01-18 05:37:47.52	52.61	12.96	-47.5	-49.4	17.5	0.00e+00	0	35	0	241172480	66	4505
2026-01-18 05:37:48.53	52.48	13.03	-47.4	-49.3	17.6	0.00e+00	0	35	0	243269632	66	4452
2026-01-18 05:37:49.54	52.34	13.10	-47.4	-49.3	17.5	0.00e+00	0	35	0	245366784	66	4485
2026-01-18 05:37:50.54	52.20	13.17	-47.4	-49.2	17.7	0.00e+00	0	35	0	246415360	66	4430
2026-01-18 05:37:51.55	52.06	13.25	-47.3	-49.1	17.8	0.00e+00	0	35	0	248512512	66	4387
2026-01-18 05:37:52.56	51.92	13.32	-47.3	-49.1	17.8	0.00e+00	0	35	0	250609664	66	4373
2026-01-18 05:37:53.56	51.78	13.39	-47.2	-49.0	17.9	0.00e+00	0	35	0	252706816	66	4319
2026-01-18 05:37:54.57	51.63	13.46	-47.2	-49.0	17.9	0.00e+00	0	35	0	254803968	66	4330
2026-01-18 05:37:55.58	51.49	13.53	-47.2	-49.0	17.9	0.00e+00	0	35	0	256901120	66	4302
2026-01-18 05:37:56.59	51.35	13.60	-47.2	-49.1	17.8	0.00e+00	0	35	0	257949696	66	4348
2026-01-18 05:37:57.60	51.20	13.68	-47.2	-49.0	17.9	0.00e+00	0	35	0	260046848	66	4298
2026-01-18 05:37:58.61	51.06	13.75	-47.2	-49.0	17.9	0.00e+00	0	35	0	262144000	66	4338
2026-01-18 05:37:59.61	50.91	13.82	-47.2	-49.0	17.9	0.00e+00	0	35	0	264241152	66	4313
2026-01-18 05:38:00.62	50.76	13.89	-47.3	-49.1	17.8	0.00e+00	0	35	0	265289728	66	4358
2026-01-18 05:38:01.63	50.62	13.96	-47.1	-48.9	18.0	0.00e+00	0	35	0	267386880	66	4251
2026-01-18 05:38:02.63	50.47	14.03	-47.2	-49.0	17.9	0.00e+00	0	35	0	269484032	66	4322
2026-01-18 05:38:03.64	50.32	14.10	-47.2	-49.1	17.9	0.00e+00	0	35	0	271581184	66	4349
2026-01-18 05:38:04.65	50.17	14.18	-47.3	-49.1	17.8	0.00e+00	0	35	0	273678336	66	4383
2026-01-18 05:38:05.66	50.02	14.25	-47.4	-49.2	17.7	0.00e+00	0	35	0	274726912	66	4439
2026-01-18 05:38:06.67	49.87	14.32	-47.5	-49.4	17.6	0.00e+00	0	35	0	276824064	66	4506
2026-01-18 05:38:07.67	49.72	14.39	-47.5	-49.4	17.5	0.00e+00	0	35	0	278921216	66	4528
2026-01-18 05:38:08.68	49.56	14.46	-47.5	-49.4	17.5	0.00e+00	0	35	0	281018368	66	4518
2026-01-18 05:38:09.69	49.41	14.54	-47.4	-49.3	17.7	0.00e+00	0	35	0	283115520	66	4455
2026-01-18 05:38:10.70	49.26	14.61	-47.4	-49.3	17.7	0.00e+00	0	35	0	285212672	66	4454
2026-01-18 05:38:11.71	49.10	14.68	-47.4	-49.3	17.7	0.00e+00	0	35	0	286261248	66	4483
2026-01-18 05:38:12.71	48.95	14.75	-47.5	-49.4	17.6	0.00e+00	0	35	0	288358400	66	4525
2026-01-18 05:38:13.72	48.79	14.82	-47.6	-49.5	17.4	0.00e+00	0	35	0	290455552	66	4598
2026-01-18 05:38:14.72	48.63	14.89	-47.6	-49.5	17.5	0.00e+00	0	35	0	292552704	66	4576
2026-01-18 05:38:15.73	48.48	14.97	-47.5	-49.4	17.5	0.00e+00	0	35	0	293601280	66	4541
2026-01-18 05:38:16.74	48.32	15.04	-47.5	-49.4	17.5	0.00e+00	0	35	0	295698432	66	4540
2026-01-18 05:38:17.75	48.16	15.11	-47.5	-49.4	17.6	0.00e+00	0	35	0	297795584	66	4527
2026-01-18 05:38:18.76	48.00	15.18	-47.7	-49.6	17.4	0.00e+00	0	35	0	299892736	66	4622
2026-01-18 05:38:19.77	47.84	15.25	-47.7	-49.7	17.3	0.00e+00	0	35	0	301989888	66	4684
2026-01-18 05:38:20.77	47.68	15.32	-47.7	-49.7	17.3	0.00e+00	0	35	0	304087040	66	4693
2026-01-18 05:38:21.78	47.51	15.40	-47.8	-49.8	17.2	0.00e+00	0	35	0	305135616	66	4740
2026-01-18 05:38:22.79	47.35	15.47	-47.9	-49.9	17.1	0.00e+00	0	35	0	307232768	66	4784
2026-01-18 05:38:23.80	47.18	15.54	-47.8	-49.8	17.1	0.00e+00	0	35	0	309329920	66	4759
2026-01-18 05:38:24.80	47.02	15.61	-47.8	-49.7	17.2	0.00e+00	0	35	0	311427072	66	4705
2026-01-18 05:38:25.81	46.85	15.68	-47.8	-49.8	17.2	0.00e+00	0	35	0	313524224	66	4726
2026-01-18 05:38:26.82	46.69	15.75	-47.9	-49.9	17.2	0.00e+00	0	35	0	314572800	66	4778
2026-01-18 05:38:27.83	46.52	15.83	-47.8	-49.8	17.2	0.00e+00	0	35	0	316669952	66	4746
2026-01-18 05:38:28.84	46.35	15.90	-47.8	-49.8	17.2	0.00e+00	0	35	0	318767104	66	4718
2026-01-18 05:38:29.84	46.18	15.97	-47.8	-49.7	17.3	0.00e+00	0	35	0	320864256	66	4695
2026-01-18 05:38:30.85	46.01	16.04	-47.8	-49.8	17.2	0.00e+00	0	35	0	321912832	66	4721
2026-01-18 05:38:31.86	45.84	16.11	-47.8	-49.8	17.2	0.00e+00	0	35	0	324009984	66	4746
2026-01-18 05:38:32.87	45.67	16.18	-47.7	-49.7	17.3	0.00e+00	0	35	0	326107136	66	4684
2026-01-18 05:38:33.88	45.50	16.25	-47.8	-49.7	17.3	0.00e+00	0	35	0	328204288	66	4690
2026-01-18 05:38:34.89	45.32	16.32	-47.9	-49.9	17.2	0.00e+00	0	35	0	330301440	66	4784
2026-01-18 05:38:35.89	45.15	16.39	-47.9	-49.9	17.2	0.00e+00	0	35	0	332398592	66	4789
2026-01-18 05:38:36.90	44.98	16.47	-47.9	-50.0	17.0	0.00e+00	0	35	0	333447168	66	4842
2026-01-18 05:38:37.91	44.80	16.54	-48.0	-50.1	17.0	0.00e+00	0	35	0	335544320	66	4876
2026-01-18 05:38:38.92	44.62	16.61	-47.9	-49.9	17.2	0.00e+00	0	35	0	337641472	66	4776
2026-01-18 05:38:39.92	44.45	16.68	-47.8	-49.9	17.2	0.00e+00	0	35	0	339738624	66	4766
2026-01-18 05:38:40.93	44.27	16.75	-47.8	-49.8	17.2	0.00e+00	0	35	0	341835776	66	4738
2026-01-18 05:38:41.94	44.09	16.82	-47.8	-49.8	17.2	0.00e+00	0	35	0	342884352	66	4740
2026-01-18 05:38:42.95	43.91	16.89	-47.8	-49.8	17.2	0.00e+00	0	35	0	344981504	66	4740
2026-01-18 05:38:43.96	43.73	16.96	-47.9	-49.9	17.2	0.00e+00	0	35	0	347078656	66	4782
2026-01-18 05:38:44.97	43.55	17.03	-47.8	-49.8	17.3	0.00e+00	0	35	0	349175808	66	4715
2026-01-18 05:38:45.97	43.37	17.10	-47.8	-49.8	17.3	0.00e+00	0	35	0	351272960	66	4720
2026-01-18 05:38:46.98	43.18	17.17	-47.8	-49.7	17.4	0.00e+00	0	35	0	352321536	66	4683
2026-01-18 05:38:47.99	43.00	17.24	-47.8	-49.8	17.3	0.00e+00	0	35	0	354418688	66	4728
2026-01-18 05:38:49.00	42.81	17.31	-47.9	-50.0	17.1	0.00e+00	0	35	0	356515840	66	4837
2026-01-18 05:38:50.00	42.63	17.38	-47.8	-49.7	17.4	0.00e+00	0	35	0	358612992	66	4698
2026-01-18 05:38:51.01	42.44	17.45	-47.7	-49.7	17.4	0.00e+00	0	35	0	360710144	66	4667
2026-01-18 05:38:52.02	42.25	17.52	-47.8	-49.8	17.3	0.00e+00	0	35	0	361758720	66	4748
2026-01-18 05:38:53.03	42.06	17.59	-47.8	-49.7	17.3	0.00e+00	0	35	0	363855872	66	4689
2026-01-18 05:38:54.04	41.87	17.66	-47.7	-49.7	17.4	0.00e+00	0	35	0	365953024	66	4678
2026-01-18 05:38:55.04	41.68	17.73	-47.5	-49.3	17.8	0.00e+00	0	35	0	368050176	66	4467
2026-01-18 05:38:56.05	41.49	17.80	-47.4	-49.2	17.9	0.00e+00	0	35	0	370147328	66	4425
2026-01-18 05:38:57.06	41.30	17.87	-47.3	-49.1	18.0	0.00e+00	0	35	0	372244480	66	4352
2026-01-18 05:38:58.07	41.11	17.93	-47.2	-49.0	18.1	0.00e+00	0	35	0	373293056	66	4321
2026-01-18 05:38:59.08	40.91	18.00	-47.3	-49.1	18.0	0.00e+00	0	35	0	375390208	66	4354
2026-01-18 05:39:00.08	40.72	18.07	-47.1	-48.8	18.3	0.00e+00	0	35	0	377487360	66	4211
2026-01-18 05:39:01.09	40.52	18.14	-47.0	-48.7	18.2	0.00e+00	0	35	0	379584512	66	4161
2026-01-18 05:39:02.10	40.33	18.21	-47.0	-48.7	18.4	0.00e+00	0	35	0	380633088	66	4176
2026-01-18 05:39:03.11	40.13	18.28	-46.9	-48.6	18.5	0.00e+00	0	35	0	382730240	65	4362
2026-01-18 05:39:04.12	39.93	18.34	-46.5	-48.1	18.9	0.00e+00	0	35	0	384827392	65	4127
2026-01-18 05:39:05.12	39.73	18.41	-46.4	-47.9	19.2	0.00e+00	0	35	0	386924544	64	4268
2026-01-18 05:39:06.13	39.53	18.48	-46.3	-47.8	19.2	0.00e+00	0	35	0	389021696	64	4221
2026-01-18 05:39:07.14	39.33	18.55	-46.3	-47.8	19.3	0.00e+00	0	35	0	390070272	64	4205
2026-01-18 05:39:08.15	39.13	18.61	-46.2	-47.7	19.4	0.00e+00	0	35	0	392167424	64	4170
2026-01-18 05:39:09.15	38.93	18.68	-46.0	-47.5	19.6	0.00e+00	0	35	0	394264576	64	4067
2026-01-18 05:39:10.16	38.72	18.75	-46.0	-47.4	19.6	0.00e+00	0	35	0	396361728	64	4041
2026-01-18 05:39:11.17	38.52	18.81	-46.0	-47.5	19.7	0.00e+00	0	35	0	398458880	63	4298
2026-01-18 05:39:12.18	38.31	18.88	-46.1	-47.6	19.6	0.00e+00	0	35	0	400556032	63	4351
2026-01-18 05:39:13.18	38.11	18.95	-46.1	-47.5	19.7	0.00e+00	0	35	0	401604608	63	4309
2026-01-18 05:39:14.19	37.90	19.01	-46.1	-47.6	19.6	0.00e+00	0	35	0	403701760	63	4365
2026-01-18 05:39:15.20	37.69	19.08	-46.1	-47.6	19.6	0.00e+00	0	35	0	405798912	63	4355
2026-01-18 05:39:16.21	37.48	19.14	-46.0	-47.4	19.8	0.00e+00	0	35	0	407896064	63	4249
2026-01-18 05:39:17.22	37.27	19.21	-46.0	-47.4	19.7	0.00e+00	0	35	0	408944640	63	4284
2026-01-18 05:39:18.23	37.06	19.27	-46.0	-47.4	19.7	0.00e+00	0	35	0	411041792	63	4283
2026-01-18 05:39:19.23	36.85	19.34	-46.1	-47.5	19.6	0.00e+00	0	35	0	413138944	63	4318
2026-01-18 05:39:20.24	36.64	19.40	-45.8	-47.2	20.0	0.00e+00	0	35	0	415236096	63	4154
2026-01-18 05:39:21.25	36.42	19.47	-45.8	-47.1	20.0	0.00e+00	0	35	0	417333248	63	4134
2026-01-18 05:39:22.26	36.21	19.53	-45.7	-47.1	20.0	0.00e+00	0	35	0	418381824	63	4119
2026-01-18 05:39:23.26	35.99	19.59	-45.8	-47.2	20.0	0.00e+00	0	35	0	420478976	63	4158
2026-01-18 05:39:24.27	35.78	19.66	-45.8	-47.2	20.0	0.00e+00	0	35	0	422576128	63	4148
2026-01-18 05:39:25.28	35.56	19.72	-45.9	-47.3	19.9	0.00e+00	0	35	0	424673280	63	4199
2026-01-18 05:39:26.29	35.34	19.78	-45.8	-47.2	19.9	0.00e+00	0	35	0	426770432	63	4186
2026-01-18 05:39:27.29	35.12	19.85	-45.7	-47.1	20.0	0.00e+00	0	35	0	428867584	63	4110
2026-01-18 05:39:28.30	34.90	19.91	-45.7	-47.1	20.1	0.00e+00	0	35	0	429916160	63	4129
2026-01-18 05:39:29.31	34.68	19.97	-45.5	-46.9	20.3	0.00e+00	0	35	0	432013312	63	4008
2026-01-18 05:39:30.32	34.46	20.03	-45.5	-46.9	20.3	0.00e+00	0	35	0	434110464	63	4012
2026-01-18 05:39:31.33	34.24	20.09	-45.7	-47.1	20.0	0.00e+00	0	35	0	436207616	63	4111
2026-01-18 05:39:32.33	34.01	20.15	-45.6	-47.0	20.2	0.00e+00	0	35	0	437256192	63	4068
2026-01-18 05:39:33.34	33.79	20.21	-45.4	-46.7	20.4	0.00e+00	0	35	0	439353344	62	4166
2026-01-18 05:39:34.35	33.56	20.28	-45.5	-46.8	20.4	0.00e+00	0	35	0	441450496	62	4222
2026-01-18 05:39:35.36	33.34	20.34	-45.6	-46.9	20.3	0.00e+00	0	35	0	443547648	62	4253
2026-01-18 05:39:36.36	33.11	20.39	-45.6	-46.9	20.2	0.00e+00	0	35	0	445644800	62	4276
2026-01-18 05:39:37.37	32.88	20.45	-45.6	-47.0	20.2	0.00e+00	0	35	0	447741952	62	4297
2026-01-18 05:39:38.38	32.65	20.51	-45.8	-47.2	19.9	0.00e+00	0	35	0	448790528	62	4417
2026-01-18 05:39:39.38	32.42	20.57	-45.8	-47.1	20.0	0.00e+00	0	35	0	450887680	62	4381
2026-01-18 05:39:40.39	32.19	20.63	-45.7	-47.0	20.1	0.00e+00	0	35	0	452984832	62	4331
2026-01-18 05:39:41.40	31.96	20.69	-45.7	-47.1	20.1	0.00e+00	0	35	0	455081984	62	4347
2026-01-18 05:39:42.41	31.73	20.75	-45.7	-47.0	20.2	0.00e+00	0	35	0	457179136	62	4313
2026-01-18 05:39:43.42	31.49	20.80	-45.7	-47.0	20.1	0.00e+00	0	35	0	458227712	62	4322
2026-01-18 05:39:44.42	31.26	20.86	-45.7	-47.0	20.1	0.00e+00	0	35	0	460324864	62	4332
2026-01-18 05:39:45.44	31.02	20.92	-45.6	-46.9	20.2	0.00e+00	0	35	0	462422016	62	4270
2026-01-18 05:39:46.44	30.79	20.97	-45.6	-47.0	20.2	0.00e+00	0	35	0	464519168	62	4302
2026-01-18 05:39:47.45	30.55	21.03	-45.6	-46.9	20.2	0.00e+00	0	35	0	465567744	62	4277
2026-01-18 05:39:48.46	30.31	21.08	-45.6	-47.0	20.2	0.00e+00	0	35	0	467664896	62	4292
2026-01-18 05:39:49.46	30.08	21.14	-45.7	-47.1	20.1	0.00e+00	0	35	0	469762048	62	4358
2026-01-18 05:39:50.47	29.84	21.19	-45.6	-47.0	20.2	0.00e+00	0	35	0	471859200	62	4299
2026-01-18 05:39:51.48	29.60	21.25	-45.5	-46.9	20.3	0.00e+00	0	35	0	473956352	62	4245
2026-01-18 05:39:52.49	29.36	21.30	-45.5	-46.8	20.4	0.00e+00	0	35	0	476053504	62	4219
2026-01-18 05:39:53.50	29.11	21.36	-45.4	-46.7	20.5	0.00e+00	0	35	0	477102080	62	4192
2026-01-18 05:39:54.50	28.87	21.41	-45.4	-46.6	20.5	0.00e+00	0	35	0	479199232	62	4137
2026-01-18 05:39:55.51	28.63	21.46	-45.3	-46.5	20.6	0.00e+00	0	35	0	481296384	62	4095
2026-01-18 05:39:56.52	28.38	21.51	-45.2	-46.5	20.7	0.00e+00	0	35	0	483393536	62	4070
2026-01-18 05:39:57.53	28.14	21.56	-45.3	-46.5	20.6	0.00e+00	0	35	0	485490688	62	4097
2026-01-18 05:39:58.53	27.89	21.61	-45.2	-46.4	20.8	0.00e+00	0	35	0	486539264	62	4030
2026-01-18 05:39:59.54	27.65	21.67	-45.2	-46.5	20.7	0.00e+00	0	35	0	488636416	62	4057
2026-01-18 05:40:00.55	27.40	21.72	-45.2	-46.4	20.8	0.00e+00	0	35	0	490733568	62	4035
2026-01-18 05:40:01.56	27.15	21.77	-45.3	-46.6	20.6	0.00e+00	0	35	0	492830720	62	4120
2026-01-18 05:40:02.56	26.90	21.81	-45.3	-46.6	20.5	0.00e+00	0	35	0	494927872	62	4129
2026-01-18 05:40:03.57	26.65	21.86	-45.3	-46.5	20.6	0.00e+00	0	35	0	495976448	62	4094
2026-01-18 05:40:04.58	26.40	21.91	-45.2	-46.5	20.7	0.00e+00	0	35	0	498073600	62	4067
2026-01-18 05:40:05.59	26.15	21.96	-45.2	-46.4	20.7	0.00e+00	0	35	0	500170752	62	4028
2026-01-18 05:40:06.59	25.90	22.01	-45.2	-46.4	20.7	0.00e+00	0	35	0	502267904	62	4030
2026-01-18 05:40:07.60	25.64	22.05	-45.1	-46.3	20.9	0.00e+00	0	35	0	504365056	62	3978
2026-01-18 05:40:08.61	25.39	22.10	-45.1	-46.4	20.8	0.00e+00	0	35	0	505413632	62	4018
2026-01-18 05:40:09.62	25.13	22.14	-45.1	-46.3	20.9	0.00e+00	0	35	0	507510784	62	3978
2026-01-18 05:40:10.62	24.88	22.19	-45.1	-46.3	20.9	0.00e+00	0	35	0	509607936	62	3975
2026-01-18 05:40:11.63	24.62	22.23	-45.0	-46.2	20.9	0.00e+00	0	35	0	511705088	61	4180
2026-01-18 05:40:12.64	24.36	22.28	-45.1	-46.3	20.9	0.00e+00	0	35	0	513802240	61	4233
2026-01-18 05:40:13.65	24.11	22.32	-45.1	-46.3	20.8	0.00e+00	0	35	0	514850816	61	4229
2026-01-18 05:40:14.66	23.85	22.36	-45.1	-46.3	20.8	0.00e+00	0	35	0	516947968	61	4239
2026-01-18 05:40:15.67	23.59	22.41	-45.1	-46.4	20.8	0.00e+00	0	35	0	519045120	61	4252
2026-01-18 05:40:16.67	23.33	22.45	-45.1	-46.4	20.8	0.00e+00	0	35	0	521142272	61	4261
2026-01-18 05:40:17.68	23.07	22.49	-45.3	-46.5	20.6	0.00e+00	0	35	0	523239424	61	4326
2026-01-18 05:40:18.68	22.81	22.53	-45.3	-46.6	20.6	0.00e+00	0	35	0	524288000	61	4355
2026-01-18 05:40:19.69	22.55	22.57	-45.5	-46.8	20.3	0.00e+00	0	35	0	526385152	61	4483
2026-01-18 05:40:20.70	22.28	22.61	-45.5	-46.9	20.3	0.00e+00	0	35	0	528482304	61	4495
2026-01-18 05:40:21.70	22.02	22.65	-45.6	-47.0	20.2	0.00e+00	0	35	0	530579456	61	4561
2026-01-18 05:40:22.71	21.76	22.69	-45.3	-46.6	20.6	0.00e+00	0	35	0	532676608	61	4373
2026-01-18 05:40:23.72	21.49	22.73	-45.4	-46.6	20.6	0.00e+00	0	35	0	533725184	61	4380
2026-01-18 05:40:24.73	21.23	22.76	-45.3	-46.6	20.6	0.00e+00	0	35	0	535822336	61	4355
2026-01-18 05:40:25.74	20.96	22.80	-45.4	-46.7	20.5	0.00e+00	0	35	0	537919488	61	4399
2026-01-18 05:40:26.74	20.70	22.83	-45.5	-46.8	20.3	0.00e+00	0	35	0	540016640	61	4483
2026-01-18 05:40:27.75	20.43	22.87	-45.6	-46.9	20.2	0.00e+00	0	35	0	542113792	61	4534
2026-01-18 05:40:28.76	20.16	22.90	-45.8	-47.2	20.1	0.00e+00	0	35	0	544210944	62	4392
2026-01-18 05:40:29.77	19.89	22.94	-45.9	-47.3	20.0	0.00e+00	0	35	0	545259520	62	4470
2026-01-18 05:40:30.78	19.62	22.97	-46.2	-47.6	19.7	0.00e+00	0	35	0	547356672	62	4647
2026-01-18 05:40:31.79	19.35	23.00	-46.4	-47.8	19.4	0.00e+00	0	35	0	549453824	63	4491
2026-01-18 05:40:32.79	19.08	23.04	-46.5	-48.0	19.3	0.00e+00	0	35	0	551550976	63	4583
2026-01-18 05:40:33.80	18.81	23.07	-46.4	-47.9	19.3	0.00e+00	0	35	0	552599552	63	4526
2026-01-18 05:40:34.81	18.54	23.10	-46.3	-47.8	19.5	0.00e+00	0	35	0	554696704	63	4450
2026-01-18 05:40:35.82	18.27	23.13	-46.3	-47.7	19.6	0.00e+00	0	35	0	556793856	63	4413
2026-01-18 05:40:36.82	18.00	23.16	-46.5	-48.0	19.3	0.00e+00	0	35	0	558891008	63	4554
2026-01-18 05:40:37.83	17.72	23.19	-46.6	-48.1	19.2	0.00e+00	0	35	0	560988160	63	4627
2026-01-18 05:40:38.84	17.45	23.22	-46.7	-48.3	18.9	0.00e+00	0	35	0	562036736	64	4464
2026-01-18 05:40:39.85	17.18	23.24	-46.7	-48.3	18.9	0.00e+00	0	35	0	564133888	64	4465
2026-01-18 05:40:40.85	16.90	23.27	-46.7	-48.3	18.9	0.00e+00	0	35	0	566231040	64	4463
2026-01-18 05:40:41.86	16.63	23.30	-46.6	-48.2	19.0	0.00e+00	0	35	0	568328192	64	4406
2026-01-18 05:40:42.87	16.35	23.32	-46.5	-48.0	19.2	0.00e+00	0	35	0	570425344	64	4318
2026-01-18 05:40:43.88	16.08	23.35	-46.8	-48.4	18.9	0.00e+00	0	35	0	572522496	64	4509
2026-01-18 05:40:44.89	15.80	23.37	-46.9	-48.6	18.6	0.00e+00	0	35	0	573571072	64	4600
2026-01-18 05:40:45.89	15.53	23.39	-47.0	-48.7	18.5	0.00e+00	0	35	0	575668224	64	4658
2026-01-18 05:40:46.90	15.25	23.42	-46.9	-48.6	18.6	0.00e+00	0	35	0	577765376	64	4611
2026-01-18 05:40:47.91	14.97	23.44	-46.9	-48.6	18.7	0.00e+00	0	35	0	579862528	64	4599
2026-01-18 05:40:48.91	14.70	23.46	-47.0	-48.7	18.5	0.00e+00	0	35	0	580911104	64	4664
2026-01-18 05:40:49.92	14.42	23.48	-47.0	-48.7	18.5	0.00e+00	0	35	0	583008256	64	4696
2026-01-18 05:40:50.93	14.14	23.50	-47.3	-49.0	18.3	0.00e+00	0	35	0	585105408	65	4572
2026-01-18 05:40:51.94	13.86	23.52	-47.3	-49.0	18.1	0.00e+00	0	35	0	587202560	65	4595
2026-01-18 05:40:52.95	13.58	23.54	-47.1	-48.8	18.4	0.00e+00	0	35	0	589299712	65	4463
2026-01-18 05:40:53.95	13.30	23.55	-47.1	-48.8	18.4	0.00e+00	0	35	0	590348288	65	4455
2026-01-18 05:40:54.96	13.02	23.57	-47.0	-48.7	18.5	0.00e+00	0	35	0	592445440	65	4420
2026-01-18 05:40:55.97	12.74	23.59	-47.0	-48.7	18.6	0.00e+00	0	35	0	594542592	65	4412
2026-01-18 05:40:56.98	12.46	23.60	-47.0	-48.6	18.6	0.00e+00	0	35	0	596639744	65	4385
2026-01-18 05:40:57.99	12.18	23.62	-46.9	-48.5	18.8	0.00e+00	0	35	0	598736896	65	4303
2026-01-18 05:40:58.99	11.90	23.63	-46.8	-48.4	18.8	0.00e+00	0	35	0	600834048	65	4280
2026-01-18 05:41:00.00	11.62	23.64	-46.8	-48.4	18.9	0.00e+00	0	35	0	601882624	65	4248
2026-01-18 05:41:01.01	11.34	23.66	-46.8	-48.4	18.8	0.00e+00	0	35	0	603979776	65	4262
2026-01-18 05:41:02.02	11.06	23.67	-46.9	-48.5	18.8	0.00e+00	0	35	0	606076928	65	4304
2026-01-18 05:41:03.02	10.78	23.68	-47.0	-48.6	18.6	0.00e+00	0	35	0	608174080	65	4378
2026-01-18 05:41:04.03	10.49	23.69	-47.0	-48.7	18.5	0.00e+00	0	35	0	609222656	65	4400
2026-01-18 05:41:05.03	10.21	23.70	-47.0	-48.7	18.5	0.00e+00	0	35	0	611319808	65	4426
2026-01-18 05:41:06.03	9.93	23.71	-47.0	-48.6	18.6	0.00e+00	0	35	0	613416960	65	4375
2026-01-18 05:41:07.04	9.65	23.72	-46.9	-48.5	18.7	0.00e+00	0	35	0	615514112	65	4339
2026-01-18 05:41:08.04	9.37	23.72	-46.8	-48.4	18.8	0.00e+00	0	35	0	617611264	65	4249
2026-01-18 05:41:09.05	9.09	23.73	-46.8	-48.5	18.7	0.00e+00	0	35	0	618659840	65	4300
2026-01-18 05:41:10.06	8.80	23.74	-46.9	-48.5	18.7	0.00e+00	0	35	0	620756992	65	4306
2026-01-18 05:41:11.07	8.52	23.74	-46.8	-48.4	18.8	0.00e+00	0	35	0	622854144	65	4251
2026-01-18 05:41:12.08	8.24	23.75	-46.8	-48.4	18.8	0.00e+00	0	35	0	624951296	65	4290
2026-01-18 05:41:13.08	7.96	23.75	-46.7	-48.3	19.0	0.00e+00	0	35	0	627048448	65	4201
2026-01-18 05:41:14.09	7.67	23.75	-46.6	-48.2	19.0	0.00e+00	0	35	0	629145600	65	4169
2026-01-18 05:41:15.10	7.39	23.75	-46.6	-48.1	19.1	0.00e+00	0	35	0	630194176	65	4134
2026-01-18 05:41:16.11	7.11	23.75	-46.6	-48.2	19.1	0.00e+00	0	35	0	632291328	65	4153
2026-01-18 05:41:17.11	6.83	23.76	-46.6	-48.1	19.1	0.00e+00	0	35	0	634388480	65	4129
2026-01-18 05:41:18.12	6.54	23.76	-46.6	-48.2	19.0	0.00e+00	0	35	0	636485632	65	4166
2026-01-18 05:41:19.13	6.26	23.75	-46.4	-47.9	19.3	0.00e+00	0	35	0	637534208	64	4283
2026-01-18 05:41:20.14	5.97	23.75	-46.3	-47.8	19.4	0.00e+00	0	35	0	639631360	64	4222
2026-01-18 05:41:21.15	5.69	23.75	-46.2	-47.7	19.5	0.00e+00	0	35	0	641728512	64	4171
2026-01-18 05:41:22.15	5.41	23.75	-46.1	-47.6	19.6	0.00e+00	0	35	0	643825664	64	4120
2026-01-18 05:41:23.16	5.13	23.74	-46.1	-47.5	19.7	0.00e+00	0	35	0	645922816	64	4079
2026-01-18 05:41:24.17	4.84	23.74	-46.1	-47.5	19.6	0.00e+00	0	35	0	648019968	64	4098
2026-01-18 05:41:25.17	4.56	23.73	-46.1	-47.5	19.7	0.00e+00	0	35	0	649068544	64	4078
2026-01-18 05:41:26.18	4.28	23.73	-46.1	-47.5	19.7	0.00e+00	0	35	0	651165696	64	4077
2026-01-18 05:41:27.19	4.00	23.72	-46.0	-47.4	19.7	0.00e+00	0	35	0	653262848	64	4047
2026-01-18 05:41:28.20	3.71	23.71	-46.0	-47.4	19.7	0.00e+00	0	35	0	655360000	64	4048
2026-01-18 05:41:29.20	3.43	23.70	-45.9	-47.3	20.0	0.00e+00	0	35	0	657457152	63	4210
2026-01-18 05:41:30.21	3.15	23.69	-45.8	-47.1	20.1	0.00e+00	0	35	0	658505728	63	4143
2026-01-18 05:41:31.22	2.87	23.68	-45.7	-47.1	20.2	0.00e+00	0	35	0	660602880	63	4113
2026-01-18 05:41:32.23	2.59	23.67	-45.5	-46.8	20.4	0.00e+00	0	35	0	662700032	63	3995
2026-01-18 05:41:33.24	2.30	23.66	-45.4	-46.7	20.5	0.00e+00	0	35	0	664797184	62	4169
2026-01-18 05:41:34.24	2.03	23.65	-45.5	-46.8	20.5	0.00e+00	0	35	0	665845760	62	4194
2026-01-18 05:41:35.25	1.74	23.63	-45.2	-46.5	20.7	0.00e+00	0	35	0	667942912	62	4068
2026-01-18 05:41:36.26	1.46	23.62	-45.0	-46.2	21.0	0.00e+00	0	35	0	670040064	62	3955
2026-01-18 05:41:37.27	1.18	23.61	-45.1	-46.3	20.9	0.00e+00	0	35	0	672137216	62	3980
2026-01-18 05:41:38.27	0.90	23.59	-45.0	-46.2	21.0	0.00e+00	0	35	0	674234368	62	3950
2026-01-18 05:41:39.28	0.62	23.58	-45.1	-46.3	20.9	0.00e+00	0	35	0	676331520	62	4004
2026-01-18 05:41:40.29	0.34	23.56	-45.1	-46.4	20.9	0.00e+00	0	35	0	677380096	62	4013
2026-01-18 05:41:41.30	0.06	23.54	-44.9	-46.0	21.2	0.00e+00	0	35	0	679477248	61	4095
2026-01-18 05:41:42.31	359.78	23.52	-44.6	-45.8	21.4	0.00e+00	0	35	0	681574400	61	3967
2026-01-18 05:41:43.31	359.51	23.50	-44.6	-45.8	21.4	0.00e+00	0	35	0	683671552	61	3971
2026-01-18 05:41:44.32	359.23	23.48	-44.7	-45.9	21.3	0.00e+00	0	35	0	685768704	61	4037
2026-01-18 05:41:45.33	358.95	23.46	-44.8	-46.0	21.2	0.00e+00	0	35	0	686817280	61	4080
2026-01-18 05:41:46.34	358.67	23.44	-44.9	-46.1	21.1	0.00e+00	0	35	0	688914432	61	4108
2026-01-18 05:41:47.35	358.39	23.42	-44.7	-45.9	21.2	0.00e+00	0	35	0	691011584	61	4028
2026-01-18 05:41:48.35	358.12	23.40	-44.5	-45.6	21.5	0.00e+00	0	35	0	693108736	61	3909
2026-01-18 05:41:49.36	357.84	23.38	-44.6	-45.7	21.4	0.00e+00	0	35	0	695205888	60	4179
2026-01-18 05:41:50.37	357.56	23.35	-44.4	-45.5	21.6	0.00e+00	0	35	0	696254464	60	4093
2026-01-18 05:41:51.38	357.29	23.33	-44.5	-45.7	21.5	0.00e+00	0	35	0	698351616	60	4159
2026-01-18 05:41:52.38	357.02	23.30	-44.6	-45.7	21.3	0.00e+00	0	35	0	700448768	60	4191
2026-01-18 05:41:53.39	356.74	23.28	-44.7	-45.9	21.3	0.00e+00	0	35	0	702545920	60	4266
2026-01-18 05:41:54.40	356.47	23.25	-44.8	-45.9	21.2	0.00e+00	0	35	0	704643072	60	4283
2026-01-18 05:41:55.41	356.19	23.22	-44.9	-46.1	21.1	0.00e+00	0	35	0	705691648	60	4355
2026-01-18 05:41:56.41	355.92	23.19	-44.9	-46.1	21.1	0.00e+00	0	35	0	707788800	60	4385
2026-01-18 05:41:57.42	355.65	23.17	-45.0	-46.2	20.9	0.00e+00	0	35	0	709885952	60	4435
2026-01-18 05:41:58.43	355.37	23.14	-45.0	-46.2	21.0	0.00e+00	0	35	0	711983104	60	4419
2026-01-18 05:41:59.44	355.10	23.11	-44.9	-46.1	21.1	0.00e+00	0	35	0	714080256	60	4352
2026-01-18 05:42:00.45	354.83	23.08	-44.9	-46.1	21.1	0.00e+00	0	35	0	715128832	60	4371
2026-01-18 05:42:01.45	354.56	23.04	-45.0	-46.2	21.0	0.00e+00	0	35	0	717225984	60	4398
2026-01-18 05:42:02.46	354.29	23.01	-45.1	-46.3	20.9	0.00e+00	0	35	0	719323136	60	4475
2026-01-18 05:42:03.47	354.02	22.98	-45.2	-46.4	20.8	0.00e+00	0	35	0	721420288	61	4290
2026-01-18 05:42:04.47	353.75	22.95	-45.4	-46.7	20.6	0.00e+00	0	35	0	723517440	61	4399
2026-01-18 05:42:05.48	353.48	22.91	-45.5	-46.8	20.4	0.00e+00	0	35	0	724566016	61	4474
2026-01-18 05:42:06.49	353.22	22.88	-45.5	-46.8	20.5	0.00e+00	0	35	0	726663168	61	4455
2026-01-18 05:42:07.50	352.95	22.84	-45.6	-46.9	20.4	0.00e+00	0	35	0	728760320	61	4519
2026-01-18 05:42:08.50	352.68	22.81	-45.6	-46.9	20.3	0.00e+00	0	35	0	730857472	61	4538
2026-01-18 05:42:09.51	352.42	22.77	-45.8	-47.1	20.2	0.00e+00	0	35	0	732954624	62	4371
2026-01-18 05:42:10.52	352.15	22.73	-45.8	-47.2	20.1	0.00e+00	0	35	0	734003200	62	4392
2026-01-18 05:42:11.52	351.89	22.70	-45.9	-47.2	20.1	0.00e+00	0	35	0	736100352	62	4426
2026-01-18 05:42:12.53	351.62	22.66	-45.8	-47.2	20.1	0.00e+00	0	35	0	738197504	62	4398
2026-01-18 05:42:13.54	351.36	22.62	-45.8	-47.2	20.1	0.00e+00	0	35	0	740294656	62	4408
2026-01-18 05:42:14.55	351.10	22.58	-45.9	-47.3	20.0	0.00e+00	0	35	0	742391808	62	4450
2026-01-18 05:42:15.56	350.84	22.54	-45.8	-47.2	20.0	0.00e+00	0	35	0	743440384	62	4411
2026-01-18 05:42:16.56	350.58	22.50	-46.1	-47.5	19.8	0.00e+00	0	35	0	745537536	62	4554
2026-01-18 05:42:17.57	350.31	22.46	-46.1	-47.5	19.7	0.00e+00	0	35	0	747634688	62	4587
2026-01-18 05:42:18.58	350.05	22.42	-46.2	-47.7	19.6	0.00e+00	0	35	0	749731840	63	4415
2026-01-18 05:42:19.59	349.79	22.38	-46.3	-47.7	19.6	0.00e+00	0	35	0	751828992	63	4429
2026-01-18 05:42:20.60	349.54	22.33	-46.4	-47.8	19.5	0.00e+00	0	35	0	752877568	63	4479
2026-01-18 05:42:21.60	349.28	22.29	-46.4	-47.9	19.4	0.00e+00	0	35	0	754974720	63	4494
2026-01-18 05:42:22.61	349.02	22.25	-46.4	-47.9	19.3	0.00e+00	0	35	0	757071872	63	4508
2026-01-18 05:42:23.62	348.77	22.20	-46.4	-47.9	19.4	0.00e+00	0	35	0	759169024	63	4534
2026-01-18 05:42:24.63	348.51	22.16	-46.4	-47.9	19.4	0.00e+00	0	35	0	761266176	63	4506
2026-01-18 05:42:25.64	348.25	22.11	-46.4	-47.9	19.4	0.00e+00	0	35	0	762314752	63	4519
2026-01-18 05:42:26.65	348.00	22.06	-46.4	-47.9	19.4	0.00e+00	0	35	0	764411904	63	4507
2026-01-18 05:42:27.65	347.75	22.02	-46.4	-47.9	19.4	0.00e+00	0	35	0	766509056	63	4494
2026-01-18 05:42:28.66	347.49	21.97	-46.5	-48.0	19.2	0.00e+00	0	35	0	768606208	63	4588
2026-01-18 05:42:29.67	347.24	21.92	-46.6	-48.1	19.2	0.00e+00	0	35	0	770703360	63	4633
2026-01-18 05:42:30.68	346.99	21.88	-46.7	-48.3	19.0	0.00e+00	0	35	0	771751936	63	4724
2026-01-18 05:42:31.68	346.74	21.83	-46.7	-48.3	18.9	0.00e+00	0	35	0	773849088	64	4450
2026-01-18 05:42:32.69	346.49	21.78	-46.7	-48.3	19.0	0.00e+00	0	35	0	775946240	64	4448
2026-01-18 05:42:33.70	346.24	21.73	-46.7	-48.3	18.8	0.00e+00	0	35	0	778043392	64	4485
2026-01-18 05:42:34.70	346.00	21.68	-46.7	-48.3	18.8	0.00e+00	0	35	0	780140544	64	4486
2026-01-18 05:42:35.71	345.75	21.63	-46.7	-48.3	18.8	0.00e+00	0	35	0	781189120	64	4480
2026-01-18 05:42:36.72	345.50	21.58	-46.8	-48.4	18.8	0.00e+00	0	35	0	783286272	64	4526
2026-01-18 05:42:37.73	345.26	21.53	-46.9	-48.5	18.7	0.00e+00	0	35	0	785383424	64	4570
2026-01-18 05:42:38.74	345.01	21.47	-46.7	-48.3	18.8	0.00e+00	0	35	0	787480576	64	4483
2026-01-18 05:42:39.75	344.77	21.42	-46.5	-48.1	19.1	0.00e+00	0	35	0	789577728	64	4341
2026-01-18 05:42:40.75	344.53	21.37	-46.5	-48.0	19.2	0.00e+00	0	35	0	790626304	64	4307
2026-01-18 05:42:41.76	344.28	21.32	-46.5	-48.0	19.2	0.00e+00	0	35	0	792723456	64	4316
2026-01-18 05:42:42.77	344.04	21.26	-46.7	-48.2	19.0	0.00e+00	0	35	0	794820608	64	4439
2026-01-18 05:42:43.78	343.80	21.21	-46.9	-48.5	18.7	0.00e+00	0	35	0	796917760	64	4581
2026-01-18 05:42:44.78	343.56	21.15	-47.0	-48.7	18.5	0.00e+00	0	35	0	799014912	64	4658
2026-01-18 05:42:45.79	343.33	21.10	-46.8	-48.4	18.8	0.00e+00	0	35	0	800063488	64	4534
2026-01-18 05:42:46.80	343.09	21.04	-46.8	-48.4	18.8	0.00e+00	0	36	0	802160640	64	4509
2026-01-18 05:42:47.81	342.85	20.99	-46.7	-48.2	18.9	0.00e+00	0	35	0	804257792	64	4435
2026-01-18 05:42:48.81	342.62	20.93	-46.5	-48.1	19.1	0.00e+00	0	35	0	806354944	64	4347
2026-01-18 05:42:49.82	342.38	20.88	-46.6	-48.2	19.0	0.00e+00	0	35	0	808452096	64	4392
2026-01-18 05:42:50.83	342.15	20.82	-46.4	-48.0	19.2	0.00e+00	0	35	0	809500672	64	4298
2026-01-18 05:42:51.84	341.91	20.76	-46.5	-48.1	19.1	0.00e+00	0	35	0	811597824	64	4341
2026-01-18 05:42:52.84	341.68	20.70	-46.6	-48.1	19.0	0.00e+00	0	35	0	813694976	64	4376
2026-01-18 05:42:53.85	341.45	20.65	-46.6	-48.2	19.0	0.00e+00	0	35	0	815792128	64	4412
2026-01-18 05:42:54.86	341.22	20.59	-46.6	-48.2	19.0	0.00e+00	0	35	0	817889280	64	4402
2026-01-18 05:42:55.86	340.99	20.53	-46.7	-48.3	18.9	0.00e+00	0	35	0	819986432	64	4445
2026-01-18 05:42:56.87	340.76	20.47	-46.6	-48.1	19.0	0.00e+00	0	35	0	821035008	64	4382
2026-01-18 05:42:57.88	340.53	20.41	-46.5	-48.0	19.1	0.00e+00	0	35	0	823132160	64	4335
2026-01-18 05:42:58.89	340.30	20.35	-46.3	-47.8	19.4	0.00e+00	0	35	0	825229312	64	4195
2026-01-18 05:42:59.90	340.08	20.29	-46.2	-47.7	19.5	0.00e+00	0	35	0	827326464	64	4166
2026-01-18 05:43:00.91	339.85	20.23	-46.3	-47.8	19.4	0.00e+00	0	35	0	828375040	64	4209
2026-01-18 05:43:01.91	339.63	20.17	-46.2	-47.6	19.5	0.00e+00	0	35	0	830472192	64	4135
2026-01-18 05:43:02.92	339.40	20.11	-46.3	-47.8	19.3	0.00e+00	0	35	0	832569344	64	4211
2026-01-18 05:43:03.93	339.18	20.05	-46.3	-47.8	19.4	0.00e+00	0	35	0	834666496	64	4212
2026-01-18 05:43:04.94	338.96	19.99	-46.2	-47.7	19.4	0.00e+00	0	35	0	836763648	64	4181
2026-01-18 05:43:05.95	338.74	19.92	-46.2	-47.7	19.4	0.00e+00	0	35	0	837812224	64	4163
2026-01-18 05:43:06.95	338.52	19.86	-46.2	-47.7	19.5	0.00e+00	0	35	0	839909376	64	4154
2026-01-18 05:43:07.96	338.30	19.80	-46.2	-47.7	19.5	0.00e+00	0	35	0	842006528	64	4154
2026-01-18 05:43:08.97	338.08	19.74	-46.3	-47.8	19.3	0.00e+00	0	35	0	844103680	64	4210
2026-01-18 05:43:09.98	337.86	19.67	-46.3	-47.8	19.3	0.00e+00	0	35	0	846200832	64	4225
2026-01-18 05:43:10.99	337.65	19.61	-46.3	-47.9	19.3	0.00e+00	0	35	0	848297984	64	4244
2026-01-18 05:43:11.99	337.43	19.55	-46.3	-47.8	19.3	0.00e+00	0	35	0	849346560	64	4206
2026-01-18 05:43:13.00	337.22	19.48	-46.3	-47.8	19.3	0.00e+00	0	35	0	851443712	64	4208
2026-01-18 05:43:14.00	337.00	19.42	-46.2	-47.7	19.4	0.00e+00	0	35	0	853540864	64	4166
2026-01-18 05:43:15.01	336.79	19.36	-46.3	-47.8	19.3	0.00e+00	0	35	0	855638016	64	4213
2026-01-18 05:43:16.02	336.58	19.29	-46.2	-47.7	19.4	0.00e+00	0	35	0	856686592	64	4164
2026-01-18 05:43:17.02	336.37	19.23	-46.2	-47.7	19.4	0.00e+00	0	35	0	858783744	64	4169
2026-01-18 05:43:18.03	336.16	19.16	-46.2	-47.7	19.4	0.00e+00	0	35	0	860880896	64	4177
2026-01-18 05:43:19.04	335.95	19.10	-46.3	-47.8	19.3	0.00e+00	0	35	0	862978048	64	4200
2026-01-18 05:43:20.05	335.74	19.03	-46.3	-47.7	19.4	0.00e+00	0	35	0	865075200	64	4190
2026-01-18 05:43:21.06	335.53	18.96	-46.4	-47.9	19.3	0.00e+00	0	35	0	866123776	64	4251
2026-01-18 05:43:22.07	335.33	18.90	-46.4	-48.0	19.1	0.00e+00	0	35	0	868220928	64	4303
2026-01-18 05:43:23.07	335.12	18.83	-46.4	-48.0	19.2	0.00e+00	0	35	0	870318080	64	4296
2026-01-18 05:43:24.08	334.92	18.77	-46.5	-48.0	19.1	0.00e+00	0	35	0	872415232	64	4319
2026-01-18 05:43:25.09	334.71	18.70	-46.4	-47.9	19.2	0.00e+00	0	35	0	874512384	64	4277
2026-01-18 05:43:26.10	334.51	18.63	-46.3	-47.9	19.2	0.00e+00	0	35	0	876609536	64	4248
2026-01-18 05:43:27.10	334.31	18.57	-46.3	-47.9	19.2	0.00e+00	0	35	0	877658112	64	4250
2026-01-18 05:43:28.11	334.11	18.50	-46.4	-47.9	19.2	0.00e+00	0	35	0	879755264	64	4283
2026-01-18 05:43:29.12	333.91	18.43	-46.4	-47.9	19.2	0.00e+00	0	35	0	881852416	64	4286
2026-01-18 05:43:30.13	333.71	18.36	-46.5	-48.0	19.1	0.00e+00	0	35	0	883949568	64	4331
2026-01-18 05:43:31.14	333.51	18.30	-46.5	-48.1	19.1	0.00e+00	0	35	0	884998144	64	4344
2026-01-18 05:43:32.14	333.31	18.23	-46.4	-47.9	19.2	0.00e+00	0	36	0	887095296	64	4272
2026-01-18 05:43:33.15	333.12	18.16	-46.4	-47.9	19.2	0.00e+00	0	35	0	889192448	64	4277
2026-01-18 05:43:34.16	332.92	18.09	-46.3	-47.8	19.3	0.00e+00	0	35	0	891289600	64	4225
2026-01-18 05:43:35.17	332.73	18.02	-46.3	-47.9	19.3	0.00e+00	0	35	0	893386752	64	4247
2026-01-18 05:43:36.18	332.53	17.95	-46.5	-48.0	19.1	0.00e+00	0	35	0	895483904	64	4323
2026-01-18 05:43:37.18	332.34	17.89	-46.3	-47.8	19.3	0.00e+00	0	35	0	896532480	64	4215
2026-01-18 05:43:38.19	332.15	17.82	-46.3	-47.8	19.2	0.00e+00	0	35	0	898629632	64	4221
2026-01-18 05:43:39.20	331.96	17.75	-46.3	-47.8	19.3	0.00e+00	0	35	0	900726784	64	4224
2026-01-18 05:43:40.21	331.76	17.68	-46.3	-47.8	19.2	0.00e+00	0	35	0	902823936	64	4239
2026-01-18 05:43:41.22	331.57	17.61	-46.4	-47.9	19.2	0.00e+00	0	35	0	904921088	64	4271
2026-01-18 05:43:42.23	331.39	17.54	-46.4	-47.9	19.1	0.00e+00	0	35	0	905969664	64	4282
2026-01-18 05:43:43.23	331.20	17.47	-46.3	-47.9	19.2	0.00e+00	0	35	0	908066816	64	4251
2026-01-18 05:43:44.24	331.01	17.40	-46.2	-47.7	19.3	0.00e+00	0	35	0	910163968	64	4193
2026-01-18 05:43:45.24	330.83	17.33	-46.3	-47.8	19.2	0.00e+00	0	35	0	912261120	64	4238
2026-01-18 05:43:46.25	330.64	17.26	-46.4	-47.9	19.2	0.00e+00	0	35	0	913309696	64	4261
2026-01-18 05:43:47.26	330.46	17.19	-46.3	-47.8	19.3	0.00e+00	0	35	0	915406848	64	4206
2026-01-18 05:43:48.27	330.27	17.12	-46.1	-47.6	19.5	0.00e+00	0	35	0	917504000	64	4099
2026-01-18 05:43:49.28	330.09	17.05	-46.1	-47.5	19.6	0.00e+00	0	35	0	919601152	63	4328
2026-01-18 05:43:50.29	329.91	16.98	-46.0	-47.4	19.7	0.00e+00	0	35	0	921698304	63	4286
2026-01-18 05:43:51.29	329.73	16.91	-45.9	-47.3	19.7	0.00e+00	0	35	0	923795456	63	4240
2026-01-18 05:43:52.30	329.55	16.84	-45.9	-47.3	19.8	0.00e+00	0	35	0	924844032	63	4233
2026-01-18 05:43:53.31	329.37	16.77	-45.9	-47.2	19.9	0.00e+00	0	35	0	926941184	63	4188
2026-01-18 05:43:54.31	329.19	16.70	-45.9	-47.3	19.9	0.00e+00	0	35	0	929038336	63	4203
2026-01-18 05:43:55.32	329.02	16.63	-45.8	-47.2	19.8	0.00e+00	0	35	0	931135488	63	4184
2026-01-18 05:43:56.33	328.84	16.56	-45.9	-47.3	19.8	0.00e+00	0	35	0	933232640	63	4215
2026-01-18 05:43:57.34	328.66	16.49	-45.9	-47.3	19.8	0.00e+00	0	35	0	934281216	63	4224
2026-01-18 05:43:58.35	328.49	16.42	-46.1	-47.5	19.6	0.00e+00	0	35	0	936378368	63	4322
2026-01-18 05:43:59.36	328.31	16.35	-46.1	-47.5	19.6	0.00e+00	0	35	0	938475520	63	4331
2026-01-18 05:44:00.36	328.14	16.28	-45.9	-47.3	19.8	0.00e+00	0	35	0	940572672	63	4235
2026-01-18 05:44:01.37	327.97	16.20	-46.0	-47.4	19.7	0.00e+00	0	35	0	942669824	63	4259
2026-01-18 05:44:02.38	327.80	16.13	-46.0	-47.4	19.7	0.00e+00	0	35	0	943718400	63	4266
2026-01-18 05:44:03.39	327.63	16.06	-45.9	-47.3	19.8	0.00e+00	0	35	0	945815552	63	4200
2026-01-18 05:44:04.39	327.46	15.99	-45.7	-47.1	20.0	0.00e+00	0	35	0	947912704	63	4109
2026-01-18 05:44:05.40	327.29	15.92	-45.7	-47.1	20.0	0.00e+00	0	35	0	950009856	63	4126
2026-01-18 05:44:06.41	327.12	15.85	-45.6	-47.0	20.1	0.00e+00	0	35	0	952107008	63	4072
2026-01-18 05:44:07.42	326.95	15.78	-45.5	-46.9	20.2	0.00e+00	0	35	0	953155584	63	4007
2026-01-18 05:44:08.43	326.78	15.71	-45.6	-46.9	20.1	0.00e+00	0	35	0	955252736	63	4038
2026-01-18 05:44:09.43	326.62	15.63	-45.5	-46.9	20.2	0.00e+00	0	35	0	957349888	63	4025
2026-01-18 05:44:10.44	326.45	15.56	-45.7	-47.1	20.0	0.00e+00	0	35	0	959447040	63	4129
2026-01-18 05:44:11.45	326.29	15.49	-45.7	-47.0	20.0	0.00e+00	0	35	0	961544192	63	4093
2026-01-18 05:44:12.46	326.13	15.42	-45.7	-47.1	19.9	0.00e+00	0	35	0	963641344	63	4135
2026-01-18 05:44:13.47	325.96	15.35	-45.7	-47.1	20.0	0.00e+00	0	35	0	964689920	63	4116
2026-01-18 05:44:14.48	325.80	15.28	-45.8	-47.1	20.0	0.00e+00	0	35	0	966787072	63	4137
2026-01-18 05:44:15.49	325.64	15.20	-45.8	-47.2	19.9	0.00e+00	0	35	0	968884224	63	4148
2026-01-18 05:44:16.49	325.48	15.13	-45.7	-47.1	20.0	0.00e+00	0	35	0	970981376	63	4133
2026-01-18 05:44:17.50	325.32	15.06	-45.8	-47.2	19.9	0.00e+00	0	35	0	972029952	63	4148
2026-01-18 05:44:18.51	325.16	14.99	-45.7	-47.1	19.9	0.00e+00	0	35	0	974127104	63	4133
2026-01-18 05:44:19.52	325.00	14.92	-45.9	-47.3	19.8	0.00e+00	0	35	0	976224256	63	4204
2026-01-18 05:44:20.53	324.85	14.85	-45.6	-47.0	20.1	0.00e+00	0	35	0	978321408	63	4054
2026-01-18 05:44:21.53	324.69	14.77	-45.7	-47.0	20.0	0.00e+00	0	35	0	980418560	63	4087
2026-01-18 05:44:22.54	324.54	14.70	-45.6	-47.0	20.0	0.00e+00	0	35	0	981467136	63	4082
2026-01-18 05:44:23.55	324.38	14.63	-45.7	-47.1	20.0	0.00e+00	0	35	0	983564288	63	4110
2026-01-18 05:44:24.56	324.23	14.56	-45.6	-47.0	20.0	0.00e+00	0	35	0	985661440	63	4062
2026-01-18 05:44:25.56	324.07	14.49	-45.7	-47.1	19.9	0.00e+00	0	35	0	987758592	63	4134
2026-01-18 05:44:26.57	323.92	14.42	-45.7	-47.1	19.9	0.00e+00	0	35	0	989855744	63	4131
2026-01-18 05:44:27.58	323.77	14.34	-45.7	-47.1	19.9	0.00e+00	0	35	0	991952896	63	4133
2026-01-18 05:44:28.59	323.62	14.27	-45.8	-47.3	19.8	0.00e+00	0	35	0	993001472	63	4200
2026-01-18 05:44:29.59	323.47	14.20	-45.8	-47.2	19.8	0.00e+00	0	35	0	995098624	63	4186
2026-01-18 05:44:30.60	323.32	14.13	-45.8	-47.2	19.8	0.00e+00	0	35	0	997195776	63	4182
2026-01-18 05:44:31.61	323.17	14.06	-45.9	-47.4	19.6	0.00e+00	0	35	0	999292928	63	4262
2026-01-18 05:44:32.62	323.02	13.99	-46.0	-47.5	19.5	0.00e+00	0	35	0	1000341504	63	4314
2026-01-18 05:44:33.62	322.87	13.92	-46.1	-47.6	19.4	0.00e+00	0	35	0	1002438656	63	4351
2026-01-18 05:44:34.63	322.73	13.84	-46.2	-47.7	19.3	0.00e+00	0	35	0	1004535808	63	4401
2026-01-18 05:44:35.64	322.58	13.77	-46.2	-47.7	19.3	0.00e+00	0	35	0	1006632960	63	4414
2026-01-18 05:44:36.65	322.44	13.70	-46.3	-47.9	19.1	0.00e+00	0	35	0	1008730112	63	4494
2026-01-18 05:44:37.66	322.29	13.63	-46.5	-48.0	19.0	0.00e+00	0	35	0	1009778688	63	4592
2026-01-18 05:44:38.67	322.15	13.56	-46.4	-48.0	19.0	0.00e+00	0	35	0	1011875840	63	4555
2026-01-18 05:44:39.67	322.01	13.49	-46.5	-48.1	18.9	0.00e+00	0	35	0	1013972992	63	4612
2026-01-18 05:44:40.68	321.86	13.41	-46.4	-48.0	18.9	0.00e+00	0	35	0	1016070144	63	4584
2026-01-18 05:44:41.69	321.72	13.34	-46.4	-48.0	19.0	0.00e+00	0	35	0	1018167296	63	4591
2026-01-18 05:44:42.70	321.58	13.27	-46.4	-48.0	19.0	0.00e+00	0	35	0	1020264448	63	4562
2026-01-18 05:44:43.71	321.44	13.20	-46.2	-47.7	19.2	0.00e+00	0	35	0	1021313024	63	4426
2026-01-18 05:44:44.71	321.30	13.13	-46.2	-47.7	19.2	0.00e+00	0	35	0	1023410176	63	4431
2026-01-18 05:44:45.72	321.16	13.06	-46.2	-47.7	19.3	0.00e+00	0	35	0	1025507328	63	4400
2026-01-18 05:44:46.73	321.02	12.99	-46.2	-47.7	19.2	0.00e+00	0	35	0	1027604480	63	4425
2026-01-18 05:44:47.74	320.88	12.91	-46.2	-47.7	19.2	0.00e+00	0	35	0	1028653056	63	4412
2026-01-18 05:44:48.75	320.75	12.84	-46.2	-47.8	19.2	0.00e+00	0	35	0	1030750208	63	4457
2026-01-18 05:44:49.75	320.61	12.77	-46.3	-47.9	19.1	0.00e+00	0	35	0	1032847360	63	4495
2026-01-18 05:44:50.76	320.48	12.70	-46.4	-48.0	19.0	0.00e+00	0	35	0	1034944512	63	4557
2026-01-18 05:44:51.77	320.34	12.63	-46.5	-48.1	18.9	0.00e+00	0	35	0	1037041664	63	4606
2026-01-18 05:44:52.78	320.21	12.56	-46.6	-48.2	18.8	0.00e+00	0	35	0	1039138816	63	4670
2026-01-18 05:44:53.79	320.07	12.49	-46.6	-48.3	18.7	0.00e+00	0	35	0	1040187392	63	4713
2026-01-18 05:44:54.79	319.94	12.42	-46.7	-48.3	18.6	0.00e+00	0	35	0	1042284544	63	4745
2026-01-18 05:44:55.80	319.81	12.35	-46.7	-48.3	18.6	0.00e+00	0	35	0	1044381696	63	4732
2026-01-18 05:44:56.81	319.68	12.28	-46.7	-48.3	18.5	0.00e+00	0	35	0	1046478848	64	4484
2026-01-18 05:44:57.81	319.55	12.21	-46.6	-48.2	18.6	0.00e+00	0	35	0	1048576000	64	4411
2026-01-18 05:44:58.82	319.42	12.14	-46.6	-48.2	18.6	0.00e+00	0	35	0	1049624576	64	4432
2026-01-18 05:44:59.83	319.29	12.07	-46.6	-48.3	18.5	0.00e+00	0	35	0	1051721728	64	4454
2026-01-18 05:45:00.84	319.16	11.99	-46.6	-48.3	18.6	0.00e+00	0	35	0	1053818880	64	4443
2026-01-18 05:45:01.84	319.03	11.92	-46.6	-48.3	18.6	0.00e+00	0	35	0	1055916032	64	4447
2026-01-18 05:45:02.85	318.90	11.85	-46.6	-48.3	18.5	0.00e+00	0	35	0	1056964608	64	4459
2026-01-18 05:45:03.86	318.77	11.78	-46.7	-48.4	18.4	0.00e+00	0	35	0	1059061760	64	4514
2026-01-18 05:45:04.87	318.65	11.71	-46.7	-48.3	18.4	0.00e+00	0	35	0	1061158912	64	4485
2026-01-18 05:45:05.88	318.52	11.64	-46.6	-48.3	18.5	0.00e+00	0	35	0	1063256064	64	4479
2026-01-18 05:45:06.89	318.40	11.57	-46.7	-48.3	18.5	0.00e+00	0	35	0	1065353216	64	4478
2026-01-18 05:45:07.89	318.27	11.50	-46.7	-48.3	18.5	0.00e+00	0	35	0	1067450368	64	4480
2026-01-18 05:45:08.90	318.15	11.43	-46.7	-48.4	18.5	0.00e+00	0	35	0	1068498944	64	4495
2026-01-18 05:45:09.91	318.02	11.36	-46.8	-48.5	18.3	0.00e+00	0	35	0	1070596096	64	4553
2026-01-18 05:45:10.91	317.90	11.29	-46.7	-48.4	18.4	0.00e+00	0	35	0	1072693248	64	4509
2026-01-18 05:45:11.92	317.78	11.22	-46.8	-48.5	18.3	0.00e+00	0	35	0	1074790400	64	4578
2026-01-18 05:45:12.93	317.66	11.15	-46.9	-48.7	18.2	0.00e+00	0	35	0	1076887552	64	4652
2026-01-18 05:45:13.94	317.54	11.08	-46.9	-48.6	18.1	0.00e+00	0	36	0	1077936128	64	4643
2026-01-18 05:45:14.95	317.42	11.01	-46.9	-48.7	18.0	0.00e+00	0	35	0	1080033280	64	4688
2026-01-18 05:45:15.95	317.30	10.94	-46.9	-48.7	18.1	0.00e+00	0	35	0	1082130432	64	4674
2026-01-18 05:45:16.96	317.18	10.88	-47.0	-48.8	18.0	0.00e+00	0	35	0	1084227584	64	4727
2026-01-18 05:45:17.97	317.06	10.81	-47.0	-48.8	18.0	0.00e+00	0	35	0	1086324736	64	4748
2026-01-18 05:45:18.98	316.94	10.74	-47.1	-49.0	17.7	0.00e+00	0	35	0	1087373312	64	4844
2026-01-18 05:45:19.99	316.82	10.67	-47.1	-48.9	17.8	0.00e+00	0	35	0	1089470464	64	4806
2026-01-18 05:45:21.00	316.70	10.60	-47.1	-49.0	17.7	0.00e+00	0	35	0	1091567616	64	4845
2026-01-18 05:45:22.01	316.59	10.53	-47.2	-49.0	17.7	0.00e+00	0	35	0	1093664768	64	4857
2026-01-18 05:45:23.02	316.47	10.46	-47.0	-48.8	17.9	0.00e+00	0	35	0	1095761920	64	4752
2026-01-18 05:45:24.02	316.36	10.39	-47.1	-48.9	17.8	0.00e+00	0	35	0	1096810496	64	4802
2026-01-18 05:45:25.03	316.24	10.32	-47.1	-48.9	17.8	0.00e+00	0	35	0	1098907648	64	4813
2026-01-18 05:45:26.04	316.13	10.25	-47.1	-48.9	17.8	0.00e+00	0	35	0	1101004800	64	4780
2026-01-18 05:45:27.05	316.01	10.18	-47.1	-48.9	17.9	0.00e+00	0	35	0	1103101952	64	4775
2026-01-18 05:45:28.05	315.90	10.12	-47.1	-49.0	17.7	0.00e+00	0	35	0	1105199104	64	4838
2026-01-18 05:45:29.06	315.79	10.05	-47.1	-49.0	17.7	0.00e+00	0	35	0	1106247680	64	4839
2026-01-18 05:45:30.07	315.68	9.98	-47.3	-49.2	17.6	0.00e+00	0	35	0	1108344832	65	4658
2026-01-18 05:45:31.08	315.56	9.91	-47.2	-49.1	17.6	0.00e+00	0	35	0	1110441984	65	4602
2026-01-18 05:45:32.08	315.45	9.84	-47.2	-49.2	17.6	0.00e+00	0	35	0	1112539136	65	4653
2026-01-18 05:45:33.09	315.34	9.77	-47.2	-49.1	17.6	0.00e+00	0	35	0	1114636288	65	4643
2026-01-18 05:45:34.10	315.23	9.71	-47.2	-49.1	17.6	0.00e+00	0	35	0	1115684864	65	4637
2026-01-18 05:45:35.11	315.12	9.64	-47.3	-49.2	17.5	0.00e+00	0	35	0	1117782016	65	4691
2026-01-18 05:45:36.12	315.02	9.57	-47.4	-49.4	17.3	0.00e+00	0	35	0	1119879168	65	4773
2026-01-18 05:45:37.13	314.91	9.50	-47.4	-49.4	17.3	0.00e+00	0	35	0	1121976320	65	4782
2026-01-18 05:45:38.13	314.80	9.43	-47.5	-49.5	17.2	0.00e+00	0	35	0	1124073472	65	4854
2026-01-18 05:45:39.14	314.69	9.37	-47.6	-49.6	17.0	0.00e+00	0	35	0	1125122048	65	4923
2026-01-18 05:45:40.15	314.58	9.30	-47.6	-49.6	17.1	0.00e+00	0	35	0	1127219200	65	4904
2026-01-18 05:45:41.16	314.48	9.23	-47.7	-49.8	16.9	0.00e+00	0	35	0	1129316352	65	4989
2026-01-18 05:45:42.17	314.37	9.16	-47.7	-49.8	16.9	0.00e+00	0	35	0	1131413504	66	4719
2026-01-18 05:45:43.17	314.27	9.10	-47.8	-50.0	16.7	0.00e+00	0	35	0	1133510656	66	4816
2026-01-18 05:45:44.18	314.16	9.03	-47.7	-49.7	17.0	0.00e+00	0	35	0	1134559232	66	4705
2026-01-18 05:45:45.19	314.06	8.96	-47.7	-49.8	16.9	0.00e+00	0	35	0	1136656384	66	4721
2026-01-18 05:45:46.20	313.95	8.90	-47.7	-49.9	16.8	0.00e+00	0	35	0	1138753536	66	4761
2026-01-18 05:45:47.20	313.85	8.83	-47.8	-50.0	16.8	0.00e+00	0	35	0	1140850688	66	4820
2026-01-18 05:45:48.21	313.75	8.76	-47.9	-50.0	16.6	0.00e+00	0	35	0	1142947840	66	4866
2026-01-18 05:45:49.22	313.65	8.69	-48.0	-50.2	16.4	0.00e+00	0	35	0	1143996416	66	4960
2026-01-18 05:45:50.23	313.54	8.63	-47.9	-50.2	16.5	0.00e+00	0	35	0	1146093568	66	4939
2026-01-18 05:45:51.24	313.44	8.56	-48.0	-50.3	16.3	0.00e+00	0	35	0	1148190720	66	5015
2026-01-18 05:45:52.25	313.34	8.49	-48.0	-50.2	16.4	0.00e+00	0	35	0	1150287872	66	4941
2026-01-18 05:45:53.25	313.24	8.43	-48.0	-50.3	16.3	0.00e+00	0	35	0	1152385024	66	5007
2026-01-18 05:45:54.26	313.14	8.36	-48.1	-50.4	16.2	0.00e+00	0	35	0	1154482176	66	5087
2026-01-18 05:45:55.27	313.04	8.30	-48.2	-50.5	16.2	0.00e+00	0	35	0	1155530752	66	5128
2026-01-18 05:45:56.28	312.94	8.23	-48.1	-50.5	16.1	0.00e+00	0	35	0	1157627904	66	5114
2026-01-18 05:45:57.28	312.85	8.16	-48.1	-50.5	16.2	0.00e+00	0	35	0	1159725056	66	5106
2026-01-18 05:45:58.29	312.75	8.10	-48.1	-50.4	16.2	0.00e+00	0	35	0	1161822208	66	5043
2026-01-18 05:45:59.30	312.65	8.03	-48.2	-50.5	16.1	0.00e+00	0	35	0	1162870784	66	5129
2026-01-18 05:46:00.31	312.55	7.97	-48.1	-50.4	16.2	0.00e+00	0	36	0	1164967936	66	5044
2026-01-18 05:46:01.32	312.45	7.90	-48.1	-50.4	16.1	0.00e+00	0	35	0	1167065088	66	5089
2026-01-18 05:46:02.33	312.36	7.83	-48.0	-50.3	16.2	0.00e+00	0	35	0	1169162240	66	5038
2026-01-18 05:46:03.33	312.26	7.77	-48.1	-50.4	16.2	0.00e+00	0	35	0	1171259392	66	5062
2026-01-18 05:46:04.34	312.17	7.70	-48.1	-50.4	16.2	0.00e+00	0	35	0	1172307968	66	5054
2026-01-18 05:46:05.35	312.07	7.64	-48.2	-50.6	16.0	0.00e+00	0	35	0	1174405120	66	5173
2026-01-18 05:46:06.35	311.98	7.57	-48.0	-50.3	16.3	0.00e+00	0	35	0	1176502272	66	5020
2026-01-18 05:46:07.36	311.88	7.51	-48.0	-50.3	16.3	0.00e+00	0	35	0	1178599424	66	5010
2026-01-18 05:46:08.37	311.79	7.44	-48.1	-50.4	16.2	0.00e+00	0	35	0	1180696576	66	5056
2026-01-18 05:46:09.38	311.70	7.38	-48.1	-50.4	16.1	7.00e-07	0	35	0	1182793728	66	5072
2026-01-18 05:46:10.39	311.60	7.31	-48.1	-50.4	16.1	0.00e+00	0	35	0	1183842304	66	5078
2026-01-18 05:46:11.39	311.51	7.25	-48.2	-50.5	16.0	0.00e+00	0	35	0	1185939456	66	5158
2026-01-18 05:46:12.40	311.42	7.18	-48.2	-50.6	16.0	0.00e+00	0	35	0	1188036608	66	5169
2026-01-18 05:46:13.41	311.33	7.12	-48.3	-50.7	15.8	0.00e+00	0	35	0	1190133760	67	4956
2026-01-18 05:46:14.42	311.24	7.05	-48.3	-50.7	15.8	0.00e+00	0	35	0	1191182336	67	4952
2026-01-18 05:46:15.43	311.15	6.99	-48.2	-50.6	15.8	0.00e+00	0	35	0	1193279488	67	4922
2026-01-18 05:46:16.43	311.06	6.92	-48.3	-50.8	15.7	0.00e+00	0	35	0	1195376640	67	5015
2026-01-18 05:46:17.44	310.97	6.86	-48.4	-50.9	15.6	0.00e+00	0	35	0	1197473792	67	5044
2026-01-18 05:46:18.45	310.88	6.80	-48.5	-51.0	15.4	0.00e+00	0	35	0	1199570944	67	5150
2026-01-18 05:46:19.46	310.79	6.73	-48.4	-50.9	15.6	0.00e+00	0	35	0	1200619520	67	5072
2026-01-18 05:46:20.47	310.70	6.67	-48.4	-50.9	15.5	0.00e+00	0	35	0	1202716672	67	5082
2026-01-18 05:46:21.47	310.61	6.60	-48.5	-51.1	15.4	0.00e+00	0	35	0	1204813824	67	5168
2026-01-18 05:46:22.48	310.52	6.54	-48.5	-51.1	15.3	0.00e+00	0	35	0	1206910976	67	5200
2026-01-18 05:46:23.48	310.44	6.48	-48.5	-51.1	15.4	0.00e+00	0	35	0	1209008128	67	5164
2026-01-18 05:46:24.49	310.35	6.41	-48.5	-51.1	15.3	0.00e+00	0	35	0	1211105280	67	5206
2026-01-18 05:46:25.50	310.26	6.35	-48.6	-51.3	15.0	7.00e-07	0	35	0	1212153856	67	5335
2026-01-18 05:46:26.51	310.18	6.29	-48.7	-51.4	15.0	0.00e+00	0	35	0	1214251008	67	5370
2026-01-18 05:46:27.51	310.09	6.22	-48.6	-51.3	15.1	0.00e+00	0	35	0	1216348160	67	5309
2026-01-18 05:46:28.52	310.01	6.16	-48.7	-51.4	15.0	0.00e+00	0	36	0	1218445312	67	5376
2026-01-18 05:46:29.53	309.92	6.10	-48.6	-51.3	15.1	0.00e+00	0	35	0	1219493888	67	5296
2026-01-18 05:46:30.54	309.84	6.03	-48.9	-51.8	14.7	0.00e+00	0	35	0	1221591040	68	5280
2026-01-18 05:46:31.54	309.75	5.97	-48.9	-51.7	14.8	0.00e+00	0	35	0	1223688192	68	5251
2026-01-18 05:46:32.55	309.67	5.91	-48.8	-51.6	14.9	0.00e+00	0	35	0	1225785344	68	5189
2026-01-18 05:46:33.56	309.59	5.84	-48.8	-51.7	14.8	0.00e+00	0	36	0	1227882496	68	5230
2026-01-18 05:46:34.57	309.50	5.78	-48.9	-51.7	14.8	0.00e+00	0	35	0	1229979648	68	5248
