passes_logs/2026/01/18/R3.2S_Murmansk/R3.2S_Murmansk__20260118_111059_FENGYUN_3D_rec.log

#Pass ID: 20260118_111059_FENGYUN 3D
#Satellite: FENGYUN 3D
#Configuration: FENGYUN 3D
#almurnet v.1.7.20251203
#Start time: 2026-01-18 11:11:00

#Version: 2.2.20231116
#Station: R3.2S_Murmansk
#Location: 33.079688 lon 68.888172 lat
#TLE: 1 43010U 17072A   26017.61121112  .00000213  00000+0  12257-3 0  9991
#TLE: 2 43010  98.9934 349.4672 0002374 103.9362 256.2078 14.19696413423628

#Time	Az	El	Level	Level2	SNR	BER	BlckErr	Temp	State	Recorded	gain1	gain2
2026-01-18 11:11:00.09	142.38	2.02	-51.9	-63.8	3.8	8.46e-01	0	34	0	0	75	14145
2026-01-18 11:11:01.10	142.37	2.09	-51.9	-63.8	3.8	8.46e-01	0	34	104	0	74	15006
2026-01-18 11:11:02.11	142.36	2.15	-51.9	-63.8	3.8	8.46e-01	0	34	104	0	74	15012
2026-01-18 11:11:03.11	142.36	2.22	-51.9	-63.8	3.8	8.45e-01	0	34	104	0	74	14983
2026-01-18 11:11:04.12	142.35	2.28	-51.9	-63.8	3.8	8.47e-01	0	34	104	0	74	14965
2026-01-18 11:11:05.13	142.34	2.35	-51.9	-63.8	3.8	8.45e-01	0	34	104	0	74	14951
2026-01-18 11:11:06.14	142.33	2.41	-51.9	-63.8	3.8	8.46e-01	0	34	104	0	74	14940
2026-01-18 11:11:07.14	142.33	2.48	-51.9	-63.8	3.8	8.46e-01	0	34	104	0	74	14961
2026-01-18 11:11:08.15	142.32	2.55	-51.9	-63.8	3.8	8.45e-01	0	34	104	0	74	14957
2026-01-18 11:11:09.16	142.31	2.61	-51.9	-63.8	3.8	8.46e-01	0	34	104	0	74	14937
2026-01-18 11:11:10.17	142.31	2.68	-51.9	-63.8	3.8	8.46e-01	0	34	104	0	74	14978
2026-01-18 11:11:11.17	142.30	2.74	-51.9	-63.8	3.8	8.45e-01	0	34	104	0	74	14963
2026-01-18 11:11:12.18	142.29	2.81	-51.9	-63.8	3.8	8.46e-01	0	34	104	0	74	14940
2026-01-18 11:11:13.19	142.29	2.88	-51.9	-63.8	3.8	8.45e-01	0	34	104	0	74	14918
2026-01-18 11:11:14.20	142.28	2.94	-51.9	-63.8	3.8	8.46e-01	0	34	104	0	74	14882
2026-01-18 11:11:15.21	142.27	3.01	-51.9	-63.7	3.8	8.47e-01	0	34	104	0	74	14780
2026-01-18 11:11:16.21	142.26	3.08	-51.9	-63.7	3.8	8.46e-01	0	34	104	0	74	14718
2026-01-18 11:11:17.22	142.26	3.14	-51.9	-63.7	3.8	8.46e-01	0	34	104	0	74	14715
2026-01-18 11:11:18.23	142.25	3.21	-51.9	-63.6	3.8	8.46e-01	0	34	104	0	74	14672
2026-01-18 11:11:19.24	142.24	3.28	-51.9	-63.6	3.8	8.48e-01	0	35	104	0	74	14599
2026-01-18 11:11:20.25	142.23	3.35	-51.8	-63.5	3.8	8.46e-01	0	35	104	0	74	14449
2026-01-18 11:11:21.25	142.23	3.42	-51.8	-63.3	3.8	8.45e-01	0	35	104	0	74	14109
2026-01-18 11:11:22.26	142.22	3.48	-51.8	-62.9	3.8	8.45e-01	0	34	104	0	74	13451
2026-01-18 11:11:23.28	142.21	3.55	-51.7	-62.4	3.8	8.45e-01	0	35	104	0	74	12791
2026-01-18 11:11:24.28	142.20	3.62	-51.6	-61.6	3.8	8.45e-01	0	34	104	0	74	11674
2026-01-18 11:11:25.29	142.20	3.69	-51.5	-60.5	4.1	8.40e-01	0	35	0	0	74	10227
2026-01-18 11:11:26.30	142.19	3.76	-51.4	-59.8	4.3	8.36e-01	0	35	0	0	74	9440
2026-01-18 11:11:27.31	142.18	3.83	-51.3	-59.1	4.6	8.19e-01	0	35	0	0	74	8748
2026-01-18 11:11:28.31	142.17	3.90	-51.2	-58.7	4.7	7.89e-01	0	35	0	0	74	8335
2026-01-18 11:11:29.32	142.16	3.97	-51.1	-58.1	5.1	7.66e-01	0	35	0	0	74	7804
2026-01-18 11:11:30.33	142.16	4.03	-51.1	-58.0	5.1	7.59e-01	0	35	0	0	74	7670
2026-01-18 11:11:31.34	142.15	4.10	-51.0	-57.6	5.4	7.28e-01	0	35	0	0	74	7347
2026-01-18 11:11:32.35	142.14	4.17	-50.8	-57.0	5.8	3.81e-01	0	35	0	3145728	73	7215
2026-01-18 11:11:33.35	142.13	4.24	-50.5	-55.9	6.6	3.18e-01	0	35	0	9437184	73	6414
2026-01-18 11:11:34.36	142.12	4.31	-50.1	-54.8	7.7	1.61e-01	0	35	0	14680064	72	5939
2026-01-18 11:11:35.37	142.11	4.38	-49.9	-54.1	8.4	6.48e-02	0	35	0	19922944	71	5843
2026-01-18 11:11:36.38	142.11	4.46	-49.3	-52.9	9.7	1.73e-02	0	35	0	26214400	70	5399
2026-01-18 11:11:37.38	142.10	4.53	-49.1	-52.4	10.2	7.32e-03	0	35	0	31457280	70	5091
2026-01-18 11:11:38.39	142.09	4.60	-48.0	-50.6	12.1	7.41e-04	0	35	0	37748736	68	4618
2026-01-18 11:11:39.40	142.08	4.67	-47.2	-49.4	13.2	7.20e-05	0	35	0	42991616	66	4533
2026-01-18 11:11:40.41	142.07	4.74	-46.4	-48.2	14.5	3.40e-06	0	35	0	49283072	64	4439
2026-01-18 11:11:41.42	142.06	4.81	-46.2	-48.1	14.6	2.20e-06	0	35	0	54525952	64	4365
2026-01-18 11:11:42.43	142.06	4.88	-45.5	-47.2	15.7	0.00e+00	0	35	0	60817408	62	4397
2026-01-18 11:11:43.43	142.05	4.95	-45.6	-47.3	15.6	0.00e+00	0	35	0	66060288	62	4445
2026-01-18 11:11:44.44	142.04	5.03	-44.9	-46.4	16.4	0.00e+00	0	35	0	71303168	61	4261
2026-01-18 11:11:45.45	142.03	5.10	-44.5	-45.9	16.9	0.00e+00	0	35	0	77594624	61	4029
2026-01-18 11:11:46.46	142.02	5.17	-45.8	-47.5	15.6	0.00e+00	0	35	0	82837504	62	4548
2026-01-18 11:11:47.47	142.01	5.24	-45.4	-47.0	15.9	1.29e-03	0	35	0	88080384	63	4057
2026-01-18 11:11:48.47	142.00	5.32	-45.7	-47.3	15.4	5.37e-05	0	35	0	94371840	63	4238
2026-01-18 11:11:49.48	141.99	5.39	-44.2	-45.5	17.4	0.00e+00	0	35	0	99614720	60	4076
2026-01-18 11:11:50.49	141.98	5.46	-45.4	-47.0	15.8	1.12e-03	0	35	0	105906176	62	4294
2026-01-18 11:11:51.50	141.97	5.54	-44.4	-45.8	17.1	0.00e+00	0	35	0	111149056	60	4203
2026-01-18 11:11:52.51	141.96	5.61	-44.2	-45.4	17.8	0.00e+00	0	35	0	117440512	59	4284
2026-01-18 11:11:53.51	141.96	5.68	-44.0	-45.2	18.0	0.00e+00	0	35	0	122683392	59	4177
2026-01-18 11:11:54.52	141.95	5.76	-44.3	-45.6	17.6	0.00e+00	0	35	0	127926272	59	4377
2026-01-18 11:11:55.53	141.94	5.83	-44.3	-45.5	17.7	0.00e+00	0	35	0	134217728	59	4340
2026-01-18 11:11:56.54	141.93	5.91	-44.2	-45.5	17.8	0.00e+00	0	35	0	139460608	59	4299
2026-01-18 11:11:57.55	141.92	5.98	-44.1	-45.4	17.9	0.00e+00	0	35	0	145752064	59	4275
2026-01-18 11:11:58.55	141.91	6.06	-44.2	-45.5	17.9	0.00e+00	0	35	0	150994944	59	4298
2026-01-18 11:11:59.56	141.90	6.13	-44.0	-45.2	18.1	0.00e+00	0	35	0	156237824	59	4180
2026-01-18 11:12:00.57	141.89	6.21	-44.0	-45.3	18.1	0.00e+00	0	35	0	162529280	59	4206
2026-01-18 11:12:01.58	141.88	6.28	-44.0	-45.3	18.1	0.00e+00	0	35	0	167772160	59	4207
2026-01-18 11:12:02.58	141.87	6.36	-44.2	-45.4	18.0	0.00e+00	0	35	0	173015040	59	4274
2026-01-18 11:12:03.59	141.86	6.43	-44.1	-45.4	18.0	0.00e+00	0	35	0	179306496	59	4260
2026-01-18 11:12:04.60	141.85	6.51	-44.2	-45.5	17.9	0.00e+00	0	35	0	185597952	59	4308
2026-01-18 11:12:05.61	141.84	6.59	-44.3	-45.6	17.9	0.00e+00	0	35	0	190840832	59	4341
2026-01-18 11:12:06.62	141.83	6.66	-44.4	-45.7	17.7	0.00e+00	0	35	0	196083712	59	4409
2026-01-18 11:12:07.63	141.82	6.74	-44.2	-45.4	18.0	0.00e+00	0	35	0	202375168	59	4283
2026-01-18 11:12:08.63	141.81	6.82	-44.3	-45.5	17.9	0.00e+00	0	35	0	207618048	59	4332
2026-01-18 11:12:09.64	141.80	6.90	-44.0	-45.3	18.2	0.00e+00	0	35	0	212860928	59	4196
2026-01-18 11:12:10.65	141.79	6.97	-44.0	-45.2	18.3	0.00e+00	0	35	0	219152384	59	4168
2026-01-18 11:12:11.66	141.77	7.05	-44.0	-45.2	18.3	0.00e+00	0	35	0	224395264	59	4165
2026-01-18 11:12:12.67	141.76	7.13	-43.8	-45.0	18.4	0.00e+00	0	35	0	230686720	59	4091
2026-01-18 11:12:13.67	141.75	7.21	-43.8	-45.0	18.5	0.00e+00	0	35	0	235929600	59	4068
2026-01-18 11:12:14.68	141.74	7.29	-43.9	-45.0	18.4	0.00e+00	0	35	0	241172480	59	4094
2026-01-18 11:12:15.69	141.73	7.37	-43.7	-44.9	18.6	0.00e+00	0	35	0	247463936	59	4033
2026-01-18 11:12:16.70	141.72	7.44	-43.6	-44.8	18.8	0.00e+00	0	35	0	253755392	59	3969
2026-01-18 11:12:17.71	141.71	7.52	-43.7	-44.9	18.7	0.00e+00	0	35	0	258998272	59	4009
2026-01-18 11:12:18.71	141.70	7.60	-43.4	-44.5	19.0	0.00e+00	0	35	0	264241152	58	4091
2026-01-18 11:12:19.72	141.69	7.68	-43.6	-44.8	18.8	0.00e+00	0	35	0	270532608	58	4201
2026-01-18 11:12:20.73	141.68	7.76	-43.4	-44.6	19.0	0.00e+00	0	35	0	275775488	58	4101
2026-01-18 11:12:21.74	141.66	7.84	-43.6	-44.7	18.8	0.00e+00	0	35	0	281018368	58	4188
2026-01-18 11:12:22.75	141.65	7.92	-43.6	-44.8	18.7	0.00e+00	0	35	0	287309824	58	4215
2026-01-18 11:12:23.75	141.64	8.00	-43.7	-44.9	18.7	0.00e+00	0	35	0	292552704	58	4269
2026-01-18 11:12:24.76	141.63	8.09	-43.5	-44.6	19.0	0.00e+00	0	35	0	297795584	58	4118
2026-01-18 11:12:25.77	141.62	8.17	-43.4	-44.5	19.1	0.00e+00	0	35	0	304087040	58	4064
2026-01-18 11:12:26.78	141.61	8.25	-43.3	-44.4	19.1	0.00e+00	0	35	0	309329920	58	4047
2026-01-18 11:12:27.78	141.59	8.33	-43.5	-44.6	19.0	0.00e+00	0	35	0	315621376	58	4128
2026-01-18 11:12:28.79	141.58	8.41	-43.3	-44.4	19.2	0.00e+00	0	35	0	320864256	58	4034
2026-01-18 11:12:29.80	141.57	8.50	-43.4	-44.5	19.1	0.00e+00	0	36	0	327155712	58	4098
2026-01-18 11:12:30.81	141.56	8.58	-43.5	-44.6	19.0	0.00e+00	0	35	0	332398592	58	4122
2026-01-18 11:12:31.82	141.55	8.66	-43.2	-44.3	19.3	0.00e+00	0	35	0	338690048	58	3985
2026-01-18 11:12:32.83	141.53	8.74	-43.2	-44.3	19.4	0.00e+00	0	35	0	343932928	58	3979
2026-01-18 11:12:33.83	141.52	8.83	-43.3	-44.4	19.3	0.00e+00	0	35	0	349175808	58	4028
2026-01-18 11:12:34.84	141.51	8.91	-43.2	-44.3	19.4	0.00e+00	0	35	0	355467264	58	3967
2026-01-18 11:12:35.85	141.50	9.00	-43.2	-44.3	19.4	0.00e+00	0	36	0	360710144	58	3991
2026-01-18 11:12:36.86	141.48	9.08	-43.2	-44.2	19.5	0.00e+00	0	35	0	365953024	58	3952
2026-01-18 11:12:37.87	141.47	9.16	-43.3	-44.4	19.3	0.00e+00	0	35	0	372244480	58	4011
2026-01-18 11:12:38.87	141.46	9.25	-43.1	-44.2	19.5	0.00e+00	0	35	0	377487360	58	3940
2026-01-18 11:12:39.88	141.44	9.33	-43.2	-44.3	19.5	0.00e+00	0	36	0	382730240	58	3962
2026-01-18 11:12:40.89	141.43	9.42	-43.1	-44.2	19.6	0.00e+00	0	35	0	389021696	58	3919
2026-01-18 11:12:41.90	141.42	9.51	-43.1	-44.1	19.6	0.00e+00	0	36	0	395313152	58	3896
2026-01-18 11:12:42.91	141.40	9.59	-43.2	-44.2	19.5	0.00e+00	0	35	0	400556032	58	3956
2026-01-18 11:12:43.91	141.39	9.68	-43.0	-44.1	19.6	0.00e+00	0	35	0	405798912	58	3894
2026-01-18 11:12:44.92	141.38	9.76	-43.0	-44.1	19.7	0.00e+00	0	35	0	412090368	58	3880
2026-01-18 11:12:45.93	141.36	9.85	-42.9	-43.9	19.9	0.00e+00	0	35	0	417333248	57	4026
2026-01-18 11:12:46.94	141.35	9.94	-43.0	-44.0	19.8	0.00e+00	0	36	0	423624704	57	4079
2026-01-18 11:12:47.95	141.34	10.03	-42.9	-44.0	19.8	0.00e+00	0	35	0	428867584	57	4059
2026-01-18 11:12:48.96	141.32	10.12	-42.8	-43.8	19.9	0.00e+00	0	35	0	434110464	57	3981
2026-01-18 11:12:49.96	141.31	10.20	-42.8	-43.8	20.0	0.00e+00	0	35	0	440401920	57	3984
2026-01-18 11:12:50.97	141.29	10.29	-42.8	-43.8	19.9	0.00e+00	0	36	0	445644800	57	4002
2026-01-18 11:12:51.98	141.28	10.38	-42.7	-43.7	20.0	0.00e+00	0	35	0	450887680	57	3944
2026-01-18 11:12:52.98	141.27	10.47	-42.7	-43.8	20.0	0.00e+00	0	36	0	457179136	57	3964
2026-01-18 11:12:53.99	141.25	10.56	-42.7	-43.7	20.1	0.00e+00	0	35	0	463470592	57	3938
2026-01-18 11:12:55.00	141.24	10.65	-42.7	-43.7	20.1	0.00e+00	0	36	0	468713472	57	3924
2026-01-18 11:12:56.01	141.22	10.74	-42.7	-43.8	20.0	0.00e+00	0	35	0	473956352	57	3965
2026-01-18 11:12:57.01	141.21	10.83	-42.6	-43.7	20.1	0.00e+00	0	36	0	480247808	57	3920
2026-01-18 11:12:58.02	141.19	10.92	-42.7	-43.7	20.1	0.00e+00	0	35	0	485490688	57	3956
2026-01-18 11:12:59.03	141.18	11.01	-42.8	-43.8	20.0	0.00e+00	0	36	0	490733568	57	3990
2026-01-18 11:13:00.04	141.16	11.10	-42.7	-43.8	20.1	0.00e+00	0	36	0	497025024	57	3959
2026-01-18 11:13:01.05	141.15	11.19	-42.6	-43.6	20.2	0.00e+00	0	36	0	502267904	57	3897
2026-01-18 11:13:02.06	141.13	11.29	-42.5	-43.5	20.3	0.00e+00	0	35	0	508559360	57	3861
2026-01-18 11:13:03.07	141.12	11.38	-42.5	-43.5	20.3	0.00e+00	0	35	0	513802240	56	4059
2026-01-18 11:13:04.07	141.10	11.47	-42.5	-43.5	20.3	0.00e+00	0	36	0	519045120	56	4070
2026-01-18 11:13:05.08	141.09	11.56	-42.5	-43.5	20.3	0.00e+00	0	35	0	525336576	56	4093
2026-01-18 11:13:06.09	141.07	11.66	-42.4	-43.4	20.4	0.00e+00	0	35	0	531628032	56	4028
2026-01-18 11:13:07.09	141.05	11.75	-42.5	-43.5	20.3	0.00e+00	0	36	0	536870912	56	4087
2026-01-18 11:13:08.10	141.04	11.85	-42.4	-43.4	20.4	0.00e+00	0	36	0	542113792	56	4027
2026-01-18 11:13:09.11	141.02	11.94	-42.6	-43.6	20.3	0.00e+00	0	35	0	548405248	56	4105
2026-01-18 11:13:10.12	141.01	12.04	-42.5	-43.5	20.4	0.00e+00	0	35	0	553648128	56	4069
2026-01-18 11:13:11.13	140.99	12.13	-42.5	-43.5	20.3	0.00e+00	0	36	0	558891008	56	4098
2026-01-18 11:13:12.14	140.97	12.23	-42.5	-43.5	20.3	0.00e+00	0	35	0	565182464	56	4091
2026-01-18 11:13:13.15	140.96	12.32	-42.4	-43.4	20.4	0.00e+00	0	35	0	570425344	56	4043
2026-01-18 11:13:14.16	140.94	12.42	-42.4	-43.4	20.4	0.00e+00	0	36	0	575668224	56	4043
2026-01-18 11:13:15.16	140.92	12.52	-42.3	-43.3	20.5	0.00e+00	0	36	0	581959680	56	4003
2026-01-18 11:13:16.17	140.90	12.61	-42.4	-43.4	20.4	0.00e+00	0	36	0	587202560	56	4038
2026-01-18 11:13:17.18	140.89	12.71	-42.4	-43.4	20.4	0.00e+00	0	36	0	593494016	56	4048
2026-01-18 11:13:18.18	140.87	12.81	-42.4	-43.4	20.5	0.00e+00	0	36	0	598736896	56	4011
2026-01-18 11:13:19.19	140.85	12.91	-42.3	-43.3	20.6	0.00e+00	0	36	0	605028352	56	3998
2026-01-18 11:13:20.20	140.84	13.01	-42.4	-43.4	20.5	0.00e+00	0	35	0	610271232	56	4035
2026-01-18 11:13:21.21	140.82	13.11	-42.4	-43.4	20.5	0.00e+00	0	35	0	616562688	56	4048
2026-01-18 11:13:22.22	140.80	13.21	-42.5	-43.5	20.4	0.00e+00	0	35	0	621805568	56	4058
2026-01-18 11:13:23.23	140.78	13.31	-42.3	-43.3	20.6	0.00e+00	0	35	0	627048448	56	3974
2026-01-18 11:13:24.23	140.76	13.41	-42.3	-43.3	20.6	0.00e+00	0	35	0	633339904	56	3990
2026-01-18 11:13:25.24	140.74	13.51	-42.5	-43.5	20.4	0.00e+00	0	36	0	638582784	56	4075
2026-01-18 11:13:26.25	140.73	13.61	-42.3	-43.3	20.6	0.00e+00	0	35	0	643825664	56	4002
2026-01-18 11:13:27.26	140.71	13.71	-42.3	-43.2	20.7	0.00e+00	0	36	0	650117120	56	3958
2026-01-18 11:13:28.27	140.69	13.81	-42.1	-43.1	20.8	0.00e+00	0	35	0	655360000	56	3879
2026-01-18 11:13:29.27	140.67	13.91	-42.1	-43.1	20.8	0.00e+00	0	36	0	660602880	56	3879
2026-01-18 11:13:30.28	140.65	14.02	-42.2	-43.1	20.8	0.00e+00	0	36	0	666894336	56	3902
2026-01-18 11:13:31.29	140.63	14.12	-42.1	-43.1	20.8	0.00e+00	0	36	0	672137216	56	3895
2026-01-18 11:13:32.30	140.61	14.22	-42.1	-43.1	20.9	0.00e+00	0	35	0	678428672	56	3885
2026-01-18 11:13:33.31	140.59	14.33	-42.0	-43.0	21.0	0.00e+00	0	36	0	683671552	56	3827
2026-01-18 11:13:34.31	140.57	14.43	-41.8	-42.7	21.1	0.00e+00	0	35	0	689963008	55	3935
2026-01-18 11:13:35.33	140.55	14.54	-41.7	-42.6	21.2	0.00e+00	0	36	0	695205888	55	3909
2026-01-18 11:13:36.33	140.53	14.64	-41.6	-42.6	21.2	0.00e+00	0	36	0	701497344	55	3876
2026-01-18 11:13:37.34	140.51	14.75	-41.7	-42.6	21.2	0.00e+00	0	36	0	706740224	55	3883
2026-01-18 11:13:38.35	140.49	14.86	-41.6	-42.5	21.3	0.00e+00	0	36	0	711983104	55	3858
2026-01-18 11:13:39.36	140.47	14.96	-41.5	-42.4	21.4	0.00e+00	0	35	0	718274560	55	3803
2026-01-18 11:13:40.37	140.45	15.07	-41.5	-42.5	21.4	0.00e+00	0	36	0	723517440	54	4052
2026-01-18 11:13:41.37	140.43	15.18	-41.4	-42.3	21.5	0.00e+00	0	36	0	728760320	54	3998
2026-01-18 11:13:42.38	140.41	15.29	-41.4	-42.3	21.5	0.00e+00	0	36	0	735051776	54	3981
2026-01-18 11:13:43.39	140.39	15.40	-41.4	-42.3	21.5	0.00e+00	0	35	0	740294656	54	3974
2026-01-18 11:13:44.40	140.37	15.51	-41.2	-42.1	21.7	0.00e+00	0	35	0	746586112	54	3896
2026-01-18 11:13:45.41	140.34	15.62	-41.3	-42.2	21.6	0.00e+00	0	36	0	751828992	54	3920
2026-01-18 11:13:46.41	140.32	15.73	-41.2	-42.1	21.7	0.00e+00	0	35	0	758120448	54	3887
2026-01-18 11:13:47.42	140.30	15.84	-41.3	-42.2	21.7	0.00e+00	0	36	0	763363328	54	3924
2026-01-18 11:13:48.43	140.28	15.95	-41.3	-42.1	21.7	0.00e+00	0	36	0	768606208	54	3913
2026-01-18 11:13:49.44	140.26	16.06	-41.1	-42.0	21.9	0.00e+00	0	36	0	774897664	54	3832
2026-01-18 11:13:50.45	140.23	16.17	-41.0	-41.9	21.9	0.00e+00	0	36	0	780140544	54	3813
2026-01-18 11:13:51.46	140.21	16.29	-41.1	-41.9	21.9	0.00e+00	0	36	0	786432000	54	3818
2026-01-18 11:13:52.47	140.19	16.40	-41.0	-41.9	21.9	0.00e+00	0	36	0	791674880	54	3795
2026-01-18 11:13:53.47	140.16	16.51	-41.1	-42.0	21.9	0.00e+00	0	36	0	796917760	54	3825
2026-01-18 11:13:54.48	140.14	16.63	-41.0	-41.9	22.0	0.00e+00	0	36	0	803209216	54	3792
2026-01-18 11:13:55.49	140.12	16.74	-41.0	-41.9	21.9	0.00e+00	0	36	0	809500672	54	3798
2026-01-18 11:13:56.50	140.09	16.86	-40.9	-41.7	22.1	0.00e+00	0	36	0	814743552	53	3949
2026-01-18 11:13:57.51	140.07	16.98	-40.8	-41.6	22.2	0.00e+00	0	36	0	819986432	53	3901
2026-01-18 11:13:58.52	140.04	17.09	-40.7	-41.5	22.3	0.00e+00	0	36	0	826277888	53	3850
2026-01-18 11:13:59.53	140.02	17.21	-40.6	-41.5	22.3	0.00e+00	0	36	0	831520768	53	3830
2026-01-18 11:14:00.53	140.00	17.33	-40.6	-41.4	22.4	0.00e+00	0	36	0	836763648	53	3816
2026-01-18 11:14:01.54	139.97	17.45	-40.6	-41.4	22.4	0.00e+00	0	36	0	843055104	53	3812
2026-01-18 11:14:02.55	139.94	17.56	-40.6	-41.5	22.3	0.00e+00	0	36	0	848297984	53	3843
2026-01-18 11:14:03.56	139.92	17.68	-40.4	-41.2	22.6	0.00e+00	0	36	0	853540864	52	3946
2026-01-18 11:14:04.57	139.89	17.80	-40.4	-41.2	22.5	0.00e+00	0	36	0	859832320	52	3949
2026-01-18 11:14:05.57	139.87	17.92	-40.4	-41.2	22.6	0.00e+00	0	36	0	865075200	52	3932
2026-01-18 11:14:06.58	139.84	18.05	-40.4	-41.3	22.5	0.00e+00	0	36	0	871366656	52	3965
2026-01-18 11:14:07.59	139.82	18.17	-40.2	-41.0	22.8	0.00e+00	0	36	0	876609536	52	3859
2026-01-18 11:14:08.59	139.79	18.29	-40.2	-41.0	22.8	0.00e+00	0	36	0	882900992	52	3863
2026-01-18 11:14:09.60	139.76	18.41	-40.1	-40.9	22.8	0.00e+00	0	36	0	888143872	52	3820
2026-01-18 11:14:10.61	139.74	18.54	-40.1	-40.9	22.8	0.00e+00	0	36	0	894435328	52	3823
2026-01-18 11:14:11.62	139.71	18.66	-40.1	-40.9	22.9	0.00e+00	0	36	0	899678208	52	3813
2026-01-18 11:14:12.63	139.68	18.79	-40.1	-41.0	22.8	0.00e+00	0	35	0	904921088	52	3835
2026-01-18 11:14:13.64	139.65	18.91	-40.1	-41.0	22.8	0.00e+00	0	36	0	911212544	52	3833
2026-01-18 11:14:14.65	139.62	19.04	-40.3	-41.1	22.7	0.00e+00	0	36	0	916455424	52	3897
2026-01-18 11:14:15.65	139.60	19.16	-40.3	-41.1	22.7	0.00e+00	0	36	0	921698304	52	3911
2026-01-18 11:14:16.66	139.57	19.29	-40.4	-41.2	22.6	0.00e+00	0	36	0	927989760	52	3941
2026-01-18 11:14:17.67	139.54	19.42	-40.3	-41.1	22.7	0.00e+00	0	36	0	933232640	52	3907
2026-01-18 11:14:18.68	139.51	19.55	-40.3	-41.1	22.7	0.00e+00	0	36	0	938475520	52	3913
2026-01-18 11:14:19.69	139.48	19.68	-40.3	-41.2	22.7	0.00e+00	0	36	0	944766976	52	3928
2026-01-18 11:14:20.70	139.45	19.81	-40.4	-41.3	22.5	0.00e+00	0	36	0	951058432	52	3977
2026-01-18 11:14:21.71	139.42	19.94	-40.5	-41.3	22.5	0.00e+00	0	35	0	956301312	52	3999
2026-01-18 11:14:22.71	139.39	20.07	-40.4	-41.3	22.5	0.00e+00	0	36	0	961544192	52	3981
2026-01-18 11:14:23.72	139.36	20.20	-40.6	-41.4	22.4	0.00e+00	0	35	0	967835648	52	4039
2026-01-18 11:14:24.72	139.33	20.33	-40.6	-41.5	22.4	0.00e+00	0	36	0	973078528	52	4053
2026-01-18 11:14:25.73	139.30	20.47	-40.7	-41.5	22.3	0.00e+00	0	36	0	979369984	52	4087
2026-01-18 11:14:26.74	139.27	20.60	-40.6	-41.4	22.4	0.00e+00	0	36	0	984612864	52	4048
2026-01-18 11:14:27.75	139.24	20.74	-40.6	-41.5	22.4	0.00e+00	0	36	0	989855744	52	4055
2026-01-18 11:14:28.75	139.20	20.87	-40.5	-41.3	22.5	0.00e+00	0	36	0	996147200	52	3996
2026-01-18 11:14:29.76	139.17	21.01	-40.5	-41.3	22.5	0.00e+00	0	36	0	1001390080	52	3994
2026-01-18 11:14:30.77	139.14	21.14	-40.4	-41.3	22.5	0.00e+00	0	36	0	1006632960	52	3980
2026-01-18 11:14:31.77	139.11	21.28	-40.4	-41.2	22.6	0.00e+00	0	36	0	1012924416	52	3949
2026-01-18 11:14:32.78	139.07	21.42	-40.2	-41.0	22.8	0.00e+00	0	36	0	1018167296	52	3868
2026-01-18 11:14:33.79	139.04	21.56	-40.2	-41.1	22.8	0.00e+00	0	36	0	1024458752	52	3870
2026-01-18 11:14:34.80	139.00	21.70	-40.0	-40.9	23.0	0.00e+00	0	36	0	1029701632	52	3785
2026-01-18 11:14:35.81	138.97	21.84	-40.1	-40.9	22.9	0.00e+00	0	36	0	1035993088	52	3811
2026-01-18 11:14:36.81	138.94	21.98	-40.1	-40.9	23.0	0.00e+00	0	36	0	1041235968	51	4007
2026-01-18 11:14:37.82	138.90	22.12	-39.8	-40.6	23.3	0.00e+00	0	36	0	1046478848	51	3877
2026-01-18 11:14:38.83	138.87	22.27	-39.7	-40.5	23.3	0.00e+00	0	36	0	1052770304	51	3861
2026-01-18 11:14:39.84	138.83	22.41	-39.6	-40.4	23.4	0.00e+00	0	36	0	1058013184	51	3819
2026-01-18 11:14:40.85	138.79	22.56	-39.6	-40.4	23.5	0.00e+00	0	36	0	1064304640	51	3811
2026-01-18 11:14:41.85	138.76	22.70	-39.6	-40.4	23.5	0.00e+00	0	36	0	1069547520	51	3800
2026-01-18 11:14:42.86	138.72	22.85	-39.6	-40.4	23.5	0.00e+00	0	36	0	1074790400	51	3797
2026-01-18 11:14:43.87	138.68	23.00	-39.6	-40.4	23.5	0.00e+00	0	36	0	1081081856	51	3800
2026-01-18 11:14:44.88	138.65	23.14	-39.6	-40.4	23.5	0.00e+00	0	36	0	1086324736	51	3811
2026-01-18 11:14:45.89	138.61	23.29	-39.7	-40.5	23.4	0.00e+00	0	36	0	1091567616	51	3836
2026-01-18 11:14:46.89	138.57	23.44	-39.6	-40.4	23.5	0.00e+00	0	36	0	1097859072	51	3799
2026-01-18 11:14:47.90	138.53	23.59	-39.7	-40.5	23.4	0.00e+00	0	36	0	1104150528	51	3853
2026-01-18 11:14:48.91	138.49	23.74	-39.7	-40.5	23.4	0.00e+00	0	36	0	1109393408	51	3844
2026-01-18 11:14:49.92	138.45	23.90	-39.6	-40.4	23.5	0.00e+00	0	36	0	1114636288	51	3818
2026-01-18 11:14:50.92	138.41	24.05	-39.7	-40.5	23.4	0.00e+00	0	36	0	1120927744	51	3844
2026-01-18 11:14:51.93	138.37	24.20	-39.7	-40.5	23.4	0.00e+00	0	36	0	1126170624	51	3855
2026-01-18 11:14:52.94	138.33	24.36	-39.7	-40.5	23.4	0.00e+00	0	36	0	1132462080	51	3858
2026-01-18 11:14:53.95	138.29	24.51	-39.8	-40.6	23.3	0.00e+00	0	36	0	1137704960	51	3874
2026-01-18 11:14:54.96	138.25	24.67	-39.9	-40.7	23.3	0.00e+00	0	36	0	1142947840	51	3925
2026-01-18 11:14:55.96	138.21	24.83	-39.8	-40.6	23.3	0.00e+00	0	36	0	1149239296	51	3894
2026-01-18 11:14:56.97	138.16	24.99	-39.8	-40.6	23.4	0.00e+00	0	36	0	1154482176	51	3880
2026-01-18 11:14:57.98	138.12	25.15	-39.8	-40.6	23.4	0.00e+00	0	36	0	1159725056	51	3893
2026-01-18 11:14:58.99	138.08	25.31	-39.7	-40.5	23.4	0.00e+00	0	35	0	1166016512	51	3845
2026-01-18 11:15:00.00	138.03	25.47	-39.6	-40.4	23.5	0.00e+00	0	36	0	1172307968	51	3817
2026-01-18 11:15:01.01	137.99	25.63	-39.5	-40.3	23.6	0.00e+00	0	36	0	1177550848	51	3771
2026-01-18 11:15:02.01	137.94	25.79	-39.6	-40.4	23.6	0.00e+00	0	36	0	1182793728	51	3787
2026-01-18 11:15:03.02	137.90	25.96	-39.4	-40.2	23.7	0.00e+00	0	36	0	1189085184	50	3941
2026-01-18 11:15:04.02	137.85	26.12	-39.4	-40.2	23.7	0.00e+00	0	36	0	1194328064	50	3945
2026-01-18 11:15:05.03	137.80	26.29	-39.5	-40.2	23.7	0.00e+00	0	36	0	1199570944	50	3955
2026-01-18 11:15:06.03	137.76	26.45	-39.4	-40.2	23.8	0.00e+00	0	36	0	1205862400	50	3938
2026-01-18 11:15:07.05	137.71	26.63	-39.5	-40.3	23.7	0.00e+00	0	36	0	1211105280	50	3959
2026-01-18 11:15:08.05	137.66	26.79	-39.4	-40.2	23.7	0.00e+00	0	36	0	1217396736	50	3935
2026-01-18 11:15:09.06	137.61	26.96	-39.5	-40.3	23.7	0.00e+00	0	36	0	1222639616	50	3961
2026-01-18 11:15:10.06	137.56	27.13	-39.5	-40.2	23.7	0.00e+00	0	36	0	1227882496	50	3955
2026-01-18 11:15:11.07	137.51	27.31	-39.5	-40.3	23.7	0.00e+00	0	36	0	1234173952	50	3979
2026-01-18 11:15:12.08	137.46	27.48	-39.5	-40.3	23.6	0.00e+00	0	36	0	1239416832	50	3993
2026-01-18 11:15:13.08	137.41	27.65	-39.5	-40.3	23.7	0.00e+00	0	36	0	1244659712	50	3980
2026-01-18 11:15:14.09	137.36	27.83	-39.5	-40.3	23.7	0.00e+00	0	36	0	1250951168	50	3969
2026-01-18 11:15:15.10	137.31	28.01	-39.6	-40.3	23.7	0.00e+00	0	36	0	1257242624	50	3998
2026-01-18 11:15:16.11	137.26	28.19	-39.5	-40.3	23.7	0.00e+00	0	36	0	1262485504	50	3963
2026-01-18 11:15:17.11	137.20	28.36	-39.4	-40.2	23.7	0.00e+00	0	36	0	1267728384	50	3953
2026-01-18 11:15:18.12	137.15	28.54	-39.4	-40.2	23.7	0.00e+00	0	36	0	1274019840	50	3949
2026-01-18 11:15:19.13	137.09	28.73	-39.5	-40.3	23.7	0.00e+00	0	36	0	1279262720	50	3967
2026-01-18 11:15:20.14	137.04	28.91	-39.5	-40.3	23.6	0.00e+00	0	36	0	1284505600	50	4002
2026-01-18 11:15:21.15	136.98	29.09	-39.5	-40.3	23.6	0.00e+00	0	36	0	1290797056	50	3999
2026-01-18 11:15:22.15	136.93	29.28	-39.4	-40.2	23.7	0.00e+00	0	36	0	1296039936	50	3940
2026-01-18 11:15:23.16	136.87	29.46	-39.2	-40.0	23.9	0.00e+00	0	36	0	1302331392	50	3849
2026-01-18 11:15:24.17	136.81	29.65	-39.3	-40.0	23.8	0.00e+00	0	36	0	1307574272	50	3868
2026-01-18 11:15:25.18	136.75	29.84	-39.2	-40.0	23.9	0.00e+00	0	36	0	1312817152	50	3837
2026-01-18 11:15:26.19	136.69	30.03	-39.2	-40.0	23.9	0.00e+00	0	36	0	1319108608	50	3847
2026-01-18 11:15:27.19	136.63	30.22	-39.2	-40.0	23.9	0.00e+00	0	36	0	1325400064	50	3828
2026-01-18 11:15:28.20	136.57	30.41	-39.1	-39.9	23.9	0.00e+00	0	36	0	1330642944	50	3815
2026-01-18 11:15:29.21	136.51	30.60	-39.1	-39.9	24.0	0.00e+00	0	36	0	1335885824	50	3798
2026-01-18 11:15:30.21	136.44	30.80	-39.1	-39.9	24.0	0.00e+00	0	36	0	1342177280	50	3795
2026-01-18 11:15:31.22	136.38	30.99	-39.0	-39.7	24.1	0.00e+00	0	36	0	1347420160	50	3730
2026-01-18 11:15:32.23	136.32	31.19	-39.0	-39.8	24.1	0.00e+00	0	36	0	1352663040	49	3992
2026-01-18 11:15:33.24	136.25	31.39	-39.0	-39.8	24.1	0.00e+00	0	36	0	1358954496	49	3980
2026-01-18 11:15:34.24	136.19	31.59	-39.1	-39.8	24.1	0.00e+00	0	36	0	1364197376	49	3997
2026-01-18 11:15:35.25	136.12	31.79	-38.9	-39.7	24.2	0.00e+00	0	36	0	1369440256	49	3916
2026-01-18 11:15:36.26	136.05	31.99	-38.9	-39.7	24.2	0.00e+00	0	36	0	1375731712	49	3915
2026-01-18 11:15:37.27	135.98	32.20	-38.6	-39.4	24.5	0.00e+00	0	36	0	1380974592	49	3792
2026-01-18 11:15:38.27	135.91	32.40	-38.5	-39.3	24.6	0.00e+00	0	36	0	1387266048	49	3740
2026-01-18 11:15:39.28	135.84	32.61	-38.5	-39.2	24.6	0.00e+00	0	36	0	1392508928	49	3728
2026-01-18 11:15:40.29	135.77	32.82	-38.5	-39.2	24.6	0.00e+00	0	36	0	1397751808	48	3937
2026-01-18 11:15:41.29	135.70	33.02	-38.5	-39.3	24.6	0.00e+00	0	36	0	1404043264	48	3973
2026-01-18 11:15:42.30	135.62	33.23	-38.6	-39.3	24.6	0.00e+00	0	36	0	1410334720	48	3989
2026-01-18 11:15:43.31	135.55	33.45	-38.7	-39.5	24.4	0.00e+00	0	36	0	1415577600	48	4065
2026-01-18 11:15:44.31	135.48	33.66	-38.7	-39.5	24.4	0.00e+00	0	36	0	1420820480	48	4074
2026-01-18 11:15:45.32	135.40	33.87	-38.8	-39.6	24.3	0.00e+00	0	36	0	1427111936	48	4102
2026-01-18 11:15:46.33	135.32	34.09	-38.8	-39.6	24.3	0.00e+00	0	36	0	1432354816	48	4119
2026-01-18 11:15:47.34	135.24	34.31	-38.9	-39.7	24.3	0.00e+00	0	36	0	1437597696	48	4146
2026-01-18 11:15:48.35	135.16	34.53	-38.7	-39.5	24.4	0.00e+00	0	36	0	1443889152	48	4061
2026-01-18 11:15:49.36	135.08	34.75	-38.6	-39.4	24.5	0.00e+00	0	36	0	1449132032	48	4014
2026-01-18 11:15:50.37	135.00	34.97	-38.6	-39.3	24.9	0.00e+00	0	36	0	1454374912	48	3996
2026-01-18 11:15:51.37	134.92	35.20	-38.6	-39.3	24.9	0.00e+00	0	36	0	1460666368	48	3998
2026-01-18 11:15:52.38	134.83	35.42	-38.5	-39.2	25.0	0.00e+00	0	36	0	1465909248	48	3950
2026-01-18 11:15:53.39	134.75	35.65	-38.6	-39.3	24.9	0.00e+00	0	36	0	1472200704	48	3969
2026-01-18 11:15:54.40	134.66	35.88	-38.6	-39.3	24.9	0.00e+00	0	36	0	1477443584	48	3996
2026-01-18 11:15:55.41	134.57	36.11	-38.6	-39.3	24.9	0.00e+00	0	36	0	1483735040	48	3993
2026-01-18 11:15:56.41	134.48	36.34	-38.6	-39.3	25.0	0.00e+00	0	36	0	1488977920	48	3971
2026-01-18 11:15:57.42	134.39	36.57	-38.7	-39.4	24.8	0.00e+00	0	36	0	1495269376	48	4048
2026-01-18 11:15:58.43	134.30	36.81	-38.9	-39.6	24.7	0.00e+00	0	36	0	1500512256	48	4117
2026-01-18 11:15:59.44	134.20	37.04	-39.0	-39.7	24.6	0.00e+00	0	36	0	1505755136	48	4166
2026-01-18 11:16:00.44	134.11	37.28	-39.1	-39.8	24.5	0.00e+00	0	36	0	1512046592	48	4241
2026-01-18 11:16:01.45	134.01	37.52	-39.0	-39.7	24.6	0.00e+00	0	36	0	1517289472	48	4165
2026-01-18 11:16:02.46	133.92	37.76	-38.9	-39.6	24.6	0.00e+00	0	36	0	1522532352	48	4136
2026-01-18 11:16:03.47	133.82	38.00	-38.9	-39.6	24.6	0.00e+00	0	36	0	1528823808	48	4145
2026-01-18 11:16:04.47	133.72	38.25	-38.9	-39.6	24.6	0.00e+00	0	36	0	1534066688	48	4143
2026-01-18 11:16:05.48	133.61	38.49	-38.9	-39.6	24.6	0.00e+00	0	36	0	1539309568	48	4145
2026-01-18 11:16:06.49	133.51	38.74	-38.9	-39.6	24.6	0.00e+00	0	35	0	1545601024	48	4144
2026-01-18 11:16:07.50	133.40	38.99	-39.0	-39.7	24.6	0.00e+00	0	36	0	1551892480	48	4156
2026-01-18 11:16:08.51	133.30	39.24	-39.0	-39.8	24.5	0.00e+00	0	36	0	1557135360	48	4199
2026-01-18 11:16:09.51	133.19	39.49	-39.2	-39.9	24.4	0.00e+00	0	36	0	1562378240	48	4264
2026-01-18 11:16:10.52	133.08	39.75	-38.9	-39.6	24.7	0.00e+00	0	36	0	1568669696	48	4137
2026-01-18 11:16:11.53	132.96	40.00	-38.8	-39.5	24.7	0.00e+00	0	36	0	1573912576	48	4082
2026-01-18 11:16:12.54	132.85	40.26	-38.7	-39.3	24.9	0.00e+00	0	36	0	1580204032	48	4003
2026-01-18 11:16:13.55	132.73	40.52	-38.6	-39.3	24.9	0.00e+00	0	36	0	1585446912	48	3994
2026-01-18 11:16:14.55	132.61	40.78	-38.8	-39.5	24.8	0.00e+00	0	36	0	1590689792	48	4066
2026-01-18 11:16:15.56	132.49	41.05	-39.0	-39.7	24.6	0.00e+00	0	36	0	1596981248	48	4181
2026-01-18 11:16:16.57	132.37	41.31	-39.3	-40.0	24.3	0.00e+00	0	36	0	1602224128	49	4069
2026-01-18 11:16:17.58	132.24	41.58	-39.4	-40.2	24.2	0.00e+00	0	36	0	1607467008	49	4156
2026-01-18 11:16:18.58	132.12	41.85	-39.6	-40.3	24.1	0.00e+00	0	36	0	1613758464	49	4220
2026-01-18 11:16:19.59	131.99	42.12	-39.6	-40.3	24.1	0.00e+00	0	36	0	1620049920	49	4220
2026-01-18 11:16:20.60	131.86	42.39	-39.4	-40.1	24.3	0.00e+00	0	35	0	1625292800	49	4134
2026-01-18 11:16:21.61	131.72	42.67	-39.4	-40.1	24.3	0.00e+00	0	36	0	1630535680	49	4138
2026-01-18 11:16:22.62	131.59	42.94	-39.4	-40.2	24.2	0.00e+00	0	36	0	1636827136	49	4148
2026-01-18 11:16:23.63	131.45	43.22	-39.5	-40.2	24.2	0.00e+00	0	36	0	1642070016	49	4177
2026-01-18 11:16:24.64	131.31	43.50	-39.5	-40.2	24.2	0.00e+00	0	36	0	1647312896	49	4175
2026-01-18 11:16:25.65	131.17	43.78	-39.4	-40.1	24.3	0.00e+00	0	36	0	1653604352	49	4114
2026-01-18 11:16:26.66	131.02	44.07	-39.4	-40.1	24.3	0.00e+00	0	36	0	1658847232	49	4124
2026-01-18 11:16:27.67	130.87	44.35	-39.3	-40.0	24.3	0.00e+00	0	36	0	1665138688	49	4094
2026-01-18 11:16:28.67	130.72	44.64	-39.4	-40.2	24.2	0.00e+00	0	36	0	1670381568	49	4151
2026-01-18 11:16:29.68	130.57	44.93	-39.4	-40.2	24.2	0.00e+00	0	35	0	1675624448	49	4150
2026-01-18 11:16:30.69	130.41	45.22	-39.4	-40.1	24.3	0.00e+00	0	36	0	1681915904	49	4135
2026-01-18 11:16:31.70	130.25	45.51	-39.2	-39.9	24.5	0.00e+00	0	36	0	1688207360	49	4040
2026-01-18 11:16:32.70	130.09	45.80	-39.2	-39.9	24.5	0.00e+00	0	36	0	1693450240	49	4032
2026-01-18 11:16:33.71	129.92	46.10	-39.2	-39.9	24.4	0.00e+00	0	36	0	1698693120	49	4051
2026-01-18 11:16:34.72	129.75	46.40	-39.2	-40.0	24.4	0.00e+00	0	36	0	1704984576	49	4061
2026-01-18 11:16:35.73	129.58	46.70	-39.3	-40.0	24.4	0.00e+00	0	36	0	1710227456	49	4089
2026-01-18 11:16:36.74	129.40	47.00	-39.3	-40.0	24.4	0.00e+00	0	36	0	1715470336	49	4095
2026-01-18 11:16:37.75	129.22	47.31	-39.4	-40.1	24.3	0.00e+00	0	36	0	1721761792	49	4132
2026-01-18 11:16:38.75	129.04	47.61	-39.5	-40.3	24.2	0.00e+00	0	36	0	1727004672	49	4195
2026-01-18 11:16:39.76	128.85	47.92	-39.4	-40.1	24.3	0.00e+00	0	36	0	1732247552	49	4125
2026-01-18 11:16:40.77	128.66	48.23	-39.3	-40.0	24.4	0.00e+00	0	36	0	1738539008	49	4096
2026-01-18 11:16:41.78	128.46	48.54	-39.3	-40.0	24.4	0.00e+00	0	36	0	1743781888	49	4095
2026-01-18 11:16:42.79	128.26	48.86	-39.6	-40.3	24.2	0.00e+00	0	36	0	1750073344	49	4209
2026-01-18 11:16:43.79	128.06	49.17	-39.8	-40.6	23.9	0.00e+00	0	36	0	1755316224	50	4118
2026-01-18 11:16:44.81	127.85	49.49	-40.0	-40.8	23.7	0.00e+00	0	36	0	1761607680	50	4197
2026-01-18 11:16:45.81	127.64	49.81	-40.0	-40.7	23.8	0.00e+00	0	36	0	1766850560	50	4182
2026-01-18 11:16:46.82	127.43	50.13	-40.0	-40.7	23.8	0.00e+00	0	36	0	1773142016	50	4186
2026-01-18 11:16:47.83	127.20	50.45	-40.2	-40.9	23.6	0.00e+00	0	36	0	1778384896	50	4277
2026-01-18 11:16:48.84	126.98	50.78	-40.5	-41.3	23.2	0.00e+00	0	36	0	1783627776	51	4222
2026-01-18 11:16:49.85	126.75	51.10	-40.7	-41.5	23.0	0.00e+00	0	36	0	1789919232	52	4061
2026-01-18 11:16:50.85	126.51	51.43	-40.4	-41.2	23.3	0.00e+00	0	36	0	1795162112	52	3943
2026-01-18 11:16:51.86	126.27	51.76	-40.2	-41.0	23.5	0.00e+00	0	36	0	1800404992	52	3844
2026-01-18 11:16:52.87	126.02	52.09	-40.1	-40.8	23.6	0.00e+00	0	36	0	1806696448	52	3776
2026-01-18 11:16:53.88	125.77	52.42	-40.1	-40.8	23.7	0.00e+00	0	36	0	1811939328	51	3982
2026-01-18 11:16:54.89	125.51	52.76	-40.3	-41.0	23.6	0.00e+00	0	36	0	1817182208	51	4073
2026-01-18 11:16:55.89	125.25	53.09	-40.4	-41.2	23.4	0.00e+00	0	36	0	1823473664	51	4154
2026-01-18 11:16:56.90	124.98	53.43	-40.4	-41.2	23.4	0.00e+00	0	36	0	1829765120	51	4174
2026-01-18 11:16:57.91	124.70	53.77	-40.5	-41.3	23.3	0.00e+00	0	36	0	1835008000	51	4195
2026-01-18 11:16:58.92	124.41	54.11	-40.1	-40.8	23.7	0.00e+00	0	36	0	1840250880	51	4004
2026-01-18 11:16:59.93	124.12	54.46	-40.1	-40.8	23.7	0.00e+00	0	36	0	1846542336	51	3995
2026-01-18 11:17:00.94	123.82	54.80	-40.1	-40.9	23.7	0.00e+00	0	36	0	1851785216	51	4021
2026-01-18 11:17:01.95	123.52	55.15	-40.2	-41.0	23.5	0.00e+00	0	36	0	1858076672	51	4081
2026-01-18 11:17:02.95	123.21	55.49	-40.4	-41.2	23.4	0.00e+00	0	36	0	1863319552	51	4174
2026-01-18 11:17:03.96	122.88	55.84	-39.9	-40.7	23.9	0.00e+00	0	36	0	1868562432	51	3924
2026-01-18 11:17:04.97	122.55	56.19	-39.8	-40.6	23.9	0.00e+00	0	36	0	1874853888	51	3881
2026-01-18 11:17:05.98	122.22	56.54	-39.8	-40.6	23.9	0.00e+00	0	36	0	1880096768	51	3886
2026-01-18 11:17:06.99	121.87	56.90	-39.8	-40.6	24.0	0.00e+00	0	36	0	1885339648	51	3884
2026-01-18 11:17:08.00	121.51	57.25	-40.0	-40.7	23.8	0.00e+00	0	36	0	1891631104	51	3952
2026-01-18 11:17:09.01	121.15	57.61	-39.8	-40.6	23.9	0.00e+00	0	36	0	1897922560	51	3885
2026-01-18 11:17:10.02	120.77	57.96	-39.7	-40.5	24.0	0.00e+00	0	36	0	1903165440	51	3839
2026-01-18 11:17:11.03	120.39	58.32	-39.6	-40.3	24.2	0.00e+00	0	36	0	1908408320	51	3773
2026-01-18 11:17:12.03	119.99	58.67	-39.7	-40.5	24.1	0.00e+00	0	36	0	1914699776	51	3831
2026-01-18 11:17:13.04	119.59	59.03	-39.6	-40.3	24.2	0.00e+00	0	36	0	1919942656	51	3776
2026-01-18 11:17:14.05	119.17	59.39	-39.6	-40.3	24.2	0.00e+00	0	36	0	1925185536	51	3754
2026-01-18 11:17:15.06	118.74	59.75	-39.5	-40.2	24.3	0.00e+00	0	36	0	1931476992	50	3946
2026-01-18 11:17:16.07	118.29	60.11	-39.6	-40.4	24.1	0.00e+00	0	36	0	1936719872	50	4014
2026-01-18 11:17:17.07	117.84	60.47	-39.7	-40.4	24.1	0.00e+00	0	36	0	1943011328	50	4030
2026-01-18 11:17:18.08	117.38	60.83	-39.7	-40.5	24.0	0.00e+00	0	36	0	1948254208	50	4069
2026-01-18 11:17:19.09	116.89	61.19	-39.8	-40.5	24.0	0.00e+00	0	36	0	1954545664	50	4084
2026-01-18 11:17:20.10	116.40	61.55	-39.6	-40.3	24.2	0.00e+00	0	36	0	1959788544	50	3988
2026-01-18 11:17:21.11	115.89	61.92	-39.8	-40.6	24.0	0.00e+00	0	36	0	1966080000	50	4106
2026-01-18 11:17:22.11	115.36	62.28	-39.7	-40.4	24.1	0.00e+00	0	36	0	1971322880	50	4041
2026-01-18 11:17:23.12	114.82	62.64	-39.6	-40.3	24.2	0.00e+00	0	36	0	1976565760	50	3985
2026-01-18 11:17:24.13	114.26	63.00	-39.5	-40.2	24.3	0.00e+00	0	36	0	1982857216	50	3926
2026-01-18 11:17:25.14	113.69	63.36	-39.0	-39.8	24.7	0.00e+00	0	36	0	1988100096	50	3740
2026-01-18 11:17:26.15	113.09	63.72	-39.3	-40.0	24.5	0.00e+00	0	36	0	1993342976	50	3847
2026-01-18 11:17:27.15	112.49	64.07	-39.0	-39.7	24.8	0.00e+00	0	36	0	1999634432	49	3928
2026-01-18 11:17:28.16	111.85	64.43	-38.8	-39.5	24.9	0.00e+00	0	36	0	2004877312	49	3835
2026-01-18 11:17:29.18	111.19	64.79	-38.6	-39.3	25.1	0.00e+00	0	36	0	2010120192	49	3766
2026-01-18 11:17:30.18	110.53	65.15	-38.6	-39.3	25.1	0.00e+00	0	36	0	2016411648	49	3772
2026-01-18 11:17:31.19	109.83	65.50	-38.7	-39.4	25.1	0.00e+00	0	36	0	2022703104	49	3790
2026-01-18 11:17:32.20	109.12	65.85	-38.3	-39.0	25.4	0.00e+00	0	36	0	2027945984	48	3844
2026-01-18 11:17:33.21	108.37	66.20	-38.3	-38.9	25.4	0.00e+00	0	36	0	2033188864	48	3823
2026-01-18 11:17:34.21	107.62	66.55	-38.2	-38.9	25.5	0.00e+00	0	36	0	2039480320	48	3785
2026-01-18 11:17:35.22	106.83	66.89	-38.0	-38.7	25.7	0.00e+00	0	36	0	2044723200	48	3717
2026-01-18 11:17:36.23	106.01	67.23	-38.2	-38.9	25.5	0.00e+00	0	36	0	2051014656	48	3784
2026-01-18 11:17:37.24	105.16	67.57	-38.5	-39.2	25.2	0.00e+00	0	36	0	2056257536	48	3928
2026-01-18 11:17:38.25	104.29	67.91	-38.0	-38.7	25.7	0.00e+00	0	36	0	2061500416	48	3704
2026-01-18 11:17:39.25	103.40	68.24	-37.5	-38.2	25.6	0.00e+00	0	36	0	2067791872	47	3698
2026-01-18 11:17:40.26	102.47	68.57	-37.4	-38.1	25.7	0.00e+00	0	36	0	2073034752	46	3905
2026-01-18 11:17:41.27	101.50	68.89	-37.4	-38.1	25.7	0.00e+00	0	36	0	2078277632	46	3894
2026-01-18 11:17:42.28	100.51	69.21	-37.5	-38.2	25.6	0.00e+00	0	36	0	2084569088	46	3952
2026-01-18 11:17:43.29	99.48	69.53	-37.8	-38.5	25.3	0.00e+00	0	36	0	2089811968	46	4071
2026-01-18 11:17:44.30	98.41	69.84	-38.0	-38.7	25.2	0.00e+00	0	36	0	2096103424	46	4156
2026-01-18 11:17:45.31	97.32	70.14	-38.1	-38.9	25.0	0.00e+00	0	36	0	2101346304	46	4244
2026-01-18 11:17:46.31	96.19	70.44	-38.5	-39.2	24.7	0.00e+00	0	36	0	2107637760	47	4188
2026-01-18 11:17:47.32	95.02	70.73	-38.3	-39.1	24.9	0.00e+00	0	36	0	2112880640	47	4104
2026-01-18 11:17:48.33	93.81	71.01	-38.1	-38.8	25.1	0.00e+00	0	36	0	2118123520	47	3974
2026-01-18 11:17:49.34	92.56	71.29	-38.3	-39.0	24.9	0.00e+00	0	36	0	2124414976	47	4081
2026-01-18 11:17:50.35	91.27	71.56	-37.8	-38.5	25.3	0.00e+00	0	36	0	2129657856	47	3866
2026-01-18 11:17:51.36	89.95	71.82	-37.2	-37.9	25.9	0.00e+00	0	36	0	2135949312	46	3782
2026-01-18 11:17:52.37	88.58	72.07	-37.3	-38.0	25.7	0.00e+00	0	36	0	2141192192	46	3851
2026-01-18 11:17:53.37	87.18	72.31	-37.9	-38.7	25.2	0.00e+00	0	36	0	2146435072	46	4150
2026-01-18 11:17:54.38	85.74	72.54	-37.8	-38.5	25.2	0.00e+00	0	36	0	2152726528	46	4075
2026-01-18 11:17:55.39	84.25	72.76	-37.8	-38.5	25.3	0.00e+00	0	36	0	2159017984	46	4063
2026-01-18 11:17:56.40	82.72	72.97	-38.2	-38.9	25.0	0.00e+00	0	36	0	2164260864	46	4280
2026-01-18 11:17:57.41	81.15	73.17	-38.2	-38.9	25.0	0.00e+00	0	36	0	2169503744	47	4038
2026-01-18 11:17:58.41	79.56	73.36	-37.7	-38.5	25.4	0.00e+00	0	36	0	2175795200	47	3825
2026-01-18 11:17:59.42	77.92	73.53	-37.6	-38.3	25.5	0.00e+00	0	36	0	2181038080	47	3749
2026-01-18 11:18:00.43	76.25	73.69	-37.9	-38.7	25.2	0.00e+00	0	36	0	2186280960	47	3927
2026-01-18 11:18:01.44	74.53	73.84	-38.1	-38.8	25.0	0.00e+00	0	36	0	2192572416	47	4000
2026-01-18 11:18:02.45	72.79	73.97	-37.3	-38.0	25.8	0.00e+00	0	36	0	2197815296	46	3847
2026-01-18 11:18:03.46	71.02	74.09	-37.2	-37.9	25.8	0.00e+00	0	36	0	2203058176	46	3797
2026-01-18 11:18:04.47	69.22	74.20	-37.5	-38.2	25.6	0.00e+00	0	36	0	2209349632	46	3948
2026-01-18 11:18:05.48	67.40	74.29	-37.4	-38.1	25.7	0.00e+00	0	36	0	2214592512	46	3904
2026-01-18 11:18:06.48	65.58	74.36	-37.4	-38.1	25.7	0.00e+00	0	36	0	2219835392	46	3890
2026-01-18 11:18:07.49	63.72	74.42	-37.4	-38.1	25.7	0.00e+00	0	36	0	2226126848	46	3896
2026-01-18 11:18:08.50	61.85	74.46	-37.5	-38.3	25.6	0.00e+00	0	36	0	2232418304	46	3959
2026-01-18 11:18:09.51	59.97	74.49	-37.5	-38.2	25.7	0.00e+00	0	36	0	2237661184	46	3919
2026-01-18 11:18:10.51	58.11	74.50	-37.4	-38.1	25.8	0.00e+00	0	36	0	2243952640	46	3888
2026-01-18 11:18:11.52	56.22	74.50	-37.5	-38.2	25.7	0.00e+00	0	36	0	2249195520	46	3922
2026-01-18 11:18:12.53	54.34	74.47	-37.6	-38.3	25.6	0.00e+00	0	36	0	2254438400	46	3973
2026-01-18 11:18:13.54	52.47	74.44	-37.1	-37.8	26.0	0.00e+00	0	36	0	2260729856	46	3745
2026-01-18 11:18:14.55	50.60	74.38	-37.2	-37.9	25.9	0.00e+00	0	36	0	2265972736	46	3795
2026-01-18 11:18:15.55	48.78	74.32	-37.5	-38.3	25.6	0.00e+00	0	36	0	2271215616	46	3968
2026-01-18 11:18:16.56	46.95	74.23	-37.5	-38.2	25.6	0.00e+00	0	36	0	2277507072	46	3927
2026-01-18 11:18:17.57	45.14	74.13	-37.3	-38.0	25.9	0.00e+00	0	36	0	2282749952	46	3828
2026-01-18 11:18:18.58	43.36	74.02	-37.7	-38.4	25.5	0.00e+00	0	36	0	2287992832	46	4026
2026-01-18 11:18:19.58	41.62	73.89	-38.0	-38.7	25.1	0.00e+00	0	36	0	2294284288	46	4177
2026-01-18 11:18:20.59	39.90	73.75	-37.4	-38.1	25.7	0.00e+00	0	36	0	2300575744	46	3890
2026-01-18 11:18:21.60	38.21	73.59	-37.4	-38.0	25.8	0.00e+00	0	36	0	2305818624	46	3860
2026-01-18 11:18:22.61	36.56	73.42	-37.4	-38.1	25.7	0.00e+00	0	36	0	2311061504	46	3889
2026-01-18 11:18:23.62	34.94	73.24	-37.0	-37.7	26.1	0.00e+00	0	36	0	2317352960	46	3706
2026-01-18 11:18:24.63	33.36	73.05	-37.0	-37.7	26.1	0.00e+00	0	36	0	2322595840	45	3940
2026-01-18 11:18:25.63	31.83	72.84	-37.2	-37.9	25.9	0.00e+00	0	36	0	2328887296	45	4009
2026-01-18 11:18:26.64	30.33	72.62	-37.3	-38.0	25.8	0.00e+00	0	36	0	2334130176	45	4070
2026-01-18 11:18:27.65	28.87	72.40	-37.5	-38.2	25.6	0.00e+00	0	36	0	2339373056	45	4185
2026-01-18 11:18:28.66	27.45	72.16	-37.8	-38.6	25.4	0.00e+00	0	36	0	2345664512	46	4103
2026-01-18 11:18:29.67	26.06	71.91	-37.7	-38.4	25.5	0.00e+00	0	36	0	2350907392	46	4024
2026-01-18 11:18:30.67	24.74	71.66	-37.7	-38.4	25.5	0.00e+00	0	36	0	2356150272	46	4021
2026-01-18 11:18:31.68	23.43	71.39	-37.6	-38.4	25.5	0.00e+00	0	36	0	2362441728	46	4008
2026-01-18 11:18:32.69	22.17	71.12	-37.5	-38.2	25.6	0.00e+00	0	36	0	2368733184	46	3950
2026-01-18 11:18:33.70	20.95	70.84	-37.7	-38.4	25.5	0.00e+00	0	36	0	2373976064	46	4006
2026-01-18 11:18:34.71	19.76	70.55	-37.8	-38.4	25.5	0.00e+00	0	36	0	2379218944	46	4050
2026-01-18 11:18:35.71	18.63	70.26	-37.6	-38.2	25.7	0.00e+00	0	36	0	2385510400	46	3957
2026-01-18 11:18:36.72	17.52	69.96	-37.6	-38.3	25.6	0.00e+00	0	36	0	2390753280	46	3980
2026-01-18 11:18:37.73	16.44	69.65	-37.6	-38.3	25.6	0.00e+00	0	36	0	2395996160	46	3983
2026-01-18 11:18:38.74	15.40	69.34	-37.6	-38.3	25.6	0.00e+00	0	36	0	2402287616	46	3981
2026-01-18 11:18:39.75	14.39	69.02	-37.7	-38.3	25.5	0.00e+00	0	36	0	2407530496	46	4003
2026-01-18 11:18:40.75	13.43	68.70	-37.8	-38.6	25.4	0.00e+00	0	35	0	2413821952	46	4102
2026-01-18 11:18:41.76	12.48	68.37	-38.0	-38.7	25.2	0.00e+00	0	36	0	2419064832	46	4179
2026-01-18 11:18:42.77	11.57	68.04	-37.9	-38.6	25.3	0.00e+00	0	36	0	2424307712	46	4117
2026-01-18 11:18:43.77	10.69	67.71	-38.0	-38.7	25.3	0.00e+00	0	36	0	2430599168	46	4157
2026-01-18 11:18:44.78	9.84	67.37	-38.0	-38.7	25.3	0.00e+00	0	36	0	2435842048	46	4154
2026-01-18 11:18:45.79	9.01	67.03	-38.0	-38.7	25.2	0.00e+00	0	36	0	2442133504	46	4168
2026-01-18 11:18:46.80	8.21	66.69	-38.1	-38.9	25.1	0.00e+00	0	36	0	2447376384	46	4247
2026-01-18 11:18:47.81	7.44	66.34	-38.1	-38.9	25.1	0.00e+00	0	36	0	2453667840	47	4009
2026-01-18 11:18:48.81	6.70	66.00	-38.0	-38.8	25.2	0.00e+00	0	36	0	2458910720	47	3959
2026-01-18 11:18:49.82	5.97	65.64	-37.8	-38.5	25.4	0.00e+00	0	36	0	2464153600	47	3860
2026-01-18 11:18:50.83	5.27	65.29	-37.9	-38.6	25.4	0.00e+00	0	36	0	2470445056	47	3872
2026-01-18 11:18:51.84	4.59	64.94	-37.8	-38.5	25.4	0.00e+00	0	36	0	2475687936	47	3828
2026-01-18 11:18:52.85	3.93	64.58	-37.8	-38.4	25.4	0.00e+00	0	36	0	2480930816	47	3821
2026-01-18 11:18:53.86	3.29	64.22	-37.9	-38.6	25.3	0.00e+00	0	36	0	2487222272	47	3909
2026-01-18 11:18:54.86	2.67	63.87	-38.0	-38.8	25.2	0.00e+00	0	36	0	2492465152	47	3963
2026-01-18 11:18:55.87	2.07	63.51	-38.2	-38.9	25.1	0.00e+00	0	36	0	2498756608	47	4032
2026-01-18 11:18:56.88	1.49	63.15	-38.3	-39.0	25.0	0.00e+00	0	36	0	2503999488	47	4055
2026-01-18 11:18:57.89	0.92	62.79	-38.4	-39.1	24.8	0.00e+00	0	36	0	2509242368	47	4136
2026-01-18 11:18:58.89	0.38	62.43	-39.1	-39.8	24.8	0.00e+00	0	36	0	2515533824	48	4235
2026-01-18 11:18:59.90	359.85	62.07	-39.0	-39.7	24.8	0.00e+00	0	36	0	2521825280	48	4176
2026-01-18 11:19:00.91	359.33	61.71	-38.8	-39.5	25.0	0.00e+00	0	36	0	2527068160	48	4083
2026-01-18 11:19:01.92	358.83	61.35	-38.6	-39.3	25.3	0.00e+00	0	36	0	2532311040	48	3964
2026-01-18 11:19:02.93	358.34	60.99	-38.9	-39.6	24.9	0.00e+00	0	36	0	2538602496	48	4139
2026-01-18 11:19:03.93	357.87	60.63	-39.0	-39.7	24.8	0.00e+00	0	36	0	2543845376	48	4192
2026-01-18 11:19:04.94	357.41	60.27	-39.0	-39.7	24.9	0.00e+00	0	36	0	2549088256	48	4188
2026-01-18 11:19:05.95	356.97	59.91	-38.8	-39.5	25.0	0.00e+00	0	36	0	2555379712	48	4091
2026-01-18 11:19:06.96	356.53	59.55	-38.8	-39.5	25.0	0.00e+00	0	36	0	2560622592	48	4088
2026-01-18 11:19:07.97	356.11	59.19	-39.0	-39.7	24.9	0.00e+00	0	36	0	2565865472	48	4165
2026-01-18 11:19:08.97	355.70	58.84	-39.0	-39.7	24.9	0.00e+00	0	36	0	2572156928	48	4158
2026-01-18 11:19:09.98	355.30	58.48	-39.3	-40.0	24.6	0.00e+00	0	36	0	2577399808	49	4075
2026-01-18 11:19:10.99	354.91	58.12	-39.6	-40.3	24.4	0.00e+00	0	36	0	2583691264	49	4205
2026-01-18 11:19:11.99	354.54	57.77	-39.7	-40.5	24.1	0.00e+00	0	36	0	2588934144	50	4066
2026-01-18 11:19:13.00	354.17	57.41	-39.9	-40.6	24.1	0.00e+00	0	36	0	2595225600	50	4123
2026-01-18 11:19:14.01	353.81	57.06	-39.9	-40.6	24.1	0.00e+00	0	36	0	2600468480	50	4138
2026-01-18 11:19:15.02	353.46	56.71	-39.9	-40.6	24.1	0.00e+00	0	36	0	2606759936	50	4118
2026-01-18 11:19:16.03	353.12	56.36	-39.9	-40.6	24.1	0.00e+00	0	36	0	2612002816	50	4119
2026-01-18 11:19:17.03	352.79	56.01	-39.9	-40.6	24.1	0.00e+00	0	36	0	2617245696	50	4122
2026-01-18 11:19:18.04	352.46	55.66	-39.8	-40.5	24.2	0.00e+00	0	36	0	2623537152	50	4063
2026-01-18 11:19:19.05	352.15	55.31	-39.6	-40.3	24.3	0.00e+00	0	36	0	2628780032	50	4002
2026-01-18 11:19:20.06	351.84	54.97	-39.5	-40.2	24.5	0.00e+00	0	36	0	2634022912	50	3917
2026-01-18 11:19:21.07	351.54	54.62	-39.8	-40.5	24.2	0.00e+00	0	36	0	2640314368	50	4063
2026-01-18 11:19:22.07	351.24	54.28	-40.0	-40.8	23.9	0.00e+00	0	36	0	2645557248	50	4198
2026-01-18 11:19:23.08	350.96	53.94	-39.9	-40.7	24.0	0.00e+00	0	36	0	2650800128	50	4161
2026-01-18 11:19:24.09	350.68	53.60	-39.9	-40.6	24.1	0.00e+00	0	36	0	2657091584	50	4131
2026-01-18 11:19:25.10	350.40	53.26	-39.9	-40.6	24.1	0.00e+00	0	36	0	2663383040	50	4121
2026-01-18 11:19:26.11	350.14	52.93	-39.9	-40.7	24.0	0.00e+00	0	36	0	2668625920	50	4163
2026-01-18 11:19:27.11	349.88	52.59	-40.1	-40.9	23.8	0.00e+00	0	36	0	2673868800	50	4279
2026-01-18 11:19:28.12	349.62	52.26	-40.0	-40.8	23.9	0.00e+00	0	36	0	2680160256	50	4197
2026-01-18 11:19:29.13	349.37	51.93	-39.7	-40.4	24.2	0.00e+00	0	36	0	2685403136	50	4025
2026-01-18 11:19:30.14	349.13	51.60	-39.5	-40.3	24.4	0.00e+00	0	36	0	2691694592	50	3959
2026-01-18 11:19:31.15	348.89	51.27	-39.6	-40.3	24.3	0.00e+00	0	36	0	2696937472	50	3994
2026-01-18 11:19:32.15	348.66	50.95	-39.5	-40.3	24.4	0.00e+00	0	36	0	2702180352	50	3966
2026-01-18 11:19:33.16	348.43	50.62	-39.5	-40.3	24.4	0.00e+00	0	36	0	2708471808	50	3973
2026-01-18 11:19:34.17	348.21	50.30	-39.5	-40.2	24.4	0.00e+00	0	36	0	2713714688	50	3934
2026-01-18 11:19:35.18	347.99	49.98	-39.1	-39.9	24.7	0.00e+00	0	36	0	2718957568	50	3781
2026-01-18 11:19:36.19	347.77	49.66	-39.2	-39.9	24.6	0.00e+00	0	36	0	2725249024	50	3821
2026-01-18 11:19:37.19	347.57	49.34	-39.2	-40.0	24.6	0.00e+00	0	36	0	2731540480	50	3825
2026-01-18 11:19:38.20	347.36	49.03	-39.1	-39.8	24.7	0.00e+00	0	36	0	2736783360	50	3776
2026-01-18 11:19:39.21	347.16	48.71	-38.8	-39.5	25.0	0.00e+00	0	36	0	2742026240	49	3862
2026-01-18 11:19:40.22	346.97	48.40	-38.9	-39.6	24.9	0.00e+00	0	36	0	2748317696	49	3873
2026-01-18 11:19:41.23	346.77	48.09	-39.0	-39.7	24.9	0.00e+00	0	36	0	2753560576	49	3926
2026-01-18 11:19:42.23	346.59	47.78	-39.1	-39.9	24.7	0.00e+00	0	36	0	2758803456	49	4007
2026-01-18 11:19:43.24	346.40	47.48	-39.3	-40.0	24.5	0.00e+00	0	36	0	2765094912	49	4090
2026-01-18 11:19:44.25	346.22	47.17	-39.3	-40.0	24.5	0.00e+00	0	36	0	2770337792	49	4096
2026-01-18 11:19:45.26	346.04	46.87	-39.2	-39.9	24.6	0.00e+00	0	36	0	2776629248	49	4047
2026-01-18 11:19:46.26	345.87	46.57	-39.1	-39.8	24.8	0.00e+00	0	36	0	2781872128	49	3962
2026-01-18 11:19:47.27	345.70	46.27	-38.8	-39.5	25.0	0.00e+00	0	36	0	2787115008	49	3847
2026-01-18 11:19:48.28	345.53	45.98	-38.9	-39.6	24.9	0.00e+00	0	36	0	2793406464	49	3871
2026-01-18 11:19:49.29	345.37	45.68	-38.8	-39.5	25.0	0.00e+00	0	36	0	2799697920	49	3860
2026-01-18 11:19:50.30	345.20	45.39	-38.9	-39.6	24.9	0.00e+00	0	36	0	2804940800	49	3883
2026-01-18 11:19:51.31	345.05	45.10	-38.9	-39.6	24.9	0.00e+00	0	36	0	2810183680	49	3895
2026-01-18 11:19:52.32	344.89	44.81	-39.0	-39.7	24.8	0.00e+00	0	36	0	2816475136	49	3922
2026-01-18 11:19:53.33	344.74	44.52	-39.0	-39.7	24.8	0.00e+00	0	36	0	2821718016	49	3939
2026-01-18 11:19:54.33	344.59	44.23	-39.0	-39.7	24.8	0.00e+00	0	36	0	2826960896	49	3952
2026-01-18 11:19:55.34	344.44	43.95	-38.8	-39.5	25.0	0.00e+00	0	36	0	2833252352	49	3855
2026-01-18 11:19:56.35	344.30	43.67	-38.6	-39.3	25.1	0.00e+00	0	36	0	2838495232	49	3763
2026-01-18 11:19:57.36	344.16	43.39	-38.6	-39.2	25.2	0.00e+00	0	36	0	2843738112	49	3731
2026-01-18 11:19:58.37	344.02	43.11	-38.5	-39.2	25.3	0.00e+00	0	36	0	2850029568	49	3714
2026-01-18 11:19:59.37	343.88	42.84	-38.6	-39.3	25.2	0.00e+00	0	36	0	2855272448	49	3745
2026-01-18 11:20:00.38	343.75	42.56	-38.8	-39.5	25.0	0.00e+00	0	36	0	2861563904	49	3840
2026-01-18 11:20:01.39	343.61	42.29	-38.8	-39.6	24.9	0.00e+00	0	36	0	2866806784	49	3876
2026-01-18 11:20:02.40	343.48	42.02	-38.9	-39.6	24.8	0.00e+00	0	36	0	2873098240	49	3913
2026-01-18 11:20:03.41	343.36	41.75	-38.9	-39.6	24.9	0.00e+00	0	36	0	2878341120	49	3878
2026-01-18 11:20:04.41	343.23	41.48	-38.7	-39.4	25.0	0.00e+00	0	36	0	2884632576	49	3822
2026-01-18 11:20:05.42	343.11	41.22	-38.6	-39.3	25.1	0.00e+00	0	36	0	2889875456	49	3769
2026-01-18 11:20:06.43	342.99	40.95	-38.6	-39.3	25.2	0.00e+00	0	36	0	2895118336	49	3755
2026-01-18 11:20:07.43	342.87	40.69	-38.4	-39.1	25.3	0.00e+00	0	36	0	2901409792	48	3903
2026-01-18 11:20:08.44	342.75	40.43	-38.4	-39.1	25.3	0.00e+00	0	36	0	2906652672	48	3889
2026-01-18 11:20:09.45	342.64	40.17	-38.4	-39.1	25.3	0.00e+00	0	36	0	2911895552	48	3900
2026-01-18 11:20:10.46	342.52	39.92	-38.3	-39.0	25.3	0.00e+00	0	36	0	2918187008	48	3857
2026-01-18 11:20:11.47	342.41	39.66	-38.3	-39.0	25.4	0.00e+00	0	36	0	2923429888	48	3838
2026-01-18 11:20:12.47	342.30	39.41	-38.5	-39.2	25.2	0.00e+00	0	36	0	2928672768	48	3919
2026-01-18 11:20:13.48	342.19	39.16	-38.4	-39.1	25.3	0.00e+00	0	36	0	2934964224	48	3893
2026-01-18 11:20:14.49	342.09	38.91	-38.4	-39.1	25.3	0.00e+00	0	36	0	2941255680	48	3884
2026-01-18 11:20:15.50	341.98	38.66	-38.5	-39.2	25.2	0.00e+00	0	36	0	2946498560	48	3916
2026-01-18 11:20:16.51	341.88	38.41	-38.4	-39.1	25.2	0.00e+00	0	36	0	2951741440	48	3898
2026-01-18 11:20:17.51	341.78	38.17	-38.3	-39.0	25.4	0.00e+00	0	36	0	2958032896	48	3830
2026-01-18 11:20:18.52	341.68	37.93	-38.3	-39.0	25.4	0.00e+00	0	36	0	2963275776	48	3837
2026-01-18 11:20:19.53	341.58	37.68	-38.3	-39.0	25.3	0.00e+00	0	36	0	2969567232	48	3853
2026-01-18 11:20:20.54	341.48	37.44	-38.3	-39.0	25.4	0.00e+00	0	36	0	2974810112	48	3830
2026-01-18 11:20:21.55	341.39	37.21	-38.3	-39.0	25.3	0.00e+00	0	36	0	2980052992	48	3854
2026-01-18 11:20:22.55	341.30	36.97	-38.5	-39.2	25.2	0.00e+00	0	36	0	2986344448	48	3923
2026-01-18 11:20:23.56	341.20	36.74	-38.4	-39.1	25.3	0.00e+00	0	36	0	2991587328	48	3888
2026-01-18 11:20:24.57	341.11	36.50	-38.4	-39.1	25.2	0.00e+00	0	36	0	2996830208	48	3900
2026-01-18 11:20:25.58	341.02	36.27	-38.5	-39.2	25.2	0.00e+00	0	36	0	3003121664	48	3916
2026-01-18 11:20:26.59	340.93	36.04	-38.4	-39.1	25.2	0.00e+00	0	36	0	3008364544	48	3894
2026-01-18 11:20:27.59	340.85	35.81	-38.4	-39.1	25.3	0.00e+00	0	36	0	3014656000	48	3882
2026-01-18 11:20:28.60	340.76	35.59	-38.4	-39.1	25.3	0.00e+00	0	36	0	3019898880	48	3884
2026-01-18 11:20:29.61	340.68	35.36	-38.3	-39.0	25.3	0.00e+00	0	36	0	3026190336	48	3843
2026-01-18 11:20:30.62	340.59	35.14	-38.3	-39.0	25.3	0.00e+00	0	36	0	3031433216	48	3862
2026-01-18 11:20:31.63	340.51	34.91	-38.5	-39.2	25.2	0.00e+00	0	36	0	3036676096	48	3914
2026-01-18 11:20:32.63	340.43	34.69	-38.4	-39.1	25.2	0.00e+00	0	36	0	3042967552	48	3906
2026-01-18 11:20:33.64	340.35	34.47	-38.5	-39.2	25.2	0.00e+00	0	36	0	3048210432	48	3932
2026-01-18 11:20:34.65	340.27	34.26	-38.5	-39.2	25.1	0.00e+00	0	36	0	3054501888	48	3935
2026-01-18 11:20:35.66	340.19	34.04	-38.6	-39.3	25.1	0.00e+00	0	36	0	3059744768	48	3969
2026-01-18 11:20:36.66	340.12	33.83	-38.5	-39.2	25.1	0.00e+00	0	36	0	3064987648	48	3956
2026-01-18 11:20:37.67	340.04	33.61	-38.5	-39.2	25.1	0.00e+00	0	36	0	3071279104	48	3953
2026-01-18 11:20:38.68	339.97	33.40	-38.6	-39.3	25.0	0.00e+00	0	36	0	3076521984	48	3969
2026-01-18 11:20:39.69	339.89	33.19	-38.6	-39.3	25.0	0.00e+00	0	36	0	3082813440	48	3994
2026-01-18 11:20:40.70	339.82	32.98	-38.6	-39.3	25.0	0.00e+00	0	36	0	3088056320	48	3999
2026-01-18 11:20:41.71	339.75	32.77	-38.8	-39.5	24.8	0.00e+00	0	36	0	3094347776	48	4074
2026-01-18 11:20:42.71	339.68	32.56	-38.8	-39.5	24.8	0.00e+00	0	36	0	3099590656	48	4093
2026-01-18 11:20:43.72	339.61	32.36	-38.9	-39.7	24.7	0.00e+00	0	36	0	3104833536	48	4156
2026-01-18 11:20:44.73	339.54	32.15	-39.0	-39.8	24.6	0.00e+00	0	36	0	3111124992	48	4195
2026-01-18 11:20:45.74	339.47	31.95	-39.1	-39.8	24.5	0.00e+00	0	36	0	3116367872	48	4237
2026-01-18 11:20:46.75	339.40	31.75	-39.1	-39.8	24.5	0.00e+00	0	36	0	3121610752	48	4242
2026-01-18 11:20:47.75	339.34	31.55	-39.2	-39.9	24.4	0.00e+00	0	36	0	3127902208	48	4291
2026-01-18 11:20:48.76	339.27	31.35	-39.2	-39.9	24.5	0.00e+00	0	36	0	3133145088	49	4048
2026-01-18 11:20:49.77	339.21	31.16	-39.1	-39.8	24.6	0.00e+00	0	36	0	3139436544	49	3995
2026-01-18 11:20:50.78	339.14	30.96	-39.1	-39.9	24.5	0.00e+00	0	36	0	3144679424	49	4011
2026-01-18 11:20:51.79	339.08	30.76	-39.0	-39.8	24.6	0.00e+00	0	36	0	3149922304	49	3960
2026-01-18 11:20:52.79	339.02	30.57	-38.9	-39.7	24.7	0.00e+00	0	36	0	3156213760	49	3918
2026-01-18 11:20:53.80	338.96	30.38	-38.9	-39.6	24.8	0.00e+00	0	36	0	3162505216	49	3878
2026-01-18 11:20:54.81	338.90	30.19	-38.9	-39.6	24.7	0.00e+00	0	36	0	3167748096	49	3908
2026-01-18 11:20:55.82	338.84	30.00	-38.9	-39.6	24.8	0.00e+00	0	36	0	3172990976	49	3879
2026-01-18 11:20:56.83	338.78	29.81	-38.8	-39.5	24.8	0.00e+00	0	36	0	3179282432	49	3841
2026-01-18 11:20:57.83	338.72	29.62	-38.8	-39.5	24.8	0.00e+00	0	36	0	3184525312	49	3864
2026-01-18 11:20:58.84	338.66	29.44	-38.7	-39.4	24.9	0.00e+00	0	36	0	3189768192	49	3806
2026-01-18 11:20:59.85	338.61	29.25	-38.8	-39.5	24.8	0.00e+00	0	36	0	3196059648	49	3825
2026-01-18 11:21:00.86	338.55	29.07	-38.7	-39.4	24.9	0.00e+00	0	36	0	3201302528	49	3821
2026-01-18 11:21:01.86	338.50	28.89	-38.7	-39.4	24.9	0.00e+00	0	36	0	3206545408	49	3798
2026-01-18 11:21:02.87	338.44	28.70	-38.7	-39.4	24.9	0.00e+00	0	36	0	3212836864	49	3797
2026-01-18 11:21:03.88	338.39	28.52	-38.8	-39.5	24.8	0.00e+00	0	36	0	3218079744	49	3827
2026-01-18 11:21:04.89	338.33	28.34	-38.7	-39.4	24.9	0.00e+00	0	36	0	3224371200	49	3792
2026-01-18 11:21:05.90	338.28	28.16	-38.7	-39.4	24.9	0.00e+00	0	36	0	3229614080	49	3801
2026-01-18 11:21:06.90	338.23	27.99	-38.7	-39.4	24.8	0.00e+00	0	36	0	3235905536	49	3817
2026-01-18 11:21:07.91	338.18	27.81	-38.8	-39.5	24.8	0.00e+00	0	36	0	3241148416	49	3838
2026-01-18 11:21:08.92	338.13	27.64	-38.8	-39.6	24.7	0.00e+00	0	36	0	3247439872	49	3875
2026-01-18 11:21:09.93	338.07	27.46	-38.9	-39.6	24.7	0.00e+00	0	36	0	3252682752	49	3912
2026-01-18 11:21:10.94	338.02	27.29	-39.0	-39.8	24.5	0.00e+00	0	36	0	3257925632	49	3979
2026-01-18 11:21:11.95	337.98	27.12	-39.1	-39.8	24.5	0.00e+00	0	36	0	3264217088	49	3994
2026-01-18 11:21:12.95	337.93	26.95	-39.0	-39.8	24.5	0.00e+00	0	36	0	3269459968	49	3975
2026-01-18 11:21:13.97	337.88	26.78	-39.0	-39.8	24.5	0.00e+00	0	36	0	3274702848	49	3974
2026-01-18 11:21:14.97	337.83	26.61	-39.0	-39.7	24.5	0.00e+00	0	36	0	3280994304	49	3958
2026-01-18 11:21:15.98	337.78	26.44	-38.9	-39.6	24.6	0.00e+00	0	36	0	3286237184	49	3909
2026-01-18 11:21:16.99	337.74	26.28	-38.9	-39.7	24.6	0.00e+00	0	36	0	3292528640	49	3921
2026-01-18 11:21:18.00	337.69	26.11	-39.0	-39.7	24.5	0.00e+00	0	36	0	3297771520	49	3948
2026-01-18 11:21:19.01	337.65	25.95	-38.8	-39.5	24.7	0.00e+00	0	36	0	3304062976	49	3862
2026-01-18 11:21:20.01	337.60	25.78	-38.9	-39.6	24.7	0.00e+00	0	36	0	3309305856	49	3879
2026-01-18 11:21:21.02	337.56	25.62	-38.9	-39.6	24.6	0.00e+00	0	36	0	3314548736	49	3897
2026-01-18 11:21:22.03	337.51	25.46	-38.8	-39.5	24.7	0.00e+00	0	36	0	3320840192	49	3858
2026-01-18 11:21:23.04	337.47	25.30	-38.9	-39.6	24.6	0.00e+00	0	36	0	3326083072	49	3907
2026-01-18 11:21:24.04	337.43	25.14	-39.0	-39.7	24.5	0.00e+00	0	36	0	3332374528	49	3935
2026-01-18 11:21:25.05	337.38	24.98	-39.0	-39.7	24.5	0.00e+00	0	36	0	3337617408	49	3938
2026-01-18 11:21:26.06	337.34	24.82	-39.1	-39.8	24.5	0.00e+00	0	36	0	3342860288	49	3964
2026-01-18 11:21:27.07	337.30	24.67	-39.1	-39.8	24.5	0.00e+00	0	36	0	3349151744	49	3962
2026-01-18 11:21:28.08	337.26	24.51	-39.1	-39.8	24.5	0.00e+00	0	36	0	3354394624	49	3962
2026-01-18 11:21:29.09	337.22	24.35	-39.2	-39.9	24.4	0.00e+00	0	36	0	3359637504	49	4015
2026-01-18 11:21:30.09	337.18	24.20	-39.2	-39.9	24.3	0.00e+00	0	36	0	3365928960	49	4051
2026-01-18 11:21:31.10	337.14	24.05	-39.2	-39.9	24.3	0.00e+00	0	36	0	3372220416	49	4038
2026-01-18 11:21:32.11	337.10	23.90	-39.4	-40.1	24.2	0.00e+00	0	36	0	3377463296	49	4114
2026-01-18 11:21:33.12	337.06	23.74	-39.4	-40.2	24.1	0.00e+00	0	36	0	3382706176	49	4147
2026-01-18 11:21:34.13	337.02	23.59	-39.4	-40.1	24.1	0.00e+00	0	36	0	3388997632	49	4139
2026-01-18 11:21:35.13	336.98	23.44	-39.4	-40.2	24.1	0.00e+00	0	36	0	3394240512	49	4154
2026-01-18 11:21:36.14	336.95	23.30	-39.5	-40.3	24.0	0.00e+00	0	36	0	3399483392	49	4210
2026-01-18 11:21:37.15	336.91	23.15	-39.6	-40.3	23.9	0.00e+00	0	36	0	3405774848	49	4236
2026-01-18 11:21:38.15	336.87	23.00	-39.6	-40.3	23.9	0.00e+00	0	36	0	3411017728	49	4238
2026-01-18 11:21:39.16	336.84	22.85	-39.6	-40.4	23.9	0.00e+00	0	36	0	3417309184	49	4254
2026-01-18 11:21:40.17	336.80	22.71	-39.6	-40.4	23.9	0.00e+00	0	36	0	3422552064	49	4247
2026-01-18 11:21:41.18	336.76	22.56	-39.7	-40.4	23.9	0.00e+00	0	36	0	3427794944	49	4271
2026-01-18 11:21:42.19	336.73	22.42	-39.8	-40.5	23.8	0.00e+00	0	36	0	3434086400	50	4083
2026-01-18 11:21:43.19	336.69	22.28	-39.7	-40.5	23.8	0.00e+00	0	36	0	3440377856	50	4073
2026-01-18 11:21:44.20	336.66	22.13	-39.8	-40.5	23.8	0.00e+00	0	36	0	3445620736	50	4082
2026-01-18 11:21:45.21	336.62	21.99	-39.8	-40.5	23.7	0.00e+00	0	36	0	3450863616	50	4089
2026-01-18 11:21:46.21	336.59	21.85	-39.8	-40.6	23.7	0.00e+00	0	36	0	3457155072	50	4102
2026-01-18 11:21:47.22	336.56	21.71	-39.9	-40.7	23.6	0.00e+00	0	36	0	3462397952	50	4152
2026-01-18 11:21:48.23	336.52	21.57	-39.9	-40.7	23.6	0.00e+00	0	36	0	3467640832	50	4146
2026-01-18 11:21:49.24	336.49	21.43	-39.8	-40.6	23.7	0.00e+00	0	36	0	3473932288	50	4103
2026-01-18 11:21:50.25	336.46	21.30	-39.9	-40.7	23.6	0.00e+00	0	36	0	3479175168	50	4161
2026-01-18 11:21:51.25	336.42	21.16	-39.9	-40.7	23.6	0.00e+00	0	36	0	3484418048	50	4174
2026-01-18 11:21:52.26	336.39	21.02	-39.9	-40.7	23.6	0.00e+00	0	36	0	3490709504	50	4155
2026-01-18 11:21:53.27	336.36	20.89	-40.0	-40.7	23.5	0.00e+00	0	36	0	3495952384	50	4181
2026-01-18 11:21:54.28	336.33	20.75	-39.9	-40.7	23.5	0.00e+00	0	36	0	3502243840	50	4172
2026-01-18 11:21:55.29	336.30	20.62	-39.9	-40.7	23.6	0.00e+00	0	36	0	3507486720	50	4156
2026-01-18 11:21:56.29	336.27	20.49	-39.9	-40.6	23.6	0.00e+00	0	36	0	3513778176	50	4124
2026-01-18 11:21:57.30	336.24	20.35	-39.9	-40.7	23.6	0.00e+00	0	36	0	3519021056	50	4150
2026-01-18 11:21:58.31	336.21	20.22	-39.9	-40.6	23.6	0.00e+00	0	36	0	3525312512	50	4122
2026-01-18 11:21:59.32	336.18	20.09	-39.9	-40.7	23.5	0.00e+00	0	36	0	3530555392	50	4162
2026-01-18 11:22:00.33	336.15	19.96	-40.0	-40.8	23.5	0.00e+00	0	36	0	3535798272	50	4197
2026-01-18 11:22:01.33	336.12	19.83	-40.0	-40.7	23.5	0.00e+00	0	36	0	3542089728	50	4191
2026-01-18 11:22:02.34	336.09	19.70	-40.0	-40.7	23.5	0.00e+00	0	36	0	3547332608	50	4171
2026-01-18 11:22:03.35	336.06	19.57	-40.0	-40.7	23.5	0.00e+00	0	36	0	3552575488	50	4189
2026-01-18 11:22:04.36	336.03	19.44	-40.0	-40.7	23.4	0.00e+00	0	36	0	3558866944	50	4190
2026-01-18 11:22:05.37	336.00	19.31	-40.1	-40.8	23.4	0.00e+00	0	36	0	3564109824	50	4230
2026-01-18 11:22:06.37	335.98	19.19	-40.1	-40.8	23.4	0.00e+00	0	36	0	3569352704	50	4224
2026-01-18 11:22:07.38	335.95	19.06	-40.1	-40.8	23.4	0.00e+00	0	36	0	3575644160	50	4219
2026-01-18 11:22:08.39	335.92	18.94	-40.2	-41.0	23.3	0.00e+00	0	36	0	3581935616	50	4298
2026-01-18 11:22:09.40	335.89	18.81	-40.2	-40.9	23.3	0.00e+00	0	36	0	3587178496	51	4037
2026-01-18 11:22:10.41	335.87	18.69	-40.2	-41.0	23.3	0.00e+00	0	36	0	3592421376	51	4057
2026-01-18 11:22:11.41	335.84	18.56	-40.2	-40.9	23.3	0.00e+00	0	36	0	3598712832	51	4033
2026-01-18 11:22:12.42	335.81	18.44	-40.2	-41.0	23.2	0.00e+00	0	36	0	3603955712	51	4069
2026-01-18 11:22:13.43	335.79	18.32	-40.3	-41.1	23.2	0.00e+00	0	36	0	3610247168	51	4109
2026-01-18 11:22:14.44	335.76	18.20	-40.3	-41.1	23.1	0.00e+00	0	36	0	3615490048	51	4101
2026-01-18 11:22:15.45	335.74	18.08	-40.4	-41.2	23.1	0.00e+00	0	36	0	3620732928	51	4147
2026-01-18 11:22:16.45	335.71	17.96	-40.5	-41.3	22.9	0.00e+00	0	36	0	3627024384	51	4214
2026-01-18 11:22:17.46	335.68	17.84	-40.6	-41.4	22.9	0.00e+00	0	36	0	3632267264	51	4244
2026-01-18 11:22:18.47	335.66	17.72	-40.6	-41.4	22.8	0.00e+00	0	36	0	3637510144	51	4275
2026-01-18 11:22:19.48	335.63	17.60	-40.6	-41.4	22.8	0.00e+00	0	36	0	3643801600	51	4269
2026-01-18 11:22:20.49	335.61	17.48	-40.7	-41.5	22.7	0.00e+00	0	36	0	3649044480	51	4307
2026-01-18 11:22:21.49	335.59	17.36	-40.7	-41.6	22.6	0.00e+00	0	36	0	3655335936	52	4099
2026-01-18 11:22:22.50	335.56	17.24	-40.7	-41.5	22.6	0.00e+00	0	36	0	3660578816	52	4095
2026-01-18 11:22:23.51	335.54	17.13	-40.7	-41.5	22.7	0.00e+00	0	36	0	3666870272	52	4057
2026-01-18 11:22:24.52	335.51	17.01	-40.7	-41.5	22.6	0.00e+00	0	36	0	3672113152	52	4095
2026-01-18 11:22:25.52	335.49	16.90	-40.7	-41.5	22.6	0.00e+00	0	36	0	3677356032	52	4092
2026-01-18 11:22:26.53	335.47	16.78	-40.8	-41.6	22.5	0.00e+00	0	36	0	3683647488	52	4115
2026-01-18 11:22:27.54	335.44	16.67	-40.9	-41.7	22.5	0.00e+00	0	36	0	3688890368	52	4159
