passes_logs/2026/01/18/R3.2S_Murmansk/R3.2S_Murmansk__20260118_045311_KANOPUS-V_5_rec.log

#Pass ID: 20260118_045311_KANOPUS-V 5
#Satellite: KANOPUS-V 5
#Configuration: KANOPUS-V_8320
#almurnet v.1.7.20251203
#Start time: 2026-01-18 04:53:13

#Version: 2.2.20231116
#Station: R3.2S_Murmansk
#Location: 33.079688 lon 68.888172 lat
#TLE: 1 43876U 18111A   26017.66658644  .00002803  00000+0  12058-3 0  9992
#TLE: 2 43876  97.3688 286.1324 0001777  87.2776 272.8665 15.23451717391876

#Time	Az	El	Level	Level2	SNR	BER	BlckErr	Temp	State	Recorded	gain1	gain2
2026-01-18 04:53:13.52	84.00	2.11	-52.8	-61.7	3.8	7.46e-01	0	34	0	0	77	9838
2026-01-18 04:53:14.52	83.90	2.17	-52.8	-61.6	3.8	7.45e-01	0	34	104	0	76	10399
2026-01-18 04:53:15.52	83.79	2.23	-52.8	-61.6	3.8	7.44e-01	0	34	104	0	76	10377
2026-01-18 04:53:16.54	83.69	2.29	-52.8	-61.6	3.8	7.44e-01	0	34	104	0	76	10356
2026-01-18 04:53:17.54	83.58	2.35	-52.8	-61.6	3.8	7.44e-01	0	34	104	0	76	10348
2026-01-18 04:53:18.55	83.47	2.41	-52.8	-61.6	3.8	7.47e-01	0	34	104	0	76	10362
2026-01-18 04:53:19.55	83.37	2.46	-52.8	-61.6	3.8	7.45e-01	0	34	104	0	76	10342
2026-01-18 04:53:20.56	83.26	2.52	-52.8	-61.6	3.8	7.45e-01	0	34	104	0	76	10351
2026-01-18 04:53:21.57	83.15	2.58	-52.8	-61.6	3.8	7.46e-01	0	34	104	0	76	10341
2026-01-18 04:53:22.58	83.04	2.64	-52.8	-61.6	3.8	7.46e-01	0	34	104	0	76	10346
2026-01-18 04:53:23.58	82.93	2.70	-52.8	-61.6	3.8	7.44e-01	0	34	104	0	76	10353
2026-01-18 04:53:24.59	82.82	2.76	-52.8	-61.6	3.8	7.45e-01	0	34	104	0	76	10328
2026-01-18 04:53:25.60	82.71	2.82	-52.8	-61.6	3.8	7.45e-01	0	34	104	0	76	10386
2026-01-18 04:53:26.61	82.60	2.88	-52.8	-61.6	3.8	7.44e-01	0	34	104	0	76	10345
2026-01-18 04:53:27.62	82.49	2.94	-52.8	-61.6	3.8	7.46e-01	0	34	104	0	76	10396
2026-01-18 04:53:28.62	82.38	3.00	-52.8	-61.6	3.8	7.45e-01	0	35	104	0	76	10358
2026-01-18 04:53:29.63	82.26	3.07	-52.8	-61.6	3.8	7.47e-01	0	34	104	0	76	10326
2026-01-18 04:53:30.64	82.15	3.13	-52.8	-61.6	3.8	7.44e-01	0	34	104	0	76	10386
2026-01-18 04:53:31.65	82.04	3.19	-52.8	-61.6	3.8	7.44e-01	0	34	104	0	76	10364
2026-01-18 04:53:32.66	81.92	3.25	-52.8	-61.6	3.8	7.46e-01	0	35	104	0	76	10358
2026-01-18 04:53:33.66	81.81	3.31	-52.8	-61.6	3.8	7.45e-01	0	35	104	0	76	10323
2026-01-18 04:53:34.67	81.69	3.37	-52.8	-61.6	3.8	7.45e-01	0	34	104	0	76	10350
2026-01-18 04:53:35.68	81.57	3.43	-52.8	-61.6	3.8	7.45e-01	0	35	104	0	76	10334
2026-01-18 04:53:36.69	81.45	3.49	-52.8	-61.6	3.8	7.45e-01	0	35	104	0	76	10356
2026-01-18 04:53:37.70	81.34	3.55	-52.8	-61.6	3.8	7.44e-01	0	35	104	0	76	10360
2026-01-18 04:53:38.70	81.22	3.61	-52.8	-61.6	3.8	7.47e-01	0	35	104	0	76	10370
2026-01-18 04:53:39.71	81.10	3.68	-52.8	-61.6	3.8	7.45e-01	0	35	104	0	76	10377
2026-01-18 04:53:40.72	80.98	3.74	-52.8	-61.6	3.8	7.45e-01	0	35	104	0	76	10335
2026-01-18 04:53:41.73	80.86	3.80	-52.8	-61.6	3.8	7.44e-01	0	34	104	0	76	10369
2026-01-18 04:53:42.74	80.73	3.86	-52.8	-61.6	3.8	7.45e-01	0	35	104	0	76	10373
2026-01-18 04:53:43.75	80.61	3.92	-52.8	-61.6	3.8	7.45e-01	0	35	104	0	76	10367
2026-01-18 04:53:44.75	80.49	3.98	-52.8	-61.6	3.8	7.45e-01	0	35	104	0	76	10354
2026-01-18 04:53:45.76	80.37	4.05	-52.8	-61.6	3.8	7.45e-01	0	35	104	0	76	10377
2026-01-18 04:53:46.77	80.24	4.11	-52.8	-61.6	3.8	7.46e-01	0	35	104	0	76	10356
2026-01-18 04:53:47.77	80.12	4.17	-52.8	-61.6	3.8	7.46e-01	0	35	104	0	76	10360
2026-01-18 04:53:48.78	79.99	4.23	-52.8	-61.6	3.8	7.45e-01	0	35	104	0	76	10337
2026-01-18 04:53:49.79	79.87	4.29	-52.8	-61.6	3.8	7.46e-01	0	35	104	0	76	10359
2026-01-18 04:53:50.80	79.74	4.36	-52.8	-61.6	3.8	7.46e-01	0	35	104	0	76	10358
2026-01-18 04:53:51.81	79.61	4.42	-52.8	-61.6	3.8	7.46e-01	0	35	104	0	76	10365
2026-01-18 04:53:52.81	79.48	4.48	-52.8	-61.6	3.8	7.46e-01	0	35	104	0	76	10389
2026-01-18 04:53:53.82	79.35	4.54	-52.8	-61.6	3.8	7.45e-01	0	35	104	0	76	10362
2026-01-18 04:53:54.83	79.22	4.61	-52.8	-61.6	3.8	7.45e-01	0	35	104	0	76	10372
2026-01-18 04:53:55.83	79.09	4.67	-52.8	-61.6	3.8	7.46e-01	0	35	104	0	76	10381
2026-01-18 04:53:56.84	78.96	4.73	-52.8	-61.6	3.8	7.45e-01	0	35	104	0	76	10343
2026-01-18 04:53:57.85	78.83	4.79	-52.8	-61.6	3.8	7.47e-01	0	35	104	0	76	10368
2026-01-18 04:53:58.86	78.70	4.86	-52.8	-61.6	3.8	7.46e-01	0	35	104	0	76	10380
2026-01-18 04:53:59.87	78.56	4.92	-52.8	-61.6	3.8	7.44e-01	0	35	104	0	76	10349
2026-01-18 04:54:00.87	78.43	4.98	-52.8	-61.6	3.8	7.45e-01	0	35	104	0	76	10361
2026-01-18 04:54:01.88	78.29	5.05	-52.8	-61.6	3.8	7.45e-01	0	35	104	0	76	10352
2026-01-18 04:54:02.89	78.16	5.11	-52.9	-61.7	3.8	7.43e-01	0	35	104	0	76	10499
2026-01-18 04:54:03.90	78.02	5.17	-53.0	-61.8	3.8	7.46e-01	0	35	104	0	76	10619
2026-01-18 04:54:04.90	77.88	5.24	-52.7	-61.5	3.8	7.46e-01	0	35	104	0	76	10250
2026-01-18 04:54:05.91	77.75	5.30	-52.9	-61.7	3.8	7.47e-01	0	35	104	0	76	10530
2026-01-18 04:54:06.92	77.61	5.36	-52.8	-61.6	3.8	7.44e-01	0	35	104	0	76	10411
2026-01-18 04:54:07.93	77.47	5.43	-53.0	-61.8	3.8	7.45e-01	0	35	104	0	76	10654
2026-01-18 04:54:08.93	77.33	5.49	-52.8	-61.6	3.8	7.46e-01	0	35	104	0	76	10340
2026-01-18 04:54:09.94	77.19	5.56	-52.9	-61.8	3.8	7.46e-01	0	35	104	0	76	10571
2026-01-18 04:54:10.95	77.04	5.62	-52.9	-61.7	3.8	7.48e-01	0	35	104	0	76	10482
2026-01-18 04:54:11.96	76.90	5.68	-53.1	-61.9	3.8	7.44e-01	0	35	104	0	76	10701
2026-01-18 04:54:12.96	76.76	5.75	-52.8	-61.6	3.8	7.44e-01	0	35	104	0	76	10406
2026-01-18 04:54:13.97	76.61	5.81	-53.0	-61.8	3.8	7.44e-01	0	35	104	0	76	10623
2026-01-18 04:54:14.98	76.47	5.88	-52.9	-61.7	3.8	7.46e-01	0	35	104	0	76	10531
2026-01-18 04:54:15.99	76.32	5.94	-53.1	-61.9	3.8	7.45e-01	0	35	104	0	76	10757
2026-01-18 04:54:16.99	76.17	6.00	-52.9	-61.7	3.8	7.46e-01	0	35	104	0	76	10497
2026-01-18 04:54:18.00	76.03	6.07	-53.0	-61.9	3.8	7.45e-01	0	35	104	0	76	10667
2026-01-18 04:54:19.01	75.88	6.13	-53.0	-61.8	3.8	7.43e-01	0	35	104	0	76	10549
2026-01-18 04:54:20.02	75.73	6.20	-53.1	-62.0	3.8	7.43e-01	0	35	104	0	76	10790
2026-01-18 04:54:21.03	75.58	6.26	-52.9	-61.7	3.8	7.43e-01	0	35	104	0	76	10512
2026-01-18 04:54:22.04	75.42	6.33	-53.1	-61.9	3.8	7.45e-01	0	35	104	0	76	10724
2026-01-18 04:54:23.04	75.27	6.39	-53.0	-61.8	3.8	7.45e-01	0	35	104	0	76	10615
2026-01-18 04:54:24.05	75.12	6.46	-53.2	-62.0	3.8	7.45e-01	0	35	104	0	76	10882
2026-01-18 04:54:25.06	74.97	6.52	-53.0	-61.8	3.8	7.47e-01	0	35	104	0	76	10579
2026-01-18 04:54:26.06	74.81	6.59	-53.1	-62.0	3.8	7.44e-01	0	35	104	0	76	10790
2026-01-18 04:54:27.07	74.66	6.65	-53.0	-61.9	3.8	7.46e-01	0	35	104	0	76	10704
2026-01-18 04:54:28.08	74.50	6.72	-53.2	-62.0	3.8	7.44e-01	0	35	104	0	76	10831
2026-01-18 04:54:29.09	74.34	6.78	-53.0	-61.8	3.8	7.46e-01	0	35	104	0	76	10618
2026-01-18 04:54:30.10	74.18	6.85	-53.1	-62.0	3.8	7.45e-01	0	35	104	0	76	10793
2026-01-18 04:54:31.10	74.03	6.91	-53.1	-61.9	3.8	7.45e-01	0	36	104	0	76	10754
2026-01-18 04:54:32.11	73.86	6.98	-53.2	-62.1	3.8	7.45e-01	0	35	104	0	77	10330
2026-01-18 04:54:33.12	73.70	7.04	-53.1	-61.9	3.8	7.45e-01	0	35	104	0	77	10117
2026-01-18 04:54:34.13	73.54	7.11	-53.2	-62.0	3.8	7.45e-01	0	35	104	0	77	10227
2026-01-18 04:54:35.14	73.38	7.17	-53.2	-62.0	3.8	7.46e-01	0	35	104	0	77	10210
2026-01-18 04:54:36.15	73.21	7.24	-53.3	-62.1	3.8	7.44e-01	0	35	104	0	77	10342
2026-01-18 04:54:37.15	73.05	7.30	-53.1	-61.9	3.8	7.44e-01	0	35	104	0	77	10145
2026-01-18 04:54:38.16	72.88	7.37	-53.2	-62.0	3.8	7.45e-01	0	35	104	0	77	10266
2026-01-18 04:54:39.17	72.72	7.43	-53.2	-62.0	3.8	7.46e-01	0	35	104	0	77	10265
2026-01-18 04:54:40.18	72.55	7.50	-53.3	-62.1	3.8	7.46e-01	0	35	104	0	77	10363
2026-01-18 04:54:41.19	72.38	7.57	-53.2	-62.0	3.8	7.44e-01	0	35	104	0	77	10233
2026-01-18 04:54:42.19	72.21	7.63	-53.2	-62.1	3.8	7.43e-01	0	35	104	0	77	10342
2026-01-18 04:54:43.20	72.04	7.70	-53.2	-62.1	3.8	7.46e-01	0	35	104	0	77	10299
2026-01-18 04:54:44.21	71.87	7.76	-53.3	-62.1	3.8	7.44e-01	0	35	104	0	77	10381
2026-01-18 04:54:45.22	71.69	7.83	-53.2	-62.0	3.8	7.45e-01	0	35	104	0	77	10279
2026-01-18 04:54:46.23	71.52	7.89	-53.3	-62.1	3.8	7.44e-01	0	35	104	0	77	10324
2026-01-18 04:54:47.23	71.35	7.96	-53.3	-62.1	3.8	7.43e-01	0	35	104	0	77	10351
2026-01-18 04:54:48.24	71.17	8.02	-53.3	-62.2	3.8	7.45e-01	0	36	104	0	77	10434
2026-01-18 04:54:49.25	70.99	8.09	-53.2	-62.1	3.8	7.45e-01	0	35	104	0	77	10305
2026-01-18 04:54:50.26	70.82	8.16	-53.3	-62.1	3.8	7.44e-01	0	36	104	0	77	10387
2026-01-18 04:54:51.26	70.64	8.22	-53.3	-62.1	3.8	7.46e-01	0	36	104	0	77	10390
2026-01-18 04:54:52.27	70.46	8.29	-53.3	-62.2	3.8	7.46e-01	0	35	104	0	77	10459
2026-01-18 04:54:53.28	70.28	8.35	-53.3	-62.1	3.8	7.45e-01	0	35	104	0	77	10356
2026-01-18 04:54:54.29	70.10	8.42	-53.3	-62.1	3.8	7.47e-01	0	35	104	0	77	10401
2026-01-18 04:54:55.30	69.91	8.48	-53.3	-62.1	3.8	7.45e-01	0	35	104	0	77	10385
2026-01-18 04:54:56.30	69.73	8.55	-53.4	-62.2	3.8	7.46e-01	0	36	104	0	77	10477
2026-01-18 04:54:57.31	69.55	8.62	-53.3	-62.1	3.8	7.47e-01	0	35	104	0	77	10392
2026-01-18 04:54:58.32	69.36	8.68	-53.3	-62.2	3.8	7.44e-01	0	35	104	0	77	10432
2026-01-18 04:54:59.33	69.17	8.75	-53.3	-62.2	3.8	7.46e-01	0	36	104	0	77	10450
2026-01-18 04:55:00.34	68.98	8.81	-53.4	-62.2	3.8	7.45e-01	0	35	104	0	77	10504
2026-01-18 04:55:01.35	68.79	8.88	-53.3	-62.2	3.8	7.45e-01	0	36	104	0	77	10430
2026-01-18 04:55:02.35	68.61	8.94	-53.4	-62.2	3.8	7.45e-01	0	35	104	0	77	10485
2026-01-18 04:55:03.36	68.41	9.01	-53.4	-62.2	3.8	7.45e-01	0	36	104	0	77	10502
2026-01-18 04:55:04.37	68.22	9.08	-53.4	-62.3	3.8	7.46e-01	0	36	104	0	77	10581
2026-01-18 04:55:05.38	68.03	9.14	-53.3	-62.2	3.8	7.44e-01	0	35	104	0	77	10432
2026-01-18 04:55:06.38	67.83	9.21	-53.4	-62.2	3.8	7.45e-01	0	35	104	0	77	10522
2026-01-18 04:55:07.39	67.64	9.27	-53.4	-62.2	3.8	7.46e-01	0	35	104	0	77	10500
2026-01-18 04:55:08.40	67.44	9.34	-53.4	-62.3	3.8	7.46e-01	0	36	104	0	77	10546
2026-01-18 04:55:09.41	67.24	9.40	-53.4	-62.2	3.8	7.45e-01	0	35	104	0	77	10495
2026-01-18 04:55:10.42	67.04	9.47	-53.4	-62.3	3.8	7.46e-01	0	35	104	0	77	10564
2026-01-18 04:55:11.43	66.84	9.53	-53.4	-62.3	3.8	7.46e-01	0	36	104	0	77	10557
2026-01-18 04:55:12.43	66.64	9.60	-53.5	-62.3	3.8	7.45e-01	0	36	104	0	77	10575
2026-01-18 04:55:13.44	66.44	9.66	-53.4	-62.2	3.8	7.45e-01	0	36	104	0	77	10527
2026-01-18 04:55:14.45	66.24	9.73	-53.4	-62.3	3.8	7.45e-01	0	35	104	0	77	10572
2026-01-18 04:55:15.46	66.03	9.79	-53.5	-62.3	3.8	7.45e-01	0	35	104	0	77	10589
2026-01-18 04:55:16.47	65.83	9.86	-53.5	-62.3	3.8	7.45e-01	0	36	104	0	77	10624
2026-01-18 04:55:17.48	65.62	9.92	-53.4	-62.3	3.8	7.45e-01	0	36	104	0	77	10538
2026-01-18 04:55:18.49	65.41	9.99	-53.5	-62.3	3.8	7.45e-01	0	35	104	0	77	10584
2026-01-18 04:55:19.50	65.20	10.05	-53.5	-62.3	3.8	7.45e-01	0	36	104	0	77	10624
2026-01-18 04:55:20.50	64.99	10.12	-53.5	-62.3	3.8	7.46e-01	0	35	104	0	77	10612
2026-01-18 04:55:21.51	64.78	10.18	-53.4	-62.3	3.8	7.46e-01	0	35	104	0	77	10607
2026-01-18 04:55:22.52	64.57	10.25	-53.5	-62.3	3.8	7.46e-01	0	36	104	0	77	10586
2026-01-18 04:55:23.53	64.35	10.31	-53.5	-62.4	3.8	7.44e-01	0	36	104	0	77	10661
2026-01-18 04:55:24.54	64.14	10.38	-53.5	-62.3	3.8	7.45e-01	0	36	104	0	77	10641
2026-01-18 04:55:25.54	63.92	10.44	-53.5	-62.3	3.8	7.45e-01	0	35	104	0	77	10571
2026-01-18 04:55:26.55	63.70	10.50	-53.5	-62.4	3.8	7.45e-01	0	35	104	0	77	10675
2026-01-18 04:55:27.56	63.49	10.57	-53.5	-62.4	3.8	7.44e-01	0	36	104	0	77	10705
2026-01-18 04:55:28.57	63.27	10.63	-53.5	-62.4	3.8	7.45e-01	0	35	104	0	77	10676
2026-01-18 04:55:29.58	63.04	10.70	-53.5	-62.3	3.8	7.46e-01	0	36	104	0	77	10612
2026-01-18 04:55:30.58	62.82	10.76	-53.5	-62.4	3.8	7.46e-01	0	36	104	0	77	10672
2026-01-18 04:55:31.59	62.60	10.82	-53.6	-62.4	3.8	7.45e-01	0	35	104	0	77	10728
2026-01-18 04:55:32.60	62.37	10.89	-53.5	-62.4	3.8	7.47e-01	0	36	104	0	77	10695
2026-01-18 04:55:33.61	62.15	10.95	-53.5	-62.3	3.8	7.46e-01	0	36	104	0	77	10649
2026-01-18 04:55:34.62	61.92	11.01	-53.5	-62.4	3.8	7.44e-01	0	35	104	0	77	10733
2026-01-18 04:55:35.63	61.69	11.08	-53.6	-62.4	3.8	7.45e-01	0	36	104	0	77	10749
2026-01-18 04:55:36.63	61.47	11.14	-53.5	-62.3	3.8	7.46e-01	0	36	104	0	77	10645
2026-01-18 04:55:37.64	61.23	11.20	-53.5	-62.4	3.8	7.47e-01	0	35	104	0	77	10705
2026-01-18 04:55:38.65	61.00	11.26	-53.6	-62.4	3.8	7.46e-01	0	35	104	0	77	10723
2026-01-18 04:55:39.66	60.77	11.33	-53.6	-62.4	3.8	7.45e-01	0	36	104	0	77	10778
2026-01-18 04:55:40.66	60.54	11.39	-53.5	-62.4	3.8	7.46e-01	0	36	104	0	77	10700
2026-01-18 04:55:41.67	60.30	11.45	-53.6	-62.4	3.8	7.45e-01	0	36	104	0	77	10733
2026-01-18 04:55:42.68	60.06	11.51	-53.6	-62.4	3.8	7.45e-01	0	36	104	0	77	10737
2026-01-18 04:55:43.69	59.82	11.57	-53.6	-62.4	3.8	7.45e-01	0	36	104	0	77	10762
2026-01-18 04:55:44.70	59.59	11.63	-53.6	-62.4	3.8	7.45e-01	0	36	104	0	77	10729
2026-01-18 04:55:45.71	59.34	11.69	-53.6	-62.4	3.8	7.44e-01	0	36	104	0	77	10741
2026-01-18 04:55:46.71	59.10	11.75	-53.6	-62.4	3.8	7.45e-01	0	36	104	0	77	10775
2026-01-18 04:55:47.72	58.86	11.82	-53.6	-62.4	3.8	7.46e-01	0	36	104	0	77	10777
2026-01-18 04:55:48.73	58.62	11.88	-53.6	-62.4	3.8	7.45e-01	0	36	104	0	77	10695
2026-01-18 04:55:49.73	58.37	11.94	-53.6	-62.5	3.8	7.45e-01	0	36	104	0	77	10784
2026-01-18 04:55:50.74	58.13	11.99	-53.6	-62.4	3.8	7.45e-01	0	36	104	0	77	10753
2026-01-18 04:55:51.75	57.88	12.05	-53.6	-62.5	3.8	7.45e-01	0	36	104	0	77	10822
2026-01-18 04:55:52.76	57.63	12.11	-53.6	-62.4	3.8	7.45e-01	0	36	104	0	77	10734
2026-01-18 04:55:53.76	57.38	12.17	-53.6	-62.4	3.8	7.45e-01	0	36	104	0	77	10763
2026-01-18 04:55:54.77	57.13	12.23	-53.6	-62.4	3.8	7.45e-01	0	36	104	0	77	10759
2026-01-18 04:55:55.78	56.88	12.29	-53.6	-62.5	3.8	7.45e-01	0	36	104	0	77	10828
2026-01-18 04:55:56.79	56.62	12.35	-53.6	-62.4	3.8	7.46e-01	0	36	104	0	77	10761
2026-01-18 04:55:57.80	56.37	12.41	-53.6	-62.5	3.8	7.46e-01	0	36	104	0	77	10784
2026-01-18 04:55:58.80	56.11	12.46	-53.6	-62.4	3.8	7.47e-01	0	36	104	0	77	10732
2026-01-18 04:55:59.81	55.85	12.52	-53.6	-62.5	3.8	7.44e-01	0	36	104	0	77	10797
2026-01-18 04:56:00.82	55.60	12.58	-53.6	-62.5	3.8	7.45e-01	0	35	104	0	77	10784
2026-01-18 04:56:01.83	55.33	12.63	-53.6	-62.4	3.8	7.46e-01	0	36	104	0	77	10774
2026-01-18 04:56:02.83	55.08	12.69	-53.6	-62.5	3.8	7.44e-01	0	36	104	0	77	10800
2026-01-18 04:56:03.84	54.81	12.75	-53.7	-62.5	3.8	7.45e-01	0	36	104	0	77	10827
2026-01-18 04:56:04.85	54.55	12.80	-53.6	-62.4	3.8	7.46e-01	0	36	104	0	77	10776
2026-01-18 04:56:05.86	54.28	12.86	-53.6	-62.5	3.8	7.45e-01	0	35	104	0	77	10804
2026-01-18 04:56:06.87	54.02	12.91	-53.6	-62.5	3.8	7.46e-01	0	36	104	0	77	10816
2026-01-18 04:56:07.87	53.75	12.97	-53.7	-62.5	3.8	7.46e-01	0	36	104	0	77	10873
2026-01-18 04:56:08.88	53.48	13.02	-53.6	-62.5	3.8	7.46e-01	0	36	104	0	77	10825
2026-01-18 04:56:09.89	53.21	13.08	-53.7	-62.5	3.8	7.45e-01	0	36	104	0	77	10810
2026-01-18 04:56:10.90	52.94	13.13	-53.7	-62.5	3.8	7.44e-01	0	36	104	0	77	10826
2026-01-18 04:56:11.90	52.67	13.18	-53.7	-62.5	3.8	7.44e-01	0	36	104	0	77	10885
2026-01-18 04:56:12.91	52.40	13.23	-53.7	-62.5	3.8	7.46e-01	0	36	104	0	77	10823
2026-01-18 04:56:13.92	52.12	13.29	-53.7	-62.5	3.8	7.45e-01	0	36	104	0	77	10879
2026-01-18 04:56:14.93	51.85	13.34	-53.7	-62.5	3.8	7.45e-01	0	36	104	0	77	10872
2026-01-18 04:56:15.94	51.57	13.39	-53.7	-62.5	3.8	7.45e-01	0	36	104	0	77	10868
2026-01-18 04:56:16.94	51.29	13.44	-53.7	-62.5	3.8	7.46e-01	0	36	104	0	77	10822
2026-01-18 04:56:17.95	51.02	13.49	-53.7	-62.5	3.8	7.47e-01	0	36	104	0	77	10850
2026-01-18 04:56:18.96	50.73	13.54	-53.7	-62.5	3.8	7.47e-01	0	36	104	0	77	10872
2026-01-18 04:56:19.97	50.45	13.59	-53.7	-62.6	3.8	7.45e-01	0	36	104	0	77	10924
2026-01-18 04:56:20.97	50.17	13.64	-53.7	-62.5	3.8	7.45e-01	0	36	104	0	77	10867
2026-01-18 04:56:21.98	49.89	13.69	-53.7	-62.5	3.8	7.46e-01	0	36	104	0	77	10858
2026-01-18 04:56:22.99	49.60	13.74	-53.7	-62.5	3.8	7.45e-01	0	36	104	0	77	10848
2026-01-18 04:56:24.00	49.32	13.79	-53.7	-62.6	3.8	7.45e-01	0	36	104	0	78	10317
2026-01-18 04:56:25.01	49.03	13.83	-53.7	-62.5	3.8	7.46e-01	0	36	104	0	78	10254
2026-01-18 04:56:26.01	48.74	13.88	-53.7	-62.5	3.8	7.47e-01	0	36	104	0	78	10286
2026-01-18 04:56:27.02	48.45	13.93	-53.7	-62.6	3.8	7.47e-01	0	36	104	0	78	10299
2026-01-18 04:56:28.03	48.16	13.97	-53.8	-62.6	3.8	7.45e-01	0	36	104	0	78	10312
2026-01-18 04:56:29.04	47.87	14.02	-53.7	-62.6	3.8	7.44e-01	0	36	104	0	78	10313
2026-01-18 04:56:30.04	47.58	14.06	-53.7	-62.6	3.8	7.45e-01	0	36	104	0	78	10303
2026-01-18 04:56:31.05	47.29	14.11	-53.7	-62.6	3.8	7.47e-01	0	36	104	0	78	10333
2026-01-18 04:56:32.06	46.99	14.15	-53.8	-62.6	3.8	7.46e-01	0	36	104	0	78	10344
2026-01-18 04:56:33.07	46.70	14.19	-53.7	-62.5	3.8	7.45e-01	0	36	104	0	78	10244
2026-01-18 04:56:34.08	46.40	14.24	-53.7	-62.5	3.8	7.44e-01	0	36	104	0	78	10280
2026-01-18 04:56:35.09	46.10	14.28	-53.7	-62.5	3.8	7.46e-01	0	36	104	0	78	10288
2026-01-18 04:56:36.09	45.81	14.32	-53.8	-62.6	3.8	7.44e-01	0	36	104	0	78	10355
2026-01-18 04:56:37.10	45.51	14.36	-53.7	-62.6	3.8	7.44e-01	0	36	104	0	78	10309
2026-01-18 04:56:38.11	45.21	14.40	-53.7	-62.6	3.8	7.44e-01	0	36	104	0	78	10365
2026-01-18 04:56:39.12	44.90	14.44	-53.7	-62.6	3.8	7.45e-01	0	36	104	0	78	10339
2026-01-18 04:56:40.12	44.60	14.48	-53.8	-62.6	3.8	7.44e-01	0	36	104	0	78	10390
2026-01-18 04:56:41.13	44.30	14.52	-53.7	-62.5	3.8	7.46e-01	0	36	104	0	78	10277
2026-01-18 04:56:42.14	43.99	14.56	-53.8	-62.6	3.8	7.44e-01	0	36	104	0	78	10373
2026-01-18 04:56:43.15	43.69	14.59	-53.7	-62.6	3.8	7.46e-01	0	36	104	0	78	10322
2026-01-18 04:56:44.15	43.39	14.63	-53.8	-62.6	3.8	7.45e-01	0	36	104	0	78	10387
2026-01-18 04:56:45.16	43.08	14.67	-53.7	-62.6	3.8	7.46e-01	0	36	104	0	78	10338
2026-01-18 04:56:46.17	42.77	14.70	-53.8	-62.6	3.8	7.46e-01	0	36	104	0	78	10316
2026-01-18 04:56:47.17	42.46	14.74	-53.7	-62.6	3.8	7.46e-01	0	36	104	0	78	10313
2026-01-18 04:56:48.18	42.15	14.77	-53.8	-62.6	3.8	7.46e-01	0	36	104	0	78	10390
2026-01-18 04:56:49.19	41.84	14.80	-53.7	-62.6	3.8	7.47e-01	0	36	104	0	78	10322
2026-01-18 04:56:50.20	41.53	14.84	-53.8	-62.6	3.8	7.45e-01	0	36	104	0	78	10335
2026-01-18 04:56:51.21	41.22	14.87	-53.8	-62.6	3.8	7.46e-01	0	36	104	0	78	10339
2026-01-18 04:56:52.21	40.91	14.90	-53.8	-62.6	3.8	7.44e-01	0	36	104	0	78	10379
2026-01-18 04:56:53.22	40.59	14.93	-53.7	-62.6	3.8	7.45e-01	0	36	104	0	78	10312
2026-01-18 04:56:54.23	40.28	14.96	-53.8	-62.6	3.8	7.44e-01	0	36	104	0	78	10300
2026-01-18 04:56:55.24	39.96	14.99	-53.8	-62.6	3.8	7.46e-01	0	36	104	0	78	10346
2026-01-18 04:56:56.24	39.65	15.02	-53.8	-62.6	3.8	7.46e-01	0	36	104	0	78	10392
2026-01-18 04:56:57.25	39.33	15.05	-53.7	-62.6	3.8	7.46e-01	0	36	104	0	78	10306
2026-01-18 04:56:58.26	39.01	15.07	-53.8	-62.6	3.8	7.45e-01	0	36	104	0	78	10369
2026-01-18 04:56:59.27	38.70	15.10	-53.8	-62.6	3.8	7.45e-01	0	36	104	0	78	10341
2026-01-18 04:57:00.28	38.38	15.13	-53.8	-62.6	3.8	7.46e-01	0	36	104	0	78	10396
2026-01-18 04:57:01.28	38.06	15.15	-53.7	-62.5	3.8	7.46e-01	0	36	104	0	78	10283
2026-01-18 04:57:02.29	37.74	15.17	-53.8	-62.6	3.8	7.43e-01	0	36	104	0	78	10370
2026-01-18 04:57:03.30	37.42	15.20	-53.8	-62.6	3.8	7.44e-01	0	36	104	0	78	10351
2026-01-18 04:57:04.30	37.10	15.22	-53.8	-62.6	3.8	7.45e-01	0	36	104	0	78	10348
2026-01-18 04:57:05.31	36.78	15.24	-53.8	-62.6	3.8	7.44e-01	0	36	104	0	78	10360
2026-01-18 04:57:06.32	36.45	15.26	-53.8	-62.6	3.8	7.46e-01	0	36	104	0	78	10361
2026-01-18 04:57:07.33	36.13	15.28	-53.8	-62.6	3.8	7.45e-01	0	36	104	0	78	10387
2026-01-18 04:57:08.34	35.81	15.30	-53.8	-62.6	3.8	7.47e-01	0	36	104	0	78	10388
2026-01-18 04:57:09.34	35.49	15.32	-53.8	-62.6	3.8	7.45e-01	0	36	104	0	78	10312
2026-01-18 04:57:10.35	35.16	15.34	-53.8	-62.6	3.8	7.46e-01	0	36	104	0	78	10388
2026-01-18 04:57:11.36	34.84	15.36	-53.8	-62.6	3.8	7.43e-01	0	36	104	0	78	10357
2026-01-18 04:57:12.37	34.51	15.37	-53.8	-62.7	3.8	7.45e-01	0	36	104	0	78	10432
2026-01-18 04:57:13.37	34.19	15.39	-53.8	-62.6	3.8	7.45e-01	0	36	104	0	78	10384
2026-01-18 04:57:14.38	33.86	15.40	-53.8	-62.7	3.8	7.45e-01	0	36	104	0	78	10418
2026-01-18 04:57:15.39	33.53	15.42	-53.8	-62.6	3.8	7.46e-01	0	36	104	0	78	10379
2026-01-18 04:57:16.39	33.21	15.43	-53.8	-62.7	3.8	7.46e-01	0	36	104	0	78	10430
2026-01-18 04:57:17.40	32.88	15.44	-53.8	-62.6	3.8	7.44e-01	0	36	104	0	78	10347
2026-01-18 04:57:18.41	32.56	15.46	-53.8	-62.6	3.8	7.45e-01	0	36	104	0	78	10369
2026-01-18 04:57:19.42	32.23	15.47	-53.8	-62.6	3.8	7.45e-01	0	36	104	0	78	10407
2026-01-18 04:57:20.43	31.90	15.48	-53.8	-62.6	3.8	7.45e-01	0	36	104	0	78	10402
2026-01-18 04:57:21.43	31.57	15.49	-53.8	-62.6	3.8	7.45e-01	0	36	104	0	78	10366
2026-01-18 04:57:22.44	31.24	15.49	-53.8	-62.6	3.8	7.44e-01	0	36	104	0	78	10384
2026-01-18 04:57:23.45	30.92	15.50	-53.8	-62.7	3.8	7.45e-01	0	36	104	0	78	10416
2026-01-18 04:57:24.46	30.59	15.51	-53.8	-62.6	3.8	7.46e-01	0	36	104	0	78	10331
2026-01-18 04:57:25.47	30.26	15.52	-53.8	-62.6	3.8	7.45e-01	0	36	104	0	78	10380
2026-01-18 04:57:26.47	29.93	15.52	-53.8	-62.7	3.8	7.46e-01	0	36	104	0	78	10415
2026-01-18 04:57:27.48	29.60	15.52	-53.8	-62.6	3.8	7.44e-01	0	36	104	0	78	10408
2026-01-18 04:57:28.49	29.27	15.53	-53.8	-62.7	3.8	7.46e-01	0	36	104	0	78	10446
2026-01-18 04:57:29.50	28.94	15.53	-53.8	-62.6	3.8	7.47e-01	0	36	104	0	78	10398
2026-01-18 04:57:30.51	28.61	15.53	-53.8	-62.6	3.8	7.46e-01	0	36	104	0	78	10405
2026-01-18 04:57:31.51	28.29	15.53	-53.8	-62.7	3.8	7.45e-01	0	36	104	0	78	10415
2026-01-18 04:57:32.52	27.96	15.53	-53.8	-62.6	3.8	7.46e-01	0	36	104	0	78	10390
2026-01-18 04:57:33.53	27.63	15.53	-53.8	-62.6	3.8	7.47e-01	0	36	104	0	78	10401
2026-01-18 04:57:34.54	27.30	15.53	-53.8	-62.7	3.8	7.46e-01	0	36	104	0	78	10413
2026-01-18 04:57:35.54	26.97	15.53	-53.8	-62.7	3.8	7.47e-01	0	36	104	0	78	10443
2026-01-18 04:57:36.55	26.64	15.53	-53.8	-62.6	3.8	7.45e-01	0	36	104	0	78	10402
2026-01-18 04:57:37.56	26.31	15.52	-53.8	-62.7	3.8	7.44e-01	0	36	104	0	78	10415
2026-01-18 04:57:38.57	25.98	15.52	-53.8	-62.6	3.8	7.45e-01	0	36	104	0	78	10373
2026-01-18 04:57:39.58	25.65	15.51	-53.8	-62.7	3.8	7.44e-01	0	36	104	0	78	10430
2026-01-18 04:57:40.59	25.32	15.51	-53.8	-62.6	3.8	7.45e-01	0	36	104	0	78	10407
2026-01-18 04:57:41.59	25.00	15.50	-53.8	-62.6	3.8	7.45e-01	0	36	104	0	78	10358
2026-01-18 04:57:42.60	24.67	15.49	-53.8	-62.7	3.8	7.45e-01	0	36	104	0	78	10415
2026-01-18 04:57:43.61	24.34	15.48	-53.8	-62.7	3.8	7.45e-01	0	36	104	0	78	10433
2026-01-18 04:57:44.62	24.01	15.47	-53.8	-62.6	3.8	7.44e-01	0	36	104	0	78	10404
2026-01-18 04:57:45.63	23.68	15.46	-53.8	-62.6	3.8	7.47e-01	0	36	104	0	78	10400
2026-01-18 04:57:46.63	23.36	15.45	-53.8	-62.6	3.8	7.45e-01	0	36	104	0	78	10390
2026-01-18 04:57:47.64	23.03	15.44	-53.8	-62.7	3.8	7.44e-01	0	36	104	0	78	10425
2026-01-18 04:57:48.65	22.70	15.43	-53.8	-62.6	3.8	7.46e-01	0	36	104	0	78	10367
2026-01-18 04:57:49.65	22.38	15.41	-53.8	-62.7	3.8	7.46e-01	0	36	104	0	78	10419
2026-01-18 04:57:50.67	22.05	15.40	-53.8	-62.6	3.8	7.45e-01	0	36	104	0	78	10400
2026-01-18 04:57:51.67	21.73	15.38	-53.8	-62.6	3.8	7.47e-01	0	36	104	0	78	10412
2026-01-18 04:57:52.68	21.40	15.37	-53.8	-62.6	3.8	7.46e-01	0	36	104	0	78	10389
2026-01-18 04:57:53.69	21.08	15.35	-53.8	-62.6	3.8	7.45e-01	0	36	104	0	78	10386
2026-01-18 04:57:54.70	20.75	15.33	-53.8	-62.6	3.8	7.46e-01	0	36	104	0	78	10407
2026-01-18 04:57:55.70	20.43	15.31	-53.8	-62.7	3.8	7.43e-01	0	36	104	0	78	10430
2026-01-18 04:57:56.71	20.11	15.29	-53.8	-62.6	3.8	7.44e-01	0	36	104	0	78	10398
2026-01-18 04:57:57.72	19.78	15.27	-53.8	-62.6	3.8	7.46e-01	0	36	104	0	78	10408
2026-01-18 04:57:58.73	19.46	15.25	-53.8	-62.7	3.8	7.47e-01	0	36	104	0	78	10423
2026-01-18 04:57:59.74	19.14	15.23	-53.8	-62.7	3.8	7.45e-01	0	36	104	0	78	10461
2026-01-18 04:58:00.75	18.82	15.21	-53.8	-62.6	3.8	7.47e-01	0	36	104	0	78	10399
2026-01-18 04:58:01.75	18.50	15.19	-53.8	-62.7	3.8	7.45e-01	0	36	104	0	78	10430
2026-01-18 04:58:02.76	18.18	15.16	-53.8	-62.6	3.8	7.44e-01	0	36	104	0	78	10386
2026-01-18 04:58:03.77	17.86	15.14	-53.8	-62.7	3.8	7.45e-01	0	36	104	0	78	10484
2026-01-18 04:58:04.78	17.54	15.11	-53.8	-62.7	3.8	7.45e-01	0	36	104	0	78	10421
2026-01-18 04:58:05.79	17.22	15.09	-53.8	-62.6	3.8	7.47e-01	0	36	104	0	78	10407
2026-01-18 04:58:06.79	16.91	15.06	-53.8	-62.7	3.8	7.46e-01	0	36	104	0	78	10436
2026-01-18 04:58:07.80	16.59	15.03	-53.8	-62.7	3.8	7.47e-01	0	36	104	0	78	10457
2026-01-18 04:58:08.81	16.27	15.00	-53.8	-62.6	3.8	7.46e-01	0	36	104	0	78	10403
2026-01-18 04:58:09.82	15.96	14.97	-53.8	-62.7	3.8	7.46e-01	0	36	104	0	78	10441
2026-01-18 04:58:10.82	15.64	14.95	-53.8	-62.7	3.8	7.47e-01	0	36	104	0	78	10415
2026-01-18 04:58:11.83	15.33	14.91	-53.8	-62.7	3.8	7.45e-01	0	36	104	0	78	10499
2026-01-18 04:58:12.84	15.02	14.88	-53.8	-62.7	3.8	7.45e-01	0	36	104	0	78	10415
2026-01-18 04:58:13.84	14.71	14.85	-53.8	-62.6	3.8	7.44e-01	0	36	104	0	78	10393
2026-01-18 04:58:14.85	14.40	14.82	-53.8	-62.7	3.8	7.46e-01	0	36	104	0	78	10415
2026-01-18 04:58:15.86	14.08	14.79	-53.8	-62.6	3.8	7.44e-01	0	36	104	0	78	10408
2026-01-18 04:58:16.87	13.77	14.75	-53.8	-62.6	3.8	7.46e-01	0	36	104	0	78	10379
2026-01-18 04:58:17.88	13.46	14.72	-53.8	-62.6	3.8	7.46e-01	0	36	104	0	78	10400
2026-01-18 04:58:18.89	13.16	14.68	-53.8	-62.6	3.8	7.47e-01	0	36	104	0	78	10409
2026-01-18 04:58:19.89	12.85	14.65	-53.8	-62.7	3.8	7.46e-01	0	36	104	0	78	10429
2026-01-18 04:58:20.90	12.55	14.61	-53.8	-62.6	3.8	7.45e-01	0	36	104	0	78	10357
2026-01-18 04:58:21.91	12.24	14.58	-53.8	-62.7	3.8	7.45e-01	0	36	104	0	78	10432
2026-01-18 04:58:22.92	11.93	14.54	-53.8	-62.6	3.8	7.45e-01	0	36	104	0	78	10386
2026-01-18 04:58:23.93	11.63	14.50	-53.8	-62.7	3.8	7.45e-01	0	36	104	0	78	10459
2026-01-18 04:58:24.93	11.33	14.46	-53.8	-62.7	3.8	7.45e-01	0	36	104	0	78	10446
2026-01-18 04:58:25.94	11.03	14.42	-53.8	-62.6	3.8	7.46e-01	0	36	104	0	78	10407
2026-01-18 04:58:26.95	10.73	14.38	-53.8	-62.6	3.8	7.45e-01	0	36	104	0	78	10373
2026-01-18 04:58:27.96	10.43	14.34	-53.8	-62.7	3.8	7.44e-01	0	36	104	0	78	10469
2026-01-18 04:58:28.97	10.13	14.30	-53.8	-62.6	3.8	7.46e-01	0	36	104	0	78	10391
2026-01-18 04:58:29.98	9.83	14.26	-53.8	-62.6	3.8	7.46e-01	0	36	104	0	78	10378
2026-01-18 04:58:30.99	9.53	14.22	-53.8	-62.6	3.8	7.44e-01	0	36	104	0	78	10397
2026-01-18 04:58:31.99	9.24	14.17	-53.8	-62.7	3.8	7.46e-01	0	36	104	0	78	10427
2026-01-18 04:58:33.00	8.95	14.13	-53.8	-62.6	3.8	7.44e-01	0	36	104	0	78	10362
2026-01-18 04:58:34.01	8.65	14.09	-53.8	-62.6	3.8	7.44e-01	0	36	104	0	78	10387
2026-01-18 04:58:35.02	8.36	14.04	-53.8	-62.6	3.8	7.46e-01	0	36	104	0	78	10398
2026-01-18 04:58:36.02	8.07	14.00	-53.8	-62.7	3.8	7.46e-01	0	36	104	0	78	10420
2026-01-18 04:58:37.03	7.78	13.95	-53.7	-62.6	3.8	7.44e-01	0	36	104	0	78	10338
2026-01-18 04:58:38.04	7.49	13.90	-53.8	-62.6	3.8	7.43e-01	0	36	104	0	78	10370
2026-01-18 04:58:39.05	7.20	13.86	-53.8	-62.7	3.8	7.45e-01	0	36	104	0	78	10447
2026-01-18 04:58:40.05	6.92	13.81	-53.8	-62.7	3.8	7.45e-01	0	36	104	0	78	10454
2026-01-18 04:58:41.06	6.63	13.76	-53.8	-62.6	3.8	7.45e-01	0	36	104	0	78	10375
2026-01-18 04:58:42.07	6.35	13.72	-53.8	-62.6	3.8	7.46e-01	0	36	104	0	78	10387
2026-01-18 04:58:43.08	6.06	13.67	-53.8	-62.6	3.8	7.43e-01	0	36	104	0	78	10354
2026-01-18 04:58:44.09	5.78	13.62	-53.8	-62.6	3.8	7.45e-01	0	36	104	0	78	10403
2026-01-18 04:58:45.09	5.50	13.57	-53.7	-62.6	3.8	7.45e-01	0	36	104	0	78	10332
2026-01-18 04:58:46.10	5.22	13.52	-53.8	-62.6	3.8	7.44e-01	0	36	104	0	78	10405
2026-01-18 04:58:47.11	4.94	13.47	-53.8	-62.6	3.8	7.46e-01	0	36	104	0	78	10364
2026-01-18 04:58:48.12	4.66	13.42	-53.8	-62.6	3.8	7.46e-01	0	36	104	0	78	10409
2026-01-18 04:58:49.13	4.38	13.37	-53.7	-62.6	3.8	7.46e-01	0	36	104	0	78	10321
2026-01-18 04:58:50.14	4.11	13.31	-53.8	-62.6	3.8	7.46e-01	0	36	104	0	78	10394
2026-01-18 04:58:51.14	3.84	13.26	-53.8	-62.6	3.8	7.47e-01	0	36	104	0	78	10348
2026-01-18 04:58:52.15	3.56	13.21	-53.8	-62.6	3.8	7.45e-01	0	36	104	0	78	10388
2026-01-18 04:58:53.16	3.29	13.16	-53.7	-62.5	3.8	7.44e-01	0	36	104	0	78	10281
2026-01-18 04:58:54.17	3.02	13.10	-53.7	-62.6	3.8	7.45e-01	0	36	104	0	78	10318
2026-01-18 04:58:55.18	2.75	13.05	-53.7	-62.6	3.8	7.45e-01	0	36	104	0	78	10314
2026-01-18 04:58:56.19	2.48	13.00	-53.8	-62.6	3.8	7.45e-01	0	36	104	0	78	10330
2026-01-18 04:58:57.19	2.22	12.94	-53.7	-62.5	3.8	7.44e-01	0	36	104	0	78	10279
2026-01-18 04:58:58.20	1.95	12.89	-53.7	-62.6	3.8	7.45e-01	0	36	104	0	78	10320
2026-01-18 04:58:59.21	1.68	12.83	-53.7	-62.6	3.8	7.44e-01	0	36	104	0	78	10368
2026-01-18 04:59:00.22	1.42	12.78	-53.8	-62.6	3.8	7.46e-01	0	36	104	0	78	10341
2026-01-18 04:59:01.22	1.16	12.72	-53.7	-62.5	3.8	7.46e-01	0	36	104	0	78	10280
2026-01-18 04:59:02.23	0.90	12.67	-53.7	-62.5	3.8	7.45e-01	0	36	104	0	78	10268
2026-01-18 04:59:03.24	0.64	12.61	-53.7	-62.6	3.8	7.43e-01	0	36	104	0	78	10325
2026-01-18 04:59:04.25	0.38	12.55	-53.7	-62.6	3.8	7.45e-01	0	36	104	0	78	10298
2026-01-18 04:59:05.26	0.12	12.50	-53.7	-62.5	3.8	7.44e-01	0	36	104	0	78	10202
2026-01-18 04:59:06.26	359.87	12.44	-53.7	-62.5	3.8	7.45e-01	0	36	104	0	78	10286
2026-01-18 04:59:07.27	359.61	12.38	-53.7	-62.5	3.8	7.44e-01	0	36	104	0	78	10261
2026-01-18 04:59:08.28	359.36	12.32	-53.7	-62.6	3.8	7.46e-01	0	36	104	0	78	10297
2026-01-18 04:59:09.29	359.10	12.26	-53.7	-62.5	3.8	7.44e-01	0	36	104	0	78	10209
2026-01-18 04:59:10.30	358.85	12.21	-53.7	-62.5	3.8	7.46e-01	0	36	104	0	78	10248
2026-01-18 04:59:11.30	358.60	12.15	-53.7	-62.5	3.8	7.44e-01	0	36	104	0	78	10288
2026-01-18 04:59:12.31	358.35	12.09	-53.7	-62.5	3.8	7.45e-01	0	36	104	0	78	10263
2026-01-18 04:59:13.32	358.11	12.03	-53.6	-62.5	3.8	7.46e-01	0	36	104	0	78	10214
2026-01-18 04:59:14.33	357.86	11.97	-53.6	-62.5	3.8	7.46e-01	0	36	104	0	78	10221
2026-01-18 04:59:15.34	357.61	11.91	-53.7	-62.5	3.8	7.46e-01	0	36	104	0	78	10207
2026-01-18 04:59:16.35	357.37	11.85	-53.7	-62.5	3.8	7.44e-01	0	36	104	0	78	10230
2026-01-18 04:59:17.35	357.13	11.79	-53.6	-62.4	3.8	7.46e-01	0	36	104	0	78	10175
2026-01-18 04:59:18.36	356.89	11.73	-53.6	-62.5	3.8	7.45e-01	0	36	104	0	78	10188
2026-01-18 04:59:19.37	356.65	11.67	-53.6	-62.5	3.8	7.47e-01	0	36	104	0	78	10216
2026-01-18 04:59:20.38	356.41	11.61	-53.6	-62.5	3.8	7.47e-01	0	36	104	0	78	10226
2026-01-18 04:59:21.39	356.17	11.55	-53.6	-62.4	3.8	7.44e-01	0	36	104	0	78	10124
2026-01-18 04:59:22.39	355.93	11.48	-53.6	-62.5	3.8	7.46e-01	0	36	104	0	78	10184
2026-01-18 04:59:23.40	355.70	11.42	-53.6	-62.5	3.8	7.44e-01	0	36	104	0	78	10199
2026-01-18 04:59:24.41	355.46	11.36	-53.6	-62.5	3.8	7.46e-01	0	36	104	0	78	10221
2026-01-18 04:59:25.41	355.23	11.30	-53.6	-62.4	3.8	7.44e-01	0	36	104	0	78	10086
2026-01-18 04:59:26.42	355.00	11.24	-53.6	-62.4	3.8	7.46e-01	0	36	104	0	78	10155
2026-01-18 04:59:27.43	354.77	11.18	-53.6	-62.5	3.8	7.45e-01	0	36	104	0	78	10211
2026-01-18 04:59:28.44	354.54	11.11	-53.6	-62.4	3.8	7.46e-01	0	36	104	0	78	10155
2026-01-18 04:59:29.45	354.31	11.05	-53.6	-62.4	3.8	7.46e-01	0	36	104	0	78	10124
2026-01-18 04:59:30.45	354.09	10.99	-53.6	-62.4	3.8	7.46e-01	0	36	104	0	78	10136
2026-01-18 04:59:31.46	353.86	10.92	-53.6	-62.4	3.8	7.44e-01	0	36	104	0	78	10163
2026-01-18 04:59:32.47	353.63	10.86	-53.6	-62.4	3.8	7.45e-01	0	36	104	0	78	10146
2026-01-18 04:59:33.48	353.41	10.80	-53.5	-62.4	3.8	7.46e-01	0	36	104	0	78	10061
2026-01-18 04:59:34.49	353.19	10.73	-53.6	-62.4	3.8	7.44e-01	0	36	104	0	78	10110
2026-01-18 04:59:35.49	352.97	10.67	-53.6	-62.4	3.8	7.46e-01	0	36	104	0	78	10134
2026-01-18 04:59:36.50	352.75	10.61	-53.6	-62.4	3.8	7.45e-01	0	36	104	0	78	10098
2026-01-18 04:59:37.51	352.53	10.54	-53.5	-62.4	3.8	7.45e-01	0	36	104	0	78	10090
2026-01-18 04:59:38.52	352.31	10.48	-53.5	-62.4	3.8	7.44e-01	0	36	104	0	78	10108
2026-01-18 04:59:39.53	352.10	10.42	-53.6	-62.5	3.8	7.46e-01	0	36	104	0	78	10180
2026-01-18 04:59:40.53	351.88	10.35	-53.5	-62.4	3.8	7.45e-01	0	36	104	0	78	10088
2026-01-18 04:59:41.54	351.67	10.29	-53.5	-62.4	3.8	7.46e-01	0	36	104	0	78	10069
2026-01-18 04:59:42.55	351.46	10.22	-53.5	-62.4	3.8	7.45e-01	0	36	104	0	78	10063
2026-01-18 04:59:43.56	351.24	10.16	-53.6	-62.4	3.8	7.44e-01	0	36	104	0	78	10118
2026-01-18 04:59:44.57	351.03	10.09	-53.5	-62.3	3.8	7.47e-01	0	36	104	0	78	10041
2026-01-18 04:59:45.57	350.83	10.03	-53.5	-62.3	3.8	7.47e-01	0	36	104	0	78	10026
2026-01-18 04:59:46.58	350.62	9.97	-53.5	-62.4	3.8	7.45e-01	0	36	104	0	78	10074
2026-01-18 04:59:47.59	350.41	9.90	-53.5	-62.4	3.8	7.45e-01	0	36	104	0	78	10091
2026-01-18 04:59:48.60	350.20	9.84	-53.5	-62.3	3.8	7.45e-01	0	36	104	0	78	10042
2026-01-18 04:59:49.60	350.00	9.77	-53.5	-62.3	3.8	7.47e-01	0	36	104	0	78	10013
2026-01-18 04:59:50.61	349.80	9.71	-53.5	-62.3	3.8	7.45e-01	0	36	104	0	78	10016
2026-01-18 04:59:51.62	349.60	9.64	-53.5	-62.3	3.8	7.44e-01	0	36	104	0	78	10040
2026-01-18 04:59:52.63	349.39	9.58	-53.4	-62.3	3.8	7.46e-01	0	36	104	0	78	9990
2026-01-18 04:59:53.63	349.20	9.51	-53.4	-62.3	3.8	7.46e-01	0	36	104	0	78	9969
2026-01-18 04:59:54.64	349.00	9.45	-53.5	-62.3	3.8	7.48e-01	0	36	104	0	78	10012
2026-01-18 04:59:55.65	348.80	9.38	-53.5	-62.4	3.8	7.45e-01	0	36	104	0	78	10068
2026-01-18 04:59:56.66	348.60	9.32	-53.4	-62.3	3.8	7.44e-01	0	36	104	0	78	9978
2026-01-18 04:59:57.66	348.41	9.25	-53.4	-62.3	3.8	7.45e-01	0	36	104	0	78	9968
2026-01-18 04:59:58.67	348.21	9.19	-53.4	-62.3	3.8	7.43e-01	0	36	104	0	78	9984
2026-01-18 04:59:59.68	348.02	9.12	-53.5	-62.3	3.8	7.44e-01	0	36	104	0	78	10009
2026-01-18 05:00:00.69	347.83	9.05	-53.4	-62.2	3.8	7.46e-01	0	36	104	0	78	9936
2026-01-18 05:00:01.70	347.63	8.99	-53.4	-62.2	3.8	7.46e-01	0	36	104	0	78	9898
2026-01-18 05:00:02.71	347.44	8.92	-53.4	-62.3	3.8	7.46e-01	0	36	104	0	78	10006
2026-01-18 05:00:03.71	347.26	8.86	-53.5	-62.3	3.8	7.45e-01	0	36	104	0	78	9989
2026-01-18 05:00:04.72	347.07	8.79	-53.4	-62.2	3.8	7.45e-01	0	36	104	0	78	9891
2026-01-18 05:00:05.73	346.88	8.73	-53.4	-62.2	3.8	7.45e-01	0	36	104	0	78	9893
2026-01-18 05:00:06.74	346.69	8.66	-53.4	-62.3	3.8	7.43e-01	0	36	104	0	78	9954
2026-01-18 05:00:07.74	346.51	8.60	-53.4	-62.3	3.8	7.45e-01	0	36	104	0	78	9964
2026-01-18 05:00:08.75	346.33	8.53	-53.3	-62.1	3.8	7.44e-01	0	36	104	0	78	9825
2026-01-18 05:00:09.76	346.14	8.47	-53.4	-62.2	3.8	7.45e-01	0	36	104	0	78	9878
2026-01-18 05:00:10.77	345.96	8.40	-53.4	-62.2	3.8	7.45e-01	0	36	104	0	78	9907
2026-01-18 05:00:11.78	345.78	8.33	-53.4	-62.3	3.8	7.45e-01	0	36	104	0	78	9949
2026-01-18 05:00:12.79	345.60	8.27	-53.3	-62.1	3.8	7.45e-01	0	36	104	0	78	9789
2026-01-18 05:00:13.79	345.42	8.20	-53.3	-62.1	3.8	7.46e-01	0	36	104	0	78	9825
2026-01-18 05:00:14.80	345.25	8.14	-53.3	-62.2	3.8	7.46e-01	0	36	104	0	78	9839
2026-01-18 05:00:15.81	345.07	8.07	-53.4	-62.3	3.8	7.46e-01	0	36	104	0	78	9958
2026-01-18 05:00:16.82	344.89	8.01	-53.3	-62.1	3.8	7.45e-01	0	36	104	0	78	9782
2026-01-18 05:00:17.83	344.72	7.94	-53.3	-62.1	3.8	7.46e-01	0	36	104	0	78	9816
2026-01-18 05:00:18.84	344.55	7.87	-53.3	-62.2	3.8	7.45e-01	0	36	104	0	78	9856
2026-01-18 05:00:19.84	344.37	7.81	-53.4	-62.2	3.8	7.46e-01	0	36	104	0	78	9873
2026-01-18 05:00:20.85	344.20	7.74	-53.2	-62.1	3.8	7.45e-01	0	36	104	0	78	9746
2026-01-18 05:00:21.86	344.03	7.68	-53.3	-62.1	3.8	7.45e-01	0	36	104	0	78	9786
2026-01-18 05:00:22.86	343.86	7.61	-53.3	-62.1	3.8	7.44e-01	0	36	104	0	78	9800
2026-01-18 05:00:23.87	343.69	7.55	-53.3	-62.2	3.8	7.44e-01	0	36	104	0	78	9866
2026-01-18 05:00:24.88	343.53	7.48	-53.2	-62.1	3.8	7.46e-01	0	36	104	0	78	9747
2026-01-18 05:00:25.89	343.36	7.42	-53.2	-62.1	3.8	7.45e-01	0	36	104	0	78	9749
2026-01-18 05:00:26.90	343.19	7.35	-53.2	-62.1	3.8	7.47e-01	0	36	104	0	78	9776
2026-01-18 05:00:27.91	343.03	7.29	-53.3	-62.1	3.8	7.45e-01	0	36	104	0	78	9769
2026-01-18 05:00:28.91	342.87	7.22	-53.2	-62.0	3.8	7.46e-01	0	36	104	0	78	9639
2026-01-18 05:00:29.92	342.70	7.16	-53.2	-62.0	3.8	7.45e-01	0	36	104	0	78	9713
2026-01-18 05:00:30.93	342.54	7.09	-53.2	-62.1	3.8	7.46e-01	0	36	104	0	78	9745
2026-01-18 05:00:31.94	342.38	7.03	-53.3	-62.1	3.8	7.45e-01	0	36	104	0	78	9776
2026-01-18 05:00:32.94	342.22	6.96	-53.1	-62.0	3.8	7.44e-01	0	36	104	0	78	9641
2026-01-18 05:00:33.95	342.06	6.90	-53.2	-62.0	3.8	7.46e-01	0	36	104	0	78	9662
2026-01-18 05:00:34.96	341.90	6.83	-53.2	-62.0	3.8	7.47e-01	0	36	104	0	78	9700
2026-01-18 05:00:35.97	341.74	6.77	-53.2	-62.1	3.8	7.44e-01	0	36	104	0	78	9741
2026-01-18 05:00:36.97	341.59	6.70	-53.1	-61.9	3.8	7.45e-01	0	36	104	0	78	9580
2026-01-18 05:00:37.98	341.43	6.64	-53.1	-62.0	3.8	7.45e-01	0	36	104	0	78	9630
2026-01-18 05:00:38.99	341.28	6.57	-53.2	-62.0	3.8	7.46e-01	0	36	104	0	78	9663
2026-01-18 05:00:40.00	341.12	6.51	-53.2	-62.1	3.8	7.44e-01	0	36	104	0	78	9734
2026-01-18 05:00:41.01	340.97	6.44	-53.1	-61.9	3.8	7.45e-01	0	36	104	0	78	9569
2026-01-18 05:00:42.01	340.82	6.38	-53.1	-61.9	3.8	7.45e-01	0	36	104	0	78	9599
2026-01-18 05:00:43.02	340.67	6.31	-53.1	-62.0	3.8	7.45e-01	0	36	104	0	78	9647
2026-01-18 05:00:44.03	340.52	6.25	-53.2	-62.0	3.8	7.44e-01	0	36	104	0	78	9661
2026-01-18 05:00:45.04	340.37	6.18	-53.0	-61.9	3.8	7.45e-01	0	36	104	0	78	9546
2026-01-18 05:00:46.05	340.22	6.12	-53.1	-61.9	3.8	7.46e-01	0	36	104	0	78	9558
2026-01-18 05:00:47.05	340.07	6.06	-53.1	-61.9	3.8	7.46e-01	0	36	104	0	78	9562
2026-01-18 05:00:48.06	339.93	5.99	-53.1	-62.0	3.8	7.45e-01	0	36	104	0	78	9625
2026-01-18 05:00:49.07	339.78	5.93	-52.9	-61.8	3.8	7.45e-01	0	36	104	0	77	9985
2026-01-18 05:00:50.08	339.63	5.86	-53.0	-61.8	3.8	7.46e-01	0	36	104	0	77	10040
2026-01-18 05:00:51.09	339.49	5.80	-53.1	-61.9	3.8	7.44e-01	0	36	104	0	77	10108
2026-01-18 05:00:52.09	339.35	5.74	-53.1	-61.9	3.8	7.47e-01	0	36	104	0	77	10157
2026-01-18 05:00:53.10	339.20	5.67	-52.9	-61.7	3.8	7.46e-01	0	36	104	0	77	9939
2026-01-18 05:00:54.11	339.06	5.61	-53.0	-61.8	3.8	7.44e-01	0	36	104	0	77	10011
2026-01-18 05:00:55.12	338.92	5.54	-53.0	-61.9	3.8	7.45e-01	0	36	104	0	77	10063
2026-01-18 05:00:56.13	338.78	5.48	-53.0	-61.9	3.8	7.44e-01	0	36	104	0	77	10083
2026-01-18 05:00:57.13	338.64	5.42	-52.8	-61.7	3.8	7.45e-01	0	36	104	0	77	9874
2026-01-18 05:00:58.14	338.50	5.35	-52.9	-61.7	3.8	7.46e-01	0	36	104	0	77	9936
2026-01-18 05:00:59.15	338.36	5.29	-53.0	-61.8	3.8	7.44e-01	0	36	104	0	77	10025
2026-01-18 05:01:00.16	338.23	5.23	-53.0	-61.8	3.8	7.47e-01	0	36	104	0	77	10042
2026-01-18 05:01:01.17	338.09	5.16	-52.8	-61.6	3.8	7.43e-01	0	36	104	0	77	9782
2026-01-18 05:01:02.17	337.96	5.10	-52.9	-61.7	3.8	7.44e-01	0	36	104	0	77	9857
2026-01-18 05:01:03.18	337.82	5.04	-52.9	-61.8	3.8	7.47e-01	0	36	104	0	77	9960
2026-01-18 05:01:04.19	337.69	4.97	-53.2	-62.1	3.8	7.46e-01	0	36	104	0	77	10297
2026-01-18 05:01:05.19	337.55	4.91	-53.5	-62.3	3.8	7.45e-01	0	36	104	0	77	10655
2026-01-18 05:01:06.20	337.42	4.85	-53.8	-62.6	3.8	7.46e-01	0	36	104	0	78	10386
2026-01-18 05:01:07.21	337.29	4.79	-54.0	-62.8	3.8	7.45e-01	0	36	104	0	78	10602
2026-01-18 05:01:08.22	337.16	4.72	-54.1	-62.9	3.8	7.46e-01	0	36	104	0	78	10681
2026-01-18 05:01:09.23	337.03	4.66	-54.2	-63.0	3.8	7.44e-01	0	36	104	0	78	10864
2026-01-18 05:01:10.23	336.90	4.60	-54.3	-63.1	3.8	7.46e-01	0	36	104	0	79	10409
2026-01-18 05:01:11.24	336.77	4.54	-54.4	-63.2	3.8	7.46e-01	0	36	104	0	79	10518
2026-01-18 05:01:12.25	336.64	4.47	-54.5	-63.3	3.8	7.44e-01	0	36	104	0	79	10596
2026-01-18 05:01:13.26	336.51	4.41	-54.6	-63.4	3.8	7.45e-01	0	36	104	0	79	10715
2026-01-18 05:01:14.27	336.38	4.35	-54.6	-63.4	3.8	7.45e-01	0	36	104	0	79	10749
2026-01-18 05:01:15.27	336.26	4.29	-54.7	-63.5	3.8	7.44e-01	0	36	104	0	79	10815
2026-01-18 05:01:16.28	336.13	4.22	-54.7	-63.5	3.8	7.46e-01	0	36	104	0	79	10866
2026-01-18 05:01:17.29	336.01	4.16	-54.7	-63.6	3.8	7.46e-01	0	36	104	0	79	10929
2026-01-18 05:01:18.30	335.88	4.10	-54.7	-63.5	3.8	7.45e-01	0	36	104	0	80	10231
2026-01-18 05:01:19.30	335.76	4.04	-54.7	-63.6	3.8	7.44e-01	0	36	104	0	80	10310
2026-01-18 05:01:20.31	335.64	3.98	-54.7	-63.5	3.8	7.44e-01	0	36	104	0	80	10267
2026-01-18 05:01:21.32	335.52	3.92	-54.7	-63.6	3.8	7.45e-01	0	36	104	0	80	10325
2026-01-18 05:01:22.32	335.40	3.85	-54.7	-63.6	3.8	7.45e-01	0	36	104	0	80	10366
2026-01-18 05:01:23.33	335.28	3.79	-54.7	-63.6	3.8	7.47e-01	0	36	104	0	80	10319
2026-01-18 05:01:24.34	335.16	3.73	-54.7	-63.6	3.8	7.46e-01	0	36	104	0	80	10363
2026-01-18 05:01:25.35	335.04	3.67	-54.8	-63.6	3.8	7.48e-01	0	36	104	0	80	10342
2026-01-18 05:01:26.36	334.92	3.61	-54.7	-63.6	3.8	7.44e-01	0	36	104	0	80	10338
2026-01-18 05:01:27.36	334.80	3.55	-54.7	-63.6	3.8	7.44e-01	0	36	104	0	80	10331
2026-01-18 05:01:28.37	334.68	3.49	-54.7	-63.6	3.8	7.45e-01	0	36	104	0	80	10326
2026-01-18 05:01:29.38	334.57	3.43	-54.7	-63.6	3.8	7.47e-01	0	36	104	0	80	10312
2026-01-18 05:01:30.39	334.45	3.36	-54.7	-63.6	3.8	7.45e-01	0	36	104	0	80	10316
2026-01-18 05:01:31.39	334.34	3.30	-54.7	-63.6	3.8	7.46e-01	0	36	104	0	80	10307
2026-01-18 05:01:32.40	334.22	3.24	-54.7	-63.5	3.8	7.46e-01	0	36	104	0	80	10291
2026-01-18 05:01:33.41	334.11	3.18	-54.7	-63.5	3.8	7.46e-01	0	36	104	0	80	10259
2026-01-18 05:01:34.42	333.99	3.12	-54.7	-63.5	3.8	7.45e-01	0	36	104	0	80	10275
2026-01-18 05:01:35.43	333.88	3.06	-54.7	-63.6	3.8	7.45e-01	0	36	104	0	80	10306
2026-01-18 05:01:36.43	333.77	3.00	-54.7	-63.6	3.8	7.44e-01	0	36	104	0	80	10296
2026-01-18 05:01:37.44	333.66	2.94	-54.7	-63.5	3.8	7.46e-01	0	36	104	0	80	10284
2026-01-18 05:01:38.45	333.54	2.88	-54.7	-63.6	3.8	7.46e-01	0	36	104	0	80	10303
2026-01-18 05:01:39.46	333.43	2.82	-54.7	-63.5	3.8	7.45e-01	0	36	104	0	80	10283
2026-01-18 05:01:40.46	333.32	2.76	-54.7	-63.5	3.8	7.45e-01	0	36	104	0	80	10258
2026-01-18 05:01:41.47	333.22	2.70	-54.7	-63.5	3.8	7.46e-01	0	36	104	0	80	10273
2026-01-18 05:01:42.48	333.11	2.64	-54.7	-63.5	3.8	7.43e-01	0	36	104	0	80	10273
2026-01-18 05:01:43.49	333.00	2.58	-54.7	-63.5	3.8	7.45e-01	0	36	104	0	80	10266
2026-01-18 05:01:44.50	332.89	2.52	-54.7	-63.5	3.8	7.46e-01	0	36	104	0	80	10252
2026-01-18 05:01:45.50	332.78	2.46	-54.7	-63.5	3.8	7.46e-01	0	36	104	0	80	10258
2026-01-18 05:01:46.51	332.68	2.40	-54.7	-63.5	3.8	7.46e-01	0	36	104	0	80	10243
2026-01-18 05:01:47.52	332.57	2.34	-54.7	-63.5	3.8	7.44e-01	0	36	104	0	80	10220
2026-01-18 05:01:48.53	332.47	2.28	-54.7	-63.5	3.8	7.44e-01	0	36	104	0	80	10241
2026-01-18 05:01:49.54	332.36	2.23	-54.6	-63.5	3.8	7.45e-01	0	36	104	0	80	10237
2026-01-18 05:01:50.55	332.26	2.17	-54.7	-63.5	3.8	7.45e-01	0	36	104	0	80	10236
2026-01-18 05:01:51.55	332.15	2.11	-54.7	-63.5	3.8	7.44e-01	0	36	104	0	80	10240
2026-01-18 05:01:52.56	332.05	2.05	-54.6	-63.5	3.8	7.44e-01	0	36	104	0	80	10231
2026-01-18 05:01:53.57	331.95	1.99	-54.6	-63.5	3.8	7.46e-01	0	36	104	0	80	10250

#Closed at: 2026-01-18 05:01:53
#Recorded file [0 MB]: D:/lorett/data/31041_260118_075313.dat