passes_logs/2026/01/18/R3.2S_Murmansk/R3.2S_Murmansk__20260118_101234_SUOMI_NPP_rec.log

#Pass ID: 20260118_101234_SUOMI NPP
#Satellite: SUOMI NPP
#Configuration: NPP
#almurnet v.1.7.20251203
#Start time: 2026-01-18 10:12:34

#Version: 2.2.20231116
#Station: R3.2S_Murmansk
#Location: 33.079688 lon 68.888172 lat
#TLE: 1 37849U 11061A   26017.57099531  .00000072  00000+0  54974-4 0  9996
#TLE: 2 37849  98.7814 319.5974 0002398  59.1749 300.9663 14.19525865737072

#Time	Az	El	Level	Level2	SNR	BER	BlckErr	Temp	State	Recorded	gain1	gain2
2026-01-18 10:12:34.47	166.51	2.02	-52.3	-67.2	3.8	1.49e+00	0	34	0	0	76	19716
2026-01-18 10:12:35.47	166.53	2.08	-52.2	-67.2	3.8	1.49e+00	0	34	104	0	75	20927
2026-01-18 10:12:36.48	166.55	2.15	-52.2	-67.2	3.8	1.49e+00	0	34	104	0	75	20804
2026-01-18 10:12:37.49	166.57	2.21	-52.2	-67.1	3.8	1.49e+00	0	34	104	0	75	20721
2026-01-18 10:12:38.50	166.59	2.28	-52.2	-67.1	3.8	1.49e+00	0	34	104	0	75	20607
2026-01-18 10:12:39.51	166.61	2.34	-52.2	-67.0	3.8	1.49e+00	0	34	104	0	75	20381
2026-01-18 10:12:40.52	166.63	2.41	-52.2	-66.9	3.8	1.49e+00	0	34	104	0	75	20251
2026-01-18 10:12:41.53	166.65	2.47	-52.2	-66.9	3.8	1.49e+00	0	34	104	0	75	20145
2026-01-18 10:12:42.54	166.67	2.54	-52.2	-66.9	3.8	1.49e+00	0	34	104	0	75	20124
2026-01-18 10:12:43.54	166.69	2.60	-52.2	-66.8	3.8	1.49e+00	0	34	104	0	75	19863
2026-01-18 10:12:44.55	166.71	2.67	-52.2	-66.8	3.8	1.49e+00	0	34	104	0	75	20052
2026-01-18 10:12:45.56	166.73	2.73	-52.2	-66.7	3.8	1.49e+00	0	34	104	0	75	19825
2026-01-18 10:12:46.57	166.75	2.80	-52.2	-66.9	3.8	1.49e+00	0	34	104	0	75	20198
2026-01-18 10:12:47.58	166.77	2.87	-52.2	-66.9	3.8	1.49e+00	0	34	104	0	75	20111
2026-01-18 10:12:48.59	166.80	2.93	-52.2	-66.8	3.8	1.49e+00	0	34	104	0	75	20037
2026-01-18 10:12:49.59	166.82	3.00	-52.2	-66.8	3.8	1.49e+00	0	34	104	0	75	20061
2026-01-18 10:12:50.60	166.84	3.06	-52.2	-66.9	3.8	1.49e+00	0	34	104	0	75	20074
2026-01-18 10:12:51.61	166.86	3.13	-52.2	-66.9	3.8	1.49e+00	0	34	104	0	75	20238
2026-01-18 10:12:52.62	166.88	3.20	-52.2	-67.0	3.8	1.49e+00	0	34	104	0	75	20332
2026-01-18 10:12:53.63	166.90	3.27	-52.2	-67.1	3.8	1.49e+00	0	34	104	0	75	20631
2026-01-18 10:12:54.63	166.92	3.33	-52.2	-67.2	3.8	1.49e+00	0	34	104	0	75	20780
2026-01-18 10:12:55.64	166.94	3.40	-52.2	-67.1	3.8	1.49e+00	0	34	104	0	75	20746
2026-01-18 10:12:56.65	166.97	3.47	-52.2	-67.0	3.8	1.49e+00	0	34	104	0	75	20441
2026-01-18 10:12:57.66	166.99	3.53	-52.2	-66.7	3.8	1.49e+00	0	34	104	0	75	19765
2026-01-18 10:12:58.67	167.01	3.60	-52.2	-66.2	3.8	1.49e+00	0	35	104	0	75	18542
2026-01-18 10:12:59.67	167.03	3.67	-52.1	-65.5	3.8	1.49e+00	0	34	104	0	75	17221
2026-01-18 10:13:00.68	167.05	3.74	-52.1	-64.3	4.0	1.49e+00	0	34	104	0	75	14947
2026-01-18 10:13:01.69	167.08	3.81	-52.0	-63.6	4.2	1.41e+00	0	35	0	0	75	13830
2026-01-18 10:13:02.70	167.10	3.87	-52.0	-62.7	4.5	1.15e+00	15	34	0	0	75	12457
2026-01-18 10:13:03.71	167.12	3.94	-51.9	-61.9	4.8	8.47e-01	0	34	0	2097152	75	11362
2026-01-18 10:13:04.71	167.14	4.01	-51.8	-61.5	5.0	7.16e-01	0	35	0	4194304	75	10903
2026-01-18 10:13:05.72	167.16	4.08	-51.7	-60.8	5.5	5.23e-01	0	34	0	6291456	75	10042
2026-01-18 10:13:06.73	167.19	4.15	-51.7	-60.3	5.9	3.77e-01	0	35	0	8388608	75	9397
2026-01-18 10:13:07.74	167.21	4.22	-51.6	-59.7	6.3	2.92e-01	0	35	0	9437184	75	8818
2026-01-18 10:13:08.75	167.23	4.29	-51.4	-59.0	6.9	1.89e-01	0	34	0	11534336	74	8626
2026-01-18 10:13:09.76	167.26	4.36	-51.2	-57.8	8.0	9.57e-02	0	35	0	13631488	74	7514
2026-01-18 10:13:10.77	167.28	4.43	-51.1	-57.4	8.5	6.48e-02	0	35	0	15728640	74	7143
2026-01-18 10:13:11.77	167.30	4.50	-50.7	-56.2	9.7	2.78e-02	0	34	0	17825792	73	6578
2026-01-18 10:13:12.78	167.32	4.57	-50.5	-55.6	10.3	5.00e-03	0	35	0	18874368	72	6529
2026-01-18 10:13:13.79	167.35	4.64	-50.2	-54.7	11.3	3.27e-03	0	35	0	20971520	72	5898
2026-01-18 10:13:14.80	167.37	4.71	-49.8	-53.7	12.4	4.41e-04	0	35	0	23068672	71	5570
2026-01-18 10:13:15.80	167.39	4.78	-49.6	-53.4	12.7	9.46e-05	0	35	0	25165824	71	5350
2026-01-18 10:13:16.81	167.42	4.85	-49.5	-53.0	13.1	3.81e-05	0	34	0	27262976	70	5451
2026-01-18 10:13:17.82	167.44	4.92	-49.2	-52.5	13.6	1.44e-05	0	35	0	28311552	70	5136
2026-01-18 10:13:18.83	167.46	4.99	-49.0	-52.2	13.9	2.20e-06	0	35	0	30408704	69	5253
2026-01-18 10:13:19.84	167.49	5.07	-50.1	-54.2	12.0	8.30e-06	0	35	0	32505856	70	6268
2026-01-18 10:13:20.85	167.51	5.14	-49.2	-52.5	13.7	1.62e-04	0	35	0	34603008	70	5101
2026-01-18 10:13:21.85	167.54	5.21	-50.8	-56.2	10.1	7.00e-07	0	35	0	36700160	72	6972
2026-01-18 10:13:22.86	167.56	5.28	-50.9	-56.4	9.7	1.38e-02	0	35	0	37748736	73	6787
2026-01-18 10:13:23.87	167.58	5.35	-49.7	-53.5	12.7	3.64e-04	0	35	0	39845888	69	6122
2026-01-18 10:13:24.87	167.61	5.43	-48.9	-51.9	14.2	6.32e-04	0	35	0	41943040	69	5071
2026-01-18 10:13:25.88	167.63	5.50	-48.9	-51.9	14.3	0.00e+00	0	35	0	44040192	69	5062
2026-01-18 10:13:26.89	167.66	5.57	-48.6	-51.4	14.8	7.00e-07	0	35	0	46137344	69	4783
2026-01-18 10:13:27.90	167.68	5.64	-48.5	-51.2	15.0	7.00e-07	0	35	0	47185920	69	4697
2026-01-18 10:13:28.91	167.71	5.72	-48.4	-51.1	15.1	0.00e+00	0	35	0	49283072	68	4880
2026-01-18 10:13:29.91	167.73	5.79	-48.4	-51.1	15.1	0.00e+00	0	35	0	51380224	68	4918
2026-01-18 10:13:30.92	167.76	5.86	-48.4	-51.0	15.2	0.00e+00	0	35	0	53477376	68	4857
2026-01-18 10:13:31.93	167.78	5.94	-48.2	-50.7	15.5	0.00e+00	0	35	0	55574528	68	4692
2026-01-18 10:13:32.94	167.81	6.01	-48.2	-50.7	15.6	0.00e+00	0	35	0	56623104	68	4680
2026-01-18 10:13:33.95	167.83	6.09	-48.3	-50.9	15.4	0.00e+00	0	35	0	58720256	68	4777
2026-01-18 10:13:34.96	167.86	6.16	-48.1	-50.6	15.7	0.00e+00	0	35	0	60817408	68	4626
2026-01-18 10:13:35.97	167.88	6.24	-48.3	-50.8	15.5	0.00e+00	0	35	0	62914560	68	4748
2026-01-18 10:13:36.97	167.91	6.31	-48.2	-50.7	15.6	0.00e+00	0	35	0	65011712	68	4696
2026-01-18 10:13:37.98	167.93	6.39	-48.0	-50.4	15.9	0.00e+00	0	35	0	67108864	68	4538
2026-01-18 10:13:38.99	167.96	6.46	-47.8	-50.1	16.1	0.00e+00	0	35	0	68157440	67	4643
2026-01-18 10:13:39.99	167.98	6.54	-47.9	-50.3	16.0	0.00e+00	0	35	0	70254592	67	4717
2026-01-18 10:13:41.00	168.01	6.61	-47.8	-50.1	16.2	0.00e+00	0	35	0	72351744	67	4599
2026-01-18 10:13:42.01	168.04	6.69	-47.9	-50.2	16.1	0.00e+00	0	35	0	74448896	67	4697
2026-01-18 10:13:43.02	168.06	6.76	-47.7	-50.0	16.3	0.00e+00	0	35	0	75497472	67	4565
2026-01-18 10:13:44.02	168.09	6.84	-47.9	-50.3	16.0	0.00e+00	0	35	0	77594624	67	4711
2026-01-18 10:13:45.03	168.11	6.92	-47.7	-49.9	16.4	0.00e+00	0	35	0	79691776	67	4520
2026-01-18 10:13:46.04	168.14	6.99	-47.7	-49.9	16.4	0.00e+00	0	35	0	81788928	67	4533
2026-01-18 10:13:47.05	168.17	7.07	-47.7	-49.9	16.5	0.00e+00	0	35	0	83886080	67	4511
2026-01-18 10:13:48.06	168.20	7.15	-47.8	-50.1	16.3	0.00e+00	0	35	0	84934656	67	4616
2026-01-18 10:13:49.06	168.22	7.23	-47.6	-49.8	16.6	0.00e+00	0	35	0	87031808	67	4454
2026-01-18 10:13:50.07	168.25	7.30	-47.7	-49.9	16.4	0.00e+00	0	35	0	89128960	67	4516
2026-01-18 10:13:51.08	168.28	7.38	-47.6	-49.7	16.6	0.00e+00	0	35	0	91226112	67	4418
2026-01-18 10:13:52.09	168.30	7.46	-47.6	-49.7	16.6	0.00e+00	0	35	0	93323264	67	4436
2026-01-18 10:13:53.09	168.33	7.54	-47.6	-49.8	16.6	0.00e+00	0	35	0	95420416	66	4712
2026-01-18 10:13:54.10	168.36	7.62	-47.5	-49.5	16.8	0.00e+00	0	35	0	96468992	66	4589
2026-01-18 10:13:55.11	168.39	7.70	-47.4	-49.5	16.9	0.00e+00	0	35	0	98566144	66	4566
2026-01-18 10:13:56.12	168.41	7.78	-47.4	-49.5	16.9	0.00e+00	0	35	0	100663296	66	4580
2026-01-18 10:13:57.13	168.44	7.86	-47.5	-49.6	16.8	0.00e+00	0	35	0	102760448	66	4630
2026-01-18 10:13:58.13	168.47	7.93	-47.6	-49.7	16.7	0.00e+00	0	35	0	103809024	66	4680
2026-01-18 10:13:59.14	168.50	8.01	-47.4	-49.4	17.0	0.00e+00	0	35	0	105906176	66	4511
2026-01-18 10:14:00.15	168.53	8.09	-47.3	-49.3	17.1	0.00e+00	0	35	0	108003328	66	4473
2026-01-18 10:14:01.16	168.56	8.18	-47.4	-49.4	17.0	0.00e+00	0	35	0	110100480	66	4544
2026-01-18 10:14:02.17	168.58	8.26	-47.3	-49.4	17.1	0.00e+00	0	35	0	112197632	66	4495
2026-01-18 10:14:03.17	168.61	8.34	-47.1	-49.0	17.4	0.00e+00	0	35	0	113246208	66	4338
2026-01-18 10:14:04.18	168.64	8.42	-47.2	-49.2	17.3	0.00e+00	0	35	0	115343360	66	4399
2026-01-18 10:14:05.19	168.67	8.50	-47.2	-49.1	17.3	0.00e+00	0	35	0	117440512	66	4386
2026-01-18 10:14:06.20	168.70	8.58	-47.3	-49.2	17.2	0.00e+00	0	35	0	119537664	66	4434
2026-01-18 10:14:07.21	168.73	8.66	-47.1	-49.1	17.4	0.00e+00	0	35	0	121634816	66	4341
2026-01-18 10:14:08.21	168.76	8.75	-46.9	-48.8	17.7	0.00e+00	0	35	0	123731968	65	4444
2026-01-18 10:14:09.22	168.79	8.83	-47.1	-49.0	17.5	0.00e+00	0	35	0	124780544	65	4553
2026-01-18 10:14:10.23	168.82	8.91	-47.0	-48.9	17.5	0.00e+00	0	35	0	126877696	65	4518
2026-01-18 10:14:11.24	168.85	8.99	-47.1	-49.1	17.4	0.00e+00	0	35	0	128974848	65	4609
2026-01-18 10:14:12.25	168.88	9.08	-47.0	-48.8	17.6	0.00e+00	0	35	0	131072000	65	4481
2026-01-18 10:14:13.25	168.91	9.16	-47.0	-48.8	17.7	0.00e+00	0	35	0	132120576	65	4474
2026-01-18 10:14:14.26	168.94	9.25	-47.2	-49.1	17.5	0.00e+00	0	35	0	134217728	65	4618
2026-01-18 10:14:15.27	168.97	9.33	-47.2	-49.1	17.4	0.00e+00	0	35	0	136314880	65	4650
2026-01-18 10:14:16.28	169.00	9.41	-47.1	-49.0	17.5	0.00e+00	0	35	0	138412032	65	4576
2026-01-18 10:14:17.29	169.03	9.50	-47.2	-49.1	17.4	0.00e+00	0	35	0	140509184	65	4646
2026-01-18 10:14:18.29	169.06	9.58	-47.1	-49.0	17.5	0.00e+00	0	35	0	142606336	65	4574
2026-01-18 10:14:19.30	169.09	9.67	-46.9	-48.8	17.8	0.00e+00	0	35	0	143654912	65	4443
2026-01-18 10:14:20.31	169.12	9.75	-46.9	-48.8	17.7	0.00e+00	0	35	0	145752064	65	4456
2026-01-18 10:14:21.32	169.16	9.84	-46.9	-48.7	17.8	0.00e+00	0	35	0	147849216	65	4406
2026-01-18 10:14:22.33	169.19	9.93	-47.0	-48.8	17.8	0.00e+00	0	35	0	149946368	65	4465
2026-01-18 10:14:23.34	169.22	10.01	-46.7	-48.4	18.1	0.00e+00	0	35	0	152043520	65	4274
2026-01-18 10:14:24.35	169.25	10.10	-46.5	-48.2	18.3	0.00e+00	0	35	0	153092096	64	4414
2026-01-18 10:14:25.35	169.28	10.19	-46.5	-48.2	18.3	0.00e+00	0	35	0	155189248	64	4422
2026-01-18 10:14:26.36	169.32	10.27	-46.5	-48.2	18.3	0.00e+00	0	35	0	157286400	64	4436
2026-01-18 10:14:27.37	169.35	10.36	-46.5	-48.2	18.3	0.00e+00	0	35	0	159383552	64	4416
2026-01-18 10:14:28.37	169.38	10.45	-46.4	-48.1	18.4	0.00e+00	0	35	0	160432128	64	4360
2026-01-18 10:14:29.38	169.41	10.54	-46.3	-47.9	18.6	0.00e+00	0	35	0	162529280	64	4265
2026-01-18 10:14:30.39	169.45	10.63	-46.4	-48.0	18.5	0.00e+00	0	35	0	164626432	64	4318
2026-01-18 10:14:31.40	169.48	10.72	-46.4	-48.1	18.4	0.00e+00	0	35	0	166723584	64	4372
2026-01-18 10:14:32.41	169.51	10.81	-46.4	-48.1	18.5	0.00e+00	0	35	0	168820736	64	4345
2026-01-18 10:14:33.42	169.55	10.90	-46.3	-47.9	18.6	0.00e+00	0	35	0	170917888	64	4291
2026-01-18 10:14:34.42	169.58	10.98	-46.3	-47.9	18.7	0.00e+00	0	35	0	171966464	64	4253
2026-01-18 10:14:35.43	169.62	11.07	-46.3	-47.9	18.7	0.00e+00	0	35	0	174063616	64	4273
2026-01-18 10:14:36.44	169.65	11.17	-46.4	-48.1	18.5	0.00e+00	0	35	0	176160768	64	4355
2026-01-18 10:14:37.45	169.68	11.26	-46.2	-47.8	18.7	0.00e+00	0	35	0	178257920	64	4239
2026-01-18 10:14:38.46	169.72	11.35	-46.4	-48.1	18.5	0.00e+00	0	35	0	180355072	64	4345
2026-01-18 10:14:39.47	169.75	11.44	-46.5	-48.2	18.4	0.00e+00	0	35	0	181403648	64	4427
2026-01-18 10:14:40.47	169.79	11.53	-46.3	-48.0	18.6	0.00e+00	0	35	0	183500800	64	4298
2026-01-18 10:14:41.48	169.82	11.62	-46.2	-47.8	18.8	0.00e+00	0	35	0	185597952	64	4236
2026-01-18 10:14:42.49	169.86	11.72	-46.4	-48.0	18.6	0.00e+00	0	35	0	187695104	64	4332
2026-01-18 10:14:43.50	169.89	11.81	-46.3	-47.9	18.7	0.00e+00	0	35	0	189792256	64	4278
2026-01-18 10:14:44.51	169.93	11.90	-46.2	-47.8	18.8	0.00e+00	0	35	0	190840832	64	4197
2026-01-18 10:14:45.51	169.97	12.00	-46.1	-47.7	18.9	0.00e+00	0	35	0	192937984	64	4161
2026-01-18 10:14:46.52	170.00	12.09	-46.1	-47.7	18.9	0.00e+00	0	35	0	195035136	64	4165
2026-01-18 10:14:47.53	170.04	12.18	-46.1	-47.6	19.0	0.00e+00	0	35	0	197132288	64	4118
2026-01-18 10:14:48.53	170.07	12.28	-46.0	-47.5	19.2	0.00e+00	0	35	0	199229440	63	4321
2026-01-18 10:14:49.54	170.11	12.37	-46.0	-47.5	19.2	0.00e+00	0	35	0	200278016	63	4313
2026-01-18 10:14:50.55	170.15	12.47	-46.0	-47.5	19.2	0.00e+00	0	36	0	202375168	63	4317
2026-01-18 10:14:51.55	170.19	12.56	-46.1	-47.7	19.1	0.00e+00	0	35	0	204472320	63	4404
2026-01-18 10:14:52.56	170.22	12.66	-46.1	-47.6	19.1	0.00e+00	0	35	0	206569472	63	4350
2026-01-18 10:14:53.57	170.26	12.76	-46.2	-47.8	19.0	0.00e+00	0	35	0	208666624	63	4447
2026-01-18 10:14:54.58	170.30	12.85	-45.9	-47.4	19.3	0.00e+00	0	35	0	210763776	63	4269
2026-01-18 10:14:55.58	170.34	12.95	-46.1	-47.6	19.1	0.00e+00	0	35	0	211812352	63	4388
2026-01-18 10:14:56.59	170.37	13.05	-46.0	-47.6	19.2	0.00e+00	0	35	0	213909504	63	4347
2026-01-18 10:14:57.60	170.41	13.15	-46.1	-47.6	19.1	0.00e+00	0	35	0	216006656	63	4381
2026-01-18 10:14:58.61	170.45	13.24	-46.2	-47.7	19.1	0.00e+00	0	35	0	218103808	63	4427
2026-01-18 10:14:59.62	170.49	13.34	-46.2	-47.8	19.0	0.00e+00	0	35	0	219152384	63	4445
2026-01-18 10:15:00.63	170.53	13.44	-46.1	-47.7	19.0	0.00e+00	0	35	0	221249536	63	4403
2026-01-18 10:15:01.63	170.57	13.54	-46.1	-47.6	19.1	0.00e+00	0	35	0	223346688	63	4382
2026-01-18 10:15:02.64	170.61	13.64	-46.1	-47.6	19.2	0.00e+00	0	35	0	225443840	63	4355
2026-01-18 10:15:03.65	170.65	13.74	-46.1	-47.7	19.1	0.00e+00	0	35	0	227540992	63	4393
2026-01-18 10:15:04.66	170.69	13.84	-46.0	-47.5	19.3	0.00e+00	0	35	0	228589568	63	4312
2026-01-18 10:15:05.67	170.73	13.94	-46.0	-47.4	19.3	0.00e+00	0	35	0	230686720	63	4288
2026-01-18 10:15:06.67	170.77	14.05	-46.1	-47.6	19.2	0.00e+00	0	35	0	232783872	63	4348
2026-01-18 10:15:07.68	170.81	14.15	-46.0	-47.4	19.3	0.00e+00	0	35	0	234881024	63	4285
2026-01-18 10:15:08.69	170.85	14.25	-46.0	-47.5	19.3	0.00e+00	0	36	0	236978176	63	4298
2026-01-18 10:15:09.70	170.89	14.35	-46.0	-47.5	19.3	0.00e+00	0	35	0	239075328	63	4319
2026-01-18 10:15:10.70	170.94	14.46	-46.0	-47.5	19.3	0.00e+00	0	35	0	240123904	63	4296
2026-01-18 10:15:11.71	170.98	14.56	-46.0	-47.5	19.3	0.00e+00	0	35	0	242221056	63	4314
2026-01-18 10:15:12.72	171.02	14.66	-46.0	-47.5	19.4	0.00e+00	0	35	0	244318208	63	4292
2026-01-18 10:15:13.73	171.06	14.77	-46.0	-47.5	19.3	0.00e+00	0	35	0	246415360	63	4319
2026-01-18 10:15:14.73	171.11	14.87	-46.0	-47.5	19.3	0.00e+00	0	35	0	247463936	63	4302
2026-01-18 10:15:15.74	171.15	14.98	-46.1	-47.6	19.2	0.00e+00	0	35	0	249561088	63	4350
2026-01-18 10:15:16.75	171.19	15.08	-46.1	-47.6	19.3	0.00e+00	0	35	0	251658240	63	4352
2026-01-18 10:15:17.76	171.24	15.19	-46.1	-47.6	19.3	0.00e+00	0	35	0	253755392	63	4364
2026-01-18 10:15:18.77	171.28	15.30	-46.1	-47.6	19.2	0.00e+00	0	35	0	255852544	63	4381
2026-01-18 10:15:19.77	171.32	15.40	-46.2	-47.7	19.1	0.00e+00	0	35	0	256901120	63	4402
2026-01-18 10:15:20.78	171.37	15.51	-46.2	-47.7	19.1	0.00e+00	0	35	0	258998272	63	4435
2026-01-18 10:15:21.79	171.41	15.62	-46.1	-47.6	19.2	0.00e+00	0	35	0	261095424	63	4363
2026-01-18 10:15:22.80	171.46	15.73	-46.1	-47.6	19.2	0.00e+00	0	35	0	263192576	63	4385
2026-01-18 10:15:23.80	171.50	15.84	-46.2	-47.7	19.2	0.00e+00	0	35	0	265289728	63	4411
2026-01-18 10:15:24.81	171.55	15.95	-46.2	-47.7	19.1	0.00e+00	0	35	0	267386880	63	4437
2026-01-18 10:15:25.82	171.60	16.06	-46.2	-47.7	19.1	0.00e+00	0	35	0	268435456	63	4422
2026-01-18 10:15:26.82	171.64	16.17	-46.2	-47.7	19.2	0.00e+00	0	35	0	270532608	63	4402
2026-01-18 10:15:27.83	171.69	16.28	-46.2	-47.7	19.2	0.00e+00	0	35	0	272629760	63	4418
2026-01-18 10:15:28.84	171.74	16.39	-46.3	-47.8	19.1	0.00e+00	0	35	0	274726912	63	4457
2026-01-18 10:15:29.85	171.78	16.50	-46.2	-47.7	19.2	0.00e+00	0	35	0	275775488	63	4417
2026-01-18 10:15:30.86	171.83	16.62	-46.1	-47.6	19.4	0.00e+00	0	36	0	277872640	63	4343
2026-01-18 10:15:31.87	171.88	16.73	-46.1	-47.6	19.3	0.00e+00	0	35	0	279969792	63	4377
2026-01-18 10:15:32.87	171.93	16.84	-46.2	-47.8	19.1	0.00e+00	0	35	0	282066944	63	4447
2026-01-18 10:15:33.88	171.97	16.96	-46.1	-47.6	19.3	0.00e+00	0	35	0	284164096	63	4387
2026-01-18 10:15:34.89	172.02	17.07	-46.1	-47.5	19.3	0.00e+00	0	35	0	286261248	63	4334
2026-01-18 10:15:35.90	172.07	17.19	-46.3	-47.8	19.1	0.00e+00	0	35	0	287309824	63	4456
2026-01-18 10:15:36.91	172.12	17.30	-46.3	-47.9	19.0	0.00e+00	0	35	0	289406976	63	4511
2026-01-18 10:15:37.91	172.17	17.42	-46.4	-47.9	19.1	0.00e+00	0	35	0	291504128	63	4526
2026-01-18 10:15:38.92	172.22	17.53	-46.2	-47.7	19.2	0.00e+00	0	35	0	293601280	63	4410
2026-01-18 10:15:39.93	172.27	17.65	-46.2	-47.7	19.2	0.00e+00	0	35	0	295698432	63	4422
2026-01-18 10:15:40.94	172.33	17.77	-46.5	-48.0	18.9	0.00e+00	0	35	0	296747008	63	4588
2026-01-18 10:15:41.94	172.38	17.89	-46.2	-47.7	19.2	0.00e+00	0	35	0	298844160	63	4411
2026-01-18 10:15:42.95	172.43	18.01	-46.3	-47.8	19.0	0.00e+00	0	35	0	300941312	63	4485
2026-01-18 10:15:43.96	172.48	18.13	-46.2	-47.7	19.3	0.00e+00	0	35	0	303038464	63	4416
2026-01-18 10:15:44.97	172.53	18.25	-46.4	-47.9	19.0	0.00e+00	0	35	0	304087040	63	4534
2026-01-18 10:15:45.98	172.59	18.37	-46.4	-47.9	19.0	0.00e+00	0	35	0	306184192	63	4531
2026-01-18 10:15:46.98	172.64	18.49	-46.5	-48.0	18.9	0.00e+00	0	36	0	308281344	63	4583
2026-01-18 10:15:47.99	172.69	18.61	-46.6	-48.2	18.7	0.00e+00	0	35	0	310378496	63	4692
2026-01-18 10:15:48.99	172.75	18.73	-46.5	-48.1	18.8	0.00e+00	0	35	0	312475648	63	4634
2026-01-18 10:15:50.00	172.80	18.85	-46.7	-48.3	18.7	0.00e+00	0	35	0	314572800	63	4720
2026-01-18 10:15:51.01	172.86	18.98	-46.5	-48.1	18.9	0.00e+00	0	35	0	315621376	63	4600
2026-01-18 10:15:52.02	172.91	19.10	-46.3	-47.9	19.0	0.00e+00	0	35	0	317718528	64	4255
2026-01-18 10:15:53.02	172.97	19.22	-46.3	-47.9	19.0	0.00e+00	0	36	0	319815680	64	4262
2026-01-18 10:15:54.03	173.02	19.35	-46.6	-48.2	18.7	0.00e+00	0	35	0	321912832	64	4417
2026-01-18 10:15:55.04	173.08	19.48	-46.5	-48.1	18.8	0.00e+00	0	35	0	324009984	64	4353
2026-01-18 10:15:56.05	173.14	19.60	-46.6	-48.2	18.7	0.00e+00	0	35	0	325058560	64	4426
2026-01-18 10:15:57.05	173.19	19.73	-46.5	-48.1	18.8	0.00e+00	0	35	0	327155712	64	4358
2026-01-18 10:15:58.06	173.25	19.86	-46.6	-48.2	18.7	0.00e+00	0	35	0	329252864	64	4417
2026-01-18 10:15:59.07	173.31	19.99	-46.8	-48.5	18.5	0.00e+00	0	35	0	331350016	64	4570
2026-01-18 10:16:00.08	173.37	20.11	-47.0	-48.7	18.2	0.00e+00	0	35	0	333447168	64	4678
2026-01-18 10:16:01.09	173.43	20.24	-46.8	-48.5	18.4	0.00e+00	0	35	0	334495744	64	4587
2026-01-18 10:16:02.09	173.49	20.37	-46.9	-48.6	18.3	0.00e+00	0	35	0	336592896	64	4624
2026-01-18 10:16:03.10	173.55	20.51	-47.0	-48.7	18.2	0.00e+00	0	35	0	338690048	64	4701
2026-01-18 10:16:04.11	173.61	20.64	-46.8	-48.5	18.4	0.00e+00	0	35	0	340787200	64	4581
2026-01-18 10:16:05.12	173.67	20.77	-47.0	-48.7	18.2	0.00e+00	0	35	0	342884352	64	4686
2026-01-18 10:16:06.12	173.73	20.90	-46.8	-48.5	18.4	0.00e+00	0	35	0	343932928	64	4563
2026-01-18 10:16:07.13	173.80	21.04	-46.7	-48.3	18.6	0.00e+00	0	35	0	346030080	64	4476
2026-01-18 10:16:08.13	173.86	21.17	-46.8	-48.5	18.4	0.00e+00	0	35	0	348127232	64	4584
2026-01-18 10:16:09.14	173.92	21.30	-46.9	-48.6	18.4	0.00e+00	0	35	0	350224384	64	4614
2026-01-18 10:16:10.15	173.99	21.44	-46.9	-48.5	18.4	0.00e+00	0	35	0	352321536	64	4581
2026-01-18 10:16:11.16	174.05	21.58	-46.7	-48.4	18.6	0.00e+00	0	35	0	353370112	64	4497
2026-01-18 10:16:12.17	174.11	21.71	-46.7	-48.3	18.6	0.00e+00	0	35	0	355467264	64	4490
2026-01-18 10:16:13.17	174.18	21.85	-46.6	-48.2	18.8	0.00e+00	0	35	0	357564416	64	4393
2026-01-18 10:16:14.18	174.25	21.99	-46.3	-47.8	19.1	0.00e+00	0	35	0	359661568	64	4206
2026-01-18 10:16:15.19	174.31	22.13	-46.3	-47.8	19.1	0.00e+00	0	35	0	361758720	64	4215
2026-01-18 10:16:16.20	174.38	22.27	-46.1	-47.6	19.3	0.00e+00	0	35	0	362807296	64	4105
2026-01-18 10:16:17.20	174.45	22.41	-46.2	-47.6	19.3	0.00e+00	0	35	0	364904448	64	4123
2026-01-18 10:16:18.21	174.51	22.55	-46.4	-47.9	19.1	0.00e+00	0	35	0	367001600	64	4281
2026-01-18 10:16:19.22	174.58	22.69	-46.3	-47.8	19.1	0.00e+00	0	35	0	369098752	64	4239
2026-01-18 10:16:20.23	174.65	22.84	-46.2	-47.7	19.2	0.00e+00	0	35	0	371195904	64	4171
2026-01-18 10:16:21.23	174.72	22.98	-46.3	-47.8	19.2	0.00e+00	0	35	0	372244480	64	4196
2026-01-18 10:16:22.24	174.79	23.12	-46.2	-47.6	19.4	0.00e+00	0	35	0	374341632	63	4359
2026-01-18 10:16:23.25	174.87	23.27	-46.3	-47.7	19.3	0.00e+00	0	35	0	376438784	63	4421
2026-01-18 10:16:24.26	174.94	23.41	-46.0	-47.4	19.6	0.00e+00	0	35	0	378535936	63	4258
2026-01-18 10:16:25.26	175.01	23.56	-46.2	-47.7	19.4	0.00e+00	0	36	0	380633088	63	4421
2026-01-18 10:16:26.27	175.08	23.71	-46.3	-47.8	19.2	0.00e+00	0	35	0	381681664	63	4487
2026-01-18 10:16:27.28	175.16	23.86	-46.5	-48.0	19.0	0.00e+00	0	36	0	383778816	63	4587
2026-01-18 10:16:28.29	175.23	24.01	-46.3	-47.8	19.3	0.00e+00	0	35	0	385875968	63	4449
2026-01-18 10:16:29.29	175.31	24.16	-46.4	-47.9	19.1	0.00e+00	0	35	0	387973120	63	4530
2026-01-18 10:16:30.30	175.38	24.31	-46.5	-48.0	19.0	0.00e+00	0	36	0	390070272	63	4595
2026-01-18 10:16:31.31	175.46	24.46	-46.6	-48.1	18.9	0.00e+00	0	36	0	391118848	63	4636
2026-01-18 10:16:32.32	175.54	24.61	-46.7	-48.3	18.7	0.00e+00	0	35	0	393216000	64	4490
2026-01-18 10:16:33.33	175.61	24.76	-46.6	-48.2	18.8	0.00e+00	0	35	0	395313152	64	4434
2026-01-18 10:16:34.34	175.69	24.92	-46.5	-48.1	18.8	0.00e+00	0	35	0	397410304	64	4385
2026-01-18 10:16:35.35	175.77	25.07	-46.7	-48.3	18.7	0.00e+00	0	35	0	399507456	64	4476
2026-01-18 10:16:36.35	175.85	25.23	-46.7	-48.3	18.7	0.00e+00	0	35	0	400556032	64	4477
2026-01-18 10:16:37.36	175.93	25.39	-46.7	-48.3	18.7	0.00e+00	0	35	0	402653184	64	4481
2026-01-18 10:16:38.37	176.01	25.54	-46.6	-48.2	18.8	0.00e+00	0	35	0	404750336	64	4439
2026-01-18 10:16:39.38	176.10	25.70	-46.6	-48.2	18.8	0.00e+00	0	36	0	406847488	64	4436
2026-01-18 10:16:40.38	176.18	25.86	-46.9	-48.5	18.5	0.00e+00	0	35	0	408944640	64	4585
2026-01-18 10:16:41.39	176.26	26.02	-46.7	-48.3	18.8	0.00e+00	0	35	0	411041792	64	4471
2026-01-18 10:16:42.40	176.35	26.18	-46.7	-48.3	18.7	0.00e+00	0	35	0	412090368	64	4454
2026-01-18 10:16:43.41	176.43	26.35	-46.4	-47.9	19.1	0.00e+00	0	36	0	414187520	64	4277
2026-01-18 10:16:44.42	176.52	26.51	-46.3	-47.8	19.2	0.00e+00	0	35	0	416284672	64	4210
2026-01-18 10:16:45.42	176.61	26.67	-46.2	-47.7	19.3	0.00e+00	0	35	0	418381824	64	4170
2026-01-18 10:16:46.43	176.70	26.84	-46.2	-47.7	19.3	0.00e+00	0	35	0	419430400	64	4161
2026-01-18 10:16:47.44	176.79	27.00	-46.1	-47.5	19.5	0.00e+00	0	35	0	421527552	64	4083
2026-01-18 10:16:48.44	176.88	27.17	-45.5	-46.8	20.2	0.00e+00	0	35	0	423624704	62	4210
2026-01-18 10:16:49.45	176.97	27.34	-45.5	-46.8	20.2	0.00e+00	0	36	0	425721856	62	4225
2026-01-18 10:16:50.46	177.06	27.51	-45.4	-46.7	20.4	0.00e+00	0	35	0	427819008	62	4148
2026-01-18 10:16:51.47	177.15	27.68	-45.3	-46.6	20.4	0.00e+00	0	36	0	428867584	62	4130
2026-01-18 10:16:52.48	177.24	27.85	-45.4	-46.6	20.4	0.00e+00	0	35	0	430964736	62	4143
2026-01-18 10:16:53.49	177.34	28.02	-45.4	-46.7	20.4	0.00e+00	0	35	0	433061888	62	4147
2026-01-18 10:16:54.49	177.43	28.19	-45.5	-46.8	20.2	0.00e+00	0	35	0	435159040	62	4223
2026-01-18 10:16:55.50	177.53	28.36	-45.5	-46.8	20.3	0.00e+00	0	35	0	437256192	62	4195
2026-01-18 10:16:56.51	177.63	28.54	-45.7	-47.0	20.1	0.00e+00	0	35	0	439353344	62	4312
2026-01-18 10:16:57.52	177.73	28.71	-45.9	-47.3	19.9	0.00e+00	0	35	0	440401920	62	4460
2026-01-18 10:16:58.53	177.83	28.89	-45.9	-47.2	19.8	0.00e+00	0	36	0	442499072	62	4428
2026-01-18 10:16:59.53	177.93	29.07	-46.3	-47.7	19.4	0.00e+00	0	35	0	444596224	63	4426
2026-01-18 10:17:00.54	178.03	29.25	-46.0	-47.4	19.8	0.00e+00	0	35	0	446693376	63	4244
2026-01-18 10:17:01.55	178.13	29.43	-46.6	-48.2	19.0	0.00e+00	0	36	0	447741952	63	4684
2026-01-18 10:17:02.56	178.24	29.61	-46.6	-48.1	19.0	0.00e+00	0	35	0	449839104	63	4649
2026-01-18 10:17:03.57	178.34	29.79	-46.7	-48.3	18.8	0.00e+00	0	36	0	451936256	64	4463
2026-01-18 10:17:04.57	178.45	29.97	-47.2	-49.0	18.1	0.00e+00	0	35	0	454033408	65	4582
2026-01-18 10:17:05.58	178.56	30.16	-47.3	-49.1	18.1	0.00e+00	0	35	0	456130560	65	4607
2026-01-18 10:17:06.59	178.66	30.34	-47.5	-49.3	17.8	0.00e+00	0	36	0	458227712	65	4740
2026-01-18 10:17:07.59	178.77	30.53	-47.5	-49.4	17.8	0.00e+00	0	36	0	459276288	65	4777
2026-01-18 10:17:08.60	178.89	30.71	-47.6	-49.4	17.7	0.00e+00	0	36	0	461373440	65	4811
2026-01-18 10:17:09.61	179.00	30.90	-47.7	-49.6	17.6	0.00e+00	0	35	0	463470592	66	4649
2026-01-18 10:17:10.62	179.11	31.09	-48.1	-50.2	17.1	0.00e+00	0	35	0	465567744	66	4927
2026-01-18 10:17:11.62	179.23	31.28	-48.1	-50.1	17.1	0.00e+00	0	36	0	467664896	66	4903
2026-01-18 10:17:12.63	179.34	31.47	-48.0	-50.0	17.2	0.00e+00	0	35	0	468713472	66	4828
2026-01-18 10:17:13.64	179.46	31.67	-48.6	-50.8	16.4	0.00e+00	0	36	0	470810624	67	5020
2026-01-18 10:17:14.65	179.58	31.86	-48.5	-50.8	16.5	0.00e+00	0	36	0	472907776	67	4997
2026-01-18 10:17:15.65	179.70	32.06	-49.0	-51.5	15.8	0.00e+00	0	35	0	475004928	68	5127
2026-01-18 10:17:16.66	179.82	32.25	-49.3	-51.9	15.5	0.00e+00	0	35	0	476053504	69	5062
2026-01-18 10:17:17.67	179.94	32.45	-48.5	-50.7	16.7	0.00e+00	0	36	0	478150656	69	4424
2026-01-18 10:17:18.68	180.07	32.65	-48.8	-51.2	16.3	0.00e+00	0	35	0	480247808	69	4682
2026-01-18 10:17:19.69	180.19	32.85	-48.9	-51.2	16.1	0.00e+00	0	35	0	482344960	69	4704
2026-01-18 10:17:20.69	180.32	33.05	-48.6	-50.8	16.5	0.00e+00	0	35	0	484442112	68	4749
2026-01-18 10:17:21.70	180.45	33.25	-48.8	-51.0	16.4	0.00e+00	0	36	0	486539264	68	4862
2026-01-18 10:17:22.71	180.58	33.46	-48.5	-50.7	16.7	0.00e+00	0	36	0	487587840	68	4679
2026-01-18 10:17:23.72	180.71	33.66	-48.5	-50.7	16.6	0.00e+00	0	36	0	489684992	68	4673
2026-01-18 10:17:24.72	180.85	33.86	-48.2	-50.2	17.1	0.00e+00	0	35	0	491782144	68	4424
2026-01-18 10:17:25.73	180.98	34.07	-48.3	-50.4	17.0	0.00e+00	0	36	0	493879296	68	4502
2026-01-18 10:17:26.74	181.12	34.28	-48.1	-50.1	17.3	0.00e+00	0	36	0	495976448	68	4367
2026-01-18 10:17:27.75	181.26	34.49	-48.3	-50.4	16.9	0.00e+00	0	35	0	497025024	67	4765
2026-01-18 10:17:28.76	181.40	34.70	-48.3	-50.3	16.9	0.00e+00	0	35	0	499122176	67	4743
2026-01-18 10:17:29.77	181.54	34.91	-48.4	-50.5	16.7	0.00e+00	0	35	0	501219328	67	4870
2026-01-18 10:17:30.77	181.69	35.13	-49.0	-51.3	16.0	0.00e+00	0	36	0	503316480	68	5039
2026-01-18 10:17:31.78	181.83	35.34	-48.8	-51.1	16.2	0.00e+00	0	35	0	505413632	68	4896
2026-01-18 10:17:32.79	181.98	35.56	-48.6	-50.8	16.5	0.00e+00	0	36	0	506462208	68	4708
2026-01-18 10:17:33.80	182.13	35.77	-49.0	-51.4	16.0	0.00e+00	0	35	0	508559360	68	5059
2026-01-18 10:17:34.81	182.28	35.99	-49.1	-51.6	15.8	0.00e+00	0	36	0	510656512	68	5182
2026-01-18 10:17:35.81	182.44	36.21	-49.2	-51.7	15.7	0.00e+00	0	35	0	512753664	69	4930
2026-01-18 10:17:36.82	182.59	36.43	-49.0	-51.4	15.9	0.00e+00	0	35	0	514850816	69	4813
2026-01-18 10:17:37.83	182.75	36.65	-49.4	-52.0	15.5	0.00e+00	0	36	0	515899392	69	5134
2026-01-18 10:17:38.84	182.91	36.88	-49.2	-51.8	15.7	0.00e+00	0	35	0	517996544	69	4984
2026-01-18 10:17:39.85	183.07	37.10	-49.0	-51.4	16.1	7.00e-07	0	36	0	520093696	69	4782
2026-01-18 10:17:40.85	183.24	37.33	-48.9	-51.2	16.3	0.00e+00	0	35	0	522190848	69	4677
2026-01-18 10:17:41.86	183.40	37.56	-48.5	-50.6	16.7	0.00e+00	0	36	0	524288000	69	4385
2026-01-18 10:17:42.87	183.57	37.78	-48.4	-50.4	17.0	0.00e+00	0	35	0	525336576	68	4536
2026-01-18 10:17:43.87	183.74	38.01	-48.2	-50.2	17.2	0.00e+00	0	35	0	527433728	68	4414
2026-01-18 10:17:44.88	183.92	38.24	-48.2	-50.2	17.2	0.00e+00	0	36	0	529530880	68	4411
2026-01-18 10:17:45.89	184.09	38.48	-48.8	-51.1	16.4	0.00e+00	0	36	0	531628032	68	4872
2026-01-18 10:17:46.90	184.27	38.71	-49.1	-51.5	15.9	0.00e+00	0	36	0	533725184	69	4825
2026-01-18 10:17:47.91	184.45	38.95	-49.7	-52.5	15.0	0.00e+00	0	36	0	534773760	69	5433
2026-01-18 10:17:48.91	184.63	39.18	-49.9	-52.8	14.5	2.20e-06	0	35	0	536870912	70	5326
2026-01-18 10:17:49.92	184.82	39.42	-50.0	-53.0	14.6	0.00e+00	0	35	0	538968064	70	5426
2026-01-18 10:17:50.93	185.01	39.66	-50.3	-53.5	14.0	1.50e-06	0	36	0	541065216	71	5447
2026-01-18 10:17:51.94	185.20	39.90	-50.2	-53.4	14.1	6.80e-06	0	36	0	543162368	71	5356
2026-01-18 10:17:52.95	185.40	40.14	-50.5	-53.8	13.7	2.20e-06	0	35	0	544210944	71	5610
2026-01-18 10:17:53.95	185.59	40.38	-50.3	-53.5	13.8	4.50e-06	0	35	0	546308096	71	5419
2026-01-18 10:17:54.96	185.79	40.63	-51.2	-54.8	13.1	7.60e-06	0	36	0	548405248	72	5955
2026-01-18 10:17:55.97	186.00	40.87	-50.1	-53.2	14.0	1.50e-06	0	35	0	550502400	72	4976
2026-01-18 10:17:56.98	186.20	41.12	-49.8	-52.7	14.8	0.00e+00	0	35	0	552599552	71	4967
2026-01-18 10:17:57.99	186.41	41.37	-49.7	-52.5	14.9	0.00e+00	0	36	0	553648128	71	4862
2026-01-18 10:17:58.99	186.62	41.62	-49.1	-51.5	15.9	0.00e+00	0	36	0	555745280	70	4562
2026-01-18 10:18:00.00	186.84	41.87	-48.9	-51.2	16.3	0.00e+00	0	36	0	557842432	69	4683
2026-01-18 10:18:01.01	187.06	42.12	-48.3	-50.2	17.2	0.00e+00	0	36	0	559939584	68	4438
2026-01-18 10:18:02.02	187.28	42.37	-48.1	-50.0	17.4	0.00e+00	0	36	0	562036736	68	4309
2026-01-18 10:18:03.02	187.51	42.63	-47.5	-49.3	18.0	0.00e+00	0	36	0	563085312	67	4211
2026-01-18 10:18:04.03	187.74	42.88	-47.6	-49.4	17.9	0.00e+00	0	36	0	565182464	67	4277
2026-01-18 10:18:05.04	187.97	43.14	-47.6	-49.4	17.9	0.00e+00	0	36	0	567279616	67	4282
2026-01-18 10:18:06.05	188.21	43.40	-47.6	-49.4	17.9	0.00e+00	0	35	0	569376768	67	4278
2026-01-18 10:18:07.05	188.45	43.65	-47.5	-49.2	18.1	0.00e+00	0	36	0	571473920	66	4421
2026-01-18 10:18:08.06	188.69	43.92	-47.6	-49.4	17.9	0.00e+00	0	35	0	572522496	66	4522
2026-01-18 10:18:09.07	188.94	44.18	-47.6	-49.4	18.0	0.00e+00	0	35	0	574619648	66	4501
2026-01-18 10:18:10.08	189.19	44.44	-47.4	-49.1	18.3	0.00e+00	0	36	0	576716800	66	4368
2026-01-18 10:18:11.08	189.45	44.70	-47.3	-49.0	18.1	0.00e+00	0	35	0	578813952	66	4307
2026-01-18 10:18:12.09	189.71	44.97	-47.6	-49.4	18.0	0.00e+00	0	36	0	580911104	66	4512
2026-01-18 10:18:13.10	189.97	45.24	-47.3	-49.0	18.2	0.00e+00	0	35	0	581959680	66	4303
2026-01-18 10:18:14.11	190.24	45.50	-47.6	-49.4	18.0	0.00e+00	0	36	0	584056832	66	4497
2026-01-18 10:18:15.11	190.52	45.77	-47.6	-49.3	17.9	0.00e+00	0	36	0	586153984	66	4478
2026-01-18 10:18:16.12	190.80	46.04	-47.7	-49.5	17.9	0.00e+00	0	35	0	588251136	66	4548
2026-01-18 10:18:17.13	191.08	46.31	-47.8	-49.6	17.8	0.00e+00	0	36	0	590348288	66	4619
2026-01-18 10:18:18.14	191.37	46.58	-47.6	-49.4	18.1	0.00e+00	0	36	0	591396864	66	4499
2026-01-18 10:18:19.15	191.66	46.86	-47.9	-49.8	17.5	0.00e+00	0	36	0	593494016	66	4748
2026-01-18 10:18:20.15	191.96	47.13	-47.3	-48.9	18.4	0.00e+00	0	36	0	595591168	66	4264
2026-01-18 10:18:21.16	192.26	47.40	-46.9	-48.4	18.9	0.00e+00	0	36	0	597688320	65	4284
2026-01-18 10:18:22.17	192.57	47.68	-46.9	-48.5	18.8	0.00e+00	0	36	0	599785472	65	4300
2026-01-18 10:18:23.18	192.89	47.96	-46.9	-48.4	18.8	0.00e+00	0	35	0	601882624	65	4283
2026-01-18 10:18:24.19	193.21	48.23	-47.0	-48.6	18.4	0.00e+00	0	35	0	602931200	65	4365
2026-01-18 10:18:25.19	193.53	48.51	-47.3	-49.1	18.2	0.00e+00	0	35	0	605028352	65	4610
2026-01-18 10:18:26.20	193.86	48.79	-46.6	-48.1	19.1	0.00e+00	0	36	0	607125504	65	4137
2026-01-18 10:18:27.21	194.20	49.07	-46.2	-47.6	19.6	0.00e+00	0	36	0	609222656	64	4143
2026-01-18 10:18:28.21	194.54	49.35	-46.1	-47.4	19.9	0.00e+00	0	35	0	610271232	63	4277
2026-01-18 10:18:29.22	194.89	49.63	-45.8	-47.1	20.2	0.00e+00	0	36	0	612368384	63	4110
2026-01-18 10:18:30.23	195.25	49.91	-45.7	-46.9	20.3	0.00e+00	0	35	0	614465536	63	4046
2026-01-18 10:18:31.23	195.61	50.19	-45.9	-47.2	20.0	0.00e+00	0	36	0	616562688	63	4188
2026-01-18 10:18:32.24	195.98	50.47	-46.8	-48.5	18.9	0.00e+00	0	36	0	618659840	64	4552
2026-01-18 10:18:33.25	196.35	50.76	-46.9	-48.5	18.8	0.00e+00	0	36	0	619708416	64	4572
2026-01-18 10:18:34.26	196.74	51.04	-47.0	-48.6	18.7	0.00e+00	0	36	0	621805568	64	4649
2026-01-18 10:18:35.27	197.13	51.33	-46.3	-47.8	19.4	0.00e+00	0	36	0	623902720	64	4214
2026-01-18 10:18:36.27	197.52	51.61	-46.0	-47.4	19.9	0.00e+00	0	35	0	625999872	64	4036
2026-01-18 10:18:37.28	197.93	51.89	-45.5	-46.7	20.5	0.00e+00	0	36	0	628097024	62	4162
2026-01-18 10:18:38.29	198.34	52.18	-44.6	-45.7	21.4	0.00e+00	0	36	0	630194176	61	3948
2026-01-18 10:18:39.30	198.77	52.46	-44.0	-45.0	22.0	0.00e+00	0	36	0	631242752	60	3847
2026-01-18 10:18:40.31	199.20	52.75	-44.3	-45.3	21.9	0.00e+00	0	36	0	633339904	59	4235
2026-01-18 10:18:41.31	199.63	53.03	-44.1	-45.1	22.2	0.00e+00	0	35	0	635437056	59	4145
2026-01-18 10:18:42.32	200.08	53.32	-44.3	-45.4	22.0	0.00e+00	0	35	0	637534208	59	4251
2026-01-18 10:18:43.33	200.53	53.60	-44.6	-45.7	21.7	0.00e+00	0	36	0	638582784	59	4436
2026-01-18 10:18:44.34	201.00	53.89	-44.9	-46.1	21.1	0.00e+00	0	35	0	640679936	60	4362
2026-01-18 10:18:45.34	201.47	54.17	-45.4	-46.7	20.5	0.00e+00	0	36	0	642777088	61	4413
2026-01-18 10:18:46.35	201.95	54.46	-44.8	-46.0	21.1	0.00e+00	0	35	0	644874240	61	4090
2026-01-18 10:18:47.36	202.44	54.74	-44.5	-45.7	21.5	0.00e+00	0	35	0	646971392	61	3918
2026-01-18 10:18:48.37	202.95	55.02	-44.4	-45.5	21.6	0.00e+00	0	35	0	648019968	60	4088
2026-01-18 10:18:49.38	203.46	55.31	-44.1	-45.2	21.9	0.00e+00	0	36	0	650117120	60	3918
2026-01-18 10:18:50.39	203.98	55.59	-44.2	-45.3	21.8	0.00e+00	0	36	0	652214272	60	3963
2026-01-18 10:18:51.39	204.51	55.87	-44.6	-45.7	21.4	0.00e+00	0	36	0	654311424	60	4183
2026-01-18 10:18:52.40	205.05	56.15	-45.5	-46.8	20.5	0.00e+00	0	36	0	656408576	61	4445
2026-01-18 10:18:53.41	205.61	56.42	-45.3	-46.6	20.7	0.00e+00	0	36	0	658505728	62	4109
2026-01-18 10:18:54.42	206.17	56.70	-45.1	-46.3	21.0	0.00e+00	0	36	0	659554304	62	3972
2026-01-18 10:18:55.43	206.75	56.98	-44.5	-45.6	21.5	0.00e+00	0	35	0	661651456	61	3888
2026-01-18 10:18:56.44	207.34	57.25	-44.3	-45.4	21.7	0.00e+00	0	35	0	663748608	60	4035
2026-01-18 10:18:57.45	207.94	57.53	-44.7	-45.9	21.3	0.00e+00	0	36	0	665845760	60	4247
2026-01-18 10:18:58.46	208.55	57.80	-44.9	-46.1	21.1	0.00e+00	0	35	0	666894336	60	4377
2026-01-18 10:18:59.47	209.18	58.07	-45.3	-46.5	20.8	0.00e+00	0	35	0	668991488	61	4318
2026-01-18 10:19:00.47	209.81	58.33	-44.9	-46.1	21.1	0.00e+00	0	35	0	671088640	61	4112
2026-01-18 10:19:01.48	210.46	58.60	-44.9	-46.0	21.2	0.00e+00	0	36	0	673185792	61	4085
2026-01-18 10:19:02.49	211.12	58.86	-45.1	-46.2	21.1	0.00e+00	0	35	0	675282944	61	4178
2026-01-18 10:19:03.50	211.80	59.12	-45.8	-47.2	20.3	0.00e+00	0	35	0	677380096	62	4401
2026-01-18 10:19:04.51	212.49	59.38	-46.7	-48.3	19.1	0.00e+00	0	36	0	678428672	64	4458
2026-01-18 10:19:05.51	213.19	59.64	-47.1	-48.8	18.5	0.00e+00	0	36	0	680525824	65	4465
2026-01-18 10:19:06.52	213.90	59.89	-46.3	-47.7	19.7	0.00e+00	0	35	0	682622976	64	4148
2026-01-18 10:19:07.53	214.64	60.14	-46.1	-47.4	20.0	0.00e+00	0	35	0	684720128	63	4275
2026-01-18 10:19:08.53	215.37	60.38	-46.1	-47.4	20.1	0.00e+00	0	36	0	686817280	63	4289
2026-01-18 10:19:09.54	216.13	60.63	-46.3	-47.7	19.7	0.00e+00	0	35	0	687865856	63	4421
2026-01-18 10:19:10.55	216.91	60.87	-45.9	-47.2	20.2	0.00e+00	0	35	0	689963008	63	4188
2026-01-18 10:19:11.56	217.70	61.10	-45.8	-47.0	20.3	0.00e+00	0	36	0	692060160	63	4095
2026-01-18 10:19:12.57	218.50	61.33	-46.6	-48.0	19.5	0.00e+00	0	36	0	694157312	63	4587
2026-01-18 10:19:13.57	219.31	61.56	-46.9	-48.5	18.9	0.00e+00	0	35	0	695205888	64	4591
2026-01-18 10:19:14.58	220.14	61.78	-46.0	-47.4	19.9	0.00e+00	0	36	0	697303040	64	4017
2026-01-18 10:19:15.59	220.99	62.00	-45.4	-46.6	20.8	0.00e+00	0	36	0	699400192	62	4105
2026-01-18 10:19:16.60	221.86	62.22	-45.7	-47.0	20.5	0.00e+00	0	36	0	701497344	62	4308
2026-01-18 10:19:17.60	222.73	62.42	-45.8	-47.1	20.3	0.00e+00	0	35	0	703594496	62	4348
2026-01-18 10:19:18.61	223.62	62.63	-45.3	-46.5	20.8	0.00e+00	0	36	0	705691648	62	4064
2026-01-18 10:19:19.62	224.53	62.83	-45.4	-46.6	20.7	0.00e+00	0	35	0	706740224	62	4140
2026-01-18 10:19:20.63	225.45	63.02	-44.6	-45.7	21.6	0.00e+00	0	35	0	708837376	60	4153
2026-01-18 10:19:21.63	226.38	63.21	-44.2	-45.3	21.9	0.00e+00	0	35	0	710934528	60	3978
2026-01-18 10:19:22.64	227.33	63.39	-44.3	-45.4	21.8	0.00e+00	0	36	0	713031680	60	4046
2026-01-18 10:19:23.65	228.30	63.56	-44.7	-45.8	21.4	0.00e+00	0	35	0	715128832	60	4218
2026-01-18 10:19:24.66	229.28	63.73	-44.5	-45.6	21.6	0.00e+00	0	35	0	716177408	60	4132
2026-01-18 10:19:25.67	230.27	63.90	-45.1	-46.3	21.0	0.00e+00	0	36	0	718274560	60	4459
2026-01-18 10:19:26.67	231.27	64.05	-45.7	-47.0	20.4	0.00e+00	0	35	0	720371712	62	4332
2026-01-18 10:19:27.68	232.30	64.20	-45.3	-46.5	20.9	0.00e+00	0	35	0	722468864	62	4086
2026-01-18 10:19:28.69	233.33	64.34	-44.5	-45.6	21.6	0.00e+00	0	35	0	724566016	61	3898
2026-01-18 10:19:29.70	234.38	64.48	-45.0	-46.2	21.1	0.00e+00	0	36	0	725614592	60	4410
2026-01-18 10:19:30.71	235.44	64.61	-46.0	-47.4	20.1	0.00e+00	0	35	0	727711744	62	4502
2026-01-18 10:19:31.71	236.50	64.73	-46.9	-48.5	18.9	0.00e+00	0	35	0	729808896	64	4591
2026-01-18 10:19:32.72	237.58	64.84	-46.7	-48.3	19.2	0.00e+00	0	36	0	731906048	64	4442
2026-01-18 10:19:33.73	238.67	64.94	-46.2	-47.5	19.8	0.00e+00	0	35	0	734003200	64	4094
2026-01-18 10:19:34.74	239.78	65.04	-46.5	-48.1	19.4	0.00e+00	0	35	0	735051776	64	4343
2026-01-18 10:19:35.75	240.89	65.13	-46.5	-48.0	19.4	0.00e+00	0	35	0	737148928	64	4333
2026-01-18 10:19:36.75	241.99	65.21	-46.3	-47.7	19.8	0.00e+00	0	35	0	739246080	64	4149
2026-01-18 10:19:37.76	243.12	65.28	-46.4	-47.8	19.6	0.00e+00	0	35	0	741343232	64	4220
2026-01-18 10:19:38.77	244.26	65.34	-47.0	-48.6	18.9	0.00e+00	0	36	0	743440384	65	4358
2026-01-18 10:19:39.78	245.40	65.40	-47.1	-48.7	18.7	0.00e+00	0	36	0	745537536	65	4409
2026-01-18 10:19:40.79	246.54	65.44	-46.2	-47.6	19.7	0.00e+00	0	36	0	746586112	64	4099
2026-01-18 10:19:41.79	247.68	65.48	-46.2	-47.5	19.9	0.00e+00	0	36	0	748683264	63	4331
2026-01-18 10:19:42.80	248.83	65.51	-46.0	-47.4	20.0	0.00e+00	0	36	0	750780416	63	4250
2026-01-18 10:19:43.81	249.99	65.53	-45.5	-46.7	20.5	0.00e+00	0	35	0	752877568	63	3937
2026-01-18 10:19:44.82	251.14	65.54	-45.1	-46.2	21.1	0.00e+00	0	35	0	753926144	62	3943
2026-01-18 10:19:45.82	252.29	65.54	-45.5	-46.7	20.8	0.00e+00	0	36	0	756023296	61	4397
2026-01-18 10:19:46.83	253.44	65.53	-46.5	-48.0	19.5	0.00e+00	0	36	0	758120448	63	4571
2026-01-18 10:19:47.84	254.60	65.51	-46.3	-47.7	19.7	0.00e+00	0	35	0	760217600	64	4191
2026-01-18 10:19:48.85	255.75	65.49	-44.8	-45.9	21.2	0.00e+00	0	36	0	762314752	61	4037
2026-01-18 10:19:49.85	256.89	65.46	-45.2	-46.4	21.0	0.00e+00	0	36	0	763363328	61	4244
2026-01-18 10:19:50.86	258.04	65.41	-46.3	-47.8	19.7	0.00e+00	0	36	0	765460480	63	4443
2026-01-18 10:19:51.87	259.18	65.36	-46.9	-48.5	19.0	0.00e+00	0	35	0	767557632	64	4554
2026-01-18 10:19:52.88	260.32	65.30	-46.1	-47.5	20.0	0.00e+00	0	35	0	769654784	63	4300
2026-01-18 10:19:53.89	261.44	65.23	-46.0	-47.4	20.0	0.00e+00	0	35	0	771751936	63	4273
2026-01-18 10:19:54.89	262.56	65.16	-45.5	-46.8	20.6	0.00e+00	0	36	0	773849088	62	4196
2026-01-18 10:19:55.90	263.67	65.07	-44.3	-45.4	21.7	0.00e+00	0	36	0	774897664	60	4027
2026-01-18 10:19:56.91	264.77	64.98	-43.8	-44.8	22.6	0.00e+00	0	36	0	776994816	59	3979
2026-01-18 10:19:57.91	265.86	64.88	-44.5	-45.5	21.9	0.00e+00	0	36	0	779091968	59	4331
2026-01-18 10:19:58.92	266.94	64.77	-44.5	-45.6	21.7	0.00e+00	0	36	0	781189120	60	4135
2026-01-18 10:19:59.93	268.02	64.65	-44.7	-45.8	21.5	0.00e+00	0	35	0	782237696	60	4239
2026-01-18 10:20:00.93	269.07	64.53	-45.0	-46.2	21.2	0.00e+00	0	36	0	784334848	60	4426
2026-01-18 10:20:01.94	270.12	64.40	-45.2	-46.4	21.0	0.00e+00	0	36	0	786432000	60	4511
2026-01-18 10:20:02.95	271.16	64.26	-45.2	-46.3	21.0	0.00e+00	0	36	0	788529152	61	4240
2026-01-18 10:20:03.96	272.19	64.11	-45.1	-46.2	21.1	0.00e+00	0	36	0	790626304	61	4182
2026-01-18 10:20:04.97	273.20	63.96	-44.6	-45.7	21.5	0.00e+00	0	35	0	791674880	61	3957
2026-01-18 10:20:05.97	274.19	63.80	-44.2	-45.2	22.0	0.00e+00	0	35	0	793772032	60	3944
2026-01-18 10:20:06.98	275.18	63.63	-44.2	-45.2	22.0	0.00e+00	0	36	0	795869184	60	3947
2026-01-18 10:20:07.99	276.15	63.46	-44.3	-45.3	22.1	0.00e+00	0	35	0	797966336	59	4229
2026-01-18 10:20:09.00	277.10	63.28	-44.6	-45.7	21.9	0.00e+00	0	36	0	800063488	59	4410
2026-01-18 10:20:10.00	278.04	63.09	-45.3	-46.6	20.8	0.00e+00	0	36	0	802160640	61	4343
2026-01-18 10:20:11.01	278.97	62.90	-45.8	-47.1	20.3	0.00e+00	0	36	0	803209216	62	4361
2026-01-18 10:20:12.01	279.87	62.71	-45.1	-46.3	21.1	0.00e+00	0	36	0	805306368	62	3972
2026-01-18 10:20:13.02	280.77	62.51	-44.9	-46.1	21.2	0.00e+00	0	36	0	807403520	61	4105
2026-01-18 10:20:14.03	281.65	62.30	-45.5	-46.7	20.7	0.00e+00	0	36	0	809500672	62	4171
2026-01-18 10:20:15.04	282.52	62.09	-45.4	-46.6	20.7	0.00e+00	0	36	0	810549248	62	4128
2026-01-18 10:20:16.05	283.37	61.87	-44.8	-45.9	21.4	0.00e+00	0	36	0	812646400	61	4024
2026-01-18 10:20:17.05	284.20	61.65	-45.1	-46.2	21.1	0.00e+00	0	36	0	814743552	61	4190
2026-01-18 10:20:18.06	285.02	61.42	-45.6	-46.9	20.5	0.00e+00	0	35	0	816840704	61	4500
2026-01-18 10:20:19.07	285.83	61.19	-44.2	-45.3	22.2	0.00e+00	0	36	0	818937856	59	4204
2026-01-18 10:20:20.08	286.63	60.96	-43.6	-44.5	22.8	0.00e+00	0	36	0	821035008	59	3855
2026-01-18 10:20:21.08	287.40	60.73	-44.6	-45.8	21.7	0.00e+00	0	36	0	822083584	59	4447
2026-01-18 10:20:22.09	288.16	60.48	-45.1	-46.3	21.1	0.00e+00	0	36	0	824180736	61	4203
2026-01-18 10:20:23.10	288.91	60.24	-44.8	-45.9	21.4	0.00e+00	0	36	0	826277888	61	4038
2026-01-18 10:20:24.11	289.65	59.99	-44.1	-45.1	22.0	0.00e+00	0	35	0	828375040	60	3901
2026-01-18 10:20:25.11	290.36	59.74	-44.6	-45.7	21.9	0.00e+00	0	36	0	830472192	59	4408
2026-01-18 10:20:26.12	291.07	59.49	-44.1	-45.2	22.3	0.00e+00	0	36	0	831520768	59	4152
2026-01-18 10:20:27.13	291.77	59.23	-43.8	-44.8	22.7	0.00e+00	0	36	0	833617920	59	3962
2026-01-18 10:20:28.14	292.45	58.97	-43.9	-44.9	22.5	0.00e+00	0	36	0	835715072	59	4046
2026-01-18 10:20:29.15	293.11	58.71	-44.4	-45.5	21.8	0.00e+00	0	36	0	837812224	60	4058
2026-01-18 10:20:30.15	293.76	58.45	-44.3	-45.3	22.1	0.00e+00	0	36	0	838860800	59	4229
2026-01-18 10:20:31.16	294.40	58.18	-43.9	-44.9	22.6	0.00e+00	0	36	0	840957952	59	4012
2026-01-18 10:20:32.17	295.03	57.91	-43.9	-44.9	22.6	0.00e+00	0	36	0	843055104	59	4013
2026-01-18 10:20:33.18	295.65	57.64	-44.3	-45.4	22.1	0.00e+00	0	36	0	845152256	59	4262
2026-01-18 10:20:34.18	296.25	57.37	-44.5	-45.6	21.6	0.00e+00	0	35	0	847249408	60	4136
2026-01-18 10:20:35.19	296.84	57.10	-44.8	-46.0	21.3	0.00e+00	0	36	0	849346560	60	4326
2026-01-18 10:20:36.20	297.42	56.83	-44.4	-45.5	21.6	0.00e+00	0	36	0	850395136	60	4087
2026-01-18 10:20:37.21	297.99	56.55	-44.8	-45.9	21.4	0.00e+00	0	36	0	852492288	60	4273
2026-01-18 10:20:38.21	298.55	56.27	-44.8	-45.9	21.4	0.00e+00	0	36	0	854589440	60	4265
2026-01-18 10:20:39.22	299.09	56.00	-44.7	-45.8	21.5	0.00e+00	0	36	0	856686592	60	4214
2026-01-18 10:20:40.23	299.63	55.72	-44.4	-45.4	21.8	0.00e+00	0	36	0	858783744	60	4043
2026-01-18 10:20:41.24	300.16	55.43	-44.5	-45.6	21.7	0.00e+00	0	36	0	859832320	60	4129
2026-01-18 10:20:42.25	300.67	55.15	-44.2	-45.2	22.0	0.00e+00	0	35	0	861929472	60	3955
2026-01-18 10:20:43.26	301.18	54.87	-44.0	-45.0	22.5	0.00e+00	0	36	0	864026624	59	4094
2026-01-18 10:20:44.27	301.67	54.59	-44.4	-45.4	22.1	0.00e+00	0	36	0	866123776	59	4275
2026-01-18 10:20:45.27	302.16	54.31	-45.1	-46.3	21.1	0.00e+00	0	36	0	867172352	60	4460
2026-01-18 10:20:46.28	302.63	54.02	-46.3	-47.7	19.8	0.00e+00	0	36	0	869269504	63	4405
2026-01-18 10:20:47.29	303.10	53.74	-45.5	-46.7	20.7	0.00e+00	0	36	0	871366656	62	4187
2026-01-18 10:20:48.29	303.55	53.46	-44.2	-45.3	21.9	0.00e+00	0	35	0	873463808	60	3976
2026-01-18 10:20:49.30	304.00	53.17	-44.3	-45.4	21.9	0.00e+00	0	36	0	875560960	60	4014
2026-01-18 10:20:50.31	304.45	52.89	-45.4	-46.6	20.9	0.00e+00	0	36	0	877658112	61	4364
2026-01-18 10:20:51.32	304.88	52.60	-46.1	-47.4	20.1	0.00e+00	0	35	0	878706688	62	4504
2026-01-18 10:20:52.33	305.30	52.32	-44.9	-46.0	21.3	0.00e+00	0	35	0	880803840	61	4066
2026-01-18 10:20:53.33	305.72	52.04	-45.0	-46.2	21.2	0.00e+00	0	36	0	882900992	61	4158
2026-01-18 10:20:54.34	306.12	51.75	-45.7	-46.9	20.6	0.00e+00	0	36	0	884998144	61	4530
2026-01-18 10:20:55.35	306.53	51.47	-45.7	-47.0	20.5	0.00e+00	0	35	0	887095296	62	4302
2026-01-18 10:20:56.36	306.92	51.19	-44.5	-45.6	21.7	0.00e+00	0	36	0	888143872	60	4101
2026-01-18 10:20:57.37	307.31	50.90	-44.5	-45.5	21.7	0.00e+00	0	36	0	890241024	60	4095
2026-01-18 10:20:58.38	307.69	50.62	-45.2	-46.3	21.1	0.00e+00	0	36	0	892338176	61	4234
2026-01-18 10:20:59.38	308.05	50.34	-45.5	-46.7	20.7	0.00e+00	0	36	0	894435328	61	4437
2026-01-18 10:21:00.39	308.42	50.06	-45.7	-46.9	20.5	0.00e+00	0	36	0	896532480	61	4528
2026-01-18 10:21:01.40	308.78	49.78	-46.0	-47.4	20.2	0.00e+00	0	36	0	897581056	62	4504
2026-01-18 10:21:02.40	309.13	49.50	-46.3	-47.7	19.9	0.00e+00	0	36	0	899678208	63	4424
2026-01-18 10:21:03.42	309.48	49.21	-46.7	-48.3	19.3	0.00e+00	0	36	0	901775360	64	4442
2026-01-18 10:21:04.42	309.81	48.94	-46.8	-48.3	19.2	0.00e+00	0	36	0	903872512	64	4459
2026-01-18 10:21:05.43	310.15	48.66	-46.2	-47.6	19.8	0.00e+00	0	35	0	905969664	64	4133
2026-01-18 10:21:06.43	310.47	48.38	-46.1	-47.5	19.9	0.00e+00	0	36	0	907018240	64	4079
2026-01-18 10:21:07.44	310.80	48.11	-46.0	-47.4	20.1	0.00e+00	0	36	0	909115392	63	4264
2026-01-18 10:21:08.45	311.11	47.83	-45.8	-47.2	20.4	0.00e+00	0	36	0	911212544	63	4151
2026-01-18 10:21:09.46	311.42	47.55	-45.6	-46.8	20.6	0.00e+00	0	36	0	913309696	62	4237
2026-01-18 10:21:10.46	311.73	47.28	-46.3	-47.6	19.9	0.00e+00	0	35	0	915406848	63	4383
2026-01-18 10:21:11.47	312.03	47.01	-46.9	-48.4	19.1	0.00e+00	0	36	0	916455424	64	4538
2026-01-18 10:21:12.48	312.32	46.74	-48.1	-50.0	17.6	0.00e+00	0	36	0	918552576	66	4848
2026-01-18 10:21:13.49	312.61	46.47	-48.9	-51.1	16.7	0.00e+00	0	36	0	920649728	68	4913
2026-01-18 10:21:14.50	312.90	46.19	-48.9	-51.0	16.7	0.00e+00	0	35	0	922746880	68	4842
2026-01-18 10:21:15.51	313.18	45.92	-47.8	-49.5	18.1	0.00e+00	0	36	0	924844032	67	4318
2026-01-18 10:21:16.51	313.45	45.66	-47.4	-49.1	18.5	0.00e+00	0	35	0	925892608	66	4357
2026-01-18 10:21:17.52	313.72	45.39	-47.1	-48.7	18.9	0.00e+00	0	36	0	927989760	65	4408
2026-01-18 10:21:18.53	313.99	45.13	-46.8	-48.3	19.2	0.00e+00	0	36	0	930086912	65	4214
2026-01-18 10:21:19.53	314.25	44.86	-47.2	-48.8	18.8	0.00e+00	0	36	0	932184064	65	4445
2026-01-18 10:21:20.54	314.51	44.60	-47.5	-49.1	18.4	0.00e+00	0	35	0	934281216	65	4645
2026-01-18 10:21:21.55	314.76	44.34	-47.9	-49.7	17.9	0.00e+00	0	36	0	935329792	66	4690
2026-01-18 10:21:22.56	315.02	44.07	-48.5	-50.6	17.0	0.00e+00	0	35	0	937426944	67	4910
2026-01-18 10:21:23.57	315.26	43.81	-48.3	-50.4	17.2	0.00e+00	0	36	0	939524096	67	4765
2026-01-18 10:21:24.57	315.50	43.56	-47.3	-48.9	18.6	0.00e+00	0	36	0	941621248	66	4248
2026-01-18 10:21:25.58	315.74	43.30	-46.7	-48.1	19.3	0.00e+00	0	36	0	943718400	65	4139
2026-01-18 10:21:26.59	315.97	43.04	-47.1	-48.6	18.8	0.00e+00	0	35	0	944766976	65	4377
2026-01-18 10:21:27.60	316.21	42.79	-47.5	-49.1	18.4	0.00e+00	0	35	0	946864128	65	4631
2026-01-18 10:21:28.61	316.43	42.53	-48.4	-50.4	17.2	0.00e+00	0	36	0	948961280	67	4790
2026-01-18 10:21:29.61	316.66	42.28	-47.8	-49.6	17.8	0.00e+00	0	35	0	951058432	67	4370
2026-01-18 10:21:30.62	316.88	42.03	-46.7	-48.2	19.3	0.00e+00	0	36	0	953155584	65	4166
2026-01-18 10:21:31.63	317.09	41.78	-45.5	-46.7	20.7	0.00e+00	0	35	0	954204160	63	3935
2026-01-18 10:21:32.64	317.31	41.53	-44.6	-45.7	21.5	0.00e+00	0	36	0	956301312	61	3923
2026-01-18 10:21:33.65	317.52	41.28	-44.2	-45.2	21.9	0.00e+00	0	36	0	958398464	60	3944
2026-01-18 10:21:34.66	317.73	41.03	-44.4	-45.4	21.8	0.00e+00	0	36	0	960495616	60	4019
2026-01-18 10:21:35.67	317.93	40.79	-45.3	-46.5	20.9	0.00e+00	0	36	0	962592768	61	4295
2026-01-18 10:21:36.67	318.13	40.55	-46.8	-48.3	19.2	0.00e+00	0	36	0	963641344	64	4491
2026-01-18 10:21:37.68	318.33	40.30	-47.8	-49.6	17.9	0.00e+00	0	36	0	965738496	66	4614
2026-01-18 10:21:38.69	318.53	40.06	-48.0	-49.9	17.6	0.00e+00	0	36	0	967835648	67	4532
2026-01-18 10:21:39.70	318.72	39.82	-47.7	-49.6	18.0	0.00e+00	0	35	0	969932800	67	4343
2026-01-18 10:21:40.70	318.91	39.58	-47.1	-48.7	18.7	0.00e+00	0	36	0	972029952	66	4192
2026-01-18 10:21:41.71	319.10	39.35	-45.7	-47.0	20.4	0.00e+00	0	36	0	973078528	63	4066
2026-01-18 10:21:42.72	319.28	39.11	-44.9	-46.0	21.2	0.00e+00	0	36	0	975175680	61	4096
2026-01-18 10:21:43.73	319.46	38.88	-44.2	-45.2	22.0	0.00e+00	0	36	0	977272832	60	3924
2026-01-18 10:21:44.73	319.64	38.64	-44.2	-45.2	22.0	0.00e+00	0	36	0	979369984	60	3937
2026-01-18 10:21:45.74	319.82	38.41	-45.2	-46.4	21.0	0.00e+00	0	36	0	981467136	60	4520
2026-01-18 10:21:46.75	319.99	38.18	-46.7	-48.3	19.3	0.00e+00	0	35	0	982515712	63	4714
2026-01-18 10:21:47.76	320.17	37.95	-48.2	-50.3	17.3	0.00e+00	0	35	0	984612864	67	4748
2026-01-18 10:21:48.77	320.34	37.72	-48.8	-51.0	16.6	0.00e+00	0	36	0	986710016	68	4869
2026-01-18 10:21:49.77	320.50	37.50	-48.7	-50.9	16.7	0.00e+00	0	36	0	988807168	68	4799
2026-01-18 10:21:50.78	320.67	37.27	-47.0	-48.7	18.7	0.00e+00	0	35	0	990904320	66	4149
2026-01-18 10:21:51.79	320.83	37.05	-46.1	-47.5	19.8	0.00e+00	0	35	0	993001472	64	4090
2026-01-18 10:21:52.80	320.99	36.82	-45.4	-46.6	20.7	0.00e+00	0	36	0	994050048	62	4144
2026-01-18 10:21:53.81	321.15	36.60	-45.0	-46.2	21.1	0.00e+00	0	35	0	996147200	61	4172
2026-01-18 10:21:54.82	321.31	36.38	-45.8	-47.0	20.3	0.00e+00	0	36	0	998244352	62	4333
2026-01-18 10:21:55.82	321.46	36.16	-46.6	-48.1	19.4	0.00e+00	0	35	0	1000341504	63	4619
2026-01-18 10:21:56.83	321.62	35.94	-47.3	-48.9	18.5	0.00e+00	0	36	0	1001390080	65	4534
2026-01-18 10:21:57.84	321.77	35.73	-47.7	-49.5	18.0	0.00e+00	0	35	0	1003487232	66	4569
2026-01-18 10:21:58.85	321.92	35.51	-48.2	-50.2	17.3	0.00e+00	0	35	0	1005584384	67	4680
2026-01-18 10:21:59.85	322.06	35.30	-47.8	-49.6	18.0	0.00e+00	0	36	0	1007681536	67	4362
2026-01-18 10:22:00.86	322.21	35.08	-47.4	-49.1	18.3	0.00e+00	0	36	0	1009778688	66	4384
2026-01-18 10:22:01.87	322.35	34.87	-46.8	-48.2	19.1	0.00e+00	0	36	0	1010827264	65	4192
2026-01-18 10:22:02.87	322.49	34.66	-46.1	-47.5	19.8	0.00e+00	0	36	0	1012924416	64	4071
2026-01-18 10:22:03.88	322.63	34.45	-46.0	-47.4	20.0	0.00e+00	0	36	0	1015021568	63	4249
2026-01-18 10:22:04.89	322.77	34.24	-45.8	-47.1	20.3	0.00e+00	0	36	0	1017118720	63	4128
2026-01-18 10:22:05.90	322.91	34.04	-45.7	-47.0	20.3	0.00e+00	0	36	0	1019215872	63	4081
2026-01-18 10:22:06.91	323.04	33.83	-46.2	-47.5	19.9	0.00e+00	0	36	0	1021313024	63	4315
2026-01-18 10:22:07.91	323.17	33.63	-46.5	-47.9	19.6	0.00e+00	0	36	0	1022361600	63	4494
2026-01-18 10:22:08.92	323.30	33.42	-46.6	-48.0	19.4	0.00e+00	0	36	0	1024458752	63	4591
2026-01-18 10:22:09.93	323.43	33.22	-46.8	-48.3	19.0	0.00e+00	0	36	0	1026555904	64	4487
2026-01-18 10:22:10.94	323.56	33.02	-47.0	-48.5	18.9	0.00e+00	0	36	0	1028653056	64	4586
2026-01-18 10:22:11.95	323.69	32.82	-46.9	-48.4	19.0	0.00e+00	0	35	0	1029701632	64	4521
2026-01-18 10:22:12.95	323.81	32.62	-47.1	-48.7	18.6	0.00e+00	0	35	0	1031798784	64	4675
2026-01-18 10:22:13.96	323.94	32.43	-46.7	-48.1	19.2	0.00e+00	0	36	0	1033895936	64	4389
2026-01-18 10:22:14.97	324.06	32.23	-46.7	-48.2	19.2	0.00e+00	0	35	0	1035993088	64	4423
2026-01-18 10:22:15.98	324.18	32.03	-47.0	-48.5	18.8	0.00e+00	0	36	0	1038090240	65	4327
2026-01-18 10:22:16.98	324.30	31.84	-47.0	-48.6	18.8	0.00e+00	0	35	0	1040187392	65	4356
2026-01-18 10:22:17.99	324.42	31.65	-47.4	-49.0	18.4	0.00e+00	0	35	0	1041235968	65	4593
2026-01-18 10:22:19.00	324.54	31.46	-47.6	-49.3	18.0	0.00e+00	0	35	0	1043333120	65	4757
2026-01-18 10:22:20.01	324.65	31.27	-47.9	-49.8	17.7	0.00e+00	0	36	0	1045430272	66	4711
2026-01-18 10:22:21.01	324.77	31.08	-47.9	-49.8	17.5	0.00e+00	0	36	0	1047527424	66	4751
2026-01-18 10:22:22.02	324.88	30.89	-48.1	-50.1	17.4	0.00e+00	0	36	0	1049624576	67	4616
2026-01-18 10:22:23.03	324.99	30.70	-48.1	-50.1	17.4	0.00e+00	0	36	0	1050673152	67	4616
2026-01-18 10:22:24.04	325.10	30.52	-47.7	-49.5	17.9	0.00e+00	0	36	0	1052770304	67	4325
2026-01-18 10:22:25.05	325.21	30.33	-47.5	-49.3	18.1	0.00e+00	0	36	0	1054867456	67	4229
2026-01-18 10:22:26.06	325.32	30.15	-47.3	-49.1	18.3	0.00e+00	0	36	0	1056964608	66	4348
2026-01-18 10:22:27.06	325.43	29.97	-47.4	-49.2	18.2	0.00e+00	0	36	0	1058013184	66	4407
2026-01-18 10:22:28.07	325.53	29.78	-47.3	-49.0	18.4	0.00e+00	0	36	0	1060110336	66	4335
2026-01-18 10:22:29.08	325.64	29.60	-47.3	-48.9	18.5	0.00e+00	0	36	0	1062207488	66	4285
2026-01-18 10:22:30.09	325.74	29.42	-47.4	-49.0	18.4	0.00e+00	0	36	0	1064304640	66	4333
2026-01-18 10:22:31.09	325.84	29.25	-47.6	-49.4	17.9	0.00e+00	0	36	0	1066401792	66	4526
2026-01-18 10:22:32.10	325.94	29.07	-47.5	-49.3	18.1	0.00e+00	0	36	0	1068498944	66	4456
2026-01-18 10:22:33.11	326.05	28.89	-47.8	-49.6	17.9	0.00e+00	0	36	0	1069547520	66	4611
2026-01-18 10:22:34.12	326.15	28.72	-47.7	-49.5	17.9	0.00e+00	0	36	0	1071644672	66	4582
2026-01-18 10:22:35.12	326.24	28.54	-47.7	-49.5	17.8	0.00e+00	0	36	0	1073741824	66	4575
2026-01-18 10:22:36.13	326.34	28.37	-47.8	-49.7	17.7	0.00e+00	0	36	0	1075838976	66	4660
2026-01-18 10:22:37.14	326.44	28.20	-47.8	-49.6	17.7	0.00e+00	0	36	0	1077936128	66	4651
2026-01-18 10:22:38.15	326.53	28.02	-47.6	-49.4	17.9	0.00e+00	0	36	0	1078984704	66	4529
2026-01-18 10:22:39.16	326.63	27.85	-47.3	-48.9	18.4	0.00e+00	0	36	0	1081081856	66	4282
2026-01-18 10:22:40.17	326.72	27.68	-47.2	-48.9	18.4	0.00e+00	0	36	0	1083179008	66	4248
2026-01-18 10:22:41.17	326.81	27.52	-46.7	-48.2	19.1	0.00e+00	0	36	0	1085276160	65	4163
2026-01-18 10:22:42.18	326.90	27.35	-46.4	-47.9	19.4	0.00e+00	0	36	0	1087373312	64	4254
2026-01-18 10:22:43.19	326.99	27.18	-46.3	-47.7	19.5	0.00e+00	0	36	0	1088421888	64	4175
2026-01-18 10:22:44.20	327.08	27.02	-46.0	-47.4	19.9	0.00e+00	0	36	0	1090519040	63	4252
2026-01-18 10:22:45.21	327.17	26.85	-46.0	-47.3	19.9	0.00e+00	0	36	0	1092616192	63	4234
2026-01-18 10:22:46.21	327.26	26.69	-45.9	-47.3	20.0	0.00e+00	0	36	0	1094713344	63	4196
2026-01-18 10:22:47.22	327.35	26.52	-45.9	-47.2	20.1	0.00e+00	0	36	0	1096810496	63	4171
2026-01-18 10:22:48.23	327.43	26.36	-46.3	-47.7	19.6	0.00e+00	0	36	0	1097859072	63	4431
2026-01-18 10:22:49.24	327.52	26.20	-46.2	-47.6	19.7	0.00e+00	0	36	0	1099956224	63	4358
2026-01-18 10:22:50.25	327.60	26.04	-46.4	-47.9	19.4	0.00e+00	0	35	0	1102053376	63	4520
2026-01-18 10:22:51.25	327.69	25.88	-46.6	-48.1	19.2	0.00e+00	0	35	0	1104150528	63	4613
2026-01-18 10:22:52.26	327.77	25.72	-46.6	-48.2	19.1	0.00e+00	0	36	0	1106247680	63	4662
2026-01-18 10:22:53.27	327.85	25.57	-46.5	-48.0	19.2	0.00e+00	0	36	0	1107296256	64	4305
2026-01-18 10:22:54.28	327.94	25.41	-46.6	-48.2	19.1	0.00e+00	0	36	0	1109393408	64	4396
2026-01-18 10:22:55.29	328.02	25.25	-46.7	-48.2	19.0	0.00e+00	0	36	0	1111490560	64	4426
2026-01-18 10:22:56.29	328.10	25.10	-46.5	-48.1	19.1	0.00e+00	0	36	0	1113587712	64	4350
2026-01-18 10:22:57.30	328.18	24.95	-46.6	-48.2	18.9	0.00e+00	0	36	0	1115684864	64	4410
2026-01-18 10:22:58.31	328.25	24.79	-46.4	-47.9	19.2	0.00e+00	0	36	0	1116733440	64	4274
2026-01-18 10:22:59.32	328.33	24.64	-46.5	-48.0	19.2	0.00e+00	0	36	0	1118830592	64	4310
2026-01-18 10:23:00.33	328.41	24.49	-46.5	-48.0	19.2	0.00e+00	0	36	0	1120927744	64	4324
2026-01-18 10:23:01.33	328.48	24.34	-46.2	-47.7	19.4	0.00e+00	0	36	0	1123024896	64	4177
2026-01-18 10:23:02.34	328.56	24.19	-46.3	-47.9	19.3	0.00e+00	0	36	0	1125122048	64	4243
2026-01-18 10:23:03.35	328.64	24.04	-46.4	-47.9	19.2	0.00e+00	0	36	0	1126170624	64	4285
2026-01-18 10:23:04.35	328.71	23.89	-46.1	-47.5	19.6	0.00e+00	0	36	0	1128267776	64	4080
2026-01-18 10:23:05.36	328.78	23.74	-46.0	-47.4	19.8	0.00e+00	0	36	0	1130364928	63	4274
2026-01-18 10:23:06.37	328.86	23.60	-45.7	-47.0	20.1	0.00e+00	0	35	0	1132462080	63	4095
2026-01-18 10:23:07.38	328.93	23.45	-45.6	-46.9	20.2	0.00e+00	0	36	0	1134559232	63	4041
2026-01-18 10:23:08.39	329.00	23.31	-45.0	-46.2	20.8	0.00e+00	0	36	0	1136656384	61	4181
2026-01-18 10:23:09.39	329.07	23.16	-44.5	-45.6	21.4	0.00e+00	0	36	0	1137704960	60	4122
2026-01-18 10:23:10.40	329.14	23.02	-44.2	-45.3	21.7	0.00e+00	0	36	0	1139802112	60	3960
2026-01-18 10:23:11.41	329.21	22.87	-44.1	-45.2	22.0	0.00e+00	0	36	0	1141899264	59	4169
2026-01-18 10:23:12.42	329.28	22.73	-44.0	-45.1	22.1	0.00e+00	0	35	0	1143996416	59	4112
2026-01-18 10:23:13.43	329.35	22.59	-43.9	-44.9	22.2	0.00e+00	0	35	0	1145044992	59	4051
2026-01-18 10:23:14.43	329.42	22.45	-43.9	-45.0	22.1	0.00e+00	0	35	0	1147142144	59	4062
2026-01-18 10:23:15.44	329.49	22.31	-44.0	-45.0	22.1	0.00e+00	0	35	0	1149239296	59	4085
2026-01-18 10:23:16.45	329.55	22.17	-44.0	-45.0	22.1	0.00e+00	0	36	0	1151336448	59	4079
2026-01-18 10:23:17.46	329.62	22.03	-44.3	-45.3	21.8	0.00e+00	0	36	0	1153433600	59	4241
2026-01-18 10:23:18.47	329.69	21.90	-44.5	-45.6	21.6	0.00e+00	0	35	0	1154482176	59	4371
2026-01-18 10:23:19.47	329.75	21.76	-44.7	-45.8	21.4	0.00e+00	0	36	0	1156579328	59	4480
2026-01-18 10:23:20.48	329.82	21.62	-44.5	-45.7	21.3	0.00e+00	0	36	0	1158676480	60	4148
2026-01-18 10:23:21.49	329.88	21.49	-44.8	-45.9	21.0	0.00e+00	0	36	0	1160773632	60	4282
2026-01-18 10:23:22.49	329.95	21.35	-44.9	-46.1	20.9	0.00e+00	0	36	0	1162870784	60	4367
2026-01-18 10:23:23.50	330.01	21.22	-44.8	-46.0	20.9	0.00e+00	0	36	0	1164967936	60	4312
2026-01-18 10:23:24.50	330.07	21.09	-44.8	-46.0	21.0	0.00e+00	0	36	0	1166016512	60	4313
2026-01-18 10:23:25.49	330.13	20.96	-44.7	-45.9	21.0	0.00e+00	0	36	0	1168113664	60	4266
2026-01-18 10:23:26.50	330.19	20.82	-44.7	-45.9	21.0	0.00e+00	0	36	0	1170210816	60	4248
2026-01-18 10:23:27.50	330.26	20.69	-44.7	-45.9	21.0	0.00e+00	0	36	0	1172307968	60	4262
2026-01-18 10:23:28.51	330.32	20.56	-44.7	-45.9	21.0	0.00e+00	0	36	0	1173356544	60	4277
2026-01-18 10:23:29.52	330.38	20.43	-44.5	-45.6	21.2	0.00e+00	0	36	0	1175453696	60	4143
2026-01-18 10:23:30.52	330.44	20.30	-44.5	-45.7	21.2	0.00e+00	0	36	0	1177550848	60	4150
2026-01-18 10:23:31.53	330.50	20.17	-44.4	-45.6	21.3	0.00e+00	0	36	0	1179648000	60	4105
2026-01-18 10:23:32.54	330.56	20.05	-44.3	-45.4	21.4	0.00e+00	0	36	0	1181745152	60	4022
2026-01-18 10:23:33.54	330.61	19.92	-44.4	-45.5	21.3	0.00e+00	0	35	0	1182793728	60	4088
2026-01-18 10:23:34.55	330.67	19.79	-44.5	-45.6	21.3	0.00e+00	0	36	0	1184890880	60	4133
2026-01-18 10:23:35.56	330.73	19.67	-44.4	-45.6	21.3	0.00e+00	0	36	0	1186988032	60	4105
2026-01-18 10:23:36.57	330.79	19.54	-44.6	-45.7	21.1	0.00e+00	0	36	0	1189085184	60	4177
2026-01-18 10:23:37.57	330.84	19.42	-44.7	-45.8	21.0	0.00e+00	0	36	0	1191182336	60	4234
2026-01-18 10:23:38.58	330.90	19.29	-44.7	-45.9	21.0	0.00e+00	0	36	0	1193279488	60	4267
2026-01-18 10:23:39.59	330.96	19.17	-44.7	-45.9	21.0	0.00e+00	0	35	0	1194328064	60	4258
2026-01-18 10:23:40.60	331.01	19.04	-44.7	-45.9	20.9	0.00e+00	0	36	0	1196425216	60	4287
2026-01-18 10:23:41.60	331.07	18.92	-44.8	-46.0	20.9	0.00e+00	0	36	0	1198522368	60	4312
2026-01-18 10:23:42.61	331.12	18.80	-44.9	-46.2	20.7	0.00e+00	0	36	0	1200619520	60	4406
2026-01-18 10:23:43.61	331.18	18.68	-44.9	-46.1	20.8	0.00e+00	0	35	0	1201668096	60	4383
2026-01-18 10:23:44.61	331.23	18.56	-45.1	-46.4	20.5	0.00e+00	0	36	0	1203765248	60	4505
2026-01-18 10:23:45.61	331.28	18.44	-45.2	-46.5	20.4	0.00e+00	0	36	0	1205862400	61	4301
2026-01-18 10:23:46.61	331.33	18.32	-45.3	-46.7	20.3	0.00e+00	0	36	0	1207959552	61	4395
2026-01-18 10:23:47.62	331.39	18.20	-45.4	-46.7	20.2	0.00e+00	0	36	0	1210056704	61	4412
2026-01-18 10:23:48.63	331.44	18.08	-45.6	-46.9	20.1	0.00e+00	0	35	0	1211105280	61	4527
2026-01-18 10:23:49.64	331.49	17.96	-45.7	-47.0	19.9	0.00e+00	0	36	0	1213202432	62	4322
2026-01-18 10:23:50.65	331.54	17.84	-45.8	-47.2	19.7	0.00e+00	0	36	0	1215299584	62	4434
2026-01-18 10:23:51.65	331.60	17.73	-45.9	-47.3	19.7	0.00e+00	0	36	0	1217396736	62	4457
2026-01-18 10:23:52.66	331.65	17.61	-45.9	-47.3	19.7	0.00e+00	0	36	0	1219493888	62	4476
2026-01-18 10:23:53.67	331.70	17.49	-46.1	-47.6	19.4	0.00e+00	0	36	0	1220542464	62	4624
2026-01-18 10:23:54.67	331.75	17.38	-45.9	-47.3	19.7	0.00e+00	0	35	0	1222639616	62	4486
2026-01-18 10:23:55.68	331.80	17.26	-46.0	-47.4	19.6	0.00e+00	0	36	0	1224736768	62	4520
2026-01-18 10:23:56.69	331.85	17.15	-45.9	-47.4	19.6	0.00e+00	0	35	0	1226833920	62	4494
2026-01-18 10:23:57.70	331.90	17.04	-45.8	-47.1	19.8	0.00e+00	0	36	0	1228931072	62	4384
2026-01-18 10:23:58.70	331.94	16.92	-45.8	-47.2	19.8	0.00e+00	0	35	0	1229979648	62	4394
2026-01-18 10:23:59.71	331.99	16.81	-45.8	-47.1	19.8	0.00e+00	0	36	0	1232076800	62	4390
2026-01-18 10:24:00.72	332.04	16.70	-45.5	-46.8	20.1	0.00e+00	0	35	0	1234173952	62	4224
2026-01-18 10:24:01.73	332.09	16.59	-45.3	-46.6	20.2	0.00e+00	0	35	0	1236271104	62	4145
2026-01-18 10:24:02.74	332.14	16.47	-45.3	-46.6	20.2	0.00e+00	0	35	0	1238368256	62	4129
2026-01-18 10:24:03.73	332.18	16.36	-45.2	-46.4	20.4	0.00e+00	0	35	0	1239416832	62	4037
2026-01-18 10:24:04.73	332.23	16.26	-45.1	-46.3	20.5	0.00e+00	0	36	0	1241513984	62	3989
2026-01-18 10:24:05.74	332.28	16.14	-45.0	-46.3	20.5	0.00e+00	0	36	0	1243611136	62	3978
