passes_logs/2026/01/18/R3.2S_Murmansk/R3.2S_Murmansk__20260118_235614_SUOMI_NPP_rec.log

#Pass ID: 20260118_235614_SUOMI NPP
#Satellite: SUOMI NPP
#Configuration: NPP
#almurnet v.1.7.20251203
#Start time: 2026-01-18 23:56:14

#Version: 2.2.20231116
#Station: R3.2S_Murmansk
#Location: 33.079688 lon 68.888172 lat
#TLE: 1 37849U 11061A   26018.62828014  .00000065  00000+0  51921-4 0  9990
#TLE: 2 37849  98.7815 320.6456 0002372  57.2989 302.8415 14.19526102737226

#Time	Az	El	Level	Level2	SNR	BER	BlckErr	Temp	State	Recorded	gain1	gain2
2026-01-18 23:56:14.22	21.84	1.99	-52.1	-66.8	3.8	1.49e+00	0	34	0	0	74	21210
2026-01-18 23:56:15.22	21.87	2.05	-52.1	-66.3	3.8	1.49e+00	0	35	104	0	74	19914
2026-01-18 23:56:16.23	21.90	2.12	-52.0	-65.8	3.8	1.49e+00	0	35	104	0	74	18863
2026-01-18 23:56:17.24	21.92	2.18	-52.0	-65.6	3.8	1.49e+00	0	34	104	0	74	18367
2026-01-18 23:56:18.25	21.95	2.24	-52.0	-65.3	3.8	1.49e+00	0	35	104	0	74	17724
2026-01-18 23:56:19.26	21.98	2.31	-52.0	-65.4	3.8	1.49e+00	0	35	104	0	74	17889
2026-01-18 23:56:20.26	22.01	2.37	-52.0	-64.9	3.9	1.49e+00	0	35	104	0	74	16991
2026-01-18 23:56:21.27	22.03	2.43	-52.0	-65.2	3.9	1.49e+00	0	35	104	0	74	17578
2026-01-18 23:56:22.28	22.06	2.50	-52.0	-65.1	3.8	1.49e+00	0	35	104	0	74	17330
2026-01-18 23:56:23.29	22.09	2.56	-52.0	-64.9	3.9	1.48e+00	0	35	104	0	74	16902
2026-01-18 23:56:24.29	22.12	2.63	-52.0	-64.9	3.8	1.48e+00	0	35	104	0	74	17060
2026-01-18 23:56:25.30	22.14	2.69	-52.0	-64.6	4.0	1.48e+00	0	35	104	0	74	16349
2026-01-18 23:56:26.31	22.17	2.76	-52.0	-64.5	3.8	1.47e+00	0	35	104	0	74	16246
2026-01-18 23:56:27.32	22.20	2.82	-51.9	-64.1	4.0	1.45e+00	0	35	0	0	74	15539
2026-01-18 23:56:28.33	22.23	2.89	-51.9	-63.6	4.1	1.43e+00	0	35	0	0	74	14699
2026-01-18 23:56:29.33	22.26	2.95	-51.8	-62.9	4.4	1.35e+00	102	35	0	0	74	13490
2026-01-18 23:56:30.34	22.28	3.02	-51.8	-62.4	4.6	1.06e+00	0	35	0	1048576	74	12714
2026-01-18 23:56:31.35	22.31	3.08	-51.7	-61.9	4.8	9.13e-01	0	35	0	3145728	74	12038
2026-01-18 23:56:32.36	22.34	3.15	-51.8	-61.9	4.8	8.27e-01	0	35	0	5242880	74	11970
2026-01-18 23:56:33.37	22.37	3.21	-51.7	-61.5	5.0	6.99e-01	0	35	0	7340032	74	11487
2026-01-18 23:56:34.37	22.40	3.28	-51.7	-61.2	5.1	5.92e-01	0	35	0	9437184	73	11804
2026-01-18 23:56:35.38	22.43	3.34	-51.7	-61.2	5.2	6.31e-01	0	35	0	10485760	73	11742
2026-01-18 23:56:36.39	22.46	3.41	-51.6	-60.6	5.5	5.02e-01	0	35	0	12582912	73	10990
2026-01-18 23:56:37.40	22.49	3.48	-51.6	-61.0	5.2	5.00e-01	0	35	0	14680064	73	11524
2026-01-18 23:56:38.41	22.51	3.54	-51.6	-60.7	5.5	4.63e-01	0	35	0	16777216	73	11111
2026-01-18 23:56:39.41	22.54	3.61	-51.5	-60.2	5.8	3.56e-01	0	35	0	18874368	73	10510
2026-01-18 23:56:40.42	22.57	3.68	-51.4	-59.2	6.6	2.94e-01	0	35	0	20971520	73	9282
2026-01-18 23:56:41.43	22.60	3.74	-51.1	-57.9	7.8	1.63e-01	0	35	0	22020096	73	8041
2026-01-18 23:56:42.43	22.63	3.81	-50.8	-56.8	8.9	4.57e-02	0	35	0	24117248	73	7105
2026-01-18 23:56:43.44	22.66	3.88	-50.6	-55.9	9.9	1.80e-02	0	35	0	26214400	72	6764
2026-01-18 23:56:44.45	22.69	3.95	-50.3	-55.0	10.8	3.91e-03	0	35	0	28311552	72	6124
2026-01-18 23:56:45.46	22.72	4.01	-50.0	-54.4	11.5	1.00e-03	0	35	0	29360128	70	6387
2026-01-18 23:56:46.47	22.75	4.08	-49.9	-54.0	11.9	3.30e-04	0	35	0	31457280	70	6083
2026-01-18 23:56:47.48	22.78	4.15	-49.4	-53.0	13.0	4.50e-05	0	35	0	33554432	70	5426
2026-01-18 23:56:48.48	22.81	4.22	-49.2	-52.7	13.3	2.36e-05	0	35	0	35651584	69	5536
2026-01-18 23:56:49.49	22.84	4.29	-48.7	-51.6	14.3	4.50e-06	0	35	0	37748736	69	4926
2026-01-18 23:56:50.50	22.87	4.35	-48.9	-52.1	13.9	0.00e+00	0	35	0	38797312	69	5161
2026-01-18 23:56:51.51	22.90	4.42	-48.7	-51.6	14.4	0.00e+00	0	35	0	40894464	68	5214
2026-01-18 23:56:52.52	22.93	4.49	-48.6	-51.5	14.5	7.00e-07	0	35	0	42991616	68	5121
2026-01-18 23:56:53.52	22.97	4.56	-48.7	-51.8	14.2	0.00e+00	0	35	0	45088768	68	5281
2026-01-18 23:56:54.53	23.00	4.63	-48.8	-51.9	14.1	7.00e-07	0	35	0	47185920	68	5350
2026-01-18 23:56:55.54	23.03	4.70	-49.2	-52.7	13.3	6.80e-06	0	35	0	49283072	69	5553
2026-01-18 23:56:56.55	23.06	4.77	-49.4	-53.1	12.9	3.50e-05	0	36	0	50331648	69	5809
2026-01-18 23:56:57.55	23.09	4.84	-49.8	-53.8	12.2	7.47e-05	0	35	0	52428800	70	5944
2026-01-18 23:56:58.56	23.12	4.91	-50.0	-54.4	11.5	5.61e-04	0	35	0	54525952	70	6415
2026-01-18 23:56:59.57	23.15	4.98	-50.4	-55.3	10.6	2.89e-03	0	35	0	56623104	71	6676
2026-01-18 23:57:00.58	23.19	5.05	-49.3	-52.7	13.1	5.63e-03	0	36	0	57671680	70	5259
2026-01-18 23:57:01.59	23.22	5.12	-48.8	-51.7	14.4	7.00e-07	0	35	0	59768832	69	4970
2026-01-18 23:57:02.59	23.25	5.19	-50.7	-56.3	10.0	3.05e-05	0	36	0	61865984	71	7500
2026-01-18 23:57:03.60	23.28	5.26	-51.2	-58.5	7.1	4.34e-01	0	36	0	63963136	73	8651
2026-01-18 23:57:04.61	23.31	5.33	-48.2	-50.7	15.2	9.66e-02	0	36	0	66060288	68	4698
2026-01-18 23:57:05.62	23.35	5.40	-48.3	-50.8	15.3	0.00e+00	0	35	0	68157440	67	5034
2026-01-18 23:57:06.63	23.38	5.47	-48.1	-50.6	15.6	0.00e+00	0	35	0	69206016	67	4909
2026-01-18 23:57:07.63	23.41	5.54	-48.0	-50.4	15.7	0.00e+00	0	36	0	71303168	67	4794
2026-01-18 23:57:08.64	23.44	5.62	-48.0	-50.4	15.7	0.00e+00	0	35	0	73400320	66	5093
2026-01-18 23:57:09.65	23.48	5.69	-47.8	-50.2	16.0	0.00e+00	0	35	0	75497472	66	4949
2026-01-18 23:57:10.66	23.51	5.76	-47.9	-50.3	15.9	0.00e+00	0	36	0	77594624	66	4989
2026-01-18 23:57:11.67	23.54	5.83	-47.8	-50.1	16.1	0.00e+00	0	36	0	78643200	66	4925
2026-01-18 23:57:12.68	23.58	5.90	-47.9	-50.3	15.9	0.00e+00	0	36	0	80740352	66	5017
2026-01-18 23:57:13.68	23.61	5.98	-48.0	-50.4	15.9	0.00e+00	0	35	0	82837504	66	5061
2026-01-18 23:57:14.69	23.64	6.05	-47.9	-50.3	15.9	0.00e+00	0	36	0	84934656	66	5002
2026-01-18 23:57:15.70	23.68	6.12	-47.9	-50.2	16.1	0.00e+00	0	35	0	85983232	66	4957
2026-01-18 23:57:16.71	23.71	6.20	-47.8	-50.1	16.2	0.00e+00	0	36	0	88080384	66	4886
2026-01-18 23:57:17.72	23.75	6.27	-47.8	-50.1	16.2	0.00e+00	0	36	0	90177536	66	4885
2026-01-18 23:57:18.72	23.78	6.34	-47.8	-50.0	16.3	0.00e+00	0	36	0	92274688	66	4856
2026-01-18 23:57:19.73	23.81	6.42	-47.9	-50.2	16.2	0.00e+00	0	36	0	94371840	66	4935
2026-01-18 23:57:20.74	23.85	6.49	-47.9	-50.2	16.1	0.00e+00	0	36	0	96468992	66	4964
2026-01-18 23:57:21.75	23.88	6.57	-47.8	-50.1	16.2	0.00e+00	0	36	0	97517568	66	4881
2026-01-18 23:57:22.75	23.92	6.64	-47.7	-49.9	16.4	0.00e+00	0	36	0	99614720	66	4812
2026-01-18 23:57:23.76	23.95	6.71	-47.8	-50.1	16.2	0.00e+00	0	36	0	101711872	66	4881
2026-01-18 23:57:24.77	23.99	6.79	-47.7	-49.9	16.5	0.00e+00	0	36	0	103809024	66	4765
2026-01-18 23:57:25.78	24.02	6.86	-47.9	-50.1	16.3	0.00e+00	0	36	0	105906176	66	4921
2026-01-18 23:57:26.79	24.06	6.94	-47.8	-50.0	16.4	0.00e+00	0	36	0	106954752	66	4849
2026-01-18 23:57:27.79	24.10	7.01	-47.8	-50.0	16.4	0.00e+00	0	36	0	109051904	66	4861
2026-01-18 23:57:28.80	24.13	7.09	-47.8	-50.0	16.4	0.00e+00	0	36	0	111149056	66	4840
2026-01-18 23:57:29.81	24.17	7.17	-47.8	-50.0	16.4	0.00e+00	0	36	0	113246208	66	4840
2026-01-18 23:57:30.82	24.20	7.24	-47.7	-49.9	16.6	0.00e+00	0	36	0	115343360	66	4779
2026-01-18 23:57:31.83	24.24	7.32	-47.7	-49.9	16.5	0.00e+00	0	36	0	116391936	66	4802
2026-01-18 23:57:32.83	24.28	7.40	-47.8	-50.1	16.4	0.00e+00	0	36	0	118489088	66	4884
2026-01-18 23:57:33.84	24.31	7.47	-47.8	-49.9	16.5	0.00e+00	0	36	0	120586240	66	4814
2026-01-18 23:57:34.85	24.35	7.55	-47.8	-50.1	16.4	0.00e+00	0	36	0	122683392	66	4879
2026-01-18 23:57:35.86	24.39	7.63	-47.8	-50.0	16.5	0.00e+00	0	36	0	124780544	66	4829
2026-01-18 23:57:36.86	24.42	7.70	-47.8	-50.0	16.5	0.00e+00	0	36	0	125829120	66	4826
2026-01-18 23:57:37.87	24.46	7.78	-47.8	-50.0	16.5	0.00e+00	0	36	0	127926272	66	4855
2026-01-18 23:57:38.88	24.50	7.86	-47.5	-49.6	16.9	0.00e+00	0	36	0	130023424	66	4632
2026-01-18 23:57:39.89	24.54	7.94	-47.6	-49.8	16.7	0.00e+00	0	36	0	132120576	66	4707
2026-01-18 23:57:40.89	24.57	8.02	-47.8	-49.9	16.6	0.00e+00	0	36	0	134217728	66	4802
2026-01-18 23:57:41.90	24.61	8.09	-47.6	-49.7	16.8	0.00e+00	0	36	0	135266304	66	4691
2026-01-18 23:57:42.91	24.65	8.17	-47.7	-49.8	16.6	0.00e+00	0	36	0	137363456	66	4751
2026-01-18 23:57:43.92	24.69	8.25	-47.6	-49.7	16.7	0.00e+00	0	36	0	139460608	66	4685
2026-01-18 23:57:44.93	24.73	8.33	-47.7	-49.9	16.6	0.00e+00	0	36	0	141557760	66	4774
2026-01-18 23:57:45.93	24.77	8.41	-47.6	-49.7	16.8	0.00e+00	0	36	0	143654912	66	4687
2026-01-18 23:57:46.94	24.81	8.49	-47.5	-49.5	17.0	0.00e+00	0	36	0	144703488	66	4588
2026-01-18 23:57:47.95	24.84	8.57	-47.6	-49.6	16.9	0.00e+00	0	36	0	146800640	66	4650
2026-01-18 23:57:48.96	24.88	8.65	-47.6	-49.8	16.8	0.00e+00	0	36	0	148897792	66	4707
2026-01-18 23:57:49.97	24.92	8.73	-47.6	-49.6	16.9	0.00e+00	0	36	0	150994944	66	4637
2026-01-18 23:57:50.97	24.96	8.81	-47.4	-49.5	17.0	0.00e+00	0	36	0	153092096	66	4555
2026-01-18 23:57:51.98	25.00	8.89	-47.5	-49.5	17.0	0.00e+00	0	36	0	154140672	66	4597
2026-01-18 23:57:52.99	25.04	8.98	-47.5	-49.5	17.0	0.00e+00	0	36	0	156237824	66	4588
2026-01-18 23:57:54.00	25.08	9.06	-47.4	-49.4	17.1	0.00e+00	0	36	0	158334976	66	4545
2026-01-18 23:57:55.01	25.12	9.14	-47.5	-49.5	17.0	0.00e+00	0	36	0	160432128	66	4588
2026-01-18 23:57:56.01	25.16	9.22	-47.6	-49.7	16.9	0.00e+00	0	36	0	162529280	66	4681
2026-01-18 23:57:57.02	25.21	9.30	-47.6	-49.7	16.9	0.00e+00	0	36	0	163577856	66	4667
2026-01-18 23:57:58.03	25.25	9.39	-47.5	-49.6	17.0	0.00e+00	0	36	0	165675008	66	4600
2026-01-18 23:57:59.04	25.29	9.47	-47.4	-49.4	17.1	0.00e+00	0	36	0	167772160	66	4537
2026-01-18 23:58:00.05	25.33	9.55	-47.4	-49.4	17.2	0.00e+00	0	36	0	169869312	66	4525
2026-01-18 23:58:01.05	25.37	9.64	-47.2	-49.1	17.4	0.00e+00	0	36	0	171966464	66	4382
2026-01-18 23:58:02.06	25.41	9.72	-47.3	-49.3	17.3	0.00e+00	0	36	0	173015040	66	4457
2026-01-18 23:58:03.07	25.46	9.80	-47.3	-49.2	17.4	0.00e+00	0	36	0	175112192	66	4411
2026-01-18 23:58:04.08	25.50	9.89	-47.3	-49.2	17.4	0.00e+00	0	36	0	177209344	66	4430
2026-01-18 23:58:05.09	25.54	9.97	-47.2	-49.0	17.6	0.00e+00	0	36	0	179306496	66	4332
2026-01-18 23:58:06.09	25.58	10.06	-47.2	-49.1	17.5	0.00e+00	0	36	0	181403648	66	4366
2026-01-18 23:58:07.10	25.63	10.14	-47.2	-49.1	17.5	0.00e+00	0	36	0	182452224	66	4355
2026-01-18 23:58:08.11	25.67	10.23	-47.2	-49.1	17.5	0.00e+00	0	36	0	184549376	66	4373
2026-01-18 23:58:09.12	25.71	10.31	-47.3	-49.2	17.5	0.00e+00	0	36	0	186646528	66	4413
2026-01-18 23:58:10.13	25.76	10.40	-47.1	-48.9	17.7	0.00e+00	0	36	0	188743680	66	4287
2026-01-18 23:58:11.14	25.80	10.49	-47.1	-49.0	17.7	0.00e+00	0	36	0	190840832	66	4296
2026-01-18 23:58:12.14	25.85	10.57	-47.0	-48.8	17.9	0.00e+00	0	36	0	191889408	65	4446
2026-01-18 23:58:13.15	25.89	10.66	-46.9	-48.7	17.9	0.00e+00	0	36	0	193986560	65	4418
2026-01-18 23:58:14.16	25.93	10.75	-46.9	-48.7	18.0	0.00e+00	0	36	0	196083712	65	4392
2026-01-18 23:58:15.17	25.98	10.83	-47.1	-48.9	17.8	0.00e+00	0	36	0	198180864	65	4507
2026-01-18 23:58:16.18	26.03	10.92	-46.9	-48.7	17.9	0.00e+00	0	36	0	200278016	65	4423
2026-01-18 23:58:17.19	26.07	11.01	-47.0	-48.8	17.9	0.00e+00	0	36	0	201326592	65	4444
2026-01-18 23:58:18.19	26.12	11.10	-46.8	-48.6	18.1	0.00e+00	0	36	0	203423744	65	4341
2026-01-18 23:58:19.20	26.16	11.19	-46.9	-48.7	18.0	0.00e+00	0	36	0	205520896	65	4409
2026-01-18 23:58:20.21	26.21	11.28	-46.7	-48.4	18.2	0.00e+00	0	36	0	207618048	65	4290
2026-01-18 23:58:21.22	26.25	11.36	-46.9	-48.6	18.1	0.00e+00	0	36	0	209715200	65	4371
2026-01-18 23:58:22.23	26.30	11.45	-46.7	-48.3	18.3	0.00e+00	0	36	0	211812352	65	4229
2026-01-18 23:58:23.23	26.35	11.54	-46.8	-48.5	18.2	0.00e+00	0	36	0	212860928	65	4316
2026-01-18 23:58:24.24	26.40	11.63	-46.8	-48.6	18.1	0.00e+00	0	36	0	214958080	65	4347
2026-01-18 23:58:25.25	26.44	11.72	-46.7	-48.4	18.3	0.00e+00	0	36	0	217055232	65	4257
2026-01-18 23:58:26.26	26.49	11.82	-46.8	-48.5	18.2	0.00e+00	0	36	0	219152384	64	4559
2026-01-18 23:58:27.27	26.54	11.91	-46.7	-48.4	18.3	0.00e+00	0	36	0	220200960	64	4494
2026-01-18 23:58:28.27	26.59	12.00	-46.6	-48.3	18.4	0.00e+00	0	36	0	222298112	64	4449
2026-01-18 23:58:29.28	26.64	12.09	-46.5	-48.1	18.5	0.00e+00	0	36	0	224395264	64	4368
2026-01-18 23:58:30.29	26.68	12.18	-46.5	-48.2	18.5	0.00e+00	0	36	0	226492416	64	4401
2026-01-18 23:58:31.30	26.73	12.27	-46.4	-48.0	18.6	0.00e+00	0	36	0	228589568	64	4340
2026-01-18 23:58:32.30	26.78	12.37	-46.4	-48.0	18.6	0.00e+00	0	36	0	229638144	64	4337
2026-01-18 23:58:33.31	26.83	12.46	-46.4	-47.9	18.7	0.00e+00	0	36	0	231735296	64	4287
2026-01-18 23:58:34.32	26.88	12.55	-46.4	-48.0	18.7	0.00e+00	0	36	0	233832448	64	4306
2026-01-18 23:58:35.33	26.93	12.65	-46.3	-47.9	18.7	0.00e+00	0	36	0	235929600	64	4277
2026-01-18 23:58:36.33	26.98	12.74	-46.2	-47.8	18.9	0.00e+00	0	36	0	238026752	64	4212
2026-01-18 23:58:37.34	27.03	12.84	-46.3	-47.8	18.8	0.00e+00	0	36	0	240123904	64	4239
2026-01-18 23:58:38.35	27.08	12.93	-46.4	-48.0	18.7	0.00e+00	0	36	0	241172480	64	4323
2026-01-18 23:58:39.36	27.14	13.03	-46.5	-48.1	18.6	0.00e+00	0	36	0	243269632	64	4373
2026-01-18 23:58:40.37	27.19	13.12	-46.4	-47.9	18.8	0.00e+00	0	36	0	245366784	64	4269
2026-01-18 23:58:41.37	27.24	13.22	-46.6	-48.2	18.5	0.00e+00	0	36	0	247463936	64	4413
2026-01-18 23:58:42.38	27.29	13.31	-46.2	-47.8	19.0	0.00e+00	0	36	0	248512512	64	4200
2026-01-18 23:58:43.39	27.34	13.41	-46.5	-48.1	18.7	0.00e+00	0	36	0	250609664	64	4350
2026-01-18 23:58:44.40	27.40	13.51	-46.5	-48.1	18.7	0.00e+00	0	36	0	252706816	64	4351
2026-01-18 23:58:45.41	27.45	13.61	-46.4	-48.0	18.7	0.00e+00	0	36	0	254803968	64	4325
2026-01-18 23:58:46.41	27.50	13.70	-46.4	-48.0	18.8	0.00e+00	0	36	0	256901120	64	4303
2026-01-18 23:58:47.42	27.56	13.80	-46.3	-47.9	18.8	0.00e+00	0	36	0	258998272	64	4261
2026-01-18 23:58:48.43	27.61	13.90	-46.1	-47.6	19.2	0.00e+00	0	36	0	260046848	63	4375
2026-01-18 23:58:49.43	27.67	14.00	-46.2	-47.7	19.1	0.00e+00	0	36	0	262144000	63	4406
2026-01-18 23:58:50.44	27.72	14.10	-46.2	-47.7	19.1	0.00e+00	0	36	0	264241152	63	4429
2026-01-18 23:58:51.45	27.78	14.20	-46.1	-47.6	19.2	0.00e+00	0	36	0	266338304	63	4352
2026-01-18 23:58:52.46	27.83	14.30	-46.2	-47.7	19.1	0.00e+00	0	36	0	268435456	63	4429
2026-01-18 23:58:53.47	27.89	14.40	-46.2	-47.7	19.1	0.00e+00	0	36	0	269484032	63	4418
2026-01-18 23:58:54.48	27.94	14.50	-46.2	-47.7	19.2	0.00e+00	0	36	0	271581184	63	4404
2026-01-18 23:58:55.48	28.00	14.60	-46.0	-47.5	19.4	0.00e+00	0	36	0	273678336	63	4298
2026-01-18 23:58:56.49	28.06	14.70	-46.0	-47.5	19.3	0.00e+00	0	36	0	275775488	63	4318
2026-01-18 23:58:57.50	28.12	14.80	-45.9	-47.4	19.5	0.00e+00	0	36	0	276824064	63	4255
2026-01-18 23:58:58.51	28.17	14.91	-46.1	-47.5	19.3	0.00e+00	0	36	0	278921216	63	4325
2026-01-18 23:58:59.51	28.23	15.01	-46.0	-47.5	19.4	0.00e+00	0	36	0	281018368	63	4318
2026-01-18 23:59:00.52	28.29	15.11	-46.0	-47.4	19.4	0.00e+00	0	36	0	283115520	63	4279
2026-01-18 23:59:01.53	28.35	15.22	-45.9	-47.3	19.5	0.00e+00	0	36	0	285212672	63	4238
2026-01-18 23:59:02.54	28.41	15.32	-45.9	-47.3	19.6	0.00e+00	0	36	0	287309824	63	4218
2026-01-18 23:59:03.55	28.47	15.42	-45.9	-47.4	19.5	0.00e+00	0	36	0	288358400	63	4253
2026-01-18 23:59:04.55	28.53	15.53	-45.9	-47.3	19.5	0.00e+00	0	36	0	290455552	63	4233
2026-01-18 23:59:05.56	28.59	15.63	-45.9	-47.3	19.6	0.00e+00	0	36	0	292552704	63	4222
2026-01-18 23:59:06.57	28.65	15.74	-46.0	-47.5	19.4	0.00e+00	0	36	0	294649856	63	4311
2026-01-18 23:59:07.58	28.71	15.85	-45.9	-47.3	19.6	0.00e+00	0	36	0	296747008	63	4209
2026-01-18 23:59:08.59	28.77	15.95	-45.8	-47.2	19.6	0.00e+00	0	36	0	297795584	63	4184
2026-01-18 23:59:09.59	28.83	16.06	-46.0	-47.4	19.5	0.00e+00	0	36	0	299892736	63	4286
2026-01-18 23:59:10.60	28.90	16.17	-46.0	-47.5	19.4	0.00e+00	0	36	0	301989888	63	4299
2026-01-18 23:59:11.61	28.96	16.28	-46.1	-47.5	19.3	0.00e+00	0	36	0	304087040	63	4336
2026-01-18 23:59:12.62	29.02	16.38	-46.2	-47.6	19.3	0.00e+00	0	36	0	306184192	63	4380
2026-01-18 23:59:13.63	29.09	16.49	-46.2	-47.7	19.2	0.00e+00	0	36	0	307232768	63	4411
2026-01-18 23:59:14.63	29.15	16.60	-46.1	-47.6	19.3	0.00e+00	0	36	0	309329920	63	4359
2026-01-18 23:59:15.64	29.21	16.71	-46.1	-47.6	19.3	0.00e+00	0	36	0	311427072	63	4369
2026-01-18 23:59:16.65	29.28	16.82	-46.2	-47.7	19.3	0.00e+00	0	36	0	313524224	63	4396
2026-01-18 23:59:17.66	29.34	16.93	-46.2	-47.7	19.2	0.00e+00	0	36	0	315621376	63	4435
2026-01-18 23:59:18.67	29.41	17.05	-46.3	-47.8	19.2	0.00e+00	0	36	0	316669952	63	4456
2026-01-18 23:59:19.67	29.48	17.16	-46.2	-47.7	19.3	0.00e+00	0	36	0	318767104	63	4426
2026-01-18 23:59:20.68	29.54	17.27	-46.0	-47.4	19.5	0.00e+00	0	36	0	320864256	63	4284
2026-01-18 23:59:21.69	29.61	17.38	-46.1	-47.6	19.4	0.00e+00	0	36	0	322961408	63	4359
2026-01-18 23:59:22.70	29.68	17.50	-46.0	-47.4	19.5	0.00e+00	0	36	0	325058560	63	4266
2026-01-18 23:59:23.71	29.75	17.61	-46.0	-47.4	19.5	0.00e+00	0	36	0	326107136	63	4270
2026-01-18 23:59:24.71	29.81	17.72	-45.9	-47.3	19.6	0.00e+00	0	36	0	328204288	63	4209
2026-01-18 23:59:25.72	29.88	17.84	-45.7	-47.0	19.9	0.00e+00	0	36	0	330301440	63	4078
2026-01-18 23:59:26.73	29.95	17.95	-45.6	-47.0	19.9	0.00e+00	0	36	0	332398592	63	4075
2026-01-18 23:59:27.74	30.02	18.07	-45.8	-47.2	19.8	0.00e+00	0	36	0	334495744	63	4150
2026-01-18 23:59:28.75	30.09	18.19	-45.7	-47.1	19.9	0.00e+00	0	36	0	335544320	63	4106
2026-01-18 23:59:29.75	30.16	18.30	-45.5	-46.8	20.1	0.00e+00	0	36	0	337641472	63	3992
2026-01-18 23:59:30.76	30.24	18.42	-45.5	-46.8	20.1	0.00e+00	0	36	0	339738624	62	4223
2026-01-18 23:59:31.77	30.31	18.54	-45.5	-46.8	20.1	0.00e+00	0	36	0	341835776	62	4196
2026-01-18 23:59:32.78	30.38	18.66	-45.2	-46.5	20.4	0.00e+00	0	36	0	343932928	62	4055
2026-01-18 23:59:33.78	30.45	18.77	-45.2	-46.5	20.4	0.00e+00	0	36	0	344981504	62	4052
2026-01-18 23:59:34.79	30.53	18.89	-45.2	-46.5	20.4	0.00e+00	0	36	0	347078656	62	4073
2026-01-18 23:59:35.80	30.60	19.01	-45.2	-46.5	20.4	0.00e+00	0	36	0	349175808	62	4065
2026-01-18 23:59:36.81	30.68	19.13	-45.1	-46.3	20.6	0.00e+00	0	36	0	351272960	62	3977
2026-01-18 23:59:37.81	30.75	19.25	-45.1	-46.3	20.6	0.00e+00	0	36	0	353370112	61	4224
2026-01-18 23:59:38.82	30.83	19.38	-44.9	-46.2	20.7	0.00e+00	0	36	0	355467264	61	4154
2026-01-18 23:59:39.83	30.90	19.50	-45.0	-46.2	20.6	0.00e+00	0	36	0	356515840	61	4175
2026-01-18 23:59:40.84	30.98	19.62	-45.1	-46.3	20.6	0.00e+00	0	36	0	358612992	61	4212
2026-01-18 23:59:41.85	31.06	19.74	-45.0	-46.2	20.7	0.00e+00	0	36	0	360710144	61	4157
2026-01-18 23:59:42.86	31.14	19.87	-45.1	-46.3	20.6	0.00e+00	0	36	0	362807296	61	4230
2026-01-18 23:59:43.86	31.22	19.99	-45.1	-46.3	20.6	0.00e+00	0	36	0	363855872	61	4226
2026-01-18 23:59:44.87	31.30	20.12	-45.2	-46.4	20.5	0.00e+00	0	36	0	365953024	61	4284
2026-01-18 23:59:45.88	31.38	20.24	-45.1	-46.4	20.5	0.00e+00	0	36	0	368050176	61	4264
2026-01-18 23:59:46.89	31.46	20.37	-45.4	-46.7	20.3	0.00e+00	0	36	0	370147328	61	4397
2026-01-18 23:59:47.89	31.54	20.49	-45.5	-46.8	20.2	0.00e+00	0	36	0	372244480	61	4457
2026-01-18 23:59:48.90	31.62	20.62	-45.4	-46.7	20.2	0.00e+00	0	36	0	373293056	61	4424
2026-01-18 23:59:49.91	31.70	20.75	-45.5	-46.9	20.1	0.00e+00	0	36	0	375390208	61	4517
2026-01-18 23:59:50.92	31.79	20.88	-45.4	-46.7	20.2	0.00e+00	0	36	0	377487360	61	4414
2026-01-18 23:59:51.93	31.87	21.01	-45.5	-46.8	20.1	0.00e+00	0	36	0	379584512	61	4471
2026-01-18 23:59:52.93	31.95	21.14	-45.3	-46.6	20.3	0.00e+00	0	36	0	381681664	61	4388
2026-01-18 23:59:53.94	32.04	21.27	-45.3	-46.6	20.4	0.00e+00	0	36	0	383778816	61	4349
2026-01-18 23:59:54.95	32.13	21.40	-45.2	-46.5	20.5	0.00e+00	0	36	0	384827392	61	4305
2026-01-18 23:59:55.96	32.21	21.53	-45.1	-46.4	20.6	0.00e+00	0	36	0	386924544	61	4256
2026-01-18 23:59:56.97	32.30	21.66	-45.1	-46.4	20.6	0.00e+00	0	36	0	389021696	61	4267
2026-01-18 23:59:57.97	32.39	21.79	-45.0	-46.3	20.6	0.00e+00	0	36	0	391118848	61	4205
2026-01-18 23:59:58.98	32.48	21.93	-45.1	-46.4	20.6	0.00e+00	0	36	0	392167424	61	4244
2026-01-18 23:59:59.99	32.57	22.06	-45.1	-46.4	20.6	0.00e+00	0	36	0	394264576	61	4255
2026-01-19 00:00:00.99	32.66	22.20	-44.9	-46.2	20.8	0.00e+00	0	36	0	396361728	61	4158
2026-01-19 00:00:02.00	32.75	22.33	-45.1	-46.4	20.6	0.00e+00	0	36	0	398458880	61	4245
2026-01-19 00:00:03.01	32.84	22.47	-45.0	-46.2	20.7	0.00e+00	0	36	0	400556032	61	4179
2026-01-19 00:00:04.02	32.93	22.60	-45.0	-46.3	20.6	0.00e+00	0	36	0	402653184	61	4199
2026-01-19 00:00:05.03	33.02	22.74	-45.1	-46.3	20.6	0.00e+00	0	36	0	403701760	61	4220
2026-01-19 00:00:06.03	33.12	22.88	-45.0	-46.3	20.7	0.00e+00	0	36	0	405798912	61	4217
2026-01-19 00:00:07.04	33.21	23.02	-45.0	-46.2	20.7	0.00e+00	0	36	0	407896064	61	4177
2026-01-19 00:00:08.05	33.31	23.16	-44.8	-46.0	20.9	0.00e+00	0	36	0	409993216	61	4059
2026-01-19 00:00:09.06	33.41	23.30	-44.8	-46.0	20.9	0.00e+00	0	36	0	412090368	61	4086
2026-01-19 00:00:10.07	33.50	23.44	-44.9	-46.1	20.9	0.00e+00	0	36	0	413138944	61	4104
2026-01-19 00:00:11.08	33.60	23.58	-44.6	-45.8	21.0	0.00e+00	0	36	0	415236096	61	3980
2026-01-19 00:00:12.08	33.70	23.72	-44.6	-45.8	21.1	0.00e+00	0	36	0	417333248	61	3976
2026-01-19 00:00:13.09	33.80	23.86	-44.5	-45.7	21.2	0.00e+00	0	36	0	419430400	61	3932
2026-01-19 00:00:14.10	33.90	24.01	-44.7	-45.8	21.1	0.00e+00	0	36	0	420478976	61	3994
2026-01-19 00:00:15.11	34.00	24.15	-44.5	-45.7	21.2	0.00e+00	0	36	0	422576128	60	4152
2026-01-19 00:00:16.11	34.10	24.30	-44.4	-45.6	21.3	0.00e+00	0	36	0	424673280	60	4111
2026-01-19 00:00:17.12	34.21	24.44	-44.4	-45.5	21.4	0.00e+00	0	36	0	426770432	60	4070
2026-01-19 00:00:18.13	34.31	24.59	-44.4	-45.5	21.3	0.00e+00	0	36	0	428867584	60	4092
2026-01-19 00:00:19.13	34.42	24.74	-44.4	-45.6	21.3	0.00e+00	0	36	0	430964736	60	4100
2026-01-19 00:00:20.14	34.52	24.88	-44.5	-45.6	21.3	0.00e+00	0	36	0	432013312	60	4120
2026-01-19 00:00:21.15	34.63	25.03	-44.7	-45.9	21.0	0.00e+00	0	36	0	434110464	60	4277
2026-01-19 00:00:22.16	34.74	25.18	-44.5	-45.7	21.2	0.00e+00	0	36	0	436207616	60	4157
2026-01-19 00:00:23.17	34.85	25.33	-44.6	-45.8	21.2	0.00e+00	0	36	0	438304768	60	4196
2026-01-19 00:00:24.17	34.96	25.48	-44.5	-45.6	21.3	0.00e+00	0	36	0	440401920	60	4126
2026-01-19 00:00:25.18	35.07	25.63	-44.7	-45.9	21.0	0.00e+00	0	36	0	441450496	60	4278
2026-01-19 00:00:26.19	35.18	25.79	-44.7	-45.8	21.1	0.00e+00	0	36	0	443547648	60	4237
2026-01-19 00:00:27.20	35.30	25.94	-44.7	-45.8	21.1	0.00e+00	0	36	0	445644800	60	4239
2026-01-19 00:00:28.20	35.41	26.09	-44.5	-45.7	21.3	0.00e+00	0	36	0	447741952	60	4153
2026-01-19 00:00:29.21	35.52	26.25	-44.7	-45.8	21.1	0.00e+00	0	36	0	449839104	60	4226
2026-01-19 00:00:30.22	35.64	26.40	-44.6	-45.7	21.2	0.00e+00	0	36	0	450887680	60	4179
2026-01-19 00:00:31.23	35.76	26.56	-44.6	-45.8	20.7	0.00e+00	0	36	0	452984832	60	4206
2026-01-19 00:00:32.24	35.88	26.72	-44.7	-45.9	21.0	0.00e+00	0	36	0	455081984	60	4290
2026-01-19 00:00:33.25	36.00	26.87	-45.0	-46.2	20.8	0.00e+00	0	36	0	457179136	60	4413
2026-01-19 00:00:34.26	36.12	27.03	-45.0	-46.2	20.8	0.00e+00	0	36	0	459276288	60	4411
2026-01-19 00:00:35.26	36.24	27.19	-45.4	-46.7	20.4	0.00e+00	0	36	0	460324864	61	4395
2026-01-19 00:00:36.27	36.36	27.35	-45.5	-46.8	20.3	0.00e+00	0	36	0	462422016	61	4451
2026-01-19 00:00:37.28	36.49	27.51	-45.4	-46.7	20.4	0.00e+00	0	36	0	464519168	61	4398
2026-01-19 00:00:38.29	36.61	27.68	-45.7	-47.0	20.1	0.00e+00	0	36	0	466616320	61	4579
2026-01-19 00:00:39.29	36.74	27.84	-45.6	-46.9	20.2	0.00e+00	0	36	0	468713472	62	4279
2026-01-19 00:00:40.30	36.87	28.00	-45.8	-47.1	20.0	0.00e+00	0	36	0	469762048	62	4372
2026-01-19 00:00:41.31	37.00	28.17	-45.9	-47.3	19.9	0.00e+00	0	36	0	471859200	62	4454
2026-01-19 00:00:42.32	37.13	28.33	-45.9	-47.3	19.9	0.00e+00	0	36	0	473956352	62	4457
2026-01-19 00:00:43.33	37.26	28.50	-46.0	-47.4	19.7	0.00e+00	0	36	0	476053504	62	4536
2026-01-19 00:00:44.33	37.39	28.66	-45.8	-47.2	20.0	0.00e+00	0	36	0	478150656	62	4397
2026-01-19 00:00:45.34	37.53	28.83	-46.1	-47.5	19.6	0.00e+00	0	36	0	479199232	63	4326
2026-01-19 00:00:46.35	37.67	29.00	-46.2	-47.7	19.5	0.00e+00	0	36	0	481296384	63	4406
2026-01-19 00:00:47.35	37.80	29.17	-46.5	-48.0	19.3	0.00e+00	0	36	0	483393536	63	4573
2026-01-19 00:00:48.36	37.94	29.34	-46.4	-47.9	19.2	0.00e+00	0	36	0	485490688	64	4275
2026-01-19 00:00:49.37	38.08	29.51	-46.8	-48.5	18.7	0.00e+00	0	36	0	487587840	64	4550
2026-01-19 00:00:50.38	38.22	29.68	-47.1	-48.7	18.5	0.00e+00	0	36	0	488636416	64	4703
2026-01-19 00:00:51.39	38.37	29.85	-47.1	-48.8	18.4	0.00e+00	0	36	0	490733568	64	4709
2026-01-19 00:00:52.39	38.51	30.03	-47.3	-49.1	18.1	0.00e+00	0	36	0	492830720	65	4605
2026-01-19 00:00:53.40	38.66	30.20	-47.3	-49.0	18.2	0.00e+00	0	36	0	494927872	65	4582
2026-01-19 00:00:54.41	38.81	30.38	-47.4	-49.1	18.1	0.00e+00	0	36	0	497025024	65	4632
2026-01-19 00:00:55.42	38.95	30.55	-47.6	-49.4	17.9	0.00e+00	0	36	0	498073600	65	4768
2026-01-19 00:00:56.42	39.10	30.73	-48.0	-49.9	17.4	0.00e+00	0	36	0	500170752	66	4789
2026-01-19 00:00:57.43	39.26	30.91	-48.0	-50.0	17.3	0.00e+00	0	36	0	502267904	66	4837
2026-01-19 00:00:58.44	39.41	31.09	-47.9	-49.8	17.4	0.00e+00	0	36	0	504365056	66	4736
2026-01-19 00:00:59.45	39.57	31.27	-48.1	-50.1	17.2	0.00e+00	0	36	0	506462208	67	4616
2026-01-19 00:01:00.46	39.73	31.45	-48.3	-50.3	17.0	0.00e+00	0	36	0	507510784	67	4744
2026-01-19 00:01:01.46	39.88	31.63	-48.4	-50.6	16.7	0.00e+00	0	36	0	509607936	67	4876
2026-01-19 00:01:02.47	40.05	31.81	-48.2	-50.2	17.1	0.00e+00	0	36	0	511705088	67	4698
2026-01-19 00:01:03.48	40.21	32.00	-48.4	-50.5	16.7	0.00e+00	0	36	0	513802240	67	4869
2026-01-19 00:01:04.49	40.37	32.18	-48.0	-50.0	17.3	0.00e+00	0	36	0	515899392	67	4562
2026-01-19 00:01:05.49	40.54	32.36	-47.8	-49.7	17.6	0.00e+00	0	36	0	516947968	67	4405
2026-01-19 00:01:06.50	40.71	32.55	-47.7	-49.6	17.7	0.00e+00	0	36	0	519045120	67	4368
2026-01-19 00:01:07.51	40.88	32.74	-47.4	-49.1	18.2	0.00e+00	0	36	0	521142272	66	4362
2026-01-19 00:01:08.51	41.05	32.92	-47.3	-49.0	18.2	0.00e+00	0	36	0	523239424	66	4334
2026-01-19 00:01:09.52	41.22	33.11	-47.2	-48.9	18.4	0.00e+00	0	36	0	525336576	66	4256
2026-01-19 00:01:10.53	41.40	33.30	-47.4	-49.2	18.0	0.00e+00	0	36	0	526385152	66	4413
2026-01-19 00:01:11.53	41.58	33.49	-47.7	-49.6	17.7	0.00e+00	0	36	0	528482304	66	4627
2026-01-19 00:01:12.54	41.76	33.68	-47.9	-49.8	17.5	0.00e+00	0	36	0	530579456	66	4725
2026-01-19 00:01:13.55	41.94	33.88	-47.4	-49.1	18.2	0.00e+00	0	36	0	532676608	66	4388
2026-01-19 00:01:14.56	42.12	34.07	-47.3	-48.9	18.3	0.00e+00	0	36	0	534773760	66	4291
2026-01-19 00:01:15.57	42.31	34.26	-47.3	-49.0	18.2	0.00e+00	0	36	0	535822336	66	4327
2026-01-19 00:01:16.57	42.50	34.46	-47.0	-48.6	18.5	0.00e+00	0	36	0	537919488	66	4142
2026-01-19 00:01:17.58	42.69	34.65	-46.9	-48.5	18.7	0.00e+00	0	36	0	540016640	65	4295
2026-01-19 00:01:18.59	42.88	34.85	-47.1	-48.7	18.5	0.00e+00	0	36	0	542113792	65	4436
2026-01-19 00:01:19.60	43.08	35.05	-46.9	-48.4	18.8	0.00e+00	0	36	0	544210944	65	4270
2026-01-19 00:01:20.61	43.28	35.25	-47.0	-48.5	18.7	0.00e+00	0	36	0	545259520	65	4329
2026-01-19 00:01:21.61	43.47	35.45	-47.0	-48.5	18.8	0.00e+00	0	36	0	547356672	65	4331
2026-01-19 00:01:22.62	43.68	35.65	-47.0	-48.6	18.7	0.00e+00	0	36	0	549453824	65	4379
2026-01-19 00:01:23.63	43.88	35.85	-47.1	-48.8	18.6	0.00e+00	0	36	0	551550976	65	4449
2026-01-19 00:01:24.64	44.09	36.05	-47.1	-48.8	18.5	0.00e+00	0	36	0	553648128	65	4445
2026-01-19 00:01:25.65	44.30	36.25	-46.9	-48.5	18.7	0.00e+00	0	36	0	554696704	65	4326
2026-01-19 00:01:26.65	44.51	36.46	-47.1	-48.7	18.6	0.00e+00	0	36	0	556793856	65	4412
2026-01-19 00:01:27.66	44.73	36.66	-47.1	-48.8	18.6	0.00e+00	0	37	0	558891008	65	4458
2026-01-19 00:01:28.67	44.95	36.87	-47.3	-49.0	18.4	0.00e+00	0	36	0	560988160	65	4562
2026-01-19 00:01:29.68	45.17	37.07	-47.3	-49.0	18.4	0.00e+00	0	36	0	563085312	65	4561
2026-01-19 00:01:30.69	45.39	37.28	-47.3	-49.0	18.4	0.00e+00	0	36	0	564133888	65	4548
2026-01-19 00:01:31.69	45.62	37.49	-47.2	-48.9	18.4	0.00e+00	0	36	0	566231040	65	4501
2026-01-19 00:01:32.70	45.84	37.70	-47.2	-48.8	18.5	0.00e+00	0	36	0	568328192	65	4488
2026-01-19 00:01:33.71	46.08	37.91	-47.1	-48.7	18.5	0.00e+00	0	36	0	570425344	65	4420
2026-01-19 00:01:34.71	46.31	38.12	-47.4	-49.1	18.3	0.00e+00	0	36	0	572522496	65	4628
2026-01-19 00:01:35.72	46.55	38.33	-47.1	-48.8	18.5	0.00e+00	0	36	0	574619648	65	4462
2026-01-19 00:01:36.73	46.79	38.54	-47.4	-49.2	18.2	0.00e+00	0	36	0	575668224	65	4658
2026-01-19 00:01:37.74	47.03	38.75	-47.2	-48.9	18.4	0.00e+00	0	36	0	577765376	65	4525
2026-01-19 00:01:38.75	47.28	38.97	-47.3	-49.0	18.3	0.00e+00	0	36	0	579862528	65	4560
2026-01-19 00:01:39.76	47.53	39.18	-47.4	-49.2	18.2	0.00e+00	0	36	0	581959680	65	4659
2026-01-19 00:01:40.76	47.78	39.40	-47.1	-48.8	18.5	0.00e+00	0	36	0	583008256	65	4471
2026-01-19 00:01:41.77	48.04	39.61	-47.4	-49.1	18.2	0.00e+00	0	36	0	585105408	65	4649
2026-01-19 00:01:42.78	48.30	39.83	-47.3	-49.1	18.3	0.00e+00	0	36	0	587202560	65	4615
2026-01-19 00:01:43.79	48.57	40.05	-47.6	-49.5	17.9	0.00e+00	0	36	0	589299712	65	4820
2026-01-19 00:01:44.80	48.83	40.27	-47.8	-49.7	17.8	0.00e+00	0	36	0	591396864	66	4653
2026-01-19 00:01:45.80	49.10	40.48	-47.4	-49.1	18.3	0.00e+00	0	36	0	592445440	66	4376
2026-01-19 00:01:46.81	49.38	40.70	-46.5	-48.0	19.3	0.00e+00	0	36	0	594542592	65	4074
2026-01-19 00:01:47.82	49.66	40.92	-46.0	-47.4	19.7	0.00e+00	0	36	0	596639744	64	4031
2026-01-19 00:01:48.83	49.94	41.14	-46.0	-47.3	20.1	0.00e+00	0	36	0	598736896	63	4210
2026-01-19 00:01:49.83	50.22	41.36	-45.6	-46.9	20.4	0.00e+00	0	36	0	600834048	63	4032
2026-01-19 00:01:50.84	50.51	41.59	-45.8	-47.1	20.2	0.00e+00	0	36	0	602931200	63	4126
2026-01-19 00:01:51.85	50.81	41.81	-46.0	-47.4	19.9	0.00e+00	0	36	0	603979776	63	4271
2026-01-19 00:01:52.86	51.11	42.03	-46.5	-47.9	19.5	0.00e+00	0	36	0	606076928	63	4539
2026-01-19 00:01:53.86	51.40	42.25	-46.4	-47.8	19.6	0.00e+00	0	36	0	608174080	63	4489
2026-01-19 00:01:54.87	51.71	42.48	-46.5	-48.0	19.4	0.00e+00	0	36	0	610271232	63	4573
2026-01-19 00:01:55.88	52.02	42.70	-46.4	-47.8	19.6	0.00e+00	0	36	0	611319808	63	4472
2026-01-19 00:01:56.89	52.34	42.93	-46.7	-48.2	19.2	0.00e+00	0	36	0	613416960	63	4667
2026-01-19 00:01:57.89	52.65	43.15	-46.2	-47.6	19.7	0.00e+00	0	36	0	615514112	64	4100
2026-01-19 00:01:58.90	52.98	43.38	-46.5	-47.9	19.4	0.00e+00	0	36	0	617611264	64	4274
2026-01-19 00:01:59.91	53.30	43.60	-46.5	-47.9	19.4	0.00e+00	0	36	0	619708416	64	4272
2026-01-19 00:02:00.92	53.64	43.83	-46.8	-48.3	19.0	0.00e+00	0	36	0	621805568	64	4475
2026-01-19 00:02:01.92	53.97	44.05	-47.2	-48.8	18.6	0.00e+00	0	36	0	622854144	64	4724
2026-01-19 00:02:02.93	54.31	44.28	-47.0	-48.6	18.7	0.00e+00	0	36	0	624951296	65	4377
2026-01-19 00:02:03.94	54.66	44.51	-46.9	-48.4	18.9	0.00e+00	0	36	0	627048448	65	4280
2026-01-19 00:02:04.95	55.01	44.73	-46.5	-47.9	19.3	0.00e+00	0	36	0	629145600	65	4008
2026-01-19 00:02:05.95	55.37	44.96	-46.5	-47.9	19.4	0.00e+00	0	36	0	631242752	64	4277
2026-01-19 00:02:06.96	55.73	45.19	-46.4	-47.8	19.5	0.00e+00	0	36	0	632291328	64	4220
2026-01-19 00:02:07.97	56.09	45.42	-46.7	-48.1	19.2	0.00e+00	0	36	0	634388480	64	4379
2026-01-19 00:02:08.98	56.47	45.64	-47.3	-49.0	18.4	0.00e+00	0	36	0	636485632	65	4583
2026-01-19 00:02:09.98	56.84	45.87	-47.8	-49.6	17.8	0.00e+00	0	36	0	638582784	66	4622
2026-01-19 00:02:10.99	57.22	46.10	-47.8	-49.7	17.8	0.00e+00	0	36	0	639631360	66	4652
2026-01-19 00:02:12.00	57.61	46.32	-48.0	-49.9	17.5	0.00e+00	0	36	0	641728512	67	4536
2026-01-19 00:02:13.01	58.01	46.55	-48.4	-50.5	16.9	0.00e+00	0	36	0	643825664	67	4830
2026-01-19 00:02:14.02	58.41	46.78	-48.9	-51.1	16.5	0.00e+00	0	36	0	645922816	68	4896
2026-01-19 00:02:15.03	58.81	47.00	-49.4	-51.8	15.8	0.00e+00	0	36	0	648019968	69	5024
2026-01-19 00:02:16.03	59.22	47.23	-49.3	-51.7	15.9	0.00e+00	0	36	0	650117120	69	4972
2026-01-19 00:02:17.04	59.64	47.46	-49.7	-52.4	15.3	0.00e+00	0	36	0	651165696	70	5058
2026-01-19 00:02:18.05	60.06	47.68	-49.6	-52.3	15.3	0.00e+00	0	36	0	653262848	70	5008
2026-01-19 00:02:19.05	60.49	47.90	-49.8	-52.5	15.1	0.00e+00	0	36	0	655360000	70	5121
2026-01-19 00:02:20.06	60.92	48.13	-49.9	-52.7	14.9	0.00e+00	0	36	0	657457152	70	5274
2026-01-19 00:02:21.07	61.37	48.35	-49.7	-52.4	15.2	0.00e+00	0	36	0	659554304	70	5045
2026-01-19 00:02:22.08	61.81	48.58	-49.1	-51.3	16.2	0.00e+00	0	36	0	660602880	70	4490
2026-01-19 00:02:23.09	62.27	48.80	-48.5	-50.6	17.0	0.00e+00	0	36	0	662700032	68	4617
2026-01-19 00:02:24.09	62.73	49.02	-48.4	-50.4	17.2	0.00e+00	0	37	0	664797184	68	4497
2026-01-19 00:02:25.10	63.19	49.24	-48.5	-50.6	17.0	0.00e+00	0	36	0	666894336	68	4632
2026-01-19 00:02:26.11	63.67	49.46	-48.5	-50.6	17.0	0.00e+00	0	36	0	667942912	68	4621
2026-01-19 00:02:27.12	64.15	49.68	-48.0	-49.9	17.6	0.00e+00	0	36	0	670040064	67	4502
2026-01-19 00:02:28.12	64.63	49.90	-47.9	-49.8	17.7	0.00e+00	0	36	0	672137216	67	4444
2026-01-19 00:02:29.13	65.13	50.11	-47.9	-49.7	17.8	0.00e+00	0	36	0	674234368	67	4438
2026-01-19 00:02:30.14	65.63	50.33	-47.6	-49.4	18.0	0.00e+00	0	36	0	676331520	67	4259
2026-01-19 00:02:31.15	66.14	50.54	-47.5	-49.2	18.2	0.00e+00	0	36	0	678428672	67	4188
2026-01-19 00:02:32.15	66.65	50.75	-47.3	-48.9	18.5	0.00e+00	0	36	0	679477248	66	4277
2026-01-19 00:02:33.16	67.18	50.96	-47.1	-48.7	18.7	0.00e+00	0	36	0	681574400	65	4438
2026-01-19 00:02:34.17	67.71	51.17	-46.9	-48.5	18.9	0.00e+00	0	36	0	683671552	65	4319
2026-01-19 00:02:35.18	68.25	51.38	-46.9	-48.5	18.9	0.00e+00	0	36	0	685768704	65	4293
2026-01-19 00:02:36.19	68.79	51.59	-46.9	-48.5	18.8	0.00e+00	0	36	0	687865856	65	4319
2026-01-19 00:02:37.19	69.34	51.79	-47.0	-48.6	18.9	0.00e+00	0	36	0	688914432	65	4341
2026-01-19 00:02:38.20	69.90	52.00	-46.7	-48.2	19.1	0.00e+00	0	36	0	691011584	65	4169
2026-01-19 00:02:39.21	70.47	52.20	-46.3	-47.8	19.6	0.00e+00	0	36	0	693108736	64	4201
2026-01-19 00:02:40.22	71.05	52.40	-45.8	-47.1	20.2	0.00e+00	0	36	0	695205888	63	4143
2026-01-19 00:02:41.23	71.63	52.59	-45.2	-46.4	20.9	0.00e+00	0	36	0	697303040	62	4022
2026-01-19 00:02:42.23	72.22	52.79	-45.3	-46.6	20.8	0.00e+00	0	36	0	698351616	62	4109
2026-01-19 00:02:43.24	72.82	52.98	-45.9	-47.3	20.2	0.00e+00	0	36	0	700448768	62	4445
2026-01-19 00:02:44.25	73.43	53.17	-46.0	-47.3	20.0	0.00e+00	0	36	0	702545920	62	4478
2026-01-19 00:02:45.25	74.04	53.35	-45.4	-46.6	20.7	0.00e+00	0	36	0	704643072	62	4128
2026-01-19 00:02:46.26	74.66	53.54	-45.1	-46.3	21.0	0.00e+00	0	36	0	706740224	62	3961
2026-01-19 00:02:47.27	75.29	53.72	-45.6	-46.9	20.5	0.00e+00	0	36	0	707788800	62	4245
2026-01-19 00:02:48.28	75.93	53.90	-46.0	-47.3	20.0	0.00e+00	0	36	0	709885952	62	4480
2026-01-19 00:02:49.29	76.58	54.07	-45.8	-47.1	20.2	0.00e+00	0	36	0	711983104	63	4144
2026-01-19 00:02:50.29	77.23	54.25	-45.4	-46.6	20.8	0.00e+00	0	36	0	714080256	62	4108
2026-01-19 00:02:51.30	77.89	54.42	-45.3	-46.5	20.7	0.00e+00	0	36	0	716177408	62	4098
2026-01-19 00:02:52.31	78.56	54.58	-45.7	-47.0	20.4	0.00e+00	0	36	0	718274560	62	4334
2026-01-19 00:02:53.32	79.24	54.75	-45.8	-47.2	20.3	0.00e+00	0	36	0	719323136	62	4399
2026-01-19 00:02:54.33	79.92	54.91	-45.0	-46.1	21.1	0.00e+00	0	36	0	721420288	61	4140
2026-01-19 00:02:55.34	80.62	55.06	-44.8	-46.0	21.2	0.00e+00	0	36	0	723517440	61	4068
2026-01-19 00:02:56.35	81.32	55.21	-45.2	-46.4	20.9	0.00e+00	0	36	0	725614592	61	4260
2026-01-19 00:02:57.35	82.02	55.36	-45.5	-46.7	20.6	0.00e+00	0	36	0	726663168	61	4439
2026-01-19 00:02:58.36	82.73	55.51	-45.1	-46.3	21.0	0.00e+00	0	36	0	728760320	61	4203
2026-01-19 00:02:59.37	83.46	55.65	-45.2	-46.4	20.9	0.00e+00	0	36	0	730857472	61	4277
2026-01-19 00:03:00.38	84.19	55.78	-44.7	-45.8	21.5	0.00e+00	0	36	0	732954624	61	3978
2026-01-19 00:03:01.39	84.92	55.92	-44.7	-45.9	21.3	0.00e+00	0	36	0	735051776	61	4012
2026-01-19 00:03:02.39	85.66	56.04	-45.2	-46.4	20.9	0.00e+00	0	36	0	736100352	61	4252
2026-01-19 00:03:03.40	86.41	56.17	-46.1	-47.5	19.9	0.00e+00	0	36	0	738197504	62	4564
2026-01-19 00:03:04.41	87.17	56.29	-45.7	-47.0	20.3	0.00e+00	0	36	0	740294656	62	4334
2026-01-19 00:03:05.42	87.93	56.40	-45.7	-46.9	20.5	0.00e+00	0	36	0	742391808	62	4274
2026-01-19 00:03:06.43	88.70	56.51	-46.0	-47.4	20.0	0.00e+00	0	36	0	744488960	62	4511
2026-01-19 00:03:07.43	89.47	56.62	-46.1	-47.5	19.9	0.00e+00	0	36	0	746586112	63	4292
2026-01-19 00:03:08.44	90.25	56.72	-45.5	-46.8	20.7	0.00e+00	0	36	0	747634688	62	4214
2026-01-19 00:03:09.45	91.04	56.81	-45.7	-47.0	20.3	0.00e+00	0	36	0	749731840	62	4315
2026-01-19 00:03:10.46	91.83	56.90	-46.5	-48.0	19.4	0.00e+00	0	36	0	751828992	63	4577
2026-01-19 00:03:11.46	92.62	56.99	-47.1	-48.8	18.7	0.00e+00	0	36	0	753926144	65	4452
2026-01-19 00:03:12.47	93.42	57.07	-46.8	-48.3	19.2	0.00e+00	0	36	0	754974720	65	4205
2026-01-19 00:03:13.48	94.23	57.15	-47.0	-48.6	18.8	0.00e+00	0	36	0	757071872	65	4357
2026-01-19 00:03:14.49	95.04	57.22	-47.8	-49.7	17.9	0.00e+00	0	36	0	759169024	66	4659
2026-01-19 00:03:15.50	95.86	57.28	-48.8	-51.1	16.6	0.00e+00	0	37	0	761266176	68	4872
2026-01-19 00:03:16.51	96.68	57.34	-48.3	-50.3	17.4	0.00e+00	0	36	0	763363328	68	4493
2026-01-19 00:03:17.51	97.49	57.39	-47.5	-49.2	18.2	0.00e+00	0	36	0	765460480	66	4405
2026-01-19 00:03:18.52	98.32	57.44	-47.9	-49.8	17.6	0.00e+00	0	36	0	766509056	66	4728
2026-01-19 00:03:19.53	99.15	57.49	-48.7	-50.9	16.6	0.00e+00	0	36	0	768606208	67	5091
2026-01-19 00:03:20.54	99.98	57.52	-48.8	-51.0	16.6	0.00e+00	0	36	0	770703360	69	4579
2026-01-19 00:03:21.55	100.81	57.56	-48.1	-49.9	17.6	0.00e+00	0	36	0	772800512	68	4291
2026-01-19 00:03:22.55	101.64	57.58	-47.4	-49.1	18.3	0.00e+00	0	36	0	774897664	66	4346
2026-01-19 00:03:23.56	102.47	57.60	-47.7	-49.5	18.0	0.00e+00	0	36	0	775946240	66	4562
2026-01-19 00:03:24.57	103.31	57.62	-47.7	-49.6	17.9	0.00e+00	0	36	0	778043392	66	4601
2026-01-19 00:03:25.58	104.15	57.63	-48.4	-50.4	17.1	0.00e+00	0	36	0	780140544	67	4793
2026-01-19 00:03:26.58	104.98	57.63	-48.1	-50.0	17.4	0.00e+00	0	36	0	782237696	67	4577
2026-01-19 00:03:27.59	105.82	57.63	-47.2	-48.8	18.6	0.00e+00	0	36	0	783286272	66	4201
2026-01-19 00:03:28.60	106.66	57.62	-46.7	-48.2	19.1	0.00e+00	0	36	0	785383424	65	4148
2026-01-19 00:03:29.61	107.49	57.61	-46.7	-48.2	19.2	0.00e+00	0	36	0	787480576	65	4177
2026-01-19 00:03:30.62	108.33	57.59	-44.9	-46.0	21.2	0.00e+00	0	36	0	789577728	61	4093
2026-01-19 00:03:31.62	109.16	57.56	-44.3	-45.4	21.7	0.00e+00	0	36	0	791674880	60	4019
2026-01-19 00:03:32.63	109.99	57.53	-44.9	-46.1	21.3	0.00e+00	0	36	0	793772032	60	4351
2026-01-19 00:03:33.64	110.82	57.49	-45.9	-47.3	20.2	0.00e+00	0	36	0	794820608	62	4445
2026-01-19 00:03:34.65	111.65	57.45	-45.9	-47.2	20.2	0.00e+00	0	36	0	796917760	62	4429
2026-01-19 00:03:35.65	112.47	57.41	-45.3	-46.5	20.7	0.00e+00	0	36	0	799014912	62	4097
2026-01-19 00:03:36.66	113.29	57.35	-45.5	-46.7	20.6	0.00e+00	0	36	0	801112064	62	4185
2026-01-19 00:03:37.67	114.11	57.29	-45.6	-46.9	20.4	0.00e+00	0	36	0	803209216	62	4274
2026-01-19 00:03:38.68	114.93	57.23	-46.1	-47.5	19.9	0.00e+00	0	36	0	804257792	62	4575
2026-01-19 00:03:39.69	115.74	57.16	-46.6	-48.1	19.2	0.00e+00	0	36	0	806354944	64	4386
2026-01-19 00:03:40.69	116.54	57.09	-46.7	-48.3	19.1	0.00e+00	0	36	0	808452096	64	4449
2026-01-19 00:03:41.70	117.35	57.01	-46.3	-47.7	19.6	0.00e+00	0	36	0	810549248	64	4181
2026-01-19 00:03:42.71	118.15	56.92	-45.9	-47.2	20.2	0.00e+00	0	36	0	811597824	63	4175
2026-01-19 00:03:43.72	118.94	56.83	-46.0	-47.4	20.0	0.00e+00	0	36	0	813694976	63	4265
2026-01-19 00:03:44.73	119.73	56.74	-46.1	-47.5	19.8	0.00e+00	0	36	0	815792128	63	4303
2026-01-19 00:03:45.73	120.51	56.64	-46.6	-48.1	19.4	0.00e+00	0	36	0	817889280	63	4618
2026-01-19 00:03:46.74	121.28	56.54	-47.2	-48.9	18.5	0.00e+00	0	36	0	819986432	64	4790
2026-01-19 00:03:47.75	122.06	56.43	-47.1	-48.7	18.6	0.00e+00	0	36	0	822083584	65	4432
2026-01-19 00:03:48.75	122.81	56.31	-46.7	-48.2	19.2	0.00e+00	0	36	0	823132160	65	4160
2026-01-19 00:03:49.76	123.57	56.19	-45.7	-46.9	20.4	0.00e+00	0	36	0	825229312	63	4039
2026-01-19 00:03:50.77	124.33	56.07	-45.1	-46.3	20.9	0.00e+00	0	36	0	827326464	62	3986
2026-01-19 00:03:51.78	125.07	55.94	-45.6	-46.9	20.4	0.00e+00	0	36	0	829423616	62	4245
2026-01-19 00:03:52.78	125.80	55.81	-45.6	-46.9	20.4	0.00e+00	0	36	0	831520768	62	4268
2026-01-19 00:03:53.79	126.54	55.68	-45.4	-46.6	20.5	0.00e+00	0	36	0	832569344	62	4141
2026-01-19 00:03:54.80	127.26	55.54	-44.8	-45.9	21.3	0.00e+00	0	36	0	834666496	61	4049
2026-01-19 00:03:55.81	127.98	55.39	-44.8	-45.9	21.3	0.00e+00	0	36	0	836763648	61	4048
2026-01-19 00:03:56.82	128.69	55.24	-44.7	-45.8	21.3	0.00e+00	0	36	0	838860800	61	3968
2026-01-19 00:03:57.82	129.39	55.09	-44.4	-45.5	21.6	0.00e+00	0	36	0	840957952	60	4098
2026-01-19 00:03:58.83	130.08	54.94	-44.3	-45.4	21.7	0.00e+00	0	36	0	842006528	60	4039
2026-01-19 00:03:59.84	130.77	54.78	-44.4	-45.5	21.6	0.00e+00	0	36	0	844103680	60	4073
2026-01-19 00:04:00.85	131.45	54.62	-44.7	-45.8	21.3	0.00e+00	0	36	0	846200832	60	4211
2026-01-19 00:04:01.85	132.12	54.45	-44.7	-45.8	21.2	0.00e+00	0	36	0	848297984	60	4227
2026-01-19 00:04:02.86	132.78	54.28	-44.7	-45.8	21.3	0.00e+00	0	36	0	850395136	60	4229
2026-01-19 00:04:03.87	133.44	54.11	-45.0	-46.1	21.2	0.00e+00	0	36	0	851443712	60	4378
2026-01-19 00:04:04.88	134.09	53.93	-45.6	-46.9	20.5	0.00e+00	0	36	0	853540864	61	4519
2026-01-19 00:04:05.88	134.72	53.76	-45.7	-47.0	20.3	0.00e+00	0	36	0	855638016	62	4316
2026-01-19 00:04:06.89	135.36	53.57	-44.2	-45.2	21.9	0.00e+00	0	36	0	857735168	60	3937
2026-01-19 00:04:07.90	135.98	53.39	-44.4	-45.4	21.9	0.00e+00	0	36	0	859832320	59	4284
2026-01-19 00:04:08.90	136.60	53.21	-46.2	-47.2	20.3	0.00e+00	0	36	0	860880896	62	4417
2026-01-19 00:04:09.91	137.21	53.02	-47.6	-49.4	18.0	0.00e+00	0	36	0	862978048	65	4808
2026-01-19 00:04:10.91	137.80	52.83	-47.8	-49.7	17.7	0.00e+00	0	36	0	865075200	67	4393
2026-01-19 00:04:11.92	138.40	52.63	-46.8	-48.4	18.9	0.00e+00	0	36	0	867172352	65	4262
2026-01-19 00:04:12.93	138.98	52.43	-47.3	-48.9	18.6	0.00e+00	0	36	0	869269504	65	4544
2026-01-19 00:04:13.94	139.56	52.24	-48.5	-50.7	16.6	0.00e+00	0	36	0	870318080	67	4934
2026-01-19 00:04:14.95	140.14	52.03	-48.8	-51.0	16.5	0.00e+00	0	36	0	872415232	68	4830
2026-01-19 00:04:15.95	140.69	51.83	-47.7	-49.5	17.9	0.00e+00	0	37	0	874512384	67	4303
2026-01-19 00:04:16.96	141.25	51.63	-46.5	-47.9	19.4	0.00e+00	0	36	0	876609536	64	4268
2026-01-19 00:04:17.97	141.80	51.42	-46.1	-47.4	19.8	0.00e+00	0	36	0	878706688	64	4041
2026-01-19 00:04:18.97	142.33	51.21	-46.7	-48.2	19.2	0.00e+00	0	36	0	879755264	64	4399
2026-01-19 00:04:19.98	142.87	51.00	-48.2	-50.1	17.4	0.00e+00	0	36	0	881852416	66	4912
2026-01-19 00:04:20.99	143.39	50.79	-50.1	-53.1	14.4	0.00e+00	0	36	0	883949568	70	5517
2026-01-19 00:04:22.00	143.91	50.58	-50.5	-53.9	13.6	5.30e-06	0	36	0	886046720	72	5346
2026-01-19 00:04:23.00	144.42	50.37	-48.8	-50.9	16.5	0.00e+00	0	36	0	888143872	69	4526
2026-01-19 00:04:24.01	144.93	50.15	-46.8	-48.3	18.9	0.00e+00	0	36	0	889192448	65	4205
2026-01-19 00:04:25.02	145.42	49.93	-46.7	-48.2	19.1	0.00e+00	0	36	0	891289600	64	4422
2026-01-19 00:04:26.03	145.91	49.72	-48.0	-49.9	17.5	0.00e+00	0	36	0	893386752	66	4777
2026-01-19 00:04:27.03	146.39	49.50	-47.7	-49.5	17.8	0.00e+00	0	36	0	895483904	67	4314
2026-01-19 00:04:28.04	146.87	49.28	-46.4	-47.9	19.3	0.00e+00	0	37	0	897581056	64	4248
2026-01-19 00:04:29.05	147.34	49.06	-45.9	-47.3	20.1	0.00e+00	0	36	0	898629632	63	4195
2026-01-19 00:04:30.06	147.80	48.83	-46.5	-47.9	19.5	0.00e+00	0	36	0	900726784	63	4515
2026-01-19 00:04:31.07	148.26	48.61	-48.0	-50.0	17.4	0.00e+00	0	36	0	902823936	66	4822
2026-01-19 00:04:32.08	148.71	48.39	-49.4	-52.0	15.6	0.00e+00	0	37	0	904921088	69	5114
2026-01-19 00:04:33.09	149.16	48.16	-48.7	-50.9	16.6	0.00e+00	0	36	0	907018240	69	4514
2026-01-19 00:04:34.09	149.59	47.94	-47.6	-49.4	17.9	0.00e+00	0	36	0	908066816	67	4270
2026-01-19 00:04:35.10	150.02	47.71	-46.9	-48.4	18.8	0.00e+00	0	36	0	910163968	65	4289
2026-01-19 00:04:36.11	150.45	47.49	-47.1	-48.7	18.6	0.00e+00	0	37	0	912261120	65	4422
2026-01-19 00:04:37.12	150.87	47.26	-46.9	-48.5	18.7	0.00e+00	0	36	0	914358272	65	4309
2026-01-19 00:04:38.13	151.28	47.03	-46.8	-48.3	19.0	0.00e+00	0	36	0	916455424	65	4220
2026-01-19 00:04:39.13	151.68	46.81	-47.3	-48.9	18.4	0.00e+00	0	36	0	917504000	65	4532
2026-01-19 00:04:40.14	152.08	46.58	-47.6	-49.4	18.0	0.00e+00	0	36	0	919601152	65	4798
2026-01-19 00:04:41.15	152.48	46.35	-47.9	-49.8	17.5	0.00e+00	0	36	0	921698304	66	4737
2026-01-19 00:04:42.15	152.87	46.13	-47.3	-49.0	18.2	0.00e+00	0	37	0	923795456	66	4292
2026-01-19 00:04:43.16	153.25	45.90	-46.3	-47.8	19.4	0.00e+00	0	36	0	925892608	64	4199
2026-01-19 00:04:44.17	153.63	45.67	-46.1	-47.5	19.9	0.00e+00	0	36	0	926941184	63	4293
2026-01-19 00:04:45.18	154.01	45.44	-46.2	-47.6	19.7	0.00e+00	0	36	0	929038336	63	4375
2026-01-19 00:04:46.19	154.37	45.21	-46.6	-48.0	19.3	0.00e+00	0	36	0	931135488	63	4596
2026-01-19 00:04:47.19	154.74	44.99	-46.4	-47.9	19.4	0.00e+00	0	36	0	933232640	63	4501
2026-01-19 00:04:48.20	155.09	44.76	-46.3	-47.7	19.4	0.00e+00	0	36	0	935329792	63	4424
2026-01-19 00:04:49.21	155.45	44.53	-46.3	-47.7	19.6	0.00e+00	0	36	0	936378368	63	4422
2026-01-19 00:04:50.22	155.80	44.30	-46.7	-48.2	19.1	0.00e+00	0	36	0	938475520	64	4432
2026-01-19 00:04:51.23	156.14	44.07	-46.9	-48.4	18.8	0.00e+00	0	37	0	940572672	64	4543
2026-01-19 00:04:52.23	156.47	43.85	-47.3	-49.0	18.3	0.00e+00	0	36	0	942669824	65	4556
2026-01-19 00:04:53.24	156.81	43.62	-47.7	-49.4	17.8	0.00e+00	0	36	0	944766976	66	4544
2026-01-19 00:04:54.25	157.14	43.39	-48.9	-51.2	16.4	0.00e+00	0	36	0	945815552	68	4957
2026-01-19 00:04:55.26	157.46	43.17	-49.6	-52.3	15.2	1.50e-06	0	36	0	947912704	70	5014
2026-01-19 00:04:56.26	157.78	42.94	-48.0	-49.9	17.4	0.00e+00	0	36	0	950009856	67	4522
2026-01-19 00:04:57.27	158.10	42.72	-47.1	-48.8	18.4	0.00e+00	0	36	0	952107008	66	4200
2026-01-19 00:04:58.28	158.41	42.49	-47.4	-49.1	18.1	0.00e+00	0	37	0	954204160	65	4638
2026-01-19 00:04:59.29	158.72	42.27	-48.5	-50.6	16.8	0.00e+00	0	36	0	955252736	67	4906
2026-01-19 00:05:00.30	159.02	42.04	-49.7	-52.5	15.1	0.00e+00	0	36	0	957349888	70	5139
2026-01-19 00:05:01.30	159.32	41.82	-49.9	-52.8	14.7	1.50e-06	0	36	0	959447040	70	5322
2026-01-19 00:05:02.31	159.61	41.60	-48.7	-50.9	16.5	0.00e+00	0	36	0	961544192	69	4528
2026-01-19 00:05:03.32	159.90	41.37	-47.8	-49.7	17.5	0.00e+00	0	36	0	963641344	67	4408
2026-01-19 00:05:04.33	160.19	41.15	-47.8	-49.7	17.7	0.00e+00	0	36	0	965738496	67	4411
2026-01-19 00:05:05.33	160.47	40.93	-48.4	-50.5	16.9	0.00e+00	0	36	0	966787072	67	4858
2026-01-19 00:05:06.34	160.75	40.71	-49.1	-51.4	16.1	0.00e+00	0	36	0	968884224	68	5066
2026-01-19 00:05:07.35	161.03	40.49	-49.4	-51.9	15.5	0.00e+00	0	37	0	970981376	69	5047
2026-01-19 00:05:08.36	161.30	40.27	-49.4	-52.0	15.4	0.00e+00	0	37	0	973078528	69	5107
2026-01-19 00:05:09.37	161.57	40.05	-48.9	-51.1	16.3	0.00e+00	0	36	0	974127104	69	4626
2026-01-19 00:05:10.37	161.83	39.84	-48.2	-50.2	17.2	0.00e+00	0	36	0	976224256	68	4424
2026-01-19 00:05:11.38	162.09	39.62	-47.5	-49.3	18.0	0.00e+00	0	36	0	978321408	66	4456
2026-01-19 00:05:12.39	162.35	39.40	-46.5	-48.0	19.2	0.00e+00	0	36	0	980418560	64	4303
2026-01-19 00:05:13.39	162.60	39.19	-46.3	-47.7	19.5	0.00e+00	0	36	0	982515712	64	4170
2026-01-19 00:05:14.40	162.85	38.97	-46.9	-48.4	18.8	0.00e+00	0	36	0	983564288	64	4523
2026-01-19 00:05:15.41	163.10	38.76	-48.2	-50.2	17.2	0.00e+00	0	36	0	985661440	66	4928
2026-01-19 00:05:16.42	163.35	38.54	-50.1	-53.2	14.2	0.00e+00	0	37	0	987758592	70	5566
2026-01-19 00:05:17.43	163.59	38.33	-50.4	-53.7	13.6	1.50e-06	0	36	0	989855744	71	5563
2026-01-19 00:05:18.43	163.83	38.12	-50.0	-53.0	14.3	2.20e-06	0	36	0	991952896	71	5159
2026-01-19 00:05:19.44	164.06	37.91	-48.6	-50.8	16.6	0.00e+00	0	36	0	994050048	69	4481
2026-01-19 00:05:20.45	164.30	37.69	-47.4	-49.1	18.1	0.00e+00	0	37	0	995098624	66	4372
2026-01-19 00:05:21.46	164.53	37.48	-46.6	-48.1	19.0	0.00e+00	0	36	0	997195776	65	4139
2026-01-19 00:05:22.47	164.75	37.27	-46.4	-47.8	19.4	0.00e+00	0	36	0	999292928	64	4231
2026-01-19 00:05:23.48	164.98	37.07	-46.5	-48.0	19.2	0.00e+00	0	36	0	1001390080	64	4317
2026-01-19 00:05:24.49	165.20	36.86	-47.1	-48.7	18.5	0.00e+00	0	36	0	1002438656	64	4670
2026-01-19 00:05:25.49	165.42	36.65	-46.8	-48.4	18.8	0.00e+00	0	37	0	1004535808	64	4500
2026-01-19 00:05:26.50	165.63	36.45	-46.7	-48.3	18.9	0.00e+00	0	37	0	1006632960	64	4459
2026-01-19 00:05:27.51	165.85	36.24	-46.5	-48.0	19.2	0.00e+00	0	37	0	1008730112	64	4297
2026-01-19 00:05:28.52	166.06	36.04	-46.6	-48.2	19.0	0.00e+00	0	36	0	1010827264	64	4402
2026-01-19 00:05:29.53	166.27	35.83	-46.2	-47.7	19.5	0.00e+00	0	36	0	1012924416	64	4148
2026-01-19 00:05:30.53	166.47	35.63	-46.4	-47.9	19.3	0.00e+00	0	36	0	1013972992	64	4279
2026-01-19 00:05:31.54	166.67	35.43	-46.5	-47.9	19.2	0.00e+00	0	36	0	1016070144	64	4284
2026-01-19 00:05:32.55	166.87	35.23	-46.1	-47.5	19.6	0.00e+00	0	36	0	1018167296	64	4094
2026-01-19 00:05:33.56	167.07	35.03	-46.6	-48.1	19.1	0.00e+00	0	36	0	1020264448	64	4354
2026-01-19 00:05:34.57	167.27	34.83	-47.2	-48.8	18.4	0.00e+00	0	36	0	1022361600	64	4750
2026-01-19 00:05:35.57	167.46	34.64	-48.4	-50.5	16.9	0.00e+00	0	36	0	1023410176	67	4826
2026-01-19 00:05:36.58	167.65	34.44	-49.2	-51.7	15.7	0.00e+00	0	36	0	1025507328	68	5247
2026-01-19 00:05:37.59	167.84	34.24	-49.8	-52.8	14.7	0.00e+00	0	36	0	1027604480	70	5310
2026-01-19 00:05:38.60	168.03	34.05	-49.6	-52.4	14.9	0.00e+00	0	37	0	1029701632	70	5066
2026-01-19 00:05:39.61	168.22	33.85	-49.3	-51.9	15.5	0.00e+00	0	36	0	1030750208	70	4809
2026-01-19 00:05:40.61	168.40	33.66	-48.7	-51.0	16.4	0.00e+00	0	36	0	1032847360	69	4589
2026-01-19 00:05:41.62	168.58	33.47	-47.7	-49.6	17.6	0.00e+00	0	36	0	1034944512	67	4348
2026-01-19 00:05:42.63	168.76	33.28	-47.3	-49.0	18.1	0.00e+00	0	36	0	1037041664	66	4333
2026-01-19 00:05:43.64	168.93	33.09	-46.7	-48.3	18.9	0.00e+00	0	36	0	1039138816	65	4209
2026-01-19 00:05:44.65	169.11	32.90	-46.5	-48.0	19.1	0.00e+00	0	36	0	1041235968	64	4338
2026-01-19 00:05:45.66	169.28	32.71	-46.8	-48.4	18.7	0.00e+00	0	37	0	1042284544	64	4533
2026-01-19 00:05:46.67	169.45	32.52	-46.9	-48.5	18.6	0.00e+00	0	36	0	1044381696	64	4596
2026-01-19 00:05:47.67	169.62	32.33	-47.3	-49.0	18.1	0.00e+00	0	36	0	1046478848	65	4585
2026-01-19 00:05:48.68	169.79	32.15	-47.2	-49.0	18.2	0.00e+00	0	37	0	1048576000	65	4548
2026-01-19 00:05:49.69	169.95	31.96	-47.3	-49.0	18.2	0.00e+00	0	36	0	1050673152	65	4568
2026-01-19 00:05:50.70	170.11	31.78	-46.7	-48.2	18.9	0.00e+00	0	36	0	1051721728	65	4171
2026-01-19 00:05:51.71	170.28	31.59	-46.6	-48.2	18.9	0.00e+00	0	36	0	1053818880	65	4150
2026-01-19 00:05:52.71	170.43	31.41	-46.8	-48.3	18.8	0.00e+00	0	36	0	1055916032	65	4236
2026-01-19 00:05:53.72	170.59	31.23	-46.7	-48.2	18.9	0.00e+00	0	36	0	1058013184	64	4433
2026-01-19 00:05:54.73	170.75	31.05	-47.2	-48.9	18.2	0.00e+00	0	36	0	1060110336	64	4786
2026-01-19 00:05:55.74	170.90	30.87	-47.4	-49.3	17.9	0.00e+00	0	37	0	1061158912	65	4710
2026-01-19 00:05:56.75	171.06	30.69	-47.5	-49.3	17.8	0.00e+00	0	36	0	1063256064	65	4730
2026-01-19 00:05:57.75	171.21	30.51	-48.1	-50.2	17.0	0.00e+00	0	36	0	1065353216	66	4954
2026-01-19 00:05:58.76	171.36	30.34	-47.8	-49.8	17.4	0.00e+00	0	37	0	1067450368	66	4708
2026-01-19 00:05:59.77	171.50	30.16	-47.7	-49.6	17.6	0.00e+00	0	36	0	1069547520	66	4612
2026-01-19 00:06:00.78	171.65	29.99	-47.3	-49.0	18.1	0.00e+00	0	36	0	1070596096	66	4306
2026-01-19 00:06:01.78	171.80	29.81	-46.9	-48.5	18.6	0.00e+00	0	36	0	1072693248	65	4321
2026-01-19 00:06:02.79	171.94	29.64	-46.5	-48.0	19.1	0.00e+00	0	36	0	1074790400	64	4296
2026-01-19 00:06:03.80	172.08	29.47	-46.1	-47.5	19.5	0.00e+00	0	36	0	1076887552	64	4082
2026-01-19 00:06:04.80	172.22	29.30	-46.1	-47.5	19.7	0.00e+00	0	36	0	1078984704	63	4299
2026-01-19 00:06:05.81	172.36	29.12	-45.6	-46.9	20.1	0.00e+00	0	37	0	1081081856	63	4034
2026-01-19 00:06:06.82	172.50	28.95	-45.9	-47.3	19.8	0.00e+00	0	36	0	1082130432	63	4237
2026-01-19 00:06:07.83	172.63	28.78	-45.9	-47.3	19.7	0.00e+00	0	36	0	1084227584	63	4225
2026-01-19 00:06:08.84	172.77	28.62	-46.2	-47.6	19.5	0.00e+00	0	36	0	1086324736	63	4385
2026-01-19 00:06:09.84	172.90	28.45	-47.0	-48.7	18.4	0.00e+00	0	36	0	1088421888	64	4701
2026-01-19 00:06:10.85	173.03	28.28	-47.2	-48.9	18.2	0.00e+00	0	36	0	1089470464	64	4800
2026-01-19 00:06:11.86	173.17	28.12	-47.8	-49.8	17.4	0.00e+00	0	36	0	1091567616	66	4722
2026-01-19 00:06:12.87	173.30	27.95	-48.1	-50.2	17.0	0.00e+00	0	36	0	1093664768	66	4950
2026-01-19 00:06:13.88	173.42	27.79	-48.0	-50.0	17.2	0.00e+00	0	36	0	1095761920	66	4831
2026-01-19 00:06:14.88	173.55	27.62	-48.5	-50.7	16.4	0.00e+00	0	36	0	1097859072	67	4981
2026-01-19 00:06:15.89	173.68	27.46	-48.1	-50.2	16.9	0.00e+00	0	36	0	1098907648	67	4674
2026-01-19 00:06:16.89	173.80	27.30	-47.7	-49.5	17.6	0.00e+00	0	36	0	1101004800	66	4593
2026-01-19 00:06:17.90	173.92	27.14	-47.4	-49.2	17.8	0.00e+00	0	36	0	1103101952	66	4422
2026-01-19 00:06:18.91	174.05	26.98	-46.7	-48.2	18.8	0.00e+00	0	36	0	1105199104	65	4188
2026-01-19 00:06:19.92	174.17	26.82	-46.5	-48.1	18.9	0.00e+00	0	36	0	1107296256	64	4360
2026-01-19 00:06:20.93	174.29	26.66	-46.6	-48.1	18.9	0.00e+00	0	36	0	1109393408	64	4377
2026-01-19 00:06:21.93	174.40	26.50	-46.6	-48.2	18.8	0.00e+00	0	36	0	1110441984	64	4406
2026-01-19 00:06:22.94	174.52	26.35	-46.6	-48.2	18.9	0.00e+00	0	36	0	1112539136	64	4407
2026-01-19 00:06:23.95	174.64	26.19	-46.8	-48.5	18.5	0.00e+00	0	36	0	1114636288	64	4553
2026-01-19 00:06:24.96	174.75	26.04	-46.8	-48.4	18.6	0.00e+00	0	36	0	1116733440	64	4522
2026-01-19 00:06:25.97	174.87	25.88	-46.8	-48.4	18.7	0.00e+00	0	37	0	1117782016	64	4505
2026-01-19 00:06:26.97	174.98	25.73	-46.9	-48.6	18.4	0.00e+00	0	36	0	1119879168	64	4620
2026-01-19 00:06:27.98	175.09	25.57	-46.7	-48.3	18.7	0.00e+00	0	36	0	1121976320	64	4453
2026-01-19 00:06:28.99	175.20	25.42	-46.9	-48.6	18.5	0.00e+00	0	36	0	1124073472	64	4620
2026-01-19 00:06:30.00	175.31	25.27	-46.7	-48.3	18.7	0.00e+00	0	36	0	1126170624	64	4476
2026-01-19 00:06:31.01	175.42	25.12	-46.3	-47.8	19.2	0.00e+00	0	36	0	1127219200	64	4209
2026-01-19 00:06:32.02	175.53	24.97	-46.5	-48.0	19.0	0.00e+00	0	36	0	1129316352	64	4307
2026-01-19 00:06:33.02	175.64	24.82	-46.2	-47.6	19.3	0.00e+00	0	36	0	1131413504	64	4124
2026-01-19 00:06:34.03	175.75	24.67	-45.9	-47.3	19.7	0.00e+00	0	36	0	1133510656	63	4228
2026-01-19 00:06:35.04	175.85	24.52	-46.0	-47.4	19.6	0.00e+00	0	36	0	1135607808	63	4253
2026-01-19 00:06:36.05	175.96	24.38	-45.7	-47.1	19.9	0.00e+00	0	37	0	1137704960	63	4111
2026-01-19 00:06:37.05	176.06	24.23	-45.9	-47.3	19.7	0.00e+00	0	36	0	1138753536	62	4466
2026-01-19 00:06:38.06	176.16	24.09	-45.9	-47.3	19.7	0.00e+00	0	36	0	1140850688	62	4442
2026-01-19 00:06:39.07	176.26	23.94	-45.7	-47.0	19.9	0.00e+00	0	36	0	1142947840	62	4324
2026-01-19 00:06:40.08	176.36	23.80	-45.8	-47.1	19.8	0.00e+00	0	36	0	1145044992	62	4386
2026-01-19 00:06:41.09	176.46	23.65	-45.8	-47.2	19.9	0.00e+00	0	36	0	1146093568	62	4392
2026-01-19 00:06:42.09	176.56	23.51	-45.8	-47.1	19.8	0.00e+00	0	36	0	1148190720	62	4376
2026-01-19 00:06:43.10	176.66	23.37	-46.0	-47.4	19.5	0.00e+00	0	37	0	1150287872	62	4536
2026-01-19 00:06:44.11	176.76	23.23	-46.0	-47.4	19.5	0.00e+00	0	37	0	1152385024	62	4544
2026-01-19 00:06:45.12	176.85	23.09	-46.2	-47.6	19.3	0.00e+00	0	36	0	1154482176	62	4642
2026-01-19 00:06:46.13	176.95	22.95	-46.4	-47.9	19.0	0.00e+00	0	36	0	1156579328	63	4528
2026-01-19 00:06:47.13	177.04	22.81	-46.4	-48.0	19.0	0.00e+00	0	37	0	1157627904	63	4555
2026-01-19 00:06:48.14	177.14	22.67	-46.5	-48.1	19.0	0.00e+00	0	36	0	1159725056	63	4613
2026-01-19 00:06:49.15	177.23	22.53	-46.6	-48.2	18.8	0.00e+00	0	36	0	1161822208	63	4678
2026-01-19 00:06:50.15	177.32	22.40	-46.6	-48.1	18.8	0.00e+00	0	36	0	1163919360	63	4647
2026-01-19 00:06:51.16	177.41	22.26	-46.6	-48.2	18.8	0.00e+00	0	36	0	1166016512	63	4672
2026-01-19 00:06:52.17	177.50	22.12	-46.4	-48.0	19.0	0.00e+00	0	36	0	1167065088	63	4566
2026-01-19 00:06:53.18	177.59	21.99	-46.3	-47.8	18.7	0.00e+00	0	36	0	1169162240	63	4477
2026-01-19 00:06:54.19	177.68	21.85	-46.1	-47.6	19.3	0.00e+00	0	36	0	1171259392	63	4368
2026-01-19 00:06:55.20	177.77	21.72	-46.0	-47.4	19.5	0.00e+00	0	37	0	1173356544	63	4270
2026-01-19 00:06:56.21	177.86	21.58	-45.9	-47.3	19.6	0.00e+00	0	37	0	1174405120	63	4210
2026-01-19 00:06:57.21	177.95	21.45	-45.7	-47.2	19.7	0.00e+00	0	36	0	1176502272	62	4392
2026-01-19 00:06:58.22	178.03	21.32	-45.6	-47.0	19.8	0.00e+00	0	36	0	1178599424	62	4323
2026-01-19 00:06:59.23	178.12	21.19	-45.4	-46.8	20.0	0.00e+00	0	36	0	1180696576	62	4196
2026-01-19 00:07:00.24	178.21	21.06	-45.2	-46.5	20.3	0.00e+00	0	36	0	1182793728	62	4095
2026-01-19 00:07:01.25	178.29	20.93	-45.0	-46.2	20.5	0.00e+00	0	36	0	1184890880	62	3943
2026-01-19 00:07:02.25	178.37	20.80	-44.8	-46.0	20.7	0.00e+00	0	36	0	1185939456	61	4084
2026-01-19 00:07:03.26	178.46	20.67	-44.7	-45.9	20.8	0.00e+00	0	36	0	1188036608	61	4018
2026-01-19 00:07:04.27	178.54	20.54	-44.5	-45.6	21.1	0.00e+00	0	36	0	1190133760	60	4141
2026-01-19 00:07:05.28	178.62	20.41	-44.3	-45.5	21.2	0.00e+00	0	36	0	1192230912	60	4067
2026-01-19 00:07:06.29	178.70	20.29	-44.2	-45.4	21.4	0.00e+00	0	36	0	1194328064	60	4011
2026-01-19 00:07:07.29	178.78	20.16	-44.0	-45.1	21.5	0.00e+00	0	36	0	1195376640	60	3912
2026-01-19 00:07:08.30	178.86	20.03	-44.5	-45.6	21.3	0.00e+00	0	36	0	1197473792	59	4390
2026-01-19 00:07:09.31	178.94	19.91	-44.2	-45.3	21.6	0.00e+00	0	36	0	1199570944	59	4217
2026-01-19 00:07:10.32	179.02	19.78	-44.5	-45.7	21.3	0.00e+00	0	36	0	1201668096	59	4401
2026-01-19 00:07:11.33	179.10	19.66	-44.7	-45.9	21.1	0.00e+00	0	36	0	1203765248	59	4514
2026-01-19 00:07:12.33	179.17	19.54	-44.5	-45.7	21.0	0.00e+00	0	36	0	1204813824	60	4156
2026-01-19 00:07:13.34	179.25	19.41	-44.6	-45.8	20.9	0.00e+00	0	36	0	1206910976	60	4219
2026-01-19 00:07:14.35	179.33	19.29	-44.8	-46.1	20.7	0.00e+00	0	36	0	1209008128	60	4353
2026-01-19 00:07:15.36	179.40	19.17	-45.1	-46.4	20.4	0.00e+00	0	37	0	1211105280	60	4515
2026-01-19 00:07:16.37	179.48	19.05	-45.2	-46.5	20.3	0.00e+00	0	36	0	1213202432	61	4308
2026-01-19 00:07:17.37	179.55	18.93	-45.4	-46.8	20.0	0.00e+00	0	36	0	1214251008	61	4452
2026-01-19 00:07:18.38	179.63	18.81	-45.8	-47.2	19.6	0.00e+00	0	37	0	1216348160	62	4428
2026-01-19 00:07:19.39	179.70	18.69	-45.9	-47.4	19.4	0.00e+00	0	37	0	1218445312	62	4513
2026-01-19 00:07:20.39	179.77	18.57	-46.1	-47.6	19.3	0.00e+00	0	37	0	1220542464	62	4601
2026-01-19 00:07:21.40	179.85	18.45	-46.2	-47.8	19.1	0.00e+00	0	37	0	1222639616	63	4452
2026-01-19 00:07:22.41	179.92	18.33	-46.2	-47.8	19.1	0.00e+00	0	37	0	1223688192	63	4446
2026-01-19 00:07:23.41	179.99	18.21	-46.5	-48.0	18.8	0.00e+00	0	37	0	1225785344	63	4596
2026-01-19 00:07:24.42	180.06	18.10	-46.6	-48.3	18.6	0.00e+00	0	37	0	1227882496	63	4710
2026-01-19 00:07:25.43	180.13	17.98	-46.5	-48.1	18.8	0.00e+00	0	36	0	1229979648	63	4615
2026-01-19 00:07:26.43	180.20	17.86	-46.6	-48.2	18.7	0.00e+00	0	37	0	1232076800	63	4687
2026-01-19 00:07:27.44	180.27	17.75	-46.6	-48.2	18.7	0.00e+00	0	36	0	1233125376	63	4662
2026-01-19 00:07:28.45	180.34	17.63	-46.6	-48.2	18.7	0.00e+00	0	36	0	1235222528	63	4663
2026-01-19 00:07:29.46	180.41	17.52	-46.5	-48.1	18.7	0.00e+00	0	36	0	1237319680	63	4628
2026-01-19 00:07:30.47	180.47	17.40	-46.5	-48.2	18.6	0.00e+00	0	36	0	1239416832	64	4396
2026-01-19 00:07:31.47	180.54	17.29	-46.5	-48.1	18.6	0.00e+00	0	37	0	1241513984	64	4387
2026-01-19 00:07:32.48	180.61	17.18	-46.6	-48.3	18.5	0.00e+00	0	36	0	1242562560	64	4443
2026-01-19 00:07:33.49	180.67	17.06	-46.6	-48.2	18.6	0.00e+00	0	36	0	1244659712	64	4410
2026-01-19 00:07:34.50	180.74	16.95	-46.6	-48.3	18.5	0.00e+00	0	36	0	1246756864	63	4706
2026-01-19 00:07:35.51	180.81	16.84	-46.6	-48.2	18.6	0.00e+00	0	37	0	1248854016	63	4681
2026-01-19 00:07:36.51	180.87	16.73	-46.6	-48.3	18.5	0.00e+00	0	37	0	1250951168	64	4478
2026-01-19 00:07:37.52	180.93	16.62	-46.4	-48.0	18.7	0.00e+00	0	36	0	1251999744	64	4315
2026-01-19 00:07:38.53	181.00	16.51	-46.4	-48.0	18.7	0.00e+00	0	36	0	1254096896	64	4329
2026-01-19 00:07:39.54	181.06	16.40	-46.5	-48.1	18.6	0.00e+00	0	36	0	1256194048	64	4358
2026-01-19 00:07:40.54	181.13	16.29	-46.4	-48.0	18.7	0.00e+00	0	36	0	1258291200	64	4312
2026-01-19 00:07:41.55	181.19	16.18	-46.3	-47.9	18.8	0.00e+00	0	36	0	1260388352	64	4255
2026-01-19 00:07:42.56	181.25	16.07	-46.0	-47.6	19.1	0.00e+00	0	36	0	1261436928	64	4103
2026-01-19 00:07:43.57	181.31	15.96	-46.1	-47.7	19.1	0.00e+00	0	36	0	1263534080	62	4669
2026-01-19 00:07:44.57	181.37	15.86	-46.1	-47.6	19.2	0.00e+00	0	37	0	1265631232	63	4350
2026-01-19 00:07:45.58	181.44	15.75	-46.0	-47.5	19.3	0.00e+00	0	36	0	1267728384	63	4299
2026-01-19 00:07:46.59	181.50	15.64	-45.8	-47.3	19.5	0.00e+00	0	37	0	1269825536	63	4200
2026-01-19 00:07:47.60	181.56	15.54	-45.7	-47.1	19.7	0.00e+00	0	36	0	1270874112	63	4117
2026-01-19 00:07:48.61	181.62	15.43	-45.7	-47.1	19.7	0.00e+00	0	36	0	1272971264	63	4114
