passes_logs/2026/01/18/R3.2S_Murmansk/R3.2S_Murmansk__20260118_214557_NOAA_21_JPSS-2_rec.log

#Pass ID: 20260118_214557_NOAA 21 (JPSS-2)
#Satellite: NOAA 21 (JPSS-2)
#Configuration: NOAA-21
#almurnet v.1.7.20251203
#Start time: 2026-01-18 21:45:56

#Version: 2.2.20231116
#Station: R3.2S_Murmansk
#Location: 33.079688 lon 68.888172 lat
#TLE: 1 54234U 22150A   26018.60745868  .00000048  00000+0  43754-4 0  9997
#TLE: 2 54234  98.7503 319.4636 0000607 264.0480  96.0627 14.19535445165329

#Time	Az	El	Level	Level2	SNR	BER	BlckErr	Temp	State	Recorded	gain1	gain2
2026-01-18 21:45:56.84	18.30	1.99	-51.5	-64.2	3.8	1.49e+00	0	34	0	0	74	15748
2026-01-18 21:45:57.84	18.38	2.04	-51.5	-64.3	3.8	1.49e+00	0	34	104	0	73	16766
2026-01-18 21:45:58.84	18.47	2.09	-51.5	-64.3	3.8	1.49e+00	0	34	104	0	73	16731
2026-01-18 21:45:59.85	18.55	2.14	-51.5	-64.2	3.8	1.49e+00	0	34	104	0	73	16601
2026-01-18 21:46:00.86	18.64	2.19	-51.5	-64.2	3.8	1.49e+00	0	34	104	0	73	16587
2026-01-18 21:46:01.87	18.73	2.24	-51.5	-64.2	3.8	1.49e+00	0	35	104	0	73	16638
2026-01-18 21:46:02.88	18.82	2.29	-51.5	-64.2	3.8	1.49e+00	0	35	104	0	73	16650
2026-01-18 21:46:03.89	18.90	2.34	-51.5	-64.2	3.8	1.49e+00	0	35	104	0	73	16563
2026-01-18 21:46:04.89	18.99	2.39	-51.5	-64.2	3.8	1.49e+00	0	35	104	0	73	16692
2026-01-18 21:46:05.90	19.08	2.44	-51.5	-64.2	3.8	1.49e+00	0	35	104	0	73	16659
2026-01-18 21:46:06.91	19.17	2.49	-51.5	-64.3	3.8	1.49e+00	0	35	104	0	73	16699
2026-01-18 21:46:07.92	19.26	2.54	-51.5	-64.3	3.8	1.49e+00	0	35	104	0	73	16744
2026-01-18 21:46:08.93	19.35	2.59	-51.5	-64.3	3.8	1.49e+00	0	35	104	0	73	16711
2026-01-18 21:46:09.94	19.44	2.64	-51.5	-64.3	3.8	1.49e+00	0	35	104	0	73	16708
2026-01-18 21:46:10.94	19.52	2.69	-51.5	-64.3	3.8	1.49e+00	0	35	104	0	73	16709
2026-01-18 21:46:11.95	19.61	2.75	-51.5	-64.3	3.8	1.49e+00	0	35	104	0	73	16728
2026-01-18 21:46:12.96	19.70	2.80	-51.5	-64.2	3.8	1.49e+00	0	35	104	0	73	16653
2026-01-18 21:46:13.97	19.79	2.85	-51.5	-64.2	3.8	1.49e+00	0	35	104	0	73	16612
2026-01-18 21:46:14.98	19.89	2.90	-51.5	-64.2	3.8	1.49e+00	0	35	104	0	73	16606
2026-01-18 21:46:15.98	19.98	2.95	-51.5	-64.2	3.8	1.49e+00	0	35	104	0	73	16526
2026-01-18 21:46:16.99	20.07	3.00	-51.5	-64.1	3.8	1.49e+00	0	35	104	0	73	16480
2026-01-18 21:46:18.00	20.16	3.05	-51.5	-64.2	3.8	1.49e+00	0	35	104	0	73	16544
2026-01-18 21:46:19.01	20.25	3.10	-51.5	-64.1	3.8	1.49e+00	0	35	104	0	73	16499
2026-01-18 21:46:20.02	20.34	3.15	-51.5	-64.2	3.8	1.49e+00	0	35	104	0	73	16535
2026-01-18 21:46:21.02	20.44	3.20	-51.5	-64.2	3.8	1.49e+00	0	35	104	0	73	16523
2026-01-18 21:46:22.03	20.53	3.25	-51.5	-64.2	3.8	1.49e+00	0	35	104	0	73	16576
2026-01-18 21:46:23.04	20.62	3.30	-51.5	-64.2	3.8	1.49e+00	0	35	104	0	73	16624
2026-01-18 21:46:24.04	20.71	3.36	-51.5	-64.1	3.8	1.49e+00	0	35	104	0	73	16456
2026-01-18 21:46:25.05	20.81	3.41	-51.5	-64.1	3.8	1.49e+00	0	35	104	0	73	16346
2026-01-18 21:46:26.06	20.90	3.46	-51.5	-64.1	3.8	1.49e+00	0	35	104	0	73	16410
2026-01-18 21:46:27.07	21.00	3.51	-51.5	-64.1	3.8	1.49e+00	0	35	104	0	73	16426
2026-01-18 21:46:28.08	21.09	3.56	-51.5	-64.2	3.8	1.49e+00	0	35	104	0	73	16549
2026-01-18 21:46:29.09	21.19	3.61	-51.5	-64.2	3.8	1.49e+00	0	35	104	0	73	16626
2026-01-18 21:46:30.09	21.28	3.66	-51.5	-64.2	3.8	1.49e+00	0	35	104	0	73	16633
2026-01-18 21:46:31.10	21.38	3.71	-51.5	-64.2	3.8	1.49e+00	0	35	104	0	73	16603
2026-01-18 21:46:32.11	21.47	3.77	-51.5	-64.1	3.8	1.49e+00	0	35	104	0	73	16434
2026-01-18 21:46:33.12	21.57	3.82	-51.5	-64.1	3.8	1.49e+00	0	35	104	0	73	16399
2026-01-18 21:46:34.13	21.67	3.87	-51.5	-64.1	3.8	1.49e+00	0	35	104	0	73	16368
2026-01-18 21:46:35.14	21.76	3.92	-51.5	-64.1	3.8	1.49e+00	0	35	104	0	73	16404
2026-01-18 21:46:36.15	21.86	3.97	-51.5	-64.1	3.8	1.49e+00	0	35	104	0	73	16475
2026-01-18 21:46:37.15	21.96	4.02	-51.5	-64.2	3.8	1.49e+00	0	35	104	0	73	16580
2026-01-18 21:46:38.16	22.06	4.07	-51.5	-64.2	3.8	1.49e+00	0	35	104	0	73	16663
2026-01-18 21:46:39.17	22.16	4.13	-51.5	-64.2	3.8	1.49e+00	0	35	104	0	73	16563
2026-01-18 21:46:40.18	22.25	4.18	-51.5	-64.1	3.8	1.49e+00	0	35	104	0	73	16360
2026-01-18 21:46:41.19	22.35	4.23	-51.5	-63.9	3.8	1.49e+00	0	35	104	0	73	16075
2026-01-18 21:46:42.20	22.45	4.28	-51.4	-63.7	3.8	1.49e+00	0	36	104	0	73	15704
2026-01-18 21:46:43.21	22.55	4.33	-51.4	-63.6	3.8	1.49e+00	0	35	104	0	73	15549
2026-01-18 21:46:44.21	22.65	4.38	-51.4	-63.5	3.8	1.49e+00	0	35	104	0	73	15286
2026-01-18 21:46:45.22	22.75	4.44	-51.4	-63.6	3.8	1.49e+00	0	35	104	0	73	15500
2026-01-18 21:46:46.23	22.85	4.49	-51.4	-63.7	3.8	1.49e+00	0	36	104	0	73	15745
2026-01-18 21:46:47.24	22.95	4.54	-51.4	-63.8	3.8	1.49e+00	0	35	104	0	73	15804
2026-01-18 21:46:48.25	23.05	4.59	-51.4	-63.5	3.8	1.49e+00	0	36	104	0	73	15350
2026-01-18 21:46:49.25	23.16	4.64	-51.4	-62.9	3.8	1.49e+00	0	35	104	0	73	14356
2026-01-18 21:46:50.26	23.26	4.70	-51.3	-61.8	3.8	1.49e+00	0	35	104	0	73	12588
2026-01-18 21:46:51.27	23.36	4.75	-51.0	-59.9	4.0	1.06e+00	2	36	104	0	73	10084
2026-01-18 21:46:52.28	23.46	4.80	-50.8	-58.2	5.3	6.28e-01	0	36	0	1048576	73	8340
2026-01-18 21:46:53.29	23.57	4.85	-50.7	-57.6	5.7	4.76e-01	0	36	0	4194304	73	7747
2026-01-18 21:46:54.30	23.67	4.90	-50.7	-57.6	5.7	4.29e-01	0	36	0	7340032	73	7773
2026-01-18 21:46:55.30	23.77	4.96	-50.6	-57.1	6.0	3.86e-01	0	35	0	10485760	73	7360
2026-01-18 21:46:56.31	23.88	5.01	-50.4	-56.5	6.5	2.40e-01	0	36	0	13631488	72	7230
2026-01-18 21:46:57.32	23.98	5.06	-50.3	-56.1	6.8	2.28e-01	0	36	0	16777216	72	6945
2026-01-18 21:46:58.33	24.09	5.11	-48.8	-52.0	11.4	3.77e-04	0	35	0	19922944	68	5431
2026-01-18 21:46:59.33	24.19	5.16	-50.7	-57.3	6.0	3.31e-01	0	36	0	23068672	72	7924
2026-01-18 21:47:00.34	24.30	5.22	-50.9	-58.8	4.9	6.32e-01	0	35	0	26214400	72	9427
2026-01-18 21:47:01.35	24.40	5.27	-50.9	-59.2	4.6	1.48e+00	2	36	104	27262976	72	9854
2026-01-18 21:47:02.35	24.51	5.32	-47.1	-49.2	14.2	0.00e+00	0	36	0	29360128	66	4415
2026-01-18 21:47:03.36	24.61	5.37	-46.7	-48.7	14.7	7.00e-07	0	35	0	32505856	65	4419
2026-01-18 21:47:04.37	24.72	5.42	-46.7	-48.6	14.9	0.00e+00	0	36	0	35651584	64	4610
2026-01-18 21:47:05.38	24.83	5.48	-46.6	-48.5	15.0	0.00e+00	0	35	0	38797312	64	4583
2026-01-18 21:47:06.39	24.94	5.53	-46.1	-47.8	15.7	0.00e+00	0	36	0	41943040	64	4195
2026-01-18 21:47:07.40	25.04	5.58	-46.0	-47.7	15.9	0.00e+00	0	35	0	45088768	63	4427
2026-01-18 21:47:08.41	25.15	5.63	-46.1	-47.7	15.9	0.00e+00	0	36	0	48234496	63	4436
2026-01-18 21:47:09.42	25.26	5.69	-46.0	-47.7	15.9	0.00e+00	0	35	0	51380224	63	4413
2026-01-18 21:47:10.42	25.37	5.74	-45.9	-47.6	16.1	0.00e+00	0	36	0	54525952	63	4358
2026-01-18 21:47:11.43	25.48	5.79	-45.8	-47.3	16.4	0.00e+00	0	36	0	57671680	63	4226
2026-01-18 21:47:12.44	25.59	5.84	-45.9	-47.5	16.1	0.00e+00	0	35	0	60817408	63	4332
2026-01-18 21:47:13.45	25.70	5.90	-46.2	-47.9	15.8	0.00e+00	0	36	0	63963136	63	4503
2026-01-18 21:47:14.46	25.81	5.95	-46.1	-47.8	15.9	0.00e+00	0	36	0	67108864	63	4472
2026-01-18 21:47:15.46	25.92	6.00	-46.1	-47.8	15.9	0.00e+00	0	36	0	70254592	63	4455
2026-01-18 21:47:16.47	26.03	6.05	-45.9	-47.5	16.2	0.00e+00	0	36	0	73400320	63	4315
2026-01-18 21:47:17.48	26.14	6.11	-46.1	-47.7	16.0	0.00e+00	0	36	0	76546048	63	4431
2026-01-18 21:47:18.49	26.26	6.16	-45.9	-47.5	16.2	0.00e+00	0	36	0	79691776	63	4325
2026-01-18 21:47:19.49	26.37	6.21	-46.1	-47.8	16.0	0.00e+00	0	36	0	82837504	63	4454
2026-01-18 21:47:20.50	26.48	6.26	-45.9	-47.6	16.2	0.00e+00	0	36	0	85983232	63	4343
2026-01-18 21:47:21.51	26.59	6.32	-46.1	-47.8	16.0	0.00e+00	0	36	0	89128960	63	4467
2026-01-18 21:47:22.52	26.71	6.37	-46.3	-48.0	15.8	0.00e+00	0	36	0	92274688	63	4555
2026-01-18 21:47:23.53	26.82	6.42	-46.2	-47.9	15.9	0.00e+00	0	36	0	95420416	63	4519
2026-01-18 21:47:24.53	26.94	6.47	-46.2	-47.8	15.9	0.00e+00	0	36	0	98566144	63	4493
2026-01-18 21:47:25.54	27.05	6.53	-45.9	-47.5	16.4	0.00e+00	0	36	0	101711872	63	4296
2026-01-18 21:47:26.55	27.17	6.58	-45.8	-47.3	16.5	0.00e+00	0	36	0	104857600	63	4219
2026-01-18 21:47:27.55	27.28	6.63	-45.6	-47.1	16.7	0.00e+00	0	36	0	108003328	63	4101
2026-01-18 21:47:28.56	27.40	6.69	-45.6	-47.1	16.7	0.00e+00	0	36	0	111149056	63	4104
2026-01-18 21:47:29.57	27.51	6.74	-46.0	-47.6	16.3	0.00e+00	0	36	0	114294784	63	4346
2026-01-18 21:47:30.58	27.63	6.79	-45.9	-47.5	16.3	0.00e+00	0	36	0	117440512	63	4330
2026-01-18 21:47:31.59	27.75	6.84	-45.7	-47.2	16.7	0.00e+00	0	36	0	120586240	63	4158
2026-01-18 21:47:32.60	27.87	6.90	-45.7	-47.2	16.7	0.00e+00	0	36	0	123731968	63	4166
2026-01-18 21:47:33.61	27.98	6.95	-45.7	-47.2	16.7	0.00e+00	0	36	0	126877696	63	4151
2026-01-18 21:47:34.61	28.10	7.00	-45.6	-47.0	16.9	0.00e+00	0	36	0	130023424	63	4082
2026-01-18 21:47:35.62	28.22	7.06	-45.6	-47.1	16.8	0.00e+00	0	36	0	133169152	62	4345
2026-01-18 21:47:36.63	28.34	7.11	-45.2	-46.6	17.3	0.00e+00	0	36	0	136314880	62	4130
2026-01-18 21:47:37.64	28.46	7.16	-45.5	-46.9	17.0	0.00e+00	0	36	0	139460608	62	4284
2026-01-18 21:47:38.65	28.58	7.21	-45.7	-47.2	16.8	0.00e+00	0	36	0	142606336	62	4420
2026-01-18 21:47:39.65	28.70	7.27	-45.4	-46.9	17.1	0.00e+00	0	36	0	145752064	62	4263
2026-01-18 21:47:40.66	28.82	7.32	-45.4	-46.9	17.1	0.00e+00	0	36	0	148897792	62	4244
2026-01-18 21:47:41.67	28.94	7.37	-45.5	-46.9	17.1	0.00e+00	0	36	0	152043520	62	4289
2026-01-18 21:47:42.68	29.07	7.42	-45.9	-47.4	16.6	0.00e+00	0	36	0	155189248	62	4515
2026-01-18 21:47:43.68	29.19	7.48	-45.6	-47.0	17.0	0.00e+00	0	36	0	158334976	62	4339
2026-01-18 21:47:44.69	29.31	7.53	-45.1	-46.4	17.5	0.00e+00	0	36	0	161480704	62	4031
2026-01-18 21:47:45.70	29.43	7.58	-45.1	-46.4	17.5	0.00e+00	0	36	0	164626432	62	4027
2026-01-18 21:47:46.71	29.56	7.64	-45.5	-46.9	17.1	0.00e+00	0	36	0	167772160	62	4269
2026-01-18 21:47:47.72	29.68	7.69	-45.1	-46.5	17.5	0.00e+00	0	36	0	170917888	62	4061
2026-01-18 21:47:48.73	29.81	7.74	-45.2	-46.6	17.5	0.00e+00	0	36	0	174063616	62	4100
2026-01-18 21:47:49.73	29.93	7.79	-44.9	-46.2	17.8	0.00e+00	0	36	0	177209344	61	4174
2026-01-18 21:47:50.74	30.05	7.85	-45.1	-46.4	17.7	0.00e+00	0	36	0	180355072	61	4251
2026-01-18 21:47:51.75	30.18	7.90	-44.9	-46.2	17.8	0.00e+00	0	36	0	183500800	61	4154
2026-01-18 21:47:52.76	30.31	7.95	-44.7	-46.0	18.0	0.00e+00	0	36	0	186646528	61	4053
2026-01-18 21:47:53.77	30.43	8.01	-44.9	-46.2	17.9	0.00e+00	0	36	0	189792256	61	4147
2026-01-18 21:47:54.77	30.56	8.06	-44.9	-46.1	17.9	0.00e+00	0	36	0	192937984	61	4139
2026-01-18 21:47:55.78	30.69	8.11	-44.7	-45.9	18.1	0.00e+00	0	36	0	196083712	61	4039
2026-01-18 21:47:56.79	30.81	8.16	-44.8	-46.0	18.0	0.00e+00	0	36	0	199229440	61	4094
2026-01-18 21:47:57.80	30.94	8.22	-45.1	-46.4	17.6	0.00e+00	0	36	0	202375168	61	4275
2026-01-18 21:47:58.81	31.07	8.27	-45.1	-46.4	17.7	0.00e+00	0	36	0	205520896	61	4250
2026-01-18 21:47:59.81	31.20	8.32	-45.2	-46.5	17.6	0.00e+00	0	36	0	208666624	61	4308
2026-01-18 21:48:00.83	31.33	8.38	-45.1	-46.4	17.7	0.00e+00	0	36	0	211812352	61	4272
2026-01-18 21:48:01.83	31.46	8.43	-44.9	-46.1	18.0	0.00e+00	0	36	0	214958080	61	4134
2026-01-18 21:48:02.84	31.59	8.48	-45.4	-46.8	17.3	0.00e+00	0	36	0	218103808	61	4463
2026-01-18 21:48:03.85	31.72	8.53	-45.0	-46.3	17.8	0.00e+00	0	36	0	221249536	61	4212
2026-01-18 21:48:04.86	31.85	8.59	-44.8	-46.1	18.0	0.00e+00	0	36	0	224395264	61	4124
2026-01-18 21:48:05.87	31.99	8.64	-44.8	-46.1	18.0	0.00e+00	0	36	0	227540992	61	4126
2026-01-18 21:48:06.88	32.12	8.69	-44.9	-46.1	18.0	0.00e+00	0	36	0	230686720	61	4134
2026-01-18 21:48:07.88	32.25	8.74	-45.1	-46.5	17.7	0.00e+00	0	36	0	233832448	61	4293
2026-01-18 21:48:08.89	32.38	8.80	-44.7	-46.0	18.1	0.00e+00	0	36	0	236978176	61	4058
2026-01-18 21:48:09.90	32.52	8.85	-44.9	-46.1	18.0	0.00e+00	0	36	0	240123904	61	4135
2026-01-18 21:48:10.91	32.65	8.90	-45.0	-46.3	18.0	0.00e+00	0	36	0	243269632	61	4197
2026-01-18 21:48:11.91	32.79	8.95	-44.8	-46.0	18.2	0.00e+00	0	36	0	246415360	61	4079
2026-01-18 21:48:12.92	32.92	9.01	-44.7	-45.9	18.2	0.00e+00	0	36	0	249561088	61	4044
2026-01-18 21:48:13.93	33.06	9.06	-44.8	-46.1	18.0	0.00e+00	0	36	0	252706816	61	4123
2026-01-18 21:48:14.94	33.19	9.11	-44.9	-46.2	18.0	0.00e+00	0	36	0	255852544	61	4167
2026-01-18 21:48:15.95	33.33	9.16	-45.0	-46.3	17.9	0.00e+00	0	36	0	258998272	61	4217
2026-01-18 21:48:16.95	33.47	9.22	-45.0	-46.3	17.9	0.00e+00	0	36	0	262144000	61	4202
2026-01-18 21:48:17.96	33.60	9.27	-44.8	-46.0	18.1	0.00e+00	0	36	0	265289728	61	4076
2026-01-18 21:48:18.97	33.74	9.32	-44.7	-45.9	18.2	0.00e+00	0	36	0	268435456	61	4033
2026-01-18 21:48:19.98	33.88	9.37	-44.8	-46.1	18.1	0.00e+00	0	36	0	271581184	61	4113
2026-01-18 21:48:20.99	34.02	9.43	-44.8	-46.0	18.2	0.00e+00	0	36	0	274726912	61	4068
2026-01-18 21:48:21.99	34.16	9.48	-44.6	-45.8	18.3	0.00e+00	0	36	0	277872640	61	3973
2026-01-18 21:48:23.00	34.30	9.53	-44.5	-45.7	18.4	0.00e+00	0	36	0	281018368	61	3945
2026-01-18 21:48:24.01	34.44	9.58	-44.4	-45.6	18.5	0.00e+00	0	36	0	284164096	60	4114
2026-01-18 21:48:25.02	34.58	9.63	-44.4	-45.5	18.7	0.00e+00	0	36	0	287309824	60	4083
2026-01-18 21:48:26.02	34.72	9.69	-44.3	-45.5	18.7	0.00e+00	0	36	0	290455552	60	4079
2026-01-18 21:48:27.03	34.86	9.74	-44.4	-45.6	18.5	0.00e+00	0	36	0	293601280	60	4121
2026-01-18 21:48:28.04	35.01	9.79	-44.3	-45.5	18.7	0.00e+00	0	36	0	296747008	60	4069
2026-01-18 21:48:29.05	35.15	9.84	-44.7	-45.9	18.4	0.00e+00	0	36	0	299892736	60	4277
2026-01-18 21:48:30.05	35.29	9.89	-44.4	-45.5	18.6	0.00e+00	0	36	0	303038464	60	4086
2026-01-18 21:48:31.06	35.44	9.95	-44.4	-45.6	18.6	0.00e+00	0	36	0	306184192	60	4102
2026-01-18 21:48:32.07	35.58	10.00	-44.5	-45.7	18.5	0.00e+00	0	36	0	309329920	60	4152
2026-01-18 21:48:33.08	35.72	10.05	-44.5	-45.7	18.4	0.00e+00	0	36	0	312475648	60	4186
2026-01-18 21:48:34.08	35.87	10.10	-44.7	-45.9	18.3	0.00e+00	0	36	0	315621376	60	4255
2026-01-18 21:48:35.09	36.02	10.15	-44.6	-45.8	18.5	0.00e+00	0	36	0	318767104	60	4213
2026-01-18 21:48:36.10	36.16	10.21	-44.5	-45.7	18.4	0.00e+00	0	36	0	321912832	60	4170
2026-01-18 21:48:37.11	36.31	10.26	-44.4	-45.5	18.6	0.00e+00	0	36	0	325058560	60	4096
2026-01-18 21:48:38.12	36.46	10.31	-44.5	-45.8	18.5	0.00e+00	0	36	0	328204288	60	4198
2026-01-18 21:48:39.13	36.60	10.36	-44.4	-45.6	18.6	0.00e+00	0	36	0	331350016	60	4127
2026-01-18 21:48:40.13	36.75	10.41	-44.2	-45.4	18.8	0.00e+00	0	36	0	334495744	60	4010
2026-01-18 21:48:41.15	36.90	10.46	-44.2	-45.3	18.8	0.00e+00	0	36	0	337641472	60	3998
2026-01-18 21:48:42.15	37.05	10.51	-44.2	-45.3	18.9	0.00e+00	0	36	0	340787200	60	3966
2026-01-18 21:48:43.16	37.20	10.57	-44.2	-45.3	18.9	0.00e+00	0	36	0	343932928	60	4002
2026-01-18 21:48:44.17	37.35	10.62	-44.2	-45.4	18.8	0.00e+00	0	36	0	347078656	60	4012
2026-01-18 21:48:45.18	37.50	10.67	-44.2	-45.3	18.9	0.00e+00	0	36	0	350224384	60	3973
2026-01-18 21:48:46.19	37.65	10.72	-44.3	-45.5	18.8	0.00e+00	0	36	0	353370112	60	4067
2026-01-18 21:48:47.20	37.81	10.77	-44.2	-45.3	18.9	0.00e+00	0	36	0	356515840	60	3987
2026-01-18 21:48:48.20	37.96	10.82	-44.1	-45.2	19.0	0.00e+00	0	36	0	359661568	60	3931
2026-01-18 21:48:49.21	38.11	10.87	-44.2	-45.3	18.9	0.00e+00	0	36	0	362807296	60	3994
2026-01-18 21:48:50.22	38.26	10.92	-44.2	-45.3	19.0	0.00e+00	0	36	0	365953024	60	3985
2026-01-18 21:48:51.23	38.42	10.97	-44.2	-45.3	19.0	0.00e+00	0	36	0	369098752	60	3986
2026-01-18 21:48:52.23	38.57	11.02	-44.1	-45.2	19.0	0.00e+00	0	36	0	372244480	60	3950
2026-01-18 21:48:53.24	38.73	11.07	-44.5	-45.7	18.9	0.00e+00	0	36	0	375390208	59	4402
2026-01-18 21:48:54.25	38.88	11.12	-44.4	-45.5	19.0	0.00e+00	0	36	0	378535936	59	4327
2026-01-18 21:48:55.26	39.04	11.17	-44.5	-45.7	18.9	0.00e+00	0	36	0	381681664	59	4394
2026-01-18 21:48:56.26	39.19	11.22	-44.4	-45.5	18.9	0.00e+00	0	36	0	384827392	59	4339
2026-01-18 21:48:57.27	39.35	11.27	-44.4	-45.5	19.0	0.00e+00	0	36	0	387973120	59	4333
2026-01-18 21:48:58.28	39.51	11.33	-44.3	-45.4	19.1	0.00e+00	0	36	0	391118848	59	4289
2026-01-18 21:48:59.29	39.67	11.38	-44.2	-45.3	19.2	0.00e+00	0	36	0	394264576	59	4232
2026-01-18 21:49:00.30	39.83	11.43	-44.3	-45.4	19.2	0.00e+00	0	36	0	397410304	59	4264
2026-01-18 21:49:01.31	39.98	11.48	-44.3	-45.4	19.1	0.00e+00	0	36	0	400556032	59	4288
2026-01-18 21:49:02.31	40.14	11.52	-44.4	-45.6	19.0	0.00e+00	0	36	0	403701760	59	4343
2026-01-18 21:49:03.32	40.30	11.57	-44.4	-45.5	19.1	0.00e+00	0	36	0	406847488	59	4322
2026-01-18 21:49:04.33	40.46	11.62	-44.5	-45.6	19.0	0.00e+00	0	36	0	409993216	59	4356
2026-01-18 21:49:05.34	40.63	11.67	-44.4	-45.5	19.1	0.00e+00	0	36	0	413138944	59	4312
2026-01-18 21:49:06.35	40.79	11.72	-44.5	-45.6	19.0	0.00e+00	0	36	0	417333248	59	4380
2026-01-18 21:49:07.35	40.95	11.77	-44.4	-45.6	19.0	0.00e+00	0	36	0	420478976	59	4354
2026-01-18 21:49:08.36	41.11	11.82	-44.5	-45.6	18.9	0.00e+00	0	36	0	423624704	59	4387
2026-01-18 21:49:09.37	41.28	11.87	-44.4	-45.6	18.9	0.00e+00	0	36	0	426770432	59	4352
2026-01-18 21:49:10.38	41.44	11.92	-44.3	-45.4	19.1	0.00e+00	0	36	0	428867584	59	4286
2026-01-18 21:49:11.38	41.60	11.97	-44.4	-45.6	19.0	0.00e+00	0	36	0	432013312	59	4349
2026-01-18 21:49:12.39	41.77	12.02	-44.5	-45.6	19.0	0.00e+00	0	36	0	435159040	59	4359
2026-01-18 21:49:13.40	41.93	12.07	-44.5	-45.6	19.0	0.00e+00	0	36	0	438304768	59	4370
2026-01-18 21:49:14.41	42.10	12.11	-44.4	-45.5	19.0	0.00e+00	0	36	0	441450496	59	4322
2026-01-18 21:49:15.41	42.26	12.16	-44.4	-45.5	19.0	0.00e+00	0	36	0	444596224	59	4333
2026-01-18 21:49:16.42	42.43	12.21	-44.4	-45.6	19.0	0.00e+00	0	36	0	447741952	59	4353
2026-01-18 21:49:17.43	42.60	12.26	-44.5	-45.7	18.9	0.00e+00	0	36	0	450887680	59	4392
2026-01-18 21:49:18.43	42.77	12.31	-44.6	-45.8	18.8	0.00e+00	0	36	0	454033408	59	4467
2026-01-18 21:49:19.44	42.93	12.35	-44.4	-45.5	18.7	0.00e+00	0	36	0	457179136	60	4073
2026-01-18 21:49:20.45	43.10	12.40	-44.4	-45.6	18.7	0.00e+00	0	36	0	461373440	60	4106
2026-01-18 21:49:21.46	43.27	12.45	-44.4	-45.5	18.7	0.00e+00	0	36	0	464519168	60	4092
2026-01-18 21:49:22.47	43.44	12.50	-44.4	-45.5	18.8	0.00e+00	0	36	0	467664896	60	4086
2026-01-18 21:49:23.47	43.61	12.54	-44.3	-45.5	18.7	0.00e+00	0	36	0	470810624	60	4066
2026-01-18 21:49:24.48	43.79	12.59	-44.3	-45.4	18.9	0.00e+00	0	36	0	473956352	60	4046
2026-01-18 21:49:25.49	43.96	12.64	-44.3	-45.4	19.0	0.00e+00	0	36	0	476053504	60	4045
2026-01-18 21:49:26.50	44.13	12.69	-44.4	-45.6	18.8	0.00e+00	0	36	0	479199232	60	4099
2026-01-18 21:49:27.51	44.30	12.73	-44.3	-45.4	18.9	0.00e+00	0	36	0	482344960	60	4037
2026-01-18 21:49:28.51	44.48	12.78	-44.4	-45.6	18.8	0.00e+00	0	36	0	485490688	60	4105
2026-01-18 21:49:29.52	44.65	12.83	-44.4	-45.5	18.8	0.00e+00	0	36	0	488636416	60	4077
2026-01-18 21:49:30.53	44.82	12.87	-44.3	-45.4	18.9	0.00e+00	0	36	0	491782144	60	4042
2026-01-18 21:49:31.53	45.00	12.92	-44.4	-45.5	18.8	0.00e+00	0	36	0	494927872	60	4070
2026-01-18 21:49:32.54	45.17	12.96	-44.2	-45.3	19.0	0.00e+00	0	36	0	498073600	60	4004
2026-01-18 21:49:33.55	45.35	13.01	-44.1	-45.2	19.1	0.00e+00	0	36	0	502267904	60	3945
2026-01-18 21:49:34.56	45.53	13.06	-44.1	-45.2	19.1	0.00e+00	0	36	0	505413632	60	3941
2026-01-18 21:49:35.57	45.70	13.10	-44.2	-45.3	19.1	0.00e+00	0	36	0	508559360	60	3964
2026-01-18 21:49:36.57	45.88	13.15	-44.0	-45.1	19.2	0.00e+00	0	36	0	511705088	60	3880
2026-01-18 21:49:37.58	46.06	13.19	-44.4	-45.5	19.1	0.00e+00	0	36	0	514850816	59	4331
2026-01-18 21:49:38.59	46.24	13.24	-44.4	-45.5	19.1	0.00e+00	0	36	0	517996544	59	4329
2026-01-18 21:49:39.60	46.42	13.28	-44.5	-45.7	19.0	0.00e+00	0	36	0	521142272	59	4405
2026-01-18 21:49:40.61	46.60	13.33	-44.6	-45.8	18.9	0.00e+00	0	36	0	523239424	59	4442
2026-01-18 21:49:41.61	46.78	13.37	-44.6	-45.8	18.9	0.00e+00	0	36	0	526385152	59	4442
2026-01-18 21:49:42.62	46.96	13.41	-44.4	-45.6	18.8	0.00e+00	0	36	0	529530880	60	4111
2026-01-18 21:49:43.63	47.14	13.46	-44.3	-45.5	18.9	0.00e+00	0	36	0	532676608	60	4064
2026-01-18 21:49:44.63	47.32	13.50	-44.3	-45.4	18.9	0.00e+00	0	36	0	535822336	60	4031
2026-01-18 21:49:45.64	47.50	13.55	-44.2	-45.3	19.0	0.00e+00	0	36	0	538968064	60	3985
2026-01-18 21:49:46.65	47.69	13.59	-44.2	-45.3	19.0	0.00e+00	0	36	0	543162368	60	3974
2026-01-18 21:49:47.66	47.87	13.63	-44.1	-45.2	19.1	0.00e+00	0	36	0	546308096	60	3914
2026-01-18 21:49:48.67	48.05	13.68	-44.2	-45.3	19.0	0.00e+00	0	36	0	549453824	60	3971
2026-01-18 21:49:49.68	48.24	13.72	-44.1	-45.2	19.1	0.00e+00	0	36	0	552599552	60	3933
2026-01-18 21:49:50.68	48.42	13.76	-44.1	-45.2	19.1	0.00e+00	0	36	0	555745280	60	3942
2026-01-18 21:49:51.69	48.61	13.81	-44.1	-45.2	19.0	0.00e+00	0	36	0	558891008	60	3937
2026-01-18 21:49:52.70	48.79	13.85	-44.1	-45.2	18.9	0.00e+00	0	36	0	562036736	60	3949
2026-01-18 21:49:53.71	48.98	13.89	-44.1	-45.2	19.0	0.00e+00	0	36	0	565182464	60	3917
2026-01-18 21:49:54.71	49.17	13.93	-44.2	-45.3	18.9	0.00e+00	0	36	0	568328192	60	3998
2026-01-18 21:49:55.72	49.35	13.97	-44.2	-45.3	18.8	0.00e+00	0	36	0	570425344	60	3982
2026-01-18 21:49:56.73	49.54	14.02	-44.3	-45.5	18.7	0.00e+00	0	36	0	573571072	60	4062
2026-01-18 21:49:57.74	49.73	14.06	-44.2	-45.4	18.6	0.00e+00	0	36	0	576716800	60	4023
2026-01-18 21:49:58.74	49.92	14.10	-44.3	-45.4	18.7	0.00e+00	0	36	0	579862528	60	4051
2026-01-18 21:49:59.75	50.11	14.14	-44.2	-45.3	18.9	0.00e+00	0	36	0	584056832	60	3990
2026-01-18 21:50:00.76	50.30	14.18	-44.1	-45.2	18.9	0.00e+00	0	36	0	587202560	60	3916
2026-01-18 21:50:01.77	50.49	14.22	-44.3	-45.4	19.0	0.00e+00	0	36	0	590348288	59	4260
2026-01-18 21:50:02.78	50.68	14.26	-44.4	-45.6	18.8	0.00e+00	0	36	0	593494016	59	4344
2026-01-18 21:50:03.79	50.87	14.30	-44.1	-45.2	19.2	0.00e+00	0	36	0	596639744	59	4182
2026-01-18 21:50:04.79	51.06	14.34	-44.3	-45.4	19.0	0.00e+00	0	36	0	599785472	59	4251
2026-01-18 21:50:05.80	51.26	14.38	-44.2	-45.3	19.2	0.00e+00	0	36	0	602931200	59	4208
2026-01-18 21:50:06.81	51.45	14.42	-44.2	-45.2	19.4	0.00e+00	0	36	0	606076928	59	4192
2026-01-18 21:50:07.82	51.65	14.46	-44.2	-45.3	19.4	0.00e+00	0	36	0	609222656	59	4227
2026-01-18 21:50:08.82	51.84	14.50	-44.3	-45.4	19.3	0.00e+00	0	36	0	612368384	59	4266
2026-01-18 21:50:09.83	52.03	14.54	-44.4	-45.5	19.2	0.00e+00	0	36	0	615514112	59	4308
2026-01-18 21:50:10.84	52.23	14.58	-44.4	-45.5	19.2	0.00e+00	0	36	0	617611264	59	4310
2026-01-18 21:50:11.85	52.42	14.62	-44.4	-45.5	19.2	0.00e+00	0	36	0	621805568	59	4336
2026-01-18 21:50:12.86	52.62	14.65	-44.1	-45.2	19.5	0.00e+00	0	36	0	624951296	59	4173
2026-01-18 21:50:13.87	52.82	14.69	-44.1	-45.2	19.5	0.00e+00	0	36	0	628097024	59	4149
2026-01-18 21:50:14.87	53.01	14.73	-44.2	-45.3	19.4	0.00e+00	0	36	0	631242752	59	4204
2026-01-18 21:50:15.88	53.21	14.77	-44.0	-45.1	19.5	0.00e+00	0	36	0	634388480	59	4113
2026-01-18 21:50:16.89	53.41	14.80	-43.9	-44.9	19.7	0.00e+00	0	36	0	637534208	59	4032
2026-01-18 21:50:17.90	53.61	14.84	-44.0	-45.0	19.6	0.00e+00	0	36	0	640679936	59	4082
2026-01-18 21:50:18.91	53.81	14.88	-43.9	-44.9	19.7	0.00e+00	0	36	0	643825664	59	4046
2026-01-18 21:50:19.91	54.01	14.91	-44.0	-45.0	19.6	0.00e+00	0	36	0	646971392	59	4087
2026-01-18 21:50:20.92	54.21	14.95	-44.1	-45.2	19.5	0.00e+00	0	36	0	650117120	59	4165
2026-01-18 21:50:21.93	54.41	14.98	-44.2	-45.3	19.4	0.00e+00	0	36	0	653262848	59	4197
2026-01-18 21:50:22.94	54.61	15.02	-44.2	-45.3	19.4	0.00e+00	0	36	0	656408576	59	4194
2026-01-18 21:50:23.95	54.81	15.05	-44.2	-45.3	19.4	0.00e+00	0	36	0	659554304	59	4216
2026-01-18 21:50:24.95	55.01	15.09	-44.3	-45.4	19.4	0.00e+00	0	36	0	662700032	59	4243
2026-01-18 21:50:25.96	55.21	15.12	-44.2	-45.2	19.5	0.00e+00	0	36	0	665845760	59	4186
2026-01-18 21:50:26.97	55.42	15.16	-44.3	-45.4	19.3	0.00e+00	0	36	0	668991488	59	4248
2026-01-18 21:50:27.97	55.62	15.19	-44.0	-45.1	19.6	0.00e+00	0	36	0	672137216	59	4109
2026-01-18 21:50:28.98	55.82	15.23	-44.1	-45.1	19.5	0.00e+00	0	36	0	675282944	59	4134
2026-01-18 21:50:29.99	56.03	15.26	-44.1	-45.1	19.6	0.00e+00	0	36	0	678428672	59	4134
2026-01-18 21:50:31.00	56.23	15.29	-43.9	-45.0	19.7	0.00e+00	0	36	0	681574400	59	4060
2026-01-18 21:50:32.01	56.44	15.32	-43.9	-44.9	19.8	0.00e+00	0	36	0	684720128	59	4020
2026-01-18 21:50:33.01	56.64	15.36	-43.8	-44.8	19.8	0.00e+00	0	36	0	687865856	59	3990
2026-01-18 21:50:34.02	56.85	15.39	-43.6	-44.5	20.1	0.00e+00	0	36	0	691011584	59	3865
2026-01-18 21:50:35.03	57.05	15.42	-43.6	-44.6	20.0	0.00e+00	0	36	0	694157312	59	3901
2026-01-18 21:50:36.04	57.26	15.45	-43.8	-44.8	19.9	0.00e+00	0	36	0	697303040	59	3968
2026-01-18 21:50:37.05	57.47	15.48	-43.8	-44.8	19.9	0.00e+00	0	36	0	700448768	59	3985
2026-01-18 21:50:38.05	57.67	15.51	-43.9	-44.9	19.8	0.00e+00	0	36	0	703594496	59	4033
2026-01-18 21:50:39.06	57.88	15.55	-43.9	-45.0	19.8	0.00e+00	0	36	0	706740224	59	4059
2026-01-18 21:50:40.07	58.09	15.58	-44.0	-45.1	19.6	0.00e+00	0	36	0	709885952	59	4109
2026-01-18 21:50:41.08	58.30	15.61	-44.1	-45.2	19.5	0.00e+00	0	36	0	713031680	59	4168
2026-01-18 21:50:42.09	58.51	15.64	-44.2	-45.3	19.5	0.00e+00	0	36	0	716177408	59	4203
2026-01-18 21:50:43.10	58.72	15.67	-44.1	-45.1	19.6	0.00e+00	0	36	0	719323136	59	4127
2026-01-18 21:50:44.10	58.93	15.69	-44.0	-45.0	19.7	0.00e+00	0	36	0	722468864	59	4092
2026-01-18 21:50:45.11	59.14	15.72	-43.9	-45.0	19.7	0.00e+00	0	36	0	725614592	59	4065
2026-01-18 21:50:46.12	59.35	15.75	-44.0	-45.0	19.7	0.00e+00	0	36	0	728760320	59	4076
2026-01-18 21:50:47.13	59.56	15.78	-44.0	-45.0	19.7	0.00e+00	0	36	0	731906048	59	4076
2026-01-18 21:50:48.14	59.77	15.81	-43.9	-44.9	19.8	0.00e+00	0	36	0	735051776	59	4047
2026-01-18 21:50:49.15	59.99	15.84	-43.8	-44.8	19.9	0.00e+00	0	36	0	738197504	59	3986
2026-01-18 21:50:50.15	60.20	15.86	-43.8	-44.8	19.9	0.00e+00	0	36	0	741343232	59	3978
2026-01-18 21:50:51.16	60.41	15.89	-43.8	-44.9	19.9	0.00e+00	0	36	0	744488960	59	4009
2026-01-18 21:50:52.17	60.62	15.92	-43.8	-44.8	19.9	0.00e+00	0	36	0	747634688	59	3993
2026-01-18 21:50:53.18	60.84	15.94	-43.8	-44.8	19.9	0.00e+00	0	36	0	750780416	59	3976
2026-01-18 21:50:54.18	61.05	15.97	-43.9	-44.9	19.8	0.00e+00	0	36	0	753926144	59	4025
2026-01-18 21:50:55.19	61.27	15.99	-43.8	-44.8	19.9	0.00e+00	0	36	0	757071872	59	4002
2026-01-18 21:50:56.20	61.48	16.02	-43.9	-45.0	19.8	0.00e+00	0	36	0	760217600	59	4056
2026-01-18 21:50:57.21	61.70	16.04	-43.9	-44.9	19.8	0.00e+00	0	36	0	763363328	59	4027
2026-01-18 21:50:58.22	61.91	16.07	-43.9	-44.9	19.8	0.00e+00	0	36	0	766509056	59	4032
2026-01-18 21:50:59.22	62.13	16.09	-43.9	-45.0	19.8	0.00e+00	0	36	0	769654784	59	4061
2026-01-18 21:51:00.23	62.34	16.11	-43.9	-44.9	19.8	0.00e+00	0	36	0	772800512	59	4024
2026-01-18 21:51:01.24	62.56	16.14	-44.0	-45.1	19.7	0.00e+00	0	36	0	775946240	59	4102
2026-01-18 21:51:02.25	62.78	16.16	-43.9	-45.0	19.8	0.00e+00	0	36	0	779091968	59	4062
2026-01-18 21:51:03.26	62.99	16.18	-43.9	-44.9	19.8	0.00e+00	0	36	0	782237696	59	4025
2026-01-18 21:51:04.27	63.21	16.20	-43.9	-44.9	19.9	0.00e+00	0	36	0	785383424	59	4018
2026-01-18 21:51:05.27	63.43	16.23	-43.9	-44.9	19.9	0.00e+00	0	36	0	788529152	59	4017
2026-01-18 21:51:06.28	63.64	16.25	-43.8	-44.8	19.9	0.00e+00	0	36	0	791674880	59	3988
2026-01-18 21:51:07.29	63.86	16.27	-43.8	-44.8	19.9	0.00e+00	0	36	0	794820608	59	3973
2026-01-18 21:51:08.30	64.08	16.29	-43.9	-45.0	19.8	0.00e+00	0	36	0	797966336	59	4064
2026-01-18 21:51:09.31	64.30	16.31	-43.8	-44.8	19.9	0.00e+00	0	36	0	801112064	59	3994
2026-01-18 21:51:10.32	64.52	16.33	-44.1	-45.1	19.7	0.00e+00	0	36	0	804257792	59	4124
2026-01-18 21:51:11.32	64.74	16.35	-44.0	-45.1	19.7	0.00e+00	0	36	0	807403520	59	4115
2026-01-18 21:51:12.33	64.96	16.37	-44.0	-45.1	19.7	0.00e+00	0	36	0	810549248	59	4119
2026-01-18 21:51:13.34	65.18	16.39	-44.1	-45.1	19.7	0.00e+00	0	36	0	813694976	59	4120
2026-01-18 21:51:14.35	65.40	16.41	-44.0	-45.1	19.7	0.00e+00	0	36	0	816840704	59	4112
2026-01-18 21:51:15.35	65.62	16.42	-44.0	-45.0	19.8	0.00e+00	0	36	0	819986432	59	4067
2026-01-18 21:51:16.36	65.84	16.44	-43.8	-44.8	19.9	0.00e+00	0	36	0	823132160	59	3991
2026-01-18 21:51:17.37	66.06	16.46	-43.9	-44.9	19.8	0.00e+00	0	36	0	826277888	59	4019
2026-01-18 21:51:18.38	66.28	16.48	-43.9	-44.9	19.9	0.00e+00	0	36	0	829423616	59	4030
2026-01-18 21:51:19.38	66.50	16.49	-43.9	-44.9	19.8	0.00e+00	0	36	0	832569344	59	4027
2026-01-18 21:51:20.39	66.72	16.51	-44.0	-45.1	19.7	0.00e+00	0	36	0	835715072	59	4112
2026-01-18 21:51:21.40	66.95	16.52	-43.9	-44.9	19.8	0.00e+00	0	36	0	838860800	59	4051
2026-01-18 21:51:22.41	67.17	16.54	-43.9	-44.9	19.8	0.00e+00	0	36	0	842006528	59	4037
2026-01-18 21:51:23.41	67.39	16.55	-43.7	-44.7	20.1	0.00e+00	0	36	0	845152256	59	3938
2026-01-18 21:51:24.42	67.61	16.57	-43.7	-44.7	20.1	0.00e+00	0	36	0	848297984	59	3919
2026-01-18 21:51:25.43	67.84	16.58	-43.6	-44.6	20.1	0.00e+00	0	36	0	851443712	59	3893
2026-01-18 21:51:26.44	68.06	16.60	-43.7	-44.7	20.1	0.00e+00	0	36	0	854589440	59	3920
2026-01-18 21:51:27.45	68.28	16.61	-43.8	-44.8	20.0	0.00e+00	0	36	0	857735168	59	3967
2026-01-18 21:51:28.46	68.51	16.62	-43.9	-44.9	19.8	0.00e+00	0	36	0	860880896	59	4031
2026-01-18 21:51:29.47	68.73	16.63	-43.9	-44.9	19.9	0.00e+00	0	36	0	864026624	59	4037
2026-01-18 21:51:30.48	68.95	16.65	-44.0	-45.0	19.7	0.00e+00	0	36	0	867172352	59	4087
2026-01-18 21:51:31.48	69.18	16.66	-44.0	-45.1	19.7	0.00e+00	0	36	0	870318080	59	4102
2026-01-18 21:51:32.49	69.40	16.67	-43.8	-44.8	19.9	0.00e+00	0	36	0	873463808	59	4003
2026-01-18 21:51:33.50	69.63	16.68	-43.8	-44.8	19.9	0.00e+00	0	36	0	876609536	59	3999
2026-01-18 21:51:34.51	69.85	16.69	-43.8	-44.8	20.0	0.00e+00	0	36	0	879755264	59	3970
2026-01-18 21:51:35.51	70.07	16.70	-43.8	-44.8	20.0	0.00e+00	0	36	0	882900992	59	3963
2026-01-18 21:51:36.52	70.30	16.71	-43.9	-44.9	19.9	0.00e+00	0	36	0	886046720	59	4029
2026-01-18 21:51:37.53	70.52	16.72	-43.8	-44.8	19.9	0.00e+00	0	36	0	889192448	59	4000
2026-01-18 21:51:38.54	70.75	16.73	-43.9	-44.9	19.9	0.00e+00	0	36	0	892338176	59	4034
2026-01-18 21:51:39.54	70.97	16.74	-43.9	-45.0	19.8	0.00e+00	0	36	0	895483904	59	4064
2026-01-18 21:51:40.55	71.20	16.74	-44.1	-45.1	19.6	0.00e+00	0	36	0	898629632	59	4132
2026-01-18 21:51:41.56	71.42	16.75	-43.9	-45.0	19.8	0.00e+00	0	36	0	901775360	59	4061
2026-01-18 21:51:42.57	71.65	16.76	-43.9	-44.9	19.9	0.00e+00	0	36	0	904921088	59	4018
2026-01-18 21:51:43.58	71.88	16.77	-44.0	-45.0	19.8	0.00e+00	0	36	0	908066816	59	4082
2026-01-18 21:51:44.59	72.10	16.77	-44.0	-45.0	19.7	0.00e+00	0	36	0	911212544	59	4093
2026-01-18 21:51:45.59	72.33	16.78	-43.8	-44.8	20.0	0.00e+00	0	36	0	914358272	59	3985
2026-01-18 21:51:46.60	72.55	16.78	-43.8	-44.8	20.0	0.00e+00	0	36	0	917504000	59	3980
2026-01-18 21:51:47.61	72.78	16.79	-43.7	-44.7	20.0	0.00e+00	0	36	0	920649728	59	3946
2026-01-18 21:51:48.62	73.00	16.79	-43.8	-44.8	19.9	0.00e+00	0	36	0	923795456	59	3989
2026-01-18 21:51:49.63	73.23	16.80	-43.8	-44.8	19.9	0.00e+00	0	36	0	926941184	59	3979
2026-01-18 21:51:50.64	73.46	16.80	-43.9	-44.9	19.9	0.00e+00	0	36	0	930086912	59	4025
2026-01-18 21:51:51.65	73.68	16.80	-43.8	-44.8	20.0	0.00e+00	0	36	0	933232640	59	3982
2026-01-18 21:51:52.65	73.91	16.81	-43.9	-44.9	19.8	0.00e+00	0	36	0	936378368	59	4033
2026-01-18 21:51:53.66	74.14	16.81	-43.9	-45.0	19.8	0.00e+00	0	36	0	939524096	59	4068
2026-01-18 21:51:54.67	74.36	16.81	-44.0	-45.1	19.7	0.00e+00	0	36	0	942669824	59	4113
2026-01-18 21:51:55.68	74.59	16.81	-43.9	-45.0	19.8	0.00e+00	0	36	0	945815552	59	4060
2026-01-18 21:51:56.69	74.82	16.81	-43.9	-44.9	19.8	0.00e+00	0	36	0	948961280	59	4043
2026-01-18 21:51:57.70	75.04	16.81	-43.8	-44.9	19.9	0.00e+00	0	36	0	952107008	59	4006
2026-01-18 21:51:58.70	75.27	16.81	-43.9	-44.9	19.9	0.00e+00	0	36	0	955252736	59	4033
2026-01-18 21:51:59.70	75.49	16.81	-43.9	-45.0	19.8	0.00e+00	0	36	0	958398464	59	4052
2026-01-18 21:52:00.71	75.72	16.81	-44.0	-45.1	19.7	0.00e+00	0	36	0	961544192	59	4114
2026-01-18 21:52:01.72	75.95	16.81	-44.0	-45.0	19.7	0.00e+00	0	36	0	964689920	59	4096
2026-01-18 21:52:02.72	76.17	16.81	-44.0	-45.0	19.8	0.00e+00	0	36	0	967835648	59	4072
2026-01-18 21:52:03.73	76.40	16.81	-43.9	-45.0	19.8	0.00e+00	0	36	0	970981376	59	4054
2026-01-18 21:52:04.74	76.62	16.81	-43.9	-44.8	19.9	0.00e+00	0	36	0	974127104	59	4004
2026-01-18 21:52:05.75	76.85	16.80	-43.8	-44.8	19.9	0.00e+00	0	36	0	977272832	59	4004
2026-01-18 21:52:06.75	77.07	16.80	-43.9	-44.9	19.9	0.00e+00	0	36	0	980418560	59	4031
2026-01-18 21:52:07.76	77.30	16.80	-43.9	-44.9	19.9	0.00e+00	0	36	0	983564288	59	4020
2026-01-18 21:52:08.77	77.53	16.79	-43.9	-45.0	19.8	0.00e+00	0	36	0	986710016	59	4058
2026-01-18 21:52:09.78	77.75	16.79	-43.9	-44.9	19.8	0.00e+00	0	36	0	989855744	59	4051
2026-01-18 21:52:10.79	77.98	16.78	-43.9	-44.9	19.8	0.00e+00	0	36	0	993001472	59	4041
2026-01-18 21:52:11.80	78.21	16.78	-43.9	-44.9	19.9	0.00e+00	0	36	0	996147200	59	4051
2026-01-18 21:52:12.81	78.43	16.77	-43.9	-44.9	19.9	0.00e+00	0	36	0	999292928	59	4017
2026-01-18 21:52:13.82	78.66	16.77	-44.0	-45.0	19.8	0.00e+00	0	36	0	1002438656	59	4078
2026-01-18 21:52:14.82	78.88	16.76	-44.0	-45.0	19.8	0.00e+00	0	36	0	1005584384	59	4094
2026-01-18 21:52:15.83	79.11	16.75	-43.9	-45.0	19.8	0.00e+00	0	36	0	1008730112	59	4057
2026-01-18 21:52:16.84	79.34	16.75	-44.0	-45.0	19.7	0.00e+00	0	36	0	1011875840	59	4072
2026-01-18 21:52:17.85	79.56	16.74	-44.1	-45.1	19.6	0.00e+00	0	36	0	1015021568	59	4140
2026-01-18 21:52:18.86	79.79	16.73	-44.0	-45.0	19.8	0.00e+00	0	36	0	1018167296	59	4075
2026-01-18 21:52:19.86	80.01	16.72	-44.0	-45.0	19.8	0.00e+00	0	36	0	1021313024	59	4088
2026-01-18 21:52:20.87	80.24	16.71	-44.1	-45.1	19.7	0.00e+00	0	36	0	1024458752	59	4132
2026-01-18 21:52:21.88	80.46	16.70	-44.0	-45.0	19.8	0.00e+00	0	36	0	1027604480	59	4067
2026-01-18 21:52:22.89	80.69	16.69	-43.8	-44.8	19.9	0.00e+00	0	36	0	1030750208	59	3984
2026-01-18 21:52:23.89	80.91	16.68	-43.8	-44.8	20.0	0.00e+00	0	36	0	1033895936	59	3988
2026-01-18 21:52:24.90	81.14	16.67	-43.9	-45.0	19.8	0.00e+00	0	36	0	1037041664	59	4057
2026-01-18 21:52:25.91	81.36	16.66	-44.2	-45.2	19.6	0.00e+00	0	36	0	1040187392	59	4182
2026-01-18 21:52:26.92	81.58	16.65	-44.2	-45.3	19.5	0.00e+00	0	36	0	1043333120	59	4215
2026-01-18 21:52:27.93	81.81	16.64	-44.3	-45.4	19.5	0.00e+00	0	36	0	1046478848	59	4274
2026-01-18 21:52:28.93	82.03	16.63	-44.2	-45.3	19.5	0.00e+00	0	36	0	1049624576	59	4235
2026-01-18 21:52:29.94	82.26	16.61	-44.2	-45.3	19.6	0.00e+00	0	36	0	1052770304	59	4200
2026-01-18 21:52:30.95	82.48	16.60	-44.1	-45.2	19.6	0.00e+00	0	36	0	1055916032	59	4172
2026-01-18 21:52:31.96	82.70	16.59	-44.2	-45.2	19.6	0.00e+00	0	36	0	1059061760	59	4180
2026-01-18 21:52:32.97	82.93	16.57	-44.0	-45.0	19.7	0.00e+00	0	36	0	1062207488	59	4068
2026-01-18 21:52:33.97	83.15	16.56	-43.8	-44.9	19.9	0.00e+00	0	36	0	1065353216	59	4012
2026-01-18 21:52:34.98	83.37	16.54	-43.9	-44.9	19.9	0.00e+00	0	36	0	1068498944	59	4022
2026-01-18 21:52:35.99	83.59	16.53	-43.9	-44.9	19.9	0.00e+00	0	36	0	1071644672	59	4036
2026-01-18 21:52:37.00	83.82	16.51	-43.8	-44.8	19.9	0.00e+00	0	36	0	1074790400	59	3984
2026-01-18 21:52:38.01	84.04	16.50	-43.8	-44.8	20.0	0.00e+00	0	36	0	1077936128	59	3995
2026-01-18 21:52:39.01	84.26	16.48	-43.9	-44.9	19.9	0.00e+00	0	36	0	1081081856	59	4043
2026-01-18 21:52:40.03	84.48	16.46	-43.8	-44.8	19.9	0.00e+00	0	36	0	1084227584	59	3980
2026-01-18 21:52:41.03	84.70	16.45	-43.9	-44.9	19.8	0.00e+00	0	36	0	1087373312	59	4044
2026-01-18 21:52:42.04	84.92	16.43	-44.0	-45.0	19.8	0.00e+00	0	36	0	1090519040	59	4072
2026-01-18 21:52:43.05	85.15	16.41	-44.0	-45.1	19.7	0.00e+00	0	36	0	1093664768	59	4122
2026-01-18 21:52:44.06	85.37	16.39	-44.1	-45.2	19.6	0.00e+00	0	36	0	1096810496	59	4162
2026-01-18 21:52:45.07	85.59	16.38	-44.2	-45.2	19.5	0.00e+00	0	36	0	1099956224	59	4193
2026-01-18 21:52:46.07	85.81	16.36	-44.0	-45.1	19.7	0.00e+00	0	36	0	1103101952	59	4120
2026-01-18 21:52:47.08	86.03	16.34	-43.9	-44.9	19.9	0.00e+00	0	36	0	1106247680	59	4033
2026-01-18 21:52:48.09	86.25	16.32	-43.8	-44.8	19.9	0.00e+00	0	36	0	1109393408	59	3991
2026-01-18 21:52:49.10	86.47	16.30	-43.9	-44.9	19.8	0.00e+00	0	36	0	1112539136	59	4031
2026-01-18 21:52:50.11	86.69	16.28	-43.9	-45.0	19.8	0.00e+00	0	36	0	1115684864	59	4058
2026-01-18 21:52:51.12	86.90	16.25	-44.0	-45.1	19.7	0.00e+00	0	36	0	1118830592	59	4099
2026-01-18 21:52:52.13	87.12	16.23	-44.1	-45.2	19.6	0.00e+00	0	36	0	1121976320	59	4166
2026-01-18 21:52:53.14	87.34	16.21	-44.0	-45.0	19.7	0.00e+00	0	36	0	1125122048	59	4096
2026-01-18 21:52:54.15	87.56	16.19	-43.9	-45.0	19.8	0.00e+00	0	36	0	1128267776	59	4054
2026-01-18 21:52:55.16	87.78	16.17	-43.9	-44.9	19.8	0.00e+00	0	36	0	1131413504	59	4049
2026-01-18 21:52:56.16	87.99	16.14	-43.9	-44.9	19.9	0.00e+00	0	36	0	1134559232	59	4037
2026-01-18 21:52:57.17	88.21	16.12	-44.0	-45.0	19.8	0.00e+00	0	36	0	1137704960	59	4090
2026-01-18 21:52:58.18	88.43	16.10	-44.0	-45.0	19.8	0.00e+00	0	36	0	1140850688	59	4073
2026-01-18 21:52:59.19	88.64	16.07	-44.0	-45.0	19.8	0.00e+00	0	36	0	1143996416	59	4073
2026-01-18 21:53:00.19	88.86	16.05	-43.9	-44.9	19.9	0.00e+00	0	36	0	1147142144	59	4034
2026-01-18 21:53:01.20	89.07	16.03	-43.7	-44.7	20.1	0.00e+00	0	36	0	1150287872	59	3935
2026-01-18 21:53:02.21	89.29	16.00	-43.8	-44.8	19.9	0.00e+00	0	36	0	1153433600	59	3969
2026-01-18 21:53:03.22	89.51	15.97	-43.8	-44.9	19.9	0.00e+00	0	36	0	1156579328	59	4010
2026-01-18 21:53:04.23	89.72	15.95	-43.6	-44.6	20.1	0.00e+00	0	36	0	1159725056	59	3913
2026-01-18 21:53:05.24	89.93	15.92	-43.5	-44.5	20.2	0.00e+00	0	36	0	1162870784	59	3855
2026-01-18 21:53:06.24	90.15	15.90	-43.7	-44.7	20.0	0.00e+00	0	36	0	1166016512	59	3946
2026-01-18 21:53:07.25	90.36	15.87	-43.7	-44.6	20.1	0.00e+00	0	36	0	1170210816	59	3913
2026-01-18 21:53:08.26	90.57	15.84	-43.7	-44.6	20.1	0.00e+00	0	36	0	1172307968	59	3912
2026-01-18 21:53:09.26	90.78	15.82	-43.5	-44.5	20.2	0.00e+00	0	36	0	1175453696	59	3848
2026-01-18 21:53:10.28	91.00	15.79	-43.5	-44.5	20.2	0.00e+00	0	36	0	1178599424	59	3853
2026-01-18 21:53:11.28	91.21	15.76	-43.5	-44.5	20.2	0.00e+00	0	36	0	1181745152	59	3837
2026-01-18 21:53:12.29	91.42	15.73	-43.6	-44.5	20.1	0.00e+00	0	36	0	1184890880	59	3860
2026-01-18 21:53:13.30	91.63	15.70	-43.5	-44.5	20.2	0.00e+00	0	36	0	1188036608	58	4070
2026-01-18 21:53:14.31	91.84	15.67	-43.6	-44.6	20.1	0.00e+00	0	36	0	1191182336	58	4117
2026-01-18 21:53:15.31	92.05	15.64	-43.7	-44.7	20.0	0.00e+00	0	36	0	1194328064	58	4187
2026-01-18 21:53:16.32	92.26	15.61	-43.7	-44.7	20.0	0.00e+00	0	36	0	1197473792	58	4163
2026-01-18 21:53:17.33	92.47	15.58	-43.8	-44.8	19.9	0.00e+00	0	36	0	1200619520	58	4220
2026-01-18 21:53:18.34	92.68	15.55	-43.7	-44.7	20.0	0.00e+00	0	36	0	1203765248	58	4148
2026-01-18 21:53:19.35	92.89	15.52	-43.6	-44.6	20.1	0.00e+00	0	36	0	1207959552	58	4110
2026-01-18 21:53:20.36	93.10	15.49	-43.7	-44.8	19.9	0.00e+00	0	36	0	1211105280	58	4197
2026-01-18 21:53:21.36	93.31	15.46	-43.8	-44.8	19.9	0.00e+00	0	36	0	1214251008	58	4240
2026-01-18 21:53:22.37	93.51	15.43	-43.9	-44.9	19.8	0.00e+00	0	36	0	1217396736	58	4257
2026-01-18 21:53:23.38	93.72	15.40	-43.8	-44.8	19.9	0.00e+00	0	36	0	1219493888	58	4209
2026-01-18 21:53:24.38	93.93	15.36	-43.8	-44.9	19.9	0.00e+00	0	36	0	1222639616	58	4248
2026-01-18 21:53:25.39	94.13	15.33	-43.6	-44.6	20.0	0.00e+00	0	36	0	1225785344	58	4137
2026-01-18 21:53:26.40	94.34	15.30	-43.5	-44.5	20.1	0.00e+00	0	36	0	1228931072	58	4087
2026-01-18 21:53:27.41	94.55	15.27	-43.5	-44.5	20.1	0.00e+00	0	36	0	1232076800	58	4067
2026-01-18 21:53:28.41	94.75	15.23	-43.6	-44.6	20.0	0.00e+00	0	36	0	1235222528	58	4133
2026-01-18 21:53:29.42	94.95	15.20	-43.7	-44.7	20.0	0.00e+00	0	36	0	1238368256	58	4162
2026-01-18 21:53:30.43	95.16	15.17	-43.7	-44.7	20.0	0.00e+00	0	36	0	1241513984	58	4172
2026-01-18 21:53:31.44	95.36	15.13	-43.7	-44.7	20.0	0.00e+00	0	36	0	1244659712	58	4156
2026-01-18 21:53:32.45	95.57	15.10	-43.8	-44.8	19.9	0.00e+00	0	36	0	1248854016	58	4229
2026-01-18 21:53:33.46	95.77	15.06	-43.7	-44.6	20.0	0.00e+00	0	36	0	1251999744	58	4141
2026-01-18 21:53:34.47	95.97	15.03	-43.7	-44.8	19.9	0.00e+00	0	36	0	1255145472	58	4200
2026-01-18 21:53:35.47	96.17	14.99	-43.8	-44.8	19.9	0.00e+00	0	36	0	1258291200	58	4204
2026-01-18 21:53:36.48	96.37	14.95	-43.7	-44.7	20.0	0.00e+00	0	36	0	1261436928	58	4182
2026-01-18 21:53:37.49	96.57	14.92	-43.7	-44.7	20.0	0.00e+00	0	36	0	1264582656	58	4167
2026-01-18 21:53:38.50	96.77	14.88	-43.5	-44.5	20.2	0.00e+00	0	36	0	1266679808	58	4054
2026-01-18 21:53:39.51	96.97	14.85	-43.5	-44.5	20.1	0.00e+00	0	36	0	1269825536	58	4089
2026-01-18 21:53:40.52	97.17	14.81	-43.6	-44.5	20.1	0.00e+00	0	36	0	1272971264	58	4095
2026-01-18 21:53:41.53	97.37	14.77	-43.6	-44.5	20.1	0.00e+00	0	36	0	1276116992	58	4097
2026-01-18 21:53:42.54	97.57	14.73	-43.6	-44.6	20.0	0.00e+00	0	36	0	1279262720	58	4138
2026-01-18 21:53:43.55	97.77	14.70	-43.8	-44.8	19.9	0.00e+00	0	36	0	1283457024	58	4196
2026-01-18 21:53:44.55	97.97	14.66	-44.0	-45.0	19.7	0.00e+00	0	36	0	1286602752	58	4321
2026-01-18 21:53:45.56	98.16	14.62	-44.0	-45.0	19.6	0.00e+00	0	36	0	1289748480	58	4329
2026-01-18 21:53:46.57	98.36	14.58	-44.1	-45.1	19.6	0.00e+00	0	36	0	1292894208	58	4369
2026-01-18 21:53:47.58	98.56	14.54	-44.2	-45.3	19.4	0.00e+00	0	36	0	1296039936	58	4469
2026-01-18 21:53:48.59	98.75	14.50	-44.1	-45.2	19.5	0.00e+00	0	36	0	1299185664	58	4410
2026-01-18 21:53:49.60	98.95	14.47	-44.1	-45.2	19.5	0.00e+00	0	36	0	1302331392	58	4421
2026-01-18 21:53:50.61	99.14	14.43	-43.9	-45.0	19.6	0.00e+00	0	36	0	1305477120	58	4295
2026-01-18 21:53:51.62	99.34	14.39	-43.9	-44.9	19.7	0.00e+00	0	36	0	1308622848	58	4265
2026-01-18 21:53:52.62	99.53	14.35	-43.7	-44.8	19.9	0.00e+00	0	36	0	1311768576	58	4195
2026-01-18 21:53:53.63	99.72	14.31	-43.8	-44.8	19.9	0.00e+00	0	36	0	1313865728	58	4204
2026-01-18 21:53:54.64	99.92	14.27	-43.8	-44.9	19.7	0.00e+00	0	36	0	1317011456	58	4254
2026-01-18 21:53:55.65	100.11	14.23	-44.0	-45.0	19.6	0.00e+00	0	36	0	1321205760	58	4325
2026-01-18 21:53:56.65	100.30	14.19	-44.1	-45.2	19.4	0.00e+00	0	36	0	1324351488	58	4420
2026-01-18 21:53:57.66	100.49	14.14	-44.2	-45.3	19.3	0.00e+00	0	36	0	1327497216	59	4225
2026-01-18 21:53:58.67	100.68	14.10	-44.4	-45.5	19.2	0.00e+00	0	36	0	1330642944	59	4299
2026-01-18 21:53:59.68	100.87	14.06	-44.3	-45.4	19.2	0.00e+00	0	36	0	1333788672	59	4265
2026-01-18 21:54:00.69	101.06	14.02	-44.4	-45.5	19.1	0.00e+00	0	36	0	1336934400	59	4299
2026-01-18 21:54:01.69	101.25	13.98	-44.4	-45.5	19.1	0.00e+00	0	36	0	1340080128	59	4296
2026-01-18 21:54:02.70	101.44	13.94	-44.3	-45.4	19.2	0.00e+00	0	36	0	1343225856	59	4284
2026-01-18 21:54:03.71	101.62	13.89	-44.3	-45.4	19.2	0.00e+00	0	36	0	1346371584	59	4291
2026-01-18 21:54:04.72	101.81	13.85	-44.4	-45.5	19.2	0.00e+00	0	36	0	1349517312	59	4297
2026-01-18 21:54:05.73	102.00	13.81	-44.3	-45.4	19.2	0.00e+00	0	36	0	1352663040	59	4281
2026-01-18 21:54:06.74	102.19	13.77	-44.4	-45.5	19.1	0.00e+00	0	36	0	1355808768	59	4312
2026-01-18 21:54:07.74	102.37	13.72	-44.1	-45.2	19.3	0.00e+00	0	36	0	1358954496	59	4166
2026-01-18 21:54:08.75	102.56	13.68	-44.1	-45.2	19.4	0.00e+00	0	36	0	1362100224	59	4174
2026-01-18 21:54:09.76	102.74	13.64	-44.0	-45.1	19.4	0.00e+00	0	36	0	1365245952	59	4127
2026-01-18 21:54:10.77	102.93	13.59	-44.1	-45.2	19.3	0.00e+00	0	36	0	1368391680	59	4171
2026-01-18 21:54:11.78	103.11	13.55	-44.3	-45.4	19.2	0.00e+00	0	36	0	1371537408	59	4254
2026-01-18 21:54:12.78	103.29	13.50	-44.2	-45.3	19.3	0.00e+00	0	36	0	1374683136	59	4232
2026-01-18 21:54:13.79	103.47	13.46	-44.1	-45.2	19.4	0.00e+00	0	36	0	1377828864	59	4175
2026-01-18 21:54:14.80	103.66	13.42	-44.3	-45.4	19.2	0.00e+00	0	36	0	1380974592	59	4248
2026-01-18 21:54:15.81	103.84	13.37	-44.4	-45.6	19.0	0.00e+00	0	36	0	1384120320	59	4358
2026-01-18 21:54:16.81	104.02	13.33	-44.5	-45.7	19.0	0.00e+00	0	36	0	1387266048	59	4413
2026-01-18 21:54:17.82	104.20	13.28	-44.6	-45.7	18.9	0.00e+00	0	36	0	1390411776	59	4420
2026-01-18 21:54:18.83	104.38	13.24	-44.6	-45.7	18.9	0.00e+00	0	36	0	1393557504	59	4422
2026-01-18 21:54:19.84	104.56	13.19	-44.5	-45.7	19.0	0.00e+00	0	36	0	1396703232	59	4403
2026-01-18 21:54:20.85	104.74	13.14	-44.4	-45.6	18.8	0.00e+00	0	36	0	1399848960	60	4126
2026-01-18 21:54:21.85	104.92	13.10	-44.1	-45.2	19.0	0.00e+00	0	36	0	1402994688	60	3954
2026-01-18 21:54:22.86	105.09	13.05	-44.0	-45.1	19.2	0.00e+00	0	36	0	1406140416	60	3876
2026-01-18 21:54:23.87	105.27	13.01	-44.3	-45.4	19.2	0.00e+00	0	36	0	1409286144	59	4261
2026-01-18 21:54:24.88	105.45	12.96	-44.4	-45.5	19.1	0.00e+00	0	36	0	1412431872	59	4313
2026-01-18 21:54:25.89	105.62	12.91	-44.5	-45.6	19.0	0.00e+00	0	36	0	1415577600	59	4362
2026-01-18 21:54:26.89	105.80	12.87	-44.5	-45.6	19.0	0.00e+00	0	36	0	1418723328	59	4363
2026-01-18 21:54:27.90	105.97	12.82	-44.5	-45.6	19.0	0.00e+00	0	36	0	1421869056	59	4375
2026-01-18 21:54:28.91	106.15	12.77	-44.3	-45.4	19.2	0.00e+00	0	36	0	1425014784	59	4278
2026-01-18 21:54:29.92	106.32	12.73	-44.5	-45.6	19.0	0.00e+00	0	36	0	1428160512	59	4368
2026-01-18 21:54:30.93	106.50	12.68	-44.5	-45.7	19.0	0.00e+00	0	36	0	1431306240	59	4403
2026-01-18 21:54:31.94	106.67	12.63	-44.6	-45.7	18.9	0.00e+00	0	36	0	1434451968	59	4434
2026-01-18 21:54:32.94	106.84	12.59	-44.6	-45.8	18.9	0.00e+00	0	36	0	1437597696	59	4448
2026-01-18 21:54:33.95	107.01	12.54	-44.4	-45.6	18.8	0.00e+00	0	36	0	1440743424	60	4099
2026-01-18 21:54:34.96	107.19	12.49	-44.5	-45.7	18.7	0.00e+00	0	36	0	1443889152	60	4147
2026-01-18 21:54:35.97	107.36	12.44	-44.5	-45.6	18.7	0.00e+00	0	36	0	1447034880	60	4129
2026-01-18 21:54:36.97	107.53	12.40	-44.3	-45.4	18.9	0.00e+00	0	36	0	1450180608	60	4042
2026-01-18 21:54:37.98	107.70	12.35	-44.4	-45.5	18.8	0.00e+00	0	36	0	1453326336	60	4062
2026-01-18 21:54:38.99	107.87	12.30	-44.3	-45.4	18.8	0.00e+00	0	36	0	1456472064	60	4049
2026-01-18 21:54:40.00	108.04	12.25	-44.4	-45.5	18.8	0.00e+00	0	36	0	1459617792	60	4083
2026-01-18 21:54:41.01	108.20	12.20	-44.4	-45.5	18.8	0.00e+00	0	36	0	1462763520	60	4082
2026-01-18 21:54:42.02	108.37	12.15	-44.3	-45.4	18.9	0.00e+00	0	36	0	1465909248	60	4028
2026-01-18 21:54:43.03	108.54	12.11	-44.3	-45.5	18.8	0.00e+00	0	36	0	1469054976	60	4060
2026-01-18 21:54:44.03	108.71	12.06	-44.2	-45.3	19.0	0.00e+00	0	36	0	1472200704	60	3974
2026-01-18 21:54:45.04	108.87	12.01	-44.4	-45.5	18.8	0.00e+00	0	36	0	1475346432	60	4069
2026-01-18 21:54:46.05	109.04	11.96	-44.2	-45.3	19.0	0.00e+00	0	36	0	1478492160	60	3982
2026-01-18 21:54:47.05	109.20	11.91	-44.3	-45.4	18.9	0.00e+00	0	36	0	1481637888	60	4027
2026-01-18 21:54:48.06	109.37	11.86	-44.3	-45.4	18.9	0.00e+00	0	36	0	1484783616	60	4043
2026-01-18 21:54:49.07	109.53	11.81	-44.4	-45.5	18.8	0.00e+00	0	36	0	1487929344	60	4069
2026-01-18 21:54:50.08	109.69	11.76	-44.6	-45.7	18.6	0.00e+00	0	36	0	1491075072	60	4178
2026-01-18 21:54:51.09	109.86	11.71	-44.6	-45.7	18.6	0.00e+00	0	36	0	1494220800	60	4191
2026-01-18 21:54:52.10	110.02	11.66	-44.3	-45.4	18.9	0.00e+00	0	36	0	1497366528	60	4016
2026-01-18 21:54:53.10	110.18	11.61	-44.4	-45.6	18.7	0.00e+00	0	36	0	1500512256	60	4106
2026-01-18 21:54:54.11	110.34	11.56	-44.5	-45.6	18.7	0.00e+00	0	36	0	1503657984	60	4125
2026-01-18 21:54:55.11	110.50	11.51	-44.5	-45.6	18.7	0.00e+00	0	36	0	1506803712	60	4135
2026-01-18 21:54:56.12	110.66	11.46	-44.5	-45.7	18.6	0.00e+00	0	36	0	1509949440	60	4149
2026-01-18 21:54:57.13	110.82	11.41	-44.4	-45.6	18.7	0.00e+00	0	36	0	1513095168	60	4118
2026-01-18 21:54:58.14	110.98	11.36	-44.4	-45.5	18.7	0.00e+00	0	36	0	1516240896	60	4097
2026-01-18 21:54:59.15	111.14	11.31	-44.4	-45.6	18.7	0.00e+00	0	36	0	1519386624	60	4101
2026-01-18 21:55:00.15	111.30	11.26	-44.4	-45.5	18.7	0.00e+00	0	36	0	1522532352	60	4089
2026-01-18 21:55:01.16	111.46	11.21	-44.4	-45.6	18.6	0.00e+00	0	36	0	1525678080	60	4113
2026-01-18 21:55:02.17	111.61	11.16	-44.4	-45.6	18.6	0.00e+00	0	36	0	1528823808	60	4121
2026-01-18 21:55:03.18	111.77	11.11	-44.6	-45.8	18.5	0.00e+00	0	36	0	1531969536	60	4212
2026-01-18 21:55:04.19	111.93	11.06	-44.6	-45.7	18.5	0.00e+00	0	36	0	1535115264	60	4190
2026-01-18 21:55:05.19	112.08	11.01	-44.6	-45.8	18.5	0.00e+00	0	36	0	1538260992	60	4222
2026-01-18 21:55:06.20	112.24	10.96	-44.6	-45.8	18.4	0.00e+00	0	36	0	1541406720	60	4218
2026-01-18 21:55:07.21	112.39	10.91	-44.6	-45.8	18.5	0.00e+00	0	36	0	1544552448	60	4212
2026-01-18 21:55:08.22	112.55	10.85	-44.6	-45.8	18.5	0.00e+00	0	36	0	1547698176	60	4212
2026-01-18 21:55:09.22	112.70	10.80	-44.6	-45.8	18.5	0.00e+00	0	36	0	1550843904	60	4205
2026-01-18 21:55:10.23	112.85	10.75	-44.8	-46.0	18.3	0.00e+00	0	36	0	1553989632	60	4300
2026-01-18 21:55:11.24	113.00	10.70	-44.7	-45.9	18.3	0.00e+00	0	36	0	1557135360	60	4282
2026-01-18 21:55:12.25	113.16	10.65	-44.6	-45.8	18.5	0.00e+00	0	36	0	1560281088	60	4204
2026-01-18 21:55:13.25	113.31	10.60	-44.5	-45.7	18.5	0.00e+00	0	36	0	1563426816	60	4182
2026-01-18 21:55:14.26	113.46	10.55	-44.6	-45.8	18.5	0.00e+00	0	36	0	1566572544	60	4198
2026-01-18 21:55:15.27	113.61	10.49	-44.6	-45.8	18.5	0.00e+00	0	36	0	1569718272	60	4202
2026-01-18 21:55:16.28	113.76	10.44	-44.6	-45.8	18.4	0.00e+00	0	36	0	1572864000	60	4217
2026-01-18 21:55:17.28	113.91	10.39	-44.6	-45.8	18.4	0.00e+00	0	36	0	1576009728	60	4239
2026-01-18 21:55:18.29	114.06	10.34	-44.5	-45.7	18.5	0.00e+00	0	36	0	1579155456	60	4173
2026-01-18 21:55:19.30	114.21	10.29	-44.5	-45.7	18.5	0.00e+00	0	36	0	1582301184	60	4176
2026-01-18 21:55:20.31	114.35	10.24	-44.6	-45.8	18.4	0.00e+00	0	36	0	1585446912	60	4234
2026-01-18 21:55:21.31	114.50	10.18	-44.6	-45.7	18.5	0.00e+00	0	36	0	1588592640	60	4189
2026-01-18 21:55:22.32	114.65	10.13	-44.5	-45.7	18.5	0.00e+00	0	36	0	1591738368	60	4160
2026-01-18 21:55:23.33	114.79	10.08	-44.5	-45.7	18.5	0.00e+00	0	36	0	1594884096	60	4154
2026-01-18 21:55:24.34	114.94	10.03	-44.6	-45.8	18.5	0.00e+00	0	36	0	1598029824	60	4202
2026-01-18 21:55:25.35	115.09	9.98	-44.6	-45.8	18.5	0.00e+00	0	36	0	1601175552	60	4197
2026-01-18 21:55:26.36	115.23	9.92	-44.5	-45.7	18.5	0.00e+00	0	36	0	1604321280	60	4157
2026-01-18 21:55:27.36	115.37	9.87	-44.6	-45.7	18.5	0.00e+00	0	36	0	1607467008	60	4191
2026-01-18 21:55:28.37	115.52	9.82	-44.6	-45.8	18.4	0.00e+00	0	36	0	1610612736	60	4213
2026-01-18 21:55:29.38	115.66	9.77	-44.6	-45.8	18.4	0.00e+00	0	36	0	1613758464	60	4230
2026-01-18 21:55:30.39	115.80	9.71	-44.7	-45.9	18.3	0.00e+00	0	36	0	1616904192	60	4278
2026-01-18 21:55:31.39	115.95	9.66	-44.7	-45.9	18.3	0.00e+00	0	36	0	1620049920	60	4263
2026-01-18 21:55:32.40	116.09	9.61	-44.7	-45.9	18.3	0.00e+00	0	36	0	1623195648	60	4247
2026-01-18 21:55:33.41	116.23	9.56	-44.8	-46.1	18.1	0.00e+00	0	36	0	1626341376	60	4346
2026-01-18 21:55:34.41	116.37	9.50	-44.9	-46.1	18.0	0.00e+00	0	36	0	1629487104	60	4383
2026-01-18 21:55:35.42	116.51	9.45	-44.8	-46.0	18.2	0.00e+00	0	36	0	1632632832	60	4329
2026-01-18 21:55:36.43	116.65	9.40	-44.8	-46.0	18.1	0.00e+00	0	36	0	1635778560	60	4308
2026-01-18 21:55:37.44	116.79	9.35	-44.7	-45.9	18.2	0.00e+00	0	36	0	1638924288	60	4287
2026-01-18 21:55:38.45	116.93	9.29	-44.8	-46.0	18.1	0.00e+00	0	36	0	1642070016	60	4332
2026-01-18 21:55:39.45	117.07	9.24	-44.7	-45.9	18.1	0.00e+00	0	36	0	1645215744	60	4288
2026-01-18 21:55:40.46	117.21	9.19	-44.8	-46.0	18.1	0.00e+00	0	36	0	1648361472	60	4322
2026-01-18 21:55:41.47	117.34	9.14	-44.8	-46.1	18.0	0.00e+00	0	36	0	1651507200	60	4364
2026-01-18 21:55:42.48	117.48	9.08	-44.9	-46.2	17.9	0.00e+00	0	36	0	1654652928	60	4410
2026-01-18 21:55:43.49	117.62	9.03	-44.9	-46.2	17.8	0.00e+00	0	36	0	1657798656	60	4419
2026-01-18 21:55:44.49	117.75	8.98	-45.0	-46.3	17.8	0.00e+00	0	36	0	1660944384	60	4461
2026-01-18 21:55:45.50	117.89	8.92	-45.1	-46.4	17.7	0.00e+00	0	36	0	1664090112	60	4499
2026-01-18 21:55:46.51	118.02	8.87	-45.0	-46.2	17.8	0.00e+00	0	36	0	1667235840	60	4437
2026-01-18 21:55:47.52	118.16	8.82	-45.3	-46.6	17.4	0.00e+00	0	36	0	1670381568	61	4388
2026-01-18 21:55:48.52	118.29	8.76	-45.1	-46.5	17.6	0.00e+00	0	36	0	1673527296	61	4298
2026-01-18 21:55:49.53	118.43	8.71	-45.1	-46.4	17.6	0.00e+00	0	36	0	1676673024	61	4272
2026-01-18 21:55:50.54	118.56	8.66	-45.5	-46.9	17.2	0.00e+00	0	36	0	1679818752	61	4495
2026-01-18 21:55:51.55	118.69	8.61	-45.3	-46.6	17.4	0.00e+00	0	36	0	1682964480	61	4374
2026-01-18 21:55:52.56	118.83	8.55	-45.4	-46.8	17.2	0.00e+00	0	36	0	1686110208	61	4490
2026-01-18 21:55:53.57	118.96	8.50	-45.4	-46.8	17.2	0.00e+00	0	36	0	1689255936	61	4486
2026-01-18 21:55:54.58	119.09	8.45	-45.3	-46.7	17.4	0.00e+00	0	36	0	1692401664	61	4397
2026-01-18 21:55:55.59	119.22	8.39	-45.3	-46.7	17.3	0.00e+00	0	36	0	1695547392	61	4408
2026-01-18 21:55:56.59	119.35	8.34	-45.3	-46.6	17.4	0.00e+00	0	36	0	1698693120	61	4376
2026-01-18 21:55:57.60	119.48	8.29	-45.3	-46.7	17.3	0.00e+00	0	36	0	1701838848	61	4414
2026-01-18 21:55:58.61	119.61	8.23	-45.3	-46.6	17.4	0.00e+00	0	36	0	1704984576	61	4382
2026-01-18 21:55:59.62	119.74	8.18	-45.1	-46.4	17.6	0.00e+00	0	36	0	1708130304	61	4262
2026-01-18 21:56:00.62	119.87	8.13	-45.3	-46.6	17.3	0.00e+00	0	36	0	1711276032	61	4390
2026-01-18 21:56:01.63	120.00	8.07	-45.2	-46.6	17.3	0.00e+00	0	36	0	1714421760	61	4368
2026-01-18 21:56:02.64	120.12	8.02	-45.2	-46.6	17.3	0.00e+00	0	36	0	1717567488	61	4370
2026-01-18 21:56:03.65	120.25	7.97	-45.4	-46.8	17.2	0.00e+00	0	36	0	1720713216	61	4458
2026-01-18 21:56:04.65	120.38	7.91	-45.3	-46.7	17.2	0.00e+00	0	36	0	1723858944	61	4413
2026-01-18 21:56:05.66	120.50	7.86	-45.4	-46.8	17.1	0.00e+00	0	36	0	1727004672	61	4466
2026-01-18 21:56:06.67	120.63	7.81	-45.3	-46.7	17.2	0.00e+00	0	36	0	1730150400	61	4409
2026-01-18 21:56:07.68	120.76	7.75	-45.3	-46.7	17.2	0.00e+00	0	36	0	1733296128	61	4429
2026-01-18 21:56:08.69	120.88	7.70	-45.3	-46.6	17.2	0.00e+00	0	36	0	1736441856	61	4385
2026-01-18 21:56:09.69	121.01	7.65	-45.0	-46.3	17.6	0.00e+00	0	36	0	1739587584	61	4216
2026-01-18 21:56:10.70	121.13	7.59	-45.5	-46.9	17.0	0.00e+00	0	36	0	1742733312	61	4518
2026-01-18 21:56:11.71	121.25	7.54	-45.7	-47.2	16.7	0.00e+00	0	36	0	1745879040	61	4653
2026-01-18 21:56:12.72	121.38	7.49	-45.3	-46.7	17.2	0.00e+00	0	36	0	1749024768	61	4408
2026-01-18 21:56:13.73	121.50	7.43	-45.4	-46.8	17.1	0.00e+00	0	36	0	1752170496	61	4466
2026-01-18 21:56:14.73	121.62	7.38	-45.3	-46.8	17.1	0.00e+00	0	36	0	1755316224	61	4459
2026-01-18 21:56:15.74	121.74	7.33	-45.4	-46.9	16.9	0.00e+00	0	36	0	1758461952	61	4507
2026-01-18 21:56:16.75	121.87	7.27	-45.3	-46.8	17.0	0.00e+00	0	36	0	1761607680	61	4447
2026-01-18 21:56:17.76	121.99	7.22	-45.4	-46.9	17.0	0.00e+00	0	36	0	1764753408	61	4504
2026-01-18 21:56:18.77	122.11	7.17	-45.5	-47.0	16.8	0.00e+00	0	36	0	1767899136	61	4584
2026-01-18 21:56:19.77	122.23	7.12	-45.4	-46.8	17.0	0.00e+00	0	36	0	1771044864	61	4468
2026-01-18 21:56:20.78	122.35	7.06	-45.3	-46.7	17.1	0.00e+00	0	36	0	1774190592	61	4412
2026-01-18 21:56:21.79	122.47	7.01	-45.5	-46.9	16.9	0.00e+00	0	36	0	1777336320	61	4544
2026-01-18 21:56:22.80	122.59	6.96	-45.5	-47.0	16.8	0.00e+00	0	36	0	1780482048	61	4575
2026-01-18 21:56:23.81	122.71	6.90	-45.7	-47.2	16.6	0.00e+00	0	36	0	1783627776	61	4657
2026-01-18 21:56:24.81	122.82	6.85	-45.6	-47.1	16.7	0.00e+00	0	36	0	1786773504	61	4606
2026-01-18 21:56:25.82	122.94	6.80	-45.6	-47.1	16.6	0.00e+00	0	36	0	1789919232	61	4626
2026-01-18 21:56:26.83	123.06	6.74	-45.8	-47.3	16.4	0.00e+00	0	36	0	1793064960	62	4462
2026-01-18 21:56:27.84	123.18	6.69	-45.6	-47.1	16.6	0.00e+00	0	36	0	1796210688	62	4351
2026-01-18 21:56:28.85	123.29	6.64	-45.6	-47.1	16.6	0.00e+00	0	36	0	1799356416	62	4369
2026-01-18 21:56:29.85	123.41	6.58	-45.9	-47.5	16.2	0.00e+00	0	36	0	1802502144	62	4546
2026-01-18 21:56:30.86	123.53	6.53	-45.7	-47.3	16.3	0.00e+00	0	36	0	1805647872	62	4471
2026-01-18 21:56:31.87	123.64	6.48	-45.6	-47.1	16.5	0.00e+00	0	36	0	1808793600	62	4360
2026-01-18 21:56:32.88	123.76	6.42	-45.6	-47.2	16.5	0.00e+00	0	36	0	1811939328	62	4402
2026-01-18 21:56:33.89	123.87	6.37	-45.4	-46.9	16.8	0.00e+00	0	36	0	1815085056	62	4255
2026-01-18 21:56:34.90	123.99	6.32	-45.6	-47.1	16.6	0.00e+00	0	36	0	1818230784	62	4362
2026-01-18 21:56:35.91	124.10	6.26	-45.6	-47.1	16.5	0.00e+00	0	36	0	1821376512	62	4385
2026-01-18 21:56:36.92	124.21	6.21	-45.6	-47.1	16.5	0.00e+00	0	36	0	1824522240	62	4361
2026-01-18 21:56:37.92	124.33	6.16	-45.6	-47.2	16.4	0.00e+00	0	36	0	1827667968	62	4413
2026-01-18 21:56:38.93	124.44	6.10	-45.8	-47.4	16.3	0.00e+00	0	36	0	1830813696	62	4513
2026-01-18 21:56:39.94	124.55	6.05	-45.3	-46.7	16.9	0.00e+00	0	36	0	1833959424	62	4170
2026-01-18 21:56:40.95	124.66	6.00	-45.6	-47.2	16.4	0.00e+00	0	36	0	1837105152	62	4393
2026-01-18 21:56:41.96	124.78	5.95	-45.6	-47.2	16.5	0.00e+00	0	36	0	1840250880	62	4398
2026-01-18 21:56:42.96	124.89	5.89	-45.8	-47.4	16.2	0.00e+00	0	36	0	1843396608	62	4512
2026-01-18 21:56:43.97	125.00	5.84	-45.6	-47.1	16.4	0.00e+00	0	36	0	1846542336	62	4383
2026-01-18 21:56:44.98	125.11	5.79	-45.6	-47.2	16.3	0.00e+00	0	36	0	1849688064	62	4412
2026-01-18 21:56:45.99	125.22	5.73	-46.0	-47.7	15.9	0.00e+00	0	36	0	1852833792	62	4661
2026-01-18 21:56:47.00	125.33	5.68	-45.6	-47.2	16.3	0.00e+00	0	36	0	1855979520	62	4421
2026-01-18 21:56:48.01	125.44	5.63	-45.6	-47.2	16.3	0.00e+00	0	36	0	1859125248	62	4403
2026-01-18 21:56:49.01	125.55	5.58	-45.9	-47.5	16.0	0.00e+00	0	36	0	1862270976	62	4584
2026-01-18 21:56:50.02	125.65	5.52	-46.0	-47.7	15.8	0.00e+00	0	36	0	1865416704	62	4667
2026-01-18 21:56:51.03	125.76	5.47	-45.7	-47.4	16.1	0.00e+00	0	36	0	1868562432	62	4512
2026-01-18 21:56:52.04	125.87	5.42	-46.1	-47.8	15.6	0.00e+00	0	36	0	1871708160	62	4758
2026-01-18 21:56:53.05	125.98	5.36	-46.0	-47.8	15.7	0.00e+00	0	36	0	1874853888	62	4717
2026-01-18 21:56:54.06	126.09	5.31	-46.2	-48.1	15.3	0.00e+00	0	36	0	1877999616	63	4608
2026-01-18 21:56:55.06	126.19	5.26	-46.2	-48.0	15.4	0.00e+00	0	36	0	1881145344	63	4566
2026-01-18 21:56:56.07	126.30	5.21	-46.1	-47.8	15.5	0.00e+00	0	36	0	1884291072	63	4473
2026-01-18 21:56:57.08	126.40	5.15	-46.2	-48.1	15.3	0.00e+00	0	36	0	1887436800	63	4613
2026-01-18 21:56:58.09	126.51	5.10	-46.1	-47.9	15.4	0.00e+00	0	36	0	1890582528	63	4536
2026-01-18 21:56:59.09	126.61	5.05	-46.2	-48.0	15.3	0.00e+00	0	36	0	1893728256	63	4555
2026-01-18 21:57:00.10	126.72	5.00	-45.9	-47.6	15.7	0.00e+00	0	36	0	1896873984	63	4383
2026-01-18 21:57:01.11	126.82	4.94	-51.7	-63.0	3.8	1.99e-01	2	36	104	1900019712	73	14476
2026-01-18 21:57:02.12	126.93	4.89	-52.3	-65.1	3.8	1.49e+00	0	36	104	1900019712	75	16326
2026-01-18 21:57:03.13	127.03	4.84	-52.5	-65.3	3.8	1.49e+00	0	36	104	1900019712	75	16835
2026-01-18 21:57:04.13	127.13	4.79	-52.7	-65.4	3.8	1.49e+00	0	36	104	1900019712	75	17033
2026-01-18 21:57:05.14	127.24	4.73	-52.8	-65.6	3.8	1.49e+00	0	36	104	1900019712	76	16413
2026-01-18 21:57:06.15	127.34	4.68	-53.0	-65.8	3.8	1.49e+00	0	36	104	1900019712	76	16815
2026-01-18 21:57:07.16	127.44	4.63	-53.2	-66.0	3.8	1.49e+00	0	36	104	1900019712	76	17093
2026-01-18 21:57:08.17	127.54	4.58	-53.0	-66.1	3.8	1.49e+00	0	36	104	1900019712	77	16380
2026-01-18 21:57:09.17	127.65	4.52	-53.4	-66.2	3.8	1.49e+00	0	36	104	1900019712	77	16531
2026-01-18 21:57:10.18	127.75	4.47	-53.5	-66.2	3.8	1.49e+00	0	36	104	1900019712	77	16693
2026-01-18 21:57:11.19	127.85	4.42	-53.5	-66.3	3.8	1.49e+00	0	36	104	1900019712	77	16807
2026-01-18 21:57:12.20	127.95	4.37	-53.6	-66.4	3.8	1.49e+00	0	36	104	1900019712	77	16973
2026-01-18 21:57:13.21	128.05	4.31	-53.7	-66.4	3.8	1.49e+00	0	36	104	1900019712	77	17065
2026-01-18 21:57:14.22	128.15	4.26	-53.7	-66.5	3.8	1.49e+00	0	36	104	1900019712	77	17086
2026-01-18 21:57:15.22	128.25	4.21	-53.7	-66.5	3.8	1.49e+00	0	36	104	1900019712	78	16304
2026-01-18 21:57:16.23	128.35	4.16	-53.8	-66.6	3.8	1.49e+00	0	37	104	1900019712	78	16368
2026-01-18 21:57:17.24	128.45	4.11	-53.8	-66.6	3.8	1.49e+00	0	37	104	1900019712	78	16365
2026-01-18 21:57:18.25	128.55	4.05	-53.8	-66.6	3.8	1.49e+00	0	36	104	1900019712	78	16402
2026-01-18 21:57:19.25	128.64	4.00	-53.9	-66.6	3.8	1.49e+00	0	36	104	1900019712	78	16478
2026-01-18 21:57:20.26	128.74	3.95	-53.9	-66.7	3.8	1.49e+00	0	36	104	1900019712	78	16506
2026-01-18 21:57:21.27	128.84	3.90	-53.9	-66.7	3.8	1.49e+00	0	36	104	1900019712	78	16581
2026-01-18 21:57:22.28	128.94	3.85	-53.9	-66.7	3.8	1.49e+00	0	37	104	1900019712	78	16629
2026-01-18 21:57:23.28	129.03	3.79	-53.9	-66.7	3.8	1.49e+00	0	36	104	1900019712	78	16622
2026-01-18 21:57:24.29	129.13	3.74	-53.9	-66.7	3.8	1.49e+00	0	36	104	1900019712	78	16633
2026-01-18 21:57:25.30	129.23	3.69	-54.0	-66.8	3.8	1.49e+00	0	36	104	1900019712	78	16745
2026-01-18 21:57:26.31	129.32	3.64	-54.0	-66.8	3.8	1.49e+00	0	36	104	1900019712	78	16696
2026-01-18 21:57:27.31	129.42	3.59	-53.9	-66.7	3.8	1.49e+00	0	36	104	1900019712	78	16611
2026-01-18 21:57:28.32	129.51	3.54	-53.9	-66.7	3.8	1.49e+00	0	36	104	1900019712	78	16632
2026-01-18 21:57:29.33	129.61	3.48	-53.9	-66.7	3.8	1.49e+00	0	36	104	1900019712	78	16583
2026-01-18 21:57:30.34	129.70	3.43	-53.9	-66.7	3.8	1.49e+00	0	36	104	1900019712	78	16577
2026-01-18 21:57:31.35	129.80	3.38	-53.9	-66.7	3.8	1.49e+00	0	36	104	1900019712	78	16630
2026-01-18 21:57:32.35	129.89	3.33	-53.9	-66.7	3.8	1.49e+00	0	36	104	1900019712	78	16575
2026-01-18 21:57:33.36	129.98	3.28	-53.9	-66.7	3.8	1.49e+00	0	37	104	1900019712	78	16551
