passes_logs/2026/01/18/R3.2S_Murmansk/R3.2S_Murmansk__20260118_012546_NOAA_21_JPSS-2_rec.log

#Pass ID: 20260118_012546_NOAA 21 (JPSS-2)
#Satellite: NOAA 21 (JPSS-2)
#Configuration: NOAA-21
#almurnet v.1.7.20251203
#Start time: 2026-01-18 01:25:46

#Version: 2.2.20231116
#Station: R3.2S_Murmansk
#Location: 33.079688 lon 68.888172 lat
#TLE: 1 54234U 22150A   26017.62066529  .00000042  00000+0  40984-4 0  9994
#TLE: 2 54234  98.7502 318.4887 0000613 271.5460  88.5645 14.19535234165189

#Time	Az	El	Level	Level2	SNR	BER	BlckErr	Temp	State	Recorded	gain1	gain2
2026-01-18 01:25:46.65	27.68	2.01	-51.4	-64.1	3.8	1.49e+00	0	33	0	0	74	15529
2026-01-18 01:25:47.65	27.67	2.07	-51.4	-64.1	3.8	1.49e+00	0	33	104	0	73	16424
2026-01-18 01:25:48.66	27.65	2.14	-51.4	-64.1	3.8	1.49e+00	0	33	104	0	73	16355
2026-01-18 01:25:49.67	27.64	2.20	-51.4	-64.1	3.8	1.49e+00	0	33	104	0	73	16374
2026-01-18 01:25:50.67	27.62	2.26	-51.4	-64.0	3.8	1.49e+00	0	33	104	0	73	16207
2026-01-18 01:25:51.68	27.61	2.33	-51.4	-64.0	3.8	1.49e+00	0	33	104	0	73	16192
2026-01-18 01:25:52.69	27.59	2.39	-51.4	-63.9	3.8	1.49e+00	0	33	104	0	73	16050
2026-01-18 01:25:53.70	27.58	2.46	-51.4	-63.8	3.8	1.49e+00	0	33	104	0	73	15910
2026-01-18 01:25:54.70	27.56	2.52	-51.3	-63.8	3.8	1.49e+00	0	33	104	0	73	15794
2026-01-18 01:25:55.71	27.54	2.59	-51.3	-63.7	3.8	1.49e+00	0	33	104	0	73	15616
2026-01-18 01:25:56.72	27.53	2.65	-51.3	-63.6	3.8	1.49e+00	0	34	104	0	73	15520
2026-01-18 01:25:57.73	27.51	2.72	-51.3	-63.7	3.8	1.49e+00	0	33	104	0	73	15595
2026-01-18 01:25:58.73	27.49	2.78	-51.3	-63.6	3.8	1.49e+00	0	34	104	0	73	15536
2026-01-18 01:25:59.74	27.48	2.85	-51.3	-63.7	3.8	1.49e+00	0	34	104	0	73	15675
2026-01-18 01:26:00.75	27.46	2.92	-51.3	-63.8	3.8	1.49e+00	0	34	104	0	73	15853
2026-01-18 01:26:01.76	27.45	2.98	-51.4	-63.9	3.8	1.49e+00	0	34	104	0	73	16084
2026-01-18 01:26:02.76	27.43	3.05	-51.4	-63.8	3.8	1.49e+00	0	34	104	0	73	15883
2026-01-18 01:26:03.77	27.41	3.12	-51.3	-63.5	3.8	1.49e+00	0	34	104	0	73	15252
2026-01-18 01:26:04.78	27.39	3.18	-51.2	-62.6	3.8	1.49e+00	0	34	104	0	73	13766
2026-01-18 01:26:05.79	27.38	3.25	-51.1	-60.5	4.2	1.48e+00	0	34	104	0	73	10801
2026-01-18 01:26:06.80	27.36	3.32	-50.7	-58.7	4.1	1.28e+00	0	34	104	0	73	8844
2026-01-18 01:26:07.81	27.34	3.38	-50.4	-56.6	6.3	3.86e-01	0	34	0	1048576	72	7360
2026-01-18 01:26:08.81	27.33	3.45	-50.1	-55.7	7.2	1.26e-01	0	34	0	4194304	72	6585
2026-01-18 01:26:09.82	27.31	3.52	-50.1	-55.6	7.3	2.01e-01	0	34	0	7340032	72	6509
2026-01-18 01:26:10.83	27.29	3.58	-49.4	-53.6	9.3	2.74e-02	0	34	0	10485760	70	5799
2026-01-18 01:26:11.84	27.27	3.65	-49.1	-53.0	10.0	7.02e-03	0	34	0	13631488	70	5405
2026-01-18 01:26:12.84	27.26	3.72	-48.4	-51.6	11.4	3.24e-03	0	34	0	17825792	68	5180
2026-01-18 01:26:13.85	27.24	3.79	-48.3	-51.3	11.7	6.00e-04	0	34	0	20971520	68	5027
2026-01-18 01:26:14.86	27.22	3.86	-47.8	-50.5	12.4	2.84e-04	0	34	0	24117248	67	4854
2026-01-18 01:26:15.87	27.20	3.92	-47.3	-49.8	13.2	4.27e-05	0	34	0	27262976	66	4706
2026-01-18 01:26:16.88	27.18	3.99	-47.5	-50.1	12.8	1.37e-05	0	34	0	30408704	66	4917
2026-01-18 01:26:17.88	27.17	4.06	-47.0	-49.3	13.7	3.80e-06	0	34	0	33554432	65	4716
2026-01-18 01:26:18.89	27.15	4.13	-47.1	-49.4	13.6	5.34e-05	0	34	0	35651584	65	4784
2026-01-18 01:26:19.90	27.13	4.20	-47.0	-49.3	13.7	6.80e-06	0	34	0	38797312	65	4726
2026-01-18 01:26:20.91	27.11	4.27	-47.0	-49.4	13.6	1.06e-05	0	34	0	41943040	65	4764
2026-01-18 01:26:21.92	27.09	4.34	-47.3	-49.8	13.2	3.66e-05	0	34	0	45088768	65	4994
2026-01-18 01:26:22.92	27.07	4.41	-47.6	-50.2	12.7	2.36e-05	0	34	0	48234496	65	5264
2026-01-18 01:26:23.93	27.06	4.48	-47.8	-50.5	12.4	9.99e-05	0	34	0	51380224	66	5156
2026-01-18 01:26:24.94	27.04	4.55	-48.4	-51.6	11.3	5.67e-04	0	34	0	55574528	67	5492
2026-01-18 01:26:25.95	27.02	4.62	-49.0	-52.8	10.2	5.58e-03	0	34	0	58720256	68	5925
2026-01-18 01:26:26.96	27.00	4.69	-49.4	-53.6	9.3	1.38e-02	0	34	0	61865984	69	6150
2026-01-18 01:26:27.97	26.98	4.76	-49.5	-53.8	9.1	2.09e-02	0	34	0	65011712	69	6334
2026-01-18 01:26:28.97	26.96	4.83	-49.6	-54.2	8.6	4.02e-02	0	34	0	68157440	69	6639
2026-01-18 01:26:29.98	26.94	4.90	-50.1	-55.7	7.2	7.05e-02	0	34	0	71303168	70	7434
2026-01-18 01:26:30.99	26.92	4.97	-50.4	-56.6	6.4	2.23e-01	0	34	0	74448896	71	7768
2026-01-18 01:26:31.99	26.90	5.04	-50.6	-57.6	5.6	3.97e-01	0	34	0	77594624	71	8695
2026-01-18 01:26:33.00	26.88	5.11	-49.6	-53.5	9.9	9.02e-03	0	34	0	80740352	71	5447
2026-01-18 01:26:34.01	26.86	5.18	-48.1	-50.7	12.9	1.03e-04	0	34	0	82837504	68	4658
2026-01-18 01:26:35.02	26.84	5.25	-51.0	-62.7	3.8	5.57e-01	0	34	104	85983232	72	14841
2026-01-18 01:26:36.03	26.82	5.33	-47.0	-48.9	14.6	1.55e-01	0	34	0	85983232	66	4291
2026-01-18 01:26:37.03	26.80	5.40	-50.2	-54.9	8.6	4.44e-03	0	35	0	89128960	70	6743
2026-01-18 01:26:38.04	26.78	5.47	-47.2	-49.2	14.6	2.20e-06	0	34	0	92274688	66	4397
2026-01-18 01:26:39.05	26.76	5.54	-46.7	-48.5	15.3	7.00e-07	0	34	0	95420416	65	4324
2026-01-18 01:26:40.06	26.74	5.62	-46.0	-47.6	16.3	0.00e+00	0	34	0	98566144	63	4358
2026-01-18 01:26:41.06	26.72	5.69	-46.2	-47.9	16.1	0.00e+00	0	34	0	101711872	63	4497
2026-01-18 01:26:42.07	26.70	5.76	-45.9	-47.5	16.5	0.00e+00	0	34	0	104857600	63	4302
2026-01-18 01:26:43.08	26.68	5.83	-45.7	-47.1	16.9	0.00e+00	0	34	0	108003328	63	4121
2026-01-18 01:26:44.09	26.65	5.91	-45.9	-47.5	16.6	0.00e+00	0	34	0	111149056	63	4294
2026-01-18 01:26:45.10	26.63	5.98	-45.4	-46.8	17.2	0.00e+00	0	34	0	114294784	62	4236
2026-01-18 01:26:46.11	26.61	6.06	-45.5	-46.9	17.2	0.00e+00	0	34	0	117440512	62	4266
2026-01-18 01:26:47.11	26.59	6.13	-45.8	-47.2	16.8	0.00e+00	0	34	0	120586240	62	4436
2026-01-18 01:26:48.12	26.57	6.20	-45.6	-47.0	17.1	0.00e+00	0	34	0	123731968	62	4320
2026-01-18 01:26:49.13	26.55	6.28	-45.2	-46.5	17.6	0.00e+00	0	34	0	126877696	62	4094
2026-01-18 01:26:50.14	26.52	6.35	-45.5	-46.9	17.2	0.00e+00	0	34	0	130023424	62	4275
2026-01-18 01:26:51.14	26.50	6.43	-45.3	-46.6	17.5	0.00e+00	0	35	0	133169152	62	4128
2026-01-18 01:26:52.15	26.48	6.50	-45.5	-46.9	17.2	0.00e+00	0	34	0	136314880	62	4290
2026-01-18 01:26:53.16	26.46	6.58	-45.5	-46.9	17.2	0.00e+00	0	34	0	139460608	62	4269
2026-01-18 01:26:54.17	26.44	6.65	-45.7	-47.2	17.0	0.00e+00	0	34	0	142606336	62	4414
2026-01-18 01:26:55.18	26.41	6.73	-45.7	-47.1	17.1	0.00e+00	0	34	0	145752064	62	4374
2026-01-18 01:26:56.19	26.39	6.81	-45.6	-47.0	17.2	0.00e+00	0	34	0	148897792	62	4295
2026-01-18 01:26:57.19	26.37	6.88	-45.7	-47.2	17.0	0.00e+00	0	35	0	152043520	62	4404
2026-01-18 01:26:58.20	26.34	6.96	-45.6	-47.0	17.2	0.00e+00	0	34	0	155189248	62	4315
2026-01-18 01:26:59.21	26.32	7.03	-45.6	-47.0	17.2	0.00e+00	0	35	0	158334976	62	4301
2026-01-18 01:27:00.21	26.30	7.11	-45.7	-47.1	17.1	0.00e+00	0	35	0	161480704	62	4361
2026-01-18 01:27:01.22	26.27	7.19	-45.4	-46.8	17.4	0.00e+00	0	35	0	164626432	62	4223
2026-01-18 01:27:02.23	26.25	7.26	-45.3	-46.6	17.6	0.00e+00	0	35	0	167772160	62	4116
2026-01-18 01:27:03.24	26.23	7.34	-45.2	-46.6	17.7	0.00e+00	0	35	0	170917888	62	4103
2026-01-18 01:27:04.25	26.20	7.42	-45.1	-46.4	17.8	0.00e+00	0	34	0	174063616	62	4032
2026-01-18 01:27:05.25	26.18	7.50	-45.2	-46.5	17.7	0.00e+00	0	34	0	177209344	62	4082
2026-01-18 01:27:06.26	26.15	7.58	-45.1	-46.3	17.9	0.00e+00	0	34	0	180355072	62	3990
2026-01-18 01:27:07.27	26.13	7.65	-45.1	-46.4	17.9	0.00e+00	0	35	0	183500800	62	4035
2026-01-18 01:27:08.28	26.11	7.73	-45.4	-46.7	17.6	0.00e+00	0	35	0	186646528	62	4173
2026-01-18 01:27:09.28	26.08	7.81	-44.9	-46.2	18.1	0.00e+00	0	35	0	189792256	61	4154
2026-01-18 01:27:10.29	26.06	7.89	-45.0	-46.3	18.0	0.00e+00	0	35	0	192937984	61	4219
2026-01-18 01:27:11.30	26.03	7.97	-45.0	-46.2	18.0	0.00e+00	0	34	0	196083712	61	4191
2026-01-18 01:27:12.31	26.01	8.05	-45.0	-46.3	18.0	0.00e+00	0	34	0	199229440	61	4209
2026-01-18 01:27:13.32	25.98	8.13	-44.9	-46.2	18.1	0.00e+00	0	35	0	202375168	61	4149
2026-01-18 01:27:14.33	25.95	8.21	-45.0	-46.2	18.1	0.00e+00	0	35	0	205520896	61	4171
2026-01-18 01:27:15.34	25.93	8.29	-45.0	-46.2	18.1	0.00e+00	0	35	0	208666624	61	4163
2026-01-18 01:27:16.35	25.90	8.37	-45.0	-46.2	18.1	0.00e+00	0	35	0	211812352	61	4183
2026-01-18 01:27:17.35	25.88	8.45	-44.9	-46.1	18.3	0.00e+00	0	34	0	214958080	61	4114
2026-01-18 01:27:18.37	25.85	8.53	-44.8	-46.0	18.4	0.00e+00	0	35	0	218103808	61	4056
2026-01-18 01:27:19.37	25.82	8.61	-44.9	-46.1	18.2	0.00e+00	0	35	0	221249536	61	4112
2026-01-18 01:27:20.38	25.80	8.70	-44.9	-46.1	18.3	0.00e+00	0	35	0	224395264	61	4108
2026-01-18 01:27:21.39	25.77	8.78	-44.9	-46.1	18.3	0.00e+00	0	35	0	227540992	61	4108
2026-01-18 01:27:22.40	25.74	8.86	-44.7	-45.8	18.5	0.00e+00	0	35	0	230686720	61	3993
2026-01-18 01:27:23.40	25.72	8.94	-44.9	-46.1	18.3	0.00e+00	0	35	0	233832448	61	4110
2026-01-18 01:27:24.41	25.69	9.03	-44.8	-46.0	18.4	0.00e+00	0	35	0	236978176	61	4077
2026-01-18 01:27:25.42	25.66	9.11	-44.8	-46.0	18.3	0.00e+00	0	35	0	240123904	61	4097
2026-01-18 01:27:26.43	25.63	9.19	-44.6	-45.8	18.6	0.00e+00	0	35	0	243269632	61	3970
2026-01-18 01:27:27.44	25.61	9.28	-44.7	-45.9	18.5	0.00e+00	0	35	0	246415360	61	4010
2026-01-18 01:27:28.44	25.58	9.36	-44.7	-45.8	18.5	0.00e+00	0	35	0	249561088	61	4004
2026-01-18 01:27:29.45	25.55	9.44	-44.4	-45.5	18.8	0.00e+00	0	35	0	252706816	60	4095
2026-01-18 01:27:30.46	25.52	9.53	-44.8	-46.0	18.5	0.00e+00	0	35	0	255852544	60	4293
2026-01-18 01:27:31.47	25.49	9.61	-44.5	-45.7	18.7	0.00e+00	0	35	0	258998272	60	4165
2026-01-18 01:27:32.48	25.47	9.70	-44.6	-45.7	18.7	0.00e+00	0	35	0	262144000	60	4172
2026-01-18 01:27:33.49	25.44	9.78	-44.5	-45.7	18.7	0.00e+00	0	34	0	265289728	60	4151
2026-01-18 01:27:34.50	25.41	9.87	-44.4	-45.5	18.9	0.00e+00	0	35	0	268435456	60	4064
2026-01-18 01:27:35.50	25.38	9.95	-44.5	-45.7	18.8	0.00e+00	0	34	0	271581184	60	4146
2026-01-18 01:27:36.51	25.35	10.04	-44.4	-45.5	19.0	0.00e+00	0	35	0	274726912	60	4058
2026-01-18 01:27:37.52	25.32	10.13	-44.4	-45.6	18.9	0.00e+00	0	35	0	277872640	60	4104
2026-01-18 01:27:38.53	25.29	10.21	-44.3	-45.4	19.0	0.00e+00	0	35	0	281018368	60	4040
2026-01-18 01:27:39.54	25.26	10.30	-44.2	-45.3	19.1	0.00e+00	0	35	0	284164096	60	3995
2026-01-18 01:27:40.54	25.23	10.39	-44.2	-45.3	19.1	0.00e+00	0	35	0	287309824	60	3998
2026-01-18 01:27:41.55	25.20	10.47	-44.2	-45.3	19.1	0.00e+00	0	35	0	290455552	60	3993
2026-01-18 01:27:42.56	25.17	10.56	-44.4	-45.5	18.9	0.00e+00	0	35	0	293601280	60	4073
2026-01-18 01:27:43.57	25.14	10.65	-44.1	-45.2	19.2	0.00e+00	0	35	0	296747008	60	3939
2026-01-18 01:27:44.58	25.10	10.74	-44.0	-45.1	19.3	0.00e+00	0	35	0	299892736	60	3885
2026-01-18 01:27:45.59	25.07	10.83	-44.2	-45.3	19.2	0.00e+00	0	35	0	303038464	60	3964
2026-01-18 01:27:46.59	25.04	10.92	-44.1	-45.2	19.2	0.00e+00	0	35	0	306184192	60	3949
2026-01-18 01:27:47.60	25.01	11.00	-44.2	-45.3	19.1	0.00e+00	0	35	0	309329920	60	3989
2026-01-18 01:27:48.61	24.98	11.09	-44.1	-45.2	19.3	0.00e+00	0	35	0	312475648	60	3925
2026-01-18 01:27:49.62	24.95	11.18	-44.4	-45.5	19.3	0.00e+00	0	35	0	315621376	59	4308
2026-01-18 01:27:50.63	24.91	11.28	-44.2	-45.3	19.5	0.00e+00	0	35	0	318767104	59	4214
2026-01-18 01:27:51.63	24.88	11.37	-44.2	-45.2	19.5	0.00e+00	0	35	0	321912832	59	4190
2026-01-18 01:27:52.64	24.85	11.46	-44.3	-45.3	19.4	0.00e+00	0	35	0	326107136	59	4231
2026-01-18 01:27:53.65	24.81	11.55	-44.2	-45.3	19.5	0.00e+00	0	35	0	328204288	59	4211
2026-01-18 01:27:54.66	24.78	11.64	-44.2	-45.3	19.5	0.00e+00	0	35	0	331350016	59	4210
2026-01-18 01:27:55.66	24.75	11.73	-44.1	-45.2	19.6	0.00e+00	0	35	0	334495744	59	4151
2026-01-18 01:27:56.67	24.71	11.82	-44.1	-45.1	19.6	0.00e+00	0	35	0	337641472	59	4143
2026-01-18 01:27:57.68	24.68	11.92	-44.1	-45.1	19.7	0.00e+00	0	35	0	340787200	59	4134
2026-01-18 01:27:58.69	24.65	12.01	-44.2	-45.2	19.6	0.00e+00	0	35	0	343932928	59	4189
2026-01-18 01:27:59.70	24.61	12.10	-44.0	-45.1	19.7	0.00e+00	0	35	0	347078656	59	4114
2026-01-18 01:28:00.71	24.58	12.20	-44.2	-45.2	19.6	0.00e+00	0	35	0	350224384	59	4189
2026-01-18 01:28:01.71	24.54	12.29	-44.0	-45.1	19.7	0.00e+00	0	35	0	353370112	59	4100
2026-01-18 01:28:02.72	24.51	12.38	-43.9	-45.0	19.8	0.00e+00	0	35	0	356515840	59	4062
2026-01-18 01:28:03.73	24.47	12.48	-44.1	-45.1	19.7	0.00e+00	0	35	0	359661568	59	4120
2026-01-18 01:28:04.74	24.43	12.57	-44.0	-45.0	19.8	0.00e+00	0	35	0	362807296	59	4071
2026-01-18 01:28:05.74	24.40	12.67	-43.9	-44.9	19.9	0.00e+00	0	35	0	367001600	59	4043
2026-01-18 01:28:06.75	24.36	12.76	-44.0	-45.0	19.8	0.00e+00	0	35	0	370147328	59	4070
2026-01-18 01:28:07.76	24.33	12.86	-43.9	-45.0	19.9	0.00e+00	0	35	0	373293056	59	4055
2026-01-18 01:28:08.77	24.29	12.96	-43.9	-44.9	19.9	0.00e+00	0	35	0	375390208	59	4051
2026-01-18 01:28:09.78	24.25	13.05	-43.9	-44.9	19.9	0.00e+00	0	35	0	378535936	59	4034
2026-01-18 01:28:10.79	24.21	13.15	-43.8	-44.8	20.0	0.00e+00	0	35	0	381681664	59	3983
2026-01-18 01:28:11.79	24.18	13.25	-43.9	-44.9	19.9	0.00e+00	0	35	0	384827392	59	4032
2026-01-18 01:28:12.80	24.14	13.35	-43.9	-44.9	20.0	0.00e+00	0	35	0	387973120	59	4016
2026-01-18 01:28:13.81	24.10	13.45	-43.9	-44.9	19.9	0.00e+00	0	35	0	391118848	59	4020
2026-01-18 01:28:14.81	24.06	13.54	-44.0	-45.0	19.8	0.00e+00	0	35	0	394264576	59	4086
2026-01-18 01:28:15.82	24.02	13.64	-43.9	-44.9	20.0	0.00e+00	0	35	0	397410304	59	4023
2026-01-18 01:28:16.83	23.98	13.74	-43.8	-44.8	20.0	0.00e+00	0	35	0	400556032	59	3995
2026-01-18 01:28:17.84	23.94	13.84	-43.9	-44.9	19.9	0.00e+00	0	35	0	403701760	59	4033
2026-01-18 01:28:18.84	23.91	13.94	-43.8	-44.8	20.0	0.00e+00	0	35	0	407896064	59	3991
2026-01-18 01:28:19.85	23.87	14.04	-43.8	-44.8	20.1	0.00e+00	0	35	0	411041792	59	3978
2026-01-18 01:28:20.86	23.82	14.14	-43.8	-44.8	20.1	0.00e+00	0	35	0	414187520	59	3971
2026-01-18 01:28:21.87	23.78	14.25	-43.7	-44.7	20.1	0.00e+00	0	35	0	417333248	59	3947
2026-01-18 01:28:22.88	23.74	14.35	-43.8	-44.8	20.1	0.00e+00	0	35	0	420478976	59	3961
2026-01-18 01:28:23.89	23.70	14.45	-43.7	-44.7	20.2	0.00e+00	0	35	0	422576128	59	3941
2026-01-18 01:28:24.89	23.66	14.55	-43.8	-44.8	20.1	0.00e+00	0	35	0	425721856	59	3967
2026-01-18 01:28:25.90	23.62	14.66	-43.8	-44.8	20.1	0.00e+00	0	35	0	428867584	59	3981
2026-01-18 01:28:26.90	23.58	14.76	-43.7	-44.7	20.2	0.00e+00	0	35	0	432013312	59	3930
2026-01-18 01:28:27.91	23.53	14.86	-43.8	-44.8	20.1	0.00e+00	0	35	0	435159040	59	3966
2026-01-18 01:28:28.92	23.49	14.97	-43.8	-44.8	20.1	0.00e+00	0	35	0	438304768	59	3959
2026-01-18 01:28:29.93	23.45	15.07	-43.7	-44.6	20.2	0.00e+00	0	35	0	441450496	59	3911
2026-01-18 01:28:30.94	23.41	15.18	-43.8	-44.8	20.1	0.00e+00	0	35	0	444596224	59	3962
2026-01-18 01:28:31.95	23.36	15.28	-43.8	-44.7	20.2	0.00e+00	0	35	0	448790528	59	3946
2026-01-18 01:28:32.95	23.32	15.39	-43.7	-44.6	20.2	0.00e+00	0	35	0	451936256	59	3913
2026-01-18 01:28:33.96	23.27	15.50	-43.9	-44.9	20.0	0.00e+00	0	35	0	455081984	59	4026
2026-01-18 01:28:34.97	23.23	15.60	-43.9	-44.9	20.0	0.00e+00	0	35	0	458227712	59	4015
2026-01-18 01:28:35.98	23.18	15.71	-44.0	-45.0	19.9	0.00e+00	0	35	0	461373440	59	4063
2026-01-18 01:28:36.99	23.14	15.82	-43.9	-44.9	20.0	0.00e+00	0	35	0	464519168	59	4007
2026-01-18 01:28:37.99	23.09	15.93	-43.9	-44.9	20.0	0.00e+00	0	35	0	467664896	59	4042
2026-01-18 01:28:39.00	23.05	16.04	-43.9	-44.9	20.0	0.00e+00	0	35	0	469762048	59	4021
2026-01-18 01:28:40.01	23.00	16.15	-44.0	-45.0	19.9	0.00e+00	0	35	0	472907776	59	4079
2026-01-18 01:28:41.02	22.95	16.26	-43.9	-44.9	20.1	0.00e+00	0	35	0	476053504	59	4007
2026-01-18 01:28:42.03	22.90	16.37	-43.7	-44.7	20.2	0.00e+00	0	35	0	479199232	59	3927
2026-01-18 01:28:43.03	22.86	16.48	-43.8	-44.8	20.1	0.00e+00	0	35	0	482344960	59	3963
2026-01-18 01:28:44.04	22.81	16.59	-43.8	-44.8	20.1	0.00e+00	0	35	0	486539264	59	3997
2026-01-18 01:28:45.05	22.76	16.70	-44.0	-45.0	19.9	0.00e+00	0	35	0	489684992	59	4072
2026-01-18 01:28:46.06	22.71	16.81	-43.8	-44.8	20.1	0.00e+00	0	35	0	492830720	59	3977
2026-01-18 01:28:47.07	22.66	16.93	-43.8	-44.8	20.1	0.00e+00	0	35	0	495976448	59	3994
2026-01-18 01:28:48.08	22.61	17.04	-43.9	-45.0	20.0	0.00e+00	0	35	0	499122176	59	4053
2026-01-18 01:28:49.09	22.56	17.15	-44.0	-45.0	19.9	0.00e+00	0	35	0	502267904	59	4075
2026-01-18 01:28:50.09	22.51	17.27	-43.9	-44.9	20.0	0.00e+00	0	35	0	505413632	59	4045
2026-01-18 01:28:51.10	22.46	17.38	-44.0	-45.0	20.0	0.00e+00	0	35	0	508559360	59	4057
2026-01-18 01:28:52.11	22.41	17.50	-44.0	-45.0	19.9	0.00e+00	0	35	0	511705088	59	4085
2026-01-18 01:28:53.12	22.36	17.61	-43.9	-44.9	20.0	0.00e+00	0	35	0	514850816	59	4046
2026-01-18 01:28:54.12	22.31	17.73	-44.0	-45.0	19.9	0.00e+00	0	35	0	516947968	59	4091
2026-01-18 01:28:55.13	22.25	17.84	-44.0	-45.0	20.0	0.00e+00	0	35	0	520093696	59	4090
2026-01-18 01:28:56.14	22.20	17.96	-44.0	-45.0	19.9	0.00e+00	0	35	0	524288000	59	4092
2026-01-18 01:28:57.15	22.15	18.08	-44.0	-45.1	19.9	0.00e+00	0	35	0	527433728	59	4103
2026-01-18 01:28:58.16	22.09	18.20	-44.1	-45.1	19.9	0.00e+00	0	35	0	530579456	59	4127
2026-01-18 01:28:59.17	22.04	18.32	-44.0	-45.1	19.9	0.00e+00	0	35	0	533725184	59	4100
2026-01-18 01:29:00.17	21.98	18.44	-43.9	-44.9	20.1	0.00e+00	0	35	0	536870912	59	4038
2026-01-18 01:29:01.18	21.93	18.56	-43.9	-44.9	20.1	0.00e+00	0	35	0	540016640	59	4041
2026-01-18 01:29:02.19	21.87	18.68	-44.0	-45.0	20.0	0.00e+00	0	35	0	543162368	59	4059
2026-01-18 01:29:03.20	21.81	18.80	-43.8	-44.8	20.2	0.00e+00	0	35	0	546308096	59	3993
2026-01-18 01:29:04.21	21.76	18.92	-43.9	-44.9	20.1	0.00e+00	0	35	0	549453824	59	4012
2026-01-18 01:29:05.21	21.70	19.04	-43.8	-44.8	20.2	0.00e+00	0	35	0	552599552	59	3966
2026-01-18 01:29:06.22	21.64	19.17	-43.7	-44.6	20.4	0.00e+00	0	35	0	555745280	59	3912
2026-01-18 01:29:07.23	21.58	19.29	-43.6	-44.6	20.4	0.00e+00	0	35	0	558891008	59	3888
2026-01-18 01:29:08.23	21.53	19.41	-43.7	-44.6	20.4	0.00e+00	0	35	0	562036736	59	3901
2026-01-18 01:29:09.24	21.47	19.54	-43.6	-44.5	20.5	0.00e+00	0	35	0	565182464	59	3862
2026-01-18 01:29:10.25	21.41	19.66	-43.7	-44.7	20.4	0.00e+00	0	35	0	568328192	59	3923
2026-01-18 01:29:11.26	21.35	19.79	-43.7	-44.6	20.4	0.00e+00	0	35	0	571473920	59	3909
2026-01-18 01:29:12.26	21.29	19.92	-43.6	-44.5	20.5	0.00e+00	0	35	0	574619648	59	3861
2026-01-18 01:29:13.27	21.23	20.04	-43.5	-44.4	20.5	0.00e+00	0	35	0	577765376	59	3822
2026-01-18 01:29:14.28	21.16	20.17	-43.5	-44.4	20.6	0.00e+00	0	35	0	580911104	58	4033
2026-01-18 01:29:15.29	21.10	20.30	-43.5	-44.4	20.5	0.00e+00	0	35	0	584056832	58	4041
2026-01-18 01:29:16.30	21.04	20.43	-43.3	-44.2	20.8	0.00e+00	0	35	0	587202560	58	3937
2026-01-18 01:29:17.31	20.97	20.56	-43.2	-44.1	20.9	0.00e+00	0	35	0	590348288	58	3880
2026-01-18 01:29:18.32	20.91	20.69	-43.3	-44.2	20.7	0.00e+00	0	35	0	593494016	58	3947
2026-01-18 01:29:19.33	20.84	20.82	-43.3	-44.2	20.7	0.00e+00	0	35	0	596639744	58	3945
2026-01-18 01:29:20.33	20.78	20.95	-43.2	-44.1	20.8	0.00e+00	0	35	0	599785472	58	3900
2026-01-18 01:29:21.34	20.71	21.08	-43.1	-44.0	20.9	0.00e+00	0	35	0	602931200	58	3838
2026-01-18 01:29:22.35	20.65	21.22	-43.0	-43.9	21.0	0.00e+00	0	35	0	606076928	58	3784
2026-01-18 01:29:23.36	20.58	21.35	-43.0	-43.9	21.0	0.00e+00	0	35	0	609222656	58	3821
2026-01-18 01:29:24.37	20.51	21.48	-43.0	-43.9	21.1	0.00e+00	0	35	0	612368384	58	3783
2026-01-18 01:29:25.37	20.44	21.62	-42.9	-43.8	21.1	0.00e+00	0	35	0	615514112	57	3979
2026-01-18 01:29:26.38	20.37	21.75	-43.0	-43.9	21.0	0.00e+00	0	35	0	618659840	57	4006
2026-01-18 01:29:27.39	20.30	21.89	-42.8	-43.7	21.2	0.00e+00	0	35	0	621805568	57	3945
2026-01-18 01:29:28.40	20.23	22.03	-42.9	-43.7	21.2	0.00e+00	0	35	0	624951296	57	3947
2026-01-18 01:29:29.40	20.16	22.16	-42.9	-43.7	21.2	0.00e+00	0	35	0	628097024	57	3947
2026-01-18 01:29:30.41	20.09	22.30	-42.9	-43.7	21.1	0.00e+00	0	35	0	631242752	57	3956
2026-01-18 01:29:31.42	20.02	22.44	-42.9	-43.8	21.1	0.00e+00	0	35	0	634388480	57	3996
2026-01-18 01:29:32.43	19.95	22.58	-42.9	-43.8	21.1	0.00e+00	0	35	0	637534208	57	3966
2026-01-18 01:29:33.44	19.87	22.72	-42.8	-43.6	21.3	0.00e+00	0	35	0	640679936	57	3909
2026-01-18 01:29:34.44	19.80	22.86	-42.8	-43.6	21.3	0.00e+00	0	35	0	643825664	57	3904
2026-01-18 01:29:35.45	19.72	23.00	-42.8	-43.7	21.2	0.00e+00	0	35	0	646971392	57	3919
2026-01-18 01:29:36.46	19.65	23.15	-42.9	-43.8	21.2	0.00e+00	0	35	0	650117120	57	3963
2026-01-18 01:29:37.47	19.57	23.29	-42.7	-43.6	21.3	0.00e+00	0	35	0	653262848	57	3891
2026-01-18 01:29:38.48	19.49	23.43	-42.6	-43.5	21.4	0.00e+00	0	35	0	656408576	57	3850
2026-01-18 01:29:39.49	19.42	23.58	-42.8	-43.6	21.3	0.00e+00	0	35	0	659554304	57	3901
2026-01-18 01:29:40.50	19.34	23.72	-42.7	-43.6	21.3	0.00e+00	0	35	0	662700032	57	3901
2026-01-18 01:29:41.51	19.26	23.87	-42.7	-43.5	21.4	0.00e+00	0	35	0	665845760	57	3863
2026-01-18 01:29:42.51	19.18	24.02	-42.7	-43.6	21.3	0.00e+00	0	35	0	668991488	57	3879
2026-01-18 01:29:43.52	19.10	24.16	-42.8	-43.7	21.2	0.00e+00	0	35	0	672137216	57	3931
2026-01-18 01:29:44.53	19.01	24.31	-42.7	-43.6	21.3	0.00e+00	0	35	0	675282944	57	3892
2026-01-18 01:29:45.54	18.93	24.46	-42.8	-43.7	21.2	0.00e+00	0	35	0	678428672	57	3942
2026-01-18 01:29:46.55	18.85	24.61	-42.8	-43.7	21.2	0.00e+00	0	35	0	681574400	57	3924
2026-01-18 01:29:47.56	18.76	24.76	-42.9	-43.8	21.2	0.00e+00	0	35	0	684720128	57	3972
2026-01-18 01:29:48.57	18.68	24.92	-43.0	-43.8	21.1	0.00e+00	0	35	0	687865856	57	4000
2026-01-18 01:29:49.57	18.59	25.07	-42.9	-43.8	21.2	0.00e+00	0	35	0	691011584	57	3976
2026-01-18 01:29:50.58	18.50	25.22	-42.9	-43.8	21.2	0.00e+00	0	35	0	694157312	57	3992
2026-01-18 01:29:51.59	18.42	25.37	-43.1	-44.0	21.0	0.00e+00	0	35	0	697303040	57	4060
2026-01-18 01:29:52.60	18.33	25.53	-43.1	-44.0	21.0	0.00e+00	0	35	0	700448768	57	4095
2026-01-18 01:29:53.61	18.24	25.69	-43.2	-44.1	20.9	0.00e+00	0	35	0	703594496	57	4126
2026-01-18 01:29:54.61	18.15	25.84	-43.3	-44.3	20.8	0.00e+00	0	35	0	706740224	57	4200
2026-01-18 01:29:55.62	18.06	26.00	-43.5	-44.4	20.7	0.00e+00	0	35	0	709885952	57	4291
2026-01-18 01:29:56.63	17.96	26.16	-43.6	-44.5	20.6	0.00e+00	0	35	0	713031680	57	4330
2026-01-18 01:29:57.63	17.87	26.32	-43.8	-44.7	20.4	0.00e+00	0	35	0	716177408	58	4177
2026-01-18 01:29:58.64	17.78	26.48	-43.8	-44.8	20.4	0.00e+00	0	35	0	719323136	58	4197
2026-01-18 01:29:59.65	17.68	26.64	-43.8	-44.7	20.4	0.00e+00	0	35	0	722468864	58	4172
2026-01-18 01:30:00.66	17.58	26.80	-43.8	-44.8	20.3	0.00e+00	0	35	0	725614592	58	4225
2026-01-18 01:30:01.67	17.49	26.96	-43.9	-44.9	20.3	0.00e+00	0	35	0	728760320	58	4253
2026-01-18 01:30:02.67	17.39	27.12	-44.0	-45.0	20.2	0.00e+00	0	35	0	731906048	58	4302
2026-01-18 01:30:03.68	17.29	27.29	-44.1	-45.1	20.1	0.00e+00	0	35	0	735051776	58	4348
2026-01-18 01:30:04.69	17.19	27.45	-44.2	-45.2	20.0	0.00e+00	0	35	0	738197504	58	4432
2026-01-18 01:30:05.70	17.09	27.62	-44.2	-45.2	20.0	0.00e+00	0	35	0	741343232	59	4192
2026-01-18 01:30:06.71	16.98	27.79	-44.2	-45.2	20.0	0.00e+00	0	35	0	744488960	59	4184
2026-01-18 01:30:07.71	16.88	27.95	-44.4	-45.4	19.8	0.00e+00	0	35	0	747634688	59	4268
2026-01-18 01:30:08.72	16.77	28.12	-44.5	-45.5	19.7	0.00e+00	0	35	0	750780416	59	4324
2026-01-18 01:30:09.73	16.67	28.29	-44.6	-45.7	19.6	0.00e+00	0	35	0	753926144	59	4393
2026-01-18 01:30:10.74	16.56	28.46	-44.5	-45.6	19.6	0.00e+00	0	35	0	757071872	59	4356
2026-01-18 01:30:11.75	16.45	28.64	-44.6	-45.6	19.6	0.00e+00	0	35	0	760217600	59	4378
2026-01-18 01:30:12.76	16.34	28.81	-44.5	-45.6	19.7	0.00e+00	0	35	0	763363328	59	4364
2026-01-18 01:30:13.77	16.23	28.98	-44.4	-45.4	19.8	0.00e+00	0	35	0	766509056	59	4261
2026-01-18 01:30:14.77	16.12	29.16	-44.3	-45.3	20.0	0.00e+00	0	35	0	769654784	59	4199
2026-01-18 01:30:15.78	16.00	29.33	-44.1	-45.1	20.1	0.00e+00	0	35	0	772800512	59	4136
2026-01-18 01:30:16.79	15.89	29.51	-44.1	-45.1	20.2	0.00e+00	0	35	0	775946240	59	4114
2026-01-18 01:30:17.80	15.77	29.69	-44.0	-45.0	20.2	0.00e+00	0	35	0	779091968	59	4080
2026-01-18 01:30:18.81	15.65	29.87	-44.1	-45.0	20.2	0.00e+00	0	35	0	782237696	59	4089
2026-01-18 01:30:19.81	15.54	30.04	-43.8	-44.8	20.4	0.00e+00	0	35	0	785383424	59	3972
2026-01-18 01:30:20.82	15.42	30.22	-43.7	-44.6	20.6	0.00e+00	0	35	0	788529152	59	3885
2026-01-18 01:30:21.83	15.29	30.41	-43.6	-44.5	20.7	0.00e+00	0	35	0	791674880	59	3837
2026-01-18 01:30:22.84	15.17	30.59	-43.5	-44.4	20.8	0.00e+00	0	35	0	794820608	58	4005
2026-01-18 01:30:23.84	15.05	30.77	-43.6	-44.5	20.7	0.00e+00	0	35	0	797966336	58	4059
2026-01-18 01:30:24.85	14.92	30.95	-43.4	-44.3	20.9	0.00e+00	0	35	0	801112064	58	3978
2026-01-18 01:30:25.86	14.79	31.14	-43.4	-44.3	20.9	0.00e+00	0	35	0	804257792	58	3973
2026-01-18 01:30:26.87	14.66	31.33	-43.6	-44.5	20.7	0.00e+00	0	35	0	807403520	58	4078
2026-01-18 01:30:27.87	14.53	31.51	-43.6	-44.5	20.7	0.00e+00	0	35	0	810549248	58	4080
2026-01-18 01:30:28.88	14.40	31.70	-43.6	-44.5	20.7	0.00e+00	0	35	0	813694976	58	4096
2026-01-18 01:30:29.89	14.27	31.89	-43.8	-44.7	20.5	0.00e+00	0	35	0	816840704	58	4179
2026-01-18 01:30:30.90	14.13	32.08	-43.8	-44.8	20.4	0.00e+00	0	35	0	819986432	58	4223
2026-01-18 01:30:31.91	14.00	32.27	-43.8	-44.8	20.5	0.00e+00	0	35	0	823132160	58	4203
2026-01-18 01:30:32.92	13.86	32.47	-43.8	-44.8	20.5	0.00e+00	0	35	0	826277888	58	4202
2026-01-18 01:30:33.93	13.72	32.66	-43.9	-44.9	20.4	0.00e+00	0	35	0	829423616	58	4261
2026-01-18 01:30:34.94	13.57	32.86	-44.0	-44.9	20.3	0.00e+00	0	35	0	832569344	58	4283
2026-01-18 01:30:35.94	13.43	33.05	-43.9	-44.9	20.4	0.00e+00	0	35	0	835715072	58	4269
2026-01-18 01:30:36.95	13.28	33.25	-44.0	-44.9	20.3	0.00e+00	0	35	0	838860800	58	4280
2026-01-18 01:30:37.96	13.14	33.45	-44.0	-45.0	20.3	0.00e+00	0	35	0	842006528	58	4322
2026-01-18 01:30:38.97	12.99	33.64	-44.0	-45.0	20.3	0.00e+00	0	35	0	845152256	58	4319
2026-01-18 01:30:39.98	12.84	33.85	-44.2	-45.1	20.2	0.00e+00	0	35	0	848297984	58	4384
2026-01-18 01:30:40.99	12.68	34.05	-44.2	-45.3	20.1	0.00e+00	0	35	0	851443712	59	4194
2026-01-18 01:30:42.00	12.53	34.25	-44.4	-45.4	19.9	0.00e+00	0	35	0	854589440	59	4291
2026-01-18 01:30:43.00	12.37	34.45	-44.6	-45.6	19.8	0.00e+00	0	35	0	857735168	59	4369
2026-01-18 01:30:44.01	12.21	34.66	-44.6	-45.7	19.7	0.00e+00	0	35	0	860880896	59	4404
2026-01-18 01:30:45.02	12.05	34.86	-44.4	-45.4	19.7	0.00e+00	0	35	0	864026624	60	4035
2026-01-18 01:30:46.03	11.89	35.07	-44.5	-45.5	19.6	0.00e+00	0	35	0	867172352	60	4073
2026-01-18 01:30:47.04	11.72	35.28	-44.6	-45.7	19.4	0.00e+00	0	35	0	870318080	60	4160
2026-01-18 01:30:48.04	11.56	35.48	-44.8	-45.9	19.2	0.00e+00	0	35	0	873463808	60	4268
2026-01-18 01:30:49.05	11.39	35.69	-45.0	-46.1	19.0	0.00e+00	0	35	0	876609536	60	4365
2026-01-18 01:30:50.06	11.21	35.90	-45.3	-46.4	18.8	0.00e+00	0	35	0	879755264	61	4274
2026-01-18 01:30:51.07	11.04	36.12	-45.5	-46.7	18.6	0.00e+00	0	35	0	882900992	61	4393
2026-01-18 01:30:52.08	10.86	36.33	-45.5	-46.6	18.5	0.00e+00	0	35	0	886046720	61	4390
2026-01-18 01:30:53.08	10.68	36.54	-45.5	-46.7	18.5	0.00e+00	0	35	0	889192448	61	4402
2026-01-18 01:30:54.09	10.50	36.76	-45.6	-46.8	18.4	0.00e+00	0	35	0	892338176	61	4453
2026-01-18 01:30:55.10	10.32	36.97	-45.8	-47.0	18.2	0.00e+00	0	35	0	895483904	62	4313
2026-01-18 01:30:56.11	10.13	37.19	-45.9	-47.2	18.1	0.00e+00	0	35	0	898629632	62	4406
2026-01-18 01:30:57.12	9.94	37.41	-45.9	-47.2	18.1	0.00e+00	0	35	0	901775360	62	4417
2026-01-18 01:30:58.13	9.75	37.63	-46.0	-47.3	18.0	0.00e+00	0	35	0	904921088	62	4457
2026-01-18 01:30:59.14	9.56	37.85	-46.0	-47.3	18.0	0.00e+00	0	35	0	908066816	62	4456
2026-01-18 01:31:00.15	9.36	38.07	-46.0	-47.2	18.1	0.00e+00	0	35	0	911212544	62	4426
2026-01-18 01:31:01.16	9.16	38.30	-45.7	-46.9	18.4	0.00e+00	0	35	0	914358272	62	4264
2026-01-18 01:31:02.17	8.96	38.52	-45.7	-46.8	18.3	0.00e+00	0	35	0	917504000	62	4241
2026-01-18 01:31:03.17	8.75	38.74	-45.7	-46.9	18.3	0.00e+00	0	35	0	920649728	62	4254
2026-01-18 01:31:04.18	8.54	38.97	-45.9	-47.1	18.1	0.00e+00	0	35	0	923795456	62	4374
2026-01-18 01:31:05.19	8.33	39.20	-46.2	-47.5	17.8	0.00e+00	0	35	0	926941184	62	4589
2026-01-18 01:31:06.20	8.12	39.42	-46.3	-47.7	17.6	0.00e+00	0	35	0	930086912	63	4406
2026-01-18 01:31:07.20	7.90	39.65	-46.4	-47.8	17.5	0.00e+00	0	35	0	933232640	63	4478
2026-01-18 01:31:08.21	7.68	39.88	-46.1	-47.4	17.9	0.00e+00	0	35	0	936378368	63	4290
2026-01-18 01:31:09.22	7.46	40.11	-46.0	-47.3	18.0	0.00e+00	0	35	0	939524096	63	4215
2026-01-18 01:31:10.23	7.23	40.35	-45.8	-47.0	18.3	0.00e+00	0	35	0	942669824	63	4076
2026-01-18 01:31:11.24	7.00	40.58	-45.3	-46.5	18.8	0.00e+00	0	35	0	945815552	62	4071
2026-01-18 01:31:12.24	6.77	40.81	-45.2	-46.3	19.0	0.00e+00	0	35	0	948961280	62	3971
2026-01-18 01:31:13.25	6.53	41.05	-45.0	-46.0	19.2	0.00e+00	0	35	0	952107008	62	3863
2026-01-18 01:31:14.26	6.29	41.28	-44.9	-46.0	19.2	0.00e+00	0	35	0	955252736	61	4055
2026-01-18 01:31:15.27	6.04	41.52	-45.2	-46.3	18.9	0.00e+00	0	35	0	958398464	61	4232
2026-01-18 01:31:16.28	5.80	41.76	-45.4	-46.5	18.7	0.00e+00	0	35	0	961544192	61	4336
2026-01-18 01:31:17.29	5.54	42.00	-45.5	-46.7	18.6	0.00e+00	0	35	0	964689920	61	4430
2026-01-18 01:31:18.29	5.29	42.24	-45.6	-46.8	18.5	0.00e+00	0	35	0	967835648	61	4481
2026-01-18 01:31:19.30	5.03	42.48	-45.5	-46.7	18.6	0.00e+00	0	35	0	970981376	61	4408
2026-01-18 01:31:20.31	4.77	42.72	-45.7	-46.9	18.4	0.00e+00	0	35	0	974127104	61	4522
2026-01-18 01:31:21.32	4.50	42.96	-45.9	-47.1	18.2	0.00e+00	0	35	0	977272832	62	4366
2026-01-18 01:31:22.32	4.23	43.20	-46.0	-47.2	18.1	0.00e+00	0	35	0	980418560	62	4423
2026-01-18 01:31:23.33	3.95	43.45	-46.1	-47.4	17.9	0.00e+00	0	35	0	983564288	62	4511
2026-01-18 01:31:24.34	3.67	43.69	-46.3	-47.5	17.8	0.00e+00	0	35	0	986710016	63	4329
2026-01-18 01:31:25.35	3.39	43.94	-46.5	-47.8	17.5	0.00e+00	0	35	0	989855744	63	4475
2026-01-18 01:31:26.36	3.10	44.19	-46.4	-47.8	17.6	0.00e+00	0	35	0	993001472	63	4452
2026-01-18 01:31:27.37	2.81	44.43	-46.3	-47.6	17.8	0.00e+00	0	35	0	996147200	63	4367
2026-01-18 01:31:28.37	2.51	44.68	-46.2	-47.4	17.9	0.00e+00	0	35	0	999292928	63	4289
2026-01-18 01:31:29.38	2.21	44.93	-45.9	-47.1	18.3	0.00e+00	0	35	0	1002438656	63	4108
2026-01-18 01:31:30.39	1.90	45.18	-45.5	-46.6	18.7	0.00e+00	0	35	0	1005584384	62	4131
2026-01-18 01:31:31.40	1.59	45.43	-45.4	-46.5	18.8	0.00e+00	0	35	0	1008730112	62	4071
2026-01-18 01:31:32.40	1.27	45.68	-45.4	-46.6	18.7	0.00e+00	0	35	0	1011875840	62	4116
2026-01-18 01:31:33.41	0.95	45.93	-45.4	-46.5	18.8	0.00e+00	0	35	0	1015021568	62	4073
2026-01-18 01:31:34.42	0.62	46.18	-45.3	-46.5	18.8	0.00e+00	0	35	0	1018167296	62	4055
2026-01-18 01:31:35.42	0.29	46.43	-45.3	-46.4	18.9	0.00e+00	0	35	0	1021313024	62	4018
2026-01-18 01:31:36.43	359.95	46.68	-45.1	-46.2	19.0	0.00e+00	0	35	0	1024458752	62	3948
2026-01-18 01:31:37.44	359.60	46.93	-45.0	-46.1	19.1	0.00e+00	0	35	0	1027604480	61	4112
2026-01-18 01:31:38.45	359.25	47.19	-45.0	-46.1	19.0	0.00e+00	0	35	0	1030750208	61	4124
2026-01-18 01:31:39.46	358.90	47.44	-45.3	-46.4	18.7	0.00e+00	0	35	0	1033895936	61	4288
2026-01-18 01:31:40.47	358.54	47.70	-45.4	-46.5	18.7	0.00e+00	0	35	0	1037041664	61	4326
2026-01-18 01:31:41.47	358.17	47.95	-45.4	-46.6	18.7	0.00e+00	0	35	0	1040187392	61	4360
2026-01-18 01:31:42.48	357.80	48.20	-45.3	-46.5	18.8	0.00e+00	0	35	0	1043333120	61	4294
2026-01-18 01:31:43.49	357.42	48.46	-45.3	-46.5	18.9	0.00e+00	0	35	0	1046478848	61	4299
2026-01-18 01:31:44.50	357.03	48.71	-45.5	-46.6	18.7	0.00e+00	0	35	0	1049624576	61	4380
2026-01-18 01:31:45.51	356.64	48.97	-45.7	-46.8	18.5	0.00e+00	0	35	0	1052770304	61	4484
2026-01-18 01:31:46.51	356.24	49.22	-45.7	-46.9	18.4	0.00e+00	0	35	0	1055916032	61	4504
2026-01-18 01:31:47.52	355.83	49.47	-46.1	-47.4	17.9	0.00e+00	0	35	0	1059061760	62	4525
2026-01-18 01:31:48.53	355.42	49.73	-46.4	-47.8	17.6	0.00e+00	0	35	0	1062207488	63	4461
2026-01-18 01:31:49.54	355.00	49.98	-46.2	-47.6	17.7	0.00e+00	0	35	0	1065353216	63	4343
2026-01-18 01:31:50.55	354.57	50.24	-45.9	-47.1	18.2	0.00e+00	0	35	0	1069547520	63	4131
2026-01-18 01:31:51.55	354.14	50.49	-45.6	-46.8	18.6	0.00e+00	0	35	0	1071644672	63	3969
2026-01-18 01:31:52.56	353.70	50.74	-45.8	-47.0	18.5	0.00e+00	0	35	0	1074790400	63	4079
2026-01-18 01:31:53.57	353.25	50.99	-45.8	-47.0	18.4	0.00e+00	0	35	0	1077936128	63	4073
2026-01-18 01:31:54.58	352.79	51.25	-46.0	-47.3	18.1	0.00e+00	0	35	0	1081081856	63	4204
2026-01-18 01:31:55.59	352.32	51.50	-45.9	-47.2	18.2	0.00e+00	0	35	0	1084227584	63	4160
2026-01-18 01:31:56.60	351.85	51.75	-45.6	-46.7	18.6	0.00e+00	0	35	0	1087373312	63	3952
2026-01-18 01:31:57.60	351.37	52.00	-45.3	-46.4	19.0	0.00e+00	0	35	0	1090519040	62	4013
2026-01-18 01:31:58.61	350.88	52.24	-45.2	-46.3	19.1	0.00e+00	0	35	0	1093664768	62	3972
2026-01-18 01:31:59.62	350.38	52.49	-44.8	-45.9	19.4	0.00e+00	0	35	0	1096810496	61	4020
2026-01-18 01:32:00.63	349.88	52.74	-44.5	-45.6	19.8	0.00e+00	0	35	0	1099956224	61	3884
2026-01-18 01:32:01.64	349.36	52.99	-44.3	-45.3	20.0	0.00e+00	0	35	0	1103101952	60	3971
2026-01-18 01:32:02.64	348.84	53.23	-44.0	-44.9	20.3	0.00e+00	0	35	0	1107296256	60	3822
2026-01-18 01:32:03.65	348.31	53.47	-44.2	-45.1	20.4	0.00e+00	0	35	0	1110441984	59	4142
2026-01-18 01:32:04.66	347.77	53.72	-44.1	-45.1	20.4	0.00e+00	0	35	0	1113587712	59	4116
2026-01-18 01:32:05.67	347.22	53.96	-44.3	-45.3	20.1	0.00e+00	0	35	0	1116733440	59	4228
2026-01-18 01:32:06.68	346.65	54.20	-44.6	-45.6	20.0	0.00e+00	0	35	0	1119879168	59	4361
2026-01-18 01:32:07.68	346.09	54.43	-44.5	-45.5	20.0	0.00e+00	0	35	0	1121976320	59	4338
2026-01-18 01:32:08.69	345.51	54.67	-44.5	-45.5	20.1	0.00e+00	0	35	0	1125122048	59	4331
2026-01-18 01:32:09.70	344.92	54.90	-44.3	-45.2	20.3	0.00e+00	0	35	0	1128267776	59	4179
2026-01-18 01:32:10.71	344.32	55.13	-44.3	-45.3	20.2	0.00e+00	0	35	0	1131413504	59	4209
2026-01-18 01:32:11.72	343.71	55.36	-44.5	-45.5	20.0	0.00e+00	0	35	0	1134559232	59	4318
2026-01-18 01:32:12.73	343.09	55.59	-44.5	-45.5	19.8	0.00e+00	0	35	0	1137704960	60	4080
2026-01-18 01:32:13.74	342.47	55.81	-44.4	-45.4	19.9	0.00e+00	0	35	0	1140850688	60	4012
2026-01-18 01:32:14.75	341.83	56.04	-44.3	-45.2	20.3	0.00e+00	0	35	0	1145044992	59	4188
2026-01-18 01:32:15.75	341.18	56.25	-44.0	-44.9	20.4	0.00e+00	0	35	0	1148190720	59	4041
2026-01-18 01:32:16.76	340.52	56.47	-44.1	-45.0	20.2	0.00e+00	0	35	0	1151336448	59	4088
2026-01-18 01:32:17.77	339.85	56.68	-43.8	-44.8	20.5	0.00e+00	0	35	0	1154482176	59	3964
2026-01-18 01:32:18.78	339.17	56.90	-43.8	-44.7	20.7	0.00e+00	0	35	0	1157627904	59	3956
2026-01-18 01:32:19.79	338.48	57.10	-43.9	-44.8	20.7	0.00e+00	0	35	0	1160773632	59	3995
2026-01-18 01:32:20.79	337.79	57.31	-43.8	-44.7	20.8	0.00e+00	0	35	0	1163919360	59	3956
2026-01-18 01:32:21.80	337.07	57.51	-44.0	-44.9	20.6	0.00e+00	0	35	0	1167065088	59	4029
2026-01-18 01:32:22.81	336.35	57.70	-44.2	-45.2	20.3	0.00e+00	0	35	0	1169162240	59	4157
2026-01-18 01:32:23.82	335.62	57.90	-44.0	-45.0	20.5	0.00e+00	0	35	0	1172307968	59	4077
2026-01-18 01:32:24.83	334.87	58.09	-43.7	-44.7	20.8	0.00e+00	0	35	0	1175453696	59	3923
2026-01-18 01:32:25.83	334.13	58.27	-43.4	-44.3	21.1	0.00e+00	0	35	0	1178599424	58	3991
2026-01-18 01:32:26.84	333.36	58.45	-43.2	-44.1	21.4	0.00e+00	0	35	0	1182793728	58	3884
2026-01-18 01:32:27.85	332.59	58.63	-43.3	-44.2	21.2	0.00e+00	0	35	0	1185939456	58	3950
2026-01-18 01:32:28.86	331.80	58.80	-43.6	-44.5	21.0	0.00e+00	0	35	0	1189085184	58	4078
2026-01-18 01:32:29.86	331.01	58.97	-43.6	-44.5	21.1	0.00e+00	0	35	0	1192230912	58	4072
2026-01-18 01:32:30.87	330.21	59.13	-43.5	-44.4	21.0	0.00e+00	0	35	0	1195376640	58	4044
2026-01-18 01:32:31.88	329.39	59.29	-43.5	-44.4	21.0	0.00e+00	0	35	0	1198522368	58	4028
2026-01-18 01:32:32.89	328.56	59.45	-43.4	-44.2	21.2	0.00e+00	0	35	0	1201668096	58	3955
2026-01-18 01:32:33.90	327.73	59.60	-43.2	-44.1	21.2	0.00e+00	0	35	0	1204813824	58	3869
2026-01-18 01:32:34.91	326.88	59.74	-43.3	-44.2	21.2	0.00e+00	0	35	0	1207959552	58	3937
2026-01-18 01:32:35.91	326.04	59.88	-43.6	-44.5	20.9	0.00e+00	0	35	0	1211105280	58	4075
2026-01-18 01:32:36.92	325.17	60.01	-43.4	-44.2	21.2	0.00e+00	0	35	0	1214251008	58	3948
2026-01-18 01:32:37.93	324.30	60.13	-43.3	-44.2	21.3	0.00e+00	0	35	0	1216348160	58	3915
2026-01-18 01:32:38.94	323.42	60.26	-43.0	-43.9	21.5	0.00e+00	0	35	0	1219493888	58	3787
2026-01-18 01:32:39.94	322.54	60.37	-43.0	-43.8	21.6	0.00e+00	0	35	0	1223688192	57	3978
2026-01-18 01:32:40.95	321.64	60.48	-43.0	-43.9	21.5	0.00e+00	0	35	0	1226833920	57	4012
2026-01-18 01:32:41.96	320.74	60.58	-43.1	-43.9	21.5	0.00e+00	0	35	0	1229979648	57	4042
2026-01-18 01:32:42.97	319.83	60.68	-43.0	-43.9	21.4	0.00e+00	0	35	0	1233125376	57	4020
2026-01-18 01:32:43.98	318.91	60.77	-43.2	-44.1	21.3	0.00e+00	0	35	0	1236271104	57	4121
2026-01-18 01:32:44.99	317.98	60.85	-43.2	-44.1	21.4	0.00e+00	0	35	0	1239416832	57	4103
2026-01-18 01:32:45.99	317.06	60.93	-43.2	-44.1	21.4	0.00e+00	0	35	0	1242562560	57	4112
2026-01-18 01:32:47.00	316.13	61.00	-42.9	-43.8	21.7	0.00e+00	0	35	0	1245708288	57	3976
2026-01-18 01:32:48.01	315.18	61.06	-43.0	-43.9	21.5	0.00e+00	0	35	0	1248854016	57	4022
2026-01-18 01:32:49.02	314.24	61.12	-43.2	-44.0	21.4	0.00e+00	0	35	0	1251999744	57	4088
2026-01-18 01:32:50.02	313.30	61.17	-43.4	-44.2	21.3	0.00e+00	0	35	0	1255145472	57	4193
2026-01-18 01:32:51.03	312.34	61.22	-42.8	-43.6	21.8	0.00e+00	0	35	0	1258291200	57	3912
2026-01-18 01:32:52.04	311.39	61.25	-42.7	-43.5	21.9	0.00e+00	0	35	0	1261436928	57	3841
2026-01-18 01:32:53.05	310.43	61.28	-42.9	-43.7	21.7	0.00e+00	0	35	0	1264582656	57	3956
2026-01-18 01:32:54.06	309.47	61.30	-42.9	-43.8	21.6	0.00e+00	0	35	0	1267728384	57	3961
2026-01-18 01:32:55.06	308.51	61.32	-42.6	-43.4	21.9	0.00e+00	0	35	0	1270874112	57	3817
2026-01-18 01:32:56.07	307.55	61.33	-42.7	-43.5	21.9	0.00e+00	0	35	0	1274019840	57	3864
2026-01-18 01:32:57.08	306.59	61.33	-42.8	-43.7	21.8	0.00e+00	0	35	0	1277165568	57	3920
2026-01-18 01:32:58.09	305.62	61.32	-43.1	-44.0	21.4	0.00e+00	0	35	0	1280311296	57	4067
2026-01-18 01:32:59.10	304.66	61.31	-42.9	-43.7	21.8	0.00e+00	0	35	0	1283457024	57	3929
2026-01-18 01:33:00.10	303.71	61.29	-42.8	-43.6	21.8	0.00e+00	0	35	0	1286602752	57	3911
2026-01-18 01:33:01.11	302.74	61.27	-43.1	-43.9	21.5	0.00e+00	0	35	0	1289748480	57	4048
2026-01-18 01:33:02.12	301.79	61.23	-43.4	-44.3	21.2	0.00e+00	0	35	0	1292894208	57	4221
2026-01-18 01:33:03.13	300.83	61.19	-43.0	-43.9	21.5	0.00e+00	0	35	0	1296039936	57	4019
2026-01-18 01:33:04.14	299.88	61.14	-42.9	-43.7	21.7	0.00e+00	0	35	0	1299185664	57	3931
2026-01-18 01:33:05.15	298.93	61.09	-43.0	-43.9	21.6	0.00e+00	0	35	0	1302331392	57	4027
2026-01-18 01:33:06.15	298.00	61.03	-43.7	-44.7	20.9	0.00e+00	0	35	0	1305477120	58	4147
2026-01-18 01:33:07.16	297.06	60.96	-43.6	-44.6	21.0	0.00e+00	0	35	0	1308622848	58	4105
2026-01-18 01:33:08.17	296.13	60.89	-43.6	-44.5	21.0	0.00e+00	0	35	0	1311768576	58	4058
2026-01-18 01:33:09.18	295.20	60.80	-43.7	-44.6	21.0	0.00e+00	0	35	0	1314914304	58	4112
2026-01-18 01:33:10.19	294.28	60.72	-43.7	-44.6	20.6	0.00e+00	0	35	0	1318060032	58	4136
2026-01-18 01:33:11.19	293.37	60.62	-43.8	-44.8	20.7	0.00e+00	0	35	0	1321205760	58	4209
2026-01-18 01:33:12.20	292.46	60.52	-43.7	-44.6	20.9	0.00e+00	0	35	0	1324351488	58	4144
2026-01-18 01:33:13.21	291.56	60.42	-43.8	-44.8	20.8	0.00e+00	0	35	0	1327497216	58	4197
2026-01-18 01:33:14.22	290.67	60.30	-43.8	-44.8	20.7	0.00e+00	0	35	0	1330642944	58	4200
2026-01-18 01:33:15.23	289.78	60.18	-43.6	-44.6	20.8	0.00e+00	0	35	0	1333788672	58	4104
2026-01-18 01:33:16.23	288.92	60.06	-43.4	-44.3	21.1	0.00e+00	0	35	0	1336934400	58	3995
2026-01-18 01:33:17.24	288.05	59.93	-43.4	-44.3	21.2	0.00e+00	0	35	0	1340080128	58	3972
2026-01-18 01:33:18.25	287.19	59.79	-43.4	-44.3	21.1	0.00e+00	0	35	0	1343225856	58	4001
2026-01-18 01:33:19.25	286.35	59.65	-43.5	-44.3	21.2	0.00e+00	0	35	0	1346371584	58	4001
2026-01-18 01:33:20.26	285.51	59.51	-43.6	-44.5	21.0	0.00e+00	0	35	0	1349517312	58	4078
2026-01-18 01:33:21.27	284.68	59.36	-44.0	-45.0	20.6	0.00e+00	0	35	0	1352663040	58	4296
2026-01-18 01:33:22.28	283.86	59.20	-44.6	-45.6	19.9	0.00e+00	0	35	0	1355808768	59	4369
2026-01-18 01:33:23.29	283.04	59.04	-44.2	-45.2	20.0	0.00e+00	0	35	0	1358954496	60	3956
2026-01-18 01:33:24.30	282.24	58.87	-44.2	-45.2	20.4	0.00e+00	0	35	0	1362100224	59	4149
2026-01-18 01:33:25.31	281.45	58.70	-43.9	-44.8	20.7	0.00e+00	0	35	0	1365245952	59	3975
2026-01-18 01:33:26.32	280.67	58.52	-43.5	-44.4	21.1	0.00e+00	0	35	0	1368391680	59	3797
2026-01-18 01:33:27.33	279.90	58.34	-43.7	-44.6	20.9	0.00e+00	0	35	0	1371537408	58	4143
2026-01-18 01:33:28.33	279.15	58.16	-44.2	-45.2	20.3	0.00e+00	0	35	0	1374683136	58	4401
2026-01-18 01:33:29.34	278.40	57.97	-44.5	-45.5	20.2	0.00e+00	0	35	0	1377828864	59	4301
2026-01-18 01:33:30.35	277.66	57.78	-44.7	-45.7	20.0	0.00e+00	0	35	0	1380974592	59	4411
2026-01-18 01:33:31.36	276.93	57.58	-44.3	-45.3	20.3	0.00e+00	0	35	0	1384120320	59	4208
2026-01-18 01:33:32.36	276.22	57.39	-44.2	-45.2	20.4	0.00e+00	0	35	0	1387266048	59	4153
2026-01-18 01:33:33.37	275.52	57.18	-44.2	-45.1	20.4	0.00e+00	0	35	0	1390411776	59	4129
2026-01-18 01:33:34.38	274.82	56.98	-44.2	-45.1	20.4	0.00e+00	0	35	0	1393557504	59	4141
2026-01-18 01:33:35.39	274.14	56.77	-44.5	-45.4	20.2	0.00e+00	0	35	0	1396703232	59	4279
2026-01-18 01:33:36.40	273.46	56.55	-44.9	-46.0	19.3	0.00e+00	0	35	0	1399848960	60	4327
2026-01-18 01:33:37.41	272.79	56.34	-45.2	-46.3	19.0	0.00e+00	0	35	0	1402994688	61	4231
2026-01-18 01:33:38.41	272.15	56.12	-44.1	-45.1	20.1	0.00e+00	0	35	0	1406140416	60	3891
2026-01-18 01:33:39.42	271.50	55.90	-43.7	-44.6	20.8	0.00e+00	0	35	0	1409286144	59	3884
2026-01-18 01:33:40.43	270.87	55.67	-43.9	-44.8	20.7	0.00e+00	0	35	0	1412431872	59	4002
2026-01-18 01:33:41.43	270.25	55.45	-44.6	-45.7	19.7	0.00e+00	0	35	0	1415577600	60	4159
2026-01-18 01:33:42.44	269.64	55.22	-45.6	-46.8	18.6	0.00e+00	0	35	0	1418723328	61	4484
2026-01-18 01:33:43.45	269.03	54.99	-45.5	-46.7	18.8	0.00e+00	0	35	0	1421869056	62	4171
2026-01-18 01:33:44.46	268.44	54.76	-45.0	-46.0	19.3	0.00e+00	0	35	0	1425014784	62	3863
2026-01-18 01:33:45.47	267.85	54.52	-44.7	-45.7	19.4	0.00e+00	0	35	0	1428160512	61	3947
2026-01-18 01:33:46.47	267.29	54.29	-44.3	-45.3	19.8	0.00e+00	0	35	0	1431306240	60	3980
2026-01-18 01:33:47.48	266.72	54.05	-44.0	-44.9	20.2	0.00e+00	0	35	0	1434451968	60	3822
2026-01-18 01:33:48.49	266.16	53.81	-44.3	-45.3	20.3	0.00e+00	0	35	0	1437597696	59	4205
2026-01-18 01:33:49.50	265.62	53.56	-44.7	-45.7	19.6	0.00e+00	0	35	0	1440743424	60	4184
2026-01-18 01:33:50.51	265.08	53.32	-45.7	-46.9	18.5	0.00e+00	0	35	0	1443889152	61	4498
2026-01-18 01:33:51.51	264.56	53.08	-45.7	-46.9	18.5	0.00e+00	0	35	0	1447034880	62	4266
2026-01-18 01:33:52.52	264.04	52.83	-44.9	-46.0	19.2	0.00e+00	0	35	0	1450180608	61	4079
2026-01-18 01:33:53.52	263.53	52.59	-44.8	-45.9	19.5	0.00e+00	0	35	0	1453326336	61	4005
2026-01-18 01:33:54.53	263.03	52.34	-44.4	-45.3	19.9	0.00e+00	0	35	0	1456472064	60	3993
2026-01-18 01:33:55.54	262.53	52.09	-44.1	-45.1	20.1	0.00e+00	0	35	0	1459617792	60	3876
2026-01-18 01:33:56.54	262.05	51.84	-44.1	-45.0	20.2	0.00e+00	0	35	0	1462763520	60	3851
2026-01-18 01:33:57.55	261.57	51.59	-44.3	-45.3	20.0	0.00e+00	0	35	0	1465909248	60	3977
2026-01-18 01:33:58.56	261.11	51.34	-44.7	-45.7	19.7	0.00e+00	0	35	0	1469054976	60	4170
2026-01-18 01:33:59.57	260.64	51.08	-45.1	-46.2	19.1	0.00e+00	0	35	0	1472200704	60	4410
2026-01-18 01:34:00.58	260.19	50.83	-45.1	-46.2	18.9	0.00e+00	0	35	0	1475346432	61	4157
2026-01-18 01:34:01.59	259.74	50.58	-44.6	-45.6	19.5	0.00e+00	0	35	0	1478492160	61	3871
2026-01-18 01:34:02.60	259.30	50.32	-44.3	-45.3	19.8	0.00e+00	0	35	0	1481637888	60	3976
2026-01-18 01:34:03.61	258.87	50.07	-44.2	-45.2	20.0	0.00e+00	0	35	0	1484783616	60	3929
2026-01-18 01:34:04.61	258.45	49.82	-44.9	-46.0	19.3	0.00e+00	0	35	0	1487929344	60	4294
2026-01-18 01:34:05.62	258.03	49.56	-45.9	-47.1	18.2	0.00e+00	0	35	0	1491075072	62	4362
2026-01-18 01:34:06.63	257.62	49.30	-46.5	-47.8	17.7	0.00e+00	0	35	0	1494220800	63	4470
2026-01-18 01:34:07.64	257.22	49.05	-46.7	-48.1	17.3	0.00e+00	0	35	0	1497366528	64	4371
2026-01-18 01:34:08.65	256.82	48.79	-46.6	-48.1	17.3	0.00e+00	0	35	0	1500512256	64	4351
2026-01-18 01:34:09.66	256.43	48.54	-46.3	-47.7	17.6	0.00e+00	0	35	0	1503657984	64	4147
2026-01-18 01:34:10.67	256.05	48.28	-45.6	-46.8	18.3	0.00e+00	0	35	0	1506803712	63	4001
2026-01-18 01:34:11.68	255.67	48.03	-45.0	-46.1	19.1	0.00e+00	0	35	0	1509949440	62	3896
2026-01-18 01:34:12.69	255.30	47.77	-45.0	-46.1	19.2	0.00e+00	0	35	0	1513095168	61	4109
2026-01-18 01:34:13.69	254.94	47.52	-44.6	-45.6	19.5	0.00e+00	0	35	0	1516240896	61	3906
2026-01-18 01:34:14.70	254.58	47.27	-45.2	-46.3	18.7	0.00e+00	0	35	0	1519386624	61	4208
2026-01-18 01:34:15.71	254.23	47.01	-46.5	-47.8	17.2	0.00e+00	0	35	0	1522532352	63	4493
2026-01-18 01:34:16.72	253.88	46.76	-47.5	-49.1	16.0	0.00e+00	0	35	0	1525678080	65	4647
2026-01-18 01:34:17.73	253.54	46.50	-47.5	-49.1	16.2	0.00e+00	0	35	0	1528823808	66	4374
2026-01-18 01:34:18.73	253.20	46.25	-46.9	-48.3	17.0	0.00e+00	0	35	0	1531969536	65	4216
2026-01-18 01:34:19.74	252.87	46.00	-46.4	-47.8	17.5	0.00e+00	0	35	0	1535115264	64	4207
2026-01-18 01:34:20.75	252.55	45.75	-46.5	-47.8	17.4	0.00e+00	0	35	0	1538260992	64	4236
2026-01-18 01:34:21.76	252.23	45.50	-46.0	-47.2	18.2	0.00e+00	0	35	0	1541406720	63	4158
2026-01-18 01:34:22.77	251.91	45.25	-45.2	-46.3	19.0	0.00e+00	0	35	0	1544552448	62	3978
2026-01-18 01:34:23.77	251.60	45.00	-44.7	-45.7	19.5	0.00e+00	0	35	0	1547698176	61	3930
2026-01-18 01:34:24.78	251.30	44.75	-44.8	-45.8	19.4	0.00e+00	0	35	0	1550843904	61	3994
2026-01-18 01:34:25.79	251.00	44.50	-45.3	-46.4	18.7	0.00e+00	0	35	0	1553989632	61	4290
2026-01-18 01:34:26.80	250.70	44.25	-46.5	-47.9	17.5	0.00e+00	0	35	0	1557135360	63	4505
2026-01-18 01:34:27.80	250.41	44.01	-47.3	-49.0	16.3	0.00e+00	0	35	0	1560281088	65	4548
2026-01-18 01:34:28.81	250.12	43.76	-47.3	-48.9	15.6	0.00e+00	0	35	0	1563426816	65	4515
2026-01-18 01:34:29.82	249.84	43.51	-46.7	-48.1	16.1	0.00e+00	0	35	0	1566572544	65	4114
2026-01-18 01:34:30.83	249.56	43.27	-46.6	-47.9	16.7	0.00e+00	0	35	0	1569718272	64	4269
2026-01-18 01:34:31.83	249.29	43.02	-46.3	-47.6	17.4	0.00e+00	0	35	0	1572864000	64	4101
2026-01-18 01:34:32.84	249.02	42.78	-46.4	-47.7	17.4	0.00e+00	0	35	0	1576009728	64	4180
2026-01-18 01:34:33.85	248.76	42.54	-46.6	-48.0	17.1	0.00e+00	0	35	0	1579155456	64	4330
2026-01-18 01:34:34.86	248.49	42.30	-46.5	-47.9	17.1	0.00e+00	0	35	0	1582301184	64	4267
2026-01-18 01:34:35.87	248.24	42.05	-46.7	-48.1	17.1	0.00e+00	0	35	0	1585446912	64	4354
2026-01-18 01:34:36.87	247.98	41.82	-46.4	-47.7	17.5	0.00e+00	0	35	0	1588592640	64	4174
2026-01-18 01:34:37.88	247.73	41.58	-46.2	-47.5	17.7	0.00e+00	0	35	0	1591738368	64	4091
2026-01-18 01:34:38.89	247.49	41.34	-46.1	-47.4	17.9	0.00e+00	0	35	0	1594884096	64	4020
2026-01-18 01:34:39.90	247.24	41.10	-45.9	-47.1	18.2	0.00e+00	0	35	0	1598029824	63	4137
2026-01-18 01:34:40.91	247.01	40.87	-45.8	-47.0	18.4	0.00e+00	0	35	0	1601175552	63	4052
2026-01-18 01:34:41.91	246.77	40.63	-45.6	-46.8	18.5	0.00e+00	0	35	0	1604321280	63	3991
2026-01-18 01:34:42.92	246.54	40.40	-45.4	-46.5	18.6	0.00e+00	0	35	0	1607467008	62	4096
2026-01-18 01:34:43.93	246.31	40.16	-44.9	-46.0	19.2	0.00e+00	0	35	0	1610612736	61	4054
2026-01-18 01:34:44.94	246.08	39.93	-44.8	-45.8	19.4	0.00e+00	0	35	0	1613758464	61	3971
2026-01-18 01:34:45.94	245.86	39.70	-44.6	-45.6	19.6	0.00e+00	0	35	0	1616904192	61	3895
2026-01-18 01:34:46.95	245.64	39.47	-44.9	-46.0	19.3	0.00e+00	0	35	0	1620049920	61	4053
2026-01-18 01:34:47.96	245.43	39.24	-45.6	-46.8	18.5	0.00e+00	0	35	0	1623195648	61	4453
2026-01-18 01:34:48.97	245.21	39.01	-46.3	-47.6	17.8	0.00e+00	0	35	0	1626341376	63	4358
2026-01-18 01:34:49.98	245.00	38.79	-46.7	-48.2	17.1	0.00e+00	0	35	0	1629487104	64	4426
2026-01-18 01:34:50.99	244.80	38.56	-46.8	-48.3	17.0	0.00e+00	0	35	0	1632632832	64	4460
2026-01-18 01:34:51.99	244.60	38.34	-46.3	-47.7	17.6	0.00e+00	0	35	0	1635778560	64	4157
2026-01-18 01:34:53.00	244.39	38.11	-45.9	-47.1	18.2	0.00e+00	0	35	0	1638924288	63	4128
2026-01-18 01:34:54.01	244.19	37.89	-45.8	-47.0	18.3	0.00e+00	0	35	0	1642070016	63	4080
2026-01-18 01:34:55.02	244.00	37.67	-45.2	-46.4	18.9	0.00e+00	0	35	0	1645215744	62	4012
2026-01-18 01:34:56.03	243.81	37.45	-44.8	-45.9	19.3	0.00e+00	0	35	0	1648361472	61	4027
2026-01-18 01:34:57.04	243.61	37.23	-44.8	-45.9	19.4	0.00e+00	0	35	0	1651507200	61	4016
2026-01-18 01:34:58.05	243.43	37.01	-44.6	-45.7	19.6	0.00e+00	0	35	0	1654652928	61	3923
2026-01-18 01:34:59.05	243.24	36.79	-44.6	-45.7	19.5	0.00e+00	0	35	0	1657798656	61	3922
2026-01-18 01:35:00.06	243.06	36.58	-44.5	-45.6	19.5	0.00e+00	0	35	0	1660944384	61	3875
2026-01-18 01:35:01.07	242.88	36.36	-44.6	-45.7	19.2	0.00e+00	0	35	0	1664090112	61	3935
2026-01-18 01:35:02.08	242.70	36.15	-44.3	-45.3	19.5	0.00e+00	0	35	0	1667235840	60	3983
2026-01-18 01:35:03.09	242.52	35.93	-44.2	-45.2	19.7	0.00e+00	0	35	0	1670381568	60	3918
2026-01-18 01:35:04.09	242.35	35.72	-44.3	-45.3	19.7	0.00e+00	0	35	0	1673527296	60	3965
2026-01-18 01:35:05.10	242.18	35.51	-44.5	-45.5	19.5	0.00e+00	0	35	0	1676673024	60	4083
2026-01-18 01:35:06.11	242.01	35.30	-44.6	-45.7	19.4	0.00e+00	0	35	0	1679818752	60	4151
2026-01-18 01:35:07.12	241.85	35.09	-44.7	-45.7	19.4	0.00e+00	0	35	0	1682964480	60	4177
2026-01-18 01:35:08.13	241.68	34.89	-44.6	-45.6	19.5	0.00e+00	0	35	0	1686110208	60	4126
2026-01-18 01:35:09.13	241.52	34.68	-44.7	-45.7	19.4	0.00e+00	0	35	0	1689255936	60	4173
2026-01-18 01:35:10.14	241.36	34.48	-44.1	-45.1	20.0	0.00e+00	0	35	0	1692401664	60	3872
2026-01-18 01:35:11.15	241.20	34.27	-44.2	-45.2	20.2	0.00e+00	0	35	0	1695547392	59	4160
2026-01-18 01:35:12.16	241.04	34.07	-44.0	-45.0	20.4	0.00e+00	0	35	0	1698693120	59	4075
2026-01-18 01:35:13.17	240.89	33.87	-44.1	-45.0	20.3	0.00e+00	0	35	0	1701838848	59	4089
2026-01-18 01:35:14.17	240.74	33.67	-44.2	-45.2	20.2	0.00e+00	0	35	0	1704984576	59	4173
2026-01-18 01:35:15.18	240.59	33.47	-44.4	-45.5	19.9	0.00e+00	0	35	0	1708130304	59	4293
2026-01-18 01:35:16.19	240.44	33.27	-44.4	-45.4	19.7	0.00e+00	0	35	0	1711276032	60	4034
2026-01-18 01:35:17.20	240.29	33.07	-44.4	-45.4	19.7	0.00e+00	0	35	0	1714421760	60	4046
2026-01-18 01:35:18.20	240.15	32.87	-44.4	-45.4	19.7	0.00e+00	0	35	0	1717567488	60	4047
2026-01-18 01:35:19.21	240.00	32.68	-44.4	-45.4	19.7	0.00e+00	0	35	0	1720713216	60	4032
2026-01-18 01:35:20.22	239.86	32.48	-44.2	-45.2	20.0	0.00e+00	0	35	0	1723858944	60	3920
2026-01-18 01:35:21.23	239.72	32.29	-44.2	-45.2	19.9	0.00e+00	0	35	0	1727004672	60	3931
2026-01-18 01:35:22.24	239.58	32.10	-44.1	-45.1	20.2	0.00e+00	0	35	0	1730150400	59	4129
2026-01-18 01:35:23.24	239.45	31.91	-44.0	-44.9	20.3	0.00e+00	0	35	0	1733296128	59	4041
2026-01-18 01:35:24.25	239.31	31.72	-43.9	-44.9	20.4	0.00e+00	0	35	0	1736441856	59	4023
2026-01-18 01:35:25.26	239.18	31.53	-43.8	-44.8	20.5	0.00e+00	0	35	0	1739587584	59	3959
2026-01-18 01:35:26.27	239.05	31.34	-43.8	-44.7	20.6	0.00e+00	0	35	0	1742733312	59	3932
2026-01-18 01:35:27.28	238.92	31.15	-43.8	-44.7	20.6	0.00e+00	0	35	0	1745879040	59	3936
2026-01-18 01:35:28.29	238.79	30.96	-43.8	-44.7	20.6	0.00e+00	0	35	0	1749024768	59	3953
2026-01-18 01:35:29.30	238.66	30.78	-43.9	-44.8	20.5	0.00e+00	0	35	0	1752170496	59	3980
2026-01-18 01:35:30.30	238.54	30.59	-43.9	-44.9	20.4	0.00e+00	0	35	0	1755316224	59	4018
2026-01-18 01:35:31.31	238.41	30.41	-43.9	-44.9	20.5	0.00e+00	0	35	0	1758461952	59	4015
2026-01-18 01:35:32.32	238.29	30.23	-43.9	-44.9	20.4	0.00e+00	0	35	0	1761607680	59	4022
2026-01-18 01:35:33.33	238.17	30.05	-43.9	-44.9	20.4	0.00e+00	0	35	0	1764753408	59	4029
2026-01-18 01:35:34.34	238.05	29.87	-44.0	-45.0	20.4	0.00e+00	0	35	0	1767899136	59	4071
2026-01-18 01:35:35.35	237.93	29.69	-44.1	-45.1	20.3	0.00e+00	0	35	0	1771044864	59	4101
2026-01-18 01:35:36.35	237.81	29.51	-44.1	-45.1	20.3	0.00e+00	0	35	0	1774190592	59	4114
2026-01-18 01:35:37.36	237.70	29.33	-44.0	-45.0	20.3	0.00e+00	0	35	0	1777336320	59	4079
2026-01-18 01:35:38.37	237.58	29.16	-44.1	-45.1	20.2	0.00e+00	0	35	0	1780482048	59	4122
2026-01-18 01:35:39.38	237.47	28.98	-44.2	-45.2	20.2	0.00e+00	0	35	0	1783627776	59	4154
2026-01-18 01:35:40.39	237.36	28.81	-44.3	-45.3	20.0	0.00e+00	0	35	0	1786773504	59	4221
2026-01-18 01:35:41.39	237.25	28.63	-44.4	-45.4	19.9	0.00e+00	0	35	0	1789919232	59	4269
2026-01-18 01:35:42.40	237.14	28.46	-44.4	-45.4	19.9	0.00e+00	0	35	0	1793064960	59	4286
2026-01-18 01:35:43.41	237.03	28.29	-44.4	-45.4	19.9	0.00e+00	0	35	0	1796210688	59	4279
2026-01-18 01:35:44.42	236.92	28.12	-44.4	-45.5	19.9	0.00e+00	0	35	0	1799356416	59	4319
2026-01-18 01:35:45.42	236.82	27.95	-44.3	-45.3	20.0	0.00e+00	0	35	0	1802502144	59	4216
2026-01-18 01:35:46.43	236.71	27.78	-44.1	-45.1	20.2	0.00e+00	0	35	0	1805647872	59	4145
2026-01-18 01:35:47.44	236.61	27.61	-44.1	-45.1	20.2	0.00e+00	0	35	0	1809842176	59	4130
2026-01-18 01:35:48.45	236.51	27.44	-44.0	-45.0	20.3	0.00e+00	0	35	0	1812987904	59	4063
2026-01-18 01:35:49.46	236.40	27.28	-43.9	-44.9	20.4	0.00e+00	0	35	0	1815085056	59	4018
2026-01-18 01:35:50.46	236.30	27.11	-44.0	-45.0	20.3	0.00e+00	0	35	0	1818230784	59	4057
2026-01-18 01:35:51.47	236.20	26.95	-43.6	-44.6	20.6	0.00e+00	0	35	0	1821376512	59	3894
2026-01-18 01:35:52.48	236.11	26.79	-43.4	-44.3	20.9	0.00e+00	0	35	0	1824522240	58	3984
2026-01-18 01:35:53.49	236.01	26.62	-43.4	-44.3	20.9	0.00e+00	0	35	0	1827667968	58	3976
2026-01-18 01:35:54.49	235.91	26.46	-43.4	-44.3	20.9	0.00e+00	0	35	0	1830813696	58	3998
2026-01-18 01:35:55.50	235.82	26.30	-43.4	-44.3	20.8	0.00e+00	0	35	0	1833959424	58	3991
2026-01-18 01:35:56.50	235.72	26.14	-42.9	-43.8	21.2	0.00e+00	0	35	0	1837105152	57	3975
2026-01-18 01:35:57.51	235.63	25.98	-42.8	-43.7	21.3	0.00e+00	0	35	0	1840250880	57	3917
2026-01-18 01:35:58.52	235.54	25.83	-42.7	-43.6	21.4	0.00e+00	0	35	0	1843396608	57	3887
2026-01-18 01:35:59.53	235.45	25.67	-42.8	-43.6	21.4	0.00e+00	0	35	0	1846542336	57	3906
2026-01-18 01:36:00.54	235.36	25.51	-42.8	-43.7	21.4	0.00e+00	0	35	0	1849688064	57	3915
2026-01-18 01:36:01.54	235.27	25.36	-42.8	-43.6	21.4	0.00e+00	0	35	0	1853882368	57	3906
2026-01-18 01:36:02.55	235.18	25.20	-42.9	-43.7	21.3	0.00e+00	0	35	0	1857028096	57	3950
2026-01-18 01:36:03.56	235.09	25.05	-42.9	-43.7	21.3	0.00e+00	0	35	0	1860173824	57	3955
2026-01-18 01:36:04.57	235.00	24.89	-42.8	-43.7	21.4	0.00e+00	0	35	0	1862270976	57	3920
2026-01-18 01:36:05.58	234.92	24.74	-42.9	-43.8	21.3	0.00e+00	0	35	0	1865416704	57	3971
2026-01-18 01:36:06.58	234.83	24.59	-43.0	-43.9	21.1	0.00e+00	0	35	0	1868562432	57	4030
2026-01-18 01:36:07.59	234.75	24.44	-43.2	-44.1	21.0	0.00e+00	0	35	0	1871708160	57	4112
2026-01-18 01:36:08.60	234.66	24.29	-43.3	-44.2	20.9	0.00e+00	0	35	0	1874853888	57	4172
2026-01-18 01:36:09.60	234.58	24.14	-43.3	-44.2	20.8	0.00e+00	0	35	0	1877999616	57	4174
2026-01-18 01:36:10.61	234.50	23.99	-43.4	-44.4	20.7	0.00e+00	0	35	0	1881145344	57	4249
2026-01-18 01:36:11.62	234.42	23.85	-43.6	-44.5	20.6	0.00e+00	0	35	0	1884291072	57	4336
2026-01-18 01:36:12.63	234.34	23.70	-43.5	-44.4	20.7	0.00e+00	0	35	0	1887436800	57	4280
2026-01-18 01:36:13.64	234.26	23.55	-43.6	-44.5	20.7	0.00e+00	0	35	0	1890582528	57	4304
2026-01-18 01:36:14.65	234.18	23.41	-43.6	-44.5	20.6	0.00e+00	0	35	0	1894776832	57	4319
2026-01-18 01:36:15.65	234.10	23.26	-43.6	-44.5	20.6	0.00e+00	0	35	0	1897922560	57	4322
2026-01-18 01:36:16.66	234.02	23.12	-43.5	-44.4	20.7	0.00e+00	0	35	0	1901068288	57	4284
2026-01-18 01:36:17.67	233.95	22.98	-43.5	-44.5	20.6	0.00e+00	0	35	0	1904214016	57	4308
2026-01-18 01:36:18.68	233.87	22.83	-43.5	-44.5	20.6	0.00e+00	0	35	0	1907359744	57	4308
2026-01-18 01:36:19.68	233.80	22.69	-43.5	-44.5	20.6	0.00e+00	0	35	0	1909456896	57	4301
2026-01-18 01:36:20.69	233.72	22.55	-43.6	-44.6	20.5	0.00e+00	0	35	0	1912602624	57	4359
2026-01-18 01:36:21.70	233.65	22.41	-43.7	-44.7	20.4	0.00e+00	0	35	0	1915748352	58	4169
2026-01-18 01:36:22.71	233.58	22.27	-43.5	-44.5	20.6	0.00e+00	0	35	0	1918894080	58	4066
2026-01-18 01:36:23.72	233.50	22.13	-43.5	-44.4	20.7	0.00e+00	0	35	0	1922039808	58	4030
2026-01-18 01:36:24.73	233.43	21.99	-43.5	-44.5	20.6	0.00e+00	0	35	0	1925185536	58	4056
2026-01-18 01:36:25.74	233.36	21.86	-43.5	-44.4	20.7	0.00e+00	0	35	0	1928331264	58	4029
2026-01-18 01:36:26.74	233.29	21.72	-43.5	-44.5	20.6	0.00e+00	0	35	0	1932525568	58	4064
2026-01-18 01:36:27.75	233.22	21.58	-43.6	-44.6	20.5	0.00e+00	0	35	0	1935671296	58	4104
2026-01-18 01:36:28.76	233.15	21.45	-43.7	-44.6	20.5	0.00e+00	0	35	0	1938817024	58	4134
2026-01-18 01:36:29.77	233.08	21.31	-43.6	-44.6	20.5	0.00e+00	0	35	0	1941962752	58	4125
2026-01-18 01:36:30.78	233.02	21.18	-43.8	-44.7	20.4	0.00e+00	0	35	0	1945108480	58	4184
2026-01-18 01:36:31.78	232.95	21.05	-43.8	-44.8	20.3	0.00e+00	0	35	0	1948254208	58	4233
2026-01-18 01:36:32.79	232.88	20.91	-43.8	-44.7	20.4	0.00e+00	0	35	0	1951399936	58	4185
2026-01-18 01:36:33.80	232.82	20.78	-43.7	-44.7	20.4	0.00e+00	0	35	0	1954545664	58	4180
2026-01-18 01:36:34.81	232.75	20.65	-43.6	-44.6	20.5	0.00e+00	0	35	0	1956642816	58	4122
2026-01-18 01:36:35.82	232.69	20.52	-43.7	-44.7	20.4	0.00e+00	0	35	0	1959788544	58	4169
2026-01-18 01:36:36.83	232.62	20.39	-43.7	-44.7	20.4	0.00e+00	0	35	0	1962934272	58	4148
2026-01-18 01:36:37.84	232.56	20.26	-43.5	-44.5	20.6	0.00e+00	0	35	0	1966080000	58	4068
2026-01-18 01:36:38.85	232.49	20.13	-43.6	-44.5	20.5	0.00e+00	0	35	0	1970274304	58	4095
2026-01-18 01:36:39.85	232.43	20.00	-43.5	-44.5	20.5	0.00e+00	0	35	0	1973420032	58	4063
2026-01-18 01:36:40.86	232.37	19.87	-43.5	-44.5	20.6	0.00e+00	0	35	0	1976565760	58	4063
2026-01-18 01:36:41.87	232.31	19.75	-43.6	-44.6	20.5	0.00e+00	0	35	0	1979711488	58	4107
2026-01-18 01:36:42.87	232.25	19.62	-43.5	-44.4	20.6	0.00e+00	0	35	0	1982857216	58	4027
2026-01-18 01:36:43.88	232.19	19.50	-43.4	-44.4	20.6	0.00e+00	0	35	0	1986002944	58	4005
2026-01-18 01:36:44.89	232.13	19.37	-43.5	-44.5	20.5	0.00e+00	0	35	0	1989148672	58	4052
2026-01-18 01:36:45.90	232.07	19.25	-43.4	-44.3	20.7	0.00e+00	0	35	0	1992294400	58	3995
2026-01-18 01:36:46.91	232.01	19.12	-43.5	-44.4	20.6	0.00e+00	0	35	0	1995440128	58	4026
2026-01-18 01:36:47.91	231.95	19.00	-43.4	-44.3	20.6	0.00e+00	0	35	0	1998585856	58	3999
2026-01-18 01:36:48.92	231.89	18.88	-43.4	-44.3	20.6	0.00e+00	0	35	0	2001731584	58	4001
2026-01-18 01:36:49.93	231.84	18.75	-43.5	-44.4	20.6	0.00e+00	0	35	0	2003828736	58	4027
2026-01-18 01:36:50.94	231.78	18.63	-43.5	-44.5	20.5	0.00e+00	0	35	0	2006974464	58	4062
2026-01-18 01:36:51.94	231.72	18.51	-43.6	-44.5	20.5	0.00e+00	0	35	0	2011168768	58	4093
2026-01-18 01:36:52.95	231.67	18.39	-43.6	-44.5	20.5	0.00e+00	0	35	0	2014314496	58	4088
2026-01-18 01:36:53.96	231.61	18.27	-43.6	-44.5	20.5	0.00e+00	0	35	0	2017460224	58	4075
2026-01-18 01:36:54.97	231.56	18.15	-43.7	-44.7	20.3	0.00e+00	0	35	0	2020605952	58	4160
2026-01-18 01:36:55.98	231.50	18.03	-43.8	-44.7	20.3	0.00e+00	0	35	0	2023751680	58	4185
2026-01-18 01:36:56.98	231.45	17.91	-43.8	-44.7	20.3	0.00e+00	0	35	0	2026897408	58	4193
2026-01-18 01:36:57.99	231.39	17.80	-43.9	-44.8	20.2	0.00e+00	0	35	0	2030043136	58	4236
2026-01-18 01:36:59.00	231.34	17.68	-43.8	-44.8	20.2	0.00e+00	0	35	0	2033188864	58	4236
2026-01-18 01:37:00.01	231.29	17.56	-43.9	-44.9	20.1	0.00e+00	0	35	0	2036334592	58	4291
2026-01-18 01:37:01.02	231.23	17.44	-44.0	-45.0	20.0	0.00e+00	0	35	0	2039480320	58	4340
2026-01-18 01:37:02.03	231.18	17.33	-44.1	-45.1	19.9	0.00e+00	0	35	0	2042626048	58	4373
2026-01-18 01:37:03.04	231.13	17.21	-44.1	-45.2	19.9	0.00e+00	0	35	0	2045771776	58	4392
2026-01-18 01:37:04.05	231.08	17.10	-44.2	-45.3	19.8	0.00e+00	0	35	0	2048917504	59	4198
2026-01-18 01:37:05.05	231.03	16.98	-44.2	-45.3	19.8	0.00e+00	0	35	0	2052063232	59	4211
2026-01-18 01:37:06.06	230.98	16.87	-44.3	-45.4	19.7	0.00e+00	0	35	0	2055208960	59	4264
2026-01-18 01:37:07.07	230.93	16.76	-44.4	-45.4	19.6	0.00e+00	0	35	0	2058354688	59	4284
2026-01-18 01:37:08.08	230.88	16.64	-44.3	-45.4	19.7	0.00e+00	0	35	0	2061500416	59	4255
2026-01-18 01:37:09.08	230.83	16.53	-44.4	-45.5	19.6	0.00e+00	0	35	0	2064646144	59	4323
2026-01-18 01:37:10.09	230.78	16.42	-44.4	-45.5	19.6	0.00e+00	0	35	0	2067791872	59	4312
2026-01-18 01:37:11.10	230.73	16.31	-44.5	-45.5	19.5	0.00e+00	0	35	0	2070937600	59	4331
2026-01-18 01:37:12.11	230.68	16.20	-44.4	-45.5	19.6	0.00e+00	0	35	0	2074083328	59	4299
2026-01-18 01:37:13.11	230.64	16.09	-44.4	-45.4	19.6	0.00e+00	0	35	0	2077229056	59	4285
2026-01-18 01:37:14.12	230.59	15.98	-44.5	-45.5	19.5	0.00e+00	0	35	0	2080374784	59	4325
2026-01-18 01:37:15.13	230.54	15.87	-44.4	-45.5	19.5	0.00e+00	0	35	0	2083520512	59	4324
2026-01-18 01:37:16.14	230.50	15.76	-44.5	-45.5	19.5	0.00e+00	0	35	0	2086666240	59	4334
2026-01-18 01:37:17.14	230.45	15.65	-44.5	-45.6	19.5	0.00e+00	0	35	0	2089811968	59	4343
2026-01-18 01:37:18.15	230.41	15.55	-44.4	-45.5	19.6	0.00e+00	0	35	0	2092957696	59	4302
