passes_logs/2026/01/18/R3.2S_Murmansk/R3.2S_Murmansk__20260118_043411_FENGYUN_3D_rec.log

#Pass ID: 20260118_043411_FENGYUN 3D
#Satellite: FENGYUN 3D
#Configuration: FENGYUN 3D
#almurnet v.1.7.20251203
#Start time: 2026-01-18 04:34:11

#Version: 2.2.20231116
#Station: R3.2S_Murmansk
#Location: 33.079688 lon 68.888172 lat
#TLE: 1 43010U 17072A   26017.61121112  .00000213  00000+0  12257-3 0  9991
#TLE: 2 43010  98.9934 349.4672 0002374 103.9362 256.2078 14.19696413423628

#Time	Az	El	Level	Level2	SNR	BER	BlckErr	Temp	State	Recorded	gain1	gain2
2026-01-18 04:34:11.29	34.48	1.99	-51.5	-63.5	3.8	8.47e-01	0	33	0	0	75	13599
2026-01-18 04:34:12.30	34.44	2.05	-51.5	-63.5	3.8	8.46e-01	0	33	104	0	73	15271
2026-01-18 04:34:13.31	34.40	2.12	-51.5	-63.4	3.8	8.45e-01	0	33	104	0	73	15191
2026-01-18 04:34:14.32	34.37	2.18	-51.5	-63.4	3.8	8.46e-01	0	33	104	0	73	15158
2026-01-18 04:34:15.33	34.33	2.24	-51.5	-63.4	3.8	8.46e-01	0	33	104	0	73	15140
2026-01-18 04:34:16.33	34.29	2.30	-51.5	-63.4	3.8	8.46e-01	0	34	104	0	73	15174
2026-01-18 04:34:17.34	34.25	2.37	-51.5	-63.5	3.8	8.46e-01	0	34	104	0	73	15235
2026-01-18 04:34:18.35	34.21	2.43	-51.5	-63.4	3.8	8.46e-01	0	34	104	0	73	15199
2026-01-18 04:34:19.36	34.18	2.49	-51.5	-63.4	3.8	8.47e-01	0	34	104	0	73	15166
2026-01-18 04:34:20.36	34.14	2.56	-51.5	-63.4	3.8	8.45e-01	0	34	104	0	73	15162
2026-01-18 04:34:21.37	34.10	2.62	-51.5	-63.4	3.8	8.46e-01	0	34	104	0	73	15141
2026-01-18 04:34:22.38	34.06	2.68	-51.5	-63.4	3.8	8.46e-01	0	34	104	0	73	15214
2026-01-18 04:34:23.39	34.02	2.75	-51.5	-63.3	3.8	8.46e-01	0	34	104	0	73	15031
2026-01-18 04:34:24.40	33.98	2.81	-51.5	-63.1	3.8	8.47e-01	0	34	104	0	73	14647
2026-01-18 04:34:25.41	33.94	2.87	-51.5	-63.0	3.8	8.46e-01	0	34	104	0	73	14517
2026-01-18 04:34:26.41	33.90	2.94	-51.4	-62.8	3.8	8.47e-01	0	34	104	0	73	14186
2026-01-18 04:34:27.42	33.86	3.00	-51.5	-62.7	3.8	8.45e-01	0	34	104	0	73	14015
2026-01-18 04:34:28.43	33.82	3.06	-51.4	-62.6	3.8	8.46e-01	0	34	104	0	73	13736
2026-01-18 04:34:29.44	33.78	3.13	-51.4	-62.3	3.8	8.46e-01	0	34	104	0	73	13263
2026-01-18 04:34:30.44	33.74	3.19	-51.4	-62.0	3.8	8.46e-01	0	34	104	0	73	12910
2026-01-18 04:34:31.45	33.70	3.26	-51.4	-61.8	3.9	8.46e-01	0	34	104	0	73	12536
2026-01-18 04:34:32.46	33.66	3.32	-51.4	-61.9	3.8	8.46e-01	0	34	104	0	73	12680
2026-01-18 04:34:33.47	33.62	3.39	-51.4	-62.2	3.8	8.45e-01	0	34	104	0	73	13203
2026-01-18 04:34:34.48	33.57	3.45	-51.4	-62.1	3.8	8.46e-01	0	34	104	0	73	13065
2026-01-18 04:34:35.48	33.53	3.52	-51.4	-62.1	3.8	8.45e-01	0	34	104	0	73	12966
2026-01-18 04:34:36.49	33.49	3.58	-51.3	-61.1	3.8	8.45e-01	0	34	104	0	73	11667
2026-01-18 04:34:37.50	33.45	3.65	-51.1	-59.7	4.2	8.39e-01	0	34	0	0	73	9899
2026-01-18 04:34:38.51	33.41	3.71	-50.8	-57.9	5.0	8.03e-01	0	34	0	0	73	8037
2026-01-18 04:34:39.52	33.36	3.78	-50.5	-56.7	5.8	7.17e-01	0	34	0	0	73	6962
2026-01-18 04:34:40.52	33.32	3.84	-50.3	-55.9	6.4	3.11e-01	0	34	0	6291456	72	6769
2026-01-18 04:34:41.53	33.28	3.91	-49.9	-54.8	7.4	1.41e-01	0	34	0	11534336	71	6288
2026-01-18 04:34:42.54	33.24	3.98	-49.8	-54.5	7.8	1.02e-01	0	34	0	16777216	71	6068
2026-01-18 04:34:43.55	33.19	4.04	-49.3	-53.1	9.1	3.68e-02	0	34	0	23068672	70	5519
2026-01-18 04:34:44.56	33.15	4.11	-48.9	-52.5	9.8	1.20e-02	0	34	0	28311552	69	5407
2026-01-18 04:34:45.56	33.10	4.17	-48.9	-52.4	9.9	1.08e-02	0	35	0	33554432	69	5365
2026-01-18 04:34:46.57	33.06	4.24	-48.8	-52.1	10.1	1.58e-02	0	34	0	39845888	69	5217
2026-01-18 04:34:47.58	33.02	4.31	-48.6	-51.9	10.4	6.67e-03	0	35	0	45088768	69	5066
2026-01-18 04:34:48.59	32.97	4.37	-48.7	-52.0	10.3	5.19e-03	0	35	0	51380224	69	5150
2026-01-18 04:34:49.60	32.93	4.44	-49.0	-52.7	9.6	1.61e-02	0	34	0	56623104	69	5540
2026-01-18 04:34:50.61	32.88	4.51	-49.0	-52.6	9.7	1.22e-02	0	34	0	62914560	69	5504
2026-01-18 04:34:51.62	32.84	4.58	-49.5	-53.7	8.5	4.56e-02	0	34	0	68157440	69	6256
2026-01-18 04:34:52.63	32.79	4.64	-49.6	-54.0	8.2	6.53e-02	0	34	0	73400320	69	6447
2026-01-18 04:34:53.64	32.75	4.71	-49.8	-54.5	7.8	8.50e-02	0	35	0	79691776	70	6435
2026-01-18 04:34:54.65	32.70	4.78	-50.1	-55.3	6.9	1.79e-01	0	35	0	84934656	70	7096
2026-01-18 04:34:55.66	32.65	4.85	-50.5	-56.6	5.9	2.96e-01	0	35	0	91226112	71	7738
2026-01-18 04:34:56.67	32.61	4.92	-50.5	-56.5	5.9	3.67e-01	0	35	0	96468992	71	7670
2026-01-18 04:34:57.67	32.56	4.98	-50.7	-57.4	5.3	6.02e-01	0	35	0	100663296	71	8468
2026-01-18 04:34:58.68	32.52	5.05	-48.9	-52.0	10.5	1.93e-01	0	35	0	102760448	69	5121
2026-01-18 04:34:59.69	32.47	5.12	-49.5	-53.3	9.4	3.89e-03	0	35	0	109051904	69	5987
2026-01-18 04:35:00.70	32.42	5.19	-51.2	-61.2	3.9	5.33e-01	0	35	0	113246208	72	12403
2026-01-18 04:35:01.71	32.37	5.26	-48.5	-51.3	11.1	8.40e-01	0	35	104	113246208	69	4756
2026-01-18 04:35:02.71	32.33	5.33	-51.3	-59.3	4.5	2.65e-01	0	35	0	116391936	73	9397
2026-01-18 04:35:03.72	32.28	5.40	-48.6	-51.4	11.3	7.52e-01	0	35	0	118489088	69	4792
2026-01-18 04:35:04.73	32.23	5.47	-46.3	-48.1	14.9	2.20e-06	0	35	0	123731968	64	4343
2026-01-18 04:35:05.74	32.18	5.54	-45.6	-47.1	16.1	0.00e+00	0	35	0	128974848	63	4110
2026-01-18 04:35:06.75	32.13	5.61	-45.5	-47.0	16.3	0.00e+00	0	35	0	135266304	62	4303
2026-01-18 04:35:07.76	32.08	5.68	-45.2	-46.6	16.6	0.00e+00	0	35	0	140509184	62	4132
2026-01-18 04:35:08.77	32.03	5.75	-44.7	-46.0	17.3	0.00e+00	0	35	0	145752064	61	4072
2026-01-18 04:35:09.77	31.99	5.81	-44.7	-46.0	17.2	0.00e+00	0	35	0	152043520	61	4098
2026-01-18 04:35:10.78	31.94	5.89	-44.2	-45.4	17.9	0.00e+00	0	35	0	157286400	60	4024
2026-01-18 04:35:11.79	31.89	5.96	-44.0	-45.2	18.2	0.00e+00	0	35	0	163577856	60	3936
2026-01-18 04:35:12.80	31.84	6.03	-44.2	-45.4	18.0	0.00e+00	0	35	0	168820736	60	4024
2026-01-18 04:35:13.81	31.78	6.10	-44.3	-45.5	17.9	0.00e+00	0	35	0	175112192	60	4077
2026-01-18 04:35:14.81	31.73	6.17	-44.3	-45.5	17.9	0.00e+00	0	35	0	180355072	60	4073
2026-01-18 04:35:15.82	31.68	6.24	-44.1	-45.3	18.1	0.00e+00	0	35	0	186646528	60	3967
2026-01-18 04:35:16.83	31.63	6.31	-44.4	-45.7	17.7	0.00e+00	0	35	0	191889408	60	4156
2026-01-18 04:35:17.83	31.58	6.38	-44.1	-45.3	18.4	0.00e+00	0	35	0	197132288	59	4231
2026-01-18 04:35:18.84	31.53	6.45	-44.4	-45.6	18.2	0.00e+00	0	35	0	203423744	59	4361
2026-01-18 04:35:19.85	31.48	6.53	-44.1	-45.3	18.4	0.00e+00	0	35	0	208666624	59	4220
2026-01-18 04:35:20.86	31.42	6.60	-44.2	-45.4	18.3	0.00e+00	0	35	0	213909504	59	4261
2026-01-18 04:35:21.87	31.37	6.67	-44.2	-45.3	18.4	0.00e+00	0	35	0	220200960	59	4234
2026-01-18 04:35:22.87	31.32	6.74	-43.8	-45.0	18.8	0.00e+00	0	35	0	225443840	59	4053
2026-01-18 04:35:23.88	31.27	6.81	-44.1	-45.2	18.6	0.00e+00	0	35	0	230686720	59	4177
2026-01-18 04:35:24.89	31.21	6.89	-44.0	-45.2	18.6	0.00e+00	0	35	0	236978176	59	4166
2026-01-18 04:35:25.90	31.16	6.96	-43.9	-45.1	18.8	0.00e+00	0	35	0	243269632	59	4099
2026-01-18 04:35:26.90	31.10	7.03	-44.0	-45.2	18.7	0.00e+00	0	35	0	248512512	59	4151
2026-01-18 04:35:27.91	31.05	7.11	-44.1	-45.2	18.6	0.00e+00	0	35	0	253755392	59	4190
2026-01-18 04:35:28.92	31.00	7.18	-44.0	-45.2	18.7	0.00e+00	0	35	0	260046848	59	4153
2026-01-18 04:35:29.93	30.94	7.25	-44.2	-45.4	18.5	0.00e+00	0	35	0	265289728	59	4262
2026-01-18 04:35:30.94	30.89	7.33	-44.4	-45.5	18.3	0.00e+00	0	35	0	271581184	59	4337
2026-01-18 04:35:31.94	30.83	7.40	-44.1	-45.2	18.6	0.00e+00	0	35	0	276824064	59	4190
2026-01-18 04:35:32.95	30.77	7.48	-44.0	-45.1	18.8	0.00e+00	0	35	0	282066944	59	4118
2026-01-18 04:35:33.96	30.72	7.55	-44.1	-45.3	18.6	0.00e+00	0	35	0	288358400	59	4198
2026-01-18 04:35:34.97	30.66	7.63	-44.0	-45.1	18.8	0.00e+00	0	35	0	293601280	59	4126
2026-01-18 04:35:35.98	30.60	7.70	-44.2	-45.4	18.5	0.00e+00	0	35	0	298844160	59	4269
2026-01-18 04:35:36.99	30.55	7.78	-44.0	-45.1	18.8	0.00e+00	0	35	0	305135616	59	4123
2026-01-18 04:35:37.99	30.49	7.85	-43.9	-45.0	18.9	0.00e+00	0	35	0	311427072	59	4081
2026-01-18 04:35:39.00	30.43	7.93	-43.9	-45.1	18.8	0.00e+00	0	35	0	316669952	59	4104
2026-01-18 04:35:40.01	30.37	8.00	-43.7	-44.8	19.1	0.00e+00	0	35	0	321912832	59	3986
2026-01-18 04:35:41.02	30.32	8.08	-43.9	-45.0	19.0	0.00e+00	0	35	0	328204288	59	4067
2026-01-18 04:35:42.02	30.26	8.15	-43.7	-44.8	19.1	0.00e+00	0	35	0	333447168	59	3970
2026-01-18 04:35:43.03	30.20	8.23	-43.7	-44.8	19.1	0.00e+00	0	35	0	338690048	59	3986
2026-01-18 04:35:44.04	30.14	8.31	-43.7	-44.8	19.1	0.00e+00	0	35	0	344981504	59	3991
2026-01-18 04:35:45.05	30.08	8.38	-43.7	-44.8	19.1	0.00e+00	0	35	0	350224384	59	3987
2026-01-18 04:35:46.06	30.02	8.46	-43.5	-44.6	19.4	0.00e+00	0	35	0	356515840	59	3885
2026-01-18 04:35:47.06	29.96	8.54	-43.6	-44.6	19.3	0.00e+00	0	35	0	361758720	59	3904
2026-01-18 04:35:48.07	29.90	8.61	-43.6	-44.7	19.3	0.00e+00	0	35	0	367001600	59	3937
2026-01-18 04:35:49.08	29.84	8.69	-43.6	-44.7	19.2	0.00e+00	0	35	0	373293056	59	3947
2026-01-18 04:35:50.09	29.78	8.77	-43.7	-44.8	19.2	0.00e+00	0	35	0	379584512	59	3977
2026-01-18 04:35:51.09	29.71	8.85	-43.8	-44.9	19.1	0.00e+00	0	35	0	384827392	59	4010
2026-01-18 04:35:52.10	29.65	8.92	-43.8	-44.9	19.1	0.00e+00	0	35	0	390070272	59	4015
2026-01-18 04:35:53.11	29.59	9.00	-43.6	-44.6	19.4	0.00e+00	0	35	0	396361728	59	3898
2026-01-18 04:35:54.12	29.53	9.08	-43.4	-44.4	19.5	0.00e+00	0	35	0	401604608	58	4051
2026-01-18 04:35:55.13	29.46	9.16	-43.6	-44.7	19.3	0.00e+00	0	35	0	406847488	58	4159
2026-01-18 04:35:56.14	29.40	9.24	-43.4	-44.5	19.5	0.00e+00	0	35	0	413138944	58	4052
2026-01-18 04:35:57.14	29.34	9.32	-43.4	-44.5	19.5	0.00e+00	0	35	0	418381824	58	4054
2026-01-18 04:35:58.15	29.27	9.40	-43.5	-44.5	19.5	0.00e+00	0	35	0	423624704	58	4089
2026-01-18 04:35:59.16	29.21	9.48	-43.4	-44.4	19.6	0.00e+00	0	35	0	429916160	58	4042
2026-01-18 04:36:00.17	29.14	9.56	-43.4	-44.5	19.6	0.00e+00	0	35	0	435159040	58	4055
2026-01-18 04:36:01.18	29.08	9.64	-43.4	-44.4	19.6	0.00e+00	0	35	0	441450496	58	4029
2026-01-18 04:36:02.19	29.01	9.72	-43.4	-44.4	19.6	0.00e+00	0	35	0	446693376	58	4039
2026-01-18 04:36:03.19	28.95	9.80	-43.3	-44.3	19.7	0.00e+00	0	35	0	452984832	58	3993
2026-01-18 04:36:04.20	28.88	9.88	-43.3	-44.3	19.8	0.00e+00	0	35	0	458227712	58	3969
2026-01-18 04:36:05.21	28.81	9.96	-43.2	-44.2	19.9	0.00e+00	0	35	0	464519168	58	3920
2026-01-18 04:36:06.22	28.74	10.04	-43.1	-44.1	20.0	0.00e+00	0	35	0	469762048	58	3883
2026-01-18 04:36:07.23	28.68	10.12	-43.1	-44.1	19.9	0.00e+00	0	35	0	475004928	58	3895
2026-01-18 04:36:08.24	28.61	10.20	-43.0	-44.0	20.0	0.00e+00	0	35	0	481296384	58	3860
2026-01-18 04:36:09.25	28.54	10.28	-43.1	-44.0	20.0	0.00e+00	0	35	0	486539264	58	3865
2026-01-18 04:36:10.25	28.47	10.37	-43.1	-44.1	20.0	0.00e+00	0	35	0	491782144	58	3875
2026-01-18 04:36:11.26	28.40	10.45	-43.1	-44.1	20.0	0.00e+00	0	35	0	498073600	58	3880
2026-01-18 04:36:12.27	28.33	10.53	-43.0	-44.0	20.1	0.00e+00	0	35	0	503316480	58	3850
2026-01-18 04:36:13.28	28.26	10.61	-43.1	-44.1	20.0	0.00e+00	0	35	0	508559360	58	3874
2026-01-18 04:36:14.29	28.19	10.70	-42.9	-43.8	20.2	0.00e+00	0	35	0	514850816	57	3996
2026-01-18 04:36:15.29	28.12	10.78	-42.8	-43.8	20.3	0.00e+00	0	35	0	521142272	57	3990
2026-01-18 04:36:16.30	28.05	10.86	-43.0	-44.0	20.1	0.00e+00	0	35	0	526385152	57	4056
2026-01-18 04:36:17.31	27.98	10.95	-42.9	-43.8	20.3	0.00e+00	0	35	0	531628032	57	4003
2026-01-18 04:36:18.32	27.90	11.03	-42.9	-43.9	20.2	0.00e+00	0	35	0	537919488	57	4008
2026-01-18 04:36:19.32	27.83	11.11	-43.0	-43.9	20.1	0.00e+00	0	35	0	543162368	57	4046
2026-01-18 04:36:20.33	27.76	11.20	-42.9	-43.8	20.2	0.00e+00	0	35	0	549453824	57	3997
2026-01-18 04:36:21.34	27.68	11.28	-42.8	-43.7	20.4	0.00e+00	0	35	0	554696704	57	3943
2026-01-18 04:36:22.34	27.61	11.37	-42.8	-43.7	20.4	0.00e+00	0	35	0	559939584	57	3949
2026-01-18 04:36:23.35	27.54	11.45	-42.8	-43.7	20.4	0.00e+00	0	35	0	566231040	57	3943
2026-01-18 04:36:24.36	27.46	11.54	-42.8	-43.7	20.4	0.00e+00	0	35	0	571473920	57	3952
2026-01-18 04:36:25.37	27.39	11.62	-42.7	-43.7	20.4	0.00e+00	0	35	0	576716800	57	3938
2026-01-18 04:36:26.38	27.31	11.71	-42.8	-43.8	20.3	0.00e+00	0	35	0	583008256	57	3984
2026-01-18 04:36:27.39	27.23	11.79	-42.7	-43.7	20.4	0.00e+00	0	35	0	589299712	57	3935
2026-01-18 04:36:28.40	27.16	11.88	-42.8	-43.8	20.3	0.00e+00	0	35	0	594542592	57	3978
2026-01-18 04:36:29.41	27.08	11.97	-42.7	-43.6	20.5	0.00e+00	0	35	0	599785472	57	3891
2026-01-18 04:36:30.41	27.00	12.05	-42.7	-43.6	20.5	0.00e+00	0	35	0	606076928	57	3900
2026-01-18 04:36:31.42	26.92	12.14	-42.6	-43.6	20.6	0.00e+00	0	35	0	611319808	57	3894
2026-01-18 04:36:32.43	26.84	12.23	-42.7	-43.6	20.5	0.00e+00	0	35	0	616562688	57	3912
2026-01-18 04:36:33.44	26.77	12.32	-42.6	-43.5	20.7	0.00e+00	0	35	0	622854144	57	3844
2026-01-18 04:36:34.44	26.69	12.40	-42.4	-43.3	20.9	0.00e+00	0	35	0	628097024	56	3987
2026-01-18 04:36:35.45	26.61	12.49	-42.4	-43.4	20.8	0.00e+00	0	35	0	634388480	56	4012
2026-01-18 04:36:36.46	26.52	12.58	-42.3	-43.2	21.0	0.00e+00	0	35	0	639631360	56	3926
2026-01-18 04:36:37.47	26.44	12.67	-42.4	-43.3	20.9	0.00e+00	0	35	0	644874240	56	3972
2026-01-18 04:36:38.48	26.36	12.76	-42.4	-43.3	20.8	0.00e+00	0	35	0	651165696	56	3989
2026-01-18 04:36:39.48	26.28	12.85	-42.6	-43.5	20.7	0.00e+00	0	35	0	656408576	56	4085
2026-01-18 04:36:40.49	26.20	12.94	-42.5	-43.4	20.8	0.00e+00	0	35	0	662700032	56	4016
2026-01-18 04:36:41.50	26.11	13.03	-42.5	-43.4	20.8	0.00e+00	0	35	0	667942912	56	4014
2026-01-18 04:36:42.51	26.03	13.12	-42.4	-43.3	20.9	0.00e+00	0	35	0	674234368	56	3983
2026-01-18 04:36:43.52	25.94	13.21	-42.4	-43.3	20.9	0.00e+00	0	35	0	679477248	56	3980
2026-01-18 04:36:44.53	25.86	13.30	-42.5	-43.4	20.8	0.00e+00	0	35	0	684720128	56	4018
2026-01-18 04:36:45.53	25.77	13.39	-42.3	-43.3	20.9	0.00e+00	0	35	0	691011584	56	3968
2026-01-18 04:36:46.54	25.69	13.48	-42.3	-43.3	21.0	0.00e+00	0	35	0	696254464	56	3962
2026-01-18 04:36:47.55	25.60	13.57	-42.2	-43.2	21.1	0.00e+00	0	35	0	701497344	56	3914
2026-01-18 04:36:48.56	25.51	13.66	-42.1	-43.0	21.2	0.00e+00	0	35	0	707788800	56	3846
2026-01-18 04:36:49.56	25.43	13.75	-42.2	-43.1	21.2	0.00e+00	0	35	0	713031680	56	3872
2026-01-18 04:36:50.57	25.34	13.84	-42.3	-43.2	21.0	0.00e+00	0	35	0	719323136	56	3920
2026-01-18 04:36:51.58	25.25	13.94	-42.1	-42.9	21.3	0.00e+00	0	35	0	724566016	56	3814
2026-01-18 04:36:52.58	25.16	14.03	-42.0	-42.9	21.3	0.00e+00	0	35	0	729808896	56	3811
2026-01-18 04:36:53.59	25.07	14.12	-41.8	-42.7	21.4	0.00e+00	0	35	0	736100352	55	3939
2026-01-18 04:36:54.60	24.98	14.22	-41.7	-42.6	21.5	0.00e+00	0	35	0	742391808	55	3883
2026-01-18 04:36:55.61	24.89	14.31	-41.8	-42.7	21.4	0.00e+00	0	35	0	747634688	55	3933
2026-01-18 04:36:56.62	24.80	14.40	-41.8	-42.7	21.4	0.00e+00	0	35	0	752877568	55	3929
2026-01-18 04:36:57.63	24.70	14.50	-41.9	-42.7	21.4	0.00e+00	0	35	0	759169024	55	3946
2026-01-18 04:36:58.64	24.61	14.59	-41.9	-42.8	21.4	0.00e+00	0	35	0	764411904	55	3968
2026-01-18 04:36:59.65	24.52	14.69	-41.7	-42.6	21.5	0.00e+00	0	35	0	769654784	55	3881
2026-01-18 04:37:00.65	24.42	14.78	-41.8	-42.7	21.4	0.00e+00	0	35	0	775946240	55	3941
2026-01-18 04:37:01.66	24.33	14.88	-41.8	-42.7	21.4	0.00e+00	0	35	0	781189120	55	3933
2026-01-18 04:37:02.67	24.23	14.97	-41.8	-42.7	21.5	0.00e+00	0	35	0	786432000	55	3926
2026-01-18 04:37:03.68	24.14	15.07	-41.9	-42.7	21.4	0.00e+00	0	35	0	792723456	55	3951
2026-01-18 04:37:04.68	24.04	15.16	-41.8	-42.7	21.5	0.00e+00	0	35	0	797966336	55	3933
2026-01-18 04:37:05.69	23.94	15.26	-41.9	-42.7	21.4	0.00e+00	0	35	0	804257792	55	3954
2026-01-18 04:37:06.70	23.84	15.36	-41.9	-42.8	21.4	0.00e+00	0	35	0	809500672	55	3961
2026-01-18 04:37:07.71	23.75	15.45	-42.0	-42.9	21.3	0.00e+00	0	35	0	815792128	55	4008
2026-01-18 04:37:08.72	23.65	15.55	-42.0	-42.8	21.3	0.00e+00	0	35	0	821035008	55	4000
2026-01-18 04:37:09.73	23.55	15.65	-41.8	-42.7	21.5	0.00e+00	0	35	0	827326464	55	3915
2026-01-18 04:37:10.73	23.45	15.75	-41.7	-42.6	21.6	0.00e+00	0	35	0	832569344	55	3886
2026-01-18 04:37:11.74	23.34	15.85	-41.7	-42.6	21.6	0.00e+00	0	35	0	837812224	55	3872
2026-01-18 04:37:12.75	23.24	15.94	-41.7	-42.6	21.6	0.00e+00	0	35	0	844103680	55	3877
2026-01-18 04:37:13.75	23.14	16.04	-41.7	-42.5	21.7	0.00e+00	0	35	0	849346560	55	3866
2026-01-18 04:37:14.76	23.04	16.14	-41.7	-42.6	21.6	0.00e+00	0	35	0	854589440	55	3881
2026-01-18 04:37:15.77	22.93	16.24	-41.8	-42.7	21.5	0.00e+00	0	35	0	860880896	55	3936
2026-01-18 04:37:16.78	22.83	16.34	-41.5	-42.3	21.8	0.00e+00	0	35	0	866123776	55	3780
2026-01-18 04:37:17.78	22.72	16.44	-41.4	-42.3	21.9	0.00e+00	0	35	0	871366656	54	3972
2026-01-18 04:37:18.79	22.61	16.54	-41.4	-42.2	22.0	0.00e+00	0	35	0	877658112	54	3946
2026-01-18 04:37:19.80	22.51	16.64	-41.3	-42.1	22.1	0.00e+00	0	35	0	883949568	54	3892
2026-01-18 04:37:20.81	22.40	16.74	-41.3	-42.1	22.1	0.00e+00	0	35	0	889192448	54	3888
2026-01-18 04:37:21.82	22.29	16.84	-41.3	-42.2	22.0	0.00e+00	0	35	0	894435328	54	3929
2026-01-18 04:37:22.83	22.18	16.95	-41.2	-42.0	22.1	0.00e+00	0	35	0	900726784	54	3866
2026-01-18 04:37:23.84	22.07	17.05	-41.2	-42.1	22.1	0.00e+00	0	35	0	905969664	54	3877
2026-01-18 04:37:24.84	21.96	17.15	-41.3	-42.2	22.0	0.00e+00	0	35	0	912261120	54	3921
2026-01-18 04:37:25.85	21.85	17.25	-41.3	-42.1	22.0	0.00e+00	0	35	0	917504000	54	3913
2026-01-18 04:37:26.86	21.73	17.36	-41.0	-41.8	22.4	0.00e+00	0	35	0	922746880	54	3766
2026-01-18 04:37:27.87	21.62	17.46	-41.0	-41.8	22.3	0.00e+00	0	35	0	929038336	53	4000
2026-01-18 04:37:28.88	21.51	17.56	-41.0	-41.8	22.4	0.00e+00	0	35	0	934281216	53	3989
2026-01-18 04:37:29.88	21.39	17.67	-40.8	-41.7	22.5	0.00e+00	0	35	0	939524096	53	3914
2026-01-18 04:37:30.89	21.28	17.77	-40.9	-41.7	22.5	0.00e+00	0	35	0	945815552	53	3922
2026-01-18 04:37:31.90	21.16	17.87	-40.8	-41.7	22.5	0.00e+00	0	35	0	952107008	53	3917
2026-01-18 04:37:32.91	21.04	17.98	-40.8	-41.6	22.5	0.00e+00	0	35	0	957349888	53	3912
2026-01-18 04:37:33.91	20.92	18.08	-40.9	-41.7	22.5	0.00e+00	0	35	0	962592768	53	3919
2026-01-18 04:37:34.92	20.81	18.19	-40.9	-41.7	22.5	0.00e+00	0	35	0	968884224	53	3945
2026-01-18 04:37:35.93	20.68	18.29	-41.0	-41.8	22.4	0.00e+00	0	35	0	974127104	53	3991
2026-01-18 04:37:36.94	20.56	18.40	-41.0	-41.8	22.4	0.00e+00	0	35	0	979369984	53	3998
2026-01-18 04:37:37.94	20.44	18.51	-41.0	-41.8	22.4	0.00e+00	0	35	0	985661440	53	3999
2026-01-18 04:37:38.95	20.32	18.61	-41.1	-41.9	22.3	0.00e+00	0	35	0	990904320	53	4024
2026-01-18 04:37:39.96	20.20	18.72	-41.1	-41.9	22.3	0.00e+00	0	35	0	997195776	53	4031
2026-01-18 04:37:40.97	20.07	18.83	-41.1	-41.9	22.3	0.00e+00	0	35	0	1002438656	53	4038
2026-01-18 04:37:41.98	19.95	18.94	-41.0	-41.8	22.4	0.00e+00	0	35	0	1007681536	53	3977
2026-01-18 04:37:42.99	19.82	19.04	-40.9	-41.8	22.5	0.00e+00	0	35	0	1013972992	53	3962
2026-01-18 04:37:44.00	19.69	19.15	-40.9	-41.7	22.5	0.00e+00	0	35	0	1020264448	53	3937
2026-01-18 04:37:45.00	19.57	19.26	-40.9	-41.7	22.5	0.00e+00	0	35	0	1025507328	53	3937
2026-01-18 04:37:46.01	19.44	19.37	-41.0	-41.8	22.4	0.00e+00	0	35	0	1030750208	53	3976
2026-01-18 04:37:47.02	19.31	19.48	-40.7	-41.5	22.7	0.00e+00	0	35	0	1037041664	53	3864
2026-01-18 04:37:48.02	19.18	19.59	-40.7	-41.5	22.7	0.00e+00	0	35	0	1042284544	53	3851
2026-01-18 04:37:49.03	19.04	19.70	-40.6	-41.4	22.8	0.00e+00	0	35	0	1047527424	53	3798
2026-01-18 04:37:50.04	18.91	19.81	-40.5	-41.3	22.9	0.00e+00	0	35	0	1053818880	53	3752
2026-01-18 04:37:51.05	18.78	19.92	-40.5	-41.3	22.9	0.00e+00	0	35	0	1059061760	53	3772
2026-01-18 04:37:52.06	18.64	20.03	-40.5	-41.3	22.9	0.00e+00	0	35	0	1064304640	53	3744
2026-01-18 04:37:53.06	18.51	20.14	-40.6	-41.4	22.8	0.00e+00	0	35	0	1070596096	52	4018
2026-01-18 04:37:54.07	18.37	20.25	-40.5	-41.3	22.9	0.00e+00	0	35	0	1075838976	52	3977
2026-01-18 04:37:55.08	18.23	20.36	-40.5	-41.3	23.0	0.00e+00	0	35	0	1082130432	52	3959
2026-01-18 04:37:56.09	18.09	20.48	-40.3	-41.1	23.1	0.00e+00	0	35	0	1087373312	52	3893
2026-01-18 04:37:57.10	17.95	20.59	-40.4	-41.2	23.1	0.00e+00	0	35	0	1093664768	52	3921
2026-01-18 04:37:58.10	17.81	20.70	-40.5	-41.3	23.0	0.00e+00	0	35	0	1098907648	52	3972
2026-01-18 04:37:59.11	17.67	20.81	-40.3	-41.1	23.1	0.00e+00	0	35	0	1105199104	52	3894
2026-01-18 04:38:00.12	17.53	20.93	-40.3	-41.0	23.2	0.00e+00	0	35	0	1110441984	52	3863
2026-01-18 04:38:01.13	17.38	21.04	-40.2	-41.0	23.2	0.00e+00	0	35	0	1115684864	52	3849
2026-01-18 04:38:02.13	17.24	21.15	-40.3	-41.0	23.2	0.00e+00	0	35	0	1121976320	52	3856
2026-01-18 04:38:03.14	17.09	21.27	-40.3	-41.1	23.1	0.00e+00	0	35	0	1127219200	52	3892
2026-01-18 04:38:04.15	16.94	21.38	-40.2	-41.0	23.2	0.00e+00	0	35	0	1132462080	52	3853
2026-01-18 04:38:05.16	16.79	21.50	-40.4	-41.1	23.1	0.00e+00	0	35	0	1138753536	52	3910
2026-01-18 04:38:06.17	16.64	21.61	-40.3	-41.1	23.2	0.00e+00	0	35	0	1143996416	52	3874
2026-01-18 04:38:07.17	16.49	21.73	-40.4	-41.2	23.1	0.00e+00	0	35	0	1149239296	52	3914
2026-01-18 04:38:08.18	16.34	21.85	-40.2	-41.0	23.2	0.00e+00	0	35	0	1155530752	52	3858
2026-01-18 04:38:09.19	16.19	21.96	-40.3	-41.0	23.2	0.00e+00	0	35	0	1161822208	52	3858
2026-01-18 04:38:10.20	16.03	22.08	-40.4	-41.2	23.1	0.00e+00	0	35	0	1167065088	52	3942
2026-01-18 04:38:11.20	15.88	22.20	-40.1	-40.9	23.4	0.00e+00	0	35	0	1172307968	52	3791
2026-01-18 04:38:12.21	15.72	22.31	-40.0	-40.7	23.5	0.00e+00	0	35	0	1178599424	52	3728
2026-01-18 04:38:13.22	15.56	22.43	-39.9	-40.6	23.6	0.00e+00	0	35	0	1183842304	51	3913
2026-01-18 04:38:14.23	15.40	22.55	-39.9	-40.6	23.7	0.00e+00	0	35	0	1190133760	51	3896
2026-01-18 04:38:15.24	15.24	22.67	-39.8	-40.5	23.8	0.00e+00	0	35	0	1195376640	51	3846
2026-01-18 04:38:16.25	15.08	22.79	-39.9	-40.6	23.7	0.00e+00	0	35	0	1200619520	51	3895
2026-01-18 04:38:17.25	14.92	22.90	-39.8	-40.5	23.8	0.00e+00	0	35	0	1206910976	51	3868
2026-01-18 04:38:18.26	14.75	23.02	-39.8	-40.5	23.8	0.00e+00	0	35	0	1212153856	51	3858
2026-01-18 04:38:19.27	14.59	23.14	-39.8	-40.6	23.7	0.00e+00	0	35	0	1217396736	51	3888
2026-01-18 04:38:20.28	14.42	23.26	-39.9	-40.6	23.7	0.00e+00	0	35	0	1223688192	51	3906
2026-01-18 04:38:21.29	14.25	23.38	-39.9	-40.7	23.7	0.00e+00	0	35	0	1228931072	51	3933
2026-01-18 04:38:22.29	14.08	23.50	-39.8	-40.6	23.7	0.00e+00	0	35	0	1235222528	51	3884
2026-01-18 04:38:23.30	13.91	23.62	-39.9	-40.7	23.7	0.00e+00	0	35	0	1240465408	51	3926
2026-01-18 04:38:24.31	13.74	23.74	-39.8	-40.6	23.8	0.00e+00	0	35	0	1246756864	51	3876
2026-01-18 04:38:25.32	13.57	23.86	-39.9	-40.6	23.7	0.00e+00	0	35	0	1251999744	51	3909
2026-01-18 04:38:26.33	13.39	23.98	-40.0	-40.7	23.6	0.00e+00	0	35	0	1257242624	51	3950
2026-01-18 04:38:27.33	13.22	24.11	-39.8	-40.6	23.8	0.00e+00	0	35	0	1263534080	51	3880
2026-01-18 04:38:28.34	13.04	24.23	-39.9	-40.6	23.7	0.00e+00	0	35	0	1268776960	51	3901
2026-01-18 04:38:29.35	12.86	24.35	-39.8	-40.5	23.8	0.00e+00	0	35	0	1275068416	51	3855
2026-01-18 04:38:30.36	12.68	24.47	-39.6	-40.4	23.9	0.00e+00	0	35	0	1280311296	51	3801
2026-01-18 04:38:31.36	12.50	24.59	-39.7	-40.4	23.9	0.00e+00	0	35	0	1285554176	51	3808
2026-01-18 04:38:32.37	12.31	24.72	-39.6	-40.3	24.0	0.00e+00	0	35	0	1291845632	51	3762
2026-01-18 04:38:33.38	12.13	24.84	-39.6	-40.4	24.0	0.00e+00	0	35	0	1297088512	51	3784
2026-01-18 04:38:34.39	11.94	24.96	-39.7	-40.4	23.9	0.00e+00	0	35	0	1303379968	51	3813
2026-01-18 04:38:35.40	11.75	25.09	-39.6	-40.3	24.0	0.00e+00	0	35	0	1308622848	51	3763
2026-01-18 04:38:36.41	11.56	25.21	-39.6	-40.3	24.0	0.00e+00	0	35	0	1314914304	51	3768
2026-01-18 04:38:37.42	11.37	25.34	-39.6	-40.3	24.0	0.00e+00	0	35	0	1320157184	51	3773
2026-01-18 04:38:38.43	11.18	25.46	-39.5	-40.2	24.1	0.00e+00	0	35	0	1325400064	51	3736
2026-01-18 04:38:39.44	10.98	25.58	-39.5	-40.3	24.1	0.00e+00	0	35	0	1331691520	51	3739
2026-01-18 04:38:40.45	10.79	25.71	-39.6	-40.3	24.0	0.00e+00	0	35	0	1336934400	51	3770
2026-01-18 04:38:41.45	10.59	25.83	-39.6	-40.3	24.0	0.00e+00	0	35	0	1342177280	51	3767
2026-01-18 04:38:42.46	10.39	25.96	-39.7	-40.5	23.9	0.00e+00	0	35	0	1348468736	51	3839
2026-01-18 04:38:43.47	10.19	26.08	-39.8	-40.6	23.8	0.00e+00	0	35	0	1353711616	51	3884
2026-01-18 04:38:44.48	9.99	26.21	-39.7	-40.5	23.9	0.00e+00	0	35	0	1360003072	51	3833
2026-01-18 04:38:45.49	9.79	26.34	-39.6	-40.3	24.1	0.00e+00	0	35	0	1365245952	51	3763
2026-01-18 04:38:46.49	9.58	26.46	-39.6	-40.3	24.0	0.00e+00	0	35	0	1371537408	51	3764
2026-01-18 04:38:47.50	9.38	26.59	-39.5	-40.2	24.1	0.00e+00	0	35	0	1376780288	51	3732
2026-01-18 04:38:48.51	9.17	26.71	-39.4	-40.1	24.2	0.00e+00	0	35	0	1383071744	50	3888
2026-01-18 04:38:49.52	8.96	26.84	-39.4	-40.2	24.2	0.00e+00	0	35	0	1388314624	50	3924
2026-01-18 04:38:50.53	8.74	26.97	-39.6	-40.3	24.1	0.00e+00	0	35	0	1393557504	50	3979
2026-01-18 04:38:51.54	8.53	27.09	-39.6	-40.3	24.1	0.00e+00	0	35	0	1399848960	50	3990
2026-01-18 04:38:52.54	8.32	27.22	-39.8	-40.5	23.8	0.00e+00	0	35	0	1405091840	50	4088
2026-01-18 04:38:53.55	8.10	27.35	-39.8	-40.5	23.9	0.00e+00	0	35	0	1410334720	50	4085
2026-01-18 04:38:54.56	7.88	27.47	-39.7	-40.5	23.9	0.00e+00	0	35	0	1416626176	50	4068
2026-01-18 04:38:55.57	7.66	27.60	-39.8	-40.5	23.9	0.00e+00	0	35	0	1421869056	50	4080
2026-01-18 04:38:56.57	7.44	27.73	-39.7	-40.4	23.9	0.00e+00	0	35	0	1427111936	50	4046
2026-01-18 04:38:57.58	7.21	27.85	-39.4	-40.2	24.2	0.00e+00	0	35	0	1433403392	50	3926
2026-01-18 04:38:58.59	6.99	27.98	-39.3	-40.1	24.3	0.00e+00	0	35	0	1439694848	50	3872
2026-01-18 04:38:59.60	6.76	28.11	-39.3	-40.1	24.3	0.00e+00	0	35	0	1444937728	50	3880
2026-01-18 04:39:00.60	6.53	28.24	-39.4	-40.1	24.2	0.00e+00	0	35	0	1450180608	50	3902
2026-01-18 04:39:01.61	6.30	28.36	-39.5	-40.2	24.2	0.00e+00	0	35	0	1456472064	50	3932
2026-01-18 04:39:02.62	6.06	28.49	-39.7	-40.4	24.0	0.00e+00	0	35	0	1461714944	50	4034
2026-01-18 04:39:03.63	5.83	28.62	-39.6	-40.3	24.1	0.00e+00	0	35	0	1468006400	50	3996
2026-01-18 04:39:04.64	5.59	28.75	-39.7	-40.5	23.9	0.00e+00	0	35	0	1473249280	50	4062
2026-01-18 04:39:05.65	5.35	28.88	-39.5	-40.3	24.1	0.00e+00	0	35	0	1478492160	50	3973
2026-01-18 04:39:06.66	5.11	29.01	-39.6	-40.4	24.1	0.00e+00	0	35	0	1484783616	50	4012
2026-01-18 04:39:07.66	4.87	29.13	-39.5	-40.2	24.2	0.00e+00	0	35	0	1490026496	50	3954
2026-01-18 04:39:08.67	4.62	29.26	-39.3	-40.0	24.3	0.00e+00	0	35	0	1495269376	50	3868
2026-01-18 04:39:09.68	4.37	29.39	-39.3	-40.0	24.4	0.00e+00	0	35	0	1501560832	50	3846
2026-01-18 04:39:10.68	4.13	29.51	-39.5	-40.2	24.2	0.00e+00	0	35	0	1506803712	50	3938
2026-01-18 04:39:11.69	3.88	29.64	-39.2	-39.9	24.4	0.00e+00	0	35	0	1513095168	50	3820
2026-01-18 04:39:12.70	3.62	29.77	-39.2	-39.9	24.5	0.00e+00	0	35	0	1518338048	50	3816
2026-01-18 04:39:13.71	3.37	29.90	-39.4	-40.1	24.3	0.00e+00	0	35	0	1524629504	50	3890
2026-01-18 04:39:14.72	3.11	30.03	-39.2	-40.0	24.4	0.00e+00	0	35	0	1529872384	50	3829
2026-01-18 04:39:15.72	2.85	30.15	-39.4	-40.1	24.3	0.00e+00	0	35	0	1535115264	50	3887
2026-01-18 04:39:16.73	2.59	30.28	-39.4	-40.1	24.3	0.00e+00	0	35	0	1541406720	50	3891
2026-01-18 04:39:17.74	2.33	30.41	-39.2	-40.0	24.4	0.00e+00	0	35	0	1546649600	50	3827
2026-01-18 04:39:18.75	2.06	30.54	-39.1	-39.8	24.6	0.00e+00	0	35	0	1552941056	50	3769
2026-01-18 04:39:19.76	1.79	30.66	-39.1	-39.8	24.6	0.00e+00	0	35	0	1558183936	50	3768
2026-01-18 04:39:20.77	1.52	30.79	-39.0	-39.7	24.7	0.00e+00	0	35	0	1563426816	50	3715
2026-01-18 04:39:21.77	1.25	30.92	-39.0	-39.7	24.7	0.00e+00	0	35	0	1569718272	49	3939
2026-01-18 04:39:22.78	0.98	31.04	-39.2	-39.9	24.5	0.00e+00	0	35	0	1574961152	49	4018
2026-01-18 04:39:23.79	0.70	31.17	-39.1	-39.8	24.5	0.00e+00	0	35	0	1581252608	49	4004
2026-01-18 04:39:24.80	0.42	31.30	-39.2	-39.9	24.5	0.00e+00	0	35	0	1586495488	49	4039
2026-01-18 04:39:25.81	0.14	31.42	-39.1	-39.9	24.5	0.00e+00	0	35	0	1592786944	49	4013
2026-01-18 04:39:26.82	359.86	31.55	-39.3	-40.0	24.4	0.00e+00	0	35	0	1598029824	49	4064
2026-01-18 04:39:27.83	359.57	31.67	-39.3	-40.0	24.4	0.00e+00	0	35	0	1603272704	49	4094
2026-01-18 04:39:28.84	359.28	31.80	-39.1	-39.8	24.6	0.00e+00	0	35	0	1609564160	49	3981
2026-01-18 04:39:29.84	359.00	31.92	-39.0	-39.7	24.7	0.00e+00	0	36	0	1614807040	49	3937
2026-01-18 04:39:30.85	358.70	32.05	-39.1	-39.9	24.6	0.00e+00	0	35	0	1620049920	49	4006
2026-01-18 04:39:31.86	358.41	32.17	-39.1	-39.8	24.6	0.00e+00	0	35	0	1626341376	49	3986
2026-01-18 04:39:32.87	358.11	32.30	-39.1	-39.8	24.6	0.00e+00	0	35	0	1631584256	49	3997
2026-01-18 04:39:33.87	357.82	32.42	-39.2	-39.9	24.5	0.00e+00	0	35	0	1637875712	49	4021
2026-01-18 04:39:34.88	357.51	32.54	-39.2	-39.9	24.5	0.00e+00	0	35	0	1643118592	49	4024
2026-01-18 04:39:35.89	357.21	32.66	-38.9	-39.7	24.8	0.00e+00	0	35	0	1649410048	49	3918
2026-01-18 04:39:36.90	356.90	32.79	-39.0	-39.7	24.7	0.00e+00	0	35	0	1654652928	49	3927
2026-01-18 04:39:37.91	356.60	32.91	-39.0	-39.7	24.7	0.00e+00	0	35	0	1660944384	49	3948
2026-01-18 04:39:38.92	356.28	33.03	-38.9	-39.6	24.8	0.00e+00	0	35	0	1666187264	49	3909
2026-01-18 04:39:39.93	355.97	33.15	-38.8	-39.5	24.9	0.00e+00	0	35	0	1671430144	49	3863
2026-01-18 04:39:40.93	355.66	33.27	-38.9	-39.6	24.8	0.00e+00	0	35	0	1677721600	49	3903
2026-01-18 04:39:41.94	355.34	33.39	-38.9	-39.6	24.8	0.00e+00	0	35	0	1682964480	49	3875
2026-01-18 04:39:42.95	355.02	33.51	-38.7	-39.4	25.0	0.00e+00	0	35	0	1688207360	49	3817
2026-01-18 04:39:43.96	354.70	33.63	-38.6	-39.2	25.1	0.00e+00	0	35	0	1694498816	49	3737
2026-01-18 04:39:44.97	354.37	33.75	-38.6	-39.3	25.1	0.00e+00	0	35	0	1699741696	49	3755
2026-01-18 04:39:45.98	354.05	33.86	-38.8	-39.5	24.9	0.00e+00	0	35	0	1704984576	49	3829
2026-01-18 04:39:46.99	353.72	33.98	-38.8	-39.5	24.9	0.00e+00	0	35	0	1711276032	49	3855
2026-01-18 04:39:47.99	353.39	34.10	-38.8	-39.6	24.9	0.00e+00	0	35	0	1717567488	49	3872
2026-01-18 04:39:49.00	353.05	34.21	-38.8	-39.5	24.9	0.00e+00	0	36	0	1722810368	49	3845
2026-01-18 04:39:50.01	352.71	34.33	-38.8	-39.5	24.9	0.00e+00	0	35	0	1728053248	49	3841
2026-01-18 04:39:51.02	352.38	34.44	-38.8	-39.5	24.9	0.00e+00	0	35	0	1734344704	49	3859
2026-01-18 04:39:52.03	352.03	34.56	-38.8	-39.5	24.9	0.00e+00	0	35	0	1739587584	49	3850
2026-01-18 04:39:53.03	351.69	34.67	-38.8	-39.5	24.9	0.00e+00	0	35	0	1745879040	49	3859
2026-01-18 04:39:54.04	351.35	34.78	-39.0	-39.7	24.8	0.00e+00	0	35	0	1751121920	49	3933
2026-01-18 04:39:55.05	351.00	34.89	-39.1	-39.9	24.6	0.00e+00	0	35	0	1756364800	49	4006
2026-01-18 04:39:56.05	350.65	35.00	-39.3	-40.1	24.4	0.00e+00	0	35	0	1762656256	49	4112
2026-01-18 04:39:57.06	350.30	35.11	-39.3	-40.1	24.4	0.00e+00	0	35	0	1767899136	49	4113
2026-01-18 04:39:58.07	349.94	35.22	-39.4	-40.2	24.3	0.00e+00	0	35	0	1773142016	49	4157
2026-01-18 04:39:59.08	349.58	35.33	-39.4	-40.1	24.4	0.00e+00	0	35	0	1779433472	49	4135
2026-01-18 04:40:00.09	349.22	35.43	-39.2	-39.9	24.6	0.00e+00	0	35	0	1784676352	49	4029
2026-01-18 04:40:01.09	348.86	35.54	-39.1	-39.8	24.6	0.00e+00	0	35	0	1790967808	49	3995
2026-01-18 04:40:02.10	348.49	35.64	-38.9	-39.6	24.9	0.00e+00	0	35	0	1796210688	49	3884
2026-01-18 04:40:03.11	348.13	35.75	-39.0	-39.7	24.8	0.00e+00	0	35	0	1802502144	49	3925
2026-01-18 04:40:04.12	347.76	35.85	-38.7	-39.4	25.0	0.00e+00	0	35	0	1807745024	49	3822
2026-01-18 04:40:05.13	347.38	35.95	-38.7	-39.4	25.0	0.00e+00	0	35	0	1812987904	49	3810
2026-01-18 04:40:06.14	347.01	36.05	-38.7	-39.4	25.0	0.00e+00	0	35	0	1819279360	49	3810
2026-01-18 04:40:07.15	346.63	36.15	-38.7	-39.4	25.0	0.00e+00	0	35	0	1824522240	49	3809
2026-01-18 04:40:08.15	346.25	36.25	-38.8	-39.5	25.0	0.00e+00	0	35	0	1830813696	49	3852
2026-01-18 04:40:09.16	345.87	36.35	-38.9	-39.6	24.9	0.00e+00	0	35	0	1836056576	49	3907
2026-01-18 04:40:10.17	345.49	36.44	-38.8	-39.5	25.0	0.00e+00	0	35	0	1841299456	49	3853
2026-01-18 04:40:11.18	345.10	36.54	-38.7	-39.4	25.0	0.00e+00	0	35	0	1847590912	49	3821
2026-01-18 04:40:12.18	344.72	36.63	-38.8	-39.5	25.0	0.00e+00	0	35	0	1852833792	49	3854
2026-01-18 04:40:13.19	344.32	36.72	-38.9	-39.7	24.8	0.00e+00	0	35	0	1859125248	49	3915
2026-01-18 04:40:14.20	343.93	36.82	-38.9	-39.6	24.9	0.00e+00	0	35	0	1864368128	49	3895
2026-01-18 04:40:15.21	343.53	36.91	-39.0	-39.7	24.8	0.00e+00	0	35	0	1870659584	49	3935
2026-01-18 04:40:16.22	343.14	36.99	-39.2	-39.9	24.6	0.00e+00	0	35	0	1875902464	49	4039
2026-01-18 04:40:17.23	342.74	37.08	-39.2	-40.0	24.6	0.00e+00	0	35	0	1881145344	49	4066
2026-01-18 04:40:18.23	342.34	37.17	-39.3	-40.0	24.5	0.00e+00	0	35	0	1887436800	49	4090
2026-01-18 04:40:19.24	341.93	37.25	-39.2	-39.9	24.6	0.00e+00	0	35	0	1892679680	49	4030
2026-01-18 04:40:20.24	341.53	37.33	-39.0	-39.8	24.8	0.00e+00	0	35	0	1897922560	49	3960
2026-01-18 04:40:21.25	341.12	37.42	-38.8	-39.5	25.0	0.00e+00	0	35	0	1904214016	49	3867
2026-01-18 04:40:22.26	340.71	37.50	-38.8	-39.5	25.0	0.00e+00	0	35	0	1909456896	49	3858
2026-01-18 04:40:23.27	340.30	37.58	-38.9	-39.6	24.9	0.00e+00	0	35	0	1915748352	49	3902
2026-01-18 04:40:24.28	339.89	37.65	-38.9	-39.7	24.9	0.00e+00	0	35	0	1920991232	49	3916
2026-01-18 04:40:25.29	339.47	37.73	-38.8	-39.5	25.0	0.00e+00	0	35	0	1927282688	49	3854
2026-01-18 04:40:26.30	339.05	37.80	-38.9	-39.6	25.0	0.00e+00	0	35	0	1932525568	49	3888
2026-01-18 04:40:27.30	338.63	37.87	-39.1	-39.8	24.7	0.00e+00	0	35	0	1938817024	49	3986
2026-01-18 04:40:28.31	338.21	37.94	-39.1	-39.8	24.7	0.00e+00	0	35	0	1944059904	49	3995
2026-01-18 04:40:29.32	337.79	38.01	-39.1	-39.8	24.8	0.00e+00	0	35	0	1949302784	49	3968
2026-01-18 04:40:30.33	337.36	38.08	-39.1	-39.8	24.7	0.00e+00	0	35	0	1955594240	49	3985
2026-01-18 04:40:31.34	336.94	38.15	-39.1	-39.8	24.8	0.00e+00	0	35	0	1960837120	49	3980
2026-01-18 04:40:32.35	336.51	38.21	-39.0	-39.8	24.8	0.00e+00	0	35	0	1966080000	49	3960
2026-01-18 04:40:33.36	336.07	38.27	-39.2	-39.9	24.7	0.00e+00	0	35	0	1972371456	49	4024
2026-01-18 04:40:34.36	335.65	38.33	-39.2	-39.9	24.7	0.00e+00	0	35	0	1977614336	49	4043
2026-01-18 04:40:35.37	335.21	38.39	-39.2	-40.0	24.6	0.00e+00	0	35	0	1982857216	49	4052
2026-01-18 04:40:36.38	334.78	38.45	-39.0	-39.7	24.9	0.00e+00	0	35	0	1989148672	49	3924
2026-01-18 04:40:37.39	334.34	38.51	-39.0	-39.7	24.9	0.00e+00	0	35	0	1995440128	49	3929
2026-01-18 04:40:38.40	333.90	38.56	-39.1	-39.8	24.8	0.00e+00	0	35	0	2000683008	49	3965
2026-01-18 04:40:39.40	333.46	38.61	-39.1	-39.8	24.8	0.00e+00	0	35	0	2005925888	49	3967
2026-01-18 04:40:40.41	333.02	38.66	-39.2	-39.9	24.7	0.00e+00	0	35	0	2012217344	49	4018
2026-01-18 04:40:41.42	332.58	38.71	-39.1	-39.8	24.7	0.00e+00	0	35	0	2017460224	49	4000
2026-01-18 04:40:42.43	332.14	38.76	-38.9	-39.6	24.9	0.00e+00	0	35	0	2023751680	49	3910
2026-01-18 04:40:43.44	331.69	38.80	-38.9	-39.6	24.9	0.00e+00	0	35	0	2028994560	49	3911
2026-01-18 04:40:44.44	331.25	38.84	-38.9	-39.6	24.9	0.00e+00	0	35	0	2034237440	49	3898
2026-01-18 04:40:45.45	330.80	38.88	-38.9	-39.6	25.0	0.00e+00	0	35	0	2040528896	49	3873
2026-01-18 04:40:46.46	330.35	38.92	-38.8	-39.5	25.1	0.00e+00	0	35	0	2045771776	49	3838
2026-01-18 04:40:47.47	329.90	38.96	-38.9	-39.6	25.0	0.00e+00	0	35	0	2051014656	49	3874
2026-01-18 04:40:48.48	329.45	38.99	-39.0	-39.7	24.9	0.00e+00	0	35	0	2057306112	49	3939
2026-01-18 04:40:49.48	329.00	39.02	-39.0	-39.7	24.9	0.00e+00	0	35	0	2062548992	49	3943
2026-01-18 04:40:50.49	328.55	39.05	-38.9	-39.6	24.9	0.00e+00	0	35	0	2068840448	49	3905
2026-01-18 04:40:51.50	328.10	39.08	-38.8	-39.5	25.1	0.00e+00	0	35	0	2074083328	49	3833
2026-01-18 04:40:52.51	327.64	39.11	-38.9	-39.6	25.0	0.00e+00	0	35	0	2080374784	49	3870
2026-01-18 04:40:53.51	327.19	39.13	-39.0	-39.8	24.8	0.00e+00	0	35	0	2085617664	49	3961
2026-01-18 04:40:54.52	326.73	39.16	-39.0	-39.7	24.8	0.00e+00	0	35	0	2090860544	49	3952
2026-01-18 04:40:55.53	326.28	39.18	-38.9	-39.6	24.9	0.00e+00	0	35	0	2097152000	49	3913
2026-01-18 04:40:56.54	325.82	39.20	-38.8	-39.5	25.1	0.00e+00	0	35	0	2102394880	49	3831
2026-01-18 04:40:57.55	325.36	39.21	-38.7	-39.4	25.2	0.00e+00	0	35	0	2108686336	49	3790
2026-01-18 04:40:58.55	324.91	39.23	-38.9	-39.6	25.0	0.00e+00	0	35	0	2113929216	49	3881
2026-01-18 04:40:59.56	324.45	39.24	-38.9	-39.7	24.9	0.00e+00	0	35	0	2119172096	49	3916
2026-01-18 04:41:00.57	323.99	39.25	-38.7	-39.3	25.2	0.00e+00	0	35	0	2125463552	49	3780
2026-01-18 04:41:01.58	323.53	39.26	-38.6	-39.3	25.2	0.00e+00	0	35	0	2130706432	49	3756
2026-01-18 04:41:02.59	323.07	39.26	-38.6	-39.3	25.2	0.00e+00	0	35	0	2136997888	49	3760
2026-01-18 04:41:03.59	322.62	39.26	-38.7	-39.4	25.2	0.00e+00	0	35	0	2142240768	49	3799
2026-01-18 04:41:04.60	322.16	39.27	-38.7	-39.4	25.1	0.00e+00	0	35	0	2148532224	49	3802
2026-01-18 04:41:05.61	321.70	39.27	-38.7	-39.4	25.2	0.00e+00	0	35	0	2153775104	49	3794
2026-01-18 04:41:06.62	321.24	39.26	-38.8	-39.5	25.1	0.00e+00	0	35	0	2159017984	49	3858
2026-01-18 04:41:07.63	320.78	39.26	-38.9	-39.7	24.9	0.00e+00	0	35	0	2165309440	49	3921
2026-01-18 04:41:08.64	320.32	39.25	-38.9	-39.6	25.0	0.00e+00	0	35	0	2170552320	49	3901
2026-01-18 04:41:09.64	319.87	39.24	-38.9	-39.6	25.0	0.00e+00	0	35	0	2175795200	49	3891
2026-01-18 04:41:10.65	319.41	39.23	-38.9	-39.6	25.0	0.00e+00	0	35	0	2182086656	49	3911
2026-01-18 04:41:11.66	318.95	39.22	-38.8	-39.5	25.1	0.00e+00	0	35	0	2187329536	49	3846
2026-01-18 04:41:12.67	318.49	39.20	-38.8	-39.5	25.1	0.00e+00	0	35	0	2193620992	49	3857
2026-01-18 04:41:13.68	318.04	39.19	-38.7	-39.4	25.2	0.00e+00	0	35	0	2198863872	49	3789
2026-01-18 04:41:14.69	317.58	39.17	-38.7	-39.4	25.2	0.00e+00	0	35	0	2205155328	49	3789
2026-01-18 04:41:15.69	317.13	39.15	-38.8	-39.5	25.1	0.00e+00	0	35	0	2210398208	49	3839
2026-01-18 04:41:16.70	316.67	39.12	-38.8	-39.5	25.0	0.00e+00	0	35	0	2216689664	49	3860
2026-01-18 04:41:17.71	316.22	39.10	-38.9	-39.6	25.0	0.00e+00	0	35	0	2221932544	49	3890
2026-01-18 04:41:18.72	315.76	39.07	-38.7	-39.4	25.1	0.00e+00	0	35	0	2227175424	49	3823
2026-01-18 04:41:19.72	315.31	39.04	-38.5	-39.2	25.3	0.00e+00	0	35	0	2233466880	49	3703
2026-01-18 04:41:20.73	314.86	39.01	-38.6	-39.3	25.2	0.00e+00	0	35	0	2238709760	48	3961
2026-01-18 04:41:21.74	314.41	38.98	-38.7	-39.4	25.1	0.00e+00	0	35	0	2243952640	48	4025
2026-01-18 04:41:22.75	313.96	38.94	-38.8	-39.5	25.1	0.00e+00	0	35	0	2250244096	48	4058
2026-01-18 04:41:23.75	313.51	38.90	-38.7	-39.4	25.1	0.00e+00	0	35	0	2255486976	48	4019
2026-01-18 04:41:24.76	313.06	38.87	-38.7	-39.4	25.1	0.00e+00	0	35	0	2260729856	48	4037
2026-01-18 04:41:25.77	312.62	38.82	-38.8	-39.5	25.0	0.00e+00	0	35	0	2267021312	48	4080
2026-01-18 04:41:26.78	312.17	38.78	-38.9	-39.6	25.0	0.00e+00	0	35	0	2272264192	48	4133
2026-01-18 04:41:27.79	311.73	38.74	-38.9	-39.5	25.0	0.00e+00	0	35	0	2278555648	48	4098
2026-01-18 04:41:28.80	311.28	38.69	-38.9	-39.6	25.0	0.00e+00	0	35	0	2283798528	48	4109
2026-01-18 04:41:29.80	310.84	38.64	-38.9	-39.6	24.9	0.00e+00	0	35	0	2290089984	48	4129
2026-01-18 04:41:30.81	310.40	38.59	-39.1	-39.8	24.8	0.00e+00	0	35	0	2295332864	48	4239
2026-01-18 04:41:31.82	309.96	38.54	-39.1	-39.8	24.8	0.00e+00	0	35	0	2301624320	48	4210
2026-01-18 04:41:32.83	309.52	38.48	-39.0	-39.7	24.8	0.00e+00	0	35	0	2306867200	48	4188
2026-01-18 04:41:33.84	309.09	38.43	-38.8	-39.5	25.0	0.00e+00	0	35	0	2312110080	48	4091
2026-01-18 04:41:34.85	308.65	38.37	-38.8	-39.5	25.1	0.00e+00	0	35	0	2318401536	48	4070
2026-01-18 04:41:35.85	308.22	38.31	-38.7	-39.4	25.2	0.00e+00	0	35	0	2323644416	48	4027
2026-01-18 04:41:36.85	307.79	38.25	-38.7	-39.4	25.2	0.00e+00	0	35	0	2328887296	48	4010
2026-01-18 04:41:37.86	307.36	38.18	-38.6	-39.3	25.2	0.00e+00	0	35	0	2335178752	48	3976
2026-01-18 04:41:38.87	306.93	38.12	-38.5	-39.2	25.3	0.00e+00	0	35	0	2340421632	48	3941
2026-01-18 04:41:39.88	306.51	38.05	-38.5	-39.2	25.3	0.00e+00	0	35	0	2345664512	48	3941
2026-01-18 04:41:40.89	306.08	37.98	-38.5	-39.2	25.3	0.00e+00	0	35	0	2351955968	48	3931
2026-01-18 04:41:41.89	305.66	37.91	-38.8	-39.5	25.0	0.00e+00	0	35	0	2358247424	48	4084
2026-01-18 04:41:42.90	305.24	37.84	-38.9	-39.6	24.9	0.00e+00	0	35	0	2363490304	48	4141
2026-01-18 04:41:43.91	304.82	37.77	-38.9	-39.6	25.0	0.00e+00	0	35	0	2368733184	48	4120
2026-01-18 04:41:44.92	304.40	37.69	-38.9	-39.6	25.0	0.00e+00	0	35	0	2375024640	48	4115
2026-01-18 04:41:45.92	303.99	37.62	-38.9	-39.6	25.0	0.00e+00	0	35	0	2380267520	48	4103
2026-01-18 04:41:46.93	303.57	37.54	-38.9	-39.6	25.0	0.00e+00	0	35	0	2386558976	48	4103
2026-01-18 04:41:47.94	303.16	37.46	-39.0	-39.8	24.8	0.00e+00	0	35	0	2391801856	48	4196
2026-01-18 04:41:48.95	302.75	37.38	-39.0	-39.7	24.9	0.00e+00	0	35	0	2397044736	48	4165
2026-01-18 04:41:49.96	302.34	37.30	-38.9	-39.6	25.0	0.00e+00	0	35	0	2403336192	48	4124
2026-01-18 04:41:50.97	301.94	37.21	-38.9	-39.6	25.0	0.00e+00	0	35	0	2408579072	48	4134
2026-01-18 04:41:51.97	301.54	37.13	-38.9	-39.6	25.0	0.00e+00	0	35	0	2413821952	48	4123
2026-01-18 04:41:52.98	301.14	37.04	-39.0	-39.7	24.9	0.00e+00	0	35	0	2420113408	48	4151
2026-01-18 04:41:53.99	300.74	36.96	-38.8	-39.5	25.1	0.00e+00	0	35	0	2426404864	48	4052
2026-01-18 04:41:55.00	300.34	36.87	-38.7	-39.4	25.1	0.00e+00	0	35	0	2431647744	48	4045
2026-01-18 04:41:56.00	299.95	36.78	-38.9	-39.6	25.0	0.00e+00	0	35	0	2436890624	48	4107
2026-01-18 04:41:57.01	299.55	36.68	-38.9	-39.6	24.9	0.00e+00	0	35	0	2443182080	48	4133
2026-01-18 04:41:58.02	299.16	36.59	-38.8	-39.5	25.0	0.00e+00	0	35	0	2448424960	48	4097
2026-01-18 04:41:59.03	298.78	36.50	-38.9	-39.7	24.9	0.00e+00	0	35	0	2453667840	48	4149
2026-01-18 04:42:00.04	298.39	36.40	-39.0	-39.7	24.9	0.00e+00	0	35	0	2459959296	48	4183
2026-01-18 04:42:01.05	298.01	36.30	-38.9	-39.7	24.9	0.00e+00	0	35	0	2465202176	48	4152
2026-01-18 04:42:02.05	297.63	36.21	-39.0	-39.7	24.9	0.00e+00	0	35	0	2471493632	48	4147
2026-01-18 04:42:03.06	297.25	36.11	-38.9	-39.6	25.0	0.00e+00	0	35	0	2476736512	48	4114
2026-01-18 04:42:04.07	296.87	36.01	-39.0	-39.7	24.9	0.00e+00	0	35	0	2481979392	48	4160
2026-01-18 04:42:05.07	296.50	35.91	-39.1	-39.8	24.8	0.00e+00	0	35	0	2488270848	48	4206
2026-01-18 04:42:06.08	296.13	35.80	-39.1	-39.8	24.8	0.00e+00	0	35	0	2493513728	48	4228
2026-01-18 04:42:07.09	295.76	35.70	-39.2	-39.9	24.7	0.00e+00	0	35	0	2499805184	48	4248
2026-01-18 04:42:08.10	295.39	35.60	-39.1	-39.9	24.8	0.00e+00	0	35	0	2505048064	48	4243
2026-01-18 04:42:09.11	295.02	35.49	-38.9	-39.7	24.9	0.00e+00	0	35	0	2511339520	48	4149
2026-01-18 04:42:10.11	294.66	35.38	-38.9	-39.6	24.9	0.00e+00	0	35	0	2516582400	48	4131
2026-01-18 04:42:11.12	294.30	35.28	-38.8	-39.5	25.1	0.00e+00	0	35	0	2521825280	48	4058
2026-01-18 04:42:12.13	293.95	35.17	-38.8	-39.5	25.1	0.00e+00	0	35	0	2528116736	48	4060
2026-01-18 04:42:13.14	293.59	35.06	-38.7	-39.5	25.1	0.00e+00	0	35	0	2533359616	48	4053
2026-01-18 04:42:14.14	293.24	34.95	-38.8	-39.5	25.0	0.00e+00	0	35	0	2538602496	48	4095
2026-01-18 04:42:15.15	292.89	34.84	-38.8	-39.5	25.0	0.00e+00	0	35	0	2544893952	48	4077
2026-01-18 04:42:16.16	292.54	34.73	-38.9	-39.6	25.0	0.00e+00	0	35	0	2550136832	48	4111
2026-01-18 04:42:17.17	292.19	34.61	-39.0	-39.7	24.9	0.00e+00	0	35	0	2556428288	48	4156
2026-01-18 04:42:18.18	291.85	34.50	-39.1	-39.9	24.7	0.00e+00	0	35	0	2561671168	48	4244
2026-01-18 04:42:19.19	291.51	34.39	-39.0	-39.7	24.9	0.00e+00	0	35	0	2566914048	48	4173
2026-01-18 04:42:20.19	291.17	34.27	-39.0	-39.7	24.8	0.00e+00	0	35	0	2573205504	48	4185
2026-01-18 04:42:21.20	290.84	34.16	-38.9	-39.6	24.9	0.00e+00	0	35	0	2579496960	48	4129
2026-01-18 04:42:22.21	290.50	34.04	-39.0	-39.7	24.9	0.00e+00	0	35	0	2584739840	48	4146
2026-01-18 04:42:23.22	290.17	33.92	-39.0	-39.7	24.8	0.00e+00	0	35	0	2589982720	48	4191
2026-01-18 04:42:24.22	289.84	33.81	-39.0	-39.7	24.9	0.00e+00	0	35	0	2596274176	48	4156
2026-01-18 04:42:25.23	289.52	33.69	-38.9	-39.6	25.0	0.00e+00	0	35	0	2601517056	48	4118
2026-01-18 04:42:26.24	289.19	33.57	-38.9	-39.6	24.9	0.00e+00	0	35	0	2606759936	48	4127
2026-01-18 04:42:27.25	288.87	33.45	-38.9	-39.6	24.9	0.00e+00	0	35	0	2613051392	48	4145
2026-01-18 04:42:28.26	288.55	33.33	-39.0	-39.7	24.9	0.00e+00	0	35	0	2618294272	48	4148
2026-01-18 04:42:29.27	288.23	33.21	-38.8	-39.5	25.0	0.00e+00	0	35	0	2623537152	48	4093
2026-01-18 04:42:30.27	287.92	33.09	-38.9	-39.6	25.0	0.00e+00	0	35	0	2629828608	48	4100
2026-01-18 04:42:31.28	287.61	32.97	-38.8	-39.5	25.0	0.00e+00	0	35	0	2635071488	48	4077
2026-01-18 04:42:32.29	287.30	32.85	-38.9	-39.6	24.9	0.00e+00	0	35	0	2641362944	48	4128
2026-01-18 04:42:33.30	286.99	32.72	-39.1	-39.8	24.7	0.00e+00	0	35	0	2646605824	48	4223
2026-01-18 04:42:34.31	286.68	32.60	-39.2	-39.9	24.6	0.00e+00	0	35	0	2652897280	48	4280
2026-01-18 04:42:35.32	286.38	32.48	-39.2	-39.9	24.7	0.00e+00	0	35	0	2658140160	49	4009
2026-01-18 04:42:36.33	286.08	32.35	-39.1	-39.8	24.7	0.00e+00	0	35	0	2664431616	49	3993
2026-01-18 04:42:37.33	285.78	32.23	-39.1	-39.8	24.8	0.00e+00	0	35	0	2669674496	49	3966
2026-01-18 04:42:38.34	285.49	32.11	-39.1	-39.8	24.7	0.00e+00	0	36	0	2674917376	49	3997
2026-01-18 04:42:39.35	285.19	31.98	-39.1	-39.8	24.7	0.00e+00	0	35	0	2681208832	49	3987
2026-01-18 04:42:40.36	284.90	31.86	-39.0	-39.7	24.9	0.00e+00	0	35	0	2686451712	49	3915
2026-01-18 04:42:41.37	284.61	31.73	-39.1	-39.8	24.7	0.00e+00	0	35	0	2691694592	49	3982
2026-01-18 04:42:42.37	284.33	31.61	-39.0	-39.7	24.9	0.00e+00	0	35	0	2697986048	49	3918
2026-01-18 04:42:43.38	284.04	31.48	-38.9	-39.6	24.9	0.00e+00	0	35	0	2703228928	49	3896
2026-01-18 04:42:44.39	283.76	31.36	-39.0	-39.8	24.8	0.00e+00	0	35	0	2709520384	49	3960
2026-01-18 04:42:45.40	283.48	31.23	-39.0	-39.7	24.8	0.00e+00	0	35	0	2714763264	49	3956
2026-01-18 04:42:46.41	283.20	31.10	-39.0	-39.7	24.8	0.00e+00	0	35	0	2721054720	49	3947
2026-01-18 04:42:47.41	282.92	30.98	-38.9	-39.6	24.9	0.00e+00	0	35	0	2726297600	49	3879
2026-01-18 04:42:48.42	282.65	30.85	-38.9	-39.6	24.9	0.00e+00	0	35	0	2731540480	49	3908
2026-01-18 04:42:49.43	282.38	30.72	-39.1	-39.8	24.7	0.00e+00	0	36	0	2737831936	49	3984
2026-01-18 04:42:50.44	282.11	30.59	-39.1	-39.8	24.7	0.00e+00	0	35	0	2743074816	49	3990
2026-01-18 04:42:51.45	281.84	30.47	-39.1	-39.8	24.7	0.00e+00	0	35	0	2749366272	49	4000
2026-01-18 04:42:52.45	281.58	30.34	-39.2	-39.8	24.7	0.00e+00	0	35	0	2754609152	49	4003
2026-01-18 04:42:53.46	281.31	30.21	-39.1	-39.8	24.7	0.00e+00	0	35	0	2759852032	49	4001
2026-01-18 04:42:54.47	281.05	30.08	-39.0	-39.8	24.8	0.00e+00	0	35	0	2766143488	49	3959
2026-01-18 04:42:55.48	280.79	29.96	-39.2	-39.9	24.6	0.00e+00	0	35	0	2771386368	49	4039
2026-01-18 04:42:56.48	280.54	29.83	-39.3	-40.0	24.6	0.00e+00	0	35	0	2776629248	49	4067
2026-01-18 04:42:57.49	280.28	29.70	-39.3	-40.1	24.5	0.00e+00	0	35	0	2782920704	49	4108
2026-01-18 04:42:58.50	280.03	29.57	-39.4	-40.1	24.5	0.00e+00	0	35	0	2789212160	49	4117
2026-01-18 04:42:59.51	279.78	29.44	-39.3	-40.0	24.6	0.00e+00	0	35	0	2794455040	49	4075
2026-01-18 04:43:00.52	279.53	29.32	-39.2	-39.9	24.6	0.00e+00	0	35	0	2799697920	49	4028
2026-01-18 04:43:01.53	279.28	29.19	-39.3	-40.0	24.6	0.00e+00	0	35	0	2805989376	49	4058
2026-01-18 04:43:02.53	279.04	29.06	-39.4	-40.1	24.5	0.00e+00	0	35	0	2811232256	49	4107
2026-01-18 04:43:03.54	278.79	28.93	-39.4	-40.1	24.4	0.00e+00	0	36	0	2816475136	49	4130
2026-01-18 04:43:04.55	278.55	28.80	-39.4	-40.1	24.4	0.00e+00	0	35	0	2822766592	49	4121
2026-01-18 04:43:05.56	278.31	28.68	-39.4	-40.1	24.4	0.00e+00	0	35	0	2828009472	49	4129
2026-01-18 04:43:06.57	278.08	28.55	-39.3	-40.1	24.5	0.00e+00	0	35	0	2834300928	49	4106
2026-01-18 04:43:07.57	277.84	28.42	-39.3	-40.1	24.5	0.00e+00	0	35	0	2839543808	49	4108
2026-01-18 04:43:08.58	277.61	28.29	-39.3	-40.1	24.5	0.00e+00	0	36	0	2844786688	49	4101
2026-01-18 04:43:09.59	277.38	28.16	-39.4	-40.1	24.4	0.00e+00	0	35	0	2851078144	49	4125
2026-01-18 04:43:10.60	277.15	28.04	-39.4	-40.1	24.4	0.00e+00	0	36	0	2857369600	49	4127
2026-01-18 04:43:11.61	276.92	27.91	-39.4	-40.1	24.4	0.00e+00	0	35	0	2862612480	49	4120
2026-01-18 04:43:12.62	276.69	27.78	-39.4	-40.1	24.4	0.00e+00	0	36	0	2867855360	49	4136
2026-01-18 04:43:13.63	276.47	27.65	-39.4	-40.2	24.4	0.00e+00	0	35	0	2874146816	49	4147
2026-01-18 04:43:14.63	276.25	27.52	-39.5	-40.2	24.3	0.00e+00	0	35	0	2879389696	49	4188
2026-01-18 04:43:15.64	276.03	27.40	-39.5	-40.2	24.3	0.00e+00	0	35	0	2884632576	49	4191
2026-01-18 04:43:16.65	275.81	27.27	-39.5	-40.2	24.3	0.00e+00	0	35	0	2890924032	49	4185
2026-01-18 04:43:17.66	275.59	27.14	-39.5	-40.3	24.3	0.00e+00	0	35	0	2896166912	49	4195
2026-01-18 04:43:18.67	275.37	27.01	-39.4	-40.1	24.4	0.00e+00	0	35	0	2901409792	49	4135
2026-01-18 04:43:19.67	275.16	26.89	-39.5	-40.2	24.3	0.00e+00	0	35	0	2907701248	49	4152
2026-01-18 04:43:20.68	274.95	26.76	-39.5	-40.2	24.3	0.00e+00	0	35	0	2912944128	49	4179
2026-01-18 04:43:21.69	274.74	26.63	-39.6	-40.3	24.2	0.00e+00	0	36	0	2919235584	49	4228
2026-01-18 04:43:22.70	274.53	26.51	-39.6	-40.3	24.2	0.00e+00	0	35	0	2924478464	49	4232
2026-01-18 04:43:23.70	274.33	26.38	-39.7	-40.4	24.1	0.00e+00	0	35	0	2930769920	49	4290
2026-01-18 04:43:24.71	274.12	26.26	-39.8	-40.5	24.1	0.00e+00	0	35	0	2936012800	50	4081
2026-01-18 04:43:25.72	273.92	26.13	-39.8	-40.6	24.0	0.00e+00	0	35	0	2942304256	50	4110
2026-01-18 04:43:26.73	273.72	26.00	-39.9	-40.6	24.0	0.00e+00	0	35	0	2947547136	50	4136
2026-01-18 04:43:27.74	273.51	25.88	-39.9	-40.6	23.9	0.00e+00	0	35	0	2952790016	50	4142
2026-01-18 04:43:28.74	273.32	25.75	-40.0	-40.7	23.8	0.00e+00	0	35	0	2959081472	50	4176
2026-01-18 04:43:29.75	273.12	25.63	-40.1	-40.8	23.7	0.00e+00	0	35	0	2964324352	50	4238
2026-01-18 04:43:30.76	272.92	25.50	-40.0	-40.7	23.8	0.00e+00	0	35	0	2969567232	50	4178
2026-01-18 04:43:31.77	272.73	25.38	-40.0	-40.7	23.8	0.00e+00	0	36	0	2975858688	50	4172
2026-01-18 04:43:32.77	272.54	25.26	-40.0	-40.7	23.9	0.00e+00	0	35	0	2981101568	50	4173
2026-01-18 04:43:33.78	272.35	25.13	-39.9	-40.6	23.9	0.00e+00	0	35	0	2986344448	50	4139
2026-01-18 04:43:34.79	272.16	25.01	-39.7	-40.5	24.1	0.00e+00	0	35	0	2992635904	50	4057
2026-01-18 04:43:35.80	271.97	24.88	-39.8	-40.6	24.0	0.00e+00	0	35	0	2998927360	50	4102
2026-01-18 04:43:36.80	271.79	24.76	-39.8	-40.5	24.0	0.00e+00	0	35	0	3004170240	50	4086
2026-01-18 04:43:37.81	271.60	24.64	-39.9	-40.6	23.9	0.00e+00	0	35	0	3009413120	50	4130
2026-01-18 04:43:38.82	271.42	24.51	-39.8	-40.6	24.0	0.00e+00	0	35	0	3015704576	50	4112
2026-01-18 04:43:39.83	271.23	24.39	-39.8	-40.5	24.0	0.00e+00	0	35	0	3020947456	50	4070
2026-01-18 04:43:40.84	271.05	24.27	-39.8	-40.5	24.0	0.00e+00	0	35	0	3027238912	50	4070
2026-01-18 04:43:41.85	270.87	24.15	-39.8	-40.5	24.1	0.00e+00	0	35	0	3032481792	50	4062
2026-01-18 04:43:42.85	270.70	24.02	-39.8	-40.6	24.0	0.00e+00	0	36	0	3037724672	50	4101
2026-01-18 04:43:43.86	270.52	23.90	-39.8	-40.5	24.0	0.00e+00	0	35	0	3044016128	50	4092
2026-01-18 04:43:44.87	270.35	23.78	-39.8	-40.5	24.0	0.00e+00	0	35	0	3049259008	50	4077
2026-01-18 04:43:45.88	270.17	23.66	-39.9	-40.7	23.9	0.00e+00	0	35	0	3054501888	50	4151
2026-01-18 04:43:46.88	270.00	23.54	-39.7	-40.5	24.1	0.00e+00	0	35	0	3060793344	50	4054
2026-01-18 04:43:47.89	269.83	23.42	-39.8	-40.5	24.0	0.00e+00	0	35	0	3067084800	50	4098
2026-01-18 04:43:48.90	269.66	23.30	-39.9	-40.6	23.9	0.00e+00	0	35	0	3072327680	50	4136
2026-01-18 04:43:49.91	269.49	23.18	-39.8	-40.5	24.0	0.00e+00	0	35	0	3077570560	50	4068
2026-01-18 04:43:50.92	269.32	23.06	-39.8	-40.6	23.9	0.00e+00	0	35	0	3083862016	50	4102
2026-01-18 04:43:51.93	269.16	22.94	-39.8	-40.5	24.0	0.00e+00	0	35	0	3089104896	50	4068
2026-01-18 04:43:52.93	269.00	22.82	-39.9	-40.6	23.9	0.00e+00	0	35	0	3094347776	50	4134
2026-01-18 04:43:53.94	268.83	22.70	-39.9	-40.7	23.8	0.00e+00	0	36	0	3100639232	50	4152
2026-01-18 04:43:54.95	268.67	22.58	-40.1	-40.8	23.7	0.00e+00	0	35	0	3105882112	50	4234
2026-01-18 04:43:55.96	268.51	22.46	-40.1	-40.8	23.7	0.00e+00	0	35	0	3112173568	50	4233
2026-01-18 04:43:56.97	268.35	22.35	-40.1	-40.8	23.7	0.00e+00	0	35	0	3117416448	50	4234
2026-01-18 04:43:57.97	268.19	22.23	-40.0	-40.8	23.7	0.00e+00	0	35	0	3122659328	50	4204
2026-01-18 04:43:58.98	268.04	22.11	-40.0	-40.8	23.7	0.00e+00	0	35	0	3128950784	50	4219
2026-01-18 04:43:59.99	267.88	21.99	-40.0	-40.7	23.7	0.00e+00	0	35	0	3135242240	50	4185
2026-01-18 04:44:01.00	267.72	21.88	-39.9	-40.6	23.9	0.00e+00	0	35	0	3140485120	50	4118
2026-01-18 04:44:02.01	267.57	21.76	-39.9	-40.7	23.8	0.00e+00	0	35	0	3145728000	50	4163
2026-01-18 04:44:03.01	267.42	21.65	-39.9	-40.7	23.8	0.00e+00	0	35	0	3152019456	50	4158
2026-01-18 04:44:04.02	267.27	21.53	-39.9	-40.6	23.9	0.00e+00	0	35	0	3157262336	50	4118
2026-01-18 04:44:05.03	267.12	21.41	-39.9	-40.6	23.8	0.00e+00	0	35	0	3162505216	50	4142
2026-01-18 04:44:06.04	266.97	21.30	-40.0	-40.8	23.7	0.00e+00	0	36	0	3168796672	50	4208
2026-01-18 04:44:07.05	266.82	21.18	-40.1	-40.8	23.6	0.00e+00	0	35	0	3174039552	50	4241
2026-01-18 04:44:08.05	266.68	21.07	-40.0	-40.7	23.7	0.00e+00	0	35	0	3179282432	50	4189
2026-01-18 04:44:09.07	266.53	20.95	-40.0	-40.7	23.7	0.00e+00	0	36	0	3185573888	50	4190
2026-01-18 04:44:10.07	266.39	20.84	-40.1	-40.8	23.7	0.00e+00	0	35	0	3190816768	50	4223
2026-01-18 04:44:11.08	266.24	20.73	-40.1	-40.9	23.6	0.00e+00	0	36	0	3197108224	50	4247
2026-01-18 04:44:12.09	266.10	20.61	-40.2	-40.9	23.5	0.00e+00	0	35	0	3202351104	50	4288
2026-01-18 04:44:13.10	265.96	20.50	-40.3	-41.1	23.4	0.00e+00	0	35	0	3208642560	51	4118
2026-01-18 04:44:14.11	265.82	20.39	-40.3	-41.0	23.5	0.00e+00	0	35	0	3213885440	51	4093
2026-01-18 04:44:15.12	265.68	20.28	-40.3	-41.1	23.4	0.00e+00	0	35	0	3220176896	51	4109
2026-01-18 04:44:16.12	265.54	20.16	-40.3	-41.1	23.4	0.00e+00	0	35	0	3225419776	51	4122
2026-01-18 04:44:17.13	265.41	20.05	-40.4	-41.2	23.3	0.00e+00	0	36	0	3230662656	51	4166
2026-01-18 04:44:18.14	265.27	19.94	-40.4	-41.1	23.3	0.00e+00	0	35	0	3236954112	51	4140
2026-01-18 04:44:19.15	265.13	19.83	-40.5	-41.3	23.2	0.00e+00	0	35	0	3242196992	51	4205
2026-01-18 04:44:20.16	265.00	19.72	-40.6	-41.4	23.1	0.00e+00	0	35	0	3247439872	51	4265
2026-01-18 04:44:21.17	264.87	19.61	-40.5	-41.3	23.2	0.00e+00	0	36	0	3253731328	51	4214
2026-01-18 04:44:22.17	264.74	19.50	-40.5	-41.3	23.2	0.00e+00	0	35	0	3258974208	51	4216
2026-01-18 04:44:23.18	264.61	19.39	-40.5	-41.2	23.2	0.00e+00	0	35	0	3264217088	51	4186
2026-01-18 04:44:24.19	264.47	19.28	-40.5	-41.3	23.2	0.00e+00	0	35	0	3270508544	51	4220
2026-01-18 04:44:25.20	264.35	19.17	-40.5	-41.3	23.1	0.00e+00	0	35	0	3276800000	51	4218
2026-01-18 04:44:26.21	264.22	19.06	-40.6	-41.4	23.1	0.00e+00	0	35	0	3282042880	51	4243
2026-01-18 04:44:27.22	264.09	18.95	-40.6	-41.3	23.1	0.00e+00	0	35	0	3287285760	51	4234
2026-01-18 04:44:28.23	263.96	18.84	-40.5	-41.3	23.2	0.00e+00	0	36	0	3293577216	51	4197
2026-01-18 04:44:29.23	263.84	18.74	-40.6	-41.4	23.1	0.00e+00	0	35	0	3298820096	51	4263
2026-01-18 04:44:30.24	263.71	18.63	-40.7	-41.4	23.0	0.00e+00	0	35	0	3305111552	51	4290
2026-01-18 04:44:31.25	263.59	18.52	-40.6	-41.4	23.1	0.00e+00	0	35	0	3310354432	51	4263
2026-01-18 04:44:32.26	263.47	18.42	-40.7	-41.5	23.0	0.00e+00	0	35	0	3315597312	51	4300
2026-01-18 04:44:33.26	263.35	18.31	-40.6	-41.4	22.9	0.00e+00	0	35	0	3321888768	52	4047
2026-01-18 04:44:34.27	263.22	18.20	-40.8	-41.5	22.8	0.00e+00	0	35	0	3327131648	52	4096
2026-01-18 04:44:35.28	263.10	18.10	-40.7	-41.5	22.9	0.00e+00	0	36	0	3332374528	52	4084
2026-01-18 04:44:36.29	262.99	17.99	-40.9	-41.7	22.7	0.00e+00	0	36	0	3338665984	52	4169
2026-01-18 04:44:37.30	262.87	17.89	-40.8	-41.6	22.8	0.00e+00	0	35	0	3344957440	52	4118
2026-01-18 04:44:38.30	262.75	17.78	-40.9	-41.7	22.7	0.00e+00	0	35	0	3350200320	52	4155
2026-01-18 04:44:39.31	262.63	17.68	-40.9	-41.7	22.7	0.00e+00	0	35	0	3355443200	52	4161
2026-01-18 04:44:40.32	262.52	17.57	-40.9	-41.7	22.7	0.00e+00	0	35	0	3361734656	52	4173
2026-01-18 04:44:41.33	262.40	17.47	-40.9	-41.7	22.6	0.00e+00	0	35	0	3366977536	52	4181
2026-01-18 04:44:42.34	262.29	17.37	-41.0	-41.8	22.6	0.00e+00	0	35	0	3372220416	52	4208
2026-01-18 04:44:43.35	262.17	17.26	-40.9	-41.7	22.6	0.00e+00	0	35	0	3378511872	52	4191
2026-01-18 04:44:44.35	262.06	17.16	-40.8	-41.6	22.7	0.00e+00	0	35	0	3383754752	52	4133
2026-01-18 04:44:45.36	261.95	17.06	-40.9	-41.7	22.6	0.00e+00	0	35	0	3390046208	52	4172
2026-01-18 04:44:46.37	261.84	16.96	-40.9	-41.7	22.6	0.00e+00	0	36	0	3395289088	52	4161
2026-01-18 04:44:47.38	261.73	16.85	-41.0	-41.8	22.6	0.00e+00	0	35	0	3400531968	52	4205
2026-01-18 04:44:48.38	261.62	16.75	-40.9	-41.7	22.6	0.00e+00	0	35	0	3406823424	52	4181
2026-01-18 04:44:49.39	261.51	16.65	-40.9	-41.7	22.6	0.00e+00	0	36	0	3413114880	52	4163
2026-01-18 04:44:50.40	261.40	16.55	-41.0	-41.8	22.5	0.00e+00	0	35	0	3418357760	52	4211
2026-01-18 04:44:51.41	261.29	16.45	-41.1	-41.8	22.5	0.00e+00	0	35	0	3423600640	52	4240
2026-01-18 04:44:52.41	261.19	16.35	-41.1	-41.9	22.5	0.00e+00	0	35	0	3429892096	52	4247
2026-01-18 04:44:53.42	261.08	16.25	-41.1	-41.9	22.4	0.00e+00	0	35	0	3435134976	52	4277
2026-01-18 04:44:54.43	260.98	16.15	-41.2	-42.0	22.3	0.00e+00	0	35	0	3440377856	52	4304
2026-01-18 04:44:55.43	260.87	16.05	-41.3	-42.1	22.3	0.00e+00	0	35	0	3446669312	53	4117
2026-01-18 04:44:56.44	260.77	15.95	-41.3	-42.1	22.2	0.00e+00	0	36	0	3451912192	53	4127
2026-01-18 04:44:57.45	260.67	15.85	-41.3	-42.2	22.2	0.00e+00	0	35	0	3457155072	53	4159
2026-01-18 04:44:58.46	260.56	15.75	-41.4	-42.2	22.1	0.00e+00	0	35	0	3463446528	53	4189
2026-01-18 04:44:59.47	260.46	15.65	-41.4	-42.3	22.0	0.00e+00	0	35	0	3468689408	53	4212
2026-01-18 04:45:00.48	260.36	15.56	-41.5	-42.3	22.0	0.00e+00	0	35	0	3474980864	53	4237
2026-01-18 04:45:01.48	260.26	15.46	-41.6	-42.5	21.9	0.00e+00	0	35	0	3480223744	53	4304
2026-01-18 04:45:02.49	260.16	15.36	-41.6	-42.4	21.9	0.00e+00	0	35	0	3486515200	53	4272
2026-01-18 04:45:03.50	260.06	15.26	-41.4	-42.3	22.0	0.00e+00	0	35	0	3491758080	53	4213
2026-01-18 04:45:04.51	259.96	15.17	-41.5	-42.3	22.0	0.00e+00	0	36	0	3498049536	53	4222
2026-01-18 04:45:05.52	259.87	15.07	-41.6	-42.4	21.9	0.00e+00	0	35	0	3503292416	53	4263
2026-01-18 04:45:06.52	259.77	14.97	-41.6	-42.4	21.9	0.00e+00	0	35	0	3508535296	53	4259
2026-01-18 04:45:07.53	259.67	14.88	-41.5	-42.3	22.0	0.00e+00	0	35	0	3514826752	53	4208
2026-01-18 04:45:08.54	259.58	14.78	-41.4	-42.2	22.1	0.00e+00	0	36	0	3520069632	53	4189
2026-01-18 04:45:09.55	259.48	14.69	-41.5	-42.3	22.0	0.00e+00	0	35	0	3525312512	53	4219
2026-01-18 04:45:10.55	259.39	14.59	-41.5	-42.3	21.9	0.00e+00	0	35	0	3531603968	53	4240
2026-01-18 04:45:11.56	259.29	14.50	-41.5	-42.3	21.9	0.00e+00	0	35	0	3536846848	53	4240
2026-01-18 04:45:12.57	259.20	14.40	-41.6	-42.4	21.9	0.00e+00	0	35	0	3542089728	53	4283
2026-01-18 04:45:13.58	259.11	14.31	-41.7	-42.5	21.8	0.00e+00	0	35	0	3548381184	53	4329
2026-01-18 04:45:14.58	259.02	14.22	-41.6	-42.4	21.9	0.00e+00	0	35	0	3553624064	54	4050
2026-01-18 04:45:15.59	258.92	14.12	-41.6	-42.4	21.8	0.00e+00	0	35	0	3559915520	54	4049
2026-01-18 04:45:16.60	258.83	14.03	-41.7	-42.5	21.8	0.00e+00	0	35	0	3565158400	54	4083
2026-01-18 04:45:17.61	258.74	13.94	-41.8	-42.7	21.6	0.00e+00	0	35	0	3571449856	54	4161
2026-01-18 04:45:18.62	258.65	13.84	-41.7	-42.6	21.7	0.00e+00	0	35	0	3576692736	54	4115
2026-01-18 04:45:19.63	258.56	13.75	-41.8	-42.7	21.6	0.00e+00	0	35	0	3582984192	54	4164
2026-01-18 04:45:20.64	258.48	13.66	-41.8	-42.7	21.6	0.00e+00	0	35	0	3588227072	54	4153
2026-01-18 04:45:21.65	258.39	13.57	-41.8	-42.6	21.7	0.00e+00	0	35	0	3593469952	54	4125
2026-01-18 04:45:22.65	258.30	13.47	-41.8	-42.7	21.6	0.00e+00	0	35	0	3599761408	54	4167
2026-01-18 04:45:23.66	258.21	13.38	-41.9	-42.8	21.5	0.00e+00	0	35	0	3605004288	54	4222
2026-01-18 04:45:24.67	258.13	13.29	-42.0	-42.8	21.5	0.00e+00	0	36	0	3610247168	54	4232
2026-01-18 04:45:25.68	258.04	13.20	-42.0	-42.9	21.4	0.00e+00	0	35	0	3616538624	54	4247
2026-01-18 04:45:26.69	257.96	13.11	-42.0	-42.9	21.4	0.00e+00	0	35	0	3621781504	54	4285
2026-01-18 04:45:27.69	257.87	13.02	-42.2	-43.0	21.2	0.00e+00	0	35	0	3628072960	54	4340
2026-01-18 04:45:28.70	257.79	12.93	-42.1	-43.0	21.3	0.00e+00	0	35	0	3633315840	54	4313
2026-01-18 04:45:29.71	257.70	12.84	-42.2	-43.1	21.1	0.00e+00	0	36	0	3639607296	54	4383
2026-01-18 04:45:30.72	257.62	12.75	-42.2	-43.1	21.2	0.00e+00	0	36	0	3644850176	55	4112
2026-01-18 04:45:31.72	257.54	12.66	-42.3	-43.2	21.1	0.00e+00	0	36	0	3650093056	55	4158
2026-01-18 04:45:32.73	257.46	12.57	-42.3	-43.2	21.0	0.00e+00	0	35	0	3656384512	55	4191
2026-01-18 04:45:33.74	257.38	12.48	-42.3	-43.2	21.1	0.00e+00	0	36	0	3661627392	55	4156
2026-01-18 04:45:34.75	257.29	12.40	-42.3	-43.2	21.1	0.00e+00	0	35	0	3667918848	55	4168
2026-01-18 04:45:35.76	257.21	12.31	-42.2	-43.1	21.1	0.00e+00	0	35	0	3673161728	55	4144
2026-01-18 04:45:36.76	257.13	12.22	-42.2	-43.0	21.2	0.00e+00	0	35	0	3678404608	55	4092
2026-01-18 04:45:37.77	257.05	12.13	-42.2	-43.1	21.2	0.00e+00	0	35	0	3684696064	55	4114
2026-01-18 04:45:38.78	256.98	12.05	-42.2	-43.1	21.1	0.00e+00	0	36	0	3689938944	55	4131
2026-01-18 04:45:39.79	256.90	11.96	-42.2	-43.1	21.2	0.00e+00	0	36	0	3696230400	55	4106
2026-01-18 04:45:40.80	256.82	11.87	-42.2	-43.1	21.2	0.00e+00	0	35	0	3701473280	55	4102
2026-01-18 04:45:41.81	256.74	11.78	-42.3	-43.2	21.0	0.00e+00	0	36	0	3707764736	55	4153
