passes_logs/2026/01/18/R3.2S_Murmansk/R3.2S_Murmansk__20260118_041418_AQUA_rec.log

#Pass ID: 20260118_041418_AQUA
#Satellite: AQUA
#Configuration: AQUA
#almurnet v.1.7.20251203
#Start time: 2026-01-18 04:14:17

#Version: 2.2.20231116
#Station: R3.2S_Murmansk
#Location: 33.079688 lon 68.888172 lat
#TLE: 1 27424U 02022A   26017.62394888  .00000781  00000+0  16630-3 0  9993
#TLE: 2 27424  98.4086 344.0954 0002010  75.0132 339.4723 14.61825944261279

#Time	Az	El	Level	Level2	SNR	BER	BlckErr	Temp	State	Recorded	gain1	gain2
2026-01-18 04:14:17.96	31.51	1.99	-52.9	-70.7	3.8	7.47e-01	0	33	0	0	77	27936
2026-01-18 04:14:18.97	31.46	2.06	-52.9	-70.7	3.8	7.48e-01	0	33	104	0	76	29672
2026-01-18 04:14:19.97	31.41	2.12	-52.9	-70.7	3.8	7.43e-01	0	33	104	0	76	29628
2026-01-18 04:14:20.98	31.36	2.18	-52.9	-70.7	3.8	7.46e-01	0	33	104	0	76	29506
2026-01-18 04:14:21.99	31.31	2.25	-52.9	-70.7	3.8	7.45e-01	0	33	104	0	76	29452
2026-01-18 04:14:23.00	31.26	2.31	-52.9	-70.7	3.8	7.43e-01	0	33	104	0	76	29598
2026-01-18 04:14:24.01	31.21	2.37	-52.9	-70.7	3.8	7.45e-01	0	33	104	0	76	29527
2026-01-18 04:14:25.02	31.15	2.44	-52.9	-70.7	3.8	7.46e-01	0	34	104	0	76	29538
2026-01-18 04:14:26.03	31.10	2.50	-52.9	-70.7	3.8	7.45e-01	0	33	104	0	76	29520
2026-01-18 04:14:27.03	31.05	2.57	-52.9	-70.7	3.8	7.45e-01	0	34	104	0	76	29591
2026-01-18 04:14:28.04	31.00	2.63	-52.9	-70.7	3.8	7.48e-01	0	34	104	0	76	29511
2026-01-18 04:14:29.05	30.94	2.69	-52.9	-70.7	3.8	7.43e-01	0	34	104	0	76	29494
2026-01-18 04:14:30.06	30.89	2.76	-52.8	-70.7	3.8	7.47e-01	0	34	104	0	76	29459
2026-01-18 04:14:31.07	30.84	2.82	-52.9	-70.7	3.8	7.45e-01	0	34	104	0	76	29498
2026-01-18 04:14:32.07	30.78	2.89	-52.8	-70.7	3.8	7.44e-01	0	34	104	0	76	29489
2026-01-18 04:14:33.08	30.73	2.95	-52.8	-70.7	3.8	7.44e-01	0	34	104	0	76	29373
2026-01-18 04:14:34.09	30.67	3.02	-52.8	-70.7	3.8	7.46e-01	0	34	104	0	76	29456
2026-01-18 04:14:35.10	30.62	3.08	-52.7	-70.6	3.8	7.43e-01	0	34	104	0	76	29334
2026-01-18 04:14:36.11	30.57	3.15	-52.4	-70.6	3.8	7.45e-01	0	34	104	0	76	29137
2026-01-18 04:14:37.12	30.51	3.22	-52.4	-70.6	3.8	7.45e-01	0	34	104	0	76	29110
2026-01-18 04:14:38.13	30.45	3.28	-51.8	-70.5	3.8	7.47e-01	0	34	104	0	75	30458
2026-01-18 04:14:39.14	30.40	3.35	-51.9	-70.5	3.8	7.45e-01	0	34	104	0	75	30464
2026-01-18 04:14:40.14	30.34	3.41	-51.5	-70.4	3.8	7.46e-01	0	34	104	0	75	30197
2026-01-18 04:14:41.15	30.29	3.48	-50.7	-70.3	3.8	7.44e-01	0	34	104	0	73	33448
2026-01-18 04:14:42.16	30.23	3.55	-49.4	-70.1	3.8	7.46e-01	0	34	104	0	70	38930
2026-01-18 04:14:43.17	30.17	3.61	-48.9	-69.6	3.8	7.49e-01	0	34	104	0	69	39000
2026-01-18 04:14:44.17	30.11	3.68	-48.5	-69.4	3.8	7.47e-01	0	34	104	0	68	40321
2026-01-18 04:14:45.18	30.06	3.75	-48.7	-69.2	3.8	7.44e-01	0	34	104	0	68	39421
2026-01-18 04:14:46.19	30.00	3.81	-48.2	-68.3	3.8	7.46e-01	0	34	104	0	68	35577
2026-01-18 04:14:47.20	29.94	3.88	-48.5	-68.0	3.8	7.49e-01	0	34	104	0	68	34289
2026-01-18 04:14:48.21	29.88	3.95	-49.3	-67.6	3.8	7.40e-01	0	34	104	0	69	30907
2026-01-18 04:14:49.21	29.82	4.01	-50.1	-67.1	3.8	7.44e-01	0	34	104	0	70	27512
2026-01-18 04:14:50.22	29.76	4.08	-50.8	-66.7	3.8	7.48e-01	0	34	104	0	72	23373
2026-01-18 04:14:51.23	29.70	4.15	-50.9	-66.1	3.8	7.47e-01	0	34	104	0	72	21861
2026-01-18 04:14:52.24	29.64	4.22	-51.3	-65.9	3.8	7.43e-01	0	34	104	0	73	20216
2026-01-18 04:14:53.24	29.59	4.28	-51.3	-65.3	3.8	7.44e-01	0	34	104	0	73	18922
2026-01-18 04:14:54.25	29.52	4.35	-51.1	-65.0	3.8	7.47e-01	0	34	104	0	73	18278
2026-01-18 04:14:55.26	29.46	4.42	-51.4	-65.7	3.8	7.45e-01	0	34	104	0	73	19831
2026-01-18 04:14:56.27	29.40	4.49	-51.5	-65.8	3.8	7.47e-01	0	34	104	0	73	20009
2026-01-18 04:14:57.27	29.34	4.56	-51.3	-65.4	3.8	7.45e-01	0	34	104	0	73	19042
2026-01-18 04:14:58.28	29.28	4.63	-51.6	-66.0	3.8	7.44e-01	0	34	104	0	73	20319
2026-01-18 04:14:59.29	29.22	4.70	-51.7	-66.3	3.8	7.42e-01	0	34	104	0	73	21132
2026-01-18 04:15:00.30	29.15	4.77	-52.0	-67.2	3.8	7.47e-01	0	34	104	0	74	22259
2026-01-18 04:15:01.30	29.09	4.83	-52.1	-67.6	3.8	7.47e-01	0	34	104	0	74	23206
2026-01-18 04:15:02.31	29.03	4.90	-52.1	-67.8	3.8	7.45e-01	0	34	104	0	74	23658
2026-01-18 04:15:03.32	28.96	4.97	-52.4	-68.4	3.8	7.42e-01	0	34	104	0	75	24123
2026-01-18 04:15:04.33	28.90	5.04	-52.6	-69.1	3.8	7.43e-01	0	34	104	0	75	25926
2026-01-18 04:15:05.34	28.84	5.11	-51.9	-66.2	3.8	7.44e-01	0	34	104	0	75	18635
2026-01-18 04:15:06.34	28.77	5.18	-52.2	-66.9	3.8	7.47e-01	0	34	104	0	75	20296
2026-01-18 04:15:07.35	28.71	5.25	-52.8	-70.4	3.8	7.43e-01	0	34	104	0	76	28602
2026-01-18 04:15:08.36	28.64	5.33	-50.8	-63.6	3.8	7.46e-01	0	34	104	0	72	16352
2026-01-18 04:15:09.37	28.58	5.40	-53.0	-70.1	3.8	7.42e-01	0	35	104	0	76	27473
2026-01-18 04:15:10.37	28.51	5.47	-49.7	-61.8	3.8	7.45e-01	0	34	104	0	71	14185
2026-01-18 04:15:11.38	28.44	5.54	-48.6	-60.2	3.8	7.41e-01	0	34	104	0	69	13143
2026-01-18 04:15:12.39	28.38	5.61	-46.9	-57.8	3.8	7.42e-01	0	35	104	0	65	12656
2026-01-18 04:15:13.40	28.31	5.68	-47.9	-59.2	3.8	7.43e-01	0	35	104	0	67	13254
2026-01-18 04:15:14.41	28.24	5.75	-52.7	-67.9	3.8	7.47e-01	0	34	104	0	75	22614
2026-01-18 04:15:15.42	28.17	5.82	-53.2	-70.4	3.8	7.47e-01	0	35	104	0	77	26941
2026-01-18 04:15:16.43	28.11	5.90	-51.5	-64.7	3.8	7.45e-01	0	34	104	0	73	17676
2026-01-18 04:15:17.44	28.04	5.97	-53.0	-68.9	3.8	7.45e-01	0	34	104	0	76	23881
2026-01-18 04:15:18.45	27.97	6.04	-50.0	-62.1	3.8	7.47e-01	0	34	104	0	71	14623
2026-01-18 04:15:19.45	27.90	6.11	-49.6	-61.5	3.8	7.48e-01	0	34	104	0	71	13657
2026-01-18 04:15:20.46	27.83	6.19	-49.9	-61.9	3.8	7.48e-01	0	34	104	0	70	15068
2026-01-18 04:15:21.47	27.76	6.26	-51.2	-64.1	3.9	7.45e-01	0	34	104	0	74	15487
2026-01-18 04:15:22.48	27.69	6.33	-53.1	-69.1	3.8	7.43e-01	0	34	104	0	76	24692
2026-01-18 04:15:23.49	27.62	6.41	-52.9	-68.2	3.9	7.42e-01	0	35	104	0	77	20940
2026-01-18 04:15:24.49	27.54	6.48	-52.0	-65.6	3.8	7.46e-01	0	35	104	0	74	18486
2026-01-18 04:15:25.50	27.47	6.55	-52.6	-67.4	3.9	7.46e-01	0	35	104	0	77	19017
2026-01-18 04:15:26.51	27.40	6.63	-49.7	-61.6	3.8	7.47e-01	0	35	104	0	71	13858
2026-01-18 04:15:27.52	27.33	6.70	-48.5	-60.0	3.8	7.43e-01	0	35	104	0	69	12920
2026-01-18 04:15:28.52	27.25	6.78	-47.3	-58.4	3.8	7.44e-01	0	35	104	0	66	12804
2026-01-18 04:15:29.53	27.18	6.85	-47.1	-58.2	3.8	7.41e-01	0	35	104	0	66	12461
2026-01-18 04:15:30.54	27.11	6.92	-53.1	-68.7	3.8	7.46e-01	0	35	104	0	76	23464
2026-01-18 04:15:31.55	27.03	7.00	-52.9	-68.4	3.9	7.39e-01	0	35	104	0	77	21357
2026-01-18 04:15:32.56	26.96	7.08	-52.8	-66.5	3.8	7.43e-01	0	35	104	0	75	19275
2026-01-18 04:15:33.56	26.88	7.15	-52.9	-68.0	3.8	7.47e-01	0	35	104	0	77	20527
2026-01-18 04:15:34.57	26.80	7.23	-49.7	-61.5	3.8	7.46e-01	0	35	104	0	71	13686
2026-01-18 04:15:35.58	26.73	7.30	-49.0	-60.6	3.8	7.44e-01	0	35	104	0	70	13063
2026-01-18 04:15:36.59	26.65	7.38	-52.2	-65.8	3.8	7.45e-01	0	35	104	0	74	18764
2026-01-18 04:15:37.59	26.57	7.45	-51.0	-63.6	3.9	7.45e-01	0	35	104	0	74	14595
2026-01-18 04:15:38.60	26.50	7.53	-53.5	-69.9	3.8	7.50e-01	0	35	104	0	77	25376
2026-01-18 04:15:39.61	26.42	7.61	-52.2	-66.1	3.8	7.45e-01	0	35	104	0	76	17334
2026-01-18 04:15:40.62	26.34	7.68	-52.8	-67.6	3.8	7.48e-01	0	35	104	0	76	20705
2026-01-18 04:15:41.62	26.26	7.76	-51.7	-65.0	3.8	7.45e-01	0	35	104	0	75	16159
2026-01-18 04:15:42.63	26.18	7.84	-49.4	-61.1	3.8	7.46e-01	0	35	104	0	70	13798
2026-01-18 04:15:43.64	26.10	7.91	-48.0	-59.3	3.8	7.46e-01	0	35	104	0	68	12625
2026-01-18 04:15:44.65	26.02	7.99	-47.7	-58.9	3.8	7.47e-01	0	35	104	0	65	14234
2026-01-18 04:15:45.66	25.94	8.07	-47.8	-59.4	3.8	7.43e-01	0	35	104	0	66	14335
2026-01-18 04:15:46.67	25.86	8.15	-53.7	-70.2	3.8	7.46e-01	0	35	104	0	77	26167
2026-01-18 04:15:47.67	25.78	8.22	-51.2	-63.9	3.9	7.44e-01	0	35	104	0	74	15124
2026-01-18 04:15:48.68	25.69	8.30	-53.3	-68.7	3.7	7.45e-01	0	35	104	0	77	22156
2026-01-18 04:15:49.69	25.61	8.38	-50.6	-62.9	3.9	7.47e-01	0	35	104	0	73	14335
2026-01-18 04:15:50.70	25.53	8.46	-48.9	-60.2	3.8	7.46e-01	0	35	104	0	69	13133
2026-01-18 04:15:51.71	25.44	8.54	-48.3	-59.7	3.8	7.46e-01	0	35	104	0	68	13163
2026-01-18 04:15:52.72	25.36	8.62	-51.2	-63.7	3.8	7.46e-01	0	35	104	0	72	16633
2026-01-18 04:15:53.72	25.27	8.70	-50.9	-63.2	3.8	7.46e-01	0	35	104	0	72	15749
2026-01-18 04:15:54.73	25.19	8.78	-53.8	-70.7	3.7	7.46e-01	0	35	104	0	78	26305
2026-01-18 04:15:55.74	25.10	8.86	-50.9	-63.5	3.9	7.42e-01	0	35	104	0	74	14427
2026-01-18 04:15:56.75	25.01	8.94	-53.5	-69.0	3.8	7.51e-01	0	35	104	0	77	22900
2026-01-18 04:15:57.76	24.93	9.02	-50.6	-62.8	3.9	7.47e-01	0	35	104	0	73	14148
2026-01-18 04:15:58.76	24.84	9.10	-48.2	-59.5	3.8	7.48e-01	0	35	104	0	68	12900
2026-01-18 04:15:59.77	24.75	9.18	-46.9	-57.9	3.8	7.42e-01	0	35	104	0	65	12808
2026-01-18 04:16:00.78	24.66	9.26	-50.8	-63.3	3.8	7.47e-01	0	35	104	0	72	15898
2026-01-18 04:16:01.79	24.57	9.34	-50.8	-63.0	3.8	7.44e-01	0	35	104	0	71	16146
2026-01-18 04:16:02.79	24.48	9.42	-54.1	-71.9	3.8	7.47e-01	0	35	104	0	78	30062
2026-01-18 04:16:03.80	24.39	9.51	-49.4	-61.4	3.9	7.43e-01	0	35	104	0	71	13427
2026-01-18 04:16:04.81	24.30	9.59	-53.5	-69.0	3.8	7.49e-01	0	35	104	0	77	22953
2026-01-18 04:16:05.82	24.21	9.67	-49.5	-61.2	3.8	7.46e-01	0	35	104	0	71	13253
2026-01-18 04:16:06.83	24.12	9.75	-48.8	-60.2	3.8	7.46e-01	0	35	104	0	69	13203
2026-01-18 04:16:07.83	24.02	9.84	-48.5	-59.9	3.8	7.46e-01	0	35	104	0	69	12771
2026-01-18 04:16:08.84	23.93	9.92	-53.5	-68.7	3.8	7.47e-01	0	35	104	0	77	22061
2026-01-18 04:16:09.85	23.84	10.00	-51.4	-64.0	3.8	7.46e-01	0	35	104	0	73	16227
2026-01-18 04:16:10.86	23.74	10.08	-54.1	-71.2	3.8	7.50e-01	0	35	104	0	78	27981
2026-01-18 04:16:11.87	23.65	10.17	-49.0	-60.5	3.8	7.44e-01	0	35	104	0	70	12935
2026-01-18 04:16:12.87	23.55	10.25	-54.1	-71.5	3.7	7.43e-01	0	35	104	0	78	28958
2026-01-18 04:16:13.88	23.45	10.34	-49.3	-60.8	3.9	7.44e-01	0	35	104	0	70	13405
2026-01-18 04:16:14.89	23.36	10.42	-47.8	-59.1	3.8	7.46e-01	0	35	104	0	67	12999
2026-01-18 04:16:15.89	23.26	10.50	-46.6	-57.6	3.8	7.41e-01	0	35	104	0	65	12358
2026-01-18 04:16:16.90	23.16	10.59	-51.7	-64.7	3.8	7.45e-01	0	35	104	0	73	17643
2026-01-18 04:16:17.91	23.06	10.68	-51.6	-64.3	3.8	7.46e-01	0	35	104	0	73	16862
2026-01-18 04:16:18.92	22.96	10.76	-54.2	-72.0	3.9	7.45e-01	0	35	104	0	79	28838
2026-01-18 04:16:19.93	22.86	10.85	-49.1	-60.7	3.8	7.44e-01	0	35	104	0	70	13119
2026-01-18 04:16:20.93	22.76	10.93	-53.6	-69.3	3.8	7.45e-01	0	35	104	0	77	23583
2026-01-18 04:16:21.94	22.66	11.02	-48.9	-60.2	3.9	7.47e-01	0	35	104	0	69	13133
2026-01-18 04:16:22.95	22.56	11.10	-48.3	-59.6	3.8	7.45e-01	0	35	104	0	68	13031
2026-01-18 04:16:23.96	22.45	11.19	-47.4	-58.4	3.8	7.46e-01	0	35	104	0	66	12686
2026-01-18 04:16:24.97	22.35	11.28	-52.0	-65.3	3.8	7.43e-01	0	35	104	0	74	17697
2026-01-18 04:16:25.97	22.24	11.36	-51.9	-65.0	3.8	7.46e-01	0	35	104	0	74	17220
2026-01-18 04:16:26.98	22.14	11.45	-54.3	-72.0	3.8	7.45e-01	0	35	104	0	79	28795
2026-01-18 04:16:27.99	22.03	11.54	-48.6	-60.0	3.8	7.45e-01	0	35	104	0	69	12864
2026-01-18 04:16:29.00	21.93	11.63	-53.7	-69.4	3.8	7.45e-01	0	35	104	0	77	24041
2026-01-18 04:16:30.00	21.82	11.72	-49.1	-60.6	3.8	7.41e-01	0	35	104	0	70	12976
2026-01-18 04:16:31.01	21.71	11.80	-48.4	-59.8	3.8	7.45e-01	0	35	104	0	68	13361
2026-01-18 04:16:32.02	21.60	11.89	-48.4	-59.7	3.8	7.43e-01	0	35	104	0	68	13206
2026-01-18 04:16:33.03	21.49	11.98	-54.2	-71.0	3.8	7.47e-01	0	35	104	0	78	27102
2026-01-18 04:16:34.04	21.38	12.07	-51.8	-64.8	3.8	7.45e-01	0	35	104	0	74	16793
2026-01-18 04:16:35.05	21.27	12.16	-54.3	-71.7	3.8	7.47e-01	0	35	104	0	79	28016
2026-01-18 04:16:36.05	21.16	12.25	-48.4	-59.7	3.9	7.45e-01	0	35	104	0	68	13159
2026-01-18 04:16:37.06	21.05	12.34	-54.3	-72.1	3.8	7.45e-01	0	35	104	0	79	29139
2026-01-18 04:16:38.07	20.93	12.43	-48.6	-59.9	3.8	7.46e-01	0	35	104	0	69	12737
2026-01-18 04:16:39.08	20.82	12.52	-47.1	-58.2	3.8	7.44e-01	0	35	104	0	66	12386
2026-01-18 04:16:40.09	20.71	12.61	-46.0	-57.0	3.8	7.46e-01	0	35	104	0	63	12843
2026-01-18 04:16:41.10	20.59	12.70	-52.1	-65.6	3.8	7.45e-01	0	35	104	0	75	17303
2026-01-18 04:16:42.11	20.47	12.79	-52.0	-65.1	3.8	7.44e-01	0	35	104	0	74	17385
2026-01-18 04:16:43.11	20.36	12.88	-54.4	-72.1	3.8	7.42e-01	0	35	104	0	79	29135
2026-01-18 04:16:44.12	20.24	12.98	-48.5	-59.8	3.9	7.44e-01	0	35	104	0	68	13297
2026-01-18 04:16:45.13	20.12	13.07	-53.7	-69.4	3.9	7.44e-01	0	35	104	0	78	22559
2026-01-18 04:16:46.14	20.00	13.16	-48.4	-59.7	3.8	7.44e-01	0	35	104	0	68	13228
2026-01-18 04:16:47.14	19.88	13.25	-47.9	-59.1	3.8	7.45e-01	0	35	104	0	67	13097
2026-01-18 04:16:48.15	19.76	13.35	-47.8	-59.1	3.8	7.45e-01	0	35	104	0	67	12992
2026-01-18 04:16:49.16	19.64	13.44	-53.0	-67.2	3.8	7.44e-01	0	35	104	0	77	18716
2026-01-18 04:16:50.17	19.51	13.53	-51.9	-64.8	3.9	7.43e-01	0	35	104	0	74	16788
2026-01-18 04:16:51.18	19.39	13.63	-54.2	-71.1	3.8	7.42e-01	0	35	104	0	79	26074
2026-01-18 04:16:52.18	19.27	13.72	-48.9	-60.2	3.8	7.42e-01	0	35	104	0	68	14025
2026-01-18 04:16:53.19	19.14	13.81	-54.3	-71.6	3.8	7.45e-01	0	35	104	0	79	27406
2026-01-18 04:16:54.20	19.01	13.91	-48.1	-59.4	3.8	7.47e-01	0	35	104	0	68	12672
2026-01-18 04:16:55.20	18.89	14.00	-46.7	-57.7	3.8	7.43e-01	0	35	104	0	65	12469
2026-01-18 04:16:56.21	18.76	14.10	-45.7	-56.6	3.8	7.40e-01	0	35	104	0	63	12346
2026-01-18 04:16:57.22	18.63	14.19	-50.7	-63.0	3.9	7.42e-01	0	35	104	0	73	14530
2026-01-18 04:16:58.23	18.50	14.29	-52.1	-65.1	3.8	7.45e-01	0	35	104	0	74	17282
2026-01-18 04:16:59.24	18.37	14.39	-54.4	-72.2	3.8	7.43e-01	0	35	104	0	79	29452
2026-01-18 04:17:00.25	18.24	14.48	-48.4	-59.7	3.8	7.46e-01	0	35	104	0	68	13204
2026-01-18 04:17:01.25	18.10	14.58	-53.7	-69.0	3.8	7.43e-01	0	35	104	0	78	21586
2026-01-18 04:17:02.26	17.97	14.67	-48.1	-59.3	3.8	7.42e-01	0	35	104	0	68	12662
2026-01-18 04:17:03.27	17.84	14.77	-48.0	-59.2	3.8	7.45e-01	0	35	104	0	67	13145
2026-01-18 04:17:04.28	17.70	14.87	-48.3	-59.5	3.8	7.46e-01	0	35	104	0	67	13692
2026-01-18 04:17:05.29	17.56	14.97	-53.1	-67.5	3.9	7.46e-01	0	35	104	0	78	18285
2026-01-18 04:17:06.29	17.43	15.06	-52.2	-65.3	3.8	7.46e-01	0	35	104	0	74	17824
2026-01-18 04:17:07.30	17.29	15.16	-53.9	-69.8	3.8	7.46e-01	0	35	104	0	79	22465
2026-01-18 04:17:08.31	17.15	15.26	-49.6	-61.1	3.8	7.44e-01	0	35	104	0	69	14587
2026-01-18 04:17:09.32	17.01	15.36	-53.9	-70.1	3.9	7.41e-01	0	35	104	0	79	23199
2026-01-18 04:17:10.33	16.86	15.46	-47.8	-58.9	3.8	7.42e-01	0	35	104	0	67	12783
2026-01-18 04:17:11.33	16.72	15.56	-46.3	-57.2	3.8	7.41e-01	0	35	104	0	64	12485
2026-01-18 04:17:12.34	16.58	15.66	-46.6	-57.5	3.8	7.46e-01	0	35	104	0	63	13692
2026-01-18 04:17:13.35	16.43	15.76	-51.8	-64.6	3.8	7.44e-01	0	35	104	0	74	16371
2026-01-18 04:17:14.36	16.29	15.86	-52.3	-65.8	3.8	7.43e-01	0	35	104	0	75	17854
2026-01-18 04:17:15.36	16.14	15.96	-54.4	-71.6	3.8	7.44e-01	0	35	104	0	79	27688
2026-01-18 04:17:16.37	15.99	16.06	-49.8	-61.7	3.8	7.42e-01	0	35	104	0	70	14831
2026-01-18 04:17:17.38	15.84	16.16	-53.1	-67.3	3.9	7.41e-01	0	35	104	0	78	17782
2026-01-18 04:17:18.38	15.69	16.26	-47.9	-59.0	3.8	7.45e-01	0	35	104	0	67	12901
2026-01-18 04:17:19.39	15.54	16.36	-47.9	-59.1	3.8	7.43e-01	0	35	104	0	67	12971
2026-01-18 04:17:20.40	15.39	16.46	-48.6	-59.8	3.8	7.45e-01	0	35	104	0	67	14171
2026-01-18 04:17:21.41	15.24	16.56	-50.8	-62.9	3.8	7.43e-01	0	35	104	0	73	14307
2026-01-18 04:17:22.42	15.08	16.66	-52.5	-65.7	3.8	7.45e-01	0	35	104	0	75	17659
2026-01-18 04:17:23.42	14.93	16.77	-53.2	-67.5	3.9	7.41e-01	0	35	104	0	78	18259
2026-01-18 04:17:24.43	14.77	16.87	-50.4	-62.3	3.8	7.45e-01	0	35	104	0	71	14976
2026-01-18 04:17:25.44	14.61	16.97	-53.0	-67.2	4.0	7.43e-01	0	35	104	0	78	17544
2026-01-18 04:17:26.45	14.45	17.08	-47.3	-58.4	3.9	7.46e-01	0	35	104	0	66	12718
2026-01-18 04:17:27.45	14.29	17.18	-45.9	-56.8	3.8	7.43e-01	0	35	104	0	63	12535
2026-01-18 04:17:28.46	14.13	17.28	-45.7	-56.5	3.8	7.46e-01	0	35	104	0	62	12852
2026-01-18 04:17:29.47	13.97	17.39	-45.2	-56.1	3.8	7.45e-01	0	35	104	0	62	12265
2026-01-18 04:17:30.48	13.80	17.49	-53.1	-67.0	3.8	7.44e-01	0	35	104	0	76	19305
2026-01-18 04:17:31.49	13.64	17.60	-52.4	-65.4	3.9	7.43e-01	0	35	104	0	76	15982
2026-01-18 04:17:32.49	13.47	17.70	-51.8	-64.0	3.8	7.46e-01	0	35	104	0	73	16278
2026-01-18 04:17:33.50	13.30	17.80	-51.7	-64.4	3.9	7.45e-01	0	35	104	0	75	15191
2026-01-18 04:17:34.51	13.14	17.91	-47.9	-59.0	3.8	7.45e-01	0	35	104	0	67	12913
2026-01-18 04:17:35.52	12.96	18.01	-47.2	-58.3	3.8	7.44e-01	0	35	104	0	66	12529
2026-01-18 04:17:36.53	12.79	18.12	-49.4	-61.1	3.8	7.44e-01	0	35	104	0	69	14621
2026-01-18 04:17:37.53	12.62	18.23	-47.3	-58.2	3.8	7.47e-01	0	35	104	0	66	12491
2026-01-18 04:17:38.54	12.45	18.33	-53.1	-67.0	3.8	7.45e-01	0	35	104	0	76	19232
2026-01-18 04:17:39.55	12.27	18.44	-52.3	-65.3	3.9	7.42e-01	0	35	104	0	76	15805
2026-01-18 04:17:40.56	12.09	18.55	-51.2	-63.5	3.8	7.44e-01	0	35	104	0	72	16149
2026-01-18 04:17:41.56	11.92	18.65	-51.5	-64.1	3.9	7.44e-01	0	35	104	0	75	14654
2026-01-18 04:17:42.57	11.74	18.76	-47.9	-59.0	3.8	7.45e-01	0	35	104	0	67	12901
2026-01-18 04:17:43.58	11.56	18.87	-48.0	-59.1	3.8	7.45e-01	0	35	104	0	67	13015
2026-01-18 04:17:44.59	11.37	18.97	-51.1	-63.3	3.8	7.40e-01	0	35	104	0	72	15794
2026-01-18 04:17:45.60	11.19	19.08	-50.6	-62.6	3.8	7.40e-01	0	35	104	0	73	13760
2026-01-18 04:17:46.61	11.00	19.19	-53.5	-68.1	3.8	7.50e-01	0	35	104	0	77	20668
2026-01-18 04:17:47.61	10.82	19.30	-50.7	-62.7	3.9	7.42e-01	0	35	104	0	73	14018
2026-01-18 04:17:48.62	10.63	19.41	-52.9	-66.6	3.8	7.49e-01	0	35	104	0	76	18434
2026-01-18 04:17:49.63	10.44	19.51	-50.5	-62.4	3.8	7.45e-01	0	35	104	0	73	13532
2026-01-18 04:17:50.63	10.25	19.62	-47.1	-58.2	3.8	7.44e-01	0	35	104	0	66	12477
2026-01-18 04:17:51.64	10.06	19.73	-46.0	-56.9	3.8	7.44e-01	0	35	104	0	63	12749
2026-01-18 04:17:52.65	9.86	19.84	-49.9	-61.9	3.8	7.48e-01	0	35	104	0	70	15134
2026-01-18 04:17:53.66	9.67	19.95	-45.9	-56.7	3.9	7.43e-01	0	35	104	0	63	12439
2026-01-18 04:17:54.67	9.47	20.06	-53.9	-69.0	3.8	7.46e-01	0	35	104	0	78	21755
2026-01-18 04:17:55.67	9.27	20.17	-49.9	-61.4	3.8	7.43e-01	0	35	104	0	71	13498
2026-01-18 04:17:56.68	9.07	20.28	-53.5	-67.9	3.7	7.48e-01	0	35	104	0	77	20279
2026-01-18 04:17:57.69	8.87	20.39	-48.5	-59.9	3.8	7.44e-01	0	35	104	0	69	12672
2026-01-18 04:17:58.70	8.67	20.50	-47.5	-58.5	3.8	7.45e-01	0	35	104	0	67	12225
2026-01-18 04:17:59.70	8.47	20.61	-46.7	-57.6	3.8	7.42e-01	0	35	104	0	65	12353
2026-01-18 04:18:00.71	8.26	20.72	-52.6	-66.0	3.8	7.44e-01	0	35	104	0	75	18096
2026-01-18 04:18:01.72	8.05	20.83	-47.9	-59.1	3.8	7.43e-01	0	35	104	0	66	13817
2026-01-18 04:18:02.73	7.84	20.94	-54.4	-71.0	3.7	7.45e-01	0	35	104	0	79	25685
2026-01-18 04:18:03.74	7.63	21.05	-49.8	-61.4	3.9	7.45e-01	0	35	104	0	71	13507
2026-01-18 04:18:04.75	7.42	21.16	-53.5	-67.9	3.8	7.48e-01	0	35	104	0	77	20239
2026-01-18 04:18:05.75	7.21	21.27	-48.4	-59.4	3.8	7.45e-01	0	35	104	0	68	12770
2026-01-18 04:18:06.76	6.99	21.39	-47.4	-58.5	3.8	7.44e-01	0	35	104	0	66	12878
2026-01-18 04:18:07.77	6.77	21.50	-46.6	-57.6	3.8	7.43e-01	0	35	104	0	65	12290
2026-01-18 04:18:08.78	6.55	21.61	-53.7	-68.4	3.8	7.46e-01	0	35	104	0	77	21499
2026-01-18 04:18:09.79	6.33	21.72	-48.9	-60.3	3.8	7.46e-01	0	35	104	0	68	14099
2026-01-18 04:18:10.79	6.11	21.83	-54.7	-72.0	3.7	7.49e-01	0	35	104	0	79	28959
2026-01-18 04:18:11.80	5.89	21.94	-48.5	-59.7	3.9	7.42e-01	0	35	104	0	69	12514
2026-01-18 04:18:12.81	5.66	22.06	-53.9	-69.0	3.7	7.46e-01	0	35	104	0	78	21524
2026-01-18 04:18:13.82	5.43	22.17	-48.0	-59.1	3.9	7.44e-01	0	35	104	0	68	12312
2026-01-18 04:18:14.83	5.20	22.28	-47.8	-59.0	3.8	7.44e-01	0	35	104	0	67	12906
2026-01-18 04:18:15.83	4.97	22.39	-47.1	-58.2	3.8	7.43e-01	0	35	104	0	66	12417
2026-01-18 04:18:16.84	4.74	22.50	-54.5	-70.9	3.8	7.45e-01	0	35	104	0	79	25520
2026-01-18 04:18:17.85	4.50	22.62	-48.9	-60.3	3.8	7.44e-01	0	35	104	0	68	14065
2026-01-18 04:18:18.86	4.27	22.73	-54.7	-72.0	3.7	7.50e-01	0	35	104	0	79	28896
2026-01-18 04:18:19.87	4.03	22.84	-48.1	-59.3	3.8	7.46e-01	0	35	104	0	68	12615
2026-01-18 04:18:20.88	3.79	22.95	-54.1	-69.6	3.8	7.43e-01	0	35	104	0	78	23248
2026-01-18 04:18:21.89	3.55	23.07	-47.9	-59.0	3.8	7.45e-01	0	35	104	0	67	12929
2026-01-18 04:18:22.89	3.30	23.18	-47.7	-58.8	3.8	7.45e-01	0	35	104	0	67	12641
2026-01-18 04:18:23.90	3.06	23.29	-46.9	-57.9	3.8	7.44e-01	0	35	104	0	65	12809
2026-01-18 04:18:24.91	2.81	23.40	-54.3	-70.3	3.8	7.42e-01	0	35	104	0	79	23837
2026-01-18 04:18:25.92	2.56	23.51	-49.7	-61.3	3.9	7.45e-01	0	35	104	0	69	14908
2026-01-18 04:18:26.93	2.31	23.63	-54.7	-72.4	3.9	7.46e-01	0	35	104	0	80	28537
2026-01-18 04:18:27.93	2.06	23.74	-47.9	-59.0	3.8	7.46e-01	0	35	104	0	67	12957
2026-01-18 04:18:28.94	1.80	23.85	-54.1	-69.5	3.8	7.48e-01	0	35	104	0	78	22980
2026-01-18 04:18:29.95	1.54	23.96	-47.5	-58.5	3.8	7.47e-01	0	35	104	0	67	12143
2026-01-18 04:18:30.96	1.28	24.07	-47.2	-58.2	3.8	7.45e-01	0	35	104	0	66	12444
2026-01-18 04:18:31.96	1.02	24.19	-47.0	-58.1	3.8	7.45e-01	0	35	104	0	65	13017
2026-01-18 04:18:32.97	0.76	24.30	-54.1	-69.7	3.9	7.47e-01	0	35	104	0	79	22147
2026-01-18 04:18:33.98	0.50	24.41	-50.5	-62.4	3.8	7.42e-01	0	35	104	0	71	15148
2026-01-18 04:18:34.99	0.23	24.52	-54.7	-72.5	3.8	7.45e-01	0	35	104	0	80	28790
2026-01-18 04:18:35.99	359.96	24.63	-47.7	-58.7	3.8	7.48e-01	0	35	104	0	67	12481
2026-01-18 04:18:37.00	359.69	24.74	-54.2	-69.9	3.8	7.43e-01	0	35	104	0	78	24025
2026-01-18 04:18:38.01	359.42	24.85	-47.4	-58.4	3.8	7.44e-01	0	35	104	0	66	12792
2026-01-18 04:18:39.02	359.14	24.96	-46.9	-57.8	3.8	7.44e-01	0	35	104	0	65	12626
2026-01-18 04:18:40.02	358.87	25.07	-47.0	-58.0	3.8	7.42e-01	0	35	104	0	65	12924
2026-01-18 04:18:41.03	358.59	25.18	-54.6	-71.4	3.8	7.43e-01	0	35	104	0	79	26928
2026-01-18 04:18:42.04	358.30	25.29	-51.3	-63.5	3.8	7.44e-01	0	35	104	0	73	15365
2026-01-18 04:18:43.05	358.02	25.40	-54.3	-70.2	3.9	7.46e-01	0	35	104	0	79	23527
2026-01-18 04:18:44.06	357.74	25.51	-47.2	-58.2	3.8	7.44e-01	0	35	104	0	66	12469
2026-01-18 04:18:45.07	357.45	25.62	-54.6	-71.7	3.8	7.45e-01	0	35	104	0	80	26445
2026-01-18 04:18:46.08	357.16	25.73	-47.3	-58.3	3.8	7.48e-01	0	35	104	0	66	12535
2026-01-18 04:18:47.09	356.86	25.84	-47.0	-58.0	3.8	7.43e-01	0	35	104	0	65	12854
2026-01-18 04:18:48.09	356.57	25.95	-46.3	-57.3	3.8	7.45e-01	0	35	104	0	64	12529
2026-01-18 04:18:49.10	356.28	26.06	-51.1	-63.6	3.8	7.45e-01	0	35	104	0	74	14590
2026-01-18 04:18:50.11	355.98	26.17	-50.5	-62.5	3.8	7.45e-01	0	35	104	0	71	15239
2026-01-18 04:18:51.11	355.68	26.27	-54.7	-72.3	3.8	7.47e-01	0	35	104	0	80	28270
2026-01-18 04:18:52.12	355.38	26.38	-47.2	-58.1	3.8	7.44e-01	0	35	104	0	66	12275
2026-01-18 04:18:53.13	355.07	26.49	-54.3	-70.0	3.8	7.43e-01	0	35	104	0	79	22841
2026-01-18 04:18:54.14	354.77	26.59	-47.2	-58.2	3.8	7.44e-01	0	35	104	0	66	12452
2026-01-18 04:18:55.15	354.46	26.70	-47.0	-58.0	3.8	7.44e-01	0	35	104	0	66	12107
2026-01-18 04:18:56.15	354.15	26.80	-46.9	-57.8	3.8	7.48e-01	0	35	104	0	65	12654
2026-01-18 04:18:57.16	353.84	26.91	-53.3	-67.4	3.8	7.43e-01	0	35	104	0	78	18009
2026-01-18 04:18:58.17	353.52	27.01	-50.8	-62.9	3.8	7.43e-01	0	35	104	0	72	15120
2026-01-18 04:18:59.18	353.20	27.12	-54.5	-71.2	3.9	7.39e-01	0	35	104	0	80	24874
2026-01-18 04:19:00.19	352.88	27.22	-46.9	-57.8	3.8	7.44e-01	0	35	104	0	65	12574
2026-01-18 04:19:01.20	352.56	27.32	-54.2	-69.6	3.8	7.45e-01	0	35	104	0	79	21930
2026-01-18 04:19:02.21	352.23	27.42	-47.0	-57.9	3.8	7.42e-01	0	35	104	0	65	12767
2026-01-18 04:19:03.22	351.91	27.53	-46.4	-57.3	3.8	7.41e-01	0	35	104	0	64	12592
2026-01-18 04:19:04.22	351.58	27.63	-45.9	-56.8	3.8	7.42e-01	0	35	104	0	63	12643
2026-01-18 04:19:05.23	351.25	27.73	-50.9	-62.7	3.9	7.47e-01	0	35	104	0	73	13951
2026-01-18 04:19:06.24	350.92	27.83	-50.4	-62.2	3.8	7.43e-01	0	35	104	0	71	14810
2026-01-18 04:19:07.25	350.58	27.93	-54.4	-70.9	3.9	7.44e-01	0	35	104	0	80	23897
2026-01-18 04:19:08.26	350.25	28.02	-46.6	-57.5	3.8	7.47e-01	0	35	104	0	65	12210
2026-01-18 04:19:09.27	349.91	28.12	-53.8	-68.5	3.9	7.38e-01	0	35	104	0	79	19352
2026-01-18 04:19:10.27	349.57	28.22	-46.7	-57.6	3.8	7.43e-01	0	35	104	0	65	12243
2026-01-18 04:19:11.28	349.22	28.31	-46.0	-56.9	3.8	7.44e-01	0	35	104	0	64	11982
2026-01-18 04:19:12.29	348.88	28.41	-45.9	-56.7	3.8	7.41e-01	0	35	104	0	63	12448
2026-01-18 04:19:13.30	348.53	28.50	-49.1	-60.6	3.9	7.48e-01	0	35	104	0	70	12980
2026-01-18 04:19:14.31	348.18	28.60	-50.8	-62.8	3.9	7.44e-01	0	35	104	0	72	14924
2026-01-18 04:19:15.31	347.83	28.69	-53.7	-68.4	3.9	7.41e-01	0	35	104	0	79	18973
2026-01-18 04:19:16.32	347.48	28.78	-46.8	-57.7	3.8	7.44e-01	0	35	104	0	64	13157
2026-01-18 04:19:17.33	347.12	28.87	-53.7	-68.2	3.8	7.44e-01	0	35	104	0	79	18722
2026-01-18 04:19:18.34	346.76	28.96	-46.3	-57.2	3.8	7.44e-01	0	35	104	0	64	12445
2026-01-18 04:19:19.34	346.40	29.05	-46.1	-56.9	3.8	7.44e-01	0	35	104	0	64	12055
2026-01-18 04:19:20.35	346.04	29.14	-46.0	-56.8	3.8	7.48e-01	0	35	104	0	63	12586
2026-01-18 04:19:21.36	345.67	29.23	-49.6	-61.2	3.9	7.44e-01	0	35	104	0	71	13232
2026-01-18 04:19:22.37	345.31	29.32	-51.3	-63.6	3.9	7.41e-01	0	35	104	0	73	15490
2026-01-18 04:19:23.38	344.94	29.40	-52.1	-64.9	3.9	7.44e-01	0	35	104	0	76	15142
2026-01-18 04:19:24.38	344.57	29.49	-47.3	-58.5	3.8	7.43e-01	0	35	104	0	65	13640
2026-01-18 04:19:25.39	344.20	29.57	-52.1	-65.0	3.9	7.43e-01	0	35	104	0	76	15363
2026-01-18 04:19:26.40	343.82	29.65	-46.2	-57.1	3.8	7.46e-01	0	35	104	0	64	12287
2026-01-18 04:19:27.41	343.44	29.73	-45.7	-56.5	3.8	7.42e-01	0	35	104	0	63	12155
2026-01-18 04:19:28.42	343.07	29.81	-45.5	-56.2	3.8	7.45e-01	0	35	104	0	62	12456
2026-01-18 04:19:29.43	342.68	29.89	-46.3	-57.2	3.8	7.46e-01	0	35	104	0	64	12377
2026-01-18 04:19:30.44	342.30	29.97	-51.2	-63.3	3.8	7.48e-01	0	35	104	0	72	15876
2026-01-18 04:19:31.44	341.92	30.05	-51.9	-64.6	3.9	7.43e-01	0	35	104	0	76	14645
2026-01-18 04:19:32.45	341.53	30.12	-47.1	-58.0	3.8	7.46e-01	0	35	104	0	64	13629
2026-01-18 04:19:33.46	341.14	30.20	-52.0	-64.8	3.9	7.44e-01	0	35	104	0	76	15026
2026-01-18 04:19:34.47	340.75	30.27	-45.9	-56.8	3.8	7.43e-01	0	35	104	0	63	12534
2026-01-18 04:19:35.48	340.36	30.34	-45.2	-56.0	3.8	7.39e-01	0	35	104	0	62	12168
2026-01-18 04:19:36.48	339.97	30.41	-47.0	-57.9	3.8	7.46e-01	0	35	104	0	64	13533
2026-01-18 04:19:37.49	339.57	30.48	-45.6	-56.5	3.8	7.44e-01	0	35	104	0	63	12150
2026-01-18 04:19:38.50	339.18	30.55	-51.7	-63.9	3.8	7.47e-01	0	35	104	0	73	16103
2026-01-18 04:19:39.51	338.78	30.62	-50.1	-61.8	3.8	7.43e-01	0	35	104	0	72	13270
2026-01-18 04:19:40.52	338.38	30.68	-48.7	-59.8	3.8	7.46e-01	0	35	104	0	67	14178
2026-01-18 04:19:41.53	337.97	30.75	-49.2	-60.6	3.9	7.44e-01	0	35	104	0	70	12982
2026-01-18 04:19:42.53	337.57	30.81	-45.8	-56.6	3.8	7.44e-01	0	35	104	0	63	12258
2026-01-18 04:19:43.54	337.17	30.87	-45.4	-56.2	3.8	7.46e-01	0	35	104	0	62	12445
2026-01-18 04:19:44.55	336.76	30.93	-48.5	-59.8	3.8	7.48e-01	0	35	104	0	67	14049
2026-01-18 04:19:45.56	336.35	30.99	-46.0	-56.4	3.8	7.46e-01	0	35	104	0	63	12079
2026-01-18 04:19:46.57	335.94	31.04	-52.3	-65.3	3.8	7.45e-01	0	35	104	0	75	16800
2026-01-18 04:19:47.58	335.53	31.10	-48.1	-59.3	3.8	7.46e-01	0	35	104	0	68	12527
2026-01-18 04:19:48.59	335.11	31.15	-50.6	-62.4	3.8	7.42e-01	0	35	104	0	71	15103
2026-01-18 04:19:49.59	334.70	31.20	-47.1	-58.2	3.8	7.44e-01	0	35	104	0	66	12402
2026-01-18 04:19:50.60	334.28	31.25	-45.6	-56.4	3.8	7.46e-01	0	35	104	0	63	12056
2026-01-18 04:19:51.61	333.87	31.30	-45.6	-56.4	3.8	7.44e-01	0	35	104	0	63	12029
2026-01-18 04:19:52.61	333.45	31.35	-53.5	-67.4	3.8	7.45e-01	0	35	104	0	77	18995
2026-01-18 04:19:53.62	333.03	31.39	-50.6	-62.6	3.8	7.44e-01	0	35	104	0	73	13765
2026-01-18 04:19:54.63	332.61	31.44	-52.3	-64.8	3.8	7.48e-01	0	35	104	0	74	16874
2026-01-18 04:19:55.64	332.19	31.48	-47.9	-58.8	3.9	7.44e-01	0	35	104	0	67	12587
2026-01-18 04:19:56.65	331.76	31.52	-51.3	-63.7	3.8	7.46e-01	0	35	104	0	73	15599
2026-01-18 04:19:57.65	331.34	31.56	-48.0	-59.1	3.8	7.45e-01	0	35	104	0	68	12320
2026-01-18 04:19:58.66	330.91	31.60	-45.3	-56.1	3.8	7.45e-01	0	35	104	0	62	12288
2026-01-18 04:19:59.67	330.49	31.63	-45.3	-56.2	3.8	7.42e-01	0	35	104	0	62	12384
2026-01-18 04:20:00.68	330.06	31.67	-50.9	-63.0	3.8	7.44e-01	0	35	104	0	72	15252
2026-01-18 04:20:01.69	329.63	31.70	-45.7	-56.3	3.8	7.47e-01	0	35	104	0	62	12625
2026-01-18 04:20:02.69	329.21	31.73	-52.8	-66.2	3.8	7.47e-01	0	35	104	0	76	17551
2026-01-18 04:20:03.70	328.77	31.76	-46.7	-57.6	3.8	7.44e-01	0	35	104	0	65	12325
2026-01-18 04:20:04.71	328.34	31.79	-52.4	-65.4	3.8	7.46e-01	0	35	104	0	75	17056
2026-01-18 04:20:05.72	327.91	31.81	-46.0	-56.8	3.8	7.43e-01	0	36	104	0	64	11923
2026-01-18 04:20:06.72	327.48	31.84	-45.5	-56.3	3.8	7.45e-01	0	35	104	0	63	11854
2026-01-18 04:20:07.73	327.05	31.86	-45.3	-56.1	3.8	7.43e-01	0	35	104	0	62	12287
2026-01-18 04:20:08.74	326.61	31.88	-52.0	-64.7	3.8	7.45e-01	0	35	104	0	74	16622
2026-01-18 04:20:09.75	326.18	31.90	-45.8	-56.5	3.8	7.48e-01	0	35	104	0	62	12865
2026-01-18 04:20:10.76	325.75	31.91	-52.6	-65.4	3.8	7.45e-01	0	35	104	0	75	17042
2026-01-18 04:20:11.77	325.31	31.93	-46.6	-57.6	3.8	7.45e-01	0	35	104	0	65	12305
2026-01-18 04:20:12.77	324.88	31.94	-54.3	-68.4	3.8	7.46e-01	0	35	104	0	78	20269
2026-01-18 04:20:13.78	324.44	31.95	-45.7	-56.4	3.8	7.47e-01	0	35	104	0	63	12040
2026-01-18 04:20:14.79	324.01	31.96	-45.5	-56.3	3.8	7.45e-01	0	35	104	0	63	11835
2026-01-18 04:20:15.80	323.57	31.97	-45.4	-56.3	3.8	7.46e-01	0	35	104	0	62	12556
2026-01-18 04:20:16.80	323.14	31.97	-54.6	-70.2	3.8	7.46e-01	0	35	104	0	79	23473
2026-01-18 04:20:17.81	322.70	31.97	-46.5	-57.4	3.8	7.46e-01	0	35	104	0	63	13483
2026-01-18 04:20:18.82	322.26	31.98	-53.2	-66.6	3.8	7.48e-01	0	35	104	0	76	18385
2026-01-18 04:20:19.83	321.82	31.98	-46.0	-56.8	3.8	7.44e-01	0	35	104	0	64	11857
2026-01-18 04:20:20.84	321.39	31.97	-53.9	-68.2	3.8	7.49e-01	0	35	104	0	78	19782
2026-01-18 04:20:21.85	320.95	31.97	-45.6	-56.5	3.8	7.44e-01	0	35	104	0	63	12219
2026-01-18 04:20:22.86	320.51	31.97	-45.6	-56.6	3.8	7.45e-01	0	35	104	0	63	12250
2026-01-18 04:20:23.87	320.08	31.96	-45.7	-56.6	3.8	7.44e-01	0	35	104	0	63	12254
2026-01-18 04:20:24.88	319.64	31.95	-53.1	-66.7	3.8	7.45e-01	0	35	104	0	76	18580
2026-01-18 04:20:25.89	319.20	31.94	-47.4	-58.4	3.8	7.46e-01	0	35	104	0	65	13433
2026-01-18 04:20:26.89	318.77	31.92	-53.4	-67.0	3.8	7.43e-01	0	35	104	0	77	18266
2026-01-18 04:20:27.90	318.34	31.91	-45.8	-56.7	3.8	7.44e-01	0	35	104	0	63	12476
2026-01-18 04:20:28.91	317.90	31.89	-54.5	-69.9	3.7	7.46e-01	0	35	104	0	79	22716
2026-01-18 04:20:29.92	317.47	31.88	-45.7	-56.6	3.8	7.45e-01	0	35	104	0	63	12312
2026-01-18 04:20:30.93	317.03	31.86	-45.9	-56.7	3.8	7.43e-01	0	35	104	0	63	12393
2026-01-18 04:20:31.93	316.60	31.83	-45.9	-56.6	3.8	7.41e-01	0	35	104	0	63	12277
2026-01-18 04:20:32.94	316.17	31.81	-51.1	-63.2	3.8	7.43e-01	0	35	104	0	72	15735
2026-01-18 04:20:33.95	315.74	31.78	-47.7	-58.6	3.7	7.47e-01	0	35	104	0	65	13831
2026-01-18 04:20:34.96	315.31	31.76	-53.2	-66.6	3.8	7.49e-01	0	35	104	0	76	18386
2026-01-18 04:20:35.96	314.88	31.73	-45.6	-46.8	23.7	6.02e-01	0	35	0	0	63	3986
2026-01-18 04:20:36.97	314.45	31.70	-54.7	-64.4	7.9	6.53e-01	126	35	0	2097152	79	11964
2026-01-18 04:20:37.98	314.02	31.66	-45.7	-46.9	24.9	6.02e-01	0	35	0	4194304	63	4050
2026-01-18 04:20:38.99	313.59	31.63	-45.7	-47.0	25.0	6.01e-01	0	35	0	5767168	62	4317
2026-01-18 04:20:40.00	313.17	31.59	-45.8	-47.1	25.0	6.03e-01	0	35	0	7864320	62	4345
2026-01-18 04:20:41.01	312.74	31.56	-45.3	-46.5	25.5	6.01e-01	0	35	0	9437184	62	4092
2026-01-18 04:20:42.01	312.32	31.52	-45.0	-46.1	25.8	6.02e-01	0	35	0	11534336	61	4139
2026-01-18 04:20:43.02	311.89	31.48	-45.1	-46.3	25.7	6.02e-01	0	36	0	13107200	61	4197
2026-01-18 04:20:44.03	311.47	31.43	-45.3	-46.5	25.2	6.01e-01	0	35	0	15204352	62	4085
2026-01-18 04:20:45.04	311.05	31.39	-45.5	-46.7	25.1	6.02e-01	0	35	0	17301504	62	4175
2026-01-18 04:20:46.04	310.63	31.34	-45.9	-47.3	24.7	6.01e-01	0	35	0	18874368	62	4466
2026-01-18 04:20:47.05	310.21	31.30	-46.0	-47.4	24.7	6.00e-01	0	35	0	20971520	62	4510
2026-01-18 04:20:48.06	309.80	31.25	-45.4	-46.7	25.4	6.04e-01	0	35	0	22544384	62	4163
2026-01-18 04:20:49.07	309.38	31.20	-45.4	-46.7	25.4	6.00e-01	0	35	0	24641536	61	4405
2026-01-18 04:20:50.08	308.96	31.15	-45.3	-46.6	25.4	6.01e-01	0	35	0	26738688	62	4107
2026-01-18 04:20:51.09	308.55	31.09	-44.9	-46.0	25.9	6.02e-01	0	35	0	28311552	61	4082
2026-01-18 04:20:52.09	308.14	31.04	-45.0	-46.2	25.7	6.01e-01	0	35	0	30408704	61	4146
2026-01-18 04:20:53.10	307.73	30.98	-45.6	-46.8	25.0	5.99e-01	0	35	0	32505856	62	4239
2026-01-18 04:20:54.11	307.32	30.92	-45.9	-47.2	22.7	6.03e-01	0	35	0	34078720	62	4418
2026-01-18 04:20:55.12	306.91	30.86	-45.8	-47.1	25.0	6.00e-01	0	35	0	36175872	62	4376
2026-01-18 04:20:56.13	306.51	30.80	-45.4	-46.6	25.4	6.05e-01	0	36	0	37748736	62	4115
2026-01-18 04:20:57.13	306.10	30.74	-45.2	-46.4	25.6	6.01e-01	0	35	0	39845888	62	4044
2026-01-18 04:20:58.14	305.70	30.67	-45.1	-46.2	25.7	6.01e-01	0	35	0	41418752	62	3958
2026-01-18 04:20:59.15	305.30	30.61	-45.5	-46.8	25.2	6.03e-01	0	35	0	43515904	62	4219
2026-01-18 04:21:00.16	304.90	30.54	-45.8	-47.1	24.9	6.02e-01	0	35	0	45613056	62	4387
2026-01-18 04:21:01.16	304.51	30.47	-45.8	-47.0	25.0	6.04e-01	0	35	0	47185920	62	4336
2026-01-18 04:21:02.17	304.11	30.40	-45.5	-46.7	25.3	6.03e-01	0	35	0	49283072	62	4182
2026-01-18 04:21:03.18	303.71	30.33	-45.3	-46.5	25.5	6.04e-01	0	35	0	51380224	62	4053
2026-01-18 04:21:04.19	303.32	30.26	-45.6	-46.9	24.8	6.03e-01	0	35	0	52953088	63	4025
2026-01-18 04:21:05.20	302.93	30.19	-46.2	-47.6	24.1	6.03e-01	0	35	0	55050240	63	4351
2026-01-18 04:21:06.20	302.55	30.11	-46.5	-47.9	24.1	5.98e-01	0	35	0	56623104	63	4528
2026-01-18 04:21:07.21	302.16	30.04	-46.2	-47.6	24.5	6.02e-01	0	35	0	58720256	62	4626
2026-01-18 04:21:08.22	301.77	29.96	-46.0	-47.3	24.8	6.02e-01	0	35	0	60817408	62	4468
2026-01-18 04:21:09.23	301.39	29.88	-45.9	-47.2	24.8	6.02e-01	0	35	0	62390272	62	4398
2026-01-18 04:21:10.23	301.01	29.80	-45.3	-46.5	25.4	6.02e-01	0	35	0	64487424	62	4086
2026-01-18 04:21:11.24	300.63	29.72	-45.2	-46.3	25.6	6.04e-01	0	35	0	66060288	62	3992
2026-01-18 04:21:12.25	300.25	29.64	-45.7	-47.0	24.7	6.02e-01	0	35	0	68157440	63	4071
2026-01-18 04:21:13.26	299.88	29.56	-46.2	-47.6	24.3	6.02e-01	0	35	0	69730304	63	4346
2026-01-18 04:21:14.26	299.51	29.48	-46.7	-48.1	24.0	6.03e-01	0	35	0	71827456	63	4647
2026-01-18 04:21:15.27	299.14	29.39	-46.7	-48.2	23.9	6.01e-01	0	35	0	73924608	63	4686
2026-01-18 04:21:16.28	298.77	29.31	-46.3	-47.7	24.1	6.03e-01	0	35	0	75497472	63	4395
2026-01-18 04:21:17.29	298.40	29.22	-45.3	-46.5	25.6	6.01e-01	0	35	0	77594624	62	4052
2026-01-18 04:21:18.30	298.03	29.13	-45.8	-47.1	24.7	6.01e-01	0	35	0	79691776	63	4109
2026-01-18 04:21:19.30	297.67	29.04	-46.3	-47.6	24.3	6.04e-01	0	35	0	81264640	63	4384
2026-01-18 04:21:20.31	297.31	28.95	-46.5	-47.9	24.0	5.99e-01	0	35	0	83361792	63	4529
2026-01-18 04:21:21.32	296.95	28.86	-46.3	-47.7	24.2	6.03e-01	0	35	0	84934656	63	4429
2026-01-18 04:21:22.33	296.60	28.77	-45.8	-47.0	25.0	6.02e-01	0	35	0	87031808	63	4097
2026-01-18 04:21:23.34	296.24	28.68	-46.2	-47.5	24.3	6.01e-01	0	35	0	89128960	64	4064
2026-01-18 04:21:24.34	295.89	28.59	-46.9	-48.4	23.5	6.02e-01	0	35	0	90701824	64	4497
2026-01-18 04:21:25.35	295.54	28.49	-46.2	-47.6	24.5	5.98e-01	0	35	0	92798976	63	4349
2026-01-18 04:21:26.36	295.19	28.40	-46.3	-47.6	24.5	6.02e-01	0	35	0	94371840	63	4353
2026-01-18 04:21:27.37	294.85	28.30	-46.5	-47.8	24.3	6.02e-01	0	35	0	96468992	63	4486
2026-01-18 04:21:28.38	294.50	28.20	-46.6	-48.0	24.1	6.01e-01	0	35	0	98566144	63	4584
2026-01-18 04:21:29.38	294.16	28.11	-46.7	-48.1	23.9	6.01e-01	0	35	0	100139008	64	4389
2026-01-18 04:21:30.39	293.82	28.01	-46.5	-47.9	24.1	6.03e-01	0	35	0	102236160	64	4248
2026-01-18 04:21:31.40	293.48	27.91	-46.2	-47.6	24.4	6.04e-01	0	35	0	103809024	64	4114
2026-01-18 04:21:32.41	293.15	27.81	-46.2	-47.6	24.4	6.00e-01	0	35	0	105906176	64	4104
2026-01-18 04:21:33.42	292.82	27.71	-46.2	-47.5	24.5	6.02e-01	0	35	0	108003328	64	4074
2026-01-18 04:21:34.42	292.49	27.61	-46.0	-47.3	24.7	6.01e-01	0	35	0	109576192	63	4235
2026-01-18 04:21:35.43	292.16	27.51	-46.5	-47.9	24.1	6.01e-01	0	35	0	111673344	63	4526
2026-01-18 04:21:36.44	291.83	27.41	-46.4	-47.8	24.2	6.01e-01	0	35	0	113246208	63	4467
2026-01-18 04:21:37.45	291.51	27.31	-45.7	-46.9	25.0	6.04e-01	0	35	0	115343360	63	4019
2026-01-18 04:21:38.46	291.18	27.20	-46.5	-48.0	24.1	6.02e-01	0	35	0	117440512	63	4563
2026-01-18 04:21:39.46	290.87	27.10	-45.9	-47.2	24.8	6.04e-01	0	35	0	119013376	63	4171
2026-01-18 04:21:40.47	290.55	27.00	-46.3	-47.7	24.3	6.02e-01	0	35	0	121110528	63	4420
2026-01-18 04:21:41.48	290.23	26.89	-45.6	-46.8	25.2	6.03e-01	0	35	0	123207680	63	3985
2026-01-18 04:21:42.48	289.92	26.79	-46.3	-47.7	24.3	6.02e-01	0	35	0	124780544	63	4395
2026-01-18 04:21:43.49	289.61	26.68	-45.9	-47.2	24.8	6.02e-01	0	35	0	126877696	63	4160
2026-01-18 04:21:44.50	289.30	26.58	-46.4	-47.8	24.1	6.01e-01	0	35	0	128450560	63	4452
2026-01-18 04:21:45.50	289.00	26.47	-46.4	-47.7	24.3	6.02e-01	0	35	0	130547712	63	4428
2026-01-18 04:21:46.51	288.69	26.36	-46.3	-47.6	24.4	6.04e-01	0	35	0	132120576	63	4376
2026-01-18 04:21:47.52	288.39	26.26	-46.3	-47.7	24.3	6.03e-01	0	35	0	134217728	63	4404
2026-01-18 04:21:48.53	288.09	26.15	-46.1	-47.4	24.6	6.01e-01	0	35	0	136314880	63	4274
2026-01-18 04:21:49.54	287.79	26.04	-46.7	-48.1	24.0	6.02e-01	0	35	0	137887744	63	4645
2026-01-18 04:21:50.54	287.49	25.93	-46.3	-47.6	24.5	6.04e-01	0	35	0	139984896	63	4371
2026-01-18 04:21:51.55	287.20	25.82	-47.1	-48.7	23.3	6.04e-01	0	35	0	141557760	64	4680
2026-01-18 04:21:52.56	286.91	25.71	-46.0	-47.3	24.7	6.02e-01	0	35	0	143654912	63	4205
2026-01-18 04:21:53.56	286.62	25.61	-47.0	-48.5	23.5	6.01e-01	0	35	0	145752064	64	4573
2026-01-18 04:21:54.57	286.33	25.50	-45.8	-47.0	24.9	6.02e-01	0	35	0	147324928	63	4078
2026-01-18 04:21:55.58	286.04	25.39	-46.7	-48.1	23.9	5.99e-01	0	35	0	149422080	63	4624
2026-01-18 04:21:56.59	285.76	25.28	-46.4	-47.8	24.2	6.03e-01	0	35	0	151519232	63	4467
2026-01-18 04:21:57.60	285.48	25.17	-47.2	-48.8	23.4	6.02e-01	0	35	0	153092096	64	4726
2026-01-18 04:21:58.60	285.20	25.06	-46.6	-48.0	23.7	6.02e-01	0	35	0	155189248	65	4077
2026-01-18 04:21:59.61	284.92	24.94	-47.0	-48.5	23.4	6.02e-01	0	35	0	156762112	64	4593
2026-01-18 04:22:00.62	284.65	24.83	-46.7	-48.1	23.3	6.02e-01	0	35	0	158859264	65	4144
2026-01-18 04:22:01.63	284.37	24.72	-46.3	-47.7	24.0	6.03e-01	0	35	0	160432128	64	4158
2026-01-18 04:22:02.63	284.10	24.61	-47.4	-49.0	22.8	6.01e-01	0	35	0	162529280	65	4564
2026-01-18 04:22:03.64	283.83	24.50	-45.8	-47.0	24.9	5.99e-01	0	35	0	164626432	63	4080
2026-01-18 04:22:04.65	283.56	24.39	-47.1	-48.7	23.2	6.00e-01	0	35	0	166199296	64	4671
2026-01-18 04:22:05.66	283.30	24.28	-46.2	-47.5	23.9	6.03e-01	0	35	0	168296448	64	4068
2026-01-18 04:22:06.66	283.04	24.16	-46.7	-48.1	23.5	6.02e-01	0	35	0	169869312	64	4388
2026-01-18 04:22:07.67	282.77	24.05	-46.7	-48.1	23.5	6.02e-01	0	35	0	171966464	65	4124
2026-01-18 04:22:08.68	282.51	23.94	-46.1	-47.4	24.4	6.01e-01	0	35	0	174063616	64	4019
2026-01-18 04:22:09.69	282.26	23.83	-47.0	-48.6	23.3	6.01e-01	0	35	0	175636480	64	4606
2026-01-18 04:22:10.69	282.00	23.72	-45.8	-47.1	24.6	6.03e-01	0	35	0	177733632	63	4114
2026-01-18 04:22:11.70	281.75	23.60	-46.2	-47.6	24.1	6.03e-01	0	35	0	179830784	63	4349
2026-01-18 04:22:12.71	281.50	23.49	-46.7	-48.3	23.4	6.00e-01	0	35	0	181403648	64	4442
2026-01-18 04:22:13.72	281.25	23.38	-46.1	-47.3	24.5	6.02e-01	0	35	0	183500800	64	3993
2026-01-18 04:22:14.72	281.00	23.27	-47.2	-48.8	22.9	5.99e-01	0	35	0	185073664	64	4729
2026-01-18 04:22:15.73	280.75	23.15	-47.1	-48.6	22.7	6.01e-01	0	35	0	187170816	65	4377
2026-01-18 04:22:16.74	280.51	23.04	-46.5	-47.9	24.0	6.04e-01	0	35	0	188743680	64	4255
2026-01-18 04:22:17.75	280.27	22.93	-47.7	-49.4	22.7	6.01e-01	0	35	0	190840832	65	4778
2026-01-18 04:22:18.76	280.02	22.82	-47.4	-49.0	22.5	6.03e-01	0	35	0	192937984	66	4304
2026-01-18 04:22:19.77	279.79	22.70	-47.1	-48.6	23.3	6.00e-01	0	35	0	194510848	66	4111
2026-01-18 04:22:20.77	279.55	22.59	-47.8	-49.4	22.5	6.03e-01	0	35	0	196608000	66	4545
2026-01-18 04:22:21.78	279.31	22.48	-47.2	-48.8	22.8	6.01e-01	0	35	0	198705152	66	4202
2026-01-18 04:22:22.79	279.08	22.37	-46.1	-47.4	24.4	6.00e-01	0	35	0	200278016	64	4038
2026-01-18 04:22:23.79	278.85	22.25	-46.7	-48.1	23.5	6.01e-01	0	35	0	202375168	64	4372
2026-01-18 04:22:24.80	278.62	22.14	-47.1	-48.6	23.2	6.01e-01	0	35	0	203948032	64	4646
2026-01-18 04:22:25.81	278.39	22.03	-46.7	-48.1	23.6	6.00e-01	0	35	0	206045184	64	4390
2026-01-18 04:22:26.82	278.17	21.92	-46.7	-48.1	23.6	6.02e-01	0	35	0	208142336	64	4360
2026-01-18 04:22:27.83	277.94	21.81	-47.4	-49.0	22.8	6.01e-01	0	35	0	209715200	65	4594
2026-01-18 04:22:28.83	277.72	21.69	-46.7	-48.2	23.5	6.00e-01	0	35	0	211812352	65	4150
2026-01-18 04:22:29.84	277.50	21.58	-46.0	-47.3	24.6	6.02e-01	0	35	0	213385216	64	3969
2026-01-18 04:22:30.84	277.28	21.47	-46.4	-47.8	24.1	6.01e-01	0	35	0	215482368	63	4451
2026-01-18 04:22:31.85	277.06	21.36	-46.6	-48.1	23.8	6.04e-01	0	35	0	217055232	64	4358
2026-01-18 04:22:32.86	276.84	21.25	-46.2	-47.6	24.2	6.01e-01	0	35	0	219152384	64	4126
2026-01-18 04:22:33.87	276.63	21.14	-46.0	-47.3	24.5	6.03e-01	0	35	0	221249536	64	4001
2026-01-18 04:22:34.87	276.42	21.02	-46.2	-47.6	24.3	6.02e-01	0	35	0	223346688	64	4109
2026-01-18 04:22:35.88	276.21	20.91	-46.5	-47.9	24.0	6.01e-01	0	35	0	224919552	64	4261
2026-01-18 04:22:36.89	276.00	20.80	-46.4	-47.8	23.9	5.99e-01	0	35	0	227016704	64	4221
2026-01-18 04:22:37.90	275.79	20.69	-46.5	-47.8	24.0	6.02e-01	0	35	0	228589568	64	4222
2026-01-18 04:22:38.90	275.58	20.58	-46.2	-47.6	24.1	6.03e-01	0	35	0	230686720	64	4119
2026-01-18 04:22:39.91	275.38	20.47	-46.2	-47.6	24.2	6.02e-01	0	35	0	232259584	64	4140
2026-01-18 04:22:40.92	275.17	20.36	-46.3	-47.7	24.1	6.01e-01	0	35	0	234356736	64	4164
2026-01-18 04:22:41.93	274.97	20.25	-46.4	-47.7	24.0	6.04e-01	0	35	0	236453888	64	4185
2026-01-18 04:22:42.93	274.77	20.14	-46.2	-47.5	24.3	6.01e-01	0	35	0	238026752	64	4074
2026-01-18 04:22:43.94	274.57	20.03	-46.1	-47.5	24.3	6.01e-01	0	35	0	240123904	64	4072
2026-01-18 04:22:44.95	274.38	19.92	-46.4	-47.9	24.0	6.02e-01	0	35	0	241696768	64	4245
2026-01-18 04:22:45.96	274.18	19.81	-46.3	-47.7	24.0	6.03e-01	0	35	0	243793920	64	4156
2026-01-18 04:22:46.97	273.99	19.70	-46.4	-47.8	24.0	6.04e-01	0	35	0	245891072	64	4198
2026-01-18 04:22:47.97	273.79	19.59	-46.2	-47.5	24.3	6.04e-01	0	35	0	247463936	64	4088
2026-01-18 04:22:48.98	273.60	19.48	-46.0	-47.4	24.4	6.01e-01	0	35	0	249561088	64	4010
2026-01-18 04:22:49.99	273.41	19.37	-46.1	-47.5	24.3	6.01e-01	0	35	0	251658240	64	4087
2026-01-18 04:22:51.00	273.22	19.26	-46.0	-47.4	24.4	6.03e-01	0	35	0	253231104	64	4023
2026-01-18 04:22:52.01	273.04	19.16	-46.0	-47.4	24.4	6.02e-01	0	35	0	255328256	64	4024
2026-01-18 04:22:53.01	272.85	19.05	-46.2	-47.5	24.2	6.04e-01	0	35	0	256901120	64	4084
2026-01-18 04:22:54.02	272.67	18.94	-46.1	-47.4	24.4	6.03e-01	0	35	0	258998272	64	4026
2026-01-18 04:22:55.03	272.49	18.83	-46.1	-47.4	24.3	6.03e-01	0	35	0	260571136	64	4032
2026-01-18 04:22:56.04	272.30	18.73	-46.2	-47.6	24.2	5.99e-01	0	35	0	262668288	64	4099
2026-01-18 04:22:57.04	272.12	18.62	-46.2	-47.5	24.2	6.01e-01	0	35	0	264765440	64	4093
2026-01-18 04:22:58.05	271.95	18.51	-46.3	-47.7	24.1	6.01e-01	0	35	0	266338304	64	4146
2026-01-18 04:22:59.06	271.77	18.40	-46.2	-47.6	24.2	6.02e-01	0	35	0	268435456	64	4099
2026-01-18 04:23:00.07	271.59	18.30	-46.0	-47.3	24.5	6.01e-01	0	35	0	270532608	63	4233
2026-01-18 04:23:01.08	271.42	18.19	-46.0	-47.3	24.5	6.02e-01	0	35	0	272105472	63	4225
2026-01-18 04:23:02.08	271.24	18.09	-46.1	-47.4	24.4	6.03e-01	0	35	0	274202624	63	4283
2026-01-18 04:23:03.09	271.07	17.98	-46.1	-47.5	24.4	6.00e-01	0	35	0	275775488	63	4297
2026-01-18 04:23:04.10	270.90	17.87	-46.3	-47.7	24.2	6.01e-01	0	35	0	277872640	63	4434
2026-01-18 04:23:05.10	270.73	17.77	-46.2	-47.6	24.2	6.00e-01	0	35	0	279969792	63	4386
2026-01-18 04:23:06.11	270.56	17.66	-46.3	-47.6	24.2	6.02e-01	0	35	0	281542656	63	4382
2026-01-18 04:23:07.12	270.40	17.56	-46.2	-47.6	24.3	6.01e-01	0	35	0	283639808	63	4369
2026-01-18 04:23:08.13	270.23	17.45	-46.3	-47.6	24.2	6.02e-01	0	35	0	285212672	63	4377
2026-01-18 04:23:09.14	270.07	17.35	-46.0	-47.4	24.5	6.02e-01	0	35	0	287309824	63	4257
2026-01-18 04:23:10.14	269.90	17.25	-46.0	-47.3	24.5	6.02e-01	0	35	0	288882688	63	4209
2026-01-18 04:23:11.15	269.74	17.14	-46.1	-47.4	24.4	6.01e-01	0	35	0	290979840	63	4266
2026-01-18 04:23:12.16	269.58	17.04	-46.2	-47.6	24.2	6.02e-01	0	35	0	293076992	63	4355
2026-01-18 04:23:13.17	269.42	16.93	-46.2	-47.5	24.2	6.00e-01	0	35	0	294649856	63	4330
2026-01-18 04:23:14.17	269.26	16.83	-46.2	-47.5	24.2	6.03e-01	0	35	0	296747008	63	4335
2026-01-18 04:23:15.18	269.11	16.73	-46.1	-47.5	24.3	6.01e-01	0	35	0	298844160	63	4299
2026-01-18 04:23:16.19	268.95	16.63	-46.2	-47.6	24.2	6.01e-01	0	35	0	300417024	63	4382
2026-01-18 04:23:17.20	268.79	16.52	-46.2	-47.6	24.2	6.04e-01	0	35	0	302514176	63	4341
2026-01-18 04:23:18.21	268.64	16.42	-46.1	-47.5	24.3	6.00e-01	0	35	0	304087040	63	4313
2026-01-18 04:23:19.21	268.49	16.32	-46.1	-47.4	24.3	6.04e-01	0	35	0	306184192	63	4290
2026-01-18 04:23:20.22	268.34	16.22	-45.9	-47.2	24.6	6.02e-01	0	35	0	308281344	63	4168
2026-01-18 04:23:21.23	268.18	16.12	-45.7	-47.0	24.7	6.02e-01	0	35	0	309854208	63	4092
2026-01-18 04:23:22.24	268.04	16.02	-45.8	-47.1	24.6	6.04e-01	0	35	0	311951360	63	4128
2026-01-18 04:23:23.25	267.89	15.92	-45.9	-47.2	24.6	6.01e-01	0	35	0	313524224	63	4163
2026-01-18 04:23:24.25	267.74	15.82	-46.0	-47.4	24.4	6.02e-01	0	35	0	315621376	63	4261
2026-01-18 04:23:25.26	267.59	15.72	-46.1	-47.5	24.3	5.99e-01	0	35	0	317194240	63	4312
2026-01-18 04:23:26.27	267.45	15.62	-46.2	-47.6	24.1	6.01e-01	0	35	0	319291392	63	4388
2026-01-18 04:23:27.27	267.31	15.52	-46.2	-47.6	24.1	6.01e-01	0	35	0	321388544	63	4380
2026-01-18 04:23:28.28	267.16	15.42	-46.1	-47.5	24.2	6.01e-01	0	35	0	323485696	63	4323
2026-01-18 04:23:29.29	267.02	15.32	-46.1	-47.5	24.3	6.00e-01	0	35	0	325058560	63	4293
2026-01-18 04:23:30.30	266.88	15.22	-46.0	-47.3	24.4	5.99e-01	0	35	0	327155712	63	4229
2026-01-18 04:23:31.30	266.74	15.12	-46.0	-47.3	24.3	6.04e-01	0	35	0	328728576	63	4235
2026-01-18 04:23:32.31	266.60	15.02	-45.9	-47.3	24.4	6.03e-01	0	35	0	330825728	63	4196
2026-01-18 04:23:33.32	266.46	14.92	-45.9	-47.3	24.4	6.01e-01	0	35	0	332398592	63	4196
2026-01-18 04:23:34.33	266.32	14.83	-46.0	-47.4	24.3	6.02e-01	0	35	0	334495744	63	4249
2026-01-18 04:23:35.34	266.19	14.73	-46.1	-47.5	24.2	6.01e-01	0	35	0	336592896	63	4314
2026-01-18 04:23:36.34	266.05	14.63	-46.1	-47.5	24.3	6.01e-01	0	35	0	338165760	63	4299
2026-01-18 04:23:37.35	265.92	14.54	-46.2	-47.5	24.2	6.02e-01	0	35	0	340262912	63	4332
2026-01-18 04:23:38.36	265.79	14.44	-46.1	-47.5	24.2	6.01e-01	0	35	0	341835776	63	4309
2026-01-18 04:23:39.37	265.65	14.34	-46.1	-47.5	24.2	6.01e-01	0	35	0	343932928	63	4326
2026-01-18 04:23:40.37	265.52	14.25	-46.1	-47.5	24.2	6.04e-01	0	35	0	346030080	63	4323
2026-01-18 04:23:41.38	265.39	14.15	-46.2	-47.6	24.1	6.00e-01	0	35	0	347602944	63	4345
2026-01-18 04:23:42.39	265.26	14.06	-46.2	-47.5	24.2	6.04e-01	0	35	0	349700096	63	4334
2026-01-18 04:23:43.40	265.13	13.96	-46.2	-47.6	24.1	6.05e-01	0	35	0	351797248	63	4371
2026-01-18 04:23:44.41	265.00	13.87	-46.2	-47.6	24.0	6.03e-01	0	35	0	353370112	63	4386
2026-01-18 04:23:45.41	264.88	13.77	-46.1	-47.5	24.2	6.01e-01	0	35	0	355467264	63	4334
2026-01-18 04:23:46.42	264.75	13.68	-46.1	-47.5	24.1	6.03e-01	0	35	0	357040128	63	4333
2026-01-18 04:23:47.44	264.63	13.58	-46.2	-47.6	24.1	6.02e-01	0	35	0	359137280	63	4363
2026-01-18 04:23:48.44	264.50	13.49	-46.2	-47.6	24.1	6.01e-01	0	35	0	360710144	63	4344
2026-01-18 04:23:49.45	264.38	13.39	-46.1	-47.5	24.1	6.00e-01	0	35	0	362807296	63	4294
2026-01-18 04:23:50.46	264.26	13.30	-46.1	-47.4	24.2	6.01e-01	0	35	0	364904448	63	4291
2026-01-18 04:23:51.47	264.13	13.21	-46.1	-47.5	24.2	6.02e-01	0	35	0	367001600	63	4312
2026-01-18 04:23:52.47	264.01	13.12	-46.2	-47.6	24.1	6.02e-01	0	35	0	368574464	63	4371
2026-01-18 04:23:53.48	263.89	13.02	-46.2	-47.6	24.0	6.00e-01	0	35	0	370671616	63	4387
2026-01-18 04:23:54.49	263.78	12.93	-46.3	-47.7	24.0	6.01e-01	0	35	0	372244480	63	4400
2026-01-18 04:23:55.50	263.66	12.84	-46.4	-47.8	23.9	6.02e-01	0	35	0	374341632	63	4468
2026-01-18 04:23:56.50	263.54	12.75	-46.5	-47.9	23.8	6.00e-01	0	35	0	375914496	63	4516
2026-01-18 04:23:57.51	263.42	12.66	-46.5	-48.0	23.7	6.02e-01	0	35	0	378011648	63	4556
2026-01-18 04:23:58.52	263.31	12.56	-46.4	-47.9	23.8	6.03e-01	0	35	0	380108800	63	4504
2026-01-18 04:23:59.53	263.19	12.47	-46.5	-48.0	23.7	6.01e-01	0	35	0	381681664	63	4546
2026-01-18 04:24:00.53	263.08	12.38	-46.5	-47.9	23.7	6.02e-01	0	35	0	383778816	63	4530
2026-01-18 04:24:01.54	262.96	12.29	-46.4	-47.8	23.7	6.03e-01	0	35	0	385351680	63	4467
2026-01-18 04:24:02.55	262.85	12.20	-46.2	-47.6	24.0	6.04e-01	0	35	0	387448832	63	4353
2026-01-18 04:24:03.56	262.74	12.11	-46.3	-47.7	24.0	6.00e-01	0	35	0	389021696	63	4394
2026-01-18 04:24:04.57	262.63	12.02	-46.2	-47.6	23.9	5.99e-01	0	35	0	391118848	63	4386
2026-01-18 04:24:05.57	262.52	11.93	-46.2	-47.6	24.0	6.03e-01	0	35	0	393216000	63	4381
2026-01-18 04:24:06.58	262.41	11.84	-46.3	-47.7	23.9	6.01e-01	0	35	0	395313152	63	4410
2026-01-18 04:24:07.59	262.30	11.76	-46.4	-47.8	23.8	6.00e-01	0	35	0	396886016	63	4484
2026-01-18 04:24:08.60	262.19	11.67	-46.4	-47.9	23.7	6.03e-01	0	35	0	398983168	63	4515
2026-01-18 04:24:09.61	262.08	11.58	-46.5	-47.9	23.7	6.02e-01	0	35	0	400556032	63	4532
2026-01-18 04:24:10.61	261.97	11.49	-46.6	-48.1	23.5	6.03e-01	0	35	0	402653184	63	4610
2026-01-18 04:24:11.62	261.87	11.40	-46.5	-47.9	23.7	6.00e-01	0	35	0	404226048	63	4532
2026-01-18 04:24:12.63	261.76	11.32	-46.5	-48.0	23.6	6.02e-01	0	35	0	406323200	63	4554
2026-01-18 04:24:13.64	261.66	11.23	-46.4	-47.9	23.7	5.99e-01	0	35	0	408420352	63	4505
2026-01-18 04:24:14.64	261.55	11.14	-46.5	-48.0	23.6	5.99e-01	0	35	0	409993216	63	4552
2026-01-18 04:24:15.65	261.45	11.06	-46.5	-48.0	23.5	6.03e-01	0	35	0	412090368	63	4578
2026-01-18 04:24:16.66	261.35	10.97	-46.5	-47.9	23.6	6.02e-01	0	35	0	413663232	63	4534
2026-01-18 04:24:17.67	261.24	10.88	-46.4	-47.9	23.6	6.04e-01	0	35	0	415760384	63	4507
2026-01-18 04:24:18.68	261.14	10.80	-46.4	-47.9	23.7	6.02e-01	0	35	0	417857536	63	4512
2026-01-18 04:24:19.69	261.04	10.71	-46.5	-48.0	23.6	6.01e-01	0	35	0	419430400	63	4557
2026-01-18 04:24:20.70	260.94	10.62	-46.6	-48.0	23.5	6.05e-01	0	35	0	421527552	63	4585
2026-01-18 04:24:21.70	260.84	10.54	-46.7	-48.2	23.4	6.00e-01	0	35	0	423624704	63	4654
2026-01-18 04:24:22.71	260.74	10.45	-46.5	-48.0	23.5	6.01e-01	0	35	0	425197568	63	4563
2026-01-18 04:24:23.72	260.65	10.37	-46.6	-48.1	23.4	6.01e-01	0	35	0	427294720	63	4618
2026-01-18 04:24:24.73	260.55	10.29	-46.6	-48.1	23.4	6.00e-01	0	35	0	428867584	63	4634
2026-01-18 04:24:25.74	260.45	10.20	-46.6	-48.1	23.4	6.01e-01	0	35	0	430964736	63	4609
2026-01-18 04:24:26.74	260.35	10.12	-46.6	-48.1	23.4	6.03e-01	0	35	0	432537600	63	4634
2026-01-18 04:24:27.75	260.26	10.03	-46.7	-48.2	23.3	6.04e-01	0	35	0	434634752	63	4684
2026-01-18 04:24:28.76	260.16	9.95	-46.7	-48.3	23.2	6.01e-01	0	35	0	436731904	64	4448
2026-01-18 04:24:29.77	260.07	9.87	-46.7	-48.3	23.1	6.02e-01	0	35	0	438304768	64	4462
2026-01-18 04:24:30.78	259.97	9.78	-46.7	-48.2	23.2	5.99e-01	0	35	0	440401920	64	4400
2026-01-18 04:24:31.79	259.88	9.70	-46.7	-48.2	23.2	6.01e-01	0	35	0	442499072	64	4431
2026-01-18 04:24:32.79	259.79	9.62	-46.6	-48.2	23.2	6.02e-01	0	35	0	444071936	64	4395
2026-01-18 04:24:33.80	259.70	9.54	-46.7	-48.3	23.1	6.02e-01	0	35	0	446169088	64	4442
2026-01-18 04:24:34.81	259.60	9.45	-46.7	-48.3	23.1	6.02e-01	0	35	0	447741952	64	4442
2026-01-18 04:24:35.82	259.51	9.37	-46.7	-48.3	23.1	6.02e-01	0	35	0	449839104	64	4443
2026-01-18 04:24:36.83	259.42	9.29	-46.8	-48.4	23.0	6.02e-01	0	35	0	451936256	64	4494
2026-01-18 04:24:37.83	259.33	9.21	-46.7	-48.3	23.1	6.02e-01	0	35	0	453509120	64	4450
2026-01-18 04:24:38.84	259.24	9.13	-46.8	-48.4	22.9	5.98e-01	0	35	0	455606272	64	4515
2026-01-18 04:24:39.84	259.16	9.05	-46.9	-48.5	22.8	6.02e-01	0	35	0	457179136	64	4561
2026-01-18 04:24:40.85	259.07	8.97	-46.9	-48.4	22.9	6.02e-01	0	35	0	459276288	64	4538
2026-01-18 04:24:41.86	258.98	8.89	-46.9	-48.5	22.8	6.01e-01	0	35	0	460849152	64	4586
2026-01-18 04:24:42.87	258.89	8.80	-46.8	-48.3	23.0	6.01e-01	0	35	0	462946304	64	4491
2026-01-18 04:24:43.88	258.81	8.72	-46.8	-48.3	23.0	6.01e-01	0	35	0	465043456	64	4490
2026-01-18 04:24:44.89	258.72	8.64	-46.7	-48.3	23.0	6.00e-01	0	35	0	466616320	64	4470
2026-01-18 04:24:45.90	258.63	8.56	-46.8	-48.3	23.0	6.01e-01	0	35	0	468713472	64	4493
2026-01-18 04:24:46.90	258.55	8.49	-46.9	-48.4	22.9	6.03e-01	0	35	0	470810624	64	4539
2026-01-18 04:24:47.91	258.46	8.41	-46.9	-48.4	22.8	6.02e-01	0	35	0	472383488	64	4544
2026-01-18 04:24:48.92	258.38	8.33	-46.9	-48.5	22.8	6.01e-01	0	35	0	474480640	64	4558
2026-01-18 04:24:49.92	258.30	8.25	-46.9	-48.5	22.9	6.02e-01	0	35	0	476053504	64	4546
2026-01-18 04:24:50.94	258.21	8.17	-47.0	-48.6	22.7	6.03e-01	0	35	0	478150656	64	4612
2026-01-18 04:24:51.94	258.13	8.09	-46.8	-48.4	22.9	6.02e-01	0	36	0	480247808	64	4499
2026-01-18 04:24:52.95	258.05	8.01	-46.8	-48.4	22.9	6.00e-01	0	35	0	481820672	64	4497
2026-01-18 04:24:53.96	257.97	7.94	-46.8	-48.3	22.7	6.03e-01	0	35	0	483917824	64	4487
2026-01-18 04:24:54.97	257.89	7.86	-46.9	-48.5	22.8	6.04e-01	0	35	0	486014976	64	4563
2026-01-18 04:24:55.98	257.81	7.78	-46.8	-48.4	22.8	6.01e-01	0	35	0	487587840	64	4521
2026-01-18 04:24:56.99	257.73	7.70	-46.9	-48.5	22.7	6.01e-01	0	35	0	489684992	64	4588
2026-01-18 04:24:58.00	257.65	7.63	-46.9	-48.5	22.7	6.03e-01	0	35	0	491257856	64	4594
2026-01-18 04:24:59.01	257.57	7.55	-47.0	-48.6	22.6	6.00e-01	0	35	0	493355008	64	4642
2026-01-18 04:25:00.02	257.49	7.47	-47.0	-48.7	22.6	6.02e-01	0	35	0	494927872	64	4655
2026-01-18 04:25:01.03	257.41	7.40	-47.1	-48.7	22.4	6.01e-01	0	35	0	497025024	64	4702
2026-01-18 04:25:02.03	257.33	7.32	-47.1	-48.7	22.4	6.03e-01	0	35	0	499122176	64	4696
2026-01-18 04:25:03.04	257.25	7.24	-47.0	-48.7	22.5	6.01e-01	0	35	0	500695040	64	4676
2026-01-18 04:25:04.05	257.18	7.17	-47.1	-48.8	22.4	6.02e-01	0	35	0	502792192	64	4714
2026-01-18 04:25:05.06	257.10	7.09	-47.1	-48.7	22.4	6.02e-01	0	35	0	504365056	64	4695
2026-01-18 04:25:06.07	257.02	7.02	-47.1	-48.8	22.3	6.02e-01	0	35	0	506462208	64	4738
2026-01-18 04:25:07.08	256.95	6.94	-47.2	-48.9	22.3	6.02e-01	0	35	0	508559360	64	4764
2026-01-18 04:25:08.08	256.87	6.87	-47.1	-48.8	22.3	6.01e-01	0	35	0	510132224	64	4717
2026-01-18 04:25:09.09	256.80	6.79	-47.2	-48.9	22.2	6.02e-01	0	36	0	512229376	65	4522
2026-01-18 04:25:10.10	256.73	6.72	-47.2	-48.9	22.2	6.00e-01	0	35	0	514326528	65	4522
2026-01-18 04:25:11.11	256.65	6.64	-47.2	-48.9	22.2	6.02e-01	0	35	0	515899392	65	4536
2026-01-18 04:25:12.12	256.58	6.57	-47.1	-48.8	22.3	6.01e-01	0	35	0	517996544	65	4489
2026-01-18 04:25:13.13	256.51	6.49	-47.1	-48.8	22.3	6.03e-01	0	35	0	519569408	65	4481
2026-01-18 04:25:14.13	256.43	6.42	-47.1	-48.8	22.3	6.03e-01	0	35	0	521666560	65	4479
2026-01-18 04:25:15.14	256.36	6.35	-47.3	-49.1	22.0	6.03e-01	0	35	0	523239424	65	4616
2026-01-18 04:25:16.15	256.29	6.27	-47.3	-49.0	22.1	6.03e-01	0	35	0	525336576	65	4576
2026-01-18 04:25:17.15	256.22	6.20	-47.4	-49.1	21.9	6.04e-01	0	35	0	527433728	65	4646
2026-01-18 04:25:18.16	256.15	6.13	-47.3	-49.0	22.1	6.03e-01	0	35	0	529006592	65	4567
2026-01-18 04:25:19.17	256.08	6.06	-47.3	-49.1	21.9	5.99e-01	0	35	0	531103744	65	4613
2026-01-18 04:25:20.18	256.01	5.98	-47.4	-49.1	21.9	6.01e-01	0	35	0	533200896	65	4645
2026-01-18 04:25:21.19	255.94	5.91	-47.3	-49.0	22.0	6.01e-01	0	35	0	534773760	65	4589
2026-01-18 04:25:22.19	255.87	5.84	-47.3	-49.0	21.9	6.01e-01	0	35	0	536870912	65	4596
2026-01-18 04:25:23.20	255.80	5.77	-47.4	-49.2	21.8	6.02e-01	0	35	0	538443776	65	4688
2026-01-18 04:25:24.21	255.73	5.69	-47.3	-49.1	21.8	6.02e-01	0	35	0	540540928	65	4633
2026-01-18 04:25:25.21	255.66	5.62	-47.5	-49.3	21.6	6.00e-01	0	35	0	542638080	65	4739
2026-01-18 04:25:26.22	255.60	5.55	-47.4	-49.1	21.8	6.04e-01	0	35	0	544210944	65	4642
2026-01-18 04:25:27.23	255.53	5.48	-47.5	-49.3	21.6	6.02e-01	0	35	0	546308096	65	4738
2026-01-18 04:25:28.24	255.46	5.41	-47.5	-49.4	21.5	6.03e-01	0	35	0	547880960	66	4500
2026-01-18 04:25:29.25	255.39	5.34	-47.7	-49.6	21.4	6.02e-01	0	35	0	549978112	66	4602
2026-01-18 04:25:30.25	255.33	5.27	-47.5	-49.3	21.6	6.01e-01	0	35	0	551550976	66	4483
2026-01-18 04:25:31.26	255.26	5.20	-47.6	-49.4	21.5	6.01e-01	0	35	0	553648128	66	4519
2026-01-18 04:25:32.26	255.20	5.13	-47.5	-49.4	21.5	6.01e-01	0	36	0	555745280	66	4503
2026-01-18 04:25:33.27	255.13	5.06	-47.6	-49.5	21.4	6.01e-01	0	35	0	557842432	66	4572
2026-01-18 04:25:34.28	255.07	4.98	-47.8	-49.8	21.1	6.00e-01	0	35	0	559415296	66	4710
2026-01-18 04:25:35.29	255.00	4.91	-54.3	-71.6	3.8	7.43e-01	0	35	104	560463872	79	27416
2026-01-18 04:25:36.30	254.94	4.84	-54.6	-72.3	3.8	7.43e-01	0	35	104	560463872	79	29820
2026-01-18 04:25:37.31	254.88	4.78	-54.8	-72.6	3.8	7.43e-01	0	35	104	560463872	80	29093
2026-01-18 04:25:38.31	254.81	4.71	-54.9	-72.7	3.8	7.46e-01	0	35	104	560463872	80	29595
2026-01-18 04:25:39.32	254.75	4.64	-55.0	-72.8	3.8	7.44e-01	0	35	104	560463872	80	29869
2026-01-18 04:25:40.33	254.69	4.57	-55.1	-72.9	3.8	7.45e-01	0	35	104	560463872	80	30218
2026-01-18 04:25:41.34	254.62	4.50	-55.2	-73.0	3.8	7.44e-01	0	35	104	560463872	80	30486
2026-01-18 04:25:42.34	254.56	4.43	-55.2	-73.1	3.8	7.44e-01	0	35	104	560463872	81	29099
2026-01-18 04:25:43.35	254.50	4.36	-55.3	-73.1	3.8	7.45e-01	0	35	104	560463872	81	29191
2026-01-18 04:25:44.36	254.44	4.29	-55.3	-73.2	3.8	7.45e-01	0	35	104	560463872	81	29452
2026-01-18 04:25:45.37	254.38	4.22	-55.4	-73.2	3.8	7.45e-01	0	35	104	560463872	81	29541
2026-01-18 04:25:46.37	254.32	4.16	-55.4	-73.2	3.8	7.46e-01	0	35	104	560463872	81	29658
2026-01-18 04:25:47.38	254.26	4.09	-55.4	-73.3	3.8	7.47e-01	0	35	104	560463872	81	29779
2026-01-18 04:25:48.39	254.20	4.02	-55.5	-73.3	3.8	7.47e-01	0	35	104	560463872	81	29761
2026-01-18 04:25:49.40	254.14	3.95	-55.5	-73.3	3.8	7.45e-01	0	35	104	560463872	81	29890
2026-01-18 04:25:50.40	254.08	3.89	-55.5	-73.3	3.8	7.44e-01	0	35	104	560463872	81	29919
2026-01-18 04:25:51.41	254.02	3.82	-55.5	-73.3	3.8	7.47e-01	0	35	104	560463872	81	29941
2026-01-18 04:25:52.42	253.96	3.75	-55.5	-73.3	3.8	7.48e-01	0	35	104	560463872	81	29890
2026-01-18 04:25:53.43	253.90	3.68	-55.5	-73.3	3.8	7.45e-01	0	35	104	560463872	81	29985
2026-01-18 04:25:54.44	253.84	3.62	-55.5	-73.3	3.8	7.46e-01	0	36	104	560463872	81	29890
2026-01-18 04:25:55.45	253.79	3.55	-55.5	-73.3	3.8	7.46e-01	0	35	104	560463872	81	29955
2026-01-18 04:25:56.45	253.73	3.48	-55.5	-73.3	3.8	7.44e-01	0	35	104	560463872	81	29967
2026-01-18 04:25:57.46	253.67	3.42	-55.5	-73.3	3.8	7.46e-01	0	35	104	560463872	81	29865
2026-01-18 04:25:58.47	253.61	3.35	-55.5	-73.3	3.8	7.45e-01	0	35	104	560463872	81	29872
2026-01-18 04:25:59.48	253.56	3.28	-55.4	-73.3	3.8	7.47e-01	0	35	104	560463872	81	29774
2026-01-18 04:26:00.49	253.50	3.22	-55.4	-73.3	3.8	7.44e-01	0	36	104	560463872	81	29738
2026-01-18 04:26:01.49	253.45	3.15	-55.4	-73.2	3.8	7.43e-01	0	35	104	560463872	81	29664
2026-01-18 04:26:02.50	253.39	3.09	-55.4	-73.2	3.8	7.43e-01	0	36	104	560463872	81	29687
2026-01-18 04:26:03.51	253.33	3.02	-55.4	-73.3	3.8	7.48e-01	0	35	104	560463872	81	29716
2026-01-18 04:26:04.52	253.28	2.96	-55.4	-73.2	3.8	7.44e-01	0	35	104	560463872	81	29604
2026-01-18 04:26:05.52	253.22	2.89	-55.4	-73.2	3.8	7.44e-01	0	36	104	560463872	81	29615
2026-01-18 04:26:06.53	253.17	2.83	-55.4	-73.2	3.8	7.43e-01	0	35	104	560463872	81	29591
2026-01-18 04:26:07.54	253.12	2.76	-55.4	-73.2	3.8	7.48e-01	0	36	104	560463872	81	29555
2026-01-18 04:26:08.55	253.06	2.70	-55.4	-73.2	3.8	7.46e-01	0	35	104	560463872	81	29539
2026-01-18 04:26:09.56	253.01	2.63	-55.4	-73.2	3.8	7.47e-01	0	36	104	560463872	81	29541
2026-01-18 04:26:10.57	252.95	2.57	-55.4	-73.2	3.8	7.45e-01	0	36	104	560463872	81	29477
2026-01-18 04:26:11.57	252.90	2.50	-55.4	-73.2	3.8	7.47e-01	0	35	104	560463872	81	29544
2026-01-18 04:26:12.58	252.85	2.44	-55.4	-73.2	3.8	7.43e-01	0	35	104	560463872	81	29468
2026-01-18 04:26:13.59	252.79	2.37	-55.4	-73.2	3.8	7.45e-01	0	36	104	560463872	81	29432
2026-01-18 04:26:14.60	252.74	2.31	-55.4	-73.2	3.8	7.44e-01	0	35	104	560463872	81	29436
2026-01-18 04:26:15.61	252.69	2.25	-55.4	-73.2	3.8	7.47e-01	0	35	104	560463872	81	29453
2026-01-18 04:26:16.61	252.64	2.18	-55.3	-73.2	3.8	7.46e-01	0	35	104	560463872	81	29412
2026-01-18 04:26:17.62	252.59	2.12	-55.3	-73.2	3.8	7.48e-01	0	36	104	560463872	81	29368
2026-01-18 04:26:18.63	252.54	2.06	-55.4	-73.2	3.8	7.45e-01	0	36	104	560463872	81	29414
