passes_logs/2026/01/18/R3.2S_Murmansk/R3.2S_Murmansk__20260118_130746_NOAA_21_JPSS-2_rec.log

#Pass ID: 20260118_130746_NOAA 21 (JPSS-2)
#Satellite: NOAA 21 (JPSS-2)
#Configuration: NOAA-21
#almurnet v.1.7.20251203
#Start time: 2026-01-18 13:07:48

#Version: 2.2.20231116
#Station: R3.2S_Murmansk
#Location: 33.079688 lon 68.888172 lat
#TLE: 1 54234U 22150A   26017.62066529  .00000042  00000+0  40984-4 0  9994
#TLE: 2 54234  98.7502 318.4887 0000613 271.5460  88.5645 14.19535234165189

#Time	Az	El	Level	Level2	SNR	BER	BlckErr	Temp	State	Recorded	gain1	gain2
2026-01-18 13:07:48.35	246.69	2.08	-52.2	-65.0	3.8	1.49e+00	0	35	0	0	76	15340
2026-01-18 13:07:49.35	246.79	2.12	-52.2	-65.0	3.8	1.49e+00	0	35	104	0	75	16244
2026-01-18 13:07:50.35	246.89	2.16	-52.2	-65.0	3.8	1.49e+00	0	35	104	0	75	16233
2026-01-18 13:07:51.36	247.00	2.21	-52.2	-65.0	3.8	1.49e+00	0	35	104	0	75	16256
2026-01-18 13:07:52.37	247.10	2.25	-52.2	-65.0	3.8	1.49e+00	0	35	104	0	75	16235
2026-01-18 13:07:53.38	247.21	2.29	-52.2	-65.0	3.8	1.49e+00	0	35	104	0	75	16168
2026-01-18 13:07:54.38	247.31	2.34	-52.2	-65.0	3.8	1.49e+00	0	35	104	0	75	16175
2026-01-18 13:07:55.39	247.42	2.38	-52.2	-65.0	3.8	1.49e+00	0	35	104	0	75	16177
2026-01-18 13:07:56.40	247.52	2.42	-52.2	-65.0	3.8	1.49e+00	0	35	104	0	75	16136
2026-01-18 13:07:57.40	247.63	2.47	-52.2	-64.9	3.8	1.49e+00	0	35	104	0	75	16120
2026-01-18 13:07:58.41	247.73	2.51	-52.2	-64.9	3.8	1.49e+00	0	35	104	0	75	16044
2026-01-18 13:07:59.42	247.84	2.55	-52.2	-64.9	3.8	1.49e+00	0	35	104	0	75	16044
2026-01-18 13:08:00.43	247.94	2.60	-52.2	-64.9	3.8	1.49e+00	0	35	104	0	75	16055
2026-01-18 13:08:01.44	248.05	2.64	-52.2	-64.9	3.8	1.49e+00	0	35	104	0	75	16025
2026-01-18 13:08:02.45	248.16	2.68	-52.2	-64.9	3.8	1.49e+00	0	35	104	0	75	16092
2026-01-18 13:08:03.45	248.26	2.73	-52.2	-65.0	3.8	1.49e+00	0	35	104	0	75	16145
2026-01-18 13:08:04.46	248.37	2.77	-52.2	-65.0	3.8	1.49e+00	0	35	104	0	75	16185
2026-01-18 13:08:05.47	248.48	2.81	-52.2	-65.0	3.8	1.49e+00	0	35	104	0	75	16147
2026-01-18 13:08:06.48	248.59	2.86	-52.2	-65.0	3.8	1.49e+00	0	35	104	0	75	16200
2026-01-18 13:08:07.48	248.70	2.90	-52.2	-65.0	3.8	1.49e+00	0	35	104	0	75	16166
2026-01-18 13:08:08.49	248.80	2.94	-52.2	-65.0	3.8	1.49e+00	0	35	104	0	75	16136
2026-01-18 13:08:09.50	248.91	2.98	-52.2	-65.0	3.8	1.49e+00	0	35	104	0	75	16176
2026-01-18 13:08:10.51	249.02	3.03	-52.2	-65.0	3.8	1.49e+00	0	35	104	0	75	16162
2026-01-18 13:08:11.52	249.13	3.07	-52.2	-64.9	3.8	1.49e+00	0	35	104	0	75	16082
2026-01-18 13:08:12.53	249.24	3.11	-52.2	-64.9	3.8	1.49e+00	0	35	104	0	75	16017
2026-01-18 13:08:13.54	249.35	3.16	-52.2	-64.9	3.8	1.49e+00	0	35	104	0	75	16042
2026-01-18 13:08:14.54	249.46	3.20	-52.2	-64.9	3.8	1.49e+00	0	35	104	0	75	16025
2026-01-18 13:08:15.55	249.57	3.24	-52.2	-64.9	3.8	1.49e+00	0	35	104	0	75	16037
2026-01-18 13:08:16.56	249.69	3.29	-52.2	-64.8	3.8	1.49e+00	0	35	104	0	75	15901
2026-01-18 13:08:17.57	249.80	3.33	-52.2	-64.8	3.8	1.49e+00	0	35	104	0	75	15941
2026-01-18 13:08:18.58	249.91	3.37	-52.2	-64.9	3.8	1.49e+00	0	35	104	0	75	16030
2026-01-18 13:08:19.59	250.02	3.41	-52.2	-64.9	3.8	1.49e+00	0	35	104	0	75	16010
2026-01-18 13:08:20.59	250.13	3.46	-52.2	-64.8	3.8	1.49e+00	0	35	104	0	75	15905
2026-01-18 13:08:21.60	250.25	3.50	-52.2	-64.9	3.8	1.49e+00	0	35	104	0	75	16114
2026-01-18 13:08:22.61	250.36	3.54	-52.2	-65.0	3.8	1.49e+00	0	35	104	0	75	16131
2026-01-18 13:08:23.62	250.47	3.59	-52.2	-64.9	3.8	1.49e+00	0	35	104	0	75	16057
2026-01-18 13:08:24.63	250.59	3.63	-52.2	-64.9	3.8	1.49e+00	0	35	104	0	75	16097
2026-01-18 13:08:25.63	250.70	3.67	-52.2	-64.8	3.8	1.49e+00	0	35	104	0	75	15931
2026-01-18 13:08:26.64	250.81	3.71	-52.2	-64.9	3.8	1.49e+00	0	35	104	0	75	16043
2026-01-18 13:08:27.65	250.93	3.76	-52.2	-64.8	3.8	1.49e+00	0	35	104	0	75	15927
2026-01-18 13:08:28.66	251.04	3.80	-52.2	-64.9	3.8	1.49e+00	0	35	104	0	75	16076
2026-01-18 13:08:29.66	251.16	3.84	-52.2	-64.9	3.8	1.49e+00	0	35	104	0	75	16068
2026-01-18 13:08:30.67	251.27	3.89	-52.2	-64.9	3.8	1.49e+00	0	36	104	0	75	16101
2026-01-18 13:08:31.68	251.39	3.93	-52.2	-65.0	3.8	1.49e+00	0	35	104	0	75	16185
2026-01-18 13:08:32.69	251.51	3.97	-52.2	-64.9	3.8	1.49e+00	0	36	104	0	75	16125
2026-01-18 13:08:33.70	251.62	4.01	-52.2	-64.9	3.8	1.49e+00	0	36	104	0	75	16081
2026-01-18 13:08:34.71	251.74	4.06	-52.2	-64.9	3.8	1.49e+00	0	35	104	0	75	15968
2026-01-18 13:08:35.71	251.86	4.10	-52.2	-64.8	3.8	1.49e+00	0	36	104	0	75	15820
2026-01-18 13:08:36.72	251.97	4.14	-52.2	-64.7	3.8	1.49e+00	0	35	104	0	75	15620
2026-01-18 13:08:37.73	252.09	4.18	-52.2	-64.7	3.8	1.49e+00	0	35	104	0	75	15734
2026-01-18 13:08:38.74	252.21	4.23	-52.2	-64.8	3.8	1.49e+00	0	36	104	0	75	15789
2026-01-18 13:08:39.75	252.33	4.27	-52.2	-64.7	3.8	1.49e+00	0	35	104	0	75	15653
2026-01-18 13:08:40.75	252.45	4.31	-52.2	-64.6	3.8	1.49e+00	0	35	104	0	75	15567
2026-01-18 13:08:41.76	252.57	4.35	-52.2	-64.6	3.8	1.49e+00	0	35	104	0	75	15424
2026-01-18 13:08:42.77	252.69	4.40	-52.2	-64.6	3.8	1.49e+00	0	36	104	0	75	15420
2026-01-18 13:08:43.78	252.81	4.44	-52.2	-64.9	3.8	1.49e+00	0	36	104	0	75	16023
2026-01-18 13:08:44.79	252.93	4.48	-52.2	-64.9	3.8	1.49e+00	0	35	104	0	75	16124
2026-01-18 13:08:45.79	253.05	4.52	-52.2	-64.4	3.8	1.49e+00	0	35	104	0	75	15070
2026-01-18 13:08:46.80	253.17	4.56	-52.0	-63.2	3.8	1.49e+00	0	35	104	0	75	13139
2026-01-18 13:08:47.81	253.29	4.61	-51.9	-61.8	3.9	1.45e+00	0	35	104	0	75	11164
2026-01-18 13:08:48.82	253.41	4.65	-51.7	-59.8	4.8	8.74e-01	0	36	104	0	75	8894
2026-01-18 13:08:49.83	253.53	4.69	-51.5	-58.8	5.4	6.60e-01	0	35	0	1048576	75	7909
2026-01-18 13:08:50.83	253.65	4.73	-51.2	-57.5	6.4	3.17e-01	0	36	0	3145728	74	7208
2026-01-18 13:08:51.84	253.78	4.77	-50.9	-56.4	7.3	1.86e-01	0	35	0	6291456	73	6738
2026-01-18 13:08:52.85	253.90	4.82	-50.0	-54.1	9.6	2.25e-02	0	36	0	10485760	72	5489
2026-01-18 13:08:53.86	254.02	4.86	-49.2	-52.3	11.6	1.96e-03	0	36	0	13631488	70	4986
2026-01-18 13:08:54.87	254.15	4.90	-47.8	-50.1	13.7	3.58e-05	0	35	0	16777216	67	4624
2026-01-18 13:08:55.87	254.27	4.94	-46.7	-48.5	15.3	0.00e+00	0	35	0	19922944	65	4329
2026-01-18 13:08:56.88	254.39	4.98	-46.3	-48.0	15.8	0.00e+00	0	36	0	23068672	64	4332
2026-01-18 13:08:57.89	254.52	5.03	-46.1	-47.7	16.3	0.00e+00	0	36	0	26214400	63	4394
2026-01-18 13:08:58.90	254.64	5.07	-46.4	-48.1	15.9	0.00e+00	0	35	0	29360128	63	4607
2026-01-18 13:08:59.91	254.77	5.11	-48.1	-50.5	13.4	1.50e-06	0	36	0	32505856	66	5116
2026-01-18 13:09:00.89	254.89	5.15	-47.4	-49.6	14.4	0.00e+00	0	35	0	35651584	65	4879
2026-01-18 13:09:01.90	255.02	5.19	-49.2	-52.4	11.4	1.72e-04	0	36	0	38797312	68	5722
2026-01-18 13:09:02.91	255.14	5.23	-49.2	-52.3	11.9	0.00e+00	0	36	0	41943040	68	5616
2026-01-18 13:09:03.92	255.27	5.27	-46.0	-47.6	16.4	7.00e-07	0	36	0	45088768	63	4348
2026-01-18 13:09:04.92	255.39	5.31	-46.0	-47.5	16.4	0.00e+00	0	35	0	48234496	63	4339
2026-01-18 13:09:05.93	255.52	5.36	-45.8	-47.3	16.6	0.00e+00	0	36	0	51380224	63	4235
2026-01-18 13:09:06.94	255.65	5.40	-46.1	-47.7	16.2	0.00e+00	0	36	0	53477376	63	4439
2026-01-18 13:09:07.95	255.78	5.44	-46.2	-47.8	16.2	0.00e+00	0	36	0	57671680	63	4464
2026-01-18 13:09:08.96	255.91	5.48	-45.9	-47.5	16.5	0.00e+00	0	36	0	60817408	63	4307
2026-01-18 13:09:09.97	256.04	5.52	-45.9	-47.5	16.5	0.00e+00	0	35	0	63963136	63	4296
2026-01-18 13:09:10.97	256.16	5.56	-45.8	-47.3	16.7	0.00e+00	0	36	0	67108864	63	4199
2026-01-18 13:09:11.98	256.29	5.60	-45.6	-47.1	16.9	0.00e+00	0	35	0	70254592	63	4101
2026-01-18 13:09:12.99	256.42	5.64	-45.6	-47.0	17.0	0.00e+00	0	36	0	73400320	63	4084
2026-01-18 13:09:14.00	256.55	5.68	-45.7	-47.1	16.9	0.00e+00	0	35	0	76546048	63	4125
2026-01-18 13:09:15.01	256.68	5.73	-45.8	-47.3	16.7	0.00e+00	0	36	0	79691776	63	4218
2026-01-18 13:09:16.02	256.81	5.77	-45.9	-47.4	16.6	0.00e+00	0	36	0	82837504	63	4274
2026-01-18 13:09:17.02	256.94	5.81	-45.7	-47.1	16.9	0.00e+00	0	36	0	85983232	63	4139
2026-01-18 13:09:18.03	257.08	5.85	-45.4	-46.8	17.2	0.00e+00	0	36	0	89128960	62	4218
2026-01-18 13:09:19.04	257.21	5.89	-45.8	-47.2	16.8	0.00e+00	0	36	0	92274688	62	4429
2026-01-18 13:09:20.05	257.34	5.93	-45.9	-47.4	16.7	0.00e+00	0	36	0	95420416	62	4508
2026-01-18 13:09:21.06	257.47	5.97	-45.8	-47.3	16.7	0.00e+00	0	36	0	98566144	62	4470
2026-01-18 13:09:22.06	257.60	6.01	-45.7	-47.2	16.9	0.00e+00	0	36	0	101711872	62	4406
2026-01-18 13:09:23.07	257.74	6.05	-45.6	-47.0	17.0	0.00e+00	0	36	0	104857600	62	4328
2026-01-18 13:09:24.08	257.87	6.09	-45.5	-46.9	17.1	0.00e+00	0	35	0	108003328	62	4288
2026-01-18 13:09:25.08	258.00	6.13	-45.6	-47.0	17.0	0.00e+00	0	35	0	111149056	62	4326
2026-01-18 13:09:26.09	258.14	6.17	-45.6	-47.1	17.0	0.00e+00	0	36	0	114294784	62	4362
2026-01-18 13:09:27.10	258.27	6.21	-45.5	-46.9	17.2	0.00e+00	0	36	0	117440512	62	4268
2026-01-18 13:09:28.11	258.41	6.25	-45.6	-47.0	17.1	0.00e+00	0	36	0	120586240	62	4305
2026-01-18 13:09:29.12	258.54	6.29	-45.3	-46.7	17.4	0.00e+00	0	36	0	123731968	62	4149
2026-01-18 13:09:30.13	258.68	6.33	-45.4	-46.7	17.3	0.00e+00	0	35	0	126877696	62	4183
2026-01-18 13:09:31.13	258.81	6.37	-45.4	-46.8	17.3	0.00e+00	0	36	0	130023424	62	4205
2026-01-18 13:09:32.14	258.95	6.41	-45.6	-47.0	17.1	0.00e+00	0	36	0	133169152	62	4319
2026-01-18 13:09:33.15	259.09	6.45	-45.4	-46.8	17.3	0.00e+00	0	36	0	136314880	62	4210
2026-01-18 13:09:34.15	259.22	6.49	-45.4	-46.8	17.3	0.00e+00	0	35	0	139460608	62	4215
2026-01-18 13:09:35.16	259.36	6.53	-45.6	-47.0	17.1	0.00e+00	0	36	0	142606336	62	4328
2026-01-18 13:09:36.16	259.50	6.57	-45.4	-46.8	17.3	0.00e+00	0	35	0	145752064	62	4212
2026-01-18 13:09:37.17	259.64	6.61	-45.6	-47.1	17.0	0.00e+00	0	36	0	148897792	62	4349
2026-01-18 13:09:38.18	259.78	6.65	-45.6	-47.0	17.1	0.00e+00	0	36	0	152043520	62	4326
2026-01-18 13:09:39.19	259.91	6.69	-45.8	-47.2	16.9	0.00e+00	0	36	0	155189248	62	4427
2026-01-18 13:09:40.20	260.05	6.72	-45.5	-46.9	17.2	0.00e+00	0	36	0	158334976	62	4283
2026-01-18 13:09:41.21	260.19	6.76	-45.5	-46.9	17.2	0.00e+00	0	36	0	161480704	62	4254
2026-01-18 13:09:42.22	260.33	6.80	-45.2	-46.6	17.5	0.00e+00	0	36	0	164626432	62	4107
2026-01-18 13:09:43.22	260.47	6.84	-45.3	-46.6	17.5	0.00e+00	0	36	0	167772160	62	4125
2026-01-18 13:09:44.23	260.61	6.88	-45.3	-46.6	17.5	0.00e+00	0	36	0	170917888	62	4125
2026-01-18 13:09:45.24	260.75	6.92	-45.1	-46.4	17.7	0.00e+00	0	36	0	174063616	62	4030
2026-01-18 13:09:46.24	260.90	6.96	-45.0	-46.2	17.9	0.00e+00	0	35	0	177209344	61	4192
2026-01-18 13:09:47.25	261.04	7.00	-45.3	-46.6	17.5	0.00e+00	0	36	0	180355072	61	4368
2026-01-18 13:09:48.26	261.18	7.03	-45.3	-46.6	17.5	0.00e+00	0	36	0	183500800	61	4389
2026-01-18 13:09:49.27	261.32	7.07	-45.3	-46.6	17.5	0.00e+00	0	36	0	186646528	61	4385
2026-01-18 13:09:50.28	261.46	7.11	-45.3	-46.6	17.5	0.00e+00	0	36	0	189792256	61	4373
2026-01-18 13:09:51.29	261.61	7.15	-45.3	-46.6	17.5	0.00e+00	0	36	0	192937984	61	4389
2026-01-18 13:09:52.30	261.75	7.19	-45.4	-46.8	17.4	0.00e+00	0	36	0	196083712	61	4456
2026-01-18 13:09:53.30	261.89	7.22	-45.3	-46.6	17.5	0.00e+00	0	36	0	199229440	61	4386
2026-01-18 13:09:54.31	262.04	7.26	-45.4	-46.8	17.4	0.00e+00	0	36	0	202375168	61	4445
2026-01-18 13:09:55.32	262.18	7.30	-45.3	-46.6	17.6	0.00e+00	0	36	0	205520896	61	4365
2026-01-18 13:09:56.33	262.33	7.34	-45.2	-46.6	17.6	0.00e+00	0	36	0	208666624	61	4352
2026-01-18 13:09:57.34	262.47	7.38	-45.4	-46.7	17.5	0.00e+00	0	36	0	211812352	61	4434
2026-01-18 13:09:58.34	262.62	7.41	-45.4	-46.7	17.5	0.00e+00	0	36	0	214958080	61	4431
2026-01-18 13:09:59.35	262.77	7.45	-45.2	-46.5	17.7	0.00e+00	0	36	0	218103808	61	4335
2026-01-18 13:10:00.36	262.91	7.49	-45.3	-46.6	17.6	0.00e+00	0	36	0	221249536	61	4369
2026-01-18 13:10:01.37	263.06	7.52	-45.2	-46.5	17.7	0.00e+00	0	36	0	224395264	61	4324
2026-01-18 13:10:02.37	263.20	7.56	-45.1	-46.4	17.8	0.00e+00	0	35	0	227540992	61	4271
2026-01-18 13:10:03.38	263.35	7.60	-45.0	-46.3	17.9	0.00e+00	0	36	0	230686720	61	4230
2026-01-18 13:10:04.39	263.50	7.63	-45.2	-46.5	17.8	0.00e+00	0	35	0	233832448	61	4308
2026-01-18 13:10:05.40	263.65	7.67	-45.2	-46.5	17.8	0.00e+00	0	36	0	236978176	61	4298
2026-01-18 13:10:06.40	263.80	7.71	-45.1	-46.3	17.9	0.00e+00	0	36	0	240123904	61	4242
2026-01-18 13:10:07.41	263.95	7.74	-45.1	-46.4	17.9	0.00e+00	0	36	0	243269632	61	4243
2026-01-18 13:10:08.42	264.09	7.78	-45.0	-46.2	18.0	0.00e+00	0	36	0	246415360	61	4179
2026-01-18 13:10:09.43	264.24	7.82	-44.9	-46.2	18.1	0.00e+00	0	36	0	249561088	61	4149
2026-01-18 13:10:10.44	264.39	7.85	-45.0	-46.2	18.0	0.00e+00	0	35	0	252706816	61	4190
2026-01-18 13:10:11.45	264.55	7.89	-45.0	-46.2	18.0	0.00e+00	0	36	0	255852544	61	4188
2026-01-18 13:10:12.45	264.69	7.92	-44.9	-46.2	18.1	0.00e+00	0	35	0	258998272	61	4155
2026-01-18 13:10:13.46	264.85	7.96	-45.0	-46.2	18.0	0.00e+00	0	36	0	262144000	61	4190
2026-01-18 13:10:14.47	265.00	8.00	-45.0	-46.2	18.0	0.00e+00	0	36	0	265289728	61	4192
2026-01-18 13:10:15.48	265.15	8.03	-45.0	-46.2	18.0	0.00e+00	0	36	0	268435456	61	4186
2026-01-18 13:10:16.48	265.30	8.07	-44.9	-46.2	18.1	0.00e+00	0	36	0	271581184	61	4167
2026-01-18 13:10:17.49	265.45	8.10	-45.0	-46.2	18.0	0.00e+00	0	36	0	274726912	61	4192
2026-01-18 13:10:18.50	265.61	8.14	-45.1	-46.4	17.9	0.00e+00	0	36	0	277872640	61	4250
2026-01-18 13:10:19.51	265.76	8.17	-45.2	-46.5	17.8	0.00e+00	0	36	0	281018368	61	4302
2026-01-18 13:10:20.51	265.91	8.21	-45.0	-46.3	17.9	0.00e+00	0	36	0	284164096	61	4212
2026-01-18 13:10:21.53	266.07	8.24	-44.7	-45.9	18.3	0.00e+00	0	36	0	287309824	61	4035
2026-01-18 13:10:22.53	266.22	8.28	-44.7	-45.9	18.2	0.00e+00	0	36	0	290455552	61	4043
2026-01-18 13:10:23.54	266.38	8.31	-44.7	-45.9	18.2	0.00e+00	0	35	0	293601280	61	4047
2026-01-18 13:10:24.55	266.53	8.35	-44.7	-46.0	18.1	0.00e+00	0	36	0	296747008	61	4060
2026-01-18 13:10:25.56	266.69	8.38	-44.8	-46.1	17.9	0.00e+00	0	36	0	299892736	61	4129
2026-01-18 13:10:26.57	266.84	8.41	-45.0	-46.3	17.6	0.00e+00	0	36	0	303038464	61	4213
2026-01-18 13:10:27.57	267.00	8.45	-45.3	-46.7	17.1	0.00e+00	0	36	0	306184192	61	4440
2026-01-18 13:10:28.58	267.15	8.48	-45.9	-47.5	16.3	0.00e+00	0	36	0	309329920	62	4582
2026-01-18 13:10:29.59	267.31	8.52	-46.4	-48.2	15.5	0.00e+00	0	36	0	312475648	63	4696
2026-01-18 13:10:30.60	267.47	8.55	-46.8	-48.8	14.6	7.00e-07	0	36	0	315621376	64	4757
2026-01-18 13:10:31.60	267.62	8.58	-47.3	-49.6	13.7	5.30e-06	0	36	0	318767104	65	4908
2026-01-18 13:10:32.61	267.78	8.62	-47.5	-50.0	13.3	1.29e-05	0	36	0	321912832	65	5102
2026-01-18 13:10:33.62	267.94	8.65	-47.6	-50.2	12.8	3.66e-05	0	36	0	325058560	65	5272
2026-01-18 13:10:34.63	268.10	8.68	-47.9	-50.7	12.3	1.12e-04	0	36	0	328204288	66	5228
2026-01-18 13:10:35.64	268.26	8.72	-48.3	-51.5	11.4	5.34e-04	0	36	0	331350016	67	5456
2026-01-18 13:10:36.64	268.41	8.75	-48.9	-52.9	9.9	5.58e-03	0	36	0	334495744	68	5997
2026-01-18 13:10:37.65	268.57	8.78	-49.6	-54.5	8.2	3.44e-02	0	36	0	337641472	69	6868
2026-01-18 13:10:38.66	268.73	8.81	-49.9	-55.5	7.2	1.23e-01	0	36	0	340787200	70	7281
2026-01-18 13:10:39.67	268.89	8.85	-50.0	-55.8	6.9	1.67e-01	0	36	0	343932928	70	7514
2026-01-18 13:10:40.67	269.05	8.88	-49.8	-55.2	7.5	1.16e-01	0	36	0	347078656	70	6971
2026-01-18 13:10:41.68	269.21	8.91	-49.7	-54.5	8.2	6.67e-02	0	36	0	350224384	70	6481
2026-01-18 13:10:42.69	269.38	8.94	-49.4	-53.7	9.2	2.60e-02	0	36	0	353370112	70	5894
2026-01-18 13:10:43.70	269.54	8.97	-49.2	-52.9	10.2	7.69e-03	0	36	0	356515840	70	5369
2026-01-18 13:10:44.70	269.70	9.00	-49.0	-52.3	11.0	2.33e-03	0	36	0	359661568	69	5331
2026-01-18 13:10:45.71	269.86	9.04	-48.8	-51.8	11.7	6.13e-04	0	36	0	362807296	69	5023
2026-01-18 13:10:46.72	270.02	9.07	-48.8	-51.7	12.0	3.50e-04	0	36	0	365953024	69	4959
2026-01-18 13:10:47.73	270.19	9.10	-48.7	-51.5	12.4	1.43e-04	0	36	0	369098752	69	4846
2026-01-18 13:10:48.74	270.35	9.13	-48.9	-51.7	12.4	1.05e-04	0	36	0	372244480	69	4943
2026-01-18 13:10:49.74	270.51	9.16	-48.6	-51.1	13.2	2.74e-05	0	36	0	375390208	69	4600
2026-01-18 13:10:50.75	270.68	9.19	-48.3	-50.6	13.8	2.20e-06	0	36	0	378535936	68	4612
2026-01-18 13:10:51.76	270.84	9.22	-47.8	-49.9	14.4	1.50e-06	0	36	0	381681664	67	4502
2026-01-18 13:10:52.77	271.00	9.25	-46.8	-48.5	15.7	0.00e+00	0	36	0	384827392	65	4326
2026-01-18 13:10:53.78	271.17	9.28	-45.8	-47.3	17.1	0.00e+00	0	36	0	387973120	63	4195
2026-01-18 13:10:54.79	271.34	9.31	-45.2	-46.5	17.9	0.00e+00	0	36	0	391118848	62	4054
2026-01-18 13:10:55.79	271.50	9.34	-44.8	-46.0	18.3	0.00e+00	0	36	0	394264576	61	4057
2026-01-18 13:10:56.80	271.67	9.37	-44.6	-45.8	18.5	0.00e+00	0	36	0	397410304	61	3976
2026-01-18 13:10:57.81	271.83	9.40	-44.8	-46.0	18.3	0.00e+00	0	36	0	400556032	61	4080
2026-01-18 13:10:58.82	272.00	9.43	-44.9	-46.1	18.3	0.00e+00	0	36	0	403701760	61	4109
2026-01-18 13:10:59.83	272.16	9.46	-44.8	-46.0	18.3	0.00e+00	0	36	0	406847488	61	4076
2026-01-18 13:11:00.82	272.33	9.49	-44.7	-45.9	18.4	0.00e+00	0	36	0	409993216	61	4037
2026-01-18 13:11:01.83	272.50	9.51	-44.8	-46.0	18.3	0.00e+00	0	36	0	413138944	61	4083
2026-01-18 13:11:02.84	272.66	9.54	-44.8	-46.1	18.3	0.00e+00	0	36	0	416284672	61	4101
2026-01-18 13:11:03.85	272.83	9.57	-44.9	-46.2	18.2	0.00e+00	0	36	0	419430400	61	4154
2026-01-18 13:11:04.86	273.00	9.60	-45.0	-46.2	18.2	0.00e+00	0	36	0	422576128	61	4169
2026-01-18 13:11:05.86	273.17	9.63	-44.9	-46.1	18.2	0.00e+00	0	36	0	425721856	61	4139
2026-01-18 13:11:06.87	273.34	9.66	-44.8	-46.0	18.4	0.00e+00	0	36	0	428867584	61	4084
2026-01-18 13:11:07.88	273.51	9.68	-44.9	-46.1	18.3	0.00e+00	0	36	0	432013312	61	4122
2026-01-18 13:11:08.89	273.68	9.71	-44.9	-46.2	18.2	0.00e+00	0	36	0	435159040	61	4146
2026-01-18 13:11:09.90	273.85	9.74	-45.0	-46.2	18.1	0.00e+00	0	36	0	438304768	61	4184
2026-01-18 13:11:10.91	274.02	9.76	-44.8	-46.1	18.3	0.00e+00	0	36	0	441450496	61	4105
2026-01-18 13:11:11.92	274.19	9.79	-44.7	-45.9	18.4	0.00e+00	0	36	0	444596224	61	4038
2026-01-18 13:11:12.92	274.36	9.82	-44.8	-46.0	18.4	0.00e+00	0	36	0	447741952	61	4054
2026-01-18 13:11:13.93	274.53	9.84	-44.7	-45.9	18.5	0.00e+00	0	36	0	450887680	61	4005
2026-01-18 13:11:14.94	274.70	9.87	-44.7	-45.9	18.5	0.00e+00	0	36	0	454033408	61	4032
2026-01-18 13:11:15.95	274.87	9.90	-44.8	-46.0	18.4	0.00e+00	0	36	0	457179136	61	4071
2026-01-18 13:11:16.96	275.04	9.92	-44.8	-46.0	18.4	0.00e+00	0	36	0	460324864	61	4067
2026-01-18 13:11:17.97	275.22	9.95	-44.7	-45.9	18.5	0.00e+00	0	36	0	463470592	61	4035
2026-01-18 13:11:18.97	275.39	9.97	-44.8	-46.0	18.4	0.00e+00	0	36	0	466616320	61	4065
2026-01-18 13:11:19.98	275.56	10.00	-44.8	-46.0	18.4	0.00e+00	0	36	0	469762048	61	4082
2026-01-18 13:11:20.99	275.73	10.02	-44.7	-45.9	18.5	0.00e+00	0	36	0	472907776	61	4019
2026-01-18 13:11:22.00	275.91	10.05	-44.6	-45.8	18.6	0.00e+00	0	36	0	476053504	61	3985
2026-01-18 13:11:23.00	276.08	10.07	-44.7	-45.9	18.5	0.00e+00	0	36	0	479199232	61	4029
2026-01-18 13:11:24.01	276.25	10.10	-44.8	-46.0	18.4	0.00e+00	0	36	0	482344960	61	4076
2026-01-18 13:11:25.01	276.43	10.12	-44.7	-45.9	18.5	0.00e+00	0	36	0	485490688	61	4016
2026-01-18 13:11:26.02	276.60	10.15	-44.7	-45.9	18.5	0.00e+00	0	36	0	488636416	61	4033
2026-01-18 13:11:27.03	276.78	10.17	-44.7	-45.8	18.6	0.00e+00	0	36	0	491782144	61	3995
2026-01-18 13:11:28.04	276.95	10.19	-44.7	-45.9	18.5	0.00e+00	0	36	0	494927872	61	4014
2026-01-18 13:11:29.05	277.13	10.22	-44.8	-46.0	18.4	0.00e+00	0	36	0	498073600	61	4064
2026-01-18 13:11:30.06	277.30	10.24	-44.7	-45.9	18.5	0.00e+00	0	36	0	501219328	61	4032
2026-01-18 13:11:31.07	277.48	10.26	-44.8	-45.9	18.5	0.00e+00	0	36	0	504365056	61	4051
2026-01-18 13:11:32.07	277.65	10.28	-44.8	-46.0	18.3	0.00e+00	0	36	0	507510784	61	4098
2026-01-18 13:11:33.08	277.83	10.31	-44.9	-46.1	18.4	0.00e+00	0	36	0	510656512	61	4118
2026-01-18 13:11:34.09	278.01	10.33	-44.9	-46.1	18.4	0.00e+00	0	36	0	513802240	61	4113
2026-01-18 13:11:35.10	278.18	10.35	-44.9	-46.1	18.4	0.00e+00	0	36	0	516947968	61	4110
2026-01-18 13:11:36.11	278.36	10.37	-44.8	-46.0	18.4	0.00e+00	0	36	0	520093696	61	4074
2026-01-18 13:11:37.12	278.54	10.40	-44.9	-46.1	18.4	0.00e+00	0	36	0	523239424	61	4113
2026-01-18 13:11:38.12	278.71	10.42	-44.8	-46.0	18.5	0.00e+00	0	36	0	526385152	61	4078
2026-01-18 13:11:39.14	278.89	10.44	-44.7	-45.8	18.6	0.00e+00	0	36	0	529530880	61	3994
2026-01-18 13:11:40.14	279.07	10.46	-44.7	-45.9	18.6	0.00e+00	0	36	0	532676608	61	4008
2026-01-18 13:11:41.15	279.25	10.48	-44.8	-45.9	18.5	0.00e+00	0	36	0	535822336	61	4043
2026-01-18 13:11:42.16	279.43	10.50	-44.9	-46.1	18.4	0.00e+00	0	36	0	538968064	61	4107
2026-01-18 13:11:43.17	279.61	10.52	-44.8	-46.0	18.5	0.00e+00	0	36	0	542113792	61	4055
2026-01-18 13:11:44.18	279.79	10.54	-44.9	-46.1	18.4	0.00e+00	0	36	0	545259520	61	4129
2026-01-18 13:11:45.19	279.97	10.56	-44.9	-46.1	18.4	0.00e+00	0	36	0	548405248	61	4130
2026-01-18 13:11:46.20	280.15	10.58	-44.9	-46.1	18.4	0.00e+00	0	36	0	551550976	61	4100
2026-01-18 13:11:47.20	280.32	10.60	-44.8	-45.9	18.6	0.00e+00	0	36	0	554696704	61	4051
2026-01-18 13:11:48.21	280.50	10.62	-44.8	-46.0	18.5	0.00e+00	0	36	0	557842432	61	4053
2026-01-18 13:11:49.22	280.68	10.64	-44.8	-46.0	18.5	0.00e+00	0	36	0	560988160	61	4052
2026-01-18 13:11:50.23	280.87	10.66	-44.6	-45.8	18.7	0.00e+00	0	36	0	564133888	61	3978
2026-01-18 13:11:51.24	281.05	10.67	-44.7	-45.9	18.6	0.00e+00	0	36	0	567279616	61	4006
2026-01-18 13:11:52.25	281.23	10.69	-44.8	-46.0	18.5	0.00e+00	0	36	0	570425344	61	4055
2026-01-18 13:11:53.26	281.41	10.71	-44.7	-45.9	18.6	0.00e+00	0	36	0	573571072	61	4006
2026-01-18 13:11:54.26	281.59	10.73	-44.7	-45.9	18.6	0.00e+00	0	36	0	576716800	61	4026
2026-01-18 13:11:55.27	281.77	10.75	-44.8	-45.9	18.6	0.00e+00	0	36	0	579862528	61	4047
2026-01-18 13:11:56.28	281.95	10.76	-44.8	-46.0	18.5	0.00e+00	0	36	0	583008256	61	4088
2026-01-18 13:11:57.29	282.13	10.78	-44.9	-46.1	18.5	0.00e+00	0	36	0	586153984	61	4099
2026-01-18 13:11:58.29	282.31	10.80	-44.8	-46.0	18.5	0.00e+00	0	36	0	589299712	61	4075
2026-01-18 13:11:59.30	282.50	10.81	-44.9	-46.2	18.4	0.00e+00	0	36	0	592445440	61	4146
2026-01-18 13:12:00.31	282.68	10.83	-44.7	-45.9	18.6	0.00e+00	0	36	0	595591168	61	4032
2026-01-18 13:12:01.32	282.86	10.85	-44.8	-46.0	18.6	0.00e+00	0	36	0	598736896	61	4059
2026-01-18 13:12:02.33	283.05	10.86	-44.8	-46.0	18.6	0.00e+00	0	36	0	601882624	61	4055
2026-01-18 13:12:03.34	283.23	10.88	-44.9	-46.1	18.5	0.00e+00	0	36	0	605028352	61	4110
2026-01-18 13:12:04.34	283.41	10.89	-44.7	-45.9	18.7	0.00e+00	0	36	0	608174080	61	4005
2026-01-18 13:12:05.35	283.59	10.91	-44.8	-45.9	18.6	0.00e+00	0	36	0	611319808	61	4044
2026-01-18 13:12:06.36	283.78	10.92	-44.7	-45.9	18.7	0.00e+00	0	36	0	614465536	61	4013
2026-01-18 13:12:07.36	283.96	10.94	-44.6	-45.8	18.7	0.00e+00	0	36	0	617611264	61	3981
2026-01-18 13:12:08.37	284.14	10.95	-44.8	-46.0	18.5	0.00e+00	0	36	0	620756992	61	4087
2026-01-18 13:12:09.38	284.33	10.96	-44.9	-46.1	18.5	0.00e+00	0	36	0	623902720	61	4107
2026-01-18 13:12:10.39	284.51	10.98	-44.9	-46.1	18.5	0.00e+00	0	36	0	627048448	61	4113
2026-01-18 13:12:11.40	284.70	10.99	-44.9	-46.1	18.5	0.00e+00	0	36	0	630194176	61	4105
2026-01-18 13:12:12.41	284.88	11.00	-44.8	-46.0	18.6	0.00e+00	0	36	0	633339904	61	4090
2026-01-18 13:12:13.41	285.07	11.02	-44.7	-45.9	18.7	0.00e+00	0	36	0	636485632	61	4007
2026-01-18 13:12:14.42	285.25	11.03	-44.8	-46.0	18.6	0.00e+00	0	36	0	639631360	61	4065
2026-01-18 13:12:15.43	285.44	11.04	-44.6	-45.8	18.8	0.00e+00	0	36	0	642777088	61	3968
2026-01-18 13:12:16.44	285.62	11.06	-44.7	-45.9	18.7	0.00e+00	0	36	0	645922816	61	4017
2026-01-18 13:12:17.45	285.81	11.07	-44.6	-45.8	18.8	0.00e+00	0	36	0	649068544	61	3967
2026-01-18 13:12:18.45	285.99	11.08	-44.7	-45.9	18.7	0.00e+00	0	36	0	652214272	61	4013
2026-01-18 13:12:19.46	286.18	11.09	-44.8	-46.0	18.6	0.00e+00	0	36	0	655360000	61	4062
2026-01-18 13:12:20.47	286.36	11.10	-44.7	-45.9	18.7	0.00e+00	0	36	0	658505728	61	4038
2026-01-18 13:12:21.47	286.55	11.11	-44.8	-46.0	18.6	0.00e+00	0	36	0	661651456	61	4052
2026-01-18 13:12:22.48	286.73	11.12	-44.7	-45.9	18.7	0.00e+00	0	36	0	664797184	61	4018
2026-01-18 13:12:23.49	286.92	11.13	-44.8	-46.0	18.7	0.00e+00	0	36	0	667942912	61	4056
2026-01-18 13:12:24.49	287.10	11.14	-44.9	-46.1	18.6	0.00e+00	0	36	0	671088640	61	4103
2026-01-18 13:12:25.50	287.29	11.15	-44.7	-45.8	18.8	0.00e+00	0	36	0	674234368	61	4000
2026-01-18 13:12:26.50	287.48	11.16	-44.6	-45.8	18.8	0.00e+00	0	36	0	677380096	61	3965
2026-01-18 13:12:27.51	287.66	11.17	-44.7	-45.9	18.8	0.00e+00	0	36	0	680525824	61	4007
2026-01-18 13:12:28.52	287.85	11.18	-44.8	-45.9	18.7	0.00e+00	0	36	0	683671552	61	4034
2026-01-18 13:12:29.53	288.04	11.19	-44.8	-46.0	18.7	0.00e+00	0	36	0	686817280	61	4056
2026-01-18 13:12:30.54	288.22	11.20	-44.9	-46.0	18.6	0.00e+00	0	36	0	689963008	61	4098
2026-01-18 13:12:31.54	288.41	11.21	-44.9	-46.1	18.6	0.00e+00	0	36	0	693108736	61	4131
2026-01-18 13:12:32.55	288.60	11.21	-45.0	-46.2	18.5	0.00e+00	0	36	0	697303040	61	4172
2026-01-18 13:12:33.56	288.78	11.22	-45.1	-46.3	18.4	0.00e+00	0	36	0	700448768	61	4220
2026-01-18 13:12:34.57	288.97	11.23	-45.0	-46.2	18.5	0.00e+00	0	36	0	702545920	61	4149
2026-01-18 13:12:35.58	289.16	11.24	-44.9	-46.1	18.6	0.00e+00	0	36	0	705691648	61	4108
2026-01-18 13:12:36.58	289.35	11.24	-44.9	-46.1	18.6	0.00e+00	0	36	0	708837376	61	4103
2026-01-18 13:12:37.59	289.53	11.25	-44.8	-45.9	18.7	0.00e+00	0	36	0	711983104	61	4050
2026-01-18 13:12:38.60	289.72	11.26	-44.7	-45.9	18.8	0.00e+00	0	36	0	715128832	61	4008
2026-01-18 13:12:39.61	289.91	11.26	-44.5	-45.7	19.0	0.00e+00	0	36	0	718274560	61	3916
2026-01-18 13:12:40.62	290.10	11.27	-44.5	-45.6	19.1	0.00e+00	0	36	0	721420288	60	4128
2026-01-18 13:12:41.62	290.28	11.27	-44.5	-45.7	19.0	0.00e+00	0	36	0	724566016	60	4148
2026-01-18 13:12:42.63	290.47	11.28	-44.6	-45.8	18.9	0.00e+00	0	36	0	727711744	60	4200
2026-01-18 13:12:43.64	290.66	11.28	-44.5	-45.7	19.0	0.00e+00	0	36	0	730857472	60	4149
2026-01-18 13:12:44.65	290.85	11.29	-44.4	-45.5	19.1	0.00e+00	0	36	0	735051776	60	4092
2026-01-18 13:12:45.65	291.04	11.29	-44.5	-45.6	19.0	0.00e+00	0	36	0	738197504	60	4136
2026-01-18 13:12:46.66	291.22	11.30	-44.4	-45.5	19.1	0.00e+00	0	36	0	741343232	60	4096
2026-01-18 13:12:47.67	291.41	11.30	-44.4	-45.5	19.1	0.00e+00	0	36	0	744488960	60	4077
2026-01-18 13:12:48.68	291.60	11.31	-44.4	-45.5	19.1	0.00e+00	0	36	0	747634688	60	4084
2026-01-18 13:12:49.69	291.79	11.31	-44.5	-45.6	19.1	0.00e+00	0	36	0	749731840	60	4110
2026-01-18 13:12:50.69	291.98	11.31	-44.6	-45.7	19.0	0.00e+00	0	36	0	752877568	60	4155
2026-01-18 13:12:51.70	292.16	11.31	-44.5	-45.6	19.0	0.00e+00	0	36	0	756023296	60	4144
2026-01-18 13:12:52.71	292.35	11.32	-44.5	-45.6	19.1	0.00e+00	0	36	0	759169024	60	4105
2026-01-18 13:12:53.72	292.54	11.32	-44.5	-45.6	19.0	0.00e+00	0	36	0	762314752	60	4129
2026-01-18 13:12:54.72	292.73	11.32	-44.6	-45.7	18.9	0.00e+00	0	36	0	765460480	60	4178
2026-01-18 13:12:55.73	292.92	11.32	-44.6	-45.7	18.9	0.00e+00	0	36	0	768606208	60	4168
2026-01-18 13:12:56.74	293.11	11.32	-44.5	-45.6	19.0	0.00e+00	0	36	0	771751936	60	4131
2026-01-18 13:12:57.75	293.29	11.33	-44.6	-45.7	18.9	0.00e+00	0	36	0	775946240	60	4191
2026-01-18 13:12:58.76	293.48	11.33	-44.6	-45.7	18.9	0.00e+00	0	36	0	779091968	60	4164
2026-01-18 13:12:59.76	293.67	11.33	-44.5	-45.6	19.0	0.00e+00	0	36	0	782237696	60	4141
2026-01-18 13:13:00.77	293.86	11.33	-44.6	-45.7	18.9	0.00e+00	0	36	0	785383424	60	4157
2026-01-18 13:13:01.78	294.05	11.33	-44.6	-45.8	18.9	0.00e+00	0	36	0	788529152	60	4199
2026-01-18 13:13:02.79	294.24	11.33	-44.6	-45.7	18.9	0.00e+00	0	36	0	791674880	60	4167
2026-01-18 13:13:03.80	294.43	11.33	-44.6	-45.7	18.9	0.00e+00	0	36	0	794820608	60	4165
2026-01-18 13:13:04.81	294.61	11.33	-44.6	-45.7	18.9	0.00e+00	0	36	0	796917760	60	4188
2026-01-18 13:13:05.82	294.80	11.33	-44.6	-45.7	18.9	0.00e+00	0	36	0	800063488	60	4161
2026-01-18 13:13:06.83	294.99	11.32	-44.6	-45.7	19.0	0.00e+00	0	36	0	803209216	60	4159
2026-01-18 13:13:07.83	295.18	11.32	-44.6	-45.7	18.9	0.00e+00	0	36	0	806354944	60	4183
2026-01-18 13:13:08.84	295.37	11.32	-44.5	-45.6	19.0	0.00e+00	0	36	0	809500672	60	4107
2026-01-18 13:13:09.85	295.56	11.32	-44.4	-45.5	19.1	0.00e+00	0	36	0	813694976	60	4098
2026-01-18 13:13:10.86	295.74	11.32	-44.6	-45.7	18.9	0.00e+00	0	36	0	816840704	60	4182
2026-01-18 13:13:11.86	295.93	11.31	-44.6	-45.7	18.9	0.00e+00	0	36	0	819986432	60	4187
2026-01-18 13:13:12.87	296.12	11.31	-44.6	-45.7	18.9	0.00e+00	0	36	0	823132160	60	4174
2026-01-18 13:13:13.88	296.31	11.31	-44.7	-45.8	18.8	0.00e+00	0	36	0	826277888	60	4235
2026-01-18 13:13:14.89	296.50	11.30	-44.7	-45.8	18.8	0.00e+00	0	36	0	829423616	60	4227
2026-01-18 13:13:15.90	296.68	11.30	-44.7	-45.9	18.8	0.00e+00	0	36	0	832569344	60	4253
2026-01-18 13:13:16.91	296.87	11.30	-44.7	-45.8	18.9	0.00e+00	0	36	0	835715072	60	4203
2026-01-18 13:13:17.91	297.06	11.29	-44.8	-45.9	18.7	0.00e+00	0	36	0	838860800	60	4273
2026-01-18 13:13:18.92	297.25	11.29	-44.7	-45.8	18.8	0.00e+00	0	36	0	842006528	60	4240
2026-01-18 13:13:19.93	297.44	11.28	-44.8	-45.9	18.7	0.00e+00	0	36	0	844103680	60	4258
2026-01-18 13:13:20.94	297.62	11.28	-44.7	-45.8	18.8	0.00e+00	0	36	0	847249408	60	4227
2026-01-18 13:13:21.95	297.81	11.27	-44.8	-46.0	18.7	0.00e+00	0	36	0	850395136	60	4303
2026-01-18 13:13:22.95	298.00	11.27	-44.7	-45.8	18.8	0.00e+00	0	36	0	854589440	60	4238
2026-01-18 13:13:23.96	298.19	11.26	-44.5	-45.6	19.0	0.00e+00	0	36	0	857735168	60	4118
2026-01-18 13:13:24.97	298.37	11.25	-44.5	-45.6	19.1	0.00e+00	0	36	0	860880896	60	4104
2026-01-18 13:13:25.97	298.56	11.25	-44.5	-45.7	19.0	0.00e+00	0	36	0	864026624	60	4147
2026-01-18 13:13:26.98	298.75	11.24	-44.5	-45.6	19.0	0.00e+00	0	36	0	867172352	60	4126
2026-01-18 13:13:27.99	298.93	11.23	-44.6	-45.7	18.9	0.00e+00	0	36	0	870318080	60	4189
2026-01-18 13:13:29.00	299.12	11.23	-44.5	-45.6	19.0	0.00e+00	0	36	0	873463808	60	4140
2026-01-18 13:13:30.01	299.31	11.22	-44.7	-45.8	18.9	0.00e+00	0	36	0	876609536	60	4215
2026-01-18 13:13:31.01	299.49	11.21	-44.7	-45.9	18.8	0.00e+00	0	36	0	879755264	60	4246
2026-01-18 13:13:32.02	299.68	11.20	-44.9	-46.0	18.6	0.00e+00	0	36	0	882900992	60	4336
2026-01-18 13:13:33.03	299.87	11.19	-44.8	-46.0	18.7	0.00e+00	0	36	0	886046720	60	4306
2026-01-18 13:13:34.04	300.06	11.19	-44.8	-45.9	18.8	0.00e+00	0	36	0	889192448	60	4272
2026-01-18 13:13:35.05	300.24	11.18	-44.8	-46.0	18.7	0.00e+00	0	36	0	891289600	60	4301
2026-01-18 13:13:36.05	300.43	11.17	-44.6	-45.8	18.9	0.00e+00	0	36	0	895483904	60	4200
2026-01-18 13:13:37.06	300.61	11.16	-44.6	-45.8	18.9	0.00e+00	0	36	0	898629632	60	4202
2026-01-18 13:13:38.07	300.80	11.15	-44.6	-45.7	18.9	0.00e+00	0	36	0	901775360	60	4191
2026-01-18 13:13:39.08	300.99	11.14	-44.6	-45.7	19.0	0.00e+00	0	36	0	904921088	60	4161
2026-01-18 13:13:40.09	301.17	11.13	-44.5	-45.6	19.0	0.00e+00	0	36	0	908066816	60	4139
2026-01-18 13:13:41.09	301.36	11.12	-44.6	-45.7	18.9	0.00e+00	0	36	0	911212544	60	4166
2026-01-18 13:13:42.10	301.54	11.11	-44.6	-45.7	18.9	0.00e+00	0	36	0	914358272	60	4189
2026-01-18 13:13:43.11	301.73	11.10	-44.6	-45.7	18.9	0.00e+00	0	36	0	917504000	60	4180
2026-01-18 13:13:44.11	301.91	11.08	-44.5	-45.6	19.0	0.00e+00	0	36	0	920649728	60	4129
2026-01-18 13:13:45.12	302.10	11.07	-44.6	-45.7	18.9	0.00e+00	0	36	0	923795456	60	4172
2026-01-18 13:13:46.13	302.28	11.06	-44.6	-45.7	18.9	0.00e+00	0	36	0	926941184	60	4192
2026-01-18 13:13:47.13	302.47	11.05	-44.6	-45.7	18.9	0.00e+00	0	36	0	930086912	60	4171
2026-01-18 13:13:48.15	302.65	11.04	-44.6	-45.7	18.9	0.00e+00	0	36	0	933232640	60	4165
2026-01-18 13:13:49.15	302.84	11.02	-44.6	-45.7	18.9	0.00e+00	0	36	0	936378368	60	4170
2026-01-18 13:13:50.16	303.02	11.01	-44.6	-45.7	18.8	0.00e+00	0	36	0	939524096	60	4193
2026-01-18 13:13:51.17	303.21	11.00	-44.5	-45.7	19.0	0.00e+00	0	36	0	942669824	60	4146
2026-01-18 13:13:52.18	303.39	10.99	-44.6	-45.8	18.9	0.00e+00	0	36	0	945815552	60	4198
2026-01-18 13:13:53.19	303.58	10.97	-44.5	-45.6	19.0	0.00e+00	0	36	0	948961280	60	4122
2026-01-18 13:13:54.19	303.76	10.96	-44.4	-45.5	19.1	0.00e+00	0	36	0	952107008	60	4084
2026-01-18 13:13:55.20	303.94	10.94	-44.4	-45.6	19.0	0.00e+00	0	36	0	955252736	60	4099
2026-01-18 13:13:56.21	304.13	10.93	-44.4	-45.6	19.0	0.00e+00	0	36	0	958398464	60	4103
2026-01-18 13:13:57.22	304.31	10.91	-44.5	-45.6	19.0	0.00e+00	0	36	0	961544192	60	4123
2026-01-18 13:13:58.22	304.49	10.90	-44.5	-45.7	18.9	0.00e+00	0	36	0	964689920	60	4163
2026-01-18 13:13:59.23	304.67	10.88	-44.7	-45.8	18.8	0.00e+00	0	36	0	967835648	60	4222
2026-01-18 13:14:00.24	304.86	10.87	-44.6	-45.8	18.8	0.00e+00	0	36	0	970981376	60	4209
2026-01-18 13:14:01.25	305.04	10.85	-44.6	-45.7	18.9	0.00e+00	0	36	0	974127104	60	4193
2026-01-18 13:14:02.26	305.22	10.84	-44.6	-45.7	18.9	0.00e+00	0	36	0	977272832	60	4174
2026-01-18 13:14:03.27	305.41	10.82	-44.6	-45.8	18.8	0.00e+00	0	36	0	980418560	60	4207
2026-01-18 13:14:04.28	305.59	10.81	-44.7	-45.9	18.8	0.00e+00	0	36	0	983564288	60	4245
2026-01-18 13:14:05.28	305.77	10.79	-44.5	-45.7	18.9	0.00e+00	0	36	0	986710016	60	4159
2026-01-18 13:14:06.29	305.95	10.77	-44.6	-45.7	18.9	0.00e+00	0	36	0	989855744	60	4193
2026-01-18 13:14:07.30	306.13	10.76	-44.6	-45.8	18.8	0.00e+00	0	36	0	993001472	60	4201
2026-01-18 13:14:08.31	306.31	10.74	-44.5	-45.6	18.9	0.00e+00	0	36	0	996147200	60	4140
2026-01-18 13:14:09.32	306.49	10.72	-44.5	-45.6	18.9	0.00e+00	0	36	0	999292928	60	4137
2026-01-18 13:14:10.33	306.68	10.70	-44.6	-45.7	18.9	0.00e+00	0	36	0	1002438656	60	4166
2026-01-18 13:14:11.34	306.86	10.68	-44.6	-45.7	18.9	0.00e+00	0	36	0	1005584384	60	4193
2026-01-18 13:14:12.35	307.04	10.67	-44.6	-45.8	18.8	0.00e+00	0	36	0	1008730112	60	4204
2026-01-18 13:14:13.35	307.22	10.65	-44.7	-45.9	18.7	0.00e+00	0	36	0	1011875840	60	4269
2026-01-18 13:14:14.36	307.40	10.63	-44.6	-45.8	18.9	0.00e+00	0	36	0	1015021568	60	4196
2026-01-18 13:14:15.37	307.58	10.61	-44.6	-45.8	18.8	0.00e+00	0	36	0	1018167296	60	4213
2026-01-18 13:14:16.38	307.76	10.59	-44.7	-45.9	18.7	0.00e+00	0	36	0	1021313024	60	4259
2026-01-18 13:14:17.38	307.93	10.57	-44.8	-46.1	18.5	0.00e+00	0	36	0	1024458752	60	4344
2026-01-18 13:14:18.39	308.11	10.55	-44.6	-45.8	18.6	0.00e+00	0	36	0	1027604480	60	4238
2026-01-18 13:14:19.40	308.29	10.53	-44.8	-46.0	18.5	0.00e+00	0	36	0	1030750208	60	4312
2026-01-18 13:14:20.41	308.47	10.51	-44.9	-46.1	18.4	0.00e+00	0	36	0	1033895936	60	4388
2026-01-18 13:14:21.42	308.65	10.49	-44.7	-45.8	18.7	0.00e+00	0	36	0	1037041664	60	4239
2026-01-18 13:14:22.43	308.83	10.47	-44.6	-45.8	18.7	0.00e+00	0	36	0	1040187392	60	4199
2026-01-18 13:14:23.44	309.00	10.45	-44.6	-45.8	18.7	0.00e+00	0	36	0	1043333120	60	4205
2026-01-18 13:14:24.44	309.18	10.43	-44.5	-45.6	18.9	0.00e+00	0	36	0	1046478848	60	4124
2026-01-18 13:14:25.45	309.36	10.41	-44.4	-45.6	18.9	0.00e+00	0	36	0	1049624576	60	4109
2026-01-18 13:14:26.46	309.54	10.39	-44.5	-45.6	18.8	0.00e+00	0	36	0	1052770304	60	4145
2026-01-18 13:14:27.47	309.71	10.37	-44.5	-45.6	18.8	0.00e+00	0	36	0	1055916032	60	4127
2026-01-18 13:14:28.48	309.89	10.34	-44.4	-45.5	18.9	0.00e+00	0	36	0	1059061760	60	4077
2026-01-18 13:14:29.48	310.06	10.32	-44.4	-45.5	18.9	0.00e+00	0	36	0	1062207488	60	4092
2026-01-18 13:14:30.49	310.24	10.30	-44.4	-45.6	18.9	0.00e+00	0	36	0	1065353216	60	4105
2026-01-18 13:14:31.50	310.42	10.28	-44.4	-45.5	18.9	0.00e+00	0	36	0	1068498944	60	4070
2026-01-18 13:14:32.51	310.59	10.25	-44.4	-45.5	18.9	0.00e+00	0	36	0	1071644672	60	4074
2026-01-18 13:14:33.51	310.77	10.23	-44.4	-45.5	19.0	0.00e+00	0	36	0	1074790400	60	4063
2026-01-18 13:14:34.52	310.94	10.21	-44.4	-45.5	19.0	0.00e+00	0	36	0	1077936128	60	4057
2026-01-18 13:14:35.53	311.12	10.18	-44.2	-45.3	19.2	0.00e+00	0	36	0	1081081856	60	3966
2026-01-18 13:14:36.54	311.29	10.16	-44.2	-45.3	19.1	0.00e+00	0	36	0	1084227584	60	3971
2026-01-18 13:14:37.55	311.46	10.14	-44.3	-45.4	19.1	0.00e+00	0	36	0	1087373312	60	4014
2026-01-18 13:14:38.55	311.64	10.11	-44.3	-45.4	19.0	0.00e+00	0	36	0	1090519040	60	4034
2026-01-18 13:14:39.56	311.81	10.09	-44.4	-45.6	18.9	0.00e+00	0	36	0	1093664768	60	4103
2026-01-18 13:14:40.57	311.98	10.06	-44.4	-45.5	18.9	0.00e+00	0	36	0	1096810496	60	4098
2026-01-18 13:14:41.57	312.16	10.04	-44.4	-45.6	18.9	0.00e+00	0	36	0	1099956224	60	4102
2026-01-18 13:14:42.58	312.33	10.02	-44.5	-45.6	18.9	0.00e+00	0	36	0	1103101952	60	4113
2026-01-18 13:14:43.59	312.50	9.99	-44.5	-45.6	18.8	0.00e+00	0	36	0	1106247680	60	4144
2026-01-18 13:14:44.60	312.67	9.97	-44.5	-45.7	18.8	0.00e+00	0	36	0	1109393408	60	4148
2026-01-18 13:14:45.61	312.85	9.94	-44.5	-45.6	18.8	0.00e+00	0	36	0	1112539136	60	4136
2026-01-18 13:14:46.62	313.02	9.91	-44.5	-45.6	18.8	0.00e+00	0	36	0	1115684864	60	4142
2026-01-18 13:14:47.62	313.19	9.89	-44.5	-45.7	18.7	0.00e+00	0	36	0	1118830592	60	4165
2026-01-18 13:14:48.63	313.36	9.86	-44.5	-45.6	18.8	0.00e+00	0	36	0	1121976320	60	4134
2026-01-18 13:14:49.64	313.53	9.84	-44.5	-45.6	18.8	0.00e+00	0	36	0	1125122048	60	4139
2026-01-18 13:14:50.65	313.70	9.81	-44.5	-45.6	18.8	0.00e+00	0	36	0	1128267776	60	4133
2026-01-18 13:14:51.66	313.87	9.78	-44.6	-45.7	18.7	0.00e+00	0	36	0	1131413504	60	4189
2026-01-18 13:14:52.67	314.04	9.76	-44.6	-45.7	18.7	0.00e+00	0	36	0	1134559232	60	4185
2026-01-18 13:14:53.67	314.21	9.73	-44.5	-45.6	18.8	0.00e+00	0	36	0	1137704960	60	4126
2026-01-18 13:14:54.68	314.38	9.70	-44.5	-45.6	18.8	0.00e+00	0	36	0	1140850688	60	4131
2026-01-18 13:14:55.69	314.55	9.68	-44.6	-45.7	18.7	0.00e+00	0	36	0	1143996416	60	4182
2026-01-18 13:14:56.69	314.71	9.65	-44.5	-45.6	18.8	0.00e+00	0	36	0	1147142144	60	4120
2026-01-18 13:14:57.70	314.88	9.62	-44.4	-45.6	18.8	0.00e+00	0	36	0	1150287872	60	4113
2026-01-18 13:14:58.71	315.05	9.59	-44.5	-45.7	18.7	0.00e+00	0	36	0	1153433600	60	4147
2026-01-18 13:14:59.72	315.22	9.56	-44.5	-45.7	18.7	0.00e+00	0	36	0	1156579328	60	4153
2026-01-18 13:15:00.73	315.39	9.54	-44.6	-45.8	18.6	0.00e+00	0	36	0	1159725056	60	4212
2026-01-18 13:15:01.74	315.55	9.51	-44.7	-45.9	18.6	0.00e+00	0	36	0	1162870784	60	4246
2026-01-18 13:15:02.74	315.72	9.48	-44.6	-45.7	18.7	0.00e+00	0	36	0	1166016512	60	4178
2026-01-18 13:15:03.75	315.89	9.45	-44.6	-45.7	18.7	0.00e+00	0	36	0	1169162240	60	4188
2026-01-18 13:15:04.76	316.05	9.42	-44.5	-45.7	18.7	0.00e+00	0	36	0	1172307968	60	4158
2026-01-18 13:15:05.77	316.22	9.39	-44.5	-45.6	18.8	0.00e+00	0	36	0	1175453696	60	4119
2026-01-18 13:15:06.77	316.38	9.36	-44.5	-45.7	18.7	0.00e+00	0	36	0	1178599424	60	4146
2026-01-18 13:15:07.78	316.55	9.33	-44.5	-45.6	18.8	0.00e+00	0	36	0	1181745152	60	4120
2026-01-18 13:15:08.79	316.71	9.30	-44.6	-45.7	18.7	0.00e+00	0	36	0	1184890880	60	4174
2026-01-18 13:15:09.80	316.88	9.27	-44.5	-45.7	18.7	0.00e+00	0	36	0	1188036608	60	4161
2026-01-18 13:15:10.80	317.04	9.24	-44.7	-45.9	18.5	0.00e+00	0	36	0	1191182336	60	4248
2026-01-18 13:15:11.81	317.20	9.21	-44.6	-45.7	18.7	0.00e+00	0	36	0	1194328064	60	4183
2026-01-18 13:15:12.82	317.37	9.18	-44.5	-45.6	18.7	0.00e+00	0	36	0	1197473792	60	4138
2026-01-18 13:15:13.83	317.53	9.15	-44.6	-45.7	18.6	0.00e+00	0	36	0	1200619520	60	4179
2026-01-18 13:15:14.84	317.69	9.12	-44.7	-45.8	18.5	0.00e+00	0	36	0	1203765248	60	4231
2026-01-18 13:15:15.84	317.85	9.09	-44.6	-45.8	18.6	0.00e+00	0	36	0	1206910976	60	4214
2026-01-18 13:15:16.85	318.02	9.06	-44.5	-45.6	18.7	0.00e+00	0	36	0	1210056704	60	4133
2026-01-18 13:15:17.86	318.18	9.03	-44.6	-45.8	18.6	0.00e+00	0	36	0	1213202432	60	4196
2026-01-18 13:15:18.87	318.34	9.00	-44.6	-45.8	18.5	0.00e+00	0	36	0	1216348160	60	4223
2026-01-18 13:15:19.88	318.50	8.97	-44.7	-45.8	18.5	0.00e+00	0	36	0	1219493888	60	4236
2026-01-18 13:15:20.89	318.66	8.94	-44.7	-45.9	18.4	0.00e+00	0	36	0	1222639616	60	4290
2026-01-18 13:15:21.89	318.82	8.90	-44.7	-45.9	18.4	0.00e+00	0	36	0	1225785344	60	4285
2026-01-18 13:15:22.90	318.98	8.87	-44.6	-45.8	18.5	0.00e+00	0	36	0	1228931072	60	4202
2026-01-18 13:15:23.91	319.14	8.84	-44.5	-45.7	18.6	0.00e+00	0	36	0	1232076800	60	4177
2026-01-18 13:15:24.92	319.30	8.81	-44.6	-45.7	18.5	0.00e+00	0	36	0	1235222528	60	4193
2026-01-18 13:15:25.93	319.46	8.78	-44.6	-45.8	18.5	0.00e+00	0	36	0	1238368256	60	4211
2026-01-18 13:15:26.93	319.62	8.74	-44.6	-45.8	18.5	0.00e+00	0	36	0	1241513984	60	4221
2026-01-18 13:15:27.94	319.78	8.71	-44.6	-45.8	18.5	0.00e+00	0	36	0	1244659712	60	4225
2026-01-18 13:15:28.95	319.94	8.68	-44.6	-45.8	18.5	0.00e+00	0	36	0	1247805440	60	4221
2026-01-18 13:15:29.96	320.09	8.65	-44.5	-45.7	18.6	0.00e+00	0	36	0	1250951168	60	4167
2026-01-18 13:15:30.97	320.25	8.61	-44.5	-45.7	18.6	0.00e+00	0	36	0	1254096896	60	4175
2026-01-18 13:15:31.97	320.41	8.58	-44.5	-45.7	18.6	0.00e+00	0	36	0	1257242624	60	4173
2026-01-18 13:15:32.98	320.56	8.55	-44.6	-45.8	18.5	0.00e+00	0	36	0	1260388352	60	4200
2026-01-18 13:15:33.99	320.72	8.51	-44.7	-45.9	18.4	0.00e+00	0	36	0	1263534080	60	4248
2026-01-18 13:15:35.00	320.88	8.48	-44.8	-46.0	18.3	0.00e+00	0	36	0	1266679808	60	4299
2026-01-18 13:15:36.01	321.03	8.44	-44.9	-46.1	18.2	0.00e+00	0	36	0	1269825536	60	4365
2026-01-18 13:15:37.02	321.19	8.41	-44.9	-46.1	18.2	0.00e+00	0	36	0	1272971264	60	4377
2026-01-18 13:15:38.03	321.34	8.38	-44.9	-46.1	18.2	0.00e+00	0	36	0	1276116992	60	4386
2026-01-18 13:15:39.03	321.50	8.34	-44.8	-46.1	18.2	0.00e+00	0	36	0	1279262720	60	4353
2026-01-18 13:15:40.04	321.65	8.31	-44.9	-46.1	18.2	0.00e+00	0	36	0	1282408448	60	4381
2026-01-18 13:15:41.05	321.80	8.27	-44.9	-46.1	18.2	0.00e+00	0	36	0	1285554176	60	4376
2026-01-18 13:15:42.06	321.96	8.24	-44.9	-46.2	18.2	0.00e+00	0	36	0	1288699904	60	4396
2026-01-18 13:15:43.06	322.11	8.21	-44.9	-46.1	18.1	0.00e+00	0	36	0	1291845632	60	4388
2026-01-18 13:15:44.07	322.26	8.17	-45.0	-46.2	18.0	0.00e+00	0	36	0	1294991360	60	4441
2026-01-18 13:15:45.08	322.42	8.14	-45.0	-46.3	18.0	0.00e+00	0	36	0	1298137088	60	4449
2026-01-18 13:15:46.09	322.57	8.10	-45.0	-46.2	18.0	0.00e+00	0	36	0	1301282816	60	4439
2026-01-18 13:15:47.10	322.72	8.07	-45.0	-46.3	18.0	0.00e+00	0	36	0	1304428544	60	4442
2026-01-18 13:15:48.10	322.87	8.03	-44.8	-46.0	18.2	0.00e+00	0	36	0	1307574272	60	4323
2026-01-18 13:15:49.11	323.02	8.00	-44.8	-46.0	18.2	0.00e+00	0	36	0	1310720000	60	4335
2026-01-18 13:15:50.12	323.17	7.96	-44.8	-46.0	18.2	0.00e+00	0	36	0	1313865728	60	4317
2026-01-18 13:15:51.13	323.32	7.92	-44.9	-46.1	18.2	0.00e+00	0	36	0	1317011456	60	4355
2026-01-18 13:15:52.14	323.47	7.89	-44.9	-46.2	18.1	0.00e+00	0	36	0	1320157184	60	4395
2026-01-18 13:15:53.14	323.62	7.85	-44.9	-46.2	18.1	0.00e+00	0	36	0	1323302912	60	4397
2026-01-18 13:15:54.15	323.77	7.82	-45.0	-46.2	18.0	0.00e+00	0	36	0	1326448640	60	4428
2026-01-18 13:15:55.16	323.92	7.78	-44.9	-46.1	18.1	0.00e+00	0	36	0	1329594368	60	4379
2026-01-18 13:15:56.17	324.07	7.74	-45.0	-46.3	18.0	0.00e+00	0	36	0	1332740096	60	4448
2026-01-18 13:15:57.17	324.22	7.71	-45.0	-46.2	18.0	0.00e+00	0	36	0	1335885824	60	4437
2026-01-18 13:15:58.18	324.36	7.67	-45.1	-46.4	17.8	0.00e+00	0	36	0	1339031552	60	4526
2026-01-18 13:15:59.19	324.51	7.64	-45.1	-46.4	17.8	0.00e+00	0	36	0	1342177280	61	4271
2026-01-18 13:16:00.19	324.66	7.60	-45.2	-46.5	17.7	0.00e+00	0	36	0	1345323008	61	4317
2026-01-18 13:16:01.20	324.80	7.56	-45.2	-46.4	17.8	0.00e+00	0	36	0	1348468736	61	4284
2026-01-18 13:16:02.21	324.95	7.53	-45.2	-46.5	17.7	0.00e+00	0	36	0	1351614464	61	4324
2026-01-18 13:16:03.22	325.10	7.49	-45.3	-46.6	17.7	0.00e+00	0	36	0	1354760192	61	4364
2026-01-18 13:16:04.22	325.24	7.45	-45.2	-46.5	17.7	0.00e+00	0	36	0	1357905920	61	4302
2026-01-18 13:16:05.23	325.39	7.41	-45.1	-46.4	17.8	0.00e+00	0	36	0	1361051648	61	4272
2026-01-18 13:16:06.24	325.53	7.38	-45.0	-46.3	17.9	0.00e+00	0	36	0	1364197376	61	4229
2026-01-18 13:16:07.25	325.68	7.34	-44.9	-46.2	18.0	0.00e+00	0	36	0	1367343104	61	4158
2026-01-18 13:16:08.26	325.82	7.30	-44.9	-46.1	18.1	0.00e+00	0	36	0	1370488832	61	4117
2026-01-18 13:16:09.27	325.97	7.27	-45.0	-46.3	17.9	0.00e+00	0	36	0	1373634560	61	4228
2026-01-18 13:16:10.27	326.11	7.23	-45.1	-46.4	17.8	0.00e+00	0	36	0	1376780288	61	4245
2026-01-18 13:16:11.28	326.25	7.19	-45.1	-46.4	17.8	0.00e+00	0	36	0	1379926016	61	4260
2026-01-18 13:16:12.29	326.40	7.15	-45.1	-46.4	17.8	0.00e+00	0	36	0	1383071744	61	4270
2026-01-18 13:16:13.30	326.54	7.11	-45.1	-46.4	17.8	0.00e+00	0	36	0	1386217472	61	4274
2026-01-18 13:16:14.31	326.68	7.08	-45.3	-46.6	17.6	0.00e+00	0	36	0	1389363200	61	4356
2026-01-18 13:16:15.31	326.82	7.04	-45.2	-46.5	17.7	0.00e+00	0	36	0	1392508928	61	4310
2026-01-18 13:16:16.32	326.96	7.00	-45.3	-46.7	17.5	0.00e+00	0	36	0	1395654656	61	4399
2026-01-18 13:16:17.33	327.10	6.96	-45.2	-46.6	17.6	0.00e+00	0	36	0	1398800384	61	4347
2026-01-18 13:16:18.34	327.24	6.92	-45.5	-46.8	17.3	0.00e+00	0	36	0	1401946112	61	4488
2026-01-18 13:16:19.34	327.38	6.89	-45.5	-46.9	17.3	0.00e+00	0	36	0	1405091840	61	4498
2026-01-18 13:16:20.35	327.52	6.85	-45.3	-46.7	17.5	0.00e+00	0	36	0	1408237568	61	4405
2026-01-18 13:16:21.36	327.66	6.81	-45.5	-47.0	17.2	0.00e+00	0	36	0	1411383296	61	4547
2026-01-18 13:16:22.37	327.80	6.77	-45.6	-47.0	17.2	0.00e+00	0	36	0	1414529024	61	4567
2026-01-18 13:16:23.38	327.94	6.73	-45.5	-46.9	17.2	0.00e+00	0	36	0	1417674752	61	4534
2026-01-18 13:16:24.38	328.08	6.69	-45.6	-47.0	17.1	0.00e+00	0	36	0	1420820480	61	4562
2026-01-18 13:16:25.39	328.22	6.65	-45.4	-46.8	17.3	0.00e+00	0	36	0	1423966208	61	4454
2026-01-18 13:16:26.41	328.36	6.61	-45.3	-46.6	17.5	0.00e+00	0	36	0	1427111936	61	4383
2026-01-18 13:16:27.41	328.49	6.58	-45.4	-46.7	17.4	0.00e+00	0	36	0	1430257664	61	4433
2026-01-18 13:16:28.42	328.63	6.54	-45.5	-46.9	17.3	0.00e+00	0	36	0	1433403392	61	4497
2026-01-18 13:16:29.43	328.77	6.50	-45.5	-46.9	17.2	0.00e+00	0	36	0	1436549120	61	4527
2026-01-18 13:16:30.44	328.91	6.46	-45.6	-47.0	17.1	0.00e+00	0	36	0	1439694848	61	4567
2026-01-18 13:16:31.44	329.04	6.42	-45.8	-47.2	16.9	0.00e+00	0	36	0	1442840576	62	4427
2026-01-18 13:16:32.45	329.18	6.38	-45.6	-47.0	17.1	0.00e+00	0	36	0	1445986304	62	4323
2026-01-18 13:16:33.46	329.31	6.34	-45.6	-47.0	17.1	0.00e+00	0	36	0	1449132032	62	4337
2026-01-18 13:16:34.47	329.45	6.30	-45.6	-47.1	17.0	0.00e+00	0	36	0	1452277760	62	4347
2026-01-18 13:16:35.48	329.58	6.26	-45.6	-47.0	17.1	0.00e+00	0	36	0	1455423488	62	4308
2026-01-18 13:16:36.49	329.72	6.22	-45.5	-46.9	17.2	0.00e+00	0	36	0	1458569216	62	4276
2026-01-18 13:16:37.49	329.85	6.18	-45.5	-46.9	17.2	0.00e+00	0	36	0	1461714944	62	4255
2026-01-18 13:16:38.50	329.98	6.14	-45.5	-46.9	17.2	0.00e+00	0	36	0	1464860672	62	4262
2026-01-18 13:16:39.51	330.12	6.10	-45.6	-47.0	17.1	0.00e+00	0	36	0	1468006400	62	4318
2026-01-18 13:16:40.52	330.25	6.06	-45.7	-47.1	17.0	0.00e+00	0	36	0	1471152128	62	4375
2026-01-18 13:16:41.53	330.38	6.02	-45.6	-47.0	17.0	0.00e+00	0	36	0	1474297856	62	4335
2026-01-18 13:16:42.53	330.51	5.98	-45.7	-47.1	16.9	0.00e+00	0	36	0	1477443584	62	4367
2026-01-18 13:16:43.54	330.65	5.94	-45.5	-46.8	17.2	0.00e+00	0	36	0	1480589312	62	4241
2026-01-18 13:16:44.55	330.78	5.90	-45.6	-47.0	17.1	0.00e+00	0	36	0	1483735040	62	4332
2026-01-18 13:16:45.55	330.91	5.86	-45.3	-46.7	17.3	0.00e+00	0	36	0	1487929344	62	4174
2026-01-18 13:16:46.56	331.04	5.82	-45.4	-46.8	17.2	0.00e+00	0	36	0	1490026496	62	4238
2026-01-18 13:16:47.57	331.17	5.78	-45.7	-47.1	17.0	0.00e+00	0	36	0	1493172224	62	4362
2026-01-18 13:16:48.58	331.30	5.74	-45.7	-47.1	16.9	0.00e+00	0	36	0	1496317952	62	4379
2026-01-18 13:16:49.59	331.43	5.70	-45.6	-47.0	17.0	0.00e+00	0	36	0	1499463680	62	4321
2026-01-18 13:16:50.59	331.56	5.66	-45.5	-46.9	17.1	0.00e+00	0	36	0	1502609408	62	4285
2026-01-18 13:16:51.60	331.69	5.62	-45.4	-46.8	17.2	0.00e+00	0	36	0	1505755136	62	4219
2026-01-18 13:16:52.61	331.82	5.58	-45.6	-47.0	17.0	0.00e+00	0	36	0	1508900864	62	4322
2026-01-18 13:16:53.62	331.94	5.54	-45.4	-46.8	17.2	0.00e+00	0	36	0	1512046592	62	4218
2026-01-18 13:16:54.62	332.07	5.50	-45.3	-46.6	17.3	0.00e+00	0	36	0	1515192320	62	4142
2026-01-18 13:16:55.63	332.20	5.45	-45.5	-46.9	17.1	0.00e+00	0	36	0	1518338048	62	4280
2026-01-18 13:16:56.64	332.33	5.41	-45.6	-47.1	16.9	0.00e+00	0	36	0	1521483776	62	4353
2026-01-18 13:16:57.65	332.45	5.37	-45.4	-46.8	17.1	0.00e+00	0	36	0	1525678080	62	4233
2026-01-18 13:16:58.66	332.58	5.33	-45.4	-46.8	17.1	0.00e+00	0	36	0	1528823808	62	4241
2026-01-18 13:16:59.67	332.71	5.29	-45.8	-47.3	16.7	0.00e+00	0	36	0	1531969536	62	4466
2026-01-18 13:17:00.67	332.83	5.25	-45.8	-47.3	16.7	0.00e+00	0	36	0	1535115264	62	4451
2026-01-18 13:17:01.68	332.96	5.21	-45.8	-47.3	16.6	0.00e+00	0	36	0	1537212416	62	4485
2026-01-18 13:17:02.69	333.08	5.17	-45.9	-47.4	16.5	0.00e+00	0	36	0	1540358144	62	4519
2026-01-18 13:17:03.70	333.21	5.13	-45.9	-47.4	16.5	0.00e+00	0	36	0	1543503872	62	4520
2026-01-18 13:17:04.71	333.33	5.08	-45.8	-47.3	16.7	0.00e+00	0	36	0	1546649600	62	4450
2026-01-18 13:17:05.71	333.46	5.04	-45.8	-47.3	16.6	0.00e+00	0	36	0	1549795328	62	4470
2026-01-18 13:17:06.72	333.58	5.00	-49.2	-52.4	12.0	0.00e+00	0	37	0	1552941056	68	5688
2026-01-18 13:17:07.73	333.71	4.96	-52.7	-65.5	3.8	1.49e+00	0	36	104	1553989632	75	17124
2026-01-18 13:17:08.74	333.83	4.92	-53.0	-65.8	3.8	1.49e+00	0	37	104	1553989632	76	16699
2026-01-18 13:17:09.75	333.95	4.88	-53.2	-65.9	3.8	1.49e+00	0	37	104	1553989632	76	17067
2026-01-18 13:17:10.76	334.08	4.84	-53.3	-66.1	3.8	1.49e+00	0	37	104	1553989632	77	16391
2026-01-18 13:17:11.76	334.20	4.79	-53.4	-66.2	3.8	1.49e+00	0	36	104	1553989632	77	16631
2026-01-18 13:17:12.77	334.32	4.75	-53.5	-66.3	3.8	1.49e+00	0	36	104	1553989632	77	16841
2026-01-18 13:17:13.78	334.44	4.71	-53.6	-66.4	3.8	1.49e+00	0	37	104	1553989632	77	17037
2026-01-18 13:17:14.78	334.56	4.67	-53.7	-66.5	3.8	1.49e+00	0	36	104	1553989632	77	17173
2026-01-18 13:17:15.79	334.68	4.63	-53.8	-66.6	3.8	1.49e+00	0	37	104	1553989632	78	16372
2026-01-18 13:17:16.80	334.80	4.59	-53.8	-66.6	3.8	1.49e+00	0	37	104	1553989632	78	16432
2026-01-18 13:17:17.81	334.92	4.54	-53.9	-66.7	3.8	1.49e+00	0	37	104	1553989632	78	16511
2026-01-18 13:17:18.82	335.04	4.50	-53.9	-66.7	3.8	1.49e+00	0	37	104	1553989632	78	16600
2026-01-18 13:17:19.82	335.16	4.46	-53.9	-66.7	3.8	1.49e+00	0	36	104	1553989632	78	16649
2026-01-18 13:17:20.83	335.28	4.42	-53.9	-66.7	3.8	1.49e+00	0	37	104	1553989632	78	16647
2026-01-18 13:17:21.84	335.40	4.38	-54.0	-66.7	3.8	1.49e+00	0	37	104	1553989632	78	16649
2026-01-18 13:17:22.85	335.52	4.34	-53.9	-66.8	3.8	1.49e+00	0	37	104	1553989632	78	16719
2026-01-18 13:17:23.86	335.64	4.29	-54.0	-66.8	3.8	1.49e+00	0	37	104	1553989632	78	16712
2026-01-18 13:17:24.86	335.76	4.25	-54.0	-66.8	3.8	1.49e+00	0	37	104	1553989632	78	16763
2026-01-18 13:17:25.87	335.87	4.21	-53.9	-66.8	3.8	1.49e+00	0	37	104	1553989632	78	16695
2026-01-18 13:17:26.88	335.99	4.17	-53.9	-66.7	3.8	1.49e+00	0	37	104	1553989632	78	16648
2026-01-18 13:17:27.89	336.11	4.12	-53.9	-66.8	3.8	1.49e+00	0	37	104	1553989632	78	16704
2026-01-18 13:17:28.90	336.23	4.08	-53.9	-66.7	3.8	1.49e+00	0	37	104	1553989632	78	16616
2026-01-18 13:17:29.91	336.34	4.04	-53.9	-66.7	3.8	1.49e+00	0	37	104	1553989632	78	16548
2026-01-18 13:17:30.91	336.46	4.00	-53.9	-66.7	3.8	1.49e+00	0	37	104	1553989632	78	16560
2026-01-18 13:17:31.92	336.57	3.96	-53.9	-66.7	3.8	1.49e+00	0	37	104	1553989632	78	16536
2026-01-18 13:17:32.93	336.69	3.91	-53.9	-66.7	3.8	1.49e+00	0	37	104	1553989632	78	16557
2026-01-18 13:17:33.94	336.80	3.87	-53.9	-66.7	3.8	1.49e+00	0	37	104	1553989632	78	16559
2026-01-18 13:17:34.94	336.92	3.83	-53.9	-66.7	3.8	1.49e+00	0	37	104	1553989632	78	16541
2026-01-18 13:17:35.95	337.03	3.79	-53.9	-66.7	3.8	1.49e+00	0	37	104	1553989632	78	16559
2026-01-18 13:17:36.96	337.15	3.74	-53.9	-66.7	3.8	1.49e+00	0	37	104	1553989632	78	16516
2026-01-18 13:17:37.96	337.26	3.70	-53.8	-66.6	3.8	1.49e+00	0	37	104	1553989632	78	16469
2026-01-18 13:17:38.97	337.37	3.66	-53.8	-66.6	3.8	1.49e+00	0	37	104	1553989632	78	16390
2026-01-18 13:17:39.98	337.49	3.62	-53.8	-66.6	3.8	1.49e+00	0	37	104	1553989632	78	16378
2026-01-18 13:17:40.99	337.60	3.57	-53.8	-66.6	3.8	1.49e+00	0	37	104	1553989632	78	16359
2026-01-18 13:17:42.00	337.71	3.53	-53.8	-66.6	3.8	1.49e+00	0	37	104	1553989632	78	16372
2026-01-18 13:17:43.01	337.83	3.49	-53.9	-66.7	3.8	1.49e+00	0	37	104	1553989632	78	16521
2026-01-18 13:17:44.01	337.94	3.45	-53.9	-66.7	3.8	1.49e+00	0	37	104	1553989632	78	16545
2026-01-18 13:17:45.02	338.05	3.40	-53.9	-66.7	3.8	1.49e+00	0	37	104	1553989632	78	16533
2026-01-18 13:17:46.03	338.16	3.36	-53.8	-66.6	3.8	1.49e+00	0	37	104	1553989632	78	16500
2026-01-18 13:17:47.04	338.27	3.32	-53.8	-66.6	3.8	1.49e+00	0	37	104	1553989632	78	16413
2026-01-18 13:17:48.04	338.38	3.28	-53.8	-66.6	3.8	1.49e+00	0	37	104	1553989632	78	16407
2026-01-18 13:17:49.05	338.49	3.23	-53.8	-66.6	3.8	1.49e+00	0	37	104	1553989632	78	16347
2026-01-18 13:17:50.06	338.60	3.19	-53.8	-66.6	3.8	1.49e+00	0	37	104	1553989632	78	16352
2026-01-18 13:17:51.07	338.71	3.15	-53.8	-66.6	3.8	1.49e+00	0	37	104	1553989632	78	16369
2026-01-18 13:17:52.08	338.82	3.11	-53.8	-66.6	3.8	1.49e+00	0	37	104	1553989632	78	16344
2026-01-18 13:17:53.08	338.93	3.06	-53.8	-66.5	3.8	1.49e+00	0	37	104	1553989632	78	16265
2026-01-18 13:17:54.09	339.04	3.02	-53.8	-66.5	3.8	1.49e+00	0	37	104	1553989632	78	16298
2026-01-18 13:17:55.10	339.15	2.98	-53.8	-66.6	3.8	1.49e+00	0	37	104	1553989632	78	16357
2026-01-18 13:17:56.11	339.26	2.94	-53.8	-66.6	3.8	1.49e+00	0	37	104	1553989632	78	16325
2026-01-18 13:17:57.11	339.37	2.89	-53.7	-66.5	3.8	1.49e+00	0	37	104	1553989632	78	16286
2026-01-18 13:17:58.12	339.47	2.85	-53.7	-66.5	3.8	1.49e+00	0	37	104	1553989632	78	16308
2026-01-18 13:17:59.12	339.58	2.81	-53.7	-66.6	3.8	1.49e+00	0	37	104	1553989632	78	16324
2026-01-18 13:18:00.14	339.69	2.76	-53.7	-66.5	3.8	1.49e+00	0	37	104	1553989632	78	16288
2026-01-18 13:18:01.14	339.79	2.72	-53.7	-66.5	3.8	1.49e+00	0	37	104	1553989632	78	16277
2026-01-18 13:18:02.15	339.90	2.68	-53.7	-66.5	3.8	1.49e+00	0	37	104	1553989632	78	16296
2026-01-18 13:18:03.16	340.01	2.64	-53.7	-66.5	3.8	1.49e+00	0	37	104	1553989632	78	16295
2026-01-18 13:18:04.17	340.11	2.59	-53.7	-66.5	3.8	1.49e+00	0	37	104	1553989632	78	16299
2026-01-18 13:18:05.18	340.22	2.55	-53.7	-66.5	3.8	1.49e+00	0	37	104	1553989632	78	16262
2026-01-18 13:18:06.19	340.33	2.51	-53.7	-66.5	3.8	1.49e+00	0	37	104	1553989632	78	16242
2026-01-18 13:18:07.19	340.43	2.46	-53.7	-66.5	3.8	1.49e+00	0	37	104	1553989632	78	16310
2026-01-18 13:18:08.20	340.53	2.42	-53.7	-66.5	3.8	1.49e+00	0	37	104	1553989632	78	16282
2026-01-18 13:18:09.21	340.64	2.38	-53.7	-66.5	3.8	1.49e+00	0	37	104	1553989632	78	16246
2026-01-18 13:18:10.21	340.74	2.34	-53.7	-66.5	3.8	1.49e+00	0	37	104	1553989632	78	16286
2026-01-18 13:18:11.22	340.85	2.29	-53.7	-66.5	3.8	1.49e+00	0	37	104	1553989632	78	16215
2026-01-18 13:18:12.23	340.95	2.25	-53.7	-66.5	3.8	1.49e+00	0	37	104	1553989632	78	16311
2026-01-18 13:18:13.24	341.05	2.21	-53.7	-66.6	3.8	1.49e+00	0	37	104	1553989632	78	16318
2026-01-18 13:18:14.25	341.16	2.16	-53.7	-66.5	3.8	1.49e+00	0	37	104	1553989632	78	16296
2026-01-18 13:18:15.25	341.26	2.12	-53.7	-66.5	3.8	1.49e+00	0	37	104	1553989632	78	16244
2026-01-18 13:18:16.26	341.36	2.08	-53.7	-66.5	3.8	1.49e+00	0	37	104	1553989632	78	16268
2026-01-18 13:18:17.27	341.47	2.04	-53.7	-66.5	3.8	1.49e+00	0	37	104	1553989632	78	16250
2026-01-18 13:18:18.28	341.57	1.99	-53.7	-66.5	3.8	1.49e+00	0	37	104	1553989632	78	16198
2026-01-18 13:18:19.28	341.67	1.95	-53.7	-66.5	3.8	1.49e+00	0	37	104	1553989632	78	16204

#Closed at: 2026-01-18 13:18:20
#Recorded file [1553 MB]: D:/lorett/data/31041_260118_160748.dat