passes_logs/2026/01/18/R3.2S_Murmansk/R3.2S_Murmansk__20260118_035549_NOAA_20_JPSS-1_rec.log

#Pass ID: 20260118_035549_NOAA 20 (JPSS-1)
#Satellite: NOAA 20 (JPSS-1)
#Configuration: NOAA 20
#almurnet v.1.7.20251203
#Start time: 2026-01-18 03:55:49

#Version: 2.2.20231116
#Station: R3.2S_Murmansk
#Location: 33.079688 lon 68.888172 lat
#TLE: 1 43013U 17073A   26017.58553584  .00000066  00000+0  52288-4 0  9998
#TLE: 2 43013  98.7639 318.4977 0001406  35.6039 324.5231 14.19536575423107

#Time	Az	El	Level	Level2	SNR	BER	BlckErr	Temp	State	Recorded	gain1	gain2
2026-01-18 03:55:49.10	46.37	1.97	-51.6	-66.6	3.8	1.49e+00	0	33	0	0	75	19413
2026-01-18 03:55:50.11	46.31	2.03	-51.6	-66.6	3.8	1.49e+00	0	33	104	0	73	21918
2026-01-18 03:55:51.11	46.26	2.09	-51.6	-66.6	3.8	1.49e+00	0	33	104	0	73	21772
2026-01-18 03:55:52.12	46.20	2.15	-51.6	-66.6	3.8	1.49e+00	0	33	104	0	73	21808
2026-01-18 03:55:53.13	46.14	2.20	-51.6	-66.6	3.8	1.49e+00	0	33	104	0	73	21854
2026-01-18 03:55:54.14	46.08	2.26	-51.6	-66.6	3.8	1.49e+00	0	33	104	0	73	21821
2026-01-18 03:55:55.15	46.02	2.32	-51.6	-66.6	3.8	1.49e+00	0	33	104	0	73	21795
2026-01-18 03:55:56.15	45.96	2.38	-51.6	-66.6	3.8	1.49e+00	0	33	104	0	73	21905
2026-01-18 03:55:57.16	45.90	2.44	-51.6	-66.6	3.8	1.49e+00	0	33	104	0	73	21874
2026-01-18 03:55:58.17	45.84	2.50	-51.6	-66.6	3.8	1.49e+00	0	33	104	0	73	21823
2026-01-18 03:55:59.18	45.78	2.56	-51.6	-66.6	3.8	1.49e+00	0	34	104	0	73	21773
2026-01-18 03:56:00.19	45.71	2.62	-51.6	-66.6	3.8	1.49e+00	0	34	104	0	73	21828
2026-01-18 03:56:01.19	45.65	2.68	-51.6	-66.6	3.8	1.49e+00	0	34	104	0	73	21768
2026-01-18 03:56:02.20	45.59	2.74	-51.6	-66.6	3.8	1.49e+00	0	34	104	0	73	21759
2026-01-18 03:56:03.21	45.53	2.80	-51.6	-66.6	3.8	1.49e+00	0	33	104	0	73	21799
2026-01-18 03:56:04.22	45.47	2.85	-51.6	-66.6	3.8	1.49e+00	0	34	104	0	73	21765
2026-01-18 03:56:05.23	45.40	2.91	-51.6	-66.5	3.8	1.49e+00	0	34	104	0	73	21711
2026-01-18 03:56:06.24	45.34	2.97	-51.6	-66.5	3.8	1.49e+00	0	34	104	0	73	21721
2026-01-18 03:56:07.25	45.28	3.03	-51.6	-66.6	3.8	1.49e+00	0	34	104	0	73	21772
2026-01-18 03:56:08.25	45.22	3.09	-51.6	-66.6	3.8	1.49e+00	0	33	104	0	73	21789
2026-01-18 03:56:09.26	45.15	3.15	-51.6	-66.5	3.8	1.49e+00	0	34	104	0	73	21708
2026-01-18 03:56:10.27	45.09	3.21	-51.6	-66.5	3.8	1.49e+00	0	34	104	0	73	21649
2026-01-18 03:56:11.28	45.02	3.27	-51.6	-66.5	3.8	1.49e+00	0	34	104	0	73	21611
2026-01-18 03:56:12.29	44.96	3.34	-51.6	-66.5	3.8	1.49e+00	0	34	104	0	73	21553
2026-01-18 03:56:13.29	44.90	3.39	-51.6	-66.5	3.8	1.49e+00	0	34	104	0	73	21607
2026-01-18 03:56:14.30	44.83	3.46	-51.6	-66.5	3.8	1.49e+00	0	34	104	0	73	21662
2026-01-18 03:56:15.31	44.77	3.52	-51.6	-66.5	3.8	1.49e+00	0	34	104	0	73	21709
2026-01-18 03:56:16.32	44.70	3.58	-51.6	-66.6	3.8	1.49e+00	0	34	104	0	73	21821
2026-01-18 03:56:17.33	44.63	3.64	-51.6	-66.6	3.8	1.49e+00	0	34	104	0	73	21798
2026-01-18 03:56:18.33	44.57	3.70	-51.6	-66.5	3.8	1.49e+00	0	34	104	0	73	21586
2026-01-18 03:56:19.34	44.50	3.76	-51.6	-66.3	3.8	1.49e+00	0	34	104	0	73	21247
2026-01-18 03:56:20.35	44.44	3.82	-51.6	-66.0	3.8	1.49e+00	0	34	104	0	73	20536
2026-01-18 03:56:21.36	44.37	3.88	-51.6	-65.6	3.8	1.49e+00	0	34	104	0	73	19559
2026-01-18 03:56:22.36	44.30	3.94	-51.5	-65.0	3.8	1.49e+00	0	34	104	0	73	18136
2026-01-18 03:56:23.37	44.23	4.00	-51.5	-64.4	3.8	1.49e+00	0	34	104	0	73	17077
2026-01-18 03:56:24.38	44.17	4.07	-51.5	-64.0	3.8	1.47e+00	0	34	104	0	73	16172
2026-01-18 03:56:25.39	44.10	4.13	-51.4	-63.3	4.1	1.44e+00	0	34	0	0	73	15015
2026-01-18 03:56:26.40	44.03	4.19	-51.4	-62.8	4.2	1.38e+00	0	34	0	0	73	14094
2026-01-18 03:56:27.41	43.96	4.25	-51.3	-61.9	4.6	1.09e+00	0	34	0	1048576	73	12779
2026-01-18 03:56:28.41	43.89	4.31	-51.3	-61.4	4.8	8.61e-01	0	34	0	3145728	73	12071
2026-01-18 03:56:29.42	43.82	4.38	-51.2	-60.9	5.1	7.03e-01	0	34	0	4194304	73	11311
2026-01-18 03:56:30.43	43.75	4.44	-51.2	-60.9	5.1	6.85e-01	0	34	0	6291456	73	11302
2026-01-18 03:56:31.44	43.68	4.50	-51.2	-60.9	5.1	6.01e-01	0	34	0	8388608	73	11318
2026-01-18 03:56:32.44	43.61	4.56	-51.2	-60.5	5.3	6.81e-01	0	34	0	10485760	73	10796
2026-01-18 03:56:33.45	43.54	4.62	-51.2	-60.8	5.1	6.05e-01	0	34	0	12582912	73	11208
2026-01-18 03:56:34.46	43.47	4.69	-51.2	-60.9	5.0	6.68e-01	0	34	0	13631488	73	11400
2026-01-18 03:56:35.47	43.40	4.75	-51.2	-60.7	5.2	6.38e-01	0	34	0	15728640	73	11083
2026-01-18 03:56:36.48	43.33	4.81	-51.3	-61.9	4.6	6.88e-01	0	34	0	17825792	73	12738
2026-01-18 03:56:37.48	43.26	4.87	-51.4	-62.3	4.4	1.14e+00	144	34	0	19922944	73	13404
2026-01-18 03:56:38.49	43.18	4.94	-51.4	-62.6	4.3	1.18e+00	84	34	0	22020096	73	13793
2026-01-18 03:56:39.50	43.11	5.00	-51.4	-63.5	4.1	1.42e+00	0	34	0	22020096	73	15341
2026-01-18 03:56:40.51	43.04	5.06	-51.4	-60.7	5.1	1.42e+00	0	34	0	22020096	73	11126
2026-01-18 03:56:41.52	42.96	5.13	-51.1	-58.3	7.3	5.23e-02	0	34	0	24117248	73	8443
2026-01-18 03:56:42.53	42.89	5.19	-51.5	-63.6	4.1	3.82e-01	60	34	0	25165824	73	15570
2026-01-18 03:56:43.53	42.82	5.25	-51.5	-62.3	4.4	1.49e+00	27	34	104	25165824	73	13414
2026-01-18 03:56:44.54	42.74	5.32	-51.5	-60.4	6.0	1.02e-02	0	34	0	26214400	73	10762
2026-01-18 03:56:45.54	42.67	5.38	-51.5	-61.2	4.2	1.48e+00	0	35	104	26214400	74	11053
2026-01-18 03:56:46.55	42.59	5.44	-50.5	-55.6	10.2	7.95e-03	0	35	0	26214400	73	6184
2026-01-18 03:56:47.56	42.52	5.51	-50.1	-54.5	11.4	1.03e-03	0	35	0	28311552	72	5737
2026-01-18 03:56:48.57	42.44	5.57	-49.7	-53.6	12.5	2.54e-04	0	35	0	30408704	71	5476
2026-01-18 03:56:49.58	42.37	5.64	-49.4	-52.9	13.2	4.95e-05	0	35	0	32505856	70	5395
2026-01-18 03:56:50.59	42.29	5.70	-49.1	-52.3	13.9	7.60e-06	0	34	0	34603008	70	5034
2026-01-18 03:56:51.59	42.22	5.77	-48.6	-51.4	14.9	0.00e+00	0	35	0	36700160	69	4761
2026-01-18 03:56:52.60	42.14	5.83	-48.7	-51.6	14.7	0.00e+00	0	35	0	37748736	69	4915
2026-01-18 03:56:53.61	42.06	5.89	-48.7	-51.6	14.7	7.00e-07	0	35	0	39845888	69	4879
2026-01-18 03:56:54.62	41.98	5.96	-48.7	-51.6	14.7	0.00e+00	0	35	0	41943040	69	4881
2026-01-18 03:56:55.62	41.91	6.02	-48.7	-51.4	14.9	0.00e+00	0	35	0	44040192	69	4809
2026-01-18 03:56:56.63	41.83	6.09	-48.6	-51.4	15.0	7.00e-07	0	35	0	46137344	69	4779
2026-01-18 03:56:57.64	41.75	6.15	-48.6	-51.3	15.0	0.00e+00	0	35	0	47185920	68	5034
2026-01-18 03:56:58.64	41.67	6.22	-48.6	-51.4	15.0	0.00e+00	0	35	0	49283072	68	5057
2026-01-18 03:56:59.65	41.59	6.28	-48.5	-51.2	15.2	0.00e+00	0	35	0	51380224	68	4958
2026-01-18 03:57:00.66	41.51	6.35	-48.6	-51.3	15.1	0.00e+00	0	35	0	53477376	68	4997
2026-01-18 03:57:01.67	41.43	6.41	-48.6	-51.4	15.1	0.00e+00	0	34	0	54525952	68	5049
2026-01-18 03:57:02.68	41.35	6.48	-48.5	-51.1	15.3	0.00e+00	0	35	0	56623104	68	4908
2026-01-18 03:57:03.68	41.27	6.54	-48.5	-51.2	15.3	0.00e+00	0	35	0	58720256	68	4947
2026-01-18 03:57:04.69	41.19	6.61	-48.3	-50.7	15.7	0.00e+00	0	35	0	60817408	68	4697
2026-01-18 03:57:05.70	41.10	6.68	-48.6	-51.3	15.1	0.00e+00	0	35	0	62914560	68	5041
2026-01-18 03:57:06.70	41.02	6.74	-48.6	-51.2	15.3	0.00e+00	0	35	0	65011712	68	4962
2026-01-18 03:57:07.71	40.94	6.81	-48.7	-51.4	15.0	0.00e+00	0	35	0	66060288	68	5092
2026-01-18 03:57:08.72	40.86	6.87	-48.4	-51.0	15.5	0.00e+00	0	35	0	68157440	68	4842
2026-01-18 03:57:09.73	40.77	6.94	-48.4	-51.0	15.5	0.00e+00	0	35	0	70254592	68	4838
2026-01-18 03:57:10.74	40.69	7.01	-48.5	-51.2	15.4	0.00e+00	0	35	0	72351744	68	4933
2026-01-18 03:57:11.75	40.60	7.07	-48.4	-51.0	15.6	0.00e+00	0	35	0	74448896	68	4821
2026-01-18 03:57:12.75	40.52	7.14	-48.3	-50.8	15.7	0.00e+00	0	35	0	75497472	68	4751
2026-01-18 03:57:13.76	40.44	7.21	-48.3	-50.8	15.7	0.00e+00	0	35	0	77594624	68	4722
2026-01-18 03:57:14.77	40.35	7.27	-48.3	-50.7	15.8	0.00e+00	0	35	0	79691776	68	4702
2026-01-18 03:57:15.78	40.26	7.34	-48.4	-50.9	15.7	0.00e+00	0	35	0	81788928	68	4770
2026-01-18 03:57:16.78	40.18	7.41	-48.2	-50.7	15.9	0.00e+00	0	35	0	82837504	68	4660
2026-01-18 03:57:17.79	40.09	7.48	-48.3	-50.7	15.9	0.00e+00	0	35	0	84934656	68	4670
2026-01-18 03:57:18.80	40.00	7.54	-48.4	-50.9	15.6	0.00e+00	0	35	0	87031808	68	4808
2026-01-18 03:57:19.81	39.92	7.61	-48.4	-50.9	15.7	0.00e+00	0	35	0	89128960	68	4761
2026-01-18 03:57:20.82	39.83	7.68	-48.4	-51.0	15.6	0.00e+00	0	35	0	91226112	68	4827
2026-01-18 03:57:21.82	39.74	7.74	-48.4	-51.0	15.6	0.00e+00	0	35	0	93323264	68	4819
2026-01-18 03:57:22.83	39.65	7.81	-48.5	-51.0	15.6	0.00e+00	0	35	0	94371840	68	4844
2026-01-18 03:57:23.84	39.56	7.88	-48.4	-50.9	15.7	0.00e+00	0	35	0	96468992	68	4810
2026-01-18 03:57:24.85	39.47	7.95	-48.5	-51.1	15.6	0.00e+00	0	35	0	98566144	68	4878
2026-01-18 03:57:25.86	39.38	8.02	-48.4	-50.9	15.7	0.00e+00	0	35	0	100663296	68	4800
2026-01-18 03:57:26.87	39.29	8.09	-48.5	-51.0	15.7	0.00e+00	0	35	0	102760448	68	4833
2026-01-18 03:57:27.87	39.20	8.15	-48.5	-51.0	15.6	0.00e+00	0	35	0	103809024	68	4849
2026-01-18 03:57:28.88	39.11	8.22	-48.5	-51.1	15.6	0.00e+00	0	35	0	105906176	68	4884
2026-01-18 03:57:29.89	39.02	8.29	-48.5	-51.1	15.5	0.00e+00	0	35	0	108003328	68	4894
2026-01-18 03:57:30.90	38.93	8.36	-48.4	-50.9	15.8	0.00e+00	0	35	0	110100480	68	4786
2026-01-18 03:57:31.90	38.83	8.43	-48.4	-50.9	15.8	0.00e+00	0	35	0	112197632	68	4763
2026-01-18 03:57:32.91	38.74	8.50	-48.4	-50.9	15.8	0.00e+00	0	35	0	113246208	68	4771
2026-01-18 03:57:33.92	38.65	8.57	-48.4	-50.9	15.8	0.00e+00	0	35	0	115343360	68	4791
2026-01-18 03:57:34.92	38.55	8.63	-48.5	-51.0	15.7	0.00e+00	0	35	0	117440512	68	4859
2026-01-18 03:57:35.93	38.46	8.70	-48.4	-50.8	15.9	0.00e+00	0	35	0	119537664	68	4731
2026-01-18 03:57:36.94	38.36	8.77	-48.5	-51.0	15.7	0.00e+00	0	35	0	121634816	68	4861
2026-01-18 03:57:37.95	38.27	8.84	-48.4	-50.8	15.9	0.00e+00	0	35	0	122683392	68	4743
2026-01-18 03:57:38.96	38.17	8.91	-48.4	-50.8	15.9	0.00e+00	0	35	0	124780544	68	4733
2026-01-18 03:57:39.96	38.08	8.98	-48.4	-50.8	15.9	0.00e+00	0	35	0	126877696	68	4747
2026-01-18 03:57:40.97	37.98	9.05	-48.4	-50.8	16.0	0.00e+00	0	35	0	128974848	68	4708
2026-01-18 03:57:41.98	37.88	9.12	-48.3	-50.7	16.1	0.00e+00	0	35	0	131072000	68	4660
2026-01-18 03:57:42.99	37.78	9.19	-48.3	-50.7	16.0	0.00e+00	0	35	0	132120576	68	4695
2026-01-18 03:57:44.00	37.69	9.26	-48.2	-50.5	16.2	0.00e+00	0	35	0	134217728	68	4596
2026-01-18 03:57:45.00	37.59	9.33	-48.4	-50.9	15.9	0.00e+00	0	35	0	136314880	68	4775
2026-01-18 03:57:46.01	37.49	9.40	-48.4	-50.8	15.9	0.00e+00	0	35	0	138412032	68	4744
2026-01-18 03:57:47.02	37.39	9.47	-48.3	-50.6	16.1	0.00e+00	0	35	0	140509184	68	4633
2026-01-18 03:57:48.03	37.29	9.54	-48.3	-50.7	16.1	0.00e+00	0	35	0	141557760	68	4663
2026-01-18 03:57:49.04	37.19	9.61	-48.3	-50.7	16.1	0.00e+00	0	35	0	143654912	68	4660
2026-01-18 03:57:50.04	37.09	9.68	-48.2	-50.5	16.2	0.00e+00	0	35	0	145752064	68	4597
2026-01-18 03:57:51.05	36.98	9.76	-48.2	-50.6	16.2	0.00e+00	0	35	0	147849216	68	4604
2026-01-18 03:57:52.06	36.88	9.83	-48.3	-50.7	16.1	0.00e+00	0	35	0	149946368	68	4676
2026-01-18 03:57:53.07	36.78	9.90	-48.2	-50.5	16.3	0.00e+00	0	35	0	150994944	68	4588
2026-01-18 03:57:54.08	36.68	9.97	-48.4	-50.7	16.1	0.00e+00	0	35	0	153092096	68	4688
2026-01-18 03:57:55.09	36.57	10.04	-48.3	-50.6	16.2	0.00e+00	0	35	0	155189248	68	4627
2026-01-18 03:57:56.10	36.47	10.11	-48.4	-50.7	16.1	0.00e+00	0	35	0	157286400	68	4701
2026-01-18 03:57:57.11	36.36	10.18	-48.3	-50.6	16.2	0.00e+00	0	35	0	159383552	68	4620
2026-01-18 03:57:58.12	36.26	10.26	-48.3	-50.6	16.2	0.00e+00	0	35	0	161480704	68	4625
2026-01-18 03:57:59.12	36.15	10.33	-48.3	-50.6	16.3	0.00e+00	0	35	0	162529280	68	4614
2026-01-18 03:58:00.13	36.04	10.40	-48.3	-50.6	16.3	0.00e+00	0	35	0	164626432	68	4613
2026-01-18 03:58:01.14	35.94	10.47	-48.3	-50.6	16.3	0.00e+00	0	35	0	166723584	68	4602
2026-01-18 03:58:02.15	35.83	10.54	-48.3	-50.5	16.3	0.00e+00	0	35	0	168820736	68	4597
2026-01-18 03:58:03.16	35.72	10.62	-48.2	-50.4	16.4	0.00e+00	0	35	0	169869312	68	4527
2026-01-18 03:58:04.17	35.61	10.69	-48.2	-50.5	16.4	0.00e+00	0	35	0	171966464	68	4546
2026-01-18 03:58:05.17	35.50	10.76	-48.1	-50.3	16.6	0.00e+00	0	35	0	174063616	68	4458
2026-01-18 03:58:06.18	35.39	10.83	-48.0	-50.1	16.7	0.00e+00	0	35	0	176160768	68	4390
2026-01-18 03:58:07.19	35.28	10.91	-47.8	-49.9	16.8	0.00e+00	0	35	0	178257920	67	4527
2026-01-18 03:58:08.20	35.17	10.98	-47.8	-49.9	16.8	0.00e+00	0	35	0	180355072	67	4533
2026-01-18 03:58:09.20	35.06	11.05	-47.8	-49.8	16.9	0.00e+00	0	35	0	181403648	67	4485
2026-01-18 03:58:10.21	34.95	11.12	-47.8	-49.9	16.9	0.00e+00	0	35	0	183500800	67	4496
2026-01-18 03:58:11.22	34.83	11.20	-47.6	-49.5	17.2	0.00e+00	0	35	0	185597952	67	4336
2026-01-18 03:58:12.23	34.72	11.27	-47.6	-49.6	17.3	0.00e+00	0	35	0	187695104	67	4343
2026-01-18 03:58:13.23	34.61	11.34	-47.7	-49.7	17.1	0.00e+00	0	35	0	189792256	67	4399
2026-01-18 03:58:14.24	34.49	11.42	-47.8	-49.8	17.0	0.00e+00	0	35	0	190840832	67	4493
2026-01-18 03:58:15.24	34.38	11.49	-47.7	-49.8	17.0	0.00e+00	0	35	0	192937984	67	4468
2026-01-18 03:58:16.25	34.26	11.56	-47.9	-50.0	16.8	0.00e+00	0	35	0	195035136	67	4584
2026-01-18 03:58:17.26	34.15	11.64	-47.7	-49.7	17.1	0.00e+00	0	35	0	197132288	67	4427
2026-01-18 03:58:18.27	34.03	11.71	-47.8	-49.9	16.9	0.00e+00	0	35	0	198180864	67	4521
2026-01-18 03:58:19.27	33.91	11.79	-47.7	-49.8	17.1	0.00e+00	0	35	0	200278016	67	4455
2026-01-18 03:58:20.28	33.79	11.86	-47.8	-49.9	17.0	0.00e+00	0	35	0	202375168	67	4516
2026-01-18 03:58:21.29	33.68	11.93	-47.9	-50.0	16.9	0.00e+00	0	35	0	204472320	67	4550
2026-01-18 03:58:22.30	33.56	12.01	-47.8	-49.9	17.0	0.00e+00	0	35	0	206569472	67	4504
2026-01-18 03:58:23.31	33.44	12.08	-47.8	-49.9	16.9	0.00e+00	0	35	0	208666624	67	4532
2026-01-18 03:58:24.32	33.32	12.16	-47.7	-49.8	17.1	0.00e+00	0	35	0	209715200	67	4452
2026-01-18 03:58:25.32	33.20	12.23	-47.9	-50.0	16.8	0.00e+00	0	35	0	211812352	67	4582
2026-01-18 03:58:26.33	33.07	12.31	-47.9	-50.0	16.8	0.00e+00	0	35	0	213909504	67	4597
2026-01-18 03:58:27.34	32.95	12.38	-47.8	-49.9	17.0	0.00e+00	0	35	0	216006656	67	4501
2026-01-18 03:58:28.35	32.83	12.46	-47.7	-49.8	17.1	0.00e+00	0	35	0	218103808	67	4455
2026-01-18 03:58:29.36	32.70	12.53	-47.8	-49.9	17.0	0.00e+00	0	35	0	219152384	67	4511
2026-01-18 03:58:30.37	32.58	12.61	-47.8	-49.9	17.0	0.00e+00	0	35	0	221249536	67	4520
2026-01-18 03:58:31.38	32.45	12.68	-47.8	-49.9	17.0	0.00e+00	0	35	0	223346688	67	4525
2026-01-18 03:58:32.38	32.33	12.76	-47.7	-49.7	17.2	0.00e+00	0	35	0	225443840	67	4398
2026-01-18 03:58:33.39	32.20	12.83	-47.6	-49.5	17.3	0.00e+00	0	35	0	226492416	67	4334
2026-01-18 03:58:34.40	32.07	12.91	-47.6	-49.6	17.2	0.00e+00	0	35	0	228589568	67	4387
2026-01-18 03:58:35.40	31.95	12.98	-47.5	-49.5	17.5	0.00e+00	0	35	0	230686720	67	4305
2026-01-18 03:58:36.41	31.82	13.06	-47.6	-49.6	17.4	0.00e+00	0	35	0	232783872	67	4350
2026-01-18 03:58:37.42	31.69	13.13	-47.6	-49.5	17.4	0.00e+00	0	35	0	234881024	67	4335
2026-01-18 03:58:38.43	31.56	13.21	-47.6	-49.6	17.3	0.00e+00	0	35	0	236978176	67	4348
2026-01-18 03:58:39.43	31.43	13.29	-47.7	-49.7	17.2	0.00e+00	0	35	0	238026752	67	4402
2026-01-18 03:58:40.44	31.30	13.36	-47.6	-49.5	17.4	0.00e+00	0	35	0	240123904	67	4311
2026-01-18 03:58:41.45	31.17	13.44	-47.6	-49.6	17.4	0.00e+00	0	35	0	242221056	67	4359
2026-01-18 03:58:42.46	31.03	13.51	-47.6	-49.5	17.4	0.00e+00	0	35	0	244318208	67	4315
2026-01-18 03:58:43.47	30.90	13.59	-47.5	-49.4	17.6	0.00e+00	0	35	0	246415360	66	4526
2026-01-18 03:58:44.47	30.77	13.67	-47.5	-49.5	17.5	0.00e+00	0	35	0	247463936	66	4563
2026-01-18 03:58:45.48	30.63	13.74	-47.6	-49.5	17.4	0.00e+00	0	35	0	249561088	66	4573
2026-01-18 03:58:46.49	30.50	13.82	-47.6	-49.6	17.4	0.00e+00	0	35	0	251658240	66	4617
2026-01-18 03:58:47.49	30.36	13.90	-47.4	-49.3	17.6	0.00e+00	0	35	0	253755392	66	4493
2026-01-18 03:58:48.50	30.23	13.97	-47.4	-49.3	17.7	0.00e+00	0	35	0	255852544	66	4467
2026-01-18 03:58:49.51	30.09	14.05	-47.3	-49.2	17.8	0.00e+00	0	35	0	256901120	66	4396
2026-01-18 03:58:50.52	29.95	14.13	-47.4	-49.3	17.6	0.00e+00	0	35	0	258998272	66	4470
2026-01-18 03:58:51.52	29.81	14.20	-47.2	-49.0	18.0	0.00e+00	0	35	0	261095424	66	4334
2026-01-18 03:58:52.53	29.67	14.28	-47.2	-49.0	17.9	0.00e+00	0	35	0	263192576	66	4327
2026-01-18 03:58:53.54	29.53	14.36	-47.3	-49.1	17.9	0.00e+00	0	35	0	265289728	66	4360
2026-01-18 03:58:54.55	29.39	14.43	-47.3	-49.1	17.9	0.00e+00	0	35	0	266338304	66	4366
2026-01-18 03:58:55.56	29.25	14.51	-47.3	-49.1	17.9	0.00e+00	0	35	0	268435456	66	4355
2026-01-18 03:58:56.57	29.10	14.59	-47.3	-49.2	17.8	0.00e+00	0	35	0	270532608	66	4405
2026-01-18 03:58:57.57	28.96	14.67	-47.3	-49.1	17.9	0.00e+00	0	35	0	272629760	66	4352
2026-01-18 03:58:58.58	28.82	14.74	-47.3	-49.2	17.8	0.00e+00	0	35	0	274726912	66	4409
2026-01-18 03:58:59.59	28.67	14.82	-47.2	-49.0	18.0	0.00e+00	0	35	0	275775488	66	4334
2026-01-18 03:59:00.60	28.53	14.90	-47.2	-49.0	18.0	0.00e+00	0	35	0	277872640	66	4314
2026-01-18 03:59:01.60	28.38	14.97	-47.2	-49.0	17.9	0.00e+00	0	35	0	279969792	66	4338
2026-01-18 03:59:02.61	28.23	15.05	-47.4	-49.2	17.8	0.00e+00	0	35	0	282066944	66	4416
2026-01-18 03:59:03.62	28.09	15.13	-47.4	-49.3	17.7	0.00e+00	0	35	0	284164096	66	4471
2026-01-18 03:59:04.63	27.94	15.21	-47.5	-49.4	17.6	0.00e+00	0	35	0	285212672	66	4514
2026-01-18 03:59:05.64	27.79	15.29	-47.2	-49.0	18.0	0.00e+00	0	35	0	287309824	66	4303
2026-01-18 03:59:06.64	27.64	15.36	-47.1	-48.9	18.1	0.00e+00	0	35	0	289406976	66	4256
2026-01-18 03:59:07.65	27.49	15.44	-47.1	-48.8	18.2	0.00e+00	0	35	0	291504128	66	4226
2026-01-18 03:59:08.66	27.33	15.52	-46.9	-48.6	18.3	0.00e+00	0	35	0	293601280	65	4390
2026-01-18 03:59:09.67	27.18	15.60	-47.0	-48.7	18.3	0.00e+00	0	35	0	294649856	65	4418
2026-01-18 03:59:10.68	27.03	15.68	-47.0	-48.8	18.2	0.00e+00	0	35	0	296747008	65	4449
2026-01-18 03:59:11.69	26.87	15.75	-47.1	-48.8	18.2	0.00e+00	0	35	0	298844160	65	4478
2026-01-18 03:59:12.69	26.72	15.83	-47.0	-48.7	18.3	0.00e+00	0	35	0	300941312	65	4429
2026-01-18 03:59:13.70	26.56	15.91	-47.0	-48.7	18.3	0.00e+00	0	35	0	303038464	65	4428
2026-01-18 03:59:14.71	26.40	15.99	-47.0	-48.7	18.3	0.00e+00	0	35	0	304087040	65	4432
2026-01-18 03:59:15.71	26.25	16.06	-47.1	-48.8	18.2	0.00e+00	0	35	0	306184192	65	4464
2026-01-18 03:59:16.72	26.09	16.14	-47.1	-48.9	18.2	0.00e+00	0	35	0	308281344	65	4494
2026-01-18 03:59:17.73	25.93	16.22	-47.0	-48.7	18.3	0.00e+00	0	35	0	310378496	65	4415
2026-01-18 03:59:18.74	25.77	16.30	-47.1	-48.9	18.1	0.00e+00	0	35	0	312475648	65	4525
2026-01-18 03:59:19.74	25.61	16.38	-47.1	-48.9	18.1	0.00e+00	0	35	0	313524224	65	4500
2026-01-18 03:59:20.75	25.45	16.46	-47.2	-48.9	18.1	0.00e+00	0	35	0	315621376	65	4544
2026-01-18 03:59:21.76	25.28	16.53	-47.2	-48.9	18.1	0.00e+00	0	35	0	317718528	65	4526
2026-01-18 03:59:22.77	25.12	16.61	-47.2	-49.0	18.0	0.00e+00	0	35	0	319815680	65	4594
2026-01-18 03:59:23.78	24.95	16.69	-47.3	-49.1	18.0	0.00e+00	0	35	0	321912832	65	4601
2026-01-18 03:59:24.79	24.79	16.77	-47.3	-49.1	17.9	0.00e+00	0	35	0	322961408	65	4645
2026-01-18 03:59:25.79	24.62	16.85	-47.3	-49.1	17.9	0.00e+00	0	35	0	325058560	65	4632
2026-01-18 03:59:26.80	24.46	16.92	-47.3	-49.0	18.0	0.00e+00	0	35	0	327155712	65	4593
2026-01-18 03:59:27.81	24.29	17.00	-47.2	-49.0	18.0	0.00e+00	0	35	0	329252864	65	4580
2026-01-18 03:59:28.82	24.12	17.08	-47.3	-49.1	17.9	0.00e+00	0	35	0	331350016	65	4622
2026-01-18 03:59:29.83	23.95	17.16	-47.3	-49.0	18.0	0.00e+00	0	35	0	332398592	65	4588
2026-01-18 03:59:30.83	23.78	17.24	-47.4	-49.2	17.9	0.00e+00	0	35	0	334495744	65	4671
2026-01-18 03:59:31.84	23.61	17.32	-47.3	-49.1	18.0	0.00e+00	0	35	0	336592896	65	4625
2026-01-18 03:59:32.85	23.43	17.39	-47.4	-49.2	17.9	0.00e+00	0	35	0	338690048	65	4692
2026-01-18 03:59:33.86	23.26	17.47	-47.4	-49.2	17.9	0.00e+00	0	35	0	340787200	65	4669
2026-01-18 03:59:34.86	23.09	17.55	-47.4	-49.2	17.9	0.00e+00	0	35	0	341835776	65	4688
2026-01-18 03:59:35.87	22.91	17.63	-47.4	-49.3	17.8	0.00e+00	0	35	0	343932928	65	4711
2026-01-18 03:59:36.88	22.73	17.71	-47.3	-49.1	18.0	0.00e+00	0	35	0	346030080	65	4613
2026-01-18 03:59:37.88	22.56	17.78	-47.3	-49.1	17.9	0.00e+00	0	35	0	348127232	65	4643
2026-01-18 03:59:38.89	22.38	17.86	-47.4	-49.2	17.9	0.00e+00	0	35	0	350224384	65	4667
2026-01-18 03:59:39.90	22.20	17.94	-47.4	-49.3	17.8	0.00e+00	0	35	0	352321536	65	4713
2026-01-18 03:59:40.91	22.02	18.02	-47.2	-49.0	18.1	0.00e+00	0	35	0	353370112	65	4584
2026-01-18 03:59:41.91	21.84	18.09	-47.3	-49.1	18.0	0.00e+00	0	35	0	355467264	65	4643
2026-01-18 03:59:42.92	21.66	18.17	-47.4	-49.2	17.9	0.00e+00	0	35	0	357564416	65	4674
2026-01-18 03:59:43.93	21.47	18.25	-47.4	-49.2	17.9	0.00e+00	0	35	0	359661568	65	4681
2026-01-18 03:59:44.94	21.29	18.33	-47.5	-49.3	17.8	0.00e+00	0	35	0	360710144	65	4758
2026-01-18 03:59:45.94	21.11	18.40	-47.5	-49.4	17.7	0.00e+00	0	35	0	362807296	65	4801
2026-01-18 03:59:46.95	20.92	18.48	-47.6	-49.5	17.6	0.00e+00	0	35	0	364904448	65	4864
2026-01-18 03:59:47.96	20.73	18.56	-47.6	-49.5	17.6	0.00e+00	0	35	0	367001600	65	4841
2026-01-18 03:59:48.97	20.55	18.64	-47.6	-49.5	17.6	0.00e+00	0	35	0	369098752	65	4863
2026-01-18 03:59:49.98	20.36	18.71	-47.5	-49.3	17.8	0.00e+00	0	35	0	370147328	65	4734
2026-01-18 03:59:50.98	20.17	18.79	-47.5	-49.3	17.9	0.00e+00	0	35	0	372244480	65	4729
2026-01-18 03:59:51.99	19.98	18.87	-47.5	-49.3	17.8	0.00e+00	0	35	0	374341632	65	4752
2026-01-18 03:59:53.00	19.79	18.95	-47.4	-49.2	17.9	0.00e+00	0	35	0	376438784	65	4670
2026-01-18 03:59:54.01	19.59	19.02	-47.3	-49.1	18.0	0.00e+00	0	35	0	378535936	65	4636
2026-01-18 03:59:55.01	19.40	19.10	-47.3	-49.1	18.0	0.00e+00	0	35	0	380633088	65	4620
2026-01-18 03:59:56.02	19.21	19.18	-47.3	-49.0	18.1	0.00e+00	0	35	0	381681664	65	4576
2026-01-18 03:59:57.03	19.01	19.25	-47.2	-48.9	18.2	0.00e+00	0	35	0	383778816	65	4543
2026-01-18 03:59:58.04	18.81	19.33	-47.2	-49.0	18.2	0.00e+00	0	35	0	385875968	65	4567
2026-01-18 03:59:59.04	18.62	19.40	-47.2	-49.0	18.1	0.00e+00	0	35	0	387973120	65	4574
2026-01-18 04:00:00.05	18.42	19.48	-47.3	-49.0	18.1	0.00e+00	0	35	0	389021696	65	4597
2026-01-18 04:00:01.06	18.22	19.56	-47.2	-49.0	18.2	0.00e+00	0	35	0	391118848	65	4552
2026-01-18 04:00:02.07	18.02	19.63	-47.1	-48.8	18.4	0.00e+00	0	35	0	393216000	65	4479
2026-01-18 04:00:03.08	17.82	19.71	-47.1	-48.8	18.4	0.00e+00	0	35	0	395313152	65	4457
2026-01-18 04:00:04.09	17.61	19.79	-47.1	-48.8	18.3	0.00e+00	0	35	0	397410304	65	4481
2026-01-18 04:00:05.09	17.41	19.86	-47.0	-48.7	18.4	0.00e+00	0	35	0	399507456	65	4431
2026-01-18 04:00:06.10	17.21	19.94	-47.1	-48.8	18.3	0.00e+00	0	35	0	400556032	65	4490
2026-01-18 04:00:07.11	17.00	20.01	-47.0	-48.6	18.5	0.00e+00	0	35	0	402653184	65	4390
2026-01-18 04:00:08.11	16.80	20.09	-46.8	-48.5	18.7	0.00e+00	0	35	0	404750336	65	4294
2026-01-18 04:00:09.12	16.59	20.16	-46.9	-48.5	18.7	0.00e+00	0	35	0	406847488	65	4309
2026-01-18 04:00:10.13	16.38	20.24	-46.7	-48.3	18.9	0.00e+00	0	35	0	408944640	65	4210
2026-01-18 04:00:11.14	16.17	20.31	-46.7	-48.3	18.8	0.00e+00	0	35	0	409993216	65	4241
2026-01-18 04:00:12.15	15.96	20.38	-46.6	-48.1	19.0	0.00e+00	0	35	0	412090368	65	4134
2026-01-18 04:00:13.15	15.75	20.46	-46.5	-48.1	19.1	0.00e+00	0	35	0	414187520	65	4108
2026-01-18 04:00:14.16	15.53	20.53	-46.4	-47.9	19.3	0.00e+00	0	35	0	416284672	64	4264
2026-01-18 04:00:15.17	15.32	20.61	-46.3	-47.8	19.3	0.00e+00	0	35	0	417333248	64	4227
2026-01-18 04:00:16.18	15.10	20.68	-46.4	-47.9	19.3	0.00e+00	0	35	0	419430400	64	4258
2026-01-18 04:00:17.19	14.89	20.75	-46.1	-47.5	19.7	0.00e+00	0	35	0	421527552	64	4067
2026-01-18 04:00:18.19	14.67	20.83	-45.9	-47.3	19.9	0.00e+00	0	35	0	423624704	63	4226
2026-01-18 04:00:19.20	14.45	20.90	-45.9	-47.3	19.9	0.00e+00	0	35	0	425721856	63	4239
2026-01-18 04:00:20.21	14.23	20.97	-46.0	-47.4	19.8	0.00e+00	0	35	0	427819008	63	4288
2026-01-18 04:00:21.22	14.01	21.04	-45.8	-47.2	20.1	0.00e+00	0	35	0	428867584	63	4148
2026-01-18 04:00:22.22	13.79	21.11	-45.8	-47.2	20.0	0.00e+00	0	35	0	430964736	63	4172
2026-01-18 04:00:23.24	13.57	21.19	-45.7	-47.0	20.2	0.00e+00	0	35	0	433061888	63	4097
2026-01-18 04:00:24.24	13.35	21.26	-45.7	-47.0	20.2	0.00e+00	0	35	0	435159040	63	4093
2026-01-18 04:00:25.25	13.12	21.33	-45.7	-47.1	20.2	0.00e+00	0	35	0	437256192	63	4114
2026-01-18 04:00:26.26	12.90	21.40	-45.7	-47.1	20.1	0.00e+00	0	35	0	438304768	63	4123
2026-01-18 04:00:27.27	12.67	21.47	-45.7	-47.1	20.1	0.00e+00	0	35	0	440401920	63	4116
2026-01-18 04:00:28.27	12.45	21.54	-45.8	-47.1	20.1	0.00e+00	0	35	0	442499072	63	4131
2026-01-18 04:00:29.28	12.22	21.61	-45.7	-47.0	20.2	0.00e+00	0	35	0	444596224	63	4080
2026-01-18 04:00:30.28	11.99	21.68	-45.6	-47.0	20.3	0.00e+00	0	35	0	445644800	63	4055
2026-01-18 04:00:31.29	11.76	21.75	-45.6	-46.9	20.3	0.00e+00	0	35	0	447741952	63	4039
2026-01-18 04:00:32.30	11.53	21.82	-45.5	-46.9	20.4	0.00e+00	0	35	0	449839104	63	4005
2026-01-18 04:00:33.31	11.29	21.89	-45.7	-47.0	20.2	0.00e+00	0	35	0	451936256	63	4081
2026-01-18 04:00:34.32	11.06	21.96	-45.6	-46.9	20.3	0.00e+00	0	35	0	454033408	63	4050
2026-01-18 04:00:35.33	10.82	22.03	-45.6	-47.0	20.3	0.00e+00	0	35	0	456130560	63	4054
2026-01-18 04:00:36.33	10.59	22.09	-45.5	-46.8	20.4	0.00e+00	0	35	0	457179136	63	3999
2026-01-18 04:00:37.34	10.35	22.16	-45.5	-46.9	20.4	0.00e+00	0	35	0	459276288	63	4009
2026-01-18 04:00:38.35	10.11	22.23	-45.5	-46.8	20.4	0.00e+00	0	35	0	461373440	63	4001
2026-01-18 04:00:39.36	9.87	22.30	-45.5	-46.8	20.5	0.00e+00	0	35	0	463470592	63	3981
2026-01-18 04:00:40.37	9.63	22.36	-45.6	-46.9	20.3	0.00e+00	0	35	0	465567744	62	4260
2026-01-18 04:00:41.37	9.40	22.43	-45.5	-46.8	20.5	0.00e+00	0	35	0	466616320	62	4200
2026-01-18 04:00:42.38	9.15	22.50	-45.4	-46.7	20.6	0.00e+00	0	35	0	468713472	62	4167
2026-01-18 04:00:43.39	8.91	22.56	-45.4	-46.7	20.5	0.00e+00	0	35	0	470810624	62	4169
2026-01-18 04:00:44.40	8.66	22.63	-45.4	-46.7	20.5	0.00e+00	0	35	0	472907776	62	4165
2026-01-18 04:00:45.41	8.42	22.69	-45.6	-46.9	20.3	0.00e+00	0	35	0	475004928	62	4272
2026-01-18 04:00:46.41	8.17	22.75	-45.6	-46.9	20.3	0.00e+00	0	35	0	476053504	62	4286
2026-01-18 04:00:47.42	7.93	22.82	-45.7	-47.1	20.2	0.00e+00	0	35	0	478150656	62	4353
2026-01-18 04:00:48.43	7.68	22.88	-45.8	-47.1	20.2	0.00e+00	0	35	0	480247808	62	4370
2026-01-18 04:00:49.44	7.43	22.95	-45.8	-47.1	20.1	0.00e+00	0	35	0	482344960	62	4385
2026-01-18 04:00:50.44	7.18	23.01	-45.6	-46.9	20.3	0.00e+00	0	35	0	484442112	62	4286
2026-01-18 04:00:51.45	6.93	23.07	-45.6	-47.0	20.4	0.00e+00	0	35	0	485490688	62	4292
2026-01-18 04:00:52.46	6.68	23.13	-45.6	-46.9	20.4	0.00e+00	0	35	0	487587840	62	4263
2026-01-18 04:00:53.47	6.42	23.19	-45.6	-46.9	20.3	0.00e+00	0	35	0	489684992	62	4287
2026-01-18 04:00:54.48	6.17	23.25	-45.7	-47.1	20.2	0.00e+00	0	35	0	491782144	62	4354
2026-01-18 04:00:55.49	5.91	23.31	-45.9	-47.2	20.1	0.00e+00	0	35	0	493879296	62	4424
2026-01-18 04:00:56.50	5.66	23.37	-45.8	-47.2	20.1	0.00e+00	0	35	0	495976448	62	4402
2026-01-18 04:00:57.51	5.40	23.43	-45.6	-46.9	20.2	0.00e+00	0	35	0	497025024	62	4290
2026-01-18 04:00:58.51	5.14	23.49	-45.4	-46.6	20.6	0.00e+00	0	35	0	499122176	62	4137
2026-01-18 04:00:59.52	4.88	23.55	-45.4	-46.7	20.6	0.00e+00	0	35	0	501219328	62	4166
2026-01-18 04:01:00.53	4.62	23.61	-45.4	-46.7	20.6	0.00e+00	0	35	0	503316480	62	4174
2026-01-18 04:01:01.54	4.36	23.67	-45.5	-46.7	20.5	0.00e+00	0	35	0	504365056	62	4181
2026-01-18 04:01:02.54	4.10	23.72	-45.4	-46.7	20.6	0.00e+00	0	35	0	506462208	62	4171
2026-01-18 04:01:03.55	3.84	23.78	-45.3	-46.6	20.7	0.00e+00	0	35	0	508559360	62	4126
2026-01-18 04:01:04.56	3.57	23.83	-45.3	-46.6	20.7	0.00e+00	0	35	0	510656512	62	4115
2026-01-18 04:01:05.57	3.31	23.89	-45.6	-46.9	20.4	0.00e+00	0	35	0	512753664	62	4261
2026-01-18 04:01:06.58	3.04	23.94	-45.5	-46.8	20.5	0.00e+00	0	35	0	513802240	62	4200
2026-01-18 04:01:07.58	2.77	24.00	-45.5	-46.8	20.5	0.00e+00	0	35	0	515899392	62	4237
2026-01-18 04:01:08.59	2.51	24.05	-45.5	-46.7	20.5	0.00e+00	0	35	0	517996544	62	4187
2026-01-18 04:01:09.60	2.24	24.10	-45.3	-46.6	20.7	0.00e+00	0	35	0	520093696	62	4120
2026-01-18 04:01:10.61	1.97	24.16	-45.2	-46.4	20.8	0.00e+00	0	35	0	522190848	62	4037
2026-01-18 04:01:11.62	1.70	24.21	-45.2	-46.5	20.8	0.00e+00	0	35	0	524288000	62	4059
2026-01-18 04:01:12.62	1.43	24.26	-45.3	-46.6	20.8	0.00e+00	0	35	0	525336576	62	4100
2026-01-18 04:01:13.63	1.15	24.31	-45.2	-46.5	20.8	0.00e+00	0	35	0	527433728	62	4069
2026-01-18 04:01:14.64	0.88	24.36	-45.2	-46.4	20.8	0.00e+00	0	35	0	529530880	62	4037
2026-01-18 04:01:15.65	0.61	24.41	-44.9	-46.1	21.1	0.00e+00	0	35	0	531628032	61	4129
2026-01-18 04:01:16.65	0.33	24.46	-44.9	-46.1	21.2	0.00e+00	0	35	0	532676608	61	4127
2026-01-18 04:01:17.66	0.06	24.51	-44.9	-46.1	21.1	0.00e+00	0	35	0	534773760	61	4141
2026-01-18 04:01:18.67	359.78	24.55	-45.2	-46.4	20.9	0.00e+00	0	35	0	536870912	61	4276
2026-01-18 04:01:19.68	359.50	24.60	-45.4	-46.7	20.6	0.00e+00	0	35	0	538968064	61	4396
2026-01-18 04:01:20.69	359.22	24.65	-45.6	-46.9	20.4	0.00e+00	0	35	0	541065216	61	4499
2026-01-18 04:01:21.70	358.94	24.69	-45.6	-46.9	20.4	0.00e+00	0	35	0	543162368	61	4511
2026-01-18 04:01:22.70	358.67	24.74	-45.7	-47.0	20.3	0.00e+00	0	35	0	544210944	61	4582
2026-01-18 04:01:23.71	358.38	24.78	-45.7	-47.0	20.3	0.00e+00	0	35	0	546308096	61	4579
2026-01-18 04:01:24.72	358.10	24.82	-45.7	-47.0	20.3	0.00e+00	0	35	0	548405248	62	4335
2026-01-18 04:01:25.72	357.82	24.87	-45.9	-47.2	20.1	0.00e+00	0	35	0	550502400	62	4433
2026-01-18 04:01:26.73	357.54	24.91	-46.0	-47.3	20.0	0.00e+00	0	35	0	552599552	62	4477
2026-01-18 04:01:27.74	357.26	24.95	-46.0	-47.3	19.9	0.00e+00	0	35	0	553648128	62	4478
2026-01-18 04:01:28.75	356.97	24.99	-46.0	-47.3	20.0	0.00e+00	0	35	0	555745280	62	4475
2026-01-18 04:01:29.76	356.68	25.03	-46.0	-47.3	20.0	0.00e+00	0	35	0	557842432	62	4485
2026-01-18 04:01:30.77	356.40	25.07	-46.0	-47.4	20.0	0.00e+00	0	35	0	559939584	62	4519
2026-01-18 04:01:31.77	356.11	25.11	-46.2	-47.7	19.7	0.00e+00	0	35	0	560988160	63	4404
2026-01-18 04:01:32.78	355.83	25.15	-46.3	-47.7	19.6	0.00e+00	0	35	0	563085312	63	4430
2026-01-18 04:01:33.79	355.54	25.18	-46.4	-47.9	19.5	0.00e+00	0	35	0	565182464	63	4519
2026-01-18 04:01:34.80	355.25	25.22	-46.3	-47.7	19.7	0.00e+00	0	35	0	567279616	63	4411
2026-01-18 04:01:35.80	354.96	25.25	-46.2	-47.6	19.8	0.00e+00	0	35	0	569376768	63	4376
2026-01-18 04:01:36.81	354.67	25.29	-46.3	-47.8	19.6	0.00e+00	0	35	0	571473920	63	4452
2026-01-18 04:01:37.82	354.38	25.32	-46.4	-47.9	19.5	0.00e+00	0	35	0	572522496	63	4496
2026-01-18 04:01:38.83	354.09	25.36	-46.7	-48.2	19.3	0.00e+00	0	35	0	574619648	63	4671
2026-01-18 04:01:39.84	353.79	25.39	-46.6	-48.2	19.1	0.00e+00	0	35	0	576716800	64	4412
2026-01-18 04:01:40.85	353.50	25.42	-46.7	-48.2	19.1	0.00e+00	0	35	0	578813952	64	4423
2026-01-18 04:01:41.85	353.21	25.45	-46.6	-48.2	19.1	0.00e+00	0	35	0	580911104	64	4396
2026-01-18 04:01:42.86	352.92	25.48	-46.7	-48.3	19.1	0.00e+00	0	35	0	581959680	64	4442
2026-01-18 04:01:43.87	352.62	25.51	-46.8	-48.4	18.9	0.00e+00	0	35	0	584056832	64	4512
2026-01-18 04:01:44.88	352.33	25.54	-47.0	-48.6	18.7	0.00e+00	0	35	0	586153984	64	4625
2026-01-18 04:01:45.89	352.03	25.57	-47.0	-48.7	18.6	0.00e+00	0	35	0	588251136	64	4678
2026-01-18 04:01:46.90	351.73	25.59	-47.0	-48.6	18.6	0.00e+00	0	35	0	590348288	64	4644
2026-01-18 04:01:47.90	351.44	25.62	-47.0	-48.7	18.7	0.00e+00	0	35	0	591396864	64	4653
2026-01-18 04:01:48.91	351.14	25.64	-46.9	-48.6	18.7	0.00e+00	0	35	0	593494016	64	4603
2026-01-18 04:01:49.92	350.85	25.67	-47.0	-48.6	18.7	0.00e+00	0	35	0	595591168	64	4621
2026-01-18 04:01:50.93	350.55	25.69	-47.0	-48.6	18.7	0.00e+00	0	35	0	597688320	64	4614
2026-01-18 04:01:51.94	350.25	25.72	-47.0	-48.6	18.8	0.00e+00	0	35	0	599785472	64	4617
2026-01-18 04:01:52.95	349.95	25.74	-47.1	-48.7	18.6	0.00e+00	0	35	0	600834048	64	4682
2026-01-18 04:01:53.95	349.65	25.76	-47.0	-48.7	18.7	0.00e+00	0	35	0	602931200	64	4655
2026-01-18 04:01:54.96	349.35	25.78	-47.1	-48.8	18.6	0.00e+00	0	36	0	605028352	64	4719
2026-01-18 04:01:55.97	349.05	25.80	-47.2	-48.9	18.5	0.00e+00	0	35	0	607125504	64	4761
2026-01-18 04:01:56.98	348.75	25.82	-47.1	-48.8	18.5	0.00e+00	0	35	0	609222656	64	4727
2026-01-18 04:01:57.99	348.45	25.83	-47.2	-48.9	18.5	0.00e+00	0	35	0	610271232	65	4514
2026-01-18 04:01:58.99	348.15	25.85	-47.2	-48.8	18.5	0.00e+00	0	35	0	612368384	65	4477
2026-01-18 04:02:00.00	347.85	25.87	-47.2	-48.8	18.5	0.00e+00	0	35	0	614465536	65	4480
2026-01-18 04:02:01.01	347.55	25.88	-47.2	-48.9	18.5	0.00e+00	0	35	0	616562688	65	4494
2026-01-18 04:02:02.02	347.25	25.90	-47.1	-48.7	18.7	0.00e+00	0	35	0	618659840	65	4430
2026-01-18 04:02:03.02	346.95	25.91	-47.1	-48.8	18.6	0.00e+00	0	35	0	619708416	65	4447
2026-01-18 04:02:04.03	346.64	25.92	-47.1	-48.8	18.5	0.00e+00	0	35	0	621805568	65	4459
2026-01-18 04:02:05.04	346.34	25.93	-46.9	-48.6	18.8	0.00e+00	0	35	0	623902720	65	4343
2026-01-18 04:02:06.05	346.04	25.95	-47.1	-48.7	18.6	0.00e+00	0	35	0	625999872	65	4424
2026-01-18 04:02:07.06	345.73	25.96	-47.2	-48.9	18.5	0.00e+00	0	35	0	628097024	65	4508
2026-01-18 04:02:08.06	345.43	25.96	-47.3	-49.1	18.2	0.00e+00	0	35	0	629145600	65	4601
2026-01-18 04:02:09.07	345.13	25.97	-47.4	-49.2	18.2	0.00e+00	0	35	0	631242752	65	4668
2026-01-18 04:02:10.08	344.83	25.98	-47.5	-49.3	18.1	0.00e+00	0	35	0	633339904	65	4719
2026-01-18 04:02:11.09	344.52	25.99	-47.4	-49.1	18.2	0.00e+00	0	35	0	635437056	65	4638
2026-01-18 04:02:12.09	344.22	25.99	-47.2	-48.9	18.5	0.00e+00	0	35	0	637534208	65	4514
2026-01-18 04:02:13.10	343.92	26.00	-47.2	-48.8	18.5	0.00e+00	0	35	0	638582784	65	4491
2026-01-18 04:02:14.11	343.61	26.00	-46.9	-48.5	18.9	0.00e+00	0	35	0	640679936	65	4294
2026-01-18 04:02:15.12	343.31	26.00	-46.9	-48.5	18.8	0.00e+00	0	35	0	642777088	65	4335
2026-01-18 04:02:16.13	343.00	26.00	-46.9	-48.5	18.8	0.00e+00	0	35	0	644874240	65	4339
2026-01-18 04:02:17.13	342.70	26.01	-46.8	-48.4	19.0	0.00e+00	0	35	0	646971392	65	4253
2026-01-18 04:02:18.14	342.40	26.01	-46.9	-48.5	18.9	0.00e+00	0	35	0	648019968	65	4317
2026-01-18 04:02:19.15	342.09	26.01	-47.0	-48.6	18.8	0.00e+00	0	35	0	650117120	65	4348
2026-01-18 04:02:20.16	341.79	26.00	-46.9	-48.5	18.8	0.00e+00	0	35	0	652214272	65	4328
2026-01-18 04:02:21.16	341.49	26.00	-46.7	-48.2	19.1	0.00e+00	0	35	0	654311424	65	4169
2026-01-18 04:02:22.17	341.18	26.00	-46.5	-48.0	19.4	0.00e+00	0	35	0	656408576	65	4052
2026-01-18 04:02:23.18	340.88	25.99	-46.3	-47.8	19.5	0.00e+00	0	35	0	657457152	64	4214
2026-01-18 04:02:24.19	340.57	25.99	-46.4	-47.8	19.5	0.00e+00	0	35	0	659554304	64	4233
2026-01-18 04:02:25.19	340.27	25.98	-46.2	-47.6	19.7	0.00e+00	0	35	0	661651456	64	4135
2026-01-18 04:02:26.20	339.97	25.98	-46.2	-47.6	19.7	0.00e+00	0	35	0	663748608	64	4134
2026-01-18 04:02:27.21	339.66	25.97	-46.2	-47.6	19.7	0.00e+00	0	35	0	665845760	64	4131
2026-01-18 04:02:28.22	339.36	25.96	-46.0	-47.4	19.9	0.00e+00	0	35	0	666894336	64	4045
2026-01-18 04:02:29.23	339.06	25.95	-46.0	-47.3	20.1	0.00e+00	0	35	0	668991488	63	4241
2026-01-18 04:02:30.23	338.76	25.94	-46.1	-47.4	20.0	0.00e+00	0	35	0	671088640	63	4291
2026-01-18 04:02:31.24	338.45	25.93	-45.8	-47.2	20.2	0.00e+00	0	35	0	673185792	63	4150
2026-01-18 04:02:32.25	338.15	25.92	-45.9	-47.2	20.2	0.00e+00	0	35	0	675282944	63	4167
2026-01-18 04:02:33.26	337.85	25.90	-45.7	-47.0	20.4	0.00e+00	0	35	0	676331520	63	4075
2026-01-18 04:02:34.27	337.55	25.89	-45.7	-47.0	20.3	0.00e+00	0	35	0	678428672	63	4089
2026-01-18 04:02:35.28	337.24	25.87	-45.7	-47.0	20.4	0.00e+00	0	35	0	680525824	63	4084
2026-01-18 04:02:36.29	336.94	25.86	-45.8	-47.2	20.2	0.00e+00	0	35	0	682622976	63	4153
2026-01-18 04:02:37.29	336.64	25.84	-45.8	-47.1	20.3	0.00e+00	0	35	0	684720128	63	4115
2026-01-18 04:02:38.30	336.34	25.82	-45.7	-47.0	20.4	0.00e+00	0	35	0	686817280	63	4077
2026-01-18 04:02:39.31	336.04	25.81	-45.3	-46.5	20.9	0.00e+00	0	35	0	687865856	62	4077
2026-01-18 04:02:40.32	335.74	25.79	-45.2	-46.4	21.0	0.00e+00	0	35	0	689963008	62	4022
2026-01-18 04:02:41.32	335.44	25.77	-45.2	-46.4	21.0	0.00e+00	0	35	0	692060160	62	4013
2026-01-18 04:02:42.33	335.14	25.75	-45.2	-46.4	20.5	0.00e+00	0	35	0	694157312	62	4010
2026-01-18 04:02:43.34	334.84	25.72	-45.2	-46.4	21.0	0.00e+00	0	35	0	695205888	62	4033
2026-01-18 04:02:44.35	334.54	25.70	-45.1	-46.4	21.0	0.00e+00	0	35	0	697303040	62	4007
2026-01-18 04:02:45.36	334.25	25.68	-45.1	-46.3	21.0	0.00e+00	0	35	0	699400192	62	3997
2026-01-18 04:02:46.37	333.95	25.65	-45.1	-46.2	21.1	0.00e+00	0	35	0	701497344	62	3956
2026-01-18 04:02:47.37	333.65	25.63	-45.1	-46.4	21.0	0.00e+00	0	35	0	703594496	62	4010
2026-01-18 04:02:48.38	333.36	25.60	-45.2	-46.4	20.9	0.00e+00	0	35	0	704643072	62	4047
2026-01-18 04:02:49.39	333.06	25.58	-45.1	-46.3	21.1	0.00e+00	0	35	0	706740224	62	3989
2026-01-18 04:02:50.40	332.76	25.55	-45.1	-46.3	21.1	0.00e+00	0	35	0	708837376	62	3966
2026-01-18 04:02:51.40	332.47	25.52	-45.0	-46.2	21.0	0.00e+00	0	35	0	710934528	62	3934
2026-01-18 04:02:52.41	332.18	25.49	-45.1	-46.3	21.1	0.00e+00	0	35	0	713031680	62	3963
2026-01-18 04:02:53.42	331.88	25.46	-45.3	-46.5	20.9	0.00e+00	0	35	0	715128832	62	4067
2026-01-18 04:02:54.43	331.59	25.43	-45.3	-46.5	20.8	0.00e+00	0	35	0	716177408	62	4085
2026-01-18 04:02:55.43	331.30	25.40	-45.5	-46.7	20.7	0.00e+00	0	35	0	718274560	62	4188
2026-01-18 04:02:56.44	331.00	25.37	-45.5	-46.7	20.6	0.00e+00	0	35	0	720371712	62	4189
2026-01-18 04:02:57.45	330.71	25.34	-45.6	-46.9	20.5	0.00e+00	0	35	0	722468864	62	4248
2026-01-18 04:02:58.46	330.42	25.30	-45.5	-46.8	20.6	0.00e+00	0	35	0	723517440	62	4217
2026-01-18 04:02:59.47	330.13	25.27	-45.5	-46.8	20.6	0.00e+00	0	35	0	725614592	62	4220
2026-01-18 04:03:00.45	329.85	25.23	-45.5	-46.8	20.6	0.00e+00	0	35	0	727711744	62	4224
2026-01-18 04:03:01.46	329.56	25.20	-45.4	-46.7	20.7	0.00e+00	0	35	0	729808896	62	4162
2026-01-18 04:03:02.47	329.27	25.16	-45.6	-46.8	20.5	0.00e+00	0	35	0	731906048	62	4237
2026-01-18 04:03:03.47	328.98	25.12	-45.7	-47.0	20.4	0.00e+00	0	35	0	732954624	62	4304
2026-01-18 04:03:04.48	328.70	25.09	-45.7	-47.1	20.3	0.00e+00	0	35	0	735051776	62	4352
2026-01-18 04:03:05.48	328.41	25.05	-45.8	-47.2	20.2	0.00e+00	0	35	0	737148928	62	4402
2026-01-18 04:03:06.49	328.13	25.01	-45.9	-47.3	20.1	0.00e+00	0	35	0	739246080	62	4464
2026-01-18 04:03:07.50	327.84	24.97	-46.0	-47.4	20.1	0.00e+00	0	35	0	741343232	62	4496
2026-01-18 04:03:08.51	327.55	24.93	-46.2	-47.5	19.9	0.00e+00	0	35	0	743440384	62	4597
2026-01-18 04:03:09.52	327.27	24.88	-46.1	-47.5	19.9	0.00e+00	0	35	0	744488960	62	4570
2026-01-18 04:03:10.52	326.99	24.84	-46.2	-47.6	19.9	0.00e+00	0	35	0	746586112	62	4603
2026-01-18 04:03:11.53	326.71	24.80	-46.2	-47.5	19.9	0.00e+00	0	35	0	748683264	62	4597
2026-01-18 04:03:12.54	326.43	24.76	-46.2	-47.6	19.8	0.00e+00	0	35	0	750780416	63	4370
2026-01-18 04:03:13.54	326.15	24.71	-46.3	-47.7	19.7	0.00e+00	0	35	0	751828992	63	4425
2026-01-18 04:03:14.55	325.87	24.67	-46.4	-47.9	19.6	0.00e+00	0	35	0	753926144	63	4513
2026-01-18 04:03:15.56	325.59	24.62	-46.3	-47.7	19.7	0.00e+00	0	35	0	756023296	63	4434
2026-01-18 04:03:16.57	325.31	24.57	-46.5	-48.0	19.4	0.00e+00	0	35	0	758120448	63	4586
2026-01-18 04:03:17.58	325.03	24.53	-46.6	-48.0	19.4	0.00e+00	0	35	0	760217600	63	4589
2026-01-18 04:03:18.59	324.76	24.48	-46.6	-48.1	19.3	0.00e+00	0	35	0	761266176	63	4646
2026-01-18 04:03:19.59	324.48	24.43	-46.7	-48.2	19.1	0.00e+00	0	35	0	763363328	64	4436
2026-01-18 04:03:20.60	324.21	24.38	-46.6	-48.1	19.2	0.00e+00	0	35	0	765460480	64	4389
2026-01-18 04:03:21.61	323.93	24.33	-46.7	-48.3	19.1	0.00e+00	0	35	0	767557632	64	4443
2026-01-18 04:03:22.62	323.66	24.28	-46.7	-48.3	19.0	0.00e+00	0	35	0	769654784	64	4472
2026-01-18 04:03:23.62	323.39	24.23	-46.9	-48.5	18.8	0.00e+00	0	35	0	771751936	64	4564
2026-01-18 04:03:24.63	323.12	24.18	-46.9	-48.5	18.8	0.00e+00	0	35	0	772800512	64	4582
2026-01-18 04:03:25.64	322.85	24.13	-46.9	-48.5	18.8	0.00e+00	0	35	0	774897664	64	4581
2026-01-18 04:03:26.65	322.58	24.07	-46.9	-48.5	18.8	0.00e+00	0	35	0	776994816	64	4585
2026-01-18 04:03:27.66	322.31	24.02	-46.9	-48.4	18.9	0.00e+00	0	35	0	779091968	64	4532
2026-01-18 04:03:28.66	322.04	23.97	-46.9	-48.5	18.9	0.00e+00	0	35	0	780140544	64	4554
2026-01-18 04:03:29.67	321.78	23.91	-47.0	-48.6	18.8	0.00e+00	0	35	0	782237696	64	4629
2026-01-18 04:03:30.68	321.51	23.86	-47.1	-48.7	18.7	0.00e+00	0	35	0	784334848	64	4675
2026-01-18 04:03:31.69	321.25	23.80	-47.2	-48.8	18.5	0.00e+00	0	35	0	786432000	64	4754
2026-01-18 04:03:32.70	320.98	23.75	-47.2	-48.8	18.5	0.00e+00	0	35	0	788529152	64	4742
2026-01-18 04:03:33.70	320.72	23.69	-47.0	-48.7	18.7	0.00e+00	0	35	0	790626304	64	4665
2026-01-18 04:03:34.71	320.46	23.63	-46.9	-48.5	18.9	0.00e+00	0	35	0	791674880	64	4548
2026-01-18 04:03:35.72	320.20	23.58	-46.8	-48.4	18.9	0.00e+00	0	35	0	793772032	64	4528
2026-01-18 04:03:36.73	319.94	23.52	-46.9	-48.5	18.9	0.00e+00	0	35	0	795869184	64	4550
2026-01-18 04:03:37.73	319.68	23.46	-46.9	-48.5	18.9	0.00e+00	0	35	0	797966336	64	4555
2026-01-18 04:03:38.74	319.42	23.40	-46.9	-48.5	18.8	0.00e+00	0	35	0	800063488	64	4581
2026-01-18 04:03:39.75	319.17	23.34	-47.0	-48.6	18.7	0.00e+00	0	35	0	801112064	64	4629
2026-01-18 04:03:40.76	318.91	23.28	-47.0	-48.7	18.7	0.00e+00	0	35	0	803209216	64	4666
2026-01-18 04:03:41.77	318.65	23.22	-47.0	-48.6	18.7	0.00e+00	0	35	0	805306368	64	4645
2026-01-18 04:03:42.77	318.40	23.16	-47.3	-49.0	18.4	0.00e+00	0	35	0	807403520	65	4553
2026-01-18 04:03:43.78	318.15	23.10	-47.3	-49.0	18.3	0.00e+00	0	35	0	808452096	65	4569
2026-01-18 04:03:44.79	317.90	23.03	-47.3	-49.0	18.4	0.00e+00	0	35	0	810549248	65	4567
2026-01-18 04:03:45.80	317.64	22.97	-47.1	-48.7	18.6	0.00e+00	0	35	0	812646400	65	4411
2026-01-18 04:03:46.81	317.39	22.91	-46.9	-48.5	18.9	0.00e+00	0	35	0	814743552	65	4307
2026-01-18 04:03:47.81	317.15	22.85	-46.8	-48.4	19.0	0.00e+00	0	35	0	816840704	65	4251
2026-01-18 04:03:48.82	316.90	22.78	-46.8	-48.3	19.0	0.00e+00	0	35	0	818937856	65	4240
2026-01-18 04:03:49.83	316.65	22.72	-46.9	-48.5	18.9	0.00e+00	0	35	0	819986432	65	4296
2026-01-18 04:03:50.84	316.41	22.65	-47.0	-48.6	18.8	0.00e+00	0	35	0	822083584	65	4353
2026-01-18 04:03:51.84	316.16	22.59	-47.0	-48.6	18.7	0.00e+00	0	35	0	824180736	65	4375
2026-01-18 04:03:52.85	315.92	22.52	-47.0	-48.7	18.7	0.00e+00	0	35	0	826277888	65	4412
2026-01-18 04:03:53.86	315.68	22.46	-47.0	-48.6	18.7	0.00e+00	0	35	0	828375040	65	4359
2026-01-18 04:03:54.87	315.43	22.39	-46.9	-48.5	18.9	0.00e+00	0	35	0	829423616	65	4312
2026-01-18 04:03:55.88	315.19	22.33	-46.8	-48.4	18.9	0.00e+00	0	35	0	831520768	65	4275
2026-01-18 04:03:56.88	314.95	22.26	-46.7	-48.2	19.1	0.00e+00	0	35	0	833617920	65	4161
2026-01-18 04:03:57.89	314.72	22.19	-46.7	-48.2	19.1	0.00e+00	0	35	0	835715072	65	4166
2026-01-18 04:03:58.90	314.48	22.12	-46.5	-48.0	19.3	0.00e+00	0	35	0	837812224	65	4060
2026-01-18 04:03:59.91	314.24	22.06	-46.4	-47.8	19.5	0.00e+00	0	35	0	838860800	64	4223
2026-01-18 04:04:00.92	314.00	21.99	-46.3	-47.8	19.5	0.00e+00	0	35	0	840957952	64	4209
2026-01-18 04:04:01.93	313.77	21.92	-46.5	-48.0	19.3	0.00e+00	0	35	0	843055104	64	4300
2026-01-18 04:04:02.93	313.54	21.85	-46.5	-48.0	19.3	0.00e+00	0	35	0	845152256	64	4327
2026-01-18 04:04:03.94	313.31	21.78	-46.4	-47.9	19.4	0.00e+00	0	35	0	847249408	64	4246
2026-01-18 04:04:04.95	313.07	21.71	-46.2	-47.7	19.6	0.00e+00	0	35	0	848297984	64	4151
2026-01-18 04:04:05.96	312.84	21.64	-46.3	-47.7	19.6	0.00e+00	0	35	0	850395136	64	4185
2026-01-18 04:04:06.96	312.62	21.57	-46.2	-47.6	19.7	0.00e+00	0	35	0	852492288	64	4136
2026-01-18 04:04:07.97	312.39	21.50	-46.2	-47.6	19.7	0.00e+00	0	35	0	854589440	64	4137
2026-01-18 04:04:08.98	312.16	21.43	-46.1	-47.6	19.7	0.00e+00	0	35	0	856686592	64	4107
2026-01-18 04:04:09.99	311.93	21.36	-46.2	-47.6	19.6	0.00e+00	0	35	0	857735168	64	4136
2026-01-18 04:04:11.00	311.71	21.29	-46.0	-47.4	19.9	0.00e+00	0	35	0	859832320	64	4007
2026-01-18 04:04:12.00	311.49	21.22	-46.1	-47.4	19.9	0.00e+00	0	35	0	861929472	63	4287
2026-01-18 04:04:13.01	311.26	21.15	-46.1	-47.4	19.9	0.00e+00	0	35	0	864026624	63	4287
2026-01-18 04:04:14.02	311.04	21.07	-46.1	-47.4	19.9	0.00e+00	0	35	0	866123776	63	4290
2026-01-18 04:04:15.03	310.82	21.00	-46.2	-47.6	19.8	0.00e+00	0	35	0	867172352	63	4358
2026-01-18 04:04:16.03	310.60	20.93	-46.1	-47.5	19.8	0.00e+00	0	35	0	869269504	63	4324
2026-01-18 04:04:17.04	310.38	20.86	-46.1	-47.5	19.8	0.00e+00	0	35	0	871366656	63	4338
2026-01-18 04:04:18.05	310.16	20.78	-46.0	-47.4	19.9	0.00e+00	0	35	0	873463808	63	4275
2026-01-18 04:04:19.05	309.95	20.71	-46.1	-47.5	19.8	0.00e+00	0	35	0	875560960	63	4330
2026-01-18 04:04:20.06	309.73	20.64	-46.1	-47.5	19.9	0.00e+00	0	35	0	876609536	63	4300
2026-01-18 04:04:21.07	309.52	20.56	-46.1	-47.4	19.9	0.00e+00	0	35	0	878706688	63	4288
2026-01-18 04:04:22.08	309.30	20.49	-46.1	-47.6	19.8	0.00e+00	0	35	0	880803840	63	4345
2026-01-18 04:04:23.09	309.09	20.41	-46.2	-47.6	19.8	0.00e+00	0	35	0	882900992	63	4359
2026-01-18 04:04:24.09	308.88	20.34	-46.2	-47.7	19.7	0.00e+00	0	35	0	884998144	63	4395
2026-01-18 04:04:25.10	308.67	20.27	-46.2	-47.6	19.7	0.00e+00	0	35	0	887095296	63	4377
2026-01-18 04:04:26.11	308.46	20.19	-46.2	-47.6	19.8	0.00e+00	0	35	0	888143872	63	4351
2026-01-18 04:04:27.12	308.25	20.12	-46.2	-47.6	19.7	0.00e+00	0	35	0	890241024	63	4375
2026-01-18 04:04:28.13	308.05	20.04	-46.1	-47.5	19.9	0.00e+00	0	35	0	892338176	63	4294
2026-01-18 04:04:29.13	307.84	19.97	-46.1	-47.5	19.8	0.00e+00	0	35	0	894435328	63	4313
2026-01-18 04:04:30.14	307.63	19.89	-46.1	-47.4	19.9	0.00e+00	0	35	0	895483904	63	4288
2026-01-18 04:04:31.15	307.43	19.82	-45.9	-47.3	20.1	0.00e+00	0	35	0	897581056	63	4201
2026-01-18 04:04:32.16	307.23	19.74	-45.8	-47.2	20.1	0.00e+00	0	35	0	899678208	63	4163
2026-01-18 04:04:33.16	307.03	19.67	-45.9	-47.2	20.1	0.00e+00	0	35	0	901775360	63	4183
2026-01-18 04:04:34.17	306.82	19.59	-45.9	-47.2	20.1	0.00e+00	0	35	0	903872512	63	4169
2026-01-18 04:04:35.18	306.62	19.51	-45.9	-47.2	20.1	0.00e+00	0	35	0	904921088	63	4172
2026-01-18 04:04:36.19	306.42	19.44	-45.8	-47.1	20.2	0.00e+00	0	35	0	907018240	63	4121
2026-01-18 04:04:37.19	306.23	19.36	-45.8	-47.2	20.1	0.00e+00	0	35	0	909115392	63	4161
2026-01-18 04:04:38.20	306.03	19.28	-45.7	-47.0	20.3	0.00e+00	0	35	0	911212544	63	4088
2026-01-18 04:04:39.21	305.83	19.21	-45.7	-47.1	20.3	0.00e+00	0	35	0	913309696	63	4101
2026-01-18 04:04:40.21	305.64	19.13	-45.8	-47.1	20.2	0.00e+00	0	35	0	915406848	63	4125
2026-01-18 04:04:41.22	305.45	19.05	-45.7	-47.0	20.3	0.00e+00	0	35	0	916455424	63	4082
2026-01-18 04:04:42.23	305.25	18.98	-45.5	-46.8	20.5	0.00e+00	0	35	0	918552576	63	3997
2026-01-18 04:04:43.24	305.06	18.90	-45.5	-46.8	20.5	0.00e+00	0	35	0	920649728	63	3965
2026-01-18 04:04:44.24	304.87	18.82	-45.5	-46.8	20.5	0.00e+00	0	35	0	922746880	63	3994
2026-01-18 04:04:45.25	304.68	18.75	-45.5	-46.8	20.5	0.00e+00	0	35	0	923795456	63	3981
2026-01-18 04:04:46.26	304.49	18.67	-45.5	-46.7	20.5	0.00e+00	0	35	0	925892608	62	4181
2026-01-18 04:04:47.27	304.30	18.59	-45.3	-46.5	20.8	0.00e+00	0	35	0	927989760	62	4079
2026-01-18 04:04:48.28	304.11	18.51	-45.3	-46.5	20.8	0.00e+00	0	35	0	930086912	62	4082
2026-01-18 04:04:49.29	303.93	18.44	-45.2	-46.4	20.9	0.00e+00	0	35	0	932184064	62	4029
2026-01-18 04:04:50.30	303.74	18.36	-45.3	-46.5	20.8	0.00e+00	0	35	0	934281216	62	4072
2026-01-18 04:04:51.31	303.56	18.28	-45.3	-46.6	20.7	0.00e+00	0	35	0	935329792	62	4102
2026-01-18 04:04:52.31	303.37	18.20	-45.4	-46.6	20.7	0.00e+00	0	35	0	937426944	62	4130
2026-01-18 04:04:53.32	303.19	18.13	-45.4	-46.6	20.6	0.00e+00	0	35	0	939524096	62	4137
2026-01-18 04:04:54.33	303.01	18.05	-45.4	-46.6	20.7	0.00e+00	0	35	0	941621248	62	4131
2026-01-18 04:04:55.34	302.83	17.97	-45.4	-46.6	20.6	0.00e+00	0	35	0	943718400	62	4145
2026-01-18 04:04:56.34	302.65	17.89	-45.3	-46.6	20.7	0.00e+00	0	35	0	944766976	62	4123
2026-01-18 04:04:57.35	302.47	17.81	-45.4	-46.7	20.6	0.00e+00	0	35	0	946864128	62	4152
2026-01-18 04:04:58.36	302.29	17.74	-45.3	-46.5	20.8	0.00e+00	0	35	0	948961280	62	4076
2026-01-18 04:04:59.37	302.11	17.66	-45.2	-46.5	20.8	0.00e+00	0	35	0	951058432	62	4069
2026-01-18 04:05:00.38	301.94	17.58	-45.2	-46.4	20.8	0.00e+00	0	35	0	952107008	62	4037
2026-01-18 04:05:01.38	301.76	17.50	-45.1	-46.3	20.9	0.00e+00	0	35	0	954204160	62	4003
2026-01-18 04:05:02.39	301.59	17.42	-45.2	-46.5	20.8	0.00e+00	0	35	0	956301312	62	4061
2026-01-18 04:05:03.40	301.42	17.35	-45.2	-46.4	20.8	0.00e+00	0	35	0	958398464	62	4035
2026-01-18 04:05:04.41	301.24	17.27	-45.3	-46.5	20.7	0.00e+00	0	35	0	960495616	62	4096
2026-01-18 04:05:05.42	301.07	17.19	-45.3	-46.6	20.7	0.00e+00	0	35	0	962592768	62	4123
2026-01-18 04:05:06.43	300.90	17.11	-45.4	-46.7	20.6	0.00e+00	0	35	0	963641344	62	4164
2026-01-18 04:05:07.43	300.73	17.03	-45.3	-46.6	20.7	0.00e+00	0	35	0	965738496	62	4120
2026-01-18 04:05:08.44	300.56	16.95	-45.5	-46.8	20.5	0.00e+00	0	35	0	967835648	62	4200
2026-01-18 04:05:09.45	300.40	16.88	-45.5	-46.8	20.5	0.00e+00	0	35	0	969932800	62	4221
2026-01-18 04:05:10.46	300.23	16.80	-45.5	-46.8	20.5	0.00e+00	0	35	0	972029952	62	4227
2026-01-18 04:05:11.47	300.06	16.72	-45.4	-46.7	20.6	0.00e+00	0	35	0	973078528	62	4172
2026-01-18 04:05:12.47	299.90	16.64	-45.4	-46.7	20.6	0.00e+00	0	35	0	975175680	62	4177
2026-01-18 04:05:13.48	299.73	16.56	-45.4	-46.6	20.6	0.00e+00	0	35	0	977272832	62	4139
2026-01-18 04:05:14.49	299.57	16.48	-45.4	-46.7	20.6	0.00e+00	0	35	0	979369984	62	4174
2026-01-18 04:05:15.50	299.41	16.41	-45.5	-46.8	20.5	0.00e+00	0	35	0	981467136	62	4225
2026-01-18 04:05:16.51	299.24	16.33	-45.5	-46.8	20.5	0.00e+00	0	35	0	982515712	62	4211
2026-01-18 04:05:17.52	299.08	16.25	-45.5	-46.7	20.5	0.00e+00	0	35	0	984612864	62	4191
2026-01-18 04:05:18.53	298.92	16.17	-45.5	-46.7	20.6	0.00e+00	0	35	0	986710016	62	4185
2026-01-18 04:05:19.53	298.76	16.09	-45.5	-46.8	20.5	0.00e+00	0	35	0	988807168	62	4202
2026-01-18 04:05:20.54	298.61	16.01	-45.6	-46.9	20.4	0.00e+00	0	35	0	990904320	62	4247
2026-01-18 04:05:21.55	298.45	15.94	-45.6	-46.9	20.4	0.00e+00	0	35	0	991952896	62	4282
2026-01-18 04:05:22.56	298.29	15.86	-45.7	-47.0	20.3	0.00e+00	0	35	0	994050048	62	4323
2026-01-18 04:05:23.56	298.14	15.78	-45.7	-47.1	20.2	0.00e+00	0	35	0	996147200	62	4355
2026-01-18 04:05:24.57	297.98	15.70	-45.9	-47.3	20.0	0.00e+00	0	35	0	998244352	62	4467
2026-01-18 04:05:25.58	297.83	15.62	-46.0	-47.4	19.9	0.00e+00	0	35	0	1000341504	62	4533
2026-01-18 04:05:26.59	297.67	15.55	-46.1	-47.5	19.8	0.00e+00	0	35	0	1001390080	62	4551
2026-01-18 04:05:27.60	297.52	15.47	-46.2	-47.6	19.7	0.00e+00	0	35	0	1003487232	62	4616
2026-01-18 04:05:28.60	297.37	15.39	-46.2	-47.7	19.7	0.00e+00	0	35	0	1005584384	63	4403
2026-01-18 04:05:29.61	297.22	15.31	-46.3	-47.8	19.5	0.00e+00	0	35	0	1007681536	63	4452
2026-01-18 04:05:30.62	297.07	15.24	-46.3	-47.8	19.5	0.00e+00	0	35	0	1009778688	63	4458
2026-01-18 04:05:31.63	296.92	15.16	-46.4	-47.9	19.4	0.00e+00	0	35	0	1010827264	63	4509
2026-01-18 04:05:32.64	296.77	15.08	-46.5	-48.0	19.4	0.00e+00	0	35	0	1012924416	63	4553
2026-01-18 04:05:33.64	296.62	15.00	-46.5	-48.0	19.3	0.00e+00	0	35	0	1015021568	63	4563
2026-01-18 04:05:34.65	296.48	14.92	-46.4	-47.9	19.4	0.00e+00	0	35	0	1017118720	63	4528
2026-01-18 04:05:35.67	296.33	14.85	-46.5	-47.9	19.3	0.00e+00	0	35	0	1019215872	63	4542
2026-01-18 04:05:36.67	296.18	14.77	-46.4	-47.8	19.4	0.00e+00	0	35	0	1020264448	63	4489
2026-01-18 04:05:37.68	296.04	14.69	-46.4	-47.8	19.5	0.00e+00	0	35	0	1022361600	63	4484
2026-01-18 04:05:38.69	295.89	14.61	-46.3	-47.8	19.5	0.00e+00	0	35	0	1024458752	63	4469
2026-01-18 04:05:39.70	295.75	14.54	-46.4	-47.8	19.4	0.00e+00	0	35	0	1026555904	63	4493
2026-01-18 04:05:40.71	295.61	14.46	-46.3	-47.7	19.6	0.00e+00	0	35	0	1028653056	63	4436
2026-01-18 04:05:41.71	295.47	14.38	-46.4	-47.9	19.3	0.00e+00	0	35	0	1029701632	63	4529
2026-01-18 04:05:42.72	295.33	14.31	-46.4	-47.9	19.4	0.00e+00	0	35	0	1031798784	63	4512
2026-01-18 04:05:43.73	295.19	14.23	-46.4	-47.9	19.3	0.00e+00	0	35	0	1033895936	63	4537
2026-01-18 04:05:44.74	295.05	14.15	-46.6	-48.2	19.2	0.00e+00	0	35	0	1035993088	63	4652
2026-01-18 04:05:45.74	294.91	14.08	-46.7	-48.2	19.1	0.00e+00	0	35	0	1038090240	63	4692
2026-01-18 04:05:46.75	294.77	14.00	-46.7	-48.2	19.0	0.00e+00	0	35	0	1039138816	64	4434
2026-01-18 04:05:47.76	294.63	13.92	-46.6	-48.1	19.1	0.00e+00	0	35	0	1041235968	64	4386
2026-01-18 04:05:48.77	294.50	13.84	-46.6	-48.2	19.0	0.00e+00	0	35	0	1043333120	64	4398
2026-01-18 04:05:49.78	294.36	13.77	-46.7	-48.3	18.9	0.00e+00	0	35	0	1045430272	64	4442
2026-01-18 04:05:50.79	294.22	13.69	-46.6	-48.2	19.0	0.00e+00	0	35	0	1047527424	64	4411
2026-01-18 04:05:51.79	294.09	13.62	-46.7	-48.3	18.9	0.00e+00	0	35	0	1049624576	64	4446
2026-01-18 04:05:52.80	293.96	13.54	-46.6	-48.2	19.0	0.00e+00	0	35	0	1050673152	64	4404
2026-01-18 04:05:53.81	293.82	13.46	-46.7	-48.3	18.9	0.00e+00	0	35	0	1052770304	64	4485
2026-01-18 04:05:54.82	293.69	13.39	-46.7	-48.3	18.9	0.00e+00	0	35	0	1054867456	64	4471
2026-01-18 04:05:55.82	293.56	13.31	-46.8	-48.3	18.8	0.00e+00	0	35	0	1056964608	64	4488
2026-01-18 04:05:56.83	293.43	13.23	-46.7	-48.3	18.8	0.00e+00	0	35	0	1058013184	64	4488
2026-01-18 04:05:57.84	293.30	13.16	-46.7	-48.3	18.8	0.00e+00	0	35	0	1060110336	64	4488
2026-01-18 04:05:58.85	293.17	13.08	-46.8	-48.5	18.7	0.00e+00	0	35	0	1062207488	64	4557
2026-01-18 04:05:59.86	293.04	13.01	-46.9	-48.5	18.7	0.00e+00	0	35	0	1064304640	64	4575
2026-01-18 04:06:00.86	292.91	12.93	-47.0	-48.6	18.6	0.00e+00	0	35	0	1066401792	64	4633
2026-01-18 04:06:01.87	292.78	12.86	-47.0	-48.7	18.5	0.00e+00	0	35	0	1067450368	64	4655
2026-01-18 04:06:02.88	292.66	12.78	-47.0	-48.7	18.5	0.00e+00	0	35	0	1069547520	64	4659
2026-01-18 04:06:03.89	292.53	12.71	-47.1	-48.7	18.4	0.00e+00	0	35	0	1071644672	64	4704
2026-01-18 04:06:04.90	292.40	12.63	-47.1	-48.9	18.3	0.00e+00	0	35	0	1073741824	64	4769
2026-01-18 04:06:05.90	292.28	12.56	-47.1	-48.8	18.4	0.00e+00	0	35	0	1075838976	64	4733
2026-01-18 04:06:06.91	292.16	12.48	-47.2	-48.9	18.3	0.00e+00	0	35	0	1077936128	64	4793
2026-01-18 04:06:07.92	292.03	12.40	-47.2	-49.0	18.2	0.00e+00	0	35	0	1078984704	65	4547
2026-01-18 04:06:08.92	291.91	12.33	-47.1	-48.8	18.3	0.00e+00	0	35	0	1081081856	65	4473
2026-01-18 04:06:09.93	291.79	12.26	-47.2	-49.0	18.2	0.00e+00	0	35	0	1083179008	65	4554
2026-01-18 04:06:10.94	291.67	12.18	-47.1	-48.8	18.3	0.00e+00	0	35	0	1085276160	65	4483
2026-01-18 04:06:11.95	291.54	12.11	-47.2	-48.9	18.3	0.00e+00	0	35	0	1086324736	65	4529
2026-01-18 04:06:12.96	291.42	12.03	-47.1	-48.9	18.3	0.00e+00	0	35	0	1088421888	65	4494
2026-01-18 04:06:13.96	291.31	11.96	-47.0	-48.7	18.4	0.00e+00	0	35	0	1090519040	65	4433
2026-01-18 04:06:14.97	291.19	11.88	-47.2	-48.9	18.3	0.00e+00	0	35	0	1092616192	65	4509
2026-01-18 04:06:15.98	291.07	11.81	-47.2	-49.0	18.2	0.00e+00	0	35	0	1094713344	65	4550
2026-01-18 04:06:16.99	290.95	11.73	-47.3	-49.0	18.1	0.00e+00	0	35	0	1095761920	65	4594
2026-01-18 04:06:18.00	290.83	11.66	-47.3	-49.1	18.0	0.00e+00	0	35	0	1097859072	65	4639
2026-01-18 04:06:19.01	290.71	11.59	-47.4	-49.2	18.0	0.00e+00	0	35	0	1099956224	65	4678
2026-01-18 04:06:20.02	290.60	11.51	-47.4	-49.2	18.0	0.00e+00	0	35	0	1102053376	65	4680
2026-01-18 04:06:21.03	290.48	11.44	-47.5	-49.3	17.8	0.00e+00	0	35	0	1104150528	65	4746
2026-01-18 04:06:22.03	290.37	11.37	-47.5	-49.4	17.7	0.00e+00	0	35	0	1106247680	65	4789
2026-01-18 04:06:23.04	290.25	11.29	-47.5	-49.4	17.8	0.00e+00	0	35	0	1107296256	65	4763
2026-01-18 04:06:24.05	290.14	11.22	-47.4	-49.3	17.9	0.00e+00	0	35	0	1109393408	65	4716
2026-01-18 04:06:25.06	290.03	11.15	-47.5	-49.3	17.8	0.00e+00	0	35	0	1111490560	65	4759
2026-01-18 04:06:26.06	289.91	11.07	-47.6	-49.5	17.6	0.00e+00	0	35	0	1113587712	65	4834
2026-01-18 04:06:27.07	289.80	11.00	-47.6	-49.5	17.6	0.00e+00	0	35	0	1114636288	65	4840
2026-01-18 04:06:28.08	289.69	10.93	-47.7	-49.7	17.4	0.00e+00	0	35	0	1116733440	66	4667
2026-01-18 04:06:29.09	289.58	10.85	-47.9	-49.9	17.3	0.00e+00	0	35	0	1118830592	66	4761
2026-01-18 04:06:30.09	289.47	10.78	-47.8	-49.8	17.3	0.00e+00	0	35	0	1120927744	66	4739
2026-01-18 04:06:31.10	289.36	10.71	-47.9	-49.9	17.2	0.00e+00	0	35	0	1123024896	66	4798
2026-01-18 04:06:32.11	289.25	10.64	-48.0	-50.0	17.1	0.00e+00	0	35	0	1125122048	66	4837
2026-01-18 04:06:33.11	289.14	10.56	-48.0	-50.0	17.1	0.00e+00	0	35	0	1126170624	66	4836
2026-01-18 04:06:34.12	289.03	10.49	-48.1	-50.2	16.9	0.00e+00	0	35	0	1128267776	66	4942
2026-01-18 04:06:35.13	288.93	10.42	-48.1	-50.1	17.0	0.00e+00	0	35	0	1130364928	66	4915
2026-01-18 04:06:36.14	288.82	10.35	-48.1	-50.2	16.9	0.00e+00	0	35	0	1132462080	66	4947
2026-01-18 04:06:37.14	288.71	10.28	-48.0	-50.1	17.0	0.00e+00	0	35	0	1134559232	66	4909
2026-01-18 04:06:38.15	288.61	10.20	-48.1	-50.2	16.9	0.00e+00	0	35	0	1135607808	66	4934
2026-01-18 04:06:39.16	288.50	10.13	-48.1	-50.2	16.9	0.00e+00	0	35	0	1137704960	66	4940
2026-01-18 04:06:40.17	288.40	10.06	-48.1	-50.3	16.8	0.00e+00	0	35	0	1139802112	66	4984
2026-01-18 04:06:41.17	288.29	9.99	-48.2	-50.3	16.7	0.00e+00	0	35	0	1141899264	66	5040
2026-01-18 04:06:42.18	288.19	9.92	-48.3	-50.5	16.6	0.00e+00	0	35	0	1142947840	67	4831
2026-01-18 04:06:43.19	288.09	9.85	-48.2	-50.4	16.7	0.00e+00	0	35	0	1145044992	67	4776
2026-01-18 04:06:44.20	287.98	9.78	-48.3	-50.5	16.6	0.00e+00	0	35	0	1147142144	67	4841
2026-01-18 04:06:45.20	287.88	9.71	-48.3	-50.5	16.6	0.00e+00	0	35	0	1149239296	67	4843
2026-01-18 04:06:46.21	287.78	9.63	-48.3	-50.5	16.5	0.00e+00	0	35	0	1151336448	67	4863
2026-01-18 04:06:47.22	287.68	9.56	-48.3	-50.6	16.5	0.00e+00	0	36	0	1153433600	67	4877
2026-01-18 04:06:48.23	287.58	9.49	-48.4	-50.6	16.4	0.00e+00	0	35	0	1154482176	67	4902
2026-01-18 04:06:49.24	287.48	9.42	-48.3	-50.6	16.4	0.00e+00	0	35	0	1156579328	67	4882
2026-01-18 04:06:50.24	287.38	9.35	-48.2	-50.4	16.6	0.00e+00	0	35	0	1158676480	67	4795
2026-01-18 04:06:51.25	287.28	9.28	-48.2	-50.4	16.7	0.00e+00	0	35	0	1160773632	67	4765
2026-01-18 04:06:52.26	287.18	9.21	-48.2	-50.4	16.6	0.00e+00	0	35	0	1162870784	67	4779
2026-01-18 04:06:53.27	287.08	9.14	-48.3	-50.5	16.5	0.00e+00	0	35	0	1163919360	67	4838
2026-01-18 04:06:54.28	286.98	9.07	-48.2	-50.4	16.6	0.00e+00	0	35	0	1166016512	67	4764
2026-01-18 04:06:55.29	286.88	9.00	-48.1	-50.2	16.8	0.00e+00	0	35	0	1168113664	67	4665
2026-01-18 04:06:56.29	286.79	8.93	-48.1	-50.2	16.8	0.00e+00	0	35	0	1170210816	67	4697
2026-01-18 04:06:57.30	286.69	8.86	-48.1	-50.3	16.7	0.00e+00	0	35	0	1172307968	67	4732
2026-01-18 04:06:58.31	286.60	8.79	-48.2	-50.4	16.6	0.00e+00	0	35	0	1173356544	67	4790
2026-01-18 04:06:59.32	286.50	8.72	-48.1	-50.3	16.6	0.00e+00	0	35	0	1175453696	67	4741
2026-01-18 04:07:00.32	286.41	8.65	-48.2	-50.4	16.6	0.00e+00	0	35	0	1177550848	67	4783
2026-01-18 04:07:01.33	286.31	8.58	-48.3	-50.6	16.4	0.00e+00	0	35	0	1179648000	67	4889
2026-01-18 04:07:02.34	286.22	8.51	-48.4	-50.7	16.3	0.00e+00	0	35	0	1181745152	67	4948
2026-01-18 04:07:03.35	286.12	8.45	-48.5	-50.8	16.1	0.00e+00	0	35	0	1182793728	67	5035
2026-01-18 04:07:04.36	286.03	8.38	-48.4	-50.7	16.2	0.00e+00	0	35	0	1184890880	67	4982
2026-01-18 04:07:05.37	285.94	8.31	-48.5	-50.9	16.1	0.00e+00	0	35	0	1186988032	67	5064
2026-01-18 04:07:06.38	285.84	8.24	-48.5	-50.9	16.0	0.00e+00	0	35	0	1189085184	67	5082
2026-01-18 04:07:07.38	285.75	8.17	-48.6	-51.0	15.9	0.00e+00	0	35	0	1191182336	67	5110
2026-01-18 04:07:08.39	285.66	8.10	-48.6	-51.0	15.9	0.00e+00	0	35	0	1193279488	67	5128
2026-01-18 04:07:09.40	285.57	8.03	-48.6	-51.0	15.9	0.00e+00	0	35	0	1194328064	67	5125
2026-01-18 04:07:10.41	285.48	7.97	-48.5	-50.9	16.0	0.00e+00	0	35	0	1196425216	67	5090
2026-01-18 04:07:11.42	285.39	7.90	-48.6	-51.0	15.9	0.00e+00	0	35	0	1198522368	67	5148
2026-01-18 04:07:12.43	285.30	7.83	-48.5	-50.9	15.9	0.00e+00	0	35	0	1200619520	67	5082
2026-01-18 04:07:13.43	285.21	7.76	-48.6	-51.0	15.8	0.00e+00	0	35	0	1201668096	67	5138
2026-01-18 04:07:14.44	285.12	7.69	-48.6	-51.1	15.8	0.00e+00	0	35	0	1203765248	67	5168
2026-01-18 04:07:15.45	285.03	7.63	-48.6	-51.1	15.8	0.00e+00	0	35	0	1205862400	67	5202
2026-01-18 04:07:16.46	284.95	7.56	-48.8	-51.3	15.6	0.00e+00	0	35	0	1207959552	68	5025
2026-01-18 04:07:17.47	284.86	7.49	-48.8	-51.4	15.6	0.00e+00	0	35	0	1210056704	68	5042
2026-01-18 04:07:18.47	284.77	7.42	-48.8	-51.4	15.5	0.00e+00	0	35	0	1211105280	68	5068
2026-01-18 04:07:19.48	284.69	7.36	-48.9	-51.5	15.4	0.00e+00	0	35	0	1213202432	68	5118
2026-01-18 04:07:20.49	284.60	7.29	-48.9	-51.6	15.3	0.00e+00	0	35	0	1215299584	68	5168
2026-01-18 04:07:21.49	284.51	7.22	-49.0	-51.7	15.2	0.00e+00	0	35	0	1217396736	68	5245
2026-01-18 04:07:22.50	284.43	7.16	-49.1	-51.9	15.1	0.00e+00	0	35	0	1219493888	68	5344
2026-01-18 04:07:23.51	284.34	7.09	-49.1	-51.8	15.1	0.00e+00	0	35	0	1221591040	68	5316
2026-01-18 04:07:24.52	284.26	7.02	-49.1	-51.9	15.0	0.00e+00	0	35	0	1222639616	68	5365
2026-01-18 04:07:25.52	284.18	6.96	-49.2	-52.0	14.9	0.00e+00	0	35	0	1224736768	68	5431
