passes_logs/2026/01/18/R3.2S_Murmansk/R3.2S_Murmansk__20260118_135657_AQUA_rec.log

#Pass ID: 20260118_135657_AQUA
#Satellite: AQUA
#Configuration: AQUA
#almurnet v.1.7.20251203
#Start time: 2026-01-18 13:56:57

#Version: 2.2.20231116
#Station: R3.2S_Murmansk
#Location: 33.079688 lon 68.888172 lat
#TLE: 1 27424U 02022A   26017.62394888  .00000781  00000+0  16630-3 0  9993
#TLE: 2 27424  98.4086 344.0954 0002010  75.0132 339.4723 14.61825944261279

#Time	Az	El	Level	Level2	SNR	BER	BlckErr	Temp	State	Recorded	gain1	gain2
2026-01-18 13:56:57.21	223.83	1.98	-53.9	-71.5	3.8	7.44e-01	0	34	0	0	79	27356
2026-01-18 13:56:58.22	223.92	2.04	-53.9	-71.6	3.8	7.44e-01	0	34	104	0	78	29205
2026-01-18 13:56:59.23	224.02	2.09	-53.9	-71.6	3.8	7.46e-01	0	34	104	0	78	29248
2026-01-18 13:57:00.24	224.11	2.14	-53.9	-71.5	3.8	7.43e-01	0	34	104	0	78	28995
2026-01-18 13:57:01.25	224.21	2.20	-53.9	-71.5	3.8	7.46e-01	0	34	104	0	78	29006
2026-01-18 13:57:02.25	224.30	2.25	-53.9	-71.5	3.8	7.44e-01	0	34	104	0	78	28968
2026-01-18 13:57:03.26	224.40	2.31	-53.9	-71.6	3.8	7.43e-01	0	34	104	0	78	29190
2026-01-18 13:57:04.26	224.50	2.36	-53.9	-71.6	3.8	7.44e-01	0	34	104	0	78	29319
2026-01-18 13:57:05.27	224.59	2.41	-53.9	-71.6	3.8	7.47e-01	0	34	104	0	78	29189
2026-01-18 13:57:06.28	224.69	2.47	-53.9	-71.6	3.8	7.44e-01	0	34	104	0	78	29096
2026-01-18 13:57:07.29	224.79	2.52	-53.9	-71.5	3.8	7.45e-01	0	34	104	0	78	28794
2026-01-18 13:57:08.30	224.88	2.57	-53.9	-71.4	3.8	7.45e-01	0	34	104	0	78	28494
2026-01-18 13:57:09.30	224.98	2.63	-53.8	-71.3	3.8	7.45e-01	0	34	104	0	78	28332
2026-01-18 13:57:10.31	225.08	2.68	-53.9	-71.4	3.8	7.47e-01	0	34	104	0	78	28365
2026-01-18 13:57:11.32	225.18	2.74	-53.8	-71.3	3.8	7.44e-01	0	34	104	0	78	28202
2026-01-18 13:57:12.33	225.28	2.79	-53.9	-71.3	3.8	7.45e-01	0	34	104	0	78	28225
2026-01-18 13:57:13.34	225.38	2.84	-53.9	-71.4	3.8	7.45e-01	0	34	104	0	78	28375
2026-01-18 13:57:14.35	225.48	2.90	-53.8	-71.3	3.8	7.44e-01	0	34	104	0	78	28348
2026-01-18 13:57:15.35	225.58	2.95	-53.9	-71.4	3.8	7.45e-01	0	34	104	0	78	28622
2026-01-18 13:57:16.36	225.68	3.01	-53.9	-71.5	3.8	7.45e-01	0	34	104	0	78	28764
2026-01-18 13:57:17.37	225.78	3.06	-53.9	-71.5	3.8	7.44e-01	0	34	104	0	78	28987
2026-01-18 13:57:18.38	225.88	3.12	-53.9	-71.4	3.8	7.47e-01	0	34	104	0	78	28641
2026-01-18 13:57:19.38	225.98	3.17	-53.9	-71.3	3.8	7.45e-01	0	34	104	0	78	28184
2026-01-18 13:57:20.39	226.09	3.22	-53.8	-71.1	3.8	7.48e-01	0	34	104	0	78	27416
2026-01-18 13:57:21.40	226.19	3.28	-53.8	-71.1	3.8	7.47e-01	0	34	104	0	78	27569
2026-01-18 13:57:22.41	226.29	3.33	-53.8	-71.1	3.8	7.48e-01	0	34	104	0	78	27538
2026-01-18 13:57:23.41	226.39	3.39	-53.8	-71.1	3.8	7.45e-01	0	34	104	0	78	27588
2026-01-18 13:57:24.42	226.50	3.44	-53.8	-71.4	3.8	7.44e-01	0	34	104	0	78	28467
2026-01-18 13:57:25.43	226.60	3.50	-53.9	-71.5	3.8	7.44e-01	0	34	104	0	78	29001
2026-01-18 13:57:26.44	226.71	3.55	-53.9	-71.6	3.8	7.46e-01	0	34	104	0	78	29167
2026-01-18 13:57:27.44	226.81	3.61	-53.9	-71.6	3.8	7.47e-01	0	34	104	0	78	29177
2026-01-18 13:57:28.45	226.92	3.66	-53.8	-71.6	3.8	7.49e-01	0	34	104	0	78	29169
2026-01-18 13:57:29.46	227.02	3.72	-53.9	-71.6	3.8	7.44e-01	0	35	104	0	78	29043
2026-01-18 13:57:30.47	227.13	3.77	-53.8	-71.4	3.8	7.46e-01	0	35	104	0	78	28437
2026-01-18 13:57:31.48	227.24	3.83	-53.8	-71.2	3.8	7.42e-01	0	34	104	0	78	27794
2026-01-18 13:57:32.48	227.34	3.88	-53.8	-71.1	3.8	7.45e-01	0	34	104	0	78	27486
2026-01-18 13:57:33.49	227.45	3.94	-53.8	-71.0	3.8	7.43e-01	0	34	104	0	78	27344
2026-01-18 13:57:34.50	227.56	3.99	-53.8	-71.0	3.8	7.44e-01	0	35	104	0	78	27229
2026-01-18 13:57:35.51	227.67	4.05	-53.8	-70.9	3.8	7.46e-01	0	34	104	0	78	26806
2026-01-18 13:57:36.52	227.78	4.10	-53.8	-70.4	3.8	7.45e-01	0	35	104	0	78	25504
2026-01-18 13:57:37.52	227.89	4.16	-53.8	-70.5	3.8	7.47e-01	0	35	104	0	78	25708
2026-01-18 13:57:38.53	228.00	4.21	-53.8	-71.0	3.8	7.44e-01	0	35	104	0	78	27220
2026-01-18 13:57:39.54	228.11	4.27	-53.9	-71.6	3.8	7.43e-01	0	35	104	0	78	29051
2026-01-18 13:57:40.55	228.22	4.32	-53.8	-70.7	3.8	7.46e-01	0	35	104	0	78	26432
2026-01-18 13:57:41.55	228.33	4.38	-53.7	-66.7	4.7	7.15e-01	0	35	104	0	78	16623
2026-01-18 13:57:42.56	228.44	4.44	-53.4	-63.4	6.9	6.66e-01	184	35	0	524288	78	11370
2026-01-18 13:57:43.57	228.55	4.49	-53.2	-61.6	8.7	6.36e-01	2	35	0	2621440	78	9243
2026-01-18 13:57:44.58	228.66	4.55	-52.8	-59.8	10.6	6.20e-01	0	35	0	4194304	77	7964
2026-01-18 13:57:45.58	228.78	4.60	-52.5	-58.6	11.9	6.14e-01	0	35	0	6291456	77	6920
2026-01-18 13:57:46.59	228.89	4.66	-52.2	-57.7	12.9	6.11e-01	0	35	0	7864320	76	6598
2026-01-18 13:57:47.60	229.00	4.71	-51.7	-56.3	14.3	6.07e-01	0	35	0	9961472	75	5945
2026-01-18 13:57:48.61	229.12	4.77	-50.8	-54.4	16.2	6.06e-01	0	35	0	12058624	73	5377
2026-01-18 13:57:49.62	229.23	4.83	-49.7	-52.5	18.2	6.07e-01	0	35	0	13631488	71	4841
2026-01-18 13:57:50.63	229.35	4.88	-49.1	-51.5	19.2	6.05e-01	0	35	0	15728640	70	4573
2026-01-18 13:57:51.63	229.46	4.94	-48.4	-50.5	20.2	6.08e-01	0	35	0	17825792	68	4584
2026-01-18 13:57:52.64	229.58	4.99	-47.7	-49.6	21.1	6.06e-01	0	35	0	19398656	67	4378
2026-01-18 13:57:53.65	229.70	5.05	-51.8	-56.6	15.1	6.08e-01	0	35	0	21495808	74	6547
2026-01-18 13:57:54.66	229.81	5.11	-47.5	-49.3	21.5	6.06e-01	0	35	0	23068672	66	4444
2026-01-18 13:57:55.66	229.93	5.16	-49.0	-51.4	20.1	6.07e-01	0	35	0	25165824	68	5044
2026-01-18 13:57:56.67	230.05	5.22	-49.4	-52.0	18.8	6.06e-01	0	35	0	26738688	70	4855
2026-01-18 13:57:57.68	230.17	5.27	-47.7	-49.6	21.4	6.06e-01	0	35	0	28835840	66	4599
2026-01-18 13:57:58.69	230.29	5.33	-48.1	-50.1	20.4	6.04e-01	0	35	0	30932992	68	4378
2026-01-18 13:57:59.69	230.40	5.39	-48.0	-50.0	20.8	6.10e-01	0	35	0	32505856	67	4584
2026-01-18 13:58:00.70	230.52	5.44	-47.7	-49.6	21.2	6.07e-01	0	35	0	34603008	67	4368
2026-01-18 13:58:01.71	230.64	5.50	-47.6	-49.5	21.3	6.09e-01	0	35	0	36700160	67	4315
2026-01-18 13:58:02.72	230.77	5.56	-47.3	-49.1	21.8	6.06e-01	0	35	0	38273024	66	4367
2026-01-18 13:58:03.73	230.89	5.61	-47.4	-49.3	21.6	6.05e-01	0	35	0	40370176	66	4451
2026-01-18 13:58:04.73	231.01	5.67	-47.5	-49.4	21.4	6.09e-01	0	35	0	41943040	66	4524
2026-01-18 13:58:05.74	231.13	5.72	-47.6	-49.5	21.3	6.06e-01	0	35	0	44040192	66	4579
2026-01-18 13:58:06.75	231.25	5.78	-47.4	-49.3	21.5	6.05e-01	0	35	0	46137344	66	4446
2026-01-18 13:58:07.76	231.38	5.84	-47.6	-49.5	21.3	6.08e-01	0	35	0	47710208	66	4590
2026-01-18 13:58:08.76	231.50	5.89	-47.8	-49.7	21.1	6.07e-01	0	35	0	49807360	66	4702
2026-01-18 13:58:09.77	231.62	5.95	-47.8	-49.7	21.1	6.06e-01	0	35	0	51380224	66	4704
2026-01-18 13:58:10.78	231.75	6.01	-47.7	-49.7	21.2	6.05e-01	0	35	0	53477376	66	4655
2026-01-18 13:58:11.79	231.88	6.06	-47.5	-49.4	21.5	6.05e-01	0	35	0	55050240	66	4494
2026-01-18 13:58:12.79	232.00	6.12	-47.1	-48.8	22.1	6.06e-01	0	35	0	57147392	66	4210
2026-01-18 13:58:13.80	232.13	6.18	-47.0	-48.7	22.2	6.07e-01	0	35	0	59244544	66	4185
2026-01-18 13:58:14.81	232.25	6.23	-47.2	-49.0	21.9	6.08e-01	0	35	0	61341696	66	4295
2026-01-18 13:58:15.82	232.38	6.29	-47.4	-49.2	21.8	6.06e-01	0	35	0	62914560	66	4392
2026-01-18 13:58:16.82	232.51	6.35	-47.4	-49.1	21.8	6.05e-01	0	35	0	65011712	66	4390
2026-01-18 13:58:17.83	232.64	6.40	-47.3	-49.0	21.9	6.05e-01	0	35	0	66584576	66	4326
2026-01-18 13:58:18.84	232.77	6.46	-47.2	-48.9	22.0	6.07e-01	0	35	0	68681728	66	4290
2026-01-18 13:58:19.85	232.90	6.52	-47.3	-49.1	21.9	6.06e-01	0	35	0	70254592	66	4341
2026-01-18 13:58:20.86	233.03	6.58	-47.0	-48.7	22.3	6.07e-01	0	35	0	72351744	66	4161
2026-01-18 13:58:21.87	233.16	6.63	-47.2	-49.0	22.0	6.05e-01	0	35	0	74448896	66	4307
2026-01-18 13:58:22.87	233.29	6.69	-47.1	-48.8	22.2	6.07e-01	0	35	0	76021760	66	4208
2026-01-18 13:58:23.88	233.42	6.75	-47.4	-49.2	21.8	6.08e-01	0	35	0	78118912	66	4417
2026-01-18 13:58:24.89	233.55	6.80	-47.5	-49.4	21.6	6.08e-01	0	35	0	79691776	66	4503
2026-01-18 13:58:25.90	233.68	6.86	-47.4	-49.2	21.7	6.06e-01	0	35	0	81788928	66	4428
2026-01-18 13:58:26.90	233.82	6.92	-47.1	-48.8	22.2	6.05e-01	0	35	0	83361792	66	4224
2026-01-18 13:58:27.91	233.95	6.97	-47.2	-48.9	22.1	6.08e-01	0	35	0	85458944	66	4264
2026-01-18 13:58:28.92	234.09	7.03	-47.0	-48.7	22.3	6.05e-01	0	35	0	87556096	66	4159
2026-01-18 13:58:29.93	234.22	7.09	-46.9	-48.5	22.5	6.04e-01	0	35	0	89653248	65	4331
2026-01-18 13:58:30.94	234.36	7.15	-47.1	-48.8	22.2	6.07e-01	0	35	0	91226112	65	4444
2026-01-18 13:58:31.95	234.49	7.20	-47.3	-49.0	22.0	6.06e-01	0	35	0	93323264	65	4576
2026-01-18 13:58:32.95	234.63	7.26	-47.1	-48.8	22.2	6.07e-01	0	35	0	94896128	65	4490
2026-01-18 13:58:33.96	234.77	7.32	-47.3	-49.1	21.9	6.05e-01	0	35	0	96993280	65	4623
2026-01-18 13:58:34.97	234.90	7.37	-47.0	-48.7	22.3	6.06e-01	0	35	0	98566144	65	4422
2026-01-18 13:58:35.98	235.04	7.43	-46.9	-48.6	22.4	6.06e-01	0	35	0	100663296	65	4369
2026-01-18 13:58:36.98	235.18	7.49	-47.0	-48.7	22.3	6.08e-01	0	35	0	102760448	65	4410
2026-01-18 13:58:37.99	235.32	7.55	-47.1	-48.8	22.2	6.08e-01	0	35	0	104333312	65	4466
2026-01-18 13:58:39.00	235.46	7.60	-47.0	-48.7	22.3	6.06e-01	0	35	0	106430464	65	4409
2026-01-18 13:58:40.01	235.60	7.66	-46.9	-48.6	22.5	6.09e-01	0	35	0	108527616	65	4345
2026-01-18 13:58:41.02	235.74	7.72	-46.8	-48.4	22.6	6.07e-01	0	35	0	110100480	65	4255
2026-01-18 13:58:42.02	235.88	7.78	-46.6	-48.2	22.8	6.05e-01	0	35	0	112197632	65	4184
2026-01-18 13:58:43.03	236.03	7.83	-46.7	-48.3	22.8	6.07e-01	0	35	0	113770496	65	4210
2026-01-18 13:58:44.04	236.17	7.89	-46.6	-48.2	22.9	6.06e-01	0	35	0	115867648	65	4164
2026-01-18 13:58:45.05	236.31	7.95	-46.6	-48.2	22.9	6.07e-01	0	35	0	117964800	65	4155
2026-01-18 13:58:46.06	236.46	8.00	-46.6	-48.2	22.8	6.06e-01	0	35	0	119537664	65	4178
2026-01-18 13:58:47.06	236.60	8.06	-46.6	-48.2	22.8	6.09e-01	0	35	0	121634816	65	4180
2026-01-18 13:58:48.07	236.75	8.12	-46.7	-48.3	22.8	6.07e-01	0	35	0	123207680	65	4210
2026-01-18 13:58:49.08	236.89	8.18	-46.8	-48.5	22.6	6.08e-01	0	35	0	125304832	65	4302
2026-01-18 13:58:50.09	237.04	8.23	-47.0	-48.6	22.4	6.07e-01	0	35	0	126877696	65	4390
2026-01-18 13:58:51.09	237.19	8.29	-46.8	-48.4	22.7	6.06e-01	0	35	0	128974848	65	4269
2026-01-18 13:58:52.10	237.33	8.35	-46.6	-48.2	23.0	6.06e-01	0	35	0	131072000	65	4146
2026-01-18 13:58:53.11	237.48	8.40	-46.5	-48.0	23.1	6.05e-01	0	35	0	133169152	65	4084
2026-01-18 13:58:54.12	237.63	8.46	-46.6	-48.2	22.9	6.06e-01	0	35	0	134742016	64	4397
2026-01-18 13:58:55.12	237.78	8.52	-46.6	-48.2	22.9	6.06e-01	0	35	0	136839168	64	4402
2026-01-18 13:58:56.13	237.93	8.58	-46.7	-48.3	22.9	6.04e-01	0	35	0	138412032	64	4453
2026-01-18 13:58:57.14	238.08	8.63	-46.8	-48.4	22.7	6.04e-01	0	35	0	140509184	64	4497
2026-01-18 13:58:58.15	238.23	8.69	-46.7	-48.3	22.8	6.06e-01	0	35	0	142082048	64	4452
2026-01-18 13:58:59.16	238.39	8.75	-46.5	-48.1	23.1	6.07e-01	0	35	0	144179200	64	4346
2026-01-18 13:59:00.16	238.54	8.80	-46.5	-48.1	23.0	6.04e-01	0	35	0	146276352	64	4344
2026-01-18 13:59:01.17	238.69	8.86	-46.5	-48.0	23.1	6.07e-01	0	35	0	147849216	64	4333
2026-01-18 13:59:02.18	238.84	8.92	-46.5	-48.1	23.1	6.07e-01	0	35	0	149946368	64	4344
2026-01-18 13:59:03.19	239.00	8.98	-46.4	-48.0	23.1	6.05e-01	0	35	0	151519232	64	4302
2026-01-18 13:59:04.20	239.15	9.03	-46.6	-48.1	23.0	6.06e-01	0	35	0	153616384	64	4382
2026-01-18 13:59:05.20	239.31	9.09	-46.6	-48.1	23.0	6.07e-01	0	35	0	155189248	64	4371
2026-01-18 13:59:06.21	239.47	9.15	-46.5	-48.0	23.1	6.06e-01	0	35	0	157286400	64	4311
2026-01-18 13:59:07.22	239.62	9.20	-46.5	-48.0	23.2	6.06e-01	0	35	0	159383552	64	4308
2026-01-18 13:59:08.23	239.78	9.26	-46.3	-47.8	23.3	6.07e-01	0	35	0	161480704	64	4238
2026-01-18 13:59:09.24	239.94	9.32	-46.3	-47.8	23.3	6.08e-01	0	35	0	163053568	64	4240
2026-01-18 13:59:10.25	240.10	9.37	-46.4	-47.9	23.3	6.08e-01	0	35	0	165150720	64	4269
2026-01-18 13:59:11.25	240.26	9.43	-46.4	-47.9	23.2	6.08e-01	0	35	0	166723584	64	4283
2026-01-18 13:59:12.26	240.42	9.49	-46.4	-47.9	23.3	6.06e-01	0	35	0	168820736	64	4251
2026-01-18 13:59:13.27	240.58	9.54	-46.3	-47.8	23.4	6.06e-01	0	35	0	170393600	64	4231
2026-01-18 13:59:14.28	240.74	9.60	-46.3	-47.7	23.5	6.06e-01	0	35	0	172490752	64	4184
2026-01-18 13:59:15.29	240.90	9.66	-46.3	-47.8	23.4	6.05e-01	0	35	0	174587904	64	4216
2026-01-18 13:59:16.29	241.07	9.71	-46.4	-47.9	23.3	6.07e-01	0	35	0	176160768	64	4244
2026-01-18 13:59:17.30	241.23	9.77	-46.4	-47.9	23.3	6.06e-01	0	35	0	178257920	64	4243
2026-01-18 13:59:18.31	241.39	9.83	-46.5	-48.0	23.2	6.06e-01	0	35	0	180355072	64	4311
2026-01-18 13:59:19.32	241.56	9.88	-46.4	-47.9	23.3	6.07e-01	0	35	0	181927936	64	4245
2026-01-18 13:59:20.33	241.73	9.94	-46.2	-47.6	23.6	6.06e-01	0	35	0	184025088	64	4131
2026-01-18 13:59:21.33	241.89	10.00	-46.1	-47.5	23.6	6.05e-01	0	35	0	185597952	64	4096
2026-01-18 13:59:22.34	242.06	10.05	-46.1	-47.6	23.7	6.07e-01	0	35	0	187695104	64	4112
2026-01-18 13:59:23.35	242.23	10.11	-46.2	-47.7	23.6	6.07e-01	0	35	0	189792256	64	4158
2026-01-18 13:59:24.36	242.39	10.16	-46.3	-47.8	23.4	6.04e-01	0	35	0	191365120	64	4236
2026-01-18 13:59:25.37	242.56	10.22	-46.3	-47.8	23.4	6.06e-01	0	35	0	193462272	64	4208
2026-01-18 13:59:26.37	242.73	10.28	-46.1	-47.6	23.6	6.06e-01	0	35	0	195035136	64	4117
2026-01-18 13:59:27.38	242.90	10.33	-46.1	-47.6	23.7	6.08e-01	0	35	0	197132288	64	4114
2026-01-18 13:59:28.38	243.07	10.39	-46.1	-47.5	23.7	6.06e-01	0	35	0	198705152	64	4093
2026-01-18 13:59:29.39	243.24	10.44	-46.0	-47.4	23.8	6.05e-01	0	35	0	200802304	64	4037
2026-01-18 13:59:30.40	243.42	10.50	-46.2	-47.6	23.6	6.06e-01	0	35	0	202899456	64	4133
2026-01-18 13:59:31.41	243.59	10.56	-46.2	-47.6	23.6	6.06e-01	0	35	0	204996608	64	4143
2026-01-18 13:59:32.42	243.76	10.61	-46.2	-47.6	23.6	6.06e-01	0	35	0	206569472	64	4138
2026-01-18 13:59:33.43	243.94	10.67	-46.2	-47.7	23.5	6.07e-01	0	35	0	208666624	64	4176
2026-01-18 13:59:34.43	244.11	10.72	-46.1	-47.6	23.7	6.09e-01	0	35	0	210239488	64	4111
2026-01-18 13:59:35.44	244.29	10.78	-46.2	-47.6	23.6	6.05e-01	0	35	0	212336640	64	4137
2026-01-18 13:59:36.45	244.47	10.83	-46.0	-47.4	23.8	6.06e-01	0	35	0	213909504	64	4046
2026-01-18 13:59:37.46	244.64	10.89	-46.1	-47.5	23.8	6.07e-01	0	35	0	216006656	63	4339
2026-01-18 13:59:38.46	244.82	10.94	-46.1	-47.6	23.8	6.05e-01	0	35	0	218103808	63	4346
2026-01-18 13:59:39.47	245.00	11.00	-46.1	-47.6	23.8	6.06e-01	0	35	0	219676672	63	4342
2026-01-18 13:59:40.48	245.18	11.05	-46.2	-47.6	23.8	6.05e-01	0	35	0	221773824	63	4368
2026-01-18 13:59:41.49	245.36	11.11	-46.0	-47.4	23.9	6.07e-01	0	35	0	223346688	63	4281
2026-01-18 13:59:42.50	245.54	11.16	-46.1	-47.6	23.7	6.07e-01	0	35	0	225443840	63	4357
2026-01-18 13:59:43.51	245.72	11.22	-46.0	-47.4	23.9	6.07e-01	0	35	0	227016704	63	4257
2026-01-18 13:59:44.51	245.90	11.27	-45.9	-47.3	24.1	6.04e-01	0	35	0	229113856	63	4225
2026-01-18 13:59:45.52	246.08	11.32	-46.0	-47.4	24.0	6.07e-01	0	35	0	231211008	63	4270
2026-01-18 13:59:46.53	246.27	11.38	-45.9	-47.3	24.0	6.05e-01	0	35	0	233308160	63	4236
2026-01-18 13:59:47.54	246.45	11.43	-46.0	-47.4	24.0	6.06e-01	0	35	0	234881024	63	4245
2026-01-18 13:59:48.55	246.64	11.49	-46.0	-47.4	24.0	6.05e-01	0	35	0	236978176	63	4271
2026-01-18 13:59:49.55	246.82	11.54	-46.0	-47.4	24.0	6.07e-01	0	35	0	238551040	63	4265
2026-01-18 13:59:50.56	247.01	11.59	-46.1	-47.6	23.5	6.05e-01	0	35	0	240648192	63	4351
2026-01-18 13:59:51.57	247.20	11.65	-46.0	-47.4	24.0	6.06e-01	0	35	0	242221056	63	4243
2026-01-18 13:59:52.58	247.38	11.70	-45.9	-47.3	24.1	6.07e-01	0	35	0	244318208	63	4219
2026-01-18 13:59:53.59	247.57	11.76	-45.9	-47.3	24.1	6.06e-01	0	35	0	246415360	63	4214
2026-01-18 13:59:54.59	247.76	11.81	-45.9	-47.3	24.0	6.10e-01	0	35	0	247988224	63	4232
2026-01-18 13:59:55.60	247.95	11.86	-45.8	-47.2	24.1	6.06e-01	0	35	0	250085376	63	4179
2026-01-18 13:59:56.61	248.14	11.91	-45.9	-47.3	24.1	6.06e-01	0	35	0	252182528	63	4228
2026-01-18 13:59:57.62	248.33	11.97	-45.8	-47.1	24.3	6.08e-01	0	35	0	253755392	63	4126
2026-01-18 13:59:58.62	248.52	12.02	-45.8	-47.2	24.2	6.06e-01	0	35	0	255852544	63	4160
2026-01-18 13:59:59.63	248.72	12.07	-45.8	-47.2	24.2	6.06e-01	0	35	0	257425408	63	4162
2026-01-18 14:00:00.64	248.91	12.12	-46.0	-47.4	24.0	6.06e-01	0	35	0	259522560	63	4252
2026-01-18 14:00:01.65	249.11	12.18	-45.9	-47.3	24.1	6.08e-01	0	35	0	261619712	63	4201
2026-01-18 14:00:02.66	249.30	12.23	-45.9	-47.3	24.1	6.07e-01	0	35	0	263192576	63	4196
2026-01-18 14:00:03.67	249.50	12.28	-45.9	-47.3	24.1	6.07e-01	0	35	0	265289728	63	4206
2026-01-18 14:00:04.67	249.69	12.33	-45.8	-47.1	24.3	6.05e-01	0	35	0	266862592	63	4136
2026-01-18 14:00:05.68	249.89	12.38	-45.9	-47.3	24.2	6.05e-01	0	35	0	268959744	63	4200
2026-01-18 14:00:06.69	250.09	12.43	-45.8	-47.1	24.0	6.04e-01	0	35	0	270532608	63	4145
2026-01-18 14:00:07.69	250.28	12.49	-45.8	-47.1	24.2	6.05e-01	0	35	0	272629760	63	4143
2026-01-18 14:00:08.70	250.48	12.54	-45.8	-47.2	24.3	6.05e-01	0	35	0	274726912	63	4157
2026-01-18 14:00:09.71	250.68	12.59	-45.7	-47.1	24.3	6.07e-01	0	35	0	276299776	63	4124
2026-01-18 14:00:10.72	250.89	12.64	-45.8	-47.2	24.3	6.04e-01	0	35	0	278396928	63	4148
2026-01-18 14:00:11.72	251.08	12.69	-45.8	-47.1	24.3	6.06e-01	0	35	0	280494080	63	4139
2026-01-18 14:00:12.73	251.29	12.74	-45.6	-47.0	24.5	6.04e-01	0	35	0	282066944	63	4055
2026-01-18 14:00:13.74	251.49	12.79	-45.6	-46.9	24.5	6.06e-01	0	35	0	284164096	63	4024
2026-01-18 14:00:14.75	251.69	12.84	-45.6	-46.9	24.5	6.05e-01	0	35	0	285736960	63	4041
2026-01-18 14:00:15.76	251.90	12.89	-45.6	-47.0	24.5	6.06e-01	0	35	0	287834112	63	4066
2026-01-18 14:00:16.77	252.10	12.94	-45.7	-47.0	24.4	6.05e-01	0	35	0	289931264	63	4081
2026-01-18 14:00:17.77	252.31	12.99	-45.7	-47.1	24.3	6.07e-01	0	35	0	291504128	63	4118
2026-01-18 14:00:18.78	252.52	13.04	-45.8	-47.1	24.3	6.06e-01	0	35	0	293601280	63	4132
2026-01-18 14:00:19.79	252.72	13.08	-45.7	-47.0	24.4	6.06e-01	0	35	0	295174144	63	4083
2026-01-18 14:00:20.80	252.93	13.13	-45.6	-46.9	24.5	6.06e-01	0	35	0	297271296	63	4030
2026-01-18 14:00:21.81	253.14	13.18	-45.6	-47.0	24.4	6.04e-01	0	35	0	298844160	63	4063
2026-01-18 14:00:22.81	253.35	13.23	-45.7	-47.0	24.4	6.06e-01	0	35	0	300941312	63	4078
2026-01-18 14:00:23.82	253.56	13.28	-45.6	-47.0	24.4	6.06e-01	0	35	0	303038464	63	4074
2026-01-18 14:00:24.83	253.77	13.32	-45.6	-47.0	24.5	6.05e-01	0	35	0	304611328	63	4064
2026-01-18 14:00:25.84	253.98	13.37	-45.6	-46.9	24.5	6.06e-01	0	35	0	306708480	63	4031
2026-01-18 14:00:26.84	254.19	13.42	-45.6	-47.0	24.5	6.06e-01	0	35	0	308805632	63	4062
2026-01-18 14:00:27.85	254.40	13.47	-45.6	-46.9	24.5	6.05e-01	0	35	0	310378496	63	4040
2026-01-18 14:00:28.86	254.62	13.51	-45.7	-47.0	24.4	6.08e-01	0	35	0	312475648	63	4088
2026-01-18 14:00:29.87	254.83	13.56	-45.6	-47.0	24.5	6.06e-01	0	35	0	314048512	63	4069
2026-01-18 14:00:30.88	255.05	13.61	-45.6	-47.0	24.5	6.04e-01	0	35	0	316145664	63	4057
2026-01-18 14:00:31.88	255.26	13.65	-45.7	-47.0	24.4	6.09e-01	0	35	0	318242816	63	4093
2026-01-18 14:00:32.89	255.48	13.70	-45.7	-47.1	24.4	6.07e-01	0	35	0	319815680	63	4099
2026-01-18 14:00:33.90	255.69	13.74	-45.6	-46.9	24.5	6.06e-01	0	35	0	321912832	63	4045
2026-01-18 14:00:34.91	255.91	13.79	-45.7	-47.0	24.4	6.04e-01	0	36	0	324009984	63	4081
2026-01-18 14:00:35.92	256.13	13.83	-45.7	-47.1	24.4	6.05e-01	0	35	0	325582848	63	4120
2026-01-18 14:00:36.92	256.35	13.88	-45.5	-46.8	24.7	6.06e-01	0	35	0	327680000	63	3982
2026-01-18 14:00:37.92	256.57	13.92	-45.5	-46.8	24.6	6.08e-01	0	35	0	329252864	62	4231
2026-01-18 14:00:38.93	256.79	13.97	-45.5	-46.9	24.6	6.06e-01	0	35	0	331350016	62	4254
2026-01-18 14:00:39.94	257.01	14.01	-45.5	-46.8	24.6	6.05e-01	0	35	0	333447168	62	4229
2026-01-18 14:00:40.95	257.23	14.05	-45.5	-46.8	24.7	6.05e-01	0	35	0	335020032	62	4220
2026-01-18 14:00:41.96	257.45	14.10	-45.4	-46.7	24.7	6.06e-01	0	35	0	337117184	62	4184
2026-01-18 14:00:42.96	257.67	14.14	-45.5	-46.8	24.6	6.06e-01	0	35	0	338690048	62	4229
2026-01-18 14:00:43.97	257.90	14.18	-45.5	-46.9	24.6	6.06e-01	0	35	0	340787200	62	4252
2026-01-18 14:00:44.98	258.12	14.22	-45.5	-46.8	24.6	6.06e-01	0	35	0	342360064	62	4229
2026-01-18 14:00:45.99	258.35	14.27	-45.4	-46.7	24.8	6.09e-01	0	35	0	344457216	62	4161
2026-01-18 14:00:47.00	258.58	14.31	-45.4	-46.7	24.7	6.06e-01	0	35	0	346554368	62	4172
2026-01-18 14:00:48.01	258.80	14.35	-45.3	-46.6	24.9	6.04e-01	0	36	0	348127232	62	4113
2026-01-18 14:00:49.01	259.03	14.39	-45.3	-46.6	24.8	6.08e-01	0	35	0	350224384	62	4143
2026-01-18 14:00:50.02	259.26	14.43	-45.4	-46.7	24.8	6.05e-01	0	35	0	352321536	62	4155
2026-01-18 14:00:51.03	259.48	14.47	-45.4	-46.7	24.8	6.05e-01	0	35	0	353894400	62	4147
2026-01-18 14:00:52.04	259.71	14.51	-45.4	-46.7	24.8	6.06e-01	0	35	0	355991552	62	4160
2026-01-18 14:00:53.04	259.94	14.55	-45.5	-46.8	24.7	6.05e-01	0	35	0	357564416	62	4204
2026-01-18 14:00:54.05	260.17	14.59	-45.6	-46.9	24.6	6.07e-01	0	35	0	359661568	62	4256
2026-01-18 14:00:55.06	260.40	14.63	-45.6	-46.9	24.6	6.05e-01	0	35	0	361758720	62	4263
2026-01-18 14:00:56.06	260.63	14.67	-45.6	-46.9	24.6	6.05e-01	0	35	0	363331584	62	4265
2026-01-18 14:00:57.07	260.86	14.71	-45.4	-46.8	24.7	6.06e-01	0	35	0	365428736	62	4194
2026-01-18 14:00:58.08	261.10	14.74	-45.4	-46.7	24.8	6.07e-01	0	35	0	367001600	62	4167
2026-01-18 14:00:59.09	261.33	14.78	-45.4	-46.7	24.8	6.06e-01	0	35	0	369098752	62	4174
2026-01-18 14:01:00.10	261.57	14.82	-45.5	-46.8	24.6	6.03e-01	0	35	0	370671616	62	4242
2026-01-18 14:01:01.10	261.80	14.86	-45.5	-46.8	24.6	6.06e-01	0	35	0	372768768	62	4217
2026-01-18 14:01:02.11	262.03	14.89	-45.4	-46.7	24.8	6.05e-01	0	35	0	374865920	62	4180
2026-01-18 14:01:03.12	262.27	14.93	-45.4	-46.8	24.7	6.06e-01	0	35	0	376438784	62	4195
2026-01-18 14:01:04.13	262.51	14.97	-45.4	-46.7	24.8	6.07e-01	0	35	0	378535936	62	4159
2026-01-18 14:01:05.14	262.74	15.00	-45.4	-46.8	24.7	6.04e-01	0	35	0	380633088	62	4201
2026-01-18 14:01:06.14	262.98	15.04	-45.5	-46.8	24.7	6.06e-01	0	36	0	382205952	62	4216
2026-01-18 14:01:07.15	263.22	15.07	-45.5	-46.8	24.7	6.06e-01	0	35	0	384303104	62	4213
2026-01-18 14:01:08.16	263.46	15.10	-45.4	-46.7	24.8	6.07e-01	0	35	0	385875968	62	4157
2026-01-18 14:01:09.17	263.70	15.14	-45.5	-46.8	24.7	6.07e-01	0	35	0	387973120	62	4224
2026-01-18 14:01:10.17	263.93	15.17	-45.5	-46.9	24.6	6.06e-01	0	35	0	390070272	62	4251
2026-01-18 14:01:11.18	264.18	15.20	-45.4	-46.8	24.7	6.05e-01	0	35	0	391643136	62	4198
2026-01-18 14:01:12.19	264.42	15.24	-45.5	-46.8	24.8	6.05e-01	0	35	0	393740288	62	4196
2026-01-18 14:01:13.20	264.66	15.27	-45.4	-46.8	24.8	6.07e-01	0	36	0	395313152	62	4196
2026-01-18 14:01:14.21	264.90	15.30	-45.4	-46.7	24.8	6.08e-01	0	35	0	397410304	62	4167
2026-01-18 14:01:15.21	265.14	15.33	-45.4	-46.7	24.8	6.08e-01	0	35	0	399507456	62	4168
2026-01-18 14:01:16.22	265.38	15.36	-45.6	-46.9	24.6	6.07e-01	0	35	0	401080320	62	4253
2026-01-18 14:01:17.23	265.63	15.40	-45.4	-46.7	24.8	6.05e-01	0	36	0	403177472	62	4167
2026-01-18 14:01:18.24	265.87	15.43	-45.5	-46.8	24.7	6.07e-01	0	36	0	404750336	62	4233
2026-01-18 14:01:19.24	266.12	15.46	-45.6	-46.9	24.6	6.06e-01	0	35	0	406847488	62	4271
2026-01-18 14:01:20.25	266.36	15.48	-45.5	-46.8	24.7	6.08e-01	0	35	0	408944640	62	4218
2026-01-18 14:01:21.26	266.61	15.51	-45.4	-46.7	24.8	6.06e-01	0	35	0	410517504	62	4180
2026-01-18 14:01:22.27	266.85	15.54	-45.3	-46.6	24.9	6.07e-01	0	35	0	412614656	62	4124
2026-01-18 14:01:23.28	267.10	15.57	-45.4	-46.7	24.7	6.06e-01	0	35	0	414187520	62	4179
2026-01-18 14:01:24.28	267.34	15.60	-45.4	-46.7	24.7	6.06e-01	0	35	0	416284672	62	4175
2026-01-18 14:01:25.29	267.59	15.62	-45.5	-46.8	24.7	6.06e-01	0	36	0	418381824	62	4202
2026-01-18 14:01:26.30	267.84	15.65	-45.5	-46.8	24.7	6.04e-01	0	35	0	419954688	62	4221
2026-01-18 14:01:27.31	268.09	15.68	-45.4	-46.7	24.8	6.06e-01	0	35	0	422051840	62	4176
2026-01-18 14:01:28.31	268.34	15.70	-45.5	-46.9	24.6	6.08e-01	0	35	0	424148992	62	4250
2026-01-18 14:01:29.32	268.59	15.73	-45.5	-46.8	24.7	6.04e-01	0	35	0	425721856	62	4214
2026-01-18 14:01:30.33	268.84	15.75	-45.5	-46.8	24.7	6.05e-01	0	35	0	427819008	62	4225
2026-01-18 14:01:31.34	269.09	15.78	-45.5	-46.8	24.7	6.06e-01	0	36	0	429391872	62	4215
2026-01-18 14:01:32.35	269.34	15.80	-45.5	-46.8	24.7	6.06e-01	0	35	0	431489024	62	4204
2026-01-18 14:01:33.36	269.59	15.83	-45.6	-46.9	24.6	6.07e-01	0	35	0	433061888	62	4269
2026-01-18 14:01:34.36	269.84	15.85	-45.4	-46.7	24.7	6.07e-01	0	35	0	435159040	62	4182
2026-01-18 14:01:35.37	270.09	15.87	-45.3	-46.7	24.3	6.04e-01	0	36	0	437256192	62	4153
2026-01-18 14:01:36.38	270.34	15.89	-45.3	-46.6	24.2	6.06e-01	0	36	0	438829056	62	4144
2026-01-18 14:01:37.39	270.60	15.92	-45.4	-46.8	24.4	6.07e-01	0	35	0	440926208	62	4196
2026-01-18 14:01:38.40	270.85	15.94	-45.4	-46.8	23.7	6.08e-01	0	35	0	442499072	62	4207
2026-01-18 14:01:39.40	271.10	15.96	-45.5	-46.9	23.9	6.05e-01	0	35	0	444596224	62	4243
2026-01-18 14:01:40.41	271.35	15.98	-45.5	-46.8	23.9	6.06e-01	0	35	0	446693376	62	4216
2026-01-18 14:01:41.42	271.61	16.00	-45.5	-46.8	24.2	6.06e-01	0	35	0	448266240	62	4209
2026-01-18 14:01:42.43	271.86	16.02	-45.4	-46.7	24.8	6.03e-01	0	35	0	450363392	62	4151
2026-01-18 14:01:43.43	272.12	16.03	-45.4	-46.7	24.6	6.07e-01	0	35	0	452460544	62	4182
2026-01-18 14:01:44.44	272.37	16.05	-45.4	-46.7	24.7	6.06e-01	0	35	0	454033408	62	4168
2026-01-18 14:01:45.45	272.63	16.07	-45.4	-46.7	24.8	6.06e-01	0	35	0	456130560	62	4182
2026-01-18 14:01:46.46	272.88	16.09	-45.5	-46.8	24.8	6.07e-01	0	36	0	457703424	62	4198
2026-01-18 14:01:47.46	273.14	16.10	-45.5	-46.8	24.7	6.06e-01	0	35	0	459800576	62	4232
2026-01-18 14:01:48.47	273.39	16.12	-45.5	-46.8	24.6	6.08e-01	0	35	0	461373440	62	4242
2026-01-18 14:01:49.48	273.65	16.14	-45.4	-46.7	24.8	6.07e-01	0	35	0	463470592	62	4171
2026-01-18 14:01:50.49	273.91	16.15	-45.3	-46.6	24.9	6.05e-01	0	35	0	465567744	62	4133
2026-01-18 14:01:51.50	274.16	16.17	-45.5	-46.8	24.8	6.05e-01	0	35	0	467140608	62	4195
2026-01-18 14:01:52.51	274.42	16.18	-45.4	-46.7	24.7	6.03e-01	0	36	0	469237760	62	4186
2026-01-18 14:01:53.51	274.68	16.19	-45.4	-46.7	24.8	6.06e-01	0	36	0	471334912	62	4165
2026-01-18 14:01:54.52	274.93	16.21	-45.4	-46.7	24.9	6.07e-01	0	35	0	472907776	62	4150
2026-01-18 14:01:55.53	275.19	16.22	-45.5	-46.8	24.8	6.06e-01	0	36	0	475004928	62	4207
2026-01-18 14:01:56.54	275.45	16.23	-45.6	-46.9	24.7	6.04e-01	0	35	0	476577792	62	4274
2026-01-18 14:01:57.54	275.71	16.24	-45.6	-46.9	24.7	6.05e-01	0	36	0	478674944	62	4254
2026-01-18 14:01:58.55	275.97	16.25	-45.5	-46.8	24.7	6.04e-01	0	35	0	480772096	62	4229
2026-01-18 14:01:59.56	276.22	16.27	-45.5	-46.8	24.7	6.08e-01	0	35	0	482344960	62	4236
2026-01-18 14:02:00.57	276.48	16.28	-45.5	-46.8	24.7	6.06e-01	0	35	0	484442112	62	4236
2026-01-18 14:02:01.58	276.74	16.28	-45.6	-46.9	24.7	6.05e-01	0	35	0	486014976	62	4269
2026-01-18 14:02:02.59	277.00	16.29	-45.6	-46.9	24.6	6.06e-01	0	35	0	488112128	62	4278
2026-01-18 14:02:03.60	277.26	16.30	-45.6	-46.9	24.6	6.05e-01	0	35	0	489684992	62	4284
2026-01-18 14:02:04.61	277.52	16.31	-45.6	-47.0	24.6	6.07e-01	0	36	0	491782144	62	4294
2026-01-18 14:02:05.61	277.78	16.32	-45.6	-47.0	24.6	6.07e-01	0	35	0	493879296	62	4301
2026-01-18 14:02:06.62	278.04	16.32	-45.8	-47.1	24.5	6.06e-01	0	36	0	495976448	62	4377
2026-01-18 14:02:07.63	278.30	16.33	-45.6	-47.0	24.6	6.05e-01	0	35	0	497549312	62	4297
2026-01-18 14:02:08.63	278.56	16.34	-45.5	-46.8	24.8	6.06e-01	0	35	0	499646464	62	4200
2026-01-18 14:02:09.64	278.82	16.34	-45.5	-46.7	24.8	6.07e-01	0	35	0	501219328	62	4192
2026-01-18 14:02:10.65	279.08	16.35	-45.5	-46.9	24.7	6.06e-01	0	35	0	503316480	62	4245
2026-01-18 14:02:11.66	279.34	16.35	-45.6	-46.9	24.7	6.05e-01	0	35	0	504889344	62	4272
2026-01-18 14:02:12.66	279.60	16.35	-45.5	-46.8	24.8	6.06e-01	0	35	0	506986496	62	4203
2026-01-18 14:02:13.67	279.86	16.36	-45.5	-46.8	24.8	6.07e-01	0	35	0	509083648	62	4229
2026-01-18 14:02:14.68	280.12	16.36	-45.6	-46.9	24.7	6.05e-01	0	35	0	510656512	62	4268
2026-01-18 14:02:15.69	280.38	16.36	-45.6	-46.9	24.7	6.06e-01	0	35	0	512753664	62	4264
2026-01-18 14:02:16.70	280.64	16.36	-45.4	-46.7	24.8	6.06e-01	0	35	0	514326528	62	4185
2026-01-18 14:02:17.70	280.90	16.36	-45.4	-46.7	24.9	6.05e-01	0	35	0	516423680	62	4172
2026-01-18 14:02:18.71	281.16	16.36	-45.5	-46.8	24.8	6.04e-01	0	35	0	518520832	62	4223
2026-01-18 14:02:19.72	281.42	16.36	-45.6	-46.9	24.8	6.06e-01	0	35	0	520093696	62	4265
2026-01-18 14:02:20.73	281.68	16.36	-45.6	-46.9	24.7	6.06e-01	0	35	0	522190848	62	4265
2026-01-18 14:02:21.74	281.94	16.36	-45.6	-46.9	24.8	6.03e-01	0	35	0	524288000	62	4246
2026-01-18 14:02:22.74	282.20	16.36	-45.7	-47.0	24.6	6.06e-01	0	35	0	525860864	62	4306
2026-01-18 14:02:23.75	282.46	16.36	-45.7	-47.0	24.7	6.06e-01	0	35	0	527958016	62	4302
2026-01-18 14:02:24.76	282.72	16.36	-45.6	-46.9	24.8	6.06e-01	0	35	0	529530880	62	4256
2026-01-18 14:02:25.77	282.98	16.35	-45.5	-46.8	24.9	6.08e-01	0	36	0	531628032	62	4221
2026-01-18 14:02:26.77	283.24	16.35	-45.7	-47.0	24.7	6.05e-01	0	35	0	533200896	62	4298
2026-01-18 14:02:27.78	283.50	16.34	-45.6	-46.9	24.7	6.05e-01	0	36	0	535298048	62	4264
2026-01-18 14:02:28.79	283.76	16.34	-45.6	-46.9	24.8	6.06e-01	0	35	0	537395200	62	4254
2026-01-18 14:02:29.80	284.02	16.33	-45.7	-47.0	24.7	6.05e-01	0	36	0	538968064	62	4311
2026-01-18 14:02:30.80	284.28	16.33	-45.7	-47.0	24.7	6.07e-01	0	36	0	541065216	62	4324
2026-01-18 14:02:31.81	284.54	16.32	-45.6	-47.0	24.7	6.06e-01	0	36	0	543162368	62	4297
2026-01-18 14:02:32.82	284.80	16.31	-45.7	-46.9	24.7	6.08e-01	0	36	0	544735232	62	4291
2026-01-18 14:02:33.83	285.06	16.31	-45.6	-46.9	24.8	6.07e-01	0	35	0	546832384	62	4272
2026-01-18 14:02:34.84	285.32	16.30	-45.8	-47.1	24.6	6.06e-01	0	36	0	548405248	62	4364
2026-01-18 14:02:35.85	285.58	16.29	-45.7	-47.1	24.6	6.04e-01	0	35	0	550502400	62	4348
2026-01-18 14:02:36.85	285.83	16.28	-45.6	-46.9	24.7	6.05e-01	0	36	0	552599552	62	4276
2026-01-18 14:02:37.86	286.09	16.27	-45.6	-46.9	24.8	6.04e-01	0	35	0	554172416	62	4274
2026-01-18 14:02:38.86	286.35	16.26	-45.7	-47.0	24.7	6.05e-01	0	35	0	556269568	62	4304
2026-01-18 14:02:39.87	286.61	16.25	-45.7	-47.1	24.7	6.04e-01	0	35	0	557842432	62	4345
2026-01-18 14:02:40.88	286.87	16.24	-45.8	-47.1	24.6	6.02e-01	0	35	0	559939584	62	4381
2026-01-18 14:02:41.89	287.13	16.23	-45.8	-47.1	24.5	6.03e-01	0	36	0	561512448	62	4377
2026-01-18 14:02:42.90	287.38	16.21	-45.6	-46.9	24.7	6.02e-01	0	36	0	563609600	62	4280
2026-01-18 14:02:43.90	287.64	16.20	-45.7	-47.0	24.7	6.05e-01	0	35	0	565706752	62	4305
2026-01-18 14:02:44.91	287.90	16.19	-45.7	-47.0	24.7	6.00e-01	0	35	0	567803904	62	4318
2026-01-18 14:02:45.92	288.15	16.17	-45.6	-46.9	24.8	6.03e-01	0	35	0	569376768	62	4283
2026-01-18 14:02:46.93	288.41	16.16	-45.6	-46.9	24.8	6.03e-01	0	36	0	571473920	62	4250
2026-01-18 14:02:47.93	288.66	16.15	-45.7	-47.0	24.7	6.02e-01	0	36	0	573046784	62	4309
2026-01-18 14:02:48.94	288.92	16.13	-45.6	-46.9	24.8	6.03e-01	0	35	0	575143936	62	4290
2026-01-18 14:02:49.95	289.18	16.11	-45.6	-46.9	24.8	6.01e-01	0	35	0	576716800	62	4258
2026-01-18 14:02:50.96	289.43	16.10	-45.6	-46.9	24.7	6.04e-01	0	36	0	578813952	62	4288
2026-01-18 14:02:51.96	289.69	16.08	-45.6	-46.9	24.8	6.03e-01	0	35	0	580911104	62	4261
2026-01-18 14:02:52.97	289.94	16.06	-45.6	-46.9	24.8	6.06e-01	0	35	0	582483968	62	4276
2026-01-18 14:02:53.98	290.20	16.05	-45.6	-46.9	24.8	6.02e-01	0	36	0	584581120	62	4251
2026-01-18 14:02:54.99	290.45	16.03	-45.7	-47.0	24.7	6.07e-01	0	36	0	586153984	62	4295
2026-01-18 14:02:56.00	290.71	16.01	-45.8	-47.1	24.6	6.03e-01	0	35	0	588251136	62	4391
2026-01-18 14:02:57.01	290.96	15.99	-45.6	-47.0	24.7	6.01e-01	0	36	0	590348288	62	4293
2026-01-18 14:02:58.01	291.21	15.97	-45.6	-46.9	24.8	6.01e-01	0	35	0	591921152	62	4282
2026-01-18 14:02:59.03	291.47	15.95	-45.7	-47.0	24.8	6.04e-01	0	35	0	594018304	62	4296
2026-01-18 14:03:00.03	291.72	15.93	-45.7	-47.0	24.7	6.04e-01	0	36	0	596115456	62	4304
2026-01-18 14:03:01.04	291.97	15.91	-45.8	-47.2	24.6	6.02e-01	0	36	0	597688320	62	4400
2026-01-18 14:03:02.05	292.22	15.88	-45.8	-47.1	24.7	6.04e-01	0	36	0	599785472	62	4365
2026-01-18 14:03:03.06	292.47	15.86	-45.9	-47.2	24.5	6.03e-01	0	35	0	601358336	62	4403
2026-01-18 14:03:04.06	292.72	15.84	-45.8	-47.2	24.6	6.03e-01	0	35	0	603455488	62	4400
2026-01-18 14:03:05.07	292.97	15.82	-45.8	-47.1	24.6	6.03e-01	0	35	0	605028352	62	4375
2026-01-18 14:03:06.08	293.23	15.79	-45.9	-47.3	24.4	6.02e-01	0	36	0	607125504	62	4456
2026-01-18 14:03:07.09	293.48	15.77	-45.7	-47.0	24.7	6.03e-01	0	35	0	609222656	62	4330
2026-01-18 14:03:08.10	293.73	15.74	-45.6	-46.8	24.8	6.02e-01	0	35	0	610795520	62	4241
2026-01-18 14:03:09.10	293.97	15.72	-45.5	-46.8	24.9	6.05e-01	0	35	0	612892672	62	4219
2026-01-18 14:03:10.11	294.22	15.69	-45.6	-46.9	24.8	6.04e-01	0	36	0	614989824	62	4273
2026-01-18 14:03:11.12	294.47	15.67	-45.7	-47.0	24.7	6.05e-01	0	35	0	616562688	62	4317
2026-01-18 14:03:12.13	294.72	15.64	-45.7	-47.0	24.7	6.03e-01	0	36	0	618659840	62	4304
2026-01-18 14:03:13.13	294.96	15.61	-45.7	-47.1	24.6	6.03e-01	0	36	0	620232704	62	4347
2026-01-18 14:03:14.14	295.21	15.59	-45.8	-47.1	24.6	6.03e-01	0	36	0	622329856	62	4382
2026-01-18 14:03:15.15	295.46	15.56	-45.7	-47.0	24.7	6.03e-01	0	35	0	624427008	62	4332
2026-01-18 14:03:16.16	295.70	15.53	-45.6	-46.9	24.8	6.03e-01	0	36	0	625999872	62	4276
2026-01-18 14:03:17.16	295.95	15.50	-45.6	-46.9	24.8	6.04e-01	0	35	0	628097024	62	4278
2026-01-18 14:03:18.18	296.19	15.47	-45.6	-46.9	24.8	6.03e-01	0	35	0	629669888	62	4277
2026-01-18 14:03:19.18	296.44	15.44	-45.7	-47.0	24.7	6.04e-01	0	36	0	631767040	62	4311
2026-01-18 14:03:20.19	296.68	15.41	-45.7	-47.0	24.7	6.03e-01	0	35	0	633339904	62	4307
2026-01-18 14:03:21.20	296.92	15.38	-45.6	-46.9	24.8	6.04e-01	0	35	0	635437056	62	4261
2026-01-18 14:03:22.21	297.17	15.35	-45.7	-47.0	24.7	6.03e-01	0	35	0	637534208	62	4309
2026-01-18 14:03:23.21	297.41	15.32	-45.7	-47.0	24.6	6.02e-01	0	35	0	639631360	62	4336
2026-01-18 14:03:24.22	297.65	15.29	-45.7	-47.0	24.7	6.03e-01	0	35	0	641204224	62	4338
2026-01-18 14:03:25.23	297.89	15.26	-45.7	-47.0	24.7	6.06e-01	0	35	0	643301376	62	4327
2026-01-18 14:03:26.23	298.13	15.23	-45.7	-46.9	24.8	6.02e-01	0	35	0	644874240	62	4291
2026-01-18 14:03:27.24	298.37	15.19	-45.6	-46.9	24.8	6.03e-01	0	35	0	646971392	62	4266
2026-01-18 14:03:28.25	298.61	15.16	-45.7	-47.0	24.8	6.02e-01	0	35	0	648544256	62	4314
2026-01-18 14:03:29.26	298.85	15.13	-45.7	-47.1	24.7	6.03e-01	0	35	0	650641408	62	4349
2026-01-18 14:03:30.26	299.08	15.09	-45.7	-47.0	24.7	6.04e-01	0	36	0	652738560	62	4317
2026-01-18 14:03:31.27	299.32	15.06	-45.7	-47.0	24.7	6.02e-01	0	36	0	654311424	62	4333
2026-01-18 14:03:32.28	299.56	15.02	-45.7	-47.1	24.6	6.04e-01	0	35	0	656408576	62	4347
2026-01-18 14:03:33.29	299.80	14.99	-45.7	-47.0	24.7	6.06e-01	0	35	0	657981440	62	4327
2026-01-18 14:03:34.30	300.03	14.95	-45.8	-47.1	24.5	6.03e-01	0	35	0	660078592	62	4379
2026-01-18 14:03:35.31	300.27	14.92	-45.7	-47.0	24.7	6.04e-01	0	36	0	661651456	62	4321
2026-01-18 14:03:36.31	300.50	14.88	-45.7	-47.0	24.7	6.03e-01	0	36	0	663748608	62	4301
2026-01-18 14:03:37.32	300.74	14.84	-45.6	-46.9	24.8	6.02e-01	0	36	0	665845760	62	4277
2026-01-18 14:03:38.33	300.97	14.81	-45.7	-47.1	24.6	6.02e-01	0	35	0	667942912	62	4341
2026-01-18 14:03:39.33	301.20	14.77	-45.7	-47.0	24.7	6.05e-01	0	35	0	669515776	62	4312
2026-01-18 14:03:40.34	301.43	14.73	-45.7	-47.0	24.7	6.04e-01	0	36	0	671612928	62	4312
2026-01-18 14:03:41.35	301.67	14.70	-45.7	-47.0	24.7	6.04e-01	0	36	0	673185792	62	4303
2026-01-18 14:03:42.36	301.90	14.66	-45.7	-47.0	24.6	6.03e-01	0	36	0	675282944	62	4337
2026-01-18 14:03:43.36	302.13	14.62	-45.6	-46.9	24.7	6.02e-01	0	36	0	676855808	62	4291
2026-01-18 14:03:44.37	302.36	14.58	-45.7	-47.0	24.7	6.03e-01	0	35	0	678952960	62	4301
2026-01-18 14:03:45.38	302.59	14.54	-45.7	-47.0	24.6	6.02e-01	0	35	0	681050112	62	4303
2026-01-18 14:03:46.39	302.81	14.50	-45.7	-47.0	24.7	6.04e-01	0	36	0	682622976	62	4321
2026-01-18 14:03:47.40	303.04	14.46	-45.7	-47.0	24.7	6.04e-01	0	35	0	684720128	62	4316
2026-01-18 14:03:48.41	303.27	14.42	-45.6	-46.9	24.8	6.03e-01	0	35	0	686817280	62	4251
2026-01-18 14:03:49.41	303.49	14.38	-45.5	-46.8	24.8	6.03e-01	0	35	0	688390144	62	4229
2026-01-18 14:03:50.42	303.72	14.34	-45.6	-46.9	24.7	6.01e-01	0	36	0	690487296	62	4290
2026-01-18 14:03:51.43	303.95	14.30	-45.8	-47.1	24.6	6.04e-01	0	36	0	692060160	62	4359
2026-01-18 14:03:52.44	304.17	14.26	-45.8	-47.1	24.6	6.03e-01	0	35	0	694157312	62	4372
2026-01-18 14:03:53.45	304.40	14.21	-45.7	-47.0	24.7	6.02e-01	0	35	0	696254464	62	4332
2026-01-18 14:03:54.45	304.62	14.17	-45.8	-47.1	24.6	6.00e-01	0	36	0	697827328	62	4367
2026-01-18 14:03:55.46	304.84	14.13	-45.8	-47.2	24.5	6.01e-01	0	35	0	699924480	62	4406
2026-01-18 14:03:56.47	305.06	14.09	-45.5	-46.8	24.7	6.05e-01	0	35	0	701497344	62	4235
2026-01-18 14:03:57.48	305.28	14.04	-45.6	-46.9	24.7	6.04e-01	0	35	0	703594496	62	4249
2026-01-18 14:03:58.48	305.50	14.00	-45.5	-46.8	24.8	6.04e-01	0	35	0	705167360	62	4236
2026-01-18 14:03:59.49	305.72	13.96	-45.6	-46.9	24.7	6.05e-01	0	35	0	707264512	62	4277
2026-01-18 14:04:00.50	305.94	13.91	-45.7	-47.0	24.6	6.06e-01	0	35	0	709361664	62	4333
2026-01-18 14:04:01.51	306.16	13.87	-45.7	-47.0	24.6	6.01e-01	0	35	0	710934528	62	4334
2026-01-18 14:04:02.52	306.38	13.82	-45.7	-47.0	24.6	6.04e-01	0	36	0	713031680	62	4321
2026-01-18 14:04:03.52	306.60	13.78	-45.7	-47.0	24.7	6.01e-01	0	36	0	715128832	62	4300
2026-01-18 14:04:04.53	306.81	13.73	-45.7	-47.0	24.7	6.04e-01	0	36	0	716701696	62	4302
2026-01-18 14:04:05.54	307.03	13.69	-45.7	-47.0	24.6	6.05e-01	0	36	0	718798848	62	4334
2026-01-18 14:04:06.55	307.24	13.64	-45.7	-47.0	24.6	6.02e-01	0	35	0	720371712	62	4335
2026-01-18 14:04:07.56	307.46	13.60	-45.7	-47.0	24.5	6.04e-01	0	36	0	722468864	62	4326
2026-01-18 14:04:08.56	307.67	13.55	-45.7	-47.0	24.6	6.04e-01	0	35	0	724566016	62	4313
2026-01-18 14:04:09.57	307.88	13.50	-45.7	-47.1	24.5	6.03e-01	0	35	0	726138880	62	4341
2026-01-18 14:04:10.58	308.10	13.46	-45.6	-46.9	24.6	6.05e-01	0	35	0	728236032	62	4290
2026-01-18 14:04:11.59	308.31	13.41	-45.6	-46.9	24.7	6.03e-01	0	36	0	729808896	62	4290
2026-01-18 14:04:12.60	308.52	13.36	-45.7	-47.0	24.6	6.04e-01	0	36	0	731906048	62	4321
2026-01-18 14:04:13.60	308.73	13.32	-45.8	-47.1	24.5	6.02e-01	0	35	0	733478912	62	4363
2026-01-18 14:04:14.61	308.94	13.27	-45.8	-47.1	24.4	6.05e-01	0	36	0	735576064	62	4371
2026-01-18 14:04:15.62	309.15	13.22	-45.8	-47.2	24.4	6.04e-01	0	36	0	737673216	62	4406
2026-01-18 14:04:16.63	309.36	13.17	-45.7	-47.0	24.5	6.03e-01	0	35	0	739246080	62	4327
2026-01-18 14:04:17.64	309.56	13.13	-45.6	-46.9	24.6	6.02e-01	0	35	0	741343232	62	4285
2026-01-18 14:04:18.65	309.77	13.08	-45.6	-46.9	24.7	6.05e-01	0	36	0	743440384	62	4276
2026-01-18 14:04:19.65	309.98	13.03	-45.7	-47.0	24.5	6.04e-01	0	36	0	745013248	62	4339
2026-01-18 14:04:20.66	310.18	12.98	-45.7	-47.1	24.4	6.04e-01	0	36	0	747110400	62	4352
2026-01-18 14:04:21.67	310.39	12.93	-45.7	-47.0	24.5	6.02e-01	0	36	0	748683264	62	4334
2026-01-18 14:04:22.68	310.59	12.88	-45.8	-47.1	24.4	6.03e-01	0	35	0	750780416	62	4364
2026-01-18 14:04:23.68	310.79	12.83	-45.6	-46.9	24.6	6.04e-01	0	35	0	752877568	62	4257
2026-01-18 14:04:24.69	310.99	12.78	-45.6	-46.9	24.6	6.04e-01	0	35	0	754450432	62	4281
2026-01-18 14:04:25.70	311.20	12.73	-45.7	-47.1	24.5	6.03e-01	0	35	0	756547584	62	4348
2026-01-18 14:04:26.71	311.40	12.68	-45.7	-47.0	24.5	6.02e-01	0	36	0	758644736	62	4337
2026-01-18 14:04:27.71	311.60	12.63	-45.9	-47.2	24.3	6.04e-01	0	35	0	760217600	62	4437
2026-01-18 14:04:28.72	311.80	12.58	-45.8	-47.1	24.4	6.02e-01	0	36	0	762314752	62	4390
2026-01-18 14:04:29.73	312.00	12.53	-45.8	-47.1	24.4	6.02e-01	0	36	0	763887616	62	4370
2026-01-18 14:04:30.74	312.19	12.48	-45.8	-47.1	24.4	6.04e-01	0	35	0	765984768	62	4370
2026-01-18 14:04:31.75	312.39	12.43	-45.8	-47.1	24.4	6.04e-01	0	35	0	767557632	62	4367
2026-01-18 14:04:32.76	312.59	12.38	-45.7	-47.0	24.5	6.06e-01	0	36	0	769654784	62	4326
2026-01-18 14:04:33.76	312.78	12.33	-45.7	-47.0	24.4	6.04e-01	0	36	0	771751936	62	4336
2026-01-18 14:04:34.77	312.98	12.28	-45.7	-47.0	24.4	6.04e-01	0	35	0	773324800	62	4335
2026-01-18 14:04:35.78	313.17	12.23	-45.7	-47.1	24.3	6.01e-01	0	36	0	775421952	62	4360
2026-01-18 14:04:36.79	313.37	12.17	-45.8	-47.2	24.2	6.02e-01	0	35	0	776994816	62	4396
2026-01-18 14:04:37.79	313.56	12.12	-45.8	-47.1	24.3	6.02e-01	0	36	0	779091968	62	4390
2026-01-18 14:04:38.80	313.75	12.07	-45.7	-47.0	24.4	6.01e-01	0	36	0	781189120	62	4318
2026-01-18 14:04:39.81	313.94	12.02	-45.7	-47.0	24.2	6.03e-01	0	35	0	782761984	62	4339
2026-01-18 14:04:40.82	314.14	11.97	-45.7	-47.0	24.1	6.03e-01	0	36	0	784859136	62	4334
2026-01-18 14:04:41.83	314.33	11.91	-45.8	-47.2	24.0	6.06e-01	0	35	0	786956288	62	4418
2026-01-18 14:04:42.83	314.51	11.86	-45.8	-47.2	24.2	6.04e-01	0	35	0	788529152	62	4407
2026-01-18 14:04:43.84	314.70	11.81	-45.8	-47.2	24.3	6.03e-01	0	36	0	790626304	62	4414
2026-01-18 14:04:44.85	314.89	11.75	-45.9	-47.3	24.1	6.05e-01	0	35	0	792199168	62	4451
2026-01-18 14:04:45.86	315.08	11.70	-45.9	-47.3	24.1	6.07e-01	0	35	0	794296320	62	4442
2026-01-18 14:04:46.86	315.27	11.65	-45.7	-47.1	24.2	6.02e-01	0	36	0	795869184	62	4343
2026-01-18 14:04:47.87	315.45	11.60	-45.6	-47.0	24.2	6.04e-01	0	35	0	797966336	62	4293
2026-01-18 14:04:48.88	315.64	11.54	-45.6	-47.0	24.3	6.04e-01	0	35	0	800063488	62	4295
2026-01-18 14:04:49.88	315.82	11.49	-45.7	-47.1	24.2	6.03e-01	0	36	0	801636352	62	4367
2026-01-18 14:04:50.89	316.00	11.44	-45.8	-47.2	24.2	6.01e-01	0	35	0	803733504	62	4427
2026-01-18 14:04:51.90	316.19	11.38	-45.9	-47.3	24.0	6.06e-01	0	36	0	805306368	62	4464
2026-01-18 14:04:52.90	316.37	11.33	-45.9	-47.3	23.9	6.05e-01	0	36	0	807403520	62	4487
2026-01-18 14:04:53.91	316.55	11.27	-46.0	-47.4	23.8	6.06e-01	0	35	0	809500672	62	4542
2026-01-18 14:04:54.92	316.73	11.22	-46.1	-47.5	23.9	6.05e-01	0	36	0	811073536	62	4553
2026-01-18 14:04:55.93	316.91	11.17	-45.8	-47.2	24.2	6.05e-01	0	36	0	813170688	62	4408
2026-01-18 14:04:56.94	317.09	11.11	-45.9	-47.3	24.0	6.00e-01	0	36	0	815267840	62	4488
2026-01-18 14:04:57.94	317.27	11.06	-45.8	-47.2	24.1	6.04e-01	0	36	0	816840704	62	4405
2026-01-18 14:04:58.95	317.45	11.00	-45.8	-47.1	24.1	6.05e-01	0	36	0	818937856	62	4389
2026-01-18 14:04:59.96	317.63	10.95	-45.8	-47.1	24.1	6.05e-01	0	35	0	820510720	62	4376
2026-01-18 14:05:00.97	317.80	10.89	-45.8	-47.2	24.1	6.01e-01	0	36	0	822607872	62	4407
2026-01-18 14:05:01.98	317.98	10.84	-45.8	-47.2	24.1	6.04e-01	0	36	0	824180736	62	4398
2026-01-18 14:05:02.98	318.16	10.78	-45.9	-47.3	24.0	6.06e-01	0	35	0	826277888	62	4443
2026-01-18 14:05:03.99	318.33	10.73	-45.8	-47.2	24.0	6.03e-01	0	35	0	828375040	62	4440
2026-01-18 14:05:05.00	318.50	10.67	-46.0	-47.4	23.9	6.01e-01	0	35	0	829947904	62	4510
2026-01-18 14:05:06.01	318.68	10.62	-46.1	-47.6	23.8	6.01e-01	0	36	0	832045056	62	4614
2026-01-18 14:05:07.01	318.85	10.56	-46.0	-47.4	23.9	6.05e-01	0	36	0	834142208	62	4544
2026-01-18 14:05:08.02	319.02	10.51	-46.0	-47.4	23.9	6.03e-01	0	36	0	835715072	62	4541
2026-01-18 14:05:09.03	319.19	10.45	-46.1	-47.5	23.7	6.05e-01	0	36	0	837812224	62	4579
2026-01-18 14:05:10.04	319.37	10.40	-45.9	-47.3	24.0	6.04e-01	0	35	0	839385088	62	4444
2026-01-18 14:05:11.04	319.53	10.34	-45.9	-47.3	23.9	6.03e-01	0	36	0	841482240	62	4478
2026-01-18 14:05:12.05	319.70	10.29	-45.9	-47.3	24.0	6.04e-01	0	36	0	843579392	62	4489
2026-01-18 14:05:13.06	319.87	10.23	-45.9	-47.3	24.0	6.03e-01	0	36	0	845152256	62	4485
2026-01-18 14:05:14.07	320.04	10.18	-45.9	-47.3	23.9	6.02e-01	0	36	0	847249408	62	4492
2026-01-18 14:05:15.08	320.21	10.12	-45.9	-47.3	24.0	6.04e-01	0	36	0	848822272	62	4463
2026-01-18 14:05:16.09	320.38	10.06	-45.9	-47.4	24.0	6.02e-01	0	35	0	850919424	62	4495
2026-01-18 14:05:17.09	320.54	10.01	-46.1	-47.6	23.7	6.04e-01	0	36	0	852492288	62	4606
2026-01-18 14:05:18.10	320.71	9.95	-46.0	-47.5	23.8	6.04e-01	0	36	0	854589440	62	4553
2026-01-18 14:05:19.11	320.87	9.90	-46.2	-47.6	23.6	6.04e-01	0	35	0	856686592	62	4647
2026-01-18 14:05:20.12	321.04	9.84	-46.0	-47.4	23.9	6.04e-01	0	35	0	858783744	62	4510
2026-01-18 14:05:21.12	321.20	9.78	-46.0	-47.4	23.8	6.04e-01	0	36	0	860356608	62	4540
2026-01-18 14:05:22.13	321.36	9.73	-46.0	-47.4	23.9	6.03e-01	0	36	0	862453760	62	4529
2026-01-18 14:05:23.14	321.52	9.67	-46.0	-47.4	23.8	6.05e-01	0	36	0	864026624	62	4540
2026-01-18 14:05:24.14	321.68	9.62	-46.0	-47.5	23.8	6.04e-01	0	36	0	866123776	62	4556
2026-01-18 14:05:25.15	321.84	9.56	-46.0	-47.5	23.8	6.04e-01	0	36	0	867696640	62	4555
2026-01-18 14:05:26.16	322.00	9.50	-46.2	-47.6	23.6	6.03e-01	0	36	0	869793792	62	4648
2026-01-18 14:05:27.17	322.16	9.45	-46.2	-47.7	23.6	6.04e-01	0	36	0	871890944	63	4401
2026-01-18 14:05:28.18	322.32	9.39	-46.3	-47.8	23.5	6.02e-01	0	35	0	873463808	63	4462
2026-01-18 14:05:29.19	322.48	9.33	-46.4	-47.9	23.4	6.02e-01	0	35	0	875560960	63	4496
2026-01-18 14:05:30.19	322.64	9.28	-46.3	-47.8	23.4	6.04e-01	0	36	0	877133824	63	4488
2026-01-18 14:05:31.20	322.80	9.22	-46.5	-48.0	23.2	6.03e-01	0	35	0	879230976	63	4563
2026-01-18 14:05:32.21	322.95	9.17	-46.4	-47.9	23.4	6.03e-01	0	35	0	881328128	63	4527
2026-01-18 14:05:33.22	323.11	9.11	-46.3	-47.7	23.5	6.04e-01	0	35	0	882900992	63	4438
2026-01-18 14:05:34.22	323.26	9.05	-46.3	-47.8	23.5	6.01e-01	0	35	0	884998144	63	4449
2026-01-18 14:05:35.23	323.42	9.00	-46.4	-47.9	23.4	6.03e-01	0	35	0	887095296	63	4500
2026-01-18 14:05:36.23	323.57	8.94	-46.3	-47.8	23.5	6.03e-01	0	36	0	888668160	63	4445
2026-01-18 14:05:37.24	323.72	8.88	-46.1	-47.5	23.7	6.02e-01	0	36	0	890765312	63	4319
2026-01-18 14:05:38.24	323.87	8.83	-46.1	-47.6	23.6	6.02e-01	0	36	0	892338176	63	4348
2026-01-18 14:05:39.25	324.03	8.77	-46.1	-47.5	23.7	6.04e-01	0	36	0	894435328	63	4323
2026-01-18 14:05:40.26	324.18	8.71	-46.2	-47.7	23.5	6.05e-01	0	35	0	896008192	63	4430
2026-01-18 14:05:41.26	324.33	8.66	-46.4	-47.9	23.4	6.04e-01	0	36	0	898105344	63	4494
2026-01-18 14:05:42.27	324.48	8.60	-46.3	-47.8	23.4	6.02e-01	0	36	0	900202496	63	4477
2026-01-18 14:05:43.28	324.63	8.54	-46.5	-48.0	23.3	6.04e-01	0	36	0	901775360	63	4555
2026-01-18 14:05:44.29	324.78	8.49	-46.4	-47.9	23.3	6.02e-01	0	36	0	903872512	63	4515
2026-01-18 14:05:45.29	324.92	8.43	-46.5	-48.1	23.1	6.04e-01	0	36	0	905445376	63	4612
2026-01-18 14:05:46.30	325.07	8.37	-46.5	-48.0	23.2	6.02e-01	0	36	0	907542528	63	4562
2026-01-18 14:05:47.31	325.22	8.32	-46.2	-47.6	23.5	6.04e-01	0	36	0	909639680	63	4385
2026-01-18 14:05:48.32	325.36	8.26	-46.4	-47.9	23.3	6.02e-01	0	36	0	911212544	63	4500
2026-01-18 14:05:49.32	325.51	8.20	-46.1	-47.6	23.6	6.03e-01	0	36	0	913309696	63	4377
2026-01-18 14:05:50.33	325.65	8.15	-46.4	-47.9	23.3	6.05e-01	0	35	0	915406848	63	4519
2026-01-18 14:05:51.34	325.80	8.09	-46.4	-47.9	23.3	6.02e-01	0	36	0	916979712	63	4505
2026-01-18 14:05:52.35	325.94	8.03	-46.4	-47.9	23.2	6.03e-01	0	36	0	919076864	63	4541
2026-01-18 14:05:53.36	326.09	7.98	-46.3	-47.8	23.3	6.03e-01	0	36	0	920649728	63	4477
2026-01-18 14:05:54.37	326.23	7.92	-46.5	-48.0	23.2	6.02e-01	0	36	0	922746880	63	4560
2026-01-18 14:05:55.37	326.37	7.86	-46.5	-48.0	23.2	6.01e-01	0	36	0	924319744	63	4566
2026-01-18 14:05:56.38	326.51	7.81	-46.4	-47.9	23.3	6.04e-01	0	35	0	926416896	63	4522
2026-01-18 14:05:57.39	326.66	7.75	-46.6	-48.2	22.8	6.03e-01	0	36	0	928514048	64	4417
2026-01-18 14:05:58.40	326.80	7.69	-46.6	-48.2	21.6	6.04e-01	0	36	0	930086912	64	4397
2026-01-18 14:05:59.41	326.94	7.64	-46.6	-48.2	22.9	6.02e-01	0	36	0	932184064	64	4394
2026-01-18 14:06:00.41	327.07	7.58	-46.7	-48.3	22.7	6.04e-01	0	36	0	934281216	64	4490
2026-01-18 14:06:01.42	327.21	7.52	-46.6	-48.1	22.9	6.04e-01	0	36	0	935854080	64	4388
2026-01-18 14:06:02.43	327.35	7.47	-46.6	-48.2	22.8	6.03e-01	0	36	0	937951232	64	4415
2026-01-18 14:06:03.44	327.49	7.41	-46.7	-48.3	22.6	6.05e-01	0	35	0	939524096	64	4493
2026-01-18 14:06:04.44	327.63	7.35	-46.6	-48.2	22.9	6.03e-01	0	36	0	941621248	64	4416
2026-01-18 14:06:05.45	327.76	7.30	-46.5	-48.1	22.9	6.06e-01	0	36	0	943718400	64	4357
2026-01-18 14:06:06.46	327.90	7.24	-46.7	-48.3	22.7	6.07e-01	0	36	0	945291264	64	4465
2026-01-18 14:06:07.47	328.04	7.18	-46.7	-48.3	22.7	6.03e-01	0	36	0	947388416	64	4466
2026-01-18 14:06:08.48	328.17	7.13	-46.5	-48.1	22.8	6.02e-01	0	35	0	948961280	64	4364
2026-01-18 14:06:09.49	328.31	7.07	-46.6	-48.2	22.8	6.04e-01	0	35	0	951058432	64	4396
2026-01-18 14:06:10.49	328.44	7.01	-46.7	-48.3	22.6	6.05e-01	0	36	0	952631296	64	4470
2026-01-18 14:06:11.50	328.57	6.96	-46.9	-48.5	22.4	6.04e-01	0	36	0	954728448	64	4584
2026-01-18 14:06:12.51	328.70	6.90	-46.8	-48.5	22.5	6.07e-01	0	36	0	956825600	64	4560
2026-01-18 14:06:13.52	328.84	6.84	-46.9	-48.5	22.4	6.01e-01	0	36	0	958922752	64	4570
2026-01-18 14:06:14.53	328.97	6.79	-46.8	-48.4	22.6	6.02e-01	0	36	0	960495616	64	4517
2026-01-18 14:06:15.53	329.10	6.73	-46.9	-48.5	22.4	6.03e-01	0	36	0	962592768	64	4576
2026-01-18 14:06:16.54	329.23	6.67	-46.8	-48.4	22.5	6.03e-01	0	36	0	964165632	64	4529
2026-01-18 14:06:17.55	329.36	6.62	-47.0	-48.6	22.3	6.07e-01	0	36	0	966262784	64	4647
2026-01-18 14:06:18.55	329.49	6.56	-46.8	-48.4	22.5	6.02e-01	0	36	0	967835648	64	4531
2026-01-18 14:06:19.56	329.62	6.50	-46.9	-48.6	22.3	6.01e-01	0	36	0	969932800	64	4623
2026-01-18 14:06:20.56	329.75	6.45	-46.7	-48.3	22.6	6.03e-01	0	36	0	972029952	64	4461
2026-01-18 14:06:21.57	329.87	6.39	-46.7	-48.4	22.5	6.03e-01	0	36	0	973602816	64	4511
2026-01-18 14:06:22.58	330.00	6.33	-46.8	-48.4	22.5	6.04e-01	0	36	0	975699968	64	4519
2026-01-18 14:06:23.59	330.13	6.28	-46.7	-48.3	22.6	6.03e-01	0	36	0	977272832	64	4467
2026-01-18 14:06:24.60	330.26	6.22	-46.9	-48.6	22.3	6.02e-01	0	36	0	979369984	64	4608
2026-01-18 14:06:25.61	330.38	6.17	-47.1	-48.9	22.0	6.04e-01	0	36	0	980942848	64	4760
2026-01-18 14:06:26.61	330.51	6.11	-46.8	-48.5	22.4	6.04e-01	0	36	0	983040000	64	4577
2026-01-18 14:06:27.62	330.63	6.05	-46.8	-48.5	22.3	6.05e-01	0	36	0	985137152	64	4560
2026-01-18 14:06:28.63	330.76	6.00	-46.6	-48.3	22.6	6.04e-01	0	36	0	987234304	64	4454
2026-01-18 14:06:29.64	330.88	5.94	-47.1	-48.9	22.0	6.02e-01	0	36	0	988807168	64	4794
2026-01-18 14:06:30.65	331.00	5.88	-47.1	-48.8	22.0	6.03e-01	0	36	0	990904320	64	4737
2026-01-18 14:06:31.65	331.13	5.83	-46.9	-48.6	22.2	6.04e-01	0	36	0	992477184	64	4647
2026-01-18 14:06:32.66	331.25	5.77	-46.9	-48.5	22.3	6.05e-01	0	36	0	994574336	64	4591
2026-01-18 14:06:33.67	331.37	5.72	-46.9	-48.6	22.2	6.04e-01	0	36	0	996147200	64	4615
2026-01-18 14:06:34.68	331.49	5.66	-47.0	-48.8	22.0	6.04e-01	0	36	0	998244352	64	4706
2026-01-18 14:06:35.69	331.61	5.60	-47.0	-48.8	22.0	6.04e-01	0	35	0	1000341504	64	4720
2026-01-18 14:06:36.69	331.73	5.55	-47.1	-48.9	21.9	6.04e-01	0	36	0	1001914368	64	4772
2026-01-18 14:06:37.70	331.85	5.49	-47.0	-48.8	22.0	6.03e-01	0	36	0	1004011520	65	4446
2026-01-18 14:06:38.71	331.97	5.44	-47.2	-48.9	21.8	6.05e-01	0	35	0	1006108672	65	4542
2026-01-18 14:06:39.72	332.09	5.38	-47.2	-48.9	21.8	6.04e-01	0	36	0	1007681536	65	4537
2026-01-18 14:06:40.72	332.21	5.33	-47.0	-48.8	21.9	6.06e-01	0	36	0	1009778688	65	4454
2026-01-18 14:06:41.73	332.33	5.27	-47.0	-48.8	21.9	6.03e-01	0	36	0	1011351552	65	4450
2026-01-18 14:06:42.74	332.45	5.21	-47.0	-48.8	22.0	6.03e-01	0	36	0	1013448704	65	4451
2026-01-18 14:06:43.75	332.56	5.16	-47.5	-49.4	21.4	6.03e-01	0	35	0	1015545856	65	4761
2026-01-18 14:06:44.76	332.68	5.10	-47.2	-49.0	21.7	6.05e-01	0	35	0	1017118720	65	4577
2026-01-18 14:06:45.77	332.80	5.05	-47.1	-48.9	21.8	6.07e-01	0	36	0	1019215872	65	4518
2026-01-18 14:06:46.77	332.91	4.99	-51.1	-55.0	16.6	6.03e-01	0	35	0	1020788736	72	6095
2026-01-18 14:06:47.78	333.03	4.94	-54.3	-72.0	3.8	7.46e-01	0	36	104	1021837312	79	28920
2026-01-18 14:06:48.79	333.14	4.88	-54.6	-72.4	3.8	7.39e-01	0	36	104	1021837312	79	30289
2026-01-18 14:06:49.80	333.26	4.83	-54.7	-72.5	3.8	7.46e-01	0	36	104	1021837312	80	28896
2026-01-18 14:06:50.81	333.37	4.77	-54.9	-72.7	3.8	7.45e-01	0	36	104	1021837312	80	29404
2026-01-18 14:06:51.81	333.48	4.71	-55.0	-72.8	3.8	7.46e-01	0	36	104	1021837312	80	29744
2026-01-18 14:06:52.82	333.60	4.66	-55.1	-72.9	3.8	7.44e-01	0	36	104	1021837312	80	30196
2026-01-18 14:06:53.83	333.71	4.60	-55.2	-73.0	3.8	7.44e-01	0	36	104	1021837312	80	30527
2026-01-18 14:06:54.84	333.82	4.55	-55.3	-73.1	3.8	7.43e-01	0	36	104	1021837312	81	29216
2026-01-18 14:06:55.85	333.93	4.49	-55.4	-73.2	3.8	7.44e-01	0	36	104	1021837312	81	29405
2026-01-18 14:06:56.85	334.04	4.44	-55.4	-73.2	3.8	7.45e-01	0	35	104	1021837312	81	29523
2026-01-18 14:06:57.86	334.16	4.38	-55.4	-73.3	3.8	7.43e-01	0	36	104	1021837312	81	29704
2026-01-18 14:06:58.87	334.27	4.33	-55.4	-73.3	3.8	7.46e-01	0	36	104	1021837312	81	29767
2026-01-18 14:06:59.88	334.38	4.27	-55.5	-73.3	3.8	7.44e-01	0	36	104	1021837312	81	29784
2026-01-18 14:07:00.88	334.49	4.22	-55.5	-73.3	3.8	7.45e-01	0	36	104	1021837312	81	29885
2026-01-18 14:07:01.89	334.59	4.16	-55.5	-73.3	3.8	7.41e-01	0	36	104	1021837312	81	29934
2026-01-18 14:07:02.90	334.70	4.11	-55.5	-73.3	3.8	7.45e-01	0	36	104	1021837312	81	29939
2026-01-18 14:07:03.91	334.81	4.05	-55.5	-73.3	3.8	7.47e-01	0	36	104	1021837312	81	29890
2026-01-18 14:07:04.92	334.92	4.00	-55.5	-73.3	3.8	7.43e-01	0	36	104	1021837312	81	29883
2026-01-18 14:07:05.92	335.03	3.94	-55.5	-73.3	3.8	7.42e-01	0	36	104	1021837312	81	29817
2026-01-18 14:07:06.93	335.13	3.89	-55.5	-73.3	3.8	7.45e-01	0	36	104	1021837312	81	29774
2026-01-18 14:07:07.94	335.24	3.84	-55.5	-73.3	3.8	7.47e-01	0	36	104	1021837312	81	29789
2026-01-18 14:07:08.95	335.35	3.78	-55.4	-73.2	3.8	7.47e-01	0	36	104	1021837312	81	29681
2026-01-18 14:07:09.96	335.45	3.73	-55.4	-73.2	3.8	7.43e-01	0	36	104	1021837312	81	29630
2026-01-18 14:07:10.96	335.56	3.67	-55.4	-73.2	3.8	7.46e-01	0	36	104	1021837312	81	29532
2026-01-18 14:07:11.97	335.66	3.62	-55.4	-73.2	3.8	7.45e-01	0	36	104	1021837312	81	29619
2026-01-18 14:07:12.98	335.77	3.56	-55.4	-73.2	3.8	7.44e-01	0	36	104	1021837312	81	29603
2026-01-18 14:07:13.99	335.87	3.51	-55.4	-73.2	3.8	7.44e-01	0	36	104	1021837312	81	29511
2026-01-18 14:07:15.00	335.98	3.45	-55.4	-73.2	3.8	7.45e-01	0	36	104	1021837312	81	29434
2026-01-18 14:07:16.01	336.08	3.40	-55.4	-73.2	3.8	7.45e-01	0	36	104	1021837312	81	29434
2026-01-18 14:07:17.01	336.18	3.35	-55.3	-73.2	3.8	7.46e-01	0	36	104	1021837312	81	29401
2026-01-18 14:07:18.02	336.28	3.29	-55.3	-73.2	3.8	7.45e-01	0	36	104	1021837312	81	29413
2026-01-18 14:07:19.02	336.39	3.24	-55.3	-73.2	3.8	7.47e-01	0	36	104	1021837312	81	29431
2026-01-18 14:07:20.03	336.49	3.18	-55.3	-73.2	3.8	7.46e-01	0	36	104	1021837312	81	29380
2026-01-18 14:07:21.04	336.59	3.13	-55.3	-73.2	3.8	7.46e-01	0	36	104	1021837312	81	29377
2026-01-18 14:07:22.05	336.69	3.08	-55.3	-73.1	3.8	7.45e-01	0	36	104	1021837312	81	29318
2026-01-18 14:07:23.06	336.79	3.02	-55.3	-73.2	3.8	7.44e-01	0	36	104	1021837312	81	29383
2026-01-18 14:07:24.06	336.89	2.97	-55.3	-73.1	3.8	7.44e-01	0	36	104	1021837312	81	29339
2026-01-18 14:07:25.07	336.99	2.92	-55.3	-73.1	3.8	7.48e-01	0	36	104	1021837312	81	29295
2026-01-18 14:07:26.08	337.09	2.86	-55.3	-73.1	3.8	7.46e-01	0	36	104	1021837312	81	29309
2026-01-18 14:07:27.09	337.19	2.81	-55.3	-73.1	3.8	7.43e-01	0	36	104	1021837312	81	29311
2026-01-18 14:07:28.10	337.29	2.75	-55.3	-73.1	3.8	7.46e-01	0	36	104	1021837312	81	29275
2026-01-18 14:07:29.10	337.39	2.70	-55.3	-73.1	3.8	7.50e-01	0	36	104	1021837312	81	29198
2026-01-18 14:07:30.11	337.48	2.65	-55.3	-73.1	3.8	7.46e-01	0	36	104	1021837312	81	29214
2026-01-18 14:07:31.12	337.58	2.59	-55.3	-73.1	3.8	7.47e-01	0	36	104	1021837312	81	29242
2026-01-18 14:07:32.13	337.68	2.54	-55.3	-73.1	3.8	7.40e-01	0	36	104	1021837312	81	29236
2026-01-18 14:07:33.14	337.78	2.49	-55.3	-73.1	3.8	7.42e-01	0	36	104	1021837312	81	29258
2026-01-18 14:07:34.14	337.87	2.43	-55.3	-73.1	3.8	7.44e-01	0	36	104	1021837312	81	29169
2026-01-18 14:07:35.15	337.97	2.38	-55.3	-73.1	3.8	7.44e-01	0	36	104	1021837312	81	29139
2026-01-18 14:07:36.16	338.06	2.33	-55.3	-73.1	3.8	7.47e-01	0	36	104	1021837312	81	29326
2026-01-18 14:07:37.17	338.16	2.27	-55.3	-73.1	3.8	7.44e-01	0	36	104	1021837312	81	29222
2026-01-18 14:07:38.18	338.26	2.22	-55.3	-73.1	3.8	7.48e-01	0	36	104	1021837312	81	29253
2026-01-18 14:07:39.19	338.35	2.17	-55.3	-73.1	3.8	7.43e-01	0	36	104	1021837312	81	29150
2026-01-18 14:07:40.20	338.44	2.11	-55.3	-73.1	3.8	7.46e-01	0	36	104	1021837312	81	29118
2026-01-18 14:07:41.21	338.54	2.06	-55.3	-73.1	3.8	7.45e-01	0	36	104	1021837312	81	29113
2026-01-18 14:07:42.21	338.63	2.01	-55.3	-73.1	3.8	7.47e-01	0	36	104	1021837312	81	29137
2026-01-18 14:07:43.22	338.73	1.96	-55.3	-73.1	3.8	7.43e-01	0	36	104	1021837312	81	29180

#Closed at: 2026-01-18 14:07:44
#Recorded file [1021 MB]: D:/lorett/data/31041_260118_165657.dat