passes_logs/2026/01/18/R3.2S_Murmansk/R3.2S_Murmansk__20260118_121727_AQUA_rec.log

#Pass ID: 20260118_121727_AQUA
#Satellite: AQUA
#Configuration: AQUA
#almurnet v.1.7.20251203
#Start time: 2026-01-18 12:17:27

#Version: 2.2.20231116
#Station: R3.2S_Murmansk
#Location: 33.079688 lon 68.888172 lat
#TLE: 1 27424U 02022A   26017.62394888  .00000781  00000+0  16630-3 0  9993
#TLE: 2 27424  98.4086 344.0954 0002010  75.0132 339.4723 14.61825944261279

#Time	Az	El	Level	Level2	SNR	BER	BlckErr	Temp	State	Recorded	gain1	gain2
2026-01-18 12:17:27.11	178.06	2.00	-53.7	-71.5	3.8	7.47e-01	0	34	0	0	79	27192
2026-01-18 12:17:28.12	178.09	2.07	-53.7	-71.2	3.8	7.45e-01	0	34	104	0	77	29415
2026-01-18 12:17:29.13	178.13	2.13	-53.7	-71.3	3.8	7.44e-01	0	34	104	0	77	29802
2026-01-18 12:17:30.13	178.17	2.20	-53.7	-71.3	3.8	7.42e-01	0	34	104	0	77	29734
2026-01-18 12:17:31.14	178.20	2.26	-53.7	-71.2	3.8	7.44e-01	0	34	104	0	77	29559
2026-01-18 12:17:32.15	178.24	2.33	-53.7	-71.4	3.8	7.48e-01	0	34	104	0	77	30144
2026-01-18 12:17:33.16	178.28	2.40	-53.7	-71.3	3.8	7.47e-01	0	34	104	0	77	30014
2026-01-18 12:17:34.17	178.32	2.46	-53.7	-71.3	3.8	7.45e-01	0	34	104	0	77	29875
2026-01-18 12:17:35.17	178.35	2.53	-53.7	-71.0	3.8	7.47e-01	0	34	104	0	77	28916
2026-01-18 12:17:36.18	178.39	2.60	-53.7	-70.7	3.8	7.44e-01	0	34	104	0	77	27733
2026-01-18 12:17:37.19	178.43	2.66	-53.7	-70.5	3.8	7.46e-01	0	34	104	0	77	27101
2026-01-18 12:17:38.20	178.47	2.73	-53.7	-70.2	3.8	7.44e-01	0	34	104	0	77	26424
2026-01-18 12:17:39.21	178.51	2.80	-53.7	-70.3	3.8	7.44e-01	0	34	104	0	77	26490
2026-01-18 12:17:40.21	178.54	2.86	-53.7	-70.1	3.8	7.41e-01	0	34	104	0	77	26106
2026-01-18 12:17:41.22	178.58	2.93	-53.7	-70.3	3.8	7.44e-01	0	34	104	0	77	26467
2026-01-18 12:17:42.23	178.62	3.00	-53.7	-70.6	3.8	7.48e-01	0	34	104	0	77	27507
2026-01-18 12:17:43.24	178.66	3.07	-53.7	-70.6	3.8	7.46e-01	0	34	104	0	77	27694
2026-01-18 12:17:44.25	178.70	3.14	-53.7	-70.6	3.8	7.47e-01	0	34	104	0	77	27489
2026-01-18 12:17:45.26	178.74	3.20	-53.7	-70.7	3.8	7.43e-01	0	34	104	0	77	27761
2026-01-18 12:17:46.27	178.78	3.27	-53.7	-70.4	3.8	7.43e-01	0	34	104	0	77	26808
2026-01-18 12:17:47.27	178.82	3.34	-53.7	-70.5	3.8	7.47e-01	0	34	104	0	77	27362
2026-01-18 12:17:48.28	178.86	3.41	-53.7	-70.7	3.8	7.41e-01	0	34	104	0	77	27923
2026-01-18 12:17:49.29	178.90	3.48	-53.7	-71.2	3.8	7.44e-01	0	34	104	0	77	29570
2026-01-18 12:17:50.30	178.94	3.55	-53.7	-71.5	3.8	7.42e-01	0	34	104	0	77	30422
2026-01-18 12:17:51.31	178.98	3.62	-53.7	-70.9	3.8	7.46e-01	0	34	104	0	77	28618
2026-01-18 12:17:52.32	179.02	3.69	-53.6	-69.4	3.8	7.44e-01	0	34	104	0	77	24115
2026-01-18 12:17:53.32	179.06	3.76	-53.5	-66.7	4.6	7.20e-01	0	34	104	0	77	17650
2026-01-18 12:17:54.33	179.10	3.83	-53.4	-64.3	6.0	6.80e-01	32	34	0	0	77	13351
2026-01-18 12:17:55.33	179.14	3.90	-53.2	-62.5	7.6	6.50e-01	182	34	0	1572864	77	10843
2026-01-18 12:17:56.34	179.19	3.97	-53.0	-61.2	8.9	6.36e-01	0	35	0	3670016	77	9374
2026-01-18 12:17:57.35	179.23	4.04	-52.8	-60.0	10.2	6.21e-01	0	34	0	5767168	77	8143
2026-01-18 12:17:58.36	179.27	4.11	-52.4	-58.7	11.6	6.15e-01	0	34	0	7340032	76	7436
2026-01-18 12:17:59.37	179.31	4.18	-52.2	-57.9	12.5	6.12e-01	0	34	0	9437184	76	6746
2026-01-18 12:18:00.37	179.35	4.25	-52.0	-57.4	13.0	6.11e-01	0	35	0	11010048	76	6393
2026-01-18 12:18:01.38	179.40	4.32	-51.7	-56.5	13.9	6.09e-01	0	34	0	13107200	75	6102
2026-01-18 12:18:02.39	179.44	4.39	-51.3	-55.6	14.7	6.10e-01	0	34	0	14680064	74	5853
2026-01-18 12:18:03.40	179.48	4.46	-50.7	-54.4	16.0	6.07e-01	0	35	0	16777216	73	5381
2026-01-18 12:18:04.40	179.53	4.53	-50.3	-53.6	16.9	6.07e-01	0	35	0	18874368	72	5200
2026-01-18 12:18:05.41	179.57	4.61	-49.6	-52.5	18.1	6.10e-01	0	35	0	20971520	71	4818
2026-01-18 12:18:06.42	179.61	4.68	-49.2	-51.7	18.8	6.06e-01	0	35	0	22544384	70	4696
2026-01-18 12:18:07.43	179.66	4.75	-48.5	-50.8	19.8	6.07e-01	0	35	0	24641536	69	4448
2026-01-18 12:18:08.44	179.70	4.82	-48.2	-50.3	20.3	6.07e-01	0	35	0	26214400	68	4455
2026-01-18 12:18:09.45	179.74	4.90	-47.9	-50.0	20.7	6.06e-01	0	35	0	28311552	67	4561
2026-01-18 12:18:10.45	179.79	4.97	-47.7	-49.7	20.9	6.07e-01	0	35	0	29884416	67	4414
2026-01-18 12:18:11.46	179.83	5.04	-47.9	-49.9	20.9	6.08e-01	0	35	0	31981568	67	4504
2026-01-18 12:18:12.47	179.88	5.12	-48.9	-51.3	19.4	6.08e-01	0	35	0	34078720	68	5034
2026-01-18 12:18:13.48	179.92	5.19	-47.9	-49.9	20.5	6.07e-01	0	35	0	35651584	67	4519
2026-01-18 12:18:14.48	179.97	5.26	-49.4	-52.0	18.4	6.07e-01	0	35	0	37748736	70	4859
2026-01-18 12:18:15.49	180.01	5.34	-47.8	-49.7	20.6	6.08e-01	0	35	0	39321600	67	4428
2026-01-18 12:18:16.50	180.06	5.41	-49.8	-52.7	17.7	6.07e-01	0	35	0	41418752	71	4966
2026-01-18 12:18:17.51	180.11	5.49	-47.7	-49.6	21.0	6.06e-01	0	35	0	43515904	67	4378
2026-01-18 12:18:18.52	180.15	5.56	-47.7	-49.6	21.0	6.05e-01	0	35	0	45088768	67	4378
2026-01-18 12:18:19.53	180.20	5.64	-47.2	-49.0	21.7	6.07e-01	0	35	0	47185920	66	4295
2026-01-18 12:18:20.53	180.25	5.71	-46.9	-48.6	22.2	6.06e-01	0	35	0	49283072	65	4351
2026-01-18 12:18:21.54	180.29	5.79	-47.1	-48.9	21.8	6.05e-01	0	35	0	50855936	65	4514
2026-01-18 12:18:22.55	180.34	5.86	-46.8	-48.5	22.2	6.06e-01	0	35	0	52953088	65	4328
2026-01-18 12:18:23.56	180.39	5.94	-47.0	-48.7	22.0	6.07e-01	0	35	0	54525952	65	4439
2026-01-18 12:18:24.56	180.44	6.02	-47.0	-48.7	22.1	6.08e-01	0	35	0	56623104	65	4440
2026-01-18 12:18:25.57	180.48	6.09	-47.0	-48.8	22.0	6.05e-01	0	35	0	58195968	65	4463
2026-01-18 12:18:26.58	180.53	6.17	-47.0	-48.7	22.1	6.06e-01	0	35	0	60293120	65	4404
2026-01-18 12:18:27.59	180.58	6.25	-47.0	-48.7	22.1	6.07e-01	0	35	0	62390272	65	4421
2026-01-18 12:18:28.60	180.63	6.32	-46.9	-48.6	22.2	6.07e-01	0	35	0	63963136	65	4377
2026-01-18 12:18:29.61	180.68	6.40	-47.0	-48.8	22.1	6.07e-01	0	35	0	66060288	65	4454
2026-01-18 12:18:30.61	180.73	6.48	-47.0	-48.7	22.1	6.06e-01	0	35	0	68157440	65	4433
2026-01-18 12:18:31.62	180.78	6.56	-47.0	-48.8	22.1	6.05e-01	0	35	0	69730304	65	4449
2026-01-18 12:18:32.63	180.83	6.63	-46.8	-48.5	22.4	6.07e-01	0	35	0	71827456	65	4304
2026-01-18 12:18:33.64	180.88	6.71	-46.7	-48.4	22.5	6.07e-01	0	35	0	73400320	65	4253
2026-01-18 12:18:34.65	180.93	6.79	-47.0	-48.7	22.3	6.06e-01	0	35	0	75497472	65	4400
2026-01-18 12:18:35.65	180.98	6.87	-47.0	-48.7	22.2	6.06e-01	0	35	0	77594624	65	4424
2026-01-18 12:18:36.66	181.03	6.95	-46.8	-48.5	22.4	6.09e-01	0	35	0	79167488	65	4292
2026-01-18 12:18:37.67	181.08	7.03	-46.8	-48.4	22.5	6.05e-01	0	35	0	81264640	65	4290
2026-01-18 12:18:38.68	181.13	7.11	-46.8	-48.5	22.4	6.06e-01	0	35	0	82837504	65	4311
2026-01-18 12:18:39.69	181.19	7.19	-46.8	-48.5	22.5	6.07e-01	0	35	0	84934656	65	4293
2026-01-18 12:18:40.69	181.24	7.27	-46.8	-48.4	22.5	6.07e-01	0	35	0	86507520	65	4260
2026-01-18 12:18:41.70	181.29	7.35	-46.9	-48.5	22.4	6.08e-01	0	35	0	88604672	65	4331
2026-01-18 12:18:42.71	181.34	7.43	-46.8	-48.4	22.5	6.07e-01	0	35	0	90701824	65	4274
2026-01-18 12:18:43.72	181.40	7.51	-46.7	-48.3	22.7	6.06e-01	0	35	0	92798976	65	4216
2026-01-18 12:18:44.73	181.45	7.59	-46.8	-48.4	22.5	6.08e-01	0	35	0	94371840	65	4283
2026-01-18 12:18:45.73	181.50	7.67	-46.7	-48.4	22.6	6.07e-01	0	35	0	96468992	65	4246
2026-01-18 12:18:46.74	181.56	7.75	-46.8	-48.4	22.6	6.07e-01	0	35	0	98041856	65	4254
2026-01-18 12:18:47.75	181.61	7.84	-46.7	-48.4	22.6	6.06e-01	0	35	0	100139008	65	4248
2026-01-18 12:18:48.76	181.67	7.92	-46.6	-48.1	22.8	6.06e-01	0	35	0	101711872	65	4141
2026-01-18 12:18:49.76	181.72	8.00	-46.4	-48.0	23.0	6.07e-01	0	35	0	103809024	64	4301
2026-01-18 12:18:50.77	181.77	8.08	-46.6	-48.1	22.8	6.06e-01	0	35	0	105906176	64	4383
2026-01-18 12:18:51.78	181.83	8.17	-46.6	-48.1	22.9	6.05e-01	0	35	0	107479040	64	4377
2026-01-18 12:18:52.79	181.89	8.25	-46.5	-48.1	22.8	6.05e-01	0	35	0	109576192	64	4377
2026-01-18 12:18:53.80	181.94	8.33	-46.5	-48.1	22.9	6.05e-01	0	35	0	111149056	64	4351
2026-01-18 12:18:54.81	182.00	8.42	-46.6	-48.1	22.9	6.05e-01	0	35	0	113246208	64	4389
2026-01-18 12:18:55.81	182.06	8.50	-46.5	-48.0	23.0	6.07e-01	0	35	0	115343360	64	4316
2026-01-18 12:18:56.82	182.11	8.59	-46.5	-48.1	23.0	6.08e-01	0	35	0	116916224	64	4343
2026-01-18 12:18:57.83	182.17	8.67	-46.6	-48.1	22.9	6.07e-01	0	35	0	119013376	64	4391
2026-01-18 12:18:58.84	182.23	8.76	-46.4	-48.0	23.1	6.07e-01	0	35	0	121110528	64	4315
2026-01-18 12:18:59.85	182.29	8.84	-46.4	-48.0	23.1	6.05e-01	0	35	0	122683392	64	4293
2026-01-18 12:19:00.85	182.34	8.93	-46.5	-48.1	23.0	6.06e-01	0	35	0	124780544	64	4368
2026-01-18 12:19:01.86	182.40	9.01	-46.4	-47.9	23.1	6.07e-01	0	35	0	126353408	64	4281
2026-01-18 12:19:02.87	182.46	9.10	-46.4	-47.9	23.2	6.04e-01	0	35	0	128450560	64	4278
2026-01-18 12:19:03.88	182.52	9.19	-46.4	-47.9	23.2	6.08e-01	0	35	0	130023424	64	4280
2026-01-18 12:19:04.89	182.58	9.28	-46.3	-47.7	23.3	6.06e-01	0	35	0	132120576	64	4189
2026-01-18 12:19:05.89	182.64	9.36	-46.2	-47.7	23.4	6.06e-01	0	35	0	134217728	64	4169
2026-01-18 12:19:06.90	182.70	9.45	-46.2	-47.6	23.4	6.05e-01	0	35	0	135790592	64	4145
2026-01-18 12:19:07.91	182.76	9.54	-46.1	-47.6	23.6	6.05e-01	0	35	0	137887744	64	4103
2026-01-18 12:19:08.92	182.83	9.63	-46.1	-47.6	23.5	6.05e-01	0	35	0	139984896	64	4105
2026-01-18 12:19:09.93	182.89	9.72	-46.2	-47.6	23.5	6.06e-01	0	35	0	141557760	64	4138
2026-01-18 12:19:10.93	182.95	9.80	-46.2	-47.6	23.5	6.07e-01	0	35	0	143654912	64	4144
2026-01-18 12:19:11.94	183.01	9.89	-46.1	-47.6	23.6	6.07e-01	0	35	0	145227776	64	4105
2026-01-18 12:19:12.95	183.07	9.98	-46.1	-47.5	23.6	6.06e-01	0	35	0	147324928	64	4097
2026-01-18 12:19:13.95	183.14	10.07	-46.1	-47.5	23.6	6.08e-01	0	35	0	149422080	64	4079
2026-01-18 12:19:14.96	183.20	10.16	-46.1	-47.6	23.6	6.07e-01	0	35	0	150994944	64	4105
2026-01-18 12:19:15.97	183.27	10.25	-46.1	-47.5	23.6	6.05e-01	0	35	0	153092096	64	4095
2026-01-18 12:19:16.97	183.33	10.34	-46.2	-47.7	23.5	6.07e-01	0	35	0	154664960	64	4158
2026-01-18 12:19:17.98	183.39	10.44	-46.1	-47.6	23.6	6.08e-01	0	35	0	156762112	64	4125
2026-01-18 12:19:18.99	183.46	10.53	-46.1	-47.5	23.6	6.08e-01	0	35	0	158334976	64	4086
2026-01-18 12:19:19.99	183.53	10.62	-46.1	-47.5	23.6	6.06e-01	0	35	0	160432128	64	4096
2026-01-18 12:19:21.00	183.59	10.71	-46.1	-47.6	23.6	6.05e-01	0	35	0	162529280	64	4120
2026-01-18 12:19:22.01	183.66	10.80	-46.1	-47.5	23.7	6.05e-01	0	35	0	164102144	64	4089
2026-01-18 12:19:23.01	183.72	10.90	-46.1	-47.5	23.7	6.05e-01	0	35	0	166199296	64	4092
2026-01-18 12:19:24.02	183.79	10.99	-46.0	-47.5	23.7	6.05e-01	0	35	0	168296448	64	4061
2026-01-18 12:19:25.02	183.86	11.08	-46.0	-47.4	23.8	6.08e-01	0	35	0	169869312	64	4024
2026-01-18 12:19:26.03	183.93	11.18	-46.0	-47.5	23.8	6.07e-01	0	35	0	171966464	63	4292
2026-01-18 12:19:27.04	184.00	11.27	-46.0	-47.4	23.9	6.07e-01	0	35	0	173539328	63	4271
2026-01-18 12:19:28.04	184.07	11.37	-46.0	-47.4	23.9	6.07e-01	0	35	0	175636480	63	4272
2026-01-18 12:19:29.05	184.14	11.46	-46.0	-47.4	23.9	6.05e-01	0	35	0	177733632	63	4290
2026-01-18 12:19:30.06	184.21	11.56	-46.0	-47.4	23.9	6.04e-01	0	35	0	179306496	63	4266
2026-01-18 12:19:31.06	184.28	11.65	-46.1	-47.5	23.8	6.07e-01	0	35	0	181403648	63	4328
2026-01-18 12:19:32.07	184.35	11.75	-46.1	-47.5	23.8	6.06e-01	0	35	0	182976512	63	4324
2026-01-18 12:19:33.08	184.42	11.85	-46.1	-47.6	23.7	6.05e-01	0	35	0	185073664	63	4343
2026-01-18 12:19:34.09	184.49	11.95	-46.1	-47.5	23.8	6.07e-01	0	35	0	186646528	63	4318
2026-01-18 12:19:35.10	184.56	12.04	-46.1	-47.5	23.8	6.05e-01	0	35	0	188743680	63	4309
2026-01-18 12:19:36.11	184.64	12.14	-46.2	-47.6	23.8	6.05e-01	0	35	0	190840832	63	4370
2026-01-18 12:19:37.11	184.71	12.24	-46.2	-47.7	23.7	6.04e-01	0	35	0	192413696	63	4411
2026-01-18 12:19:38.12	184.78	12.34	-46.0	-47.5	23.9	6.08e-01	0	35	0	194510848	63	4302
2026-01-18 12:19:39.13	184.86	12.44	-46.1	-47.5	23.9	6.05e-01	0	35	0	196608000	63	4314
2026-01-18 12:19:40.14	184.93	12.54	-46.0	-47.4	24.0	6.05e-01	0	35	0	198180864	63	4272
2026-01-18 12:19:41.14	185.01	12.64	-45.9	-47.2	24.1	6.07e-01	0	35	0	200278016	63	4187
2026-01-18 12:19:42.15	185.08	12.74	-45.8	-47.2	24.1	6.07e-01	0	35	0	201850880	63	4182
2026-01-18 12:19:43.15	185.16	12.84	-45.8	-47.2	24.1	6.07e-01	0	35	0	203948032	63	4183
2026-01-18 12:19:44.16	185.24	12.94	-45.9	-47.3	24.1	6.07e-01	0	35	0	206045184	63	4208
2026-01-18 12:19:45.17	185.32	13.04	-45.7	-47.0	24.3	6.04e-01	0	35	0	207618048	63	4090
2026-01-18 12:19:46.17	185.39	13.14	-45.7	-47.0	24.4	6.08e-01	0	35	0	209715200	63	4083
2026-01-18 12:19:47.18	185.47	13.25	-45.7	-47.0	24.4	6.03e-01	0	35	0	211288064	63	4079
2026-01-18 12:19:48.18	185.55	13.35	-45.7	-47.0	24.4	6.06e-01	0	35	0	213385216	63	4082
2026-01-18 12:19:49.19	185.63	13.45	-45.6	-46.9	24.5	6.05e-01	0	35	0	214958080	63	4028
2026-01-18 12:19:50.20	185.71	13.56	-45.6	-46.9	24.4	6.07e-01	0	35	0	217055232	63	4042
2026-01-18 12:19:51.21	185.79	13.66	-45.6	-47.0	24.4	6.05e-01	0	35	0	219152384	63	4056
2026-01-18 12:19:52.21	185.87	13.77	-45.6	-47.0	24.4	6.04e-01	0	35	0	220725248	63	4057
2026-01-18 12:19:53.22	185.96	13.87	-45.6	-47.0	24.4	6.06e-01	0	35	0	222822400	63	4060
2026-01-18 12:19:54.23	186.04	13.98	-45.7	-47.0	24.4	6.04e-01	0	35	0	224919552	63	4092
2026-01-18 12:19:55.24	186.12	14.08	-45.6	-47.0	24.5	6.08e-01	0	35	0	226492416	63	4065
2026-01-18 12:19:56.25	186.21	14.19	-45.6	-47.0	24.4	6.06e-01	0	35	0	228589568	63	4070
2026-01-18 12:19:57.25	186.29	14.30	-45.7	-47.0	24.4	6.07e-01	0	35	0	230162432	63	4082
2026-01-18 12:19:58.26	186.38	14.41	-45.5	-46.8	24.6	6.05e-01	0	35	0	232259584	63	3986
2026-01-18 12:19:59.27	186.46	14.51	-45.5	-46.9	24.5	6.07e-01	0	35	0	234356736	63	4015
2026-01-18 12:20:00.27	186.55	14.62	-45.5	-46.8	24.6	6.05e-01	0	35	0	235929600	63	3987
2026-01-18 12:20:01.28	186.64	14.73	-45.4	-46.8	24.6	6.05e-01	0	35	0	238026752	62	4197
2026-01-18 12:20:02.29	186.72	14.84	-45.5	-46.8	24.6	6.05e-01	0	36	0	239599616	62	4210
2026-01-18 12:20:03.30	186.81	14.95	-45.5	-46.8	24.6	6.08e-01	0	35	0	241696768	62	4212
2026-01-18 12:20:04.30	186.90	15.06	-45.5	-46.9	24.5	6.07e-01	0	35	0	243793920	62	4245
2026-01-18 12:20:05.31	186.99	15.17	-45.5	-46.8	24.6	6.05e-01	0	35	0	245366784	62	4205
2026-01-18 12:20:06.32	187.08	15.28	-45.5	-46.9	24.6	6.04e-01	0	35	0	247463936	62	4249
2026-01-18 12:20:07.33	187.17	15.40	-45.5	-46.8	24.6	6.08e-01	0	35	0	249561088	62	4228
2026-01-18 12:20:08.34	187.27	15.51	-45.4	-46.7	24.7	6.06e-01	0	35	0	251133952	62	4182
2026-01-18 12:20:09.35	187.36	15.62	-45.4	-46.7	24.7	6.06e-01	0	35	0	253231104	62	4158
2026-01-18 12:20:10.35	187.45	15.74	-45.3	-46.6	24.8	6.06e-01	0	35	0	254803968	62	4141
2026-01-18 12:20:11.36	187.55	15.85	-45.3	-46.6	24.8	6.04e-01	0	35	0	256901120	62	4144
2026-01-18 12:20:12.37	187.64	15.97	-45.3	-46.6	24.8	6.04e-01	0	35	0	258473984	62	4136
2026-01-18 12:20:13.37	187.74	16.08	-45.2	-46.5	24.9	6.06e-01	0	35	0	260571136	62	4084
2026-01-18 12:20:14.38	187.83	16.20	-45.2	-46.5	24.9	6.06e-01	0	35	0	262668288	62	4083
2026-01-18 12:20:15.39	187.93	16.31	-45.2	-46.5	24.9	6.06e-01	0	36	0	264241152	62	4057
2026-01-18 12:20:16.40	188.03	16.43	-45.3	-46.5	24.9	6.08e-01	0	35	0	266338304	62	4097
2026-01-18 12:20:17.41	188.13	16.55	-45.2	-46.5	24.9	6.05e-01	0	35	0	268435456	62	4085
2026-01-18 12:20:18.41	188.22	16.66	-45.3	-46.6	24.9	6.06e-01	0	36	0	270008320	62	4105
2026-01-18 12:20:19.42	188.32	16.78	-45.3	-46.6	24.9	6.05e-01	0	35	0	272105472	62	4103
2026-01-18 12:20:20.43	188.43	16.90	-45.3	-46.6	24.8	6.05e-01	0	35	0	273678336	62	4114
2026-01-18 12:20:21.44	188.53	17.02	-45.5	-46.8	24.6	6.06e-01	0	36	0	275775488	62	4206
2026-01-18 12:20:22.44	188.63	17.14	-45.4	-46.7	24.8	6.06e-01	0	35	0	277872640	62	4170
2026-01-18 12:20:23.45	188.73	17.26	-45.3	-46.6	24.8	6.06e-01	0	35	0	279445504	62	4142
2026-01-18 12:20:24.46	188.84	17.38	-45.3	-46.6	24.9	6.05e-01	0	35	0	281542656	62	4127
2026-01-18 12:20:25.46	188.94	17.51	-45.3	-46.6	24.9	6.05e-01	0	36	0	283115520	62	4109
2026-01-18 12:20:26.47	189.05	17.63	-45.2	-46.5	25.0	6.06e-01	0	35	0	285212672	62	4089
2026-01-18 12:20:27.48	189.16	17.75	-45.2	-46.5	25.0	6.07e-01	0	35	0	286785536	62	4081
2026-01-18 12:20:28.49	189.26	17.88	-45.2	-46.4	25.0	6.06e-01	0	35	0	288882688	62	4049
2026-01-18 12:20:29.49	189.37	18.00	-45.1	-46.4	25.1	6.06e-01	0	35	0	290979840	62	4025
2026-01-18 12:20:30.50	189.48	18.12	-45.1	-46.4	25.0	6.06e-01	0	35	0	292552704	62	4035
2026-01-18 12:20:31.50	189.59	18.25	-45.2	-46.5	25.0	6.06e-01	0	35	0	294649856	62	4066
2026-01-18 12:20:32.51	189.70	18.37	-45.3	-46.5	24.9	6.06e-01	0	36	0	296747008	62	4097
2026-01-18 12:20:33.52	189.82	18.50	-45.2	-46.5	25.0	6.05e-01	0	35	0	298319872	62	4083
2026-01-18 12:20:34.53	189.93	18.63	-45.2	-46.5	25.0	6.07e-01	0	35	0	300417024	62	4059
2026-01-18 12:20:35.54	190.04	18.76	-45.2	-46.5	25.0	6.05e-01	0	35	0	301989888	62	4066
2026-01-18 12:20:36.55	190.16	18.89	-45.2	-46.5	25.0	6.06e-01	0	35	0	304087040	62	4075
2026-01-18 12:20:37.55	190.27	19.01	-45.1	-46.4	25.1	6.06e-01	0	35	0	306184192	62	4007
2026-01-18 12:20:38.56	190.39	19.14	-45.2	-46.4	25.0	6.07e-01	0	35	0	307757056	62	4044
2026-01-18 12:20:39.57	190.51	19.28	-45.2	-46.5	24.9	6.08e-01	0	35	0	309854208	62	4084
2026-01-18 12:20:40.58	190.63	19.41	-45.3	-46.5	25.0	6.05e-01	0	35	0	311427072	62	4095
2026-01-18 12:20:41.59	190.75	19.54	-45.2	-46.5	25.0	6.04e-01	0	35	0	313524224	62	4074
2026-01-18 12:20:42.59	190.87	19.67	-45.3	-46.6	25.0	6.07e-01	0	35	0	315097088	62	4110
2026-01-18 12:20:43.60	190.99	19.80	-45.3	-46.6	24.9	6.05e-01	0	35	0	317194240	62	4116
2026-01-18 12:20:44.61	191.12	19.94	-45.3	-46.6	24.9	6.08e-01	0	36	0	319291392	62	4108
2026-01-18 12:20:45.61	191.24	20.07	-45.3	-46.6	24.9	6.06e-01	0	35	0	320864256	62	4129
2026-01-18 12:20:46.62	191.37	20.21	-45.2	-46.5	25.0	6.06e-01	0	35	0	322961408	62	4082
2026-01-18 12:20:47.63	191.50	20.34	-45.3	-46.6	24.9	6.06e-01	0	35	0	325058560	62	4119
2026-01-18 12:20:48.64	191.62	20.48	-45.3	-46.6	24.9	6.06e-01	0	36	0	326631424	62	4133
2026-01-18 12:20:49.65	191.75	20.62	-45.4	-46.7	24.8	6.07e-01	0	35	0	328728576	62	4174
2026-01-18 12:20:50.65	191.88	20.75	-45.4	-46.7	24.9	6.08e-01	0	35	0	330301440	62	4164
2026-01-18 12:20:51.66	192.02	20.89	-45.4	-46.7	24.8	6.05e-01	0	35	0	332398592	62	4179
2026-01-18 12:20:52.67	192.15	21.03	-45.4	-46.7	24.8	6.08e-01	0	35	0	334495744	62	4181
2026-01-18 12:20:53.68	192.28	21.17	-45.3	-46.6	24.9	6.07e-01	0	35	0	336068608	62	4129
2026-01-18 12:20:54.69	192.42	21.31	-45.4	-46.6	22.6	6.05e-01	0	35	0	338165760	62	4143
2026-01-18 12:20:55.69	192.55	21.45	-45.4	-46.7	24.8	6.06e-01	0	35	0	339738624	62	4169
2026-01-18 12:20:56.70	192.69	21.60	-45.6	-46.9	24.7	6.05e-01	0	35	0	341835776	62	4251
2026-01-18 12:20:57.71	192.83	21.74	-45.5	-46.8	24.8	6.05e-01	0	36	0	343932928	62	4215
2026-01-18 12:20:58.72	192.97	21.88	-45.5	-46.8	24.7	6.04e-01	0	35	0	345505792	62	4232
2026-01-18 12:20:59.72	193.11	22.03	-45.5	-46.8	24.8	6.06e-01	0	35	0	347602944	62	4214
2026-01-18 12:21:00.72	193.26	22.17	-45.4	-46.7	24.8	6.05e-01	0	35	0	349175808	62	4185
2026-01-18 12:21:01.73	193.40	22.32	-45.3	-46.6	25.0	6.05e-01	0	35	0	351272960	62	4107
2026-01-18 12:21:02.73	193.55	22.46	-45.4	-46.7	24.9	6.06e-01	0	35	0	353370112	62	4160
2026-01-18 12:21:03.74	193.69	22.61	-45.6	-46.9	24.7	6.07e-01	0	35	0	354942976	62	4269
2026-01-18 12:21:04.75	193.84	22.76	-45.6	-47.0	24.6	6.05e-01	0	35	0	357040128	62	4297
2026-01-18 12:21:05.76	193.99	22.91	-45.7	-47.1	24.5	6.08e-01	0	35	0	358612992	62	4345
2026-01-18 12:21:06.77	194.15	23.05	-45.7	-47.0	24.6	6.06e-01	0	36	0	360710144	62	4324
2026-01-18 12:21:07.77	194.30	23.20	-45.6	-47.0	24.6	6.07e-01	0	35	0	362807296	62	4304
2026-01-18 12:21:08.78	194.45	23.35	-45.5	-46.8	24.7	6.05e-01	0	35	0	364380160	62	4238
2026-01-18 12:21:09.79	194.61	23.51	-45.5	-46.8	24.8	6.07e-01	0	36	0	366477312	62	4225
2026-01-18 12:21:10.80	194.77	23.66	-45.6	-47.0	22.6	6.03e-01	0	35	0	368050176	62	4294
2026-01-18 12:21:11.81	194.93	23.81	-45.6	-46.9	24.7	6.07e-01	0	35	0	370147328	62	4271
2026-01-18 12:21:12.82	195.09	23.97	-45.6	-46.9	24.7	6.07e-01	0	35	0	372244480	62	4286
2026-01-18 12:21:13.82	195.25	24.12	-45.5	-46.8	24.8	6.05e-01	0	35	0	373817344	62	4230
2026-01-18 12:21:14.83	195.41	24.28	-45.5	-46.8	24.9	6.06e-01	0	35	0	375914496	62	4208
2026-01-18 12:21:15.84	195.58	24.43	-45.5	-46.8	24.8	6.05e-01	0	35	0	377487360	62	4222
2026-01-18 12:21:16.84	195.75	24.59	-45.5	-46.7	24.9	6.08e-01	0	35	0	379584512	62	4191
2026-01-18 12:21:17.85	195.91	24.75	-45.6	-46.9	24.8	6.04e-01	0	35	0	381681664	62	4252
2026-01-18 12:21:18.86	196.09	24.91	-45.6	-46.9	24.8	6.05e-01	0	35	0	383254528	62	4261
2026-01-18 12:21:19.87	196.26	25.07	-45.6	-46.9	24.7	6.05e-01	0	35	0	385351680	62	4289
2026-01-18 12:21:20.87	196.43	25.22	-45.5	-46.8	24.9	6.07e-01	0	35	0	386924544	62	4195
2026-01-18 12:21:21.88	196.61	25.39	-45.6	-46.9	24.8	6.04e-01	0	35	0	389021696	62	4245
2026-01-18 12:21:22.89	196.79	25.55	-45.5	-46.7	24.9	6.06e-01	0	35	0	391118848	62	4184
2026-01-18 12:21:23.90	196.97	25.71	-45.4	-46.6	25.0	6.07e-01	0	35	0	392691712	62	4145
2026-01-18 12:21:24.90	197.15	25.87	-45.5	-46.8	24.8	6.06e-01	0	35	0	394788864	62	4217
2026-01-18 12:21:25.91	197.33	26.04	-45.5	-46.8	24.8	6.05e-01	0	35	0	396886016	62	4224
2026-01-18 12:21:26.92	197.52	26.20	-45.5	-46.7	24.9	6.06e-01	0	35	0	398458880	62	4192
2026-01-18 12:21:27.93	197.71	26.37	-45.4	-46.7	24.9	6.05e-01	0	35	0	400556032	62	4173
2026-01-18 12:21:28.94	197.90	26.53	-45.4	-46.6	25.0	6.04e-01	0	35	0	402128896	62	4134
2026-01-18 12:21:29.95	198.09	26.70	-45.3	-46.6	25.1	6.06e-01	0	35	0	404226048	62	4107
2026-01-18 12:21:30.95	198.28	26.87	-45.4	-46.7	24.9	6.07e-01	0	36	0	405798912	62	4183
2026-01-18 12:21:31.96	198.48	27.04	-45.4	-46.6	25.0	6.07e-01	0	35	0	407896064	62	4138
2026-01-18 12:21:32.97	198.67	27.21	-45.4	-46.6	25.0	6.06e-01	0	35	0	409993216	62	4139
2026-01-18 12:21:33.98	198.88	27.38	-45.4	-46.6	25.1	6.04e-01	0	35	0	411566080	62	4130
2026-01-18 12:21:34.99	199.08	27.55	-45.4	-46.7	25.0	6.05e-01	0	35	0	413663232	62	4149
2026-01-18 12:21:35.99	199.28	27.72	-45.5	-46.8	24.9	6.07e-01	0	35	0	415236096	62	4207
2026-01-18 12:21:37.00	199.49	27.89	-45.3	-46.6	25.0	6.04e-01	0	35	0	417333248	62	4123
2026-01-18 12:21:38.01	199.70	28.07	-45.3	-46.5	25.1	6.05e-01	0	35	0	419430400	62	4088
2026-01-18 12:21:39.01	199.91	28.24	-45.3	-46.6	25.1	6.08e-01	0	35	0	421003264	62	4110
2026-01-18 12:21:40.02	200.12	28.42	-46.0	-47.4	24.7	6.07e-01	0	36	0	423100416	62	4496
2026-01-18 12:21:41.03	200.34	28.59	-45.7	-47.0	24.7	6.07e-01	0	35	0	425197568	62	4303
2026-01-18 12:21:42.04	200.56	28.77	-45.6	-46.9	24.7	6.06e-01	0	36	0	426770432	62	4267
2026-01-18 12:21:43.05	200.78	28.95	-45.5	-46.8	24.9	6.07e-01	0	35	0	428867584	62	4217
2026-01-18 12:21:44.05	201.00	29.12	-45.3	-46.5	25.1	6.07e-01	0	35	0	430440448	62	4082
2026-01-18 12:21:45.06	201.23	29.30	-45.2	-46.4	25.2	6.05e-01	0	35	0	432537600	62	4028
2026-01-18 12:21:46.07	201.45	29.48	-45.2	-46.4	25.2	6.06e-01	0	35	0	434110464	62	4041
2026-01-18 12:21:47.07	201.68	29.66	-45.3	-46.6	25.1	6.06e-01	0	35	0	436207616	62	4119
2026-01-18 12:21:48.08	201.92	29.84	-45.4	-46.7	25.0	6.05e-01	0	35	0	438304768	62	4186
2026-01-18 12:21:49.09	202.15	30.03	-45.4	-46.6	25.0	6.05e-01	0	35	0	439877632	62	4143
2026-01-18 12:21:50.10	202.39	30.21	-45.4	-46.7	25.0	6.05e-01	0	35	0	441974784	62	4158
2026-01-18 12:21:51.11	202.64	30.39	-45.3	-46.6	25.1	6.06e-01	0	35	0	444071936	62	4127
2026-01-18 12:21:52.12	202.88	30.58	-45.4	-46.6	25.0	6.03e-01	0	35	0	445644800	62	4133
2026-01-18 12:21:53.13	203.13	30.76	-45.2	-46.5	25.2	6.06e-01	0	35	0	447741952	62	4074
2026-01-18 12:21:54.13	203.38	30.95	-45.3	-46.6	25.1	6.04e-01	0	35	0	449314816	62	4129
2026-01-18 12:21:55.14	203.63	31.13	-45.5	-46.7	25.0	6.04e-01	0	35	0	451411968	62	4189
2026-01-18 12:21:56.15	203.89	31.32	-45.4	-46.6	25.1	6.05e-01	0	36	0	453509120	62	4136
2026-01-18 12:21:57.16	204.15	31.51	-45.4	-46.6	25.1	6.05e-01	0	36	0	455081984	62	4140
2026-01-18 12:21:58.16	204.41	31.70	-45.3	-46.6	25.1	6.06e-01	0	35	0	457179136	62	4105
2026-01-18 12:21:59.17	204.67	31.89	-45.4	-46.7	25.0	6.06e-01	0	35	0	458752000	62	4160
2026-01-18 12:22:00.18	204.94	32.08	-45.6	-46.9	24.9	6.04e-01	0	36	0	460849152	62	4252
2026-01-18 12:22:01.19	205.21	32.27	-45.6	-46.9	24.8	6.05e-01	0	35	0	462422016	62	4268
2026-01-18 12:22:02.20	205.49	32.46	-45.5	-46.8	25.0	6.05e-01	0	35	0	464519168	62	4210
2026-01-18 12:22:03.21	205.77	32.65	-45.5	-46.7	25.0	6.06e-01	0	35	0	466616320	62	4191
2026-01-18 12:22:04.21	206.05	32.84	-45.8	-47.1	24.7	6.08e-01	0	35	0	468713472	62	4378
2026-01-18 12:22:05.22	206.33	33.03	-45.8	-47.1	24.7	6.06e-01	0	35	0	470286336	62	4372
2026-01-18 12:22:06.23	206.62	33.23	-45.6	-46.8	24.9	6.06e-01	0	35	0	472383488	62	4236
2026-01-18 12:22:07.24	206.91	33.42	-45.8	-47.1	24.7	6.07e-01	0	35	0	473956352	62	4387
2026-01-18 12:22:08.25	207.21	33.61	-45.9	-47.3	24.5	6.05e-01	0	35	0	476053504	62	4451
2026-01-18 12:22:09.25	207.51	33.81	-45.9	-47.2	24.6	6.06e-01	0	35	0	477626368	62	4416
2026-01-18 12:22:10.26	207.81	34.00	-45.8	-47.1	24.7	6.06e-01	0	35	0	479723520	62	4344
2026-01-18 12:22:11.27	208.12	34.20	-45.8	-47.1	24.7	6.05e-01	0	35	0	481820672	62	4372
2026-01-18 12:22:12.28	208.43	34.39	-45.8	-47.1	24.6	6.05e-01	0	35	0	483393536	62	4389
2026-01-18 12:22:13.29	208.74	34.59	-45.9	-47.3	24.5	6.06e-01	0	36	0	485490688	62	4466
2026-01-18 12:22:14.29	209.06	34.79	-46.0	-47.4	24.5	6.06e-01	0	35	0	487063552	62	4499
2026-01-18 12:22:15.30	209.38	34.98	-46.1	-47.4	24.4	6.05e-01	0	35	0	489160704	62	4529
2026-01-18 12:22:16.31	209.70	35.18	-46.2	-47.5	24.3	6.05e-01	0	35	0	491257856	62	4597
2026-01-18 12:22:17.31	210.03	35.38	-46.1	-47.4	24.4	6.04e-01	0	35	0	492830720	62	4536
2026-01-18 12:22:18.32	210.37	35.58	-46.2	-47.5	24.3	6.04e-01	0	35	0	494927872	62	4588
2026-01-18 12:22:19.33	210.70	35.77	-46.0	-47.4	24.5	6.06e-01	0	35	0	497025024	62	4499
2026-01-18 12:22:20.34	211.05	35.97	-46.2	-47.6	24.3	6.05e-01	0	35	0	498597888	63	4349
2026-01-18 12:22:21.35	211.39	36.17	-46.3	-47.7	24.2	6.05e-01	0	35	0	500695040	63	4407
2026-01-18 12:22:22.35	211.74	36.37	-46.2	-47.6	24.2	6.05e-01	0	35	0	502267904	63	4371
2026-01-18 12:22:23.36	212.10	36.57	-46.4	-47.7	24.1	6.07e-01	0	35	0	504365056	63	4438
2026-01-18 12:22:24.37	212.45	36.77	-46.2	-47.6	24.3	6.06e-01	0	36	0	505937920	63	4347
2026-01-18 12:22:25.37	212.82	36.97	-46.1	-47.4	24.4	6.05e-01	0	35	0	508035072	63	4291
2026-01-18 12:22:26.38	213.18	37.17	-46.3	-47.6	24.2	6.07e-01	0	35	0	510132224	63	4374
2026-01-18 12:22:27.39	213.56	37.36	-46.2	-47.6	24.3	6.07e-01	0	35	0	511705088	63	4366
2026-01-18 12:22:28.40	213.93	37.56	-46.4	-47.8	24.0	6.05e-01	0	35	0	513802240	63	4492
2026-01-18 12:22:29.40	214.31	37.76	-46.3	-47.7	24.1	6.06e-01	0	35	0	515899392	63	4429
2026-01-18 12:22:30.41	214.70	37.96	-46.4	-47.8	24.1	6.05e-01	0	35	0	517472256	63	4471
2026-01-18 12:22:31.42	215.09	38.16	-46.6	-48.0	23.9	6.08e-01	0	35	0	519569408	63	4556
2026-01-18 12:22:32.43	215.49	38.36	-46.2	-47.6	24.3	6.07e-01	0	35	0	521142272	63	4342
2026-01-18 12:22:33.44	215.89	38.56	-46.3	-47.7	24.2	6.05e-01	0	35	0	523239424	63	4415
2026-01-18 12:22:34.45	216.30	38.76	-46.3	-47.6	24.3	6.06e-01	0	36	0	525336576	63	4375
2026-01-18 12:22:35.45	216.70	38.95	-46.2	-47.6	24.3	6.05e-01	0	35	0	526909440	63	4354
2026-01-18 12:22:36.46	217.12	39.15	-46.2	-47.5	24.4	6.08e-01	0	36	0	529006592	63	4323
2026-01-18 12:22:37.47	217.54	39.35	-46.1	-47.5	24.4	6.07e-01	0	35	0	530579456	63	4300
2026-01-18 12:22:38.47	217.96	39.54	-46.0	-47.3	24.6	6.06e-01	0	36	0	532676608	63	4230
2026-01-18 12:22:39.48	218.40	39.74	-45.9	-47.2	24.6	6.06e-01	0	35	0	534249472	63	4182
2026-01-18 12:22:40.49	218.83	39.93	-45.7	-47.0	24.9	6.06e-01	0	35	0	536346624	63	4069
2026-01-18 12:22:41.50	219.28	40.13	-45.8	-47.1	24.8	6.04e-01	0	35	0	538443776	63	4124
2026-01-18 12:22:42.51	219.72	40.32	-45.7	-47.0	24.9	6.04e-01	0	36	0	540540928	63	4055
2026-01-18 12:22:43.51	220.17	40.51	-45.8	-47.1	24.8	6.06e-01	0	35	0	542113792	63	4113
2026-01-18 12:22:44.52	220.63	40.70	-45.3	-46.5	25.3	6.08e-01	0	35	0	544210944	62	4063
2026-01-18 12:22:45.53	221.10	40.89	-45.4	-46.7	25.2	6.07e-01	0	35	0	545783808	62	4177
2026-01-18 12:22:46.54	221.57	41.08	-45.4	-46.7	25.1	6.05e-01	0	35	0	547880960	62	4164
2026-01-18 12:22:47.55	222.04	41.27	-45.3	-46.5	25.3	6.08e-01	0	35	0	549453824	62	4078
2026-01-18 12:22:48.55	222.52	41.46	-45.3	-46.5	25.4	6.08e-01	0	35	0	551550976	62	4075
2026-01-18 12:22:49.56	223.00	41.64	-45.3	-46.5	25.3	6.07e-01	0	35	0	553648128	62	4078
2026-01-18 12:22:50.57	223.49	41.83	-45.0	-46.2	25.6	6.05e-01	0	35	0	555220992	62	3954
2026-01-18 12:22:51.58	223.99	42.01	-45.2	-46.4	25.4	6.06e-01	0	35	0	557318144	62	4025
2026-01-18 12:22:52.59	224.50	42.20	-44.9	-46.1	25.7	6.05e-01	0	35	0	558891008	61	4142
2026-01-18 12:22:53.60	225.01	42.38	-45.1	-46.3	25.5	6.06e-01	0	35	0	560988160	61	4222
2026-01-18 12:22:54.60	225.52	42.56	-45.1	-46.3	25.5	6.07e-01	0	35	0	562561024	61	4227
2026-01-18 12:22:55.61	226.04	42.73	-45.1	-46.3	25.5	6.05e-01	0	36	0	564658176	61	4208
2026-01-18 12:22:56.62	226.56	42.91	-44.8	-46.0	25.8	6.06e-01	0	35	0	566755328	61	4067
2026-01-18 12:22:57.63	227.09	43.09	-44.9	-46.1	25.7	6.06e-01	0	35	0	568852480	61	4110
2026-01-18 12:22:58.63	227.63	43.26	-44.7	-45.9	25.8	6.06e-01	0	35	0	570425344	61	4034
2026-01-18 12:22:59.64	228.17	43.43	-44.7	-45.9	25.9	6.04e-01	0	35	0	572522496	61	4007
2026-01-18 12:23:00.65	228.72	43.60	-44.5	-45.7	26.1	6.04e-01	0	35	0	574095360	61	3924
2026-01-18 12:23:01.66	229.28	43.76	-44.7	-45.9	25.9	6.05e-01	0	36	0	576192512	61	4018
2026-01-18 12:23:02.67	229.84	43.93	-44.6	-45.7	26.1	6.03e-01	0	36	0	577765376	61	3958
2026-01-18 12:23:03.67	230.40	44.09	-44.4	-45.6	26.2	6.06e-01	0	35	0	579862528	60	4119
2026-01-18 12:23:04.68	230.97	44.25	-44.4	-45.5	26.2	6.04e-01	0	35	0	581959680	60	4080
2026-01-18 12:23:05.69	231.55	44.40	-44.5	-45.7	26.1	6.04e-01	0	35	0	583532544	60	4155
2026-01-18 12:23:06.70	232.14	44.56	-44.5	-45.6	26.1	6.05e-01	0	35	0	585629696	60	4134
2026-01-18 12:23:07.70	232.72	44.71	-44.5	-45.7	26.0	6.03e-01	0	35	0	587202560	60	4166
2026-01-18 12:23:08.71	233.31	44.86	-44.5	-45.6	26.1	6.04e-01	0	35	0	589299712	60	4135
2026-01-18 12:23:09.72	233.92	45.01	-44.4	-45.6	26.2	6.06e-01	0	35	0	591396864	60	4123
2026-01-18 12:23:10.73	234.52	45.15	-44.7	-45.9	25.9	6.04e-01	0	35	0	592969728	60	4263
2026-01-18 12:23:11.74	235.13	45.29	-44.6	-45.7	26.1	6.07e-01	0	35	0	595066880	60	4184
2026-01-18 12:23:12.75	235.75	45.43	-44.6	-45.8	26.0	6.05e-01	0	35	0	597164032	60	4199
2026-01-18 12:23:13.75	236.37	45.56	-44.8	-46.0	25.8	6.04e-01	0	35	0	598736896	60	4312
2026-01-18 12:23:14.76	237.00	45.70	-44.9	-46.0	25.8	6.05e-01	0	35	0	600834048	60	4340
2026-01-18 12:23:15.77	237.63	45.82	-44.9	-46.1	25.7	6.06e-01	0	35	0	602406912	60	4351
2026-01-18 12:23:16.78	238.27	45.95	-44.6	-45.8	26.0	6.03e-01	0	36	0	604504064	60	4195
2026-01-18 12:23:17.78	238.91	46.07	-44.7	-45.9	25.9	6.06e-01	0	35	0	606076928	60	4247
2026-01-18 12:23:18.79	239.56	46.19	-44.7	-45.9	25.9	6.06e-01	0	35	0	608174080	60	4283
2026-01-18 12:23:19.80	240.21	46.30	-44.9	-46.1	25.7	6.06e-01	0	36	0	610271232	60	4381
2026-01-18 12:23:20.81	240.87	46.41	-44.9	-46.1	25.7	6.08e-01	0	35	0	612368384	60	4349
2026-01-18 12:23:21.81	241.52	46.52	-45.0	-46.2	25.6	6.05e-01	0	35	0	613941248	60	4436
2026-01-18 12:23:22.82	242.19	46.62	-45.1	-46.4	25.5	6.09e-01	0	36	0	616038400	61	4250
2026-01-18 12:23:23.83	242.86	46.72	-44.9	-46.1	25.7	6.07e-01	0	35	0	617611264	61	4122
2026-01-18 12:23:24.84	243.54	46.82	-44.9	-46.1	25.8	6.05e-01	0	36	0	619708416	61	4136
2026-01-18 12:23:25.85	244.22	46.91	-45.4	-46.6	25.2	6.06e-01	0	36	0	621281280	61	4383
2026-01-18 12:23:26.85	244.89	47.00	-45.0	-46.2	25.7	6.05e-01	0	35	0	623378432	61	4155
2026-01-18 12:23:27.86	245.58	47.08	-45.2	-46.4	25.5	6.06e-01	0	35	0	625475584	61	4280
2026-01-18 12:23:28.87	246.27	47.16	-45.0	-46.1	25.7	6.05e-01	0	35	0	627048448	61	4145
2026-01-18 12:23:29.88	246.97	47.23	-45.2	-46.4	25.5	6.05e-01	0	35	0	629145600	61	4261
2026-01-18 12:23:30.88	247.66	47.30	-45.3	-46.5	25.4	6.06e-01	0	35	0	630718464	61	4316
2026-01-18 12:23:31.89	248.36	47.37	-45.1	-46.4	25.5	6.04e-01	0	36	0	632815616	61	4246
2026-01-18 12:23:32.90	249.06	47.43	-45.2	-46.4	25.4	6.04e-01	0	35	0	634388480	61	4283
2026-01-18 12:23:33.91	249.77	47.49	-45.1	-46.3	25.6	6.04e-01	0	35	0	636485632	61	4221
2026-01-18 12:23:34.91	250.47	47.54	-45.3	-46.5	25.4	6.06e-01	0	35	0	638582784	61	4330
2026-01-18 12:23:35.92	251.18	47.59	-45.2	-46.4	25.5	6.06e-01	0	35	0	640679936	61	4249
2026-01-18 12:23:36.93	251.89	47.63	-45.1	-46.3	25.6	6.05e-01	0	36	0	642252800	61	4216
2026-01-18 12:23:37.94	252.61	47.67	-45.2	-46.4	25.4	6.07e-01	0	36	0	644349952	61	4288
2026-01-18 12:23:38.95	253.32	47.71	-45.2	-46.4	25.5	6.05e-01	0	35	0	645922816	61	4261
2026-01-18 12:23:39.95	254.03	47.74	-45.3	-46.6	25.3	6.06e-01	0	36	0	648019968	61	4346
2026-01-18 12:23:40.96	254.75	47.76	-45.2	-46.4	25.5	6.06e-01	0	35	0	649592832	61	4291
2026-01-18 12:23:41.96	255.47	47.78	-45.0	-46.2	25.7	6.06e-01	0	35	0	651689984	61	4186
2026-01-18 12:23:42.97	256.19	47.80	-45.4	-46.6	25.3	6.06e-01	0	36	0	653787136	61	4390
2026-01-18 12:23:43.97	256.90	47.81	-45.4	-46.6	25.3	6.04e-01	0	35	0	655360000	61	4376
2026-01-18 12:23:44.98	257.62	47.81	-45.1	-46.3	25.5	6.04e-01	0	36	0	657457152	61	4230
2026-01-18 12:23:45.99	258.34	47.81	-45.3	-46.5	25.4	6.06e-01	0	35	0	659030016	61	4339
2026-01-18 12:23:47.00	259.07	47.81	-45.6	-46.9	25.0	6.02e-01	0	36	0	661127168	61	4527
2026-01-18 12:23:48.01	259.79	47.80	-45.6	-46.8	25.1	6.07e-01	0	36	0	663224320	61	4472
2026-01-18 12:23:49.02	260.51	47.79	-45.6	-46.8	25.1	6.06e-01	0	35	0	664797184	62	4242
2026-01-18 12:23:50.02	261.22	47.77	-45.5	-46.7	25.2	6.06e-01	0	36	0	666894336	62	4188
2026-01-18 12:23:51.03	261.94	47.75	-45.8	-47.2	24.7	6.06e-01	0	36	0	668991488	62	4396
2026-01-18 12:23:52.04	262.66	47.72	-45.5	-46.7	25.2	6.04e-01	0	36	0	670564352	62	4163
2026-01-18 12:23:53.05	263.38	47.69	-45.5	-46.8	25.2	6.05e-01	0	36	0	672661504	62	4218
2026-01-18 12:23:54.05	264.08	47.65	-45.7	-47.0	25.0	6.05e-01	0	35	0	674234368	62	4298
2026-01-18 12:23:55.06	264.80	47.61	-45.6	-46.8	25.0	6.04e-01	0	35	0	676331520	62	4238
2026-01-18 12:23:56.07	265.51	47.56	-45.6	-46.8	25.1	6.06e-01	0	36	0	677904384	62	4241
2026-01-18 12:23:57.07	266.21	47.51	-45.7	-46.9	25.0	6.05e-01	0	36	0	680001536	62	4287
2026-01-18 12:23:58.08	266.92	47.46	-45.6	-46.9	25.0	6.06e-01	0	35	0	682098688	62	4274
2026-01-18 12:23:59.09	267.62	47.40	-45.7	-47.0	24.9	6.04e-01	0	36	0	683671552	62	4323
2026-01-18 12:24:00.10	268.32	47.33	-45.6	-46.8	25.1	6.05e-01	0	36	0	685768704	62	4233
2026-01-18 12:24:01.11	269.02	47.26	-45.7	-47.0	25.0	6.04e-01	0	36	0	687865856	62	4331
2026-01-18 12:24:02.11	269.71	47.19	-45.6	-46.9	25.1	6.07e-01	0	35	0	689438720	62	4273
2026-01-18 12:24:03.12	270.40	47.11	-45.8	-47.1	24.9	6.04e-01	0	36	0	691535872	62	4379
2026-01-18 12:24:04.13	271.09	47.03	-45.8	-47.0	24.9	6.03e-01	0	35	0	693108736	62	4336
2026-01-18 12:24:05.14	271.77	46.95	-45.5	-46.8	25.2	6.03e-01	0	35	0	695205888	62	4196
2026-01-18 12:24:06.15	272.45	46.86	-45.5	-46.8	25.2	6.00e-01	0	36	0	697303040	62	4212
2026-01-18 12:24:07.15	273.12	46.77	-45.9	-47.3	24.7	6.03e-01	0	36	0	698875904	62	4447
2026-01-18 12:24:08.16	273.80	46.67	-45.7	-47.0	24.9	6.03e-01	0	36	0	700973056	62	4321
2026-01-18 12:24:09.17	274.46	46.57	-45.5	-46.7	25.2	6.01e-01	0	36	0	702545920	62	4193
2026-01-18 12:24:10.17	275.12	46.46	-45.5	-46.7	25.3	6.03e-01	0	36	0	704643072	62	4169
2026-01-18 12:24:11.18	275.78	46.35	-45.7	-47.0	25.0	6.02e-01	0	36	0	706215936	62	4318
2026-01-18 12:24:12.19	276.44	46.24	-45.8	-47.0	24.9	6.03e-01	0	36	0	708313088	62	4338
2026-01-18 12:24:13.20	277.08	46.12	-45.6	-46.9	25.1	6.03e-01	0	36	0	710410240	62	4259
2026-01-18 12:24:14.21	277.73	46.00	-45.6	-46.9	25.1	6.05e-01	0	35	0	711983104	62	4250
2026-01-18 12:24:15.21	278.36	45.88	-46.0	-47.3	24.7	6.03e-01	0	36	0	714080256	62	4462
2026-01-18 12:24:16.22	279.00	45.75	-45.6	-46.9	25.1	6.02e-01	0	35	0	716177408	62	4244
2026-01-18 12:24:17.23	279.63	45.62	-45.6	-46.9	25.1	6.04e-01	0	36	0	717750272	62	4252
2026-01-18 12:24:18.24	280.25	45.49	-45.4	-46.6	25.2	6.03e-01	0	36	0	719847424	62	4143
2026-01-18 12:24:19.25	280.87	45.35	-45.4	-46.6	25.4	6.03e-01	0	36	0	721420288	62	4129
2026-01-18 12:24:20.25	281.48	45.22	-45.7	-46.9	25.1	6.02e-01	0	36	0	723517440	62	4285
2026-01-18 12:24:21.26	282.09	45.07	-45.7	-47.0	25.0	6.04e-01	0	35	0	725614592	62	4292
2026-01-18 12:24:22.27	282.69	44.93	-45.6	-46.9	25.1	6.02e-01	0	36	0	727187456	62	4246
2026-01-18 12:24:23.28	283.29	44.78	-45.7	-47.0	25.0	6.04e-01	0	35	0	729284608	62	4311
2026-01-18 12:24:24.28	283.87	44.63	-45.6	-46.9	25.1	6.04e-01	0	36	0	730857472	62	4271
2026-01-18 12:24:25.29	284.46	44.48	-45.7	-46.9	25.0	6.01e-01	0	36	0	732954624	62	4288
2026-01-18 12:24:26.29	285.03	44.32	-45.7	-46.9	25.0	6.03e-01	0	36	0	734527488	62	4278
2026-01-18 12:24:27.30	285.60	44.16	-45.7	-46.9	25.0	6.03e-01	0	36	0	736624640	62	4279
2026-01-18 12:24:28.31	286.17	44.00	-45.6	-46.9	25.0	6.04e-01	0	36	0	738721792	62	4243
2026-01-18 12:24:29.31	286.73	43.84	-45.6	-46.9	25.0	6.03e-01	0	36	0	740294656	62	4281
2026-01-18 12:24:30.32	287.29	43.68	-45.6	-46.8	25.2	6.02e-01	0	36	0	742391808	62	4228
2026-01-18 12:24:31.33	287.84	43.51	-45.6	-46.9	25.1	6.05e-01	0	36	0	744488960	62	4273
2026-01-18 12:24:32.33	288.38	43.34	-45.9	-47.2	24.8	6.03e-01	0	36	0	746061824	62	4419
2026-01-18 12:24:33.34	288.92	43.17	-45.7	-47.0	24.9	6.04e-01	0	36	0	748158976	62	4310
2026-01-18 12:24:34.35	289.45	43.00	-45.7	-47.0	25.0	6.04e-01	0	36	0	749731840	62	4302
2026-01-18 12:24:35.35	289.97	42.82	-45.9	-47.2	24.8	6.03e-01	0	36	0	751828992	62	4420
2026-01-18 12:24:36.36	290.50	42.65	-45.9	-47.2	24.8	6.02e-01	0	36	0	753926144	62	4413
2026-01-18 12:24:37.37	291.01	42.47	-45.8	-47.1	24.9	6.04e-01	0	35	0	755499008	62	4352
2026-01-18 12:24:38.38	291.52	42.29	-45.9	-47.2	24.9	6.02e-01	0	36	0	757596160	62	4393
2026-01-18 12:24:39.38	292.02	42.11	-45.8	-47.1	24.8	6.01e-01	0	36	0	759169024	62	4372
2026-01-18 12:24:40.39	292.52	41.93	-45.9	-47.2	24.8	6.08e-01	0	36	0	761266176	62	4397
2026-01-18 12:24:41.40	293.02	41.74	-46.1	-47.5	24.5	6.02e-01	0	35	0	762839040	62	4568
2026-01-18 12:24:42.41	293.50	41.56	-46.1	-47.4	24.6	6.05e-01	0	35	0	764936192	63	4264
2026-01-18 12:24:43.42	293.99	41.37	-46.0	-47.3	24.7	6.03e-01	0	36	0	767033344	63	4222
2026-01-18 12:24:44.43	294.46	41.18	-46.1	-47.4	24.7	6.05e-01	0	35	0	768606208	63	4255
2026-01-18 12:24:45.43	294.93	41.00	-46.3	-47.6	24.4	6.03e-01	0	36	0	770703360	63	4373
2026-01-18 12:24:46.44	295.40	40.81	-46.1	-47.5	24.6	6.03e-01	0	36	0	772800512	63	4295
2026-01-18 12:24:47.45	295.86	40.61	-46.1	-47.4	24.6	6.00e-01	0	35	0	774373376	63	4288
2026-01-18 12:24:48.46	296.31	40.42	-46.0	-47.3	24.8	6.04e-01	0	36	0	776470528	63	4214
2026-01-18 12:24:49.46	296.76	40.23	-46.0	-47.3	24.8	6.03e-01	0	35	0	778043392	63	4223
2026-01-18 12:24:50.47	297.20	40.04	-46.1	-47.4	24.7	6.04e-01	0	36	0	780140544	63	4258
2026-01-18 12:24:51.48	297.64	39.84	-46.2	-47.6	24.5	6.04e-01	0	35	0	782237696	63	4353
2026-01-18 12:24:52.49	298.07	39.65	-46.3	-47.6	24.4	6.05e-01	0	36	0	783810560	63	4367
2026-01-18 12:24:53.50	298.50	39.45	-46.2	-47.6	24.4	6.04e-01	0	35	0	785907712	63	4357
2026-01-18 12:24:54.51	298.92	39.26	-46.1	-47.4	24.6	6.02e-01	0	35	0	788004864	63	4276
2026-01-18 12:24:55.51	299.34	39.06	-46.1	-47.4	24.6	6.04e-01	0	36	0	789577728	63	4265
2026-01-18 12:24:56.52	299.75	38.87	-46.0	-47.3	24.7	6.01e-01	0	36	0	791674880	63	4210
2026-01-18 12:24:57.53	300.16	38.67	-46.2	-47.5	24.6	6.03e-01	0	36	0	793247744	63	4330
2026-01-18 12:24:58.54	300.56	38.47	-46.1	-47.5	24.6	6.02e-01	0	35	0	795344896	63	4292
2026-01-18 12:24:59.55	300.96	38.27	-46.1	-47.4	24.6	6.05e-01	0	36	0	796917760	63	4271
2026-01-18 12:25:00.56	301.35	38.08	-46.1	-47.4	24.6	6.02e-01	0	36	0	799014912	63	4256
2026-01-18 12:25:01.57	301.74	37.88	-45.9	-47.3	24.7	6.03e-01	0	35	0	801112064	63	4198
2026-01-18 12:25:02.58	302.12	37.68	-45.9	-47.3	24.7	6.04e-01	0	36	0	802684928	63	4194
2026-01-18 12:25:03.58	302.50	37.48	-45.7	-47.0	25.0	6.01e-01	0	36	0	804782080	63	4065
2026-01-18 12:25:04.59	302.87	37.28	-45.8	-47.1	25.0	6.04e-01	0	35	0	806354944	63	4108
2026-01-18 12:25:05.60	303.24	37.09	-45.7	-47.0	25.1	6.02e-01	0	35	0	808452096	63	4058
2026-01-18 12:25:06.61	303.61	36.89	-45.8	-47.1	24.9	6.03e-01	0	35	0	810549248	63	4130
2026-01-18 12:25:07.61	303.96	36.69	-45.8	-47.1	24.9	6.02e-01	0	35	0	812122112	63	4108
2026-01-18 12:25:08.62	304.32	36.49	-45.7	-46.9	25.0	6.00e-01	0	35	0	814219264	63	4046
2026-01-18 12:25:09.63	304.67	36.29	-45.7	-47.0	25.0	6.03e-01	0	35	0	816316416	63	4060
2026-01-18 12:25:10.64	305.02	36.10	-45.5	-46.8	25.3	6.03e-01	0	36	0	817889280	63	3962
2026-01-18 12:25:11.65	305.36	35.90	-45.4	-46.6	25.4	6.00e-01	0	35	0	819986432	62	4122
2026-01-18 12:25:12.65	305.70	35.70	-45.2	-46.4	25.5	6.03e-01	0	35	0	821559296	62	4048
2026-01-18 12:25:13.66	306.03	35.50	-45.0	-46.2	25.7	6.02e-01	0	36	0	823656448	62	3955
2026-01-18 12:25:14.67	306.37	35.31	-45.1	-46.4	25.6	6.03e-01	0	35	0	825753600	62	4007
2026-01-18 12:25:15.67	306.69	35.11	-45.2	-46.4	25.5	6.01e-01	0	35	0	827326464	62	4021
2026-01-18 12:25:16.68	307.01	34.92	-45.0	-46.2	25.8	6.03e-01	0	35	0	829423616	62	3926
2026-01-18 12:25:17.69	307.33	34.72	-44.9	-46.1	25.7	6.05e-01	0	35	0	830996480	61	4140
2026-01-18 12:25:18.70	307.65	34.52	-44.8	-46.0	26.0	6.02e-01	0	35	0	833093632	61	4064
2026-01-18 12:25:19.71	307.96	34.33	-44.8	-46.0	26.0	6.03e-01	0	35	0	835190784	61	4052
2026-01-18 12:25:20.71	308.26	34.13	-44.8	-46.0	25.9	6.02e-01	0	35	0	836763648	61	4077
2026-01-18 12:25:21.72	308.57	33.94	-44.8	-46.0	25.9	6.03e-01	0	36	0	838860800	61	4090
2026-01-18 12:25:22.73	308.87	33.75	-44.5	-45.6	26.2	6.02e-01	0	35	0	840433664	61	3901
2026-01-18 12:25:23.73	309.16	33.55	-44.4	-45.5	26.3	6.03e-01	0	35	0	842530816	60	4072
2026-01-18 12:25:24.75	309.46	33.36	-44.4	-45.5	26.3	6.03e-01	0	36	0	844627968	60	4082
2026-01-18 12:25:25.75	309.75	33.17	-44.4	-45.5	26.3	6.01e-01	0	36	0	846200832	60	4086
2026-01-18 12:25:26.76	310.03	32.97	-44.3	-45.4	26.4	6.04e-01	0	35	0	848297984	60	4035
2026-01-18 12:25:27.77	310.32	32.78	-44.4	-45.5	26.4	6.02e-01	0	35	0	849870848	60	4075
2026-01-18 12:25:28.77	310.59	32.59	-44.2	-45.3	26.5	6.01e-01	0	35	0	851968000	60	3991
2026-01-18 12:25:29.78	310.87	32.40	-44.2	-45.3	26.5	6.02e-01	0	35	0	853540864	60	3993
2026-01-18 12:25:30.79	311.14	32.21	-44.3	-45.5	26.3	6.02e-01	0	35	0	855638016	60	4069
2026-01-18 12:25:31.80	311.41	32.02	-44.3	-45.4	26.4	6.03e-01	0	35	0	857735168	60	4025
2026-01-18 12:25:32.81	311.68	31.84	-44.3	-45.4	26.4	6.02e-01	0	36	0	859832320	60	4047
2026-01-18 12:25:33.82	311.94	31.65	-44.3	-45.4	26.4	6.03e-01	0	35	0	861405184	60	4051
2026-01-18 12:25:34.82	312.20	31.46	-44.3	-45.4	26.4	6.01e-01	0	36	0	863502336	60	4025
2026-01-18 12:25:35.83	312.46	31.28	-44.3	-45.4	26.4	6.02e-01	0	36	0	865075200	60	4044
2026-01-18 12:25:36.84	312.71	31.09	-44.4	-45.6	26.2	6.03e-01	0	36	0	867172352	60	4112
2026-01-18 12:25:37.85	312.96	30.90	-44.2	-45.4	26.4	6.02e-01	0	36	0	868745216	60	4008
2026-01-18 12:25:38.86	313.21	30.72	-44.3	-45.5	26.3	6.04e-01	0	36	0	870842368	60	4060
2026-01-18 12:25:39.87	313.46	30.54	-44.3	-45.5	26.4	6.04e-01	0	36	0	872939520	60	4052
2026-01-18 12:25:40.87	313.70	30.35	-44.2	-45.3	26.4	6.03e-01	0	35	0	874512384	60	4004
2026-01-18 12:25:41.88	313.94	30.17	-44.3	-45.4	26.4	6.03e-01	0	36	0	876609536	60	4030
2026-01-18 12:25:42.89	314.18	29.99	-44.4	-45.5	26.3	6.03e-01	0	36	0	878182400	60	4074
2026-01-18 12:25:43.90	314.41	29.81	-44.2	-45.4	26.4	6.04e-01	0	35	0	880279552	60	4017
2026-01-18 12:25:44.90	314.64	29.63	-44.3	-45.5	26.3	6.02e-01	0	35	0	882376704	60	4060
2026-01-18 12:25:45.91	314.87	29.45	-44.4	-45.6	26.2	6.03e-01	0	36	0	883949568	60	4123
2026-01-18 12:25:46.92	315.10	29.27	-44.3	-45.4	26.3	6.01e-01	0	35	0	886046720	60	4039
2026-01-18 12:25:47.93	315.32	29.09	-44.2	-45.4	26.4	6.01e-01	0	35	0	888143872	60	4007
2026-01-18 12:25:48.93	315.54	28.92	-44.4	-45.5	26.3	6.03e-01	0	36	0	889716736	60	4072
2026-01-18 12:25:49.94	315.76	28.74	-44.4	-45.6	26.2	6.04e-01	0	36	0	891813888	60	4118
2026-01-18 12:25:50.95	315.98	28.57	-44.5	-45.7	26.1	6.02e-01	0	36	0	893386752	60	4172
2026-01-18 12:25:51.96	316.20	28.39	-44.6	-45.8	26.0	6.02e-01	0	35	0	895483904	60	4219
2026-01-18 12:25:52.97	316.41	28.22	-44.7	-45.9	25.9	6.04e-01	0	35	0	897056768	60	4270
2026-01-18 12:25:53.97	316.62	28.04	-44.8	-45.9	25.9	6.04e-01	0	36	0	899153920	60	4285
2026-01-18 12:25:54.98	316.82	27.87	-44.8	-46.0	25.8	6.02e-01	0	35	0	901251072	60	4338
2026-01-18 12:25:55.99	317.03	27.70	-44.8	-46.0	25.8	6.02e-01	0	36	0	902823936	60	4332
2026-01-18 12:25:57.00	317.23	27.53	-44.9	-46.1	25.8	6.04e-01	0	36	0	904921088	60	4350
2026-01-18 12:25:58.01	317.43	27.36	-44.8	-46.0	25.7	6.04e-01	0	36	0	907018240	60	4333
2026-01-18 12:25:59.02	317.63	27.19	-44.8	-46.0	25.8	6.03e-01	0	36	0	908591104	60	4334
2026-01-18 12:26:00.03	317.83	27.02	-44.8	-46.0	25.8	6.02e-01	0	35	0	910688256	60	4293
2026-01-18 12:26:01.03	318.02	26.85	-44.9	-46.1	25.7	6.03e-01	0	36	0	912261120	60	4346
2026-01-18 12:26:02.04	318.22	26.69	-44.8	-46.0	25.8	6.03e-01	0	36	0	914358272	60	4301
2026-01-18 12:26:03.05	318.41	26.52	-44.8	-46.0	25.6	6.03e-01	0	35	0	916455424	60	4337
2026-01-18 12:26:04.06	318.60	26.35	-44.8	-45.9	25.8	6.04e-01	0	36	0	918028288	60	4285
2026-01-18 12:26:05.07	318.78	26.19	-44.9	-46.1	25.6	6.03e-01	0	35	0	920125440	60	4351
2026-01-18 12:26:06.07	318.97	26.03	-45.0	-46.2	25.6	6.01e-01	0	36	0	921698304	60	4405
2026-01-18 12:26:07.08	319.15	25.86	-44.9	-46.1	25.7	6.02e-01	0	36	0	923795456	60	4376
2026-01-18 12:26:08.09	319.33	25.70	-44.9	-46.1	25.6	6.04e-01	0	35	0	925368320	60	4378
2026-01-18 12:26:09.10	319.51	25.54	-45.0	-46.2	25.6	6.01e-01	0	35	0	927465472	60	4409
2026-01-18 12:26:10.10	319.68	25.38	-45.0	-46.2	25.5	6.03e-01	0	36	0	929562624	60	4429
2026-01-18 12:26:11.11	319.86	25.22	-45.0	-46.2	25.6	6.01e-01	0	35	0	931659776	60	4409
2026-01-18 12:26:12.12	320.03	25.06	-45.1	-46.3	25.5	6.03e-01	0	35	0	933232640	60	4449
2026-01-18 12:26:13.13	320.21	24.90	-45.2	-46.4	25.4	6.03e-01	0	36	0	935329792	60	4521
2026-01-18 12:26:14.13	320.37	24.75	-45.2	-46.4	25.3	6.02e-01	0	36	0	936902656	60	4516
2026-01-18 12:26:15.14	320.54	24.59	-45.2	-46.4	25.4	6.05e-01	0	36	0	938999808	61	4286
2026-01-18 12:26:16.15	320.71	24.43	-45.2	-46.4	25.3	6.01e-01	0	36	0	940572672	61	4282
2026-01-18 12:26:17.16	320.87	24.28	-45.3	-46.5	25.2	6.01e-01	0	36	0	942669824	61	4333
2026-01-18 12:26:18.17	321.04	24.12	-45.3	-46.6	25.1	6.02e-01	0	36	0	944766976	61	4361
2026-01-18 12:26:19.17	321.20	23.97	-45.3	-46.6	25.1	6.04e-01	0	35	0	946339840	61	4369
2026-01-18 12:26:20.18	321.36	23.82	-45.4	-46.6	25.1	6.01e-01	0	36	0	948436992	61	4377
2026-01-18 12:26:21.19	321.52	23.67	-45.4	-46.7	25.1	6.02e-01	0	36	0	950009856	61	4399
2026-01-18 12:26:22.20	321.67	23.51	-45.4	-46.7	25.0	6.03e-01	0	35	0	952107008	61	4433
2026-01-18 12:26:23.20	321.83	23.36	-45.4	-46.6	25.1	6.03e-01	0	35	0	953679872	61	4386
2026-01-18 12:26:24.21	321.98	23.21	-45.2	-46.5	25.3	6.06e-01	0	35	0	955777024	61	4313
2026-01-18 12:26:25.22	322.14	23.07	-45.3	-46.5	25.2	6.01e-01	0	35	0	957874176	61	4336
2026-01-18 12:26:26.23	322.29	22.92	-45.2	-46.4	25.3	6.03e-01	0	35	0	959971328	61	4265
2026-01-18 12:26:27.23	322.44	22.77	-45.1	-46.4	25.4	6.01e-01	0	36	0	961544192	61	4244
2026-01-18 12:26:28.24	322.58	22.62	-45.1	-46.4	25.4	6.04e-01	0	35	0	963641344	61	4253
2026-01-18 12:26:29.25	322.73	22.48	-45.1	-46.4	25.3	6.02e-01	0	36	0	965214208	61	4256
2026-01-18 12:26:30.26	322.88	22.33	-45.2	-46.4	25.3	6.02e-01	0	35	0	967311360	61	4272
2026-01-18 12:26:31.27	323.02	22.19	-45.2	-46.4	25.3	6.01e-01	0	36	0	968884224	61	4287
2026-01-18 12:26:32.27	323.16	22.04	-45.2	-46.5	25.3	6.02e-01	0	35	0	970981376	61	4297
2026-01-18 12:26:33.28	323.30	21.90	-45.3	-46.5	25.2	6.03e-01	0	35	0	973078528	61	4320
2026-01-18 12:26:34.29	323.44	21.76	-45.4	-46.7	25.0	6.02e-01	0	36	0	974651392	61	4400
2026-01-18 12:26:35.30	323.58	21.62	-45.3	-46.6	25.1	6.03e-01	0	35	0	976748544	61	4360
2026-01-18 12:26:36.31	323.72	21.47	-45.3	-46.6	25.1	6.04e-01	0	35	0	978845696	61	4350
2026-01-18 12:26:37.31	323.85	21.33	-45.2	-46.5	25.2	6.01e-01	0	36	0	980418560	61	4311
2026-01-18 12:26:38.32	323.99	21.19	-45.2	-46.5	25.2	6.04e-01	0	36	0	982515712	61	4293
2026-01-18 12:26:39.33	324.12	21.06	-45.1	-46.4	25.2	6.02e-01	0	35	0	984088576	61	4265
2026-01-18 12:26:40.34	324.26	20.92	-45.2	-46.4	25.2	6.04e-01	0	36	0	986185728	61	4287
2026-01-18 12:26:41.35	324.39	20.78	-45.2	-46.5	25.1	6.03e-01	0	35	0	988282880	61	4309
2026-01-18 12:26:42.35	324.52	20.64	-45.2	-46.4	25.1	6.03e-01	0	35	0	989855744	61	4290
2026-01-18 12:26:43.36	324.65	20.51	-45.0	-46.3	25.3	6.02e-01	0	35	0	991952896	61	4202
2026-01-18 12:26:44.37	324.77	20.37	-44.9	-46.1	25.5	6.02e-01	0	36	0	993525760	61	4136
2026-01-18 12:26:45.37	324.90	20.24	-44.9	-46.1	25.4	6.02e-01	0	36	0	995622912	61	4145
2026-01-18 12:26:46.38	325.02	20.10	-44.9	-46.1	25.5	6.01e-01	0	35	0	997195776	61	4119
2026-01-18 12:26:47.39	325.15	19.97	-44.9	-46.1	25.5	6.03e-01	0	35	0	999292928	61	4122
2026-01-18 12:26:48.40	325.27	19.84	-44.9	-46.1	25.5	6.04e-01	0	36	0	1001390080	61	4144
2026-01-18 12:26:49.41	325.40	19.70	-44.9	-46.2	25.4	6.02e-01	0	36	0	1003487232	61	4149
2026-01-18 12:26:50.41	325.52	19.57	-44.8	-46.0	25.6	6.03e-01	0	35	0	1005060096	61	4056
2026-01-18 12:26:51.42	325.64	19.44	-44.8	-46.0	25.5	6.03e-01	0	35	0	1007157248	61	4088
2026-01-18 12:26:52.43	325.75	19.31	-44.9	-46.1	25.5	6.04e-01	0	36	0	1008730112	61	4116
2026-01-18 12:26:53.44	325.87	19.18	-44.8	-46.0	25.5	6.01e-01	0	35	0	1010827264	61	4081
2026-01-18 12:26:54.45	325.99	19.05	-44.9	-46.1	25.4	6.01e-01	0	35	0	1012400128	61	4125
2026-01-18 12:26:55.45	326.11	18.92	-44.9	-46.1	25.4	6.03e-01	0	36	0	1014497280	61	4123
2026-01-18 12:26:56.46	326.22	18.80	-44.9	-46.1	25.4	6.02e-01	0	35	0	1016594432	61	4138
2026-01-18 12:26:57.47	326.33	18.67	-44.9	-46.1	25.5	6.02e-01	0	36	0	1018167296	61	4107
2026-01-18 12:26:58.48	326.45	18.54	-44.8	-46.1	25.5	6.02e-01	0	35	0	1020264448	61	4103
2026-01-18 12:26:59.49	326.56	18.42	-44.8	-46.1	25.5	6.03e-01	0	36	0	1021837312	61	4099
2026-01-18 12:27:00.49	326.67	18.29	-44.9	-46.1	25.3	6.04e-01	0	36	0	1023934464	61	4143
2026-01-18 12:27:01.50	326.78	18.17	-44.8	-46.1	25.3	6.03e-01	0	36	0	1025507328	61	4112
2026-01-18 12:27:02.51	326.89	18.04	-44.9	-46.1	25.3	6.00e-01	0	36	0	1027604480	61	4139
2026-01-18 12:27:03.52	327.00	17.92	-44.9	-46.2	25.4	6.03e-01	0	36	0	1029701632	61	4152
2026-01-18 12:27:04.53	327.11	17.80	-44.7	-45.9	25.6	6.03e-01	0	35	0	1031798784	61	4022
2026-01-18 12:27:05.53	327.21	17.67	-44.8	-46.0	25.5	6.02e-01	0	36	0	1033371648	61	4058
2026-01-18 12:27:06.54	327.32	17.55	-44.7	-45.9	25.5	6.04e-01	0	36	0	1035468800	61	4041
2026-01-18 12:27:07.55	327.42	17.43	-44.7	-45.9	25.4	6.05e-01	0	35	0	1037041664	61	4031
2026-01-18 12:27:08.56	327.53	17.31	-44.8	-46.0	25.4	6.03e-01	0	35	0	1039138816	61	4088
2026-01-18 12:27:09.57	327.63	17.19	-44.8	-46.0	25.5	6.05e-01	0	36	0	1040711680	61	4080
2026-01-18 12:27:10.57	327.73	17.07	-44.7	-45.9	25.5	6.03e-01	0	36	0	1042808832	61	4051
2026-01-18 12:27:11.58	327.84	16.95	-44.8	-46.1	25.3	6.01e-01	0	36	0	1044905984	61	4100
2026-01-18 12:27:12.59	327.94	16.83	-44.9	-46.1	25.3	6.03e-01	0	36	0	1046478848	61	4120
2026-01-18 12:27:13.60	328.04	16.72	-44.7	-46.0	25.5	6.02e-01	0	36	0	1048576000	61	4059
2026-01-18 12:27:14.61	328.14	16.60	-44.8	-46.0	25.5	6.03e-01	0	35	0	1050673152	61	4061
2026-01-18 12:27:15.61	328.23	16.48	-44.7	-45.9	25.5	6.05e-01	0	35	0	1052246016	61	4035
2026-01-18 12:27:16.62	328.33	16.37	-44.7	-45.9	25.5	6.05e-01	0	35	0	1054343168	61	4019
2026-01-18 12:27:17.63	328.43	16.25	-44.7	-46.0	25.5	6.02e-01	0	36	0	1055916032	61	4055
2026-01-18 12:27:18.63	328.52	16.14	-44.7	-45.9	25.6	6.01e-01	0	36	0	1058013184	61	4020
2026-01-18 12:27:19.64	328.62	16.02	-44.8	-46.0	25.5	6.03e-01	0	35	0	1060110336	61	4074
2026-01-18 12:27:20.65	328.71	15.91	-44.8	-46.0	25.4	6.02e-01	0	35	0	1061683200	61	4095
2026-01-18 12:27:21.66	328.81	15.79	-44.8	-46.0	25.4	6.01e-01	0	35	0	1063780352	61	4096
2026-01-18 12:27:22.67	328.90	15.68	-44.8	-46.0	25.4	6.02e-01	0	36	0	1065353216	61	4087
2026-01-18 12:27:23.67	328.99	15.57	-44.8	-46.1	25.4	6.02e-01	0	35	0	1067450368	61	4108
2026-01-18 12:27:24.68	329.09	15.46	-44.9	-46.2	25.3	6.02e-01	0	36	0	1069023232	61	4149
2026-01-18 12:27:25.69	329.18	15.34	-44.7	-46.0	25.5	6.04e-01	0	36	0	1071120384	61	4057
2026-01-18 12:27:26.70	329.27	15.23	-44.9	-46.1	25.4	6.05e-01	0	36	0	1073217536	61	4123
2026-01-18 12:27:27.71	329.36	15.12	-44.8	-46.1	25.3	6.03e-01	0	36	0	1074790400	61	4115
2026-01-18 12:27:28.71	329.45	15.01	-44.9	-46.2	25.2	6.03e-01	0	36	0	1076887552	61	4167
2026-01-18 12:27:29.72	329.54	14.90	-44.9	-46.2	25.3	6.02e-01	0	36	0	1078984704	61	4149
2026-01-18 12:27:30.73	329.62	14.79	-44.9	-46.1	25.3	6.03e-01	0	36	0	1080557568	61	4120
2026-01-18 12:27:31.73	329.71	14.69	-44.9	-46.1	25.3	6.02e-01	0	36	0	1082654720	61	4142
2026-01-18 12:27:32.74	329.80	14.58	-44.9	-46.2	25.2	6.03e-01	0	35	0	1084227584	61	4167
2026-01-18 12:27:33.75	329.88	14.47	-45.0	-46.3	25.1	6.02e-01	0	35	0	1086324736	61	4197
2026-01-18 12:27:34.76	329.97	14.36	-45.1	-46.4	25.1	6.03e-01	0	36	0	1088421888	61	4244
2026-01-18 12:27:35.77	330.05	14.26	-45.0	-46.3	25.1	5.99e-01	0	35	0	1089994752	61	4228
2026-01-18 12:27:36.77	330.14	14.15	-45.0	-46.3	25.1	6.03e-01	0	36	0	1092091904	61	4229
2026-01-18 12:27:37.78	330.22	14.05	-45.1	-46.4	25.0	6.03e-01	0	35	0	1093664768	61	4270
2026-01-18 12:27:38.79	330.30	13.94	-45.2	-46.5	24.9	6.04e-01	0	36	0	1095761920	61	4313
2026-01-18 12:27:39.80	330.38	13.84	-45.2	-46.5	24.9	6.04e-01	0	36	0	1097334784	61	4318
2026-01-18 12:27:40.81	330.47	13.73	-45.0	-46.3	25.1	6.03e-01	0	35	0	1099431936	61	4214
2026-01-18 12:27:41.81	330.55	13.63	-45.0	-46.3	25.0	6.03e-01	0	36	0	1101529088	61	4227
2026-01-18 12:27:42.82	330.63	13.52	-45.0	-46.3	25.1	6.01e-01	0	36	0	1103101952	61	4198
2026-01-18 12:27:43.83	330.71	13.42	-45.1	-46.4	25.0	6.04e-01	0	35	0	1105199104	61	4249
2026-01-18 12:27:44.84	330.79	13.32	-45.0	-46.3	25.0	6.01e-01	0	36	0	1107296256	61	4222
2026-01-18 12:27:45.85	330.87	13.22	-45.1	-46.4	25.0	6.02e-01	0	35	0	1108869120	61	4254
2026-01-18 12:27:46.85	330.94	13.12	-45.2	-46.4	24.9	6.03e-01	0	35	0	1110966272	61	4287
2026-01-18 12:27:47.86	331.02	13.01	-45.1	-46.4	25.0	6.02e-01	0	36	0	1112539136	61	4249
2026-01-18 12:27:48.87	331.10	12.91	-45.1	-46.4	25.0	6.03e-01	0	35	0	1114636288	61	4251
2026-01-18 12:27:49.88	331.18	12.81	-45.2	-46.5	24.9	6.04e-01	0	36	0	1116733440	61	4293
2026-01-18 12:27:50.89	331.25	12.71	-45.1	-46.4	24.9	6.04e-01	0	35	0	1118306304	61	4270
2026-01-18 12:27:51.89	331.33	12.61	-45.1	-46.3	25.0	6.02e-01	0	35	0	1120403456	61	4226
2026-01-18 12:27:52.90	331.40	12.51	-45.1	-46.4	24.9	6.06e-01	0	35	0	1121976320	61	4255
2026-01-18 12:27:53.91	331.48	12.42	-45.1	-46.4	25.0	6.02e-01	0	36	0	1124073472	61	4243
2026-01-18 12:27:54.91	331.55	12.32	-45.0	-46.3	24.9	6.02e-01	0	35	0	1126170624	61	4212
2026-01-18 12:27:55.92	331.63	12.22	-45.2	-46.5	24.8	6.04e-01	0	35	0	1127743488	61	4301
2026-01-18 12:27:56.93	331.70	12.12	-45.3	-46.6	24.7	6.03e-01	0	35	0	1129840640	61	4350
2026-01-18 12:27:57.94	331.77	12.02	-45.2	-46.5	24.7	6.04e-01	0	35	0	1131413504	61	4321
2026-01-18 12:27:58.94	331.84	11.93	-45.2	-46.5	24.8	6.03e-01	0	35	0	1133510656	61	4304
2026-01-18 12:27:59.95	331.91	11.83	-45.3	-46.6	24.6	6.02e-01	0	36	0	1135607808	61	4391
2026-01-18 12:28:00.96	331.99	11.74	-45.3	-46.6	24.6	6.03e-01	0	36	0	1137180672	61	4357
2026-01-18 12:28:01.97	332.06	11.64	-45.2	-46.6	24.7	6.03e-01	0	36	0	1139277824	61	4347
2026-01-18 12:28:02.98	332.13	11.54	-45.3	-46.6	24.6	6.02e-01	0	36	0	1140850688	61	4387
2026-01-18 12:28:03.99	332.20	11.45	-45.3	-46.6	24.7	6.05e-01	0	35	0	1142947840	61	4361
2026-01-18 12:28:04.99	332.27	11.36	-45.3	-46.6	24.6	6.03e-01	0	36	0	1145044992	61	4389
2026-01-18 12:28:06.00	332.34	11.26	-45.3	-46.6	24.6	6.02e-01	0	36	0	1146617856	61	4351
2026-01-18 12:28:07.01	332.40	11.17	-45.4	-46.8	24.5	6.04e-01	0	36	0	1148715008	61	4455
2026-01-18 12:28:08.02	332.47	11.07	-45.5	-46.8	24.4	6.02e-01	0	36	0	1150812160	61	4481
2026-01-18 12:28:09.03	332.54	10.98	-45.5	-46.8	24.5	6.03e-01	0	36	0	1152385024	61	4470
2026-01-18 12:28:10.03	332.61	10.89	-45.4	-46.7	24.5	6.04e-01	0	36	0	1154482176	61	4434
2026-01-18 12:28:11.04	332.67	10.80	-45.6	-46.9	24.3	6.06e-01	0	36	0	1156055040	61	4528
2026-01-18 12:28:12.05	332.74	10.70	-45.6	-46.9	24.3	6.04e-01	0	35	0	1158152192	61	4535
2026-01-18 12:28:13.06	332.81	10.61	-45.5	-46.9	24.3	6.03e-01	0	36	0	1159725056	61	4518
2026-01-18 12:28:14.06	332.87	10.52	-45.6	-47.0	24.2	6.02e-01	0	36	0	1161822208	61	4576
2026-01-18 12:28:15.07	332.94	10.43	-45.6	-47.0	24.2	6.04e-01	0	36	0	1163919360	61	4585
2026-01-18 12:28:16.08	333.00	10.34	-45.6	-47.0	24.2	6.03e-01	0	35	0	1165492224	61	4554
2026-01-18 12:28:17.09	333.07	10.25	-45.6	-47.0	24.3	6.05e-01	0	36	0	1167589376	61	4551
2026-01-18 12:28:18.10	333.13	10.16	-45.6	-47.0	24.2	6.04e-01	0	35	0	1169162240	61	4566
2026-01-18 12:28:19.11	333.19	10.07	-45.5	-46.9	24.3	6.05e-01	0	36	0	1171259392	61	4520
2026-01-18 12:28:20.11	333.26	9.98	-45.6	-47.0	24.2	6.02e-01	0	35	0	1173356544	61	4569
2026-01-18 12:28:21.12	333.32	9.89	-45.7	-47.1	24.1	6.03e-01	0	36	0	1174929408	62	4348
2026-01-18 12:28:22.13	333.38	9.80	-45.8	-47.2	24.1	6.03e-01	0	36	0	1177026560	62	4401
2026-01-18 12:28:23.14	333.44	9.72	-45.7	-47.1	24.1	6.04e-01	0	35	0	1179123712	62	4360
2026-01-18 12:28:24.15	333.51	9.63	-45.9	-47.3	23.9	6.00e-01	0	35	0	1180696576	62	4489
2026-01-18 12:28:25.15	333.57	9.54	-45.8	-47.3	23.9	6.01e-01	0	35	0	1182793728	62	4449
2026-01-18 12:28:26.16	333.63	9.45	-45.8	-47.2	24.0	6.02e-01	0	35	0	1184366592	62	4413
2026-01-18 12:28:27.17	333.69	9.37	-45.9	-47.4	23.8	6.03e-01	0	36	0	1186463744	62	4509
2026-01-18 12:28:28.18	333.75	9.28	-45.9	-47.3	23.8	6.03e-01	0	36	0	1188036608	62	4490
2026-01-18 12:28:29.19	333.81	9.19	-45.9	-47.3	23.9	6.02e-01	0	35	0	1190133760	62	4458
2026-01-18 12:28:30.19	333.87	9.11	-46.0	-47.5	23.7	6.02e-01	0	35	0	1192230912	62	4557
2026-01-18 12:28:31.20	333.93	9.02	-46.0	-47.5	23.7	6.03e-01	0	36	0	1193803776	62	4552
2026-01-18 12:28:32.21	333.99	8.94	-45.9	-47.4	23.8	6.03e-01	0	35	0	1195900928	62	4507
2026-01-18 12:28:33.22	334.04	8.85	-45.9	-47.3	23.8	6.01e-01	0	35	0	1197998080	62	4471
2026-01-18 12:28:34.22	334.10	8.77	-46.0	-47.5	23.7	6.05e-01	0	35	0	1199570944	62	4561
2026-01-18 12:28:35.23	334.16	8.68	-45.9	-47.4	23.8	6.03e-01	0	35	0	1201668096	62	4511
2026-01-18 12:28:36.24	334.22	8.60	-46.0	-47.4	23.7	6.04e-01	0	36	0	1203240960	62	4533
2026-01-18 12:28:37.25	334.27	8.51	-46.0	-47.4	23.7	6.03e-01	0	35	0	1205338112	62	4532
2026-01-18 12:28:38.25	334.33	8.43	-46.0	-47.5	23.7	6.03e-01	0	36	0	1207435264	62	4562
2026-01-18 12:28:39.26	334.39	8.35	-46.1	-47.6	23.5	6.03e-01	0	35	0	1209008128	62	4637
2026-01-18 12:28:40.27	334.44	8.26	-46.2	-47.7	23.5	6.02e-01	0	36	0	1211105280	62	4657
2026-01-18 12:28:41.28	334.50	8.18	-46.3	-47.8	23.4	6.04e-01	0	36	0	1212678144	63	4446
2026-01-18 12:28:42.28	334.55	8.10	-46.3	-47.8	23.3	6.01e-01	0	36	0	1214775296	63	4448
2026-01-18 12:28:43.29	334.61	8.02	-46.2	-47.7	23.4	6.04e-01	0	35	0	1216348160	63	4436
2026-01-18 12:28:44.30	334.67	7.94	-46.2	-47.7	23.4	6.01e-01	0	36	0	1218445312	63	4394
2026-01-18 12:28:45.31	334.72	7.85	-46.3	-47.8	23.3	6.04e-01	0	36	0	1220542464	63	4463
2026-01-18 12:28:46.32	334.77	7.77	-46.3	-47.8	23.3	6.01e-01	0	35	0	1222639616	63	4471
2026-01-18 12:28:47.33	334.83	7.69	-46.3	-47.8	23.3	6.03e-01	0	35	0	1224212480	63	4467
2026-01-18 12:28:48.33	334.88	7.61	-46.2	-47.7	23.3	6.03e-01	0	36	0	1226309632	63	4435
2026-01-18 12:28:49.34	334.94	7.53	-46.3	-47.8	23.2	6.04e-01	0	36	0	1227882496	63	4482
2026-01-18 12:28:50.35	334.99	7.45	-46.4	-47.9	23.1	6.04e-01	0	36	0	1229979648	63	4534
2026-01-18 12:28:51.36	335.04	7.37	-46.3	-47.9	23.2	6.02e-01	0	35	0	1231552512	63	4494
2026-01-18 12:28:52.36	335.09	7.29	-46.5	-48.1	22.9	6.05e-01	0	36	0	1233649664	63	4640
2026-01-18 12:28:53.37	335.15	7.21	-46.3	-47.9	23.1	6.02e-01	0	35	0	1235746816	63	4516
2026-01-18 12:28:54.38	335.20	7.13	-46.5	-48.1	22.9	6.03e-01	0	36	0	1237319680	63	4633
2026-01-18 12:28:55.39	335.25	7.05	-46.4	-48.0	23.0	6.02e-01	0	35	0	1239416832	63	4555
2026-01-18 12:28:56.39	335.30	6.97	-46.5	-48.0	23.0	6.03e-01	0	35	0	1240989696	63	4588
2026-01-18 12:28:57.40	335.35	6.90	-46.4	-48.0	22.9	6.02e-01	0	36	0	1243086848	63	4571
2026-01-18 12:28:58.41	335.40	6.82	-46.6	-48.1	22.8	6.03e-01	0	36	0	1245184000	63	4649
