passes_logs/2026/01/18/R3.2S_Murmansk/R3.2S_Murmansk__20260118_055114_AQUA_rec.log

#Pass ID: 20260118_055114_AQUA
#Satellite: AQUA
#Configuration: AQUA
#almurnet v.1.7.20251203
#Start time: 2026-01-18 05:51:16

#Version: 2.2.20231116
#Station: R3.2S_Murmansk
#Location: 33.079688 lon 68.888172 lat
#TLE: 1 27424U 02022A   26017.62394888  .00000781  00000+0  16630-3 0  9993
#TLE: 2 27424  98.4086 344.0954 0002010  75.0132 339.4723 14.61825944261279

#Time	Az	El	Level	Level2	SNR	BER	BlckErr	Temp	State	Recorded	gain1	gain2
2026-01-18 05:51:16.58	44.74	2.12	-53.3	-71.1	3.8	7.48e-01	0	34	0	0	78	27557
2026-01-18 05:51:17.59	44.67	2.18	-53.3	-71.0	3.8	7.46e-01	0	34	104	0	77	28929
2026-01-18 05:51:18.60	44.59	2.24	-53.3	-71.0	3.8	7.49e-01	0	34	104	0	77	28929
2026-01-18 05:51:19.61	44.51	2.30	-53.3	-71.0	3.8	7.46e-01	0	34	104	0	77	28797
2026-01-18 05:51:20.62	44.43	2.36	-53.3	-71.0	3.8	7.48e-01	0	34	104	0	77	28867
2026-01-18 05:51:21.62	44.35	2.41	-53.3	-71.0	3.8	7.44e-01	0	34	104	0	77	28923
2026-01-18 05:51:22.63	44.27	2.47	-53.3	-71.0	3.8	7.45e-01	0	34	104	0	77	28776
2026-01-18 05:51:23.64	44.19	2.53	-53.3	-70.9	3.8	7.45e-01	0	34	104	0	77	28563
2026-01-18 05:51:24.65	44.11	2.59	-53.3	-70.8	3.8	7.43e-01	0	34	104	0	77	28186
2026-01-18 05:51:25.66	44.03	2.65	-53.2	-70.8	3.8	7.44e-01	0	34	104	0	77	28245
2026-01-18 05:51:26.67	43.95	2.71	-53.3	-71.0	3.8	7.46e-01	0	34	104	0	77	28834
2026-01-18 05:51:27.67	43.87	2.77	-53.3	-71.0	3.8	7.48e-01	0	34	104	0	77	28786
2026-01-18 05:51:28.68	43.79	2.83	-53.3	-70.9	3.8	7.46e-01	0	34	104	0	77	28490
2026-01-18 05:51:29.69	43.71	2.89	-53.3	-70.9	3.8	7.46e-01	0	34	104	0	77	28623
2026-01-18 05:51:30.70	43.62	2.94	-53.3	-71.0	3.8	7.44e-01	0	34	104	0	77	28836
2026-01-18 05:51:31.70	43.54	3.00	-53.2	-70.9	3.8	7.43e-01	0	34	104	0	77	28625
2026-01-18 05:51:32.71	43.46	3.06	-53.3	-71.0	3.8	7.44e-01	0	34	104	0	77	28876
2026-01-18 05:51:33.72	43.38	3.12	-53.3	-71.1	3.8	7.47e-01	0	34	104	0	77	29125
2026-01-18 05:51:34.73	43.29	3.18	-53.3	-71.0	3.8	7.40e-01	0	34	104	0	77	28945
2026-01-18 05:51:35.73	43.21	3.24	-53.3	-71.0	3.8	7.45e-01	0	34	104	0	77	28882
2026-01-18 05:51:36.74	43.12	3.30	-53.3	-71.0	3.8	7.48e-01	0	34	104	0	77	28959
2026-01-18 05:51:37.75	43.04	3.36	-53.2	-71.0	3.8	7.46e-01	0	34	104	0	77	28962
2026-01-18 05:51:38.76	42.95	3.42	-53.2	-71.0	3.8	7.45e-01	0	34	104	0	77	28939
2026-01-18 05:51:39.77	42.87	3.48	-53.3	-71.0	3.8	7.44e-01	0	34	104	0	77	28957
2026-01-18 05:51:40.78	42.78	3.54	-53.3	-71.0	3.8	7.45e-01	0	34	104	0	77	28883
2026-01-18 05:51:41.78	42.69	3.60	-53.2	-71.0	3.8	7.44e-01	0	34	104	0	77	28887
2026-01-18 05:51:42.79	42.61	3.66	-53.2	-71.0	3.8	7.45e-01	0	34	104	0	77	28800
2026-01-18 05:51:43.80	42.52	3.72	-53.2	-70.9	3.8	7.43e-01	0	34	104	0	77	28559
2026-01-18 05:51:44.81	42.43	3.78	-53.2	-70.9	3.8	7.47e-01	0	34	104	0	77	28637
2026-01-18 05:51:45.82	42.34	3.84	-53.2	-70.9	3.8	7.43e-01	0	34	104	0	77	28435
2026-01-18 05:51:46.82	42.25	3.90	-53.2	-70.9	3.8	7.47e-01	0	34	104	0	77	28642
2026-01-18 05:51:47.83	42.17	3.96	-53.3	-71.0	3.8	7.46e-01	0	34	104	0	77	28940
2026-01-18 05:51:48.84	42.08	4.03	-53.3	-71.1	3.8	7.44e-01	0	34	104	0	77	29082
2026-01-18 05:51:49.85	41.99	4.09	-53.2	-71.0	3.8	7.46e-01	0	34	104	0	77	28838
2026-01-18 05:51:50.86	41.90	4.15	-53.2	-70.8	3.8	7.41e-01	0	34	104	0	77	28085
2026-01-18 05:51:51.87	41.80	4.21	-53.1	-70.3	3.8	7.45e-01	0	34	104	0	77	26721
2026-01-18 05:51:52.87	41.71	4.27	-53.0	-69.6	3.8	7.45e-01	0	34	104	0	77	24568
2026-01-18 05:51:53.88	41.62	4.33	-52.8	-68.8	3.8	7.46e-01	0	35	104	0	77	22449
2026-01-18 05:51:54.89	41.53	4.39	-52.6	-68.3	3.8	7.43e-01	0	34	104	0	77	21220
2026-01-18 05:51:55.90	41.44	4.45	-52.3	-67.2	3.9	7.43e-01	0	34	104	0	76	19766
2026-01-18 05:51:56.91	41.34	4.52	-52.1	-66.5	3.8	7.47e-01	0	35	104	0	76	18296
2026-01-18 05:51:57.92	41.25	4.58	-51.9	-66.1	3.8	7.47e-01	0	35	104	0	75	18500
2026-01-18 05:51:58.92	41.16	4.64	-51.8	-65.9	3.8	7.47e-01	0	35	104	0	75	18059
2026-01-18 05:51:59.93	41.06	4.70	-51.7	-65.7	3.8	7.44e-01	0	35	104	0	75	17620
2026-01-18 05:52:00.94	40.97	4.76	-51.7	-65.8	3.8	7.44e-01	0	35	104	0	75	17814
2026-01-18 05:52:01.95	40.87	4.82	-51.8	-65.9	3.8	7.42e-01	0	34	104	0	75	17922
2026-01-18 05:52:02.96	40.78	4.89	-52.0	-66.4	3.8	7.44e-01	0	34	104	0	75	18985
2026-01-18 05:52:03.97	40.68	4.95	-52.1	-66.8	3.8	7.47e-01	0	34	104	0	75	20014
2026-01-18 05:52:04.97	40.58	5.01	-52.4	-67.6	3.8	7.44e-01	0	35	104	0	75	21838
2026-01-18 05:52:05.98	40.49	5.07	-51.4	-64.7	3.8	7.45e-01	0	35	104	0	74	16523
2026-01-18 05:52:06.99	40.39	5.14	-51.8	-65.7	3.8	7.47e-01	0	35	104	0	74	18719
2026-01-18 05:52:08.00	40.29	5.20	-53.0	-69.9	3.8	7.43e-01	0	35	104	0	76	26893
2026-01-18 05:52:09.01	40.19	5.26	-49.3	-61.1	3.8	7.44e-01	0	34	104	0	70	13844
2026-01-18 05:52:10.01	40.09	5.32	-53.2	-70.9	3.8	7.43e-01	0	34	104	0	77	28504
2026-01-18 05:52:11.02	39.99	5.39	-49.5	-61.4	3.8	7.44e-01	0	35	104	0	71	13453
2026-01-18 05:52:12.03	39.89	5.45	-48.6	-60.2	3.8	7.45e-01	0	35	104	0	69	13192
2026-01-18 05:52:13.04	39.79	5.51	-48.2	-59.7	3.8	7.42e-01	0	35	104	0	68	13226
2026-01-18 05:52:14.04	39.69	5.57	-52.1	-66.4	3.8	7.48e-01	0	34	104	0	74	20191
2026-01-18 05:52:15.05	39.59	5.64	-50.5	-63.0	3.8	7.45e-01	0	35	104	0	72	15269
2026-01-18 05:52:16.06	39.49	5.70	-53.4	-71.2	3.8	7.42e-01	0	35	104	0	77	29438
2026-01-18 05:52:17.07	39.39	5.76	-49.1	-60.8	3.8	7.41e-01	0	35	104	0	70	13287
2026-01-18 05:52:18.08	39.28	5.83	-53.3	-69.5	3.8	7.44e-01	0	35	104	0	77	24399
2026-01-18 05:52:19.08	39.18	5.89	-49.1	-60.9	3.8	7.44e-01	0	35	104	0	70	13422
2026-01-18 05:52:20.09	39.08	5.95	-48.5	-60.1	3.8	7.44e-01	0	35	104	0	69	12960
2026-01-18 05:52:21.10	38.97	6.02	-48.0	-59.4	3.8	7.45e-01	0	35	104	0	68	12683
2026-01-18 05:52:22.11	38.87	6.08	-52.5	-67.0	3.8	7.45e-01	0	35	104	0	76	19373
2026-01-18 05:52:23.12	38.76	6.15	-50.6	-63.0	3.8	7.43e-01	0	35	104	0	71	16239
2026-01-18 05:52:24.13	38.66	6.21	-53.6	-71.3	3.8	7.44e-01	0	35	104	0	77	30017
2026-01-18 05:52:25.13	38.55	6.27	-48.7	-60.3	3.8	7.44e-01	0	35	104	0	69	13364
2026-01-18 05:52:26.14	38.44	6.34	-53.3	-69.5	3.8	7.45e-01	0	35	104	0	77	24224
2026-01-18 05:52:27.15	38.34	6.40	-49.0	-60.7	3.8	7.44e-01	0	35	104	0	70	13219
2026-01-18 05:52:28.15	38.23	6.47	-49.4	-61.3	3.8	7.43e-01	0	35	104	0	70	14079
2026-01-18 05:52:29.16	38.12	6.53	-48.8	-60.5	3.8	7.47e-01	0	35	104	0	69	13615
2026-01-18 05:52:30.17	38.01	6.59	-51.1	-64.0	3.8	7.46e-01	0	35	104	0	73	16291
2026-01-18 05:52:31.18	37.90	6.66	-50.6	-62.9	3.9	7.44e-01	0	35	104	0	71	16120
2026-01-18 05:52:32.18	37.79	6.72	-53.6	-71.2	3.8	7.44e-01	0	35	104	0	77	29642
2026-01-18 05:52:33.19	37.68	6.79	-49.0	-60.6	3.8	7.45e-01	0	35	104	0	69	13835
2026-01-18 05:52:34.20	37.57	6.85	-53.3	-69.1	3.8	7.46e-01	0	35	104	0	77	23122
2026-01-18 05:52:35.21	37.46	6.92	-49.4	-61.2	3.8	7.48e-01	0	35	104	0	70	14008
2026-01-18 05:52:36.22	37.34	6.98	-49.1	-60.8	3.8	7.44e-01	0	35	104	0	70	13283
2026-01-18 05:52:37.23	37.23	7.05	-48.6	-60.1	3.8	7.45e-01	0	35	104	0	69	13089
2026-01-18 05:52:38.24	37.12	7.11	-49.8	-61.9	3.8	7.41e-01	0	35	104	0	71	14250
2026-01-18 05:52:39.25	37.00	7.18	-50.9	-63.5	3.8	7.41e-01	0	35	104	0	72	16282
2026-01-18 05:52:40.25	36.89	7.24	-53.7	-71.3	3.8	7.46e-01	0	35	104	0	78	28289
2026-01-18 05:52:41.26	36.77	7.31	-48.8	-60.4	3.8	7.41e-01	0	35	104	0	69	13455
2026-01-18 05:52:42.27	36.66	7.37	-53.2	-68.7	3.8	7.42e-01	0	35	104	0	77	22008
2026-01-18 05:52:43.28	36.54	7.44	-49.0	-60.6	3.8	7.46e-01	0	35	104	0	69	13853
2026-01-18 05:52:44.28	36.42	7.51	-48.3	-59.7	3.8	7.44e-01	0	35	104	0	68	13256
2026-01-18 05:52:45.29	36.31	7.57	-48.4	-59.9	3.8	7.40e-01	0	35	104	0	68	13421
2026-01-18 05:52:46.30	36.19	7.64	-51.8	-65.0	3.9	7.44e-01	0	35	104	0	75	16300
2026-01-18 05:52:47.30	36.07	7.70	-51.5	-64.4	3.8	7.48e-01	0	35	104	0	73	17080
2026-01-18 05:52:48.31	35.95	7.77	-53.7	-70.6	3.8	7.43e-01	0	35	104	0	78	25991
2026-01-18 05:52:49.32	35.83	7.83	-48.8	-60.3	3.8	7.41e-01	0	35	104	0	69	13292
2026-01-18 05:52:50.33	35.71	7.90	-52.9	-67.7	3.9	7.43e-01	0	35	104	0	77	19746
2026-01-18 05:52:51.34	35.59	7.97	-48.9	-60.5	3.8	7.43e-01	0	35	104	0	69	13682
2026-01-18 05:52:52.34	35.47	8.03	-48.0	-59.4	3.8	7.47e-01	0	35	104	0	68	12697
2026-01-18 05:52:53.35	35.34	8.10	-48.7	-60.2	3.8	7.44e-01	0	35	104	0	67	14767
2026-01-18 05:52:54.36	35.22	8.17	-51.1	-63.8	3.8	7.43e-01	0	35	104	0	73	15790
2026-01-18 05:52:55.37	35.09	8.23	-51.5	-64.4	3.8	7.46e-01	0	35	104	0	73	16934
2026-01-18 05:52:56.38	34.97	8.30	-53.7	-70.6	3.8	7.45e-01	0	35	104	0	78	25921
2026-01-18 05:52:57.38	34.85	8.36	-49.2	-60.9	3.8	7.44e-01	0	35	104	0	69	14215
2026-01-18 05:52:58.39	34.72	8.43	-52.4	-66.1	3.9	7.42e-01	0	35	104	0	76	17295
2026-01-18 05:52:59.40	34.59	8.50	-49.2	-60.8	3.8	7.46e-01	0	35	104	0	70	13388
2026-01-18 05:53:00.41	34.47	8.57	-49.0	-60.6	3.8	7.43e-01	0	35	104	0	70	13054
2026-01-18 05:53:01.42	34.34	8.63	-48.0	-59.3	3.8	7.43e-01	0	35	104	0	67	13301
2026-01-18 05:53:02.42	34.21	8.70	-48.0	-59.4	3.8	7.44e-01	0	35	104	0	68	12697
2026-01-18 05:53:03.43	34.08	8.77	-52.1	-65.4	3.8	7.46e-01	0	35	104	0	74	18033
2026-01-18 05:53:04.44	33.95	8.83	-53.1	-68.3	3.9	7.42e-01	0	35	104	0	78	19891
2026-01-18 05:53:05.45	33.82	8.90	-49.0	-60.5	3.8	7.44e-01	0	35	104	0	69	13671
2026-01-18 05:53:06.45	33.69	8.97	-52.4	-66.0	3.9	7.43e-01	0	35	104	0	76	17210
2026-01-18 05:53:07.46	33.56	9.03	-48.8	-60.3	3.8	7.44e-01	0	35	104	0	69	13281
2026-01-18 05:53:08.47	33.43	9.10	-48.0	-59.3	3.8	7.47e-01	0	35	104	0	67	13272
2026-01-18 05:53:09.48	33.29	9.17	-47.1	-58.3	3.8	7.46e-01	0	35	104	0	66	12527
2026-01-18 05:53:10.48	33.16	9.24	-47.4	-58.6	3.8	7.46e-01	0	35	104	0	66	12981
2026-01-18 05:53:11.49	33.03	9.30	-52.5	-66.4	3.8	7.47e-01	0	35	104	0	75	19024
2026-01-18 05:53:12.50	32.89	9.37	-52.1	-65.7	3.9	7.48e-01	0	35	104	0	76	16523
2026-01-18 05:53:13.51	32.76	9.44	-49.6	-61.3	3.8	7.43e-01	0	35	104	0	69	14951
2026-01-18 05:53:14.52	32.62	9.51	-51.1	-63.8	3.9	7.46e-01	0	35	104	0	74	14944
2026-01-18 05:53:15.53	32.48	9.57	-48.8	-60.2	3.8	7.45e-01	0	35	104	0	69	13245
2026-01-18 05:53:16.53	32.34	9.64	-48.8	-60.3	3.8	7.45e-01	0	35	104	0	69	13391
2026-01-18 05:53:17.54	32.21	9.71	-48.4	-59.7	3.8	7.43e-01	0	35	104	0	68	13233
2026-01-18 05:53:18.55	32.07	9.78	-48.0	-59.3	3.8	7.43e-01	0	35	104	0	68	12563
2026-01-18 05:53:19.55	31.93	9.85	-52.6	-66.4	3.7	7.43e-01	0	35	104	0	75	19062
2026-01-18 05:53:20.56	31.79	9.91	-52.1	-65.6	3.9	7.46e-01	0	35	104	0	76	16443
2026-01-18 05:53:21.57	31.65	9.98	-49.6	-61.2	3.8	7.43e-01	0	35	104	0	69	14856
2026-01-18 05:53:22.58	31.50	10.05	-50.9	-63.5	3.8	7.47e-01	0	35	104	0	74	14471
2026-01-18 05:53:23.58	31.36	10.12	-48.5	-59.9	3.8	7.43e-01	0	35	104	0	69	12715
2026-01-18 05:53:24.59	31.22	10.19	-47.7	-58.9	3.8	7.43e-01	0	35	104	0	67	12800
2026-01-18 05:53:25.60	31.07	10.25	-48.4	-59.8	3.8	7.45e-01	0	35	104	0	67	14180
2026-01-18 05:53:26.61	30.93	10.32	-47.7	-58.9	3.8	7.46e-01	0	35	104	0	67	12689
2026-01-18 05:53:27.62	30.78	10.39	-53.2	-68.0	3.8	7.47e-01	0	35	104	0	76	21672
2026-01-18 05:53:28.63	30.63	10.46	-50.8	-63.1	3.9	7.42e-01	0	35	104	0	73	14591
2026-01-18 05:53:29.63	30.49	10.53	-50.7	-62.9	3.8	7.47e-01	0	35	104	0	71	15944
2026-01-18 05:53:30.64	30.34	10.60	-49.8	-61.6	3.8	7.44e-01	0	35	104	0	71	13850
2026-01-18 05:53:31.65	30.19	10.66	-48.4	-59.7	3.8	7.46e-01	0	35	104	0	68	13225
2026-01-18 05:53:32.66	30.04	10.73	-47.6	-58.7	3.8	7.43e-01	0	35	104	0	67	12507
2026-01-18 05:53:33.67	29.89	10.80	-48.0	-59.3	3.8	7.49e-01	0	35	104	0	66	14189
2026-01-18 05:53:34.67	29.74	10.87	-47.5	-58.6	3.8	7.43e-01	0	35	104	0	66	13106
2026-01-18 05:53:35.68	29.59	10.94	-53.8	-70.1	3.8	7.45e-01	0	35	104	0	78	24531
2026-01-18 05:53:36.69	29.43	11.01	-49.8	-61.6	3.9	7.46e-01	0	35	104	0	71	13733
2026-01-18 05:53:37.69	29.28	11.08	-51.5	-64.2	3.8	7.45e-01	0	35	104	0	73	16642
2026-01-18 05:53:38.70	29.13	11.14	-48.8	-60.3	3.8	7.45e-01	0	35	104	0	69	13303
2026-01-18 05:53:39.71	28.97	11.21	-48.0	-59.2	3.8	7.44e-01	0	35	104	0	67	13215
2026-01-18 05:53:40.72	28.82	11.28	-47.8	-59.0	3.8	7.44e-01	0	35	104	0	67	12843
2026-01-18 05:53:41.72	28.66	11.35	-48.8	-60.4	3.8	7.47e-01	0	35	104	0	68	14271
2026-01-18 05:53:42.73	28.50	11.42	-47.7	-58.9	3.8	7.45e-01	0	35	104	0	66	13537
2026-01-18 05:53:43.74	28.34	11.49	-53.8	-69.9	3.8	7.53e-01	0	35	104	0	78	24104
2026-01-18 05:53:44.75	28.18	11.56	-49.8	-61.6	3.8	7.42e-01	0	35	104	0	71	13831
2026-01-18 05:53:45.76	28.02	11.62	-51.5	-64.1	3.8	7.44e-01	0	35	104	0	73	16487
2026-01-18 05:53:46.76	27.86	11.69	-48.6	-60.0	3.9	7.45e-01	0	35	104	0	69	12915
2026-01-18 05:53:47.77	27.70	11.76	-48.1	-59.4	3.8	7.47e-01	0	35	104	0	68	12678
2026-01-18 05:53:48.78	27.54	11.83	-48.1	-59.3	3.8	7.44e-01	0	35	104	0	67	13312
2026-01-18 05:53:49.79	27.38	11.90	-51.1	-63.6	3.8	7.45e-01	0	35	104	0	72	16373
2026-01-18 05:53:50.80	27.21	11.97	-48.6	-60.1	3.8	7.46e-01	0	35	104	0	69	12998
2026-01-18 05:53:51.81	27.05	12.04	-54.1	-71.1	3.8	7.46e-01	0	35	104	0	78	27475
2026-01-18 05:53:52.81	26.88	12.11	-48.4	-59.9	3.8	7.42e-01	0	35	104	0	69	12803
2026-01-18 05:53:53.82	26.71	12.17	-52.4	-65.9	3.8	7.45e-01	0	35	104	0	75	17955
2026-01-18 05:53:54.83	26.55	12.24	-48.3	-59.6	3.9	7.45e-01	0	35	104	0	68	13013
2026-01-18 05:53:55.83	26.38	12.31	-47.9	-59.1	3.8	7.45e-01	0	35	104	0	67	13022
2026-01-18 05:53:56.84	26.21	12.38	-47.5	-58.7	3.8	7.43e-01	0	35	104	0	67	12488
2026-01-18 05:53:57.85	26.04	12.45	-49.5	-61.2	3.8	7.44e-01	0	35	104	0	69	14727
2026-01-18 05:53:58.86	25.87	12.52	-47.9	-59.1	3.8	7.47e-01	0	35	104	0	66	13844
2026-01-18 05:53:59.87	25.70	12.59	-54.2	-71.1	3.8	7.49e-01	0	35	104	0	78	27456
2026-01-18 05:54:00.87	25.52	12.65	-49.1	-60.6	3.8	7.44e-01	0	35	104	0	70	12992
2026-01-18 05:54:01.88	25.35	12.72	-53.0	-67.2	3.8	7.43e-01	0	35	104	0	76	19772
2026-01-18 05:54:02.89	25.18	12.79	-48.2	-59.5	3.9	7.43e-01	0	35	104	0	68	12890
2026-01-18 05:54:03.90	25.00	12.86	-48.0	-59.3	3.8	7.42e-01	0	35	104	0	68	12562
2026-01-18 05:54:04.91	24.82	12.93	-47.2	-58.3	3.9	7.39e-01	0	35	104	0	66	12535
2026-01-18 05:54:05.91	24.65	13.00	-50.8	-63.0	3.8	7.41e-01	0	35	104	0	72	15326
2026-01-18 05:54:06.92	24.47	13.07	-48.0	-59.2	3.8	7.45e-01	0	35	104	0	66	13966
2026-01-18 05:54:07.93	24.29	13.13	-54.3	-71.7	3.7	7.44e-01	0	35	104	0	79	28020
2026-01-18 05:54:08.94	24.11	13.20	-48.6	-60.0	3.8	7.47e-01	0	35	104	0	69	12826
2026-01-18 05:54:09.94	23.93	13.27	-52.7	-66.6	3.8	7.51e-01	0	35	104	0	75	19601
2026-01-18 05:54:10.95	23.75	13.34	-48.0	-59.3	3.9	7.44e-01	0	35	104	0	68	12572
2026-01-18 05:54:11.96	23.57	13.41	-47.5	-58.7	3.8	7.43e-01	0	35	104	0	67	12392
2026-01-18 05:54:12.97	23.38	13.47	-46.8	-57.8	3.8	7.40e-01	0	35	104	0	65	12546
2026-01-18 05:54:13.98	23.20	13.54	-50.2	-62.1	3.8	7.46e-01	0	35	104	0	70	15533
2026-01-18 05:54:14.98	23.01	13.61	-48.2	-59.5	3.8	7.47e-01	0	35	104	0	66	14427
2026-01-18 05:54:15.99	22.83	13.68	-54.3	-72.0	3.8	7.45e-01	0	35	104	0	79	28741
2026-01-18 05:54:17.00	22.64	13.75	-48.1	-59.4	3.8	7.45e-01	0	35	104	0	68	12701
2026-01-18 05:54:18.01	22.45	13.81	-53.2	-67.7	3.8	7.45e-01	0	35	104	0	76	20871
2026-01-18 05:54:19.01	22.26	13.88	-47.8	-58.9	3.9	7.42e-01	0	35	104	0	67	12764
2026-01-18 05:54:20.02	22.07	13.95	-47.4	-58.5	3.8	7.45e-01	0	35	104	0	66	12833
2026-01-18 05:54:21.03	21.88	14.01	-46.6	-57.6	3.9	7.43e-01	0	35	104	0	65	12270
2026-01-18 05:54:22.03	21.69	14.08	-50.6	-62.8	3.8	7.42e-01	0	35	104	0	71	15834
2026-01-18 05:54:23.04	21.50	14.15	-48.2	-59.5	3.8	7.45e-01	0	35	104	0	66	14428
2026-01-18 05:54:24.05	21.30	14.22	-54.4	-72.0	3.8	7.46e-01	0	35	104	0	79	28877
2026-01-18 05:54:25.06	21.11	14.28	-48.5	-59.8	3.9	7.43e-01	0	35	104	0	69	12541
2026-01-18 05:54:26.07	20.91	14.35	-53.2	-67.5	3.8	7.50e-01	0	35	104	0	76	20420
2026-01-18 05:54:27.07	20.72	14.42	-47.9	-59.0	3.8	7.46e-01	0	35	104	0	67	12931
2026-01-18 05:54:28.08	20.52	14.48	-47.1	-58.2	3.8	7.42e-01	0	35	104	0	66	12428
2026-01-18 05:54:29.09	20.32	14.55	-46.3	-57.3	3.8	7.43e-01	0	35	104	0	64	12618
2026-01-18 05:54:30.10	20.12	14.62	-50.2	-62.2	3.8	7.42e-01	0	35	104	0	72	13948
2026-01-18 05:54:31.11	19.92	14.68	-48.6	-59.9	3.8	7.48e-01	0	35	104	0	67	14269
2026-01-18 05:54:32.12	19.72	14.75	-54.4	-71.9	3.8	7.43e-01	0	35	104	0	79	28478
2026-01-18 05:54:33.13	19.51	14.81	-48.0	-59.2	3.8	7.43e-01	0	35	104	0	68	12396
2026-01-18 05:54:34.13	19.31	14.88	-53.1	-67.4	3.8	7.42e-01	0	35	104	0	76	20153
2026-01-18 05:54:35.14	19.11	14.95	-47.7	-58.8	3.8	7.44e-01	0	35	104	0	67	12643
2026-01-18 05:54:36.15	18.90	15.01	-47.5	-58.6	3.8	7.44e-01	0	35	104	0	66	13068
2026-01-18 05:54:37.16	18.69	15.08	-47.0	-58.1	3.8	7.43e-01	0	35	104	0	65	13044
2026-01-18 05:54:38.17	18.49	15.14	-50.6	-62.6	3.8	7.46e-01	0	35	104	0	71	15540
2026-01-18 05:54:39.17	18.28	15.21	-48.5	-59.8	3.8	7.44e-01	0	35	104	0	67	14116
2026-01-18 05:54:40.18	18.07	15.27	-54.2	-71.0	3.9	7.44e-01	0	35	104	0	79	25707
2026-01-18 05:54:41.19	17.86	15.34	-47.9	-59.1	3.9	7.47e-01	0	35	104	0	67	13016
2026-01-18 05:54:42.20	17.65	15.40	-52.9	-66.9	3.8	7.43e-01	0	35	104	0	76	19019
2026-01-18 05:54:43.21	17.44	15.46	-48.2	-59.5	3.9	7.45e-01	0	35	104	0	68	12829
2026-01-18 05:54:44.21	17.22	15.53	-47.4	-58.5	3.8	7.45e-01	0	35	104	0	66	12864
2026-01-18 05:54:45.22	17.01	15.59	-46.5	-57.5	3.8	7.45e-01	0	35	104	0	65	12163
2026-01-18 05:54:46.23	16.79	15.66	-47.1	-58.2	3.8	7.44e-01	0	35	104	0	65	13110
2026-01-18 05:54:47.23	16.58	15.72	-49.2	-60.6	3.8	7.45e-01	0	35	104	0	68	14678
2026-01-18 05:54:48.24	16.36	15.78	-54.2	-70.9	3.9	7.41e-01	0	35	104	0	79	25466
2026-01-18 05:54:49.25	16.14	15.84	-47.9	-59.0	3.9	7.49e-01	0	35	104	0	67	12907
2026-01-18 05:54:50.26	15.92	15.91	-52.8	-66.7	3.9	7.45e-01	0	35	104	0	76	18726
2026-01-18 05:54:51.27	15.70	15.97	-48.1	-59.3	3.8	7.44e-01	0	35	104	0	68	12540
2026-01-18 05:54:52.27	15.48	16.03	-47.8	-58.9	3.8	7.46e-01	0	35	104	0	67	12704
2026-01-18 05:54:53.28	15.26	16.09	-47.1	-58.1	3.8	7.46e-01	0	35	104	0	66	12244
2026-01-18 05:54:54.28	15.04	16.16	-47.9	-59.1	3.9	7.45e-01	0	35	104	0	67	12988
2026-01-18 05:54:55.29	14.82	16.22	-50.2	-61.9	3.9	7.45e-01	0	35	104	0	70	15134
2026-01-18 05:54:56.30	14.59	16.28	-53.7	-69.0	3.9	7.44e-01	0	35	104	0	79	20414
2026-01-18 05:54:57.31	14.36	16.34	-47.6	-58.7	3.8	7.44e-01	0	35	104	0	67	12450
2026-01-18 05:54:58.32	14.14	16.40	-52.2	-65.5	3.8	7.43e-01	0	35	104	0	76	16137
2026-01-18 05:54:59.33	13.91	16.46	-48.1	-59.3	3.8	7.44e-01	0	35	104	0	67	13346
2026-01-18 05:55:00.33	13.68	16.52	-47.2	-58.2	3.8	7.44e-01	0	35	104	0	66	12437
2026-01-18 05:55:01.34	13.45	16.58	-46.1	-57.0	3.8	7.44e-01	0	35	104	0	64	12203
2026-01-18 05:55:02.35	13.22	16.64	-46.8	-57.8	3.9	7.45e-01	0	35	104	0	65	12655
2026-01-18 05:55:03.36	12.99	16.70	-50.1	-61.8	3.8	7.45e-01	0	35	104	0	70	15010
2026-01-18 05:55:04.36	12.75	16.76	-53.6	-69.0	3.9	7.43e-01	0	35	104	0	79	20450
2026-01-18 05:55:05.37	12.52	16.82	-47.7	-58.9	3.8	7.45e-01	0	35	104	0	67	12785
2026-01-18 05:55:06.38	12.28	16.88	-51.2	-63.7	3.8	7.47e-01	0	35	104	0	74	14752
2026-01-18 05:55:07.39	12.05	16.93	-47.9	-59.1	3.8	7.41e-01	0	35	104	0	67	13055
2026-01-18 05:55:08.40	11.81	16.99	-47.7	-58.8	3.8	7.43e-01	0	35	104	0	67	12581
2026-01-18 05:55:09.41	11.57	17.05	-48.0	-59.1	3.8	7.45e-01	0	35	104	0	67	13033
2026-01-18 05:55:10.42	11.33	17.11	-48.4	-59.5	3.8	7.44e-01	0	35	104	0	68	12865
2026-01-18 05:55:11.42	11.10	17.16	-51.1	-63.3	3.8	7.48e-01	0	35	104	0	72	15912
2026-01-18 05:55:12.43	10.85	17.22	-52.6	-66.2	3.9	7.43e-01	0	35	104	0	77	16510
2026-01-18 05:55:13.44	10.61	17.28	-47.5	-58.6	3.8	7.44e-01	0	35	104	0	67	12287
2026-01-18 05:55:14.45	10.37	17.33	-51.1	-63.5	3.8	7.46e-01	0	35	104	0	74	14430
2026-01-18 05:55:15.46	10.12	17.39	-47.9	-59.1	3.8	7.44e-01	0	35	104	0	67	13063
2026-01-18 05:55:16.46	9.88	17.44	-47.0	-58.1	3.8	7.48e-01	0	35	104	0	66	12271
2026-01-18 05:55:17.47	9.64	17.50	-46.0	-56.9	3.9	7.43e-01	0	35	104	0	64	12032
2026-01-18 05:55:18.48	9.39	17.55	-46.5	-57.4	3.8	7.44e-01	0	35	104	0	65	12052
2026-01-18 05:55:19.49	9.14	17.60	-52.1	-64.9	3.8	7.43e-01	0	35	104	0	74	17039
2026-01-18 05:55:20.50	8.89	17.66	-51.3	-63.6	3.9	7.47e-01	0	35	104	0	74	14601
2026-01-18 05:55:21.51	8.64	17.71	-48.0	-59.2	3.8	7.44e-01	0	35	104	0	66	13951
2026-01-18 05:55:22.51	8.39	17.76	-49.6	-61.4	3.9	7.45e-01	0	35	104	0	71	13440
2026-01-18 05:55:23.52	8.14	17.82	-47.8	-59.0	3.8	7.41e-01	0	35	104	0	67	12901
2026-01-18 05:55:24.52	7.89	17.87	-47.6	-58.7	3.8	7.41e-01	0	35	104	0	67	12491
2026-01-18 05:55:25.53	7.64	17.92	-47.4	-58.5	3.8	7.41e-01	0	35	104	0	66	12911
2026-01-18 05:55:26.54	7.38	17.97	-47.3	-58.4	3.9	7.43e-01	0	35	104	0	66	12713
2026-01-18 05:55:27.54	7.13	18.02	-52.1	-64.9	3.8	7.42e-01	0	35	104	0	74	16897
2026-01-18 05:55:28.55	6.87	18.07	-51.2	-63.5	3.8	7.42e-01	0	35	104	0	74	14513
2026-01-18 05:55:29.57	6.61	18.12	-47.9	-59.1	3.8	7.44e-01	0	35	104	0	66	13760
2026-01-18 05:55:30.57	6.36	18.17	-49.4	-60.7	3.8	7.41e-01	0	35	104	0	70	13189
2026-01-18 05:55:31.58	6.10	18.22	-47.6	-58.7	3.8	7.43e-01	0	35	104	0	67	12491
2026-01-18 05:55:32.59	5.84	18.27	-47.3	-58.4	3.8	7.45e-01	0	35	104	0	66	12685
2026-01-18 05:55:33.60	5.58	18.31	-48.3	-59.8	3.8	7.44e-01	0	35	104	0	67	14100
2026-01-18 05:55:34.60	5.32	18.36	-46.9	-57.9	3.8	7.43e-01	0	35	104	0	65	12735
2026-01-18 05:55:35.61	5.06	18.41	-53.0	-66.8	3.8	7.46e-01	0	35	104	0	76	18809
2026-01-18 05:55:36.62	4.79	18.45	-50.1	-61.9	3.9	7.45e-01	0	35	104	0	72	13485
2026-01-18 05:55:37.62	4.53	18.50	-48.7	-60.0	3.8	7.45e-01	0	35	104	0	67	14522
2026-01-18 05:55:38.63	4.27	18.54	-48.4	-59.5	3.8	7.45e-01	0	35	104	0	68	12829
2026-01-18 05:55:39.64	4.00	18.59	-47.4	-58.1	3.8	7.45e-01	0	35	104	0	66	12347
2026-01-18 05:55:40.65	3.74	18.63	-47.1	-58.2	3.8	7.43e-01	0	35	104	0	66	12388
2026-01-18 05:55:41.66	3.47	18.68	-48.9	-60.3	3.8	7.44e-01	0	35	104	0	68	14103
2026-01-18 05:55:42.67	3.20	18.72	-47.1	-58.2	3.8	7.44e-01	0	35	104	0	66	12483
2026-01-18 05:55:43.68	2.93	18.76	-53.0	-66.7	3.8	7.46e-01	0	35	104	0	76	18728
2026-01-18 05:55:44.68	2.66	18.80	-49.4	-61.0	3.8	7.45e-01	0	35	104	0	71	12929
2026-01-18 05:55:45.69	2.39	18.84	-50.3	-61.7	3.8	7.47e-01	0	35	104	0	70	14876
2026-01-18 05:55:46.70	2.12	18.89	-47.9	-59.0	3.9	7.47e-01	0	35	104	0	67	12946
2026-01-18 05:55:47.71	1.85	18.93	-47.4	-58.5	3.8	7.42e-01	0	35	104	0	66	12877
2026-01-18 05:55:48.71	1.58	18.97	-47.3	-58.4	3.8	7.43e-01	0	35	104	0	66	12767
2026-01-18 05:55:49.72	1.30	19.00	-50.9	-63.0	3.8	7.46e-01	0	35	104	0	72	15349
2026-01-18 05:55:50.73	1.03	19.04	-47.1	-58.2	3.8	7.46e-01	0	35	104	0	66	12395
2026-01-18 05:55:51.74	0.75	19.08	-53.6	-68.3	3.8	7.45e-01	0	35	104	0	77	21143
2026-01-18 05:55:52.74	0.48	19.12	-49.4	-60.7	3.8	7.42e-01	0	35	104	0	70	13206
2026-01-18 05:55:53.75	0.20	19.15	-49.6	-61.2	3.8	7.47e-01	0	35	104	0	69	14728
2026-01-18 05:55:54.76	359.93	19.19	-47.8	-58.9	3.8	7.47e-01	0	35	104	0	67	12786
2026-01-18 05:55:55.76	359.65	19.23	-47.3	-58.4	3.9	7.41e-01	0	35	104	0	66	12768
2026-01-18 05:55:56.77	359.37	19.26	-47.2	-58.3	3.8	7.43e-01	0	35	104	0	66	12625
2026-01-18 05:55:57.78	359.09	19.30	-51.4	-63.9	3.8	7.45e-01	0	35	104	0	73	16055
2026-01-18 05:55:58.79	358.81	19.33	-47.0	-58.0	3.9	7.47e-01	0	35	104	0	66	12206
2026-01-18 05:55:59.79	358.54	19.36	-54.1	-69.9	3.8	7.48e-01	0	35	104	0	78	24099
2026-01-18 05:56:00.80	358.25	19.39	-49.1	-60.6	3.8	7.46e-01	0	35	104	0	70	12985
2026-01-18 05:56:01.81	357.97	19.43	-50.6	-62.5	3.8	7.48e-01	0	35	104	0	71	15350
2026-01-18 05:56:02.82	357.69	19.46	-47.4	-58.4	3.8	7.43e-01	0	35	104	0	66	12695
2026-01-18 05:56:03.82	357.41	19.49	-47.1	-58.1	3.8	7.41e-01	0	35	104	0	66	12365
2026-01-18 05:56:04.83	357.12	19.52	-46.5	-57.5	3.8	7.41e-01	0	35	104	0	65	12125
2026-01-18 05:56:05.84	356.84	19.55	-49.3	-61.1	3.8	7.47e-01	0	35	104	0	69	14580
2026-01-18 05:56:06.84	356.56	19.57	-46.9	-57.9	3.8	7.43e-01	0	35	104	0	65	12791
2026-01-18 05:56:07.85	356.27	19.60	-54.1	-69.8	3.8	7.46e-01	0	35	104	0	78	23635
2026-01-18 05:56:08.86	355.99	19.63	-49.1	-60.5	3.8	7.46e-01	0	35	104	0	70	12858
2026-01-18 05:56:09.87	355.70	19.66	-50.5	-62.5	3.8	7.45e-01	0	35	104	0	71	15245
2026-01-18 05:56:10.87	355.41	19.68	-47.4	-58.5	3.9	7.45e-01	0	35	104	0	66	12895
2026-01-18 05:56:11.88	355.13	19.71	-47.1	-58.2	3.8	7.42e-01	0	35	104	0	66	12427
2026-01-18 05:56:12.89	354.84	19.73	-46.6	-57.5	3.8	7.44e-01	0	35	104	0	65	12159
2026-01-18 05:56:13.90	354.55	19.75	-49.0	-60.5	3.8	7.42e-01	0	35	104	0	68	14404
2026-01-18 05:56:14.91	354.26	19.78	-46.9	-57.9	3.8	7.43e-01	0	35	104	0	65	12800
2026-01-18 05:56:15.91	353.97	19.80	-54.3	-70.7	3.7	7.46e-01	0	35	104	0	79	24762
2026-01-18 05:56:16.92	353.68	19.82	-49.0	-60.4	3.8	7.47e-01	0	35	104	0	70	12710
2026-01-18 05:56:17.93	353.39	19.84	-51.1	-63.4	3.8	7.46e-01	0	35	104	0	72	16086
2026-01-18 05:56:18.94	353.10	19.86	-47.2	-58.2	3.8	7.45e-01	0	35	104	0	66	12435
2026-01-18 05:56:19.94	352.81	19.88	-47.1	-58.1	3.9	7.42e-01	0	35	104	0	66	12260
2026-01-18 05:56:20.95	352.52	19.90	-46.8	-57.9	3.8	7.43e-01	0	36	104	0	65	12706
2026-01-18 05:56:21.96	352.23	19.92	-50.8	-63.0	3.8	7.43e-01	0	35	104	0	72	15242
2026-01-18 05:56:22.97	351.94	19.93	-46.8	-57.8	3.8	7.45e-01	0	35	104	0	65	12566
2026-01-18 05:56:23.98	351.65	19.95	-54.3	-70.6	3.7	7.48e-01	0	35	104	0	79	24679
2026-01-18 05:56:24.99	351.35	19.97	-48.9	-60.1	3.8	7.43e-01	0	35	104	0	69	13077
2026-01-18 05:56:25.99	351.06	19.98	-51.5	-64.0	3.8	7.45e-01	0	35	104	0	73	16295
2026-01-18 05:56:27.00	350.77	20.00	-47.1	-58.1	3.8	7.45e-01	0	35	104	0	66	12298
2026-01-18 05:56:28.01	350.47	20.01	-46.8	-57.8	3.8	7.41e-01	0	35	104	0	65	12651
2026-01-18 05:56:29.02	350.18	20.02	-46.3	-57.3	3.8	7.49e-01	0	35	104	0	64	12545
2026-01-18 05:56:30.03	349.89	20.03	-49.2	-60.8	3.8	7.47e-01	0	35	104	0	69	14101
2026-01-18 05:56:31.03	349.59	20.05	-46.8	-57.8	3.8	7.45e-01	0	35	104	0	65	12573
2026-01-18 05:56:32.04	349.30	20.06	-54.3	-70.8	3.8	7.47e-01	0	35	104	0	79	25038
2026-01-18 05:56:33.05	349.00	20.07	-48.9	-60.3	3.8	7.44e-01	0	35	104	0	69	13315
2026-01-18 05:56:34.06	348.71	20.07	-51.5	-64.0	3.8	7.46e-01	0	35	104	0	73	16306
2026-01-18 05:56:35.07	348.41	20.08	-47.1	-58.2	3.8	7.43e-01	0	35	104	0	66	12457
2026-01-18 05:56:36.07	348.12	20.09	-47.0	-58.0	3.8	7.48e-01	0	35	104	0	66	12141
2026-01-18 05:56:37.08	347.82	20.10	-47.0	-57.9	3.8	7.45e-01	0	35	104	0	65	12800
2026-01-18 05:56:38.09	347.53	20.10	-51.9	-64.9	3.8	7.40e-01	0	35	104	0	75	15949
2026-01-18 05:56:39.10	347.23	20.11	-47.3	-58.3	3.8	7.46e-01	0	35	104	0	65	13330
2026-01-18 05:56:40.11	346.94	20.11	-54.1	-69.9	3.8	7.42e-01	0	35	104	0	79	22733
2026-01-18 05:56:41.11	346.64	20.12	-48.5	-59.9	3.8	7.45e-01	0	35	104	0	69	12683
2026-01-18 05:56:42.12	346.35	20.12	-51.3	-63.7	3.8	7.44e-01	0	35	104	0	73	15692
2026-01-18 05:56:43.13	346.05	20.12	-46.9	-57.9	3.8	7.42e-01	0	35	104	0	65	12688
2026-01-18 05:56:44.14	345.75	20.12	-46.8	-57.8	3.8	7.42e-01	0	35	104	0	65	12580
2026-01-18 05:56:45.15	345.46	20.12	-46.6	-57.6	3.8	7.43e-01	0	35	104	0	65	12293
2026-01-18 05:56:46.15	345.16	20.12	-50.6	-62.7	3.8	7.45e-01	0	35	104	0	73	13915
2026-01-18 05:56:47.16	344.87	20.12	-47.2	-58.2	3.8	7.45e-01	0	35	104	0	65	13247
2026-01-18 05:56:48.17	344.57	20.12	-54.0	-69.7	3.8	7.43e-01	0	35	104	0	79	22138
2026-01-18 05:56:49.18	344.27	20.12	-48.5	-59.8	3.8	7.44e-01	0	35	104	0	69	12555
2026-01-18 05:56:50.18	343.98	20.11	-50.9	-63.1	3.8	7.44e-01	0	35	104	0	73	14654
2026-01-18 05:56:51.19	343.69	20.11	-46.9	-57.9	3.8	7.43e-01	0	35	104	0	65	12778
2026-01-18 05:56:52.20	343.39	20.10	-46.6	-57.6	3.8	7.43e-01	0	35	104	0	65	12250
2026-01-18 05:56:53.20	343.10	20.10	-46.2	-57.1	3.8	7.43e-01	0	35	104	0	64	12287
2026-01-18 05:56:54.21	342.80	20.09	-48.3	-59.6	3.9	7.42e-01	0	35	104	0	68	13006
2026-01-18 05:56:55.22	342.50	20.08	-47.7	-58.8	3.8	7.47e-01	0	36	104	0	65	14184
2026-01-18 05:56:56.23	342.21	20.08	-53.6	-68.4	3.9	7.44e-01	0	36	104	0	79	19011
2026-01-18 05:56:57.24	341.91	20.07	-47.7	-58.8	3.9	7.44e-01	0	35	104	0	67	12621
2026-01-18 05:56:58.25	341.62	20.06	-50.6	-62.6	3.8	7.40e-01	0	35	104	0	72	14697
2026-01-18 05:56:59.25	341.33	20.05	-46.8	-57.8	3.8	7.43e-01	0	35	104	0	65	12549
2026-01-18 05:57:00.26	341.03	20.04	-46.8	-57.9	3.8	7.48e-01	0	35	104	0	65	12670
2026-01-18 05:57:01.27	340.74	20.03	-46.4	-57.3	3.8	7.46e-01	0	35	104	0	64	12601
2026-01-18 05:57:02.28	340.44	20.01	-48.9	-60.1	3.8	7.41e-01	0	35	104	0	69	13101
2026-01-18 05:57:03.29	340.15	20.00	-48.7	-59.9	3.9	7.45e-01	0	35	104	0	67	14263
2026-01-18 05:57:04.29	339.86	19.99	-52.7	-66.2	3.9	7.43e-01	0	35	104	0	77	16627
2026-01-18 05:57:05.30	339.56	19.97	-47.0	-58.0	3.8	7.41e-01	0	35	104	0	66	12225
2026-01-18 05:57:06.31	339.27	19.96	-49.9	-61.6	3.9	7.44e-01	0	35	104	0	71	13789
2026-01-18 05:57:07.32	338.98	19.94	-46.9	-57.9	3.8	7.45e-01	0	35	104	0	65	12764
2026-01-18 05:57:08.33	338.69	19.92	-46.4	-57.4	3.8	7.43e-01	0	35	104	0	64	12734
2026-01-18 05:57:09.33	338.40	19.91	-46.6	-57.5	3.8	7.41e-01	0	35	104	0	64	12894
2026-01-18 05:57:10.34	338.10	19.89	-49.1	-60.6	3.9	7.43e-01	0	35	104	0	70	12994
2026-01-18 05:57:11.35	337.81	19.87	-48.5	-59.7	3.8	7.47e-01	0	35	104	0	67	13975
2026-01-18 05:57:12.36	337.52	19.85	-52.6	-66.2	3.9	7.45e-01	0	35	104	0	77	16528
2026-01-18 05:57:13.36	337.23	19.83	-47.1	-58.2	3.8	7.41e-01	0	35	104	0	66	12495
2026-01-18 05:57:14.37	336.94	19.81	-49.6	-61.3	3.9	7.46e-01	0	35	104	0	71	13367
2026-01-18 05:57:15.38	336.65	19.78	-46.6	-57.5	3.8	7.45e-01	0	35	104	0	65	12213
2026-01-18 05:57:16.39	336.36	19.76	-46.5	-57.5	3.8	7.45e-01	0	35	104	0	65	12201
2026-01-18 05:57:17.40	336.08	19.74	-47.0	-58.0	3.8	7.46e-01	0	35	104	0	64	13665
2026-01-18 05:57:18.40	335.79	19.71	-47.8	-59.0	3.8	7.41e-01	0	35	104	0	67	12930
2026-01-18 05:57:19.41	335.50	19.69	-50.3	-61.8	3.8	7.46e-01	0	35	104	0	70	15023
2026-01-18 05:57:20.42	335.21	19.66	-51.5	-63.9	3.9	7.43e-01	0	35	104	0	75	14343
2026-01-18 05:57:21.43	334.93	19.64	-46.5	-57.5	3.8	7.45e-01	0	35	104	0	65	12227
2026-01-18 05:57:22.43	334.64	19.61	-48.3	-59.6	3.8	7.42e-01	0	35	104	0	68	13045
2026-01-18 05:57:23.45	334.35	19.58	-46.5	-57.4	3.8	7.44e-01	0	35	104	0	64	12684
2026-01-18 05:57:24.46	334.07	19.55	-46.5	-57.4	3.8	7.44e-01	0	35	104	0	64	12771
2026-01-18 05:57:25.46	333.79	19.53	-46.4	-57.3	3.8	7.43e-01	0	35	104	0	64	12646
2026-01-18 05:57:26.47	333.50	19.50	-46.9	-57.7	3.8	7.45e-01	0	35	104	0	65	12511
2026-01-18 05:57:27.48	333.22	19.47	-51.1	-63.2	3.8	7.43e-01	0	35	104	0	72	15670
2026-01-18 05:57:28.49	332.94	19.43	-50.2	-62.2	3.9	7.40e-01	0	35	104	0	72	13889
2026-01-18 05:57:29.50	332.65	19.40	-46.5	-57.4	3.8	7.45e-01	0	35	104	0	64	12666
2026-01-18 05:57:30.50	332.38	19.37	-47.3	-58.2	3.8	7.46e-01	0	36	104	0	66	12430
2026-01-18 05:57:31.51	332.09	19.34	-46.3	-57.4	3.8	7.46e-01	0	35	104	0	64	12721
2026-01-18 05:57:32.52	331.81	19.30	-46.5	-57.5	3.8	7.45e-01	0	35	104	0	64	12943
2026-01-18 05:57:33.53	331.53	19.27	-47.5	-58.6	3.8	7.43e-01	0	36	104	0	65	13871
2026-01-18 05:57:34.54	331.26	19.24	-46.9	-57.7	3.8	7.43e-01	0	35	104	0	65	12507
2026-01-18 05:57:35.54	330.98	19.20	-51.0	-63.2	3.8	7.45e-01	0	35	104	0	72	15608
2026-01-18 05:57:36.55	330.70	19.16	-50.1	-62.0	3.8	7.41e-01	0	35	104	0	72	13638
2026-01-18 05:57:37.56	330.42	19.13	-46.5	-57.3	3.8	7.44e-01	0	35	104	0	64	12605
2026-01-18 05:57:38.57	330.15	19.09	-47.3	-58.4	3.8	7.43e-01	0	35	104	0	66	12740
2026-01-18 05:57:39.58	329.87	19.05	-46.2	-57.1	3.8	7.44e-01	0	35	104	0	64	12298
2026-01-18 05:57:40.59	329.60	19.01	-46.5	-57.3	3.8	7.39e-01	0	35	104	0	64	12522
2026-01-18 05:57:41.60	329.32	18.97	-47.9	-59.5	3.8	7.44e-01	0	35	104	0	66	14460
2026-01-18 05:57:42.61	329.05	18.94	-46.0	-57.0	3.8	7.48e-01	0	35	104	0	64	12170
2026-01-18 05:57:43.61	328.78	18.90	-51.9	-64.2	3.8	7.46e-01	0	35	104	0	74	15733
2026-01-18 05:57:44.62	328.51	18.85	-49.6	-61.6	3.8	7.41e-01	0	35	104	0	71	13729
2026-01-18 05:57:45.63	328.24	18.81	-47.3	-58.6	3.8	7.44e-01	0	35	104	0	65	13868
2026-01-18 05:57:46.64	327.97	18.77	-46.8	-57.3	3.8	7.48e-01	0	35	104	0	65	11834
2026-01-18 05:57:47.64	327.70	18.73	-46.6	-58.1	3.8	7.49e-01	0	35	104	0	65	13073
2026-01-18 05:57:48.65	327.43	18.69	-46.7	-57.7	3.8	7.46e-01	0	35	104	0	65	12491
2026-01-18 05:57:49.66	327.16	18.64	-48.4	-59.4	3.8	7.45e-01	0	35	104	0	67	13532
2026-01-18 05:57:50.67	326.90	18.60	-46.5	-58.1	3.8	7.46e-01	0	35	104	0	65	13046
2026-01-18 05:57:51.68	326.63	18.55	-51.8	-64.6	3.8	7.48e-01	0	35	104	0	74	16363
2026-01-18 05:57:52.69	326.36	18.51	-49.3	-60.1	3.8	7.45e-01	0	35	104	0	70	12350
2026-01-18 05:57:53.69	326.10	18.46	-48.2	-60.2	3.8	7.46e-01	0	35	104	0	66	15713
2026-01-18 05:57:54.70	325.84	18.42	-46.4	-57.1	3.8	7.43e-01	0	35	104	0	64	12259
2026-01-18 05:57:55.71	325.58	18.37	-46.3	-56.6	3.8	7.45e-01	0	35	104	0	64	11621
2026-01-18 05:57:56.71	325.32	18.32	-46.4	-57.9	3.8	7.45e-01	0	35	104	0	64	13511
2026-01-18 05:57:57.72	325.06	18.28	-48.8	-59.9	3.8	7.43e-01	0	35	104	0	68	13540
2026-01-18 05:57:58.73	324.80	18.23	-46.2	-57.5	3.8	7.46e-01	0	35	104	0	64	12926
2026-01-18 05:57:59.74	324.54	18.18	-52.4	-65.6	3.8	7.44e-01	0	35	104	0	75	17346
2026-01-18 05:58:00.75	324.28	18.13	-49.3	-60.3	3.8	7.46e-01	0	35	104	0	70	12590
2026-01-18 05:58:01.76	324.02	18.08	-48.0	-60.1	3.8	7.44e-01	0	35	104	0	66	15487
2026-01-18 05:58:02.76	323.77	18.03	-46.4	-57.3	3.8	7.43e-01	0	36	104	0	64	12540
2026-01-18 05:58:03.77	323.51	17.98	-46.3	-56.8	3.8	7.44e-01	0	35	104	0	64	11877
2026-01-18 05:58:04.78	323.25	17.93	-46.3	-57.5	3.8	7.45e-01	0	35	104	0	64	12869
2026-01-18 05:58:05.79	323.00	17.88	-48.8	-60.0	3.8	7.42e-01	0	35	104	0	68	13672
2026-01-18 05:58:06.80	322.75	17.83	-46.0	-57.5	3.8	7.48e-01	0	35	104	0	63	13617
2026-01-18 05:58:07.80	322.50	17.78	-53.0	-66.8	3.7	7.49e-01	0	35	104	0	76	18738
2026-01-18 05:58:08.81	322.25	17.72	-49.3	-60.3	3.9	7.37e-01	0	35	104	0	70	12611
2026-01-18 05:58:09.82	322.00	17.67	-48.9	-50.9	20.7	6.06e-01	0	35	0	524288	68	4771
2026-01-18 05:58:10.83	321.75	17.62	-46.1	-47.5	24.0	6.04e-01	0	35	0	2621440	64	4067
2026-01-18 05:58:11.84	321.50	17.56	-45.9	-47.2	24.5	6.03e-01	0	35	0	4194304	63	4168
2026-01-18 05:58:12.84	321.25	17.51	-45.3	-46.6	24.9	6.04e-01	0	35	0	6291456	62	4111
2026-01-18 05:58:13.85	321.01	17.45	-46.1	-47.5	24.0	6.04e-01	0	35	0	7864320	62	4565
2026-01-18 05:58:14.86	320.76	17.40	-45.7	-47.0	24.7	6.06e-01	0	35	0	9961472	62	4304
2026-01-18 05:58:15.87	320.52	17.34	-45.9	-47.3	24.2	6.04e-01	0	35	0	12058624	62	4474
2026-01-18 05:58:16.87	320.28	17.29	-46.0	-47.4	24.2	6.04e-01	0	35	0	13631488	62	4513
2026-01-18 05:58:17.88	320.03	17.23	-45.6	-46.9	24.6	6.04e-01	0	35	0	15728640	63	4021
2026-01-18 05:58:18.89	319.79	17.18	-46.0	-47.4	24.3	6.02e-01	0	35	0	17825792	63	4262
2026-01-18 05:58:19.90	319.55	17.12	-45.9	-47.3	24.4	6.02e-01	0	35	0	19398656	63	4213
2026-01-18 05:58:20.91	319.31	17.06	-45.8	-47.1	24.5	6.04e-01	0	35	0	21495808	63	4129
2026-01-18 05:58:21.91	319.07	17.01	-45.7	-47.0	24.7	6.04e-01	0	35	0	23068672	63	4068
2026-01-18 05:58:22.92	318.84	16.95	-45.7	-47.0	24.7	6.05e-01	0	35	0	25165824	63	4072
2026-01-18 05:58:23.93	318.60	16.89	-45.6	-47.0	24.7	6.02e-01	0	35	0	27262976	63	4054
2026-01-18 05:58:24.94	318.36	16.83	-45.9	-47.3	24.3	6.03e-01	0	35	0	28835840	63	4195
2026-01-18 05:58:25.94	318.13	16.77	-45.6	-46.9	24.7	6.02e-01	0	35	0	30932992	62	4277
2026-01-18 05:58:26.95	317.90	16.71	-45.4	-46.7	24.7	6.04e-01	0	35	0	32505856	62	4172
2026-01-18 05:58:27.96	317.66	16.65	-45.8	-47.2	24.5	6.01e-01	0	35	0	34603008	62	4400
2026-01-18 05:58:28.97	317.43	16.59	-45.4	-46.6	24.9	6.02e-01	0	35	0	36175872	62	4145
2026-01-18 05:58:29.98	317.20	16.53	-45.9	-47.3	24.4	6.02e-01	0	35	0	38273024	62	4455
2026-01-18 05:58:30.98	316.97	16.48	-45.8	-47.1	24.5	6.05e-01	0	35	0	40370176	62	4357
2026-01-18 05:58:31.99	316.75	16.41	-45.7	-47.0	24.6	6.05e-01	0	35	0	41943040	62	4324
2026-01-18 05:58:33.00	316.52	16.35	-45.8	-47.1	24.5	6.04e-01	0	35	0	44040192	62	4373
2026-01-18 05:58:34.01	316.29	16.29	-45.4	-46.7	24.9	6.03e-01	0	35	0	46137344	62	4160
2026-01-18 05:58:35.02	316.06	16.23	-46.0	-47.4	24.1	6.03e-01	0	35	0	47710208	62	4510
2026-01-18 05:58:36.02	315.84	16.17	-45.6	-46.9	24.7	6.03e-01	0	35	0	49807360	62	4244
2026-01-18 05:58:37.03	315.62	16.11	-45.7	-47.0	24.3	6.05e-01	0	35	0	51380224	63	4064
2026-01-18 05:58:38.04	315.39	16.05	-45.7	-47.0	24.4	6.05e-01	0	35	0	53477376	62	4332
2026-01-18 05:58:39.05	315.17	15.98	-45.6	-46.9	24.4	6.03e-01	0	35	0	55574528	63	4020
2026-01-18 05:58:40.06	314.95	15.92	-46.2	-47.6	24.0	6.03e-01	0	35	0	57147392	62	4639
2026-01-18 05:58:41.07	314.73	15.86	-45.4	-46.6	24.7	6.00e-01	0	35	0	59244544	62	4119
2026-01-18 05:58:42.07	314.51	15.80	-46.0	-47.4	24.2	6.02e-01	0	35	0	60817408	62	4545
2026-01-18 05:58:43.08	314.30	15.73	-45.2	-46.5	25.1	6.03e-01	0	35	0	62914560	62	4064
2026-01-18 05:58:44.09	314.08	15.67	-45.9	-47.3	24.2	6.01e-01	0	35	0	65011712	62	4480
2026-01-18 05:58:45.10	313.86	15.61	-45.6	-46.8	24.8	5.99e-01	0	35	0	66584576	62	4235
2026-01-18 05:58:46.11	313.65	15.54	-45.8	-47.2	24.2	6.01e-01	0	35	0	68681728	62	4420
2026-01-18 05:58:47.11	313.44	15.48	-45.6	-46.9	24.6	6.04e-01	0	35	0	70254592	62	4283
2026-01-18 05:58:48.12	313.22	15.41	-45.6	-46.9	24.6	6.02e-01	0	35	0	72351744	62	4256
2026-01-18 05:58:49.13	313.01	15.35	-45.9	-47.3	24.2	6.01e-01	0	35	0	74448896	62	4467
2026-01-18 05:58:50.14	312.80	15.28	-45.9	-47.2	24.2	6.03e-01	0	35	0	76021760	63	4170
2026-01-18 05:58:51.14	312.59	15.22	-46.1	-47.5	24.1	6.04e-01	0	35	0	78118912	63	4309
2026-01-18 05:58:52.15	312.38	15.15	-45.7	-47.0	24.1	6.01e-01	0	35	0	79691776	63	4082
2026-01-18 05:58:53.16	312.17	15.09	-46.1	-47.5	24.0	6.02e-01	0	35	0	81788928	62	4579
2026-01-18 05:58:54.17	311.97	15.02	-45.8	-47.1	24.2	6.04e-01	0	35	0	83886080	63	4137
2026-01-18 05:58:55.18	311.76	14.96	-45.6	-47.0	24.5	6.04e-01	0	35	0	85458944	62	4296
2026-01-18 05:58:56.18	311.56	14.89	-46.0	-47.3	24.1	6.04e-01	0	35	0	87556096	62	4490
2026-01-18 05:58:57.19	311.35	14.83	-45.9	-47.2	24.3	6.02e-01	0	35	0	89653248	62	4417
2026-01-18 05:58:58.20	311.15	14.76	-46.1	-47.5	24.1	6.05e-01	0	35	0	91226112	62	4554
2026-01-18 05:58:59.20	310.95	14.70	-45.8	-47.2	24.4	6.01e-01	0	35	0	93323264	62	4395
2026-01-18 05:59:00.21	310.75	14.63	-45.9	-47.3	24.3	6.04e-01	0	35	0	94896128	62	4467
2026-01-18 05:59:01.22	310.55	14.56	-45.9	-47.3	24.3	6.03e-01	0	35	0	96993280	62	4463
2026-01-18 05:59:02.23	310.35	14.50	-45.6	-46.9	24.6	6.03e-01	0	35	0	98566144	62	4267
2026-01-18 05:59:03.23	310.15	14.43	-45.6	-46.9	24.7	6.03e-01	0	35	0	100663296	62	4245
2026-01-18 05:59:04.24	309.95	14.36	-45.8	-47.2	24.4	6.00e-01	0	35	0	102760448	62	4407
2026-01-18 05:59:05.25	309.76	14.30	-45.6	-46.9	24.6	6.00e-01	0	35	0	104333312	62	4267
2026-01-18 05:59:06.26	309.56	14.23	-46.0	-47.4	24.2	6.04e-01	0	35	0	106430464	62	4508
2026-01-18 05:59:07.27	309.37	14.16	-45.7	-47.0	24.5	6.02e-01	0	35	0	108003328	62	4328
2026-01-18 05:59:08.27	309.18	14.10	-46.0	-47.4	24.2	6.02e-01	0	35	0	110100480	62	4505
2026-01-18 05:59:09.28	308.98	14.03	-45.8	-47.2	24.3	6.04e-01	0	35	0	112197632	62	4407
2026-01-18 05:59:10.29	308.79	13.96	-45.8	-47.1	24.5	6.03e-01	0	35	0	113770496	62	4354
2026-01-18 05:59:11.30	308.60	13.89	-46.0	-47.4	24.1	6.03e-01	0	35	0	115867648	62	4527
2026-01-18 05:59:12.31	308.41	13.83	-45.5	-46.8	24.8	6.01e-01	0	35	0	117964800	62	4207
2026-01-18 05:59:13.31	308.22	13.76	-46.2	-47.7	23.9	6.03e-01	0	35	0	119537664	62	4669
2026-01-18 05:59:14.32	308.04	13.69	-45.8	-47.2	24.3	6.03e-01	0	35	0	121634816	63	4149
2026-01-18 05:59:15.33	307.85	13.62	-45.8	-47.2	24.3	6.01e-01	0	35	0	123207680	63	4173
2026-01-18 05:59:16.34	307.66	13.55	-46.1	-47.5	24.1	6.04e-01	0	35	0	125304832	63	4304
2026-01-18 05:59:17.35	307.48	13.49	-45.8	-47.2	24.3	6.04e-01	0	35	0	126877696	63	4155
2026-01-18 05:59:18.35	307.29	13.42	-45.8	-47.1	24.4	6.01e-01	0	35	0	128974848	63	4135
2026-01-18 05:59:19.36	307.11	13.35	-45.9	-47.2	24.3	6.03e-01	0	35	0	131072000	63	4182
2026-01-18 05:59:20.37	306.93	13.28	-45.8	-47.1	24.3	6.05e-01	0	35	0	132644864	63	4125
2026-01-18 05:59:21.38	306.75	13.21	-45.8	-47.1	24.4	6.02e-01	0	35	0	134742016	63	4121
2026-01-18 05:59:22.38	306.57	13.15	-46.1	-47.6	23.9	6.02e-01	0	35	0	136839168	63	4353
2026-01-18 05:59:23.39	306.39	13.08	-45.8	-47.1	24.3	6.02e-01	0	35	0	138412032	63	4142
2026-01-18 05:59:24.40	306.21	13.01	-45.9	-47.3	24.2	6.04e-01	0	35	0	140509184	63	4213
2026-01-18 05:59:25.41	306.03	12.94	-46.0	-47.4	24.0	6.03e-01	0	35	0	142082048	63	4277
2026-01-18 05:59:26.42	305.85	12.87	-45.6	-46.9	24.6	6.03e-01	0	35	0	144179200	63	4035
2026-01-18 05:59:27.43	305.68	12.80	-46.0	-47.4	24.1	6.05e-01	0	35	0	146276352	63	4258
2026-01-18 05:59:28.43	305.50	12.74	-46.4	-47.9	23.6	6.03e-01	0	35	0	147849216	63	4523
2026-01-18 05:59:29.44	305.33	12.67	-45.9	-47.3	24.1	6.02e-01	0	35	0	149946368	63	4195
2026-01-18 05:59:30.45	305.16	12.60	-45.9	-47.3	24.2	6.03e-01	0	35	0	151519232	63	4207
2026-01-18 05:59:31.46	304.98	12.53	-46.6	-48.1	23.4	6.04e-01	0	35	0	153616384	63	4646
2026-01-18 05:59:32.46	304.81	12.46	-46.0	-47.3	24.0	6.05e-01	0	35	0	155189248	63	4228
2026-01-18 05:59:33.47	304.64	12.39	-45.8	-47.1	24.2	6.01e-01	0	35	0	157286400	63	4125
2026-01-18 05:59:34.48	304.47	12.32	-46.6	-48.1	23.4	6.02e-01	0	35	0	159383552	63	4621
2026-01-18 05:59:35.49	304.30	12.25	-46.5	-48.0	23.5	6.03e-01	0	35	0	161480704	63	4549
2026-01-18 05:59:36.49	304.14	12.19	-46.6	-48.0	23.5	6.01e-01	0	35	0	163053568	63	4580
2026-01-18 05:59:37.50	303.97	12.12	-46.9	-48.5	23.0	6.02e-01	0	35	0	165150720	64	4563
2026-01-18 05:59:38.51	303.80	12.05	-46.8	-48.3	23.1	6.04e-01	0	35	0	166723584	64	4490
2026-01-18 05:59:39.52	303.64	11.98	-46.1	-47.5	23.9	6.01e-01	0	35	0	168820736	64	4057
2026-01-18 05:59:40.53	303.47	11.91	-46.1	-47.5	24.0	6.06e-01	0	35	0	170393600	63	4311
2026-01-18 05:59:41.53	303.31	11.84	-46.7	-48.2	23.4	6.01e-01	0	35	0	172490752	63	4672
2026-01-18 05:59:42.54	303.15	11.77	-46.3	-47.7	23.6	6.03e-01	0	35	0	174587904	63	4431
2026-01-18 05:59:43.55	302.98	11.70	-45.8	-47.2	24.3	6.07e-01	0	35	0	176160768	63	4146
2026-01-18 05:59:44.56	302.82	11.64	-46.3	-47.8	23.6	6.04e-01	0	35	0	178257920	63	4471
2026-01-18 05:59:45.56	302.66	11.57	-46.6	-48.1	23.4	6.04e-01	0	35	0	179830784	63	4624
2026-01-18 05:59:46.57	302.50	11.50	-46.0	-47.4	23.9	6.04e-01	0	35	0	181927936	63	4244
2026-01-18 05:59:47.58	302.34	11.43	-46.0	-47.3	24.1	6.05e-01	0	35	0	184025088	63	4218
2026-01-18 05:59:48.59	302.19	11.36	-46.5	-48.0	23.5	6.03e-01	0	35	0	185597952	63	4555
2026-01-18 05:59:49.59	302.03	11.29	-46.3	-47.8	23.5	6.03e-01	0	35	0	187695104	63	4461
2026-01-18 05:59:50.60	301.87	11.22	-46.2	-47.6	23.8	6.03e-01	0	35	0	189792256	63	4347
2026-01-18 05:59:51.61	301.72	11.16	-46.4	-47.8	23.6	6.06e-01	0	35	0	191365120	63	4484
2026-01-18 05:59:52.62	301.56	11.09	-47.0	-48.6	22.8	6.04e-01	0	35	0	193462272	64	4626
2026-01-18 05:59:53.62	301.41	11.02	-46.5	-48.0	23.2	6.07e-01	0	35	0	195035136	64	4295
2026-01-18 05:59:54.63	301.26	10.95	-46.0	-47.4	23.9	6.03e-01	0	35	0	197132288	64	4020
2026-01-18 05:59:55.64	301.10	10.88	-46.1	-47.5	23.7	6.02e-01	0	35	0	198705152	64	4089
2026-01-18 05:59:56.65	300.95	10.81	-46.6	-48.2	23.2	6.02e-01	0	35	0	200802304	64	4420
2026-01-18 05:59:57.66	300.80	10.74	-46.4	-47.9	23.3	6.02e-01	0	35	0	202899456	64	4284
2026-01-18 05:59:58.67	300.65	10.67	-46.1	-47.4	23.8	6.04e-01	0	35	0	204472320	64	4048
2026-01-18 05:59:59.67	300.50	10.61	-46.1	-47.5	23.8	6.05e-01	0	35	0	206569472	64	4085
2026-01-18 06:00:00.68	300.35	10.54	-46.6	-48.1	23.2	6.02e-01	0	35	0	208666624	64	4387
2026-01-18 06:00:01.69	300.20	10.47	-46.8	-48.4	22.9	6.02e-01	0	35	0	210239488	64	4539
2026-01-18 06:00:02.70	300.06	10.40	-46.6	-48.1	23.1	6.03e-01	0	35	0	212336640	64	4353
2026-01-18 06:00:03.70	299.91	10.33	-46.6	-48.0	23.3	6.06e-01	0	35	0	213909504	64	4321
2026-01-18 06:00:04.71	299.77	10.26	-46.6	-48.1	23.2	6.02e-01	0	35	0	216006656	64	4363
2026-01-18 06:00:05.72	299.62	10.20	-47.1	-48.7	22.6	6.03e-01	0	35	0	218103808	64	4675
2026-01-18 06:00:06.73	299.48	10.13	-47.1	-48.7	22.5	6.03e-01	0	35	0	219676672	65	4437
2026-01-18 06:00:07.74	299.33	10.06	-46.5	-48.0	23.2	6.04e-01	0	35	0	221773824	65	4067
2026-01-18 06:00:08.75	299.19	9.99	-46.3	-47.8	23.5	6.04e-01	0	35	0	223346688	64	4205
2026-01-18 06:00:09.75	299.05	9.92	-46.6	-48.1	23.1	6.05e-01	0	35	0	225443840	64	4356
2026-01-18 06:00:10.76	298.91	9.86	-46.9	-48.6	22.8	6.03e-01	0	35	0	227016704	64	4611
2026-01-18 06:00:11.77	298.77	9.79	-46.8	-48.4	22.8	6.03e-01	0	35	0	229113856	64	4532
2026-01-18 06:00:12.78	298.63	9.72	-46.4	-47.9	23.3	6.02e-01	0	35	0	231211008	64	4264
2026-01-18 06:00:13.78	298.49	9.65	-46.4	-47.9	23.5	6.04e-01	0	35	0	233308160	64	4253
2026-01-18 06:00:14.79	298.35	9.58	-46.4	-47.9	23.3	6.02e-01	0	35	0	234881024	64	4258
2026-01-18 06:00:15.80	298.21	9.52	-46.8	-48.3	22.9	6.03e-01	0	35	0	236978176	64	4480
2026-01-18 06:00:16.81	298.08	9.45	-46.9	-48.5	22.8	6.04e-01	0	35	0	238551040	64	4589
2026-01-18 06:00:17.82	297.94	9.38	-46.5	-48.1	23.0	6.01e-01	0	35	0	240648192	64	4343
2026-01-18 06:00:18.83	297.80	9.31	-46.3	-47.7	23.5	6.03e-01	0	35	0	242221056	64	4177
2026-01-18 06:00:19.83	297.67	9.25	-46.3	-47.8	23.5	6.02e-01	0	35	0	244318208	64	4200
2026-01-18 06:00:20.84	297.54	9.18	-46.6	-48.1	23.1	6.05e-01	0	35	0	246415360	64	4378
2026-01-18 06:00:21.85	297.40	9.11	-46.8	-48.4	22.9	6.05e-01	0	35	0	247988224	64	4514
2026-01-18 06:00:22.86	297.27	9.04	-47.0	-48.6	22.7	6.02e-01	0	35	0	250085376	64	4615
2026-01-18 06:00:23.87	297.14	8.98	-46.8	-48.4	22.8	6.02e-01	0	35	0	251658240	64	4521
2026-01-18 06:00:24.87	297.01	8.91	-46.8	-48.4	22.9	6.03e-01	0	35	0	253755392	64	4509
2026-01-18 06:00:25.88	296.88	8.84	-46.6	-48.0	23.2	6.04e-01	0	35	0	255852544	64	4337
2026-01-18 06:00:26.89	296.75	8.77	-46.7	-48.3	23.0	6.04e-01	0	35	0	257425408	64	4454
2026-01-18 06:00:27.90	296.62	8.71	-47.1	-48.7	22.5	6.04e-01	0	35	0	259522560	64	4704
2026-01-18 06:00:28.91	296.49	8.64	-47.0	-48.7	22.6	6.05e-01	0	35	0	261619712	64	4679
2026-01-18 06:00:29.91	296.36	8.57	-46.9	-48.6	22.6	6.02e-01	0	35	0	263192576	64	4600
2026-01-18 06:00:30.92	296.23	8.51	-46.6	-48.1	23.0	6.04e-01	0	35	0	265289728	64	4371
2026-01-18 06:00:31.93	296.11	8.44	-46.5	-48.0	23.1	6.05e-01	0	35	0	266862592	64	4334
2026-01-18 06:00:32.94	295.98	8.37	-46.5	-48.0	23.2	6.03e-01	0	35	0	268959744	64	4330
2026-01-18 06:00:33.95	295.85	8.31	-46.4	-47.9	23.3	6.03e-01	0	35	0	270532608	64	4269
2026-01-18 06:00:34.95	295.73	8.24	-46.6	-48.1	23.1	6.04e-01	0	35	0	272629760	64	4377
2026-01-18 06:00:35.96	295.61	8.17	-46.9	-48.5	22.7	6.02e-01	0	35	0	274726912	64	4591
2026-01-18 06:00:36.97	295.48	8.11	-46.9	-48.5	22.7	6.03e-01	0	35	0	276299776	64	4583
2026-01-18 06:00:37.97	295.36	8.04	-46.9	-48.6	22.4	6.05e-01	0	35	0	278396928	64	4606
2026-01-18 06:00:38.98	295.24	7.97	-46.9	-48.5	22.7	6.03e-01	0	35	0	280494080	64	4567
2026-01-18 06:00:39.99	295.12	7.91	-46.9	-48.5	22.7	6.05e-01	0	35	0	282066944	64	4558
2026-01-18 06:00:41.00	294.99	7.84	-46.8	-48.4	22.8	6.02e-01	0	35	0	284164096	64	4531
2026-01-18 06:00:42.00	294.88	7.78	-46.8	-48.4	22.8	6.04e-01	0	35	0	285736960	64	4537
2026-01-18 06:00:43.01	294.75	7.71	-46.9	-48.5	22.7	6.02e-01	0	35	0	287834112	64	4579
2026-01-18 06:00:44.02	294.64	7.64	-47.0	-48.7	22.6	6.04e-01	0	35	0	289931264	64	4663
2026-01-18 06:00:45.03	294.52	7.58	-46.9	-48.5	22.7	6.02e-01	0	35	0	291504128	64	4555
2026-01-18 06:00:46.04	294.40	7.51	-46.8	-48.4	22.8	6.03e-01	0	35	0	293601280	64	4535
2026-01-18 06:00:47.05	294.28	7.45	-46.8	-48.4	22.8	6.03e-01	0	35	0	295174144	64	4512
2026-01-18 06:00:48.05	294.16	7.38	-46.8	-48.3	22.8	6.03e-01	0	35	0	297271296	64	4482
2026-01-18 06:00:49.06	294.05	7.32	-46.8	-48.3	22.8	6.06e-01	0	35	0	298844160	64	4492
2026-01-18 06:00:50.07	293.93	7.25	-46.8	-48.3	22.9	6.04e-01	0	35	0	300941312	64	4488
2026-01-18 06:00:51.08	293.82	7.18	-47.0	-48.7	22.5	6.02e-01	0	35	0	303038464	64	4652
2026-01-18 06:00:52.08	293.70	7.12	-47.1	-48.8	22.4	6.03e-01	0	35	0	304611328	64	4714
2026-01-18 06:00:53.09	293.59	7.05	-47.3	-49.0	22.2	6.03e-01	0	35	0	306708480	65	4571
2026-01-18 06:00:54.10	293.48	6.99	-47.3	-49.0	22.2	6.04e-01	0	35	0	308805632	65	4582
2026-01-18 06:00:55.11	293.36	6.92	-47.2	-48.9	22.3	6.03e-01	0	35	0	310378496	65	4525
2026-01-18 06:00:56.12	293.25	6.86	-47.2	-48.9	22.3	6.03e-01	0	35	0	312475648	65	4506
2026-01-18 06:00:57.12	293.14	6.79	-47.1	-48.7	22.4	6.05e-01	0	35	0	314048512	65	4438
2026-01-18 06:00:58.13	293.03	6.73	-47.2	-48.8	22.3	6.02e-01	0	35	0	316145664	65	4493
2026-01-18 06:00:59.14	292.92	6.67	-47.1	-48.8	22.4	6.02e-01	0	35	0	318242816	65	4457
2026-01-18 06:01:00.15	292.81	6.60	-47.0	-48.7	22.5	6.05e-01	0	35	0	319815680	65	4398
2026-01-18 06:01:01.16	292.70	6.54	-47.0	-48.7	22.5	6.05e-01	0	35	0	321912832	65	4398
2026-01-18 06:01:02.16	292.59	6.47	-47.1	-48.8	22.4	6.04e-01	0	35	0	323485696	65	4464
2026-01-18 06:01:03.17	292.48	6.41	-47.1	-48.8	22.3	6.03e-01	0	35	0	325582848	65	4471
2026-01-18 06:01:04.18	292.37	6.34	-47.2	-48.9	22.2	6.04e-01	0	35	0	327155712	65	4526
2026-01-18 06:01:05.18	292.27	6.28	-47.2	-48.9	22.2	6.03e-01	0	35	0	329252864	65	4500
2026-01-18 06:01:06.19	292.16	6.22	-47.2	-48.8	22.3	6.03e-01	0	35	0	331350016	65	4491
2026-01-18 06:01:07.20	292.05	6.15	-47.4	-49.1	22.1	6.03e-01	0	35	0	332922880	65	4616
2026-01-18 06:01:08.20	291.95	6.09	-47.4	-49.1	22.0	6.02e-01	0	35	0	335020032	65	4630
2026-01-18 06:01:09.21	291.84	6.02	-47.4	-49.2	21.9	6.05e-01	0	35	0	337117184	65	4685
2026-01-18 06:01:10.22	291.74	5.96	-47.5	-49.3	21.8	6.05e-01	0	35	0	338690048	65	4709
2026-01-18 06:01:11.23	291.63	5.90	-47.4	-49.2	21.9	6.01e-01	0	35	0	340787200	65	4658
2026-01-18 06:01:12.24	291.53	5.83	-47.5	-49.2	21.9	6.05e-01	0	35	0	342360064	65	4690
2026-01-18 06:01:13.24	291.43	5.77	-47.7	-49.5	21.6	6.02e-01	0	35	0	344457216	65	4866
2026-01-18 06:01:14.25	291.32	5.71	-47.5	-49.3	21.8	6.04e-01	0	35	0	346554368	66	4477
2026-01-18 06:01:15.26	291.22	5.64	-47.5	-49.3	21.8	6.01e-01	0	35	0	348127232	66	4470
2026-01-18 06:01:16.27	291.12	5.58	-47.5	-49.2	21.9	6.05e-01	0	35	0	350224384	66	4420
2026-01-18 06:01:17.28	291.02	5.52	-47.4	-49.2	21.9	6.04e-01	0	35	0	351797248	66	4414
2026-01-18 06:01:18.29	290.92	5.45	-47.5	-49.2	21.9	6.05e-01	0	35	0	353894400	66	4424
2026-01-18 06:01:19.29	290.82	5.39	-47.6	-49.4	21.7	6.02e-01	0	35	0	355991552	66	4510
2026-01-18 06:01:20.30	290.72	5.33	-47.7	-49.5	21.6	6.05e-01	0	35	0	357564416	66	4572
2026-01-18 06:01:21.31	290.62	5.27	-47.8	-49.7	21.3	6.03e-01	0	35	0	359661568	66	4698
2026-01-18 06:01:22.32	290.52	5.20	-47.8	-49.7	21.3	6.05e-01	0	35	0	361758720	66	4685
2026-01-18 06:01:23.33	290.42	5.14	-47.9	-49.8	21.2	6.03e-01	0	35	0	363331584	66	4754
2026-01-18 06:01:24.33	290.32	5.08	-48.1	-50.0	21.1	6.05e-01	0	35	0	365428736	66	4849
2026-01-18 06:01:25.34	290.22	5.02	-48.1	-50.0	21.1	6.03e-01	0	35	0	367001600	66	4870
2026-01-18 06:01:26.35	290.13	4.95	-54.4	-71.9	3.8	7.43e-01	0	35	104	368050176	79	28369
2026-01-18 06:01:27.36	290.03	4.89	-54.7	-72.5	3.8	7.44e-01	0	35	104	368050176	79	30442
2026-01-18 06:01:28.36	289.94	4.83	-54.8	-72.5	3.8	7.43e-01	0	35	104	368050176	80	28876
2026-01-18 06:01:29.37	289.84	4.77	-54.9	-72.7	3.8	7.45e-01	0	35	104	368050176	80	29472
2026-01-18 06:01:30.38	289.74	4.70	-55.0	-72.7	3.8	7.47e-01	0	35	104	368050176	80	29352
2026-01-18 06:01:31.39	289.65	4.64	-55.1	-72.8	3.8	7.42e-01	0	35	104	368050176	80	30018
2026-01-18 06:01:32.39	289.56	4.58	-55.1	-72.9	3.8	7.44e-01	0	35	104	368050176	80	30141
2026-01-18 06:01:33.40	289.46	4.52	-55.2	-73.0	3.8	7.44e-01	0	35	104	368050176	80	30382
2026-01-18 06:01:34.41	289.37	4.46	-55.2	-73.0	3.8	7.46e-01	0	35	104	368050176	80	30556
2026-01-18 06:01:35.42	289.28	4.40	-55.2	-73.0	3.8	7.47e-01	0	35	104	368050176	81	28984
2026-01-18 06:01:36.42	289.18	4.34	-55.3	-73.1	3.8	7.44e-01	0	35	104	368050176	81	29213
2026-01-18 06:01:37.43	289.09	4.27	-55.3	-73.1	3.8	7.44e-01	0	35	104	368050176	81	29256
2026-01-18 06:01:38.45	289.00	4.21	-55.4	-73.2	3.8	7.44e-01	0	35	104	368050176	81	29365
2026-01-18 06:01:39.45	288.91	4.15	-55.4	-73.2	3.8	7.44e-01	0	35	104	368050176	81	29460
2026-01-18 06:01:40.46	288.82	4.09	-55.4	-73.2	3.8	7.48e-01	0	35	104	368050176	81	29494
2026-01-18 06:01:41.47	288.73	4.03	-55.4	-73.2	3.8	7.45e-01	0	35	104	368050176	81	29659
2026-01-18 06:01:42.48	288.64	3.97	-55.4	-73.3	3.8	7.46e-01	0	35	104	368050176	81	29715
2026-01-18 06:01:43.48	288.55	3.91	-55.4	-73.3	3.8	7.44e-01	0	35	104	368050176	81	29737
2026-01-18 06:01:44.49	288.46	3.85	-55.5	-73.3	3.8	7.43e-01	0	35	104	368050176	81	29812
2026-01-18 06:01:45.50	288.37	3.79	-55.5	-73.3	3.8	7.45e-01	0	35	104	368050176	81	29862
2026-01-18 06:01:46.51	288.28	3.73	-55.5	-73.3	3.8	7.46e-01	0	35	104	368050176	81	29938
2026-01-18 06:01:47.52	288.19	3.67	-55.5	-73.4	3.8	7.46e-01	0	35	104	368050176	81	30053
2026-01-18 06:01:48.53	288.11	3.60	-55.5	-73.3	3.8	7.43e-01	0	35	104	368050176	81	29987
2026-01-18 06:01:49.53	288.02	3.55	-55.5	-73.4	3.8	7.48e-01	0	35	104	368050176	81	30111
2026-01-18 06:01:50.54	287.93	3.48	-55.5	-73.4	3.8	7.45e-01	0	35	104	368050176	81	30097
2026-01-18 06:01:51.55	287.85	3.42	-55.5	-73.4	3.8	7.44e-01	0	36	104	368050176	81	30059
2026-01-18 06:01:52.55	287.76	3.37	-55.5	-73.4	3.8	7.43e-01	0	35	104	368050176	81	30099
2026-01-18 06:01:53.56	287.68	3.31	-55.5	-73.3	3.8	7.46e-01	0	36	104	368050176	81	30022
2026-01-18 06:01:54.57	287.59	3.25	-55.5	-73.3	3.8	7.43e-01	0	35	104	368050176	81	29944
2026-01-18 06:01:55.58	287.51	3.19	-55.5	-73.3	3.8	7.45e-01	0	36	104	368050176	81	29932
2026-01-18 06:01:56.59	287.42	3.13	-55.5	-73.3	3.8	7.43e-01	0	36	104	368050176	81	29843
2026-01-18 06:01:57.60	287.34	3.07	-55.5	-73.3	3.8	7.43e-01	0	35	104	368050176	81	29841
2026-01-18 06:01:58.60	287.26	3.01	-55.4	-73.3	3.8	7.47e-01	0	35	104	368050176	81	29751
2026-01-18 06:01:59.61	287.17	2.95	-55.4	-73.3	3.8	7.45e-01	0	35	104	368050176	81	29705
2026-01-18 06:02:00.62	287.09	2.89	-55.4	-73.2	3.8	7.43e-01	0	35	104	368050176	81	29601
2026-01-18 06:02:01.63	287.01	2.83	-55.4	-73.3	3.8	7.45e-01	0	35	104	368050176	81	29690
2026-01-18 06:02:02.64	286.93	2.77	-55.4	-73.2	3.8	7.46e-01	0	36	104	368050176	81	29567
2026-01-18 06:02:03.64	286.84	2.71	-55.4	-73.3	3.8	7.45e-01	0	36	104	368050176	81	29754
2026-01-18 06:02:04.65	286.76	2.65	-55.4	-73.3	3.8	7.47e-01	0	35	104	368050176	81	29806
2026-01-18 06:02:05.66	286.68	2.59	-55.5	-73.3	3.8	7.47e-01	0	35	104	368050176	81	29837
2026-01-18 06:02:06.67	286.60	2.53	-55.4	-73.3	3.8	7.48e-01	0	36	104	368050176	81	29709
2026-01-18 06:02:07.67	286.52	2.48	-55.4	-73.2	3.8	7.44e-01	0	35	104	368050176	81	29682
2026-01-18 06:02:08.68	286.44	2.42	-55.4	-73.2	3.8	7.45e-01	0	36	104	368050176	81	29595
2026-01-18 06:02:09.69	286.36	2.36	-55.4	-73.2	3.8	7.44e-01	0	35	104	368050176	81	29636
2026-01-18 06:02:10.70	286.28	2.30	-55.4	-73.2	3.8	7.44e-01	0	35	104	368050176	81	29642
2026-01-18 06:02:11.71	286.21	2.24	-55.4	-73.2	3.8	7.47e-01	0	35	104	368050176	81	29567
2026-01-18 06:02:12.71	286.13	2.18	-55.4	-73.2	3.8	7.44e-01	0	35	104	368050176	81	29581
2026-01-18 06:02:13.72	286.05	2.13	-55.4	-73.2	3.8	7.40e-01	0	35	104	368050176	81	29538
2026-01-18 06:02:14.73	285.97	2.07	-55.4	-73.2	3.8	7.45e-01	0	35	104	368050176	81	29496
2026-01-18 06:02:15.74	285.90	2.01	-55.4	-73.2	3.8	7.44e-01	0	35	104	368050176	81	29505
2026-01-18 06:02:16.74	285.82	1.95	-55.4	-73.2	3.8	7.44e-01	0	35	104	368050176	81	29466
2026-01-18 06:02:17.75	285.74	1.89	-55.4	-73.2	3.8	7.44e-01	0	35	104	368050176	81	29382

#Closed at: 2026-01-18 06:02:18
#Recorded file [368 MB]: D:/lorett/data/31041_260118_085116.dat