passes_logs/2026/01/18/R3.2S_Murmansk/R3.2S_Murmansk__20260118_071341_NOAA_20_JPSS-1_rec.log

#Pass ID: 20260118_071341_NOAA 20 (JPSS-1)
#Satellite: NOAA 20 (JPSS-1)
#Configuration: NOAA 20
#almurnet v.1.7.20251203
#Start time: 2026-01-18 07:13:40

#Version: 2.2.20231116
#Station: R3.2S_Murmansk
#Location: 33.079688 lon 68.888172 lat
#TLE: 1 43013U 17073A   26017.58553584  .00000066  00000+0  52288-4 0  9998
#TLE: 2 43013  98.7639 318.4977 0001406  35.6039 324.5231 14.19536575423107

#Time	Az	El	Level	Level2	SNR	BER	BlckErr	Temp	State	Recorded	gain1	gain2
2026-01-18 07:13:40.92	99.67	1.97	-53.8	-68.8	3.8	1.49e+00	0	34	0	0	78	21204
2026-01-18 07:13:41.92	99.62	2.03	-53.8	-68.9	3.8	1.49e+00	0	34	104	0	78	21302
2026-01-18 07:13:42.93	99.58	2.09	-53.8	-68.8	3.8	1.49e+00	0	34	104	0	78	21190
2026-01-18 07:13:43.94	99.53	2.15	-53.8	-68.8	3.8	1.49e+00	0	34	104	0	78	21191
2026-01-18 07:13:44.94	99.48	2.21	-53.8	-68.8	3.8	1.49e+00	0	34	104	0	78	21258
2026-01-18 07:13:45.95	99.43	2.27	-53.8	-68.8	3.8	1.49e+00	0	34	104	0	78	21188
2026-01-18 07:13:46.96	99.38	2.33	-53.8	-68.8	3.8	1.49e+00	0	34	104	0	78	21213
2026-01-18 07:13:47.97	99.33	2.39	-53.8	-68.8	3.8	1.49e+00	0	34	104	0	78	21259
2026-01-18 07:13:48.97	99.28	2.45	-53.8	-68.8	3.8	1.49e+00	0	34	104	0	78	21112
2026-01-18 07:13:49.98	99.23	2.52	-53.8	-68.8	3.8	1.49e+00	0	34	104	0	78	21151
2026-01-18 07:13:50.99	99.18	2.58	-53.8	-68.8	3.8	1.49e+00	0	34	104	0	78	21149
2026-01-18 07:13:52.00	99.14	2.64	-53.8	-68.8	3.8	1.49e+00	0	34	104	0	78	21215
2026-01-18 07:13:53.01	99.08	2.70	-53.8	-68.8	3.8	1.49e+00	0	34	104	0	78	21177
2026-01-18 07:13:54.01	99.04	2.76	-53.8	-68.8	3.8	1.49e+00	0	34	104	0	78	21158
2026-01-18 07:13:55.02	98.98	2.83	-53.8	-68.8	3.8	1.49e+00	0	35	104	0	78	21117
2026-01-18 07:13:56.03	98.93	2.89	-53.8	-68.8	3.8	1.49e+00	0	35	104	0	78	21168
2026-01-18 07:13:57.04	98.88	2.95	-53.8	-68.8	3.8	1.49e+00	0	34	104	0	78	21094
2026-01-18 07:13:58.05	98.83	3.01	-53.8	-68.8	3.8	1.49e+00	0	34	104	0	78	21124
2026-01-18 07:13:59.05	98.78	3.07	-53.8	-68.8	3.8	1.49e+00	0	35	104	0	78	21074
2026-01-18 07:14:00.06	98.73	3.14	-53.8	-68.8	3.8	1.49e+00	0	35	104	0	78	21159
2026-01-18 07:14:01.07	98.68	3.20	-53.8	-68.8	3.8	1.49e+00	0	35	104	0	78	21127
2026-01-18 07:14:02.08	98.62	3.26	-53.8	-68.8	3.8	1.49e+00	0	34	104	0	78	21145
2026-01-18 07:14:03.09	98.57	3.33	-53.8	-68.8	3.8	1.49e+00	0	35	104	0	78	21123
2026-01-18 07:14:04.09	98.52	3.39	-53.8	-68.8	3.8	1.49e+00	0	35	104	0	78	21134
2026-01-18 07:14:05.10	98.47	3.45	-53.8	-68.8	3.8	1.49e+00	0	35	104	0	78	21128
2026-01-18 07:14:06.11	98.41	3.52	-53.8	-68.8	3.8	1.49e+00	0	35	104	0	78	21095
2026-01-18 07:14:07.12	98.36	3.58	-53.8	-68.8	3.8	1.49e+00	0	35	104	0	78	21127
2026-01-18 07:14:08.12	98.31	3.64	-53.8	-68.8	3.8	1.49e+00	0	35	104	0	78	21109
2026-01-18 07:14:09.13	98.25	3.71	-53.8	-68.8	3.8	1.49e+00	0	35	104	0	78	21082
2026-01-18 07:14:10.14	98.20	3.77	-53.8	-68.8	3.8	1.49e+00	0	35	104	0	78	21094
2026-01-18 07:14:11.15	98.15	3.84	-53.8	-68.8	3.8	1.49e+00	0	35	104	0	78	21040
2026-01-18 07:14:12.15	98.09	3.90	-53.8	-68.8	3.8	1.49e+00	0	35	104	0	78	21063
2026-01-18 07:14:13.16	98.04	3.96	-53.8	-68.8	3.8	1.49e+00	0	35	104	0	78	21073
2026-01-18 07:14:14.17	97.98	4.03	-53.8	-68.8	3.8	1.49e+00	0	35	104	0	78	21096
2026-01-18 07:14:15.18	97.93	4.09	-53.8	-68.8	3.8	1.49e+00	0	35	104	0	78	21112
2026-01-18 07:14:16.19	97.87	4.16	-53.8	-68.8	3.8	1.49e+00	0	35	104	0	78	21074
2026-01-18 07:14:17.20	97.81	4.22	-53.8	-68.8	3.8	1.49e+00	0	35	104	0	78	21025
2026-01-18 07:14:18.21	97.76	4.29	-53.8	-68.8	3.8	1.49e+00	0	35	104	0	78	21080
2026-01-18 07:14:19.22	97.70	4.35	-53.8	-68.8	3.8	1.49e+00	0	35	104	0	78	21058
2026-01-18 07:14:20.23	97.64	4.42	-53.8	-68.8	3.8	1.49e+00	0	35	104	0	78	21083
2026-01-18 07:14:21.23	97.59	4.48	-53.8	-68.8	3.8	1.49e+00	0	35	104	0	78	21116
2026-01-18 07:14:22.24	97.53	4.55	-53.8	-68.8	3.8	1.49e+00	0	35	104	0	78	21067
2026-01-18 07:14:23.25	97.47	4.61	-53.8	-68.8	3.8	1.49e+00	0	35	104	0	78	21090
2026-01-18 07:14:24.26	97.42	4.68	-53.8	-68.8	3.8	1.49e+00	0	35	104	0	78	21091
2026-01-18 07:14:25.26	97.36	4.75	-53.8	-68.8	3.8	1.49e+00	0	35	104	0	78	21067
2026-01-18 07:14:26.27	97.30	4.81	-53.8	-68.8	3.8	1.49e+00	0	35	104	0	78	21086
2026-01-18 07:14:27.28	97.24	4.88	-53.8	-68.8	3.8	1.49e+00	0	35	104	0	78	21097
2026-01-18 07:14:28.29	97.18	4.94	-53.8	-68.8	3.8	1.49e+00	0	35	104	0	78	21089
2026-01-18 07:14:29.30	97.12	5.01	-53.8	-68.8	3.8	1.49e+00	0	35	104	0	78	21041
2026-01-18 07:14:30.31	97.06	5.08	-53.8	-68.8	3.8	1.49e+00	0	35	104	0	78	21120
2026-01-18 07:14:31.32	97.00	5.14	-53.8	-68.8	3.8	1.49e+00	0	35	104	0	78	21074
2026-01-18 07:14:32.33	96.94	5.21	-53.8	-68.8	3.8	1.49e+00	0	35	104	0	78	21049
2026-01-18 07:14:33.33	96.88	5.28	-53.8	-68.8	3.8	1.49e+00	0	35	104	0	78	21078
2026-01-18 07:14:34.34	96.82	5.34	-53.8	-68.8	3.8	1.49e+00	0	35	104	0	78	21114
2026-01-18 07:14:35.35	96.76	5.41	-53.8	-68.8	3.8	1.49e+00	0	35	104	0	78	21147
2026-01-18 07:14:36.36	96.70	5.48	-53.8	-68.8	3.8	1.49e+00	0	35	104	0	78	21040
2026-01-18 07:14:37.37	96.64	5.55	-53.8	-68.8	3.8	1.49e+00	0	35	104	0	78	21055
2026-01-18 07:14:38.37	96.58	5.61	-53.8	-68.8	3.8	1.49e+00	0	35	104	0	78	21079
2026-01-18 07:14:39.38	96.52	5.68	-53.8	-68.8	3.8	1.49e+00	0	35	104	0	78	21110
2026-01-18 07:14:40.39	96.45	5.75	-53.8	-68.8	3.8	1.49e+00	0	35	104	0	78	21074
2026-01-18 07:14:41.40	96.39	5.82	-53.8	-68.8	3.8	1.49e+00	0	35	104	0	78	21069
2026-01-18 07:14:42.41	96.33	5.89	-53.8	-68.8	3.8	1.49e+00	0	35	104	0	78	21084
2026-01-18 07:14:43.42	96.27	5.96	-53.7	-68.8	3.8	1.49e+00	0	35	104	0	78	21036
2026-01-18 07:14:44.43	96.20	6.02	-53.8	-68.8	3.8	1.49e+00	0	35	104	0	78	21088
2026-01-18 07:14:45.44	96.14	6.09	-53.8	-68.8	3.8	1.49e+00	0	35	104	0	78	21065
2026-01-18 07:14:46.45	96.07	6.16	-53.8	-68.8	3.8	1.49e+00	0	35	104	0	78	21113
2026-01-18 07:14:47.45	96.01	6.23	-53.8	-68.8	3.8	1.49e+00	0	35	104	0	78	21102
2026-01-18 07:14:48.46	95.94	6.30	-53.8	-68.8	3.8	1.49e+00	0	35	104	0	78	21031
2026-01-18 07:14:49.47	95.88	6.37	-53.7	-68.8	3.8	1.49e+00	0	35	104	0	78	21068
2026-01-18 07:14:50.48	95.81	6.44	-53.8	-68.8	3.8	1.49e+00	0	35	104	0	78	21073
2026-01-18 07:14:51.49	95.75	6.51	-53.8	-68.8	3.8	1.49e+00	0	36	104	0	78	21058
2026-01-18 07:14:52.49	95.68	6.58	-53.8	-68.8	3.8	1.49e+00	0	35	104	0	78	21048
2026-01-18 07:14:53.50	95.62	6.65	-53.8	-68.8	3.8	1.49e+00	0	35	104	0	78	21095
2026-01-18 07:14:54.51	95.55	6.72	-53.8	-68.8	3.8	1.49e+00	0	35	104	0	78	21071
2026-01-18 07:14:55.52	95.48	6.79	-53.7	-68.8	3.8	1.49e+00	0	36	104	0	78	21064
2026-01-18 07:14:56.53	95.41	6.86	-53.8	-68.8	3.8	1.49e+00	0	35	104	0	78	21086
2026-01-18 07:14:57.53	95.35	6.93	-53.8	-68.8	3.8	1.49e+00	0	35	104	0	78	21067
2026-01-18 07:14:58.54	95.28	7.00	-53.8	-68.8	3.8	1.49e+00	0	36	104	0	78	21103
2026-01-18 07:14:59.55	95.21	7.07	-53.8	-68.8	3.8	1.49e+00	0	36	104	0	78	21048
2026-01-18 07:15:00.56	95.14	7.14	-53.8	-68.8	3.8	1.49e+00	0	35	104	0	78	21088
2026-01-18 07:15:01.57	95.07	7.21	-53.8	-68.8	3.8	1.49e+00	0	36	104	0	78	21063
2026-01-18 07:15:02.58	95.00	7.28	-53.8	-68.8	3.8	1.49e+00	0	35	104	0	78	21068
2026-01-18 07:15:03.59	94.93	7.35	-53.8	-68.8	3.8	1.49e+00	0	35	104	0	78	21026
2026-01-18 07:15:04.59	94.86	7.43	-53.8	-68.8	3.8	1.49e+00	0	36	104	0	78	21071
2026-01-18 07:15:05.60	94.79	7.50	-53.8	-68.8	3.8	1.49e+00	0	36	104	0	78	21095
2026-01-18 07:15:06.61	94.72	7.57	-53.8	-68.8	3.8	1.49e+00	0	36	104	0	78	21107
2026-01-18 07:15:07.62	94.65	7.64	-53.8	-68.7	3.8	1.49e+00	0	36	104	0	78	21004
2026-01-18 07:15:08.62	94.58	7.71	-53.7	-68.7	3.8	1.49e+00	0	36	104	0	78	21007
2026-01-18 07:15:09.63	94.50	7.79	-53.7	-68.7	3.8	1.49e+00	0	35	104	0	78	20989
2026-01-18 07:15:10.64	94.43	7.86	-53.7	-68.8	3.8	1.49e+00	0	35	104	0	78	21060
2026-01-18 07:15:11.65	94.36	7.93	-53.7	-68.8	3.8	1.49e+00	0	36	104	0	78	21049
2026-01-18 07:15:12.66	94.29	8.00	-53.7	-68.7	3.8	1.49e+00	0	35	104	0	78	21016
2026-01-18 07:15:13.67	94.21	8.08	-53.7	-68.8	3.8	1.49e+00	0	35	104	0	78	21043
2026-01-18 07:15:14.67	94.14	8.15	-53.7	-68.7	3.8	1.49e+00	0	35	104	0	78	20999
2026-01-18 07:15:15.68	94.06	8.22	-53.7	-68.8	3.8	1.49e+00	0	36	104	0	78	21033
2026-01-18 07:15:16.69	93.99	8.30	-53.7	-68.8	3.8	1.49e+00	0	36	104	0	78	21078
2026-01-18 07:15:17.70	93.91	8.37	-53.8	-68.8	3.8	1.49e+00	0	36	104	0	78	21077
2026-01-18 07:15:18.71	93.84	8.44	-53.7	-68.8	3.8	1.49e+00	0	36	104	0	78	21079
2026-01-18 07:15:19.71	93.76	8.52	-53.7	-68.8	3.8	1.49e+00	0	36	104	0	78	21071
2026-01-18 07:15:20.72	93.69	8.59	-53.7	-68.8	3.8	1.49e+00	0	36	104	0	78	21036
2026-01-18 07:15:21.73	93.61	8.67	-53.7	-68.7	3.8	1.49e+00	0	36	104	0	78	21016
2026-01-18 07:15:22.74	93.53	8.74	-53.8	-68.8	3.8	1.49e+00	0	36	104	0	78	21020
2026-01-18 07:15:23.75	93.45	8.82	-53.7	-68.8	3.8	1.49e+00	0	36	104	0	78	21045
2026-01-18 07:15:24.75	93.38	8.89	-53.7	-68.8	3.8	1.49e+00	0	36	104	0	78	21042
2026-01-18 07:15:25.76	93.30	8.97	-53.7	-68.8	3.8	1.49e+00	0	36	104	0	78	21073
2026-01-18 07:15:26.77	93.22	9.04	-53.7	-68.7	3.8	1.49e+00	0	36	104	0	78	20961
2026-01-18 07:15:27.77	93.14	9.12	-53.7	-68.7	3.8	1.49e+00	0	36	104	0	78	20991
2026-01-18 07:15:28.78	93.06	9.19	-53.7	-68.8	3.8	1.49e+00	0	36	104	0	78	21047
2026-01-18 07:15:29.79	92.98	9.27	-53.7	-68.8	3.8	1.49e+00	0	36	104	0	78	21032
2026-01-18 07:15:30.80	92.90	9.34	-53.7	-68.8	3.8	1.49e+00	0	36	104	0	78	21070
2026-01-18 07:15:31.81	92.82	9.42	-53.7	-68.7	3.8	1.49e+00	0	36	104	0	78	20973
2026-01-18 07:15:32.81	92.74	9.50	-53.7	-68.7	3.8	1.49e+00	0	36	104	0	78	20989
2026-01-18 07:15:33.82	92.66	9.57	-53.7	-68.7	3.8	1.49e+00	0	36	104	0	78	20980
2026-01-18 07:15:34.83	92.57	9.65	-53.7	-68.8	3.8	1.49e+00	0	36	104	0	78	21041
2026-01-18 07:15:35.84	92.49	9.73	-53.7	-68.8	3.8	1.49e+00	0	36	104	0	78	21020
2026-01-18 07:15:36.85	92.41	9.80	-53.7	-68.7	3.8	1.49e+00	0	36	104	0	78	21009
2026-01-18 07:15:37.85	92.32	9.88	-53.7	-68.8	3.8	1.49e+00	0	36	104	0	78	21075
2026-01-18 07:15:38.86	92.24	9.96	-53.7	-68.8	3.8	1.49e+00	0	36	104	0	78	21024
2026-01-18 07:15:39.87	92.15	10.03	-53.7	-68.8	3.8	1.49e+00	0	36	104	0	78	21028
2026-01-18 07:15:40.88	92.07	10.11	-53.7	-68.7	3.8	1.49e+00	0	36	104	0	78	21017
2026-01-18 07:15:41.89	91.98	10.19	-53.7	-68.8	3.8	1.49e+00	0	36	104	0	78	21049
2026-01-18 07:15:42.89	91.90	10.27	-53.7	-68.7	3.8	1.49e+00	0	36	104	0	78	21012
2026-01-18 07:15:43.90	91.81	10.35	-53.8	-68.8	3.8	1.49e+00	0	36	104	0	78	21066
2026-01-18 07:15:44.91	91.72	10.42	-53.7	-68.8	3.8	1.49e+00	0	36	104	0	78	21024
2026-01-18 07:15:45.92	91.64	10.50	-53.7	-68.7	3.8	1.49e+00	0	36	104	0	78	21009
2026-01-18 07:15:46.93	91.55	10.58	-53.7	-68.7	3.8	1.49e+00	0	36	104	0	78	21003
2026-01-18 07:15:47.94	91.46	10.66	-53.7	-68.8	3.8	1.49e+00	0	36	104	0	78	21021
2026-01-18 07:15:48.95	91.37	10.74	-53.7	-68.7	3.8	1.49e+00	0	36	104	0	78	20998
2026-01-18 07:15:49.95	91.28	10.82	-53.7	-68.7	3.8	1.49e+00	0	36	104	0	78	21010
2026-01-18 07:15:50.96	91.19	10.90	-53.7	-68.7	3.8	1.49e+00	0	36	104	0	78	20965
2026-01-18 07:15:51.97	91.10	10.98	-53.7	-68.7	3.8	1.49e+00	0	36	104	0	78	21010
2026-01-18 07:15:52.98	91.01	11.06	-53.7	-68.7	3.8	1.49e+00	0	36	104	0	78	20991
2026-01-18 07:15:53.99	90.92	11.14	-53.7	-68.8	3.8	1.49e+00	0	36	104	0	78	21024
2026-01-18 07:15:54.99	90.83	11.22	-53.7	-68.8	3.8	1.49e+00	0	36	104	0	78	21027
2026-01-18 07:15:56.00	90.73	11.30	-53.7	-68.7	3.8	1.49e+00	0	36	104	0	78	21002
2026-01-18 07:15:57.01	90.64	11.38	-53.7	-68.8	3.8	1.49e+00	0	36	104	0	78	21018
2026-01-18 07:15:58.02	90.55	11.46	-53.7	-68.7	3.8	1.49e+00	0	36	104	0	78	20960
2026-01-18 07:15:59.02	90.45	11.54	-53.7	-68.7	3.8	1.49e+00	0	36	104	0	78	20966
2026-01-18 07:16:00.03	90.36	11.62	-53.7	-68.7	3.8	1.49e+00	0	36	104	0	78	20979
2026-01-18 07:16:01.04	90.26	11.70	-53.7	-68.8	3.8	1.49e+00	0	36	104	0	78	21027
2026-01-18 07:16:02.05	90.17	11.79	-53.7	-68.7	3.8	1.49e+00	0	36	104	0	78	20986
2026-01-18 07:16:03.05	90.07	11.87	-53.7	-68.7	3.8	1.49e+00	0	36	104	0	78	20986
2026-01-18 07:16:04.06	89.98	11.95	-53.7	-68.7	3.8	1.49e+00	0	36	104	0	78	20955
2026-01-18 07:16:05.07	89.88	12.03	-53.7	-68.7	3.8	1.49e+00	0	36	104	0	78	20952
2026-01-18 07:16:06.08	89.78	12.11	-53.7	-68.7	3.8	1.49e+00	0	36	104	0	78	21012
2026-01-18 07:16:07.09	89.68	12.20	-53.7	-68.7	3.8	1.49e+00	0	36	104	0	78	20962
2026-01-18 07:16:08.09	89.58	12.28	-53.7	-68.7	3.8	1.49e+00	0	36	104	0	78	20999
2026-01-18 07:16:09.10	89.48	12.36	-53.7	-68.7	3.8	1.49e+00	0	36	104	0	78	21012
2026-01-18 07:16:10.11	89.38	12.44	-53.7	-68.7	3.8	1.49e+00	0	36	104	0	78	20992
2026-01-18 07:16:11.12	89.28	12.53	-53.7	-68.7	3.8	1.49e+00	0	36	104	0	78	21004
2026-01-18 07:16:12.13	89.18	12.61	-53.7	-68.7	3.8	1.49e+00	0	36	104	0	78	20980
2026-01-18 07:16:13.13	89.08	12.69	-53.7	-68.7	3.8	1.49e+00	0	36	104	0	78	20934
2026-01-18 07:16:14.14	88.98	12.78	-53.7	-68.7	3.8	1.49e+00	0	36	104	0	78	20962
2026-01-18 07:16:15.15	88.87	12.86	-53.7	-68.7	3.8	1.49e+00	0	36	104	0	78	20942
2026-01-18 07:16:16.16	88.77	12.95	-53.7	-68.7	3.8	1.49e+00	0	36	104	0	78	20988
2026-01-18 07:16:17.16	88.67	13.03	-53.7	-68.7	3.8	1.49e+00	0	36	104	0	78	20982
2026-01-18 07:16:18.17	88.56	13.12	-53.7	-68.7	3.8	1.49e+00	0	36	104	0	78	20961
2026-01-18 07:16:19.18	88.45	13.20	-53.7	-68.7	3.8	1.49e+00	0	36	104	0	78	21017
2026-01-18 07:16:20.19	88.35	13.29	-53.7	-68.7	3.8	1.49e+00	0	36	104	0	78	20960
2026-01-18 07:16:21.20	88.24	13.37	-53.7	-68.7	3.8	1.49e+00	0	36	104	0	78	20990
2026-01-18 07:16:22.21	88.13	13.46	-53.7	-68.7	3.8	1.49e+00	0	36	104	0	78	20955
2026-01-18 07:16:23.21	88.03	13.54	-53.7	-68.7	3.8	1.49e+00	0	36	104	0	78	20964
2026-01-18 07:16:24.22	87.92	13.63	-53.7	-68.8	3.8	1.49e+00	0	36	104	0	78	21030
2026-01-18 07:16:25.23	87.81	13.71	-53.7	-68.8	3.8	1.49e+00	0	36	104	0	78	21052
2026-01-18 07:16:26.24	87.70	13.80	-53.7	-68.7	3.8	1.49e+00	0	36	104	0	78	20961
2026-01-18 07:16:27.25	87.59	13.89	-53.7	-68.7	3.8	1.49e+00	0	36	104	0	78	20911
2026-01-18 07:16:28.25	87.47	13.97	-53.7	-68.7	3.8	1.49e+00	0	36	104	0	78	20970
2026-01-18 07:16:29.26	87.36	14.06	-53.7	-68.7	3.8	1.49e+00	0	36	104	0	78	20975
2026-01-18 07:16:30.27	87.25	14.15	-53.7	-68.7	3.8	1.49e+00	0	36	104	0	78	21009
2026-01-18 07:16:31.28	87.14	14.23	-53.7	-68.7	3.8	1.49e+00	0	36	104	0	78	20931
2026-01-18 07:16:32.29	87.02	14.32	-53.7	-68.7	3.8	1.49e+00	0	36	104	0	78	20958
2026-01-18 07:16:33.29	86.91	14.41	-53.7	-68.7	3.8	1.49e+00	0	36	104	0	78	20992
2026-01-18 07:16:34.30	86.79	14.50	-53.7	-68.7	3.8	1.49e+00	0	36	104	0	78	20924
2026-01-18 07:16:35.31	86.67	14.59	-53.7	-68.7	3.8	1.49e+00	0	36	104	0	78	20982
2026-01-18 07:16:36.32	86.56	14.67	-53.7	-68.7	3.8	1.49e+00	0	36	104	0	78	20994
2026-01-18 07:16:37.33	86.44	14.76	-53.7	-68.7	3.8	1.49e+00	0	36	104	0	78	20981
2026-01-18 07:16:38.33	86.32	14.85	-53.7	-68.7	3.8	1.49e+00	0	36	104	0	78	20951
2026-01-18 07:16:39.34	86.20	14.94	-53.7	-68.7	3.8	1.49e+00	0	36	104	0	78	20963
2026-01-18 07:16:40.35	86.08	15.03	-53.7	-68.7	3.8	1.49e+00	0	36	104	0	78	20894
2026-01-18 07:16:41.35	85.96	15.12	-53.7	-68.7	3.8	1.49e+00	0	36	104	0	78	21011
2026-01-18 07:16:42.36	85.84	15.21	-53.7	-68.7	3.8	1.49e+00	0	36	104	0	78	20998
2026-01-18 07:16:43.37	85.72	15.30	-53.7	-68.8	3.8	1.49e+00	0	36	104	0	78	21075
2026-01-18 07:16:44.38	85.60	15.39	-53.7	-68.7	3.8	1.49e+00	0	36	104	0	78	20985
2026-01-18 07:16:45.39	85.47	15.48	-53.7	-68.8	3.8	1.49e+00	0	36	104	0	78	21023
2026-01-18 07:16:46.39	85.35	15.57	-53.8	-68.8	3.8	1.49e+00	0	36	104	0	78	21199
2026-01-18 07:16:47.40	85.22	15.66	-53.8	-68.8	3.8	1.49e+00	0	36	104	0	78	21100
2026-01-18 07:16:48.41	85.10	15.75	-53.7	-68.8	3.8	1.49e+00	0	36	104	0	78	21039
2026-01-18 07:16:49.42	84.97	15.84	-53.8	-68.8	3.8	1.49e+00	0	36	104	0	78	21074
2026-01-18 07:16:50.43	84.84	15.93	-53.8	-68.8	3.8	1.49e+00	0	36	104	0	78	21052
2026-01-18 07:16:51.44	84.71	16.02	-53.8	-68.8	3.8	1.49e+00	0	36	104	0	78	21057
2026-01-18 07:16:52.45	84.59	16.11	-53.7	-68.8	3.8	1.49e+00	0	36	104	0	78	21052
2026-01-18 07:16:53.45	84.46	16.20	-53.8	-68.8	3.8	1.49e+00	0	36	104	0	78	21028
2026-01-18 07:16:54.46	84.33	16.29	-53.7	-68.8	3.8	1.49e+00	0	36	104	0	78	21057
2026-01-18 07:16:55.47	84.19	16.39	-53.7	-68.8	3.8	1.49e+00	0	36	104	0	78	21032
2026-01-18 07:16:56.48	84.06	16.48	-53.7	-68.8	3.8	1.49e+00	0	36	104	0	78	21020
2026-01-18 07:16:57.49	83.93	16.57	-53.7	-68.8	3.8	1.49e+00	0	36	104	0	78	21106
2026-01-18 07:16:58.49	83.79	16.66	-53.7	-68.8	3.8	1.49e+00	0	36	104	0	78	21060
2026-01-18 07:16:59.50	83.66	16.76	-53.7	-68.8	3.8	1.49e+00	0	36	104	0	78	21064
2026-01-18 07:17:00.51	83.52	16.85	-53.8	-68.8	3.8	1.49e+00	0	36	104	0	78	21073
2026-01-18 07:17:01.52	83.39	16.94	-53.8	-68.8	3.8	1.49e+00	0	36	104	0	78	21018
2026-01-18 07:17:02.53	83.25	17.04	-53.7	-68.8	3.8	1.49e+00	0	36	104	0	78	21053
2026-01-18 07:17:03.54	83.11	17.13	-53.7	-68.8	3.8	1.49e+00	0	36	104	0	78	21038
2026-01-18 07:17:04.54	82.97	17.22	-53.7	-68.8	3.8	1.49e+00	0	36	104	0	78	21056
2026-01-18 07:17:05.55	82.83	17.32	-53.7	-68.8	3.8	1.49e+00	0	36	104	0	78	21057
2026-01-18 07:17:06.56	82.69	17.41	-53.7	-68.8	3.8	1.49e+00	0	36	104	0	78	21034
2026-01-18 07:17:07.57	82.55	17.50	-53.8	-68.8	3.8	1.49e+00	0	36	104	0	78	21055
2026-01-18 07:17:08.58	82.41	17.60	-53.7	-68.8	3.8	1.49e+00	0	36	104	0	78	21022
2026-01-18 07:17:09.59	82.26	17.69	-53.7	-68.8	3.8	1.49e+00	0	36	104	0	78	21028
2026-01-18 07:17:10.59	82.12	17.79	-53.7	-68.8	3.8	1.49e+00	0	36	104	0	78	21039
2026-01-18 07:17:11.60	81.97	17.88	-53.7	-68.8	3.8	1.49e+00	0	36	104	0	78	21082
2026-01-18 07:17:12.61	81.83	17.98	-53.7	-68.8	3.8	1.49e+00	0	36	104	0	78	21020
2026-01-18 07:17:13.62	81.68	18.07	-53.7	-68.7	3.8	1.49e+00	0	36	104	0	78	21014
2026-01-18 07:17:14.63	81.53	18.17	-53.7	-68.7	3.8	1.49e+00	0	36	104	0	78	21010
2026-01-18 07:17:15.63	81.38	18.26	-53.7	-68.7	3.8	1.49e+00	0	36	104	0	78	20972
2026-01-18 07:17:16.64	81.23	18.36	-53.7	-68.7	3.8	1.49e+00	0	36	104	0	78	20989
2026-01-18 07:17:17.65	81.08	18.45	-53.7	-68.8	3.8	1.49e+00	0	36	104	0	78	21039
2026-01-18 07:17:18.65	80.93	18.55	-53.7	-68.7	3.8	1.49e+00	0	36	104	0	78	20999
2026-01-18 07:17:19.66	80.78	18.65	-53.7	-68.7	3.8	1.49e+00	0	36	104	0	78	20953
2026-01-18 07:17:20.67	80.62	18.74	-53.7	-68.7	3.8	1.49e+00	0	36	104	0	78	20999
2026-01-18 07:17:21.68	80.47	18.84	-53.7	-68.7	3.8	1.49e+00	0	36	104	0	78	20989
2026-01-18 07:17:22.69	80.31	18.94	-53.7	-68.8	3.8	1.49e+00	0	36	104	0	78	21038
2026-01-18 07:17:23.70	80.15	19.03	-53.7	-68.7	3.8	1.49e+00	0	36	104	0	78	20932
2026-01-18 07:17:24.70	80.00	19.13	-53.7	-68.7	3.8	1.49e+00	0	36	104	0	78	20979
2026-01-18 07:17:25.71	79.84	19.23	-53.7	-68.7	3.8	1.49e+00	0	36	104	0	78	20955
2026-01-18 07:17:26.72	79.68	19.32	-53.7	-68.7	3.8	1.49e+00	0	36	104	0	78	20991
2026-01-18 07:17:27.73	79.51	19.42	-53.7	-68.7	3.8	1.49e+00	0	36	104	0	78	20931
2026-01-18 07:17:28.74	79.35	19.52	-53.7	-68.7	3.8	1.49e+00	0	36	104	0	78	20997
2026-01-18 07:17:29.75	79.19	19.62	-53.7	-68.7	3.8	1.49e+00	0	36	104	0	78	20981
2026-01-18 07:17:30.75	79.02	19.71	-53.7	-68.7	3.8	1.49e+00	0	36	104	0	78	20977
2026-01-18 07:17:31.76	78.86	19.81	-53.7	-68.7	3.8	1.49e+00	0	36	104	0	78	20963
2026-01-18 07:17:32.77	78.69	19.91	-53.7	-68.7	3.8	1.49e+00	0	36	104	0	78	20986
2026-01-18 07:17:33.78	78.52	20.01	-53.7	-68.7	3.8	1.49e+00	0	36	104	0	78	21005
2026-01-18 07:17:34.79	78.36	20.11	-53.7	-68.7	3.8	1.49e+00	0	36	104	0	78	21010
2026-01-18 07:17:35.79	78.19	20.20	-53.7	-68.7	3.8	1.49e+00	0	36	104	0	78	20962
2026-01-18 07:17:36.80	78.02	20.30	-53.7	-68.7	3.8	1.49e+00	0	36	104	0	78	20947
2026-01-18 07:17:37.81	77.84	20.40	-53.7	-68.7	3.8	1.49e+00	0	36	104	0	78	20966
2026-01-18 07:17:38.82	77.67	20.50	-53.7	-68.7	3.8	1.49e+00	0	36	104	0	78	20942
2026-01-18 07:17:39.83	77.50	20.60	-53.7	-68.7	3.8	1.49e+00	0	36	104	0	78	20994
2026-01-18 07:17:40.83	77.32	20.70	-53.7	-68.7	3.8	1.49e+00	0	36	104	0	78	20968
2026-01-18 07:17:41.84	77.14	20.80	-53.7	-68.7	3.8	1.49e+00	0	36	104	0	78	20949
2026-01-18 07:17:42.85	76.97	20.90	-53.7	-68.7	3.8	1.49e+00	0	36	104	0	78	20977
2026-01-18 07:17:43.86	76.79	21.00	-53.7	-68.7	3.8	1.49e+00	0	36	104	0	78	20955
2026-01-18 07:17:44.86	76.61	21.09	-53.7	-68.7	3.8	1.49e+00	0	36	104	0	78	20948
2026-01-18 07:17:45.87	76.43	21.19	-53.7	-68.7	3.8	1.49e+00	0	36	104	0	78	20915
2026-01-18 07:17:46.88	76.24	21.29	-53.7	-68.7	3.8	1.49e+00	0	36	104	0	78	20912
2026-01-18 07:17:47.89	76.06	21.39	-53.7	-68.7	3.8	1.49e+00	0	36	104	0	78	20889
2026-01-18 07:17:48.90	75.87	21.49	-53.7	-68.7	3.8	1.49e+00	0	36	104	0	78	20987
2026-01-18 07:17:49.90	75.69	21.59	-53.7	-68.7	3.8	1.49e+00	0	36	104	0	78	20962
2026-01-18 07:17:50.91	75.50	21.69	-53.7	-68.7	3.8	1.49e+00	0	36	104	0	78	20907
2026-01-18 07:17:51.92	75.31	21.79	-53.7	-68.7	3.8	1.49e+00	0	36	104	0	78	20919
2026-01-18 07:17:52.93	75.12	21.89	-53.7	-68.7	3.8	1.49e+00	0	36	104	0	78	20939
2026-01-18 07:17:53.94	74.93	21.99	-53.7	-68.7	3.8	1.49e+00	0	36	104	0	78	20903
2026-01-18 07:17:54.95	74.74	22.09	-53.7	-68.7	3.8	1.49e+00	0	36	104	0	78	20933
2026-01-18 07:17:55.95	74.55	22.19	-53.7	-68.7	3.8	1.49e+00	0	36	104	0	78	20922
2026-01-18 07:17:56.96	74.35	22.29	-53.7	-68.7	3.8	1.49e+00	0	36	104	0	78	20878
2026-01-18 07:17:57.97	74.16	22.39	-53.7	-68.7	3.8	1.49e+00	0	36	104	0	78	20956
2026-01-18 07:17:58.97	73.96	22.49	-53.7	-68.7	3.8	1.49e+00	0	36	104	0	78	20936
2026-01-18 07:17:59.98	73.76	22.59	-53.7	-68.7	3.8	1.49e+00	0	36	104	0	78	20927
2026-01-18 07:18:00.99	73.56	22.69	-53.7	-68.7	3.8	1.49e+00	0	36	104	0	78	20946
2026-01-18 07:18:02.00	73.36	22.79	-53.7	-68.7	3.8	1.49e+00	0	36	104	0	78	20893
2026-01-18 07:18:03.01	73.16	22.89	-53.7	-68.7	3.8	1.49e+00	0	36	104	0	78	20941
2026-01-18 07:18:04.01	72.96	22.99	-53.7	-68.7	3.8	1.49e+00	0	36	104	0	78	20914
2026-01-18 07:18:05.02	72.75	23.09	-53.7	-68.7	3.8	1.49e+00	0	36	104	0	78	20944
2026-01-18 07:18:06.03	72.54	23.19	-53.7	-68.7	3.8	1.49e+00	0	36	104	0	78	20934
2026-01-18 07:18:07.04	72.34	23.29	-53.7	-68.7	3.8	1.49e+00	0	36	104	0	78	20955
2026-01-18 07:18:08.05	72.13	23.39	-53.7	-68.7	3.8	1.49e+00	0	36	104	0	78	20962
2026-01-18 07:18:09.05	71.92	23.49	-53.7	-68.7	3.8	1.49e+00	0	36	104	0	78	20882
2026-01-18 07:18:10.06	71.70	23.59	-53.7	-68.7	3.8	1.49e+00	0	36	104	0	78	20886
2026-01-18 07:18:11.07	71.49	23.69	-53.7	-68.7	3.8	1.49e+00	0	36	104	0	78	20913
2026-01-18 07:18:12.08	71.28	23.79	-53.7	-68.7	3.8	1.49e+00	0	36	104	0	78	20985
2026-01-18 07:18:13.09	71.06	23.89	-53.7	-68.7	3.8	1.49e+00	0	36	104	0	78	20823
2026-01-18 07:18:14.09	70.84	23.99	-53.7	-68.7	3.8	1.49e+00	0	36	104	0	78	20928
2026-01-18 07:18:15.10	70.62	24.09	-53.7	-68.7	3.8	1.49e+00	0	36	104	0	78	20883
2026-01-18 07:18:16.11	70.40	24.19	-53.7	-68.7	3.8	1.49e+00	0	36	104	0	78	20870
2026-01-18 07:18:17.12	70.18	24.29	-53.7	-68.7	3.8	1.49e+00	0	36	104	0	78	20899
2026-01-18 07:18:18.12	69.96	24.39	-53.7	-68.7	3.8	1.49e+00	0	36	104	0	78	20930
2026-01-18 07:18:19.13	69.74	24.49	-53.7	-68.7	3.8	1.49e+00	0	36	104	0	78	20915
2026-01-18 07:18:20.14	69.51	24.59	-53.7	-68.7	3.8	1.49e+00	0	36	104	0	78	20906
2026-01-18 07:18:21.15	69.28	24.69	-53.7	-68.7	3.8	1.49e+00	0	36	104	0	78	20913
2026-01-18 07:18:22.16	69.05	24.79	-53.7	-68.7	3.8	1.49e+00	0	36	104	0	78	20940
2026-01-18 07:18:23.16	68.82	24.89	-53.7	-68.7	3.8	1.49e+00	0	36	104	0	78	20842
2026-01-18 07:18:24.17	68.59	24.98	-53.7	-68.7	3.8	1.49e+00	0	36	104	0	78	20894
2026-01-18 07:18:25.18	68.36	25.08	-53.7	-68.7	3.8	1.49e+00	0	36	104	0	78	20900
2026-01-18 07:18:26.19	68.12	25.18	-53.7	-68.7	3.8	1.49e+00	0	36	104	0	78	20909
2026-01-18 07:18:27.20	67.89	25.28	-53.7	-68.7	3.8	1.49e+00	0	36	104	0	78	20881
2026-01-18 07:18:28.20	67.65	25.38	-53.7	-68.7	3.8	1.49e+00	0	36	104	0	78	20792
2026-01-18 07:18:29.21	67.41	25.48	-53.7	-68.7	3.8	1.49e+00	0	36	104	0	78	20884
2026-01-18 07:18:30.22	67.17	25.57	-53.7	-68.7	3.8	1.49e+00	0	36	104	0	78	20829
2026-01-18 07:18:31.23	66.93	25.67	-53.7	-68.7	3.8	1.49e+00	0	36	104	0	78	20884
2026-01-18 07:18:32.24	66.68	25.77	-53.7	-68.7	3.8	1.49e+00	0	36	104	0	78	20859
2026-01-18 07:18:33.24	66.44	25.87	-53.7	-68.7	3.8	1.49e+00	0	36	104	0	78	20852
2026-01-18 07:18:34.25	66.19	25.96	-53.7	-68.7	3.8	1.49e+00	0	36	104	0	78	20853
2026-01-18 07:18:35.26	65.95	26.06	-53.7	-68.7	3.8	1.49e+00	0	36	104	0	78	20870
2026-01-18 07:18:36.27	65.70	26.16	-53.7	-68.7	3.8	1.49e+00	0	36	104	0	78	20839
2026-01-18 07:18:37.28	65.44	26.25	-53.7	-68.7	3.8	1.49e+00	0	36	104	0	78	20803
2026-01-18 07:18:38.29	65.19	26.35	-53.7	-68.7	3.8	1.49e+00	0	36	104	0	78	20810
2026-01-18 07:18:39.30	64.94	26.44	-53.7	-68.7	3.8	1.49e+00	0	36	104	0	78	20839
2026-01-18 07:18:40.31	64.68	26.54	-53.7	-68.7	3.8	1.49e+00	0	36	104	0	78	20823
2026-01-18 07:18:41.31	64.42	26.63	-53.7	-68.7	3.8	1.49e+00	0	36	104	0	78	20872
2026-01-18 07:18:42.32	64.17	26.73	-53.7	-68.7	3.8	1.49e+00	0	36	104	0	78	20873
2026-01-18 07:18:43.33	63.90	26.82	-53.7	-68.7	3.8	1.49e+00	0	36	104	0	78	20804
2026-01-18 07:18:44.34	63.64	26.92	-53.7	-68.7	3.8	1.49e+00	0	36	104	0	78	20843
2026-01-18 07:18:45.34	63.38	27.01	-53.7	-68.7	3.8	1.49e+00	0	36	104	0	78	20849
2026-01-18 07:18:46.35	63.12	27.10	-53.7	-68.7	3.8	1.49e+00	0	36	104	0	78	20842
2026-01-18 07:18:47.36	62.85	27.20	-53.7	-68.7	3.8	1.49e+00	0	36	104	0	78	20834
2026-01-18 07:18:48.37	62.58	27.29	-53.7	-68.7	3.8	1.49e+00	0	36	104	0	78	20825
2026-01-18 07:18:49.38	62.31	27.38	-53.7	-68.7	3.8	1.49e+00	0	36	104	0	78	20848
2026-01-18 07:18:50.38	62.04	27.47	-53.7	-68.7	3.8	1.49e+00	0	36	104	0	78	20880
2026-01-18 07:18:51.39	61.77	27.56	-53.7	-68.7	3.8	1.49e+00	0	36	104	0	78	20911
2026-01-18 07:18:52.40	61.49	27.65	-53.7	-68.7	3.8	1.49e+00	0	36	104	0	78	20888
2026-01-18 07:18:53.41	61.21	27.75	-53.7	-68.7	3.8	1.49e+00	0	36	104	0	78	20862
2026-01-18 07:18:54.42	60.94	27.84	-53.7	-68.7	3.8	1.49e+00	0	36	104	0	78	20834
2026-01-18 07:18:55.43	60.66	27.93	-53.7	-68.7	3.8	1.49e+00	0	36	104	0	78	20870
2026-01-18 07:18:56.43	60.38	28.01	-53.7	-68.7	3.8	1.49e+00	0	36	104	0	78	20820
2026-01-18 07:18:57.44	60.10	28.10	-53.7	-68.7	3.8	1.49e+00	0	36	104	0	78	20869
2026-01-18 07:18:58.45	59.81	28.19	-53.7	-68.7	3.8	1.49e+00	0	36	104	0	78	20883
2026-01-18 07:18:59.46	59.52	28.28	-53.7	-68.7	3.8	1.49e+00	0	36	104	0	78	20892
2026-01-18 07:19:00.47	59.24	28.37	-53.7	-68.7	3.8	1.49e+00	0	36	104	0	78	20919
2026-01-18 07:19:01.48	58.95	28.45	-53.7	-68.7	3.8	1.49e+00	0	36	104	0	78	20861
2026-01-18 07:19:02.49	58.66	28.54	-53.7	-68.7	3.8	1.49e+00	0	36	104	0	78	20891
2026-01-18 07:19:03.49	58.37	28.62	-53.7	-68.7	3.8	1.49e+00	0	36	104	0	78	20881
2026-01-18 07:19:04.50	58.07	28.71	-53.7	-68.7	3.8	1.49e+00	0	36	104	0	78	20937
2026-01-18 07:19:05.51	57.78	28.79	-53.7	-68.7	3.8	1.49e+00	0	36	104	0	78	20863
2026-01-18 07:19:06.52	57.48	28.88	-53.7	-68.7	3.8	1.49e+00	0	36	104	0	78	20890
2026-01-18 07:19:07.53	57.18	28.96	-53.7	-68.7	3.8	1.49e+00	0	36	104	0	78	20874
2026-01-18 07:19:08.53	56.89	29.04	-53.7	-68.7	3.8	1.49e+00	0	36	104	0	78	20856
2026-01-18 07:19:09.54	56.58	29.12	-53.7	-68.7	3.8	1.49e+00	0	36	104	0	78	20854
2026-01-18 07:19:10.55	56.28	29.20	-53.7	-68.7	3.8	1.49e+00	0	36	104	0	78	20881
2026-01-18 07:19:11.56	55.98	29.28	-53.7	-68.7	3.8	1.49e+00	0	36	104	0	78	20862
2026-01-18 07:19:12.57	55.67	29.36	-53.7	-68.7	3.8	1.49e+00	0	36	104	0	78	20886
2026-01-18 07:19:13.57	55.37	29.44	-53.7	-68.7	3.8	1.49e+00	0	36	104	0	78	20857
2026-01-18 07:19:14.58	55.06	29.52	-53.7	-68.7	3.8	1.49e+00	0	36	104	0	78	20934
2026-01-18 07:19:15.59	54.75	29.60	-53.7	-68.7	3.8	1.49e+00	0	36	104	0	78	20863
2026-01-18 07:19:16.59	54.44	29.67	-53.7	-68.7	3.8	1.49e+00	0	36	104	0	78	20819
2026-01-18 07:19:17.60	54.12	29.75	-53.7	-68.7	3.8	1.49e+00	0	36	104	0	78	20842
2026-01-18 07:19:18.61	53.81	29.83	-53.7	-68.7	3.8	1.49e+00	0	36	104	0	78	20842
2026-01-18 07:19:19.62	53.49	29.90	-53.7	-68.7	3.8	1.49e+00	0	36	104	0	78	20859
2026-01-18 07:19:20.63	53.17	29.98	-53.7	-68.7	3.8	1.49e+00	0	36	104	0	78	20819
2026-01-18 07:19:21.63	52.86	30.05	-53.7	-68.7	3.8	1.49e+00	0	36	104	0	78	20831
2026-01-18 07:19:22.64	52.53	30.12	-53.7	-68.7	3.8	1.49e+00	0	36	104	0	78	20845
2026-01-18 07:19:23.65	52.21	30.19	-53.7	-68.7	3.8	1.49e+00	0	36	104	0	78	20862
2026-01-18 07:19:24.65	51.89	30.26	-53.7	-68.7	3.8	1.49e+00	0	36	104	0	78	20806
2026-01-18 07:19:25.66	51.57	30.33	-53.7	-68.7	3.8	1.49e+00	0	36	104	0	78	20822
2026-01-18 07:19:26.67	51.24	30.40	-53.7	-68.7	3.8	1.49e+00	0	36	104	0	78	20840
2026-01-18 07:19:27.68	50.91	30.47	-53.7	-68.7	3.8	1.49e+00	0	36	104	0	78	20863
2026-01-18 07:19:28.68	50.59	30.53	-53.7	-68.7	3.8	1.49e+00	0	36	104	0	78	20835
2026-01-18 07:19:29.69	50.25	30.60	-53.7	-68.7	3.8	1.49e+00	0	36	104	0	78	20811
2026-01-18 07:19:30.70	49.92	30.66	-53.7	-68.7	3.8	1.49e+00	0	36	104	0	78	20857
2026-01-18 07:19:31.71	49.59	30.73	-53.7	-68.7	3.8	1.49e+00	0	36	104	0	78	20839
2026-01-18 07:19:32.71	49.26	30.79	-53.7	-68.7	3.8	1.49e+00	0	36	104	0	78	20858
2026-01-18 07:19:33.72	48.92	30.85	-53.7	-68.7	3.8	1.49e+00	0	36	104	0	78	20857
2026-01-18 07:19:34.73	48.58	30.92	-53.7	-68.7	3.8	1.49e+00	0	36	104	0	78	20830
2026-01-18 07:19:35.74	48.24	30.98	-53.7	-68.7	3.8	1.49e+00	0	36	104	0	78	20793
2026-01-18 07:19:36.75	47.90	31.03	-53.7	-68.7	3.8	1.49e+00	0	36	104	0	78	20804
2026-01-18 07:19:37.75	47.57	31.09	-53.7	-68.7	3.8	1.49e+00	0	36	104	0	78	20810
2026-01-18 07:19:38.76	47.22	31.15	-53.7	-68.7	3.8	1.49e+00	0	36	104	0	78	20812
2026-01-18 07:19:39.76	46.88	31.21	-53.7	-68.7	3.8	1.49e+00	0	36	104	0	78	20806
2026-01-18 07:19:40.77	46.54	31.26	-53.7	-68.7	3.8	1.49e+00	0	36	104	0	78	20830
2026-01-18 07:19:41.78	46.19	31.31	-53.7	-68.6	3.8	1.49e+00	0	36	104	0	78	20770
2026-01-18 07:19:42.79	45.85	31.37	-53.7	-68.6	3.8	1.49e+00	0	36	104	0	78	20769
2026-01-18 07:19:43.79	45.50	31.42	-53.7	-68.7	3.8	1.49e+00	0	36	104	0	78	20800
2026-01-18 07:19:44.80	45.15	31.47	-53.7	-68.7	3.8	1.49e+00	0	36	104	0	78	20829
2026-01-18 07:19:45.81	44.80	31.52	-53.7	-68.6	3.8	1.49e+00	0	36	104	0	78	20769
2026-01-18 07:19:46.82	44.45	31.57	-53.7	-68.7	3.8	1.49e+00	0	36	104	0	78	20807
2026-01-18 07:19:47.83	44.10	31.62	-53.7	-68.7	3.8	1.49e+00	0	36	104	0	78	20859
2026-01-18 07:19:48.84	43.74	31.66	-53.7	-68.7	3.8	1.49e+00	0	36	104	0	78	20789
2026-01-18 07:19:49.85	43.39	31.71	-53.7	-68.7	3.8	1.49e+00	0	36	104	0	78	20789
2026-01-18 07:19:50.86	43.03	31.75	-53.7	-68.7	3.8	1.49e+00	0	36	104	0	78	20833
2026-01-18 07:19:51.86	42.68	31.79	-53.6	-68.7	3.8	1.49e+00	0	36	104	0	78	20789
2026-01-18 07:19:52.87	42.32	31.83	-53.7	-68.7	3.8	1.49e+00	0	36	104	0	78	20788
2026-01-18 07:19:53.88	41.96	31.87	-53.7	-68.7	3.8	1.49e+00	0	36	104	0	78	20825
2026-01-18 07:19:54.89	41.61	31.91	-53.6	-68.7	3.8	1.49e+00	0	36	104	0	78	20801
2026-01-18 07:19:55.89	41.25	31.95	-53.7	-68.7	3.8	1.49e+00	0	36	104	0	78	20803
2026-01-18 07:19:56.90	40.89	31.99	-53.7	-68.7	3.8	1.49e+00	0	36	104	0	78	20781
2026-01-18 07:19:57.91	40.53	32.02	-53.6	-68.6	3.8	1.49e+00	0	36	104	0	78	20768
2026-01-18 07:19:58.92	40.16	32.06	-53.7	-68.7	3.8	1.49e+00	0	36	104	0	78	20816
2026-01-18 07:19:59.93	39.80	32.09	-53.7	-68.7	3.8	1.49e+00	0	36	104	0	78	20809
2026-01-18 07:20:00.93	39.44	32.12	-53.7	-68.7	3.8	1.49e+00	0	36	104	0	78	20799
2026-01-18 07:20:01.94	39.08	32.15	-53.6	-68.7	3.8	1.49e+00	0	36	104	0	78	20831
2026-01-18 07:20:02.95	38.71	32.18	-53.7	-68.7	3.8	1.49e+00	0	36	104	0	78	20805
2026-01-18 07:20:03.96	38.35	32.21	-53.6	-68.6	3.8	1.49e+00	0	36	104	0	78	20769
2026-01-18 07:20:04.97	37.98	32.23	-53.7	-68.6	3.8	1.49e+00	0	36	104	0	78	20694
2026-01-18 07:20:05.98	37.61	32.26	-53.6	-68.6	3.8	1.49e+00	0	36	104	0	78	20743
2026-01-18 07:20:06.98	37.25	32.28	-53.7	-68.6	3.8	1.49e+00	0	36	104	0	78	20775
2026-01-18 07:20:07.99	36.88	32.31	-53.6	-68.6	3.8	1.49e+00	0	36	104	0	78	20759
2026-01-18 07:20:09.00	36.51	32.33	-53.6	-68.6	3.8	1.49e+00	0	36	104	0	78	20756
2026-01-18 07:20:10.01	36.14	32.35	-53.6	-68.7	3.8	1.49e+00	0	36	104	0	78	20788
2026-01-18 07:20:11.01	35.78	32.36	-53.6	-68.6	3.8	1.49e+00	0	36	104	0	78	20772
2026-01-18 07:20:12.02	35.41	32.38	-53.6	-68.7	3.8	1.49e+00	0	36	104	0	78	20794
2026-01-18 07:20:13.03	35.04	32.40	-53.6	-68.6	3.8	1.49e+00	0	36	104	0	78	20775
2026-01-18 07:20:14.04	34.66	32.41	-53.6	-68.7	3.8	1.49e+00	0	36	104	0	78	20826
2026-01-18 07:20:15.05	34.29	32.42	-53.7	-68.7	3.8	1.49e+00	0	36	104	0	78	20782
2026-01-18 07:20:16.05	33.93	32.44	-53.6	-68.7	3.8	1.49e+00	0	36	104	0	78	20811
2026-01-18 07:20:17.06	33.55	32.45	-53.6	-68.6	3.8	1.49e+00	0	36	104	0	78	20732
2026-01-18 07:20:18.07	33.18	32.46	-53.6	-68.6	3.8	1.49e+00	0	36	104	0	78	20762
2026-01-18 07:20:19.08	32.81	32.46	-53.6	-68.7	3.8	1.49e+00	0	36	104	0	78	20813
2026-01-18 07:20:20.09	32.44	32.47	-53.6	-68.7	3.8	1.49e+00	0	36	104	0	78	20785
2026-01-18 07:20:21.09	32.07	32.47	-53.6	-68.7	3.8	1.49e+00	0	36	104	0	78	20799
2026-01-18 07:20:22.10	31.70	32.48	-53.6	-68.6	3.8	1.49e+00	0	36	104	0	78	20730
2026-01-18 07:20:23.11	31.33	32.48	-53.6	-68.7	3.8	1.49e+00	0	36	104	0	78	20781
2026-01-18 07:20:24.12	30.95	32.48	-53.7	-68.7	3.8	1.49e+00	0	36	104	0	78	20822
2026-01-18 07:20:25.13	30.58	32.48	-53.6	-68.6	3.8	1.49e+00	0	36	104	0	78	20770
2026-01-18 07:20:26.13	30.21	32.48	-53.6	-68.6	3.8	1.49e+00	0	36	104	0	78	20756
2026-01-18 07:20:27.15	29.84	32.48	-53.6	-68.6	3.8	1.49e+00	0	36	104	0	78	20726
2026-01-18 07:20:28.15	29.47	32.47	-53.6	-68.6	3.8	1.49e+00	0	36	104	0	78	20742
2026-01-18 07:20:29.16	29.10	32.46	-53.6	-68.7	3.8	1.49e+00	0	36	104	0	78	20804
2026-01-18 07:20:30.17	28.72	32.46	-53.6	-68.6	3.8	1.49e+00	0	36	104	0	78	20775
2026-01-18 07:20:31.18	28.35	32.45	-53.6	-68.6	3.8	1.49e+00	0	36	104	0	78	20764
2026-01-18 07:20:32.19	27.98	32.44	-53.6	-68.6	3.8	1.49e+00	0	36	104	0	78	20750
2026-01-18 07:20:33.20	27.61	32.43	-53.6	-68.7	3.8	1.49e+00	0	36	104	0	78	20789
2026-01-18 07:20:34.21	27.24	32.41	-53.6	-68.7	3.8	1.49e+00	0	36	104	0	78	20787
2026-01-18 07:20:35.21	26.87	32.40	-53.6	-68.6	3.8	1.49e+00	0	36	104	0	78	20725
2026-01-18 07:20:36.22	26.50	32.38	-53.6	-68.6	3.8	1.49e+00	0	36	104	0	78	20755
2026-01-18 07:20:37.23	26.13	32.37	-53.6	-68.6	3.8	1.49e+00	0	36	104	0	78	20733
2026-01-18 07:20:38.24	25.76	32.35	-53.6	-68.7	3.8	1.49e+00	0	36	104	0	78	20784
2026-01-18 07:20:39.25	25.39	32.33	-53.6	-68.6	3.8	1.49e+00	0	36	104	0	78	20760
2026-01-18 07:20:40.25	25.03	32.31	-53.6	-68.7	3.8	1.49e+00	0	36	104	0	78	20784
2026-01-18 07:20:41.26	24.66	32.29	-53.6	-68.7	3.8	1.49e+00	0	36	104	0	78	20783
2026-01-18 07:20:42.27	24.29	32.26	-53.6	-68.6	3.8	1.49e+00	0	36	104	0	78	20742
2026-01-18 07:20:43.27	23.93	32.24	-53.6	-68.6	3.8	1.49e+00	0	36	104	0	78	20765
2026-01-18 07:20:44.28	23.56	32.21	-53.6	-68.7	3.8	1.49e+00	0	36	104	0	78	20811
2026-01-18 07:20:45.29	23.20	32.18	-53.6	-68.6	3.8	1.49e+00	0	36	104	0	78	20737
2026-01-18 07:20:46.30	22.83	32.16	-53.6	-68.6	3.8	1.49e+00	0	36	104	0	78	20759
2026-01-18 07:20:47.31	22.47	32.13	-53.6	-68.6	3.8	1.49e+00	0	36	104	0	78	20768
2026-01-18 07:20:48.32	22.10	32.09	-53.6	-68.6	3.8	1.49e+00	0	36	104	0	78	20752
2026-01-18 07:20:49.32	21.74	32.06	-53.6	-68.6	3.8	1.49e+00	0	36	104	0	78	20747
2026-01-18 07:20:50.33	21.38	32.03	-53.6	-68.7	3.8	1.49e+00	0	36	104	0	78	20802
2026-01-18 07:20:51.34	21.02	31.99	-53.6	-68.7	3.8	1.49e+00	0	36	104	0	78	20843
2026-01-18 07:20:52.35	20.66	31.96	-53.6	-68.7	3.8	1.49e+00	0	36	104	0	78	20781
2026-01-18 07:20:53.35	20.30	31.92	-53.6	-68.6	3.8	1.49e+00	0	36	104	0	78	20762
2026-01-18 07:20:54.36	19.94	31.88	-53.6	-68.7	3.8	1.49e+00	0	36	104	0	78	20787
2026-01-18 07:20:55.37	19.59	31.84	-53.6	-68.6	3.8	1.49e+00	0	36	104	0	78	20764
2026-01-18 07:20:56.38	19.23	31.80	-53.6	-68.6	3.8	1.49e+00	0	36	104	0	78	20776
2026-01-18 07:20:57.38	18.88	31.76	-53.6	-68.6	3.8	1.49e+00	0	36	104	0	78	20767
2026-01-18 07:20:58.39	18.52	31.71	-53.6	-68.6	3.8	1.49e+00	0	36	104	0	78	20751
2026-01-18 07:20:59.40	18.17	31.67	-53.6	-68.6	3.8	1.49e+00	0	36	104	0	78	20751
2026-01-18 07:21:00.41	17.81	31.62	-53.6	-68.6	3.8	1.49e+00	0	36	104	0	78	20730
2026-01-18 07:21:01.41	17.46	31.58	-53.6	-68.6	3.8	1.49e+00	0	36	104	0	78	20728
2026-01-18 07:21:02.42	17.11	31.53	-53.6	-68.6	3.8	1.49e+00	0	36	104	0	78	20755
2026-01-18 07:21:03.43	16.76	31.48	-53.6	-68.6	3.8	1.49e+00	0	36	104	0	78	20753
2026-01-18 07:21:04.44	16.41	31.43	-53.6	-68.7	3.8	1.49e+00	0	35	104	0	78	20793
2026-01-18 07:21:05.45	16.06	31.38	-53.6	-68.6	3.8	1.49e+00	0	36	104	0	78	20737
2026-01-18 07:21:06.45	15.72	31.32	-53.6	-68.6	3.8	1.49e+00	0	36	104	0	78	20737
2026-01-18 07:21:07.46	15.38	31.27	-53.6	-68.6	3.8	1.49e+00	0	36	104	0	78	20732
2026-01-18 07:21:08.47	15.03	31.22	-53.6	-68.6	3.8	1.49e+00	0	36	104	0	78	20774
2026-01-18 07:21:09.48	14.69	31.16	-53.6	-68.6	3.8	1.49e+00	0	36	104	0	78	20748
2026-01-18 07:21:10.49	14.34	31.10	-53.6	-68.6	3.8	1.49e+00	0	36	104	0	78	20736
2026-01-18 07:21:11.49	14.01	31.05	-53.6	-68.6	3.8	1.49e+00	0	36	104	0	78	20750
2026-01-18 07:21:12.50	13.67	30.99	-53.6	-68.6	3.8	1.49e+00	0	36	104	0	78	20735
2026-01-18 07:21:13.51	13.33	30.93	-53.6	-68.6	3.8	1.49e+00	0	36	104	0	78	20751
2026-01-18 07:21:14.52	12.99	30.87	-53.6	-68.6	3.8	1.49e+00	0	36	104	0	78	20682
2026-01-18 07:21:15.53	12.66	30.80	-53.6	-68.6	3.8	1.49e+00	0	36	104	0	78	20712
2026-01-18 07:21:16.53	12.32	30.74	-53.6	-68.6	3.8	1.49e+00	0	36	104	0	78	20738
2026-01-18 07:21:17.54	11.99	30.68	-53.6	-68.6	3.8	1.49e+00	0	36	104	0	78	20649
2026-01-18 07:21:18.55	11.66	30.61	-53.6	-68.6	3.8	1.49e+00	0	36	104	0	78	20763
2026-01-18 07:21:19.55	11.33	30.55	-53.6	-68.6	3.8	1.49e+00	0	36	104	0	78	20686
2026-01-18 07:21:20.57	11.00	30.48	-53.6	-68.6	3.8	1.49e+00	0	36	104	0	78	20692
2026-01-18 07:21:21.57	10.67	30.41	-53.6	-68.6	3.8	1.49e+00	0	36	104	0	78	20751
2026-01-18 07:21:22.58	10.35	30.34	-53.6	-68.6	3.8	1.49e+00	0	36	104	0	78	20749
2026-01-18 07:21:23.59	10.02	30.27	-53.6	-68.6	3.8	1.49e+00	0	36	104	0	78	20721
2026-01-18 07:21:24.60	9.70	30.20	-53.6	-68.6	3.8	1.49e+00	0	36	104	0	78	20682
2026-01-18 07:21:25.61	9.38	30.13	-53.6	-68.6	3.8	1.49e+00	0	36	104	0	78	20751
2026-01-18 07:21:26.62	9.06	30.06	-53.6	-68.6	3.8	1.49e+00	0	35	104	0	78	20684
2026-01-18 07:21:27.62	8.74	29.99	-53.6	-68.6	3.8	1.49e+00	0	36	104	0	78	20710
2026-01-18 07:21:28.63	8.42	29.92	-53.6	-68.6	3.8	1.49e+00	0	36	104	0	78	20684
2026-01-18 07:21:29.64	8.11	29.84	-53.6	-68.6	3.8	1.49e+00	0	36	104	0	78	20648
2026-01-18 07:21:30.65	7.79	29.77	-53.6	-68.6	3.8	1.49e+00	0	36	104	0	78	20718
2026-01-18 07:21:31.65	7.48	29.69	-53.6	-68.6	3.8	1.49e+00	0	36	104	0	78	20704
2026-01-18 07:21:32.66	7.17	29.61	-53.6	-68.6	3.8	1.49e+00	0	36	104	0	78	20740
2026-01-18 07:21:33.67	6.86	29.54	-53.6	-68.7	3.8	1.49e+00	0	36	104	0	78	20789
2026-01-18 07:21:34.68	6.55	29.46	-53.6	-68.6	3.8	1.49e+00	0	36	104	0	78	20693
2026-01-18 07:21:35.69	6.24	29.38	-53.6	-68.6	3.8	1.49e+00	0	36	104	0	78	20709
2026-01-18 07:21:36.69	5.94	29.30	-53.6	-68.6	3.8	1.49e+00	0	36	104	0	78	20735
2026-01-18 07:21:37.70	5.63	29.22	-53.6	-68.6	3.8	1.49e+00	0	36	104	0	78	20708
2026-01-18 07:21:38.71	5.33	29.14	-53.6	-68.6	3.8	1.49e+00	0	36	104	0	78	20720
2026-01-18 07:21:39.72	5.03	29.06	-53.6	-68.6	3.8	1.49e+00	0	36	104	0	78	20659
2026-01-18 07:21:40.73	4.73	28.98	-53.6	-68.6	3.8	1.49e+00	0	36	104	0	78	20725
2026-01-18 07:21:41.74	4.43	28.89	-53.6	-68.6	3.8	1.49e+00	0	36	104	0	78	20741
2026-01-18 07:21:42.75	4.13	28.81	-53.6	-68.6	3.8	1.49e+00	0	35	104	0	78	20727
2026-01-18 07:21:43.75	3.84	28.73	-53.6	-68.6	3.8	1.49e+00	0	36	104	0	78	20772
2026-01-18 07:21:44.76	3.55	28.64	-53.6	-68.6	3.8	1.49e+00	0	35	104	0	78	20758
2026-01-18 07:21:45.77	3.26	28.56	-53.6	-68.6	3.8	1.49e+00	0	36	104	0	78	20722
2026-01-18 07:21:46.78	2.97	28.47	-53.6	-68.6	3.8	1.49e+00	0	36	104	0	78	20727
2026-01-18 07:21:47.79	2.68	28.38	-53.6	-68.6	3.8	1.49e+00	0	36	104	0	78	20718
2026-01-18 07:21:48.79	2.39	28.30	-53.6	-68.6	3.8	1.49e+00	0	36	104	0	78	20664
2026-01-18 07:21:49.80	2.11	28.21	-53.6	-68.6	3.8	1.49e+00	0	35	104	0	78	20677
2026-01-18 07:21:50.81	1.82	28.12	-53.6	-68.6	3.8	1.49e+00	0	36	104	0	78	20696
2026-01-18 07:21:51.82	1.54	28.03	-53.6	-68.6	3.8	1.49e+00	0	36	104	0	78	20729
2026-01-18 07:21:52.83	1.26	27.94	-53.6	-68.6	3.8	1.49e+00	0	36	104	0	78	20731
2026-01-18 07:21:53.83	0.98	27.86	-53.6	-68.6	3.8	1.49e+00	0	36	104	0	78	20762
2026-01-18 07:21:54.84	0.71	27.77	-53.6	-68.6	3.8	1.49e+00	0	36	104	0	78	20720
2026-01-18 07:21:55.85	0.43	27.68	-53.6	-68.6	3.8	1.49e+00	0	36	104	0	78	20695
2026-01-18 07:21:56.86	0.15	27.59	-53.6	-68.6	3.8	1.49e+00	0	36	104	0	78	20643
2026-01-18 07:21:57.86	359.88	27.49	-53.6	-68.6	3.8	1.49e+00	0	36	104	0	78	20696
2026-01-18 07:21:58.87	359.61	27.40	-53.6	-68.6	3.8	1.49e+00	0	36	104	0	78	20693
2026-01-18 07:21:59.88	359.34	27.31	-53.6	-68.7	3.8	1.49e+00	0	36	104	0	78	20779
2026-01-18 07:22:00.89	359.07	27.22	-53.6	-68.6	3.8	1.49e+00	0	36	104	0	78	20719
2026-01-18 07:22:01.90	358.81	27.13	-53.6	-68.6	3.8	1.49e+00	0	36	104	0	78	20695
2026-01-18 07:22:02.91	358.54	27.03	-53.6	-68.7	3.8	1.49e+00	0	36	104	0	78	20795
2026-01-18 07:22:03.91	358.28	26.94	-53.6	-68.6	3.8	1.49e+00	0	35	104	0	78	20741
2026-01-18 07:22:04.92	358.02	26.85	-53.6	-68.6	3.8	1.49e+00	0	36	104	0	78	20650
2026-01-18 07:22:05.93	357.76	26.75	-53.6	-68.6	3.8	1.49e+00	0	36	104	0	78	20707
2026-01-18 07:22:06.94	357.50	26.66	-53.6	-68.6	3.8	1.49e+00	0	36	104	0	78	20662
2026-01-18 07:22:07.94	357.24	26.56	-53.6	-68.6	3.8	1.49e+00	0	36	104	0	78	20671
2026-01-18 07:22:08.95	356.99	26.47	-53.6	-68.6	3.8	1.49e+00	0	36	104	0	78	20629
2026-01-18 07:22:09.96	356.73	26.37	-53.6	-68.6	3.8	1.49e+00	0	36	104	0	78	20681
2026-01-18 07:22:10.97	356.48	26.28	-53.6	-68.6	3.8	1.49e+00	0	36	104	0	78	20685
2026-01-18 07:22:11.98	356.23	26.18	-53.6	-68.6	3.8	1.49e+00	0	36	104	0	78	20690
2026-01-18 07:22:12.98	355.98	26.09	-53.6	-68.6	3.8	1.49e+00	0	36	104	0	78	20654
2026-01-18 07:22:13.99	355.73	25.99	-53.6	-68.6	3.8	1.49e+00	0	36	104	0	78	20629
2026-01-18 07:22:15.00	355.49	25.89	-53.6	-68.6	3.8	1.49e+00	0	36	104	0	78	20594
2026-01-18 07:22:16.01	355.24	25.80	-53.6	-68.6	3.8	1.49e+00	0	36	104	0	78	20637
2026-01-18 07:22:17.01	355.00	25.70	-53.6	-68.6	3.8	1.49e+00	0	36	104	0	78	20695
2026-01-18 07:22:18.02	354.76	25.60	-53.6	-68.6	3.8	1.49e+00	0	36	104	0	78	20628
2026-01-18 07:22:19.03	354.52	25.50	-53.6	-68.6	3.8	1.49e+00	0	36	104	0	78	20696
2026-01-18 07:22:20.04	354.28	25.41	-53.6	-68.6	3.8	1.49e+00	0	36	104	0	78	20610
2026-01-18 07:22:21.05	354.04	25.31	-53.6	-68.6	3.8	1.49e+00	0	36	104	0	78	20640
2026-01-18 07:22:22.05	353.81	25.21	-53.6	-68.6	3.8	1.49e+00	0	36	104	0	78	20667
2026-01-18 07:22:23.06	353.57	25.11	-53.6	-68.6	3.8	1.49e+00	0	36	104	0	78	20625
2026-01-18 07:22:24.07	353.34	25.01	-53.6	-68.6	3.8	1.49e+00	0	36	104	0	78	20607
2026-01-18 07:22:25.08	353.11	24.92	-53.6	-68.6	3.8	1.49e+00	0	36	104	0	78	20601
2026-01-18 07:22:26.08	352.88	24.82	-53.6	-68.6	3.8	1.49e+00	0	36	104	0	78	20622
2026-01-18 07:22:27.09	352.65	24.72	-53.6	-68.6	3.8	1.49e+00	0	36	104	0	78	20600
2026-01-18 07:22:28.10	352.42	24.62	-53.6	-68.6	3.8	1.49e+00	0	36	104	0	78	20624
2026-01-18 07:22:29.11	352.20	24.52	-53.6	-68.6	3.8	1.49e+00	0	36	104	0	78	20668
2026-01-18 07:22:30.12	351.97	24.42	-53.6	-68.6	3.8	1.49e+00	0	36	104	0	78	20626
2026-01-18 07:22:31.12	351.75	24.32	-53.6	-68.6	3.8	1.49e+00	0	36	104	0	78	20670
2026-01-18 07:22:32.13	351.53	24.22	-53.6	-68.6	3.8	1.49e+00	0	36	104	0	78	20624
2026-01-18 07:22:33.14	351.31	24.12	-53.6	-68.6	3.8	1.49e+00	0	36	104	0	78	20655
2026-01-18 07:22:34.15	351.09	24.02	-53.6	-68.6	3.8	1.49e+00	0	36	104	0	78	20676
2026-01-18 07:22:35.16	350.87	23.92	-53.6	-68.6	3.8	1.49e+00	0	36	104	0	78	20637
2026-01-18 07:22:36.17	350.66	23.82	-53.6	-68.6	3.8	1.49e+00	0	36	104	0	78	20675
2026-01-18 07:22:37.18	350.44	23.73	-53.6	-68.6	3.8	1.49e+00	0	36	104	0	78	20636
2026-01-18 07:22:38.19	350.23	23.63	-53.6	-68.6	3.8	1.49e+00	0	36	104	0	78	20659
2026-01-18 07:22:39.19	350.02	23.53	-53.6	-68.6	3.8	1.49e+00	0	36	104	0	78	20659
2026-01-18 07:22:40.20	349.81	23.43	-53.6	-68.6	3.8	1.49e+00	0	36	104	0	78	20642
2026-01-18 07:22:41.21	349.60	23.33	-53.6	-68.6	3.8	1.49e+00	0	36	104	0	78	20679
2026-01-18 07:22:42.22	349.39	23.23	-53.6	-68.6	3.8	1.49e+00	0	36	104	0	78	20603
2026-01-18 07:22:43.23	349.19	23.13	-53.6	-68.6	3.8	1.49e+00	0	36	104	0	78	20676
2026-01-18 07:22:44.24	348.98	23.03	-53.6	-68.6	3.8	1.49e+00	0	36	104	0	78	20683
2026-01-18 07:22:45.25	348.78	22.93	-53.6	-68.6	3.8	1.49e+00	0	36	104	0	78	20731
2026-01-18 07:22:46.25	348.58	22.83	-53.6	-68.6	3.8	1.49e+00	0	36	104	0	78	20708
2026-01-18 07:22:47.26	348.37	22.73	-53.6	-68.6	3.8	1.49e+00	0	36	104	0	78	20670
2026-01-18 07:22:48.27	348.17	22.63	-53.6	-68.6	3.8	1.49e+00	0	36	104	0	78	20686
2026-01-18 07:22:49.28	347.98	22.53	-53.6	-68.6	3.8	1.49e+00	0	36	104	0	78	20656
2026-01-18 07:22:50.29	347.78	22.43	-53.6	-68.6	3.8	1.49e+00	0	36	104	0	78	20631
2026-01-18 07:22:51.29	347.58	22.33	-53.6	-68.6	3.8	1.49e+00	0	36	104	0	78	20701
2026-01-18 07:22:52.30	347.39	22.23	-53.6	-68.6	3.8	1.49e+00	0	36	104	0	78	20665
2026-01-18 07:22:53.31	347.20	22.13	-53.6	-68.6	3.8	1.49e+00	0	36	104	0	78	20651
2026-01-18 07:22:54.32	347.00	22.03	-53.6	-68.6	3.8	1.49e+00	0	36	104	0	78	20673
2026-01-18 07:22:55.33	346.81	21.93	-53.6	-68.6	3.8	1.49e+00	0	36	104	0	78	20622
2026-01-18 07:22:56.33	346.63	21.83	-53.6	-68.6	3.8	1.49e+00	0	36	104	0	78	20661
2026-01-18 07:22:57.34	346.44	21.73	-53.6	-68.6	3.8	1.49e+00	0	36	104	0	78	20659
2026-01-18 07:22:58.35	346.25	21.63	-53.6	-68.6	3.8	1.49e+00	0	36	104	0	78	20634
2026-01-18 07:22:59.35	346.07	21.53	-53.6	-68.6	3.8	1.49e+00	0	36	104	0	78	20621
2026-01-18 07:23:00.36	345.88	21.43	-53.6	-68.6	3.8	1.49e+00	0	36	104	0	78	20614
2026-01-18 07:23:01.37	345.70	21.33	-53.6	-68.6	3.8	1.49e+00	0	36	104	0	78	20655
2026-01-18 07:23:02.38	345.51	21.23	-53.6	-68.6	3.8	1.49e+00	0	36	104	0	78	20648
2026-01-18 07:23:03.39	345.33	21.13	-53.6	-68.6	3.8	1.49e+00	0	36	104	0	78	20667
2026-01-18 07:23:04.39	345.16	21.03	-53.6	-68.6	3.8	1.49e+00	0	36	104	0	78	20640
2026-01-18 07:23:05.40	344.98	20.94	-53.6	-68.6	3.8	1.49e+00	0	36	104	0	78	20643
2026-01-18 07:23:06.41	344.80	20.84	-53.6	-68.6	3.8	1.49e+00	0	36	104	0	78	20658
2026-01-18 07:23:07.42	344.62	20.74	-53.6	-68.6	3.8	1.49e+00	0	36	104	0	78	20655
2026-01-18 07:23:08.43	344.45	20.64	-53.6	-68.6	3.8	1.49e+00	0	36	104	0	78	20628
2026-01-18 07:23:09.43	344.27	20.54	-53.6	-68.6	3.8	1.49e+00	0	36	104	0	78	20637
2026-01-18 07:23:10.44	344.10	20.44	-53.6	-68.6	3.8	1.49e+00	0	36	104	0	78	20616
2026-01-18 07:23:11.45	343.93	20.34	-53.6	-68.6	3.8	1.49e+00	0	36	104	0	78	20689
2026-01-18 07:23:12.46	343.76	20.25	-53.6	-68.6	3.8	1.49e+00	0	36	104	0	78	20640
2026-01-18 07:23:13.47	343.59	20.15	-53.6	-68.6	3.8	1.49e+00	0	36	104	0	78	20668
2026-01-18 07:23:14.48	343.42	20.05	-53.6	-68.6	3.8	1.49e+00	0	36	104	0	78	20619
2026-01-18 07:23:15.49	343.25	19.95	-53.6	-68.6	3.8	1.49e+00	0	36	104	0	78	20650
2026-01-18 07:23:16.50	343.09	19.85	-53.6	-68.6	3.8	1.49e+00	0	36	104	0	78	20683
2026-01-18 07:23:17.50	342.92	19.76	-53.6	-68.6	3.8	1.49e+00	0	36	104	0	78	20628
2026-01-18 07:23:18.51	342.76	19.66	-53.6	-68.6	3.8	1.49e+00	0	36	104	0	78	20590
2026-01-18 07:23:19.52	342.59	19.56	-53.6	-68.6	3.8	1.49e+00	0	36	104	0	78	20570
2026-01-18 07:23:20.53	342.43	19.46	-53.6	-68.6	3.8	1.49e+00	0	36	104	0	78	20654
2026-01-18 07:23:21.53	342.27	19.37	-53.6	-68.6	3.8	1.49e+00	0	36	104	0	78	20644
2026-01-18 07:23:22.54	342.11	19.27	-53.6	-68.6	3.8	1.49e+00	0	36	104	0	78	20575
2026-01-18 07:23:23.55	341.95	19.17	-53.6	-68.6	3.8	1.49e+00	0	36	104	0	78	20624
2026-01-18 07:23:24.55	341.80	19.08	-53.6	-68.6	3.8	1.49e+00	0	36	104	0	78	20613
2026-01-18 07:23:25.56	341.64	18.98	-53.6	-68.6	3.8	1.49e+00	0	36	104	0	78	20602
2026-01-18 07:23:26.57	341.48	18.88	-53.6	-68.6	3.8	1.49e+00	0	36	104	0	78	20668
2026-01-18 07:23:27.58	341.33	18.79	-53.6	-68.6	3.8	1.49e+00	0	36	104	0	78	20625
2026-01-18 07:23:28.59	341.17	18.69	-53.6	-68.6	3.8	1.49e+00	0	36	104	0	78	20598
2026-01-18 07:23:29.59	341.02	18.60	-53.6	-68.6	3.8	1.49e+00	0	36	104	0	78	20603
2026-01-18 07:23:30.60	340.87	18.50	-53.6	-68.6	3.8	1.49e+00	0	36	104	0	78	20576
2026-01-18 07:23:31.61	340.72	18.40	-53.6	-68.6	3.8	1.49e+00	0	36	104	0	78	20564
2026-01-18 07:23:32.62	340.57	18.31	-53.6	-68.6	3.8	1.49e+00	0	36	104	0	78	20631
2026-01-18 07:23:33.63	340.42	18.21	-53.6	-68.6	3.8	1.49e+00	0	36	104	0	78	20618
2026-01-18 07:23:34.63	340.27	18.12	-53.6	-68.6	3.8	1.49e+00	0	36	104	0	78	20606
2026-01-18 07:23:35.64	340.13	18.02	-53.6	-68.6	3.8	1.49e+00	0	36	104	0	78	20607
2026-01-18 07:23:36.65	339.98	17.93	-53.6	-68.6	3.8	1.49e+00	0	36	104	0	78	20584
2026-01-18 07:23:37.66	339.83	17.83	-53.6	-68.6	3.8	1.49e+00	0	36	104	0	78	20546
2026-01-18 07:23:38.67	339.69	17.74	-53.6	-68.6	3.8	1.49e+00	0	36	104	0	78	20629
2026-01-18 07:23:39.67	339.55	17.65	-53.6	-68.6	3.8	1.49e+00	0	36	104	0	78	20647
2026-01-18 07:23:40.68	339.40	17.55	-53.6	-68.6	3.8	1.49e+00	0	36	104	0	78	20635
2026-01-18 07:23:41.69	339.26	17.46	-53.6	-68.6	3.8	1.49e+00	0	36	104	0	78	20660
2026-01-18 07:23:42.70	339.12	17.36	-53.6	-68.6	3.8	1.49e+00	0	36	104	0	78	20652
2026-01-18 07:23:43.71	338.98	17.27	-53.6	-68.6	3.8	1.49e+00	0	36	104	0	78	20628
2026-01-18 07:23:44.71	338.84	17.18	-53.6	-68.6	3.8	1.49e+00	0	36	104	0	78	20557
2026-01-18 07:23:45.72	338.71	17.08	-53.6	-68.6	3.8	1.49e+00	0	36	104	0	78	20581
2026-01-18 07:23:46.73	338.57	16.99	-53.6	-68.6	3.8	1.49e+00	0	36	104	0	78	20592
2026-01-18 07:23:47.74	338.43	16.90	-53.6	-68.6	3.8	1.49e+00	0	36	104	0	78	20548
2026-01-18 07:23:48.75	338.30	16.80	-53.6	-68.6	3.8	1.49e+00	0	36	104	0	78	20608
2026-01-18 07:23:49.75	338.16	16.71	-53.6	-68.5	3.8	1.49e+00	0	36	104	0	78	20533
2026-01-18 07:23:50.76	338.03	16.62	-53.6	-68.6	3.8	1.49e+00	0	36	104	0	78	20575
2026-01-18 07:23:51.77	337.90	16.53	-53.6	-68.6	3.8	1.49e+00	0	36	104	0	78	20579
2026-01-18 07:23:52.78	337.76	16.44	-53.6	-68.6	3.8	1.49e+00	0	36	104	0	78	20618
2026-01-18 07:23:53.79	337.63	16.34	-53.6	-68.6	3.8	1.49e+00	0	36	104	0	78	20653
2026-01-18 07:23:54.79	337.50	16.25	-53.6	-68.6	3.8	1.49e+00	0	36	104	0	78	20576
2026-01-18 07:23:55.80	337.37	16.16	-53.6	-68.6	3.8	1.49e+00	0	36	104	0	78	20576
2026-01-18 07:23:56.81	337.24	16.07	-53.6	-68.6	3.8	1.49e+00	0	36	104	0	78	20579
2026-01-18 07:23:57.82	337.12	15.98	-53.6	-68.6	3.8	1.49e+00	0	36	104	0	78	20595
2026-01-18 07:23:58.82	336.99	15.89	-53.6	-68.6	3.8	1.49e+00	0	36	104	0	78	20566
2026-01-18 07:23:59.83	336.86	15.80	-53.6	-68.6	3.8	1.49e+00	0	36	104	0	78	20559
2026-01-18 07:24:00.84	336.74	15.71	-53.6	-68.6	3.8	1.49e+00	0	36	104	0	78	20581
2026-01-18 07:24:01.85	336.61	15.62	-53.6	-68.6	3.8	1.49e+00	0	36	104	0	78	20623
2026-01-18 07:24:02.86	336.49	15.53	-53.6	-68.6	3.8	1.49e+00	0	36	104	0	78	20576
2026-01-18 07:24:03.87	336.37	15.44	-53.6	-68.6	3.8	1.49e+00	0	36	104	0	78	20602
2026-01-18 07:24:04.88	336.24	15.35	-53.6	-68.6	3.8	1.49e+00	0	36	104	0	78	20565
2026-01-18 07:24:05.89	336.12	15.26	-53.6	-68.6	3.8	1.49e+00	0	36	104	0	78	20561
2026-01-18 07:24:06.89	336.00	15.17	-53.6	-68.5	3.8	1.49e+00	0	35	104	0	78	20526
2026-01-18 07:24:07.90	335.88	15.08	-53.6	-68.6	3.8	1.49e+00	0	36	104	0	78	20587
2026-01-18 07:24:08.91	335.76	14.99	-53.6	-68.6	3.8	1.49e+00	0	36	104	0	78	20544
2026-01-18 07:24:09.92	335.64	14.90	-53.6	-68.6	3.8	1.49e+00	0	36	104	0	78	20601
2026-01-18 07:24:10.93	335.52	14.81	-53.6	-68.6	3.8	1.49e+00	0	36	104	0	78	20562
2026-01-18 07:24:11.94	335.41	14.73	-53.5	-68.6	3.8	1.49e+00	0	36	104	0	78	20557
2026-01-18 07:24:12.95	335.29	14.64	-53.6	-68.6	3.8	1.49e+00	0	36	104	0	78	20560
2026-01-18 07:24:13.96	335.17	14.55	-53.6	-68.6	3.8	1.49e+00	0	36	104	0	78	20585
2026-01-18 07:24:14.97	335.06	14.46	-53.6	-68.6	3.8	1.49e+00	0	36	104	0	78	20539
2026-01-18 07:24:15.98	334.94	14.37	-53.6	-68.6	3.8	1.49e+00	0	36	104	0	78	20573
2026-01-18 07:24:16.99	334.83	14.29	-53.6	-68.6	3.8	1.49e+00	0	36	104	0	78	20591
2026-01-18 07:24:17.99	334.72	14.20	-53.6	-68.6	3.8	1.49e+00	0	36	104	0	78	20553
2026-01-18 07:24:19.00	334.60	14.11	-53.6	-68.6	3.8	1.49e+00	0	36	104	0	78	20587
2026-01-18 07:24:20.01	334.49	14.03	-53.6	-68.6	3.8	1.49e+00	0	36	104	0	78	20581
2026-01-18 07:24:21.02	334.38	13.94	-53.6	-68.6	3.8	1.49e+00	0	36	104	0	78	20592
2026-01-18 07:24:22.03	334.27	13.85	-53.6	-68.6	3.8	1.49e+00	0	36	104	0	78	20540
2026-01-18 07:24:23.03	334.16	13.77	-53.6	-68.6	3.8	1.49e+00	0	36	104	0	78	20597
2026-01-18 07:24:24.04	334.05	13.68	-53.5	-68.6	3.8	1.49e+00	0	36	104	0	78	20562
2026-01-18 07:24:25.05	333.94	13.60	-53.6	-68.6	3.8	1.49e+00	0	36	104	0	78	20551
2026-01-18 07:24:26.06	333.83	13.51	-53.6	-68.6	3.8	1.49e+00	0	36	104	0	78	20626
2026-01-18 07:24:27.07	333.73	13.43	-53.6	-68.6	3.8	1.49e+00	0	36	104	0	78	20546
2026-01-18 07:24:28.07	333.62	13.34	-53.6	-68.5	3.8	1.49e+00	0	36	104	0	78	20516
2026-01-18 07:24:29.08	333.51	13.26	-53.6	-68.6	3.8	1.49e+00	0	36	104	0	78	20567
2026-01-18 07:24:30.09	333.41	13.17	-53.6	-68.5	3.8	1.49e+00	0	36	104	0	78	20531
2026-01-18 07:24:31.10	333.30	13.09	-53.6	-68.6	3.8	1.49e+00	0	36	104	0	78	20600
2026-01-18 07:24:32.11	333.20	13.00	-53.5	-68.6	3.8	1.49e+00	0	36	104	0	78	20550
2026-01-18 07:24:33.11	333.10	12.92	-53.6	-68.6	3.8	1.49e+00	0	36	104	0	78	20564
2026-01-18 07:24:34.12	332.99	12.83	-53.6	-68.6	3.8	1.49e+00	0	36	104	0	78	20552
2026-01-18 07:24:35.13	332.89	12.75	-53.5	-68.6	3.8	1.49e+00	0	36	104	0	78	20610
2026-01-18 07:24:36.14	332.79	12.67	-53.6	-68.5	3.8	1.49e+00	0	36	104	0	78	20538
2026-01-18 07:24:37.15	332.69	12.58	-53.6	-68.6	3.8	1.49e+00	0	36	104	0	78	20543
2026-01-18 07:24:38.15	332.59	12.50	-53.6	-68.6	3.8	1.49e+00	0	36	104	0	78	20565
2026-01-18 07:24:39.16	332.49	12.42	-53.6	-68.6	3.8	1.49e+00	0	36	104	0	78	20553
2026-01-18 07:24:40.17	332.39	12.33	-53.5	-68.6	3.8	1.49e+00	0	36	104	0	78	20545
2026-01-18 07:24:41.18	332.29	12.25	-53.5	-68.6	3.8	1.49e+00	0	36	104	0	78	20571
2026-01-18 07:24:42.18	332.19	12.17	-53.5	-68.6	3.8	1.49e+00	0	36	104	0	78	20562
2026-01-18 07:24:43.19	332.10	12.09	-53.5	-68.5	3.8	1.49e+00	0	36	104	0	78	20531
2026-01-18 07:24:44.20	332.00	12.01	-53.6	-68.5	3.8	1.49e+00	0	36	104	0	78	20517
2026-01-18 07:24:45.21	331.90	11.92	-53.6	-68.6	3.8	1.49e+00	0	36	104	0	78	20556
2026-01-18 07:24:46.22	331.81	11.84	-53.5	-68.6	3.8	1.49e+00	0	36	104	0	78	20542
2026-01-18 07:24:47.23	331.71	11.76	-53.6	-68.6	3.8	1.49e+00	0	36	104	0	78	20555
2026-01-18 07:24:48.23	331.62	11.68	-53.6	-68.6	3.8	1.49e+00	0	36	104	0	78	20570
2026-01-18 07:24:49.24	331.52	11.60	-53.5	-68.5	3.8	1.49e+00	0	36	104	0	78	20516
2026-01-18 07:24:50.25	331.43	11.52	-53.5	-68.6	3.8	1.49e+00	0	36	104	0	78	20563
2026-01-18 07:24:51.25	331.34	11.44	-53.6	-68.6	3.8	1.49e+00	0	36	104	0	78	20586
2026-01-18 07:24:52.26	331.24	11.36	-53.6	-68.6	3.8	1.49e+00	0	36	104	0	78	20609
2026-01-18 07:24:53.27	331.15	11.28	-53.6	-68.6	3.8	1.49e+00	0	36	104	0	78	20582
2026-01-18 07:24:54.28	331.06	11.20	-53.5	-68.6	3.8	1.49e+00	0	36	104	0	78	20546
2026-01-18 07:24:55.29	330.97	11.12	-53.6	-68.6	3.8	1.49e+00	0	36	104	0	78	20569
2026-01-18 07:24:56.30	330.88	11.04	-53.6	-68.6	3.8	1.49e+00	0	36	104	0	78	20587
2026-01-18 07:24:57.30	330.79	10.96	-53.6	-68.5	3.8	1.49e+00	0	36	104	0	78	20492
2026-01-18 07:24:58.31	330.70	10.88	-53.6	-68.6	3.8	1.49e+00	0	36	104	0	78	20560
2026-01-18 07:24:59.32	330.61	10.80	-53.5	-68.6	3.8	1.49e+00	0	36	104	0	78	20583
2026-01-18 07:25:00.33	330.52	10.72	-53.5	-68.5	3.8	1.49e+00	0	36	104	0	78	20512
2026-01-18 07:25:01.34	330.43	10.64	-53.6	-68.5	3.8	1.49e+00	0	36	104	0	78	20509
2026-01-18 07:25:02.35	330.34	10.56	-53.5	-68.6	3.8	1.49e+00	0	36	104	0	78	20545
2026-01-18 07:25:03.35	330.26	10.48	-53.5	-68.6	3.8	1.49e+00	0	36	104	0	78	20543
2026-01-18 07:25:04.36	330.17	10.41	-53.5	-68.6	3.8	1.49e+00	0	36	104	0	78	20588
2026-01-18 07:25:05.37	330.08	10.33	-53.5	-68.5	3.8	1.49e+00	0	36	104	0	78	20535
2026-01-18 07:25:06.38	330.00	10.25	-53.5	-68.6	3.8	1.49e+00	0	36	104	0	78	20546
2026-01-18 07:25:07.38	329.91	10.17	-53.5	-68.5	3.8	1.49e+00	0	36	104	0	78	20504
2026-01-18 07:25:08.39	329.83	10.09	-53.5	-68.6	3.8	1.49e+00	0	36	104	0	78	20544
2026-01-18 07:25:09.40	329.74	10.02	-53.5	-68.5	3.8	1.49e+00	0	36	104	0	78	20508
2026-01-18 07:25:10.41	329.66	9.94	-53.5	-68.6	3.8	1.49e+00	0	36	104	0	78	20571
2026-01-18 07:25:11.42	329.58	9.86	-53.5	-68.5	3.8	1.49e+00	0	36	104	0	78	20517
2026-01-18 07:25:12.43	329.49	9.79	-53.5	-68.6	3.8	1.49e+00	0	36	104	0	78	20583
2026-01-18 07:25:13.43	329.41	9.71	-53.5	-68.5	3.8	1.49e+00	0	36	104	0	78	20534
2026-01-18 07:25:14.44	329.33	9.63	-53.5	-68.5	3.8	1.49e+00	0	36	104	0	78	20525
2026-01-18 07:25:15.45	329.25	9.56	-53.5	-68.5	3.8	1.49e+00	0	36	104	0	78	20527
2026-01-18 07:25:16.46	329.17	9.48	-53.5	-68.5	3.8	1.49e+00	0	36	104	0	78	20519
2026-01-18 07:25:17.47	329.09	9.40	-53.5	-68.6	3.8	1.49e+00	0	36	104	0	78	20575
2026-01-18 07:25:18.47	329.01	9.33	-53.5	-68.5	3.8	1.49e+00	0	36	104	0	78	20453
2026-01-18 07:25:19.48	328.93	9.25	-53.5	-68.5	3.8	1.49e+00	0	36	104	0	78	20515
2026-01-18 07:25:20.49	328.85	9.18	-53.5	-68.6	3.8	1.49e+00	0	36	104	0	78	20567
2026-01-18 07:25:21.50	328.77	9.10	-53.5	-68.6	3.8	1.49e+00	0	35	104	0	78	20548
2026-01-18 07:25:22.50	328.69	9.03	-53.5	-68.5	3.8	1.49e+00	0	36	104	0	78	20467
2026-01-18 07:25:23.51	328.61	8.95	-53.5	-68.5	3.8	1.49e+00	0	36	104	0	78	20480
2026-01-18 07:25:24.52	328.53	8.88	-53.5	-68.5	3.8	1.49e+00	0	36	104	0	78	20490
2026-01-18 07:25:25.53	328.46	8.80	-53.5	-68.5	3.8	1.49e+00	0	36	104	0	78	20526
2026-01-18 07:25:26.53	328.38	8.73	-53.5	-68.5	3.8	1.49e+00	0	36	104	0	78	20497
2026-01-18 07:25:27.54	328.30	8.66	-53.5	-68.5	3.8	1.49e+00	0	36	104	0	78	20507
2026-01-18 07:25:28.55	328.23	8.58	-53.5	-68.5	3.8	1.49e+00	0	36	104	0	78	20491
2026-01-18 07:25:29.56	328.15	8.51	-53.5	-68.6	3.8	1.49e+00	0	36	104	0	78	20553
2026-01-18 07:25:30.56	328.08	8.43	-53.5	-68.5	3.8	1.49e+00	0	36	104	0	78	20474
2026-01-18 07:25:31.57	328.00	8.36	-53.5	-68.5	3.8	1.49e+00	0	36	104	0	78	20516
2026-01-18 07:25:32.58	327.93	8.29	-53.5	-68.5	3.8	1.49e+00	0	36	104	0	78	20490
2026-01-18 07:25:33.59	327.85	8.21	-53.5	-68.5	3.8	1.49e+00	0	36	104	0	78	20480
2026-01-18 07:25:34.59	327.78	8.14	-53.5	-68.5	3.8	1.49e+00	0	36	104	0	78	20486
2026-01-18 07:25:35.60	327.71	8.07	-53.5	-68.5	3.8	1.49e+00	0	36	104	0	78	20488
2026-01-18 07:25:36.61	327.64	8.00	-53.5	-68.5	3.8	1.49e+00	0	36	104	0	78	20511
2026-01-18 07:25:37.62	327.56	7.92	-53.5	-68.5	3.8	1.49e+00	0	36	104	0	78	20487
2026-01-18 07:25:38.62	327.49	7.85	-53.5	-68.5	3.8	1.49e+00	0	36	104	0	78	20478
2026-01-18 07:25:39.63	327.42	7.78	-53.5	-68.5	3.8	1.49e+00	0	36	104	0	78	20438
2026-01-18 07:25:40.64	327.35	7.71	-53.5	-68.5	3.8	1.49e+00	0	36	104	0	78	20465
2026-01-18 07:25:41.65	327.28	7.63	-53.5	-68.5	3.8	1.49e+00	0	36	104	0	78	20479
2026-01-18 07:25:42.66	327.21	7.56	-53.5	-68.5	3.8	1.49e+00	0	36	104	0	78	20493
2026-01-18 07:25:43.67	327.14	7.49	-53.5	-68.5	3.8	1.49e+00	0	36	104	0	78	20463
2026-01-18 07:25:44.67	327.07	7.42	-53.5	-68.5	3.8	1.49e+00	0	36	104	0	78	20455
2026-01-18 07:25:45.68	327.00	7.35	-53.5	-68.5	3.8	1.49e+00	0	36	104	0	78	20456
2026-01-18 07:25:46.69	326.93	7.28	-53.5	-68.5	3.8	1.49e+00	0	36	104	0	78	20487
2026-01-18 07:25:47.70	326.86	7.21	-53.5	-68.5	3.8	1.49e+00	0	36	104	0	78	20475
2026-01-18 07:25:48.71	326.79	7.13	-53.5	-68.5	3.8	1.49e+00	0	36	104	0	78	20478
2026-01-18 07:25:49.72	326.72	7.06	-53.5	-68.5	3.8	1.49e+00	0	36	104	0	78	20444
2026-01-18 07:25:50.73	326.65	6.99	-53.5	-68.5	3.8	1.49e+00	0	35	104	0	78	20445
2026-01-18 07:25:51.73	326.59	6.92	-53.5	-68.5	3.8	1.49e+00	0	36	104	0	78	20483
2026-01-18 07:25:52.74	326.52	6.85	-53.5	-68.5	3.8	1.49e+00	0	36	104	0	78	20457
2026-01-18 07:25:53.75	326.45	6.78	-53.5	-68.5	3.8	1.49e+00	0	36	104	0	78	20441
2026-01-18 07:25:54.76	326.39	6.71	-53.5	-68.5	3.8	1.49e+00	0	36	104	0	78	20454
2026-01-18 07:25:55.77	326.32	6.64	-53.5	-68.5	3.8	1.49e+00	0	36	104	0	78	20455
2026-01-18 07:25:56.77	326.25	6.57	-53.5	-68.5	3.8	1.49e+00	0	36	104	0	78	20450
2026-01-18 07:25:57.78	326.19	6.50	-53.5	-68.5	3.8	1.49e+00	0	36	104	0	78	20526
2026-01-18 07:25:58.79	326.12	6.44	-53.5	-68.5	3.8	1.49e+00	0	36	104	0	78	20501
2026-01-18 07:25:59.80	326.06	6.37	-53.5	-68.5	3.8	1.49e+00	0	36	104	0	78	20475
2026-01-18 07:26:00.81	325.99	6.30	-53.5	-68.5	3.8	1.49e+00	0	36	104	0	78	20486
2026-01-18 07:26:01.81	325.93	6.23	-53.5	-68.5	3.8	1.49e+00	0	36	104	0	78	20439
2026-01-18 07:26:02.82	325.87	6.16	-53.5	-68.5	3.8	1.49e+00	0	36	104	0	78	20440
2026-01-18 07:26:03.83	325.80	6.09	-53.5	-68.5	3.8	1.49e+00	0	36	104	0	78	20406
2026-01-18 07:26:04.83	325.74	6.02	-53.5	-68.5	3.8	1.49e+00	0	36	104	0	78	20491
2026-01-18 07:26:05.84	325.68	5.95	-53.5	-68.5	3.8	1.49e+00	0	36	104	0	78	20461
2026-01-18 07:26:06.85	325.62	5.89	-53.5	-68.5	3.8	1.49e+00	0	36	104	0	78	20449
2026-01-18 07:26:07.86	325.55	5.82	-53.5	-68.5	3.8	1.49e+00	0	36	104	0	78	20473
2026-01-18 07:26:08.86	325.49	5.75	-53.5	-68.5	3.8	1.49e+00	0	36	104	0	78	20478
