passes_logs/2026/01/18/R3.2S_Murmansk/R3.2S_Murmansk__20260118_023652_AQUA_rec.log

#Pass ID: 20260118_023652_AQUA
#Satellite: AQUA
#Configuration: AQUA
#almurnet v.1.7.20251203
#Start time: 2026-01-18 02:36:52

#Version: 2.2.20231116
#Station: R3.2S_Murmansk
#Location: 33.079688 lon 68.888172 lat
#TLE: 1 27424U 02022A   26017.62394888  .00000781  00000+0  16630-3 0  9993
#TLE: 2 27424  98.4086 344.0954 0002010  75.0132 339.4723 14.61825944261279

#Time	Az	El	Level	Level2	SNR	BER	BlckErr	Temp	State	Recorded	gain1	gain2
2026-01-18 02:36:52.40	24.37	1.99	-53.3	-71.0	3.8	7.45e-01	0	33	0	0	78	27096
2026-01-18 02:36:53.40	24.37	2.05	-53.3	-70.7	3.8	7.45e-01	0	33	104	0	77	27738
2026-01-18 02:36:54.41	24.36	2.12	-53.3	-70.9	3.8	7.46e-01	0	33	104	0	77	28446
2026-01-18 02:36:55.41	24.36	2.19	-53.3	-70.7	3.8	7.46e-01	0	33	104	0	77	27728
2026-01-18 02:36:56.42	24.35	2.25	-53.3	-70.6	3.8	7.42e-01	0	33	104	0	77	27499
2026-01-18 02:36:57.43	24.35	2.32	-53.3	-70.5	3.8	7.49e-01	0	34	104	0	77	27289
2026-01-18 02:36:58.44	24.34	2.39	-53.3	-70.3	3.8	7.45e-01	0	34	104	0	77	26618
2026-01-18 02:36:59.44	24.34	2.46	-53.3	-70.4	3.8	7.44e-01	0	34	104	0	77	26793
2026-01-18 02:37:00.45	24.33	2.52	-53.3	-69.9	3.8	7.46e-01	0	34	104	0	77	25548
2026-01-18 02:37:01.46	24.32	2.59	-53.3	-69.8	3.8	7.46e-01	0	34	104	0	77	25045
2026-01-18 02:37:02.47	24.32	2.66	-53.3	-69.6	3.8	7.45e-01	0	34	104	0	77	24599
2026-01-18 02:37:03.48	24.31	2.73	-53.3	-69.5	3.8	7.44e-01	0	34	104	0	77	24138
2026-01-18 02:37:04.49	24.31	2.80	-53.3	-69.4	3.9	7.44e-01	0	34	104	0	77	24021
2026-01-18 02:37:05.49	24.30	2.87	-53.2	-68.7	3.9	7.41e-01	0	34	104	0	77	22009
2026-01-18 02:37:06.50	24.30	2.93	-53.2	-68.6	3.9	7.43e-01	0	34	104	0	77	21924
2026-01-18 02:37:07.51	24.29	3.00	-53.2	-67.1	4.3	7.26e-01	0	34	104	0	77	18361
2026-01-18 02:37:08.52	24.28	3.07	-53.1	-64.7	5.5	6.95e-01	22	34	0	0	77	14019
2026-01-18 02:37:09.52	24.28	3.14	-52.9	-63.1	6.8	6.69e-01	182	34	0	1572864	77	11594
2026-01-18 02:37:10.53	24.27	3.21	-52.4	-59.7	10.2	6.18e-01	0	34	0	3145728	76	8329
2026-01-18 02:37:11.54	24.26	3.28	-51.8	-57.6	12.4	6.08e-01	0	34	0	5242880	75	6924
2026-01-18 02:37:12.55	24.26	3.35	-51.4	-56.5	13.4	6.07e-01	0	34	0	7340032	74	6456
2026-01-18 02:37:13.56	24.25	3.42	-50.8	-54.9	15.2	6.05e-01	0	34	0	8912896	73	5683
2026-01-18 02:37:14.57	24.25	3.49	-49.9	-53.2	16.9	6.05e-01	0	34	0	11010048	71	5261
2026-01-18 02:37:15.57	24.24	3.56	-49.5	-52.5	17.8	6.01e-01	0	34	0	12582912	70	5115
2026-01-18 02:37:16.58	24.23	3.64	-49.1	-51.8	18.4	6.02e-01	0	34	0	14680064	70	4725
2026-01-18 02:37:17.59	24.23	3.71	-49.1	-51.8	18.5	6.01e-01	0	34	0	16252928	70	4726
2026-01-18 02:37:18.59	24.22	3.78	-48.5	-50.9	19.3	6.04e-01	0	34	0	18350080	69	4520
2026-01-18 02:37:19.60	24.21	3.85	-48.0	-50.2	20.2	6.01e-01	0	34	0	20447232	67	4695
2026-01-18 02:37:20.61	24.21	3.92	-47.5	-49.6	20.7	6.02e-01	0	34	0	22544384	67	4351
2026-01-18 02:37:21.62	24.20	3.99	-47.7	-49.8	20.5	6.04e-01	0	34	0	24117248	66	4742
2026-01-18 02:37:22.62	24.19	4.06	-47.3	-49.2	21.0	6.01e-01	0	34	0	26214400	66	4437
2026-01-18 02:37:23.63	24.18	4.14	-48.5	-50.9	19.4	6.02e-01	0	34	0	27787264	67	5078
2026-01-18 02:37:24.64	24.18	4.21	-48.3	-50.6	19.7	6.02e-01	0	34	0	29884416	67	4876
2026-01-18 02:37:25.65	24.17	4.28	-48.1	-50.3	20.1	6.05e-01	0	34	0	31457280	67	4719
2026-01-18 02:37:26.66	24.16	4.36	-48.7	-51.2	19.1	6.02e-01	0	34	0	33554432	67	5220
2026-01-18 02:37:27.66	24.16	4.43	-49.2	-52.0	18.2	6.02e-01	0	34	0	35651584	68	5405
2026-01-18 02:37:28.67	24.15	4.50	-49.7	-52.8	17.4	6.03e-01	0	34	0	37224448	69	5646
2026-01-18 02:37:29.68	24.14	4.58	-50.2	-53.8	16.4	6.02e-01	0	34	0	39321600	71	5621
2026-01-18 02:37:30.68	24.13	4.65	-50.7	-54.8	15.5	6.03e-01	0	34	0	40894464	71	6284
2026-01-18 02:37:31.69	24.13	4.72	-51.2	-55.9	14.2	6.05e-01	0	34	0	42991616	72	6746
2026-01-18 02:37:32.70	24.12	4.80	-51.4	-56.5	13.6	6.05e-01	0	34	0	45088768	73	6876
2026-01-18 02:37:33.71	24.11	4.87	-51.8	-57.6	12.4	6.05e-01	0	34	0	46661632	74	7363
2026-01-18 02:37:34.72	24.10	4.95	-52.0	-58.5	11.6	6.12e-01	0	34	0	48758784	74	8121
2026-01-18 02:37:35.72	24.10	5.02	-52.2	-59.1	10.9	6.14e-01	0	34	0	50855936	74	8687
2026-01-18 02:37:36.73	24.09	5.10	-50.2	-53.4	16.8	6.04e-01	0	34	0	52428800	72	5074
2026-01-18 02:37:37.74	24.08	5.17	-52.4	-59.5	11.4	6.17e-01	0	35	0	54525952	75	8580
2026-01-18 02:37:38.75	24.07	5.25	-52.3	-59.0	11.2	6.11e-01	0	34	0	56098816	76	7680
2026-01-18 02:37:39.76	24.06	5.33	-50.5	-54.0	16.1	6.02e-01	0	34	0	58195968	73	5104
2026-01-18 02:37:40.76	24.06	5.40	-53.1	-65.6	5.6	7.02e-01	134	34	0	59768832	76	16435
2026-01-18 02:37:41.77	24.05	5.48	-51.1	-55.4	14.3	6.03e-01	0	34	104	59768832	74	5659
2026-01-18 02:37:42.78	24.04	5.56	-50.2	-53.4	17.1	6.01e-01	0	34	0	61341696	71	5385
2026-01-18 02:37:43.79	24.03	5.63	-49.6	-52.4	18.2	6.04e-01	0	34	0	62914560	71	4796
2026-01-18 02:37:44.80	24.02	5.71	-49.3	-51.9	18.8	6.00e-01	0	34	0	65011712	70	4767
2026-01-18 02:37:45.80	24.01	5.79	-48.9	-51.3	19.4	6.00e-01	0	35	0	67108864	69	4708
2026-01-18 02:37:46.81	24.01	5.87	-48.8	-51.1	19.6	6.02e-01	0	34	0	68681728	69	4618
2026-01-18 02:37:47.82	24.00	5.94	-48.8	-51.1	19.6	6.00e-01	0	35	0	70778880	69	4622
2026-01-18 02:37:48.83	23.99	6.02	-48.7	-51.0	19.7	6.04e-01	0	34	0	72351744	69	4581
2026-01-18 02:37:49.84	23.98	6.10	-48.1	-50.2	20.5	6.00e-01	0	34	0	74448896	68	4412
2026-01-18 02:37:50.84	23.97	6.18	-47.8	-49.7	21.1	6.02e-01	0	34	0	76021760	67	4413
2026-01-18 02:37:51.85	23.96	6.26	-47.6	-49.5	21.3	6.01e-01	0	35	0	78118912	67	4325
2026-01-18 02:37:52.86	23.95	6.34	-47.7	-49.6	21.2	6.03e-01	0	34	0	80216064	67	4386
2026-01-18 02:37:53.86	23.94	6.42	-47.7	-49.5	21.4	6.03e-01	0	35	0	81788928	67	4332
2026-01-18 02:37:54.87	23.93	6.50	-47.6	-49.5	21.4	6.01e-01	0	35	0	83886080	67	4301
2026-01-18 02:37:55.88	23.93	6.58	-47.4	-49.2	21.5	6.02e-01	0	34	0	85458944	66	4435
2026-01-18 02:37:56.89	23.92	6.66	-47.6	-49.5	21.3	6.03e-01	0	35	0	87556096	66	4576
2026-01-18 02:37:57.90	23.91	6.74	-47.4	-49.3	21.6	6.02e-01	0	35	0	89653248	66	4452
2026-01-18 02:37:58.90	23.90	6.82	-47.3	-49.1	21.8	6.03e-01	0	35	0	91226112	66	4380
2026-01-18 02:37:59.91	23.89	6.90	-47.4	-49.2	21.7	6.01e-01	0	35	0	93323264	66	4437
2026-01-18 02:38:00.92	23.88	6.98	-47.3	-49.0	21.9	5.98e-01	0	35	0	95420416	66	4317
2026-01-18 02:38:01.93	23.87	7.06	-47.4	-49.3	21.7	6.02e-01	0	35	0	96993280	66	4442
2026-01-18 02:38:02.94	23.86	7.15	-47.1	-48.9	22.1	6.02e-01	0	35	0	99090432	66	4244
2026-01-18 02:38:03.94	23.85	7.23	-47.2	-49.0	22.0	6.01e-01	0	35	0	100663296	66	4310
2026-01-18 02:38:04.95	23.84	7.31	-46.7	-48.3	22.6	6.02e-01	0	35	0	102760448	65	4231
2026-01-18 02:38:05.96	23.83	7.39	-46.8	-48.4	22.6	6.02e-01	0	35	0	104333312	65	4254
2026-01-18 02:38:06.97	23.82	7.48	-46.8	-48.5	22.5	6.02e-01	0	35	0	106430464	65	4292
2026-01-18 02:38:07.98	23.81	7.56	-46.7	-48.3	22.7	6.03e-01	0	35	0	108527616	65	4219
2026-01-18 02:38:08.98	23.80	7.65	-46.8	-48.4	22.5	6.00e-01	0	35	0	110100480	65	4290
2026-01-18 02:38:09.99	23.79	7.73	-46.7	-48.3	22.7	6.04e-01	0	35	0	112197632	65	4238
2026-01-18 02:38:11.00	23.78	7.81	-46.7	-48.3	22.7	6.02e-01	0	35	0	114294784	65	4218
2026-01-18 02:38:12.01	23.77	7.90	-46.7	-48.4	22.7	6.00e-01	0	35	0	115867648	65	4243
2026-01-18 02:38:13.01	23.76	7.98	-46.6	-48.2	22.8	6.02e-01	0	35	0	117964800	65	4156
2026-01-18 02:38:14.02	23.74	8.07	-46.5	-48.0	23.0	6.00e-01	0	35	0	119537664	64	4320
2026-01-18 02:38:15.03	23.73	8.16	-46.5	-48.1	22.9	6.01e-01	0	35	0	121634816	64	4356
2026-01-18 02:38:16.04	23.72	8.24	-46.6	-48.2	22.8	6.01e-01	0	35	0	123731968	64	4404
2026-01-18 02:38:17.04	23.71	8.33	-46.3	-47.8	23.2	6.01e-01	0	35	0	125304832	64	4216
2026-01-18 02:38:18.05	23.70	8.42	-46.4	-48.0	23.0	6.04e-01	0	35	0	127401984	64	4308
2026-01-18 02:38:19.06	23.69	8.50	-46.2	-47.7	23.3	6.02e-01	0	35	0	128974848	64	4163
2026-01-18 02:38:20.07	23.68	8.59	-46.3	-47.9	23.1	5.99e-01	0	35	0	131072000	64	4255
2026-01-18 02:38:21.08	23.67	8.68	-46.1	-47.5	23.5	6.01e-01	0	35	0	132644864	64	4098
2026-01-18 02:38:22.09	23.65	8.77	-46.2	-47.7	23.3	6.00e-01	0	35	0	134742016	64	4179
2026-01-18 02:38:23.09	23.64	8.86	-46.1	-47.6	23.4	6.03e-01	0	35	0	136839168	64	4120
2026-01-18 02:38:24.10	23.63	8.94	-46.0	-47.5	23.6	6.01e-01	0	35	0	138936320	64	4061
2026-01-18 02:38:25.11	23.62	9.03	-46.0	-47.5	23.6	6.03e-01	0	35	0	140509184	64	4070
2026-01-18 02:38:26.12	23.61	9.12	-46.1	-47.6	23.5	6.05e-01	0	35	0	142606336	64	4119
2026-01-18 02:38:27.13	23.59	9.21	-46.1	-47.6	23.5	6.03e-01	0	35	0	144179200	64	4100
2026-01-18 02:38:28.13	23.58	9.30	-46.0	-47.5	23.6	6.00e-01	0	35	0	146276352	64	4071
2026-01-18 02:38:29.14	23.57	9.39	-46.0	-47.4	23.7	6.02e-01	0	35	0	147849216	63	4270
2026-01-18 02:38:30.15	23.56	9.49	-45.9	-47.3	23.8	6.02e-01	0	35	0	149946368	63	4230
2026-01-18 02:38:31.16	23.54	9.58	-46.0	-47.5	23.7	6.03e-01	0	35	0	152043520	63	4321
2026-01-18 02:38:32.17	23.53	9.67	-46.1	-47.5	23.7	6.03e-01	0	35	0	153616384	63	4321
2026-01-18 02:38:33.17	23.52	9.76	-46.1	-47.6	23.6	6.00e-01	0	35	0	155713536	63	4353
2026-01-18 02:38:34.18	23.51	9.85	-46.0	-47.4	23.8	6.02e-01	0	35	0	157286400	63	4268
2026-01-18 02:38:35.19	23.49	9.95	-46.0	-47.4	23.8	6.02e-01	0	35	0	159383552	63	4274
2026-01-18 02:38:36.19	23.48	10.04	-46.0	-47.4	23.8	6.01e-01	0	35	0	160956416	63	4282
2026-01-18 02:38:37.20	23.47	10.13	-45.9	-47.3	23.9	6.03e-01	0	35	0	163053568	63	4235
2026-01-18 02:38:38.21	23.45	10.23	-45.9	-47.4	23.8	6.01e-01	0	35	0	165150720	63	4245
2026-01-18 02:38:39.22	23.44	10.32	-46.0	-47.5	23.7	6.03e-01	0	35	0	167247872	63	4300
2026-01-18 02:38:40.23	23.43	10.42	-45.8	-47.2	24.0	6.03e-01	0	35	0	168820736	63	4179
2026-01-18 02:38:41.24	23.41	10.51	-45.9	-47.3	23.9	6.03e-01	0	35	0	170917888	63	4208
2026-01-18 02:38:42.24	23.40	10.61	-45.9	-47.4	23.9	6.02e-01	0	35	0	172490752	63	4245
2026-01-18 02:38:43.25	23.38	10.70	-46.0	-47.4	23.8	6.01e-01	0	35	0	174587904	63	4282
2026-01-18 02:38:44.26	23.37	10.80	-45.8	-47.2	24.1	6.01e-01	0	35	0	176160768	63	4178
2026-01-18 02:38:45.27	23.36	10.90	-45.8	-47.2	24.1	6.04e-01	0	35	0	178257920	63	4167
2026-01-18 02:38:46.27	23.34	11.00	-45.7	-47.1	24.2	6.03e-01	0	35	0	180355072	63	4108
2026-01-18 02:38:47.28	23.33	11.09	-45.7	-47.1	24.2	6.03e-01	0	35	0	181927936	63	4126
2026-01-18 02:38:48.29	23.31	11.19	-45.8	-47.2	24.1	6.04e-01	0	35	0	184025088	63	4159
2026-01-18 02:38:49.30	23.30	11.29	-45.6	-47.0	24.3	6.03e-01	0	35	0	186122240	63	4070
2026-01-18 02:38:50.31	23.28	11.39	-45.7	-47.1	24.2	6.01e-01	0	35	0	187695104	63	4125
2026-01-18 02:38:51.32	23.27	11.49	-45.7	-47.1	24.2	6.04e-01	0	35	0	189792256	63	4109
2026-01-18 02:38:52.32	23.25	11.59	-45.8	-47.1	24.1	6.03e-01	0	35	0	191365120	63	4140
2026-01-18 02:38:53.33	23.24	11.69	-45.6	-47.0	24.3	6.02e-01	0	35	0	193462272	63	4069
2026-01-18 02:38:54.34	23.22	11.79	-45.7	-47.1	24.2	6.01e-01	0	35	0	195559424	63	4119
2026-01-18 02:38:55.34	23.20	11.89	-45.7	-47.1	24.2	6.02e-01	0	35	0	197132288	63	4100
2026-01-18 02:38:56.35	23.19	11.99	-45.7	-47.1	24.2	6.01e-01	0	35	0	199229440	63	4118
2026-01-18 02:38:57.36	23.17	12.10	-45.5	-46.9	24.4	6.02e-01	0	35	0	200802304	63	4006
2026-01-18 02:38:58.37	23.16	12.20	-45.4	-46.8	24.5	6.04e-01	0	35	0	202899456	62	4207
2026-01-18 02:38:59.38	23.14	12.30	-45.5	-46.8	24.4	6.02e-01	0	35	0	204472320	62	4230
2026-01-18 02:39:00.38	23.12	12.41	-45.5	-46.8	24.4	6.01e-01	0	35	0	206569472	62	4238
2026-01-18 02:39:01.39	23.11	12.51	-45.5	-46.8	24.4	6.02e-01	0	35	0	208666624	62	4235
2026-01-18 02:39:02.40	23.09	12.62	-45.1	-46.4	24.9	6.02e-01	0	35	0	210239488	62	4037
2026-01-18 02:39:03.41	23.07	12.72	-45.3	-46.6	24.7	6.03e-01	0	35	0	212336640	62	4127
2026-01-18 02:39:04.41	23.06	12.83	-45.4	-46.7	24.6	6.02e-01	0	35	0	214433792	62	4157
2026-01-18 02:39:05.42	23.04	12.93	-45.4	-46.8	24.6	6.02e-01	0	35	0	216006656	62	4204
2026-01-18 02:39:06.42	23.02	13.04	-45.4	-46.8	24.6	5.99e-01	0	35	0	218103808	62	4196
2026-01-18 02:39:07.43	23.00	13.15	-45.2	-46.4	24.8	6.00e-01	0	35	0	219676672	62	4050
2026-01-18 02:39:08.44	22.99	13.25	-45.3	-46.6	24.7	6.04e-01	0	35	0	221773824	62	4126
2026-01-18 02:39:09.45	22.97	13.36	-45.5	-46.8	24.5	6.04e-01	0	35	0	223870976	62	4209
2026-01-18 02:39:10.46	22.95	13.47	-45.3	-46.6	24.8	6.01e-01	0	35	0	225443840	62	4122
2026-01-18 02:39:11.47	22.93	13.58	-45.2	-46.5	24.8	6.01e-01	0	35	0	227540992	62	4070
2026-01-18 02:39:12.47	22.91	13.69	-45.2	-46.5	24.8	6.02e-01	0	35	0	229113856	62	4080
2026-01-18 02:39:13.48	22.89	13.80	-45.1	-46.4	25.0	6.01e-01	0	35	0	231211008	62	4006
2026-01-18 02:39:14.48	22.88	13.91	-45.2	-46.5	24.9	6.03e-01	0	35	0	232783872	62	4059
2026-01-18 02:39:15.49	22.86	14.02	-45.5	-46.8	24.6	6.03e-01	0	35	0	234881024	62	4241
2026-01-18 02:39:16.50	22.84	14.14	-45.2	-46.5	24.9	6.01e-01	0	35	0	236978176	62	4061
2026-01-18 02:39:17.51	22.82	14.25	-45.3	-46.6	24.8	6.02e-01	0	35	0	239075328	62	4113
2026-01-18 02:39:18.52	22.80	14.36	-45.1	-46.4	25.0	6.05e-01	0	35	0	240648192	62	4031
2026-01-18 02:39:19.53	22.78	14.48	-45.2	-46.4	25.0	6.02e-01	0	35	0	242745344	62	4050
2026-01-18 02:39:20.53	22.76	14.59	-45.3	-46.5	24.9	6.00e-01	0	35	0	244318208	62	4096
2026-01-18 02:39:21.54	22.74	14.71	-45.3	-46.6	24.9	6.04e-01	0	35	0	246415360	62	4121
2026-01-18 02:39:22.55	22.72	14.82	-45.3	-46.6	24.9	6.04e-01	0	35	0	247988224	62	4100
2026-01-18 02:39:23.56	22.70	14.94	-45.2	-46.5	24.9	6.02e-01	0	35	0	250085376	62	4076
2026-01-18 02:39:24.57	22.68	15.06	-45.3	-46.6	24.9	6.01e-01	0	35	0	252182528	62	4121
2026-01-18 02:39:25.57	22.65	15.17	-45.2	-46.5	24.9	5.99e-01	0	35	0	253755392	62	4085
2026-01-18 02:39:26.58	22.63	15.29	-45.2	-46.5	24.9	6.01e-01	0	35	0	255852544	62	4079
2026-01-18 02:39:27.59	22.61	15.41	-45.3	-46.6	24.9	6.02e-01	0	35	0	257425408	62	4106
2026-01-18 02:39:28.60	22.59	15.53	-45.4	-46.7	24.8	6.03e-01	0	35	0	259522560	62	4151
2026-01-18 02:39:29.60	22.57	15.65	-45.2	-46.5	25.0	6.03e-01	0	35	0	261619712	62	4078
2026-01-18 02:39:30.61	22.55	15.77	-45.3	-46.6	24.9	6.03e-01	0	35	0	263192576	62	4101
2026-01-18 02:39:31.62	22.52	15.89	-45.3	-46.6	24.9	6.02e-01	0	35	0	265289728	62	4112
2026-01-18 02:39:32.63	22.50	16.02	-45.4	-46.7	24.8	6.05e-01	0	35	0	267386880	62	4148
2026-01-18 02:39:33.64	22.48	16.14	-45.2	-46.5	25.0	6.03e-01	0	35	0	268959744	62	4073
2026-01-18 02:39:34.64	22.45	16.26	-45.3	-46.5	25.0	6.02e-01	0	35	0	271056896	62	4098
2026-01-18 02:39:35.65	22.43	16.39	-45.3	-46.6	24.9	6.00e-01	0	35	0	272629760	62	4122
2026-01-18 02:39:36.66	22.41	16.51	-45.3	-46.6	24.9	6.03e-01	0	35	0	274726912	62	4105
2026-01-18 02:39:37.66	22.38	16.64	-45.3	-46.6	24.9	6.01e-01	0	35	0	276299776	62	4142
2026-01-18 02:39:38.67	22.36	16.76	-45.3	-46.6	24.9	6.02e-01	0	35	0	278396928	62	4138
2026-01-18 02:39:39.68	22.34	16.89	-45.3	-46.6	25.0	6.00e-01	0	35	0	280494080	62	4111
2026-01-18 02:39:40.69	22.31	17.02	-45.3	-46.6	25.0	6.04e-01	0	35	0	282066944	62	4104
2026-01-18 02:39:41.70	22.29	17.15	-45.3	-46.6	25.0	6.02e-01	0	35	0	284164096	62	4100
2026-01-18 02:39:42.70	22.26	17.28	-45.4	-46.7	24.9	6.00e-01	0	35	0	286261248	62	4154
2026-01-18 02:39:43.71	22.24	17.41	-45.2	-46.4	25.1	6.01e-01	0	35	0	287834112	62	4045
2026-01-18 02:39:44.72	22.21	17.54	-45.2	-46.5	25.1	6.03e-01	0	35	0	289931264	62	4054
2026-01-18 02:39:45.73	22.18	17.67	-45.1	-46.4	25.1	6.02e-01	0	35	0	291504128	62	4032
2026-01-18 02:39:46.74	22.16	17.80	-45.1	-46.4	25.2	6.04e-01	0	35	0	293601280	62	4010
2026-01-18 02:39:47.74	22.13	17.93	-45.2	-46.5	25.1	6.02e-01	0	35	0	295698432	62	4056
2026-01-18 02:39:48.75	22.10	18.07	-45.2	-46.4	25.1	6.01e-01	0	35	0	297271296	62	4038
2026-01-18 02:39:49.76	22.08	18.20	-45.1	-46.4	25.2	6.02e-01	0	35	0	299368448	62	4033
2026-01-18 02:39:50.77	22.05	18.34	-45.0	-46.3	25.3	6.01e-01	0	35	0	300941312	62	3980
2026-01-18 02:39:51.78	22.02	18.48	-45.1	-46.4	25.2	6.00e-01	0	35	0	303038464	62	4005
2026-01-18 02:39:52.78	21.99	18.61	-45.2	-46.4	25.2	6.03e-01	0	35	0	304611328	62	4046
2026-01-18 02:39:53.79	21.97	18.75	-45.3	-46.5	25.0	6.02e-01	0	35	0	306708480	62	4095
2026-01-18 02:39:54.80	21.94	18.89	-45.2	-46.5	25.1	6.05e-01	0	35	0	308805632	62	4080
2026-01-18 02:39:55.80	21.91	19.03	-45.3	-46.6	25.0	6.00e-01	0	35	0	310902784	62	4114
2026-01-18 02:39:56.81	21.88	19.17	-45.4	-46.7	24.9	6.04e-01	0	35	0	312475648	62	4146
2026-01-18 02:39:57.82	21.85	19.31	-45.4	-46.7	24.9	6.02e-01	0	35	0	314572800	62	4164
2026-01-18 02:39:58.83	21.82	19.45	-45.4	-46.7	24.9	6.02e-01	0	35	0	316145664	62	4171
2026-01-18 02:39:59.84	21.79	19.60	-45.5	-46.8	24.8	6.04e-01	0	35	0	318242816	62	4222
2026-01-18 02:40:00.85	21.76	19.74	-45.6	-46.9	24.7	6.01e-01	0	35	0	319815680	62	4249
2026-01-18 02:40:01.86	21.73	19.89	-45.4	-46.7	24.9	6.03e-01	0	35	0	321912832	62	4170
2026-01-18 02:40:02.86	21.70	20.03	-45.4	-46.7	24.8	6.04e-01	0	35	0	324009984	62	4183
2026-01-18 02:40:03.87	21.67	20.18	-45.4	-46.7	24.9	6.01e-01	0	35	0	325582848	62	4156
2026-01-18 02:40:04.88	21.63	20.33	-45.5	-46.8	24.8	6.02e-01	0	35	0	327680000	62	4218
2026-01-18 02:40:05.89	21.60	20.47	-45.5	-46.9	24.8	6.01e-01	0	35	0	329252864	62	4244
2026-01-18 02:40:06.90	21.57	20.62	-45.5	-46.8	24.8	6.03e-01	0	35	0	331350016	62	4239
2026-01-18 02:40:07.91	21.54	20.78	-45.6	-47.0	24.7	6.03e-01	0	35	0	333447168	62	4299
2026-01-18 02:40:08.91	21.50	20.93	-45.8	-47.1	24.6	6.01e-01	0	35	0	335020032	62	4363
2026-01-18 02:40:09.92	21.47	21.08	-45.8	-47.1	24.6	6.02e-01	0	35	0	337117184	62	4363
2026-01-18 02:40:10.93	21.43	21.23	-45.8	-47.1	24.6	6.03e-01	0	35	0	339214336	62	4370
2026-01-18 02:40:11.94	21.40	21.39	-45.8	-47.1	24.5	6.02e-01	0	35	0	340787200	62	4374
2026-01-18 02:40:12.94	21.36	21.54	-45.7	-47.1	24.6	6.03e-01	0	35	0	342884352	62	4343
2026-01-18 02:40:13.95	21.33	21.70	-45.8	-47.2	24.5	6.03e-01	0	35	0	344457216	62	4394
2026-01-18 02:40:14.96	21.29	21.86	-45.9	-47.2	24.5	6.03e-01	0	35	0	346554368	62	4417
2026-01-18 02:40:15.97	21.26	22.02	-45.9	-47.3	24.4	6.00e-01	0	35	0	348127232	62	4450
2026-01-18 02:40:16.98	21.22	22.18	-45.7	-47.0	24.6	6.04e-01	0	35	0	350224384	62	4339
2026-01-18 02:40:17.99	21.18	22.34	-45.7	-47.0	24.7	6.03e-01	0	35	0	352321536	62	4308
2026-01-18 02:40:18.99	21.14	22.50	-45.6	-46.9	24.8	6.02e-01	0	35	0	353894400	62	4253
2026-01-18 02:40:20.00	21.11	22.66	-45.6	-46.9	24.8	6.00e-01	0	35	0	355991552	62	4284
2026-01-18 02:40:21.01	21.07	22.83	-45.6	-46.9	24.7	6.01e-01	0	35	0	358088704	62	4276
2026-01-18 02:40:22.01	21.03	22.99	-45.6	-46.9	24.8	6.00e-01	0	35	0	359661568	62	4250
2026-01-18 02:40:23.02	20.99	23.16	-45.7	-47.0	24.7	6.05e-01	0	35	0	361758720	62	4314
2026-01-18 02:40:24.03	20.95	23.33	-45.6	-46.8	24.8	6.03e-01	0	35	0	363331584	62	4242
2026-01-18 02:40:25.04	20.91	23.50	-45.5	-46.8	24.9	6.03e-01	0	35	0	365428736	62	4202
2026-01-18 02:40:26.04	20.87	23.67	-45.6	-46.9	24.8	6.04e-01	0	35	0	367525888	62	4253
2026-01-18 02:40:27.05	20.83	23.84	-45.6	-46.9	24.8	6.02e-01	0	35	0	369098752	62	4287
2026-01-18 02:40:28.06	20.78	24.01	-45.6	-46.9	24.8	6.01e-01	0	35	0	371195904	62	4265
2026-01-18 02:40:29.07	20.74	24.19	-45.6	-46.9	24.8	6.01e-01	0	35	0	372768768	62	4265
2026-01-18 02:40:30.07	20.70	24.36	-45.6	-46.9	24.8	6.01e-01	0	35	0	374865920	62	4269
2026-01-18 02:40:31.08	20.65	24.54	-45.5	-46.8	24.9	6.03e-01	0	35	0	376438784	62	4209
2026-01-18 02:40:32.09	20.61	24.71	-45.5	-46.8	24.9	6.02e-01	0	35	0	378535936	62	4231
2026-01-18 02:40:33.10	20.57	24.89	-45.5	-46.8	25.0	6.02e-01	0	35	0	380633088	62	4210
2026-01-18 02:40:34.11	20.52	25.07	-45.6	-46.8	24.9	6.00e-01	0	35	0	382205952	62	4234
2026-01-18 02:40:35.11	20.47	25.25	-45.5	-46.8	24.9	6.01e-01	0	35	0	384303104	62	4220
2026-01-18 02:40:36.12	20.43	25.44	-45.5	-46.8	24.9	6.00e-01	0	35	0	386400256	62	4196
2026-01-18 02:40:37.13	20.38	25.62	-45.5	-46.8	24.9	6.03e-01	0	35	0	387973120	62	4233
2026-01-18 02:40:38.14	20.33	25.81	-45.5	-46.8	24.5	6.02e-01	0	35	0	390070272	62	4232
2026-01-18 02:40:39.14	20.28	25.99	-45.6	-46.9	24.8	6.03e-01	0	35	0	391643136	62	4267
2026-01-18 02:40:40.15	20.23	26.18	-45.6	-46.9	24.8	6.03e-01	0	35	0	393740288	62	4284
2026-01-18 02:40:41.16	20.18	26.37	-45.6	-46.9	24.9	6.01e-01	0	35	0	395837440	62	4259
2026-01-18 02:40:42.17	20.13	26.56	-45.7	-47.0	24.7	6.02e-01	0	35	0	397410304	62	4336
2026-01-18 02:40:43.18	20.08	26.76	-45.7	-47.0	24.8	6.02e-01	0	35	0	399507456	62	4326
2026-01-18 02:40:44.19	20.03	26.95	-45.7	-47.0	24.7	6.02e-01	0	35	0	401080320	62	4332
2026-01-18 02:40:45.19	19.98	27.15	-45.5	-46.8	24.9	6.02e-01	0	35	0	403177472	62	4228
2026-01-18 02:40:46.20	19.92	27.34	-45.6	-46.8	24.9	6.02e-01	0	35	0	405274624	62	4239
2026-01-18 02:40:47.21	19.87	27.54	-45.5	-46.8	25.0	6.01e-01	0	35	0	406847488	62	4196
2026-01-18 02:40:48.22	19.82	27.74	-45.6	-46.9	24.9	6.02e-01	0	35	0	408944640	62	4263
2026-01-18 02:40:49.22	19.76	27.94	-45.3	-46.6	25.2	6.02e-01	0	35	0	410517504	62	4103
2026-01-18 02:40:50.23	19.70	28.15	-45.2	-46.5	25.3	6.04e-01	0	35	0	412614656	62	4054
2026-01-18 02:40:51.23	19.65	28.35	-45.0	-46.3	25.5	6.01e-01	0	35	0	414711808	62	3965
2026-01-18 02:40:52.24	19.59	28.56	-45.1	-46.3	25.5	6.03e-01	0	35	0	416284672	62	3981
2026-01-18 02:40:53.25	19.53	28.77	-45.3	-46.5	25.3	6.03e-01	0	35	0	418381824	62	4080
2026-01-18 02:40:54.26	19.47	28.98	-45.3	-46.5	24.0	6.01e-01	0	35	0	419954688	62	4084
2026-01-18 02:40:55.27	19.41	29.19	-45.4	-46.7	25.1	6.02e-01	0	35	0	422051840	62	4158
2026-01-18 02:40:56.28	19.35	29.40	-45.3	-46.6	25.2	6.03e-01	0	35	0	424148992	62	4100
2026-01-18 02:40:57.29	19.29	29.62	-45.2	-46.4	25.3	6.03e-01	0	35	0	425721856	62	4046
2026-01-18 02:40:58.29	19.22	29.83	-45.1	-46.4	25.4	6.00e-01	0	35	0	427819008	62	4011
2026-01-18 02:40:59.30	19.16	30.05	-45.1	-46.3	25.5	6.00e-01	0	35	0	429916160	62	4001
2026-01-18 02:41:00.31	19.09	30.27	-44.9	-46.1	25.6	6.03e-01	0	35	0	431489024	61	4124
2026-01-18 02:41:01.32	19.03	30.49	-44.7	-45.9	25.8	6.05e-01	0	35	0	433586176	61	4015
2026-01-18 02:41:02.33	18.96	30.72	-44.7	-45.9	25.9	6.04e-01	0	35	0	435159040	61	4024
2026-01-18 02:41:03.34	18.89	30.94	-44.9	-46.2	25.6	6.03e-01	0	35	0	437256192	61	4152
2026-01-18 02:41:04.35	18.82	31.17	-45.1	-46.3	25.5	6.03e-01	0	35	0	439353344	61	4224
2026-01-18 02:41:05.35	18.75	31.40	-45.1	-46.3	25.5	6.03e-01	0	35	0	440926208	61	4235
2026-01-18 02:41:06.36	18.68	31.63	-45.1	-46.3	25.5	6.03e-01	0	35	0	443023360	61	4216
2026-01-18 02:41:07.37	18.61	31.86	-45.1	-46.4	25.5	6.03e-01	0	35	0	444596224	61	4248
2026-01-18 02:41:08.38	18.53	32.10	-44.9	-46.1	25.7	6.04e-01	0	35	0	446693376	61	4120
2026-01-18 02:41:09.38	18.46	32.33	-44.9	-46.1	25.5	6.02e-01	0	35	0	448266240	61	4144
2026-01-18 02:41:10.39	18.38	32.57	-45.1	-46.3	25.5	6.04e-01	0	35	0	450363392	61	4241
2026-01-18 02:41:11.40	18.31	32.81	-45.3	-46.5	25.4	6.00e-01	0	35	0	452460544	61	4312
2026-01-18 02:41:12.41	18.23	33.06	-45.3	-46.5	25.3	6.02e-01	0	35	0	454033408	61	4315
2026-01-18 02:41:13.42	18.15	33.30	-45.2	-46.4	25.4	6.00e-01	0	35	0	456130560	61	4279
2026-01-18 02:41:14.42	18.07	33.55	-45.1	-46.3	25.5	5.99e-01	0	35	0	458227712	61	4242
2026-01-18 02:41:15.43	17.98	33.80	-45.3	-46.5	25.3	6.00e-01	0	35	0	459800576	61	4334
2026-01-18 02:41:16.44	17.90	34.05	-45.6	-46.8	25.0	6.03e-01	0	35	0	461897728	61	4487
2026-01-18 02:41:17.45	17.81	34.30	-45.8	-47.1	24.8	6.04e-01	0	35	0	463470592	62	4378
2026-01-18 02:41:18.46	17.73	34.56	-45.9	-47.3	24.6	6.00e-01	0	35	0	465567744	62	4449
2026-01-18 02:41:19.46	17.64	34.81	-46.0	-47.4	24.5	6.01e-01	0	35	0	467664896	62	4494
2026-01-18 02:41:20.47	17.55	35.07	-46.1	-47.4	24.5	6.02e-01	0	35	0	469237760	62	4527
2026-01-18 02:41:21.48	17.46	35.33	-46.0	-47.4	24.6	6.00e-01	0	35	0	471334912	62	4497
2026-01-18 02:41:22.49	17.37	35.60	-46.3	-47.6	24.4	6.05e-01	0	35	0	472907776	63	4382
2026-01-18 02:41:23.50	17.27	35.87	-46.4	-47.8	24.2	6.01e-01	0	35	0	475004928	63	4442
2026-01-18 02:41:24.50	17.18	36.13	-46.4	-47.8	24.2	6.03e-01	0	35	0	477102080	63	4473
2026-01-18 02:41:25.51	17.08	36.40	-46.6	-48.0	24.0	6.05e-01	0	35	0	478674944	63	4557
2026-01-18 02:41:26.52	16.98	36.68	-46.6	-48.1	24.0	6.02e-01	0	35	0	480772096	63	4602
2026-01-18 02:41:27.53	16.88	36.95	-46.5	-47.9	24.1	6.03e-01	0	35	0	482344960	63	4500
2026-01-18 02:41:28.54	16.77	37.23	-46.6	-48.0	24.0	6.02e-01	0	35	0	484442112	63	4563
2026-01-18 02:41:29.55	16.67	37.51	-46.6	-48.0	23.9	6.04e-01	0	35	0	486539264	64	4336
2026-01-18 02:41:30.55	16.56	37.79	-46.9	-48.4	23.5	6.02e-01	0	35	0	488112128	64	4512
2026-01-18 02:41:31.56	16.45	38.08	-47.1	-48.6	23.4	6.02e-01	0	35	0	490209280	64	4603
2026-01-18 02:41:32.57	16.34	38.37	-47.0	-48.5	23.4	6.03e-01	0	35	0	491782144	64	4593
2026-01-18 02:41:33.58	16.23	38.66	-47.0	-48.5	23.4	6.01e-01	0	35	0	493879296	64	4578
2026-01-18 02:41:34.58	16.11	38.95	-47.1	-48.6	23.4	6.03e-01	0	35	0	495976448	64	4616
2026-01-18 02:41:35.59	15.99	39.24	-47.1	-48.6	23.4	6.03e-01	0	35	0	497549312	64	4609
2026-01-18 02:41:36.60	15.87	39.54	-46.9	-48.3	23.6	6.01e-01	0	35	0	499646464	64	4481
2026-01-18 02:41:37.61	15.75	39.84	-46.9	-48.4	23.6	6.02e-01	0	35	0	501743616	64	4530
2026-01-18 02:41:38.61	15.63	40.14	-47.2	-48.7	23.3	6.01e-01	0	35	0	503316480	64	4680
2026-01-18 02:41:39.62	15.50	40.45	-47.1	-48.5	23.4	6.01e-01	0	35	0	505413632	64	4594
2026-01-18 02:41:40.63	15.37	40.76	-47.1	-48.6	23.4	6.03e-01	0	35	0	506986496	64	4620
2026-01-18 02:41:41.64	15.24	41.07	-46.9	-48.3	23.7	6.02e-01	0	35	0	509083648	64	4466
2026-01-18 02:41:42.65	15.10	41.38	-46.8	-48.2	23.8	6.01e-01	0	35	0	510656512	64	4407
2026-01-18 02:41:43.65	14.97	41.70	-46.8	-48.2	23.8	6.04e-01	0	35	0	512753664	64	4425
2026-01-18 02:41:44.66	14.83	42.02	-46.7	-48.1	23.9	6.01e-01	0	35	0	514850816	64	4378
2026-01-18 02:41:45.67	14.68	42.34	-46.5	-47.9	24.1	6.03e-01	0	35	0	516423680	64	4265
2026-01-18 02:41:46.67	14.54	42.66	-46.3	-47.7	24.3	6.01e-01	0	35	0	518520832	64	4164
2026-01-18 02:41:47.68	14.39	42.99	-46.1	-47.4	24.5	5.99e-01	0	35	0	520093696	64	4044
2026-01-18 02:41:48.69	14.23	43.32	-46.1	-47.5	24.5	6.04e-01	0	35	0	522190848	64	4069
2026-01-18 02:41:49.70	14.08	43.65	-46.0	-47.3	24.7	6.03e-01	0	35	0	524288000	64	3981
2026-01-18 02:41:50.70	13.92	43.98	-46.0	-47.3	24.7	6.01e-01	0	35	0	525860864	63	4212
2026-01-18 02:41:51.71	13.76	44.32	-46.1	-47.4	24.7	6.03e-01	0	35	0	527958016	63	4264
2026-01-18 02:41:52.72	13.59	44.66	-46.2	-47.5	24.6	6.01e-01	0	35	0	530055168	63	4305
2026-01-18 02:41:53.73	13.42	45.01	-45.8	-47.0	25.0	6.04e-01	0	35	0	531628032	63	4087
2026-01-18 02:41:54.73	13.25	45.35	-45.6	-46.8	25.2	6.01e-01	0	35	0	533725184	63	3989
2026-01-18 02:41:55.74	13.07	45.70	-46.0	-47.3	24.8	6.01e-01	0	35	0	535298048	63	4206
2026-01-18 02:41:56.75	12.88	46.05	-46.1	-47.4	24.6	6.05e-01	0	35	0	537395200	63	4289
2026-01-18 02:41:57.76	12.70	46.41	-45.9	-47.2	24.8	6.02e-01	0	35	0	538968064	63	4177
2026-01-18 02:41:58.76	12.51	46.77	-45.9	-47.2	24.9	6.02e-01	0	35	0	541065216	63	4159
2026-01-18 02:41:59.77	12.31	47.13	-46.2	-47.5	24.5	6.03e-01	0	35	0	543162368	63	4340
2026-01-18 02:42:00.78	12.11	47.49	-46.1	-47.4	24.7	6.02e-01	0	35	0	544735232	63	4258
2026-01-18 02:42:01.79	11.90	47.86	-45.9	-47.2	24.9	6.03e-01	0	35	0	546832384	63	4159
2026-01-18 02:42:02.80	11.69	48.23	-45.9	-47.2	24.9	6.04e-01	0	35	0	548405248	63	4155
2026-01-18 02:42:03.80	11.48	48.60	-46.1	-47.4	24.7	6.01e-01	0	35	0	550502400	63	4266
2026-01-18 02:42:04.81	11.26	48.98	-46.2	-47.5	24.6	6.04e-01	0	35	0	552599552	63	4309
2026-01-18 02:42:05.82	11.03	49.36	-45.9	-47.2	24.8	6.03e-01	0	35	0	554172416	63	4186
2026-01-18 02:42:06.83	10.80	49.74	-45.9	-47.2	24.8	6.01e-01	0	35	0	556269568	63	4186
2026-01-18 02:42:07.83	10.56	50.12	-46.3	-47.6	24.5	6.03e-01	0	35	0	558366720	63	4372
2026-01-18 02:42:08.84	10.31	50.51	-45.6	-46.8	25.3	6.03e-01	0	35	0	559939584	63	3976
2026-01-18 02:42:09.85	10.06	50.90	-45.4	-46.6	25.4	6.03e-01	0	35	0	562036736	62	4124
2026-01-18 02:42:10.86	9.80	51.29	-45.6	-46.8	25.2	5.98e-01	0	35	0	563609600	62	4241
2026-01-18 02:42:11.87	9.53	51.69	-45.6	-46.9	25.2	6.02e-01	0	35	0	565706752	62	4252
2026-01-18 02:42:12.87	9.26	52.08	-45.4	-46.6	25.3	6.01e-01	0	35	0	567279616	62	4135
2026-01-18 02:42:13.88	8.98	52.48	-45.2	-46.4	24.4	6.01e-01	0	35	0	569376768	62	4050
2026-01-18 02:42:14.89	8.69	52.89	-45.4	-46.6	25.4	6.03e-01	0	35	0	571473920	62	4108
2026-01-18 02:42:15.90	8.40	53.29	-45.1	-46.3	25.7	6.01e-01	0	35	0	573046784	62	3997
2026-01-18 02:42:16.91	8.09	53.70	-45.1	-46.3	25.8	6.01e-01	0	35	0	575143936	62	3966
2026-01-18 02:42:17.92	7.77	54.12	-44.9	-46.0	26.0	6.02e-01	0	35	0	577241088	61	4087
2026-01-18 02:42:18.92	7.45	54.53	-44.8	-46.0	26.0	6.03e-01	0	35	0	578813952	61	4077
2026-01-18 02:42:19.93	7.12	54.94	-45.0	-46.2	25.8	6.02e-01	0	35	0	580911104	61	4179
2026-01-18 02:42:20.94	6.77	55.36	-45.1	-46.3	25.7	6.04e-01	0	35	0	582483968	61	4226
2026-01-18 02:42:21.95	6.42	55.79	-45.1	-46.3	25.8	6.02e-01	0	35	0	584581120	61	4219
2026-01-18 02:42:22.96	6.05	56.21	-45.2	-46.5	25.6	6.03e-01	0	35	0	586678272	61	4299
2026-01-18 02:42:23.97	5.67	56.64	-45.8	-47.0	25.0	6.02e-01	0	35	0	588251136	62	4336
2026-01-18 02:42:24.97	5.29	57.06	-45.9	-47.2	24.9	6.01e-01	0	35	0	590348288	62	4393
2026-01-18 02:42:25.98	4.89	57.49	-45.8	-47.0	25.1	6.04e-01	0	35	0	591921152	62	4329
2026-01-18 02:42:26.99	4.47	57.93	-46.4	-47.7	24.5	6.03e-01	0	35	0	594018304	63	4438
2026-01-18 02:42:27.99	4.05	58.36	-46.2	-47.5	24.6	6.02e-01	0	35	0	595591168	63	4336
2026-01-18 02:42:29.00	3.60	58.79	-46.5	-47.9	24.3	6.02e-01	0	35	0	597688320	63	4499
2026-01-18 02:42:30.01	3.14	59.23	-46.4	-47.8	24.3	6.03e-01	0	35	0	599785472	63	4449
2026-01-18 02:42:31.02	2.67	59.67	-46.4	-47.8	24.4	6.03e-01	0	35	0	601882624	63	4453
2026-01-18 02:42:32.03	2.18	60.11	-47.0	-48.4	23.7	6.03e-01	0	35	0	603455488	64	4536
2026-01-18 02:42:33.03	1.67	60.55	-46.9	-48.3	23.8	6.01e-01	0	35	0	605552640	64	4467
2026-01-18 02:42:34.04	1.15	60.99	-46.3	-47.6	24.5	6.03e-01	0	35	0	607125504	64	4120
2026-01-18 02:42:35.04	0.60	61.43	-46.7	-48.1	24.0	6.01e-01	0	35	0	609222656	64	4369
2026-01-18 02:42:36.05	0.04	61.88	-46.9	-48.4	23.7	6.02e-01	0	35	0	610795520	64	4511
2026-01-18 02:42:37.06	359.45	62.32	-46.5	-47.9	24.2	5.99e-01	0	35	0	612892672	64	4271
2026-01-18 02:42:38.07	358.84	62.77	-47.0	-48.5	23.7	6.01e-01	0	35	0	614989824	64	4559
2026-01-18 02:42:39.07	358.21	63.21	-47.6	-49.1	23.0	6.05e-01	0	35	0	616562688	65	4638
2026-01-18 02:42:40.08	357.56	63.66	-47.5	-49.0	23.1	6.02e-01	0	35	0	618659840	65	4582
2026-01-18 02:42:41.09	356.87	64.10	-47.5	-49.0	23.2	6.01e-01	0	35	0	620232704	65	4576
2026-01-18 02:42:42.10	356.16	64.55	-48.1	-49.8	22.5	6.02e-01	0	35	0	622329856	66	4713
2026-01-18 02:42:43.11	355.43	64.99	-48.4	-50.1	22.1	6.03e-01	0	35	0	624427008	67	4636
2026-01-18 02:42:44.12	354.66	65.44	-48.3	-50.0	22.2	6.03e-01	0	35	0	625999872	67	4582
2026-01-18 02:42:45.13	353.86	65.88	-48.5	-50.2	22.1	6.03e-01	0	35	0	628097024	67	4692
2026-01-18 02:42:46.13	353.03	66.31	-49.1	-51.1	21.1	6.03e-01	0	35	0	630194176	68	4881
2026-01-18 02:42:47.14	352.16	66.75	-48.5	-50.2	22.0	6.03e-01	0	35	0	631767040	68	4441
2026-01-18 02:42:48.15	351.26	67.18	-48.8	-50.6	21.6	6.01e-01	0	35	0	633864192	68	4620
2026-01-18 02:42:49.16	350.32	67.62	-48.9	-50.8	21.4	6.01e-01	0	35	0	635437056	68	4735
2026-01-18 02:42:50.17	349.33	68.04	-48.7	-50.6	21.6	6.02e-01	0	35	0	637534208	68	4601
2026-01-18 02:42:51.17	348.32	68.46	-48.8	-50.6	21.6	6.02e-01	0	35	0	639107072	68	4609
2026-01-18 02:42:52.18	347.24	68.88	-49.3	-51.3	21.0	6.02e-01	0	35	0	641204224	69	4708
2026-01-18 02:42:53.19	346.13	69.30	-48.9	-50.8	21.4	6.02e-01	0	35	0	643301376	69	4460
2026-01-18 02:42:54.19	344.97	69.70	-49.2	-51.1	21.1	6.04e-01	0	35	0	644874240	69	4620
2026-01-18 02:42:55.20	343.76	70.10	-49.5	-51.5	20.8	6.01e-01	0	35	0	646971392	69	4830
2026-01-18 02:42:56.21	342.48	70.50	-48.9	-50.7	21.5	6.00e-01	0	35	0	649068544	69	4426
2026-01-18 02:42:57.22	341.16	70.88	-49.3	-51.3	20.9	6.02e-01	0	35	0	650641408	69	4753
2026-01-18 02:42:58.23	339.77	71.26	-48.9	-50.7	21.5	6.02e-01	0	35	0	652738560	69	4418
2026-01-18 02:42:59.24	338.33	71.63	-48.7	-50.5	21.7	6.00e-01	0	35	0	654311424	69	4321
2026-01-18 02:43:00.24	336.84	71.98	-49.0	-50.9	21.4	6.03e-01	0	35	0	656408576	69	4517
2026-01-18 02:43:01.25	335.27	72.33	-48.6	-50.3	21.9	6.04e-01	0	35	0	658505728	69	4217
2026-01-18 02:43:02.26	333.63	72.67	-48.7	-50.5	21.8	6.03e-01	0	35	0	660078592	69	4305
2026-01-18 02:43:03.27	331.93	72.99	-48.5	-50.2	22.0	6.04e-01	0	35	0	662175744	68	4435
2026-01-18 02:43:04.28	330.16	73.30	-48.6	-50.4	21.9	6.01e-01	0	35	0	663748608	68	4503
2026-01-18 02:43:05.28	328.34	73.59	-48.1	-49.7	22.5	6.01e-01	0	35	0	665845760	68	4173
2026-01-18 02:43:06.29	326.43	73.87	-48.8	-50.7	21.6	6.03e-01	0	35	0	667418624	68	4652
2026-01-18 02:43:07.30	324.46	74.13	-48.6	-50.4	21.9	6.02e-01	0	35	0	669515776	68	4509
2026-01-18 02:43:08.31	322.42	74.37	-48.5	-50.3	22.0	6.04e-01	0	35	0	671612928	68	4445
2026-01-18 02:43:09.32	320.31	74.59	-48.8	-50.6	21.6	6.01e-01	0	35	0	673710080	68	4602
2026-01-18 02:43:10.33	318.14	74.79	-49.2	-51.1	21.3	6.04e-01	0	35	0	675282944	68	4903
2026-01-18 02:43:11.33	315.94	74.97	-48.6	-50.3	21.9	6.03e-01	0	35	0	677380096	69	4229
2026-01-18 02:43:12.34	313.66	75.13	-48.9	-50.7	21.6	6.04e-01	0	35	0	678952960	69	4410
2026-01-18 02:43:13.35	311.33	75.27	-48.9	-50.8	21.5	6.00e-01	0	35	0	681050112	69	4449
2026-01-18 02:43:14.35	308.99	75.38	-48.3	-50.0	22.3	6.02e-01	0	35	0	682622976	68	4299
2026-01-18 02:43:15.36	306.59	75.47	-49.0	-51.0	21.4	6.05e-01	0	35	0	684720128	68	4816
2026-01-18 02:43:16.37	304.16	75.53	-48.9	-50.7	21.5	6.02e-01	0	35	0	686817280	68	4680
2026-01-18 02:43:17.38	301.72	75.57	-48.9	-50.7	21.5	6.02e-01	0	35	0	688390144	68	4701
2026-01-18 02:43:18.39	299.26	75.58	-48.8	-50.7	21.6	6.02e-01	0	35	0	690487296	69	4395
2026-01-18 02:43:19.40	296.81	75.57	-48.5	-50.2	22.2	6.02e-01	0	35	0	692060160	68	4394
2026-01-18 02:43:20.40	294.39	75.53	-49.1	-51.0	21.3	6.05e-01	0	35	0	694157312	68	4838
2026-01-18 02:43:21.41	291.96	75.47	-48.6	-50.4	22.0	6.02e-01	0	35	0	696254464	68	4501
2026-01-18 02:43:22.42	289.56	75.38	-48.7	-50.4	21.8	6.02e-01	0	35	0	697827328	68	4535
2026-01-18 02:43:23.43	287.19	75.27	-49.0	-50.8	21.5	6.02e-01	0	35	0	699924480	68	4741
2026-01-18 02:43:24.44	284.86	75.13	-49.1	-51.0	21.3	6.03e-01	0	35	0	702021632	68	4843
2026-01-18 02:43:25.45	282.58	74.97	-48.6	-50.4	21.9	6.00e-01	0	35	0	703594496	68	4499
2026-01-18 02:43:26.45	280.38	74.79	-49.2	-51.2	21.1	6.04e-01	0	35	0	705691648	69	4658
2026-01-18 02:43:27.46	278.21	74.59	-49.0	-50.8	21.5	6.01e-01	0	35	0	707264512	69	4478
2026-01-18 02:43:28.47	276.10	74.37	-48.7	-50.5	21.8	6.02e-01	0	35	0	709361664	69	4310
2026-01-18 02:43:29.47	274.08	74.13	-48.6	-50.4	21.8	6.04e-01	0	35	0	710934528	69	4258
2026-01-18 02:43:30.48	272.10	73.87	-49.0	-50.9	21.4	6.03e-01	0	35	0	713031680	68	4788
2026-01-18 02:43:31.48	270.21	73.59	-49.1	-50.9	21.3	6.02e-01	0	35	0	715128832	69	4540
2026-01-18 02:43:32.49	268.37	73.30	-48.9	-50.7	21.6	6.05e-01	0	35	0	716701696	69	4425
2026-01-18 02:43:33.50	266.60	72.99	-49.6	-51.6	20.7	6.04e-01	0	35	0	718798848	69	4922
2026-01-18 02:43:34.51	264.90	72.67	-49.1	-51.0	21.3	6.03e-01	0	35	0	720896000	69	4577
2026-01-18 02:43:35.52	263.26	72.33	-50.0	-52.2	20.2	6.02e-01	0	35	0	722468864	70	4965
2026-01-18 02:43:36.52	261.70	71.99	-49.8	-52.0	20.3	6.01e-01	0	35	0	724566016	71	4560
2026-01-18 02:43:37.53	260.19	71.63	-49.6	-51.6	20.8	6.02e-01	0	35	0	726138880	70	4608
2026-01-18 02:43:38.54	258.75	71.26	-50.0	-52.2	20.1	6.00e-01	0	35	0	728236032	70	4943
2026-01-18 02:43:39.55	257.36	70.88	-49.9	-52.1	20.2	6.04e-01	0	35	0	730333184	70	4891
2026-01-18 02:43:40.56	256.03	70.50	-50.5	-52.9	19.3	6.04e-01	0	35	0	731906048	72	4806
2026-01-18 02:43:41.56	254.77	70.11	-49.6	-51.6	20.8	6.01e-01	0	35	0	734003200	70	4605
2026-01-18 02:43:42.57	253.55	69.70	-50.1	-52.3	20.0	6.00e-01	0	35	0	735576064	70	5021
2026-01-18 02:43:43.58	252.38	69.30	-50.6	-53.1	19.1	6.01e-01	0	35	0	737673216	71	5182
2026-01-18 02:43:44.59	251.27	68.88	-50.4	-52.7	19.7	6.02e-01	0	35	0	739246080	71	4935
2026-01-18 02:43:45.59	250.20	68.47	-50.4	-52.7	19.6	6.03e-01	0	35	0	741343232	71	4935
2026-01-18 02:43:46.60	249.18	68.04	-51.3	-54.1	18.1	6.01e-01	0	35	0	743440384	73	5208
2026-01-18 02:43:47.61	248.19	67.61	-51.3	-54.1	18.1	6.03e-01	0	35	0	745537536	73	5203
2026-01-18 02:43:48.62	247.25	67.18	-50.9	-53.6	18.6	6.00e-01	0	35	0	747110400	73	4888
2026-01-18 02:43:49.62	246.35	66.75	-50.6	-53.0	19.2	6.01e-01	0	35	0	749207552	73	4571
2026-01-18 02:43:50.63	245.48	66.31	-51.3	-54.2	18.2	6.01e-01	0	35	0	750780416	73	5261
2026-01-18 02:43:51.64	244.65	65.87	-50.6	-53.1	19.0	6.00e-01	0	35	0	752877568	73	4616
2026-01-18 02:43:52.65	243.84	65.43	-50.5	-52.9	19.3	6.03e-01	0	35	0	754450432	72	4805
2026-01-18 02:43:53.66	243.07	64.99	-50.8	-53.3	19.0	6.02e-01	0	35	0	756547584	72	5036
2026-01-18 02:43:54.67	242.33	64.54	-50.1	-52.4	19.8	6.04e-01	0	35	0	758644736	72	4514
2026-01-18 02:43:55.68	241.62	64.10	-49.1	-51.0	21.3	6.04e-01	0	35	0	760217600	70	4302
2026-01-18 02:43:56.69	240.94	63.65	-49.2	-51.1	21.2	6.02e-01	0	35	0	762314752	70	4371
2026-01-18 02:43:57.70	240.28	63.20	-48.9	-50.7	21.6	6.02e-01	0	35	0	763887616	69	4417
2026-01-18 02:43:58.71	239.65	62.76	-48.5	-50.3	21.9	5.99e-01	0	35	0	765984768	69	4231
2026-01-18 02:43:59.71	239.04	62.31	-47.6	-49.1	23.1	6.04e-01	0	35	0	768081920	67	4115
2026-01-18 02:44:00.72	238.46	61.87	-47.2	-48.7	23.5	6.04e-01	0	35	0	769654784	66	4170
2026-01-18 02:44:01.73	237.89	61.42	-47.6	-49.1	23.1	6.00e-01	0	35	0	771751936	66	4372
2026-01-18 02:44:02.74	237.34	60.98	-47.4	-48.9	23.3	6.03e-01	0	35	0	773849088	66	4291
2026-01-18 02:44:03.74	236.82	60.54	-47.3	-48.8	23.4	6.01e-01	0	35	0	775421952	66	4205
2026-01-18 02:44:04.75	236.31	60.09	-47.4	-48.9	23.3	6.00e-01	0	35	0	777519104	66	4275
2026-01-18 02:44:05.76	235.82	59.65	-46.8	-48.2	23.9	6.04e-01	0	35	0	779091968	65	4178
2026-01-18 02:44:06.77	235.34	59.21	-46.8	-48.2	24.1	6.02e-01	0	35	0	781189120	65	4151
2026-01-18 02:44:07.78	234.88	58.77	-47.3	-48.9	23.2	6.01e-01	0	35	0	782761984	65	4514
2026-01-18 02:44:08.79	234.44	58.33	-46.7	-48.1	24.1	6.04e-01	0	35	0	784859136	65	4108
2026-01-18 02:44:09.79	234.01	57.90	-46.5	-47.8	24.3	6.04e-01	0	35	0	786956288	64	4228
2026-01-18 02:44:10.80	233.60	57.47	-46.0	-47.3	24.8	6.03e-01	0	35	0	788529152	63	4211
2026-01-18 02:44:11.81	233.20	57.04	-46.0	-47.3	24.8	6.02e-01	0	35	0	790626304	63	4224
2026-01-18 02:44:12.82	232.80	56.61	-45.9	-47.2	25.0	6.02e-01	0	35	0	792723456	63	4173
2026-01-18 02:44:13.82	232.43	56.18	-45.8	-47.0	25.2	6.03e-01	0	35	0	794296320	63	4082
2026-01-18 02:44:14.83	232.06	55.76	-45.5	-46.7	25.4	6.02e-01	0	35	0	796393472	63	3931
2026-01-18 02:44:15.84	231.71	55.34	-45.1	-46.3	25.8	6.02e-01	0	35	0	797966336	62	3966
2026-01-18 02:44:16.85	231.36	54.92	-44.7	-45.9	26.0	6.01e-01	0	35	0	800063488	61	4015
2026-01-18 02:44:17.86	231.03	54.50	-45.2	-46.5	25.5	6.03e-01	0	35	0	802160640	61	4318
2026-01-18 02:44:18.86	230.71	54.09	-44.9	-46.0	26.0	6.02e-01	0	35	0	803733504	61	4086
2026-01-18 02:44:19.87	230.39	53.67	-45.2	-46.4	25.7	6.02e-01	0	35	0	805830656	61	4274
2026-01-18 02:44:20.88	230.09	53.26	-44.7	-45.9	26.1	6.04e-01	0	35	0	807403520	61	4027
2026-01-18 02:44:21.89	229.79	52.85	-44.4	-45.5	26.5	6.04e-01	0	35	0	809500672	60	4066
2026-01-18 02:44:22.90	229.50	52.45	-44.4	-45.5	26.4	6.03e-01	0	35	0	811073536	60	4088
2026-01-18 02:44:23.90	229.22	52.05	-45.0	-46.3	25.8	6.02e-01	0	35	0	813170688	60	4443
2026-01-18 02:44:24.91	228.95	51.65	-45.3	-46.5	25.5	6.04e-01	0	35	0	815267840	61	4329
2026-01-18 02:44:25.92	228.68	51.25	-45.1	-46.4	25.7	6.02e-01	0	35	0	816840704	61	4245
2026-01-18 02:44:26.93	228.42	50.86	-44.9	-46.1	26.0	6.00e-01	0	35	0	818937856	61	4107
2026-01-18 02:44:27.94	228.17	50.47	-45.1	-46.3	25.7	6.07e-01	0	35	0	821035008	61	4229
2026-01-18 02:44:28.95	227.92	50.08	-45.3	-46.5	25.5	6.02e-01	0	35	0	822607872	61	4318
2026-01-18 02:44:29.96	227.68	49.69	-45.3	-46.5	25.5	6.02e-01	0	35	0	824705024	61	4323
2026-01-18 02:44:30.96	227.45	49.31	-45.5	-46.8	25.3	6.01e-01	0	35	0	826277888	61	4451
2026-01-18 02:44:31.97	227.22	48.93	-45.8	-47.1	25.0	6.03e-01	0	35	0	828375040	62	4371
2026-01-18 02:44:32.98	227.00	48.56	-45.8	-47.1	24.9	5.99e-01	0	35	0	830472192	62	4387
2026-01-18 02:44:33.99	226.78	48.18	-45.6	-46.8	25.1	6.00e-01	0	35	0	832045056	62	4231
2026-01-18 02:44:35.00	226.57	47.81	-45.5	-46.7	25.3	6.03e-01	0	35	0	834142208	62	4177
2026-01-18 02:44:36.00	226.37	47.45	-45.3	-46.5	25.4	6.02e-01	0	35	0	836239360	62	4092
2026-01-18 02:44:37.01	226.17	47.08	-45.1	-46.3	25.8	6.02e-01	0	35	0	837812224	62	3983
2026-01-18 02:44:38.02	225.97	46.72	-45.3	-46.6	25.3	6.02e-01	0	35	0	839909376	62	4109
2026-01-18 02:44:39.03	225.78	46.36	-45.7	-47.0	25.1	6.00e-01	0	35	0	841482240	62	4323
2026-01-18 02:44:40.04	225.59	46.00	-45.9	-47.2	24.8	6.01e-01	0	35	0	843579392	62	4421
2026-01-18 02:44:41.05	225.41	45.65	-45.8	-47.1	24.9	6.00e-01	0	35	0	845152256	62	4364
2026-01-18 02:44:42.05	225.23	45.30	-45.7	-47.0	25.1	6.04e-01	0	35	0	847249408	62	4295
2026-01-18 02:44:43.06	225.06	44.95	-45.4	-46.6	25.3	6.01e-01	0	35	0	849346560	62	4129
2026-01-18 02:44:44.07	224.88	44.61	-45.2	-46.4	25.6	6.01e-01	0	35	0	850919424	62	4031
2026-01-18 02:44:45.08	224.72	44.26	-45.3	-46.6	25.4	6.04e-01	0	35	0	853016576	62	4104
2026-01-18 02:44:46.09	224.55	43.92	-45.5	-46.7	25.3	6.02e-01	0	35	0	854589440	62	4174
2026-01-18 02:44:47.09	224.39	43.59	-45.9	-47.2	24.8	6.02e-01	0	35	0	856686592	62	4439
2026-01-18 02:44:48.10	224.24	43.26	-46.0	-47.3	24.7	6.04e-01	0	35	0	858783744	62	4479
2026-01-18 02:44:49.11	224.08	42.93	-46.0	-47.3	24.8	6.02e-01	0	35	0	860356608	62	4459
2026-01-18 02:44:50.12	223.93	42.60	-46.1	-47.4	24.7	6.00e-01	0	35	0	862453760	62	4507
2026-01-18 02:44:51.12	223.79	42.28	-46.3	-47.6	24.5	6.02e-01	0	35	0	864550912	63	4375
2026-01-18 02:44:52.13	223.65	41.95	-46.3	-47.6	24.4	6.01e-01	0	35	0	866123776	63	4360
2026-01-18 02:44:53.14	223.50	41.63	-46.1	-47.4	24.5	6.02e-01	0	35	0	868220928	63	4276
2026-01-18 02:44:54.15	223.37	41.32	-46.0	-47.3	24.7	6.01e-01	0	35	0	869793792	63	4233
2026-01-18 02:44:55.16	223.23	41.00	-46.2	-47.5	24.5	6.02e-01	0	35	0	871890944	63	4323
2026-01-18 02:44:56.17	223.10	40.69	-46.5	-47.9	24.2	6.03e-01	0	35	0	873463808	63	4500
2026-01-18 02:44:57.17	222.97	40.38	-46.7	-48.1	23.9	6.02e-01	0	35	0	875560960	64	4361
2026-01-18 02:44:58.18	222.84	40.08	-47.0	-48.4	23.6	6.03e-01	0	35	0	877658112	64	4531
2026-01-18 02:44:59.19	222.72	39.77	-47.2	-48.7	23.3	6.02e-01	0	35	0	879230976	64	4701
2026-01-18 02:45:00.20	222.59	39.47	-47.3	-48.8	23.2	6.01e-01	0	35	0	881328128	65	4492
2026-01-18 02:45:01.21	222.47	39.17	-47.2	-48.7	23.3	6.02e-01	0	35	0	883425280	65	4437
2026-01-18 02:45:02.21	222.36	38.88	-47.1	-48.5	23.4	6.00e-01	0	35	0	884998144	65	4340
2026-01-18 02:45:03.22	222.24	38.58	-47.0	-48.4	23.6	6.02e-01	0	35	0	887095296	65	4272
2026-01-18 02:45:04.23	222.13	38.29	-47.1	-48.6	23.4	6.00e-01	0	35	0	888668160	65	4344
2026-01-18 02:45:05.24	222.02	38.00	-47.1	-48.6	23.4	5.99e-01	0	35	0	890765312	65	4362
2026-01-18 02:45:06.25	221.91	37.72	-47.2	-48.7	23.3	6.03e-01	0	35	0	892862464	65	4402
2026-01-18 02:45:07.25	221.80	37.44	-47.1	-48.6	23.5	6.01e-01	0	35	0	894435328	65	4348
2026-01-18 02:45:08.26	221.70	37.16	-47.0	-48.5	23.5	6.03e-01	0	35	0	896532480	65	4296
2026-01-18 02:45:09.27	221.59	36.88	-46.8	-48.2	23.8	6.03e-01	0	35	0	898105344	65	4172
2026-01-18 02:45:10.28	221.49	36.60	-46.5	-47.9	24.1	6.01e-01	0	35	0	900202496	65	4037
2026-01-18 02:45:11.28	221.39	36.33	-46.5	-47.9	24.1	6.03e-01	0	35	0	901775360	65	4030
2026-01-18 02:45:12.29	221.29	36.06	-46.5	-47.8	24.1	6.04e-01	0	35	0	903872512	64	4239
2026-01-18 02:45:13.30	221.20	35.79	-46.4	-47.7	24.2	6.00e-01	0	35	0	905969664	64	4181
2026-01-18 02:45:14.31	221.10	35.52	-46.4	-47.7	24.2	6.04e-01	0	35	0	908066816	64	4188
2026-01-18 02:45:15.31	221.01	35.26	-46.4	-47.8	24.0	6.02e-01	0	35	0	909639680	64	4241
2026-01-18 02:45:16.32	220.92	34.99	-46.4	-47.8	24.1	6.04e-01	0	35	0	911736832	64	4223
2026-01-18 02:45:17.33	220.83	34.73	-46.2	-47.6	24.3	5.99e-01	0	35	0	913309696	64	4132
2026-01-18 02:45:18.34	220.74	34.47	-46.2	-47.5	24.4	6.02e-01	0	35	0	915406848	64	4089
2026-01-18 02:45:19.34	220.65	34.22	-45.9	-47.3	24.7	6.02e-01	0	35	0	916979712	63	4205
2026-01-18 02:45:20.35	220.57	33.97	-45.9	-47.2	24.8	6.03e-01	0	35	0	919076864	63	4164
2026-01-18 02:45:21.36	220.48	33.71	-45.9	-47.2	24.8	6.01e-01	0	35	0	921174016	63	4191
2026-01-18 02:45:22.37	220.40	33.46	-45.6	-46.9	25.1	6.01e-01	0	35	0	922746880	63	4026
2026-01-18 02:45:23.38	220.32	33.22	-45.3	-46.5	25.4	6.04e-01	0	35	0	924844032	62	4073
2026-01-18 02:45:24.39	220.24	32.97	-45.2	-46.4	25.5	6.02e-01	0	35	0	926416896	62	4011
2026-01-18 02:45:25.39	220.16	32.73	-45.2	-46.4	25.4	6.01e-01	0	35	0	928514048	62	4021
2026-01-18 02:45:26.40	220.08	32.49	-45.2	-46.5	25.5	6.01e-01	0	35	0	930611200	62	4058
2026-01-18 02:45:27.41	220.01	32.25	-45.4	-46.6	25.3	6.02e-01	0	35	0	932184064	62	4126
2026-01-18 02:45:28.42	219.93	32.01	-45.3	-46.6	25.3	6.03e-01	0	35	0	934281216	62	4117
2026-01-18 02:45:29.42	219.86	31.78	-45.4	-46.6	25.3	6.03e-01	0	35	0	936378368	62	4127
2026-01-18 02:45:30.43	219.78	31.54	-45.2	-46.5	25.3	6.01e-01	0	35	0	937951232	62	4062
2026-01-18 02:45:31.44	219.71	31.31	-44.9	-46.1	25.7	6.01e-01	0	35	0	940048384	61	4139
2026-01-18 02:45:32.44	219.64	31.08	-44.8	-46.0	25.8	6.04e-01	0	35	0	941621248	61	4057
2026-01-18 02:45:33.45	219.57	30.85	-44.8	-46.0	25.8	6.02e-01	0	35	0	943718400	61	4066
2026-01-18 02:45:34.46	219.50	30.63	-44.9	-46.1	25.6	6.03e-01	0	35	0	945291264	61	4128
2026-01-18 02:45:35.47	219.44	30.40	-45.0	-46.2	25.6	6.02e-01	0	35	0	947388416	61	4165
2026-01-18 02:45:36.48	219.37	30.18	-45.1	-46.3	25.6	6.02e-01	0	35	0	949485568	61	4222
2026-01-18 02:45:37.48	219.30	29.96	-45.1	-46.4	25.5	6.02e-01	0	35	0	951058432	61	4262
2026-01-18 02:45:38.49	219.24	29.74	-45.1	-46.4	25.4	6.01e-01	0	35	0	953155584	61	4244
2026-01-18 02:45:39.50	219.18	29.53	-45.1	-46.3	25.5	6.03e-01	0	35	0	955252736	61	4232
2026-01-18 02:45:40.51	219.11	29.31	-45.1	-46.3	25.5	6.02e-01	0	35	0	956825600	61	4217
2026-01-18 02:45:41.52	219.05	29.10	-45.1	-46.3	25.5	6.01e-01	0	35	0	958922752	61	4202
2026-01-18 02:45:42.52	218.99	28.89	-45.1	-46.3	25.5	6.03e-01	0	35	0	960495616	61	4209
2026-01-18 02:45:43.53	218.93	28.68	-45.2	-46.4	25.4	6.02e-01	0	35	0	962592768	61	4261
2026-01-18 02:45:44.54	218.87	28.47	-45.1	-46.3	25.5	6.05e-01	0	35	0	964689920	61	4208
2026-01-18 02:45:45.55	218.81	28.26	-45.1	-46.3	25.4	6.03e-01	0	35	0	966262784	61	4239
2026-01-18 02:45:46.56	218.76	28.05	-45.1	-46.4	25.4	6.03e-01	0	35	0	968359936	61	4248
2026-01-18 02:45:47.57	218.70	27.85	-45.0	-46.3	25.5	6.01e-01	0	35	0	969932800	61	4195
2026-01-18 02:45:48.57	218.64	27.65	-45.0	-46.2	25.5	6.03e-01	0	35	0	972029952	61	4191
2026-01-18 02:45:49.58	218.59	27.45	-45.1	-46.3	25.5	6.06e-01	0	35	0	973602816	61	4203
2026-01-18 02:45:50.59	218.53	27.25	-45.0	-46.2	25.5	6.03e-01	0	35	0	975699968	61	4174
2026-01-18 02:45:51.60	218.48	27.05	-45.2	-46.4	25.4	6.01e-01	0	35	0	977797120	61	4269
2026-01-18 02:45:52.60	218.43	26.86	-45.3	-46.6	25.2	6.03e-01	0	35	0	979894272	61	4358
2026-01-18 02:45:53.61	218.37	26.66	-45.4	-46.6	25.2	6.03e-01	0	35	0	981467136	61	4366
2026-01-18 02:45:54.62	218.32	26.47	-45.3	-46.5	25.2	6.05e-01	0	35	0	983564288	61	4319
2026-01-18 02:45:55.63	218.27	26.28	-45.3	-46.6	25.2	6.02e-01	0	35	0	985137152	61	4350
2026-01-18 02:45:56.64	218.22	26.08	-45.4	-46.7	25.1	6.03e-01	0	35	0	987234304	61	4394
2026-01-18 02:45:57.64	218.17	25.90	-45.5	-46.8	24.9	6.04e-01	0	35	0	988807168	61	4475
2026-01-18 02:45:58.65	218.12	25.71	-45.6	-46.8	25.0	6.03e-01	0	35	0	990904320	61	4486
2026-01-18 02:45:59.66	218.08	25.52	-45.6	-46.9	24.8	6.03e-01	0	35	0	993001472	61	4534
2026-01-18 02:46:00.67	218.03	25.34	-45.7	-47.0	24.6	6.01e-01	0	35	0	994574336	62	4340
2026-01-18 02:46:01.68	217.98	25.15	-45.8	-47.2	24.7	6.01e-01	0	35	0	996671488	62	4396
2026-01-18 02:46:02.69	217.93	24.97	-45.8	-47.1	24.7	6.01e-01	0	35	0	998244352	62	4369
2026-01-18 02:46:03.70	217.89	24.79	-45.8	-47.1	24.7	6.03e-01	0	35	0	1000341504	62	4366
2026-01-18 02:46:04.70	217.84	24.61	-45.8	-47.1	24.7	6.02e-01	0	35	0	1002438656	62	4360
2026-01-18 02:46:05.71	217.80	24.43	-45.8	-47.1	24.7	6.01e-01	0	35	0	1004011520	62	4363
2026-01-18 02:46:06.72	217.75	24.26	-45.7	-47.0	24.8	6.01e-01	0	35	0	1006108672	62	4325
2026-01-18 02:46:07.73	217.71	24.08	-45.8	-47.1	24.6	6.00e-01	0	35	0	1008205824	62	4370
2026-01-18 02:46:08.73	217.67	23.91	-45.9	-47.2	24.6	6.03e-01	0	35	0	1009778688	62	4411
2026-01-18 02:46:09.74	217.63	23.74	-45.8	-47.1	24.7	6.01e-01	0	35	0	1011875840	62	4356
2026-01-18 02:46:10.75	217.58	23.56	-45.9	-47.2	24.5	6.01e-01	0	35	0	1013448704	62	4441
2026-01-18 02:46:11.76	217.54	23.39	-45.9	-47.2	24.5	6.00e-01	0	35	0	1015545856	62	4431
2026-01-18 02:46:12.76	217.50	23.22	-45.9	-47.3	24.5	6.03e-01	0	35	0	1017118720	62	4450
2026-01-18 02:46:13.77	217.46	23.06	-45.9	-47.2	24.5	6.04e-01	0	35	0	1019215872	62	4421
2026-01-18 02:46:14.78	217.42	22.89	-45.9	-47.2	24.5	6.00e-01	0	35	0	1021313024	62	4432
2026-01-18 02:46:15.79	217.38	22.72	-45.8	-47.1	24.6	6.03e-01	0	35	0	1022885888	62	4388
2026-01-18 02:46:16.80	217.34	22.56	-45.8	-47.1	24.6	6.02e-01	0	35	0	1024983040	62	4388
2026-01-18 02:46:17.80	217.30	22.40	-45.8	-47.1	24.6	6.01e-01	0	35	0	1027080192	62	4388
2026-01-18 02:46:18.81	217.27	22.23	-45.8	-47.1	24.6	6.02e-01	0	35	0	1028653056	62	4385
2026-01-18 02:46:19.82	217.23	22.07	-45.8	-47.2	24.5	6.01e-01	0	35	0	1030750208	62	4403
2026-01-18 02:46:20.83	217.19	21.91	-45.9	-47.3	24.4	6.01e-01	0	35	0	1032323072	62	4453
2026-01-18 02:46:21.84	217.15	21.75	-45.9	-47.3	24.4	6.03e-01	0	35	0	1034420224	62	4443
2026-01-18 02:46:22.85	217.12	21.59	-46.0	-47.4	24.2	6.01e-01	0	35	0	1036517376	62	4516
2026-01-18 02:46:23.85	217.08	21.44	-46.0	-47.4	24.3	6.03e-01	0	35	0	1038090240	62	4514
2026-01-18 02:46:24.86	217.05	21.28	-46.0	-47.4	24.3	6.01e-01	0	35	0	1040187392	62	4516
2026-01-18 02:46:25.87	217.01	21.13	-46.0	-47.4	24.3	6.04e-01	0	35	0	1041760256	62	4505
2026-01-18 02:46:26.87	216.98	20.97	-46.1	-47.5	24.2	6.01e-01	0	35	0	1043857408	62	4570
2026-01-18 02:46:27.88	216.94	20.82	-46.0	-47.4	24.3	6.02e-01	0	35	0	1045430272	62	4509
2026-01-18 02:46:28.89	216.91	20.67	-46.0	-47.4	24.3	6.05e-01	0	35	0	1047527424	62	4517
2026-01-18 02:46:29.90	216.88	20.52	-46.1	-47.4	23.4	6.02e-01	0	35	0	1049624576	62	4536
2026-01-18 02:46:30.91	216.84	20.37	-46.0	-47.3	24.3	6.03e-01	0	35	0	1051721728	62	4480
2026-01-18 02:46:31.91	216.81	20.22	-45.9	-47.2	24.4	6.04e-01	0	35	0	1053294592	62	4418
2026-01-18 02:46:32.92	216.78	20.07	-45.8	-47.2	24.5	6.01e-01	0	35	0	1055391744	62	4401
2026-01-18 02:46:33.93	216.75	19.92	-45.8	-47.1	24.6	6.02e-01	0	35	0	1056964608	62	4364
2026-01-18 02:46:34.94	216.71	19.78	-45.8	-47.1	24.5	6.04e-01	0	35	0	1059061760	62	4373
2026-01-18 02:46:35.94	216.68	19.63	-45.9	-47.2	24.4	6.01e-01	0	35	0	1060634624	62	4422
2026-01-18 02:46:36.95	216.65	19.49	-45.8	-47.1	24.5	6.04e-01	0	35	0	1062731776	62	4380
2026-01-18 02:46:37.96	216.62	19.34	-45.7	-47.0	24.6	6.05e-01	0	35	0	1064828928	62	4338
2026-01-18 02:46:38.97	216.59	19.20	-45.7	-47.1	24.5	6.01e-01	0	35	0	1066401792	62	4354
2026-01-18 02:46:39.98	216.56	19.06	-45.7	-47.0	24.6	6.02e-01	0	35	0	1068498944	62	4319
2026-01-18 02:46:40.98	216.53	18.92	-45.7	-47.0	24.6	6.00e-01	0	35	0	1070071808	62	4336
2026-01-18 02:46:41.99	216.50	18.78	-45.7	-47.0	24.6	5.99e-01	0	35	0	1072168960	62	4310
2026-01-18 02:46:43.00	216.47	18.64	-45.8	-47.2	24.4	6.02e-01	0	35	0	1074266112	62	4410
2026-01-18 02:46:44.01	216.44	18.50	-45.7	-47.0	24.6	6.02e-01	0	35	0	1075838976	62	4315
2026-01-18 02:46:45.02	216.42	18.36	-45.6	-47.0	24.6	6.01e-01	0	35	0	1077936128	62	4293
2026-01-18 02:46:46.03	216.39	18.23	-45.7	-47.0	24.6	6.05e-01	0	35	0	1080033280	62	4311
2026-01-18 02:46:47.03	216.36	18.09	-45.6	-46.9	24.7	6.02e-01	0	35	0	1081606144	62	4278
2026-01-18 02:46:48.04	216.33	17.96	-45.6	-47.0	24.6	6.02e-01	0	35	0	1083703296	62	4293
2026-01-18 02:46:49.05	216.31	17.82	-45.6	-46.9	24.7	6.04e-01	0	35	0	1085276160	62	4253
2026-01-18 02:46:50.06	216.28	17.69	-45.4	-46.7	24.8	6.01e-01	0	35	0	1087373312	62	4183
2026-01-18 02:46:51.07	216.25	17.56	-45.5	-46.8	24.8	6.03e-01	0	35	0	1088946176	62	4211
2026-01-18 02:46:52.07	216.23	17.42	-45.5	-46.8	24.7	6.04e-01	0	35	0	1091043328	62	4216
2026-01-18 02:46:53.08	216.20	17.29	-45.6	-46.9	24.7	6.04e-01	0	35	0	1093140480	62	4251
2026-01-18 02:46:54.09	216.17	17.16	-45.5	-46.8	24.7	6.03e-01	0	35	0	1094713344	62	4213
2026-01-18 02:46:55.10	216.15	17.03	-45.5	-46.8	24.8	6.03e-01	0	35	0	1096810496	62	4203
2026-01-18 02:46:56.10	216.12	16.91	-45.5	-46.8	24.8	6.02e-01	0	35	0	1098907648	62	4201
2026-01-18 02:46:57.11	216.10	16.78	-45.6	-46.9	24.7	6.03e-01	0	35	0	1100480512	62	4249
2026-01-18 02:46:58.12	216.07	16.65	-45.5	-46.8	24.7	6.03e-01	0	35	0	1102577664	62	4235
2026-01-18 02:46:59.13	216.05	16.52	-45.6	-46.9	24.6	6.02e-01	0	35	0	1104150528	62	4287
2026-01-18 02:47:00.14	216.02	16.40	-45.6	-46.9	24.7	6.00e-01	0	35	0	1106247680	62	4253
2026-01-18 02:47:01.15	216.00	16.27	-45.5	-46.8	24.7	6.04e-01	0	35	0	1108344832	62	4228
2026-01-18 02:47:02.15	215.98	16.15	-45.5	-46.8	24.7	6.01e-01	0	35	0	1109917696	62	4231
2026-01-18 02:47:03.16	215.95	16.02	-45.5	-46.8	24.7	6.01e-01	0	35	0	1112014848	62	4229
2026-01-18 02:47:04.17	215.93	15.90	-45.6	-46.9	24.6	6.00e-01	0	35	0	1113587712	62	4258
2026-01-18 02:47:05.17	215.91	15.78	-45.6	-46.9	24.6	6.02e-01	0	35	0	1115684864	62	4276
2026-01-18 02:47:06.18	215.88	15.66	-45.6	-46.9	24.6	6.01e-01	0	35	0	1117257728	62	4253
2026-01-18 02:47:07.19	215.86	15.54	-45.5	-46.8	24.7	6.04e-01	0	35	0	1119354880	62	4207
2026-01-18 02:47:08.20	215.84	15.41	-45.6	-47.0	24.5	6.02e-01	0	35	0	1121452032	62	4297
2026-01-18 02:47:09.20	215.82	15.30	-45.6	-46.9	24.6	6.04e-01	0	35	0	1123024896	62	4265
2026-01-18 02:47:10.21	215.80	15.18	-45.6	-46.9	24.6	6.01e-01	0	35	0	1125122048	62	4275
2026-01-18 02:47:11.22	215.77	15.06	-45.6	-46.9	24.6	6.02e-01	0	35	0	1127219200	62	4261
2026-01-18 02:47:12.23	215.75	14.94	-45.7	-47.0	24.5	6.02e-01	0	35	0	1128792064	62	4320
2026-01-18 02:47:13.24	215.73	14.82	-45.7	-47.1	24.4	6.01e-01	0	35	0	1130889216	62	4341
2026-01-18 02:47:14.24	215.71	14.71	-45.6	-46.9	24.5	6.02e-01	0	35	0	1132462080	62	4279
2026-01-18 02:47:15.25	215.69	14.59	-45.7	-47.0	24.5	6.04e-01	0	35	0	1134559232	62	4312
2026-01-18 02:47:16.26	215.67	14.47	-45.6	-47.0	24.5	6.04e-01	0	35	0	1136656384	62	4292
2026-01-18 02:47:17.27	215.65	14.36	-45.7	-47.0	24.5	6.03e-01	0	35	0	1138229248	62	4316
2026-01-18 02:47:18.27	215.63	14.25	-45.7	-47.1	24.4	6.03e-01	0	35	0	1140326400	62	4360
2026-01-18 02:47:19.28	215.61	14.13	-45.7	-47.1	24.4	6.01e-01	0	35	0	1141899264	62	4357
2026-01-18 02:47:20.29	215.59	14.02	-45.7	-47.0	24.4	6.03e-01	0	35	0	1143996416	62	4336
2026-01-18 02:47:21.30	215.57	13.91	-45.9	-47.3	24.2	6.02e-01	0	35	0	1145569280	62	4452
2026-01-18 02:47:22.31	215.55	13.79	-45.8	-47.2	24.3	6.02e-01	0	35	0	1147666432	62	4403
2026-01-18 02:47:23.32	215.53	13.68	-45.7	-47.1	24.4	6.01e-01	0	35	0	1149763584	62	4352
2026-01-18 02:47:24.32	215.51	13.57	-45.7	-47.1	24.4	6.02e-01	0	35	0	1151336448	62	4357
2026-01-18 02:47:25.33	215.49	13.46	-45.8	-47.2	24.3	6.01e-01	0	35	0	1153433600	62	4401
2026-01-18 02:47:26.34	215.47	13.35	-45.7	-47.1	24.3	6.02e-01	0	35	0	1155530752	62	4367
2026-01-18 02:47:27.35	215.45	13.24	-45.7	-47.1	24.4	6.03e-01	0	35	0	1157103616	62	4344
2026-01-18 02:47:28.35	215.43	13.14	-45.8	-47.2	24.3	6.02e-01	0	35	0	1159200768	62	4404
2026-01-18 02:47:29.36	215.42	13.03	-45.8	-47.2	24.2	6.04e-01	0	35	0	1160773632	62	4418
2026-01-18 02:47:30.37	215.40	12.92	-45.8	-47.2	24.2	6.01e-01	0	35	0	1162870784	62	4419
2026-01-18 02:47:31.38	215.38	12.81	-45.8	-47.1	24.3	6.03e-01	0	35	0	1164967936	62	4375
2026-01-18 02:47:32.39	215.36	12.71	-45.7	-47.0	24.4	6.01e-01	0	35	0	1166540800	62	4321
2026-01-18 02:47:33.39	215.34	12.60	-45.8	-47.1	24.1	6.00e-01	0	35	0	1168637952	62	4374
2026-01-18 02:47:34.40	215.33	12.49	-45.7	-47.1	24.3	6.01e-01	0	35	0	1170735104	62	4350
2026-01-18 02:47:35.41	215.31	12.39	-45.7	-47.0	24.3	6.03e-01	0	35	0	1172307968	62	4338
2026-01-18 02:47:36.42	215.29	12.28	-45.8	-47.1	24.3	6.01e-01	0	35	0	1174405120	62	4376
2026-01-18 02:47:37.42	215.28	12.18	-45.8	-47.2	24.2	6.03e-01	0	35	0	1175977984	62	4403
2026-01-18 02:47:38.43	215.26	12.08	-45.9	-47.3	24.1	6.02e-01	0	35	0	1178075136	62	4470
2026-01-18 02:47:39.44	215.24	11.97	-45.9	-47.3	24.1	6.02e-01	0	35	0	1179648000	62	4467
2026-01-18 02:47:40.45	215.23	11.87	-45.8	-47.1	24.2	6.02e-01	0	35	0	1181745152	62	4381
2026-01-18 02:47:41.46	215.21	11.77	-45.8	-47.1	24.2	6.02e-01	0	35	0	1183842304	62	4385
2026-01-18 02:47:42.46	215.19	11.67	-45.7	-47.1	24.3	6.01e-01	0	35	0	1185415168	62	4362
2026-01-18 02:47:43.47	215.18	11.57	-45.9	-47.3	24.1	6.00e-01	0	35	0	1187512320	62	4466
2026-01-18 02:47:44.48	215.16	11.47	-45.9	-47.3	24.1	6.01e-01	0	35	0	1189085184	62	4470
2026-01-18 02:47:45.49	215.15	11.37	-46.0	-47.4	24.0	6.02e-01	0	35	0	1191182336	62	4502
2026-01-18 02:47:46.50	215.13	11.27	-46.1	-47.5	23.8	6.04e-01	0	35	0	1193279488	62	4586
2026-01-18 02:47:47.51	215.11	11.17	-46.1	-47.5	23.8	6.00e-01	0	35	0	1194852352	62	4571
2026-01-18 02:47:48.52	215.10	11.07	-46.3	-47.8	23.6	6.01e-01	0	35	0	1196949504	63	4462
2026-01-18 02:47:49.52	215.08	10.97	-46.4	-47.9	23.5	6.01e-01	0	35	0	1199046656	63	4504
2026-01-18 02:47:50.53	215.07	10.87	-46.6	-48.1	23.3	6.03e-01	0	35	0	1200619520	63	4600
2026-01-18 02:47:51.54	215.05	10.77	-46.8	-48.3	23.0	6.00e-01	0	35	0	1202716672	64	4481
2026-01-18 02:47:52.55	215.04	10.68	-46.6	-48.1	23.1	6.02e-01	0	35	0	1204289536	64	4360
2026-01-18 02:47:53.56	215.02	10.58	-46.3	-47.8	23.4	6.01e-01	0	35	0	1206386688	64	4233
2026-01-18 02:47:54.57	215.01	10.48	-46.1	-47.5	23.7	6.01e-01	0	35	0	1207959552	64	4086
2026-01-18 02:47:55.58	214.99	10.39	-46.1	-47.5	23.7	6.04e-01	0	35	0	1210056704	64	4096
2026-01-18 02:47:56.58	214.98	10.29	-46.1	-47.6	23.6	6.02e-01	0	35	0	1212153856	64	4119
2026-01-18 02:47:57.59	214.97	10.20	-46.2	-47.7	23.6	6.02e-01	0	35	0	1213726720	64	4159
2026-01-18 02:47:58.60	214.95	10.10	-46.2	-47.7	23.5	6.01e-01	0	35	0	1215823872	64	4158
2026-01-18 02:47:59.61	214.94	10.01	-46.2	-47.7	23.5	5.99e-01	0	35	0	1217921024	64	4173
2026-01-18 02:48:00.62	214.92	9.91	-46.2	-47.6	23.6	6.03e-01	0	35	0	1219493888	64	4145
2026-01-18 02:48:01.62	214.91	9.82	-46.2	-47.6	23.6	6.02e-01	0	35	0	1221591040	64	4135
2026-01-18 02:48:02.64	214.90	9.73	-46.2	-47.7	23.5	6.06e-01	0	35	0	1223163904	64	4153
2026-01-18 02:48:03.64	214.88	9.63	-46.3	-47.8	23.4	6.02e-01	0	35	0	1225261056	64	4199
2026-01-18 02:48:04.65	214.87	9.54	-46.2	-47.7	23.5	6.03e-01	0	35	0	1227358208	64	4185
2026-01-18 02:48:05.66	214.86	9.45	-46.4	-47.9	23.3	6.00e-01	0	35	0	1228931072	64	4264
2026-01-18 02:48:06.66	214.84	9.36	-46.6	-48.1	23.1	6.02e-01	0	35	0	1231028224	64	4376
2026-01-18 02:48:07.67	214.83	9.27	-46.4	-47.9	23.3	6.03e-01	0	35	0	1232601088	64	4264
2026-01-18 02:48:08.68	214.82	9.18	-46.5	-48.1	23.1	6.01e-01	0	35	0	1234698240	64	4348
2026-01-18 02:48:09.68	214.80	9.09	-46.3	-47.8	23.3	6.03e-01	0	35	0	1236271104	64	4208
2026-01-18 02:48:10.69	214.79	9.00	-46.3	-47.8	23.3	6.02e-01	0	35	0	1238368256	64	4224
2026-01-18 02:48:11.70	214.78	8.91	-46.5	-48.0	23.1	6.01e-01	0	35	0	1240465408	64	4315
2026-01-18 02:48:12.70	214.77	8.82	-46.4	-48.0	23.1	6.00e-01	0	35	0	1242562560	64	4307
2026-01-18 02:48:13.71	214.75	8.73	-46.7	-48.3	22.9	6.03e-01	0	35	0	1244135424	64	4461
2026-01-18 02:48:14.72	214.74	8.64	-46.5	-48.0	23.1	6.02e-01	0	35	0	1246232576	64	4328
2026-01-18 02:48:15.73	214.73	8.55	-46.6	-48.1	23.0	6.02e-01	0	35	0	1247805440	64	4381
2026-01-18 02:48:16.74	214.72	8.46	-46.4	-47.9	23.1	6.03e-01	0	35	0	1249902592	64	4286
2026-01-18 02:48:17.75	214.71	8.38	-46.4	-47.9	23.2	6.00e-01	0	35	0	1251475456	64	4279
2026-01-18 02:48:18.75	214.69	8.29	-46.5	-48.0	23.1	6.03e-01	0	35	0	1253572608	64	4324
2026-01-18 02:48:19.76	214.68	8.20	-46.6	-48.1	22.9	6.02e-01	0	35	0	1255669760	64	4375
2026-01-18 02:48:20.77	214.67	8.11	-46.6	-48.2	22.9	6.02e-01	0	35	0	1257242624	64	4404
2026-01-18 02:48:21.78	214.66	8.03	-46.6	-48.2	22.8	6.04e-01	0	35	0	1259339776	64	4426
2026-01-18 02:48:22.79	214.65	7.94	-46.5	-48.1	23.0	6.02e-01	0	35	0	1260912640	64	4360
2026-01-18 02:48:23.80	214.64	7.86	-46.7	-48.3	22.7	6.01e-01	0	35	0	1263009792	64	4476
2026-01-18 02:48:24.80	214.62	7.77	-46.8	-48.4	22.6	6.00e-01	0	35	0	1265106944	64	4513
2026-01-18 02:48:25.81	214.61	7.69	-46.7	-48.3	22.7	6.02e-01	0	35	0	1266679808	64	4484
2026-01-18 02:48:26.82	214.60	7.60	-46.8	-48.4	22.6	6.03e-01	0	35	0	1268776960	64	4536
