passes_logs/2026/01/18/R3.2S_Murmansk/R3.2S_Murmansk__20260118_232629_NOAA_21_JPSS-2_rec.log

#Pass ID: 20260118_232629_NOAA 21 (JPSS-2)
#Satellite: NOAA 21 (JPSS-2)
#Configuration: NOAA-21
#almurnet v.1.7.20251203
#Start time: 2026-01-18 23:26:30

#Version: 2.2.20231116
#Station: R3.2S_Murmansk
#Location: 33.079688 lon 68.888172 lat
#TLE: 1 54234U 22150A   26018.60745868  .00000048  00000+0  43754-4 0  9997
#TLE: 2 54234  98.7503 319.4636 0000607 264.0480  96.0627 14.19535445165329

#Time	Az	El	Level	Level2	SNR	BER	BlckErr	Temp	State	Recorded	gain1	gain2
2026-01-18 23:26:30.84	20.73	2.07	-52.1	-64.7	3.8	1.49e+00	0	35	0	0	74	16593
2026-01-18 23:26:31.84	20.77	2.14	-52.1	-64.6	3.8	1.49e+00	0	35	104	0	74	16473
2026-01-18 23:26:32.85	20.81	2.20	-52.1	-64.5	3.8	1.49e+00	0	36	104	0	74	16177
2026-01-18 23:26:33.86	20.85	2.26	-52.0	-64.3	3.8	1.49e+00	0	36	104	0	74	15892
2026-01-18 23:26:34.87	20.89	2.32	-52.0	-64.1	3.8	1.49e+00	0	35	104	0	74	15530
2026-01-18 23:26:35.88	20.93	2.39	-52.0	-63.9	3.8	1.49e+00	0	36	104	0	74	15160
2026-01-18 23:26:36.89	20.97	2.45	-52.0	-63.8	3.8	1.49e+00	0	35	104	0	74	15011
2026-01-18 23:26:37.89	21.01	2.51	-52.0	-63.8	3.8	1.49e+00	0	36	104	0	74	14885
2026-01-18 23:26:38.90	21.05	2.57	-52.0	-63.6	3.8	1.49e+00	0	35	104	0	74	14562
2026-01-18 23:26:39.91	21.09	2.64	-49.2	-63.6	3.8	1.49e+00	0	36	104	0	74	14706
2026-01-18 23:26:40.92	21.13	2.70	-51.9	-63.4	3.8	1.49e+00	0	36	104	0	74	14298
2026-01-18 23:26:41.93	21.17	2.76	-51.9	-63.4	3.8	1.49e+00	0	35	104	0	74	14343
2026-01-18 23:26:42.94	21.21	2.83	-51.9	-63.3	3.8	1.49e+00	0	36	104	0	74	14203
2026-01-18 23:26:43.95	21.25	2.89	-51.9	-63.1	3.8	1.49e+00	0	36	104	0	74	13819
2026-01-18 23:26:44.95	21.29	2.95	-51.9	-63.1	3.9	1.49e+00	0	36	104	0	74	13766
2026-01-18 23:26:45.96	21.33	3.02	-51.8	-62.2	4.0	1.48e+00	0	36	104	0	74	12459
2026-01-18 23:26:46.97	21.37	3.08	-51.8	-61.7	4.1	1.48e+00	0	35	104	0	74	11725
2026-01-18 23:26:47.98	21.41	3.14	-51.7	-61.3	4.2	1.47e+00	0	36	104	0	74	11219
2026-01-18 23:26:48.99	21.45	3.21	-51.6	-60.2	4.5	1.44e+00	3	36	104	0	73	10486
2026-01-18 23:26:49.99	21.49	3.27	-51.5	-59.9	4.7	1.21e+00	0	36	104	0	73	10131
2026-01-18 23:26:51.00	21.53	3.34	-51.5	-59.5	4.9	7.52e-01	0	36	0	1048576	73	9662
2026-01-18 23:26:52.01	21.58	3.40	-51.3	-58.4	5.5	6.16e-01	0	36	0	1048576	73	8531
2026-01-18 23:26:53.02	21.62	3.47	-51.4	-59.1	5.1	6.99e-01	0	36	0	4194304	73	9212
2026-01-18 23:26:54.03	21.66	3.53	-51.3	-58.3	5.5	5.12e-01	0	36	0	7340032	73	8427
2026-01-18 23:26:55.03	21.70	3.60	-51.3	-58.4	5.5	4.78e-01	0	36	0	10485760	73	8485
2026-01-18 23:26:56.04	21.75	3.66	-51.2	-57.9	5.9	4.18e-01	0	36	0	13631488	73	8022
2026-01-18 23:26:57.05	21.79	3.73	-51.2	-58.2	5.7	4.93e-01	0	36	0	16777216	73	8298
2026-01-18 23:26:58.06	21.83	3.79	-51.2	-58.0	5.8	3.30e-01	0	36	0	19922944	72	8619
2026-01-18 23:26:59.07	21.87	3.86	-50.9	-56.9	6.6	2.53e-01	0	36	0	23068672	72	7627
2026-01-18 23:27:00.07	21.92	3.92	-50.7	-56.2	7.3	1.31e-01	0	36	0	26214400	72	7001
2026-01-18 23:27:01.08	21.96	3.99	-50.4	-55.2	8.3	6.73e-02	0	36	0	29360128	72	6248
2026-01-18 23:27:02.09	22.00	4.05	-50.0	-54.1	9.5	2.59e-02	0	36	0	32505856	71	5806
2026-01-18 23:27:03.10	22.05	4.12	-49.5	-53.1	10.5	5.81e-03	0	36	0	35651584	69	5841
2026-01-18 23:27:04.11	22.09	4.19	-49.3	-52.6	11.0	2.52e-03	0	36	0	38797312	69	5495
2026-01-18 23:27:05.12	22.14	4.25	-48.7	-51.5	12.2	3.13e-04	0	36	0	41943040	69	4859
2026-01-18 23:27:06.12	22.18	4.32	-48.4	-51.0	12.6	6.94e-05	0	36	0	45088768	67	5145
2026-01-18 23:27:07.13	22.22	4.39	-47.9	-50.3	13.3	1.29e-05	0	36	0	48234496	67	4747
2026-01-18 23:27:08.14	22.27	4.45	-47.6	-49.8	13.8	2.20e-06	0	36	0	51380224	67	4487
2026-01-18 23:27:09.15	22.31	4.52	-47.4	-49.5	14.2	7.60e-06	0	36	0	54525952	66	4571
2026-01-18 23:27:10.16	22.36	4.59	-47.3	-49.5	14.2	1.50e-06	0	36	0	57671680	66	4551
2026-01-18 23:27:11.17	22.40	4.66	-47.5	-49.7	14.0	3.80e-06	0	36	0	60817408	66	4661
2026-01-18 23:27:12.18	22.45	4.72	-47.7	-50.0	13.6	9.90e-06	0	36	0	63963136	66	4870
2026-01-18 23:27:13.18	22.49	4.79	-47.9	-50.3	13.3	1.52e-05	0	36	0	67108864	66	5017
2026-01-18 23:27:14.19	22.54	4.86	-48.5	-51.4	12.2	7.40e-05	0	36	0	70254592	67	5358
2026-01-18 23:27:15.20	22.59	4.93	-48.6	-51.5	12.1	2.97e-04	0	36	0	73400320	67	5454
2026-01-18 23:27:16.21	22.63	5.00	-49.2	-52.5	11.1	1.43e-03	0	36	0	76546048	69	5461
2026-01-18 23:27:17.21	22.68	5.06	-49.6	-53.3	10.3	4.54e-03	0	36	0	79691776	69	5966
2026-01-18 23:27:18.22	22.72	5.13	-49.9	-53.9	9.8	6.36e-03	0	36	0	82837504	70	6019
2026-01-18 23:27:19.23	22.77	5.20	-51.2	-59.1	4.2	1.29e+00	0	36	104	84934656	73	9246
2026-01-18 23:27:20.24	22.82	5.27	-47.7	-49.9	13.9	6.10e-06	0	36	0	85983232	66	4773
2026-01-18 23:27:21.25	22.86	5.34	-46.5	-48.2	15.7	0.00e+00	0	36	0	89128960	64	4405
2026-01-18 23:27:22.25	22.91	5.41	-50.3	-54.8	8.8	5.08e-02	0	36	0	92274688	71	6305
2026-01-18 23:27:23.26	22.96	5.48	-46.3	-48.0	16.0	0.00e+00	0	36	0	95420416	63	4549
2026-01-18 23:27:24.27	23.01	5.55	-46.4	-48.0	16.0	0.00e+00	0	36	0	98566144	63	4580
2026-01-18 23:27:25.28	23.05	5.62	-46.3	-48.0	16.0	0.00e+00	0	36	0	101711872	63	4568
2026-01-18 23:27:26.29	23.10	5.69	-46.0	-47.5	16.5	0.00e+00	0	36	0	104857600	62	4578
2026-01-18 23:27:27.29	23.15	5.76	-46.1	-47.7	16.3	0.00e+00	0	36	0	108003328	62	4663
2026-01-18 23:27:28.31	23.20	5.83	-46.1	-47.7	16.3	0.00e+00	0	36	0	111149056	62	4691
2026-01-18 23:27:29.31	23.25	5.90	-45.9	-47.5	16.6	0.00e+00	0	36	0	114294784	62	4548
2026-01-18 23:27:30.32	23.30	5.97	-46.0	-47.5	16.5	0.00e+00	0	36	0	117440512	62	4578
2026-01-18 23:27:31.33	23.35	6.04	-45.8	-47.2	16.8	0.00e+00	0	36	0	120586240	62	4422
2026-01-18 23:27:32.34	23.40	6.11	-45.8	-47.3	16.8	0.00e+00	0	36	0	123731968	62	4468
2026-01-18 23:27:33.35	23.44	6.18	-45.7	-47.1	16.9	0.00e+00	0	36	0	126877696	62	4378
2026-01-18 23:27:34.36	23.49	6.25	-45.8	-47.2	16.9	0.00e+00	0	36	0	130023424	62	4427
2026-01-18 23:27:35.37	23.54	6.32	-45.7	-47.2	16.9	0.00e+00	0	36	0	133169152	62	4392
2026-01-18 23:27:36.38	23.59	6.39	-45.7	-47.2	16.9	0.00e+00	0	36	0	136314880	62	4401
2026-01-18 23:27:37.38	23.64	6.47	-45.8	-47.2	16.9	0.00e+00	0	36	0	139460608	62	4428
2026-01-18 23:27:38.39	23.70	6.54	-45.8	-47.2	16.9	0.00e+00	0	36	0	142606336	62	4440
2026-01-18 23:27:39.40	23.75	6.61	-45.6	-47.1	17.0	0.00e+00	0	36	0	145752064	62	4345
2026-01-18 23:27:40.41	23.80	6.68	-45.7	-47.2	16.9	0.00e+00	0	36	0	148897792	62	4413
2026-01-18 23:27:41.41	23.85	6.75	-45.7	-47.2	17.0	0.00e+00	0	36	0	152043520	62	4415
2026-01-18 23:27:42.42	23.90	6.83	-45.4	-46.8	17.3	0.00e+00	0	36	0	155189248	62	4221
2026-01-18 23:27:43.43	23.95	6.90	-45.8	-47.3	16.9	0.00e+00	0	36	0	158334976	62	4456
2026-01-18 23:27:44.43	24.00	6.97	-45.7	-47.1	17.0	0.00e+00	0	36	0	162529280	62	4384
2026-01-18 23:27:45.44	24.06	7.05	-45.7	-47.1	17.1	0.00e+00	0	36	0	165675008	62	4364
2026-01-18 23:27:46.45	24.11	7.12	-45.6	-47.0	17.2	0.00e+00	0	36	0	167772160	62	4320
2026-01-18 23:27:47.46	24.16	7.19	-45.5	-46.9	17.3	0.00e+00	0	36	0	170917888	62	4255
2026-01-18 23:27:48.46	24.21	7.27	-45.5	-46.9	17.2	0.00e+00	0	36	0	174063616	62	4282
2026-01-18 23:27:49.47	24.27	7.34	-45.6	-47.0	17.2	0.00e+00	0	36	0	177209344	61	4586
2026-01-18 23:27:50.48	24.32	7.42	-45.5	-46.9	17.3	0.00e+00	0	36	0	180355072	62	4272
2026-01-18 23:27:51.49	24.37	7.49	-45.6	-47.0	17.2	0.00e+00	0	36	0	183500800	62	4336
2026-01-18 23:27:52.50	24.43	7.56	-45.2	-46.6	17.6	0.00e+00	0	36	0	186646528	62	4103
2026-01-18 23:27:53.50	24.48	7.64	-45.6	-47.0	17.2	0.00e+00	0	36	0	189792256	62	4294
2026-01-18 23:27:54.51	24.54	7.71	-45.5	-46.9	17.2	0.00e+00	0	36	0	192937984	62	4282
2026-01-18 23:27:55.52	24.59	7.79	-45.4	-46.8	17.4	0.00e+00	0	36	0	196083712	62	4213
2026-01-18 23:27:56.53	24.65	7.87	-45.5	-46.9	17.3	0.00e+00	0	36	0	199229440	62	4277
2026-01-18 23:27:57.53	24.70	7.94	-45.3	-46.6	17.6	0.00e+00	0	36	0	203423744	62	4110
2026-01-18 23:27:58.54	24.76	8.02	-45.2	-46.5	17.7	0.00e+00	0	36	0	206569472	62	4086
2026-01-18 23:27:59.55	24.81	8.09	-45.3	-46.7	17.6	0.00e+00	0	36	0	209715200	62	4155
2026-01-18 23:28:00.56	24.87	8.17	-45.2	-46.6	17.7	0.00e+00	0	36	0	212860928	61	4345
2026-01-18 23:28:01.57	24.93	8.25	-45.3	-46.6	17.6	0.00e+00	0	36	0	216006656	61	4389
2026-01-18 23:28:02.57	24.98	8.32	-45.2	-46.5	17.7	0.00e+00	0	36	0	218103808	61	4318
2026-01-18 23:28:03.58	25.04	8.40	-45.3	-46.6	17.6	0.00e+00	0	36	0	221249536	61	4360
2026-01-18 23:28:04.59	25.10	8.48	-45.2	-46.4	17.8	0.00e+00	0	36	0	224395264	61	4287
2026-01-18 23:28:05.60	25.15	8.55	-45.2	-46.6	17.7	0.00e+00	0	36	0	227540992	61	4346
2026-01-18 23:28:06.61	25.21	8.63	-45.1	-46.4	17.9	0.00e+00	0	36	0	230686720	61	4264
2026-01-18 23:28:07.61	25.27	8.71	-45.2	-46.5	17.8	0.00e+00	0	36	0	233832448	61	4294
2026-01-18 23:28:08.62	25.33	8.79	-45.2	-46.5	17.8	0.00e+00	0	36	0	236978176	61	4303
2026-01-18 23:28:09.63	25.39	8.86	-45.1	-46.4	17.8	0.00e+00	0	36	0	241172480	61	4281
2026-01-18 23:28:10.64	25.44	8.94	-45.1	-46.4	17.9	0.00e+00	0	36	0	244318208	61	4257
2026-01-18 23:28:11.65	25.50	9.02	-44.9	-46.1	18.1	0.00e+00	0	36	0	247463936	61	4145
2026-01-18 23:28:12.66	25.56	9.10	-44.9	-46.1	18.1	0.00e+00	0	36	0	250609664	61	4121
2026-01-18 23:28:13.67	25.62	9.18	-44.9	-46.1	18.2	0.00e+00	0	36	0	253755392	61	4119
2026-01-18 23:28:14.67	25.68	9.26	-44.8	-46.0	18.2	0.00e+00	0	36	0	256901120	61	4088
2026-01-18 23:28:15.68	25.74	9.34	-44.8	-46.0	18.3	0.00e+00	0	36	0	260046848	61	4077
2026-01-18 23:28:16.69	25.80	9.42	-44.7	-45.9	18.4	0.00e+00	0	36	0	263192576	61	4032
2026-01-18 23:28:17.70	25.87	9.50	-44.7	-45.9	18.4	0.00e+00	0	36	0	265289728	61	4018
2026-01-18 23:28:18.71	25.93	9.58	-44.7	-45.9	18.4	0.00e+00	0	36	0	268435456	61	4020
2026-01-18 23:28:19.71	25.99	9.66	-44.6	-45.8	18.5	0.00e+00	0	36	0	271581184	61	3972
2026-01-18 23:28:20.72	26.05	9.74	-44.5	-45.6	18.7	0.00e+00	0	36	0	274726912	60	4122
2026-01-18 23:28:21.73	26.11	9.82	-44.5	-45.7	18.6	0.00e+00	0	36	0	277872640	60	4160
2026-01-18 23:28:22.74	26.17	9.90	-44.4	-45.5	18.8	0.00e+00	0	36	0	282066944	60	4094
2026-01-18 23:28:23.75	26.24	9.98	-44.4	-45.6	18.7	0.00e+00	0	36	0	285212672	60	4100
2026-01-18 23:28:24.76	26.30	10.07	-44.5	-45.7	18.6	0.00e+00	0	36	0	288358400	60	4175
2026-01-18 23:28:25.76	26.36	10.15	-44.5	-45.7	18.6	0.00e+00	0	36	0	291504128	60	4172
2026-01-18 23:28:26.77	26.43	10.23	-44.4	-45.5	18.8	0.00e+00	0	36	0	294649856	60	4058
2026-01-18 23:28:27.78	26.49	10.31	-44.4	-45.6	18.8	0.00e+00	0	36	0	297795584	60	4107
2026-01-18 23:28:28.79	26.56	10.40	-44.4	-45.5	18.8	0.00e+00	0	36	0	300941312	60	4084
2026-01-18 23:28:29.79	26.62	10.48	-44.5	-45.6	18.7	0.00e+00	0	36	0	304087040	60	4119
2026-01-18 23:28:30.80	26.69	10.56	-44.4	-45.6	18.7	0.00e+00	0	36	0	307232768	60	4117
2026-01-18 23:28:31.81	26.75	10.64	-44.3	-45.5	18.8	0.00e+00	0	36	0	310378496	60	4066
2026-01-18 23:28:32.82	26.82	10.73	-44.3	-45.4	18.9	0.00e+00	0	36	0	312475648	60	4028
2026-01-18 23:28:33.83	26.88	10.81	-44.3	-45.5	18.9	0.00e+00	0	36	0	315621376	60	4059
2026-01-18 23:28:34.83	26.95	10.90	-44.3	-45.5	18.9	0.00e+00	0	36	0	319815680	60	4059
2026-01-18 23:28:35.84	27.02	10.98	-44.3	-45.4	19.0	0.00e+00	0	36	0	322961408	60	4011
2026-01-18 23:28:36.85	27.08	11.07	-44.1	-45.2	19.1	0.00e+00	0	36	0	326107136	60	3947
2026-01-18 23:28:37.86	27.15	11.15	-44.2	-45.3	19.1	0.00e+00	0	36	0	329252864	60	3961
2026-01-18 23:28:38.87	27.22	11.24	-44.2	-45.3	19.0	0.00e+00	0	36	0	332398592	60	3990
2026-01-18 23:28:39.87	27.29	11.32	-44.1	-45.2	19.2	0.00e+00	0	36	0	335544320	60	3920
2026-01-18 23:28:40.88	27.36	11.41	-44.1	-45.2	19.1	0.00e+00	0	36	0	338690048	60	3946
2026-01-18 23:28:41.89	27.43	11.49	-44.2	-45.3	19.1	0.00e+00	0	36	0	341835776	60	3977
2026-01-18 23:28:42.90	27.50	11.58	-44.1	-45.2	19.2	0.00e+00	0	36	0	344981504	60	3925
2026-01-18 23:28:43.91	27.57	11.67	-44.1	-45.2	19.2	0.00e+00	0	36	0	348127232	60	3932
2026-01-18 23:28:44.92	27.64	11.75	-44.0	-45.1	19.2	0.00e+00	0	36	0	351272960	60	3892
2026-01-18 23:28:45.93	27.71	11.84	-44.4	-45.5	19.2	0.00e+00	0	36	0	354418688	59	4324
2026-01-18 23:28:46.93	27.78	11.93	-44.5	-45.6	19.1	0.00e+00	0	36	0	357564416	59	4357
2026-01-18 23:28:47.94	27.85	12.02	-44.3	-45.4	19.3	0.00e+00	0	36	0	360710144	59	4267
2026-01-18 23:28:48.95	27.92	12.10	-44.4	-45.5	19.2	0.00e+00	0	36	0	363855872	59	4333
2026-01-18 23:28:49.96	27.99	12.19	-44.3	-45.4	19.3	0.00e+00	0	36	0	367001600	59	4263
2026-01-18 23:28:50.96	28.06	12.28	-44.1	-45.2	19.5	0.00e+00	0	36	0	370147328	59	4176
2026-01-18 23:28:51.97	28.14	12.37	-44.2	-45.2	19.4	0.00e+00	0	36	0	373293056	59	4187
2026-01-18 23:28:52.97	28.21	12.46	-44.0	-45.0	19.6	0.00e+00	0	36	0	376438784	59	4095
2026-01-18 23:28:53.98	28.28	12.55	-44.0	-45.0	19.6	0.00e+00	0	36	0	379584512	59	4092
2026-01-18 23:28:54.99	28.36	12.64	-44.1	-45.1	19.6	0.00e+00	0	36	0	382730240	59	4126
2026-01-18 23:28:56.00	28.43	12.73	-44.1	-45.1	19.6	0.00e+00	0	36	0	385875968	59	4144
2026-01-18 23:28:57.01	28.51	12.82	-43.9	-44.9	19.8	0.00e+00	0	36	0	389021696	59	4046
2026-01-18 23:28:58.01	28.58	12.91	-43.9	-44.9	19.8	0.00e+00	0	36	0	392167424	59	4021
2026-01-18 23:28:59.02	28.66	13.00	-43.9	-44.9	19.8	0.00e+00	0	36	0	395313152	59	4022
2026-01-18 23:29:00.03	28.74	13.09	-43.9	-45.0	19.8	0.00e+00	0	36	0	398458880	59	4053
2026-01-18 23:29:01.04	28.81	13.18	-43.9	-44.9	19.8	0.00e+00	0	36	0	401604608	59	4039
2026-01-18 23:29:02.05	28.89	13.27	-43.9	-44.9	19.9	0.00e+00	0	36	0	404750336	59	4034
2026-01-18 23:29:03.06	28.97	13.36	-43.9	-44.9	19.8	0.00e+00	0	36	0	407896064	59	4043
2026-01-18 23:29:04.06	29.05	13.46	-43.9	-45.0	19.8	0.00e+00	0	36	0	411041792	59	4063
2026-01-18 23:29:05.07	29.13	13.55	-43.9	-44.9	19.8	0.00e+00	0	36	0	414187520	59	4033
2026-01-18 23:29:06.08	29.20	13.64	-43.9	-44.9	19.8	0.00e+00	0	36	0	417333248	59	4026
2026-01-18 23:29:07.09	29.28	13.74	-44.0	-45.0	19.8	0.00e+00	0	36	0	420478976	59	4085
2026-01-18 23:29:08.09	29.36	13.83	-44.0	-45.0	19.8	0.00e+00	0	36	0	423624704	59	4076
2026-01-18 23:29:09.10	29.44	13.92	-44.1	-45.2	19.6	0.00e+00	0	36	0	426770432	59	4169
2026-01-18 23:29:10.11	29.53	14.02	-43.9	-44.9	19.8	0.00e+00	0	36	0	429916160	59	4050
2026-01-18 23:29:11.12	29.61	14.11	-43.9	-44.9	19.9	0.00e+00	0	36	0	433061888	59	4014
2026-01-18 23:29:12.12	29.69	14.21	-43.9	-45.0	19.8	0.00e+00	0	36	0	436207616	59	4061
2026-01-18 23:29:13.13	29.77	14.30	-44.0	-45.1	19.8	0.00e+00	0	36	0	439353344	59	4107
2026-01-18 23:29:14.14	29.85	14.40	-44.0	-45.1	19.8	0.00e+00	0	37	0	442499072	59	4103
2026-01-18 23:29:15.14	29.94	14.49	-44.0	-45.1	19.7	0.00e+00	0	36	0	445644800	59	4114
2026-01-18 23:29:16.15	30.02	14.59	-44.1	-45.2	19.7	0.00e+00	0	36	0	448790528	59	4165
2026-01-18 23:29:17.16	30.11	14.68	-44.1	-45.2	19.7	0.00e+00	0	36	0	451936256	59	4154
2026-01-18 23:29:18.17	30.19	14.78	-44.1	-45.2	19.6	0.00e+00	0	36	0	455081984	59	4156
2026-01-18 23:29:19.18	30.28	14.88	-44.2	-45.2	19.6	0.00e+00	0	36	0	458227712	59	4181
2026-01-18 23:29:20.18	30.36	14.98	-44.1	-45.1	19.7	0.00e+00	0	36	0	461373440	59	4136
2026-01-18 23:29:21.19	30.45	15.07	-44.1	-45.1	19.7	0.00e+00	0	36	0	464519168	59	4144
2026-01-18 23:29:22.20	30.54	15.17	-44.1	-45.1	19.7	0.00e+00	0	36	0	467664896	59	4134
2026-01-18 23:29:23.21	30.63	15.27	-44.1	-45.1	19.8	0.00e+00	0	36	0	470810624	59	4128
2026-01-18 23:29:24.21	30.71	15.37	-44.2	-45.3	19.6	0.00e+00	0	36	0	473956352	59	4206
2026-01-18 23:29:25.22	30.80	15.47	-44.2	-45.2	19.6	0.00e+00	0	36	0	477102080	59	4187
2026-01-18 23:29:26.23	30.89	15.57	-44.1	-45.2	19.7	0.00e+00	0	36	0	480247808	59	4169
2026-01-18 23:29:27.24	30.98	15.67	-44.1	-45.2	19.7	0.00e+00	0	36	0	483393536	59	4156
2026-01-18 23:29:28.25	31.07	15.77	-44.2	-45.2	19.6	0.00e+00	0	36	0	486539264	59	4182
2026-01-18 23:29:29.25	31.16	15.87	-44.2	-45.3	19.6	0.00e+00	0	36	0	489684992	59	4211
2026-01-18 23:29:30.26	31.25	15.97	-44.3	-45.4	19.5	0.00e+00	0	36	0	492830720	59	4274
2026-01-18 23:29:31.27	31.35	16.07	-44.3	-45.4	19.6	0.00e+00	0	36	0	495976448	59	4258
2026-01-18 23:29:32.28	31.44	16.17	-44.5	-45.6	19.3	0.00e+00	0	36	0	499122176	59	4354
2026-01-18 23:29:33.29	31.53	16.27	-44.5	-45.6	19.4	0.00e+00	0	36	0	502267904	59	4360
2026-01-18 23:29:34.29	31.63	16.38	-44.5	-45.6	19.4	0.00e+00	0	36	0	505413632	59	4352
2026-01-18 23:29:35.30	31.72	16.48	-44.5	-45.6	19.3	0.00e+00	0	36	0	508559360	59	4363
2026-01-18 23:29:36.31	31.82	16.58	-44.5	-45.6	19.3	0.00e+00	0	36	0	511705088	59	4382
2026-01-18 23:29:37.32	31.91	16.69	-44.6	-45.7	19.2	0.00e+00	0	36	0	514850816	59	4429
2026-01-18 23:29:38.33	32.01	16.79	-44.6	-45.7	19.2	0.00e+00	0	36	0	517996544	59	4400
2026-01-18 23:29:39.33	32.11	16.89	-44.4	-45.5	19.4	0.00e+00	0	36	0	521142272	59	4314
2026-01-18 23:29:40.34	32.20	17.00	-44.5	-45.6	19.4	0.00e+00	0	36	0	524288000	59	4350
2026-01-18 23:29:41.35	32.30	17.10	-44.5	-45.6	19.4	0.00e+00	0	36	0	527433728	59	4345
2026-01-18 23:29:42.36	32.40	17.21	-44.5	-45.6	19.3	0.00e+00	0	36	0	530579456	59	4382
2026-01-18 23:29:43.37	32.50	17.31	-44.4	-45.5	19.4	0.00e+00	0	36	0	533725184	59	4315
2026-01-18 23:29:44.37	32.60	17.42	-44.4	-45.5	19.5	0.00e+00	0	36	0	536870912	59	4325
2026-01-18 23:29:45.38	32.70	17.53	-44.4	-45.5	19.4	0.00e+00	0	36	0	540016640	59	4329
2026-01-18 23:29:46.39	32.81	17.63	-44.6	-45.7	19.3	0.00e+00	0	36	0	543162368	59	4405
2026-01-18 23:29:47.40	32.91	17.74	-44.5	-45.6	19.4	0.00e+00	0	37	0	546308096	59	4380
2026-01-18 23:29:48.40	33.01	17.85	-44.6	-45.7	19.3	0.00e+00	0	36	0	549453824	59	4433
2026-01-18 23:29:49.41	33.11	17.96	-44.6	-45.7	19.3	0.00e+00	0	36	0	552599552	59	4419
2026-01-18 23:29:50.42	33.22	18.06	-44.4	-45.5	19.3	0.00e+00	0	36	0	555745280	60	4065
2026-01-18 23:29:51.43	33.33	18.17	-44.4	-45.5	19.2	0.00e+00	0	36	0	558891008	60	4081
2026-01-18 23:29:52.43	33.43	18.28	-44.5	-45.6	19.1	0.00e+00	0	36	0	562036736	60	4116
2026-01-18 23:29:53.44	33.54	18.39	-44.5	-45.6	19.1	0.00e+00	0	36	0	565182464	60	4102
2026-01-18 23:29:54.44	33.64	18.50	-44.4	-45.4	19.3	0.00e+00	0	36	0	568328192	60	4051
2026-01-18 23:29:55.45	33.75	18.61	-44.2	-45.3	19.4	0.00e+00	0	36	0	571473920	60	3967
2026-01-18 23:29:56.46	33.86	18.72	-44.1	-45.2	19.5	0.00e+00	0	36	0	574619648	60	3927
2026-01-18 23:29:57.47	33.97	18.83	-44.1	-45.2	19.5	0.00e+00	0	36	0	577765376	60	3921
2026-01-18 23:29:58.48	34.08	18.94	-44.0	-45.1	19.6	0.00e+00	0	36	0	580911104	60	3885
2026-01-18 23:29:59.48	34.19	19.06	-44.0	-45.0	19.6	0.00e+00	0	36	0	584056832	60	3864
2026-01-18 23:30:00.49	34.31	19.17	-44.2	-45.2	19.7	0.00e+00	0	36	0	587202560	59	4177
2026-01-18 23:30:01.50	34.42	19.28	-44.0	-45.1	19.9	0.00e+00	0	36	0	590348288	59	4101
2026-01-18 23:30:02.51	34.53	19.39	-44.1	-45.1	19.8	0.00e+00	0	36	0	593494016	59	4130
2026-01-18 23:30:03.51	34.65	19.51	-44.0	-45.0	19.9	0.00e+00	0	36	0	596639744	59	4073
2026-01-18 23:30:04.52	34.76	19.62	-43.9	-45.0	20.0	0.00e+00	0	36	0	599785472	59	4052
2026-01-18 23:30:05.53	34.88	19.74	-44.0	-45.0	20.0	0.00e+00	0	36	0	602931200	59	4065
2026-01-18 23:30:06.53	34.99	19.85	-43.9	-44.9	20.0	0.00e+00	0	36	0	606076928	59	4031
2026-01-18 23:30:07.55	35.11	19.97	-43.9	-44.9	20.0	0.00e+00	0	36	0	609222656	59	4034
2026-01-18 23:30:08.55	35.23	20.08	-43.8	-44.8	20.1	0.00e+00	0	36	0	612368384	59	3990
2026-01-18 23:30:09.56	35.35	20.20	-43.7	-44.7	20.2	0.00e+00	0	36	0	615514112	59	3944
2026-01-18 23:30:10.57	35.47	20.31	-43.7	-44.7	20.2	0.00e+00	0	36	0	618659840	59	3946
2026-01-18 23:30:11.57	35.59	20.43	-43.6	-44.6	20.3	0.00e+00	0	36	0	621805568	59	3873
2026-01-18 23:30:12.58	35.71	20.55	-43.6	-44.5	20.4	0.00e+00	0	36	0	624951296	59	3847
2026-01-18 23:30:13.59	35.84	20.67	-43.4	-44.4	20.5	0.00e+00	0	36	0	628097024	58	4021
2026-01-18 23:30:14.60	35.96	20.78	-43.3	-44.2	20.7	0.00e+00	0	36	0	631242752	58	3928
2026-01-18 23:30:15.61	36.09	20.90	-43.2	-44.1	20.7	0.00e+00	0	36	0	634388480	58	3903
2026-01-18 23:30:16.62	36.21	21.02	-43.0	-43.9	20.9	0.00e+00	0	36	0	637534208	58	3823
2026-01-18 23:30:17.62	36.34	21.14	-43.0	-43.9	21.0	0.00e+00	0	36	0	640679936	58	3800
2026-01-18 23:30:18.63	36.47	21.26	-42.9	-43.8	21.0	0.00e+00	0	36	0	643825664	57	3988
2026-01-18 23:30:19.64	36.60	21.38	-42.9	-43.8	21.0	0.00e+00	0	36	0	646971392	57	3966
2026-01-18 23:30:20.65	36.73	21.50	-42.9	-43.7	21.1	0.00e+00	0	36	0	650117120	57	3954
2026-01-18 23:30:21.65	36.86	21.62	-42.8	-43.7	21.1	0.00e+00	0	36	0	653262848	57	3926
2026-01-18 23:30:22.66	36.99	21.74	-42.8	-43.7	21.1	0.00e+00	0	36	0	656408576	57	3945
2026-01-18 23:30:23.67	37.12	21.87	-42.9	-43.8	21.1	0.00e+00	0	36	0	659554304	57	3971
2026-01-18 23:30:24.68	37.25	21.99	-43.0	-43.9	21.0	0.00e+00	0	36	0	662700032	57	4013
2026-01-18 23:30:25.69	37.39	22.11	-42.9	-43.7	21.1	0.00e+00	0	36	0	665845760	57	3958
2026-01-18 23:30:26.69	37.52	22.24	-42.7	-43.5	21.3	0.00e+00	0	36	0	668991488	57	3866
2026-01-18 23:30:27.70	37.66	22.36	-42.6	-43.5	21.3	0.00e+00	0	36	0	672137216	57	3833
2026-01-18 23:30:28.71	37.80	22.48	-42.5	-43.4	21.4	0.00e+00	0	36	0	675282944	57	3803
2026-01-18 23:30:29.72	37.94	22.61	-42.5	-43.4	21.5	0.00e+00	0	36	0	678428672	57	3788
2026-01-18 23:30:30.73	38.08	22.73	-42.5	-43.3	21.5	0.00e+00	0	36	0	681574400	56	4000
2026-01-18 23:30:31.74	38.22	22.86	-42.5	-43.3	21.5	0.00e+00	0	36	0	684720128	56	3982
2026-01-18 23:30:32.75	38.36	22.99	-42.4	-43.3	21.5	0.00e+00	0	36	0	687865856	56	3975
2026-01-18 23:30:33.75	38.50	23.11	-42.5	-43.4	21.5	0.00e+00	0	36	0	691011584	56	4015
2026-01-18 23:30:34.76	38.65	23.24	-42.5	-43.3	21.6	0.00e+00	0	36	0	694157312	56	3983
2026-01-18 23:30:35.77	38.80	23.37	-42.5	-43.4	21.5	0.00e+00	0	36	0	697303040	56	4014
2026-01-18 23:30:36.78	38.94	23.50	-42.6	-43.4	21.4	0.00e+00	0	36	0	700448768	56	4046
2026-01-18 23:30:37.79	39.09	23.62	-42.6	-43.4	21.4	0.00e+00	0	36	0	703594496	56	4044
2026-01-18 23:30:38.80	39.24	23.75	-42.6	-43.4	21.4	0.00e+00	0	36	0	706740224	56	4047
2026-01-18 23:30:39.80	39.39	23.88	-42.6	-43.5	21.4	0.00e+00	0	36	0	709885952	56	4074
2026-01-18 23:30:40.81	39.54	24.01	-42.6	-43.5	21.4	0.00e+00	0	36	0	713031680	56	4053
2026-01-18 23:30:41.82	39.69	24.14	-42.5	-43.4	21.5	0.00e+00	0	36	0	716177408	56	4013
2026-01-18 23:30:42.83	39.85	24.27	-42.6	-43.4	21.5	0.00e+00	0	36	0	719323136	56	4050
2026-01-18 23:30:43.83	40.00	24.40	-42.7	-43.6	21.3	0.00e+00	0	36	0	722468864	56	4113
2026-01-18 23:30:44.84	40.16	24.53	-42.8	-43.7	21.2	0.00e+00	0	36	0	725614592	56	4188
2026-01-18 23:30:45.85	40.32	24.67	-43.0	-43.9	21.1	0.00e+00	0	36	0	728760320	56	4271
2026-01-18 23:30:46.86	40.48	24.80	-43.2	-44.1	20.9	0.00e+00	0	36	0	731906048	56	4364
2026-01-18 23:30:47.86	40.63	24.93	-43.3	-44.2	20.8	0.00e+00	0	36	0	735051776	57	4188
2026-01-18 23:30:48.87	40.80	25.06	-43.4	-44.3	20.7	0.00e+00	0	36	0	738197504	57	4234
2026-01-18 23:30:49.88	40.96	25.20	-43.5	-44.4	20.7	0.00e+00	0	36	0	741343232	57	4270
2026-01-18 23:30:50.89	41.12	25.33	-43.5	-44.5	20.6	0.00e+00	0	36	0	744488960	57	4305
2026-01-18 23:30:51.89	41.29	25.47	-43.6	-44.5	20.5	0.00e+00	0	36	0	747634688	57	4334
2026-01-18 23:30:52.90	41.46	25.60	-43.5	-44.4	20.7	0.00e+00	0	36	0	750780416	57	4269
2026-01-18 23:30:53.91	41.62	25.74	-43.5	-44.4	20.6	0.00e+00	0	36	0	753926144	57	4265
2026-01-18 23:30:54.92	41.79	25.87	-43.4	-44.4	20.7	0.00e+00	0	36	0	757071872	57	4245
2026-01-18 23:30:55.93	41.97	26.01	-43.6	-44.5	20.5	0.00e+00	0	36	0	760217600	57	4338
2026-01-18 23:30:56.93	42.14	26.15	-43.5	-44.5	20.6	0.00e+00	0	36	0	763363328	57	4292
2026-01-18 23:30:57.94	42.31	26.28	-43.5	-44.5	20.6	0.00e+00	0	36	0	766509056	57	4303
2026-01-18 23:30:58.95	42.49	26.42	-43.6	-44.5	20.6	0.00e+00	0	36	0	769654784	57	4312
2026-01-18 23:30:59.96	42.67	26.56	-43.7	-44.7	20.5	0.00e+00	0	36	0	772800512	57	4398
2026-01-18 23:31:00.96	42.84	26.70	-43.6	-44.6	20.5	0.00e+00	0	36	0	775946240	57	4363
2026-01-18 23:31:01.97	43.02	26.84	-43.8	-44.7	20.4	0.00e+00	0	36	0	779091968	58	4169
2026-01-18 23:31:02.98	43.21	26.98	-43.7	-44.7	20.4	0.00e+00	0	36	0	782237696	58	4168
2026-01-18 23:31:03.99	43.39	27.12	-43.7	-44.7	20.4	0.00e+00	0	36	0	785383424	58	4160
2026-01-18 23:31:05.00	43.57	27.26	-43.6	-44.6	20.5	0.00e+00	0	36	0	788529152	58	4113
2026-01-18 23:31:06.00	43.76	27.40	-43.6	-44.5	20.5	0.00e+00	0	36	0	791674880	58	4093
2026-01-18 23:31:07.01	43.95	27.54	-43.7	-44.6	20.6	0.00e+00	0	36	0	794820608	58	4120
2026-01-18 23:31:08.02	44.14	27.68	-43.7	-44.7	20.5	0.00e+00	0	36	0	797966336	58	4163
2026-01-18 23:31:09.03	44.33	27.82	-43.9	-44.9	20.3	0.00e+00	0	36	0	801112064	58	4263
2026-01-18 23:31:10.04	44.52	27.96	-44.0	-45.0	20.2	0.00e+00	0	36	0	804257792	58	4335
2026-01-18 23:31:11.05	44.72	28.11	-44.0	-45.0	20.1	0.00e+00	0	36	0	807403520	58	4340
2026-01-18 23:31:12.06	44.91	28.25	-44.0	-45.0	20.1	0.00e+00	0	36	0	810549248	58	4317
2026-01-18 23:31:13.06	45.11	28.39	-44.1	-45.1	20.1	0.00e+00	0	36	0	813694976	58	4349
2026-01-18 23:31:14.07	45.31	28.54	-44.1	-45.1	20.1	0.00e+00	0	36	0	816840704	58	4376
2026-01-18 23:31:15.08	45.51	28.68	-44.0	-45.0	20.2	0.00e+00	0	36	0	819986432	58	4293
2026-01-18 23:31:16.09	45.72	28.83	-43.7	-44.6	20.5	0.00e+00	0	36	0	823132160	58	4130
2026-01-18 23:31:17.10	45.92	28.97	-43.8	-44.7	20.4	0.00e+00	0	36	0	826277888	58	4192
2026-01-18 23:31:18.11	46.13	29.12	-43.9	-44.9	20.3	0.00e+00	0	36	0	829423616	58	4252
2026-01-18 23:31:19.11	46.34	29.26	-43.7	-44.7	20.5	0.00e+00	0	36	0	832569344	58	4150
2026-01-18 23:31:20.12	46.55	29.41	-43.7	-44.6	20.5	0.00e+00	0	36	0	835715072	58	4141
2026-01-18 23:31:21.13	46.76	29.55	-43.8	-44.8	20.5	0.00e+00	0	36	0	838860800	58	4195
2026-01-18 23:31:22.14	46.97	29.70	-43.9	-44.8	20.3	0.00e+00	0	36	0	842006528	58	4237
2026-01-18 23:31:23.15	47.19	29.85	-43.9	-44.9	20.3	0.00e+00	0	36	0	845152256	58	4250
2026-01-18 23:31:24.15	47.41	29.99	-43.8	-44.8	20.4	0.00e+00	0	36	0	848297984	58	4205
2026-01-18 23:31:25.16	47.63	30.14	-43.6	-44.5	20.6	0.00e+00	0	36	0	851443712	58	4086
2026-01-18 23:31:26.17	47.85	30.29	-43.6	-44.5	20.6	0.00e+00	0	36	0	854589440	58	4078
2026-01-18 23:31:27.18	48.07	30.44	-43.6	-44.6	20.6	0.00e+00	0	36	0	857735168	58	4105
2026-01-18 23:31:28.19	48.30	30.59	-43.7	-44.6	20.6	0.00e+00	0	36	0	860880896	58	4124
2026-01-18 23:31:29.19	48.53	30.74	-43.8	-44.7	20.5	0.00e+00	0	36	0	864026624	58	4187
2026-01-18 23:31:30.20	48.76	30.88	-44.0	-45.0	20.2	0.00e+00	0	36	0	867172352	58	4333
2026-01-18 23:31:31.21	48.99	31.03	-44.3	-45.3	20.0	0.00e+00	0	36	0	870318080	59	4210
2026-01-18 23:31:32.22	49.23	31.18	-44.5	-45.6	19.7	0.00e+00	0	36	0	873463808	59	4368
2026-01-18 23:31:33.23	49.46	31.33	-44.7	-45.8	19.5	0.00e+00	0	36	0	876609536	59	4451
2026-01-18 23:31:34.24	49.70	31.49	-44.4	-45.5	19.7	0.00e+00	0	36	0	879755264	59	4311
2026-01-18 23:31:35.24	49.94	31.63	-44.6	-45.6	19.6	0.00e+00	0	36	0	882900992	59	4370
2026-01-18 23:31:36.25	50.19	31.79	-44.6	-45.7	19.6	0.00e+00	0	36	0	886046720	59	4394
2026-01-18 23:31:37.26	50.43	31.94	-44.4	-45.5	19.8	0.00e+00	0	36	0	889192448	59	4307
2026-01-18 23:31:38.26	50.68	32.09	-44.7	-45.7	19.6	0.00e+00	0	36	0	892338176	59	4438
2026-01-18 23:31:39.27	50.93	32.24	-44.3	-45.4	19.6	0.00e+00	0	36	0	895483904	60	4012
2026-01-18 23:31:40.28	51.18	32.39	-44.5	-45.5	19.5	0.00e+00	0	36	0	898629632	60	4086
2026-01-18 23:31:41.29	51.44	32.54	-44.5	-45.5	19.5	0.00e+00	0	36	0	901775360	60	4093
2026-01-18 23:31:42.30	51.69	32.69	-44.3	-45.4	19.7	0.00e+00	0	36	0	904921088	60	4015
2026-01-18 23:31:43.31	51.95	32.85	-44.2	-45.3	19.7	0.00e+00	0	36	0	908066816	60	3962
2026-01-18 23:31:44.31	52.21	33.00	-44.2	-45.2	19.9	0.00e+00	0	36	0	911212544	60	3922
2026-01-18 23:31:45.32	52.48	33.15	-44.1	-45.1	19.9	0.00e+00	0	36	0	914358272	60	3893
2026-01-18 23:31:46.33	52.74	33.30	-44.2	-45.1	19.9	0.00e+00	0	36	0	917504000	60	3910
2026-01-18 23:31:47.34	53.01	33.45	-44.4	-45.5	19.6	0.00e+00	0	36	0	920649728	60	4061
2026-01-18 23:31:48.35	53.28	33.61	-44.6	-45.7	19.4	0.00e+00	0	36	0	923795456	60	4177
2026-01-18 23:31:49.35	53.56	33.76	-44.6	-45.7	19.4	0.00e+00	0	36	0	926941184	60	4183
2026-01-18 23:31:50.36	53.83	33.91	-44.7	-45.8	19.3	0.00e+00	0	36	0	930086912	60	4215
2026-01-18 23:31:51.37	54.11	34.06	-44.5	-45.5	19.5	0.00e+00	0	36	0	933232640	60	4083
2026-01-18 23:31:52.38	54.40	34.22	-44.5	-45.6	19.5	0.00e+00	0	36	0	936378368	60	4112
2026-01-18 23:31:53.38	54.68	34.37	-44.4	-45.4	19.6	0.00e+00	0	36	0	939524096	60	4037
2026-01-18 23:31:54.39	54.96	34.52	-44.3	-45.4	19.7	0.00e+00	0	36	0	942669824	60	4011
2026-01-18 23:31:55.40	55.25	34.67	-44.5	-45.5	19.5	0.00e+00	0	36	0	945815552	60	4098
2026-01-18 23:31:56.41	55.55	34.83	-44.6	-45.7	19.4	0.00e+00	0	36	0	948961280	60	4164
2026-01-18 23:31:57.42	55.84	34.98	-44.7	-45.7	19.4	0.00e+00	0	36	0	952107008	60	4191
2026-01-18 23:31:58.42	56.14	35.13	-44.8	-45.9	19.2	0.00e+00	0	36	0	955252736	60	4260
2026-01-18 23:31:59.43	56.44	35.28	-44.9	-46.0	19.1	0.00e+00	0	36	0	959447040	60	4308
2026-01-18 23:32:00.44	56.74	35.44	-44.8	-45.9	19.2	0.00e+00	0	36	0	961544192	60	4254
2026-01-18 23:32:01.45	57.05	35.59	-44.7	-45.8	19.2	0.00e+00	0	36	0	964689920	60	4210
2026-01-18 23:32:02.46	57.36	35.74	-44.6	-45.6	19.3	0.00e+00	0	36	0	967835648	60	4144
2026-01-18 23:32:03.46	57.67	35.89	-44.5	-45.6	19.5	0.00e+00	0	36	0	970981376	60	4105
2026-01-18 23:32:04.47	57.98	36.04	-44.5	-45.6	19.5	0.00e+00	0	36	0	974127104	60	4102
2026-01-18 23:32:05.48	58.30	36.19	-44.5	-45.6	19.5	0.00e+00	0	36	0	977272832	60	4122
2026-01-18 23:32:06.49	58.62	36.34	-44.6	-45.6	19.4	0.00e+00	0	36	0	980418560	60	4137
2026-01-18 23:32:07.49	58.94	36.49	-44.7	-45.8	19.3	0.00e+00	0	36	0	983564288	60	4232
2026-01-18 23:32:08.50	59.27	36.64	-44.8	-45.9	19.2	0.00e+00	0	36	0	986710016	60	4246
2026-01-18 23:32:09.51	59.60	36.79	-44.8	-45.9	19.2	0.00e+00	0	36	0	989855744	60	4275
2026-01-18 23:32:10.52	59.93	36.94	-44.8	-45.9	19.2	0.00e+00	0	36	0	993001472	60	4256
2026-01-18 23:32:11.53	60.27	37.09	-44.7	-45.8	19.3	0.00e+00	0	36	0	996147200	60	4197
2026-01-18 23:32:12.53	60.60	37.24	-44.8	-45.9	19.3	0.00e+00	0	36	0	1000341504	60	4244
2026-01-18 23:32:13.54	60.94	37.39	-44.9	-46.0	19.1	0.00e+00	0	36	0	1003487232	60	4304
2026-01-18 23:32:14.55	61.29	37.54	-45.1	-46.3	18.9	0.00e+00	0	37	0	1006632960	60	4445
2026-01-18 23:32:15.55	61.63	37.68	-45.1	-46.2	18.9	0.00e+00	0	36	0	1008730112	60	4417
2026-01-18 23:32:16.56	61.98	37.83	-45.0	-46.1	19.0	0.00e+00	0	36	0	1011875840	60	4365
2026-01-18 23:32:17.57	62.34	37.98	-44.8	-45.9	19.1	0.00e+00	0	36	0	1015021568	60	4284
2026-01-18 23:32:18.58	62.70	38.12	-44.8	-45.9	19.2	0.00e+00	0	36	0	1018167296	60	4252
2026-01-18 23:32:19.59	63.06	38.27	-44.9	-45.9	19.1	0.00e+00	0	36	0	1021313024	60	4286
2026-01-18 23:32:20.59	63.42	38.41	-44.7	-45.7	19.4	0.00e+00	0	36	0	1024458752	60	4181
2026-01-18 23:32:21.60	63.78	38.56	-44.7	-45.8	19.3	0.00e+00	0	36	0	1027604480	60	4216
2026-01-18 23:32:22.61	64.15	38.70	-44.8	-45.9	19.2	0.00e+00	0	36	0	1030750208	60	4243
2026-01-18 23:32:23.62	64.53	38.84	-44.8	-45.9	19.2	0.00e+00	0	36	0	1033895936	60	4265
2026-01-18 23:32:24.63	64.90	38.98	-45.0	-46.1	19.0	0.00e+00	0	36	0	1037041664	60	4388
2026-01-18 23:32:25.63	65.28	39.12	-45.3	-46.5	18.7	0.00e+00	0	36	0	1041235968	61	4293
2026-01-18 23:32:26.64	65.66	39.26	-45.4	-46.6	18.5	0.00e+00	0	36	0	1044381696	61	4381
2026-01-18 23:32:27.65	66.05	39.40	-45.5	-46.7	18.5	0.00e+00	0	36	0	1047527424	61	4397
2026-01-18 23:32:28.66	66.44	39.54	-45.5	-46.6	18.5	0.00e+00	0	36	0	1050673152	61	4385
2026-01-18 23:32:29.67	66.83	39.68	-45.3	-46.4	18.7	0.00e+00	0	36	0	1053818880	61	4274
2026-01-18 23:32:30.67	67.22	39.82	-45.6	-46.8	18.4	0.00e+00	0	36	0	1055916032	61	4483
2026-01-18 23:32:31.68	67.62	39.95	-45.9	-47.2	18.0	0.00e+00	0	36	0	1059061760	62	4408
2026-01-18 23:32:32.69	68.03	40.09	-46.1	-47.3	17.8	0.00e+00	0	36	0	1062207488	62	4491
2026-01-18 23:32:33.69	68.43	40.22	-46.3	-47.6	17.6	0.00e+00	0	36	0	1065353216	63	4367
2026-01-18 23:32:34.70	68.84	40.35	-46.4	-47.8	17.5	0.00e+00	0	36	0	1068498944	63	4451
2026-01-18 23:32:35.71	69.25	40.48	-46.4	-47.8	17.4	0.00e+00	0	36	0	1071644672	63	4468
2026-01-18 23:32:36.72	69.67	40.61	-46.2	-47.5	17.7	0.00e+00	0	36	0	1074790400	63	4329
2026-01-18 23:32:37.73	70.09	40.74	-46.1	-47.4	17.7	0.00e+00	0	36	0	1077936128	63	4286
2026-01-18 23:32:38.73	70.50	40.87	-46.0	-47.3	17.9	0.00e+00	0	36	0	1082130432	63	4216
2026-01-18 23:32:39.74	70.93	41.00	-45.9	-47.2	17.9	0.00e+00	0	36	0	1085276160	63	4168
2026-01-18 23:32:40.75	71.36	41.12	-46.0	-47.2	18.0	0.00e+00	0	36	0	1088421888	63	4188
2026-01-18 23:32:41.76	71.79	41.25	-46.3	-47.6	17.6	0.00e+00	0	36	0	1091567616	63	4374
2026-01-18 23:32:42.77	72.23	41.37	-46.4	-47.7	17.5	0.00e+00	0	36	0	1094713344	63	4435
2026-01-18 23:32:43.77	72.66	41.49	-46.5	-47.9	17.3	0.00e+00	0	36	0	1097859072	63	4510
2026-01-18 23:32:44.78	73.10	41.61	-46.6	-48.1	16.9	0.00e+00	0	36	0	1101004800	64	4356
2026-01-18 23:32:45.79	73.55	41.73	-46.7	-48.2	16.8	0.00e+00	0	36	0	1103101952	64	4434
2026-01-18 23:32:46.80	74.00	41.85	-46.8	-48.3	16.8	0.00e+00	0	36	0	1106247680	64	4484
2026-01-18 23:32:47.81	74.45	41.96	-46.6	-48.1	17.1	0.00e+00	0	36	0	1109393408	64	4354
2026-01-18 23:32:48.82	74.91	42.07	-46.6	-48.0	17.1	0.00e+00	0	36	0	1112539136	64	4328
2026-01-18 23:32:49.83	75.36	42.19	-46.4	-47.8	17.3	0.00e+00	0	36	0	1115684864	64	4206
2026-01-18 23:32:50.83	75.82	42.30	-46.3	-47.7	17.4	0.00e+00	0	36	0	1119879168	64	4164
2026-01-18 23:32:51.84	76.29	42.40	-46.4	-47.8	17.2	0.00e+00	0	36	0	1123024896	64	4217
2026-01-18 23:32:52.85	76.75	42.51	-46.4	-47.8	17.2	0.00e+00	0	36	0	1126170624	64	4241
2026-01-18 23:32:53.86	77.22	42.62	-46.2	-47.5	17.6	0.00e+00	0	36	0	1129316352	64	4094
2026-01-18 23:32:54.87	77.70	42.72	-46.0	-47.3	18.0	0.00e+00	0	36	0	1132462080	63	4201
2026-01-18 23:32:55.87	78.17	42.82	-45.6	-46.8	18.4	0.00e+00	0	36	0	1135607808	63	3989
2026-01-18 23:32:56.88	78.65	42.92	-45.7	-46.9	18.3	0.00e+00	0	36	0	1138753536	63	4023
2026-01-18 23:32:57.89	79.13	43.02	-46.0	-47.3	17.7	0.00e+00	0	36	0	1141899264	63	4238
2026-01-18 23:32:58.90	79.62	43.11	-46.6	-48.0	17.2	0.00e+00	0	36	0	1145044992	63	4581
2026-01-18 23:32:59.91	80.11	43.21	-46.5	-48.0	17.1	0.00e+00	0	36	0	1148190720	64	4303
2026-01-18 23:33:00.91	80.59	43.30	-46.2	-47.5	17.6	0.00e+00	0	36	0	1150287872	64	4077
2026-01-18 23:33:01.92	81.09	43.39	-46.1	-47.4	17.7	0.00e+00	0	37	0	1153433600	64	4021
2026-01-18 23:33:02.93	81.58	43.47	-46.3	-47.6	17.4	0.00e+00	0	36	0	1157627904	64	4136
2026-01-18 23:33:03.94	82.08	43.56	-46.3	-47.7	17.2	0.00e+00	0	36	0	1160773632	64	4155
2026-01-18 23:33:04.95	82.58	43.64	-46.7	-48.1	16.9	0.00e+00	0	36	0	1163919360	64	4372
2026-01-18 23:33:05.95	83.08	43.72	-46.8	-48.3	16.8	0.00e+00	0	36	0	1167065088	64	4454
2026-01-18 23:33:06.96	83.59	43.80	-46.4	-47.7	17.3	0.00e+00	0	36	0	1170210816	64	4178
2026-01-18 23:33:07.97	84.10	43.88	-45.9	-47.2	18.0	0.00e+00	0	36	0	1173356544	63	4151
2026-01-18 23:33:08.98	84.61	43.95	-45.9	-47.1	18.0	0.00e+00	0	36	0	1176502272	63	4144
2026-01-18 23:33:09.99	85.13	44.02	-46.1	-47.3	17.9	0.00e+00	0	36	0	1179648000	63	4240
2026-01-18 23:33:10.99	85.64	44.09	-46.1	-47.3	17.8	0.00e+00	0	36	0	1182793728	63	4235
2026-01-18 23:33:12.00	86.16	44.16	-46.1	-47.4	17.8	0.00e+00	0	36	0	1185939456	63	4289
2026-01-18 23:33:13.01	86.68	44.22	-46.0	-47.3	17.9	0.00e+00	0	37	0	1189085184	63	4222
2026-01-18 23:33:14.02	87.20	44.28	-46.0	-47.2	18.0	0.00e+00	0	36	0	1192230912	63	4170
2026-01-18 23:33:15.03	87.72	44.34	-45.9	-47.1	18.0	0.00e+00	0	36	0	1195376640	63	4145
2026-01-18 23:33:16.03	88.25	44.40	-45.7	-46.9	18.3	0.00e+00	0	37	0	1198522368	63	4019
2026-01-18 23:33:17.04	88.77	44.45	-45.4	-46.5	18.6	0.00e+00	0	37	0	1201668096	62	4094
2026-01-18 23:33:18.05	89.30	44.51	-45.4	-46.5	18.7	0.00e+00	0	36	0	1204813824	62	4070
2026-01-18 23:33:19.05	89.83	44.55	-45.6	-46.7	18.5	0.00e+00	0	36	0	1207959552	62	4192
2026-01-18 23:33:20.06	90.36	44.60	-45.8	-47.1	18.1	0.00e+00	0	36	0	1211105280	62	4347
2026-01-18 23:33:21.07	90.90	44.64	-46.0	-47.3	18.0	0.00e+00	0	36	0	1214251008	62	4444
2026-01-18 23:33:22.08	91.44	44.69	-46.1	-47.4	17.8	0.00e+00	0	36	0	1217396736	62	4518
2026-01-18 23:33:23.09	91.97	44.72	-46.3	-47.7	17.6	0.00e+00	0	36	0	1220542464	63	4410
2026-01-18 23:33:24.09	92.51	44.76	-46.5	-47.8	17.3	0.00e+00	0	36	0	1223688192	63	4491
2026-01-18 23:33:25.10	93.05	44.79	-46.7	-48.1	17.1	0.00e+00	0	36	0	1226833920	63	4641
2026-01-18 23:33:26.11	93.59	44.82	-46.6	-48.0	17.2	0.00e+00	0	36	0	1229979648	63	4561
2026-01-18 23:33:27.12	94.13	44.85	-46.1	-47.4	17.9	0.00e+00	0	36	0	1233125376	63	4272
2026-01-18 23:33:28.13	94.67	44.88	-45.8	-47.1	18.1	0.00e+00	0	36	0	1236271104	63	4119
2026-01-18 23:33:29.13	95.21	44.90	-45.9	-47.2	18.0	0.00e+00	0	36	0	1239416832	63	4174
2026-01-18 23:33:30.14	95.76	44.92	-45.7	-46.9	18.3	0.00e+00	0	36	0	1242562560	63	4021
2026-01-18 23:33:31.15	96.30	44.93	-45.5	-46.7	18.5	0.00e+00	0	37	0	1245708288	63	3950
2026-01-18 23:33:32.16	96.85	44.95	-45.7	-46.9	18.3	0.00e+00	0	36	0	1248854016	62	4265
2026-01-18 23:33:33.17	97.39	44.96	-45.5	-46.7	18.6	0.00e+00	0	36	0	1251999744	62	4168
2026-01-18 23:33:34.18	97.94	44.97	-45.4	-46.6	18.6	0.00e+00	0	36	0	1255145472	62	4118
2026-01-18 23:33:35.19	98.49	44.97	-45.7	-46.9	18.4	0.00e+00	0	36	0	1258291200	62	4277
2026-01-18 23:33:36.20	99.03	44.97	-46.0	-47.2	18.1	0.00e+00	0	36	0	1261436928	62	4440
2026-01-18 23:33:37.20	99.58	44.97	-46.2	-47.5	17.8	0.00e+00	0	36	0	1264582656	63	4329
2026-01-18 23:33:38.21	100.12	44.97	-46.4	-47.8	17.5	0.00e+00	0	36	0	1267728384	63	4464
2026-01-18 23:33:39.21	100.66	44.96	-46.4	-47.8	17.4	0.00e+00	0	36	0	1270874112	63	4454
2026-01-18 23:33:40.22	101.21	44.96	-46.1	-47.4	17.8	0.00e+00	0	36	0	1274019840	63	4249
2026-01-18 23:33:41.23	101.76	44.94	-46.0	-47.2	17.9	0.00e+00	0	36	0	1277165568	63	4183
2026-01-18 23:33:42.24	102.30	44.93	-45.9	-47.1	18.1	0.00e+00	0	36	0	1280311296	63	4120
2026-01-18 23:33:43.25	102.85	44.91	-45.7	-46.9	18.3	0.00e+00	0	36	0	1283457024	63	4032
2026-01-18 23:33:44.25	103.39	44.89	-45.6	-46.8	18.5	0.00e+00	0	36	0	1286602752	63	3967
2026-01-18 23:33:45.26	103.93	44.87	-45.5	-46.6	18.6	0.00e+00	0	36	0	1289748480	62	4129
2026-01-18 23:33:46.27	104.48	44.84	-45.3	-46.4	18.8	0.00e+00	0	36	0	1292894208	62	4018
2026-01-18 23:33:47.28	105.02	44.82	-45.4	-46.6	18.6	0.00e+00	0	36	0	1296039936	62	4110
2026-01-18 23:33:48.29	105.56	44.78	-45.4	-46.5	18.6	0.00e+00	0	36	0	1299185664	62	4064
2026-01-18 23:33:49.30	106.10	44.75	-45.2	-46.3	18.9	0.00e+00	0	36	0	1302331392	62	3980
2026-01-18 23:33:50.31	106.64	44.71	-44.9	-46.1	19.1	0.00e+00	0	36	0	1305477120	62	3890
2026-01-18 23:33:51.32	107.18	44.68	-45.5	-46.7	18.4	0.00e+00	0	36	0	1308622848	61	4422
2026-01-18 23:33:52.32	107.71	44.63	-45.6	-46.8	18.3	0.00e+00	0	36	0	1311768576	61	4454
2026-01-18 23:33:53.33	108.24	44.59	-45.8	-47.0	18.3	0.00e+00	0	36	0	1314914304	62	4294
2026-01-18 23:33:54.34	108.78	44.54	-45.8	-47.0	18.2	0.00e+00	0	36	0	1318060032	62	4320
2026-01-18 23:33:55.35	109.31	44.49	-45.8	-47.0	18.2	0.00e+00	0	36	0	1321205760	62	4318
2026-01-18 23:33:56.35	109.83	44.44	-45.5	-46.7	18.5	0.00e+00	0	36	0	1324351488	62	4153
2026-01-18 23:33:57.36	110.36	44.39	-45.5	-46.7	18.6	0.00e+00	0	36	0	1327497216	62	4151
2026-01-18 23:33:58.37	110.89	44.33	-45.8	-47.1	18.2	0.00e+00	0	36	0	1330642944	62	4365
2026-01-18 23:33:59.38	111.41	44.27	-46.2	-47.6	17.7	0.00e+00	0	36	0	1333788672	63	4358
2026-01-18 23:34:00.39	111.94	44.20	-46.5	-47.8	17.4	0.00e+00	0	36	0	1336934400	63	4492
2026-01-18 23:34:01.39	112.45	44.14	-46.5	-48.0	17.2	0.00e+00	0	36	0	1340080128	64	4300
2026-01-18 23:34:02.40	112.97	44.07	-46.4	-47.8	17.4	0.00e+00	0	36	0	1343225856	64	4221
2026-01-18 23:34:03.41	113.49	44.00	-46.0	-47.3	17.8	0.00e+00	0	36	0	1346371584	64	3993
2026-01-18 23:34:04.42	114.00	43.93	-45.9	-47.2	17.9	0.00e+00	0	36	0	1349517312	63	4176
2026-01-18 23:34:05.42	114.51	43.86	-45.8	-47.1	18.1	0.00e+00	0	36	0	1352663040	63	4116
2026-01-18 23:34:06.43	115.02	43.78	-45.8	-47.0	18.3	0.00e+00	0	36	0	1355808768	63	4070
2026-01-18 23:34:07.44	115.52	43.70	-46.0	-47.3	18.0	0.00e+00	0	36	0	1358954496	63	4194
2026-01-18 23:34:08.45	116.03	43.62	-46.5	-47.8	17.4	0.00e+00	0	36	0	1362100224	63	4481
2026-01-18 23:34:09.45	116.52	43.54	-46.6	-48.1	17.2	0.00e+00	0	36	0	1365245952	63	4616
2026-01-18 23:34:10.46	117.02	43.45	-46.4	-47.8	17.5	0.00e+00	0	36	0	1368391680	63	4458
2026-01-18 23:34:11.47	117.52	43.36	-46.1	-47.4	17.9	0.00e+00	0	36	0	1371537408	63	4246
2026-01-18 23:34:12.48	118.01	43.27	-45.5	-46.7	18.4	0.00e+00	0	37	0	1374683136	63	3924
2026-01-18 23:34:13.49	118.51	43.18	-45.6	-46.8	18.1	0.00e+00	0	36	0	1377828864	63	3997
2026-01-18 23:34:14.49	118.99	43.09	-46.1	-47.4	17.7	0.00e+00	0	36	0	1380974592	63	4265
2026-01-18 23:34:15.50	119.48	42.99	-46.1	-47.3	17.8	0.00e+00	0	36	0	1384120320	63	4233
2026-01-18 23:34:16.51	119.96	42.89	-45.7	-46.9	18.3	0.00e+00	0	36	0	1387266048	63	4048
2026-01-18 23:34:17.52	120.44	42.79	-45.8	-47.0	18.0	0.00e+00	0	36	0	1390411776	63	4093
2026-01-18 23:34:18.52	120.91	42.69	-45.8	-47.0	18.0	0.00e+00	0	36	0	1393557504	63	4082
2026-01-18 23:34:19.53	121.38	42.59	-45.9	-47.1	18.0	0.00e+00	0	36	0	1396703232	63	4142
2026-01-18 23:34:20.54	121.85	42.48	-45.8	-47.0	18.2	0.00e+00	0	36	0	1399848960	63	4062
2026-01-18 23:34:21.55	122.32	42.37	-45.3	-46.4	18.7	0.00e+00	0	36	0	1402994688	62	4051
2026-01-18 23:34:22.56	122.79	42.26	-45.4	-46.5	18.6	0.00e+00	0	36	0	1406140416	62	4098
2026-01-18 23:34:23.56	123.24	42.15	-45.8	-47.0	18.1	0.00e+00	0	36	0	1409286144	62	4303
2026-01-18 23:34:24.57	123.70	42.04	-45.9	-47.2	17.9	0.00e+00	0	36	0	1412431872	62	4398
2026-01-18 23:34:25.58	124.16	41.93	-45.7	-46.9	18.1	0.00e+00	0	36	0	1415577600	62	4249
2026-01-18 23:34:26.59	124.61	41.81	-45.5	-46.7	18.4	0.00e+00	0	37	0	1418723328	62	4173
2026-01-18 23:34:27.59	125.05	41.69	-45.3	-46.5	18.6	0.00e+00	0	36	0	1421869056	62	4070
2026-01-18 23:34:28.60	125.50	41.57	-45.0	-46.1	18.9	0.00e+00	0	36	0	1425014784	61	4120
2026-01-18 23:34:29.61	125.94	41.45	-44.7	-45.8	19.3	0.00e+00	0	36	0	1428160512	61	3979
2026-01-18 23:34:30.62	126.38	41.33	-44.9	-45.9	19.2	0.00e+00	0	36	0	1431306240	61	4044
2026-01-18 23:34:31.62	126.81	41.21	-45.0	-46.1	19.0	0.00e+00	0	36	0	1434451968	61	4137
2026-01-18 23:34:32.63	127.24	41.08	-45.2	-46.3	18.9	0.00e+00	0	36	0	1437597696	61	4225
2026-01-18 23:34:33.64	127.67	40.96	-45.1	-46.2	18.9	0.00e+00	0	36	0	1440743424	61	4168
2026-01-18 23:34:34.64	128.10	40.83	-44.9	-46.0	19.2	0.00e+00	0	36	0	1443889152	61	4061
2026-01-18 23:34:35.65	128.52	40.70	-44.8	-45.8	19.3	0.00e+00	0	36	0	1447034880	61	3986
2026-01-18 23:34:36.66	128.94	40.57	-44.6	-45.6	19.5	0.00e+00	0	36	0	1450180608	61	3899
2026-01-18 23:34:37.67	129.35	40.44	-44.4	-45.4	19.6	0.00e+00	0	36	0	1453326336	60	4051
2026-01-18 23:34:38.67	129.76	40.31	-44.6	-45.7	19.3	0.00e+00	0	36	0	1456472064	60	4162
2026-01-18 23:34:39.68	130.17	40.18	-45.2	-46.3	18.9	0.00e+00	0	36	0	1459617792	60	4453
2026-01-18 23:34:40.69	130.58	40.04	-45.4	-46.6	18.6	0.00e+00	0	36	0	1462763520	61	4351
2026-01-18 23:34:41.70	130.98	39.91	-45.3	-46.4	18.7	0.00e+00	0	36	0	1465909248	61	4286
2026-01-18 23:34:42.71	131.38	39.77	-45.5	-46.7	18.5	0.00e+00	0	36	0	1469054976	61	4392
2026-01-18 23:34:43.72	131.78	39.63	-45.6	-46.8	18.4	0.00e+00	0	36	0	1472200704	61	4451
2026-01-18 23:34:44.72	132.17	39.49	-45.7	-46.9	18.3	0.00e+00	0	36	0	1475346432	62	4284
2026-01-18 23:34:45.73	132.56	39.36	-45.6	-46.8	18.4	0.00e+00	0	36	0	1478492160	62	4227
2026-01-18 23:34:46.74	132.94	39.22	-45.7	-47.0	18.2	0.00e+00	0	36	0	1481637888	62	4307
2026-01-18 23:34:47.75	133.33	39.07	-46.0	-47.3	17.9	0.00e+00	0	36	0	1484783616	62	4478
2026-01-18 23:34:48.76	133.70	38.93	-46.1	-47.4	17.8	0.00e+00	0	36	0	1487929344	62	4495
2026-01-18 23:34:49.77	134.08	38.79	-46.1	-47.3	17.9	0.00e+00	0	36	0	1491075072	62	4491
2026-01-18 23:34:50.77	134.45	38.65	-45.9	-47.2	18.1	0.00e+00	0	36	0	1494220800	62	4401
2026-01-18 23:34:51.78	134.82	38.50	-45.8	-47.0	18.2	0.00e+00	0	36	0	1497366528	62	4305
2026-01-18 23:34:52.79	135.19	38.36	-45.5	-46.7	18.5	0.00e+00	0	36	0	1500512256	62	4155
2026-01-18 23:34:53.80	135.55	38.21	-45.2	-46.4	18.8	0.00e+00	0	36	0	1503657984	62	4016
2026-01-18 23:34:54.81	135.91	38.07	-45.1	-46.3	18.9	0.00e+00	0	36	0	1506803712	62	3959
2026-01-18 23:34:55.82	136.27	37.92	-45.1	-46.2	19.0	0.00e+00	0	36	0	1509949440	62	3923
2026-01-18 23:34:56.82	136.62	37.77	-45.1	-46.2	19.0	0.00e+00	0	36	0	1513095168	62	3928
2026-01-18 23:34:57.83	136.97	37.63	-44.7	-45.8	19.3	0.00e+00	0	36	0	1516240896	61	3967
2026-01-18 23:34:58.84	137.32	37.48	-44.5	-45.5	19.5	0.00e+00	0	36	0	1519386624	61	3866
2026-01-18 23:34:59.85	137.66	37.33	-44.5	-45.5	19.5	0.00e+00	0	36	0	1522532352	60	4094
2026-01-18 23:35:00.85	138.00	37.18	-44.5	-45.6	19.5	0.00e+00	0	36	0	1525678080	60	4115
2026-01-18 23:35:01.86	138.34	37.03	-44.3	-45.3	19.8	0.00e+00	0	36	0	1528823808	60	3984
2026-01-18 23:35:02.87	138.68	36.88	-44.2	-45.1	19.8	0.00e+00	0	36	0	1531969536	60	3910
2026-01-18 23:35:03.88	139.01	36.73	-44.4	-45.4	19.9	0.00e+00	0	36	0	1535115264	59	4275
2026-01-18 23:35:04.88	139.34	36.58	-44.5	-45.6	19.7	0.00e+00	0	36	0	1538260992	59	4353
2026-01-18 23:35:05.89	139.66	36.43	-44.5	-45.6	19.7	0.00e+00	0	36	0	1541406720	59	4353
2026-01-18 23:35:06.90	139.99	36.28	-44.6	-45.6	19.7	0.00e+00	0	36	0	1544552448	59	4383
2026-01-18 23:35:07.91	140.31	36.13	-44.5	-45.5	19.6	0.00e+00	0	36	0	1547698176	60	4069
2026-01-18 23:35:08.92	140.63	35.97	-44.4	-45.4	19.6	0.00e+00	0	36	0	1550843904	60	4050
2026-01-18 23:35:09.92	140.94	35.82	-44.5	-45.5	19.4	0.00e+00	0	36	0	1553989632	60	4090
2026-01-18 23:35:10.93	141.25	35.67	-44.3	-45.3	19.6	0.00e+00	0	36	0	1557135360	60	3973
2026-01-18 23:35:11.94	141.56	35.52	-44.2	-45.2	19.7	0.00e+00	0	36	0	1560281088	60	3926
2026-01-18 23:35:12.95	141.86	35.36	-44.1	-45.1	19.8	0.00e+00	0	36	0	1563426816	60	3886
2026-01-18 23:35:13.95	142.17	35.21	-44.1	-45.1	19.8	0.00e+00	0	36	0	1566572544	60	3908
2026-01-18 23:35:14.96	142.47	35.06	-44.0	-45.0	19.9	0.00e+00	0	36	0	1569718272	60	3847
2026-01-18 23:35:15.97	142.76	34.91	-44.5	-45.5	19.8	0.00e+00	0	36	0	1572864000	59	4318
2026-01-18 23:35:16.98	143.06	34.75	-44.4	-45.5	19.8	0.00e+00	0	36	0	1576009728	59	4293
2026-01-18 23:35:17.99	143.35	34.60	-44.6	-45.7	19.6	0.00e+00	0	36	0	1579155456	59	4422
2026-01-18 23:35:18.99	143.64	34.45	-44.4	-45.4	19.6	0.00e+00	0	36	0	1582301184	60	4035
2026-01-18 23:35:20.00	143.93	34.29	-44.3	-45.3	19.7	0.00e+00	0	36	0	1585446912	60	4002
2026-01-18 23:35:21.01	144.21	34.14	-44.2	-45.3	19.7	0.00e+00	0	36	0	1588592640	60	3969
2026-01-18 23:35:22.02	144.49	33.99	-44.3	-45.3	19.7	0.00e+00	0	36	0	1591738368	60	3997
2026-01-18 23:35:23.03	144.77	33.83	-44.2	-45.2	19.8	0.00e+00	0	36	0	1594884096	60	3944
2026-01-18 23:35:24.03	145.05	33.68	-44.3	-45.3	20.0	0.00e+00	0	36	0	1598029824	59	4219
2026-01-18 23:35:25.04	145.32	33.53	-44.3	-45.3	19.9	0.00e+00	0	36	0	1601175552	59	4215
2026-01-18 23:35:26.05	145.59	33.37	-44.2	-45.1	20.1	0.00e+00	0	36	0	1604321280	59	4145
2026-01-18 23:35:27.06	145.86	33.22	-44.3	-45.3	20.0	0.00e+00	0	36	0	1607467008	59	4213
2026-01-18 23:35:28.07	146.13	33.07	-44.2	-45.2	20.1	0.00e+00	0	36	0	1610612736	59	4164
2026-01-18 23:35:29.07	146.39	32.92	-44.3	-45.3	19.9	0.00e+00	0	37	0	1613758464	59	4224
2026-01-18 23:35:30.08	146.65	32.76	-44.4	-45.4	19.8	0.00e+00	0	36	0	1616904192	59	4264
2026-01-18 23:35:31.09	146.91	32.61	-44.2	-45.3	19.9	0.00e+00	0	36	0	1620049920	59	4194
2026-01-18 23:35:32.10	147.17	32.46	-44.2	-45.2	20.0	0.00e+00	0	36	0	1623195648	59	4169
2026-01-18 23:35:33.10	147.42	32.31	-43.9	-44.9	20.3	0.00e+00	0	36	0	1626341376	59	4025
2026-01-18 23:35:34.11	147.68	32.15	-44.0	-45.0	20.2	0.00e+00	0	36	0	1629487104	59	4083
2026-01-18 23:35:35.12	147.93	32.00	-44.0	-44.9	20.3	0.00e+00	0	36	0	1632632832	59	4050
2026-01-18 23:35:36.13	148.17	31.85	-43.9	-44.9	20.3	0.00e+00	0	36	0	1635778560	59	4024
2026-01-18 23:35:37.14	148.42	31.70	-43.8	-44.7	20.5	0.00e+00	0	36	0	1638924288	59	3956
2026-01-18 23:35:38.14	148.66	31.55	-43.7	-44.6	20.6	0.00e+00	0	36	0	1642070016	59	3903
2026-01-18 23:35:39.15	148.90	31.40	-43.3	-44.2	20.9	0.00e+00	0	36	0	1645215744	58	3958
2026-01-18 23:35:40.16	149.14	31.24	-43.2	-44.0	21.0	0.00e+00	0	36	0	1648361472	58	3868
2026-01-18 23:35:41.17	149.38	31.09	-43.1	-43.9	21.2	0.00e+00	0	36	0	1651507200	58	3823
2026-01-18 23:35:42.18	149.61	30.94	-43.0	-43.9	21.1	0.00e+00	0	36	0	1654652928	58	3809
2026-01-18 23:35:43.19	149.84	30.79	-43.1	-43.9	21.1	0.00e+00	0	36	0	1657798656	58	3821
2026-01-18 23:35:44.20	150.08	30.64	-43.1	-44.0	21.0	0.00e+00	0	36	0	1660944384	58	3864
2026-01-18 23:35:45.21	150.30	30.49	-43.3	-44.3	20.9	0.00e+00	0	36	0	1664090112	58	3961
2026-01-18 23:35:46.21	150.53	30.34	-43.4	-44.3	20.8	0.00e+00	0	36	0	1667235840	58	3969
2026-01-18 23:35:47.22	150.75	30.20	-43.4	-44.3	20.8	0.00e+00	0	36	0	1670381568	58	3994
2026-01-18 23:35:48.23	150.97	30.05	-43.4	-44.3	20.8	0.00e+00	0	36	0	1673527296	58	4000
2026-01-18 23:35:49.24	151.20	29.90	-43.5	-44.4	20.7	0.00e+00	0	36	0	1676673024	58	4020
2026-01-18 23:35:50.25	151.41	29.75	-43.5	-44.4	20.6	0.00e+00	0	36	0	1679818752	58	4035
2026-01-18 23:35:51.26	151.63	29.60	-43.7	-44.6	20.5	0.00e+00	0	36	0	1682964480	58	4121
2026-01-18 23:35:52.27	151.84	29.45	-43.6	-44.5	20.5	0.00e+00	0	37	0	1686110208	58	4098
2026-01-18 23:35:53.27	152.06	29.31	-43.7	-44.6	20.5	0.00e+00	0	36	0	1689255936	58	4121
2026-01-18 23:35:54.28	152.27	29.16	-43.8	-44.7	20.4	0.00e+00	0	36	0	1692401664	58	4175
2026-01-18 23:35:55.29	152.48	29.01	-43.8	-44.7	20.3	0.00e+00	0	36	0	1695547392	58	4190
2026-01-18 23:35:56.29	152.68	28.87	-43.8	-44.8	20.3	0.00e+00	0	36	0	1698693120	58	4223
2026-01-18 23:35:57.30	152.89	28.72	-44.0	-45.0	20.1	0.00e+00	0	36	0	1701838848	58	4338
2026-01-18 23:35:58.30	153.09	28.58	-44.1	-45.1	20.0	0.00e+00	0	36	0	1704984576	58	4360
2026-01-18 23:35:59.31	153.29	28.43	-44.1	-45.1	20.0	0.00e+00	0	36	0	1708130304	58	4381
2026-01-18 23:36:00.32	153.49	28.29	-44.1	-45.1	20.0	0.00e+00	0	36	0	1711276032	59	4137
2026-01-18 23:36:01.33	153.69	28.15	-44.0	-45.0	20.1	0.00e+00	0	36	0	1714421760	59	4089
2026-01-18 23:36:02.34	153.88	28.00	-44.2	-45.2	19.9	0.00e+00	0	36	0	1717567488	59	4160
2026-01-18 23:36:03.34	154.08	27.86	-44.0	-45.0	20.0	0.00e+00	0	36	0	1720713216	59	4091
2026-01-18 23:36:04.35	154.27	27.72	-44.1	-45.1	19.9	0.00e+00	0	36	0	1723858944	59	4114
2026-01-18 23:36:05.36	154.46	27.57	-44.0	-45.0	20.0	0.00e+00	0	36	0	1727004672	59	4076
2026-01-18 23:36:06.37	154.65	27.43	-44.0	-45.1	20.0	0.00e+00	0	36	0	1730150400	59	4109
2026-01-18 23:36:07.37	154.84	27.29	-44.2	-45.2	19.9	0.00e+00	0	36	0	1733296128	59	4167
2026-01-18 23:36:08.38	155.02	27.15	-43.9	-44.9	20.1	0.00e+00	0	36	0	1736441856	59	4041
2026-01-18 23:36:09.39	155.21	27.01	-43.7	-44.7	20.4	0.00e+00	0	36	0	1739587584	59	3947
2026-01-18 23:36:10.40	155.39	26.87	-43.7	-44.7	20.4	0.00e+00	0	37	0	1742733312	59	3930
2026-01-18 23:36:11.41	155.57	26.73	-43.6	-44.5	20.5	0.00e+00	0	36	0	1745879040	59	3853
2026-01-18 23:36:12.41	155.75	26.59	-43.3	-44.2	20.8	0.00e+00	0	36	0	1749024768	58	3955
2026-01-18 23:36:13.42	155.93	26.45	-43.2	-44.1	20.9	0.00e+00	0	36	0	1752170496	58	3903
2026-01-18 23:36:14.43	156.11	26.31	-43.2	-44.1	20.9	0.00e+00	0	36	0	1755316224	58	3903
2026-01-18 23:36:15.43	156.28	26.17	-43.2	-44.1	20.9	0.00e+00	0	36	0	1758461952	58	3884
2026-01-18 23:36:16.44	156.46	26.04	-43.3	-44.2	20.8	0.00e+00	0	36	0	1761607680	58	3943
2026-01-18 23:36:17.45	156.63	25.90	-43.4	-44.3	20.7	0.00e+00	0	36	0	1764753408	58	3977
2026-01-18 23:36:18.46	156.80	25.76	-43.4	-44.3	20.7	0.00e+00	0	36	0	1767899136	58	3990
2026-01-18 23:36:19.47	156.97	25.62	-43.5	-44.4	20.6	0.00e+00	0	36	0	1771044864	58	4047
2026-01-18 23:36:20.47	157.14	25.49	-43.5	-44.5	20.6	0.00e+00	0	36	0	1774190592	58	4053
2026-01-18 23:36:21.48	157.30	25.35	-43.4	-44.3	20.7	0.00e+00	0	36	0	1777336320	58	3999
2026-01-18 23:36:22.49	157.47	25.22	-43.3	-44.3	20.8	0.00e+00	0	36	0	1780482048	58	3965
2026-01-18 23:36:23.50	157.63	25.08	-43.3	-44.2	20.8	0.00e+00	0	36	0	1783627776	58	3927
2026-01-18 23:36:24.51	157.80	24.95	-43.3	-44.3	20.8	0.00e+00	0	36	0	1786773504	58	3959
2026-01-18 23:36:25.51	157.96	24.82	-43.3	-44.2	20.7	0.00e+00	0	36	0	1789919232	58	3953
2026-01-18 23:36:26.52	158.12	24.68	-43.0	-43.9	20.9	0.00e+00	0	36	0	1793064960	58	3818
2026-01-18 23:36:27.53	158.28	24.55	-43.0	-43.9	20.9	0.00e+00	0	36	0	1796210688	58	3807
2026-01-18 23:36:28.53	158.43	24.42	-42.9	-43.8	21.0	0.00e+00	0	36	0	1799356416	57	3973
2026-01-18 23:36:29.54	158.59	24.29	-43.0	-43.9	20.9	0.00e+00	0	36	0	1802502144	57	4015
2026-01-18 23:36:30.55	158.74	24.15	-43.1	-44.0	20.8	0.00e+00	0	36	0	1805647872	57	4086
2026-01-18 23:36:31.56	158.90	24.02	-43.1	-44.0	20.9	0.00e+00	0	36	0	1808793600	57	4070
2026-01-18 23:36:32.57	159.05	23.89	-43.1	-44.0	20.8	0.00e+00	0	36	0	1811939328	57	4074
2026-01-18 23:36:33.58	159.20	23.76	-43.1	-44.0	20.8	0.00e+00	0	36	0	1815085056	57	4084
2026-01-18 23:36:34.58	159.35	23.63	-43.2	-44.1	20.8	0.00e+00	0	36	0	1818230784	57	4110
2026-01-18 23:36:35.59	159.50	23.50	-43.3	-44.2	20.6	0.00e+00	0	36	0	1821376512	57	4190
2026-01-18 23:36:36.60	159.65	23.37	-43.3	-44.2	20.7	0.00e+00	0	36	0	1824522240	57	4169
2026-01-18 23:36:37.61	159.79	23.24	-43.3	-44.2	20.7	0.00e+00	0	36	0	1827667968	57	4169
2026-01-18 23:36:38.61	159.94	23.12	-43.3	-44.2	20.7	0.00e+00	0	36	0	1830813696	57	4167
2026-01-18 23:36:39.62	160.08	22.99	-43.2	-44.1	20.8	0.00e+00	0	36	0	1833959424	57	4113
2026-01-18 23:36:40.63	160.23	22.86	-43.2	-44.1	20.7	0.00e+00	0	36	0	1838153728	57	4139
2026-01-18 23:36:41.64	160.37	22.74	-43.3	-44.2	20.6	0.00e+00	0	36	0	1841299456	57	4177
2026-01-18 23:36:42.65	160.51	22.61	-43.3	-44.2	20.6	0.00e+00	0	36	0	1844445184	57	4189
2026-01-18 23:36:43.65	160.65	22.48	-43.3	-44.2	20.6	0.00e+00	0	36	0	1846542336	57	4178
2026-01-18 23:36:44.66	160.79	22.36	-43.4	-44.3	20.5	0.00e+00	0	36	0	1849688064	57	4224
2026-01-18 23:36:45.67	160.92	22.23	-43.5	-44.4	20.4	0.00e+00	0	36	0	1852833792	57	4287
2026-01-18 23:36:46.68	161.06	22.11	-43.5	-44.5	20.3	0.00e+00	0	36	0	1855979520	57	4314
2026-01-18 23:36:47.69	161.20	21.99	-43.5	-44.5	20.4	0.00e+00	0	36	0	1859125248	57	4303
2026-01-18 23:36:48.70	161.33	21.86	-43.4	-44.4	20.5	0.00e+00	0	36	0	1862270976	57	4258
2026-01-18 23:36:49.70	161.46	21.74	-43.4	-44.4	20.5	0.00e+00	0	36	0	1865416704	57	4260
2026-01-18 23:36:50.71	161.60	21.62	-43.4	-44.3	20.5	0.00e+00	0	36	0	1868562432	57	4232
2026-01-18 23:36:51.72	161.73	21.49	-43.5	-44.4	20.5	0.00e+00	0	36	0	1871708160	57	4270
2026-01-18 23:36:52.73	161.86	21.37	-43.5	-44.5	20.4	0.00e+00	0	36	0	1875902464	57	4303
2026-01-18 23:36:53.74	161.99	21.25	-43.6	-44.5	20.4	0.00e+00	0	36	0	1879048192	57	4330
2026-01-18 23:36:54.75	162.12	21.13	-43.6	-44.6	20.4	0.00e+00	0	36	0	1882193920	57	4342
2026-01-18 23:36:55.75	162.24	21.01	-43.6	-44.6	20.3	0.00e+00	0	37	0	1885339648	57	4351
2026-01-18 23:36:56.76	162.37	20.89	-43.7	-44.7	20.2	0.00e+00	0	36	0	1888485376	58	4179
2026-01-18 23:36:57.77	162.49	20.77	-43.8	-44.8	20.1	0.00e+00	0	36	0	1891631104	58	4227
2026-01-18 23:36:58.78	162.62	20.65	-43.9	-44.9	20.1	0.00e+00	0	36	0	1893728256	58	4247
2026-01-18 23:36:59.78	162.74	20.53	-43.8	-44.8	20.2	0.00e+00	0	36	0	1896873984	58	4222
2026-01-18 23:37:00.79	162.87	20.41	-43.9	-44.9	20.1	0.00e+00	0	36	0	1900019712	58	4281
2026-01-18 23:37:01.80	162.99	20.30	-43.9	-44.9	20.1	0.00e+00	0	36	0	1903165440	58	4250
2026-01-18 23:37:02.81	163.11	20.18	-43.9	-44.9	20.0	0.00e+00	0	36	0	1906311168	58	4273
2026-01-18 23:37:03.82	163.23	20.06	-43.8	-44.8	20.2	0.00e+00	0	36	0	1909456896	58	4206
2026-01-18 23:37:04.83	163.35	19.95	-43.7	-44.7	20.2	0.00e+00	0	36	0	1912602624	58	4175
2026-01-18 23:37:05.83	163.47	19.83	-43.8	-44.8	20.2	0.00e+00	0	36	0	1916796928	58	4206
2026-01-18 23:37:06.84	163.58	19.71	-43.8	-44.8	20.2	0.00e+00	0	36	0	1919942656	58	4194
2026-01-18 23:37:07.85	163.70	19.60	-43.6	-44.6	20.2	0.00e+00	0	36	0	1923088384	58	4121
2026-01-18 23:37:08.86	163.82	19.48	-43.5	-44.5	20.3	0.00e+00	0	36	0	1926234112	58	4079
2026-01-18 23:37:09.87	163.93	19.37	-43.3	-44.3	20.5	0.00e+00	0	36	0	1929379840	58	3979
2026-01-18 23:37:10.88	164.05	19.25	-43.4	-44.3	20.4	0.00e+00	0	36	0	1932525568	58	3994
2026-01-18 23:37:11.88	164.16	19.14	-43.4	-44.3	20.4	0.00e+00	0	36	0	1935671296	58	4002
2026-01-18 23:37:12.89	164.27	19.03	-43.4	-44.3	20.4	0.00e+00	0	36	0	1938817024	58	3983
2026-01-18 23:37:13.90	164.38	18.92	-43.4	-44.3	20.4	0.00e+00	0	36	0	1940914176	58	3984
2026-01-18 23:37:14.91	164.49	18.80	-43.3	-44.3	20.4	0.00e+00	0	36	0	1944059904	58	3966
2026-01-18 23:37:15.92	164.60	18.69	-43.3	-44.2	20.5	0.00e+00	0	36	0	1947205632	58	3939
2026-01-18 23:37:16.92	164.71	18.58	-43.3	-44.2	20.5	0.00e+00	0	36	0	1950351360	58	3958
2026-01-18 23:37:17.93	164.82	18.47	-43.3	-44.3	20.5	0.00e+00	0	36	0	1954545664	58	3967
2026-01-18 23:37:18.94	164.93	18.36	-43.2	-44.1	20.7	0.00e+00	0	36	0	1957691392	58	3894
2026-01-18 23:37:19.95	165.04	18.25	-43.2	-44.1	20.7	0.00e+00	0	36	0	1960837120	58	3879
2026-01-18 23:37:20.95	165.14	18.14	-43.1	-44.0	20.8	0.00e+00	0	36	0	1963982848	58	3855
2026-01-18 23:37:21.96	165.25	18.03	-43.1	-44.0	20.8	0.00e+00	0	36	0	1967128576	58	3859
2026-01-18 23:37:22.97	165.35	17.92	-43.1	-44.1	20.7	0.00e+00	0	36	0	1970274304	58	3869
2026-01-18 23:37:23.97	165.46	17.81	-43.3	-44.2	20.6	0.00e+00	0	36	0	1973420032	58	3929
2026-01-18 23:37:24.98	165.56	17.70	-43.4	-44.4	20.5	0.00e+00	0	36	0	1976565760	58	4006
2026-01-18 23:37:25.99	165.66	17.60	-43.5	-44.5	20.3	0.00e+00	0	36	0	1979711488	58	4077
2026-01-18 23:37:27.00	165.77	17.49	-43.7	-44.6	20.2	0.00e+00	0	36	0	1982857216	58	4139
2026-01-18 23:37:28.01	165.87	17.38	-43.8	-44.8	20.1	0.00e+00	0	36	0	1986002944	58	4224
2026-01-18 23:37:29.01	165.97	17.27	-43.9	-44.9	20.0	0.00e+00	0	36	0	1988100096	58	4279
2026-01-18 23:37:30.02	166.07	17.17	-43.9	-44.9	20.0	0.00e+00	0	36	0	1991245824	58	4268
2026-01-18 23:37:31.03	166.17	17.06	-43.9	-44.9	20.0	0.00e+00	0	36	0	1995440128	58	4287
2026-01-18 23:37:32.04	166.27	16.96	-44.0	-45.1	19.8	0.00e+00	0	36	0	1998585856	58	4343
2026-01-18 23:37:33.05	166.36	16.85	-44.2	-45.2	19.7	0.00e+00	0	36	0	2001731584	58	4423
2026-01-18 23:37:34.05	166.46	16.75	-44.3	-45.4	19.5	0.00e+00	0	36	0	2004877312	59	4280
2026-01-18 23:37:35.06	166.56	16.64	-44.4	-45.5	19.4	0.00e+00	0	36	0	2008023040	59	4306
2026-01-18 23:37:36.08	166.65	16.54	-44.5	-45.6	19.3	0.00e+00	0	36	0	2011168768	59	4385
2026-01-18 23:37:37.08	166.75	16.43	-44.4	-45.5	19.3	0.00e+00	0	36	0	2014314496	59	4334
2026-01-18 23:37:38.09	166.84	16.33	-44.4	-45.5	19.3	0.00e+00	0	36	0	2017460224	59	4334
2026-01-18 23:37:39.10	166.94	16.23	-44.4	-45.4	19.4	0.00e+00	0	36	0	2020605952	59	4291
2026-01-18 23:37:40.11	167.03	16.12	-44.3	-45.4	19.5	0.00e+00	0	36	0	2023751680	59	4271
2026-01-18 23:37:41.12	167.13	16.02	-44.3	-45.4	19.5	0.00e+00	0	36	0	2026897408	59	4258
2026-01-18 23:37:42.12	167.22	15.92	-44.4	-45.5	19.4	0.00e+00	0	36	0	2030043136	59	4293
2026-01-18 23:37:43.13	167.31	15.82	-44.2	-45.2	19.6	0.00e+00	0	36	0	2033188864	59	4176
2026-01-18 23:37:44.14	167.40	15.72	-44.1	-45.2	19.6	0.00e+00	0	36	0	2036334592	59	4165
2026-01-18 23:37:45.15	167.49	15.61	-44.3	-45.3	19.4	0.00e+00	0	36	0	2039480320	59	4225
2026-01-18 23:37:46.15	167.58	15.52	-44.2	-45.3	19.4	0.00e+00	0	36	0	2042626048	59	4215
2026-01-18 23:37:47.16	167.67	15.41	-44.1	-45.1	19.6	0.00e+00	0	36	0	2045771776	59	4134
2026-01-18 23:37:48.17	167.76	15.31	-44.0	-45.1	19.7	0.00e+00	0	36	0	2048917504	59	4119
2026-01-18 23:37:49.18	167.85	15.22	-44.1	-45.1	19.6	0.00e+00	0	36	0	2052063232	59	4139
2026-01-18 23:37:50.19	167.94	15.12	-44.1	-45.2	19.6	0.00e+00	0	36	0	2055208960	59	4156
2026-01-18 23:37:51.19	168.02	15.02	-44.1	-45.1	19.7	0.00e+00	0	36	0	2058354688	59	4121
2026-01-18 23:37:52.20	168.11	14.92	-44.1	-45.2	19.6	0.00e+00	0	36	0	2061500416	59	4164
2026-01-18 23:37:53.21	168.20	14.82	-44.1	-45.1	19.6	0.00e+00	0	36	0	2064646144	59	4142
2026-01-18 23:37:54.21	168.28	14.72	-44.1	-45.1	19.6	0.00e+00	0	36	0	2067791872	59	4131
2026-01-18 23:37:55.22	168.37	14.63	-44.1	-45.1	19.6	0.00e+00	0	36	0	2070937600	59	4135
2026-01-18 23:37:56.23	168.45	14.53	-43.9	-45.0	19.8	0.00e+00	0	36	0	2074083328	59	4055
2026-01-18 23:37:57.24	168.53	14.43	-44.0	-45.0	19.8	0.00e+00	0	36	0	2077229056	59	4081
2026-01-18 23:37:58.25	168.62	14.34	-44.1	-45.1	19.7	0.00e+00	0	36	0	2080374784	59	4121
2026-01-18 23:37:59.25	168.70	14.24	-44.1	-45.1	19.7	0.00e+00	0	36	0	2083520512	59	4130
2026-01-18 23:38:00.26	168.78	14.14	-44.0	-45.0	19.8	0.00e+00	0	36	0	2086666240	59	4065
2026-01-18 23:38:01.27	168.87	14.05	-44.1	-45.1	19.7	0.00e+00	0	36	0	2089811968	59	4122
2026-01-18 23:38:02.28	168.95	13.95	-44.2	-45.3	19.5	0.00e+00	0	36	0	2092957696	59	4215
2026-01-18 23:38:03.29	169.03	13.86	-44.2	-45.3	19.5	0.00e+00	0	36	0	2096103424	59	4222
