passes_logs/2026/01/18/R3.2S_Murmansk/R3.2S_Murmansk__20260118_083227_SUOMI_NPP_rec.log

#Pass ID: 20260118_083227_SUOMI NPP
#Satellite: SUOMI NPP
#Configuration: NPP
#almurnet v.1.7.20251203
#Start time: 2026-01-18 08:32:28

#Version: 2.2.20231116
#Station: R3.2S_Murmansk
#Location: 33.079688 lon 68.888172 lat
#TLE: 1 37849U 11061A   26017.57099531  .00000072  00000+0  54974-4 0  9996
#TLE: 2 37849  98.7814 319.5974 0002398  59.1749 300.9663 14.19525865737072

#Time	Az	El	Level	Level2	SNR	BER	BlckErr	Temp	State	Recorded	gain1	gain2
2026-01-18 08:32:28.32	126.84	2.07	-51.9	-66.9	3.8	1.49e+00	0	34	0	0	75	20233
2026-01-18 08:32:29.32	126.82	2.13	-51.9	-66.9	3.8	1.49e+00	0	34	104	0	74	21455
2026-01-18 08:32:30.33	126.80	2.20	-51.9	-66.9	3.8	1.49e+00	0	34	104	0	74	21450
2026-01-18 08:32:31.34	126.77	2.26	-51.9	-66.9	3.8	1.49e+00	0	34	104	0	74	21433
2026-01-18 08:32:32.35	126.75	2.32	-51.9	-66.9	3.8	1.49e+00	0	34	104	0	74	21370
2026-01-18 08:32:33.35	126.72	2.39	-51.9	-66.9	3.8	1.49e+00	0	34	104	0	74	21372
2026-01-18 08:32:34.36	126.70	2.45	-51.9	-66.9	3.8	1.49e+00	0	34	104	0	74	21375
2026-01-18 08:32:35.37	126.67	2.52	-51.9	-66.9	3.8	1.49e+00	0	34	104	0	74	21359
2026-01-18 08:32:36.38	126.65	2.58	-51.9	-66.9	3.8	1.49e+00	0	34	104	0	74	21362
2026-01-18 08:32:37.38	126.63	2.65	-51.9	-66.9	3.8	1.49e+00	0	34	104	0	74	21380
2026-01-18 08:32:38.39	126.60	2.71	-51.9	-66.9	3.8	1.49e+00	0	34	104	0	74	21345
2026-01-18 08:32:39.40	126.58	2.78	-51.9	-66.9	3.8	1.49e+00	0	34	104	0	74	21353
2026-01-18 08:32:40.41	126.55	2.84	-51.9	-66.9	3.8	1.49e+00	0	34	104	0	74	21305
2026-01-18 08:32:41.41	126.53	2.91	-51.9	-66.9	3.8	1.49e+00	0	34	104	0	74	21339
2026-01-18 08:32:42.42	126.50	2.98	-51.9	-66.9	3.8	1.49e+00	0	34	104	0	74	21290
2026-01-18 08:32:43.43	126.47	3.04	-51.9	-66.8	3.8	1.49e+00	0	34	104	0	74	21236
2026-01-18 08:32:44.44	126.45	3.11	-51.9	-66.8	3.8	1.49e+00	0	35	104	0	74	21176
2026-01-18 08:32:45.45	126.42	3.17	-51.9	-66.8	3.8	1.49e+00	0	34	104	0	74	21200
2026-01-18 08:32:46.46	126.40	3.24	-51.9	-66.8	3.8	1.49e+00	0	35	104	0	74	21099
2026-01-18 08:32:47.46	126.37	3.31	-51.9	-66.8	3.8	1.49e+00	0	34	104	0	74	21227
2026-01-18 08:32:48.47	126.34	3.37	-51.9	-66.8	3.8	1.49e+00	0	34	104	0	74	21089
2026-01-18 08:32:49.48	126.32	3.44	-51.9	-66.7	3.8	1.49e+00	0	34	104	0	74	20877
2026-01-18 08:32:50.49	126.29	3.51	-51.9	-66.6	3.8	1.49e+00	0	35	104	0	74	20646
2026-01-18 08:32:51.49	126.27	3.58	-51.9	-66.3	3.8	1.49e+00	0	35	104	0	74	19925
2026-01-18 08:32:52.50	126.24	3.64	-51.9	-66.0	3.8	1.49e+00	0	35	104	0	74	19284
2026-01-18 08:32:53.51	126.21	3.71	-51.9	-65.6	3.8	1.49e+00	0	35	104	0	74	18497
2026-01-18 08:32:54.52	126.19	3.78	-51.8	-64.9	3.8	1.49e+00	0	35	104	0	74	17013
2026-01-18 08:32:55.52	126.16	3.85	-51.8	-64.1	4.0	1.49e+00	0	35	104	0	74	15492
2026-01-18 08:32:56.53	126.13	3.91	-51.7	-63.6	4.1	1.43e+00	0	35	0	0	74	14591
2026-01-18 08:32:57.54	126.10	3.98	-51.7	-63.0	4.3	1.34e+00	36	35	0	0	74	13609
2026-01-18 08:32:58.55	126.08	4.05	-51.7	-63.0	4.3	1.34e+00	0	35	0	0	74	13714
2026-01-18 08:32:59.55	126.05	4.12	-51.7	-62.8	4.4	1.32e+00	183	35	0	1048576	74	13314
2026-01-18 08:33:00.57	126.02	4.19	-51.7	-62.9	4.3	1.28e+00	86	35	0	2097152	74	13466
2026-01-18 08:33:01.57	125.99	4.26	-51.7	-62.6	4.4	1.27e+00	108	35	0	4194304	74	12977
2026-01-18 08:33:02.58	125.96	4.33	-51.6	-61.9	4.7	1.06e+00	0	35	0	5242880	74	12093
2026-01-18 08:33:03.59	125.94	4.40	-51.5	-61.3	5.0	8.30e-01	0	35	0	7340032	74	11176
2026-01-18 08:33:04.59	125.91	4.46	-51.4	-60.2	5.7	5.67e-01	0	35	0	9437184	74	9906
2026-01-18 08:33:05.60	125.88	4.53	-51.2	-58.9	6.8	3.20e-01	0	35	0	11534336	74	8485
2026-01-18 08:33:06.61	125.85	4.60	-50.8	-57.2	8.4	5.78e-02	0	35	0	13631488	73	7388
2026-01-18 08:33:07.61	125.82	4.67	-50.3	-55.6	10.0	1.50e-02	0	35	0	14680064	72	6502
2026-01-18 08:33:08.62	125.79	4.74	-50.0	-54.5	11.2	3.52e-03	0	35	0	16777216	71	6107
2026-01-18 08:33:09.63	125.76	4.81	-49.4	-53.2	12.6	2.72e-04	0	35	0	18874368	70	5556
2026-01-18 08:33:10.63	125.73	4.88	-49.0	-52.4	13.4	2.44e-05	0	35	0	20971520	70	5089
2026-01-18 08:33:11.64	125.71	4.95	-48.5	-51.5	14.4	5.30e-06	0	35	0	23068672	69	4836
2026-01-18 08:33:12.64	125.68	5.02	-48.4	-51.3	14.5	0.00e+00	0	35	0	24117248	68	5033
2026-01-18 08:33:13.65	125.65	5.10	-49.6	-53.6	12.4	7.00e-07	0	35	0	26214400	69	6179
2026-01-18 08:33:14.66	125.62	5.17	-48.0	-50.6	15.4	9.10e-04	0	35	0	28311552	68	4607
2026-01-18 08:33:15.67	125.59	5.24	-49.4	-53.2	12.9	0.00e+00	0	35	0	30408704	69	5903
2026-01-18 08:33:16.67	125.56	5.31	-50.5	-55.6	10.5	9.48e-03	0	35	0	32505856	72	6507
2026-01-18 08:33:17.68	125.53	5.38	-46.9	-48.9	16.8	2.58e-02	0	35	0	33554432	65	4540
2026-01-18 08:33:18.68	125.50	5.45	-47.3	-49.6	16.2	0.00e+00	0	35	0	35651584	66	4602
2026-01-18 08:33:19.69	125.46	5.52	-47.0	-49.1	16.7	0.00e+00	0	35	0	37748736	66	4380
2026-01-18 08:33:20.69	125.43	5.60	-47.2	-49.4	16.4	0.00e+00	0	35	0	39845888	66	4533
2026-01-18 08:33:21.71	125.40	5.67	-47.1	-49.3	16.6	0.00e+00	0	35	0	41943040	66	4466
2026-01-18 08:33:22.71	125.37	5.74	-46.8	-48.8	17.1	0.00e+00	0	35	0	42991616	65	4470
2026-01-18 08:33:23.73	125.34	5.82	-46.8	-48.8	17.2	0.00e+00	0	35	0	45088768	65	4454
2026-01-18 08:33:24.73	125.31	5.89	-47.0	-49.0	16.9	0.00e+00	0	35	0	47185920	65	4594
2026-01-18 08:33:25.74	125.28	5.96	-46.9	-48.9	17.1	0.00e+00	0	35	0	49283072	65	4516
2026-01-18 08:33:26.75	125.24	6.04	-46.8	-48.7	17.2	0.00e+00	0	35	0	51380224	65	4436
2026-01-18 08:33:27.76	125.21	6.11	-46.9	-49.0	17.0	0.00e+00	0	35	0	52428800	65	4559
2026-01-18 08:33:28.77	125.18	6.18	-46.8	-48.7	17.3	0.00e+00	0	35	0	54525952	65	4430
2026-01-18 08:33:29.77	125.15	6.26	-47.1	-49.1	16.9	0.00e+00	0	35	0	56623104	65	4638
2026-01-18 08:33:30.78	125.11	6.33	-47.0	-49.0	17.0	0.00e+00	0	35	0	58720256	65	4598
2026-01-18 08:33:31.79	125.08	6.41	-47.0	-49.1	17.0	0.00e+00	0	35	0	60817408	65	4603
2026-01-18 08:33:32.79	125.05	6.48	-47.0	-49.1	17.0	0.00e+00	0	35	0	61865984	65	4604
2026-01-18 08:33:33.80	125.02	6.55	-47.6	-49.9	16.3	0.00e+00	0	35	0	63963136	65	5047
2026-01-18 08:33:34.81	124.98	6.63	-47.2	-49.3	16.8	0.00e+00	0	35	0	66060288	66	4450
2026-01-18 08:33:35.82	124.95	6.71	-47.1	-49.2	16.9	0.00e+00	0	36	0	68157440	66	4396
2026-01-18 08:33:36.82	124.91	6.78	-47.0	-49.0	17.1	0.00e+00	0	35	0	70254592	66	4331
2026-01-18 08:33:37.83	124.88	6.86	-47.0	-49.0	17.1	0.00e+00	0	35	0	71303168	65	4598
2026-01-18 08:33:38.83	124.85	6.93	-46.9	-48.9	17.3	0.00e+00	0	35	0	73400320	65	4502
2026-01-18 08:33:39.84	124.81	7.01	-47.0	-49.0	17.1	0.00e+00	0	35	0	75497472	65	4565
2026-01-18 08:33:40.85	124.78	7.08	-47.1	-49.2	17.0	0.00e+00	0	35	0	77594624	65	4652
2026-01-18 08:33:41.86	124.74	7.16	-47.0	-49.0	17.1	0.00e+00	0	36	0	79691776	65	4578
2026-01-18 08:33:42.87	124.71	7.24	-46.9	-48.9	17.2	0.00e+00	0	35	0	80740352	65	4531
2026-01-18 08:33:43.87	124.67	7.31	-47.0	-49.0	17.2	0.00e+00	0	36	0	82837504	65	4557
2026-01-18 08:33:44.88	124.64	7.39	-46.8	-48.7	17.5	0.00e+00	0	35	0	84934656	65	4402
2026-01-18 08:33:45.89	124.60	7.47	-46.9	-48.9	17.3	0.00e+00	0	35	0	87031808	65	4497
2026-01-18 08:33:46.90	124.57	7.55	-46.9	-48.8	17.4	0.00e+00	0	35	0	89128960	65	4447
2026-01-18 08:33:47.90	124.53	7.62	-47.0	-49.0	17.2	0.00e+00	0	36	0	90177536	65	4572
2026-01-18 08:33:48.91	124.49	7.70	-46.7	-48.6	17.6	0.00e+00	0	35	0	92274688	65	4353
2026-01-18 08:33:49.92	124.46	7.78	-47.3	-49.3	16.9	0.00e+00	0	35	0	94371840	65	4753
2026-01-18 08:33:50.93	124.42	7.86	-47.0	-49.0	17.2	0.00e+00	0	35	0	96468992	65	4596
2026-01-18 08:33:51.94	124.38	7.94	-47.0	-49.0	17.3	0.00e+00	0	35	0	98566144	65	4565
2026-01-18 08:33:52.95	124.35	8.02	-47.1	-49.0	17.2	0.00e+00	0	35	0	99614720	65	4598
2026-01-18 08:33:53.95	124.31	8.10	-47.1	-49.0	17.3	0.00e+00	0	36	0	101711872	65	4586
2026-01-18 08:33:54.96	124.27	8.18	-46.9	-48.8	17.5	0.00e+00	0	36	0	103809024	65	4467
2026-01-18 08:33:55.97	124.23	8.26	-46.9	-48.8	17.6	0.00e+00	0	35	0	105906176	65	4449
2026-01-18 08:33:56.98	124.20	8.34	-46.9	-48.8	17.5	0.00e+00	0	36	0	108003328	65	4470
2026-01-18 08:33:57.99	124.16	8.42	-46.9	-48.8	17.6	0.00e+00	0	36	0	109051904	65	4471
2026-01-18 08:33:59.00	124.12	8.50	-46.8	-48.7	17.7	0.00e+00	0	35	0	111149056	65	4413
2026-01-18 08:34:00.01	124.08	8.58	-46.7	-48.5	17.9	0.00e+00	0	35	0	113246208	65	4299
2026-01-18 08:34:01.01	124.04	8.66	-46.9	-48.7	17.7	0.00e+00	0	36	0	115343360	65	4436
2026-01-18 08:34:02.02	124.00	8.74	-46.8	-48.6	17.7	0.00e+00	0	36	0	117440512	65	4380
2026-01-18 08:34:03.03	123.96	8.82	-46.6	-48.3	18.0	0.00e+00	0	36	0	119537664	65	4230
2026-01-18 08:34:04.04	123.92	8.90	-46.7	-48.6	17.8	0.00e+00	0	36	0	120586240	65	4344
2026-01-18 08:34:05.05	123.88	8.99	-46.6	-48.4	18.0	0.00e+00	0	36	0	122683392	65	4251
2026-01-18 08:34:06.06	123.84	9.07	-46.6	-48.3	18.0	0.00e+00	0	35	0	124780544	65	4241
2026-01-18 08:34:07.06	123.80	9.15	-46.6	-48.4	18.0	0.00e+00	0	36	0	126877696	64	4515
2026-01-18 08:34:08.07	123.76	9.23	-46.5	-48.2	18.2	0.00e+00	0	35	0	127926272	64	4414
2026-01-18 08:34:09.08	123.72	9.32	-46.5	-48.2	18.2	0.00e+00	0	35	0	130023424	64	4416
2026-01-18 08:34:10.08	123.68	9.40	-46.4	-48.1	18.3	0.00e+00	0	36	0	132120576	64	4360
2026-01-18 08:34:11.09	123.64	9.48	-46.5	-48.3	18.1	0.00e+00	0	35	0	134217728	64	4446
2026-01-18 08:34:12.10	123.60	9.57	-46.5	-48.2	18.2	0.00e+00	0	36	0	136314880	64	4440
2026-01-18 08:34:13.11	123.56	9.65	-46.3	-47.9	18.5	0.00e+00	0	35	0	137363456	64	4278
2026-01-18 08:34:14.12	123.51	9.73	-46.5	-48.2	18.2	0.00e+00	0	36	0	139460608	64	4403
2026-01-18 08:34:15.13	123.47	9.82	-46.4	-48.0	18.4	0.00e+00	0	36	0	141557760	64	4331
2026-01-18 08:34:16.13	123.43	9.90	-46.3	-48.0	18.5	0.00e+00	0	36	0	143654912	64	4322
2026-01-18 08:34:17.14	123.39	9.99	-46.3	-48.0	18.4	0.00e+00	0	36	0	145752064	64	4312
2026-01-18 08:34:18.15	123.34	10.07	-46.4	-48.0	18.5	0.00e+00	0	35	0	147849216	64	4325
2026-01-18 08:34:19.16	123.30	10.16	-46.2	-47.8	18.6	0.00e+00	0	36	0	148897792	64	4232
2026-01-18 08:34:20.17	123.25	10.25	-46.1	-47.7	18.7	0.00e+00	0	36	0	150994944	64	4177
2026-01-18 08:34:21.17	123.21	10.33	-46.1	-47.6	18.8	0.00e+00	0	36	0	153092096	64	4128
2026-01-18 08:34:22.18	123.17	10.42	-46.1	-47.7	18.8	0.00e+00	0	36	0	155189248	64	4150
2026-01-18 08:34:23.19	123.12	10.51	-46.0	-47.6	19.0	0.00e+00	0	36	0	156237824	63	4349
2026-01-18 08:34:24.20	123.08	10.59	-46.2	-47.8	18.8	0.00e+00	0	36	0	158334976	63	4445
2026-01-18 08:34:25.21	123.03	10.68	-46.0	-47.5	19.1	0.00e+00	0	36	0	160432128	63	4305
2026-01-18 08:34:26.22	122.99	10.77	-46.1	-47.6	19.0	0.00e+00	0	36	0	162529280	63	4389
2026-01-18 08:34:27.23	122.94	10.86	-46.1	-47.6	19.0	0.00e+00	0	36	0	164626432	63	4367
2026-01-18 08:34:28.24	122.89	10.95	-46.1	-47.7	18.9	0.00e+00	0	35	0	166723584	63	4402
2026-01-18 08:34:29.24	122.85	11.03	-46.1	-47.6	19.0	0.00e+00	0	36	0	167772160	63	4381
2026-01-18 08:34:30.25	122.80	11.12	-46.1	-47.6	19.0	0.00e+00	0	36	0	169869312	63	4378
2026-01-18 08:34:31.26	122.75	11.21	-46.3	-47.8	18.8	0.00e+00	0	36	0	171966464	63	4488
2026-01-18 08:34:32.27	122.71	11.30	-46.1	-47.7	19.0	0.00e+00	0	36	0	174063616	63	4399
2026-01-18 08:34:33.27	122.66	11.39	-46.1	-47.7	19.0	0.00e+00	0	36	0	176160768	63	4400
2026-01-18 08:34:34.28	122.61	11.48	-46.2	-47.8	18.9	0.00e+00	0	36	0	177209344	63	4461
2026-01-18 08:34:35.29	122.56	11.57	-46.2	-47.7	18.9	0.00e+00	0	36	0	179306496	63	4440
2026-01-18 08:34:36.30	122.52	11.66	-46.1	-47.6	19.1	0.00e+00	0	36	0	181403648	63	4360
2026-01-18 08:34:37.31	122.47	11.75	-46.1	-47.6	19.0	0.00e+00	0	36	0	183500800	63	4358
2026-01-18 08:34:38.32	122.42	11.85	-46.0	-47.6	19.1	0.00e+00	0	36	0	184549376	63	4342
2026-01-18 08:34:39.33	122.37	11.94	-45.9	-47.4	19.2	0.00e+00	0	36	0	186646528	63	4280
2026-01-18 08:34:40.33	122.32	12.03	-45.9	-47.5	19.1	0.00e+00	0	36	0	188743680	63	4327
2026-01-18 08:34:41.34	122.27	12.12	-46.1	-47.7	18.9	0.00e+00	0	36	0	190840832	63	4428
2026-01-18 08:34:42.35	122.22	12.21	-46.0	-47.5	19.0	0.00e+00	0	35	0	192937984	63	4337
2026-01-18 08:34:43.36	122.17	12.31	-46.2	-47.8	18.8	0.00e+00	0	36	0	195035136	63	4474
2026-01-18 08:34:44.36	122.12	12.40	-46.0	-47.6	19.0	0.00e+00	0	36	0	196083712	63	4342
2026-01-18 08:34:45.37	122.06	12.49	-46.1	-47.8	18.8	0.00e+00	0	36	0	198180864	63	4463
2026-01-18 08:34:46.38	122.01	12.59	-46.0	-47.6	19.0	0.00e+00	0	36	0	200278016	63	4377
2026-01-18 08:34:47.39	121.96	12.68	-46.1	-47.7	18.9	0.00e+00	0	36	0	202375168	63	4431
2026-01-18 08:34:48.40	121.91	12.78	-45.9	-47.4	19.2	0.00e+00	0	36	0	204472320	63	4271
2026-01-18 08:34:49.40	121.86	12.87	-45.9	-47.4	19.2	0.00e+00	0	36	0	205520896	63	4290
2026-01-18 08:34:50.41	121.80	12.97	-46.0	-47.5	19.1	0.00e+00	0	36	0	207618048	63	4339
2026-01-18 08:34:51.41	121.75	13.06	-45.8	-47.4	19.3	0.00e+00	0	36	0	209715200	63	4243
2026-01-18 08:34:52.42	121.69	13.16	-45.9	-47.4	19.3	0.00e+00	0	36	0	211812352	63	4267
2026-01-18 08:34:53.43	121.64	13.26	-46.0	-47.5	19.1	0.00e+00	0	36	0	213909504	63	4329
2026-01-18 08:34:54.44	121.58	13.35	-45.9	-47.5	19.2	0.00e+00	0	36	0	214958080	63	4319
2026-01-18 08:34:55.45	121.53	13.45	-45.8	-47.4	19.3	0.00e+00	0	36	0	217055232	63	4243
2026-01-18 08:34:56.45	121.47	13.55	-45.8	-47.3	19.3	0.00e+00	0	36	0	219152384	63	4234
2026-01-18 08:34:57.46	121.42	13.64	-45.8	-47.4	19.3	0.00e+00	0	36	0	221249536	63	4265
2026-01-18 08:34:58.47	121.36	13.74	-46.0	-47.6	19.1	0.00e+00	0	36	0	223346688	63	4391
2026-01-18 08:34:59.48	121.31	13.84	-45.8	-47.4	19.3	0.00e+00	0	36	0	224395264	63	4247
2026-01-18 08:35:00.49	121.25	13.94	-45.7	-47.2	19.4	0.00e+00	0	36	0	226492416	63	4172
2026-01-18 08:35:01.49	121.19	14.04	-45.9	-47.4	19.2	0.00e+00	0	36	0	228589568	63	4287
2026-01-18 08:35:02.50	121.13	14.14	-45.6	-47.1	19.6	0.00e+00	0	36	0	230686720	63	4121
2026-01-18 08:35:03.51	121.07	14.24	-45.8	-47.2	19.4	0.00e+00	0	36	0	232783872	63	4193
2026-01-18 08:35:04.51	121.02	14.34	-45.8	-47.3	19.4	0.00e+00	0	36	0	233832448	63	4210
2026-01-18 08:35:05.52	120.96	14.44	-45.7	-47.2	19.5	0.00e+00	0	36	0	235929600	63	4173
2026-01-18 08:35:06.53	120.90	14.54	-45.7	-47.2	19.5	0.00e+00	0	36	0	238026752	63	4169
2026-01-18 08:35:07.54	120.84	14.64	-45.5	-47.0	19.7	0.00e+00	0	36	0	240123904	62	4297
2026-01-18 08:35:08.55	120.78	14.75	-45.6	-47.1	19.5	0.00e+00	0	36	0	242221056	62	4366
2026-01-18 08:35:09.55	120.72	14.85	-45.7	-47.2	19.5	0.00e+00	0	36	0	243269632	62	4409
2026-01-18 08:35:10.56	120.65	14.95	-45.6	-47.1	19.6	0.00e+00	0	36	0	245366784	62	4372
2026-01-18 08:35:11.57	120.59	15.05	-45.8	-47.3	19.5	0.00e+00	0	36	0	247463936	62	4442
2026-01-18 08:35:12.58	120.53	15.16	-45.8	-47.3	19.4	0.00e+00	0	36	0	249561088	62	4463
2026-01-18 08:35:13.59	120.47	15.26	-45.8	-47.3	19.4	0.00e+00	0	36	0	251658240	62	4481
2026-01-18 08:35:14.59	120.41	15.37	-46.2	-47.8	19.0	0.00e+00	0	36	0	252706816	62	4719
2026-01-18 08:35:15.60	120.34	15.47	-46.0	-47.6	19.2	0.00e+00	0	36	0	254803968	62	4628
2026-01-18 08:35:16.61	120.28	15.58	-45.7	-47.2	19.5	0.00e+00	0	36	0	256901120	62	4422
2026-01-18 08:35:17.62	120.21	15.68	-45.6	-47.1	19.6	0.00e+00	0	36	0	258998272	62	4343
2026-01-18 08:35:18.63	120.15	15.79	-45.7	-47.2	19.5	0.00e+00	0	36	0	261095424	62	4403
2026-01-18 08:35:19.63	120.08	15.89	-45.7	-47.2	19.6	0.00e+00	0	36	0	263192576	62	4393
2026-01-18 08:35:20.64	120.02	16.00	-45.7	-47.2	19.5	0.00e+00	0	36	0	264241152	62	4431
2026-01-18 08:35:21.65	119.95	16.11	-45.7	-47.2	19.5	0.00e+00	0	36	0	266338304	62	4440
2026-01-18 08:35:22.66	119.88	16.22	-45.9	-47.5	19.3	0.00e+00	0	36	0	268435456	62	4570
2026-01-18 08:35:23.67	119.81	16.33	-45.6	-47.1	19.6	0.00e+00	0	36	0	270532608	62	4365
2026-01-18 08:35:24.67	119.75	16.43	-45.8	-47.3	19.4	0.00e+00	0	36	0	271581184	62	4492
2026-01-18 08:35:25.68	119.68	16.54	-45.9	-47.4	19.4	0.00e+00	0	36	0	273678336	62	4528
2026-01-18 08:35:26.69	119.61	16.65	-45.8	-47.4	19.3	0.00e+00	0	36	0	275775488	62	4517
2026-01-18 08:35:27.70	119.54	16.76	-45.9	-47.4	19.4	0.00e+00	0	36	0	277872640	62	4541
2026-01-18 08:35:28.70	119.47	16.87	-45.9	-47.4	19.3	0.00e+00	0	36	0	279969792	62	4539
2026-01-18 08:35:29.71	119.40	16.98	-45.7	-47.3	19.5	0.00e+00	0	36	0	281018368	62	4446
2026-01-18 08:35:30.71	119.33	17.09	-45.9	-47.5	19.3	0.00e+00	0	36	0	283115520	62	4577
2026-01-18 08:35:31.72	119.26	17.21	-46.0	-47.5	19.3	0.00e+00	0	36	0	285212672	62	4583
2026-01-18 08:35:32.73	119.18	17.32	-45.9	-47.5	19.3	0.00e+00	0	36	0	287309824	62	4569
2026-01-18 08:35:33.74	119.11	17.43	-46.1	-47.7	19.1	0.00e+00	0	36	0	289406976	62	4699
2026-01-18 08:35:34.75	119.04	17.55	-46.2	-47.8	19.0	0.00e+00	0	36	0	291504128	63	4464
2026-01-18 08:35:35.75	118.96	17.66	-46.4	-48.0	18.8	0.00e+00	0	36	0	292552704	63	4589
2026-01-18 08:35:36.76	118.89	17.77	-46.4	-48.0	18.9	0.00e+00	0	36	0	294649856	63	4580
2026-01-18 08:35:37.77	118.81	17.89	-46.3	-47.9	19.0	0.00e+00	0	36	0	296747008	63	4532
2026-01-18 08:35:38.78	118.74	18.00	-46.2	-47.8	19.1	0.00e+00	0	36	0	298844160	63	4450
2026-01-18 08:35:39.78	118.66	18.12	-46.0	-47.5	19.4	0.00e+00	0	36	0	299892736	63	4321
2026-01-18 08:35:40.79	118.58	18.23	-45.8	-47.2	19.6	0.00e+00	0	36	0	301989888	63	4190
2026-01-18 08:35:41.80	118.51	18.35	-45.7	-47.2	19.7	0.00e+00	0	36	0	304087040	63	4150
2026-01-18 08:35:42.81	118.43	18.47	-45.8	-47.3	19.6	0.00e+00	0	36	0	306184192	63	4197
2026-01-18 08:35:43.81	118.35	18.59	-45.8	-47.3	19.6	0.00e+00	0	36	0	308281344	63	4217
2026-01-18 08:35:44.82	118.27	18.70	-45.9	-47.4	19.5	0.00e+00	0	36	0	309329920	63	4243
2026-01-18 08:35:45.83	118.19	18.82	-45.9	-47.4	19.5	0.00e+00	0	36	0	311427072	63	4254
2026-01-18 08:35:46.84	118.11	18.94	-46.1	-47.7	19.2	0.00e+00	0	36	0	313524224	63	4417
2026-01-18 08:35:47.85	118.03	19.06	-46.2	-47.7	19.2	0.00e+00	0	36	0	315621376	63	4437
2026-01-18 08:35:48.85	117.95	19.18	-46.1	-47.7	19.3	0.00e+00	0	36	0	317718528	63	4404
2026-01-18 08:35:49.86	117.86	19.30	-46.2	-47.8	19.1	0.00e+00	0	36	0	319815680	63	4460
2026-01-18 08:35:50.87	117.78	19.42	-46.1	-47.7	19.2	0.00e+00	0	36	0	320864256	63	4405
2026-01-18 08:35:51.88	117.70	19.55	-46.2	-47.7	19.2	0.00e+00	0	36	0	322961408	63	4441
2026-01-18 08:35:52.88	117.61	19.67	-46.3	-47.9	19.1	0.00e+00	0	36	0	325058560	63	4512
2026-01-18 08:35:53.89	117.53	19.79	-46.4	-48.0	18.9	0.00e+00	0	36	0	327155712	63	4571
2026-01-18 08:35:54.90	117.44	19.91	-46.4	-48.0	19.0	0.00e+00	0	36	0	328204288	63	4564
2026-01-18 08:35:55.91	117.35	20.04	-46.7	-48.4	18.6	0.00e+00	0	36	0	330301440	63	4806
2026-01-18 08:35:56.92	117.26	20.16	-46.7	-48.4	18.5	0.00e+00	0	36	0	332398592	64	4526
2026-01-18 08:35:57.93	117.17	20.29	-46.6	-48.3	18.6	0.00e+00	0	36	0	334495744	64	4469
2026-01-18 08:35:58.93	117.09	20.41	-46.5	-48.2	18.7	0.00e+00	0	36	0	336592896	64	4418
2026-01-18 08:35:59.94	117.00	20.54	-46.7	-48.4	18.5	0.00e+00	0	36	0	338690048	64	4535
2026-01-18 08:36:00.95	116.91	20.67	-46.3	-48.0	18.9	0.00e+00	0	36	0	339738624	64	4294
2026-01-18 08:36:01.96	116.81	20.79	-46.4	-48.0	18.8	0.00e+00	0	36	0	341835776	64	4328
2026-01-18 08:36:02.97	116.72	20.92	-46.4	-48.1	18.8	0.00e+00	0	36	0	343932928	64	4366
2026-01-18 08:36:03.97	116.63	21.05	-46.4	-48.1	18.8	0.00e+00	0	36	0	346030080	64	4344
2026-01-18 08:36:04.98	116.53	21.18	-46.2	-47.8	18.9	0.00e+00	0	36	0	348127232	64	4234
2026-01-18 08:36:05.99	116.44	21.31	-46.4	-48.0	18.8	0.00e+00	0	36	0	349175808	64	4321
2026-01-18 08:36:06.99	116.34	21.44	-46.6	-48.3	18.7	0.00e+00	0	36	0	351272960	64	4448
2026-01-18 08:36:08.00	116.25	21.57	-46.6	-48.3	18.6	0.00e+00	0	36	0	353370112	64	4484
2026-01-18 08:36:09.01	116.15	21.70	-46.6	-48.4	18.6	0.00e+00	0	36	0	355467264	64	4500
2026-01-18 08:36:10.02	116.05	21.83	-46.8	-48.6	18.4	0.00e+00	0	36	0	356515840	64	4608
2026-01-18 08:36:11.02	115.95	21.96	-46.8	-48.5	18.4	0.00e+00	0	36	0	358612992	64	4573
2026-01-18 08:36:12.03	115.85	22.10	-46.6	-48.3	18.6	0.00e+00	0	36	0	360710144	64	4470
2026-01-18 08:36:13.04	115.75	22.23	-46.3	-47.9	19.0	0.00e+00	0	36	0	362807296	64	4272
2026-01-18 08:36:14.05	115.65	22.37	-46.4	-48.0	18.9	0.00e+00	0	36	0	364904448	64	4310
2026-01-18 08:36:15.06	115.55	22.50	-46.4	-48.0	18.9	0.00e+00	0	36	0	367001600	64	4313
2026-01-18 08:36:16.07	115.44	22.64	-46.4	-48.0	18.9	0.00e+00	0	36	0	368050176	64	4309
2026-01-18 08:36:17.07	115.34	22.77	-46.4	-48.0	19.0	0.00e+00	0	36	0	370147328	64	4317
2026-01-18 08:36:18.08	115.24	22.91	-46.7	-48.4	18.6	0.00e+00	0	36	0	372244480	64	4530
2026-01-18 08:36:19.09	115.13	23.05	-46.7	-48.4	18.6	0.00e+00	0	36	0	374341632	64	4520
2026-01-18 08:36:20.10	115.02	23.18	-46.6	-48.3	18.7	0.00e+00	0	36	0	376438784	64	4475
2026-01-18 08:36:21.11	114.91	23.32	-46.8	-48.5	18.5	0.00e+00	0	36	0	377487360	64	4559
2026-01-18 08:36:22.11	114.80	23.46	-46.8	-48.5	18.5	0.00e+00	0	36	0	379584512	64	4562
2026-01-18 08:36:23.12	114.69	23.60	-46.8	-48.4	18.6	0.00e+00	0	36	0	381681664	64	4542
2026-01-18 08:36:24.13	114.58	23.74	-46.9	-48.7	18.4	0.00e+00	0	36	0	383778816	64	4654
2026-01-18 08:36:25.14	114.47	23.88	-47.1	-48.9	18.2	0.00e+00	0	36	0	385875968	64	4782
2026-01-18 08:36:26.14	114.36	24.02	-47.1	-48.8	18.2	0.00e+00	0	36	0	386924544	64	4740
2026-01-18 08:36:27.15	114.24	24.17	-47.2	-49.0	18.0	0.00e+00	0	36	0	389021696	65	4568
2026-01-18 08:36:28.16	114.13	24.31	-47.2	-49.1	18.0	0.00e+00	0	36	0	391118848	65	4618
2026-01-18 08:36:29.17	114.01	24.46	-47.0	-48.8	18.2	0.00e+00	0	36	0	393216000	65	4458
2026-01-18 08:36:30.18	113.89	24.60	-47.0	-48.8	18.2	0.00e+00	0	36	0	395313152	65	4465
2026-01-18 08:36:31.18	113.77	24.74	-47.0	-48.7	18.3	0.00e+00	0	36	0	396361728	65	4436
2026-01-18 08:36:32.19	113.65	24.89	-46.8	-48.5	18.2	0.00e+00	0	36	0	398458880	65	4310
2026-01-18 08:36:33.20	113.53	25.04	-46.9	-48.7	18.4	0.00e+00	0	36	0	400556032	65	4405
2026-01-18 08:36:34.21	113.41	25.18	-46.9	-48.7	18.3	0.00e+00	0	36	0	402653184	65	4402
2026-01-18 08:36:35.22	113.29	25.33	-46.9	-48.7	18.3	0.00e+00	0	36	0	404750336	65	4408
2026-01-18 08:36:36.23	113.16	25.48	-47.1	-48.9	18.1	0.00e+00	0	36	0	405798912	65	4531
2026-01-18 08:36:37.23	113.04	25.63	-47.2	-49.1	17.9	0.00e+00	0	36	0	407896064	65	4619
2026-01-18 08:36:38.24	112.91	25.78	-47.4	-49.4	17.7	0.00e+00	0	36	0	409993216	65	4774
2026-01-18 08:36:39.25	112.78	25.93	-47.5	-49.6	17.4	0.00e+00	0	36	0	412090368	65	4873
2026-01-18 08:36:40.26	112.65	26.08	-47.5	-49.5	17.5	0.00e+00	0	36	0	414187520	66	4589
2026-01-18 08:36:41.26	112.52	26.23	-47.4	-49.4	17.6	0.00e+00	0	36	0	415236096	66	4528
2026-01-18 08:36:42.27	112.39	26.38	-47.8	-49.9	17.1	0.00e+00	0	36	0	417333248	66	4770
2026-01-18 08:36:43.28	112.26	26.54	-47.5	-49.6	17.5	0.00e+00	0	36	0	419430400	66	4605
2026-01-18 08:36:44.29	112.12	26.69	-47.3	-49.2	17.8	0.00e+00	0	36	0	421527552	66	4408
2026-01-18 08:36:45.29	111.99	26.85	-47.2	-49.1	17.9	0.00e+00	0	36	0	423624704	66	4390
2026-01-18 08:36:46.30	111.85	27.00	-47.1	-49.0	18.0	0.00e+00	0	36	0	424673280	66	4301
2026-01-18 08:36:47.31	111.71	27.16	-47.0	-48.7	18.3	0.00e+00	0	36	0	426770432	65	4440
2026-01-18 08:36:48.32	111.57	27.31	-46.6	-48.3	18.7	0.00e+00	0	36	0	428867584	65	4208
2026-01-18 08:36:49.33	111.43	27.47	-46.5	-48.1	18.9	0.00e+00	0	36	0	430964736	64	4350
2026-01-18 08:36:50.33	111.29	27.63	-46.3	-47.9	19.1	0.00e+00	0	36	0	433061888	64	4261
2026-01-18 08:36:51.34	111.14	27.79	-46.6	-48.2	18.8	0.00e+00	0	36	0	434110464	64	4436
2026-01-18 08:36:52.35	111.00	27.95	-46.8	-48.4	18.6	0.00e+00	0	36	0	436207616	64	4537
2026-01-18 08:36:53.36	110.85	28.11	-46.9	-48.7	18.4	0.00e+00	0	36	0	438304768	64	4669
2026-01-18 08:36:54.37	110.70	28.27	-47.2	-49.0	18.0	0.00e+00	0	36	0	440401920	65	4582
2026-01-18 08:36:55.37	110.55	28.43	-47.1	-48.9	18.2	0.00e+00	0	36	0	442499072	65	4532
2026-01-18 08:36:56.38	110.40	28.59	-47.1	-48.8	18.2	0.00e+00	0	36	0	443547648	65	4487
2026-01-18 08:36:57.39	110.24	28.76	-46.8	-48.5	18.6	0.00e+00	0	36	0	445644800	65	4303
2026-01-18 08:36:58.40	110.09	28.92	-46.6	-48.3	18.7	0.00e+00	0	36	0	447741952	65	4204
2026-01-18 08:36:59.41	109.93	29.09	-46.6	-48.2	18.8	0.00e+00	0	36	0	449839104	65	4193
2026-01-18 08:37:00.41	109.77	29.25	-46.8	-48.5	18.5	0.00e+00	0	36	0	451936256	65	4326
2026-01-18 08:37:01.42	109.61	29.42	-46.8	-48.5	18.6	0.00e+00	0	36	0	452984832	65	4311
2026-01-18 08:37:02.43	109.45	29.58	-47.0	-48.8	18.2	0.00e+00	0	36	0	455081984	65	4470
2026-01-18 08:37:03.44	109.29	29.75	-47.2	-49.1	18.0	0.00e+00	0	36	0	457179136	65	4612
2026-01-18 08:37:04.45	109.12	29.92	-47.3	-49.2	17.8	0.00e+00	0	36	0	459276288	65	4677
2026-01-18 08:37:05.45	108.96	30.09	-47.3	-49.2	17.9	0.00e+00	0	36	0	461373440	65	4671
2026-01-18 08:37:06.46	108.79	30.26	-47.4	-49.3	17.8	0.00e+00	0	36	0	462422016	65	4724
2026-01-18 08:37:07.46	108.62	30.43	-47.8	-49.8	17.2	0.00e+00	0	36	0	464519168	66	4753
2026-01-18 08:37:08.47	108.44	30.60	-47.6	-49.6	17.4	0.00e+00	0	36	0	466616320	66	4646
2026-01-18 08:37:09.48	108.27	30.77	-47.8	-49.9	17.3	0.00e+00	0	36	0	468713472	66	4769
2026-01-18 08:37:10.49	108.09	30.94	-47.8	-49.9	17.2	0.00e+00	0	36	0	470810624	66	4790
2026-01-18 08:37:11.50	107.91	31.11	-47.6	-49.6	17.6	0.00e+00	0	36	0	471859200	66	4600
2026-01-18 08:37:12.51	107.73	31.29	-47.9	-49.9	17.3	0.00e+00	0	36	0	473956352	66	4783
2026-01-18 08:37:13.51	107.55	31.46	-47.9	-49.9	17.3	0.00e+00	0	36	0	476053504	66	4785
2026-01-18 08:37:14.52	107.37	31.64	-48.4	-50.7	16.5	0.00e+00	0	36	0	478150656	67	4942
2026-01-18 08:37:15.53	107.18	31.81	-48.8	-51.2	16.1	0.00e+00	0	36	0	480247808	68	4963
2026-01-18 08:37:16.54	106.99	31.99	-49.0	-51.5	15.8	0.00e+00	0	36	0	482344960	68	5142
2026-01-18 08:37:17.55	106.80	32.17	-48.7	-51.1	16.2	0.00e+00	0	36	0	483393536	68	4906
2026-01-18 08:37:18.55	106.61	32.35	-48.6	-50.9	16.4	0.00e+00	0	36	0	485490688	68	4798
2026-01-18 08:37:19.56	106.42	32.52	-48.4	-50.6	16.7	0.00e+00	0	36	0	487587840	68	4599
2026-01-18 08:37:20.57	106.22	32.70	-48.2	-50.3	17.0	0.00e+00	0	36	0	489684992	68	4455
2026-01-18 08:37:21.57	106.02	32.88	-48.5	-50.8	16.5	0.00e+00	0	36	0	490733568	68	4721
2026-01-18 08:37:22.58	105.82	33.06	-48.9	-51.4	15.8	0.00e+00	0	36	0	492830720	68	5090
2026-01-18 08:37:23.59	105.62	33.25	-48.7	-51.1	16.1	0.00e+00	0	36	0	494927872	68	4918
2026-01-18 08:37:24.60	105.41	33.43	-48.9	-51.3	16.1	0.00e+00	0	36	0	497025024	68	5034
2026-01-18 08:37:25.61	105.20	33.61	-48.8	-51.2	16.0	0.00e+00	0	36	0	499122176	68	4964
2026-01-18 08:37:26.61	104.99	33.79	-48.8	-51.2	16.0	0.00e+00	0	36	0	500170752	68	4974
2026-01-18 08:37:27.62	104.78	33.98	-48.4	-50.7	16.6	0.00e+00	0	36	0	502267904	68	4669
2026-01-18 08:37:28.63	104.57	34.16	-48.2	-50.3	17.0	0.00e+00	0	36	0	504365056	68	4464
2026-01-18 08:37:29.64	104.35	34.35	-48.2	-50.4	16.9	0.00e+00	0	36	0	506462208	68	4522
2026-01-18 08:37:30.64	104.13	34.53	-48.5	-51.0	16.2	0.00e+00	0	36	0	508559360	68	4823
2026-01-18 08:37:31.65	103.91	34.72	-48.2	-50.4	16.8	0.00e+00	0	36	0	510656512	68	4524
2026-01-18 08:37:32.66	103.68	34.91	-47.9	-50.1	17.0	0.00e+00	0	36	0	511705088	67	4614
2026-01-18 08:37:33.67	103.45	35.10	-47.9	-50.0	17.1	0.00e+00	0	36	0	513802240	67	4572
2026-01-18 08:37:34.68	103.22	35.28	-47.8	-49.9	17.2	0.00e+00	0	36	0	515899392	67	4538
2026-01-18 08:37:35.69	102.99	35.47	-47.9	-50.0	17.2	0.00e+00	0	36	0	517996544	67	4595
2026-01-18 08:37:36.69	102.75	35.66	-48.1	-50.3	16.8	0.00e+00	0	36	0	519045120	67	4729
2026-01-18 08:37:37.70	102.51	35.85	-48.2	-50.5	16.6	0.00e+00	0	36	0	521142272	67	4859
2026-01-18 08:37:38.71	102.27	36.04	-48.3	-50.7	16.5	0.00e+00	0	36	0	523239424	67	4967
2026-01-18 08:37:39.72	102.02	36.23	-48.0	-50.2	16.9	0.00e+00	0	36	0	525336576	67	4665
2026-01-18 08:37:40.73	101.78	36.43	-47.9	-50.0	17.1	0.00e+00	0	36	0	527433728	67	4567
2026-01-18 08:37:41.73	101.53	36.62	-48.0	-50.1	17.1	0.00e+00	0	36	0	529530880	67	4637
2026-01-18 08:37:42.74	101.27	36.81	-48.2	-50.4	16.7	0.00e+00	0	36	0	530579456	67	4785
2026-01-18 08:37:43.75	101.02	37.00	-48.4	-50.8	16.5	0.00e+00	0	36	0	532676608	67	4986
2026-01-18 08:37:44.76	100.75	37.20	-48.4	-50.8	16.4	0.00e+00	0	36	0	534773760	67	5014
2026-01-18 08:37:45.76	100.49	37.39	-48.9	-51.6	15.9	0.00e+00	0	36	0	536870912	68	5180
2026-01-18 08:37:46.77	100.23	37.58	-48.7	-51.3	16.0	0.00e+00	0	36	0	538968064	68	4992
2026-01-18 08:37:47.78	99.96	37.78	-48.7	-51.3	16.0	0.00e+00	0	36	0	540016640	68	4991
2026-01-18 08:37:48.79	99.68	37.98	-48.6	-51.1	16.3	0.00e+00	0	36	0	542113792	68	4896
2026-01-18 08:37:49.80	99.41	38.17	-48.5	-50.8	16.5	0.00e+00	0	36	0	544210944	68	4737
2026-01-18 08:37:50.80	99.13	38.37	-48.8	-51.3	16.0	0.00e+00	0	36	0	546308096	68	5010
2026-01-18 08:37:51.81	98.85	38.56	-48.6	-51.1	16.1	0.00e+00	0	36	0	547356672	68	4903
2026-01-18 08:37:52.82	98.56	38.76	-48.9	-51.6	15.6	0.00e+00	0	36	0	549453824	68	5178
2026-01-18 08:37:53.83	98.27	38.96	-48.9	-51.6	15.7	0.00e+00	0	36	0	551550976	68	5165
2026-01-18 08:37:54.84	97.98	39.15	-48.7	-51.3	15.9	0.00e+00	0	36	0	553648128	68	5011
2026-01-18 08:37:55.84	97.68	39.35	-47.7	-49.9	17.2	0.00e+00	0	36	0	555745280	67	4500
2026-01-18 08:37:56.85	97.38	39.55	-47.2	-49.1	17.9	0.00e+00	0	36	0	557842432	66	4370
2026-01-18 08:37:57.86	97.08	39.75	-47.1	-49.0	18.1	0.00e+00	0	36	0	558891008	65	4559
2026-01-18 08:37:58.87	96.77	39.95	-47.1	-48.9	18.1	0.00e+00	0	36	0	560988160	65	4528
2026-01-18 08:37:59.88	96.45	40.14	-47.1	-49.0	18.1	0.00e+00	0	36	0	563085312	65	4553
2026-01-18 08:38:00.89	96.14	40.34	-47.2	-49.1	18.0	0.00e+00	0	36	0	565182464	65	4621
2026-01-18 08:38:01.89	95.82	40.54	-47.4	-49.4	17.8	0.00e+00	0	36	0	567279616	65	4811
2026-01-18 08:38:02.90	95.50	40.74	-47.3	-49.2	18.0	0.00e+00	0	36	0	568328192	65	4673
2026-01-18 08:38:03.91	95.17	40.94	-47.6	-49.7	17.5	0.00e+00	0	36	0	570425344	65	4952
2026-01-18 08:38:04.92	94.84	41.14	-48.0	-50.3	17.1	0.00e+00	0	36	0	572522496	66	5032
2026-01-18 08:38:05.93	94.50	41.34	-48.6	-51.2	16.0	0.00e+00	0	36	0	574619648	67	5278
2026-01-18 08:38:06.93	94.16	41.53	-48.9	-51.6	15.7	0.00e+00	0	36	0	576716800	68	5202
2026-01-18 08:38:07.94	93.82	41.73	-49.0	-51.7	15.5	0.00e+00	0	36	0	577765376	69	4930
2026-01-18 08:38:08.95	93.47	41.93	-48.4	-50.7	16.5	0.00e+00	0	36	0	579862528	68	4656
2026-01-18 08:38:09.96	93.11	42.13	-48.0	-50.2	17.0	0.00e+00	0	36	0	581959680	68	4414
2026-01-18 08:38:10.97	92.76	42.33	-47.7	-49.7	17.4	0.00e+00	0	36	0	584056832	67	4439
2026-01-18 08:38:11.97	92.40	42.52	-47.8	-49.9	17.3	0.00e+00	0	36	0	586153984	67	4512
2026-01-18 08:38:12.98	92.03	42.72	-47.9	-49.9	17.4	0.00e+00	0	36	0	587202560	67	4531
2026-01-18 08:38:13.99	91.66	42.92	-48.2	-50.5	16.6	0.00e+00	0	36	0	589299712	67	4869
2026-01-18 08:38:15.00	91.28	43.12	-48.9	-51.6	15.7	0.00e+00	0	36	0	591396864	68	5218
2026-01-18 08:38:16.01	90.90	43.31	-49.1	-51.9	15.4	0.00e+00	0	36	0	593494016	69	5090
2026-01-18 08:38:17.02	90.52	43.51	-49.9	-53.3	14.2	0.00e+00	0	36	0	595591168	70	5616
2026-01-18 08:38:18.03	90.13	43.71	-49.8	-53.2	14.2	2.20e-06	0	36	0	597688320	70	5536
2026-01-18 08:38:19.03	89.73	43.90	-49.6	-52.7	14.6	1.50e-06	0	36	0	598736896	70	5256
2026-01-18 08:38:20.04	89.33	44.09	-49.3	-52.1	15.2	0.00e+00	0	36	0	600834048	70	4884
2026-01-18 08:38:21.05	88.93	44.29	-49.7	-52.8	14.5	0.00e+00	0	36	0	602931200	70	5317
2026-01-18 08:38:22.06	88.52	44.48	-49.7	-52.8	14.5	0.00e+00	0	36	0	605028352	70	5329
2026-01-18 08:38:23.07	88.10	44.67	-49.6	-52.7	14.6	1.50e-06	0	36	0	606076928	70	5248
2026-01-18 08:38:24.07	87.69	44.87	-49.3	-52.2	15.1	7.00e-07	0	36	0	608174080	70	4927
2026-01-18 08:38:25.08	87.26	45.06	-49.1	-51.9	15.4	0.00e+00	0	36	0	610271232	69	5066
2026-01-18 08:38:26.09	86.83	45.25	-49.5	-52.5	14.9	0.00e+00	0	36	0	612368384	69	5436
2026-01-18 08:38:27.10	86.40	45.44	-49.5	-52.5	14.9	0.00e+00	0	36	0	614465536	69	5421
2026-01-18 08:38:28.11	85.96	45.62	-48.9	-51.4	15.9	0.00e+00	0	36	0	615514112	69	4802
2026-01-18 08:38:29.11	85.52	45.81	-47.7	-49.7	17.4	0.00e+00	0	36	0	617611264	67	4429
2026-01-18 08:38:30.12	85.06	46.00	-47.1	-48.9	18.2	0.00e+00	0	36	0	619708416	66	4268
2026-01-18 08:38:31.13	84.61	46.18	-46.5	-48.0	19.1	0.00e+00	0	36	0	621805568	64	4326
2026-01-18 08:38:32.14	84.15	46.37	-46.2	-47.6	19.5	0.00e+00	0	36	0	623902720	63	4362
2026-01-18 08:38:33.15	83.68	46.55	-46.2	-47.7	19.5	0.00e+00	0	36	0	625999872	63	4396
2026-01-18 08:38:34.15	83.21	46.73	-47.1	-48.9	18.3	0.00e+00	0	36	0	627048448	64	4788
2026-01-18 08:38:35.16	82.73	46.91	-47.8	-49.9	17.4	0.00e+00	0	36	0	629145600	66	4800
2026-01-18 08:38:36.17	82.25	47.09	-48.2	-50.4	16.8	0.00e+00	0	36	0	631242752	67	4805
2026-01-18 08:38:37.18	81.76	47.26	-47.6	-49.6	17.6	0.00e+00	0	36	0	633339904	66	4613
2026-01-18 08:38:38.18	81.27	47.44	-46.8	-48.5	18.6	0.00e+00	0	36	0	634388480	65	4306
2026-01-18 08:38:39.19	80.77	47.61	-46.5	-48.0	19.1	0.00e+00	0	36	0	636485632	64	4307
2026-01-18 08:38:40.20	80.26	47.78	-46.7	-48.3	18.8	0.00e+00	0	36	0	638582784	64	4486
2026-01-18 08:38:41.21	79.75	47.95	-47.0	-48.8	18.4	0.00e+00	0	36	0	640679936	64	4725
2026-01-18 08:38:42.21	79.24	48.12	-47.6	-49.7	17.5	0.00e+00	0	36	0	642777088	65	4931
2026-01-18 08:38:43.22	78.71	48.29	-48.0	-50.2	17.0	0.00e+00	0	36	0	643825664	66	4982
2026-01-18 08:38:44.23	78.18	48.45	-47.7	-49.7	17.6	0.00e+00	0	36	0	645922816	66	4671
2026-01-18 08:38:45.23	77.65	48.61	-47.1	-48.8	18.3	0.00e+00	0	36	0	648019968	66	4241
2026-01-18 08:38:46.24	77.11	48.77	-47.0	-48.7	18.5	0.00e+00	0	36	0	650117120	65	4421
2026-01-18 08:38:47.25	76.57	48.93	-47.1	-49.0	18.2	0.00e+00	0	36	0	652214272	65	4549
2026-01-18 08:38:48.26	76.02	49.09	-47.6	-49.7	17.6	0.00e+00	0	36	0	654311424	66	4675
2026-01-18 08:38:49.27	75.46	49.24	-47.5	-49.5	17.7	0.00e+00	0	36	0	655360000	66	4587
2026-01-18 08:38:50.27	74.90	49.39	-47.3	-49.3	18.0	0.00e+00	0	36	0	657457152	66	4463
2026-01-18 08:38:51.28	74.33	49.54	-46.6	-48.3	18.9	0.00e+00	0	36	0	659554304	65	4220
2026-01-18 08:38:52.29	73.76	49.68	-46.6	-48.2	18.9	0.00e+00	0	36	0	661651456	65	4182
2026-01-18 08:38:53.30	73.18	49.83	-46.5	-48.2	18.9	0.00e+00	0	36	0	662700032	64	4395
2026-01-18 08:38:54.31	72.60	49.97	-46.8	-48.6	18.6	0.00e+00	0	36	0	664797184	64	4610
2026-01-18 08:38:55.31	72.01	50.10	-47.3	-49.2	17.9	0.00e+00	0	36	0	666894336	65	4685
2026-01-18 08:38:56.32	71.42	50.24	-47.6	-49.7	17.4	0.00e+00	0	36	0	668991488	65	4979
2026-01-18 08:38:57.33	70.82	50.37	-48.4	-51.0	16.1	0.00e+00	0	36	0	671088640	67	5151
2026-01-18 08:38:58.33	70.22	50.50	-49.6	-53.1	14.2	7.00e-07	0	36	0	673185792	70	5524
2026-01-18 08:38:59.34	69.61	50.63	-50.0	-54.0	13.1	2.13e-05	0	36	0	674234368	70	6088
2026-01-18 08:39:00.35	68.99	50.75	-48.8	-51.5	15.6	0.00e+00	0	36	0	676331520	69	4870
2026-01-18 08:39:01.35	68.38	50.87	-48.1	-50.5	16.6	0.00e+00	0	36	0	678428672	67	4823
2026-01-18 08:39:02.36	67.75	50.98	-48.1	-50.4	16.8	0.00e+00	0	36	0	680525824	67	4801
2026-01-18 08:39:03.37	67.12	51.10	-48.1	-50.4	16.9	0.00e+00	0	36	0	682622976	67	4767
2026-01-18 08:39:04.38	66.48	51.21	-47.6	-49.7	17.5	0.00e+00	0	36	0	683671552	67	4411
2026-01-18 08:39:05.39	65.85	51.31	-47.5	-49.5	17.7	0.00e+00	0	36	0	685768704	66	4567
2026-01-18 08:39:06.39	65.21	51.41	-47.9	-50.1	16.9	0.00e+00	0	36	0	687865856	66	4925
2026-01-18 08:39:07.40	64.56	51.51	-48.3	-50.8	16.3	0.00e+00	0	36	0	689963008	67	5029
2026-01-18 08:39:08.41	63.91	51.61	-48.7	-51.5	15.8	0.00e+00	0	36	0	691011584	67	5406
2026-01-18 08:39:09.42	63.25	51.70	-48.0	-50.4	16.8	0.00e+00	0	36	0	693108736	67	4787
2026-01-18 08:39:10.42	62.59	51.79	-47.6	-49.7	17.4	0.00e+00	0	36	0	695205888	67	4435
2026-01-18 08:39:11.43	61.93	51.87	-46.5	-48.3	18.6	0.00e+00	0	36	0	697303040	65	4202
2026-01-18 08:39:12.44	61.26	51.95	-45.9	-47.4	19.6	0.00e+00	0	36	0	699400192	63	4257
2026-01-18 08:39:13.45	60.59	52.03	-45.5	-47.0	20.1	0.00e+00	0	36	0	701497344	62	4294
2026-01-18 08:39:14.45	59.92	52.10	-45.1	-46.5	20.6	0.00e+00	0	36	0	702545920	62	4055
2026-01-18 08:39:15.46	59.24	52.17	-44.4	-45.6	21.2	0.00e+00	0	36	0	704643072	60	4124
2026-01-18 08:39:16.47	58.56	52.23	-44.4	-45.6	21.1	0.00e+00	0	36	0	706740224	60	4139
2026-01-18 08:39:17.48	57.88	52.29	-44.7	-46.0	20.9	0.00e+00	0	36	0	708837376	60	4335
2026-01-18 08:39:18.49	57.19	52.35	-45.1	-46.5	20.5	0.00e+00	0	36	0	710934528	60	4591
2026-01-18 08:39:19.49	56.51	52.40	-44.7	-46.0	20.9	0.00e+00	0	36	0	711983104	60	4321
2026-01-18 08:39:20.50	55.81	52.44	-44.3	-45.5	21.3	0.00e+00	0	36	0	714080256	60	4087
2026-01-18 08:39:21.51	55.12	52.49	-44.3	-45.5	21.3	0.00e+00	0	36	0	716177408	60	4091
2026-01-18 08:39:22.52	54.42	52.53	-44.5	-45.8	21.0	0.00e+00	0	36	0	718274560	60	4213
2026-01-18 08:39:23.53	53.73	52.56	-44.6	-45.9	20.9	0.00e+00	0	36	0	720371712	60	4283
2026-01-18 08:39:24.53	53.03	52.59	-44.5	-45.8	21.1	0.00e+00	0	36	0	721420288	60	4205
2026-01-18 08:39:25.54	52.33	52.62	-44.1	-45.3	21.5	0.00e+00	0	36	0	723517440	60	3968
2026-01-18 08:39:26.55	51.63	52.64	-44.1	-45.4	21.4	0.00e+00	0	36	0	725614592	60	4005
2026-01-18 08:39:27.56	50.93	52.65	-44.8	-46.2	20.5	0.00e+00	0	36	0	727711744	60	4423
2026-01-18 08:39:28.56	50.23	52.67	-45.4	-47.0	20.1	0.00e+00	0	36	0	729808896	61	4562
2026-01-18 08:39:29.57	49.53	52.67	-45.9	-47.6	19.5	0.00e+00	0	36	0	730857472	62	4621
2026-01-18 08:39:30.58	48.83	52.68	-45.9	-47.5	19.6	0.00e+00	0	36	0	732954624	62	4572
2026-01-18 08:39:31.59	48.12	52.68	-45.5	-46.9	20.1	0.00e+00	0	36	0	735051776	62	4275
2026-01-18 08:39:32.60	47.42	52.67	-45.7	-47.1	19.9	0.00e+00	0	36	0	737148928	62	4380
2026-01-18 08:39:33.61	46.71	52.66	-45.9	-47.4	19.7	0.00e+00	0	36	0	739246080	62	4523
2026-01-18 08:39:34.61	46.02	52.65	-45.5	-47.0	20.0	0.00e+00	0	36	0	740294656	62	4294
2026-01-18 08:39:35.62	45.32	52.63	-45.2	-46.6	20.4	0.00e+00	0	36	0	742391808	62	4132
2026-01-18 08:39:36.63	44.62	52.60	-45.9	-47.5	19.7	0.00e+00	0	36	0	744488960	62	4551
2026-01-18 08:39:37.64	43.92	52.58	-46.2	-47.9	19.2	0.00e+00	0	36	0	746586112	63	4498
2026-01-18 08:39:38.65	43.22	52.54	-45.9	-47.4	19.6	0.00e+00	0	36	0	748683264	63	4291
2026-01-18 08:39:39.65	42.53	52.51	-45.8	-47.4	19.8	0.00e+00	0	36	0	749731840	63	4257
2026-01-18 08:39:40.66	41.83	52.47	-46.1	-47.7	19.4	0.00e+00	0	36	0	751828992	63	4429
2026-01-18 08:39:41.67	41.14	52.42	-46.3	-48.1	19.1	0.00e+00	0	36	0	753926144	63	4604
2026-01-18 08:39:42.68	40.45	52.37	-46.1	-47.7	19.4	0.00e+00	0	36	0	756023296	63	4433
2026-01-18 08:39:43.69	39.76	52.32	-45.7	-47.3	19.8	0.00e+00	0	36	0	758120448	62	4442
2026-01-18 08:39:44.70	39.08	52.26	-45.2	-46.6	20.4	0.00e+00	0	36	0	759169024	62	4105
2026-01-18 08:39:45.71	38.39	52.20	-44.6	-45.9	21.1	0.00e+00	0	36	0	761266176	61	4008
2026-01-18 08:39:46.71	37.72	52.13	-44.5	-45.8	21.1	0.00e+00	0	36	0	763363328	60	4202
2026-01-18 08:39:47.72	37.04	52.06	-44.6	-45.9	21.1	0.00e+00	0	36	0	765460480	60	4258
2026-01-18 08:39:48.73	36.37	51.99	-45.5	-47.0	20.2	0.00e+00	0	36	0	767557632	61	4558
2026-01-18 08:39:49.74	35.70	51.91	-45.4	-46.8	20.2	0.00e+00	0	36	0	768606208	61	4453
2026-01-18 08:39:50.75	35.04	51.83	-45.3	-46.7	20.2	0.00e+00	0	36	0	770703360	61	4427
2026-01-18 08:39:51.75	34.38	51.74	-45.3	-46.7	20.2	0.00e+00	0	36	0	772800512	61	4409
2026-01-18 08:39:52.76	33.72	51.65	-45.5	-46.9	20.1	0.00e+00	0	36	0	774897664	61	4534
2026-01-18 08:39:53.77	33.07	51.56	-45.7	-47.2	19.9	0.00e+00	0	36	0	776994816	62	4408
2026-01-18 08:39:54.78	32.42	51.46	-45.6	-47.1	20.0	0.00e+00	0	36	0	778043392	62	4353
2026-01-18 08:39:55.79	31.77	51.36	-45.6	-47.0	20.1	0.00e+00	0	36	0	780140544	62	4337
2026-01-18 08:39:56.79	31.14	51.26	-45.7	-47.1	20.0	0.00e+00	0	36	0	782237696	62	4382
2026-01-18 08:39:57.80	30.50	51.15	-45.5	-46.9	20.1	0.00e+00	0	36	0	784334848	62	4264
2026-01-18 08:39:58.81	29.87	51.04	-45.2	-46.5	20.6	0.00e+00	0	36	0	786432000	62	4072
2026-01-18 08:39:59.82	29.24	50.93	-45.6	-47.0	20.1	0.00e+00	0	36	0	787480576	62	4310
2026-01-18 08:40:00.83	28.62	50.81	-46.5	-48.1	19.1	0.00e+00	0	36	0	789577728	63	4649
2026-01-18 08:40:01.83	28.00	50.69	-47.7	-49.8	17.5	0.00e+00	0	36	0	791674880	65	5035
2026-01-18 08:40:02.84	27.39	50.56	-48.0	-50.2	17.1	0.00e+00	0	36	0	793772032	66	4954
2026-01-18 08:40:03.85	26.78	50.44	-47.9	-50.1	17.4	0.00e+00	0	36	0	795869184	66	4911
2026-01-18 08:40:04.86	26.18	50.31	-47.7	-49.8	17.5	0.00e+00	0	36	0	796917760	66	4741
2026-01-18 08:40:05.87	25.58	50.17	-47.7	-49.7	17.7	0.00e+00	0	36	0	799014912	66	4678
2026-01-18 08:40:06.87	25.00	50.04	-47.2	-49.0	18.2	0.00e+00	0	36	0	801112064	66	4334
2026-01-18 08:40:07.88	24.41	49.90	-47.2	-49.0	18.2	0.00e+00	0	36	0	803209216	66	4333
2026-01-18 08:40:08.89	23.83	49.76	-47.0	-48.7	18.6	0.00e+00	0	36	0	805306368	65	4418
2026-01-18 08:40:09.89	23.26	49.61	-46.9	-48.6	18.6	0.00e+00	0	36	0	806354944	65	4358
2026-01-18 08:40:10.90	22.69	49.47	-47.3	-49.1	18.2	0.00e+00	0	36	0	808452096	65	4625
2026-01-18 08:40:11.91	22.13	49.32	-47.7	-49.7	17.6	0.00e+00	0	36	0	810549248	65	4960
2026-01-18 08:40:12.92	21.57	49.17	-47.6	-49.5	17.6	0.00e+00	0	36	0	812646400	66	4573
2026-01-18 08:40:13.93	21.01	49.01	-47.0	-48.8	18.4	0.00e+00	0	36	0	814743552	66	4214
2026-01-18 08:40:14.94	20.47	48.85	-46.9	-48.6	18.5	0.00e+00	0	36	0	816840704	65	4380
2026-01-18 08:40:15.94	19.93	48.70	-47.1	-48.9	18.4	0.00e+00	0	36	0	817889280	65	4503
2026-01-18 08:40:16.95	19.39	48.54	-47.2	-49.1	18.1	0.00e+00	0	36	0	819986432	65	4617
2026-01-18 08:40:17.96	18.86	48.37	-47.1	-48.9	18.3	0.00e+00	0	36	0	822083584	65	4532
2026-01-18 08:40:18.97	18.34	48.21	-46.8	-48.5	18.7	0.00e+00	0	36	0	824180736	65	4322
2026-01-18 08:40:19.98	17.82	48.04	-46.9	-48.6	18.5	0.00e+00	0	36	0	825229312	65	4390
2026-01-18 08:40:20.99	17.30	47.87	-46.9	-48.6	18.7	0.00e+00	0	36	0	827326464	65	4347
2026-01-18 08:40:21.99	16.80	47.70	-47.2	-49.0	18.3	0.00e+00	0	36	0	829423616	65	4572
2026-01-18 08:40:23.00	16.30	47.53	-46.9	-48.5	18.7	0.00e+00	0	36	0	831520768	65	4338
2026-01-18 08:40:24.01	15.80	47.36	-46.7	-48.4	18.8	0.00e+00	0	36	0	833617920	64	4498
2026-01-18 08:40:25.01	15.31	47.18	-47.3	-49.2	18.1	0.00e+00	0	36	0	834666496	65	4679
2026-01-18 08:40:26.02	14.83	47.00	-48.8	-51.4	16.1	0.00e+00	0	36	0	836763648	68	5054
2026-01-18 08:40:27.03	14.35	46.82	-48.3	-50.6	16.9	0.00e+00	0	36	0	838860800	68	4616
2026-01-18 08:40:28.04	13.87	46.64	-47.5	-49.3	18.0	0.00e+00	0	36	0	840957952	66	4484
2026-01-18 08:40:29.05	13.40	46.46	-47.0	-48.7	18.5	0.00e+00	0	36	0	843055104	65	4441
2026-01-18 08:40:30.06	12.94	46.28	-46.7	-48.3	19.0	0.00e+00	0	36	0	845152256	65	4213
2026-01-18 08:40:31.07	12.48	46.10	-46.5	-48.0	19.3	0.00e+00	0	36	0	846200832	64	4311
2026-01-18 08:40:32.07	12.03	45.91	-47.2	-49.0	18.4	0.00e+00	0	36	0	848297984	64	4829
2026-01-18 08:40:33.08	11.59	45.73	-48.1	-50.2	17.2	0.00e+00	0	36	0	850395136	66	4956
2026-01-18 08:40:34.09	11.14	45.54	-48.5	-50.8	16.6	0.00e+00	0	36	0	852492288	67	5023
2026-01-18 08:40:35.09	10.71	45.35	-49.1	-51.6	15.9	0.00e+00	0	36	0	853540864	68	5215
2026-01-18 08:40:36.10	10.28	45.16	-49.3	-52.1	15.4	0.00e+00	0	36	0	855638016	69	5172
2026-01-18 08:40:37.10	9.85	44.97	-49.7	-52.7	14.8	0.00e+00	0	36	0	857735168	70	5274
2026-01-18 08:40:38.11	9.43	44.78	-49.8	-53.0	14.6	4.50e-06	0	36	0	859832320	71	5103
2026-01-18 08:40:39.12	9.02	44.59	-49.3	-51.9	15.5	7.00e-07	0	36	0	861929472	70	4805
2026-01-18 08:40:40.13	8.60	44.40	-48.8	-51.1	16.4	0.00e+00	0	36	0	864026624	69	4642
2026-01-18 08:40:41.14	8.20	44.20	-49.0	-51.4	16.1	0.00e+00	0	36	0	865075200	69	4802
2026-01-18 08:40:42.15	7.80	44.01	-49.0	-51.5	16.0	0.00e+00	0	36	0	867172352	69	4854
2026-01-18 08:40:43.16	7.40	43.82	-49.0	-51.5	15.9	0.00e+00	0	36	0	869269504	69	4846
2026-01-18 08:40:44.17	7.01	43.62	-48.5	-50.8	16.6	0.00e+00	0	36	0	871366656	69	4465
2026-01-18 08:40:45.17	6.62	43.43	-48.1	-50.1	17.1	0.00e+00	0	36	0	873463808	68	4386
2026-01-18 08:40:46.18	6.24	43.23	-47.5	-49.3	17.9	0.00e+00	0	36	0	874512384	67	4222
2026-01-18 08:40:47.19	5.86	43.03	-47.0	-48.7	18.5	0.00e+00	0	36	0	876609536	66	4190
2026-01-18 08:40:48.20	5.49	42.84	-46.5	-48.0	19.1	0.00e+00	0	36	0	878706688	65	4073
2026-01-18 08:40:49.21	5.12	42.64	-47.3	-49.1	18.2	0.00e+00	0	36	0	880803840	65	4600
2026-01-18 08:40:50.21	4.76	42.44	-47.8	-49.8	17.6	0.00e+00	0	36	0	881852416	66	4744
2026-01-18 08:40:51.22	4.40	42.25	-47.9	-49.9	17.4	0.00e+00	0	36	0	883949568	66	4808
2026-01-18 08:40:52.22	4.05	42.05	-47.5	-49.4	17.7	0.00e+00	0	36	0	886046720	66	4538
2026-01-18 08:40:53.23	3.70	41.85	-47.5	-49.4	17.9	0.00e+00	0	36	0	888143872	66	4530
2026-01-18 08:40:54.24	3.35	41.65	-47.8	-49.9	17.4	0.00e+00	0	36	0	890241024	66	4773
2026-01-18 08:40:55.25	3.01	41.46	-48.7	-51.1	16.3	0.00e+00	0	36	0	892338176	68	4895
2026-01-18 08:40:56.26	2.67	41.26	-48.7	-51.1	16.3	0.00e+00	0	36	0	893386752	69	4624
2026-01-18 08:40:57.27	2.34	41.06	-48.4	-50.7	16.7	0.00e+00	0	36	0	895483904	68	4680
2026-01-18 08:40:58.28	2.01	40.86	-48.6	-51.0	16.7	0.00e+00	0	36	0	897581056	68	4818
2026-01-18 08:40:59.29	1.69	40.66	-49.1	-51.8	15.6	0.00e+00	0	36	0	899678208	68	5325
2026-01-18 08:41:00.30	1.36	40.46	-49.3	-52.1	15.3	0.00e+00	0	36	0	901775360	69	5199
2026-01-18 08:41:01.30	1.05	40.27	-49.4	-52.4	15.1	7.00e-07	0	36	0	902823936	69	5343
2026-01-18 08:41:02.31	0.74	40.07	-49.4	-52.3	15.0	0.00e+00	0	36	0	904921088	69	5307
2026-01-18 08:41:03.32	0.43	39.87	-49.6	-52.7	14.6	0.00e+00	0	36	0	907018240	69	5549
2026-01-18 08:41:04.32	0.12	39.68	-49.4	-52.4	14.9	0.00e+00	0	36	0	909115392	70	5063
2026-01-18 08:41:05.33	359.82	39.48	-49.6	-52.7	14.6	7.00e-07	0	36	0	911212544	70	5271
2026-01-18 08:41:06.34	359.52	39.28	-49.0	-51.6	15.8	0.00e+00	0	36	0	912261120	70	4623
2026-01-18 08:41:07.35	359.23	39.08	-48.5	-50.8	16.5	0.00e+00	0	36	0	914358272	69	4491
2026-01-18 08:41:08.36	358.93	38.89	-48.7	-51.1	16.3	0.00e+00	0	36	0	916455424	68	4874
2026-01-18 08:41:09.36	358.65	38.69	-48.8	-51.3	16.0	0.00e+00	0	36	0	918552576	68	5028
2026-01-18 08:41:10.37	358.37	38.50	-48.6	-51.0	16.4	0.00e+00	0	36	0	920649728	68	4826
2026-01-18 08:41:11.38	358.08	38.30	-48.4	-50.7	16.6	0.00e+00	0	36	0	921698304	68	4693
2026-01-18 08:41:12.39	357.81	38.10	-48.5	-50.8	16.6	0.00e+00	0	36	0	923795456	68	4730
2026-01-18 08:41:13.40	357.53	37.91	-48.3	-50.5	16.9	0.00e+00	0	36	0	925892608	68	4591
2026-01-18 08:41:14.41	357.26	37.71	-47.9	-49.9	17.4	0.00e+00	0	36	0	927989760	67	4539
2026-01-18 08:41:15.41	357.00	37.52	-47.9	-49.9	17.4	0.00e+00	0	36	0	930086912	67	4545
2026-01-18 08:41:16.42	356.73	37.33	-47.8	-49.8	17.5	0.00e+00	0	36	0	931135488	67	4457
2026-01-18 08:41:17.43	356.47	37.13	-47.8	-49.9	17.5	0.00e+00	0	36	0	933232640	67	4503
2026-01-18 08:41:18.44	356.21	36.94	-48.4	-50.6	16.6	0.00e+00	0	36	0	935329792	67	4924
2026-01-18 08:41:19.45	355.96	36.75	-49.0	-51.6	15.9	0.00e+00	0	36	0	937426944	68	5163
2026-01-18 08:41:20.46	355.71	36.56	-49.4	-52.2	15.2	0.00e+00	0	36	0	939524096	69	5266
2026-01-18 08:41:21.46	355.46	36.37	-49.4	-52.3	15.2	0.00e+00	0	36	0	940572672	69	5299
2026-01-18 08:41:22.47	355.21	36.17	-49.8	-52.9	14.5	0.00e+00	0	36	0	942669824	70	5390
2026-01-18 08:41:23.48	354.97	35.98	-49.7	-52.6	14.8	0.00e+00	0	36	0	944766976	70	5206
2026-01-18 08:41:24.49	354.73	35.79	-49.5	-52.3	15.1	7.00e-07	0	36	0	946864128	70	5010
2026-01-18 08:41:25.50	354.49	35.60	-49.0	-51.5	16.0	0.00e+00	0	36	0	948961280	69	4862
2026-01-18 08:41:26.50	354.26	35.42	-48.5	-50.6	16.8	0.00e+00	0	36	0	950009856	68	4635
2026-01-18 08:41:27.51	354.03	35.23	-48.0	-50.0	17.3	0.00e+00	0	36	0	952107008	68	4313
2026-01-18 08:41:28.52	353.80	35.04	-47.9	-49.9	17.4	0.00e+00	0	36	0	954204160	67	4504
2026-01-18 08:41:29.53	353.57	34.85	-47.9	-49.9	17.4	0.00e+00	0	36	0	956301312	67	4522
2026-01-18 08:41:30.53	353.35	34.67	-48.1	-50.1	17.2	0.00e+00	0	36	0	958398464	67	4610
2026-01-18 08:41:31.54	353.13	34.48	-48.3	-50.4	16.9	0.00e+00	0	36	0	960495616	67	4784
2026-01-18 08:41:32.55	352.91	34.30	-48.2	-50.3	17.1	0.00e+00	0	36	0	961544192	67	4728
2026-01-18 08:41:33.55	352.69	34.11	-48.1	-50.2	17.2	0.00e+00	0	36	0	963641344	67	4667
2026-01-18 08:41:34.56	352.48	33.93	-48.2	-50.3	17.0	0.00e+00	0	36	0	965738496	67	4730
2026-01-18 08:41:35.57	352.27	33.75	-48.1	-50.1	17.4	0.00e+00	0	36	0	967835648	67	4614
2026-01-18 08:41:36.58	352.06	33.56	-47.6	-49.5	17.8	0.00e+00	0	36	0	968884224	66	4565
2026-01-18 08:41:37.59	351.85	33.38	-47.4	-49.2	18.1	0.00e+00	0	36	0	970981376	66	4411
2026-01-18 08:41:38.60	351.65	33.20	-47.5	-49.3	18.0	0.00e+00	0	36	0	973078528	66	4486
2026-01-18 08:41:39.60	351.45	33.02	-47.6	-49.4	17.9	0.00e+00	0	36	0	975175680	66	4520
2026-01-18 08:41:40.61	351.25	32.84	-47.8	-49.7	17.7	0.00e+00	0	36	0	977272832	66	4654
2026-01-18 08:41:41.62	351.05	32.66	-47.6	-49.4	17.8	0.00e+00	0	36	0	978321408	66	4540
2026-01-18 08:41:42.62	350.86	32.48	-47.7	-49.6	17.6	0.00e+00	0	36	0	980418560	66	4642
2026-01-18 08:41:43.63	350.66	32.31	-47.4	-49.2	18.1	0.00e+00	0	36	0	982515712	66	4404
2026-01-18 08:41:44.64	350.47	32.13	-47.7	-49.5	17.7	0.00e+00	0	36	0	984612864	66	4588
2026-01-18 08:41:45.65	350.28	31.95	-47.8	-49.7	17.6	0.00e+00	0	36	0	986710016	66	4690
2026-01-18 08:41:46.65	350.10	31.78	-48.0	-50.0	17.4	0.00e+00	0	36	0	988807168	66	4851
2026-01-18 08:41:47.66	349.91	31.60	-47.8	-49.8	17.4	0.00e+00	0	36	0	989855744	66	4746
2026-01-18 08:41:48.67	349.73	31.43	-48.1	-50.2	17.1	0.00e+00	0	36	0	991952896	66	4939
2026-01-18 08:41:49.67	349.55	31.25	-48.5	-50.8	16.5	0.00e+00	0	36	0	994050048	67	4995
2026-01-18 08:41:50.68	349.37	31.08	-48.5	-50.8	16.5	0.00e+00	0	36	0	996147200	67	5025
2026-01-18 08:41:51.69	349.19	30.91	-48.9	-51.3	16.1	0.00e+00	0	36	0	997195776	68	5021
2026-01-18 08:41:52.70	349.02	30.74	-49.3	-52.1	15.4	0.00e+00	0	36	0	999292928	69	5163
2026-01-18 08:41:53.71	348.85	30.57	-49.2	-51.8	15.6	0.00e+00	0	36	0	1001390080	69	5025
2026-01-18 08:41:54.71	348.68	30.40	-48.4	-50.6	16.8	0.00e+00	0	36	0	1003487232	68	4619
2026-01-18 08:41:55.72	348.51	30.23	-48.0	-50.1	17.2	0.00e+00	0	36	0	1005584384	68	4358
2026-01-18 08:41:56.73	348.34	30.06	-47.4	-49.2	18.0	0.00e+00	0	36	0	1007681536	66	4423
2026-01-18 08:41:57.74	348.17	29.89	-47.1	-48.8	18.4	0.00e+00	0	36	0	1008730112	66	4202
2026-01-18 08:41:58.75	348.01	29.72	-46.3	-47.9	19.3	0.00e+00	0	36	0	1010827264	64	4245
2026-01-18 08:41:59.76	347.85	29.55	-46.3	-47.8	19.3	0.00e+00	0	36	0	1012924416	64	4216
2026-01-18 08:42:00.77	347.69	29.39	-46.3	-47.8	19.4	0.00e+00	0	36	0	1015021568	64	4194
2026-01-18 08:42:01.77	347.53	29.22	-46.4	-48.0	19.2	0.00e+00	0	36	0	1017118720	64	4295
2026-01-18 08:42:02.78	347.37	29.06	-46.8	-48.5	18.7	0.00e+00	0	36	0	1018167296	64	4565
2026-01-18 08:42:03.79	347.21	28.90	-47.2	-49.0	18.3	0.00e+00	0	36	0	1020264448	64	4822
2026-01-18 08:42:04.80	347.06	28.73	-47.5	-49.4	17.9	0.00e+00	0	36	0	1022361600	65	4761
2026-01-18 08:42:05.81	346.91	28.57	-47.6	-49.5	17.7	0.00e+00	0	36	0	1024458752	65	4845
2026-01-18 08:42:06.81	346.76	28.41	-48.0	-50.0	17.2	0.00e+00	0	36	0	1025507328	66	4854
2026-01-18 08:42:07.82	346.61	28.25	-48.0	-50.0	17.3	0.00e+00	0	36	0	1027604480	66	4841
2026-01-18 08:42:08.83	346.46	28.09	-48.0	-50.0	17.2	0.00e+00	0	36	0	1029701632	67	4595
2026-01-18 08:42:09.84	346.31	27.93	-47.5	-49.3	17.9	0.00e+00	0	36	0	1031798784	67	4224
2026-01-18 08:42:10.85	346.17	27.77	-47.2	-48.9	18.3	0.00e+00	0	36	0	1033895936	66	4281
2026-01-18 08:42:11.85	346.03	27.61	-46.6	-48.2	18.9	0.00e+00	0	36	0	1035993088	65	4170
2026-01-18 08:42:12.86	345.89	27.46	-46.5	-48.1	19.2	0.00e+00	0	36	0	1037041664	64	4342
2026-01-18 08:42:13.87	345.74	27.30	-46.0	-47.5	19.6	0.00e+00	0	36	0	1039138816	64	4052
2026-01-18 08:42:14.87	345.61	27.14	-46.2	-47.6	19.6	0.00e+00	0	36	0	1041235968	63	4379
2026-01-18 08:42:15.88	345.47	26.99	-46.4	-48.0	19.2	0.00e+00	0	36	0	1043333120	63	4561
2026-01-18 08:42:16.89	345.33	26.83	-46.6	-48.1	19.0	0.00e+00	0	36	0	1045430272	63	4631
2026-01-18 08:42:17.90	345.20	26.68	-46.6	-48.3	18.9	0.00e+00	0	36	0	1046478848	64	4443
2026-01-18 08:42:18.91	345.06	26.53	-46.6	-48.2	18.8	0.00e+00	0	36	0	1048576000	64	4431
2026-01-18 08:42:19.91	344.93	26.37	-46.8	-48.5	18.6	0.00e+00	0	36	0	1050673152	64	4566
2026-01-18 08:42:20.92	344.80	26.22	-46.8	-48.4	18.6	0.00e+00	0	36	0	1052770304	64	4543
2026-01-18 08:42:21.93	344.67	26.07	-47.0	-48.7	18.4	0.00e+00	0	36	0	1054867456	64	4702
2026-01-18 08:42:22.94	344.54	25.92	-47.2	-49.0	18.1	0.00e+00	0	36	0	1055916032	64	4846
2026-01-18 08:42:23.95	344.41	25.77	-47.5	-49.4	17.7	0.00e+00	0	36	0	1058013184	65	4795
2026-01-18 08:42:24.96	344.29	25.62	-47.5	-49.4	17.8	0.00e+00	0	36	0	1060110336	65	4775
2026-01-18 08:42:25.96	344.17	25.47	-47.5	-49.4	17.7	0.00e+00	0	36	0	1062207488	65	4784
2026-01-18 08:42:26.97	344.04	25.33	-47.3	-49.1	18.0	0.00e+00	0	36	0	1064304640	65	4608
2026-01-18 08:42:27.98	343.92	25.18	-47.1	-48.9	18.3	0.00e+00	0	36	0	1065353216	65	4499
2026-01-18 08:42:28.99	343.80	25.03	-46.7	-48.3	18.8	0.00e+00	0	36	0	1067450368	65	4236
2026-01-18 08:42:29.99	343.68	24.89	-46.3	-47.8	19.3	0.00e+00	0	36	0	1069547520	64	4204
2026-01-18 08:42:31.00	343.56	24.74	-46.2	-47.6	19.4	0.00e+00	0	36	0	1071644672	64	4139
2026-01-18 08:42:32.01	343.44	24.60	-46.1	-47.5	19.6	0.00e+00	0	36	0	1073741824	63	4338
2026-01-18 08:42:33.02	343.32	24.45	-46.3	-47.8	19.3	0.00e+00	0	36	0	1074790400	63	4467
2026-01-18 08:42:34.03	343.21	24.31	-46.6	-48.1	19.1	0.00e+00	0	36	0	1076887552	63	4636
2026-01-18 08:42:35.03	343.09	24.17	-46.6	-48.3	18.8	0.00e+00	0	36	0	1078984704	64	4453
2026-01-18 08:42:36.04	342.98	24.03	-46.8	-48.4	18.7	0.00e+00	0	36	0	1081081856	64	4517
2026-01-18 08:42:37.05	342.87	23.89	-46.8	-48.4	18.7	0.00e+00	0	36	0	1083179008	64	4516
2026-01-18 08:42:38.06	342.76	23.74	-46.7	-48.4	18.7	0.00e+00	0	36	0	1084227584	64	4516
2026-01-18 08:42:39.07	342.65	23.60	-46.8	-48.4	18.7	0.00e+00	0	36	0	1086324736	64	4517
2026-01-18 08:42:40.07	342.54	23.47	-46.8	-48.4	18.7	0.00e+00	0	36	0	1088421888	64	4516
2026-01-18 08:42:41.08	342.43	23.33	-46.9	-48.5	18.5	0.00e+00	0	36	0	1090519040	64	4594
2026-01-18 08:42:42.09	342.32	23.19	-47.0	-48.8	18.3	0.00e+00	0	36	0	1092616192	64	4708
2026-01-18 08:42:43.10	342.22	23.05	-47.3	-49.1	18.0	0.00e+00	0	36	0	1093664768	65	4641
2026-01-18 08:42:44.11	342.11	22.92	-47.8	-49.8	17.3	0.00e+00	0	36	0	1095761920	66	4730
2026-01-18 08:42:45.11	342.01	22.78	-48.2	-50.4	16.8	0.00e+00	0	36	0	1097859072	66	5048
2026-01-18 08:42:46.12	341.90	22.64	-48.4	-50.6	16.5	0.00e+00	0	36	0	1099956224	67	4918
2026-01-18 08:42:47.13	341.80	22.51	-48.4	-50.7	16.4	0.00e+00	0	36	0	1102053376	67	4941
2026-01-18 08:42:48.13	341.70	22.38	-48.2	-50.4	16.7	0.00e+00	0	36	0	1103101952	67	4767
2026-01-18 08:42:49.14	341.60	22.24	-48.1	-50.2	16.9	0.00e+00	0	36	0	1105199104	67	4700
2026-01-18 08:42:50.15	341.50	22.11	-47.8	-49.7	17.3	0.00e+00	0	36	0	1107296256	67	4439
2026-01-18 08:42:51.16	341.40	21.98	-47.6	-49.5	17.6	0.00e+00	0	36	0	1109393408	66	4563
2026-01-18 08:42:52.17	341.30	21.84	-47.3	-49.0	18.0	0.00e+00	0	36	0	1111490560	66	4340
2026-01-18 08:42:53.17	341.20	21.71	-47.2	-48.9	18.1	0.00e+00	0	36	0	1112539136	66	4276
2026-01-18 08:42:54.18	341.11	21.58	-47.1	-48.9	18.1	0.00e+00	0	36	0	1114636288	66	4254
2026-01-18 08:42:55.19	341.01	21.45	-47.3	-49.2	17.9	0.00e+00	0	36	0	1116733440	66	4399
2026-01-18 08:42:56.20	340.92	21.32	-47.5	-49.3	17.8	0.00e+00	0	36	0	1118830592	66	4490
2026-01-18 08:42:57.21	340.82	21.19	-47.5	-49.3	17.7	0.00e+00	0	36	0	1120927744	66	4493
2026-01-18 08:42:58.21	340.73	21.07	-47.6	-49.5	17.6	0.00e+00	0	36	0	1121976320	66	4551
2026-01-18 08:42:59.22	340.64	20.94	-47.5	-49.4	17.6	0.00e+00	0	36	0	1124073472	66	4505
2026-01-18 08:43:00.23	340.55	20.81	-47.4	-49.2	17.8	0.00e+00	0	36	0	1126170624	66	4441
2026-01-18 08:43:01.23	340.46	20.69	-47.1	-48.8	18.2	0.00e+00	0	36	0	1128267776	66	4226
2026-01-18 08:43:02.24	340.37	20.56	-46.8	-48.4	18.6	0.00e+00	0	36	0	1130364928	65	4279
2026-01-18 08:43:03.25	340.28	20.43	-46.6	-48.1	18.8	0.00e+00	0	36	0	1131413504	65	4132
2026-01-18 08:43:04.26	340.19	20.31	-46.2	-47.6	19.3	0.00e+00	0	36	0	1133510656	64	4138
2026-01-18 08:43:05.27	340.10	20.18	-46.0	-47.4	19.6	0.00e+00	0	36	0	1135607808	63	4276
2026-01-18 08:43:06.28	340.01	20.06	-45.8	-47.2	19.7	0.00e+00	0	36	0	1137704960	63	4188
2026-01-18 08:43:07.28	339.93	19.94	-45.7	-47.1	19.9	0.00e+00	0	36	0	1139802112	63	4132
2026-01-18 08:43:08.29	339.84	19.81	-45.5	-46.9	20.1	0.00e+00	0	36	0	1140850688	63	4019
2026-01-18 08:43:09.30	339.76	19.69	-45.7	-47.0	19.9	0.00e+00	0	36	0	1142947840	62	4323
2026-01-18 08:43:10.31	339.67	19.57	-45.8	-47.1	19.8	0.00e+00	0	36	0	1145044992	62	4389
2026-01-18 08:43:11.31	339.59	19.45	-45.8	-47.2	19.8	0.00e+00	0	36	0	1147142144	62	4405
2026-01-18 08:43:12.32	339.51	19.33	-46.0	-47.5	19.5	0.00e+00	0	36	0	1149239296	62	4572
2026-01-18 08:43:13.32	339.42	19.21	-46.3	-47.8	19.2	0.00e+00	0	36	0	1150287872	63	4471
2026-01-18 08:43:14.33	339.34	19.09	-46.6	-48.2	18.9	0.00e+00	0	36	0	1152385024	63	4662
2026-01-18 08:43:15.34	339.26	18.97	-46.8	-48.4	18.5	0.00e+00	0	36	0	1154482176	64	4533
2026-01-18 08:43:16.34	339.18	18.85	-47.0	-48.8	18.2	0.00e+00	0	36	0	1156579328	64	4720
2026-01-18 08:43:17.35	339.10	18.73	-47.3	-49.1	17.8	0.00e+00	0	36	0	1158676480	65	4640
2026-01-18 08:43:18.36	339.02	18.62	-47.5	-49.5	17.5	0.00e+00	0	36	0	1159725056	65	4841
2026-01-18 08:43:19.36	338.95	18.50	-47.6	-49.6	17.3	0.00e+00	0	36	0	1161822208	65	4918
2026-01-18 08:43:20.37	338.87	18.38	-47.7	-49.8	17.2	0.00e+00	0	36	0	1163919360	66	4710
2026-01-18 08:43:21.38	338.79	18.27	-47.7	-49.8	17.2	0.00e+00	0	36	0	1166016512	66	4714
2026-01-18 08:43:22.39	338.72	18.15	-47.6	-49.6	17.4	0.00e+00	0	36	0	1168113664	66	4628
2026-01-18 08:43:23.40	338.64	18.03	-47.7	-49.7	17.3	0.00e+00	0	36	0	1169162240	66	4655
2026-01-18 08:43:24.41	338.56	17.92	-47.8	-49.8	17.2	0.00e+00	0	36	0	1171259392	66	4732
2026-01-18 08:43:25.41	338.49	17.81	-47.7	-49.7	17.3	0.00e+00	0	36	0	1173356544	66	4676
2026-01-18 08:43:26.42	338.42	17.69	-47.5	-49.5	17.4	0.00e+00	0	36	0	1175453696	66	4568
2026-01-18 08:43:27.43	338.34	17.58	-47.5	-49.4	17.5	0.00e+00	0	36	0	1177550848	66	4535
2026-01-18 08:43:28.44	338.27	17.47	-47.4	-49.3	17.7	0.00e+00	0	36	0	1179648000	66	4469
2026-01-18 08:43:29.45	338.20	17.35	-47.4	-49.3	17.6	0.00e+00	0	36	0	1180696576	66	4453
2026-01-18 08:43:30.45	338.13	17.24	-47.4	-49.3	17.6	0.00e+00	0	36	0	1182793728	66	4475
2026-01-18 08:43:31.46	338.06	17.13	-47.5	-49.5	17.4	0.00e+00	0	36	0	1184890880	66	4552
2026-01-18 08:43:32.47	337.99	17.02	-47.5	-49.5	17.4	0.00e+00	0	36	0	1186988032	66	4555
2026-01-18 08:43:33.48	337.92	16.91	-47.4	-49.4	17.5	0.00e+00	0	36	0	1188036608	66	4502
2026-01-18 08:43:34.49	337.85	16.80	-47.4	-49.3	17.6	0.00e+00	0	36	0	1190133760	66	4486
2026-01-18 08:43:35.49	337.78	16.69	-47.4	-49.3	17.5	0.00e+00	0	36	0	1192230912	66	4462
2026-01-18 08:43:36.50	337.71	16.58	-47.5	-49.4	17.5	0.00e+00	0	36	0	1194328064	66	4524
2026-01-18 08:43:37.51	337.64	16.47	-47.4	-49.4	17.5	0.00e+00	0	36	0	1196425216	66	4500
2026-01-18 08:43:38.52	337.57	16.36	-47.6	-49.6	17.3	0.00e+00	0	36	0	1197473792	66	4628
2026-01-18 08:43:39.53	337.51	16.25	-47.4	-49.4	17.5	0.00e+00	0	36	0	1199570944	66	4522
2026-01-18 08:43:40.54	337.44	16.15	-47.5	-49.5	17.4	0.00e+00	0	36	0	1201668096	66	4552
2026-01-18 08:43:41.54	337.37	16.04	-47.5	-49.5	17.4	0.00e+00	0	36	0	1203765248	66	4549
2026-01-18 08:43:42.55	337.31	15.93	-47.6	-49.6	17.3	0.00e+00	0	36	0	1205862400	66	4617
2026-01-18 08:43:43.56	337.24	15.83	-47.3	-49.2	17.7	0.00e+00	0	36	0	1207959552	66	4397
2026-01-18 08:43:44.57	337.18	15.72	-47.5	-49.5	17.3	0.00e+00	0	36	0	1209008128	66	4584
2026-01-18 08:43:45.57	337.12	15.62	-47.6	-49.6	17.2	0.00e+00	0	36	0	1211105280	66	4639
2026-01-18 08:43:46.58	337.05	15.51	-47.5	-49.4	17.5	0.00e+00	0	36	0	1213202432	66	4523
2026-01-18 08:43:47.59	336.99	15.41	-47.6	-49.5	17.3	0.00e+00	0	36	0	1215299584	66	4598
2026-01-18 08:43:48.59	336.93	15.30	-47.5	-49.5	17.4	0.00e+00	0	36	0	1216348160	66	4559
2026-01-18 08:43:49.60	336.87	15.20	-47.2	-49.1	17.7	0.00e+00	0	36	0	1218445312	66	4341
2026-01-18 08:43:50.61	336.80	15.10	-47.4	-49.4	17.5	0.00e+00	0	36	0	1220542464	66	4515
2026-01-18 08:43:51.62	336.74	14.99	-47.5	-49.4	17.5	0.00e+00	0	36	0	1222639616	66	4538
2026-01-18 08:43:52.63	336.68	14.89	-47.2	-49.0	17.8	0.00e+00	0	36	0	1224736768	66	4336
2026-01-18 08:43:53.63	336.62	14.79	-47.2	-49.1	17.7	0.00e+00	0	36	0	1226833920	66	4380
2026-01-18 08:43:54.64	336.56	14.69	-47.2	-49.0	17.8	0.00e+00	0	36	0	1227882496	66	4337
2026-01-18 08:43:55.65	336.50	14.59	-47.0	-48.8	17.9	0.00e+00	0	36	0	1229979648	66	4238
2026-01-18 08:43:56.66	336.44	14.49	-46.9	-48.7	18.0	0.00e+00	0	36	0	1232076800	65	4435
2026-01-18 08:43:57.67	336.39	14.39	-47.0	-48.8	17.9	0.00e+00	0	36	0	1234173952	65	4487
2026-01-18 08:43:58.68	336.33	14.28	-46.9	-48.7	18.1	0.00e+00	0	36	0	1236271104	65	4408
2026-01-18 08:43:59.69	336.27	14.19	-47.1	-49.0	17.8	0.00e+00	0	36	0	1237319680	65	4559
2026-01-18 08:44:00.70	336.21	14.09	-47.1	-48.9	17.8	0.00e+00	0	36	0	1239416832	65	4531
2026-01-18 08:44:01.71	336.16	13.99	-47.0	-48.9	17.8	0.00e+00	0	36	0	1241513984	65	4505
