passes_logs/2026/01/18/R3.2S_Murmansk/R3.2S_Murmansk__20260118_223622_NOAA_20_JPSS-1_rec.log

#Pass ID: 20260118_223622_NOAA 20 (JPSS-1)
#Satellite: NOAA 20 (JPSS-1)
#Configuration: NOAA 20
#almurnet v.1.7.20251203
#Start time: 2026-01-18 22:36:24

#Version: 2.2.20231116
#Station: R3.2S_Murmansk
#Location: 33.079688 lon 68.888172 lat
#TLE: 1 43013U 17073A   26018.57232797  .00000065  00000+0  51758-4 0  9998
#TLE: 2 43013  98.7640 319.4740 0001368  34.2083 325.9181 14.19536753423241

#Time	Az	El	Level	Level2	SNR	BER	BlckErr	Temp	State	Recorded	gain1	gain2
2026-01-18 22:36:24.33	19.27	2.12	-52.1	-67.0	3.8	1.49e+00	0	35	0	0	74	21642
2026-01-18 22:36:25.33	19.33	2.17	-52.1	-67.0	3.8	1.49e+00	0	35	104	0	74	21722
2026-01-18 22:36:26.34	19.39	2.23	-52.1	-67.0	3.8	1.49e+00	0	35	104	0	74	21677
2026-01-18 22:36:27.35	19.46	2.29	-52.1	-67.0	3.8	1.49e+00	0	35	104	0	74	21631
2026-01-18 22:36:28.35	19.52	2.35	-52.1	-67.0	3.8	1.49e+00	0	35	104	0	74	21668
2026-01-18 22:36:29.36	19.59	2.40	-52.1	-67.0	3.8	1.49e+00	0	35	104	0	74	21600
2026-01-18 22:36:30.37	19.65	2.46	-52.1	-67.0	3.8	1.49e+00	0	35	104	0	74	21552
2026-01-18 22:36:31.38	19.72	2.52	-52.1	-66.9	3.8	1.49e+00	0	35	104	0	74	21456
2026-01-18 22:36:32.39	19.78	2.58	-52.0	-66.9	3.8	1.49e+00	0	35	104	0	74	21286
2026-01-18 22:36:33.39	19.85	2.64	-52.1	-66.9	3.8	1.49e+00	0	35	104	0	74	21434
2026-01-18 22:36:34.40	19.91	2.69	-52.1	-66.9	3.8	1.49e+00	0	35	104	0	74	21394
2026-01-18 22:36:35.41	19.98	2.75	-52.1	-66.9	3.8	1.49e+00	0	35	104	0	74	21396
2026-01-18 22:36:36.42	20.04	2.81	-52.1	-67.0	3.8	1.49e+00	0	35	104	0	74	21559
2026-01-18 22:36:37.43	20.11	2.87	-52.0	-67.0	3.8	1.49e+00	0	35	104	0	74	21663
2026-01-18 22:36:38.43	20.18	2.93	-52.1	-67.0	3.8	1.49e+00	0	35	104	0	74	21742
2026-01-18 22:36:39.44	20.24	2.99	-52.1	-67.0	3.8	1.49e+00	0	35	104	0	74	21595
2026-01-18 22:36:40.45	20.31	3.05	-52.1	-66.9	3.8	1.49e+00	0	35	104	0	74	21349
2026-01-18 22:36:41.46	20.38	3.10	-52.0	-66.8	3.8	1.49e+00	0	35	104	0	74	21070
2026-01-18 22:36:42.47	20.44	3.16	-52.0	-66.6	3.8	1.49e+00	0	35	104	0	74	20685
2026-01-18 22:36:43.47	20.51	3.22	-52.0	-66.5	3.8	1.49e+00	0	35	104	0	74	20512
2026-01-18 22:36:44.48	20.58	3.28	-52.0	-66.4	3.8	1.49e+00	0	35	104	0	74	20231
2026-01-18 22:36:45.49	20.65	3.34	-52.0	-66.4	3.8	1.49e+00	0	35	104	0	74	20161
2026-01-18 22:36:46.49	20.72	3.40	-52.0	-66.4	3.8	1.49e+00	0	35	104	0	74	20262
2026-01-18 22:36:47.50	20.78	3.46	-52.0	-66.5	3.8	1.49e+00	0	35	104	0	74	20510
2026-01-18 22:36:48.51	20.85	3.52	-52.0	-66.5	3.8	1.49e+00	0	35	104	0	74	20455
2026-01-18 22:36:49.52	20.92	3.58	-52.0	-66.4	3.8	1.49e+00	0	35	104	0	74	20143
2026-01-18 22:36:50.53	20.99	3.64	-52.0	-66.3	3.8	1.49e+00	0	35	104	0	74	19953
2026-01-18 22:36:51.53	21.06	3.70	-52.0	-66.0	3.8	1.49e+00	0	35	104	0	74	19227
2026-01-18 22:36:52.54	21.13	3.76	-52.0	-65.6	3.8	1.49e+00	0	35	104	0	74	18408
2026-01-18 22:36:53.55	21.20	3.82	-52.0	-65.4	3.8	1.49e+00	0	35	104	0	74	17955
2026-01-18 22:36:54.56	21.27	3.88	-51.9	-65.1	3.8	1.49e+00	0	35	104	0	74	17335
2026-01-18 22:36:55.57	21.34	3.94	-51.9	-64.9	3.9	1.48e+00	0	35	104	0	74	17049
2026-01-18 22:36:56.57	21.41	4.00	-52.0	-65.1	3.9	1.49e+00	0	35	104	0	74	17405
2026-01-18 22:36:57.58	21.49	4.06	-52.0	-65.2	3.8	1.49e+00	0	35	104	0	74	17682
2026-01-18 22:36:58.59	21.56	4.12	-52.0	-65.3	3.8	1.49e+00	0	35	104	0	74	17832
2026-01-18 22:36:59.60	21.63	4.18	-52.0	-65.0	3.8	1.49e+00	0	35	104	0	74	17193
2026-01-18 22:37:00.61	21.70	4.24	-51.9	-63.9	4.1	1.47e+00	0	35	104	0	74	15090
2026-01-18 22:37:01.61	21.77	4.30	-51.8	-62.6	4.5	1.37e+00	70	36	0	0	74	13032
2026-01-18 22:37:02.62	21.85	4.36	-51.6	-61.2	5.1	7.46e-01	0	35	0	2097152	74	11095
2026-01-18 22:37:03.63	21.92	4.42	-51.4	-59.6	6.2	4.34e-01	0	36	0	4194304	73	9791
2026-01-18 22:37:04.63	21.99	4.49	-51.3	-58.8	7.0	1.77e-01	0	36	0	6291456	73	8882
2026-01-18 22:37:05.64	22.07	4.55	-50.9	-57.7	8.0	9.09e-02	0	36	0	7340032	72	8330
2026-01-18 22:37:06.65	22.14	4.61	-50.9	-57.3	8.4	4.67e-02	0	36	0	9437184	72	7934
2026-01-18 22:37:07.66	22.21	4.67	-50.7	-56.6	9.1	3.39e-02	0	35	0	11534336	72	7295
2026-01-18 22:37:08.67	22.29	4.73	-50.7	-56.5	9.2	2.47e-02	0	36	0	13631488	72	7248
2026-01-18 22:37:09.67	22.36	4.79	-50.8	-56.8	8.9	2.38e-02	0	36	0	14680064	72	7512
2026-01-18 22:37:10.68	22.44	4.85	-50.9	-57.1	8.6	2.46e-02	0	36	0	16777216	72	7760
2026-01-18 22:37:11.69	22.51	4.92	-50.8	-56.9	8.9	3.10e-02	0	36	0	18874368	72	7577
2026-01-18 22:37:12.69	22.59	4.98	-51.0	-57.5	8.2	4.58e-02	0	36	0	20971520	72	8176
2026-01-18 22:37:13.70	22.66	5.04	-51.1	-57.9	7.9	5.81e-02	0	36	0	23068672	72	8466
2026-01-18 22:37:14.71	22.74	5.10	-51.6	-61.3	5.2	1.06e-01	0	36	0	24117248	73	11858
2026-01-18 22:37:15.71	22.82	5.16	-51.7	-62.3	4.6	9.74e-01	0	35	0	26214400	74	12612
2026-01-18 22:37:16.72	22.89	5.23	-50.2	-54.8	10.8	8.23e-01	0	36	0	27262976	72	5939
2026-01-18 22:37:17.73	22.97	5.29	-48.1	-50.6	15.6	9.10e-06	0	36	0	29360128	68	4620
2026-01-18 22:37:18.74	23.05	5.35	-50.8	-56.4	9.7	2.50e-04	0	36	0	31457280	72	7196
2026-01-18 22:37:19.75	23.13	5.42	-48.2	-50.7	15.5	2.37e-02	0	36	0	33554432	68	4661
2026-01-18 22:37:20.75	23.20	5.48	-47.9	-50.2	15.9	0.00e+00	0	36	0	35651584	66	4974
2026-01-18 22:37:21.76	23.28	5.54	-48.0	-50.5	15.8	0.00e+00	0	36	0	37748736	66	5101
2026-01-18 22:37:22.77	23.36	5.60	-47.8	-50.1	16.1	0.00e+00	0	36	0	38797312	66	4900
2026-01-18 22:37:23.78	23.44	5.67	-47.9	-50.4	15.8	0.00e+00	0	36	0	40894464	66	5045
2026-01-18 22:37:24.78	23.52	5.73	-48.1	-50.6	15.7	0.00e+00	0	36	0	42991616	66	5166
2026-01-18 22:37:25.79	23.60	5.79	-48.1	-50.6	15.7	0.00e+00	0	36	0	45088768	66	5162
2026-01-18 22:37:26.80	23.68	5.86	-47.9	-50.4	15.9	0.00e+00	0	35	0	46137344	66	5048
2026-01-18 22:37:27.81	23.76	5.92	-47.9	-50.3	16.0	0.00e+00	0	36	0	48234496	66	4998
2026-01-18 22:37:28.82	23.84	5.98	-47.7	-49.9	16.4	0.00e+00	0	36	0	50331648	66	4799
2026-01-18 22:37:29.82	23.92	6.05	-48.0	-50.5	15.7	0.00e+00	0	36	0	52428800	66	5124
2026-01-18 22:37:30.83	24.00	6.11	-47.9	-50.2	16.0	0.00e+00	0	36	0	54525952	66	4981
2026-01-18 22:37:31.84	24.08	6.18	-47.9	-50.3	15.9	0.00e+00	0	36	0	56623104	66	5024
2026-01-18 22:37:32.85	24.16	6.24	-47.9	-50.3	16.0	0.00e+00	0	36	0	57671680	66	5011
2026-01-18 22:37:33.85	24.25	6.30	-48.0	-50.4	15.9	0.00e+00	0	36	0	59768832	66	5075
2026-01-18 22:37:34.86	24.33	6.37	-48.0	-50.4	15.9	0.00e+00	0	36	0	61865984	66	5073
2026-01-18 22:37:35.87	24.41	6.43	-47.8	-50.2	16.1	0.00e+00	0	36	0	63963136	66	4950
2026-01-18 22:37:36.87	24.49	6.50	-47.9	-50.2	16.1	0.00e+00	0	35	0	66060288	66	4970
2026-01-18 22:37:37.88	24.58	6.56	-47.7	-49.9	16.4	0.00e+00	0	36	0	67108864	66	4811
2026-01-18 22:37:38.89	24.66	6.63	-47.9	-50.2	16.1	0.00e+00	0	36	0	69206016	66	4965
2026-01-18 22:37:39.90	24.75	6.69	-47.7	-49.9	16.4	0.00e+00	0	36	0	71303168	66	4802
2026-01-18 22:37:40.91	24.83	6.76	-47.8	-50.1	16.2	0.00e+00	0	36	0	73400320	66	4915
2026-01-18 22:37:41.92	24.92	6.82	-47.8	-50.1	16.3	0.00e+00	0	36	0	74448896	66	4875
2026-01-18 22:37:42.92	25.00	6.89	-47.8	-50.1	16.3	0.00e+00	0	36	0	76546048	66	4914
2026-01-18 22:37:43.93	25.09	6.95	-47.7	-50.0	16.4	0.00e+00	0	36	0	78643200	66	4844
2026-01-18 22:37:44.94	25.17	7.02	-47.7	-49.9	16.5	0.00e+00	0	36	0	80740352	66	4766
2026-01-18 22:37:45.95	25.26	7.09	-47.7	-50.0	16.4	0.00e+00	0	36	0	82837504	66	4841
2026-01-18 22:37:46.96	25.35	7.15	-47.8	-50.0	16.4	0.00e+00	0	36	0	84934656	66	4856
2026-01-18 22:37:47.96	25.43	7.22	-47.6	-49.8	16.5	0.00e+00	0	36	0	85983232	66	4759
2026-01-18 22:37:48.97	25.52	7.28	-47.8	-50.1	16.4	0.00e+00	0	36	0	88080384	66	4881
2026-01-18 22:37:49.98	25.61	7.35	-47.7	-50.0	16.5	0.00e+00	0	36	0	90177536	66	4817
2026-01-18 22:37:50.99	25.70	7.42	-47.6	-49.8	16.6	0.00e+00	0	36	0	92274688	66	4739
2026-01-18 22:37:51.99	25.79	7.48	-47.6	-49.7	16.7	0.00e+00	0	36	0	94371840	66	4684
2026-01-18 22:37:53.00	25.88	7.55	-47.5	-49.6	16.8	0.00e+00	0	36	0	95420416	66	4617
2026-01-18 22:37:54.01	25.97	7.61	-47.5	-49.6	16.8	0.00e+00	0	36	0	97517568	66	4621
2026-01-18 22:37:55.01	26.06	7.68	-47.3	-49.4	17.0	0.00e+00	0	36	0	99614720	66	4505
2026-01-18 22:37:56.02	26.15	7.75	-47.4	-49.5	17.0	0.00e+00	0	36	0	101711872	66	4564
2026-01-18 22:37:57.03	26.24	7.82	-47.4	-49.4	17.0	0.00e+00	0	36	0	102760448	66	4521
2026-01-18 22:37:58.04	26.33	7.88	-47.3	-49.3	17.1	0.00e+00	0	36	0	104857600	66	4481
2026-01-18 22:37:59.05	26.42	7.95	-47.4	-49.5	16.9	0.00e+00	0	36	0	106954752	66	4578
2026-01-18 22:38:00.05	26.51	8.02	-47.4	-49.4	17.0	0.00e+00	0	36	0	109051904	66	4543
2026-01-18 22:38:01.06	26.60	8.08	-47.3	-49.2	17.2	0.00e+00	0	36	0	111149056	66	4438
2026-01-18 22:38:02.07	26.70	8.15	-47.1	-49.1	17.4	0.00e+00	0	36	0	113246208	66	4360
2026-01-18 22:38:03.07	26.79	8.22	-47.2	-49.1	17.3	0.00e+00	0	36	0	114294784	66	4385
2026-01-18 22:38:04.08	26.88	8.29	-47.0	-48.9	17.5	0.00e+00	0	36	0	116391936	66	4288
2026-01-18 22:38:05.09	26.98	8.36	-47.3	-49.3	17.1	0.00e+00	0	36	0	118489088	66	4486
2026-01-18 22:38:06.10	27.07	8.42	-47.2	-49.2	17.2	0.00e+00	0	36	0	120586240	66	4427
2026-01-18 22:38:07.11	27.17	8.49	-47.4	-49.4	17.1	0.00e+00	0	36	0	122683392	66	4533
2026-01-18 22:38:08.12	27.26	8.56	-47.2	-49.2	17.3	0.00e+00	0	36	0	123731968	66	4395
2026-01-18 22:38:09.12	27.36	8.63	-47.3	-49.3	17.2	0.00e+00	0	36	0	125829120	66	4480
2026-01-18 22:38:10.13	27.45	8.70	-47.3	-49.3	17.2	0.00e+00	0	36	0	127926272	66	4472
2026-01-18 22:38:11.14	27.55	8.77	-47.5	-49.5	17.0	0.00e+00	0	36	0	130023424	66	4576
2026-01-18 22:38:12.15	27.65	8.83	-47.4	-49.5	17.0	0.00e+00	0	36	0	132120576	66	4575
2026-01-18 22:38:13.15	27.74	8.90	-47.5	-49.5	17.0	0.00e+00	0	36	0	133169152	66	4592
2026-01-18 22:38:14.16	27.84	8.97	-47.5	-49.5	17.0	0.00e+00	0	36	0	135266304	66	4577
2026-01-18 22:38:15.17	27.94	9.04	-47.5	-49.5	17.0	0.00e+00	0	36	0	137363456	66	4589
2026-01-18 22:38:16.18	28.04	9.11	-47.4	-49.5	17.1	0.00e+00	0	36	0	139460608	66	4567
2026-01-18 22:38:17.19	28.14	9.18	-47.5	-49.5	17.1	0.00e+00	0	36	0	141557760	66	4573
2026-01-18 22:38:18.20	28.24	9.25	-47.5	-49.5	17.0	0.00e+00	0	36	0	142606336	66	4589
2026-01-18 22:38:19.20	28.34	9.32	-47.4	-49.4	17.1	0.00e+00	0	36	0	144703488	66	4535
2026-01-18 22:38:20.21	28.44	9.39	-47.5	-49.5	17.0	0.00e+00	0	36	0	146800640	66	4574
2026-01-18 22:38:21.22	28.54	9.46	-47.4	-49.5	17.1	0.00e+00	0	36	0	148897792	66	4547
2026-01-18 22:38:22.23	28.64	9.53	-47.3	-49.3	17.3	0.00e+00	0	36	0	150994944	66	4444
2026-01-18 22:38:23.23	28.74	9.60	-47.2	-49.2	17.4	0.00e+00	0	36	0	153092096	66	4398
2026-01-18 22:38:24.24	28.84	9.67	-47.2	-49.1	17.5	0.00e+00	0	36	0	154140672	66	4371
2026-01-18 22:38:25.25	28.95	9.74	-47.1	-49.0	17.6	0.00e+00	0	36	0	156237824	66	4301
2026-01-18 22:38:26.26	29.05	9.81	-47.1	-48.9	17.6	0.00e+00	0	36	0	158334976	65	4542
2026-01-18 22:38:27.27	29.15	9.88	-47.0	-48.8	17.7	0.00e+00	0	36	0	160432128	65	4489
2026-01-18 22:38:28.28	29.26	9.95	-47.1	-48.9	17.6	0.00e+00	0	36	0	161480704	65	4540
2026-01-18 22:38:29.28	29.36	10.02	-47.0	-48.9	17.7	0.00e+00	0	36	0	163577856	65	4503
2026-01-18 22:38:30.29	29.47	10.09	-46.9	-48.7	17.9	0.00e+00	0	36	0	165675008	65	4414
2026-01-18 22:38:31.30	29.57	10.16	-46.9	-48.8	17.9	0.00e+00	0	36	0	167772160	65	4447
2026-01-18 22:38:32.30	29.68	10.23	-46.9	-48.7	17.9	0.00e+00	0	36	0	169869312	65	4414
2026-01-18 22:38:33.31	29.79	10.31	-46.9	-48.7	17.9	0.00e+00	0	36	0	170917888	65	4431
2026-01-18 22:38:34.32	29.89	10.38	-46.8	-48.6	18.1	0.00e+00	0	36	0	173015040	65	4342
2026-01-18 22:38:35.32	30.00	10.45	-46.7	-48.5	18.1	0.00e+00	0	36	0	175112192	65	4315
2026-01-18 22:38:36.33	30.11	10.52	-46.8	-48.6	18.0	0.00e+00	0	36	0	177209344	65	4347
2026-01-18 22:38:37.34	30.22	10.59	-46.9	-48.7	18.0	0.00e+00	0	36	0	179306496	65	4393
2026-01-18 22:38:38.35	30.33	10.66	-46.9	-48.7	17.9	0.00e+00	0	36	0	181403648	65	4425
2026-01-18 22:38:39.35	30.44	10.74	-46.9	-48.7	18.0	0.00e+00	0	36	0	182452224	65	4412
2026-01-18 22:38:40.36	30.55	10.81	-46.9	-48.7	17.9	0.00e+00	0	36	0	184549376	65	4436
2026-01-18 22:38:41.37	30.66	10.88	-46.9	-48.7	17.9	0.00e+00	0	36	0	186646528	65	4441
2026-01-18 22:38:42.38	30.77	10.95	-46.8	-48.6	18.1	0.00e+00	0	36	0	188743680	65	4345
2026-01-18 22:38:43.38	30.88	11.03	-46.8	-48.6	18.1	0.00e+00	0	36	0	189792256	65	4379
2026-01-18 22:38:44.39	30.99	11.10	-46.8	-48.6	18.1	0.00e+00	0	36	0	191889408	65	4353
2026-01-18 22:38:45.40	31.10	11.17	-46.8	-48.6	18.1	0.00e+00	0	36	0	193986560	65	4345
2026-01-18 22:38:46.41	31.22	11.24	-46.6	-48.3	18.4	0.00e+00	0	36	0	196083712	65	4226
2026-01-18 22:38:47.42	31.33	11.32	-46.7	-48.5	18.2	0.00e+00	0	36	0	198180864	65	4300
2026-01-18 22:38:48.42	31.45	11.39	-46.6	-48.3	18.4	0.00e+00	0	36	0	199229440	65	4214
2026-01-18 22:38:49.43	31.56	11.46	-46.8	-48.5	18.2	0.00e+00	0	36	0	201326592	65	4335
2026-01-18 22:38:50.44	31.68	11.54	-46.7	-48.5	18.2	0.00e+00	0	36	0	203423744	65	4309
2026-01-18 22:38:51.45	31.79	11.61	-46.7	-48.4	18.3	0.00e+00	0	36	0	205520896	65	4266
2026-01-18 22:38:52.46	31.91	11.69	-46.8	-48.5	18.2	0.00e+00	0	36	0	207618048	65	4323
2026-01-18 22:38:53.46	32.03	11.76	-46.8	-48.6	18.1	0.00e+00	0	36	0	209715200	65	4367
2026-01-18 22:38:54.47	32.14	11.83	-46.9	-48.6	18.0	0.00e+00	0	36	0	210763776	65	4384
2026-01-18 22:38:55.48	32.26	11.91	-46.9	-48.7	18.1	0.00e+00	0	36	0	212860928	65	4395
2026-01-18 22:38:56.49	32.38	11.98	-47.1	-48.9	17.9	0.00e+00	0	36	0	214958080	65	4507
2026-01-18 22:38:57.49	32.50	12.05	-47.0	-48.8	18.0	0.00e+00	0	36	0	217055232	65	4465
2026-01-18 22:38:58.50	32.62	12.13	-47.1	-48.9	17.8	0.00e+00	0	36	0	218103808	65	4525
2026-01-18 22:38:59.51	32.74	12.20	-47.1	-48.9	17.9	0.00e+00	0	36	0	220200960	65	4525
2026-01-18 22:39:00.51	32.86	12.28	-47.1	-49.0	17.8	0.00e+00	0	36	0	222298112	65	4561
2026-01-18 22:39:01.52	32.98	12.35	-47.0	-48.9	17.9	0.00e+00	0	36	0	224395264	65	4499
2026-01-18 22:39:02.53	33.11	12.43	-47.0	-48.7	18.1	0.00e+00	0	36	0	226492416	65	4434
2026-01-18 22:39:03.54	33.23	12.50	-46.9	-48.7	18.1	0.00e+00	0	36	0	228589568	65	4425
2026-01-18 22:39:04.55	33.35	12.58	-46.9	-48.7	18.1	0.00e+00	0	36	0	229638144	65	4408
2026-01-18 22:39:05.56	33.48	12.65	-46.7	-48.4	18.4	0.00e+00	0	36	0	231735296	65	4263
2026-01-18 22:39:06.56	33.60	12.73	-46.9	-48.6	18.3	0.00e+00	0	36	0	233832448	65	4352
2026-01-18 22:39:07.57	33.73	12.80	-46.8	-48.5	18.3	0.00e+00	0	36	0	235929600	65	4328
2026-01-18 22:39:08.58	33.85	12.88	-46.5	-48.2	18.6	0.00e+00	0	36	0	238026752	65	4158
2026-01-18 22:39:09.59	33.98	12.96	-46.6	-48.3	18.5	0.00e+00	0	36	0	239075328	65	4223
2026-01-18 22:39:10.59	34.11	13.03	-46.6	-48.2	18.6	0.00e+00	0	36	0	241172480	65	4167
2026-01-18 22:39:11.60	34.24	13.11	-46.6	-48.3	18.6	0.00e+00	0	36	0	243269632	65	4215
2026-01-18 22:39:12.61	34.36	13.18	-46.6	-48.3	18.6	0.00e+00	0	36	0	245366784	65	4213
2026-01-18 22:39:13.62	34.49	13.26	-46.6	-48.2	18.6	0.00e+00	0	36	0	246415360	65	4177
2026-01-18 22:39:14.62	34.62	13.33	-46.7	-48.3	18.5	0.00e+00	0	36	0	248512512	65	4238
2026-01-18 22:39:15.63	34.75	13.41	-46.6	-48.2	18.6	0.00e+00	0	36	0	250609664	65	4161
2026-01-18 22:39:16.64	34.88	13.49	-46.5	-48.1	18.7	0.00e+00	0	36	0	252706816	65	4141
2026-01-18 22:39:17.65	35.02	13.56	-46.5	-48.1	18.8	0.00e+00	0	36	0	254803968	64	4349
2026-01-18 22:39:18.65	35.15	13.64	-46.5	-48.1	18.7	0.00e+00	0	36	0	256901120	64	4376
2026-01-18 22:39:19.66	35.28	13.72	-46.4	-48.0	18.8	0.00e+00	0	36	0	257949696	64	4328
2026-01-18 22:39:20.67	35.42	13.79	-46.6	-48.2	18.7	0.00e+00	0	36	0	260046848	64	4425
2026-01-18 22:39:21.68	35.55	13.87	-46.6	-48.2	18.7	0.00e+00	0	36	0	262144000	64	4419
2026-01-18 22:39:22.69	35.69	13.95	-46.6	-48.2	18.7	0.00e+00	0	36	0	264241152	64	4421
2026-01-18 22:39:23.70	35.82	14.03	-46.5	-48.1	18.7	0.00e+00	0	36	0	266338304	64	4377
2026-01-18 22:39:24.70	35.96	14.10	-46.6	-48.3	18.6	0.00e+00	0	36	0	267386880	64	4451
2026-01-18 22:39:25.70	36.09	14.18	-46.6	-48.3	18.6	0.00e+00	0	36	0	269484032	64	4447
2026-01-18 22:39:26.71	36.23	14.26	-46.6	-48.2	18.6	0.00e+00	0	36	0	271581184	64	4425
2026-01-18 22:39:27.72	36.37	14.33	-46.6	-48.2	18.7	0.00e+00	0	36	0	273678336	64	4410
2026-01-18 22:39:28.73	36.51	14.41	-46.4	-48.0	18.9	0.00e+00	0	36	0	274726912	64	4314
2026-01-18 22:39:29.73	36.65	14.49	-46.6	-48.2	18.7	0.00e+00	0	36	0	276824064	64	4404
2026-01-18 22:39:30.74	36.79	14.57	-46.6	-48.2	18.8	0.00e+00	0	36	0	278921216	64	4425
2026-01-18 22:39:31.75	36.93	14.64	-46.4	-47.9	19.0	0.00e+00	0	36	0	281018368	64	4282
2026-01-18 22:39:32.76	37.07	14.72	-46.4	-48.0	18.9	0.00e+00	0	36	0	283115520	64	4332
2026-01-18 22:39:33.77	37.22	14.80	-46.4	-48.0	18.8	0.00e+00	0	36	0	285212672	64	4336
2026-01-18 22:39:34.78	37.36	14.88	-46.5	-48.1	18.9	0.00e+00	0	36	0	286261248	64	4342
2026-01-18 22:39:35.78	37.50	14.96	-46.4	-48.0	18.9	0.00e+00	0	36	0	288358400	64	4329
2026-01-18 22:39:36.79	37.65	15.04	-46.4	-47.9	19.0	0.00e+00	0	36	0	290455552	64	4290
2026-01-18 22:39:37.80	37.79	15.11	-46.5	-48.1	18.8	0.00e+00	0	36	0	292552704	64	4364
2026-01-18 22:39:38.81	37.94	15.19	-46.4	-47.9	19.0	0.00e+00	0	36	0	294649856	64	4286
2026-01-18 22:39:39.81	38.09	15.27	-46.3	-47.9	19.0	0.00e+00	0	36	0	295698432	64	4273
2026-01-18 22:39:40.82	38.24	15.35	-46.3	-47.8	19.1	0.00e+00	0	36	0	297795584	64	4223
2026-01-18 22:39:41.83	38.38	15.43	-46.2	-47.8	19.1	0.00e+00	0	36	0	299892736	64	4207
2026-01-18 22:39:42.83	38.53	15.51	-46.2	-47.7	19.2	0.00e+00	0	36	0	301989888	64	4176
2026-01-18 22:39:43.84	38.68	15.59	-46.2	-47.7	19.2	0.00e+00	0	36	0	304087040	64	4187
2026-01-18 22:39:44.85	38.84	15.67	-46.2	-47.7	19.2	0.00e+00	0	36	0	305135616	64	4188
2026-01-18 22:39:45.86	38.99	15.74	-46.2	-47.7	19.2	0.00e+00	0	36	0	307232768	64	4162
2026-01-18 22:39:46.87	39.14	15.82	-46.2	-47.7	19.2	0.00e+00	0	36	0	309329920	64	4184
2026-01-18 22:39:47.87	39.29	15.90	-46.2	-47.7	19.2	0.00e+00	0	36	0	311427072	64	4158
2026-01-18 22:39:48.88	39.45	15.98	-46.4	-47.9	19.0	0.00e+00	0	36	0	313524224	64	4279
2026-01-18 22:39:49.89	39.60	16.06	-46.4	-47.9	19.0	0.00e+00	0	36	0	314572800	63	4541
2026-01-18 22:39:50.90	39.76	16.14	-46.3	-47.9	19.1	0.00e+00	0	36	0	316669952	63	4510
2026-01-18 22:39:51.90	39.91	16.22	-46.4	-48.0	19.1	0.00e+00	0	36	0	318767104	63	4563
2026-01-18 22:39:52.91	40.07	16.30	-46.3	-47.8	19.2	0.00e+00	0	36	0	320864256	63	4467
2026-01-18 22:39:53.92	40.23	16.38	-46.3	-47.8	19.2	0.00e+00	0	36	0	322961408	63	4452
2026-01-18 22:39:54.93	40.39	16.46	-46.2	-47.7	19.3	0.00e+00	0	36	0	324009984	63	4418
2026-01-18 22:39:55.94	40.55	16.54	-46.2	-47.6	19.4	0.00e+00	0	36	0	326107136	63	4389
2026-01-18 22:39:56.94	40.71	16.62	-46.0	-47.5	19.5	0.00e+00	0	36	0	328204288	63	4293
2026-01-18 22:39:57.95	40.87	16.70	-45.9	-47.3	19.7	0.00e+00	0	36	0	330301440	63	4226
2026-01-18 22:39:58.96	41.03	16.78	-45.9	-47.4	19.7	0.00e+00	0	36	0	332398592	63	4256
2026-01-18 22:39:59.97	41.20	16.86	-45.9	-47.3	19.7	0.00e+00	0	36	0	333447168	63	4198
2026-01-18 22:40:00.97	41.36	16.94	-45.8	-47.2	19.8	0.00e+00	0	36	0	335544320	63	4190
2026-01-18 22:40:01.98	41.52	17.02	-45.9	-47.3	19.7	0.00e+00	0	36	0	337641472	63	4223
2026-01-18 22:40:02.99	41.69	17.10	-46.0	-47.5	19.5	0.00e+00	0	36	0	339738624	63	4298
2026-01-18 22:40:04.00	41.86	17.18	-45.9	-47.4	19.7	0.00e+00	0	36	0	341835776	63	4247
2026-01-18 22:40:05.00	42.02	17.26	-45.9	-47.3	19.7	0.00e+00	0	36	0	342884352	63	4233
2026-01-18 22:40:06.01	42.19	17.34	-46.0	-47.4	19.6	0.00e+00	0	36	0	344981504	63	4272
2026-01-18 22:40:07.02	42.36	17.42	-46.0	-47.4	19.6	0.00e+00	0	36	0	347078656	63	4270
2026-01-18 22:40:08.03	42.53	17.50	-46.0	-47.4	19.6	0.00e+00	0	36	0	349175808	63	4273
2026-01-18 22:40:09.03	42.70	17.58	-46.0	-47.5	19.5	0.00e+00	0	36	0	351272960	63	4318
2026-01-18 22:40:10.04	42.87	17.66	-46.1	-47.5	19.5	0.00e+00	0	36	0	352321536	63	4324
2026-01-18 22:40:11.05	43.04	17.74	-46.0	-47.4	19.6	0.00e+00	0	36	0	354418688	63	4291
2026-01-18 22:40:12.06	43.22	17.82	-46.0	-47.4	19.7	0.00e+00	0	36	0	356515840	63	4281
2026-01-18 22:40:13.07	43.39	17.90	-45.9	-47.3	19.7	0.00e+00	0	36	0	358612992	63	4242
2026-01-18 22:40:14.07	43.57	17.98	-46.0	-47.4	19.6	0.00e+00	0	36	0	360710144	63	4257
2026-01-18 22:40:15.08	43.74	18.06	-46.1	-47.5	19.6	0.00e+00	0	36	0	361758720	63	4333
2026-01-18 22:40:16.09	43.92	18.14	-46.1	-47.6	19.4	0.00e+00	0	36	0	363855872	63	4369
2026-01-18 22:40:17.10	44.10	18.22	-46.2	-47.7	19.4	0.00e+00	0	36	0	365953024	63	4437
2026-01-18 22:40:18.11	44.28	18.30	-46.4	-47.9	19.1	0.00e+00	0	36	0	368050176	63	4537
2026-01-18 22:40:19.11	44.46	18.38	-46.4	-48.0	19.2	0.00e+00	0	36	0	370147328	63	4569
2026-01-18 22:40:20.12	44.64	18.46	-46.3	-47.8	19.3	0.00e+00	0	36	0	371195904	63	4478
2026-01-18 22:40:21.13	44.82	18.54	-46.2	-47.7	19.5	0.00e+00	0	36	0	373293056	63	4401
2026-01-18 22:40:22.14	45.00	18.62	-46.2	-47.6	19.4	0.00e+00	0	36	0	375390208	63	4381
2026-01-18 22:40:23.14	45.19	18.70	-46.1	-47.5	19.6	0.00e+00	0	36	0	377487360	63	4334
2026-01-18 22:40:24.15	45.37	18.78	-46.0	-47.5	19.7	0.00e+00	0	36	0	379584512	63	4293
2026-01-18 22:40:25.16	45.56	18.86	-45.9	-47.3	19.8	0.00e+00	0	36	0	380633088	63	4226
2026-01-18 22:40:26.17	45.74	18.94	-45.9	-47.3	19.7	0.00e+00	0	36	0	382730240	63	4215
2026-01-18 22:40:27.17	45.93	19.02	-46.0	-47.5	19.6	0.00e+00	0	36	0	384827392	63	4292
2026-01-18 22:40:28.18	46.12	19.10	-45.9	-47.4	19.9	0.00e+00	0	36	0	386924544	63	4252
2026-01-18 22:40:29.19	46.31	19.18	-45.8	-47.2	19.9	0.00e+00	0	36	0	389021696	63	4183
2026-01-18 22:40:30.20	46.50	19.26	-45.8	-47.1	19.9	0.00e+00	0	36	0	390070272	62	4381
2026-01-18 22:40:31.21	46.69	19.34	-45.8	-47.2	19.9	0.00e+00	0	36	0	392167424	62	4394
2026-01-18 22:40:32.21	46.88	19.42	-45.7	-47.1	19.8	0.00e+00	0	36	0	394264576	62	4365
2026-01-18 22:40:33.22	47.07	19.50	-45.5	-46.9	20.2	0.00e+00	0	36	0	396361728	62	4248
2026-01-18 22:40:34.23	47.27	19.58	-45.5	-46.8	20.3	0.00e+00	0	36	0	398458880	62	4222
2026-01-18 22:40:35.24	47.46	19.66	-45.4	-46.7	20.4	0.00e+00	0	36	0	400556032	62	4161
2026-01-18 22:40:36.25	47.66	19.74	-45.3	-46.6	20.5	0.00e+00	0	36	0	401604608	62	4116
2026-01-18 22:40:37.26	47.86	19.82	-45.2	-46.5	20.6	0.00e+00	0	36	0	403701760	62	4056
2026-01-18 22:40:38.26	48.05	19.90	-45.0	-46.3	20.8	0.00e+00	0	36	0	405798912	62	3969
2026-01-18 22:40:39.27	48.25	19.98	-45.2	-46.4	20.6	0.00e+00	0	36	0	407896064	61	4286
2026-01-18 22:40:40.28	48.45	20.06	-45.1	-46.3	20.7	0.00e+00	0	36	0	408944640	61	4232
2026-01-18 22:40:41.29	48.66	20.14	-45.1	-46.3	20.8	0.00e+00	0	36	0	411041792	61	4221
2026-01-18 22:40:42.29	48.86	20.22	-45.1	-46.3	20.8	0.00e+00	0	36	0	413138944	61	4215
2026-01-18 22:40:43.30	49.06	20.30	-45.1	-46.4	20.7	0.00e+00	0	36	0	415236096	61	4245
2026-01-18 22:40:44.31	49.26	20.38	-45.0	-46.3	20.8	0.00e+00	0	36	0	417333248	61	4211
2026-01-18 22:40:45.31	49.47	20.46	-45.0	-46.2	20.9	0.00e+00	0	36	0	418381824	61	4177
2026-01-18 22:40:46.32	49.68	20.53	-45.0	-46.2	20.8	0.00e+00	0	36	0	420478976	61	4186
2026-01-18 22:40:47.33	49.88	20.61	-44.8	-46.0	21.0	0.00e+00	0	36	0	422576128	61	4066
2026-01-18 22:40:48.34	50.09	20.69	-44.8	-46.0	21.0	0.00e+00	0	36	0	424673280	61	4091
2026-01-18 22:40:49.35	50.30	20.77	-44.9	-46.1	21.0	0.00e+00	0	36	0	426770432	61	4112
2026-01-18 22:40:50.35	50.51	20.85	-44.9	-46.2	20.9	0.00e+00	0	36	0	428867584	61	4150
2026-01-18 22:40:51.36	50.72	20.93	-44.9	-46.1	20.9	0.00e+00	0	36	0	429916160	61	4130
2026-01-18 22:40:52.37	50.94	21.00	-45.1	-46.3	20.8	0.00e+00	0	36	0	432013312	61	4229
2026-01-18 22:40:53.38	51.15	21.08	-45.2	-46.5	20.7	0.00e+00	0	36	0	434110464	61	4311
2026-01-18 22:40:54.39	51.36	21.16	-45.1	-46.3	20.7	0.00e+00	0	36	0	436207616	61	4232
2026-01-18 22:40:55.39	51.58	21.24	-45.1	-46.4	20.7	0.00e+00	0	36	0	437256192	61	4259
2026-01-18 22:40:56.40	51.80	21.31	-45.0	-46.2	21.0	0.00e+00	0	36	0	439353344	61	4185
2026-01-18 22:40:57.41	52.01	21.39	-45.1	-46.3	20.8	0.00e+00	0	36	0	441450496	61	4235
2026-01-18 22:40:58.42	52.23	21.47	-44.9	-46.1	20.9	0.00e+00	0	36	0	443547648	61	4126
2026-01-18 22:40:59.42	52.45	21.54	-44.9	-46.1	21.0	0.00e+00	0	36	0	445644800	61	4142
2026-01-18 22:41:00.43	52.67	21.62	-45.0	-46.2	20.9	0.00e+00	0	36	0	446693376	61	4193
2026-01-18 22:41:01.43	52.89	21.70	-45.0	-46.3	20.9	0.00e+00	0	36	0	448790528	61	4195
2026-01-18 22:41:02.45	53.12	21.77	-45.2	-46.4	20.7	0.00e+00	0	36	0	450887680	61	4262
2026-01-18 22:41:03.45	53.34	21.85	-45.3	-46.6	20.6	0.00e+00	0	36	0	452984832	61	4365
2026-01-18 22:41:04.46	53.57	21.93	-45.4	-46.7	20.4	0.00e+00	0	36	0	455081984	61	4414
2026-01-18 22:41:05.47	53.79	22.00	-45.4	-46.7	20.5	0.00e+00	0	36	0	457179136	61	4400
2026-01-18 22:41:06.48	54.02	22.08	-45.4	-46.7	20.4	0.00e+00	0	36	0	458227712	61	4423
2026-01-18 22:41:07.49	54.25	22.15	-45.3	-46.6	20.5	0.00e+00	0	36	0	460324864	61	4382
2026-01-18 22:41:08.49	54.48	22.23	-45.3	-46.6	20.6	0.00e+00	0	36	0	462422016	61	4345
2026-01-18 22:41:09.50	54.71	22.30	-45.4	-46.7	20.5	0.00e+00	0	36	0	464519168	61	4432
2026-01-18 22:41:10.51	54.94	22.38	-45.6	-47.0	20.3	0.00e+00	0	36	0	465567744	61	4555
2026-01-18 22:41:11.52	55.17	22.45	-45.9	-47.3	20.0	0.00e+00	0	36	0	467664896	62	4470
2026-01-18 22:41:12.53	55.41	22.52	-46.0	-47.4	19.9	0.00e+00	0	36	0	469762048	62	4516
2026-01-18 22:41:13.53	55.64	22.60	-46.1	-47.5	19.7	0.00e+00	0	36	0	471859200	62	4572
2026-01-18 22:41:14.54	55.88	22.67	-46.3	-47.8	19.6	0.00e+00	0	36	0	473956352	63	4469
2026-01-18 22:41:15.55	56.12	22.74	-46.3	-47.7	19.5	0.00e+00	0	36	0	476053504	63	4432
2026-01-18 22:41:16.55	56.35	22.82	-46.2	-47.6	19.6	0.00e+00	0	36	0	477102080	63	4385
2026-01-18 22:41:17.56	56.59	22.89	-46.1	-47.6	19.6	0.00e+00	0	36	0	479199232	63	4348
2026-01-18 22:41:18.57	56.83	22.96	-45.9	-47.3	19.9	0.00e+00	0	36	0	481296384	63	4205
2026-01-18 22:41:19.58	57.08	23.03	-45.8	-47.2	20.0	0.00e+00	0	36	0	483393536	63	4170
2026-01-18 22:41:20.59	57.32	23.11	-45.8	-47.1	20.1	0.00e+00	0	36	0	485490688	63	4136
2026-01-18 22:41:21.59	57.56	23.18	-45.8	-47.1	20.1	0.00e+00	0	36	0	486539264	63	4136
2026-01-18 22:41:22.60	57.81	23.25	-45.6	-47.0	20.2	0.00e+00	0	36	0	488636416	63	4054
2026-01-18 22:41:23.61	58.05	23.32	-45.9	-47.3	19.9	0.00e+00	0	36	0	490733568	63	4199
2026-01-18 22:41:24.62	58.30	23.39	-46.1	-47.6	19.7	0.00e+00	0	36	0	492830720	63	4357
2026-01-18 22:41:25.63	58.55	23.46	-46.4	-47.9	19.4	0.00e+00	0	36	0	493879296	63	4500
2026-01-18 22:41:26.63	58.80	23.53	-46.1	-47.6	19.6	0.00e+00	0	36	0	495976448	63	4341
2026-01-18 22:41:27.64	59.05	23.60	-46.2	-47.6	19.7	0.00e+00	0	36	0	498073600	63	4363
2026-01-18 22:41:28.65	59.30	23.67	-46.0	-47.4	19.8	0.00e+00	0	36	0	500170752	63	4255
2026-01-18 22:41:29.66	59.55	23.73	-45.9	-47.2	20.1	0.00e+00	0	36	0	502267904	63	4191
2026-01-18 22:41:30.67	59.81	23.80	-45.9	-47.3	19.9	0.00e+00	0	36	0	504365056	63	4218
2026-01-18 22:41:31.67	60.06	23.87	-45.9	-47.3	19.9	0.00e+00	0	36	0	505413632	63	4208
2026-01-18 22:41:32.68	60.31	23.94	-46.1	-47.5	19.9	0.00e+00	0	36	0	507510784	63	4298
2026-01-18 22:41:33.69	60.57	24.00	-46.4	-47.8	19.5	0.00e+00	0	36	0	509607936	63	4487
2026-01-18 22:41:34.69	60.83	24.07	-46.6	-48.1	19.2	0.00e+00	0	36	0	511705088	63	4630
2026-01-18 22:41:35.70	61.09	24.14	-46.7	-48.2	19.0	0.00e+00	0	36	0	513802240	64	4435
2026-01-18 22:41:36.71	61.35	24.20	-46.8	-48.4	18.8	0.00e+00	0	36	0	514850816	64	4545
2026-01-18 22:41:37.72	61.61	24.27	-46.9	-48.5	18.7	0.00e+00	0	36	0	516947968	64	4593
2026-01-18 22:41:38.73	61.87	24.33	-46.9	-48.5	18.7	0.00e+00	0	36	0	519045120	64	4584
2026-01-18 22:41:39.73	62.13	24.39	-46.9	-48.6	18.7	0.00e+00	0	36	0	521142272	64	4614
2026-01-18 22:41:40.74	62.40	24.46	-46.8	-48.3	18.8	0.00e+00	0	36	0	523239424	64	4491
2026-01-18 22:41:41.75	62.66	24.52	-46.8	-48.4	18.8	0.00e+00	0	36	0	524288000	64	4528
2026-01-18 22:41:42.76	62.93	24.58	-46.9	-48.5	18.7	0.00e+00	0	36	0	526385152	64	4587
2026-01-18 22:41:43.77	63.20	24.65	-47.0	-48.7	18.5	0.00e+00	0	36	0	528482304	64	4670
2026-01-18 22:41:44.77	63.46	24.71	-47.1	-48.8	18.4	0.00e+00	0	36	0	530579456	64	4754
2026-01-18 22:41:45.78	63.73	24.77	-47.3	-49.0	18.2	0.00e+00	0	36	0	532676608	65	4584
2026-01-18 22:41:46.79	64.01	24.83	-47.3	-49.1	18.1	0.00e+00	0	36	0	533725184	65	4618
2026-01-18 22:41:47.80	64.28	24.89	-47.4	-49.2	18.1	0.00e+00	0	36	0	535822336	65	4663
2026-01-18 22:41:48.80	64.55	24.95	-47.5	-49.4	17.9	0.00e+00	0	36	0	537919488	65	4762
2026-01-18 22:41:49.81	64.82	25.01	-47.6	-49.4	17.8	0.00e+00	0	36	0	540016640	65	4814
2026-01-18 22:41:50.82	65.10	25.07	-47.7	-49.5	17.7	0.00e+00	0	36	0	542113792	65	4859
2026-01-18 22:41:51.83	65.37	25.13	-47.7	-49.6	17.7	0.00e+00	0	36	0	543162368	66	4626
2026-01-18 22:41:52.83	65.65	25.18	-47.9	-49.9	17.4	0.00e+00	0	36	0	545259520	66	4761
2026-01-18 22:41:53.84	65.92	25.24	-47.9	-49.9	17.3	0.00e+00	0	36	0	547356672	66	4797
2026-01-18 22:41:54.85	66.20	25.30	-47.9	-49.9	17.4	0.00e+00	0	36	0	549453824	66	4764
2026-01-18 22:41:55.86	66.48	25.35	-47.9	-49.8	17.5	0.00e+00	0	36	0	551550976	66	4732
2026-01-18 22:41:56.87	66.76	25.41	-47.9	-49.8	17.5	0.00e+00	0	36	0	552599552	66	4744
2026-01-18 22:41:57.88	67.05	25.46	-47.9	-49.9	17.4	0.00e+00	0	36	0	554696704	66	4787
2026-01-18 22:41:58.88	67.33	25.52	-48.0	-50.0	17.2	0.00e+00	0	36	0	556793856	66	4862
2026-01-18 22:41:59.89	67.61	25.57	-48.2	-50.2	17.1	0.00e+00	0	36	0	558891008	66	4949
2026-01-18 22:42:00.90	67.90	25.62	-48.4	-50.5	16.7	0.00e+00	0	36	0	560988160	67	4858
2026-01-18 22:42:01.91	68.18	25.68	-48.5	-50.7	16.4	0.00e+00	0	36	0	562036736	67	4979
2026-01-18 22:42:02.91	68.46	25.73	-48.9	-51.2	16.1	0.00e+00	0	36	0	564133888	68	4981
2026-01-18 22:42:03.92	68.75	25.78	-49.0	-51.4	16.0	0.00e+00	0	36	0	566231040	68	5078
2026-01-18 22:42:04.93	69.04	25.83	-48.9	-51.3	16.2	0.00e+00	0	36	0	568328192	68	4985
2026-01-18 22:42:05.94	69.33	25.88	-48.8	-51.1	16.3	0.00e+00	0	36	0	570425344	68	4875
2026-01-18 22:42:06.95	69.62	25.93	-48.5	-50.6	16.8	0.00e+00	0	36	0	572522496	68	4623
2026-01-18 22:42:07.95	69.91	25.97	-48.4	-50.5	16.8	0.00e+00	0	36	0	573571072	68	4593
2026-01-18 22:42:08.96	70.20	26.02	-48.2	-50.2	17.1	0.00e+00	0	36	0	575668224	68	4440
2026-01-18 22:42:09.97	70.49	26.07	-48.3	-50.3	17.1	0.00e+00	0	36	0	577765376	68	4468
2026-01-18 22:42:10.98	70.79	26.11	-48.2	-50.2	17.2	0.00e+00	0	36	0	579862528	68	4430
2026-01-18 22:42:11.99	71.08	26.16	-48.3	-50.4	17.0	0.00e+00	0	36	0	580911104	68	4513
2026-01-18 22:42:12.99	71.37	26.20	-48.3	-50.4	16.9	0.00e+00	0	36	0	583008256	68	4532
2026-01-18 22:42:14.00	71.67	26.25	-48.5	-50.6	16.8	0.00e+00	0	36	0	585105408	68	4649
2026-01-18 22:42:15.01	71.97	26.29	-48.6	-50.8	16.6	0.00e+00	0	36	0	587202560	68	4725
2026-01-18 22:42:16.01	72.26	26.33	-48.5	-50.6	16.8	0.00e+00	0	36	0	589299712	68	4621
2026-01-18 22:42:17.02	72.56	26.38	-48.4	-50.5	16.8	0.00e+00	0	36	0	590348288	68	4584
2026-01-18 22:42:18.03	72.86	26.42	-48.4	-50.4	17.0	0.00e+00	0	36	0	592445440	68	4539
2026-01-18 22:42:19.04	73.16	26.46	-48.4	-50.5	17.0	0.00e+00	0	36	0	594542592	68	4553
2026-01-18 22:42:20.05	73.46	26.50	-48.3	-50.3	17.1	0.00e+00	0	36	0	596639744	68	4486
2026-01-18 22:42:21.05	73.76	26.54	-48.2	-50.2	17.2	0.00e+00	0	36	0	598736896	68	4423
2026-01-18 22:42:22.06	74.06	26.57	-48.1	-50.1	17.2	0.00e+00	0	36	0	600834048	68	4347
2026-01-18 22:42:23.07	74.36	26.61	-48.2	-50.2	17.3	0.00e+00	0	36	0	601882624	68	4413
2026-01-18 22:42:24.08	74.67	26.65	-48.0	-50.0	17.3	0.00e+00	0	36	0	603979776	67	4581
2026-01-18 22:42:25.09	74.97	26.68	-47.9	-49.8	17.5	0.00e+00	0	36	0	606076928	67	4464
2026-01-18 22:42:26.09	75.27	26.72	-47.8	-49.7	17.6	0.00e+00	0	36	0	608174080	67	4441
2026-01-18 22:42:27.10	75.58	26.75	-47.6	-49.4	17.9	0.00e+00	0	36	0	609222656	67	4256
2026-01-18 22:42:28.11	75.89	26.79	-47.3	-49.0	18.2	0.00e+00	0	36	0	611319808	66	4322
2026-01-18 22:42:29.12	76.19	26.82	-47.3	-49.0	18.2	0.00e+00	0	36	0	613416960	66	4320
2026-01-18 22:42:30.13	76.50	26.85	-47.4	-49.1	18.2	0.00e+00	0	36	0	615514112	66	4384
2026-01-18 22:42:31.13	76.81	26.88	-47.3	-49.0	18.2	0.00e+00	0	36	0	617611264	66	4311
2026-01-18 22:42:32.14	77.11	26.91	-47.5	-49.3	18.1	0.00e+00	0	36	0	619708416	66	4471
2026-01-18 22:42:33.15	77.42	26.94	-47.7	-49.6	17.7	0.00e+00	0	36	0	620756992	66	4610
2026-01-18 22:42:34.16	77.73	26.97	-47.8	-49.7	17.6	0.00e+00	0	36	0	622854144	66	4681
2026-01-18 22:42:35.17	78.04	26.99	-47.9	-49.8	17.5	0.00e+00	0	36	0	624951296	66	4739
2026-01-18 22:42:36.17	78.35	27.02	-48.0	-50.0	17.3	0.00e+00	0	36	0	627048448	66	4832
2026-01-18 22:42:37.18	78.66	27.05	-48.1	-50.1	17.2	0.00e+00	0	36	0	629145600	66	4915
2026-01-18 22:42:38.19	78.97	27.07	-48.1	-50.1	17.2	0.00e+00	0	36	0	630194176	66	4907
2026-01-18 22:42:39.20	79.29	27.10	-48.1	-50.1	17.2	0.00e+00	0	36	0	632291328	66	4911
2026-01-18 22:42:40.21	79.60	27.12	-48.0	-50.0	17.3	0.00e+00	0	36	0	634388480	66	4858
2026-01-18 22:42:41.21	79.91	27.14	-47.9	-49.9	17.5	0.00e+00	0	36	0	636485632	66	4770
2026-01-18 22:42:42.22	80.22	27.16	-47.8	-49.7	17.5	0.00e+00	0	36	0	637534208	66	4691
2026-01-18 22:42:43.23	80.54	27.18	-47.7	-49.5	17.7	0.00e+00	0	36	0	639631360	66	4586
2026-01-18 22:42:44.23	80.85	27.20	-47.5	-49.3	18.0	0.00e+00	0	36	0	641728512	66	4479
2026-01-18 22:42:45.24	81.16	27.22	-47.6	-49.4	17.9	0.00e+00	0	36	0	643825664	66	4535
2026-01-18 22:42:46.25	81.48	27.24	-47.6	-49.4	17.9	0.00e+00	0	36	0	645922816	66	4502
2026-01-18 22:42:47.26	81.79	27.26	-47.5	-49.3	17.9	0.00e+00	0	36	0	648019968	66	4488
2026-01-18 22:42:48.27	82.11	27.27	-47.5	-49.3	17.9	0.00e+00	0	36	0	649068544	66	4486
2026-01-18 22:42:49.27	82.42	27.29	-47.4	-49.2	18.1	0.00e+00	0	36	0	651165696	66	4417
2026-01-18 22:42:50.28	82.74	27.30	-47.2	-49.0	18.3	0.00e+00	0	36	0	653262848	66	4301
2026-01-18 22:42:51.29	83.06	27.31	-47.1	-48.7	18.6	0.00e+00	0	36	0	655360000	66	4179
2026-01-18 22:42:52.30	83.37	27.33	-47.1	-48.8	18.5	0.00e+00	0	36	0	657457152	65	4446
2026-01-18 22:42:53.31	83.69	27.34	-46.9	-48.5	18.8	0.00e+00	0	36	0	658505728	65	4293
2026-01-18 22:42:54.31	84.01	27.35	-46.9	-48.5	18.8	0.00e+00	0	36	0	660602880	65	4334
2026-01-18 22:42:55.32	84.32	27.36	-46.9	-48.5	18.7	0.00e+00	0	36	0	662700032	65	4340
2026-01-18 22:42:56.33	84.64	27.37	-47.1	-48.7	18.6	0.00e+00	0	36	0	664797184	65	4441
2026-01-18 22:42:57.34	84.96	27.37	-47.1	-48.8	18.5	0.00e+00	0	36	0	666894336	65	4442
2026-01-18 22:42:58.35	85.28	27.38	-47.2	-48.9	18.4	0.00e+00	0	36	0	667942912	65	4494
2026-01-18 22:42:59.35	85.59	27.39	-47.1	-48.8	18.5	0.00e+00	0	36	0	670040064	65	4451
2026-01-18 22:43:00.36	85.91	27.39	-46.9	-48.5	18.8	0.00e+00	0	36	0	672137216	65	4303
2026-01-18 22:43:01.37	86.23	27.40	-46.7	-48.3	18.9	0.00e+00	0	36	0	674234368	65	4207
2026-01-18 22:43:02.38	86.55	27.40	-46.6	-48.2	19.1	0.00e+00	0	36	0	676331520	65	4166
2026-01-18 22:43:03.39	86.87	27.40	-46.7	-48.2	19.0	0.00e+00	0	36	0	677380096	65	4186
2026-01-18 22:43:04.39	87.18	27.40	-46.8	-48.4	18.9	0.00e+00	0	36	0	679477248	65	4247
2026-01-18 22:43:05.40	87.50	27.40	-46.7	-48.3	19.0	0.00e+00	0	36	0	681574400	65	4224
2026-01-18 22:43:06.41	87.82	27.40	-46.9	-48.5	18.8	0.00e+00	0	36	0	683671552	65	4297
2026-01-18 22:43:07.42	88.14	27.40	-46.9	-48.5	18.8	0.00e+00	0	36	0	685768704	65	4321
2026-01-18 22:43:08.43	88.46	27.40	-46.9	-48.5	18.8	0.00e+00	0	36	0	686817280	65	4305
2026-01-18 22:43:09.43	88.77	27.39	-46.8	-48.4	18.8	0.00e+00	0	36	0	688914432	65	4283
2026-01-18 22:43:10.44	89.09	27.39	-46.8	-48.4	18.8	0.00e+00	0	36	0	691011584	65	4284
2026-01-18 22:43:11.45	89.41	27.38	-46.9	-48.5	18.7	0.00e+00	0	36	0	693108736	65	4317
2026-01-18 22:43:12.46	89.73	27.38	-47.0	-48.7	18.5	0.00e+00	0	36	0	695205888	65	4403
2026-01-18 22:43:13.47	90.05	27.37	-47.2	-49.0	18.3	0.00e+00	0	36	0	696254464	65	4560
2026-01-18 22:43:14.47	90.36	27.36	-47.5	-49.3	17.9	0.00e+00	0	36	0	698351616	65	4711
2026-01-18 22:43:15.48	90.68	27.35	-47.6	-49.4	17.8	0.00e+00	0	36	0	700448768	65	4782
2026-01-18 22:43:16.49	91.00	27.34	-47.8	-49.8	17.5	0.00e+00	0	36	0	702545920	66	4713
2026-01-18 22:43:17.50	91.31	27.33	-47.8	-49.7	17.6	0.00e+00	0	36	0	704643072	66	4677
2026-01-18 22:43:18.51	91.63	27.32	-47.8	-49.7	17.6	0.00e+00	0	36	0	705691648	66	4666
2026-01-18 22:43:19.51	91.94	27.31	-47.6	-49.5	17.8	0.00e+00	0	36	0	707788800	66	4567
2026-01-18 22:43:20.52	92.26	27.30	-47.6	-49.4	17.9	0.00e+00	0	36	0	709885952	66	4517
2026-01-18 22:43:21.53	92.58	27.28	-47.5	-49.3	17.9	0.00e+00	0	36	0	711983104	66	4479
2026-01-18 22:43:22.53	92.89	27.27	-47.1	-48.8	18.4	0.00e+00	0	36	0	714080256	66	4213
2026-01-18 22:43:23.54	93.21	27.25	-46.7	-48.3	18.9	0.00e+00	0	36	0	715128832	65	4220
2026-01-18 22:43:24.55	93.52	27.23	-46.6	-48.1	19.1	0.00e+00	0	36	0	717225984	65	4124
2026-01-18 22:43:25.56	93.84	27.21	-46.7	-48.3	19.0	0.00e+00	0	36	0	719323136	65	4213
2026-01-18 22:43:26.57	94.15	27.19	-46.9	-48.5	18.7	0.00e+00	0	36	0	721420288	65	4332
2026-01-18 22:43:27.57	94.46	27.17	-47.2	-48.9	18.3	0.00e+00	0	36	0	723517440	65	4527
2026-01-18 22:43:28.58	94.78	27.15	-47.4	-49.2	18.0	0.00e+00	0	36	0	724566016	65	4703
2026-01-18 22:43:29.59	95.09	27.13	-47.6	-49.4	17.8	0.00e+00	0	36	0	726663168	65	4810
2026-01-18 22:43:30.60	95.41	27.11	-47.8	-49.7	17.6	0.00e+00	0	36	0	728760320	66	4676
2026-01-18 22:43:31.61	95.72	27.09	-47.8	-49.8	17.5	0.00e+00	0	36	0	730857472	66	4711
2026-01-18 22:43:32.61	96.03	27.06	-47.8	-49.7	17.5	0.00e+00	0	36	0	732954624	66	4705
2026-01-18 22:43:33.62	96.34	27.04	-47.7	-49.6	17.7	0.00e+00	0	36	0	734003200	66	4610
2026-01-18 22:43:34.63	96.65	27.01	-47.7	-49.6	17.7	0.00e+00	0	36	0	736100352	66	4606
2026-01-18 22:43:35.63	96.96	26.98	-47.3	-49.0	18.3	0.00e+00	0	36	0	738197504	66	4297
2026-01-18 22:43:36.64	97.27	26.96	-47.1	-48.8	18.5	0.00e+00	0	36	0	740294656	66	4213
2026-01-18 22:43:37.65	97.58	26.93	-47.0	-48.6	18.6	0.00e+00	0	36	0	742391808	65	4378
2026-01-18 22:43:38.66	97.89	26.90	-47.1	-48.8	18.4	0.00e+00	0	36	0	743440384	65	4474
2026-01-18 22:43:39.67	98.20	26.87	-47.0	-48.6	18.7	0.00e+00	0	36	0	745537536	65	4362
2026-01-18 22:43:40.67	98.50	26.84	-47.0	-48.6	18.6	0.00e+00	0	36	0	747634688	65	4372
2026-01-18 22:43:41.68	98.81	26.80	-47.0	-48.6	18.6	0.00e+00	0	36	0	749731840	65	4384
2026-01-18 22:43:42.69	99.12	26.77	-46.9	-48.5	18.7	0.00e+00	0	36	0	751828992	65	4340
2026-01-18 22:43:43.70	99.42	26.74	-46.9	-48.5	18.7	0.00e+00	0	36	0	752877568	65	4300
2026-01-18 22:43:44.71	99.73	26.70	-46.7	-48.3	18.9	0.00e+00	0	36	0	754974720	65	4219
2026-01-18 22:43:45.71	100.03	26.67	-46.7	-48.3	18.9	0.00e+00	0	36	0	757071872	65	4230
2026-01-18 22:43:46.72	100.34	26.63	-46.7	-48.3	18.9	0.00e+00	0	36	0	759169024	65	4220
2026-01-18 22:43:47.73	100.64	26.60	-46.8	-48.4	18.8	0.00e+00	0	36	0	761266176	65	4291
2026-01-18 22:43:48.74	100.94	26.56	-46.9	-48.6	18.7	0.00e+00	0	36	0	763363328	65	4353
2026-01-18 22:43:49.75	101.25	26.52	-46.9	-48.6	18.6	0.00e+00	0	36	0	764411904	65	4352
2026-01-18 22:43:50.75	101.55	26.48	-46.8	-48.4	18.8	0.00e+00	0	36	0	766509056	65	4265
2026-01-18 22:43:51.76	101.85	26.44	-46.4	-47.9	19.3	0.00e+00	0	36	0	768606208	64	4269
2026-01-18 22:43:52.77	102.15	26.40	-46.4	-47.9	19.3	0.00e+00	0	36	0	770703360	64	4271
2026-01-18 22:43:53.78	102.45	26.36	-46.1	-47.6	19.6	0.00e+00	0	36	0	772800512	64	4108
2026-01-18 22:43:54.78	102.74	26.32	-46.2	-47.7	19.6	0.00e+00	0	36	0	773849088	64	4157
2026-01-18 22:43:55.79	103.04	26.27	-46.1	-47.5	19.7	0.00e+00	0	36	0	775946240	64	4075
2026-01-18 22:43:56.80	103.34	26.23	-46.0	-47.4	19.8	0.00e+00	0	36	0	778043392	63	4256
2026-01-18 22:43:57.81	103.63	26.19	-45.9	-47.3	20.0	0.00e+00	0	36	0	780140544	63	4209
2026-01-18 22:43:58.81	103.93	26.14	-45.9	-47.2	20.0	0.00e+00	0	36	0	781189120	63	4190
2026-01-18 22:43:59.82	104.22	26.09	-46.0	-47.3	19.9	0.00e+00	0	36	0	783286272	63	4234
2026-01-18 22:44:00.83	104.51	26.05	-46.0	-47.4	19.9	0.00e+00	0	36	0	785383424	63	4253
2026-01-18 22:44:01.83	104.80	26.00	-46.1	-47.6	19.7	0.00e+00	0	36	0	787480576	63	4344
2026-01-18 22:44:02.84	105.10	25.95	-46.1	-47.6	19.6	0.00e+00	0	36	0	789577728	63	4344
2026-01-18 22:44:03.85	105.39	25.90	-46.0	-47.4	19.9	0.00e+00	0	36	0	791674880	63	4285
2026-01-18 22:44:04.85	105.68	25.86	-45.8	-47.1	20.1	0.00e+00	0	36	0	792723456	63	4137
2026-01-18 22:44:05.86	105.97	25.81	-45.7	-47.1	20.2	0.00e+00	0	36	0	794820608	63	4106
2026-01-18 22:44:06.87	106.25	25.75	-45.6	-46.9	20.4	0.00e+00	0	36	0	796917760	63	4024
2026-01-18 22:44:07.88	106.54	25.70	-45.7	-47.0	20.2	0.00e+00	0	36	0	799014912	62	4338
2026-01-18 22:44:08.89	106.83	25.65	-45.9	-47.3	20.0	0.00e+00	0	36	0	801112064	62	4461
2026-01-18 22:44:09.89	107.11	25.60	-46.1	-47.5	19.7	0.00e+00	0	36	0	802160640	62	4583
2026-01-18 22:44:10.90	107.40	25.55	-46.3	-47.8	19.5	0.00e+00	0	36	0	804257792	63	4459
2026-01-18 22:44:11.91	107.68	25.49	-46.3	-47.7	19.6	0.00e+00	0	36	0	806354944	63	4436
2026-01-18 22:44:12.91	107.96	25.44	-46.3	-47.8	19.5	0.00e+00	0	36	0	808452096	63	4465
2026-01-18 22:44:13.92	108.24	25.38	-46.3	-47.7	19.5	0.00e+00	0	36	0	809500672	63	4431
2026-01-18 22:44:14.93	108.52	25.33	-46.1	-47.5	19.8	0.00e+00	0	36	0	811597824	63	4307
2026-01-18 22:44:15.93	108.80	25.27	-46.0	-47.5	19.8	0.00e+00	0	36	0	813694976	63	4294
2026-01-18 22:44:16.94	109.08	25.21	-45.9	-47.2	20.0	0.00e+00	0	36	0	815792128	63	4193
2026-01-18 22:44:17.95	109.36	25.16	-46.0	-47.4	19.8	0.00e+00	0	36	0	817889280	63	4252
2026-01-18 22:44:18.96	109.64	25.10	-46.1	-47.5	19.8	0.00e+00	0	36	0	819986432	63	4323
2026-01-18 22:44:19.97	109.91	25.04	-46.2	-47.6	19.6	0.00e+00	0	36	0	821035008	63	4378
2026-01-18 22:44:20.97	110.19	24.98	-46.3	-47.7	19.6	0.00e+00	0	36	0	823132160	63	4425
2026-01-18 22:44:21.98	110.46	24.92	-46.4	-47.8	19.4	0.00e+00	0	36	0	825229312	63	4491
2026-01-18 22:44:22.99	110.73	24.86	-46.6	-48.1	19.2	0.00e+00	0	36	0	827326464	63	4614
2026-01-18 22:44:23.99	111.00	24.80	-46.7	-48.2	19.1	0.00e+00	0	36	0	829423616	63	4703
2026-01-18 22:44:25.00	111.27	24.74	-46.7	-48.3	18.9	0.00e+00	0	36	0	830472192	64	4469
2026-01-18 22:44:26.01	111.54	24.68	-46.7	-48.3	18.9	0.00e+00	0	36	0	832569344	64	4480
2026-01-18 22:44:27.02	111.81	24.62	-46.6	-48.2	19.0	0.00e+00	0	36	0	834666496	64	4415
2026-01-18 22:44:28.03	112.08	24.55	-46.3	-47.7	19.5	0.00e+00	0	36	0	836763648	63	4432
2026-01-18 22:44:29.03	112.35	24.49	-46.3	-47.8	19.5	0.00e+00	0	36	0	837812224	63	4459
2026-01-18 22:44:30.04	112.61	24.43	-46.2	-47.6	19.6	0.00e+00	0	36	0	839909376	63	4376
2026-01-18 22:44:31.05	112.88	24.36	-46.3	-47.7	19.6	0.00e+00	0	36	0	842006528	63	4418
2026-01-18 22:44:32.06	113.14	24.30	-46.4	-47.8	19.5	0.00e+00	0	36	0	844103680	63	4488
2026-01-18 22:44:33.06	113.40	24.23	-46.3	-47.8	19.4	0.00e+00	0	36	0	846200832	63	4465
2026-01-18 22:44:34.07	113.66	24.17	-46.3	-47.8	19.5	0.00e+00	0	36	0	848297984	63	4445
2026-01-18 22:44:35.08	113.92	24.10	-46.3	-47.7	19.5	0.00e+00	0	36	0	849346560	63	4438
2026-01-18 22:44:36.08	114.18	24.04	-46.4	-47.9	19.4	0.00e+00	0	36	0	851443712	63	4534
2026-01-18 22:44:37.09	114.44	23.97	-46.5	-48.1	19.2	0.00e+00	0	36	0	853540864	63	4604
2026-01-18 22:44:38.10	114.70	23.90	-46.6	-48.1	19.1	0.00e+00	0	36	0	855638016	63	4649
2026-01-18 22:44:39.11	114.95	23.83	-46.6	-48.1	19.2	0.00e+00	0	36	0	857735168	63	4613
2026-01-18 22:44:40.12	115.21	23.76	-46.5	-48.0	19.3	0.00e+00	0	36	0	858783744	63	4553
2026-01-18 22:44:41.12	115.46	23.70	-46.4	-47.9	19.3	0.00e+00	0	36	0	860880896	63	4524
2026-01-18 22:44:42.13	115.71	23.63	-46.3	-47.7	19.5	0.00e+00	0	36	0	862978048	63	4418
2026-01-18 22:44:43.14	115.97	23.56	-46.0	-47.4	19.8	0.00e+00	0	36	0	865075200	63	4269
2026-01-18 22:44:44.14	116.22	23.49	-46.0	-47.4	19.9	0.00e+00	0	36	0	867172352	63	4286
2026-01-18 22:44:45.15	116.47	23.42	-46.0	-47.4	19.8	0.00e+00	0	36	0	868220928	63	4268
2026-01-18 22:44:46.16	116.71	23.35	-46.0	-47.4	19.9	0.00e+00	0	36	0	870318080	63	4259
2026-01-18 22:44:47.17	116.96	23.28	-46.1	-47.6	19.7	0.00e+00	0	36	0	872415232	63	4344
2026-01-18 22:44:48.18	117.21	23.21	-46.2	-47.6	19.6	0.00e+00	0	36	0	874512384	63	4389
2026-01-18 22:44:49.19	117.45	23.14	-46.2	-47.6	19.6	0.00e+00	0	36	0	876609536	63	4376
2026-01-18 22:44:50.20	117.70	23.06	-46.2	-47.7	19.6	0.00e+00	0	36	0	877658112	63	4399
2026-01-18 22:44:51.20	117.94	22.99	-46.4	-47.9	19.4	0.00e+00	0	36	0	879755264	63	4514
2026-01-18 22:44:52.21	118.18	22.92	-46.5	-48.0	19.2	0.00e+00	0	36	0	881852416	63	4594
2026-01-18 22:44:53.22	118.42	22.85	-46.6	-48.2	19.1	0.00e+00	0	36	0	883949568	63	4664
2026-01-18 22:44:54.22	118.66	22.77	-46.6	-48.1	19.1	0.00e+00	0	36	0	886046720	63	4625
2026-01-18 22:44:55.23	118.90	22.70	-46.3	-47.8	19.4	0.00e+00	0	36	0	887095296	63	4481
2026-01-18 22:44:56.24	119.14	22.63	-46.2	-47.7	19.6	0.00e+00	0	36	0	889192448	63	4400
2026-01-18 22:44:57.25	119.38	22.55	-46.0	-47.4	19.8	0.00e+00	0	36	0	891289600	63	4262
2026-01-18 22:44:58.25	119.61	22.48	-46.0	-47.3	19.9	0.00e+00	0	36	0	893386752	63	4239
2026-01-18 22:44:59.26	119.84	22.40	-46.2	-47.6	19.7	0.00e+00	0	36	0	895483904	63	4368
2026-01-18 22:45:00.27	120.08	22.33	-46.4	-47.9	19.3	0.00e+00	0	36	0	896532480	63	4503
2026-01-18 22:45:01.27	120.31	22.26	-46.4	-48.0	19.3	0.00e+00	0	36	0	898629632	63	4549
2026-01-18 22:45:02.28	120.54	22.18	-46.5	-48.0	19.2	0.00e+00	0	36	0	900726784	63	4569
2026-01-18 22:45:03.29	120.77	22.10	-46.3	-47.8	19.4	0.00e+00	0	36	0	902823936	63	4453
2026-01-18 22:45:04.30	121.00	22.03	-46.2	-47.7	19.6	0.00e+00	0	36	0	904921088	63	4408
2026-01-18 22:45:05.31	121.23	21.95	-46.3	-47.8	19.5	0.00e+00	0	36	0	905969664	63	4449
2026-01-18 22:45:06.32	121.45	21.88	-46.5	-48.0	19.3	0.00e+00	0	36	0	908066816	63	4569
2026-01-18 22:45:07.33	121.68	21.80	-46.8	-48.4	18.8	0.00e+00	0	36	0	910163968	64	4514
2026-01-18 22:45:08.33	121.90	21.72	-47.3	-49.1	18.1	0.00e+00	0	36	0	912261120	65	4603
2026-01-18 22:45:09.34	122.13	21.65	-47.6	-49.5	17.7	0.00e+00	0	36	0	914358272	65	4819
2026-01-18 22:45:10.35	122.35	21.57	-47.6	-49.5	17.7	0.00e+00	0	36	0	915406848	65	4842
2026-01-18 22:45:11.36	122.57	21.49	-47.5	-49.4	17.8	0.00e+00	0	36	0	917504000	65	4778
2026-01-18 22:45:12.36	122.79	21.42	-47.3	-49.1	18.0	0.00e+00	0	36	0	919601152	65	4639
2026-01-18 22:45:13.37	123.01	21.34	-47.3	-49.0	18.1	0.00e+00	0	36	0	921698304	65	4587
2026-01-18 22:45:14.38	123.23	21.26	-47.1	-48.9	18.3	0.00e+00	0	36	0	923795456	65	4498
2026-01-18 22:45:15.39	123.44	21.18	-47.0	-48.7	18.4	0.00e+00	0	36	0	924844032	65	4421
2026-01-18 22:45:16.39	123.66	21.11	-47.3	-49.1	18.0	0.00e+00	0	36	0	926941184	65	4646
2026-01-18 22:45:17.40	123.87	21.03	-47.7	-49.7	17.4	0.00e+00	0	36	0	929038336	66	4656
2026-01-18 22:45:18.41	124.09	20.95	-47.6	-49.5	17.6	0.00e+00	0	36	0	931135488	66	4597
2026-01-18 22:45:19.42	124.30	20.87	-47.4	-49.3	17.8	0.00e+00	0	36	0	933232640	66	4443
2026-01-18 22:45:20.43	124.51	20.79	-47.1	-48.8	18.3	0.00e+00	0	36	0	934281216	65	4481
2026-01-18 22:45:21.43	124.72	20.71	-46.8	-48.5	18.6	0.00e+00	0	36	0	936378368	65	4302
2026-01-18 22:45:22.44	124.93	20.63	-46.7	-48.3	18.8	0.00e+00	0	36	0	938475520	64	4482
2026-01-18 22:45:23.45	125.14	20.55	-46.8	-48.4	18.7	0.00e+00	0	36	0	940572672	64	4510
2026-01-18 22:45:24.46	125.35	20.48	-47.0	-48.7	18.3	0.00e+00	0	36	0	942669824	64	4693
2026-01-18 22:45:25.46	125.55	20.40	-47.3	-49.1	18.0	0.00e+00	0	36	0	943718400	65	4611
2026-01-18 22:45:26.47	125.76	20.32	-47.3	-49.1	18.0	0.00e+00	0	36	0	945815552	65	4647
2026-01-18 22:45:27.48	125.96	20.24	-47.1	-48.9	18.2	0.00e+00	0	36	0	947912704	65	4501
2026-01-18 22:45:28.48	126.17	20.16	-47.0	-48.7	18.3	0.00e+00	0	36	0	950009856	64	4656
2026-01-18 22:45:29.49	126.37	20.08	-46.5	-48.1	18.9	0.00e+00	0	36	0	952107008	64	4359
2026-01-18 22:45:30.50	126.57	20.00	-46.2	-47.7	19.3	0.00e+00	0	36	0	953155584	64	4174
2026-01-18 22:45:31.51	126.77	19.92	-46.5	-48.0	19.1	0.00e+00	0	36	0	955252736	63	4575
2026-01-18 22:45:32.52	126.97	19.84	-46.6	-48.2	18.9	0.00e+00	0	36	0	957349888	63	4687
2026-01-18 22:45:33.53	127.17	19.76	-47.0	-48.7	18.3	0.00e+00	0	36	0	959447040	64	4685
2026-01-18 22:45:34.53	127.36	19.68	-47.5	-49.4	17.6	0.00e+00	0	36	0	961544192	65	4791
2026-01-18 22:45:35.54	127.56	19.60	-47.6	-49.5	17.5	0.00e+00	0	36	0	963641344	65	4842
2026-01-18 22:45:36.55	127.76	19.52	-47.6	-49.5	17.6	0.00e+00	0	36	0	964689920	65	4828
2026-01-18 22:45:37.56	127.95	19.44	-47.4	-49.2	17.8	0.00e+00	0	36	0	966787072	65	4675
2026-01-18 22:45:38.57	128.15	19.36	-47.2	-49.0	18.0	0.00e+00	0	36	0	968884224	65	4585
2026-01-18 22:45:39.57	128.34	19.28	-43.1	-48.8	18.2	0.00e+00	0	36	0	970981376	64	4751
2026-01-18 22:45:40.58	128.53	19.20	-46.7	-48.4	18.7	0.00e+00	0	36	0	972029952	64	4502
2026-01-18 22:45:41.59	128.72	19.12	-46.6	-48.2	18.8	0.00e+00	0	36	0	974127104	64	4392
2026-01-18 22:45:42.59	128.91	19.04	-47.0	-48.7	18.4	0.00e+00	0	36	0	976224256	64	4673
2026-01-18 22:45:43.60	129.10	18.96	-47.4	-49.3	17.8	0.00e+00	0	36	0	978321408	65	4725
2026-01-18 22:45:44.61	129.28	18.87	-47.7	-49.7	17.3	0.00e+00	0	36	0	980418560	66	4700
2026-01-18 22:45:45.62	129.47	18.79	-47.8	-49.8	17.3	0.00e+00	0	36	0	981467136	66	4742
2026-01-18 22:45:46.63	129.66	18.71	-47.7	-49.7	17.3	0.00e+00	0	36	0	983564288	66	4668
2026-01-18 22:45:47.63	129.84	18.63	-47.2	-49.0	18.0	0.00e+00	0	36	0	985661440	66	4306
2026-01-18 22:45:48.64	130.02	18.55	-47.0	-48.8	18.2	0.00e+00	0	36	0	987758592	64	4721
2026-01-18 22:45:49.65	130.21	18.47	-47.0	-48.8	18.2	0.00e+00	0	36	0	989855744	64	4724
2026-01-18 22:45:50.66	130.39	18.39	-46.8	-48.4	18.5	0.00e+00	0	36	0	991952896	64	4544
2026-01-18 22:45:51.67	130.57	18.31	-46.8	-48.5	18.5	0.00e+00	0	36	0	993001472	64	4563
2026-01-18 22:45:52.67	130.75	18.23	-46.7	-48.4	18.6	0.00e+00	0	36	0	995098624	64	4507
2026-01-18 22:45:53.68	130.93	18.15	-46.7	-48.4	18.6	0.00e+00	0	36	0	997195776	64	4508
2026-01-18 22:45:54.69	131.11	18.07	-46.8	-48.4	18.5	0.00e+00	0	36	0	999292928	64	4544
2026-01-18 22:45:55.70	131.28	17.99	-46.8	-48.4	18.5	0.00e+00	0	36	0	1000341504	64	4540
2026-01-18 22:45:56.71	131.46	17.91	-46.5	-48.1	18.9	0.00e+00	0	36	0	1002438656	64	4349
2026-01-18 22:45:57.71	131.63	17.82	-46.4	-48.0	19.0	0.00e+00	0	36	0	1004535808	63	4570
2026-01-18 22:45:58.72	131.81	17.74	-46.4	-47.9	19.1	0.00e+00	0	36	0	1006632960	63	4529
2026-01-18 22:45:59.73	131.98	17.66	-45.4	-47.9	19.1	0.00e+00	0	36	0	1008730112	63	4545
2026-01-18 22:46:00.74	132.15	17.58	-46.5	-48.0	19.0	0.00e+00	0	36	0	1010827264	63	4590
2026-01-18 22:46:01.75	132.33	17.50	-46.7	-48.3	18.7	0.00e+00	0	36	0	1011875840	63	4749
2026-01-18 22:46:02.76	132.50	17.42	-46.7	-48.3	18.6	0.00e+00	0	36	0	1013972992	64	4472
2026-01-18 22:46:03.77	132.67	17.34	-46.7	-48.3	18.6	0.00e+00	0	36	0	1016070144	64	4468
2026-01-18 22:46:04.78	132.84	17.26	-46.7	-48.4	18.5	0.00e+00	0	36	0	1018167296	64	4517
2026-01-18 22:46:05.78	133.00	17.18	-46.5	-48.2	18.8	0.00e+00	0	36	0	1020264448	64	4400
2026-01-18 22:46:06.79	133.17	17.10	-46.5	-48.1	18.8	0.00e+00	0	36	0	1021313024	64	4365
2026-01-18 22:46:07.80	133.34	17.02	-46.4	-48.0	18.9	0.00e+00	0	36	0	1023410176	64	4328
2026-01-18 22:46:08.81	133.50	16.94	-46.3	-47.8	19.1	0.00e+00	0	36	0	1025507328	64	4217
2026-01-18 22:46:09.81	133.67	16.86	-46.1	-47.6	19.3	0.00e+00	0	36	0	1027604480	64	4125
2026-01-18 22:46:10.82	133.83	16.78	-46.2	-47.7	19.1	0.00e+00	0	36	0	1028653056	64	4183
2026-01-18 22:46:11.83	134.00	16.70	-46.2	-47.7	19.2	0.00e+00	0	36	0	1030750208	63	4433
2026-01-18 22:46:12.83	134.16	16.62	-46.2	-47.7	19.3	0.00e+00	0	36	0	1032847360	63	4393
2026-01-18 22:46:13.84	134.32	16.54	-46.3	-47.8	19.2	0.00e+00	0	36	0	1034944512	63	4470
2026-01-18 22:46:14.85	134.48	16.45	-46.4	-48.0	19.0	0.00e+00	0	36	0	1037041664	63	4546
2026-01-18 22:46:15.86	134.64	16.37	-46.3	-47.8	19.1	0.00e+00	0	36	0	1039138816	63	4483
2026-01-18 22:46:16.87	134.80	16.29	-46.3	-47.9	19.1	0.00e+00	0	36	0	1040187392	63	4497
2026-01-18 22:46:17.88	134.96	16.21	-46.2	-47.7	19.2	0.00e+00	0	36	0	1042284544	63	4439
2026-01-18 22:46:18.88	135.11	16.13	-46.2	-47.7	19.2	0.00e+00	0	36	0	1044381696	63	4409
2026-01-18 22:46:19.90	135.27	16.05	-46.1	-47.6	19.3	0.00e+00	0	36	0	1046478848	62	4633
2026-01-18 22:46:20.90	135.43	15.97	-46.1	-47.6	19.3	0.00e+00	0	36	0	1048576000	62	4638
2026-01-18 22:46:21.91	135.58	15.89	-46.1	-47.6	19.3	0.00e+00	0	36	0	1049624576	62	4641
2026-01-18 22:46:22.92	135.74	15.81	-46.1	-47.6	19.3	0.00e+00	0	36	0	1051721728	62	4602
2026-01-18 22:46:23.93	135.89	15.73	-46.0	-47.5	19.4	0.00e+00	0	36	0	1053818880	62	4571
2026-01-18 22:46:24.93	136.04	15.66	-46.1	-47.7	19.3	0.00e+00	0	36	0	1055916032	62	4653
2026-01-18 22:46:25.94	136.19	15.58	-46.1	-47.6	19.3	0.00e+00	0	36	0	1058013184	62	4611
2026-01-18 22:46:26.95	136.34	15.50	-46.2	-47.7	19.1	0.00e+00	0	36	0	1059061760	62	4703
2026-01-18 22:46:27.96	136.49	15.42	-46.3	-47.8	19.1	0.00e+00	0	36	0	1061158912	63	4473
2026-01-18 22:46:28.96	136.64	15.34	-46.4	-48.0	19.0	0.00e+00	0	36	0	1063256064	63	4546
2026-01-18 22:46:29.97	136.79	15.26	-46.5	-48.1	18.7	0.00e+00	0	36	0	1065353216	63	4651
2026-01-18 22:46:30.98	136.94	15.18	-46.6	-48.3	18.6	0.00e+00	0	36	0	1067450368	63	4732
2026-01-18 22:46:31.99	137.09	15.10	-46.6	-48.3	18.5	0.00e+00	0	36	0	1068498944	64	4444
2026-01-18 22:46:33.00	137.23	15.02	-46.7	-48.4	18.5	0.00e+00	0	36	0	1070596096	64	4495
2026-01-18 22:46:34.00	137.38	14.94	-46.6	-48.3	18.5	0.00e+00	0	36	0	1072693248	64	4475
2026-01-18 22:46:35.01	137.52	14.86	-46.6	-48.3	18.5	0.00e+00	0	36	0	1074790400	64	4447
2026-01-18 22:46:36.02	137.67	14.78	-46.6	-48.3	18.5	0.00e+00	0	36	0	1076887552	64	4480
2026-01-18 22:46:37.03	137.81	14.71	-46.7	-48.3	18.4	0.00e+00	0	36	0	1077936128	64	4490
2026-01-18 22:46:38.03	137.95	14.63	-46.5	-48.1	18.7	0.00e+00	0	36	0	1080033280	64	4365
2026-01-18 22:46:39.04	138.09	14.55	-46.4	-48.1	18.7	0.00e+00	0	36	0	1082130432	64	4343
2026-01-18 22:46:40.05	138.24	14.47	-46.6	-48.2	18.7	0.00e+00	0	36	0	1084227584	63	4670
2026-01-18 22:46:41.06	138.38	14.39	-46.5	-48.2	18.7	0.00e+00	0	36	0	1086324736	63	4659
2026-01-18 22:46:42.07	138.52	14.31	-46.6	-48.3	18.6	0.00e+00	0	36	0	1087373312	63	4711
2026-01-18 22:46:43.07	138.66	14.24	-46.6	-48.3	18.6	0.00e+00	0	36	0	1089470464	63	4707
2026-01-18 22:46:44.08	138.79	14.16	-46.5	-48.2	18.7	0.00e+00	0	36	0	1091567616	63	4659
2026-01-18 22:46:45.09	138.93	14.08	-46.5	-48.2	18.7	0.00e+00	0	36	0	1093664768	63	4659
2026-01-18 22:46:46.10	139.07	14.00	-46.4	-48.0	18.8	0.00e+00	0	36	0	1095761920	63	4584
2026-01-18 22:46:47.11	139.21	13.92	-46.4	-48.1	18.8	0.00e+00	0	36	0	1096810496	63	4599
2026-01-18 22:46:48.11	139.34	13.85	-46.6	-48.2	18.6	0.00e+00	0	36	0	1098907648	63	4695
2026-01-18 22:46:49.12	139.48	13.77	-46.6	-48.3	18.6	0.00e+00	0	36	0	1101004800	63	4725
2026-01-18 22:46:50.13	139.61	13.69	-46.6	-48.2	18.6	0.00e+00	0	36	0	1103101952	63	4699
2026-01-18 22:46:51.13	139.74	13.62	-46.6	-48.3	18.5	0.00e+00	0	36	0	1105199104	63	4741
2026-01-18 22:46:52.14	139.88	13.54	-46.7	-48.4	18.4	0.00e+00	0	36	0	1107296256	64	4503
2026-01-18 22:46:53.15	140.01	13.46	-47.0	-48.8	17.9	0.00e+00	0	36	0	1108344832	64	4728
2026-01-18 22:46:54.16	140.14	13.38	-47.0	-48.9	17.9	0.00e+00	0	36	0	1110441984	64	4764
2026-01-18 22:46:55.17	140.27	13.31	-47.1	-49.0	17.7	0.00e+00	0	36	0	1112539136	64	4847
2026-01-18 22:46:56.18	140.40	13.23	-47.4	-49.4	17.4	0.00e+00	0	36	0	1114636288	65	4766
2026-01-18 22:46:57.19	140.53	13.15	-47.4	-49.3	17.2	0.00e+00	0	36	0	1115684864	65	4748
2026-01-18 22:46:58.19	140.66	13.08	-47.6	-49.6	17.1	0.00e+00	0	36	0	1117782016	65	4888
2026-01-18 22:46:59.20	140.79	13.00	-47.5	-49.5	17.2	0.00e+00	0	36	0	1119879168	65	4825
2026-01-18 22:47:00.21	140.92	12.92	-47.4	-49.4	17.3	0.00e+00	0	36	0	1121976320	65	4796
2026-01-18 22:47:01.22	141.04	12.85	-47.6	-49.7	17.0	0.00e+00	0	36	0	1124073472	65	4956
2026-01-18 22:47:02.23	141.17	12.77	-47.4	-49.4	17.3	0.00e+00	0	36	0	1125122048	65	4791
2026-01-18 22:47:03.24	141.30	12.70	-47.5	-49.5	17.2	0.00e+00	0	36	0	1127219200	65	4843
2026-01-18 22:47:04.24	141.42	12.62	-47.4	-49.4	17.3	0.00e+00	0	36	0	1129316352	65	4779
2026-01-18 22:47:05.25	141.55	12.54	-47.4	-49.4	17.3	0.00e+00	0	36	0	1131413504	65	4774
2026-01-18 22:47:06.26	141.67	12.47	-47.5	-49.5	17.1	0.00e+00	0	36	0	1133510656	65	4869
2026-01-18 22:47:07.27	141.79	12.39	-47.4	-49.3	17.4	0.00e+00	0	36	0	1135607808	65	4750
2026-01-18 22:47:08.27	141.91	12.32	-47.4	-49.4	17.3	0.00e+00	0	36	0	1136656384	65	4809
2026-01-18 22:47:09.28	142.04	12.24	-47.6	-49.7	17.0	0.00e+00	0	36	0	1138753536	65	4955
2026-01-18 22:47:10.29	142.16	12.17	-47.4	-49.4	17.3	0.00e+00	0	36	0	1140850688	65	4807
2026-01-18 22:47:11.30	142.28	12.09	-47.6	-49.7	17.0	0.00e+00	0	36	0	1142947840	65	4963
2026-01-18 22:47:12.31	142.40	12.02	-47.7	-49.8	16.8	0.00e+00	0	36	0	1143996416	65	5032
2026-01-18 22:47:13.32	142.52	11.94	-47.7	-49.8	16.9	0.00e+00	0	36	0	1146093568	65	5031
2026-01-18 22:47:14.33	142.64	11.87	-47.9	-50.1	16.6	0.00e+00	0	36	0	1148190720	66	4897
2026-01-18 22:47:15.33	142.76	11.79	-47.6	-49.6	17.0	0.00e+00	0	36	0	1150287872	66	4641
2026-01-18 22:47:16.34	142.88	11.72	-47.7	-49.8	16.9	0.00e+00	0	36	0	1152385024	66	4719
2026-01-18 22:47:17.35	142.99	11.64	-47.8	-49.9	16.8	0.00e+00	0	36	0	1154482176	66	4781
2026-01-18 22:47:18.35	143.11	11.57	-47.6	-49.7	17.0	0.00e+00	0	36	0	1155530752	66	4659
2026-01-18 22:47:19.36	143.23	11.50	-47.6	-49.6	17.0	0.00e+00	0	36	0	1157627904	66	4630
2026-01-18 22:47:20.37	143.34	11.42	-47.5	-49.5	17.1	0.00e+00	0	36	0	1159725056	65	4849
2026-01-18 22:47:21.38	143.46	11.35	-47.4	-49.4	17.2	0.00e+00	0	36	0	1161822208	65	4805
2026-01-18 22:47:22.39	143.57	11.28	-47.4	-49.4	17.2	0.00e+00	0	36	0	1163919360	65	4796
2026-01-18 22:47:23.40	143.69	11.20	-47.4	-49.5	17.2	0.00e+00	0	36	0	1164967936	65	4816
2026-01-18 22:47:24.40	143.80	11.13	-47.5	-49.5	17.2	0.00e+00	0	36	0	1167065088	65	4836
2026-01-18 22:47:25.41	143.91	11.06	-47.4	-49.4	17.2	0.00e+00	0	36	0	1169162240	65	4801
2026-01-18 22:47:26.42	144.03	10.98	-47.4	-49.4	17.2	0.00e+00	0	36	0	1171259392	65	4798
2026-01-18 22:47:27.43	144.14	10.91	-47.5	-49.6	17.0	0.00e+00	0	36	0	1172307968	65	4910
2026-01-18 22:47:28.43	144.25	10.84	-47.6	-49.7	16.8	0.00e+00	0	36	0	1174405120	65	4983
2026-01-18 22:47:29.44	144.36	10.76	-47.6	-49.8	16.8	0.00e+00	0	36	0	1176502272	65	5002
2026-01-18 22:47:30.45	144.47	10.69	-47.8	-49.9	16.7	0.00e+00	0	36	0	1178599424	66	4801
2026-01-18 22:47:31.46	144.58	10.62	-47.8	-50.0	16.6	0.00e+00	0	36	0	1180696576	66	4824
2026-01-18 22:47:32.47	144.69	10.54	-47.8	-50.0	16.6	0.00e+00	0	36	0	1182793728	66	4833
2026-01-18 22:47:33.47	144.80	10.47	-47.7	-49.8	16.8	0.00e+00	0	36	0	1183842304	66	4719
2026-01-18 22:47:34.48	144.91	10.40	-47.4	-49.5	17.1	0.00e+00	0	36	0	1185939456	65	4843
2026-01-18 22:47:35.49	145.01	10.33	-47.5	-49.6	17.0	0.00e+00	0	36	0	1188036608	65	4916
2026-01-18 22:47:36.49	145.12	10.26	-47.6	-49.7	16.9	0.00e+00	0	36	0	1190133760	65	4929
2026-01-18 22:47:37.50	145.23	10.18	-47.2	-49.1	17.4	0.00e+00	0	36	0	1192230912	65	4624
2026-01-18 22:47:38.51	145.33	10.11	-47.2	-49.1	17.4	0.00e+00	0	36	0	1193279488	65	4634
2026-01-18 22:47:39.52	145.44	10.04	-47.1	-49.0	17.5	0.00e+00	0	36	0	1195376640	65	4568
2026-01-18 22:47:40.53	145.55	9.97	-47.1	-49.1	17.4	0.00e+00	0	36	0	1197473792	64	4882
2026-01-18 22:47:41.53	145.65	9.90	-47.1	-49.0	17.6	0.00e+00	0	36	0	1199570944	64	4824
2026-01-18 22:47:42.54	145.75	9.83	-47.0	-48.9	17.6	0.00e+00	0	36	0	1201668096	64	4788
2026-01-18 22:47:43.55	145.86	9.76	-46.8	-48.7	17.8	0.00e+00	0	36	0	1202716672	64	4653
2026-01-18 22:47:44.56	145.96	9.69	-46.9	-48.7	17.8	0.00e+00	0	36	0	1204813824	64	4672
2026-01-18 22:47:45.57	146.06	9.61	-46.9	-48.8	17.7	0.00e+00	0	36	0	1206910976	64	4740
2026-01-18 22:47:46.57	146.17	9.54	-47.1	-49.0	17.5	0.00e+00	0	36	0	1209008128	64	4834
2026-01-18 22:47:47.58	146.27	9.47	-47.1	-49.1	17.4	0.00e+00	0	36	0	1211105280	64	4899
2026-01-18 22:47:48.59	146.37	9.40	-47.3	-49.2	17.2	0.00e+00	0	36	0	1212153856	65	4700
2026-01-18 22:47:49.60	146.47	9.33	-47.4	-49.5	17.0	0.00e+00	0	36	0	1214251008	65	4837
2026-01-18 22:47:50.61	146.57	9.26	-47.4	-49.5	17.0	0.00e+00	0	36	0	1216348160	65	4831
2026-01-18 22:47:51.61	146.67	9.19	-47.9	-50.1	16.3	0.00e+00	0	36	0	1218445312	66	4919
2026-01-18 22:47:52.62	146.77	9.12	-47.4	-49.5	16.9	0.00e+00	0	36	0	1220542464	66	4586
2026-01-18 22:47:53.63	146.87	9.05	-47.5	-49.6	16.9	0.00e+00	0	36	0	1221591040	66	4624
2026-01-18 22:47:54.64	146.97	8.98	-47.6	-49.7	16.8	0.00e+00	0	36	0	1223688192	66	4676
2026-01-18 22:47:55.64	147.07	8.91	-47.5	-49.6	16.9	0.00e+00	0	36	0	1225785344	66	4618
2026-01-18 22:47:56.65	147.16	8.84	-47.4	-49.4	17.0	0.00e+00	0	36	0	1227882496	66	4543
2026-01-18 22:47:57.66	147.26	8.77	-47.2	-49.2	17.2	0.00e+00	0	36	0	1229979648	65	4686
2026-01-18 22:47:58.67	147.36	8.70	-47.2	-49.1	17.3	0.00e+00	0	36	0	1231028224	65	4642
2026-01-18 22:47:59.67	147.45	8.64	-47.2	-49.2	17.2	0.00e+00	0	36	0	1233125376	65	4673
2026-01-18 22:48:00.68	147.55	8.57	-47.1	-49.1	17.3	0.00e+00	0	36	0	1235222528	64	4899
2026-01-18 22:48:01.69	147.65	8.50	-47.0	-48.9	17.4	0.00e+00	0	36	0	1237319680	64	4804
