passes_logs/2026/01/18/R3.2S_Murmansk/R3.2S_Murmansk__20260118_103948_AQUA_rec.log

#Pass ID: 20260118_103948_AQUA
#Satellite: AQUA
#Configuration: AQUA
#almurnet v.1.7.20251203
#Start time: 2026-01-18 10:39:49

#Version: 2.2.20231116
#Station: R3.2S_Murmansk
#Location: 33.079688 lon 68.888172 lat
#TLE: 1 27424U 02022A   26017.62394888  .00000781  00000+0  16630-3 0  9993
#TLE: 2 27424  98.4086 344.0954 0002010  75.0132 339.4723 14.61825944261279

#Time	Az	El	Level	Level2	SNR	BER	BlckErr	Temp	State	Recorded	gain1	gain2
2026-01-18 10:39:49.88	136.77	2.12	-53.4	-71.2	3.8	7.48e-01	0	34	0	0	78	27859
2026-01-18 10:39:50.88	136.75	2.19	-53.4	-71.2	3.8	7.48e-01	0	34	104	0	77	29582
2026-01-18 10:39:51.89	136.73	2.26	-53.4	-71.2	3.8	7.47e-01	0	34	104	0	77	29497
2026-01-18 10:39:52.90	136.71	2.32	-53.4	-71.2	3.8	7.44e-01	0	34	104	0	77	29459
2026-01-18 10:39:53.91	136.69	2.39	-53.4	-71.2	3.8	7.45e-01	0	34	104	0	77	29501
2026-01-18 10:39:54.92	136.67	2.46	-53.4	-71.2	3.8	7.48e-01	0	34	104	0	77	29482
2026-01-18 10:39:55.92	136.66	2.53	-53.4	-71.2	3.8	7.45e-01	0	34	104	0	77	29375
2026-01-18 10:39:56.93	136.64	2.59	-53.4	-71.2	3.8	7.44e-01	0	34	104	0	77	29429
2026-01-18 10:39:57.94	136.62	2.66	-53.4	-71.2	3.8	7.44e-01	0	34	104	0	77	29449
2026-01-18 10:39:58.95	136.60	2.73	-53.4	-71.2	3.8	7.48e-01	0	34	104	0	77	29468
2026-01-18 10:39:59.96	136.58	2.80	-53.4	-71.1	3.8	7.44e-01	0	34	104	0	77	29346
2026-01-18 10:40:00.97	136.56	2.87	-53.4	-71.1	3.8	7.44e-01	0	34	104	0	77	29266
2026-01-18 10:40:01.97	136.54	2.94	-53.4	-71.1	3.8	7.48e-01	0	34	104	0	77	29165
2026-01-18 10:40:02.98	136.52	3.01	-53.4	-71.1	3.8	7.45e-01	0	34	104	0	77	29152
2026-01-18 10:40:03.99	136.50	3.08	-53.4	-71.1	3.8	7.43e-01	0	34	104	0	77	29146
2026-01-18 10:40:05.00	136.48	3.15	-53.4	-71.1	3.8	7.46e-01	0	34	104	0	77	29031
2026-01-18 10:40:06.01	136.46	3.22	-53.4	-70.9	3.8	7.45e-01	0	34	104	0	77	28576
2026-01-18 10:40:07.02	136.44	3.29	-53.3	-70.8	3.8	7.47e-01	0	34	104	0	77	28071
2026-01-18 10:40:08.02	136.42	3.36	-53.4	-70.5	3.8	7.43e-01	0	34	104	0	77	27247
2026-01-18 10:40:09.02	136.40	3.43	-53.3	-70.3	3.8	7.44e-01	0	34	104	0	77	26758
2026-01-18 10:40:10.03	136.38	3.50	-53.3	-70.3	3.8	7.44e-01	0	34	104	0	77	26505
2026-01-18 10:40:11.04	136.36	3.57	-53.3	-69.7	3.8	7.45e-01	0	34	104	0	77	24944
2026-01-18 10:40:12.05	136.34	3.64	-53.3	-68.6	4.0	7.40e-01	0	34	104	0	77	21996
2026-01-18 10:40:13.05	136.32	3.71	-53.2	-67.0	4.4	7.29e-01	0	34	104	0	77	18130
2026-01-18 10:40:14.06	136.30	3.78	-53.1	-65.2	5.2	7.06e-01	0	34	0	0	77	14855
2026-01-18 10:40:15.07	136.28	3.85	-53.0	-63.8	6.2	6.78e-01	182	34	0	524288	77	12558
2026-01-18 10:40:16.08	136.26	3.92	-52.9	-62.5	7.3	6.57e-01	182	34	0	2621440	77	10869
2026-01-18 10:40:17.08	136.24	4.00	-52.8	-61.7	8.3	6.44e-01	82	34	0	4718592	77	9836
2026-01-18 10:40:18.09	136.22	4.07	-52.8	-61.7	8.1	6.42e-01	135	34	0	6291456	77	9929
2026-01-18 10:40:19.10	136.19	4.14	-52.7	-61.6	8.3	6.42e-01	75	34	0	8388608	77	9741
2026-01-18 10:40:20.11	136.17	4.21	-52.7	-61.5	8.3	6.40e-01	69	34	0	9961472	77	9712
2026-01-18 10:40:21.11	136.15	4.28	-52.7	-61.4	8.6	6.37e-01	10	34	0	12058624	77	9497
2026-01-18 10:40:22.12	136.13	4.36	-52.6	-60.7	9.2	6.33e-01	0	35	0	14155776	77	8814
2026-01-18 10:40:23.13	136.11	4.43	-52.4	-59.5	10.4	6.22e-01	0	35	0	15728640	76	8171
2026-01-18 10:40:24.14	136.08	4.51	-51.9	-58.0	12.0	6.13e-01	0	34	0	17825792	75	7214
2026-01-18 10:40:25.15	136.06	4.58	-51.3	-56.1	13.9	6.08e-01	0	34	0	19398656	74	6173
2026-01-18 10:40:26.15	136.04	4.65	-50.7	-54.7	15.4	6.08e-01	0	35	0	21495808	73	5576
2026-01-18 10:40:27.16	136.02	4.73	-50.1	-53.5	16.5	6.05e-01	0	34	0	23068672	72	5153
2026-01-18 10:40:28.17	135.99	4.80	-49.4	-52.3	17.8	6.05e-01	0	34	0	25165824	70	5039
2026-01-18 10:40:29.17	135.97	4.87	-48.6	-51.1	19.2	6.07e-01	0	35	0	27262976	69	4606
2026-01-18 10:40:30.18	135.95	4.95	-48.2	-50.5	19.6	6.08e-01	0	35	0	28835840	68	4582
2026-01-18 10:40:31.19	135.93	5.03	-47.9	-50.1	20.3	6.07e-01	0	35	0	30932992	67	4609
2026-01-18 10:40:32.20	135.90	5.10	-49.8	-53.0	17.4	6.04e-01	0	35	0	33030144	70	5407
2026-01-18 10:40:33.21	135.88	5.18	-51.7	-56.9	12.8	6.08e-01	0	35	0	34603008	75	6405
2026-01-18 10:40:34.21	135.86	5.25	-48.9	-51.5	18.4	6.08e-01	0	35	0	36700160	69	4850
2026-01-18 10:40:35.22	135.83	5.33	-47.0	-48.8	21.5	6.06e-01	0	35	0	38273024	66	4205
2026-01-18 10:40:36.23	135.81	5.40	-50.7	-55.1	14.7	6.06e-01	0	35	0	40370176	72	6146
2026-01-18 10:40:37.24	135.78	5.48	-46.9	-48.7	21.6	6.10e-01	0	35	0	42467328	65	4429
2026-01-18 10:40:38.25	135.76	5.56	-46.8	-48.5	21.9	6.07e-01	0	35	0	44040192	65	4320
2026-01-18 10:40:39.25	135.74	5.63	-46.9	-48.7	21.7	6.05e-01	0	35	0	46137344	65	4406
2026-01-18 10:40:40.26	135.71	5.71	-46.7	-48.4	22.0	6.08e-01	0	35	0	47710208	65	4291
2026-01-18 10:40:41.27	135.69	5.79	-46.7	-48.5	22.0	6.04e-01	0	35	0	49807360	65	4302
2026-01-18 10:40:42.28	135.66	5.87	-46.9	-48.7	21.7	6.07e-01	0	35	0	51904512	65	4432
2026-01-18 10:40:43.29	135.64	5.94	-46.5	-48.2	22.3	6.04e-01	0	34	0	53477376	65	4186
2026-01-18 10:40:44.29	135.61	6.02	-46.7	-48.5	22.1	6.05e-01	0	35	0	55574528	65	4302
2026-01-18 10:40:45.30	135.59	6.10	-46.6	-48.3	22.3	6.07e-01	0	35	0	57147392	65	4197
2026-01-18 10:40:46.30	135.56	6.18	-46.9	-48.7	21.9	6.06e-01	0	35	0	59244544	65	4400
2026-01-18 10:40:47.31	135.53	6.26	-46.7	-48.4	22.1	6.08e-01	0	35	0	61341696	65	4286
2026-01-18 10:40:48.32	135.51	6.34	-46.9	-48.7	21.9	6.07e-01	0	35	0	62914560	65	4395
2026-01-18 10:40:49.33	135.48	6.42	-46.7	-48.3	22.2	6.04e-01	0	35	0	65011712	65	4241
2026-01-18 10:40:50.34	135.46	6.50	-46.5	-48.2	22.4	6.06e-01	0	35	0	66584576	65	4161
2026-01-18 10:40:51.35	135.43	6.58	-46.7	-48.4	22.3	6.05e-01	0	35	0	68681728	65	4244
2026-01-18 10:40:52.35	135.40	6.66	-46.8	-48.5	22.2	6.06e-01	0	35	0	70778880	65	4320
2026-01-18 10:40:53.36	135.38	6.74	-46.4	-48.1	22.5	6.08e-01	0	35	0	72351744	64	4350
2026-01-18 10:40:54.37	135.35	6.82	-46.5	-48.1	22.5	6.06e-01	0	35	0	74448896	64	4360
2026-01-18 10:40:55.38	135.32	6.90	-46.4	-48.1	22.6	6.05e-01	0	35	0	76546048	64	4346
2026-01-18 10:40:56.38	135.30	6.98	-46.6	-48.2	22.5	6.05e-01	0	35	0	78118912	64	4428
2026-01-18 10:40:57.39	135.27	7.06	-46.4	-48.0	22.7	6.03e-01	0	35	0	80216064	64	4292
2026-01-18 10:40:58.40	135.24	7.14	-46.4	-48.0	22.6	6.07e-01	0	35	0	81788928	64	4330
2026-01-18 10:40:59.41	135.21	7.23	-46.5	-48.1	22.6	6.06e-01	0	35	0	83886080	64	4365
2026-01-18 10:41:00.42	135.18	7.31	-46.3	-47.9	22.8	6.07e-01	0	35	0	85458944	64	4267
2026-01-18 10:41:01.42	135.16	7.39	-46.4	-48.0	22.8	6.05e-01	0	35	0	87556096	64	4297
2026-01-18 10:41:02.43	135.13	7.47	-46.3	-47.9	22.8	6.05e-01	0	35	0	89653248	64	4273
2026-01-18 10:41:03.44	135.10	7.56	-46.3	-47.9	22.8	6.07e-01	0	35	0	91226112	64	4282
2026-01-18 10:41:04.45	135.07	7.64	-46.4	-48.0	22.8	6.05e-01	0	35	0	93323264	64	4303
2026-01-18 10:41:05.46	135.04	7.73	-46.4	-48.1	22.7	6.03e-01	0	35	0	94896128	64	4343
2026-01-18 10:41:06.47	135.01	7.81	-46.3	-47.9	22.8	6.07e-01	0	35	0	96993280	64	4274
2026-01-18 10:41:07.48	134.98	7.90	-46.4	-47.9	22.8	6.07e-01	0	35	0	99090432	64	4282
2026-01-18 10:41:08.48	134.95	7.98	-46.4	-48.0	22.8	6.07e-01	0	35	0	100663296	64	4312
2026-01-18 10:41:09.49	134.92	8.07	-46.3	-47.8	23.0	6.07e-01	0	35	0	102760448	64	4228
2026-01-18 10:41:10.50	134.89	8.15	-46.3	-47.9	22.9	6.05e-01	0	35	0	104857600	64	4271
2026-01-18 10:41:11.51	134.86	8.24	-46.4	-48.0	22.8	6.06e-01	0	35	0	106430464	64	4303
2026-01-18 10:41:12.51	134.83	8.32	-46.4	-48.0	22.8	6.06e-01	0	35	0	108527616	64	4323
2026-01-18 10:41:13.52	134.80	8.41	-46.3	-47.8	23.0	6.05e-01	0	35	0	110100480	64	4236
2026-01-18 10:41:14.53	134.77	8.50	-46.4	-48.0	22.8	6.06e-01	0	35	0	112197632	64	4330
2026-01-18 10:41:15.54	134.74	8.58	-46.3	-47.9	23.0	6.06e-01	0	35	0	114294784	64	4262
2026-01-18 10:41:16.55	134.71	8.67	-46.2	-47.8	23.1	6.06e-01	0	35	0	115867648	64	4208
2026-01-18 10:41:17.55	134.68	8.76	-46.3	-47.9	23.0	6.06e-01	0	35	0	117964800	64	4257
2026-01-18 10:41:18.56	134.64	8.85	-46.4	-47.9	23.0	6.08e-01	0	35	0	119537664	64	4266
2026-01-18 10:41:19.57	134.61	8.94	-46.2	-47.7	23.2	6.05e-01	0	35	0	121634816	64	4179
2026-01-18 10:41:20.58	134.58	9.03	-46.2	-47.8	23.1	6.06e-01	0	35	0	123731968	64	4212
2026-01-18 10:41:21.59	134.55	9.11	-46.3	-47.8	23.1	6.06e-01	0	35	0	125304832	64	4224
2026-01-18 10:41:22.59	134.51	9.20	-46.3	-47.8	23.1	6.05e-01	0	35	0	127401984	64	4234
2026-01-18 10:41:23.60	134.48	9.29	-46.3	-47.8	23.1	6.04e-01	0	35	0	128974848	64	4213
2026-01-18 10:41:24.61	134.45	9.38	-46.3	-47.8	23.1	6.07e-01	0	35	0	131072000	64	4236
2026-01-18 10:41:25.62	134.41	9.47	-46.2	-47.8	23.2	6.08e-01	0	35	0	133169152	64	4200
2026-01-18 10:41:26.63	134.38	9.57	-46.1	-47.6	23.4	6.04e-01	0	35	0	134742016	64	4127
2026-01-18 10:41:27.63	134.35	9.66	-46.1	-47.5	23.5	6.07e-01	0	35	0	136839168	63	4330
2026-01-18 10:41:28.64	134.31	9.75	-46.1	-47.5	23.5	6.05e-01	0	35	0	138412032	63	4340
2026-01-18 10:41:29.65	134.28	9.84	-46.0	-47.5	23.5	6.05e-01	0	35	0	140509184	63	4320
2026-01-18 10:41:30.66	134.24	9.93	-46.0	-47.4	23.6	6.06e-01	0	35	0	142606336	63	4291
2026-01-18 10:41:31.66	134.21	10.03	-45.9	-47.4	23.7	6.05e-01	0	35	0	144179200	63	4263
2026-01-18 10:41:32.67	134.17	10.12	-45.9	-47.3	23.8	6.05e-01	0	35	0	146276352	63	4224
2026-01-18 10:41:33.68	134.14	10.21	-46.0	-47.4	23.7	6.05e-01	0	35	0	148373504	63	4278
2026-01-18 10:41:34.69	134.10	10.31	-45.8	-47.2	23.8	6.05e-01	0	35	0	149946368	63	4189
2026-01-18 10:41:35.69	134.06	10.40	-45.7	-47.1	24.0	6.08e-01	0	35	0	152043520	63	4121
2026-01-18 10:41:36.70	134.03	10.50	-45.8	-47.2	23.9	6.07e-01	0	35	0	153616384	63	4188
2026-01-18 10:41:37.71	133.99	10.59	-45.8	-47.2	23.9	6.07e-01	0	35	0	155713536	63	4162
2026-01-18 10:41:38.72	133.95	10.69	-45.7	-47.1	24.0	6.05e-01	0	35	0	157286400	63	4131
2026-01-18 10:41:39.73	133.92	10.78	-45.8	-47.2	23.9	6.07e-01	0	35	0	159383552	63	4174
2026-01-18 10:41:40.73	133.88	10.88	-45.6	-47.0	24.1	6.05e-01	0	35	0	161480704	63	4076
2026-01-18 10:41:41.74	133.84	10.98	-45.7	-47.1	24.0	6.06e-01	0	35	0	163053568	63	4139
2026-01-18 10:41:42.75	133.80	11.07	-45.8	-47.2	23.9	6.06e-01	0	35	0	165150720	63	4180
2026-01-18 10:41:43.75	133.77	11.17	-45.6	-47.0	24.2	6.08e-01	0	35	0	166723584	63	4052
2026-01-18 10:41:44.76	133.73	11.27	-45.7	-47.1	24.1	6.05e-01	0	35	0	168820736	63	4142
2026-01-18 10:41:45.77	133.69	11.37	-45.6	-47.0	24.2	6.05e-01	0	35	0	170917888	63	4062
2026-01-18 10:41:46.78	133.65	11.47	-45.6	-47.0	24.2	6.05e-01	0	35	0	172490752	63	4082
2026-01-18 10:41:47.78	133.61	11.56	-45.7	-47.1	24.1	6.04e-01	0	35	0	174587904	63	4110
2026-01-18 10:41:48.79	133.57	11.66	-45.5	-46.9	24.2	6.06e-01	0	35	0	176685056	63	4030
2026-01-18 10:41:49.80	133.53	11.76	-45.5	-46.9	24.3	6.06e-01	0	35	0	178257920	63	4034
2026-01-18 10:41:50.81	133.49	11.86	-45.5	-46.9	24.3	6.06e-01	0	35	0	180355072	63	4017
2026-01-18 10:41:51.82	133.45	11.97	-45.6	-46.9	24.3	6.05e-01	0	35	0	181927936	63	4046
2026-01-18 10:41:52.83	133.41	12.07	-45.4	-46.7	24.5	6.08e-01	0	35	0	184025088	62	4172
2026-01-18 10:41:53.83	133.36	12.17	-45.4	-46.7	24.5	6.05e-01	0	35	0	185597952	62	4169
2026-01-18 10:41:54.84	133.32	12.27	-45.5	-46.8	24.4	6.04e-01	0	35	0	187695104	62	4223
2026-01-18 10:41:55.85	133.28	12.37	-45.4	-46.7	24.4	6.05e-01	0	35	0	189792256	62	4184
2026-01-18 10:41:56.86	133.24	12.48	-45.3	-46.7	24.5	6.07e-01	0	35	0	191365120	62	4165
2026-01-18 10:41:57.87	133.19	12.58	-45.3	-46.7	24.5	6.07e-01	0	35	0	193462272	62	4155
2026-01-18 10:41:58.87	133.15	12.69	-45.4	-46.7	23.9	6.06e-01	0	35	0	195559424	62	4188
2026-01-18 10:41:59.88	133.11	12.79	-45.4	-46.8	24.4	6.07e-01	0	35	0	197132288	62	4200
2026-01-18 10:42:00.89	133.06	12.90	-45.3	-46.7	24.6	6.05e-01	0	35	0	199229440	62	4153
2026-01-18 10:42:01.90	133.02	13.00	-45.2	-46.5	24.7	6.06e-01	0	35	0	200802304	62	4069
2026-01-18 10:42:02.91	132.97	13.11	-45.2	-46.5	24.7	6.05e-01	0	35	0	202899456	62	4093
2026-01-18 10:42:03.91	132.93	13.21	-45.4	-46.7	24.5	6.05e-01	0	35	0	204996608	62	4178
2026-01-18 10:42:04.92	132.88	13.32	-45.3	-46.7	24.6	6.05e-01	0	35	0	206569472	62	4156
2026-01-18 10:42:05.93	132.84	13.43	-45.4	-46.8	24.5	6.05e-01	0	35	0	208666624	62	4197
2026-01-18 10:42:06.94	132.79	13.54	-45.4	-46.7	24.6	6.05e-01	0	35	0	210239488	62	4165
2026-01-18 10:42:07.94	132.74	13.65	-45.5	-46.8	24.5	6.06e-01	0	35	0	212336640	62	4225
2026-01-18 10:42:08.95	132.70	13.76	-45.5	-46.9	24.4	6.07e-01	0	35	0	213909504	62	4266
2026-01-18 10:42:09.96	132.65	13.87	-45.4	-46.7	24.6	6.05e-01	0	35	0	216006656	62	4180
2026-01-18 10:42:10.97	132.60	13.98	-45.5	-46.8	24.5	6.06e-01	0	35	0	218103808	62	4226
2026-01-18 10:42:11.97	132.55	14.09	-45.4	-46.7	24.6	6.05e-01	0	35	0	220200960	62	4175
2026-01-18 10:42:12.98	132.51	14.20	-45.5	-46.8	24.4	6.07e-01	0	35	0	221773824	62	4225
2026-01-18 10:42:13.99	132.46	14.31	-45.5	-46.9	24.4	6.08e-01	0	35	0	223870976	62	4251
2026-01-18 10:42:15.00	132.41	14.42	-45.4	-46.7	24.6	6.04e-01	0	35	0	225443840	62	4171
2026-01-18 10:42:16.01	132.36	14.54	-45.4	-46.7	24.5	6.07e-01	0	35	0	227540992	62	4187
2026-01-18 10:42:17.01	132.31	14.65	-45.3	-46.7	24.6	6.06e-01	0	35	0	229113856	62	4152
2026-01-18 10:42:18.02	132.26	14.76	-45.5	-46.8	24.5	6.05e-01	0	35	0	231211008	62	4234
2026-01-18 10:42:19.03	132.20	14.88	-45.4	-46.7	24.6	6.08e-01	0	35	0	233308160	62	4167
2026-01-18 10:42:20.04	132.15	14.99	-45.2	-46.5	24.8	6.07e-01	0	35	0	234881024	62	4097
2026-01-18 10:42:21.05	132.10	15.11	-45.1	-46.3	24.9	6.04e-01	0	35	0	236978176	62	4001
2026-01-18 10:42:22.05	132.05	15.23	-45.0	-46.3	25.0	6.07e-01	0	35	0	238551040	62	3987
2026-01-18 10:42:23.06	131.99	15.34	-45.1	-46.3	25.0	6.05e-01	0	35	0	240648192	62	3993
2026-01-18 10:42:24.07	131.94	15.46	-44.9	-46.2	25.0	6.07e-01	0	35	0	242221056	61	4169
2026-01-18 10:42:25.08	131.89	15.58	-44.9	-46.2	25.1	6.06e-01	0	35	0	244318208	61	4175
2026-01-18 10:42:26.09	131.83	15.70	-44.9	-46.2	25.1	6.06e-01	0	35	0	246415360	61	4177
2026-01-18 10:42:27.09	131.78	15.82	-44.8	-46.1	25.2	6.07e-01	0	35	0	248512512	61	4117
2026-01-18 10:42:28.10	131.72	15.94	-44.7	-46.0	25.3	6.05e-01	0	35	0	250085376	61	4057
2026-01-18 10:42:29.11	131.67	16.06	-44.7	-45.9	25.4	6.05e-01	0	35	0	252182528	61	4031
2026-01-18 10:42:30.11	131.61	16.18	-44.7	-46.0	25.3	6.05e-01	0	35	0	253755392	61	4062
2026-01-18 10:42:31.12	131.55	16.30	-44.7	-46.0	25.3	6.07e-01	0	35	0	255852544	61	4066
2026-01-18 10:42:32.13	131.49	16.43	-44.6	-45.8	25.5	6.06e-01	0	35	0	257425408	61	3979
2026-01-18 10:42:33.14	131.44	16.55	-44.6	-45.8	25.5	6.06e-01	0	35	0	259522560	61	3980
2026-01-18 10:42:34.15	131.38	16.67	-44.6	-45.8	25.5	6.07e-01	0	35	0	261619712	61	3989
2026-01-18 10:42:35.15	131.32	16.80	-44.6	-45.8	25.5	6.06e-01	0	35	0	263192576	61	3992
2026-01-18 10:42:36.16	131.26	16.92	-44.7	-45.9	25.4	6.05e-01	0	35	0	265289728	61	4022
2026-01-18 10:42:37.17	131.20	17.05	-44.8	-46.0	25.3	6.06e-01	0	35	0	266862592	61	4083
2026-01-18 10:42:38.18	131.14	17.18	-44.8	-46.0	25.3	6.06e-01	0	35	0	268959744	61	4081
2026-01-18 10:42:39.19	131.08	17.30	-44.8	-46.1	25.2	6.06e-01	0	35	0	271056896	61	4121
2026-01-18 10:42:40.19	131.01	17.43	-44.9	-46.2	25.2	6.07e-01	0	35	0	272629760	61	4158
2026-01-18 10:42:41.20	130.95	17.56	-45.0	-46.2	25.1	6.07e-01	0	35	0	274726912	61	4182
2026-01-18 10:42:42.21	130.89	17.69	-45.1	-46.3	25.0	6.06e-01	0	35	0	276824064	61	4239
2026-01-18 10:42:43.21	130.82	17.82	-45.1	-46.3	25.1	6.04e-01	0	35	0	278396928	61	4225
2026-01-18 10:42:44.22	130.76	17.95	-45.0	-46.3	25.1	6.06e-01	0	35	0	280494080	61	4216
2026-01-18 10:42:45.23	130.69	18.08	-45.1	-46.3	25.1	6.07e-01	0	35	0	282066944	61	4234
2026-01-18 10:42:46.24	130.63	18.22	-45.1	-46.3	25.1	6.07e-01	0	35	0	284164096	61	4234
2026-01-18 10:42:47.25	130.56	18.35	-45.0	-46.3	25.1	6.07e-01	0	35	0	285736960	61	4218
2026-01-18 10:42:48.25	130.50	18.48	-45.1	-46.3	25.1	6.06e-01	0	35	0	287834112	61	4229
2026-01-18 10:42:49.26	130.43	18.62	-45.1	-46.3	25.1	6.07e-01	0	35	0	289931264	61	4239
2026-01-18 10:42:50.27	130.36	18.75	-45.0	-46.3	25.1	6.07e-01	0	35	0	291504128	61	4209
2026-01-18 10:42:51.28	130.29	18.89	-45.0	-46.2	25.1	6.06e-01	0	35	0	293601280	61	4193
2026-01-18 10:42:52.29	130.22	19.03	-44.9	-46.1	25.3	6.06e-01	0	35	0	295698432	61	4132
2026-01-18 10:42:53.29	130.15	19.16	-44.9	-46.1	25.3	6.06e-01	0	35	0	297271296	61	4139
2026-01-18 10:42:54.30	130.08	19.30	-44.9	-46.2	25.3	6.04e-01	0	35	0	299368448	61	4148
2026-01-18 10:42:55.31	130.01	19.44	-44.9	-46.1	25.3	6.07e-01	0	35	0	300941312	61	4143
2026-01-18 10:42:56.31	129.93	19.58	-44.9	-46.1	25.3	6.07e-01	0	35	0	303038464	61	4118
2026-01-18 10:42:57.32	129.86	19.72	-44.9	-46.1	25.3	6.04e-01	0	35	0	305135616	61	4120
2026-01-18 10:42:58.33	129.79	19.87	-44.9	-46.2	25.3	6.06e-01	0	35	0	306708480	61	4167
2026-01-18 10:42:59.34	129.71	20.01	-44.9	-46.2	25.3	6.06e-01	0	35	0	308805632	61	4151
2026-01-18 10:43:00.35	129.64	20.15	-45.0	-46.3	25.2	6.06e-01	0	35	0	310378496	61	4204
2026-01-18 10:43:01.35	129.56	20.30	-45.1	-46.3	25.1	6.07e-01	0	35	0	312475648	61	4234
2026-01-18 10:43:02.36	129.48	20.44	-45.1	-46.3	25.2	6.04e-01	0	35	0	314048512	61	4223
2026-01-18 10:43:03.37	129.40	20.59	-45.2	-46.4	25.1	6.04e-01	0	35	0	316145664	61	4277
2026-01-18 10:43:04.38	129.33	20.74	-45.2	-46.4	25.0	6.07e-01	0	35	0	318242816	61	4286
2026-01-18 10:43:05.39	129.25	20.88	-45.2	-46.5	25.0	6.04e-01	0	35	0	320339968	61	4331
2026-01-18 10:43:06.39	129.17	21.03	-45.4	-46.7	24.8	6.05e-01	0	35	0	321912832	61	4398
2026-01-18 10:43:07.40	129.08	21.18	-45.4	-46.7	24.8	6.05e-01	0	35	0	324009984	61	4427
2026-01-18 10:43:08.41	129.00	21.33	-45.4	-46.8	24.8	6.06e-01	0	35	0	325582848	61	4446
2026-01-18 10:43:09.42	128.92	21.49	-45.5	-46.8	24.7	6.06e-01	0	35	0	327680000	61	4454
2026-01-18 10:43:10.43	128.84	21.64	-45.4	-46.7	24.8	6.05e-01	0	35	0	329252864	61	4412
2026-01-18 10:43:11.43	128.75	21.79	-45.4	-46.7	24.8	6.07e-01	0	35	0	331350016	61	4434
2026-01-18 10:43:12.44	128.66	21.95	-45.3	-46.6	24.9	6.05e-01	0	35	0	333447168	61	4358
2026-01-18 10:43:13.45	128.58	22.10	-45.2	-46.4	25.1	6.06e-01	0	35	0	335020032	61	4287
2026-01-18 10:43:14.46	128.49	22.26	-45.2	-46.4	25.1	6.05e-01	0	35	0	337117184	61	4289
2026-01-18 10:43:15.47	128.40	22.42	-45.0	-46.3	25.3	6.04e-01	0	35	0	338690048	61	4197
2026-01-18 10:43:16.47	128.31	22.57	-44.9	-46.2	25.4	6.06e-01	0	35	0	340787200	61	4153
2026-01-18 10:43:17.48	128.22	22.73	-45.4	-56.3	3.8	7.49e-01	0	35	104	342360064	61	13299
2026-01-18 10:43:18.49	128.13	22.89	-45.4	-56.1	3.9	7.42e-01	0	36	104	342360064	61	13105
2026-01-18 10:43:19.50	128.04	23.06	-45.4	-56.2	3.9	7.39e-01	0	36	104	342360064	61	13188
2026-01-18 10:43:20.50	127.94	23.22	-46.0	-56.8	3.9	7.41e-01	0	35	104	342360064	62	13324
2026-01-18 10:43:21.51	127.85	23.38	-50.4	-62.5	3.8	7.46e-01	0	35	104	342360064	71	15366
2026-01-18 10:43:22.52	127.75	23.54	-52.1	-65.2	3.9	7.44e-01	0	36	104	342360064	76	15582
2026-01-18 10:43:23.53	127.66	23.71	-47.5	-58.6	3.9	7.45e-01	0	35	104	342360064	67	12333
2026-01-18 10:43:24.54	127.56	23.88	-46.1	-57.0	4.0	7.41e-01	0	35	104	342360064	63	12914
2026-01-18 10:43:25.55	127.46	24.05	-46.1	-57.0	3.9	7.40e-01	0	36	104	342360064	63	12822
2026-01-18 10:43:26.55	127.36	24.21	-45.9	-56.8	3.9	7.41e-01	0	35	104	342360064	63	12616
2026-01-18 10:43:27.56	127.26	24.38	-45.7	-56.5	3.9	7.43e-01	0	35	104	342360064	63	12141
2026-01-18 10:43:28.57	127.15	24.55	-46.9	-57.8	3.9	7.42e-01	0	35	104	342360064	64	13331
2026-01-18 10:43:29.57	127.05	24.73	-51.7	-64.2	3.8	7.45e-01	0	35	104	342360064	73	16528
2026-01-18 10:43:30.58	126.95	24.90	-48.1	-59.3	3.8	7.46e-01	0	35	104	342360064	68	12654
2026-01-18 10:43:31.59	126.84	25.07	-53.3	-66.5	3.8	7.47e-01	0	35	104	342360064	76	18169
2026-01-18 10:43:32.60	126.73	25.25	-48.3	-59.4	3.8	7.45e-01	0	35	104	342360064	68	12772
2026-01-18 10:43:33.61	126.62	25.43	-46.0	-56.8	3.9	7.41e-01	0	35	104	342360064	63	12657
2026-01-18 10:43:34.61	126.51	25.60	-45.8	-56.4	4.4	7.26e-01	0	36	104	342360064	63	12085
2026-01-18 10:43:35.62	126.40	25.78	-49.7	-61.2	3.8	7.45e-01	0	35	104	342360064	69	14735
2026-01-18 10:43:36.63	126.29	25.96	-48.0	-59.1	4.3	7.27e-01	0	36	104	342360064	68	12345
2026-01-18 10:43:37.64	126.17	26.14	-53.1	-66.8	3.8	7.48e-01	0	35	104	342360064	76	18851
2026-01-18 10:43:38.65	126.06	26.33	-51.7	-64.2	3.8	7.49e-01	0	35	104	342360064	75	14877
2026-01-18 10:43:39.65	125.94	26.51	-46.1	-57.0	3.9	7.39e-01	0	35	104	342360064	64	12137
2026-01-18 10:43:40.66	125.82	26.69	-45.9	-56.7	3.8	7.47e-01	0	35	104	342360064	63	12517
2026-01-18 10:43:41.67	125.70	26.88	-45.9	-56.7	3.8	7.45e-01	0	35	104	342360064	63	12452
2026-01-18 10:43:42.68	125.58	27.07	-45.5	-56.4	3.8	7.46e-01	0	35	104	342360064	63	11964
2026-01-18 10:43:43.69	125.46	27.26	-46.0	-56.9	3.8	7.48e-01	0	36	104	342360064	63	12670
2026-01-18 10:43:44.70	125.33	27.45	-46.8	-57.8	3.9	7.45e-01	0	35	104	342360064	64	13377
2026-01-18 10:43:45.71	125.20	27.64	-54.3	-70.2	3.7	7.49e-01	0	35	104	342360064	79	23379
2026-01-18 10:43:46.71	125.08	27.83	-51.5	-63.9	3.8	7.47e-01	0	36	104	342360064	75	14264
2026-01-18 10:43:47.72	124.95	28.03	-45.7	-56.5	3.8	7.45e-01	0	36	104	342360064	63	12219
2026-01-18 10:43:48.73	124.82	28.22	-45.7	-56.6	3.8	7.44e-01	0	35	104	342360064	63	12277
2026-01-18 10:43:49.74	124.68	28.42	-45.6	-56.5	3.8	7.43e-01	0	36	104	342360064	63	12143
2026-01-18 10:43:50.75	124.55	28.62	-45.2	-55.9	3.8	7.47e-01	0	35	104	342360064	62	12050
2026-01-18 10:43:51.75	124.41	28.81	-45.4	-56.2	3.8	7.44e-01	0	36	104	342360064	62	12437
2026-01-18 10:43:52.76	124.27	29.01	-46.5	-57.4	3.8	7.47e-01	0	36	104	342360064	63	13510
2026-01-18 10:43:53.77	124.13	29.22	-54.3	-70.1	3.7	7.48e-01	0	36	104	342360064	79	23069
2026-01-18 10:43:54.78	123.99	29.42	-51.3	-63.6	3.8	7.49e-01	0	36	104	342360064	74	14625
2026-01-18 10:43:55.79	123.85	29.62	-45.4	-56.2	3.8	7.41e-01	0	35	104	342360064	62	12398
2026-01-18 10:43:56.79	123.70	29.83	-45.5	-56.3	3.8	7.42e-01	0	36	104	342360064	62	12664
2026-01-18 10:43:57.80	123.55	30.04	-45.7	-56.6	3.8	7.45e-01	0	35	104	342360064	62	13001
2026-01-18 10:43:58.81	123.40	30.25	-45.3	-56.1	3.8	7.46e-01	0	35	104	342360064	62	12274
2026-01-18 10:43:59.82	123.25	30.46	-45.1	-55.9	3.8	7.46e-01	0	36	104	342360064	61	12777
2026-01-18 10:44:00.83	123.10	30.67	-49.9	-61.6	3.8	7.46e-01	0	35	104	342360064	70	14699
2026-01-18 10:44:01.83	122.94	30.88	-52.3	-65.3	3.8	7.47e-01	0	36	104	342360064	75	16799
2026-01-18 10:44:02.84	122.78	31.09	-46.0	-56.6	3.8	7.41e-01	0	36	104	342360064	63	12369
2026-01-18 10:44:03.85	122.62	31.31	-54.6	-71.3	3.8	7.43e-01	0	36	104	342360064	79	26541
2026-01-18 10:44:04.85	122.46	31.53	-46.2	-57.1	3.8	7.43e-01	0	35	104	342360064	64	12320
2026-01-18 10:44:05.86	122.29	31.75	-45.5	-56.3	3.8	7.46e-01	0	36	104	342360064	62	12598
2026-01-18 10:44:06.87	122.13	31.97	-45.6	-56.4	3.8	7.40e-01	0	35	104	342360064	62	12778
2026-01-18 10:44:07.88	121.96	32.19	-51.5	-63.8	3.8	7.44e-01	0	36	104	342360064	73	15841
2026-01-18 10:44:08.89	121.78	32.41	-46.9	-57.6	3.8	7.40e-01	0	36	104	342360064	65	12327
2026-01-18 10:44:09.89	121.61	32.63	-54.4	-70.5	3.8	7.43e-01	0	36	104	342360064	79	24140
2026-01-18 10:44:10.90	121.43	32.86	-51.4	-63.6	3.8	7.49e-01	0	35	104	342360064	74	14660
2026-01-18 10:44:11.91	121.25	33.09	-45.9	-56.7	3.8	7.42e-01	0	36	104	342360064	63	12488
2026-01-18 10:44:12.92	121.07	33.32	-46.0	-56.9	3.8	7.44e-01	0	36	104	342360064	63	12671
2026-01-18 10:44:13.93	120.88	33.55	-46.3	-57.3	3.8	7.42e-01	0	36	104	342360064	63	13283
2026-01-18 10:44:14.93	120.70	33.78	-45.8	-56.8	3.8	7.43e-01	0	35	104	342360064	63	12536
2026-01-18 10:44:15.94	120.51	34.01	-45.5	-56.4	3.8	7.44e-01	0	36	104	342360064	62	12682
2026-01-18 10:44:16.95	120.31	34.25	-47.3	-58.4	3.8	7.46e-01	0	36	104	342360064	65	13484
2026-01-18 10:44:17.96	120.11	34.49	-54.5	-70.7	3.8	7.45e-01	0	36	104	342360064	79	24886
2026-01-18 10:44:18.97	119.91	34.73	-51.9	-64.4	3.8	7.45e-01	0	36	104	342360064	75	15196
2026-01-18 10:44:19.97	119.71	34.96	-46.9	-57.9	3.8	7.44e-01	0	36	104	342360064	65	12736
2026-01-18 10:44:20.98	119.51	35.21	-46.5	-57.5	3.8	7.43e-01	0	36	104	342360064	64	12902
2026-01-18 10:44:21.99	119.30	35.45	-46.6	-57.6	3.8	7.44e-01	0	36	104	342360064	64	13017
2026-01-18 10:44:23.00	119.08	35.69	-46.4	-57.4	3.8	7.46e-01	0	36	104	342360064	64	12724
2026-01-18 10:44:24.01	118.87	35.94	-46.8	-57.8	3.8	7.44e-01	0	36	104	342360064	64	13298
2026-01-18 10:44:25.01	118.65	36.19	-48.1	-59.3	3.8	7.44e-01	0	36	104	342360064	66	14182
2026-01-18 10:44:26.02	118.43	36.44	-54.6	-71.1	3.8	7.50e-01	0	35	104	342360064	79	25965
2026-01-18 10:44:27.03	118.20	36.69	-52.5	-65.6	3.8	7.48e-01	0	35	104	342360064	76	16338
2026-01-18 10:44:28.04	117.97	36.94	-47.8	-58.9	3.8	7.43e-01	0	35	104	342360064	66	13445
2026-01-18 10:44:29.04	117.74	37.19	-47.4	-58.4	3.8	7.44e-01	0	36	104	342360064	66	12722
2026-01-18 10:44:30.05	117.50	37.45	-47.5	-58.6	3.8	7.45e-01	0	36	104	342360064	66	12992
2026-01-18 10:44:31.06	117.26	37.70	-47.6	-58.7	3.8	7.46e-01	0	35	104	342360064	66	13219
2026-01-18 10:44:32.07	117.01	37.96	-47.6	-58.7	3.8	7.39e-01	0	36	104	342360064	66	13191
2026-01-18 10:44:33.08	116.76	38.22	-52.8	-66.2	3.8	7.45e-01	0	36	104	342360064	76	17574
2026-01-18 10:44:34.09	116.51	38.48	-53.3	-67.2	3.8	7.40e-01	0	36	104	342360064	77	18534
2026-01-18 10:44:35.09	116.25	38.74	-48.6	-59.8	3.8	7.42e-01	0	36	104	342360064	69	12630
2026-01-18 10:44:36.10	115.99	39.01	-54.6	-71.2	3.8	7.44e-01	0	36	104	342360064	79	26174
2026-01-18 10:44:37.11	115.72	39.28	-48.7	-59.9	3.8	7.45e-01	0	36	104	342360064	69	12668
2026-01-18 10:44:38.12	115.45	39.54	-48.5	-59.7	3.8	7.44e-01	0	36	104	342360064	68	13228
2026-01-18 10:44:39.12	115.18	39.81	-48.2	-59.4	3.8	7.45e-01	0	36	104	342360064	68	12693
2026-01-18 10:44:40.13	114.90	40.08	-52.5	-65.6	3.8	7.41e-01	0	36	104	342360064	76	16467
2026-01-18 10:44:41.14	114.61	40.35	-48.5	-59.8	3.8	7.45e-01	0	35	104	342360064	69	12579
2026-01-18 10:44:42.15	114.32	40.62	-54.6	-70.9	3.8	7.45e-01	0	36	104	342360064	79	25444
2026-01-18 10:44:43.16	114.02	40.90	-52.3	-65.1	3.8	7.45e-01	0	36	104	342360064	76	15495
2026-01-18 10:44:44.17	113.72	41.17	-48.2	-59.4	3.8	7.45e-01	0	36	104	342360064	67	13516
2026-01-18 10:44:45.17	113.42	41.45	-47.8	-58.9	3.8	7.46e-01	0	36	104	342360064	67	12700
2026-01-18 10:44:46.18	113.11	41.73	-47.5	-58.5	3.8	7.46e-01	0	36	104	342360064	67	12206
2026-01-18 10:44:47.19	112.79	42.01	-46.9	-57.6	3.8	7.41e-01	0	36	104	342360064	65	12314
2026-01-18 10:44:48.20	112.47	42.29	-46.9	-57.8	3.8	7.45e-01	0	36	104	342360064	65	12639
2026-01-18 10:44:49.20	112.14	42.57	-48.6	-59.9	3.8	7.48e-01	0	36	104	342360064	67	14256
2026-01-18 10:44:50.21	111.80	42.85	-54.5	-70.5	3.8	7.42e-01	0	36	104	342360064	79	24150
2026-01-18 10:44:51.22	111.46	43.14	-51.3	-63.4	3.8	7.45e-01	0	35	104	342360064	74	14326
2026-01-18 10:44:52.23	111.12	43.42	-47.5	-58.6	3.8	7.48e-01	0	36	104	342360064	65	13772
2026-01-18 10:44:53.23	110.77	43.70	-47.0	-58.0	3.8	7.45e-01	0	36	104	342360064	65	12952
2026-01-18 10:44:54.24	110.41	43.99	-46.7	-57.7	3.8	7.42e-01	0	36	104	342360064	65	12503
2026-01-18 10:44:55.25	110.04	44.28	-46.2	-57.1	3.8	7.45e-01	0	36	104	342360064	64	12252
2026-01-18 10:44:56.26	109.66	44.57	-47.4	-58.5	3.8	7.43e-01	0	36	104	342360064	66	12814
2026-01-18 10:44:57.27	109.28	44.86	-48.2	-59.4	3.8	7.46e-01	0	35	104	342360064	67	13530
2026-01-18 10:44:58.27	108.90	45.15	-54.4	-70.2	3.8	7.46e-01	0	36	104	342360064	79	23509
2026-01-18 10:44:59.28	108.50	45.44	-50.5	-62.5	3.9	7.43e-01	0	36	104	342360064	73	13579
2026-01-18 10:45:00.29	108.10	45.73	-47.7	-58.9	3.8	7.44e-01	0	36	104	342360064	66	13430
2026-01-18 10:45:01.29	107.70	46.02	-47.6	-58.8	3.8	7.43e-01	0	36	104	342360064	66	13375
2026-01-18 10:45:02.30	107.28	46.32	-46.7	-57.5	3.8	7.45e-01	0	35	104	342360064	65	12222
2026-01-18 10:45:03.31	106.85	46.61	-46.5	-57.4	3.8	7.40e-01	0	36	104	342360064	65	11990
2026-01-18 10:45:04.32	106.42	46.91	-47.1	-58.1	3.9	7.48e-01	0	36	104	342360064	65	13061
2026-01-18 10:45:05.33	105.97	47.20	-49.3	-61.0	3.8	7.45e-01	0	36	104	342360064	69	14453
2026-01-18 10:45:06.33	105.53	47.49	-54.2	-69.5	3.9	7.44e-01	0	36	104	342360064	79	21624
2026-01-18 10:45:07.34	105.07	47.79	-50.6	-62.6	3.8	7.42e-01	0	36	104	342360064	73	13796
2026-01-18 10:45:08.35	104.60	48.08	-47.6	-58.5	3.8	7.45e-01	0	36	104	342360064	65	13662
2026-01-18 10:45:09.36	104.12	48.38	-47.8	-59.0	3.9	7.46e-01	0	36	104	342360064	66	13616
2026-01-18 10:45:10.37	103.63	48.67	-47.3	-58.4	3.9	7.43e-01	0	36	104	342360064	66	12751
2026-01-18 10:45:11.37	103.14	48.97	-46.2	-57.1	3.8	7.41e-01	0	36	104	342360064	64	12302
2026-01-18 10:45:12.38	102.63	49.26	-46.8	-57.6	3.8	7.43e-01	0	36	104	342360064	64	13105
2026-01-18 10:45:13.39	102.11	49.55	-50.9	-63.0	3.8	7.44e-01	0	36	104	342360064	72	15310
2026-01-18 10:45:14.40	101.59	49.85	-53.6	-68.0	3.9	7.42e-01	0	36	104	342360064	79	18203
2026-01-18 10:45:15.41	101.05	50.14	-49.3	-60.5	3.8	7.45e-01	0	36	104	342360064	70	12937
2026-01-18 10:45:16.42	100.50	50.43	-47.0	-58.0	3.8	7.43e-01	0	36	104	342360064	65	12828
2026-01-18 10:45:17.42	99.95	50.72	-47.0	-58.0	3.8	7.45e-01	0	36	104	342360064	65	12919
2026-01-18 10:45:18.43	99.37	51.01	-46.3	-57.2	3.8	7.43e-01	0	36	104	342360064	64	12467
2026-01-18 10:45:19.44	98.79	51.30	-46.0	-56.9	3.8	7.41e-01	0	36	104	342360064	63	12705
2026-01-18 10:45:20.45	98.20	51.59	-47.3	-58.4	3.8	7.43e-01	0	36	104	342360064	65	13473
2026-01-18 10:45:21.45	97.60	51.87	-50.8	-62.6	3.8	7.47e-01	0	36	104	342360064	71	15469
2026-01-18 10:45:22.46	96.98	52.16	-53.4	-67.1	3.9	7.42e-01	0	36	104	342360064	78	17305
2026-01-18 10:45:23.47	96.36	52.44	-49.0	-60.4	3.8	7.43e-01	0	36	104	342360064	70	12780
2026-01-18 10:45:24.48	95.72	52.72	-46.4	-57.2	3.8	7.44e-01	0	36	104	342360064	64	12491
2026-01-18 10:45:25.48	95.07	53.00	-46.7	-57.7	3.8	7.44e-01	0	36	104	342360064	64	13191
2026-01-18 10:45:26.49	94.40	53.28	-46.3	-57.1	3.8	7.46e-01	0	36	104	342360064	64	12350
2026-01-18 10:45:27.49	93.73	53.55	-45.3	-56.1	3.8	7.47e-01	0	36	104	342360064	62	12251
2026-01-18 10:45:28.50	93.04	53.82	-46.9	-57.8	3.8	7.44e-01	0	36	104	342360064	64	13404
2026-01-18 10:45:29.51	92.33	54.09	-52.6	-65.5	3.8	7.44e-01	0	36	104	342360064	75	17254
2026-01-18 10:45:30.52	91.61	54.36	-52.6	-65.6	3.9	7.43e-01	0	36	104	342360064	77	15538
2026-01-18 10:45:31.53	90.88	54.62	-47.8	-58.8	3.9	7.42e-01	0	36	104	342360064	67	12534
2026-01-18 10:45:32.53	90.14	54.88	-46.7	-57.7	3.8	7.42e-01	0	36	104	342360064	64	13173
2026-01-18 10:45:33.54	89.39	55.13	-47.2	-58.4	3.8	7.45e-01	0	36	104	342360064	65	13454
2026-01-18 10:45:34.55	88.61	55.38	-46.5	-57.3	3.8	7.44e-01	0	36	104	342360064	64	12521
2026-01-18 10:45:35.56	87.83	55.63	-46.1	-56.9	3.8	7.44e-01	0	36	104	342360064	63	12701
2026-01-18 10:45:36.57	87.02	55.88	-47.8	-59.0	3.8	7.42e-01	0	36	104	342360064	66	13657
2026-01-18 10:45:37.58	86.21	56.11	-53.9	-68.2	3.8	7.43e-01	0	36	104	342360064	78	19772
2026-01-18 10:45:38.58	85.39	56.35	-52.5	-65.2	3.9	7.43e-01	0	36	104	342360064	77	14835
2026-01-18 10:45:39.59	84.54	56.58	-47.9	-59.1	3.8	7.41e-01	0	36	104	342360064	67	13037
2026-01-18 10:45:40.60	83.69	56.80	-47.5	-58.6	3.9	7.43e-01	0	36	104	342360064	67	12237
2026-01-18 10:45:41.61	82.82	57.02	-47.5	-58.3	3.8	7.44e-01	0	36	104	342360064	66	12585
2026-01-18 10:45:42.61	81.94	57.23	-47.8	-58.8	3.8	7.43e-01	0	36	104	342360064	66	13356
2026-01-18 10:45:43.62	81.04	57.44	-47.3	-58.4	3.8	7.45e-01	0	36	104	342360064	65	13514
2026-01-18 10:45:44.63	80.13	57.64	-50.9	-62.8	3.8	7.47e-01	0	36	104	342360064	72	14924
2026-01-18 10:45:45.64	79.20	57.84	-53.1	-66.4	3.8	7.46e-01	0	36	104	342360064	77	16957
2026-01-18 10:45:46.65	78.26	58.03	-51.7	-64.1	3.9	7.47e-01	0	36	104	342360064	75	14594
2026-01-18 10:45:47.65	77.32	58.21	-54.1	-68.5	3.8	7.45e-01	0	36	104	342360064	78	20506
2026-01-18 10:45:48.66	76.35	58.38	-52.3	-64.9	3.8	7.43e-01	0	36	104	342360064	76	15107
2026-01-18 10:45:49.67	75.37	58.55	-50.7	-62.7	3.8	7.45e-01	0	36	104	342360064	73	13928
2026-01-18 10:45:50.67	74.39	58.71	-50.7	-62.6	3.8	7.44e-01	0	36	104	342360064	73	13844
2026-01-18 10:45:51.68	73.39	58.87	-54.6	-70.3	3.8	7.45e-01	0	36	104	342360064	79	23771
2026-01-18 10:45:52.69	72.37	59.01	-51.1	-63.1	3.8	7.44e-01	0	36	104	342360064	74	13809
2026-01-18 10:45:53.70	71.35	59.15	-54.6	-70.0	3.8	7.45e-01	0	36	104	342360064	79	22835
2026-01-18 10:45:54.71	70.31	59.28	-53.3	-66.8	3.8	7.43e-01	0	36	104	342360064	78	16780
2026-01-18 10:45:55.71	69.27	59.40	-48.4	-59.6	3.9	7.44e-01	0	35	104	342360064	68	12984
2026-01-18 10:45:56.72	68.22	59.51	-48.2	-59.2	3.8	7.44e-01	0	36	104	342360064	68	12492
2026-01-18 10:45:57.73	67.15	59.62	-48.2	-59.5	3.8	7.41e-01	0	36	104	342360064	68	12852
2026-01-18 10:45:58.74	66.08	59.71	-48.4	-59.4	3.8	7.41e-01	0	36	104	342360064	68	12726
2026-01-18 10:45:59.75	65.00	59.80	-47.7	-58.8	3.8	7.45e-01	0	35	104	342360064	66	13271
2026-01-18 10:46:00.75	63.92	59.87	-52.8	-65.6	3.8	7.42e-01	0	36	104	342360064	75	17288
2026-01-18 10:46:01.76	62.83	59.94	-54.0	-68.3	3.8	7.48e-01	0	36	104	342360064	78	19895
2026-01-18 10:46:02.77	61.73	60.00	-52.0	-64.6	3.8	7.44e-01	0	36	104	342360064	76	14575
2026-01-18 10:46:03.78	60.63	60.05	-55.0	-71.6	3.8	7.47e-01	0	36	104	342360064	80	26145
2026-01-18 10:46:04.78	59.53	60.09	-51.8	-64.3	3.9	7.46e-01	0	36	104	342360064	75	14918
2026-01-18 10:46:05.79	58.42	60.12	-51.3	-63.3	3.8	7.45e-01	0	36	104	342360064	74	14175
2026-01-18 10:46:06.80	57.31	60.14	-50.8	-62.8	3.8	7.44e-01	0	36	104	342360064	73	14109
2026-01-18 10:46:07.81	56.19	60.15	-55.2	-72.7	3.7	7.46e-01	0	36	104	342360064	80	29554
2026-01-18 10:46:08.82	55.08	60.15	-50.9	-62.5	3.8	7.45e-01	0	36	104	342360064	73	13646
2026-01-18 10:46:09.83	53.97	60.14	-54.9	-71.4	3.8	7.49e-01	0	36	104	342360064	80	25373
2026-01-18 10:46:10.83	52.86	60.13	-53.7	-67.5	3.8	7.42e-01	0	36	104	342360064	79	17101
2026-01-18 10:46:11.84	51.75	60.10	-48.6	-59.8	3.8	7.44e-01	0	36	104	342360064	69	12540
2026-01-18 10:46:12.85	50.65	60.06	-48.4	-59.6	3.8	7.44e-01	0	36	104	342360064	68	12993
2026-01-18 10:46:13.86	49.54	60.01	-48.2	-59.1	3.8	7.43e-01	0	36	104	342360064	68	12330
2026-01-18 10:46:14.87	48.44	59.96	-48.3	-59.5	3.8	7.43e-01	0	36	104	342360064	68	12934
2026-01-18 10:46:15.87	47.36	59.89	-48.8	-60.2	3.8	7.43e-01	0	36	104	342360064	68	13902
2026-01-18 10:46:16.88	46.27	59.82	-54.0	-68.4	3.8	7.44e-01	0	36	104	342360064	78	20128
2026-01-18 10:46:17.89	45.19	59.73	-54.7	-70.3	3.8	7.45e-01	0	36	104	342360064	79	23852
2026-01-18 10:46:18.90	44.11	59.64	-51.8	-64.3	3.9	7.45e-01	0	36	104	342360064	75	15028
2026-01-18 10:46:19.91	43.05	59.54	-55.1	-72.4	3.8	7.45e-01	0	36	104	342360064	80	28380
2026-01-18 10:46:20.91	42.00	59.43	-51.9	-64.5	3.9	7.44e-01	0	36	104	342360064	75	15265
2026-01-18 10:46:21.92	40.95	59.31	-50.9	-62.8	3.9	7.45e-01	0	36	104	342360064	73	14087
2026-01-18 10:46:22.93	39.92	59.18	-50.3	-62.0	3.8	7.42e-01	0	36	104	342360064	72	13640
2026-01-18 10:46:23.93	38.90	59.05	-54.6	-70.3	3.8	7.42e-01	0	36	104	342360064	79	23648
2026-01-18 10:46:24.94	37.88	58.90	-50.4	-61.7	3.8	7.47e-01	0	36	104	342360064	72	13231
2026-01-18 10:46:25.95	36.88	58.75	-55.0	-71.9	3.8	7.46e-01	0	36	104	342360064	80	26850
2026-01-18 10:46:26.96	35.88	58.59	-53.6	-67.3	3.8	7.46e-01	0	36	104	342360064	79	16811
2026-01-18 10:46:27.96	34.91	58.43	-47.6	-58.5	3.8	7.47e-01	0	36	104	342360064	67	12130
2026-01-18 10:46:28.97	33.94	58.25	-47.8	-58.9	3.8	7.42e-01	0	36	104	342360064	67	12735
2026-01-18 10:46:29.98	32.99	58.07	-47.4	-58.7	3.8	7.42e-01	0	36	104	342360064	66	13203
2026-01-18 10:46:30.99	32.05	57.88	-46.8	-57.4	3.8	7.43e-01	0	36	104	342360064	65	12070
2026-01-18 10:46:32.00	31.12	57.69	-48.8	-60.1	3.9	7.44e-01	0	36	104	342360064	68	13730
2026-01-18 10:46:33.00	30.21	57.49	-49.8	-61.6	3.8	7.41e-01	0	36	104	342360064	71	13727
2026-01-18 10:46:34.01	29.31	57.29	-55.0	-72.0	3.8	7.42e-01	0	36	104	342360064	80	27206
2026-01-18 10:46:35.02	28.42	57.07	-53.3	-66.8	3.8	7.45e-01	0	36	104	342360064	78	16762
2026-01-18 10:46:36.03	27.55	56.86	-47.8	-58.7	3.8	7.45e-01	0	36	104	342360064	67	12482
2026-01-18 10:46:37.04	26.69	56.63	-47.8	-59.0	3.8	7.45e-01	0	36	104	342360064	67	12905
2026-01-18 10:46:38.05	25.84	56.40	-47.1	-58.1	3.8	7.46e-01	0	36	104	342360064	66	12374
2026-01-18 10:46:39.05	25.02	56.17	-46.3	-57.1	3.8	7.45e-01	0	36	104	342360064	64	12342
2026-01-18 10:46:40.06	24.20	55.94	-47.6	-58.7	3.8	7.42e-01	0	36	104	342360064	65	13927
2026-01-18 10:46:41.07	23.40	55.69	-49.1	-60.6	3.8	7.44e-01	0	36	104	342360064	69	13872
2026-01-18 10:46:42.08	22.61	55.45	-54.8	-71.0	3.8	7.41e-01	0	36	104	342360064	80	24223
2026-01-18 10:46:43.09	21.83	55.20	-52.3	-64.9	3.9	7.44e-01	0	36	104	342360064	76	15184
2026-01-18 10:46:44.09	21.08	54.94	-46.2	-57.2	3.8	7.44e-01	0	36	104	342360064	64	12382
2026-01-18 10:46:45.10	20.33	54.69	-46.1	-57.0	3.8	7.45e-01	0	36	104	342360064	63	12824
2026-01-18 10:46:46.11	19.60	54.42	-46.1	-56.8	3.8	7.43e-01	0	36	104	342360064	63	12576
2026-01-18 10:46:47.12	18.88	54.16	-45.5	-56.3	3.8	7.41e-01	0	36	104	342360064	63	11946
2026-01-18 10:46:48.13	18.17	53.89	-46.2	-57.2	3.9	7.49e-01	0	36	104	342360064	64	12430
2026-01-18 10:46:49.13	17.48	53.62	-52.7	-65.6	3.8	7.45e-01	0	36	104	342360064	76	16446
2026-01-18 10:46:50.14	16.80	53.35	-53.9	-68.2	3.8	7.43e-01	0	36	104	342360064	79	18605
2026-01-18 10:46:51.15	16.13	53.07	-48.1	-59.1	3.8	7.47e-01	0	36	104	342360064	68	12354
2026-01-18 10:46:52.16	15.48	52.80	-54.6	-70.8	3.8	7.46e-01	0	36	104	342360064	80	23654
2026-01-18 10:46:53.17	14.84	52.52	-48.7	-59.8	3.8	7.42e-01	0	36	104	342360064	69	12621
2026-01-18 10:46:54.17	14.21	52.24	-48.5	-59.6	3.8	7.43e-01	0	36	104	342360064	68	12969
2026-01-18 10:46:55.18	13.59	51.95	-48.3	-59.5	3.8	7.45e-01	0	36	104	342360064	67	13613
2026-01-18 10:46:56.19	12.99	51.67	-52.2	-64.7	3.8	7.43e-01	0	36	104	342360064	76	14775
2026-01-18 10:46:57.20	12.39	51.38	-48.9	-60.5	3.8	7.46e-01	0	36	104	342360064	69	13650
2026-01-18 10:46:58.21	11.81	51.09	-54.4	-69.8	3.9	7.44e-01	0	36	104	342360064	80	21259
2026-01-18 10:46:59.21	11.24	50.81	-51.5	-63.7	3.8	7.42e-01	0	36	104	342360064	75	13895
2026-01-18 10:47:00.22	10.68	50.52	-46.2	-57.2	3.8	7.44e-01	0	36	104	342360064	64	12394
2026-01-18 10:47:01.23	10.13	50.22	-46.4	-57.4	3.9	7.45e-01	0	36	104	342360064	64	12807
2026-01-18 10:47:02.24	9.59	49.93	-46.3	-57.1	3.8	7.40e-01	0	36	104	342360064	64	12327
2026-01-18 10:47:03.24	9.07	49.64	-45.8	-56.6	3.8	7.43e-01	0	36	104	342360064	63	12298
2026-01-18 10:47:04.25	8.55	49.35	-45.9	-56.5	3.8	7.41e-01	0	36	104	342360064	63	12119
2026-01-18 10:47:05.26	8.04	49.05	-52.0	-64.4	3.8	7.43e-01	0	36	104	342360064	75	15096
2026-01-18 10:47:06.27	7.54	48.76	-53.4	-67.0	3.9	7.43e-01	0	36	104	342360064	78	17215
2026-01-18 10:47:07.27	7.06	48.47	-47.5	-58.6	3.8	7.42e-01	0	36	104	342360064	66	13101
2026-01-18 10:47:08.28	6.58	48.17	-53.8	-67.8	3.9	7.45e-01	0	36	104	342360064	79	17729
2026-01-18 10:47:09.29	6.11	47.88	-47.5	-58.5	3.8	7.43e-01	0	36	104	342360064	66	12851
2026-01-18 10:47:10.30	5.64	47.58	-47.6	-58.5	3.8	7.45e-01	0	36	104	342360064	66	12862
2026-01-18 10:47:11.31	5.19	47.29	-49.2	-60.7	3.8	7.47e-01	0	36	104	342360064	68	14834
2026-01-18 10:47:12.31	4.75	47.00	-52.5	-65.6	3.8	7.43e-01	0	36	104	342360064	77	15463
2026-01-18 10:47:13.32	4.32	46.71	-49.9	-61.5	3.8	7.44e-01	0	36	104	342360064	70	14397
2026-01-18 10:47:14.33	3.89	46.41	-54.0	-68.1	3.9	7.41e-01	0	36	104	342360064	79	18404
2026-01-18 10:47:15.33	3.47	46.12	-51.1	-63.1	3.8	7.46e-01	0	36	104	342360064	74	13796
2026-01-18 10:47:16.34	3.06	45.83	-46.2	-57.1	3.8	7.47e-01	0	36	104	342360064	64	12268
2026-01-18 10:47:17.35	2.66	45.54	-46.2	-57.1	3.8	7.47e-01	0	36	104	342360064	64	12251
2026-01-18 10:47:18.36	2.26	45.25	-46.3	-57.4	3.8	7.43e-01	0	36	104	342360064	64	12769
2026-01-18 10:47:19.37	1.87	44.96	-45.9	-56.7	3.8	7.43e-01	0	36	104	342360064	63	12431
2026-01-18 10:47:20.37	1.49	44.67	-47.1	-57.8	3.9	7.44e-01	0	36	104	342360064	64	13361
2026-01-18 10:47:21.38	1.12	44.38	-51.9	-64.1	3.8	7.45e-01	0	36	104	342360064	74	15507
2026-01-18 10:47:22.39	0.75	44.09	-51.9	-63.9	3.8	7.44e-01	0	36	104	342360064	75	14282
2026-01-18 10:47:23.40	0.39	43.81	-50.8	-62.6	3.8	7.40e-01	0	36	104	342360064	71	15472
2026-01-18 10:47:24.41	0.04	43.52	-53.0	-66.6	3.9	7.44e-01	0	36	104	342360064	78	16437
2026-01-18 10:47:25.41	359.69	43.24	-47.5	-58.5	3.8	7.45e-01	0	36	104	342360064	67	12194
2026-01-18 10:47:26.42	359.35	42.95	-47.6	-58.3	3.8	7.46e-01	0	36	104	342360064	66	12525
2026-01-18 10:47:27.43	359.01	42.67	-49.8	-61.4	3.8	7.47e-01	0	35	104	342360064	70	14312
2026-01-18 10:47:28.44	358.68	42.39	-51.7	-64.3	3.8	7.44e-01	0	36	104	342360064	75	14965
2026-01-18 10:47:29.45	358.36	42.11	-51.7	-64.1	3.8	7.46e-01	0	36	104	342360064	73	16395
2026-01-18 10:47:30.45	358.04	41.83	-53.8	-68.1	3.8	7.46e-01	0	36	104	342360064	79	18381
2026-01-18 10:47:31.46	357.73	41.55	-50.9	-62.5	3.8	7.42e-01	0	36	104	342360064	73	13691
2026-01-18 10:47:32.47	357.42	41.28	-47.1	-58.2	3.8	7.48e-01	0	36	104	342360064	66	12485
2026-01-18 10:47:33.48	357.12	41.00	-47.2	-58.2	3.8	7.45e-01	0	36	104	342360064	66	12422
2026-01-18 10:47:34.48	356.83	40.73	-46.7	-57.5	3.8	7.42e-01	0	36	104	342360064	65	12111
2026-01-18 10:47:35.49	356.54	40.46	-46.8	-57.4	3.8	7.47e-01	0	36	104	342360064	65	12036
2026-01-18 10:47:36.50	356.25	40.19	-49.1	-60.2	3.8	7.48e-01	0	36	104	342360064	68	13987
2026-01-18 10:47:37.51	355.97	39.92	-53.3	-67.2	3.8	7.47e-01	0	36	104	342360064	77	18619
2026-01-18 10:47:38.52	355.69	39.65	-53.9	-68.6	3.9	7.45e-01	0	36	104	342360064	79	19533
2026-01-18 10:47:39.53	355.42	39.38	-50.2	-62.2	3.9	7.42e-01	0	36	104	342360064	72	13938
2026-01-18 10:47:40.54	355.15	39.12	-47.6	-58.7	3.8	7.47e-01	0	36	104	342360064	67	12498
2026-01-18 10:47:41.54	354.89	38.85	-47.5	-58.3	3.8	7.46e-01	0	36	104	342360064	66	12620
2026-01-18 10:47:42.55	354.63	38.59	-47.2	-58.0	3.8	7.43e-01	0	36	104	342360064	66	12133
2026-01-18 10:47:43.56	354.38	38.33	-47.4	-58.3	3.8	7.47e-01	0	36	104	342360064	66	12653
2026-01-18 10:47:44.56	354.13	38.07	-49.4	-61.1	3.8	7.46e-01	0	36	104	342360064	69	14558
2026-01-18 10:47:45.57	353.88	37.81	-54.1	-68.7	3.7	7.47e-01	0	36	104	342360064	78	20970
2026-01-18 10:47:46.58	353.64	37.56	-53.8	-67.9	3.8	7.41e-01	0	36	104	342360064	79	18005
2026-01-18 10:47:47.59	353.40	37.30	-48.9	-59.8	3.8	7.45e-01	0	36	104	342360064	69	12664
2026-01-18 10:47:48.59	353.17	37.05	-47.5	-58.7	3.8	7.46e-01	0	36	104	342360064	67	12477
2026-01-18 10:47:49.60	352.94	36.80	-47.3	-58.5	3.8	7.45e-01	0	36	104	342360064	66	12825
2026-01-18 10:47:50.61	352.71	36.55	-46.9	-57.8	3.8	7.44e-01	0	36	104	342360064	65	12609
2026-01-18 10:47:51.62	352.49	36.30	-47.1	-57.9	3.8	7.45e-01	0	36	104	342360064	65	12684
2026-01-18 10:47:52.63	352.27	36.05	-49.5	-60.8	3.8	7.44e-01	0	36	104	342360064	69	14108
2026-01-18 10:47:53.63	352.05	35.81	-53.9	-68.3	3.8	7.45e-01	0	36	104	342360064	78	19900
2026-01-18 10:47:54.64	351.84	35.56	-53.6	-67.6	3.8	7.45e-01	0	36	104	342360064	79	17361
2026-01-18 10:47:55.65	351.63	35.32	-48.3	-59.6	3.8	7.49e-01	0	36	104	342360064	68	12990
2026-01-18 10:47:56.66	351.42	35.08	-46.7	-57.8	3.8	7.44e-01	0	36	104	342360064	65	12617
2026-01-18 10:47:57.66	351.22	34.84	-46.5	-57.6	3.8	7.46e-01	0	36	104	342360064	65	12235
2026-01-18 10:47:58.67	351.02	34.60	-46.1	-57.0	3.8	7.45e-01	0	36	104	342360064	64	12133
2026-01-18 10:47:59.68	350.82	34.37	-46.5	-57.3	3.8	7.44e-01	0	36	104	342360064	64	12608
2026-01-18 10:48:00.69	350.63	34.13	-49.5	-60.9	3.8	7.45e-01	0	36	104	342360064	69	14334
2026-01-18 10:48:01.69	350.44	33.90	-54.1	-69.0	3.8	7.47e-01	0	36	104	342360064	78	21544
2026-01-18 10:48:02.70	350.25	33.67	-53.2	-66.8	3.8	7.46e-01	0	36	104	342360064	78	16753
2026-01-18 10:48:03.71	350.06	33.44	-46.6	-57.6	3.8	7.43e-01	0	36	104	342360064	65	12306
2026-01-18 10:48:04.72	349.88	33.21	-45.9	-56.7	3.8	7.47e-01	0	36	104	342360064	63	12474
2026-01-18 10:48:05.73	349.70	32.98	-45.8	-56.5	3.8	7.45e-01	0	36	104	342360064	63	12170
2026-01-18 10:48:06.73	349.52	32.76	-45.7	-56.6	3.8	7.44e-01	0	36	104	342360064	63	12262
2026-01-18 10:48:07.74	349.35	32.53	-45.8	-56.9	3.8	7.44e-01	0	36	104	342360064	63	12713
2026-01-18 10:48:08.75	349.18	32.31	-49.1	-60.6	3.8	7.42e-01	0	36	104	342360064	68	14570
2026-01-18 10:48:09.76	349.01	32.09	-53.7	-67.9	3.8	7.46e-01	0	36	104	342360064	77	20273
2026-01-18 10:48:10.77	348.84	31.87	-46.8	-57.7	3.9	7.42e-01	0	36	104	342360064	65	12386
2026-01-18 10:48:11.77	348.67	31.65	-54.1	-69.0	3.8	7.47e-01	0	36	104	342360064	78	21740
2026-01-18 10:48:12.78	348.51	31.43	-45.9	-56.6	3.9	7.43e-01	0	36	104	342360064	63	12266
2026-01-18 10:48:13.79	348.35	31.22	-45.3	-56.0	3.8	7.45e-01	0	36	104	342360064	62	12098
2026-01-18 10:48:14.80	348.19	31.00	-45.2	-55.9	3.8	7.45e-01	0	36	104	342360064	62	12003
2026-01-18 10:48:15.80	348.04	30.79	-50.3	-62.1	3.8	7.45e-01	0	36	104	342360064	71	14647
2026-01-18 10:48:16.81	347.88	30.58	-49.4	-60.9	3.8	7.45e-01	0	36	104	342360064	70	13522
2026-01-18 10:48:17.82	347.73	30.37	-54.1	-69.2	3.8	7.46e-01	0	36	104	342360064	78	22167
2026-01-18 10:48:18.82	347.58	30.16	-53.1	-66.4	3.8	7.43e-01	0	36	104	342360064	77	17048
2026-01-18 10:48:19.83	347.43	29.95	-45.6	-56.3	3.8	7.45e-01	0	36	104	342360064	63	11937
2026-01-18 10:48:20.84	347.29	29.75	-45.4	-56.0	3.8	7.42e-01	0	36	104	342360064	62	12191
2026-01-18 10:48:21.85	347.14	29.54	-45.4	-56.1	3.8	7.44e-01	0	36	104	342360064	62	12286
2026-01-18 10:48:22.86	347.00	29.34	-45.2	-56.1	3.8	7.45e-01	0	36	104	342360064	62	12256
2026-01-18 10:48:23.87	346.86	29.14	-46.0	-57.1	3.8	7.41e-01	0	36	104	342360064	62	13738
2026-01-18 10:48:24.87	346.72	28.94	-49.6	-61.4	3.8	7.42e-01	0	36	104	342360064	69	15141
2026-01-18 10:48:25.88	346.58	28.74	-54.2	-69.9	3.8	7.45e-01	0	36	104	342360064	79	22720
2026-01-18 10:48:26.89	346.45	28.54	-45.8	-56.7	3.8	7.45e-01	0	36	104	342360064	63	12517
2026-01-18 10:48:27.90	346.32	28.34	-54.1	-69.1	3.8	7.43e-01	0	36	104	342360064	78	21995
2026-01-18 10:48:28.90	346.19	28.15	-45.7	-56.6	3.8	7.41e-01	0	36	104	342360064	63	12262
2026-01-18 10:48:29.91	346.06	27.96	-45.4	-56.3	3.8	7.42e-01	0	36	104	342360064	62	12534
2026-01-18 10:48:30.92	345.93	27.76	-45.5	-56.4	3.9	7.42e-01	0	36	104	342360064	62	12707
2026-01-18 10:48:31.93	345.80	27.57	-49.8	-61.4	3.8	7.42e-01	0	36	104	342360064	70	14233
2026-01-18 10:48:32.94	345.68	27.38	-49.5	-61.0	3.9	7.47e-01	0	36	104	342360064	69	14442
2026-01-18 10:48:33.94	345.55	27.20	-54.2	-69.5	3.8	7.46e-01	0	36	104	342360064	78	22865
2026-01-18 10:48:34.95	345.43	27.01	-45.7	-56.4	3.8	7.44e-01	0	36	104	342360064	63	12061
2026-01-18 10:48:35.96	345.31	26.82	-54.1	-69.5	3.8	7.46e-01	0	36	104	342360064	78	22903
2026-01-18 10:48:36.97	345.19	26.64	-45.9	-56.8	3.8	7.45e-01	0	36	104	342360064	63	12551
2026-01-18 10:48:37.97	345.08	26.46	-45.8	-56.7	3.8	7.47e-01	0	36	104	342360064	63	12434
2026-01-18 10:48:38.98	344.96	26.27	-45.8	-56.7	3.8	7.45e-01	0	36	104	342360064	63	12394
2026-01-18 10:48:39.99	344.85	26.09	-48.7	-60.1	3.8	7.45e-01	0	36	104	342360064	68	13814
2026-01-18 10:48:41.00	344.73	25.91	-49.5	-61.1	3.8	7.43e-01	0	36	104	342360064	69	14692
2026-01-18 10:48:42.01	344.62	25.73	-54.2	-69.7	3.9	7.44e-01	0	36	104	342360064	79	22114
2026-01-18 10:48:43.01	344.51	25.56	-45.9	-56.7	3.8	7.45e-01	0	36	104	342360064	63	12519
2026-01-18 10:48:44.02	344.40	25.38	-54.2	-69.7	3.8	7.47e-01	0	36	104	342360064	78	23563
2026-01-18 10:48:45.03	344.29	25.20	-45.9	-56.7	3.8	7.45e-01	0	36	104	342360064	63	12501
2026-01-18 10:48:46.03	344.19	25.03	-45.9	-56.7	3.8	7.43e-01	0	36	104	342360064	63	12486
2026-01-18 10:48:47.04	344.08	24.86	-45.9	-56.8	3.8	7.46e-01	0	36	104	342360064	63	12537
2026-01-18 10:48:48.05	343.98	24.68	-50.5	-62.4	3.8	7.40e-01	0	36	104	342360064	71	15087
2026-01-18 10:48:49.06	343.88	24.51	-49.4	-60.9	3.8	7.44e-01	0	36	104	342360064	69	14266
2026-01-18 10:48:50.07	343.77	24.34	-54.2	-69.6	3.8	7.46e-01	0	36	104	342360064	78	23296
2026-01-18 10:48:51.07	343.68	24.18	-46.0	-56.8	3.8	7.45e-01	0	36	104	342360064	63	12620
2026-01-18 10:48:52.08	343.58	24.01	-54.1	-69.5	3.8	7.44e-01	0	36	104	342360064	78	22906
2026-01-18 10:48:53.09	343.48	23.84	-46.0	-56.9	3.8	7.44e-01	0	36	104	342360064	64	11964
2026-01-18 10:48:54.10	343.38	23.68	-46.0	-56.9	3.8	7.43e-01	0	36	104	342360064	63	12798
2026-01-18 10:48:55.11	343.28	23.51	-46.1	-57.1	3.8	7.42e-01	0	36	104	342360064	63	13065
2026-01-18 10:48:56.11	343.19	23.35	-50.7	-62.8	3.8	7.45e-01	0	36	104	342360064	72	14880
2026-01-18 10:48:57.12	343.10	23.19	-49.4	-60.9	3.8	7.42e-01	0	36	104	342360064	69	14252
2026-01-18 10:48:58.13	343.00	23.02	-53.7	-68.4	3.9	7.44e-01	0	36	104	342360064	78	20103
2026-01-18 10:48:59.14	342.91	22.86	-46.0	-56.8	3.8	7.45e-01	0	36	104	342360064	64	11901
2026-01-18 10:49:00.14	342.82	22.71	-54.0	-69.3	3.8	7.44e-01	0	36	104	342360064	78	22301
2026-01-18 10:49:01.15	342.73	22.55	-46.1	-56.9	3.8	7.46e-01	0	36	104	342360064	64	11969
2026-01-18 10:49:02.16	342.64	22.39	-46.0	-56.8	3.8	7.44e-01	0	36	104	342360064	63	12538
2026-01-18 10:49:03.17	342.56	22.23	-46.0	-56.9	3.8	7.44e-01	0	36	104	342360064	63	12711
2026-01-18 10:49:04.17	342.47	22.08	-49.5	-61.2	3.8	7.43e-01	0	36	104	342360064	70	13943
2026-01-18 10:49:05.18	342.38	21.92	-49.7	-61.4	3.8	7.46e-01	0	36	104	342360064	69	15128
2026-01-18 10:49:06.19	342.30	21.77	-53.1	-67.1	3.9	7.44e-01	0	36	104	342360064	78	17357
2026-01-18 10:49:07.20	342.22	21.62	-46.2	-57.1	3.8	7.43e-01	0	36	104	342360064	64	12367
2026-01-18 10:49:08.20	342.13	21.47	-53.6	-68.6	3.9	7.45e-01	0	36	104	342360064	78	20561
2026-01-18 10:49:09.21	342.05	21.32	-46.4	-57.4	3.8	7.43e-01	0	36	104	342360064	64	12739
2026-01-18 10:49:10.22	341.97	21.17	-46.1	-57.1	3.8	7.45e-01	0	36	104	342360064	64	12271
2026-01-18 10:49:11.23	341.89	21.02	-46.0	-56.9	3.8	7.44e-01	0	36	104	342360064	63	12798
2026-01-18 10:49:12.24	341.81	20.87	-48.3	-59.6	3.8	7.44e-01	0	36	104	342360064	68	13026
2026-01-18 10:49:13.25	341.73	20.72	-49.5	-61.0	3.8	7.47e-01	0	36	104	342360064	69	14451
2026-01-18 10:49:14.25	341.65	20.58	-52.8	-58.5	5.0	7.08e-01	0	36	104	342360064	77	6807
2026-01-18 10:49:15.26	341.58	20.43	-45.7	-47.0	24.2	6.00e-01	0	36	0	343408640	63	4060
2026-01-18 10:49:16.27	341.50	20.29	-53.2	-59.0	12.0	6.07e-01	0	36	0	344981504	78	6828
2026-01-18 10:49:17.28	341.42	20.14	-45.7	-47.0	24.6	5.99e-01	0	36	0	347078656	63	4094
2026-01-18 10:49:18.29	341.35	20.00	-45.6	-46.9	24.7	6.01e-01	0	36	0	349175808	63	4034
2026-01-18 10:49:19.29	341.28	19.86	-45.6	-46.9	24.7	6.03e-01	0	36	0	350748672	63	4040
2026-01-18 10:49:20.30	341.20	19.72	-45.6	-46.9	24.7	6.04e-01	0	36	0	352845824	63	4040
2026-01-18 10:49:21.31	341.13	19.58	-45.6	-46.9	24.7	6.00e-01	0	36	0	354942976	63	4048
2026-01-18 10:49:22.32	341.06	19.44	-45.6	-46.9	24.7	6.01e-01	0	36	0	356515840	63	4013
2026-01-18 10:49:23.33	340.99	19.30	-45.6	-46.9	24.7	6.02e-01	0	36	0	358612992	63	4041
2026-01-18 10:49:24.33	340.92	19.16	-45.5	-46.9	24.7	6.00e-01	0	36	0	360185856	63	4011
2026-01-18 10:49:25.34	340.85	19.03	-45.5	-46.7	24.8	6.00e-01	0	36	0	362283008	62	4188
2026-01-18 10:49:26.35	340.78	18.89	-45.3	-46.6	24.9	6.02e-01	0	36	0	363855872	62	4123
2026-01-18 10:49:27.36	340.71	18.75	-45.4	-46.6	24.8	6.03e-01	0	36	0	365953024	62	4140
2026-01-18 10:49:28.36	340.64	18.62	-45.3	-46.6	24.8	6.04e-01	0	36	0	368050176	62	4132
2026-01-18 10:49:29.37	340.58	18.49	-45.4	-46.6	24.9	6.02e-01	0	36	0	370147328	62	4136
2026-01-18 10:49:30.38	340.51	18.35	-45.3	-46.6	24.9	6.03e-01	0	36	0	371720192	62	4109
2026-01-18 10:49:31.38	340.45	18.22	-45.4	-46.7	24.9	6.01e-01	0	36	0	373817344	62	4152
2026-01-18 10:49:32.39	340.38	18.09	-45.3	-46.6	24.9	6.02e-01	0	36	0	375390208	62	4126
2026-01-18 10:49:33.40	340.32	17.96	-45.4	-46.7	24.9	6.03e-01	0	36	0	377487360	62	4161
2026-01-18 10:49:34.41	340.25	17.83	-45.3	-46.6	24.9	6.01e-01	0	36	0	379060224	62	4132
2026-01-18 10:49:35.42	340.19	17.70	-45.4	-46.7	24.9	6.04e-01	0	36	0	381157376	62	4151
2026-01-18 10:49:36.42	340.13	17.57	-45.3	-46.6	24.9	6.02e-01	0	36	0	383254528	62	4134
2026-01-18 10:49:37.43	340.07	17.44	-45.4	-46.6	24.9	6.03e-01	0	36	0	384827392	62	4140
2026-01-18 10:49:38.44	340.01	17.31	-45.4	-46.8	24.8	6.01e-01	0	36	0	386924544	62	4196
2026-01-18 10:49:39.44	339.94	17.19	-45.4	-46.7	24.8	6.01e-01	0	36	0	388497408	62	4193
2026-01-18 10:49:40.45	339.88	17.06	-45.4	-46.7	24.8	6.01e-01	0	36	0	390594560	62	4172
2026-01-18 10:49:41.46	339.83	16.94	-45.5	-46.8	24.7	6.02e-01	0	36	0	392167424	62	4222
2026-01-18 10:49:42.47	339.77	16.81	-45.5	-46.8	24.7	6.02e-01	0	36	0	394264576	62	4212
2026-01-18 10:49:43.47	339.71	16.69	-45.5	-46.8	24.7	6.02e-01	0	36	0	396361728	62	4225
2026-01-18 10:49:44.48	339.65	16.56	-45.5	-46.8	24.7	6.02e-01	0	36	0	398458880	62	4236
2026-01-18 10:49:45.49	339.59	16.44	-45.5	-46.8	24.7	6.00e-01	0	36	0	400031744	62	4218
2026-01-18 10:49:46.50	339.54	16.32	-45.6	-46.9	24.6	6.01e-01	0	36	0	402128896	62	4260
2026-01-18 10:49:47.51	339.48	16.20	-45.4	-46.7	24.8	6.03e-01	0	36	0	403701760	62	4180
2026-01-18 10:49:48.51	339.42	16.08	-45.4	-46.7	24.8	6.01e-01	0	36	0	405798912	62	4191
2026-01-18 10:49:49.52	339.37	15.96	-45.5	-46.8	24.7	6.02e-01	0	36	0	407371776	62	4205
2026-01-18 10:49:50.53	339.31	15.84	-45.6	-46.9	24.6	6.01e-01	0	36	0	409468928	62	4271
2026-01-18 10:49:51.53	339.26	15.72	-45.5	-46.9	24.6	6.03e-01	0	36	0	411566080	62	4243
2026-01-18 10:49:52.54	339.21	15.60	-45.5	-46.8	24.6	6.04e-01	0	36	0	413138944	62	4237
2026-01-18 10:49:53.55	339.15	15.48	-45.5	-46.8	24.6	6.01e-01	0	36	0	415236096	62	4237
2026-01-18 10:49:54.55	339.10	15.37	-45.5	-46.8	24.7	5.99e-01	0	36	0	416808960	62	4224
2026-01-18 10:49:55.56	339.05	15.25	-45.5	-46.8	24.6	6.02e-01	0	36	0	418906112	62	4234
2026-01-18 10:49:56.57	339.00	15.13	-45.5	-46.8	24.6	6.02e-01	0	36	0	420478976	62	4222
2026-01-18 10:49:57.58	338.94	15.02	-45.5	-46.8	24.6	6.04e-01	0	35	0	422576128	62	4223
2026-01-18 10:49:58.58	338.89	14.90	-45.5	-46.8	24.6	6.01e-01	0	36	0	424673280	62	4238
2026-01-18 10:49:59.59	338.84	14.79	-45.5	-46.9	24.6	6.00e-01	0	36	0	426770432	62	4253
2026-01-18 10:50:00.60	338.79	14.68	-45.6	-47.0	24.5	6.00e-01	0	36	0	428343296	62	4308
2026-01-18 10:50:01.61	338.74	14.56	-45.7	-47.0	24.5	6.04e-01	0	36	0	430440448	62	4313
2026-01-18 10:50:02.61	338.69	14.45	-45.6	-46.9	24.5	6.01e-01	0	36	0	432013312	62	4266
2026-01-18 10:50:03.62	338.65	14.34	-45.5	-46.9	24.6	6.04e-01	0	36	0	434110464	62	4248
2026-01-18 10:50:04.63	338.60	14.23	-45.6	-46.9	24.5	6.01e-01	0	36	0	435683328	62	4277
2026-01-18 10:50:05.64	338.55	14.12	-45.6	-46.9	24.5	6.01e-01	0	36	0	437780480	62	4263
2026-01-18 10:50:06.65	338.50	14.01	-45.5	-46.9	24.6	6.00e-01	0	36	0	439877632	62	4248
2026-01-18 10:50:07.65	338.45	13.90	-45.6	-46.9	24.5	6.02e-01	0	36	0	441450496	62	4290
2026-01-18 10:50:08.66	338.41	13.79	-45.6	-47.0	24.5	6.02e-01	0	36	0	443547648	62	4307
2026-01-18 10:50:09.66	338.36	13.68	-45.7	-47.1	24.4	6.00e-01	0	36	0	445120512	62	4341
2026-01-18 10:50:10.67	338.32	13.57	-45.6	-47.0	24.4	6.01e-01	0	36	0	447217664	62	4304
2026-01-18 10:50:11.67	338.27	13.46	-45.7	-47.0	24.4	5.98e-01	0	36	0	449314816	62	4326
2026-01-18 10:50:12.68	338.23	13.36	-45.6	-46.9	24.4	6.00e-01	0	36	0	450887680	62	4288
2026-01-18 10:50:13.69	338.18	13.25	-45.6	-47.0	24.4	6.02e-01	0	36	0	452984832	62	4297
2026-01-18 10:50:14.70	338.14	13.14	-45.6	-47.0	24.4	6.03e-01	0	36	0	455081984	62	4312
2026-01-18 10:50:15.71	338.09	13.04	-45.6	-47.0	24.4	6.01e-01	0	36	0	456654848	62	4296
2026-01-18 10:50:16.71	338.05	12.93	-45.6	-46.9	24.5	6.01e-01	0	36	0	458752000	62	4267
2026-01-18 10:50:17.72	338.01	12.83	-45.6	-47.0	24.4	6.00e-01	0	36	0	460324864	62	4305
2026-01-18 10:50:18.73	337.96	12.72	-45.5	-46.8	24.6	6.02e-01	0	36	0	462422016	62	4208
2026-01-18 10:50:19.74	337.92	12.62	-45.5	-46.8	24.5	6.01e-01	0	36	0	463994880	62	4223
2026-01-18 10:50:20.74	337.88	12.52	-45.5	-46.8	24.5	6.02e-01	0	36	0	466092032	62	4237
2026-01-18 10:50:21.75	337.84	12.41	-45.5	-46.8	24.5	6.02e-01	0	36	0	468189184	62	4229
2026-01-18 10:50:22.76	337.79	12.31	-45.5	-46.8	24.5	6.00e-01	0	36	0	469762048	62	4242
2026-01-18 10:50:23.77	337.75	12.21	-45.6	-46.9	24.4	6.04e-01	0	36	0	471859200	62	4266
2026-01-18 10:50:24.77	337.71	12.11	-45.6	-46.9	24.4	6.02e-01	0	36	0	473956352	62	4267
2026-01-18 10:50:25.78	337.67	12.01	-45.7	-47.0	24.3	6.01e-01	0	36	0	475529216	62	4315
2026-01-18 10:50:26.79	337.63	11.91	-45.7	-47.1	24.2	6.03e-01	0	36	0	477626368	62	4368
2026-01-18 10:50:27.80	337.59	11.81	-45.7	-47.1	24.1	6.03e-01	0	36	0	479199232	62	4370
2026-01-18 10:50:28.81	337.55	11.71	-45.7	-47.1	24.1	6.01e-01	0	36	0	481296384	62	4372
2026-01-18 10:50:29.81	337.51	11.61	-45.8	-47.2	24.1	6.02e-01	0	36	0	483393536	62	4410
2026-01-18 10:50:30.82	337.47	11.51	-45.7	-47.1	24.2	6.01e-01	0	36	0	484966400	62	4368
2026-01-18 10:50:31.83	337.44	11.41	-45.8	-47.2	24.1	6.02e-01	0	36	0	487063552	62	4396
2026-01-18 10:50:32.84	337.40	11.31	-45.8	-47.2	24.0	6.02e-01	0	36	0	488636416	62	4440
2026-01-18 10:50:33.85	337.36	11.21	-45.9	-47.3	24.0	6.01e-01	0	36	0	490733568	62	4474
2026-01-18 10:50:34.85	337.32	11.12	-45.9	-47.3	24.0	6.00e-01	0	36	0	492306432	62	4455
2026-01-18 10:50:35.86	337.28	11.02	-45.9	-47.3	24.0	6.02e-01	0	36	0	494403584	62	4456
2026-01-18 10:50:36.87	337.25	10.92	-45.9	-47.3	24.0	6.01e-01	0	36	0	496500736	62	4451
2026-01-18 10:50:37.87	337.21	10.83	-45.8	-47.2	24.0	6.01e-01	0	36	0	498597888	62	4438
2026-01-18 10:50:38.88	337.17	10.73	-45.8	-47.2	24.1	5.99e-01	0	36	0	500170752	62	4414
2026-01-18 10:50:39.89	337.14	10.64	-45.9	-47.3	24.0	6.03e-01	0	36	0	502267904	62	4475
2026-01-18 10:50:40.90	337.10	10.54	-45.9	-47.3	23.9	6.01e-01	0	36	0	503840768	62	4483
2026-01-18 10:50:41.90	337.07	10.45	-46.0	-47.4	23.9	6.01e-01	0	36	0	505937920	62	4515
2026-01-18 10:50:42.91	337.03	10.36	-45.9	-47.3	23.9	6.00e-01	0	36	0	507510784	62	4483
2026-01-18 10:50:43.92	336.99	10.26	-45.9	-47.3	23.9	6.00e-01	0	36	0	509607936	62	4486
2026-01-18 10:50:44.93	336.96	10.17	-45.9	-47.3	23.9	6.02e-01	0	36	0	511705088	62	4489
2026-01-18 10:50:45.94	336.93	10.08	-46.0	-47.4	23.9	6.04e-01	0	36	0	513277952	62	4507
2026-01-18 10:50:46.94	336.89	9.98	-45.9	-47.3	23.9	6.00e-01	0	36	0	515375104	62	4485
2026-01-18 10:50:47.95	336.86	9.89	-46.0	-47.4	23.9	6.03e-01	0	36	0	516947968	62	4533
2026-01-18 10:50:48.96	336.82	9.80	-46.0	-47.4	23.8	6.01e-01	0	36	0	519045120	62	4513
2026-01-18 10:50:49.97	336.79	9.71	-46.1	-47.5	23.7	6.05e-01	0	36	0	520617984	62	4589
2026-01-18 10:50:50.98	336.76	9.62	-46.1	-47.5	23.7	6.02e-01	0	36	0	522715136	62	4568
2026-01-18 10:50:51.99	336.72	9.53	-46.1	-47.6	23.7	6.02e-01	0	36	0	524812288	62	4609
2026-01-18 10:50:53.00	336.69	9.44	-46.1	-47.6	23.6	6.01e-01	0	36	0	526909440	62	4604
2026-01-18 10:50:54.01	336.66	9.35	-46.2	-47.6	23.6	6.00e-01	0	36	0	528482304	62	4628
2026-01-18 10:50:55.01	336.63	9.26	-46.1	-47.5	23.7	6.01e-01	0	36	0	530579456	62	4594
2026-01-18 10:50:56.02	336.59	9.17	-46.2	-47.7	23.5	6.02e-01	0	36	0	532152320	62	4665
2026-01-18 10:50:57.03	336.56	9.08	-46.3	-47.8	23.5	6.01e-01	0	36	0	534249472	63	4451
2026-01-18 10:50:58.04	336.53	8.99	-46.3	-47.8	23.5	6.00e-01	0	36	0	535822336	63	4455
2026-01-18 10:50:59.05	336.50	8.90	-46.2	-47.7	23.5	6.01e-01	0	36	0	537919488	63	4426
2026-01-18 10:51:00.05	336.47	8.82	-46.3	-47.8	23.5	6.00e-01	0	36	0	540016640	63	4442
2026-01-18 10:51:01.06	336.44	8.73	-46.3	-47.8	23.5	6.01e-01	0	36	0	541589504	63	4442
2026-01-18 10:51:02.07	336.41	8.64	-46.3	-47.9	23.3	6.04e-01	0	36	0	543686656	63	4497
2026-01-18 10:51:03.08	336.37	8.55	-46.3	-47.7	23.4	6.01e-01	0	36	0	545783808	63	4435
2026-01-18 10:51:04.08	336.34	8.47	-46.3	-47.9	23.4	6.02e-01	0	36	0	547356672	63	4495
2026-01-18 10:51:05.09	336.31	8.38	-46.4	-47.9	23.3	6.02e-01	0	36	0	549453824	63	4513
2026-01-18 10:51:06.10	336.28	8.30	-46.4	-47.9	23.2	6.01e-01	0	36	0	551026688	63	4524
2026-01-18 10:51:07.11	336.26	8.21	-46.5	-48.0	23.2	6.04e-01	0	36	0	553123840	63	4581
2026-01-18 10:51:08.12	336.23	8.12	-46.4	-47.9	23.3	6.01e-01	0	36	0	555220992	63	4518
2026-01-18 10:51:09.12	336.20	8.04	-46.4	-47.9	23.2	6.01e-01	0	36	0	556793856	63	4507
2026-01-18 10:51:10.13	336.17	7.96	-46.4	-47.9	23.2	6.00e-01	0	36	0	558891008	63	4528
2026-01-18 10:51:11.14	336.14	7.87	-46.4	-48.0	23.2	6.02e-01	0	36	0	560463872	63	4552
2026-01-18 10:51:12.15	336.11	7.79	-46.4	-48.0	23.2	6.04e-01	0	36	0	562561024	63	4552
2026-01-18 10:51:13.15	336.08	7.70	-46.5	-48.1	23.0	5.99e-01	0	36	0	564133888	63	4599
2026-01-18 10:51:14.16	336.05	7.62	-46.5	-48.1	23.0	6.00e-01	0	36	0	566231040	63	4602
2026-01-18 10:51:15.17	336.03	7.54	-46.6	-48.1	23.0	6.01e-01	0	36	0	568328192	63	4627
2026-01-18 10:51:16.17	336.00	7.45	-46.6	-48.1	23.0	6.01e-01	0	36	0	570425344	63	4632
