passes_logs/2026/01/18/R3.2S_Murmansk/R3.2S_Murmansk__20260118_015526_SUOMI_NPP_rec.log

#Pass ID: 20260118_015526_SUOMI NPP
#Satellite: SUOMI NPP
#Configuration: NPP
#almurnet v.1.7.20251203
#Start time: 2026-01-18 01:55:26

#Version: 2.2.20231116
#Station: R3.2S_Murmansk
#Location: 33.079688 lon 68.888172 lat
#TLE: 1 37849U 11061A   26017.57099531  .00000072  00000+0  54974-4 0  9996
#TLE: 2 37849  98.7814 319.5974 0002398  59.1749 300.9663 14.19525865737072

#Time	Az	El	Level	Level2	SNR	BER	BlckErr	Temp	State	Recorded	gain1	gain2
2026-01-18 01:55:26.80	29.91	2.03	-51.7	-66.7	3.8	1.49e+00	0	33	0	0	75	19641
2026-01-18 01:55:27.81	29.88	2.09	-51.7	-66.6	3.8	1.49e+00	0	33	104	0	73	22005
2026-01-18 01:55:28.81	29.86	2.16	-51.7	-66.6	3.8	1.49e+00	0	33	104	0	73	21981
2026-01-18 01:55:29.82	29.83	2.22	-51.7	-66.6	3.8	1.49e+00	0	33	104	0	73	21961
2026-01-18 01:55:30.83	29.81	2.28	-51.7	-66.6	3.8	1.49e+00	0	33	104	0	73	21944
2026-01-18 01:55:31.84	29.78	2.35	-51.7	-66.6	3.8	1.49e+00	0	33	104	0	73	21912
2026-01-18 01:55:32.85	29.75	2.41	-51.7	-66.6	3.8	1.49e+00	0	33	104	0	73	21941
2026-01-18 01:55:33.85	29.73	2.48	-51.7	-66.6	3.8	1.49e+00	0	33	104	0	73	21925
2026-01-18 01:55:34.86	29.70	2.54	-51.7	-66.6	3.8	1.49e+00	0	33	104	0	73	21938
2026-01-18 01:55:35.87	29.68	2.61	-51.7	-66.6	3.8	1.49e+00	0	33	104	0	73	21878
2026-01-18 01:55:36.88	29.65	2.67	-51.7	-66.6	3.8	1.49e+00	0	33	104	0	73	21759
2026-01-18 01:55:37.89	29.62	2.73	-51.7	-66.6	3.8	1.49e+00	0	33	104	0	73	21779
2026-01-18 01:55:38.89	29.60	2.80	-51.7	-66.5	3.8	1.49e+00	0	33	104	0	73	21636
2026-01-18 01:55:39.90	29.57	2.86	-51.7	-66.5	3.8	1.49e+00	0	33	104	0	73	21624
2026-01-18 01:55:40.91	29.54	2.93	-51.7	-66.5	3.8	1.49e+00	0	33	104	0	73	21685
2026-01-18 01:55:41.92	29.52	3.00	-51.7	-66.5	3.8	1.49e+00	0	33	104	0	73	21530
2026-01-18 01:55:42.93	29.49	3.06	-51.7	-66.5	3.8	1.49e+00	0	34	104	0	73	21573
2026-01-18 01:55:43.93	29.46	3.13	-51.7	-66.5	3.8	1.49e+00	0	33	104	0	73	21552
2026-01-18 01:55:44.94	29.44	3.19	-51.6	-66.5	3.8	1.49e+00	0	33	104	0	73	21578
2026-01-18 01:55:45.95	29.41	3.26	-51.7	-66.4	3.8	1.49e+00	0	34	104	0	73	21458
2026-01-18 01:55:46.96	29.38	3.32	-51.7	-66.5	3.8	1.49e+00	0	34	104	0	73	21563
2026-01-18 01:55:47.96	29.35	3.39	-51.7	-66.3	3.8	1.49e+00	0	33	104	0	73	21125
2026-01-18 01:55:48.97	29.33	3.46	-51.6	-65.6	3.8	1.49e+00	0	33	104	0	73	19601
2026-01-18 01:55:49.98	29.30	3.52	-51.5	-63.7	4.1	1.49e+00	0	34	104	0	73	15647
2026-01-18 01:55:50.99	29.27	3.59	-51.4	-62.1	4.5	1.31e+00	1	34	0	0	73	13010
2026-01-18 01:55:52.00	29.24	3.66	-51.0	-59.2	6.2	4.27e-01	0	34	0	2097152	73	9373
2026-01-18 01:55:53.01	29.21	3.72	-50.7	-57.4	7.9	1.63e-01	0	34	0	4194304	73	7593
2026-01-18 01:55:54.01	29.19	3.79	-50.4	-56.4	8.9	4.84e-02	0	34	0	6291456	72	7154
2026-01-18 01:55:55.02	29.16	3.86	-49.8	-54.5	11.0	5.96e-03	0	34	0	8388608	71	6092
2026-01-18 01:55:56.03	29.13	3.93	-49.8	-54.4	11.1	2.65e-03	0	34	0	9437184	71	6012
2026-01-18 01:55:57.04	29.10	3.99	-49.4	-53.5	12.0	9.63e-04	0	34	0	11534336	70	5774
2026-01-18 01:55:58.04	29.07	4.06	-49.2	-53.1	12.4	1.63e-04	0	34	0	13631488	70	5511
2026-01-18 01:55:59.05	29.04	4.13	-49.0	-52.7	12.9	1.27e-04	0	34	0	15728640	70	5248
2026-01-18 01:56:00.06	29.01	4.20	-49.3	-53.3	12.3	6.56e-05	0	34	0	17825792	70	5594
2026-01-18 01:56:01.07	28.98	4.27	-48.9	-52.5	13.0	1.04e-04	0	34	0	18874368	69	5439
2026-01-18 01:56:02.08	28.95	4.34	-49.2	-53.1	12.4	6.71e-05	0	34	0	20971520	69	5833
2026-01-18 01:56:03.09	28.92	4.40	-48.8	-52.4	13.2	6.17e-05	0	34	0	23068672	69	5371
2026-01-18 01:56:04.09	28.89	4.47	-49.6	-54.1	11.4	6.13e-04	0	34	0	25165824	69	6538
2026-01-18 01:56:05.10	28.86	4.54	-49.5	-53.8	11.7	4.33e-04	0	34	0	27262976	69	6296
2026-01-18 01:56:06.11	28.83	4.61	-50.1	-55.3	10.2	2.28e-03	0	34	0	28311552	70	7071
2026-01-18 01:56:07.12	28.80	4.68	-49.8	-54.5	11.0	3.50e-03	0	34	0	30408704	70	6423
2026-01-18 01:56:08.12	28.77	4.75	-50.8	-57.9	7.5	5.69e-02	0	34	0	32505856	72	8495
2026-01-18 01:56:09.13	28.74	4.82	-50.7	-57.7	7.6	9.12e-02	0	34	0	34603008	72	8287
2026-01-18 01:56:10.14	28.71	4.89	-50.7	-57.6	7.7	8.23e-02	0	34	0	36700160	72	8221
2026-01-18 01:56:11.15	28.68	4.96	-50.9	-58.8	6.7	1.55e-01	0	34	0	37748736	72	9449
2026-01-18 01:56:12.15	28.64	5.03	-51.1	-59.6	5.9	3.33e-01	0	34	0	39845888	72	10380
2026-01-18 01:56:13.16	28.61	5.10	-50.6	-56.4	9.1	4.86e-02	0	34	0	41943040	72	7150
2026-01-18 01:56:14.17	28.58	5.17	-49.6	-53.6	12.3	4.22e-03	0	34	0	44040192	71	5500
2026-01-18 01:56:15.18	28.55	5.24	-51.3	-64.5	3.8	1.31e+00	0	34	104	45088768	73	17099
2026-01-18 01:56:16.19	28.52	5.31	-47.8	-50.2	15.7	4.83e-02	0	34	0	45088768	67	4694
2026-01-18 01:56:17.19	28.48	5.38	-50.8	-57.1	8.4	5.86e-03	0	34	0	47185920	72	7799
2026-01-18 01:56:18.20	28.45	5.45	-47.6	-50.0	15.9	0.00e+00	0	34	0	49283072	67	4561
2026-01-18 01:56:19.21	28.42	5.53	-47.1	-49.2	16.8	0.00e+00	0	34	0	51380224	66	4422
2026-01-18 01:56:20.22	28.39	5.60	-47.2	-49.3	16.7	0.00e+00	0	34	0	53477376	66	4473
2026-01-18 01:56:21.23	28.35	5.67	-46.8	-48.8	17.2	0.00e+00	0	34	0	55574528	65	4480
2026-01-18 01:56:22.24	28.32	5.74	-46.8	-48.8	17.2	0.00e+00	0	34	0	56623104	65	4491
2026-01-18 01:56:23.25	28.29	5.81	-46.8	-48.8	17.3	0.00e+00	0	34	0	58720256	65	4451
2026-01-18 01:56:24.25	28.25	5.89	-46.7	-48.7	17.4	0.00e+00	0	34	0	60817408	65	4400
2026-01-18 01:56:25.26	28.22	5.96	-47.0	-49.0	17.0	0.00e+00	0	34	0	62914560	65	4588
2026-01-18 01:56:26.27	28.19	6.03	-46.7	-48.7	17.4	0.00e+00	0	34	0	65011712	65	4398
2026-01-18 01:56:27.27	28.15	6.10	-46.8	-48.8	17.3	0.00e+00	0	34	0	66060288	65	4452
2026-01-18 01:56:28.28	28.12	6.18	-47.1	-49.1	17.0	0.00e+00	0	34	0	68157440	65	4650
2026-01-18 01:56:29.29	28.08	6.25	-47.1	-49.2	16.9	0.00e+00	0	34	0	70254592	65	4670
2026-01-18 01:56:30.30	28.05	6.32	-46.8	-48.7	17.4	0.00e+00	0	34	0	72351744	65	4432
2026-01-18 01:56:31.31	28.01	6.40	-47.0	-49.1	17.1	0.00e+00	0	34	0	74448896	65	4616
2026-01-18 01:56:32.31	27.98	6.47	-47.0	-49.0	17.1	0.00e+00	0	34	0	75497472	65	4598
2026-01-18 01:56:33.32	27.94	6.55	-46.6	-48.5	17.7	0.00e+00	0	34	0	77594624	65	4310
2026-01-18 01:56:34.33	27.91	6.62	-46.7	-48.5	17.6	0.00e+00	0	35	0	79691776	65	4340
2026-01-18 01:56:35.34	27.87	6.70	-46.7	-48.6	17.6	0.00e+00	0	34	0	81788928	65	4369
2026-01-18 01:56:36.34	27.84	6.77	-46.4	-48.2	18.0	0.00e+00	0	34	0	83886080	64	4425
2026-01-18 01:56:37.35	27.80	6.84	-46.6	-48.4	17.8	0.00e+00	0	34	0	84934656	64	4539
2026-01-18 01:56:38.36	27.76	6.92	-46.3	-48.1	18.1	0.00e+00	0	34	0	87031808	64	4361
2026-01-18 01:56:39.37	27.73	7.00	-46.8	-48.7	17.6	0.00e+00	0	34	0	89128960	64	4670
2026-01-18 01:56:40.38	27.69	7.07	-46.7	-48.5	17.7	0.00e+00	0	34	0	91226112	64	4594
2026-01-18 01:56:41.39	27.65	7.15	-46.6	-48.4	17.8	0.00e+00	0	34	0	93323264	64	4532
2026-01-18 01:56:42.39	27.62	7.22	-46.6	-48.4	17.9	0.00e+00	0	34	0	94371840	64	4528
2026-01-18 01:56:43.40	27.58	7.30	-46.6	-48.5	17.8	0.00e+00	0	34	0	96468992	64	4561
2026-01-18 01:56:44.41	27.54	7.38	-46.8	-48.7	17.6	0.00e+00	0	34	0	98566144	64	4669
2026-01-18 01:56:45.41	27.50	7.45	-46.6	-48.5	17.8	0.00e+00	0	34	0	100663296	64	4569
2026-01-18 01:56:46.42	27.46	7.53	-46.5	-48.3	18.0	0.00e+00	0	34	0	102760448	64	4464
2026-01-18 01:56:47.43	27.43	7.61	-46.6	-48.4	17.9	0.00e+00	0	34	0	103809024	64	4543
2026-01-18 01:56:48.44	27.39	7.68	-46.7	-48.6	17.8	0.00e+00	0	34	0	105906176	64	4604
2026-01-18 01:56:49.45	27.35	7.76	-46.6	-48.5	17.9	0.00e+00	0	35	0	108003328	64	4561
2026-01-18 01:56:50.45	27.31	7.84	-46.5	-48.3	18.0	0.00e+00	0	34	0	110100480	64	4446
2026-01-18 01:56:51.46	27.27	7.92	-46.5	-48.3	18.0	0.00e+00	0	35	0	112197632	64	4474
2026-01-18 01:56:52.47	27.23	7.99	-46.5	-48.3	18.1	0.00e+00	0	34	0	113246208	64	4455
2026-01-18 01:56:53.48	27.19	8.07	-46.6	-48.4	18.0	0.00e+00	0	35	0	115343360	64	4520
2026-01-18 01:56:54.48	27.15	8.15	-46.6	-48.4	17.9	0.00e+00	0	34	0	117440512	64	4527
2026-01-18 01:56:55.49	27.11	8.23	-46.7	-48.5	17.8	0.00e+00	0	34	0	119537664	64	4592
2026-01-18 01:56:56.50	27.07	8.31	-46.4	-48.2	18.2	0.00e+00	0	34	0	121634816	64	4402
2026-01-18 01:56:57.51	27.03	8.39	-46.7	-48.5	17.9	0.00e+00	0	34	0	122683392	64	4574
2026-01-18 01:56:58.52	26.99	8.47	-46.5	-48.3	18.1	0.00e+00	0	34	0	124780544	64	4463
2026-01-18 01:56:59.52	26.95	8.55	-46.5	-48.4	18.0	0.00e+00	0	34	0	126877696	64	4496
2026-01-18 01:57:00.53	26.91	8.63	-46.6	-48.4	18.0	0.00e+00	0	34	0	128974848	64	4508
2026-01-18 01:57:01.54	26.87	8.71	-46.7	-48.6	17.8	0.00e+00	0	34	0	131072000	64	4608
2026-01-18 01:57:02.55	26.82	8.79	-46.6	-48.5	18.0	0.00e+00	0	34	0	132120576	64	4546
2026-01-18 01:57:03.56	26.78	8.87	-46.7	-48.5	17.9	0.00e+00	0	35	0	134217728	64	4582
2026-01-18 01:57:04.57	26.74	8.95	-46.7	-48.5	17.9	0.00e+00	0	34	0	136314880	64	4594
2026-01-18 01:57:05.58	26.70	9.03	-46.7	-48.6	17.9	0.00e+00	0	35	0	138412032	64	4617
2026-01-18 01:57:06.59	26.65	9.11	-46.5	-48.2	18.2	0.00e+00	0	35	0	140509184	64	4439
2026-01-18 01:57:07.60	26.61	9.20	-46.5	-48.3	18.1	0.00e+00	0	35	0	142606336	64	4471
2026-01-18 01:57:08.60	26.57	9.28	-46.6	-48.5	18.0	0.00e+00	0	35	0	143654912	64	4551
2026-01-18 01:57:09.61	26.52	9.36	-46.7	-48.6	17.9	0.00e+00	0	35	0	145752064	64	4622
2026-01-18 01:57:10.62	26.48	9.44	-46.6	-48.5	18.0	0.00e+00	0	35	0	147849216	64	4547
2026-01-18 01:57:11.63	26.43	9.53	-46.6	-48.4	18.1	0.00e+00	0	35	0	149946368	64	4522
2026-01-18 01:57:12.64	26.39	9.61	-46.6	-48.4	18.0	0.00e+00	0	35	0	152043520	64	4543
2026-01-18 01:57:13.65	26.35	9.69	-46.5	-48.3	18.2	0.00e+00	0	35	0	153092096	64	4476
2026-01-18 01:57:14.65	26.30	9.78	-46.6	-48.4	18.1	0.00e+00	0	35	0	155189248	64	4509
2026-01-18 01:57:15.66	26.26	9.86	-46.4	-48.2	18.3	0.00e+00	0	35	0	157286400	64	4420
2026-01-18 01:57:16.67	26.21	9.94	-46.3	-48.0	18.5	0.00e+00	0	35	0	159383552	64	4306
2026-01-18 01:57:17.68	26.16	10.03	-46.5	-48.3	18.2	0.00e+00	0	35	0	160432128	64	4474
2026-01-18 01:57:18.68	26.12	10.11	-46.5	-48.2	18.3	0.00e+00	0	35	0	162529280	64	4425
2026-01-18 01:57:19.69	26.07	10.20	-46.3	-48.0	18.4	0.00e+00	0	35	0	164626432	64	4332
2026-01-18 01:57:20.70	26.02	10.28	-46.4	-48.1	18.4	0.00e+00	0	35	0	166723584	64	4349
2026-01-18 01:57:21.71	25.98	10.37	-46.5	-48.3	18.2	0.00e+00	0	35	0	168820736	64	4474
2026-01-18 01:57:22.72	25.93	10.45	-46.6	-48.4	18.1	0.00e+00	0	35	0	170917888	64	4518
2026-01-18 01:57:23.73	25.88	10.54	-46.6	-48.4	18.2	0.00e+00	0	35	0	171966464	64	4506
2026-01-18 01:57:24.73	25.83	10.63	-46.8	-48.6	17.9	0.00e+00	0	35	0	174063616	64	4648
2026-01-18 01:57:25.74	25.79	10.71	-46.3	-48.0	18.5	0.00e+00	0	35	0	176160768	64	4337
2026-01-18 01:57:26.75	25.74	10.80	-46.0	-47.6	18.9	0.00e+00	0	35	0	178257920	64	4118
2026-01-18 01:57:27.76	25.69	10.89	-45.9	-47.5	19.1	0.00e+00	0	35	0	180355072	63	4318
2026-01-18 01:57:28.76	25.64	10.97	-46.3	-47.9	18.7	0.00e+00	0	35	0	181403648	63	4528
2026-01-18 01:57:29.77	25.59	11.06	-46.0	-47.6	19.0	0.00e+00	0	35	0	183500800	63	4372
2026-01-18 01:57:30.78	25.54	11.15	-45.9	-47.4	19.1	0.00e+00	0	35	0	185597952	63	4290
2026-01-18 01:57:31.79	25.49	11.24	-46.1	-47.7	18.9	0.00e+00	0	35	0	187695104	63	4429
2026-01-18 01:57:32.79	25.44	11.33	-45.9	-47.4	19.2	0.00e+00	0	35	0	189792256	63	4260
2026-01-18 01:57:33.80	25.39	11.42	-45.8	-47.3	19.3	0.00e+00	0	35	0	190840832	63	4227
2026-01-18 01:57:34.81	25.34	11.51	-45.8	-47.4	19.2	0.00e+00	0	35	0	192937984	63	4248
2026-01-18 01:57:35.82	25.28	11.59	-45.6	-47.1	19.5	0.00e+00	0	34	0	195035136	63	4122
2026-01-18 01:57:36.82	25.23	11.68	-45.8	-47.4	19.2	0.00e+00	0	35	0	197132288	63	4251
2026-01-18 01:57:37.83	25.18	11.77	-45.9	-47.4	19.2	0.00e+00	0	35	0	199229440	63	4288
2026-01-18 01:57:38.84	25.13	11.86	-45.8	-47.4	19.3	0.00e+00	0	35	0	200278016	63	4247
2026-01-18 01:57:39.85	25.08	11.96	-45.8	-47.3	19.4	0.00e+00	0	35	0	202375168	63	4194
2026-01-18 01:57:40.86	25.02	12.05	-45.6	-47.1	19.5	0.00e+00	0	35	0	204472320	63	4128
2026-01-18 01:57:41.86	24.97	12.14	-45.6	-47.1	19.5	0.00e+00	0	35	0	206569472	63	4099
2026-01-18 01:57:42.87	24.91	12.23	-45.6	-47.1	19.5	0.00e+00	0	35	0	208666624	63	4120
2026-01-18 01:57:43.88	24.86	12.32	-45.6	-47.1	19.5	0.00e+00	0	35	0	209715200	63	4128
2026-01-18 01:57:44.89	24.81	12.41	-45.9	-47.4	19.2	0.00e+00	0	35	0	211812352	63	4279
2026-01-18 01:57:45.90	24.75	12.51	-45.7	-47.2	19.4	0.00e+00	0	35	0	213909504	63	4190
2026-01-18 01:57:46.90	24.69	12.60	-45.6	-47.1	19.5	0.00e+00	0	35	0	216006656	63	4126
2026-01-18 01:57:47.91	24.64	12.69	-45.6	-47.1	19.6	0.00e+00	0	35	0	218103808	63	4124
2026-01-18 01:57:48.92	24.58	12.79	-45.6	-47.1	19.6	0.00e+00	0	35	0	219152384	63	4105
2026-01-18 01:57:49.93	24.53	12.88	-45.7	-47.2	19.5	0.00e+00	0	35	0	221249536	62	4407
2026-01-18 01:57:50.93	24.47	12.97	-45.7	-47.2	19.5	0.00e+00	0	35	0	223346688	62	4419
2026-01-18 01:57:51.94	24.41	13.07	-45.7	-47.2	19.5	0.00e+00	0	35	0	225443840	62	4395
2026-01-18 01:57:52.95	24.35	13.16	-45.7	-47.2	19.4	0.00e+00	0	35	0	227540992	62	4434
2026-01-18 01:57:53.96	24.30	13.26	-45.7	-47.2	19.4	0.00e+00	0	35	0	228589568	62	4438
2026-01-18 01:57:54.96	24.24	13.35	-45.7	-47.2	19.5	0.00e+00	0	35	0	230686720	62	4411
2026-01-18 01:57:55.97	24.18	13.45	-45.8	-47.3	19.4	0.00e+00	0	35	0	232783872	62	4452
2026-01-18 01:57:56.98	24.12	13.55	-45.8	-47.3	19.4	0.00e+00	0	35	0	234881024	62	4467
2026-01-18 01:57:57.99	24.06	13.64	-45.7	-47.2	19.5	0.00e+00	0	35	0	236978176	62	4406
2026-01-18 01:57:58.99	24.00	13.74	-45.7	-47.2	19.5	0.00e+00	0	35	0	238026752	62	4393
2026-01-18 01:58:00.00	23.94	13.84	-45.7	-47.2	19.5	0.00e+00	0	35	0	240123904	62	4428
2026-01-18 01:58:01.01	23.88	13.94	-45.6	-47.0	19.6	0.00e+00	0	35	0	242221056	62	4326
2026-01-18 01:58:02.02	23.82	14.03	-45.8	-47.2	19.4	0.00e+00	0	35	0	244318208	62	4439
2026-01-18 01:58:03.03	23.75	14.13	-45.7	-47.2	19.5	0.00e+00	0	35	0	246415360	62	4397
2026-01-18 01:58:04.03	23.69	14.23	-45.7	-47.1	19.6	0.00e+00	0	35	0	247463936	62	4376
2026-01-18 01:58:05.04	23.63	14.33	-45.7	-47.2	19.5	0.00e+00	0	35	0	249561088	62	4410
2026-01-18 01:58:06.05	23.57	14.43	-45.7	-47.2	19.5	0.00e+00	0	35	0	251658240	62	4406
2026-01-18 01:58:07.06	23.50	14.53	-45.8	-47.3	19.4	0.00e+00	0	35	0	253755392	62	4463
2026-01-18 01:58:08.07	23.44	14.63	-45.8	-47.3	19.4	0.00e+00	0	35	0	255852544	62	4449
2026-01-18 01:58:09.07	23.37	14.73	-45.8	-47.3	19.4	0.00e+00	0	35	0	256901120	62	4454
2026-01-18 01:58:10.08	23.31	14.83	-45.9	-47.4	19.3	0.00e+00	0	35	0	258998272	62	4538
2026-01-18 01:58:11.09	23.24	14.93	-45.8	-47.2	19.5	0.00e+00	0	35	0	261095424	62	4430
2026-01-18 01:58:12.10	23.18	15.04	-45.7	-47.2	19.5	0.00e+00	0	35	0	263192576	62	4415
2026-01-18 01:58:13.11	23.11	15.14	-45.7	-47.2	19.5	0.00e+00	0	35	0	265289728	62	4418
2026-01-18 01:58:14.12	23.04	15.24	-45.6	-47.1	19.7	0.00e+00	0	35	0	266338304	62	4349
2026-01-18 01:58:15.13	22.97	15.34	-45.5	-47.0	19.7	0.00e+00	0	35	0	268435456	62	4301
2026-01-18 01:58:16.13	22.91	15.45	-45.6	-47.1	19.7	0.00e+00	0	35	0	270532608	62	4344
2026-01-18 01:58:17.14	22.84	15.55	-45.4	-46.7	19.9	0.00e+00	0	35	0	272629760	62	4190
2026-01-18 01:58:18.15	22.77	15.65	-45.3	-46.7	20.0	0.00e+00	0	35	0	274726912	62	4160
2026-01-18 01:58:19.16	22.70	15.76	-45.6	-47.0	19.7	0.00e+00	0	35	0	275775488	62	4315
2026-01-18 01:58:20.17	22.63	15.86	-45.6	-47.0	19.7	0.00e+00	0	35	0	277872640	62	4339
2026-01-18 01:58:21.17	22.56	15.97	-45.4	-46.8	19.9	0.00e+00	0	35	0	279969792	62	4242
2026-01-18 01:58:22.18	22.49	16.07	-45.5	-46.9	19.9	0.00e+00	0	35	0	282066944	62	4245
2026-01-18 01:58:23.19	22.42	16.18	-45.4	-46.8	20.0	0.00e+00	0	35	0	284164096	62	4195
2026-01-18 01:58:24.20	22.34	16.29	-45.5	-46.9	19.9	0.00e+00	0	35	0	286261248	62	4250
2026-01-18 01:58:25.21	22.27	16.40	-45.8	-47.3	19.5	0.00e+00	0	35	0	287309824	62	4456
2026-01-18 01:58:26.21	22.20	16.50	-45.8	-47.2	19.6	0.00e+00	0	35	0	289406976	62	4427
2026-01-18 01:58:27.23	22.12	16.61	-45.8	-47.2	19.5	0.00e+00	0	35	0	291504128	62	4426
2026-01-18 01:58:28.23	22.05	16.72	-45.8	-47.3	19.5	0.00e+00	0	35	0	293601280	62	4484
2026-01-18 01:58:29.24	21.97	16.83	-46.2	-47.8	19.1	0.00e+00	0	35	0	294649856	62	4715
2026-01-18 01:58:30.25	21.90	16.94	-45.7	-47.2	19.6	0.00e+00	0	35	0	296747008	62	4423
2026-01-18 01:58:31.26	21.82	17.05	-45.8	-47.2	19.5	0.00e+00	0	35	0	298844160	62	4428
2026-01-18 01:58:32.27	21.75	17.16	-45.8	-47.3	19.5	0.00e+00	0	35	0	300941312	62	4478
2026-01-18 01:58:33.28	21.67	17.27	-46.0	-47.5	19.3	0.00e+00	0	35	0	303038464	62	4576
2026-01-18 01:58:34.29	21.59	17.38	-45.9	-47.4	19.5	0.00e+00	0	35	0	304087040	62	4517
2026-01-18 01:58:35.29	21.51	17.49	-46.1	-47.6	19.2	0.00e+00	0	35	0	306184192	63	4384
2026-01-18 01:58:36.30	21.43	17.60	-45.9	-47.3	19.5	0.00e+00	0	35	0	308281344	63	4242
2026-01-18 01:58:37.31	21.35	17.71	-45.9	-47.4	19.4	0.00e+00	0	35	0	310378496	63	4252
2026-01-18 01:58:38.32	21.27	17.83	-45.8	-47.3	19.6	0.00e+00	0	35	0	312475648	63	4205
2026-01-18 01:58:39.32	21.19	17.94	-45.8	-47.3	19.5	0.00e+00	0	35	0	314572800	63	4241
2026-01-18 01:58:40.33	21.11	18.05	-45.8	-47.2	19.6	0.00e+00	0	35	0	315621376	63	4184
2026-01-18 01:58:41.34	21.03	18.17	-45.7	-47.2	19.6	0.00e+00	0	35	0	317718528	63	4178
2026-01-18 01:58:42.35	20.95	18.28	-45.7	-47.1	19.7	0.00e+00	0	35	0	319815680	63	4126
2026-01-18 01:58:43.36	20.86	18.40	-45.6	-47.0	19.9	0.00e+00	0	35	0	321912832	63	4062
2026-01-18 01:58:44.37	20.78	18.51	-45.5	-46.9	19.9	0.00e+00	0	35	0	322961408	63	4014
2026-01-18 01:58:45.38	20.69	18.63	-45.6	-47.1	19.8	0.00e+00	0	35	0	325058560	62	4358
2026-01-18 01:58:46.39	20.61	18.75	-45.7	-47.1	19.8	0.00e+00	0	35	0	327155712	62	4350
2026-01-18 01:58:47.40	20.52	18.86	-45.5	-46.9	19.9	0.00e+00	0	35	0	329252864	62	4258
2026-01-18 01:58:48.41	20.43	18.98	-45.5	-46.9	19.9	0.00e+00	0	35	0	331350016	62	4283
2026-01-18 01:58:49.41	20.35	19.10	-45.7	-47.1	19.8	0.00e+00	0	35	0	333447168	62	4353
2026-01-18 01:58:50.42	20.26	19.22	-45.9	-47.4	19.6	0.00e+00	0	35	0	334495744	62	4502
2026-01-18 01:58:51.43	20.17	19.34	-45.8	-47.2	19.7	0.00e+00	0	35	0	336592896	62	4439
2026-01-18 01:58:52.44	20.08	19.46	-45.8	-47.3	19.7	0.00e+00	0	35	0	338690048	62	4445
2026-01-18 01:58:53.44	19.99	19.57	-46.0	-47.5	19.4	0.00e+00	0	35	0	340787200	62	4566
2026-01-18 01:58:54.45	19.90	19.70	-46.0	-47.5	19.4	0.00e+00	0	35	0	342884352	62	4572
2026-01-18 01:58:55.46	19.81	19.82	-45.9	-47.4	19.4	0.00e+00	0	35	0	343932928	62	4527
2026-01-18 01:58:56.47	19.71	19.94	-46.2	-47.8	19.1	0.00e+00	0	35	0	346030080	63	4465
2026-01-18 01:58:57.48	19.62	20.06	-46.5	-48.1	18.8	0.00e+00	0	35	0	348127232	63	4622
2026-01-18 01:58:58.48	19.53	20.18	-46.5	-48.2	18.8	0.00e+00	0	35	0	350224384	63	4665
2026-01-18 01:58:59.49	19.43	20.31	-46.5	-48.1	18.8	0.00e+00	0	35	0	352321536	63	4644
2026-01-18 01:59:00.50	19.33	20.43	-46.6	-48.3	18.6	0.00e+00	0	35	0	353370112	63	4741
2026-01-18 01:59:01.51	19.24	20.55	-46.4	-48.0	18.8	0.00e+00	0	35	0	355467264	64	4339
2026-01-18 01:59:02.52	19.14	20.68	-46.6	-48.2	18.7	0.00e+00	0	35	0	357564416	64	4433
2026-01-18 01:59:03.52	19.04	20.80	-46.6	-48.3	18.6	0.00e+00	0	35	0	359661568	64	4465
2026-01-18 01:59:04.53	18.94	20.93	-46.6	-48.3	18.5	0.00e+00	0	35	0	361758720	64	4480
2026-01-18 01:59:05.54	18.84	21.05	-46.5	-48.2	18.7	0.00e+00	0	35	0	362807296	64	4404
2026-01-18 01:59:06.55	18.74	21.18	-46.8	-48.6	18.3	0.00e+00	0	35	0	364904448	64	4608
2026-01-18 01:59:07.56	18.64	21.31	-46.4	-48.1	18.8	0.00e+00	0	35	0	367001600	64	4356
2026-01-18 01:59:08.57	18.54	21.44	-46.4	-48.0	18.8	0.00e+00	0	35	0	369098752	64	4336
2026-01-18 01:59:09.57	18.43	21.56	-46.3	-47.9	18.9	0.00e+00	0	35	0	371195904	64	4287
2026-01-18 01:59:10.58	18.33	21.69	-46.4	-48.1	18.8	0.00e+00	0	35	0	372244480	64	4368
2026-01-18 01:59:11.59	18.22	21.82	-46.3	-47.9	19.0	0.00e+00	0	35	0	374341632	64	4260
2026-01-18 01:59:12.60	18.12	21.95	-46.3	-47.9	18.9	0.00e+00	0	35	0	376438784	64	4263
2026-01-18 01:59:13.60	18.01	22.08	-46.2	-47.8	19.0	0.00e+00	0	35	0	378535936	64	4212
2026-01-18 01:59:14.61	17.90	22.21	-46.6	-48.3	18.6	0.00e+00	0	35	0	380633088	64	4450
2026-01-18 01:59:15.62	17.79	22.35	-46.5	-48.1	18.8	0.00e+00	0	35	0	381681664	64	4367
2026-01-18 01:59:16.63	17.68	22.48	-46.5	-48.2	18.7	0.00e+00	0	35	0	383778816	64	4400
2026-01-18 01:59:17.64	17.57	22.61	-46.4	-48.1	18.9	0.00e+00	0	35	0	385875968	64	4347
2026-01-18 01:59:18.64	17.46	22.74	-46.6	-48.3	18.7	0.00e+00	0	35	0	387973120	64	4462
2026-01-18 01:59:19.65	17.35	22.88	-46.5	-48.2	18.7	0.00e+00	0	35	0	390070272	64	4413
2026-01-18 01:59:20.66	17.23	23.01	-46.4	-48.0	18.9	0.00e+00	0	35	0	391118848	64	4300
2026-01-18 01:59:21.67	17.12	23.15	-46.5	-48.1	18.8	0.00e+00	0	35	0	393216000	64	4378
2026-01-18 01:59:22.67	17.00	23.28	-46.8	-48.5	18.5	0.00e+00	0	35	0	395313152	64	4548
2026-01-18 01:59:23.68	16.89	23.42	-46.5	-48.1	18.9	0.00e+00	0	35	0	397410304	64	4359
2026-01-18 01:59:24.69	16.77	23.56	-46.8	-48.5	18.5	0.00e+00	0	35	0	399507456	64	4570
2026-01-18 01:59:25.70	16.65	23.69	-46.8	-48.5	18.4	0.00e+00	0	35	0	401604608	64	4589
2026-01-18 01:59:26.70	16.53	23.83	-46.8	-48.4	18.6	0.00e+00	0	35	0	402653184	64	4534
2026-01-18 01:59:27.71	16.41	23.97	-46.8	-48.4	18.6	0.00e+00	0	35	0	404750336	64	4538
2026-01-18 01:59:28.72	16.28	24.11	-46.8	-48.4	18.6	0.00e+00	0	35	0	406847488	64	4534
2026-01-18 01:59:29.73	16.16	24.25	-46.7	-48.3	18.7	0.00e+00	0	35	0	408944640	64	4468
2026-01-18 01:59:30.74	16.04	24.39	-46.6	-48.2	18.8	0.00e+00	0	35	0	409993216	64	4423
2026-01-18 01:59:31.74	15.91	24.53	-46.7	-48.3	18.7	0.00e+00	0	35	0	412090368	64	4488
2026-01-18 01:59:32.75	15.78	24.67	-46.8	-48.4	18.6	0.00e+00	0	35	0	414187520	64	4524
2026-01-18 01:59:33.76	15.66	24.81	-46.7	-48.4	18.6	0.00e+00	0	35	0	416284672	64	4503
2026-01-18 01:59:34.77	15.53	24.96	-46.9	-48.6	18.3	0.00e+00	0	35	0	418381824	64	4646
2026-01-18 01:59:35.78	15.40	25.10	-46.9	-48.6	18.4	0.00e+00	0	35	0	419430400	64	4649
2026-01-18 01:59:36.79	15.26	25.25	-46.9	-48.7	18.3	0.00e+00	0	35	0	421527552	64	4656
2026-01-18 01:59:37.79	15.13	25.39	-47.1	-49.0	18.0	0.00e+00	0	35	0	423624704	64	4836
2026-01-18 01:59:38.80	15.00	25.54	-47.0	-48.7	18.3	0.00e+00	0	35	0	425721856	65	4427
2026-01-18 01:59:39.80	14.86	25.68	-47.3	-49.2	17.9	0.00e+00	0	35	0	427819008	65	4661
2026-01-18 01:59:40.82	14.72	25.83	-47.6	-49.6	17.5	0.00e+00	0	35	0	429916160	65	4874
2026-01-18 01:59:41.82	14.59	25.97	-47.4	-49.3	17.7	0.00e+00	0	35	0	430964736	65	4717
2026-01-18 01:59:42.83	14.45	26.12	-47.7	-49.7	17.4	0.00e+00	0	35	0	433061888	65	4973
2026-01-18 01:59:43.84	14.31	26.27	-47.7	-49.7	17.3	0.00e+00	0	35	0	435159040	66	4698
2026-01-18 01:59:44.85	14.16	26.42	-47.6	-49.6	17.5	0.00e+00	0	35	0	437256192	66	4624
2026-01-18 01:59:45.85	14.02	26.57	-47.4	-49.4	17.7	0.00e+00	0	35	0	438304768	66	4519
2026-01-18 01:59:46.86	13.88	26.72	-47.6	-49.6	17.5	0.00e+00	0	35	0	440401920	66	4643
2026-01-18 01:59:47.87	13.73	26.87	-47.1	-48.9	18.1	0.00e+00	0	35	0	442499072	66	4255
2026-01-18 01:59:48.88	13.58	27.02	-47.0	-48.8	18.3	0.00e+00	0	35	0	444596224	65	4478
2026-01-18 01:59:49.88	13.43	27.17	-46.9	-48.6	18.4	0.00e+00	0	35	0	446693376	65	4376
2026-01-18 01:59:50.89	13.28	27.33	-46.8	-48.5	18.5	0.00e+00	0	35	0	448790528	65	4317
2026-01-18 01:59:51.90	13.13	27.48	-46.7	-48.4	18.7	0.00e+00	0	35	0	449839104	65	4250
2026-01-18 01:59:52.91	12.97	27.63	-46.8	-48.5	18.6	0.00e+00	0	35	0	451936256	65	4301
2026-01-18 01:59:53.92	12.82	27.79	-46.6	-48.2	18.8	0.00e+00	0	35	0	454033408	65	4181
2026-01-18 01:59:54.92	12.66	27.94	-46.8	-48.4	18.7	0.00e+00	0	35	0	456130560	65	4291
2026-01-18 01:59:55.93	12.50	28.10	-46.6	-48.1	18.9	0.00e+00	0	35	0	458227712	65	4135
2026-01-18 01:59:56.94	12.34	28.26	-46.7	-48.3	18.8	0.00e+00	0	35	0	459276288	65	4195
2026-01-18 01:59:57.95	12.18	28.41	-46.8	-48.4	18.7	0.00e+00	0	35	0	461373440	65	4257
2026-01-18 01:59:58.96	12.02	28.57	-46.7	-48.3	18.8	0.00e+00	0	35	0	463470592	65	4213
2026-01-18 01:59:59.97	11.85	28.73	-46.7	-48.3	18.8	0.00e+00	0	35	0	465567744	65	4210
2026-01-18 02:00:00.97	11.69	28.89	-47.0	-48.7	18.4	0.00e+00	0	35	0	466616320	65	4436
2026-01-18 02:00:01.98	11.52	29.05	-46.9	-48.6	18.5	0.00e+00	0	35	0	468713472	65	4345
2026-01-18 02:00:02.99	11.35	29.21	-47.0	-48.7	18.3	0.00e+00	0	35	0	470810624	65	4440
2026-01-18 02:00:04.00	11.18	29.37	-46.7	-48.4	18.7	0.00e+00	0	35	0	472907776	65	4243
2026-01-18 02:00:05.01	11.00	29.53	-46.9	-48.6	18.5	0.00e+00	0	35	0	475004928	65	4385
2026-01-18 02:00:06.01	10.83	29.69	-47.3	-49.2	17.9	0.00e+00	0	35	0	477102080	65	4670
2026-01-18 02:00:07.02	10.65	29.86	-47.5	-49.4	17.7	0.00e+00	0	35	0	478150656	65	4799
2026-01-18 02:00:08.03	10.47	30.02	-47.6	-49.5	17.5	0.00e+00	0	35	0	480247808	65	4868
2026-01-18 02:00:09.03	10.29	30.18	-47.8	-49.8	17.4	0.00e+00	0	35	0	482344960	66	4737
2026-01-18 02:00:10.04	10.11	30.35	-47.5	-49.4	17.7	0.00e+00	0	35	0	484442112	66	4535
2026-01-18 02:00:11.05	9.93	30.51	-47.7	-49.7	17.4	0.00e+00	0	35	0	486539264	66	4683
2026-01-18 02:00:12.06	9.74	30.68	-47.6	-49.5	17.7	0.00e+00	0	35	0	487587840	66	4573
2026-01-18 02:00:13.07	9.55	30.85	-47.4	-49.3	17.9	0.00e+00	0	35	0	489684992	66	4451
2026-01-18 02:00:14.07	9.36	31.01	-47.7	-49.6	17.6	0.00e+00	0	35	0	491782144	66	4610
2026-01-18 02:00:15.08	9.17	31.18	-47.8	-49.8	17.5	0.00e+00	0	35	0	493879296	66	4721
2026-01-18 02:00:16.09	8.97	31.35	-48.1	-50.2	17.1	0.00e+00	0	35	0	494927872	66	4939
2026-01-18 02:00:17.10	8.78	31.52	-48.3	-50.5	16.7	0.00e+00	0	35	0	497025024	67	4851
2026-01-18 02:00:18.10	8.58	31.69	-48.2	-50.3	16.9	0.00e+00	0	35	0	499122176	67	4718
2026-01-18 02:00:19.11	8.38	31.86	-48.2	-50.3	16.9	0.00e+00	0	35	0	501219328	67	4756
2026-01-18 02:00:20.12	8.18	32.03	-48.2	-50.3	17.0	0.00e+00	0	35	0	503316480	67	4750
2026-01-18 02:00:21.13	7.97	32.20	-48.1	-50.1	17.2	0.00e+00	0	35	0	505413632	67	4631
2026-01-18 02:00:22.14	7.76	32.37	-48.1	-50.2	17.0	0.00e+00	0	35	0	506462208	67	4687
2026-01-18 02:00:23.14	7.55	32.54	-48.2	-50.3	16.9	0.00e+00	0	35	0	508559360	67	4742
2026-01-18 02:00:24.15	7.34	32.72	-48.3	-50.5	16.7	0.00e+00	0	35	0	510656512	67	4824
2026-01-18 02:00:25.16	7.13	32.89	-48.7	-51.0	16.3	0.00e+00	0	35	0	512753664	67	5150
2026-01-18 02:00:26.17	6.91	33.06	-48.9	-51.3	16.1	0.00e+00	0	35	0	514850816	68	4984
2026-01-18 02:00:27.17	6.69	33.24	-48.9	-51.3	16.0	0.00e+00	0	35	0	515899392	68	5041
2026-01-18 02:00:28.18	6.47	33.41	-49.0	-51.4	16.0	0.00e+00	0	35	0	517996544	68	5064
2026-01-18 02:00:29.19	6.25	33.59	-48.5	-50.8	16.6	0.00e+00	0	35	0	520093696	68	4726
2026-01-18 02:00:30.20	6.02	33.77	-48.4	-50.6	16.7	0.00e+00	0	35	0	522190848	68	4625
2026-01-18 02:00:31.20	5.79	33.94	-48.4	-50.7	16.7	0.00e+00	0	35	0	524288000	68	4654
2026-01-18 02:00:32.21	5.56	34.12	-48.1	-50.2	17.1	0.00e+00	0	35	0	525336576	68	4395
2026-01-18 02:00:33.22	5.33	34.30	-47.9	-49.9	17.4	0.00e+00	0	35	0	527433728	67	4524
2026-01-18 02:00:34.23	5.09	34.47	-48.0	-50.0	17.2	0.00e+00	0	35	0	529530880	67	4598
2026-01-18 02:00:35.24	4.85	34.65	-47.9	-50.0	17.2	0.00e+00	0	35	0	531628032	67	4564
2026-01-18 02:00:36.24	4.61	34.83	-48.1	-50.3	17.0	0.00e+00	0	35	0	533725184	67	4720
2026-01-18 02:00:37.25	4.37	35.01	-48.9	-51.5	15.9	0.00e+00	0	35	0	534773760	68	5136
2026-01-18 02:00:38.26	4.12	35.19	-48.4	-50.8	16.6	0.00e+00	0	35	0	536870912	68	4723
2026-01-18 02:00:39.27	3.87	35.37	-48.3	-50.6	16.7	0.00e+00	0	35	0	538968064	68	4622
2026-01-18 02:00:40.28	3.62	35.55	-48.1	-50.2	17.2	0.00e+00	0	35	0	541065216	68	4406
2026-01-18 02:00:41.28	3.36	35.73	-47.7	-49.6	17.6	0.00e+00	0	35	0	543162368	67	4359
2026-01-18 02:00:42.29	3.10	35.91	-47.8	-49.7	17.5	0.00e+00	0	35	0	544210944	67	4441
2026-01-18 02:00:43.30	2.84	36.09	-47.8	-49.7	17.6	0.00e+00	0	35	0	546308096	67	4429
2026-01-18 02:00:44.31	2.58	36.28	-48.1	-50.2	17.1	0.00e+00	0	35	0	548405248	67	4652
2026-01-18 02:00:45.32	2.31	36.46	-48.8	-51.3	16.0	0.00e+00	0	35	0	550502400	68	5021
2026-01-18 02:00:46.32	2.04	36.64	-49.4	-52.2	15.2	0.00e+00	0	35	0	552599552	69	5264
2026-01-18 02:00:47.33	1.77	36.82	-49.4	-52.3	15.0	7.00e-07	0	35	0	553648128	69	5302
2026-01-18 02:00:48.34	1.49	37.01	-48.9	-51.5	15.9	0.00e+00	0	35	0	555745280	69	4848
2026-01-18 02:00:49.35	1.21	37.19	-48.9	-51.4	15.9	0.00e+00	0	35	0	557842432	69	4799
2026-01-18 02:00:50.36	0.93	37.37	-48.8	-51.2	16.3	0.00e+00	0	35	0	559939584	68	4934
2026-01-18 02:00:51.36	0.64	37.56	-48.4	-50.6	16.8	0.00e+00	0	35	0	562036736	68	4621
2026-01-18 02:00:52.37	0.35	37.74	-48.6	-50.9	16.4	0.00e+00	0	35	0	563085312	68	4791
2026-01-18 02:00:53.38	0.06	37.92	-48.6	-51.0	16.4	0.00e+00	0	35	0	565182464	68	4840
2026-01-18 02:00:54.39	359.76	38.11	-49.0	-51.6	15.7	0.00e+00	0	35	0	567279616	68	5211
2026-01-18 02:00:55.40	359.46	38.29	-49.0	-51.6	15.8	0.00e+00	0	35	0	569376768	68	5205
2026-01-18 02:00:56.40	359.16	38.48	-48.0	-50.2	17.1	0.00e+00	0	35	0	571473920	68	4426
2026-01-18 02:00:57.41	358.86	38.66	-47.2	-49.0	18.1	0.00e+00	0	35	0	572522496	66	4329
2026-01-18 02:00:58.42	358.54	38.85	-46.6	-48.2	18.9	0.00e+00	0	35	0	574619648	65	4162
2026-01-18 02:00:59.43	358.23	39.03	-46.6	-48.2	18.9	0.00e+00	0	35	0	576716800	64	4402
2026-01-18 02:01:00.41	357.92	39.21	-46.3	-47.9	19.3	0.00e+00	0	35	0	578813952	64	4255
2026-01-18 02:01:01.42	357.60	39.39	-47.1	-48.9	18.3	0.00e+00	0	35	0	580911104	64	4780
2026-01-18 02:01:02.43	357.28	39.58	-47.5	-49.4	17.9	0.00e+00	0	35	0	581959680	65	4761
2026-01-18 02:01:03.44	356.95	39.76	-47.8	-49.9	17.4	0.00e+00	0	35	0	584056832	66	4786
2026-01-18 02:01:04.45	356.61	39.95	-48.3	-50.7	16.6	0.00e+00	0	35	0	586153984	67	4945
2026-01-18 02:01:05.45	356.28	40.13	-48.6	-51.1	16.3	0.00e+00	0	35	0	588251136	67	5168
2026-01-18 02:01:06.46	355.94	40.32	-48.6	-51.1	16.3	0.00e+00	0	35	0	590348288	68	4918
2026-01-18 02:01:07.47	355.60	40.50	-48.6	-51.0	16.4	0.00e+00	0	35	0	591396864	68	4854
2026-01-18 02:01:08.48	355.25	40.68	-48.2	-50.3	17.1	0.00e+00	0	35	0	593494016	68	4492
2026-01-18 02:01:09.48	354.90	40.87	-47.6	-49.5	17.8	0.00e+00	0	35	0	595591168	67	4302
2026-01-18 02:01:10.49	354.54	41.05	-47.5	-49.4	17.8	0.00e+00	0	35	0	597688320	66	4500
2026-01-18 02:01:11.50	354.18	41.23	-47.4	-49.3	17.9	0.00e+00	0	35	0	599785472	66	4444
2026-01-18 02:01:12.51	353.82	41.41	-47.5	-49.5	17.7	0.00e+00	0	35	0	600834048	66	4564
2026-01-18 02:01:13.51	353.45	41.59	-47.3	-49.2	18.0	0.00e+00	0	35	0	602931200	66	4417
2026-01-18 02:01:14.52	353.08	41.78	-47.2	-49.0	18.1	0.00e+00	0	35	0	605028352	65	4595
2026-01-18 02:01:15.53	352.70	41.96	-47.3	-49.1	18.2	0.00e+00	0	35	0	607125504	65	4614
2026-01-18 02:01:16.54	352.32	42.14	-47.8	-49.7	17.5	0.00e+00	0	35	0	609222656	66	4705
2026-01-18 02:01:17.55	351.94	42.32	-48.3	-50.5	16.9	0.00e+00	0	35	0	610271232	67	4833
2026-01-18 02:01:18.55	351.55	42.49	-49.4	-52.3	15.2	0.00e+00	0	35	0	612368384	69	5303
2026-01-18 02:01:19.56	351.16	42.67	-49.7	-52.9	14.5	1.22e-05	0	35	0	614465536	70	5349
2026-01-18 02:01:20.57	350.76	42.85	-49.7	-52.9	14.6	3.00e-06	0	35	0	616562688	70	5352
2026-01-18 02:01:21.58	350.35	43.03	-49.2	-52.0	15.4	0.00e+00	0	35	0	618659840	70	4820
2026-01-18 02:01:22.58	349.95	43.20	-48.6	-51.0	16.4	0.00e+00	0	35	0	619708416	69	4567
2026-01-18 02:01:23.59	349.54	43.38	-48.5	-50.8	16.5	0.00e+00	0	35	0	621805568	68	4756
2026-01-18 02:01:24.60	349.12	43.55	-48.2	-50.4	17.0	0.00e+00	0	35	0	623902720	68	4531
2026-01-18 02:01:25.61	348.70	43.73	-48.0	-50.2	17.2	0.00e+00	0	35	0	625999872	67	4666
2026-01-18 02:01:26.62	348.27	43.90	-48.6	-51.0	16.3	0.00e+00	0	35	0	628097024	67	5149
2026-01-18 02:01:27.62	347.85	44.07	-49.5	-52.5	15.2	0.00e+00	0	35	0	629145600	69	5412
2026-01-18 02:01:28.63	347.41	44.24	-49.8	-53.1	14.3	3.00e-06	0	35	0	631242752	70	5512
2026-01-18 02:01:29.64	346.97	44.41	-49.5	-52.5	14.9	7.00e-07	0	35	0	633339904	70	5130
2026-01-18 02:01:30.65	346.53	44.58	-48.8	-51.2	16.2	0.00e+00	0	35	0	635437056	69	4677
2026-01-18 02:01:31.66	346.08	44.75	-48.3	-50.5	16.9	0.00e+00	0	35	0	637534208	68	4583
2026-01-18 02:01:32.67	345.62	44.91	-48.3	-50.5	17.0	0.00e+00	0	35	0	638582784	68	4582
2026-01-18 02:01:33.68	345.16	45.08	-47.8	-49.8	17.5	0.00e+00	0	35	0	640679936	67	4457
2026-01-18 02:01:34.69	344.70	45.24	-47.4	-49.3	18.1	0.00e+00	0	35	0	642777088	66	4445
2026-01-18 02:01:35.69	344.23	45.40	-47.4	-49.2	18.0	0.00e+00	0	35	0	644874240	66	4438
2026-01-18 02:01:36.70	343.76	45.56	-47.7	-49.7	17.7	0.00e+00	0	35	0	646971392	66	4696
2026-01-18 02:01:37.71	343.28	45.72	-47.4	-49.2	18.1	0.00e+00	0	35	0	649068544	66	4428
2026-01-18 02:01:38.71	342.80	45.87	-46.7	-48.2	19.0	0.00e+00	0	35	0	650117120	65	4190
2026-01-18 02:01:39.72	342.32	46.03	-46.3	-47.8	19.5	0.00e+00	0	35	0	652214272	64	4218
2026-01-18 02:01:40.73	341.82	46.18	-46.0	-47.4	19.9	0.00e+00	0	35	0	654311424	63	4290
2026-01-18 02:01:41.74	341.33	46.34	-46.6	-48.2	19.1	0.00e+00	0	35	0	656408576	63	4703
2026-01-18 02:01:42.74	340.83	46.48	-46.9	-48.5	18.8	0.00e+00	0	35	0	657457152	64	4587
2026-01-18 02:01:43.75	340.32	46.63	-47.1	-48.9	18.3	0.00e+00	0	35	0	659554304	64	4791
2026-01-18 02:01:44.76	339.81	46.78	-47.3	-49.2	18.3	0.00e+00	0	35	0	661651456	65	4665
2026-01-18 02:01:45.77	339.29	46.92	-47.7	-49.7	17.7	0.00e+00	0	35	0	663748608	66	4671
2026-01-18 02:01:46.78	338.77	47.06	-47.6	-49.6	17.7	0.00e+00	0	35	0	665845760	66	4635
2026-01-18 02:01:47.79	338.24	47.20	-47.8	-49.9	17.6	0.00e+00	0	35	0	666894336	66	4761
2026-01-18 02:01:48.79	337.72	47.34	-48.0	-50.2	17.1	0.00e+00	0	35	0	668991488	67	4694
2026-01-18 02:01:49.80	337.18	47.48	-49.0	-51.7	16.0	0.00e+00	0	35	0	671088640	68	5278
2026-01-18 02:01:50.81	336.64	47.61	-49.4	-52.5	15.1	0.00e+00	0	35	0	673185792	69	5443
2026-01-18 02:01:51.82	336.10	47.74	-48.9	-51.7	15.8	0.00e+00	0	35	0	675282944	69	4936
2026-01-18 02:01:52.82	335.55	47.87	-48.4	-50.8	16.7	0.00e+00	0	35	0	677380096	68	4709
2026-01-18 02:01:53.83	335.00	47.99	-47.8	-49.9	17.5	0.00e+00	0	35	0	678428672	67	4497
2026-01-18 02:01:54.84	334.44	48.11	-47.3	-49.1	18.2	0.00e+00	0	35	0	680525824	66	4370
2026-01-18 02:01:55.85	333.88	48.23	-46.9	-48.6	18.7	0.00e+00	0	35	0	682622976	65	4367
2026-01-18 02:01:56.86	333.31	48.35	-46.6	-48.2	19.0	0.00e+00	0	35	0	684720128	65	4193
2026-01-18 02:01:57.86	332.74	48.47	-47.0	-48.8	18.5	0.00e+00	0	35	0	685768704	65	4459
2026-01-18 02:01:58.87	332.17	48.58	-47.3	-49.2	18.0	0.00e+00	0	35	0	687865856	65	4689
2026-01-18 02:01:59.88	331.58	48.69	-48.3	-50.7	16.8	0.00e+00	0	35	0	689963008	67	4928
2026-01-18 02:02:00.89	331.00	48.79	-49.7	-52.9	14.6	0.00e+00	0	35	0	692060160	69	5717
2026-01-18 02:02:01.90	330.41	48.90	-50.5	-54.8	12.7	9.90e-06	0	35	0	694157312	71	6325
2026-01-18 02:02:02.91	329.82	49.00	-50.4	-54.4	13.0	9.46e-05	0	35	0	696254464	71	6039
2026-01-18 02:02:03.91	329.23	49.09	-49.8	-53.1	14.3	9.90e-06	0	35	0	697303040	71	5165
2026-01-18 02:02:04.92	328.63	49.19	-49.2	-52.1	15.3	0.00e+00	0	35	0	699400192	69	5162
2026-01-18 02:02:05.93	328.03	49.28	-48.8	-51.5	15.9	0.00e+00	0	35	0	701497344	69	4817
2026-01-18 02:02:06.94	327.42	49.37	-48.5	-51.1	16.3	0.00e+00	0	35	0	703594496	68	4871
2026-01-18 02:02:07.95	326.81	49.45	-48.2	-50.6	16.8	0.00e+00	0	35	0	705691648	68	4604
2026-01-18 02:02:08.95	326.20	49.53	-47.9	-50.1	17.3	0.00e+00	0	35	0	706740224	67	4608
2026-01-18 02:02:09.96	325.58	49.61	-48.2	-50.6	16.8	0.00e+00	0	35	0	708837376	67	4880
2026-01-18 02:02:10.97	324.96	49.68	-48.7	-51.3	16.1	0.00e+00	0	35	0	710934528	68	5001
2026-01-18 02:02:11.98	324.34	49.75	-48.3	-50.8	16.5	0.00e+00	0	35	0	713031680	68	4722
2026-01-18 02:02:12.99	323.71	49.82	-48.5	-51.0	16.3	0.00e+00	0	35	0	714080256	68	4866
2026-01-18 02:02:13.99	323.09	49.88	-48.3	-50.9	16.4	0.00e+00	0	35	0	716177408	68	4775
2026-01-18 02:02:15.00	322.46	49.94	-48.2	-50.7	16.6	0.00e+00	0	35	0	718274560	68	4683
2026-01-18 02:02:16.01	321.83	50.00	-47.1	-49.0	18.1	0.00e+00	0	35	0	720371712	66	4334
2026-01-18 02:02:17.02	321.19	50.05	-46.4	-48.0	19.1	0.00e+00	0	35	0	722468864	64	4329
2026-01-18 02:02:18.03	320.55	50.10	-46.2	-47.8	19.3	0.00e+00	0	35	0	724566016	64	4226
2026-01-18 02:02:19.04	319.91	50.14	-46.3	-48.0	19.0	0.00e+00	0	35	0	725614592	64	4334
2026-01-18 02:02:20.05	319.27	50.19	-46.0	-47.6	19.6	0.00e+00	0	35	0	727711744	63	4363
2026-01-18 02:02:21.05	318.63	50.22	-45.7	-47.2	19.9	0.00e+00	0	35	0	729808896	63	4188
2026-01-18 02:02:22.06	317.99	50.26	-45.9	-47.5	19.6	0.00e+00	0	35	0	731906048	62	4587
2026-01-18 02:02:23.07	317.34	50.29	-45.6	-47.1	20.0	0.00e+00	0	35	0	734003200	62	4381
2026-01-18 02:02:24.07	316.70	50.31	-44.6	-45.9	21.1	0.00e+00	0	35	0	735051776	61	4026
2026-01-18 02:02:25.08	316.05	50.33	-44.6	-45.9	21.2	0.00e+00	0	35	0	737148928	60	4246
2026-01-18 02:02:26.09	315.40	50.35	-45.0	-46.3	20.7	0.00e+00	0	35	0	739246080	60	4486
2026-01-18 02:02:27.10	314.75	50.37	-45.7	-47.2	19.9	0.00e+00	0	35	0	741343232	61	4685
2026-01-18 02:02:28.11	314.10	50.38	-45.6	-47.1	20.0	0.00e+00	0	35	0	743440384	61	4613
2026-01-18 02:02:29.11	313.46	50.38	-45.5	-47.0	20.1	0.00e+00	0	35	0	744488960	61	4557
2026-01-18 02:02:30.12	312.80	50.39	-45.8	-47.4	19.8	0.00e+00	0	35	0	746586112	62	4496
2026-01-18 02:02:31.13	312.15	50.39	-46.4	-48.1	19.2	0.00e+00	0	35	0	748683264	63	4626
2026-01-18 02:02:32.14	311.50	50.38	-46.8	-48.7	18.3	0.00e+00	0	35	0	750780416	64	4666
2026-01-18 02:02:33.14	310.86	50.37	-46.6	-48.5	18.8	0.00e+00	0	35	0	752877568	64	4549
2026-01-18 02:02:34.15	310.21	50.36	-46.2	-47.9	19.3	0.00e+00	0	35	0	753926144	64	4249
2026-01-18 02:02:35.16	309.56	50.34	-46.3	-48.0	19.1	0.00e+00	0	35	0	756023296	64	4322
2026-01-18 02:02:36.17	308.91	50.32	-46.7	-48.5	18.6	0.00e+00	0	35	0	758120448	64	4596
2026-01-18 02:02:37.18	308.26	50.29	-46.5	-48.3	18.9	0.00e+00	0	35	0	760217600	64	4470
2026-01-18 02:02:38.19	307.61	50.27	-46.3	-47.9	19.3	0.00e+00	0	35	0	762314752	64	4261
2026-01-18 02:02:39.19	306.97	50.23	-45.7	-47.1	20.0	0.00e+00	0	35	0	764411904	63	4139
2026-01-18 02:02:40.20	306.33	50.20	-45.9	-47.4	19.8	0.00e+00	0	35	0	765460480	63	4273
2026-01-18 02:02:41.20	305.69	50.16	-46.2	-47.8	19.6	0.00e+00	0	35	0	767557632	63	4443
2026-01-18 02:02:42.21	305.05	50.11	-46.2	-47.9	19.4	0.00e+00	0	35	0	769654784	63	4506
2026-01-18 02:02:43.22	304.41	50.07	-45.9	-47.5	19.8	0.00e+00	0	35	0	771751936	63	4294
2026-01-18 02:02:44.23	303.78	50.01	-45.8	-47.3	19.9	0.00e+00	0	35	0	772800512	63	4215
2026-01-18 02:02:45.24	303.14	49.96	-45.7	-47.2	20.0	0.00e+00	0	35	0	774897664	63	4166
2026-01-18 02:02:46.25	302.51	49.90	-46.3	-47.9	19.4	0.00e+00	0	35	0	776994816	63	4545
2026-01-18 02:02:47.26	301.88	49.84	-46.7	-48.4	18.9	0.00e+00	0	35	0	779091968	64	4545
2026-01-18 02:02:48.27	301.25	49.77	-46.5	-48.2	19.1	0.00e+00	0	35	0	781189120	64	4406
2026-01-18 02:02:49.27	300.63	49.70	-46.4	-48.1	19.1	0.00e+00	0	35	0	782237696	64	4363
2026-01-18 02:02:50.28	300.01	49.63	-46.2	-47.9	19.3	0.00e+00	0	35	0	784334848	64	4276
2026-01-18 02:02:51.29	299.39	49.55	-46.1	-47.7	19.5	0.00e+00	0	35	0	786432000	63	4429
2026-01-18 02:02:52.30	298.78	49.47	-46.7	-48.4	18.9	0.00e+00	0	35	0	788529152	63	4791
2026-01-18 02:02:53.31	298.17	49.39	-47.1	-49.1	18.1	0.00e+00	0	35	0	790626304	65	4614
2026-01-18 02:02:54.32	297.56	49.30	-47.1	-49.0	18.3	0.00e+00	0	35	0	792723456	65	4573
2026-01-18 02:02:55.33	296.95	49.21	-47.1	-49.1	18.1	0.00e+00	0	35	0	793772032	65	4608
2026-01-18 02:02:56.33	296.36	49.12	-46.8	-48.6	18.6	0.00e+00	0	35	0	795869184	65	4382
2026-01-18 02:02:57.34	295.76	49.03	-47.0	-48.9	18.4	0.00e+00	0	35	0	797966336	65	4514
2026-01-18 02:02:58.35	295.17	48.93	-46.7	-48.5	18.8	0.00e+00	0	35	0	800063488	65	4299
2026-01-18 02:02:59.36	294.58	48.82	-46.9	-48.7	18.6	0.00e+00	0	35	0	801112064	65	4409
2026-01-18 02:03:00.37	293.99	48.72	-46.6	-48.3	18.9	0.00e+00	0	35	0	803209216	64	4490
2026-01-18 02:03:01.37	293.41	48.61	-47.6	-49.6	17.8	0.00e+00	0	35	0	805306368	65	4896
2026-01-18 02:03:02.38	292.84	48.50	-48.1	-50.3	17.0	0.00e+00	0	35	0	807403520	67	4743
2026-01-18 02:03:03.38	292.27	48.39	-48.2	-50.5	16.8	0.00e+00	0	35	0	809500672	67	4842
2026-01-18 02:03:04.39	291.70	48.27	-47.5	-49.5	17.8	0.00e+00	0	35	0	810549248	67	4294
2026-01-18 02:03:05.40	291.13	48.15	-47.1	-48.8	18.4	0.00e+00	0	35	0	812646400	66	4203
2026-01-18 02:03:06.40	290.58	48.03	-47.3	-49.2	18.1	0.00e+00	0	35	0	814743552	65	4653
2026-01-18 02:03:07.41	290.02	47.90	-47.8	-49.9	17.5	0.00e+00	0	35	0	816840704	66	4761
2026-01-18 02:03:08.42	289.47	47.78	-48.4	-50.7	16.6	0.00e+00	0	35	0	818937856	67	4975
2026-01-18 02:03:09.43	288.92	47.65	-48.2	-50.4	17.0	0.00e+00	0	35	0	821035008	67	4808
2026-01-18 02:03:10.44	288.38	47.51	-47.7	-49.7	17.6	0.00e+00	0	35	0	822083584	67	4421
2026-01-18 02:03:11.45	287.84	47.38	-47.7	-49.7	17.6	0.00e+00	0	35	0	824180736	67	4408
2026-01-18 02:03:12.46	287.31	47.24	-47.7	-49.7	17.6	0.00e+00	0	35	0	826277888	66	4685
2026-01-18 02:03:13.46	286.79	47.10	-47.8	-49.9	17.5	0.00e+00	0	35	0	828375040	66	4813
2026-01-18 02:03:14.47	286.26	46.96	-48.3	-50.6	16.9	0.00e+00	0	35	0	829423616	67	4889
2026-01-18 02:03:15.48	285.74	46.82	-48.4	-50.8	16.6	0.00e+00	0	35	0	831520768	67	5023
2026-01-18 02:03:16.49	285.23	46.67	-48.8	-51.4	16.1	0.00e+00	0	35	0	833617920	68	5050
2026-01-18 02:03:17.50	284.72	46.53	-48.5	-50.9	16.6	0.00e+00	0	35	0	835715072	68	4781
2026-01-18 02:03:18.51	284.21	46.38	-48.3	-50.5	16.9	0.00e+00	0	35	0	837812224	68	4598
2026-01-18 02:03:19.51	283.72	46.23	-47.3	-49.2	17.9	0.00e+00	0	35	0	839909376	66	4439
2026-01-18 02:03:20.52	283.22	46.07	-47.0	-48.7	18.5	0.00e+00	0	35	0	840957952	66	4190
2026-01-18 02:03:21.52	282.74	45.92	-46.8	-48.6	18.7	0.00e+00	0	35	0	843055104	65	4365
2026-01-18 02:03:22.53	282.25	45.76	-46.8	-48.6	18.7	0.00e+00	0	35	0	845152256	65	4358
2026-01-18 02:03:23.54	281.77	45.60	-47.0	-48.8	18.5	0.00e+00	0	35	0	847249408	65	4487
2026-01-18 02:03:24.55	281.30	45.44	-46.9	-48.6	18.7	0.00e+00	0	35	0	849346560	65	4353
2026-01-18 02:03:25.56	280.83	45.28	-47.3	-49.1	18.3	0.00e+00	0	35	0	850395136	65	4647
2026-01-18 02:03:26.56	280.37	45.12	-48.0	-50.2	17.3	0.00e+00	0	35	0	852492288	66	4929
2026-01-18 02:03:27.57	279.90	44.96	-48.3	-50.5	16.8	0.00e+00	0	35	0	854589440	67	4864
2026-01-18 02:03:28.58	279.45	44.79	-48.4	-50.8	16.5	0.00e+00	0	35	0	856686592	67	4990
2026-01-18 02:03:29.59	279.00	44.62	-47.4	-49.2	18.1	0.00e+00	0	35	0	857735168	66	4394
2026-01-18 02:03:30.60	278.55	44.46	-47.1	-48.8	18.4	0.00e+00	0	35	0	859832320	65	4484
2026-01-18 02:03:31.60	278.11	44.29	-47.3	-49.1	18.2	0.00e+00	0	35	0	861929472	65	4632
2026-01-18 02:03:32.61	277.67	44.12	-48.5	-50.9	16.6	0.00e+00	0	35	0	864026624	67	5078
2026-01-18 02:03:33.62	277.24	43.95	-48.9	-51.4	16.1	0.00e+00	0	35	0	866123776	68	5094
2026-01-18 02:03:34.63	276.81	43.77	-48.1	-50.3	17.3	0.00e+00	0	35	0	868220928	68	4454
2026-01-18 02:03:35.64	276.39	43.60	-47.0	-48.7	18.8	0.00e+00	0	35	0	869269504	65	4417
2026-01-18 02:03:36.65	275.97	43.42	-46.5	-48.0	19.3	0.00e+00	0	35	0	871366656	65	4059
2026-01-18 02:03:37.65	275.56	43.25	-46.5	-48.0	19.3	0.00e+00	0	35	0	873463808	64	4309
2026-01-18 02:03:38.66	275.15	43.07	-46.7	-48.3	19.0	0.00e+00	0	35	0	875560960	64	4474
2026-01-18 02:03:39.67	274.75	42.90	-45.9	-47.3	20.0	0.00e+00	0	35	0	877658112	63	4203
2026-01-18 02:03:40.68	274.34	42.72	-45.6	-46.9	20.3	0.00e+00	0	35	0	878706688	63	4022
2026-01-18 02:03:41.69	273.95	42.54	-45.4	-46.7	20.5	0.00e+00	0	35	0	880803840	62	4183
2026-01-18 02:03:42.70	273.56	42.36	-46.1	-47.6	19.7	0.00e+00	0	35	0	882900992	62	4634
2026-01-18 02:03:43.71	273.17	42.18	-46.3	-47.8	19.5	0.00e+00	0	35	0	884998144	63	4468
2026-01-18 02:03:44.71	272.79	42.00	-46.3	-47.9	19.4	0.00e+00	0	35	0	887095296	63	4525
2026-01-18 02:03:45.72	272.41	41.82	-46.5	-48.1	19.3	0.00e+00	0	35	0	888143872	63	4614
2026-01-18 02:03:46.73	272.04	41.64	-46.9	-48.6	18.7	0.00e+00	0	35	0	890241024	64	4628
2026-01-18 02:03:47.74	271.66	41.45	-47.2	-49.1	18.2	0.00e+00	0	35	0	892338176	65	4621
2026-01-18 02:03:48.74	271.30	41.27	-47.6	-49.6	17.8	0.00e+00	0	35	0	894435328	65	4896
2026-01-18 02:03:49.75	270.94	41.09	-48.1	-50.2	17.2	0.00e+00	0	35	0	896532480	66	4945
2026-01-18 02:03:50.76	270.58	40.91	-48.9	-51.4	16.1	0.00e+00	0	35	0	897581056	68	5074
2026-01-18 02:03:51.77	270.23	40.72	-49.2	-52.0	15.5	0.00e+00	0	35	0	899678208	69	5130
2026-01-18 02:03:52.77	269.88	40.54	-49.3	-52.1	15.4	0.00e+00	0	35	0	901775360	69	5161
2026-01-18 02:03:53.78	269.54	40.36	-48.9	-51.4	16.0	0.00e+00	0	35	0	903872512	69	4801
2026-01-18 02:03:54.79	269.19	40.17	-48.7	-51.1	16.4	0.00e+00	0	35	0	905969664	69	4625
2026-01-18 02:03:55.80	268.86	39.99	-48.1	-50.2	17.3	0.00e+00	0	35	0	907018240	68	4397
2026-01-18 02:03:56.80	268.52	39.80	-47.7	-49.6	17.7	0.00e+00	0	35	0	909115392	67	4343
2026-01-18 02:03:57.81	268.19	39.62	-47.7	-49.6	17.7	0.00e+00	0	35	0	911212544	66	4605
2026-01-18 02:03:58.82	267.87	39.43	-47.7	-49.6	17.8	0.00e+00	0	35	0	913309696	66	4608
2026-01-18 02:03:59.83	267.54	39.25	-48.3	-50.4	17.0	0.00e+00	0	35	0	915406848	67	4798
2026-01-18 02:04:00.84	267.22	39.06	-48.6	-50.9	16.5	0.00e+00	0	35	0	916455424	67	5100
2026-01-18 02:04:01.84	266.91	38.88	-48.7	-51.1	16.4	0.00e+00	0	35	0	918552576	67	5182
2026-01-18 02:04:02.85	266.60	38.69	-49.0	-51.5	16.0	0.00e+00	0	35	0	920649728	68	5136
2026-01-18 02:04:03.86	266.29	38.51	-48.5	-50.8	16.7	0.00e+00	0	35	0	922746880	68	4747
2026-01-18 02:04:04.87	265.99	38.32	-48.2	-50.3	17.1	0.00e+00	0	35	0	924844032	68	4473
2026-01-18 02:04:05.88	265.68	38.14	-47.7	-49.6	17.6	0.00e+00	0	35	0	925892608	67	4362
2026-01-18 02:04:06.89	265.39	37.95	-47.9	-49.9	17.5	0.00e+00	0	35	0	927989760	67	4525
2026-01-18 02:04:07.89	265.09	37.77	-48.4	-50.6	16.7	0.00e+00	0	35	0	930086912	67	4914
2026-01-18 02:04:08.90	264.80	37.59	-49.3	-52.0	15.5	0.00e+00	0	35	0	932184064	69	5148
2026-01-18 02:04:09.91	264.51	37.40	-49.8	-52.9	14.7	7.00e-07	0	35	0	934281216	70	5373
2026-01-18 02:04:10.91	264.23	37.22	-49.9	-53.1	14.3	0.00e+00	0	35	0	935329792	70	5491
2026-01-18 02:04:11.92	263.95	37.04	-49.4	-52.1	15.2	0.00e+00	0	35	0	937426944	70	4926
2026-01-18 02:04:12.93	263.67	36.85	-49.5	-52.3	15.0	0.00e+00	0	35	0	939524096	70	5033
2026-01-18 02:04:13.94	263.40	36.67	-50.3	-53.7	13.8	3.80e-06	0	35	0	941621248	71	5578
2026-01-18 02:04:14.95	263.13	36.48	-50.9	-55.2	12.2	5.64e-05	0	35	0	943718400	72	6239
2026-01-18 02:04:15.95	262.86	36.30	-51.1	-55.7	11.6	1.15e-03	0	35	0	944766976	73	6249
2026-01-18 02:04:16.96	262.59	36.12	-50.4	-54.1	13.1	2.82e-04	0	35	0	946864128	72	5513
2026-01-18 02:04:17.97	262.33	35.94	-49.6	-52.4	15.0	7.00e-07	0	35	0	948961280	71	4788
2026-01-18 02:04:18.98	262.07	35.76	-49.0	-51.3	16.1	0.00e+00	0	35	0	951058432	69	4746
2026-01-18 02:04:19.98	261.81	35.58	-48.4	-50.5	17.0	0.00e+00	0	35	0	953155584	68	4548
2026-01-18 02:04:20.99	261.56	35.40	-47.5	-49.3	18.0	0.00e+00	0	35	0	955252736	66	4453
2026-01-18 02:04:22.00	261.31	35.21	-47.5	-49.4	18.0	0.00e+00	0	35	0	956301312	66	4501
2026-01-18 02:04:23.01	261.06	35.03	-47.6	-49.4	17.9	0.00e+00	0	35	0	958398464	66	4534
2026-01-18 02:04:24.02	260.81	34.85	-48.0	-50.0	17.4	0.00e+00	0	35	0	960495616	67	4589
2026-01-18 02:04:25.02	260.57	34.68	-47.7	-49.6	17.7	0.00e+00	0	35	0	962592768	67	4360
2026-01-18 02:04:26.03	260.33	34.50	-47.9	-49.9	17.4	0.00e+00	0	35	0	963641344	67	4495
2026-01-18 02:04:27.04	260.09	34.32	-48.0	-49.9	17.4	0.00e+00	0	35	0	965738496	67	4528
2026-01-18 02:04:28.05	259.86	34.14	-47.8	-49.7	17.6	0.00e+00	0	35	0	967835648	67	4438
2026-01-18 02:04:29.05	259.63	33.96	-47.6	-49.4	18.0	0.00e+00	0	35	0	969932800	67	4244
2026-01-18 02:04:30.06	259.40	33.79	-48.2	-50.2	17.1	0.00e+00	0	35	0	972029952	67	4696
2026-01-18 02:04:31.07	259.17	33.61	-48.6	-50.9	16.5	0.00e+00	0	35	0	973078528	67	5054
2026-01-18 02:04:32.08	258.94	33.43	-49.3	-51.9	15.6	0.00e+00	0	35	0	975175680	69	5074
2026-01-18 02:04:33.08	258.72	33.26	-49.1	-51.6	15.9	0.00e+00	0	35	0	977272832	69	4885
2026-01-18 02:04:34.09	258.50	33.08	-48.8	-51.1	16.5	0.00e+00	0	35	0	979369984	69	4625
2026-01-18 02:04:35.10	258.29	32.91	-48.5	-50.6	16.8	0.00e+00	0	35	0	981467136	69	4389
2026-01-18 02:04:36.11	258.07	32.73	-48.5	-50.7	16.7	0.00e+00	0	35	0	983564288	68	4688
2026-01-18 02:04:37.12	257.86	32.56	-48.3	-50.3	17.1	0.00e+00	0	35	0	984612864	68	4474
2026-01-18 02:04:38.13	257.65	32.39	-48.1	-50.1	17.4	0.00e+00	0	35	0	986710016	68	4354
2026-01-18 02:04:39.13	257.44	32.22	-48.1	-50.1	17.4	0.00e+00	0	35	0	988807168	68	4352
2026-01-18 02:04:40.14	257.23	32.04	-47.8	-49.7	17.6	0.00e+00	0	35	0	990904320	66	4672
2026-01-18 02:04:41.15	257.03	31.87	-47.6	-49.4	17.9	0.00e+00	0	35	0	991952896	66	4542
2026-01-18 02:04:42.16	256.83	31.70	-47.7	-49.6	17.8	0.00e+00	0	35	0	994050048	66	4609
2026-01-18 02:04:43.16	256.63	31.53	-48.3	-50.4	16.9	0.00e+00	0	35	0	996147200	67	4804
2026-01-18 02:04:44.17	256.43	31.36	-49.0	-51.5	16.1	0.00e+00	0	35	0	998244352	68	5132
2026-01-18 02:04:45.18	256.23	31.19	-50.0	-53.2	14.4	0.00e+00	0	35	0	1000341504	70	5548
2026-01-18 02:04:46.19	256.04	31.03	-50.5	-54.1	13.3	7.00e-07	0	35	0	1001390080	71	5806
2026-01-18 02:04:47.20	255.85	30.86	-49.8	-52.8	14.6	1.50e-06	0	35	0	1003487232	71	5004
2026-01-18 02:04:48.20	255.66	30.69	-49.0	-51.4	16.0	7.00e-07	0	35	0	1005584384	69	4797
2026-01-18 02:04:49.21	255.47	30.52	-48.4	-50.5	16.9	0.00e+00	0	35	0	1007681536	68	4581
2026-01-18 02:04:50.21	255.29	30.36	-47.9	-49.8	17.4	0.00e+00	0	35	0	1009778688	67	4482
2026-01-18 02:04:51.22	255.10	30.19	-47.6	-49.5	17.8	0.00e+00	0	35	0	1011875840	67	4295
2026-01-18 02:04:52.22	254.92	30.03	-47.3	-49.0	18.3	0.00e+00	0	35	0	1012924416	66	4322
2026-01-18 02:04:53.23	254.74	29.87	-47.3	-49.1	18.2	0.00e+00	0	35	0	1015021568	66	4356
2026-01-18 02:04:54.24	254.57	29.70	-47.1	-48.7	18.5	0.00e+00	0	35	0	1017118720	66	4186
2026-01-18 02:04:55.24	254.39	29.54	-47.5	-49.3	17.9	0.00e+00	0	35	0	1019215872	66	4491
2026-01-18 02:04:56.25	254.22	29.38	-48.1	-50.2	17.0	0.00e+00	0	35	0	1020264448	66	4965
2026-01-18 02:04:57.26	254.04	29.22	-48.8	-51.2	16.2	0.00e+00	0	35	0	1022361600	68	4976
2026-01-18 02:04:58.27	253.87	29.06	-49.2	-51.8	15.4	0.00e+00	0	35	0	1024458752	69	5010
2026-01-18 02:04:59.28	253.70	28.90	-49.4	-52.1	15.3	0.00e+00	0	35	0	1026555904	69	5196
2026-01-18 02:05:00.29	253.53	28.74	-49.2	-51.9	15.6	0.00e+00	0	35	0	1028653056	69	5054
2026-01-18 02:05:01.29	253.37	28.58	-48.4	-50.6	16.8	0.00e+00	0	35	0	1030750208	68	4646
2026-01-18 02:05:02.30	253.21	28.42	-47.8	-49.8	17.4	0.00e+00	0	35	0	1031798784	67	4461
2026-01-18 02:05:03.31	253.04	28.26	-47.3	-49.1	18.2	0.00e+00	0	35	0	1033895936	66	4341
2026-01-18 02:05:04.32	252.88	28.10	-47.4	-49.3	18.0	0.00e+00	0	35	0	1035993088	66	4444
2026-01-18 02:05:05.33	252.72	27.95	-47.2	-49.0	18.2	0.00e+00	0	35	0	1038090240	66	4321
2026-01-18 02:05:06.33	252.57	27.79	-47.5	-49.3	17.9	0.00e+00	0	35	0	1040187392	66	4482
2026-01-18 02:05:07.34	252.41	27.64	-47.2	-49.0	18.2	0.00e+00	0	35	0	1041235968	66	4312
2026-01-18 02:05:08.35	252.25	27.48	-47.3	-49.1	18.1	0.00e+00	0	35	0	1043333120	66	4383
2026-01-18 02:05:09.36	252.10	27.33	-47.2	-48.9	18.2	0.00e+00	0	35	0	1045430272	66	4264
2026-01-18 02:05:10.36	251.95	27.18	-47.4	-49.2	18.0	0.00e+00	0	35	0	1047527424	66	4412
2026-01-18 02:05:11.37	251.80	27.02	-47.3	-49.0	18.1	0.00e+00	0	35	0	1048576000	66	4334
2026-01-18 02:05:12.38	251.65	26.87	-47.0	-48.7	18.4	0.00e+00	0	35	0	1050673152	65	4433
2026-01-18 02:05:13.38	251.50	26.72	-46.8	-48.4	18.6	0.00e+00	0	35	0	1052770304	65	4259
2026-01-18 02:05:14.39	251.36	26.57	-46.6	-48.2	19.0	0.00e+00	0	35	0	1054867456	65	4169
2026-01-18 02:05:15.40	251.21	26.42	-46.7	-48.3	18.8	0.00e+00	0	35	0	1056964608	65	4199
2026-01-18 02:05:16.41	251.07	26.27	-46.9	-48.5	18.7	0.00e+00	0	35	0	1059061760	65	4317
2026-01-18 02:05:17.42	250.93	26.12	-47.3	-49.1	18.1	0.00e+00	0	35	0	1060110336	65	4619
2026-01-18 02:05:18.42	250.79	25.97	-48.2	-50.2	17.6	0.00e+00	0	35	0	1062207488	66	4947
2026-01-18 02:05:19.43	250.65	25.82	-48.2	-50.3	17.0	0.00e+00	0	35	0	1064304640	66	5003
2026-01-18 02:05:20.44	250.51	25.68	-48.6	-50.9	16.4	0.00e+00	0	35	0	1066401792	67	5077
2026-01-18 02:05:21.45	250.38	25.53	-48.8	-51.2	16.1	0.00e+00	0	35	0	1068498944	68	4963
2026-01-18 02:05:22.46	250.24	25.38	-48.6	-50.8	16.5	0.00e+00	0	35	0	1069547520	68	4751
2026-01-18 02:05:23.46	250.11	25.24	-48.7	-51.0	16.4	0.00e+00	0	35	0	1071644672	68	4833
2026-01-18 02:05:24.47	249.97	25.10	-48.5	-50.7	16.6	0.00e+00	0	35	0	1073741824	68	4705
2026-01-18 02:05:25.48	249.84	24.95	-48.4	-50.5	16.8	0.00e+00	0	35	0	1075838976	68	4598
2026-01-18 02:05:26.49	249.71	24.81	-48.5	-50.8	16.5	0.00e+00	0	35	0	1076887552	68	4716
2026-01-18 02:05:27.50	249.58	24.66	-48.3	-50.5	17.0	0.00e+00	0	35	0	1078984704	68	4551
2026-01-18 02:05:28.50	249.46	24.52	-48.1	-50.2	17.1	0.00e+00	0	35	0	1081081856	68	4408
2026-01-18 02:05:29.51	249.33	24.38	-47.9	-49.9	17.2	0.00e+00	0	35	0	1083179008	67	4524
2026-01-18 02:05:30.52	249.20	24.24	-47.8	-49.7	17.5	0.00e+00	0	35	0	1085276160	67	4431
2026-01-18 02:05:31.53	249.08	24.10	-47.4	-49.2	18.0	0.00e+00	0	35	0	1087373312	66	4430
2026-01-18 02:05:32.53	248.96	23.96	-47.2	-49.0	18.1	0.00e+00	0	35	0	1088421888	66	4330
2026-01-18 02:05:33.54	248.84	23.82	-47.0	-48.7	18.4	0.00e+00	0	35	0	1090519040	66	4181
2026-01-18 02:05:34.55	248.71	23.68	-47.1	-48.9	18.3	0.00e+00	0	35	0	1092616192	65	4515
2026-01-18 02:05:35.56	248.59	23.55	-47.0	-48.8	18.3	0.00e+00	0	35	0	1094713344	65	4445
2026-01-18 02:05:36.57	248.47	23.41	-47.2	-49.0	18.1	0.00e+00	0	35	0	1096810496	65	4588
2026-01-18 02:05:37.57	248.36	23.27	-47.6	-49.6	17.6	0.00e+00	0	35	0	1097859072	65	4883
2026-01-18 02:05:38.58	248.24	23.14	-47.7	-49.7	17.5	0.00e+00	0	35	0	1099956224	65	4948
2026-01-18 02:05:39.59	248.13	23.00	-47.7	-49.6	17.5	0.00e+00	0	35	0	1102053376	66	4649
2026-01-18 02:05:40.59	248.01	22.87	-47.7	-49.7	17.4	0.00e+00	0	35	0	1104150528	66	4684
2026-01-18 02:05:41.60	247.90	22.73	-47.7	-49.7	17.5	0.00e+00	0	35	0	1106247680	66	4678
2026-01-18 02:05:42.61	247.78	22.60	-47.4	-49.3	17.8	0.00e+00	0	35	0	1107296256	66	4463
2026-01-18 02:05:43.62	247.67	22.46	-47.2	-49.0	18.1	0.00e+00	0	35	0	1109393408	66	4292
2026-01-18 02:05:44.63	247.56	22.33	-47.4	-49.2	17.9	0.00e+00	0	35	0	1111490560	66	4427
2026-01-18 02:05:45.64	247.45	22.20	-47.6	-49.5	17.6	0.00e+00	0	35	0	1113587712	66	4575
2026-01-18 02:05:46.64	247.34	22.07	-47.8	-49.8	17.3	0.00e+00	0	35	0	1115684864	66	4724
2026-01-18 02:05:47.65	247.24	21.94	-48.2	-50.3	16.9	0.00e+00	0	35	0	1116733440	66	5023
2026-01-18 02:05:48.66	247.13	21.81	-48.3	-50.5	16.7	0.00e+00	0	35	0	1118830592	67	4837
2026-01-18 02:05:49.66	247.02	21.68	-48.5	-50.8	16.4	0.00e+00	0	35	0	1120927744	67	5007
2026-01-18 02:05:50.67	246.92	21.55	-48.3	-50.5	16.6	0.00e+00	0	35	0	1123024896	67	4859
2026-01-18 02:05:51.68	246.81	21.42	-48.6	-51.0	16.2	0.00e+00	0	35	0	1125122048	67	5119
2026-01-18 02:05:52.69	246.71	21.29	-48.4	-50.6	16.6	0.00e+00	0	35	0	1126170624	67	4904
2026-01-18 02:05:53.70	246.61	21.16	-48.0	-50.1	17.1	0.00e+00	0	35	0	1128267776	67	4621
2026-01-18 02:05:54.71	246.51	21.03	-48.0	-50.1	17.0	0.00e+00	0	35	0	1130364928	67	4615
2026-01-18 02:05:55.72	246.41	20.91	-47.7	-49.7	17.4	0.00e+00	0	35	0	1132462080	67	4438
2026-01-18 02:05:56.72	246.31	20.78	-47.7	-49.7	17.5	0.00e+00	0	35	0	1134559232	67	4407
2026-01-18 02:05:57.73	246.21	20.66	-47.7	-49.7	17.4	0.00e+00	0	35	0	1135607808	67	4427
2026-01-18 02:05:58.74	246.11	20.53	-47.7	-49.7	17.4	0.00e+00	0	35	0	1137704960	67	4408
2026-01-18 02:05:59.75	246.01	20.41	-47.7	-49.6	17.5	0.00e+00	0	35	0	1139802112	67	4389
2026-01-18 02:06:00.76	245.91	20.28	-47.8	-49.8	17.3	0.00e+00	0	35	0	1141899264	67	4473
2026-01-18 02:06:01.76	245.82	20.16	-47.6	-49.5	17.6	0.00e+00	0	35	0	1143996416	67	4313
2026-01-18 02:06:02.77	245.72	20.04	-47.6	-49.6	17.5	0.00e+00	0	35	0	1145044992	67	4355
2026-01-18 02:06:03.78	245.63	19.92	-47.7	-49.7	17.4	0.00e+00	0	35	0	1147142144	67	4408
2026-01-18 02:06:04.79	245.54	19.79	-47.5	-49.4	17.7	0.00e+00	0	35	0	1149239296	67	4270
2026-01-18 02:06:05.80	245.44	19.67	-47.5	-49.4	17.7	0.00e+00	0	35	0	1151336448	66	4539
2026-01-18 02:06:06.81	245.35	19.55	-47.6	-49.5	17.6	0.00e+00	0	35	0	1153433600	66	4565
2026-01-18 02:06:07.81	245.26	19.43	-47.4	-49.2	17.8	0.00e+00	0	35	0	1155530752	66	4438
2026-01-18 02:06:08.83	245.17	19.31	-47.5	-49.3	17.8	0.00e+00	0	35	0	1156579328	66	4477
2026-01-18 02:06:09.83	245.08	19.19	-47.4	-49.2	17.9	0.00e+00	0	35	0	1158676480	66	4419
2026-01-18 02:06:10.84	244.99	19.07	-47.3	-49.1	18.0	0.00e+00	0	35	0	1160773632	66	4365
2026-01-18 02:06:11.85	244.90	18.95	-47.4	-49.2	17.8	0.00e+00	0	35	0	1162870784	66	4419
2026-01-18 02:06:12.86	244.82	18.84	-47.3	-49.1	17.9	0.00e+00	0	35	0	1163919360	66	4383
2026-01-18 02:06:13.86	244.73	18.72	-47.3	-49.1	17.9	0.00e+00	0	35	0	1166016512	66	4374
2026-01-18 02:06:14.87	244.64	18.60	-47.3	-49.2	17.9	0.00e+00	0	35	0	1168113664	66	4417
2026-01-18 02:06:15.88	244.56	18.49	-47.4	-49.2	17.8	0.00e+00	0	35	0	1170210816	66	4440
2026-01-18 02:06:16.88	244.47	18.37	-47.3	-49.2	17.9	0.00e+00	0	35	0	1172307968	66	4400
2026-01-18 02:06:17.89	244.39	18.26	-47.4	-49.3	17.7	0.00e+00	0	35	0	1174405120	66	4471
2026-01-18 02:06:18.90	244.31	18.14	-47.5	-49.4	17.7	0.00e+00	0	35	0	1175453696	66	4506
2026-01-18 02:06:19.91	244.22	18.03	-47.5	-49.4	17.6	0.00e+00	0	35	0	1177550848	66	4519
2026-01-18 02:06:20.92	244.14	17.91	-47.6	-49.6	17.5	0.00e+00	0	35	0	1179648000	66	4620
2026-01-18 02:06:21.93	244.06	17.80	-47.8	-49.8	17.2	0.00e+00	0	35	0	1181745152	66	4746
2026-01-18 02:06:22.93	243.98	17.69	-47.5	-49.5	17.5	0.00e+00	0	35	0	1183842304	66	4561
2026-01-18 02:06:23.94	243.90	17.57	-47.6	-49.6	17.4	0.00e+00	0	35	0	1184890880	66	4611
2026-01-18 02:06:24.95	243.82	17.46	-47.6	-49.6	17.4	0.00e+00	0	35	0	1186988032	66	4630
2026-01-18 02:06:25.96	243.74	17.35	-47.7	-49.7	17.4	0.00e+00	0	35	0	1189085184	66	4652
2026-01-18 02:06:26.97	243.66	17.24	-47.3	-49.1	17.8	0.00e+00	0	35	0	1191182336	66	4384
2026-01-18 02:06:27.97	243.58	17.13	-47.3	-49.2	17.8	0.00e+00	0	35	0	1192230912	66	4392
2026-01-18 02:06:28.98	243.51	17.02	-46.9	-48.5	18.4	0.00e+00	0	35	0	1194328064	65	4334
2026-01-18 02:06:29.99	243.43	16.91	-46.7	-48.4	18.5	0.00e+00	0	35	0	1196425216	65	4260
2026-01-18 02:06:30.99	243.35	16.80	-46.7	-48.3	18.6	0.00e+00	0	35	0	1198522368	65	4206
2026-01-18 02:06:32.00	243.28	16.69	-46.3	-47.8	19.1	0.00e+00	0	35	0	1200619520	64	4212
2026-01-18 02:06:33.01	243.20	16.58	-46.2	-47.7	19.2	0.00e+00	0	35	0	1202716672	64	4171
2026-01-18 02:06:34.02	243.13	16.47	-46.1	-47.6	19.2	0.00e+00	0	35	0	1203765248	64	4124
2026-01-18 02:06:35.03	243.05	16.36	-46.1	-47.6	19.2	0.00e+00	0	35	0	1205862400	64	4142
2026-01-18 02:06:36.03	242.98	16.26	-46.2	-47.7	19.2	0.00e+00	0	35	0	1207959552	64	4164
2026-01-18 02:06:37.04	242.91	16.15	-46.3	-47.8	19.0	0.00e+00	0	35	0	1210056704	64	4242
2026-01-18 02:06:38.05	242.84	16.04	-46.3	-47.8	19.0	0.00e+00	0	35	0	1212153856	64	4229
2026-01-18 02:06:39.06	242.76	15.94	-46.3	-47.8	19.0	0.00e+00	0	35	0	1213202432	64	4242
2026-01-18 02:06:40.07	242.69	15.83	-46.6	-48.2	18.6	0.00e+00	0	35	0	1215299584	64	4436
2026-01-18 02:06:41.07	242.62	15.73	-46.6	-48.3	18.6	0.00e+00	0	35	0	1217396736	64	4464
2026-01-18 02:06:42.08	242.55	15.62	-46.8	-48.5	18.4	0.00e+00	0	35	0	1219493888	64	4580
2026-01-18 02:06:43.09	242.48	15.52	-47.1	-49.0	18.0	0.00e+00	0	35	0	1220542464	64	4815
2026-01-18 02:06:44.10	242.41	15.41	-47.2	-49.0	17.9	0.00e+00	0	35	0	1222639616	65	4575
2026-01-18 02:06:45.10	242.34	15.31	-47.5	-49.5	17.5	0.00e+00	0	35	0	1224736768	65	4827
2026-01-18 02:06:46.11	242.28	15.21	-47.6	-49.6	17.3	0.00e+00	0	35	0	1226833920	65	4918
2026-01-18 02:06:47.12	242.21	15.10	-47.7	-49.7	17.2	0.00e+00	0	35	0	1228931072	66	4703
2026-01-18 02:06:48.13	242.14	15.00	-48.0	-50.1	16.9	0.00e+00	0	35	0	1231028224	66	4906
2026-01-18 02:06:49.13	242.08	14.90	-48.1	-50.3	16.6	0.00e+00	0	35	0	1232076800	66	5037
2026-01-18 02:06:50.14	242.01	14.80	-48.1	-50.3	16.6	0.00e+00	0	35	0	1234173952	66	5021
2026-01-18 02:06:51.15	241.94	14.69	-48.0	-50.1	16.8	0.00e+00	0	35	0	1236271104	66	4907
2026-01-18 02:06:52.16	241.88	14.59	-48.2	-50.4	16.5	0.00e+00	0	35	0	1238368256	66	5076
2026-01-18 02:06:53.16	241.81	14.49	-48.0	-50.1	16.8	0.00e+00	0	35	0	1240465408	67	4623
2026-01-18 02:06:54.17	241.75	14.39	-48.0	-50.1	16.8	0.00e+00	0	35	0	1241513984	67	4624
2026-01-18 02:06:55.18	241.68	14.29	-48.1	-50.3	16.6	0.00e+00	0	35	0	1243611136	67	4718
2026-01-18 02:06:56.19	241.62	14.19	-48.0	-50.1	16.9	0.00e+00	0	35	0	1245708288	67	4618
2026-01-18 02:06:57.20	241.56	14.09	-48.0	-50.1	16.8	0.00e+00	0	35	0	1247805440	67	4637
2026-01-18 02:06:58.20	241.50	14.00	-48.0	-50.2	16.8	0.00e+00	0	35	0	1249902592	67	4677
2026-01-18 02:06:59.21	241.43	13.90	-47.9	-50.0	16.9	0.00e+00	0	35	0	1250951168	67	4572
2026-01-18 02:07:00.22	241.37	13.80	-47.9	-50.0	17.0	0.00e+00	0	35	0	1253048320	67	4552
2026-01-18 02:07:01.23	241.31	13.70	-48.0	-50.2	16.7	0.00e+00	0	35	0	1255145472	67	4686
