passes_logs/2026/01/18/R3.2S_Murmansk/R3.2S_Murmansk__20260118_003544_NOAA_20_JPSS-1_rec.log

#Pass ID: 20260118_003544_NOAA 20 (JPSS-1)
#Satellite: NOAA 20 (JPSS-1)
#Configuration: NOAA 20
#almurnet v.1.7.20251203
#Start time: 2026-01-18 00:35:46

#Version: 2.2.20231116
#Station: R3.2S_Murmansk
#Location: 33.079688 lon 68.888172 lat
#TLE: 1 43013U 17073A   26017.58553584  .00000066  00000+0  52288-4 0  9998
#TLE: 2 43013  98.7639 318.4977 0001406  35.6039 324.5231 14.19536575423107

#Time	Az	El	Level	Level2	SNR	BER	BlckErr	Temp	State	Recorded	gain1	gain2
2026-01-18 00:35:46.12	24.18	2.10	-51.8	-66.7	3.8	1.49e+00	0	34	0	0	75	19762
2026-01-18 00:35:47.12	24.18	2.16	-51.8	-66.7	3.8	1.49e+00	0	33	104	0	74	20947
2026-01-18 00:35:48.13	24.19	2.23	-51.8	-66.6	3.8	1.49e+00	0	34	104	0	74	20685
2026-01-18 00:35:49.14	24.19	2.29	-51.8	-66.5	3.8	1.49e+00	0	33	104	0	74	20319
2026-01-18 00:35:50.15	24.20	2.36	-51.8	-66.4	3.8	1.49e+00	0	34	104	0	74	20151
2026-01-18 00:35:51.16	24.21	2.42	-51.8	-66.5	3.8	1.49e+00	0	34	104	0	74	20464
2026-01-18 00:35:52.16	24.21	2.49	-51.8	-66.3	3.8	1.49e+00	0	34	104	0	74	20066
2026-01-18 00:35:53.17	24.22	2.55	-51.8	-66.3	3.8	1.49e+00	0	34	104	0	74	19973
2026-01-18 00:35:54.18	24.23	2.62	-51.8	-66.0	3.8	1.49e+00	0	34	104	0	74	19266
2026-01-18 00:35:55.19	24.23	2.68	-51.8	-66.1	3.8	1.49e+00	0	34	104	0	74	19571
2026-01-18 00:35:56.20	24.24	2.75	-51.8	-65.9	3.8	1.49e+00	0	34	104	0	74	19132
2026-01-18 00:35:57.20	24.24	2.82	-51.7	-65.3	3.8	1.49e+00	0	34	104	0	74	17698
2026-01-18 00:35:58.21	24.25	2.88	-51.7	-64.8	3.8	1.49e+00	0	34	104	0	74	16846
2026-01-18 00:35:59.22	24.26	2.95	-51.7	-64.6	3.8	1.49e+00	0	34	104	0	74	16325
2026-01-18 00:36:00.23	24.26	3.02	-51.6	-63.8	3.9	1.48e+00	0	34	104	0	74	15021
2026-01-18 00:36:01.24	24.27	3.08	-51.5	-61.6	4.8	1.30e+00	0	34	0	0	74	11571
2026-01-18 00:36:02.24	24.28	3.15	-51.4	-61.5	4.9	7.52e-01	0	34	0	2097152	74	11466
2026-01-18 00:36:03.25	24.28	3.22	-51.3	-60.3	5.5	5.07e-01	0	34	0	3145728	74	9977
2026-01-18 00:36:04.26	24.29	3.28	-50.9	-58.1	7.2	1.93e-01	0	34	0	5242880	73	8264
2026-01-18 00:36:05.27	24.30	3.35	-50.7	-57.0	8.5	2.45e-02	0	34	0	7340032	73	7255
2026-01-18 00:36:06.27	24.30	3.42	-50.6	-56.9	8.5	4.96e-02	0	34	0	9437184	73	7129
2026-01-18 00:36:07.28	24.31	3.49	-50.2	-55.4	10.1	1.79e-02	0	34	0	11534336	72	6420
2026-01-18 00:36:08.29	24.31	3.55	-49.9	-54.6	11.0	2.55e-03	0	34	0	12582912	71	6161
2026-01-18 00:36:09.30	24.32	3.62	-49.7	-54.1	11.6	1.43e-03	0	34	0	14680064	71	5819
2026-01-18 00:36:10.30	24.33	3.69	-49.6	-53.8	11.9	5.42e-04	0	34	0	16777216	71	5611
2026-01-18 00:36:11.31	24.33	3.76	-49.4	-53.4	12.4	1.84e-04	0	34	0	18874368	70	5662
2026-01-18 00:36:12.32	24.34	3.83	-49.1	-52.8	12.9	1.02e-03	0	34	0	20971520	70	5280
2026-01-18 00:36:13.33	24.35	3.90	-48.8	-52.2	13.5	3.66e-05	0	34	0	22020096	69	5220
2026-01-18 00:36:14.34	24.35	3.96	-49.3	-53.2	12.5	4.50e-05	0	34	0	24117248	69	5902
2026-01-18 00:36:15.35	24.36	4.03	-49.0	-52.6	13.2	9.90e-06	0	34	0	26214400	69	5479
2026-01-18 00:36:16.35	24.37	4.10	-49.2	-52.9	12.8	2.97e-05	0	34	0	28311552	69	5687
2026-01-18 00:36:17.36	24.37	4.17	-49.1	-52.7	13.0	2.59e-05	0	34	0	30408704	69	5564
2026-01-18 00:36:18.36	24.38	4.24	-49.2	-52.9	12.8	7.62e-05	0	34	0	31457280	69	5659
2026-01-18 00:36:19.37	24.39	4.31	-49.5	-53.5	12.2	4.65e-05	0	34	0	33554432	69	6098
2026-01-18 00:36:20.38	24.39	4.38	-49.9	-54.6	11.0	6.83e-04	0	34	0	35651584	70	6507
2026-01-18 00:36:21.39	24.40	4.45	-50.0	-54.9	10.7	4.20e-03	0	34	0	37748736	70	6743
2026-01-18 00:36:22.40	24.41	4.52	-50.3	-55.8	9.8	6.77e-03	0	35	0	39845888	71	7067
2026-01-18 00:36:23.41	24.41	4.59	-50.6	-56.5	9.1	6.99e-03	0	35	0	40894464	71	7649
2026-01-18 00:36:24.42	24.42	4.66	-50.7	-57.3	8.2	3.82e-02	0	35	0	42991616	72	7931
2026-01-18 00:36:25.42	24.43	4.73	-50.9	-58.1	7.4	8.58e-02	0	34	0	45088768	72	8696
2026-01-18 00:36:26.43	24.43	4.80	-51.1	-59.1	6.4	1.76e-01	0	34	0	47185920	72	9806
2026-01-18 00:36:27.44	24.44	4.88	-51.2	-59.5	6.1	2.97e-01	0	34	0	49283072	72	10255
2026-01-18 00:36:28.45	24.45	4.95	-51.3	-60.6	5.4	4.16e-01	0	34	0	50331648	73	10917
2026-01-18 00:36:29.46	24.45	5.02	-51.4	-61.0	5.1	5.86e-01	0	35	0	52428800	73	11450
2026-01-18 00:36:30.46	24.46	5.09	-51.4	-60.2	5.6	6.40e-01	0	34	0	54525952	73	10505
2026-01-18 00:36:31.47	24.47	5.16	-50.5	-55.5	10.3	1.96e-02	0	35	0	56623104	73	6107
2026-01-18 00:36:32.48	24.47	5.23	-51.4	-59.7	6.7	1.14e-03	0	34	0	58720256	73	9831
2026-01-18 00:36:33.49	24.48	5.31	-51.6	-62.8	3.9	1.44e+00	0	35	104	58720256	73	14135
2026-01-18 00:36:34.50	24.49	5.38	-50.5	-55.7	10.1	1.64e-01	0	35	0	58720256	73	6209
2026-01-18 00:36:35.50	24.49	5.45	-50.5	-55.4	10.5	5.18e-03	0	35	0	60817408	72	6410
2026-01-18 00:36:36.51	24.50	5.52	-50.1	-54.5	11.6	8.35e-04	0	35	0	62914560	72	5741
2026-01-18 00:36:37.52	24.51	5.60	-50.1	-54.4	11.6	9.31e-04	0	35	0	65011712	72	5710
2026-01-18 00:36:38.53	24.51	5.67	-50.1	-54.5	11.7	4.03e-04	0	35	0	67108864	72	5723
2026-01-18 00:36:39.54	24.52	5.75	-50.3	-54.9	11.2	5.60e-04	0	34	0	69206016	72	6013
2026-01-18 00:36:40.54	24.53	5.82	-49.7	-53.4	12.8	1.58e-04	0	35	0	70254592	71	5374
2026-01-18 00:36:41.55	24.53	5.89	-49.8	-53.6	12.7	8.54e-05	0	35	0	72351744	71	5472
2026-01-18 00:36:42.56	24.54	5.97	-50.0	-54.1	12.2	1.01e-04	0	35	0	74448896	71	5826
2026-01-18 00:36:43.57	24.55	6.04	-49.9	-53.8	12.5	1.51e-04	0	35	0	76546048	71	5653
2026-01-18 00:36:44.58	24.55	6.12	-49.7	-53.3	13.0	8.54e-05	0	35	0	78643200	71	5312
2026-01-18 00:36:45.58	24.56	6.19	-49.8	-53.6	12.7	5.41e-05	0	35	0	79691776	71	5482
2026-01-18 00:36:46.59	24.57	6.27	-49.6	-53.1	13.3	3.28e-05	0	35	0	81788928	71	5214
2026-01-18 00:36:47.60	24.57	6.34	-49.8	-53.5	12.8	4.27e-05	0	35	0	83886080	71	5457
2026-01-18 00:36:48.61	24.58	6.42	-49.7	-53.2	13.1	2.82e-05	0	35	0	85983232	71	5270
2026-01-18 00:36:49.62	24.59	6.49	-49.7	-53.2	13.2	3.05e-05	0	35	0	88080384	71	5227
2026-01-18 00:36:50.62	24.59	6.57	-49.4	-52.6	13.8	9.10e-06	0	35	0	89128960	70	5183
2026-01-18 00:36:51.63	24.60	6.64	-49.2	-52.2	14.3	3.80e-06	0	35	0	91226112	70	4963
2026-01-18 00:36:52.64	24.61	6.72	-48.9	-51.7	14.8	1.50e-06	0	35	0	93323264	69	4946
2026-01-18 00:36:53.65	24.61	6.80	-49.0	-52.0	14.5	0.00e+00	0	35	0	95420416	69	5134
2026-01-18 00:36:54.66	24.62	6.88	-48.8	-51.5	15.0	0.00e+00	0	35	0	97517568	69	4849
2026-01-18 00:36:55.66	24.63	6.95	-48.6	-51.3	15.3	0.00e+00	0	35	0	98566144	69	4725
2026-01-18 00:36:56.67	24.64	7.03	-48.5	-51.0	15.5	0.00e+00	0	35	0	100663296	69	4587
2026-01-18 00:36:57.68	24.64	7.11	-48.6	-51.3	15.3	0.00e+00	0	35	0	102760448	68	5010
2026-01-18 00:36:58.69	24.65	7.18	-48.4	-50.9	15.6	0.00e+00	0	35	0	104857600	68	4813
2026-01-18 00:36:59.70	24.66	7.26	-48.6	-51.2	15.4	0.00e+00	0	35	0	106954752	68	4934
2026-01-18 00:37:00.71	24.66	7.34	-48.4	-50.9	15.7	0.00e+00	0	35	0	108003328	68	4778
2026-01-18 00:37:01.72	24.67	7.42	-48.5	-51.1	15.5	0.00e+00	0	35	0	110100480	68	4874
2026-01-18 00:37:02.72	24.68	7.50	-48.4	-50.8	15.8	0.00e+00	0	35	0	112197632	68	4745
2026-01-18 00:37:03.73	24.68	7.58	-48.3	-50.8	15.9	0.00e+00	0	35	0	114294784	68	4718
2026-01-18 00:37:04.74	24.69	7.66	-48.5	-51.0	15.6	0.00e+00	0	35	0	116391936	68	4865
2026-01-18 00:37:05.75	24.70	7.74	-48.4	-50.8	15.8	0.00e+00	0	35	0	117440512	68	4750
2026-01-18 00:37:06.76	24.71	7.82	-48.3	-50.7	15.9	0.00e+00	0	35	0	119537664	68	4703
2026-01-18 00:37:07.76	24.71	7.90	-48.4	-50.9	15.8	0.00e+00	0	35	0	121634816	68	4769
2026-01-18 00:37:08.77	24.72	7.98	-48.6	-51.1	15.6	0.00e+00	0	35	0	123731968	68	4889
2026-01-18 00:37:09.78	24.73	8.06	-48.5	-51.0	15.6	0.00e+00	0	35	0	125829120	68	4867
2026-01-18 00:37:10.79	24.73	8.14	-48.4	-50.8	15.9	0.00e+00	0	35	0	126877696	68	4738
2026-01-18 00:37:11.80	24.74	8.22	-48.3	-50.6	16.1	0.00e+00	0	35	0	128974848	68	4634
2026-01-18 00:37:12.81	24.75	8.30	-48.2	-50.6	16.1	0.00e+00	0	35	0	131072000	68	4613
2026-01-18 00:37:13.82	24.76	8.38	-48.3	-50.6	16.1	0.00e+00	0	35	0	133169152	68	4647
2026-01-18 00:37:14.82	24.76	8.46	-48.3	-50.7	16.0	0.00e+00	0	35	0	135266304	68	4674
2026-01-18 00:37:15.83	24.77	8.55	-48.3	-50.7	16.0	0.00e+00	0	35	0	137363456	68	4684
2026-01-18 00:37:16.84	24.78	8.63	-48.2	-50.6	16.1	0.00e+00	0	35	0	138412032	68	4617
2026-01-18 00:37:17.84	24.78	8.71	-48.1	-50.4	16.4	0.00e+00	0	35	0	140509184	68	4501
2026-01-18 00:37:18.85	24.79	8.79	-48.1	-50.4	16.4	0.00e+00	0	35	0	142606336	68	4499
2026-01-18 00:37:19.86	24.80	8.88	-48.0	-50.2	16.5	0.00e+00	0	35	0	144703488	68	4441
2026-01-18 00:37:20.87	24.81	8.96	-48.0	-50.2	16.5	0.00e+00	0	35	0	145752064	68	4436
2026-01-18 00:37:21.88	24.81	9.04	-48.1	-50.3	16.5	0.00e+00	0	35	0	147849216	68	4454
2026-01-18 00:37:22.88	24.82	9.13	-48.0	-50.2	16.5	0.00e+00	0	35	0	149946368	68	4435
2026-01-18 00:37:23.89	24.83	9.21	-48.1	-50.4	16.4	0.00e+00	0	35	0	152043520	68	4497
2026-01-18 00:37:24.90	24.84	9.30	-48.2	-50.4	16.4	0.00e+00	0	35	0	154140672	68	4535
2026-01-18 00:37:25.91	24.84	9.38	-48.2	-50.5	16.3	0.00e+00	0	35	0	155189248	68	4547
2026-01-18 00:37:26.92	24.85	9.47	-48.2	-50.5	16.3	0.00e+00	0	35	0	157286400	68	4583
2026-01-18 00:37:27.92	24.86	9.55	-47.8	-49.9	16.8	0.00e+00	0	35	0	159383552	67	4536
2026-01-18 00:37:28.93	24.86	9.64	-47.9	-50.0	16.7	0.00e+00	0	35	0	161480704	67	4579
2026-01-18 00:37:29.94	24.87	9.72	-47.9	-50.1	16.6	0.00e+00	0	35	0	163577856	67	4609
2026-01-18 00:37:30.95	24.88	9.81	-47.9	-50.0	16.7	0.00e+00	0	35	0	165675008	67	4587
2026-01-18 00:37:31.95	24.89	9.90	-47.9	-50.1	16.7	0.00e+00	0	35	0	166723584	67	4609
2026-01-18 00:37:32.96	24.89	9.98	-47.7	-49.7	17.0	0.00e+00	0	35	0	168820736	67	4433
2026-01-18 00:37:33.97	24.90	10.07	-47.7	-49.8	17.0	0.00e+00	0	35	0	170917888	67	4451
2026-01-18 00:37:34.98	24.91	10.16	-47.8	-49.8	16.9	0.00e+00	0	35	0	173015040	67	4485
2026-01-18 00:37:35.99	24.92	10.25	-47.8	-49.9	16.8	0.00e+00	0	35	0	174063616	67	4532
2026-01-18 00:37:37.00	24.92	10.33	-47.6	-49.6	17.1	0.00e+00	0	35	0	176160768	67	4391
2026-01-18 00:37:38.00	24.93	10.42	-47.6	-49.6	17.2	0.00e+00	0	35	0	178257920	67	4358
2026-01-18 00:37:39.01	24.94	10.51	-47.6	-49.6	17.1	0.00e+00	0	35	0	180355072	67	4383
2026-01-18 00:37:40.02	24.95	10.60	-47.6	-49.6	17.2	0.00e+00	0	35	0	182452224	67	4353
2026-01-18 00:37:41.03	24.96	10.69	-47.6	-49.6	17.2	0.00e+00	0	35	0	184549376	67	4369
2026-01-18 00:37:42.04	24.96	10.78	-47.5	-49.4	17.4	0.00e+00	0	35	0	185597952	66	4525
2026-01-18 00:37:43.04	24.97	10.87	-47.5	-49.5	17.3	0.00e+00	0	35	0	187695104	66	4552
2026-01-18 00:37:44.05	24.98	10.96	-47.5	-49.5	17.3	0.00e+00	0	35	0	189792256	66	4556
2026-01-18 00:37:45.06	24.99	11.05	-47.4	-49.3	17.5	0.00e+00	0	35	0	191889408	66	4474
2026-01-18 00:37:46.06	24.99	11.14	-47.5	-49.5	17.3	0.00e+00	0	35	0	193986560	66	4573
2026-01-18 00:37:47.07	25.00	11.23	-47.4	-49.3	17.5	0.00e+00	0	35	0	195035136	66	4448
2026-01-18 00:37:48.08	25.01	11.33	-47.4	-49.4	17.4	0.00e+00	0	35	0	197132288	66	4511
2026-01-18 00:37:49.09	25.02	11.42	-47.4	-49.4	17.5	0.00e+00	0	35	0	199229440	66	4507
2026-01-18 00:37:50.10	25.03	11.51	-47.3	-49.2	17.6	0.00e+00	0	35	0	201326592	66	4429
2026-01-18 00:37:51.10	25.03	11.60	-47.3	-49.2	17.7	0.00e+00	0	35	0	202375168	66	4392
2026-01-18 00:37:52.11	25.04	11.70	-47.3	-49.2	17.6	0.00e+00	0	35	0	204472320	66	4420
2026-01-18 00:37:53.12	25.05	11.79	-47.2	-49.0	17.9	0.00e+00	0	35	0	206569472	66	4315
2026-01-18 00:37:54.13	25.06	11.88	-47.2	-49.1	17.8	0.00e+00	0	35	0	208666624	66	4350
2026-01-18 00:37:55.14	25.06	11.98	-47.2	-49.1	17.8	0.00e+00	0	35	0	210763776	66	4345
2026-01-18 00:37:56.14	25.07	12.07	-47.2	-49.1	17.8	0.00e+00	0	35	0	212860928	66	4341
2026-01-18 00:37:57.15	25.08	12.17	-47.2	-49.1	17.8	0.00e+00	0	35	0	213909504	66	4352
2026-01-18 00:37:58.16	25.09	12.26	-47.1	-48.9	17.9	0.00e+00	0	35	0	216006656	66	4288
2026-01-18 00:37:59.17	25.10	12.36	-47.1	-48.9	17.9	0.00e+00	0	35	0	218103808	66	4287
2026-01-18 00:38:00.18	25.10	12.46	-47.1	-48.9	18.0	0.00e+00	0	35	0	220200960	66	4270
2026-01-18 00:38:01.18	25.11	12.55	-47.1	-48.8	18.0	0.00e+00	0	35	0	222298112	66	4239
2026-01-18 00:38:02.19	25.12	12.65	-47.1	-48.9	17.9	0.00e+00	0	35	0	223346688	66	4291
2026-01-18 00:38:03.20	25.13	12.75	-47.0	-48.8	18.1	0.00e+00	0	35	0	225443840	66	4199
2026-01-18 00:38:04.21	25.14	12.84	-47.0	-48.8	18.1	0.00e+00	0	35	0	227540992	66	4213
2026-01-18 00:38:05.21	25.15	12.94	-47.0	-48.8	18.2	0.00e+00	0	35	0	229638144	66	4201
2026-01-18 00:38:06.22	25.15	13.04	-47.0	-48.7	18.2	0.00e+00	0	35	0	231735296	65	4410
2026-01-18 00:38:07.23	25.16	13.14	-47.0	-48.8	18.1	0.00e+00	0	35	0	232783872	65	4472
2026-01-18 00:38:08.24	25.17	13.24	-47.0	-48.7	18.2	0.00e+00	0	35	0	234881024	65	4423
2026-01-18 00:38:09.24	25.18	13.34	-46.9	-48.7	18.2	0.00e+00	0	35	0	236978176	65	4396
2026-01-18 00:38:10.25	25.19	13.44	-47.0	-48.8	18.1	0.00e+00	0	35	0	239075328	65	4463
2026-01-18 00:38:11.26	25.20	13.54	-46.9	-48.6	18.3	0.00e+00	0	35	0	241172480	65	4391
2026-01-18 00:38:12.27	25.20	13.64	-46.8	-48.5	18.4	0.00e+00	0	35	0	242221056	65	4339
2026-01-18 00:38:13.28	25.21	13.74	-46.9	-48.7	18.3	0.00e+00	0	35	0	244318208	65	4392
2026-01-18 00:38:14.29	25.22	13.84	-47.0	-48.7	18.2	0.00e+00	0	35	0	246415360	65	4424
2026-01-18 00:38:15.30	25.23	13.95	-46.8	-48.5	18.4	0.00e+00	0	35	0	248512512	65	4327
2026-01-18 00:38:16.30	25.24	14.05	-46.8	-48.5	18.5	0.00e+00	0	35	0	250609664	65	4296
2026-01-18 00:38:17.31	25.25	14.15	-46.8	-48.5	18.5	0.00e+00	0	35	0	251658240	65	4317
2026-01-18 00:38:18.32	25.25	14.25	-46.8	-48.5	18.4	0.00e+00	0	35	0	253755392	65	4307
2026-01-18 00:38:19.33	25.26	14.36	-46.8	-48.5	18.5	0.00e+00	0	35	0	255852544	65	4320
2026-01-18 00:38:20.33	25.27	14.46	-46.8	-48.5	18.5	0.00e+00	0	35	0	257949696	65	4300
2026-01-18 00:38:21.34	25.28	14.57	-46.8	-48.4	18.5	0.00e+00	0	35	0	260046848	65	4291
2026-01-18 00:38:22.35	25.29	14.67	-46.7	-48.3	18.6	0.00e+00	0	35	0	261095424	65	4242
2026-01-18 00:38:23.36	25.30	14.78	-46.7	-48.4	18.6	0.00e+00	0	35	0	263192576	65	4249
2026-01-18 00:38:24.37	25.31	14.89	-46.7	-48.3	18.6	0.00e+00	0	35	0	265289728	65	4237
2026-01-18 00:38:25.38	25.31	14.99	-46.8	-48.4	18.5	0.00e+00	0	35	0	267386880	65	4283
2026-01-18 00:38:26.38	25.32	15.10	-46.7	-48.4	18.6	0.00e+00	0	35	0	269484032	65	4252
2026-01-18 00:38:27.39	25.33	15.21	-46.7	-48.4	18.6	0.00e+00	0	35	0	270532608	65	4245
2026-01-18 00:38:28.40	25.34	15.31	-46.6	-48.3	18.7	0.00e+00	0	35	0	272629760	65	4201
2026-01-18 00:38:29.41	25.35	15.42	-46.7	-48.3	18.6	0.00e+00	0	35	0	274726912	65	4238
2026-01-18 00:38:30.42	25.36	15.53	-46.6	-48.3	18.7	0.00e+00	0	35	0	276824064	65	4200
2026-01-18 00:38:31.42	25.37	15.64	-46.6	-48.3	18.7	0.00e+00	0	35	0	278921216	65	4197
2026-01-18 00:38:32.43	25.38	15.75	-46.7	-48.3	18.7	0.00e+00	0	35	0	279969792	65	4227
2026-01-18 00:38:33.44	25.39	15.86	-46.6	-48.2	18.8	0.00e+00	0	35	0	282066944	65	4175
2026-01-18 00:38:34.45	25.40	15.97	-46.7	-48.3	18.7	0.00e+00	0	35	0	284164096	65	4207
2026-01-18 00:38:35.46	25.40	16.09	-46.6	-48.3	18.7	0.00e+00	0	35	0	286261248	65	4205
2026-01-18 00:38:36.46	25.41	16.20	-46.6	-48.2	18.8	0.00e+00	0	35	0	288358400	65	4185
2026-01-18 00:38:37.47	25.42	16.31	-46.6	-48.2	18.8	0.00e+00	0	35	0	289406976	65	4174
2026-01-18 00:38:38.48	25.43	16.42	-46.6	-48.2	18.8	0.00e+00	0	35	0	291504128	65	4163
2026-01-18 00:38:39.49	25.44	16.54	-46.5	-48.1	18.9	0.00e+00	0	35	0	293601280	65	4131
2026-01-18 00:38:40.49	25.45	16.65	-46.5	-48.1	19.0	0.00e+00	0	35	0	295698432	65	4107
2026-01-18 00:38:41.50	25.46	16.77	-46.5	-48.1	19.0	0.00e+00	0	35	0	297795584	64	4343
2026-01-18 00:38:42.51	25.47	16.88	-46.5	-48.1	19.0	0.00e+00	0	35	0	298844160	64	4346
2026-01-18 00:38:43.52	25.48	17.00	-46.6	-48.1	18.9	0.00e+00	0	35	0	300941312	64	4382
2026-01-18 00:38:44.53	25.49	17.11	-46.5	-48.0	19.0	0.00e+00	0	35	0	303038464	64	4339
2026-01-18 00:38:45.53	25.50	17.23	-46.5	-48.1	18.9	0.00e+00	0	35	0	305135616	64	4371
2026-01-18 00:38:46.54	25.51	17.35	-46.3	-47.9	19.2	0.00e+00	0	35	0	307232768	64	4255
2026-01-18 00:38:47.55	25.52	17.47	-46.4	-47.9	19.1	0.00e+00	0	35	0	308281344	64	4286
2026-01-18 00:38:48.56	25.53	17.58	-46.3	-47.9	19.1	0.00e+00	0	35	0	310378496	64	4252
2026-01-18 00:38:49.56	25.54	17.70	-46.3	-47.8	19.2	0.00e+00	0	35	0	312475648	64	4223
2026-01-18 00:38:50.57	25.55	17.82	-46.4	-47.9	19.1	0.00e+00	0	35	0	314572800	64	4291
2026-01-18 00:38:51.58	25.55	17.94	-46.4	-47.9	19.1	0.00e+00	0	35	0	316669952	64	4291
2026-01-18 00:38:52.59	25.56	18.06	-46.3	-47.8	19.3	0.00e+00	0	35	0	317718528	64	4214
2026-01-18 00:38:53.60	25.57	18.19	-46.3	-47.8	19.3	0.00e+00	0	35	0	319815680	64	4200
2026-01-18 00:38:54.60	25.58	18.31	-46.2	-47.7	19.4	0.00e+00	0	35	0	321912832	64	4151
2026-01-18 00:38:55.61	25.59	18.43	-46.3	-47.8	19.2	0.00e+00	0	35	0	324009984	64	4225
2026-01-18 00:38:56.62	25.60	18.55	-46.3	-47.7	19.3	0.00e+00	0	35	0	326107136	64	4190
2026-01-18 00:38:57.62	25.61	18.68	-46.2	-47.7	19.4	0.00e+00	0	35	0	328204288	64	4152
2026-01-18 00:38:58.63	25.62	18.80	-46.3	-47.8	19.3	0.00e+00	0	35	0	329252864	64	4218
2026-01-18 00:38:59.64	25.63	18.93	-46.3	-47.9	19.2	0.00e+00	0	35	0	331350016	64	4245
2026-01-18 00:39:00.65	25.64	19.05	-46.2	-47.6	19.4	0.00e+00	0	35	0	333447168	64	4142
2026-01-18 00:39:01.66	25.65	19.18	-46.2	-47.7	19.4	0.00e+00	0	35	0	335544320	64	4171
2026-01-18 00:39:02.66	25.66	19.31	-46.2	-47.7	19.4	0.00e+00	0	35	0	336592896	64	4178
2026-01-18 00:39:03.67	25.67	19.44	-46.2	-47.7	19.4	0.00e+00	0	35	0	338690048	64	4152
2026-01-18 00:39:04.68	25.69	19.56	-46.2	-47.7	19.4	0.00e+00	0	35	0	340787200	64	4166
2026-01-18 00:39:05.69	25.70	19.69	-46.2	-47.7	19.4	0.00e+00	0	35	0	342884352	64	4179
2026-01-18 00:39:06.70	25.71	19.82	-46.4	-47.9	19.2	0.00e+00	0	35	0	344981504	64	4258
2026-01-18 00:39:07.70	25.72	19.95	-46.3	-47.8	19.3	0.00e+00	0	35	0	346030080	64	4209
2026-01-18 00:39:08.71	25.73	20.09	-46.3	-47.8	19.3	0.00e+00	0	35	0	348127232	64	4239
2026-01-18 00:39:09.72	25.74	20.22	-46.2	-47.7	19.4	0.00e+00	0	35	0	350224384	64	4178
2026-01-18 00:39:10.73	25.75	20.35	-46.3	-47.8	19.3	0.00e+00	0	35	0	352321536	64	4207
2026-01-18 00:39:11.74	25.76	20.48	-46.3	-47.8	19.3	0.00e+00	0	35	0	354418688	64	4219
2026-01-18 00:39:12.74	25.77	20.62	-46.3	-47.8	19.3	0.00e+00	0	35	0	356515840	64	4202
2026-01-18 00:39:13.75	25.78	20.75	-46.4	-47.9	19.2	0.00e+00	0	35	0	357564416	64	4267
2026-01-18 00:39:14.76	25.79	20.89	-46.4	-48.0	19.2	0.00e+00	0	35	0	359661568	64	4302
2026-01-18 00:39:15.77	25.80	21.02	-46.4	-48.0	19.2	0.00e+00	0	35	0	361758720	64	4293
2026-01-18 00:39:16.78	25.81	21.16	-46.4	-47.9	19.2	0.00e+00	0	36	0	363855872	64	4288
2026-01-18 00:39:17.78	25.82	21.30	-46.4	-48.0	19.2	0.00e+00	0	35	0	364904448	64	4300
2026-01-18 00:39:18.79	25.84	21.44	-46.4	-47.9	19.3	0.00e+00	0	35	0	367001600	64	4255
2026-01-18 00:39:19.80	25.85	21.58	-46.4	-47.9	19.3	0.00e+00	0	35	0	369098752	64	4272
2026-01-18 00:39:20.81	25.86	21.72	-46.5	-48.0	19.1	0.00e+00	0	35	0	371195904	64	4330
2026-01-18 00:39:21.82	25.87	21.86	-46.4	-47.9	19.2	0.00e+00	0	35	0	373293056	64	4282
2026-01-18 00:39:22.83	25.88	22.00	-46.4	-48.0	19.2	0.00e+00	0	36	0	375390208	64	4293
2026-01-18 00:39:23.84	25.89	22.14	-46.5	-48.0	19.2	0.00e+00	0	35	0	376438784	64	4310
2026-01-18 00:39:24.84	25.90	22.29	-46.5	-48.0	19.2	0.00e+00	0	35	0	378535936	64	4307
2026-01-18 00:39:25.85	25.91	22.43	-46.4	-48.0	19.2	0.00e+00	0	35	0	380633088	64	4295
2026-01-18 00:39:26.85	25.93	22.57	-46.4	-47.9	19.2	0.00e+00	0	35	0	382730240	64	4277
2026-01-18 00:39:27.86	25.94	22.72	-46.4	-47.9	19.2	0.00e+00	0	35	0	384827392	64	4282
2026-01-18 00:39:28.87	25.95	22.87	-46.4	-48.0	19.2	0.00e+00	0	35	0	385875968	64	4299
2026-01-18 00:39:29.88	25.96	23.01	-46.5	-48.1	19.1	0.00e+00	0	35	0	387973120	64	4349
2026-01-18 00:39:30.89	25.97	23.16	-46.6	-48.2	19.0	0.00e+00	0	35	0	390070272	64	4404
2026-01-18 00:39:31.90	25.99	23.31	-46.5	-48.1	19.1	0.00e+00	0	35	0	392167424	64	4361
2026-01-18 00:39:32.90	26.00	23.46	-46.5	-48.1	19.1	0.00e+00	0	36	0	393216000	64	4362
2026-01-18 00:39:33.91	26.01	23.61	-46.5	-48.0	19.2	0.00e+00	0	35	0	395313152	64	4301
2026-01-18 00:39:34.92	26.02	23.76	-46.6	-48.1	19.1	0.00e+00	0	36	0	397410304	64	4378
2026-01-18 00:39:35.93	26.03	23.92	-46.6	-48.1	19.1	0.00e+00	0	35	0	399507456	64	4385
2026-01-18 00:39:36.93	26.05	24.07	-46.6	-48.2	19.1	0.00e+00	0	35	0	401604608	64	4405
2026-01-18 00:39:37.93	26.06	24.22	-46.7	-48.2	19.0	0.00e+00	0	35	0	403701760	64	4431
2026-01-18 00:39:38.94	26.07	24.38	-46.7	-48.2	19.0	0.00e+00	0	35	0	404750336	64	4437
2026-01-18 00:39:39.95	26.08	24.53	-46.8	-48.4	18.9	0.00e+00	0	35	0	406847488	64	4512
2026-01-18 00:39:40.96	26.10	24.69	-46.8	-48.4	18.8	0.00e+00	0	35	0	408944640	64	4542
2026-01-18 00:39:41.97	26.11	24.85	-46.7	-48.3	18.9	0.00e+00	0	35	0	411041792	64	4478
2026-01-18 00:39:42.98	26.12	25.01	-46.9	-48.5	18.8	0.00e+00	0	35	0	413138944	64	4575
2026-01-18 00:39:43.98	26.13	25.17	-46.9	-48.6	18.7	0.00e+00	0	35	0	414187520	64	4607
2026-01-18 00:39:44.99	26.15	25.33	-46.8	-48.4	18.8	0.00e+00	0	35	0	416284672	64	4531
2026-01-18 00:39:46.00	26.16	25.49	-47.0	-48.6	18.7	0.00e+00	0	35	0	418381824	64	4619
2026-01-18 00:39:47.01	26.17	25.65	-47.0	-48.7	18.6	0.00e+00	0	35	0	420478976	64	4663
2026-01-18 00:39:48.02	26.19	25.82	-47.1	-48.8	18.4	0.00e+00	0	35	0	422576128	64	4754
2026-01-18 00:39:49.02	26.20	25.98	-47.1	-48.8	18.5	0.00e+00	0	35	0	423624704	65	4462
2026-01-18 00:39:50.03	26.21	26.15	-47.1	-48.7	18.6	0.00e+00	0	35	0	425721856	65	4415
2026-01-18 00:39:51.04	26.23	26.32	-47.2	-48.9	18.4	0.00e+00	0	35	0	427819008	65	4504
2026-01-18 00:39:52.04	26.24	26.48	-47.3	-49.0	18.3	0.00e+00	0	35	0	429916160	65	4574
2026-01-18 00:39:53.05	26.26	26.65	-47.2	-48.9	18.4	0.00e+00	0	35	0	432013312	65	4521
2026-01-18 00:39:54.06	26.27	26.82	-47.3	-49.1	18.3	0.00e+00	0	35	0	433061888	65	4605
2026-01-18 00:39:55.07	26.28	27.00	-47.5	-49.3	18.0	0.00e+00	0	36	0	435159040	65	4728
2026-01-18 00:39:56.08	26.30	27.17	-47.6	-49.4	17.9	0.00e+00	0	35	0	437256192	65	4787
2026-01-18 00:39:57.08	26.31	27.34	-47.7	-49.5	17.8	0.00e+00	0	36	0	439353344	65	4862
2026-01-18 00:39:58.09	26.33	27.51	-47.7	-49.5	17.8	0.00e+00	0	35	0	441450496	66	4594
2026-01-18 00:39:59.10	26.34	27.69	-47.7	-49.5	17.8	0.00e+00	0	35	0	442499072	66	4593
2026-01-18 00:40:00.10	26.35	27.87	-47.7	-49.6	17.7	0.00e+00	0	35	0	444596224	66	4627
2026-01-18 00:40:01.11	26.37	28.04	-47.8	-49.7	17.7	0.00e+00	0	35	0	446693376	66	4655
2026-01-18 00:40:02.12	26.38	28.22	-47.9	-49.8	17.5	0.00e+00	0	35	0	448790528	66	4753
2026-01-18 00:40:03.13	26.40	28.40	-48.1	-50.1	17.3	0.00e+00	0	35	0	450887680	66	4905
2026-01-18 00:40:04.14	26.41	28.59	-48.2	-50.2	17.2	0.00e+00	0	35	0	451936256	66	4943
2026-01-18 00:40:05.14	26.43	28.77	-48.3	-50.3	17.1	0.00e+00	0	35	0	454033408	67	4738
2026-01-18 00:40:06.15	26.44	28.95	-48.3	-50.4	17.0	0.00e+00	0	35	0	456130560	67	4772
2026-01-18 00:40:07.16	26.46	29.14	-48.4	-50.5	16.9	0.00e+00	0	36	0	458227712	67	4834
2026-01-18 00:40:08.16	26.48	29.32	-48.3	-50.4	16.9	0.00e+00	0	35	0	460324864	67	4795
2026-01-18 00:40:09.17	26.49	29.51	-48.4	-50.5	16.9	0.00e+00	0	35	0	461373440	67	4868
2026-01-18 00:40:10.18	26.51	29.70	-48.5	-50.7	16.7	0.00e+00	0	35	0	463470592	67	4960
2026-01-18 00:40:11.19	26.52	29.89	-48.6	-50.8	16.6	0.00e+00	0	35	0	465567744	67	5028
2026-01-18 00:40:12.20	26.54	30.08	-48.6	-50.8	16.6	0.00e+00	0	35	0	467664896	67	4995
2026-01-18 00:40:13.20	26.55	30.27	-48.6	-50.8	16.6	0.00e+00	0	36	0	469762048	67	5029
2026-01-18 00:40:14.21	26.57	30.47	-48.8	-51.1	16.4	0.00e+00	0	35	0	470810624	68	4900
2026-01-18 00:40:15.22	26.59	30.66	-48.9	-51.1	16.4	0.00e+00	0	35	0	472907776	68	4906
2026-01-18 00:40:16.23	26.60	30.86	-48.8	-51.0	16.5	0.00e+00	0	36	0	475004928	68	4859
2026-01-18 00:40:17.23	26.62	31.06	-48.8	-51.0	16.5	0.00e+00	0	35	0	477102080	68	4832
2026-01-18 00:40:18.24	26.64	31.26	-48.8	-51.0	16.5	0.00e+00	0	35	0	479199232	68	4861
2026-01-18 00:40:19.25	26.66	31.46	-48.8	-51.0	16.5	0.00e+00	0	35	0	480247808	68	4841
2026-01-18 00:40:20.26	26.67	31.66	-48.7	-50.9	16.5	0.00e+00	0	35	0	482344960	68	4813
2026-01-18 00:40:21.26	26.69	31.86	-48.8	-51.0	16.5	0.00e+00	0	35	0	484442112	68	4835
2026-01-18 00:40:22.27	26.71	32.07	-48.9	-51.1	16.4	0.00e+00	0	35	0	486539264	68	4923
2026-01-18 00:40:23.28	26.73	32.27	-48.9	-51.2	16.4	0.00e+00	0	35	0	488636416	68	4942
2026-01-18 00:40:24.29	26.74	32.48	-48.8	-51.0	16.5	0.00e+00	0	35	0	489684992	68	4830
2026-01-18 00:40:25.29	26.76	32.69	-48.8	-51.0	16.5	0.00e+00	0	36	0	491782144	68	4857
2026-01-18 00:40:26.30	26.78	32.90	-48.8	-51.0	16.5	0.00e+00	0	35	0	493879296	68	4855
2026-01-18 00:40:27.31	26.80	33.11	-48.8	-50.9	16.6	0.00e+00	0	35	0	495976448	68	4814
2026-01-18 00:40:28.32	26.82	33.33	-48.6	-50.7	16.8	0.00e+00	0	35	0	498073600	68	4664
2026-01-18 00:40:29.33	26.84	33.54	-48.5	-50.6	16.9	0.00e+00	0	36	0	500170752	68	4636
2026-01-18 00:40:30.34	26.85	33.76	-48.4	-50.4	17.2	0.00e+00	0	35	0	501219328	68	4507
2026-01-18 00:40:31.34	26.87	33.98	-48.2	-50.1	17.4	0.00e+00	0	35	0	503316480	68	4376
2026-01-18 00:40:32.35	26.89	34.20	-48.0	-49.9	17.7	0.00e+00	0	35	0	505413632	68	4247
2026-01-18 00:40:33.36	26.91	34.42	-47.8	-49.6	17.8	0.00e+00	0	35	0	507510784	67	4350
2026-01-18 00:40:34.37	26.93	34.64	-47.5	-49.2	18.2	0.00e+00	0	35	0	508559360	67	4187
2026-01-18 00:40:35.38	26.95	34.87	-47.3	-48.9	18.5	0.00e+00	0	35	0	510656512	66	4288
2026-01-18 00:40:36.38	26.97	35.09	-47.2	-48.9	18.6	0.00e+00	0	35	0	512753664	66	4269
2026-01-18 00:40:37.39	26.99	35.32	-47.1	-48.7	18.7	0.00e+00	0	35	0	514850816	66	4180
2026-01-18 00:40:38.40	27.01	35.55	-46.9	-48.5	18.9	0.00e+00	0	35	0	516947968	65	4321
2026-01-18 00:40:39.40	27.04	35.78	-46.9	-48.5	19.0	0.00e+00	0	35	0	517996544	65	4320
2026-01-18 00:40:40.41	27.06	36.01	-46.8	-48.4	19.1	0.00e+00	0	35	0	520093696	65	4245
2026-01-18 00:40:41.42	27.08	36.24	-46.7	-48.2	19.3	0.00e+00	0	35	0	522190848	65	4154
2026-01-18 00:40:42.43	27.10	36.48	-46.3	-47.7	19.7	0.00e+00	0	35	0	524288000	64	4186
2026-01-18 00:40:43.44	27.12	36.72	-46.1	-47.4	20.0	0.00e+00	0	35	0	526385152	64	4040
2026-01-18 00:40:44.44	27.14	36.96	-46.0	-47.4	20.1	0.00e+00	0	35	0	528482304	64	4020
2026-01-18 00:40:45.45	27.17	37.20	-45.8	-47.1	20.4	0.00e+00	0	36	0	529530880	63	4100
2026-01-18 00:40:46.46	27.19	37.44	-45.5	-46.7	20.7	0.00e+00	0	35	0	531628032	62	4191
2026-01-18 00:40:47.47	27.21	37.69	-45.5	-46.7	20.8	0.00e+00	0	35	0	533725184	62	4165
2026-01-18 00:40:48.48	27.24	37.94	-45.5	-46.7	20.7	0.00e+00	0	35	0	535822336	62	4189
2026-01-18 00:40:49.48	27.26	38.18	-45.5	-46.8	20.7	0.00e+00	0	35	0	536870912	62	4214
2026-01-18 00:40:50.49	27.28	38.43	-45.4	-46.7	20.8	0.00e+00	0	36	0	538968064	62	4146
2026-01-18 00:40:51.50	27.31	38.69	-45.5	-46.7	20.8	0.00e+00	0	36	0	541065216	62	4179
2026-01-18 00:40:52.51	27.33	38.94	-45.6	-46.8	20.7	0.00e+00	0	35	0	543162368	62	4224
2026-01-18 00:40:53.52	27.36	39.20	-45.7	-47.0	20.5	0.00e+00	0	35	0	545259520	62	4332
2026-01-18 00:40:54.52	27.38	39.45	-45.8	-47.1	20.4	0.00e+00	0	35	0	547356672	62	4365
2026-01-18 00:40:55.53	27.41	39.71	-45.9	-47.2	20.3	0.00e+00	0	35	0	548405248	62	4415
2026-01-18 00:40:56.54	27.43	39.98	-45.9	-47.2	20.3	0.00e+00	0	35	0	550502400	62	4434
2026-01-18 00:40:57.54	27.46	40.24	-45.8	-47.1	20.4	0.00e+00	0	35	0	552599552	62	4383
2026-01-18 00:40:58.55	27.49	40.50	-45.9	-47.2	20.3	0.00e+00	0	35	0	554696704	62	4435
2026-01-18 00:40:59.56	27.51	40.77	-45.8	-47.1	20.4	0.00e+00	0	35	0	556793856	62	4345
2026-01-18 00:41:00.57	27.54	41.04	-45.9	-47.2	20.4	0.00e+00	0	35	0	557842432	62	4397
2026-01-18 00:41:01.58	27.57	41.31	-46.0	-47.4	20.2	0.00e+00	0	35	0	559939584	62	4498
2026-01-18 00:41:02.58	27.60	41.59	-46.3	-47.7	19.9	0.00e+00	0	35	0	562036736	63	4394
2026-01-18 00:41:03.59	27.63	41.86	-46.4	-47.9	19.7	0.00e+00	0	35	0	564133888	63	4495
2026-01-18 00:41:04.60	27.66	42.14	-46.6	-48.1	19.5	0.00e+00	0	35	0	565182464	63	4630
2026-01-18 00:41:05.61	27.68	42.42	-46.7	-48.2	19.4	0.00e+00	0	35	0	567279616	63	4674
2026-01-18 00:41:06.62	27.71	42.71	-46.8	-48.3	19.2	0.00e+00	0	36	0	569376768	64	4472
2026-01-18 00:41:07.63	27.75	42.99	-46.6	-48.1	19.5	0.00e+00	0	35	0	571473920	64	4344
2026-01-18 00:41:08.64	27.78	43.28	-46.5	-48.0	19.5	0.00e+00	0	36	0	573571072	64	4319
2026-01-18 00:41:09.64	27.81	43.56	-46.4	-47.8	19.7	0.00e+00	0	36	0	575668224	64	4233
2026-01-18 00:41:10.65	27.84	43.86	-46.6	-48.0	19.5	0.00e+00	0	35	0	576716800	64	4329
2026-01-18 00:41:11.66	27.87	44.15	-46.5	-48.0	19.5	0.00e+00	0	35	0	578813952	64	4308
2026-01-18 00:41:12.67	27.90	44.44	-46.7	-48.2	19.4	0.00e+00	0	36	0	580911104	64	4401
2026-01-18 00:41:13.68	27.94	44.74	-47.1	-48.6	18.9	0.00e+00	0	36	0	583008256	64	4644
2026-01-18 00:41:14.68	27.97	45.04	-47.4	-49.1	18.5	0.00e+00	0	35	0	585105408	65	4614
2026-01-18 00:41:15.69	28.01	45.34	-47.9	-49.8	17.8	0.00e+00	0	36	0	586153984	66	4709
2026-01-18 00:41:16.70	28.04	45.65	-48.4	-50.4	17.2	0.00e+00	0	35	0	588251136	67	4780
2026-01-18 00:41:17.71	28.08	45.96	-48.4	-50.5	17.1	0.00e+00	0	35	0	590348288	67	4822
2026-01-18 00:41:18.72	28.11	46.27	-48.7	-50.9	16.7	0.00e+00	0	35	0	592445440	67	5068
2026-01-18 00:41:19.72	28.15	46.57	-48.9	-51.1	16.6	0.00e+00	0	35	0	594542592	68	4920
2026-01-18 00:41:20.73	28.19	46.89	-49.0	-51.3	16.4	0.00e+00	0	35	0	595591168	68	5006
2026-01-18 00:41:21.74	28.23	47.21	-48.9	-51.1	16.6	0.00e+00	0	35	0	597688320	68	4902
2026-01-18 00:41:22.75	28.27	47.52	-48.6	-50.7	17.0	0.00e+00	0	36	0	599785472	68	4672
2026-01-18 00:41:23.76	28.31	47.85	-48.6	-50.6	17.1	0.00e+00	0	36	0	601882624	68	4645
2026-01-18 00:41:24.76	28.35	48.17	-48.5	-50.5	17.2	0.00e+00	0	35	0	603979776	68	4552
2026-01-18 00:41:25.77	28.39	48.49	-48.5	-50.6	17.1	0.00e+00	0	35	0	605028352	68	4617
2026-01-18 00:41:26.78	28.43	48.82	-48.6	-50.7	17.0	0.00e+00	0	35	0	607125504	68	4698
2026-01-18 00:41:27.79	28.47	49.15	-48.8	-51.0	16.8	0.00e+00	0	35	0	609222656	68	4838
2026-01-18 00:41:28.80	28.52	49.49	-48.8	-51.0	16.7	0.00e+00	0	36	0	611319808	68	4825
2026-01-18 00:41:29.80	28.56	49.82	-49.0	-51.3	16.4	0.00e+00	0	36	0	613416960	68	4990
2026-01-18 00:41:30.81	28.61	50.16	-48.9	-51.1	16.7	0.00e+00	0	35	0	614465536	68	4897
2026-01-18 00:41:31.82	28.65	50.50	-48.2	-50.1	17.7	0.00e+00	0	36	0	616562688	68	4352
2026-01-18 00:41:32.83	28.70	50.84	-47.7	-49.4	18.1	0.00e+00	0	35	0	618659840	67	4286
2026-01-18 00:41:33.84	28.75	51.19	-47.0	-48.6	19.0	0.00e+00	0	36	0	620756992	66	4111
2026-01-18 00:41:34.85	28.80	51.54	-46.9	-48.4	19.2	0.00e+00	0	35	0	622854144	65	4264
2026-01-18 00:41:35.86	28.85	51.89	-46.5	-48.0	19.6	0.00e+00	0	36	0	623902720	65	4065
2026-01-18 00:41:36.86	28.90	52.24	-46.0	-47.3	20.4	0.00e+00	0	35	0	625999872	63	4202
2026-01-18 00:41:37.87	28.95	52.60	-45.6	-46.9	20.7	0.00e+00	0	35	0	628097024	63	4010
2026-01-18 00:41:38.88	29.01	52.96	-45.6	-46.8	20.8	0.00e+00	0	35	0	630194176	63	4003
2026-01-18 00:41:39.89	29.06	53.32	-45.5	-46.7	20.9	0.00e+00	0	35	0	632291328	62	4178
2026-01-18 00:41:40.90	29.12	53.68	-45.3	-46.4	21.1	0.00e+00	0	35	0	633339904	62	4046
2026-01-18 00:41:41.91	29.18	54.05	-45.1	-46.2	21.4	0.00e+00	0	35	0	635437056	62	3942
2026-01-18 00:41:42.92	29.24	54.42	-45.0	-46.2	21.4	0.00e+00	0	35	0	637534208	61	4165
2026-01-18 00:41:43.92	29.30	54.79	-45.4	-46.6	21.0	0.00e+00	0	35	0	639631360	61	4382
2026-01-18 00:41:44.93	29.36	55.16	-45.6	-46.8	20.8	0.00e+00	0	35	0	641728512	61	4477
2026-01-18 00:41:45.94	29.42	55.54	-45.8	-47.1	20.5	0.00e+00	0	35	0	642777088	62	4354
2026-01-18 00:41:46.95	29.49	55.92	-45.9	-47.2	20.4	0.00e+00	0	35	0	644874240	62	4410
2026-01-18 00:41:47.96	29.56	56.30	-46.1	-47.5	20.2	0.00e+00	0	35	0	646971392	62	4560
2026-01-18 00:41:48.96	29.63	56.68	-46.0	-47.4	20.3	0.00e+00	0	35	0	649068544	63	4246
2026-01-18 00:41:49.97	29.70	57.07	-46.0	-47.3	20.4	0.00e+00	0	35	0	651165696	63	4218
2026-01-18 00:41:50.98	29.77	57.46	-46.3	-47.6	20.1	0.00e+00	0	35	0	652214272	63	4371
2026-01-18 00:41:51.99	29.84	57.85	-46.5	-47.9	19.8	0.00e+00	0	35	0	654311424	63	4512
2026-01-18 00:41:53.00	29.92	58.25	-46.5	-47.9	19.9	0.00e+00	0	36	0	656408576	63	4496
2026-01-18 00:41:54.00	30.00	58.64	-46.4	-47.8	19.9	0.00e+00	0	35	0	658505728	63	4450
2026-01-18 00:41:55.01	30.08	59.05	-46.3	-47.7	20.0	0.00e+00	0	35	0	660602880	63	4417
2026-01-18 00:41:56.02	30.16	59.45	-45.9	-47.2	20.5	0.00e+00	0	35	0	662700032	63	4171
2026-01-18 00:41:57.03	30.25	59.86	-45.6	-46.9	20.8	0.00e+00	0	35	0	663748608	63	4008
2026-01-18 00:41:58.04	30.34	60.26	-45.2	-46.3	21.3	0.00e+00	0	35	0	665845760	62	4004
2026-01-18 00:41:59.04	30.43	60.67	-44.7	-45.8	21.8	0.00e+00	0	35	0	667942912	61	3964
2026-01-18 00:42:00.05	30.53	61.09	-44.5	-45.6	22.0	0.00e+00	0	35	0	670040064	60	4101
2026-01-18 00:42:01.06	30.62	61.50	-44.4	-45.4	22.1	0.00e+00	0	35	0	671088640	60	4049
2026-01-18 00:42:02.07	30.72	61.92	-44.3	-45.4	22.4	0.00e+00	0	36	0	673185792	59	4247
2026-01-18 00:42:03.08	30.83	62.34	-44.1	-45.1	22.7	0.00e+00	0	35	0	675282944	59	4132
2026-01-18 00:42:04.08	30.94	62.76	-44.1	-45.1	22.7	0.00e+00	0	35	0	677380096	59	4103
2026-01-18 00:42:05.09	31.05	63.19	-44.1	-45.1	22.7	0.00e+00	0	35	0	679477248	59	4137
2026-01-18 00:42:06.10	31.16	63.62	-44.6	-45.7	22.2	0.00e+00	0	35	0	680525824	59	4403
2026-01-18 00:42:07.11	31.28	64.05	-44.8	-45.9	21.7	0.00e+00	0	35	0	682622976	60	4284
2026-01-18 00:42:08.12	31.41	64.49	-45.4	-46.7	21.0	0.00e+00	0	35	0	684720128	61	4401
2026-01-18 00:42:09.12	31.53	64.92	-46.4	-47.8	20.0	0.00e+00	0	35	0	686817280	63	4455
2026-01-18 00:42:10.13	31.67	65.36	-47.1	-48.7	19.0	0.00e+00	0	35	0	688914432	64	4691
2026-01-18 00:42:11.14	31.81	65.80	-47.9	-49.7	18.0	0.00e+00	0	35	0	691011584	66	4674
2026-01-18 00:42:12.15	31.95	66.24	-47.6	-49.3	18.4	0.00e+00	0	35	0	692060160	66	4481
2026-01-18 00:42:13.16	32.10	66.69	-47.0	-48.5	19.1	0.00e+00	0	35	0	694157312	66	4065
2026-01-18 00:42:14.16	32.26	67.13	-46.9	-48.4	19.2	0.00e+00	0	35	0	696254464	65	4262
2026-01-18 00:42:15.17	32.42	67.59	-46.8	-48.3	19.3	0.00e+00	0	35	0	698351616	65	4221
2026-01-18 00:42:16.18	32.59	68.04	-47.1	-48.6	19.0	0.00e+00	0	35	0	699400192	65	4366
2026-01-18 00:42:17.18	32.77	68.49	-47.2	-48.7	19.0	0.00e+00	0	35	0	701497344	65	4439
2026-01-18 00:42:18.19	32.95	68.95	-47.1	-48.6	19.1	0.00e+00	0	35	0	703594496	65	4378
2026-01-18 00:42:19.20	33.15	69.41	-46.9	-48.4	19.3	0.00e+00	0	35	0	705691648	65	4268
2026-01-18 00:42:20.21	33.35	69.87	-46.7	-48.1	19.6	0.00e+00	0	35	0	707788800	65	4135
2026-01-18 00:42:21.22	33.57	70.33	-46.5	-47.9	19.8	0.00e+00	0	35	0	709885952	65	4021
2026-01-18 00:42:22.22	33.79	70.79	-46.7	-48.1	19.6	0.00e+00	0	35	0	710934528	64	4383
2026-01-18 00:42:23.23	34.03	71.26	-47.0	-48.5	19.2	0.00e+00	0	35	0	713031680	64	4597
2026-01-18 00:42:24.24	34.28	71.73	-47.2	-48.8	19.0	0.00e+00	0	35	0	715128832	64	4720
2026-01-18 00:42:25.25	34.54	72.20	-47.4	-49.0	18.7	0.00e+00	0	35	0	717225984	65	4577
2026-01-18 00:42:26.26	34.82	72.67	-47.3	-48.9	18.8	0.00e+00	0	35	0	719323136	65	4509
2026-01-18 00:42:27.26	35.11	73.14	-47.3	-48.9	18.8	0.00e+00	0	35	0	720371712	65	4524
2026-01-18 00:42:28.27	35.42	73.62	-47.7	-49.5	18.3	0.00e+00	0	35	0	722468864	66	4556
2026-01-18 00:42:29.28	35.75	74.09	-48.6	-50.6	17.3	0.00e+00	0	35	0	724566016	67	4890
2026-01-18 00:42:30.29	36.11	74.57	-48.8	-50.8	17.0	0.00e+00	0	35	0	726663168	68	4752
2026-01-18 00:42:31.30	36.48	75.05	-48.4	-50.3	17.6	0.00e+00	0	35	0	727711744	68	4481
2026-01-18 00:42:32.30	36.88	75.53	-48.1	-50.0	17.9	0.00e+00	0	35	0	729808896	68	4297
2026-01-18 00:42:33.31	37.31	76.01	-47.5	-49.2	18.5	0.00e+00	0	35	0	731906048	67	4179
2026-01-18 00:42:34.32	37.77	76.49	-46.7	-48.2	19.5	0.00e+00	0	35	0	734003200	65	4172
2026-01-18 00:42:35.33	38.27	76.98	-46.1	-47.4	20.3	0.00e+00	0	35	0	736100352	64	4051
2026-01-18 00:42:36.33	38.80	77.45	-46.5	-47.9	19.9	0.00e+00	0	35	0	738197504	64	4246
2026-01-18 00:42:37.34	39.38	77.94	-46.7	-48.1	19.6	0.00e+00	0	35	0	739246080	64	4371
2026-01-18 00:42:38.35	40.01	78.42	-46.4	-47.8	19.8	0.00e+00	0	35	0	741343232	64	4227
2026-01-18 00:42:39.36	40.69	78.91	-46.2	-47.5	20.1	0.00e+00	0	35	0	743440384	64	4094
2026-01-18 00:42:40.37	41.44	79.39	-45.9	-47.2	20.5	0.00e+00	0	35	0	745537536	63	4178
2026-01-18 00:42:41.38	42.26	79.88	-46.1	-47.4	20.3	0.00e+00	0	35	0	747634688	63	4259
2026-01-18 00:42:42.39	43.16	80.36	-46.0	-47.3	20.5	0.00e+00	0	35	0	748683264	63	4209
2026-01-18 00:42:43.39	44.15	80.83	-46.1	-47.4	20.3	0.00e+00	0	35	0	750780416	63	4291
2026-01-18 00:42:44.40	45.26	81.31	-46.8	-48.3	19.5	0.00e+00	0	35	0	752877568	64	4461
2026-01-18 00:42:45.41	46.50	81.79	-48.6	-50.7	17.1	0.00e+00	0	35	0	754974720	67	4954
2026-01-18 00:42:46.42	47.90	82.26	-50.3	-53.3	14.6	0.00e+00	0	35	0	757071872	71	5324
2026-01-18 00:42:47.42	49.46	82.73	-50.0	-52.7	15.1	1.50e-06	0	35	0	758120448	71	4927
2026-01-18 00:42:48.43	51.25	83.19	-49.3	-51.7	16.2	0.00e+00	0	35	0	760217600	70	4657
2026-01-18 00:42:49.44	53.30	83.65	-48.2	-50.1	17.8	0.00e+00	0	35	0	762314752	68	4349
2026-01-18 00:42:50.45	55.67	84.10	-47.1	-48.6	19.1	0.00e+00	0	35	0	764411904	66	4122
2026-01-18 00:42:51.46	58.43	84.53	-46.6	-48.0	19.7	0.00e+00	0	35	0	766509056	64	4337
2026-01-18 00:42:52.46	61.62	84.95	-46.1	-47.4	20.2	0.00e+00	0	35	0	767557632	64	4032
2026-01-18 00:42:53.47	65.42	85.36	-45.9	-47.2	20.6	0.00e+00	0	35	0	769654784	63	4161
2026-01-18 00:42:54.48	69.93	85.74	-46.5	-47.9	19.9	0.00e+00	0	35	0	771751936	63	4501
2026-01-18 00:42:55.49	75.28	86.09	-47.0	-48.5	19.2	0.00e+00	0	35	0	773849088	64	4585
2026-01-18 00:42:56.50	81.62	86.40	-47.4	-49.0	18.8	0.00e+00	0	35	0	775946240	65	4557
2026-01-18 00:42:57.50	88.97	86.65	-48.0	-49.9	17.9	0.00e+00	0	35	0	776994816	66	4762
2026-01-18 00:42:58.51	97.46	86.85	-48.1	-50.0	17.8	0.00e+00	0	35	0	779091968	67	4561
2026-01-18 00:42:59.52	106.83	86.97	-48.3	-50.1	17.7	0.00e+00	0	35	0	781189120	67	4647
2026-01-18 00:43:00.53	116.67	87.00	-47.9	-49.7	18.2	0.00e+00	0	35	0	783286272	67	4392
2026-01-18 00:43:01.54	126.43	86.94	-47.0	-48.6	19.2	0.00e+00	0	35	0	785383424	65	4345
2026-01-18 00:43:02.54	135.50	86.80	-46.8	-48.3	19.4	0.00e+00	0	35	0	786432000	65	4205
2026-01-18 00:43:03.55	143.69	86.59	-47.2	-48.7	19.0	0.00e+00	0	35	0	788529152	65	4426
2026-01-18 00:43:04.56	150.80	86.31	-47.8	-49.6	18.2	0.00e+00	0	35	0	790626304	66	4605
2026-01-18 00:43:05.57	156.84	85.99	-47.3	-48.8	18.9	0.00e+00	0	35	0	792723456	66	4231
2026-01-18 00:43:06.58	161.93	85.63	-46.9	-48.4	19.2	0.00e+00	0	35	0	794820608	65	4278
2026-01-18 00:43:07.58	166.18	85.25	-46.5	-47.9	19.8	0.00e+00	0	35	0	795869184	65	4009
2026-01-18 00:43:08.59	169.81	84.83	-45.6	-46.9	20.9	0.00e+00	0	35	0	797966336	63	4014
2026-01-18 00:43:09.60	172.89	84.41	-45.9	-47.2	20.5	0.00e+00	0	35	0	800063488	63	4185
2026-01-18 00:43:10.61	175.52	83.97	-47.0	-48.5	19.3	0.00e+00	0	35	0	802160640	64	4588
2026-01-18 00:43:11.62	177.80	83.51	-48.2	-50.1	17.7	0.00e+00	0	35	0	804257792	67	4618
2026-01-18 00:43:12.62	179.75	83.06	-49.7	-52.2	15.8	0.00e+00	0	35	0	806354944	69	5266
2026-01-18 00:43:13.63	181.48	82.59	-49.9	-52.5	15.3	0.00e+00	0	35	0	807403520	70	5141
2026-01-18 00:43:14.64	183.00	82.12	-49.5	-51.9	16.1	0.00e+00	0	35	0	809500672	70	4760
2026-01-18 00:43:15.65	184.34	81.65	-49.1	-51.3	16.6	0.00e+00	0	35	0	811597824	70	4486
2026-01-18 00:43:16.66	185.55	81.17	-47.7	-49.4	18.4	0.00e+00	0	35	0	813694976	67	4243
2026-01-18 00:43:17.66	186.61	80.70	-46.8	-48.2	19.4	0.00e+00	0	35	0	814743552	65	4163
2026-01-18 00:43:18.67	187.58	80.21	-46.5	-47.8	19.9	0.00e+00	0	35	0	816840704	64	4240
2026-01-18 00:43:19.68	188.46	79.73	-46.0	-47.3	20.5	0.00e+00	0	35	0	818937856	63	4218
2026-01-18 00:43:20.69	189.26	79.25	-46.6	-48.0	19.9	0.00e+00	0	35	0	821035008	63	4562
2026-01-18 00:43:21.69	189.98	78.77	-47.8	-49.5	18.4	0.00e+00	0	35	0	823132160	66	4594
2026-01-18 00:43:22.70	190.65	78.28	-48.2	-50.0	17.8	0.00e+00	0	35	0	824180736	66	4858
2026-01-18 00:43:23.71	191.26	77.80	-48.9	-51.0	16.9	0.00e+00	0	35	0	826277888	68	4864
2026-01-18 00:43:24.72	191.83	77.31	-50.4	-53.4	14.5	0.00e+00	0	35	0	828375040	71	5394
2026-01-18 00:43:25.72	192.34	76.83	-50.1	-52.8	15.1	0.00e+00	0	35	0	830472192	71	5027
2026-01-18 00:43:26.73	192.83	76.35	-49.9	-52.4	15.4	0.00e+00	0	35	0	832569344	71	4810
2026-01-18 00:43:27.74	193.28	75.87	-49.3	-51.7	16.2	0.00e+00	0	35	0	834666496	70	4653
2026-01-18 00:43:28.75	193.70	75.38	-49.6	-52.1	15.8	0.00e+00	0	35	0	835715072	70	4875
2026-01-18 00:43:29.76	194.10	74.90	-50.3	-53.1	14.9	0.00e+00	0	35	0	837812224	71	5213
2026-01-18 00:43:30.77	194.47	74.42	-49.3	-51.6	16.2	0.00e+00	0	35	0	839909376	70	4612
2026-01-18 00:43:31.78	194.81	73.95	-47.2	-48.7	19.0	0.00e+00	0	35	0	842006528	66	4163
2026-01-18 00:43:32.78	195.14	73.47	-46.2	-47.6	20.0	0.00e+00	0	35	0	843055104	64	4108
2026-01-18 00:43:33.79	195.44	73.00	-46.2	-47.5	20.3	0.00e+00	0	35	0	845152256	64	4065
2026-01-18 00:43:34.80	195.73	72.52	-46.2	-47.5	20.3	0.00e+00	0	35	0	847249408	63	4302
2026-01-18 00:43:35.81	196.01	72.05	-46.1	-47.4	20.4	0.00e+00	0	35	0	849346560	63	4262
2026-01-18 00:43:36.82	196.27	71.58	-45.7	-47.0	20.8	0.00e+00	0	35	0	851443712	63	4055
2026-01-18 00:43:37.83	196.51	71.11	-45.8	-47.1	20.8	0.00e+00	0	35	0	853540864	63	4112
2026-01-18 00:43:38.83	196.74	70.65	-47.4	-49.0	18.7	0.00e+00	0	35	0	854589440	65	4575
2026-01-18 00:43:39.84	196.97	70.18	-48.5	-50.5	17.4	0.00e+00	0	35	0	856686592	67	4826
2026-01-18 00:43:40.85	197.18	69.72	-47.6	-49.3	18.6	0.00e+00	0	35	0	858783744	67	4196
2026-01-18 00:43:41.86	197.38	69.26	-47.5	-49.1	18.7	0.00e+00	0	35	0	860880896	66	4373
2026-01-18 00:43:42.87	197.57	68.80	-48.9	-51.0	16.9	0.00e+00	0	35	0	862978048	68	4850
2026-01-18 00:43:43.88	197.75	68.34	-50.6	-53.8	14.2	7.00e-07	0	35	0	864026624	71	5621
2026-01-18 00:43:44.88	197.93	67.89	-51.1	-54.6	13.1	3.58e-05	0	35	0	866123776	72	5843
2026-01-18 00:43:45.89	198.10	67.44	-50.3	-53.2	14.5	4.50e-06	0	35	0	868220928	72	4958
2026-01-18 00:43:46.90	198.26	66.98	-49.7	-52.2	15.7	0.00e+00	0	35	0	870318080	71	4684
2026-01-18 00:43:47.91	198.41	66.54	-49.8	-52.3	15.5	0.00e+00	0	35	0	871366656	71	4735
2026-01-18 00:43:48.92	198.56	66.09	-49.4	-51.7	16.2	0.00e+00	0	35	0	873463808	70	4664
2026-01-18 00:43:49.92	198.70	65.65	-49.3	-51.6	16.3	0.00e+00	0	35	0	875560960	70	4626
2026-01-18 00:43:50.93	198.84	65.21	-47.3	-48.9	18.8	0.00e+00	0	35	0	877658112	66	4268
2026-01-18 00:43:51.94	198.97	64.77	-45.8	-47.0	20.7	0.00e+00	0	35	0	879755264	63	4091
2026-01-18 00:43:52.95	199.10	64.33	-45.3	-46.4	21.3	0.00e+00	0	35	0	881852416	62	4042
2026-01-18 00:43:53.96	199.22	63.90	-45.4	-46.6	21.2	0.00e+00	0	35	0	882900992	62	4108
2026-01-18 00:43:54.96	199.34	63.47	-44.8	-45.9	21.7	0.00e+00	0	35	0	884998144	61	4034
2026-01-18 00:43:55.97	199.45	63.04	-44.6	-45.7	22.0	0.00e+00	0	35	0	887095296	61	3934
2026-01-18 00:43:56.98	199.56	62.61	-44.6	-45.7	22.0	0.00e+00	0	35	0	889192448	61	3922
2026-01-18 00:43:57.99	199.67	62.19	-44.5	-45.5	22.1	0.00e+00	0	35	0	891289600	61	3866
2026-01-18 00:43:59.00	199.77	61.77	-45.0	-46.1	21.0	0.00e+00	0	35	0	892338176	61	4131
2026-01-18 00:44:00.00	199.87	61.35	-44.7	-45.8	21.9	0.00e+00	0	35	0	894435328	60	4198
2026-01-18 00:44:01.01	199.97	60.94	-45.8	-47.1	20.7	0.00e+00	0	35	0	896532480	62	4345
2026-01-18 00:44:02.02	200.06	60.52	-46.7	-48.1	19.7	0.00e+00	0	35	0	898629632	63	4620
2026-01-18 00:44:03.03	200.15	60.11	-46.6	-48.0	19.7	0.00e+00	0	35	0	900726784	64	4331
2026-01-18 00:44:04.04	200.24	59.70	-46.7	-48.1	19.6	0.00e+00	0	35	0	901775360	64	4378
2026-01-18 00:44:05.04	200.33	59.30	-47.4	-49.0	18.7	0.00e+00	0	35	0	903872512	65	4587
2026-01-18 00:44:06.05	200.41	58.90	-48.3	-50.2	17.5	0.00e+00	0	35	0	905969664	67	4668
2026-01-18 00:44:07.06	200.49	58.49	-49.1	-51.3	16.6	0.00e+00	0	35	0	908066816	68	5030
2026-01-18 00:44:08.06	200.57	58.10	-50.0	-52.6	15.3	0.00e+00	0	35	0	910163968	70	5213
2026-01-18 00:44:09.07	200.64	57.70	-50.6	-53.9	13.8	0.00e+00	0	35	0	911212544	72	5362
2026-01-18 00:44:10.08	200.72	57.31	-50.0	-52.7	15.0	1.50e-06	0	35	0	913309696	71	4975
2026-01-18 00:44:11.09	200.79	56.92	-48.2	-50.0	17.7	0.00e+00	0	35	0	915406848	68	4326
2026-01-18 00:44:12.10	200.86	56.53	-47.1	-48.6	19.0	0.00e+00	0	35	0	917504000	66	4140
2026-01-18 00:44:13.10	200.93	56.15	-47.2	-48.7	19.0	0.00e+00	0	35	0	919601152	66	4179
2026-01-18 00:44:14.11	200.99	55.77	-46.7	-48.1	19.6	0.00e+00	0	35	0	920649728	65	4124
2026-01-18 00:44:15.12	201.06	55.39	-46.0	-47.3	20.3	0.00e+00	0	35	0	922746880	64	3976
2026-01-18 00:44:16.13	201.12	55.01	-46.1	-47.5	20.3	0.00e+00	0	35	0	924844032	63	4297
2026-01-18 00:44:17.13	201.18	54.64	-46.6	-48.0	19.7	0.00e+00	0	35	0	926941184	63	4593
2026-01-18 00:44:18.14	201.24	54.27	-46.7	-48.2	19.4	0.00e+00	0	35	0	929038336	64	4435
2026-01-18 00:44:19.15	201.30	53.90	-46.3	-47.7	19.8	0.00e+00	0	35	0	930086912	64	4171
2026-01-18 00:44:20.16	201.36	53.53	-45.6	-46.9	20.8	0.00e+00	0	35	0	932184064	63	4011
2026-01-18 00:44:21.16	201.42	53.17	-45.3	-46.5	21.2	0.00e+00	0	35	0	934281216	62	4074
2026-01-18 00:44:22.17	201.47	52.81	-45.4	-46.5	21.1	0.00e+00	0	35	0	936378368	62	4090
2026-01-18 00:44:23.18	201.53	52.45	-46.3	-47.7	20.0	0.00e+00	0	35	0	938475520	63	4426
2026-01-18 00:44:24.19	201.58	52.09	-47.3	-49.0	18.8	0.00e+00	0	35	0	939524096	65	4553
2026-01-18 00:44:25.20	201.63	51.74	-48.0	-49.9	17.8	0.00e+00	0	35	0	941621248	66	4773
2026-01-18 00:44:26.20	201.68	51.39	-48.1	-50.0	17.8	0.00e+00	0	35	0	943718400	66	4826
2026-01-18 00:44:27.21	201.73	51.04	-48.3	-50.3	17.4	0.00e+00	0	35	0	945815552	67	4715
2026-01-18 00:44:28.22	201.78	50.70	-48.3	-50.2	17.5	0.00e+00	0	35	0	947912704	67	4668
2026-01-18 00:44:29.23	201.82	50.35	-48.3	-50.2	17.5	0.00e+00	0	35	0	948961280	67	4685
2026-01-18 00:44:30.24	201.87	50.01	-48.3	-50.2	17.5	0.00e+00	0	35	0	951058432	67	4679
2026-01-18 00:44:31.24	201.91	49.67	-48.7	-50.7	16.9	0.00e+00	0	35	0	953155584	67	4969
2026-01-18 00:44:32.25	201.96	49.34	-49.4	-51.8	16.0	0.00e+00	0	35	0	955252736	69	4984
2026-01-18 00:44:33.26	202.00	49.00	-50.5	-53.8	14.0	0.00e+00	0	35	0	957349888	71	5622
2026-01-18 00:44:34.27	202.04	48.67	-51.8	-56.8	10.8	7.23e-04	0	35	0	958398464	74	6654
2026-01-18 00:44:35.28	202.09	48.34	-51.0	-54.8	12.7	2.20e-03	0	35	0	960495616	74	5314
2026-01-18 00:44:36.28	202.13	48.02	-49.4	-51.9	15.8	0.00e+00	0	35	0	962592768	70	4776
2026-01-18 00:44:37.29	202.17	47.70	-48.2	-50.1	17.6	0.00e+00	0	35	0	964689920	68	4363
2026-01-18 00:44:38.30	202.21	47.38	-47.9	-49.6	18.0	0.00e+00	0	35	0	966787072	67	4379
2026-01-18 00:44:39.31	202.25	47.06	-47.6	-49.3	18.4	0.00e+00	0	35	0	967835648	67	4203
2026-01-18 00:44:40.31	202.28	46.74	-47.3	-48.9	18.8	0.00e+00	0	35	0	969932800	66	4247
2026-01-18 00:44:41.32	202.32	46.43	-47.7	-49.5	18.2	0.00e+00	0	35	0	972029952	66	4550
2026-01-18 00:44:42.33	202.36	46.12	-48.4	-50.4	17.2	0.00e+00	0	35	0	974127104	67	4808
2026-01-18 00:44:43.34	202.39	45.81	-48.4	-50.5	17.2	0.00e+00	0	35	0	976224256	67	4820
2026-01-18 00:44:44.35	202.43	45.50	-48.3	-50.2	17.4	0.00e+00	0	35	0	977272832	67	4699
2026-01-18 00:44:45.36	202.46	45.19	-48.1	-50.0	17.6	0.00e+00	0	35	0	979369984	67	4594
2026-01-18 00:44:46.36	202.50	44.89	-47.5	-49.2	18.4	0.00e+00	0	35	0	981467136	66	4415
2026-01-18 00:44:47.37	202.53	44.59	-46.8	-48.3	19.3	0.00e+00	0	35	0	983564288	65	4204
2026-01-18 00:44:48.38	202.56	44.30	-46.4	-47.8	19.7	0.00e+00	0	35	0	985661440	64	4197
2026-01-18 00:44:49.39	202.60	44.00	-45.6	-46.9	20.7	0.00e+00	0	35	0	986710016	63	4011
2026-01-18 00:44:50.40	202.63	43.71	-44.9	-46.0	21.5	0.00e+00	0	35	0	988807168	61	4067
2026-01-18 00:44:51.40	202.66	43.42	-44.9	-46.0	21.5	0.00e+00	0	35	0	990904320	61	4085
2026-01-18 00:44:52.41	202.69	43.13	-45.5	-46.7	20.9	0.00e+00	0	35	0	993001472	61	4418
2026-01-18 00:44:53.42	202.72	42.84	-46.5	-48.0	19.7	0.00e+00	0	35	0	995098624	63	4557
2026-01-18 00:44:54.42	202.75	42.56	-47.4	-49.1	18.5	0.00e+00	0	35	0	997195776	65	4616
2026-01-18 00:44:55.43	202.78	42.28	-48.3	-50.4	17.3	0.00e+00	0	35	0	998244352	67	4791
2026-01-18 00:44:56.44	202.81	42.00	-48.5	-50.7	16.9	0.00e+00	0	35	0	1000341504	67	4930
2026-01-18 00:44:57.45	202.84	41.72	-48.3	-50.3	17.3	0.00e+00	0	35	0	1002438656	67	4745
2026-01-18 00:44:58.46	202.87	41.44	-47.9	-49.8	17.8	0.00e+00	0	35	0	1004535808	67	4471
2026-01-18 00:44:59.46	202.90	41.17	-47.5	-49.2	18.3	0.00e+00	0	35	0	1005584384	67	4191
2026-01-18 00:45:00.47	202.92	40.90	-47.1	-48.7	18.8	0.00e+00	0	35	0	1007681536	66	4177
2026-01-18 00:45:01.48	202.95	40.63	-46.8	-48.3	19.2	0.00e+00	0	35	0	1009778688	65	4234
2026-01-18 00:45:02.49	202.98	40.36	-46.8	-48.3	19.3	0.00e+00	0	35	0	1011875840	65	4203
2026-01-18 00:45:03.50	203.00	40.09	-46.7	-48.2	19.4	0.00e+00	0	35	0	1013972992	65	4163
2026-01-18 00:45:04.50	203.03	39.83	-46.9	-48.4	19.2	0.00e+00	0	35	0	1015021568	65	4258
2026-01-18 00:45:05.51	203.05	39.57	-47.5	-49.2	18.4	0.00e+00	0	35	0	1017118720	65	4694
2026-01-18 00:45:06.52	203.08	39.31	-48.5	-50.5	17.1	0.00e+00	0	35	0	1019215872	67	4852
2026-01-18 00:45:07.53	203.10	39.05	-49.4	-51.9	15.8	0.00e+00	0	35	0	1021313024	69	5067
2026-01-18 00:45:08.54	203.13	38.79	-50.3	-53.4	14.3	0.00e+00	0	35	0	1023410176	71	5366
2026-01-18 00:45:09.54	203.15	38.54	-50.8	-54.4	13.2	9.10e-06	0	35	0	1025507328	72	5717
2026-01-18 00:45:10.55	203.18	38.29	-51.0	-54.8	12.7	5.64e-05	0	35	0	1026555904	72	5989
2026-01-18 00:45:11.56	203.20	38.04	-50.9	-54.7	12.9	8.16e-05	0	35	0	1028653056	72	5856
2026-01-18 00:45:12.57	203.22	37.79	-50.5	-53.9	13.7	1.29e-05	0	35	0	1030750208	72	5349
2026-01-18 00:45:13.58	203.25	37.54	-50.2	-53.3	14.2	3.00e-06	0	35	0	1032847360	72	5023
2026-01-18 00:45:14.58	203.27	37.30	-50.0	-52.8	14.8	1.50e-06	0	35	0	1033895936	71	5020
2026-01-18 00:45:15.59	203.29	37.05	-49.4	-51.8	15.8	0.00e+00	0	35	0	1035993088	70	4740
2026-01-18 00:45:16.60	203.32	36.81	-49.1	-51.4	16.2	7.00e-07	0	35	0	1038090240	70	4545
2026-01-18 00:45:17.61	203.34	36.57	-48.7	-50.8	16.8	0.00e+00	0	35	0	1040187392	69	4462
2026-01-18 00:45:18.62	203.36	36.33	-48.8	-50.9	16.7	0.00e+00	0	35	0	1042284544	69	4527
2026-01-18 00:45:19.62	203.38	36.10	-48.9	-51.1	16.6	0.00e+00	0	35	0	1044381696	69	4611
2026-01-18 00:45:20.63	203.40	35.86	-48.8	-51.0	16.6	0.00e+00	0	35	0	1045430272	69	4570
2026-01-18 00:45:21.64	203.42	35.63	-48.9	-51.2	16.5	0.00e+00	0	35	0	1047527424	69	4662
2026-01-18 00:45:22.65	203.44	35.40	-49.2	-51.6	16.0	0.00e+00	0	35	0	1049624576	69	4916
2026-01-18 00:45:23.65	203.46	35.17	-49.9	-52.6	15.0	0.00e+00	0	35	0	1051721728	70	5200
2026-01-18 00:45:24.66	203.48	34.94	-50.5	-53.7	13.9	7.00e-07	0	35	0	1053818880	71	5588
2026-01-18 00:45:25.66	203.50	34.72	-51.1	-55.0	12.4	4.88e-05	0	35	0	1054867456	72	6118
2026-01-18 00:45:26.67	203.52	34.49	-51.4	-55.8	11.6	3.98e-04	0	35	0	1056964608	73	6338
2026-01-18 00:45:27.68	203.54	34.27	-51.7	-56.5	11.0	1.44e-03	0	35	0	1059061760	73	6812
2026-01-18 00:45:28.69	203.56	34.05	-51.6	-56.4	11.0	2.38e-03	0	35	0	1061158912	74	6385
2026-01-18 00:45:29.70	203.58	33.83	-51.5	-56.0	11.5	1.39e-03	0	35	0	1062207488	74	6083
2026-01-18 00:45:30.70	203.60	33.61	-51.1	-55.0	12.4	3.37e-04	0	35	0	1064304640	74	5446
2026-01-18 00:45:31.72	203.62	33.39	-50.7	-54.2	13.2	3.05e-05	0	35	0	1066401792	73	5256
2026-01-18 00:45:32.72	203.64	33.18	-50.3	-53.5	13.9	4.50e-06	0	35	0	1068498944	72	5146
2026-01-18 00:45:33.73	203.66	32.96	-50.3	-53.4	14.1	2.20e-06	0	35	0	1070596096	72	5064
2026-01-18 00:45:34.74	203.67	32.75	-49.9	-52.6	14.9	0.00e+00	0	35	0	1072693248	71	4910
2026-01-18 00:45:35.75	203.69	32.54	-49.4	-51.9	15.7	0.00e+00	0	35	0	1073741824	70	4769
2026-01-18 00:45:36.76	203.71	32.33	-49.0	-51.3	16.3	0.00e+00	0	35	0	1075838976	70	4452
2026-01-18 00:45:37.76	203.73	32.12	-48.8	-51.0	16.6	0.00e+00	0	35	0	1077936128	69	4573
2026-01-18 00:45:38.77	203.74	31.92	-48.9	-51.1	16.5	0.00e+00	0	35	0	1080033280	69	4603
2026-01-18 00:45:39.78	203.76	31.71	-48.7	-50.8	16.8	0.00e+00	0	35	0	1082130432	69	4462
2026-01-18 00:45:40.79	203.78	31.51	-48.8	-51.0	16.6	0.00e+00	0	35	0	1083179008	69	4569
2026-01-18 00:45:41.79	203.80	31.31	-48.9	-51.1	16.5	0.00e+00	0	35	0	1085276160	69	4604
2026-01-18 00:45:42.80	203.81	31.11	-49.1	-51.4	16.1	0.00e+00	0	35	0	1087373312	69	4798
2026-01-18 00:45:43.81	203.83	30.91	-49.4	-51.9	15.6	0.00e+00	0	35	0	1089470464	69	5100
2026-01-18 00:45:44.82	203.85	30.71	-49.7	-52.4	15.2	0.00e+00	0	35	0	1091567616	69	5364
2026-01-18 00:45:45.82	203.86	30.51	-49.8	-52.6	14.9	0.00e+00	0	35	0	1092616192	70	5180
2026-01-18 00:45:46.83	203.88	30.32	-49.9	-52.8	14.7	0.00e+00	0	35	0	1094713344	70	5331
2026-01-18 00:45:47.84	203.89	30.12	-50.0	-52.9	14.6	0.00e+00	0	35	0	1096810496	70	5358
2026-01-18 00:45:48.85	203.91	29.93	-49.9	-52.8	14.7	0.00e+00	0	35	0	1098907648	70	5318
2026-01-18 00:45:49.86	203.93	29.74	-49.9	-52.8	14.8	0.00e+00	0	35	0	1101004800	70	5298
2026-01-18 00:45:50.86	203.94	29.55	-49.9	-52.7	14.8	0.00e+00	0	35	0	1102053376	70	5266
2026-01-18 00:45:51.87	203.96	29.36	-49.8	-52.6	14.9	0.00e+00	0	35	0	1104150528	70	5187
2026-01-18 00:45:52.88	203.97	29.17	-49.7	-52.4	15.1	7.00e-07	0	35	0	1106247680	70	5097
2026-01-18 00:45:53.89	203.99	28.99	-49.4	-51.9	15.6	0.00e+00	0	35	0	1108344832	70	4791
2026-01-18 00:45:54.90	204.00	28.80	-49.1	-51.5	16.1	0.00e+00	0	35	0	1110441984	70	4562
2026-01-18 00:45:55.90	204.02	28.62	-48.9	-51.1	16.4	0.00e+00	0	35	0	1111490560	69	4640
2026-01-18 00:45:56.91	204.03	28.44	-48.8	-51.0	16.5	0.00e+00	0	35	0	1113587712	69	4564
2026-01-18 00:45:57.92	204.05	28.25	-48.7	-50.9	16.5	0.00e+00	0	35	0	1115684864	69	4538
2026-01-18 00:45:58.93	204.06	28.07	-48.5	-50.6	16.9	0.00e+00	0	35	0	1117782016	69	4373
2026-01-18 00:45:59.94	204.07	27.89	-48.4	-50.5	17.0	0.00e+00	0	35	0	1119879168	68	4561
2026-01-18 00:46:00.94	204.09	27.72	-47.9	-49.7	17.7	0.00e+00	0	35	0	1120927744	67	4437
2026-01-18 00:46:01.95	204.10	27.54	-47.6	-49.4	17.9	0.00e+00	0	35	0	1123024896	67	4287
2026-01-18 00:46:02.96	204.12	27.36	-47.6	-49.3	18.0	0.00e+00	0	35	0	1125122048	67	4236
2026-01-18 00:46:03.97	204.13	27.19	-47.1	-48.8	18.6	0.00e+00	0	35	0	1127219200	66	4198
2026-01-18 00:46:04.98	204.15	27.01	-47.0	-48.7	18.7	0.00e+00	0	35	0	1129316352	66	4157
2026-01-18 00:46:05.98	204.16	26.84	-47.0	-48.6	18.7	0.00e+00	0	35	0	1130364928	66	4145
2026-01-18 00:46:06.99	204.17	26.67	-46.9	-48.5	18.8	0.00e+00	0	35	0	1132462080	65	4336
2026-01-18 00:46:08.00	204.19	26.50	-47.0	-48.6	18.7	0.00e+00	0	35	0	1134559232	65	4371
2026-01-18 00:46:09.01	204.20	26.33	-46.9	-48.5	18.8	0.00e+00	0	35	0	1136656384	65	4329
2026-01-18 00:46:10.02	204.21	26.16	-46.9	-48.5	18.9	0.00e+00	0	35	0	1138753536	65	4300
2026-01-18 00:46:11.02	204.23	26.00	-47.0	-48.6	18.8	0.00e+00	0	35	0	1140850688	65	4363
2026-01-18 00:46:12.03	204.24	25.83	-47.1	-48.8	18.6	0.00e+00	0	35	0	1141899264	65	4449
2026-01-18 00:46:13.04	204.25	25.67	-47.0	-48.6	18.7	0.00e+00	0	35	0	1143996416	65	4375
2026-01-18 00:46:14.05	204.26	25.50	-46.9	-48.6	18.7	0.00e+00	0	35	0	1146093568	65	4361
2026-01-18 00:46:15.06	204.28	25.34	-46.9	-48.5	18.8	0.00e+00	0	35	0	1148190720	65	4322
2026-01-18 00:46:16.06	204.29	25.18	-46.8	-48.4	18.9	0.00e+00	0	35	0	1149239296	65	4283
2026-01-18 00:46:17.07	204.30	25.02	-46.9	-48.5	18.8	0.00e+00	0	35	0	1151336448	65	4310
2026-01-18 00:46:18.08	204.32	24.86	-46.8	-48.4	18.9	0.00e+00	0	35	0	1153433600	65	4247
2026-01-18 00:46:19.09	204.33	24.70	-46.7	-48.2	19.1	0.00e+00	0	35	0	1155530752	65	4183
2026-01-18 00:46:20.09	204.34	24.54	-46.6	-48.2	19.1	0.00e+00	0	35	0	1157627904	65	4172
2026-01-18 00:46:21.10	204.35	24.38	-46.7	-48.3	19.0	0.00e+00	0	35	0	1158676480	65	4205
2026-01-18 00:46:22.11	204.36	24.22	-46.4	-47.9	19.4	0.00e+00	0	35	0	1160773632	64	4254
2026-01-18 00:46:23.12	204.38	24.07	-46.3	-47.7	19.5	0.00e+00	0	35	0	1162870784	64	4182
2026-01-18 00:46:24.13	204.39	23.91	-46.2	-47.6	19.5	0.00e+00	0	35	0	1164967936	64	4121
2026-01-18 00:46:25.13	204.40	23.76	-46.2	-47.7	19.6	0.00e+00	0	35	0	1167065088	64	4151
2026-01-18 00:46:26.14	204.41	23.61	-46.0	-47.4	19.8	0.00e+00	0	35	0	1169162240	64	4028
2026-01-18 00:46:27.15	204.42	23.46	-45.8	-47.1	20.2	0.00e+00	0	35	0	1170210816	63	4143
2026-01-18 00:46:28.16	204.44	23.31	-45.8	-47.2	20.2	0.00e+00	0	35	0	1172307968	63	4146
2026-01-18 00:46:29.17	204.45	23.16	-45.7	-47.0	20.3	0.00e+00	0	35	0	1174405120	63	4083
2026-01-18 00:46:30.09	204.46	23.02	-45.6	-46.9	20.4	0.00e+00	0	35	0	1176502272	63	4029
2026-01-18 00:46:31.10	204.47	22.87	-45.7	-47.0	20.3	0.00e+00	0	35	0	1177550848	63	4065
2026-01-18 00:46:32.11	204.48	22.72	-45.6	-46.9	20.4	0.00e+00	0	35	0	1179648000	63	4033
2026-01-18 00:46:33.12	204.49	22.58	-45.5	-46.8	20.4	0.00e+00	0	35	0	1181745152	63	3981
2026-01-18 00:46:34.12	204.50	22.43	-45.6	-46.9	20.4	0.00e+00	0	35	0	1183842304	63	4010
2026-01-18 00:46:35.13	204.51	22.29	-45.6	-46.9	20.4	0.00e+00	0	35	0	1185939456	63	4017
2026-01-18 00:46:36.14	204.53	22.14	-45.6	-46.9	20.4	0.00e+00	0	35	0	1188036608	63	4021
2026-01-18 00:46:37.15	204.54	22.00	-45.7	-47.0	20.2	0.00e+00	0	35	0	1189085184	63	4076
2026-01-18 00:46:38.16	204.55	21.86	-45.8	-47.1	20.1	0.00e+00	0	35	0	1191182336	63	4138
2026-01-18 00:46:39.16	204.56	21.72	-45.8	-47.1	20.2	0.00e+00	0	35	0	1193279488	63	4123
2026-01-18 00:46:40.17	204.57	21.57	-45.9	-47.3	20.0	0.00e+00	0	35	0	1195376640	63	4204
2026-01-18 00:46:41.18	204.58	21.43	-45.9	-47.2	20.0	0.00e+00	0	35	0	1197473792	63	4181
2026-01-18 00:46:42.19	204.59	21.29	-46.0	-47.4	19.9	0.00e+00	0	35	0	1198522368	63	4245
2026-01-18 00:46:43.19	204.60	21.16	-46.0	-47.4	19.8	0.00e+00	0	35	0	1200619520	63	4275
2026-01-18 00:46:44.20	204.61	21.02	-46.1	-47.5	19.8	0.00e+00	0	35	0	1202716672	63	4306
2026-01-18 00:46:45.21	204.62	20.88	-46.2	-47.7	19.6	0.00e+00	0	35	0	1204813824	63	4407
2026-01-18 00:46:46.22	204.63	20.74	-46.2	-47.6	19.6	0.00e+00	0	35	0	1205862400	63	4388
2026-01-18 00:46:47.23	204.64	20.61	-46.3	-47.7	19.5	0.00e+00	0	35	0	1207959552	63	4430
2026-01-18 00:46:48.23	204.65	20.47	-46.2	-47.7	19.5	0.00e+00	0	35	0	1210056704	63	4420
2026-01-18 00:46:49.24	204.66	20.34	-46.3	-47.7	19.5	0.00e+00	0	35	0	1212153856	63	4431
2026-01-18 00:46:50.25	204.67	20.21	-46.4	-47.9	19.3	0.00e+00	0	35	0	1214251008	63	4524
2026-01-18 00:46:51.26	204.69	20.07	-46.5	-48.0	19.3	0.00e+00	0	35	0	1216348160	63	4555
2026-01-18 00:46:52.27	204.70	19.94	-46.3	-47.8	19.4	0.00e+00	0	35	0	1217396736	63	4480
2026-01-18 00:46:53.28	204.71	19.81	-46.3	-47.8	19.4	0.00e+00	0	35	0	1219493888	63	4486
2026-01-18 00:46:54.29	204.72	19.68	-46.5	-48.0	19.2	0.00e+00	0	35	0	1221591040	63	4587
2026-01-18 00:46:55.29	204.73	19.55	-46.4	-47.9	19.3	0.00e+00	0	35	0	1223688192	63	4537
2026-01-18 00:46:56.30	204.74	19.42	-46.5	-48.1	19.1	0.00e+00	0	35	0	1225785344	63	4617
2026-01-18 00:46:57.31	204.74	19.29	-46.6	-48.2	19.1	0.00e+00	0	35	0	1226833920	63	4655
2026-01-18 00:46:58.32	204.75	19.16	-46.5	-48.1	19.1	0.00e+00	0	35	0	1228931072	63	4608
2026-01-18 00:46:59.33	204.76	19.04	-46.6	-48.1	19.1	0.00e+00	0	35	0	1231028224	63	4629
2026-01-18 00:47:00.33	204.77	18.91	-46.5	-48.1	19.1	0.00e+00	0	35	0	1233125376	63	4603
2026-01-18 00:47:01.34	204.78	18.78	-46.6	-48.2	19.0	0.00e+00	0	35	0	1235222528	63	4652
2026-01-18 00:47:02.35	204.79	18.66	-46.6	-48.1	19.1	0.00e+00	0	35	0	1236271104	63	4626
2026-01-18 00:47:03.36	204.80	18.53	-46.5	-48.0	19.2	0.00e+00	0	35	0	1238368256	63	4576
2026-01-18 00:47:04.37	204.81	18.41	-46.6	-48.1	19.1	0.00e+00	0	35	0	1240465408	63	4639
2026-01-18 00:47:05.37	204.82	18.29	-46.5	-48.0	19.2	0.00e+00	0	35	0	1242562560	63	4569
2026-01-18 00:47:06.38	204.83	18.16	-46.5	-48.1	19.1	0.00e+00	0	35	0	1244659712	63	4613
2026-01-18 00:47:07.38	204.84	18.04	-46.5	-48.1	19.1	0.00e+00	0	35	0	1245708288	63	4624
2026-01-18 00:47:08.39	204.85	17.92	-46.5	-48.0	19.2	0.00e+00	0	35	0	1247805440	63	4564
2026-01-18 00:47:09.40	204.86	17.80	-46.5	-48.0	19.2	0.00e+00	0	35	0	1249902592	63	4574
2026-01-18 00:47:10.41	204.87	17.68	-46.6	-48.2	19.0	0.00e+00	0	35	0	1251999744	63	4685
2026-01-18 00:47:11.42	204.88	17.56	-46.5	-48.1	19.1	0.00e+00	0	35	0	1254096896	63	4615
2026-01-18 00:47:12.43	204.89	17.44	-46.5	-48.0	19.1	0.00e+00	0	35	0	1255145472	63	4586
2026-01-18 00:47:13.43	204.90	17.32	-46.6	-48.2	19.0	0.00e+00	0	35	0	1257242624	63	4656
2026-01-18 00:47:14.44	204.90	17.20	-46.7	-48.3	18.9	0.00e+00	0	35	0	1259339776	63	4707
2026-01-18 00:47:15.45	204.91	17.08	-46.6	-48.2	18.9	0.00e+00	0	35	0	1261436928	63	4677
2026-01-18 00:47:16.46	204.92	16.97	-46.6	-48.2	18.8	0.00e+00	0	35	0	1263534080	64	4438
2026-01-18 00:47:17.46	204.93	16.85	-46.7	-48.3	18.8	0.00e+00	0	35	0	1264582656	64	4448
2026-01-18 00:47:18.47	204.94	16.73	-46.8	-48.4	18.7	0.00e+00	0	35	0	1266679808	64	4513
2026-01-18 00:47:19.48	204.95	16.62	-46.7	-48.4	18.7	0.00e+00	0	35	0	1268776960	64	4510
2026-01-18 00:47:20.49	204.96	16.50	-46.8	-48.4	18.7	0.00e+00	0	35	0	1270874112	64	4517
