passes_logs/2026/01/18/R3.2S_Murmansk/R3.2S_Murmansk__20260118_005915_AQUA_rec.log

#Pass ID: 20260118_005915_AQUA
#Satellite: AQUA
#Configuration: AQUA
#almurnet v.1.7.20251203
#Start time: 2026-01-18 00:59:15

#Version: 2.2.20231116
#Station: R3.2S_Murmansk
#Location: 33.079688 lon 68.888172 lat
#TLE: 1 27424U 02022A   26017.62394888  .00000781  00000+0  16630-3 0  9993
#TLE: 2 27424  98.4086 344.0954 0002010  75.0132 339.4723 14.61825944261279

#Time	Az	El	Level	Level2	SNR	BER	BlckErr	Temp	State	Recorded	gain1	gain2
2026-01-18 00:59:15.93	21.29	2.06	-53.4	-71.2	3.8	7.44e-01	0	33	0	0	78	27785
2026-01-18 00:59:16.94	21.34	2.12	-53.4	-70.8	3.8	7.48e-01	0	33	104	0	77	28163
2026-01-18 00:59:17.94	21.39	2.18	-53.4	-70.9	3.8	7.47e-01	0	33	104	0	77	28379
2026-01-18 00:59:18.95	21.44	2.25	-53.4	-71.1	3.8	7.45e-01	0	33	104	0	77	29329
2026-01-18 00:59:19.96	21.49	2.31	-53.4	-71.1	3.8	7.46e-01	0	33	104	0	77	29320
2026-01-18 00:59:20.97	21.54	2.37	-53.4	-70.8	3.8	7.45e-01	0	33	104	0	77	28228
2026-01-18 00:59:21.97	21.60	2.44	-53.4	-70.3	3.8	7.44e-01	0	33	104	0	77	26714
2026-01-18 00:59:22.98	21.65	2.50	-53.4	-69.8	3.8	7.46e-01	0	33	104	0	77	25106
2026-01-18 00:59:23.99	21.70	2.57	-53.4	-69.7	3.8	7.41e-01	0	33	104	0	77	24774
2026-01-18 00:59:25.00	21.75	2.63	-53.3	-68.8	3.9	7.42e-01	0	33	104	0	77	22496
2026-01-18 00:59:26.01	21.80	2.70	-53.3	-68.1	4.0	7.39e-01	0	33	104	0	77	20600
2026-01-18 00:59:27.01	21.86	2.76	-53.3	-67.7	3.9	7.38e-01	0	34	104	0	77	19828
2026-01-18 00:59:28.02	21.91	2.82	-53.3	-67.4	4.3	7.31e-01	0	33	104	0	77	19017
2026-01-18 00:59:29.03	21.96	2.89	-53.3	-67.8	4.2	7.32e-01	0	33	104	0	77	19931
2026-01-18 00:59:30.04	22.02	2.95	-53.3	-67.5	4.2	7.32e-01	0	34	104	0	77	19206
2026-01-18 00:59:31.04	22.07	3.02	-53.3	-67.5	4.2	7.33e-01	0	33	104	0	77	19365
2026-01-18 00:59:32.05	22.12	3.08	-53.3	-68.3	4.1	7.39e-01	0	33	104	0	77	21153
2026-01-18 00:59:33.06	22.18	3.15	-53.3	-68.1	4.1	7.39e-01	0	33	104	0	77	20602
2026-01-18 00:59:34.07	22.23	3.22	-53.3	-67.7	4.2	7.31e-01	0	34	104	0	77	19806
2026-01-18 00:59:35.08	22.29	3.28	-53.2	-66.1	4.8	7.16e-01	0	34	104	0	77	16391
2026-01-18 00:59:36.09	22.34	3.35	-53.2	-66.6	4.5	7.24e-01	0	34	104	0	77	17361
2026-01-18 00:59:37.09	22.39	3.41	-53.1	-64.4	5.8	6.92e-01	30	33	0	0	77	13504
2026-01-18 00:59:38.10	22.45	3.48	-53.1	-64.7	5.5	6.94e-01	46	34	0	524288	77	13961
2026-01-18 00:59:39.11	22.51	3.55	-52.9	-62.7	7.3	6.56e-01	184	34	0	2097152	77	11033
2026-01-18 00:59:40.12	22.56	3.61	-52.9	-62.7	7.1	6.61e-01	182	34	0	3670016	77	11111
2026-01-18 00:59:41.13	22.62	3.68	-52.9	-62.6	7.4	6.58e-01	184	34	0	5767168	77	10951
2026-01-18 00:59:42.13	22.67	3.75	-53.0	-63.4	6.4	6.71e-01	184	34	0	7340032	77	12063
2026-01-18 00:59:43.14	22.73	3.81	-52.9	-62.8	7.2	6.59e-01	184	34	0	9437184	77	11158
2026-01-18 00:59:44.15	22.79	3.88	-53.0	-63.2	6.8	6.64e-01	183	34	0	11534336	77	11705
2026-01-18 00:59:45.16	22.84	3.95	-53.1	-64.1	6.0	6.85e-01	184	34	0	13107200	77	13083
2026-01-18 00:59:46.17	22.90	4.02	-53.1	-64.1	6.0	6.84e-01	182	34	0	14680064	77	13033
2026-01-18 00:59:47.17	22.96	4.08	-52.9	-62.5	7.4	6.54e-01	184	34	0	16777216	77	10881
2026-01-18 00:59:48.18	23.02	4.15	-52.6	-60.8	9.0	6.29e-01	0	34	0	18874368	77	8867
2026-01-18 00:59:49.19	23.07	4.22	-52.4	-59.5	10.5	6.14e-01	0	34	0	20447232	76	8087
2026-01-18 00:59:50.20	23.13	4.29	-52.3	-59.2	10.9	6.16e-01	0	34	0	22544384	76	7843
2026-01-18 00:59:51.20	23.19	4.36	-52.4	-59.5	10.6	6.14e-01	0	34	0	24117248	76	8107
2026-01-18 00:59:52.21	23.25	4.43	-51.9	-57.7	12.4	6.08e-01	0	34	0	26214400	75	6990
2026-01-18 00:59:53.22	23.31	4.49	-52.3	-59.3	10.7	6.13e-01	0	34	0	27787264	75	8432
2026-01-18 00:59:54.23	23.37	4.56	-52.1	-58.4	11.7	6.06e-01	0	34	0	29884416	75	7547
2026-01-18 00:59:55.23	23.43	4.63	-52.3	-59.1	11.1	6.09e-01	0	34	0	31981568	75	8199
2026-01-18 00:59:56.24	23.49	4.70	-52.1	-58.5	11.6	6.08e-01	0	34	0	33554432	75	7634
2026-01-18 00:59:57.25	23.55	4.77	-52.2	-58.9	11.2	6.11e-01	0	34	0	35651584	75	8070
2026-01-18 00:59:58.26	23.61	4.84	-52.3	-59.4	10.6	6.13e-01	0	34	0	37748736	75	8514
2026-01-18 00:59:59.26	23.67	4.91	-52.5	-59.9	10.0	6.19e-01	0	34	0	39321600	75	9062
2026-01-18 01:00:00.27	23.73	4.98	-52.4	-59.8	10.2	6.20e-01	0	34	0	41418752	75	8874
2026-01-18 01:00:01.28	23.79	5.05	-52.3	-59.3	10.7	6.15e-01	0	34	0	42991616	75	8449
2026-01-18 01:00:02.29	23.85	5.12	-52.7	-61.2	8.8	6.36e-01	2	34	0	45088768	75	10494
2026-01-18 01:00:03.30	23.92	5.19	-52.9	-64.7	4.9	7.02e-01	0	34	104	46137344	76	14810
2026-01-18 01:00:04.30	23.98	5.26	-50.2	-53.3	16.9	6.04e-01	0	34	0	47185920	72	5029
2026-01-18 01:00:05.31	24.04	5.33	-48.3	-50.4	20.5	6.02e-01	0	34	0	49283072	67	4782
2026-01-18 01:00:06.32	24.10	5.41	-52.1	-58.1	12.1	6.02e-01	0	34	0	50855936	75	7289
2026-01-18 01:00:07.33	24.17	5.48	-48.0	-50.0	20.6	6.02e-01	0	34	0	52953088	68	4327
2026-01-18 01:00:08.34	24.23	5.55	-47.6	-49.4	21.3	6.02e-01	0	34	0	55050240	67	4277
2026-01-18 01:00:09.35	24.29	5.62	-47.9	-49.9	20.9	6.01e-01	0	34	0	56623104	67	4510
2026-01-18 01:00:10.35	24.36	5.69	-47.6	-49.4	21.3	6.03e-01	0	34	0	58720256	67	4285
2026-01-18 01:00:11.36	24.42	5.76	-47.5	-49.4	21.3	6.02e-01	0	34	0	60817408	67	4266
2026-01-18 01:00:12.37	24.49	5.84	-47.4	-49.3	21.5	6.01e-01	0	34	0	62390272	66	4464
2026-01-18 01:00:13.38	24.55	5.91	-47.4	-49.2	21.6	6.03e-01	0	34	0	64487424	66	4419
2026-01-18 01:00:14.39	24.62	5.98	-47.5	-49.3	21.5	6.02e-01	0	34	0	66060288	66	4489
2026-01-18 01:00:15.39	24.68	6.05	-47.4	-49.2	21.6	6.01e-01	0	34	0	68157440	66	4418
2026-01-18 01:00:16.40	24.75	6.13	-47.4	-49.2	21.7	6.02e-01	0	34	0	69730304	66	4394
2026-01-18 01:00:17.41	24.82	6.20	-47.3	-49.1	21.8	6.00e-01	0	34	0	71827456	66	4346
2026-01-18 01:00:18.41	24.88	6.27	-47.0	-48.7	22.2	6.01e-01	0	34	0	73924608	66	4166
2026-01-18 01:00:19.42	24.95	6.35	-47.1	-48.9	22.0	6.02e-01	0	34	0	76021760	66	4248
2026-01-18 01:00:20.43	25.02	6.42	-47.3	-49.1	21.8	6.02e-01	0	34	0	77594624	66	4363
2026-01-18 01:00:21.44	25.09	6.50	-47.0	-48.7	22.2	6.03e-01	0	34	0	79691776	66	4166
2026-01-18 01:00:22.45	25.16	6.57	-47.5	-49.4	21.5	6.02e-01	0	34	0	81264640	66	4508
2026-01-18 01:00:23.46	25.22	6.65	-47.1	-48.8	22.1	6.02e-01	0	34	0	83361792	66	4224
2026-01-18 01:00:24.47	25.29	6.72	-47.3	-49.1	21.8	6.02e-01	0	34	0	84934656	66	4376
2026-01-18 01:00:25.48	25.36	6.80	-47.3	-49.0	22.0	6.02e-01	0	34	0	87031808	66	4312
2026-01-18 01:00:26.49	25.43	6.87	-47.2	-48.9	22.0	6.01e-01	0	34	0	89128960	66	4275
2026-01-18 01:00:27.49	25.50	6.95	-47.2	-48.9	22.0	6.00e-01	0	34	0	90701824	66	4286
2026-01-18 01:00:28.50	25.57	7.02	-47.3	-49.1	21.9	6.00e-01	0	34	0	92798976	66	4366
2026-01-18 01:00:29.51	25.64	7.10	-47.2	-48.9	22.1	6.02e-01	0	34	0	94371840	66	4256
2026-01-18 01:00:30.52	25.72	7.17	-47.2	-48.9	22.0	6.00e-01	0	34	0	96468992	66	4271
2026-01-18 01:00:31.52	25.79	7.25	-47.2	-48.9	22.1	6.03e-01	0	35	0	98566144	66	4266
2026-01-18 01:00:32.54	25.86	7.33	-47.2	-49.0	22.0	6.02e-01	0	34	0	100139008	66	4297
2026-01-18 01:00:33.54	25.93	7.40	-47.1	-48.8	22.3	6.02e-01	0	34	0	102236160	66	4206
2026-01-18 01:00:34.55	26.00	7.48	-47.1	-48.8	22.2	6.01e-01	0	34	0	104333312	66	4230
2026-01-18 01:00:35.56	26.08	7.56	-46.9	-48.6	22.4	6.02e-01	0	34	0	105906176	65	4348
2026-01-18 01:00:36.57	26.15	7.64	-46.9	-48.6	22.5	6.03e-01	0	34	0	108003328	65	4342
2026-01-18 01:00:37.58	26.22	7.71	-47.1	-48.8	22.3	6.01e-01	0	34	0	109576192	65	4451
2026-01-18 01:00:38.58	26.30	7.79	-46.9	-48.6	22.4	5.99e-01	0	35	0	111673344	65	4356
2026-01-18 01:00:39.59	26.37	7.87	-46.9	-48.6	22.5	6.03e-01	0	34	0	113246208	65	4346
2026-01-18 01:00:40.60	26.45	7.95	-46.9	-48.6	22.5	6.00e-01	0	34	0	115343360	65	4348
2026-01-18 01:00:41.61	26.52	8.03	-46.9	-48.6	22.5	6.01e-01	0	34	0	117440512	65	4353
2026-01-18 01:00:42.62	26.60	8.11	-46.7	-48.2	22.8	6.02e-01	0	34	0	119013376	65	4188
2026-01-18 01:00:43.63	26.68	8.18	-46.7	-48.3	22.8	6.01e-01	0	34	0	121110528	65	4207
2026-01-18 01:00:44.63	26.75	8.26	-46.8	-48.4	22.7	6.00e-01	0	34	0	123207680	65	4245
2026-01-18 01:00:45.64	26.83	8.34	-46.7	-48.3	22.8	6.04e-01	0	34	0	124780544	65	4203
2026-01-18 01:00:46.65	26.91	8.42	-46.9	-48.5	22.6	6.04e-01	0	35	0	126877696	65	4310
2026-01-18 01:00:47.66	26.99	8.50	-47.0	-48.7	22.4	6.01e-01	0	34	0	128450560	65	4402
2026-01-18 01:00:48.67	27.06	8.58	-47.1	-48.7	22.4	6.04e-01	0	35	0	130547712	65	4437
2026-01-18 01:00:49.68	27.14	8.66	-46.9	-48.5	22.7	6.02e-01	0	34	0	132644864	65	4303
2026-01-18 01:00:50.68	27.22	8.74	-46.8	-48.4	22.8	6.01e-01	0	34	0	134217728	65	4254
2026-01-18 01:00:51.69	27.30	8.83	-46.8	-48.4	22.8	6.02e-01	0	34	0	136314880	65	4251
2026-01-18 01:00:52.70	27.38	8.91	-46.8	-48.4	22.8	6.03e-01	0	35	0	137887744	65	4250
2026-01-18 01:00:53.71	27.46	8.99	-46.6	-48.2	22.9	6.03e-01	0	35	0	139984896	65	4166
2026-01-18 01:00:54.72	27.55	9.07	-46.6	-48.1	23.0	6.01e-01	0	35	0	141557760	65	4122
2026-01-18 01:00:55.73	27.63	9.15	-46.7	-48.3	22.9	6.01e-01	0	35	0	143654912	65	4199
2026-01-18 01:00:56.74	27.71	9.24	-46.6	-48.1	23.0	6.00e-01	0	35	0	145752064	65	4135
2026-01-18 01:00:57.74	27.79	9.32	-46.5	-48.1	23.1	6.01e-01	0	35	0	147324928	64	4352
2026-01-18 01:00:58.75	27.88	9.40	-46.5	-48.0	23.1	6.02e-01	0	35	0	149422080	64	4316
2026-01-18 01:00:59.76	27.96	9.48	-46.5	-48.0	23.2	6.00e-01	0	35	0	151519232	64	4323
2026-01-18 01:01:00.75	28.04	9.57	-46.2	-47.7	23.4	6.02e-01	0	35	0	153092096	64	4184
2026-01-18 01:01:01.75	28.13	9.65	-46.3	-47.8	23.4	6.03e-01	0	35	0	155189248	64	4206
2026-01-18 01:01:02.76	28.21	9.73	-46.4	-47.9	23.2	6.02e-01	0	35	0	156762112	64	4249
2026-01-18 01:01:03.77	28.30	9.82	-46.4	-47.9	23.2	6.03e-01	0	35	0	158859264	64	4280
2026-01-18 01:01:04.78	28.38	9.90	-46.4	-47.9	23.3	6.02e-01	0	35	0	160956416	64	4268
2026-01-18 01:01:05.79	28.47	9.99	-46.4	-47.9	23.3	6.02e-01	0	35	0	162529280	64	4251
2026-01-18 01:01:06.80	28.56	10.07	-46.4	-47.8	23.3	6.01e-01	0	35	0	164626432	64	4241
2026-01-18 01:01:07.81	28.64	10.16	-46.3	-47.8	23.4	6.04e-01	0	35	0	166199296	64	4219
2026-01-18 01:01:08.81	28.73	10.24	-46.4	-47.9	23.3	6.02e-01	0	35	0	168296448	64	4269
2026-01-18 01:01:09.82	28.82	10.33	-46.3	-47.8	23.4	6.03e-01	0	35	0	169869312	64	4223
2026-01-18 01:01:10.83	28.91	10.41	-46.4	-47.9	23.3	6.00e-01	0	35	0	171966464	64	4245
2026-01-18 01:01:11.84	29.00	10.50	-46.2	-47.6	23.6	6.02e-01	0	35	0	174063616	64	4128
2026-01-18 01:01:12.84	29.09	10.59	-46.1	-47.5	23.7	6.00e-01	0	35	0	175636480	64	4095
2026-01-18 01:01:13.85	29.18	10.67	-46.2	-47.6	23.6	6.01e-01	0	35	0	177733632	64	4126
2026-01-18 01:01:14.86	29.27	10.76	-46.3	-47.7	23.5	6.01e-01	0	35	0	179830784	64	4186
2026-01-18 01:01:15.87	29.36	10.85	-46.2	-47.7	23.6	6.00e-01	0	34	0	181403648	64	4148
2026-01-18 01:01:16.88	29.46	10.94	-46.1	-47.5	23.7	6.02e-01	0	35	0	183500800	64	4094
2026-01-18 01:01:17.88	29.55	11.02	-46.1	-47.5	23.7	6.02e-01	0	35	0	185073664	64	4081
2026-01-18 01:01:18.89	29.64	11.11	-46.2	-47.6	23.6	6.02e-01	0	35	0	187170816	64	4134
2026-01-18 01:01:19.90	29.74	11.20	-46.0	-47.4	23.8	6.04e-01	0	35	0	189267968	64	4042
2026-01-18 01:01:20.91	29.83	11.29	-46.0	-47.4	24.0	6.02e-01	0	35	0	190840832	63	4258
2026-01-18 01:01:21.92	29.93	11.38	-46.1	-47.5	23.9	6.02e-01	0	35	0	192937984	63	4313
2026-01-18 01:01:22.93	30.02	11.47	-46.2	-47.6	23.7	6.04e-01	0	35	0	195035136	63	4368
2026-01-18 01:01:23.93	30.12	11.56	-46.2	-47.6	23.8	6.01e-01	0	35	0	196608000	63	4369
2026-01-18 01:01:24.94	30.22	11.65	-46.2	-47.7	23.7	6.01e-01	0	35	0	198705152	63	4399
2026-01-18 01:01:25.95	30.32	11.74	-46.2	-47.6	23.8	6.01e-01	0	35	0	200278016	63	4375
2026-01-18 01:01:26.95	30.41	11.83	-46.0	-47.4	23.9	6.02e-01	0	35	0	202375168	63	4275
2026-01-18 01:01:27.96	30.51	11.92	-46.0	-47.4	23.9	6.01e-01	0	35	0	203948032	63	4288
2026-01-18 01:01:28.97	30.61	12.01	-46.0	-47.4	24.0	6.02e-01	0	35	0	206045184	63	4259
2026-01-18 01:01:29.98	30.71	12.10	-46.0	-47.4	24.0	6.03e-01	0	35	0	208142336	63	4271
2026-01-18 01:01:30.99	30.81	12.20	-46.0	-47.4	24.0	6.01e-01	0	35	0	209715200	63	4268
2026-01-18 01:01:31.99	30.92	12.29	-46.1	-47.5	23.9	6.03e-01	0	35	0	211812352	63	4302
2026-01-18 01:01:33.00	31.02	12.38	-46.0	-47.4	24.0	6.01e-01	0	35	0	213385216	63	4265
2026-01-18 01:01:34.01	31.12	12.47	-46.0	-47.4	24.0	6.02e-01	0	35	0	215482368	63	4263
2026-01-18 01:01:35.02	31.23	12.57	-46.0	-47.4	24.0	6.03e-01	0	35	0	217579520	63	4291
2026-01-18 01:01:36.02	31.33	12.66	-46.1	-47.5	23.9	6.03e-01	0	35	0	219152384	63	4315
2026-01-18 01:01:37.03	31.43	12.75	-46.1	-47.5	24.0	6.01e-01	0	35	0	221249536	63	4295
2026-01-18 01:01:38.04	31.54	12.85	-46.2	-47.6	23.8	6.00e-01	0	35	0	223346688	63	4374
2026-01-18 01:01:39.05	31.65	12.94	-46.0	-47.4	24.0	6.03e-01	0	35	0	224919552	63	4270
2026-01-18 01:01:40.06	31.75	13.04	-45.7	-47.1	24.3	6.02e-01	0	35	0	227016704	63	4101
2026-01-18 01:01:41.07	31.86	13.13	-45.7	-47.1	24.3	6.02e-01	0	35	0	228589568	63	4102
2026-01-18 01:01:42.07	31.97	13.23	-45.6	-47.0	22.6	6.03e-01	0	35	0	230686720	63	4062
2026-01-18 01:01:43.08	32.08	13.32	-45.8	-47.2	24.2	6.01e-01	0	35	0	232259584	63	4147
2026-01-18 01:01:44.09	32.19	13.42	-45.6	-46.9	24.5	6.03e-01	0	35	0	234356736	63	4043
2026-01-18 01:01:45.10	32.30	13.52	-45.7	-47.0	24.4	6.00e-01	0	35	0	236453888	63	4075
2026-01-18 01:01:46.11	32.41	13.61	-45.8	-47.1	24.3	6.00e-01	0	34	0	238026752	63	4141
2026-01-18 01:01:47.11	32.52	13.71	-45.8	-47.2	24.2	6.03e-01	0	35	0	240123904	63	4163
2026-01-18 01:01:48.12	32.64	13.81	-45.8	-47.1	24.3	6.03e-01	0	35	0	241696768	63	4141
2026-01-18 01:01:49.13	32.75	13.91	-45.7	-47.1	24.3	6.01e-01	0	35	0	243793920	63	4108
2026-01-18 01:01:50.14	32.86	14.00	-45.6	-47.0	24.4	6.03e-01	0	35	0	245891072	63	4071
2026-01-18 01:01:51.15	32.98	14.10	-45.6	-47.0	24.5	6.02e-01	0	35	0	247463936	63	4070
2026-01-18 01:01:52.15	33.10	14.20	-45.7	-47.1	24.4	6.02e-01	0	35	0	249561088	63	4112
2026-01-18 01:01:53.16	33.21	14.30	-45.7	-47.0	24.4	6.02e-01	0	35	0	251658240	63	4087
2026-01-18 01:01:54.17	33.33	14.40	-45.6	-47.0	24.4	6.03e-01	0	35	0	253231104	63	4064
2026-01-18 01:01:55.18	33.45	14.50	-45.7	-47.0	24.4	5.99e-01	0	35	0	255328256	63	4098
2026-01-18 01:01:56.18	33.57	14.60	-45.6	-46.9	24.5	6.03e-01	0	35	0	256901120	63	4026
2026-01-18 01:01:57.19	33.69	14.70	-45.5	-46.9	24.6	6.02e-01	0	34	0	258998272	63	4013
2026-01-18 01:01:58.20	33.81	14.80	-45.4	-46.8	24.5	6.04e-01	0	35	0	260571136	62	4198
2026-01-18 01:01:59.21	33.93	14.90	-45.5	-46.8	24.6	6.01e-01	0	35	0	262668288	62	4238
2026-01-18 01:02:00.21	34.05	15.01	-45.5	-46.8	24.6	6.02e-01	0	35	0	264765440	62	4236
2026-01-18 01:02:01.23	34.18	15.11	-45.5	-46.8	24.6	6.00e-01	0	35	0	266862592	62	4237
2026-01-18 01:02:02.23	34.30	15.21	-45.5	-46.8	24.7	6.01e-01	0	35	0	268435456	62	4212
2026-01-18 01:02:03.24	34.43	15.31	-45.6	-46.9	24.6	6.00e-01	0	35	0	270532608	62	4257
2026-01-18 01:02:04.25	34.55	15.42	-45.6	-47.0	24.5	6.00e-01	0	35	0	272105472	62	4310
2026-01-18 01:02:05.26	34.68	15.52	-45.6	-46.9	24.6	6.01e-01	0	35	0	274202624	62	4280
2026-01-18 01:02:06.27	34.81	15.62	-45.6	-47.0	24.5	6.02e-01	0	35	0	275775488	62	4301
2026-01-18 01:02:07.27	34.94	15.73	-45.5	-46.9	24.6	6.02e-01	0	35	0	277872640	62	4245
2026-01-18 01:02:08.28	35.07	15.83	-45.4	-46.7	24.8	6.04e-01	0	35	0	279969792	62	4163
2026-01-18 01:02:09.29	35.20	15.94	-45.5	-46.8	24.7	6.01e-01	0	35	0	281542656	62	4207
2026-01-18 01:02:10.30	35.33	16.04	-45.5	-46.8	24.7	6.02e-01	0	35	0	283639808	62	4216
2026-01-18 01:02:11.30	35.46	16.15	-45.5	-46.8	24.6	6.04e-01	0	35	0	285212672	62	4241
2026-01-18 01:02:12.31	35.59	16.26	-45.5	-46.8	24.7	6.03e-01	0	35	0	287309824	62	4219
2026-01-18 01:02:13.32	35.73	16.36	-45.5	-46.8	24.7	6.02e-01	0	35	0	288882688	62	4230
2026-01-18 01:02:14.33	35.87	16.47	-45.5	-46.8	24.6	6.03e-01	0	35	0	290979840	62	4237
2026-01-18 01:02:15.34	36.00	16.58	-45.6	-46.9	24.6	6.02e-01	0	35	0	293076992	62	4254
2026-01-18 01:02:16.35	36.14	16.68	-45.4	-46.7	24.8	6.00e-01	0	35	0	295174144	62	4161
2026-01-18 01:02:17.35	36.28	16.79	-45.5	-46.8	24.7	6.01e-01	0	35	0	296747008	62	4220
2026-01-18 01:02:18.36	36.42	16.90	-45.4	-46.7	24.8	6.04e-01	0	35	0	298844160	62	4172
2026-01-18 01:02:19.37	36.56	17.01	-45.4	-46.7	24.7	6.02e-01	0	35	0	300417024	62	4181
2026-01-18 01:02:20.38	36.70	17.12	-45.4	-46.7	24.8	6.03e-01	0	35	0	302514176	62	4157
2026-01-18 01:02:21.39	36.84	17.23	-45.4	-46.7	24.8	6.01e-01	0	35	0	304087040	62	4170
2026-01-18 01:02:22.39	36.99	17.34	-45.4	-46.7	24.8	6.03e-01	0	35	0	306184192	62	4166
2026-01-18 01:02:23.40	37.13	17.45	-45.4	-46.7	24.8	6.04e-01	0	34	0	308281344	62	4175
2026-01-18 01:02:24.41	37.28	17.56	-45.4	-46.7	24.8	6.03e-01	0	35	0	309854208	62	4173
2026-01-18 01:02:25.42	37.42	17.67	-45.5	-46.8	24.7	6.04e-01	0	35	0	311951360	62	4218
2026-01-18 01:02:26.43	37.57	17.78	-45.5	-46.9	24.6	6.01e-01	0	35	0	314048512	62	4247
2026-01-18 01:02:27.44	37.72	17.89	-45.6	-46.9	24.6	6.05e-01	0	35	0	315621376	62	4279
2026-01-18 01:02:28.44	37.87	18.01	-45.7	-47.1	24.5	6.00e-01	0	35	0	317718528	62	4353
2026-01-18 01:02:29.45	38.02	18.12	-45.5	-46.8	24.7	6.05e-01	0	35	0	319291392	62	4228
2026-01-18 01:02:30.46	38.18	18.23	-45.5	-46.8	24.7	5.99e-01	0	35	0	321388544	62	4231
2026-01-18 01:02:31.47	38.33	18.35	-45.5	-46.8	24.7	6.03e-01	0	35	0	323485696	62	4238
2026-01-18 01:02:32.48	38.49	18.46	-45.4	-46.7	24.8	6.03e-01	0	35	0	325058560	62	4188
2026-01-18 01:02:33.49	38.64	18.57	-45.5	-46.8	24.8	6.01e-01	0	35	0	327155712	62	4201
2026-01-18 01:02:34.49	38.80	18.69	-45.6	-46.9	24.6	6.00e-01	0	35	0	328728576	62	4269
2026-01-18 01:02:35.50	38.96	18.80	-45.5	-46.8	24.8	6.02e-01	0	35	0	330825728	62	4211
2026-01-18 01:02:36.51	39.12	18.92	-45.6	-46.9	24.7	6.02e-01	0	35	0	332398592	62	4277
2026-01-18 01:02:37.51	39.28	19.03	-45.5	-46.8	24.7	6.02e-01	0	35	0	334495744	62	4237
2026-01-18 01:02:38.52	39.44	19.15	-45.4	-46.6	24.9	6.03e-01	0	35	0	336592896	62	4142
2026-01-18 01:02:39.53	39.61	19.27	-45.5	-46.8	24.8	6.03e-01	0	35	0	338690048	62	4198
2026-01-18 01:02:40.54	39.77	19.38	-45.4	-46.7	24.9	6.02e-01	0	35	0	340262912	62	4157
2026-01-18 01:02:41.55	39.94	19.50	-45.4	-46.7	24.8	6.03e-01	0	35	0	342360064	62	4186
2026-01-18 01:02:42.55	40.10	19.62	-45.4	-46.7	24.8	6.01e-01	0	35	0	343932928	62	4171
2026-01-18 01:02:43.56	40.27	19.74	-45.4	-46.7	24.8	6.01e-01	0	35	0	346030080	62	4190
2026-01-18 01:02:44.57	40.44	19.85	-45.4	-46.7	24.8	6.04e-01	0	35	0	347602944	62	4180
2026-01-18 01:02:45.58	40.62	19.97	-45.4	-46.7	24.8	6.05e-01	0	35	0	349700096	62	4192
2026-01-18 01:02:46.58	40.79	20.09	-45.4	-46.7	24.9	6.02e-01	0	35	0	351797248	62	4180
2026-01-18 01:02:47.59	40.96	20.21	-45.5	-46.8	24.8	6.03e-01	0	35	0	353370112	62	4212
2026-01-18 01:02:48.60	41.14	20.33	-45.5	-46.8	24.7	6.01e-01	0	35	0	355467264	62	4237
2026-01-18 01:02:49.60	41.32	20.45	-45.4	-46.7	24.8	6.01e-01	0	35	0	357040128	62	4191
2026-01-18 01:02:50.61	41.49	20.57	-45.5	-46.8	24.8	6.02e-01	0	35	0	359137280	62	4226
2026-01-18 01:02:51.62	41.67	20.69	-45.4	-46.7	24.9	6.03e-01	0	35	0	360710144	62	4176
2026-01-18 01:02:52.63	41.86	20.82	-45.4	-46.6	24.9	6.03e-01	0	35	0	362807296	62	4145
2026-01-18 01:02:53.64	42.04	20.94	-45.3	-46.6	25.0	6.02e-01	0	35	0	364904448	62	4123
2026-01-18 01:02:54.65	42.23	21.06	-45.6	-46.9	24.7	6.04e-01	0	35	0	367001600	62	4246
2026-01-18 01:02:55.65	42.41	21.18	-45.6	-46.9	24.7	6.02e-01	0	35	0	368574464	62	4258
2026-01-18 01:02:56.66	42.60	21.30	-45.4	-46.7	24.9	6.03e-01	0	35	0	370671616	62	4188
2026-01-18 01:02:57.67	42.79	21.43	-45.5	-46.8	24.8	6.04e-01	0	35	0	372244480	62	4201
2026-01-18 01:02:58.68	42.98	21.55	-45.4	-46.7	24.9	6.02e-01	0	35	0	374341632	62	4162
2026-01-18 01:02:59.69	43.17	21.68	-45.5	-46.8	24.8	6.03e-01	0	35	0	375914496	62	4220
2026-01-18 01:03:00.69	43.36	21.80	-45.6	-46.9	24.8	6.01e-01	0	35	0	378011648	62	4256
2026-01-18 01:03:01.70	43.56	21.93	-45.5	-46.8	24.8	6.01e-01	0	35	0	380108800	62	4233
2026-01-18 01:03:02.71	43.76	22.05	-45.5	-46.8	24.8	6.01e-01	0	35	0	381681664	62	4220
2026-01-18 01:03:03.71	43.95	22.17	-45.5	-46.8	24.8	6.01e-01	0	35	0	383778816	62	4240
2026-01-18 01:03:04.72	44.15	22.30	-45.6	-46.9	24.7	6.02e-01	0	35	0	385351680	62	4291
2026-01-18 01:03:05.73	44.36	22.43	-45.5	-46.8	24.9	6.04e-01	0	35	0	387448832	62	4213
2026-01-18 01:03:06.73	44.56	22.55	-45.4	-46.7	24.9	6.01e-01	0	35	0	389545984	62	4179
2026-01-18 01:03:07.74	44.76	22.68	-45.5	-46.7	24.9	6.00e-01	0	34	0	391118848	62	4185
2026-01-18 01:03:08.75	44.97	22.81	-45.6	-46.9	24.8	6.02e-01	0	35	0	393216000	62	4254
2026-01-18 01:03:09.76	45.18	22.94	-45.7	-47.0	24.7	6.02e-01	0	35	0	395313152	62	4305
2026-01-18 01:03:10.77	45.39	23.06	-45.7	-47.1	24.6	6.01e-01	0	35	0	396886016	62	4341
2026-01-18 01:03:11.77	45.60	23.19	-45.7	-47.0	24.6	6.02e-01	0	35	0	398983168	62	4330
2026-01-18 01:03:12.78	45.82	23.32	-45.6	-46.9	24.7	6.03e-01	0	35	0	400556032	62	4276
2026-01-18 01:03:13.79	46.03	23.45	-45.7	-47.0	24.7	6.00e-01	0	35	0	402653184	62	4299
2026-01-18 01:03:14.80	46.25	23.58	-45.7	-47.0	24.6	6.02e-01	0	35	0	404226048	62	4332
2026-01-18 01:03:15.80	46.47	23.71	-45.8	-47.1	24.6	6.02e-01	0	35	0	406323200	62	4357
2026-01-18 01:03:16.81	46.69	23.84	-45.8	-47.1	24.5	6.01e-01	0	35	0	408420352	62	4389
2026-01-18 01:03:17.82	46.92	23.97	-45.7	-47.1	24.6	6.03e-01	0	35	0	409993216	62	4342
2026-01-18 01:03:18.83	47.14	24.10	-45.7	-47.0	24.6	6.01e-01	0	35	0	412090368	62	4335
2026-01-18 01:03:19.84	47.37	24.23	-45.8	-47.1	24.5	6.04e-01	0	35	0	414187520	62	4391
2026-01-18 01:03:20.84	47.60	24.36	-45.9	-47.2	24.5	6.01e-01	0	35	0	415760384	62	4429
2026-01-18 01:03:21.85	47.83	24.49	-45.7	-47.0	24.7	6.00e-01	0	35	0	417857536	62	4308
2026-01-18 01:03:22.86	48.06	24.62	-45.7	-47.0	24.7	6.02e-01	0	35	0	419430400	62	4300
2026-01-18 01:03:23.87	48.30	24.75	-45.8	-47.2	24.6	6.00e-01	0	35	0	421527552	62	4392
2026-01-18 01:03:24.88	48.54	24.88	-45.9	-47.3	24.4	6.02e-01	0	35	0	423624704	62	4444
2026-01-18 01:03:25.88	48.77	25.01	-45.6	-46.9	24.8	6.00e-01	0	35	0	425197568	62	4248
2026-01-18 01:03:26.89	49.01	25.15	-45.6	-46.9	24.8	6.01e-01	0	35	0	427294720	62	4260
2026-01-18 01:03:27.90	49.26	25.28	-45.8	-47.1	24.6	6.02e-01	0	35	0	428867584	62	4358
2026-01-18 01:03:28.91	49.50	25.41	-45.9	-47.3	24.5	6.01e-01	0	35	0	430964736	62	4445
2026-01-18 01:03:29.92	49.75	25.54	-45.9	-47.2	24.5	6.00e-01	0	35	0	432537600	62	4418
2026-01-18 01:03:30.92	50.00	25.68	-45.9	-47.2	24.5	6.02e-01	0	35	0	434634752	62	4436
2026-01-18 01:03:31.93	50.25	25.81	-46.0	-47.3	24.4	5.99e-01	0	35	0	436731904	62	4488
2026-01-18 01:03:32.94	50.51	25.94	-46.0	-47.3	24.4	6.01e-01	0	35	0	438829056	62	4471
2026-01-18 01:03:33.95	50.76	26.08	-45.8	-47.2	24.0	6.03e-01	0	35	0	440401920	62	4393
2026-01-18 01:03:34.96	51.02	26.21	-45.8	-47.1	24.6	6.00e-01	0	35	0	442499072	62	4347
2026-01-18 01:03:35.96	51.28	26.34	-45.8	-47.1	24.6	6.03e-01	0	35	0	444071936	62	4358
2026-01-18 01:03:36.97	51.54	26.48	-45.8	-47.2	24.5	6.02e-01	0	35	0	446169088	62	4400
2026-01-18 01:03:37.98	51.81	26.61	-46.0	-47.4	24.3	6.01e-01	0	35	0	447741952	62	4524
2026-01-18 01:03:38.99	52.08	26.74	-45.9	-47.2	24.5	6.03e-01	0	35	0	449839104	62	4440
2026-01-18 01:03:40.00	52.35	26.88	-45.8	-47.1	24.6	6.03e-01	0	35	0	451936256	62	4382
2026-01-18 01:03:41.00	52.62	27.01	-45.8	-47.1	24.7	6.01e-01	0	35	0	453509120	62	4360
2026-01-18 01:03:42.01	52.89	27.15	-45.9	-47.2	24.6	6.01e-01	0	35	0	455606272	62	4416
2026-01-18 01:03:43.02	53.17	27.28	-45.8	-47.2	24.6	6.03e-01	0	35	0	457179136	62	4399
2026-01-18 01:03:44.03	53.45	27.41	-45.8	-47.1	24.7	6.04e-01	0	35	0	459276288	62	4357
2026-01-18 01:03:45.03	53.73	27.55	-45.7	-47.1	24.7	6.02e-01	0	35	0	461373440	62	4345
2026-01-18 01:03:46.04	54.01	27.68	-45.9	-47.3	24.5	6.01e-01	0	35	0	462946304	62	4452
2026-01-18 01:03:47.05	54.30	27.82	-46.0	-47.3	24.5	6.01e-01	0	35	0	465043456	62	4471
2026-01-18 01:03:48.06	54.59	27.95	-45.9	-47.2	24.6	6.01e-01	0	35	0	467140608	62	4421
2026-01-18 01:03:49.06	54.88	28.08	-45.8	-47.1	24.6	6.02e-01	0	35	0	468713472	62	4380
2026-01-18 01:03:50.07	55.17	28.22	-45.8	-47.1	24.7	6.02e-01	0	35	0	470810624	62	4361
2026-01-18 01:03:51.08	55.47	28.35	-45.9	-47.2	24.5	6.00e-01	0	35	0	472383488	62	4420
2026-01-18 01:03:52.09	55.77	28.49	-45.8	-47.1	24.6	6.04e-01	0	35	0	474480640	62	4389
2026-01-18 01:03:53.10	56.07	28.62	-45.9	-47.2	24.6	6.02e-01	0	35	0	476053504	62	4414
2026-01-18 01:03:54.11	56.37	28.75	-45.7	-47.0	24.7	6.02e-01	0	35	0	478150656	62	4333
2026-01-18 01:03:55.11	56.68	28.89	-45.7	-47.0	24.8	6.00e-01	0	35	0	480247808	62	4314
2026-01-18 01:03:56.12	56.99	29.02	-45.8	-47.1	24.7	6.00e-01	0	35	0	481820672	62	4388
2026-01-18 01:03:57.13	57.30	29.15	-45.7	-47.0	24.7	6.02e-01	0	35	0	483917824	62	4330
2026-01-18 01:03:58.13	57.61	29.29	-45.7	-47.0	24.7	6.01e-01	0	35	0	486014976	62	4311
2026-01-18 01:03:59.14	57.93	29.42	-45.9	-47.3	24.5	6.00e-01	0	35	0	487587840	62	4446
2026-01-18 01:04:00.15	58.25	29.55	-45.9	-47.3	24.5	6.03e-01	0	35	0	489684992	62	4450
2026-01-18 01:04:01.16	58.57	29.68	-45.7	-47.0	24.7	6.01e-01	0	35	0	491257856	62	4330
2026-01-18 01:04:02.17	58.90	29.82	-45.7	-47.0	24.8	6.02e-01	0	35	0	493355008	62	4313
2026-01-18 01:04:03.17	59.22	29.95	-45.8	-47.2	24.6	6.00e-01	0	35	0	495452160	62	4404
2026-01-18 01:04:04.18	59.55	30.08	-46.0	-47.3	24.5	6.00e-01	0	35	0	497025024	62	4468
2026-01-18 01:04:05.19	59.89	30.21	-45.7	-46.9	24.8	6.02e-01	0	35	0	499122176	62	4284
2026-01-18 01:04:06.20	60.22	30.34	-45.7	-47.0	24.2	6.02e-01	0	35	0	500695040	62	4329
2026-01-18 01:04:07.20	60.56	30.47	-45.8	-47.1	24.7	6.05e-01	0	35	0	502792192	62	4365
2026-01-18 01:04:08.21	60.90	30.60	-45.9	-47.2	24.6	6.03e-01	0	35	0	504365056	62	4417
2026-01-18 01:04:09.22	61.25	30.73	-45.8	-47.1	24.7	6.01e-01	0	35	0	506462208	62	4371
2026-01-18 01:04:10.23	61.60	30.86	-45.8	-47.2	24.7	6.01e-01	0	35	0	508559360	62	4393
2026-01-18 01:04:11.24	61.95	30.98	-45.7	-47.1	24.7	6.02e-01	0	35	0	510656512	62	4343
2026-01-18 01:04:12.24	62.30	31.11	-45.7	-47.0	24.8	6.01e-01	0	35	0	512229376	62	4335
2026-01-18 01:04:13.25	62.65	31.24	-45.8	-47.2	24.7	6.02e-01	0	35	0	514326528	62	4399
2026-01-18 01:04:14.26	63.01	31.37	-45.9	-47.2	24.6	6.03e-01	0	35	0	515899392	62	4416
2026-01-18 01:04:15.26	63.37	31.49	-45.6	-46.8	24.9	6.01e-01	0	35	0	517996544	62	4235
2026-01-18 01:04:16.27	63.73	31.62	-45.6	-46.9	24.9	6.02e-01	0	35	0	519569408	62	4257
2026-01-18 01:04:17.28	64.10	31.74	-45.8	-47.1	24.8	6.02e-01	0	35	0	521666560	62	4363
2026-01-18 01:04:18.29	64.47	31.87	-45.6	-46.9	24.9	6.00e-01	0	35	0	523763712	62	4279
2026-01-18 01:04:19.30	64.85	31.99	-45.6	-46.8	25.0	6.06e-01	0	35	0	525336576	62	4238
2026-01-18 01:04:20.31	65.22	32.11	-45.9	-47.2	24.6	6.03e-01	0	35	0	527433728	62	4408
2026-01-18 01:04:21.31	65.60	32.23	-45.8	-47.1	24.7	6.01e-01	0	35	0	529006592	62	4350
2026-01-18 01:04:22.32	65.98	32.35	-45.7	-47.0	24.9	6.02e-01	0	35	0	531103744	62	4298
2026-01-18 01:04:23.33	66.37	32.47	-45.6	-46.9	24.9	6.02e-01	0	35	0	533200896	62	4263
2026-01-18 01:04:24.34	66.75	32.59	-45.7	-47.0	24.8	5.99e-01	0	35	0	534773760	62	4318
2026-01-18 01:04:25.34	67.14	32.71	-45.8	-47.1	24.7	6.01e-01	0	35	0	536870912	62	4367
2026-01-18 01:04:26.35	67.53	32.83	-45.7	-46.9	24.9	6.04e-01	0	35	0	538968064	62	4287
2026-01-18 01:04:27.36	67.93	32.94	-45.7	-47.0	24.9	6.01e-01	0	35	0	540540928	62	4292
2026-01-18 01:04:28.37	68.33	33.06	-45.7	-47.0	24.8	6.02e-01	0	35	0	542638080	62	4334
2026-01-18 01:04:29.38	68.73	33.17	-45.6	-46.9	24.9	6.01e-01	0	35	0	544210944	62	4276
2026-01-18 01:04:30.39	69.14	33.29	-45.8	-47.1	24.8	6.02e-01	0	35	0	546308096	62	4354
2026-01-18 01:04:31.40	69.55	33.40	-45.8	-47.1	24.8	6.01e-01	0	35	0	547880960	62	4360
2026-01-18 01:04:32.41	69.96	33.51	-45.7	-47.0	24.9	6.03e-01	0	35	0	549978112	62	4305
2026-01-18 01:04:33.41	70.37	33.62	-45.6	-46.9	25.0	5.99e-01	0	35	0	552075264	62	4261
2026-01-18 01:04:34.42	70.78	33.73	-45.7	-47.0	24.9	6.02e-01	0	35	0	553648128	62	4298
2026-01-18 01:04:35.43	71.20	33.84	-45.7	-47.0	24.9	6.01e-01	0	35	0	555745280	62	4306
2026-01-18 01:04:36.43	71.62	33.94	-45.7	-47.0	24.8	6.04e-01	0	35	0	557842432	62	4310
2026-01-18 01:04:37.44	72.05	34.05	-45.5	-46.8	25.0	6.01e-01	0	35	0	559415296	62	4218
2026-01-18 01:04:38.45	72.47	34.15	-45.6	-46.9	25.0	6.02e-01	0	35	0	561512448	62	4248
2026-01-18 01:04:39.46	72.91	34.25	-45.6	-46.8	25.0	6.03e-01	0	35	0	563085312	62	4229
2026-01-18 01:04:40.46	73.33	34.35	-45.5	-46.8	25.1	6.00e-01	0	35	0	565182464	62	4213
2026-01-18 01:04:41.47	73.77	34.45	-45.8	-47.1	24.8	6.02e-01	0	35	0	567279616	62	4348
2026-01-18 01:04:42.48	74.21	34.55	-45.6	-46.9	24.9	6.01e-01	0	35	0	568852480	62	4264
2026-01-18 01:04:43.49	74.65	34.65	-45.5	-46.8	25.0	6.01e-01	0	35	0	570949632	62	4198
2026-01-18 01:04:44.49	75.09	34.74	-45.6	-46.9	24.9	6.03e-01	0	35	0	572522496	62	4272
2026-01-18 01:04:45.51	75.54	34.84	-45.5	-46.7	25.1	6.01e-01	0	35	0	574619648	62	4182
2026-01-18 01:04:46.51	75.99	34.93	-45.7	-47.0	24.9	6.00e-01	0	35	0	576192512	62	4293
2026-01-18 01:04:47.52	76.44	35.02	-45.7	-47.0	24.8	6.01e-01	0	35	0	578289664	62	4320
2026-01-18 01:04:48.53	76.89	35.11	-45.5	-46.8	25.0	6.03e-01	0	35	0	580386816	62	4204
2026-01-18 01:04:49.54	77.35	35.20	-45.4	-46.6	25.2	6.03e-01	0	35	0	581959680	62	4136
2026-01-18 01:04:50.54	77.80	35.28	-45.6	-46.9	24.9	6.01e-01	0	35	0	584056832	62	4260
2026-01-18 01:04:51.55	78.27	35.36	-45.7	-46.9	24.8	6.01e-01	0	35	0	586153984	62	4291
2026-01-18 01:04:52.56	78.73	35.45	-45.5	-46.8	25.0	6.03e-01	0	35	0	587726848	62	4214
2026-01-18 01:04:53.57	79.20	35.53	-45.5	-46.7	25.1	6.02e-01	0	35	0	589824000	62	4191
2026-01-18 01:04:54.58	79.67	35.60	-45.6	-46.8	25.0	5.99e-01	0	35	0	591396864	62	4239
2026-01-18 01:04:55.58	80.13	35.68	-45.5	-46.7	25.1	6.02e-01	0	35	0	593494016	62	4187
2026-01-18 01:04:56.59	80.61	35.75	-45.6	-46.9	24.9	6.00e-01	0	35	0	595591168	62	4282
2026-01-18 01:04:57.60	81.08	35.83	-45.8	-47.1	24.8	6.02e-01	0	35	0	597164032	62	4355
2026-01-18 01:04:58.61	81.56	35.90	-45.4	-46.7	25.2	6.01e-01	0	35	0	599261184	62	4150
2026-01-18 01:04:59.62	82.04	35.97	-45.5	-46.8	25.1	6.00e-01	0	35	0	600834048	62	4200
2026-01-18 01:05:00.62	82.52	36.03	-45.6	-46.9	25.0	6.03e-01	0	35	0	602931200	62	4254
2026-01-18 01:05:01.63	83.00	36.10	-45.6	-46.8	25.0	6.03e-01	0	35	0	605028352	62	4236
2026-01-18 01:05:02.64	83.48	36.16	-45.6	-46.8	25.0	6.01e-01	0	35	0	606601216	62	4241
2026-01-18 01:05:03.65	83.97	36.22	-45.4	-46.6	25.2	6.03e-01	0	35	0	608698368	62	4137
2026-01-18 01:05:04.66	84.46	36.28	-45.5	-46.7	25.2	6.03e-01	0	35	0	610271232	62	4175
2026-01-18 01:05:05.67	84.95	36.33	-45.6	-46.9	24.9	6.01e-01	0	35	0	612368384	62	4264
2026-01-18 01:05:06.67	85.44	36.39	-45.5	-46.7	25.1	6.05e-01	0	35	0	614465536	62	4189
2026-01-18 01:05:07.68	85.93	36.44	-45.5	-46.7	25.1	6.03e-01	0	35	0	616038400	62	4190
2026-01-18 01:05:08.69	86.43	36.49	-45.4	-46.6	25.2	6.02e-01	0	35	0	618135552	62	4133
2026-01-18 01:05:09.69	86.92	36.53	-45.6	-46.9	24.9	6.02e-01	0	35	0	619708416	62	4266
2026-01-18 01:05:10.70	87.42	36.58	-45.6	-46.9	25.0	6.01e-01	0	35	0	621805568	62	4259
2026-01-18 01:05:11.71	87.92	36.62	-45.5	-46.8	25.0	6.00e-01	0	35	0	623902720	62	4224
2026-01-18 01:05:12.72	88.42	36.66	-45.6	-46.9	24.9	6.01e-01	0	35	0	625475584	62	4273
2026-01-18 01:05:13.73	88.93	36.70	-45.6	-46.9	24.9	6.01e-01	0	35	0	627572736	62	4255
2026-01-18 01:05:14.73	89.42	36.73	-45.6	-46.9	24.9	6.00e-01	0	35	0	629669888	62	4244
2026-01-18 01:05:15.74	89.93	36.77	-45.4	-46.7	25.2	6.00e-01	0	35	0	631242752	62	4156
2026-01-18 01:05:16.75	90.44	36.80	-45.5	-46.8	25.1	6.02e-01	0	35	0	633339904	62	4218
2026-01-18 01:05:17.76	90.94	36.83	-45.5	-46.8	25.1	6.00e-01	0	35	0	634912768	62	4201
2026-01-18 01:05:18.77	91.45	36.85	-45.6	-46.9	24.9	6.01e-01	0	35	0	637009920	62	4251
2026-01-18 01:05:19.77	91.95	36.88	-45.5	-46.8	25.0	6.03e-01	0	35	0	638582784	62	4223
2026-01-18 01:05:20.78	92.46	36.90	-45.5	-46.8	25.1	6.02e-01	0	35	0	640679936	62	4198
2026-01-18 01:05:21.79	92.97	36.92	-45.4	-46.7	25.2	6.02e-01	0	35	0	642777088	62	4154
2026-01-18 01:05:22.80	93.48	36.93	-45.6	-46.9	25.0	6.03e-01	0	35	0	644349952	62	4258
2026-01-18 01:05:23.80	93.99	36.95	-45.7	-47.0	24.9	6.01e-01	0	35	0	646447104	62	4304
2026-01-18 01:05:24.81	94.50	36.96	-45.6	-46.8	25.0	6.01e-01	0	35	0	648019968	62	4231
2026-01-18 01:05:25.82	95.01	36.97	-45.7	-47.0	24.9	6.01e-01	0	35	0	650117120	62	4292
2026-01-18 01:05:26.83	95.52	36.97	-45.6	-46.8	25.0	6.01e-01	0	35	0	652214272	62	4241
2026-01-18 01:05:27.84	96.04	36.98	-45.5	-46.8	25.1	6.03e-01	0	35	0	653787136	62	4223
2026-01-18 01:05:28.85	96.55	36.98	-45.8	-47.1	24.8	6.04e-01	0	35	0	655884288	62	4347
2026-01-18 01:05:29.86	97.06	36.98	-45.5	-46.8	25.0	6.00e-01	0	35	0	657981440	62	4203
2026-01-18 01:05:30.87	97.57	36.98	-45.6	-46.9	25.0	6.02e-01	0	35	0	659554304	62	4245
2026-01-18 01:05:31.87	98.08	36.97	-45.7	-46.9	24.9	6.00e-01	0	35	0	661651456	62	4287
2026-01-18 01:05:32.88	98.59	36.96	-45.5	-46.7	25.1	5.99e-01	0	35	0	663224320	62	4181
2026-01-18 01:05:33.89	99.10	36.95	-45.7	-47.0	24.8	6.02e-01	0	35	0	665321472	62	4323
2026-01-18 01:05:34.89	99.61	36.94	-45.4	-46.7	25.1	6.03e-01	0	35	0	666894336	62	4174
2026-01-18 01:05:35.90	100.12	36.92	-45.5	-46.7	25.1	6.05e-01	0	35	0	668991488	62	4192
2026-01-18 01:05:36.91	100.63	36.90	-45.8	-47.1	24.8	5.99e-01	0	35	0	671088640	62	4363
2026-01-18 01:05:37.92	101.14	36.88	-45.8	-47.2	24.8	6.01e-01	0	35	0	672661504	62	4393
2026-01-18 01:05:38.92	101.65	36.86	-45.7	-47.0	24.9	6.02e-01	0	35	0	674758656	62	4313
2026-01-18 01:05:39.93	102.15	36.83	-45.6	-46.9	24.9	5.99e-01	0	35	0	676855808	62	4264
2026-01-18 01:05:40.94	102.66	36.81	-45.7	-47.0	25.0	6.02e-01	0	35	0	678428672	62	4292
2026-01-18 01:05:41.95	103.17	36.78	-45.9	-47.2	24.6	6.03e-01	0	35	0	680525824	62	4404
2026-01-18 01:05:42.96	103.67	36.74	-45.5	-46.8	25.0	6.04e-01	0	35	0	682098688	62	4214
2026-01-18 01:05:43.96	104.17	36.71	-45.4	-46.6	25.2	6.00e-01	0	35	0	684195840	62	4137
2026-01-18 01:05:44.97	104.68	36.67	-45.8	-47.1	24.8	6.02e-01	0	35	0	686292992	62	4363
2026-01-18 01:05:45.98	105.18	36.63	-45.5	-46.8	25.1	6.02e-01	0	35	0	687865856	62	4222
2026-01-18 01:05:46.99	105.68	36.59	-45.6	-46.9	24.9	6.02e-01	0	35	0	689963008	62	4263
2026-01-18 01:05:47.99	106.17	36.55	-45.6	-46.9	24.9	6.02e-01	0	35	0	691535872	62	4278
2026-01-18 01:05:49.00	106.67	36.50	-45.5	-46.7	25.1	6.02e-01	0	35	0	693633024	62	4183
2026-01-18 01:05:50.01	107.17	36.45	-45.4	-46.7	25.2	6.02e-01	0	35	0	695205888	62	4153
2026-01-18 01:05:51.02	107.66	36.40	-45.6	-46.9	25.0	6.00e-01	0	35	0	697303040	62	4266
2026-01-18 01:05:52.03	108.16	36.35	-45.3	-46.6	25.2	6.02e-01	0	35	0	699400192	62	4103
2026-01-18 01:05:53.03	108.64	36.29	-45.1	-46.3	25.5	6.01e-01	0	35	0	701497344	62	3983
2026-01-18 01:05:54.04	109.13	36.23	-45.4	-46.7	25.2	6.01e-01	0	35	0	703070208	62	4171
2026-01-18 01:05:55.05	109.62	36.17	-45.4	-46.7	25.1	6.01e-01	0	35	0	705167360	62	4173
2026-01-18 01:05:56.05	110.11	36.11	-45.3	-46.5	25.3	6.02e-01	0	35	0	706740224	62	4068
2026-01-18 01:05:57.06	110.59	36.05	-45.4	-46.6	25.2	6.02e-01	0	35	0	708837376	62	4124
2026-01-18 01:05:58.07	111.07	35.98	-45.3	-46.5	24.3	6.01e-01	0	35	0	710410240	62	4095
2026-01-18 01:05:59.08	111.55	35.91	-45.2	-46.4	25.4	6.05e-01	0	35	0	712507392	62	4047
2026-01-18 01:06:00.09	112.03	35.84	-45.3	-46.6	25.2	6.02e-01	0	35	0	714604544	62	4103
2026-01-18 01:06:01.09	112.50	35.77	-45.5	-46.7	25.1	5.99e-01	0	35	0	716177408	62	4193
2026-01-18 01:06:02.10	112.98	35.70	-45.2	-46.4	25.4	6.02e-01	0	35	0	718274560	62	4030
2026-01-18 01:06:03.11	113.45	35.62	-45.1	-46.3	25.5	6.02e-01	0	35	0	719847424	62	3997
2026-01-18 01:06:04.12	113.92	35.54	-45.2	-46.4	25.4	6.02e-01	0	35	0	721944576	62	4017
2026-01-18 01:06:05.13	114.39	35.46	-45.1	-46.3	25.6	6.00e-01	0	35	0	724041728	62	3972
2026-01-18 01:06:06.13	114.85	35.38	-45.0	-46.2	25.6	6.03e-01	0	35	0	725614592	62	3940
2026-01-18 01:06:07.14	115.31	35.30	-45.1	-46.3	25.5	6.03e-01	0	35	0	727711744	62	3995
2026-01-18 01:06:08.15	115.77	35.21	-45.1	-46.3	25.5	6.02e-01	0	35	0	729808896	62	3996
2026-01-18 01:06:09.16	116.23	35.13	-44.9	-46.1	25.6	6.02e-01	0	35	0	731381760	61	4126
2026-01-18 01:06:10.16	116.68	35.04	-45.0	-46.2	25.6	6.05e-01	0	35	0	733478912	61	4177
2026-01-18 01:06:11.17	117.14	34.95	-45.1	-46.4	25.4	6.01e-01	0	35	0	735051776	61	4268
2026-01-18 01:06:12.18	117.59	34.86	-45.0	-46.2	25.6	6.02e-01	0	35	0	737148928	61	4175
2026-01-18 01:06:13.19	118.04	34.76	-44.8	-46.0	25.7	6.02e-01	0	35	0	738721792	61	4086
2026-01-18 01:06:14.20	118.48	34.67	-44.9	-46.1	25.6	6.01e-01	0	35	0	740818944	61	4120
2026-01-18 01:06:15.20	118.92	34.57	-44.9	-46.1	25.6	6.04e-01	0	35	0	742916096	61	4125
2026-01-18 01:06:16.21	119.36	34.47	-44.8	-46.0	25.7	6.02e-01	0	35	0	744488960	61	4066
2026-01-18 01:06:17.22	119.80	34.38	-44.9	-46.1	25.7	6.02e-01	0	35	0	746586112	61	4123
2026-01-18 01:06:18.23	120.23	34.27	-45.0	-46.2	25.6	6.02e-01	0	35	0	748683264	61	4156
2026-01-18 01:06:19.24	120.67	34.17	-44.8	-46.0	25.7	6.01e-01	0	35	0	750256128	61	4073
2026-01-18 01:06:20.25	121.10	34.07	-44.9	-46.1	25.6	6.00e-01	0	35	0	752353280	61	4116
2026-01-18 01:06:21.25	121.52	33.96	-44.8	-46.0	25.7	6.02e-01	0	35	0	753926144	61	4093
2026-01-18 01:06:22.26	121.94	33.86	-44.6	-45.8	25.9	6.01e-01	0	35	0	756023296	61	3984
2026-01-18 01:06:23.27	122.36	33.75	-44.5	-45.7	26.1	6.01e-01	0	35	0	758120448	61	3933
2026-01-18 01:06:24.28	122.78	33.64	-44.7	-45.9	25.9	6.03e-01	0	35	0	759693312	61	4018
2026-01-18 01:06:25.29	123.20	33.53	-44.5	-45.7	25.9	6.00e-01	0	35	0	761790464	61	3937
2026-01-18 01:06:26.29	123.61	33.42	-44.5	-45.6	26.1	6.03e-01	0	35	0	763363328	61	3899
2026-01-18 01:06:27.30	124.02	33.31	-44.5	-45.7	26.0	6.04e-01	0	35	0	765460480	60	4173
2026-01-18 01:06:28.31	124.42	33.19	-44.6	-45.8	25.9	6.02e-01	0	35	0	767033344	60	4234
2026-01-18 01:06:29.32	124.83	33.08	-44.6	-45.8	26.0	6.04e-01	0	35	0	769130496	60	4195
2026-01-18 01:06:30.32	125.22	32.96	-44.5	-45.7	26.0	6.02e-01	0	35	0	771227648	60	4155
2026-01-18 01:06:31.33	125.62	32.85	-44.2	-45.4	26.3	6.02e-01	0	35	0	773324800	60	4013
2026-01-18 01:06:32.34	126.02	32.73	-44.2	-45.3	26.4	6.01e-01	0	35	0	774897664	60	3984
2026-01-18 01:06:33.35	126.41	32.61	-44.3	-45.4	26.2	6.02e-01	0	35	0	776994816	60	4048
2026-01-18 01:06:34.35	126.80	32.49	-44.3	-45.4	26.2	5.99e-01	0	35	0	778567680	60	4036
2026-01-18 01:06:35.36	127.18	32.37	-44.4	-45.6	26.1	6.01e-01	0	35	0	780664832	60	4129
2026-01-18 01:06:36.37	127.57	32.25	-44.4	-45.6	26.1	6.03e-01	0	35	0	782237696	60	4122
2026-01-18 01:06:37.38	127.95	32.13	-44.4	-45.6	26.1	6.04e-01	0	35	0	784334848	60	4100
2026-01-18 01:06:38.39	128.33	32.01	-44.4	-45.5	26.1	6.02e-01	0	35	0	786432000	60	4096
2026-01-18 01:06:39.40	128.70	31.88	-44.3	-45.5	26.2	6.02e-01	0	35	0	788004864	60	4068
2026-01-18 01:06:40.41	129.07	31.76	-44.4	-45.6	26.1	6.02e-01	0	35	0	790102016	60	4120
2026-01-18 01:06:41.42	129.44	31.63	-44.4	-45.5	26.1	6.01e-01	0	35	0	791674880	60	4083
2026-01-18 01:06:42.43	129.81	31.51	-44.4	-45.5	26.1	6.03e-01	0	35	0	793772032	60	4092
2026-01-18 01:06:43.43	130.17	31.38	-44.3	-45.5	26.2	6.04e-01	0	35	0	795869184	60	4063
2026-01-18 01:06:44.44	130.53	31.25	-44.5	-45.7	26.0	6.02e-01	0	35	0	797442048	60	4174
2026-01-18 01:06:45.45	130.89	31.13	-44.4	-45.5	26.2	6.03e-01	0	35	0	799539200	60	4084
2026-01-18 01:06:46.46	131.24	31.00	-44.3	-45.5	26.2	6.02e-01	0	35	0	801636352	60	4076
2026-01-18 01:06:47.47	131.60	30.87	-44.3	-45.5	26.2	6.03e-01	0	36	0	803209216	60	4056
2026-01-18 01:06:48.47	131.94	30.74	-44.1	-45.3	26.3	6.03e-01	0	35	0	805306368	60	3974
2026-01-18 01:06:49.48	132.29	30.61	-44.3	-45.4	26.1	6.02e-01	0	35	0	806879232	60	4046
2026-01-18 01:06:50.49	132.63	30.48	-44.4	-45.5	26.1	6.02e-01	0	35	0	808976384	60	4083
2026-01-18 01:06:51.50	132.97	30.35	-44.4	-45.6	26.1	6.01e-01	0	35	0	810549248	60	4112
2026-01-18 01:06:52.51	133.31	30.22	-44.4	-45.6	26.0	6.02e-01	0	35	0	812646400	60	4122
2026-01-18 01:06:53.52	133.65	30.09	-44.3	-45.5	26.2	6.00e-01	0	35	0	814743552	60	4078
2026-01-18 01:06:54.53	133.98	29.95	-44.3	-45.5	26.2	6.01e-01	0	35	0	816840704	60	4070
2026-01-18 01:06:55.53	134.31	29.82	-44.3	-45.4	26.2	6.02e-01	0	35	0	818413568	60	4038
2026-01-18 01:06:56.54	134.63	29.69	-44.3	-45.4	26.1	6.03e-01	0	35	0	820510720	60	4041
2026-01-18 01:06:57.55	134.96	29.56	-44.3	-45.5	26.1	6.02e-01	0	35	0	822083584	60	4077
2026-01-18 01:06:58.56	135.28	29.42	-44.5	-45.7	25.8	6.04e-01	0	35	0	824180736	60	4183
2026-01-18 01:06:59.56	135.59	29.29	-44.5	-45.7	25.8	6.02e-01	0	35	0	825753600	60	4187
2026-01-18 01:07:00.57	135.91	29.16	-44.5	-45.7	25.9	6.02e-01	0	35	0	827850752	60	4165
2026-01-18 01:07:01.58	136.22	29.03	-44.5	-45.7	25.9	6.03e-01	0	35	0	829947904	60	4173
2026-01-18 01:07:02.59	136.54	28.89	-44.5	-45.6	26.0	6.02e-01	0	35	0	831520768	60	4140
2026-01-18 01:07:03.60	136.84	28.76	-44.4	-45.5	26.1	6.01e-01	0	35	0	833617920	60	4090
2026-01-18 01:07:04.61	137.15	28.62	-44.4	-45.6	26.0	6.01e-01	0	35	0	835190784	60	4122
2026-01-18 01:07:05.61	137.45	28.49	-44.5	-45.7	25.9	6.03e-01	0	35	0	837287936	60	4185
2026-01-18 01:07:06.62	137.75	28.35	-44.6	-45.8	25.7	6.02e-01	0	35	0	838860800	60	4239
2026-01-18 01:07:07.63	138.05	28.22	-44.6	-45.8	25.6	6.03e-01	0	35	0	840957952	60	4239
2026-01-18 01:07:08.64	138.34	28.08	-44.6	-45.8	25.7	6.01e-01	0	35	0	843055104	60	4235
2026-01-18 01:07:09.64	138.63	27.95	-44.6	-45.8	25.8	6.02e-01	0	35	0	845152256	60	4215
2026-01-18 01:07:10.65	138.93	27.82	-44.6	-45.8	25.8	6.03e-01	0	35	0	846725120	60	4228
2026-01-18 01:07:11.66	139.21	27.68	-44.7	-45.9	25.7	6.04e-01	0	35	0	848822272	60	4275
2026-01-18 01:07:12.67	139.50	27.55	-44.8	-46.0	25.5	6.01e-01	0	35	0	850395136	60	4337
2026-01-18 01:07:13.68	139.78	27.41	-44.8	-46.0	25.5	6.02e-01	0	35	0	852492288	60	4327
2026-01-18 01:07:14.69	140.06	27.28	-44.8	-46.0	25.6	6.02e-01	0	35	0	854065152	60	4298
2026-01-18 01:07:15.69	140.34	27.14	-44.7	-45.9	25.6	6.03e-01	0	35	0	856162304	60	4282
2026-01-18 01:07:16.70	140.61	27.01	-44.7	-46.0	25.6	6.03e-01	0	35	0	858259456	60	4299
2026-01-18 01:07:17.71	140.89	26.87	-44.8	-46.1	25.5	6.00e-01	0	35	0	859832320	60	4341
2026-01-18 01:07:18.72	141.16	26.74	-45.0	-46.2	25.4	6.02e-01	0	35	0	861929472	60	4417
2026-01-18 01:07:19.73	141.43	26.60	-44.9	-46.2	25.4	6.02e-01	0	35	0	864026624	60	4404
2026-01-18 01:07:20.73	141.69	26.47	-45.0	-46.2	25.3	6.02e-01	0	35	0	865599488	60	4429
2026-01-18 01:07:21.74	141.96	26.33	-44.9	-46.2	25.3	6.02e-01	0	35	0	867696640	60	4408
2026-01-18 01:07:22.74	142.22	26.20	-44.7	-45.9	25.6	6.01e-01	0	35	0	869269504	60	4279
2026-01-18 01:07:23.75	142.48	26.07	-44.8	-46.0	25.6	6.03e-01	0	35	0	871366656	60	4299
2026-01-18 01:07:24.76	142.73	25.93	-44.9	-46.1	25.5	6.02e-01	0	35	0	873463808	60	4355
2026-01-18 01:07:25.77	142.99	25.80	-45.0	-46.2	25.3	6.01e-01	0	35	0	875036672	60	4428
2026-01-18 01:07:26.78	143.24	25.66	-45.0	-46.3	25.3	6.03e-01	0	35	0	877133824	60	4461
2026-01-18 01:07:27.79	143.49	25.53	-45.2	-46.5	25.1	6.04e-01	0	35	0	878706688	60	4549
2026-01-18 01:07:28.79	143.74	25.40	-45.1	-46.4	25.1	6.02e-01	0	35	0	880803840	60	4497
2026-01-18 01:07:29.80	143.99	25.26	-45.0	-46.2	25.3	6.01e-01	0	35	0	882376704	60	4419
2026-01-18 01:07:30.81	144.23	25.13	-45.0	-46.2	25.3	6.03e-01	0	35	0	884473856	60	4440
2026-01-18 01:07:31.81	144.47	25.00	-45.0	-46.3	25.2	6.04e-01	0	35	0	886571008	60	4457
2026-01-18 01:07:32.82	144.71	24.87	-45.1	-46.4	25.2	6.02e-01	0	35	0	888143872	60	4497
2026-01-18 01:07:33.83	144.95	24.73	-45.2	-46.5	25.0	6.01e-01	0	35	0	890241024	60	4575
2026-01-18 01:07:34.84	145.19	24.60	-45.3	-46.6	25.0	6.03e-01	0	35	0	892338176	61	4341
2026-01-18 01:07:35.84	145.42	24.47	-45.3	-46.5	25.0	6.02e-01	0	35	0	893911040	61	4335
2026-01-18 01:07:36.85	145.65	24.34	-45.4	-46.7	24.9	6.00e-01	0	35	0	896008192	61	4406
2026-01-18 01:07:37.86	145.88	24.21	-45.3	-46.6	25.0	6.01e-01	0	35	0	897581056	61	4344
2026-01-18 01:07:38.87	146.11	24.07	-45.0	-46.2	25.2	6.02e-01	0	35	0	899678208	61	4187
2026-01-18 01:07:39.88	146.34	23.94	-45.0	-46.3	25.2	6.01e-01	0	35	0	901251072	61	4206
2026-01-18 01:07:40.88	146.56	23.81	-45.1	-46.4	25.1	6.02e-01	0	35	0	903348224	61	4265
2026-01-18 01:07:41.90	146.79	23.68	-45.1	-46.4	25.1	6.01e-01	0	35	0	905445376	61	4250
2026-01-18 01:07:42.90	147.01	23.55	-45.2	-46.5	25.1	6.03e-01	0	35	0	907018240	61	4302
2026-01-18 01:07:43.91	147.22	23.42	-45.1	-46.4	25.1	5.99e-01	0	35	0	909115392	61	4275
2026-01-18 01:07:44.92	147.44	23.29	-45.1	-46.4	25.1	6.00e-01	0	35	0	910688256	61	4268
2026-01-18 01:07:45.93	147.66	23.16	-45.3	-46.6	25.0	6.02e-01	0	35	0	912785408	61	4357
2026-01-18 01:07:46.93	147.87	23.04	-45.4	-46.7	24.9	6.03e-01	0	35	0	914882560	61	4392
2026-01-18 01:07:47.94	148.08	22.91	-45.4	-46.7	24.8	6.02e-01	0	35	0	916455424	61	4435
2026-01-18 01:07:48.95	148.29	22.78	-45.2	-46.5	25.0	6.02e-01	0	35	0	918552576	61	4308
2026-01-18 01:07:49.96	148.50	22.65	-45.2	-46.4	23.4	6.02e-01	0	35	0	920649728	61	4285
2026-01-18 01:07:50.97	148.70	22.52	-45.1	-46.4	25.0	6.01e-01	0	35	0	922222592	61	4272
2026-01-18 01:07:51.97	148.91	22.40	-45.0	-46.2	25.2	6.02e-01	0	35	0	924319744	61	4178
2026-01-18 01:07:52.98	149.11	22.27	-45.0	-46.2	25.3	6.01e-01	0	35	0	925892608	61	4168
2026-01-18 01:07:53.99	149.31	22.14	-45.0	-46.3	25.2	6.01e-01	0	35	0	927989760	61	4208
2026-01-18 01:07:55.00	149.51	22.02	-44.9	-46.2	25.3	6.02e-01	0	35	0	930086912	61	4157
2026-01-18 01:07:56.00	149.71	21.89	-45.0	-46.2	25.1	6.01e-01	0	36	0	931659776	61	4182
2026-01-18 01:07:57.01	149.90	21.77	-45.0	-46.3	25.2	6.05e-01	0	35	0	933756928	61	4210
2026-01-18 01:07:58.02	150.10	21.64	-45.1	-46.4	25.0	6.02e-01	0	35	0	935329792	61	4261
2026-01-18 01:07:59.03	150.29	21.52	-45.2	-46.4	25.0	6.03e-01	0	35	0	937426944	61	4282
2026-01-18 01:08:00.04	150.48	21.39	-45.1	-46.4	25.1	6.02e-01	0	35	0	939524096	61	4272
2026-01-18 01:08:01.04	150.67	21.27	-45.1	-46.4	25.1	6.02e-01	0	35	0	941096960	61	4265
2026-01-18 01:08:02.05	150.86	21.14	-45.2	-46.4	25.0	6.02e-01	0	35	0	943194112	61	4282
2026-01-18 01:08:03.06	151.05	21.02	-45.1	-46.4	25.1	6.00e-01	0	35	0	944766976	61	4268
2026-01-18 01:08:04.07	151.23	20.90	-45.1	-46.4	25.1	6.00e-01	0	35	0	946864128	61	4250
2026-01-18 01:08:05.08	151.42	20.77	-45.1	-46.4	25.0	6.01e-01	0	35	0	948961280	61	4281
2026-01-18 01:08:06.09	151.60	20.65	-45.1	-46.4	25.1	6.02e-01	0	35	0	950534144	61	4248
2026-01-18 01:08:07.09	151.78	20.53	-45.0	-46.2	25.2	6.04e-01	0	36	0	952631296	61	4179
2026-01-18 01:08:08.10	151.96	20.41	-45.0	-46.3	25.2	6.00e-01	0	35	0	954204160	61	4205
2026-01-18 01:08:09.11	152.14	20.29	-45.1	-46.3	25.1	6.00e-01	0	35	0	956301312	61	4230
2026-01-18 01:08:10.12	152.31	20.17	-45.0	-46.3	25.1	6.04e-01	0	35	0	958398464	61	4210
2026-01-18 01:08:11.13	152.49	20.05	-45.0	-46.3	25.1	6.04e-01	0	35	0	959971328	61	4202
2026-01-18 01:08:12.13	152.66	19.93	-45.1	-46.4	25.0	6.01e-01	0	35	0	962068480	61	4259
2026-01-18 01:08:13.14	152.83	19.81	-45.0	-46.3	25.1	6.01e-01	0	35	0	964165632	61	4202
2026-01-18 01:08:14.15	153.01	19.69	-45.0	-46.2	25.1	6.02e-01	0	35	0	965738496	61	4188
2026-01-18 01:08:15.16	153.18	19.57	-44.9	-46.2	25.2	6.03e-01	0	35	0	967835648	61	4170
2026-01-18 01:08:16.17	153.34	19.45	-45.0	-46.3	25.1	6.03e-01	0	35	0	969408512	61	4201
2026-01-18 01:08:17.18	153.51	19.33	-45.1	-46.3	25.1	6.01e-01	0	35	0	971505664	61	4234
2026-01-18 01:08:18.18	153.68	19.22	-45.2	-46.5	24.9	6.00e-01	0	35	0	973078528	61	4321
2026-01-18 01:08:19.19	153.84	19.10	-45.1	-46.4	25.0	6.02e-01	0	36	0	975175680	61	4255
2026-01-18 01:08:20.20	154.00	18.98	-45.1	-46.4	25.0	6.01e-01	0	35	0	977272832	61	4245
2026-01-18 01:08:21.21	154.16	18.86	-45.1	-46.4	25.0	6.04e-01	0	35	0	978845696	61	4247
2026-01-18 01:08:22.22	154.33	18.75	-45.1	-46.3	25.0	6.04e-01	0	35	0	980942848	61	4231
2026-01-18 01:08:23.22	154.48	18.63	-44.9	-46.1	25.2	6.04e-01	0	35	0	983040000	61	4143
2026-01-18 01:08:24.23	154.64	18.52	-45.0	-46.3	25.1	6.03e-01	0	35	0	984612864	61	4199
2026-01-18 01:08:25.24	154.80	18.40	-44.9	-46.2	25.1	6.02e-01	0	35	0	986710016	61	4173
2026-01-18 01:08:26.25	154.95	18.29	-44.9	-46.2	25.2	6.02e-01	0	35	0	988282880	61	4158
2026-01-18 01:08:27.26	155.11	18.17	-45.0	-46.3	25.1	6.03e-01	0	35	0	990380032	61	4212
2026-01-18 01:08:28.27	155.26	18.06	-44.9	-46.1	25.2	6.01e-01	0	35	0	992477184	61	4142
2026-01-18 01:08:29.27	155.41	17.95	-44.9	-46.2	25.2	6.02e-01	0	35	0	994050048	61	4146
2026-01-18 01:08:30.28	155.56	17.83	-44.8	-46.0	25.3	6.01e-01	0	36	0	996147200	61	4083
2026-01-18 01:08:31.29	155.71	17.72	-44.8	-46.0	25.3	6.03e-01	0	35	0	997720064	61	4081
2026-01-18 01:08:32.30	155.86	17.61	-44.8	-46.0	25.3	6.04e-01	0	36	0	999817216	61	4069
2026-01-18 01:08:33.31	156.01	17.50	-44.8	-46.0	25.3	6.02e-01	0	35	0	1001390080	61	4076
2026-01-18 01:08:34.31	156.16	17.39	-44.8	-46.0	25.3	6.02e-01	0	35	0	1003487232	61	4088
2026-01-18 01:08:35.32	156.30	17.28	-44.8	-46.1	25.2	6.02e-01	0	35	0	1005584384	61	4124
2026-01-18 01:08:36.33	156.45	17.17	-44.9	-46.2	25.2	6.01e-01	0	35	0	1007681536	61	4161
2026-01-18 01:08:37.34	156.59	17.06	-44.9	-46.2	25.2	6.02e-01	0	35	0	1009254400	61	4159
2026-01-18 01:08:38.34	156.73	16.95	-44.9	-46.1	25.2	6.00e-01	0	35	0	1011351552	61	4143
2026-01-18 01:08:39.35	156.87	16.84	-44.9	-46.2	25.2	6.03e-01	0	35	0	1012924416	61	4148
2026-01-18 01:08:40.36	157.01	16.73	-45.0	-46.3	25.1	6.02e-01	0	35	0	1015021568	61	4205
2026-01-18 01:08:41.37	157.15	16.62	-44.9	-46.2	25.1	6.02e-01	0	36	0	1016594432	61	4166
2026-01-18 01:08:42.37	157.29	16.51	-44.9	-46.2	25.2	6.01e-01	0	35	0	1018691584	61	4167
2026-01-18 01:08:43.38	157.42	16.40	-45.0	-46.2	25.1	6.01e-01	0	36	0	1020788736	61	4189
2026-01-18 01:08:44.39	157.56	16.30	-44.9	-46.2	25.1	6.04e-01	0	35	0	1022361600	61	4164
2026-01-18 01:08:45.40	157.69	16.19	-44.9	-46.2	25.1	6.04e-01	0	35	0	1024458752	61	4176
2026-01-18 01:08:46.41	157.83	16.08	-44.9	-46.2	25.1	6.03e-01	0	35	0	1026031616	61	4154
2026-01-18 01:08:47.41	157.96	15.98	-44.9	-46.2	25.1	6.03e-01	0	35	0	1028128768	61	4177
2026-01-18 01:08:48.42	158.09	15.87	-44.9	-46.2	25.1	6.01e-01	0	35	0	1029701632	61	4171
2026-01-18 01:08:49.43	158.22	15.76	-44.9	-46.2	25.0	6.01e-01	0	36	0	1031798784	61	4160
2026-01-18 01:08:50.44	158.35	15.66	-44.8	-46.0	25.2	6.03e-01	0	35	0	1033895936	61	4093
2026-01-18 01:08:51.44	158.48	15.55	-44.8	-46.0	25.2	6.03e-01	0	35	0	1035993088	61	4088
2026-01-18 01:08:52.45	158.61	15.45	-44.8	-46.0	25.2	6.00e-01	0	35	0	1037565952	61	4097
2026-01-18 01:08:53.46	158.74	15.34	-44.8	-46.0	25.2	6.02e-01	0	36	0	1039663104	61	4086
2026-01-18 01:08:54.47	158.86	15.24	-44.9	-46.1	25.1	6.03e-01	0	35	0	1041235968	61	4144
2026-01-18 01:08:55.47	158.99	15.14	-44.8	-46.0	25.2	6.02e-01	0	35	0	1043333120	61	4097
2026-01-18 01:08:56.48	159.11	15.03	-45.0	-46.3	25.0	6.04e-01	0	36	0	1044905984	61	4206
2026-01-18 01:08:57.49	159.24	14.93	-45.0	-46.3	24.9	6.02e-01	0	35	0	1047003136	61	4209
2026-01-18 01:08:58.50	159.36	14.83	-44.9	-46.2	25.0	6.01e-01	0	35	0	1049100288	61	4171
2026-01-18 01:08:59.51	159.48	14.73	-45.1	-46.4	24.8	6.01e-01	0	35	0	1050673152	61	4272
2026-01-18 01:09:00.52	159.60	14.63	-45.1	-46.4	24.7	6.01e-01	0	36	0	1052770304	61	4285
2026-01-18 01:09:01.53	159.72	14.52	-45.1	-46.4	24.8	6.01e-01	0	36	0	1054867456	61	4253
2026-01-18 01:09:02.54	159.84	14.42	-45.1	-46.4	24.8	6.00e-01	0	35	0	1056440320	61	4269
2026-01-18 01:09:03.54	159.96	14.32	-45.0	-46.3	25.0	6.02e-01	0	35	0	1058537472	61	4220
2026-01-18 01:09:04.55	160.08	14.22	-45.1	-46.4	24.8	6.02e-01	0	35	0	1060110336	61	4252
2026-01-18 01:09:05.56	160.20	14.12	-45.0	-46.3	24.9	6.02e-01	0	36	0	1062207488	61	4224
2026-01-18 01:09:06.57	160.31	14.02	-45.0	-46.3	24.9	6.02e-01	0	35	0	1064304640	61	4239
2026-01-18 01:09:07.57	160.43	13.93	-45.0	-46.3	24.9	6.03e-01	0	35	0	1065877504	61	4229
2026-01-18 01:09:08.58	160.54	13.83	-45.1	-46.4	24.8	6.02e-01	0	36	0	1067974656	61	4278
2026-01-18 01:09:09.59	160.65	13.73	-45.2	-46.5	24.7	6.01e-01	0	36	0	1069547520	61	4316
2026-01-18 01:09:10.60	160.77	13.63	-45.2	-46.5	24.7	6.01e-01	0	35	0	1071644672	61	4320
2026-01-18 01:09:11.61	160.88	13.53	-45.3	-46.6	24.6	6.02e-01	0	35	0	1073217536	61	4370
2026-01-18 01:09:12.61	160.99	13.43	-45.0	-46.3	24.9	6.01e-01	0	35	0	1075314688	61	4227
2026-01-18 01:09:13.62	161.10	13.34	-45.2	-46.5	24.8	6.03e-01	0	35	0	1077411840	61	4293
2026-01-18 01:09:14.63	161.21	13.24	-45.1	-46.4	24.9	6.00e-01	0	35	0	1079508992	61	4243
2026-01-18 01:09:15.63	161.32	13.15	-45.1	-46.4	24.8	6.01e-01	0	35	0	1081081856	61	4246
2026-01-18 01:09:16.64	161.43	13.05	-45.2	-46.5	24.8	6.00e-01	0	36	0	1083179008	61	4300
2026-01-18 01:09:17.65	161.54	12.95	-45.2	-46.6	24.7	6.03e-01	0	36	0	1084751872	61	4348
2026-01-18 01:09:18.66	161.64	12.86	-45.2	-46.5	24.7	6.01e-01	0	35	0	1086849024	61	4328
2026-01-18 01:09:19.67	161.75	12.76	-45.2	-46.5	24.7	6.02e-01	0	36	0	1088421888	61	4317
2026-01-18 01:09:20.67	161.85	12.67	-45.3	-46.6	24.6	6.04e-01	0	35	0	1090519040	61	4380
2026-01-18 01:09:21.68	161.96	12.57	-45.3	-46.6	24.6	6.03e-01	0	35	0	1092616192	61	4365
2026-01-18 01:09:22.69	162.06	12.48	-45.2	-46.6	24.6	6.04e-01	0	36	0	1094189056	61	4347
2026-01-18 01:09:23.70	162.17	12.39	-45.4	-46.7	24.5	6.01e-01	0	35	0	1096286208	61	4425
2026-01-18 01:09:24.70	162.27	12.29	-45.3	-46.6	24.5	6.01e-01	0	36	0	1097859072	61	4378
2026-01-18 01:09:25.71	162.37	12.20	-45.3	-46.6	24.6	6.01e-01	0	35	0	1099956224	61	4359
2026-01-18 01:09:26.72	162.47	12.11	-45.3	-46.6	24.6	6.02e-01	0	36	0	1101529088	61	4377
2026-01-18 01:09:27.72	162.57	12.01	-45.3	-46.7	24.5	6.01e-01	0	35	0	1103626240	61	4405
2026-01-18 01:09:28.73	162.67	11.92	-45.4	-46.7	24.4	6.02e-01	0	35	0	1105723392	61	4434
2026-01-18 01:09:29.74	162.77	11.83	-45.4	-46.7	24.4	6.01e-01	0	35	0	1107820544	61	4438
2026-01-18 01:09:30.75	162.87	11.74	-45.3	-46.6	24.5	6.02e-01	0	35	0	1109393408	61	4380
2026-01-18 01:09:31.75	162.97	11.65	-45.3	-46.6	24.5	6.02e-01	0	35	0	1111490560	61	4382
2026-01-18 01:09:32.76	163.07	11.56	-45.2	-46.5	24.5	6.03e-01	0	35	0	1113063424	61	4338
2026-01-18 01:09:33.77	163.17	11.47	-45.3	-46.6	24.5	6.02e-01	0	35	0	1115160576	61	4371
2026-01-18 01:09:34.78	163.26	11.38	-45.4	-46.7	24.4	5.99e-01	0	35	0	1116733440	61	4427
2026-01-18 01:09:35.79	163.36	11.29	-45.4	-46.7	24.4	6.02e-01	0	36	0	1118830592	61	4422
2026-01-18 01:09:36.79	163.45	11.20	-45.4	-46.7	24.4	6.00e-01	0	35	0	1120927744	61	4432
2026-01-18 01:09:37.80	163.55	11.11	-45.3	-46.7	24.4	6.03e-01	0	36	0	1122500608	61	4411
2026-01-18 01:09:38.81	163.64	11.02	-45.3	-46.6	24.4	6.04e-01	0	36	0	1124597760	61	4382
2026-01-18 01:09:39.82	163.74	10.93	-45.4	-46.7	24.4	6.01e-01	0	36	0	1126170624	61	4430
2026-01-18 01:09:40.83	163.83	10.84	-45.4	-46.7	24.4	6.04e-01	0	35	0	1128267776	61	4441
2026-01-18 01:09:41.83	163.92	10.75	-45.5	-46.8	24.3	6.02e-01	0	36	0	1130364928	61	4483
2026-01-18 01:09:42.84	164.01	10.66	-45.6	-46.9	24.2	6.03e-01	0	35	0	1131937792	61	4538
2026-01-18 01:09:43.85	164.10	10.58	-45.5	-46.8	24.3	6.03e-01	0	36	0	1134034944	61	4491
2026-01-18 01:09:44.86	164.20	10.49	-45.6	-47.0	24.1	5.99e-01	0	36	0	1136132096	61	4572
2026-01-18 01:09:45.87	164.29	10.40	-45.6	-47.0	24.1	6.01e-01	0	35	0	1137704960	61	4561
2026-01-18 01:09:46.87	164.37	10.32	-45.6	-47.0	24.1	6.01e-01	0	35	0	1139802112	61	4566
2026-01-18 01:09:47.88	164.46	10.23	-45.4	-46.7	24.4	6.02e-01	0	35	0	1141374976	61	4418
2026-01-18 01:09:48.89	164.55	10.14	-45.6	-47.0	24.0	6.03e-01	0	35	0	1143472128	61	4596
2026-01-18 01:09:49.89	164.64	10.06	-45.8	-47.2	23.9	6.03e-01	0	35	0	1145044992	62	4406
2026-01-18 01:09:50.90	164.73	9.97	-45.7	-47.1	24.0	6.02e-01	0	35	0	1147142144	62	4367
2026-01-18 01:09:51.91	164.81	9.89	-46.0	-47.4	23.7	6.02e-01	0	35	0	1149239296	62	4531
2026-01-18 01:09:52.92	164.90	9.80	-45.9	-47.3	23.8	6.01e-01	0	35	0	1150812160	62	4488
2026-01-18 01:09:53.93	164.99	9.72	-45.9	-47.4	23.7	6.03e-01	0	36	0	1152909312	62	4503
2026-01-18 01:09:54.94	165.07	9.63	-45.9	-47.4	23.7	6.01e-01	0	35	0	1155006464	62	4497
2026-01-18 01:09:55.94	165.16	9.55	-46.1	-47.5	23.6	5.99e-01	0	35	0	1156579328	62	4590
2026-01-18 01:09:56.95	165.24	9.46	-46.3	-47.8	23.3	6.04e-01	0	35	0	1158676480	63	4463
2026-01-18 01:09:57.95	165.32	9.38	-46.1	-47.6	23.5	6.04e-01	0	35	0	1160249344	63	4360
2026-01-18 01:09:58.96	165.41	9.30	-46.2	-47.7	23.4	6.02e-01	0	36	0	1162346496	63	4401
2026-01-18 01:09:59.97	165.49	9.21	-46.2	-47.7	23.5	6.01e-01	0	35	0	1164443648	63	4398
2026-01-18 01:10:00.98	165.57	9.13	-46.2	-47.7	23.4	6.02e-01	0	36	0	1166016512	63	4429
2026-01-18 01:10:01.99	165.65	9.05	-46.0	-47.5	23.6	6.02e-01	0	36	0	1168113664	63	4315
2026-01-18 01:10:02.99	165.74	8.97	-46.1	-47.6	23.5	6.00e-01	0	35	0	1169686528	63	4342
2026-01-18 01:10:04.00	165.82	8.88	-46.2	-47.7	23.3	6.03e-01	0	35	0	1171783680	63	4425
2026-01-18 01:10:05.01	165.90	8.80	-46.1	-47.6	23.4	6.03e-01	0	35	0	1173356544	63	4382
2026-01-18 01:10:06.02	165.98	8.72	-46.3	-47.9	23.2	6.02e-01	0	36	0	1175453696	63	4516
2026-01-18 01:10:07.03	166.06	8.64	-46.1	-47.6	23.4	6.02e-01	0	36	0	1177550848	63	4377
2026-01-18 01:10:08.03	166.14	8.56	-46.2	-47.7	23.4	6.02e-01	0	35	0	1179648000	63	4398
2026-01-18 01:10:09.04	166.21	8.48	-46.2	-47.7	23.3	6.01e-01	0	36	0	1181220864	63	4406
2026-01-18 01:10:10.05	166.29	8.40	-46.2	-47.7	23.3	6.02e-01	0	35	0	1183318016	63	4432
2026-01-18 01:10:11.06	166.37	8.32	-46.3	-47.8	23.3	6.01e-01	0	36	0	1184890880	63	4455
2026-01-18 01:10:12.07	166.45	8.23	-46.4	-47.9	23.1	5.98e-01	0	36	0	1186988032	63	4528
2026-01-18 01:10:13.07	166.52	8.16	-46.2	-47.7	23.2	6.01e-01	0	36	0	1188560896	63	4435
2026-01-18 01:10:14.08	166.60	8.08	-46.1	-47.6	23.4	6.03e-01	0	35	0	1190658048	63	4381
2026-01-18 01:10:15.09	166.68	8.00	-46.5	-48.1	22.9	6.03e-01	0	36	0	1192755200	63	4622
2026-01-18 01:10:16.10	166.75	7.92	-46.3	-47.8	23.2	6.01e-01	0	36	0	1194328064	63	4463
2026-01-18 01:10:17.11	166.83	7.84	-46.6	-48.2	22.8	6.02e-01	0	35	0	1196425216	63	4660
2026-01-18 01:10:18.11	166.90	7.76	-46.1	-47.6	23.3	6.02e-01	0	36	0	1197998080	63	4373
2026-01-18 01:10:19.12	166.98	7.68	-46.3	-47.9	23.1	6.02e-01	0	35	0	1200095232	63	4505
2026-01-18 01:10:20.13	167.05	7.60	-46.2	-47.7	23.2	6.02e-01	0	35	0	1202192384	63	4424
2026-01-18 01:10:21.14	167.12	7.52	-46.5	-48.1	22.9	6.03e-01	0	35	0	1203765248	63	4611
2026-01-18 01:10:22.15	167.20	7.45	-46.5	-48.1	22.8	6.01e-01	0	35	0	1205862400	63	4626
2026-01-18 01:10:23.15	167.27	7.37	-46.3	-47.8	23.1	6.01e-01	0	35	0	1207959552	63	4462
2026-01-18 01:10:24.16	167.34	7.29	-46.5	-48.1	22.9	6.00e-01	0	36	0	1209532416	63	4600
2026-01-18 01:10:25.17	167.41	7.21	-46.5	-48.1	22.8	6.02e-01	0	35	0	1211629568	63	4645
2026-01-18 01:10:26.17	167.49	7.14	-46.6	-48.2	22.7	6.02e-01	0	35	0	1213202432	63	4664
2026-01-18 01:10:27.18	167.56	7.06	-46.6	-48.2	22.7	6.01e-01	0	35	0	1215299584	63	4668
2026-01-18 01:10:28.19	167.63	6.98	-46.6	-48.3	22.4	6.02e-01	0	36	0	1216872448	64	4470
2026-01-18 01:10:29.20	167.70	6.91	-46.4	-48.0	22.8	6.00e-01	0	35	0	1218969600	64	4313
2026-01-18 01:10:30.21	167.77	6.83	-46.6	-48.2	22.5	6.01e-01	0	35	0	1221066752	64	4429
2026-01-18 01:10:31.21	167.84	6.76	-46.7	-48.3	22.4	6.02e-01	0	35	0	1222639616	64	4485
2026-01-18 01:10:32.22	167.91	6.68	-46.3	-47.9	22.8	6.03e-01	0	35	0	1224736768	64	4283
2026-01-18 01:10:33.23	167.98	6.61	-46.6	-48.3	22.4	5.98e-01	0	35	0	1226833920	64	4468
2026-01-18 01:10:34.24	168.04	6.53	-46.6	-48.2	22.5	6.02e-01	0	36	0	1228406784	64	4436
2026-01-18 01:10:35.25	168.11	6.46	-46.6	-48.2	22.5	6.02e-01	0	35	0	1230503936	64	4436
2026-01-18 01:10:36.26	168.18	6.38	-46.6	-48.3	22.4	6.01e-01	0	35	0	1232076800	64	4471
2026-01-18 01:10:37.27	168.25	6.31	-46.5	-48.2	22.5	6.04e-01	0	36	0	1234173952	64	4401
2026-01-18 01:10:38.27	168.31	6.23	-46.9	-48.7	22.1	6.03e-01	0	36	0	1236271104	64	4654
2026-01-18 01:10:39.28	168.38	6.16	-46.8	-48.5	22.2	6.02e-01	0	35	0	1237843968	64	4598
2026-01-18 01:10:40.29	168.45	6.08	-47.1	-48.8	21.9	6.01e-01	0	36	0	1239941120	64	4756
2026-01-18 01:10:41.30	168.51	6.01	-47.0	-48.7	21.9	6.01e-01	0	35	0	1241513984	65	4436
2026-01-18 01:10:42.30	168.58	5.94	-47.2	-49.0	21.6	6.00e-01	0	35	0	1243611136	65	4585
2026-01-18 01:10:43.31	168.65	5.86	-47.0	-48.8	21.9	6.02e-01	0	36	0	1245184000	65	4457
2026-01-18 01:10:44.32	168.71	5.79	-47.1	-48.9	21.8	6.03e-01	0	36	0	1247281152	65	4506
2026-01-18 01:10:45.33	168.78	5.72	-47.1	-48.9	21.7	6.00e-01	0	35	0	1249378304	65	4534
2026-01-18 01:10:46.34	168.84	5.64	-47.0	-48.7	21.9	6.03e-01	0	36	0	1250951168	65	4436
2026-01-18 01:10:47.34	168.90	5.57	-47.3	-49.2	21.4	6.01e-01	0	35	0	1253048320	65	4681
2026-01-18 01:10:48.35	168.97	5.50	-47.0	-48.8	21.7	6.00e-01	0	35	0	1255145472	65	4485
2026-01-18 01:10:49.36	169.03	5.43	-47.3	-49.2	21.4	6.00e-01	0	35	0	1256718336	65	4695
2026-01-18 01:10:50.37	169.09	5.36	-47.4	-49.3	21.2	6.03e-01	0	36	0	1258815488	65	4708
2026-01-18 01:10:51.38	169.16	5.28	-47.2	-49.0	21.5	6.02e-01	0	35	0	1260388352	65	4592
