passes_logs/2026/01/18/R3.2S_Murmansk/R3.2S_Murmansk__20260118_125144_FENGYUN_3D_rec.log

#Pass ID: 20260118_125144_FENGYUN 3D
#Satellite: FENGYUN 3D
#Configuration: FENGYUN 3D
#almurnet v.1.7.20251203
#Start time: 2026-01-18 12:51:43

#Version: 2.2.20231116
#Station: R3.2S_Murmansk
#Location: 33.079688 lon 68.888172 lat
#TLE: 1 43010U 17072A   26017.61121112  .00000213  00000+0  12257-3 0  9991
#TLE: 2 43010  98.9934 349.4672 0002374 103.9362 256.2078 14.19696413423628

#Time	Az	El	Level	Level2	SNR	BER	BlckErr	Temp	State	Recorded	gain1	gain2
2026-01-18 12:51:43.73	183.35	1.98	-52.1	-63.7	3.8	8.46e-01	0	34	0	0	76	13161
2026-01-18 12:51:44.73	183.39	2.04	-52.1	-63.8	3.8	8.47e-01	0	34	104	0	74	14976
2026-01-18 12:51:45.74	183.43	2.10	-52.1	-63.8	3.8	8.46e-01	0	34	104	0	74	15045
2026-01-18 12:51:46.75	183.47	2.16	-52.1	-63.9	3.8	8.47e-01	0	34	104	0	74	15178
2026-01-18 12:51:47.76	183.51	2.23	-52.1	-63.9	3.8	8.46e-01	0	34	104	0	74	15074
2026-01-18 12:51:48.76	183.55	2.29	-52.1	-63.9	3.8	8.47e-01	0	34	104	0	74	15108
2026-01-18 12:51:49.77	183.60	2.35	-52.1	-63.8	3.8	8.46e-01	0	34	104	0	74	14913
2026-01-18 12:51:50.78	183.64	2.41	-52.1	-63.8	3.8	8.46e-01	0	34	104	0	74	14892
2026-01-18 12:51:51.79	183.68	2.48	-52.1	-63.6	3.8	8.46e-01	0	34	104	0	74	14695
2026-01-18 12:51:52.80	183.72	2.54	-52.1	-63.6	3.8	8.46e-01	0	34	104	0	74	14682
2026-01-18 12:51:53.80	183.76	2.60	-52.0	-63.6	3.8	8.45e-01	0	34	104	0	74	14638
2026-01-18 12:51:54.81	183.80	2.67	-52.1	-63.8	3.8	8.45e-01	0	34	104	0	74	14906
2026-01-18 12:51:55.82	183.84	2.73	-52.0	-63.8	3.8	8.47e-01	0	34	104	0	74	14967
2026-01-18 12:51:56.82	183.89	2.79	-52.1	-63.8	3.8	8.46e-01	0	34	104	0	74	14910
2026-01-18 12:51:57.83	183.93	2.86	-52.1	-63.8	3.8	8.46e-01	0	34	104	0	74	14949
2026-01-18 12:51:58.84	183.97	2.92	-52.0	-63.7	3.8	8.46e-01	0	35	104	0	74	14856
2026-01-18 12:51:59.85	184.01	2.98	-52.0	-63.6	3.8	8.46e-01	0	34	104	0	74	14596
2026-01-18 12:52:00.86	184.06	3.05	-52.0	-63.3	3.8	8.48e-01	0	34	104	0	74	14126
2026-01-18 12:52:01.87	184.10	3.11	-52.0	-63.3	3.8	8.47e-01	0	34	104	0	74	14092
2026-01-18 12:52:02.87	184.14	3.18	-52.0	-63.5	3.8	8.46e-01	0	34	104	0	74	14474
2026-01-18 12:52:03.88	184.18	3.24	-52.1	-63.7	3.8	8.46e-01	0	35	104	0	74	14806
2026-01-18 12:52:04.89	184.23	3.31	-52.1	-63.9	3.8	8.47e-01	0	35	104	0	74	15120
2026-01-18 12:52:05.89	184.27	3.37	-52.1	-64.0	3.8	8.47e-01	0	35	104	0	74	15274
2026-01-18 12:52:06.90	184.32	3.44	-52.0	-63.7	3.8	8.46e-01	0	35	104	0	74	14821
2026-01-18 12:52:07.91	184.36	3.50	-52.0	-62.8	3.8	8.47e-01	0	34	104	0	74	13307
2026-01-18 12:52:08.92	184.40	3.57	-51.8	-61.7	3.8	8.46e-01	0	34	104	0	74	11783
2026-01-18 12:52:09.93	184.45	3.63	-51.6	-59.8	4.4	8.38e-01	0	35	0	0	74	9453
2026-01-18 12:52:10.93	184.49	3.70	-51.3	-58.4	5.0	7.83e-01	0	35	0	0	74	8037
2026-01-18 12:52:11.94	184.54	3.76	-51.1	-57.3	5.7	6.48e-01	0	35	0	1048576	74	7051
2026-01-18 12:52:12.95	184.58	3.83	-50.7	-56.0	6.7	2.44e-01	0	35	0	6291456	73	6492
2026-01-18 12:52:13.96	184.63	3.89	-50.4	-55.2	7.5	1.50e-01	0	35	0	11534336	72	6208
2026-01-18 12:52:14.96	184.67	3.96	-50.1	-54.5	8.2	9.11e-02	0	35	0	17825792	72	5732
2026-01-18 12:52:15.97	184.72	4.03	-49.7	-53.5	9.3	2.16e-02	0	35	0	23068672	71	5403
2026-01-18 12:52:16.98	184.76	4.09	-49.3	-52.7	10.1	1.56e-02	0	35	0	28311552	70	5268
2026-01-18 12:52:17.99	184.81	4.16	-48.8	-51.8	11.0	3.06e-03	0	35	0	34603008	69	5041
2026-01-18 12:52:18.99	184.85	4.23	-48.0	-50.5	12.4	5.21e-04	0	35	0	39845888	68	4561
2026-01-18 12:52:20.00	184.90	4.29	-47.4	-49.6	13.2	6.40e-05	0	35	0	46137344	66	4646
2026-01-18 12:52:21.01	184.95	4.36	-46.7	-48.6	14.3	4.50e-06	0	35	0	51380224	65	4379
2026-01-18 12:52:22.02	184.99	4.43	-46.0	-47.6	15.4	0.00e+00	0	35	0	56623104	63	4376
2026-01-18 12:52:23.02	185.04	4.49	-45.3	-46.8	16.2	0.00e+00	0	35	0	62914560	62	4229
2026-01-18 12:52:24.03	185.09	4.56	-44.8	-46.2	16.9	0.00e+00	0	35	0	69206016	61	4156
2026-01-18 12:52:25.04	185.13	4.63	-44.2	-45.5	17.5	0.00e+00	0	35	0	74448896	60	4071
2026-01-18 12:52:26.05	185.18	4.70	-44.2	-45.5	17.5	0.00e+00	0	35	0	79691776	60	4077
2026-01-18 12:52:27.06	185.23	4.77	-44.4	-45.7	17.6	0.00e+00	0	35	0	85983232	59	4411
2026-01-18 12:52:28.06	185.28	4.83	-44.3	-45.6	17.7	0.00e+00	0	35	0	91226112	59	4364
2026-01-18 12:52:29.07	185.32	4.90	-44.3	-45.6	17.7	0.00e+00	0	35	0	96468992	59	4388
2026-01-18 12:52:30.08	185.37	4.97	-44.7	-46.1	17.2	0.00e+00	0	35	0	102760448	59	4606
2026-01-18 12:52:31.09	185.42	5.04	-44.8	-46.3	16.8	0.00e+00	0	35	0	108003328	60	4451
2026-01-18 12:52:32.10	185.47	5.11	-44.2	-45.5	17.9	0.00e+00	0	35	0	113246208	59	4293
2026-01-18 12:52:33.11	185.52	5.18	-44.6	-45.9	17.5	0.00e+00	0	35	0	119537664	59	4528
2026-01-18 12:52:34.12	185.57	5.25	-49.2	-52.5	10.3	4.27e-04	0	35	0	124780544	68	5785
2026-01-18 12:52:35.13	185.62	5.32	-47.9	-50.4	12.3	7.78e-04	0	35	0	131072000	67	4769
2026-01-18 12:52:36.13	185.67	5.38	-46.4	-48.1	15.0	0.00e+00	0	35	0	136314880	63	4637
2026-01-18 12:52:37.14	185.71	5.45	-44.0	-45.2	18.2	0.00e+00	0	35	0	142606336	59	4187
2026-01-18 12:52:38.15	185.76	5.52	-44.4	-45.7	17.8	0.00e+00	0	35	0	147849216	59	4392
2026-01-18 12:52:39.16	185.81	5.59	-44.0	-45.2	18.3	0.00e+00	0	35	0	154140672	59	4153
2026-01-18 12:52:40.16	185.86	5.66	-43.8	-45.0	18.4	0.00e+00	0	35	0	159383552	59	4069
2026-01-18 12:52:41.17	185.92	5.73	-43.9	-45.1	18.4	0.00e+00	0	35	0	164626432	59	4123
2026-01-18 12:52:42.18	185.97	5.80	-43.8	-45.0	18.5	0.00e+00	0	35	0	170917888	59	4058
2026-01-18 12:52:43.19	186.02	5.88	-43.9	-45.0	18.4	0.00e+00	0	35	0	176160768	59	4095
2026-01-18 12:52:44.20	186.07	5.95	-43.7	-44.8	18.7	0.00e+00	0	35	0	181403648	59	3988
2026-01-18 12:52:45.21	186.12	6.02	-43.8	-45.0	18.5	0.00e+00	0	35	0	187695104	59	4066
2026-01-18 12:52:46.22	186.17	6.09	-43.9	-45.1	18.4	0.00e+00	0	35	0	192937984	59	4123
2026-01-18 12:52:47.22	186.22	6.16	-43.7	-44.8	18.6	0.00e+00	0	35	0	199229440	59	4004
2026-01-18 12:52:48.23	186.28	6.23	-43.8	-45.0	18.6	0.00e+00	0	35	0	204472320	59	4070
2026-01-18 12:52:49.24	186.33	6.30	-43.9	-45.1	18.4	0.00e+00	0	35	0	210763776	59	4125
2026-01-18 12:52:50.25	186.38	6.37	-43.7	-44.8	18.7	0.00e+00	0	35	0	216006656	59	3988
2026-01-18 12:52:51.25	186.43	6.45	-43.6	-44.8	18.8	0.00e+00	0	35	0	221249536	59	3973
2026-01-18 12:52:52.26	186.49	6.52	-43.8	-45.0	18.6	0.00e+00	0	35	0	227540992	59	4058
2026-01-18 12:52:53.27	186.54	6.59	-43.6	-44.7	18.8	0.00e+00	0	35	0	232783872	59	3949
2026-01-18 12:52:54.28	186.59	6.66	-43.7	-44.8	18.8	0.00e+00	0	35	0	239075328	59	3988
2026-01-18 12:52:55.29	186.65	6.74	-43.7	-44.8	18.7	0.00e+00	0	35	0	244318208	59	4001
2026-01-18 12:52:56.30	186.70	6.81	-43.8	-45.0	18.6	0.00e+00	0	35	0	249561088	59	4066
2026-01-18 12:52:57.30	186.76	6.88	-43.5	-44.6	19.0	0.00e+00	0	35	0	255852544	59	3899
2026-01-18 12:52:58.31	186.81	6.96	-43.6	-44.8	18.9	0.00e+00	0	35	0	261095424	59	3962
2026-01-18 12:52:59.32	186.87	7.03	-43.5	-44.7	19.0	0.00e+00	0	35	0	266338304	59	3916
2026-01-18 12:53:00.33	186.92	7.10	-43.5	-44.6	19.0	0.00e+00	0	35	0	272629760	59	3893
2026-01-18 12:53:01.34	186.98	7.18	-43.5	-44.6	19.0	0.00e+00	0	35	0	278921216	59	3909
2026-01-18 12:53:02.35	187.03	7.25	-43.6	-44.8	18.9	0.00e+00	0	35	0	284164096	59	3974
2026-01-18 12:53:03.35	187.09	7.33	-43.5	-44.6	19.1	0.00e+00	0	36	0	289406976	59	3895
2026-01-18 12:53:04.36	187.14	7.40	-43.7	-44.8	18.9	0.00e+00	0	35	0	295698432	59	3983
2026-01-18 12:53:05.37	187.20	7.48	-43.5	-44.6	19.1	0.00e+00	0	35	0	300941312	59	3896
2026-01-18 12:53:06.38	187.26	7.55	-43.5	-44.6	19.1	0.00e+00	0	35	0	306184192	58	4133
2026-01-18 12:53:07.38	187.31	7.62	-43.4	-44.5	19.2	0.00e+00	0	35	0	312475648	58	4058
2026-01-18 12:53:08.39	187.37	7.70	-43.5	-44.6	19.1	0.00e+00	0	35	0	317718528	58	4119
2026-01-18 12:53:09.40	187.43	7.78	-43.5	-44.7	19.1	0.00e+00	0	35	0	324009984	58	4149
2026-01-18 12:53:10.41	187.49	7.85	-43.5	-44.6	19.2	0.00e+00	0	35	0	329252864	58	4110
2026-01-18 12:53:11.42	187.54	7.93	-43.5	-44.6	19.2	0.00e+00	0	35	0	334495744	58	4118
2026-01-18 12:53:12.42	187.60	8.00	-43.7	-44.8	18.9	0.00e+00	0	35	0	340787200	58	4242
2026-01-18 12:53:13.43	187.66	8.08	-43.6	-44.7	19.1	0.00e+00	0	35	0	347078656	58	4163
2026-01-18 12:53:14.44	187.72	8.16	-43.6	-44.7	19.1	0.00e+00	0	36	0	352321536	58	4154
2026-01-18 12:53:15.45	187.78	8.23	-43.4	-44.5	19.3	0.00e+00	0	35	0	357564416	58	4058
2026-01-18 12:53:16.46	187.84	8.31	-43.2	-44.3	19.5	0.00e+00	0	35	0	363855872	58	3976
2026-01-18 12:53:17.46	187.90	8.39	-43.1	-44.2	19.5	0.00e+00	0	35	0	369098752	58	3935
2026-01-18 12:53:18.47	187.96	8.46	-43.2	-44.2	19.5	0.00e+00	0	35	0	374341632	58	3952
2026-01-18 12:53:19.48	188.02	8.54	-43.2	-44.3	19.6	0.00e+00	0	35	0	380633088	58	3961
2026-01-18 12:53:20.49	188.08	8.62	-43.2	-44.2	19.6	0.00e+00	0	35	0	385875968	58	3949
2026-01-18 12:53:21.50	188.14	8.70	-43.0	-44.0	19.8	0.00e+00	0	35	0	391118848	58	3853
2026-01-18 12:53:22.51	188.20	8.78	-42.9	-44.0	19.8	0.00e+00	0	35	0	397410304	57	4070
2026-01-18 12:53:23.51	188.26	8.85	-43.0	-44.1	19.7	0.00e+00	0	35	0	402653184	57	4115
2026-01-18 12:53:24.52	188.33	8.93	-42.8	-43.8	20.0	0.00e+00	0	36	0	408944640	57	3969
2026-01-18 12:53:25.53	188.39	9.01	-42.8	-43.8	20.0	0.00e+00	0	35	0	414187520	57	4004
2026-01-18 12:53:26.53	188.45	9.09	-42.8	-43.9	20.0	0.00e+00	0	35	0	420478976	57	4006
2026-01-18 12:53:27.54	188.51	9.17	-42.8	-43.8	20.0	0.00e+00	0	35	0	425721856	57	4001
2026-01-18 12:53:28.55	188.58	9.25	-42.7	-43.7	20.1	0.00e+00	0	35	0	432013312	57	3937
2026-01-18 12:53:29.56	188.64	9.33	-42.7	-43.7	20.1	0.00e+00	0	35	0	437256192	57	3951
2026-01-18 12:53:30.57	188.70	9.41	-42.8	-43.8	20.1	0.00e+00	0	35	0	442499072	57	3961
2026-01-18 12:53:31.57	188.77	9.49	-42.7	-43.7	20.1	0.00e+00	0	36	0	448790528	57	3941
2026-01-18 12:53:32.58	188.83	9.57	-42.7	-43.7	20.1	0.00e+00	0	36	0	454033408	57	3947
2026-01-18 12:53:33.59	188.90	9.65	-42.7	-43.7	20.2	0.00e+00	0	35	0	459276288	57	3935
2026-01-18 12:53:34.60	188.96	9.73	-42.6	-43.6	20.2	0.00e+00	0	36	0	465567744	57	3891
2026-01-18 12:53:35.60	189.03	9.81	-42.6	-43.6	20.3	0.00e+00	0	36	0	470810624	57	3877
2026-01-18 12:53:36.61	189.09	9.89	-42.6	-43.6	20.2	0.00e+00	0	35	0	476053504	57	3906
2026-01-18 12:53:37.62	189.16	9.98	-42.6	-43.6	20.3	0.00e+00	0	36	0	482344960	57	3900
2026-01-18 12:53:38.63	189.23	10.06	-42.6	-43.6	20.3	0.00e+00	0	36	0	488636416	57	3877
2026-01-18 12:53:39.64	189.29	10.14	-42.5	-43.5	20.4	0.00e+00	0	36	0	493879296	57	3848
2026-01-18 12:53:40.64	189.36	10.22	-42.7	-43.7	20.2	0.00e+00	0	36	0	499122176	57	3921
2026-01-18 12:53:41.65	189.43	10.30	-42.4	-43.3	20.5	0.00e+00	0	36	0	505413632	56	4004
2026-01-18 12:53:42.66	189.50	10.39	-42.4	-43.3	20.5	0.00e+00	0	36	0	510656512	56	4003
2026-01-18 12:53:43.67	189.57	10.47	-42.5	-43.5	20.4	0.00e+00	0	36	0	516947968	56	4053
2026-01-18 12:53:44.68	189.64	10.55	-42.4	-43.4	20.5	0.00e+00	0	35	0	522190848	56	4011
2026-01-18 12:53:45.69	189.70	10.64	-42.3	-43.2	20.6	0.00e+00	0	36	0	527433728	56	3957
2026-01-18 12:53:46.69	189.77	10.72	-42.4	-43.4	20.5	0.00e+00	0	35	0	533725184	56	4018
2026-01-18 12:53:47.70	189.84	10.81	-42.4	-43.4	20.5	0.00e+00	0	35	0	538968064	56	4037
2026-01-18 12:53:48.71	189.91	10.89	-42.4	-43.4	20.5	0.00e+00	0	36	0	544210944	56	4020
2026-01-18 12:53:49.72	189.98	10.98	-42.3	-43.2	20.7	0.00e+00	0	36	0	550502400	56	3953
2026-01-18 12:53:50.73	190.06	11.06	-42.2	-43.2	20.7	0.00e+00	0	36	0	556793856	56	3937
2026-01-18 12:53:51.73	190.13	11.14	-42.2	-43.1	20.8	0.00e+00	0	36	0	562036736	56	3892
2026-01-18 12:53:52.74	190.20	11.23	-42.1	-43.1	20.8	0.00e+00	0	36	0	567279616	56	3885
2026-01-18 12:53:53.75	190.27	11.32	-42.2	-43.1	20.8	0.00e+00	0	36	0	573571072	56	3900
2026-01-18 12:53:54.76	190.34	11.40	-42.3	-43.2	20.7	0.00e+00	0	35	0	578813952	56	3953
2026-01-18 12:53:55.76	190.42	11.49	-42.3	-43.2	20.7	0.00e+00	0	36	0	584056832	56	3953
2026-01-18 12:53:56.77	190.49	11.57	-42.2	-43.2	20.8	0.00e+00	0	35	0	590348288	56	3920
2026-01-18 12:53:57.78	190.56	11.66	-42.3	-43.3	20.6	0.00e+00	0	35	0	595591168	56	3986
2026-01-18 12:53:58.79	190.64	11.75	-42.2	-43.2	20.8	0.00e+00	0	36	0	601882624	56	3934
2026-01-18 12:53:59.79	190.71	11.83	-42.2	-43.2	20.8	0.00e+00	0	36	0	607125504	56	3930
2026-01-18 12:54:00.80	190.79	11.92	-42.4	-43.4	20.6	0.00e+00	0	36	0	612368384	56	4005
2026-01-18 12:54:01.81	190.86	12.01	-42.3	-43.2	20.8	0.00e+00	0	36	0	618659840	56	3941
2026-01-18 12:54:02.82	190.94	12.10	-42.3	-43.3	20.7	0.00e+00	0	36	0	623902720	56	3984
2026-01-18 12:54:03.83	191.02	12.19	-42.3	-43.3	20.7	0.00e+00	0	36	0	630194176	56	3982
2026-01-18 12:54:04.83	191.09	12.28	-42.4	-43.4	20.6	0.00e+00	0	36	0	635437056	56	4021
2026-01-18 12:54:05.84	191.17	12.36	-42.4	-43.3	20.6	0.00e+00	0	36	0	641728512	56	3991
2026-01-18 12:54:06.85	191.25	12.45	-42.4	-43.3	20.6	0.00e+00	0	36	0	646971392	56	3990
2026-01-18 12:54:07.86	191.33	12.54	-42.4	-43.3	20.7	0.00e+00	0	36	0	652214272	56	3994
2026-01-18 12:54:08.86	191.40	12.63	-42.3	-43.3	20.7	0.00e+00	0	36	0	658505728	56	3968
2026-01-18 12:54:09.87	191.48	12.72	-42.1	-43.1	20.9	0.00e+00	0	36	0	663748608	56	3877
2026-01-18 12:54:10.88	191.56	12.81	-42.0	-42.9	21.0	0.00e+00	0	36	0	668991488	56	3816
2026-01-18 12:54:11.89	191.64	12.90	-41.9	-42.8	21.1	0.00e+00	0	36	0	675282944	55	3983
2026-01-18 12:54:12.90	191.72	12.99	-41.9	-42.8	21.1	0.00e+00	0	36	0	680525824	55	3977
2026-01-18 12:54:13.91	191.80	13.09	-41.7	-42.7	21.2	0.00e+00	0	36	0	686817280	55	3917
2026-01-18 12:54:14.91	191.88	13.18	-41.8	-42.7	21.1	0.00e+00	0	36	0	692060160	55	3953
2026-01-18 12:54:15.92	191.97	13.27	-41.7	-42.6	21.2	0.00e+00	0	36	0	697303040	55	3913
2026-01-18 12:54:16.93	192.05	13.36	-41.7	-42.6	21.3	0.00e+00	0	35	0	703594496	55	3904
2026-01-18 12:54:17.94	192.13	13.45	-41.7	-42.6	21.3	0.00e+00	0	36	0	709885952	55	3883
2026-01-18 12:54:18.95	192.22	13.55	-41.7	-42.6	21.3	0.00e+00	0	35	0	715128832	55	3905
2026-01-18 12:54:19.95	192.30	13.64	-41.5	-42.4	21.5	0.00e+00	0	36	0	720371712	55	3814
2026-01-18 12:54:20.96	192.38	13.73	-41.6	-42.5	21.4	0.00e+00	0	36	0	726663168	55	3832
2026-01-18 12:54:21.97	192.47	13.83	-41.7	-42.6	21.3	0.00e+00	0	36	0	731906048	55	3891
2026-01-18 12:54:22.98	192.55	13.92	-41.7	-42.6	21.3	0.00e+00	0	36	0	737148928	55	3894
2026-01-18 12:54:23.99	192.64	14.01	-41.5	-42.4	21.5	0.00e+00	0	36	0	743440384	55	3815
2026-01-18 12:54:24.99	192.73	14.11	-41.5	-42.4	21.5	0.00e+00	0	36	0	748683264	55	3813
2026-01-18 12:54:26.00	192.81	14.20	-41.4	-42.3	21.6	0.00e+00	0	36	0	754974720	54	3983
2026-01-18 12:54:27.01	192.90	14.30	-41.4	-42.3	21.6	0.00e+00	0	36	0	760217600	54	3991
2026-01-18 12:54:28.02	192.99	14.39	-41.4	-42.3	21.6	0.00e+00	0	36	0	765460480	54	4003
2026-01-18 12:54:29.03	193.08	14.49	-41.4	-42.3	21.6	0.00e+00	0	36	0	771751936	54	3964
2026-01-18 12:54:30.03	193.17	14.59	-41.3	-42.2	21.7	0.00e+00	0	36	0	776994816	54	3920
2026-01-18 12:54:31.04	193.26	14.68	-41.2	-42.0	21.9	0.00e+00	0	36	0	783286272	54	3866
2026-01-18 12:54:32.05	193.35	14.78	-41.1	-42.0	21.9	0.00e+00	0	36	0	788529152	54	3852
2026-01-18 12:54:33.06	193.44	14.88	-41.1	-42.0	21.9	0.00e+00	0	36	0	794820608	54	3853
2026-01-18 12:54:34.07	193.53	14.97	-41.2	-42.0	21.9	0.00e+00	0	36	0	800063488	54	3851
2026-01-18 12:54:35.07	193.62	15.07	-41.1	-42.0	21.9	0.00e+00	0	36	0	805306368	54	3840
2026-01-18 12:54:36.08	193.71	15.17	-41.1	-42.0	21.9	0.00e+00	0	36	0	811597824	54	3849
2026-01-18 12:54:37.09	193.80	15.27	-41.2	-42.1	21.9	0.00e+00	0	36	0	816840704	54	3872
2026-01-18 12:54:38.10	193.90	15.37	-41.3	-42.1	21.8	0.00e+00	0	36	0	822083584	54	3898
2026-01-18 12:54:39.10	193.99	15.46	-41.2	-42.0	21.9	0.00e+00	0	36	0	828375040	54	3867
2026-01-18 12:54:40.11	194.09	15.56	-41.2	-42.1	21.9	0.00e+00	0	36	0	833617920	54	3875
2026-01-18 12:54:41.12	194.18	15.66	-41.0	-41.9	22.0	0.00e+00	0	36	0	839909376	54	3799
2026-01-18 12:54:42.13	194.28	15.76	-41.1	-42.0	21.9	0.00e+00	0	36	0	845152256	54	3843
2026-01-18 12:54:43.14	194.38	15.86	-41.1	-41.9	22.0	0.00e+00	0	36	0	851443712	54	3817
2026-01-18 12:54:44.15	194.47	15.97	-40.9	-41.8	22.2	0.00e+00	0	36	0	856686592	53	3960
2026-01-18 12:54:45.16	194.57	16.07	-41.0	-41.9	22.1	0.00e+00	0	36	0	862978048	53	4005
2026-01-18 12:54:46.17	194.67	16.17	-40.9	-41.8	22.1	0.00e+00	0	36	0	868220928	53	3966
2026-01-18 12:54:47.17	194.77	16.27	-40.9	-41.8	22.1	0.00e+00	0	36	0	873463808	53	3962
2026-01-18 12:54:48.18	194.87	16.37	-41.0	-41.8	22.1	0.00e+00	0	36	0	879755264	53	3986
2026-01-18 12:54:49.19	194.97	16.47	-41.0	-41.8	22.1	0.00e+00	0	36	0	884998144	53	4001
2026-01-18 12:54:50.20	195.07	16.58	-40.9	-41.8	22.1	0.00e+00	0	36	0	890241024	53	3979
2026-01-18 12:54:51.21	195.17	16.68	-40.8	-41.7	22.2	0.00e+00	0	36	0	896532480	53	3922
2026-01-18 12:54:52.22	195.28	16.78	-40.7	-41.5	22.4	0.00e+00	0	36	0	901775360	53	3864
2026-01-18 12:54:53.23	195.38	16.89	-40.7	-41.6	22.3	0.00e+00	0	36	0	908066816	53	3874
2026-01-18 12:54:54.23	195.48	16.99	-40.7	-41.5	22.4	0.00e+00	0	36	0	913309696	53	3858
2026-01-18 12:54:55.24	195.59	17.10	-40.6	-41.5	22.4	0.00e+00	0	36	0	919601152	53	3826
2026-01-18 12:54:56.25	195.69	17.20	-40.6	-41.4	22.5	0.00e+00	0	36	0	924844032	53	3801
2026-01-18 12:54:57.26	195.80	17.31	-40.4	-41.2	22.7	0.00e+00	0	36	0	930086912	52	3922
2026-01-18 12:54:58.27	195.90	17.41	-40.3	-41.1	22.8	0.00e+00	0	36	0	936378368	52	3891
2026-01-18 12:54:59.27	196.01	17.52	-40.3	-41.1	22.8	0.00e+00	0	36	0	941621248	52	3899
2026-01-18 12:55:00.28	196.12	17.62	-40.3	-41.1	22.7	0.00e+00	0	36	0	947912704	52	3905
2026-01-18 12:55:01.29	196.23	17.73	-40.3	-41.1	22.8	0.00e+00	0	36	0	953155584	52	3911
2026-01-18 12:55:02.30	196.34	17.84	-40.4	-41.2	22.7	0.00e+00	0	36	0	958398464	52	3934
2026-01-18 12:55:03.30	196.45	17.95	-40.4	-41.2	22.7	0.00e+00	0	36	0	964689920	52	3953
2026-01-18 12:55:04.31	196.56	18.05	-40.4	-41.2	22.7	0.00e+00	0	36	0	969932800	52	3926
2026-01-18 12:55:05.32	196.67	18.16	-40.4	-41.2	22.7	0.00e+00	0	36	0	975175680	52	3941
2026-01-18 12:55:06.33	196.78	18.27	-40.4	-41.2	22.7	0.00e+00	0	36	0	981467136	52	3930
2026-01-18 12:55:07.34	196.90	18.38	-40.4	-41.2	22.7	0.00e+00	0	36	0	987758592	52	3946
2026-01-18 12:55:08.35	197.01	18.49	-40.4	-41.2	22.7	0.00e+00	0	36	0	993001472	52	3929
2026-01-18 12:55:09.35	197.13	18.60	-40.3	-41.1	22.8	0.00e+00	0	36	0	998244352	52	3885
2026-01-18 12:55:10.36	197.24	18.71	-40.3	-41.2	22.8	0.00e+00	0	36	0	1004535808	52	3914
2026-01-18 12:55:11.37	197.36	18.82	-40.3	-41.1	22.8	0.00e+00	0	36	0	1009778688	52	3895
2026-01-18 12:55:12.37	197.47	18.93	-40.3	-41.1	22.8	0.00e+00	0	36	0	1015021568	52	3900
2026-01-18 12:55:13.38	197.59	19.04	-40.4	-41.2	22.7	0.00e+00	0	36	0	1021313024	52	3928
2026-01-18 12:55:14.39	197.71	19.15	-40.2	-41.0	22.9	0.00e+00	0	36	0	1026555904	52	3844
2026-01-18 12:55:15.40	197.83	19.27	-40.2	-41.0	22.9	0.00e+00	0	36	0	1032847360	52	3837
2026-01-18 12:55:16.41	197.95	19.38	-40.2	-41.0	22.9	0.00e+00	0	36	0	1038090240	52	3863
2026-01-18 12:55:17.41	198.07	19.49	-40.2	-41.0	22.9	0.00e+00	0	36	0	1043333120	52	3866
2026-01-18 12:55:18.42	198.20	19.60	-40.2	-41.0	22.9	0.00e+00	0	36	0	1049624576	52	3845
2026-01-18 12:55:19.43	198.32	19.72	-40.3	-41.1	22.8	0.00e+00	0	36	0	1055916032	52	3883
2026-01-18 12:55:20.44	198.44	19.83	-40.3	-41.0	23.1	0.00e+00	0	36	0	1061158912	52	3859
2026-01-18 12:55:21.45	198.57	19.95	-40.3	-41.1	23.0	0.00e+00	0	36	0	1066401792	52	3878
2026-01-18 12:55:22.45	198.70	20.06	-40.3	-41.1	23.0	0.00e+00	0	36	0	1072693248	52	3887
2026-01-18 12:55:23.47	198.82	20.18	-40.3	-41.1	23.0	0.00e+00	0	36	0	1077936128	52	3894
2026-01-18 12:55:24.47	198.95	20.29	-40.3	-41.1	23.1	0.00e+00	0	36	0	1083179008	52	3875
2026-01-18 12:55:25.48	199.08	20.41	-40.3	-41.1	23.1	0.00e+00	0	36	0	1089470464	52	3877
2026-01-18 12:55:26.49	199.21	20.52	-40.2	-41.0	23.1	0.00e+00	0	36	0	1094713344	52	3861
2026-01-18 12:55:27.50	199.34	20.64	-40.1	-40.9	23.2	0.00e+00	0	36	0	1099956224	52	3805
2026-01-18 12:55:28.51	199.47	20.76	-40.2	-41.0	23.2	0.00e+00	0	36	0	1106247680	52	3825
2026-01-18 12:55:29.51	199.60	20.87	-40.1	-40.9	23.3	0.00e+00	0	36	0	1111490560	52	3787
2026-01-18 12:55:30.52	199.74	20.99	-40.2	-41.0	23.2	0.00e+00	0	36	0	1117782016	52	3830
2026-01-18 12:55:31.53	199.87	21.11	-40.1	-40.9	23.3	0.00e+00	0	36	0	1123024896	52	3794
2026-01-18 12:55:32.53	200.01	21.23	-40.2	-40.9	23.2	0.00e+00	0	36	0	1129316352	52	3822
2026-01-18 12:55:33.54	200.14	21.35	-40.1	-40.8	23.3	0.00e+00	0	36	0	1134559232	52	3774
2026-01-18 12:55:34.55	200.28	21.47	-40.1	-40.8	23.3	0.00e+00	0	36	0	1140850688	52	3777
2026-01-18 12:55:35.56	200.42	21.59	-40.0	-40.8	23.4	0.00e+00	0	36	0	1146093568	52	3760
2026-01-18 12:55:36.57	200.56	21.71	-39.9	-40.7	23.5	0.00e+00	0	36	0	1151336448	51	3940
2026-01-18 12:55:37.57	200.70	21.83	-40.0	-40.7	23.5	0.00e+00	0	36	0	1157627904	51	3941
2026-01-18 12:55:38.58	200.84	21.95	-40.1	-40.9	23.4	0.00e+00	0	36	0	1162870784	51	4016
2026-01-18 12:55:39.59	200.99	22.07	-40.0	-40.7	23.5	0.00e+00	0	36	0	1168113664	51	3940
2026-01-18 12:55:40.60	201.13	22.20	-39.9	-40.7	23.6	0.00e+00	0	36	0	1174405120	51	3920
2026-01-18 12:55:41.60	201.27	22.32	-39.9	-40.7	23.5	0.00e+00	0	36	0	1179648000	51	3937
2026-01-18 12:55:42.61	201.42	22.44	-40.0	-40.7	23.5	0.00e+00	0	36	0	1184890880	51	3952
2026-01-18 12:55:43.62	201.57	22.56	-40.0	-40.8	23.5	0.00e+00	0	36	0	1191182336	51	3963
2026-01-18 12:55:44.63	201.72	22.69	-39.9	-40.7	23.6	0.00e+00	0	36	0	1197473792	51	3935
2026-01-18 12:55:45.64	201.87	22.81	-39.9	-40.7	23.5	0.00e+00	0	36	0	1202716672	51	3937
2026-01-18 12:55:46.64	202.02	22.93	-40.0	-40.7	23.5	0.00e+00	0	36	0	1207959552	51	3944
2026-01-18 12:55:47.65	202.17	23.06	-39.9	-40.6	23.6	0.00e+00	0	36	0	1214251008	51	3900
2026-01-18 12:55:48.66	202.32	23.19	-39.8	-40.6	23.7	0.00e+00	0	36	0	1219493888	51	3874
2026-01-18 12:55:49.67	202.48	23.31	-39.5	-40.3	23.9	0.00e+00	0	36	0	1225785344	51	3744
2026-01-18 12:55:50.68	202.63	23.44	-39.6	-40.3	23.9	0.00e+00	0	36	0	1231028224	51	3776
2026-01-18 12:55:51.69	202.79	23.56	-39.5	-40.2	24.0	0.00e+00	0	36	0	1236271104	51	3731
2026-01-18 12:55:52.69	202.95	23.69	-39.3	-40.0	24.2	0.00e+00	0	36	0	1242562560	50	3843
2026-01-18 12:55:53.70	203.10	23.82	-39.3	-40.1	24.1	0.00e+00	0	36	0	1247805440	50	3879
2026-01-18 12:55:54.71	203.27	23.95	-39.4	-40.1	24.1	0.00e+00	0	36	0	1253048320	50	3895
2026-01-18 12:55:55.72	203.43	24.07	-39.4	-40.1	24.1	0.00e+00	0	36	0	1259339776	50	3903
2026-01-18 12:55:56.73	203.59	24.20	-39.4	-40.1	24.1	0.00e+00	0	36	0	1265631232	50	3886
2026-01-18 12:55:57.73	203.75	24.33	-39.3	-40.0	24.2	0.00e+00	0	36	0	1270874112	50	3857
2026-01-18 12:55:58.74	203.92	24.46	-39.2	-40.0	24.3	0.00e+00	0	36	0	1276116992	50	3831
2026-01-18 12:55:59.75	204.09	24.59	-39.3	-40.0	24.2	0.00e+00	0	36	0	1282408448	50	3857
2026-01-18 12:56:00.76	204.26	24.72	-39.3	-40.1	24.2	0.00e+00	0	36	0	1287651328	50	3881
2026-01-18 12:56:01.77	204.43	24.85	-39.3	-40.0	24.2	0.00e+00	0	36	0	1292894208	50	3836
2026-01-18 12:56:02.77	204.60	24.98	-39.4	-40.1	24.1	0.00e+00	0	36	0	1299185664	50	3882
2026-01-18 12:56:03.78	204.77	25.11	-39.3	-40.1	24.2	0.00e+00	0	36	0	1304428544	50	3877
2026-01-18 12:56:04.79	204.94	25.24	-39.1	-39.8	24.4	0.00e+00	0	36	0	1310720000	50	3769
2026-01-18 12:56:05.80	205.12	25.38	-39.0	-39.7	24.5	0.00e+00	0	36	0	1315962880	50	3737
2026-01-18 12:56:06.80	205.29	25.51	-38.9	-39.6	24.6	0.00e+00	0	36	0	1321205760	49	3901
2026-01-18 12:56:07.81	205.47	25.64	-38.9	-39.6	24.5	0.00e+00	0	36	0	1327497216	49	3900
2026-01-18 12:56:08.82	205.65	25.77	-39.0	-39.7	24.5	0.00e+00	0	36	0	1332740096	49	3952
2026-01-18 12:56:09.83	205.83	25.91	-39.1	-39.8	24.4	0.00e+00	0	36	0	1339031552	49	3970
2026-01-18 12:56:10.84	206.02	26.04	-39.1	-39.8	24.4	0.00e+00	0	36	0	1344274432	49	3982
2026-01-18 12:56:11.84	206.20	26.18	-39.1	-39.8	24.4	0.00e+00	0	36	0	1350565888	49	3999
2026-01-18 12:56:12.85	206.38	26.31	-38.9	-39.6	24.6	0.00e+00	0	36	0	1355808768	49	3907
2026-01-18 12:56:13.86	206.57	26.45	-39.0	-39.7	24.6	0.00e+00	0	36	0	1361051648	49	3922
2026-01-18 12:56:14.87	206.76	26.58	-38.9	-39.6	24.6	0.00e+00	0	36	0	1367343104	49	3905
2026-01-18 12:56:15.88	206.95	26.72	-38.9	-39.7	24.5	0.00e+00	0	36	0	1372585984	49	3921
2026-01-18 12:56:16.88	207.14	26.85	-39.1	-39.8	24.4	0.00e+00	0	36	0	1377828864	49	3988
2026-01-18 12:56:17.89	207.34	26.99	-39.1	-39.8	24.4	0.00e+00	0	36	0	1384120320	49	3976
2026-01-18 12:56:18.90	207.53	27.13	-39.0	-39.8	24.5	0.00e+00	0	36	0	1389363200	49	3968
2026-01-18 12:56:19.91	207.73	27.26	-39.1	-39.8	24.4	0.00e+00	0	36	0	1395654656	49	4003
2026-01-18 12:56:20.92	207.93	27.40	-39.0	-39.8	24.5	0.00e+00	0	36	0	1400897536	49	3961
2026-01-18 12:56:21.92	208.13	27.54	-39.1	-39.8	24.4	0.00e+00	0	36	0	1407188992	49	3992
2026-01-18 12:56:22.93	208.33	27.68	-39.0	-39.8	24.5	0.00e+00	0	36	0	1412431872	49	3959
2026-01-18 12:56:23.94	208.53	27.82	-38.9	-39.6	24.6	0.00e+00	0	36	0	1418723328	49	3913
2026-01-18 12:56:24.95	208.74	27.95	-38.9	-39.6	24.7	0.00e+00	0	36	0	1423966208	49	3880
2026-01-18 12:56:25.96	208.94	28.09	-39.0	-39.7	24.6	0.00e+00	0	36	0	1429209088	49	3920
2026-01-18 12:56:26.97	209.15	28.23	-38.9	-39.6	24.6	0.00e+00	0	36	0	1435500544	49	3883
2026-01-18 12:56:27.97	209.36	28.37	-38.7	-39.4	24.8	0.00e+00	0	36	0	1440743424	49	3789
2026-01-18 12:56:28.98	209.57	28.51	-38.7	-39.4	24.8	0.00e+00	0	36	0	1445986304	49	3821
2026-01-18 12:56:29.98	209.79	28.65	-38.7	-39.4	24.8	0.00e+00	0	36	0	1452277760	49	3822
2026-01-18 12:56:30.99	210.00	28.79	-38.9	-39.6	24.6	0.00e+00	0	36	0	1457520640	49	3884
2026-01-18 12:56:32.00	210.22	28.93	-39.0	-39.7	24.6	0.00e+00	0	36	0	1462763520	49	3939
2026-01-18 12:56:33.01	210.44	29.07	-39.2	-39.9	24.4	0.00e+00	0	36	0	1469054976	49	4020
2026-01-18 12:56:34.02	210.66	29.22	-39.1	-39.8	24.4	0.00e+00	0	36	0	1474297856	49	3994
2026-01-18 12:56:35.03	210.89	29.36	-38.9	-39.6	24.6	0.00e+00	0	36	0	1480589312	49	3895
2026-01-18 12:56:36.03	211.11	29.50	-38.8	-39.5	24.7	0.00e+00	0	36	0	1485832192	49	3839
2026-01-18 12:56:37.04	211.34	29.64	-38.9	-39.6	24.6	0.00e+00	0	36	0	1492123648	49	3897
2026-01-18 12:56:38.05	211.57	29.78	-38.9	-39.6	24.6	0.00e+00	0	36	0	1497366528	49	3897
2026-01-18 12:56:39.06	211.80	29.93	-39.0	-39.7	24.6	0.00e+00	0	36	0	1503657984	49	3927
2026-01-18 12:56:40.06	212.03	30.07	-39.0	-39.7	24.5	0.00e+00	0	36	0	1508900864	49	3952
2026-01-18 12:56:41.07	212.27	30.21	-38.9	-39.6	24.7	0.00e+00	0	36	0	1514143744	49	3888
2026-01-18 12:56:42.08	212.51	30.35	-38.9	-39.6	24.6	0.00e+00	0	36	0	1520435200	49	3895
2026-01-18 12:56:43.09	212.74	30.50	-38.8	-39.4	24.8	0.00e+00	0	36	0	1525678080	49	3824
2026-01-18 12:56:44.09	212.98	30.64	-38.7	-39.4	24.8	0.00e+00	0	36	0	1530920960	49	3794
2026-01-18 12:56:45.11	213.23	30.79	-38.7	-39.4	24.8	0.00e+00	0	36	0	1537212416	49	3813
2026-01-18 12:56:46.11	213.47	30.93	-38.6	-39.3	24.9	0.00e+00	0	36	0	1542455296	49	3775
2026-01-18 12:56:47.12	213.72	31.07	-38.7	-39.4	24.9	0.00e+00	0	36	0	1547698176	49	3796
2026-01-18 12:56:48.13	213.97	31.22	-38.7	-39.4	24.8	0.00e+00	0	36	0	1553989632	49	3819
2026-01-18 12:56:49.14	214.23	31.36	-38.7	-39.4	24.8	0.00e+00	0	36	0	1560281088	49	3794
2026-01-18 12:56:50.15	214.48	31.51	-38.7	-39.4	24.8	0.00e+00	0	36	0	1565523968	49	3817
2026-01-18 12:56:51.15	214.74	31.65	-38.8	-39.5	24.8	0.00e+00	0	36	0	1570766848	49	3828
2026-01-18 12:56:52.16	215.00	31.79	-38.7	-39.4	24.9	0.00e+00	0	36	0	1577058304	49	3810
2026-01-18 12:56:53.17	215.26	31.94	-38.7	-39.4	24.8	0.00e+00	0	36	0	1582301184	49	3821
2026-01-18 12:56:54.18	215.52	32.08	-38.7	-39.4	24.9	0.00e+00	0	36	0	1588592640	49	3808
2026-01-18 12:56:55.19	215.79	32.23	-38.7	-39.4	24.9	0.00e+00	0	36	0	1593835520	49	3795
2026-01-18 12:56:56.19	216.05	32.37	-38.7	-39.4	24.9	0.00e+00	0	36	0	1599078400	49	3806
2026-01-18 12:56:57.20	216.32	32.52	-38.6	-39.3	24.9	0.00e+00	0	36	0	1605369856	49	3766
2026-01-18 12:56:58.21	216.60	32.66	-38.5	-39.2	25.0	0.00e+00	0	36	0	1610612736	49	3732
2026-01-18 12:56:59.22	216.87	32.81	-38.6	-39.3	25.0	0.00e+00	0	36	0	1615855616	49	3742
2026-01-18 12:57:00.22	217.15	32.95	-38.7	-39.4	24.9	0.00e+00	0	36	0	1622147072	49	3789
2026-01-18 12:57:01.23	217.43	33.10	-38.8	-39.5	24.8	0.00e+00	0	36	0	1628438528	49	3838
2026-01-18 12:57:02.24	217.71	33.24	-38.8	-39.5	24.8	0.00e+00	0	36	0	1633681408	49	3863
2026-01-18 12:57:03.25	218.00	33.39	-38.8	-39.5	24.8	0.00e+00	0	36	0	1638924288	49	3833
2026-01-18 12:57:04.26	218.29	33.53	-38.9	-39.6	24.7	0.00e+00	0	36	0	1645215744	49	3871
2026-01-18 12:57:05.27	218.58	33.68	-38.8	-39.5	24.8	0.00e+00	0	36	0	1650458624	49	3862
2026-01-18 12:57:06.27	218.87	33.82	-38.7	-39.4	24.9	0.00e+00	0	36	0	1655701504	49	3810
2026-01-18 12:57:07.28	219.16	33.96	-38.8	-39.5	24.8	0.00e+00	0	36	0	1661992960	49	3834
2026-01-18 12:57:08.29	219.46	34.11	-38.9	-39.6	24.7	0.00e+00	0	36	0	1667235840	49	3886
2026-01-18 12:57:09.30	219.76	34.25	-38.9	-39.6	24.7	0.00e+00	0	36	0	1673527296	49	3886
2026-01-18 12:57:10.31	220.06	34.39	-38.8	-39.5	24.8	0.00e+00	0	36	0	1678770176	49	3859
2026-01-18 12:57:11.31	220.37	34.54	-38.7	-39.4	24.9	0.00e+00	0	36	0	1684013056	49	3794
2026-01-18 12:57:12.32	220.68	34.68	-38.7	-39.4	24.9	0.00e+00	0	36	0	1690304512	49	3821
2026-01-18 12:57:13.33	220.99	34.82	-38.7	-39.4	24.9	0.00e+00	0	36	0	1695547392	49	3797
2026-01-18 12:57:14.34	221.30	34.97	-38.7	-39.4	24.9	0.00e+00	0	36	0	1701838848	49	3791
2026-01-18 12:57:15.34	221.61	35.11	-38.6	-39.3	24.9	0.00e+00	0	36	0	1707081728	49	3778
2026-01-18 12:57:16.35	221.93	35.25	-38.7	-39.4	24.9	0.00e+00	0	36	0	1713373184	49	3795
2026-01-18 12:57:17.36	222.26	35.39	-38.7	-39.4	24.9	0.00e+00	0	36	0	1718616064	49	3822
2026-01-18 12:57:18.37	222.58	35.53	-38.8	-39.5	24.8	0.00e+00	0	36	0	1723858944	49	3863
2026-01-18 12:57:19.38	222.91	35.67	-38.9	-39.6	24.7	0.00e+00	0	36	0	1730150400	49	3910
2026-01-18 12:57:20.39	223.24	35.81	-38.7	-39.5	24.8	0.00e+00	0	36	0	1735393280	49	3826
2026-01-18 12:57:21.39	223.57	35.95	-38.7	-39.4	24.9	0.00e+00	0	36	0	1740636160	49	3807
2026-01-18 12:57:22.40	223.91	36.09	-38.6	-39.3	25.0	0.00e+00	0	36	0	1746927616	49	3756
2026-01-18 12:57:23.40	224.24	36.23	-38.5	-39.2	25.1	0.00e+00	0	36	0	1752170496	48	3921
2026-01-18 12:57:24.41	224.58	36.37	-38.4	-39.1	25.1	0.00e+00	0	36	0	1758461952	48	3906
2026-01-18 12:57:25.42	224.93	36.51	-38.5	-39.2	25.1	0.00e+00	0	36	0	1763704832	48	3941
2026-01-18 12:57:26.43	225.28	36.64	-38.5	-39.2	25.1	0.00e+00	0	36	0	1769996288	48	3935
2026-01-18 12:57:27.44	225.63	36.78	-38.4	-39.2	25.1	0.00e+00	0	36	0	1775239168	48	3914
2026-01-18 12:57:28.45	225.98	36.92	-38.4	-39.1	25.2	0.00e+00	0	36	0	1781530624	48	3895
2026-01-18 12:57:29.45	226.33	37.05	-38.4	-39.1	25.1	0.00e+00	0	36	0	1786773504	48	3907
2026-01-18 12:57:30.46	226.69	37.19	-38.4	-39.1	25.2	0.00e+00	0	36	0	1792016384	48	3889
2026-01-18 12:57:31.47	227.05	37.32	-38.4	-39.1	25.2	0.00e+00	0	36	0	1798307840	48	3892
2026-01-18 12:57:32.48	227.42	37.46	-38.4	-39.1	25.1	0.00e+00	0	36	0	1803550720	48	3902
2026-01-18 12:57:33.48	227.78	37.59	-38.4	-39.1	25.2	0.00e+00	0	36	0	1808793600	48	3873
2026-01-18 12:57:34.49	228.15	37.72	-38.5	-39.2	25.2	0.00e+00	0	36	0	1815085056	48	3923
2026-01-18 12:57:35.50	228.53	37.85	-38.5	-39.2	25.1	0.00e+00	0	36	0	1820327936	48	3958
2026-01-18 12:57:36.51	228.90	37.98	-38.5	-39.2	25.1	0.00e+00	0	36	0	1825570816	48	3946
2026-01-18 12:57:37.52	229.28	38.11	-38.5	-39.2	25.1	0.00e+00	0	36	0	1831862272	48	3935
2026-01-18 12:57:38.52	229.66	38.24	-38.6	-39.3	25.0	0.00e+00	0	36	0	1837105152	48	3972
2026-01-18 12:57:39.53	230.05	38.37	-38.6	-39.3	25.0	0.00e+00	0	36	0	1843396608	48	3996
2026-01-18 12:57:40.54	230.44	38.49	-38.6	-39.3	25.0	0.00e+00	0	36	0	1848639488	48	3966
2026-01-18 12:57:41.55	230.83	38.62	-38.7	-39.3	25.0	0.00e+00	0	36	0	1854930944	48	4004
2026-01-18 12:57:42.56	231.22	38.74	-38.5	-39.2	25.1	0.00e+00	0	36	0	1860173824	48	3950
2026-01-18 12:57:43.56	231.62	38.87	-38.5	-39.2	25.1	0.00e+00	0	36	0	1866465280	48	3936
2026-01-18 12:57:44.57	232.02	38.99	-38.5	-39.3	25.0	0.00e+00	0	36	0	1871708160	48	3960
2026-01-18 12:57:45.58	232.42	39.11	-38.7	-39.4	24.9	0.00e+00	0	36	0	1876951040	48	4047
2026-01-18 12:57:46.59	232.83	39.23	-38.9	-39.6	24.7	0.00e+00	0	36	0	1883242496	48	4133
2026-01-18 12:57:47.60	233.24	39.35	-38.8	-39.5	24.8	0.00e+00	0	36	0	1888485376	48	4065
2026-01-18 12:57:48.60	233.65	39.47	-38.3	-39.0	25.3	0.00e+00	0	36	0	1893728256	48	3838
2026-01-18 12:57:49.61	234.06	39.59	-38.3	-39.0	25.3	0.00e+00	0	35	0	1900019712	48	3825
2026-01-18 12:57:50.62	234.48	39.70	-38.3	-39.0	25.2	0.00e+00	0	36	0	1905262592	48	3864
2026-01-18 12:57:51.63	234.90	39.82	-38.5	-39.2	25.1	0.00e+00	0	36	0	1911554048	48	3944
2026-01-18 12:57:52.64	235.32	39.93	-38.6	-39.3	25.0	0.00e+00	0	36	0	1916796928	48	3989
2026-01-18 12:57:53.65	235.75	40.04	-38.5	-39.2	25.1	0.00e+00	0	36	0	1923088384	48	3921
2026-01-18 12:57:54.65	236.18	40.15	-38.4	-39.1	25.2	0.00e+00	0	36	0	1928331264	48	3882
2026-01-18 12:57:55.66	236.61	40.26	-38.6	-39.3	25.0	0.00e+00	0	36	0	1933574144	48	3979
2026-01-18 12:57:56.67	237.05	40.36	-38.6	-39.3	25.0	0.00e+00	0	36	0	1939865600	48	3981
2026-01-18 12:57:57.67	237.48	40.47	-38.7	-39.4	24.9	0.00e+00	0	36	0	1945108480	48	4011
2026-01-18 12:57:58.68	237.92	40.57	-38.7	-39.4	24.9	0.00e+00	0	36	0	1951399936	48	4039
2026-01-18 12:57:59.69	238.36	40.68	-38.8	-39.5	24.9	0.00e+00	0	36	0	1956642816	48	4071
2026-01-18 12:58:00.70	238.81	40.78	-38.6	-39.3	25.0	0.00e+00	0	36	0	1961885696	48	3988
2026-01-18 12:58:01.70	239.26	40.88	-38.5	-39.2	25.1	0.00e+00	0	36	0	1968177152	48	3930
2026-01-18 12:58:02.71	239.71	40.97	-38.4	-39.1	25.2	0.00e+00	0	36	0	1973420032	48	3901
2026-01-18 12:58:03.72	240.16	41.07	-38.3	-39.0	25.3	0.00e+00	0	36	0	1978662912	48	3826
2026-01-18 12:58:04.73	240.62	41.16	-38.4	-39.1	25.2	0.00e+00	0	36	0	1984954368	48	3913
2026-01-18 12:58:05.73	241.08	41.25	-38.5	-39.3	25.1	0.00e+00	0	36	0	1991245824	48	3961
2026-01-18 12:58:06.74	241.54	41.35	-38.6	-39.3	25.0	0.00e+00	0	36	0	1996488704	48	3999
2026-01-18 12:58:07.75	242.00	41.43	-38.7	-39.4	25.0	0.00e+00	0	36	0	2001731584	48	4015
2026-01-18 12:58:08.76	242.47	41.52	-38.7	-39.4	25.0	0.00e+00	0	36	0	2008023040	48	4034
2026-01-18 12:58:09.77	242.94	41.61	-38.8	-39.5	24.9	0.00e+00	0	36	0	2013265920	48	4079
2026-01-18 12:58:10.77	243.41	41.69	-38.8	-39.5	24.9	0.00e+00	0	36	0	2018508800	48	4065
2026-01-18 12:58:11.78	243.88	41.77	-38.7	-39.5	24.9	0.00e+00	0	36	0	2024800256	48	4052
2026-01-18 12:58:12.79	244.36	41.85	-38.6	-39.3	25.0	0.00e+00	0	36	0	2030043136	48	3985
2026-01-18 12:58:13.80	244.84	41.93	-38.6	-39.3	25.0	0.00e+00	0	36	0	2036334592	48	3977
2026-01-18 12:58:14.80	245.32	42.00	-38.6	-39.3	25.0	0.00e+00	0	36	0	2041577472	48	3990
2026-01-18 12:58:15.81	245.80	42.07	-38.5	-39.2	25.1	0.00e+00	0	36	0	2046820352	48	3941
2026-01-18 12:58:16.82	246.29	42.15	-38.4	-39.1	25.2	0.00e+00	0	36	0	2053111808	48	3900
2026-01-18 12:58:17.82	246.77	42.21	-38.5	-39.2	25.1	0.00e+00	0	36	0	2059403264	48	3933
2026-01-18 12:58:18.83	247.26	42.28	-38.7	-39.4	25.0	0.00e+00	0	36	0	2064646144	48	4008
2026-01-18 12:58:19.84	247.75	42.34	-38.6	-39.3	25.0	0.00e+00	0	36	0	2069889024	48	4003
2026-01-18 12:58:20.85	248.25	42.41	-38.7	-39.4	24.9	0.00e+00	0	36	0	2076180480	48	4035
2026-01-18 12:58:21.85	248.74	42.47	-38.7	-39.4	24.9	0.00e+00	0	36	0	2081423360	48	4050
2026-01-18 12:58:22.86	249.24	42.52	-38.6	-39.3	25.1	0.00e+00	0	36	0	2086666240	48	3965
2026-01-18 12:58:23.87	249.74	42.58	-38.6	-39.2	25.1	0.00e+00	0	36	0	2092957696	48	3950
2026-01-18 12:58:24.88	250.24	42.63	-38.7	-39.4	24.9	0.00e+00	0	36	0	2098200576	48	4035
2026-01-18 12:58:25.88	250.73	42.68	-39.1	-39.9	24.5	0.00e+00	0	36	0	2103443456	48	4249
2026-01-18 12:58:26.89	251.24	42.73	-39.3	-40.0	24.4	0.00e+00	0	36	0	2109734912	49	4086
2026-01-18 12:58:27.90	251.74	42.78	-39.2	-40.0	24.5	0.00e+00	0	36	0	2114977792	49	4067
2026-01-18 12:58:28.91	252.25	42.82	-39.3	-40.0	24.4	0.00e+00	0	36	0	2121269248	49	4094
2026-01-18 12:58:29.92	252.76	42.86	-39.3	-40.0	24.4	0.00e+00	0	36	0	2126512128	49	4075
2026-01-18 12:58:30.93	253.27	42.90	-39.0	-39.7	24.7	0.00e+00	0	36	0	2132803584	49	3923
2026-01-18 12:58:31.93	253.77	42.94	-38.8	-39.5	24.8	0.00e+00	0	36	0	2138046464	49	3862
2026-01-18 12:58:32.94	254.29	42.97	-38.7	-39.4	25.0	0.00e+00	0	36	0	2144337920	49	3809
2026-01-18 12:58:33.94	254.79	43.00	-38.8	-39.5	24.8	0.00e+00	0	36	0	2149580800	49	3866
2026-01-18 12:58:34.95	255.31	43.03	-38.8	-39.5	24.9	0.00e+00	0	36	0	2154823680	49	3831
2026-01-18 12:58:35.96	255.82	43.06	-38.7	-39.4	25.0	0.00e+00	0	36	0	2161115136	49	3794
2026-01-18 12:58:36.97	256.34	43.08	-38.7	-39.5	24.9	0.00e+00	0	36	0	2166358016	49	3826
2026-01-18 12:58:37.98	256.85	43.11	-38.8	-39.5	24.9	0.00e+00	0	36	0	2171600896	49	3845
2026-01-18 12:58:38.98	257.37	43.12	-38.9	-39.7	24.8	0.00e+00	0	36	0	2177892352	49	3919
2026-01-18 12:58:39.99	257.88	43.14	-39.0	-39.7	24.7	0.00e+00	0	36	0	2183135232	49	3956
2026-01-18 12:58:41.00	258.40	43.15	-39.1	-39.8	24.6	0.00e+00	0	36	0	2188378112	49	3994
2026-01-18 12:58:42.01	258.92	43.17	-39.1	-39.8	24.6	0.00e+00	0	36	0	2194669568	49	4003
2026-01-18 12:58:43.02	259.44	43.18	-39.0	-39.7	24.7	0.00e+00	0	36	0	2199912448	49	3930
2026-01-18 12:58:44.02	259.95	43.18	-39.0	-39.7	24.8	0.00e+00	0	36	0	2206203904	49	3927
2026-01-18 12:58:45.03	260.47	43.19	-38.9	-39.7	24.7	0.00e+00	0	36	0	2211446784	49	3921
2026-01-18 12:58:46.04	260.99	43.19	-38.9	-39.6	24.8	0.00e+00	0	36	0	2217738240	49	3897
2026-01-18 12:58:47.05	261.51	43.19	-38.9	-39.6	24.8	0.00e+00	0	36	0	2222981120	49	3886
2026-01-18 12:58:48.05	262.02	43.18	-39.0	-39.7	24.8	0.00e+00	0	36	0	2229272576	49	3915
2026-01-18 12:58:49.06	262.54	43.18	-38.9	-39.6	24.8	0.00e+00	0	36	0	2234515456	49	3892
2026-01-18 12:58:50.07	263.06	43.17	-39.1	-39.8	24.6	0.00e+00	0	36	0	2239758336	49	3994
2026-01-18 12:58:51.08	263.58	43.15	-39.1	-39.9	24.6	0.00e+00	0	36	0	2246049792	49	4014
2026-01-18 12:58:52.08	264.09	43.14	-39.2	-39.9	24.6	0.00e+00	0	36	0	2251292672	49	4012
2026-01-18 12:58:53.09	264.61	43.12	-39.0	-39.7	24.7	0.00e+00	0	36	0	2256535552	49	3941
2026-01-18 12:58:54.10	265.12	43.11	-39.0	-39.7	24.7	0.00e+00	0	36	0	2262827008	49	3948
2026-01-18 12:58:55.11	265.64	43.08	-39.0	-39.7	24.8	0.00e+00	0	36	0	2268069888	49	3925
2026-01-18 12:58:56.11	266.15	43.06	-39.1	-39.8	24.7	0.00e+00	0	36	0	2273312768	49	3968
2026-01-18 12:58:57.12	266.66	43.03	-39.1	-39.9	24.6	0.00e+00	0	36	0	2279604224	49	4012
2026-01-18 12:58:58.13	267.18	43.00	-39.1	-39.9	24.6	0.00e+00	0	36	0	2285895680	49	4005
2026-01-18 12:58:59.14	267.69	42.97	-39.0	-39.7	24.8	0.00e+00	0	36	0	2291138560	49	3918
2026-01-18 12:59:00.14	268.20	42.94	-39.0	-39.7	24.7	0.00e+00	0	36	0	2296381440	49	3946
2026-01-18 12:59:01.15	268.71	42.90	-39.1	-39.8	24.6	0.00e+00	0	36	0	2302672896	49	3987
2026-01-18 12:59:02.16	269.22	42.86	-39.1	-39.8	24.6	0.00e+00	0	36	0	2307915776	49	3997
2026-01-18 12:59:03.17	269.72	42.82	-39.1	-39.8	24.6	0.00e+00	0	36	0	2314207232	49	3975
2026-01-18 12:59:04.18	270.23	42.78	-39.2	-39.9	24.6	0.00e+00	0	36	0	2319450112	49	4025
2026-01-18 12:59:05.19	270.74	42.73	-39.2	-39.9	24.5	0.00e+00	0	36	0	2324692992	49	4034
2026-01-18 12:59:06.19	271.24	42.68	-39.2	-39.9	24.6	0.00e+00	0	36	0	2330984448	49	4030
2026-01-18 12:59:07.20	271.74	42.63	-39.1	-39.9	24.6	0.00e+00	0	36	0	2336227328	49	4012
2026-01-18 12:59:08.21	272.24	42.58	-39.1	-39.8	24.7	0.00e+00	0	36	0	2341470208	49	3975
2026-01-18 12:59:09.21	272.73	42.53	-39.2	-40.0	24.5	0.00e+00	0	36	0	2347761664	49	4058
2026-01-18 12:59:10.22	273.23	42.47	-39.3	-40.0	24.5	0.00e+00	0	36	0	2353004544	49	4090
2026-01-18 12:59:11.23	273.72	42.41	-39.1	-39.8	24.7	0.00e+00	0	36	0	2359296000	49	3995
2026-01-18 12:59:12.24	274.22	42.35	-39.0	-39.7	24.7	0.00e+00	0	36	0	2364538880	49	3931
2026-01-18 12:59:13.25	274.71	42.28	-39.2	-39.9	24.6	0.00e+00	0	36	0	2370830336	49	4017
2026-01-18 12:59:14.25	275.19	42.22	-39.1	-39.8	24.7	0.00e+00	0	36	0	2376073216	49	3971
2026-01-18 12:59:15.26	275.68	42.15	-39.1	-39.8	24.6	0.00e+00	0	36	0	2381316096	49	3999
2026-01-18 12:59:16.27	276.17	42.08	-39.0	-39.7	24.7	0.00e+00	0	36	0	2387607552	49	3954
2026-01-18 12:59:17.28	276.65	42.00	-38.9	-39.7	24.8	0.00e+00	0	36	0	2392850432	49	3917
2026-01-18 12:59:18.29	277.13	41.93	-39.0	-39.7	24.8	0.00e+00	0	36	0	2399141888	49	3941
2026-01-18 12:59:19.30	277.61	41.85	-39.0	-39.7	24.8	0.00e+00	0	36	0	2404384768	49	3918
2026-01-18 12:59:20.31	278.09	41.77	-39.1	-39.8	24.7	0.00e+00	0	36	0	2409627648	49	3998
2026-01-18 12:59:21.32	278.56	41.69	-39.0	-39.8	24.7	0.00e+00	0	36	0	2415919104	49	3959
2026-01-18 12:59:22.32	279.03	41.61	-39.0	-39.7	24.8	0.00e+00	0	36	0	2422210560	49	3926
2026-01-18 12:59:23.34	279.50	41.52	-38.9	-39.6	24.9	0.00e+00	0	36	0	2427453440	49	3886
2026-01-18 12:59:24.34	279.97	41.44	-38.8	-39.5	24.9	0.00e+00	0	36	0	2432696320	49	3857
2026-01-18 12:59:25.35	280.43	41.35	-38.8	-39.5	24.9	0.00e+00	0	36	0	2438987776	49	3854
2026-01-18 12:59:26.36	280.89	41.26	-38.9	-39.6	24.9	0.00e+00	0	36	0	2444230656	49	3884
2026-01-18 12:59:27.37	281.35	41.17	-39.1	-39.8	24.7	0.00e+00	0	36	0	2449473536	49	3986
2026-01-18 12:59:28.37	281.80	41.07	-39.0	-39.7	24.8	0.00e+00	0	36	0	2455764992	49	3933
2026-01-18 12:59:29.38	282.26	40.98	-39.1	-39.8	24.6	0.00e+00	0	36	0	2461007872	49	4000
2026-01-18 12:59:30.39	282.71	40.88	-38.9	-39.6	24.8	0.00e+00	0	36	0	2466250752	49	3900
2026-01-18 12:59:31.40	283.16	40.78	-38.9	-39.6	24.9	0.00e+00	0	36	0	2472542208	49	3888
2026-01-18 12:59:32.41	283.60	40.68	-39.0	-39.7	24.8	0.00e+00	0	36	0	2477785088	49	3919
2026-01-18 12:59:33.41	284.04	40.58	-38.8	-39.4	25.0	0.00e+00	0	36	0	2484076544	49	3820
2026-01-18 12:59:34.42	284.48	40.47	-38.8	-39.5	25.0	0.00e+00	0	36	0	2489319424	49	3830
2026-01-18 12:59:35.43	284.92	40.37	-38.8	-39.5	24.9	0.00e+00	0	36	0	2495610880	49	3853
2026-01-18 12:59:36.44	285.36	40.26	-39.0	-39.7	24.8	0.00e+00	0	36	0	2500853760	49	3931
2026-01-18 12:59:37.45	285.79	40.15	-39.0	-39.7	24.8	0.00e+00	0	36	0	2507145216	49	3933
2026-01-18 12:59:38.46	286.22	40.04	-39.0	-39.7	24.8	0.00e+00	0	36	0	2512388096	49	3933
2026-01-18 12:59:39.46	286.64	39.93	-39.0	-39.7	24.8	0.00e+00	0	36	0	2517630976	49	3925
2026-01-18 12:59:40.47	287.06	39.82	-38.6	-39.3	25.2	0.00e+00	0	36	0	2523922432	49	3753
2026-01-18 12:59:41.48	287.48	39.71	-38.5	-39.2	25.2	0.00e+00	0	36	0	2529165312	49	3720
2026-01-18 12:59:42.49	287.90	39.59	-38.7	-39.4	25.0	0.00e+00	0	36	0	2534408192	49	3796
2026-01-18 12:59:43.50	288.31	39.47	-38.8	-39.5	24.9	0.00e+00	0	36	0	2540699648	49	3842
2026-01-18 12:59:44.51	288.73	39.36	-38.9	-39.6	24.8	0.00e+00	0	36	0	2545942528	49	3910
2026-01-18 12:59:45.51	289.13	39.24	-38.9	-39.7	24.8	0.00e+00	0	36	0	2551185408	49	3925
2026-01-18 12:59:46.52	289.54	39.12	-38.9	-39.7	24.8	0.00e+00	0	36	0	2557476864	49	3917
2026-01-18 12:59:47.53	289.94	39.00	-39.1	-39.8	24.7	0.00e+00	0	36	0	2563768320	49	3971
2026-01-18 12:59:48.54	290.34	38.88	-39.0	-39.7	24.8	0.00e+00	0	36	0	2569011200	49	3934
2026-01-18 12:59:49.55	290.74	38.75	-38.9	-39.6	24.9	0.00e+00	0	36	0	2574254080	49	3889
2026-01-18 12:59:50.55	291.13	38.63	-38.9	-39.6	24.9	0.00e+00	0	36	0	2580545536	49	3882
2026-01-18 12:59:51.56	291.52	38.50	-38.8	-39.5	24.9	0.00e+00	0	36	0	2585788416	49	3858
2026-01-18 12:59:52.57	291.90	38.38	-38.8	-39.5	24.9	0.00e+00	0	36	0	2592079872	49	3835
2026-01-18 12:59:53.57	292.29	38.25	-38.9	-39.6	24.9	0.00e+00	0	36	0	2597322752	49	3882
2026-01-18 12:59:54.58	292.67	38.12	-38.7	-39.4	25.0	0.00e+00	0	36	0	2602565632	49	3823
2026-01-18 12:59:55.59	293.05	37.99	-38.6	-39.3	25.1	0.00e+00	0	36	0	2608857088	49	3749
2026-01-18 12:59:56.60	293.42	37.86	-38.5	-39.2	25.2	0.00e+00	0	36	0	2614099968	49	3702
2026-01-18 12:59:57.61	293.80	37.73	-38.5	-39.2	25.2	0.00e+00	0	36	0	2619342848	49	3709
2026-01-18 12:59:58.61	294.16	37.60	-38.7	-39.3	25.1	0.00e+00	0	36	0	2625634304	49	3768
2026-01-18 12:59:59.62	294.53	37.47	-38.5	-39.2	25.2	0.00e+00	0	36	0	2630877184	49	3713
2026-01-18 13:00:00.63	294.89	37.34	-38.6	-39.4	25.1	0.00e+00	0	36	0	2637168640	49	3783
2026-01-18 13:00:01.64	295.25	37.20	-38.9	-39.6	24.9	0.00e+00	0	36	0	2642411520	49	3896
2026-01-18 13:00:02.65	295.61	37.07	-38.8	-39.6	24.9	0.00e+00	0	36	0	2648702976	49	3884
2026-01-18 13:00:03.65	295.96	36.93	-38.8	-39.5	24.9	0.00e+00	0	36	0	2653945856	49	3848
2026-01-18 13:00:04.66	296.32	36.80	-38.7	-39.4	25.0	0.00e+00	0	36	0	2659188736	49	3800
2026-01-18 13:00:05.67	296.67	36.66	-38.7	-39.4	25.0	0.00e+00	0	36	0	2665480192	49	3810
2026-01-18 13:00:06.68	297.01	36.52	-38.8	-39.5	25.0	0.00e+00	0	36	0	2670723072	49	3833
2026-01-18 13:00:07.69	297.36	36.39	-38.7	-39.4	25.1	0.00e+00	0	36	0	2677014528	49	3787
2026-01-18 13:00:08.69	297.70	36.25	-38.7	-39.4	25.0	0.00e+00	0	36	0	2682257408	49	3814
2026-01-18 13:00:09.70	298.03	36.11	-38.7	-39.4	25.0	0.00e+00	0	36	0	2687500288	49	3809
2026-01-18 13:00:10.71	298.37	35.97	-38.8	-39.5	25.0	0.00e+00	0	36	0	2693791744	49	3836
2026-01-18 13:00:11.72	298.70	35.83	-38.6	-39.3	25.1	0.00e+00	0	36	0	2699034624	49	3777
2026-01-18 13:00:12.73	299.03	35.69	-38.6	-39.3	25.1	0.00e+00	0	36	0	2705326080	49	3749
2026-01-18 13:00:13.74	299.36	35.55	-38.7	-39.4	25.1	0.00e+00	0	36	0	2710568960	49	3787
2026-01-18 13:00:14.75	299.68	35.41	-38.8	-39.5	24.9	0.00e+00	0	36	0	2716860416	49	3843
2026-01-18 13:00:15.75	300.00	35.27	-38.9	-39.6	24.9	0.00e+00	0	36	0	2722103296	49	3882
2026-01-18 13:00:16.76	300.32	35.13	-39.0	-39.8	24.7	0.00e+00	0	36	0	2727346176	49	3964
2026-01-18 13:00:17.77	300.64	34.99	-39.1	-39.8	24.6	0.00e+00	0	36	0	2733637632	49	4004
2026-01-18 13:00:18.78	300.95	34.84	-39.0	-39.8	24.7	0.00e+00	0	36	0	2738880512	49	3968
2026-01-18 13:00:19.79	301.26	34.70	-39.0	-39.7	24.8	0.00e+00	0	36	0	2744123392	49	3943
2026-01-18 13:00:20.79	301.57	34.56	-39.0	-39.7	24.8	0.00e+00	0	36	0	2750414848	49	3921
2026-01-18 13:00:21.80	301.87	34.42	-39.0	-39.6	24.8	0.00e+00	0	36	0	2755657728	49	3909
2026-01-18 13:00:22.81	302.17	34.27	-38.7	-39.4	25.0	0.00e+00	0	36	0	2761949184	49	3810
2026-01-18 13:00:23.82	302.47	34.13	-38.8	-39.5	25.0	0.00e+00	0	36	0	2767192064	49	3840
2026-01-18 13:00:24.82	302.77	33.99	-38.8	-39.5	25.0	0.00e+00	0	36	0	2773483520	49	3830
2026-01-18 13:00:25.83	303.06	33.85	-38.9	-39.6	24.8	0.00e+00	0	36	0	2778726400	49	3912
2026-01-18 13:00:26.84	303.36	33.70	-38.9	-39.6	24.9	0.00e+00	0	36	0	2785017856	49	3885
2026-01-18 13:00:27.85	303.65	33.56	-38.9	-39.6	24.8	0.00e+00	0	36	0	2790260736	49	3903
2026-01-18 13:00:28.86	303.93	33.41	-38.8	-39.5	24.9	0.00e+00	0	35	0	2795503616	49	3850
2026-01-18 13:00:29.86	304.22	33.27	-38.9	-39.6	24.8	0.00e+00	0	36	0	2801795072	49	3900
2026-01-18 13:00:30.87	304.50	33.13	-38.9	-39.6	24.9	0.00e+00	0	36	0	2807037952	49	3875
2026-01-18 13:00:31.88	304.78	32.98	-38.9	-39.6	24.8	0.00e+00	0	36	0	2812280832	49	3908
2026-01-18 13:00:32.89	305.06	32.84	-38.9	-39.6	24.8	0.00e+00	0	36	0	2818572288	49	3911
2026-01-18 13:00:33.89	305.33	32.70	-39.0	-39.7	24.7	0.00e+00	0	36	0	2823815168	49	3956
2026-01-18 13:00:34.90	305.60	32.55	-39.1	-39.9	24.6	0.00e+00	0	36	0	2829058048	49	4007
2026-01-18 13:00:35.91	305.87	32.41	-39.1	-39.9	24.6	0.00e+00	0	36	0	2835349504	49	4015
2026-01-18 13:00:36.92	306.14	32.26	-39.3	-40.0	24.5	0.00e+00	0	36	0	2840592384	49	4065
2026-01-18 13:00:37.93	306.40	32.12	-39.2	-39.9	24.6	0.00e+00	0	36	0	2846883840	49	4020
2026-01-18 13:00:38.94	306.67	31.97	-39.3	-40.0	24.5	0.00e+00	0	36	0	2852126720	49	4060
2026-01-18 13:00:39.94	306.93	31.83	-39.1	-39.8	24.7	0.00e+00	0	36	0	2858418176	49	3972
2026-01-18 13:00:40.95	307.19	31.69	-39.2	-39.9	24.6	0.00e+00	0	36	0	2863661056	49	4015
2026-01-18 13:00:41.96	307.44	31.54	-39.0	-39.7	24.7	0.00e+00	0	36	0	2869952512	49	3954
2026-01-18 13:00:42.97	307.70	31.40	-39.1	-39.8	24.7	0.00e+00	0	36	0	2875195392	49	3979
2026-01-18 13:00:43.98	307.95	31.26	-39.3	-40.0	24.5	0.00e+00	0	36	0	2880438272	49	4072
2026-01-18 13:00:44.99	308.20	31.11	-39.4	-40.1	24.4	0.00e+00	0	36	0	2886729728	49	4134
2026-01-18 13:00:45.99	308.44	30.97	-39.5	-40.3	24.2	0.00e+00	0	36	0	2891972608	49	4203
2026-01-18 13:00:47.00	308.69	30.83	-39.5	-40.2	24.3	0.00e+00	0	36	0	2897215488	49	4172
2026-01-18 13:00:48.01	308.93	30.68	-39.5	-40.2	24.3	0.00e+00	0	36	0	2903506944	49	4181
2026-01-18 13:00:49.02	309.18	30.54	-39.5	-40.2	24.2	0.00e+00	0	36	0	2908749824	49	4189
2026-01-18 13:00:50.03	309.41	30.40	-39.4	-40.1	24.4	0.00e+00	0	36	0	2915041280	49	4113
2026-01-18 13:00:51.03	309.65	30.26	-39.3	-40.0	24.5	0.00e+00	0	36	0	2920284160	49	4058
2026-01-18 13:00:52.04	309.89	30.11	-39.2	-40.0	24.5	0.00e+00	0	36	0	2926575616	49	4052
2026-01-18 13:00:53.04	310.12	29.97	-39.3	-40.0	24.5	0.00e+00	0	36	0	2931818496	49	4070
2026-01-18 13:00:54.05	310.35	29.83	-39.4	-40.2	24.3	0.00e+00	0	36	0	2937061376	49	4153
2026-01-18 13:00:55.06	310.58	29.69	-39.4	-40.2	24.3	0.00e+00	0	36	0	2943352832	49	4147
2026-01-18 13:00:56.07	310.80	29.55	-39.5	-40.2	24.3	0.00e+00	0	35	0	2948595712	49	4187
2026-01-18 13:00:57.08	311.03	29.40	-39.6	-40.3	24.2	0.00e+00	0	36	0	2954887168	49	4222
2026-01-18 13:00:58.09	311.25	29.26	-39.5	-40.2	24.2	0.00e+00	0	36	0	2960130048	49	4183
2026-01-18 13:00:59.10	311.47	29.12	-39.4	-40.2	24.3	0.00e+00	0	36	0	2965372928	49	4148
2026-01-18 13:01:00.11	311.69	28.98	-39.2	-40.0	24.5	0.00e+00	0	36	0	2971664384	49	4062
2026-01-18 13:01:01.11	311.91	28.84	-39.2	-39.9	24.6	0.00e+00	0	36	0	2976907264	49	4020
2026-01-18 13:01:02.12	312.13	28.70	-39.3	-40.0	24.5	0.00e+00	0	36	0	2982150144	49	4061
2026-01-18 13:01:03.13	312.34	28.56	-39.4	-40.1	24.3	0.00e+00	0	36	0	2988441600	49	4118
2026-01-18 13:01:04.14	312.55	28.42	-39.3	-40.0	24.5	0.00e+00	0	36	0	2994733056	49	4080
2026-01-18 13:01:05.15	312.76	28.28	-39.3	-40.1	24.4	0.00e+00	0	36	0	2999975936	49	4106
2026-01-18 13:01:06.15	312.97	28.15	-39.4	-40.2	24.3	0.00e+00	0	36	0	3005218816	49	4148
2026-01-18 13:01:07.16	313.18	28.01	-39.4	-40.1	24.3	0.00e+00	0	36	0	3011510272	49	4136
2026-01-18 13:01:08.16	313.38	27.87	-39.3	-40.0	24.4	0.00e+00	0	36	0	3016753152	49	4092
2026-01-18 13:01:09.17	313.58	27.73	-39.3	-40.1	24.4	0.00e+00	0	36	0	3021996032	49	4099
2026-01-18 13:01:10.18	313.79	27.59	-39.3	-40.0	24.4	0.00e+00	0	36	0	3028287488	49	4078
2026-01-18 13:01:11.19	313.99	27.46	-39.3	-40.1	24.4	0.00e+00	0	36	0	3033530368	49	4099
2026-01-18 13:01:12.20	314.18	27.32	-39.2	-39.9	24.5	0.00e+00	0	36	0	3039821824	49	4030
2026-01-18 13:01:13.21	314.38	27.18	-39.1	-39.8	24.6	0.00e+00	0	36	0	3045064704	49	3991
2026-01-18 13:01:14.21	314.57	27.05	-39.1	-39.8	24.6	0.00e+00	0	36	0	3050307584	49	3969
2026-01-18 13:01:15.22	314.77	26.91	-39.2	-39.9	24.5	0.00e+00	0	36	0	3056599040	49	4020
2026-01-18 13:01:16.23	314.96	26.78	-39.2	-39.9	24.5	0.00e+00	0	36	0	3062890496	49	4031
2026-01-18 13:01:17.25	315.15	26.64	-39.2	-39.9	24.4	0.00e+00	0	36	0	3068133376	49	4049
2026-01-18 13:01:18.25	315.34	26.51	-39.3	-40.0	24.4	0.00e+00	0	36	0	3073376256	49	4092
2026-01-18 13:01:19.27	315.53	26.37	-39.4	-40.1	24.3	0.00e+00	0	36	0	3079667712	49	4133
2026-01-18 13:01:20.27	315.71	26.24	-39.5	-40.2	24.2	0.00e+00	0	36	0	3084910592	49	4171
2026-01-18 13:01:21.28	315.90	26.10	-39.5	-40.3	24.2	0.00e+00	0	36	0	3090153472	49	4195
2026-01-18 13:01:22.29	316.08	25.97	-39.6	-40.4	24.0	0.00e+00	0	36	0	3096444928	49	4263
2026-01-18 13:01:23.30	316.26	25.84	-39.6	-40.4	24.1	0.00e+00	0	36	0	3101687808	49	4262
2026-01-18 13:01:24.31	316.44	25.70	-39.5	-40.2	24.2	0.00e+00	0	36	0	3106930688	49	4179
2026-01-18 13:01:25.31	316.62	25.57	-39.5	-40.2	24.2	0.00e+00	0	36	0	3113222144	49	4173
2026-01-18 13:01:26.32	316.79	25.44	-39.5	-40.2	24.2	0.00e+00	0	36	0	3118465024	49	4189
2026-01-18 13:01:27.33	316.97	25.31	-39.5	-40.2	24.2	0.00e+00	0	36	0	3124756480	49	4185
2026-01-18 13:01:28.34	317.14	25.18	-39.5	-40.3	24.1	0.00e+00	0	36	0	3129999360	49	4195
2026-01-18 13:01:29.35	317.32	25.05	-39.4	-40.2	24.2	0.00e+00	0	36	0	3136290816	49	4161
2026-01-18 13:01:30.36	317.49	24.92	-39.5	-40.3	24.1	0.00e+00	0	36	0	3141533696	49	4198
2026-01-18 13:01:31.36	317.66	24.79	-39.5	-40.2	24.2	0.00e+00	0	36	0	3147825152	49	4172
2026-01-18 13:01:32.37	317.82	24.66	-39.4	-40.1	24.2	0.00e+00	0	36	0	3153068032	49	4139
2026-01-18 13:01:33.38	317.99	24.53	-39.4	-40.1	24.2	0.00e+00	0	36	0	3158310912	49	4141
2026-01-18 13:01:34.39	318.16	24.40	-39.5	-40.2	24.1	0.00e+00	0	36	0	3164602368	49	4178
2026-01-18 13:01:35.40	318.32	24.27	-39.5	-40.2	24.2	0.00e+00	0	36	0	3169845248	49	4159
2026-01-18 13:01:36.40	318.48	24.14	-39.5	-40.3	24.1	0.00e+00	0	36	0	3175088128	49	4195
2026-01-18 13:01:37.41	318.65	24.02	-39.6	-40.4	24.0	0.00e+00	0	36	0	3181379584	49	4245
2026-01-18 13:01:38.42	318.81	23.89	-39.6	-40.4	24.0	0.00e+00	0	36	0	3186622464	49	4262
2026-01-18 13:01:39.43	318.97	23.76	-39.8	-40.5	23.8	0.00e+00	0	36	0	3192913920	50	4095
2026-01-18 13:01:40.44	319.12	23.64	-39.9	-40.7	23.7	0.00e+00	0	36	0	3198156800	50	4152
2026-01-18 13:01:41.45	319.28	23.51	-39.8	-40.6	23.8	0.00e+00	0	36	0	3204448256	50	4119
2026-01-18 13:01:42.45	319.44	23.38	-39.9	-40.7	23.7	0.00e+00	0	36	0	3209691136	50	4150
2026-01-18 13:01:43.46	319.59	23.26	-40.0	-40.8	23.7	0.00e+00	0	36	0	3214934016	50	4195
2026-01-18 13:01:44.47	319.74	23.13	-39.9	-40.6	23.8	0.00e+00	0	36	0	3221225472	50	4138
2026-01-18 13:01:45.48	319.90	23.01	-39.9	-40.7	23.7	0.00e+00	0	36	0	3226468352	50	4160
2026-01-18 13:01:46.48	320.04	22.89	-39.9	-40.6	23.8	0.00e+00	0	36	0	3232759808	50	4128
2026-01-18 13:01:47.49	320.19	22.76	-39.9	-40.6	23.8	0.00e+00	0	36	0	3238002688	50	4117
2026-01-18 13:01:48.50	320.34	22.64	-39.9	-40.7	23.7	0.00e+00	0	36	0	3243245568	50	4147
2026-01-18 13:01:49.51	320.49	22.52	-39.9	-40.6	23.7	0.00e+00	0	36	0	3249537024	50	4137
2026-01-18 13:01:50.52	320.64	22.39	-39.9	-40.7	23.7	0.00e+00	0	36	0	3254779904	50	4152
2026-01-18 13:01:51.53	320.78	22.27	-40.0	-40.8	23.6	0.00e+00	0	36	0	3261071360	50	4217
2026-01-18 13:01:52.53	320.93	22.15	-40.1	-40.8	23.5	0.00e+00	0	36	0	3266314240	50	4234
2026-01-18 13:01:53.54	321.07	22.03	-40.1	-40.9	23.5	0.00e+00	0	36	0	3272605696	50	4252
2026-01-18 13:01:54.55	321.21	21.91	-40.2	-40.9	23.4	0.00e+00	0	36	0	3277848576	51	4048
2026-01-18 13:01:55.56	321.35	21.79	-40.2	-41.0	23.4	0.00e+00	0	36	0	3283091456	51	4060
2026-01-18 13:01:56.56	321.49	21.67	-40.3	-41.0	23.4	0.00e+00	0	36	0	3289382912	51	4084
2026-01-18 13:01:57.57	321.63	21.55	-40.3	-41.0	23.4	0.00e+00	0	36	0	3294625792	51	4086
2026-01-18 13:01:58.58	321.77	21.43	-40.2	-40.9	23.4	0.00e+00	0	36	0	3299868672	51	4049
2026-01-18 13:01:59.59	321.90	21.31	-40.2	-41.0	23.4	0.00e+00	0	36	0	3306160128	51	4062
2026-01-18 13:02:00.59	322.04	21.20	-40.1	-40.8	23.5	0.00e+00	0	36	0	3311403008	51	4002
2026-01-18 13:02:01.60	322.17	21.08	-40.2	-41.0	23.4	0.00e+00	0	36	0	3317694464	51	4068
2026-01-18 13:02:02.60	322.31	20.96	-40.2	-40.9	23.4	0.00e+00	0	36	0	3322937344	51	4049
2026-01-18 13:02:03.62	322.44	20.84	-40.3	-41.1	23.3	0.00e+00	0	36	0	3328180224	51	4106
2026-01-18 13:02:04.63	322.57	20.73	-40.4	-41.2	23.2	0.00e+00	0	36	0	3334471680	51	4168
2026-01-18 13:02:05.63	322.70	20.61	-40.4	-41.2	23.2	0.00e+00	0	36	0	3340763136	51	4171
2026-01-18 13:02:06.64	322.83	20.49	-40.5	-41.3	23.1	0.00e+00	0	36	0	3346006016	51	4223
2026-01-18 13:02:07.65	322.96	20.38	-40.7	-41.5	22.9	0.00e+00	0	36	0	3351248896	51	4309
2026-01-18 13:02:08.66	323.09	20.26	-40.7	-41.5	22.8	0.00e+00	0	36	0	3357540352	52	4063
2026-01-18 13:02:09.66	323.22	20.15	-40.7	-41.6	22.8	0.00e+00	0	36	0	3362783232	52	4104
2026-01-18 13:02:10.67	323.34	20.03	-40.7	-41.5	22.8	0.00e+00	0	36	0	3368026112	52	4068
2026-01-18 13:02:11.68	323.47	19.92	-40.7	-41.5	22.8	0.00e+00	0	36	0	3374317568	52	4096
2026-01-18 13:02:12.69	323.59	19.81	-40.7	-41.5	22.8	0.00e+00	0	36	0	3379560448	52	4080
2026-01-18 13:02:13.69	323.72	19.69	-40.7	-41.5	22.7	0.00e+00	0	36	0	3384803328	52	4094
2026-01-18 13:02:14.70	323.84	19.58	-40.7	-41.5	22.7	0.00e+00	0	36	0	3391094784	52	4083
2026-01-18 13:02:15.71	323.96	19.47	-40.6	-41.4	22.8	0.00e+00	0	36	0	3396337664	52	4045
2026-01-18 13:02:16.72	324.08	19.36	-40.5	-41.3	22.9	0.00e+00	0	36	0	3402629120	52	3991
2026-01-18 13:02:17.73	324.20	19.25	-40.6	-41.4	22.9	0.00e+00	0	36	0	3407872000	52	4018
2026-01-18 13:02:18.74	324.32	19.13	-40.5	-41.2	23.0	0.00e+00	0	36	0	3414163456	52	3951
2026-01-18 13:02:19.74	324.44	19.02	-40.6	-41.3	22.9	0.00e+00	0	36	0	3419406336	52	4002
2026-01-18 13:02:20.75	324.56	18.91	-40.6	-41.4	22.8	0.00e+00	0	36	0	3425697792	52	4032
2026-01-18 13:02:21.76	324.67	18.80	-40.7	-41.5	22.8	0.00e+00	0	36	0	3430940672	52	4066
2026-01-18 13:02:22.76	324.79	18.69	-40.7	-41.5	22.7	0.00e+00	0	36	0	3436183552	52	4074
2026-01-18 13:02:23.77	324.90	18.58	-40.6	-41.4	22.8	0.00e+00	0	36	0	3442475008	52	4041
2026-01-18 13:02:24.78	325.02	18.48	-40.6	-41.4	22.8	0.00e+00	0	36	0	3447717888	52	4050
2026-01-18 13:02:25.79	325.13	18.37	-40.7	-41.5	22.7	0.00e+00	0	36	0	3452960768	52	4076
2026-01-18 13:02:26.80	325.24	18.26	-40.8	-41.6	22.6	0.00e+00	0	36	0	3459252224	52	4113
2026-01-18 13:02:27.81	325.36	18.15	-40.8	-41.6	22.6	0.00e+00	0	36	0	3464495104	52	4114
2026-01-18 13:02:28.82	325.47	18.04	-40.9	-41.7	22.5	0.00e+00	0	36	0	3469737984	52	4172
2026-01-18 13:02:29.83	325.58	17.94	-40.8	-41.7	22.6	0.00e+00	0	36	0	3476029440	52	4146
2026-01-18 13:02:30.83	325.69	17.83	-40.9	-41.7	22.5	0.00e+00	0	36	0	3482320896	52	4193
2026-01-18 13:02:31.84	325.80	17.72	-40.9	-41.7	22.5	0.00e+00	0	36	0	3487563776	52	4165
2026-01-18 13:02:32.85	325.91	17.62	-40.9	-41.7	22.5	0.00e+00	0	36	0	3492806656	52	4185
2026-01-18 13:02:33.86	326.01	17.51	-41.0	-41.8	22.4	0.00e+00	0	36	0	3499098112	52	4207
2026-01-18 13:02:34.87	326.12	17.41	-41.0	-41.8	22.4	0.00e+00	0	36	0	3504340992	52	4214
2026-01-18 13:02:35.87	326.23	17.30	-41.0	-41.8	22.4	0.00e+00	0	36	0	3510632448	52	4226
2026-01-18 13:02:36.88	326.33	17.20	-41.1	-41.9	22.3	0.00e+00	0	36	0	3515875328	52	4276
2026-01-18 13:02:37.89	326.44	17.09	-41.1	-41.9	22.3	0.00e+00	0	36	0	3521118208	52	4280
2026-01-18 13:02:38.90	326.54	16.99	-41.1	-42.0	22.2	0.00e+00	0	36	0	3527409664	52	4294
2026-01-18 13:02:39.91	326.64	16.89	-41.2	-42.1	22.2	0.00e+00	0	36	0	3532652544	52	4348
2026-01-18 13:02:40.91	326.75	16.78	-41.3	-42.2	22.1	0.00e+00	0	36	0	3537895424	53	4149
2026-01-18 13:02:41.92	326.85	16.68	-41.3	-42.1	22.1	0.00e+00	0	36	0	3544186880	53	4139
2026-01-18 13:02:42.93	326.95	16.58	-41.3	-42.2	22.0	0.00e+00	0	36	0	3550478336	53	4173
2026-01-18 13:02:43.93	327.05	16.48	-41.5	-42.4	21.8	0.00e+00	0	36	0	3555721216	53	4258
2026-01-18 13:02:44.94	327.15	16.37	-41.4	-42.3	21.9	0.00e+00	0	36	0	3560964096	53	4212
2026-01-18 13:02:45.95	327.25	16.27	-41.5	-42.4	21.8	0.00e+00	0	36	0	3567255552	53	4271
2026-01-18 13:02:46.96	327.35	16.17	-41.5	-42.4	21.8	0.00e+00	0	36	0	3572498432	53	4270
2026-01-18 13:02:47.97	327.45	16.07	-41.5	-42.3	21.9	0.00e+00	0	36	0	3577741312	53	4222
2026-01-18 13:02:48.97	327.54	15.97	-41.5	-42.3	21.8	0.00e+00	0	36	0	3584032768	53	4240
2026-01-18 13:02:49.98	327.64	15.87	-41.5	-42.3	21.8	0.00e+00	0	36	0	3589275648	53	4240
2026-01-18 13:02:50.99	327.74	15.77	-41.5	-42.3	21.9	0.00e+00	0	36	0	3595567104	53	4239
2026-01-18 13:02:52.00	327.83	15.67	-41.4	-42.3	21.9	0.00e+00	0	36	0	3600809984	53	4204
2026-01-18 13:02:53.00	327.93	15.57	-41.5	-42.3	21.8	0.00e+00	0	36	0	3606052864	53	4216
2026-01-18 13:02:54.01	328.02	15.48	-41.5	-42.4	21.8	0.00e+00	0	36	0	3612344320	53	4251
2026-01-18 13:02:55.02	328.12	15.38	-41.4	-42.3	21.9	0.00e+00	0	36	0	3617587200	53	4195
2026-01-18 13:02:56.03	328.21	15.28	-41.4	-42.3	21.9	0.00e+00	0	36	0	3623878656	53	4207
2026-01-18 13:02:57.04	328.30	15.18	-41.5	-42.3	21.8	0.00e+00	0	36	0	3629121536	53	4234
2026-01-18 13:02:58.04	328.39	15.08	-41.5	-42.3	21.8	0.00e+00	0	36	0	3635412992	53	4240
2026-01-18 13:02:59.05	328.49	14.99	-41.5	-42.3	21.8	0.00e+00	0	36	0	3640655872	53	4232
2026-01-18 13:03:00.06	328.58	14.89	-41.6	-42.4	21.7	0.00e+00	0	36	0	3645898752	53	4275
2026-01-18 13:03:01.07	328.67	14.79	-41.6	-42.4	21.7	0.00e+00	0	36	0	3652190208	53	4289
2026-01-18 13:03:02.08	328.76	14.70	-41.7	-42.5	21.6	0.00e+00	0	36	0	3657433088	53	4318
2026-01-18 13:03:03.08	328.85	14.60	-41.7	-42.5	21.6	0.00e+00	0	36	0	3662675968	53	4319
2026-01-18 13:03:04.09	328.94	14.51	-41.7	-42.6	21.6	0.00e+00	0	36	0	3668967424	53	4343
2026-01-18 13:03:05.10	329.03	14.41	-41.7	-42.6	21.6	0.00e+00	0	36	0	3674210304	53	4346
2026-01-18 13:03:06.11	329.11	14.32	-41.8	-42.7	21.5	0.00e+00	0	36	0	3680501760	54	4157
2026-01-18 13:03:07.11	329.20	14.22	-41.9	-42.7	21.4	0.00e+00	0	36	0	3685744640	54	4192
2026-01-18 13:03:08.12	329.29	14.13	-41.8	-42.7	21.4	0.00e+00	0	36	0	3690987520	54	4170
2026-01-18 13:03:09.13	329.37	14.04	-41.9	-42.8	21.4	0.00e+00	0	36	0	3697278976	54	4204
2026-01-18 13:03:10.14	329.46	13.94	-41.8	-42.7	21.4	0.00e+00	0	36	0	3703570432	54	4184
