passes_logs/2026/01/18/R3.2S_Murmansk/R3.2S_Murmansk__20260118_094802_TY-42_rec.log

#Pass ID: 20260118_094802_TY-42
#Satellite: TY-42
#Configuration: TY-42_900M
#almurnet v.1.7.20251203
#Start time: 2026-01-18 09:48:04

#Version: 2.2.20231116
#Station: R3.2S_Murmansk
#Location: 33.079688 lon 68.888172 lat
#TLE: 1 64048U 25103A   26017.54141204  .00008008  00000-0  38191-3 0 09991
#TLE: 2 64048 097.4124 092.9111 0001919 092.8629 297.5859 15.19160543 37202

#Time	Az	El	Level	Level2	SNR	BER	BlckErr	Temp	State	Recorded	gain1	gain2
2026-01-18 09:48:04.86	21.05	2.15	-52.5	-54.6	6.2	0.00e+00	0	43	0	0	76	18523
2026-01-18 09:48:05.87	21.04	2.22	-52.4	-54.6	6.2	0.00e+00	0	43	104	0	76	18562
2026-01-18 09:48:06.88	21.03	2.29	-52.4	-54.6	6.2	0.00e+00	0	42	104	0	76	18483
2026-01-18 09:48:07.89	21.01	2.36	-52.5	-54.6	6.2	0.00e+00	0	43	104	0	76	18521
2026-01-18 09:48:08.90	21.00	2.43	-52.5	-54.6	6.2	0.00e+00	0	43	104	0	76	18428
2026-01-18 09:48:09.91	20.98	2.50	-52.4	-54.6	6.2	0.00e+00	0	43	104	0	76	18480
2026-01-18 09:48:10.91	20.97	2.57	-52.4	-54.6	6.2	0.00e+00	0	43	104	0	76	18435
2026-01-18 09:48:11.92	20.95	2.64	-52.5	-54.6	6.2	0.00e+00	0	43	104	0	76	18438
2026-01-18 09:48:12.93	20.94	2.72	-52.4	-54.6	6.2	0.00e+00	0	43	104	0	76	18469
2026-01-18 09:48:13.94	20.93	2.79	-52.4	-54.6	6.2	0.00e+00	0	43	104	0	76	18468
2026-01-18 09:48:14.95	20.91	2.86	-52.4	-54.6	6.2	0.00e+00	0	43	104	0	76	18466
2026-01-18 09:48:15.95	20.90	2.93	-52.5	-54.6	6.2	0.00e+00	0	43	104	0	76	18410
2026-01-18 09:48:16.96	20.88	3.01	-52.4	-54.6	6.2	0.00e+00	0	43	104	0	76	18428
2026-01-18 09:48:17.97	20.86	3.08	-52.4	-54.6	6.2	0.00e+00	0	43	104	0	76	18507
2026-01-18 09:48:18.98	20.85	3.15	-52.4	-54.6	6.2	0.00e+00	0	43	104	0	76	18448
2026-01-18 09:48:19.99	20.83	3.23	-52.4	-54.6	6.2	0.00e+00	0	44	104	0	76	18409
2026-01-18 09:48:20.99	20.82	3.30	-52.4	-54.6	6.2	0.00e+00	0	43	104	0	76	18409
2026-01-18 09:48:22.00	20.80	3.38	-52.4	-54.6	6.2	0.00e+00	0	43	104	0	76	18454
2026-01-18 09:48:23.01	20.79	3.45	-52.4	-54.6	6.2	0.00e+00	0	43	104	0	76	18421
2026-01-18 09:48:24.02	20.77	3.53	-52.4	-54.6	6.2	0.00e+00	0	44	104	0	76	18477
2026-01-18 09:48:25.02	20.75	3.60	-52.4	-54.6	6.2	0.00e+00	0	44	104	0	76	18429
2026-01-18 09:48:26.03	20.74	3.68	-52.4	-54.6	6.2	0.00e+00	0	44	104	0	76	18449
2026-01-18 09:48:27.04	20.72	3.75	-52.4	-54.6	6.2	0.00e+00	0	44	104	0	76	18495
2026-01-18 09:48:28.05	20.70	3.83	-52.4	-54.6	6.2	0.00e+00	0	44	104	0	76	18460
2026-01-18 09:48:29.05	20.69	3.90	-52.4	-54.6	6.2	0.00e+00	0	44	104	0	76	18483
2026-01-18 09:48:30.06	20.67	3.98	-52.4	-54.6	6.2	0.00e+00	0	44	104	0	76	18483
2026-01-18 09:48:31.07	20.65	4.06	-52.5	-54.6	6.2	0.00e+00	0	44	104	0	76	18476
2026-01-18 09:48:32.08	20.64	4.13	-52.4	-54.6	6.2	0.00e+00	0	44	104	0	76	18422
2026-01-18 09:48:33.09	20.62	4.21	-52.5	-54.6	6.2	0.00e+00	0	44	104	0	76	18453
2026-01-18 09:48:34.09	20.60	4.29	-52.4	-54.6	6.2	0.00e+00	0	44	104	0	76	18423
2026-01-18 09:48:35.11	20.58	4.37	-52.4	-54.6	6.2	0.00e+00	0	44	104	0	76	18435
2026-01-18 09:48:36.11	20.57	4.44	-52.4	-54.6	6.2	0.00e+00	0	44	104	0	76	18479
2026-01-18 09:48:37.12	20.55	4.52	-52.5	-54.6	6.2	0.00e+00	0	44	104	0	76	18441
2026-01-18 09:48:38.13	20.53	4.60	-52.4	-54.6	6.2	0.00e+00	0	44	104	0	76	18469
2026-01-18 09:48:39.14	20.51	4.68	-52.4	-54.6	6.2	0.00e+00	0	44	104	0	76	18447
2026-01-18 09:48:40.14	20.49	4.76	-52.4	-54.6	6.2	0.00e+00	0	44	104	0	76	18455
2026-01-18 09:48:41.15	20.48	4.84	-52.4	-54.6	6.2	0.00e+00	0	44	104	0	76	18395
2026-01-18 09:48:42.16	20.46	4.92	-52.4	-54.6	6.2	0.00e+00	0	44	104	0	76	18436
2026-01-18 09:48:43.17	20.44	5.00	-52.4	-54.6	6.2	0.00e+00	0	44	104	0	76	18410
2026-01-18 09:48:44.17	20.42	5.08	-52.5	-54.6	6.2	0.00e+00	0	44	104	0	76	18523
2026-01-18 09:48:45.18	20.40	5.16	-53.1	-55.2	6.2	0.00e+00	0	44	104	0	76	19719
2026-01-18 09:48:46.19	20.38	5.24	-52.6	-54.7	6.2	0.00e+00	0	44	104	0	76	18669
2026-01-18 09:48:47.20	20.36	5.33	-52.5	-54.6	6.2	0.00e+00	0	44	104	0	76	18498
2026-01-18 09:48:48.21	20.34	5.41	-52.6	-54.7	6.2	0.00e+00	0	44	104	0	76	18760
2026-01-18 09:48:49.21	20.32	5.49	-52.4	-54.6	6.2	0.00e+00	0	44	104	0	76	18457
2026-01-18 09:48:50.22	20.30	5.57	-52.6	-54.7	6.2	0.00e+00	0	45	104	0	76	18706
2026-01-18 09:48:51.23	20.28	5.65	-52.5	-54.6	6.2	0.00e+00	0	44	104	0	76	18536
2026-01-18 09:48:52.24	20.26	5.74	-52.7	-54.8	6.2	0.00e+00	0	45	104	0	76	18848
2026-01-18 09:48:53.24	20.24	5.82	-52.5	-54.6	6.2	0.00e+00	0	45	104	0	76	18484
2026-01-18 09:48:54.25	20.22	5.91	-52.6	-54.7	6.2	0.00e+00	0	45	104	0	76	18805
2026-01-18 09:48:55.26	20.20	5.99	-52.6	-54.7	6.2	0.00e+00	0	45	104	0	76	18728
2026-01-18 09:48:56.27	20.18	6.08	-52.7	-54.8	6.2	0.00e+00	0	45	104	0	76	18958
2026-01-18 09:48:57.27	20.16	6.16	-52.5	-54.7	6.2	0.00e+00	0	45	104	0	76	18665
2026-01-18 09:48:58.28	20.14	6.25	-52.6	-54.8	6.2	0.00e+00	0	45	104	0	76	18858
2026-01-18 09:48:59.29	20.11	6.33	-52.6	-54.7	6.2	0.00e+00	0	45	104	0	76	18788
2026-01-18 09:49:00.30	20.09	6.42	-52.7	-54.9	6.2	0.00e+00	0	45	104	0	76	19073
2026-01-18 09:49:01.30	20.07	6.50	-52.6	-54.7	6.2	0.00e+00	0	45	104	0	76	18697
2026-01-18 09:49:02.31	20.05	6.59	-52.7	-54.8	6.2	0.00e+00	0	45	104	0	76	18950
2026-01-18 09:49:03.32	20.03	6.68	-52.7	-54.8	6.2	0.00e+00	0	45	104	0	76	18967
2026-01-18 09:49:04.33	20.00	6.77	-52.8	-54.9	6.2	0.00e+00	0	45	104	0	76	19108
2026-01-18 09:49:05.34	19.98	6.85	-52.6	-54.8	6.2	0.00e+00	0	45	104	0	76	18821
2026-01-18 09:49:06.34	19.96	6.94	-52.7	-54.9	6.2	0.00e+00	0	45	104	0	76	19037
2026-01-18 09:49:07.35	19.93	7.03	-52.7	-54.9	6.2	0.00e+00	0	45	104	0	76	19072
2026-01-18 09:49:08.36	19.91	7.12	-52.8	-54.9	6.2	0.00e+00	0	45	104	0	76	19247
2026-01-18 09:49:09.37	19.89	7.21	-52.7	-54.8	6.2	0.00e+00	0	45	104	0	76	18899
2026-01-18 09:49:10.38	19.86	7.30	-52.8	-54.9	6.2	0.00e+00	0	45	104	0	76	19113
2026-01-18 09:49:11.38	19.84	7.39	-52.8	-54.9	6.2	0.00e+00	0	45	104	0	76	19155
2026-01-18 09:49:12.39	19.82	7.48	-52.8	-54.9	6.2	0.00e+00	0	45	104	0	76	19246
2026-01-18 09:49:13.40	19.79	7.57	-52.7	-54.9	6.2	0.00e+00	0	45	104	0	76	19046
2026-01-18 09:49:14.41	19.77	7.67	-52.8	-55.0	6.2	0.00e+00	0	45	104	0	76	19321
2026-01-18 09:49:15.41	19.74	7.76	-52.8	-55.0	6.2	0.00e+00	0	45	104	0	76	19300
2026-01-18 09:49:16.42	19.72	7.85	-52.9	-55.0	6.2	0.00e+00	0	45	104	0	76	19376
2026-01-18 09:49:17.43	19.69	7.94	-52.8	-54.9	6.2	0.00e+00	0	45	104	0	76	19117
2026-01-18 09:49:18.44	19.67	8.04	-52.9	-55.0	6.2	0.00e+00	0	45	104	0	76	19328
2026-01-18 09:49:19.45	19.64	8.13	-52.9	-55.0	6.2	0.00e+00	0	45	104	0	76	19310
2026-01-18 09:49:20.46	19.61	8.23	-52.9	-55.0	6.2	0.00e+00	0	45	104	0	76	19440
2026-01-18 09:49:21.46	19.59	8.32	-51.6	-53.0	6.3	0.00e+00	0	45	104	0	75	16384
2026-01-18 09:49:22.47	19.56	8.42	-49.0	-49.6	7.3	0.00e+00	0	45	104	0	70	14742
2026-01-18 09:49:23.48	19.53	8.51	-49.2	-49.9	7.2	0.00e+00	0	46	104	0	69	16135
2026-01-18 09:49:24.49	19.51	8.61	-47.7	-48.1	8.1	0.00e+00	0	46	104	0	67	14648
2026-01-18 09:49:25.50	19.48	8.71	-49.2	-49.9	7.2	0.00e+00	0	45	104	0	68	17122
2026-01-18 09:49:26.50	19.45	8.80	-47.7	-48.2	8.0	0.00e+00	0	45	104	0	67	14778
2026-01-18 09:49:27.51	19.42	8.90	-39.9	-39.8	12.7	0.00e+00	1	47	0	25165824	51	14116
2026-01-18 09:49:28.52	19.40	9.00	-40.9	-40.8	12.2	0.00e+00	0	47	0	134217728	52	15120
2026-01-18 09:49:29.53	19.37	9.10	-41.8	-41.8	11.6	0.00e+00	9357	49	0	251658240	55	14216
2026-01-18 09:49:30.53	19.34	9.20	-39.1	-39.0	13.3	0.00e+00	0	47	0	360710144	50	13739
2026-01-18 09:49:31.54	19.31	9.30	-38.5	-38.5	13.6	1.68e-01	0	47	0	469762048	49	13640
2026-01-18 09:49:32.55	19.28	9.40	-36.8	-36.8	13.6	1.68e-01	0	47	0	587202560	45	14155
2026-01-18 09:49:33.56	19.25	9.50	-36.6	-36.5	13.7	3.73e-02	0	47	0	696254464	45	13697
2026-01-18 09:49:34.57	19.22	9.60	-36.5	-36.4	13.8	3.73e-02	0	47	0	822083584	44	14344
2026-01-18 09:49:35.57	19.19	9.70	-36.1	-36.1	13.9	3.73e-02	0	47	0	931135488	44	13801
2026-01-18 09:49:36.58	19.16	9.81	-36.1	-36.0	14.0	2.85e-02	0	47	0	1048576000	44	13766
2026-01-18 09:49:37.59	19.13	9.91	-36.1	-36.0	14.0	2.85e-02	0	47	0	1157627904	44	13776
2026-01-18 09:49:38.59	19.10	10.01	-36.1	-36.0	14.0	2.85e-02	0	47	0	1275068416	44	13673
2026-01-18 09:49:39.60	19.07	10.12	-36.1	-36.0	14.0	2.45e-02	0	47	0	1384120320	44	13737
2026-01-18 09:49:40.61	19.04	10.22	-36.1	-36.1	13.9	2.45e-02	0	48	0	1493172224	44	13819
2026-01-18 09:49:41.62	19.00	10.33	-36.0	-36.0	14.0	2.45e-02	0	47	0	1610612736	43	14461
2026-01-18 09:49:42.63	18.97	10.43	-36.1	-36.0	14.0	2.28e-02	0	47	0	1719664640	43	14574
2026-01-18 09:49:43.63	18.94	10.54	-36.3	-36.2	13.9	2.28e-02	0	48	0	1837105152	43	14824
2026-01-18 09:49:44.64	18.91	10.65	-36.0	-35.9	14.1	2.32e-02	0	48	0	1946157056	43	14405
2026-01-18 09:49:45.65	18.87	10.76	-35.9	-35.8	14.1	2.32e-02	0	48	0	2055208960	43	14267
2026-01-18 09:49:46.66	18.84	10.86	-35.8	-35.8	14.1	2.32e-02	0	48	0	2172649472	43	14129
2026-01-18 09:49:47.67	18.80	10.97	-36.0	-35.9	14.1	2.02e-02	0	48	0	2298478592	43	14382
2026-01-18 09:49:48.67	18.77	11.08	-36.1	-36.0	14.1	2.02e-02	0	48	0	2407530496	43	14532
2026-01-18 09:49:49.68	18.74	11.19	-35.8	-35.7	14.2	2.02e-02	0	48	0	2516582400	43	14047
2026-01-18 09:49:50.69	18.70	11.30	-35.7	-35.6	14.2	1.99e-02	0	48	0	2634022912	43	13912
2026-01-18 09:49:51.70	18.67	11.42	-35.5	-35.4	14.3	1.99e-02	0	48	0	2743074816	43	13592
2026-01-18 09:49:52.71	18.63	11.53	-35.6	-35.5	14.3	1.99e-02	0	48	0	2860515328	43	13719
2026-01-18 09:49:53.72	18.59	11.64	-35.7	-35.6	14.3	1.99e-02	0	48	0	2969567232	43	13793
2026-01-18 09:49:54.73	18.56	11.76	-35.6	-35.5	14.3	1.66e-02	0	48	0	3087007744	43	13740
2026-01-18 09:49:55.73	18.52	11.87	-35.4	-35.3	14.4	1.66e-02	0	48	0	3196059648	42	14183
2026-01-18 09:49:56.74	18.48	11.99	-35.3	-35.2	14.5	1.66e-02	0	48	0	3305111552	42	14110
2026-01-18 09:49:57.75	18.45	12.10	-35.4	-35.3	14.4	1.38e-02	0	48	0	3422552064	42	14173
2026-01-18 09:49:58.76	18.41	12.22	-35.2	-35.1	14.5	1.38e-02	0	48	0	3531603968	42	13892
2026-01-18 09:49:59.77	18.37	12.34	-35.2	-35.1	14.5	1.17e-02	0	48	0	3657433088	42	13940
2026-01-18 09:50:00.77	18.33	12.45	-35.2	-35.1	14.5	1.17e-02	0	48	0	3766484992	42	13913
2026-01-18 09:50:01.78	18.29	12.57	-35.1	-35.0	14.6	1.17e-02	0	48	0	3883925504	42	13706
2026-01-18 09:50:02.79	18.25	12.69	-35.1	-35.0	14.6	1.10e-02	0	48	0	3992977408	42	13659
2026-01-18 09:50:03.80	18.21	12.81	-35.1	-35.0	14.6	1.10e-02	0	48	0	4110417920	42	13777
2026-01-18 09:50:04.81	18.17	12.93	-35.0	-34.9	14.6	1.10e-02	0	49	0	4219469824	42	13539
2026-01-18 09:50:05.81	18.13	13.05	-35.0	-34.9	14.6	1.02e-02	0	48	0	4328521728	41	14376
2026-01-18 09:50:06.82	18.09	13.18	-35.0	-34.9	14.6	1.02e-02	0	48	0	4445962240	41	14357
2026-01-18 09:50:07.83	18.05	13.30	-35.1	-35.0	14.6	1.02e-02	0	49	0	4555014144	41	14596
2026-01-18 09:50:08.84	18.00	13.43	-35.1	-35.0	14.6	1.00e-02	0	48	0	4672454656	41	14534
2026-01-18 09:50:09.85	17.96	13.55	-35.0	-34.9	14.6	1.00e-02	0	48	0	4781506560	41	14310
2026-01-18 09:50:10.86	17.92	13.68	-34.6	-34.5	14.8	1.00e-02	0	48	0	4890558464	41	13663
2026-01-18 09:50:11.87	17.87	13.80	-34.5	-34.4	14.9	8.23e-03	0	49	0	5016387584	41	13557
2026-01-18 09:50:12.87	17.83	13.93	-34.6	-34.5	14.8	8.23e-03	0	48	0	5133828096	41	13718
2026-01-18 09:50:13.88	17.79	14.06	-34.5	-34.4	14.9	8.23e-03	0	48	0	5242880000	41	13549
2026-01-18 09:50:14.89	17.74	14.19	-34.4	-34.3	14.9	6.47e-03	0	49	0	5351931904	40	14241
2026-01-18 09:50:15.90	17.69	14.32	-34.2	-34.1	15.0	6.47e-03	0	49	0	5469372416	40	13900
2026-01-18 09:50:16.90	17.65	14.45	-34.1	-34.0	15.1	5.20e-03	0	49	0	5578424320	40	13786
2026-01-18 09:50:17.91	17.60	14.58	-34.2	-34.1	15.0	5.20e-03	0	49	0	5695864832	40	13856
2026-01-18 09:50:18.92	17.55	14.71	-34.2	-34.1	15.0	5.20e-03	0	49	0	5804916736	40	13878
2026-01-18 09:50:19.93	17.51	14.85	-34.1	-34.0	15.1	4.65e-03	0	49	0	5913968640	40	13719
2026-01-18 09:50:20.93	17.46	14.98	-34.1	-34.0	15.0	4.65e-03	0	49	0	6031409152	40	13778
2026-01-18 09:50:21.94	17.41	15.12	-34.0	-33.9	15.1	4.32e-03	0	49	0	6140461056	40	13499
2026-01-18 09:50:22.95	17.36	15.25	-34.0	-33.9	15.1	4.32e-03	0	49	0	6257901568	39	14426
2026-01-18 09:50:23.96	17.31	15.39	-33.9	-33.8	15.2	4.32e-03	0	49	0	6366953472	39	14200
2026-01-18 09:50:24.97	17.26	15.53	-34.0	-33.9	15.1	4.32e-03	0	49	0	6492782592	39	14320
2026-01-18 09:50:25.97	17.21	15.67	-33.9	-33.8	15.2	3.66e-03	0	49	0	6601834496	39	14161
2026-01-18 09:50:26.98	17.15	15.81	-33.9	-33.8	15.2	3.66e-03	0	49	0	6719275008	39	14209
2026-01-18 09:50:27.99	17.10	15.95	-33.8	-33.7	15.2	3.66e-03	0	49	0	6828326912	39	13959
2026-01-18 09:50:29.00	17.05	16.10	-33.7	-33.6	15.3	3.50e-03	0	49	0	6945767424	39	13815
2026-01-18 09:50:30.01	16.99	16.24	-33.8	-33.7	15.2	3.50e-03	0	49	0	7054819328	39	14001
2026-01-18 09:50:31.02	16.94	16.38	-33.7	-33.6	15.3	3.50e-03	0	49	0	7163871232	39	13870
2026-01-18 09:50:32.03	16.88	16.53	-33.6	-33.5	15.3	2.99e-03	0	49	0	7281311744	39	13663
2026-01-18 09:50:33.03	16.83	16.68	-33.4	-33.3	15.4	2.99e-03	0	49	0	7390363648	38	14257
2026-01-18 09:50:34.04	16.77	16.83	-33.4	-33.4	15.4	2.99e-03	0	49	0	7507804160	38	14286
2026-01-18 09:50:35.05	16.71	16.97	-33.4	-33.3	15.4	2.16e-03	0	49	0	7616856064	38	14211
2026-01-18 09:50:36.06	16.66	17.13	-33.4	-33.3	15.4	2.16e-03	0	49	0	7725907968	38	14273
2026-01-18 09:50:37.07	16.60	17.28	-33.3	-33.2	15.5	2.16e-03	0	49	0	7851737088	38	14076
2026-01-18 09:50:38.07	16.54	17.43	-33.2	-33.1	15.5	1.94e-03	0	49	0	7969177600	38	13882
2026-01-18 09:50:39.08	16.48	17.58	-33.2	-33.1	15.5	1.94e-03	0	49	0	8078229504	38	13912
2026-01-18 09:50:40.09	16.42	17.74	-33.1	-33.0	15.5	1.80e-03	0	49	0	8187281408	38	13768
2026-01-18 09:50:41.10	16.36	17.89	-33.1	-33.0	15.5	1.80e-03	0	49	0	8304721920	38	13671
2026-01-18 09:50:42.10	16.29	18.05	-33.1	-33.0	15.5	1.63e-03	0	49	0	8413773824	38	13662
2026-01-18 09:50:43.11	16.23	18.21	-33.0	-32.9	15.6	1.63e-03	0	49	0	8531214336	38	13600
2026-01-18 09:50:44.12	16.17	18.37	-32.9	-32.8	15.6	1.63e-03	0	49	0	8640266240	37	14136
2026-01-18 09:50:45.12	16.10	18.53	-32.7	-32.6	15.7	1.24e-03	0	49	0	8749318144	37	13883
2026-01-18 09:50:46.14	16.03	18.70	-32.6	-32.5	15.7	1.24e-03	0	49	0	8866758656	37	13722
2026-01-18 09:50:47.15	15.97	18.86	-32.6	-32.5	15.7	1.24e-03	0	49	0	8975810560	37	13769
2026-01-18 09:50:48.15	15.90	19.02	-32.5	-32.4	15.7	9.87e-04	0	49	0	9093251072	37	13507
2026-01-18 09:50:49.16	15.83	19.19	-32.4	-32.3	15.8	9.87e-04	0	49	0	9202302976	36	14149
2026-01-18 09:50:50.17	15.76	19.36	-32.4	-32.3	15.8	9.87e-04	0	49	0	9328132096	36	14267
2026-01-18 09:50:51.18	15.69	19.53	-32.3	-32.2	15.8	9.87e-04	0	50	0	9437184000	36	14023
2026-01-18 09:50:52.19	15.62	19.70	-32.3	-32.2	15.8	6.58e-04	0	50	0	9554624512	36	14072
2026-01-18 09:50:53.20	15.55	19.87	-32.0	-31.9	15.9	6.58e-04	0	50	0	9663676416	36	13614
2026-01-18 09:50:54.21	15.47	20.05	-32.0	-31.9	15.9	6.58e-04	0	49	0	9772728320	36	13533
2026-01-18 09:50:55.22	15.40	20.22	-32.0	-31.9	15.9	4.43e-04	0	49	0	9890168832	36	13548
2026-01-18 09:50:56.22	15.33	20.40	-29.2	-29.1	15.5	4.43e-04	0	49	0	9999220736	30	13905
2026-01-18 09:50:57.23	15.25	20.58	-29.0	-28.9	15.6	4.43e-04	0	49	0	10116661248	30	13627
2026-01-18 09:50:58.24	15.17	20.76	-29.0	-28.9	15.6	4.43e-04	0	49	0	10225713152	30	13632
2026-01-18 09:50:59.25	15.09	20.94	-29.2	-29.1	15.5	1.23e-03	0	49	0	10334765056	30	13821
2026-01-18 09:51:00.26	15.01	21.12	-28.8	-28.8	15.6	1.23e-03	0	50	0	10452205568	29	14149
2026-01-18 09:51:01.27	14.93	21.31	-28.7	-28.6	15.7	1.23e-03	0	50	0	10578034688	29	13891
2026-01-18 09:51:02.27	14.85	21.49	-28.5	-28.5	15.8	1.22e-03	0	50	0	10687086592	29	13660
2026-01-18 09:51:03.28	14.77	21.68	-28.5	-28.4	15.8	1.22e-03	0	50	0	10804527104	29	13568
2026-01-18 09:51:04.29	14.68	21.87	-28.3	-28.3	15.8	7.58e-04	0	50	0	10913579008	28	14136
2026-01-18 09:51:05.30	14.60	22.06	-28.3	-28.2	15.8	7.58e-04	0	50	0	11022630912	28	14077
2026-01-18 09:51:06.30	14.51	22.25	-28.3	-28.2	15.8	7.58e-04	0	49	0	11140071424	28	14095
2026-01-18 09:51:07.31	14.42	22.45	-28.2	-28.1	15.8	7.58e-04	0	50	0	11249123328	28	13930
2026-01-18 09:51:08.32	14.33	22.65	-28.0	-27.9	15.9	7.72e-04	0	50	0	11366563840	27	14333
2026-01-18 09:51:09.33	14.24	22.85	-27.9	-27.8	15.9	7.72e-04	0	50	0	11475615744	27	14183
2026-01-18 09:51:10.34	14.15	23.05	-28.0	-27.9	15.9	7.72e-04	0	49	0	11584667648	27	14325
2026-01-18 09:51:11.35	14.06	23.25	-27.9	-27.8	16.0	5.34e-04	0	50	0	11702108160	27	14190
2026-01-18 09:51:12.35	13.96	23.45	-28.0	-27.9	16.0	5.34e-04	0	50	0	11811160064	27	14344
2026-01-18 09:51:13.36	13.87	23.66	-27.8	-27.7	16.0	5.34e-04	0	50	0	11928600576	27	14065
2026-01-18 09:51:14.37	13.77	23.87	-27.7	-27.6	16.1	3.15e-04	0	50	0	12046041088	27	13869
2026-01-18 09:51:15.38	13.67	24.08	-27.7	-27.6	16.1	3.15e-04	0	50	0	12163481600	27	13857
2026-01-18 09:51:16.39	13.57	24.29	-27.7	-27.6	16.1	3.15e-04	0	50	0	12272533504	27	13900
2026-01-18 09:51:17.39	13.47	24.50	-27.6	-27.5	16.1	1.67e-04	0	50	0	12389974016	27	13756
2026-01-18 09:51:18.40	13.36	24.72	-27.5	-27.4	16.2	1.67e-04	0	50	0	12499025920	27	13614
2026-01-18 09:51:19.41	13.25	24.93	-27.5	-27.4	16.2	1.67e-04	0	50	0	12608077824	27	13509
2026-01-18 09:51:20.42	13.15	25.16	-27.5	-27.5	16.2	1.67e-04	0	50	0	12725518336	27	13635
2026-01-18 09:51:21.43	13.04	25.38	-27.6	-27.5	16.2	1.67e-04	0	50	0	12834570240	27	13766
2026-01-18 09:51:22.44	12.93	25.60	-27.4	-27.3	16.2	1.05e-04	0	50	0	12952010752	26	14253
2026-01-18 09:51:23.45	12.81	25.83	-27.2	-27.1	16.3	1.05e-04	0	50	0	13061062656	26	13941
2026-01-18 09:51:24.46	12.70	26.06	-27.1	-27.0	16.4	1.00e-04	0	50	0	13170114560	26	13732
2026-01-18 09:51:25.47	12.58	26.29	-27.1	-27.0	16.4	1.00e-04	0	50	0	13295943680	26	13642
2026-01-18 09:51:26.47	12.46	26.52	-26.9	-26.8	16.4	1.00e-04	0	50	0	13413384192	25	14155
2026-01-18 09:51:27.48	12.34	26.76	-26.8	-26.7	16.4	8.10e-05	0	50	0	13522436096	25	14010
2026-01-18 09:51:28.49	12.22	27.00	-26.7	-26.6	16.5	8.10e-05	0	50	0	13631488000	25	13868
2026-01-18 09:51:29.50	12.10	27.24	-26.7	-26.6	16.5	8.10e-05	0	50	0	13748928512	25	13844
2026-01-18 09:51:30.50	11.97	27.48	-26.6	-26.5	16.5	3.81e-05	0	50	0	13857980416	25	13754
2026-01-18 09:51:31.51	11.84	27.72	-26.3	-26.2	16.6	3.81e-05	0	50	0	13975420928	24	14081
2026-01-18 09:51:32.52	11.71	27.97	-26.3	-26.2	16.6	1.90e-05	0	50	0	14084472832	24	14104
2026-01-18 09:51:33.53	11.57	28.22	-26.2	-26.1	16.6	1.90e-05	0	50	0	14201913344	24	13834
2026-01-18 09:51:34.54	11.44	28.48	-26.1	-26.0	16.6	1.90e-05	0	50	0	14310965248	24	13751
2026-01-18 09:51:35.55	11.30	28.73	-26.0	-25.9	16.7	1.43e-05	0	49	0	14420017152	24	13530
2026-01-18 09:51:36.55	11.16	28.99	-26.0	-25.9	16.7	1.43e-05	0	50	0	14537457664	23	14421
2026-01-18 09:51:37.56	11.02	29.25	-25.9	-25.8	16.7	1.43e-05	0	50	0	14646509568	23	14149
2026-01-18 09:51:38.57	10.87	29.51	-25.7	-25.6	16.7	1.90e-05	0	50	0	14772338688	23	13802
2026-01-18 09:51:39.57	10.72	29.78	-25.5	-25.4	16.8	1.90e-05	0	50	0	14881390592	23	13510
2026-01-18 09:51:40.58	10.57	30.05	-25.4	-25.3	16.8	1.90e-05	0	50	0	14998831104	22	14244
2026-01-18 09:51:41.59	10.42	30.32	-25.5	-25.4	16.8	1.90e-05	0	50	0	15107883008	22	14277
2026-01-18 09:51:42.60	10.26	30.60	-25.2	-25.1	16.8	4.70e-06	0	50	0	15216934912	22	13918
2026-01-18 09:51:43.61	10.10	30.87	-25.1	-25.0	16.9	4.70e-06	0	50	0	15334375424	22	13736
2026-01-18 09:51:44.61	9.93	31.15	-25.1	-25.0	16.9	9.50e-06	0	49	0	15443427328	22	13753
2026-01-18 09:51:45.62	9.77	31.44	-25.0	-24.9	16.9	9.50e-06	0	50	0	15560867840	22	13599
2026-01-18 09:51:46.63	9.60	31.72	-25.0	-24.9	16.9	9.50e-06	0	49	0	15669919744	22	13570
2026-01-18 09:51:47.64	9.42	32.01	-24.9	-24.8	16.9	9.50e-06	0	50	0	15787360256	21	14244
2026-01-18 09:51:48.65	9.25	32.31	-24.9	-24.8	16.9	0.00e+00	0	50	0	15896412160	21	14256
2026-01-18 09:51:49.65	9.07	32.60	-24.8	-24.7	17.0	0.00e+00	0	50	0	16005464064	21	14065
2026-01-18 09:51:50.66	8.88	32.90	-24.6	-24.5	17.1	9.50e-06	0	50	0	16122904576	21	13668
2026-01-18 09:51:51.67	8.70	33.20	-24.4	-24.3	17.1	9.50e-06	0	50	0	16248733696	20	14120
2026-01-18 09:51:52.68	8.50	33.51	-24.3	-24.2	17.0	9.50e-06	0	49	0	16357785600	20	14057
2026-01-18 09:51:53.69	8.31	33.81	-24.2	-24.1	17.0	4.70e-06	0	50	0	16466837504	20	13850
2026-01-18 09:51:54.69	8.11	34.12	-24.1	-24.0	17.1	4.70e-06	0	50	0	16584278016	20	13732
2026-01-18 09:51:55.70	7.91	34.44	-24.0	-23.9	17.1	0.00e+00	0	50	0	16693329920	19	14360
2026-01-18 09:51:56.71	7.70	34.76	-23.7	-23.6	17.1	0.00e+00	0	50	0	16810770432	19	13942
2026-01-18 09:51:57.72	7.49	35.08	-23.8	-23.7	17.1	0.00e+00	0	50	0	16919822336	19	14000
2026-01-18 09:51:58.73	7.27	35.40	-23.7	-23.6	17.2	0.00e+00	0	50	0	17037262848	19	13794
2026-01-18 09:51:59.73	7.05	35.73	-23.6	-23.5	17.2	0.00e+00	0	50	0	17146314752	19	13750
2026-01-18 09:52:00.74	6.82	36.06	-23.5	-23.4	17.2	0.00e+00	0	49	0	17255366656	19	13587
2026-01-18 09:52:01.75	6.59	36.40	-23.5	-23.4	17.2	0.00e+00	0	50	0	17372807168	19	13490
2026-01-18 09:52:02.76	6.35	36.74	-23.3	-23.2	17.2	0.00e+00	0	49	0	17481859072	18	13959
2026-01-18 09:52:03.77	6.11	37.08	-23.2	-23.1	17.3	0.00e+00	0	49	0	17607688192	18	13800
2026-01-18 09:52:04.77	5.86	37.42	-23.1	-23.0	17.3	0.00e+00	0	49	0	17716740096	18	13650
2026-01-18 09:52:05.78	5.61	37.77	-23.2	-23.1	17.3	0.00e+00	0	49	0	17834180608	18	13855
2026-01-18 09:52:06.79	5.35	38.13	-23.0	-22.9	17.3	4.70e-06	0	49	0	17943232512	18	13549
2026-01-18 09:52:07.80	5.08	38.48	-22.8	-22.7	17.3	4.70e-06	0	49	0	18060673024	17	14075
2026-01-18 09:52:08.81	4.81	38.85	-22.8	-22.7	17.3	4.70e-06	0	49	0	18169724928	17	13953
2026-01-18 09:52:09.81	4.54	39.21	-22.6	-22.5	17.3	0.00e+00	0	50	0	18278776832	17	13713
2026-01-18 09:52:10.82	4.25	39.57	-22.6	-22.5	17.3	0.00e+00	0	50	0	18396217344	17	13672
2026-01-18 09:52:11.83	3.96	39.95	-22.7	-22.5	17.3	0.00e+00	0	50	0	18505269248	17	13768
2026-01-18 09:52:12.84	3.66	40.32	-22.5	-22.4	17.3	0.00e+00	0	50	0	18614321152	17	13595
2026-01-18 09:52:13.84	3.35	40.70	-22.2	-22.1	17.4	0.00e+00	0	50	0	18731761664	16	13911
2026-01-18 09:52:14.85	3.04	41.08	-22.3	-22.2	17.4	0.00e+00	0	49	0	18840813568	16	14008
2026-01-18 09:52:15.86	2.72	41.47	-22.2	-22.1	17.4	0.00e+00	0	50	0	18958254080	16	13845
2026-01-18 09:52:16.87	2.38	41.86	-22.0	-21.9	17.4	0.00e+00	0	49	0	19084083200	16	13558
2026-01-18 09:52:17.87	2.05	42.25	-21.8	-21.7	17.4	0.00e+00	0	49	0	19193135104	15	13989
2026-01-18 09:52:18.88	1.70	42.64	-21.8	-21.7	17.4	0.00e+00	0	49	0	19302187008	15	14004
2026-01-18 09:52:19.89	1.34	43.04	-21.6	-21.5	17.4	0.00e+00	0	50	0	19419627520	15	13723
2026-01-18 09:52:20.90	0.97	43.45	-21.6	-21.5	17.4	0.00e+00	0	50	0	19528679424	15	13733
2026-01-18 09:52:21.91	0.60	43.86	-21.7	-21.6	17.4	0.00e+00	0	50	0	19646119936	15	13881
2026-01-18 09:52:22.91	0.21	44.26	-21.6	-21.5	17.5	0.00e+00	0	50	0	19755171840	15	13646
2026-01-18 09:52:23.92	359.82	44.68	-21.3	-21.2	17.5	0.00e+00	0	49	0	19864223744	14	13983
2026-01-18 09:52:24.93	359.41	45.10	-21.3	-21.1	17.5	0.00e+00	0	50	0	19981664256	14	13901
2026-01-18 09:52:25.94	358.99	45.52	-21.3	-21.1	17.5	0.00e+00	0	50	0	20090716160	14	13896
2026-01-18 09:52:26.95	358.55	45.94	-21.1	-21.0	17.5	0.00e+00	0	50	0	20208156672	14	13700
2026-01-18 09:52:27.95	358.11	46.37	-21.1	-21.0	17.5	0.00e+00	0	50	0	20317208576	14	13705
2026-01-18 09:52:28.96	357.66	46.80	-21.0	-20.8	17.6	0.00e+00	0	49	0	20434649088	14	13441
2026-01-18 09:52:29.97	357.18	47.23	-20.8	-20.6	17.5	0.00e+00	0	49	0	20552089600	13	13937
2026-01-18 09:52:30.98	356.70	47.67	-20.7	-20.6	17.5	0.00e+00	0	50	0	20669530112	13	13868
2026-01-18 09:52:31.99	356.20	48.11	-20.8	-20.6	17.6	0.00e+00	0	49	0	20778582016	13	13893
2026-01-18 09:52:32.99	355.69	48.55	-20.7	-20.6	17.6	0.00e+00	0	50	0	20896022528	13	13849
2026-01-18 09:52:34.00	355.16	48.99	-20.5	-20.4	17.6	0.00e+00	0	49	0	21005074432	13	13541
2026-01-18 09:52:35.01	354.62	49.44	-20.5	-20.4	17.5	0.00e+00	0	49	0	21114126336	13	13558
2026-01-18 09:52:36.02	354.05	49.89	-20.3	-20.1	17.6	0.00e+00	0	49	0	21231566848	12	13939
2026-01-18 09:52:37.03	353.48	50.34	-20.3	-20.2	17.6	0.00e+00	0	50	0	21340618752	12	13965
2026-01-18 09:52:38.04	352.88	50.79	-20.1	-20.0	17.6	0.00e+00	0	49	0	21458059264	12	13728
2026-01-18 09:52:39.04	352.27	51.24	-20.1	-20.0	17.6	0.00e+00	0	50	0	21567111168	12	13713
2026-01-18 09:52:40.05	351.63	51.70	-20.2	-20.1	17.6	0.00e+00	0	49	0	21676163072	11	14677
2026-01-18 09:52:41.06	350.97	52.15	-20.2	-20.1	17.6	0.00e+00	0	49	0	21793603584	11	14620
2026-01-18 09:52:42.07	350.30	52.61	-20.1	-20.0	17.6	0.00e+00	0	49	0	21919432704	11	14548
2026-01-18 09:52:43.07	349.60	53.07	-20.0	-19.8	17.6	0.00e+00	0	49	0	22028484608	11	14251
2026-01-18 09:52:44.08	348.88	53.52	-20.0	-19.9	17.6	0.00e+00	0	50	0	22137536512	11	14321
2026-01-18 09:52:45.09	348.13	53.98	-19.7	-19.6	17.6	0.00e+00	0	50	0	22254977024	11	13804
2026-01-18 09:52:46.10	347.36	54.44	-19.6	-19.5	17.6	0.00e+00	0	49	0	22364028928	11	13715
2026-01-18 09:52:47.11	346.57	54.90	-19.6	-19.4	17.6	0.00e+00	0	49	0	22481469440	11	13632
2026-01-18 09:52:48.12	345.74	55.35	-19.3	-19.2	17.7	0.00e+00	0	50	0	22590521344	10	13966
2026-01-18 09:52:49.13	344.89	55.81	-19.3	-19.2	17.7	0.00e+00	0	50	0	22699573248	10	13998
2026-01-18 09:52:50.13	344.02	56.25	-19.4	-19.2	17.7	0.00e+00	0	49	0	22817013760	10	14085
2026-01-18 09:52:51.14	343.11	56.70	-19.2	-19.1	17.7	0.00e+00	0	49	0	22926065664	10	13886
2026-01-18 09:52:52.15	342.18	57.15	-19.3	-19.1	17.7	0.00e+00	0	50	0	23043506176	10	13928
2026-01-18 09:52:53.16	341.20	57.59	-19.1	-19.0	17.7	0.00e+00	0	49	0	23152558080	10	13721
2026-01-18 09:52:54.17	340.20	58.03	-19.2	-19.0	17.7	0.00e+00	0	49	0	23278387200	10	13742
2026-01-18 09:52:55.17	339.17	58.46	-19.2	-19.0	17.6	0.00e+00	0	49	0	23387439104	10	13784
2026-01-18 09:52:56.18	338.10	58.88	-19.1	-18.9	17.8	0.00e+00	0	50	0	23504879616	10	13617
2026-01-18 09:52:57.19	336.99	59.31	-19.1	-18.9	17.8	0.00e+00	0	50	0	23613931520	10	13592
2026-01-18 09:52:58.20	335.85	59.72	-19.2	-19.0	17.8	0.00e+00	0	50	0	23722983424	10	13764
2026-01-18 09:52:59.21	334.67	60.13	-19.2	-19.0	17.8	0.00e+00	0	50	0	23840423936	10	13739
2026-01-18 09:53:00.22	333.45	60.53	-19.0	-18.8	17.8	0.00e+00	0	50	0	23949475840	10	13472
2026-01-18 09:53:01.23	332.19	60.91	-18.9	-18.7	17.8	0.00e+00	0	50	0	24066916352	9	14101
2026-01-18 09:53:02.23	330.90	61.29	-18.9	-18.7	17.8	0.00e+00	0	50	0	24175968256	9	14098
2026-01-18 09:53:03.24	329.57	61.66	-18.9	-18.7	17.8	0.00e+00	0	50	0	24293408768	9	14070
2026-01-18 09:53:04.25	328.19	62.02	-18.9	-18.8	17.8	0.00e+00	0	50	0	24402460672	9	14120
2026-01-18 09:53:05.26	326.77	62.36	-54.2	-56.5	6.2	0.00e+00	0	49	104	24427626496	79	19325
2026-01-18 09:53:06.27	325.31	62.69	-54.2	-56.4	6.2	0.00e+00	0	49	104	24427626496	79	19191
2026-01-18 09:53:07.27	323.82	63.00	-54.2	-56.4	6.2	0.00e+00	0	48	104	24427626496	79	19147
2026-01-18 09:53:08.28	322.28	63.31	-54.2	-56.4	6.2	0.00e+00	0	49	104	24427626496	79	19120
2026-01-18 09:53:09.29	320.70	63.59	-54.2	-56.3	6.2	0.00e+00	0	48	104	24427626496	79	19013
2026-01-18 09:53:10.30	319.09	63.86	-54.3	-56.4	6.2	0.00e+00	0	48	104	24427626496	79	19159
2026-01-18 09:53:11.31	317.43	64.11	-54.3	-56.4	6.2	0.00e+00	0	48	104	24427626496	79	19156
2026-01-18 09:53:12.31	315.76	64.34	-54.3	-56.4	6.2	0.00e+00	0	48	104	24427626496	79	19225
2026-01-18 09:53:13.32	314.04	64.55	-54.2	-56.4	6.2	0.00e+00	0	48	104	24427626496	79	19121
2026-01-18 09:53:14.33	312.28	64.74	-54.3	-56.4	6.2	0.00e+00	0	48	104	24427626496	79	19167
2026-01-18 09:53:15.34	310.50	64.92	-54.3	-56.4	6.2	0.00e+00	0	48	104	24427626496	79	19183
2026-01-18 09:53:16.35	308.69	65.07	-54.3	-56.4	6.2	0.00e+00	0	48	104	24427626496	79	19078
2026-01-18 09:53:17.35	306.88	65.19	-54.2	-56.4	6.2	0.00e+00	0	48	104	24427626496	79	19167
2026-01-18 09:53:18.36	305.03	65.30	-54.3	-56.4	6.2	0.00e+00	0	48	104	24427626496	79	19177
2026-01-18 09:53:19.37	303.16	65.38	-54.3	-56.5	6.2	0.00e+00	0	48	104	24427626496	79	19273
2026-01-18 09:53:20.38	301.28	65.44	-54.3	-56.4	6.2	0.00e+00	0	48	104	24427626496	79	19133
2026-01-18 09:53:21.39	299.40	65.47	-54.3	-56.4	6.2	0.00e+00	0	48	104	24427626496	79	19148
2026-01-18 09:53:22.39	297.53	65.48	-54.3	-56.4	6.2	0.00e+00	0	48	104	24427626496	79	19168
2026-01-18 09:53:23.40	295.64	65.47	-54.3	-56.4	6.2	0.00e+00	0	48	104	24427626496	79	19218
2026-01-18 09:53:24.41	293.75	65.43	-54.3	-56.4	6.2	0.00e+00	0	48	104	24427626496	79	19151
2026-01-18 09:53:25.42	291.87	65.37	-54.3	-56.4	6.2	0.00e+00	0	48	104	24427626496	79	19158
2026-01-18 09:53:26.42	290.03	65.28	-54.3	-56.4	6.2	0.00e+00	0	48	104	24427626496	79	19176
2026-01-18 09:53:27.43	288.18	65.18	-54.3	-56.4	6.2	0.00e+00	0	48	104	24427626496	79	19199
2026-01-18 09:53:28.44	286.35	65.05	-54.3	-56.4	6.2	0.00e+00	0	48	104	24427626496	79	19171
2026-01-18 09:53:29.45	284.54	64.89	-54.3	-56.4	6.2	0.00e+00	0	48	104	24427626496	79	19156
2026-01-18 09:53:30.45	282.78	64.72	-54.3	-56.4	6.2	0.00e+00	0	47	104	24427626496	79	19202
2026-01-18 09:53:31.46	281.03	64.53	-54.3	-56.4	6.2	0.00e+00	0	48	104	24427626496	79	19128
2026-01-18 09:53:32.47	279.31	64.31	-54.3	-56.4	6.2	0.00e+00	0	47	104	24427626496	79	19156
2026-01-18 09:53:33.48	277.62	64.08	-54.3	-56.4	6.2	0.00e+00	0	47	104	24427626496	79	19113
2026-01-18 09:53:34.49	275.97	63.82	-54.3	-56.4	6.2	0.00e+00	0	47	104	24427626496	79	19155
2026-01-18 09:53:35.50	274.36	63.55	-54.3	-56.4	6.2	0.00e+00	0	47	104	24427626496	79	19150
2026-01-18 09:53:36.51	272.78	63.26	-54.3	-56.4	6.2	0.00e+00	0	47	104	24427626496	79	19121
2026-01-18 09:53:37.51	271.26	62.96	-54.3	-56.4	6.2	0.00e+00	0	47	104	24427626496	79	19132
2026-01-18 09:53:38.52	269.77	62.64	-54.3	-56.4	6.2	0.00e+00	0	47	104	24427626496	79	19177
2026-01-18 09:53:39.53	268.31	62.31	-54.3	-56.4	6.2	0.00e+00	0	48	104	24427626496	79	19132
2026-01-18 09:53:40.54	266.90	61.96	-54.3	-56.4	6.2	0.00e+00	0	47	104	24427626496	79	19155
2026-01-18 09:53:41.55	265.52	61.61	-54.3	-56.4	6.2	0.00e+00	0	47	104	24427626496	79	19193
2026-01-18 09:53:42.55	264.20	61.24	-54.3	-56.4	6.2	0.00e+00	0	47	104	24427626496	79	19195
2026-01-18 09:53:43.56	262.90	60.86	-54.3	-56.4	6.2	0.00e+00	0	47	104	24427626496	79	19110
2026-01-18 09:53:44.57	261.65	60.47	-54.2	-56.4	6.2	0.00e+00	0	47	104	24427626496	79	19036
2026-01-18 09:53:45.57	260.45	60.07	-54.3	-56.4	6.2	0.00e+00	0	47	104	24427626496	79	19110
2026-01-18 09:53:46.58	259.27	59.66	-54.3	-56.4	6.2	0.00e+00	0	47	104	24427626496	79	19148
2026-01-18 09:53:47.59	258.13	59.25	-54.3	-56.4	6.2	0.00e+00	0	47	104	24427626496	79	19127
2026-01-18 09:53:48.60	257.02	58.82	-54.2	-56.4	6.2	0.00e+00	0	47	104	24427626496	79	19118
2026-01-18 09:53:49.61	255.95	58.39	-54.3	-56.4	6.2	0.00e+00	0	47	104	24427626496	79	19084
2026-01-18 09:53:50.61	254.93	57.96	-54.3	-56.4	6.2	0.00e+00	0	47	104	24427626496	79	19160
2026-01-18 09:53:51.62	253.93	57.52	-54.2	-56.4	6.2	0.00e+00	0	47	104	24427626496	79	19157
2026-01-18 09:53:52.63	252.96	57.08	-54.2	-56.4	6.2	0.00e+00	0	47	104	24427626496	79	19075
2026-01-18 09:53:53.64	252.02	56.63	-54.2	-56.4	6.2	0.00e+00	0	47	104	24427626496	79	19120
2026-01-18 09:53:54.65	251.12	56.18	-54.2	-56.4	6.2	0.00e+00	0	47	104	24427626496	79	19055
2026-01-18 09:53:55.65	250.25	55.73	-54.2	-56.4	6.2	0.00e+00	0	47	104	24427626496	79	19043
2026-01-18 09:53:56.66	249.40	55.28	-54.2	-56.3	6.2	0.00e+00	0	47	104	24427626496	79	19009
2026-01-18 09:53:57.67	248.58	54.82	-54.2	-56.3	6.2	0.00e+00	0	47	104	24427626496	79	19027
2026-01-18 09:53:58.68	247.79	54.36	-54.2	-56.4	6.2	0.00e+00	0	47	104	24427626496	79	19095
2026-01-18 09:53:59.69	247.02	53.91	-54.2	-56.3	6.2	0.00e+00	0	47	104	24427626496	79	19020
2026-01-18 09:54:00.70	246.27	53.45	-54.2	-56.3	6.2	0.00e+00	0	47	104	24427626496	79	18966
2026-01-18 09:54:01.70	245.56	52.99	-54.2	-56.4	6.2	0.00e+00	0	47	104	24427626496	79	19047
2026-01-18 09:54:02.71	244.86	52.53	-54.2	-56.3	6.2	0.00e+00	0	47	104	24427626496	79	19007
2026-01-18 09:54:03.72	244.19	52.07	-54.2	-56.3	6.2	0.00e+00	0	47	104	24427626496	79	19015
2026-01-18 09:54:04.73	243.53	51.61	-54.2	-56.3	6.2	0.00e+00	0	47	104	24427626496	79	18950
2026-01-18 09:54:05.73	242.90	51.16	-54.2	-56.3	6.2	0.00e+00	0	47	104	24427626496	79	18988
2026-01-18 09:54:06.74	242.29	50.71	-54.2	-56.3	6.2	0.00e+00	0	47	104	24427626496	79	19018
2026-01-18 09:54:07.75	241.69	50.25	-54.2	-56.3	6.2	0.00e+00	0	47	104	24427626496	79	18929
2026-01-18 09:54:08.76	241.12	49.80	-54.2	-56.3	6.2	0.00e+00	0	47	104	24427626496	79	18907
2026-01-18 09:54:09.76	240.56	49.35	-54.2	-56.3	6.2	0.00e+00	0	47	104	24427626496	79	18931
2026-01-18 09:54:10.77	240.02	48.91	-54.2	-56.3	6.2	0.00e+00	0	47	104	24427626496	79	18970
2026-01-18 09:54:11.78	239.49	48.46	-54.2	-56.3	6.2	0.00e+00	0	47	104	24427626496	79	18979
2026-01-18 09:54:12.79	238.97	48.02	-54.2	-56.3	6.2	0.00e+00	0	47	104	24427626496	79	18862
2026-01-18 09:54:13.80	238.48	47.58	-54.2	-56.3	6.2	0.00e+00	0	47	104	24427626496	79	18904
2026-01-18 09:54:14.80	238.00	47.14	-54.2	-56.3	6.2	0.00e+00	0	47	104	24427626496	79	18906
2026-01-18 09:54:15.81	237.53	46.71	-54.1	-56.3	6.2	0.00e+00	0	47	104	24427626496	79	18913
2026-01-18 09:54:16.82	237.07	46.28	-54.1	-56.3	6.2	0.00e+00	0	47	104	24427626496	79	18846
2026-01-18 09:54:17.83	236.63	45.85	-54.1	-56.3	6.2	0.00e+00	0	47	104	24427626496	79	18826
2026-01-18 09:54:18.84	236.20	45.42	-54.1	-56.3	6.2	0.00e+00	0	47	104	24427626496	79	18878
2026-01-18 09:54:19.85	235.78	45.00	-54.1	-56.3	6.2	0.00e+00	0	47	104	24427626496	79	18845
2026-01-18 09:54:20.86	235.37	44.58	-54.1	-56.2	6.2	0.00e+00	0	46	104	24427626496	79	18785
2026-01-18 09:54:21.86	234.98	44.17	-54.1	-56.2	6.2	0.00e+00	0	47	104	24427626496	79	18781
2026-01-18 09:54:22.87	234.59	43.76	-54.1	-56.2	6.2	0.00e+00	0	47	104	24427626496	79	18776
2026-01-18 09:54:23.88	234.21	43.35	-54.1	-56.2	6.2	0.00e+00	0	47	104	24427626496	79	18793
2026-01-18 09:54:24.89	233.85	42.94	-54.1	-56.2	6.2	0.00e+00	0	47	104	24427626496	79	18780
2026-01-18 09:54:25.89	233.49	42.55	-54.1	-56.2	6.2	0.00e+00	0	46	104	24427626496	79	18799
2026-01-18 09:54:26.90	233.14	42.15	-54.1	-56.2	6.2	0.00e+00	0	46	104	24427626496	79	18738
2026-01-18 09:54:27.91	232.81	41.75	-54.1	-56.2	6.2	0.00e+00	0	47	104	24427626496	79	18796
2026-01-18 09:54:28.92	232.47	41.36	-54.1	-56.2	6.2	0.00e+00	0	47	104	24427626496	79	18696
2026-01-18 09:54:29.92	232.16	40.98	-54.1	-56.2	6.2	0.00e+00	0	47	104	24427626496	79	18763
2026-01-18 09:54:30.93	231.84	40.60	-54.1	-56.2	6.2	0.00e+00	0	47	104	24427626496	79	18726
2026-01-18 09:54:31.94	231.53	40.22	-54.1	-56.2	6.2	0.00e+00	0	47	104	24427626496	79	18710
2026-01-18 09:54:32.95	231.24	39.84	-54.1	-56.2	6.2	0.00e+00	0	47	104	24427626496	79	18660
2026-01-18 09:54:33.96	230.94	39.47	-54.1	-56.2	6.2	0.00e+00	0	47	104	24427626496	79	18693
2026-01-18 09:54:34.97	230.66	39.10	-54.1	-56.2	6.2	0.00e+00	0	47	104	24427626496	79	18701
2026-01-18 09:54:35.98	230.38	38.73	-54.1	-56.2	6.2	0.00e+00	0	47	104	24427626496	79	18644
2026-01-18 09:54:36.98	230.11	38.38	-54.0	-56.2	6.2	0.00e+00	0	47	104	24427626496	79	18604
2026-01-18 09:54:37.99	229.85	38.02	-54.0	-56.1	6.2	0.00e+00	0	47	104	24427626496	79	18601
2026-01-18 09:54:39.00	229.59	37.66	-54.0	-56.2	6.2	0.00e+00	0	47	104	24427626496	79	18636
2026-01-18 09:54:40.00	229.33	37.32	-54.0	-56.2	6.2	0.00e+00	0	47	104	24427626496	79	18679
2026-01-18 09:54:41.01	229.09	36.97	-54.0	-56.1	6.2	0.00e+00	0	46	104	24427626496	79	18589
2026-01-18 09:54:42.02	228.84	36.63	-54.0	-56.1	6.2	0.00e+00	0	47	104	24427626496	79	18523
2026-01-18 09:54:43.03	228.61	36.29	-54.0	-56.2	6.2	0.00e+00	0	47	104	24427626496	79	18652
2026-01-18 09:54:44.04	228.38	35.95	-54.0	-56.2	6.2	0.00e+00	0	47	104	24427626496	79	18624
2026-01-18 09:54:45.05	228.15	35.62	-54.0	-56.2	6.2	0.00e+00	0	46	104	24427626496	79	18615
2026-01-18 09:54:46.06	227.93	35.29	-54.0	-56.1	6.2	0.00e+00	0	47	104	24427626496	79	18566
2026-01-18 09:54:47.07	227.71	34.96	-54.0	-56.1	6.2	0.00e+00	0	46	104	24427626496	79	18540
2026-01-18 09:54:48.07	227.50	34.64	-54.0	-56.1	6.2	0.00e+00	0	47	104	24427626496	79	18538
2026-01-18 09:54:49.08	227.29	34.32	-54.0	-56.1	6.2	0.00e+00	0	46	104	24427626496	79	18580
2026-01-18 09:54:50.09	227.09	34.01	-54.0	-56.1	6.2	0.00e+00	0	47	104	24427626496	79	18521
2026-01-18 09:54:51.10	226.89	33.70	-54.0	-56.1	6.2	0.00e+00	0	46	104	24427626496	79	18503
2026-01-18 09:54:52.11	226.69	33.39	-54.0	-56.1	6.2	0.00e+00	0	46	104	24427626496	79	18521
2026-01-18 09:54:53.11	226.50	33.08	-54.0	-56.1	6.2	0.00e+00	0	46	104	24427626496	79	18492
2026-01-18 09:54:54.12	226.31	32.78	-54.0	-56.1	6.2	0.00e+00	0	46	104	24427626496	79	18450
2026-01-18 09:54:55.13	226.13	32.48	-54.0	-56.1	6.2	0.00e+00	0	46	104	24427626496	79	18464
2026-01-18 09:54:56.14	225.95	32.19	-53.9	-56.1	6.2	0.00e+00	0	46	104	24427626496	79	18477
2026-01-18 09:54:57.15	225.77	31.89	-53.9	-56.1	6.2	0.00e+00	0	47	104	24427626496	79	18462
2026-01-18 09:54:58.15	225.60	31.60	-53.9	-56.1	6.2	0.00e+00	0	46	104	24427626496	79	18420
2026-01-18 09:54:59.16	225.43	31.32	-53.9	-56.1	6.2	0.00e+00	0	46	104	24427626496	79	18468
2026-01-18 09:55:00.17	225.26	31.03	-53.9	-56.0	6.2	0.00e+00	0	47	104	24427626496	79	18366
2026-01-18 09:55:01.18	225.10	30.75	-53.9	-56.1	6.2	0.00e+00	0	46	104	24427626496	79	18441
2026-01-18 09:55:02.19	224.94	30.47	-53.9	-56.0	6.2	0.00e+00	0	46	104	24427626496	79	18362
2026-01-18 09:55:03.19	224.78	30.20	-53.9	-56.0	6.2	0.00e+00	0	46	104	24427626496	79	18367
2026-01-18 09:55:04.20	224.63	29.93	-53.9	-56.0	6.2	0.00e+00	0	46	104	24427626496	79	18376
2026-01-18 09:55:05.21	224.48	29.66	-53.9	-56.0	6.2	0.00e+00	0	47	104	24427626496	79	18371
2026-01-18 09:55:06.22	224.33	29.39	-53.9	-56.0	6.2	0.00e+00	0	47	104	24427626496	79	18346
2026-01-18 09:55:07.23	224.18	29.13	-53.9	-56.0	6.2	0.00e+00	0	46	104	24427626496	79	18336
2026-01-18 09:55:08.23	224.04	28.87	-53.9	-56.0	6.2	0.00e+00	0	47	104	24427626496	79	18314
2026-01-18 09:55:09.24	223.90	28.61	-53.9	-56.0	6.2	0.00e+00	0	47	104	24427626496	79	18296
2026-01-18 09:55:10.25	223.76	28.35	-53.9	-56.0	6.2	0.00e+00	0	46	104	24427626496	79	18260
2026-01-18 09:55:11.26	223.62	28.10	-53.9	-56.0	6.2	0.00e+00	0	47	104	24427626496	79	18288
2026-01-18 09:55:12.27	223.49	27.85	-53.9	-56.0	6.2	0.00e+00	0	46	104	24427626496	79	18264
2026-01-18 09:55:13.28	223.36	27.60	-53.9	-56.0	6.2	0.00e+00	0	46	104	24427626496	79	18274
2026-01-18 09:55:14.29	223.23	27.35	-53.9	-56.0	6.2	0.00e+00	0	46	104	24427626496	79	18235
2026-01-18 09:55:15.30	223.10	27.11	-53.8	-55.9	6.2	0.00e+00	0	46	104	24427626496	79	18136
2026-01-18 09:55:16.31	222.98	26.87	-53.8	-55.9	6.2	0.00e+00	0	46	104	24427626496	79	18134
2026-01-18 09:55:17.31	222.86	26.63	-53.8	-56.0	6.2	0.00e+00	0	46	104	24427626496	79	18270
2026-01-18 09:55:18.32	222.73	26.39	-53.8	-55.9	6.2	0.00e+00	0	47	104	24427626496	79	18174
2026-01-18 09:55:19.33	222.62	26.16	-53.8	-55.9	6.2	0.00e+00	0	46	104	24427626496	79	18021
2026-01-18 09:55:20.34	222.50	25.93	-53.8	-55.9	6.2	0.00e+00	0	46	104	24427626496	79	18003
2026-01-18 09:55:21.35	222.38	25.70	-53.8	-55.9	6.2	0.00e+00	0	46	104	24427626496	79	18106
2026-01-18 09:55:22.35	222.27	25.47	-53.8	-55.9	6.2	0.00e+00	0	47	104	24427626496	79	18071
2026-01-18 09:55:23.36	222.16	25.25	-53.7	-55.9	6.2	0.00e+00	0	46	104	24427626496	79	18005
2026-01-18 09:55:24.37	222.05	25.03	-53.7	-55.8	6.2	0.00e+00	0	46	104	24427626496	79	17909
2026-01-18 09:55:25.38	221.94	24.81	-53.8	-55.9	6.2	0.00e+00	0	46	104	24427626496	79	18101
2026-01-18 09:55:26.39	221.84	24.59	-53.7	-55.9	6.2	0.00e+00	0	46	104	24427626496	79	18067
2026-01-18 09:55:27.39	221.73	24.37	-53.8	-55.9	6.2	0.00e+00	0	46	104	24427626496	79	18052
2026-01-18 09:55:28.40	221.63	24.16	-53.7	-55.9	6.2	0.00e+00	0	47	104	24427626496	79	18003
2026-01-18 09:55:29.41	221.53	23.95	-53.7	-55.9	6.2	0.00e+00	0	46	104	24427626496	79	18007
2026-01-18 09:55:30.42	221.43	23.74	-53.7	-55.8	6.2	0.00e+00	0	46	104	24427626496	79	17899
2026-01-18 09:55:31.43	221.33	23.53	-53.8	-55.9	6.2	0.00e+00	0	46	104	24427626496	79	18033
2026-01-18 09:55:32.43	221.24	23.32	-53.7	-55.9	6.2	0.00e+00	0	47	104	24427626496	79	18007
2026-01-18 09:55:33.44	221.14	23.12	-53.7	-55.8	6.2	0.00e+00	0	46	104	24427626496	79	17904
2026-01-18 09:55:34.45	221.05	22.91	-53.7	-55.9	6.2	0.00e+00	0	46	104	24427626496	79	17978
2026-01-18 09:55:35.46	220.96	22.71	-53.7	-55.9	6.2	0.00e+00	0	46	104	24427626496	79	18011
2026-01-18 09:55:36.47	220.86	22.52	-53.7	-55.9	6.2	0.00e+00	0	46	104	24427626496	79	18005
2026-01-18 09:55:37.48	220.77	22.32	-53.7	-55.8	6.2	0.00e+00	0	46	104	24427626496	79	17877
2026-01-18 09:55:38.48	220.69	22.12	-53.7	-55.9	6.2	0.00e+00	0	46	104	24427626496	79	18002
2026-01-18 09:55:39.49	220.60	21.93	-53.7	-55.8	6.2	0.00e+00	0	46	104	24427626496	79	17962
2026-01-18 09:55:40.50	220.51	21.74	-53.7	-55.8	6.2	0.00e+00	0	46	104	24427626496	79	17936
2026-01-18 09:55:41.50	220.43	21.55	-53.7	-55.8	6.2	0.00e+00	0	46	104	24427626496	79	17866
2026-01-18 09:55:42.51	220.35	21.36	-53.7	-55.8	6.2	0.00e+00	0	46	104	24427626496	79	17908
2026-01-18 09:55:43.52	220.26	21.17	-53.7	-55.8	6.2	0.00e+00	0	46	104	24427626496	79	17893
2026-01-18 09:55:44.53	220.18	20.99	-53.7	-55.8	6.2	0.00e+00	0	46	104	24427626496	79	17871
2026-01-18 09:55:45.53	220.10	20.81	-53.6	-55.8	6.2	0.00e+00	0	46	104	24427626496	79	17814
2026-01-18 09:55:46.54	220.03	20.63	-53.7	-55.8	6.2	0.00e+00	0	46	104	24427626496	79	17853
2026-01-18 09:55:47.55	219.95	20.45	-53.7	-55.8	6.2	0.00e+00	0	46	104	24427626496	79	17850
2026-01-18 09:55:48.56	219.87	20.27	-53.7	-55.8	6.2	0.00e+00	0	46	104	24427626496	79	17870
2026-01-18 09:55:49.57	219.80	20.09	-53.6	-55.8	6.2	0.00e+00	0	46	104	24427626496	79	17813
2026-01-18 09:55:50.57	219.72	19.92	-53.6	-55.8	6.2	0.00e+00	0	46	104	24427626496	79	17812
2026-01-18 09:55:51.58	219.65	19.74	-53.6	-55.8	6.2	0.00e+00	0	46	104	24427626496	79	17816
2026-01-18 09:55:52.59	219.58	19.57	-53.6	-55.8	6.2	0.00e+00	0	46	104	24427626496	79	17803
2026-01-18 09:55:53.60	219.50	19.40	-53.6	-55.8	6.2	0.00e+00	0	46	104	24427626496	79	17793
2026-01-18 09:55:54.61	219.43	19.23	-53.6	-55.8	6.2	0.00e+00	0	46	104	24427626496	79	17787
2026-01-18 09:55:55.61	219.36	19.06	-53.6	-55.7	6.2	0.00e+00	0	46	104	24427626496	79	17748
2026-01-18 09:55:56.62	219.29	18.89	-53.6	-55.7	6.2	0.00e+00	0	46	104	24427626496	79	17672
2026-01-18 09:55:57.63	219.23	18.73	-53.6	-55.8	6.2	0.00e+00	0	46	104	24427626496	79	17776
2026-01-18 09:55:58.64	219.16	18.56	-53.6	-55.7	6.2	0.00e+00	0	46	104	24427626496	79	17729
2026-01-18 09:55:59.65	219.09	18.40	-53.6	-55.7	6.2	0.00e+00	0	46	104	24427626496	79	17724
2026-01-18 09:56:00.65	219.03	18.24	-53.6	-55.7	6.2	0.00e+00	0	46	104	24427626496	79	17715
2026-01-18 09:56:01.66	218.96	18.08	-53.6	-55.8	6.2	0.00e+00	0	46	104	24427626496	79	17770
2026-01-18 09:56:02.67	218.90	17.92	-53.6	-55.7	6.2	0.00e+00	0	46	104	24427626496	79	17682
2026-01-18 09:56:03.68	218.84	17.76	-53.6	-55.7	6.2	0.00e+00	0	46	104	24427626496	79	17679
2026-01-18 09:56:04.68	218.78	17.61	-53.6	-55.7	6.2	0.00e+00	0	46	104	24427626496	79	17692
2026-01-18 09:56:05.69	218.71	17.45	-53.6	-55.7	6.2	0.00e+00	0	46	104	24427626496	79	17685
2026-01-18 09:56:06.70	218.65	17.30	-53.6	-55.7	6.2	0.00e+00	0	46	104	24427626496	79	17648
2026-01-18 09:56:07.71	218.59	17.14	-53.6	-55.7	6.2	0.00e+00	0	46	104	24427626496	79	17603
2026-01-18 09:56:08.72	218.54	16.99	-53.6	-55.7	6.2	0.00e+00	0	46	104	24427626496	79	17687
2026-01-18 09:56:09.73	218.48	16.84	-53.6	-55.7	6.2	0.00e+00	0	46	104	24427626496	79	17613
2026-01-18 09:56:10.73	218.42	16.69	-53.5	-55.7	6.2	0.00e+00	0	46	104	24427626496	79	17579
2026-01-18 09:56:11.74	218.36	16.54	-53.5	-55.7	6.2	0.00e+00	0	46	104	24427626496	79	17593
2026-01-18 09:56:12.75	218.31	16.40	-53.6	-55.7	6.2	0.00e+00	0	46	104	24427626496	79	17654
2026-01-18 09:56:13.75	218.25	16.25	-53.5	-55.7	6.2	0.00e+00	0	46	104	24427626496	79	17575
2026-01-18 09:56:14.76	218.20	16.11	-53.5	-55.7	6.2	0.00e+00	0	46	104	24427626496	79	17581
2026-01-18 09:56:15.77	218.14	15.96	-53.5	-55.6	6.2	0.00e+00	0	46	104	24427626496	79	17540
2026-01-18 09:56:16.78	218.09	15.82	-53.5	-55.7	6.2	0.00e+00	0	46	104	24427626496	79	17615
2026-01-18 09:56:17.79	218.04	15.68	-53.5	-55.6	6.2	0.00e+00	0	46	104	24427626496	79	17558
2026-01-18 09:56:18.79	217.98	15.54	-53.5	-55.6	6.2	0.00e+00	0	46	104	24427626496	79	17539
2026-01-18 09:56:19.80	217.93	15.40	-53.5	-55.6	6.2	0.00e+00	0	46	104	24427626496	79	17452
2026-01-18 09:56:20.81	217.88	15.26	-53.5	-55.6	6.2	0.00e+00	0	46	104	24427626496	78	18571
2026-01-18 09:56:21.82	217.83	15.12	-53.5	-55.6	6.2	0.00e+00	0	46	104	24427626496	78	18520
2026-01-18 09:56:22.82	217.78	14.98	-53.5	-55.6	6.2	0.00e+00	0	46	104	24427626496	78	18515
2026-01-18 09:56:23.83	217.73	14.85	-53.5	-55.6	6.2	0.00e+00	0	46	104	24427626496	78	18473
2026-01-18 09:56:24.84	217.68	14.71	-53.5	-55.6	6.2	0.00e+00	0	46	104	24427626496	78	18473
2026-01-18 09:56:25.85	217.63	14.58	-53.5	-55.6	6.2	0.00e+00	0	46	104	24427626496	78	18528
2026-01-18 09:56:26.86	217.59	14.45	-53.4	-55.6	6.2	0.00e+00	0	46	104	24427626496	78	18438
2026-01-18 09:56:27.87	217.54	14.31	-53.4	-55.6	6.2	0.00e+00	0	46	104	24427626496	78	18390
2026-01-18 09:56:28.88	217.49	14.18	-53.4	-55.6	6.2	0.00e+00	0	46	104	24427626496	78	18426
2026-01-18 09:56:29.88	217.45	14.05	-53.4	-55.6	6.2	0.00e+00	0	46	104	24427626496	78	18409
2026-01-18 09:56:30.89	217.40	13.92	-53.4	-55.5	6.2	0.00e+00	0	46	104	24427626496	78	18306
2026-01-18 09:56:31.89	217.36	13.80	-53.4	-55.5	6.2	0.00e+00	0	46	104	24427626496	78	18366
2026-01-18 09:56:32.90	217.31	13.67	-53.4	-55.6	6.2	0.00e+00	0	46	104	24427626496	78	18473
2026-01-18 09:56:33.91	217.27	13.54	-53.4	-55.6	6.2	0.00e+00	0	46	104	24427626496	78	18391
2026-01-18 09:56:34.92	217.22	13.41	-53.4	-55.5	6.2	0.00e+00	0	47	104	24427626496	78	18265
2026-01-18 09:56:35.93	217.18	13.29	-53.4	-55.5	6.2	0.00e+00	0	46	104	24427626496	78	18284
2026-01-18 09:56:36.94	217.14	13.16	-53.4	-55.5	6.2	0.00e+00	0	46	104	24427626496	78	18371
2026-01-18 09:56:37.94	217.10	13.04	-53.4	-55.5	6.2	0.00e+00	0	46	104	24427626496	78	18364
2026-01-18 09:56:38.95	217.05	12.92	-53.4	-55.5	6.2	0.00e+00	0	46	104	24427626496	78	18262
2026-01-18 09:56:39.96	217.01	12.80	-53.4	-55.5	6.2	0.00e+00	0	46	104	24427626496	78	18252
2026-01-18 09:56:40.97	216.97	12.67	-53.4	-55.5	6.2	0.00e+00	0	46	104	24427626496	78	18282
2026-01-18 09:56:41.97	216.93	12.56	-53.4	-55.5	6.2	0.00e+00	0	46	104	24427626496	78	18262
2026-01-18 09:56:42.98	216.89	12.44	-53.3	-55.5	6.2	0.00e+00	0	46	104	24427626496	78	18181
2026-01-18 09:56:43.99	216.85	12.32	-53.3	-55.4	6.2	0.00e+00	0	46	104	24427626496	78	18145
2026-01-18 09:56:44.99	216.81	12.20	-53.4	-55.5	6.2	0.00e+00	0	46	104	24427626496	78	18288
2026-01-18 09:56:46.00	216.77	12.08	-53.3	-55.5	6.2	0.00e+00	0	46	104	24427626496	78	18278
2026-01-18 09:56:47.01	216.73	11.96	-53.3	-55.4	6.2	0.00e+00	0	46	104	24427626496	78	18097
2026-01-18 09:56:48.02	216.70	11.85	-53.3	-55.4	6.2	0.00e+00	0	46	104	24427626496	78	18069
2026-01-18 09:56:49.03	216.66	11.73	-53.3	-55.5	6.2	0.00e+00	0	46	104	24427626496	78	18204
2026-01-18 09:56:50.03	216.62	11.62	-53.3	-55.4	6.2	0.00e+00	0	46	104	24427626496	78	18161
2026-01-18 09:56:51.04	216.59	11.51	-53.3	-55.4	6.2	0.00e+00	0	46	104	24427626496	78	18089
2026-01-18 09:56:52.05	216.55	11.39	-53.3	-55.4	6.2	0.00e+00	0	46	104	24427626496	78	18088
2026-01-18 09:56:53.06	216.51	11.28	-53.3	-55.4	6.2	0.00e+00	0	46	104	24427626496	78	18132
2026-01-18 09:56:54.07	216.48	11.17	-53.3	-55.4	6.2	0.00e+00	0	46	104	24427626496	78	18140
2026-01-18 09:56:55.07	216.44	11.06	-53.2	-55.4	6.2	0.00e+00	0	46	104	24427626496	78	17998
2026-01-18 09:56:56.08	216.41	10.95	-53.2	-55.4	6.2	0.00e+00	0	46	104	24427626496	78	18030
2026-01-18 09:56:57.09	216.37	10.84	-53.3	-55.4	6.2	0.00e+00	0	46	104	24427626496	78	18093
2026-01-18 09:56:58.10	216.34	10.73	-53.3	-55.4	6.2	0.00e+00	0	46	104	24427626496	78	18075
2026-01-18 09:56:59.11	216.30	10.62	-53.2	-55.4	6.2	0.00e+00	0	46	104	24427626496	78	18001
2026-01-18 09:57:00.11	216.27	10.51	-53.2	-55.3	6.2	0.00e+00	0	46	104	24427626496	78	17909
2026-01-18 09:57:01.12	216.24	10.40	-53.3	-55.4	6.2	0.00e+00	0	46	104	24427626496	78	18088
2026-01-18 09:57:02.13	216.20	10.30	-53.3	-55.4	6.2	0.00e+00	0	46	104	24427626496	78	17982
2026-01-18 09:57:03.14	216.17	10.19	-53.2	-55.3	6.2	0.00e+00	0	46	104	24427626496	78	17865
2026-01-18 09:57:04.15	216.14	10.08	-53.2	-55.3	6.2	0.00e+00	0	46	104	24427626496	78	17795
2026-01-18 09:57:05.15	216.11	9.98	-53.2	-55.4	6.2	0.00e+00	0	46	104	24427626496	78	18001
2026-01-18 09:57:06.16	216.07	9.87	-53.2	-55.4	6.2	0.00e+00	0	46	104	24427626496	78	18012
2026-01-18 09:57:07.17	216.04	9.77	-53.2	-55.3	6.2	0.00e+00	0	46	104	24427626496	78	17776
2026-01-18 09:57:08.18	216.01	9.67	-53.2	-55.3	6.2	0.00e+00	0	46	104	24427626496	78	17795
2026-01-18 09:57:09.19	215.98	9.56	-53.2	-55.3	6.2	0.00e+00	0	46	104	24427626496	78	17916
2026-01-18 09:57:10.20	215.95	9.46	-53.2	-55.3	6.2	0.00e+00	0	46	104	24427626496	78	17871
2026-01-18 09:57:11.21	215.92	9.36	-53.1	-55.2	6.2	0.00e+00	0	46	104	24427626496	78	17759
2026-01-18 09:57:12.21	215.89	9.26	-53.1	-55.2	6.2	0.00e+00	0	46	104	24427626496	78	17741
2026-01-18 09:57:13.22	215.86	9.16	-53.2	-55.3	6.2	0.00e+00	0	46	104	24427626496	78	17862
2026-01-18 09:57:14.23	215.83	9.06	-53.1	-55.2	6.2	0.00e+00	0	46	104	24427626496	78	17753
2026-01-18 09:57:15.24	215.80	8.96	-53.1	-55.2	6.2	0.00e+00	0	46	104	24427626496	78	17711
2026-01-18 09:57:16.25	215.77	8.86	-53.1	-55.2	6.2	0.00e+00	0	46	104	24427626496	78	17730
2026-01-18 09:57:17.26	215.74	8.76	-53.1	-55.3	6.2	0.00e+00	0	46	104	24427626496	78	17814
2026-01-18 09:57:18.27	215.72	8.66	-53.1	-55.2	6.2	0.00e+00	0	46	104	24427626496	78	17748
2026-01-18 09:57:19.27	215.69	8.57	-53.1	-55.2	6.2	0.00e+00	0	46	104	24427626496	78	17638
2026-01-18 09:57:20.28	215.66	8.47	-53.1	-55.2	6.2	0.00e+00	0	46	104	24427626496	78	17659
2026-01-18 09:57:21.29	215.63	8.37	-53.1	-55.2	6.2	0.00e+00	0	46	104	24427626496	78	17742
2026-01-18 09:57:22.30	215.60	8.28	-53.1	-55.2	6.2	0.00e+00	0	46	104	24427626496	78	17608
2026-01-18 09:57:23.31	215.58	8.18	-53.0	-55.1	6.2	0.00e+00	0	46	104	24427626496	78	17526
2026-01-18 09:57:24.31	215.55	8.09	-53.0	-55.2	6.2	0.00e+00	0	46	104	24427626496	78	17588
2026-01-18 09:57:25.32	215.52	7.99	-53.1	-55.2	6.2	0.00e+00	0	46	104	24427626496	78	17677
2026-01-18 09:57:26.33	215.50	7.90	-53.0	-55.1	6.2	0.00e+00	0	46	104	24427626496	78	17561
2026-01-18 09:57:27.34	215.47	7.80	-53.0	-55.1	6.2	0.00e+00	0	46	104	24427626496	78	17517
2026-01-18 09:57:28.35	215.45	7.71	-53.0	-55.1	6.2	0.00e+00	0	46	104	24427626496	77	18462
2026-01-18 09:57:29.35	215.42	7.62	-53.0	-55.1	6.2	0.00e+00	0	46	104	24427626496	77	18576
2026-01-18 09:57:30.36	215.40	7.52	-53.0	-55.1	6.2	0.00e+00	0	47	104	24427626496	77	18466
2026-01-18 09:57:31.37	215.37	7.43	-52.9	-55.1	6.2	0.00e+00	0	46	104	24427626496	77	18400
2026-01-18 09:57:32.38	215.34	7.34	-52.9	-55.1	6.2	0.00e+00	0	46	104	24427626496	77	18409
2026-01-18 09:57:33.39	215.32	7.25	-53.0	-55.1	6.2	0.00e+00	0	46	104	24427626496	77	18469
2026-01-18 09:57:34.39	215.30	7.16	-52.9	-55.1	6.2	0.00e+00	0	46	104	24427626496	77	18419
2026-01-18 09:57:35.40	215.27	7.07	-52.9	-55.0	6.2	0.00e+00	0	46	104	24427626496	77	18302
2026-01-18 09:57:36.41	215.25	6.98	-52.9	-55.0	6.2	0.00e+00	0	46	104	24427626496	77	18281
2026-01-18 09:57:37.42	215.22	6.89	-52.9	-55.1	6.2	0.00e+00	0	46	104	24427626496	77	18394
2026-01-18 09:57:38.43	215.20	6.80	-52.9	-55.0	6.2	0.00e+00	0	46	104	24427626496	77	18237
2026-01-18 09:57:39.43	215.18	6.71	-52.8	-55.0	6.2	0.00e+00	0	46	104	24427626496	77	18208
2026-01-18 09:57:40.44	215.15	6.62	-52.8	-55.0	6.2	0.00e+00	0	46	104	24427626496	77	18251
2026-01-18 09:57:41.45	215.13	6.54	-52.9	-55.0	6.2	0.00e+00	0	46	104	24427626496	77	18248
2026-01-18 09:57:42.46	215.11	6.45	-52.8	-54.9	6.2	0.00e+00	0	46	104	24427626496	77	18168
2026-01-18 09:57:43.47	215.08	6.36	-52.8	-54.9	6.2	0.00e+00	0	46	104	24427626496	77	18076
2026-01-18 09:57:44.47	215.06	6.27	-52.8	-54.9	6.2	0.00e+00	0	46	104	24427626496	77	18166
2026-01-18 09:57:45.48	215.04	6.19	-52.8	-54.9	6.2	0.00e+00	0	46	104	24427626496	77	18160
2026-01-18 09:57:46.49	215.02	6.10	-52.8	-54.9	6.2	0.00e+00	0	46	104	24427626496	77	18019
2026-01-18 09:57:47.50	215.00	6.02	-52.7	-54.8	6.2	0.00e+00	0	46	104	24427626496	77	17952
2026-01-18 09:57:48.51	214.97	5.93	-52.8	-54.9	6.2	0.00e+00	0	46	104	24427626496	77	18035
2026-01-18 09:57:49.51	214.95	5.85	-52.8	-54.9	6.2	0.00e+00	0	46	104	24427626496	77	18051
2026-01-18 09:57:50.52	214.93	5.76	-52.7	-54.9	6.2	0.00e+00	0	46	104	24427626496	77	17994
2026-01-18 09:57:51.53	214.91	5.68	-52.7	-54.8	6.2	0.00e+00	0	46	104	24427626496	77	17887
2026-01-18 09:57:52.54	214.89	5.59	-52.7	-54.8	6.2	0.00e+00	0	46	104	24427626496	77	17951
2026-01-18 09:57:53.55	214.87	5.51	-52.7	-54.9	6.2	0.00e+00	0	46	104	24427626496	77	17994
2026-01-18 09:57:54.55	214.85	5.43	-52.7	-54.8	6.2	0.00e+00	0	46	104	24427626496	77	17869
2026-01-18 09:57:55.56	214.83	5.35	-52.6	-54.7	6.2	0.00e+00	0	46	104	24427626496	77	17682
2026-01-18 09:57:56.57	214.81	5.26	-52.7	-54.8	6.2	0.00e+00	0	46	104	24427626496	77	17858
2026-01-18 09:57:57.58	214.79	5.18	-52.7	-54.8	6.2	0.00e+00	0	46	104	24427626496	77	17903
2026-01-18 09:57:58.59	214.77	5.10	-52.6	-54.7	6.2	0.00e+00	0	46	104	24427626496	77	17726
2026-01-18 09:57:59.59	214.75	5.02	-52.6	-54.8	6.2	0.00e+00	0	46	104	24427626496	77	17799
2026-01-18 09:58:00.60	214.73	4.94	-53.1	-55.2	6.2	0.00e+00	0	46	104	24427626496	77	18775
2026-01-18 09:58:01.61	214.71	4.86	-53.4	-55.5	6.2	0.00e+00	0	46	104	24427626496	77	19391
2026-01-18 09:58:02.62	214.69	4.78	-53.6	-55.7	6.2	0.00e+00	0	46	104	24427626496	77	19817
2026-01-18 09:58:03.63	214.67	4.70	-53.7	-55.9	6.2	0.00e+00	0	46	104	24427626496	77	20185
2026-01-18 09:58:04.63	214.65	4.62	-53.8	-55.9	6.2	0.00e+00	0	46	104	24427626496	78	19187
2026-01-18 09:58:05.64	214.63	4.54	-53.9	-56.0	6.2	0.00e+00	0	46	104	24427626496	78	19389
2026-01-18 09:58:06.65	214.61	4.46	-54.0	-56.1	6.2	0.00e+00	0	46	104	24427626496	78	19579
2026-01-18 09:58:07.65	214.59	4.38	-54.0	-56.2	6.2	0.00e+00	0	46	104	24427626496	78	19721
2026-01-18 09:58:08.66	214.57	4.30	-54.1	-56.2	6.2	0.00e+00	0	46	104	24427626496	78	19803
2026-01-18 09:58:09.67	214.56	4.22	-54.1	-56.2	6.2	0.00e+00	0	46	104	24427626496	78	19915
2026-01-18 09:58:10.68	214.54	4.14	-54.1	-56.3	6.2	0.00e+00	0	46	104	24427626496	78	19957
2026-01-18 09:58:11.69	214.52	4.07	-54.2	-56.3	6.2	0.00e+00	0	46	104	24427626496	78	20034
2026-01-18 09:58:12.69	214.50	3.99	-54.2	-56.3	6.2	0.00e+00	0	46	104	24427626496	78	20094
2026-01-18 09:58:13.70	214.48	3.91	-54.2	-56.4	6.2	0.00e+00	0	46	104	24427626496	79	19045
2026-01-18 09:58:14.71	214.47	3.84	-54.3	-56.4	6.2	0.00e+00	0	46	104	24427626496	79	19174
2026-01-18 09:58:15.72	214.45	3.76	-54.3	-56.4	6.2	0.00e+00	0	46	104	24427626496	79	19221
2026-01-18 09:58:16.73	214.43	3.68	-54.3	-56.4	6.2	0.00e+00	0	46	104	24427626496	79	19191
2026-01-18 09:58:17.73	214.42	3.61	-54.3	-56.5	6.2	0.00e+00	0	46	104	24427626496	79	19329
2026-01-18 09:58:18.74	214.40	3.53	-54.3	-56.5	6.2	0.00e+00	0	46	104	24427626496	79	19262
2026-01-18 09:58:19.75	214.38	3.46	-54.4	-56.5	6.2	0.00e+00	0	46	104	24427626496	79	19327
2026-01-18 09:58:20.76	214.36	3.38	-54.4	-56.5	6.2	0.00e+00	0	46	104	24427626496	79	19371
2026-01-18 09:58:21.77	214.35	3.30	-54.4	-56.5	6.2	0.00e+00	0	46	104	24427626496	79	19384
2026-01-18 09:58:22.77	214.33	3.23	-54.4	-56.5	6.2	0.00e+00	0	46	104	24427626496	79	19348
2026-01-18 09:58:23.78	214.31	3.16	-54.3	-56.5	6.2	0.00e+00	0	46	104	24427626496	79	19264
2026-01-18 09:58:24.79	214.30	3.08	-54.3	-56.5	6.2	0.00e+00	0	46	104	24427626496	79	19324
2026-01-18 09:58:25.80	214.28	3.01	-54.3	-56.5	6.2	0.00e+00	0	46	104	24427626496	79	19278
2026-01-18 09:58:26.81	214.27	2.93	-54.3	-56.5	6.2	0.00e+00	0	46	104	24427626496	79	19303
2026-01-18 09:58:27.81	214.25	2.86	-54.3	-56.4	6.2	0.00e+00	0	46	104	24427626496	79	19255
2026-01-18 09:58:28.82	214.23	2.79	-54.3	-56.4	6.2	0.00e+00	0	46	104	24427626496	79	19256
2026-01-18 09:58:29.83	214.22	2.72	-54.3	-56.4	6.2	0.00e+00	0	46	104	24427626496	79	19217
2026-01-18 09:58:30.84	214.20	2.64	-54.3	-56.4	6.2	0.00e+00	0	46	104	24427626496	79	19228
2026-01-18 09:58:31.85	214.19	2.57	-54.3	-56.4	6.2	0.00e+00	0	46	104	24427626496	79	19219
2026-01-18 09:58:32.85	214.17	2.50	-54.3	-56.4	6.2	0.00e+00	0	46	104	24427626496	79	19203
2026-01-18 09:58:33.86	214.16	2.43	-54.3	-56.4	6.2	0.00e+00	0	46	104	24427626496	79	19170
2026-01-18 09:58:34.87	214.14	2.36	-54.3	-56.4	6.2	0.00e+00	0	46	104	24427626496	79	19102
2026-01-18 09:58:35.87	214.13	2.28	-54.3	-56.4	6.2	0.00e+00	0	46	104	24427626496	79	19173
2026-01-18 09:58:36.88	214.11	2.21	-54.3	-56.4	6.2	0.00e+00	0	46	104	24427626496	79	19139
2026-01-18 09:58:37.89	214.10	2.14	-54.3	-56.4	6.2	0.00e+00	0	46	104	24427626496	79	19161
2026-01-18 09:58:38.90	214.08	2.07	-54.3	-56.4	6.2	0.00e+00	0	46	104	24427626496	79	19204
2026-01-18 09:58:39.91	214.07	2.00	-54.3	-56.4	6.2	0.00e+00	0	46	104	24427626496	79	19071
2026-01-18 09:58:40.91	214.05	1.93	-54.3	-56.4	6.2	0.00e+00	0	46	104	24427626496	79	19131
2026-01-18 09:58:41.92	214.04	1.86	-54.2	-56.4	6.2	0.00e+00	0	46	104	24427626496	79	19096

#Closed at: 2026-01-18 09:58:42
#Recorded file [24427 MB]: D:/lorett/data/31041_260118_124804.dat