passes_logs/2026/01/18/R3.2S_Murmansk/R3.2S_Murmansk__20260118_033522_SUOMI_NPP_rec.log

#Pass ID: 20260118_033522_SUOMI NPP
#Satellite: SUOMI NPP
#Configuration: NPP
#almurnet v.1.7.20251203
#Start time: 2026-01-18 03:35:22

#Version: 2.2.20231116
#Station: R3.2S_Murmansk
#Location: 33.079688 lon 68.888172 lat
#TLE: 1 37849U 11061A   26017.57099531  .00000072  00000+0  54974-4 0  9996
#TLE: 2 37849  98.7814 319.5974 0002398  59.1749 300.9663 14.19525865737072

#Time	Az	El	Level	Level2	SNR	BER	BlckErr	Temp	State	Recorded	gain1	gain2
2026-01-18 03:35:22.90	42.18	2.00	-51.8	-66.7	3.8	1.49e+00	0	33	0	0	75	19721
2026-01-18 03:35:23.92	42.12	2.06	-51.7	-66.7	3.8	1.49e+00	0	33	104	0	74	20946
2026-01-18 03:35:24.92	42.07	2.12	-51.7	-66.7	3.8	1.49e+00	0	33	104	0	74	20907
2026-01-18 03:35:25.93	42.01	2.18	-51.7	-66.7	3.8	1.49e+00	0	34	104	0	74	20904
2026-01-18 03:35:26.94	41.96	2.24	-51.7	-66.7	3.8	1.49e+00	0	34	104	0	74	20905
2026-01-18 03:35:27.95	41.90	2.30	-51.7	-66.7	3.8	1.49e+00	0	34	104	0	74	20842
2026-01-18 03:35:28.96	41.85	2.36	-51.7	-66.7	3.8	1.49e+00	0	34	104	0	74	20877
2026-01-18 03:35:29.96	41.79	2.42	-51.7	-66.7	3.8	1.49e+00	0	34	104	0	74	20843
2026-01-18 03:35:30.97	41.74	2.48	-51.7	-66.7	3.8	1.49e+00	0	33	104	0	74	20829
2026-01-18 03:35:31.98	41.68	2.54	-51.7	-66.7	3.8	1.49e+00	0	33	104	0	74	20801
2026-01-18 03:35:32.99	41.62	2.60	-51.7	-66.7	3.8	1.49e+00	0	34	104	0	74	20822
2026-01-18 03:35:34.00	41.57	2.66	-51.7	-66.6	3.8	1.49e+00	0	34	104	0	74	20776
2026-01-18 03:35:35.00	41.51	2.72	-51.7	-66.6	3.8	1.49e+00	0	34	104	0	74	20662
2026-01-18 03:35:36.01	41.45	2.78	-51.7	-66.6	3.8	1.49e+00	0	34	104	0	74	20755
2026-01-18 03:35:37.02	41.40	2.84	-51.7	-66.7	3.8	1.49e+00	0	34	104	0	74	20821
2026-01-18 03:35:38.03	41.34	2.90	-51.7	-66.7	3.8	1.49e+00	0	34	104	0	74	20822
2026-01-18 03:35:39.04	41.28	2.96	-51.7	-66.7	3.8	1.49e+00	0	34	104	0	74	20876
2026-01-18 03:35:40.04	41.22	3.02	-51.7	-66.7	3.8	1.49e+00	0	34	104	0	74	20897
2026-01-18 03:35:41.05	41.17	3.08	-51.7	-66.7	3.8	1.49e+00	0	34	104	0	74	20808
2026-01-18 03:35:42.06	41.11	3.15	-51.7	-66.7	3.8	1.49e+00	0	34	104	0	74	20829
2026-01-18 03:35:43.07	41.05	3.21	-51.7	-66.7	3.8	1.49e+00	0	34	104	0	74	20835
2026-01-18 03:35:44.08	40.99	3.27	-51.7	-66.7	3.8	1.49e+00	0	34	104	0	74	20822
2026-01-18 03:35:45.09	40.93	3.33	-51.7	-66.7	3.8	1.49e+00	0	34	104	0	74	20837
2026-01-18 03:35:46.09	40.87	3.39	-51.7	-66.7	3.8	1.49e+00	0	34	104	0	74	20829
2026-01-18 03:35:47.10	40.81	3.45	-51.7	-66.7	3.8	1.49e+00	0	34	104	0	74	20790
2026-01-18 03:35:48.11	40.75	3.52	-51.7	-66.6	3.8	1.49e+00	0	34	104	0	74	20654
2026-01-18 03:35:49.12	40.69	3.58	-51.7	-66.5	3.8	1.49e+00	0	34	104	0	74	20488
2026-01-18 03:35:50.12	40.63	3.64	-51.7	-66.3	3.8	1.49e+00	0	34	104	0	74	20010
2026-01-18 03:35:51.13	40.57	3.70	-51.7	-66.1	3.8	1.49e+00	0	34	104	0	74	19448
2026-01-18 03:35:52.14	40.51	3.76	-51.7	-65.9	3.8	1.49e+00	0	34	104	0	74	18959
2026-01-18 03:35:53.15	40.44	3.83	-51.7	-65.8	3.8	1.49e+00	0	34	104	0	74	18826
2026-01-18 03:35:54.16	40.38	3.89	-51.7	-65.4	3.8	1.49e+00	0	34	104	0	74	17914
2026-01-18 03:35:55.16	40.32	3.95	-51.6	-64.9	3.8	1.49e+00	0	34	104	0	74	16943
2026-01-18 03:35:56.17	40.26	4.01	-51.6	-64.3	4.0	1.48e+00	0	34	104	0	74	15912
2026-01-18 03:35:57.18	40.19	4.08	-51.6	-63.7	4.1	1.48e+00	0	34	0	0	74	14872
2026-01-18 03:35:58.19	40.13	4.14	-51.5	-63.1	4.2	1.40e+00	0	34	0	0	74	13841
2026-01-18 03:35:59.20	40.07	4.20	-51.4	-62.1	4.5	1.27e+00	1	34	0	0	74	12247
2026-01-18 03:36:00.20	40.01	4.26	-51.3	-60.6	5.3	5.66e-01	0	34	0	2097152	74	10348
2026-01-18 03:36:01.21	39.94	4.33	-51.2	-60.1	5.7	4.83e-01	0	34	0	4194304	74	9767
2026-01-18 03:36:02.22	39.88	4.39	-51.1	-59.6	6.0	3.53e-01	0	34	0	6291456	74	9224
2026-01-18 03:36:03.23	39.81	4.45	-51.0	-58.7	6.7	2.58e-01	0	34	0	8388608	73	8845
2026-01-18 03:36:04.24	39.75	4.52	-50.9	-58.5	6.9	1.71e-01	0	34	0	9437184	73	8606
2026-01-18 03:36:05.25	39.68	4.58	-50.8	-58.2	7.2	1.54e-01	0	34	0	11534336	73	8280
2026-01-18 03:36:06.25	39.62	4.64	-50.9	-58.4	7.0	1.36e-01	0	34	0	13631488	73	8516
2026-01-18 03:36:07.26	39.55	4.71	-50.9	-58.2	7.2	1.40e-01	0	34	0	15728640	73	8283
2026-01-18 03:36:08.27	39.49	4.77	-50.9	-58.6	6.9	1.44e-01	0	34	0	17825792	73	8730
2026-01-18 03:36:09.28	39.42	4.84	-51.1	-59.3	6.2	2.25e-01	0	34	0	18874368	73	9435
2026-01-18 03:36:10.28	39.35	4.90	-51.2	-59.8	5.9	3.22e-01	0	34	0	20971520	73	10015
2026-01-18 03:36:11.29	39.29	4.97	-51.2	-60.2	5.6	4.82e-01	0	34	0	23068672	73	10485
2026-01-18 03:36:12.30	39.22	5.03	-51.3	-60.9	5.1	5.66e-01	0	34	0	25165824	73	11291
2026-01-18 03:36:13.31	39.15	5.09	-50.8	-57.0	8.6	3.33e-02	0	34	0	27262976	73	7249
2026-01-18 03:36:14.31	39.08	5.16	-51.2	-59.1	6.6	8.91e-02	0	34	0	29360128	73	9245
2026-01-18 03:36:15.32	39.02	5.22	-51.6	-63.0	4.2	1.46e+00	0	34	104	29360128	73	14412
2026-01-18 03:36:16.33	38.95	5.29	-49.9	-54.3	11.9	2.50e-02	0	34	0	30408704	70	6322
2026-01-18 03:36:17.34	38.88	5.35	-51.4	-60.9	5.1	1.30e+00	0	34	0	31457280	73	11368
2026-01-18 03:36:18.34	38.81	5.42	-49.2	-52.7	13.4	1.98e-04	0	35	0	33554432	70	5226
2026-01-18 03:36:19.35	38.74	5.48	-49.0	-52.3	13.7	1.60e-05	0	34	0	35651584	70	5019
2026-01-18 03:36:20.36	38.67	5.55	-48.8	-52.0	14.1	3.80e-06	0	34	0	37748736	69	5117
2026-01-18 03:36:21.37	38.60	5.61	-48.9	-52.2	13.8	3.00e-06	0	34	0	38797312	69	5241
2026-01-18 03:36:22.38	38.53	5.68	-48.9	-52.1	13.9	3.00e-06	0	35	0	40894464	69	5192
2026-01-18 03:36:23.38	38.46	5.75	-48.6	-51.6	14.5	7.00e-07	0	35	0	42991616	69	4875
2026-01-18 03:36:24.39	38.39	5.81	-48.7	-51.7	14.4	7.00e-07	0	34	0	45088768	69	4947
2026-01-18 03:36:25.40	38.32	5.88	-48.3	-51.0	15.1	0.00e+00	0	35	0	47185920	68	4864
2026-01-18 03:36:26.40	38.24	5.94	-48.4	-51.3	14.8	0.00e+00	0	34	0	49283072	68	4990
2026-01-18 03:36:27.41	38.17	6.01	-48.3	-51.0	15.2	0.00e+00	0	35	0	50331648	68	4870
2026-01-18 03:36:28.42	38.10	6.08	-48.4	-51.2	15.0	7.00e-07	0	34	0	52428800	68	4966
2026-01-18 03:36:29.43	38.03	6.14	-48.5	-51.4	14.8	0.00e+00	0	34	0	54525952	68	5061
2026-01-18 03:36:30.44	37.95	6.21	-48.6	-51.5	14.7	0.00e+00	0	34	0	56623104	68	5153
2026-01-18 03:36:31.45	37.88	6.28	-48.5	-51.3	14.9	0.00e+00	0	35	0	57671680	68	5024
2026-01-18 03:36:32.45	37.81	6.34	-48.5	-51.4	14.9	0.00e+00	0	34	0	59768832	68	5045
2026-01-18 03:36:33.46	37.73	6.41	-48.5	-51.4	14.9	0.00e+00	0	35	0	61865984	68	5049
2026-01-18 03:36:34.47	37.66	6.48	-48.7	-51.7	14.6	0.00e+00	0	34	0	63963136	68	5230
2026-01-18 03:36:35.48	37.58	6.54	-48.6	-51.5	14.7	7.00e-07	0	35	0	66060288	68	5153
2026-01-18 03:36:36.48	37.51	6.61	-48.4	-51.2	15.0	7.00e-07	0	35	0	67108864	68	4963
2026-01-18 03:36:37.49	37.43	6.68	-48.6	-51.5	14.8	0.00e+00	0	35	0	69206016	68	5152
2026-01-18 03:36:38.50	37.36	6.75	-48.4	-51.2	15.1	0.00e+00	0	35	0	71303168	68	4933
2026-01-18 03:36:39.50	37.28	6.81	-48.5	-51.4	15.0	0.00e+00	0	35	0	73400320	68	5042
2026-01-18 03:36:40.51	37.20	6.88	-48.5	-51.3	15.0	0.00e+00	0	35	0	75497472	68	5012
2026-01-18 03:36:41.52	37.13	6.95	-48.4	-51.2	15.1	0.00e+00	0	35	0	77594624	68	4951
2026-01-18 03:36:42.53	37.05	7.02	-48.5	-51.4	14.9	0.00e+00	0	35	0	78643200	68	5050
2026-01-18 03:36:43.54	36.97	7.09	-48.7	-51.6	14.7	0.00e+00	0	35	0	80740352	68	5186
2026-01-18 03:36:44.54	36.89	7.16	-48.5	-51.2	15.0	0.00e+00	0	35	0	82837504	68	4976
2026-01-18 03:36:45.55	36.81	7.22	-48.5	-51.3	15.0	0.00e+00	0	34	0	84934656	68	5018
2026-01-18 03:36:46.56	36.73	7.29	-48.4	-51.1	15.2	0.00e+00	0	35	0	85983232	68	4900
2026-01-18 03:36:47.57	36.65	7.36	-48.5	-51.3	15.1	0.00e+00	0	35	0	88080384	68	4992
2026-01-18 03:36:48.58	36.57	7.43	-48.4	-51.1	15.3	0.00e+00	0	35	0	90177536	68	4895
2026-01-18 03:36:49.59	36.49	7.50	-48.4	-51.1	15.3	7.00e-07	0	34	0	92274688	68	4881
2026-01-18 03:36:50.59	36.41	7.57	-48.5	-51.2	15.1	0.00e+00	0	35	0	94371840	68	4970
2026-01-18 03:36:51.60	36.33	7.64	-48.4	-51.1	15.3	0.00e+00	0	35	0	96468992	68	4871
2026-01-18 03:36:52.61	36.25	7.71	-48.4	-51.1	15.3	0.00e+00	0	35	0	97517568	68	4876
2026-01-18 03:36:53.62	36.17	7.78	-48.3	-50.9	15.5	0.00e+00	0	35	0	99614720	68	4794
2026-01-18 03:36:54.63	36.09	7.85	-48.1	-50.6	15.8	0.00e+00	0	35	0	101711872	68	4638
2026-01-18 03:36:55.64	36.00	7.92	-48.2	-50.7	15.8	0.00e+00	0	35	0	103809024	68	4681
2026-01-18 03:36:56.64	35.92	7.99	-47.9	-50.3	16.0	0.00e+00	0	35	0	105906176	67	4753
2026-01-18 03:36:57.65	35.84	8.06	-47.7	-50.0	16.3	0.00e+00	0	35	0	106954752	67	4576
2026-01-18 03:36:58.66	35.75	8.13	-47.8	-50.2	16.1	0.00e+00	0	35	0	109051904	67	4692
2026-01-18 03:36:59.67	35.67	8.20	-47.8	-50.2	16.1	0.00e+00	0	35	0	111149056	67	4692
2026-01-18 03:37:00.68	35.58	8.27	-47.7	-50.0	16.4	0.00e+00	0	35	0	113246208	67	4548
2026-01-18 03:37:01.69	35.50	8.34	-47.8	-50.1	16.3	0.00e+00	0	35	0	114294784	67	4619
2026-01-18 03:37:02.70	35.41	8.41	-47.7	-50.0	16.3	0.00e+00	0	35	0	116391936	67	4597
2026-01-18 03:37:03.70	35.33	8.48	-47.7	-50.0	16.4	0.00e+00	0	35	0	118489088	67	4583
2026-01-18 03:37:04.71	35.24	8.55	-47.4	-49.5	16.9	0.00e+00	0	35	0	120586240	66	4580
2026-01-18 03:37:05.72	35.15	8.62	-47.3	-49.3	17.0	0.00e+00	0	35	0	122683392	66	4488
2026-01-18 03:37:06.73	35.07	8.69	-47.6	-49.8	16.6	0.00e+00	0	35	0	124780544	66	4714
2026-01-18 03:37:07.74	34.98	8.77	-47.4	-49.5	16.9	0.00e+00	0	35	0	125829120	66	4555
2026-01-18 03:37:08.75	34.89	8.84	-47.4	-49.6	16.8	0.00e+00	0	35	0	127926272	66	4629
2026-01-18 03:37:09.76	34.80	8.91	-47.4	-49.6	16.8	0.00e+00	0	35	0	130023424	66	4627
2026-01-18 03:37:10.77	34.71	8.98	-47.5	-49.6	16.8	0.00e+00	0	35	0	132120576	66	4647
2026-01-18 03:37:11.77	34.62	9.05	-47.7	-49.9	16.5	0.00e+00	0	35	0	134217728	66	4810
2026-01-18 03:37:12.78	34.53	9.13	-47.6	-49.9	16.6	0.00e+00	0	35	0	135266304	66	4774
2026-01-18 03:37:13.79	34.44	9.20	-47.7	-50.0	16.5	0.00e+00	0	35	0	137363456	66	4837
2026-01-18 03:37:14.80	34.35	9.27	-47.7	-50.0	16.5	0.00e+00	0	35	0	139460608	66	4866
2026-01-18 03:37:15.80	34.26	9.34	-47.8	-50.2	16.3	0.00e+00	0	35	0	141557760	66	4930
2026-01-18 03:37:16.81	34.17	9.42	-47.7	-50.0	16.5	0.00e+00	0	35	0	143654912	66	4836
2026-01-18 03:37:17.82	34.07	9.49	-47.6	-49.8	16.7	0.00e+00	0	35	0	144703488	66	4716
2026-01-18 03:37:18.83	33.98	9.56	-47.7	-49.9	16.5	0.00e+00	0	35	0	146800640	66	4804
2026-01-18 03:37:19.84	33.89	9.63	-47.7	-50.0	16.5	0.00e+00	0	35	0	148897792	66	4855
2026-01-18 03:37:20.85	33.79	9.71	-47.6	-49.9	16.7	0.00e+00	0	35	0	150994944	66	4775
2026-01-18 03:37:21.85	33.70	9.78	-47.7	-49.9	16.6	0.00e+00	0	35	0	153092096	66	4776
2026-01-18 03:37:22.86	33.60	9.85	-47.8	-50.0	16.5	0.00e+00	0	35	0	154140672	66	4870
2026-01-18 03:37:23.87	33.51	9.93	-47.7	-50.0	16.6	0.00e+00	0	35	0	156237824	66	4829
2026-01-18 03:37:24.88	33.41	10.00	-47.7	-50.0	16.6	0.00e+00	0	35	0	158334976	66	4824
2026-01-18 03:37:25.88	33.32	10.08	-47.6	-49.8	16.7	0.00e+00	0	35	0	160432128	66	4723
2026-01-18 03:37:26.89	33.22	10.15	-47.5	-49.7	16.8	0.00e+00	0	35	0	162529280	66	4676
2026-01-18 03:37:27.90	33.12	10.22	-47.6	-49.8	16.8	0.00e+00	0	35	0	163577856	66	4732
2026-01-18 03:37:28.91	33.02	10.30	-47.5	-49.6	16.8	0.00e+00	0	35	0	165675008	66	4604
2026-01-18 03:37:29.92	32.92	10.37	-47.6	-49.7	16.9	0.00e+00	0	35	0	167772160	66	4683
2026-01-18 03:37:30.93	32.82	10.45	-47.7	-50.0	16.6	0.00e+00	0	35	0	169869312	66	4847
2026-01-18 03:37:31.93	32.73	10.52	-47.5	-49.6	17.0	0.00e+00	0	35	0	171966464	66	4609
2026-01-18 03:37:32.94	32.63	10.60	-47.5	-49.6	16.9	0.00e+00	0	35	0	173015040	66	4611
2026-01-18 03:37:33.94	32.53	10.67	-47.6	-49.7	16.8	0.00e+00	0	35	0	175112192	66	4701
2026-01-18 03:37:34.95	32.42	10.75	-47.4	-49.5	17.1	0.00e+00	0	35	0	177209344	66	4557
2026-01-18 03:37:35.96	32.32	10.82	-47.5	-49.6	17.0	0.00e+00	0	35	0	179306496	66	4614
2026-01-18 03:37:36.97	32.22	10.90	-47.6	-49.8	16.8	0.00e+00	0	35	0	181403648	66	4726
2026-01-18 03:37:37.97	32.12	10.97	-47.5	-49.6	17.0	0.00e+00	0	35	0	182452224	66	4631
2026-01-18 03:37:38.98	32.01	11.05	-47.6	-49.8	16.8	0.00e+00	0	35	0	184549376	66	4722
2026-01-18 03:37:39.99	31.91	11.13	-47.4	-49.6	17.0	0.00e+00	0	35	0	186646528	66	4601
2026-01-18 03:37:41.00	31.81	11.20	-47.4	-49.6	16.9	0.00e+00	0	35	0	188743680	66	4603
2026-01-18 03:37:42.00	31.70	11.28	-47.0	-49.4	17.1	0.00e+00	0	35	0	190840832	66	4529
2026-01-18 03:37:43.01	31.60	11.35	-46.2	-49.6	16.9	0.00e+00	0	35	0	191889408	64	5171
2026-01-18 03:37:44.02	31.49	11.43	-45.2	-49.9	16.5	0.00e+00	0	35	0	193986560	62	6030
2026-01-18 03:37:45.03	31.38	11.51	-44.8	-49.6	16.7	0.00e+00	0	35	0	196083712	61	6165
2026-01-18 03:37:46.04	31.28	11.58	-45.1	-49.6	16.7	0.00e+00	0	35	0	198180864	61	6147
2026-01-18 03:37:47.04	31.17	11.66	-45.8	-49.9	16.4	0.00e+00	0	35	0	200278016	62	6022
2026-01-18 03:37:48.05	31.06	11.74	-46.7	-50.2	16.2	0.00e+00	0	35	0	201326592	63	5871
2026-01-18 03:37:49.06	30.95	11.82	-47.0	-49.8	16.5	0.00e+00	0	35	0	203423744	64	5338
2026-01-18 03:37:50.06	30.84	11.89	-47.5	-50.2	16.3	0.00e+00	0	35	0	205520896	65	5233
2026-01-18 03:37:51.07	30.73	11.97	-47.7	-50.1	16.4	0.00e+00	0	35	0	207618048	66	4891
2026-01-18 03:37:52.08	30.62	12.05	-48.0	-50.4	16.2	0.00e+00	0	35	0	209715200	66	5049
2026-01-18 03:37:53.09	30.51	12.13	-48.0	-50.3	16.3	0.00e+00	0	35	0	210763776	66	5040
2026-01-18 03:37:54.10	30.40	12.20	-48.0	-50.3	16.3	0.00e+00	0	35	0	212860928	66	5024
2026-01-18 03:37:55.11	30.28	12.28	-47.9	-50.3	16.4	0.00e+00	0	35	0	214958080	66	4998
2026-01-18 03:37:56.12	30.17	12.36	-47.9	-50.2	16.5	0.00e+00	0	35	0	217055232	66	4942
2026-01-18 03:37:57.12	30.06	12.44	-47.7	-49.9	16.7	0.00e+00	0	35	0	219152384	66	4802
2026-01-18 03:37:58.13	29.94	12.52	-47.8	-50.1	16.6	0.00e+00	0	35	0	220200960	66	4883
2026-01-18 03:37:59.14	29.83	12.59	-47.8	-50.0	16.6	0.00e+00	0	35	0	222298112	66	4829
2026-01-18 03:38:00.14	29.71	12.67	-47.9	-50.3	16.4	0.00e+00	0	35	0	224395264	66	4992
2026-01-18 03:38:01.15	29.59	12.75	-47.8	-50.1	16.6	0.00e+00	0	35	0	226492416	66	4874
2026-01-18 03:38:02.16	29.48	12.83	-47.7	-49.9	16.8	0.00e+00	0	35	0	228589568	66	4777
2026-01-18 03:38:03.17	29.36	12.91	-47.5	-49.6	17.1	0.00e+00	0	35	0	229638144	66	4621
2026-01-18 03:38:04.18	29.24	12.99	-47.6	-49.7	17.0	0.00e+00	0	35	0	231735296	66	4655
2026-01-18 03:38:05.18	29.12	13.07	-47.2	-49.1	17.5	0.00e+00	0	35	0	233832448	66	4387
2026-01-18 03:38:06.19	29.00	13.15	-47.5	-49.5	17.2	0.00e+00	0	35	0	235929600	66	4592
2026-01-18 03:38:07.20	28.88	13.23	-47.5	-49.6	17.1	0.00e+00	0	35	0	238026752	66	4609
2026-01-18 03:38:08.21	28.76	13.31	-47.3	-49.3	17.4	0.00e+00	0	35	0	240123904	66	4474
2026-01-18 03:38:09.21	28.64	13.39	-47.2	-49.1	17.6	0.00e+00	0	35	0	241172480	66	4374
2026-01-18 03:38:10.22	28.52	13.47	-47.1	-49.0	17.7	0.00e+00	0	35	0	243269632	66	4304
2026-01-18 03:38:11.23	28.39	13.55	-47.0	-48.8	17.8	0.00e+00	0	35	0	245366784	65	4481
2026-01-18 03:38:12.24	28.27	13.63	-47.0	-48.8	17.8	0.00e+00	0	35	0	247463936	65	4479
2026-01-18 03:38:13.25	28.15	13.71	-46.8	-48.6	18.1	0.00e+00	0	35	0	248512512	65	4378
2026-01-18 03:38:14.25	28.02	13.79	-47.2	-49.1	17.6	0.00e+00	0	35	0	250609664	65	4633
2026-01-18 03:38:15.26	27.90	13.87	-47.2	-49.1	17.6	0.00e+00	0	35	0	252706816	65	4633
2026-01-18 03:38:16.27	27.77	13.95	-47.2	-49.2	17.5	0.00e+00	0	35	0	254803968	65	4653
2026-01-18 03:38:17.28	27.64	14.03	-47.3	-49.3	17.4	0.00e+00	0	35	0	256901120	65	4745
2026-01-18 03:38:18.29	27.51	14.11	-47.3	-49.3	17.5	0.00e+00	0	35	0	257949696	65	4713
2026-01-18 03:38:19.29	27.39	14.19	-47.3	-49.2	17.5	0.00e+00	0	35	0	260046848	65	4700
2026-01-18 03:38:20.30	27.26	14.27	-47.4	-49.5	17.2	0.00e+00	0	35	0	262144000	65	4829
2026-01-18 03:38:21.31	27.13	14.36	-47.3	-49.3	17.4	0.00e+00	0	35	0	264241152	65	4744
2026-01-18 03:38:22.32	26.99	14.44	-47.6	-49.7	17.0	0.00e+00	0	35	0	266338304	65	4942
2026-01-18 03:38:23.33	26.86	14.52	-47.7	-49.8	16.9	0.00e+00	0	35	0	268435456	65	5011
2026-01-18 03:38:24.33	26.73	14.60	-47.6	-49.7	17.1	0.00e+00	0	35	0	269484032	65	4936
2026-01-18 03:38:25.34	26.60	14.68	-47.6	-49.7	17.0	0.00e+00	0	35	0	271581184	65	4981
2026-01-18 03:38:26.35	26.46	14.77	-47.3	-49.2	17.5	0.00e+00	0	35	0	273678336	65	4696
2026-01-18 03:38:27.36	26.33	14.85	-47.5	-49.5	17.2	0.00e+00	0	35	0	275775488	65	4868
2026-01-18 03:38:28.36	26.19	14.93	-47.6	-49.7	17.1	0.00e+00	0	35	0	276824064	65	4931
2026-01-18 03:38:29.37	26.06	15.01	-47.6	-49.7	17.1	0.00e+00	0	35	0	278921216	65	4948
2026-01-18 03:38:30.38	25.92	15.09	-47.5	-49.6	17.2	0.00e+00	0	35	0	281018368	65	4886
2026-01-18 03:38:31.39	25.78	15.18	-47.5	-49.6	17.2	0.00e+00	0	35	0	283115520	65	4876
2026-01-18 03:38:32.40	25.64	15.26	-47.3	-49.3	17.4	0.00e+00	0	35	0	285212672	65	4734
2026-01-18 03:38:33.40	25.51	15.34	-47.3	-49.2	17.5	0.00e+00	0	35	0	287309824	65	4697
2026-01-18 03:38:34.41	25.37	15.43	-47.1	-48.9	17.8	0.00e+00	0	35	0	288358400	65	4517
2026-01-18 03:38:35.42	25.22	15.51	-47.2	-49.1	17.7	0.00e+00	0	35	0	290455552	65	4620
2026-01-18 03:38:36.43	25.08	15.59	-47.0	-48.8	17.9	0.00e+00	0	35	0	292552704	65	4488
2026-01-18 03:38:37.44	24.94	15.68	-46.9	-48.7	18.0	0.00e+00	0	35	0	294649856	65	4420
2026-01-18 03:38:38.44	24.80	15.76	-47.0	-48.8	17.9	0.00e+00	0	35	0	296747008	65	4489
2026-01-18 03:38:39.45	24.65	15.84	-47.1	-49.0	17.8	0.00e+00	0	35	0	297795584	65	4550
2026-01-18 03:38:40.46	24.51	15.93	-46.9	-48.7	18.0	0.00e+00	0	35	0	299892736	65	4411
2026-01-18 03:38:41.47	24.36	16.01	-46.9	-48.7	18.1	0.00e+00	0	35	0	301989888	65	4398
2026-01-18 03:38:42.48	24.22	16.09	-46.5	-48.2	18.5	0.00e+00	0	35	0	304087040	65	4183
2026-01-18 03:38:43.48	24.07	16.18	-46.4	-48.1	18.6	0.00e+00	0	35	0	305135616	64	4385
2026-01-18 03:38:44.49	23.92	16.26	-46.4	-48.1	18.6	0.00e+00	0	35	0	307232768	64	4374
2026-01-18 03:38:45.50	23.77	16.34	-46.4	-48.1	18.6	0.00e+00	0	35	0	309329920	64	4376
2026-01-18 03:38:46.51	23.62	16.43	-46.4	-48.1	18.6	0.00e+00	0	35	0	311427072	64	4363
2026-01-18 03:38:47.52	23.47	16.51	-46.5	-48.2	18.6	0.00e+00	0	35	0	313524224	64	4395
2026-01-18 03:38:48.52	23.32	16.60	-46.4	-48.1	18.6	0.00e+00	0	35	0	315621376	64	4359
2026-01-18 03:38:49.54	23.16	16.68	-46.5	-48.1	18.6	0.00e+00	0	35	0	316669952	64	4390
2026-01-18 03:38:50.54	23.01	16.77	-46.4	-48.1	18.7	0.00e+00	0	35	0	318767104	64	4356
2026-01-18 03:38:51.55	22.86	16.85	-46.6	-48.3	18.5	0.00e+00	0	35	0	320864256	64	4465
2026-01-18 03:38:52.56	22.70	16.93	-46.5	-48.1	18.6	0.00e+00	0	35	0	322961408	64	4376
2026-01-18 03:38:53.57	22.55	17.02	-46.5	-48.2	18.6	0.00e+00	0	35	0	325058560	64	4411
2026-01-18 03:38:54.58	22.39	17.10	-46.5	-48.1	18.6	0.00e+00	0	35	0	326107136	64	4378
2026-01-18 03:38:55.58	22.23	17.19	-46.5	-48.2	18.6	0.00e+00	0	35	0	328204288	64	4425
2026-01-18 03:38:56.59	22.07	17.27	-46.6	-48.4	18.4	0.00e+00	0	35	0	330301440	64	4495
2026-01-18 03:38:57.60	21.91	17.36	-46.9	-48.7	18.2	0.00e+00	0	35	0	332398592	64	4657
2026-01-18 03:38:58.61	21.75	17.44	-46.9	-48.7	18.1	0.00e+00	0	35	0	334495744	64	4663
2026-01-18 03:38:59.62	21.59	17.53	-46.9	-48.7	18.1	0.00e+00	0	35	0	335544320	64	4685
2026-01-18 03:39:00.62	21.43	17.61	-46.8	-48.6	18.1	0.00e+00	0	35	0	337641472	64	4641
2026-01-18 03:39:01.63	21.27	17.70	-46.9	-48.7	18.0	0.00e+00	0	35	0	339738624	64	4679
2026-01-18 03:39:02.64	21.10	17.78	-46.8	-48.6	18.2	0.00e+00	0	35	0	341835776	64	4639
2026-01-18 03:39:03.65	20.93	17.87	-46.7	-48.5	18.2	0.00e+00	0	35	0	343932928	64	4561
2026-01-18 03:39:04.66	20.77	17.95	-46.9	-48.7	18.1	0.00e+00	0	35	0	344981504	64	4687
2026-01-18 03:39:05.66	20.60	18.04	-46.8	-48.6	18.1	0.00e+00	0	35	0	347078656	64	4627
2026-01-18 03:39:06.67	20.43	18.13	-46.9	-48.7	18.0	0.00e+00	0	35	0	349175808	64	4701
2026-01-18 03:39:07.68	20.26	18.21	-46.8	-48.6	18.1	0.00e+00	0	35	0	351272960	64	4645
2026-01-18 03:39:08.69	20.09	18.30	-46.7	-48.5	18.3	0.00e+00	0	35	0	353370112	64	4564
2026-01-18 03:39:09.70	19.92	18.38	-46.8	-48.6	18.3	0.00e+00	0	35	0	354418688	65	4342
2026-01-18 03:39:10.71	19.75	18.47	-46.8	-48.5	18.3	0.00e+00	0	35	0	356515840	65	4327
2026-01-18 03:39:11.72	19.58	18.55	-46.5	-48.1	18.6	0.00e+00	0	35	0	358612992	65	4136
2026-01-18 03:39:12.73	19.40	18.64	-46.6	-48.3	18.5	0.00e+00	0	35	0	360710144	65	4232
2026-01-18 03:39:13.74	19.23	18.72	-46.9	-48.7	18.1	0.00e+00	0	35	0	362807296	65	4439
2026-01-18 03:39:14.74	19.05	18.81	-47.1	-49.0	17.8	0.00e+00	0	35	0	363855872	65	4570
2026-01-18 03:39:15.75	18.87	18.90	-47.1	-48.9	17.9	0.00e+00	0	35	0	365953024	65	4538
2026-01-18 03:39:16.76	18.70	18.98	-47.1	-49.0	17.9	0.00e+00	0	35	0	368050176	65	4547
2026-01-18 03:39:17.77	18.52	19.07	-47.1	-48.9	17.9	0.00e+00	0	35	0	370147328	65	4533
2026-01-18 03:39:18.77	18.34	19.15	-47.0	-48.9	18.0	0.00e+00	0	35	0	372244480	65	4499
2026-01-18 03:39:19.78	18.16	19.24	-47.1	-48.9	17.9	0.00e+00	0	35	0	373293056	65	4527
2026-01-18 03:39:20.79	17.97	19.32	-47.3	-49.2	17.7	0.00e+00	0	35	0	375390208	65	4696
2026-01-18 03:39:21.80	17.79	19.41	-47.3	-49.2	17.7	0.00e+00	0	35	0	377487360	65	4689
2026-01-18 03:39:22.80	17.61	19.49	-47.5	-49.5	17.4	0.00e+00	0	35	0	379584512	65	4850
2026-01-18 03:39:23.81	17.42	19.58	-47.6	-49.6	17.3	0.00e+00	0	35	0	381681664	65	4908
2026-01-18 03:39:24.82	17.23	19.67	-47.4	-49.4	17.5	0.00e+00	0	35	0	383778816	65	4790
2026-01-18 03:39:25.83	17.05	19.75	-47.4	-49.4	17.5	0.00e+00	0	35	0	384827392	65	4802
2026-01-18 03:39:26.84	16.86	19.84	-47.2	-49.1	17.8	0.00e+00	0	35	0	386924544	65	4602
2026-01-18 03:39:27.84	16.67	19.92	-46.9	-48.7	18.2	0.00e+00	0	35	0	389021696	65	4417
2026-01-18 03:39:28.85	16.48	20.01	-46.8	-48.6	18.3	0.00e+00	0	35	0	391118848	65	4345
2026-01-18 03:39:29.86	16.29	20.09	-46.9	-48.7	18.2	0.00e+00	0	35	0	392167424	65	4393
2026-01-18 03:39:30.87	16.09	20.18	-47.0	-48.8	18.1	0.00e+00	0	35	0	394264576	65	4465
2026-01-18 03:39:31.88	15.90	20.26	-47.2	-49.1	17.8	0.00e+00	0	35	0	396361728	65	4621
2026-01-18 03:39:32.88	15.71	20.35	-47.1	-49.0	17.8	0.00e+00	0	35	0	398458880	65	4575
2026-01-18 03:39:33.89	15.51	20.43	-47.2	-49.1	17.8	0.00e+00	0	35	0	400556032	65	4633
2026-01-18 03:39:34.90	15.31	20.52	-47.1	-49.0	17.9	0.00e+00	0	35	0	401604608	65	4561
2026-01-18 03:39:35.91	15.11	20.60	-47.0	-48.8	18.2	0.00e+00	0	35	0	403701760	65	4447
2026-01-18 03:39:36.92	14.91	20.69	-47.1	-48.9	18.1	0.00e+00	0	35	0	405798912	65	4509
2026-01-18 03:39:37.93	14.71	20.77	-47.1	-48.9	18.0	0.00e+00	0	35	0	407896064	65	4531
2026-01-18 03:39:38.93	14.51	20.86	-47.2	-49.0	17.9	0.00e+00	0	35	0	409993216	65	4576
2026-01-18 03:39:39.94	14.31	20.94	-47.0	-48.8	18.2	0.00e+00	0	35	0	412090368	65	4442
2026-01-18 03:39:40.95	14.10	21.03	-46.6	-48.3	18.6	0.00e+00	0	35	0	413138944	65	4219
2026-01-18 03:39:41.96	13.90	21.11	-46.4	-48.0	18.9	0.00e+00	0	35	0	415236096	64	4331
2026-01-18 03:39:42.97	13.69	21.20	-46.1	-47.6	19.2	0.00e+00	0	35	0	417333248	64	4133
2026-01-18 03:39:43.98	13.48	21.28	-46.1	-47.6	19.3	0.00e+00	0	35	0	419430400	63	4352
2026-01-18 03:39:44.99	13.28	21.36	-46.3	-47.9	19.1	0.00e+00	0	35	0	420478976	63	4511
2026-01-18 03:39:45.99	13.07	21.45	-46.5	-48.0	18.9	0.00e+00	0	35	0	422576128	63	4592
2026-01-18 03:39:47.00	12.86	21.53	-46.6	-48.3	18.6	0.00e+00	0	35	0	424673280	64	4470
2026-01-18 03:39:48.01	12.64	21.61	-46.7	-48.3	18.6	0.00e+00	0	35	0	426770432	64	4489
2026-01-18 03:39:49.02	12.43	21.70	-47.2	-49.0	18.0	0.00e+00	0	35	0	428867584	64	4851
2026-01-18 03:39:50.02	12.22	21.78	-47.0	-48.8	18.2	0.00e+00	0	35	0	430964736	64	4724
2026-01-18 03:39:51.03	12.00	21.86	-46.9	-48.7	18.3	0.00e+00	0	35	0	432013312	64	4685
2026-01-18 03:39:52.04	11.78	21.95	-47.0	-48.7	18.2	0.00e+00	0	35	0	434110464	65	4433
2026-01-18 03:39:53.04	11.57	22.03	-47.2	-49.1	17.8	0.00e+00	0	35	0	436207616	65	4650
2026-01-18 03:39:54.05	11.35	22.11	-47.2	-49.1	17.9	0.00e+00	0	35	0	438304768	65	4603
2026-01-18 03:39:55.06	11.13	22.19	-46.8	-48.5	18.5	0.00e+00	0	35	0	440401920	65	4312
2026-01-18 03:39:56.07	10.91	22.28	-46.4	-48.1	18.9	0.00e+00	0	35	0	441450496	64	4347
2026-01-18 03:39:57.08	10.68	22.36	-46.1	-47.6	19.3	0.00e+00	0	35	0	443547648	63	4389
2026-01-18 03:39:58.08	10.46	22.44	-45.8	-47.3	19.6	0.00e+00	0	35	0	445644800	63	4201
2026-01-18 03:39:59.09	10.24	22.52	-45.6	-47.0	19.9	0.00e+00	0	35	0	447741952	63	4087
2026-01-18 03:40:00.10	10.01	22.60	-45.5	-46.9	20.0	0.00e+00	0	35	0	448790528	62	4252
2026-01-18 03:40:01.11	9.78	22.69	-45.7	-47.2	19.7	0.00e+00	0	35	0	450887680	62	4398
2026-01-18 03:40:02.11	9.56	22.77	-45.7	-47.1	19.7	0.00e+00	0	35	0	452984832	62	4388
2026-01-18 03:40:03.12	9.33	22.85	-45.8	-47.2	19.7	0.00e+00	0	35	0	455081984	62	4436
2026-01-18 03:40:04.13	9.09	22.93	-45.9	-47.4	19.5	0.00e+00	0	35	0	457179136	62	4524
2026-01-18 03:40:05.14	8.86	23.01	-45.9	-47.4	19.5	0.00e+00	0	35	0	459276288	62	4533
2026-01-18 03:40:06.14	8.63	23.09	-46.0	-47.6	19.4	0.00e+00	0	35	0	460324864	62	4612
2026-01-18 03:40:07.15	8.39	23.17	-46.3	-47.9	19.1	0.00e+00	0	35	0	462422016	63	4537
2026-01-18 03:40:08.16	8.16	23.25	-46.5	-48.2	18.9	0.00e+00	0	35	0	464519168	63	4662
2026-01-18 03:40:09.17	7.92	23.33	-46.4	-48.0	19.0	0.00e+00	0	35	0	466616320	63	4590
2026-01-18 03:40:10.17	7.68	23.40	-46.0	-47.5	19.4	0.00e+00	0	35	0	468713472	63	4318
2026-01-18 03:40:11.18	7.44	23.48	-45.9	-47.4	19.5	0.00e+00	0	35	0	469762048	63	4266
2026-01-18 03:40:12.19	7.20	23.56	-45.6	-47.0	19.9	0.00e+00	0	35	0	471859200	63	4090
2026-01-18 03:40:13.20	6.96	23.64	-45.4	-46.8	20.1	0.00e+00	0	35	0	473956352	62	4210
2026-01-18 03:40:14.20	6.72	23.72	-45.5	-46.9	20.0	0.00e+00	0	35	0	476053504	62	4257
2026-01-18 03:40:15.21	6.48	23.79	-45.5	-46.9	20.0	0.00e+00	0	35	0	478150656	62	4250
2026-01-18 03:40:16.22	6.23	23.87	-45.4	-46.8	20.1	0.00e+00	0	35	0	479199232	62	4203
2026-01-18 03:40:17.23	5.98	23.95	-45.6	-47.0	20.0	0.00e+00	0	35	0	481296384	62	4302
2026-01-18 03:40:18.24	5.73	24.02	-45.4	-46.7	20.1	0.00e+00	0	35	0	483393536	62	4192
2026-01-18 03:40:19.25	5.48	24.10	-45.5	-46.9	20.0	0.00e+00	0	35	0	485490688	62	4267
2026-01-18 03:40:20.26	5.23	24.17	-45.6	-47.0	19.9	0.00e+00	0	35	0	487587840	62	4327
2026-01-18 03:40:21.26	4.98	24.25	-45.4	-46.8	20.1	0.00e+00	0	35	0	488636416	62	4207
2026-01-18 03:40:22.27	4.73	24.32	-45.2	-46.5	20.3	0.00e+00	0	35	0	490733568	62	4096
2026-01-18 03:40:23.29	4.47	24.40	-45.2	-46.5	20.4	0.00e+00	0	35	0	492830720	62	4055
2026-01-18 03:40:24.29	4.22	24.47	-45.1	-46.4	20.4	0.00e+00	0	35	0	494927872	62	4020
2026-01-18 03:40:25.30	3.96	24.55	-45.0	-46.3	20.6	0.00e+00	0	35	0	497025024	61	4194
2026-01-18 03:40:26.31	3.71	24.62	-45.2	-46.6	20.3	0.00e+00	0	35	0	498073600	61	4344
2026-01-18 03:40:27.32	3.45	24.69	-45.2	-46.5	20.4	0.00e+00	0	35	0	500170752	61	4315
2026-01-18 03:40:28.33	3.19	24.76	-45.2	-46.5	20.4	0.00e+00	0	35	0	502267904	61	4313
2026-01-18 03:40:29.33	2.93	24.84	-45.3	-46.6	20.3	0.00e+00	0	35	0	504365056	61	4364
2026-01-18 03:40:30.35	2.66	24.91	-45.3	-46.7	20.3	0.00e+00	0	35	0	506462208	61	4397
2026-01-18 03:40:31.35	2.40	24.98	-45.4	-46.7	20.2	0.00e+00	0	35	0	507510784	61	4416
2026-01-18 03:40:32.36	2.13	25.05	-45.4	-46.7	20.2	0.00e+00	0	35	0	509607936	61	4425
2026-01-18 03:40:33.37	1.87	25.12	-45.7	-47.1	19.9	0.00e+00	0	35	0	511705088	61	4632
2026-01-18 03:40:34.37	1.60	25.19	-45.8	-47.2	19.8	0.00e+00	0	35	0	513802240	62	4435
2026-01-18 03:40:35.38	1.33	25.26	-46.3	-47.8	19.2	0.00e+00	0	35	0	515899392	63	4475
2026-01-18 03:40:36.39	1.06	25.32	-46.4	-48.0	19.0	0.00e+00	0	35	0	516947968	63	4598
2026-01-18 03:40:37.40	0.79	25.39	-46.3	-47.9	19.2	0.00e+00	0	35	0	519045120	63	4499
2026-01-18 03:40:38.41	0.52	25.46	-46.1	-47.6	19.5	0.00e+00	0	35	0	521142272	63	4353
2026-01-18 03:40:39.41	0.25	25.52	-46.1	-47.7	19.4	0.00e+00	0	35	0	523239424	63	4405
2026-01-18 03:40:40.42	359.97	25.59	-46.3	-47.8	19.2	0.00e+00	0	35	0	525336576	63	4489
2026-01-18 03:40:41.43	359.70	25.66	-46.2	-47.7	19.4	0.00e+00	0	35	0	526385152	63	4424
2026-01-18 03:40:42.44	359.42	25.72	-46.3	-47.9	19.2	0.00e+00	0	35	0	528482304	63	4509
2026-01-18 03:40:43.45	359.14	25.79	-46.2	-47.7	19.3	0.00e+00	0	35	0	530579456	63	4429
2026-01-18 03:40:44.46	358.86	25.85	-45.9	-47.4	19.6	0.00e+00	0	35	0	532676608	63	4266
2026-01-18 03:40:45.47	358.58	25.91	-45.9	-47.3	19.8	0.00e+00	0	35	0	534773760	63	4226
2026-01-18 03:40:46.47	358.30	25.98	-46.0	-47.5	19.5	0.00e+00	0	35	0	535822336	63	4339
2026-01-18 03:40:47.48	358.02	26.04	-46.1	-47.6	19.4	0.00e+00	0	35	0	537919488	63	4379
2026-01-18 03:40:48.49	357.74	26.10	-46.1	-47.6	19.4	0.00e+00	0	35	0	540016640	63	4371
2026-01-18 03:40:49.50	357.45	26.16	-46.1	-47.7	19.4	0.00e+00	0	35	0	542113792	63	4406
2026-01-18 03:40:50.51	357.16	26.22	-45.9	-47.3	19.7	0.00e+00	0	35	0	544210944	63	4235
2026-01-18 03:40:51.51	356.88	26.28	-45.7	-47.0	20.0	0.00e+00	0	35	0	546308096	63	4095
2026-01-18 03:40:52.52	356.59	26.34	-45.5	-46.9	20.1	0.00e+00	0	35	0	547356672	63	4029
2026-01-18 03:40:53.53	356.30	26.40	-45.7	-47.1	19.9	0.00e+00	0	35	0	549453824	62	4341
2026-01-18 03:40:54.54	356.01	26.45	-45.7	-47.1	19.9	0.00e+00	0	35	0	551550976	62	4369
2026-01-18 03:40:55.54	355.72	26.51	-45.9	-47.3	19.8	0.00e+00	0	35	0	553648128	62	4468
2026-01-18 03:40:56.55	355.43	26.57	-45.9	-47.4	19.6	0.00e+00	0	35	0	554696704	62	4517
2026-01-18 03:40:57.56	355.14	26.62	-45.7	-47.1	20.0	0.00e+00	0	35	0	556793856	62	4343
2026-01-18 03:40:58.57	354.84	26.68	-45.4	-46.7	20.3	0.00e+00	0	35	0	558891008	62	4184
2026-01-18 03:40:59.58	354.55	26.73	-45.5	-46.8	20.2	0.00e+00	0	35	0	560988160	62	4226
2026-01-18 03:41:00.58	354.25	26.78	-45.4	-46.8	20.3	0.00e+00	0	35	0	563085312	62	4202
2026-01-18 03:41:01.59	353.96	26.84	-45.6	-47.0	20.0	0.00e+00	0	35	0	564133888	62	4321
2026-01-18 03:41:02.60	353.66	26.89	-45.9	-47.3	19.8	0.00e+00	0	35	0	566231040	62	4469
2026-01-18 03:41:03.61	353.36	26.94	-45.7	-47.1	19.9	0.00e+00	0	35	0	568328192	62	4366
2026-01-18 03:41:04.62	353.06	26.99	-45.3	-46.6	20.3	0.00e+00	0	35	0	570425344	62	4133
2026-01-18 03:41:05.63	352.76	27.04	-45.4	-46.7	20.4	0.00e+00	0	35	0	572522496	62	4164
2026-01-18 03:41:06.63	352.46	27.09	-45.8	-47.2	19.9	0.00e+00	0	35	0	574619648	62	4420
2026-01-18 03:41:07.64	352.15	27.13	-46.1	-47.6	19.6	0.00e+00	0	35	0	575668224	62	4614
2026-01-18 03:41:08.65	351.85	27.18	-46.4	-48.0	19.1	0.00e+00	0	35	0	577765376	63	4574
2026-01-18 03:41:09.66	351.54	27.23	-46.6	-48.3	18.8	0.00e+00	0	35	0	579862528	63	4746
2026-01-18 03:41:10.67	351.24	27.27	-46.4	-48.1	18.9	0.00e+00	0	35	0	581959680	64	4379
2026-01-18 03:41:11.67	350.93	27.32	-46.2	-47.9	19.1	0.00e+00	0	35	0	583008256	64	4249
2026-01-18 03:41:12.68	350.63	27.36	-46.4	-48.1	18.9	0.00e+00	0	35	0	585105408	64	4373
2026-01-18 03:41:13.69	350.32	27.40	-46.6	-48.4	18.7	0.00e+00	0	35	0	587202560	64	4497
2026-01-18 03:41:14.69	350.01	27.44	-47.0	-48.9	18.2	0.00e+00	0	35	0	589299712	64	4763
2026-01-18 03:41:15.70	349.70	27.48	-47.2	-49.1	18.0	0.00e+00	0	35	0	591396864	65	4640
2026-01-18 03:41:16.71	349.39	27.52	-47.1	-48.9	18.2	0.00e+00	0	35	0	593494016	65	4502
2026-01-18 03:41:17.72	349.08	27.56	-46.7	-48.3	18.7	0.00e+00	0	35	0	594542592	65	4227
2026-01-18 03:41:18.72	348.77	27.60	-46.6	-48.2	18.8	0.00e+00	0	35	0	596639744	64	4432
2026-01-18 03:41:19.73	348.46	27.64	-46.6	-48.3	18.8	0.00e+00	0	35	0	598736896	64	4457
2026-01-18 03:41:20.74	348.14	27.68	-46.7	-48.3	18.8	0.00e+00	0	35	0	600834048	64	4464
2026-01-18 03:41:21.75	347.83	27.71	-46.9	-48.6	18.5	0.00e+00	0	35	0	602931200	64	4619
2026-01-18 03:41:22.75	347.52	27.75	-47.1	-48.9	18.2	0.00e+00	0	35	0	603979776	64	4763
2026-01-18 03:41:23.76	347.20	27.78	-47.2	-48.9	18.1	0.00e+00	0	35	0	606076928	64	4804
2026-01-18 03:41:24.77	346.88	27.81	-47.2	-48.9	18.1	0.00e+00	0	35	0	608174080	65	4544
2026-01-18 03:41:25.78	346.57	27.85	-47.2	-49.0	18.1	0.00e+00	0	35	0	610271232	65	4589
2026-01-18 03:41:26.78	346.25	27.88	-47.1	-48.9	18.2	0.00e+00	0	35	0	611319808	65	4525
2026-01-18 03:41:27.79	345.93	27.91	-47.3	-49.2	17.9	0.00e+00	0	35	0	613416960	65	4673
2026-01-18 03:41:28.80	345.61	27.94	-47.8	-49.8	17.3	0.00e+00	0	35	0	615514112	66	4745
2026-01-18 03:41:29.81	345.29	27.96	-47.9	-50.0	17.1	0.00e+00	0	35	0	617611264	66	4835
2026-01-18 03:41:30.82	344.97	27.99	-47.7	-49.7	17.4	0.00e+00	0	35	0	619708416	66	4705
2026-01-18 03:41:31.83	344.65	28.02	-47.4	-49.2	17.9	0.00e+00	0	35	0	621805568	66	4437
2026-01-18 03:41:32.83	344.33	28.04	-47.0	-48.8	18.2	0.00e+00	0	35	0	622854144	65	4445
2026-01-18 03:41:33.84	344.01	28.07	-47.0	-48.7	18.3	0.00e+00	0	35	0	624951296	65	4441
2026-01-18 03:41:34.85	343.69	28.09	-47.1	-49.0	18.1	0.00e+00	0	35	0	627048448	65	4559
2026-01-18 03:41:35.86	343.37	28.11	-47.3	-49.2	17.8	0.00e+00	0	35	0	629145600	65	4705
2026-01-18 03:41:36.87	343.04	28.13	-47.3	-49.3	17.8	0.00e+00	0	35	0	631242752	65	4708
2026-01-18 03:41:37.87	342.72	28.15	-47.2	-49.1	17.9	0.00e+00	0	35	0	632291328	65	4630
2026-01-18 03:41:38.88	342.40	28.17	-47.1	-49.0	18.1	0.00e+00	0	35	0	634388480	65	4569
2026-01-18 03:41:39.89	342.07	28.19	-47.0	-48.8	18.2	0.00e+00	0	35	0	636485632	65	4464
2026-01-18 03:41:40.90	341.75	28.21	-47.1	-48.9	18.1	0.00e+00	0	35	0	638582784	65	4507
2026-01-18 03:41:41.91	341.42	28.23	-47.2	-49.1	17.9	0.00e+00	0	35	0	640679936	65	4634
2026-01-18 03:41:42.91	341.10	28.24	-47.3	-49.2	17.8	0.00e+00	0	35	0	641728512	65	4705
2026-01-18 03:41:43.92	340.77	28.25	-47.2	-49.1	17.9	0.00e+00	0	35	0	643825664	65	4637
2026-01-18 03:41:44.93	340.45	28.27	-47.2	-49.0	17.9	0.00e+00	0	35	0	645922816	65	4595
2026-01-18 03:41:45.93	340.12	28.28	-47.1	-48.9	18.2	0.00e+00	0	35	0	648019968	65	4529
2026-01-18 03:41:46.94	339.80	28.29	-47.2	-49.1	18.0	0.00e+00	0	35	0	650117120	65	4599
2026-01-18 03:41:47.95	339.47	28.30	-47.6	-49.7	17.4	0.00e+00	0	35	0	651165696	65	4948
2026-01-18 03:41:48.96	339.14	28.31	-48.1	-50.4	16.7	0.00e+00	0	35	0	653262848	66	5079
2026-01-18 03:41:49.96	338.82	28.32	-48.3	-50.7	16.4	0.00e+00	0	35	0	655360000	67	4945
2026-01-18 03:41:50.97	338.49	28.33	-48.2	-50.5	16.6	0.00e+00	0	35	0	657457152	67	4840
2026-01-18 03:41:51.98	338.16	28.33	-47.7	-49.8	17.2	0.00e+00	0	35	0	659554304	67	4460
2026-01-18 03:41:52.99	337.84	28.34	-47.1	-48.9	18.2	0.00e+00	0	35	0	660602880	66	4266
2026-01-18 03:41:53.99	337.51	28.34	-46.5	-48.1	18.8	0.00e+00	0	35	0	662700032	65	4141
2026-01-18 03:41:55.00	337.18	28.34	-46.1	-47.6	19.5	0.00e+00	0	35	0	664797184	64	4103
2026-01-18 03:41:56.01	336.86	28.34	-46.2	-47.8	19.2	0.00e+00	0	35	0	666894336	64	4202
2026-01-18 03:41:57.02	336.53	28.35	-46.5	-48.1	19.0	0.00e+00	0	35	0	668991488	64	4381
2026-01-18 03:41:58.03	336.20	28.35	-47.0	-48.8	18.3	0.00e+00	0	35	0	670040064	64	4741
2026-01-18 03:41:59.03	335.88	28.34	-47.2	-49.1	18.1	0.00e+00	0	35	0	672137216	64	4884
2026-01-18 03:42:00.04	335.55	28.34	-47.3	-49.2	17.9	0.00e+00	0	35	0	674234368	65	4672
2026-01-18 03:42:01.05	335.22	28.34	-47.3	-49.1	18.1	0.00e+00	0	35	0	676331520	65	4609
2026-01-18 03:42:02.06	334.89	28.33	-47.2	-49.0	18.1	0.00e+00	0	35	0	678428672	65	4572
2026-01-18 03:42:03.06	334.57	28.33	-47.3	-49.1	18.0	0.00e+00	0	35	0	679477248	65	4639
2026-01-18 03:42:04.07	334.24	28.32	-47.2	-49.0	18.1	0.00e+00	0	35	0	681574400	65	4556
2026-01-18 03:42:05.08	333.91	28.31	-46.8	-48.5	18.7	0.00e+00	0	35	0	683671552	65	4307
2026-01-18 03:42:06.08	333.59	28.31	-46.8	-48.5	18.6	0.00e+00	0	35	0	685768704	65	4330
2026-01-18 03:42:07.09	333.26	28.30	-46.8	-48.6	18.6	0.00e+00	0	35	0	687865856	65	4342
2026-01-18 03:42:08.10	332.94	28.29	-47.0	-48.8	18.3	0.00e+00	0	35	0	688914432	65	4473
2026-01-18 03:42:09.11	332.61	28.27	-47.0	-48.8	18.3	0.00e+00	0	35	0	691011584	65	4455
2026-01-18 03:42:10.11	332.29	28.26	-47.1	-48.9	18.3	0.00e+00	0	35	0	693108736	65	4494
2026-01-18 03:42:11.12	331.96	28.25	-47.0	-48.8	18.4	0.00e+00	0	35	0	695205888	65	4445
2026-01-18 03:42:12.13	331.63	28.23	-47.0	-48.7	18.4	0.00e+00	0	35	0	697303040	65	4426
2026-01-18 03:42:13.14	331.31	28.22	-46.9	-48.7	18.4	0.00e+00	0	35	0	698351616	65	4408
2026-01-18 03:42:14.14	330.99	28.20	-47.3	-49.2	18.0	0.00e+00	0	35	0	700448768	65	4669
2026-01-18 03:42:15.15	330.66	28.18	-47.3	-49.2	17.9	0.00e+00	0	35	0	702545920	65	4704
2026-01-18 03:42:16.16	330.34	28.16	-47.1	-48.9	18.2	0.00e+00	0	35	0	704643072	65	4544
2026-01-18 03:42:17.17	330.01	28.14	-46.6	-48.3	18.8	0.00e+00	0	35	0	706740224	65	4210
2026-01-18 03:42:18.17	329.69	28.12	-46.3	-47.8	19.3	0.00e+00	0	35	0	707788800	64	4208
2026-01-18 03:42:19.18	329.37	28.10	-45.9	-47.3	19.9	0.00e+00	0	35	0	709885952	63	4198
2026-01-18 03:42:20.19	329.05	28.08	-45.7	-47.1	20.0	0.00e+00	0	35	0	711983104	63	4105
2026-01-18 03:42:21.20	328.72	28.05	-45.7	-47.0	20.1	0.00e+00	0	35	0	714080256	63	4072
2026-01-18 03:42:22.21	328.40	28.03	-45.7	-47.1	20.0	0.00e+00	0	35	0	716177408	63	4129
2026-01-18 03:42:23.21	328.08	28.00	-45.9	-47.3	19.8	0.00e+00	0	35	0	718274560	63	4213
2026-01-18 03:42:24.22	327.76	27.98	-45.9	-47.4	19.7	0.00e+00	0	35	0	719323136	63	4266
2026-01-18 03:42:25.23	327.44	27.95	-45.8	-47.3	19.9	0.00e+00	0	35	0	721420288	63	4194
2026-01-18 03:42:26.24	327.12	27.92	-45.7	-47.2	19.9	0.00e+00	0	35	0	723517440	63	4146
2026-01-18 03:42:27.25	326.80	27.89	-45.5	-46.8	20.2	0.00e+00	0	35	0	725614592	62	4231
2026-01-18 03:42:28.25	326.49	27.86	-45.4	-46.7	20.3	0.00e+00	0	35	0	726663168	62	4156
2026-01-18 03:42:29.26	326.17	27.83	-45.4	-46.7	20.3	0.00e+00	0	35	0	728760320	62	4178
2026-01-18 03:42:30.27	325.85	27.80	-45.4	-46.7	20.4	0.00e+00	0	35	0	730857472	62	4174
2026-01-18 03:42:31.27	325.54	27.76	-45.6	-47.0	20.1	0.00e+00	0	35	0	732954624	62	4324
2026-01-18 03:42:32.28	325.22	27.73	-46.0	-47.4	19.7	0.00e+00	0	35	0	735051776	62	4525
2026-01-18 03:42:33.29	324.91	27.69	-46.4	-48.0	19.2	0.00e+00	0	35	0	736100352	63	4555
2026-01-18 03:42:34.30	324.60	27.66	-46.5	-48.1	19.1	0.00e+00	0	35	0	738197504	63	4617
2026-01-18 03:42:35.31	324.28	27.62	-46.6	-48.2	19.0	0.00e+00	0	35	0	740294656	63	4667
2026-01-18 03:42:36.32	323.97	27.58	-46.5	-48.1	19.1	0.00e+00	0	35	0	742391808	63	4609
2026-01-18 03:42:37.33	323.66	27.54	-46.5	-48.1	19.0	0.00e+00	0	35	0	744488960	64	4383
2026-01-18 03:42:38.33	323.35	27.50	-46.8	-48.5	18.7	0.00e+00	0	35	0	746586112	64	4550
2026-01-18 03:42:39.34	323.04	27.46	-47.0	-48.7	18.4	0.00e+00	0	35	0	747634688	64	4665
2026-01-18 03:42:40.35	322.73	27.42	-46.9	-48.6	18.5	0.00e+00	0	35	0	749731840	64	4614
2026-01-18 03:42:41.36	322.42	27.38	-46.7	-48.4	18.8	0.00e+00	0	35	0	751828992	64	4497
2026-01-18 03:42:42.36	322.11	27.34	-46.5	-48.1	19.0	0.00e+00	0	35	0	753926144	64	4356
2026-01-18 03:42:43.37	321.81	27.29	-46.1	-47.5	19.6	0.00e+00	0	35	0	754974720	64	4079
2026-01-18 03:42:44.38	321.50	27.25	-46.0	-47.4	19.7	0.00e+00	0	35	0	757071872	63	4273
2026-01-18 03:42:45.39	321.19	27.20	-45.9	-47.2	19.9	0.00e+00	0	35	0	759169024	63	4191
2026-01-18 03:42:46.40	320.89	27.16	-46.0	-47.4	19.7	0.00e+00	0	35	0	761266176	63	4280
2026-01-18 03:42:47.41	320.58	27.11	-46.3	-47.8	19.5	0.00e+00	0	35	0	763363328	63	4448
2026-01-18 03:42:48.41	320.28	27.06	-46.7	-48.2	18.9	0.00e+00	0	35	0	765460480	64	4441
2026-01-18 03:42:49.42	319.98	27.01	-46.5	-48.1	19.0	0.00e+00	0	35	0	766509056	64	4344
2026-01-18 03:42:50.43	319.68	26.96	-46.4	-47.8	19.2	0.00e+00	0	35	0	768606208	64	4238
2026-01-18 03:42:51.44	319.38	26.91	-46.1	-47.6	19.5	0.00e+00	0	35	0	770703360	64	4120
2026-01-18 03:42:52.44	319.08	26.86	-46.1	-47.6	19.5	0.00e+00	0	35	0	772800512	64	4102
2026-01-18 03:42:53.45	318.79	26.81	-46.1	-47.6	19.6	0.00e+00	0	35	0	774897664	63	4354
2026-01-18 03:42:54.46	318.49	26.76	-46.4	-48.0	19.2	0.00e+00	0	35	0	775946240	63	4559
2026-01-18 03:42:55.47	318.19	26.70	-46.6	-48.3	19.0	0.00e+00	0	35	0	778043392	63	4708
2026-01-18 03:42:56.47	317.90	26.65	-46.7	-48.3	18.9	0.00e+00	0	35	0	780140544	64	4464
2026-01-18 03:42:57.48	317.61	26.59	-46.7	-48.4	18.7	0.00e+00	0	35	0	782237696	64	4500
2026-01-18 03:42:58.49	317.31	26.54	-47.1	-48.9	18.2	0.00e+00	0	35	0	783286272	65	4526
2026-01-18 03:42:59.50	317.02	26.48	-47.3	-49.2	18.0	0.00e+00	0	35	0	785383424	65	4668
2026-01-18 03:43:00.50	316.73	26.42	-47.5	-49.5	17.7	0.00e+00	0	35	0	787480576	65	4833
2026-01-18 03:43:01.51	316.44	26.37	-47.7	-49.8	17.4	0.00e+00	0	35	0	789577728	66	4723
2026-01-18 03:43:02.52	316.15	26.31	-48.1	-50.3	16.9	0.00e+00	0	35	0	791674880	66	5015
2026-01-18 03:43:03.53	315.87	26.25	-48.1	-50.3	16.8	0.00e+00	0	35	0	793772032	67	4751
2026-01-18 03:43:04.54	315.58	26.19	-48.3	-50.5	16.7	0.00e+00	0	35	0	794820608	67	4834
2026-01-18 03:43:05.55	315.29	26.13	-48.1	-50.2	16.9	0.00e+00	0	35	0	796917760	67	4704
2026-01-18 03:43:06.55	315.01	26.07	-48.0	-50.1	17.1	0.00e+00	0	35	0	799014912	67	4627
2026-01-18 03:43:07.56	314.73	26.01	-48.0	-50.0	17.1	0.00e+00	0	35	0	801112064	67	4594
2026-01-18 03:43:08.57	314.44	25.94	-47.9	-49.9	17.2	0.00e+00	0	35	0	803209216	67	4539
2026-01-18 03:43:09.58	314.16	25.88	-47.5	-49.4	17.7	0.00e+00	0	35	0	804257792	67	4249
2026-01-18 03:43:10.58	313.89	25.82	-47.3	-49.2	18.0	0.00e+00	0	35	0	806354944	66	4395
2026-01-18 03:43:11.59	313.61	25.75	-47.1	-48.9	18.3	0.00e+00	0	35	0	808452096	66	4247
2026-01-18 03:43:12.60	313.33	25.69	-47.2	-49.0	18.1	0.00e+00	0	35	0	810549248	66	4308
2026-01-18 03:43:13.61	313.05	25.62	-47.0	-48.8	18.3	0.00e+00	0	35	0	812646400	66	4227
2026-01-18 03:43:14.62	312.78	25.56	-46.7	-48.4	18.6	0.00e+00	0	35	0	813694976	65	4274
2026-01-18 03:43:15.62	312.50	25.49	-46.7	-48.3	18.8	0.00e+00	0	35	0	815792128	65	4217
2026-01-18 03:43:16.63	312.23	25.42	-46.5	-48.1	18.9	0.00e+00	0	35	0	817889280	65	4143
2026-01-18 03:43:17.64	311.96	25.36	-46.6	-48.2	18.8	0.00e+00	0	35	0	819986432	64	4435
2026-01-18 03:43:18.65	311.69	25.29	-46.7	-48.4	18.6	0.00e+00	0	35	0	822083584	64	4520
2026-01-18 03:43:19.66	311.42	25.22	-46.5	-48.1	18.9	0.00e+00	0	35	0	823132160	64	4383
2026-01-18 03:43:20.67	311.15	25.15	-46.2	-47.8	19.2	0.00e+00	0	35	0	825229312	64	4205
2026-01-18 03:43:21.67	310.89	25.08	-46.1	-47.6	19.5	0.00e+00	0	35	0	827326464	63	4347
2026-01-18 03:43:22.68	310.62	25.01	-45.7	-47.1	19.8	0.00e+00	0	35	0	829423616	63	4145
2026-01-18 03:43:23.69	310.35	24.94	-46.0	-47.5	19.5	0.00e+00	0	35	0	831520768	63	4317
2026-01-18 03:43:24.69	310.09	24.87	-46.4	-48.0	19.1	0.00e+00	0	35	0	832569344	63	4562
2026-01-18 03:43:25.70	309.83	24.80	-46.8	-48.5	18.5	0.00e+00	0	35	0	834666496	64	4580
2026-01-18 03:43:26.71	309.57	24.72	-47.1	-48.9	18.2	0.00e+00	0	35	0	836763648	64	4777
2026-01-18 03:43:27.72	309.31	24.65	-46.7	-48.4	18.6	0.00e+00	0	35	0	838860800	64	4531
2026-01-18 03:43:28.73	309.05	24.58	-46.9	-48.6	18.4	0.00e+00	0	35	0	840957952	64	4643
2026-01-18 03:43:29.73	308.79	24.51	-47.0	-48.8	18.2	0.00e+00	0	35	0	842006528	64	4745
2026-01-18 03:43:30.74	308.54	24.43	-47.4	-49.4	17.7	0.00e+00	0	35	0	844103680	65	4800
2026-01-18 03:43:31.75	308.28	24.36	-47.4	-49.4	17.7	0.00e+00	0	35	0	846200832	65	4803
2026-01-18 03:43:32.76	308.03	24.28	-47.3	-49.2	17.9	0.00e+00	0	35	0	848297984	65	4689
2026-01-18 03:43:33.76	307.78	24.21	-47.3	-49.3	17.8	0.00e+00	0	35	0	850395136	65	4716
2026-01-18 03:43:34.77	307.53	24.13	-47.0	-48.8	18.2	0.00e+00	0	35	0	851443712	65	4480
2026-01-18 03:43:35.78	307.28	24.06	-46.6	-48.4	18.7	0.00e+00	0	35	0	853540864	65	4248
2026-01-18 03:43:36.79	307.03	23.98	-46.9	-48.7	18.3	0.00e+00	0	35	0	855638016	65	4440
2026-01-18 03:43:37.80	306.78	23.91	-46.9	-48.8	18.3	0.00e+00	0	35	0	857735168	65	4452
2026-01-18 03:43:38.81	306.53	23.83	-47.0	-48.9	18.2	0.00e+00	0	35	0	859832320	65	4499
2026-01-18 03:43:39.81	306.29	23.75	-47.3	-49.3	17.8	0.00e+00	0	35	0	860880896	65	4715
2026-01-18 03:43:40.82	306.04	23.67	-47.3	-49.3	17.8	0.00e+00	0	35	0	862978048	65	4711
2026-01-18 03:43:41.83	305.80	23.60	-47.3	-49.2	17.9	0.00e+00	0	35	0	865075200	65	4687
2026-01-18 03:43:42.83	305.56	23.52	-47.1	-48.9	18.2	0.00e+00	0	35	0	867172352	65	4519
2026-01-18 03:43:43.84	305.32	23.44	-46.9	-48.7	18.3	0.00e+00	0	35	0	869269504	65	4422
2026-01-18 03:43:44.85	305.08	23.36	-46.7	-48.4	18.6	0.00e+00	0	35	0	870318080	65	4272
2026-01-18 03:43:45.86	304.84	23.28	-46.4	-48.0	19.0	0.00e+00	0	35	0	872415232	64	4319
2026-01-18 03:43:46.86	304.61	23.20	-46.0	-47.5	19.5	0.00e+00	0	35	0	874512384	64	4075
2026-01-18 03:43:47.87	304.37	23.12	-46.1	-47.6	19.4	0.00e+00	0	35	0	876609536	64	4133
2026-01-18 03:43:48.88	304.14	23.04	-46.1	-47.7	19.4	0.00e+00	0	35	0	878706688	64	4170
2026-01-18 03:43:49.89	303.90	22.96	-45.9	-47.4	19.7	0.00e+00	0	35	0	879755264	63	4282
2026-01-18 03:43:50.90	303.67	22.88	-45.8	-47.3	19.8	0.00e+00	0	35	0	881852416	63	4204
2026-01-18 03:43:51.90	303.44	22.80	-45.8	-47.3	19.8	0.00e+00	0	35	0	883949568	63	4201
2026-01-18 03:43:52.91	303.21	22.72	-45.6	-47.1	20.0	0.00e+00	0	35	0	886046720	63	4099
2026-01-18 03:43:53.92	302.98	22.64	-45.7	-47.2	19.9	0.00e+00	0	35	0	888143872	63	4156
2026-01-18 03:43:54.93	302.76	22.56	-45.6	-47.0	20.0	0.00e+00	0	35	0	889192448	63	4082
2026-01-18 03:43:55.94	302.53	22.48	-45.4	-46.7	20.2	0.00e+00	0	35	0	891289600	62	4173
2026-01-18 03:43:56.94	302.31	22.40	-45.4	-46.8	20.2	0.00e+00	0	35	0	893386752	62	4203
2026-01-18 03:43:57.95	302.08	22.31	-45.1	-46.4	20.5	0.00e+00	0	35	0	895483904	62	4046
2026-01-18 03:43:58.96	301.86	22.23	-44.9	-46.2	20.7	0.00e+00	0	35	0	897581056	61	4172
2026-01-18 03:43:59.97	301.64	22.15	-44.8	-46.1	20.8	0.00e+00	0	35	0	898629632	61	4113
2026-01-18 03:44:00.97	301.42	22.07	-44.5	-45.7	21.1	0.00e+00	0	35	0	900726784	61	3921
2026-01-18 03:44:01.98	301.20	21.98	-44.6	-45.8	21.0	0.00e+00	0	35	0	902823936	61	3986
2026-01-18 03:44:02.99	300.98	21.90	-44.8	-46.0	20.8	0.00e+00	0	35	0	904921088	61	4092
2026-01-18 03:44:04.00	300.77	21.82	-45.0	-46.3	20.6	0.00e+00	0	35	0	907018240	61	4204
2026-01-18 03:44:05.01	300.55	21.73	-45.4	-46.8	20.1	0.00e+00	0	35	0	909115392	61	4468
2026-01-18 03:44:06.01	300.34	21.65	-45.6	-47.0	20.0	0.00e+00	0	35	0	910163968	61	4556
2026-01-18 03:44:07.02	300.13	21.57	-45.8	-47.3	19.7	0.00e+00	0	35	0	912261120	62	4482
2026-01-18 03:44:08.03	299.91	21.48	-46.0	-47.5	19.5	0.00e+00	0	35	0	914358272	62	4561
2026-01-18 03:44:09.04	299.70	21.40	-46.4	-48.0	19.1	0.00e+00	0	35	0	916455424	63	4577
2026-01-18 03:44:10.05	299.49	21.31	-46.5	-48.1	18.9	0.00e+00	0	35	0	917504000	63	4648
2026-01-18 03:44:11.05	299.29	21.23	-46.5	-48.1	18.9	0.00e+00	0	35	0	919601152	63	4639
2026-01-18 03:44:12.06	299.08	21.15	-46.3	-47.9	19.2	0.00e+00	0	35	0	921698304	63	4501
2026-01-18 03:44:13.07	298.87	21.06	-46.1	-47.6	19.4	0.00e+00	0	35	0	923795456	63	4357
2026-01-18 03:44:14.08	298.67	20.98	-45.9	-47.4	19.6	0.00e+00	0	35	0	925892608	63	4254
2026-01-18 03:44:15.09	298.46	20.89	-45.9	-47.4	19.6	0.00e+00	0	35	0	926941184	63	4248
2026-01-18 03:44:16.09	298.26	20.81	-46.2	-47.7	19.4	0.00e+00	0	35	0	929038336	63	4433
2026-01-18 03:44:17.10	298.06	20.72	-46.2	-47.7	19.3	0.00e+00	0	35	0	931135488	63	4426
2026-01-18 03:44:18.11	297.86	20.64	-46.2	-47.7	19.3	0.00e+00	0	35	0	933232640	63	4418
2026-01-18 03:44:19.12	297.66	20.55	-45.9	-47.4	19.6	0.00e+00	0	35	0	935329792	63	4281
2026-01-18 03:44:20.12	297.46	20.47	-45.7	-47.2	19.9	0.00e+00	0	35	0	937426944	63	4152
2026-01-18 03:44:21.13	297.27	20.38	-45.3	-46.6	20.4	0.00e+00	0	35	0	938475520	62	4122
2026-01-18 03:44:22.14	297.07	20.30	-44.7	-45.9	21.0	0.00e+00	0	35	0	940572672	61	4011
2026-01-18 03:44:23.14	296.88	20.21	-44.4	-45.6	21.2	0.00e+00	0	35	0	942669824	60	4135
2026-01-18 03:44:24.15	296.68	20.13	-44.3	-45.4	21.4	0.00e+00	0	35	0	944766976	60	4050
2026-01-18 03:44:25.16	296.49	20.04	-44.5	-45.7	21.2	0.00e+00	0	35	0	945815552	60	4178
2026-01-18 03:44:26.17	296.30	19.96	-44.7	-45.9	21.0	0.00e+00	0	35	0	947912704	60	4260
2026-01-18 03:44:27.18	296.11	19.87	-44.7	-45.9	21.0	0.00e+00	0	35	0	950009856	60	4282
2026-01-18 03:44:28.19	295.92	19.79	-44.8	-46.1	20.8	0.00e+00	0	35	0	952107008	60	4356
2026-01-18 03:44:29.19	295.73	19.70	-44.9	-46.1	20.8	0.00e+00	0	35	0	954204160	60	4389
2026-01-18 03:44:30.20	295.54	19.62	-45.0	-46.3	20.6	0.00e+00	0	35	0	955252736	60	4462
2026-01-18 03:44:31.21	295.36	19.53	-45.2	-46.5	20.5	0.00e+00	0	35	0	957349888	60	4558
2026-01-18 03:44:32.22	295.17	19.44	-45.2	-46.5	20.4	0.00e+00	0	35	0	959447040	61	4328
2026-01-18 03:44:33.23	294.99	19.36	-45.3	-46.6	20.4	0.00e+00	0	35	0	961544192	61	4360
2026-01-18 03:44:34.23	294.80	19.27	-45.2	-46.5	20.5	0.00e+00	0	35	0	963641344	61	4313
2026-01-18 03:44:35.24	294.62	19.19	-45.1	-46.3	20.6	0.00e+00	0	35	0	965738496	61	4233
2026-01-18 03:44:36.25	294.44	19.10	-45.2	-46.5	20.5	0.00e+00	0	35	0	966787072	61	4313
2026-01-18 03:44:37.26	294.26	19.02	-44.9	-46.2	20.7	0.00e+00	0	35	0	968884224	61	4169
2026-01-18 03:44:38.27	294.08	18.93	-45.2	-46.5	20.5	0.00e+00	0	35	0	970981376	61	4303
2026-01-18 03:44:39.27	293.90	18.84	-45.2	-46.4	20.5	0.00e+00	0	35	0	973078528	61	4288
2026-01-18 03:44:40.28	293.73	18.76	-45.3	-46.6	20.3	0.00e+00	0	35	0	974127104	61	4380
2026-01-18 03:44:41.29	293.55	18.67	-45.4	-46.7	20.3	0.00e+00	0	35	0	976224256	61	4423
2026-01-18 03:44:42.30	293.38	18.59	-45.7	-47.2	19.9	0.00e+00	0	35	0	978321408	62	4393
2026-01-18 03:44:43.30	293.20	18.50	-45.7	-47.1	20.0	0.00e+00	0	35	0	980418560	62	4363
2026-01-18 03:44:44.31	293.03	18.42	-45.8	-47.2	19.9	0.00e+00	0	35	0	982515712	62	4412
2026-01-18 03:44:45.32	292.86	18.33	-45.8	-47.2	19.8	0.00e+00	0	35	0	984612864	62	4439
2026-01-18 03:44:46.33	292.69	18.25	-45.5	-46.9	20.1	0.00e+00	0	35	0	985661440	62	4259
2026-01-18 03:44:47.34	292.52	18.16	-45.5	-46.9	20.1	0.00e+00	0	35	0	987758592	62	4250
2026-01-18 03:44:48.35	292.35	18.07	-45.2	-46.5	20.4	0.00e+00	0	35	0	989855744	62	4083
2026-01-18 03:44:49.35	292.18	17.99	-45.0	-46.2	20.7	0.00e+00	0	35	0	991952896	61	4173
2026-01-18 03:44:50.36	292.01	17.90	-44.7	-45.9	21.0	0.00e+00	0	35	0	994050048	61	4008
2026-01-18 03:44:51.37	291.85	17.82	-44.8	-46.0	20.9	0.00e+00	0	35	0	995098624	61	4064
2026-01-18 03:44:52.37	291.68	17.73	-45.0	-46.2	20.7	0.00e+00	0	35	0	997195776	61	4180
2026-01-18 03:44:53.38	291.52	17.65	-45.2	-46.5	20.5	0.00e+00	0	35	0	999292928	61	4315
2026-01-18 03:44:54.39	291.35	17.56	-45.5	-46.9	20.1	0.00e+00	0	35	0	1001390080	61	4494
2026-01-18 03:44:55.40	291.19	17.48	-45.9	-47.3	19.8	0.00e+00	0	35	0	1002438656	62	4467
2026-01-18 03:44:56.40	291.03	17.39	-46.3	-47.9	19.2	0.00e+00	0	35	0	1004535808	63	4498
2026-01-18 03:44:57.41	290.87	17.31	-46.3	-47.9	19.2	0.00e+00	0	35	0	1006632960	63	4519
2026-01-18 03:44:58.42	290.71	17.22	-46.6	-48.3	18.8	0.00e+00	0	35	0	1008730112	63	4710
2026-01-18 03:44:59.43	290.55	17.14	-46.6	-48.2	18.8	0.00e+00	0	35	0	1010827264	64	4423
2026-01-18 03:45:00.44	290.39	17.05	-46.3	-47.8	19.1	0.00e+00	0	35	0	1012924416	64	4238
2026-01-18 03:45:01.45	290.24	16.97	-46.0	-47.5	19.4	0.00e+00	0	35	0	1013972992	64	4097
2026-01-18 03:45:02.45	290.08	16.88	-46.1	-47.6	19.5	0.00e+00	0	35	0	1016070144	63	4347
2026-01-18 03:45:03.46	289.93	16.80	-46.0	-47.4	19.6	0.00e+00	0	35	0	1018167296	63	4274
2026-01-18 03:45:04.47	289.77	16.71	-45.8	-47.2	19.8	0.00e+00	0	35	0	1020264448	63	4185
2026-01-18 03:45:05.48	289.62	16.63	-45.9	-47.4	19.6	0.00e+00	0	35	0	1022361600	63	4278
2026-01-18 03:45:06.48	289.47	16.55	-45.8	-47.2	19.8	0.00e+00	0	35	0	1023410176	63	4159
2026-01-18 03:45:07.49	289.32	16.46	-45.9	-47.4	19.6	0.00e+00	0	35	0	1025507328	63	4266
2026-01-18 03:45:08.50	289.16	16.38	-46.0	-47.5	19.5	0.00e+00	0	35	0	1027604480	63	4311
2026-01-18 03:45:09.51	289.01	16.29	-46.1	-47.6	19.4	0.00e+00	0	35	0	1029701632	63	4386
2026-01-18 03:45:10.51	288.87	16.21	-46.3	-47.8	19.2	0.00e+00	0	35	0	1031798784	63	4484
2026-01-18 03:45:11.52	288.72	16.12	-46.5	-48.1	19.0	0.00e+00	0	35	0	1032847360	63	4629
2026-01-18 03:45:12.53	288.57	16.04	-46.7	-48.3	18.6	0.00e+00	0	35	0	1034944512	64	4487
2026-01-18 03:45:13.54	288.42	15.96	-46.8	-48.5	18.4	0.00e+00	0	35	0	1037041664	64	4587
2026-01-18 03:45:14.54	288.28	15.87	-47.2	-49.1	18.0	0.00e+00	0	35	0	1039138816	64	4881
2026-01-18 03:45:15.55	288.13	15.79	-47.1	-48.9	18.2	0.00e+00	0	35	0	1041235968	65	4501
2026-01-18 03:45:16.56	287.99	15.71	-47.0	-48.7	18.3	0.00e+00	0	35	0	1042284544	65	4424
2026-01-18 03:45:17.57	287.85	15.62	-46.6	-48.2	18.7	0.00e+00	0	35	0	1044381696	65	4174
2026-01-18 03:45:18.58	287.70	15.54	-46.4	-48.0	18.9	0.00e+00	0	35	0	1046478848	64	4330
2026-01-18 03:45:19.59	287.56	15.46	-46.3	-47.8	19.0	0.00e+00	0	35	0	1048576000	64	4229
2026-01-18 03:45:20.59	287.42	15.37	-46.0	-47.5	19.5	0.00e+00	0	35	0	1050673152	63	4314
2026-01-18 03:45:21.60	287.28	15.29	-45.9	-47.3	19.7	0.00e+00	0	35	0	1051721728	63	4230
2026-01-18 03:45:22.61	287.14	15.21	-45.8	-47.2	19.8	0.00e+00	0	35	0	1053818880	63	4169
2026-01-18 03:45:23.62	287.00	15.12	-46.1	-47.5	19.5	0.00e+00	0	35	0	1055916032	63	4324
2026-01-18 03:45:24.62	286.87	15.04	-46.1	-47.6	19.4	0.00e+00	0	35	0	1058013184	63	4383
2026-01-18 03:45:25.63	286.73	14.96	-46.5	-48.1	19.0	0.00e+00	0	35	0	1060110336	63	4622
2026-01-18 03:45:26.64	286.59	14.88	-46.4	-48.0	19.0	0.00e+00	0	35	0	1061158912	63	4581
2026-01-18 03:45:27.64	286.46	14.80	-46.6	-48.3	18.7	0.00e+00	0	35	0	1063256064	63	4722
2026-01-18 03:45:28.65	286.33	14.71	-46.5	-48.1	18.8	0.00e+00	0	35	0	1065353216	64	4391
2026-01-18 03:45:29.66	286.19	14.63	-46.5	-48.1	18.8	0.00e+00	0	35	0	1067450368	64	4349
2026-01-18 03:45:30.67	286.06	14.55	-46.6	-48.3	18.7	0.00e+00	0	35	0	1069547520	64	4470
2026-01-18 03:45:31.68	285.93	14.47	-46.5	-48.1	18.8	0.00e+00	0	35	0	1070596096	64	4381
2026-01-18 03:45:32.69	285.79	14.39	-46.5	-48.1	18.9	0.00e+00	0	35	0	1072693248	64	4354
2026-01-18 03:45:33.69	285.66	14.30	-46.2	-47.8	19.1	0.00e+00	0	35	0	1074790400	64	4212
2026-01-18 03:45:34.70	285.53	14.22	-46.4	-48.0	18.9	0.00e+00	0	35	0	1076887552	64	4296
2026-01-18 03:45:35.71	285.40	14.14	-46.2	-47.8	19.1	0.00e+00	0	35	0	1078984704	64	4197
2026-01-18 03:45:36.72	285.27	14.06	-46.4	-47.9	19.1	0.00e+00	0	35	0	1081081856	63	4525
2026-01-18 03:45:37.73	285.15	13.98	-46.3	-47.9	19.1	0.00e+00	0	35	0	1082130432	63	4518
2026-01-18 03:45:38.73	285.02	13.90	-46.0	-47.5	19.5	0.00e+00	0	35	0	1084227584	63	4302
2026-01-18 03:45:39.74	284.89	13.82	-46.1	-47.6	19.3	0.00e+00	0	35	0	1086324736	63	4361
2026-01-18 03:45:40.75	284.77	13.74	-46.2	-47.7	19.2	0.00e+00	0	35	0	1088421888	63	4438
2026-01-18 03:45:41.76	284.64	13.66	-46.3	-47.8	19.1	0.00e+00	0	35	0	1089470464	63	4482
2026-01-18 03:45:42.76	284.52	13.58	-46.2	-47.7	19.2	0.00e+00	0	35	0	1091567616	63	4436
2026-01-18 03:45:43.77	284.39	13.50	-46.5	-48.1	18.8	0.00e+00	0	35	0	1093664768	63	4631
2026-01-18 03:45:44.78	284.27	13.42	-46.4	-48.0	18.9	0.00e+00	0	35	0	1095761920	63	4586
2026-01-18 03:45:45.79	284.15	13.33	-46.6	-48.2	18.8	0.00e+00	0	35	0	1097859072	63	4672
2026-01-18 03:45:46.80	284.03	13.25	-46.9	-48.7	18.2	0.00e+00	0	35	0	1098907648	64	4673
2026-01-18 03:45:47.80	283.91	13.18	-46.8	-48.6	18.3	0.00e+00	0	35	0	1101004800	64	4614
2026-01-18 03:45:48.81	283.79	13.10	-47.0	-48.8	18.1	0.00e+00	0	35	0	1103101952	64	4709
2026-01-18 03:45:49.82	283.67	13.02	-47.0	-48.8	18.1	0.00e+00	0	35	0	1105199104	64	4748
2026-01-18 03:45:50.83	283.55	12.94	-47.1	-48.9	18.0	0.00e+00	0	35	0	1107296256	64	4783
2026-01-18 03:45:51.84	283.43	12.86	-47.0	-48.8	18.1	0.00e+00	0	35	0	1109393408	64	4707
2026-01-18 03:45:52.85	283.31	12.78	-47.0	-48.7	18.1	0.00e+00	0	35	0	1110441984	64	4701
2026-01-18 03:45:53.85	283.19	12.70	-46.9	-48.6	18.2	0.00e+00	0	35	0	1112539136	64	4638
2026-01-18 03:45:54.86	283.08	12.62	-46.7	-48.4	18.5	0.00e+00	0	35	0	1114636288	64	4509
2026-01-18 03:45:55.87	282.96	12.54	-46.7	-48.4	18.5	0.00e+00	0	35	0	1116733440	64	4509
2026-01-18 03:45:56.88	282.85	12.46	-46.7	-48.4	18.5	0.00e+00	0	35	0	1117782016	64	4501
2026-01-18 03:45:57.88	282.73	12.38	-46.8	-48.5	18.4	0.00e+00	0	35	0	1119879168	64	4560
2026-01-18 03:45:58.89	282.62	12.31	-47.0	-48.7	18.1	0.00e+00	0	35	0	1121976320	64	4693
2026-01-18 03:45:59.90	282.51	12.23	-47.2	-49.0	17.9	0.00e+00	0	35	0	1124073472	64	4852
2026-01-18 03:46:00.91	282.39	12.15	-47.2	-49.1	17.8	0.00e+00	0	35	0	1126170624	65	4623
2026-01-18 03:46:01.92	282.28	12.07	-47.5	-49.4	17.5	0.00e+00	0	35	0	1128267776	65	4800
2026-01-18 03:46:02.93	282.17	11.99	-47.8	-49.8	17.1	0.00e+00	0	35	0	1129316352	66	4754
2026-01-18 03:46:03.93	282.06	11.92	-47.7	-49.8	17.2	0.00e+00	0	35	0	1131413504	66	4708
2026-01-18 03:46:04.94	281.95	11.84	-48.0	-50.2	16.8	0.00e+00	0	35	0	1133510656	66	4945
2026-01-18 03:46:05.95	281.84	11.76	-47.8	-49.9	17.0	0.00e+00	0	35	0	1135607808	66	4811
2026-01-18 03:46:06.96	281.73	11.68	-47.7	-49.8	17.1	0.00e+00	0	35	0	1137704960	66	4725
2026-01-18 03:46:07.97	281.62	11.61	-47.5	-49.4	17.4	0.00e+00	0	35	0	1138753536	66	4541
2026-01-18 03:46:08.97	281.51	11.53	-47.3	-49.2	17.7	0.00e+00	0	35	0	1140850688	66	4405
2026-01-18 03:46:09.98	281.41	11.45	-47.1	-48.9	18.0	0.00e+00	0	35	0	1142947840	66	4266
2026-01-18 03:46:10.99	281.30	11.38	-46.8	-48.5	18.3	0.00e+00	0	35	0	1145044992	65	4326
2026-01-18 03:46:12.00	281.19	11.30	-46.8	-48.5	18.3	0.00e+00	0	35	0	1146093568	65	4336
2026-01-18 03:46:13.01	281.09	11.22	-46.5	-48.1	18.7	0.00e+00	0	35	0	1148190720	64	4361
2026-01-18 03:46:14.02	280.98	11.15	-46.4	-48.0	18.7	0.00e+00	0	35	0	1150287872	64	4327
2026-01-18 03:46:15.02	280.88	11.07	-46.5	-48.1	18.6	0.00e+00	0	35	0	1152385024	64	4374
2026-01-18 03:46:16.03	280.77	11.00	-46.4	-48.0	18.8	0.00e+00	0	35	0	1154482176	64	4310
2026-01-18 03:46:17.04	280.67	10.92	-46.5	-48.2	18.6	0.00e+00	0	35	0	1156579328	64	4393
2026-01-18 03:46:18.05	280.57	10.84	-46.7	-48.5	18.3	0.00e+00	0	35	0	1157627904	64	4564
2026-01-18 03:46:19.06	280.46	10.77	-46.9	-48.7	18.0	0.00e+00	0	35	0	1159725056	64	4695
2026-01-18 03:46:20.06	280.36	10.69	-47.1	-49.0	17.8	0.00e+00	0	35	0	1161822208	64	4833
2026-01-18 03:46:21.07	280.26	10.62	-47.3	-49.2	17.5	0.00e+00	0	35	0	1163919360	65	4705
2026-01-18 03:46:22.08	280.16	10.54	-47.6	-49.6	17.2	0.00e+00	0	35	0	1166016512	65	4912
2026-01-18 03:46:23.09	280.06	10.47	-47.8	-50.0	16.8	0.00e+00	0	35	0	1167065088	66	4838
2026-01-18 03:46:24.10	279.96	10.39	-48.3	-50.6	16.2	0.00e+00	0	35	0	1169162240	67	4903
2026-01-18 03:46:25.11	279.86	10.32	-48.2	-50.4	16.4	0.00e+00	0	35	0	1171259392	67	4813
2026-01-18 03:46:26.11	279.76	10.24	-48.3	-50.6	16.2	0.00e+00	0	35	0	1173356544	67	4924
2026-01-18 03:46:27.12	279.67	10.17	-48.5	-50.9	15.9	0.00e+00	0	35	0	1175453696	67	5091
2026-01-18 03:46:28.12	279.57	10.10	-48.5	-51.0	15.8	0.00e+00	0	35	0	1176502272	67	5136
2026-01-18 03:46:29.14	279.47	10.02	-48.5	-51.0	15.8	0.00e+00	0	35	0	1178599424	67	5107
2026-01-18 03:46:30.14	279.37	9.95	-48.5	-50.9	15.8	0.00e+00	0	35	0	1180696576	67	5098
2026-01-18 03:46:31.15	279.28	9.87	-48.5	-51.0	15.8	0.00e+00	0	35	0	1182793728	67	5152
2026-01-18 03:46:32.16	279.18	9.80	-48.4	-50.8	16.0	0.00e+00	0	35	0	1184890880	67	5020
2026-01-18 03:46:33.17	279.09	9.73	-48.4	-50.8	16.0	0.00e+00	0	35	0	1185939456	67	5009
2026-01-18 03:46:34.18	278.99	9.65	-48.4	-50.8	16.0	0.00e+00	0	35	0	1188036608	67	5002
2026-01-18 03:46:35.18	278.90	9.58	-48.4	-50.8	16.0	0.00e+00	0	35	0	1190133760	67	4987
2026-01-18 03:46:36.19	278.81	9.51	-48.3	-50.7	16.1	0.00e+00	0	35	0	1192230912	67	4953
2026-01-18 03:46:37.20	278.71	9.43	-48.3	-50.7	16.0	0.00e+00	0	35	0	1194328064	67	4975
2026-01-18 03:46:38.21	278.62	9.36	-48.3	-50.7	16.0	0.00e+00	0	35	0	1195376640	67	4960
2026-01-18 03:46:39.22	278.53	9.29	-48.3	-50.7	16.1	0.00e+00	0	35	0	1197473792	67	4947
2026-01-18 03:46:40.23	278.44	9.22	-48.2	-50.5	16.2	0.00e+00	0	35	0	1199570944	67	4857
2026-01-18 03:46:41.23	278.35	9.14	-48.2	-50.6	16.1	0.00e+00	0	35	0	1201668096	67	4883
2026-01-18 03:46:42.24	278.25	9.07	-48.2	-50.6	16.2	0.00e+00	0	35	0	1203765248	67	4896
2026-01-18 03:46:43.25	278.16	9.00	-48.3	-50.7	16.0	0.00e+00	0	35	0	1204813824	67	4965
2026-01-18 03:46:44.26	278.07	8.93	-48.5	-50.9	15.8	0.00e+00	0	35	0	1206910976	67	5083
2026-01-18 03:46:45.27	277.98	8.85	-48.6	-51.1	15.6	0.00e+00	0	35	0	1209008128	67	5196
2026-01-18 03:46:46.27	277.90	8.78	-48.6	-51.2	15.5	0.00e+00	0	35	0	1211105280	67	5245
2026-01-18 03:46:47.28	277.81	8.71	-48.6	-51.3	15.4	0.00e+00	0	35	0	1213202432	67	5283
2026-01-18 03:46:48.29	277.72	8.64	-48.8	-51.4	15.3	0.00e+00	0	35	0	1214251008	68	5083
2026-01-18 03:46:49.30	277.63	8.57	-48.9	-51.7	15.0	0.00e+00	0	35	0	1216348160	68	5264
2026-01-18 03:46:50.30	277.55	8.50	-48.8	-51.5	15.2	0.00e+00	0	35	0	1218445312	68	5158
2026-01-18 03:46:51.31	277.46	8.43	-49.0	-51.8	15.0	0.00e+00	0	35	0	1220542464	68	5293
2026-01-18 03:46:52.32	277.37	8.36	-49.1	-52.0	14.8	0.00e+00	0	35	0	1222639616	68	5408
2026-01-18 03:46:53.33	277.29	8.28	-48.9	-51.6	15.1	0.00e+00	0	35	0	1223688192	68	5172
2026-01-18 03:46:54.34	277.20	8.21	-48.6	-51.2	15.5	0.00e+00	0	35	0	1225785344	68	4972
2026-01-18 03:46:55.35	277.12	8.14	-48.7	-51.3	15.4	0.00e+00	0	35	0	1227882496	68	4989
2026-01-18 03:46:56.35	277.03	8.07	-48.4	-50.9	15.8	0.00e+00	0	35	0	1229979648	68	4809
2026-01-18 03:46:57.36	276.95	8.00	-48.3	-50.7	16.0	0.00e+00	0	35	0	1232076800	68	4679
2026-01-18 03:46:58.37	276.86	7.93	-47.8	-50.0	16.6	0.00e+00	0	35	0	1233125376	67	4558
2026-01-18 03:46:59.38	276.78	7.86	-47.7	-49.8	16.7	0.00e+00	0	35	0	1235222528	67	4488
