passes_logs/2026/01/18/R3.2S_Murmansk/R3.2S_Murmansk__20260118_075842_KANOPUS-V_5_rec.log

#Pass ID: 20260118_075842_KANOPUS-V 5
#Satellite: KANOPUS-V 5
#Configuration: KANOPUS-V_8320
#almurnet v.1.7.20251203
#Start time: 2026-01-18 07:58:41

#Version: 2.2.20231116
#Station: R3.2S_Murmansk
#Location: 33.079688 lon 68.888172 lat
#TLE: 1 43876U 18111A   26017.66658644  .00002803  00000+0  12058-3 0  9992
#TLE: 2 43876  97.3688 286.1324 0001777  87.2776 272.8665 15.23451717391876

#Time	Az	El	Level	Level2	SNR	BER	BlckErr	Temp	State	Recorded	gain1	gain2
2026-01-18 07:58:41.72	165.13	1.96	-53.0	-61.9	3.8	7.45e-01	0	34	0	0	78	9541
2026-01-18 07:58:42.72	165.15	2.03	-53.0	-61.8	3.8	7.44e-01	0	34	104	0	77	10041
2026-01-18 07:58:43.73	165.17	2.10	-53.0	-61.9	3.8	7.46e-01	0	34	104	0	77	10084
2026-01-18 07:58:44.74	165.19	2.17	-53.0	-61.8	3.8	7.43e-01	0	34	104	0	77	10037
2026-01-18 07:58:45.75	165.21	2.24	-53.0	-61.8	3.8	7.45e-01	0	34	104	0	77	10006
2026-01-18 07:58:46.76	165.22	2.31	-53.0	-61.8	3.8	7.43e-01	0	34	104	0	77	10028
2026-01-18 07:58:47.76	165.24	2.39	-53.0	-61.8	3.8	7.45e-01	0	34	104	0	77	10030
2026-01-18 07:58:48.77	165.26	2.46	-53.0	-61.8	3.8	7.46e-01	0	34	104	0	77	10036
2026-01-18 07:58:49.78	165.28	2.53	-53.0	-61.8	3.8	7.45e-01	0	34	104	0	77	10040
2026-01-18 07:58:50.79	165.30	2.60	-53.0	-61.8	3.8	7.45e-01	0	34	104	0	77	10046
2026-01-18 07:58:51.80	165.32	2.67	-53.0	-61.9	3.8	7.46e-01	0	34	104	0	77	10063
2026-01-18 07:58:52.81	165.34	2.75	-53.0	-61.8	3.8	7.45e-01	0	34	104	0	77	10014
2026-01-18 07:58:53.81	165.36	2.82	-53.0	-61.8	3.8	7.46e-01	0	34	104	0	77	10019
2026-01-18 07:58:54.82	165.38	2.89	-53.0	-61.8	3.8	7.46e-01	0	34	104	0	77	10041
2026-01-18 07:58:55.83	165.39	2.97	-53.0	-61.8	3.8	7.45e-01	0	34	104	0	77	10011
2026-01-18 07:58:56.84	165.41	3.04	-53.0	-61.8	3.8	7.46e-01	0	34	104	0	77	10039
2026-01-18 07:58:57.85	165.43	3.12	-53.0	-61.8	3.8	7.45e-01	0	34	104	0	77	10057
2026-01-18 07:58:58.85	165.45	3.19	-53.0	-61.8	3.8	7.45e-01	0	34	104	0	77	10011
2026-01-18 07:58:59.86	165.47	3.27	-53.0	-61.8	3.8	7.45e-01	0	34	104	0	77	10040
2026-01-18 07:59:00.87	165.49	3.34	-53.0	-61.8	3.8	7.46e-01	0	34	104	0	77	10052
2026-01-18 07:59:01.88	165.51	3.42	-53.0	-61.8	3.8	7.45e-01	0	34	104	0	77	10023
2026-01-18 07:59:02.89	165.53	3.49	-53.0	-61.8	3.8	7.47e-01	0	34	104	0	77	10010
2026-01-18 07:59:03.89	165.55	3.57	-53.0	-61.8	3.8	7.45e-01	0	35	104	0	77	10039
2026-01-18 07:59:04.90	165.57	3.64	-53.0	-61.8	3.8	7.44e-01	0	35	104	0	77	10007
2026-01-18 07:59:05.91	165.59	3.72	-53.0	-61.8	3.8	7.45e-01	0	35	104	0	77	10033
2026-01-18 07:59:06.92	165.61	3.80	-53.0	-61.8	3.8	7.45e-01	0	35	104	0	77	10043
2026-01-18 07:59:07.93	165.64	3.87	-53.0	-61.8	3.8	7.45e-01	0	35	104	0	77	10033
2026-01-18 07:59:08.93	165.66	3.95	-53.0	-61.9	3.8	7.47e-01	0	35	104	0	77	10060
2026-01-18 07:59:09.94	165.68	4.03	-53.0	-61.9	3.8	7.46e-01	0	35	104	0	77	10087
2026-01-18 07:59:10.95	165.70	4.11	-53.0	-61.8	3.8	7.46e-01	0	35	104	0	77	10023
2026-01-18 07:59:11.96	165.72	4.18	-53.0	-61.8	3.8	7.45e-01	0	35	104	0	77	10003
2026-01-18 07:59:12.96	165.74	4.26	-53.0	-61.8	3.8	7.45e-01	0	35	104	0	77	10019
2026-01-18 07:59:13.97	165.76	4.34	-53.0	-61.8	3.8	7.46e-01	0	35	104	0	77	10018
2026-01-18 07:59:14.98	165.78	4.42	-53.0	-61.9	3.8	7.46e-01	0	35	104	0	77	10062
2026-01-18 07:59:15.99	165.81	4.50	-53.0	-61.8	3.8	7.46e-01	0	35	104	0	77	9990
2026-01-18 07:59:17.00	165.83	4.58	-53.0	-61.8	3.8	7.45e-01	0	35	104	0	77	10028
2026-01-18 07:59:18.01	165.85	4.66	-51.7	-61.7	3.8	7.45e-01	0	35	104	0	75	11145
2026-01-18 07:59:19.01	165.87	4.74	-51.6	-61.7	3.8	7.47e-01	0	35	104	0	75	11128
2026-01-18 07:59:20.02	165.89	4.82	-48.1	-50.9	9.5	6.30e-01	0	35	104	0	67	5059
2026-01-18 07:59:21.03	165.92	4.90	-47.8	-50.5	10.2	6.24e-01	0	35	0	14680064	67	4843
2026-01-18 07:59:22.04	165.94	4.98	-47.0	-49.6	11.1	6.18e-01	0	35	0	29360128	66	4602
2026-01-18 07:59:23.05	165.96	5.07	-46.9	-49.4	11.2	6.18e-01	0	35	0	46137344	65	4808
2026-01-18 07:59:24.06	165.98	5.15	-53.2	-61.9	3.8	7.46e-01	0	35	104	52428800	77	10125
2026-01-18 07:59:25.06	166.01	5.23	-50.2	-54.0	6.9	6.63e-01	0	35	0	54525952	72	5408
2026-01-18 07:59:26.07	166.03	5.31	-48.7	-51.7	9.0	6.34e-01	0	35	0	71303168	67	5592
2026-01-18 07:59:27.07	166.05	5.39	-47.4	-50.0	10.6	6.20e-01	0	35	0	85983232	66	4841
2026-01-18 07:59:28.08	166.07	5.48	-51.1	-55.9	5.3	6.97e-01	0	35	0	98566144	72	6791
2026-01-18 07:59:29.09	166.10	5.56	-46.5	-48.9	11.7	6.15e-01	0	35	0	115343360	65	4520
2026-01-18 07:59:30.10	166.12	5.65	-46.3	-48.7	12.0	6.14e-01	0	35	0	130023424	64	4657
2026-01-18 07:59:31.11	166.15	5.73	-46.1	-48.4	12.2	6.13e-01	0	35	0	144703488	64	4506
2026-01-18 07:59:32.11	166.17	5.81	-46.2	-48.6	12.1	6.14e-01	0	35	0	161480704	63	4880
2026-01-18 07:59:33.12	166.19	5.90	-46.1	-48.4	12.3	6.14e-01	0	35	0	176160768	63	4793
2026-01-18 07:59:34.13	166.22	5.99	-46.0	-48.3	12.4	6.13e-01	0	35	0	192937984	63	4736
2026-01-18 07:59:35.14	166.24	6.07	-45.9	-48.1	12.6	6.12e-01	0	35	0	207618048	63	4649
2026-01-18 07:59:36.15	166.27	6.16	-45.8	-48.0	12.7	6.12e-01	0	35	0	224395264	63	4585
2026-01-18 07:59:37.15	166.29	6.24	-46.0	-48.3	12.5	6.13e-01	0	35	0	239075328	63	4713
2026-01-18 07:59:38.16	166.32	6.33	-45.9	-48.1	12.7	6.13e-01	0	35	0	253755392	63	4623
2026-01-18 07:59:39.17	166.34	6.42	-45.9	-48.1	12.7	6.13e-01	0	35	0	270532608	63	4617
2026-01-18 07:59:40.18	166.37	6.51	-45.9	-48.3	12.6	5.88e-01	0	35	0	285212672	63	4758
2026-01-18 07:59:41.18	166.39	6.59	-46.2	-48.7	12.3	5.91e-01	0	35	0	299892736	63	4947
2026-01-18 07:59:42.19	166.42	6.68	-45.6	-48.0	13.0	5.88e-01	0	35	0	316669952	63	4546
2026-01-18 07:59:43.20	166.44	6.77	-45.6	-48.0	12.9	5.88e-01	0	35	0	331350016	63	4581
2026-01-18 07:59:44.21	166.47	6.86	-45.9	-48.3	12.7	5.89e-01	0	35	0	346030080	63	4711
2026-01-18 07:59:45.22	166.49	6.95	-45.4	-47.8	13.1	5.89e-01	0	35	0	362807296	62	4726
2026-01-18 07:59:46.23	166.52	7.04	-46.0	-48.4	12.6	5.90e-01	0	35	0	379584512	62	5087
2026-01-18 07:59:47.23	166.55	7.13	-45.9	-48.3	12.7	5.88e-01	0	35	0	394264576	62	5012
2026-01-18 07:59:48.24	166.57	7.23	-45.7	-48.1	12.9	5.89e-01	0	35	0	408944640	62	4886
2026-01-18 07:59:49.24	166.60	7.32	-45.6	-47.9	13.1	5.88e-01	0	35	0	425721856	62	4787
2026-01-18 07:59:50.25	166.63	7.41	-45.5	-47.8	13.2	5.88e-01	0	35	0	440401920	62	4731
2026-01-18 07:59:51.26	166.65	7.50	-45.4	-47.7	13.3	5.87e-01	0	35	0	455081984	62	4688
2026-01-18 07:59:52.27	166.68	7.59	-45.4	-47.7	13.3	5.88e-01	0	35	0	471859200	62	4682
2026-01-18 07:59:53.27	166.71	7.69	-45.5	-47.8	13.2	5.88e-01	0	35	0	486539264	62	4733
2026-01-18 07:59:54.28	166.73	7.78	-45.5	-47.8	13.2	5.88e-01	0	35	0	501219328	62	4721
2026-01-18 07:59:55.29	166.76	7.88	-45.2	-47.5	13.5	5.86e-01	0	35	0	517996544	62	4583
2026-01-18 07:59:56.30	166.79	7.97	-45.3	-47.6	13.4	5.88e-01	0	36	0	532676608	62	4636
2026-01-18 07:59:57.30	166.82	8.07	-45.3	-47.6	13.4	5.87e-01	0	35	0	547356672	62	4623
2026-01-18 07:59:58.31	166.85	8.16	-45.3	-47.6	13.4	5.87e-01	0	35	0	564133888	62	4633
2026-01-18 07:59:59.32	166.88	8.26	-45.3	-47.6	13.5	5.86e-01	0	35	0	578813952	62	4611
2026-01-18 08:00:00.33	166.90	8.35	-45.1	-47.4	13.7	5.87e-01	0	35	0	595591168	62	4523
2026-01-18 08:00:01.34	166.93	8.45	-45.2	-47.5	13.6	5.87e-01	0	36	0	610271232	62	4557
2026-01-18 08:00:02.35	166.96	8.55	-45.2	-47.5	13.6	5.86e-01	0	35	0	627048448	62	4550
2026-01-18 08:00:03.35	166.99	8.65	-44.9	-47.2	13.9	5.87e-01	0	35	0	641728512	61	4670
2026-01-18 08:00:04.36	167.02	8.75	-45.2	-47.6	13.5	5.87e-01	0	36	0	656408576	61	4892
2026-01-18 08:00:05.37	167.05	8.85	-45.0	-47.3	13.7	5.87e-01	0	35	0	673185792	61	4746
2026-01-18 08:00:06.38	167.08	8.95	-44.9	-47.2	13.8	5.86e-01	0	36	0	687865856	61	4684
2026-01-18 08:00:07.38	167.11	9.05	-45.0	-47.3	13.8	5.86e-01	0	36	0	702545920	61	4721
2026-01-18 08:00:08.39	167.14	9.15	-44.9	-47.2	13.9	5.87e-01	0	36	0	719323136	61	4672
2026-01-18 08:00:09.40	167.17	9.25	-45.0	-47.3	13.8	5.86e-01	0	36	0	734003200	61	4720
2026-01-18 08:00:10.41	167.20	9.35	-44.8	-47.1	14.0	5.86e-01	0	36	0	748683264	61	4602
2026-01-18 08:00:11.42	167.24	9.45	-44.8	-47.1	14.0	5.86e-01	0	36	0	765460480	61	4625
2026-01-18 08:00:12.43	167.27	9.56	-44.8	-47.1	14.0	5.86e-01	0	35	0	782237696	61	4608
2026-01-18 08:00:13.44	167.30	9.66	-44.9	-47.1	13.9	6.02e-01	0	36	0	796917760	61	4628
2026-01-18 08:00:14.45	167.33	9.77	-44.7	-46.9	14.1	6.02e-01	0	36	0	811597824	61	4524
2026-01-18 08:00:15.45	167.36	9.87	-44.7	-46.9	14.1	6.03e-01	0	36	0	828375040	61	4542
2026-01-18 08:00:16.46	167.39	9.98	-44.7	-47.0	14.0	6.04e-01	0	35	0	843055104	61	4566
2026-01-18 08:00:17.47	167.43	10.08	-44.6	-46.8	14.2	6.04e-01	0	36	0	857735168	61	4482
2026-01-18 08:00:18.47	167.46	10.19	-45.1	-47.3	13.7	6.03e-01	0	36	0	874512384	61	4736
2026-01-18 08:00:19.48	167.49	10.30	-44.6	-46.9	14.1	6.01e-01	0	36	0	889192448	61	4515
2026-01-18 08:00:20.49	167.53	10.40	-44.5	-46.7	14.3	6.05e-01	0	36	0	903872512	61	4407
2026-01-18 08:00:21.49	167.56	10.51	-44.6	-46.9	14.2	6.05e-01	0	35	0	920649728	61	4500
2026-01-18 08:00:22.50	167.59	10.62	-44.5	-46.7	14.3	6.03e-01	0	36	0	935329792	61	4427
2026-01-18 08:00:23.51	167.63	10.73	-44.6	-46.8	14.3	6.04e-01	0	36	0	950009856	61	4463
2026-01-18 08:00:24.52	167.66	10.84	-44.5	-46.7	14.3	6.06e-01	0	36	0	966787072	61	4404
2026-01-18 08:00:25.53	167.70	10.95	-44.4	-46.6	14.4	6.04e-01	0	35	0	983564288	60	4620
2026-01-18 08:00:26.53	167.73	11.06	-44.4	-46.6	14.4	6.02e-01	0	36	0	998244352	60	4614
2026-01-18 08:00:27.54	167.77	11.18	-44.3	-46.5	14.5	5.99e-01	0	36	0	1012924416	60	4576
2026-01-18 08:00:28.55	167.81	11.29	-44.4	-46.6	14.4	6.04e-01	0	36	0	1029701632	60	4604
2026-01-18 08:00:29.56	167.84	11.40	-44.1	-46.3	14.8	6.02e-01	0	36	0	1044381696	60	4442
2026-01-18 08:00:30.57	167.88	11.52	-44.2	-46.4	14.6	6.02e-01	0	36	0	1059061760	60	4501
2026-01-18 08:00:31.57	167.91	11.63	-44.1	-46.3	14.7	6.04e-01	0	36	0	1075838976	60	4459
2026-01-18 08:00:32.58	167.95	11.75	-44.1	-46.3	14.7	6.01e-01	0	36	0	1090519040	60	4472
2026-01-18 08:00:33.59	167.99	11.87	-44.0	-46.2	14.8	6.01e-01	0	36	0	1105199104	60	4404
2026-01-18 08:00:34.60	168.03	11.99	-44.1	-46.2	14.8	6.02e-01	0	36	0	1121976320	60	4429
2026-01-18 08:00:35.60	168.06	12.10	-44.1	-46.2	14.8	6.03e-01	0	36	0	1136656384	59	4697
2026-01-18 08:00:36.61	168.10	12.22	-44.0	-46.2	14.8	6.03e-01	0	36	0	1151336448	59	4668
2026-01-18 08:00:37.62	168.14	12.34	-44.1	-46.2	14.8	6.01e-01	0	36	0	1168113664	59	4678
2026-01-18 08:00:38.63	168.18	12.46	-44.1	-46.2	14.7	6.03e-01	0	36	0	1184890880	59	4705
2026-01-18 08:00:39.63	168.22	12.58	-43.9	-46.0	15.0	6.01e-01	0	35	0	1199570944	59	4571
2026-01-18 08:00:40.64	168.26	12.71	-43.8	-46.0	15.0	6.03e-01	0	36	0	1214251008	59	4549
2026-01-18 08:00:41.65	168.30	12.83	-43.9	-46.0	15.0	6.02e-01	0	36	0	1231028224	59	4573
2026-01-18 08:00:42.66	168.34	12.95	-43.7	-45.8	15.2	6.03e-01	0	36	0	1245708288	59	4454
2026-01-18 08:00:43.66	168.38	13.08	-43.8	-45.9	15.1	6.03e-01	0	36	0	1260388352	59	4522
2026-01-18 08:00:44.67	168.42	13.20	-43.6	-45.8	15.2	6.02e-01	0	36	0	1277165568	59	4447
2026-01-18 08:00:45.68	168.46	13.33	-43.7	-45.8	15.2	6.02e-01	0	36	0	1291845632	59	4469
2026-01-18 08:00:46.69	168.51	13.46	-43.7	-45.8	15.2	6.04e-01	0	36	0	1306525696	59	4462
2026-01-18 08:00:47.70	168.55	13.58	-43.8	-45.9	15.2	6.01e-01	0	36	0	1323302912	59	4499
2026-01-18 08:00:48.70	168.59	13.71	-43.5	-45.5	15.4	6.03e-01	0	36	0	1337982976	59	4340
2026-01-18 08:00:49.71	168.63	13.84	-43.4	-45.4	15.5	6.02e-01	0	36	0	1352663040	58	4525
2026-01-18 08:00:50.72	168.68	13.97	-43.4	-45.5	15.5	6.01e-01	0	36	0	1367343104	58	4554
2026-01-18 08:00:51.73	168.72	14.11	-43.4	-45.5	15.5	6.03e-01	0	36	0	1386217472	58	4551
2026-01-18 08:00:52.73	168.77	14.24	-43.4	-45.4	15.5	6.03e-01	0	36	0	1400897536	58	4538
2026-01-18 08:00:53.74	168.81	14.37	-43.2	-45.2	15.7	6.03e-01	0	36	0	1415577600	58	4417
2026-01-18 08:00:54.75	168.86	14.51	-43.0	-45.1	15.9	6.03e-01	0	36	0	1432354816	58	4351
2026-01-18 08:00:55.76	168.90	14.64	-43.0	-45.0	15.9	6.01e-01	0	36	0	1447034880	58	4326
2026-01-18 08:00:56.77	168.95	14.78	-43.0	-45.0	15.9	6.01e-01	0	36	0	1461714944	58	4332
2026-01-18 08:00:57.78	169.00	14.92	-42.8	-44.8	16.0	6.01e-01	0	36	0	1476395008	57	4478
2026-01-18 08:00:58.78	169.04	15.05	-42.8	-44.8	16.1	6.01e-01	0	36	0	1493172224	57	4446
2026-01-18 08:00:59.79	169.09	15.19	-42.7	-44.7	16.2	6.03e-01	0	36	0	1507852288	57	4394
2026-01-18 08:01:00.80	169.14	15.33	-42.6	-44.6	16.2	6.01e-01	0	36	0	1522532352	57	4375
2026-01-18 08:01:01.81	169.19	15.48	-42.6	-44.5	16.2	6.03e-01	0	36	0	1539309568	57	4339
2026-01-18 08:01:02.81	169.24	15.62	-42.5	-44.4	16.4	6.04e-01	0	36	0	1553989632	57	4276
2026-01-18 08:01:03.82	169.29	15.76	-42.4	-44.3	16.4	6.01e-01	0	36	0	1568669696	56	4490
2026-01-18 08:01:04.83	169.34	15.91	-42.4	-44.3	16.5	6.02e-01	0	36	0	1585446912	56	4468
2026-01-18 08:01:05.83	169.39	16.05	-42.4	-44.3	16.5	6.03e-01	0	36	0	1602224128	56	4465
2026-01-18 08:01:06.84	169.44	16.20	-42.4	-44.3	16.5	6.02e-01	0	36	0	1616904192	56	4454
2026-01-18 08:01:07.85	169.49	16.35	-42.2	-44.2	16.5	6.02e-01	0	36	0	1631584256	56	4392
2026-01-18 08:01:08.86	169.54	16.50	-42.3	-44.2	16.5	6.03e-01	0	36	0	1648361472	56	4426
2026-01-18 08:01:09.87	169.60	16.65	-42.3	-44.2	16.5	6.02e-01	0	36	0	1663041536	56	4415
2026-01-18 08:01:10.87	169.65	16.80	-42.2	-44.1	16.6	6.01e-01	0	36	0	1677721600	56	4364
2026-01-18 08:01:11.88	169.70	16.95	-42.2	-44.2	16.6	6.03e-01	0	36	0	1694498816	56	4396
2026-01-18 08:01:12.89	169.76	17.11	-42.3	-44.2	16.6	6.00e-01	0	36	0	1709178880	56	4437
2026-01-18 08:01:13.90	169.81	17.26	-42.2	-44.2	16.6	6.02e-01	0	36	0	1723858944	56	4401
2026-01-18 08:01:14.91	169.87	17.42	-42.2	-44.2	16.6	6.03e-01	0	36	0	1740636160	56	4408
2026-01-18 08:01:15.91	169.93	17.57	-42.2	-44.2	16.6	6.00e-01	0	36	0	1755316224	56	4392
2026-01-18 08:01:16.92	169.98	17.73	-42.1	-44.1	16.6	6.04e-01	0	36	0	1769996288	56	4351
2026-01-18 08:01:17.93	170.04	17.89	-42.1	-44.1	16.6	6.01e-01	0	36	0	1786773504	56	4381
2026-01-18 08:01:18.94	170.10	18.06	-42.0	-44.0	16.7	6.00e-01	0	36	0	1803550720	56	4329
2026-01-18 08:01:19.94	170.16	18.22	-42.1	-44.2	16.8	6.01e-01	0	36	0	1818230784	55	4671
2026-01-18 08:01:20.95	170.22	18.38	-42.2	-44.2	16.7	6.01e-01	0	36	0	1832910848	55	4688
2026-01-18 08:01:21.96	170.28	18.55	-42.2	-44.3	16.7	6.02e-01	0	36	0	1849688064	55	4740
2026-01-18 08:01:22.97	170.34	18.72	-42.1	-44.1	16.7	6.01e-01	0	36	0	1864368128	55	4646
2026-01-18 08:01:23.97	170.40	18.89	-41.9	-43.9	16.9	6.02e-01	0	36	0	1879048192	55	4538
2026-01-18 08:01:24.98	170.47	19.06	-41.7	-43.7	17.1	6.03e-01	0	36	0	1895825408	55	4440
2026-01-18 08:01:25.99	170.53	19.23	-41.8	-43.8	17.1	6.02e-01	0	36	0	1910505472	55	4463
2026-01-18 08:01:27.00	170.59	19.40	-41.7	-43.7	17.1	5.99e-01	0	36	0	1925185536	55	4437
2026-01-18 08:01:28.00	170.66	19.57	-41.7	-43.6	17.2	5.96e-01	0	36	0	1941962752	55	4388
2026-01-18 08:01:29.01	170.73	19.75	-41.6	-43.5	17.3	6.01e-01	0	36	0	1956642816	55	4330
2026-01-18 08:01:30.02	170.79	19.93	-41.4	-43.3	17.5	5.98e-01	0	36	0	1971322880	54	4462
2026-01-18 08:01:31.03	170.86	20.11	-41.3	-43.2	17.5	6.00e-01	0	36	0	1988100096	54	4424
2026-01-18 08:01:32.04	170.93	20.29	-41.3	-43.2	17.5	5.97e-01	0	36	0	2004877312	54	4435
2026-01-18 08:01:33.05	171.00	20.47	-41.3	-43.2	17.5	5.98e-01	0	36	0	2019557376	54	4436
2026-01-18 08:01:34.05	171.07	20.66	-41.4	-43.3	17.4	6.02e-01	0	36	0	2034237440	54	4464
2026-01-18 08:01:35.06	171.14	20.84	-41.5	-43.4	17.4	5.99e-01	0	36	0	2051014656	54	4514
2026-01-18 08:01:36.07	171.21	21.03	-41.3	-43.1	17.6	5.99e-01	0	36	0	2065694720	54	4362
2026-01-18 08:01:37.07	171.29	21.22	-41.2	-43.0	17.7	5.98e-01	0	36	0	2080374784	54	4316
2026-01-18 08:01:38.08	171.36	21.41	-41.1	-42.9	17.8	5.90e-01	0	36	0	2097152000	54	4287
2026-01-18 08:01:39.09	171.44	21.60	-41.1	-42.9	17.8	5.85e-01	0	36	0	2111832064	54	4273
2026-01-18 08:01:40.10	171.51	21.80	-41.2	-43.0	17.8	5.85e-01	0	36	0	2126512128	54	4319
2026-01-18 08:01:41.11	171.59	22.00	-41.2	-43.0	17.8	5.86e-01	0	36	0	2143289344	54	4322
2026-01-18 08:01:42.11	171.67	22.19	-41.2	-43.1	17.7	5.85e-01	0	36	0	2157969408	54	4360
2026-01-18 08:01:43.12	171.75	22.39	-41.2	-43.0	17.7	5.85e-01	0	36	0	2172649472	54	4338
2026-01-18 08:01:44.12	171.83	22.59	-41.2	-43.0	17.8	5.85e-01	0	36	0	2189426688	54	4324
2026-01-18 08:01:45.13	171.91	22.80	-41.2	-43.1	17.7	5.86e-01	0	36	0	2206203904	54	4375
2026-01-18 08:01:46.14	171.99	23.01	-41.3	-43.2	17.7	5.86e-01	0	36	0	2220883968	54	4397
2026-01-18 08:01:47.15	172.08	23.21	-41.3	-43.2	17.6	5.85e-01	0	36	0	2235564032	54	4423
2026-01-18 08:01:48.16	172.16	23.43	-41.3	-43.2	17.6	5.86e-01	0	36	0	2252341248	54	4408
2026-01-18 08:01:49.17	172.25	23.64	-41.3	-43.2	17.7	5.85e-01	0	36	0	2267021312	54	4408
2026-01-18 08:01:50.18	172.34	23.85	-41.0	-42.9	17.9	5.86e-01	0	36	0	2281701376	54	4275
2026-01-18 08:01:51.18	172.42	24.07	-41.0	-42.9	17.9	5.85e-01	0	36	0	2298478592	54	4288
2026-01-18 08:01:52.19	172.51	24.29	-40.9	-42.8	18.0	5.86e-01	0	36	0	2313158656	53	4453
2026-01-18 08:01:53.20	172.61	24.51	-40.9	-42.8	17.9	5.86e-01	0	36	0	2327838720	53	4445
2026-01-18 08:01:54.21	172.70	24.73	-40.8	-42.7	18.0	5.85e-01	0	36	0	2344615936	53	4395
2026-01-18 08:01:55.21	172.79	24.96	-40.7	-42.6	18.1	5.84e-01	0	36	0	2359296000	53	4345
2026-01-18 08:01:56.22	172.89	25.18	-40.7	-42.6	18.1	5.86e-01	0	36	0	2373976064	53	4366
2026-01-18 08:01:57.23	172.99	25.42	-40.7	-42.6	18.1	5.85e-01	0	36	0	2390753280	53	4360
2026-01-18 08:01:58.24	173.09	25.65	-40.5	-42.4	18.2	5.85e-01	0	36	0	2407530496	53	4271
2026-01-18 08:01:59.25	173.19	25.88	-40.6	-42.5	18.2	5.85e-01	0	36	0	2422210560	53	4316
2026-01-18 08:02:00.25	173.29	26.12	-40.8	-42.6	18.1	5.85e-01	0	36	0	2436890624	53	4366
2026-01-18 08:02:01.26	173.39	26.36	-40.7	-42.6	18.1	5.86e-01	0	36	0	2453667840	53	4351
2026-01-18 08:02:02.27	173.50	26.60	-40.9	-42.7	18.0	5.85e-01	0	36	0	2468347904	53	4430
2026-01-18 08:02:03.27	173.60	26.85	-40.9	-42.7	18.0	5.85e-01	0	36	0	2483027968	53	4424
2026-01-18 08:02:04.28	173.71	27.09	-40.7	-42.4	18.3	5.86e-01	0	36	0	2499805184	53	4279
2026-01-18 08:02:05.29	173.82	27.35	-40.7	-42.4	18.2	5.85e-01	0	36	0	2514485248	53	4273
2026-01-18 08:02:06.30	173.94	27.60	-40.7	-42.4	18.2	5.85e-01	0	36	0	2529165312	53	4284
2026-01-18 08:02:07.31	174.05	27.86	-40.7	-42.4	18.2	5.85e-01	0	36	0	2545942528	53	4271
2026-01-18 08:02:08.31	174.17	28.11	-40.7	-42.3	18.3	5.86e-01	0	36	0	2560622592	53	4240
2026-01-18 08:02:09.32	174.29	28.37	-40.7	-42.3	18.3	5.86e-01	0	36	0	2575302656	53	4217
2026-01-18 08:02:10.33	174.41	28.64	-40.8	-42.4	18.2	5.85e-01	0	36	0	2592079872	53	4289
2026-01-18 08:02:11.34	174.53	28.91	-40.8	-42.5	18.3	5.86e-01	0	36	0	2608857088	53	4294
2026-01-18 08:02:12.35	174.65	29.18	-40.9	-42.6	18.2	5.86e-01	0	36	0	2623537152	53	4348
2026-01-18 08:02:13.35	174.78	29.45	-41.0	-42.7	18.1	5.86e-01	0	36	0	2638217216	53	4420
2026-01-18 08:02:14.36	174.91	29.72	-41.1	-42.8	17.9	5.85e-01	0	36	0	2654994432	53	4475
2026-01-18 08:02:15.37	175.04	30.00	-41.1	-42.9	17.9	5.86e-01	0	36	0	2669674496	53	4515
2026-01-18 08:02:16.38	175.18	30.29	-41.1	-42.9	17.9	5.86e-01	0	36	0	2684354560	53	4516
2026-01-18 08:02:17.39	175.31	30.57	-41.0	-42.8	18.0	5.85e-01	0	36	0	2699034624	53	4455
2026-01-18 08:02:18.39	175.45	30.86	-41.0	-42.8	18.0	5.85e-01	0	36	0	2715811840	53	4469
2026-01-18 08:02:19.40	175.59	31.15	-41.1	-42.8	17.9	5.99e-01	0	36	0	2730491904	53	4482
2026-01-18 08:02:20.41	175.74	31.45	-41.1	-42.9	17.9	5.99e-01	0	36	0	2745171968	53	4503
2026-01-18 08:02:21.41	175.88	31.75	-41.3	-43.0	17.8	5.98e-01	0	36	0	2761949184	53	4565
2026-01-18 08:02:22.42	176.04	32.05	-41.3	-43.1	17.8	6.00e-01	0	36	0	2776629248	53	4606
2026-01-18 08:02:23.43	176.19	32.35	-41.4	-43.2	17.6	6.00e-01	0	36	0	2793406464	53	4670
2026-01-18 08:02:24.44	176.35	32.66	-41.5	-43.2	17.6	5.98e-01	0	36	0	2808086528	53	4689
2026-01-18 08:02:25.45	176.51	32.98	-41.4	-43.2	17.7	5.99e-01	0	36	0	2824863744	53	4662
2026-01-18 08:02:26.45	176.67	33.29	-41.2	-43.0	17.9	5.98e-01	0	36	0	2839543808	53	4572
2026-01-18 08:02:27.46	176.83	33.61	-41.0	-42.9	17.9	5.99e-01	0	36	0	2854223872	53	4499
2026-01-18 08:02:28.47	177.00	33.94	-40.9	-42.7	18.0	5.98e-01	0	36	0	2871001088	53	4426
2026-01-18 08:02:29.47	177.17	34.26	-40.8	-42.6	18.1	5.98e-01	0	36	0	2885681152	53	4378
2026-01-18 08:02:30.48	177.35	34.59	-40.6	-42.4	18.2	5.99e-01	0	36	0	2900361216	53	4278
2026-01-18 08:02:31.49	177.53	34.93	-40.4	-42.2	18.3	6.04e-01	0	36	0	2917138432	52	4399
2026-01-18 08:02:32.50	177.72	35.27	-40.5	-42.3	18.4	5.98e-01	0	36	0	2931818496	52	4464
2026-01-18 08:02:33.50	177.90	35.61	-40.5	-42.3	18.3	6.02e-01	0	36	0	2946498560	52	4493
2026-01-18 08:02:34.51	178.10	35.95	-40.6	-42.5	18.2	5.96e-01	0	36	0	2963275776	52	4560
2026-01-18 08:02:35.52	178.29	36.31	-40.6	-42.5	18.1	6.02e-01	0	36	0	2977955840	52	4596
2026-01-18 08:02:36.53	178.50	36.66	-40.4	-42.4	18.2	6.01e-01	0	36	0	2994733056	52	4507
2026-01-18 08:02:37.54	178.70	37.02	-40.4	-42.3	18.3	5.96e-01	0	36	0	3009413120	52	4483
2026-01-18 08:02:38.55	178.91	37.39	-40.3	-42.3	18.3	5.97e-01	0	36	0	3026190336	52	4478
2026-01-18 08:02:39.55	179.13	37.75	-40.2	-42.3	18.3	5.97e-01	0	36	0	3040870400	52	4481
2026-01-18 08:02:40.56	179.35	38.12	-40.2	-42.3	18.2	5.99e-01	0	36	0	3055550464	52	4475
2026-01-18 08:02:41.57	179.58	38.50	-40.1	-42.3	18.3	5.99e-01	0	36	0	3072327680	52	4452
2026-01-18 08:02:42.58	179.81	38.88	-40.2	-42.3	18.3	5.98e-01	0	36	0	3087007744	52	4481
2026-01-18 08:02:43.59	180.05	39.27	-40.3	-42.4	18.3	6.00e-01	0	36	0	3101687808	52	4507
2026-01-18 08:02:44.59	180.29	39.65	-40.0	-42.1	18.5	5.99e-01	0	36	0	3118465024	51	4606
2026-01-18 08:02:45.60	180.54	40.05	-39.7	-41.8	18.7	5.96e-01	0	36	0	3133145088	51	4445
2026-01-18 08:02:46.61	180.79	40.44	-39.5	-41.7	18.8	6.03e-01	0	36	0	3147825152	51	4408
2026-01-18 08:02:47.61	181.05	40.84	-39.6	-41.7	18.8	5.97e-01	0	36	0	3164602368	51	4406
2026-01-18 08:02:48.62	181.32	41.25	-39.4	-41.5	18.9	5.99e-01	0	36	0	3179282432	50	4552
2026-01-18 08:02:49.63	181.60	41.66	-39.1	-41.2	19.0	5.96e-01	0	36	0	3196059648	50	4412
2026-01-18 08:02:50.64	181.88	42.08	-38.9	-41.0	19.2	5.96e-01	0	36	0	3210739712	49	4588
2026-01-18 08:02:51.65	182.18	42.50	-38.9	-41.0	19.2	5.98e-01	0	36	0	3227516928	49	4592
2026-01-18 08:02:52.65	182.47	42.93	-38.8	-41.0	19.2	5.96e-01	0	36	0	3242196992	49	4556
2026-01-18 08:02:53.66	182.78	43.36	-38.7	-40.9	19.1	5.99e-01	0	36	0	3256877056	49	4545
2026-01-18 08:02:54.67	183.10	43.79	-38.6	-40.9	19.2	5.96e-01	0	36	0	3273654272	49	4538
2026-01-18 08:02:55.67	183.42	44.23	-38.6	-40.9	19.2	5.97e-01	0	36	0	3288334336	49	4538
2026-01-18 08:02:56.68	183.75	44.67	-38.7	-41.0	19.2	5.99e-01	0	36	0	3303014400	49	4560
2026-01-18 08:02:57.69	184.10	45.12	-38.6	-40.8	19.2	5.99e-01	0	36	0	3319791616	49	4487
2026-01-18 08:02:58.69	184.45	45.57	-38.6	-40.8	19.3	5.99e-01	0	36	0	3334471680	49	4476
2026-01-18 08:02:59.70	184.82	46.03	-38.4	-40.6	19.4	5.99e-01	0	36	0	3349151744	48	4609
2026-01-18 08:03:00.71	185.19	46.49	-38.1	-40.2	19.5	6.00e-01	0	36	0	3365928960	48	4431
2026-01-18 08:03:01.72	185.58	46.96	-38.0	-40.1	19.7	6.01e-01	0	36	0	3380609024	48	4356
2026-01-18 08:03:02.73	185.98	47.43	-38.0	-40.1	19.7	6.00e-01	0	36	0	3397386240	48	4379
2026-01-18 08:03:03.74	186.39	47.91	-38.0	-40.1	19.6	5.95e-01	0	36	0	3412066304	48	4387
2026-01-18 08:03:04.74	186.81	48.39	-38.1	-40.1	19.7	6.00e-01	0	36	0	3428843520	48	4372
2026-01-18 08:03:05.75	187.25	48.87	-38.1	-40.1	19.7	5.98e-01	0	36	0	3443523584	48	4375
2026-01-18 08:03:06.76	187.71	49.36	-36.9	-39.0	19.2	5.99e-01	0	36	0	3458203648	45	4568
2026-01-18 08:03:07.77	188.18	49.85	-37.2	-39.3	19.0	5.99e-01	0	36	0	3474980864	45	4733
2026-01-18 08:03:08.77	188.66	50.35	-37.2	-39.4	19.1	5.99e-01	0	36	0	3489660928	45	4786
2026-01-18 08:03:09.78	189.16	50.85	-37.3	-39.5	19.1	5.97e-01	0	36	0	3504340992	45	4819
2026-01-18 08:03:10.79	189.68	51.35	-37.3	-39.5	19.0	5.96e-01	0	36	0	3521118208	45	4845
2026-01-18 08:03:11.80	190.21	51.86	-37.3	-39.6	18.9	5.97e-01	0	36	0	3535798272	45	4909
2026-01-18 08:03:12.80	190.76	52.37	-37.3	-39.5	19.0	5.96e-01	0	36	0	3550478336	45	4845
2026-01-18 08:03:13.81	191.34	52.88	-37.3	-39.4	19.1	5.98e-01	0	36	0	3567255552	45	4788
2026-01-18 08:03:14.82	191.93	53.40	-37.6	-39.8	18.8	5.96e-01	0	36	0	3581935616	45	5029
2026-01-18 08:03:15.83	192.55	53.92	-37.8	-39.9	18.7	5.97e-01	0	36	0	3598712832	46	4797
2026-01-18 08:03:16.83	193.19	54.44	-37.7	-39.7	18.9	5.99e-01	0	36	0	3613392896	46	4696
2026-01-18 08:03:17.84	193.85	54.97	-37.6	-39.6	19.0	6.00e-01	0	36	0	3630170112	46	4626
2026-01-18 08:03:18.85	194.54	55.49	-37.8	-39.8	18.8	5.99e-01	0	36	0	3644850176	46	4733
2026-01-18 08:03:19.86	195.26	56.02	-38.0	-40.1	18.6	6.01e-01	0	36	0	3659530240	46	4907
2026-01-18 08:03:20.87	196.00	56.55	-38.2	-40.3	18.5	6.00e-01	0	36	0	3676307456	46	4991
2026-01-18 08:03:21.87	196.77	57.08	-38.2	-40.3	18.5	5.99e-01	0	36	0	3690987520	46	5011
2026-01-18 08:03:22.88	197.58	57.61	-38.4	-40.4	18.5	6.01e-01	0	36	0	3705667584	47	4810
2026-01-18 08:03:23.89	198.41	58.14	-38.3	-40.3	18.5	6.01e-01	0	36	0	3722444800	47	4759
2026-01-18 08:03:24.90	199.29	58.67	-38.3	-40.3	18.5	6.00e-01	0	36	0	3737124864	47	4741
2026-01-18 08:03:25.90	200.19	59.20	-38.3	-40.4	18.5	5.98e-01	0	36	0	3751804928	47	4778
2026-01-18 08:03:26.91	201.13	59.72	-38.6	-40.7	18.3	5.98e-01	0	36	0	3768582144	47	4945
2026-01-18 08:03:27.92	202.12	60.25	-38.7	-40.7	18.3	5.99e-01	0	36	0	3783262208	47	4978
2026-01-18 08:03:28.93	203.14	60.77	-38.7	-40.8	18.3	5.95e-01	0	36	0	3800039424	47	5021
2026-01-18 08:03:29.93	204.20	61.28	-39.9	-42.4	18.3	5.99e-01	0	36	0	3814719488	50	5067
2026-01-18 08:03:30.94	205.32	61.80	-40.0	-42.6	18.3	6.01e-01	0	36	0	3831496704	50	5196
2026-01-18 08:03:31.95	206.48	62.31	-40.0	-42.3	18.4	5.99e-01	0	36	0	3846176768	50	5002
2026-01-18 08:03:32.96	207.69	62.81	-40.1	-42.3	18.5	6.00e-01	0	36	0	3860856832	50	5040
2026-01-18 08:03:33.97	208.96	63.31	-40.1	-42.4	18.3	5.99e-01	0	36	0	3877634048	50	5092
2026-01-18 08:03:34.98	210.27	63.79	-40.0	-42.4	18.4	5.99e-01	0	36	0	3892314112	50	5058
2026-01-18 08:03:35.99	211.65	64.27	-39.8	-42.2	18.5	5.98e-01	0	36	0	3906994176	50	4932
2026-01-18 08:03:36.99	213.07	64.73	-39.7	-42.0	18.7	5.98e-01	0	36	0	3923771392	50	4819
2026-01-18 08:03:38.00	214.56	65.19	-39.7	-42.0	18.6	5.98e-01	0	36	0	3938451456	50	4823
2026-01-18 08:03:39.01	216.11	65.64	-39.8	-42.4	18.4	5.99e-01	0	36	0	3953131520	50	5045
2026-01-18 08:03:40.02	217.73	66.06	-39.9	-42.3	18.3	5.97e-01	0	36	0	3967811584	50	5041
2026-01-18 08:03:41.03	219.41	66.48	-39.6	-42.0	18.6	5.98e-01	0	36	0	3986685952	50	4835
2026-01-18 08:03:42.03	221.14	66.87	-39.8	-42.2	18.5	6.00e-01	0	36	0	4001366016	50	4932
2026-01-18 08:03:43.04	222.95	67.25	-39.7	-42.0	18.7	5.99e-01	0	36	0	4016046080	50	4821
2026-01-18 08:03:44.05	224.83	67.61	-39.8	-42.1	18.6	5.96e-01	0	36	0	4032823296	50	4881
2026-01-18 08:03:45.06	226.77	67.95	-39.7	-42.1	18.6	5.98e-01	0	36	0	4047503360	50	4880
2026-01-18 08:03:46.06	228.75	68.27	-39.4	-41.7	18.9	5.98e-01	0	36	0	4062183424	50	4677
2026-01-18 08:03:47.07	230.82	68.56	-39.8	-41.9	18.7	6.01e-01	0	36	0	4076863488	50	4798
2026-01-18 08:03:48.08	232.95	68.83	-39.6	-41.7	18.8	5.99e-01	0	36	0	4093640704	50	4666
2026-01-18 08:03:49.09	235.13	69.07	-39.4	-41.7	18.9	6.00e-01	0	36	0	4108320768	50	4670
2026-01-18 08:03:50.09	237.34	69.28	-39.6	-41.8	18.7	5.99e-01	0	36	0	4123000832	50	4717
2026-01-18 08:03:51.10	239.63	69.46	-39.5	-41.7	18.8	5.99e-01	0	36	0	4139778048	50	4691
2026-01-18 08:03:52.11	241.95	69.62	-39.6	-41.9	18.8	6.00e-01	0	36	0	4154458112	50	4790
2026-01-18 08:03:53.12	244.30	69.74	-39.6	-41.7	18.9	5.99e-01	0	36	0	4169138176	50	4683
2026-01-18 08:03:54.13	246.68	69.83	-39.4	-41.8	18.8	6.01e-01	0	36	0	4185915392	50	4721
2026-01-18 08:03:55.13	249.06	69.89	-39.5	-41.9	18.8	5.99e-01	0	36	0	4202692608	50	4781
2026-01-18 08:03:56.14	251.47	69.91	-39.7	-41.9	18.7	5.99e-01	0	36	0	4217372672	50	4805
2026-01-18 08:03:57.15	253.89	69.91	-39.5	-41.5	18.9	5.99e-01	0	36	0	4232052736	50	4572
2026-01-18 08:03:58.16	256.30	69.86	-39.4	-41.5	19.0	6.00e-01	0	36	0	4248829952	50	4562
2026-01-18 08:03:59.17	258.69	69.79	-39.5	-41.8	18.8	5.98e-01	0	36	0	4263510016	50	4726
2026-01-18 08:04:00.17	261.04	69.69	-39.6	-41.9	18.7	5.98e-01	0	36	0	4278190080	50	4799
2026-01-18 08:04:01.18	263.38	69.55	-39.6	-41.8	18.9	5.99e-01	0	36	0	4294967296	50	4713
2026-01-18 08:04:02.19	265.68	69.38	-39.5	-41.6	18.9	6.04e-01	0	36	0	4309647360	50	4627
2026-01-18 08:04:03.20	267.94	69.19	-39.6	-41.7	18.9	5.99e-01	0	36	0	4324327424	50	4662
2026-01-18 08:04:04.20	270.13	68.96	-39.4	-41.6	19.0	5.98e-01	0	36	0	4341104640	50	4603
2026-01-18 08:04:05.21	272.29	68.71	-39.3	-41.4	19.1	5.98e-01	0	36	0	4355784704	50	4537
2026-01-18 08:04:06.22	274.39	68.43	-39.6	-41.6	18.9	5.99e-01	0	36	0	4370464768	50	4648
2026-01-18 08:04:07.23	276.42	68.13	-39.4	-41.5	19.1	6.01e-01	0	36	0	4387241984	50	4556
2026-01-18 08:04:08.23	278.38	67.81	-39.5	-41.6	19.0	6.00e-01	0	36	0	4404019200	50	4629
2026-01-18 08:04:09.24	280.29	67.46	-39.9	-42.2	18.6	6.00e-01	0	36	0	4418699264	50	4927
2026-01-18 08:04:10.25	282.14	67.09	-40.0	-42.3	18.5	6.01e-01	0	36	0	4433379328	50	5031
2026-01-18 08:04:11.26	283.92	66.70	-40.0	-42.2	18.6	6.01e-01	0	36	0	4450156544	50	4962
2026-01-18 08:04:12.27	285.64	66.30	-40.2	-42.2	18.6	6.01e-01	0	36	0	4464836608	51	4694
2026-01-18 08:04:13.27	287.27	65.88	-40.3	-42.4	18.4	6.00e-01	0	36	0	4479516672	51	4797
2026-01-18 08:04:14.28	288.86	65.45	-39.9	-42.2	18.6	5.99e-01	0	36	0	4496293888	51	4669
2026-01-18 08:04:15.29	290.38	65.00	-39.9	-42.2	18.6	5.97e-01	0	36	0	4510973952	51	4665
2026-01-18 08:04:16.30	291.84	64.54	-40.1	-42.4	18.4	6.01e-01	0	36	0	4525654016	51	4786
2026-01-18 08:04:17.31	293.25	64.06	-39.9	-42.0	18.7	6.01e-01	0	36	0	4542431232	51	4561
2026-01-18 08:04:18.31	294.58	63.59	-40.0	-41.9	18.8	5.99e-01	0	36	0	4557111296	51	4515
2026-01-18 08:04:19.32	295.88	63.10	-40.0	-42.0	18.7	5.99e-01	0	36	0	4571791360	51	4580
2026-01-18 08:04:20.33	297.12	62.60	-40.1	-42.2	18.6	5.97e-01	0	36	0	4588568576	51	4674
2026-01-18 08:04:21.33	298.29	62.10	-40.2	-42.2	18.6	5.98e-01	0	36	0	4605345792	51	4705
2026-01-18 08:04:22.34	299.43	61.59	-40.3	-42.4	18.5	6.00e-01	0	36	0	4620025856	51	4760
2026-01-18 08:04:23.35	300.53	61.07	-40.2	-42.2	18.7	6.00e-01	0	36	0	4634705920	51	4663
2026-01-18 08:04:24.36	301.58	60.56	-40.1	-42.0	18.8	6.00e-01	0	36	0	4651483136	51	4559
2026-01-18 08:04:25.37	302.59	60.03	-39.6	-41.5	19.1	5.98e-01	0	36	0	4666163200	51	4305
2026-01-18 08:04:26.37	303.54	59.51	-39.5	-41.3	19.2	5.97e-01	0	36	0	4680843264	50	4468
2026-01-18 08:04:27.38	304.47	58.99	-39.6	-41.6	19.0	5.97e-01	0	36	0	4697620480	50	4619
2026-01-18 08:04:28.38	305.35	58.46	-39.9	-42.0	18.7	5.98e-01	0	36	0	4712300544	50	4844
2026-01-18 08:04:29.39	306.21	57.93	-39.9	-42.0	18.8	5.99e-01	0	36	0	4726980608	50	4827
2026-01-18 08:04:30.40	307.03	57.40	-39.6	-41.6	19.0	5.99e-01	0	36	0	4743757824	50	4610
2026-01-18 08:04:31.41	307.82	56.87	-39.4	-41.3	19.1	6.01e-01	0	36	0	4758437888	50	4483
2026-01-18 08:04:32.42	308.58	56.34	-39.1	-41.1	19.3	6.03e-01	0	36	0	4773117952	50	4362
2026-01-18 08:04:33.43	309.32	55.82	-39.1	-41.1	19.3	6.00e-01	0	36	0	4789895168	50	4384
2026-01-18 08:04:34.44	310.02	55.29	-38.9	-40.9	19.3	6.02e-01	0	36	0	4806672384	49	4519
2026-01-18 08:04:35.45	310.70	54.76	-38.8	-40.8	19.4	5.99e-01	0	36	0	4821352448	49	4475
2026-01-18 08:04:36.45	311.35	54.25	-38.9	-40.9	19.3	5.99e-01	0	36	0	4836032512	49	4520
2026-01-18 08:04:37.46	311.98	53.72	-38.8	-40.8	19.5	6.01e-01	0	36	0	4852809728	49	4484
2026-01-18 08:04:38.47	312.59	53.21	-38.6	-40.5	19.6	6.00e-01	0	36	0	4867489792	49	4323
2026-01-18 08:04:39.47	313.17	52.70	-38.5	-40.5	19.6	6.00e-01	0	36	0	4882169856	49	4314
2026-01-18 08:04:40.48	313.73	52.18	-38.4	-40.4	19.7	6.00e-01	0	36	0	4898947072	48	4531
2026-01-18 08:04:41.49	314.28	51.68	-38.3	-40.3	19.7	6.02e-01	0	36	0	4913627136	48	4478
2026-01-18 08:04:42.49	314.80	51.17	-38.4	-40.4	19.7	6.02e-01	0	36	0	4928307200	48	4500
2026-01-18 08:04:43.50	315.31	50.67	-38.1	-40.2	19.7	6.01e-01	0	36	0	4945084416	48	4416
2026-01-18 08:04:44.51	315.81	50.17	-38.1	-40.3	19.7	6.01e-01	0	36	0	4959764480	48	4442
2026-01-18 08:04:45.52	316.28	49.68	-38.2	-40.3	19.7	6.00e-01	0	36	0	4974444544	48	4487
2026-01-18 08:04:46.53	316.75	49.19	-38.2	-40.3	19.6	6.00e-01	0	36	0	4991221760	48	4489
2026-01-18 08:04:47.54	317.19	48.70	-38.2	-40.3	19.6	6.02e-01	0	36	0	5007998976	48	4454
2026-01-18 08:04:48.55	317.63	48.22	-38.2	-40.3	19.7	6.02e-01	0	36	0	5022679040	48	4453
2026-01-18 08:04:49.56	318.04	47.74	-38.3	-40.4	19.7	6.04e-01	0	36	0	5037359104	48	4515
2026-01-18 08:04:50.57	318.45	47.27	-38.4	-40.5	19.7	6.01e-01	0	36	0	5054136320	48	4558
2026-01-18 08:04:51.57	318.84	46.81	-38.5	-40.5	19.6	6.02e-01	0	36	0	5068816384	48	4592
2026-01-18 08:04:52.58	319.22	46.34	-38.6	-40.6	19.6	6.02e-01	0	36	0	5083496448	48	4601
2026-01-18 08:04:53.59	319.60	45.88	-38.7	-40.7	19.5	6.05e-01	0	36	0	5100273664	48	4688
2026-01-18 08:04:54.60	319.96	45.43	-38.7	-40.8	19.5	6.03e-01	0	36	0	5114953728	48	4729
2026-01-18 08:04:55.61	320.31	44.98	-38.7	-40.8	19.4	6.01e-01	0	36	0	5129633792	48	4757
2026-01-18 08:04:56.62	320.65	44.53	-38.7	-40.8	19.4	6.01e-01	0	36	0	5146411008	48	4758
2026-01-18 08:04:57.62	320.97	44.09	-38.8	-41.0	19.3	6.05e-01	0	36	0	5163188224	48	4819
2026-01-18 08:04:58.63	321.30	43.66	-38.8	-40.8	19.4	6.01e-01	0	36	0	5177868288	48	4759
2026-01-18 08:04:59.64	321.61	43.23	-38.8	-40.8	19.4	6.01e-01	0	36	0	5192548352	48	4747
2026-01-18 08:05:00.65	321.91	42.80	-38.8	-40.8	19.4	6.01e-01	0	36	0	5209325568	48	4742
2026-01-18 08:05:01.66	322.21	42.37	-38.9	-40.8	19.3	6.03e-01	0	36	0	5224005632	48	4755
2026-01-18 08:05:02.67	322.50	41.96	-39.0	-41.0	19.2	6.02e-01	0	36	0	5238685696	48	4845
2026-01-18 08:05:03.67	322.77	41.55	-39.0	-41.1	19.2	6.01e-01	0	36	0	5255462912	48	4871
2026-01-18 08:05:04.68	323.05	41.14	-39.3	-41.3	19.0	6.03e-01	0	36	0	5270142976	49	4733
2026-01-18 08:05:05.69	323.31	40.73	-39.3	-41.3	19.1	6.00e-01	0	36	0	5284823040	49	4745
2026-01-18 08:05:06.70	323.57	40.33	-39.5	-41.6	18.8	6.01e-01	0	36	0	5299503104	49	4882
2026-01-18 08:05:07.70	323.82	39.94	-39.6	-41.7	18.8	6.02e-01	0	36	0	5316280320	49	4941
2026-01-18 08:05:08.71	324.07	39.55	-39.8	-41.9	18.7	6.01e-01	0	36	0	5330960384	50	4772
2026-01-18 08:05:09.72	324.31	39.16	-40.0	-42.0	18.7	6.01e-01	0	36	0	5345640448	50	4856
2026-01-18 08:05:10.73	324.55	38.78	-40.1	-42.2	18.5	6.01e-01	0	36	0	5364514816	50	4946
2026-01-18 08:05:11.73	324.77	38.41	-40.3	-42.4	18.3	6.01e-01	0	36	0	5379194880	51	4803
2026-01-18 08:05:12.74	325.00	38.03	-40.5	-42.6	18.3	6.03e-01	0	36	0	5393874944	51	4917
2026-01-18 08:05:13.75	325.22	37.66	-40.6	-42.8	18.1	6.03e-01	0	36	0	5408555008	51	4999
2026-01-18 08:05:14.76	325.43	37.30	-40.7	-42.8	18.0	6.00e-01	0	36	0	5425332224	52	4738
2026-01-18 08:05:15.77	325.64	36.94	-40.8	-42.9	18.0	6.04e-01	0	36	0	5440012288	52	4784
2026-01-18 08:05:16.78	325.85	36.58	-40.9	-43.0	17.9	6.02e-01	0	36	0	5454692352	52	4821
2026-01-18 08:05:17.79	326.05	36.23	-40.9	-42.9	18.0	6.03e-01	0	36	0	5471469568	52	4794
2026-01-18 08:05:18.79	326.24	35.88	-41.0	-43.0	17.9	6.02e-01	0	36	0	5486149632	52	4862
2026-01-18 08:05:19.80	326.43	35.54	-41.0	-43.0	17.9	6.03e-01	0	36	0	5500829696	52	4842
2026-01-18 08:05:20.81	326.62	35.20	-41.1	-43.1	17.9	6.01e-01	0	36	0	5517606912	52	4897
2026-01-18 08:05:21.82	326.80	34.86	-41.2	-43.2	17.8	6.04e-01	0	36	0	5532286976	52	4936
2026-01-18 08:05:22.83	326.98	34.53	-41.3	-43.3	17.7	6.03e-01	0	36	0	5549064192	53	4723
2026-01-18 08:05:23.83	327.15	34.20	-41.3	-43.4	17.6	6.00e-01	0	36	0	5563744256	53	4763
2026-01-18 08:05:24.84	327.33	33.88	-41.4	-43.5	17.5	6.02e-01	0	36	0	5580521472	53	4833
2026-01-18 08:05:25.85	327.49	33.56	-41.5	-43.6	17.5	6.02e-01	0	36	0	5595201536	53	4883
2026-01-18 08:05:26.86	327.66	33.24	-41.5	-43.6	17.5	6.02e-01	0	36	0	5609881600	53	4879
2026-01-18 08:05:27.87	327.82	32.92	-41.6	-43.7	17.4	6.04e-01	0	36	0	5626658816	53	4935
2026-01-18 08:05:28.87	327.98	32.62	-41.5	-43.5	17.5	6.05e-01	0	36	0	5641338880	53	4870
2026-01-18 08:05:29.88	328.13	32.31	-41.6	-43.6	17.5	6.06e-01	0	36	0	5656018944	53	4891
2026-01-18 08:05:30.89	328.28	32.01	-41.5	-43.5	17.6	6.04e-01	0	36	0	5672796160	53	4825
2026-01-18 08:05:31.90	328.43	31.70	-41.5	-43.5	17.6	6.04e-01	0	36	0	5687476224	53	4815
2026-01-18 08:05:32.91	328.58	31.41	-41.4	-43.4	17.6	6.05e-01	0	36	0	5702156288	53	4810
2026-01-18 08:05:33.91	328.72	31.12	-41.4	-43.4	17.6	6.03e-01	0	36	0	5718933504	53	4805
2026-01-18 08:05:34.92	328.86	30.83	-41.4	-43.4	17.6	6.02e-01	0	36	0	5733613568	53	4780
2026-01-18 08:05:35.93	329.00	30.54	-41.4	-43.4	17.6	6.01e-01	0	36	0	5750390784	53	4794
2026-01-18 08:05:36.94	329.14	30.26	-41.4	-43.4	17.6	6.02e-01	0	36	0	5765070848	53	4797
2026-01-18 08:05:37.94	329.27	29.98	-41.5	-43.5	17.5	6.01e-01	0	36	0	5781848064	53	4819
2026-01-18 08:05:38.95	329.40	29.70	-41.5	-43.5	17.5	6.03e-01	0	36	0	5796528128	53	4851
2026-01-18 08:05:39.96	329.53	29.43	-41.5	-43.5	17.5	6.03e-01	0	36	0	5811208192	53	4826
2026-01-18 08:05:40.97	329.66	29.15	-41.5	-43.4	17.5	6.02e-01	0	36	0	5827985408	53	4806
2026-01-18 08:05:41.98	329.78	28.89	-41.4	-43.4	17.6	6.02e-01	0	36	0	5842665472	53	4776
2026-01-18 08:05:42.98	329.90	28.62	-41.4	-43.4	17.5	6.01e-01	0	36	0	5857345536	53	4802
2026-01-18 08:05:43.99	330.02	28.36	-41.4	-43.4	17.6	6.00e-01	0	36	0	5874122752	53	4764
2026-01-18 08:05:45.00	330.14	28.10	-41.4	-43.4	17.5	6.01e-01	0	36	0	5888802816	53	4814
2026-01-18 08:05:46.01	330.26	27.84	-41.5	-43.5	17.5	5.99e-01	0	36	0	5903482880	53	4851
2026-01-18 08:05:47.01	330.37	27.59	-41.4	-43.4	17.6	6.00e-01	0	36	0	5920260096	53	4778
2026-01-18 08:05:48.02	330.48	27.34	-41.4	-43.5	17.5	6.03e-01	0	36	0	5934940160	53	4819
2026-01-18 08:05:49.03	330.59	27.09	-41.5	-43.5	17.5	6.02e-01	0	36	0	5951717376	53	4868
2026-01-18 08:05:50.04	330.70	26.84	-41.5	-43.5	17.4	6.04e-01	0	36	0	5966397440	53	4848
2026-01-18 08:05:51.05	330.81	26.60	-41.5	-43.5	17.5	6.00e-01	0	36	0	5983174656	53	4850
2026-01-18 08:05:52.06	330.91	26.36	-41.5	-43.5	17.4	6.03e-01	0	36	0	5997854720	53	4854
2026-01-18 08:05:53.07	331.01	26.12	-41.5	-43.5	17.5	6.03e-01	0	36	0	6012534784	53	4839
2026-01-18 08:05:54.07	331.12	25.89	-41.5	-43.5	17.5	6.00e-01	0	36	0	6029312000	53	4837
2026-01-18 08:05:55.08	331.22	25.65	-41.5	-43.5	17.4	5.98e-01	0	36	0	6043992064	53	4867
2026-01-18 08:05:56.09	331.31	25.42	-41.5	-43.5	17.4	6.01e-01	0	36	0	6058672128	53	4842
2026-01-18 08:05:57.10	331.41	25.19	-41.6	-43.6	17.4	6.01e-01	0	36	0	6075449344	53	4899
2026-01-18 08:05:58.11	331.51	24.97	-41.6	-43.6	17.3	6.02e-01	0	36	0	6090129408	53	4913
2026-01-18 08:05:59.12	331.60	24.74	-41.7	-43.7	17.3	6.02e-01	0	36	0	6104809472	53	4950
2026-01-18 08:06:00.12	331.69	24.52	-41.5	-43.6	17.4	6.02e-01	0	36	0	6121586688	53	4873
2026-01-18 08:06:01.11	331.78	24.31	-41.5	-43.6	17.4	6.00e-01	0	36	0	6136266752	53	4889
2026-01-18 08:06:02.12	331.87	24.09	-41.6	-43.6	17.3	6.00e-01	0	36	0	6150946816	53	4922
2026-01-18 08:06:03.13	331.96	23.87	-41.5	-43.5	17.4	6.01e-01	0	36	0	6167724032	53	4855
2026-01-18 08:06:04.13	332.05	23.66	-41.5	-43.5	17.4	5.94e-01	0	36	0	6184501248	53	4862
2026-01-18 08:06:05.14	332.13	23.45	-41.5	-43.6	17.4	6.03e-01	0	36	0	6199181312	53	4895
2026-01-18 08:06:06.15	332.22	23.24	-41.6	-43.7	17.4	5.72e-01	0	36	0	6213861376	53	4934
2026-01-18 08:06:07.16	332.30	23.03	-41.7	-43.7	17.2	6.03e-01	0	36	0	6230638592	53	4983
2026-01-18 08:06:08.17	332.39	22.83	-41.6	-43.7	17.3	6.01e-01	0	36	0	6245318656	53	4946
2026-01-18 08:06:09.18	332.47	22.62	-41.6	-43.8	17.2	5.97e-01	0	36	0	6259998720	53	4987
2026-01-18 08:06:10.18	332.55	22.43	-41.6	-43.8	17.2	5.94e-01	0	36	0	6276775936	53	4991
2026-01-18 08:06:11.19	332.63	22.23	-41.6	-43.7	17.2	6.01e-01	0	36	0	6291456000	53	4979
2026-01-18 08:06:12.20	332.70	22.03	-41.7	-43.8	17.1	6.00e-01	0	36	0	6306136064	53	5041
2026-01-18 08:06:13.21	332.78	21.83	-41.7	-43.8	17.2	6.00e-01	0	36	0	6322913280	54	4727
2026-01-18 08:06:14.22	332.86	21.64	-41.7	-43.8	17.2	6.01e-01	0	36	0	6337593344	54	4745
2026-01-18 08:06:15.23	332.93	21.45	-41.6	-43.8	17.2	6.00e-01	0	36	0	6354370560	54	4720
2026-01-18 08:06:16.23	333.01	21.26	-41.8	-43.9	17.1	5.99e-01	0	36	0	6369050624	54	4797
2026-01-18 08:06:17.24	333.08	21.07	-41.8	-44.0	17.0	6.01e-01	0	36	0	6385827840	54	4839
2026-01-18 08:06:18.25	333.15	20.88	-41.7	-43.9	17.1	6.03e-01	0	36	0	6400507904	54	4778
2026-01-18 08:06:19.25	333.22	20.70	-41.8	-43.9	17.1	6.00e-01	0	36	0	6415187968	54	4785
2026-01-18 08:06:20.26	333.29	20.52	-41.9	-44.0	17.0	6.03e-01	0	36	0	6431965184	54	4837
2026-01-18 08:06:21.27	333.36	20.33	-41.9	-44.0	17.0	6.02e-01	0	36	0	6446645248	54	4847
2026-01-18 08:06:22.28	333.43	20.15	-41.9	-44.1	17.0	5.94e-01	0	36	0	6461325312	54	4873
2026-01-18 08:06:23.29	333.50	19.98	-41.9	-44.0	17.0	5.99e-01	0	36	0	6478102528	54	4852
2026-01-18 08:06:24.29	333.57	19.80	-42.1	-44.2	16.8	6.00e-01	0	36	0	6492782592	54	4953
2026-01-18 08:06:25.30	333.63	19.62	-42.0	-44.1	16.9	6.01e-01	0	36	0	6507462656	54	4903
2026-01-18 08:06:26.31	333.70	19.45	-42.1	-44.2	16.8	6.00e-01	0	36	0	6522142720	54	4935
2026-01-18 08:06:27.32	333.76	19.28	-42.1	-44.2	16.8	6.03e-01	0	36	0	6538919936	54	4948
2026-01-18 08:06:28.33	333.83	19.11	-42.1	-44.2	16.8	5.94e-01	0	36	0	6555697152	54	4983
2026-01-18 08:06:29.34	333.89	18.94	-42.1	-44.2	16.8	5.93e-01	0	36	0	6570377216	54	4973
2026-01-18 08:06:30.35	333.95	18.77	-42.3	-44.4	16.7	5.88e-01	0	36	0	6587154432	55	4781
2026-01-18 08:06:31.35	334.01	18.60	-42.3	-44.4	16.7	5.87e-01	0	36	0	6601834496	55	4777
2026-01-18 08:06:32.36	334.07	18.44	-42.3	-44.4	16.6	5.97e-01	0	36	0	6616514560	55	4808
2026-01-18 08:06:33.37	334.13	18.27	-42.3	-44.4	16.6	5.94e-01	0	36	0	6631194624	55	4811
2026-01-18 08:06:34.37	334.19	18.11	-42.4	-44.6	16.5	5.92e-01	0	36	0	6647971840	55	4872
2026-01-18 08:06:35.38	334.25	17.95	-42.5	-44.6	16.4	6.01e-01	0	36	0	6662651904	55	4894
2026-01-18 08:06:36.39	334.31	17.79	-42.5	-44.6	16.5	5.94e-01	0	36	0	6677331968	55	4900
2026-01-18 08:06:37.40	334.37	17.63	-42.5	-44.7	16.4	6.01e-01	0	36	0	6694109184	55	4950
2026-01-18 08:06:38.41	334.42	17.48	-42.6	-44.7	16.4	5.99e-01	0	36	0	6708789248	55	4959
2026-01-18 08:06:39.41	334.48	17.32	-42.6	-44.8	16.3	6.03e-01	0	36	0	6723469312	55	5001
2026-01-18 08:06:40.42	334.53	17.17	-42.7	-44.8	16.3	5.99e-01	0	36	0	6740246528	55	5006
2026-01-18 08:06:41.43	334.59	17.01	-42.6	-44.7	16.2	5.93e-01	0	36	0	6757023744	56	4685
2026-01-18 08:06:42.44	334.64	16.86	-42.7	-44.8	16.1	5.92e-01	0	36	0	6771703808	56	4742
2026-01-18 08:06:43.44	334.70	16.71	-42.6	-44.7	16.2	5.90e-01	0	36	0	6786383872	56	4703
2026-01-18 08:06:44.45	334.75	16.56	-42.7	-44.8	16.1	5.92e-01	0	36	0	6803161088	56	4759
2026-01-18 08:06:45.46	334.80	16.41	-42.8	-44.9	16.0	5.93e-01	0	36	0	6817841152	56	4802
2026-01-18 08:06:46.47	334.85	16.27	-42.7	-44.9	16.1	5.95e-01	0	36	0	6832521216	56	4767
2026-01-18 08:06:47.48	334.91	16.12	-42.8	-44.9	16.0	6.04e-01	0	36	0	6849298432	56	4799
2026-01-18 08:06:48.49	334.96	15.97	-42.9	-45.1	15.8	6.02e-01	0	36	0	6863978496	56	4910
2026-01-18 08:06:49.49	335.01	15.83	-42.8	-45.0	15.9	6.02e-01	0	36	0	6878658560	56	4852
2026-01-18 08:06:50.50	335.06	15.69	-42.9	-45.1	15.8	6.02e-01	0	36	0	6895435776	56	4884
2026-01-18 08:06:51.51	335.11	15.55	-42.9	-45.1	15.9	5.86e-01	0	36	0	6910115840	56	4917
2026-01-18 08:06:52.52	335.15	15.40	-42.9	-45.1	15.8	5.86e-01	0	36	0	6924795904	56	4915
2026-01-18 08:06:53.53	335.20	15.26	-43.0	-45.2	15.8	5.85e-01	0	36	0	6941573120	56	4978
2026-01-18 08:06:54.53	335.25	15.13	-43.1	-45.3	15.7	5.84e-01	0	36	0	6958350336	56	5029
2026-01-18 08:06:55.54	335.30	14.99	-43.1	-45.3	15.7	5.86e-01	0	36	0	6973030400	56	5012
2026-01-18 08:06:56.55	335.35	14.85	-43.1	-45.3	15.7	5.85e-01	0	36	0	6987710464	56	5027
2026-01-18 08:06:57.56	335.39	14.72	-43.1	-45.4	15.6	5.85e-01	0	36	0	7004487680	56	5048
2026-01-18 08:06:58.57	335.44	14.58	-43.2	-45.4	15.6	5.84e-01	0	36	0	7019167744	57	4813
2026-01-18 08:06:59.57	335.48	14.45	-43.3	-45.5	15.5	5.86e-01	0	36	0	7033847808	57	4855
2026-01-18 08:07:00.58	335.53	14.32	-43.4	-45.6	15.4	5.85e-01	0	36	0	7050625024	57	4922
2026-01-18 08:07:01.59	335.57	14.18	-44.6	-45.6	15.6	5.86e-01	0	36	0	7065305088	60	4100
2026-01-18 08:07:02.60	335.62	14.05	-44.7	-45.7	15.6	5.84e-01	0	36	0	7079985152	60	4146
2026-01-18 08:07:03.61	335.66	13.92	-53.9	-62.8	3.8	7.46e-01	0	36	104	7086276608	78	10566
2026-01-18 08:07:04.61	335.70	13.79	-53.9	-62.8	3.8	7.48e-01	0	36	104	7086276608	78	10555
2026-01-18 08:07:05.62	335.75	13.67	-53.9	-62.7	3.8	7.46e-01	0	36	104	7086276608	78	10522
2026-01-18 08:07:06.63	335.79	13.54	-53.9	-62.7	3.8	7.45e-01	0	36	104	7086276608	78	10474
2026-01-18 08:07:07.64	335.83	13.41	-53.8	-62.7	3.8	7.46e-01	0	36	104	7086276608	78	10453
2026-01-18 08:07:08.64	335.87	13.29	-53.8	-62.7	3.8	7.45e-01	0	36	104	7086276608	78	10436
2026-01-18 08:07:09.65	335.92	13.16	-53.8	-62.7	3.8	7.45e-01	0	36	104	7086276608	78	10417
2026-01-18 08:07:10.66	335.96	13.04	-53.9	-62.7	3.8	7.45e-01	0	36	104	7086276608	78	10511
2026-01-18 08:07:11.67	336.00	12.91	-53.8	-62.6	3.8	7.45e-01	0	36	104	7086276608	78	10380
2026-01-18 08:07:12.68	336.04	12.79	-53.8	-62.6	3.8	7.45e-01	0	36	104	7086276608	78	10412
2026-01-18 08:07:13.68	336.08	12.67	-53.8	-62.7	3.8	7.44e-01	0	36	104	7086276608	78	10429
2026-01-18 08:07:14.69	336.12	12.55	-53.8	-62.7	3.8	7.45e-01	0	36	104	7086276608	78	10456
2026-01-18 08:07:15.70	336.16	12.43	-53.8	-62.6	3.8	7.46e-01	0	36	104	7086276608	78	10370
2026-01-18 08:07:16.71	336.20	12.31	-53.8	-62.6	3.8	7.46e-01	0	36	104	7086276608	78	10357
2026-01-18 08:07:17.72	336.23	12.19	-53.8	-62.6	3.8	7.45e-01	0	36	104	7086276608	78	10337
2026-01-18 08:07:18.73	336.27	12.07	-53.8	-62.6	3.8	7.44e-01	0	36	104	7086276608	78	10370
2026-01-18 08:07:19.73	336.31	11.96	-53.7	-62.6	3.8	7.46e-01	0	36	104	7086276608	78	10323
2026-01-18 08:07:20.74	336.35	11.84	-53.8	-62.6	3.8	7.46e-01	0	36	104	7086276608	78	10299
2026-01-18 08:07:21.75	336.39	11.72	-53.7	-62.6	3.8	7.46e-01	0	36	104	7086276608	78	10313
2026-01-18 08:07:22.75	336.42	11.61	-53.8	-62.6	3.8	7.44e-01	0	36	104	7086276608	78	10386
2026-01-18 08:07:23.76	336.46	11.50	-53.7	-62.5	3.8	7.45e-01	0	36	104	7086276608	78	10271
2026-01-18 08:07:24.77	336.50	11.38	-53.7	-62.5	3.8	7.44e-01	0	36	104	7086276608	78	10277
2026-01-18 08:07:25.78	336.53	11.27	-53.7	-62.5	3.8	7.47e-01	0	36	104	7086276608	78	10242
2026-01-18 08:07:26.79	336.57	11.16	-53.7	-62.5	3.8	7.45e-01	0	36	104	7086276608	78	10260
2026-01-18 08:07:27.79	336.60	11.05	-53.7	-62.5	3.8	7.46e-01	0	36	104	7086276608	78	10245
2026-01-18 08:07:28.80	336.64	10.94	-53.7	-62.5	3.8	7.46e-01	0	36	104	7086276608	78	10252
2026-01-18 08:07:29.81	336.67	10.83	-53.6	-62.5	3.8	7.44e-01	0	36	104	7086276608	78	10222
2026-01-18 08:07:30.82	336.71	10.72	-53.7	-62.5	3.8	7.44e-01	0	36	104	7086276608	78	10245
2026-01-18 08:07:31.83	336.74	10.61	-53.6	-62.5	3.8	7.46e-01	0	36	104	7086276608	78	10208
2026-01-18 08:07:32.83	336.78	10.50	-53.6	-62.5	3.8	7.44e-01	0	36	104	7086276608	78	10215
2026-01-18 08:07:33.84	336.81	10.39	-53.6	-62.5	3.8	7.46e-01	0	36	104	7086276608	78	10202
2026-01-18 08:07:34.85	336.84	10.28	-53.7	-62.5	3.8	7.45e-01	0	36	104	7086276608	78	10259
2026-01-18 08:07:35.86	336.88	10.18	-53.6	-62.4	3.8	7.45e-01	0	36	104	7086276608	78	10175
2026-01-18 08:07:36.87	336.91	10.07	-53.6	-62.5	3.8	7.44e-01	0	36	104	7086276608	78	10209
2026-01-18 08:07:37.87	336.94	9.97	-53.6	-62.4	3.8	7.44e-01	0	36	104	7086276608	78	10094
2026-01-18 08:07:38.88	336.98	9.86	-53.6	-62.5	3.8	7.46e-01	0	36	104	7086276608	78	10230
2026-01-18 08:07:39.89	337.01	9.76	-53.6	-62.4	3.8	7.42e-01	0	36	104	7086276608	78	10140
2026-01-18 08:07:40.89	337.04	9.66	-53.6	-62.4	3.8	7.45e-01	0	36	104	7086276608	78	10175
2026-01-18 08:07:41.90	337.07	9.55	-53.5	-62.4	3.8	7.45e-01	0	36	104	7086276608	78	10095
2026-01-18 08:07:42.91	337.10	9.45	-53.6	-62.4	3.8	7.45e-01	0	36	104	7086276608	78	10174
2026-01-18 08:07:43.92	337.13	9.35	-53.5	-62.4	3.8	7.44e-01	0	36	104	7086276608	78	10095
2026-01-18 08:07:44.93	337.17	9.25	-53.6	-62.4	3.8	7.45e-01	0	36	104	7086276608	78	10096
2026-01-18 08:07:45.93	337.20	9.15	-53.5	-62.3	3.8	7.43e-01	0	36	104	7086276608	78	10020
2026-01-18 08:07:46.94	337.23	9.05	-53.6	-62.4	3.8	7.45e-01	0	36	104	7086276608	78	10135
2026-01-18 08:07:47.95	337.26	8.95	-53.5	-62.3	3.8	7.46e-01	0	36	104	7086276608	78	10055
2026-01-18 08:07:48.96	337.29	8.85	-53.5	-62.3	3.8	7.46e-01	0	36	104	7086276608	78	10027
2026-01-18 08:07:49.97	337.32	8.75	-53.4	-62.3	3.8	7.44e-01	0	36	104	7086276608	78	9967
2026-01-18 08:07:50.97	337.35	8.65	-53.5	-62.4	3.8	7.46e-01	0	36	104	7086276608	78	10085
2026-01-18 08:07:51.98	337.38	8.56	-53.4	-62.3	3.8	7.45e-01	0	36	104	7086276608	78	9984
2026-01-18 08:07:52.99	337.41	8.46	-53.5	-62.3	3.8	7.44e-01	0	36	104	7086276608	78	10028
2026-01-18 08:07:54.00	337.44	8.36	-53.4	-62.2	3.8	7.46e-01	0	36	104	7086276608	78	9909
2026-01-18 08:07:55.01	337.46	8.27	-53.5	-62.3	3.8	7.46e-01	0	36	104	7086276608	78	10018
2026-01-18 08:07:56.02	337.49	8.17	-53.4	-62.2	3.8	7.45e-01	0	36	104	7086276608	78	9939
2026-01-18 08:07:57.03	337.52	8.08	-53.4	-62.3	3.8	7.48e-01	0	36	104	7086276608	78	10012
2026-01-18 08:07:58.03	337.55	7.98	-53.4	-62.2	3.8	7.45e-01	0	36	104	7086276608	78	9886
2026-01-18 08:07:59.04	337.58	7.89	-53.5	-62.3	3.8	7.46e-01	0	36	104	7086276608	78	10001
2026-01-18 08:08:00.05	337.61	7.79	-53.4	-62.2	3.8	7.45e-01	0	36	104	7086276608	78	9895
2026-01-18 08:08:01.05	337.63	7.70	-53.4	-62.2	3.8	7.45e-01	0	36	104	7086276608	78	9898
2026-01-18 08:08:02.06	337.66	7.61	-53.3	-62.2	3.8	7.46e-01	0	36	104	7086276608	78	9849
2026-01-18 08:08:03.07	337.69	7.52	-53.4	-62.3	3.8	7.46e-01	0	36	104	7086276608	78	9949
2026-01-18 08:08:04.08	337.72	7.42	-53.3	-62.2	3.8	7.46e-01	0	36	104	7086276608	78	9856
2026-01-18 08:08:05.09	337.74	7.33	-53.3	-62.2	3.8	7.46e-01	0	36	104	7086276608	78	9885
2026-01-18 08:08:06.09	337.77	7.24	-53.3	-62.1	3.8	7.46e-01	0	36	104	7086276608	78	9781
2026-01-18 08:08:07.10	337.80	7.15	-53.4	-62.2	3.8	7.45e-01	0	36	104	7086276608	78	9910
2026-01-18 08:08:08.11	337.82	7.06	-53.3	-62.1	3.8	7.45e-01	0	36	104	7086276608	78	9791
2026-01-18 08:08:09.12	337.85	6.97	-53.3	-62.1	3.8	7.45e-01	0	36	104	7086276608	78	9823
2026-01-18 08:08:10.12	337.88	6.88	-53.2	-62.0	3.8	7.46e-01	0	36	104	7086276608	78	9714
2026-01-18 08:08:11.13	337.90	6.79	-53.3	-62.2	3.8	7.45e-01	0	36	104	7086276608	78	9855
2026-01-18 08:08:12.14	337.93	6.71	-53.2	-62.0	3.8	7.45e-01	0	36	104	7086276608	78	9717
2026-01-18 08:08:13.15	337.95	6.62	-53.3	-62.1	3.8	7.44e-01	0	36	104	7086276608	78	9738
2026-01-18 08:08:14.16	337.98	6.53	-53.2	-62.0	3.8	7.45e-01	0	36	104	7086276608	78	9698
2026-01-18 08:08:15.17	338.01	6.44	-53.3	-62.1	3.8	7.46e-01	0	36	104	7086276608	78	9799
2026-01-18 08:08:16.17	338.03	6.36	-53.2	-62.0	3.8	7.45e-01	0	36	104	7086276608	78	9656
2026-01-18 08:08:17.18	338.06	6.27	-53.2	-62.0	3.8	7.47e-01	0	36	104	7086276608	78	9695
2026-01-18 08:08:18.19	338.08	6.18	-53.1	-62.0	3.8	7.44e-01	0	36	104	7086276608	78	9608
2026-01-18 08:08:19.20	338.11	6.10	-53.2	-62.1	3.8	7.45e-01	0	36	104	7086276608	78	9751
2026-01-18 08:08:20.21	338.13	6.01	-53.1	-62.0	3.8	7.46e-01	0	36	104	7086276608	78	9614
2026-01-18 08:08:21.21	338.15	5.93	-53.2	-62.0	3.8	7.45e-01	0	36	104	7086276608	78	9656
2026-01-18 08:08:22.22	338.18	5.84	-53.0	-61.9	3.8	7.45e-01	0	36	104	7086276608	78	9500
2026-01-18 08:08:23.23	338.20	5.76	-53.2	-62.0	3.8	7.44e-01	0	36	104	7086276608	78	9689
2026-01-18 08:08:24.24	338.23	5.68	-53.1	-61.9	3.8	7.44e-01	0	36	104	7086276608	78	9569
2026-01-18 08:08:25.25	338.25	5.59	-53.1	-61.9	3.8	7.43e-01	0	36	104	7086276608	78	9591
2026-01-18 08:08:26.26	338.27	5.51	-53.0	-61.8	3.8	7.44e-01	0	36	104	7086276608	77	10010
2026-01-18 08:08:27.27	338.30	5.43	-53.1	-62.0	3.8	7.46e-01	0	36	104	7086276608	77	10185
2026-01-18 08:08:28.27	338.32	5.34	-53.0	-61.8	3.8	7.46e-01	0	36	104	7086276608	77	10007
2026-01-18 08:08:29.28	338.34	5.26	-53.0	-61.8	3.8	7.45e-01	0	36	104	7086276608	77	10022
2026-01-18 08:08:30.29	338.37	5.18	-52.9	-61.7	3.8	7.45e-01	0	36	104	7086276608	77	9935
2026-01-18 08:08:31.29	338.39	5.10	-53.0	-61.9	3.8	7.48e-01	0	36	104	7086276608	77	10088
2026-01-18 08:08:32.30	338.41	5.02	-52.9	-61.7	3.8	7.46e-01	0	36	104	7086276608	77	9894
2026-01-18 08:08:33.31	338.44	4.94	-53.3	-62.1	3.8	7.45e-01	0	36	104	7086276608	77	10336
2026-01-18 08:08:34.32	338.46	4.86	-53.6	-62.4	3.8	7.45e-01	0	36	104	7086276608	77	10758
2026-01-18 08:08:35.33	338.48	4.78	-53.9	-62.7	3.8	7.45e-01	0	36	104	7086276608	78	10467
2026-01-18 08:08:36.34	338.50	4.70	-54.0	-62.9	3.8	7.45e-01	0	36	104	7086276608	78	10676
2026-01-18 08:08:37.34	338.53	4.62	-54.2	-63.0	3.8	7.46e-01	0	36	104	7086276608	78	10855
2026-01-18 08:08:38.35	338.55	4.54	-54.3	-63.2	3.8	7.45e-01	0	36	104	7086276608	79	10427
2026-01-18 08:08:39.35	338.57	4.46	-54.4	-63.2	3.8	7.45e-01	0	36	104	7086276608	79	10501
2026-01-18 08:08:40.36	338.59	4.38	-54.5	-63.3	3.8	7.45e-01	0	36	104	7086276608	79	10626
2026-01-18 08:08:41.37	338.61	4.30	-54.6	-63.4	3.8	7.44e-01	0	36	104	7086276608	79	10747
2026-01-18 08:08:42.38	338.64	4.23	-54.6	-63.5	3.8	7.46e-01	0	36	104	7086276608	79	10802
2026-01-18 08:08:43.38	338.66	4.15	-54.7	-63.5	3.8	7.46e-01	0	36	104	7086276608	79	10863
2026-01-18 08:08:44.39	338.68	4.07	-54.7	-63.5	3.8	7.46e-01	0	36	104	7086276608	79	10892
2026-01-18 08:08:45.40	338.70	3.99	-54.7	-63.5	3.8	7.45e-01	0	36	104	7086276608	80	10253
2026-01-18 08:08:46.41	338.72	3.92	-54.7	-63.5	3.8	7.45e-01	0	36	104	7086276608	80	10277
2026-01-18 08:08:47.42	338.74	3.84	-54.7	-63.5	3.8	7.46e-01	0	36	104	7086276608	80	10269
2026-01-18 08:08:48.43	338.76	3.76	-54.7	-63.6	3.8	7.45e-01	0	36	104	7086276608	80	10303
2026-01-18 08:08:49.44	338.79	3.69	-54.8	-63.6	3.8	7.44e-01	0	36	104	7086276608	80	10327
2026-01-18 08:08:50.44	338.81	3.61	-54.8	-63.6	3.8	7.45e-01	0	36	104	7086276608	80	10373
2026-01-18 08:08:51.45	338.83	3.54	-54.8	-63.6	3.8	7.46e-01	0	36	104	7086276608	80	10403
2026-01-18 08:08:52.46	338.85	3.46	-54.8	-63.6	3.8	7.47e-01	0	36	104	7086276608	80	10400
2026-01-18 08:08:53.47	338.87	3.39	-54.8	-63.6	3.8	7.45e-01	0	36	104	7086276608	80	10388
2026-01-18 08:08:54.48	338.89	3.31	-54.8	-63.7	3.8	7.46e-01	0	36	104	7086276608	80	10422
2026-01-18 08:08:55.49	338.91	3.24	-54.8	-63.6	3.8	7.44e-01	0	36	104	7086276608	80	10397
2026-01-18 08:08:56.49	338.93	3.16	-54.8	-63.6	3.8	7.47e-01	0	36	104	7086276608	80	10372
2026-01-18 08:08:57.50	338.95	3.09	-54.7	-63.6	3.8	7.46e-01	0	36	104	7086276608	80	10346
2026-01-18 08:08:58.51	338.97	3.02	-54.7	-63.6	3.8	7.45e-01	0	36	104	7086276608	80	10316
2026-01-18 08:08:59.52	338.99	2.94	-54.7	-63.6	3.8	7.44e-01	0	36	104	7086276608	80	10357
2026-01-18 08:09:00.53	339.01	2.87	-54.7	-63.6	3.8	7.45e-01	0	36	104	7086276608	80	10345
2026-01-18 08:09:01.54	339.03	2.80	-54.7	-63.6	3.8	7.45e-01	0	36	104	7086276608	80	10351
2026-01-18 08:09:02.55	339.05	2.73	-54.7	-63.6	3.8	7.46e-01	0	36	104	7086276608	80	10337
2026-01-18 08:09:03.55	339.07	2.65	-54.7	-63.6	3.8	7.45e-01	0	36	104	7086276608	80	10337
2026-01-18 08:09:04.56	339.09	2.58	-54.7	-63.6	3.8	7.47e-01	0	36	104	7086276608	80	10313
2026-01-18 08:09:05.57	339.11	2.51	-54.7	-63.6	3.8	7.44e-01	0	36	104	7086276608	80	10306
2026-01-18 08:09:06.58	339.13	2.44	-54.7	-63.6	3.8	7.46e-01	0	36	104	7086276608	80	10297
2026-01-18 08:09:07.59	339.14	2.37	-54.7	-63.6	3.8	7.46e-01	0	36	104	7086276608	80	10294
2026-01-18 08:09:08.59	339.16	2.30	-54.7	-63.5	3.8	7.45e-01	0	36	104	7086276608	80	10292
2026-01-18 08:09:09.60	339.18	2.23	-54.7	-63.6	3.8	7.46e-01	0	36	104	7086276608	80	10313
2026-01-18 08:09:10.61	339.20	2.15	-54.7	-63.5	3.8	7.45e-01	0	36	104	7086276608	80	10264
2026-01-18 08:09:11.62	339.22	2.08	-54.7	-63.5	3.8	7.45e-01	0	36	104	7086276608	80	10274
2026-01-18 08:09:12.63	339.24	2.01	-54.7	-63.5	3.8	7.45e-01	0	36	104	7086276608	80	10271

#Closed at: 2026-01-18 08:09:13
#Recorded file [7086 MB]: D:/lorett/data/31041_260118_105841.dat