passes_logs/2026/01/18/R3.2S_Murmansk/R3.2S_Murmansk__20260118_204156_TY-42_rec.log

#Pass ID: 20260118_204156_TY-42
#Satellite: TY-42
#Configuration: TY-42_900M
#almurnet v.1.7.20251203
#Start time: 2026-01-18 20:41:55

#Version: 2.2.20231116
#Station: R3.2S_Murmansk
#Location: 33.079688 lon 68.888172 lat
#TLE: 1 64048U 25103A   26018.72976852  .00008010  00000-0  38191-3 0 09990
#TLE: 2 64048 097.4122 094.0771 0001867 093.5651 311.8460 15.19169237 37386

#Time	Az	El	Level	Level2	SNR	BER	BlckErr	Temp	State	Recorded	gain1	gain2
2026-01-18 20:41:55.95	211.58	1.97	-52.7	-54.9	6.3	0.00e+00	0	42	0	0	77	18047
2026-01-18 20:41:56.96	211.67	2.03	-52.7	-54.9	6.2	0.00e+00	0	42	104	0	77	18110
2026-01-18 20:41:57.97	211.77	2.09	-52.7	-54.9	6.2	0.00e+00	0	42	104	0	77	18105
2026-01-18 20:41:58.97	211.87	2.15	-52.7	-54.9	6.2	0.00e+00	0	43	104	0	77	18034
2026-01-18 20:41:59.98	211.96	2.21	-52.7	-54.9	6.2	0.00e+00	0	43	104	0	77	18095
2026-01-18 20:42:00.99	212.06	2.27	-52.7	-54.9	6.2	0.00e+00	0	43	104	0	77	18018
2026-01-18 20:42:01.99	212.16	2.33	-52.7	-54.9	6.2	0.00e+00	0	43	104	0	77	18019
2026-01-18 20:42:03.00	212.26	2.39	-52.7	-54.9	6.2	0.00e+00	0	43	104	0	77	18001
2026-01-18 20:42:04.01	212.36	2.45	-52.7	-54.9	6.2	0.00e+00	0	43	104	0	77	18093
2026-01-18 20:42:05.02	212.45	2.51	-52.7	-54.9	6.2	0.00e+00	0	43	104	0	77	18020
2026-01-18 20:42:06.02	212.55	2.58	-52.7	-54.9	6.2	0.00e+00	0	43	104	0	77	18017
2026-01-18 20:42:07.03	212.65	2.64	-52.7	-54.9	6.2	0.00e+00	0	43	104	0	77	18026
2026-01-18 20:42:08.04	212.76	2.70	-52.7	-54.9	6.2	0.00e+00	0	43	104	0	77	17986
2026-01-18 20:42:09.05	212.86	2.76	-52.7	-54.9	6.2	0.00e+00	0	43	104	0	77	18005
2026-01-18 20:42:10.06	212.96	2.82	-52.7	-54.9	6.2	0.00e+00	0	43	104	0	77	17974
2026-01-18 20:42:11.06	213.06	2.89	-52.7	-54.9	6.2	0.00e+00	0	43	104	0	77	18058
2026-01-18 20:42:12.07	213.16	2.95	-52.7	-54.9	6.2	0.00e+00	0	43	104	0	77	17975
2026-01-18 20:42:13.08	213.27	3.01	-52.7	-54.9	6.2	0.00e+00	0	43	104	0	77	18034
2026-01-18 20:42:14.09	213.37	3.07	-52.7	-54.9	6.2	0.00e+00	0	43	104	0	77	17974
2026-01-18 20:42:15.10	213.48	3.14	-52.7	-54.9	6.2	0.00e+00	0	43	104	0	77	18023
2026-01-18 20:42:16.11	213.58	3.20	-52.7	-54.9	6.2	0.00e+00	0	43	104	0	77	17983
2026-01-18 20:42:17.11	213.69	3.26	-52.7	-54.9	6.2	0.00e+00	0	44	104	0	77	18024
2026-01-18 20:42:18.12	213.79	3.32	-52.7	-54.9	6.2	0.00e+00	0	44	104	0	77	17984
2026-01-18 20:42:19.13	213.90	3.39	-52.7	-54.8	6.2	0.00e+00	0	43	104	0	77	17963
2026-01-18 20:42:20.14	214.01	3.45	-52.7	-54.8	6.2	0.00e+00	0	44	104	0	77	17966
2026-01-18 20:42:21.15	214.11	3.51	-52.7	-54.9	6.2	0.00e+00	0	44	104	0	77	18003
2026-01-18 20:42:22.15	214.22	3.58	-52.7	-54.9	6.2	0.00e+00	0	44	104	0	77	17994
2026-01-18 20:42:23.16	214.33	3.64	-52.7	-54.9	6.2	0.00e+00	0	44	104	0	77	17978
2026-01-18 20:42:24.17	214.44	3.70	-52.7	-54.9	6.2	0.00e+00	0	44	104	0	77	18006
2026-01-18 20:42:25.18	214.55	3.77	-52.7	-54.9	6.2	0.00e+00	0	44	104	0	77	18010
2026-01-18 20:42:26.19	214.66	3.83	-52.7	-54.8	6.2	0.00e+00	0	44	104	0	77	17951
2026-01-18 20:42:27.19	214.77	3.90	-52.7	-54.9	6.2	0.00e+00	0	44	104	0	77	18000
2026-01-18 20:42:28.20	214.88	3.96	-52.7	-54.9	6.2	0.00e+00	0	44	104	0	77	18042
2026-01-18 20:42:29.21	215.00	4.02	-52.7	-54.9	6.2	0.00e+00	0	44	104	0	77	17986
2026-01-18 20:42:30.22	215.11	4.09	-52.7	-54.9	6.2	0.00e+00	0	44	104	0	77	18029
2026-01-18 20:42:31.23	215.22	4.15	-52.7	-54.9	6.2	0.00e+00	0	44	104	0	77	18001
2026-01-18 20:42:32.23	215.34	4.22	-52.7	-54.9	6.2	0.00e+00	0	44	104	0	77	18012
2026-01-18 20:42:33.24	215.45	4.28	-52.7	-54.9	6.2	0.00e+00	0	44	104	0	77	18005
2026-01-18 20:42:34.25	215.57	4.35	-52.7	-54.9	6.2	0.00e+00	0	44	104	0	77	18062
2026-01-18 20:42:35.26	215.68	4.41	-52.7	-54.9	6.2	0.00e+00	0	44	104	0	77	17979
2026-01-18 20:42:36.26	215.80	4.48	-52.7	-54.8	6.2	0.00e+00	0	44	104	0	77	17947
2026-01-18 20:42:37.27	215.92	4.54	-52.7	-54.9	6.2	0.00e+00	0	44	104	0	77	18009
2026-01-18 20:42:38.28	216.04	4.61	-52.7	-54.9	6.2	0.00e+00	0	44	104	0	77	18002
2026-01-18 20:42:39.29	216.16	4.68	-52.7	-54.8	6.2	0.00e+00	0	44	104	0	77	17946
2026-01-18 20:42:40.29	216.27	4.74	-52.7	-54.9	6.2	0.00e+00	0	44	104	0	77	17993
2026-01-18 20:42:41.30	216.39	4.81	-52.7	-54.9	6.2	0.00e+00	0	44	104	0	77	17984
2026-01-18 20:42:42.31	216.52	4.87	-52.7	-54.8	6.2	0.00e+00	0	44	104	0	77	17949
2026-01-18 20:42:43.32	216.64	4.94	-52.7	-54.9	6.2	0.00e+00	0	44	104	0	77	17972
2026-01-18 20:42:44.33	216.76	5.01	-52.7	-54.9	6.2	0.00e+00	0	44	104	0	77	17985
2026-01-18 20:42:45.33	216.88	5.07	-52.7	-54.9	6.2	0.00e+00	0	44	104	0	77	18068
2026-01-18 20:42:46.34	217.00	5.14	-52.8	-54.9	6.2	0.00e+00	0	45	104	0	77	18099
2026-01-18 20:42:47.35	217.13	5.20	-52.8	-54.9	6.2	0.00e+00	0	45	104	0	77	18121
2026-01-18 20:42:48.36	217.25	5.27	-52.7	-54.8	6.2	0.00e+00	0	44	104	0	77	17960
2026-01-18 20:42:49.37	217.38	5.34	-52.7	-54.9	6.2	0.00e+00	0	45	104	0	77	18038
2026-01-18 20:42:50.37	217.50	5.40	-52.9	-55.0	6.2	0.00e+00	0	45	104	0	77	18312
2026-01-18 20:42:51.38	217.63	5.47	-52.8	-54.9	6.2	0.00e+00	0	45	104	0	77	18147
2026-01-18 20:42:52.39	217.76	5.54	-52.7	-54.9	6.2	0.00e+00	0	45	104	0	77	18057
2026-01-18 20:42:53.40	217.89	5.61	-52.8	-54.9	6.2	0.00e+00	0	45	104	0	77	18083
2026-01-18 20:42:54.41	218.02	5.67	-52.9	-55.0	6.2	0.00e+00	0	45	104	0	77	18358
2026-01-18 20:42:55.41	218.15	5.74	-52.8	-55.0	6.2	0.00e+00	0	45	104	0	77	18218
2026-01-18 20:42:56.42	218.28	5.81	-52.8	-54.9	6.2	0.00e+00	0	45	104	0	77	18070
2026-01-18 20:42:57.43	218.41	5.88	-52.8	-54.9	6.2	0.00e+00	0	45	104	0	77	18089
2026-01-18 20:42:58.43	218.54	5.95	-52.9	-55.0	6.2	0.00e+00	0	45	104	0	77	18381
2026-01-18 20:42:59.44	218.67	6.01	-52.9	-55.0	6.2	0.00e+00	0	45	104	0	77	18254
2026-01-18 20:43:00.45	218.80	6.08	-52.8	-54.9	6.2	0.00e+00	0	45	104	0	77	18128
2026-01-18 20:43:01.46	218.94	6.15	-52.8	-55.0	6.2	0.00e+00	0	45	104	0	77	18246
2026-01-18 20:43:02.47	219.07	6.22	-52.9	-55.1	6.2	0.00e+00	0	45	104	0	77	18416
2026-01-18 20:43:03.48	219.21	6.29	-52.9	-55.0	6.2	0.00e+00	0	45	104	0	77	18337
2026-01-18 20:43:04.49	219.35	6.36	-52.8	-55.0	6.2	0.00e+00	0	45	104	0	77	18181
2026-01-18 20:43:05.50	219.48	6.43	-52.9	-55.0	6.2	0.00e+00	0	45	104	0	77	18267
2026-01-18 20:43:06.51	219.62	6.50	-52.9	-55.0	6.2	0.00e+00	0	45	104	0	77	18381
2026-01-18 20:43:07.51	219.76	6.56	-52.9	-55.1	6.2	0.00e+00	0	45	104	0	77	18417
2026-01-18 20:43:08.52	219.90	6.63	-52.8	-55.0	6.2	0.00e+00	0	45	104	0	77	18266
2026-01-18 20:43:09.53	220.04	6.70	-52.9	-55.0	6.2	0.00e+00	0	45	104	0	77	18352
2026-01-18 20:43:10.54	220.18	6.77	-53.0	-55.1	6.2	0.00e+00	0	45	104	0	77	18544
2026-01-18 20:43:11.55	220.32	6.84	-52.9	-55.0	6.2	0.00e+00	0	45	104	0	77	18358
2026-01-18 20:43:12.55	220.47	6.91	-52.9	-55.0	6.2	0.00e+00	0	45	104	0	77	18315
2026-01-18 20:43:13.56	220.61	6.98	-52.9	-55.1	6.2	0.00e+00	0	45	104	0	77	18429
2026-01-18 20:43:14.57	220.76	7.05	-53.0	-55.1	6.2	0.00e+00	0	45	104	0	77	18547
2026-01-18 20:43:15.58	220.90	7.12	-52.9	-55.1	6.2	0.00e+00	0	45	104	0	77	18455
2026-01-18 20:43:16.59	221.05	7.19	-52.9	-55.0	6.2	0.00e+00	0	45	104	0	77	18341
2026-01-18 20:43:17.59	221.19	7.26	-53.0	-55.1	6.2	0.00e+00	0	45	104	0	77	18566
2026-01-18 20:43:18.60	221.34	7.33	-53.0	-55.1	6.2	0.00e+00	0	45	104	0	77	18595
2026-01-18 20:43:19.61	221.49	7.40	-53.0	-55.1	6.2	0.00e+00	0	45	104	0	77	18511
2026-01-18 20:43:20.61	221.64	7.47	-52.9	-55.1	6.2	0.00e+00	0	45	104	0	77	18434
2026-01-18 20:43:21.62	221.79	7.55	-53.0	-55.1	6.2	0.00e+00	0	45	104	0	77	18519
2026-01-18 20:43:22.63	221.94	7.62	-53.0	-55.2	6.2	0.00e+00	0	45	104	0	77	18632
2026-01-18 20:43:23.64	222.09	7.69	-53.0	-55.1	6.2	0.00e+00	0	45	104	0	77	18598
2026-01-18 20:43:24.65	222.25	7.76	-52.9	-55.1	6.2	0.00e+00	0	45	104	0	77	18455
2026-01-18 20:43:25.65	222.40	7.83	-53.0	-55.2	6.2	0.00e+00	0	45	104	0	77	18677
2026-01-18 20:43:26.66	222.56	7.90	-53.1	-55.2	6.2	0.00e+00	0	45	104	0	77	18671
2026-01-18 20:43:27.67	222.71	7.97	-53.0	-55.2	6.2	0.00e+00	0	45	104	0	77	18625
2026-01-18 20:43:28.68	222.87	8.05	-53.0	-55.1	6.2	0.00e+00	0	45	104	0	77	18469
2026-01-18 20:43:29.69	223.03	8.12	-53.1	-55.2	6.2	0.00e+00	0	46	104	0	77	18675
2026-01-18 20:43:30.69	223.19	8.19	-53.1	-55.3	6.2	0.00e+00	0	45	104	0	77	18832
2026-01-18 20:43:31.70	223.35	8.26	-53.0	-55.2	6.2	0.00e+00	0	45	104	0	77	18707
2026-01-18 20:43:32.71	223.51	8.33	-53.0	-55.1	6.2	0.00e+00	0	45	104	0	77	18598
2026-01-18 20:43:33.72	223.67	8.41	-53.1	-55.2	6.2	0.00e+00	0	45	104	0	77	18780
2026-01-18 20:43:34.73	223.83	8.48	-53.1	-55.3	6.2	0.00e+00	0	45	104	0	77	18826
2026-01-18 20:43:35.73	223.99	8.55	-53.1	-55.2	6.2	0.00e+00	0	45	104	0	77	18719
2026-01-18 20:43:36.74	224.16	8.62	-53.0	-55.2	6.2	0.00e+00	0	45	104	0	77	18661
2026-01-18 20:43:37.75	224.32	8.70	-53.1	-55.3	6.2	0.00e+00	0	46	104	0	77	18842
2026-01-18 20:43:38.76	224.49	8.77	-53.1	-55.2	6.2	0.00e+00	0	46	104	0	77	18815
2026-01-18 20:43:39.76	224.66	8.84	-53.1	-55.2	6.2	0.00e+00	0	46	104	0	77	18781
2026-01-18 20:43:40.77	224.83	8.91	-53.1	-55.2	6.2	0.00e+00	0	46	104	0	77	18674
2026-01-18 20:43:41.78	224.99	8.99	-53.1	-55.3	6.2	0.00e+00	0	46	104	0	77	18873
2026-01-18 20:43:42.79	225.17	9.06	-53.1	-55.3	6.2	0.00e+00	0	46	104	0	77	18929
2026-01-18 20:43:43.79	225.34	9.13	-53.1	-55.3	6.2	0.00e+00	0	46	104	0	77	18834
2026-01-18 20:43:44.80	225.51	9.21	-53.1	-55.2	6.2	0.00e+00	0	46	104	0	77	18759
2026-01-18 20:43:45.81	225.68	9.28	-53.2	-55.3	6.2	0.00e+00	0	46	104	0	77	18913
2026-01-18 20:43:46.82	225.86	9.36	-53.2	-55.3	6.2	0.00e+00	0	46	104	0	77	18893
2026-01-18 20:43:47.83	226.03	9.43	-53.1	-55.2	6.2	0.00e+00	0	46	104	0	77	18806
2026-01-18 20:43:48.84	226.21	9.50	-53.1	-55.3	6.2	0.00e+00	0	46	104	0	77	18822
2026-01-18 20:43:49.84	226.39	9.58	-53.2	-55.3	6.2	0.00e+00	0	46	104	0	77	19008
2026-01-18 20:43:50.85	226.57	9.65	-53.2	-55.3	6.2	0.00e+00	0	45	104	0	77	18998
2026-01-18 20:43:51.86	226.75	9.72	-53.2	-55.3	6.2	0.00e+00	0	46	104	0	77	18860
2026-01-18 20:43:52.87	226.93	9.80	-53.1	-55.3	6.2	0.00e+00	0	46	104	0	77	18832
2026-01-18 20:43:53.88	227.11	9.87	-53.2	-55.3	6.2	0.00e+00	0	46	104	0	77	19027
2026-01-18 20:43:54.89	227.29	9.95	-53.2	-55.3	6.2	0.00e+00	0	46	104	0	77	18979
2026-01-18 20:43:55.89	227.48	10.02	-53.2	-55.3	6.2	0.00e+00	0	46	104	0	77	19016
2026-01-18 20:43:56.90	227.66	10.10	-53.1	-55.3	6.2	0.00e+00	0	46	104	0	77	18894
2026-01-18 20:43:57.91	227.85	10.17	-53.2	-55.4	6.2	0.00e+00	0	45	104	0	77	19061
2026-01-18 20:43:58.92	228.04	10.24	-53.2	-55.3	6.2	0.00e+00	0	46	104	0	77	19028
2026-01-18 20:43:59.93	228.23	10.32	-53.2	-55.3	6.2	0.00e+00	0	46	104	0	77	19001
2026-01-18 20:44:00.93	228.41	10.39	-53.2	-55.3	6.2	0.00e+00	0	46	104	0	77	18976
2026-01-18 20:44:01.94	228.61	10.47	-53.2	-55.4	6.2	0.00e+00	0	46	104	0	77	19106
2026-01-18 20:44:02.95	228.80	10.54	-53.2	-55.4	6.2	0.00e+00	0	46	104	0	77	19083
2026-01-18 20:44:03.96	228.99	10.62	-53.2	-55.3	6.2	0.00e+00	0	46	104	0	77	18991
2026-01-18 20:44:04.97	229.19	10.69	-53.2	-55.3	6.2	0.00e+00	0	46	104	0	77	18953
2026-01-18 20:44:05.97	229.38	10.77	-53.3	-55.4	6.2	0.00e+00	0	46	104	0	77	19142
2026-01-18 20:44:06.99	229.58	10.84	-53.2	-55.4	6.2	0.00e+00	0	46	104	0	77	19046
2026-01-18 20:44:07.99	229.78	10.92	-53.2	-55.3	6.2	0.00e+00	0	46	104	0	77	18985
2026-01-18 20:44:09.00	229.98	10.99	-53.2	-55.3	6.2	0.00e+00	0	46	104	0	77	18961
2026-01-18 20:44:10.01	230.18	11.07	-53.3	-55.4	6.2	0.00e+00	0	46	104	0	77	19136
2026-01-18 20:44:11.02	230.38	11.14	-53.3	-55.4	6.2	0.00e+00	0	46	104	0	77	19071
2026-01-18 20:44:12.03	230.58	11.22	-53.2	-55.4	6.2	0.00e+00	0	46	104	0	77	19078
2026-01-18 20:44:13.03	230.79	11.29	-53.2	-55.3	6.2	0.00e+00	0	46	104	0	77	19018
2026-01-18 20:44:14.04	230.99	11.37	-53.3	-55.4	6.2	0.00e+00	0	46	104	0	77	19208
2026-01-18 20:44:15.05	231.20	11.44	-53.3	-55.4	6.2	0.00e+00	0	46	104	0	77	19170
2026-01-18 20:44:16.06	231.41	11.52	-53.2	-55.4	6.2	0.00e+00	0	46	104	0	77	19130
2026-01-18 20:44:17.07	231.62	11.59	-53.2	-55.4	6.2	0.00e+00	0	46	104	0	77	19051
2026-01-18 20:44:18.07	231.83	11.67	-53.3	-55.4	6.2	0.00e+00	0	46	104	0	77	19235
2026-01-18 20:44:19.08	232.04	11.74	-53.3	-55.4	6.2	0.00e+00	0	46	104	0	77	19154
2026-01-18 20:44:20.09	232.25	11.82	-53.3	-55.4	6.2	0.00e+00	0	46	104	0	77	19133
2026-01-18 20:44:21.09	232.46	11.89	-53.3	-55.4	6.2	0.00e+00	0	46	104	0	77	19111
2026-01-18 20:44:22.10	232.68	11.97	-53.3	-55.5	6.2	0.00e+00	0	46	104	0	77	19272
2026-01-18 20:44:23.11	232.90	12.04	-53.3	-55.4	6.2	0.00e+00	0	46	104	0	77	19184
2026-01-18 20:44:24.12	233.12	12.12	-53.3	-55.4	6.2	0.00e+00	0	46	104	0	77	19195
2026-01-18 20:44:25.12	233.33	12.19	-53.3	-55.4	6.2	0.00e+00	0	46	104	0	77	19149
2026-01-18 20:44:26.13	233.56	12.27	-53.3	-55.5	6.2	0.00e+00	0	46	104	0	77	19275
2026-01-18 20:44:27.14	233.78	12.34	-53.3	-55.4	6.2	0.00e+00	0	46	104	0	77	19191
2026-01-18 20:44:28.15	234.00	12.42	-53.3	-55.4	6.2	0.00e+00	0	46	104	0	77	19201
2026-01-18 20:44:29.16	234.23	12.49	-53.3	-55.4	6.2	0.00e+00	0	46	104	0	77	19179
2026-01-18 20:44:30.17	234.45	12.57	-53.3	-55.5	6.2	0.00e+00	0	46	104	0	77	19353
2026-01-18 20:44:31.18	234.68	12.64	-53.3	-55.5	6.2	0.00e+00	0	46	104	0	77	19283
2026-01-18 20:44:32.18	234.91	12.72	-53.3	-55.4	6.2	0.00e+00	0	46	104	0	77	19207
2026-01-18 20:44:33.19	235.14	12.79	-53.3	-55.5	6.2	0.00e+00	0	46	104	0	77	19278
2026-01-18 20:44:34.20	235.37	12.87	-53.4	-55.5	6.2	0.00e+00	0	46	104	0	77	19337
2026-01-18 20:44:35.21	235.61	12.94	-53.3	-55.5	6.2	0.00e+00	0	46	104	0	77	19314
2026-01-18 20:44:36.21	235.84	13.02	-53.3	-55.5	6.2	0.00e+00	0	46	104	0	77	19276
2026-01-18 20:44:37.22	236.07	13.09	-53.3	-55.5	6.2	0.00e+00	0	46	104	0	77	19290
2026-01-18 20:44:38.23	236.31	13.17	-53.4	-55.5	6.2	0.00e+00	0	46	104	0	77	19404
2026-01-18 20:44:39.24	236.55	13.24	-53.3	-55.5	6.2	0.00e+00	0	46	104	0	77	19290
2026-01-18 20:44:40.25	236.79	13.31	-53.3	-55.5	6.2	0.00e+00	0	46	104	0	77	19316
2026-01-18 20:44:41.25	237.03	13.39	-53.3	-55.4	6.2	0.00e+00	0	46	104	0	77	19237
2026-01-18 20:44:42.26	237.27	13.46	-53.4	-55.5	6.2	0.00e+00	0	46	104	0	77	19406
2026-01-18 20:44:43.27	237.52	13.53	-53.3	-55.5	6.2	0.00e+00	0	46	104	0	77	19300
2026-01-18 20:44:44.28	237.76	13.61	-53.3	-55.5	6.2	0.00e+00	0	46	104	0	77	19326
2026-01-18 20:44:45.28	238.01	13.68	-53.3	-55.5	6.2	0.00e+00	0	46	104	0	77	19298
2026-01-18 20:44:46.29	238.26	13.75	-53.4	-55.5	6.2	0.00e+00	0	46	104	0	77	19359
2026-01-18 20:44:47.30	238.51	13.83	-53.4	-55.5	6.2	0.00e+00	0	46	104	0	77	19373
2026-01-18 20:44:48.31	238.76	13.90	-53.3	-55.5	6.2	0.00e+00	0	46	104	0	77	19303
2026-01-18 20:44:49.32	239.01	13.97	-53.4	-55.5	6.2	0.00e+00	0	46	104	0	77	19356
2026-01-18 20:44:50.32	239.26	14.05	-53.4	-55.5	6.2	0.00e+00	0	46	104	0	77	19365
2026-01-18 20:44:51.33	239.52	14.12	-53.4	-55.5	6.2	0.00e+00	0	46	104	0	77	19370
2026-01-18 20:44:52.34	239.78	14.19	-53.3	-55.5	6.2	0.00e+00	0	46	104	0	77	19354
2026-01-18 20:44:53.35	240.04	14.26	-53.4	-55.5	6.2	0.00e+00	0	46	104	0	77	19347
2026-01-18 20:44:54.35	240.29	14.33	-53.4	-55.5	6.2	0.00e+00	0	46	104	0	77	19379
2026-01-18 20:44:55.36	240.56	14.41	-53.4	-55.5	6.2	0.00e+00	0	46	104	0	77	19378
2026-01-18 20:44:56.37	240.82	14.48	-53.4	-55.5	6.2	0.00e+00	0	46	104	0	77	19340
2026-01-18 20:44:57.38	241.08	14.55	-53.4	-55.5	6.2	0.00e+00	0	46	104	0	77	19408
2026-01-18 20:44:58.39	241.35	14.62	-53.4	-55.5	6.2	0.00e+00	0	46	104	0	77	19439
2026-01-18 20:44:59.40	241.62	14.69	-34.5	-34.3	14.9	0.00e+00	121	48	104	0	41	13441
2026-01-18 20:45:00.40	241.88	14.76	-34.2	-34.1	15.2	0.00e+00	0	48	0	109051904	40	13815
2026-01-18 20:45:01.41	242.15	14.83	-33.2	-33.1	15.6	2.95e-02	0	48	0	226492416	38	13865
2026-01-18 20:45:02.42	242.43	14.90	-39.0	-38.9	13.7	2.95e-02	0	49	0	335544320	50	13496
2026-01-18 20:45:03.43	242.70	14.97	-32.9	-32.9	15.7	2.95e-02	0	48	0	452984832	37	14278
2026-01-18 20:45:04.43	242.97	15.04	-33.1	-33.0	15.6	8.42e-02	0	48	0	562036736	37	14441
2026-01-18 20:45:05.44	243.25	15.11	-33.0	-32.9	15.6	8.42e-02	0	48	0	687865856	37	14328
2026-01-18 20:45:06.45	243.53	15.18	-32.9	-32.8	15.7	8.42e-02	0	48	0	796917760	37	14172
2026-01-18 20:45:07.46	243.81	15.25	-32.9	-32.8	15.7	1.64e-03	0	48	0	914358272	37	14142
2026-01-18 20:45:08.47	244.09	15.31	-33.0	-32.9	15.7	1.64e-03	0	48	0	1023410176	37	14319
2026-01-18 20:45:09.48	244.37	15.38	-32.9	-32.8	15.7	1.64e-03	0	48	0	1132462080	37	14143
2026-01-18 20:45:10.48	244.65	15.45	-32.8	-32.7	15.7	1.47e-03	0	48	0	1249902592	37	14106
2026-01-18 20:45:11.49	244.94	15.52	-32.9	-32.8	15.7	1.47e-03	0	49	0	1358954496	37	14188
2026-01-18 20:45:12.49	245.22	15.58	-32.7	-32.6	15.7	1.47e-03	0	48	0	1476395008	37	13835
2026-01-18 20:45:13.50	245.51	15.65	-32.7	-32.6	15.8	1.28e-03	0	49	0	1585446912	37	13878
2026-01-18 20:45:14.51	245.80	15.72	-32.7	-32.6	15.7	1.28e-03	0	48	0	1702887424	37	13934
2026-01-18 20:45:15.52	246.09	15.78	-32.7	-32.5	15.8	1.28e-03	0	49	0	1811939328	37	13784
2026-01-18 20:45:16.53	246.38	15.85	-32.7	-32.6	15.8	1.12e-03	0	49	0	1920991232	37	13846
2026-01-18 20:45:17.53	246.67	15.91	-32.8	-32.7	15.8	1.12e-03	0	49	0	2038431744	37	13957
2026-01-18 20:45:18.54	246.97	15.98	-32.7	-32.6	15.8	1.12e-03	0	49	0	2147483648	37	13841
2026-01-18 20:45:19.55	247.26	16.04	-32.7	-32.6	15.8	1.29e-03	0	49	0	2273312768	37	13904
2026-01-18 20:45:20.56	247.56	16.10	-32.8	-32.7	15.7	1.29e-03	0	49	0	2382364672	37	14001
2026-01-18 20:45:21.57	247.86	16.17	-32.9	-32.8	15.7	1.32e-03	0	49	0	2499805184	37	14191
2026-01-18 20:45:22.57	248.16	16.23	-32.7	-32.6	15.7	1.32e-03	0	49	0	2608857088	37	13878
2026-01-18 20:45:23.58	248.46	16.29	-32.6	-32.5	15.8	1.32e-03	0	49	0	2726297600	37	13678
2026-01-18 20:45:24.59	248.77	16.35	-32.4	-32.3	15.8	1.32e-03	0	49	0	2835349504	36	14204
2026-01-18 20:45:25.60	249.07	16.41	-32.3	-32.2	15.9	1.10e-03	0	48	0	2944401408	36	13981
2026-01-18 20:45:26.61	249.38	16.48	-32.1	-32.0	15.9	1.10e-03	0	49	0	3061841920	36	13748
2026-01-18 20:45:27.62	249.69	16.54	-32.1	-32.0	15.9	1.10e-03	0	49	0	3170893824	36	13698
2026-01-18 20:45:28.63	250.00	16.60	-32.2	-32.1	15.9	6.25e-04	0	49	0	3288334336	36	13936
2026-01-18 20:45:29.63	250.31	16.65	-32.2	-32.1	15.9	6.25e-04	0	49	0	3397386240	36	13798
2026-01-18 20:45:30.64	250.62	16.71	-32.2	-32.1	16.0	6.25e-04	0	49	0	3506438144	36	13791
2026-01-18 20:45:31.65	250.93	16.77	-32.2	-32.0	15.9	6.96e-04	0	49	0	3632267264	36	13787
2026-01-18 20:45:32.66	251.25	16.83	-32.2	-32.1	15.9	6.96e-04	0	49	0	3749707776	36	13794
2026-01-18 20:45:33.67	251.57	16.89	-32.2	-32.1	16.0	6.96e-04	0	49	0	3858759680	36	13843
2026-01-18 20:45:34.68	251.88	16.94	-32.3	-32.2	15.9	6.96e-04	0	49	0	3967811584	36	14051
2026-01-18 20:45:35.68	252.20	17.00	-32.3	-32.2	15.9	6.96e-04	0	49	0	4085252096	36	13982
2026-01-18 20:45:36.69	252.52	17.05	-32.2	-32.1	15.9	6.96e-04	0	49	0	4194304000	36	13831
2026-01-18 20:45:37.70	252.84	17.11	-32.4	-32.3	15.9	5.25e-04	0	49	0	4311744512	36	14145
2026-01-18 20:45:38.71	253.17	17.16	-32.2	-32.1	15.9	5.25e-04	0	49	0	4420796416	36	13845
2026-01-18 20:45:39.71	253.49	17.21	-32.3	-32.2	15.9	6.29e-04	0	49	0	4538236928	36	14019
2026-01-18 20:45:40.72	253.81	17.27	-32.2	-32.1	15.9	6.29e-04	0	49	0	4647288832	36	13834
2026-01-18 20:45:41.73	254.14	17.32	-32.0	-31.9	16.0	6.29e-04	0	49	0	4756340736	36	13567
2026-01-18 20:45:42.74	254.47	17.37	-32.0	-31.9	16.0	5.86e-04	0	49	0	4873781248	36	13554
2026-01-18 20:45:43.75	254.80	17.42	-32.1	-32.0	16.0	5.86e-04	0	49	0	4991221760	36	13780
2026-01-18 20:45:44.75	255.13	17.47	-32.0	-31.9	16.0	5.86e-04	0	49	0	5108662272	36	13598
2026-01-18 20:45:45.76	255.46	17.52	-29.6	-29.5	15.6	8.20e-04	0	49	0	5217714176	31	13738
2026-01-18 20:45:46.77	255.79	17.57	-29.7	-29.6	15.5	8.20e-04	0	49	0	5335154688	31	13904
2026-01-18 20:45:47.78	256.13	17.62	-29.8	-29.7	15.5	8.20e-04	0	49	0	5444206592	31	13970
2026-01-18 20:45:48.79	256.46	17.66	-29.8	-29.7	15.5	2.26e-03	0	49	0	5561647104	31	14079
2026-01-18 20:45:49.79	256.80	17.71	-29.6	-29.5	15.6	2.26e-03	0	49	0	5670699008	31	13728
2026-01-18 20:45:50.80	257.14	17.76	-29.7	-29.6	15.5	2.26e-03	0	49	0	5779750912	31	13820
2026-01-18 20:45:51.81	257.48	17.80	-29.7	-29.6	15.5	2.35e-03	0	49	0	5897191424	31	13916
2026-01-18 20:45:52.82	257.82	17.85	-29.7	-29.6	15.5	2.35e-03	0	49	0	6006243328	31	13809
2026-01-18 20:45:53.83	258.16	17.89	-29.5	-29.4	15.6	2.35e-03	0	49	0	6123683840	31	13584
2026-01-18 20:45:54.84	258.50	17.93	-29.5	-29.4	15.6	2.35e-03	0	49	0	6232735744	31	13612
2026-01-18 20:45:55.84	258.84	17.97	-29.4	-29.4	15.6	2.18e-03	0	50	0	6341787648	30	14285
2026-01-18 20:45:56.85	259.19	18.01	-29.6	-29.5	15.6	2.18e-03	0	49	0	6467616768	30	14498
2026-01-18 20:45:57.86	259.53	18.05	-29.6	-29.5	15.5	1.88e-03	0	49	0	6585057280	30	14528
2026-01-18 20:45:58.87	259.88	18.09	-29.5	-29.4	15.6	1.88e-03	0	49	0	6694109184	30	14435
2026-01-18 20:45:59.88	260.23	18.13	-29.5	-29.4	15.6	1.88e-03	0	49	0	6803161088	30	14422
2026-01-18 20:46:00.89	260.58	18.17	-29.5	-29.4	15.6	1.86e-03	0	49	0	6920601600	30	14391
2026-01-18 20:46:01.89	260.92	18.21	-29.5	-29.4	15.6	1.86e-03	0	49	0	7029653504	30	14325
2026-01-18 20:46:02.90	261.27	18.24	-29.6	-29.5	15.5	1.86e-03	0	50	0	7147094016	30	14445
2026-01-18 20:46:03.91	261.62	18.28	-29.5	-29.4	15.6	2.05e-03	0	49	0	7256145920	30	14316
2026-01-18 20:46:04.91	261.97	18.31	-29.5	-29.4	15.6	2.05e-03	0	49	0	7365197824	30	14390
2026-01-18 20:46:05.92	262.33	18.34	-29.5	-29.4	15.6	1.89e-03	0	50	0	7482638336	30	14374
2026-01-18 20:46:06.93	262.68	18.38	-29.5	-29.4	15.6	1.89e-03	0	50	0	7591690240	30	14325
2026-01-18 20:46:07.94	263.04	18.41	-29.6	-29.5	15.6	1.89e-03	0	50	0	7709130752	30	14533
2026-01-18 20:46:08.95	263.39	18.44	-29.6	-29.5	15.6	1.89e-03	0	50	0	7826571264	30	14566
2026-01-18 20:46:09.95	263.75	18.47	-29.5	-29.4	15.6	2.06e-03	0	50	0	7944011776	30	14424
2026-01-18 20:46:10.96	264.10	18.50	-29.5	-29.4	15.6	2.06e-03	0	50	0	8053063680	30	14399
2026-01-18 20:46:11.97	264.46	18.52	-29.5	-29.4	15.6	2.19e-03	0	50	0	8170504192	30	14421
2026-01-18 20:46:12.98	264.82	18.55	-29.4	-29.3	15.6	2.19e-03	0	50	0	8279556096	30	14256
2026-01-18 20:46:13.99	265.18	18.58	-29.5	-29.4	15.6	2.19e-03	0	50	0	8396996608	30	14372
2026-01-18 20:46:14.99	265.54	18.60	-29.4	-29.3	15.6	1.82e-03	0	50	0	8506048512	30	14245
2026-01-18 20:46:16.00	265.90	18.63	-29.5	-29.4	15.6	1.82e-03	0	50	0	8615100416	30	14296
2026-01-18 20:46:17.01	266.26	18.65	-29.4	-29.3	15.6	1.85e-03	0	50	0	8732540928	30	14261
2026-01-18 20:46:18.02	266.62	18.67	-29.5	-29.4	15.6	1.85e-03	0	50	0	8841592832	30	14331
2026-01-18 20:46:19.03	266.98	18.69	-29.5	-29.3	15.6	1.85e-03	0	50	0	8959033344	30	14268
2026-01-18 20:46:20.04	267.35	18.71	-29.4	-29.3	15.6	1.75e-03	0	50	0	9068085248	30	14270
2026-01-18 20:46:21.04	267.71	18.73	-29.4	-29.4	15.6	1.75e-03	0	50	0	9193914368	30	14287
2026-01-18 20:46:22.05	268.07	18.75	-29.4	-29.3	15.6	1.75e-03	0	50	0	9302966272	30	14257
2026-01-18 20:46:23.06	268.44	18.77	-29.5	-29.4	15.5	1.64e-03	0	50	0	9420406784	30	14405
2026-01-18 20:46:24.07	268.80	18.78	-29.5	-29.4	15.5	1.64e-03	0	50	0	9529458688	30	14383
2026-01-18 20:46:25.07	269.16	18.80	-29.4	-29.3	15.6	1.64e-03	0	50	0	9638510592	30	14161
2026-01-18 20:46:26.08	269.53	18.81	-29.5	-29.4	15.5	1.93e-03	0	50	0	9755951104	30	14349
2026-01-18 20:46:27.09	269.90	18.82	-29.6	-29.5	15.5	1.93e-03	0	50	0	9865003008	30	14509
2026-01-18 20:46:28.10	270.26	18.84	-29.5	-29.4	15.5	1.93e-03	0	50	0	9982443520	30	14379
2026-01-18 20:46:29.11	270.63	18.85	-29.5	-29.4	15.5	1.77e-03	0	50	0	10091495424	30	14349
2026-01-18 20:46:30.12	271.00	18.86	-29.6	-29.5	15.5	1.77e-03	0	50	0	10200547328	30	14569
2026-01-18 20:46:31.12	271.36	18.86	-29.7	-29.6	15.4	1.99e-03	0	50	0	10317987840	30	14685
2026-01-18 20:46:32.13	271.73	18.87	-29.5	-29.4	15.5	1.99e-03	0	50	0	10427039744	30	14336
2026-01-18 20:46:33.14	272.10	18.88	-29.6	-29.5	15.5	1.99e-03	0	50	0	10544480256	30	14484
2026-01-18 20:46:34.14	272.46	18.88	-29.5	-29.4	15.5	1.99e-03	0	50	0	10661920768	30	14417
2026-01-18 20:46:35.15	272.83	18.89	-29.5	-29.4	15.5	2.07e-03	0	50	0	10779361280	30	14347
2026-01-18 20:46:36.16	273.20	18.89	-29.5	-29.4	15.5	2.07e-03	0	50	0	10888413184	30	14415
2026-01-18 20:46:37.17	273.57	18.90	-29.5	-29.4	15.5	2.07e-03	0	50	0	11005853696	30	14374
2026-01-18 20:46:38.18	273.93	18.90	-29.6	-29.5	15.5	1.80e-03	0	50	0	11114905600	30	14480
2026-01-18 20:46:39.19	274.30	18.90	-29.5	-29.4	15.5	1.80e-03	0	50	0	11223957504	30	14283
2026-01-18 20:46:40.19	274.67	18.90	-29.4	-29.3	15.5	1.80e-03	0	50	0	11341398016	30	14182
2026-01-18 20:46:41.20	275.04	18.90	-29.5	-29.4	15.5	1.72e-03	0	50	0	11450449920	30	14290
2026-01-18 20:46:42.21	275.40	18.89	-29.6	-29.5	15.5	1.72e-03	0	50	0	11567890432	30	14451
2026-01-18 20:46:43.21	275.77	18.89	-29.5	-29.4	15.5	1.72e-03	0	50	0	11676942336	30	14398
2026-01-18 20:46:44.22	276.14	18.88	-29.5	-29.4	15.5	1.85e-03	0	50	0	11794382848	30	14278
2026-01-18 20:46:45.23	276.50	18.88	-29.5	-29.4	15.5	1.85e-03	0	50	0	11903434752	30	14341
2026-01-18 20:46:46.24	276.87	18.87	-29.6	-29.5	15.5	1.85e-03	0	50	0	12012486656	30	14512
2026-01-18 20:46:47.25	277.24	18.86	-29.6	-29.5	15.5	1.82e-03	0	50	0	12138315776	30	14480
2026-01-18 20:46:48.26	277.61	18.86	-29.6	-29.5	15.5	1.82e-03	0	50	0	12255756288	30	14581
2026-01-18 20:46:49.26	277.97	18.85	-29.8	-29.7	15.4	2.23e-03	0	50	0	12364808192	30	14825
2026-01-18 20:46:50.27	278.34	18.84	-29.7	-29.6	15.4	2.23e-03	0	50	0	12473860096	30	14756
2026-01-18 20:46:51.28	278.70	18.82	-29.7	-29.6	15.4	2.23e-03	0	50	0	12591300608	30	14712
2026-01-18 20:46:52.29	279.07	18.81	-29.8	-29.8	15.4	2.23e-03	0	50	0	12700352512	30	14948
2026-01-18 20:46:53.29	279.43	18.80	-29.9	-29.8	15.3	2.20e-03	0	50	0	12817793024	30	15024
2026-01-18 20:46:54.30	279.80	18.78	-29.9	-29.8	15.4	2.20e-03	0	50	0	12926844928	30	14968
2026-01-18 20:46:55.31	280.16	18.77	-30.0	-29.9	15.3	2.55e-03	0	50	0	13035896832	30	15164
2026-01-18 20:46:56.32	280.53	18.75	-29.8	-29.7	15.4	2.55e-03	0	50	0	13153337344	30	14893
2026-01-18 20:46:57.33	280.89	18.73	-30.0	-29.8	15.3	2.55e-03	0	50	0	13262389248	30	15102
2026-01-18 20:46:58.33	281.25	18.71	-30.0	-29.9	15.3	2.66e-03	0	50	0	13379829760	30	15135
2026-01-18 20:46:59.34	281.61	18.69	-29.8	-29.7	15.4	2.66e-03	0	50	0	13488881664	30	14863
2026-01-18 20:47:00.35	281.97	18.67	-29.9	-29.8	15.3	2.51e-03	0	51	0	13614710784	30	15000
2026-01-18 20:47:01.36	282.34	18.65	-29.9	-29.8	15.3	2.51e-03	0	51	0	13723762688	30	15030
2026-01-18 20:47:02.36	282.69	18.63	-29.9	-29.8	15.3	2.51e-03	0	50	0	13841203200	30	15004
2026-01-18 20:47:03.37	283.05	18.60	-29.9	-29.8	15.3	2.54e-03	0	50	0	13950255104	30	14965
2026-01-18 20:47:04.38	283.41	18.58	-29.9	-29.8	15.3	2.54e-03	0	50	0	14059307008	30	15119
2026-01-18 20:47:05.39	283.77	18.55	-29.9	-29.8	15.3	2.54e-03	0	50	0	14176747520	30	15078
2026-01-18 20:47:06.39	284.13	18.52	-29.9	-29.8	15.3	2.71e-03	0	50	0	14285799424	30	15043
2026-01-18 20:47:07.40	284.49	18.50	-29.9	-29.8	15.3	2.71e-03	0	50	0	14403239936	30	15112
2026-01-18 20:47:08.41	284.84	18.47	-29.9	-29.8	15.4	2.71e-03	0	51	0	14512291840	30	14989
2026-01-18 20:47:09.42	285.20	18.44	-30.0	-29.9	15.3	2.59e-03	0	51	0	14621343744	30	15131
2026-01-18 20:47:10.42	285.55	18.41	-30.0	-29.9	15.3	2.59e-03	0	51	0	14738784256	30	15163
2026-01-18 20:47:11.43	285.90	18.38	-29.9	-29.8	15.4	2.82e-03	0	50	0	14847836160	30	15073
2026-01-18 20:47:12.44	286.26	18.35	-30.0	-29.9	15.3	2.82e-03	0	51	0	14965276672	30	15142
2026-01-18 20:47:13.45	286.61	18.31	-30.0	-29.9	15.3	2.82e-03	0	50	0	15082717184	30	15233
2026-01-18 20:47:14.45	286.96	18.28	-30.1	-30.0	15.3	2.82e-03	0	50	0	15200157696	30	15299
2026-01-18 20:47:15.46	287.31	18.24	-30.2	-30.1	15.2	2.74e-03	0	51	0	15309209600	30	15529
2026-01-18 20:47:16.47	287.66	18.21	-30.1	-30.0	15.4	2.74e-03	0	50	0	15426650112	31	14477
2026-01-18 20:47:17.48	288.01	18.17	-30.0	-29.9	15.4	2.97e-03	0	51	0	15535702016	31	14364
2026-01-18 20:47:18.49	288.36	18.13	-30.0	-29.9	15.4	2.97e-03	0	51	0	15653142528	31	14397
2026-01-18 20:47:19.49	288.70	18.10	-30.1	-30.0	15.4	2.97e-03	0	51	0	15762194432	31	14449
2026-01-18 20:47:20.50	289.05	18.06	-30.1	-30.0	15.4	2.60e-03	0	51	0	15871246336	31	14446
2026-01-18 20:47:21.51	289.39	18.02	-30.0	-29.9	15.4	2.60e-03	0	50	0	15988686848	31	14406
2026-01-18 20:47:22.52	289.74	17.98	-30.1	-30.0	15.4	2.68e-03	0	51	0	16097738752	31	14551
2026-01-18 20:47:23.53	290.08	17.93	-30.1	-30.0	15.4	2.68e-03	0	50	0	16215179264	31	14525
2026-01-18 20:47:24.53	290.42	17.89	-30.1	-30.0	15.4	2.63e-03	0	50	0	16324231168	31	14556
2026-01-18 20:47:25.54	290.76	17.85	-30.1	-30.0	15.4	2.63e-03	0	51	0	16450060288	31	14571
2026-01-18 20:47:26.55	291.10	17.80	-30.1	-30.0	15.4	2.63e-03	0	51	0	16559112192	31	14594
2026-01-18 20:47:27.56	291.44	17.76	-30.2	-30.1	15.4	2.92e-03	0	50	0	16676552704	31	14700
2026-01-18 20:47:28.57	291.77	17.71	-30.3	-30.2	15.3	2.92e-03	0	51	0	16785604608	31	14908
2026-01-18 20:47:29.57	292.11	17.67	-30.3	-30.2	15.4	2.78e-03	0	50	0	16894656512	31	14803
2026-01-18 20:47:30.58	292.44	17.62	-30.2	-30.1	15.4	2.78e-03	0	50	0	17012097024	31	14616
2026-01-18 20:47:31.59	292.78	17.57	-30.3	-30.2	15.3	2.78e-03	0	50	0	17121148928	31	14947
2026-01-18 20:47:32.60	293.11	17.52	-30.1	-30.0	15.4	2.89e-03	0	51	0	17238589440	31	14536
2026-01-18 20:47:33.61	293.44	17.48	-30.2	-30.1	15.4	2.89e-03	0	51	0	17347641344	31	14691
2026-01-18 20:47:34.61	293.77	17.43	-30.4	-30.2	15.3	2.89e-03	0	51	0	17456693248	31	14945
2026-01-18 20:47:35.62	294.09	17.38	-30.3	-30.2	15.4	2.94e-03	0	51	0	17574133760	31	14853
2026-01-18 20:47:36.63	294.42	17.32	-30.3	-30.2	15.4	2.94e-03	0	51	0	17683185664	31	14786
2026-01-18 20:47:37.64	294.75	17.27	-30.4	-30.3	15.4	2.94e-03	0	50	0	17800626176	31	15024
2026-01-18 20:47:38.65	295.07	17.22	-30.4	-30.3	15.4	2.69e-03	0	51	0	17918066688	31	14989
2026-01-18 20:47:39.66	295.40	17.17	-30.5	-30.4	15.4	2.69e-03	0	50	0	18035507200	31	15201
2026-01-18 20:47:40.67	295.72	17.11	-30.5	-30.4	15.4	2.69e-03	0	50	0	18144559104	31	15288
2026-01-18 20:47:41.67	296.04	17.06	-30.5	-30.4	15.4	3.06e-03	0	51	0	18261999616	31	15175
2026-01-18 20:47:42.68	296.36	17.00	-30.6	-30.4	15.4	3.06e-03	0	51	0	18371051520	31	15290
2026-01-18 20:47:43.69	296.67	16.95	-30.6	-30.5	15.3	3.03e-03	0	51	0	18480103424	31	15423
2026-01-18 20:47:44.70	296.99	16.89	-30.6	-30.5	15.3	3.03e-03	0	51	0	18597543936	32	14505
2026-01-18 20:47:45.71	297.31	16.84	-30.4	-30.3	15.4	3.03e-03	0	50	0	18706595840	32	14177
2026-01-18 20:47:46.71	297.62	16.78	-30.4	-30.3	15.4	3.73e-03	0	51	0	18824036352	32	14195
2026-01-18 20:47:47.72	297.93	16.72	-30.5	-30.4	15.4	3.73e-03	0	51	0	18933088256	32	14311
2026-01-18 20:47:48.73	298.24	16.66	-30.5	-30.4	15.4	3.73e-03	0	50	0	19050528768	32	14283
2026-01-18 20:47:49.74	298.55	16.60	-30.6	-30.5	15.3	3.22e-03	0	51	0	19159580672	32	14581
2026-01-18 20:47:50.75	298.86	16.54	-30.7	-30.6	15.3	3.22e-03	0	51	0	19285409792	32	14629
2026-01-18 20:47:51.75	299.17	16.48	-30.5	-30.4	15.4	3.60e-03	0	51	0	19394461696	32	14291
2026-01-18 20:47:52.76	299.47	16.42	-30.6	-30.5	15.3	3.60e-03	0	51	0	19511902208	32	14474
2026-01-18 20:47:53.77	299.78	16.36	-30.6	-30.5	15.3	3.60e-03	0	51	0	19620954112	32	14487
2026-01-18 20:47:54.78	300.08	16.30	-30.7	-30.6	15.3	3.77e-03	0	50	0	19730006016	32	14644
2026-01-18 20:47:55.79	300.38	16.24	-30.4	-30.3	15.4	3.77e-03	0	51	0	19847446528	32	14256
2026-01-18 20:47:56.79	300.68	16.18	-30.6	-30.5	15.4	3.77e-03	0	51	0	19956498432	32	14520
2026-01-18 20:47:57.80	300.98	16.12	-30.5	-30.4	15.4	3.41e-03	0	51	0	20073938944	32	14393
2026-01-18 20:47:58.81	301.27	16.05	-30.5	-30.4	15.5	3.41e-03	0	50	0	20182990848	32	14358
2026-01-18 20:47:59.81	301.57	15.99	-30.5	-30.4	15.4	3.41e-03	0	51	0	20292042752	32	14369
2026-01-18 20:48:00.82	301.86	15.92	-30.7	-30.6	15.4	3.03e-03	0	50	0	20409483264	32	14608
2026-01-18 20:48:01.83	302.15	15.86	-30.7	-30.6	15.4	3.03e-03	0	50	0	20518535168	32	14637
2026-01-18 20:48:02.84	302.45	15.80	-30.6	-30.5	15.4	3.03e-03	0	50	0	20635975680	32	14516
2026-01-18 20:48:03.85	302.74	15.73	-30.5	-30.4	15.5	3.29e-03	0	50	0	20753416192	32	14359
2026-01-18 20:48:04.85	303.02	15.66	-30.6	-30.5	15.5	3.29e-03	0	51	0	20870856704	32	14550
2026-01-18 20:48:05.86	303.31	15.60	-30.7	-30.6	15.4	3.25e-03	0	50	0	20979908608	32	14736
2026-01-18 20:48:06.87	303.59	15.53	-30.6	-30.5	15.4	3.25e-03	0	51	0	21097349120	32	14535
2026-01-18 20:48:07.88	303.88	15.47	-30.7	-30.6	15.4	3.25e-03	0	50	0	21206401024	32	14656
2026-01-18 20:48:08.89	304.16	15.40	-30.8	-30.7	15.3	3.48e-03	0	51	0	21315452928	32	14846
2026-01-18 20:48:09.89	304.44	15.33	-30.7	-30.6	15.4	3.48e-03	0	51	0	21432893440	32	14676
2026-01-18 20:48:10.90	304.72	15.26	-30.7	-30.6	15.4	3.48e-03	0	51	0	21541945344	32	14757
2026-01-18 20:48:11.91	305.00	15.20	-30.8	-30.7	15.4	3.54e-03	0	51	0	21659385856	32	14844
2026-01-18 20:48:12.92	305.27	15.13	-30.9	-30.8	15.3	3.54e-03	0	51	0	21768437760	32	14950
2026-01-18 20:48:13.92	305.55	15.06	-30.9	-30.8	15.3	3.47e-03	0	51	0	21877489664	32	14962
2026-01-18 20:48:14.93	305.82	14.99	-31.0	-30.9	15.3	3.47e-03	0	51	0	21994930176	32	15126
2026-01-18 20:48:15.94	306.09	14.92	-31.2	-31.1	15.2	3.47e-03	0	51	0	22120759296	32	15550
2026-01-18 20:48:16.95	306.36	14.85	-31.2	-31.1	15.2	4.20e-03	0	51	0	22229811200	33	14724
2026-01-18 20:48:17.96	306.63	14.78	-31.1	-31.0	15.3	4.20e-03	0	51	0	22338863104	33	14482
2026-01-18 20:48:18.97	306.90	14.71	-31.2	-31.1	15.2	4.54e-03	0	51	0	22456303616	33	14728
2026-01-18 20:48:19.97	307.16	14.64	-31.1	-31.0	15.2	4.54e-03	0	51	0	22565355520	33	14539
2026-01-18 20:48:20.98	307.43	14.57	-31.1	-31.0	15.2	4.54e-03	0	51	0	22682796032	33	14558
2026-01-18 20:48:21.99	307.69	14.50	-31.1	-31.0	15.2	4.85e-03	0	51	0	22791847936	33	14519
2026-01-18 20:48:22.99	307.95	14.43	-31.0	-30.9	15.3	4.85e-03	0	51	0	22909288448	33	14320
2026-01-18 20:48:24.00	308.21	14.36	-31.1	-31.0	15.2	4.85e-03	0	51	0	23018340352	33	14548
2026-01-18 20:48:25.01	308.47	14.29	-31.2	-31.1	15.2	4.28e-03	0	51	0	23127392256	33	14670
2026-01-18 20:48:26.02	308.73	14.21	-31.2	-31.1	15.2	4.28e-03	0	51	0	23244832768	33	14615
2026-01-18 20:48:27.03	308.99	14.14	-31.2	-31.1	15.2	4.28e-03	0	51	0	23353884672	33	14687
2026-01-18 20:48:28.03	309.24	14.07	-31.3	-31.2	15.2	4.28e-03	0	51	0	23471325184	33	14786
2026-01-18 20:48:29.04	309.49	14.00	-31.3	-31.2	15.1	4.86e-03	0	51	0	23588765696	33	14939
2026-01-18 20:48:30.05	309.74	13.93	-31.2	-31.1	15.2	4.86e-03	0	51	0	23706206208	33	14630
2026-01-18 20:48:31.06	310.00	13.85	-31.3	-31.2	15.2	4.86e-03	0	51	0	23815258112	33	14861
2026-01-18 20:48:32.07	310.24	13.78	-31.4	-31.3	15.2	4.60e-03	0	51	0	23932698624	33	14977
2026-01-18 20:48:33.07	310.49	13.71	-31.4	-31.4	15.1	4.60e-03	0	51	0	24041750528	33	15127
2026-01-18 20:48:34.08	310.74	13.64	-31.3	-31.2	15.2	4.87e-03	0	51	0	24150802432	33	14836
2026-01-18 20:48:35.09	310.98	13.56	-31.4	-31.3	15.1	4.87e-03	0	51	0	24268242944	33	15084
2026-01-18 20:48:36.10	311.22	13.49	-31.5	-31.4	15.1	4.87e-03	0	51	0	24377294848	33	15175
2026-01-18 20:48:37.11	311.47	13.42	-31.6	-31.5	15.1	5.02e-03	0	51	0	24494735360	33	15318
2026-01-18 20:48:38.11	311.70	13.34	-31.6	-31.5	15.0	5.02e-03	0	51	0	24603787264	33	15386
2026-01-18 20:48:39.12	311.94	13.27	-31.6	-31.5	15.0	5.97e-03	0	51	0	24712839168	33	15376
2026-01-18 20:48:40.13	312.18	13.20	-31.6	-31.5	15.0	5.97e-03	0	51	0	24830279680	33	15438
2026-01-18 20:48:41.13	312.42	13.12	-31.5	-31.4	15.1	5.97e-03	0	51	0	24939331584	33	15245
2026-01-18 20:48:42.14	312.65	13.05	-31.6	-31.5	15.0	6.03e-03	0	51	0	25065160704	34	14586
2026-01-18 20:48:43.15	312.88	12.97	-31.6	-31.5	15.1	6.03e-03	0	51	0	25174212608	34	14500
2026-01-18 20:48:44.16	313.12	12.90	-31.8	-31.7	15.0	6.05e-03	0	51	0	25291653120	34	14787
2026-01-18 20:48:45.17	313.35	12.83	-31.6	-31.5	15.1	6.05e-03	0	51	0	25400705024	34	14442
2026-01-18 20:48:46.18	313.58	12.75	-31.6	-31.5	15.0	6.05e-03	0	51	0	25518145536	34	14603
2026-01-18 20:48:47.18	313.80	12.68	-31.7	-31.6	15.0	5.70e-03	0	51	0	25627197440	34	14692
2026-01-18 20:48:48.19	314.03	12.60	-31.7	-31.6	15.0	5.70e-03	0	51	0	25736249344	34	14722
2026-01-18 20:48:49.19	314.25	12.53	-31.7	-31.6	15.0	6.28e-03	0	51	0	25853689856	34	14727
2026-01-18 20:48:50.20	314.48	12.46	-31.6	-31.5	15.0	6.28e-03	0	51	0	25962741760	34	14568
2026-01-18 20:48:51.21	314.70	12.38	-31.8	-31.7	14.9	6.28e-03	0	51	0	26080182272	34	14888
2026-01-18 20:48:52.22	314.92	12.31	-31.6	-31.5	15.0	6.24e-03	0	51	0	26189234176	34	14542
2026-01-18 20:48:53.23	315.14	12.23	-31.8	-31.7	14.9	6.24e-03	0	51	0	26306674688	34	14903
2026-01-18 20:48:54.23	315.36	12.16	-31.6	-31.5	15.0	6.24e-03	0	51	0	26415726592	34	14549
2026-01-18 20:48:55.24	315.58	12.08	-31.6	-31.5	15.0	6.17e-03	0	51	0	26524778496	34	14576
2026-01-18 20:48:56.25	315.79	12.01	-31.7	-31.6	15.0	6.17e-03	0	51	0	26650607616	34	14656
2026-01-18 20:48:57.25	316.01	11.94	-31.7	-31.6	15.0	5.97e-03	0	51	0	26768048128	34	14625
2026-01-18 20:48:58.26	316.22	11.86	-31.7	-31.6	14.9	5.97e-03	0	51	0	26877100032	34	14698
2026-01-18 20:48:59.27	316.43	11.79	-31.6	-31.5	15.0	6.07e-03	0	51	0	26986151936	34	14585
2026-01-18 20:49:00.28	316.65	11.71	-31.8	-31.8	14.9	6.07e-03	0	51	0	27103592448	34	14952
2026-01-18 20:49:01.29	316.86	11.64	-31.7	-31.6	14.9	6.07e-03	0	51	0	27212644352	34	14663
2026-01-18 20:49:02.29	317.06	11.56	-31.8	-31.7	14.9	6.67e-03	0	51	0	27330084864	34	14831
2026-01-18 20:49:03.30	317.27	11.49	-31.7	-31.6	14.9	6.67e-03	0	51	0	27439136768	34	14771
2026-01-18 20:49:04.31	317.48	11.41	-31.8	-31.7	14.9	6.67e-03	0	51	0	27548188672	34	14912
2026-01-18 20:49:05.32	317.68	11.34	-31.8	-31.7	14.9	6.89e-03	0	51	0	27665629184	34	14831
2026-01-18 20:49:06.33	317.88	11.26	-31.9	-31.8	14.8	6.89e-03	0	51	0	27774681088	34	15012
2026-01-18 20:49:07.33	318.09	11.19	-32.0	-32.0	14.7	7.92e-03	0	51	0	27892121600	34	15329
2026-01-18 20:49:08.34	318.29	11.11	-32.0	-31.9	14.7	7.92e-03	0	51	0	28001173504	34	15287
2026-01-18 20:49:09.35	318.49	11.04	-32.1	-32.0	14.7	7.92e-03	0	51	0	28127002624	34	15385
2026-01-18 20:49:10.35	318.68	10.97	-32.2	-32.1	14.6	8.72e-03	0	51	0	28236054528	34	15530
2026-01-18 20:49:11.36	318.88	10.89	-32.2	-32.1	14.6	8.72e-03	0	51	0	28345106432	34	15490
2026-01-18 20:49:12.37	319.08	10.82	-32.2	-32.1	14.6	8.72e-03	0	51	0	28462546944	34	15510
2026-01-18 20:49:13.38	319.27	10.74	-32.1	-32.0	14.7	9.40e-03	0	51	0	28571598848	35	14559
2026-01-18 20:49:14.39	319.47	10.67	-32.1	-32.0	14.6	9.40e-03	0	51	0	28689039360	35	14604
2026-01-18 20:49:15.39	319.66	10.59	-32.2	-32.1	14.6	1.05e-02	0	51	0	28798091264	35	14688
2026-01-18 20:49:16.40	319.85	10.52	-32.2	-32.1	14.6	1.05e-02	0	51	0	28915531776	35	14772
2026-01-18 20:49:17.41	320.04	10.45	-32.2	-32.1	14.6	1.05e-02	0	51	0	29024583680	35	14642
2026-01-18 20:49:18.41	320.23	10.37	-32.4	-32.3	14.5	1.01e-02	0	51	0	29133635584	35	14987
2026-01-18 20:49:19.42	320.42	10.30	-32.3	-32.2	14.5	1.01e-02	0	51	0	29251076096	35	14910
2026-01-18 20:49:20.43	320.61	10.22	-32.2	-32.1	14.5	1.01e-02	0	51	0	29360128000	35	14759
2026-01-18 20:49:21.44	320.79	10.15	-32.2	-32.1	14.5	1.18e-02	0	51	0	29477568512	35	14772
2026-01-18 20:49:22.45	320.98	10.08	-32.4	-32.4	14.4	1.18e-02	0	51	0	29595009024	35	15124
2026-01-18 20:49:23.45	321.16	10.00	-32.4	-32.3	14.4	1.20e-02	0	51	0	29712449536	35	15004
2026-01-18 20:49:24.46	321.34	9.93	-32.4	-32.3	14.4	1.20e-02	0	51	0	29821501440	35	15078
2026-01-18 20:49:25.46	321.52	9.86	-32.5	-32.4	14.4	1.26e-02	0	51	0	29938941952	35	15182
2026-01-18 20:49:26.47	321.70	9.78	-32.5	-32.4	14.4	1.26e-02	0	51	0	30047993856	35	15165
2026-01-18 20:49:27.48	321.88	9.71	-32.4	-32.4	14.4	1.31e-02	0	51	0	30165434368	35	15133
2026-01-18 20:49:28.48	322.06	9.64	-32.5	-32.5	14.4	1.31e-02	0	51	0	30274486272	35	15296
2026-01-18 20:49:29.49	322.24	9.56	-32.5	-32.4	14.3	1.31e-02	0	51	0	30383538176	35	15224
2026-01-18 20:49:30.50	322.41	9.49	-32.6	-32.6	14.3	1.44e-02	0	51	0	30500978688	35	15494
2026-01-18 20:49:31.51	322.59	9.42	-32.5	-32.4	14.3	1.44e-02	0	51	0	30610030592	35	15268
2026-01-18 20:49:32.51	322.76	9.34	-32.5	-32.5	14.3	1.49e-02	0	51	0	30727471104	35	15312
2026-01-18 20:49:33.52	322.94	9.27	-32.5	-32.4	14.3	1.49e-02	0	51	0	30836523008	35	15220
2026-01-18 20:49:34.53	323.11	9.20	-35.1	-35.0	14.9	1.49e-02	0	51	0	30945574912	41	14566
2026-01-18 20:49:35.54	323.28	9.12	-35.1	-35.0	14.9	1.21e-02	0	51	0	31063015424	41	14501
2026-01-18 20:49:36.55	323.45	9.05	-35.2	-35.1	14.8	1.21e-02	0	51	0	31188844544	41	14661
2026-01-18 20:49:37.55	323.62	8.98	-35.3	-35.2	14.8	1.21e-02	0	51	0	31297896448	41	14847
2026-01-18 20:49:38.57	323.79	8.91	-35.2	-35.1	14.8	7.85e-03	0	51	0	31406948352	41	14705
2026-01-18 20:49:39.57	323.95	8.83	-35.2	-35.1	14.8	7.85e-03	0	51	0	31524388864	41	14755
2026-01-18 20:49:40.58	324.12	8.76	-35.4	-35.3	14.7	7.85e-03	0	51	0	31633440768	41	15057
2026-01-18 20:49:41.59	324.28	8.69	-35.5	-35.4	14.7	8.94e-03	0	51	0	31750881280	41	15157
2026-01-18 20:49:42.59	324.45	8.62	-35.3	-35.2	14.7	8.94e-03	0	51	0	31859933184	41	14868
2026-01-18 20:49:43.61	324.61	8.55	-35.4	-35.3	14.7	8.94e-03	0	51	0	31968985088	41	15065
2026-01-18 20:49:44.62	324.77	8.47	-35.4	-35.3	14.7	9.98e-03	0	51	0	32086425600	41	15035
2026-01-18 20:49:45.62	324.93	8.40	-35.5	-35.4	14.6	9.98e-03	0	51	0	32195477504	41	15177
2026-01-18 20:49:46.63	325.09	8.33	-35.4	-35.3	14.7	1.08e-02	0	51	0	32312918016	41	15034
2026-01-18 20:49:47.64	325.25	8.26	-35.8	-35.7	14.5	1.08e-02	0	51	0	32421969920	42	14793
2026-01-18 20:49:48.65	325.41	8.19	-35.5	-35.4	14.6	1.08e-02	0	51	0	32547799040	42	14368
2026-01-18 20:49:49.65	325.57	8.12	-35.6	-35.5	14.6	1.18e-02	0	51	0	32656850944	42	14532
2026-01-18 20:49:50.66	325.73	8.04	-35.6	-35.5	14.6	1.18e-02	0	51	0	32774291456	42	14462
2026-01-18 20:49:51.67	325.88	7.97	-35.7	-35.6	14.5	1.18e-02	0	51	0	32883343360	42	14732
2026-01-18 20:49:52.68	326.04	7.90	-35.7	-35.6	14.5	1.20e-02	0	51	0	32992395264	42	14727
2026-01-18 20:49:53.69	326.19	7.83	-35.4	-35.3	14.7	1.20e-02	0	51	0	33109835776	42	14223
2026-01-18 20:49:54.69	326.34	7.76	-35.4	-35.3	14.7	1.20e-02	0	51	0	33218887680	42	14269
2026-01-18 20:49:55.70	326.49	7.69	-35.6	-35.5	14.6	1.17e-02	0	51	0	33336328192	42	14479
2026-01-18 20:49:56.71	326.65	7.62	-35.4	-35.3	14.7	1.17e-02	0	51	0	33445380096	42	14206
2026-01-18 20:49:57.72	326.80	7.55	-35.8	-35.7	14.5	1.17e-02	0	51	0	33554432000	42	14854
2026-01-18 20:49:58.72	326.94	7.48	-35.6	-35.5	14.5	1.31e-02	0	51	0	33671872512	42	14537
2026-01-18 20:49:59.73	327.09	7.41	-35.6	-35.5	14.6	1.31e-02	0	51	0	33780924416	42	14507
2026-01-18 20:50:00.74	327.24	7.34	-35.5	-35.4	14.6	1.40e-02	0	51	0	33898364928	42	14424
2026-01-18 20:50:01.75	327.39	7.27	-35.6	-35.5	14.5	1.40e-02	0	51	0	34024194048	42	14515
2026-01-18 20:50:02.75	327.53	7.20	-35.4	-35.3	14.6	1.40e-02	0	51	0	34133245952	42	14270
2026-01-18 20:50:03.76	327.68	7.13	-35.7	-35.6	14.5	1.40e-02	0	51	0	34242297856	42	14754
2026-01-18 20:50:04.77	327.82	7.06	-35.2	-35.1	14.7	1.40e-02	0	51	0	34359738368	42	13799
2026-01-18 20:50:05.78	327.97	6.99	-35.7	-35.6	14.5	1.26e-02	0	51	0	34468790272	42	14702
2026-01-18 20:50:06.79	328.11	6.92	-35.4	-35.3	14.6	1.26e-02	0	51	0	34586230784	42	14146
2026-01-18 20:50:07.80	328.25	6.85	-35.6	-35.5	14.5	1.26e-02	0	51	0	34695282688	42	14510
2026-01-18 20:50:08.80	328.39	6.78	-35.6	-35.5	14.5	1.36e-02	0	51	0	34804334592	42	14493
2026-01-18 20:50:09.81	328.53	6.71	-35.4	-35.3	14.6	1.36e-02	0	51	0	34921775104	42	14179
2026-01-18 20:50:10.82	328.67	6.64	-35.6	-35.5	14.4	1.36e-02	0	51	0	35030827008	42	14537
2026-01-18 20:50:11.83	328.81	6.58	-35.3	-35.2	14.6	1.47e-02	0	51	0	35148267520	42	14018
2026-01-18 20:50:12.84	328.95	6.51	-35.4	-35.3	14.6	1.47e-02	0	51	0	35257319424	42	14139
2026-01-18 20:50:13.84	329.08	6.44	-35.4	-35.3	14.5	1.47e-02	0	51	0	35366371328	42	14127
2026-01-18 20:50:14.85	329.22	6.37	-35.7	-35.6	14.4	1.48e-02	0	51	0	35492200448	42	14643
2026-01-18 20:50:15.86	329.36	6.30	-35.4	-35.3	14.5	1.48e-02	0	51	0	35609640960	42	14219
2026-01-18 20:50:16.87	329.49	6.23	-35.6	-35.5	14.4	1.48e-02	0	51	0	35718692864	42	14538
2026-01-18 20:50:17.87	329.62	6.17	-35.4	-35.3	14.5	1.49e-02	0	51	0	35827744768	42	14180
2026-01-18 20:50:18.88	329.76	6.10	-35.3	-35.2	14.6	1.49e-02	0	51	0	35945185280	42	13978
2026-01-18 20:50:19.89	329.89	6.03	-35.4	-35.3	14.4	1.49e-02	0	51	0	36054237184	42	14269
2026-01-18 20:50:20.90	330.02	5.96	-35.6	-35.5	14.3	1.49e-02	0	51	0	36171677696	42	14602
2026-01-18 20:50:21.91	330.15	5.90	-35.5	-35.4	14.4	1.49e-02	0	51	0	36280729600	42	14317
2026-01-18 20:50:22.91	330.28	5.83	-35.6	-35.5	14.4	1.49e-02	0	51	0	36389781504	42	14506
2026-01-18 20:50:23.92	330.41	5.76	-35.7	-35.6	14.3	1.72e-02	0	51	0	36507222016	42	14767
2026-01-18 20:50:24.93	330.54	5.69	-35.4	-35.3	14.4	1.72e-02	0	51	0	36616273920	42	14246
2026-01-18 20:50:25.94	330.67	5.63	-35.8	-35.7	14.2	1.72e-02	0	51	0	36733714432	42	14936
2026-01-18 20:50:26.95	330.80	5.56	-35.9	-35.8	14.2	1.80e-02	0	51	0	36851154944	42	15048
2026-01-18 20:50:27.96	330.92	5.49	-35.9	-35.8	14.1	1.80e-02	0	51	0	36968595456	42	15110
2026-01-18 20:50:28.97	331.05	5.43	-35.8	-35.8	14.2	2.12e-02	0	51	0	37077647360	42	14974
2026-01-18 20:50:29.98	331.18	5.36	-35.8	-35.8	14.2	2.12e-02	0	51	0	37195087872	42	14979
2026-01-18 20:50:30.98	331.30	5.29	-36.4	-36.3	13.9	2.12e-02	0	51	0	37304139776	43	15005
2026-01-18 20:50:31.99	331.42	5.23	-35.8	-35.7	14.2	2.36e-02	0	51	0	37421580288	43	14111
2026-01-18 20:50:33.00	331.55	5.16	-36.6	-36.5	13.8	2.36e-02	0	51	0	37530632192	43	15390
2026-01-18 20:50:34.01	331.67	5.10	-36.7	-36.6	13.7	2.36e-02	0	51	0	37639684096	43	15623
2026-01-18 20:50:35.02	331.79	5.03	-36.5	-36.4	13.8	2.88e-02	0	51	0	37757124608	43	15265
2026-01-18 20:50:36.02	331.91	4.96	-47.2	-47.8	8.3	2.88e-02	9843	52	0	37866176512	64	16777
2026-01-18 20:50:37.03	332.03	4.90	-53.2	-55.4	6.2	1.92e-02	0	50	104	37866176512	76	20351
2026-01-18 20:50:38.04	332.15	4.83	-53.4	-55.6	6.2	1.92e-02	0	50	104	37866176512	77	19655
2026-01-18 20:50:39.05	332.27	4.77	-53.6	-55.8	6.2	1.92e-02	0	50	104	37866176512	77	20117
2026-01-18 20:50:40.05	332.39	4.70	-53.8	-56.0	6.2	1.92e-02	0	50	104	37866176512	78	19257
2026-01-18 20:50:41.07	332.51	4.64	-53.9	-56.1	6.2	1.92e-02	0	50	104	37866176512	78	19559
2026-01-18 20:50:42.07	332.63	4.57	-54.0	-56.2	6.2	1.92e-02	0	50	104	37866176512	78	19725
2026-01-18 20:50:43.08	332.74	4.51	-54.1	-56.3	6.2	1.92e-02	0	50	104	37866176512	78	19935
2026-01-18 20:50:44.09	332.86	4.44	-54.2	-56.4	6.2	1.92e-02	0	50	104	37866176512	78	20176
2026-01-18 20:50:45.10	332.98	4.38	-54.3	-56.4	6.2	1.92e-02	0	50	104	37866176512	79	19200
2026-01-18 20:50:46.11	333.09	4.31	-54.3	-56.5	6.2	1.92e-02	0	50	104	37866176512	79	19294
2026-01-18 20:50:47.11	333.20	4.25	-54.3	-56.5	6.2	1.92e-02	0	50	104	37866176512	79	19357
2026-01-18 20:50:48.12	333.32	4.19	-54.4	-56.5	6.2	1.92e-02	0	50	104	37866176512	79	19387
2026-01-18 20:50:49.13	333.43	4.12	-54.4	-56.5	6.2	1.92e-02	0	50	104	37866176512	79	19341
2026-01-18 20:50:50.14	333.54	4.06	-54.4	-56.5	6.2	1.92e-02	0	49	104	37866176512	79	19362
2026-01-18 20:50:51.15	333.66	3.99	-54.4	-56.5	6.2	0.00e+00	0	50	104	37866176512	79	19357
2026-01-18 20:50:52.15	333.77	3.93	-54.4	-56.5	6.2	0.00e+00	0	50	104	37866176512	79	19404
2026-01-18 20:50:53.16	333.88	3.87	-54.3	-56.5	6.2	0.00e+00	0	50	104	37866176512	79	19306
2026-01-18 20:50:54.17	333.99	3.80	-54.3	-56.4	6.2	0.00e+00	0	49	104	37866176512	79	19231
2026-01-18 20:50:55.18	334.10	3.74	-54.3	-56.4	6.2	0.00e+00	0	49	104	37866176512	79	19201
2026-01-18 20:50:56.19	334.21	3.68	-54.3	-56.4	6.2	0.00e+00	0	49	104	37866176512	79	19123
2026-01-18 20:50:57.20	334.32	3.61	-54.3	-56.4	6.2	0.00e+00	0	49	104	37866176512	79	19137
2026-01-18 20:50:58.21	334.42	3.55	-54.2	-56.4	6.2	0.00e+00	0	49	104	37866176512	79	19086
2026-01-18 20:50:59.21	334.53	3.49	-54.2	-56.3	6.2	0.00e+00	0	49	104	37866176512	79	19008
2026-01-18 20:51:00.22	334.64	3.42	-54.3	-56.4	6.2	0.00e+00	0	49	104	37866176512	79	19095
2026-01-18 20:51:01.23	334.74	3.36	-54.2	-56.4	6.2	0.00e+00	0	49	104	37866176512	79	19133
2026-01-18 20:51:02.24	334.85	3.30	-54.2	-56.4	6.2	0.00e+00	0	49	104	37866176512	79	19054
2026-01-18 20:51:03.25	334.95	3.24	-54.2	-56.3	6.2	0.00e+00	0	49	104	37866176512	79	19021
2026-01-18 20:51:04.25	335.06	3.18	-54.2	-56.3	6.2	0.00e+00	0	49	104	37866176512	79	18960
2026-01-18 20:51:05.26	335.16	3.11	-54.2	-56.3	6.2	0.00e+00	0	49	104	37866176512	79	18940
2026-01-18 20:51:06.27	335.27	3.05	-54.2	-56.3	6.2	0.00e+00	0	49	104	37866176512	79	18995
2026-01-18 20:51:07.28	335.37	2.99	-54.2	-56.3	6.2	0.00e+00	0	49	104	37866176512	79	18940
2026-01-18 20:51:08.29	335.47	2.93	-54.2	-56.3	6.2	0.00e+00	0	49	104	37866176512	79	18919
2026-01-18 20:51:09.30	335.57	2.87	-54.1	-56.3	6.2	0.00e+00	0	49	104	37866176512	79	18866
2026-01-18 20:51:10.30	335.68	2.80	-54.1	-56.3	6.2	0.00e+00	0	49	104	37866176512	79	18839
2026-01-18 20:51:11.31	335.78	2.74	-54.1	-56.3	6.2	0.00e+00	0	49	104	37866176512	79	18872
2026-01-18 20:51:12.32	335.88	2.68	-54.1	-56.3	6.2	0.00e+00	0	49	104	37866176512	79	18867
2026-01-18 20:51:13.33	335.98	2.62	-54.1	-56.3	6.2	0.00e+00	0	49	104	37866176512	79	18883
2026-01-18 20:51:14.34	336.08	2.56	-54.1	-56.3	6.2	0.00e+00	0	49	104	37866176512	79	18860
2026-01-18 20:51:15.34	336.17	2.50	-54.1	-56.3	6.2	0.00e+00	0	49	104	37866176512	79	18871
2026-01-18 20:51:16.35	336.27	2.44	-54.1	-56.2	6.2	0.00e+00	0	49	104	37866176512	79	18808
2026-01-18 20:51:17.36	336.37	2.38	-54.1	-56.3	6.2	0.00e+00	0	49	104	37866176512	79	18849
2026-01-18 20:51:18.37	336.47	2.32	-54.1	-56.2	6.2	0.00e+00	0	49	104	37866176512	79	18805
2026-01-18 20:51:19.37	336.57	2.26	-54.1	-56.2	6.2	0.00e+00	0	49	104	37866176512	79	18769
2026-01-18 20:51:20.38	336.66	2.20	-54.1	-56.2	6.2	0.00e+00	0	49	104	37866176512	79	18765
2026-01-18 20:51:21.39	336.76	2.14	-54.1	-56.2	6.2	0.00e+00	0	49	104	37866176512	79	18762
2026-01-18 20:51:22.40	336.85	2.08	-54.1	-56.2	6.2	0.00e+00	0	49	104	37866176512	79	18750
2026-01-18 20:51:23.41	336.95	2.02	-54.1	-56.2	6.2	0.00e+00	0	49	104	37866176512	79	18809
2026-01-18 20:51:24.41	337.04	1.96	-54.1	-56.2	6.2	0.00e+00	0	49	104	37866176512	79	18735

#Closed at: 2026-01-18 20:51:24
#Recorded file [37866 MB]: D:/lorett/data/31041_260118_234155.dat