passes_logs/2026/01/18/R3.2S_Murmansk/R3.2S_Murmansk__20260118_001516_KANOPUS-V_5_rec.log

#Pass ID: 20260118_001516_KANOPUS-V 5
#Satellite: KANOPUS-V 5
#Configuration: KANOPUS-V_8320
#almurnet v.1.7.20251203
#Start time: 2026-01-18 00:15:17

#Version: 2.2.20231116
#Station: R3.2S_Murmansk
#Location: 33.079688 lon 68.888172 lat
#TLE: 1 43876U 18111A   26017.66658644  .00002803  00000+0  12058-3 0  9992
#TLE: 2 43876  97.3688 286.1324 0001777  87.2776 272.8665 15.23451717391876

#Time	Az	El	Level	Level2	SNR	BER	BlckErr	Temp	State	Recorded	gain1	gain2
2026-01-18 00:15:17.93	23.98	2.10	-53.0	-61.9	3.8	7.45e-01	0	34	0	0	78	9505
2026-01-18 00:15:18.93	23.90	2.16	-53.0	-61.8	3.8	7.45e-01	0	34	104	0	77	10050
2026-01-18 00:15:19.94	23.82	2.23	-53.0	-61.8	3.8	7.46e-01	0	34	104	0	77	9998
2026-01-18 00:15:20.95	23.74	2.29	-53.0	-61.8	3.8	7.45e-01	0	34	104	0	77	10020
2026-01-18 00:15:21.96	23.66	2.35	-53.0	-61.8	3.8	7.47e-01	0	34	104	0	77	10039
2026-01-18 00:15:22.96	23.58	2.42	-53.0	-61.8	3.8	7.45e-01	0	34	104	0	77	10000
2026-01-18 00:15:23.97	23.50	2.48	-53.0	-61.8	3.8	7.44e-01	0	34	104	0	77	9987
2026-01-18 00:15:24.98	23.42	2.55	-53.0	-61.8	3.8	7.45e-01	0	34	104	0	77	10003
2026-01-18 00:15:25.99	23.33	2.61	-53.0	-61.8	3.8	7.45e-01	0	34	104	0	77	10013
2026-01-18 00:15:27.00	23.25	2.68	-53.0	-61.8	3.8	7.44e-01	0	34	104	0	77	9966
2026-01-18 00:15:28.01	23.17	2.75	-53.0	-61.8	3.8	7.44e-01	0	34	104	0	77	10033
2026-01-18 00:15:29.02	23.08	2.81	-53.0	-61.8	3.8	7.46e-01	0	34	104	0	77	10000
2026-01-18 00:15:30.02	23.00	2.88	-53.0	-61.8	3.8	7.46e-01	0	34	104	0	77	9992
2026-01-18 00:15:31.03	22.92	2.94	-53.0	-61.8	3.8	7.46e-01	0	34	104	0	77	10002
2026-01-18 00:15:32.04	22.83	3.01	-53.0	-61.8	3.8	7.45e-01	0	34	104	0	77	10006
2026-01-18 00:15:33.05	22.74	3.08	-53.0	-61.8	3.8	7.45e-01	0	34	104	0	77	9980
2026-01-18 00:15:34.06	22.66	3.14	-53.0	-61.8	3.8	7.46e-01	0	34	104	0	77	10000
2026-01-18 00:15:35.06	22.57	3.21	-53.0	-61.8	3.8	7.45e-01	0	34	104	0	77	10004
2026-01-18 00:15:36.07	22.48	3.28	-53.0	-61.8	3.8	7.45e-01	0	34	104	0	77	10004
2026-01-18 00:15:37.08	22.40	3.34	-53.0	-61.8	3.8	7.44e-01	0	35	104	0	77	10035
2026-01-18 00:15:38.09	22.31	3.41	-53.0	-61.8	3.8	7.45e-01	0	35	104	0	77	9986
2026-01-18 00:15:39.10	22.22	3.48	-53.0	-61.8	3.8	7.44e-01	0	35	104	0	77	9968
2026-01-18 00:15:40.10	22.13	3.54	-53.0	-61.8	3.8	7.45e-01	0	35	104	0	77	9999
2026-01-18 00:15:41.11	22.04	3.61	-53.0	-61.8	3.8	7.46e-01	0	35	104	0	77	9991
2026-01-18 00:15:42.12	21.95	3.68	-53.0	-61.8	3.8	7.45e-01	0	35	104	0	77	9995
2026-01-18 00:15:43.13	21.86	3.75	-53.0	-61.8	3.8	7.47e-01	0	35	104	0	77	9946
2026-01-18 00:15:44.14	21.77	3.82	-53.0	-61.8	3.8	7.46e-01	0	35	104	0	77	9990
2026-01-18 00:15:45.14	21.68	3.88	-53.0	-61.8	3.8	7.45e-01	0	35	104	0	77	10016
2026-01-18 00:15:46.15	21.58	3.95	-53.0	-61.8	3.8	7.45e-01	0	35	104	0	77	10013
2026-01-18 00:15:47.16	21.49	4.02	-53.0	-61.8	3.8	7.47e-01	0	35	104	0	77	9963
2026-01-18 00:15:48.17	21.40	4.09	-53.0	-61.8	3.8	7.47e-01	0	35	104	0	77	10009
2026-01-18 00:15:49.18	21.30	4.16	-53.0	-61.8	3.8	7.46e-01	0	35	104	0	77	10016
2026-01-18 00:15:50.18	21.21	4.23	-53.0	-61.8	3.8	7.46e-01	0	35	104	0	77	10015
2026-01-18 00:15:51.19	21.11	4.30	-53.0	-61.8	3.8	7.45e-01	0	35	104	0	77	10032
2026-01-18 00:15:52.20	21.01	4.37	-53.0	-61.8	3.8	7.45e-01	0	35	104	0	77	10006
2026-01-18 00:15:53.21	20.92	4.44	-53.0	-61.8	3.8	7.45e-01	0	35	104	0	77	10006
2026-01-18 00:15:54.22	20.82	4.51	-53.0	-61.8	3.8	7.43e-01	0	35	104	0	77	9980
2026-01-18 00:15:55.22	20.72	4.58	-53.0	-61.8	3.8	7.46e-01	0	35	104	0	77	9976
2026-01-18 00:15:56.23	20.62	4.65	-53.0	-61.8	3.8	7.46e-01	0	35	104	0	77	9998
2026-01-18 00:15:57.24	20.52	4.72	-53.0	-61.8	3.8	7.46e-01	0	35	104	0	77	10023
2026-01-18 00:15:58.24	20.42	4.79	-53.0	-61.8	3.8	7.45e-01	0	35	104	0	77	9999
2026-01-18 00:15:59.25	20.32	4.86	-53.0	-61.8	3.8	7.44e-01	0	35	104	0	77	10016
2026-01-18 00:16:00.26	20.22	4.93	-53.0	-61.8	3.8	7.44e-01	0	35	104	0	77	9994
2026-01-18 00:16:01.27	20.12	5.00	-53.0	-61.8	3.8	7.44e-01	0	35	104	0	77	10014
2026-01-18 00:16:02.28	20.02	5.07	-53.0	-61.8	3.8	7.45e-01	0	35	104	0	77	9990
2026-01-18 00:16:03.28	19.91	5.14	-53.0	-61.8	3.8	7.45e-01	0	35	104	0	77	10057
2026-01-18 00:16:04.29	19.81	5.22	-53.1	-61.9	3.8	7.46e-01	0	35	104	0	77	10099
2026-01-18 00:16:05.30	19.71	5.29	-53.0	-61.8	3.8	7.46e-01	0	35	104	0	77	9992
2026-01-18 00:16:06.31	19.60	5.36	-53.1	-61.9	3.8	7.44e-01	0	35	104	0	77	10172
2026-01-18 00:16:07.32	19.49	5.43	-53.0	-61.8	3.8	7.45e-01	0	35	104	0	77	9969
2026-01-18 00:16:08.32	19.39	5.50	-53.1	-61.9	3.8	7.46e-01	0	35	104	0	77	10153
2026-01-18 00:16:09.33	19.28	5.58	-53.0	-61.8	3.8	7.44e-01	0	35	104	0	77	10010
2026-01-18 00:16:10.34	19.17	5.65	-53.1	-61.9	3.8	7.46e-01	0	35	104	0	77	10170
2026-01-18 00:16:11.35	19.06	5.72	-53.0	-61.9	3.8	7.46e-01	0	35	104	0	77	10060
2026-01-18 00:16:12.36	18.95	5.80	-53.1	-62.0	3.8	7.44e-01	0	35	104	0	77	10189
2026-01-18 00:16:13.36	18.84	5.87	-53.1	-61.9	3.8	7.46e-01	0	35	104	0	77	10129
2026-01-18 00:16:14.37	18.73	5.94	-53.1	-62.0	3.8	7.46e-01	0	35	104	0	77	10227
2026-01-18 00:16:15.38	18.62	6.02	-53.1	-61.9	3.8	7.46e-01	0	35	104	0	77	10104
2026-01-18 00:16:16.38	18.51	6.09	-53.1	-61.9	3.8	7.45e-01	0	35	104	0	77	10164
2026-01-18 00:16:17.39	18.40	6.17	-53.1	-61.9	3.8	7.43e-01	0	35	104	0	77	10135
2026-01-18 00:16:18.40	18.28	6.24	-53.2	-62.0	3.8	7.44e-01	0	35	104	0	77	10246
2026-01-18 00:16:19.41	18.17	6.31	-53.1	-61.9	3.8	7.44e-01	0	35	104	0	77	10174
2026-01-18 00:16:20.42	18.05	6.39	-53.2	-62.0	3.8	7.45e-01	0	35	104	0	77	10222
2026-01-18 00:16:21.42	17.93	6.46	-53.2	-62.0	3.8	7.46e-01	0	35	104	0	77	10191
2026-01-18 00:16:22.43	17.82	6.54	-53.2	-62.1	3.8	7.45e-01	0	35	104	0	77	10311
2026-01-18 00:16:23.44	17.70	6.61	-53.2	-62.0	3.8	7.45e-01	0	35	104	0	77	10211
2026-01-18 00:16:24.45	17.58	6.69	-53.2	-62.0	3.8	7.45e-01	0	35	104	0	77	10241
2026-01-18 00:16:25.46	17.46	6.77	-53.2	-62.0	3.8	7.45e-01	0	35	104	0	77	10266
2026-01-18 00:16:26.47	17.34	6.84	-53.2	-62.0	3.8	7.45e-01	0	35	104	0	77	10268
2026-01-18 00:16:27.47	17.22	6.92	-53.2	-62.0	3.8	7.47e-01	0	35	104	0	77	10263
2026-01-18 00:16:28.48	17.10	6.99	-53.2	-62.1	3.8	7.46e-01	0	35	104	0	77	10328
2026-01-18 00:16:29.49	16.97	7.07	-53.2	-62.1	3.8	7.45e-01	0	35	104	0	77	10295
2026-01-18 00:16:30.50	16.85	7.15	-53.3	-62.1	3.8	7.45e-01	0	35	104	0	77	10313
2026-01-18 00:16:31.50	16.73	7.22	-53.2	-62.0	3.8	7.44e-01	0	35	104	0	77	10263
2026-01-18 00:16:32.51	16.60	7.30	-53.3	-62.1	3.8	7.46e-01	0	35	104	0	77	10347
2026-01-18 00:16:33.52	16.48	7.38	-53.3	-62.1	3.8	7.46e-01	0	35	104	0	77	10342
2026-01-18 00:16:34.53	16.35	7.46	-53.3	-62.1	3.8	7.46e-01	0	35	104	0	77	10331
2026-01-18 00:16:35.54	16.22	7.53	-53.3	-62.1	3.8	7.44e-01	0	35	104	0	77	10383
2026-01-18 00:16:36.55	16.09	7.61	-53.3	-62.1	3.8	7.45e-01	0	36	104	0	77	10392
2026-01-18 00:16:37.56	15.96	7.69	-53.3	-62.2	3.8	7.46e-01	0	35	104	0	77	10422
2026-01-18 00:16:38.56	15.83	7.77	-53.3	-62.1	3.8	7.46e-01	0	35	104	0	77	10355
2026-01-18 00:16:39.57	15.70	7.85	-53.3	-62.1	3.8	7.46e-01	0	36	104	0	77	10379
2026-01-18 00:16:40.58	15.57	7.93	-53.3	-62.1	3.8	7.45e-01	0	36	104	0	77	10409
2026-01-18 00:16:41.58	15.43	8.01	-53.4	-62.2	3.8	7.44e-01	0	36	104	0	77	10436
2026-01-18 00:16:42.59	15.30	8.08	-53.3	-62.2	3.8	7.46e-01	0	35	104	0	77	10436
2026-01-18 00:16:43.60	15.16	8.16	-53.3	-62.2	3.8	7.46e-01	0	36	104	0	77	10431
2026-01-18 00:16:44.61	15.03	8.24	-53.3	-62.2	3.8	7.46e-01	0	36	104	0	77	10466
2026-01-18 00:16:45.62	14.89	8.32	-53.4	-62.2	3.8	7.47e-01	0	35	104	0	77	10494
2026-01-18 00:16:46.62	14.75	8.40	-53.4	-62.2	3.8	7.47e-01	0	35	104	0	77	10457
2026-01-18 00:16:47.63	14.61	8.48	-53.4	-62.2	3.8	7.44e-01	0	36	104	0	77	10493
2026-01-18 00:16:48.64	14.47	8.56	-53.4	-62.2	3.8	7.45e-01	0	36	104	0	77	10493
2026-01-18 00:16:49.65	14.33	8.65	-53.4	-62.3	3.8	7.45e-01	0	36	104	0	77	10571
2026-01-18 00:16:50.65	14.19	8.73	-53.4	-62.2	3.8	7.46e-01	0	36	104	0	77	10476
2026-01-18 00:16:51.66	14.05	8.81	-53.4	-62.2	3.8	7.44e-01	0	36	104	0	77	10521
2026-01-18 00:16:52.67	13.90	8.89	-53.4	-62.2	3.8	7.46e-01	0	36	104	0	77	10516
2026-01-18 00:16:53.68	13.76	8.97	-53.5	-62.3	3.8	7.46e-01	0	36	104	0	77	10592
2026-01-18 00:16:54.68	13.61	9.05	-53.4	-62.2	3.8	7.44e-01	0	36	104	0	77	10526
2026-01-18 00:16:55.69	13.47	9.13	-53.5	-62.3	3.8	7.44e-01	0	36	104	0	77	10585
2026-01-18 00:16:56.70	13.32	9.22	-53.4	-62.3	3.8	7.46e-01	0	36	104	0	77	10585
2026-01-18 00:16:57.71	13.17	9.30	-53.5	-62.3	3.8	7.45e-01	0	36	104	0	77	10628
2026-01-18 00:16:58.72	13.02	9.38	-53.5	-62.2	3.8	7.45e-01	0	36	104	0	77	10529
2026-01-18 00:16:59.73	12.87	9.46	-53.5	-62.3	3.8	7.46e-01	0	36	104	0	77	10619
2026-01-18 00:17:00.73	12.71	9.55	-53.5	-62.3	3.8	7.45e-01	0	36	104	0	77	10583
2026-01-18 00:17:01.74	12.56	9.63	-53.5	-62.4	3.8	7.45e-01	0	36	104	0	77	10686
2026-01-18 00:17:02.75	12.41	9.71	-53.5	-62.3	3.8	7.44e-01	0	36	104	0	77	10588
2026-01-18 00:17:03.76	12.25	9.80	-53.5	-62.4	3.8	7.46e-01	0	36	104	0	77	10661
2026-01-18 00:17:04.76	12.09	9.88	-53.5	-62.3	3.8	7.47e-01	0	36	104	0	77	10618
2026-01-18 00:17:05.77	11.93	9.96	-53.6	-62.4	3.8	7.46e-01	0	36	104	0	77	10733
2026-01-18 00:17:06.78	11.78	10.05	-53.5	-62.3	3.8	7.45e-01	0	36	104	0	77	10602
2026-01-18 00:17:07.79	11.61	10.13	-53.5	-62.4	3.8	7.46e-01	0	36	104	0	77	10675
2026-01-18 00:17:08.80	11.45	10.22	-53.5	-62.4	3.8	7.45e-01	0	36	104	0	77	10670
2026-01-18 00:17:09.80	11.29	10.30	-53.6	-62.4	3.8	7.46e-01	0	36	104	0	77	10759
2026-01-18 00:17:10.81	11.13	10.39	-53.5	-62.3	3.8	7.45e-01	0	36	104	0	77	10641
2026-01-18 00:17:11.82	10.96	10.47	-53.6	-62.4	3.8	7.44e-01	0	36	104	0	77	10711
2026-01-18 00:17:12.83	10.79	10.56	-53.6	-62.4	3.8	7.45e-01	0	36	104	0	77	10696
2026-01-18 00:17:13.84	10.63	10.64	-53.6	-62.5	3.8	7.45e-01	0	36	104	0	77	10813
2026-01-18 00:17:14.84	10.46	10.73	-53.5	-62.3	3.8	7.46e-01	0	36	104	0	77	10634
2026-01-18 00:17:15.85	10.29	10.81	-53.6	-62.4	3.8	7.45e-01	0	36	104	0	77	10745
2026-01-18 00:17:16.86	10.12	10.90	-53.6	-62.4	3.8	7.45e-01	0	36	104	0	77	10683
2026-01-18 00:17:17.87	9.94	10.99	-53.6	-62.5	3.8	7.44e-01	0	36	104	0	77	10843
2026-01-18 00:17:18.88	9.77	11.07	-53.6	-62.4	3.8	7.44e-01	0	36	104	0	77	10696
2026-01-18 00:17:19.88	9.60	11.16	-53.6	-62.4	3.8	7.47e-01	0	36	104	0	77	10746
2026-01-18 00:17:20.89	9.42	11.25	-53.6	-62.4	3.8	7.46e-01	0	36	104	0	77	10745
2026-01-18 00:17:21.90	9.24	11.33	-53.7	-62.5	3.8	7.45e-01	0	36	104	0	77	10824
2026-01-18 00:17:22.91	9.06	11.42	-53.6	-62.4	3.8	7.46e-01	0	36	104	0	77	10756
2026-01-18 00:17:23.92	8.88	11.51	-53.6	-62.4	3.8	7.46e-01	0	36	104	0	77	10771
2026-01-18 00:17:24.93	8.70	11.60	-53.6	-62.5	3.8	7.45e-01	0	36	104	0	77	10779
2026-01-18 00:17:25.93	8.52	11.68	-53.7	-62.5	3.8	7.46e-01	0	36	104	0	77	10821
2026-01-18 00:17:26.94	8.33	11.77	-53.6	-62.4	3.8	7.45e-01	0	36	104	0	77	10757
2026-01-18 00:17:27.95	8.14	11.86	-53.7	-62.5	3.8	7.44e-01	0	36	104	0	77	10858
2026-01-18 00:17:28.96	7.96	11.95	-53.6	-62.5	3.8	7.44e-01	0	36	104	0	77	10818
2026-01-18 00:17:29.96	7.77	12.04	-53.7	-62.5	3.8	7.44e-01	0	36	104	0	77	10850
2026-01-18 00:17:30.97	7.58	12.13	-53.6	-62.4	3.8	7.45e-01	0	36	104	0	77	10775
2026-01-18 00:17:31.98	7.39	12.21	-53.7	-62.5	3.8	7.45e-01	0	36	104	0	77	10866
2026-01-18 00:17:32.99	7.19	12.30	-53.7	-62.5	3.8	7.46e-01	0	36	104	0	77	10839
2026-01-18 00:17:34.00	7.00	12.39	-53.7	-62.6	3.8	7.46e-01	0	36	104	0	78	10328
2026-01-18 00:17:35.00	6.80	12.48	-53.7	-62.5	3.8	7.46e-01	0	36	104	0	78	10225
2026-01-18 00:17:36.01	6.61	12.57	-53.7	-62.6	3.8	7.46e-01	0	36	104	0	78	10301
2026-01-18 00:17:37.02	6.41	12.66	-53.7	-62.5	3.8	7.44e-01	0	36	104	0	78	10245
2026-01-18 00:17:38.03	6.21	12.75	-53.8	-62.6	3.8	7.45e-01	0	36	104	0	78	10299
2026-01-18 00:17:39.03	6.01	12.84	-53.7	-62.5	3.8	7.46e-01	0	36	104	0	78	10258
2026-01-18 00:17:40.04	5.80	12.93	-53.7	-62.6	3.8	7.46e-01	0	36	104	0	78	10325
2026-01-18 00:17:41.05	5.60	13.02	-53.7	-62.5	3.8	7.45e-01	0	36	104	0	78	10280
2026-01-18 00:17:42.06	5.39	13.11	-53.8	-62.6	3.8	7.43e-01	0	36	104	0	78	10347
2026-01-18 00:17:43.07	5.18	13.20	-53.7	-62.5	3.8	7.45e-01	0	36	104	0	78	10293
2026-01-18 00:17:44.08	4.97	13.29	-53.8	-62.6	3.8	7.46e-01	0	36	104	0	78	10331
2026-01-18 00:17:45.08	4.76	13.38	-53.7	-62.6	3.8	7.46e-01	0	36	104	0	78	10319
2026-01-18 00:17:46.09	4.55	13.47	-53.8	-62.6	3.8	7.46e-01	0	36	104	0	78	10376
2026-01-18 00:17:47.10	4.34	13.56	-53.7	-62.6	3.8	7.45e-01	0	36	104	0	78	10321
2026-01-18 00:17:48.11	4.12	13.65	-53.8	-62.6	3.8	7.46e-01	0	36	104	0	78	10356
2026-01-18 00:17:49.12	3.90	13.75	-53.8	-62.6	3.8	7.45e-01	0	36	104	0	78	10346
2026-01-18 00:17:50.12	3.68	13.84	-53.8	-62.6	3.8	7.45e-01	0	36	104	0	78	10362
2026-01-18 00:17:51.13	3.46	13.93	-53.7	-62.6	3.8	7.47e-01	0	36	104	0	78	10322
2026-01-18 00:17:52.14	3.24	14.02	-53.8	-62.6	3.8	7.44e-01	0	36	104	0	78	10362
2026-01-18 00:17:53.15	3.01	14.11	-53.8	-62.6	3.8	7.45e-01	0	36	104	0	78	10325
2026-01-18 00:17:54.16	2.79	14.20	-53.8	-62.6	3.8	7.48e-01	0	36	104	0	78	10408
2026-01-18 00:17:55.16	2.56	14.29	-53.8	-62.6	3.8	7.45e-01	0	36	104	0	78	10372
2026-01-18 00:17:56.17	2.33	14.38	-53.8	-62.6	3.8	7.46e-01	0	36	104	0	78	10394
2026-01-18 00:17:57.18	2.10	14.47	-53.8	-62.6	3.8	7.46e-01	0	36	104	0	78	10356
2026-01-18 00:17:58.19	1.87	14.57	-53.8	-62.7	3.8	7.46e-01	0	36	104	0	78	10418
2026-01-18 00:17:59.20	1.63	14.66	-53.8	-62.6	3.8	7.47e-01	0	36	104	0	78	10322
2026-01-18 00:18:00.20	1.40	14.75	-53.8	-62.6	3.8	7.45e-01	0	36	104	0	78	10406
2026-01-18 00:18:01.21	1.16	14.84	-53.8	-62.6	3.8	7.46e-01	0	36	104	0	78	10404
2026-01-18 00:18:02.22	0.92	14.93	-53.9	-62.7	3.8	7.45e-01	0	36	104	0	78	10478
2026-01-18 00:18:03.23	0.68	15.02	-53.8	-62.7	3.8	7.44e-01	0	36	104	0	78	10444
2026-01-18 00:18:04.23	0.44	15.12	-53.8	-62.7	3.8	7.47e-01	0	36	104	0	78	10427
2026-01-18 00:18:05.24	0.19	15.21	-53.8	-62.7	3.8	7.47e-01	0	36	104	0	78	10423
2026-01-18 00:18:06.25	359.94	15.30	-53.9	-62.7	3.8	7.45e-01	0	36	104	0	78	10465
2026-01-18 00:18:07.26	359.70	15.39	-53.8	-62.6	3.8	7.45e-01	0	36	104	0	78	10405
2026-01-18 00:18:08.26	359.45	15.48	-53.9	-62.7	3.8	7.45e-01	0	36	104	0	78	10453
2026-01-18 00:18:09.27	359.19	15.57	-53.8	-62.7	3.8	7.45e-01	0	36	104	0	78	10430
2026-01-18 00:18:10.28	358.94	15.67	-53.9	-62.7	3.8	7.46e-01	0	36	104	0	78	10496
2026-01-18 00:18:11.29	358.68	15.76	-53.8	-62.6	3.8	7.45e-01	0	36	104	0	78	10401
2026-01-18 00:18:12.30	358.42	15.85	-53.9	-62.7	3.8	7.45e-01	0	36	104	0	78	10449
2026-01-18 00:18:13.30	358.17	15.94	-53.9	-62.7	3.8	7.47e-01	0	36	104	0	78	10477
2026-01-18 00:18:14.31	357.90	16.03	-53.9	-62.7	3.8	7.46e-01	0	36	104	0	78	10501
2026-01-18 00:18:15.32	357.64	16.12	-53.9	-62.7	3.8	7.44e-01	0	36	104	0	78	10482
2026-01-18 00:18:16.33	357.37	16.21	-53.9	-62.8	3.8	7.46e-01	0	36	104	0	78	10557
2026-01-18 00:18:17.34	357.11	16.30	-53.9	-62.7	3.8	7.45e-01	0	36	104	0	78	10497
2026-01-18 00:18:18.34	356.84	16.40	-53.9	-62.8	3.8	7.45e-01	0	36	104	0	78	10534
2026-01-18 00:18:19.35	356.57	16.49	-53.9	-62.7	3.8	7.44e-01	0	36	104	0	78	10489
2026-01-18 00:18:20.36	356.29	16.58	-53.9	-62.7	3.8	7.46e-01	0	36	104	0	78	10494
2026-01-18 00:18:21.37	356.02	16.67	-53.9	-62.7	3.8	7.46e-01	0	36	104	0	78	10509
2026-01-18 00:18:22.37	355.74	16.76	-53.9	-62.8	3.8	7.45e-01	0	36	104	0	78	10549
2026-01-18 00:18:23.38	355.46	16.85	-53.9	-62.7	3.8	7.45e-01	0	36	104	0	78	10528
2026-01-18 00:18:24.39	355.18	16.94	-53.9	-62.8	3.8	7.44e-01	0	36	104	0	78	10538
2026-01-18 00:18:25.40	354.90	17.03	-53.9	-62.7	3.8	7.46e-01	0	36	104	0	78	10510
2026-01-18 00:18:26.41	354.61	17.12	-53.9	-62.8	3.8	7.45e-01	0	36	104	0	78	10568
2026-01-18 00:18:27.42	354.32	17.21	-53.9	-62.7	3.8	7.45e-01	0	36	104	0	78	10469
2026-01-18 00:18:28.42	354.03	17.29	-53.9	-62.8	3.8	7.46e-01	0	36	104	0	78	10540
2026-01-18 00:18:29.43	353.74	17.38	-53.9	-62.8	3.8	7.45e-01	0	36	104	0	78	10544
2026-01-18 00:18:30.44	353.45	17.47	-53.9	-62.8	3.8	7.46e-01	0	36	104	0	78	10562
2026-01-18 00:18:31.45	353.15	17.56	-53.9	-62.8	3.8	7.45e-01	0	36	104	0	78	10562
2026-01-18 00:18:32.45	352.86	17.65	-53.9	-62.7	3.8	7.44e-01	0	36	104	0	78	10530
2026-01-18 00:18:33.46	352.56	17.74	-53.9	-62.8	3.8	7.46e-01	0	36	104	0	78	10547
2026-01-18 00:18:34.47	352.26	17.82	-54.0	-62.8	3.8	7.44e-01	0	36	104	0	78	10589
2026-01-18 00:18:35.48	351.95	17.91	-54.0	-62.7	3.8	7.46e-01	0	36	104	0	78	10523
2026-01-18 00:18:36.49	351.64	18.00	-54.0	-62.8	3.8	7.47e-01	0	36	104	0	78	10594
2026-01-18 00:18:37.49	351.34	18.08	-54.0	-62.8	3.8	7.45e-01	0	36	104	0	78	10612
2026-01-18 00:18:38.51	351.03	18.17	-54.0	-62.8	3.8	7.46e-01	0	36	104	0	78	10583
2026-01-18 00:18:39.51	350.72	18.26	-54.0	-62.8	3.8	7.45e-01	0	36	104	0	78	10592
2026-01-18 00:18:40.52	350.40	18.34	-54.0	-62.8	3.8	7.46e-01	0	36	104	0	78	10614
2026-01-18 00:18:41.53	350.09	18.43	-54.0	-62.8	3.8	7.46e-01	0	36	104	0	78	10610
2026-01-18 00:18:42.54	349.77	18.51	-54.0	-62.8	3.8	7.45e-01	0	36	104	0	78	10619
2026-01-18 00:18:43.54	349.45	18.59	-54.0	-62.8	3.8	7.46e-01	0	36	104	0	78	10580
2026-01-18 00:18:44.55	349.13	18.68	-54.0	-62.8	3.8	7.45e-01	0	36	104	0	78	10589
2026-01-18 00:18:45.56	348.80	18.76	-54.0	-62.8	3.8	7.45e-01	0	36	104	0	78	10630
2026-01-18 00:18:46.57	348.47	18.84	-54.0	-62.8	3.8	7.46e-01	0	36	104	0	78	10639
2026-01-18 00:18:47.57	348.15	18.92	-54.0	-62.8	3.8	7.43e-01	0	36	104	0	78	10619
2026-01-18 00:18:48.58	347.82	19.01	-54.0	-62.8	3.8	7.44e-01	0	36	104	0	78	10614
2026-01-18 00:18:49.59	347.48	19.09	-54.0	-62.9	3.8	7.45e-01	0	36	104	0	78	10657
2026-01-18 00:18:50.60	347.15	19.17	-54.0	-62.8	3.8	7.45e-01	0	36	104	0	78	10653
2026-01-18 00:18:51.60	346.82	19.25	-54.0	-62.9	3.8	7.45e-01	0	36	104	0	78	10659
2026-01-18 00:18:52.61	346.48	19.33	-54.0	-62.8	3.8	7.43e-01	0	36	104	0	78	10612
2026-01-18 00:18:53.62	346.13	19.40	-54.0	-62.9	3.8	7.46e-01	0	36	104	0	78	10678
2026-01-18 00:18:54.63	345.79	19.48	-54.0	-62.8	3.8	7.45e-01	0	36	104	0	78	10626
2026-01-18 00:18:55.64	345.45	19.56	-54.0	-62.9	3.8	7.44e-01	0	36	104	0	78	10676
2026-01-18 00:18:56.64	345.10	19.64	-54.0	-62.8	3.8	7.45e-01	0	36	104	0	78	10648
2026-01-18 00:18:57.65	344.75	19.71	-54.1	-62.9	3.8	7.45e-01	0	36	104	0	78	10666
2026-01-18 00:18:58.66	344.40	19.79	-54.0	-62.9	3.8	7.46e-01	0	36	104	0	78	10678
2026-01-18 00:18:59.67	344.05	19.86	-54.1	-62.9	3.8	7.44e-01	0	36	104	0	78	10680
2026-01-18 00:19:00.68	343.69	19.94	-54.1	-62.9	3.8	7.47e-01	0	36	104	0	78	10677
2026-01-18 00:19:01.68	343.34	20.01	-54.1	-62.9	3.8	7.45e-01	0	36	104	0	78	10714
2026-01-18 00:19:02.69	342.98	20.08	-54.1	-62.9	3.8	7.45e-01	0	36	104	0	78	10671
2026-01-18 00:19:03.70	342.62	20.15	-54.1	-62.9	3.8	7.46e-01	0	36	104	0	78	10745
2026-01-18 00:19:04.71	342.25	20.22	-54.1	-62.9	3.8	7.46e-01	0	36	104	0	78	10688
2026-01-18 00:19:05.71	341.89	20.29	-54.1	-62.9	3.8	7.45e-01	0	36	104	0	78	10720
2026-01-18 00:19:06.73	341.52	20.36	-54.1	-62.9	3.8	7.48e-01	0	36	104	0	78	10709
2026-01-18 00:19:07.73	341.16	20.43	-54.1	-62.9	3.8	7.45e-01	0	36	104	0	78	10729
2026-01-18 00:19:08.74	340.79	20.50	-54.1	-62.9	3.8	7.45e-01	0	36	104	0	78	10682
2026-01-18 00:19:09.75	340.41	20.56	-54.1	-62.9	3.8	7.47e-01	0	36	104	0	78	10768
2026-01-18 00:19:10.75	340.04	20.63	-54.1	-62.9	3.8	7.44e-01	0	36	104	0	78	10714
2026-01-18 00:19:11.76	339.66	20.69	-54.1	-62.9	3.8	7.46e-01	0	36	104	0	78	10742
2026-01-18 00:19:12.77	339.29	20.76	-54.1	-62.9	3.8	7.46e-01	0	36	104	0	78	10730
2026-01-18 00:19:13.78	338.91	20.82	-54.1	-62.9	3.8	7.46e-01	0	36	104	0	78	10737
2026-01-18 00:19:14.78	338.53	20.88	-54.1	-62.9	3.8	7.46e-01	0	36	104	0	78	10737
2026-01-18 00:19:15.79	338.15	20.94	-54.1	-63.0	3.8	7.46e-01	0	36	104	0	78	10790
2026-01-18 00:19:16.80	337.76	21.00	-54.1	-62.9	3.8	7.44e-01	0	36	104	0	78	10759
2026-01-18 00:19:17.81	337.37	21.06	-54.1	-62.9	3.8	7.45e-01	0	36	104	0	78	10745
2026-01-18 00:19:18.82	336.98	21.11	-54.1	-63.0	3.8	7.44e-01	0	36	104	0	78	10790
2026-01-18 00:19:19.82	336.60	21.17	-54.1	-62.9	3.8	7.44e-01	0	36	104	0	78	10753
2026-01-18 00:19:20.83	336.21	21.23	-54.1	-62.9	3.8	7.46e-01	0	36	104	0	78	10745
2026-01-18 00:19:21.84	335.81	21.28	-54.1	-63.0	3.8	7.46e-01	0	36	104	0	78	10798
2026-01-18 00:19:22.85	335.42	21.33	-54.1	-62.9	3.8	7.44e-01	0	36	104	0	78	10776
2026-01-18 00:19:23.86	335.02	21.38	-54.1	-63.0	3.8	7.47e-01	0	36	104	0	78	10804
2026-01-18 00:19:24.86	334.63	21.43	-54.1	-63.0	3.8	7.46e-01	0	36	104	0	78	10785
2026-01-18 00:19:25.87	334.23	21.48	-54.2	-63.0	3.8	7.46e-01	0	36	104	0	78	10828
2026-01-18 00:19:26.88	333.83	21.53	-54.1	-62.9	3.8	7.46e-01	0	36	104	0	78	10753
2026-01-18 00:19:27.89	333.42	21.58	-54.2	-63.0	3.8	7.44e-01	0	36	104	0	78	10793
2026-01-18 00:19:28.90	333.02	21.62	-54.1	-63.0	3.8	7.45e-01	0	36	104	0	78	10782
2026-01-18 00:19:29.90	332.62	21.67	-54.2	-63.0	3.8	7.44e-01	0	36	104	0	78	10823
2026-01-18 00:19:30.91	332.21	21.71	-54.1	-62.9	3.8	7.46e-01	0	36	104	0	78	10747
2026-01-18 00:19:31.92	331.80	21.75	-54.2	-63.0	3.8	7.46e-01	0	36	104	0	78	10826
2026-01-18 00:19:32.93	331.39	21.79	-54.1	-63.0	3.8	7.45e-01	0	36	104	0	78	10818
2026-01-18 00:19:33.94	330.98	21.83	-54.2	-63.0	3.8	7.46e-01	0	36	104	0	78	10835
2026-01-18 00:19:34.94	330.58	21.87	-54.1	-63.0	3.8	7.45e-01	0	36	104	0	78	10799
2026-01-18 00:19:35.95	330.16	21.91	-54.2	-63.0	3.8	7.47e-01	0	36	104	0	78	10808
2026-01-18 00:19:36.96	329.75	21.94	-54.1	-63.0	3.8	7.46e-01	0	36	104	0	78	10780
2026-01-18 00:19:37.97	329.34	21.98	-54.2	-63.0	3.8	7.46e-01	0	36	104	0	78	10832
2026-01-18 00:19:38.98	328.92	22.01	-54.2	-63.0	3.8	7.44e-01	0	36	104	0	78	10789
2026-01-18 00:19:39.98	328.51	22.04	-54.2	-63.0	3.8	7.45e-01	0	36	104	0	78	10840
2026-01-18 00:19:40.99	328.09	22.07	-54.2	-63.0	3.8	7.44e-01	0	36	104	0	78	10840
2026-01-18 00:19:42.00	327.67	22.10	-54.2	-63.0	3.8	7.44e-01	0	36	104	0	78	10853
2026-01-18 00:19:43.01	327.25	22.13	-54.2	-63.0	3.8	7.45e-01	0	36	104	0	78	10812
2026-01-18 00:19:44.01	326.84	22.15	-54.2	-63.0	3.8	7.47e-01	0	36	104	0	78	10853
2026-01-18 00:19:45.02	326.41	22.17	-54.2	-63.0	3.8	7.45e-01	0	36	104	0	78	10850
2026-01-18 00:19:46.03	325.99	22.20	-54.2	-63.1	3.8	7.46e-01	0	36	104	0	78	10904
2026-01-18 00:19:47.04	325.57	22.22	-54.2	-63.0	3.8	7.47e-01	0	36	104	0	78	10864
2026-01-18 00:19:48.05	325.15	22.24	-54.2	-63.0	3.8	7.46e-01	0	36	104	0	78	10898
2026-01-18 00:19:49.05	324.73	22.26	-54.2	-63.0	3.8	7.45e-01	0	36	104	0	78	10848
2026-01-18 00:19:50.06	324.30	22.27	-54.2	-63.0	3.8	7.45e-01	0	36	104	0	79	10289
2026-01-18 00:19:51.07	323.88	22.29	-54.2	-63.1	3.8	7.45e-01	0	36	104	0	79	10303
2026-01-18 00:19:52.08	323.45	22.30	-54.2	-63.1	3.8	7.46e-01	0	36	104	0	79	10317
2026-01-18 00:19:53.08	323.03	22.31	-54.2	-63.0	3.8	7.44e-01	0	36	104	0	79	10267
2026-01-18 00:19:54.09	322.61	22.32	-54.2	-63.1	3.8	7.44e-01	0	36	104	0	79	10320
2026-01-18 00:19:55.10	322.18	22.33	-54.2	-63.1	3.8	7.43e-01	0	36	104	0	79	10304
2026-01-18 00:19:56.11	321.75	22.34	-54.2	-63.1	3.8	7.45e-01	0	36	104	0	79	10319
2026-01-18 00:19:57.11	321.33	22.35	-54.2	-63.1	3.8	7.44e-01	0	36	104	0	79	10297
2026-01-18 00:19:58.12	320.90	22.35	-54.3	-63.1	3.8	7.46e-01	0	36	104	0	79	10329
2026-01-18 00:19:59.13	320.48	22.35	-54.2	-63.0	3.8	7.44e-01	0	36	104	0	79	10281
2026-01-18 00:20:00.14	320.05	22.36	-54.2	-63.1	3.8	7.46e-01	0	36	104	0	79	10297
2026-01-18 00:20:01.15	319.62	22.36	-54.2	-63.1	3.8	7.45e-01	0	36	104	0	79	10302
2026-01-18 00:20:02.16	319.20	22.35	-54.3	-63.1	3.8	7.46e-01	0	36	104	0	79	10316
2026-01-18 00:20:03.16	318.77	22.35	-54.2	-63.1	3.8	7.46e-01	0	36	104	0	79	10328
2026-01-18 00:20:04.17	318.35	22.35	-54.3	-63.1	3.8	7.45e-01	0	36	104	0	79	10349
2026-01-18 00:20:05.18	317.92	22.34	-54.2	-63.1	3.8	7.45e-01	0	36	104	0	79	10313
2026-01-18 00:20:06.19	317.49	22.33	-54.3	-63.1	3.8	7.45e-01	0	36	104	0	79	10329
2026-01-18 00:20:07.20	317.07	22.32	-54.2	-63.1	3.8	7.45e-01	0	36	104	0	79	10343
2026-01-18 00:20:08.20	316.65	22.31	-54.2	-63.1	3.8	7.45e-01	0	36	104	0	79	10332
2026-01-18 00:20:09.21	316.22	22.30	-54.3	-63.1	3.8	7.45e-01	0	36	104	0	79	10331
2026-01-18 00:20:10.22	315.79	22.29	-54.3	-63.1	3.8	7.45e-01	0	36	104	0	79	10325
2026-01-18 00:20:11.23	315.37	22.27	-54.3	-63.1	3.8	7.44e-01	0	36	104	0	79	10351
2026-01-18 00:20:12.24	314.95	22.25	-54.3	-63.1	3.8	7.46e-01	0	36	104	0	79	10354
2026-01-18 00:20:13.24	314.53	22.24	-54.3	-63.1	3.8	7.45e-01	0	36	104	0	79	10335
2026-01-18 00:20:14.25	314.10	22.22	-54.3	-63.1	3.8	7.46e-01	0	36	104	0	79	10364
2026-01-18 00:20:15.26	313.68	22.20	-54.3	-63.1	3.8	7.45e-01	0	36	104	0	79	10323
2026-01-18 00:20:16.27	313.26	22.17	-54.3	-63.1	3.8	7.46e-01	0	36	104	0	79	10340
2026-01-18 00:20:17.28	312.84	22.15	-54.3	-63.1	3.8	7.45e-01	0	36	104	0	79	10343
2026-01-18 00:20:18.28	312.42	22.12	-54.3	-63.1	3.8	7.47e-01	0	36	104	0	79	10401
2026-01-18 00:20:19.29	312.00	22.10	-54.3	-63.1	3.8	7.44e-01	0	36	104	0	79	10327
2026-01-18 00:20:20.30	311.58	22.07	-54.3	-63.1	3.8	7.47e-01	0	36	104	0	79	10367
2026-01-18 00:20:21.31	311.16	22.04	-54.3	-63.1	3.8	7.44e-01	0	36	104	0	79	10338
2026-01-18 00:20:22.32	310.75	22.01	-54.3	-63.1	3.8	7.45e-01	0	36	104	0	79	10366
2026-01-18 00:20:23.32	310.33	21.97	-54.3	-63.1	3.8	7.45e-01	0	36	104	0	79	10376
2026-01-18 00:20:24.33	309.92	21.94	-54.3	-63.1	3.8	7.44e-01	0	36	104	0	79	10366
2026-01-18 00:20:25.34	309.51	21.90	-54.3	-63.1	3.8	7.44e-01	0	36	104	0	79	10364
2026-01-18 00:20:26.35	309.09	21.87	-54.3	-63.1	3.8	7.46e-01	0	36	104	0	79	10371
2026-01-18 00:20:27.35	308.68	21.83	-54.3	-63.1	3.8	7.45e-01	0	36	104	0	79	10375
2026-01-18 00:20:28.36	308.27	21.79	-54.3	-63.1	3.8	7.44e-01	0	36	104	0	79	10352
2026-01-18 00:20:29.37	307.86	21.75	-54.3	-63.1	3.8	7.45e-01	0	36	104	0	79	10358
2026-01-18 00:20:30.38	307.46	21.71	-54.3	-63.1	3.8	7.47e-01	0	36	104	0	79	10381
2026-01-18 00:20:31.38	307.05	21.67	-54.3	-63.1	3.8	7.46e-01	0	36	104	0	79	10387
2026-01-18 00:20:32.39	306.65	21.62	-54.3	-63.1	3.8	7.45e-01	0	36	104	0	79	10350
2026-01-18 00:20:33.40	306.24	21.57	-54.3	-63.1	3.8	7.44e-01	0	36	104	0	79	10366
2026-01-18 00:20:34.41	305.84	21.53	-54.3	-63.1	3.8	7.44e-01	0	36	104	0	79	10393
2026-01-18 00:20:35.42	305.44	21.48	-54.3	-63.1	3.8	7.45e-01	0	36	104	0	79	10360
2026-01-18 00:20:36.43	305.04	21.43	-54.3	-63.1	3.8	7.45e-01	0	36	104	0	79	10384
2026-01-18 00:20:37.44	304.64	21.38	-54.3	-63.1	3.8	7.44e-01	0	36	104	0	79	10357
2026-01-18 00:20:38.44	304.25	21.33	-54.3	-63.1	3.8	7.44e-01	0	36	104	0	79	10396
2026-01-18 00:20:39.45	303.85	21.27	-54.3	-63.1	3.8	7.45e-01	0	36	104	0	79	10403
2026-01-18 00:20:40.46	303.46	21.22	-54.3	-63.1	3.8	7.47e-01	0	36	104	0	79	10366
2026-01-18 00:20:41.47	303.07	21.16	-54.3	-63.2	3.8	7.46e-01	0	36	104	0	79	10423
2026-01-18 00:20:42.48	302.67	21.11	-54.3	-63.1	3.8	7.44e-01	0	36	104	0	79	10394
2026-01-18 00:20:43.48	302.29	21.05	-54.3	-63.1	3.8	7.48e-01	0	36	104	0	79	10364
2026-01-18 00:20:44.49	301.90	20.99	-54.3	-63.1	3.8	7.45e-01	0	36	104	0	79	10380
2026-01-18 00:20:45.50	301.52	20.93	-54.3	-63.1	3.8	7.44e-01	0	36	104	0	79	10398
2026-01-18 00:20:46.51	301.13	20.87	-54.3	-63.2	3.8	7.46e-01	0	36	104	0	79	10424
2026-01-18 00:20:47.52	300.75	20.81	-54.3	-63.1	3.8	7.45e-01	0	36	104	0	79	10399
2026-01-18 00:20:48.52	300.37	20.75	-54.3	-63.2	3.8	7.43e-01	0	36	104	0	79	10457
2026-01-18 00:20:49.53	299.99	20.68	-54.3	-63.2	3.8	7.45e-01	0	36	104	0	79	10426
2026-01-18 00:20:50.54	299.62	20.62	-54.3	-63.1	3.8	7.45e-01	0	36	104	0	79	10408
2026-01-18 00:20:51.55	299.24	20.55	-54.3	-63.2	3.8	7.46e-01	0	36	104	0	79	10419
2026-01-18 00:20:52.56	298.87	20.49	-54.3	-63.2	3.8	7.44e-01	0	36	104	0	79	10454
2026-01-18 00:20:53.56	298.50	20.42	-54.4	-63.1	3.8	7.44e-01	0	36	104	0	79	10401
2026-01-18 00:20:54.57	298.13	20.35	-54.3	-63.1	3.8	7.47e-01	0	36	104	0	79	10410
2026-01-18 00:20:55.58	297.76	20.28	-54.3	-63.1	3.8	7.46e-01	0	36	104	0	79	10408
2026-01-18 00:20:56.59	297.40	20.21	-54.4	-63.2	3.8	7.44e-01	0	36	104	0	79	10435
2026-01-18 00:20:57.60	297.03	20.14	-54.3	-63.2	3.8	7.44e-01	0	36	104	0	79	10460
2026-01-18 00:20:58.61	296.67	20.07	-54.3	-63.2	3.8	7.45e-01	0	36	104	0	79	10449
2026-01-18 00:20:59.61	296.31	20.00	-54.4	-63.2	3.8	7.44e-01	0	36	104	0	79	10420
2026-01-18 00:21:00.62	295.96	19.92	-54.4	-63.2	3.8	7.46e-01	0	36	104	0	79	10454
2026-01-18 00:21:01.63	295.60	19.85	-54.4	-63.2	3.8	7.46e-01	0	36	104	0	79	10478
2026-01-18 00:21:02.64	295.25	19.77	-54.3	-63.2	3.8	7.45e-01	0	36	104	0	79	10436
2026-01-18 00:21:03.65	294.89	19.70	-54.4	-63.2	3.8	7.45e-01	0	36	104	0	79	10453
2026-01-18 00:21:04.65	294.55	19.62	-54.4	-63.2	3.8	7.46e-01	0	36	104	0	79	10522
2026-01-18 00:21:05.66	294.20	19.55	-54.4	-63.2	3.8	7.44e-01	0	36	104	0	79	10462
2026-01-18 00:21:06.67	293.85	19.47	-54.3	-63.2	3.8	7.44e-01	0	36	104	0	79	10428
2026-01-18 00:21:07.68	293.51	19.39	-54.4	-63.2	3.8	7.44e-01	0	36	104	0	79	10485
2026-01-18 00:21:08.68	293.17	19.31	-54.4	-63.2	3.8	7.45e-01	0	36	104	0	79	10507
2026-01-18 00:21:09.69	292.83	19.23	-54.4	-63.2	3.8	7.45e-01	0	36	104	0	79	10498
2026-01-18 00:21:10.70	292.49	19.15	-54.3	-63.2	3.8	7.44e-01	0	36	104	0	79	10440
2026-01-18 00:21:11.71	292.16	19.07	-54.4	-63.2	3.8	7.44e-01	0	36	104	0	79	10447
2026-01-18 00:21:12.72	291.82	18.99	-54.4	-63.2	3.8	7.44e-01	0	36	104	0	79	10493
2026-01-18 00:21:13.72	291.49	18.91	-54.4	-63.2	3.8	7.47e-01	0	36	104	0	79	10467
2026-01-18 00:21:14.73	291.16	18.83	-54.3	-63.2	3.8	7.45e-01	0	36	104	0	79	10441
2026-01-18 00:21:15.74	290.84	18.74	-54.3	-63.2	3.8	7.44e-01	0	36	104	0	79	10424
2026-01-18 00:21:16.75	290.51	18.66	-54.4	-63.2	3.8	7.46e-01	0	36	104	0	79	10454
2026-01-18 00:21:17.76	290.19	18.58	-54.4	-63.2	3.8	7.45e-01	0	36	104	0	79	10458
2026-01-18 00:21:18.76	289.87	18.49	-54.3	-63.1	3.8	7.45e-01	0	36	104	0	79	10401
2026-01-18 00:21:19.77	289.55	18.41	-54.3	-63.2	3.8	7.45e-01	0	36	104	0	79	10460
2026-01-18 00:21:20.78	289.23	18.32	-54.4	-63.2	3.8	7.46e-01	0	36	104	0	79	10463
2026-01-18 00:21:21.79	288.92	18.24	-54.3	-63.2	3.8	7.45e-01	0	36	104	0	79	10416
2026-01-18 00:21:22.79	288.61	18.15	-54.3	-63.1	3.8	7.46e-01	0	36	104	0	79	10350
2026-01-18 00:21:23.80	288.29	18.07	-54.3	-63.1	3.8	7.45e-01	0	36	104	0	79	10370
2026-01-18 00:21:24.81	287.99	17.98	-54.3	-63.2	3.8	7.45e-01	0	36	104	0	79	10416
2026-01-18 00:21:25.82	287.68	17.89	-54.3	-63.1	3.8	7.45e-01	0	36	104	0	79	10406
2026-01-18 00:21:26.83	287.37	17.80	-54.3	-63.1	3.8	7.45e-01	0	36	104	0	79	10359
2026-01-18 00:21:27.84	287.07	17.72	-54.3	-63.1	3.8	7.45e-01	0	36	104	0	79	10387
2026-01-18 00:21:28.85	286.77	17.63	-54.3	-63.1	3.8	7.44e-01	0	36	104	0	79	10384
2026-01-18 00:21:29.85	286.47	17.54	-54.3	-63.1	3.8	7.47e-01	0	36	104	0	79	10389
2026-01-18 00:21:30.86	286.18	17.45	-54.3	-63.1	3.8	7.46e-01	0	36	104	0	79	10360
2026-01-18 00:21:31.87	285.88	17.36	-54.3	-63.1	3.8	7.43e-01	0	36	104	0	79	10352
2026-01-18 00:21:32.88	285.59	17.27	-54.3	-63.2	3.8	7.45e-01	0	36	104	0	79	10428
2026-01-18 00:21:33.88	285.30	17.19	-54.3	-63.1	3.8	7.46e-01	0	36	104	0	79	10409
2026-01-18 00:21:34.89	285.01	17.10	-54.3	-63.1	3.8	7.46e-01	0	36	104	0	79	10330
2026-01-18 00:21:35.90	284.73	17.01	-54.3	-63.1	3.8	7.46e-01	0	36	104	0	79	10343
2026-01-18 00:21:36.91	284.44	16.92	-54.3	-63.1	3.8	7.46e-01	0	36	104	0	79	10405
2026-01-18 00:21:37.92	284.16	16.82	-54.3	-63.1	3.8	7.45e-01	0	36	104	0	79	10352
2026-01-18 00:21:38.93	283.88	16.73	-54.2	-63.1	3.8	7.45e-01	0	36	104	0	79	10320
2026-01-18 00:21:39.94	283.60	16.64	-54.2	-63.1	3.8	7.47e-01	0	36	104	0	79	10298
2026-01-18 00:21:40.94	283.33	16.55	-54.3	-63.1	3.8	7.46e-01	0	36	104	0	79	10348
2026-01-18 00:21:41.95	283.05	16.46	-54.3	-63.1	3.8	7.47e-01	0	36	104	0	79	10328
2026-01-18 00:21:42.96	282.78	16.37	-54.2	-63.0	3.8	7.45e-01	0	36	104	0	79	10262
2026-01-18 00:21:43.97	282.51	16.28	-54.2	-63.0	3.8	7.45e-01	0	36	104	0	79	10269
2026-01-18 00:21:44.98	282.24	16.19	-54.2	-63.1	3.8	7.45e-01	0	36	104	0	79	10326
2026-01-18 00:21:45.98	281.98	16.10	-54.2	-63.0	3.8	7.46e-01	0	36	104	0	79	10286
2026-01-18 00:21:46.99	281.71	16.01	-54.2	-63.0	3.8	7.45e-01	0	36	104	0	79	10259
2026-01-18 00:21:48.00	281.45	15.91	-54.2	-63.0	3.8	7.44e-01	0	36	104	0	79	10233
2026-01-18 00:21:49.00	281.19	15.82	-54.2	-63.1	3.8	7.45e-01	0	36	104	0	79	10306
2026-01-18 00:21:50.01	280.93	15.73	-54.2	-63.0	3.8	7.45e-01	0	36	104	0	79	10263
2026-01-18 00:21:51.02	280.67	15.64	-54.2	-63.0	3.8	7.45e-01	0	36	104	0	79	10233
2026-01-18 00:21:52.03	280.42	15.55	-54.2	-63.0	3.8	7.45e-01	0	36	104	0	79	10220
2026-01-18 00:21:53.04	280.16	15.46	-54.2	-63.0	3.8	7.44e-01	0	36	104	0	79	10253
2026-01-18 00:21:54.04	279.91	15.36	-54.2	-63.0	3.8	7.45e-01	0	36	104	0	79	10203
2026-01-18 00:21:55.05	279.66	15.27	-54.1	-63.0	3.8	7.42e-01	0	36	104	0	79	10208
2026-01-18 00:21:56.06	279.42	15.18	-54.1	-63.0	3.8	7.45e-01	0	36	104	0	79	10228
2026-01-18 00:21:57.07	279.17	15.09	-54.1	-63.0	3.8	7.47e-01	0	36	104	0	79	10183
2026-01-18 00:21:58.08	278.93	15.00	-54.1	-63.0	3.8	7.46e-01	0	36	104	0	79	10214
2026-01-18 00:21:59.09	278.68	14.90	-54.1	-63.0	3.8	7.45e-01	0	36	104	0	79	10194
2026-01-18 00:22:00.10	278.44	14.81	-54.1	-63.0	3.8	7.46e-01	0	36	104	0	79	10214
2026-01-18 00:22:01.10	278.21	14.72	-54.1	-62.9	3.8	7.44e-01	0	36	104	0	79	10121
2026-01-18 00:22:02.11	277.97	14.63	-54.1	-62.9	3.8	7.45e-01	0	36	104	0	79	10170
2026-01-18 00:22:03.12	277.73	14.54	-54.1	-62.9	3.8	7.46e-01	0	36	104	0	79	10111
2026-01-18 00:22:04.13	277.50	14.44	-54.1	-62.9	3.8	7.44e-01	0	36	104	0	79	10135
2026-01-18 00:22:05.14	277.27	14.35	-54.1	-62.9	3.8	7.45e-01	0	36	104	0	79	10134
2026-01-18 00:22:06.15	277.04	14.26	-54.1	-62.9	3.8	7.42e-01	0	36	104	0	79	10155
2026-01-18 00:22:07.16	276.81	14.17	-54.1	-62.9	3.8	7.45e-01	0	36	104	0	79	10104
2026-01-18 00:22:08.16	276.58	14.08	-54.1	-62.9	3.8	7.46e-01	0	36	104	0	79	10121
2026-01-18 00:22:09.17	276.36	13.98	-54.1	-62.9	3.8	7.45e-01	0	36	104	0	79	10124
2026-01-18 00:22:10.18	276.13	13.89	-54.1	-62.9	3.8	7.46e-01	0	36	104	0	79	10111
2026-01-18 00:22:11.19	275.91	13.80	-54.0	-62.9	3.8	7.45e-01	0	36	104	0	79	10119
2026-01-18 00:22:12.20	275.69	13.71	-54.0	-62.9	3.8	7.45e-01	0	36	104	0	79	10107
2026-01-18 00:22:13.20	275.48	13.62	-54.1	-62.9	3.8	7.45e-01	0	36	104	0	79	10100
2026-01-18 00:22:14.21	275.26	13.53	-54.1	-62.9	3.8	7.45e-01	0	36	104	0	79	10138
2026-01-18 00:22:15.22	275.04	13.44	-54.0	-62.8	3.8	7.45e-01	0	36	104	0	79	10034
2026-01-18 00:22:16.23	274.83	13.35	-54.0	-62.8	3.8	7.46e-01	0	36	104	0	79	10047
2026-01-18 00:22:17.24	274.62	13.25	-54.0	-62.9	3.8	7.45e-01	0	36	104	0	79	10075
2026-01-18 00:22:18.24	274.41	13.16	-54.0	-62.9	3.8	7.45e-01	0	36	104	0	79	10076
2026-01-18 00:22:19.25	274.20	13.07	-54.0	-62.8	3.8	7.45e-01	0	36	104	0	79	10022
2026-01-18 00:22:20.26	273.99	12.98	-54.0	-62.8	3.8	7.46e-01	0	36	104	0	79	10052
2026-01-18 00:22:21.27	273.79	12.89	-54.0	-62.9	3.8	7.45e-01	0	36	104	0	79	10062
2026-01-18 00:22:22.28	273.58	12.80	-54.0	-62.8	3.8	7.46e-01	0	36	104	0	79	10033
2026-01-18 00:22:23.29	273.38	12.71	-54.0	-62.8	3.8	7.45e-01	0	36	104	0	79	9998
2026-01-18 00:22:24.30	273.18	12.62	-54.0	-62.8	3.8	7.46e-01	0	36	104	0	79	10007
2026-01-18 00:22:25.30	272.98	12.53	-54.0	-62.8	3.8	7.45e-01	0	36	104	0	79	10017
2026-01-18 00:22:26.31	272.78	12.44	-54.0	-62.8	3.8	7.46e-01	0	36	104	0	79	9987
2026-01-18 00:22:27.32	272.59	12.35	-53.9	-62.8	3.8	7.45e-01	0	36	104	0	79	10002
2026-01-18 00:22:28.33	272.39	12.26	-54.0	-62.8	3.8	7.46e-01	0	36	104	0	79	10007
2026-01-18 00:22:29.34	272.20	12.17	-54.0	-62.8	3.8	7.45e-01	0	36	104	0	79	9987
2026-01-18 00:22:30.35	272.00	12.09	-53.9	-62.7	3.8	7.44e-01	0	36	104	0	79	9942
2026-01-18 00:22:31.35	271.81	12.00	-53.9	-62.7	3.8	7.45e-01	0	36	104	0	79	9912
2026-01-18 00:22:32.36	271.62	11.91	-53.9	-62.7	3.8	7.45e-01	0	36	104	0	79	9916
2026-01-18 00:22:33.37	271.44	11.82	-53.9	-62.8	3.8	7.46e-01	0	36	104	0	79	9968
2026-01-18 00:22:34.38	271.25	11.73	-53.9	-62.7	3.8	7.44e-01	0	36	104	0	79	9937
2026-01-18 00:22:35.39	271.06	11.64	-53.9	-62.7	3.8	7.45e-01	0	36	104	0	79	9854
2026-01-18 00:22:36.40	270.88	11.55	-53.9	-62.7	3.8	7.45e-01	0	36	104	0	79	9924
2026-01-18 00:22:37.41	270.70	11.47	-53.9	-62.7	3.8	7.46e-01	0	36	104	0	79	9936
2026-01-18 00:22:38.41	270.52	11.38	-53.9	-62.7	3.8	7.45e-01	0	36	104	0	79	9872
2026-01-18 00:22:39.42	270.34	11.29	-53.8	-62.6	3.8	7.45e-01	0	36	104	0	79	9772
2026-01-18 00:22:40.43	270.16	11.20	-53.8	-62.6	3.8	7.45e-01	0	36	104	0	79	9815
2026-01-18 00:22:41.43	269.98	11.12	-53.9	-62.7	3.8	7.47e-01	0	36	104	0	79	9937
2026-01-18 00:22:42.44	269.81	11.03	-53.8	-62.6	3.8	7.46e-01	0	36	104	0	79	9799
2026-01-18 00:22:43.45	269.63	10.94	-53.6	-62.5	3.8	7.45e-01	0	36	104	0	79	9656
2026-01-18 00:22:44.46	269.46	10.86	-53.7	-62.6	3.8	7.45e-01	0	36	104	0	79	9742
2026-01-18 00:22:45.46	269.29	10.77	-53.8	-62.6	3.8	7.46e-01	0	36	104	0	79	9806
2026-01-18 00:22:46.47	269.12	10.68	-53.7	-62.5	3.8	7.45e-01	0	36	104	0	79	9671
2026-01-18 00:22:47.48	268.95	10.60	-53.5	-62.3	3.8	7.45e-01	0	36	104	0	78	10012
2026-01-18 00:22:48.49	268.78	10.51	-53.6	-62.5	3.8	7.45e-01	0	36	104	0	78	10226
2026-01-18 00:22:49.49	268.61	10.43	-53.7	-62.6	3.8	7.46e-01	0	36	104	0	78	10318
2026-01-18 00:22:50.50	268.45	10.34	-53.4	-62.3	3.8	7.45e-01	0	36	104	0	78	9955
2026-01-18 00:22:51.51	268.28	10.26	-53.1	-61.9	3.8	7.44e-01	0	36	104	0	78	9547
2026-01-18 00:22:52.52	268.12	10.17	-53.0	-61.8	3.8	7.45e-01	0	36	104	0	78	9465
2026-01-18 00:22:53.52	267.96	10.09	-52.9	-61.8	3.8	7.45e-01	0	36	104	0	77	9999
2026-01-18 00:22:54.53	267.79	10.00	-53.0	-61.9	3.8	7.45e-01	0	36	104	0	77	10123
2026-01-18 00:22:55.54	267.63	9.92	-53.1	-61.9	3.8	7.46e-01	0	36	104	0	77	10138
2026-01-18 00:22:56.54	267.48	9.83	-53.5	-62.3	3.8	7.45e-01	0	36	104	0	77	10645
2026-01-18 00:22:57.55	267.32	9.75	-53.4	-62.3	3.8	7.45e-01	0	36	104	0	77	10555
2026-01-18 00:22:58.56	267.16	9.67	-53.2	-62.0	3.8	7.46e-01	0	36	104	0	77	10243
2026-01-18 00:22:59.57	267.01	9.58	-53.3	-62.1	3.8	7.43e-01	0	36	104	0	77	10301
2026-01-18 00:23:00.58	266.85	9.50	-53.3	-62.2	3.8	7.44e-01	0	36	104	0	77	10446
2026-01-18 00:23:01.58	266.70	9.42	-53.4	-62.3	3.8	7.45e-01	0	36	104	0	77	10535
2026-01-18 00:23:02.59	266.55	9.33	-53.5	-62.3	3.8	7.45e-01	0	36	104	0	77	10632
2026-01-18 00:23:03.60	266.40	9.25	-53.5	-62.3	3.8	7.45e-01	0	36	104	0	77	10642
2026-01-18 00:23:04.60	266.25	9.17	-53.7	-62.5	3.8	7.46e-01	0	36	104	0	77	10807
2026-01-18 00:23:05.61	266.10	9.09	-53.7	-62.5	3.8	7.46e-01	0	36	104	0	78	10269
2026-01-18 00:23:06.62	265.95	9.00	-53.6	-62.5	3.8	7.46e-01	0	36	104	0	78	10212
2026-01-18 00:23:07.62	265.81	8.92	-53.7	-62.5	3.8	7.45e-01	0	36	104	0	78	10257
2026-01-18 00:23:08.63	265.66	8.84	-53.7	-62.4	3.8	7.45e-01	0	36	104	0	78	10163
2026-01-18 00:23:09.64	265.51	8.76	-53.7	-62.5	3.8	7.45e-01	0	36	104	0	78	10242
2026-01-18 00:23:10.65	265.37	8.68	-53.7	-62.5	3.8	7.45e-01	0	36	104	0	78	10231
2026-01-18 00:23:11.66	265.23	8.60	-53.7	-62.5	3.8	7.44e-01	0	36	104	0	78	10277
2026-01-18 00:23:12.66	265.09	8.52	-53.6	-62.5	3.8	7.45e-01	0	36	104	0	78	10194
2026-01-18 00:23:13.67	264.95	8.43	-53.6	-62.4	3.8	7.47e-01	0	36	104	0	78	10117
2026-01-18 00:23:14.68	264.81	8.35	-53.7	-62.5	3.8	7.45e-01	0	36	104	0	78	10227
2026-01-18 00:23:15.69	264.67	8.27	-53.7	-62.5	3.8	7.46e-01	0	36	104	0	78	10261
2026-01-18 00:23:16.69	264.53	8.19	-53.6	-62.4	3.8	7.45e-01	0	36	104	0	78	10166
2026-01-18 00:23:17.70	264.39	8.11	-53.6	-62.4	3.8	7.46e-01	0	36	104	0	78	10159
2026-01-18 00:23:18.71	264.26	8.03	-53.6	-62.4	3.8	7.46e-01	0	36	104	0	78	10167
2026-01-18 00:23:19.72	264.12	7.95	-53.7	-62.5	3.8	7.45e-01	0	36	104	0	78	10232
2026-01-18 00:23:20.72	263.99	7.88	-53.6	-62.4	3.8	7.47e-01	0	36	104	0	78	10142
2026-01-18 00:23:21.73	263.86	7.80	-53.6	-62.4	3.8	7.44e-01	0	36	104	0	78	10111
2026-01-18 00:23:22.74	263.72	7.72	-53.6	-62.5	3.8	7.45e-01	0	36	104	0	78	10210
2026-01-18 00:23:23.75	263.59	7.64	-53.6	-62.4	3.8	7.46e-01	0	36	104	0	78	10172
2026-01-18 00:23:24.76	263.46	7.56	-53.5	-62.4	3.8	7.46e-01	0	36	104	0	78	10071
2026-01-18 00:23:25.76	263.33	7.48	-53.5	-62.4	3.8	7.46e-01	0	36	104	0	78	10060
2026-01-18 00:23:26.77	263.20	7.40	-53.6	-62.4	3.8	7.45e-01	0	36	104	0	78	10156
2026-01-18 00:23:27.78	263.08	7.33	-53.6	-62.4	3.8	7.46e-01	0	36	104	0	78	10113
2026-01-18 00:23:28.78	262.95	7.25	-53.5	-62.3	3.8	7.46e-01	0	36	104	0	78	9994
2026-01-18 00:23:29.79	262.83	7.17	-53.5	-62.3	3.8	7.45e-01	0	36	104	0	78	10008
2026-01-18 00:23:30.79	262.70	7.10	-53.5	-62.4	3.8	7.45e-01	0	36	104	0	78	10089
2026-01-18 00:23:31.80	262.58	7.02	-53.5	-62.4	3.8	7.44e-01	0	36	104	0	78	10106
2026-01-18 00:23:32.81	262.45	6.94	-53.4	-62.3	3.8	7.47e-01	0	36	104	0	78	9950
2026-01-18 00:23:33.82	262.33	6.86	-53.4	-62.2	3.8	7.45e-01	0	36	104	0	78	9933
2026-01-18 00:23:34.83	262.21	6.79	-53.5	-62.3	3.8	7.44e-01	0	36	104	0	78	10027
2026-01-18 00:23:35.84	262.09	6.71	-53.5	-62.3	3.8	7.46e-01	0	36	104	0	78	10047
2026-01-18 00:23:36.84	261.97	6.64	-53.4	-62.2	3.8	7.45e-01	0	36	104	0	78	9889
2026-01-18 00:23:37.85	261.85	6.56	-53.4	-62.2	3.8	7.46e-01	0	36	104	0	78	9903
2026-01-18 00:23:38.86	261.73	6.48	-53.4	-62.3	3.8	7.46e-01	0	36	104	0	78	10005
2026-01-18 00:23:39.86	261.61	6.41	-53.5	-62.3	3.8	7.46e-01	0	36	104	0	78	9996
2026-01-18 00:23:40.87	261.50	6.33	-53.3	-62.1	3.8	7.45e-01	0	36	104	0	78	9824
2026-01-18 00:23:41.88	261.38	6.26	-53.3	-62.2	3.8	7.46e-01	0	36	104	0	78	9834
2026-01-18 00:23:42.89	261.26	6.18	-53.4	-62.2	3.8	7.45e-01	0	36	104	0	78	9895
2026-01-18 00:23:43.90	261.15	6.11	-53.4	-62.2	3.8	7.45e-01	0	36	104	0	78	9938
2026-01-18 00:23:44.90	261.04	6.04	-53.3	-62.1	3.8	7.44e-01	0	36	104	0	78	9757
2026-01-18 00:23:45.91	260.92	5.96	-53.3	-62.1	3.8	7.44e-01	0	36	104	0	78	9800
2026-01-18 00:23:46.92	260.81	5.89	-53.4	-62.2	3.8	7.44e-01	0	36	104	0	78	9855
2026-01-18 00:23:47.92	260.70	5.81	-53.4	-62.2	3.8	7.46e-01	0	36	104	0	78	9882
2026-01-18 00:23:48.93	260.59	5.74	-53.2	-62.0	3.8	7.44e-01	0	36	104	0	78	9715
2026-01-18 00:23:49.94	260.48	5.67	-53.2	-62.1	3.8	7.46e-01	0	36	104	0	78	9749
2026-01-18 00:23:50.95	260.37	5.59	-53.3	-62.1	3.8	7.44e-01	0	36	104	0	78	9823
2026-01-18 00:23:51.96	260.26	5.52	-53.3	-62.2	3.8	7.44e-01	0	36	104	0	78	9872
2026-01-18 00:23:52.96	260.15	5.45	-53.1	-62.0	3.8	7.46e-01	0	36	104	0	78	9641
2026-01-18 00:23:53.97	260.05	5.38	-53.2	-62.0	3.8	7.46e-01	0	36	104	0	78	9650
2026-01-18 00:23:54.98	259.94	5.30	-53.3	-62.1	3.8	7.45e-01	0	36	104	0	78	9731
2026-01-18 00:23:55.99	259.83	5.23	-53.3	-62.1	3.8	7.45e-01	0	36	104	0	78	9777
2026-01-18 00:23:57.00	259.73	5.16	-53.1	-61.9	3.8	7.47e-01	0	36	104	0	78	9567
2026-01-18 00:23:58.00	259.62	5.09	-53.1	-61.9	3.8	7.45e-01	0	36	104	0	78	9583
2026-01-18 00:23:59.01	259.52	5.02	-53.2	-62.0	3.8	7.46e-01	0	36	104	0	78	9662
2026-01-18 00:24:00.02	259.42	4.94	-53.4	-62.2	3.8	7.47e-01	0	36	104	0	78	9866
2026-01-18 00:24:01.03	259.31	4.87	-53.8	-62.6	3.8	7.45e-01	0	36	104	0	78	10333
2026-01-18 00:24:02.04	259.21	4.80	-54.0	-62.8	3.8	7.47e-01	0	36	104	0	78	10607
2026-01-18 00:24:03.04	259.11	4.73	-54.2	-63.0	3.8	7.45e-01	0	36	104	0	78	10852
2026-01-18 00:24:04.05	259.01	4.66	-54.3	-63.1	3.8	7.45e-01	0	36	104	0	79	10349
2026-01-18 00:24:05.06	258.91	4.59	-54.3	-63.2	3.8	7.45e-01	0	36	104	0	79	10422
2026-01-18 00:24:06.07	258.81	4.52	-54.4	-63.3	3.8	7.45e-01	0	36	104	0	79	10552
2026-01-18 00:24:07.08	258.71	4.45	-54.5	-63.3	3.8	7.46e-01	0	36	104	0	79	10617
2026-01-18 00:24:08.09	258.61	4.38	-54.6	-63.4	3.8	7.45e-01	0	36	104	0	79	10691
2026-01-18 00:24:09.10	258.52	4.31	-54.6	-63.4	3.8	7.46e-01	0	36	104	0	79	10755
2026-01-18 00:24:10.10	258.42	4.24	-54.6	-63.5	3.8	7.45e-01	0	36	104	0	79	10783
2026-01-18 00:24:11.11	258.32	4.17	-54.7	-63.5	3.8	7.43e-01	0	36	104	0	79	10790
2026-01-18 00:24:12.12	258.23	4.10	-54.7	-63.5	3.8	7.46e-01	0	36	104	0	79	10873
2026-01-18 00:24:13.13	258.13	4.03	-54.7	-63.5	3.8	7.45e-01	0	36	104	0	80	10276
2026-01-18 00:24:14.14	258.04	3.96	-54.7	-63.5	3.8	7.45e-01	0	36	104	0	80	10267
2026-01-18 00:24:15.14	257.95	3.89	-54.7	-63.5	3.8	7.46e-01	0	36	104	0	80	10282
2026-01-18 00:24:16.15	257.85	3.82	-54.7	-63.6	3.8	7.45e-01	0	36	104	0	80	10307
2026-01-18 00:24:17.16	257.76	3.76	-54.7	-63.6	3.8	7.46e-01	0	36	104	0	80	10326
2026-01-18 00:24:18.16	257.67	3.69	-54.8	-63.6	3.8	7.47e-01	0	36	104	0	80	10313
2026-01-18 00:24:19.17	257.58	3.62	-54.8	-63.6	3.8	7.45e-01	0	36	104	0	80	10322
2026-01-18 00:24:20.18	257.48	3.55	-54.8	-63.6	3.8	7.46e-01	0	36	104	0	80	10373
2026-01-18 00:24:21.19	257.39	3.48	-54.7	-63.6	3.8	7.45e-01	0	36	104	0	80	10308
2026-01-18 00:24:22.20	257.30	3.42	-54.7	-63.6	3.8	7.44e-01	0	36	104	0	80	10294
2026-01-18 00:24:23.20	257.22	3.35	-54.7	-63.5	3.8	7.44e-01	0	36	104	0	80	10270
2026-01-18 00:24:24.21	257.13	3.28	-54.7	-63.5	3.8	7.45e-01	0	36	104	0	80	10282
2026-01-18 00:24:25.22	257.04	3.21	-54.7	-63.6	3.8	7.43e-01	0	36	104	0	80	10297
2026-01-18 00:24:26.23	256.95	3.15	-54.7	-63.5	3.8	7.46e-01	0	36	104	0	80	10283
2026-01-18 00:24:27.24	256.86	3.08	-54.7	-63.5	3.8	7.47e-01	0	36	104	0	80	10285
2026-01-18 00:24:28.25	256.78	3.01	-54.7	-63.5	3.8	7.45e-01	0	36	104	0	80	10252
2026-01-18 00:24:29.26	256.69	2.95	-54.7	-63.5	3.8	7.45e-01	0	36	104	0	80	10208
2026-01-18 00:24:30.26	256.60	2.88	-54.6	-63.5	3.8	7.46e-01	0	36	104	0	80	10227
2026-01-18 00:24:31.27	256.52	2.81	-54.7	-63.5	3.8	7.45e-01	0	36	104	0	80	10234
2026-01-18 00:24:32.28	256.43	2.75	-54.7	-63.5	3.8	7.45e-01	0	36	104	0	80	10221
2026-01-18 00:24:33.29	256.35	2.68	-54.7	-63.5	3.8	7.45e-01	0	36	104	0	80	10233
2026-01-18 00:24:34.30	256.27	2.62	-54.6	-63.5	3.8	7.45e-01	0	36	104	0	80	10208
2026-01-18 00:24:35.31	256.18	2.55	-54.6	-63.5	3.8	7.45e-01	0	36	104	0	80	10192
2026-01-18 00:24:36.31	256.10	2.49	-54.6	-63.5	3.8	7.46e-01	0	36	104	0	80	10227
2026-01-18 00:24:37.32	256.02	2.42	-54.6	-63.5	3.8	7.45e-01	0	36	104	0	80	10184
2026-01-18 00:24:38.33	255.94	2.36	-54.6	-63.5	3.8	7.46e-01	0	36	104	0	80	10203
2026-01-18 00:24:39.34	255.86	2.29	-54.6	-63.5	3.8	7.46e-01	0	36	104	0	80	10218
2026-01-18 00:24:40.34	255.78	2.23	-54.6	-63.4	3.8	7.45e-01	0	36	104	0	80	10170
2026-01-18 00:24:41.35	255.69	2.16	-54.6	-63.5	3.8	7.46e-01	0	36	104	0	80	10204
2026-01-18 00:24:42.36	255.62	2.10	-54.6	-63.5	3.8	7.44e-01	0	37	104	0	80	10183
2026-01-18 00:24:43.37	255.54	2.03	-54.6	-63.4	3.8	7.46e-01	0	36	104	0	80	10165
2026-01-18 00:24:44.38	255.46	1.97	-54.6	-63.4	3.8	7.44e-01	0	36	104	0	80	10157
2026-01-18 00:24:45.39	255.38	1.90	-54.6	-63.5	3.8	7.45e-01	0	36	104	0	80	10198

#Closed at: 2026-01-18 00:24:45
#Recorded file [0 MB]: D:/lorett/data/31041_260118_031517.dat