passes_logs/2026/01/08/R2M6_AANII_01/R2M6_AANII_01__20260108_061316_FENGYUN_3E_rec.log

#Pass ID: 20260108_061316_FENGYUN 3E
#Satellite: FENGYUN 3E
#Configuration: FENGYUN 3E
#almurnet v.1.7.20240730
#Start time: 2026-01-08 06:13:18

#Version: 2.2.20231116
#Station: R2M6_AANII_01
#Location: 30.233357 lon 59.946436 lat
#TLE: 1 49008U 21062A   26006.26767912  .00000427  00000+0  22170-3 0  9993
#TLE: 2 49008  98.7475  11.4982 0001602 156.1158 204.0093 14.19885456233607

#Time	Az	El	Level	Level2	SNR	BER	BlckErr	Temp	State	Recorded	gain1	gain2
2026-01-08 06:13:18.64	11.24	7.11	-29.9	-31.7	5.2	7.81e-01	0	41	0	0	21	4436
2026-01-08 06:13:19.65	11.16	7.18	-29.9	-32.3	5.2	7.76e-01	0	41	104	0	20	4708
2026-01-08 06:13:20.65	11.08	7.25	-29.8	-31.9	9.0	2.47e-02	0	41	0	0	20	4554
2026-01-08 06:13:21.65	11.01	7.32	-29.6	-31.3	9.4	1.67e-02	0	41	0	7340032	20	4373
2026-01-08 06:13:22.65	10.93	7.39	-29.6	-31.4	9.4	1.30e-02	0	41	0	14680064	20	4410
2026-01-08 06:13:23.66	10.85	7.46	-29.5	-31.1	9.6	1.34e-02	0	41	0	22020096	20	4323
2026-01-08 06:13:24.67	10.77	7.52	-29.6	-31.2	9.5	1.32e-02	0	41	0	28311552	20	4338
2026-01-08 06:13:25.68	10.69	7.59	-29.9	-32.2	8.9	2.35e-02	0	41	0	35651584	20	4665
2026-01-08 06:13:26.69	10.61	7.66	-29.8	-31.9	9.1	2.56e-02	0	41	0	42991616	20	4561
2026-01-08 06:13:27.70	10.52	7.73	-29.3	-30.8	10.1	8.13e-03	0	41	0	50331648	19	4321
2026-01-08 06:13:28.71	10.44	7.80	-28.9	-30.3	10.8	3.22e-03	0	41	0	57671680	18	4265
2026-01-08 06:13:29.71	10.36	7.87	-28.3	-29.5	11.7	9.18e-04	0	41	0	65011712	17	4110
2026-01-08 06:13:30.72	10.28	7.94	-27.9	-28.4	12.3	2.17e-04	0	41	0	72351744	17	3836
2026-01-08 06:13:31.73	10.20	8.01	-27.6	-28.2	12.8	4.80e-05	0	41	0	79691776	16	3865
2026-01-08 06:13:32.73	10.11	8.08	-27.1	-27.7	13.2	1.60e-05	0	41	0	87031808	15	3863
2026-01-08 06:13:33.74	10.03	8.15	-27.0	-27.5	13.3	1.25e-05	0	41	0	94371840	15	3799
2026-01-08 06:13:34.75	9.95	8.22	-26.9	-27.3	13.4	1.48e-05	0	41	0	101711872	15	3750
2026-01-08 06:13:35.75	9.86	8.29	-27.1	-27.6	13.3	9.10e-06	0	41	0	109051904	15	3829
2026-01-08 06:13:36.75	9.78	8.36	-26.9	-27.3	13.5	9.10e-06	0	42	0	116391936	15	3742
2026-01-08 06:13:37.76	9.69	8.43	-26.7	-27.3	13.7	1.10e-06	0	41	0	123731968	14	3854
2026-01-08 06:13:38.77	9.61	8.51	-26.6	-27.6	13.9	5.70e-06	0	41	0	130023424	13	4016
2026-01-08 06:13:39.77	9.52	8.58	-26.7	-27.7	13.8	2.20e-06	0	41	0	137363456	13	4043
2026-01-08 06:13:40.78	9.43	8.65	-26.7	-27.7	13.8	4.50e-06	0	41	0	144703488	13	4045
2026-01-08 06:13:41.79	9.35	8.72	-26.6	-27.5	13.9	1.10e-06	0	42	0	152043520	13	3994
2026-01-08 06:13:42.80	9.26	8.79	-26.6	-27.5	13.9	2.20e-06	0	42	0	159383552	13	3996
2026-01-08 06:13:43.80	9.17	8.86	-26.5	-27.2	14.1	0.00e+00	0	42	0	166723584	13	3932
2026-01-08 06:13:44.81	9.08	8.93	-26.5	-27.2	14.1	5.70e-06	0	42	0	174063616	13	3923
2026-01-08 06:13:45.82	9.00	9.01	-26.7	-27.6	13.9	2.20e-06	0	42	0	181403648	13	4028
2026-01-08 06:13:46.83	8.91	9.08	-26.6	-27.4	14.0	0.00e+00	0	42	0	188743680	13	3979
2026-01-08 06:13:47.83	8.82	9.15	-26.4	-27.1	14.1	0.00e+00	0	42	0	196083712	13	3909
2026-01-08 06:13:48.83	8.73	9.22	-26.6	-27.6	14.0	0.00e+00	0	42	0	203423744	13	4012
2026-01-08 06:13:49.84	8.64	9.29	-26.5	-27.2	14.2	4.50e-06	0	42	0	210763776	13	3903
2026-01-08 06:13:50.84	8.55	9.37	-26.4	-27.0	14.2	3.40e-06	0	42	0	218103808	13	3867
2026-01-08 06:13:51.85	8.45	9.44	-26.7	-27.7	13.9	4.50e-06	0	42	0	225443840	13	4035
2026-01-08 06:13:52.86	8.36	9.51	-26.6	-27.5	14.0	1.10e-06	0	42	0	232783872	13	3993
2026-01-08 06:13:53.87	8.27	9.59	-26.6	-27.5	14.0	1.10e-06	0	42	0	239075328	13	3989
2026-01-08 06:13:54.87	8.18	9.66	-26.5	-27.4	14.0	3.40e-06	0	42	0	246415360	13	3969
2026-01-08 06:13:55.88	8.08	9.73	-26.7	-27.8	13.8	2.20e-06	0	42	0	253755392	13	4066
2026-01-08 06:13:56.89	7.99	9.81	-26.6	-27.6	14.0	3.40e-06	0	42	0	261095424	13	4010
2026-01-08 06:13:57.90	7.89	9.88	-26.6	-27.4	14.0	2.20e-06	0	42	0	268435456	13	3979
2026-01-08 06:13:58.91	7.80	9.95	-26.6	-27.6	14.0	0.00e+00	0	42	0	275775488	13	4015
2026-01-08 06:13:59.91	7.70	10.03	-26.8	-28.0	13.8	3.40e-06	0	42	0	283115520	13	4122
2026-01-08 06:14:00.91	7.61	10.10	-26.7	-27.8	13.8	0.00e+00	0	42	0	290455552	13	4069
2026-01-08 06:14:01.92	7.51	10.17	-26.7	-27.7	13.9	0.00e+00	0	42	0	297795584	13	4040
2026-01-08 06:14:02.93	7.42	10.25	-26.8	-27.9	13.8	3.40e-06	0	42	0	305135616	13	4084
2026-01-08 06:14:03.93	7.32	10.32	-26.9	-28.1	13.7	4.50e-06	0	42	0	312475648	13	4160
2026-01-08 06:14:04.94	7.22	10.40	-26.7	-27.7	13.9	6.80e-06	0	42	0	319815680	13	4046
2026-01-08 06:14:05.95	7.12	10.47	-26.8	-27.9	13.8	3.40e-06	0	42	0	327155712	13	4104
2026-01-08 06:14:06.96	7.02	10.55	-26.6	-27.6	14.0	2.20e-06	0	42	0	334495744	13	4021
2026-01-08 06:14:07.97	6.92	10.62	-26.6	-27.4	14.1	2.20e-06	0	42	0	340787200	13	3970
2026-01-08 06:14:08.97	6.82	10.70	-26.4	-27.1	14.3	1.10e-06	0	42	0	348127232	13	3889
2026-01-08 06:14:09.98	6.72	10.77	-26.6	-27.4	14.1	2.20e-06	0	42	0	355467264	13	3956
2026-01-08 06:14:10.99	6.62	10.85	-26.7	-27.7	13.9	0.00e+00	0	42	0	362807296	13	4053
2026-01-08 06:14:12.00	6.52	10.92	-26.4	-27.0	14.3	2.20e-06	0	42	0	370147328	13	3858
2026-01-08 06:14:13.01	6.42	11.00	-26.3	-26.9	14.4	0.00e+00	0	42	0	377487360	13	3830
2026-01-08 06:14:14.01	6.31	11.08	-26.5	-27.3	14.2	2.20e-06	0	42	0	384827392	13	3935
2026-01-08 06:14:15.01	6.21	11.15	-26.2	-26.5	14.7	2.20e-06	0	42	0	392167424	13	3747
2026-01-08 06:14:16.01	6.11	11.23	-26.3	-26.8	14.5	1.10e-06	0	42	0	399507456	13	3804
2026-01-08 06:14:17.02	6.00	11.30	-26.3	-26.9	14.4	0.00e+00	0	43	0	406847488	13	3834
2026-01-08 06:14:18.01	5.90	11.38	-26.4	-27.1	14.3	0.00e+00	0	42	0	414187520	13	3885
2026-01-08 06:14:19.02	5.79	11.46	-26.3	-26.8	14.5	1.10e-06	0	42	0	421527552	13	3813
2026-01-08 06:14:20.03	5.69	11.53	-26.1	-26.4	14.7	0.00e+00	0	42	0	427819008	13	3728
2026-01-08 06:14:21.03	5.58	11.61	-26.2	-26.5	14.7	0.00e+00	0	42	0	435159040	13	3752
2026-01-08 06:14:22.04	5.47	11.69	-26.2	-26.6	14.6	0.00e+00	0	42	0	442499072	13	3754
2026-01-08 06:14:23.04	5.37	11.76	-26.1	-26.3	14.8	1.10e-06	0	42	0	449839104	13	3707
2026-01-08 06:14:24.05	5.26	11.84	-26.2	-26.5	14.7	0.00e+00	0	42	0	457179136	13	3736
2026-01-08 06:14:25.05	5.15	11.92	-26.1	-26.4	14.7	0.00e+00	0	42	0	464519168	13	3721
2026-01-08 06:14:26.05	5.04	11.99	-26.3	-26.8	14.5	1.10e-06	0	42	0	471859200	13	3816
2026-01-08 06:14:27.06	4.93	12.07	-26.1	-26.4	14.7	1.10e-06	0	42	0	479199232	13	3724
2026-01-08 06:14:28.07	4.82	12.15	-26.0	-26.1	14.9	0.00e+00	0	42	0	486539264	13	3654
2026-01-08 06:14:29.07	4.71	12.23	-26.0	-26.1	14.9	1.10e-06	0	42	0	493879296	13	3656
2026-01-08 06:14:30.08	4.60	12.31	-26.1	-26.4	14.8	0.00e+00	0	43	0	501219328	13	3721
2026-01-08 06:14:31.09	4.48	12.38	-26.0	-26.1	14.9	0.00e+00	0	42	0	508559360	13	3655
2026-01-08 06:14:32.09	4.37	12.46	-26.0	-26.2	14.9	0.00e+00	0	42	0	515899392	13	3671
2026-01-08 06:14:33.10	4.26	12.54	-25.9	-26.4	15.0	0.00e+00	0	43	0	523239424	12	3824
2026-01-08 06:14:34.10	4.14	12.62	-26.0	-26.6	14.9	0.00e+00	0	43	0	530579456	12	3875
2026-01-08 06:14:35.12	4.03	12.70	-25.9	-26.5	15.0	0.00e+00	0	42	0	536870912	12	3841
2026-01-08 06:14:36.12	3.91	12.78	-25.8	-26.3	15.1	0.00e+00	0	42	0	544210944	12	3783
2026-01-08 06:14:37.13	3.79	12.86	-25.9	-26.5	15.0	0.00e+00	0	43	0	551550976	12	3842
2026-01-08 06:14:38.13	3.68	12.94	-25.8	-26.2	15.2	0.00e+00	0	42	0	558891008	12	3777
2026-01-08 06:14:39.14	3.56	13.01	-25.8	-26.1	15.2	0.00e+00	0	43	0	566231040	12	3747
2026-01-08 06:14:40.15	3.44	13.09	-25.9	-26.3	15.1	0.00e+00	0	42	0	573571072	12	3796
2026-01-08 06:14:41.16	3.32	13.17	-25.8	-26.1	15.2	0.00e+00	0	43	0	580911104	12	3751
2026-01-08 06:14:42.16	3.20	13.25	-25.7	-25.9	15.4	0.00e+00	0	43	0	588251136	12	3690
2026-01-08 06:14:43.17	3.08	13.33	-25.6	-25.9	15.4	0.00e+00	0	43	0	595591168	12	3687
2026-01-08 06:14:44.18	2.96	13.41	-25.7	-26.0	15.3	0.00e+00	0	43	0	602931200	12	3731
2026-01-08 06:14:45.19	2.84	13.49	-25.7	-25.9	15.4	0.00e+00	0	42	0	610271232	12	3702
2026-01-08 06:14:46.19	2.72	13.57	-25.4	-25.3	15.6	0.00e+00	0	43	0	617611264	12	3569
2026-01-08 06:14:47.20	2.59	13.65	-25.6	-25.9	15.4	0.00e+00	0	43	0	624951296	12	3686
2026-01-08 06:14:48.21	2.47	13.74	-25.7	-26.0	15.3	0.00e+00	0	43	0	632291328	12	3726
2026-01-08 06:14:49.22	2.34	13.82	-25.8	-26.2	15.2	0.00e+00	0	43	0	638582784	12	3767
2026-01-08 06:14:50.22	2.22	13.90	-25.6	-25.7	15.5	0.00e+00	0	42	0	645922816	12	3662
2026-01-08 06:14:51.23	2.09	13.98	-25.5	-25.6	15.6	0.00e+00	0	43	0	653262848	12	3617
2026-01-08 06:14:52.23	1.97	14.06	-25.5	-26.1	15.7	0.00e+00	0	43	0	660602880	11	3835
2026-01-08 06:14:53.23	1.84	14.14	-25.5	-26.0	15.7	0.00e+00	0	43	0	667942912	11	3825
2026-01-08 06:14:54.24	1.71	14.22	-25.5	-26.1	15.7	0.00e+00	0	43	0	675282944	11	3845
2026-01-08 06:14:55.25	1.58	14.30	-25.5	-26.1	15.6	0.00e+00	0	43	0	682622976	11	3830
2026-01-08 06:14:56.26	1.45	14.38	-25.5	-26.1	15.7	0.00e+00	0	43	0	689963008	11	3827
2026-01-08 06:14:57.27	1.32	14.47	-25.6	-26.2	15.6	0.00e+00	0	43	0	697303040	11	3869
2026-01-08 06:14:58.27	1.19	14.55	-25.5	-25.9	15.8	0.00e+00	0	43	0	704643072	11	3793
2026-01-08 06:14:59.27	1.06	14.63	-25.4	-25.9	15.8	0.00e+00	0	42	0	711983104	11	3790
2026-01-08 06:15:00.28	0.93	14.71	-25.5	-26.1	15.6	0.00e+00	0	43	0	719323136	11	3842
2026-01-08 06:15:01.29	0.79	14.79	-25.5	-25.9	15.8	0.00e+00	0	43	0	725614592	11	3796
2026-01-08 06:15:02.30	0.66	14.88	-25.4	-25.8	15.8	0.00e+00	0	43	0	734003200	11	3775
2026-01-08 06:15:03.30	0.53	14.96	-25.5	-25.9	15.8	0.00e+00	0	43	0	741343232	11	3796
2026-01-08 06:15:04.30	0.39	15.04	-25.5	-26.0	15.7	0.00e+00	0	43	0	747634688	11	3814
2026-01-08 06:15:05.31	0.25	15.12	-25.6	-26.1	15.7	0.00e+00	0	43	0	754974720	11	3847
2026-01-08 06:15:06.31	0.12	15.21	-25.5	-25.9	15.8	0.00e+00	0	43	0	762314752	11	3798
2026-01-08 06:15:07.32	359.98	15.29	-25.6	-26.3	15.6	0.00e+00	0	43	0	769654784	11	3879
2026-01-08 06:15:08.33	359.84	15.37	-25.5	-26.1	15.7	1.10e-06	0	43	0	776994816	11	3837
2026-01-08 06:15:09.34	359.70	15.46	-25.3	-25.6	15.9	0.00e+00	0	43	0	784334848	11	3730
2026-01-08 06:15:10.34	359.56	15.54	-25.3	-25.5	16.0	0.00e+00	0	43	0	791674880	11	3695
2026-01-08 06:15:11.35	359.42	15.62	-25.2	-25.4	16.1	0.00e+00	0	43	0	799014912	11	3675
2026-01-08 06:15:12.35	359.28	15.70	-25.2	-25.3	16.1	0.00e+00	0	43	0	806354944	11	3653
2026-01-08 06:15:13.36	359.14	15.79	-25.1	-25.1	16.3	0.00e+00	0	43	0	813694976	11	3607
2026-01-08 06:15:14.37	358.99	15.87	-25.0	-25.0	16.3	0.00e+00	0	43	0	821035008	11	3580
2026-01-08 06:15:15.37	358.85	15.96	-24.9	-24.7	16.5	0.00e+00	0	43	0	827326464	11	3510
2026-01-08 06:15:16.37	358.71	16.04	-24.8	-25.0	16.6	0.00e+00	0	43	0	834666496	10	3685
2026-01-08 06:15:17.37	358.56	16.12	-24.8	-25.1	16.5	0.00e+00	0	43	0	842006528	10	3707
2026-01-08 06:15:18.38	358.41	16.21	-24.7	-24.8	16.7	0.00e+00	0	43	0	849346560	10	3649
2026-01-08 06:15:19.39	358.27	16.29	-24.8	-25.0	16.6	0.00e+00	0	43	0	856686592	10	3675
2026-01-08 06:15:20.40	358.12	16.38	-24.7	-24.7	16.7	0.00e+00	0	43	0	864026624	10	3617
2026-01-08 06:15:21.40	357.97	16.46	-24.7	-24.8	16.7	0.00e+00	0	43	0	871366656	10	3639
2026-01-08 06:15:22.41	357.82	16.54	-24.8	-24.9	16.6	0.00e+00	0	43	0	878706688	10	3665
2026-01-08 06:15:23.41	357.67	16.63	-24.9	-25.2	16.5	0.00e+00	0	43	0	886046720	10	3721
2026-01-08 06:15:24.42	357.51	16.71	-25.0	-25.5	16.3	0.00e+00	0	43	0	893386752	10	3788
2026-01-08 06:15:25.44	357.36	16.80	-24.9	-25.3	16.4	0.00e+00	0	43	0	900726784	10	3761
2026-01-08 06:15:26.44	357.21	16.88	-25.0	-25.4	16.3	0.00e+00	0	43	0	908066816	10	3784
2026-01-08 06:15:27.45	357.05	16.97	-25.0	-25.5	16.3	0.00e+00	0	43	0	915406848	10	3802
2026-01-08 06:15:28.46	356.90	17.05	-25.0	-25.5	16.4	0.00e+00	0	43	0	922746880	10	3796
2026-01-08 06:15:29.46	356.74	17.14	-24.9	-25.3	16.4	0.00e+00	0	43	0	930086912	10	3752
2026-01-08 06:15:30.47	356.58	17.22	-25.0	-25.3	16.4	0.00e+00	0	43	0	936378368	10	3761
2026-01-08 06:15:31.47	356.43	17.31	-24.9	-25.3	16.5	0.00e+00	0	43	0	943718400	10	3744
2026-01-08 06:15:32.48	356.27	17.39	-24.8	-24.9	16.6	0.00e+00	0	43	0	951058432	10	3668
2026-01-08 06:15:33.48	356.11	17.48	-24.7	-24.7	16.7	0.00e+00	0	43	0	958398464	10	3624
2026-01-08 06:15:34.49	355.95	17.56	-24.8	-24.9	16.6	0.00e+00	0	43	0	965738496	10	3670
2026-01-08 06:15:35.50	355.78	17.65	-24.8	-25.0	16.6	0.00e+00	0	43	0	973078528	10	3683
2026-01-08 06:15:36.50	355.62	17.73	-24.8	-24.9	16.6	0.00e+00	0	43	0	980418560	10	3665
2026-01-08 06:15:37.51	355.46	17.82	-24.9	-25.2	16.5	0.00e+00	0	43	0	987758592	10	3730
2026-01-08 06:15:38.51	355.29	17.90	-24.9	-25.2	16.5	0.00e+00	0	43	0	995098624	10	3718
2026-01-08 06:15:39.52	355.13	17.99	-24.6	-24.7	16.8	0.00e+00	0	43	0	1002438656	10	3608
2026-01-08 06:15:40.53	354.96	18.08	-24.6	-24.5	16.9	0.00e+00	0	43	0	1009778688	10	3572
2026-01-08 06:15:41.53	354.79	18.16	-24.7	-24.8	16.8	0.00e+00	0	43	0	1017118720	10	3626
2026-01-08 06:15:42.54	354.62	18.25	-24.8	-24.9	16.6	0.00e+00	0	43	0	1024458752	10	3668
2026-01-08 06:15:43.55	354.45	18.33	-24.7	-24.7	16.8	0.00e+00	0	43	0	1031798784	10	3617
2026-01-08 06:15:44.56	354.28	18.42	-24.7	-24.7	16.8	0.00e+00	0	43	0	1039138816	10	3613
2026-01-08 06:15:45.56	354.11	18.51	-24.6	-24.5	16.9	0.00e+00	0	43	0	1045430272	10	3579
2026-01-08 06:15:46.57	353.94	18.59	-24.6	-24.6	16.9	0.00e+00	0	43	0	1052770304	10	3590
2026-01-08 06:15:47.57	353.77	18.68	-24.5	-24.4	16.9	0.00e+00	0	43	0	1060110336	10	3553
2026-01-08 06:15:48.58	353.59	18.76	-24.5	-24.3	17.0	0.00e+00	0	43	0	1067450368	10	3525
2026-01-08 06:15:49.59	353.42	18.85	-24.4	-24.7	17.0	0.00e+00	0	43	0	1074790400	9	3715
2026-01-08 06:15:50.59	353.24	18.93	-24.5	-24.8	17.0	0.00e+00	0	43	0	1082130432	9	3733
2026-01-08 06:15:51.59	353.07	19.02	-24.4	-24.7	17.0	0.00e+00	0	43	0	1089470464	9	3707
2026-01-08 06:15:52.60	352.89	19.11	-24.3	-24.4	17.2	0.00e+00	0	43	0	1096810496	9	3640
2026-01-08 06:15:53.60	352.71	19.19	-24.3	-24.4	17.2	0.00e+00	0	43	0	1104150528	9	3660
2026-01-08 06:15:54.61	352.53	19.28	-24.2	-24.3	17.2	0.00e+00	0	43	0	1111490560	9	3627
2026-01-08 06:15:55.62	352.34	19.36	-24.2	-24.2	17.3	0.00e+00	0	43	0	1118830592	9	3598
2026-01-08 06:15:56.62	352.16	19.45	-24.3	-24.4	17.2	0.00e+00	0	43	0	1125122048	9	3649
2026-01-08 06:15:57.62	351.98	19.53	-24.3	-24.4	17.2	0.00e+00	0	43	0	1132462080	9	3641
2026-01-08 06:15:58.63	351.79	19.62	-24.3	-24.5	17.2	0.00e+00	0	43	0	1139802112	9	3664
2026-01-08 06:15:59.63	351.61	19.71	-24.3	-24.4	17.2	0.00e+00	0	43	0	1147142144	9	3639
2026-01-08 06:16:00.64	351.42	19.79	-24.5	-24.8	17.0	0.00e+00	0	43	0	1154482176	9	3730
2026-01-08 06:16:01.65	351.23	19.88	-24.4	-24.6	17.1	0.00e+00	0	43	0	1161822208	9	3699
2026-01-08 06:16:02.66	351.04	19.97	-24.5	-24.8	17.0	0.00e+00	0	43	0	1169162240	9	3742
2026-01-08 06:16:03.66	350.86	20.05	-24.6	-25.0	16.9	0.00e+00	0	43	0	1176502272	9	3778
2026-01-08 06:16:04.67	350.66	20.14	-24.5	-24.9	17.0	0.00e+00	0	43	0	1183842304	9	3751
2026-01-08 06:16:05.68	350.47	20.22	-24.6	-25.1	16.9	0.00e+00	0	43	0	1191182336	9	3799
2026-01-08 06:16:06.68	350.28	20.31	-24.6	-25.1	16.9	0.00e+00	0	43	0	1198522368	9	3812
2026-01-08 06:16:07.69	350.08	20.39	-24.7	-25.2	16.8	0.00e+00	0	43	0	1205862400	9	3831
2026-01-08 06:16:08.70	349.89	20.48	-24.6	-25.0	16.9	0.00e+00	0	43	0	1213202432	9	3797
2026-01-08 06:16:09.70	349.69	20.56	-24.5	-24.9	16.9	0.00e+00	0	43	0	1220542464	9	3772
2026-01-08 06:16:10.70	349.50	20.65	-24.6	-25.0	16.9	0.00e+00	0	43	0	1227882496	9	3796
2026-01-08 06:16:11.71	349.30	20.73	-24.5	-24.8	17.0	0.00e+00	0	43	0	1234173952	9	3743
2026-01-08 06:16:12.71	349.10	20.82	-24.4	-24.7	17.0	0.00e+00	0	43	0	1241513984	9	3725
2026-01-08 06:16:13.72	348.90	20.91	-24.4	-24.7	17.1	0.00e+00	0	43	0	1248854016	9	3716
2026-01-08 06:16:14.73	348.69	20.99	-24.5	-24.8	17.0	0.00e+00	0	43	0	1256194048	9	3739
2026-01-08 06:16:15.74	348.49	21.08	-24.4	-24.6	17.1	0.00e+00	0	43	0	1263534080	9	3700
2026-01-08 06:16:16.74	348.28	21.16	-24.2	-24.3	17.3	0.00e+00	0	43	0	1270874112	9	3621
2026-01-08 06:16:17.75	348.08	21.25	-24.3	-24.5	17.2	0.00e+00	0	43	0	1278214144	9	3661
2026-01-08 06:16:18.75	347.87	21.33	-24.3	-24.4	17.3	0.00e+00	0	43	0	1285554176	9	3637
2026-01-08 06:16:19.76	347.66	21.41	-24.3	-24.4	17.2	0.00e+00	0	43	0	1292894208	9	3655
2026-01-08 06:16:20.76	347.46	21.50	-24.3	-24.5	17.2	0.00e+00	0	43	0	1300234240	9	3663
2026-01-08 06:16:21.77	347.25	21.58	-24.4	-24.7	17.1	0.00e+00	0	43	0	1307574272	9	3706
2026-01-08 06:16:22.78	347.03	21.67	-24.4	-24.7	17.1	0.00e+00	0	43	0	1313865728	9	3724
2026-01-08 06:16:23.78	346.82	21.75	-24.6	-25.0	16.9	0.00e+00	0	43	0	1321205760	9	3773
2026-01-08 06:16:24.79	346.61	21.84	-24.6	-25.0	17.0	0.00e+00	0	43	0	1328545792	9	3776
2026-01-08 06:16:25.80	346.39	21.92	-24.7	-25.2	16.8	0.00e+00	0	43	0	1335885824	9	3829
2026-01-08 06:16:26.81	346.17	22.00	-24.5	-25.0	17.0	0.00e+00	0	43	0	1343225856	9	3775
2026-01-08 06:16:27.81	345.96	22.09	-24.6	-25.0	16.9	0.00e+00	0	43	0	1350565888	9	3778
2026-01-08 06:16:28.82	345.74	22.17	-24.5	-24.9	17.0	0.00e+00	0	43	0	1357905920	9	3766
2026-01-08 06:16:29.82	345.52	22.25	-24.4	-24.5	17.2	0.00e+00	0	43	0	1365245952	9	3672
2026-01-08 06:16:30.83	345.30	22.34	-24.4	-24.6	17.2	0.00e+00	0	43	0	1372585984	9	3682
2026-01-08 06:16:31.83	345.08	22.42	-24.1	-24.1	17.4	0.00e+00	0	43	0	1379926016	9	3573
2026-01-08 06:16:32.84	344.85	22.50	-24.1	-24.1	17.4	0.00e+00	0	43	0	1387266048	9	3575
2026-01-08 06:16:33.84	344.63	22.58	-24.2	-24.2	17.4	0.00e+00	0	43	0	1394606080	9	3605
2026-01-08 06:16:34.86	344.40	22.67	-24.1	-23.9	17.5	0.00e+00	0	43	0	1401946112	9	3541
2026-01-08 06:16:35.86	344.18	22.75	-23.9	-24.0	17.8	0.00e+00	0	43	0	1409286144	8	3659
2026-01-08 06:16:36.87	343.95	22.83	-23.9	-24.0	17.7	0.00e+00	0	43	0	1416626176	8	3666
2026-01-08 06:16:37.87	343.72	22.91	-24.1	-24.6	17.5	0.00e+00	0	43	0	1422917632	8	3789
2026-01-08 06:16:38.88	343.49	22.99	-23.9	-24.2	17.6	0.00e+00	0	43	0	1430257664	8	3693
2026-01-08 06:16:39.88	343.26	23.07	-24.0	-24.3	17.6	0.00e+00	0	43	0	1437597696	8	3730
2026-01-08 06:16:40.88	343.03	23.15	-24.0	-24.3	17.6	0.00e+00	0	43	0	1444937728	8	3714
2026-01-08 06:16:41.89	342.79	23.23	-24.0	-24.3	17.6	0.00e+00	0	43	0	1452277760	8	3732
2026-01-08 06:16:42.89	342.56	23.31	-24.1	-24.4	17.5	0.00e+00	0	43	0	1459617792	8	3753
2026-01-08 06:16:43.89	342.32	23.39	-24.2	-24.7	17.4	0.00e+00	0	43	0	1466957824	8	3824
2026-01-08 06:16:44.89	342.09	23.47	-24.1	-24.6	17.4	0.00e+00	0	43	0	1474297856	8	3794
2026-01-08 06:16:45.90	341.85	23.55	-24.0	-24.3	17.6	0.00e+00	0	43	0	1481637888	8	3726
2026-01-08 06:16:46.90	341.61	23.63	-24.0	-24.2	17.7	0.00e+00	0	43	0	1488977920	8	3702
2026-01-08 06:16:47.92	341.36	23.71	-23.8	-23.9	17.8	0.00e+00	0	43	0	1496317952	8	3633
2026-01-08 06:16:48.92	341.12	23.79	-23.8	-23.8	17.8	0.00e+00	0	43	0	1503657984	8	3622
2026-01-08 06:16:49.92	340.88	23.86	-23.9	-24.0	17.7	0.00e+00	0	43	0	1509949440	8	3659
2026-01-08 06:16:50.93	340.63	23.94	-23.7	-23.6	17.9	0.00e+00	0	43	0	1517289472	8	3579
2026-01-08 06:16:51.94	340.38	24.02	-23.5	-23.2	18.1	0.00e+00	0	43	0	1524629504	8	3488
2026-01-08 06:16:52.94	340.14	24.10	-23.5	-23.3	18.1	0.00e+00	0	43	0	1531969536	8	3509
2026-01-08 06:16:53.95	339.89	24.17	-23.6	-23.4	18.0	0.00e+00	0	43	0	1539309568	8	3527
2026-01-08 06:16:54.96	339.64	24.25	-23.6	-23.4	18.0	0.00e+00	0	43	0	1546649600	8	3523
2026-01-08 06:16:55.97	339.38	24.33	-23.7	-23.6	17.9	0.00e+00	0	43	0	1553989632	8	3578
2026-01-08 06:16:56.97	339.13	24.40	-23.6	-23.5	18.0	0.00e+00	0	43	0	1561329664	8	3548
2026-01-08 06:16:57.98	338.88	24.48	-23.6	-23.4	18.1	0.00e+00	0	43	0	1568669696	8	3530
2026-01-08 06:16:58.99	338.62	24.55	-23.7	-23.6	17.9	0.00e+00	0	43	0	1576009728	8	3579
2026-01-08 06:17:00.00	338.36	24.63	-23.7	-23.6	18.0	0.00e+00	0	43	0	1583349760	8	3570
2026-01-08 06:17:01.00	338.11	24.70	-23.6	-23.4	18.1	0.00e+00	0	43	0	1590689792	8	3537
2026-01-08 06:17:02.01	337.85	24.77	-23.6	-23.4	18.1	0.00e+00	0	43	0	1598029824	8	3527
2026-01-08 06:17:03.01	337.59	24.84	-23.8	-23.8	17.9	0.00e+00	0	43	0	1605369856	8	3605
2026-01-08 06:17:04.01	337.33	24.92	-23.7	-23.7	17.9	0.00e+00	0	43	0	1611661312	8	3596
2026-01-08 06:17:05.02	337.07	24.99	-23.9	-24.2	17.7	0.00e+00	0	43	0	1619001344	8	3694
2026-01-08 06:17:06.01	336.81	25.06	-23.9	-24.1	17.7	0.00e+00	0	43	0	1626341376	8	3687
2026-01-08 06:17:07.02	336.54	25.13	-23.9	-24.1	17.7	0.00e+00	0	43	0	1633681408	8	3680
2026-01-08 06:17:08.03	336.27	25.20	-24.0	-24.2	17.7	0.00e+00	0	43	0	1641021440	8	3708
2026-01-08 06:17:09.04	336.01	25.27	-23.8	-23.9	17.8	0.00e+00	0	43	0	1648361472	8	3640
2026-01-08 06:17:10.04	335.74	25.34	-23.8	-23.8	17.9	0.00e+00	0	43	0	1655701504	8	3606
2026-01-08 06:17:11.04	335.47	25.41	-23.7	-23.7	17.9	0.00e+00	0	43	0	1663041536	8	3587
2026-01-08 06:17:12.05	335.20	25.48	-23.8	-24.0	17.8	0.00e+00	0	43	0	1670381568	8	3646
2026-01-08 06:17:13.06	334.93	25.55	-23.6	-23.6	18.0	0.00e+00	0	43	0	1677721600	8	3562
2026-01-08 06:17:14.07	334.65	25.62	-23.7	-23.8	17.9	0.00e+00	0	43	0	1685061632	8	3604
2026-01-08 06:17:15.07	334.38	25.68	-23.7	-23.7	17.9	0.00e+00	0	43	0	1692401664	8	3588
2026-01-08 06:17:16.07	334.11	25.75	-23.7	-23.8	17.9	0.00e+00	0	43	0	1698693120	8	3610
2026-01-08 06:17:17.08	333.83	25.81	-23.9	-24.2	17.7	0.00e+00	0	43	0	1706033152	8	3693
2026-01-08 06:17:18.09	333.55	25.88	-23.8	-23.9	17.8	0.00e+00	0	43	0	1713373184	8	3639
2026-01-08 06:17:19.10	333.27	25.95	-23.8	-23.8	17.9	0.00e+00	0	43	0	1720713216	8	3616
2026-01-08 06:17:20.11	332.99	26.01	-23.8	-23.9	17.8	0.00e+00	0	43	0	1728053248	8	3633
2026-01-08 06:17:21.11	332.71	26.07	-23.7	-23.7	17.9	0.00e+00	0	43	0	1735393280	8	3587
2026-01-08 06:17:22.11	332.43	26.14	-23.7	-23.6	18.0	0.00e+00	0	43	0	1742733312	8	3569
2026-01-08 06:17:23.12	332.14	26.20	-23.7	-23.7	18.0	0.00e+00	0	43	0	1750073344	8	3589
2026-01-08 06:17:24.12	331.86	26.26	-23.7	-23.7	18.0	0.00e+00	0	43	0	1757413376	8	3584
2026-01-08 06:17:25.13	331.57	26.32	-23.6	-23.5	18.0	0.00e+00	0	43	0	1764753408	8	3546
2026-01-08 06:17:26.13	331.29	26.38	-23.7	-23.7	17.9	0.00e+00	0	43	0	1772093440	8	3588
2026-01-08 06:17:27.15	330.99	26.44	-23.6	-23.5	18.1	0.00e+00	0	43	0	1779433472	8	3541
2026-01-08 06:17:28.15	330.71	26.50	-23.7	-23.8	17.9	0.00e+00	0	43	0	1786773504	8	3607
2026-01-08 06:17:29.15	330.42	26.56	-23.4	-23.1	18.3	0.00e+00	0	43	0	1794113536	8	3458
2026-01-08 06:17:30.16	330.13	26.62	-23.3	-23.4	18.3	0.00e+00	0	43	0	1800404992	7	3619
2026-01-08 06:17:31.17	329.83	26.67	-23.4	-23.6	18.2	0.00e+00	0	43	0	1807745024	7	3673
2026-01-08 06:17:32.18	329.54	26.73	-23.4	-23.6	18.2	0.00e+00	0	43	0	1815085056	7	3665
2026-01-08 06:17:33.19	329.24	26.79	-23.6	-23.9	18.1	0.00e+00	0	43	0	1822425088	7	3729
2026-01-08 06:17:34.19	328.95	26.84	-23.5	-23.8	18.1	0.00e+00	0	43	0	1829765120	7	3723
2026-01-08 06:17:35.20	328.65	26.89	-23.6	-23.8	18.1	0.00e+00	0	43	0	1837105152	7	3724
2026-01-08 06:17:36.21	328.35	26.95	-23.6	-23.9	18.0	0.00e+00	0	43	0	1844445184	7	3747
2026-01-08 06:17:37.21	328.05	27.00	-23.6	-24.0	18.0	0.00e+00	0	43	0	1851785216	7	3769
2026-01-08 06:17:38.22	327.75	27.05	-23.8	-24.3	17.8	0.00e+00	0	43	0	1859125248	7	3834
2026-01-08 06:17:39.23	327.45	27.10	-23.6	-23.9	18.1	0.00e+00	0	43	0	1866465280	7	3735
2026-01-08 06:17:40.23	327.15	27.15	-23.5	-23.8	18.1	0.00e+00	0	43	0	1873805312	7	3719
2026-01-08 06:17:41.24	326.85	27.20	-23.6	-24.0	18.1	0.00e+00	0	43	0	1881145344	7	3752
2026-01-08 06:17:42.25	326.54	27.25	-23.5	-23.8	18.1	0.00e+00	0	43	0	1888485376	7	3714
2026-01-08 06:17:43.25	326.24	27.30	-23.6	-24.0	18.0	0.00e+00	0	43	0	1895825408	7	3747
2026-01-08 06:17:44.26	325.93	27.35	-23.7	-24.1	18.0	0.00e+00	0	43	0	1903165440	7	3773
2026-01-08 06:17:45.26	325.63	27.39	-23.5	-23.8	18.1	0.00e+00	0	43	0	1909456896	7	3725
2026-01-08 06:17:46.26	325.33	27.44	-23.6	-23.9	18.1	0.00e+00	0	43	0	1916796928	7	3734
2026-01-08 06:17:47.27	325.02	27.48	-23.7	-24.1	17.9	0.00e+00	0	43	0	1924136960	7	3793
2026-01-08 06:17:48.27	324.71	27.53	-23.6	-24.0	18.0	0.00e+00	0	43	0	1931476992	7	3767
2026-01-08 06:17:49.28	324.40	27.57	-23.5	-23.7	18.2	0.00e+00	0	43	0	1938817024	7	3681
2026-01-08 06:17:50.28	324.09	27.61	-23.5	-23.8	18.1	0.00e+00	0	43	0	1946157056	7	3715
2026-01-08 06:17:51.29	323.78	27.65	-23.5	-23.8	18.1	0.00e+00	0	43	0	1953497088	7	3708
2026-01-08 06:17:52.30	323.46	27.69	-23.5	-23.8	18.1	0.00e+00	0	43	0	1960837120	7	3710
2026-01-08 06:17:53.31	323.15	27.73	-23.6	-23.9	18.1	0.00e+00	0	43	0	1968177152	7	3744
2026-01-08 06:17:54.31	322.84	27.77	-23.7	-24.2	17.9	0.00e+00	0	43	0	1975517184	7	3803
2026-01-08 06:17:55.32	322.52	27.81	-23.7	-24.1	18.0	0.00e+00	0	43	0	1982857216	7	3775
2026-01-08 06:17:56.33	322.20	27.85	-23.7	-24.1	17.9	0.00e+00	0	43	0	1990197248	7	3786
2026-01-08 06:17:57.33	321.89	27.88	-23.7	-24.2	17.9	0.00e+00	0	43	0	1996488704	7	3804
2026-01-08 06:17:58.33	321.58	27.92	-23.8	-24.3	17.9	0.00e+00	0	43	0	2003828736	7	3832
2026-01-08 06:17:59.34	321.26	27.95	-23.8	-24.5	17.8	0.00e+00	0	43	0	2012217344	7	3870
2026-01-08 06:18:00.35	320.94	27.98	-23.8	-24.3	17.9	0.00e+00	0	43	0	2018508800	7	3832
2026-01-08 06:18:01.36	320.62	28.02	-23.8	-24.3	17.9	0.00e+00	0	43	0	2025848832	7	3835
2026-01-08 06:18:02.36	320.30	28.05	-23.6	-23.9	18.0	0.00e+00	0	43	0	2033188864	7	3741
2026-01-08 06:18:03.37	319.98	28.08	-23.6	-23.9	18.1	0.00e+00	0	43	0	2040528896	7	3735
2026-01-08 06:18:04.37	319.66	28.11	-23.6	-23.9	18.1	0.00e+00	0	43	0	2047868928	7	3747
2026-01-08 06:18:05.38	319.34	28.13	-23.4	-23.6	18.2	0.00e+00	0	43	0	2055208960	7	3674
2026-01-08 06:18:06.39	319.01	28.16	-23.5	-23.7	18.2	0.00e+00	0	43	0	2062548992	7	3699
2026-01-08 06:18:07.39	318.69	28.19	-23.6	-23.9	18.1	0.00e+00	0	43	0	2069889024	7	3728
2026-01-08 06:18:08.40	318.37	28.21	-23.5	-23.7	18.2	0.00e+00	0	43	0	2077229056	7	3705
2026-01-08 06:18:09.41	318.05	28.24	-23.5	-23.7	18.2	0.00e+00	0	43	0	2084569088	7	3700
2026-01-08 06:18:10.41	317.72	28.26	-23.6	-24.1	18.0	0.00e+00	0	43	0	2091909120	7	3773
2026-01-08 06:18:11.42	317.40	28.28	-23.7	-24.2	17.9	0.00e+00	0	43	0	2098200576	7	3813
2026-01-08 06:18:12.42	317.08	28.30	-23.5	-23.8	18.1	0.00e+00	0	43	0	2105540608	7	3712
2026-01-08 06:18:13.42	316.75	28.32	-23.3	-23.3	18.4	0.00e+00	0	43	0	2112880640	7	3611
2026-01-08 06:18:14.43	316.43	28.34	-23.3	-23.2	18.4	0.00e+00	0	43	0	2120220672	7	3592
2026-01-08 06:18:15.44	316.10	28.36	-23.3	-23.3	18.4	0.00e+00	0	43	0	2127560704	7	3594
2026-01-08 06:18:16.44	315.77	28.38	-23.3	-23.4	18.4	0.00e+00	0	43	0	2134900736	7	3619
2026-01-08 06:18:17.45	315.45	28.39	-23.4	-23.6	18.3	0.00e+00	0	43	0	2142240768	7	3663
2026-01-08 06:18:18.45	315.12	28.41	-23.6	-23.9	18.1	0.00e+00	0	43	0	2149580800	7	3735
2026-01-08 06:18:19.45	314.79	28.42	-23.6	-24.0	18.0	0.00e+00	0	43	0	2156920832	7	3766
2026-01-08 06:18:20.45	314.47	28.44	-23.7	-24.1	18.0	0.00e+00	0	44	0	2164260864	7	3773
2026-01-08 06:18:21.46	314.14	28.45	-23.7	-24.1	18.0	0.00e+00	0	43	0	2171600896	7	3795
2026-01-08 06:18:22.47	313.81	28.46	-23.6	-24.0	18.0	0.00e+00	0	43	0	2178940928	7	3760
2026-01-08 06:18:23.47	313.48	28.47	-23.7	-24.2	18.0	0.00e+00	0	43	0	2185232384	7	3800
2026-01-08 06:18:24.48	313.15	28.48	-23.8	-24.5	17.8	0.00e+00	0	43	0	2192572416	7	3867
2026-01-08 06:18:25.48	312.83	28.49	-23.8	-24.4	17.9	0.00e+00	0	43	0	2199912448	7	3844
2026-01-08 06:18:26.48	312.50	28.49	-23.5	-23.8	18.2	0.00e+00	0	43	0	2207252480	7	3705
2026-01-08 06:18:27.49	312.17	28.50	-23.5	-23.7	18.2	0.00e+00	0	44	0	2214592512	7	3688
2026-01-08 06:18:28.49	311.84	28.50	-23.5	-23.7	18.2	0.00e+00	0	43	0	2221932544	7	3691
2026-01-08 06:18:29.50	311.51	28.51	-23.6	-23.9	18.1	0.00e+00	0	43	0	2229272576	7	3738
2026-01-08 06:18:30.51	311.18	28.51	-23.6	-24.0	18.1	0.00e+00	0	43	0	2236612608	7	3749
2026-01-08 06:18:31.52	310.85	28.51	-23.5	-23.8	18.1	0.00e+00	0	43	0	2243952640	7	3718
2026-01-08 06:18:32.52	310.52	28.51	-23.5	-23.7	18.2	0.00e+00	0	43	0	2251292672	7	3697
2026-01-08 06:18:33.53	310.19	28.51	-23.5	-23.7	18.2	0.00e+00	0	43	0	2258632704	7	3693
2026-01-08 06:18:34.54	309.86	28.51	-23.4	-23.5	18.3	0.00e+00	0	43	0	2264924160	7	3644
2026-01-08 06:18:35.54	309.53	28.51	-23.5	-23.7	18.2	0.00e+00	0	43	0	2273312768	7	3691
2026-01-08 06:18:36.55	309.20	28.50	-23.4	-23.4	18.3	0.00e+00	0	44	0	2280652800	7	3635
2026-01-08 06:18:37.56	308.87	28.50	-23.4	-23.5	18.3	0.00e+00	0	43	0	2286944256	7	3649
2026-01-08 06:18:38.56	308.55	28.49	-23.4	-23.6	18.2	0.00e+00	0	43	0	2294284288	7	3671
2026-01-08 06:18:39.57	308.22	28.49	-23.4	-23.4	18.3	0.00e+00	0	43	0	2301624320	7	3629
2026-01-08 06:18:40.57	307.89	28.48	-23.4	-23.6	18.2	0.00e+00	0	43	0	2308964352	7	3669
2026-01-08 06:18:41.57	307.56	28.47	-23.5	-23.7	18.2	0.00e+00	0	43	0	2316304384	7	3682
2026-01-08 06:18:42.58	307.23	28.46	-23.5	-23.8	18.2	0.00e+00	0	43	0	2323644416	7	3705
2026-01-08 06:18:43.58	306.91	28.45	-23.6	-23.9	18.1	0.00e+00	0	43	0	2330984448	7	3738
2026-01-08 06:18:44.59	306.58	28.44	-23.6	-23.9	18.1	0.00e+00	0	44	0	2338324480	7	3724
2026-01-08 06:18:45.59	306.25	28.42	-23.4	-23.5	18.3	0.00e+00	0	43	0	2345664512	7	3645
2026-01-08 06:18:46.60	305.92	28.41	-23.4	-23.5	18.3	0.00e+00	0	43	0	2353004544	7	3637
2026-01-08 06:18:47.60	305.60	28.39	-23.5	-23.8	18.2	0.00e+00	0	44	0	2360344576	7	3702
2026-01-08 06:18:48.61	305.27	28.38	-23.5	-23.7	18.1	0.00e+00	0	43	0	2367684608	7	3697
2026-01-08 06:18:49.61	304.94	28.36	-23.5	-23.7	18.2	0.00e+00	0	43	0	2373976064	7	3700
2026-01-08 06:18:50.61	304.62	28.34	-23.5	-23.7	18.2	0.00e+00	0	43	0	2381316096	7	3693
2026-01-08 06:18:51.62	304.29	28.32	-23.5	-23.8	18.1	0.00e+00	0	43	0	2388656128	7	3713
2026-01-08 06:18:52.63	303.97	28.30	-23.5	-23.7	18.1	0.00e+00	0	43	0	2395996160	7	3694
2026-01-08 06:18:53.63	303.64	28.28	-23.4	-23.5	18.3	0.00e+00	0	44	0	2403336192	7	3645
2026-01-08 06:18:54.64	303.32	28.26	-23.5	-23.6	18.2	0.00e+00	0	43	0	2410676224	7	3677
2026-01-08 06:18:55.64	303.00	28.24	-23.4	-23.6	18.2	0.00e+00	0	43	0	2418016256	7	3671
2026-01-08 06:18:56.65	302.67	28.21	-23.4	-23.5	18.3	0.00e+00	0	43	0	2425356288	7	3643
2026-01-08 06:18:57.66	302.35	28.19	-23.4	-23.5	18.2	0.00e+00	0	43	0	2432696320	7	3651
2026-01-08 06:18:58.66	302.03	28.16	-23.4	-23.5	18.3	0.00e+00	0	43	0	2440036352	7	3648
2026-01-08 06:18:59.67	301.70	28.13	-23.4	-23.5	18.3	0.00e+00	0	43	0	2447376384	7	3648
2026-01-08 06:19:00.68	301.38	28.10	-23.4	-23.4	18.3	0.00e+00	0	44	0	2454716416	7	3633
2026-01-08 06:19:01.69	301.06	28.07	-23.4	-23.5	18.3	0.00e+00	0	43	0	2461007872	7	3654
2026-01-08 06:19:02.70	300.73	28.04	-23.4	-23.6	18.2	0.00e+00	0	43	0	2469396480	7	3672
2026-01-08 06:19:03.70	300.42	28.01	-23.4	-23.6	18.2	0.00e+00	0	43	0	2476736512	7	3663
2026-01-08 06:19:04.71	300.10	27.98	-23.4	-23.5	18.3	0.00e+00	0	44	0	2483027968	7	3639
2026-01-08 06:19:05.71	299.78	27.95	-23.4	-23.6	18.2	0.00e+00	0	43	0	2490368000	7	3668
2026-01-08 06:19:06.71	299.46	27.91	-23.4	-23.5	18.2	0.00e+00	0	43	0	2497708032	7	3657
2026-01-08 06:19:07.72	299.15	27.88	-23.5	-23.7	18.1	0.00e+00	0	43	0	2505048064	7	3701
2026-01-08 06:19:08.73	298.83	27.84	-23.5	-23.7	18.2	0.00e+00	0	44	0	2512388096	7	3687
2026-01-08 06:19:09.73	298.51	27.81	-23.4	-23.6	18.2	0.00e+00	0	43	0	2519728128	7	3678
2026-01-08 06:19:10.73	298.20	27.77	-23.5	-23.8	18.1	0.00e+00	0	43	0	2527068160	7	3720
2026-01-08 06:19:11.74	297.89	27.73	-23.8	-24.4	17.8	0.00e+00	0	44	0	2534408192	7	3855
2026-01-08 06:19:12.75	297.57	27.69	-23.6	-23.9	18.1	0.00e+00	0	43	0	2541748224	7	3733
2026-01-08 06:19:13.76	297.26	27.65	-23.4	-23.4	18.3	0.00e+00	0	43	0	2549088256	7	3631
2026-01-08 06:19:14.77	296.94	27.61	-23.2	-23.0	18.5	0.00e+00	0	43	0	2556428288	7	3544
2026-01-08 06:19:15.77	296.63	27.57	-23.1	-22.9	18.5	0.00e+00	0	44	0	2562719744	7	3528
2026-01-08 06:19:16.78	296.32	27.52	-23.1	-22.9	18.5	0.00e+00	0	43	0	2570059776	7	3530
2026-01-08 06:19:17.79	296.01	27.48	-23.3	-23.4	18.3	0.00e+00	0	44	0	2577399808	7	3616
2026-01-08 06:19:18.79	295.71	27.43	-23.3	-23.3	18.3	0.00e+00	0	43	0	2584739840	7	3606
2026-01-08 06:19:19.80	295.40	27.39	-23.3	-23.2	18.4	0.00e+00	0	43	0	2592079872	7	3588
2026-01-08 06:19:20.80	295.09	27.34	-23.3	-23.4	18.3	0.00e+00	0	43	0	2599419904	7	3635
2026-01-08 06:19:21.81	294.78	27.29	-23.4	-23.4	18.3	0.00e+00	0	43	0	2606759936	7	3635
2026-01-08 06:19:22.82	294.48	27.25	-23.4	-23.6	18.2	0.00e+00	0	44	0	2614099968	7	3671
2026-01-08 06:19:23.82	294.18	27.20	-23.4	-23.5	18.2	0.00e+00	0	44	0	2621440000	7	3651
2026-01-08 06:19:24.83	293.87	27.15	-23.4	-23.6	18.2	0.00e+00	0	43	0	2628780032	7	3661
2026-01-08 06:19:25.84	293.57	27.10	-23.3	-23.3	18.3	0.00e+00	0	44	0	2636120064	7	3615
2026-01-08 06:19:26.84	293.27	27.05	-23.3	-23.2	18.4	0.00e+00	0	43	0	2643460096	7	3586
2026-01-08 06:19:27.85	292.97	26.99	-23.3	-23.2	18.4	0.00e+00	0	43	0	2650800128	7	3592
2026-01-08 06:19:28.86	292.67	26.94	-23.4	-23.4	18.3	0.00e+00	0	43	0	2658140160	7	3636
2026-01-08 06:19:29.87	292.37	26.89	-23.3	-23.4	18.3	0.00e+00	0	44	0	2665480192	7	3622
2026-01-08 06:19:30.88	292.07	26.83	-23.4	-23.5	18.2	0.00e+00	0	44	0	2671771648	7	3652
2026-01-08 06:19:31.88	291.77	26.78	-23.4	-23.5	18.2	0.00e+00	0	43	0	2679111680	7	3640
2026-01-08 06:19:32.88	291.48	26.72	-23.4	-23.6	18.2	0.00e+00	0	43	0	2686451712	7	3682
2026-01-08 06:19:33.88	291.19	26.67	-23.5	-23.7	18.0	0.00e+00	0	44	0	2693791744	7	3694
2026-01-08 06:19:34.89	290.89	26.61	-23.4	-23.4	18.3	0.00e+00	0	43	0	2701131776	7	3635
2026-01-08 06:19:35.88	290.61	26.55	-23.3	-23.4	18.3	0.00e+00	0	44	0	2708471808	7	3620
2026-01-08 06:19:36.89	290.31	26.49	-23.2	-23.2	18.4	0.00e+00	0	43	0	2715811840	7	3575
2026-01-08 06:19:37.90	290.02	26.43	-23.2	-23.2	18.4	0.00e+00	0	43	0	2723151872	7	3575
2026-01-08 06:19:38.90	289.74	26.37	-23.3	-23.4	18.3	0.00e+00	0	43	0	2730491904	7	3613
2026-01-08 06:19:39.91	289.45	26.31	-23.3	-23.4	18.3	0.00e+00	0	43	0	2737831936	7	3625
2026-01-08 06:19:40.91	289.16	26.25	-23.6	-23.9	18.0	0.00e+00	0	43	0	2745171968	7	3737
2026-01-08 06:19:41.92	288.88	26.19	-23.5	-23.7	18.1	0.00e+00	0	43	0	2751463424	7	3688
2026-01-08 06:19:42.93	288.59	26.13	-23.6	-24.0	17.9	0.00e+00	0	43	0	2758803456	7	3759
2026-01-08 06:19:43.93	288.31	26.06	-23.6	-23.9	17.9	0.00e+00	0	43	0	2766143488	7	3737
2026-01-08 06:19:44.94	288.03	26.00	-23.6	-24.0	17.9	0.00e+00	0	43	0	2773483520	7	3754
2026-01-08 06:19:45.95	287.74	25.94	-23.5	-23.8	18.0	0.00e+00	0	43	0	2780823552	7	3711
2026-01-08 06:19:46.95	287.47	25.87	-23.6	-23.9	18.0	0.00e+00	0	43	0	2788163584	7	3729
2026-01-08 06:19:47.96	287.19	25.81	-23.4	-23.6	18.1	0.00e+00	0	43	0	2795503616	7	3677
2026-01-08 06:19:48.95	286.91	25.74	-23.5	-23.7	18.1	0.00e+00	0	43	0	2802843648	7	3694
2026-01-08 06:19:49.96	286.64	25.67	-23.3	-23.4	18.2	0.00e+00	0	43	0	2810183680	7	3624
2026-01-08 06:19:50.97	286.36	25.61	-23.3	-23.4	18.2	0.00e+00	0	43	0	2817523712	7	3622
2026-01-08 06:19:51.98	286.08	25.54	-23.2	-23.2	18.4	0.00e+00	0	43	0	2824863744	7	3576
2026-01-08 06:19:52.98	285.81	25.47	-23.2	-23.1	18.4	0.00e+00	0	43	0	2832203776	7	3572
2026-01-08 06:19:53.99	285.54	25.40	-23.3	-23.4	18.2	0.00e+00	0	44	0	2839543808	7	3628
2026-01-08 06:19:55.00	285.27	25.33	-23.1	-22.9	18.4	0.00e+00	0	43	0	2846883840	7	3523
2026-01-08 06:19:56.01	285.00	25.26	-23.4	-23.5	18.2	0.00e+00	0	43	0	2854223872	7	3642
2026-01-08 06:19:57.01	284.73	25.19	-23.2	-23.1	18.4	0.00e+00	0	43	0	2860515328	7	3559
2026-01-08 06:19:58.02	284.46	25.12	-23.2	-23.1	18.4	0.00e+00	0	43	0	2867855360	7	3561
2026-01-08 06:19:59.03	284.20	25.05	-23.3	-23.4	18.2	0.00e+00	0	43	0	2875195392	7	3624
2026-01-08 06:20:00.03	283.93	24.98	-23.3	-23.3	18.2	0.00e+00	0	44	0	2882535424	7	3614
2026-01-08 06:20:01.04	283.67	24.90	-23.4	-23.6	18.1	0.00e+00	0	43	0	2889875456	7	3667
2026-01-08 06:20:02.05	283.41	24.83	-23.7	-24.1	17.9	0.00e+00	0	43	0	2897215488	7	3786
2026-01-08 06:20:03.06	283.14	24.76	-23.4	-23.6	18.1	0.00e+00	0	44	0	2904555520	7	3680
2026-01-08 06:20:04.06	282.89	24.68	-23.4	-23.5	18.1	0.00e+00	0	44	0	2911895552	7	3650
2026-01-08 06:20:05.07	282.63	24.61	-23.5	-23.7	18.0	0.00e+00	0	44	0	2919235584	7	3692
2026-01-08 06:20:06.08	282.37	24.53	-23.4	-23.6	18.1	0.00e+00	0	43	0	2926575616	7	3665
2026-01-08 06:20:07.08	282.11	24.46	-23.5	-23.8	18.0	0.00e+00	0	43	0	2933915648	7	3719
2026-01-08 06:20:08.09	281.86	24.38	-23.5	-23.7	18.0	0.00e+00	0	43	0	2941255680	7	3696
2026-01-08 06:20:09.09	281.61	24.31	-23.4	-23.5	18.1	0.00e+00	0	44	0	2947547136	7	3661
2026-01-08 06:20:10.09	281.36	24.23	-23.4	-23.5	18.1	0.00e+00	0	44	0	2955935744	7	3661
2026-01-08 06:20:11.10	281.10	24.16	-23.5	-23.8	18.0	0.00e+00	0	44	0	2963275776	7	3721
2026-01-08 06:20:12.11	280.85	24.08	-23.2	-23.2	18.3	0.00e+00	0	44	0	2969567232	7	3591
2026-01-08 06:20:13.11	280.61	24.00	-23.2	-23.1	18.3	0.00e+00	0	43	0	2976907264	7	3563
2026-01-08 06:20:14.12	280.36	23.92	-23.2	-23.2	18.3	0.00e+00	0	43	0	2984247296	7	3577
2026-01-08 06:20:15.13	280.11	23.85	-23.2	-23.0	18.3	0.00e+00	0	43	0	2991587328	7	3543
2026-01-08 06:20:16.13	279.87	23.77	-23.3	-23.2	18.2	0.00e+00	0	43	0	2998927360	7	3593
2026-01-08 06:20:17.13	279.63	23.69	-23.4	-23.5	18.1	0.00e+00	0	44	0	3006267392	7	3643
2026-01-08 06:20:18.14	279.38	23.61	-23.4	-23.6	18.0	0.00e+00	0	43	0	3013607424	7	3672
2026-01-08 06:20:19.15	279.14	23.53	-23.4	-23.6	18.1	0.00e+00	0	44	0	3020947456	7	3665
2026-01-08 06:20:20.16	278.90	23.45	-23.5	-23.8	18.0	0.00e+00	0	43	0	3028287488	7	3708
2026-01-08 06:20:21.16	278.66	23.37	-23.4	-23.5	18.1	0.00e+00	0	43	0	3035627520	7	3653
2026-01-08 06:20:22.16	278.43	23.29	-23.4	-23.6	18.1	0.00e+00	0	44	0	3042967552	7	3666
2026-01-08 06:20:23.17	278.19	23.21	-23.5	-23.8	17.9	0.00e+00	0	43	0	3049259008	7	3710
2026-01-08 06:20:24.18	277.95	23.13	-23.4	-23.5	18.1	0.00e+00	0	44	0	3056599040	7	3640
2026-01-08 06:20:25.19	277.72	23.05	-23.3	-23.4	18.1	0.00e+00	0	43	0	3063939072	7	3626
2026-01-08 06:20:26.20	277.48	22.97	-23.3	-23.3	18.1	0.00e+00	0	43	0	3071279104	7	3606
2026-01-08 06:20:27.21	277.25	22.88	-23.3	-23.3	18.2	0.00e+00	0	43	0	3078619136	7	3608
2026-01-08 06:20:28.21	277.02	22.80	-23.3	-23.3	18.2	0.00e+00	0	43	0	3085959168	7	3609
2026-01-08 06:20:29.23	276.79	22.72	-23.3	-23.4	18.1	0.00e+00	0	43	0	3093299200	7	3624
2026-01-08 06:20:30.23	276.56	22.64	-23.4	-23.5	18.1	0.00e+00	0	43	0	3100639232	7	3654
2026-01-08 06:20:31.23	276.34	22.56	-23.4	-23.5	18.1	0.00e+00	0	44	0	3107979264	7	3649
2026-01-08 06:20:32.24	276.11	22.47	-23.5	-23.7	18.0	0.00e+00	0	44	0	3115319296	7	3706
2026-01-08 06:20:33.25	275.89	22.39	-23.5	-23.7	18.0	0.00e+00	0	43	0	3122659328	7	3696
2026-01-08 06:20:34.26	275.66	22.31	-23.6	-23.9	17.9	0.00e+00	0	44	0	3129999360	7	3738
2026-01-08 06:20:35.26	275.44	22.22	-23.7	-24.1	17.8	0.00e+00	0	43	0	3137339392	7	3792
2026-01-08 06:20:36.27	275.22	22.14	-23.5	-23.9	17.7	0.00e+00	0	44	0	3144679424	7	3735
2026-01-08 06:20:37.28	275.00	22.06	-23.6	-23.9	17.9	0.00e+00	0	43	0	3152019456	7	3731
2026-01-08 06:20:38.29	274.78	21.97	-23.6	-24.0	17.8	0.00e+00	0	43	0	3158310912	7	3759
2026-01-08 06:20:39.30	274.57	21.89	-23.5	-23.8	17.9	0.00e+00	0	43	0	3166699520	7	3714
2026-01-08 06:20:40.30	274.35	21.80	-23.5	-23.8	17.9	0.00e+00	0	43	0	3174039552	7	3725
2026-01-08 06:20:41.31	274.14	21.72	-23.6	-24.0	17.7	0.00e+00	0	43	0	3180331008	7	3776
2026-01-08 06:20:42.31	273.92	21.64	-23.8	-24.5	17.6	0.00e+00	0	43	0	3187671040	7	3870
2026-01-08 06:20:43.32	273.71	21.55	-23.9	-24.7	17.4	0.00e+00	0	43	0	3195011072	7	3920
2026-01-08 06:20:44.33	273.50	21.47	-23.8	-24.5	17.5	0.00e+00	0	43	0	3202351104	7	3870
2026-01-08 06:20:45.33	273.29	21.38	-23.8	-24.5	17.5	0.00e+00	0	43	0	3209691136	7	3872
2026-01-08 06:20:46.34	273.08	21.30	-23.9	-24.6	17.5	0.00e+00	0	43	0	3217031168	7	3914
2026-01-08 06:20:47.35	272.87	21.21	-24.0	-24.7	17.4	1.10e-06	0	43	0	3224371200	7	3937
2026-01-08 06:20:48.36	272.66	21.13	-24.1	-24.6	17.2	0.00e+00	0	43	0	3231711232	8	3791
2026-01-08 06:20:49.36	272.46	21.04	-24.3	-24.9	17.1	0.00e+00	0	43	0	3239051264	8	3858
2026-01-08 06:20:50.36	272.26	20.96	-24.0	-24.3	17.4	1.10e-06	0	44	0	3246391296	8	3734
2026-01-08 06:20:51.37	272.05	20.87	-23.8	-24.0	17.5	0.00e+00	0	43	0	3253731328	8	3659
2026-01-08 06:20:52.37	271.85	20.79	-23.8	-23.9	17.6	0.00e+00	0	43	0	3260022784	8	3637
2026-01-08 06:20:53.38	271.65	20.70	-23.8	-23.9	17.5	0.00e+00	0	43	0	3267362816	8	3649
2026-01-08 06:20:54.39	271.45	20.61	-23.9	-24.1	17.5	0.00e+00	0	43	0	3274702848	8	3678
2026-01-08 06:20:55.40	271.25	20.53	-24.0	-24.3	17.3	0.00e+00	0	44	0	3282042880	8	3733
2026-01-08 06:20:56.40	271.05	20.44	-23.8	-24.0	17.5	0.00e+00	0	44	0	3289382912	8	3661
2026-01-08 06:20:57.41	270.86	20.36	-23.8	-23.9	17.5	0.00e+00	0	44	0	3296722944	8	3639
2026-01-08 06:20:58.41	270.66	20.27	-23.8	-23.9	17.5	0.00e+00	0	43	0	3304062976	8	3649
2026-01-08 06:20:59.41	270.47	20.18	-23.8	-24.0	17.5	0.00e+00	0	44	0	3311403008	8	3658
2026-01-08 06:21:00.42	270.28	20.10	-23.8	-23.9	17.5	0.00e+00	0	44	0	3318743040	8	3645
2026-01-08 06:21:01.43	270.08	20.01	-23.8	-23.9	17.5	0.00e+00	0	43	0	3326083072	8	3649
2026-01-08 06:21:02.44	269.89	19.93	-23.8	-23.8	17.6	0.00e+00	0	43	0	3333423104	8	3615
2026-01-08 06:21:03.44	269.70	19.84	-23.9	-24.0	17.5	0.00e+00	0	43	0	3340763136	8	3668
2026-01-08 06:21:04.45	269.51	19.75	-24.0	-24.3	17.4	0.00e+00	0	43	0	3348103168	8	3723
2026-01-08 06:21:05.46	269.33	19.67	-24.0	-24.4	17.3	0.00e+00	0	44	0	3355443200	8	3751
2026-01-08 06:21:06.46	269.14	19.58	-24.1	-24.4	17.3	0.00e+00	0	43	0	3362783232	8	3757
2026-01-08 06:21:07.47	268.95	19.49	-24.2	-24.7	17.1	0.00e+00	0	43	0	3369074688	8	3821
2026-01-08 06:21:08.47	268.77	19.41	-24.3	-24.9	17.0	0.00e+00	0	43	0	3376414720	8	3861
2026-01-08 06:21:09.48	268.59	19.32	-24.2	-24.7	17.1	0.00e+00	0	43	0	3383754752	8	3821
2026-01-08 06:21:10.49	268.40	19.24	-24.2	-24.8	17.0	0.00e+00	0	43	0	3391094784	8	3853
2026-01-08 06:21:11.49	268.22	19.15	-24.2	-24.8	17.0	0.00e+00	0	43	0	3398434816	8	3844
2026-01-08 06:21:12.50	268.04	19.06	-24.2	-24.8	17.0	0.00e+00	0	43	0	3405774848	8	3844
2026-01-08 06:21:13.51	267.86	18.98	-24.2	-24.8	17.1	0.00e+00	0	43	0	3413114880	8	3842
2026-01-08 06:21:14.51	267.69	18.89	-24.1	-24.6	17.1	0.00e+00	0	43	0	3420454912	8	3809
2026-01-08 06:21:15.52	267.51	18.80	-24.1	-24.6	17.1	0.00e+00	0	44	0	3427794944	8	3794
2026-01-08 06:21:16.52	267.33	18.72	-24.2	-24.8	17.0	0.00e+00	0	43	0	3435134976	8	3832
2026-01-08 06:21:17.52	267.16	18.63	-24.2	-24.8	17.0	0.00e+00	0	43	0	3442475008	8	3835
2026-01-08 06:21:18.53	266.98	18.55	-24.1	-24.6	17.1	0.00e+00	0	43	0	3448766464	8	3794
2026-01-08 06:21:19.54	266.81	18.46	-24.1	-24.5	17.2	0.00e+00	0	43	0	3456106496	8	3773
2026-01-08 06:21:20.55	266.64	18.37	-24.1	-24.5	17.2	0.00e+00	0	43	0	3464495104	8	3778
2026-01-08 06:21:21.55	266.47	18.29	-24.1	-24.6	17.1	0.00e+00	0	44	0	3470786560	8	3806
2026-01-08 06:21:22.56	266.30	18.20	-24.1	-24.6	17.1	0.00e+00	0	43	0	3478126592	8	3798
2026-01-08 06:21:23.57	266.13	18.11	-24.1	-24.6	17.1	0.00e+00	0	43	0	3485466624	8	3812
2026-01-08 06:21:24.57	265.96	18.03	-24.2	-24.7	17.1	0.00e+00	0	44	0	3492806656	8	3822
2026-01-08 06:21:25.58	265.79	17.94	-24.2	-24.7	17.1	0.00e+00	0	43	0	3500146688	8	3817
2026-01-08 06:21:26.58	265.63	17.86	-24.2	-24.8	17.0	0.00e+00	0	44	0	3507486720	8	3854
2026-01-08 06:21:27.59	265.46	17.77	-24.3	-25.0	16.9	0.00e+00	0	43	0	3514826752	8	3890
2026-01-08 06:21:28.60	265.29	17.68	-24.3	-24.9	16.9	0.00e+00	0	44	0	3522166784	8	3872
2026-01-08 06:21:29.60	265.13	17.60	-24.4	-25.1	16.8	0.00e+00	0	43	0	3529506816	8	3909
2026-01-08 06:21:30.61	264.97	17.51	-24.4	-25.3	16.7	0.00e+00	0	43	0	3536846848	8	3959
2026-01-08 06:21:31.61	264.81	17.43	-24.5	-25.5	16.6	0.00e+00	0	44	0	3544186880	8	4018
2026-01-08 06:21:32.62	264.65	17.34	-24.6	-25.5	16.6	0.00e+00	0	43	0	3551526912	8	4030
2026-01-08 06:21:33.62	264.49	17.26	-24.6	-25.2	16.5	0.00e+00	0	43	0	3557818368	9	3839
2026-01-08 06:21:34.63	264.33	17.17	-24.7	-25.4	16.4	0.00e+00	0	43	0	3565158400	9	3890
2026-01-08 06:21:35.63	264.17	17.09	-24.8	-25.5	16.3	0.00e+00	0	43	0	3572498432	9	3905
2026-01-08 06:21:36.63	264.01	17.00	-24.7	-25.4	16.4	0.00e+00	0	43	0	3579838464	9	3893
2026-01-08 06:21:37.64	263.86	16.92	-24.8	-25.4	16.3	0.00e+00	0	43	0	3587178496	9	3896
2026-01-08 06:21:38.64	263.70	16.83	-24.9	-25.6	16.2	0.00e+00	0	43	0	3594518528	9	3945
2026-01-08 06:21:39.65	263.55	16.75	-24.8	-25.6	16.3	0.00e+00	0	43	0	3601858560	9	3931
2026-01-08 06:21:40.65	263.40	16.66	-24.9	-25.7	16.2	2.20e-06	0	44	0	3609198592	9	3962
2026-01-08 06:21:41.66	263.24	16.58	-24.9	-25.7	16.2	0.00e+00	0	43	0	3616538624	9	3954
2026-01-08 06:21:42.67	263.09	16.49	-24.8	-25.6	16.2	0.00e+00	0	43	0	3623878656	9	3938
2026-01-08 06:21:43.67	262.94	16.41	-24.9	-25.7	16.2	0.00e+00	0	43	0	3631218688	9	3962
2026-01-08 06:21:44.68	262.79	16.32	-24.9	-25.8	16.1	0.00e+00	0	43	0	3638558720	9	3992
2026-01-08 06:21:45.69	262.64	16.24	-25.0	-26.0	16.1	0.00e+00	0	44	0	3644850176	9	4027
2026-01-08 06:21:46.69	262.49	16.15	-25.1	-25.7	15.9	0.00e+00	0	43	0	3653238784	10	3864
2026-01-08 06:21:47.70	262.34	16.07	-25.3	-26.1	15.7	0.00e+00	0	44	0	3660578816	10	3956
2026-01-08 06:21:48.70	262.20	15.98	-25.4	-26.3	15.6	0.00e+00	0	44	0	3666870272	10	3996
2026-01-08 06:21:49.71	262.05	15.90	-25.4	-26.3	15.6	0.00e+00	0	43	0	3674210304	10	4011
2026-01-08 06:21:50.72	261.91	15.82	-25.4	-26.4	15.6	0.00e+00	0	43	0	3681550336	10	4026
2026-01-08 06:21:51.72	261.76	15.73	-25.3	-26.2	15.7	0.00e+00	0	43	0	3688890368	10	3976
2026-01-08 06:21:52.73	261.62	15.65	-25.4	-26.3	15.6	1.10e-06	0	43	0	3696230400	10	3988
2026-01-08 06:21:53.73	261.48	15.56	-25.3	-26.0	15.7	0.00e+00	0	43	0	3703570432	10	3938
2026-01-08 06:21:54.74	261.33	15.48	-25.3	-26.0	15.7	0.00e+00	0	44	0	3710910464	10	3938
2026-01-08 06:21:55.75	261.19	15.40	-25.2	-25.9	15.8	3.40e-06	0	43	0	3718250496	10	3897
2026-01-08 06:21:56.75	261.05	15.31	-25.2	-25.9	15.8	0.00e+00	0	43	0	3725590528	10	3896
2026-01-08 06:21:57.76	260.91	15.23	-25.1	-25.8	15.9	0.00e+00	0	43	0	3732930560	10	3879
2026-01-08 06:21:58.76	260.78	15.15	-25.2	-25.9	15.8	2.20e-06	0	44	0	3740270592	10	3894
2026-01-08 06:21:59.77	260.64	15.06	-25.2	-25.9	15.8	0.00e+00	0	43	0	3746562048	10	3905
2026-01-08 06:22:00.78	260.50	14.98	-25.4	-26.3	15.6	0.00e+00	0	43	0	3753902080	10	4009
2026-01-08 06:22:01.79	260.36	14.90	-25.3	-26.2	15.6	0.00e+00	0	43	0	3761242112	10	3979
2026-01-08 06:22:02.79	260.23	14.82	-25.3	-26.1	15.7	0.00e+00	0	43	0	3768582144	10	3956
2026-01-08 06:22:03.80	260.09	14.73	-25.4	-26.2	15.6	0.00e+00	0	43	0	3775922176	10	3987
2026-01-08 06:22:04.80	259.96	14.65	-25.4	-26.3	15.6	0.00e+00	0	43	0	3783262208	10	4009
2026-01-08 06:22:05.80	259.83	14.57	-25.5	-26.5	15.4	0.00e+00	0	44	0	3790602240	10	4055
2026-01-08 06:22:06.80	259.70	14.49	-25.5	-26.7	15.3	0.00e+00	0	43	0	3797942272	10	4094
2026-01-08 06:22:07.81	259.56	14.40	-25.4	-26.4	15.5	0.00e+00	0	44	0	3805282304	10	4036
2026-01-08 06:22:08.82	259.43	14.32	-25.5	-26.5	15.5	0.00e+00	0	43	0	3812622336	10	4044
2026-01-08 06:22:09.83	259.30	14.24	-25.4	-26.4	15.5	0.00e+00	0	44	0	3819962368	10	4014
2026-01-08 06:22:10.83	259.17	14.16	-25.3	-26.2	15.6	1.10e-06	0	43	0	3827302400	10	3979
2026-01-08 06:22:11.84	259.04	14.08	-25.4	-26.4	15.4	0.00e+00	0	43	0	3833593856	10	4041
2026-01-08 06:22:12.85	258.91	14.00	-25.4	-26.3	15.5	0.00e+00	0	43	0	3841982464	10	4004
2026-01-08 06:22:13.85	258.79	13.91	-25.5	-26.6	15.3	0.00e+00	0	43	0	3849322496	10	4091
2026-01-08 06:22:14.86	258.66	13.83	-25.5	-26.0	15.4	0.00e+00	0	43	0	3855613952	11	3826
2026-01-08 06:22:15.86	258.54	13.75	-25.4	-25.8	15.5	0.00e+00	0	43	0	3862953984	11	3769
2026-01-08 06:22:16.87	258.41	13.67	-25.4	-25.8	15.5	0.00e+00	0	44	0	3870294016	11	3791
2026-01-08 06:22:17.87	258.29	13.59	-25.5	-26.1	15.4	0.00e+00	0	43	0	3877634048	11	3841
2026-01-08 06:22:18.88	258.16	13.51	-25.6	-26.3	15.3	0.00e+00	0	44	0	3884974080	11	3888
2026-01-08 06:22:19.89	258.04	13.43	-25.7	-26.5	15.1	0.00e+00	0	44	0	3892314112	11	3955
2026-01-08 06:22:20.89	257.92	13.35	-25.7	-26.5	15.1	0.00e+00	0	44	0	3899654144	11	3953
2026-01-08 06:22:21.90	257.79	13.27	-25.8	-26.7	15.0	0.00e+00	0	43	0	3906994176	11	4006
2026-01-08 06:22:22.91	257.67	13.19	-25.7	-26.6	15.0	0.00e+00	0	44	0	3914334208	11	3967
2026-01-08 06:22:23.92	257.55	13.11	-25.8	-26.6	15.0	0.00e+00	0	43	0	3921674240	11	3984
2026-01-08 06:22:24.92	257.43	13.03	-25.8	-26.8	14.9	0.00e+00	0	43	0	3929014272	11	4019
2026-01-08 06:22:25.93	257.31	12.95	-25.9	-27.0	14.8	0.00e+00	0	43	0	3935305728	11	4070
2026-01-08 06:22:26.92	257.20	12.87	-26.0	-27.2	14.7	1.10e-06	0	44	0	3942645760	11	4126
2026-01-08 06:22:27.94	257.08	12.79	-26.0	-27.2	14.7	0.00e+00	0	43	0	3949985792	11	4123
2026-01-08 06:22:28.94	256.96	12.71	-26.0	-26.8	14.6	0.00e+00	0	44	0	3957325824	12	3923
2026-01-08 06:22:29.95	256.84	12.63	-26.0	-26.7	14.6	3.40e-06	0	43	0	3964665856	12	3897
2026-01-08 06:22:30.96	256.73	12.55	-26.0	-26.8	14.5	0.00e+00	0	43	0	3972005888	12	3928
2026-01-08 06:22:31.97	256.61	12.47	-26.0	-26.7	14.6	0.00e+00	0	44	0	3979345920	12	3900
2026-01-08 06:22:32.97	256.50	12.39	-26.2	-27.2	14.3	1.10e-06	0	44	0	3986685952	12	4014
2026-01-08 06:22:33.98	256.38	12.32	-26.0	-26.7	14.6	0.00e+00	0	43	0	3994025984	12	3901
2026-01-08 06:22:34.99	256.27	12.24	-25.9	-26.4	14.8	1.10e-06	0	43	0	4001366016	12	3822
2026-01-08 06:22:35.99	256.16	12.16	-25.8	-26.3	14.8	0.00e+00	0	43	0	4008706048	12	3814
2026-01-08 06:22:37.00	256.04	12.08	-25.9	-26.6	14.7	0.00e+00	0	44	0	4016046080	12	3866
2026-01-08 06:22:38.00	255.93	12.00	-25.8	-26.2	14.9	0.00e+00	0	44	0	4023386112	12	3771
2026-01-08 06:22:39.01	255.82	11.92	-25.8	-26.3	14.8	0.00e+00	0	43	0	4030726144	12	3798
2026-01-08 06:22:40.01	255.71	11.85	-25.7	-26.1	14.9	0.00e+00	0	44	0	4038066176	12	3753
2026-01-08 06:22:41.02	255.60	11.77	-25.8	-26.2	14.8	1.10e-06	0	43	0	4044357632	12	3772
2026-01-08 06:22:42.02	255.49	11.69	-25.7	-25.9	15.0	0.00e+00	0	44	0	4051697664	12	3718
2026-01-08 06:22:43.03	255.38	11.61	-25.7	-26.1	14.9	0.00e+00	0	43	0	4059037696	12	3751
2026-01-08 06:22:44.03	255.28	11.54	-25.7	-25.9	15.0	0.00e+00	0	43	0	4066377728	12	3723
2026-01-08 06:22:45.04	255.17	11.46	-25.6	-25.9	15.0	0.00e+00	0	43	0	4073717760	12	3710
2026-01-08 06:22:46.04	255.06	11.38	-25.8	-26.2	14.8	0.00e+00	0	43	0	4081057792	12	3772
2026-01-08 06:22:47.05	254.95	11.31	-25.6	-25.9	15.0	0.00e+00	0	43	0	4088397824	12	3704
2026-01-08 06:22:48.06	254.85	11.23	-25.7	-26.0	14.9	0.00e+00	0	43	0	4095737856	12	3741
2026-01-08 06:22:49.06	254.74	11.15	-25.9	-26.5	14.6	2.20e-06	0	43	0	4103077888	12	3856
2026-01-08 06:22:50.07	254.64	11.08	-25.7	-26.0	14.9	0.00e+00	0	43	0	4110417920	12	3738
2026-01-08 06:22:51.08	254.53	11.00	-25.6	-25.9	15.0	0.00e+00	0	43	0	4117757952	12	3706
2026-01-08 06:22:52.09	254.43	10.92	-25.6	-25.9	14.9	1.10e-06	0	43	0	4125097984	12	3712
2026-01-08 06:22:53.09	254.33	10.85	-25.7	-26.0	14.9	0.00e+00	0	43	0	4131389440	12	3726
2026-01-08 06:22:54.09	254.23	10.77	-25.7	-26.1	14.8	0.00e+00	0	44	0	4139778048	12	3769
2026-01-08 06:22:55.10	254.12	10.70	-25.8	-26.2	14.8	0.00e+00	0	43	0	4147118080	12	3781
2026-01-08 06:22:56.11	254.02	10.62	-25.9	-26.5	14.6	1.10e-06	0	43	0	4153409536	12	3845
2026-01-08 06:22:57.10	253.92	10.55	-26.0	-26.8	14.4	0.00e+00	0	43	0	4160749568	12	3926
2026-01-08 06:22:58.11	253.82	10.47	-26.0	-26.7	14.5	0.00e+00	0	43	0	4168089600	12	3906
2026-01-08 06:22:59.12	253.72	10.40	-26.2	-27.2	14.2	0.00e+00	0	44	0	4175429632	12	4021
2026-01-08 06:23:00.12	253.62	10.32	-26.3	-27.3	14.1	0.00e+00	0	43	0	4182769664	12	4047
2026-01-08 06:23:01.12	253.53	10.25	-26.3	-27.4	14.0	4.50e-06	0	43	0	4190109696	12	4095
2026-01-08 06:23:02.13	253.43	10.17	-26.4	-27.6	13.9	1.10e-06	0	43	0	4197449728	12	4149
2026-01-08 06:23:03.14	253.33	10.10	-26.5	-27.8	13.8	4.50e-06	0	44	0	4204789760	12	4199
2026-01-08 06:23:04.14	253.23	10.02	-26.5	-27.9	13.7	2.20e-06	0	43	0	4212129792	12	4228
2026-01-08 06:23:05.15	253.14	9.95	-26.7	-27.8	13.5	4.50e-06	0	43	0	4219469824	13	4082
2026-01-08 06:23:06.16	253.04	9.88	-26.9	-28.3	13.2	1.71e-05	0	43	0	4226809856	13	4234
2026-01-08 06:23:07.17	252.94	9.80	-26.7	-27.9	13.4	5.70e-06	0	43	0	4233101312	13	4113
2026-01-08 06:23:08.17	252.85	9.73	-26.6	-27.7	13.5	1.14e-05	0	43	0	4240441344	13	4058
2026-01-08 06:23:09.18	252.75	9.65	-26.6	-27.6	13.7	9.10e-06	0	44	0	4247781376	13	4025
2026-01-08 06:23:10.18	252.66	9.58	-26.6	-27.6	13.6	3.40e-06	0	44	0	4255121408	13	4037
2026-01-08 06:23:11.19	252.56	9.51	-26.7	-27.7	13.5	9.10e-06	0	43	0	4262461440	13	4072
2026-01-08 06:23:12.20	252.47	9.43	-26.6	-27.7	13.6	4.50e-06	0	44	0	4269801472	13	4058
2026-01-08 06:23:13.21	252.38	9.36	-26.6	-27.7	13.6	1.02e-05	0	44	0	4277141504	13	4052
2026-01-08 06:23:14.21	252.29	9.29	-26.6	-27.7	13.5	1.02e-05	0	43	0	4284481536	13	4067
2026-01-08 06:23:15.22	252.19	9.22	-26.6	-27.5	13.7	1.10e-06	0	44	0	4291821568	13	4014
2026-01-08 06:23:16.22	252.10	9.14	-26.6	-27.6	13.6	9.10e-06	0	43	0	4299161600	13	4050
2026-01-08 06:23:17.22	252.01	9.07	-26.7	-27.8	13.5	4.50e-06	0	44	0	4306501632	13	4083
2026-01-08 06:23:18.23	251.92	9.00	-26.6	-27.6	13.6	5.70e-06	0	44	0	4313841664	13	4031
2026-01-08 06:23:19.24	251.83	8.93	-26.6	-27.7	13.5	6.80e-06	0	43	0	4320133120	13	4054
2026-01-08 06:23:20.24	251.74	8.85	-26.6	-27.6	13.6	5.70e-06	0	44	0	4327473152	13	4041
2026-01-08 06:23:21.23	251.66	8.78	-26.6	-27.6	13.5	5.70e-06	0	43	0	4334813184	13	4045
2026-01-08 06:23:22.24	251.57	8.71	-26.6	-27.6	13.5	5.70e-06	0	43	0	4342153216	13	4031
2026-01-08 06:23:23.24	251.48	8.64	-26.6	-27.6	13.5	4.50e-06	0	44	0	4349493248	13	4035
2026-01-08 06:23:24.25	251.39	8.57	-26.7	-27.8	13.4	1.14e-05	0	44	0	4356833280	13	4091
2026-01-08 06:23:25.25	251.30	8.50	-26.6	-27.5	13.6	6.80e-06	0	43	0	4364173312	13	4014
2026-01-08 06:23:26.26	251.22	8.43	-26.6	-27.5	13.5	2.20e-06	0	43	0	4371513344	13	4018
2026-01-08 06:23:27.27	251.13	8.35	-26.7	-27.7	13.4	1.37e-05	0	43	0	4378853376	13	4078
2026-01-08 06:23:28.28	251.04	8.28	-26.7	-27.7	13.4	3.40e-06	0	43	0	4386193408	13	4068
2026-01-08 06:23:29.29	250.96	8.21	-26.7	-27.8	13.3	1.48e-05	0	43	0	4393533440	13	4100
2026-01-08 06:23:30.29	250.87	8.14	-26.9	-28.3	13.0	2.63e-05	0	43	0	4399824896	13	4238
2026-01-08 06:23:31.30	250.79	8.07	-26.7	-27.8	13.3	1.25e-05	0	43	0	4408213504	13	4088
2026-01-08 06:23:32.30	250.70	8.00	-26.8	-28.0	13.2	1.37e-05	0	44	0	4415553536	13	4142
2026-01-08 06:23:33.31	250.62	7.93	-26.8	-28.0	13.2	2.05e-05	0	44	0	4421844992	13	4147
2026-01-08 06:23:34.32	250.54	7.86	-26.9	-28.2	13.1	2.05e-05	0	44	0	4429185024	13	4210
2026-01-08 06:23:35.33	250.45	7.79	-26.9	-28.3	13.0	3.66e-05	0	44	0	4436525056	13	4226
2026-01-08 06:23:36.33	250.37	7.72	-26.9	-28.3	13.0	2.63e-05	0	44	0	4443865088	13	4227
2026-01-08 06:23:37.33	250.29	7.65	-27.0	-28.6	12.8	6.06e-05	0	44	0	4451205120	13	4315
2026-01-08 06:23:38.34	250.21	7.58	-27.2	-28.6	12.6	8.69e-05	0	43	0	4458545152	14	4212
2026-01-08 06:23:39.35	250.13	7.51	-27.5	-29.2	12.2	2.00e-04	0	44	0	4465885184	14	4370
2026-01-08 06:23:40.36	250.04	7.44	-27.1	-28.4	12.6	7.78e-05	0	44	0	4473225216	14	4148
2026-01-08 06:23:41.36	249.96	7.37	-27.0	-28.0	12.9	4.11e-05	0	43	0	4480565248	14	4044
2026-01-08 06:23:42.37	249.88	7.30	-26.8	-27.7	13.1	3.43e-05	0	43	0	4487905280	14	3956
2026-01-08 06:23:43.37	249.80	7.24	-26.8	-27.6	13.1	3.20e-05	0	44	0	4495245312	14	3949
2026-01-08 06:23:44.38	249.72	7.17	-26.9	-27.8	13.0	3.54e-05	0	44	0	4502585344	14	3992
2026-01-08 06:23:45.39	249.64	7.10	-30.4	-33.8	7.8	8.01e-05	0	44	0	4508876800	20	5327
2026-01-08 06:23:46.40	249.57	7.03	-33.0	-43.0	3.8	8.47e-01	0	44	104	4509925376	25	11319

#Closed at: 2026-01-08 06:23:47
#Recorded file [4509 MB]: D:/data/31010_260108_091320.dat