passes_logs/2026/01/08/R2M6_AANII_01/R2M6_AANII_01__20260108_082031_SUOMI_NPP_rec.log

#Pass ID: 20260108_082031_SUOMI NPP
#Satellite: SUOMI NPP
#Configuration: NPP
#almurnet v.1.7.20240730
#Start time: 2026-01-08 08:20:31

#Version: 2.2.20231116
#Station: R2M6_AANII_01
#Location: 30.233357 lon 59.946436 lat
#TLE: 1 37849U 11061A   26005.94084933  .00000134  00000+0  84554-4 0  9990
#TLE: 2 37849  98.7803 308.0679 0002567  79.1029 281.0436 14.19522657735426

#Time	Az	El	Level	Level2	SNR	BER	BlckErr	Temp	State	Recorded	gain1	gain2
2026-01-08 08:20:31.74	96.61	7.02	-30.8	-42.8	3.7	1.50e+00	0	40	0	0	22	14381
2026-01-08 08:20:32.74	96.52	7.08	-30.8	-42.3	3.8	1.49e+00	0	40	104	0	23	13593
2026-01-08 08:20:33.74	96.42	7.15	-30.7	-42.6	3.8	1.49e+00	0	40	104	0	22	14206
2026-01-08 08:20:34.75	96.32	7.21	-30.6	-42.4	3.8	1.49e+00	0	40	104	0	22	14005
2026-01-08 08:20:35.75	96.22	7.27	-30.6	-42.3	3.8	1.49e+00	0	40	104	0	22	13895
2026-01-08 08:20:36.76	96.12	7.33	-30.5	-42.2	3.8	1.49e+00	0	41	104	0	22	13848
2026-01-08 08:20:37.77	96.02	7.40	-30.5	-42.2	3.8	1.49e+00	0	40	104	0	22	13862
2026-01-08 08:20:38.78	95.92	7.46	-30.5	-42.3	3.8	1.49e+00	0	41	104	0	22	13899
2026-01-08 08:20:39.78	95.82	7.52	-30.5	-42.3	3.8	1.49e+00	0	41	104	0	22	13988
2026-01-08 08:20:40.79	95.72	7.59	-30.6	-42.4	3.8	1.49e+00	0	41	104	0	22	14017
2026-01-08 08:20:41.81	95.62	7.65	-30.6	-42.4	3.8	1.49e+00	0	41	104	0	22	13990
2026-01-08 08:20:42.81	95.52	7.71	-30.6	-42.5	3.8	1.49e+00	0	41	104	0	22	14082
2026-01-08 08:20:43.83	95.41	7.78	-30.7	-42.5	3.8	1.49e+00	0	41	104	0	22	14108
2026-01-08 08:20:44.84	95.31	7.84	-30.7	-42.6	3.8	1.49e+00	0	41	104	0	22	14171
2026-01-08 08:20:45.85	95.20	7.91	-30.8	-42.8	3.8	1.49e+00	0	41	104	0	22	14308
2026-01-08 08:20:46.85	95.10	7.97	-30.8	-42.8	3.8	1.49e+00	0	41	104	0	22	14346
2026-01-08 08:20:47.86	95.00	8.03	-30.8	-42.9	3.8	1.49e+00	0	41	104	0	22	14390
2026-01-08 08:20:48.87	94.89	8.10	-30.8	-42.9	3.8	1.49e+00	0	41	104	0	22	14397
2026-01-08 08:20:49.88	94.78	8.16	-30.9	-43.0	3.8	1.49e+00	0	41	104	0	22	14475
2026-01-08 08:20:50.88	94.68	8.22	-30.9	-43.0	3.8	1.49e+00	0	41	104	0	22	14479
2026-01-08 08:20:51.89	94.57	8.29	-30.9	-43.0	3.8	1.49e+00	0	41	104	0	22	14511
2026-01-08 08:20:52.90	94.47	8.35	-31.0	-43.2	3.8	1.49e+00	0	41	104	0	22	14619
2026-01-08 08:20:53.91	94.36	8.42	-31.0	-43.2	3.8	1.49e+00	0	41	104	0	22	14677
2026-01-08 08:20:54.91	94.25	8.48	-31.1	-43.2	3.8	1.49e+00	0	41	104	0	22	14490
2026-01-08 08:20:55.92	94.14	8.54	-31.1	-43.0	3.8	1.49e+00	0	41	104	0	22	14177
2026-01-08 08:20:56.93	94.03	8.61	-31.2	-42.9	3.8	1.49e+00	0	41	104	0	22	13950
2026-01-08 08:20:57.93	93.92	8.67	-31.2	-43.1	3.8	1.49e+00	0	41	104	0	22	14091
2026-01-08 08:20:58.94	93.81	8.74	-31.3	-43.1	3.8	1.49e+00	0	41	104	0	22	14108
2026-01-08 08:20:59.95	93.70	8.80	-31.3	-43.2	3.8	1.49e+00	0	41	104	0	22	14079
2026-01-08 08:21:00.96	93.59	8.87	-31.4	-43.0	3.8	1.49e+00	0	41	104	0	22	13747
2026-01-08 08:21:01.96	93.48	8.93	-31.3	-42.1	3.8	1.49e+00	0	41	104	0	22	12393
2026-01-08 08:21:02.97	93.37	9.00	-31.3	-40.7	4.1	1.48e+00	0	41	104	0	22	10630
2026-01-08 08:21:03.98	93.26	9.06	-31.3	-40.2	4.0	1.37e+00	0	41	104	0	22	10031
2026-01-08 08:21:04.99	93.14	9.13	-31.4	-40.5	4.3	1.34e+00	0	41	104	0	22	10214
2026-01-08 08:21:05.99	93.03	9.19	-31.6	-39.9	4.0	1.44e+00	0	41	104	0	23	9424
2026-01-08 08:21:07.00	92.92	9.26	-31.5	-37.7	5.7	1.14e+00	0	41	104	0	23	7395
2026-01-08 08:21:08.00	92.80	9.32	-31.3	-36.0	7.1	1.90e-01	0	42	0	1048576	23	6215
2026-01-08 08:21:09.00	92.69	9.39	-31.6	-37.1	6.5	1.57e-01	0	42	0	3145728	23	6835
2026-01-08 08:21:10.01	92.57	9.45	-31.9	-38.7	5.6	2.88e-01	0	41	0	4194304	23	7919
2026-01-08 08:21:11.02	92.46	9.52	-31.8	-37.9	6.2	3.39e-01	0	41	0	6291456	23	7249
2026-01-08 08:21:12.02	92.34	9.58	-31.7	-37.3	6.7	2.22e-01	0	42	0	8388608	23	6867
2026-01-08 08:21:13.02	92.23	9.65	-31.7	-37.0	6.9	1.85e-01	0	42	0	10485760	23	6653
2026-01-08 08:21:14.02	92.11	9.71	-31.6	-36.5	7.3	1.48e-01	0	42	0	12582912	23	6318
2026-01-08 08:21:15.03	91.99	9.78	-31.5	-36.1	7.7	9.26e-02	0	42	0	13631488	23	6071
2026-01-08 08:21:16.04	91.87	9.84	-31.5	-35.7	8.1	7.75e-02	0	42	0	15728640	23	5884
2026-01-08 08:21:17.04	91.75	9.91	-31.5	-35.9	8.0	5.88e-02	0	42	0	17825792	23	5952
2026-01-08 08:21:18.04	91.63	9.97	-31.4	-35.4	8.4	4.71e-02	0	42	0	19922944	23	5707
2026-01-08 08:21:19.05	91.51	10.04	-31.7	-36.6	7.5	7.55e-02	0	42	0	22020096	23	6309
2026-01-08 08:21:20.05	91.39	10.10	-31.5	-35.9	8.1	8.27e-02	0	42	0	23068672	23	5931
2026-01-08 08:21:21.05	91.27	10.17	-31.3	-34.6	9.1	2.98e-02	0	42	0	25165824	23	5307
2026-01-08 08:21:22.06	91.15	10.23	-31.1	-33.9	9.7	1.47e-02	0	42	0	27262976	23	4984
2026-01-08 08:21:23.06	91.03	10.30	-30.9	-33.3	10.2	8.21e-03	0	42	0	29360128	23	4723
2026-01-08 08:21:24.07	90.91	10.37	-30.6	-32.6	11.1	3.40e-03	0	42	0	31457280	22	4553
2026-01-08 08:21:25.07	90.78	10.43	-30.5	-32.3	11.3	9.32e-04	0	42	0	32505856	22	4442
2026-01-08 08:21:26.08	90.66	10.50	-30.4	-31.9	11.6	6.42e-04	0	42	0	34603008	22	4297
2026-01-08 08:21:27.09	90.53	10.56	-30.3	-31.8	11.7	6.14e-04	0	42	0	36700160	22	4278
2026-01-08 08:21:28.10	90.41	10.63	-30.5	-32.4	11.4	1.26e-03	0	42	0	38797312	22	4453
2026-01-08 08:21:29.10	90.28	10.70	-30.5	-32.4	11.3	1.11e-03	0	42	0	40894464	22	4480
2026-01-08 08:21:30.10	90.16	10.76	-30.6	-32.5	11.3	1.24e-03	0	42	0	41943040	22	4495
2026-01-08 08:21:31.11	90.03	10.83	-30.7	-32.8	11.1	1.64e-03	0	42	0	44040192	22	4608
2026-01-08 08:21:32.12	89.90	10.89	-30.6	-32.7	11.2	1.52e-03	0	42	0	46137344	22	4555
2026-01-08 08:21:33.12	89.77	10.96	-30.6	-32.7	11.1	1.43e-03	0	42	0	48234496	22	4579
2026-01-08 08:21:34.13	89.65	11.03	-30.5	-32.4	11.4	1.11e-03	0	42	0	50331648	22	4452
2026-01-08 08:21:35.14	89.52	11.09	-30.6	-32.6	11.3	1.20e-03	0	42	0	51380224	22	4510
2026-01-08 08:21:36.14	89.39	11.16	-30.6	-32.4	11.4	1.17e-03	0	42	0	53477376	22	4475
2026-01-08 08:21:37.15	89.26	11.22	-30.6	-32.5	11.3	9.71e-04	0	42	0	55574528	22	4505
2026-01-08 08:21:38.15	89.12	11.29	-30.8	-33.1	10.8	2.09e-03	0	42	0	57671680	22	4716
2026-01-08 08:21:39.15	88.99	11.36	-30.8	-33.2	10.9	2.37e-03	0	42	0	59768832	22	4734
2026-01-08 08:21:40.16	88.86	11.42	-30.9	-33.5	10.6	2.77e-03	0	42	0	60817408	22	4850
2026-01-08 08:21:41.17	88.73	11.49	-30.9	-33.6	10.5	4.17e-03	0	42	0	62914560	22	4901
2026-01-08 08:21:42.18	88.59	11.56	-31.0	-33.8	10.4	3.84e-03	0	42	0	65011712	22	4974
2026-01-08 08:21:43.18	88.46	11.62	-30.9	-33.5	10.6	3.56e-03	0	42	0	67108864	22	4875
2026-01-08 08:21:44.19	88.33	11.69	-30.8	-33.1	10.9	3.31e-03	0	42	0	68157440	22	4716
2026-01-08 08:21:45.20	88.19	11.76	-30.8	-33.0	11.0	1.91e-03	0	42	0	70254592	22	4683
2026-01-08 08:21:46.20	88.05	11.82	-30.7	-32.7	11.3	1.56e-03	0	42	0	72351744	22	4541
2026-01-08 08:21:47.21	87.92	11.89	-30.7	-32.7	11.3	1.09e-03	0	42	0	74448896	22	4539
2026-01-08 08:21:48.21	87.78	11.96	-30.6	-32.4	11.5	9.60e-04	0	42	0	76546048	22	4422
2026-01-08 08:21:49.22	87.64	12.02	-30.6	-32.4	11.5	9.89e-04	0	42	0	78643200	22	4438
2026-01-08 08:21:50.22	87.50	12.09	-30.7	-32.8	11.3	9.59e-04	0	42	0	79691776	22	4575
2026-01-08 08:21:51.22	87.37	12.16	-30.6	-32.6	11.3	9.54e-04	0	42	0	81788928	22	4522
2026-01-08 08:21:52.22	87.23	12.22	-30.6	-32.4	11.6	9.54e-04	0	42	0	83886080	22	4428
2026-01-08 08:21:53.23	87.09	12.29	-30.6	-32.5	11.5	7.93e-04	0	42	0	85983232	22	4488
2026-01-08 08:21:54.24	86.94	12.36	-30.5	-32.5	11.5	8.51e-04	0	42	0	88080384	22	4525
2026-01-08 08:21:55.24	86.80	12.42	-30.6	-32.8	11.1	9.55e-04	0	42	0	89128960	22	4629
2026-01-08 08:21:56.24	86.66	12.49	-30.7	-32.9	11.1	1.79e-03	0	42	0	91226112	22	4658
2026-01-08 08:21:57.25	86.52	12.56	-30.4	-32.1	11.7	1.03e-03	0	42	0	93323264	22	4368
2026-01-08 08:21:58.25	86.38	12.62	-30.5	-32.3	11.5	7.71e-04	0	42	0	95420416	22	4437
2026-01-08 08:21:59.26	86.23	12.69	-30.6	-32.6	11.3	1.04e-03	0	42	0	96468992	22	4545
2026-01-08 08:22:00.26	86.09	12.76	-30.6	-32.6	11.4	1.33e-03	0	42	0	98566144	22	4530
2026-01-08 08:22:01.27	85.94	12.82	-30.6	-32.6	11.4	1.03e-03	0	42	0	100663296	22	4525
2026-01-08 08:22:02.28	85.79	12.89	-30.7	-32.9	11.2	1.06e-03	0	42	0	102760448	22	4656
2026-01-08 08:22:03.28	85.65	12.96	-30.6	-32.5	11.4	9.53e-04	0	42	0	104857600	22	4524
2026-01-08 08:22:04.29	85.50	13.02	-30.4	-32.1	11.7	6.86e-04	0	42	0	106954752	22	4387
2026-01-08 08:22:05.30	85.35	13.09	-30.4	-32.0	11.8	6.90e-04	0	42	0	108003328	22	4333
2026-01-08 08:22:06.30	85.20	13.16	-30.5	-32.3	11.5	7.77e-04	0	42	0	110100480	22	4458
2026-01-08 08:22:07.30	85.05	13.22	-30.6	-32.7	11.3	8.54e-04	0	42	0	112197632	22	4599
2026-01-08 08:22:08.31	84.90	13.29	-30.6	-32.9	11.2	1.39e-03	0	42	0	114294784	22	4649
2026-01-08 08:22:09.31	84.75	13.36	-30.5	-32.6	11.4	1.19e-03	0	42	0	115343360	22	4542
2026-01-08 08:22:10.31	84.60	13.42	-30.6	-32.8	11.2	1.03e-03	0	42	0	117440512	22	4622
2026-01-08 08:22:11.32	84.45	13.49	-30.6	-32.6	11.4	1.15e-03	0	43	0	119537664	22	4550
2026-01-08 08:22:12.33	84.29	13.56	-30.4	-32.0	11.8	5.77e-04	0	42	0	121634816	22	4346
2026-01-08 08:22:13.34	84.14	13.62	-30.4	-32.0	11.8	4.77e-04	0	42	0	123731968	22	4331
2026-01-08 08:22:14.34	83.98	13.69	-30.6	-32.6	11.4	8.27e-04	0	42	0	124780544	22	4541
2026-01-08 08:22:15.34	83.83	13.76	-30.6	-32.8	11.2	1.19e-03	0	42	0	126877696	22	4607
2026-01-08 08:22:16.34	83.68	13.82	-30.7	-33.2	11.0	1.58e-03	0	42	0	128974848	22	4757
2026-01-08 08:22:17.35	83.52	13.89	-30.8	-33.3	11.0	1.93e-03	0	42	0	131072000	22	4794
2026-01-08 08:22:18.36	83.36	13.96	-30.8	-33.3	10.9	2.27e-03	0	42	0	133169152	22	4796
2026-01-08 08:22:19.37	83.20	14.02	-30.7	-33.0	11.1	1.53e-03	0	42	0	134217728	22	4706
2026-01-08 08:22:20.37	83.04	14.09	-30.8	-33.4	10.9	1.83e-03	0	42	0	136314880	22	4824
2026-01-08 08:22:21.38	82.88	14.15	-30.7	-33.1	11.1	1.86e-03	0	42	0	138412032	22	4734
2026-01-08 08:22:22.39	82.72	14.22	-30.8	-33.4	10.8	2.08e-03	0	42	0	140509184	22	4854
2026-01-08 08:22:23.39	82.56	14.29	-30.9	-33.5	10.7	3.09e-03	0	42	0	142606336	22	4887
2026-01-08 08:22:24.39	82.40	14.35	-30.7	-32.9	11.2	1.33e-03	0	43	0	143654912	22	4657
2026-01-08 08:22:25.39	82.24	14.42	-30.7	-33.0	11.2	1.59e-03	0	42	0	145752064	22	4681
2026-01-08 08:22:26.40	82.08	14.48	-30.6	-32.8	11.3	1.21e-03	0	43	0	147849216	22	4601
2026-01-08 08:22:27.40	81.91	14.55	-30.6	-32.5	11.5	9.12e-04	0	42	0	149946368	22	4499
2026-01-08 08:22:28.40	81.75	14.62	-30.5	-32.4	11.6	8.94e-04	0	42	0	152043520	22	4483
2026-01-08 08:22:29.41	81.58	14.68	-30.6	-32.5	11.6	7.19e-04	0	42	0	153092096	22	4486
2026-01-08 08:22:30.41	81.42	14.75	-30.6	-32.6	11.5	7.08e-04	0	42	0	155189248	22	4547
2026-01-08 08:22:31.41	81.25	14.81	-30.6	-32.7	11.4	9.50e-04	0	42	0	157286400	22	4578
2026-01-08 08:22:32.42	81.08	14.88	-30.7	-32.9	11.3	9.72e-04	0	42	0	159383552	22	4649
2026-01-08 08:22:33.43	80.91	14.95	-30.7	-33.1	11.2	1.67e-03	0	42	0	161480704	22	4712
2026-01-08 08:22:34.44	80.74	15.01	-30.7	-33.0	11.2	1.61e-03	0	42	0	162529280	22	4676
2026-01-08 08:22:35.44	80.57	15.08	-30.7	-33.0	11.2	1.17e-03	0	42	0	164626432	22	4690
2026-01-08 08:22:36.45	80.40	15.14	-30.7	-32.9	11.3	1.44e-03	0	42	0	166723584	22	4643
2026-01-08 08:22:37.45	80.23	15.21	-30.7	-33.0	11.3	1.11e-03	0	42	0	168820736	22	4681
2026-01-08 08:22:38.45	80.06	15.27	-30.9	-33.6	10.8	1.94e-03	0	43	0	170917888	22	4910
2026-01-08 08:22:39.46	79.89	15.34	-31.1	-34.3	10.2	3.98e-03	0	42	0	171966464	22	5191
2026-01-08 08:22:40.47	79.71	15.40	-31.2	-34.6	10.1	7.05e-03	0	43	0	174063616	22	5320
2026-01-08 08:22:41.48	79.54	15.47	-31.2	-34.7	10.0	5.98e-03	0	43	0	176160768	22	5343
2026-01-08 08:22:42.48	79.36	15.53	-31.2	-34.7	10.0	6.82e-03	0	43	0	178257920	22	5372
2026-01-08 08:22:43.49	79.19	15.60	-31.0	-34.0	10.5	6.83e-03	0	42	0	180355072	22	5039
2026-01-08 08:22:44.49	79.01	15.66	-30.9	-33.4	10.9	2.21e-03	0	43	0	181403648	22	4831
2026-01-08 08:22:45.50	78.83	15.73	-30.7	-33.0	11.3	1.48e-03	0	43	0	183500800	22	4665
2026-01-08 08:22:46.51	78.65	15.79	-30.7	-32.8	11.4	9.31e-04	0	43	0	185597952	22	4588
2026-01-08 08:22:47.51	78.48	15.86	-30.7	-32.8	11.6	8.02e-04	0	42	0	187695104	22	4594
2026-01-08 08:22:48.51	78.30	15.92	-30.6	-32.7	11.5	7.53e-04	0	42	0	189792256	22	4554
2026-01-08 08:22:49.52	78.12	15.98	-30.7	-32.9	11.4	9.93e-04	0	42	0	190840832	22	4631
2026-01-08 08:22:50.52	77.93	16.05	-30.8	-33.3	11.1	1.84e-03	0	43	0	192937984	22	4774
2026-01-08 08:22:51.53	77.75	16.11	-30.5	-32.3	11.7	6.27e-04	0	42	0	195035136	22	4436
2026-01-08 08:22:52.54	77.57	16.18	-30.2	-32.0	12.3	2.37e-04	0	42	0	197132288	21	4407
2026-01-08 08:22:53.54	77.39	16.24	-30.1	-31.6	12.6	1.69e-04	0	43	0	199229440	21	4290
2026-01-08 08:22:54.55	77.20	16.30	-30.0	-31.4	12.6	9.61e-05	0	42	0	200278016	21	4246
2026-01-08 08:22:55.56	77.01	16.37	-30.0	-31.3	12.8	9.30e-05	0	42	0	202375168	21	4190
2026-01-08 08:22:56.56	76.83	16.43	-30.1	-31.7	12.5	9.46e-05	0	43	0	204472320	21	4319
2026-01-08 08:22:57.57	76.64	16.49	-30.0	-31.3	12.7	7.17e-05	0	43	0	206569472	21	4211
2026-01-08 08:22:58.58	76.45	16.56	-30.1	-31.5	12.7	8.77e-05	0	42	0	208666624	21	4259
2026-01-08 08:22:59.59	76.26	16.62	-30.0	-31.2	12.8	1.05e-04	0	43	0	209715200	21	4167
2026-01-08 08:23:00.59	76.07	16.68	-29.9	-31.0	12.9	4.65e-05	0	43	0	211812352	21	4113
2026-01-08 08:23:01.59	75.89	16.74	-29.8	-31.2	13.2	2.59e-05	0	42	0	213909504	20	4247
2026-01-08 08:23:02.59	75.70	16.81	-29.9	-31.5	12.9	3.58e-05	0	43	0	216006656	20	4354
2026-01-08 08:23:03.60	75.50	16.87	-29.9	-31.5	13.0	4.57e-05	0	42	0	218103808	20	4327
2026-01-08 08:23:04.61	75.31	16.93	-29.7	-31.1	13.3	2.13e-05	0	43	0	219152384	20	4201
2026-01-08 08:23:05.62	75.11	16.99	-29.7	-31.0	13.4	7.60e-06	0	42	0	221249536	20	4167
2026-01-08 08:23:06.62	74.92	17.05	-29.6	-30.7	13.6	1.60e-05	0	42	0	223346688	20	4093
2026-01-08 08:23:07.62	74.73	17.11	-29.5	-30.4	13.7	7.60e-06	0	43	0	225443840	20	4001
2026-01-08 08:23:08.62	74.53	17.18	-29.6	-30.6	13.6	2.20e-06	0	42	0	226492416	20	4045
2026-01-08 08:23:09.63	74.34	17.24	-29.7	-30.8	13.5	4.50e-06	0	43	0	228589568	20	4122
2026-01-08 08:23:10.64	74.14	17.30	-29.6	-30.7	13.6	1.29e-05	0	43	0	230686720	20	4071
2026-01-08 08:23:11.64	73.94	17.36	-29.5	-30.5	13.7	3.80e-06	0	43	0	232783872	20	4011
2026-01-08 08:23:12.65	73.74	17.42	-29.5	-30.5	13.7	9.10e-06	0	43	0	234881024	20	4015
2026-01-08 08:23:13.65	73.54	17.48	-29.5	-30.4	13.8	7.60e-06	0	43	0	236978176	20	3985
2026-01-08 08:23:14.65	73.34	17.54	-29.4	-30.3	13.8	5.30e-06	0	43	0	238026752	20	3969
2026-01-08 08:23:15.66	73.14	17.60	-29.5	-30.4	13.8	5.30e-06	0	43	0	240123904	20	3989
2026-01-08 08:23:16.66	72.94	17.66	-29.6	-30.7	13.6	1.37e-05	0	43	0	242221056	20	4075
2026-01-08 08:23:17.67	72.74	17.72	-29.6	-30.6	13.6	6.80e-06	0	43	0	244318208	20	4063
2026-01-08 08:23:18.68	72.53	17.78	-29.5	-30.4	13.8	4.50e-06	0	43	0	245366784	20	4005
2026-01-08 08:23:19.68	72.33	17.84	-29.4	-30.3	13.9	4.50e-06	0	43	0	247463936	20	3949
2026-01-08 08:23:20.69	72.12	17.89	-29.5	-30.5	13.7	5.30e-06	0	43	0	249561088	20	4019
2026-01-08 08:23:21.70	71.91	17.95	-29.5	-30.5	13.7	5.30e-06	0	43	0	251658240	20	4013
2026-01-08 08:23:22.70	71.71	18.01	-29.5	-30.4	13.8	4.50e-06	0	43	0	253755392	20	3996
2026-01-08 08:23:23.71	71.50	18.07	-29.6	-30.8	13.5	6.10e-06	0	43	0	254803968	20	4097
2026-01-08 08:23:24.72	71.29	18.13	-29.6	-30.7	13.6	9.10e-06	0	43	0	256901120	20	4090
2026-01-08 08:23:25.71	71.08	18.18	-29.6	-30.6	13.7	8.30e-06	0	43	0	258998272	20	4061
2026-01-08 08:23:26.71	70.88	18.24	-29.6	-30.7	13.6	5.30e-06	0	43	0	261095424	20	4099
2026-01-08 08:23:27.71	70.67	18.30	-29.6	-30.7	13.5	3.80e-06	0	43	0	263192576	20	4098
2026-01-08 08:23:28.72	70.45	18.35	-29.6	-30.7	13.6	8.30e-06	0	43	0	264241152	20	4072
2026-01-08 08:23:29.73	70.24	18.41	-29.5	-30.5	13.7	9.10e-06	0	43	0	266338304	20	4021
2026-01-08 08:23:30.73	70.03	18.47	-29.8	-31.2	13.2	9.10e-06	0	43	0	268435456	20	4218
2026-01-08 08:23:31.73	69.81	18.52	-29.6	-30.7	13.6	9.90e-06	0	43	0	270532608	20	4074
2026-01-08 08:23:32.74	69.60	18.58	-29.6	-30.6	13.7	8.30e-06	0	43	0	272629760	20	4050
2026-01-08 08:23:33.75	69.38	18.63	-29.6	-30.6	13.7	7.60e-06	0	43	0	273678336	20	4062
2026-01-08 08:23:34.75	69.17	18.69	-29.6	-30.7	13.6	9.10e-06	0	43	0	275775488	20	4080
2026-01-08 08:23:35.76	68.95	18.74	-29.7	-30.9	13.5	1.06e-05	0	43	0	277872640	20	4128
2026-01-08 08:23:36.77	68.73	18.80	-29.7	-30.9	13.5	2.21e-05	0	43	0	279969792	20	4127
2026-01-08 08:23:37.77	68.51	18.85	-29.8	-31.0	13.4	8.30e-06	0	43	0	282066944	20	4170
2026-01-08 08:23:38.78	68.29	18.90	-29.6	-30.5	13.8	1.06e-05	0	43	0	283115520	20	4009
2026-01-08 08:23:39.79	68.07	18.96	-29.5	-30.2	13.9	3.00e-06	0	43	0	285212672	20	3928
2026-01-08 08:23:40.79	67.85	19.01	-29.4	-30.1	14.1	3.80e-06	0	43	0	287309824	20	3891
2026-01-08 08:23:41.80	67.63	19.06	-29.2	-30.0	14.5	7.00e-07	0	43	0	289406976	19	3944
2026-01-08 08:23:42.81	67.40	19.12	-29.4	-30.4	14.2	0.00e+00	0	43	0	291504128	19	4064
2026-01-08 08:23:43.82	67.18	19.17	-29.2	-30.0	14.5	0.00e+00	0	43	0	292552704	19	3945
2026-01-08 08:23:44.82	66.96	19.22	-28.9	-29.3	14.9	0.00e+00	0	43	0	294649856	19	3761
2026-01-08 08:23:45.82	66.73	19.27	-28.8	-29.1	15.0	0.00e+00	0	43	0	296747008	19	3692
2026-01-08 08:23:46.83	66.51	19.32	-28.7	-29.3	15.2	0.00e+00	0	43	0	298844160	18	3852
2026-01-08 08:23:47.83	66.28	19.37	-28.8	-29.5	15.1	0.00e+00	0	43	0	300941312	18	3894
2026-01-08 08:23:48.83	66.05	19.42	-29.0	-29.8	14.9	0.00e+00	0	43	0	301989888	18	3988
2026-01-08 08:23:49.84	65.82	19.47	-29.0	-30.1	14.8	7.00e-07	0	43	0	304087040	18	4049
2026-01-08 08:23:50.85	65.60	19.52	-29.2	-30.3	14.7	7.00e-07	0	43	0	306184192	18	4122
2026-01-08 08:23:51.86	65.36	19.57	-29.0	-30.0	14.8	7.00e-07	0	43	0	308281344	18	4023
2026-01-08 08:23:52.86	65.14	19.62	-29.1	-30.1	14.7	0.00e+00	0	43	0	310378496	18	4063
2026-01-08 08:23:53.87	64.90	19.67	-29.2	-30.4	14.6	0.00e+00	0	43	0	311427072	18	4129
2026-01-08 08:23:54.88	64.67	19.71	-29.3	-30.8	14.4	0.00e+00	0	43	0	313524224	18	4252
2026-01-08 08:23:55.89	64.44	19.76	-29.4	-30.9	14.3	7.00e-07	0	43	0	315621376	18	4293
2026-01-08 08:23:56.90	64.20	19.81	-29.5	-30.7	14.1	2.20e-06	0	43	0	317718528	19	4140
2026-01-08 08:23:57.90	63.97	19.86	-29.7	-31.1	13.8	1.50e-06	0	43	0	319815680	19	4269
2026-01-08 08:23:58.91	63.74	19.90	-29.4	-30.6	14.2	3.00e-06	0	43	0	320864256	19	4099
2026-01-08 08:23:59.92	63.50	19.95	-29.4	-30.4	14.3	2.20e-06	0	43	0	322961408	19	4041
2026-01-08 08:24:00.92	63.26	19.99	-29.3	-30.1	14.5	0.00e+00	0	43	0	325058560	19	3957
2026-01-08 08:24:01.93	63.03	20.04	-29.1	-29.8	14.7	7.00e-07	0	43	0	327155712	19	3868
2026-01-08 08:24:02.94	62.79	20.08	-29.0	-29.5	14.8	7.00e-07	0	43	0	329252864	19	3813
2026-01-08 08:24:03.95	62.55	20.13	-28.9	-29.3	15.0	0.00e+00	0	43	0	330301440	19	3748
2026-01-08 08:24:04.96	62.31	20.17	-29.0	-29.5	14.9	0.00e+00	0	43	0	332398592	19	3795
2026-01-08 08:24:05.96	62.07	20.21	-28.8	-28.9	15.2	0.00e+00	0	43	0	334495744	19	3652
2026-01-08 08:24:06.97	61.83	20.26	-28.8	-29.4	15.2	0.00e+00	0	43	0	336592896	18	3858
2026-01-08 08:24:07.97	61.59	20.30	-28.7	-29.1	15.4	0.00e+00	0	43	0	338690048	18	3774
2026-01-08 08:24:08.98	61.35	20.34	-28.8	-29.4	15.3	0.00e+00	0	43	0	339738624	18	3842
2026-01-08 08:24:09.98	61.11	20.38	-28.8	-29.5	15.2	0.00e+00	0	43	0	341835776	18	3887
2026-01-08 08:24:10.99	60.86	20.42	-28.9	-29.5	15.2	0.00e+00	0	43	0	343932928	18	3888
2026-01-08 08:24:12.00	60.62	20.46	-28.7	-29.1	15.5	0.00e+00	0	43	0	346030080	18	3764
2026-01-08 08:24:13.00	60.38	20.50	-28.5	-28.5	15.8	0.00e+00	0	43	0	348127232	18	3627
2026-01-08 08:24:14.00	60.13	20.54	-28.7	-29.1	15.5	0.00e+00	0	43	0	349175808	18	3773
2026-01-08 08:24:15.00	59.89	20.58	-28.7	-29.1	15.4	0.00e+00	0	43	0	351272960	18	3779
2026-01-08 08:24:16.01	59.64	20.62	-28.9	-29.5	15.2	0.00e+00	0	43	0	353370112	18	3882
2026-01-08 08:24:17.01	59.40	20.66	-29.0	-29.9	15.0	0.00e+00	0	43	0	355467264	18	3978
2026-01-08 08:24:18.01	59.15	20.69	-29.1	-30.1	14.9	0.00e+00	0	43	0	357564416	18	4038
2026-01-08 08:24:19.02	58.90	20.73	-29.2	-30.3	14.7	7.00e-07	0	43	0	358612992	18	4111
2026-01-08 08:24:20.03	58.65	20.77	-29.4	-31.0	14.3	7.00e-07	0	43	0	360710144	18	4314
2026-01-08 08:24:21.02	58.41	20.80	-29.7	-31.1	14.0	3.80e-06	0	43	0	362807296	19	4252
2026-01-08 08:24:22.03	58.16	20.84	-29.6	-30.9	14.1	1.50e-06	0	43	0	364904448	19	4188
2026-01-08 08:24:23.03	57.91	20.87	-29.7	-31.1	13.9	6.10e-06	0	43	0	367001600	19	4260
2026-01-08 08:24:24.03	57.66	20.91	-29.8	-31.5	13.7	3.00e-06	0	43	0	368050176	19	4366
2026-01-08 08:24:25.03	57.41	20.94	-29.8	-31.5	13.7	1.14e-05	0	43	0	370147328	19	4377
2026-01-08 08:24:26.04	57.16	20.97	-30.0	-31.5	13.3	1.90e-05	0	43	0	372244480	20	4274
2026-01-08 08:24:27.04	56.91	21.01	-30.0	-31.6	13.2	2.13e-05	0	43	0	374341632	20	4319
2026-01-08 08:24:28.05	56.65	21.04	-30.1	-31.8	13.0	3.81e-05	0	43	0	376438784	20	4393
2026-01-08 08:24:29.06	56.40	21.07	-30.0	-31.8	13.1	3.81e-05	0	43	0	377487360	20	4384
2026-01-08 08:24:30.07	56.14	21.10	-30.0	-31.6	13.2	3.20e-05	0	43	0	379584512	20	4349
2026-01-08 08:24:31.07	55.89	21.13	-30.0	-31.6	13.2	1.83e-05	0	43	0	381681664	20	4321
2026-01-08 08:24:32.07	55.64	21.16	-30.0	-31.6	13.2	1.75e-05	0	43	0	383778816	20	4325
2026-01-08 08:24:33.08	55.38	21.19	-29.7	-30.8	13.7	1.83e-05	0	43	0	385875968	20	4069
2026-01-08 08:24:34.09	55.12	21.22	-29.7	-30.7	13.8	7.60e-06	0	43	0	386924544	20	4043
2026-01-08 08:24:35.10	54.87	21.25	-29.5	-30.4	14.0	7.00e-07	0	43	0	389021696	20	3964
2026-01-08 08:24:36.10	54.61	21.28	-29.6	-30.5	13.8	3.80e-06	0	43	0	391118848	20	4011
2026-01-08 08:24:37.11	54.35	21.30	-29.7	-30.7	13.8	6.80e-06	0	43	0	393216000	20	4059
2026-01-08 08:24:38.11	54.10	21.33	-29.9	-31.4	13.3	1.14e-05	0	43	0	395313152	20	4269
2026-01-08 08:24:39.12	53.84	21.36	-30.0	-31.6	13.2	2.13e-05	0	43	0	396361728	20	4343
2026-01-08 08:24:40.12	53.58	21.38	-30.1	-31.9	12.9	4.27e-05	0	43	0	398458880	20	4443
2026-01-08 08:24:41.13	53.32	21.41	-30.2	-32.1	12.9	4.04e-05	0	43	0	400556032	20	4511
2026-01-08 08:24:42.14	53.06	21.43	-30.1	-31.9	13.0	3.66e-05	0	43	0	402653184	20	4438
2026-01-08 08:24:43.14	52.80	21.45	-30.1	-31.8	13.0	4.80e-05	0	43	0	404750336	20	4403
2026-01-08 08:24:44.14	52.54	21.48	-30.0	-31.6	13.2	2.13e-05	0	43	0	405798912	20	4313
2026-01-08 08:24:45.14	52.28	21.50	-30.1	-31.8	13.1	2.67e-05	0	43	0	407896064	20	4385
2026-01-08 08:24:46.15	52.02	21.52	-30.2	-32.2	12.8	6.56e-05	0	43	0	409993216	20	4504
2026-01-08 08:24:47.15	51.76	21.54	-30.4	-32.6	12.5	7.40e-05	0	43	0	412090368	20	4669
2026-01-08 08:24:48.15	51.50	21.56	-30.6	-32.9	12.0	2.16e-04	0	43	0	414187520	21	4668
2026-01-08 08:24:49.16	51.24	21.58	-30.7	-33.1	11.9	5.09e-04	0	43	0	415236096	21	4741
2026-01-08 08:24:50.16	50.98	21.60	-30.5	-32.4	12.3	2.46e-04	0	43	0	417333248	21	4519
2026-01-08 08:24:51.17	50.72	21.62	-30.6	-32.8	12.0	1.82e-04	0	43	0	419430400	21	4651
2026-01-08 08:24:52.17	50.45	21.64	-30.7	-33.2	11.8	4.61e-04	0	43	0	421527552	21	4777
2026-01-08 08:24:53.18	50.19	21.65	-30.5	-32.5	12.2	2.66e-04	0	43	0	422576128	21	4513
2026-01-08 08:24:54.19	49.93	21.67	-30.3	-32.1	12.6	1.06e-04	0	43	0	424673280	21	4387
2026-01-08 08:24:55.19	49.66	21.69	-30.2	-31.8	12.8	4.27e-05	0	43	0	426770432	21	4285
2026-01-08 08:24:56.19	49.40	21.70	-30.4	-32.3	12.4	1.30e-04	0	43	0	428867584	21	4485
2026-01-08 08:24:57.20	49.14	21.72	-30.6	-32.8	12.1	1.74e-04	0	43	0	430964736	21	4636
2026-01-08 08:24:58.20	48.87	21.73	-30.9	-33.8	11.3	8.09e-04	0	43	0	432013312	21	5005
2026-01-08 08:24:59.20	48.61	21.74	-30.9	-33.7	11.4	7.13e-04	0	43	0	434110464	21	4986
2026-01-08 08:25:00.21	48.34	21.76	-31.1	-33.9	11.0	1.25e-03	0	43	0	436207616	22	4956
2026-01-08 08:25:01.22	48.08	21.77	-30.9	-33.3	11.4	1.44e-03	0	43	0	438304768	22	4734
2026-01-08 08:25:02.22	47.81	21.78	-30.8	-33.0	11.5	1.03e-03	0	43	0	440401920	22	4645
2026-01-08 08:25:03.23	47.55	21.79	-30.7	-32.9	11.6	7.64e-04	0	43	0	441450496	22	4608
2026-01-08 08:25:04.24	47.28	21.80	-30.7	-32.6	11.8	3.74e-04	0	43	0	443547648	22	4494
2026-01-08 08:25:05.25	47.01	21.81	-30.6	-32.4	12.0	3.82e-04	0	43	0	445644800	22	4418
2026-01-08 08:25:06.25	46.75	21.82	-30.5	-32.0	12.3	2.67e-04	0	43	0	447741952	22	4299
2026-01-08 08:25:07.26	46.48	21.83	-30.5	-31.9	12.2	1.81e-04	0	43	0	449839104	22	4276
2026-01-08 08:25:08.26	46.22	21.84	-30.5	-32.2	12.2	2.04e-04	0	43	0	450887680	22	4343
2026-01-08 08:25:09.27	45.95	21.84	-30.6	-32.2	12.1	3.67e-04	0	43	0	452984832	22	4341
2026-01-08 08:25:10.28	45.68	21.85	-30.2	-31.7	12.8	9.84e-05	0	43	0	455081984	21	4262
2026-01-08 08:25:11.28	45.42	21.85	-29.9	-30.9	13.3	3.96e-05	0	43	0	457179136	21	4036
2026-01-08 08:25:12.28	45.15	21.86	-29.8	-31.1	13.5	4.50e-06	0	43	0	459276288	20	4172
2026-01-08 08:25:13.28	44.89	21.86	-29.8	-31.0	13.5	2.20e-06	0	43	0	460324864	20	4173
2026-01-08 08:25:14.29	44.62	21.87	-29.7	-30.7	13.7	1.14e-05	0	43	0	462422016	20	4079
2026-01-08 08:25:15.29	44.35	21.87	-29.7	-30.7	13.7	6.80e-06	0	43	0	464519168	20	4076
2026-01-08 08:25:16.30	44.08	21.87	-29.5	-30.4	13.9	3.00e-06	0	43	0	466616320	20	3983
2026-01-08 08:25:17.30	43.82	21.87	-29.6	-30.5	13.9	7.00e-07	0	43	0	468713472	20	4003
2026-01-08 08:25:18.31	43.55	21.88	-29.6	-30.7	13.8	5.30e-06	0	43	0	469762048	20	4047
2026-01-08 08:25:19.32	43.28	21.88	-29.8	-31.1	13.5	7.60e-06	0	43	0	471859200	20	4190
2026-01-08 08:25:20.33	43.01	21.88	-29.9	-31.5	13.3	1.29e-05	0	43	0	473956352	20	4294
2026-01-08 08:25:21.33	42.75	21.88	-30.0	-31.6	13.1	2.74e-05	0	43	0	476053504	20	4327
2026-01-08 08:25:22.33	42.48	21.87	-30.0	-31.6	13.1	4.27e-05	0	43	0	478150656	20	4344
2026-01-08 08:25:23.34	42.22	21.87	-29.9	-31.4	13.3	1.75e-05	0	43	0	479199232	20	4279
2026-01-08 08:25:24.35	41.95	21.87	-29.9	-31.3	13.3	1.44e-05	0	43	0	481296384	20	4246
2026-01-08 08:25:25.36	41.68	21.86	-29.9	-31.2	13.4	1.29e-05	0	43	0	483393536	20	4188
2026-01-08 08:25:26.36	41.41	21.86	-29.9	-31.2	13.4	1.29e-05	0	43	0	485490688	20	4204
2026-01-08 08:25:27.37	41.15	21.86	-29.8	-31.0	13.5	8.30e-06	0	43	0	487587840	20	4144
2026-01-08 08:25:28.37	40.88	21.85	-29.8	-31.0	13.5	1.14e-05	0	43	0	488636416	20	4122
2026-01-08 08:25:29.38	40.61	21.84	-29.5	-30.3	14.0	3.80e-06	0	43	0	490733568	20	3925
2026-01-08 08:25:30.38	40.35	21.84	-29.6	-30.4	13.9	1.50e-06	0	43	0	492830720	20	3966
2026-01-08 08:25:31.39	40.08	21.83	-29.6	-30.4	14.0	3.80e-06	0	43	0	494927872	20	3959
2026-01-08 08:25:32.40	39.81	21.82	-29.7	-30.7	13.7	3.00e-06	0	43	0	497025024	20	4045
2026-01-08 08:25:33.40	39.55	21.81	-29.7	-30.7	13.7	6.10e-06	0	43	0	498073600	20	4047
2026-01-08 08:25:34.41	39.28	21.80	-29.7	-30.7	13.7	4.50e-06	0	43	0	500170752	20	4044
2026-01-08 08:25:35.42	39.02	21.79	-29.3	-29.7	14.4	1.50e-06	0	43	0	502267904	20	3773
2026-01-08 08:25:36.42	38.75	21.78	-29.0	-29.4	14.9	0.00e+00	0	43	0	504365056	19	3776
2026-01-08 08:25:37.43	38.49	21.77	-29.0	-29.3	15.0	0.00e+00	0	43	0	506462208	19	3741
2026-01-08 08:25:38.44	38.22	21.76	-29.2	-29.9	14.7	0.00e+00	0	43	0	507510784	19	3890
2026-01-08 08:25:39.45	37.95	21.74	-29.3	-30.1	14.5	0.00e+00	0	43	0	509607936	19	3943
2026-01-08 08:25:40.45	37.69	21.73	-29.2	-30.0	14.6	0.00e+00	0	43	0	511705088	19	3926
2026-01-08 08:25:41.45	37.43	21.72	-29.2	-30.0	14.6	0.00e+00	0	43	0	513802240	19	3916
2026-01-08 08:25:42.46	37.16	21.70	-29.1	-29.6	14.8	0.00e+00	0	43	0	515899392	19	3824
2026-01-08 08:25:43.46	36.90	21.69	-29.1	-29.7	14.8	0.00e+00	0	43	0	516947968	19	3833
2026-01-08 08:25:44.47	36.64	21.67	-29.2	-30.0	14.6	0.00e+00	0	43	0	519045120	19	3921
2026-01-08 08:25:45.48	36.37	21.65	-29.2	-30.0	14.6	7.00e-07	0	43	0	521142272	19	3935
2026-01-08 08:25:46.49	36.11	21.64	-29.0	-29.5	14.9	7.00e-07	0	43	0	523239424	19	3797
2026-01-08 08:25:47.49	35.85	21.62	-29.2	-29.9	14.6	0.00e+00	0	43	0	525336576	19	3899
2026-01-08 08:25:48.49	35.59	21.60	-29.2	-30.0	14.6	0.00e+00	0	43	0	526385152	19	3921
2026-01-08 08:25:49.50	35.32	21.58	-29.2	-29.9	14.6	0.00e+00	0	43	0	528482304	19	3904
2026-01-08 08:25:50.52	35.06	21.56	-29.1	-29.7	14.8	0.00e+00	0	43	0	530579456	19	3843
2026-01-08 08:25:51.52	34.80	21.54	-29.3	-30.1	14.6	0.00e+00	0	43	0	532676608	19	3957
2026-01-08 08:25:52.52	34.54	21.52	-29.4	-30.5	14.3	0.00e+00	0	43	0	534773760	19	4069
2026-01-08 08:25:53.53	34.28	21.50	-29.5	-30.6	14.2	1.50e-06	0	43	0	535822336	19	4087
2026-01-08 08:25:54.54	34.02	21.48	-29.5	-30.6	14.2	7.00e-07	0	43	0	537919488	19	4093
2026-01-08 08:25:55.55	33.76	21.45	-29.1	-29.6	14.8	0.00e+00	0	43	0	540016640	19	3811
2026-01-08 08:25:56.55	33.50	21.43	-28.9	-29.2	15.0	0.00e+00	0	43	0	542113792	19	3717
2026-01-08 08:25:57.56	33.24	21.41	-28.7	-29.1	15.4	0.00e+00	0	43	0	544210944	18	3773
2026-01-08 08:25:58.56	32.98	21.38	-28.7	-29.0	15.4	0.00e+00	0	43	0	545259520	18	3753
2026-01-08 08:25:59.56	32.72	21.36	-28.5	-28.7	15.6	0.00e+00	0	43	0	547356672	18	3686
2026-01-08 08:26:00.57	32.46	21.33	-28.5	-28.7	15.7	0.00e+00	0	43	0	549453824	18	3676
2026-01-08 08:26:01.58	32.21	21.30	-28.4	-28.5	15.8	0.00e+00	0	43	0	551550976	18	3618
2026-01-08 08:26:02.59	31.95	21.28	-28.5	-28.6	15.7	0.00e+00	0	43	0	553648128	18	3655
2026-01-08 08:26:03.59	31.69	21.25	-28.8	-29.3	15.3	0.00e+00	0	43	0	554696704	18	3821
2026-01-08 08:26:04.60	31.44	21.22	-29.1	-30.0	14.9	0.00e+00	0	43	0	556793856	18	4009
2026-01-08 08:26:05.60	31.18	21.19	-29.2	-30.5	14.6	1.50e-06	0	43	0	558891008	18	4158
2026-01-08 08:26:06.61	30.93	21.16	-29.3	-30.6	14.5	7.00e-07	0	43	0	560988160	18	4202
2026-01-08 08:26:07.61	30.67	21.13	-29.3	-30.8	14.3	1.50e-06	0	43	0	563085312	18	4240
2026-01-08 08:26:08.62	30.42	21.10	-29.2	-30.5	14.6	0.00e+00	0	43	0	564133888	18	4157
2026-01-08 08:26:09.63	30.16	21.07	-29.2	-30.4	14.6	7.00e-07	0	43	0	566231040	18	4126
2026-01-08 08:26:10.64	29.91	21.04	-29.1	-30.0	14.8	0.00e+00	0	43	0	568328192	18	4029
2026-01-08 08:26:11.64	29.66	21.01	-29.1	-30.1	14.8	0.00e+00	0	43	0	570425344	18	4053
2026-01-08 08:26:12.64	29.41	20.98	-29.2	-30.3	14.7	0.00e+00	0	43	0	572522496	18	4115
2026-01-08 08:26:13.64	29.16	20.94	-29.4	-31.0	14.3	0.00e+00	0	43	0	573571072	18	4303
2026-01-08 08:26:14.65	28.91	20.91	-29.4	-30.9	14.3	1.50e-06	0	43	0	575668224	18	4283
2026-01-08 08:26:15.66	28.66	20.88	-29.8	-31.5	13.6	3.80e-06	0	43	0	577765376	19	4385
2026-01-08 08:26:16.66	28.41	20.84	-29.9	-31.8	13.4	1.29e-05	0	43	0	579862528	19	4463
2026-01-08 08:26:17.67	28.16	20.81	-30.1	-31.8	13.1	1.75e-05	0	43	0	581959680	20	4374
2026-01-08 08:26:18.68	27.91	20.77	-30.1	-31.8	12.9	6.02e-05	0	43	0	583008256	20	4402
2026-01-08 08:26:19.68	27.66	20.73	-30.2	-32.2	12.7	7.01e-05	0	43	0	585105408	20	4533
2026-01-08 08:26:20.68	27.42	20.70	-30.3	-32.4	12.6	8.77e-05	0	43	0	587202560	20	4590
2026-01-08 08:26:21.69	27.17	20.66	-30.3	-32.6	12.5	8.54e-05	0	43	0	589299712	20	4657
2026-01-08 08:26:22.70	26.92	20.62	-30.4	-32.7	12.4	1.43e-04	0	43	0	591396864	20	4695
2026-01-08 08:26:23.71	26.67	20.58	-30.3	-32.6	12.5	1.54e-04	0	43	0	592445440	20	4649
2026-01-08 08:26:24.71	26.43	20.54	-30.3	-32.4	12.6	1.07e-04	0	43	0	594542592	20	4598
2026-01-08 08:26:25.72	26.19	20.51	-30.2	-32.1	12.7	8.54e-05	0	43	0	596639744	20	4497
2026-01-08 08:26:26.72	25.94	20.47	-30.0	-31.6	13.1	3.12e-05	0	43	0	598736896	20	4330
2026-01-08 08:26:27.73	25.70	20.43	-29.9	-31.3	13.3	1.14e-05	0	43	0	600834048	20	4225
2026-01-08 08:26:28.73	25.46	20.38	-29.9	-31.4	13.2	1.98e-05	0	43	0	601882624	20	4263
2026-01-08 08:26:29.74	25.22	20.34	-30.1	-31.7	13.0	5.11e-05	0	43	0	603979776	20	4374
2026-01-08 08:26:30.74	24.98	20.30	-30.0	-31.7	13.0	4.34e-05	0	43	0	606076928	20	4368
2026-01-08 08:26:31.75	24.74	20.26	-30.1	-32.0	12.8	2.67e-05	0	43	0	608174080	20	4458
2026-01-08 08:26:32.76	24.50	20.22	-30.0	-31.7	13.0	2.67e-05	0	43	0	610271232	20	4363
2026-01-08 08:26:33.76	24.26	20.17	-29.8	-31.2	13.4	1.98e-05	0	43	0	611319808	20	4197
2026-01-08 08:26:34.77	24.02	20.13	-29.7	-30.8	13.6	5.30e-06	0	43	0	613416960	20	4097
2026-01-08 08:26:35.77	23.78	20.09	-29.7	-30.8	13.6	8.30e-06	0	43	0	615514112	20	4083
2026-01-08 08:26:36.78	23.54	20.04	-29.8	-31.0	13.4	6.80e-06	0	43	0	617611264	20	4129
2026-01-08 08:26:37.79	23.31	20.00	-29.6	-30.6	13.7	7.60e-06	0	43	0	618659840	20	4032
2026-01-08 08:26:38.79	23.07	19.95	-29.5	-30.3	13.8	1.50e-06	0	43	0	620756992	20	3952
2026-01-08 08:26:39.80	22.84	19.91	-29.4	-30.6	14.1	1.50e-06	0	43	0	622854144	19	4093
2026-01-08 08:26:40.80	22.61	19.86	-29.5	-30.6	14.1	2.20e-06	0	43	0	624951296	19	4105
2026-01-08 08:26:41.81	22.37	19.81	-29.4	-30.5	14.1	0.00e+00	0	43	0	627048448	19	4073
2026-01-08 08:26:42.81	22.14	19.77	-29.7	-31.2	13.7	1.50e-06	0	43	0	629145600	19	4274
2026-01-08 08:26:43.82	21.91	19.72	-29.6	-31.1	13.8	4.50e-06	0	43	0	630194176	19	4264
2026-01-08 08:26:44.83	21.67	19.67	-29.7	-31.3	13.7	3.00e-06	0	43	0	632291328	19	4318
2026-01-08 08:26:45.83	21.45	19.62	-29.9	-31.8	13.3	9.10e-06	0	43	0	634388480	19	4484
2026-01-08 08:26:46.84	21.22	19.58	-30.3	-32.4	12.5	3.73e-05	0	43	0	636485632	20	4595
2026-01-08 08:26:47.85	20.99	19.53	-30.4	-32.8	12.3	1.32e-04	0	43	0	638582784	20	4732
2026-01-08 08:26:48.86	20.76	19.48	-30.8	-33.5	11.3	6.00e-04	0	43	0	639631360	21	4916
2026-01-08 08:26:49.87	20.53	19.43	-30.8	-33.4	11.4	1.19e-03	0	43	0	641728512	21	4884
2026-01-08 08:26:50.88	20.30	19.38	-30.6	-32.8	11.7	6.69e-04	0	43	0	643825664	21	4678
2026-01-08 08:26:51.88	20.08	19.33	-30.3	-32.1	12.3	2.59e-04	0	43	0	645922816	21	4407
2026-01-08 08:26:52.89	19.85	19.28	-30.3	-32.1	12.4	1.62e-04	0	43	0	648019968	21	4412
2026-01-08 08:26:53.90	19.62	19.22	-30.4	-32.3	12.1	2.22e-04	0	43	0	649068544	21	4488
2026-01-08 08:26:54.90	19.40	19.17	-30.5	-32.8	11.8	4.45e-04	0	43	0	651165696	21	4656
2026-01-08 08:26:55.91	19.18	19.12	-30.8	-33.7	11.1	1.02e-03	0	43	0	653262848	21	5032
2026-01-08 08:26:56.91	18.96	19.07	-31.1	-34.1	10.5	2.63e-03	0	43	0	655360000	22	5080
2026-01-08 08:26:57.92	18.74	19.02	-31.2	-34.5	10.1	6.32e-03	0	43	0	657457152	22	5263
2026-01-08 08:26:58.93	18.51	18.96	-31.2	-34.3	10.3	6.56e-03	0	43	0	658505728	22	5188
2026-01-08 08:26:59.94	18.29	18.91	-31.1	-34.1	10.5	5.93e-03	0	43	0	660602880	22	5074
2026-01-08 08:27:00.95	18.07	18.86	-30.9	-33.6	10.9	3.54e-03	0	43	0	662700032	22	4858
2026-01-08 08:27:01.95	17.86	18.80	-30.8	-33.1	11.2	1.80e-03	0	43	0	664797184	22	4670
2026-01-08 08:27:02.96	17.64	18.75	-30.6	-32.5	11.7	9.38e-04	0	43	0	666894336	22	4465
2026-01-08 08:27:03.97	17.42	18.69	-30.5	-32.1	12.0	4.85e-04	0	43	0	667942912	22	4326
2026-01-08 08:27:04.97	17.21	18.64	-30.3	-31.5	12.4	1.68e-04	0	43	0	670040064	22	4130
2026-01-08 08:27:05.98	16.99	18.58	-30.4	-31.7	12.3	1.56e-04	0	43	0	672137216	22	4180
2026-01-08 08:27:06.99	16.77	18.53	-30.1	-31.4	12.7	1.47e-04	0	43	0	674234368	21	4194
2026-01-08 08:27:07.99	16.56	18.47	-30.2	-31.7	12.6	5.95e-05	0	43	0	676331520	21	4277
2026-01-08 08:27:09.00	16.35	18.42	-29.8	-30.5	13.3	3.58e-05	0	43	0	677380096	21	3933
2026-01-08 08:27:10.01	16.14	18.36	-29.6	-30.6	13.6	6.80e-06	0	43	0	679477248	20	4044
2026-01-08 08:27:11.02	15.92	18.30	-29.6	-30.5	13.6	7.60e-06	0	43	0	681574400	20	4014
2026-01-08 08:27:12.02	15.72	18.25	-29.5	-30.4	13.7	4.50e-06	0	43	0	683671552	20	3972
2026-01-08 08:27:13.03	15.51	18.19	-29.7	-30.9	13.4	7.60e-06	0	43	0	685768704	20	4114
2026-01-08 08:27:14.04	15.30	18.13	-29.7	-30.9	13.4	1.29e-05	0	43	0	686817280	20	4115
2026-01-08 08:27:15.04	15.09	18.08	-29.9	-31.5	13.0	2.36e-05	0	43	0	688914432	20	4308
2026-01-08 08:27:16.05	14.88	18.02	-29.6	-30.5	13.6	1.29e-05	0	43	0	691011584	20	3996
2026-01-08 08:27:17.06	14.67	17.96	-29.3	-30.2	14.2	6.80e-06	0	43	0	693108736	19	4000
2026-01-08 08:27:18.07	14.47	17.90	-29.1	-29.9	14.4	0.00e+00	0	43	0	695205888	19	3916
2026-01-08 08:27:19.07	14.26	17.84	-29.0	-29.5	14.6	0.00e+00	0	43	0	696254464	19	3810
2026-01-08 08:27:20.08	14.06	17.78	-29.1	-29.8	14.5	7.00e-07	0	43	0	698351616	19	3895
2026-01-08 08:27:21.09	13.86	17.73	-29.3	-30.3	14.0	7.00e-07	0	43	0	700448768	19	4042
2026-01-08 08:27:22.09	13.65	17.67	-29.6	-31.3	13.5	2.20e-06	0	43	0	702545920	19	4331
2026-01-08 08:27:23.11	13.45	17.61	-29.9	-31.9	13.0	1.14e-05	0	43	0	704643072	19	4549
2026-01-08 08:27:24.11	13.25	17.55	-30.2	-32.4	12.3	1.09e-04	0	43	0	705691648	20	4624
2026-01-08 08:27:25.12	13.05	17.49	-30.3	-32.6	12.2	2.16e-04	0	43	0	707788800	20	4684
2026-01-08 08:27:26.12	12.85	17.43	-30.5	-32.8	11.7	5.39e-04	0	43	0	709885952	21	4681
2026-01-08 08:27:27.13	12.65	17.37	-30.5	-32.7	11.7	7.64e-04	0	43	0	711983104	21	4637
2026-01-08 08:27:28.14	12.46	17.31	-30.5	-32.8	11.6	5.45e-04	0	43	0	714080256	21	4698
2026-01-08 08:27:29.14	12.26	17.25	-30.4	-32.4	12.0	3.90e-04	0	43	0	715128832	21	4524
2026-01-08 08:27:30.14	12.07	17.19	-30.4	-32.5	12.1	2.47e-04	0	43	0	717225984	21	4550
2026-01-08 08:27:31.14	11.87	17.12	-30.3	-32.2	12.1	3.00e-04	0	43	0	719323136	21	4457
2026-01-08 08:27:32.15	11.68	17.06	-30.0	-31.2	12.8	1.20e-04	0	43	0	721420288	21	4128
2026-01-08 08:27:33.15	11.48	17.00	-29.8	-30.7	13.1	3.96e-05	0	43	0	723517440	21	3981
2026-01-08 08:27:34.15	11.29	16.94	-29.6	-30.7	13.4	1.29e-05	0	43	0	724566016	20	4072
2026-01-08 08:27:35.16	11.10	16.88	-29.5	-30.4	13.6	9.10e-06	0	43	0	726663168	20	3987
2026-01-08 08:27:36.17	10.91	16.82	-29.4	-30.1	13.8	7.60e-06	0	43	0	728760320	20	3897
2026-01-08 08:27:37.17	10.72	16.75	-29.4	-30.1	13.8	6.10e-06	0	43	0	730857472	20	3901
2026-01-08 08:27:38.18	10.53	16.69	-29.3	-30.3	14.0	3.80e-06	0	43	0	731906048	19	4046
2026-01-08 08:27:39.18	10.34	16.63	-29.4	-30.5	13.9	2.20e-06	0	43	0	734003200	19	4087
2026-01-08 08:27:40.18	10.15	16.57	-29.4	-30.4	14.0	3.00e-06	0	43	0	736100352	19	4083
2026-01-08 08:27:41.19	9.97	16.50	-29.6	-31.1	13.6	1.14e-05	0	43	0	738197504	19	4288
2026-01-08 08:27:42.20	9.78	16.44	-29.7	-31.5	13.3	1.29e-05	0	43	0	740294656	19	4403
2026-01-08 08:27:43.21	9.59	16.38	-30.0	-32.1	12.8	3.35e-05	0	43	0	742391808	19	4618
2026-01-08 08:27:44.21	9.41	16.32	-30.0	-31.7	12.7	7.62e-05	0	43	0	743440384	20	4402
2026-01-08 08:27:45.22	9.23	16.25	-30.0	-31.9	12.6	7.93e-05	0	43	0	745537536	20	4444
2026-01-08 08:27:46.22	9.04	16.19	-30.0	-31.8	12.7	6.48e-05	0	43	0	747634688	20	4417
2026-01-08 08:27:47.23	8.86	16.13	-29.8	-31.4	13.0	5.11e-05	0	43	0	749731840	20	4286
2026-01-08 08:27:48.24	8.68	16.06	-29.9	-31.5	12.9	6.02e-05	0	43	0	751828992	20	4326
2026-01-08 08:27:49.25	8.50	16.00	-29.8	-31.3	12.9	4.27e-05	0	43	0	752877568	20	4277
2026-01-08 08:27:50.25	8.32	15.93	-29.9	-31.6	12.9	4.80e-05	0	43	0	754974720	20	4348
2026-01-08 08:27:51.26	8.14	15.87	-30.0	-31.7	12.7	6.56e-05	0	43	0	757071872	20	4409
2026-01-08 08:27:52.27	7.96	15.80	-30.0	-31.8	12.7	7.62e-05	0	43	0	759169024	20	4437
2026-01-08 08:27:53.27	7.78	15.74	-30.1	-32.1	12.4	1.17e-04	0	43	0	760217600	20	4544
2026-01-08 08:27:54.28	7.61	15.68	-30.1	-32.0	12.4	1.07e-04	0	43	0	762314752	20	4487
2026-01-08 08:27:55.27	7.43	15.61	-30.1	-32.1	12.5	1.24e-04	0	43	0	764411904	20	4516
2026-01-08 08:27:56.28	7.26	15.55	-30.1	-32.2	12.3	1.52e-04	0	43	0	766509056	20	4555
2026-01-08 08:27:57.28	7.08	15.48	-30.1	-32.1	12.4	1.52e-04	0	43	0	768606208	20	4537
2026-01-08 08:27:58.29	6.91	15.42	-30.1	-32.1	12.4	1.72e-04	0	43	0	770703360	20	4547
2026-01-08 08:27:59.29	6.74	15.35	-30.1	-32.1	12.3	1.76e-04	0	43	0	771751936	20	4523
2026-01-08 08:28:00.30	6.56	15.29	-30.0	-31.7	12.7	1.01e-04	0	43	0	773849088	20	4402
2026-01-08 08:28:01.30	6.39	15.22	-29.9	-31.5	12.8	6.63e-05	0	43	0	775946240	20	4315
2026-01-08 08:28:02.31	6.22	15.16	-29.9	-31.4	12.9	5.41e-05	0	43	0	778043392	20	4285
2026-01-08 08:28:03.32	6.05	15.09	-29.9	-31.5	12.9	5.26e-05	0	43	0	779091968	20	4326
2026-01-08 08:28:04.33	5.88	15.03	-29.9	-31.5	12.8	6.25e-05	0	43	0	781189120	20	4335
2026-01-08 08:28:05.33	5.71	14.96	-29.8	-31.2	13.1	3.73e-05	0	43	0	783286272	20	4229
2026-01-08 08:28:06.34	5.55	14.90	-30.0	-31.8	12.7	7.55e-05	0	43	0	785383424	20	4413
2026-01-08 08:28:07.34	5.38	14.83	-29.8	-31.2	13.0	2.82e-05	0	43	0	787480576	20	4234
2026-01-08 08:28:08.35	5.21	14.77	-29.7	-30.9	13.2	2.13e-05	0	43	0	788529152	20	4142
2026-01-08 08:28:09.36	5.05	14.70	-29.5	-30.5	13.5	1.52e-05	0	43	0	790626304	20	3999
2026-01-08 08:28:10.36	4.88	14.63	-29.4	-30.0	13.8	5.30e-06	0	43	0	792723456	20	3876
2026-01-08 08:28:11.36	4.72	14.57	-29.3	-29.9	14.0	2.20e-06	0	43	0	794820608	20	3834
2026-01-08 08:28:12.37	4.56	14.50	-29.3	-30.2	14.1	1.50e-06	0	43	0	796917760	19	4005
2026-01-08 08:28:13.38	4.39	14.44	-29.1	-29.6	14.5	7.00e-07	0	43	0	797966336	19	3849
2026-01-08 08:28:14.38	4.23	14.37	-29.0	-29.4	14.6	0.00e+00	0	43	0	800063488	19	3785
2026-01-08 08:28:15.39	4.07	14.30	-29.0	-29.5	14.5	1.50e-06	0	43	0	802160640	19	3813
2026-01-08 08:28:16.40	3.91	14.24	-29.1	-29.9	14.3	7.00e-07	0	43	0	804257792	19	3914
2026-01-08 08:28:17.40	3.75	14.17	-29.3	-30.2	14.1	0.00e+00	0	43	0	806354944	19	4026
2026-01-08 08:28:18.41	3.59	14.11	-29.5	-30.8	13.7	4.50e-06	0	43	0	807403520	19	4184
2026-01-08 08:28:19.42	3.43	14.04	-29.7	-31.4	13.3	6.80e-06	0	43	0	809500672	19	4379
2026-01-08 08:28:20.42	3.28	13.97	-29.8	-31.7	13.1	2.44e-05	0	43	0	811597824	19	4480
2026-01-08 08:28:21.43	3.12	13.91	-29.7	-31.3	13.3	1.60e-05	0	43	0	813694976	19	4347
2026-01-08 08:28:22.44	2.96	13.84	-29.7	-31.4	13.3	1.22e-05	0	43	0	815792128	19	4360
2026-01-08 08:28:23.44	2.81	13.77	-29.8	-31.7	13.1	1.90e-05	0	43	0	816840704	19	4461
2026-01-08 08:28:24.46	2.65	13.71	-29.8	-31.6	13.1	2.44e-05	0	43	0	818937856	19	4453
2026-01-08 08:28:25.46	2.50	13.64	-29.7	-31.3	13.3	2.67e-05	0	43	0	821035008	19	4352
2026-01-08 08:28:26.46	2.35	13.58	-29.6	-31.2	13.4	1.44e-05	0	43	0	823132160	19	4309
2026-01-08 08:28:27.46	2.20	13.51	-29.6	-31.1	13.5	1.67e-05	0	43	0	825229312	19	4268
2026-01-08 08:28:28.47	2.04	13.44	-29.7	-31.3	13.4	9.90e-06	0	43	0	826277888	19	4323
2026-01-08 08:28:29.47	1.89	13.38	-29.6	-31.2	13.4	2.67e-05	0	43	0	828375040	19	4319
2026-01-08 08:28:30.48	1.74	13.31	-29.2	-30.2	14.1	4.50e-06	0	43	0	830472192	19	4005
2026-01-08 08:28:31.49	1.59	13.24	-29.1	-29.7	14.3	3.00e-06	0	43	0	832569344	19	3872
2026-01-08 08:28:32.50	1.44	13.18	-29.1	-29.7	14.3	1.50e-06	0	43	0	834666496	19	3869
2026-01-08 08:28:33.50	1.30	13.11	-29.2	-30.1	14.0	7.00e-07	0	43	0	835715072	19	3998
2026-01-08 08:28:34.50	1.15	13.04	-29.5	-30.9	13.5	7.60e-06	0	43	0	837812224	19	4221
2026-01-08 08:28:35.51	1.00	12.98	-29.7	-31.4	13.2	2.44e-05	0	43	0	839909376	19	4368
2026-01-08 08:28:36.52	0.86	12.91	-29.8	-31.7	13.0	4.19e-05	0	43	0	842006528	19	4491
2026-01-08 08:28:37.52	0.71	12.84	-29.8	-31.8	13.0	4.04e-05	0	43	0	844103680	19	4501
2026-01-08 08:28:38.53	0.57	12.78	-29.9	-32.0	12.8	6.25e-05	0	43	0	845152256	19	4589
2026-01-08 08:28:39.54	0.42	12.71	-29.9	-31.6	12.6	7.47e-05	0	43	0	847249408	20	4378
2026-01-08 08:28:40.54	0.28	12.64	-29.9	-31.4	12.7	5.64e-05	0	43	0	849346560	20	4313
2026-01-08 08:28:41.55	0.13	12.58	-29.8	-31.3	12.8	6.56e-05	0	43	0	851443712	20	4269
2026-01-08 08:28:42.55	359.99	12.51	-29.9	-31.5	12.7	5.18e-05	0	43	0	853540864	20	4341
2026-01-08 08:28:43.56	359.85	12.44	-29.8	-31.3	12.8	9.99e-05	0	43	0	854589440	20	4269
2026-01-08 08:28:44.57	359.71	12.38	-29.6	-30.8	13.2	2.74e-05	0	43	0	856686592	20	4114
2026-01-08 08:28:45.57	359.57	12.31	-29.5	-30.5	13.4	1.98e-05	0	43	0	858783744	20	4016
2026-01-08 08:28:46.58	359.43	12.25	-29.3	-29.8	13.7	6.80e-06	0	43	0	860880896	20	3841
2026-01-08 08:28:47.59	359.29	12.18	-29.2	-30.2	13.9	2.20e-06	0	43	0	862978048	19	4020
2026-01-08 08:28:48.59	359.15	12.11	-29.0	-29.5	14.4	0.00e+00	0	43	0	864026624	19	3821
2026-01-08 08:28:49.60	359.01	12.05	-29.0	-29.6	14.3	7.00e-07	0	43	0	866123776	19	3850
2026-01-08 08:28:50.61	358.88	11.98	-28.9	-29.2	14.5	7.00e-07	0	43	0	868220928	19	3746
2026-01-08 08:28:51.61	358.74	11.91	-28.9	-29.3	14.5	7.00e-07	0	43	0	870318080	19	3776
2026-01-08 08:28:52.62	358.61	11.85	-29.1	-29.7	14.2	7.00e-07	0	43	0	872415232	19	3884
2026-01-08 08:28:53.63	358.47	11.78	-29.2	-30.1	14.0	7.00e-07	0	43	0	873463808	19	3987
2026-01-08 08:28:54.64	358.33	11.71	-29.4	-30.7	13.6	4.50e-06	0	43	0	875560960	19	4171
2026-01-08 08:28:55.64	358.20	11.65	-29.6	-31.2	13.3	2.13e-05	0	43	0	877658112	19	4332
2026-01-08 08:28:56.65	358.07	11.58	-29.9	-31.9	12.8	2.89e-05	0	43	0	879755264	19	4560
2026-01-08 08:28:57.65	357.94	11.51	-29.9	-31.7	12.6	9.68e-05	0	43	0	881852416	20	4400
2026-01-08 08:28:58.66	357.80	11.45	-30.2	-32.4	12.0	1.49e-04	0	43	0	882900992	20	4649
2026-01-08 08:28:59.67	357.67	11.38	-30.0	-31.9	12.4	2.08e-04	0	43	0	884998144	20	4456
2026-01-08 08:29:00.67	357.54	11.32	-30.0	-31.7	12.5	1.43e-04	0	43	0	887095296	20	4414
2026-01-08 08:29:01.68	357.41	11.25	-29.9	-31.5	12.6	1.74e-04	0	43	0	889192448	20	4350
2026-01-08 08:29:02.69	357.28	11.18	-29.7	-31.0	12.9	6.63e-05	0	43	0	891289600	20	4185
2026-01-08 08:29:03.70	357.15	11.12	-29.8	-31.2	12.9	4.11e-05	0	43	0	892338176	20	4240
2026-01-08 08:29:04.70	357.02	11.05	-29.6	-30.8	13.1	4.88e-05	0	43	0	894435328	20	4131
2026-01-08 08:29:05.71	356.90	10.98	-29.5	-30.5	13.2	2.44e-05	0	43	0	896532480	20	4038
2026-01-08 08:29:06.72	356.77	10.92	-29.5	-30.4	13.3	2.59e-05	0	43	0	898629632	20	4016
2026-01-08 08:29:07.72	356.64	10.85	-29.7	-31.1	12.9	3.05e-05	0	43	0	900726784	20	4219
2026-01-08 08:29:08.73	356.52	10.79	-29.7	-31.0	12.9	5.26e-05	0	43	0	901775360	20	4205
2026-01-08 08:29:09.73	356.39	10.72	-29.6	-30.8	13.0	3.20e-05	0	43	0	903872512	20	4131
2026-01-08 08:29:10.74	356.27	10.66	-29.8	-31.2	12.8	5.72e-05	0	43	0	905969664	20	4258
2026-01-08 08:29:11.75	356.14	10.59	-29.7	-31.1	12.9	6.48e-05	0	43	0	908066816	20	4205
2026-01-08 08:29:12.75	356.02	10.52	-29.7	-31.0	12.9	5.03e-05	0	43	0	910163968	20	4178
2026-01-08 08:29:13.76	355.89	10.46	-29.7	-31.0	12.9	3.43e-05	0	43	0	911212544	20	4183
2026-01-08 08:29:14.76	355.77	10.39	-29.7	-31.1	12.8	4.65e-05	0	43	0	913309696	20	4235
2026-01-08 08:29:15.77	355.65	10.33	-29.8	-31.3	12.7	4.88e-05	0	43	0	915406848	20	4290
2026-01-08 08:29:16.77	355.53	10.26	-29.8	-31.4	12.6	1.10e-04	0	43	0	917504000	20	4318
2026-01-08 08:29:17.78	355.41	10.20	-30.0	-31.9	12.3	1.94e-04	0	43	0	919601152	20	4488
2026-01-08 08:29:18.78	355.29	10.13	-30.0	-31.9	12.3	1.57e-04	0	43	0	920649728	20	4468
2026-01-08 08:29:19.79	355.17	10.07	-30.1	-32.3	12.0	1.84e-04	0	43	0	922746880	20	4630
2026-01-08 08:29:20.79	355.05	10.00	-30.1	-32.2	12.0	2.87e-04	0	43	0	924844032	20	4604
2026-01-08 08:29:21.80	354.93	9.93	-30.2	-32.5	11.8	3.96e-04	0	43	0	926941184	20	4708
2026-01-08 08:29:22.81	354.81	9.87	-30.2	-32.5	11.9	6.06e-04	0	43	0	929038336	20	4694
2026-01-08 08:29:23.81	354.69	9.80	-30.3	-32.8	11.6	6.01e-04	0	43	0	930086912	20	4822
2026-01-08 08:29:24.82	354.58	9.74	-30.2	-32.6	11.7	6.51e-04	0	43	0	932184064	20	4727
2026-01-08 08:29:25.82	354.46	9.67	-30.2	-32.5	11.8	4.83e-04	0	43	0	934281216	20	4695
2026-01-08 08:29:26.83	354.34	9.61	-30.2	-32.5	11.8	5.88e-04	0	43	0	936378368	20	4717
2026-01-08 08:29:27.83	354.23	9.54	-30.1	-32.2	12.0	3.61e-04	0	43	0	938475520	20	4591
2026-01-08 08:29:28.83	354.12	9.48	-30.2	-32.7	11.6	4.65e-04	0	43	0	939524096	20	4767
2026-01-08 08:29:29.84	354.00	9.42	-30.3	-32.8	11.6	7.23e-04	0	43	0	941621248	20	4823
2026-01-08 08:29:30.84	353.89	9.35	-30.4	-33.2	11.3	7.45e-04	0	43	0	943718400	20	4957
2026-01-08 08:29:31.84	353.77	9.29	-30.4	-33.2	11.3	1.07e-03	0	43	0	945815552	20	4963
2026-01-08 08:29:32.85	353.66	9.22	-30.5	-33.0	11.1	1.51e-03	0	43	0	947912704	21	4791
2026-01-08 08:29:33.85	353.55	9.16	-30.7	-33.7	10.5	2.55e-03	0	43	0	948961280	21	5112
2026-01-08 08:29:34.86	353.44	9.09	-30.7	-33.6	10.5	3.70e-03	0	43	0	951058432	21	5069
2026-01-08 08:29:35.87	353.33	9.03	-30.8	-34.0	10.3	4.78e-03	0	43	0	953155584	21	5217
2026-01-08 08:29:36.87	353.22	8.96	-30.7	-33.8	10.4	5.59e-03	0	43	0	955252736	21	5127
2026-01-08 08:29:37.88	353.10	8.90	-30.7	-33.6	10.5	3.72e-03	0	43	0	957349888	21	5072
2026-01-08 08:29:38.88	353.00	8.83	-30.6	-33.5	10.6	4.19e-03	0	43	0	958398464	21	5019
2026-01-08 08:29:39.89	352.89	8.77	-30.5	-33.1	10.9	3.15e-03	0	43	0	960495616	21	4849
2026-01-08 08:29:40.89	352.78	8.71	-30.4	-32.9	11.0	1.65e-03	0	43	0	962592768	21	4777
2026-01-08 08:29:41.90	352.67	8.64	-30.4	-32.9	11.0	1.53e-03	0	43	0	964689920	21	4762
2026-01-08 08:29:42.91	352.56	8.58	-30.4	-32.7	11.2	1.34e-03	0	43	0	966787072	21	4703
2026-01-08 08:29:43.91	352.45	8.51	-30.3	-32.6	11.3	1.46e-03	0	43	0	967835648	21	4647
2026-01-08 08:29:44.92	352.35	8.45	-30.3	-32.5	11.3	1.25e-03	0	43	0	969932800	21	4633
2026-01-08 08:29:45.93	352.24	8.39	-30.3	-32.4	11.4	8.54e-04	0	43	0	972029952	21	4590
2026-01-08 08:29:46.93	352.13	8.32	-30.3	-32.4	11.4	7.05e-04	0	43	0	974127104	21	4604
2026-01-08 08:29:47.93	352.03	8.26	-30.3	-32.5	11.2	1.27e-03	0	43	0	976224256	21	4641
2026-01-08 08:29:48.94	351.92	8.20	-30.3	-32.6	11.3	1.20e-03	0	43	0	977272832	21	4656
2026-01-08 08:29:49.95	351.82	8.13	-30.6	-33.4	10.6	1.70e-03	0	43	0	979369984	21	4964
2026-01-08 08:29:50.95	351.72	8.07	-30.5	-33.1	10.9	2.28e-03	0	43	0	981467136	21	4845
2026-01-08 08:29:51.96	351.61	8.00	-30.4	-32.7	11.1	2.00e-03	0	43	0	983564288	21	4713
2026-01-08 08:29:52.96	351.51	7.94	-30.4	-32.8	11.1	1.90e-03	0	43	0	985661440	21	4743
2026-01-08 08:29:53.96	351.41	7.88	-30.5	-33.2	10.8	2.23e-03	0	43	0	986710016	21	4881
2026-01-08 08:29:54.96	351.31	7.82	-30.5	-33.1	10.8	2.51e-03	0	43	0	988807168	21	4867
2026-01-08 08:29:55.97	351.20	7.75	-30.6	-33.3	10.6	2.62e-03	0	43	0	990904320	21	4952
2026-01-08 08:29:56.98	351.10	7.69	-30.5	-33.2	10.6	3.36e-03	0	43	0	993001472	21	4918
2026-01-08 08:29:57.98	351.00	7.63	-30.5	-33.1	10.7	2.63e-03	0	43	0	995098624	21	4865
2026-01-08 08:29:58.99	350.90	7.56	-30.5	-33.4	10.5	3.76e-03	0	43	0	996147200	21	4980
2026-01-08 08:30:00.00	350.80	7.50	-30.5	-33.2	10.7	3.87e-03	0	43	0	998244352	21	4906
2026-01-08 08:30:01.00	350.70	7.44	-30.4	-32.9	10.8	2.40e-03	0	43	0	1000341504	21	4786
2026-01-08 08:30:02.01	350.60	7.37	-30.4	-32.8	11.0	1.80e-03	0	43	0	1002438656	21	4741
2026-01-08 08:30:03.02	350.50	7.31	-30.3	-32.5	11.2	2.21e-03	0	43	0	1003487232	21	4645
2026-01-08 08:30:04.02	350.41	7.25	-30.3	-32.5	11.0	1.80e-03	0	43	0	1005584384	21	4658
2026-01-08 08:30:05.03	350.31	7.19	-30.4	-32.8	10.9	2.05e-03	0	43	0	1007681536	21	4779
2026-01-08 08:30:06.04	350.21	7.12	-30.3	-32.6	11.1	1.80e-03	0	43	0	1009778688	21	4681
2026-01-08 08:30:07.05	350.11	7.06	-30.3	-32.6	11.1	1.91e-03	0	43	0	1011875840	21	4677
2026-01-08 08:30:08.05	350.02	7.00	-32.9	-43.9	3.8	1.49e+00	0	43	104	1012924416	25	12835

#Closed at: 2026-01-08 08:30:08
#Recorded file [1012 MB]: D:/data/31010_260108_112107.dat