passes_logs/2026/01/08/R2M6_AANII_01/R2M6_AANII_01__20260108_160659_FENGYUN_3E_rec.log

#Pass ID: 20260108_160659_FENGYUN 3E
#Satellite: FENGYUN 3E
#Configuration: FENGYUN 3E
#almurnet v.1.7.20240730
#Start time: 2026-01-08 16:07:00

#Version: 2.2.20231116
#Station: R2M6_AANII_01
#Location: 30.233357 lon 59.946436 lat
#TLE: 1 49008U 21062A   26007.88844255 -.00000338  00000+0 -13865-3 0  9992
#TLE: 2 49008  98.7481  13.0996 0001694 151.5348 208.5921 14.19883289233834

#Time	Az	El	Level	Level2	SNR	BER	BlckErr	Temp	State	Recorded	gain1	gain2
2026-01-08 16:07:00.19	209.71	7.07	-27.8	-29.0	5.6	7.49e-01	0	41	0	0	16	4135
2026-01-08 16:07:01.19	209.80	7.14	-29.5	-32.4	5.2	7.76e-01	0	41	104	0	18	5025
2026-01-08 16:07:02.20	209.89	7.20	-29.2	-31.5	9.4	1.59e-02	0	41	0	0	18	4687
2026-01-08 16:07:03.20	209.98	7.27	-29.5	-32.3	8.9	3.23e-02	0	41	0	7340032	18	4982
2026-01-08 16:07:04.20	210.07	7.33	-29.1	-31.2	9.7	1.74e-02	0	41	0	14680064	18	4570
2026-01-08 16:07:05.21	210.16	7.40	-28.8	-30.4	10.2	6.64e-03	0	41	0	22020096	18	4340
2026-01-08 16:07:06.22	210.26	7.47	-28.4	-29.5	10.8	3.78e-03	0	41	0	28311552	18	4057
2026-01-08 16:07:07.22	210.35	7.53	-28.2	-29.4	11.2	1.74e-03	0	41	0	35651584	17	4133
2026-01-08 16:07:08.23	210.44	7.60	-27.8	-29.0	11.8	6.65e-04	0	41	0	42991616	16	4118
2026-01-08 16:07:09.23	210.54	7.66	-27.5	-28.3	12.2	3.03e-04	0	41	0	50331648	16	3931
2026-01-08 16:07:10.24	210.63	7.73	-27.6	-28.5	12.1	2.44e-04	0	41	0	57671680	16	3994
2026-01-08 16:07:11.24	210.73	7.80	-27.4	-28.0	12.4	2.33e-04	0	41	0	65011712	16	3859
2026-01-08 16:07:12.25	210.82	7.86	-27.6	-28.5	12.1	2.69e-04	0	41	0	72351744	16	3979
2026-01-08 16:07:13.25	210.92	7.93	-27.8	-28.9	11.8	7.01e-04	0	41	0	79691776	16	4084
2026-01-08 16:07:14.25	211.01	8.00	-27.2	-28.0	12.5	1.76e-04	0	41	0	87031808	15	3944
2026-01-08 16:07:15.26	211.11	8.06	-26.8	-27.7	13.0	5.37e-05	0	41	0	94371840	14	3981
2026-01-08 16:07:16.27	211.20	8.13	-26.7	-27.4	13.1	3.43e-05	0	41	0	101711872	14	3901
2026-01-08 16:07:17.27	211.30	8.20	-26.8	-27.6	13.0	5.37e-05	0	41	0	108003328	14	3953
2026-01-08 16:07:18.28	211.40	8.26	-26.6	-27.1	13.4	2.86e-05	0	41	0	115343360	14	3809
2026-01-08 16:07:19.28	211.50	8.33	-26.4	-26.7	13.6	8.00e-06	0	41	0	122683392	14	3711
2026-01-08 16:07:20.28	211.59	8.40	-26.4	-27.1	13.6	1.14e-05	0	41	0	130023424	13	3923
2026-01-08 16:07:21.29	211.69	8.47	-26.6	-27.5	13.4	1.02e-05	0	41	0	137363456	13	4026
2026-01-08 16:07:22.29	211.79	8.53	-26.5	-27.4	13.5	1.60e-05	0	41	0	144703488	13	3985
2026-01-08 16:07:23.30	211.89	8.60	-26.3	-27.0	13.7	2.20e-06	0	41	0	152043520	13	3890
2026-01-08 16:07:24.30	211.99	8.67	-26.4	-27.1	13.7	8.00e-06	0	41	0	159383552	13	3911
2026-01-08 16:07:25.31	212.09	8.74	-26.3	-27.0	13.7	9.10e-06	0	41	0	166723584	13	3894
2026-01-08 16:07:26.32	212.19	8.81	-26.3	-26.9	13.8	6.80e-06	0	41	0	174063616	13	3876
2026-01-08 16:07:27.32	212.29	8.87	-26.3	-27.0	13.8	6.80e-06	0	41	0	181403648	13	3875
2026-01-08 16:07:28.33	212.40	8.94	-26.3	-27.0	13.8	5.70e-06	0	41	0	188743680	13	3898
2026-01-08 16:07:29.33	212.50	9.01	-26.4	-27.3	13.6	1.14e-05	0	41	0	195035136	13	3957
2026-01-08 16:07:30.34	212.60	9.08	-26.5	-27.5	13.5	1.94e-05	0	41	0	203423744	13	4014
2026-01-08 16:07:31.34	212.70	9.15	-26.4	-27.2	13.6	9.10e-06	0	41	0	210763776	13	3947
2026-01-08 16:07:32.35	212.81	9.22	-26.5	-27.4	13.6	2.17e-05	0	41	0	217055232	13	3985
2026-01-08 16:07:33.36	212.91	9.29	-26.4	-27.1	13.7	3.40e-06	0	41	0	224395264	13	3916
2026-01-08 16:07:34.36	213.02	9.35	-26.2	-26.8	13.9	8.00e-06	0	42	0	231735296	13	3847
2026-01-08 16:07:35.37	213.12	9.42	-26.3	-26.9	13.9	2.20e-06	0	41	0	239075328	13	3854
2026-01-08 16:07:36.37	213.23	9.49	-26.4	-27.1	13.8	1.02e-05	0	42	0	246415360	13	3908
2026-01-08 16:07:37.38	213.34	9.56	-26.3	-26.9	13.9	4.50e-06	0	42	0	253755392	13	3872
2026-01-08 16:07:38.39	213.44	9.63	-26.3	-26.9	13.9	5.70e-06	0	42	0	261095424	13	3863
2026-01-08 16:07:39.40	213.55	9.70	-26.2	-26.8	14.0	4.50e-06	0	42	0	268435456	13	3839
2026-01-08 16:07:40.40	213.66	9.77	-26.3	-26.9	13.9	1.10e-06	0	42	0	275775488	13	3860
2026-01-08 16:07:41.41	213.77	9.84	-26.3	-26.9	13.9	2.20e-06	0	42	0	283115520	13	3874
2026-01-08 16:07:42.42	213.87	9.91	-26.3	-27.0	13.8	4.50e-06	0	42	0	290455552	13	3905
2026-01-08 16:07:43.43	213.98	9.98	-26.3	-26.9	13.9	2.20e-06	0	42	0	296747008	13	3871
2026-01-08 16:07:44.43	214.09	10.05	-26.3	-27.0	13.9	6.80e-06	0	42	0	304087040	13	3891
2026-01-08 16:07:45.44	214.20	10.12	-26.3	-26.9	13.9	5.70e-06	0	42	0	312475648	13	3862
2026-01-08 16:07:46.44	214.31	10.19	-26.1	-26.5	14.1	3.40e-06	0	42	0	318767104	13	3761
2026-01-08 16:07:47.45	214.43	10.26	-26.1	-26.5	14.2	2.20e-06	0	42	0	326107136	13	3775
2026-01-08 16:07:48.45	214.54	10.33	-26.2	-26.6	14.1	1.10e-06	0	42	0	333447168	13	3795
2026-01-08 16:07:49.46	214.65	10.40	-26.1	-26.5	14.2	2.20e-06	0	42	0	340787200	13	3763
2026-01-08 16:07:50.46	214.76	10.47	-26.0	-26.2	14.4	0.00e+00	0	42	0	348127232	13	3688
2026-01-08 16:07:51.47	214.87	10.54	-26.0	-26.3	14.3	0.00e+00	0	42	0	355467264	13	3724
2026-01-08 16:07:52.48	214.99	10.61	-26.0	-26.2	14.3	0.00e+00	0	42	0	362807296	13	3696
2026-01-08 16:07:53.48	215.10	10.68	-25.9	-26.1	14.4	1.10e-06	0	42	0	370147328	13	3663
2026-01-08 16:07:54.49	215.22	10.76	-26.0	-26.3	14.3	2.20e-06	0	42	0	377487360	13	3720
2026-01-08 16:07:55.50	215.33	10.83	-26.0	-26.3	14.3	1.10e-06	0	42	0	384827392	13	3708
2026-01-08 16:07:56.50	215.45	10.90	-26.0	-26.2	14.4	2.20e-06	0	42	0	392167424	13	3691
2026-01-08 16:07:57.51	215.57	10.97	-26.0	-26.2	14.4	1.10e-06	0	42	0	399507456	13	3697
2026-01-08 16:07:58.51	215.68	11.04	-26.0	-26.3	14.3	1.10e-06	0	42	0	405798912	13	3725
2026-01-08 16:07:59.52	215.80	11.11	-26.0	-26.2	14.4	0.00e+00	0	42	0	413138944	13	3692
2026-01-08 16:08:00.52	215.92	11.18	-26.0	-26.2	14.4	1.10e-06	0	42	0	420478976	13	3695
2026-01-08 16:08:01.53	216.04	11.26	-26.0	-26.2	14.4	0.00e+00	0	42	0	427819008	13	3686
2026-01-08 16:08:02.54	216.16	11.33	-26.0	-26.2	14.4	1.10e-06	0	42	0	435159040	13	3701
2026-01-08 16:08:03.55	216.28	11.40	-26.1	-26.6	14.2	1.10e-06	0	42	0	442499072	13	3778
2026-01-08 16:08:04.54	216.40	11.47	-26.1	-26.5	14.2	2.20e-06	0	42	0	449839104	13	3769
2026-01-08 16:08:05.55	216.52	11.54	-26.0	-26.2	14.5	1.10e-06	0	42	0	457179136	13	3683
2026-01-08 16:08:06.56	216.64	11.62	-25.9	-26.0	14.6	1.10e-06	0	42	0	464519168	13	3630
2026-01-08 16:08:07.56	216.76	11.69	-25.8	-26.4	14.6	1.10e-06	0	42	0	471859200	12	3829
2026-01-08 16:08:08.56	216.88	11.76	-26.0	-26.6	14.5	0.00e+00	0	42	0	479199232	12	3883
2026-01-08 16:08:09.57	217.01	11.83	-25.9	-26.5	14.5	2.20e-06	0	42	0	486539264	12	3850
2026-01-08 16:08:10.58	217.13	11.91	-25.8	-26.2	14.7	1.10e-06	0	42	0	492830720	12	3789
2026-01-08 16:08:11.59	217.26	11.98	-25.8	-26.2	14.7	0.00e+00	0	42	0	500170752	12	3794
2026-01-08 16:08:12.59	217.38	12.05	-25.8	-26.3	14.7	0.00e+00	0	42	0	508559360	12	3799
2026-01-08 16:08:13.60	217.51	12.13	-25.8	-26.2	14.7	1.10e-06	0	42	0	514850816	12	3783
2026-01-08 16:08:14.61	217.63	12.20	-25.9	-26.5	14.6	0.00e+00	0	42	0	522190848	12	3861
2026-01-08 16:08:15.61	217.76	12.27	-26.0	-26.7	14.4	0.00e+00	0	42	0	529530880	12	3915
2026-01-08 16:08:16.61	217.89	12.35	-25.9	-26.6	14.5	0.00e+00	0	42	0	536870912	12	3880
2026-01-08 16:08:17.62	218.02	12.42	-26.0	-26.6	14.5	0.00e+00	0	42	0	544210944	12	3891
2026-01-08 16:08:18.63	218.14	12.49	-26.1	-26.9	14.4	0.00e+00	0	42	0	551550976	12	3947
2026-01-08 16:08:19.64	218.27	12.57	-26.0	-26.8	14.4	1.10e-06	0	42	0	558891008	12	3920
2026-01-08 16:08:20.64	218.40	12.64	-25.9	-26.4	14.6	1.10e-06	0	42	0	566231040	12	3837
2026-01-08 16:08:21.65	218.53	12.71	-25.8	-26.3	14.7	0.00e+00	0	42	0	573571072	12	3810
2026-01-08 16:08:22.65	218.67	12.79	-25.9	-26.6	14.5	1.10e-06	0	42	0	580911104	12	3873
2026-01-08 16:08:23.66	218.80	12.86	-25.8	-26.3	14.7	0.00e+00	0	42	0	588251136	12	3804
2026-01-08 16:08:24.66	218.93	12.94	-25.7	-26.0	14.9	1.10e-06	0	42	0	594542592	12	3738
2026-01-08 16:08:25.66	219.06	13.01	-25.8	-26.3	14.8	0.00e+00	0	42	0	601882624	12	3801
2026-01-08 16:08:26.67	219.20	13.08	-25.8	-26.3	14.7	0.00e+00	0	42	0	609222656	12	3819
2026-01-08 16:08:27.68	219.33	13.16	-25.8	-26.4	14.7	1.10e-06	0	42	0	616562688	12	3823
2026-01-08 16:08:28.68	219.47	13.23	-25.8	-26.4	14.7	1.10e-06	0	42	0	623902720	12	3828
2026-01-08 16:08:29.69	219.60	13.31	-25.8	-26.2	14.8	0.00e+00	0	42	0	631242752	12	3784
2026-01-08 16:08:30.70	219.74	13.38	-25.8	-26.3	14.8	0.00e+00	0	42	0	638582784	12	3803
2026-01-08 16:08:31.70	219.88	13.46	-25.9	-26.5	14.6	0.00e+00	0	43	0	645922816	12	3863
2026-01-08 16:08:32.71	220.01	13.53	-25.8	-26.3	14.8	0.00e+00	0	43	0	653262848	12	3812
2026-01-08 16:08:33.72	220.15	13.61	-25.6	-25.9	15.0	0.00e+00	0	42	0	660602880	12	3709
2026-01-08 16:08:34.73	220.29	13.68	-25.5	-25.7	15.1	0.00e+00	0	43	0	667942912	12	3662
2026-01-08 16:08:35.73	220.43	13.76	-25.5	-25.7	15.1	0.00e+00	0	42	0	675282944	12	3657
2026-01-08 16:08:36.74	220.57	13.83	-25.6	-25.8	15.0	0.00e+00	0	42	0	682622976	12	3688
2026-01-08 16:08:37.75	220.71	13.91	-25.5	-25.7	15.1	0.00e+00	0	42	0	689963008	12	3661
2026-01-08 16:08:38.76	220.86	13.98	-25.5	-25.7	15.1	0.00e+00	0	43	0	697303040	12	3667
2026-01-08 16:08:39.77	221.00	14.06	-25.5	-25.7	15.2	0.00e+00	0	42	0	703594496	12	3660
2026-01-08 16:08:40.78	221.14	14.13	-25.5	-25.6	15.2	0.00e+00	0	42	0	710934528	12	3642
2026-01-08 16:08:41.79	221.29	14.21	-25.6	-25.9	15.0	1.10e-06	0	42	0	719323136	12	3722
2026-01-08 16:08:42.79	221.43	14.28	-25.5	-25.5	15.3	0.00e+00	0	42	0	725614592	12	3618
2026-01-08 16:08:43.80	221.58	14.36	-25.6	-25.8	15.1	0.00e+00	0	43	0	732954624	12	3678
2026-01-08 16:08:44.80	221.72	14.43	-24.9	-25.2	15.4	0.00e+00	0	43	0	740294656	11	3764
2026-01-08 16:08:45.80	221.87	14.51	-25.5	-26.0	15.4	0.00e+00	0	43	0	747634688	11	3829
2026-01-08 16:08:46.81	222.02	14.59	-25.4	-25.8	15.5	0.00e+00	0	43	0	754974720	11	3779
2026-01-08 16:08:47.82	222.17	14.66	-25.2	-25.5	15.6	0.00e+00	0	43	0	762314752	11	3714
2026-01-08 16:08:48.82	222.32	14.74	-25.2	-25.5	15.6	0.00e+00	0	43	0	769654784	11	3717
2026-01-08 16:08:49.84	222.47	14.81	-25.2	-25.4	15.7	0.00e+00	0	43	0	776994816	11	3689
2026-01-08 16:08:50.84	222.62	14.89	-25.1	-25.3	15.8	0.00e+00	0	43	0	784334848	11	3657
2026-01-08 16:08:51.85	222.77	14.97	-25.1	-25.1	15.8	0.00e+00	0	43	0	791674880	11	3622
2026-01-08 16:08:52.85	222.92	15.04	-25.2	-25.4	15.7	0.00e+00	0	43	0	799014912	11	3684
2026-01-08 16:08:53.86	223.07	15.12	-25.0	-25.1	15.9	0.00e+00	0	43	0	805306368	11	3624
2026-01-08 16:08:54.87	223.23	15.19	-24.9	-24.9	16.0	0.00e+00	0	42	0	812646400	11	3566
2026-01-08 16:08:55.88	223.38	15.27	-25.0	-25.1	15.9	0.00e+00	0	43	0	819986432	11	3612
2026-01-08 16:08:56.89	223.54	15.35	-24.8	-25.1	16.1	0.00e+00	0	43	0	827326464	10	3719
2026-01-08 16:08:57.89	223.69	15.42	-24.8	-25.0	16.2	0.00e+00	0	43	0	834666496	10	3689
2026-01-08 16:08:58.90	223.85	15.50	-24.9	-25.3	16.0	0.00e+00	0	43	0	842006528	10	3761
2026-01-08 16:08:59.91	224.01	15.58	-24.8	-25.0	16.2	0.00e+00	0	43	0	849346560	10	3682
2026-01-08 16:09:00.92	224.17	15.65	-24.8	-25.0	16.2	0.00e+00	0	43	0	856686592	10	3687
2026-01-08 16:09:01.92	224.33	15.73	-24.8	-25.1	16.2	0.00e+00	0	43	0	864026624	10	3718
2026-01-08 16:09:02.93	224.49	15.81	-24.8	-25.2	16.2	0.00e+00	0	42	0	871366656	10	3730
2026-01-08 16:09:03.94	224.65	15.88	-25.0	-25.4	16.0	0.00e+00	0	43	0	878706688	10	3783
2026-01-08 16:09:04.95	224.81	15.96	-25.0	-25.4	16.0	0.00e+00	0	43	0	886046720	10	3788
2026-01-08 16:09:05.95	224.97	16.04	-25.1	-25.6	15.9	0.00e+00	0	43	0	893386752	10	3832
2026-01-08 16:09:06.96	225.13	16.11	-25.3	-26.0	15.7	0.00e+00	0	43	0	900726784	10	3939
2026-01-08 16:09:07.97	225.30	16.19	-25.0	-25.4	16.0	0.00e+00	0	43	0	908066816	10	3797
2026-01-08 16:09:08.98	225.46	16.27	-24.8	-25.0	16.2	0.00e+00	0	43	0	914358272	10	3703
2026-01-08 16:09:09.99	225.63	16.34	-24.7	-24.8	16.3	0.00e+00	0	43	0	921698304	10	3653
2026-01-08 16:09:10.99	225.80	16.42	-24.7	-24.9	16.3	0.00e+00	0	43	0	930086912	10	3677
2026-01-08 16:09:11.99	225.96	16.50	-24.9	-25.2	16.2	0.00e+00	0	43	0	936378368	10	3741
2026-01-08 16:09:13.00	226.13	16.57	-24.6	-24.6	16.5	0.00e+00	0	43	0	943718400	10	3607
2026-01-08 16:09:14.00	226.30	16.65	-24.6	-24.6	16.5	0.00e+00	0	43	0	951058432	10	3612
2026-01-08 16:09:15.01	226.47	16.73	-24.6	-24.7	16.4	0.00e+00	0	43	0	958398464	10	3622
2026-01-08 16:09:16.02	226.64	16.80	-24.5	-24.4	16.6	0.00e+00	0	43	0	965738496	10	3563
2026-01-08 16:09:17.03	226.81	16.88	-24.5	-24.4	16.6	0.00e+00	0	43	0	973078528	10	3552
2026-01-08 16:09:18.03	226.98	16.96	-24.6	-24.5	16.6	0.00e+00	0	43	0	980418560	10	3581
2026-01-08 16:09:19.04	227.16	17.03	-24.3	-24.5	16.8	0.00e+00	0	43	0	987758592	9	3673
2026-01-08 16:09:20.04	227.33	17.11	-24.2	-24.2	17.0	0.00e+00	0	43	0	995098624	9	3616
2026-01-08 16:09:21.04	227.50	17.19	-24.1	-24.1	17.0	0.00e+00	0	43	0	1002438656	9	3588
2026-01-08 16:09:22.04	227.68	17.26	-24.3	-24.5	16.8	0.00e+00	0	43	0	1009778688	9	3681
2026-01-08 16:09:23.05	227.85	17.34	-24.2	-24.3	17.0	0.00e+00	0	43	0	1017118720	9	3625
2026-01-08 16:09:24.06	228.03	17.42	-24.2	-24.3	16.9	0.00e+00	0	43	0	1023410176	9	3633
2026-01-08 16:09:25.07	228.21	17.49	-24.3	-24.5	16.8	0.00e+00	0	43	0	1030750208	9	3672
2026-01-08 16:09:26.07	228.39	17.57	-24.4	-24.6	16.8	0.00e+00	0	43	0	1038090240	9	3703
2026-01-08 16:09:27.08	228.57	17.65	-24.4	-24.6	16.8	0.00e+00	0	43	0	1045430272	9	3708
2026-01-08 16:09:28.09	228.75	17.72	-24.5	-24.9	16.6	0.00e+00	0	43	0	1052770304	9	3768
2026-01-08 16:09:29.09	228.93	17.80	-24.4	-24.7	16.7	0.00e+00	0	43	0	1060110336	9	3732
2026-01-08 16:09:30.10	229.12	17.87	-24.4	-24.7	16.8	0.00e+00	0	43	0	1067450368	9	3727
2026-01-08 16:09:31.10	229.30	17.95	-24.5	-25.0	16.6	0.00e+00	0	43	0	1074790400	9	3788
2026-01-08 16:09:32.11	229.48	18.03	-24.4	-24.8	16.7	0.00e+00	0	43	0	1082130432	9	3735
2026-01-08 16:09:33.11	229.67	18.10	-24.5	-25.0	16.6	0.00e+00	0	43	0	1089470464	9	3793
2026-01-08 16:09:34.12	229.85	18.18	-24.5	-24.8	16.7	0.00e+00	0	43	0	1096810496	9	3747
2026-01-08 16:09:35.13	230.04	18.26	-24.5	-24.8	16.7	0.00e+00	0	43	0	1103101952	9	3758
2026-01-08 16:09:36.13	230.23	18.33	-24.5	-24.9	16.6	0.00e+00	0	43	0	1110441984	9	3773
2026-01-08 16:09:37.14	230.42	18.41	-24.5	-24.9	16.7	0.00e+00	0	43	0	1118830592	9	3763
2026-01-08 16:09:38.15	230.61	18.48	-24.4	-24.7	16.8	0.00e+00	0	43	0	1125122048	9	3737
2026-01-08 16:09:39.15	230.80	18.56	-24.5	-25.0	16.6	0.00e+00	0	43	0	1132462080	9	3784
2026-01-08 16:09:40.15	230.99	18.64	-24.7	-25.4	16.4	0.00e+00	0	43	0	1139802112	9	3883
2026-01-08 16:09:41.16	231.18	18.71	-24.3	-24.5	16.9	0.00e+00	0	43	0	1147142144	9	3687
2026-01-08 16:09:42.16	231.38	18.79	-24.1	-24.0	17.1	0.00e+00	0	43	0	1154482176	9	3567
2026-01-08 16:09:43.17	231.57	18.86	-24.1	-24.0	17.2	0.00e+00	0	43	0	1161822208	9	3557
2026-01-08 16:09:44.18	231.77	18.94	-24.0	-23.9	17.2	0.00e+00	0	43	0	1169162240	9	3540
2026-01-08 16:09:45.19	231.96	19.01	-24.0	-23.9	17.2	0.00e+00	0	43	0	1176502272	9	3532
2026-01-08 16:09:46.19	232.16	19.09	-24.1	-24.0	17.2	0.00e+00	0	43	0	1183842304	9	3563
2026-01-08 16:09:47.19	232.36	19.16	-24.3	-24.5	16.9	0.00e+00	0	43	0	1191182336	9	3680
2026-01-08 16:09:48.20	232.56	19.24	-24.2	-24.2	17.1	0.00e+00	0	43	0	1198522368	9	3603
2026-01-08 16:09:49.21	232.76	19.31	-24.2	-24.1	17.1	0.00e+00	0	43	0	1205862400	9	3599
2026-01-08 16:09:50.21	232.96	19.39	-24.3	-24.4	17.0	0.00e+00	0	43	0	1212153856	9	3643
2026-01-08 16:09:51.21	233.16	19.46	-24.2	-24.2	17.0	0.00e+00	0	43	0	1219493888	9	3621
2026-01-08 16:09:52.22	233.36	19.54	-24.2	-24.2	17.0	0.00e+00	0	43	0	1226833920	9	3619
2026-01-08 16:09:53.22	233.57	19.61	-24.0	-23.9	17.2	0.00e+00	0	43	0	1234173952	9	3547
2026-01-08 16:09:54.23	233.77	19.69	-24.2	-24.2	17.1	0.00e+00	0	43	0	1241513984	9	3607
2026-01-08 16:09:55.23	233.98	19.76	-24.2	-24.2	17.1	0.00e+00	0	43	0	1248854016	9	3615
2026-01-08 16:09:56.25	234.19	19.83	-24.1	-24.0	17.2	0.00e+00	0	43	0	1256194048	9	3561
2026-01-08 16:09:57.25	234.39	19.91	-24.1	-24.0	17.2	0.00e+00	0	43	0	1263534080	9	3566
2026-01-08 16:09:58.26	234.60	19.98	-24.1	-24.1	17.2	0.00e+00	0	43	0	1270874112	9	3595
2026-01-08 16:09:59.27	234.81	20.06	-24.2	-24.3	17.0	0.00e+00	0	43	0	1278214144	9	3621
2026-01-08 16:10:00.26	235.02	20.13	-24.0	-23.9	17.3	0.00e+00	0	43	0	1285554176	9	3534
2026-01-08 16:10:01.26	235.23	20.20	-24.0	-23.7	17.4	0.00e+00	0	43	0	1291845632	9	3507
2026-01-08 16:10:02.26	235.44	20.27	-24.0	-23.8	17.3	0.00e+00	0	43	0	1299185664	9	3521
2026-01-08 16:10:03.27	235.66	20.35	-24.0	-23.8	17.3	0.00e+00	0	43	0	1306525696	9	3527
2026-01-08 16:10:04.28	235.87	20.42	-24.0	-23.9	17.3	0.00e+00	0	43	0	1313865728	9	3540
2026-01-08 16:10:05.29	236.09	20.49	-24.0	-23.9	17.3	0.00e+00	0	43	0	1321205760	9	3541
2026-01-08 16:10:06.29	236.31	20.56	-24.0	-23.8	17.3	0.00e+00	0	43	0	1328545792	9	3532
2026-01-08 16:10:07.29	236.52	20.64	-23.9	-23.7	17.4	0.00e+00	0	43	0	1335885824	9	3505
2026-01-08 16:10:08.29	236.74	20.71	-24.0	-23.9	17.3	0.00e+00	0	43	0	1343225856	9	3534
2026-01-08 16:10:09.30	236.96	20.78	-24.1	-24.1	17.2	0.00e+00	0	43	0	1350565888	9	3587
2026-01-08 16:10:10.30	237.18	20.85	-23.9	-24.1	17.4	0.00e+00	0	43	0	1357905920	8	3689
2026-01-08 16:10:11.31	237.40	20.92	-24.1	-24.4	17.3	0.00e+00	0	43	0	1365245952	8	3763
2026-01-08 16:10:12.32	237.63	20.99	-23.9	-24.0	17.5	0.00e+00	0	43	0	1372585984	8	3669
2026-01-08 16:10:13.32	237.85	21.06	-23.9	-24.0	17.5	0.00e+00	0	43	0	1378877440	8	3666
2026-01-08 16:10:14.32	238.07	21.13	-24.0	-24.2	17.3	0.00e+00	0	43	0	1386217472	8	3718
2026-01-08 16:10:15.33	238.30	21.20	-24.0	-24.3	17.3	0.00e+00	0	43	0	1393557504	8	3739
2026-01-08 16:10:16.33	238.52	21.27	-24.1	-24.6	17.2	0.00e+00	0	43	0	1400897536	8	3798
2026-01-08 16:10:17.34	238.75	21.34	-24.2	-24.7	17.1	0.00e+00	0	43	0	1408237568	8	3833
2026-01-08 16:10:18.35	238.98	21.41	-24.2	-24.7	17.1	4.50e-06	0	43	0	1415577600	8	3822
2026-01-08 16:10:19.35	239.21	21.48	-24.3	-24.9	17.0	0.00e+00	0	43	0	1422917632	8	3868
2026-01-08 16:10:20.35	239.44	21.55	-24.1	-24.6	17.2	0.00e+00	0	43	0	1430257664	8	3794
2026-01-08 16:10:21.36	239.67	21.62	-23.9	-24.1	17.4	1.10e-06	0	43	0	1437597696	8	3692
2026-01-08 16:10:22.36	239.91	21.69	-23.9	-24.1	17.5	0.00e+00	0	43	0	1444937728	8	3678
2026-01-08 16:10:23.37	240.14	21.76	-23.9	-24.0	17.5	0.00e+00	0	43	0	1452277760	8	3662
2026-01-08 16:10:24.38	240.38	21.83	-23.9	-24.2	17.4	2.20e-06	0	43	0	1459617792	8	3712
2026-01-08 16:10:25.39	240.61	21.89	-24.0	-24.3	17.3	0.00e+00	0	43	0	1466957824	8	3743
2026-01-08 16:10:26.39	240.85	21.96	-23.8	-24.0	17.5	0.00e+00	0	43	0	1474297856	8	3667
2026-01-08 16:10:27.40	241.09	22.03	-23.8	-23.8	17.6	0.00e+00	0	43	0	1481637888	8	3630
2026-01-08 16:10:28.40	241.32	22.09	-23.8	-23.8	17.6	0.00e+00	0	43	0	1487929344	8	3617
2026-01-08 16:10:29.41	241.56	22.16	-23.8	-23.8	17.6	0.00e+00	0	43	0	1495269376	8	3626
2026-01-08 16:10:30.42	241.81	22.23	-23.7	-23.6	17.7	0.00e+00	0	43	0	1502609408	8	3583
2026-01-08 16:10:31.43	242.05	22.29	-23.6	-23.4	17.8	0.00e+00	0	43	0	1509949440	8	3540
2026-01-08 16:10:32.43	242.29	22.36	-23.5	-23.3	17.9	0.00e+00	0	43	0	1517289472	8	3513
2026-01-08 16:10:33.44	242.54	22.42	-23.5	-23.4	17.8	0.00e+00	0	43	0	1524629504	8	3520
2026-01-08 16:10:34.45	242.78	22.49	-23.6	-23.4	17.8	0.00e+00	0	43	0	1531969536	8	3525
2026-01-08 16:10:35.45	243.03	22.55	-23.3	-23.3	18.1	0.00e+00	0	43	0	1539309568	7	3615
2026-01-08 16:10:36.45	243.27	22.61	-23.4	-23.5	18.0	0.00e+00	0	43	0	1546649600	7	3652
2026-01-08 16:10:37.46	243.52	22.68	-23.5	-23.7	17.9	0.00e+00	0	43	0	1553989632	7	3705
2026-01-08 16:10:38.47	243.77	22.74	-23.5	-23.8	17.8	0.00e+00	0	43	0	1561329664	7	3729
2026-01-08 16:10:39.48	244.02	22.80	-23.5	-23.8	17.9	0.00e+00	0	43	0	1567621120	7	3711
2026-01-08 16:10:40.49	244.27	22.87	-23.5	-23.8	17.8	0.00e+00	0	43	0	1576009728	7	3726
2026-01-08 16:10:41.49	244.52	22.93	-23.5	-23.7	17.9	0.00e+00	0	43	0	1583349760	7	3697
2026-01-08 16:10:42.50	244.78	22.99	-23.4	-23.6	18.0	0.00e+00	0	43	0	1589641216	7	3682
2026-01-08 16:10:43.51	245.03	23.05	-23.6	-23.9	17.8	0.00e+00	0	43	0	1596981248	7	3750
2026-01-08 16:10:44.51	245.28	23.11	-23.6	-23.9	17.8	0.00e+00	0	43	0	1604321280	7	3745
2026-01-08 16:10:45.52	245.54	23.17	-23.5	-23.7	17.9	0.00e+00	0	43	0	1611661312	7	3705
2026-01-08 16:10:46.52	245.79	23.23	-23.6	-23.9	17.8	0.00e+00	0	43	0	1619001344	7	3747
2026-01-08 16:10:47.53	246.05	23.29	-23.6	-24.0	17.8	0.00e+00	0	43	0	1626341376	7	3763
2026-01-08 16:10:48.54	246.31	23.35	-23.5	-23.9	17.8	0.00e+00	0	43	0	1633681408	7	3739
2026-01-08 16:10:49.54	246.57	23.41	-23.6	-23.9	17.8	0.00e+00	0	43	0	1641021440	7	3741
2026-01-08 16:10:50.54	246.83	23.46	-23.5	-23.8	17.8	0.00e+00	0	43	0	1648361472	7	3725
2026-01-08 16:10:51.54	247.09	23.52	-23.5	-23.8	17.8	0.00e+00	0	43	0	1655701504	7	3730
2026-01-08 16:10:52.54	247.35	23.58	-23.4	-23.6	18.0	0.00e+00	0	43	0	1663041536	7	3683
2026-01-08 16:10:53.55	247.61	23.63	-23.5	-23.7	17.9	0.00e+00	0	43	0	1670381568	7	3698
2026-01-08 16:10:54.55	247.88	23.69	-23.5	-23.8	17.9	0.00e+00	0	43	0	1676673024	7	3707
2026-01-08 16:10:55.56	248.14	23.75	-23.4	-23.5	18.0	0.00e+00	0	43	0	1684013056	7	3658
2026-01-08 16:10:56.57	248.41	23.80	-23.4	-23.5	18.0	0.00e+00	0	43	0	1691353088	7	3651
2026-01-08 16:10:57.58	248.68	23.85	-23.4	-23.6	18.0	0.00e+00	0	43	0	1698693120	7	3684
2026-01-08 16:10:58.59	248.94	23.91	-23.4	-23.5	18.0	0.00e+00	0	43	0	1706033152	7	3641
2026-01-08 16:10:59.59	249.21	23.96	-23.3	-23.4	18.1	0.00e+00	0	43	0	1713373184	7	3621
2026-01-08 16:11:00.60	249.48	24.01	-23.2	-23.2	18.2	0.00e+00	0	43	0	1720713216	7	3589
2026-01-08 16:11:01.61	249.75	24.07	-23.3	-23.2	18.2	0.00e+00	0	43	0	1728053248	7	3595
2026-01-08 16:11:02.61	250.02	24.12	-23.4	-23.6	18.0	0.00e+00	0	43	0	1735393280	7	3673
2026-01-08 16:11:03.62	250.30	24.17	-23.5	-23.7	17.9	0.00e+00	0	43	0	1742733312	7	3699
2026-01-08 16:11:04.63	250.57	24.22	-23.4	-23.6	18.0	0.00e+00	0	43	0	1750073344	7	3681
2026-01-08 16:11:05.63	250.84	24.27	-23.6	-23.9	17.8	0.00e+00	0	43	0	1756364800	7	3745
2026-01-08 16:11:06.64	251.12	24.32	-23.6	-23.9	17.8	0.00e+00	0	43	0	1764753408	7	3744
2026-01-08 16:11:07.65	251.39	24.37	-23.5	-23.7	17.9	0.00e+00	0	43	0	1772093440	7	3701
2026-01-08 16:11:08.66	251.67	24.42	-23.5	-23.6	17.9	0.00e+00	0	43	0	1778384896	7	3682
2026-01-08 16:11:09.66	251.95	24.46	-23.5	-23.8	17.9	0.00e+00	0	43	0	1785724928	7	3714
2026-01-08 16:11:10.67	252.22	24.51	-23.3	-23.4	18.1	0.00e+00	0	43	0	1793064960	7	3631
2026-01-08 16:11:11.66	252.50	24.56	-23.5	-23.7	18.0	0.00e+00	0	43	0	1800404992	7	3683
2026-01-08 16:11:12.67	252.78	24.60	-23.4	-23.5	18.0	0.00e+00	0	43	0	1807745024	7	3648
2026-01-08 16:11:13.68	253.06	24.65	-23.1	-22.9	18.4	0.00e+00	0	43	0	1815085056	7	3515
2026-01-08 16:11:14.68	253.34	24.69	-23.0	-23.2	18.5	0.00e+00	0	43	0	1822425088	6	3691
2026-01-08 16:11:15.69	253.62	24.74	-23.1	-23.5	18.3	0.00e+00	0	43	0	1829765120	6	3748
2026-01-08 16:11:16.68	253.90	24.78	-23.2	-23.7	18.2	0.00e+00	0	43	0	1837105152	6	3806
2026-01-08 16:11:17.69	254.19	24.82	-23.4	-24.0	18.0	0.00e+00	0	43	0	1844445184	6	3878
2026-01-08 16:11:18.70	254.47	24.86	-23.4	-24.0	18.1	0.00e+00	0	43	0	1851785216	6	3870
2026-01-08 16:11:19.69	254.75	24.90	-23.2	-23.6	18.2	0.00e+00	0	43	0	1859125248	6	3786
2026-01-08 16:11:20.70	255.04	24.94	-23.1	-23.4	18.4	0.00e+00	0	43	0	1865416704	6	3721
2026-01-08 16:11:21.71	255.32	24.98	-23.2	-23.5	18.3	0.00e+00	0	43	0	1872756736	6	3760
2026-01-08 16:11:22.71	255.61	25.02	-23.1	-23.4	18.4	0.00e+00	0	43	0	1880096768	6	3724
2026-01-08 16:11:23.72	255.90	25.06	-23.0	-23.2	18.5	0.00e+00	0	43	0	1887436800	6	3677
2026-01-08 16:11:24.73	256.19	25.10	-23.0	-23.2	18.5	0.00e+00	0	43	0	1894776832	6	3691
2026-01-08 16:11:25.73	256.47	25.14	-23.2	-23.6	18.3	0.00e+00	0	43	0	1902116864	6	3767
2026-01-08 16:11:26.74	256.77	25.17	-23.3	-23.7	18.2	0.00e+00	0	43	0	1909456896	6	3810
2026-01-08 16:11:27.75	257.06	25.21	-23.2	-23.6	18.3	0.00e+00	0	43	0	1916796928	6	3784
2026-01-08 16:11:28.75	257.35	25.24	-23.1	-23.4	18.3	0.00e+00	0	43	0	1924136960	6	3742
2026-01-08 16:11:29.75	257.64	25.28	-23.1	-23.4	18.4	0.00e+00	0	43	0	1931476992	6	3725
2026-01-08 16:11:30.76	257.93	25.31	-23.0	-23.1	18.5	0.00e+00	0	43	0	1938817024	6	3658
2026-01-08 16:11:31.76	258.22	25.34	-22.9	-23.0	18.6	0.00e+00	0	43	0	1946157056	6	3645
2026-01-08 16:11:32.78	258.52	25.38	-23.0	-23.3	18.4	0.00e+00	0	43	0	1952448512	6	3697
2026-01-08 16:11:33.78	258.81	25.41	-23.1	-23.4	18.4	0.00e+00	0	43	0	1959788544	6	3736
2026-01-08 16:11:34.78	259.10	25.44	-23.2	-23.6	18.3	0.00e+00	0	43	0	1967128576	6	3772
2026-01-08 16:11:35.79	259.40	25.47	-23.2	-23.6	18.3	0.00e+00	0	43	0	1974468608	6	3787
2026-01-08 16:11:36.80	259.69	25.50	-23.2	-23.7	18.3	0.00e+00	0	43	0	1981808640	6	3790
2026-01-08 16:11:37.80	259.99	25.52	-23.2	-23.7	18.2	0.00e+00	0	43	0	1989148672	6	3805
2026-01-08 16:11:38.81	260.29	25.55	-23.2	-23.6	18.3	0.00e+00	0	43	0	1996488704	6	3771
2026-01-08 16:11:39.82	260.58	25.58	-23.4	-24.1	18.0	0.00e+00	0	43	0	2003828736	6	3894
2026-01-08 16:11:40.83	260.88	25.60	-23.4	-24.0	18.1	0.00e+00	0	43	0	2011168768	6	3858
2026-01-08 16:11:41.83	261.18	25.63	-23.3	-23.9	18.2	0.00e+00	0	43	0	2018508800	6	3831
2026-01-08 16:11:42.84	261.48	25.65	-23.2	-23.6	18.3	0.00e+00	0	43	0	2025848832	6	3784
2026-01-08 16:11:43.85	261.78	25.68	-23.2	-23.6	18.3	0.00e+00	0	43	0	2033188864	6	3787
2026-01-08 16:11:44.85	262.07	25.70	-23.1	-23.4	18.4	0.00e+00	0	43	0	2040528896	6	3723
2026-01-08 16:11:45.86	262.38	25.72	-22.9	-23.1	18.5	0.00e+00	0	43	0	2047868928	6	3652
2026-01-08 16:11:46.86	262.67	25.74	-23.1	-23.3	18.4	0.00e+00	0	43	0	2054160384	6	3715
2026-01-08 16:11:47.86	262.97	25.76	-23.0	-23.1	18.5	0.00e+00	0	43	0	2061500416	6	3665
2026-01-08 16:11:48.87	263.27	25.78	-23.0	-23.2	18.5	0.00e+00	0	43	0	2068840448	6	3689
2026-01-08 16:11:49.88	263.58	25.80	-23.0	-23.3	18.5	0.00e+00	0	43	0	2076180480	6	3707
2026-01-08 16:11:50.88	263.88	25.82	-23.0	-23.2	18.5	0.00e+00	0	43	0	2083520512	6	3677
2026-01-08 16:11:51.88	264.18	25.84	-23.0	-23.2	18.5	0.00e+00	0	43	0	2090860544	6	3690
2026-01-08 16:11:52.89	264.48	25.85	-23.0	-23.1	18.5	0.00e+00	0	43	0	2098200576	6	3671
2026-01-08 16:11:53.89	264.78	25.87	-23.0	-23.1	18.5	0.00e+00	0	43	0	2105540608	6	3668
2026-01-08 16:11:54.90	265.08	25.88	-23.1	-23.5	18.3	0.00e+00	0	43	0	2112880640	6	3758
2026-01-08 16:11:55.91	265.39	25.90	-23.0	-23.3	18.5	0.00e+00	0	43	0	2120220672	6	3704
2026-01-08 16:11:56.92	265.69	25.91	-23.0	-23.2	18.5	0.00e+00	0	43	0	2127560704	6	3687
2026-01-08 16:11:57.93	266.00	25.92	-23.1	-23.4	18.4	0.00e+00	0	43	0	2134900736	6	3727
2026-01-08 16:11:58.93	266.30	25.93	-23.4	-24.0	18.1	0.00e+00	0	43	0	2141192192	6	3859
2026-01-08 16:11:59.94	266.60	25.94	-23.1	-23.4	18.4	0.00e+00	0	43	0	2149580800	6	3736
2026-01-08 16:12:00.95	266.91	25.95	-23.0	-23.3	18.5	0.00e+00	0	43	0	2156920832	6	3696
2026-01-08 16:12:01.96	267.21	25.96	-23.0	-23.1	18.5	0.00e+00	0	43	0	2163212288	6	3667
2026-01-08 16:12:02.97	267.52	25.97	-23.1	-23.5	18.4	0.00e+00	0	43	0	2170552320	6	3754
2026-01-08 16:12:03.98	267.82	25.98	-23.0	-23.2	18.5	0.00e+00	0	43	0	2177892352	6	3692
2026-01-08 16:12:04.99	268.13	25.98	-23.0	-23.3	18.4	0.00e+00	0	43	0	2185232384	6	3699
2026-01-08 16:12:05.99	268.43	25.99	-22.9	-23.0	18.6	0.00e+00	0	43	0	2192572416	6	3628
2026-01-08 16:12:06.99	268.73	25.99	-22.8	-22.8	18.7	0.00e+00	0	43	0	2199912448	6	3586
2026-01-08 16:12:08.00	269.04	26.00	-22.9	-22.9	18.7	0.00e+00	0	43	0	2207252480	6	3616
2026-01-08 16:12:09.00	269.34	26.00	-22.8	-22.8	18.7	0.00e+00	0	43	0	2214592512	6	3599
2026-01-08 16:12:10.00	269.65	26.00	-22.9	-23.0	18.6	0.00e+00	0	43	0	2221932544	6	3640
2026-01-08 16:12:11.01	269.95	26.00	-23.0	-23.1	18.5	0.00e+00	0	43	0	2229272576	6	3666
2026-01-08 16:12:12.01	270.26	26.00	-23.1	-23.4	18.4	0.00e+00	0	43	0	2236612608	6	3723
2026-01-08 16:12:13.02	270.56	26.00	-23.1	-23.4	18.4	0.00e+00	0	43	0	2242904064	6	3723
2026-01-08 16:12:14.02	270.86	26.00	-23.1	-23.5	18.4	0.00e+00	0	43	0	2250244096	6	3742
2026-01-08 16:12:15.03	271.17	26.00	-23.1	-23.4	18.4	0.00e+00	0	43	0	2257584128	6	3726
2026-01-08 16:12:16.03	271.47	26.00	-23.1	-23.4	18.4	0.00e+00	0	43	0	2264924160	6	3721
2026-01-08 16:12:17.03	271.78	25.99	-23.1	-23.3	18.4	2.20e-06	0	43	0	2272264192	6	3715
2026-01-08 16:12:18.04	272.08	25.99	-23.1	-23.4	18.4	0.00e+00	0	43	0	2279604224	6	3733
2026-01-08 16:12:19.05	272.39	25.98	-23.1	-23.3	18.4	0.00e+00	0	43	0	2286944256	6	3711
2026-01-08 16:12:20.05	272.69	25.98	-23.1	-23.4	18.4	2.20e-06	0	43	0	2294284288	6	3738
2026-01-08 16:12:21.06	273.00	25.97	-23.1	-23.4	18.4	0.00e+00	0	43	0	2301624320	6	3734
2026-01-08 16:12:22.06	273.30	25.96	-23.0	-23.2	18.5	0.00e+00	0	43	0	2308964352	6	3696
2026-01-08 16:12:23.07	273.60	25.95	-23.0	-23.2	18.5	5.70e-06	0	43	0	2316304384	6	3682
2026-01-08 16:12:24.07	273.91	25.94	-22.9	-23.0	18.6	0.00e+00	0	43	0	2323644416	6	3641
2026-01-08 16:12:25.08	274.21	25.93	-23.0	-23.1	18.6	0.00e+00	0	43	0	2329935872	6	3666
2026-01-08 16:12:26.08	274.51	25.92	-23.2	-23.6	18.3	0.00e+00	0	43	0	2337275904	6	3785
2026-01-08 16:12:27.09	274.82	25.91	-23.1	-23.4	18.4	0.00e+00	0	43	0	2344615936	6	3718
2026-01-08 16:12:28.09	275.12	25.90	-23.1	-23.3	18.4	0.00e+00	0	43	0	2351955968	6	3713
2026-01-08 16:12:29.10	275.42	25.88	-23.2	-23.7	18.2	0.00e+00	0	43	0	2359296000	6	3803
2026-01-08 16:12:30.10	275.72	25.87	-23.3	-23.8	18.2	0.00e+00	0	43	0	2366636032	6	3819
2026-01-08 16:12:31.10	276.02	25.85	-23.4	-24.0	18.1	0.00e+00	0	43	0	2373976064	6	3861
2026-01-08 16:12:32.11	276.32	25.84	-23.5	-24.2	18.0	0.00e+00	0	43	0	2381316096	6	3914
2026-01-08 16:12:33.12	276.63	25.82	-23.2	-23.7	18.2	0.00e+00	0	43	0	2388656128	6	3787
2026-01-08 16:12:34.12	276.93	25.80	-23.1	-23.4	18.4	0.00e+00	0	43	0	2395996160	6	3722
2026-01-08 16:12:35.12	277.22	25.78	-23.2	-23.6	18.3	0.00e+00	0	43	0	2403336192	6	3769
2026-01-08 16:12:36.13	277.53	25.76	-23.2	-23.6	18.3	0.00e+00	0	43	0	2410676224	6	3774
2026-01-08 16:12:37.14	277.83	25.74	-23.4	-24.0	18.1	0.00e+00	0	43	0	2418016256	6	3855
2026-01-08 16:12:38.14	278.12	25.72	-23.4	-24.1	18.0	0.00e+00	0	43	0	2425356288	6	3900
2026-01-08 16:12:39.14	278.42	25.70	-23.7	-24.3	17.7	0.00e+00	0	43	0	2432696320	7	3824
2026-01-08 16:12:40.15	278.72	25.68	-23.5	-23.8	17.9	0.00e+00	0	43	0	2438987776	7	3710
2026-01-08 16:12:41.15	279.02	25.65	-23.3	-23.3	18.2	0.00e+00	0	43	0	2446327808	7	3609
2026-01-08 16:12:42.16	279.32	25.63	-23.2	-23.2	18.3	0.00e+00	0	43	0	2453667840	7	3576
2026-01-08 16:12:43.17	279.62	25.60	-23.3	-23.2	18.2	0.00e+00	0	43	0	2461007872	7	3594
2026-01-08 16:12:44.18	279.91	25.58	-23.1	-23.0	18.4	0.00e+00	0	43	0	2468347904	7	3530
2026-01-08 16:12:45.19	280.21	25.55	-23.1	-22.9	18.4	0.00e+00	0	43	0	2475687936	7	3528
2026-01-08 16:12:46.19	280.51	25.52	-23.3	-23.2	18.3	0.00e+00	0	43	0	2483027968	7	3597
2026-01-08 16:12:47.20	280.80	25.49	-23.2	-23.2	18.3	0.00e+00	0	43	0	2490368000	7	3583
2026-01-08 16:12:48.21	281.10	25.46	-23.3	-23.3	18.2	0.00e+00	0	43	0	2497708032	7	3605
2026-01-08 16:12:49.22	281.39	25.43	-23.4	-23.5	18.1	0.00e+00	0	43	0	2505048064	7	3650
2026-01-08 16:12:50.22	281.69	25.40	-23.4	-23.5	18.1	0.00e+00	0	43	0	2512388096	7	3656
2026-01-08 16:12:51.23	281.98	25.37	-23.4	-23.5	18.1	0.00e+00	0	43	0	2518679552	7	3661
2026-01-08 16:12:52.23	282.27	25.34	-23.4	-23.6	18.1	0.00e+00	0	43	0	2526019584	7	3663
2026-01-08 16:12:53.24	282.56	25.31	-23.6	-23.9	17.9	0.00e+00	0	43	0	2534408192	7	3740
2026-01-08 16:12:54.23	282.85	25.28	-23.2	-23.1	18.3	0.00e+00	0	43	0	2540699648	7	3566
2026-01-08 16:12:55.24	283.14	25.24	-23.0	-22.7	18.5	0.00e+00	0	43	0	2548039680	7	3479
2026-01-08 16:12:56.24	283.43	25.21	-22.9	-22.6	18.6	0.00e+00	0	43	0	2555379712	7	3458
2026-01-08 16:12:57.25	283.72	25.17	-23.1	-23.0	18.3	0.00e+00	0	43	0	2562719744	7	3535
2026-01-08 16:12:58.26	284.01	25.13	-23.2	-23.2	18.3	0.00e+00	0	43	0	2570059776	7	3587
2026-01-08 16:12:59.26	284.30	25.10	-23.3	-23.3	18.2	0.00e+00	0	43	0	2577399808	7	3616
2026-01-08 16:13:00.27	284.59	25.06	-23.3	-23.2	18.2	0.00e+00	0	43	0	2584739840	7	3594
2026-01-08 16:13:01.27	284.87	25.02	-23.3	-23.4	18.2	0.00e+00	0	43	0	2592079872	7	3628
2026-01-08 16:13:02.28	285.16	24.98	-23.3	-23.3	18.2	0.00e+00	0	43	0	2599419904	7	3603
2026-01-08 16:13:03.28	285.44	24.94	-23.3	-23.3	18.1	0.00e+00	0	43	0	2605711360	7	3614
2026-01-08 16:13:04.29	285.73	24.90	-23.3	-23.3	18.2	0.00e+00	0	43	0	2613051392	7	3596
2026-01-08 16:13:05.29	286.01	24.86	-23.4	-23.5	18.1	0.00e+00	0	43	0	2621440000	7	3644
2026-01-08 16:13:06.29	286.29	24.82	-23.3	-23.4	18.1	0.00e+00	0	43	0	2627731456	7	3630
2026-01-08 16:13:07.30	286.58	24.78	-23.4	-23.6	18.0	0.00e+00	0	43	0	2635071488	7	3680
2026-01-08 16:13:08.30	286.86	24.73	-23.5	-23.7	18.0	0.00e+00	0	43	0	2642411520	7	3692
2026-01-08 16:13:09.31	287.14	24.69	-23.5	-23.8	17.9	0.00e+00	0	43	0	2649751552	7	3727
2026-01-08 16:13:10.31	287.42	24.65	-23.5	-23.7	18.0	0.00e+00	0	43	0	2657091584	7	3701
2026-01-08 16:13:11.32	287.70	24.60	-23.5	-23.7	18.0	0.00e+00	0	43	0	2664431616	7	3703
2026-01-08 16:13:12.32	287.97	24.56	-23.5	-23.7	18.0	0.00e+00	0	43	0	2671771648	7	3689
2026-01-08 16:13:13.33	288.25	24.51	-23.5	-23.8	17.9	0.00e+00	0	43	0	2679111680	7	3707
2026-01-08 16:13:14.33	288.53	24.46	-23.4	-23.6	18.0	0.00e+00	0	43	0	2685403136	7	3675
2026-01-08 16:13:15.34	288.81	24.42	-23.3	-23.3	18.2	0.00e+00	0	43	0	2693791744	7	3601
2026-01-08 16:13:16.34	289.08	24.37	-23.3	-23.3	18.1	0.00e+00	0	43	0	2701131776	7	3616
2026-01-08 16:13:17.35	289.36	24.32	-23.3	-23.4	18.1	0.00e+00	0	43	0	2707423232	7	3633
2026-01-08 16:13:18.35	289.63	24.27	-23.4	-23.5	18.1	0.00e+00	0	43	0	2714763264	7	3648
2026-01-08 16:13:19.36	289.90	24.22	-23.5	-23.7	18.0	0.00e+00	0	43	0	2722103296	7	3700
2026-01-08 16:13:20.37	290.17	24.17	-23.4	-23.6	18.0	0.00e+00	0	43	0	2729443328	7	3674
2026-01-08 16:13:21.38	290.45	24.12	-23.4	-23.6	18.0	0.00e+00	0	43	0	2736783360	7	3674
2026-01-08 16:13:22.39	290.72	24.07	-23.4	-23.6	18.0	0.00e+00	0	43	0	2744123392	7	3678
2026-01-08 16:13:23.39	290.99	24.02	-23.5	-23.7	18.0	0.00e+00	0	43	0	2751463424	7	3696
2026-01-08 16:13:24.39	291.25	23.96	-23.5	-23.7	17.9	0.00e+00	0	43	0	2758803456	7	3688
2026-01-08 16:13:25.40	291.52	23.91	-23.6	-23.9	17.8	0.00e+00	0	43	0	2766143488	7	3742
2026-01-08 16:13:26.40	291.79	23.86	-23.7	-24.2	17.7	0.00e+00	0	43	0	2773483520	7	3800
2026-01-08 16:13:27.41	292.05	23.80	-23.8	-24.3	17.7	0.00e+00	0	43	0	2780823552	7	3831
2026-01-08 16:13:28.41	292.32	23.75	-23.8	-24.3	17.6	0.00e+00	0	43	0	2788163584	7	3836
2026-01-08 16:13:29.43	292.58	23.69	-23.7	-24.1	17.7	0.00e+00	0	43	0	2794455040	7	3797
2026-01-08 16:13:30.43	292.85	23.64	-23.8	-24.4	17.6	0.00e+00	0	43	0	2801795072	7	3854
2026-01-08 16:13:31.44	293.11	23.58	-23.7	-24.3	17.7	0.00e+00	0	43	0	2810183680	7	3820
2026-01-08 16:13:32.45	293.37	23.52	-23.7	-24.1	17.8	0.00e+00	0	43	0	2816475136	7	3783
2026-01-08 16:13:33.45	293.63	23.47	-23.5	-23.8	17.9	0.00e+00	0	43	0	2823815168	7	3716
2026-01-08 16:13:34.46	293.89	23.41	-23.4	-23.6	17.9	0.00e+00	0	43	0	2831155200	7	3670
2026-01-08 16:13:35.47	294.15	23.35	-23.6	-23.9	17.9	0.00e+00	0	43	0	2838495232	7	3741
2026-01-08 16:13:36.48	294.41	23.29	-23.4	-23.6	18.0	0.00e+00	0	43	0	2845835264	7	3665
2026-01-08 16:13:37.48	294.66	23.23	-23.6	-23.9	17.9	0.00e+00	0	43	0	2853175296	7	3734
2026-01-08 16:13:38.48	294.92	23.18	-23.6	-24.0	17.8	0.00e+00	0	43	0	2860515328	7	3762
2026-01-08 16:13:39.48	295.17	23.12	-23.6	-24.0	17.8	0.00e+00	0	43	0	2867855360	7	3765
2026-01-08 16:13:40.49	295.42	23.06	-23.7	-24.1	17.7	0.00e+00	0	43	0	2875195392	7	3789
2026-01-08 16:13:41.49	295.68	23.00	-23.5	-23.8	17.9	0.00e+00	0	43	0	2882535424	7	3719
2026-01-08 16:13:42.50	295.93	22.93	-23.5	-23.8	17.9	0.00e+00	0	43	0	2889875456	7	3720
2026-01-08 16:13:43.51	296.18	22.87	-23.6	-24.0	17.8	0.00e+00	0	43	0	2897215488	7	3775
2026-01-08 16:13:44.52	296.43	22.81	-23.7	-24.2	17.7	0.00e+00	0	43	0	2903506944	7	3807
2026-01-08 16:13:45.53	296.68	22.75	-23.8	-24.3	17.6	0.00e+00	0	43	0	2910846976	7	3837
2026-01-08 16:13:46.54	296.93	22.69	-23.9	-24.6	17.5	0.00e+00	0	43	0	2919235584	7	3903
2026-01-08 16:13:47.55	297.18	22.62	-24.0	-24.7	17.4	0.00e+00	0	43	0	2925527040	7	3931
2026-01-08 16:13:48.56	297.42	22.56	-24.0	-24.8	17.4	0.00e+00	0	43	0	2932867072	7	3942
2026-01-08 16:13:49.56	297.67	22.50	-24.0	-24.8	17.4	0.00e+00	0	43	0	2940207104	7	3959
2026-01-08 16:13:50.57	297.91	22.43	-24.1	-24.9	17.3	0.00e+00	0	43	0	2947547136	7	3977
2026-01-08 16:13:51.58	298.16	22.37	-24.1	-25.0	17.3	0.00e+00	0	43	0	2954887168	7	3998
2026-01-08 16:13:52.58	298.40	22.30	-24.3	-24.9	17.1	0.00e+00	0	43	0	2962227200	8	3877
2026-01-08 16:13:53.58	298.64	22.24	-24.2	-24.8	17.2	0.00e+00	0	43	0	2969567232	8	3838
2026-01-08 16:13:54.60	298.88	22.17	-24.0	-24.3	17.4	0.00e+00	0	43	0	2976907264	8	3721
2026-01-08 16:13:55.61	299.12	22.10	-24.0	-24.2	17.4	0.00e+00	0	43	0	2984247296	8	3706
2026-01-08 16:13:56.61	299.36	22.04	-23.9	-24.1	17.5	0.00e+00	0	43	0	2991587328	8	3692
2026-01-08 16:13:57.62	299.59	21.97	-24.0	-24.3	17.4	0.00e+00	0	43	0	2998927360	8	3734
2026-01-08 16:13:58.62	299.83	21.91	-24.1	-24.5	17.3	0.00e+00	0	43	0	3005218816	8	3779
2026-01-08 16:13:59.62	300.06	21.84	-24.1	-24.6	17.3	0.00e+00	0	43	0	3012558848	8	3788
2026-01-08 16:14:00.63	300.30	21.77	-24.1	-24.6	17.2	0.00e+00	0	43	0	3019898880	8	3807
2026-01-08 16:14:01.64	300.53	21.70	-24.3	-24.9	17.1	0.00e+00	0	43	0	3027238912	8	3862
2026-01-08 16:14:02.65	300.76	21.63	-24.3	-24.9	17.1	0.00e+00	0	43	0	3034578944	8	3866
2026-01-08 16:14:03.65	300.99	21.57	-24.4	-25.1	17.0	0.00e+00	0	43	0	3041918976	8	3923
2026-01-08 16:14:04.66	301.22	21.50	-24.4	-25.1	17.0	0.00e+00	0	43	0	3049259008	8	3918
2026-01-08 16:14:05.66	301.45	21.43	-24.5	-25.3	16.9	0.00e+00	0	43	0	3056599040	8	3957
2026-01-08 16:14:06.67	301.68	21.36	-24.4	-24.6	16.9	0.00e+00	0	43	0	3063939072	9	3702
2026-01-08 16:14:07.67	301.90	21.29	-24.3	-24.3	17.1	0.00e+00	0	43	0	3071279104	9	3637
2026-01-08 16:14:08.68	302.13	21.22	-24.2	-24.2	17.2	0.00e+00	0	43	0	3078619136	9	3606
2026-01-08 16:14:09.69	302.36	21.15	-24.2	-24.2	17.2	0.00e+00	0	43	0	3085959168	9	3617
2026-01-08 16:14:10.70	302.58	21.08	-24.4	-24.7	17.0	0.00e+00	0	43	0	3093299200	9	3710
2026-01-08 16:14:11.71	302.81	21.01	-24.6	-25.1	16.7	0.00e+00	0	43	0	3100639232	9	3806
2026-01-08 16:14:12.72	303.03	20.94	-24.5	-24.9	16.8	0.00e+00	0	43	0	3107979264	9	3769
2026-01-08 16:14:13.72	303.25	20.87	-24.4	-24.7	16.9	0.00e+00	0	43	0	3114270720	9	3729
2026-01-08 16:14:14.72	303.47	20.80	-24.4	-24.7	16.9	0.00e+00	0	43	0	3121610752	9	3721
2026-01-08 16:14:15.73	303.69	20.73	-24.4	-24.6	17.0	0.00e+00	0	43	0	3128950784	9	3694
2026-01-08 16:14:16.74	303.91	20.65	-24.4	-24.6	17.0	0.00e+00	0	43	0	3136290816	9	3701
2026-01-08 16:14:17.74	304.12	20.58	-24.5	-24.8	16.8	0.00e+00	0	43	0	3143630848	9	3751
2026-01-08 16:14:18.74	304.34	20.51	-24.5	-24.8	16.9	0.00e+00	0	43	0	3150970880	9	3736
2026-01-08 16:14:19.75	304.55	20.44	-24.3	-24.5	17.0	0.00e+00	0	43	0	3158310912	9	3672
2026-01-08 16:14:20.76	304.77	20.37	-24.3	-24.5	17.0	0.00e+00	0	43	0	3165650944	9	3665
2026-01-08 16:14:21.76	304.98	20.30	-24.4	-24.6	16.9	0.00e+00	0	43	0	3172990976	9	3691
2026-01-08 16:14:22.76	305.19	20.22	-24.4	-24.5	17.0	0.00e+00	0	43	0	3180331008	9	3678
2026-01-08 16:14:23.76	305.40	20.15	-24.3	-24.4	17.1	0.00e+00	0	43	0	3187671040	9	3652
2026-01-08 16:14:24.77	305.61	20.08	-24.3	-24.5	17.0	0.00e+00	0	43	0	3193962496	9	3668
2026-01-08 16:14:25.78	305.82	20.00	-24.5	-24.8	16.9	0.00e+00	0	43	0	3201302528	9	3739
2026-01-08 16:14:26.78	306.03	19.93	-24.4	-24.7	16.9	0.00e+00	0	43	0	3208642560	9	3714
2026-01-08 16:14:27.78	306.23	19.86	-24.7	-25.2	16.6	0.00e+00	0	43	0	3215982592	9	3838
2026-01-08 16:14:28.78	306.44	19.79	-24.7	-25.2	16.6	0.00e+00	0	43	0	3223322624	9	3847
2026-01-08 16:14:29.79	306.64	19.71	-24.6	-25.1	16.7	0.00e+00	0	43	0	3230662656	9	3814
2026-01-08 16:14:30.80	306.85	19.64	-24.7	-25.3	16.6	0.00e+00	0	43	0	3238002688	9	3864
2026-01-08 16:14:31.81	307.05	19.56	-24.7	-25.2	16.6	0.00e+00	0	43	0	3245342720	9	3831
2026-01-08 16:14:32.81	307.25	19.49	-24.7	-25.3	16.5	0.00e+00	0	43	0	3252682752	9	3871
2026-01-08 16:14:33.82	307.46	19.42	-24.8	-25.4	16.5	0.00e+00	0	43	0	3260022784	9	3895
2026-01-08 16:14:34.82	307.65	19.34	-24.8	-25.4	16.5	0.00e+00	0	43	0	3267362816	9	3892
2026-01-08 16:14:35.83	307.86	19.27	-24.8	-25.5	16.4	0.00e+00	0	43	0	3274702848	9	3908
2026-01-08 16:14:36.83	308.05	19.19	-24.7	-25.3	16.5	0.00e+00	0	43	0	3280994304	9	3857
2026-01-08 16:14:37.83	308.25	19.12	-24.7	-25.4	16.5	0.00e+00	0	43	0	3288334336	9	3874
2026-01-08 16:14:38.83	308.44	19.04	-24.7	-25.3	16.5	0.00e+00	0	43	0	3295674368	9	3868
2026-01-08 16:14:39.84	308.64	18.97	-24.9	-25.7	16.3	0.00e+00	0	43	0	3303014400	9	3966
2026-01-08 16:14:40.85	308.84	18.89	-24.7	-25.3	16.5	0.00e+00	0	43	0	3310354432	9	3853
2026-01-08 16:14:41.86	309.03	18.82	-24.5	-24.8	16.8	0.00e+00	0	43	0	3317694464	9	3749
2026-01-08 16:14:42.86	309.22	18.74	-24.5	-24.9	16.7	0.00e+00	0	43	0	3325034496	9	3765
2026-01-08 16:14:43.87	309.42	18.67	-24.4	-24.7	16.9	0.00e+00	0	43	0	3332374528	9	3718
2026-01-08 16:14:44.88	309.61	18.59	-24.5	-24.9	16.7	0.00e+00	0	43	0	3339714560	9	3766
2026-01-08 16:14:45.88	309.80	18.52	-24.5	-24.8	16.8	0.00e+00	0	43	0	3347054592	9	3736
2026-01-08 16:14:46.89	309.99	18.44	-24.5	-25.0	16.7	0.00e+00	0	43	0	3354394624	9	3786
2026-01-08 16:14:47.90	310.18	18.37	-24.5	-25.0	16.7	0.00e+00	0	43	0	3361734656	9	3779
2026-01-08 16:14:48.90	310.36	18.29	-24.6	-25.1	16.6	0.00e+00	0	43	0	3369074688	9	3808
2026-01-08 16:14:49.91	310.55	18.22	-24.7	-25.2	16.6	0.00e+00	0	43	0	3376414720	9	3837
2026-01-08 16:14:50.92	310.73	18.14	-24.8	-25.5	16.4	0.00e+00	0	43	0	3383754752	9	3907
2026-01-08 16:14:51.92	310.92	18.07	-24.9	-25.6	16.3	0.00e+00	0	43	0	3390046208	9	3938
2026-01-08 16:14:52.93	311.10	17.99	-25.0	-26.0	16.1	0.00e+00	0	43	0	3397386240	9	4042
2026-01-08 16:14:53.94	311.29	17.91	-25.0	-26.1	16.1	0.00e+00	0	43	0	3405774848	9	4045
2026-01-08 16:14:54.95	311.47	17.84	-25.2	-25.8	16.0	0.00e+00	0	43	0	3412066304	10	3884
2026-01-08 16:14:55.95	311.65	17.76	-25.4	-26.3	15.7	0.00e+00	0	43	0	3419406336	10	3990
2026-01-08 16:14:56.96	311.83	17.69	-25.2	-25.8	16.0	0.00e+00	0	43	0	3426746368	10	3876
2026-01-08 16:14:57.97	312.01	17.61	-24.9	-25.3	16.3	0.00e+00	0	43	0	3434086400	10	3749
2026-01-08 16:14:58.97	312.19	17.53	-24.8	-24.9	16.5	0.00e+00	0	43	0	3441426432	10	3666
2026-01-08 16:14:59.97	312.36	17.46	-24.8	-25.1	16.4	0.00e+00	0	43	0	3448766464	10	3703
2026-01-08 16:15:00.98	312.54	17.38	-24.6	-24.6	16.6	0.00e+00	0	43	0	3456106496	10	3591
2026-01-08 16:15:01.99	312.72	17.31	-24.6	-24.5	16.6	0.00e+00	0	43	0	3463446528	10	3580
2026-01-08 16:15:02.99	312.89	17.23	-24.7	-24.7	16.5	0.00e+00	0	43	0	3470786560	10	3627
2026-01-08 16:15:03.99	313.07	17.15	-24.5	-24.5	16.7	0.00e+00	0	43	0	3478126592	10	3563
2026-01-08 16:15:05.01	313.24	17.08	-24.6	-24.5	16.7	0.00e+00	0	43	0	3485466624	10	3575
2026-01-08 16:15:06.01	313.41	17.00	-24.6	-24.6	16.6	0.00e+00	0	43	0	3491758080	10	3607
2026-01-08 16:15:07.02	313.58	16.93	-24.6	-24.6	16.6	0.00e+00	0	43	0	3499098112	10	3600
2026-01-08 16:15:08.03	313.76	16.85	-24.8	-24.9	16.4	0.00e+00	0	43	0	3506438144	10	3671
2026-01-08 16:15:09.03	313.92	16.77	-24.8	-25.1	16.3	0.00e+00	0	43	0	3513778176	10	3709
2026-01-08 16:15:10.04	314.09	16.70	-24.9	-25.3	16.2	0.00e+00	0	43	0	3521118208	10	3759
2026-01-08 16:15:11.05	314.26	16.62	-25.1	-25.7	16.0	0.00e+00	0	43	0	3528458240	10	3853
2026-01-08 16:15:12.05	314.43	16.55	-25.3	-26.1	15.8	0.00e+00	0	43	0	3535798272	10	3941
2026-01-08 16:15:13.06	314.60	16.47	-25.4	-26.4	15.6	0.00e+00	0	43	0	3543138304	10	4021
2026-01-08 16:15:14.07	314.76	16.39	-25.6	-26.3	15.4	0.00e+00	0	43	0	3550478336	11	3889
2026-01-08 16:15:15.08	314.93	16.32	-25.5	-26.1	15.5	0.00e+00	0	43	0	3557818368	11	3859
2026-01-08 16:15:16.08	315.09	16.24	-25.6	-26.4	15.4	0.00e+00	0	43	0	3565158400	11	3918
2026-01-08 16:15:17.09	315.26	16.16	-25.7	-26.5	15.3	0.00e+00	0	43	0	3572498432	11	3938
2026-01-08 16:15:18.10	315.42	16.09	-25.5	-26.0	15.5	0.00e+00	0	43	0	3579838464	11	3830
2026-01-08 16:15:19.10	315.58	16.01	-25.4	-25.8	15.7	0.00e+00	0	43	0	3587178496	11	3780
2026-01-08 16:15:20.10	315.74	15.94	-25.3	-25.7	15.8	0.00e+00	0	44	0	3594518528	11	3742
2026-01-08 16:15:21.11	315.90	15.86	-25.2	-25.4	15.9	0.00e+00	0	43	0	3600809984	11	3673
2026-01-08 16:15:22.11	316.06	15.79	-25.2	-25.4	15.9	0.00e+00	0	43	0	3608150016	11	3668
2026-01-08 16:15:23.12	316.22	15.71	-25.0	-25.0	16.1	0.00e+00	0	43	0	3615490048	11	3601
2026-01-08 16:15:24.12	316.38	15.63	-25.0	-25.1	16.1	0.00e+00	0	43	0	3622830080	11	3605
2026-01-08 16:15:25.12	316.53	15.56	-25.1	-25.1	16.0	0.00e+00	0	44	0	3630170112	11	3610
2026-01-08 16:15:26.13	316.69	15.48	-24.8	-25.1	16.3	0.00e+00	0	43	0	3637510144	10	3712
2026-01-08 16:15:27.14	316.84	15.41	-24.8	-25.0	16.3	0.00e+00	0	43	0	3644850176	10	3697
2026-01-08 16:15:28.15	317.00	15.33	-24.8	-25.1	16.3	0.00e+00	0	43	0	3652190208	10	3706
2026-01-08 16:15:29.16	317.15	15.26	-24.9	-25.3	16.2	0.00e+00	0	43	0	3659530240	10	3754
2026-01-08 16:15:30.16	317.31	15.18	-25.0	-25.5	16.0	0.00e+00	0	43	0	3666870272	10	3811
2026-01-08 16:15:31.17	317.46	15.10	-25.0	-25.5	16.1	0.00e+00	0	43	0	3674210304	10	3801
2026-01-08 16:15:32.17	317.61	15.03	-25.2	-25.9	15.8	0.00e+00	0	43	0	3680501760	10	3903
2026-01-08 16:15:33.18	317.76	14.95	-25.2	-26.0	15.8	0.00e+00	0	43	0	3687841792	10	3921
2026-01-08 16:15:34.18	317.91	14.88	-25.5	-26.5	15.5	0.00e+00	0	43	0	3695181824	10	4055
2026-01-08 16:15:35.19	318.06	14.80	-25.6	-26.3	15.3	0.00e+00	0	43	0	3702521856	11	3883
2026-01-08 16:15:36.20	318.21	14.73	-25.8	-26.8	15.1	0.00e+00	0	43	0	3709861888	11	4009
2026-01-08 16:15:37.21	318.36	14.65	-26.0	-27.1	14.8	0.00e+00	0	43	0	3717201920	11	4108
2026-01-08 16:15:38.21	318.51	14.58	-26.0	-27.2	14.8	0.00e+00	0	43	0	3724541952	11	4123
2026-01-08 16:15:39.21	318.65	14.50	-26.3	-27.2	14.4	0.00e+00	0	43	0	3731881984	12	4032
2026-01-08 16:15:40.22	318.80	14.43	-26.4	-27.6	14.2	2.20e-06	0	43	0	3739222016	12	4124
2026-01-08 16:15:41.23	318.94	14.35	-26.2	-27.2	14.5	0.00e+00	0	43	0	3746562048	12	4017
2026-01-08 16:15:42.24	319.09	14.28	-26.3	-27.4	14.3	2.20e-06	0	43	0	3753902080	12	4086
2026-01-08 16:15:43.25	319.23	14.20	-26.1	-26.8	14.7	0.00e+00	0	43	0	3761242112	12	3920
2026-01-08 16:15:44.25	319.38	14.13	-26.0	-26.7	14.8	0.00e+00	0	43	0	3768582144	12	3892
2026-01-08 16:15:45.25	319.52	14.05	-25.9	-26.5	14.8	0.00e+00	0	43	0	3775922176	12	3851
2026-01-08 16:15:46.25	319.66	13.98	-25.8	-26.4	14.9	0.00e+00	0	43	0	3783262208	12	3815
2026-01-08 16:15:47.25	319.80	13.91	-25.7	-25.9	15.1	0.00e+00	0	43	0	3789553664	12	3712
2026-01-08 16:15:48.26	319.94	13.83	-25.4	-25.4	15.4	0.00e+00	0	43	0	3796893696	12	3594
2026-01-08 16:15:49.27	320.08	13.76	-25.4	-25.8	15.5	0.00e+00	0	43	0	3804233728	11	3784
2026-01-08 16:15:50.28	320.22	13.68	-25.4	-25.9	15.5	0.00e+00	0	43	0	3811573760	11	3801
2026-01-08 16:15:51.29	320.36	13.61	-25.5	-26.0	15.4	0.00e+00	0	43	0	3818913792	11	3821
2026-01-08 16:15:52.29	320.49	13.53	-25.3	-25.7	15.6	0.00e+00	0	43	0	3826253824	11	3745
2026-01-08 16:15:53.30	320.63	13.46	-25.3	-25.6	15.6	0.00e+00	0	43	0	3833593856	11	3730
2026-01-08 16:15:54.30	320.77	13.39	-25.3	-25.7	15.6	0.00e+00	0	43	0	3840933888	11	3740
2026-01-08 16:15:55.31	320.90	13.31	-25.3	-25.6	15.6	0.00e+00	0	43	0	3848273920	11	3734
2026-01-08 16:15:56.32	321.04	13.24	-25.3	-25.7	15.6	0.00e+00	0	43	0	3855613952	11	3744
2026-01-08 16:15:57.32	321.17	13.17	-25.4	-25.8	15.5	0.00e+00	0	43	0	3862953984	11	3787
2026-01-08 16:15:58.33	321.31	13.09	-25.5	-26.0	15.4	0.00e+00	0	43	0	3870294016	11	3829
2026-01-08 16:15:59.33	321.44	13.02	-25.6	-26.2	15.3	0.00e+00	0	43	0	3876585472	11	3868
2026-01-08 16:16:00.34	321.57	12.94	-25.6	-26.3	15.2	0.00e+00	0	43	0	3884974080	11	3895
2026-01-08 16:16:01.35	321.70	12.87	-25.7	-26.5	15.1	0.00e+00	0	43	0	3891265536	11	3947
2026-01-08 16:16:02.35	321.84	12.80	-25.8	-26.6	15.0	0.00e+00	0	43	0	3898605568	11	3985
2026-01-08 16:16:03.36	321.97	12.73	-25.9	-26.8	14.9	0.00e+00	0	43	0	3905945600	11	4033
2026-01-08 16:16:04.36	322.10	12.65	-25.9	-27.0	14.8	0.00e+00	0	43	0	3913285632	11	4083
2026-01-08 16:16:05.37	322.23	12.58	-26.0	-27.1	14.8	0.00e+00	0	43	0	3920625664	11	4093
2026-01-08 16:16:06.38	322.35	12.51	-26.0	-27.1	14.7	1.10e-06	0	43	0	3927965696	11	4104
2026-01-08 16:16:07.38	322.48	12.43	-26.0	-27.1	14.7	1.10e-06	0	43	0	3935305728	11	4099
2026-01-08 16:16:08.39	322.61	12.36	-26.0	-27.2	14.7	0.00e+00	0	43	0	3942645760	11	4128
2026-01-08 16:16:09.39	322.74	12.29	-26.0	-27.2	14.7	1.10e-06	0	43	0	3949985792	11	4133
2026-01-08 16:16:10.39	322.86	12.22	-26.1	-27.4	14.6	0.00e+00	0	43	0	3957325824	11	4171
2026-01-08 16:16:11.40	322.99	12.14	-26.2	-27.1	14.4	0.00e+00	0	43	0	3964665856	12	3990
2026-01-08 16:16:12.41	323.11	12.07	-26.2	-27.0	14.4	1.10e-06	0	43	0	3972005888	12	3987
2026-01-08 16:16:13.41	323.24	12.00	-26.0	-26.8	14.6	0.00e+00	0	44	0	3978297344	12	3914
2026-01-08 16:16:14.42	323.36	11.93	-26.0	-26.7	14.6	2.20e-06	0	43	0	3985637376	12	3907
2026-01-08 16:16:15.42	323.48	11.86	-26.0	-26.8	14.6	0.00e+00	0	44	0	3992977408	12	3920
2026-01-08 16:16:16.43	323.61	11.78	-26.1	-26.8	14.5	0.00e+00	0	43	0	4000317440	12	3936
2026-01-08 16:16:17.43	323.73	11.71	-26.1	-26.9	14.5	0.00e+00	0	43	0	4007657472	12	3960
2026-01-08 16:16:18.44	323.85	11.64	-26.0	-26.7	14.6	0.00e+00	0	43	0	4014997504	12	3897
2026-01-08 16:16:19.45	323.97	11.57	-25.9	-26.5	14.7	0.00e+00	0	43	0	4022337536	12	3854
2026-01-08 16:16:20.46	324.09	11.50	-26.1	-26.8	14.5	0.00e+00	0	43	0	4029677568	12	3931
2026-01-08 16:16:21.47	324.21	11.42	-26.1	-26.8	14.5	0.00e+00	0	43	0	4037017600	12	3934
2026-01-08 16:16:22.47	324.33	11.35	-26.0	-26.6	14.6	0.00e+00	0	43	0	4044357632	12	3874
2026-01-08 16:16:23.48	324.45	11.28	-25.8	-26.3	14.8	1.10e-06	0	43	0	4051697664	12	3796
2026-01-08 16:16:24.48	324.57	11.21	-25.9	-26.5	14.7	0.00e+00	0	43	0	4059037696	12	3846
2026-01-08 16:16:25.49	324.69	11.14	-25.9	-26.4	14.7	0.00e+00	0	43	0	4066377728	12	3834
2026-01-08 16:16:26.50	324.80	11.07	-25.9	-26.5	14.7	0.00e+00	0	44	0	4073717760	12	3850
2026-01-08 16:16:27.50	324.92	11.00	-26.0	-26.6	14.6	0.00e+00	0	44	0	4081057792	12	3885
2026-01-08 16:16:28.51	325.04	10.93	-26.1	-27.0	14.4	1.10e-06	0	43	0	4087349248	12	3976
2026-01-08 16:16:29.52	325.15	10.86	-26.1	-27.0	14.4	2.20e-06	0	43	0	4094689280	12	3966
2026-01-08 16:16:30.52	325.27	10.79	-26.1	-26.8	14.5	0.00e+00	0	44	0	4102029312	12	3932
2026-01-08 16:16:31.53	325.38	10.72	-26.1	-26.8	14.5	2.20e-06	0	44	0	4109369344	12	3932
2026-01-08 16:16:32.53	325.50	10.65	-26.1	-26.9	14.4	3.40e-06	0	43	0	4116709376	12	3959
2026-01-08 16:16:33.54	325.61	10.58	-26.1	-26.9	14.4	0.00e+00	0	43	0	4124049408	12	3955
2026-01-08 16:16:34.54	325.72	10.51	-26.1	-27.0	14.4	2.20e-06	0	43	0	4131389440	12	3984
2026-01-08 16:16:35.56	325.84	10.43	-26.2	-27.0	14.3	1.10e-06	0	43	0	4138729472	12	3991
2026-01-08 16:16:36.56	325.95	10.37	-26.1	-27.0	14.4	1.10e-06	0	43	0	4146069504	12	3977
2026-01-08 16:16:37.58	326.06	10.29	-26.2	-27.1	14.3	2.20e-06	0	43	0	4153409536	12	4009
2026-01-08 16:16:38.58	326.17	10.23	-26.2	-27.2	14.2	2.20e-06	0	43	0	4160749568	12	4032
2026-01-08 16:16:39.59	326.28	10.16	-26.3	-27.3	14.1	2.20e-06	0	43	0	4168089600	12	4069
2026-01-08 16:16:40.59	326.39	10.09	-26.2	-27.2	14.2	3.40e-06	0	43	0	4175429632	12	4041
2026-01-08 16:16:41.60	326.50	10.02	-26.3	-27.3	14.2	1.10e-06	0	44	0	4182769664	12	4063
2026-01-08 16:16:42.60	326.61	9.95	-26.4	-27.6	14.0	2.20e-06	0	43	0	4189061120	12	4146
2026-01-08 16:16:43.61	326.72	9.88	-26.4	-27.5	14.0	2.20e-06	0	43	0	4196401152	12	4106
2026-01-08 16:16:44.62	326.82	9.81	-26.4	-27.5	14.0	1.10e-06	0	43	0	4203741184	12	4113
2026-01-08 16:16:45.63	326.93	9.74	-26.4	-27.7	13.9	5.70e-06	0	44	0	4211081216	12	4154
2026-01-08 16:16:46.63	327.04	9.67	-26.5	-27.9	13.8	1.02e-05	0	43	0	4218421248	12	4210
2026-01-08 16:16:47.65	327.15	9.60	-26.5	-27.4	13.8	1.10e-06	0	44	0	4225761280	13	3991
2026-01-08 16:16:48.65	327.25	9.53	-26.5	-27.4	13.7	1.10e-06	0	43	0	4233101312	13	3995
2026-01-08 16:16:49.66	327.36	9.46	-26.5	-27.4	13.8	8.00e-06	0	44	0	4240441344	13	3989
2026-01-08 16:16:50.67	327.46	9.40	-26.7	-27.7	13.6	4.50e-06	0	43	0	4247781376	13	4054
2026-01-08 16:16:51.67	327.57	9.33	-26.6	-27.7	13.6	1.60e-05	0	43	0	4255121408	13	4059
2026-01-08 16:16:52.68	327.67	9.26	-26.6	-27.6	13.6	8.00e-06	0	43	0	4262461440	13	4034
2026-01-08 16:16:53.68	327.77	9.19	-26.6	-27.6	13.6	4.50e-06	0	44	0	4269801472	13	4033
2026-01-08 16:16:54.69	327.88	9.12	-26.7	-27.8	13.5	1.60e-05	0	44	0	4276092928	13	4090
2026-01-08 16:16:55.70	327.98	9.06	-26.7	-27.8	13.5	1.25e-05	0	43	0	4284481536	13	4085
2026-01-08 16:16:56.70	328.08	8.99	-26.7	-27.9	13.5	8.00e-06	0	43	0	4291821568	13	4111
2026-01-08 16:16:57.71	328.19	8.92	-26.7	-27.8	13.5	1.25e-05	0	44	0	4298113024	13	4086
2026-01-08 16:16:58.72	328.29	8.85	-26.7	-27.9	13.5	1.02e-05	0	43	0	4305453056	13	4104
2026-01-08 16:16:59.72	328.39	8.79	-26.7	-27.8	13.5	5.70e-06	0	44	0	4312793088	13	4092
2026-01-08 16:17:00.72	328.49	8.72	-26.7	-27.9	13.4	9.10e-06	0	44	0	4320133120	13	4103
2026-01-08 16:17:01.73	328.59	8.65	-26.7	-27.9	13.4	1.48e-05	0	44	0	4327473152	13	4107
2026-01-08 16:17:02.73	328.69	8.58	-26.6	-27.7	13.6	1.02e-05	0	43	0	4334813184	13	4056
2026-01-08 16:17:03.75	328.79	8.52	-26.7	-27.8	13.5	9.10e-06	0	43	0	4342153216	13	4081
2026-01-08 16:17:04.75	328.88	8.45	-26.7	-27.7	13.5	1.71e-05	0	43	0	4349493248	13	4064
2026-01-08 16:17:05.76	328.98	8.38	-26.8	-28.0	13.4	1.37e-05	0	43	0	4356833280	13	4147
2026-01-08 16:17:06.76	329.08	8.32	-26.8	-28.0	13.4	1.25e-05	0	43	0	4364173312	13	4130
2026-01-08 16:17:07.76	329.18	8.25	-26.7	-27.7	13.5	2.05e-05	0	43	0	4371513344	13	4066
2026-01-08 16:17:08.77	329.27	8.18	-26.7	-27.7	13.5	1.02e-05	0	44	0	4377804800	13	4064
2026-01-08 16:17:09.78	329.37	8.12	-26.7	-27.7	13.5	1.25e-05	0	44	0	4385144832	13	4074
2026-01-08 16:17:10.79	329.47	8.05	-26.7	-27.9	13.4	1.94e-05	0	44	0	4392484864	13	4103
2026-01-08 16:17:11.79	329.56	7.99	-26.7	-27.8	13.4	1.94e-05	0	44	0	4399824896	13	4090
2026-01-08 16:17:12.80	329.66	7.92	-26.6	-27.5	13.6	1.25e-05	0	43	0	4407164928	13	4020
2026-01-08 16:17:13.81	329.75	7.85	-26.7	-27.8	13.4	1.37e-05	0	43	0	4414504960	13	4098
2026-01-08 16:17:14.82	329.85	7.79	-26.7	-27.8	13.5	1.25e-05	0	44	0	4421844992	13	4083
2026-01-08 16:17:15.82	329.94	7.72	-26.8	-28.1	13.2	1.48e-05	0	43	0	4429185024	13	4163
2026-01-08 16:17:16.83	330.04	7.66	-26.7	-27.9	13.3	1.14e-05	0	44	0	4436525056	13	4118
2026-01-08 16:17:17.84	330.13	7.59	-26.9	-28.3	13.1	2.40e-05	0	44	0	4443865088	13	4216
2026-01-08 16:17:18.84	330.22	7.53	-26.8	-28.1	13.2	4.23e-05	0	43	0	4451205120	13	4179
2026-01-08 16:17:19.85	330.32	7.46	-26.8	-28.1	13.2	3.20e-05	0	43	0	4458545152	13	4159
2026-01-08 16:17:20.86	330.41	7.39	-26.9	-28.2	13.1	4.00e-05	0	44	0	4465885184	13	4205
2026-01-08 16:17:21.87	330.50	7.33	-26.9	-28.3	13.1	4.69e-05	0	43	0	4473225216	13	4220
2026-01-08 16:17:22.87	330.59	7.26	-26.9	-28.4	13.0	3.31e-05	0	43	0	4480565248	13	4264
2026-01-08 16:17:23.88	330.68	7.20	-27.1	-28.7	12.8	6.75e-05	0	43	0	4486856704	13	4342
2026-01-08 16:17:24.88	330.77	7.14	-27.2	-28.4	12.7	8.01e-05	0	44	0	4494196736	14	4164
2026-01-08 16:17:25.89	330.86	7.07	-32.9	-42.0	3.8	8.46e-01	0	43	104	4498391040	25	10300
2026-01-08 16:17:26.90	330.95	7.01	-33.3	-43.0	3.8	8.46e-01	0	43	104	4498391040	26	10977
2026-01-08 16:17:27.91	331.04	6.94	-33.5	-43.4	3.8	8.47e-01	0	43	104	4498391040	26	11267

#Closed at: 2026-01-08 16:17:28
#Recorded file [4498 MB]: D:/data/31010_260108_190702.dat