passes_logs/2026/01/08/R2M6_AANII_01/R2M6_AANII_01__20260108_104850_AQUA_rec.log

#Pass ID: 20260108_104850_AQUA
#Satellite: AQUA
#Configuration: AQUA
#almurnet v.1.7.20240730
#Start time: 2026-01-08 10:48:51

#Version: 2.2.20231116
#Station: R2M6_AANII_01
#Location: 30.233357 lon 59.946436 lat
#TLE: 1 27424U 02022A   26004.96787593  .00001598  00000+0  32997-3 0  9996
#TLE: 2 27424  98.4069 331.2279 0002002  90.2377   0.6092 14.61798176259425

#Time	Az	El	Level	Level2	SNR	BER	BlckErr	Temp	State	Recorded	gain1	gain2
2026-01-08 10:48:51.05	119.62	7.02	-32.1	-39.5	4.9	7.17e-01	0	41	0	0	26	8485
2026-01-08 10:48:52.04	119.54	7.09	-31.8	-38.7	5.0	7.12e-01	0	40	104	0	25	7977
2026-01-08 10:48:53.05	119.46	7.17	-31.8	-37.9	13.1	6.11e-01	0	40	0	0	25	7209
2026-01-08 10:48:54.05	119.38	7.24	-31.8	-37.8	13.2	6.08e-01	0	41	0	1572864	25	7191
2026-01-08 10:48:55.06	119.30	7.32	-31.9	-38.1	12.9	6.09e-01	0	41	0	3670016	25	7366
2026-01-08 10:48:56.07	119.22	7.40	-31.9	-37.9	13.2	6.11e-01	0	41	0	5242880	25	7215
2026-01-08 10:48:57.07	119.14	7.47	-31.8	-37.7	13.3	6.09e-01	0	41	0	7340032	25	7062
2026-01-08 10:48:58.07	119.06	7.55	-31.8	-37.6	13.4	6.09e-01	0	41	0	9437184	25	7039
2026-01-08 10:48:59.08	118.98	7.62	-31.8	-37.6	13.4	6.09e-01	0	41	0	11010048	25	7000
2026-01-08 10:49:00.09	118.89	7.70	-31.6	-36.5	14.3	6.07e-01	0	41	0	13107200	25	6374
2026-01-08 10:49:01.09	118.81	7.78	-31.2	-35.7	15.3	6.06e-01	0	41	0	14680064	24	6055
2026-01-08 10:49:02.10	118.73	7.86	-31.0	-35.0	15.9	6.06e-01	0	41	0	16777216	24	5689
2026-01-08 10:49:03.11	118.64	7.93	-30.8	-34.7	16.4	6.06e-01	0	41	0	18874368	23	5643
2026-01-08 10:49:04.11	118.56	8.01	-30.6	-34.0	16.9	6.08e-01	0	41	0	20447232	23	5362
2026-01-08 10:49:05.12	118.48	8.09	-30.5	-33.7	17.2	6.06e-01	0	41	0	22544384	23	5222
2026-01-08 10:49:06.12	118.39	8.16	-30.4	-33.4	17.3	6.07e-01	0	41	0	24117248	23	5121
2026-01-08 10:49:07.13	118.30	8.24	-30.5	-33.7	17.2	6.05e-01	0	41	0	26214400	23	5200
2026-01-08 10:49:08.13	118.22	8.32	-30.4	-33.5	17.4	6.05e-01	0	41	0	28311552	23	5128
2026-01-08 10:49:09.14	118.13	8.40	-30.4	-33.9	17.4	6.07e-01	0	41	0	29884416	22	5385
2026-01-08 10:49:10.14	118.04	8.48	-30.4	-33.9	17.4	6.06e-01	0	41	0	31981568	22	5414
2026-01-08 10:49:11.15	117.96	8.56	-30.4	-33.9	17.4	6.08e-01	0	41	0	33554432	22	5387
2026-01-08 10:49:12.15	117.87	8.64	-30.4	-33.8	17.5	6.08e-01	0	41	0	35651584	22	5377
2026-01-08 10:49:13.15	117.78	8.71	-30.3	-33.7	17.6	6.08e-01	0	41	0	37748736	22	5316
2026-01-08 10:49:14.15	117.69	8.79	-30.3	-33.7	17.6	6.06e-01	0	41	0	39321600	22	5331
2026-01-08 10:49:15.16	117.60	8.87	-30.4	-33.9	17.5	6.08e-01	0	41	0	41418752	22	5386
2026-01-08 10:49:16.17	117.51	8.95	-30.3	-33.7	17.6	6.06e-01	0	41	0	42991616	22	5306
2026-01-08 10:49:17.17	117.42	9.03	-30.3	-33.7	17.6	6.06e-01	0	41	0	45088768	22	5318
2026-01-08 10:49:18.18	117.33	9.11	-30.3	-33.6	17.7	6.04e-01	0	41	0	46661632	22	5279
2026-01-08 10:49:19.19	117.23	9.20	-30.3	-33.6	17.7	6.06e-01	0	41	0	48758784	22	5294
2026-01-08 10:49:20.20	117.14	9.28	-30.4	-33.8	17.6	6.08e-01	0	41	0	50855936	22	5349
2026-01-08 10:49:21.20	117.05	9.36	-30.3	-33.5	17.8	6.05e-01	0	41	0	52428800	22	5235
2026-01-08 10:49:22.20	116.96	9.44	-30.3	-33.7	17.7	6.06e-01	0	41	0	54525952	22	5278
2026-01-08 10:49:23.21	116.86	9.52	-30.2	-33.4	17.9	6.06e-01	0	41	0	56623104	22	5179
2026-01-08 10:49:24.21	116.77	9.60	-30.2	-33.4	17.9	6.07e-01	0	41	0	58195968	22	5172
2026-01-08 10:49:25.22	116.67	9.68	-30.3	-33.5	17.8	6.07e-01	0	41	0	60293120	22	5216
2026-01-08 10:49:26.22	116.57	9.76	-30.3	-33.5	17.9	6.05e-01	0	42	0	61865984	22	5207
2026-01-08 10:49:27.22	116.48	9.85	-30.2	-33.3	18.0	6.08e-01	0	42	0	63963136	22	5122
2026-01-08 10:49:28.23	116.38	9.93	-30.4	-33.7	17.7	6.05e-01	0	41	0	65536000	22	5279
2026-01-08 10:49:29.24	116.28	10.01	-30.5	-34.0	17.6	6.04e-01	0	42	0	67633152	22	5402
2026-01-08 10:49:30.24	116.18	10.10	-30.6	-34.4	17.3	6.07e-01	0	41	0	69730304	22	5545
2026-01-08 10:49:31.24	116.08	10.18	-30.4	-33.8	17.7	6.06e-01	0	42	0	71303168	22	5332
2026-01-08 10:49:32.25	115.98	10.26	-30.3	-33.5	17.9	6.08e-01	0	41	0	73400320	22	5184
2026-01-08 10:49:33.26	115.88	10.35	-30.3	-33.4	18.0	6.07e-01	0	42	0	74973184	22	5167
2026-01-08 10:49:34.26	115.78	10.43	-30.3	-33.4	18.0	6.07e-01	0	41	0	77070336	22	5166
2026-01-08 10:49:35.27	115.68	10.51	-30.3	-33.4	18.0	6.08e-01	0	42	0	79167488	22	5171
2026-01-08 10:49:36.28	115.58	10.60	-30.3	-33.6	17.9	6.05e-01	0	42	0	80740352	22	5250
2026-01-08 10:49:37.28	115.47	10.68	-30.2	-33.2	18.1	6.06e-01	0	42	0	82837504	22	5082
2026-01-08 10:49:38.29	115.37	10.77	-30.1	-32.9	18.3	6.07e-01	0	42	0	84410368	22	4969
2026-01-08 10:49:39.29	115.27	10.85	-30.0	-32.8	18.4	6.07e-01	0	42	0	86507520	22	4926
2026-01-08 10:49:40.29	115.16	10.94	-30.1	-32.9	18.4	6.07e-01	0	42	0	88080384	22	4963
2026-01-08 10:49:41.29	115.06	11.02	-30.0	-32.8	18.4	6.08e-01	0	42	0	90177536	22	4919
2026-01-08 10:49:42.29	114.95	11.11	-30.1	-32.8	18.4	6.08e-01	0	42	0	92274688	22	4946
2026-01-08 10:49:43.30	114.84	11.20	-30.1	-32.8	18.5	6.06e-01	0	42	0	93847552	22	4912
2026-01-08 10:49:44.30	114.74	11.28	-30.0	-32.7	18.5	6.06e-01	0	42	0	95944704	22	4900
2026-01-08 10:49:45.31	114.63	11.37	-30.0	-32.6	18.6	6.06e-01	0	42	0	98041856	22	4846
2026-01-08 10:49:46.32	114.52	11.46	-30.0	-32.7	18.5	6.06e-01	0	42	0	99614720	22	4887
2026-01-08 10:49:47.32	114.41	11.54	-30.2	-33.0	18.3	6.08e-01	0	42	0	101711872	22	5012
2026-01-08 10:49:48.33	114.30	11.63	-30.1	-33.0	18.3	6.07e-01	0	42	0	103284736	22	5003
2026-01-08 10:49:49.34	114.18	11.72	-30.1	-32.9	18.4	6.07e-01	0	42	0	105381888	22	4979
2026-01-08 10:49:50.35	114.07	11.81	-30.1	-33.0	18.4	6.07e-01	0	42	0	107479040	22	5000
2026-01-08 10:49:51.35	113.96	11.89	-30.2	-33.1	18.3	6.07e-01	0	42	0	109051904	22	5035
2026-01-08 10:49:52.36	113.84	11.98	-30.1	-32.8	18.5	6.07e-01	0	42	0	111149056	22	4946
2026-01-08 10:49:53.36	113.73	12.07	-30.0	-32.7	18.6	6.06e-01	0	42	0	112721920	22	4887
2026-01-08 10:49:54.37	113.61	12.16	-30.1	-32.8	18.5	6.07e-01	0	42	0	114819072	22	4927
2026-01-08 10:49:55.37	113.50	12.25	-30.1	-32.8	18.5	6.06e-01	0	42	0	116391936	22	4926
2026-01-08 10:49:56.38	113.38	12.34	-30.1	-32.9	18.4	6.06e-01	0	42	0	118489088	22	4966
2026-01-08 10:49:57.39	113.26	12.43	-29.9	-32.4	18.8	6.07e-01	0	42	0	120586240	22	4777
2026-01-08 10:49:58.40	113.15	12.52	-29.8	-32.6	19.0	6.07e-01	0	42	0	122159104	21	4934
2026-01-08 10:49:59.41	113.03	12.61	-29.8	-32.5	19.1	6.07e-01	0	42	0	124256256	21	4915
2026-01-08 10:50:00.41	112.91	12.70	-29.8	-32.6	19.0	6.07e-01	0	42	0	126353408	21	4946
2026-01-08 10:50:01.41	112.79	12.79	-29.9	-32.9	18.8	6.03e-01	0	42	0	127926272	21	5043
2026-01-08 10:50:02.42	112.66	12.88	-29.9	-32.8	18.9	6.08e-01	0	42	0	130023424	21	5023
2026-01-08 10:50:03.42	112.54	12.97	-29.9	-32.7	19.0	6.08e-01	0	42	0	131596288	21	4992
2026-01-08 10:50:04.42	112.42	13.06	-29.9	-32.8	18.9	6.07e-01	0	42	0	133693440	21	5010
2026-01-08 10:50:05.43	112.29	13.16	-29.9	-32.8	18.9	6.07e-01	0	42	0	135266304	21	5021
2026-01-08 10:50:06.43	112.17	13.25	-30.0	-33.0	18.8	6.06e-01	0	42	0	137363456	21	5087
2026-01-08 10:50:07.43	112.05	13.34	-30.0	-33.1	18.7	6.06e-01	0	42	0	139460608	21	5142
2026-01-08 10:50:08.44	111.92	13.43	-30.0	-33.1	18.8	6.08e-01	0	42	0	141033472	21	5130
2026-01-08 10:50:09.44	111.79	13.52	-30.1	-33.2	18.7	6.04e-01	0	42	0	143130624	21	5161
2026-01-08 10:50:10.45	111.66	13.62	-30.0	-33.0	18.9	6.07e-01	0	42	0	144703488	21	5083
2026-01-08 10:50:11.46	111.53	13.71	-30.0	-32.9	18.9	6.07e-01	0	42	0	146800640	21	5058
2026-01-08 10:50:12.46	111.40	13.80	-30.0	-32.9	18.9	6.06e-01	0	42	0	148897792	21	5049
2026-01-08 10:50:13.47	111.27	13.90	-30.0	-33.1	18.8	6.07e-01	0	42	0	150470656	21	5114
2026-01-08 10:50:14.47	111.14	13.99	-30.0	-33.1	18.8	6.06e-01	0	42	0	152567808	21	5110
2026-01-08 10:50:15.48	111.01	14.09	-29.8	-32.5	19.1	6.06e-01	0	42	0	154140672	21	4916
2026-01-08 10:50:16.48	110.87	14.18	-29.8	-32.4	19.3	6.06e-01	0	42	0	156237824	21	4860
2026-01-08 10:50:17.49	110.74	14.27	-29.7	-32.2	19.3	6.06e-01	0	42	0	158334976	21	4816
2026-01-08 10:50:18.49	110.60	14.37	-29.8	-32.4	19.3	6.08e-01	0	42	0	159907840	21	4867
2026-01-08 10:50:19.50	110.47	14.47	-29.8	-32.4	19.3	6.06e-01	0	42	0	162004992	21	4881
2026-01-08 10:50:20.50	110.33	14.56	-29.8	-32.5	19.2	6.06e-01	0	42	0	163577856	21	4910
2026-01-08 10:50:21.51	110.19	14.66	-29.8	-32.5	19.2	6.07e-01	0	42	0	165675008	21	4890
2026-01-08 10:50:22.52	110.05	14.75	-29.9	-32.6	19.2	6.05e-01	0	42	0	167772160	21	4914
2026-01-08 10:50:23.52	109.91	14.85	-29.9	-32.8	19.1	6.07e-01	0	42	0	169345024	21	4987
2026-01-08 10:50:24.52	109.77	14.94	-29.9	-32.8	19.1	6.05e-01	0	42	0	171442176	21	4993
2026-01-08 10:50:25.53	109.63	15.04	-29.8	-32.5	19.3	6.07e-01	0	42	0	173015040	21	4888
2026-01-08 10:50:26.53	109.48	15.14	-29.8	-32.3	19.4	6.06e-01	0	42	0	175112192	21	4841
2026-01-08 10:50:27.54	109.34	15.24	-29.8	-32.5	19.3	6.07e-01	0	42	0	176685056	21	4897
2026-01-08 10:50:28.54	109.19	15.33	-29.8	-32.5	19.3	6.07e-01	0	42	0	178782208	21	4876
2026-01-08 10:50:29.55	109.05	15.43	-29.8	-32.3	19.4	6.07e-01	0	42	0	180879360	21	4832
2026-01-08 10:50:30.55	108.90	15.53	-29.7	-32.2	19.4	6.05e-01	0	42	0	182452224	21	4794
2026-01-08 10:50:31.56	108.75	15.63	-29.8	-32.3	19.4	6.08e-01	0	42	0	184549376	21	4830
2026-01-08 10:50:32.57	108.60	15.73	-29.8	-32.4	19.4	6.05e-01	0	42	0	186646528	21	4859
2026-01-08 10:50:33.58	108.45	15.83	-29.8	-32.4	19.4	6.06e-01	0	43	0	188219392	21	4836
2026-01-08 10:50:34.59	108.30	15.93	-29.8	-32.3	19.5	6.06e-01	0	43	0	190316544	21	4796
2026-01-08 10:50:35.59	108.14	16.02	-29.8	-32.2	19.5	6.08e-01	0	42	0	191889408	21	4790
2026-01-08 10:50:36.60	107.99	16.12	-29.8	-32.3	19.4	6.07e-01	0	42	0	193986560	21	4828
2026-01-08 10:50:37.60	107.84	16.22	-29.7	-32.2	19.5	6.07e-01	0	42	0	196083712	21	4781
2026-01-08 10:50:38.61	107.68	16.32	-29.7	-32.1	19.6	6.05e-01	0	42	0	197656576	21	4746
2026-01-08 10:50:39.62	107.52	16.43	-29.8	-32.3	19.4	6.07e-01	0	42	0	199753728	21	4833
2026-01-08 10:50:40.62	107.36	16.53	-29.8	-32.3	19.4	6.06e-01	0	42	0	201326592	21	4814
2026-01-08 10:50:41.63	107.20	16.63	-29.7	-32.1	19.6	6.08e-01	0	43	0	203423744	21	4739
2026-01-08 10:50:42.64	107.04	16.73	-29.7	-32.1	19.6	6.05e-01	0	42	0	204996608	21	4737
2026-01-08 10:50:43.64	106.88	16.83	-29.7	-32.0	19.7	6.07e-01	0	42	0	207093760	21	4716
2026-01-08 10:50:44.65	106.72	16.93	-29.8	-32.2	19.6	6.07e-01	0	42	0	209190912	21	4774
2026-01-08 10:50:45.65	106.55	17.03	-29.8	-32.2	19.6	6.09e-01	0	43	0	210763776	21	4778
2026-01-08 10:50:46.66	106.39	17.13	-29.8	-32.4	19.5	6.05e-01	0	42	0	212860928	21	4827
2026-01-08 10:50:47.67	106.22	17.24	-29.8	-32.4	19.5	6.06e-01	0	43	0	214958080	21	4849
2026-01-08 10:50:48.67	106.05	17.34	-29.9	-32.5	19.4	6.06e-01	0	42	0	216530944	21	4867
2026-01-08 10:50:49.68	105.88	17.44	-29.9	-32.6	19.4	6.08e-01	0	43	0	218628096	21	4906
2026-01-08 10:50:50.68	105.71	17.54	-29.8	-32.4	19.5	6.05e-01	0	42	0	220200960	21	4840
2026-01-08 10:50:51.69	105.54	17.65	-29.8	-32.3	19.6	6.07e-01	0	43	0	222298112	21	4799
2026-01-08 10:50:52.69	105.37	17.75	-29.8	-32.4	19.5	6.05e-01	0	43	0	223870976	21	4828
2026-01-08 10:50:53.70	105.19	17.85	-29.8	-32.3	19.6	6.09e-01	0	43	0	225968128	21	4803
2026-01-08 10:50:54.71	105.02	17.96	-29.7	-32.1	19.7	6.06e-01	0	42	0	228065280	21	4735
2026-01-08 10:50:55.72	104.84	18.06	-29.8	-32.4	19.6	6.07e-01	0	43	0	229638144	21	4816
2026-01-08 10:50:56.72	104.66	18.17	-29.9	-32.4	19.6	6.07e-01	0	43	0	231735296	21	4833
2026-01-08 10:50:57.72	104.48	18.27	-29.9	-32.5	19.5	6.06e-01	0	42	0	233308160	21	4856
2026-01-08 10:50:58.73	104.30	18.38	-29.9	-32.6	19.4	6.08e-01	0	42	0	235405312	21	4915
2026-01-08 10:50:59.74	104.12	18.48	-29.9	-32.6	19.5	6.05e-01	0	43	0	237502464	21	4884
2026-01-08 10:51:00.74	103.94	18.59	-29.9	-32.6	19.5	6.07e-01	0	42	0	239075328	21	4898
2026-01-08 10:51:01.75	103.75	18.69	-29.8	-32.4	19.6	6.06e-01	0	42	0	241172480	21	4832
2026-01-08 10:51:02.75	103.57	18.80	-29.8	-32.3	19.6	6.05e-01	0	43	0	243269632	21	4813
2026-01-08 10:51:03.76	103.38	18.90	-29.8	-32.3	19.7	6.06e-01	0	42	0	244842496	21	4798
2026-01-08 10:51:04.77	103.19	19.01	-29.8	-32.2	19.7	6.07e-01	0	43	0	246939648	21	4772
2026-01-08 10:51:05.77	103.00	19.11	-29.9	-32.6	19.5	6.06e-01	0	42	0	248512512	21	4888
2026-01-08 10:51:06.77	102.81	19.22	-29.9	-32.5	19.5	6.05e-01	0	43	0	250609664	21	4861
2026-01-08 10:51:07.78	102.61	19.33	-30.0	-32.7	19.4	6.06e-01	0	43	0	252182528	21	4937
2026-01-08 10:51:08.78	102.42	19.43	-29.9	-32.6	19.5	6.06e-01	0	42	0	254279680	21	4892
2026-01-08 10:51:09.79	102.22	19.54	-29.9	-32.5	19.6	6.07e-01	0	43	0	256376832	21	4848
2026-01-08 10:51:10.79	102.03	19.65	-29.9	-32.5	19.6	6.07e-01	0	43	0	257949696	21	4852
2026-01-08 10:51:11.79	101.83	19.75	-30.0	-32.7	19.5	6.09e-01	0	43	0	260046848	21	4930
2026-01-08 10:51:12.80	101.63	19.86	-30.0	-32.7	19.5	6.05e-01	0	43	0	261619712	21	4933
2026-01-08 10:51:13.79	101.43	19.97	-30.1	-32.9	19.4	6.08e-01	0	42	0	263716864	21	4992
2026-01-08 10:51:14.80	101.22	20.07	-30.0	-32.9	19.4	6.08e-01	0	43	0	265814016	21	4989
2026-01-08 10:51:15.81	101.02	20.18	-30.1	-32.9	19.4	6.09e-01	0	43	0	267386880	21	5000
2026-01-08 10:51:16.81	100.81	20.29	-30.1	-33.1	19.3	6.06e-01	0	43	0	269484032	21	5071
2026-01-08 10:51:17.81	100.60	20.40	-30.1	-33.1	19.2	6.06e-01	0	43	0	271056896	21	5077
2026-01-08 10:51:18.82	100.39	20.50	-30.2	-33.4	19.1	6.06e-01	0	43	0	273154048	21	5157
2026-01-08 10:51:19.82	100.18	20.61	-30.2	-33.2	19.2	6.07e-01	0	43	0	275251200	21	5108
2026-01-08 10:51:20.83	99.97	20.72	-30.1	-33.0	19.3	6.07e-01	0	43	0	276824064	21	5029
2026-01-08 10:51:21.83	99.76	20.83	-30.1	-33.1	19.3	6.07e-01	0	43	0	278921216	21	5046
2026-01-08 10:51:22.83	99.54	20.94	-30.1	-33.0	19.4	6.07e-01	0	43	0	280494080	21	5016
2026-01-08 10:51:23.83	99.33	21.04	-30.1	-33.1	19.4	6.07e-01	0	43	0	282591232	21	5037
2026-01-08 10:51:24.84	99.10	21.15	-30.1	-32.8	19.5	6.09e-01	0	43	0	284164096	21	4962
2026-01-08 10:51:25.85	98.88	21.26	-30.1	-32.9	19.4	6.05e-01	0	43	0	286261248	21	4991
2026-01-08 10:51:26.85	98.66	21.37	-30.0	-32.6	19.6	6.08e-01	0	43	0	288358400	21	4887
2026-01-08 10:51:27.86	98.44	21.48	-30.0	-32.6	19.6	6.07e-01	0	43	0	289931264	21	4872
2026-01-08 10:51:28.86	98.21	21.59	-30.0	-32.6	19.6	6.05e-01	0	42	0	292028416	21	4893
2026-01-08 10:51:29.87	97.98	21.70	-30.1	-33.0	19.4	6.07e-01	0	43	0	293601280	21	5010
2026-01-08 10:51:30.88	97.75	21.81	-30.2	-33.3	19.2	6.08e-01	0	43	0	295698432	21	5131
2026-01-08 10:51:31.89	97.52	21.92	-30.3	-33.5	19.1	6.07e-01	0	43	0	297795584	21	5212
2026-01-08 10:51:32.89	97.29	22.02	-30.3	-33.5	19.2	6.09e-01	0	43	0	299368448	21	5183
2026-01-08 10:51:33.90	97.05	22.13	-30.3	-33.4	19.2	6.05e-01	0	43	0	301465600	21	5166
2026-01-08 10:51:34.91	96.82	22.24	-30.4	-33.7	19.0	6.07e-01	0	43	0	303562752	21	5257
2026-01-08 10:51:35.91	96.58	22.35	-30.2	-33.2	19.4	6.07e-01	0	43	0	305135616	21	5075
2026-01-08 10:51:36.92	96.34	22.46	-30.2	-33.3	19.3	6.05e-01	0	43	0	307232768	21	5102
2026-01-08 10:51:37.92	96.10	22.57	-30.2	-33.1	19.4	6.08e-01	0	43	0	308805632	21	5047
2026-01-08 10:51:38.93	95.85	22.68	-30.1	-32.9	19.5	6.06e-01	0	43	0	310902784	21	4992
2026-01-08 10:51:39.93	95.61	22.79	-30.1	-33.0	19.4	6.06e-01	0	43	0	312475648	21	5027
2026-01-08 10:51:40.93	95.37	22.90	-30.3	-33.6	19.1	6.08e-01	0	43	0	314572800	21	5215
2026-01-08 10:51:41.93	95.12	23.00	-30.3	-33.5	19.1	6.04e-01	0	43	0	316669952	21	5200
2026-01-08 10:51:42.94	94.87	23.11	-30.3	-33.4	19.2	6.08e-01	0	43	0	318242816	21	5143
2026-01-08 10:51:43.95	94.61	23.22	-30.3	-33.3	19.3	6.06e-01	0	43	0	320339968	21	5127
2026-01-08 10:51:44.96	94.36	23.33	-30.4	-33.7	19.1	6.05e-01	0	43	0	321912832	21	5261
2026-01-08 10:51:45.96	94.10	23.44	-30.2	-33.2	19.3	6.06e-01	0	43	0	324009984	21	5086
2026-01-08 10:51:46.97	93.84	23.55	-30.2	-33.2	19.4	6.07e-01	0	43	0	326107136	21	5082
2026-01-08 10:51:47.98	93.58	23.66	-30.4	-33.7	19.1	6.06e-01	0	43	0	327680000	21	5278
2026-01-08 10:51:48.98	93.32	23.76	-30.3	-33.3	19.3	6.07e-01	0	43	0	329777152	21	5121
2026-01-08 10:51:49.99	93.06	23.87	-30.2	-33.2	19.4	6.07e-01	0	43	0	331350016	21	5069
2026-01-08 10:51:50.99	92.79	23.98	-30.3	-33.5	19.2	6.07e-01	0	43	0	333447168	21	5174
2026-01-08 10:51:51.99	92.53	24.09	-30.3	-33.4	19.3	6.07e-01	0	43	0	335020032	21	5138
2026-01-08 10:51:52.99	92.26	24.19	-30.2	-33.3	19.4	6.08e-01	0	43	0	337117184	21	5098
2026-01-08 10:51:54.00	91.99	24.30	-30.2	-33.1	19.4	6.07e-01	0	43	0	339214336	21	5050
2026-01-08 10:51:55.01	91.71	24.41	-30.2	-33.2	19.4	6.04e-01	0	43	0	340787200	21	5074
2026-01-08 10:51:56.02	91.44	24.52	-30.1	-32.8	19.6	6.05e-01	0	43	0	342884352	21	4937
2026-01-08 10:51:57.03	91.16	24.62	-30.1	-33.0	19.6	6.07e-01	0	43	0	344981504	21	5001
2026-01-08 10:51:58.03	90.88	24.73	-30.2	-33.2	19.4	6.08e-01	0	43	0	346554368	21	5071
2026-01-08 10:51:59.04	90.60	24.84	-30.2	-33.2	19.4	6.06e-01	0	43	0	348651520	21	5086
2026-01-08 10:52:00.05	90.31	24.94	-30.3	-33.3	19.3	6.07e-01	0	43	0	350224384	21	5130
2026-01-08 10:52:01.05	90.03	25.05	-30.3	-33.5	19.2	6.05e-01	0	43	0	352321536	21	5199
2026-01-08 10:52:02.06	89.74	25.15	-30.1	-32.9	19.6	6.07e-01	0	43	0	354418688	21	4969
2026-01-08 10:52:03.07	89.45	25.26	-30.0	-32.7	19.7	6.07e-01	0	43	0	355991552	21	4896
2026-01-08 10:52:04.08	89.16	25.36	-30.1	-32.8	19.7	6.04e-01	0	43	0	358088704	21	4926
2026-01-08 10:52:05.09	88.86	25.47	-30.1	-32.9	19.6	6.05e-01	0	43	0	359661568	21	4977
2026-01-08 10:52:06.09	88.57	25.57	-30.1	-32.9	19.6	6.08e-01	0	43	0	361758720	21	4959
2026-01-08 10:52:07.10	88.27	25.68	-30.0	-32.5	19.8	6.08e-01	0	43	0	363855872	21	4839
2026-01-08 10:52:08.10	87.97	25.78	-30.0	-32.7	19.7	6.05e-01	0	43	0	365428736	21	4899
2026-01-08 10:52:09.10	87.67	25.88	-30.0	-32.6	19.8	6.06e-01	0	43	0	367525888	21	4852
2026-01-08 10:52:10.09	87.37	25.98	-30.0	-32.6	19.8	6.08e-01	0	43	0	369098752	21	4851
2026-01-08 10:52:11.10	87.07	26.08	-30.0	-32.6	19.8	6.05e-01	0	43	0	371195904	21	4878
2026-01-08 10:52:12.11	86.76	26.19	-30.1	-33.0	19.6	6.06e-01	0	43	0	373293056	21	4984
2026-01-08 10:52:13.12	86.45	26.29	-30.1	-32.8	19.7	6.07e-01	0	43	0	374865920	21	4926
2026-01-08 10:52:14.12	86.14	26.39	-30.1	-32.8	19.7	6.08e-01	0	43	0	376963072	21	4927
2026-01-08 10:52:15.13	85.82	26.49	-30.0	-32.5	19.9	6.05e-01	0	43	0	378535936	21	4825
2026-01-08 10:52:16.14	85.51	26.59	-29.9	-32.4	20.0	6.04e-01	0	43	0	380633088	21	4776
2026-01-08 10:52:17.14	85.19	26.69	-29.9	-32.3	19.9	6.08e-01	0	43	0	382205952	21	4766
2026-01-08 10:52:18.15	84.87	26.78	-29.9	-32.4	19.9	6.07e-01	0	43	0	384303104	21	4804
2026-01-08 10:52:19.16	84.55	26.88	-29.9	-32.3	20.0	6.06e-01	0	43	0	386400256	21	4765
2026-01-08 10:52:20.17	84.22	26.98	-30.0	-32.6	19.8	6.06e-01	0	43	0	387973120	21	4860
2026-01-08 10:52:21.18	83.89	27.08	-30.1	-32.8	19.7	6.05e-01	0	43	0	390070272	21	4915
2026-01-08 10:52:22.18	83.57	27.17	-30.0	-32.6	19.8	6.06e-01	0	43	0	391643136	21	4870
2026-01-08 10:52:23.19	83.24	27.27	-30.1	-32.8	19.7	6.05e-01	0	43	0	393740288	21	4934
2026-01-08 10:52:24.19	82.90	27.36	-29.9	-32.4	19.9	6.08e-01	0	43	0	395837440	21	4810
2026-01-08 10:52:25.19	82.57	27.46	-29.8	-32.1	20.1	6.07e-01	0	43	0	397410304	21	4698
2026-01-08 10:52:26.20	82.23	27.55	-29.8	-32.1	20.1	6.07e-01	0	43	0	399507456	21	4684
2026-01-08 10:52:27.20	81.90	27.64	-29.9	-32.3	20.0	6.06e-01	0	43	0	401604608	21	4756
2026-01-08 10:52:28.21	81.56	27.73	-29.8	-32.0	20.2	6.07e-01	0	43	0	403177472	21	4667
2026-01-08 10:52:29.21	81.22	27.82	-29.8	-32.2	20.1	6.06e-01	0	43	0	405274624	21	4716
2026-01-08 10:52:30.22	80.87	27.91	-29.7	-31.9	20.3	6.06e-01	0	43	0	406847488	21	4619
2026-01-08 10:52:31.22	80.53	28.00	-29.7	-31.8	20.3	6.06e-01	0	43	0	408944640	21	4582
2026-01-08 10:52:32.22	80.18	28.09	-29.7	-31.9	20.2	6.05e-01	0	43	0	410517504	21	4635
2026-01-08 10:52:33.23	79.83	28.18	-29.8	-32.0	20.2	6.05e-01	0	43	0	412614656	21	4665
2026-01-08 10:52:34.24	79.47	28.27	-29.7	-31.9	20.2	6.08e-01	0	43	0	414711808	21	4631
2026-01-08 10:52:35.25	79.12	28.35	-29.6	-31.6	20.4	6.07e-01	0	43	0	416284672	21	4532
2026-01-08 10:52:36.26	78.76	28.44	-29.7	-31.8	20.3	6.07e-01	0	43	0	418381824	21	4574
2026-01-08 10:52:37.26	78.40	28.52	-29.7	-31.9	20.3	6.05e-01	0	43	0	419954688	21	4620
2026-01-08 10:52:38.27	78.04	28.61	-29.8	-32.1	20.2	6.07e-01	0	43	0	422051840	21	4680
2026-01-08 10:52:39.27	77.68	28.69	-29.9	-32.2	20.1	6.08e-01	0	43	0	424148992	21	4724
2026-01-08 10:52:40.28	77.32	28.77	-29.6	-31.6	20.5	6.05e-01	0	43	0	425721856	21	4515
2026-01-08 10:52:41.29	76.95	28.85	-29.6	-31.5	20.5	6.05e-01	0	43	0	427819008	21	4488
2026-01-08 10:52:42.29	76.58	28.93	-29.6	-31.6	20.4	6.06e-01	0	43	0	429391872	21	4531
2026-01-08 10:52:43.30	76.21	29.01	-30.0	-41.9	3.8	7.46e-01	0	43	104	430964736	21	14201
2026-01-08 10:52:44.31	75.84	29.08	-30.1	-42.1	3.8	7.43e-01	0	43	104	430964736	21	14387
2026-01-08 10:52:45.31	75.47	29.16	-30.1	-42.2	3.8	7.47e-01	0	43	104	430964736	21	14465
2026-01-08 10:52:46.31	75.09	29.23	-30.3	-42.8	3.8	7.43e-01	0	43	104	430964736	21	15071
2026-01-08 10:52:47.31	74.72	29.31	-30.7	-43.2	3.8	7.39e-01	0	43	104	430964736	22	15166
2026-01-08 10:52:48.32	74.34	29.38	-31.1	-43.8	3.8	7.43e-01	0	43	104	430964736	23	15450
2026-01-08 10:52:49.32	73.96	29.45	-31.4	-44.5	3.8	7.45e-01	0	43	104	430964736	23	16261
2026-01-08 10:52:50.33	73.58	29.52	-31.4	-44.5	3.8	7.48e-01	0	43	104	430964736	23	16328
2026-01-08 10:52:51.33	73.19	29.59	-31.5	-44.8	3.8	7.46e-01	0	43	104	430964736	23	16664
2026-01-08 10:52:52.34	72.81	29.66	-31.8	-45.0	3.8	7.49e-01	0	43	104	430964736	24	16556
2026-01-08 10:52:53.35	72.42	29.72	-32.0	-45.9	3.8	7.45e-01	0	43	104	430964736	24	17694
2026-01-08 10:52:54.35	72.03	29.79	-32.3	-46.0	3.8	7.47e-01	0	43	104	430964736	25	17522
2026-01-08 10:52:55.35	71.64	29.85	-32.7	-46.7	3.8	7.47e-01	0	43	104	430964736	26	18055
2026-01-08 10:52:56.35	71.25	29.92	-33.0	-48.0	3.8	7.48e-01	0	43	104	430964736	26	20176
2026-01-08 10:52:57.35	70.86	29.98	-33.1	-47.9	3.8	7.41e-01	0	43	104	430964736	27	19686
2026-01-08 10:52:58.36	70.46	30.04	-32.8	-46.7	3.8	7.47e-01	0	43	104	430964736	27	17790
2026-01-08 10:52:59.37	70.07	30.10	-32.4	-45.5	3.8	7.44e-01	0	43	104	430964736	27	16137
2026-01-08 10:53:00.37	69.67	30.15	-32.1	-45.0	3.8	7.45e-01	0	43	104	430964736	26	15828
2026-01-08 10:53:01.38	69.27	30.21	-31.8	-44.6	3.8	7.40e-01	0	43	104	430964736	25	15739
2026-01-08 10:53:02.38	68.87	30.26	-31.7	-44.5	3.8	7.46e-01	0	43	104	430964736	25	15675
2026-01-08 10:53:03.39	68.47	30.32	-32.1	-45.7	3.8	7.46e-01	0	43	104	430964736	25	17125
2026-01-08 10:53:04.39	68.06	30.37	-32.6	-47.0	3.8	7.47e-01	0	43	104	430964736	25	18974
2026-01-08 10:53:05.39	67.66	30.42	-32.9	-47.7	3.8	7.45e-01	0	43	104	430964736	26	19787
2026-01-08 10:53:06.40	67.25	30.47	-33.2	-48.2	3.8	7.45e-01	0	43	104	430964736	27	20246
2026-01-08 10:53:07.41	66.84	30.51	-33.4	-48.9	3.8	7.40e-01	0	43	104	430964736	27	21535
2026-01-08 10:53:08.41	66.44	30.56	-33.4	-49.3	3.8	7.46e-01	0	43	104	430964736	27	22241
2026-01-08 10:53:09.41	66.03	30.60	-33.4	-49.3	3.8	7.45e-01	0	43	104	430964736	27	22451
2026-01-08 10:53:10.42	65.62	30.64	-33.4	-49.3	3.8	7.47e-01	0	43	104	430964736	27	22356
2026-01-08 10:53:11.43	65.20	30.69	-33.5	-49.3	3.8	7.44e-01	0	43	104	430964736	27	22408
2026-01-08 10:53:12.43	64.79	30.73	-33.5	-49.5	3.8	7.45e-01	0	43	104	430964736	27	22738
2026-01-08 10:53:13.43	64.38	30.76	-33.6	-49.9	3.8	7.41e-01	0	43	104	430964736	27	23633
2026-01-08 10:53:14.44	63.96	30.80	-33.6	-49.8	3.8	7.43e-01	0	43	104	430964736	28	23252
2026-01-08 10:53:15.45	63.55	30.83	-33.7	-50.1	3.8	7.43e-01	0	43	104	430964736	28	23741
2026-01-08 10:53:16.45	63.13	30.87	-33.4	-48.9	3.8	7.46e-01	0	43	104	430964736	28	21347
2026-01-08 10:53:17.46	62.71	30.90	-33.2	-47.9	3.8	7.48e-01	0	43	104	430964736	28	19515
2026-01-08 10:53:18.46	62.29	30.93	-32.9	-46.9	3.8	7.47e-01	0	43	104	430964736	28	17972
2026-01-08 10:53:19.47	61.87	30.96	-32.6	-46.2	3.8	7.47e-01	0	43	104	430964736	27	17171
2026-01-08 10:53:20.48	61.45	30.98	-32.4	-46.0	3.8	7.45e-01	0	43	104	430964736	26	17110
2026-01-08 10:53:21.48	61.03	31.01	-32.4	-46.1	3.8	7.45e-01	0	43	104	430964736	26	17325
2026-01-08 10:53:22.48	60.61	31.03	-32.3	-45.7	3.8	7.46e-01	0	43	104	430964736	26	16764
2026-01-08 10:53:23.49	60.19	31.05	-32.2	-45.5	3.8	7.44e-01	0	43	104	430964736	26	16511
2026-01-08 10:53:24.49	59.77	31.07	-32.2	-45.3	3.8	7.46e-01	0	43	104	430964736	26	16307
2026-01-08 10:53:25.50	59.34	31.09	-32.3	-45.5	3.8	7.44e-01	0	43	104	430964736	26	16497
2026-01-08 10:53:26.51	58.92	31.11	-32.3	-45.8	3.8	7.46e-01	0	43	104	430964736	26	16875
2026-01-08 10:53:27.52	58.49	31.12	-32.2	-45.1	3.8	7.44e-01	0	43	104	430964736	26	15978
2026-01-08 10:53:28.52	58.07	31.13	-31.8	-44.5	3.8	7.45e-01	0	43	104	430964736	25	15609
2026-01-08 10:53:29.53	57.65	31.14	-31.5	-43.7	3.8	7.41e-01	0	43	104	430964736	25	14781
2026-01-08 10:53:30.54	57.22	31.15	-31.1	-43.2	3.8	7.39e-01	0	43	104	430964736	24	14521
2026-01-08 10:53:31.54	56.80	31.16	-30.7	-42.5	3.8	7.48e-01	0	43	104	430964736	23	14090
2026-01-08 10:53:32.55	56.37	31.17	-30.5	-42.1	3.8	7.49e-01	0	43	104	430964736	23	13637
2026-01-08 10:53:33.56	55.94	31.17	-30.6	-42.4	3.8	7.45e-01	0	43	104	430964736	23	14007
2026-01-08 10:53:34.57	55.51	31.17	-31.0	-43.4	3.8	7.44e-01	0	43	104	430964736	23	15002
2026-01-08 10:53:35.57	55.09	31.18	-31.4	-44.5	3.8	7.45e-01	0	43	104	430964736	23	16227
2026-01-08 10:53:36.58	54.66	31.17	-31.9	-45.3	3.8	7.46e-01	0	43	104	430964736	24	16809
2026-01-08 10:53:37.59	54.24	31.17	-32.3	-46.1	3.8	7.45e-01	0	43	104	430964736	25	17571
2026-01-08 10:53:38.59	53.81	31.17	-32.9	-47.5	3.8	7.42e-01	0	43	104	430964736	26	19380
2026-01-08 10:53:39.60	53.39	31.16	-33.2	-48.0	3.8	7.44e-01	0	43	104	430964736	27	19817
2026-01-08 10:53:40.60	52.96	31.15	-33.2	-47.9	3.8	7.46e-01	0	43	104	430964736	27	19587
2026-01-08 10:53:41.61	52.54	31.14	-33.1	-47.7	3.8	7.45e-01	0	43	104	430964736	27	19225
2026-01-08 10:53:42.62	52.11	31.13	-33.2	-48.1	3.8	7.48e-01	0	43	104	430964736	27	20035
2026-01-08 10:53:43.62	51.69	31.12	-33.4	-49.1	3.8	7.46e-01	0	43	104	430964736	27	21724
2026-01-08 10:53:44.63	51.26	31.10	-33.6	-49.7	3.8	7.45e-01	0	43	104	430964736	27	23110
2026-01-08 10:53:45.64	50.84	31.09	-33.3	-48.4	3.8	7.47e-01	0	43	104	430964736	28	20319
2026-01-08 10:53:46.65	50.41	31.07	-33.0	-47.1	3.8	7.45e-01	0	43	104	430964736	28	18210
2026-01-08 10:53:47.65	49.99	31.05	-32.8	-46.6	3.8	7.45e-01	0	43	104	430964736	27	17784
2026-01-08 10:53:48.66	49.57	31.03	-32.4	-45.5	3.8	7.44e-01	0	43	104	430964736	27	16173
2026-01-08 10:53:49.67	49.15	31.00	-32.1	-45.0	3.8	7.45e-01	0	43	104	430964736	26	15854
2026-01-08 10:53:50.68	48.72	30.98	-31.9	-44.4	3.8	7.45e-01	0	43	104	430964736	26	15247
2026-01-08 10:53:51.68	48.31	30.95	-31.6	-44.1	3.8	7.45e-01	0	43	104	430964736	25	15127
2026-01-08 10:53:52.69	47.89	30.92	-31.8	-44.5	3.8	7.44e-01	0	43	104	430964736	25	15626
2026-01-08 10:53:53.70	47.47	30.89	-32.2	-46.0	3.8	7.46e-01	0	43	104	430964736	25	17510
2026-01-08 10:53:54.71	47.05	30.86	-32.6	-46.7	3.8	7.42e-01	0	43	104	430964736	26	18176
2026-01-08 10:53:55.71	46.63	30.83	-32.9	-47.8	3.8	7.43e-01	0	43	104	430964736	26	19903
2026-01-08 10:53:56.72	46.22	30.80	-33.3	-48.5	3.8	7.45e-01	0	43	104	430964736	27	20754
2026-01-08 10:53:57.73	45.80	30.76	-33.5	-49.6	3.8	7.45e-01	0	43	104	430964736	27	22961
2026-01-08 10:53:58.73	45.39	30.72	-33.5	-49.6	3.8	7.45e-01	0	43	104	430964736	27	22764
2026-01-08 10:53:59.74	44.97	30.68	-33.6	-49.8	3.8	7.45e-01	0	43	104	430964736	27	23209
2026-01-08 10:54:00.72	44.57	30.64	-33.5	-49.3	3.8	7.44e-01	0	43	104	430964736	28	22164
2026-01-08 10:54:01.73	44.16	30.60	-33.5	-49.4	3.8	7.43e-01	0	43	104	430964736	28	22250
2026-01-08 10:54:02.73	43.75	30.55	-33.6	-49.6	3.8	7.47e-01	0	43	104	430964736	28	22687
2026-01-08 10:54:03.74	43.34	30.51	-33.6	-49.5	3.8	7.45e-01	0	43	104	430964736	28	22561
2026-01-08 10:54:04.75	42.94	30.46	-33.7	-50.1	3.8	7.45e-01	0	43	104	430964736	28	23884
2026-01-08 10:54:05.76	42.53	30.41	-33.6	-49.7	3.8	7.48e-01	0	43	104	430964736	28	22913
2026-01-08 10:54:06.76	42.13	30.36	-33.4	-48.8	3.8	7.42e-01	0	43	104	430964736	28	21197
2026-01-08 10:54:07.76	41.73	30.31	-33.0	-47.3	3.8	7.46e-01	0	43	104	430964736	28	18652
2026-01-08 10:54:08.77	41.32	30.26	-32.8	-46.7	3.8	7.46e-01	0	43	104	430964736	27	17811
2026-01-08 10:54:09.78	40.92	30.20	-32.5	-45.7	3.8	7.46e-01	0	43	104	430964736	27	16510
2026-01-08 10:54:10.78	40.52	30.15	-32.3	-45.9	3.8	7.44e-01	0	43	104	430964736	26	17082
2026-01-08 10:54:11.79	40.13	30.09	-32.2	-45.5	3.8	7.44e-01	0	43	104	430964736	26	16603
2026-01-08 10:54:12.79	39.73	30.03	-32.2	-45.4	3.8	7.43e-01	0	43	104	430964736	26	16434
2026-01-08 10:54:13.80	39.34	29.97	-32.4	-45.9	3.8	7.45e-01	0	43	104	430964736	26	17060
2026-01-08 10:54:14.81	38.94	29.91	-32.6	-46.6	3.8	7.46e-01	0	43	104	430964736	26	18160
2026-01-08 10:54:15.81	38.55	29.85	-32.7	-47.3	3.8	7.42e-01	0	43	104	430964736	26	19124
2026-01-08 10:54:16.81	38.16	29.78	-32.9	-47.8	3.8	7.45e-01	0	43	104	430964736	26	19942
2026-01-08 10:54:17.81	37.78	29.72	-32.8	-47.2	3.8	7.44e-01	0	43	104	430964736	26	18928
2026-01-08 10:54:18.82	37.39	29.65	-32.5	-46.4	3.8	7.46e-01	0	43	104	430964736	26	17804
2026-01-08 10:54:19.83	37.00	29.58	-32.3	-45.7	3.8	7.44e-01	0	43	104	430964736	26	16762
2026-01-08 10:54:20.84	36.62	29.52	-32.1	-45.0	3.8	7.47e-01	0	43	104	430964736	26	15906
2026-01-08 10:54:21.85	36.24	29.45	-31.9	-44.5	3.8	7.42e-01	0	43	104	430964736	26	15379
2026-01-08 10:54:22.85	35.86	29.37	-31.7	-44.5	3.8	7.46e-01	0	43	104	430964736	25	15579
2026-01-08 10:54:23.86	35.48	29.30	-32.1	-45.5	3.8	7.45e-01	0	43	104	430964736	25	16876
2026-01-08 10:54:24.87	35.10	29.23	-32.5	-47.0	3.8	7.42e-01	0	43	104	430964736	25	18923
2026-01-08 10:54:25.87	34.73	29.15	-33.0	-48.0	3.8	7.46e-01	0	43	104	430964736	26	20329
2026-01-08 10:54:26.88	34.36	29.08	-33.4	-49.2	3.8	7.44e-01	0	43	104	430964736	27	22157
2026-01-08 10:54:27.89	33.99	29.00	-33.1	-48.1	3.8	7.44e-01	0	43	104	430964736	27	20094
2026-01-08 10:54:28.90	33.62	28.92	-32.7	-46.6	3.8	7.40e-01	0	43	104	430964736	27	17784
2026-01-08 10:54:29.90	33.25	28.84	-32.7	-46.5	3.8	7.47e-01	0	43	104	430964736	27	17663
2026-01-08 10:54:30.91	32.88	28.76	-32.7	-46.4	3.8	7.47e-01	0	43	104	430964736	27	17505
2026-01-08 10:54:31.91	32.52	28.68	-32.8	-46.8	3.8	7.42e-01	0	43	104	430964736	27	18042
2026-01-08 10:54:32.92	32.16	28.60	-32.9	-47.3	3.8	7.49e-01	0	43	104	430964736	27	18870
2026-01-08 10:54:33.92	31.80	28.52	-33.0	-47.8	3.8	7.42e-01	0	43	104	430964736	27	19634
2026-01-08 10:54:34.93	31.45	28.43	-33.2	-48.2	3.8	7.48e-01	0	43	104	430964736	27	20294
2026-01-08 10:54:35.94	31.09	28.35	-32.9	-47.2	3.8	7.46e-01	0	43	104	430964736	27	18708
2026-01-08 10:54:36.95	30.73	28.26	-32.7	-46.4	3.8	7.46e-01	0	43	104	430964736	27	17501
2026-01-08 10:54:37.96	30.38	28.17	-32.3	-45.8	3.8	7.45e-01	0	43	104	430964736	26	17035
2026-01-08 10:54:38.96	30.04	28.09	-32.0	-45.0	3.8	7.43e-01	0	43	104	430964736	26	15931
2026-01-08 10:54:39.96	29.69	28.00	-31.8	-44.8	3.8	7.45e-01	0	43	104	430964736	25	16128
2026-01-08 10:54:40.97	29.34	27.91	-31.6	-44.3	3.8	7.42e-01	0	43	104	430964736	25	15506
2026-01-08 10:54:41.98	29.00	27.82	-31.5	-43.9	3.8	7.45e-01	0	43	104	430964736	25	15052
2026-01-08 10:54:42.98	28.66	27.73	-31.8	-44.6	3.8	7.46e-01	0	43	104	430964736	25	15795
2026-01-08 10:54:43.99	28.32	27.64	-32.1	-45.8	3.8	7.46e-01	0	43	104	430964736	25	17272
2026-01-08 10:54:45.00	27.98	27.54	-32.6	-47.1	3.8	7.44e-01	0	43	104	430964736	26	19096
2026-01-08 10:54:46.01	27.64	27.45	-33.0	-48.2	3.8	7.48e-01	0	43	104	430964736	26	20874
2026-01-08 10:54:47.01	27.31	27.36	-33.2	-48.7	3.8	7.47e-01	0	43	104	430964736	27	21391
2026-01-08 10:54:48.02	26.98	27.26	-33.5	-49.7	3.8	7.46e-01	0	43	104	430964736	27	23389
2026-01-08 10:54:49.02	26.65	27.17	-33.5	-49.8	3.8	7.45e-01	0	43	104	430964736	27	23612
2026-01-08 10:54:50.03	26.33	27.07	-33.5	-49.8	3.8	7.42e-01	0	43	104	430964736	27	23554
2026-01-08 10:54:51.04	26.00	26.98	-33.5	-49.9	3.8	7.47e-01	0	43	104	430964736	27	23646
2026-01-08 10:54:52.04	25.68	26.88	-33.5	-49.8	3.8	7.46e-01	0	43	104	430964736	27	23457
2026-01-08 10:54:53.05	25.36	26.78	-33.5	-50.0	3.8	7.44e-01	0	43	104	430964736	27	23916
2026-01-08 10:54:54.06	25.04	26.68	-33.5	-50.0	3.8	7.43e-01	0	43	104	430964736	27	24018
2026-01-08 10:54:55.06	24.72	26.59	-33.6	-50.2	3.8	7.44e-01	0	43	104	430964736	28	24265
2026-01-08 10:54:56.07	24.41	26.49	-33.4	-49.2	3.8	7.43e-01	0	43	104	430964736	28	22115
2026-01-08 10:54:57.08	24.09	26.39	-33.1	-48.0	3.8	7.45e-01	0	43	104	430964736	28	19995
2026-01-08 10:54:58.08	23.79	26.29	-32.9	-47.5	3.8	7.46e-01	0	43	104	430964736	27	19298
2026-01-08 10:54:59.09	23.48	26.18	-32.6	-46.5	3.8	7.45e-01	0	43	104	430964736	27	17802
2026-01-08 10:55:00.10	23.17	26.08	-32.3	-45.9	3.8	7.43e-01	0	43	104	430964736	26	17317
2026-01-08 10:55:01.11	22.86	25.98	-32.4	-46.3	3.8	7.41e-01	0	43	104	430964736	26	17782
2026-01-08 10:55:02.12	22.56	25.88	-32.5	-46.7	3.8	7.41e-01	0	43	104	430964736	26	18278
2026-01-08 10:55:03.12	22.26	25.78	-32.7	-47.2	3.8	7.41e-01	0	43	104	430964736	26	19079
2026-01-08 10:55:04.13	21.96	25.67	-32.9	-47.9	3.8	7.45e-01	0	43	104	430964736	26	20149
2026-01-08 10:55:05.13	21.67	25.57	-33.1	-48.3	3.9	7.43e-01	0	43	104	430964736	27	20707
2026-01-08 10:55:06.14	21.37	25.47	-33.3	-49.2	3.8	7.45e-01	0	43	104	430964736	27	22386
2026-01-08 10:55:07.15	21.08	25.36	-33.4	-49.7	3.8	7.45e-01	0	43	104	430964736	27	23346
2026-01-08 10:55:08.16	20.79	25.26	-33.3	-49.2	3.8	7.46e-01	0	43	104	430964736	27	22309
2026-01-08 10:55:09.16	20.50	25.15	-33.2	-48.6	3.8	7.50e-01	0	43	104	430964736	27	21194
2026-01-08 10:55:10.17	20.22	25.05	-33.1	-48.3	3.8	7.43e-01	0	43	104	430964736	27	20569
2026-01-08 10:55:11.17	19.93	24.94	-33.1	-48.0	3.8	7.46e-01	0	43	104	430964736	27	20028
2026-01-08 10:55:12.19	19.65	24.84	-33.0	-47.6	3.8	7.43e-01	0	43	104	430964736	27	19449
2026-01-08 10:55:13.19	19.37	24.73	-33.0	-47.9	3.8	7.44e-01	0	43	104	430964736	27	19851
2026-01-08 10:55:14.19	19.09	24.63	-33.4	-49.3	3.8	7.44e-01	0	43	104	430964736	27	22513
2026-01-08 10:55:15.20	18.82	24.52	-33.6	-49.7	3.8	7.46e-01	0	43	104	430964736	28	23111
2026-01-08 10:55:16.20	18.55	24.41	-33.3	-48.4	3.8	7.42e-01	0	43	104	430964736	28	20653
2026-01-08 10:55:17.21	18.27	24.31	-32.9	-47.0	3.8	7.46e-01	0	43	104	430964736	28	18235
2026-01-08 10:55:18.22	18.00	24.20	-32.6	-46.3	3.8	7.46e-01	0	43	104	430964736	27	17434
2026-01-08 10:55:19.23	17.73	24.09	-32.2	-45.5	3.8	7.42e-01	0	43	104	430964736	26	16617
2026-01-08 10:55:20.24	17.46	23.98	-32.2	-45.5	3.8	7.44e-01	0	43	104	430964736	26	16525
2026-01-08 10:55:21.24	17.20	23.88	-32.2	-45.6	3.8	7.46e-01	0	43	104	430964736	26	16818
2026-01-08 10:55:22.25	16.94	23.77	-32.3	-46.1	3.8	7.45e-01	0	43	104	430964736	26	17574
2026-01-08 10:55:23.26	16.68	23.66	-32.5	-46.6	3.8	7.46e-01	0	43	104	430964736	26	18314
2026-01-08 10:55:24.27	16.42	23.55	-32.6	-47.0	3.8	7.46e-01	0	43	104	430964736	26	18890
2026-01-08 10:55:25.27	16.16	23.45	-32.7	-47.1	3.8	7.44e-01	0	43	104	430964736	26	19032
2026-01-08 10:55:26.28	15.91	23.34	-32.4	-46.0	3.8	7.46e-01	0	43	104	430964736	26	17305
2026-01-08 10:55:27.29	15.65	23.23	-32.1	-45.2	3.8	7.46e-01	0	43	104	430964736	26	16238
2026-01-08 10:55:28.29	15.40	23.12	-31.8	-45.0	3.8	7.45e-01	0	43	104	430964736	25	16362
2026-01-08 10:55:29.30	15.15	23.01	-31.6	-44.4	3.8	7.44e-01	0	43	104	430964736	25	15687
2026-01-08 10:55:30.31	14.91	22.90	-31.4	-44.0	3.8	7.45e-01	0	43	104	430964736	25	15215
2026-01-08 10:55:31.32	14.66	22.79	-31.3	-44.0	3.8	7.45e-01	0	43	104	430964736	24	15607
2026-01-08 10:55:32.32	14.42	22.69	-31.3	-44.1	3.8	7.46e-01	0	43	104	430964736	24	15629
2026-01-08 10:55:33.33	14.17	22.58	-31.7	-45.0	3.8	7.43e-01	0	43	104	430964736	24	16718
2026-01-08 10:55:34.34	13.93	22.47	-32.1	-46.2	3.8	7.46e-01	0	43	104	430964736	24	18405
2026-01-08 10:55:35.35	13.69	22.36	-32.5	-47.2	3.8	7.45e-01	0	43	104	430964736	25	19527
2026-01-08 10:55:36.35	13.46	22.25	-32.8	-48.0	3.8	7.48e-01	0	43	104	430964736	26	20557
2026-01-08 10:55:37.36	13.22	22.14	-33.1	-48.7	3.8	7.45e-01	0	43	104	430964736	27	21590
2026-01-08 10:55:38.37	12.99	22.03	-33.3	-49.3	3.8	7.46e-01	0	43	104	430964736	27	22811
2026-01-08 10:55:39.37	12.76	21.93	-33.3	-49.3	3.8	7.45e-01	0	43	104	430964736	27	22782
2026-01-08 10:55:40.38	12.53	21.82	-33.3	-49.4	3.8	7.44e-01	0	43	104	430964736	27	22989
2026-01-08 10:55:41.39	12.30	21.71	-33.3	-49.6	3.8	7.46e-01	0	43	104	430964736	27	23374
2026-01-08 10:55:42.40	12.07	21.60	-33.4	-49.8	3.8	7.44e-01	0	43	104	430964736	27	23809
2026-01-08 10:55:43.40	11.85	21.49	-33.4	-49.9	3.8	7.45e-01	0	43	104	430964736	27	23975
2026-01-08 10:55:44.41	11.62	21.38	-33.5	-50.2	3.8	7.46e-01	0	43	104	430964736	27	24710
2026-01-08 10:55:45.41	11.40	21.28	-33.5	-50.3	3.8	7.46e-01	0	43	104	430964736	27	24986
2026-01-08 10:55:46.42	11.18	21.17	-33.3	-49.6	3.8	7.44e-01	0	43	104	430964736	27	23325
2026-01-08 10:55:47.42	10.97	21.06	-33.1	-48.6	3.8	7.46e-01	0	43	104	430964736	27	21417
2026-01-08 10:55:48.42	10.75	20.95	-32.9	-47.7	3.8	7.44e-01	0	43	104	430964736	27	19790
2026-01-08 10:55:49.43	10.54	20.84	-32.6	-46.8	3.8	7.46e-01	0	43	104	430964736	27	18293
2026-01-08 10:55:50.44	10.32	20.74	-32.6	-46.5	3.8	7.47e-01	0	43	104	430964736	27	17902
2026-01-08 10:55:51.44	10.11	20.63	-32.8	-47.2	3.8	7.47e-01	0	43	104	430964736	27	18978
2026-01-08 10:55:52.45	9.90	20.52	-32.9	-47.9	3.8	7.47e-01	0	43	104	430964736	27	20252
2026-01-08 10:55:53.46	9.69	20.41	-33.1	-48.5	3.8	7.41e-01	0	43	104	430964736	27	21231
2026-01-08 10:55:54.46	9.49	20.31	-33.2	-49.1	3.8	7.45e-01	0	43	104	430964736	27	22352
2026-01-08 10:55:55.47	9.28	20.20	-33.3	-49.5	3.8	7.47e-01	0	43	104	430964736	27	23085
2026-01-08 10:55:56.48	9.08	20.09	-33.4	-49.8	3.8	7.46e-01	0	43	104	430964736	27	23821
2026-01-08 10:55:57.48	8.87	19.98	-33.4	-50.1	3.8	7.44e-01	0	43	104	430964736	27	24462
2026-01-08 10:55:58.49	8.67	19.88	-33.5	-50.2	3.8	7.44e-01	0	43	104	430964736	27	24804
2026-01-08 10:55:59.50	8.47	19.77	-33.5	-50.4	3.8	7.43e-01	0	43	104	430964736	27	25165
2026-01-08 10:56:00.50	8.28	19.66	-33.5	-50.4	3.8	7.44e-01	0	43	104	430964736	27	25260
2026-01-08 10:56:01.50	8.08	19.56	-33.5	-50.5	3.8	7.46e-01	0	43	104	430964736	27	25499
2026-01-08 10:56:02.51	7.89	19.45	-33.6	-50.6	3.8	7.48e-01	0	43	104	430964736	27	25526
2026-01-08 10:56:03.52	7.69	19.35	-33.5	-50.1	3.8	7.42e-01	0	43	104	430964736	27	24564
2026-01-08 10:56:04.52	7.50	19.24	-33.2	-48.9	3.8	7.43e-01	0	43	104	430964736	27	21945
2026-01-08 10:56:05.53	7.31	19.13	-32.8	-47.6	3.8	7.46e-01	0	43	104	430964736	27	19581
2026-01-08 10:56:06.54	7.12	19.03	-32.5	-46.2	3.8	7.44e-01	0	43	104	430964736	27	17521
2026-01-08 10:56:07.55	6.93	18.92	-32.1	-45.3	3.8	7.42e-01	0	43	104	430964736	26	16551
2026-01-08 10:56:08.55	6.75	18.82	-31.7	-44.8	3.8	7.45e-01	0	43	104	430964736	25	16192
2026-01-08 10:56:09.56	6.56	18.71	-31.5	-44.2	3.8	7.44e-01	0	43	104	430964736	25	15588
2026-01-08 10:56:10.56	6.38	18.61	-31.5	-44.2	3.8	7.41e-01	0	43	104	430964736	25	15589
2026-01-08 10:56:11.56	6.20	18.50	-31.5	-44.2	3.8	7.48e-01	0	43	104	430964736	25	15524
2026-01-08 10:56:12.56	6.02	18.40	-31.6	-44.5	3.8	7.43e-01	0	43	104	430964736	25	15828
2026-01-08 10:56:13.57	5.84	18.30	-31.8	-45.0	3.8	7.46e-01	0	43	104	430964736	25	16374
2026-01-08 10:56:14.57	5.66	18.19	-32.0	-45.7	3.8	7.46e-01	0	43	104	430964736	25	17395
2026-01-08 10:56:15.58	5.48	18.09	-32.0	-45.6	3.8	7.45e-01	0	43	104	430964736	25	17345
2026-01-08 10:56:16.59	5.31	17.99	-31.7	-44.9	3.8	7.45e-01	0	43	104	430964736	25	16451
2026-01-08 10:56:17.60	5.13	17.88	-31.4	-44.1	3.8	7.45e-01	0	43	104	430964736	25	15458
2026-01-08 10:56:18.61	4.96	17.78	-31.2	-44.0	3.8	7.47e-01	0	43	104	430964736	24	15675
2026-01-08 10:56:19.61	4.79	17.68	-31.1	-43.5	3.8	7.44e-01	0	43	104	430964736	24	15026
2026-01-08 10:56:20.62	4.61	17.57	-30.9	-43.1	3.8	7.45e-01	0	43	104	430964736	24	14598
2026-01-08 10:56:21.63	4.44	17.47	-30.9	-43.7	3.8	7.43e-01	0	43	104	430964736	23	15708
2026-01-08 10:56:22.64	4.28	17.37	-31.1	-44.1	3.8	7.44e-01	0	43	104	430964736	23	16128
2026-01-08 10:56:23.64	4.11	17.27	-31.5	-45.2	3.8	7.42e-01	0	43	104	430964736	23	17424
2026-01-08 10:56:24.64	3.95	17.16	-31.9	-45.7	3.8	7.46e-01	0	43	104	430964736	24	17787
2026-01-08 10:56:25.65	3.78	17.06	-32.3	-46.6	3.8	7.48e-01	0	43	104	430964736	25	18702
2026-01-08 10:56:26.66	3.62	16.96	-32.7	-47.5	3.9	7.43e-01	0	43	104	430964736	26	19969
2026-01-08 10:56:27.66	3.46	16.86	-33.0	-49.0	3.8	7.45e-01	0	43	104	430964736	26	22651
2026-01-08 10:56:28.67	3.29	16.76	-33.1	-49.0	3.8	7.45e-01	0	43	104	430964736	27	22395
2026-01-08 10:56:29.68	3.13	16.66	-33.2	-49.2	3.8	7.47e-01	0	43	104	430964736	27	22942
2026-01-08 10:56:30.68	2.98	16.56	-33.2	-49.5	3.8	7.47e-01	0	43	104	430964736	27	23426
2026-01-08 10:56:31.69	2.82	16.46	-33.3	-49.7	3.8	7.44e-01	0	43	104	430964736	27	23777
2026-01-08 10:56:32.69	2.66	16.36	-33.3	-49.8	3.8	7.44e-01	0	43	104	430964736	27	24079
2026-01-08 10:56:33.70	2.51	16.26	-33.4	-50.1	3.8	7.47e-01	0	43	104	430964736	27	24653
2026-01-08 10:56:34.71	2.35	16.16	-33.4	-50.6	3.8	7.44e-01	0	43	104	430964736	27	25882
2026-01-08 10:56:35.71	2.20	16.06	-33.4	-50.4	3.8	7.47e-01	0	43	104	430964736	27	25413
2026-01-08 10:56:36.72	2.05	15.96	-33.3	-49.9	3.8	7.41e-01	0	43	104	430964736	27	24234
2026-01-08 10:56:37.73	1.90	15.86	-33.1	-49.2	3.8	7.45e-01	0	43	104	430964736	27	22801
2026-01-08 10:56:38.73	1.75	15.76	-33.0	-48.5	3.8	7.47e-01	0	43	104	430964736	27	21469
2026-01-08 10:56:39.74	1.60	15.67	-32.8	-47.8	3.8	7.45e-01	0	43	104	430964736	27	20199
2026-01-08 10:56:40.74	1.45	15.57	-32.9	-48.0	3.8	7.44e-01	0	43	104	430964736	27	20563
2026-01-08 10:56:41.75	1.31	15.47	-33.0	-48.7	3.8	7.45e-01	0	43	104	430964736	27	21730
2026-01-08 10:56:42.75	1.16	15.37	-33.2	-49.2	3.8	7.46e-01	0	43	104	430964736	27	22879
2026-01-08 10:56:43.76	1.02	15.28	-33.3	-49.7	3.8	7.47e-01	0	43	104	430964736	27	23921
2026-01-08 10:56:44.76	0.87	15.18	-33.3	-50.0	3.8	7.42e-01	0	43	104	430964736	27	24482
2026-01-08 10:56:45.77	0.73	15.08	-33.3	-49.8	3.8	7.46e-01	0	43	104	430964736	27	24204
2026-01-08 10:56:46.78	0.59	14.99	-33.2	-49.5	3.8	7.44e-01	0	43	104	430964736	27	23453
2026-01-08 10:56:47.79	0.45	14.89	-33.1	-49.1	3.8	7.46e-01	0	43	104	430964736	27	22729
2026-01-08 10:56:48.80	0.31	14.79	-33.1	-48.9	3.8	7.45e-01	0	43	104	430964736	27	22304
2026-01-08 10:56:49.80	0.17	14.70	-33.1	-48.8	3.8	7.46e-01	0	43	104	430964736	27	21935
2026-01-08 10:56:50.80	0.03	14.60	-33.0	-48.5	3.8	7.45e-01	0	43	104	430964736	27	21452
2026-01-08 10:56:51.81	359.90	14.51	-33.0	-48.6	3.8	7.44e-01	0	43	104	430964736	27	21642
2026-01-08 10:56:52.82	359.76	14.41	-33.0	-48.4	3.8	7.46e-01	0	43	104	430964736	27	21337
2026-01-08 10:56:53.83	359.63	14.32	-32.8	-47.6	3.8	7.42e-01	0	43	104	430964736	27	19737
2026-01-08 10:56:54.84	359.49	14.22	-32.4	-46.3	3.8	7.45e-01	0	43	104	430964736	27	17847
2026-01-08 10:56:55.84	359.36	14.13	-32.1	-45.7	3.8	7.45e-01	0	43	104	430964736	26	17251
2026-01-08 10:56:56.84	359.23	14.04	-31.7	-45.2	3.8	7.42e-01	0	43	104	430964736	25	16947
2026-01-08 10:56:57.85	359.10	13.94	-31.4	-44.1	3.8	7.46e-01	0	43	104	430964736	25	15617
2026-01-08 10:56:58.86	358.97	13.85	-31.1	-43.8	3.8	7.43e-01	0	43	104	430964736	24	15511
2026-01-08 10:56:59.87	358.84	13.75	-31.1	-43.7	3.8	7.43e-01	0	43	104	430964736	24	15388
2026-01-08 10:57:00.87	358.71	13.66	-31.0	-43.4	3.8	7.43e-01	0	43	104	430964736	24	15013
2026-01-08 10:57:01.88	358.58	13.57	-31.1	-43.7	3.8	7.46e-01	0	43	104	430964736	24	15300
2026-01-08 10:57:02.89	358.45	13.48	-31.2	-43.8	3.8	7.44e-01	0	43	104	430964736	24	15393
2026-01-08 10:57:03.89	358.33	13.39	-31.4	-44.4	3.8	7.45e-01	0	43	104	430964736	24	16013
2026-01-08 10:57:04.90	358.20	13.29	-31.6	-45.2	3.8	7.47e-01	0	44	104	430964736	24	17144
2026-01-08 10:57:05.91	358.08	13.20	-31.4	-44.7	3.8	7.43e-01	0	43	104	430964736	24	16552
2026-01-08 10:57:06.91	357.96	13.11	-31.2	-44.2	3.8	7.43e-01	0	43	104	430964736	24	16077
2026-01-08 10:57:07.92	357.84	13.02	-31.1	-43.8	3.8	7.43e-01	0	43	104	430964736	24	15610
2026-01-08 10:57:08.93	357.71	12.93	-31.0	-43.5	3.8	7.42e-01	0	43	104	430964736	24	15293
2026-01-08 10:57:09.93	357.59	12.84	-31.1	-43.9	3.8	7.44e-01	0	43	104	430964736	24	15714
2026-01-08 10:57:10.94	357.47	12.75	-31.3	-44.3	3.8	7.44e-01	0	43	104	430964736	24	16182
2026-01-08 10:57:11.94	357.36	12.66	-31.5	-44.8	3.8	7.43e-01	0	43	104	430964736	24	16729
2026-01-08 10:57:12.94	357.24	12.57	-31.7	-45.6	3.8	7.47e-01	0	43	104	430964736	24	17844
2026-01-08 10:57:13.95	357.12	12.48	-32.0	-46.6	3.8	7.45e-01	0	43	104	430964736	24	19192
2026-01-08 10:57:14.96	357.00	12.39	-32.3	-47.1	3.8	7.45e-01	0	43	104	430964736	25	19805
2026-01-08 10:57:15.96	356.89	12.30	-32.6	-48.2	3.8	7.40e-01	0	43	104	430964736	25	21721
2026-01-08 10:57:16.97	356.77	12.21	-32.7	-48.5	3.8	7.44e-01	0	43	104	430964736	26	22147
2026-01-08 10:57:17.97	356.66	12.12	-32.9	-49.4	3.8	7.45e-01	0	43	104	430964736	26	24000
2026-01-08 10:57:18.98	356.55	12.04	-33.0	-49.7	3.8	7.44e-01	0	43	104	430964736	26	24729
2026-01-08 10:57:19.99	356.43	11.95	-33.1	-50.1	3.8	7.44e-01	0	43	104	430964736	26	25503
2026-01-08 10:57:20.99	356.32	11.86	-33.2	-50.0	3.8	7.46e-01	0	43	104	430964736	27	24985
2026-01-08 10:57:21.99	356.21	11.77	-33.2	-50.3	3.8	7.45e-01	0	43	104	430964736	27	25579
2026-01-08 10:57:23.00	356.10	11.69	-33.3	-50.5	3.8	7.44e-01	0	43	104	430964736	27	25997
2026-01-08 10:57:24.01	355.99	11.60	-33.3	-50.7	3.8	7.46e-01	0	43	104	430964736	27	26481
2026-01-08 10:57:25.01	355.88	11.51	-33.4	-51.1	3.8	7.44e-01	0	43	104	430964736	27	27604
2026-01-08 10:57:26.01	355.77	11.43	-33.3	-50.7	3.8	7.48e-01	0	43	104	430964736	27	26651
2026-01-08 10:57:27.01	355.67	11.34	-33.3	-50.4	3.8	7.45e-01	0	43	104	430964736	27	25806
2026-01-08 10:57:28.02	355.56	11.25	-33.2	-50.0	3.8	7.42e-01	0	43	104	430964736	27	24805
2026-01-08 10:57:29.03	355.45	11.17	-33.1	-49.6	3.8	7.41e-01	0	43	104	430964736	27	23939
2026-01-08 10:57:30.03	355.35	11.08	-33.0	-49.2	3.8	7.42e-01	0	43	104	430964736	27	23037
2026-01-08 10:57:31.04	355.24	11.00	-33.1	-49.7	3.8	7.46e-01	0	43	104	430964736	27	24118
2026-01-08 10:57:32.04	355.14	10.91	-33.2	-49.9	3.8	7.42e-01	0	43	104	430964736	27	24580
2026-01-08 10:57:33.05	355.04	10.83	-33.2	-50.2	3.8	7.41e-01	0	43	104	430964736	27	25263
2026-01-08 10:57:34.06	354.93	10.74	-33.2	-49.9	3.8	7.44e-01	0	43	104	430964736	27	24816
2026-01-08 10:57:35.06	354.83	10.66	-33.1	-49.6	3.8	7.44e-01	0	43	104	430964736	27	24161
2026-01-08 10:57:36.07	354.73	10.57	-33.0	-49.1	3.8	7.46e-01	0	43	104	430964736	27	23096
2026-01-08 10:57:37.07	354.63	10.49	-32.8	-48.6	3.8	7.44e-01	0	43	104	430964736	27	22129
2026-01-08 10:57:38.08	354.53	10.41	-32.8	-48.2	3.8	7.46e-01	0	43	104	430964736	27	21418
2026-01-08 10:57:39.09	354.43	10.32	-32.6	-47.8	3.8	7.44e-01	0	43	104	430964736	27	20541
2026-01-08 10:57:40.09	354.33	10.24	-32.6	-47.5	3.8	7.43e-01	0	43	104	430964736	27	20127
2026-01-08 10:57:41.09	354.23	10.16	-32.5	-47.3	3.8	7.46e-01	0	43	104	430964736	27	19789
2026-01-08 10:57:42.09	354.13	10.07	-32.5	-47.0	3.8	7.43e-01	0	43	104	430964736	27	19221
2026-01-08 10:57:43.09	354.04	9.99	-32.5	-47.0	3.8	7.43e-01	0	43	104	430964736	27	19239
2026-01-08 10:57:44.10	353.94	9.91	-32.2	-46.4	3.8	7.44e-01	0	43	104	430964736	26	18517
2026-01-08 10:57:45.11	353.85	9.83	-31.8	-45.7	3.8	7.47e-01	0	43	104	430964736	25	17686
2026-01-08 10:57:46.12	353.75	9.75	-31.6	-45.0	3.8	7.46e-01	0	43	104	430964736	25	16835
2026-01-08 10:57:47.12	353.66	9.66	-31.4	-44.3	3.8	7.46e-01	0	43	104	430964736	25	15883
2026-01-08 10:57:48.13	353.56	9.58	-31.1	-44.0	3.8	7.44e-01	0	43	104	430964736	24	15831
2026-01-08 10:57:49.14	353.47	9.50	-31.0	-43.5	3.8	7.43e-01	0	43	104	430964736	24	15204
2026-01-08 10:57:50.14	353.37	9.42	-31.0	-43.6	3.8	7.44e-01	0	43	104	430964736	24	15420
2026-01-08 10:57:51.15	353.28	9.34	-31.0	-43.5	3.8	7.47e-01	0	43	104	430964736	24	15261
2026-01-08 10:57:52.16	353.19	9.26	-31.0	-43.7	3.8	7.47e-01	0	43	104	430964736	24	15456
2026-01-08 10:57:53.16	353.10	9.18	-31.2	-44.2	3.8	7.40e-01	0	43	104	430964736	24	16172
2026-01-08 10:57:54.17	353.01	9.10	-31.4	-44.7	3.8	7.46e-01	0	43	104	430964736	24	16758
2026-01-08 10:57:55.17	352.92	9.02	-31.5	-45.2	3.8	7.48e-01	0	43	104	430964736	24	17412
2026-01-08 10:57:56.18	352.83	8.94	-31.3	-44.6	3.8	7.44e-01	0	43	104	430964736	24	16600
2026-01-08 10:57:57.18	352.74	8.86	-31.2	-44.4	3.8	7.45e-01	0	43	104	430964736	24	16370
2026-01-08 10:57:58.19	352.65	8.78	-31.4	-44.8	3.8	7.45e-01	0	43	104	430964736	24	16831
2026-01-08 10:57:59.20	352.56	8.70	-31.6	-45.3	3.8	7.48e-01	0	43	104	430964736	24	17506
2026-01-08 10:58:00.20	352.48	8.62	-31.8	-46.2	3.8	7.45e-01	0	43	104	430964736	24	18928
2026-01-08 10:58:01.20	352.39	8.55	-32.0	-47.0	3.8	7.45e-01	0	43	104	430964736	24	20112
2026-01-08 10:58:02.21	352.30	8.47	-32.3	-47.4	3.8	7.46e-01	0	43	104	430964736	25	20451
2026-01-08 10:58:03.22	352.22	8.39	-32.4	-48.1	3.8	7.46e-01	0	43	104	430964736	25	21884
2026-01-08 10:58:04.23	352.13	8.31	-32.5	-48.7	3.8	7.44e-01	0	43	104	430964736	25	23003
2026-01-08 10:58:05.23	352.05	8.23	-32.7	-48.8	3.8	7.44e-01	0	43	104	430964736	26	22994
2026-01-08 10:58:06.24	351.96	8.15	-32.9	-49.6	3.8	7.45e-01	0	43	104	430964736	26	24585
2026-01-08 10:58:07.24	351.88	8.08	-33.0	-50.3	3.8	7.45e-01	0	43	104	430964736	26	26415
2026-01-08 10:58:08.25	351.80	8.00	-33.1	-50.8	3.8	7.45e-01	0	43	104	430964736	26	27625
2026-01-08 10:58:09.26	351.71	7.92	-33.1	-50.4	3.8	7.45e-01	0	43	104	430964736	27	26349
2026-01-08 10:58:10.26	351.63	7.85	-33.1	-50.6	3.8	7.41e-01	0	43	104	430964736	27	26962
2026-01-08 10:58:11.27	351.55	7.77	-33.1	-50.8	3.8	7.45e-01	0	43	104	430964736	27	27411
2026-01-08 10:58:12.28	351.47	7.69	-33.1	-50.9	3.8	7.45e-01	0	43	104	430964736	27	27701
2026-01-08 10:58:13.28	351.39	7.62	-33.1	-50.9	3.8	7.43e-01	0	43	104	430964736	27	27798
2026-01-08 10:58:14.29	351.31	7.54	-33.2	-51.1	3.8	7.43e-01	0	43	104	430964736	27	28527
2026-01-08 10:58:15.30	351.23	7.47	-33.2	-51.3	3.8	7.43e-01	0	43	104	430964736	27	28939
2026-01-08 10:58:16.31	351.15	7.39	-33.1	-50.9	3.8	7.45e-01	0	43	104	430964736	27	27935
2026-01-08 10:58:17.32	351.07	7.32	-33.1	-50.6	3.8	7.47e-01	0	43	104	430964736	27	27139
2026-01-08 10:58:18.32	350.99	7.24	-33.0	-50.5	3.8	7.45e-01	0	43	104	430964736	27	26736
2026-01-08 10:58:19.33	350.91	7.17	-33.0	-50.2	3.8	7.43e-01	0	43	104	430964736	27	26077
2026-01-08 10:58:20.33	350.84	7.09	-33.2	-50.9	3.8	7.49e-01	0	43	104	430964736	27	27753
2026-01-08 10:58:21.34	350.76	7.02	-33.6	-52.8	3.8	7.46e-01	0	43	104	430964736	28	32629

#Closed at: 2026-01-08 10:58:22
#Recorded file [430 MB]: D:/data/31010_260108_134852.dat