passes_logs/2026/01/08/R2M6_AANII_01/R2M6_AANII_01__20260108_234712_SUOMI_NPP_rec.log

#Pass ID: 20260108_234712_SUOMI NPP
#Satellite: SUOMI NPP
#Configuration: NPP
#almurnet v.1.7.20240730
#Start time: 2026-01-08 23:47:11

#Version: 2.2.20231116
#Station: R2M6_AANII_01
#Location: 30.233357 lon 59.946436 lat
#TLE: 1 37849U 11061A   26008.05542337  .00000108  00000+0  71976-4 0  9997
#TLE: 2 37849  98.7805 310.1641 0002540  75.6410 284.5048 14.19523335735721

#Time	Az	El	Level	Level2	SNR	BER	BlckErr	Temp	State	Recorded	gain1	gain2
2026-01-08 23:47:11.99	21.84	6.99	-31.4	-36.8	4.7	1.35e+00	0	40	0	0	23	6675
2026-01-08 23:47:12.99	21.88	7.07	-31.6	-37.9	4.5	1.39e+00	0	40	104	0	23	7424
2026-01-08 23:47:14.00	21.92	7.14	-31.6	-37.8	6.0	4.17e-01	0	41	0	0	23	7303
2026-01-08 23:47:15.00	21.96	7.22	-31.6	-37.3	6.2	2.63e-01	0	41	0	1048576	23	7000
2026-01-08 23:47:16.01	22.00	7.30	-31.6	-37.4	6.3	2.89e-01	0	41	0	3145728	23	7028
2026-01-08 23:47:17.02	22.04	7.37	-31.6	-37.5	6.2	2.87e-01	0	41	0	5242880	23	7102
2026-01-08 23:47:18.03	22.08	7.45	-31.5	-37.1	6.4	3.09e-01	0	41	0	7340032	23	6835
2026-01-08 23:47:19.03	22.12	7.52	-31.5	-36.8	6.7	2.11e-01	0	41	0	9437184	23	6638
2026-01-08 23:47:20.04	22.16	7.60	-31.5	-37.2	6.8	1.87e-01	0	41	0	10485760	22	6962
2026-01-08 23:47:21.05	22.20	7.68	-31.3	-36.4	7.4	1.64e-01	0	41	0	12582912	22	6485
2026-01-08 23:47:22.05	22.24	7.76	-31.1	-35.7	7.9	8.51e-02	0	41	0	14680064	22	6060
2026-01-08 23:47:23.05	22.28	7.83	-30.9	-35.2	8.7	5.17e-02	0	41	0	16777216	21	5913
2026-01-08 23:47:24.06	22.32	7.91	-30.7	-34.4	9.3	2.14e-02	0	41	0	18874368	21	5524
2026-01-08 23:47:25.07	22.36	7.99	-30.4	-34.0	9.9	1.26e-02	0	41	0	19922944	20	5441
2026-01-08 23:47:26.07	22.40	8.07	-30.3	-33.5	10.3	6.04e-03	0	41	0	22020096	20	5203
2026-01-08 23:47:27.08	22.45	8.14	-30.1	-33.0	10.6	4.23e-03	0	41	0	24117248	20	5017
2026-01-08 23:47:28.09	22.49	8.22	-30.0	-32.4	11.1	2.56e-03	0	41	0	26214400	20	4785
2026-01-08 23:47:29.09	22.53	8.30	-29.9	-32.4	11.1	1.81e-03	0	41	0	28311552	20	4766
2026-01-08 23:47:30.10	22.57	8.38	-30.0	-32.5	11.0	1.55e-03	0	41	0	29360128	20	4806
2026-01-08 23:47:31.10	22.61	8.46	-30.0	-32.7	10.9	1.93e-03	0	41	0	31457280	20	4877
2026-01-08 23:47:32.11	22.66	8.54	-29.8	-31.9	11.5	2.13e-03	0	41	0	33554432	20	4575
2026-01-08 23:47:33.11	22.70	8.62	-30.0	-32.4	11.1	1.36e-03	0	41	0	35651584	20	4759
2026-01-08 23:47:34.12	22.74	8.70	-30.0	-32.6	10.9	1.41e-03	0	41	0	37748736	20	4854
2026-01-08 23:47:35.13	22.79	8.78	-29.9	-32.7	11.4	1.40e-03	0	41	0	38797312	19	4947
2026-01-08 23:47:36.14	22.83	8.86	-29.8	-32.4	11.6	2.98e-03	0	41	0	40894464	19	4822
2026-01-08 23:47:37.14	22.88	8.94	-29.9	-32.7	11.4	7.06e-04	0	41	0	42991616	19	4955
2026-01-08 23:47:38.14	22.92	9.02	-29.9	-32.1	11.4	1.58e-03	0	41	0	45088768	20	4643
2026-01-08 23:47:39.15	22.96	9.10	-30.0	-32.4	11.2	2.64e-03	0	41	0	47185920	20	4757
2026-01-08 23:47:40.16	23.01	9.18	-30.0	-32.5	11.1	1.59e-03	0	41	0	48234496	20	4809
2026-01-08 23:47:41.16	23.05	9.26	-29.9	-32.2	11.4	1.41e-03	0	41	0	50331648	20	4670
2026-01-08 23:47:42.17	23.10	9.35	-29.9	-32.6	11.5	2.13e-03	0	41	0	52428800	19	4903
2026-01-08 23:47:43.18	23.14	9.43	-29.9	-32.5	11.6	1.98e-03	0	42	0	54525952	19	4888
2026-01-08 23:47:44.18	23.19	9.51	-29.9	-32.5	11.6	7.28e-04	0	41	0	56623104	19	4857
2026-01-08 23:47:45.19	23.24	9.59	-30.1	-32.7	11.1	2.85e-03	0	41	0	57671680	20	4867
2026-01-08 23:47:46.20	23.28	9.68	-30.2	-33.1	10.8	3.74e-03	0	41	0	59768832	20	5036
2026-01-08 23:47:47.20	23.33	9.76	-30.0	-32.4	11.3	2.31e-03	0	42	0	61865984	20	4755
2026-01-08 23:47:48.20	23.37	9.84	-29.9	-32.4	11.7	1.67e-03	0	42	0	63963136	19	4836
2026-01-08 23:47:49.21	23.42	9.93	-29.8	-32.1	12.0	8.39e-04	0	42	0	66060288	19	4713
2026-01-08 23:47:50.22	23.47	10.01	-29.9	-32.5	11.6	7.39e-04	0	42	0	67108864	19	4868
2026-01-08 23:47:51.22	23.51	10.09	-29.7	-32.0	12.0	4.36e-04	0	42	0	69206016	19	4691
2026-01-08 23:47:52.22	23.56	10.18	-29.8	-32.1	12.0	7.22e-04	0	42	0	71303168	19	4714
2026-01-08 23:47:53.22	23.61	10.26	-29.7	-31.8	12.2	6.76e-04	0	42	0	73400320	19	4615
2026-01-08 23:47:54.23	23.66	10.35	-29.7	-32.0	12.1	8.85e-04	0	42	0	74448896	19	4664
2026-01-08 23:47:55.24	23.71	10.43	-29.8	-32.2	11.9	5.57e-04	0	42	0	76546048	19	4751
2026-01-08 23:47:56.25	23.75	10.52	-29.8	-32.2	12.0	7.77e-04	0	42	0	78643200	19	4733
2026-01-08 23:47:57.25	23.80	10.60	-29.8	-32.2	12.0	1.12e-03	0	42	0	80740352	19	4744
2026-01-08 23:47:58.25	23.85	10.69	-29.7	-31.9	12.2	3.35e-04	0	42	0	82837504	19	4618
2026-01-08 23:47:59.26	23.90	10.78	-29.7	-31.9	12.1	5.63e-04	0	42	0	84934656	19	4649
2026-01-08 23:48:00.26	23.95	10.86	-29.9	-32.5	11.8	8.77e-04	0	42	0	85983232	19	4842
2026-01-08 23:48:01.26	24.00	10.95	-29.7	-31.9	12.1	4.58e-04	0	42	0	88080384	19	4651
2026-01-08 23:48:02.27	24.05	11.04	-29.6	-31.6	12.4	5.54e-04	0	42	0	90177536	19	4538
2026-01-08 23:48:03.27	24.10	11.12	-29.6	-31.7	12.4	8.82e-04	0	42	0	92274688	19	4547
2026-01-08 23:48:04.28	24.15	11.21	-29.6	-31.6	12.4	7.00e-04	0	42	0	93323264	19	4530
2026-01-08 23:48:05.28	24.20	11.30	-29.6	-31.7	12.4	1.70e-04	0	42	0	95420416	19	4545
2026-01-08 23:48:06.29	24.25	11.39	-29.5	-31.2	12.7	1.16e-03	0	42	0	97517568	19	4384
2026-01-08 23:48:07.29	24.30	11.48	-29.5	-31.3	12.7	1.09e-03	0	42	0	99614720	19	4411
2026-01-08 23:48:08.30	24.36	11.57	-29.6	-31.5	12.5	1.24e-04	0	42	0	101711872	19	4495
2026-01-08 23:48:09.31	24.41	11.66	-29.5	-31.6	12.8	1.23e-03	0	42	0	102760448	18	4609
2026-01-08 23:48:10.31	24.46	11.75	-29.5	-31.4	12.6	1.11e-03	0	42	0	104857600	19	4434
2026-01-08 23:48:11.33	24.51	11.84	-29.6	-31.4	12.6	5.19e-04	0	42	0	106954752	19	4456
2026-01-08 23:48:12.33	24.57	11.93	-29.4	-31.0	12.9	7.09e-05	0	42	0	109051904	19	4306
2026-01-08 23:48:13.33	24.62	12.02	-29.6	-31.5	12.6	9.02e-04	0	42	0	111149056	19	4476
2026-01-08 23:48:14.34	24.67	12.11	-29.5	-31.3	12.7	4.56e-04	0	42	0	113246208	19	4423
2026-01-08 23:48:15.35	24.73	12.20	-29.6	-31.4	12.6	9.38e-05	0	42	0	114294784	19	4450
2026-01-08 23:48:16.36	24.78	12.29	-29.6	-31.5	12.6	4.98e-04	0	42	0	116391936	19	4468
2026-01-08 23:48:17.37	24.83	12.38	-29.6	-31.4	12.6	4.15e-04	0	42	0	118489088	19	4443
2026-01-08 23:48:18.37	24.89	12.48	-29.7	-31.8	12.4	1.26e-04	0	42	0	120586240	19	4574
2026-01-08 23:48:19.38	24.94	12.57	-29.5	-31.2	12.7	1.06e-04	0	42	0	121634816	19	4390
2026-01-08 23:48:20.39	25.00	12.66	-29.6	-31.6	12.5	4.46e-04	0	42	0	123731968	19	4525
2026-01-08 23:48:21.40	25.06	12.76	-29.6	-31.6	12.6	1.38e-04	0	42	0	125829120	19	4497
2026-01-08 23:48:22.40	25.11	12.85	-29.7	-31.7	12.5	1.29e-04	0	42	0	127926272	19	4547
2026-01-08 23:48:23.40	25.17	12.94	-29.5	-31.3	12.7	9.61e-05	0	42	0	130023424	19	4409
2026-01-08 23:48:24.41	25.22	13.04	-29.5	-31.2	12.8	6.47e-04	0	42	0	131072000	19	4383
2026-01-08 23:48:25.41	25.28	13.13	-29.5	-31.2	12.8	7.93e-05	0	42	0	133169152	19	4363
2026-01-08 23:48:26.42	25.34	13.23	-29.7	-31.7	12.4	9.00e-05	0	42	0	135266304	19	4559
2026-01-08 23:48:27.42	25.40	13.32	-29.6	-31.6	12.5	1.60e-04	0	42	0	137363456	19	4504
2026-01-08 23:48:28.43	25.45	13.42	-29.6	-31.6	12.5	1.07e-04	0	42	0	139460608	19	4505
2026-01-08 23:48:29.44	25.51	13.51	-29.4	-30.9	13.0	5.03e-05	0	42	0	140509184	19	4274
2026-01-08 23:48:30.44	25.57	13.61	-29.4	-31.0	12.9	4.88e-05	0	42	0	142606336	19	4311
2026-01-08 23:48:31.45	25.63	13.71	-29.5	-31.2	12.8	4.95e-05	0	42	0	144703488	19	4386
2026-01-08 23:48:32.46	25.69	13.80	-29.5	-31.2	12.8	7.78e-05	0	42	0	146800640	19	4361
2026-01-08 23:48:33.46	25.75	13.90	-29.5	-31.2	12.8	6.25e-05	0	42	0	148897792	19	4367
2026-01-08 23:48:34.46	25.81	14.00	-29.5	-31.1	12.9	2.50e-04	0	42	0	149946368	19	4334
2026-01-08 23:48:35.47	25.87	14.10	-29.4	-31.5	13.0	4.65e-05	0	42	0	152043520	18	4563
2026-01-08 23:48:36.48	25.93	14.20	-29.4	-31.4	13.0	2.59e-05	0	42	0	154140672	18	4525
2026-01-08 23:48:37.48	25.99	14.30	-29.4	-31.5	13.0	2.74e-05	0	42	0	156237824	18	4555
2026-01-08 23:48:38.48	26.05	14.39	-29.4	-30.9	13.0	6.79e-05	0	42	0	158334976	19	4280
2026-01-08 23:48:39.48	26.11	14.49	-29.3	-31.1	13.2	2.67e-05	0	42	0	159383552	18	4420
2026-01-08 23:48:40.49	26.18	14.59	-29.3	-31.0	13.3	1.83e-05	0	42	0	161480704	18	4412
2026-01-08 23:48:41.50	26.24	14.69	-28.9	-30.6	13.0	1.37e-05	0	42	0	163577856	18	4383
2026-01-08 23:48:42.50	26.30	14.80	-29.3	-31.0	13.3	1.75e-05	0	42	0	165675008	18	4413
2026-01-08 23:48:43.51	26.37	14.90	-29.2	-30.8	13.0	2.28e-05	0	42	0	167772160	18	4340
2026-01-08 23:48:44.52	26.43	15.00	-29.1	-30.7	13.2	9.90e-06	0	42	0	168820736	18	4292
2026-01-08 23:48:45.52	26.50	15.10	-29.2	-30.8	13.5	1.75e-05	0	42	0	170917888	18	4329
2026-01-08 23:48:46.53	26.56	15.20	-29.0	-30.2	13.8	6.10e-06	0	42	0	173015040	18	4146
2026-01-08 23:48:47.53	26.63	15.31	-28.9	-30.6	13.9	1.50e-06	0	42	0	175112192	17	4367
2026-01-08 23:48:48.54	26.69	15.41	-29.0	-30.7	13.8	4.50e-06	0	42	0	177209344	17	4381
2026-01-08 23:48:49.55	26.76	15.51	-28.8	-30.4	14.1	3.80e-06	0	42	0	178257920	17	4287
2026-01-08 23:48:50.56	26.82	15.62	-28.8	-30.3	14.1	2.20e-06	0	42	0	180355072	17	4261
2026-01-08 23:48:51.57	26.89	15.72	-28.7	-30.0	14.3	5.01e-04	0	42	0	182452224	17	4191
2026-01-08 23:48:52.57	26.96	15.83	-28.7	-30.0	14.3	1.50e-06	0	42	0	184549376	17	4166
2026-01-08 23:48:53.58	27.03	15.93	-28.7	-30.0	14.3	2.20e-06	0	43	0	186646528	17	4182
2026-01-08 23:48:54.58	27.09	16.04	-28.7	-30.0	14.3	1.50e-06	0	43	0	187695104	17	4187
2026-01-08 23:48:55.59	27.16	16.15	-28.8	-30.2	14.2	3.45e-04	0	42	0	189792256	17	4234
2026-01-08 23:48:56.59	27.23	16.25	-28.7	-30.1	14.3	1.50e-06	0	42	0	191889408	17	4207
2026-01-08 23:48:57.59	27.30	16.36	-28.8	-30.3	14.2	0.00e+00	0	42	0	193986560	17	4262
2026-01-08 23:48:58.60	27.37	16.47	-28.8	-30.3	14.1	3.81e-04	0	42	0	196083712	17	4274
2026-01-08 23:48:59.61	27.44	16.57	-28.8	-30.1	14.3	3.00e-06	0	43	0	197132288	17	4220
2026-01-08 23:49:00.61	27.51	16.68	-28.8	-30.3	14.2	7.00e-07	0	43	0	199229440	17	4257
2026-01-08 23:49:01.62	27.59	16.79	-28.8	-30.2	14.2	3.07e-04	0	42	0	201326592	17	4237
2026-01-08 23:49:02.63	27.66	16.90	-28.8	-30.3	14.2	2.88e-04	0	42	0	203423744	17	4265
2026-01-08 23:49:03.64	27.73	17.01	-29.0	-30.3	13.9	0.00e+00	0	42	0	205520896	18	4174
2026-01-08 23:49:04.65	27.80	17.12	-29.2	-30.8	13.6	2.98e-04	0	42	0	206569472	18	4328
2026-01-08 23:49:05.65	27.88	17.23	-29.2	-30.8	13.6	3.29e-04	0	42	0	208666624	18	4307
2026-01-08 23:49:06.65	27.95	17.34	-28.9	-30.1	14.0	1.50e-06	0	42	0	210763776	18	4098
2026-01-08 23:49:07.65	28.02	17.45	-28.8	-29.6	14.3	3.00e-06	0	42	0	212860928	18	3978
2026-01-08 23:49:08.66	28.10	17.57	-28.8	-30.1	14.3	3.75e-04	0	42	0	214958080	17	4221
2026-01-08 23:49:09.67	28.18	17.68	-28.6	-29.8	14.6	4.19e-05	0	43	0	216006656	17	4112
2026-01-08 23:49:10.67	28.25	17.79	-28.7	-29.9	14.4	0.00e+00	0	43	0	218103808	17	4139
2026-01-08 23:49:11.68	28.33	17.91	-28.5	-29.5	14.7	4.10e-04	0	42	0	220200960	17	4038
2026-01-08 23:49:12.68	28.41	18.02	-28.5	-29.4	14.8	6.56e-05	0	42	0	222298112	17	3990
2026-01-08 23:49:13.69	28.48	18.13	-28.4	-29.8	14.8	3.58e-04	0	43	0	224395264	16	4207
2026-01-08 23:49:14.69	28.56	18.25	-28.6	-29.6	14.7	4.23e-04	0	43	0	225443840	17	4062
2026-01-08 23:49:15.69	28.64	18.36	-28.5	-29.4	14.8	3.50e-05	0	43	0	227540992	17	3993
2026-01-08 23:49:16.70	28.72	18.48	-28.4	-29.6	14.9	4.06e-04	0	42	0	229638144	16	4163
2026-01-08 23:49:17.70	28.80	18.60	-28.5	-29.9	14.7	3.87e-04	0	43	0	231735296	16	4227
2026-01-08 23:49:18.71	28.88	18.71	-28.4	-29.1	14.9	2.36e-05	0	43	0	233832448	17	3924
2026-01-08 23:49:19.71	28.96	18.83	-28.5	-29.5	14.7	3.99e-04	0	43	0	234881024	17	4038
2026-01-08 23:49:20.72	29.04	18.95	-28.6	-29.6	14.7	3.89e-04	0	43	0	236978176	17	4062
2026-01-08 23:49:21.72	29.13	19.07	-28.4	-29.3	14.9	1.30e-04	0	43	0	239075328	17	3981
2026-01-08 23:49:22.72	29.21	19.19	-28.6	-29.7	14.6	3.91e-04	0	43	0	241172480	17	4086
2026-01-08 23:49:23.73	29.29	19.31	-28.6	-29.8	14.6	5.62e-04	0	42	0	243269632	17	4108
2026-01-08 23:49:24.74	29.38	19.43	-28.7	-29.9	14.5	7.00e-07	0	43	0	244318208	17	4140
2026-01-08 23:49:25.74	29.46	19.55	-28.7	-29.9	14.5	3.89e-04	0	43	0	246415360	17	4131
2026-01-08 23:49:26.74	29.55	19.67	-28.6	-29.7	14.6	5.93e-04	0	43	0	248512512	17	4073
2026-01-08 23:49:27.75	29.63	19.79	-28.6	-29.6	14.7	1.50e-04	0	43	0	250609664	17	4069
2026-01-08 23:49:28.76	29.72	19.91	-28.4	-29.1	15.0	0.00e+00	0	43	0	252706816	17	3928
2026-01-08 23:49:29.76	29.81	20.03	-28.5	-29.4	14.8	4.77e-04	0	42	0	253755392	17	4002
2026-01-08 23:49:30.77	29.90	20.16	-28.7	-29.8	14.6	5.26e-05	0	42	0	255852544	17	4127
2026-01-08 23:49:31.78	29.98	20.28	-28.6	-29.6	14.7	7.00e-07	0	43	0	257949696	17	4054
2026-01-08 23:49:32.78	30.07	20.41	-28.9	-30.5	14.2	3.83e-04	0	43	0	260046848	17	4310
2026-01-08 23:49:33.79	30.16	20.53	-28.9	-29.9	14.2	1.22e-05	0	43	0	262144000	18	4042
2026-01-08 23:49:34.80	30.26	20.66	-28.6	-29.1	14.7	0.00e+00	0	43	0	263192576	18	3825
2026-01-08 23:49:35.81	30.35	20.78	-28.6	-29.7	14.7	7.00e-07	0	43	0	265289728	17	4073
2026-01-08 23:49:36.80	30.44	20.91	-28.5	-29.4	14.8	0.00e+00	0	43	0	267386880	17	4009
2026-01-08 23:49:37.81	30.53	21.04	-28.6	-29.7	14.6	4.01e-04	0	43	0	269484032	17	4090
2026-01-08 23:49:38.82	30.63	21.16	-28.5	-29.4	14.8	0.00e+00	0	43	0	271581184	17	3996
2026-01-08 23:49:39.82	30.72	21.29	-28.4	-29.1	15.0	5.30e-06	0	42	0	272629760	17	3928
2026-01-08 23:49:40.83	30.82	21.42	-28.3	-29.0	15.1	3.17e-04	0	43	0	274726912	17	3900
2026-01-08 23:49:41.83	30.91	21.55	-28.3	-29.5	15.2	0.00e+00	0	43	0	276824064	16	4110
2026-01-08 23:49:42.84	31.01	21.68	-28.3	-29.4	15.2	2.86e-04	0	43	0	278921216	16	4078
2026-01-08 23:49:43.84	31.11	21.81	-28.3	-29.5	15.1	3.54e-04	0	43	0	281018368	16	4133
2026-01-08 23:49:44.85	31.20	21.94	-28.3	-29.3	15.2	0.00e+00	0	43	0	282066944	16	4069
2026-01-08 23:49:45.85	31.30	22.07	-28.1	-29.0	15.4	0.00e+00	0	43	0	284164096	16	3974
2026-01-08 23:49:46.86	31.40	22.21	-28.0	-28.8	15.6	0.00e+00	0	43	0	286261248	16	3918
2026-01-08 23:49:47.87	31.50	22.34	-28.3	-29.5	15.1	7.41e-04	0	43	0	288358400	16	4124
2026-01-08 23:49:48.88	31.61	22.48	-28.1	-29.0	15.5	0.00e+00	0	43	0	289406976	16	3970
2026-01-08 23:49:49.88	31.71	22.61	-28.1	-28.9	15.5	0.00e+00	0	43	0	291504128	16	3954
2026-01-08 23:49:50.89	31.81	22.74	-28.2	-29.0	15.4	4.10e-04	0	43	0	293601280	16	3991
2026-01-08 23:49:51.90	31.92	22.88	-28.2	-29.1	15.3	0.00e+00	0	43	0	295698432	16	4017
2026-01-08 23:49:52.91	32.02	23.02	-28.0	-28.7	15.5	0.00e+00	0	43	0	297795584	16	3907
2026-01-08 23:49:53.91	32.13	23.15	-28.2	-29.2	15.3	1.30e-04	0	43	0	299892736	16	4039
2026-01-08 23:49:54.92	32.24	23.29	-28.2	-29.1	15.3	0.00e+00	0	43	0	300941312	16	4017
2026-01-08 23:49:55.92	32.34	23.43	-28.3	-29.4	15.2	0.00e+00	0	43	0	303038464	16	4078
2026-01-08 23:49:56.93	32.45	23.57	-28.2	-29.2	15.4	0.00e+00	0	43	0	305135616	16	4015
2026-01-08 23:49:57.93	32.56	23.71	-28.4	-29.6	15.1	2.20e-06	0	43	0	307232768	16	4140
2026-01-08 23:49:58.93	32.67	23.85	-28.3	-29.4	15.2	0.00e+00	0	43	0	308281344	16	4091
2026-01-08 23:49:59.93	32.78	23.99	-28.4	-29.7	15.0	0.00e+00	0	43	0	310378496	16	4168
2026-01-08 23:50:00.94	32.89	24.13	-28.5	-29.4	14.9	0.00e+00	0	43	0	312475648	17	3980
2026-01-08 23:50:01.94	33.01	24.27	-28.7	-30.0	14.5	7.00e-07	0	43	0	314572800	17	4176
2026-01-08 23:50:02.95	33.12	24.41	-28.7	-29.8	14.7	7.00e-07	0	43	0	316669952	17	4102
2026-01-08 23:50:03.96	33.24	24.56	-28.7	-29.8	14.7	0.00e+00	0	43	0	317718528	17	4114
2026-01-08 23:50:04.96	33.35	24.70	-28.0	-29.3	14.4	1.50e-06	0	43	0	319815680	17	4220
2026-01-08 23:50:05.97	33.47	24.85	-28.8	-30.3	14.4	0.00e+00	0	43	0	321912832	17	4258
2026-01-08 23:50:06.97	33.59	24.99	-28.8	-30.3	14.2	0.00e+00	0	43	0	324009984	17	4243
2026-01-08 23:50:07.98	33.71	25.14	-28.7	-29.8	14.3	2.20e-06	0	43	0	326107136	17	4103
2026-01-08 23:50:08.98	33.83	25.28	-28.9	-30.4	14.3	0.00e+00	0	43	0	327155712	17	4277
2026-01-08 23:50:09.99	33.95	25.43	-28.8	-30.3	14.4	7.00e-07	0	43	0	329252864	17	4250
2026-01-08 23:50:11.00	34.08	25.58	-28.8	-30.1	14.6	7.00e-07	0	43	0	331350016	17	4187
2026-01-08 23:50:12.01	34.20	25.73	-29.0	-30.3	14.2	0.00e+00	0	43	0	333447168	18	4138
2026-01-08 23:50:13.01	34.32	25.88	-29.0	-30.2	14.2	3.00e-06	0	43	0	335544320	18	4131
2026-01-08 23:50:14.01	34.45	26.03	-29.2	-30.5	14.0	4.50e-06	0	43	0	336592896	18	4217
2026-01-08 23:50:15.02	34.58	26.18	-29.0	-30.1	14.3	1.50e-06	0	43	0	338690048	18	4080
2026-01-08 23:50:16.02	34.71	26.33	-29.2	-30.6	14.0	0.00e+00	0	43	0	340787200	18	4242
2026-01-08 23:50:17.03	34.84	26.49	-29.1	-30.4	14.1	4.50e-06	0	43	0	342884352	18	4192
2026-01-08 23:50:18.04	34.97	26.64	-29.1	-30.5	14.1	1.50e-06	0	43	0	344981504	18	4201
2026-01-08 23:50:19.05	35.10	26.79	-29.2	-30.7	14.0	1.46e-04	0	43	0	346030080	18	4260
2026-01-08 23:50:20.05	35.23	26.95	-29.4	-31.2	13.6	8.30e-06	0	43	0	348127232	18	4412
2026-01-08 23:50:21.06	35.37	27.10	-29.3	-30.8	13.9	3.80e-06	0	43	0	350224384	18	4283
2026-01-08 23:50:22.06	35.50	27.26	-29.1	-30.4	14.1	1.28e-04	0	43	0	352321536	18	4193
2026-01-08 23:50:23.06	35.64	27.42	-29.0	-30.1	14.3	1.50e-06	0	43	0	354418688	18	4107
2026-01-08 23:50:24.07	35.78	27.57	-29.0	-30.2	14.3	0.00e+00	0	43	0	355467264	18	4121
2026-01-08 23:50:25.08	35.92	27.73	-29.1	-30.3	14.2	2.67e-04	0	43	0	357564416	18	4143
2026-01-08 23:50:26.08	36.06	27.89	-29.2	-30.7	14.1	2.67e-04	0	43	0	359661568	18	4263
2026-01-08 23:50:27.08	36.20	28.05	-29.2	-30.7	14.0	7.00e-07	0	43	0	361758720	18	4256
2026-01-08 23:50:28.09	36.35	28.21	-29.4	-31.2	13.7	1.59e-04	0	43	0	363855872	18	4431
2026-01-08 23:50:29.10	36.49	28.37	-29.4	-31.2	13.7	1.41e-04	0	43	0	364904448	18	4425
2026-01-08 23:50:30.10	36.64	28.53	-29.5	-31.0	13.5	6.80e-06	0	43	0	367001600	19	4259
2026-01-08 23:50:31.11	36.79	28.70	-29.7	-31.5	13.2	7.60e-06	0	43	0	369098752	19	4414
2026-01-08 23:50:32.12	36.94	28.86	-29.8	-31.8	12.9	1.14e-04	0	43	0	371195904	19	4539
2026-01-08 23:50:33.12	37.09	29.03	-29.9	-31.6	12.7	6.71e-05	0	43	0	373293056	20	4374
2026-01-08 23:50:34.13	37.24	29.19	-30.0	-31.8	12.6	1.23e-04	0	43	0	374341632	20	4436
2026-01-08 23:50:35.13	37.40	29.36	-30.2	-32.3	12.2	4.77e-04	0	43	0	376438784	20	4624
2026-01-08 23:50:36.14	37.55	29.52	-30.2	-32.4	12.2	2.25e-04	0	43	0	378535936	20	4642
2026-01-08 23:50:37.15	37.71	29.69	-30.2	-32.5	12.2	3.50e-04	0	43	0	380633088	20	4668
2026-01-08 23:50:38.15	37.87	29.86	-30.3	-32.6	12.1	4.49e-04	0	43	0	382730240	20	4702
2026-01-08 23:50:39.16	38.03	30.03	-30.3	-32.9	11.7	5.65e-04	0	43	0	383778816	20	4810
2026-01-08 23:50:40.16	38.19	30.20	-30.5	-32.9	11.4	7.41e-04	0	43	0	385875968	21	4747
2026-01-08 23:50:41.16	38.36	30.37	-30.6	-33.1	11.3	8.42e-04	0	43	0	387973120	21	4810
2026-01-08 23:50:42.17	38.52	30.54	-30.9	-34.0	10.8	1.55e-03	0	43	0	390070272	21	5143
2026-01-08 23:50:43.17	38.69	30.71	-30.7	-33.3	11.2	1.88e-03	0	43	0	392167424	21	4896
2026-01-08 23:50:44.17	38.86	30.88	-30.6	-33.0	11.4	1.66e-03	0	43	0	393216000	21	4775
2026-01-08 23:50:45.18	39.03	31.06	-30.7	-33.4	11.1	1.43e-03	0	43	0	395313152	21	4924
2026-01-08 23:50:46.18	39.20	31.23	-30.8	-33.6	11.1	1.35e-03	0	43	0	397410304	21	4998
2026-01-08 23:50:47.19	39.38	31.41	-30.9	-33.9	10.8	2.33e-03	0	43	0	399507456	21	5098
2026-01-08 23:50:48.19	39.55	31.58	-30.6	-33.2	11.3	1.14e-03	0	43	0	401604608	21	4853
2026-01-08 23:50:49.20	39.73	31.76	-30.6	-33.0	11.5	1.02e-03	0	43	0	402653184	21	4777
2026-01-08 23:50:50.21	39.91	31.94	-30.6	-32.9	11.6	8.12e-04	0	43	0	404750336	21	4720
2026-01-08 23:50:51.21	40.10	32.11	-30.5	-32.7	11.6	4.84e-04	0	43	0	406847488	21	4639
2026-01-08 23:50:52.22	40.28	32.29	-30.5	-32.8	11.7	5.16e-04	0	43	0	408944640	21	4670
2026-01-08 23:50:53.22	40.47	32.47	-30.4	-32.4	11.9	6.68e-04	0	43	0	411041792	21	4545
2026-01-08 23:50:54.23	40.65	32.65	-30.6	-33.0	11.4	1.23e-03	0	43	0	412090368	21	4758
2026-01-08 23:50:55.23	40.84	32.83	-30.6	-33.1	11.5	6.93e-04	0	43	0	414187520	21	4775
2026-01-08 23:50:56.24	41.04	33.02	-30.6	-33.2	11.4	8.25e-04	0	43	0	416284672	21	4816
2026-01-08 23:50:57.25	41.23	33.20	-30.3	-32.2	12.0	4.46e-04	0	43	0	418381824	21	4485
2026-01-08 23:50:58.26	41.43	33.39	-30.0	-31.3	12.6	1.05e-04	0	43	0	420478976	21	4188
2026-01-08 23:50:59.27	41.63	33.57	-29.9	-31.5	12.9	2.89e-05	0	43	0	421527552	20	4342
2026-01-08 23:51:00.28	41.83	33.76	-29.9	-31.4	12.9	3.81e-05	0	43	0	423624704	20	4286
2026-01-08 23:51:01.29	42.04	33.94	-29.7	-30.8	13.3	9.90e-06	0	43	0	425721856	20	4094
2026-01-08 23:51:02.29	42.24	34.13	-29.6	-31.2	13.5	9.90e-06	0	43	0	427819008	19	4309
2026-01-08 23:51:03.30	42.45	34.32	-29.8	-31.5	13.3	2.05e-05	0	43	0	429916160	19	4415
2026-01-08 23:51:04.31	42.66	34.51	-29.7	-31.5	13.3	2.89e-05	0	43	0	430964736	19	4409
2026-01-08 23:51:05.31	42.87	34.69	-30.1	-32.1	12.5	1.20e-04	0	43	0	433061888	20	4541
2026-01-08 23:51:06.32	43.09	34.88	-30.3	-32.7	12.1	8.54e-05	0	43	0	435159040	20	4726
2026-01-08 23:51:07.33	43.31	35.07	-30.3	-32.1	12.1	3.64e-04	0	43	0	437256192	21	4442
2026-01-08 23:51:08.32	43.52	35.26	-30.5	-32.8	11.6	6.31e-04	0	43	0	439353344	21	4695
2026-01-08 23:51:09.32	43.75	35.45	-30.6	-33.0	11.5	7.76e-04	0	43	0	440401920	21	4751
2026-01-08 23:51:10.33	43.97	35.65	-30.0	-31.4	12.6	4.93e-04	0	43	0	442499072	21	4195
2026-01-08 23:51:11.33	44.20	35.84	-29.9	-30.9	12.9	1.14e-04	0	43	0	444596224	21	4050
2026-01-08 23:51:12.34	44.43	36.03	-29.6	-30.7	13.5	1.29e-05	0	43	0	446693376	20	4066
2026-01-08 23:51:13.35	44.66	36.23	-29.6	-30.6	13.5	6.80e-06	0	43	0	448790528	20	4033
2026-01-08 23:51:14.35	44.90	36.42	-29.5	-30.8	13.8	2.60e-04	0	43	0	449839104	19	4184
2026-01-08 23:51:15.36	45.14	36.62	-29.3	-30.4	14.0	0.00e+00	0	43	0	451936256	19	4067
2026-01-08 23:51:16.37	45.38	36.81	-29.4	-30.5	14.0	4.50e-06	0	43	0	454033408	19	4102
2026-01-08 23:51:17.37	45.63	37.01	-29.3	-30.4	14.0	5.26e-05	0	43	0	456130560	19	4088
2026-01-08 23:51:18.37	45.87	37.21	-29.3	-30.3	14.0	3.00e-06	0	43	0	458227712	19	4051
2026-01-08 23:51:19.38	46.12	37.41	-29.1	-30.0	14.2	7.00e-07	0	43	0	459276288	19	3955
2026-01-08 23:51:20.39	46.38	37.61	-29.1	-29.9	14.3	0.00e+00	0	43	0	461373440	19	3926
2026-01-08 23:51:21.39	46.63	37.80	-28.8	-29.6	14.7	0.00e+00	0	43	0	463470592	18	3937
2026-01-08 23:51:22.40	46.89	38.00	-28.8	-29.5	14.9	0.00e+00	0	43	0	465567744	18	3910
2026-01-08 23:51:23.41	47.16	38.21	-28.8	-29.5	14.9	0.00e+00	0	43	0	467664896	18	3901
2026-01-08 23:51:24.41	47.42	38.40	-28.8	-29.6	14.8	0.00e+00	0	43	0	468713472	18	3945
2026-01-08 23:51:25.42	47.69	38.61	-28.8	-29.5	14.9	0.00e+00	0	43	0	470810624	18	3907
2026-01-08 23:51:26.43	47.97	38.81	-28.5	-28.9	15.2	0.00e+00	0	43	0	472907776	18	3746
2026-01-08 23:51:27.43	48.24	39.01	-28.5	-28.8	15.3	4.11e-05	0	43	0	475004928	18	3733
2026-01-08 23:51:28.44	48.52	39.21	-28.1	-28.4	15.8	0.00e+00	0	43	0	477102080	17	3717
2026-01-08 23:51:29.45	48.81	39.42	-27.9	-27.9	16.1	0.00e+00	0	43	0	478150656	17	3580
2026-01-08 23:51:30.46	49.09	39.62	-27.9	-27.8	16.2	0.00e+00	0	43	0	480247808	17	3568
2026-01-08 23:51:31.46	49.38	39.83	-27.7	-27.9	16.3	0.00e+00	0	43	0	482344960	16	3685
2026-01-08 23:51:32.46	49.67	40.03	-28.1	-28.9	15.8	0.00e+00	0	43	0	484442112	16	3931
2026-01-08 23:51:33.46	49.97	40.23	-28.4	-29.6	15.4	0.00e+00	0	43	0	486539264	16	4131
2026-01-08 23:51:34.46	50.27	40.44	-28.4	-29.2	15.3	0.00e+00	0	43	0	487587840	17	3918
2026-01-08 23:51:35.47	50.57	40.64	-28.6	-29.5	15.0	0.00e+00	0	43	0	489684992	17	4013
2026-01-08 23:51:36.47	50.88	40.85	-28.5	-29.3	15.3	0.00e+00	0	43	0	491782144	17	3943
2026-01-08 23:51:37.48	51.19	41.06	-28.8	-30.0	14.9	0.00e+00	0	43	0	493879296	17	4134
2026-01-08 23:51:38.48	51.51	41.26	-29.0	-30.1	14.6	0.00e+00	0	43	0	494927872	18	4071
2026-01-08 23:51:39.48	51.83	41.47	-29.1	-30.2	14.5	1.50e-06	0	43	0	497025024	18	4116
2026-01-08 23:51:40.49	52.15	41.67	-29.2	-30.7	14.2	3.80e-06	0	43	0	499122176	18	4248
2026-01-08 23:51:41.49	52.48	41.88	-29.1	-30.3	14.3	0.00e+00	0	43	0	501219328	18	4138
2026-01-08 23:51:42.49	52.81	42.09	-28.9	-30.0	14.6	2.20e-06	0	43	0	503316480	18	4048
2026-01-08 23:51:43.49	53.15	42.29	-28.8	-29.6	14.8	1.50e-06	0	43	0	504365056	18	3942
2026-01-08 23:51:44.49	53.48	42.50	-28.9	-29.9	14.7	7.00e-07	0	43	0	506462208	18	4030
2026-01-08 23:51:45.49	53.83	42.70	-29.1	-30.2	14.5	0.00e+00	0	43	0	508559360	18	4116
2026-01-08 23:51:46.50	54.18	42.91	-29.0	-30.1	14.4	0.00e+00	0	43	0	510656512	18	4097
2026-01-08 23:51:47.50	54.53	43.12	-29.2	-30.7	14.1	7.00e-07	0	43	0	512753664	18	4274
2026-01-08 23:51:48.51	54.89	43.33	-29.6	-31.2	13.4	5.30e-06	0	43	0	513802240	19	4351
2026-01-08 23:51:49.52	55.26	43.54	-29.8	-31.8	13.1	2.59e-05	0	43	0	515899392	19	4542
2026-01-08 23:51:50.53	55.63	43.74	-30.3	-32.7	12.0	2.27e-04	0	43	0	517996544	20	4768
2026-01-08 23:51:51.54	56.00	43.95	-30.2	-32.5	12.2	3.33e-04	0	43	0	520093696	20	4681
2026-01-08 23:51:52.54	56.38	44.16	-30.0	-32.0	12.5	1.30e-04	0	43	0	522190848	20	4519
2026-01-08 23:51:53.55	56.76	44.36	-29.7	-31.1	13.1	4.95e-05	0	43	0	523239424	20	4226
2026-01-08 23:51:54.56	57.15	44.57	-30.0	-31.8	12.7	2.28e-05	0	43	0	525336576	20	4424
2026-01-08 23:51:55.56	57.54	44.77	-30.0	-31.7	12.8	5.03e-05	0	43	0	527433728	20	4384
2026-01-08 23:51:56.57	57.94	44.98	-29.8	-31.2	13.1	3.35e-05	0	43	0	529530880	20	4245
2026-01-08 23:51:57.57	58.34	45.18	-30.1	-32.2	12.4	3.89e-05	0	43	0	531628032	20	4573
2026-01-08 23:51:58.58	58.75	45.39	-30.7	-33.5	11.2	7.84e-04	0	43	0	532676608	21	4981
2026-01-08 23:51:59.59	59.17	45.59	-31.0	-34.4	10.6	2.82e-03	0	43	0	534773760	21	5352
2026-01-08 23:52:00.60	59.59	45.80	-31.1	-34.2	10.3	5.20e-03	0	43	0	536870912	22	5162
2026-01-08 23:52:01.61	60.02	46.00	-31.0	-33.8	10.7	2.96e-03	0	43	0	538968064	22	4992
2026-01-08 23:52:02.61	60.44	46.20	-30.5	-32.4	11.7	2.72e-03	0	43	0	541065216	22	4441
2026-01-08 23:52:03.62	60.88	46.40	-30.8	-33.2	11.2	1.35e-03	0	43	0	542113792	22	4727
2026-01-08 23:52:04.62	61.32	46.60	-30.8	-33.3	11.2	9.02e-04	0	43	0	544210944	22	4761
2026-01-08 23:52:05.63	61.77	46.80	-30.9	-33.4	11.0	2.02e-03	0	43	0	546308096	22	4811
2026-01-08 23:52:06.63	62.21	47.00	-30.8	-33.1	11.2	1.38e-03	0	43	0	548405248	22	4688
2026-01-08 23:52:07.64	62.67	47.20	-30.7	-32.7	11.6	9.63e-04	0	43	0	550502400	22	4533
2026-01-08 23:52:08.64	63.13	47.39	-30.2	-31.8	12.4	1.55e-04	0	43	0	551550976	21	4334
2026-01-08 23:52:09.64	63.60	47.59	-30.6	-33.0	11.8	2.67e-04	0	43	0	553648128	21	4750
2026-01-08 23:52:10.64	64.07	47.78	-30.5	-32.6	11.9	7.04e-04	0	43	0	555745280	21	4593
2026-01-08 23:52:11.64	64.55	47.97	-30.4	-32.5	12.1	3.83e-04	0	43	0	557842432	21	4549
2026-01-08 23:52:12.66	65.05	48.17	-30.3	-32.0	12.4	2.17e-04	0	43	0	559939584	21	4390
2026-01-08 23:52:13.66	65.54	48.36	-30.0	-31.4	12.8	1.24e-04	0	43	0	560988160	21	4187
2026-01-08 23:52:14.66	66.03	48.55	-30.0	-31.3	12.9	1.03e-04	0	43	0	563085312	21	4164
2026-01-08 23:52:15.67	66.54	48.73	-29.8	-30.7	13.3	3.58e-05	0	43	0	565182464	21	3990
2026-01-08 23:52:16.68	67.05	48.92	-29.4	-30.0	14.1	1.98e-05	0	43	0	567279616	20	3871
2026-01-08 23:52:17.68	67.57	49.10	-29.1	-29.9	14.5	7.00e-07	0	43	0	569376768	19	3907
2026-01-08 23:52:18.69	68.09	49.29	-29.5	-30.8	14.0	3.00e-06	0	43	0	570425344	19	4185
2026-01-08 23:52:19.69	68.62	49.47	-29.8	-31.7	13.3	1.60e-05	0	43	0	572522496	19	4460
2026-01-08 23:52:20.70	69.16	49.65	-29.8	-31.1	13.3	2.51e-05	0	43	0	574619648	20	4183
2026-01-08 23:52:21.71	69.70	49.82	-29.9	-31.3	13.3	2.44e-05	0	43	0	576716800	20	4241
2026-01-08 23:52:22.71	70.25	50.00	-29.8	-31.0	13.4	1.90e-05	0	43	0	578813952	20	4162
2026-01-08 23:52:23.72	70.80	50.17	-29.5	-30.4	13.8	1.29e-05	0	43	0	579862528	20	3997
2026-01-08 23:52:24.72	71.36	50.34	-29.5	-30.3	13.9	6.10e-06	0	43	0	581959680	20	3965
2026-01-08 23:52:25.72	71.92	50.51	-29.7	-31.0	13.6	5.11e-05	0	43	0	584056832	20	4141
2026-01-08 23:52:26.72	72.49	50.67	-29.7	-30.7	13.6	5.72e-05	0	43	0	586153984	20	4074
2026-01-08 23:52:27.72	73.07	50.84	-29.6	-30.7	13.5	5.30e-06	0	43	0	588251136	20	4075
2026-01-08 23:52:28.73	73.66	51.00	-29.5	-30.3	13.8	6.80e-06	0	43	0	589299712	20	3960
2026-01-08 23:52:29.74	74.25	51.16	-29.4	-30.6	14.0	7.00e-07	0	43	0	591396864	19	4137
2026-01-08 23:52:30.75	74.85	51.31	-29.4	-30.6	14.1	3.00e-06	0	43	0	593494016	19	4146
2026-01-08 23:52:31.75	75.45	51.47	-29.4	-30.6	14.0	3.00e-06	0	43	0	595591168	19	4154
2026-01-08 23:52:32.76	76.07	51.62	-29.3	-30.4	14.0	3.00e-06	0	43	0	597688320	19	4084
2026-01-08 23:52:33.77	76.69	51.77	-29.1	-29.8	14.5	2.20e-06	0	43	0	598736896	19	3908
2026-01-08 23:52:34.77	77.31	51.91	-28.8	-29.1	14.9	3.80e-06	0	43	0	600834048	19	3723
2026-01-08 23:52:35.77	77.93	52.05	-29.6	-31.2	13.7	0.00e+00	0	43	0	602931200	19	4315
2026-01-08 23:52:36.78	78.57	52.19	-29.9	-32.1	13.1	1.60e-05	0	43	0	605028352	19	4615
2026-01-08 23:52:37.79	79.21	52.33	-29.6	-31.2	13.7	1.75e-05	0	43	0	607125504	19	4310
2026-01-08 23:52:38.80	79.86	52.46	-29.5	-30.8	13.9	4.50e-06	0	43	0	608174080	19	4196
2026-01-08 23:52:39.80	80.51	52.59	-29.4	-30.5	14.0	0.00e+00	0	43	0	610271232	19	4115
2026-01-08 23:52:40.81	81.17	52.71	-29.0	-29.6	14.7	5.30e-06	0	43	0	612368384	19	3838
2026-01-08 23:52:41.82	81.84	52.83	-28.5	-28.8	15.4	0.00e+00	0	43	0	614465536	18	3715
2026-01-08 23:52:42.82	82.50	52.95	-28.3	-28.8	15.7	0.00e+00	0	43	0	616562688	17	3813
2026-01-08 23:52:43.82	83.17	53.07	-29.1	-30.2	14.6	0.00e+00	0	43	0	617611264	18	4098
2026-01-08 23:52:44.82	83.85	53.18	-30.1	-31.9	13.0	0.00e+00	0	43	0	619708416	20	4450
2026-01-08 23:52:45.83	84.53	53.28	-30.1	-32.1	12.7	9.99e-05	0	43	0	621805568	20	4499
2026-01-08 23:52:46.84	85.23	53.39	-30.3	-32.7	12.4	5.49e-05	0	43	0	623902720	20	4719
2026-01-08 23:52:47.84	85.92	53.48	-30.6	-32.9	11.8	1.25e-04	0	43	0	625999872	21	4713
2026-01-08 23:52:48.85	86.62	53.58	-30.7	-33.3	11.6	9.90e-04	0	43	0	627048448	21	4861
2026-01-08 23:52:49.85	87.32	53.67	-30.6	-32.8	11.9	9.14e-04	0	43	0	629145600	21	4678
2026-01-08 23:52:50.86	88.03	53.76	-30.3	-31.9	12.5	1.99e-04	0	43	0	631242752	21	4358
2026-01-08 23:52:51.86	88.74	53.84	-30.7	-33.0	11.9	3.20e-04	0	43	0	633339904	21	4708
2026-01-08 23:52:52.86	89.45	53.92	-30.8	-33.4	11.5	1.10e-03	0	43	0	635437056	21	4879
2026-01-08 23:52:53.86	90.16	53.99	-31.1	-34.0	10.7	1.63e-03	0	43	0	636485632	22	5027
2026-01-08 23:52:54.87	90.89	54.06	-30.7	-32.8	11.6	1.95e-03	0	43	0	638582784	22	4553
2026-01-08 23:52:55.88	91.62	54.12	-30.1	-31.4	12.8	6.71e-05	0	43	0	640679936	21	4193
2026-01-08 23:52:56.89	92.35	54.18	-29.3	-29.8	14.3	3.80e-06	0	43	0	642777088	20	3790
2026-01-08 23:52:57.89	93.08	54.24	-29.4	-30.0	14.2	7.00e-07	0	43	0	644874240	20	3856
2026-01-08 23:52:58.90	93.82	54.29	-30.0	-31.7	13.1	7.60e-06	0	43	0	645922816	20	4367
2026-01-08 23:52:59.91	94.56	54.34	-30.1	-31.8	13.0	3.58e-05	0	43	0	648019968	20	4393
2026-01-08 23:53:00.92	95.30	54.38	-29.9	-31.2	13.4	4.50e-05	0	43	0	650117120	20	4209
2026-01-08 23:53:01.93	96.04	54.42	-29.8	-31.0	13.4	4.50e-06	0	43	0	652214272	20	4145
2026-01-08 23:53:02.93	96.78	54.45	-30.0	-31.5	13.1	2.21e-05	0	43	0	653262848	20	4321
2026-01-08 23:53:03.93	97.53	54.48	-29.9	-31.3	13.3	5.03e-05	0	43	0	655360000	20	4244
2026-01-08 23:53:04.94	98.27	54.50	-29.4	-30.4	14.3	9.10e-06	0	43	0	657457152	19	4054
2026-01-08 23:53:05.94	99.02	54.52	-29.5	-30.6	14.2	0.00e+00	0	43	0	659554304	19	4099
2026-01-08 23:53:06.95	99.77	54.53	-30.0	-31.9	13.4	3.00e-06	0	43	0	661651456	19	4517
2026-01-08 23:53:07.95	100.52	54.54	-29.3	-29.8	14.3	8.30e-06	0	43	0	663748608	20	3810
2026-01-08 23:53:08.96	101.27	54.55	-29.2	-29.8	14.7	0.00e+00	0	43	0	664797184	19	3868
2026-01-08 23:53:09.96	102.01	54.55	-29.6	-30.8	14.1	7.00e-07	0	43	0	666894336	19	4153
2026-01-08 23:53:10.97	102.77	54.54	-29.4	-30.4	14.3	7.00e-07	0	43	0	668991488	19	4050
2026-01-08 23:53:11.98	103.52	54.53	-29.9	-31.7	13.5	9.90e-06	0	43	0	671088640	19	4430
2026-01-08 23:53:12.99	104.27	54.51	-29.8	-31.4	13.7	3.00e-06	0	43	0	672137216	19	4345
2026-01-08 23:53:13.99	105.01	54.49	-29.4	-30.4	14.3	0.00e+00	0	43	0	674234368	19	4044
2026-01-08 23:53:14.99	105.75	54.47	-29.4	-30.5	14.3	7.00e-07	0	43	0	676331520	19	4092
2026-01-08 23:53:16.00	106.50	54.44	-29.4	-30.5	14.2	1.50e-06	0	43	0	678428672	19	4102
2026-01-08 23:53:17.00	107.24	54.40	-29.8	-31.7	13.4	4.50e-06	0	43	0	680525824	19	4460
2026-01-08 23:53:18.01	107.99	54.36	-29.9	-31.9	13.4	9.10e-06	0	43	0	681574400	19	4521
2026-01-08 23:53:19.01	108.72	54.32	-29.8	-31.4	13.6	9.90e-06	0	43	0	683671552	19	4356
2026-01-08 23:53:20.02	109.46	54.27	-29.3	-30.2	14.4	7.00e-07	0	43	0	685768704	19	3993
2026-01-08 23:53:21.03	110.20	54.22	-29.3	-30.4	14.3	0.00e+00	0	43	0	687865856	19	4055
2026-01-08 23:53:22.03	110.93	54.16	-29.8	-31.7	13.4	1.22e-05	0	43	0	689963008	19	4462
2026-01-08 23:53:23.04	111.66	54.10	-30.1	-32.1	12.8	3.35e-05	0	43	0	691011584	20	4509
2026-01-08 23:53:24.04	112.38	54.03	-29.9	-31.3	13.3	4.80e-05	0	43	0	693108736	20	4263
2026-01-08 23:53:25.05	113.11	53.96	-29.7	-31.0	13.5	1.06e-05	0	43	0	695205888	20	4174
2026-01-08 23:53:26.05	113.82	53.89	-29.5	-30.3	13.9	5.30e-06	0	43	0	697303040	20	3959
2026-01-08 23:53:27.06	114.54	53.81	-29.5	-30.3	14.0	1.50e-06	0	43	0	699400192	20	3939
2026-01-08 23:53:28.06	115.24	53.72	-29.6	-30.6	13.8	5.30e-06	0	43	0	700448768	20	4029
2026-01-08 23:53:29.06	115.95	53.63	-29.6	-31.1	13.8	7.00e-07	0	43	0	702545920	19	4273
2026-01-08 23:53:30.07	116.65	53.54	-30.1	-31.9	12.8	1.14e-05	0	43	0	704643072	20	4462
2026-01-08 23:53:31.07	117.34	53.45	-29.8	-31.2	13.3	1.83e-05	0	43	0	706740224	20	4221
2026-01-08 23:53:32.08	118.04	53.35	-29.7	-31.0	13.5	1.14e-05	0	43	0	708837376	20	4165
2026-01-08 23:53:33.08	118.72	53.24	-29.9	-31.4	13.3	1.06e-05	0	43	0	709885952	20	4266
2026-01-08 23:53:34.09	119.41	53.13	-30.5	-32.5	12.3	8.23e-05	0	43	0	711983104	21	4522
2026-01-08 23:53:35.09	120.08	53.02	-29.9	-30.8	13.4	4.11e-05	0	43	0	714080256	21	4006
2026-01-08 23:53:36.10	120.76	52.90	-29.7	-30.8	13.7	6.80e-06	0	43	0	716177408	20	4102
2026-01-08 23:53:37.11	121.43	52.78	-29.6	-30.5	13.9	2.20e-06	0	43	0	718274560	20	4011
2026-01-08 23:53:38.11	122.09	52.66	-29.6	-30.5	13.8	3.80e-06	0	43	0	719323136	20	3992
2026-01-08 23:53:39.12	122.75	52.53	-29.5	-30.2	14.1	7.00e-07	0	43	0	721420288	20	3913
2026-01-08 23:53:40.12	123.40	52.40	-30.3	-32.5	12.5	2.05e-05	0	43	0	723517440	20	4650
2026-01-08 23:53:41.13	124.04	52.27	-30.3	-32.6	12.5	1.06e-04	0	43	0	725614592	20	4682
2026-01-08 23:53:42.13	124.68	52.13	-29.6	-30.6	13.8	1.14e-05	0	43	0	727711744	20	4015
2026-01-08 23:53:43.13	125.31	52.00	-29.4	-29.9	14.4	1.50e-06	0	43	0	728760320	20	3819
2026-01-08 23:53:44.14	125.94	51.85	-30.0	-31.6	13.2	2.20e-06	0	43	0	730857472	20	4321
2026-01-08 23:53:45.15	126.56	51.70	-30.2	-32.2	12.8	4.57e-05	0	43	0	732954624	20	4531
2026-01-08 23:53:46.15	127.18	51.56	-30.0	-31.7	13.1	4.95e-05	0	43	0	735051776	20	4353
2026-01-08 23:53:47.16	127.79	51.40	-29.4	-30.0	14.2	3.80e-06	0	43	0	737148928	20	3849
2026-01-08 23:53:48.18	128.40	51.25	-29.8	-31.0	13.6	1.50e-06	0	43	0	738197504	20	4137
2026-01-08 23:53:49.18	128.99	51.09	-29.8	-31.2	13.5	1.60e-05	0	43	0	740294656	20	4190
2026-01-08 23:53:50.18	129.58	50.93	-30.7	-32.9	11.9	1.42e-04	0	43	0	742391808	21	4682
2026-01-08 23:53:51.19	130.17	50.77	-30.5	-32.6	12.1	2.59e-04	0	43	0	744488960	21	4578
2026-01-08 23:53:52.19	130.74	50.60	-30.8	-33.3	11.7	7.04e-04	0	43	0	746586112	21	4821
2026-01-08 23:53:53.20	131.32	50.44	-30.2	-31.6	12.8	2.72e-04	0	43	0	747634688	21	4241
2026-01-08 23:53:54.20	131.88	50.27	-30.2	-31.7	12.7	5.26e-05	0	43	0	749731840	21	4288
2026-01-08 23:53:55.21	132.44	50.09	-30.2	-31.9	12.5	1.04e-04	0	43	0	751828992	21	4369
2026-01-08 23:53:56.22	133.00	49.92	-30.4	-32.3	12.3	1.36e-04	0	43	0	753926144	21	4494
2026-01-08 23:53:57.22	133.54	49.74	-30.3	-32.1	12.5	2.08e-04	0	43	0	756023296	21	4422
2026-01-08 23:53:58.23	134.08	49.56	-30.2	-32.0	12.5	1.23e-04	0	43	0	757071872	21	4390
2026-01-08 23:53:59.23	134.61	49.39	-30.2	-31.7	12.6	1.46e-04	0	43	0	759169024	21	4309
2026-01-08 23:54:00.23	135.14	49.20	-30.4	-32.4	12.2	1.23e-04	0	43	0	761266176	21	4530
2026-01-08 23:54:01.24	135.66	49.02	-31.0	-33.8	10.8	6.81e-04	0	43	0	763363328	22	4946
2026-01-08 23:54:02.25	136.18	48.83	-31.3	-35.0	10.0	4.11e-03	0	43	0	765460480	22	5483
2026-01-08 23:54:03.25	136.69	48.65	-30.6	-32.5	11.8	2.32e-03	0	43	0	766509056	22	4464
2026-01-08 23:54:04.27	137.20	48.46	-30.4	-32.4	12.2	8.84e-04	0	43	0	768606208	21	4509
2026-01-08 23:54:05.28	137.70	48.26	-30.4	-32.2	12.3	2.23e-04	0	43	0	770703360	21	4448
2026-01-08 23:54:06.28	138.18	48.07	-30.6	-32.7	12.1	3.64e-04	0	43	0	772800512	21	4622
2026-01-08 23:54:07.28	138.67	47.88	-31.1	-33.7	10.9	2.31e-03	0	43	0	774897664	22	4901
2026-01-08 23:54:08.29	139.15	47.69	-30.3	-32.0	12.3	3.97e-04	0	43	0	775946240	21	4387
2026-01-08 23:54:09.30	139.62	47.49	-30.0	-31.1	13.0	6.17e-05	0	43	0	778043392	21	4097
2026-01-08 23:54:10.30	140.09	47.30	-29.9	-31.5	13.1	5.54e-04	0	43	0	780140544	20	4311
2026-01-08 23:54:11.29	140.54	47.10	-29.8	-31.6	13.4	1.25e-03	0	43	0	782237696	19	4436
2026-01-08 23:54:12.31	141.01	46.90	-30.2	-32.3	12.5	7.32e-05	0	43	0	784334848	20	4595
2026-01-08 23:54:13.31	141.45	46.70	-30.7	-33.3	11.6	6.16e-04	0	43	0	785383424	21	4842
2026-01-08 23:54:14.32	141.90	46.50	-30.9	-33.8	11.2	2.53e-03	0	43	0	787480576	21	5054
2026-01-08 23:54:15.32	142.34	46.30	-30.9	-33.3	11.1	2.18e-03	0	43	0	789577728	22	4773
2026-01-08 23:54:16.33	142.77	46.10	-30.1	-31.4	12.8	2.40e-04	0	43	0	791674880	21	4204
2026-01-08 23:54:17.33	143.20	45.89	-30.0	-31.8	12.9	5.39e-04	0	43	0	793772032	20	4426
2026-01-08 23:54:18.34	143.62	45.69	-30.5	-33.3	11.8	6.40e-05	0	43	0	794820608	20	4983
2026-01-08 23:54:19.34	144.04	45.49	-31.5	-35.4	9.1	8.71e-03	0	43	0	796917760	23	5617
2026-01-08 23:54:20.34	144.45	45.28	-31.5	-35.1	9.3	2.79e-02	0	43	0	799014912	23	5494
2026-01-08 23:54:21.35	144.86	45.08	-31.3	-34.4	9.9	1.25e-02	0	43	0	801112064	23	5157
2026-01-08 23:54:22.35	145.25	44.87	-31.1	-34.2	10.5	4.87e-03	0	43	0	803209216	22	5120
2026-01-08 23:54:23.36	145.65	44.66	-31.3	-34.7	10.1	3.44e-03	0	43	0	804257792	22	5341
2026-01-08 23:54:24.36	146.04	44.46	-31.7	-35.7	8.9	8.85e-03	0	43	0	806354944	23	5750
2026-01-08 23:54:25.37	146.43	44.25	-32.5	-39.3	5.7	1.97e-01	0	43	0	808452096	25	7799
2026-01-08 23:54:26.37	146.81	44.05	-32.8	-41.1	4.6	8.83e-01	0	43	0	810549248	25	9372
2026-01-08 23:54:27.38	147.19	43.84	-32.5	-39.1	5.7	6.04e-01	0	43	0	811597824	25	7699
2026-01-08 23:54:28.38	147.56	43.63	-32.3	-37.6	6.6	3.06e-01	0	43	0	813694976	25	6673
2026-01-08 23:54:29.39	147.93	43.42	-32.3	-38.2	6.6	1.10e-01	0	43	0	815792128	24	7075
2026-01-08 23:54:30.40	148.29	43.21	-32.7	-40.8	4.8	3.98e-01	0	43	0	817889280	25	9071
2026-01-08 23:54:31.40	148.65	43.01	-32.9	-42.8	4.1	9.56e-01	0	43	0	818937856	25	11242
2026-01-08 23:54:32.41	149.00	42.80	-32.8	-41.5	4.5	1.34e+00	0	43	0	819986432	25	9802
2026-01-08 23:54:33.41	149.35	42.59	-32.1	-36.9	7.0	4.82e-01	0	43	0	822083584	25	6271
2026-01-08 23:54:34.42	149.69	42.38	-31.6	-35.1	8.9	5.95e-02	0	43	0	823132160	24	5379
2026-01-08 23:54:35.42	150.03	42.17	-32.1	-37.3	7.3	4.93e-02	0	43	0	825229312	24	6553
2026-01-08 23:54:36.42	150.37	41.97	-32.4	-39.1	6.0	2.28e-01	0	43	0	827326464	24	7804
2026-01-08 23:54:37.43	150.70	41.76	-32.3	-38.9	6.1	3.97e-01	0	43	0	829423616	24	7676
2026-01-08 23:54:38.44	151.03	41.55	-32.3	-37.0	7.9	1.02e-01	0	43	0	831520768	24	6176
2026-01-08 23:54:39.45	151.35	41.34	-31.8	-35.1	9.2	2.92e-02	0	43	0	833617920	24	5309
2026-01-08 23:54:40.46	151.67	41.13	-31.7	-35.6	9.1	1.35e-02	0	43	0	834666496	23	5648
2026-01-08 23:54:41.46	151.99	40.93	-32.0	-35.8	8.8	3.09e-02	0	43	0	836763648	24	5593
2026-01-08 23:54:42.47	152.30	40.72	-31.8	-35.1	9.2	2.15e-02	0	43	0	838860800	24	5271
2026-01-08 23:54:43.48	152.61	40.51	-31.8	-35.4	9.4	1.54e-02	0	43	0	840957952	23	5465
2026-01-08 23:54:44.48	152.91	40.30	-31.6	-34.9	9.9	1.34e-02	0	43	0	842006528	23	5231
2026-01-08 23:54:45.49	153.21	40.10	-31.6	-34.7	10.1	7.47e-03	0	43	0	844103680	23	5143
2026-01-08 23:54:46.50	153.51	39.89	-31.4	-34.2	10.3	7.72e-03	0	43	0	846200832	23	4963
2026-01-08 23:54:47.50	153.80	39.69	-31.2	-33.6	10.9	3.08e-03	0	43	0	848297984	23	4719
2026-01-08 23:54:48.51	154.09	39.48	-31.3	-33.8	10.8	1.89e-03	0	43	0	850395136	23	4805
2026-01-08 23:54:49.51	154.37	39.28	-31.7	-35.3	9.6	8.20e-03	0	43	0	851443712	23	5424
2026-01-08 23:54:50.51	154.65	39.07	-32.1	-36.3	8.4	1.58e-02	0	43	0	853540864	24	5828
2026-01-08 23:54:51.51	154.93	38.87	-32.0	-36.1	8.5	5.18e-02	0	43	0	855638016	24	5756
2026-01-08 23:54:52.52	155.21	38.67	-31.3	-33.8	10.7	9.35e-03	0	43	0	857735168	23	4805
2026-01-08 23:54:53.52	155.48	38.47	-30.8	-32.4	11.6	1.71e-03	0	43	0	859832320	23	4307
2026-01-08 23:54:54.53	155.74	38.26	-30.8	-32.6	11.9	3.68e-04	0	43	0	860880896	22	4455
2026-01-08 23:54:55.53	156.01	38.06	-31.1	-33.7	11.0	1.32e-03	0	43	0	862978048	22	4861
2026-01-08 23:54:56.54	156.27	37.86	-31.9	-36.2	8.7	1.39e-02	0	43	0	865075200	23	5860
2026-01-08 23:54:57.55	156.53	37.66	-32.3	-37.3	7.4	8.45e-02	0	43	0	867172352	24	6441
2026-01-08 23:54:58.55	156.78	37.46	-31.9	-35.8	8.7	4.41e-02	0	43	0	869269504	24	5615
2026-01-08 23:54:59.55	157.04	37.26	-31.3	-33.5	10.4	1.43e-02	0	43	0	870318080	24	4635
2026-01-08 23:55:00.56	157.29	37.06	-31.1	-33.2	11.0	2.19e-03	0	43	0	872415232	23	4597
2026-01-08 23:55:01.56	157.53	36.87	-31.0	-33.4	11.2	1.82e-03	0	43	0	874512384	22	4766
2026-01-08 23:55:02.57	157.78	36.67	-31.2	-33.9	10.9	3.32e-03	0	43	0	876609536	22	4936
2026-01-08 23:55:03.58	158.02	36.47	-31.6	-35.1	9.4	5.36e-03	0	43	0	878706688	23	5382
2026-01-08 23:55:04.58	158.25	36.28	-32.2	-36.9	7.8	3.03e-02	0	43	0	879755264	24	6191
2026-01-08 23:55:05.59	158.49	36.08	-32.4	-37.8	7.2	1.41e-01	0	43	0	881852416	24	6692
2026-01-08 23:55:06.60	158.72	35.88	-32.3	-37.3	7.5	1.53e-01	0	43	0	883949568	24	6377
2026-01-08 23:55:07.61	158.95	35.69	-32.0	-36.1	8.3	7.22e-02	0	43	0	886046720	24	5768
2026-01-08 23:55:08.61	159.18	35.50	-31.9	-35.4	9.0	2.84e-02	0	43	0	888143872	24	5427
2026-01-08 23:55:09.61	159.40	35.30	-31.7	-35.3	9.5	2.41e-02	0	43	0	889192448	23	5425
2026-01-08 23:55:10.62	159.63	35.11	-31.7	-35.4	9.4	1.83e-02	0	43	0	891289600	23	5509
2026-01-08 23:55:11.63	159.85	34.92	-31.6	-34.8	9.9	1.54e-02	0	43	0	893386752	23	5210
2026-01-08 23:55:12.63	160.06	34.73	-31.6	-35.0	9.7	1.22e-02	0	43	0	895483904	23	5309
2026-01-08 23:55:13.64	160.28	34.54	-32.2	-36.8	8.0	2.78e-02	0	43	0	897581056	24	6104
2026-01-08 23:55:14.65	160.49	34.35	-32.5	-38.2	6.8	1.08e-01	0	43	0	898629632	24	6982
2026-01-08 23:55:15.65	160.70	34.16	-32.7	-38.8	6.1	2.61e-01	0	43	0	900726784	25	7325
2026-01-08 23:55:16.65	160.90	33.97	-32.7	-39.2	5.8	4.70e-01	0	43	0	902823936	25	7583
2026-01-08 23:55:17.66	161.11	33.79	-32.5	-37.7	6.8	3.23e-01	0	43	0	904921088	25	6582
2026-01-08 23:55:18.66	161.31	33.60	-32.0	-36.2	8.3	7.34e-02	0	43	0	907018240	24	5793
2026-01-08 23:55:19.67	161.51	33.41	-31.6	-34.8	9.8	2.10e-02	0	43	0	908066816	23	5247
2026-01-08 23:55:20.67	161.71	33.23	-31.1	-33.1	11.0	5.06e-03	0	43	0	910163968	23	4576
2026-01-08 23:55:21.68	161.91	33.04	-30.6	-32.8	11.9	2.65e-03	0	43	0	912261120	21	4625
2026-01-08 23:55:22.68	162.10	32.86	-30.7	-32.9	11.9	2.10e-03	0	43	0	914358272	21	4669
2026-01-08 23:55:23.69	162.29	32.68	-30.8	-33.3	11.6	7.90e-04	0	43	0	916455424	21	4795
2026-01-08 23:55:24.70	162.48	32.50	-31.4	-34.7	10.3	3.67e-03	0	43	0	917504000	22	5277
2026-01-08 23:55:25.70	162.67	32.32	-31.8	-35.7	9.1	2.02e-02	0	43	0	919601152	23	5638
2026-01-08 23:55:26.71	162.85	32.13	-32.1	-36.7	7.9	3.46e-02	0	43	0	921698304	24	6084
2026-01-08 23:55:27.71	163.04	31.96	-32.2	-36.8	7.8	1.24e-01	0	43	0	923795456	24	6157
2026-01-08 23:55:28.72	163.22	31.78	-31.8	-35.2	9.0	4.45e-02	0	43	0	925892608	24	5349
2026-01-08 23:55:29.73	163.40	31.60	-31.3	-34.1	10.3	1.17e-02	0	43	0	926941184	23	4937
2026-01-08 23:55:30.73	163.58	31.42	-30.8	-32.9	11.5	4.24e-03	0	43	0	929038336	22	4587
2026-01-08 23:55:31.73	163.75	31.25	-29.2	-30.5	12.9	1.79e-03	0	43	0	931135488	21	4157
2026-01-08 23:55:32.74	163.93	31.07	-29.5	-30.7	14.0	1.22e-05	0	43	0	933232640	19	4141
2026-01-08 23:55:33.75	164.10	30.89	-29.0	-30.0	14.8	1.30e-03	0	43	0	935329792	18	4014
2026-01-08 23:55:34.75	164.27	30.72	-29.1	-30.1	14.7	1.33e-03	0	43	0	936378368	18	4064
2026-01-08 23:55:35.76	164.44	30.55	-29.4	-31.0	14.2	0.00e+00	0	43	0	938475520	18	4303
2026-01-08 23:55:36.76	164.60	30.38	-30.0	-31.6	13.1	1.36e-03	0	43	0	940572672	20	4322
2026-01-08 23:55:37.77	164.77	30.20	-30.5	-32.7	11.9	1.39e-03	0	43	0	942669824	21	4613
2026-01-08 23:55:38.77	164.93	30.03	-30.9	-33.9	11.1	1.64e-03	0	43	0	944766976	21	5051
2026-01-08 23:55:39.78	165.09	29.86	-31.4	-35.1	9.8	5.51e-03	0	43	0	945815552	22	5500
2026-01-08 23:55:40.79	165.25	29.69	-31.3	-34.7	10.0	1.35e-02	0	43	0	947912704	22	5327
2026-01-08 23:55:41.80	165.41	29.52	-31.1	-34.0	10.6	4.57e-03	0	43	0	950009856	22	5012
2026-01-08 23:55:42.81	165.57	29.35	-30.9	-33.2	11.1	2.34e-03	0	43	0	952107008	22	4724
2026-01-08 23:55:43.82	165.73	29.19	-30.9	-33.8	11.1	1.06e-03	0	43	0	954204160	21	5035
2026-01-08 23:55:44.82	165.88	29.02	-31.0	-34.1	11.0	1.19e-03	0	43	0	955252736	21	5139
2026-01-08 23:55:45.82	166.03	28.86	-30.7	-33.3	11.5	1.41e-03	0	43	0	957349888	21	4833
2026-01-08 23:55:46.83	166.18	28.69	-30.5	-32.6	12.0	7.03e-04	0	43	0	959447040	21	4595
2026-01-08 23:55:47.83	166.33	28.53	-30.3	-32.6	12.4	3.07e-04	0	43	0	961544192	20	4661
2026-01-08 23:55:48.83	166.48	28.36	-30.0	-31.7	12.9	6.17e-05	0	43	0	963641344	20	4346
2026-01-08 23:55:49.84	166.62	28.20	-30.0	-31.6	13.0	3.85e-04	0	43	0	964689920	20	4331
2026-01-08 23:55:50.85	166.77	28.04	-30.0	-31.5	13.1	3.66e-05	0	43	0	966787072	20	4294
2026-01-08 23:55:51.86	166.91	27.88	-30.2	-32.2	12.6	5.87e-05	0	43	0	968884224	20	4534
2026-01-08 23:55:52.86	167.05	27.72	-30.3	-32.6	12.3	7.51e-04	0	43	0	970981376	20	4661
2026-01-08 23:55:53.87	167.19	27.56	-30.2	-32.2	12.6	6.00e-04	0	43	0	973078528	20	4517
2026-01-08 23:55:54.88	167.33	27.40	-30.3	-32.5	12.4	2.44e-04	0	43	0	974127104	20	4646
2026-01-08 23:55:55.88	167.47	27.24	-30.5	-32.6	12.0	7.92e-04	0	43	0	976224256	21	4556
2026-01-08 23:55:56.88	167.61	27.08	-31.1	-34.0	10.7	1.45e-03	0	43	0	978321408	22	5013
2026-01-08 23:55:57.89	167.74	26.93	-31.0	-33.6	10.9	3.03e-03	0	43	0	980418560	22	4850
2026-01-08 23:55:58.90	167.88	26.77	-30.3	-32.1	12.3	7.79e-04	0	43	0	982515712	21	4398
2026-01-08 23:55:59.90	168.01	26.62	-30.1	-31.9	12.7	4.26e-04	0	43	0	983564288	20	4436
2026-01-08 23:56:00.91	168.14	26.46	-29.8	-31.1	13.3	5.95e-05	0	43	0	985661440	20	4189
2026-01-08 23:56:01.92	168.27	26.31	-29.7	-31.1	13.7	3.02e-04	0	43	0	987758592	19	4272
2026-01-08 23:56:02.92	168.40	26.15	-30.0	-32.0	13.1	2.99e-04	0	43	0	989855744	19	4542
2026-01-08 23:56:03.92	168.53	26.00	-29.8	-31.1	13.2	1.37e-05	0	43	0	991952896	20	4175
2026-01-08 23:56:04.93	168.66	25.85	-30.1	-32.0	12.6	3.05e-05	0	43	0	993001472	20	4475
2026-01-08 23:56:05.93	168.78	25.70	-30.3	-32.4	12.4	4.90e-04	0	43	0	995098624	20	4610
2026-01-08 23:56:06.94	168.91	25.55	-30.5	-32.7	11.9	3.00e-04	0	43	0	997195776	21	4602
2026-01-08 23:56:07.95	169.03	25.40	-31.0	-34.0	10.9	1.13e-03	0	43	0	999292928	21	5113
2026-01-08 23:56:08.95	169.15	25.25	-30.9	-33.7	11.2	1.71e-03	0	43	0	1001390080	21	4972
2026-01-08 23:56:09.96	169.27	25.10	-30.9	-33.8	11.0	1.86e-03	0	43	0	1002438656	21	5029
2026-01-08 23:56:10.96	169.39	24.96	-30.9	-33.7	11.1	1.39e-03	0	43	0	1004535808	21	4982
2026-01-08 23:56:11.97	169.51	24.81	-30.7	-33.2	11.5	2.15e-03	0	43	0	1006632960	21	4778
2026-01-08 23:56:12.98	169.63	24.66	-30.5	-32.7	11.8	8.56e-04	0	43	0	1008730112	21	4603
2026-01-08 23:56:13.98	169.74	24.52	-30.5	-32.7	11.9	7.35e-04	0	43	0	1009778688	21	4601
2026-01-08 23:56:14.98	169.86	24.38	-30.8	-33.5	11.3	1.01e-03	0	43	0	1011875840	21	4898
2026-01-08 23:56:15.99	169.98	24.23	-30.5	-33.0	12.0	3.14e-04	0	43	0	1013972992	20	4810
2026-01-08 23:56:16.99	170.09	24.09	-30.4	-32.7	12.1	4.00e-04	0	43	0	1016070144	20	4705
2026-01-08 23:56:18.00	170.20	23.95	-30.5	-33.0	11.9	4.50e-04	0	43	0	1018167296	20	4834
2026-01-08 23:56:19.01	170.31	23.80	-30.1	-32.0	12.6	7.48e-04	0	43	0	1020264448	20	4465
2026-01-08 23:56:20.01	170.42	23.66	-29.8	-31.2	13.1	2.31e-04	0	43	0	1021313024	20	4219
2026-01-08 23:56:21.02	170.53	23.52	-29.5	-30.7	13.8	2.82e-04	0	43	0	1023410176	19	4153
2026-01-08 23:56:22.02	170.64	23.38	-29.2	-30.5	14.3	5.48e-04	0	43	0	1025507328	18	4174
2026-01-08 23:56:23.03	170.75	23.24	-29.1	-30.3	14.3	1.37e-05	0	43	0	1027604480	18	4126
2026-01-08 23:56:24.03	170.86	23.11	-28.8	-30.1	14.7	4.61e-04	0	43	0	1028653056	17	4147
2026-01-08 23:56:25.03	170.96	22.97	-28.7	-29.7	15.0	7.00e-07	0	43	0	1030750208	17	4046
2026-01-08 23:56:26.03	171.07	22.83	-28.4	-29.0	15.4	7.00e-07	0	43	0	1032847360	17	3848
2026-01-08 23:56:27.04	171.17	22.69	-28.3	-29.1	15.7	4.29e-04	0	43	0	1034944512	16	3976
2026-01-08 23:56:28.04	171.27	22.56	-28.5	-29.1	15.4	0.00e+00	0	43	0	1037041664	17	3885
2026-01-08 23:56:29.05	171.38	22.42	-28.4	-28.9	15.4	7.00e-07	0	43	0	1038090240	17	3830
2026-01-08 23:56:30.06	171.48	22.29	-28.6	-29.5	15.2	6.95e-04	0	43	0	1040187392	17	3992
2026-01-08 23:56:31.07	171.58	22.15	-28.8	-30.1	14.8	0.00e+00	0	43	0	1042284544	17	4144
2026-01-08 23:56:32.07	171.68	22.02	-29.0	-30.4	14.6	5.49e-05	0	43	0	1044381696	17	4250
2026-01-08 23:56:33.08	171.78	21.89	-29.3	-30.7	14.2	8.96e-04	0	43	0	1046478848	18	4225
2026-01-08 23:56:34.09	171.88	21.75	-29.6	-30.9	13.7	8.83e-04	0	43	0	1047527424	19	4211
2026-01-08 23:56:35.09	171.98	21.62	-29.6	-31.1	13.6	1.21e-04	0	43	0	1049624576	19	4257
2026-01-08 23:56:36.10	172.07	21.49	-29.8	-31.6	13.2	7.56e-04	0	43	0	1051721728	19	4418
2026-01-08 23:56:37.11	172.17	21.36	-29.8	-31.6	13.2	6.49e-04	0	43	0	1053818880	19	4430
2026-01-08 23:56:38.11	172.26	21.23	-29.8	-31.7	13.1	2.90e-04	0	43	0	1055916032	19	4460
2026-01-08 23:56:39.12	172.36	21.10	-29.8	-31.5	13.3	7.30e-04	0	43	0	1056964608	19	4386
2026-01-08 23:56:40.12	172.45	20.97	-29.8	-31.5	13.3	7.59e-04	0	43	0	1059061760	19	4387
2026-01-08 23:56:41.13	172.55	20.85	-29.5	-30.8	13.7	2.03e-04	0	43	0	1061158912	19	4179
2026-01-08 23:56:42.14	172.64	20.72	-29.2	-30.4	14.2	5.07e-04	0	43	0	1063256064	18	4157
2026-01-08 23:56:43.14	172.73	20.59	-29.0	-30.1	14.4	3.88e-04	0	43	0	1065353216	18	4071
2026-01-08 23:56:44.14	172.82	20.47	-29.0	-29.9	14.6	9.53e-05	0	43	0	1066401792	18	4002
2026-01-08 23:56:45.14	172.91	20.34	-28.7	-29.8	14.9	2.88e-04	0	43	0	1068498944	17	4065
2026-01-08 23:56:46.15	173.00	20.21	-28.5	-29.3	15.2	1.62e-04	0	43	0	1070596096	17	3951
2026-01-08 23:56:47.16	173.09	20.09	-28.5	-29.3	15.2	6.86e-05	0	43	0	1072693248	17	3936
2026-01-08 23:56:48.16	173.18	19.97	-28.5	-29.1	15.3	1.84e-04	0	43	0	1074790400	17	3895
2026-01-08 23:56:49.17	173.26	19.84	-28.2	-28.6	15.6	2.91e-04	0	43	0	1075838976	17	3747
2026-01-08 23:56:50.17	173.35	19.72	-28.1	-28.7	15.8	4.65e-05	0	43	0	1077936128	16	3875
2026-01-08 23:56:51.18	173.44	19.60	-28.0	-28.6	15.9	1.92e-04	0	43	0	1080033280	16	3834
2026-01-08 23:56:52.19	173.52	19.47	-28.1	-28.7	15.5	0.00e+00	0	43	0	1082130432	16	3885
2026-01-08 23:56:53.20	173.61	19.35	-28.2	-29.0	15.0	3.80e-06	0	43	0	1084227584	16	3957
2026-01-08 23:56:54.21	173.69	19.23	-28.1	-28.7	15.8	2.43e-04	0	43	0	1085276160	16	3880
2026-01-08 23:56:55.21	173.77	19.11	-28.2	-29.0	15.4	0.00e+00	0	43	0	1087373312	16	3954
2026-01-08 23:56:56.21	173.86	18.99	-28.4	-29.5	15.3	0.00e+00	0	43	0	1089470464	16	4089
2026-01-08 23:56:57.22	173.94	18.87	-28.6	-29.5	15.0	1.52e-04	0	43	0	1091567616	17	3988
2026-01-08 23:56:58.22	174.02	18.75	-28.8	-30.0	14.6	2.33e-04	0	43	0	1093664768	17	4137
2026-01-08 23:56:59.22	174.10	18.64	-29.0	-30.5	14.4	0.00e+00	0	43	0	1094713344	17	4290
2026-01-08 23:57:00.22	174.18	18.52	-29.1	-30.2	14.3	2.39e-04	0	43	0	1096810496	18	4109
2026-01-08 23:57:01.21	174.26	18.40	-29.4	-31.1	13.7	3.24e-04	0	43	0	1098907648	18	4386
2026-01-08 23:57:02.22	174.34	18.29	-29.7	-31.3	13.3	4.38e-04	0	43	0	1101004800	19	4348
2026-01-08 23:57:03.22	174.42	18.17	-29.8	-31.7	13.1	2.05e-05	0	43	0	1103101952	19	4466
2026-01-08 23:57:04.23	174.50	18.05	-29.9	-31.9	12.9	3.08e-04	0	43	0	1104150528	19	4537
2026-01-08 23:57:05.24	174.57	17.94	-29.9	-31.8	12.9	4.73e-05	0	43	0	1106247680	19	4526
2026-01-08 23:57:06.24	174.65	17.83	-29.9	-31.9	12.8	4.19e-05	0	43	0	1108344832	19	4553
2026-01-08 23:57:07.24	174.73	17.71	-29.9	-31.9	12.8	3.43e-04	0	43	0	1110441984	19	4542
2026-01-08 23:57:08.25	174.80	17.60	-29.8	-31.8	12.9	3.89e-05	0	43	0	1112539136	19	4519
2026-01-08 23:57:09.26	174.88	17.48	-29.8	-31.8	12.9	2.89e-05	0	43	0	1113587712	19	4515
2026-01-08 23:57:10.27	174.95	17.37	-29.8	-31.6	13.0	4.80e-05	0	43	0	1115684864	19	4466
2026-01-08 23:57:11.28	175.03	17.26	-29.7	-31.5	13.1	2.67e-05	0	43	0	1117782016	19	4434
2026-01-08 23:57:12.28	175.10	17.15	-29.6	-31.3	13.3	2.21e-05	0	43	0	1119879168	19	4349
2026-01-08 23:57:13.28	175.17	17.04	-29.5	-31.0	13.4	2.97e-04	0	43	0	1121976320	19	4270
2026-01-08 23:57:14.29	175.25	16.92	-29.5	-30.8	13.5	8.30e-06	0	43	0	1123024896	19	4204
2026-01-08 23:57:15.29	175.32	16.81	-29.5	-31.0	13.4	7.60e-06	0	43	0	1125122048	19	4248
2026-01-08 23:57:16.29	175.39	16.70	-29.7	-31.3	13.2	3.05e-04	0	43	0	1127219200	19	4367
2026-01-08 23:57:17.30	175.46	16.59	-29.6	-31.2	13.3	1.44e-05	0	43	0	1129316352	19	4312
2026-01-08 23:57:18.30	175.53	16.49	-29.5	-31.0	13.4	3.95e-04	0	43	0	1131413504	19	4254
2026-01-08 23:57:19.31	175.60	16.38	-29.5	-31.3	13.5	3.29e-04	0	43	0	1132462080	18	4464
2026-01-08 23:57:20.32	175.67	16.27	-29.5	-31.0	13.4	4.30e-04	0	43	0	1134559232	19	4252
2026-01-08 23:57:21.32	175.74	16.16	-29.5	-30.9	13.4	1.90e-05	0	43	0	1136656384	19	4249
2026-01-08 23:57:22.32	175.81	16.05	-29.5	-31.0	13.4	4.34e-04	0	43	0	1138753536	19	4266
2026-01-08 23:57:23.32	175.88	15.95	-29.5	-31.1	13.4	4.79e-04	0	43	0	1139802112	19	4282
2026-01-08 23:57:24.33	175.95	15.84	-29.5	-30.9	13.4	7.60e-06	0	43	0	1141899264	19	4233
2026-01-08 23:57:25.34	176.01	15.73	-29.4	-31.2	13.5	5.28e-04	0	43	0	1143996416	18	4416
2026-01-08 23:57:26.34	176.08	15.63	-29.3	-31.0	13.7	5.35e-04	0	43	0	1146093568	18	4342
2026-01-08 23:57:27.35	176.15	15.52	-29.4	-31.2	13.6	1.14e-05	0	43	0	1148190720	18	4411
2026-01-08 23:57:28.35	176.21	15.42	-29.2	-30.6	13.9	5.30e-06	0	43	0	1150287872	18	4241
2026-01-08 23:57:29.36	176.28	15.31	-29.2	-30.7	13.9	3.73e-04	0	43	0	1151336448	18	4281
2026-01-08 23:57:30.37	176.34	15.21	-29.3	-30.8	13.8	9.10e-06	0	43	0	1153433600	18	4288
2026-01-08 23:57:31.37	176.41	15.11	-29.1	-30.5	14.0	3.14e-04	0	43	0	1155530752	18	4193
2026-01-08 23:57:32.37	176.47	15.00	-29.2	-30.8	13.8	3.14e-04	0	43	0	1157627904	18	4286
2026-01-08 23:57:33.38	176.54	14.90	-29.4	-31.1	13.6	1.06e-05	0	43	0	1158676480	18	4381
2026-01-08 23:57:34.39	176.60	14.80	-29.2	-30.6	13.9	3.59e-04	0	43	0	1160773632	18	4235
2026-01-08 23:57:35.39	176.66	14.70	-29.1	-30.4	13.2	3.00e-06	0	43	0	1162870784	18	4173
2026-01-08 23:57:36.39	176.73	14.60	-29.2	-30.5	13.2	3.80e-06	0	43	0	1164967936	18	4217
2026-01-08 23:57:37.40	176.79	14.49	-29.2	-30.5	13.9	4.97e-04	0	43	0	1167065088	18	4215
2026-01-08 23:57:38.41	176.85	14.39	-29.2	-30.6	13.8	4.90e-04	0	43	0	1168113664	18	4249
2026-01-08 23:57:39.42	176.91	14.29	-29.1	-30.4	14.0	2.20e-06	0	43	0	1170210816	18	4167
2026-01-08 23:57:40.42	176.97	14.19	-29.2	-30.6	13.9	6.98e-04	0	43	0	1172307968	18	4226
2026-01-08 23:57:41.42	177.03	14.09	-29.1	-30.5	14.0	6.50e-04	0	43	0	1174405120	18	4207
2026-01-08 23:57:42.43	177.09	13.99	-29.2	-30.7	13.8	1.11e-03	0	43	0	1176502272	18	4256
2026-01-08 23:57:43.44	177.16	13.90	-29.1	-30.4	14.0	7.72e-04	0	43	0	1178599424	18	4187
2026-01-08 23:57:44.44	177.21	13.80	-29.1	-30.3	14.0	7.50e-04	0	43	0	1179648000	18	4165
2026-01-08 23:57:45.45	177.27	13.70	-29.1	-30.5	13.9	7.06e-04	0	43	0	1181745152	18	4210
2026-01-08 23:57:46.45	177.33	13.60	-29.2	-30.5	13.9	1.50e-06	0	43	0	1183842304	18	4216
2026-01-08 23:57:47.46	177.39	13.50	-29.0	-30.2	14.1	7.60e-04	0	43	0	1185939456	18	4116
2026-01-08 23:57:48.47	177.45	13.41	-29.1	-30.4	14.0	3.80e-06	0	43	0	1186988032	18	4186
2026-01-08 23:57:49.48	177.51	13.31	-29.1	-30.3	14.0	3.80e-06	0	43	0	1189085184	18	4151
2026-01-08 23:57:50.48	177.56	13.21	-29.1	-30.3	14.0	6.91e-04	0	43	0	1191182336	18	4138
2026-01-08 23:57:51.48	177.62	13.12	-29.1	-30.4	14.0	1.50e-06	0	43	0	1193279488	18	4160
2026-01-08 23:57:52.49	177.68	13.02	-29.0	-30.1	14.2	1.50e-06	0	43	0	1195376640	18	4079
2026-01-08 23:57:53.50	177.74	12.93	-29.1	-30.3	14.0	3.00e-06	0	43	0	1196425216	18	4159
2026-01-08 23:57:54.51	177.79	12.83	-29.2	-30.6	13.8	3.80e-06	0	43	0	1198522368	18	4247
2026-01-08 23:57:55.52	177.85	12.74	-29.2	-30.5	13.8	2.20e-06	0	43	0	1200619520	18	4222
2026-01-08 23:57:56.53	177.90	12.64	-29.2	-30.6	13.8	1.46e-04	0	43	0	1202716672	18	4240
2026-01-08 23:57:57.53	177.96	12.55	-29.2	-30.6	13.8	4.50e-06	0	43	0	1204813824	18	4243
2026-01-08 23:57:58.54	178.01	12.45	-29.2	-30.7	13.7	5.30e-06	0	43	0	1206910976	18	4284
2026-01-08 23:57:59.55	178.07	12.36	-29.2	-30.7	13.7	5.26e-05	0	43	0	1207959552	18	4284
2026-01-08 23:58:00.55	178.12	12.27	-29.3	-31.0	13.6	6.71e-05	0	43	0	1210056704	18	4350
2026-01-08 23:58:01.56	178.18	12.18	-29.5	-31.4	13.3	8.63e-04	0	43	0	1212153856	18	4488
2026-01-08 23:58:02.57	178.23	12.08	-29.5	-31.0	13.3	6.48e-05	0	43	0	1214251008	19	4259
2026-01-08 23:58:03.58	178.28	11.99	-29.6	-31.1	13.1	7.85e-05	0	43	0	1215299584	19	4298
2026-01-08 23:58:04.58	178.34	11.90	-29.7	-31.5	12.9	1.98e-05	0	43	0	1217396736	19	4424
2026-01-08 23:58:05.59	178.39	11.81	-29.8	-31.7	12.7	1.54e-04	0	43	0	1219493888	19	4508
2026-01-08 23:58:06.60	178.44	11.72	-29.8	-31.9	12.6	7.70e-05	0	43	0	1221591040	19	4558
2026-01-08 23:58:07.60	178.49	11.63	-30.0	-32.3	12.3	1.13e-04	0	43	0	1223688192	19	4700
2026-01-08 23:58:08.61	178.54	11.54	-30.0	-31.9	12.2	2.39e-04	0	43	0	1224736768	20	4474
2026-01-08 23:58:09.60	178.59	11.45	-30.1	-32.2	12.0	3.14e-04	0	43	0	1226833920	20	4588
2026-01-08 23:58:10.61	178.65	11.36	-30.1	-32.4	11.8	4.94e-04	0	43	0	1228931072	20	4675
2026-01-08 23:58:11.62	178.70	11.27	-30.3	-32.9	11.4	6.19e-04	0	43	0	1231028224	20	4847
2026-01-08 23:58:12.63	178.75	11.18	-30.3	-32.8	11.5	9.70e-04	0	43	0	1233125376	20	4802
2026-01-08 23:58:13.63	178.80	11.09	-30.3	-33.0	11.4	1.09e-03	0	43	0	1234173952	20	4882
2026-01-08 23:58:14.64	178.85	11.00	-30.4	-33.2	11.2	1.28e-03	0	43	0	1236271104	20	4961
2026-01-08 23:58:15.64	178.90	10.91	-30.4	-32.8	11.1	1.93e-03	0	43	0	1238368256	21	4726
2026-01-08 23:58:16.65	178.95	10.83	-30.4	-33.3	11.1	1.51e-03	0	43	0	1240465408	20	5027
2026-01-08 23:58:17.66	179.00	10.74	-30.5	-33.2	10.8	2.23e-03	0	43	0	1242562560	21	4905
2026-01-08 23:58:18.66	179.04	10.65	-30.6	-33.5	10.6	3.87e-03	0	43	0	1243611136	21	4996
2026-01-08 23:58:19.66	179.09	10.57	-30.6	-33.5	10.6	2.67e-03	0	43	0	1245708288	21	5007
2026-01-08 23:58:20.67	179.14	10.48	-30.6	-33.6	10.5	4.44e-03	0	43	0	1247805440	21	5042
2026-01-08 23:58:21.67	179.19	10.39	-30.6	-33.5	10.5	4.57e-03	0	43	0	1249902592	21	5031
2026-01-08 23:58:22.68	179.24	10.31	-30.6	-33.5	10.5	4.14e-03	0	43	0	1251999744	21	5012
2026-01-08 23:58:23.69	179.28	10.22	-30.6	-33.5	10.5	4.27e-03	0	43	0	1253048320	21	5036
2026-01-08 23:58:24.69	179.33	10.14	-30.7	-33.7	10.4	4.67e-03	0	43	0	1255145472	21	5087
2026-01-08 23:58:25.70	179.38	10.05	-30.6	-33.6	10.5	5.77e-03	0	43	0	1257242624	21	5047
2026-01-08 23:58:26.70	179.42	9.97	-30.6	-33.5	10.5	4.98e-03	0	43	0	1259339776	21	5024
2026-01-08 23:58:27.70	179.47	9.88	-30.6	-33.6	10.4	4.13e-03	0	43	0	1261436928	21	5055
2026-01-08 23:58:28.70	179.52	9.80	-30.6	-33.4	10.5	4.97e-03	0	43	0	1262485504	21	5000
2026-01-08 23:58:29.71	179.56	9.71	-30.5	-33.1	10.8	3.33e-03	0	43	0	1264582656	21	4863
2026-01-08 23:58:30.72	179.61	9.63	-30.7	-33.7	10.4	3.47e-03	0	43	0	1266679808	21	5101
2026-01-08 23:58:31.72	179.65	9.55	-30.6	-33.7	10.3	4.83e-03	0	43	0	1268776960	21	5090
2026-01-08 23:58:32.73	179.70	9.46	-30.5	-33.1	10.7	2.95e-03	0	43	0	1270874112	21	4884
2026-01-08 23:58:33.74	179.74	9.38	-30.5	-33.0	10.8	2.90e-03	0	43	0	1271922688	21	4830
2026-01-08 23:58:34.74	179.79	9.30	-30.5	-33.5	10.8	3.04e-03	0	43	0	1274019840	20	5132
2026-01-08 23:58:35.74	179.83	9.21	-30.4	-33.3	11.0	1.86e-03	0	43	0	1276116992	20	5013
2026-01-08 23:58:36.74	179.88	9.13	-30.3	-33.2	11.1	2.77e-03	0	43	0	1278214144	20	4975
2026-01-08 23:58:37.75	179.92	9.05	-30.5	-33.7	10.7	2.18e-03	0	43	0	1280311296	20	5185
2026-01-08 23:58:38.76	179.97	8.97	-30.4	-32.7	11.0	2.40e-03	0	43	0	1281359872	21	4714
2026-01-08 23:58:39.76	180.01	8.89	-30.1	-32.5	11.5	2.12e-03	0	43	0	1283457024	20	4740
2026-01-08 23:58:40.77	180.05	8.81	-30.0	-32.2	11.7	1.73e-03	0	43	0	1285554176	20	4632
2026-01-08 23:58:41.77	180.10	8.72	-29.9	-32.0	11.8	6.92e-04	0	43	0	1287651328	20	4551
2026-01-08 23:58:42.77	180.14	8.64	-30.0	-32.0	11.8	1.43e-03	0	43	0	1289748480	20	4563
2026-01-08 23:58:43.78	180.18	8.56	-29.9	-32.3	12.0	1.34e-03	0	43	0	1290797056	19	4764
