passes_logs/2026/01/08/R2M6_AANII_01/R2M6_AANII_01__20260108_231740_NOAA_21_JPSS-2_rec.log

#Pass ID: 20260108_231740_NOAA 21 (JPSS-2)
#Satellite: NOAA 21 (JPSS-2)
#Configuration: NOAA 21
#almurnet v.1.7.20240730
#Start time: 2026-01-08 23:17:39

#Version: 2.2.20231116
#Station: R2M6_AANII_01
#Location: 30.233357 lon 59.946436 lat
#TLE: 1 54234U 22150A   26008.45757862  .00000119  00000+0  77172-4 0  9996
#TLE: 2 54234  98.7494 309.4367 0000894 328.2777  31.8345 14.19533328163889

#Time	Az	El	Level	Level2	SNR	BER	BlckErr	Temp	State	Recorded	gain1	gain2
2026-01-08 23:17:39.59	24.67	6.95	-29.9	-34.3	4.8	1.36e+00	0	41	0	0	19	5981
2026-01-08 23:17:40.59	24.73	7.02	-30.9	-36.8	4.5	1.42e+00	0	41	104	0	21	7091
2026-01-08 23:17:41.59	24.79	7.09	-31.0	-36.0	7.3	1.39e-01	0	41	0	0	22	6332
2026-01-08 23:17:42.60	24.85	7.16	-30.9	-35.5	7.6	1.03e-01	0	41	0	3145728	22	6105
2026-01-08 23:17:43.60	24.92	7.23	-31.0	-35.7	7.5	9.94e-02	0	40	0	6291456	22	6164
2026-01-08 23:17:44.60	24.98	7.30	-30.9	-35.3	7.8	8.87e-02	0	41	0	9437184	22	6003
2026-01-08 23:17:45.60	25.04	7.38	-30.6	-34.3	8.5	5.85e-02	0	41	0	12582912	22	5505
2026-01-08 23:17:46.61	25.11	7.45	-30.3	-33.7	9.4	2.42e-02	0	41	0	15728640	21	5335
2026-01-08 23:17:47.61	25.17	7.52	-30.1	-33.2	9.7	1.39e-02	0	41	0	18874368	21	5132
2026-01-08 23:17:48.62	25.23	7.59	-30.1	-33.8	9.6	1.01e-02	0	41	0	22020096	20	5495
2026-01-08 23:17:49.63	25.30	7.67	-30.0	-33.2	10.0	9.44e-03	0	41	0	24117248	20	5253
2026-01-08 23:17:50.63	25.36	7.74	-29.8	-32.8	10.4	6.28e-03	0	41	0	27262976	20	5078
2026-01-08 23:17:51.64	25.43	7.81	-29.8	-33.3	10.4	3.45e-03	0	41	0	31457280	19	5371
2026-01-08 23:17:52.65	25.50	7.89	-29.8	-33.2	10.5	3.59e-03	0	41	0	34603008	19	5333
2026-01-08 23:17:53.65	25.56	7.96	-29.5	-32.4	11.1	2.72e-03	0	41	0	37748736	19	5040
2026-01-08 23:17:54.66	25.63	8.03	-29.4	-32.0	11.4	1.15e-03	0	41	0	40894464	19	4883
2026-01-08 23:17:55.66	25.70	8.11	-29.5	-32.4	11.1	1.45e-03	0	41	0	44040192	19	5018
2026-01-08 23:17:56.67	25.76	8.18	-29.3	-32.3	11.5	1.47e-03	0	41	0	47185920	18	5090
2026-01-08 23:17:57.67	25.83	8.25	-29.1	-31.8	11.9	5.08e-04	0	41	0	49283072	18	4899
2026-01-08 23:17:58.68	25.90	8.33	-28.8	-30.9	12.4	1.66e-04	0	41	0	52428800	18	4611
2026-01-08 23:17:59.68	25.97	8.40	-28.6	-30.9	12.8	7.93e-05	0	41	0	55574528	17	4719
2026-01-08 23:18:00.68	26.03	8.48	-28.4	-30.5	13.0	4.11e-05	0	41	0	58720256	17	4588
2026-01-08 23:18:01.68	26.10	8.55	-28.4	-30.5	13.0	1.06e-03	0	41	0	61865984	17	4578
2026-01-08 23:18:02.69	26.17	8.63	-28.8	-31.4	12.5	5.56e-05	0	41	0	65011712	17	4873
2026-01-08 23:18:03.69	26.24	8.70	-28.6	-30.9	12.8	7.70e-05	0	41	0	69206016	17	4721
2026-01-08 23:18:04.70	26.31	8.78	-28.6	-31.1	12.7	6.02e-05	0	41	0	71303168	17	4768
2026-01-08 23:18:05.71	26.38	8.86	-28.6	-30.9	12.8	1.04e-03	0	42	0	74448896	17	4711
2026-01-08 23:18:06.72	26.45	8.93	-28.4	-30.6	13.0	3.05e-05	0	41	0	77594624	17	4605
2026-01-08 23:18:07.73	26.52	9.01	-28.5	-30.7	12.9	1.01e-03	0	41	0	80740352	17	4653
2026-01-08 23:18:08.73	26.59	9.08	-28.5	-30.7	13.0	4.04e-05	0	41	0	83886080	17	4645
2026-01-08 23:18:09.73	26.66	9.16	-28.6	-30.9	12.9	4.04e-05	0	41	0	87031808	17	4685
2026-01-08 23:18:10.73	26.73	9.24	-28.5	-30.8	12.9	1.41e-03	0	42	0	90177536	17	4678
2026-01-08 23:18:11.74	26.81	9.31	-28.6	-30.8	12.9	1.26e-03	0	41	0	93323264	17	4683
2026-01-08 23:18:12.74	26.88	9.39	-28.5	-30.6	13.0	4.11e-05	0	42	0	96468992	17	4611
2026-01-08 23:18:13.75	26.95	9.47	-28.6	-30.9	12.9	1.26e-03	0	42	0	99614720	17	4701
2026-01-08 23:18:14.76	27.03	9.55	-28.5	-30.7	13.0	1.46e-03	0	42	0	102760448	17	4625
2026-01-08 23:18:15.77	27.10	9.62	-28.5	-30.6	13.1	4.11e-05	0	42	0	105906176	17	4600
2026-01-08 23:18:16.77	27.17	9.70	-28.5	-30.6	13.1	1.41e-03	0	42	0	109051904	17	4603
2026-01-08 23:18:17.78	27.25	9.78	-28.6	-30.9	12.9	1.31e-03	0	42	0	112197632	17	4694
2026-01-08 23:18:18.79	27.32	9.86	-28.4	-30.5	13.1	3.28e-05	0	42	0	116391936	17	4567
2026-01-08 23:18:19.80	27.40	9.94	-28.2	-30.4	13.5	7.62e-05	0	42	0	118489088	16	4660
2026-01-08 23:18:20.81	27.47	10.02	-28.3	-30.7	13.4	1.06e-05	0	42	0	121634816	16	4730
2026-01-08 23:18:21.81	27.55	10.10	-28.2	-30.4	13.5	1.14e-05	0	42	0	124780544	16	4655
2026-01-08 23:18:22.82	27.63	10.17	-28.2	-30.4	13.6	8.16e-04	0	42	0	127926272	16	4643
2026-01-08 23:18:23.82	27.70	10.25	-28.2	-30.5	13.5	5.77e-04	0	42	0	131072000	16	4666
2026-01-08 23:18:24.83	27.78	10.33	-28.2	-30.5	13.5	8.30e-06	0	42	0	134217728	16	4665
2026-01-08 23:18:25.84	27.86	10.41	-28.2	-30.4	13.5	1.22e-05	0	42	0	138412032	16	4658
2026-01-08 23:18:26.85	27.93	10.49	-28.4	-30.8	13.3	1.37e-05	0	42	0	141557760	16	4786
2026-01-08 23:18:27.86	28.01	10.58	-28.2	-30.5	13.5	1.14e-05	0	42	0	143654912	16	4670
2026-01-08 23:18:28.85	28.09	10.65	-28.2	-30.5	13.5	6.44e-04	0	42	0	146800640	16	4663
2026-01-08 23:18:29.86	28.17	10.74	-28.2	-30.6	13.5	1.60e-05	0	42	0	149946368	16	4704
2026-01-08 23:18:30.87	28.25	10.82	-28.3	-30.7	13.4	1.83e-05	0	42	0	153092096	16	4751
2026-01-08 23:18:31.87	28.33	10.90	-28.2	-30.6	13.5	8.30e-06	0	42	0	156237824	16	4707
2026-01-08 23:18:32.88	28.41	10.98	-28.2	-30.5	13.5	6.80e-06	0	42	0	159383552	16	4690
2026-01-08 23:18:33.89	28.49	11.06	-28.1	-30.1	13.8	5.30e-06	0	42	0	163577856	16	4561
2026-01-08 23:18:34.89	28.57	11.14	-28.1	-30.3	13.7	1.06e-05	0	42	0	165675008	16	4620
2026-01-08 23:18:35.90	28.65	11.23	-27.8	-30.0	13.9	5.30e-06	0	42	0	168820736	15	4651
2026-01-08 23:18:36.90	28.73	11.31	-27.8	-30.1	13.9	3.00e-06	0	42	0	171966464	15	4684
2026-01-08 23:18:37.90	28.82	11.39	-27.8	-29.9	14.0	1.50e-06	0	42	0	175112192	15	4616
2026-01-08 23:18:38.91	28.90	11.47	-27.7	-29.9	14.1	1.50e-06	0	42	0	178257920	15	4605
2026-01-08 23:18:39.91	28.98	11.55	-27.8	-30.0	14.0	2.20e-06	0	42	0	181403648	15	4649
2026-01-08 23:18:40.91	29.07	11.64	-27.8	-30.0	14.0	1.50e-06	0	42	0	184549376	15	4649
2026-01-08 23:18:41.92	29.15	11.72	-27.9	-30.1	13.9	1.50e-06	0	42	0	187695104	15	4689
2026-01-08 23:18:42.93	29.23	11.81	-27.9	-30.3	13.8	2.20e-06	0	42	0	190840832	15	4751
2026-01-08 23:18:43.93	29.32	11.89	-28.1	-30.1	13.8	3.00e-06	0	42	0	193986560	16	4549
2026-01-08 23:18:44.94	29.40	11.97	-27.9	-30.2	13.9	3.00e-06	0	42	0	197132288	15	4693
2026-01-08 23:18:45.95	29.49	12.06	-27.9	-30.2	13.9	1.50e-06	0	42	0	200278016	15	4690
2026-01-08 23:18:46.95	29.58	12.14	-27.9	-30.3	13.8	6.10e-06	0	42	0	203423744	15	4749
2026-01-08 23:18:47.96	29.66	12.23	-27.8	-30.1	13.9	3.00e-06	0	42	0	206569472	15	4677
2026-01-08 23:18:48.96	29.75	12.31	-27.8	-30.0	14.0	2.20e-06	0	42	0	209715200	15	4638
2026-01-08 23:18:49.97	29.84	12.40	-27.8	-30.0	14.1	4.50e-06	0	42	0	212860928	15	4642
2026-01-08 23:18:50.98	29.93	12.48	-27.7	-29.7	14.2	7.00e-07	0	42	0	216006656	15	4559
2026-01-08 23:18:51.98	30.02	12.57	-27.7	-29.8	14.2	0.00e+00	0	42	0	219152384	15	4566
2026-01-08 23:18:52.99	30.11	12.66	-27.8	-30.1	14.0	4.50e-06	0	42	0	222298112	15	4668
2026-01-08 23:18:54.00	30.20	12.74	-27.7	-29.9	14.1	2.20e-06	0	42	0	225443840	15	4605
2026-01-08 23:18:55.00	30.29	12.83	-27.6	-29.6	14.3	7.00e-07	0	42	0	228589568	15	4516
2026-01-08 23:18:56.00	30.38	12.91	-27.6	-29.6	14.3	1.50e-06	0	42	0	231735296	15	4522
2026-01-08 23:18:57.01	30.47	13.00	-27.6	-29.6	14.3	1.50e-06	0	42	0	234881024	15	4512
2026-01-08 23:18:58.03	30.56	13.09	-27.6	-29.7	14.3	7.00e-07	0	42	0	238026752	15	4541
2026-01-08 23:18:59.04	30.65	13.18	-27.6	-29.7	14.3	1.50e-06	0	42	0	241172480	15	4540
2026-01-08 23:19:00.05	30.75	13.27	-27.7	-29.7	14.2	2.20e-06	0	42	0	244318208	15	4555
2026-01-08 23:19:01.06	30.84	13.36	-27.8	-30.1	14.0	7.78e-05	0	42	0	247463936	15	4661
2026-01-08 23:19:02.06	30.93	13.44	-27.7	-29.7	14.3	6.86e-05	0	42	0	250609664	15	4550
2026-01-08 23:19:03.07	31.03	13.53	-27.5	-29.4	14.5	2.20e-06	0	42	0	253755392	15	4464
2026-01-08 23:19:04.08	31.13	13.62	-27.6	-29.5	14.4	8.16e-05	0	42	0	256901120	15	4473
2026-01-08 23:19:05.09	31.22	13.71	-27.4	-29.0	14.7	1.50e-06	0	42	0	260046848	15	4344
2026-01-08 23:19:06.09	31.32	13.80	-27.5	-29.3	14.5	0.00e+00	0	42	0	263192576	15	4416
2026-01-08 23:19:07.10	31.41	13.89	-27.4	-29.0	14.7	2.99e-04	0	42	0	266338304	15	4344
2026-01-08 23:19:08.10	31.51	13.98	-27.4	-29.0	14.7	3.68e-04	0	42	0	269484032	15	4350
2026-01-08 23:19:09.10	31.61	14.07	-27.4	-29.6	14.6	0.00e+00	0	42	0	272629760	14	4637
2026-01-08 23:19:10.11	31.71	14.16	-27.4	-29.6	14.7	2.41e-04	0	42	0	275775488	14	4613
2026-01-08 23:19:11.11	31.80	14.25	-27.3	-29.1	14.2	7.00e-07	0	42	0	278921216	15	4419
2026-01-08 23:19:12.12	31.90	14.34	-27.5	-29.3	14.5	0.00e+00	0	42	0	282066944	15	4426
2026-01-08 23:19:13.12	32.00	14.43	-27.6	-29.6	14.0	3.35e-05	0	42	0	285212672	15	4516
2026-01-08 23:19:14.12	32.10	14.52	-27.6	-29.4	14.5	1.67e-05	0	42	0	288358400	15	4468
2026-01-08 23:19:15.13	32.21	14.62	-27.6	-29.6	14.4	1.50e-06	0	42	0	291504128	15	4522
2026-01-08 23:19:16.13	32.31	14.71	-27.5	-29.4	14.5	5.49e-04	0	42	0	294649856	15	4447
2026-01-08 23:19:17.13	32.41	14.80	-27.5	-29.2	14.6	2.51e-05	0	42	0	297795584	15	4394
2026-01-08 23:19:18.14	32.51	14.89	-27.5	-29.3	14.6	7.00e-07	0	42	0	300941312	15	4411
2026-01-08 23:19:19.15	32.62	14.99	-27.5	-29.7	14.6	6.80e-06	0	42	0	304087040	14	4650
2026-01-08 23:19:20.15	32.72	15.08	-27.6	-29.4	14.5	7.00e-07	0	42	0	307232768	15	4455
2026-01-08 23:19:21.15	32.82	15.17	-27.5	-29.3	14.6	0.00e+00	0	43	0	310378496	15	4413
2026-01-08 23:19:22.16	32.93	15.26	-27.6	-29.4	14.5	3.97e-04	0	42	0	313524224	15	4458
2026-01-08 23:19:23.16	33.04	15.36	-27.6	-29.5	14.5	4.04e-04	0	43	0	316669952	15	4472
2026-01-08 23:19:24.17	33.14	15.45	-27.6	-29.5	14.5	0.00e+00	0	42	0	319815680	15	4487
2026-01-08 23:19:25.18	33.25	15.55	-27.7	-29.7	14.4	1.50e-06	0	42	0	322961408	15	4521
2026-01-08 23:19:26.18	33.36	15.64	-27.6	-29.4	14.6	3.84e-04	0	42	0	326107136	15	4446
2026-01-08 23:19:27.19	33.47	15.74	-27.5	-29.3	14.6	7.00e-07	0	42	0	329252864	15	4423
2026-01-08 23:19:28.20	33.58	15.83	-27.5	-29.4	14.6	3.00e-04	0	43	0	332398592	15	4433
2026-01-08 23:19:29.21	33.69	15.93	-27.5	-29.3	14.7	2.74e-04	0	43	0	335544320	15	4408
2026-01-08 23:19:30.21	33.80	16.02	-27.5	-29.2	14.7	7.00e-07	0	43	0	338690048	15	4390
2026-01-08 23:19:31.22	33.91	16.12	-27.5	-29.3	14.6	2.61e-04	0	42	0	341835776	15	4421
2026-01-08 23:19:32.22	34.02	16.22	-27.7	-29.7	14.4	2.43e-04	0	43	0	344981504	15	4532
2026-01-08 23:19:33.23	34.14	16.31	-27.7	-29.8	14.4	1.50e-06	0	42	0	348127232	15	4552
2026-01-08 23:19:34.24	34.25	16.41	-27.7	-29.8	14.4	3.15e-04	0	42	0	351272960	15	4557
2026-01-08 23:19:35.25	34.37	16.51	-27.9	-30.2	14.1	2.20e-06	0	43	0	354418688	15	4682
2026-01-08 23:19:36.25	34.48	16.61	-27.9	-30.1	14.2	2.20e-06	0	42	0	357564416	15	4666
2026-01-08 23:19:37.25	34.59	16.70	-28.0	-30.4	14.1	3.15e-04	0	43	0	360710144	15	4743
2026-01-08 23:19:38.26	34.71	16.80	-28.1	-30.2	14.0	3.00e-04	0	43	0	363855872	16	4564
2026-01-08 23:19:39.27	34.83	16.90	-28.2	-30.3	14.0	1.50e-06	0	43	0	367001600	16	4591
2026-01-08 23:19:40.27	34.95	17.00	-28.0	-29.8	14.3	7.00e-07	0	42	0	370147328	16	4431
2026-01-08 23:19:41.27	35.06	17.10	-27.9	-29.6	14.5	7.00e-07	0	43	0	373293056	16	4369
2026-01-08 23:19:42.29	35.19	17.20	-27.8	-29.5	14.5	0.00e+00	0	43	0	376438784	16	4350
2026-01-08 23:19:43.29	35.31	17.30	-27.9	-29.6	14.4	2.24e-04	0	42	0	379584512	16	4374
2026-01-08 23:19:44.30	35.43	17.40	-27.8	-29.3	14.6	2.50e-04	0	42	0	382730240	16	4287
2026-01-08 23:19:45.30	35.55	17.50	-27.8	-29.3	14.7	0.00e+00	0	43	0	385875968	16	4281
2026-01-08 23:19:46.31	35.67	17.60	-27.8	-29.4	14.5	7.00e-07	0	43	0	389021696	16	4338
2026-01-08 23:19:47.31	35.79	17.70	-27.8	-29.3	14.6	0.00e+00	0	42	0	392167424	16	4298
2026-01-08 23:19:48.32	35.92	17.80	-27.8	-29.4	14.6	1.50e-06	0	42	0	395313152	16	4322
2026-01-08 23:19:49.33	36.04	17.90	-27.9	-29.6	14.4	1.03e-04	0	42	0	398458880	16	4384
2026-01-08 23:19:50.33	36.17	18.00	-27.8	-29.5	14.5	0.00e+00	0	43	0	401604608	16	4338
2026-01-08 23:19:51.34	36.30	18.11	-27.9	-29.6	14.5	0.00e+00	0	43	0	404750336	16	4385
2026-01-08 23:19:52.35	36.42	18.21	-28.0	-29.8	14.4	0.00e+00	0	43	0	407896064	16	4437
2026-01-08 23:19:53.35	36.55	18.31	-27.8	-29.3	14.6	0.00e+00	0	43	0	411041792	16	4304
2026-01-08 23:19:54.36	36.68	18.41	-27.8	-29.3	14.6	1.50e-06	0	43	0	414187520	16	4299
2026-01-08 23:19:55.37	36.81	18.52	-27.8	-29.3	14.7	0.00e+00	0	43	0	417333248	16	4284
2026-01-08 23:19:56.37	36.94	18.62	-27.6	-29.0	14.8	0.00e+00	0	43	0	420478976	16	4200
2026-01-08 23:19:57.38	37.07	18.72	-27.8	-29.3	14.7	0.00e+00	0	43	0	423624704	16	4283
2026-01-08 23:19:58.38	37.20	18.83	-27.9	-29.5	14.6	7.00e-07	0	43	0	426770432	16	4342
2026-01-08 23:19:59.39	37.34	18.93	-27.6	-29.0	14.8	0.00e+00	0	43	0	429916160	16	4203
2026-01-08 23:20:00.40	37.47	19.04	-27.6	-28.9	14.9	0.00e+00	0	43	0	433061888	16	4179
2026-01-08 23:20:01.40	37.61	19.14	-27.6	-28.8	14.9	0.00e+00	0	43	0	436207616	16	4166
2026-01-08 23:20:02.41	37.74	19.25	-27.6	-28.9	14.9	0.00e+00	0	43	0	439353344	16	4182
2026-01-08 23:20:03.41	37.88	19.35	-27.6	-29.0	14.9	0.00e+00	0	43	0	442499072	16	4193
2026-01-08 23:20:04.41	38.02	19.46	-27.6	-28.9	14.9	7.00e-07	0	43	0	445644800	16	4178
2026-01-08 23:20:05.42	38.16	19.56	-27.5	-28.6	15.2	0.00e+00	0	43	0	448790528	16	4104
2026-01-08 23:20:06.43	38.30	19.67	-27.5	-28.8	15.1	0.00e+00	0	43	0	451936256	16	4143
2026-01-08 23:20:07.43	38.44	19.78	-27.5	-28.5	15.2	0.00e+00	0	43	0	455081984	16	4076
2026-01-08 23:20:08.44	38.58	19.88	-27.4	-28.3	15.4	0.00e+00	0	43	0	458227712	16	4015
2026-01-08 23:20:09.44	38.72	19.99	-27.5	-28.8	15.1	0.00e+00	0	43	0	461373440	16	4137
2026-01-08 23:20:10.45	38.86	20.10	-27.6	-28.9	15.0	0.00e+00	0	43	0	464519168	16	4169
2026-01-08 23:20:11.46	39.01	20.21	-27.7	-29.0	14.9	0.00e+00	0	43	0	467664896	16	4203
2026-01-08 23:20:12.47	39.16	20.32	-27.5	-28.7	15.1	2.89e-05	0	43	0	470810624	16	4128
2026-01-08 23:20:13.47	39.30	20.42	-27.5	-28.6	15.2	0.00e+00	0	43	0	473956352	16	4095
2026-01-08 23:20:14.48	39.45	20.53	-27.6	-28.9	15.0	0.00e+00	0	43	0	477102080	16	4171
2026-01-08 23:20:15.48	39.60	20.64	-27.6	-28.8	15.1	0.00e+00	0	43	0	480247808	16	4159
2026-01-08 23:20:16.49	39.75	20.75	-27.6	-28.8	15.0	0.00e+00	0	43	0	483393536	16	4147
2026-01-08 23:20:17.50	39.90	20.86	-27.5	-28.7	15.1	0.00e+00	0	43	0	486539264	16	4114
2026-01-08 23:20:18.51	40.05	20.97	-27.0	-28.1	15.6	1.43e-04	0	43	0	489684992	15	4069
2026-01-08 23:20:19.50	40.20	21.08	-26.9	-27.8	15.7	0.00e+00	0	43	0	492830720	15	4004
2026-01-08 23:20:20.51	40.36	21.19	-26.9	-27.9	15.7	0.00e+00	0	43	0	495976448	15	4018
2026-01-08 23:20:21.51	40.51	21.30	-26.8	-27.7	15.8	0.00e+00	0	43	0	499122176	15	3965
2026-01-08 23:20:22.51	40.66	21.41	-26.8	-27.5	15.9	1.05e-04	0	43	0	502267904	15	3926
2026-01-08 23:20:23.52	40.82	21.52	-26.9	-28.2	15.8	0.00e+00	0	43	0	505413632	14	4212
2026-01-08 23:20:24.52	40.98	21.63	-26.8	-28.1	15.9	5.03e-05	0	43	0	508559360	14	4173
2026-01-08 23:20:25.53	41.14	21.75	-26.8	-28.0	15.9	0.00e+00	0	43	0	511705088	14	4162
2026-01-08 23:20:26.54	41.30	21.86	-26.8	-28.1	15.9	0.00e+00	0	43	0	514850816	14	4173
2026-01-08 23:20:27.55	41.46	21.97	-26.7	-27.8	16.0	2.36e-05	0	43	0	517996544	14	4111
2026-01-08 23:20:28.55	41.62	22.08	-26.6	-27.7	16.1	1.37e-05	0	43	0	521142272	14	4076
2026-01-08 23:20:29.55	41.79	22.20	-26.6	-27.7	16.1	0.00e+00	0	43	0	524288000	14	4072
2026-01-08 23:20:30.56	41.95	22.31	-26.8	-28.1	15.9	6.71e-05	0	43	0	527433728	14	4186
2026-01-08 23:20:31.57	42.12	22.42	-26.8	-28.0	15.8	0.00e+00	0	43	0	530579456	14	4161
2026-01-08 23:20:32.57	42.29	22.54	-26.6	-27.6	16.2	0.00e+00	0	43	0	533725184	14	4037
2026-01-08 23:20:33.58	42.45	22.65	-26.5	-27.4	16.3	3.89e-05	0	43	0	536870912	14	4004
2026-01-08 23:20:34.59	42.62	22.77	-26.6	-27.6	16.2	4.04e-05	0	43	0	540016640	14	4042
2026-01-08 23:20:35.59	42.79	22.88	-26.7	-27.7	16.1	0.00e+00	0	43	0	543162368	14	4077
2026-01-08 23:20:36.59	42.97	22.99	-26.6	-27.7	16.1	1.14e-05	0	43	0	546308096	14	4076
2026-01-08 23:20:37.59	43.14	23.11	-26.6	-27.5	16.2	0.00e+00	0	43	0	549453824	14	4030
2026-01-08 23:20:38.60	43.31	23.22	-26.6	-27.6	16.1	0.00e+00	0	43	0	552599552	14	4052
2026-01-08 23:20:39.61	43.49	23.34	-26.6	-27.6	16.1	1.27e-04	0	43	0	555745280	14	4053
2026-01-08 23:20:40.62	43.67	23.46	-26.6	-27.6	16.2	1.36e-04	0	43	0	558891008	14	4043
2026-01-08 23:20:41.62	43.85	23.57	-26.6	-27.7	16.2	0.00e+00	0	43	0	562036736	14	4057
2026-01-08 23:20:42.62	44.02	23.69	-26.6	-27.7	16.1	0.00e+00	0	43	0	565182464	14	4063
2026-01-08 23:20:43.63	44.21	23.80	-26.6	-28.1	16.1	3.32e-04	0	43	0	568328192	13	4290
2026-01-08 23:20:44.63	44.39	23.92	-26.6	-28.1	16.2	0.00e+00	0	43	0	571473920	13	4283
2026-01-08 23:20:45.64	44.57	24.04	-26.7	-28.3	16.1	4.67e-04	0	43	0	574619648	13	4333
2026-01-08 23:20:46.64	44.75	24.15	-26.7	-28.4	16.0	0.00e+00	0	43	0	577765376	13	4367
2026-01-08 23:20:47.64	44.94	24.27	-26.8	-28.5	15.9	0.00e+00	0	43	0	580911104	13	4402
2026-01-08 23:20:48.65	45.13	24.39	-26.9	-28.8	15.8	0.00e+00	0	43	0	584056832	13	4478
2026-01-08 23:20:49.66	45.32	24.51	-26.8	-28.5	15.9	3.77e-04	0	43	0	587202560	13	4407
2026-01-08 23:20:50.67	45.51	24.63	-26.6	-28.1	16.1	0.00e+00	0	43	0	590348288	13	4285
2026-01-08 23:20:51.68	45.70	24.75	-26.5	-27.8	16.3	0.00e+00	0	43	0	593494016	13	4205
2026-01-08 23:20:52.68	45.89	24.86	-26.6	-28.1	16.2	0.00e+00	0	43	0	596639744	13	4275
2026-01-08 23:20:53.69	46.09	24.98	-26.6	-28.0	16.2	0.00e+00	0	43	0	599785472	13	4259
2026-01-08 23:20:54.70	46.29	25.10	-26.5	-28.0	16.2	0.00e+00	0	43	0	602931200	13	4243
2026-01-08 23:20:55.71	46.49	25.22	-26.6	-28.1	16.2	0.00e+00	0	43	0	606076928	13	4277
2026-01-08 23:20:56.71	46.68	25.34	-26.5	-27.8	16.3	0.00e+00	0	43	0	609222656	13	4201
2026-01-08 23:20:57.72	46.88	25.46	-26.5	-28.0	16.2	0.00e+00	0	43	0	612368384	13	4258
2026-01-08 23:20:58.73	47.09	25.58	-26.5	-28.0	16.2	0.00e+00	0	43	0	615514112	13	4248
2026-01-08 23:20:59.73	47.29	25.70	-26.5	-28.0	16.3	0.00e+00	0	43	0	618659840	13	4252
2026-01-08 23:21:00.74	47.50	25.82	-26.8	-28.5	15.9	0.00e+00	0	43	0	621805568	13	4408
2026-01-08 23:21:01.76	47.71	25.94	-26.9	-28.9	15.8	0.00e+00	0	43	0	624951296	13	4505
2026-01-08 23:21:02.75	47.91	26.06	-27.0	-28.5	15.7	0.00e+00	0	43	0	628097024	14	4287
2026-01-08 23:21:03.76	48.12	26.18	-27.1	-28.7	15.6	0.00e+00	0	43	0	631242752	14	4323
2026-01-08 23:21:04.76	48.33	26.30	-27.2	-29.0	15.4	0.00e+00	0	43	0	634388480	14	4421
2026-01-08 23:21:05.77	48.54	26.42	-27.3	-29.1	15.4	0.00e+00	0	43	0	637534208	14	4443
2026-01-08 23:21:06.78	48.76	26.54	-27.3	-29.3	15.3	0.00e+00	0	43	0	640679936	14	4499
2026-01-08 23:21:07.78	48.97	26.67	-27.3	-29.3	15.3	0.00e+00	0	43	0	643825664	14	4503
2026-01-08 23:21:08.78	49.19	26.79	-27.4	-29.5	15.1	0.00e+00	0	43	0	646971392	14	4573
2026-01-08 23:21:09.78	49.41	26.91	-27.4	-28.9	15.2	0.00e+00	0	43	0	650117120	15	4271
2026-01-08 23:21:10.79	49.63	27.03	-27.4	-28.8	15.3	0.00e+00	0	43	0	653262848	15	4266
2026-01-08 23:21:11.80	49.85	27.15	-27.4	-28.9	15.2	0.00e+00	0	43	0	656408576	15	4285
2026-01-08 23:21:12.80	50.08	27.27	-27.6	-29.3	15.0	0.00e+00	0	43	0	659554304	15	4391
2026-01-08 23:21:13.81	50.30	27.39	-27.4	-29.0	15.2	0.00e+00	0	43	0	662700032	15	4298
2026-01-08 23:21:14.81	50.53	27.51	-27.4	-29.0	15.2	0.00e+00	0	43	0	665845760	15	4311
2026-01-08 23:21:15.82	50.76	27.64	-27.6	-29.4	14.9	0.00e+00	0	43	0	668991488	15	4428
2026-01-08 23:21:16.82	50.99	27.76	-27.4	-29.0	15.2	0.00e+00	0	43	0	672137216	15	4308
2026-01-08 23:21:17.83	51.22	27.88	-27.2	-28.5	15.5	0.00e+00	0	43	0	675282944	15	4168
2026-01-08 23:21:18.84	51.46	28.00	-27.0	-28.1	15.7	0.00e+00	0	43	0	678428672	15	4077
2026-01-08 23:21:19.84	51.69	28.12	-27.0	-28.1	15.7	0.00e+00	0	43	0	681574400	15	4066
2026-01-08 23:21:20.85	51.93	28.25	-27.1	-28.1	15.7	0.00e+00	0	43	0	684720128	15	4071
2026-01-08 23:21:21.86	52.17	28.37	-26.9	-27.8	15.9	0.00e+00	0	43	0	687865856	15	3981
2026-01-08 23:21:22.86	52.41	28.49	-26.8	-27.4	16.1	0.00e+00	0	43	0	691011584	15	3893
2026-01-08 23:21:23.87	52.66	28.61	-26.7	-27.9	16.1	0.00e+00	0	43	0	694157312	14	4114
2026-01-08 23:21:24.88	52.90	28.74	-26.7	-27.9	16.1	0.00e+00	0	43	0	697303040	14	4119
2026-01-08 23:21:25.88	53.15	28.86	-26.9	-28.2	15.9	0.00e+00	0	43	0	700448768	14	4193
2026-01-08 23:21:26.89	53.40	28.98	-26.9	-28.2	15.9	0.00e+00	0	43	0	703594496	14	4210
2026-01-08 23:21:27.90	53.65	29.10	-27.0	-28.5	15.8	0.00e+00	0	43	0	706740224	14	4277
2026-01-08 23:21:28.90	53.90	29.22	-27.0	-28.6	15.7	0.00e+00	0	43	0	709885952	14	4295
2026-01-08 23:21:29.92	54.16	29.35	-27.0	-28.5	15.8	0.00e+00	0	43	0	713031680	14	4271
2026-01-08 23:21:30.92	54.42	29.47	-26.9	-28.3	15.9	0.00e+00	0	43	0	716177408	14	4216
2026-01-08 23:21:31.93	54.68	29.59	-26.8	-28.0	16.0	0.00e+00	0	43	0	719323136	14	4147
2026-01-08 23:21:32.94	54.94	29.71	-26.8	-28.0	16.1	0.00e+00	0	43	0	722468864	14	4143
2026-01-08 23:21:33.94	55.20	29.83	-26.7	-27.7	16.2	0.00e+00	0	43	0	725614592	14	4073
2026-01-08 23:21:34.95	55.46	29.95	-26.9	-28.2	15.9	0.00e+00	0	43	0	728760320	14	4194
2026-01-08 23:21:35.96	55.73	30.08	-26.8	-28.1	16.0	0.00e+00	0	43	0	731906048	14	4168
2026-01-08 23:21:36.97	56.00	30.20	-26.8	-28.1	16.1	0.00e+00	0	43	0	735051776	14	4159
2026-01-08 23:21:37.97	56.27	30.32	-26.9	-28.3	15.9	0.00e+00	0	43	0	738197504	14	4238
2026-01-08 23:21:38.97	56.54	30.44	-26.9	-28.2	16.0	0.00e+00	0	43	0	741343232	14	4186
2026-01-08 23:21:39.98	56.81	30.56	-27.1	-28.6	15.7	0.00e+00	0	43	0	744488960	14	4315
2026-01-08 23:21:40.99	57.09	30.68	-27.0	-28.4	15.9	0.00e+00	0	43	0	747634688	14	4260
2026-01-08 23:21:42.00	57.37	30.80	-27.2	-28.9	15.6	0.00e+00	0	43	0	750780416	14	4393
2026-01-08 23:21:43.01	57.65	30.92	-27.4	-29.3	15.3	0.00e+00	0	43	0	753926144	14	4511
2026-01-08 23:21:44.01	57.93	31.04	-27.4	-29.3	15.3	0.00e+00	0	43	0	757071872	14	4512
2026-01-08 23:21:45.01	58.22	31.16	-27.5	-29.5	15.3	9.99e-05	0	43	0	760217600	14	4570
2026-01-08 23:21:46.01	58.50	31.28	-27.3	-28.7	15.4	0.00e+00	0	43	0	763363328	15	4232
2026-01-08 23:21:47.02	58.79	31.40	-27.6	-29.3	15.1	0.00e+00	0	43	0	766509056	15	4377
2026-01-08 23:21:48.03	59.08	31.51	-27.4	-29.0	15.3	0.00e+00	0	43	0	769654784	15	4298
2026-01-08 23:21:49.03	59.37	31.63	-27.7	-29.6	14.9	2.30e-04	0	43	0	772800512	15	4471
2026-01-08 23:21:50.04	59.67	31.75	-27.6	-29.2	15.1	0.00e+00	0	43	0	775946240	15	4376
2026-01-08 23:21:51.04	59.96	31.87	-27.3	-28.7	15.4	4.03e-04	0	43	0	779091968	15	4226
2026-01-08 23:21:52.05	60.26	31.98	-27.3	-28.6	15.5	2.62e-04	0	43	0	782237696	15	4194
2026-01-08 23:21:53.06	60.57	32.10	-27.4	-28.8	15.4	0.00e+00	0	43	0	785383424	15	4256
2026-01-08 23:21:54.06	60.87	32.22	-27.5	-29.1	15.2	1.76e-04	0	43	0	788529152	15	4317
2026-01-08 23:21:55.07	61.17	32.33	-27.5	-29.0	15.3	1.08e-04	0	43	0	791674880	15	4305
2026-01-08 23:21:56.07	61.48	32.45	-27.9	-30.0	14.8	5.30e-06	0	43	0	794820608	15	4591
2026-01-08 23:21:57.08	61.79	32.56	-27.9	-29.4	15.0	3.43e-05	0	43	0	797966336	16	4294
2026-01-08 23:21:58.09	62.10	32.68	-27.9	-29.4	14.9	1.52e-05	0	43	0	801112064	16	4306
2026-01-08 23:21:59.09	62.42	32.79	-27.9	-29.5	14.9	0.00e+00	0	43	0	804257792	16	4335
2026-01-08 23:22:00.10	62.73	32.91	-27.9	-29.5	14.9	1.60e-05	0	43	0	807403520	16	4339
2026-01-08 23:22:01.10	63.05	33.02	-27.9	-29.4	14.9	1.50e-06	0	43	0	810549248	16	4308
2026-01-08 23:22:02.11	63.37	33.13	-28.0	-29.8	14.7	5.30e-06	0	43	0	813694976	16	4410
2026-01-08 23:22:03.12	63.70	33.24	-28.4	-30.7	14.2	0.00e+00	0	43	0	816840704	16	4667
2026-01-08 23:22:04.13	64.02	33.36	-28.2	-30.1	14.5	7.00e-07	0	43	0	819986432	16	4511
2026-01-08 23:22:05.14	64.35	33.47	-28.2	-30.2	14.5	0.00e+00	0	43	0	823132160	16	4536
2026-01-08 23:22:06.14	64.68	33.58	-28.4	-30.7	14.2	1.50e-06	0	43	0	826277888	16	4700
2026-01-08 23:22:07.15	65.01	33.69	-28.3	-30.4	14.3	4.50e-06	0	43	0	829423616	16	4598
2026-01-08 23:22:08.15	65.34	33.79	-28.2	-30.1	14.5	7.60e-06	0	43	0	832569344	16	4514
2026-01-08 23:22:09.16	65.68	33.90	-28.4	-30.7	14.2	1.50e-06	0	43	0	835715072	16	4691
2026-01-08 23:22:10.17	66.02	34.01	-28.2	-30.2	14.5	1.50e-06	0	43	0	838860800	16	4519
2026-01-08 23:22:11.17	66.36	34.12	-28.2	-30.2	14.5	1.06e-05	0	43	0	842006528	16	4517
2026-01-08 23:22:12.18	66.70	34.22	-28.3	-30.5	14.4	3.73e-05	0	43	0	845152256	16	4622
2026-01-08 23:22:13.18	67.05	34.33	-28.3	-30.4	14.4	7.00e-07	0	43	0	848297984	16	4596
2026-01-08 23:22:14.19	67.39	34.43	-28.4	-30.7	14.3	1.22e-05	0	43	0	851443712	16	4669
2026-01-08 23:22:15.20	67.75	34.54	-28.2	-30.2	14.5	1.50e-06	0	43	0	854589440	16	4523
2026-01-08 23:22:16.21	68.10	34.64	-28.1	-30.0	14.6	0.00e+00	0	43	0	857735168	16	4469
2026-01-08 23:22:17.21	68.45	34.74	-28.2	-30.1	14.6	1.14e-05	0	43	0	860880896	16	4492
2026-01-08 23:22:18.22	68.81	34.84	-28.4	-30.6	14.3	7.00e-07	0	43	0	864026624	16	4629
2026-01-08 23:22:19.22	69.16	34.94	-28.3	-30.4	14.4	1.50e-06	0	43	0	867172352	16	4600
2026-01-08 23:22:20.23	69.52	35.04	-28.5	-30.8	14.1	7.00e-07	0	43	0	870318080	16	4719
2026-01-08 23:22:21.23	69.89	35.14	-28.4	-30.1	14.3	7.00e-07	0	43	0	873463808	17	4406
2026-01-08 23:22:22.24	70.25	35.24	-28.6	-30.7	14.0	3.80e-06	0	43	0	876609536	17	4557
2026-01-08 23:22:23.25	70.62	35.33	-28.4	-30.1	14.3	7.00e-07	0	43	0	879755264	17	4387
2026-01-08 23:22:24.26	70.99	35.43	-28.2	-29.6	14.6	0.00e+00	0	43	0	882900992	17	4249
2026-01-08 23:22:25.26	71.36	35.52	-28.3	-29.9	14.4	1.50e-06	0	43	0	886046720	17	4330
2026-01-08 23:22:26.27	71.73	35.62	-28.3	-30.0	14.3	2.20e-06	0	43	0	889192448	17	4360
2026-01-08 23:22:27.28	72.11	35.71	-28.4	-30.1	14.3	2.20e-06	0	43	0	892338176	17	4391
2026-01-08 23:22:28.29	72.49	35.80	-28.5	-30.5	14.0	3.80e-06	0	43	0	895483904	17	4519
2026-01-08 23:22:29.29	72.87	35.89	-28.2	-29.8	14.5	1.50e-06	0	43	0	898629632	17	4294
2026-01-08 23:22:30.30	73.25	35.98	-28.1	-29.5	14.7	1.50e-06	0	43	0	901775360	17	4204
2026-01-08 23:22:31.31	73.63	36.07	-28.0	-29.2	14.8	7.00e-07	0	43	0	904921088	17	4130
2026-01-08 23:22:32.31	74.02	36.15	-28.2	-29.6	14.6	7.00e-07	0	43	0	908066816	17	4261
2026-01-08 23:22:33.31	74.40	36.24	-28.3	-29.9	14.4	0.00e+00	0	43	0	911212544	17	4319
2026-01-08 23:22:34.32	74.79	36.32	-28.5	-30.5	14.1	3.00e-06	0	43	0	914358272	17	4496
2026-01-08 23:22:35.33	75.19	36.41	-28.5	-30.5	14.1	7.00e-07	0	43	0	917504000	17	4512
2026-01-08 23:22:36.34	75.58	36.49	-28.4	-30.3	14.2	2.20e-06	0	43	0	920649728	17	4438
2026-01-08 23:22:37.35	75.98	36.57	-28.5	-30.5	14.1	1.50e-06	0	43	0	923795456	17	4509
2026-01-08 23:22:38.35	76.37	36.65	-28.5	-30.4	14.1	2.20e-06	0	43	0	926941184	17	4470
2026-01-08 23:22:39.36	76.77	36.73	-28.4	-30.2	14.2	0.00e+00	0	43	0	930086912	17	4416
2026-01-08 23:22:40.36	77.17	36.80	-28.6	-30.7	14.0	3.00e-06	0	43	0	933232640	17	4571
2026-01-08 23:22:41.37	77.58	36.88	-28.7	-30.8	13.9	5.30e-06	0	43	0	936378368	17	4612
2026-01-08 23:22:42.38	77.98	36.95	-28.7	-30.8	13.9	2.20e-06	0	43	0	939524096	17	4601
2026-01-08 23:22:43.39	78.39	37.02	-28.6	-30.7	14.0	1.50e-06	0	43	0	942669824	17	4554
2026-01-08 23:22:44.40	78.80	37.09	-28.8	-31.2	13.7	3.80e-06	0	43	0	945815552	17	4705
2026-01-08 23:22:45.41	79.22	37.16	-29.0	-31.2	13.4	1.52e-05	0	43	0	948961280	18	4602
2026-01-08 23:22:46.41	79.62	37.23	-28.9	-30.9	13.6	1.14e-05	0	43	0	952107008	18	4528
2026-01-08 23:22:47.42	80.04	37.30	-28.9	-30.9	13.6	7.60e-06	0	43	0	955252736	18	4509
2026-01-08 23:22:48.43	80.46	37.36	-29.0	-31.1	13.5	1.60e-05	0	43	0	958398464	18	4565
2026-01-08 23:22:49.43	80.87	37.43	-29.1	-31.2	13.3	1.52e-05	0	43	0	961544192	18	4623
2026-01-08 23:22:50.44	81.29	37.49	-29.2	-31.5	13.3	2.21e-05	0	43	0	964689920	18	4696
2026-01-08 23:22:51.44	81.71	37.55	-29.1	-31.3	13.3	1.60e-05	0	43	0	967835648	18	4650
2026-01-08 23:22:52.45	82.13	37.61	-29.3	-31.8	13.0	3.43e-05	0	43	0	970981376	18	4808
2026-01-08 23:22:53.45	82.55	37.66	-29.4	-32.0	13.0	4.65e-05	0	43	0	974127104	18	4866
2026-01-08 23:22:54.45	82.97	37.72	-29.1	-31.4	13.3	3.35e-05	0	43	0	977272832	18	4672
2026-01-08 23:22:55.45	83.40	37.77	-29.0	-31.0	13.5	1.14e-05	0	43	0	980418560	18	4547
2026-01-08 23:22:56.46	83.83	37.82	-28.9	-30.8	13.6	3.80e-06	0	43	0	983564288	18	4490
2026-01-08 23:22:57.47	84.26	37.87	-28.9	-30.9	13.6	9.90e-06	0	43	0	986710016	18	4506
2026-01-08 23:22:58.48	84.69	37.92	-28.8	-30.5	13.8	5.30e-06	0	43	0	989855744	18	4400
2026-01-08 23:22:59.48	85.12	37.97	-28.8	-30.5	13.9	6.10e-06	0	43	0	993001472	18	4388
2026-01-08 23:23:00.49	85.55	38.01	-28.7	-30.2	14.0	3.80e-06	0	43	0	996147200	18	4305
2026-01-08 23:23:01.50	85.99	38.06	-28.8	-30.5	13.9	1.50e-06	0	43	0	999292928	18	4388
2026-01-08 23:23:02.51	86.42	38.10	-28.8	-30.5	13.9	3.80e-06	0	43	0	1002438656	18	4381
2026-01-08 23:23:03.51	86.86	38.14	-28.8	-30.5	13.9	3.80e-06	0	43	0	1005584384	18	4397
2026-01-08 23:23:04.52	87.30	38.18	-28.9	-30.7	13.7	9.10e-06	0	43	0	1008730112	18	4460
2026-01-08 23:23:05.53	87.73	38.21	-28.9	-30.9	13.6	1.98e-05	0	43	0	1011875840	18	4500
2026-01-08 23:23:06.54	88.18	38.25	-28.8	-30.6	13.8	4.50e-06	0	43	0	1015021568	18	4408
2026-01-08 23:23:07.55	88.62	38.28	-28.6	-30.2	14.0	3.00e-06	0	43	0	1018167296	18	4295
2026-01-08 23:23:08.55	89.05	38.31	-28.5	-29.9	14.2	0.00e+00	0	43	0	1021313024	18	4216
2026-01-08 23:23:09.55	89.49	38.34	-28.6	-30.1	14.1	1.50e-06	0	43	0	1024458752	18	4270
2026-01-08 23:23:10.56	89.94	38.37	-28.5	-29.9	14.2	2.20e-06	0	43	0	1027604480	18	4202
2026-01-08 23:23:11.56	90.38	38.39	-28.2	-29.8	14.5	7.62e-05	0	43	0	1030750208	17	4284
2026-01-08 23:23:12.57	90.82	38.42	-28.3	-29.8	14.5	6.79e-05	0	43	0	1033895936	17	4309
2026-01-08 23:23:13.58	91.27	38.44	-28.2	-29.7	14.6	7.00e-07	0	43	0	1037041664	17	4265
2026-01-08 23:23:14.57	91.71	38.46	-28.2	-29.7	14.6	0.00e+00	0	43	0	1040187392	17	4256
2026-01-08 23:23:15.58	92.15	38.47	-28.2	-29.7	14.6	0.00e+00	0	43	0	1043333120	17	4262
2026-01-08 23:23:16.57	92.59	38.49	-28.5	-30.4	14.2	0.00e+00	0	43	0	1046478848	17	4461
2026-01-08 23:23:17.57	93.04	38.50	-28.7	-30.8	14.0	5.30e-06	0	43	0	1049624576	17	4589
2026-01-08 23:23:18.58	93.48	38.52	-28.9	-31.3	13.6	2.20e-06	0	43	0	1052770304	17	4758
2026-01-08 23:23:19.59	93.93	38.53	-29.1	-31.2	13.4	1.52e-05	0	43	0	1055916032	18	4613
2026-01-08 23:23:20.59	94.38	38.53	-29.0	-31.0	13.6	1.14e-05	0	43	0	1059061760	18	4544
2026-01-08 23:23:21.59	94.82	38.54	-29.1	-31.4	13.4	1.37e-05	0	43	0	1062207488	18	4666
2026-01-08 23:23:22.60	95.27	38.54	-29.2	-31.7	13.1	2.74e-05	0	43	0	1065353216	18	4757
2026-01-08 23:23:23.61	95.72	38.55	-29.3	-31.7	13.1	2.36e-05	0	43	0	1068498944	18	4766
2026-01-08 23:23:24.62	96.17	38.55	-29.1	-31.4	13.3	1.52e-05	0	43	0	1071644672	18	4653
2026-01-08 23:23:25.62	96.61	38.55	-29.0	-30.9	13.6	1.29e-05	0	43	0	1074790400	18	4527
2026-01-08 23:23:26.63	97.06	38.54	-29.0	-30.9	13.6	5.30e-06	0	43	0	1077936128	18	4524
2026-01-08 23:23:27.64	97.51	38.54	-28.9	-30.9	13.7	6.80e-06	0	43	0	1081081856	18	4497
2026-01-08 23:23:28.64	97.96	38.53	-28.9	-30.8	13.7	6.10e-06	0	43	0	1084227584	18	4494
2026-01-08 23:23:29.65	98.41	38.52	-28.7	-30.4	13.9	3.80e-06	0	43	0	1087373312	18	4355
2026-01-08 23:23:30.66	98.85	38.51	-28.8	-30.7	13.8	4.50e-06	0	43	0	1090519040	18	4447
2026-01-08 23:23:31.67	99.30	38.50	-28.7	-30.4	13.9	6.10e-06	0	43	0	1093664768	18	4365
2026-01-08 23:23:32.67	99.75	38.48	-28.9	-30.9	13.6	4.50e-06	0	43	0	1096810496	18	4502
2026-01-08 23:23:33.68	100.19	38.47	-29.0	-31.1	13.5	1.67e-05	0	43	0	1099956224	18	4577
2026-01-08 23:23:34.68	100.64	38.45	-29.1	-31.3	13.4	1.44e-05	0	43	0	1103101952	18	4635
2026-01-08 23:23:35.69	101.08	38.43	-29.0	-31.1	13.5	9.90e-06	0	43	0	1106247680	18	4570
2026-01-08 23:23:36.70	101.53	38.40	-28.9	-30.8	13.7	6.80e-06	0	43	0	1109393408	18	4490
2026-01-08 23:23:37.71	101.97	38.38	-28.7	-30.4	14.0	2.20e-06	0	43	0	1112539136	18	4348
2026-01-08 23:23:38.71	102.41	38.35	-28.6	-30.0	14.1	2.20e-06	0	43	0	1115684864	18	4247
2026-01-08 23:23:39.72	102.86	38.32	-28.8	-30.6	13.8	2.20e-06	0	43	0	1118830592	18	4415
2026-01-08 23:23:40.73	103.30	38.29	-28.8	-30.5	13.9	2.20e-06	0	43	0	1121976320	18	4382
2026-01-08 23:23:41.74	103.74	38.26	-28.6	-30.1	14.1	7.00e-07	0	43	0	1125122048	18	4266
2026-01-08 23:23:42.75	104.18	38.23	-28.8	-30.5	13.9	1.50e-06	0	43	0	1128267776	18	4394
2026-01-08 23:23:43.75	104.62	38.19	-28.7	-30.2	14.0	2.20e-06	0	43	0	1131413504	18	4314
2026-01-08 23:23:44.76	105.06	38.16	-28.6	-30.0	14.1	1.50e-06	0	43	0	1134559232	18	4260
2026-01-08 23:23:45.77	105.50	38.12	-28.7	-30.2	14.0	5.30e-06	0	43	0	1137704960	18	4306
2026-01-08 23:23:46.77	105.93	38.08	-28.8	-30.6	13.8	4.50e-06	0	43	0	1140850688	18	4431
2026-01-08 23:23:47.78	106.37	38.03	-29.0	-31.1	13.4	1.06e-05	0	43	0	1143996416	18	4578
2026-01-08 23:23:48.79	106.80	37.99	-29.1	-31.2	13.5	2.13e-05	0	43	0	1147142144	18	4598
2026-01-08 23:23:49.79	107.23	37.94	-29.0	-31.1	13.4	1.29e-05	0	43	0	1150287872	18	4581
2026-01-08 23:23:50.80	107.67	37.90	-29.4	-32.1	12.8	5.49e-05	0	43	0	1153433600	18	4906
2026-01-08 23:23:51.81	108.10	37.85	-29.5	-31.8	12.7	7.55e-05	0	43	0	1156579328	19	4698
2026-01-08 23:23:52.81	108.52	37.79	-29.2	-31.1	13.2	3.89e-05	0	43	0	1159725056	19	4466
2026-01-08 23:23:53.82	108.95	37.74	-28.9	-30.3	13.7	7.60e-06	0	43	0	1162870784	19	4223
2026-01-08 23:23:54.83	109.38	37.69	-28.8	-30.5	13.8	7.60e-06	0	43	0	1166016512	18	4397
2026-01-08 23:23:55.83	109.80	37.63	-28.7	-30.3	13.9	4.50e-06	0	43	0	1169162240	18	4343
2026-01-08 23:23:56.84	110.23	37.57	-28.5	-29.9	14.2	0.00e+00	0	43	0	1172307968	18	4230
2026-01-08 23:23:57.84	110.65	37.51	-28.7	-30.2	14.0	3.00e-06	0	43	0	1175453696	18	4321
2026-01-08 23:23:58.84	111.06	37.45	-28.8	-30.6	13.7	5.30e-06	0	43	0	1178599424	18	4419
2026-01-08 23:23:59.85	111.48	37.39	-28.7	-30.2	14.0	4.50e-06	0	43	0	1181745152	18	4313
2026-01-08 23:24:00.85	111.90	37.33	-28.6	-30.2	13.9	1.50e-06	0	43	0	1184890880	18	4305
2026-01-08 23:24:01.86	112.31	37.26	-28.8	-30.5	13.8	4.50e-06	0	43	0	1188036608	18	4397
2026-01-08 23:24:02.86	112.73	37.19	-28.6	-30.1	14.0	3.00e-06	0	43	0	1191182336	18	4276
2026-01-08 23:24:03.86	113.13	37.12	-28.5	-29.8	14.2	2.20e-06	0	43	0	1194328064	18	4199
2026-01-08 23:24:04.87	113.55	37.05	-28.7	-30.3	13.9	1.50e-06	0	43	0	1197473792	18	4337
2026-01-08 23:24:05.88	113.96	36.98	-28.8	-30.6	13.7	9.90e-06	0	43	0	1200619520	18	4426
2026-01-08 23:24:06.88	114.36	36.91	-29.1	-31.3	13.3	9.90e-06	0	43	0	1203765248	18	4653
2026-01-08 23:24:07.88	114.76	36.84	-29.2	-31.5	13.1	3.50e-05	0	43	0	1206910976	18	4722
2026-01-08 23:24:08.88	115.16	36.76	-29.0	-31.2	13.3	2.51e-05	0	43	0	1210056704	18	4602
2026-01-08 23:24:09.88	115.56	36.68	-28.6	-30.2	13.9	3.80e-06	0	43	0	1213202432	18	4294
2026-01-08 23:24:10.89	115.96	36.60	-28.6	-30.1	14.0	3.00e-06	0	43	0	1216348160	18	4269
2026-01-08 23:24:11.89	116.36	36.52	-29.0	-31.2	13.4	8.30e-06	0	43	0	1219493888	18	4607
2026-01-08 23:24:12.89	116.75	36.44	-28.6	-30.2	13.9	2.20e-06	0	43	0	1222639616	18	4306
2026-01-08 23:24:13.90	117.15	36.36	-28.1	-29.6	14.5	0.00e+00	0	43	0	1225785344	17	4236
2026-01-08 23:24:14.90	117.54	36.28	-27.8	-28.7	15.0	0.00e+00	0	43	0	1228931072	17	4005
2026-01-08 23:24:15.90	117.92	36.19	-27.8	-29.3	14.9	7.00e-07	0	43	0	1232076800	16	4274
2026-01-08 23:24:16.91	118.31	36.11	-28.0	-29.8	14.7	0.00e+00	0	43	0	1235222528	16	4400
2026-01-08 23:24:17.92	118.70	36.02	-27.9	-29.6	14.8	0.00e+00	0	43	0	1238368256	16	4342
2026-01-08 23:24:18.93	119.08	35.93	-27.7	-28.9	15.2	7.00e-07	0	43	0	1241513984	16	4170
2026-01-08 23:24:19.93	119.46	35.84	-27.6	-28.7	15.3	0.00e+00	0	43	0	1244659712	16	4104
2026-01-08 23:24:20.94	119.84	35.75	-27.8	-29.4	14.9	0.00e+00	0	43	0	1247805440	16	4293
2026-01-08 23:24:21.95	120.22	35.66	-27.9	-29.5	14.8	0.00e+00	0	43	0	1250951168	16	4343
2026-01-08 23:24:22.96	120.60	35.56	-28.2	-30.2	14.4	0.00e+00	0	43	0	1254096896	16	4529
2026-01-08 23:24:23.96	120.97	35.47	-28.2	-30.1	14.5	0.00e+00	0	43	0	1257242624	16	4509
2026-01-08 23:24:24.97	121.34	35.37	-28.2	-30.2	14.5	7.00e-07	0	43	0	1260388352	16	4527
2026-01-08 23:24:25.97	121.71	35.28	-28.1	-30.0	14.5	0.00e+00	0	43	0	1263534080	16	4463
2026-01-08 23:24:26.98	122.08	35.18	-28.2	-30.2	14.4	7.00e-07	0	43	0	1266679808	16	4546
2026-01-08 23:24:27.99	122.44	35.08	-27.9	-29.5	14.8	7.00e-07	0	43	0	1269825536	16	4339
2026-01-08 23:24:29.00	122.81	34.98	-27.7	-29.0	15.2	0.00e+00	0	43	0	1272971264	16	4177
2026-01-08 23:24:30.00	123.17	34.88	-27.8	-29.3	14.9	0.00e+00	0	43	0	1276116992	16	4283
2026-01-08 23:24:31.00	123.52	34.78	-27.8	-29.3	15.0	0.00e+00	0	43	0	1279262720	16	4259
2026-01-08 23:24:32.01	123.88	34.68	-27.7	-29.1	15.1	6.10e-06	0	43	0	1282408448	16	4211
2026-01-08 23:24:33.02	124.23	34.58	-27.6	-28.9	15.2	0.00e+00	0	43	0	1285554176	16	4163
2026-01-08 23:24:34.03	124.59	34.47	-27.6	-28.8	15.3	0.00e+00	0	43	0	1288699904	16	4135
2026-01-08 23:24:35.04	124.94	34.37	-27.9	-29.4	14.9	0.00e+00	0	43	0	1291845632	16	4295
2026-01-08 23:24:36.04	125.28	34.26	-27.7	-29.1	15.1	0.00e+00	0	43	0	1294991360	16	4218
2026-01-08 23:24:37.05	125.63	34.16	-27.9	-29.5	14.8	3.80e-06	0	43	0	1298137088	16	4337
2026-01-08 23:24:38.05	125.97	34.05	-27.7	-29.0	15.1	0.00e+00	0	43	0	1301282816	16	4195
2026-01-08 23:24:39.05	126.31	33.94	-27.7	-29.1	15.1	0.00e+00	0	43	0	1304428544	16	4205
2026-01-08 23:24:40.06	126.65	33.83	-27.5	-28.5	15.4	1.50e-06	0	43	0	1307574272	16	4062
2026-01-08 23:24:41.07	126.98	33.72	-27.7	-28.9	15.1	0.00e+00	0	43	0	1310720000	16	4174
2026-01-08 23:24:42.08	127.32	33.61	-27.9	-29.6	14.8	0.00e+00	0	43	0	1313865728	16	4342
2026-01-08 23:24:43.09	127.65	33.50	-28.2	-30.3	14.3	0.00e+00	0	43	0	1317011456	16	4568
2026-01-08 23:24:44.09	127.98	33.39	-28.0	-29.6	14.7	0.00e+00	0	43	0	1320157184	16	4370
2026-01-08 23:24:45.09	128.31	33.28	-27.7	-29.1	15.1	0.00e+00	0	43	0	1323302912	16	4208
2026-01-08 23:24:46.10	128.63	33.17	-27.6	-28.8	15.2	6.10e-06	0	43	0	1326448640	16	4124
2026-01-08 23:24:47.11	128.96	33.06	-27.7	-29.0	15.1	7.00e-07	0	43	0	1329594368	16	4187
2026-01-08 23:24:48.12	129.28	32.94	-27.6	-28.8	15.2	0.00e+00	0	43	0	1332740096	16	4132
2026-01-08 23:24:49.12	129.59	32.83	-27.6	-28.8	15.2	0.00e+00	0	43	0	1335885824	16	4147
2026-01-08 23:24:50.13	129.91	32.71	-27.5	-28.6	15.3	0.00e+00	0	43	0	1339031552	16	4093
2026-01-08 23:24:51.14	130.23	32.60	-27.3	-28.1	15.6	0.00e+00	0	43	0	1342177280	16	3962
2026-01-08 23:24:52.15	130.54	32.48	-27.1	-28.3	15.6	0.00e+00	0	43	0	1345323008	15	4112
2026-01-08 23:24:53.15	130.85	32.37	-27.2	-28.5	15.5	0.00e+00	0	43	0	1348468736	15	4166
2026-01-08 23:24:54.15	131.15	32.25	-27.1	-28.3	15.6	0.00e+00	0	43	0	1351614464	15	4118
2026-01-08 23:24:55.15	131.46	32.14	-27.1	-28.3	15.6	0.00e+00	0	43	0	1354760192	15	4125
2026-01-08 23:24:56.16	131.76	32.02	-27.2	-28.3	15.6	0.00e+00	0	43	0	1357905920	15	4129
2026-01-08 23:24:57.17	132.06	31.90	-27.1	-28.2	15.6	0.00e+00	0	43	0	1361051648	15	4093
2026-01-08 23:24:58.17	132.36	31.78	-27.2	-28.5	15.5	0.00e+00	0	43	0	1364197376	15	4171
2026-01-08 23:24:59.18	132.66	31.66	-27.3	-28.7	15.4	7.00e-07	0	43	0	1367343104	15	4221
2026-01-08 23:25:00.19	132.95	31.54	-27.5	-29.3	15.0	7.00e-07	0	43	0	1370488832	15	4405
2026-01-08 23:25:01.19	133.25	31.43	-27.4	-29.0	15.2	0.00e+00	0	43	0	1373634560	15	4329
2026-01-08 23:25:02.19	133.53	31.31	-27.4	-29.0	15.2	0.00e+00	0	43	0	1376780288	15	4311
2026-01-08 23:25:03.20	133.82	31.19	-27.4	-29.0	15.2	0.00e+00	0	43	0	1379926016	15	4314
2026-01-08 23:25:04.21	134.11	31.07	-27.5	-29.3	15.0	1.50e-06	0	43	0	1383071744	15	4394
2026-01-08 23:25:05.22	134.40	30.95	-27.7	-29.6	14.8	1.06e-04	0	43	0	1386217472	15	4484
2026-01-08 23:25:06.23	134.68	30.83	-27.8	-29.9	14.6	7.00e-07	0	43	0	1389363200	15	4578
2026-01-08 23:25:07.24	134.96	30.70	-27.7	-29.7	14.8	0.00e+00	0	43	0	1392508928	15	4505
2026-01-08 23:25:08.24	135.24	30.58	-27.7	-29.8	14.7	0.00e+00	0	43	0	1395654656	15	4540
2026-01-08 23:25:09.24	135.51	30.46	-27.7	-29.6	14.8	1.50e-06	0	43	0	1398800384	15	4483
2026-01-08 23:25:10.25	135.79	30.34	-27.6	-29.4	14.9	7.00e-07	0	43	0	1401946112	15	4440
2026-01-08 23:25:11.26	136.06	30.22	-27.7	-29.6	14.8	7.00e-07	0	43	0	1405091840	15	4497
2026-01-08 23:25:12.27	136.33	30.10	-27.7	-29.6	14.8	7.00e-07	0	43	0	1408237568	15	4486
2026-01-08 23:25:13.27	136.60	29.98	-27.7	-29.6	14.7	0.00e+00	0	43	0	1411383296	15	4501
2026-01-08 23:25:14.28	136.86	29.85	-27.6	-29.5	14.8	0.00e+00	0	43	0	1414529024	15	4473
2026-01-08 23:25:15.28	137.13	29.73	-27.5	-29.3	15.0	0.00e+00	0	43	0	1417674752	15	4395
2026-01-08 23:25:16.29	137.39	29.61	-27.6	-29.4	14.9	7.00e-07	0	43	0	1420820480	15	4436
2026-01-08 23:25:17.29	137.65	29.49	-27.5	-29.2	15.0	0.00e+00	0	43	0	1423966208	15	4369
2026-01-08 23:25:18.29	137.91	29.37	-27.4	-29.0	15.2	0.00e+00	0	43	0	1427111936	15	4310
2026-01-08 23:25:19.30	138.16	29.24	-27.4	-29.0	15.1	0.00e+00	0	43	0	1430257664	15	4321
2026-01-08 23:25:20.30	138.42	29.12	-27.5	-29.2	15.0	0.00e+00	0	43	0	1433403392	15	4360
2026-01-08 23:25:21.31	138.67	29.00	-27.4	-29.0	15.1	0.00e+00	0	43	0	1436549120	15	4318
2026-01-08 23:25:22.31	138.92	28.88	-27.5	-29.1	15.1	0.00e+00	0	43	0	1439694848	15	4338
2026-01-08 23:25:23.32	139.17	28.75	-27.4	-29.0	15.1	0.00e+00	0	43	0	1442840576	15	4329
2026-01-08 23:25:24.32	139.41	28.63	-27.2	-28.5	15.4	0.00e+00	0	43	0	1445986304	15	4177
2026-01-08 23:25:25.32	139.66	28.51	-27.3	-28.6	15.3	0.00e+00	0	43	0	1449132032	15	4211
2026-01-08 23:25:26.33	139.90	28.38	-27.3	-28.8	15.2	0.00e+00	0	43	0	1452277760	15	4266
2026-01-08 23:25:27.34	140.14	28.26	-27.2	-28.4	15.4	0.00e+00	0	43	0	1455423488	15	4167
2026-01-08 23:25:28.35	140.38	28.14	-27.0	-27.9	15.7	0.00e+00	0	43	0	1458569216	15	4029
2026-01-08 23:25:29.36	140.62	28.01	-26.7	-27.8	16.0	0.00e+00	0	43	0	1461714944	14	4108
2026-01-08 23:25:30.36	140.86	27.89	-26.6	-28.1	16.1	0.00e+00	0	43	0	1464860672	13	4294
2026-01-08 23:25:31.36	141.09	27.77	-26.7	-28.3	16.0	0.00e+00	0	43	0	1468006400	13	4349
2026-01-08 23:25:32.38	141.33	27.65	-26.7	-28.3	15.9	0.00e+00	0	43	0	1471152128	13	4354
2026-01-08 23:25:33.38	141.56	27.52	-26.8	-28.5	15.8	0.00e+00	0	43	0	1474297856	13	4408
2026-01-08 23:25:34.39	141.79	27.40	-26.8	-28.5	15.9	0.00e+00	0	43	0	1477443584	13	4407
2026-01-08 23:25:35.38	142.01	27.28	-26.7	-28.4	15.9	0.00e+00	0	43	0	1480589312	13	4363
2026-01-08 23:25:36.39	142.24	27.16	-26.7	-28.4	15.9	0.00e+00	0	43	0	1483735040	13	4366
2026-01-08 23:25:37.40	142.46	27.03	-26.7	-28.3	15.9	0.00e+00	0	43	0	1486880768	13	4357
2026-01-08 23:25:38.41	142.68	26.91	-26.5	-28.0	16.1	0.00e+00	0	43	0	1490026496	13	4259
2026-01-08 23:25:39.41	142.90	26.79	-26.5	-27.9	16.2	0.00e+00	0	43	0	1493172224	13	4240
2026-01-08 23:25:40.41	143.12	26.67	-26.5	-28.0	16.1	0.00e+00	0	43	0	1496317952	13	4272
2026-01-08 23:25:41.41	143.34	26.55	-26.5	-28.0	16.1	0.00e+00	0	43	0	1499463680	13	4257
2026-01-08 23:25:42.42	143.55	26.43	-26.5	-28.0	16.1	0.00e+00	0	43	0	1502609408	13	4254
2026-01-08 23:25:43.42	143.77	26.30	-26.6	-28.1	16.0	0.00e+00	0	43	0	1505755136	13	4299
2026-01-08 23:25:44.43	143.98	26.18	-26.5	-28.0	16.1	0.00e+00	0	43	0	1508900864	13	4275
2026-01-08 23:25:45.44	144.19	26.06	-26.6	-28.2	16.0	0.00e+00	0	43	0	1510998016	13	4308
2026-01-08 23:25:46.44	144.40	25.94	-26.6	-28.1	16.0	0.00e+00	0	43	0	1515192320	13	4289
2026-01-08 23:25:47.45	144.61	25.82	-26.5	-28.0	16.1	0.00e+00	0	43	0	1518338048	13	4271
2026-01-08 23:25:48.46	144.82	25.70	-26.5	-28.0	16.1	7.00e-07	0	43	0	1521483776	13	4263
2026-01-08 23:25:49.45	145.02	25.58	-26.5	-27.8	16.1	0.00e+00	0	43	0	1524629504	13	4227
2026-01-08 23:25:50.46	145.22	25.46	-26.5	-27.9	16.1	0.00e+00	0	43	0	1527775232	13	4228
2026-01-08 23:25:51.46	145.42	25.34	-26.5	-28.0	16.1	2.20e-06	0	43	0	1530920960	13	4253
2026-01-08 23:25:52.47	145.62	25.22	-26.6	-28.2	15.9	0.00e+00	0	43	0	1534066688	13	4324
2026-01-08 23:25:53.47	145.82	25.10	-26.7	-28.4	15.8	0.00e+00	0	43	0	1536163840	13	4368
2026-01-08 23:25:54.48	146.02	24.98	-26.7	-28.5	15.7	0.00e+00	0	43	0	1539309568	13	4409
2026-01-08 23:25:55.49	146.22	24.86	-26.7	-28.5	15.8	0.00e+00	0	43	0	1542455296	13	4398
2026-01-08 23:25:56.49	146.41	24.74	-26.8	-28.7	15.6	0.00e+00	0	43	0	1546649600	13	4456
2026-01-08 23:25:57.50	146.60	24.62	-26.8	-28.7	15.6	6.10e-06	0	43	0	1549795328	13	4474
2026-01-08 23:25:58.50	146.79	24.50	-26.7	-28.4	15.8	0.00e+00	0	43	0	1552941056	13	4370
2026-01-08 23:25:59.51	146.99	24.38	-26.6	-28.3	15.9	0.00e+00	0	43	0	1556086784	13	4340
2026-01-08 23:26:00.52	147.17	24.26	-26.6	-28.1	16.0	3.80e-06	0	43	0	1558183936	13	4290
2026-01-08 23:26:01.53	147.36	24.14	-26.6	-28.1	15.9	0.00e+00	0	43	0	1561329664	13	4289
2026-01-08 23:26:02.53	147.55	24.02	-26.8	-28.7	15.6	0.00e+00	0	43	0	1564475392	13	4455
2026-01-08 23:26:03.54	147.73	23.91	-26.9	-28.4	15.5	0.00e+00	0	43	0	1567621120	14	4276
2026-01-08 23:26:04.54	147.92	23.79	-26.8	-28.7	15.6	3.61e-03	0	43	0	1571815424	13	4447
2026-01-08 23:26:05.55	148.10	23.67	-26.9	-28.9	15.5	3.54e-03	0	43	0	1574961152	13	4527
2026-01-08 23:26:06.55	148.28	23.55	-26.9	-28.8	15.6	8.30e-06	0	43	0	1578106880	13	4499
2026-01-08 23:26:07.56	148.46	23.44	-26.8	-28.6	15.6	0.00e+00	0	43	0	1581252608	13	4450
2026-01-08 23:26:08.57	148.64	23.32	-26.9	-28.8	15.6	3.12e-03	0	43	0	1583349760	13	4502
2026-01-08 23:26:09.56	148.81	23.20	-27.1	-28.8	15.3	0.00e+00	0	43	0	1586495488	14	4382
2026-01-08 23:26:10.57	148.99	23.09	-27.2	-29.0	15.2	3.29e-03	0	43	0	1589641216	14	4455
2026-01-08 23:26:11.58	149.16	22.97	-27.3	-29.2	15.0	0.00e+00	0	43	0	1592786944	14	4515
2026-01-08 23:26:12.59	149.34	22.86	-27.3	-29.4	14.9	0.00e+00	0	43	0	1595932672	14	4555
2026-01-08 23:26:13.60	149.51	22.74	-27.2	-29.2	15.1	4.01e-03	0	43	0	1600126976	14	4497
2026-01-08 23:26:14.61	149.68	22.62	-27.3	-29.2	15.0	3.81e-03	0	43	0	1603272704	14	4502
2026-01-08 23:26:15.62	149.85	22.51	-27.2	-29.0	15.1	0.00e+00	0	43	0	1605369856	14	4452
2026-01-08 23:26:16.62	150.02	22.39	-27.1	-28.9	15.2	3.87e-03	0	43	0	1608515584	14	4424
2026-01-08 23:26:17.63	150.18	22.28	-27.3	-29.3	15.0	3.60e-03	0	43	0	1611661312	14	4529
2026-01-08 23:26:18.63	150.35	22.17	-27.3	-29.3	15.0	0.00e+00	0	43	0	1614807040	14	4540
2026-01-08 23:26:19.64	150.51	22.05	-27.2	-29.1	15.1	3.52e-03	0	43	0	1619001344	14	4483
2026-01-08 23:26:20.65	150.68	21.94	-27.2	-29.2	15.0	3.88e-03	0	43	0	1622147072	14	4500
2026-01-08 23:26:21.65	150.84	21.82	-27.2	-29.1	15.1	0.00e+00	0	43	0	1625292800	14	4462
2026-01-08 23:26:22.65	151.00	21.71	-27.2	-29.0	15.1	3.62e-03	0	43	0	1628438528	14	4454
2026-01-08 23:26:23.66	151.16	21.60	-27.2	-29.2	15.0	0.00e+00	0	43	0	1630535680	14	4490
2026-01-08 23:26:24.67	151.32	21.49	-27.3	-29.3	14.9	0.00e+00	0	43	0	1633681408	14	4530
2026-01-08 23:26:25.68	151.48	21.37	-27.2	-29.1	15.0	3.51e-03	0	43	0	1636827136	14	4460
2026-01-08 23:26:26.68	151.63	21.26	-27.2	-28.9	15.1	3.37e-03	0	43	0	1639972864	14	4425
2026-01-08 23:26:27.69	151.79	21.15	-27.2	-29.0	15.1	0.00e+00	0	43	0	1643118592	14	4433
2026-01-08 23:26:28.69	151.94	21.04	-27.3	-29.2	15.0	0.00e+00	0	43	0	1647312896	14	4497
2026-01-08 23:26:29.70	152.10	20.93	-27.3	-29.2	15.0	0.00e+00	0	43	0	1650458624	14	4510
2026-01-08 23:26:30.71	152.25	20.82	-27.5	-29.3	14.6	0.00e+00	0	43	0	1653604352	15	4431
2026-01-08 23:26:31.72	152.40	20.71	-27.4	-29.1	14.7	3.79e-03	0	43	0	1655701504	15	4371
2026-01-08 23:26:32.73	152.55	20.59	-27.2	-29.1	15.0	0.00e+00	0	43	0	1658847232	14	4472
2026-01-08 23:26:33.74	152.70	20.48	-27.1	-28.8	15.2	7.00e-07	0	43	0	1663041536	14	4391
2026-01-08 23:26:34.75	152.85	20.37	-27.1	-28.9	15.1	0.00e+00	0	43	0	1666187264	14	4404
2026-01-08 23:26:35.75	153.00	20.27	-27.1	-29.0	15.1	0.00e+00	0	43	0	1669332992	14	4436
2026-01-08 23:26:36.75	153.14	20.16	-27.1	-28.8	15.2	0.00e+00	0	43	0	1672478720	14	4383
2026-01-08 23:26:37.76	153.29	20.05	-27.0	-28.7	15.2	0.00e+00	0	43	0	1675624448	14	4359
2026-01-08 23:26:38.77	153.43	19.94	-27.0	-28.7	15.2	0.00e+00	0	43	0	1677721600	14	4375
2026-01-08 23:26:39.78	153.58	19.83	-27.2	-29.1	14.9	0.00e+00	0	43	0	1680867328	14	4489
2026-01-08 23:26:40.78	153.72	19.72	-27.1	-28.9	15.1	0.00e+00	0	43	0	1684013056	14	4423
2026-01-08 23:26:41.78	153.86	19.62	-27.0	-28.7	15.2	0.00e+00	0	43	0	1687158784	14	4354
2026-01-08 23:26:42.79	154.00	19.51	-27.0	-28.6	15.2	0.00e+00	0	43	0	1690304512	14	4345
2026-01-08 23:26:43.79	154.14	19.40	-27.0	-28.7	15.1	0.00e+00	0	43	0	1694498816	14	4371
2026-01-08 23:26:44.80	154.28	19.29	-26.9	-28.4	15.3	0.00e+00	0	43	0	1697644544	14	4296
2026-01-08 23:26:45.80	154.41	19.19	-27.0	-28.6	15.2	0.00e+00	0	43	0	1700790272	14	4351
2026-01-08 23:26:46.80	154.55	19.08	-26.9	-28.4	15.3	0.00e+00	0	43	0	1702887424	14	4287
2026-01-08 23:26:47.81	154.68	18.98	-26.9	-28.9	15.3	0.00e+00	0	43	0	1706033152	13	4533
2026-01-08 23:26:48.82	154.82	18.87	-26.9	-29.0	15.2	0.00e+00	0	43	0	1709178880	13	4565
2026-01-08 23:26:49.82	154.95	18.77	-26.9	-29.0	15.2	0.00e+00	0	43	0	1712324608	13	4569
2026-01-08 23:26:50.83	155.08	18.66	-27.0	-29.1	15.1	0.00e+00	0	43	0	1715470336	13	4620
2026-01-08 23:26:51.84	155.22	18.56	-27.0	-28.7	15.1	0.00e+00	0	43	0	1718616064	14	4390
2026-01-08 23:26:52.84	155.35	18.45	-27.0	-28.5	15.2	0.00e+00	0	43	0	1721761792	14	4322
2026-01-08 23:26:53.84	155.48	18.35	-27.2	-29.1	14.9	1.29e-05	0	43	0	1724907520	14	4486
2026-01-08 23:26:54.84	155.61	18.25	-27.2	-29.2	14.8	0.00e+00	0	43	0	1728053248	14	4499
2026-01-08 23:26:55.85	155.73	18.14	-27.3	-29.2	14.8	0.00e+00	0	43	0	1731198976	14	4520
2026-01-08 23:26:56.86	155.86	18.04	-27.2	-29.1	14.9	0.00e+00	0	43	0	1734344704	14	4471
2026-01-08 23:26:57.86	155.99	17.94	-27.0	-28.7	15.1	0.00e+00	0	43	0	1737490432	14	4352
2026-01-08 23:26:58.87	156.12	17.83	-26.9	-28.9	15.2	0.00e+00	0	43	0	1740636160	13	4552
2026-01-08 23:26:59.87	156.24	17.73	-26.9	-28.9	15.2	1.29e-05	0	43	0	1743781888	13	4537
2026-01-08 23:27:00.87	156.36	17.63	-26.8	-28.8	15.3	0.00e+00	0	43	0	1746927616	13	4505
2026-01-08 23:27:01.88	156.49	17.53	-27.0	-29.1	15.1	0.00e+00	0	43	0	1750073344	13	4617
2026-01-08 23:27:02.88	156.61	17.43	-27.0	-28.6	15.1	3.00e-06	0	43	0	1753219072	14	4352
2026-01-08 23:27:03.89	156.73	17.33	-27.1	-28.8	15.0	0.00e+00	0	43	0	1756364800	14	4393
2026-01-08 23:27:04.90	156.85	17.23	-27.1	-28.9	14.9	0.00e+00	0	43	0	1759510528	14	4433
2026-01-08 23:27:05.90	156.97	17.13	-27.3	-29.2	14.7	1.06e-05	0	43	0	1762656256	14	4525
2026-01-08 23:27:06.91	157.09	17.03	-27.4	-29.7	14.5	0.00e+00	0	43	0	1765801984	14	4646
2026-01-08 23:27:07.92	157.21	16.92	-27.4	-29.7	14.5	0.00e+00	0	43	0	1768947712	14	4653
2026-01-08 23:27:08.92	157.33	16.83	-27.4	-29.6	14.5	9.10e-06	0	43	0	1772093440	14	4624
2026-01-08 23:27:09.92	157.45	16.73	-27.5	-29.4	14.3	0.00e+00	0	43	0	1775239168	15	4479
2026-01-08 23:27:10.93	157.56	16.63	-27.9	-30.2	13.9	3.80e-06	0	43	0	1778384896	15	4693
2026-01-08 23:27:11.94	157.68	16.53	-27.8	-29.9	14.0	1.83e-05	0	43	0	1781530624	15	4616
2026-01-08 23:27:12.94	157.79	16.43	-28.0	-30.5	13.7	3.00e-06	0	43	0	1784676352	15	4787
2026-01-08 23:27:13.95	157.91	16.33	-27.8	-30.0	14.0	1.50e-06	0	43	0	1787822080	15	4647
2026-01-08 23:27:14.96	158.02	16.23	-27.7	-29.9	14.0	1.44e-05	0	43	0	1790967808	15	4608
2026-01-08 23:27:15.96	158.14	16.14	-27.7	-29.8	14.1	0.00e+00	0	43	0	1794113536	15	4586
2026-01-08 23:27:16.97	158.25	16.04	-27.8	-29.9	14.0	4.50e-06	0	43	0	1797259264	15	4628
2026-01-08 23:27:17.98	158.36	15.94	-27.7	-29.8	14.1	1.50e-06	0	43	0	1800404992	15	4588
2026-01-08 23:27:18.99	158.47	15.85	-27.8	-30.0	13.9	3.80e-06	0	43	0	1803550720	15	4658
2026-01-08 23:27:20.00	158.58	15.75	-27.7	-29.8	14.0	2.34e-03	0	43	0	1806696448	15	4584
2026-01-08 23:27:21.00	158.69	15.65	-27.7	-29.7	14.1	1.83e-05	0	43	0	1809842176	15	4571
2026-01-08 23:27:22.01	158.80	15.56	-27.8	-30.0	14.0	7.00e-07	0	43	0	1812987904	15	4647
2026-01-08 23:27:23.01	158.91	15.46	-27.7	-29.9	14.0	3.00e-06	0	43	0	1816133632	15	4608
2026-01-08 23:27:24.01	159.02	15.37	-27.7	-29.9	14.0	5.30e-06	0	43	0	1819279360	15	4609
2026-01-08 23:27:25.02	159.12	15.27	-27.8	-30.0	13.9	2.83e-03	0	43	0	1822425088	15	4654
2026-01-08 23:27:26.02	159.23	15.18	-27.7	-29.8	14.0	2.20e-06	0	43	0	1825570816	15	4597
2026-01-08 23:27:27.02	159.33	15.08	-27.7	-29.7	14.1	1.14e-05	0	43	0	1828716544	15	4564
2026-01-08 23:27:28.02	159.44	14.99	-27.7	-29.7	14.1	2.20e-06	0	43	0	1831862272	15	4560
2026-01-08 23:27:29.03	159.54	14.90	-27.7	-29.9	13.9	2.17e-04	0	43	0	1835008000	15	4618
2026-01-08 23:27:30.04	159.65	14.80	-27.6	-29.6	14.1	1.50e-06	0	43	0	1838153728	15	4539
2026-01-08 23:27:31.04	159.75	14.71	-27.5	-29.5	14.2	3.16e-03	0	43	0	1841299456	15	4486
2026-01-08 23:27:32.04	159.85	14.62	-27.5	-29.4	14.2	3.67e-03	0	43	0	1844445184	15	4468
2026-01-08 23:27:33.05	159.95	14.52	-27.8	-30.0	13.8	3.80e-06	0	43	0	1847590912	15	4643
2026-01-08 23:27:34.07	160.06	14.43	-27.6	-29.6	14.0	2.50e-04	0	43	0	1850736640	15	4538
2026-01-08 23:27:35.07	160.16	14.34	-27.6	-29.6	14.0	3.98e-03	0	43	0	1853882368	15	4541
2026-01-08 23:27:36.07	160.26	14.25	-27.6	-29.6	14.0	7.00e-07	0	43	0	1857028096	15	4547
2026-01-08 23:27:37.08	160.36	14.15	-27.7	-29.8	13.9	4.01e-03	0	43	0	1860173824	15	4589
2026-01-08 23:27:38.08	160.45	14.06	-27.6	-29.6	14.1	3.80e-06	0	43	0	1863319552	15	4533
2026-01-08 23:27:39.09	160.55	13.97	-27.5	-29.5	14.1	7.00e-07	0	43	0	1866465280	15	4513
2026-01-08 23:27:40.10	160.65	13.88	-27.6	-29.7	13.9	3.69e-03	0	43	0	1869611008	15	4569
2026-01-08 23:27:41.10	160.75	13.79	-27.5	-29.5	14.0	4.06e-03	0	43	0	1872756736	15	4521
2026-01-08 23:27:42.11	160.84	13.70	-27.6	-29.7	13.9	5.30e-06	0	43	0	1875902464	15	4579
2026-01-08 23:27:43.12	160.94	13.61	-27.8	-30.1	13.7	3.44e-03	0	43	0	1879048192	15	4702
2026-01-08 23:27:44.13	161.04	13.52	-27.6	-29.8	13.9	3.85e-03	0	43	0	1882193920	15	4593
2026-01-08 23:27:45.13	161.13	13.43	-27.6	-29.7	13.9	3.00e-06	0	43	0	1885339648	15	4578
2026-01-08 23:27:46.13	161.22	13.34	-27.7	-30.0	13.7	3.78e-03	0	43	0	1888485376	15	4663
2026-01-08 23:27:47.14	161.32	13.25	-27.8	-30.1	13.7	3.57e-03	0	43	0	1891631104	15	4686
2026-01-08 23:27:48.15	161.41	13.16	-27.9	-30.2	13.6	1.06e-05	0	43	0	1894776832	15	4727
2026-01-08 23:27:49.15	161.50	13.07	-27.8	-30.2	13.6	4.50e-06	0	43	0	1897922560	15	4715
2026-01-08 23:27:50.15	161.60	12.99	-27.9	-30.2	13.6	9.10e-06	0	43	0	1901068288	15	4732
2026-01-08 23:27:51.15	161.69	12.90	-28.3	-30.7	13.2	1.98e-05	0	43	0	1904214016	16	4760
2026-01-08 23:27:52.16	161.78	12.81	-28.1	-30.2	13.5	3.65e-03	0	43	0	1907359744	16	4595
2026-01-08 23:27:53.17	161.87	12.72	-28.0	-30.1	13.6	3.29e-03	0	43	0	1910505472	16	4565
2026-01-08 23:27:54.18	161.96	12.64	-28.0	-30.1	13.5	9.90e-06	0	43	0	1913651200	16	4573
2026-01-08 23:27:55.18	162.05	12.55	-27.9	-30.5	13.4	1.37e-05	0	43	0	1916796928	15	4819
2026-01-08 23:27:56.19	162.14	12.46	-28.2	-30.5	13.3	3.47e-03	0	43	0	1919942656	16	4708
2026-01-08 23:27:57.19	162.23	12.38	-28.2	-30.5	13.3	2.21e-05	0	43	0	1923088384	16	4691
2026-01-08 23:27:58.20	162.32	12.29	-28.1	-30.4	13.3	3.02e-03	0	43	0	1926234112	16	4671
2026-01-08 23:27:59.21	162.40	12.20	-28.2	-30.5	13.3	2.13e-05	0	43	0	1929379840	16	4710
2026-01-08 23:28:00.21	162.49	12.12	-28.2	-30.6	13.2	2.82e-05	0	43	0	1932525568	16	4732
2026-01-08 23:28:01.22	162.58	12.03	-28.2	-30.5	13.2	2.36e-05	0	43	0	1935671296	16	4723
2026-01-08 23:28:02.23	162.66	11.95	-28.2	-30.6	13.1	3.28e-05	0	43	0	1938817024	16	4761
2026-01-08 23:28:03.24	162.75	11.86	-28.2	-30.5	13.2	2.13e-05	0	43	0	1941962752	16	4720
2026-01-08 23:28:04.24	162.83	11.78	-28.2	-30.6	13.2	2.28e-05	0	43	0	1945108480	16	4734
2026-01-08 23:28:05.26	162.92	11.69	-28.2	-30.6	13.1	2.28e-05	0	43	0	1948254208	16	4763
2026-01-08 23:28:06.23	163.00	11.61	-28.2	-30.6	13.1	3.50e-05	0	43	0	1951399936	16	4761
2026-01-08 23:28:07.24	163.09	11.52	-28.1	-30.5	13.2	3.28e-05	0	43	0	1954545664	16	4706
2026-01-08 23:28:08.24	163.17	11.44	-28.2	-30.5	13.2	2.28e-05	0	43	0	1957691392	16	4725
2026-01-08 23:28:09.24	163.25	11.36	-28.2	-30.6	13.1	1.52e-05	0	43	0	1960837120	16	4745
2026-01-08 23:28:10.24	163.33	11.27	-28.2	-30.6	13.1	2.89e-05	0	43	0	1963982848	16	4752
2026-01-08 23:28:11.24	163.41	11.19	-28.1	-30.4	13.2	2.51e-05	0	43	0	1967128576	16	4694
2026-01-08 23:28:12.25	163.50	11.11	-28.2	-30.5	13.1	2.21e-05	0	43	0	1970274304	16	4733
2026-01-08 23:28:13.26	163.58	11.03	-28.3	-30.8	13.0	3.35e-05	0	43	0	1973420032	16	4828
2026-01-08 23:28:14.26	163.66	10.94	-28.1	-30.5	13.2	3.50e-05	0	43	0	1976565760	16	4725
2026-01-08 23:28:15.27	163.74	10.86	-28.2	-30.6	13.1	2.67e-05	0	43	0	1979711488	16	4760
2026-01-08 23:28:16.27	163.82	10.78	-28.2	-30.6	13.1	3.20e-05	0	43	0	1982857216	16	4763
2026-01-08 23:28:17.28	163.90	10.70	-28.1	-30.5	13.1	2.89e-05	0	43	0	1986002944	16	4729
2026-01-08 23:28:18.28	163.98	10.62	-28.3	-30.8	12.9	3.20e-05	0	43	0	1989148672	16	4843
2026-01-08 23:28:19.29	164.05	10.53	-28.2	-30.7	13.0	4.04e-05	0	43	0	1992294400	16	4803
2026-01-08 23:28:20.30	164.13	10.45	-28.2	-30.6	13.1	4.04e-05	0	43	0	1995440128	16	4756
2026-01-08 23:28:21.31	164.21	10.37	-28.2	-30.7	13.0	3.96e-05	0	43	0	1998585856	16	4777
2026-01-08 23:28:22.32	164.29	10.29	-28.3	-31.0	12.8	4.11e-05	0	43	0	2001731584	16	4889
2026-01-08 23:28:23.32	164.37	10.21	-28.3	-31.0	12.8	7.01e-05	0	43	0	2004877312	16	4902
2026-01-08 23:28:24.33	164.44	10.13	-28.3	-30.8	12.9	4.42e-05	0	43	0	2008023040	16	4833
2026-01-08 23:28:25.34	164.52	10.05	-28.2	-30.6	13.1	3.35e-05	0	43	0	2011168768	16	4766
2026-01-08 23:28:26.34	164.59	9.97	-28.2	-30.7	13.0	5.56e-05	0	43	0	2014314496	16	4788
2026-01-08 23:28:27.35	164.67	9.89	-28.2	-30.7	13.0	4.11e-05	0	43	0	2017460224	16	4775
2026-01-08 23:28:28.35	164.74	9.81	-28.3	-30.8	12.9	3.96e-05	0	43	0	2020605952	16	4816
2026-01-08 23:28:29.36	164.82	9.73	-28.2	-30.7	13.0	5.49e-05	0	43	0	2023751680	16	4789
2026-01-08 23:28:30.37	164.89	9.65	-28.3	-31.0	12.8	5.87e-05	0	43	0	2026897408	16	4866
2026-01-08 23:28:31.37	164.97	9.57	-28.3	-30.9	12.9	8.01e-05	0	43	0	2030043136	16	4854
2026-01-08 23:28:32.37	165.04	9.50	-28.5	-31.4	12.6	9.23e-05	0	43	0	2033188864	16	5010
2026-01-08 23:28:33.37	165.11	9.42	-28.6	-31.2	12.4	1.47e-04	0	43	0	2036334592	17	4843
2026-01-08 23:28:34.38	165.19	9.34	-28.7	-31.5	12.1	2.73e-04	0	43	0	2039480320	17	4941
2026-01-08 23:28:35.39	165.26	9.26	-28.6	-31.2	12.3	2.02e-04	0	43	0	2042626048	17	4849
2026-01-08 23:28:36.39	165.33	9.18	-28.8	-31.7	11.9	3.26e-04	0	43	0	2045771776	17	5047
2026-01-08 23:28:37.40	165.40	9.11	-28.9	-32.0	11.8	5.51e-04	0	43	0	2048917504	17	5131
2026-01-08 23:28:38.41	165.47	9.03	-28.8	-31.6	12.0	3.24e-04	0	43	0	2052063232	17	4991
2026-01-08 23:28:39.41	165.54	8.95	-29.1	-32.0	11.5	5.65e-04	0	43	0	2055208960	18	5011
2026-01-08 23:28:40.41	165.61	8.88	-29.2	-32.1	11.3	7.06e-04	0	43	0	2058354688	18	5075
2026-01-08 23:28:41.42	165.68	8.80	-29.2	-32.2	11.3	1.03e-03	0	43	0	2061500416	18	5094
2026-01-08 23:28:42.42	165.75	8.72	-28.8	-31.8	11.8	6.52e-04	0	43	0	2064646144	17	5077
2026-01-08 23:28:43.43	165.82	8.65	-28.7	-31.5	12.0	3.42e-04	0	43	0	2067791872	17	4967
2026-01-08 23:28:44.44	165.89	8.57	-28.5	-31.0	12.4	1.89e-04	0	43	0	2070937600	17	4769
2026-01-08 23:28:45.45	165.96	8.49	-28.4	-31.3	12.5	1.79e-03	0	43	0	2074083328	16	4984
2026-01-08 23:28:46.46	166.03	8.42	-28.4	-31.2	12.5	1.11e-04	0	43	0	2077229056	16	4969
2026-01-08 23:28:47.46	166.10	8.34	-28.7	-31.4	12.1	1.75e-04	0	43	0	2080374784	17	4902
2026-01-08 23:28:48.46	166.17	8.27	-28.6	-31.2	12.2	4.16e-04	0	43	0	2083520512	17	4855
2026-01-08 23:28:49.48	166.23	8.19	-28.5	-31.0	12.3	2.23e-03	0	43	0	2086666240	17	4796
2026-01-08 23:28:50.48	166.30	8.12	-28.5	-31.0	12.3	1.74e-04	0	43	0	2089811968	17	4794
2026-01-08 23:28:51.49	166.37	8.04	-28.6	-31.2	12.2	5.35e-03	0	43	0	2092957696	17	4858
2026-01-08 23:28:52.50	166.43	7.97	-28.6	-31.3	12.1	2.98e-04	0	43	0	2096103424	17	4880
2026-01-08 23:28:53.51	166.50	7.89	-28.6	-31.2	12.2	2.36e-04	0	43	0	2099249152	17	4866
2026-01-08 23:28:54.52	166.57	7.82	-28.6	-31.2	12.2	2.55e-03	0	43	0	2102394880	17	4835
2026-01-08 23:28:55.52	166.63	7.74	-28.7	-31.6	11.9	2.58e-03	0	43	0	2105540608	17	4976
2026-01-08 23:28:56.52	166.70	7.67	-28.8	-31.7	11.8	4.92e-04	0	43	0	2108686336	17	5021
2026-01-08 23:28:57.53	166.76	7.60	-28.6	-31.3	12.1	5.84e-03	0	43	0	2111832064	17	4877
2026-01-08 23:28:58.54	166.83	7.52	-28.6	-31.2	12.1	2.43e-04	0	43	0	2114977792	17	4862
2026-01-08 23:28:59.54	166.89	7.45	-28.6	-31.3	12.0	2.77e-04	0	43	0	2118123520	17	4902
2026-01-08 23:29:00.55	166.96	7.38	-28.7	-31.4	12.0	2.38e-03	0	43	0	2121269248	17	4930
2026-01-08 23:29:01.56	167.02	7.30	-28.7	-31.4	12.0	6.25e-03	0	43	0	2124414976	17	4942
2026-01-08 23:29:02.57	167.08	7.23	-28.7	-31.6	11.9	4.53e-04	0	43	0	2127560704	17	4986
2026-01-08 23:29:03.58	167.15	7.16	-28.9	-32.0	11.6	6.64e-03	0	43	0	2130706432	17	5152
2026-01-08 23:29:04.58	167.21	7.09	-32.4	-44.2	3.8	1.49e+00	0	43	104	2132803584	25	14035
2026-01-08 23:29:05.59	167.27	7.01	-32.5	-44.5	3.8	1.49e+00	0	43	104	2132803584	25	14335
2026-01-08 23:29:06.60	167.33	6.94	-33.0	-45.0	3.8	1.49e+00	0	43	104	2132803584	26	14305
2026-01-08 23:29:07.61	167.40	6.87	-33.4	-45.8	3.8	1.49e+00	0	43	104	2132803584	26	15003

#Closed at: 2026-01-08 23:29:08
