passes_logs/2026/01/08/R2M6_AANII_01/R2M6_AANII_01__20260108_000557_SUOMI_NPP_rec.log

#Pass ID: 20260108_000557_SUOMI NPP
#Satellite: SUOMI NPP
#Configuration: NPP
#almurnet v.1.7.20240730
#Start time: 2026-01-08 00:05:57

#Version: 2.2.20231116
#Station: R2M6_AANII_01
#Location: 30.233357 lon 59.946436 lat
#TLE: 1 37849U 11061A   26005.94084933  .00000134  00000+0  84554-4 0  9990
#TLE: 2 37849  98.7803 308.0679 0002567  79.1029 281.0436 14.19522657735426

#Time	Az	El	Level	Level2	SNR	BER	BlckErr	Temp	State	Recorded	gain1	gain2
2026-01-08 00:05:57.13	19.89	6.94	-30.7	-34.8	5.2	1.27e+00	0	41	0	0	21	5775
2026-01-08 00:05:58.12	19.91	7.01	-29.8	-34.4	5.0	1.29e+00	0	41	104	0	21	6133
2026-01-08 00:05:59.14	19.94	7.09	-31.0	-35.6	7.8	7.81e-02	0	41	0	0	22	6069
2026-01-08 00:06:00.14	19.96	7.17	-30.9	-35.5	8.3	5.35e-02	0	41	0	1048576	21	6084
2026-01-08 00:06:01.14	19.98	7.24	-30.9	-35.6	8.1	6.43e-02	0	41	0	3145728	21	6182
2026-01-08 00:06:02.15	20.00	7.32	-30.9	-35.3	8.5	4.81e-02	0	41	0	5242880	21	5990
2026-01-08 00:06:03.15	20.02	7.40	-31.0	-35.7	8.2	5.13e-02	0	41	0	7340032	21	6189
2026-01-08 00:06:04.16	20.04	7.48	-31.0	-35.4	8.1	6.75e-02	0	41	0	9437184	22	5929
2026-01-08 00:06:05.17	20.07	7.55	-30.7	-34.6	9.0	3.98e-02	0	41	0	10485760	21	5650
2026-01-08 00:06:06.18	20.09	7.63	-30.7	-34.6	9.0	2.81e-02	0	41	0	12582912	21	5654
2026-01-08 00:06:07.19	20.11	7.71	-30.7	-34.5	9.0	2.71e-02	0	41	0	14680064	21	5602
2026-01-08 00:06:08.19	20.13	7.79	-30.8	-34.9	8.7	3.57e-02	0	41	0	16777216	21	5802
2026-01-08 00:06:09.20	20.16	7.87	-30.6	-34.2	9.3	2.85e-02	0	41	0	18874368	21	5471
2026-01-08 00:06:10.20	20.18	7.95	-30.5	-33.8	9.6	1.68e-02	0	41	0	19922944	21	5273
2026-01-08 00:06:11.21	20.20	8.03	-30.4	-33.8	9.9	9.52e-03	0	41	0	22020096	20	5375
2026-01-08 00:06:12.21	20.22	8.11	-30.2	-33.2	10.5	6.03e-03	0	42	0	24117248	20	5115
2026-01-08 00:06:13.22	20.25	8.19	-30.1	-32.8	10.7	3.62e-03	0	41	0	26214400	20	4946
2026-01-08 00:06:14.22	20.27	8.27	-29.8	-32.6	11.4	2.00e-03	0	41	0	28311552	19	4929
2026-01-08 00:06:15.22	20.29	8.35	-29.8	-32.4	11.5	3.33e-03	0	41	0	29360128	19	4849
2026-01-08 00:06:16.23	20.32	8.43	-29.9	-32.6	11.3	8.60e-04	0	41	0	31457280	19	4953
2026-01-08 00:06:17.24	20.34	8.51	-29.9	-32.3	11.1	2.51e-03	0	41	0	33554432	20	4756
2026-01-08 00:06:18.24	20.36	8.59	-29.8	-32.3	11.6	3.50e-03	0	42	0	35651584	19	4840
2026-01-08 00:06:19.25	20.39	8.67	-29.7	-32.1	11.7	3.16e-03	0	42	0	37748736	19	4745
2026-01-08 00:06:20.26	20.41	8.76	-29.7	-32.2	11.6	1.17e-03	0	42	0	38797312	19	4800
2026-01-08 00:06:21.26	20.43	8.84	-29.9	-32.7	11.3	3.55e-03	0	42	0	40894464	19	4966
2026-01-08 00:06:22.26	20.46	8.92	-29.8	-32.4	11.6	3.01e-03	0	42	0	42991616	19	4847
2026-01-08 00:06:23.26	20.48	9.00	-29.7	-32.0	11.8	5.22e-04	0	42	0	45088768	19	4724
2026-01-08 00:06:24.27	20.51	9.09	-29.7	-31.9	11.9	2.64e-03	0	42	0	46137344	19	4685
2026-01-08 00:06:25.27	20.53	9.17	-29.6	-31.7	12.1	3.35e-03	0	42	0	48234496	19	4591
2026-01-08 00:06:26.28	20.56	9.25	-29.7	-32.0	11.9	4.85e-04	0	42	0	50331648	19	4690
2026-01-08 00:06:27.29	20.58	9.34	-29.6	-31.7	12.1	2.76e-03	0	42	0	52428800	19	4594
2026-01-08 00:06:28.29	20.60	9.42	-29.5	-31.6	12.1	3.27e-03	0	42	0	54525952	19	4574
2026-01-08 00:06:29.30	20.63	9.50	-29.6	-31.9	12.0	2.97e-04	0	42	0	56623104	19	4660
2026-01-08 00:06:30.30	20.65	9.59	-29.7	-32.1	11.8	3.66e-04	0	42	0	57671680	19	4727
2026-01-08 00:06:31.31	20.68	9.67	-29.7	-32.0	11.9	3.26e-03	0	42	0	59768832	19	4709
2026-01-08 00:06:32.32	20.70	9.76	-29.8	-32.4	11.6	1.20e-03	0	42	0	61865984	19	4843
2026-01-08 00:06:33.32	20.73	9.84	-29.7	-32.1	11.8	2.75e-03	0	42	0	63963136	19	4745
2026-01-08 00:06:34.33	20.75	9.93	-29.9	-32.7	11.4	3.60e-03	0	42	0	66060288	19	4979
2026-01-08 00:06:35.34	20.78	10.02	-29.9	-32.1	11.5	1.89e-03	0	42	0	67108864	20	4642
2026-01-08 00:06:36.34	20.81	10.10	-29.9	-32.6	11.5	2.95e-03	0	42	0	69206016	19	4931
2026-01-08 00:06:37.35	20.83	10.19	-29.9	-32.6	11.5	1.65e-03	0	42	0	71303168	19	4927
2026-01-08 00:06:38.35	20.86	10.28	-29.8	-32.3	11.8	1.15e-03	0	42	0	73400320	19	4784
2026-01-08 00:06:39.36	20.88	10.36	-29.7	-31.9	12.0	2.54e-03	0	42	0	74448896	19	4651
2026-01-08 00:06:40.37	20.91	10.45	-29.8	-32.2	11.9	1.06e-03	0	42	0	76546048	19	4752
2026-01-08 00:06:41.37	20.93	10.54	-29.8	-32.4	11.8	1.05e-03	0	42	0	78643200	19	4827
2026-01-08 00:06:42.38	20.96	10.63	-29.9	-32.6	11.6	2.83e-03	0	42	0	80740352	19	4905
2026-01-08 00:06:43.39	20.99	10.72	-29.9	-32.5	11.6	5.34e-04	0	42	0	82837504	19	4860
2026-01-08 00:06:44.39	21.01	10.81	-29.9	-32.7	11.5	1.32e-03	0	42	0	84934656	19	4950
2026-01-08 00:06:45.39	21.04	10.89	-30.1	-32.8	11.0	3.45e-03	0	42	0	85983232	20	4900
2026-01-08 00:06:46.40	21.07	10.98	-29.9	-32.5	11.6	4.09e-03	0	42	0	88080384	19	4883
2026-01-08 00:06:47.41	21.09	11.07	-29.8	-32.3	11.8	1.14e-03	0	42	0	90177536	19	4786
2026-01-08 00:06:48.42	21.12	11.17	-29.9	-32.4	11.7	5.90e-04	0	42	0	92274688	19	4848
2026-01-08 00:06:49.42	21.15	11.26	-29.7	-32.0	12.0	3.29e-03	0	42	0	93323264	19	4700
2026-01-08 00:06:50.43	21.18	11.35	-29.5	-31.4	12.4	1.69e-04	0	42	0	95420416	19	4480
2026-01-08 00:06:51.43	21.20	11.44	-29.5	-31.3	12.5	1.59e-04	0	42	0	97517568	19	4450
2026-01-08 00:06:52.44	21.23	11.53	-29.4	-31.2	12.6	3.20e-03	0	42	0	99614720	19	4400
2026-01-08 00:06:53.45	21.26	11.62	-29.6	-31.6	12.4	1.21e-04	0	43	0	101711872	19	4536
2026-01-08 00:06:54.45	21.29	11.71	-29.6	-31.5	12.4	2.16e-04	0	42	0	102760448	19	4493
2026-01-08 00:06:55.45	21.32	11.80	-29.5	-31.3	12.5	8.43e-04	0	42	0	104857600	19	4451
2026-01-08 00:06:56.46	21.34	11.90	-29.7	-31.9	12.2	1.26e-03	0	42	0	106954752	19	4631
2026-01-08 00:06:57.47	21.37	11.99	-29.5	-31.4	12.5	1.35e-04	0	42	0	109051904	19	4466
2026-01-08 00:06:58.47	21.40	12.08	-29.3	-31.3	12.9	7.31e-04	0	43	0	111149056	18	4527
2026-01-08 00:06:59.48	21.43	12.18	-29.2	-31.0	13.1	8.43e-04	0	42	0	113246208	18	4419
2026-01-08 00:07:00.48	21.46	12.27	-29.1	-30.7	13.3	1.44e-05	0	42	0	114294784	18	4346
2026-01-08 00:07:01.49	21.49	12.37	-29.0	-30.5	13.4	1.98e-05	0	43	0	116391936	18	4274
2026-01-08 00:07:02.50	21.52	12.46	-29.1	-30.9	13.2	5.74e-04	0	43	0	118489088	18	4393
2026-01-08 00:07:03.49	21.55	12.56	-29.1	-30.7	13.3	1.83e-05	0	43	0	120586240	18	4331
2026-01-08 00:07:04.50	21.58	12.65	-29.2	-30.9	13.2	1.98e-05	0	43	0	121634816	18	4408
2026-01-08 00:07:05.50	21.60	12.75	-29.1	-30.8	13.3	5.16e-04	0	42	0	123731968	18	4363
2026-01-08 00:07:06.51	21.63	12.85	-29.0	-30.4	13.5	2.13e-05	0	43	0	125829120	18	4241
2026-01-08 00:07:07.52	21.66	12.94	-28.9	-30.6	13.7	8.30e-06	0	42	0	127926272	17	4406
2026-01-08 00:07:08.52	21.69	13.04	-28.9	-30.6	13.6	8.30e-06	0	43	0	130023424	17	4411
2026-01-08 00:07:09.53	21.73	13.14	-28.9	-30.3	13.6	1.37e-05	0	43	0	131072000	18	4199
2026-01-08 00:07:10.53	21.76	13.24	-28.8	-30.7	13.5	9.10e-06	0	43	0	133169152	17	4505
2026-01-08 00:07:11.54	21.79	13.33	-28.9	-30.7	13.1	1.60e-05	0	43	0	135266304	17	4422
2026-01-08 00:07:12.54	21.82	13.43	-28.9	-30.8	12.5	6.80e-06	0	43	0	137363456	17	4449
2026-01-08 00:07:13.55	21.85	13.53	-28.9	-30.7	13.6	6.10e-06	0	43	0	139460608	17	4434
2026-01-08 00:07:14.56	21.88	13.63	-28.9	-30.6	12.8	1.29e-05	0	43	0	140509184	17	4404
2026-01-08 00:07:15.56	21.91	13.73	-29.0	-30.9	13.1	6.80e-06	0	43	0	142606336	17	4485
2026-01-08 00:07:16.57	21.94	13.83	-29.0	-30.4	13.6	4.49e-04	0	43	0	144703488	18	4234
2026-01-08 00:07:17.57	21.97	13.93	-29.0	-30.5	13.5	9.10e-06	0	43	0	146800640	18	4248
2026-01-08 00:07:18.58	22.01	14.03	-29.1	-30.6	13.5	1.44e-05	0	43	0	148897792	18	4278
2026-01-08 00:07:19.59	22.04	14.14	-29.0	-30.5	13.5	9.90e-06	0	43	0	149946368	18	4273
2026-01-08 00:07:20.59	22.07	14.24	-29.0	-30.8	13.6	5.19e-04	0	43	0	152043520	17	4470
2026-01-08 00:07:21.60	22.10	14.34	-29.1	-30.6	13.5	1.14e-05	0	43	0	154140672	18	4284
2026-01-08 00:07:22.60	22.14	14.44	-29.1	-30.7	13.4	9.10e-06	0	43	0	156237824	18	4316
2026-01-08 00:07:23.61	22.17	14.55	-29.1	-30.7	13.4	2.13e-03	0	43	0	158334976	18	4331
2026-01-08 00:07:24.61	22.20	14.65	-29.2	-30.8	13.3	1.83e-05	0	43	0	159383552	18	4365
2026-01-08 00:07:25.62	22.24	14.75	-29.2	-31.0	13.3	1.22e-05	0	43	0	161480704	18	4403
2026-01-08 00:07:26.63	22.27	14.86	-29.3	-31.2	13.1	1.80e-03	0	43	0	163577856	18	4496
2026-01-08 00:07:27.63	22.30	14.96	-29.2	-30.8	13.3	1.74e-03	0	43	0	165675008	18	4371
2026-01-08 00:07:28.64	22.34	15.07	-28.3	-30.1	13.2	9.90e-06	0	43	0	167772160	18	4425
2026-01-08 00:07:29.65	22.37	15.18	-29.2	-31.0	13.2	1.75e-05	0	43	0	168820736	18	4421
2026-01-08 00:07:30.66	22.41	15.28	-29.4	-31.4	12.9	1.72e-03	0	43	0	170917888	18	4541
2026-01-08 00:07:31.66	22.44	15.39	-29.2	-31.0	12.9	3.58e-05	0	43	0	173015040	18	4430
2026-01-08 00:07:32.67	22.48	15.50	-29.4	-31.4	13.0	2.44e-05	0	43	0	175112192	18	4537
2026-01-08 00:07:33.68	22.51	15.61	-29.3	-31.1	13.2	1.64e-03	0	43	0	177209344	18	4452
2026-01-08 00:07:34.69	22.55	15.72	-29.3	-31.2	13.1	3.20e-05	0	43	0	178257920	18	4491
2026-01-08 00:07:35.70	22.58	15.82	-29.4	-31.4	13.1	2.05e-05	0	43	0	180355072	18	4527
2026-01-08 00:07:36.70	22.62	15.93	-29.3	-31.2	13.2	2.00e-03	0	43	0	182452224	18	4463
2026-01-08 00:07:37.71	22.65	16.04	-29.4	-31.4	13.1	2.44e-05	0	43	0	184549376	18	4550
2026-01-08 00:07:38.72	22.69	16.15	-29.2	-31.1	13.3	1.73e-03	0	43	0	186646528	18	4431
2026-01-08 00:07:39.72	22.73	16.27	-29.1	-30.7	13.5	1.37e-05	0	43	0	187695104	18	4315
2026-01-08 00:07:40.72	22.76	16.38	-29.1	-30.7	13.5	2.33e-04	0	43	0	189792256	18	4300
2026-01-08 00:07:41.73	22.80	16.49	-29.0	-30.2	13.8	1.82e-03	0	43	0	191889408	18	4165
2026-01-08 00:07:42.74	22.84	16.60	-29.0	-30.8	13.7	4.50e-06	0	43	0	193986560	17	4444
2026-01-08 00:07:43.74	22.87	16.71	-29.1	-30.5	13.6	3.73e-04	0	43	0	196083712	18	4260
2026-01-08 00:07:44.75	22.91	16.83	-29.0	-30.4	13.7	1.75e-03	0	43	0	197132288	18	4219
2026-01-08 00:07:45.76	22.95	16.94	-29.2	-30.8	13.4	1.90e-03	0	43	0	199229440	18	4336
2026-01-08 00:07:46.77	22.99	17.06	-29.1	-30.7	13.5	3.95e-04	0	43	0	201326592	18	4319
2026-01-08 00:07:47.77	23.03	17.17	-29.2	-30.9	13.3	1.91e-03	0	43	0	203423744	18	4364
2026-01-08 00:07:48.78	23.06	17.29	-29.1	-30.6	13.5	1.83e-03	0	43	0	205520896	18	4262
2026-01-08 00:07:49.78	23.10	17.40	-29.3	-31.1	13.2	4.52e-04	0	43	0	206569472	18	4449
2026-01-08 00:07:50.79	23.14	17.52	-29.2	-31.0	13.3	1.92e-03	0	43	0	208666624	18	4395
2026-01-08 00:07:51.80	23.18	17.64	-29.3	-31.0	13.3	2.06e-03	0	43	0	210763776	18	4411
2026-01-08 00:07:52.80	23.22	17.75	-29.4	-31.3	13.1	2.67e-05	0	43	0	212860928	18	4500
2026-01-08 00:07:53.81	23.26	17.87	-29.4	-31.4	13.0	1.63e-03	0	43	0	214958080	18	4535
2026-01-08 00:07:54.82	23.30	17.99	-29.5	-31.6	13.0	2.18e-03	0	43	0	216006656	18	4584
2026-01-08 00:07:55.82	23.34	18.11	-29.4	-31.3	13.1	3.43e-05	0	43	0	218103808	18	4504
2026-01-08 00:07:56.82	23.38	18.23	-29.3	-31.2	13.2	2.67e-05	0	43	0	220200960	18	4481
2026-01-08 00:07:57.83	23.43	18.35	-29.3	-30.7	13.2	2.23e-03	0	43	0	222298112	19	4213
2026-01-08 00:07:58.84	23.47	18.47	-29.4	-31.4	13.1	6.11e-04	0	43	0	224395264	18	4515
2026-01-08 00:07:59.84	23.51	18.59	-29.4	-31.4	13.1	2.05e-05	0	43	0	225443840	18	4523
2026-01-08 00:08:00.85	23.55	18.72	-29.6	-31.4	12.8	6.35e-04	0	43	0	227540992	19	4434
2026-01-08 00:08:01.85	23.59	18.84	-29.6	-31.4	12.7	5.35e-04	0	43	0	229638144	19	4433
2026-01-08 00:08:02.85	23.63	18.96	-29.9	-32.4	12.1	1.79e-03	0	43	0	231735296	19	4770
2026-01-08 00:08:03.85	23.68	19.08	-29.8	-32.0	12.4	6.57e-04	0	43	0	233832448	19	4644
2026-01-08 00:08:04.86	23.72	19.21	-29.7	-31.7	12.6	8.18e-04	0	43	0	234881024	19	4543
2026-01-08 00:08:05.86	23.76	19.33	-29.8	-32.1	12.3	2.22e-03	0	43	0	236978176	19	4687
2026-01-08 00:08:06.88	23.81	19.46	-29.9	-32.4	12.1	9.31e-04	0	43	0	239075328	19	4801
2026-01-08 00:08:07.88	23.85	19.59	-30.0	-32.5	12.0	8.07e-04	0	43	0	241172480	19	4831
2026-01-08 00:08:08.89	23.90	19.72	-30.0	-32.1	11.9	2.28e-03	0	43	0	243269632	20	4591
2026-01-08 00:08:09.90	23.94	19.84	-30.2	-32.9	11.4	9.22e-04	0	43	0	244318208	20	4873
2026-01-08 00:08:10.90	23.99	19.97	-30.2	-32.9	11.4	1.56e-03	0	43	0	246415360	20	4874
2026-01-08 00:08:11.91	24.03	20.10	-30.2	-32.8	11.4	7.86e-04	0	43	0	248512512	20	4843
2026-01-08 00:08:12.91	24.08	20.23	-30.3	-33.2	11.2	3.59e-03	0	43	0	250609664	20	4984
2026-01-08 00:08:13.92	24.13	20.36	-30.3	-33.1	11.3	1.67e-03	0	43	0	252706816	20	4945
2026-01-08 00:08:14.93	24.17	20.49	-30.4	-33.2	11.2	1.31e-03	0	43	0	253755392	20	4999
2026-01-08 00:08:15.92	24.22	20.62	-30.3	-32.9	11.4	3.86e-03	0	43	0	255852544	20	4877
2026-01-08 00:08:16.93	24.27	20.76	-30.1	-32.4	11.8	6.61e-04	0	43	0	257949696	20	4684
2026-01-08 00:08:17.93	24.31	20.89	-30.0	-32.2	11.9	4.74e-04	0	43	0	260046848	20	4621
2026-01-08 00:08:18.94	24.36	21.02	-30.0	-32.0	12.1	7.26e-04	0	43	0	262144000	20	4539
2026-01-08 00:08:19.94	24.41	21.16	-29.8	-31.5	12.4	1.58e-04	0	43	0	263192576	20	4379
2026-01-08 00:08:20.95	24.46	21.29	-29.6	-31.3	12.9	4.65e-05	0	43	0	265289728	19	4402
2026-01-08 00:08:21.95	24.51	21.43	-29.4	-30.8	13.2	2.25e-04	0	43	0	267386880	19	4236
2026-01-08 00:08:22.96	24.56	21.56	-29.3	-30.6	13.4	1.94e-04	0	43	0	269484032	19	4176
2026-01-08 00:08:23.97	24.61	21.70	-29.1	-30.6	13.7	1.06e-05	0	43	0	271581184	18	4249
2026-01-08 00:08:24.97	24.66	21.84	-29.2	-30.7	13.6	1.50e-04	0	43	0	272629760	18	4293
2026-01-08 00:08:25.98	24.71	21.98	-29.3	-31.0	13.5	1.56e-04	0	43	0	274726912	18	4389
2026-01-08 00:08:26.98	24.76	22.12	-29.2	-30.7	13.7	8.30e-06	0	43	0	276824064	18	4285
2026-01-08 00:08:27.99	24.81	22.26	-29.1	-30.6	13.7	5.30e-06	0	43	0	278921216	18	4267
2026-01-08 00:08:28.99	24.87	22.40	-29.2	-30.8	13.6	1.28e-04	0	43	0	281018368	18	4327
2026-01-08 00:08:30.00	24.92	22.54	-29.0	-30.3	13.9	5.30e-06	0	43	0	282066944	18	4163
2026-01-08 00:08:31.00	24.97	22.68	-29.1	-30.5	13.8	3.80e-06	0	43	0	284164096	18	4243
2026-01-08 00:08:32.00	25.03	22.83	-29.0	-30.1	14.1	1.56e-04	0	43	0	286261248	18	4098
2026-01-08 00:08:33.00	25.08	22.97	-29.0	-30.2	14.0	1.50e-06	0	43	0	288358400	18	4152
2026-01-08 00:08:34.01	25.13	23.12	-29.0	-30.3	14.0	1.50e-06	0	43	0	289406976	18	4175
2026-01-08 00:08:35.02	25.19	23.26	-29.1	-30.4	13.9	3.00e-06	0	43	0	291504128	18	4186
2026-01-08 00:08:36.02	25.24	23.41	-28.1	-29.3	14.0	3.80e-06	0	43	0	293601280	18	4125
2026-01-08 00:08:37.03	25.30	23.56	-29.1	-30.5	13.9	1.50e-06	0	43	0	295698432	18	4224
2026-01-08 00:08:38.04	25.36	23.71	-29.3	-31.0	13.6	5.30e-06	0	43	0	297795584	18	4372
2026-01-08 00:08:39.04	25.41	23.85	-29.5	-31.4	13.3	9.90e-06	0	43	0	299892736	18	4503
2026-01-08 00:08:40.05	25.47	24.00	-29.5	-31.0	13.3	1.52e-05	0	43	0	300941312	19	4269
2026-01-08 00:08:41.06	25.53	24.16	-29.5	-31.0	13.3	2.74e-05	0	44	0	303038464	19	4280
2026-01-08 00:08:42.06	25.59	24.31	-29.6	-31.2	13.0	2.74e-05	0	43	0	305135616	19	4337
2026-01-08 00:08:43.07	25.65	24.46	-29.7	-31.5	12.9	1.98e-04	0	43	0	307232768	19	4454
2026-01-08 00:08:44.08	25.71	24.61	-29.6	-31.4	13.0	4.50e-05	0	43	0	308281344	19	4412
2026-01-08 00:08:45.08	25.77	24.77	-29.7	-31.4	13.0	3.50e-05	0	43	0	310378496	19	4417
2026-01-08 00:08:46.09	25.83	24.92	-30.0	-32.4	12.4	9.84e-05	0	43	0	312475648	19	4738
2026-01-08 00:08:47.10	25.89	25.08	-29.7	-31.6	12.9	1.90e-03	0	43	0	314572800	19	4478
2026-01-08 00:08:48.10	25.95	25.24	-29.5	-31.1	13.2	1.44e-05	0	43	0	316669952	19	4320
2026-01-08 00:08:49.10	26.01	25.39	-29.2	-30.3	13.6	8.30e-06	0	43	0	317718528	19	4083
2026-01-08 00:08:50.10	26.07	25.55	-29.1	-30.6	13.9	1.85e-03	0	43	0	319815680	18	4242
2026-01-08 00:08:51.11	26.14	25.71	-29.2	-30.6	13.8	1.76e-03	0	43	0	321912832	18	4263
2026-01-08 00:08:52.11	26.20	25.87	-29.1	-30.6	13.9	6.80e-06	0	43	0	324009984	18	4236
2026-01-08 00:08:53.12	26.27	26.03	-29.4	-31.2	13.5	6.10e-06	0	43	0	326107136	18	4428
2026-01-08 00:08:54.13	26.33	26.20	-29.4	-30.9	13.4	1.72e-03	0	43	0	327155712	19	4242
2026-01-08 00:08:55.14	26.40	26.36	-29.3	-30.4	13.7	9.10e-06	0	43	0	329252864	19	4102
2026-01-08 00:08:56.14	26.47	26.52	-29.2	-30.7	13.8	7.00e-07	0	43	0	331350016	18	4291
2026-01-08 00:08:57.15	26.53	26.69	-29.1	-30.4	13.9	1.51e-03	0	43	0	333447168	18	4175
2026-01-08 00:08:58.16	26.60	26.86	-29.1	-30.4	14.1	0.00e+00	0	43	0	335544320	18	4175
2026-01-08 00:08:59.16	26.67	27.02	-29.1	-30.4	14.0	7.00e-07	0	43	0	336592896	18	4184
2026-01-08 00:09:00.17	26.74	27.19	-28.9	-30.3	14.4	8.79e-04	0	43	0	338690048	17	4251
2026-01-08 00:09:01.17	26.81	27.36	-28.7	-29.8	14.8	1.50e-06	0	43	0	340787200	17	4082
2026-01-08 00:09:02.19	26.88	27.53	-28.5	-29.4	15.0	4.52e-04	0	43	0	342884352	17	3996
2026-01-08 00:09:03.19	26.95	27.71	-28.7	-29.8	14.7	4.19e-04	0	43	0	344981504	17	4098
2026-01-08 00:09:04.19	27.02	27.88	-28.3	-29.0	15.2	0.00e+00	0	43	0	346030080	17	3862
2026-01-08 00:09:05.20	27.10	28.05	-28.6	-29.5	14.9	3.53e-04	0	43	0	348127232	17	4013
2026-01-08 00:09:06.20	27.17	28.22	-28.6	-29.5	15.0	7.00e-07	0	43	0	350224384	17	4007
2026-01-08 00:09:07.20	27.24	28.40	-28.7	-29.8	14.8	0.00e+00	0	43	0	352321536	17	4099
2026-01-08 00:09:08.21	27.32	28.58	-28.8	-30.2	14.5	2.49e-04	0	43	0	354418688	17	4203
2026-01-08 00:09:09.21	27.39	28.75	-28.6	-29.7	14.8	2.81e-04	0	43	0	355467264	17	4063
2026-01-08 00:09:10.22	27.47	28.93	-28.5	-29.5	14.9	0.00e+00	0	43	0	357564416	17	3997
2026-01-08 00:09:11.22	27.55	29.11	-28.6	-29.6	14.8	3.16e-04	0	43	0	359661568	17	4031
2026-01-08 00:09:12.23	27.63	29.29	-28.5	-29.4	14.9	3.23e-04	0	43	0	361758720	17	3986
2026-01-08 00:09:13.24	27.71	29.48	-28.7	-30.0	14.6	3.28e-05	0	43	0	363855872	17	4158
2026-01-08 00:09:14.24	27.79	29.66	-28.9	-29.8	14.4	3.07e-04	0	43	0	364904448	18	4019
2026-01-08 00:09:15.25	27.87	29.84	-29.1	-30.5	14.0	2.72e-04	0	43	0	367001600	18	4211
2026-01-08 00:09:16.25	27.95	30.03	-29.2	-30.7	13.9	3.80e-06	0	43	0	369098752	18	4280
2026-01-08 00:09:17.26	28.03	30.22	-29.6	-31.2	13.3	8.08e-05	0	43	0	371195904	19	4337
2026-01-08 00:09:18.26	28.11	30.40	-29.7	-31.6	13.0	2.37e-04	0	43	0	373293056	19	4465
2026-01-08 00:09:19.27	28.20	30.59	-30.0	-32.3	12.5	3.66e-05	0	43	0	374341632	19	4713
2026-01-08 00:09:20.28	28.29	30.79	-30.2	-32.4	12.0	1.36e-04	0	43	0	376438784	20	4651
2026-01-08 00:09:21.28	28.37	30.98	-30.1	-32.2	12.1	5.63e-04	0	43	0	378535936	20	4592
2026-01-08 00:09:22.28	28.46	31.17	-29.9	-31.7	12.5	1.72e-04	0	43	0	380633088	20	4414
2026-01-08 00:09:23.29	28.55	31.36	-29.9	-31.7	12.5	2.84e-04	0	43	0	382730240	20	4416
2026-01-08 00:09:24.29	28.64	31.56	-30.0	-32.0	12.3	2.50e-04	0	43	0	383778816	20	4519
2026-01-08 00:09:25.30	28.73	31.75	-30.2	-32.6	11.9	3.01e-04	0	43	0	385875968	20	4722
2026-01-08 00:09:26.30	28.82	31.95	-30.1	-32.3	12.1	7.68e-04	0	44	0	387973120	20	4635
2026-01-08 00:09:27.31	28.91	32.15	-30.1	-32.3	12.2	4.25e-04	0	43	0	390070272	20	4643
2026-01-08 00:09:28.32	29.01	32.35	-30.3	-32.8	11.6	5.53e-04	0	43	0	392167424	20	4825
2026-01-08 00:09:29.32	29.10	32.55	-30.4	-33.3	11.4	5.64e-04	0	44	0	393216000	20	5014
2026-01-08 00:09:30.33	29.20	32.75	-30.3	-33.0	11.5	6.60e-04	0	44	0	395313152	20	4915
2026-01-08 00:09:31.33	29.29	32.96	-30.1	-32.4	11.9	4.65e-04	0	43	0	397410304	20	4694
2026-01-08 00:09:32.34	29.39	33.16	-30.2	-32.5	11.9	4.42e-04	0	43	0	399507456	20	4724
2026-01-08 00:09:33.35	29.49	33.37	-30.2	-32.7	11.7	5.65e-04	0	43	0	401604608	20	4813
2026-01-08 00:09:34.36	29.59	33.58	-30.3	-32.9	11.7	3.77e-04	0	44	0	402653184	20	4859
2026-01-08 00:09:35.37	29.70	33.79	-30.3	-33.1	11.5	7.03e-04	0	43	0	404750336	20	4934
2026-01-08 00:09:36.37	29.80	34.00	-30.1	-32.5	12.0	5.67e-04	0	43	0	406847488	20	4714
2026-01-08 00:09:37.37	29.90	34.21	-30.2	-32.8	11.8	4.89e-04	0	43	0	408944640	20	4823
2026-01-08 00:09:38.38	30.01	34.43	-30.1	-32.4	12.1	4.72e-04	0	43	0	411041792	20	4660
2026-01-08 00:09:39.38	30.12	34.64	-30.3	-32.9	11.8	2.64e-04	0	43	0	412090368	20	4839
2026-01-08 00:09:40.39	30.22	34.86	-30.1	-32.3	12.2	3.50e-04	0	43	0	414187520	20	4642
2026-01-08 00:09:41.39	30.33	35.07	-30.0	-32.0	12.3	1.61e-04	0	43	0	416284672	20	4530
2026-01-08 00:09:42.40	30.45	35.29	-30.2	-32.6	11.9	4.70e-04	0	43	0	418381824	20	4728
2026-01-08 00:09:43.41	30.56	35.51	-30.2	-32.7	11.9	3.70e-04	0	43	0	420478976	20	4781
2026-01-08 00:09:44.42	30.67	35.74	-30.4	-33.2	11.5	9.30e-04	0	44	0	421527552	20	4971
2026-01-08 00:09:45.42	30.79	35.96	-30.3	-33.1	11.4	1.01e-03	0	43	0	423624704	20	4968
2026-01-08 00:09:46.43	30.91	36.18	-30.5	-33.2	11.0	1.00e-03	0	43	0	425721856	21	4900
2026-01-08 00:09:47.43	31.03	36.41	-30.6	-33.4	10.9	3.47e-03	0	43	0	427819008	21	4970
2026-01-08 00:09:48.44	31.15	36.64	-30.5	-33.1	11.1	1.97e-03	0	43	0	429916160	21	4863
2026-01-08 00:09:49.44	31.27	36.87	-30.8	-34.0	10.5	2.63e-03	0	43	0	430964736	21	5231
2026-01-08 00:09:50.45	31.39	37.10	-30.6	-33.5	10.9	2.45e-03	0	43	0	433061888	21	4998
2026-01-08 00:09:51.45	31.52	37.33	-30.8	-34.0	10.8	3.16e-03	0	44	0	435159040	21	5223
2026-01-08 00:09:52.45	31.64	37.56	-30.9	-33.9	10.2	5.14e-03	0	44	0	437256192	22	5063
2026-01-08 00:09:53.46	31.77	37.80	-31.2	-34.8	9.6	1.16e-02	0	43	0	439353344	22	5478
2026-01-08 00:09:54.46	31.90	38.03	-31.2	-35.1	9.4	1.48e-02	0	44	0	440401920	22	5610
2026-01-08 00:09:55.47	32.04	38.27	-31.4	-35.6	9.0	1.81e-02	0	43	0	442499072	22	5886
2026-01-08 00:09:56.47	32.17	38.51	-31.4	-35.5	8.7	4.36e-02	0	44	0	444596224	23	5722
2026-01-08 00:09:57.48	32.31	38.75	-30.9	-33.4	10.3	1.40e-02	0	44	0	446693376	23	4803
2026-01-08 00:09:58.49	32.45	39.00	-30.9	-34.0	10.1	7.93e-03	0	43	0	448790528	22	5136
2026-01-08 00:09:59.50	32.59	39.24	-31.0	-34.3	9.8	7.59e-03	0	43	0	449839104	22	5282
2026-01-08 00:10:00.51	32.73	39.49	-31.0	-34.3	10.0	6.19e-03	0	43	0	451936256	22	5266
2026-01-08 00:10:01.52	32.88	39.74	-31.1	-34.9	9.6	1.22e-02	0	44	0	454033408	22	5516
2026-01-08 00:10:02.53	33.03	39.99	-31.5	-36.2	8.5	1.68e-02	0	44	0	456130560	22	6201
2026-01-08 00:10:03.53	33.17	40.24	-31.4	-35.4	8.8	3.26e-02	0	43	0	458227712	23	5660
2026-01-08 00:10:04.54	33.33	40.49	-31.5	-35.5	8.8	2.79e-02	0	44	0	459276288	23	5732
2026-01-08 00:10:05.54	33.48	40.74	-31.6	-36.1	8.3	3.67e-02	0	44	0	461373440	23	6025
2026-01-08 00:10:06.54	33.64	40.99	-31.4	-35.1	9.2	2.53e-02	0	44	0	463470592	23	5543
2026-01-08 00:10:07.55	33.80	41.25	-31.3	-35.0	9.1	2.85e-02	0	43	0	465567744	23	5452
2026-01-08 00:10:08.55	33.96	41.51	-31.5	-35.5	8.7	2.94e-02	0	44	0	467664896	23	5716
2026-01-08 00:10:09.56	34.12	41.77	-31.3	-35.1	9.6	1.27e-02	0	43	0	468713472	22	5568
2026-01-08 00:10:10.56	34.29	42.03	-31.4	-35.2	9.0	2.37e-02	0	43	0	470810624	23	5555
2026-01-08 00:10:11.57	34.46	42.30	-31.2	-34.9	9.5	1.39e-02	0	43	0	472907776	22	5524
2026-01-08 00:10:12.57	34.63	42.56	-31.3	-35.1	9.5	1.72e-02	0	44	0	475004928	22	5586
2026-01-08 00:10:13.58	34.80	42.83	-31.2	-34.7	9.7	1.64e-02	0	44	0	477102080	22	5427
2026-01-08 00:10:14.59	34.98	43.10	-31.1	-34.6	9.9	1.26e-02	0	44	0	478150656	22	5334
2026-01-08 00:10:15.59	35.16	43.37	-31.3	-35.1	9.5	6.60e-03	0	43	0	480247808	22	5583
2026-01-08 00:10:16.59	35.34	43.64	-31.0	-34.1	10.4	6.87e-03	0	44	0	482344960	22	5119
2026-01-08 00:10:17.60	35.53	43.91	-30.8	-33.7	11.0	2.57e-03	0	44	0	484442112	21	5021
2026-01-08 00:10:18.61	35.72	44.19	-30.5	-32.9	11.5	1.50e-03	0	43	0	486539264	21	4740
2026-01-08 00:10:19.62	35.91	44.46	-30.5	-32.9	11.5	1.23e-03	0	44	0	487587840	21	4741
2026-01-08 00:10:20.62	36.11	44.74	-30.7	-33.3	11.4	8.22e-04	0	43	0	489684992	21	4872
2026-01-08 00:10:21.62	36.31	45.02	-30.4	-32.5	11.8	9.08e-04	0	44	0	491782144	21	4580
2026-01-08 00:10:22.63	36.51	45.30	-30.0	-31.4	12.5	2.73e-04	0	44	0	493879296	21	4237
2026-01-08 00:10:23.64	36.72	45.58	-29.6	-30.8	13.3	1.09e-04	0	44	0	495976448	20	4117
2026-01-08 00:10:24.65	36.93	45.87	-29.6	-30.8	13.2	9.90e-06	0	44	0	497025024	20	4151
2026-01-08 00:10:25.65	37.14	46.15	-29.4	-30.9	13.6	5.80e-04	0	44	0	499122176	19	4241
2026-01-08 00:10:26.65	37.36	46.44	-29.9	-32.1	12.7	6.73e-04	0	44	0	501219328	19	4668
2026-01-08 00:10:27.66	37.58	46.73	-30.1	-32.3	12.2	9.23e-05	0	44	0	503316480	20	4623
2026-01-08 00:10:28.67	37.81	47.02	-30.0	-32.0	12.5	8.36e-04	0	43	0	504365056	20	4535
2026-01-08 00:10:29.68	38.04	47.32	-30.3	-32.8	11.9	1.85e-04	0	43	0	506462208	20	4813
2026-01-08 00:10:30.68	38.27	47.61	-30.5	-33.0	11.5	5.78e-04	0	44	0	508559360	21	4789
2026-01-08 00:10:31.69	38.51	47.90	-30.4	-32.7	11.6	1.83e-03	0	44	0	510656512	21	4661
2026-01-08 00:10:32.69	38.75	48.20	-30.4	-32.7	11.6	1.88e-03	0	44	0	512753664	21	4697
2026-01-08 00:10:33.69	39.00	48.50	-30.2	-32.0	12.0	3.48e-04	0	44	0	514850816	21	4450
2026-01-08 00:10:34.69	39.25	48.79	-30.2	-32.8	11.8	5.14e-04	0	43	0	515899392	20	4834
2026-01-08 00:10:35.70	39.51	49.10	-29.6	-31.0	13.1	5.07e-04	0	43	0	517996544	20	4200
2026-01-08 00:10:36.70	39.77	49.40	-29.5	-30.5	13.3	1.83e-05	0	44	0	520093696	20	4065
2026-01-08 00:10:37.70	40.04	49.70	-29.2	-30.4	13.9	2.00e-04	0	44	0	522190848	19	4100
2026-01-08 00:10:38.71	40.31	50.01	-29.6	-31.2	13.4	4.10e-04	0	43	0	523239424	19	4360
2026-01-08 00:10:39.72	40.59	50.32	-29.4	-30.9	13.5	9.10e-06	0	44	0	525336576	19	4242
2026-01-08 00:10:40.72	40.87	50.62	-29.5	-31.2	13.4	5.87e-04	0	43	0	527433728	19	4337
2026-01-08 00:10:41.73	41.17	50.93	-29.5	-31.0	13.5	9.63e-04	0	44	0	529530880	19	4280
2026-01-08 00:10:42.73	41.46	51.24	-29.8	-31.9	13.0	1.06e-05	0	43	0	531628032	19	4587
2026-01-08 00:10:43.74	41.76	51.56	-29.6	-31.0	13.0	3.66e-05	0	43	0	532676608	20	4221
2026-01-08 00:10:44.75	42.07	51.87	-29.6	-31.4	13.2	6.81e-04	0	43	0	534773760	19	4416
2026-01-08 00:10:45.76	42.39	52.19	-29.7	-31.7	12.9	3.12e-05	0	43	0	536870912	19	4548
2026-01-08 00:10:46.76	42.71	52.50	-29.2	-30.8	13.9	3.00e-06	0	44	0	538968064	18	4323
2026-01-08 00:10:47.77	43.04	52.82	-29.2	-30.7	14.0	5.26e-05	0	43	0	541065216	18	4309
2026-01-08 00:10:48.77	43.37	53.14	-29.1	-30.5	14.1	3.00e-06	0	43	0	542113792	18	4224
2026-01-08 00:10:49.77	43.71	53.45	-28.8	-29.7	14.6	2.27e-04	0	43	0	544210944	18	4012
2026-01-08 00:10:50.78	44.07	53.78	-28.5	-28.9	15.1	0.00e+00	0	43	0	546308096	18	3785
2026-01-08 00:10:51.78	44.42	54.09	-28.5	-29.0	14.9	0.00e+00	0	43	0	548405248	18	3811
2026-01-08 00:10:52.79	44.79	54.42	-28.4	-28.8	15.2	4.65e-05	0	43	0	550502400	18	3746
2026-01-08 00:10:53.80	45.17	54.74	-28.6	-29.8	14.9	7.00e-07	0	43	0	551550976	17	4101
2026-01-08 00:10:54.81	45.55	55.07	-28.2	-28.6	15.6	0.00e+00	0	44	0	553648128	17	3786
2026-01-08 00:10:55.81	45.94	55.39	-27.7	-27.8	16.3	4.04e-04	0	43	0	555745280	16	3679
2026-01-08 00:10:56.82	46.34	55.72	-27.5	-27.5	16.6	3.28e-05	0	44	0	557842432	16	3583
2026-01-08 00:10:57.83	46.76	56.04	-27.6	-27.7	16.5	7.47e-05	0	43	0	559939584	16	3647
2026-01-08 00:10:58.83	47.17	56.37	-27.4	-27.8	16.5	1.21e-03	0	43	0	562036736	15	3776
2026-01-08 00:10:59.84	47.61	56.70	-27.5	-28.0	16.5	1.24e-04	0	43	0	563085312	15	3814
2026-01-08 00:11:00.85	48.05	57.02	-27.2	-27.4	16.8	1.30e-04	0	43	0	565182464	15	3651
2026-01-08 00:11:01.86	48.50	57.35	-27.1	-27.5	17.1	0.00e+00	0	44	0	567279616	14	3775
2026-01-08 00:11:02.85	48.96	57.68	-27.1	-27.5	17.1	2.06e-03	0	44	0	569376768	14	3761
2026-01-08 00:11:03.85	49.43	58.00	-27.4	-28.2	16.7	7.47e-05	0	44	0	570425344	14	3954
2026-01-08 00:11:04.86	49.91	58.33	-27.5	-28.0	16.4	0.00e+00	0	43	0	572522496	15	3816
2026-01-08 00:11:05.87	50.41	58.66	-27.4	-28.1	16.7	1.50e-04	0	44	0	574619648	14	3942
2026-01-08 00:11:06.87	50.92	58.98	-27.2	-27.6	17.0	1.47e-04	0	44	0	576716800	14	3809
2026-01-08 00:11:07.87	51.43	59.31	-27.6	-28.3	16.4	0.00e+00	0	44	0	578813952	15	3874
2026-01-08 00:11:08.87	51.97	59.63	-28.1	-28.9	15.8	1.72e-04	0	44	0	579862528	16	3945
2026-01-08 00:11:09.88	52.52	59.96	-28.8	-30.1	14.8	0.00e+00	0	43	0	581959680	17	4183
2026-01-08 00:11:10.88	53.07	60.29	-28.9	-30.3	14.6	0.00e+00	0	44	0	584056832	17	4254
2026-01-08 00:11:11.89	53.65	60.61	-29.0	-30.0	14.6	9.38e-05	0	44	0	586153984	18	4072
2026-01-08 00:11:12.90	54.25	60.94	-29.5	-31.0	13.8	1.37e-04	0	43	0	588251136	19	4251
2026-01-08 00:11:13.90	54.85	61.26	-29.6	-31.3	13.7	9.90e-06	0	44	0	589299712	19	4337
2026-01-08 00:11:14.91	55.47	61.58	-29.6	-31.3	13.6	1.98e-04	0	44	0	591396864	19	4332
2026-01-08 00:11:15.92	56.11	61.90	-29.7	-31.3	13.7	1.51e-04	0	43	0	593494016	19	4329
2026-01-08 00:11:16.92	56.77	62.22	-29.3	-30.1	14.2	1.50e-06	0	43	0	595591168	19	3981
2026-01-08 00:11:17.93	57.44	62.53	-29.2	-30.0	14.5	9.38e-05	0	44	0	597688320	19	3928
2026-01-08 00:11:18.94	58.13	62.85	-29.3	-30.0	14.5	1.43e-04	0	44	0	598736896	19	3938
2026-01-08 00:11:19.94	58.84	63.16	-28.7	-29.1	15.4	0.00e+00	0	43	0	600834048	18	3788
2026-01-08 00:11:20.94	59.56	63.47	-29.0	-30.0	14.8	0.00e+00	0	44	0	602931200	18	4023
2026-01-08 00:11:21.95	60.31	63.78	-29.5	-30.6	14.1	1.74e-04	0	44	0	605028352	19	4118
2026-01-08 00:11:22.96	61.08	64.09	-29.4	-30.4	14.3	0.00e+00	0	43	0	607125504	19	4055
2026-01-08 00:11:23.96	61.86	64.39	-29.2	-30.0	14.6	0.00e+00	0	43	0	608174080	19	3917
2026-01-08 00:11:24.97	62.67	64.69	-29.5	-30.7	14.1	1.88e-04	0	44	0	610271232	19	4144
2026-01-08 00:11:25.97	63.49	64.98	-29.6	-31.1	13.8	4.50e-06	0	44	0	612368384	19	4258
2026-01-08 00:11:26.98	64.35	65.27	-29.6	-30.9	14.0	7.00e-07	0	43	0	614465536	19	4188
2026-01-08 00:11:27.99	65.22	65.56	-29.2	-30.3	14.7	0.00e+00	0	44	0	616562688	18	4106
2026-01-08 00:11:29.00	66.12	65.85	-29.3	-30.7	14.5	1.50e-06	0	44	0	617611264	18	4217
2026-01-08 00:11:30.00	67.04	66.13	-29.5	-30.8	14.1	1.50e-06	0	43	0	619708416	19	4149
2026-01-08 00:11:31.01	67.98	66.40	-28.8	-29.4	15.3	0.00e+00	0	44	0	621805568	18	3848
2026-01-08 00:11:32.02	68.95	66.67	-29.1	-30.1	14.8	2.20e-06	0	44	0	623902720	18	4061
2026-01-08 00:11:33.01	69.93	66.93	-30.0	-31.9	13.4	0.00e+00	0	43	0	625999872	19	4508
2026-01-08 00:11:34.02	70.95	67.19	-30.4	-32.7	12.4	1.77e-03	0	44	0	627048448	20	4705
2026-01-08 00:11:35.02	71.98	67.44	-31.1	-33.9	11.0	1.40e-03	0	44	0	629145600	22	4941
2026-01-08 00:11:36.03	73.05	67.69	-31.1	-33.8	11.0	4.03e-03	0	43	0	631242752	22	4904
2026-01-08 00:11:37.04	74.15	67.93	-30.3	-31.8	12.7	1.89e-03	0	44	0	633339904	21	4286
2026-01-08 00:11:38.04	75.26	68.17	-30.2	-32.0	13.0	3.58e-05	0	44	0	635437056	20	4431
2026-01-08 00:11:39.05	76.41	68.39	-30.9	-33.4	11.8	2.21e-04	0	44	0	636485632	21	4837
2026-01-08 00:11:40.06	77.58	68.61	-31.2	-34.1	10.9	3.45e-03	0	44	0	638582784	22	5018
2026-01-08 00:11:41.05	78.76	68.82	-31.4	-34.8	10.5	3.18e-03	0	44	0	640679936	22	5321
2026-01-08 00:11:42.06	79.98	69.02	-31.3	-33.9	10.6	1.57e-03	0	44	0	642777088	23	4842
2026-01-08 00:11:43.07	81.23	69.22	-30.9	-33.2	11.5	1.42e-03	0	43	0	644874240	22	4663
2026-01-08 00:11:44.07	82.50	69.40	-31.1	-33.8	11.1	7.32e-04	0	44	0	645922816	22	4920
2026-01-08 00:11:45.07	83.78	69.58	-30.9	-33.1	11.6	1.44e-03	0	44	0	648019968	22	4660
2026-01-08 00:11:46.08	85.11	69.75	-30.5	-32.5	12.2	7.29e-04	0	44	0	650117120	21	4527
2026-01-08 00:11:47.08	86.44	69.90	-29.9	-31.2	13.5	1.78e-03	0	44	0	652214272	20	4199
2026-01-08 00:11:48.08	87.79	70.05	-29.9	-31.2	13.6	4.50e-06	0	44	0	654311424	20	4197
2026-01-08 00:11:49.09	89.18	70.19	-30.2	-32.1	13.0	4.42e-05	0	43	0	655360000	20	4473
2026-01-08 00:11:50.10	90.59	70.31	-29.8	-31.3	13.9	2.40e-03	0	44	0	657457152	19	4279
2026-01-08 00:11:51.11	92.02	70.43	-29.8	-31.3	13.8	1.85e-04	0	44	0	659554304	19	4297
2026-01-08 00:11:52.11	93.45	70.53	-29.6	-30.4	13.9	2.39e-03	0	43	0	661651456	20	3954
2026-01-08 00:11:53.12	94.90	70.63	-29.2	-29.9	14.8	0.00e+00	0	44	0	663748608	19	3891
2026-01-08 00:11:54.12	96.36	70.71	-28.9	-29.6	15.3	1.75e-04	0	43	0	664797184	18	3887
2026-01-08 00:11:55.13	97.85	70.77	-29.2	-30.2	14.9	2.03e-03	0	44	0	666894336	18	4063
2026-01-08 00:11:56.14	99.35	70.83	-29.6	-30.9	14.2	1.68e-04	0	43	0	668991488	19	4157
2026-01-08 00:11:57.14	100.84	70.88	-29.9	-31.6	13.7	2.20e-06	0	44	0	671088640	19	4398
2026-01-08 00:11:58.14	102.33	70.91	-30.3	-32.3	12.9	1.35e-03	0	43	0	673185792	20	4538
2026-01-08 00:11:59.15	103.85	70.93	-29.9	-31.6	13.6	1.54e-03	0	44	0	674234368	19	4395
2026-01-08 00:12:00.16	105.36	70.94	-30.2	-32.1	13.0	6.10e-06	0	43	0	676331520	20	4457
2026-01-08 00:12:01.16	106.87	70.93	-30.9	-33.7	11.5	2.07e-03	0	44	0	678428672	21	4959
2026-01-08 00:12:02.17	108.38	70.91	-30.8	-33.4	11.7	3.07e-03	0	44	0	680525824	21	4839
2026-01-08 00:12:03.17	109.88	70.88	-30.0	-31.6	13.2	4.57e-04	0	44	0	681574400	20	4292
2026-01-08 00:12:04.18	111.39	70.84	-29.8	-30.9	13.7	4.49e-04	0	44	0	683671552	20	4087
2026-01-08 00:12:05.19	112.89	70.79	-30.8	-33.2	11.9	9.96e-04	0	44	0	685768704	21	4758
2026-01-08 00:12:06.19	114.36	70.72	-30.9	-33.1	11.6	8.73e-04	0	44	0	687865856	22	4643
2026-01-08 00:12:07.20	115.84	70.64	-31.1	-33.7	11.2	2.13e-03	0	44	0	689963008	22	4839
2026-01-08 00:12:08.20	117.29	70.56	-31.0	-33.4	11.5	1.47e-03	0	44	0	692060160	22	4723
2026-01-08 00:12:09.20	118.72	70.46	-31.8	-35.5	9.5	5.13e-03	0	44	0	693108736	23	5543
2026-01-08 00:12:10.21	120.15	70.34	-31.6	-34.7	10.0	8.53e-03	0	43	0	695205888	23	5176
2026-01-08 00:12:11.22	121.57	70.22	-31.6	-34.7	10.1	3.51e-03	0	44	0	697303040	23	5177
2026-01-08 00:12:12.22	122.95	70.08	-32.0	-35.7	9.0	8.46e-03	0	43	0	699400192	24	5521
2026-01-08 00:12:13.22	124.31	69.94	-31.5	-34.3	10.4	1.56e-02	0	44	0	700448768	23	4992
2026-01-08 00:12:14.23	125.66	69.79	-30.5	-31.9	12.7	2.60e-04	0	43	0	702545920	22	4196
2026-01-08 00:12:15.23	126.97	69.62	-31.3	-34.4	10.8	5.63e-04	0	43	0	704643072	22	5124
2026-01-08 00:12:16.23	128.27	69.45	-31.5	-34.3	10.4	6.82e-03	0	44	0	706740224	23	4987
2026-01-08 00:12:17.24	129.55	69.26	-31.1	-33.7	11.3	1.25e-03	0	44	0	708837376	22	4825
2026-01-08 00:12:18.24	130.79	69.07	-31.0	-33.2	11.6	5.51e-04	0	44	0	709885952	22	4631
2026-01-08 00:12:19.25	132.03	68.87	-31.2	-34.0	11.1	4.13e-03	0	44	0	711983104	22	4966
2026-01-08 00:12:20.24	133.21	68.66	-30.8	-32.8	11.9	6.83e-04	0	44	0	714080256	22	4524
2026-01-08 00:12:21.25	134.39	68.45	-30.5	-31.9	12.4	3.26e-04	0	44	0	716177408	22	4207
2026-01-08 00:12:22.25	135.54	68.22	-31.3	-34.4	10.8	1.45e-03	0	44	0	718274560	22	5110
2026-01-08 00:12:23.26	136.67	67.99	-31.7	-35.3	9.6	9.71e-03	0	44	0	719323136	23	5425
2026-01-08 00:12:24.27	137.77	67.75	-30.9	-32.7	11.5	3.85e-03	0	44	0	721420288	23	4396
2026-01-08 00:12:25.27	138.84	67.51	-30.1	-31.2	13.2	9.75e-04	0	44	0	723517440	21	4104
2026-01-08 00:12:26.28	139.89	67.25	-30.0	-31.4	13.5	1.65e-03	0	44	0	725614592	20	4230
2026-01-08 00:12:27.28	140.91	67.00	-30.5	-32.3	12.6	1.30e-04	0	44	0	727711744	21	4430
2026-01-08 00:12:28.29	141.91	66.73	-31.0	-33.8	11.5	1.75e-04	0	44	0	728760320	21	4995
2026-01-08 00:12:29.30	142.89	66.46	-31.4	-34.1	10.6	5.20e-03	0	43	0	730857472	23	4928
2026-01-08 00:12:30.30	143.83	66.19	-30.2	-31.4	13.1	3.62e-04	0	44	0	732954624	21	4162
2026-01-08 00:12:31.31	144.76	65.91	-29.5	-30.1	14.3	2.20e-06	0	44	0	735051776	20	3855
2026-01-08 00:12:32.31	145.66	65.63	-29.1	-30.0	15.0	2.68e-04	0	43	0	737148928	18	4005
2026-01-08 00:12:33.32	146.54	65.34	-28.1	-28.6	16.4	0.00e+00	0	44	0	738197504	16	3814
2026-01-08 00:12:34.32	147.39	65.05	-28.1	-28.8	16.3	0.00e+00	0	44	0	740294656	16	3875
2026-01-08 00:12:35.33	148.23	64.75	-29.1	-30.1	15.0	1.73e-04	0	44	0	742391808	18	4048
2026-01-08 00:12:36.33	149.04	64.45	-29.9	-31.3	13.4	7.00e-07	0	44	0	744488960	20	4230
2026-01-08 00:12:37.34	149.83	64.15	-29.5	-30.9	14.1	3.80e-06	0	44	0	746586112	19	4192
2026-01-08 00:12:38.35	150.61	63.84	-28.9	-29.4	14.9	1.23e-04	0	44	0	747634688	19	3775
2026-01-08 00:12:39.35	151.35	63.54	-27.8	-27.7	16.5	3.05e-05	0	44	0	749731840	17	3532
2026-01-08 00:12:40.36	152.09	63.23	-27.6	-27.5	16.7	0.00e+00	0	44	0	751828992	16	3591
2026-01-08 00:12:41.36	152.80	62.92	-27.4	-27.7	16.8	0.00e+00	0	44	0	753926144	15	3738
2026-01-08 00:12:42.36	153.49	62.60	-27.4	-27.7	16.8	0.00e+00	0	44	0	756023296	15	3731
2026-01-08 00:12:43.36	154.16	62.29	-26.5	-26.2	17.9	7.00e-07	0	43	0	757071872	14	3468
2026-01-08 00:12:44.36	154.82	61.97	-26.1	-25.7	18.5	0.00e+00	0	44	0	759169024	13	3438
2026-01-08 00:12:45.35	155.45	61.65	-26.4	-26.5	18.0	0.00e+00	0	43	0	761266176	13	3629
2026-01-08 00:12:46.35	156.08	61.34	-26.8	-27.2	17.6	0.00e+00	0	44	0	763363328	13	3789
2026-01-08 00:12:47.35	156.69	61.01	-27.5	-28.1	16.7	1.66e-04	0	43	0	765460480	15	3835
2026-01-08 00:12:48.35	157.28	60.69	-28.2	-28.9	16.2	1.39e-04	0	44	0	766509056	16	3938
2026-01-08 00:12:49.36	157.86	60.36	-27.5	-27.2	17.0	0.00e+00	0	44	0	768606208	16	3510
2026-01-08 00:12:50.37	158.43	60.04	-26.5	-26.0	18.1	0.00e+00	0	43	0	770703360	14	3415
2026-01-08 00:12:51.36	158.97	59.72	-27.2	-27.6	17.2	0.00e+00	0	44	0	772800512	14	3791
2026-01-08 00:12:52.37	159.52	59.39	-28.2	-29.0	15.9	0.00e+00	0	44	0	773849088	16	3963
2026-01-08 00:12:53.37	160.04	59.06	-28.4	-29.4	15.7	0.00e+00	0	43	0	775946240	16	4074
2026-01-08 00:12:54.37	160.55	58.74	-28.1	-28.7	16.2	0.00e+00	0	44	0	778043392	16	3874
2026-01-08 00:12:55.38	161.05	58.41	-28.2	-28.9	16.0	0.00e+00	0	43	0	780140544	16	3935
2026-01-08 00:12:56.38	161.54	58.08	-28.5	-29.2	15.6	0.00e+00	0	44	0	782237696	17	3914
2026-01-08 00:12:57.39	162.01	57.75	-28.4	-29.6	14.5	0.00e+00	0	43	0	783286272	16	4118
2026-01-08 00:12:58.39	162.48	57.42	-29.0	-30.6	13.5	0.00e+00	0	44	0	785383424	17	4314
2026-01-08 00:12:59.40	162.93	57.09	-29.4	-30.7	14.0	2.20e-06	0	44	0	787480576	19	4163
2026-01-08 00:13:00.41	163.38	56.76	-28.6	-29.5	14.5	1.10e-03	0	44	0	789577728	17	4009
2026-01-08 00:13:01.41	163.81	56.44	-27.5	-28.1	16.4	0.00e+00	0	43	0	791674880	15	3823
2026-01-08 00:13:02.42	164.24	56.11	-27.0	-26.7	17.2	0.00e+00	0	44	0	792723456	15	3494
2026-01-08 00:13:03.42	164.65	55.78	-27.8	-28.6	16.2	0.00e+00	0	43	0	794820608	15	3976
2026-01-08 00:13:04.42	165.05	55.46	-28.8	-30.3	14.8	0.00e+00	0	43	0	796917760	17	4238
2026-01-08 00:13:05.42	165.44	55.13	-28.6	-29.7	15.1	0.00e+00	0	44	0	799014912	17	4077
2026-01-08 00:13:06.43	165.83	54.81	-27.8	-28.2	16.2	0.00e+00	0	44	0	801112064	16	3766
2026-01-08 00:13:07.44	166.21	54.48	-27.9	-28.4	16.2	2.43e-04	0	43	0	802160640	16	3809
2026-01-08 00:13:08.45	166.58	54.16	-28.8	-30.1	15.0	0.00e+00	0	43	0	804257792	17	4186
2026-01-08 00:13:09.45	166.94	53.84	-29.6	-31.3	13.5	1.50e-06	0	43	0	806354944	19	4358
2026-01-08 00:13:10.46	167.29	53.51	-29.8	-31.4	13.1	2.97e-05	0	43	0	808452096	20	4306
2026-01-08 00:13:11.46	167.64	53.20	-29.3	-30.5	14.1	3.80e-06	0	44	0	810549248	19	4119
2026-01-08 00:13:12.47	167.98	52.87	-29.2	-30.2	14.3	2.20e-06	0	43	0	811597824	19	4018
2026-01-08 00:13:13.48	168.31	52.55	-28.6	-29.0	15.3	0.00e+00	0	44	0	813694976	18	3777
2026-01-08 00:13:14.49	168.63	52.24	-28.4	-28.5	15.5	0.00e+00	0	43	0	815792128	18	3660
2026-01-08 00:13:15.49	168.95	51.92	-28.5	-28.8	15.4	0.00e+00	0	44	0	817889280	18	3736
2026-01-08 00:13:16.50	169.26	51.61	-28.7	-29.4	15.2	7.00e-07	0	44	0	819986432	18	3867
2026-01-08 00:13:17.51	169.57	51.29	-28.8	-29.5	15.1	0.00e+00	0	43	0	821035008	18	3908
2026-01-08 00:13:18.52	169.87	50.98	-29.5	-30.9	14.0	0.00e+00	0	43	0	823132160	19	4213
2026-01-08 00:13:19.52	170.16	50.67	-30.0	-31.8	12.8	1.60e-05	0	43	0	825229312	20	4427
2026-01-08 00:13:20.52	170.44	50.36	-29.9	-31.3	13.3	2.13e-05	0	44	0	827326464	20	4267
2026-01-08 00:13:21.53	170.72	50.05	-29.8	-31.2	13.4	2.44e-05	0	43	0	829423616	20	4205
2026-01-08 00:13:22.53	170.99	49.74	-30.4	-32.7	12.4	3.50e-05	0	44	0	830472192	20	4696
2026-01-08 00:13:23.54	171.27	49.44	-31.0	-34.1	11.1	5.45e-04	0	43	0	832569344	21	5134
2026-01-08 00:13:24.55	171.53	49.13	-31.5	-35.3	9.9	3.89e-03	0	44	0	834666496	22	5560
2026-01-08 00:13:25.56	171.79	48.83	-31.8	-36.0	9.0	1.74e-02	0	44	0	836763648	23	5838
2026-01-08 00:13:26.56	172.04	48.53	-31.9	-36.2	8.8	2.44e-02	0	44	0	838860800	23	5953
2026-01-08 00:13:27.57	172.29	48.23	-31.9	-35.9	8.5	3.86e-02	0	44	0	839909376	24	5702
2026-01-08 00:13:28.58	172.54	47.93	-31.8	-35.5	8.7	4.03e-02	0	44	0	842006528	24	5523
2026-01-08 00:13:29.58	172.78	47.63	-31.7	-35.1	9.2	2.27e-02	0	44	0	844103680	24	5317
2026-01-08 00:13:30.59	173.01	47.33	-31.9	-35.7	8.9	3.36e-02	0	44	0	846200832	24	5576
2026-01-08 00:13:31.59	173.24	47.04	-32.2	-37.0	7.7	5.58e-02	0	43	0	848297984	24	6268
2026-01-08 00:13:32.60	173.47	46.75	-31.9	-35.6	8.9	8.28e-02	0	44	0	849346560	24	5511
2026-01-08 00:13:33.59	173.69	46.46	-31.1	-33.4	10.8	1.28e-02	0	44	0	851443712	23	4680
2026-01-08 00:13:34.60	173.91	46.17	-31.0	-33.2	10.9	2.17e-03	0	44	0	853540864	23	4610
2026-01-08 00:13:35.61	174.13	45.88	-31.4	-34.6	10.0	4.27e-03	0	43	0	855638016	23	5175
2026-01-08 00:13:36.61	174.34	45.60	-31.4	-34.6	10.0	1.59e-02	0	44	0	857735168	23	5157
2026-01-08 00:13:37.62	174.55	45.31	-31.0	-33.0	11.1	1.79e-03	0	44	0	858783744	23	4555
2026-01-08 00:13:38.63	174.75	45.03	-30.8	-32.9	11.7	4.50e-04	0	44	0	860880896	22	4596
2026-01-08 00:13:39.64	174.95	44.75	-30.6	-32.3	12.0	7.52e-04	0	44	0	862978048	22	4368
2026-01-08 00:13:40.64	175.15	44.47	-31.0	-33.4	11.3	1.07e-03	0	44	0	865075200	22	4774
2026-01-08 00:13:41.65	175.34	44.19	-31.3	-34.8	10.2	4.38e-03	0	44	0	867172352	22	5381
2026-01-08 00:13:42.65	175.53	43.92	-31.7	-35.0	9.9	5.73e-03	0	44	0	868220928	23	5255
2026-01-08 00:13:43.66	175.72	43.64	-31.8	-35.6	9.4	1.11e-02	0	44	0	870318080	23	5550
2026-01-08 00:13:44.67	175.90	43.37	-32.2	-36.4	8.4	1.85e-02	0	43	0	872415232	24	5882
2026-01-08 00:13:45.67	176.08	43.10	-31.8	-34.9	9.3	3.76e-02	0	44	0	874512384	24	5158
2026-01-08 00:13:46.68	176.26	42.83	-31.1	-33.1	11.2	9.57e-03	0	43	0	876609536	23	4543
2026-01-08 00:13:47.68	176.44	42.56	-30.6	-32.2	12.2	4.13e-04	0	44	0	877658112	22	4292
2026-01-08 00:13:48.69	176.61	42.29	-29.8	-30.3	13.7	3.66e-05	0	44	0	879755264	21	3835
2026-01-08 00:13:49.69	176.78	42.03	-28.8	-28.9	15.4	7.00e-07	0	44	0	881852416	19	3612
2026-01-08 00:13:50.70	176.95	41.76	-28.5	-28.7	15.8	6.10e-06	0	44	0	883949568	18	3650
2026-01-08 00:13:51.70	177.11	41.50	-28.4	-28.8	15.9	0.00e+00	0	43	0	886046720	17	3776
2026-01-08 00:13:52.71	177.27	41.24	-28.7	-29.6	15.5	0.00e+00	0	44	0	887095296	17	3995
2026-01-08 00:13:53.72	177.43	40.98	-29.2	-30.4	14.7	0.00e+00	0	44	0	889192448	18	4116
2026-01-08 00:13:54.73	177.59	40.73	-29.9	-31.6	13.7	4.50e-06	0	44	0	891289600	19	4396
2026-01-08 00:13:55.73	177.74	40.47	-29.8	-31.0	13.6	1.37e-05	0	44	0	893386752	20	4115
2026-01-08 00:13:56.74	177.90	40.22	-29.9	-31.1	13.5	6.10e-06	0	44	0	895483904	20	4153
2026-01-08 00:13:57.75	178.05	39.96	-29.4	-30.0	14.2	4.50e-06	0	44	0	896532480	20	3832
2026-01-08 00:13:58.76	178.20	39.71	-28.5	-28.6	15.7	9.00e-05	0	44	0	898629632	18	3635
2026-01-08 00:13:59.76	178.34	39.47	-28.4	-28.3	15.9	0.00e+00	0	43	0	900726784	18	3555
2026-01-08 00:14:00.77	178.48	39.22	-28.6	-29.2	15.6	0.00e+00	0	44	0	902823936	17	3895
2026-01-08 00:14:01.78	178.63	38.97	-28.9	-30.0	15.2	6.48e-05	0	43	0	904921088	17	4110
2026-01-08 00:14:02.79	178.76	38.73	-29.7	-31.1	13.9	0.00e+00	0	44	0	905969664	19	4234
2026-01-08 00:14:03.79	178.90	38.48	-30.2	-32.0	13.0	3.43e-05	0	44	0	908066816	20	4417
2026-01-08 00:14:04.79	179.04	38.25	-30.6	-32.6	12.1	4.53e-04	0	44	0	910163968	21	4544
2026-01-08 00:14:05.80	179.17	38.00	-30.4	-32.2	12.5	2.43e-04	0	44	0	912261120	21	4394
2026-01-08 00:14:06.80	179.30	37.77	-30.5	-32.3	12.4	1.27e-03	0	44	0	914358272	21	4449
2026-01-08 00:14:07.81	179.43	37.53	-30.0	-31.4	13.3	1.29e-04	0	44	0	915406848	20	4249
2026-01-08 00:14:08.82	179.56	37.30	-29.8	-30.9	13.6	1.33e-04	0	44	0	917504000	20	4106
2026-01-08 00:14:09.83	179.68	37.06	-29.9	-31.6	13.5	9.90e-06	0	44	0	919601152	19	4403
2026-01-08 00:14:10.83	179.81	36.83	-29.6	-30.8	14.0	1.27e-04	0	44	0	921698304	19	4156
2026-01-08 00:14:11.84	179.93	36.60	-29.7	-31.1	13.9	8.46e-05	0	43	0	923795456	19	4227
2026-01-08 00:14:12.85	180.05	36.37	-29.9	-31.8	13.5	6.80e-06	0	44	0	924844032	19	4447
2026-01-08 00:14:13.85	180.17	36.14	-30.0	-31.6	13.1	3.28e-05	0	43	0	926941184	20	4302
2026-01-08 00:14:14.86	180.29	35.92	-29.9	-31.2	13.4	1.29e-04	0	44	0	929038336	20	4180
2026-01-08 00:14:15.87	180.40	35.69	-30.3	-32.4	12.7	1.83e-05	0	43	0	931135488	20	4560
2026-01-08 00:14:16.88	180.52	35.47	-30.2	-32.0	12.9	2.42e-04	0	43	0	933232640	20	4419
2026-01-08 00:14:17.88	180.63	35.25	-30.5	-32.7	12.2	1.75e-04	0	44	0	934281216	20	4682
2026-01-08 00:14:18.89	180.74	35.03	-30.9	-33.6	11.4	2.50e-04	0	44	0	936378368	21	4899
2026-01-08 00:14:19.89	180.85	34.81	-31.2	-34.1	10.8	1.29e-03	0	44	0	938475520	22	5018
2026-01-08 00:14:20.90	180.96	34.59	-31.7	-35.2	9.6	6.72e-03	0	44	0	940572672	23	5400
2026-01-08 00:14:21.91	181.07	34.37	-32.1	-36.3	8.3	3.30e-02	0	44	0	942669824	24	5850
2026-01-08 00:14:22.91	181.18	34.16	-32.1	-36.5	8.2	4.92e-02	0	44	0	943718400	24	5962
2026-01-08 00:14:23.92	181.28	33.95	-32.2	-36.7	8.0	6.92e-02	0	44	0	945815552	24	6082
2026-01-08 00:14:24.93	181.38	33.73	-32.0	-36.5	8.7	5.02e-02	0	44	0	947912704	23	6034
2026-01-08 00:14:25.93	181.49	33.52	-31.8	-35.1	9.2	2.96e-02	0	44	0	950009856	24	5299
2026-01-08 00:14:26.94	181.59	33.31	-31.3	-34.3	10.5	6.47e-03	0	44	0	952107008	22	5085
2026-01-08 00:14:27.95	181.69	33.10	-31.2	-34.2	10.7	3.13e-03	0	44	0	953155584	22	5056
2026-01-08 00:14:28.95	181.78	32.90	-31.0	-33.5	11.2	2.59e-03	0	44	0	955252736	22	4772
2026-01-08 00:14:29.96	181.88	32.69	-30.9	-33.8	11.3	1.01e-03	0	44	0	957349888	21	4984
2026-01-08 00:14:30.96	181.98	32.49	-30.8	-33.3	11.7	2.08e-03	0	44	0	959447040	21	4789
2026-01-08 00:14:31.97	182.07	32.29	-30.5	-32.4	12.3	6.58e-04	0	44	0	961544192	21	4479
2026-01-08 00:14:32.97	182.17	32.09	-30.5	-32.4	12.3	2.90e-04	0	44	0	962592768	21	4468
2026-01-08 00:14:33.97	182.26	31.89	-30.6	-32.7	12.1	7.00e-04	0	44	0	964689920	21	4573
2026-01-08 00:14:34.98	182.35	31.69	-30.6	-32.8	12.0	3.66e-04	0	44	0	966787072	21	4604
2026-01-08 00:14:35.98	182.44	31.49	-31.1	-33.6	11.0	1.12e-03	0	44	0	968884224	22	4842
2026-01-08 00:14:36.99	182.53	31.30	-31.3	-34.4	10.5	2.59e-03	0	44	0	970981376	22	5163
2026-01-08 00:14:38.00	182.62	31.10	-31.8	-35.5	9.3	1.05e-02	0	44	0	972029952	23	5542
2026-01-08 00:14:39.00	182.70	30.91	-31.5	-34.5	10.0	1.13e-02	0	44	0	974127104	23	5116
2026-01-08 00:14:40.01	182.79	30.71	-31.5	-34.7	9.8	7.86e-03	0	44	0	976224256	23	5172
2026-01-08 00:14:41.02	182.88	30.52	-31.3	-34.1	10.4	6.19e-03	0	44	0	978321408	23	4928
2026-01-08 00:14:42.03	182.96	30.33	-31.4	-35.0	10.0	7.03e-03	0	44	0	980418560	22	5393
2026-01-08 00:14:43.03	183.05	30.14	-31.3	-33.8	10.4	8.31e-03	0	44	0	981467136	23	4844
2026-01-08 00:14:44.04	183.13	29.95	-31.1	-33.8	10.8	2.06e-03	0	44	0	983564288	22	4925
2026-01-08 00:14:45.05	183.21	29.77	-31.1	-33.7	10.9	2.57e-03	0	44	0	985661440	22	4854
2026-01-08 00:14:46.05	183.29	29.58	-31.0	-33.5	11.1	4.05e-03	0	44	0	987758592	22	4785
2026-01-08 00:14:47.05	183.37	29.40	-30.7	-33.2	11.6	9.92e-04	0	44	0	989855744	21	4769
2026-01-08 00:14:48.06	183.45	29.22	-30.6	-32.8	11.8	2.27e-03	0	44	0	990904320	21	4647
2026-01-08 00:14:49.06	183.53	29.03	-30.5	-32.5	12.0	2.04e-03	0	44	0	993001472	21	4527
2026-01-08 00:14:50.06	183.60	28.85	-30.5	-32.3	12.2	2.73e-04	0	44	0	995098624	21	4471
2026-01-08 00:14:51.07	183.68	28.67	-30.1	-31.9	12.8	2.11e-03	0	44	0	997195776	20	4420
2026-01-08 00:14:52.07	183.76	28.50	-30.0	-31.6	13.1	2.03e-03	0	44	0	998244352	20	4305
2026-01-08 00:14:53.08	183.83	28.32	-29.5	-30.3	13.8	4.88e-05	0	44	0	1000341504	20	3934
2026-01-08 00:14:54.09	183.91	28.14	-29.9	-31.7	13.3	2.00e-03	0	44	0	1002438656	19	4441
2026-01-08 00:14:55.10	183.98	27.96	-29.9	-31.8	13.3	2.21e-03	0	44	0	1004535808	19	4457
2026-01-08 00:14:56.10	184.05	27.79	-29.7	-31.2	13.7	1.17e-04	0	44	0	1006632960	19	4274
2026-01-08 00:14:57.11	184.12	27.62	-29.8	-31.5	13.5	7.60e-06	0	44	0	1008730112	19	4377
2026-01-08 00:14:58.12	184.19	27.44	-29.7	-31.3	13.6	2.26e-03	0	44	0	1009778688	19	4311
2026-01-08 00:14:59.12	184.26	27.27	-29.7	-31.3	13.6	1.42e-04	0	44	0	1011875840	19	4308
2026-01-08 00:15:00.13	184.33	27.10	-29.9	-31.8	13.2	1.52e-05	0	44	0	1013972992	19	4456
2026-01-08 00:15:01.14	184.40	26.93	-29.6	-31.0	13.7	2.11e-03	0	44	0	1016070144	19	4207
2026-01-08 00:15:02.14	184.47	26.77	-29.5	-30.7	13.9	1.45e-04	0	44	0	1018167296	19	4124
2026-01-08 00:15:03.15	184.54	26.60	-29.4	-31.0	14.1	2.05e-03	0	43	0	1019215872	18	4307
2026-01-08 00:15:04.15	184.61	26.43	-29.4	-31.0	14.1	0.00e+00	0	44	0	1021313024	18	4307
2026-01-08 00:15:05.16	184.67	26.27	-29.4	-30.9	14.1	5.11e-05	0	44	0	1023410176	18	4305
2026-01-08 00:15:06.16	184.74	26.10	-29.2	-30.5	14.3	2.26e-03	0	44	0	1025507328	18	4153
2026-01-08 00:15:07.17	184.80	25.94	-29.2	-30.4	14.4	2.81e-04	0	44	0	1026555904	18	4148
2026-01-08 00:15:08.17	184.87	25.78	-29.1	-30.2	14.6	0.00e+00	0	44	0	1028653056	18	4071
2026-01-08 00:15:09.17	184.93	25.62	-29.3	-30.7	14.2	2.17e-03	0	44	0	1030750208	18	4230
2026-01-08 00:15:10.18	184.99	25.46	-29.3	-30.7	14.3	2.53e-04	0	44	0	1032847360	18	4215
2026-01-08 00:15:11.19	185.06	25.30	-28.7	-29.2	15.1	0.00e+00	0	44	0	1034944512	18	3806
2026-01-08 00:15:12.20	185.12	25.14	-28.5	-29.2	15.4	1.97e-03	0	44	0	1037041664	17	3901
2026-01-08 00:15:13.21	185.18	24.98	-28.3	-29.2	15.7	1.90e-03	0	44	0	1038090240	16	3984
2026-01-08 00:15:14.21	185.24	24.82	-28.1	-28.7	15.9	2.70e-04	0	44	0	1040187392	16	3857
2026-01-08 00:15:15.22	185.30	24.67	-28.1	-28.7	16.0	0.00e+00	0	44	0	1042284544	16	3867
2026-01-08 00:15:16.23	185.36	24.51	-28.2	-29.0	15.9	1.81e-03	0	44	0	1044381696	16	3932
2026-01-08 00:15:17.23	185.42	24.36	-28.1	-28.6	16.0	2.13e-04	0	44	0	1046478848	16	3843
2026-01-08 00:15:18.24	185.48	24.20	-27.8	-28.5	16.2	0.00e+00	0	44	0	1047527424	15	3908
2026-01-08 00:15:19.24	185.54	24.05	-28.1	-28.7	16.0	1.74e-03	0	44	0	1049624576	16	3863
2026-01-08 00:15:20.24	185.59	23.90	-28.2	-28.9	15.9	2.59e-04	0	44	0	1051721728	16	3914
2026-01-08 00:15:21.25	185.65	23.75	-28.0	-28.5	16.1	0.00e+00	0	44	0	1053818880	16	3817
2026-01-08 00:15:22.26	185.71	23.60	-27.9	-28.9	16.0	0.00e+00	0	44	0	1054867456	15	4024
2026-01-08 00:15:23.26	185.76	23.45	-28.1	-28.7	15.9	2.41e-04	0	44	0	1056964608	16	3872
2026-01-08 00:15:24.27	185.82	23.30	-27.9	-28.8	16.0	0.00e+00	0	44	0	1059061760	15	3987
2026-01-08 00:15:25.27	185.87	23.16	-28.3	-29.2	15.7	1.94e-04	0	44	0	1061158912	16	3988
2026-01-08 00:15:26.28	185.93	23.01	-28.3	-29.2	15.7	0.00e+00	0	44	0	1063256064	16	3993
2026-01-08 00:15:27.29	185.98	22.86	-28.3	-29.3	15.6	0.00e+00	0	44	0	1065353216	16	4034
2026-01-08 00:15:28.30	186.04	22.72	-28.4	-29.5	15.5	2.30e-04	0	44	0	1066401792	16	4091
2026-01-08 00:15:29.30	186.09	22.57	-28.5	-29.6	15.4	1.35e-04	0	44	0	1068498944	16	4117
2026-01-08 00:15:30.31	186.14	22.43	-28.5	-29.3	15.3	0.00e+00	0	44	0	1070596096	17	3929
2026-01-08 00:15:31.31	186.19	22.29	-28.6	-29.5	15.2	2.07e-04	0	44	0	1072693248	17	3982
2026-01-08 00:15:32.32	186.25	22.14	-28.7	-29.6	15.1	2.30e-04	0	44	0	1073741824	17	4030
2026-01-08 00:15:33.33	186.30	22.00	-28.8	-29.9	14.9	0.00e+00	0	44	0	1075838976	17	4097
2026-01-08 00:15:34.32	186.35	21.87	-29.1	-30.1	14.5	2.25e-04	0	44	0	1077936128	18	4060
2026-01-08 00:15:35.33	186.40	21.73	-29.0	-30.0	14.6	2.08e-04	0	44	0	1080033280	18	4041
2026-01-08 00:15:36.34	186.45	21.59	-29.1	-30.3	14.3	0.00e+00	0	44	0	1082130432	18	4128
2026-01-08 00:15:37.35	186.50	21.45	-28.5	-30.0	13.9	1.82e-04	0	43	0	1083179008	18	4266
2026-01-08 00:15:38.36	186.55	21.31	-29.1	-30.8	13.7	2.01e-04	0	43	0	1085276160	17	4354
2026-01-08 00:15:39.36	186.60	21.17	-29.1	-30.2	13.7	0.00e+00	0	44	0	1087373312	18	4092
2026-01-08 00:15:40.37	186.65	21.04	-29.1	-30.3	14.0	2.09e-04	0	44	0	1089470464	18	4118
2026-01-08 00:15:41.37	186.69	20.90	-29.0	-30.5	13.9	1.55e-04	0	43	0	1091567616	17	4272
2026-01-08 00:15:42.37	186.74	20.77	-28.9	-30.3	14.4	0.00e+00	0	44	0	1092616192	17	4212
2026-01-08 00:15:43.38	186.79	20.63	-28.8	-30.0	14.8	2.80e-04	0	44	0	1094713344	17	4119
2026-01-08 00:15:44.39	186.84	20.50	-28.9	-30.2	14.7	2.14e-04	0	44	0	1096810496	17	4186
2026-01-08 00:15:45.39	186.88	20.37	-28.8	-30.1	14.7	7.00e-07	0	44	0	1098907648	17	4165
2026-01-08 00:15:46.40	186.93	20.24	-28.8	-29.9	14.9	2.15e-04	0	44	0	1101004800	17	4091
2026-01-08 00:15:47.40	186.97	20.11	-28.9	-30.3	14.6	1.38e-03	0	44	0	1102053376	17	4216
2026-01-08 00:15:48.41	187.02	19.98	-28.8	-30.0	14.8	0.00e+00	0	44	0	1104150528	17	4123
2026-01-08 00:15:49.42	187.07	19.85	-28.8	-30.0	14.8	1.98e-04	0	44	0	1106247680	17	4141
2026-01-08 00:15:50.43	187.11	19.72	-28.7	-29.8	14.9	9.54e-04	0	44	0	1108344832	17	4083
2026-01-08 00:15:51.43	187.15	19.59	-28.6	-29.5	15.0	0.00e+00	0	44	0	1110441984	17	4006
2026-01-08 00:15:52.44	187.20	19.46	-28.7	-29.9	14.8	2.14e-04	0	44	0	1111490560	17	4100
2026-01-08 00:15:53.44	187.24	19.33	-28.5	-29.3	15.2	4.69e-04	0	44	0	1113587712	17	3936
2026-01-08 00:15:54.44	187.28	19.21	-28.5	-29.4	15.1	4.14e-04	0	44	0	1115684864	17	3975
2026-01-08 00:15:55.45	187.33	19.08	-28.7	-29.7	15.0	1.61e-04	0	44	0	1117782016	17	4044
2026-01-08 00:15:56.46	187.37	18.96	-28.6	-29.5	15.1	1.94e-04	0	44	0	1119879168	17	3988
2026-01-08 00:15:57.47	187.41	18.83	-28.6	-29.6	15.0	1.15e-04	0	44	0	1120927744	17	4035
2026-01-08 00:15:58.47	187.46	18.71	-28.8	-30.1	14.7	3.25e-04	0	44	0	1123024896	17	4163
2026-01-08 00:15:59.48	187.50	18.58	-28.7	-29.8	14.9	1.50e-04	0	44	0	1125122048	17	4079
2026-01-08 00:16:00.49	187.54	18.46	-28.8	-30.0	14.7	7.09e-05	0	44	0	1127219200	17	4127
2026-01-08 00:16:01.50	187.58	18.34	-28.7	-29.7	14.8	1.18e-04	0	44	0	1129316352	17	4065
2026-01-08 00:16:02.50	187.62	18.22	-28.8	-30.0	14.7	1.69e-04	0	43	0	1130364928	17	4150
2026-01-08 00:16:03.51	187.66	18.10	-28.7	-29.7	14.9	5.18e-05	0	44	0	1132462080	17	4038
2026-01-08 00:16:04.51	187.70	17.98	-28.8	-30.0	14.8	1.13e-04	0	44	0	1134559232	17	4124
2026-01-08 00:16:05.52	187.74	17.86	-29.0	-30.0	14.5	4.88e-05	0	44	0	1136656384	18	4044
2026-01-08 00:16:06.52	187.78	17.74	-28.9	-29.8	14.6	0.00e+00	0	44	0	1138753536	18	3984
2026-01-08 00:16:07.52	187.82	17.62	-28.8	-29.9	14.7	1.28e-04	0	44	0	1139802112	17	4124
2026-01-08 00:16:08.53	187.86	17.50	-29.1	-30.2	14.3	1.83e-05	0	43	0	1141899264	18	4088
2026-01-08 00:16:09.53	187.90	17.38	-29.1	-30.2	14.3	2.82e-05	0	44	0	1143996416	18	4086
2026-01-08 00:16:10.54	187.94	17.27	-29.1	-30.3	14.2	1.20e-04	0	44	0	1146093568	18	4143
2026-01-08 00:16:11.55	187.98	17.15	-29.4	-31.0	13.8	2.36e-05	0	44	0	1148190720	18	4340
2026-01-08 00:16:12.56	188.01	17.03	-29.5	-30.9	13.5	3.43e-05	0	44	0	1149239296	19	4225
2026-01-08 00:16:13.56	188.05	16.92	-29.6	-31.1	13.4	1.22e-04	0	44	0	1151336448	19	4269
2026-01-08 00:16:14.56	188.09	16.80	-29.7	-31.3	13.3	2.13e-05	0	43	0	1153433600	19	4334
2026-01-08 00:16:15.57	188.13	16.69	-29.8	-31.7	13.1	4.88e-05	0	44	0	1155530752	19	4473
2026-01-08 00:16:16.58	188.16	16.57	-29.7	-31.5	13.1	2.89e-04	0	44	0	1157627904	19	4404
2026-01-08 00:16:17.59	188.20	16.46	-29.5	-31.0	13.5	2.44e-05	0	44	0	1158676480	19	4243
2026-01-08 00:16:18.59	188.24	16.35	-29.6	-31.1	13.3	3.89e-05	0	44	0	1160773632	19	4291
2026-01-08 00:16:19.60	188.27	16.24	-29.7	-31.3	13.3	1.18e-04	0	44	0	1162870784	19	4337
2026-01-08 00:16:20.60	188.31	16.13	-29.5	-30.8	13.6	8.30e-06	0	43	0	1164967936	19	4182
2026-01-08 00:16:21.61	188.34	16.01	-29.5	-31.0	13.5	2.36e-05	0	44	0	1167065088	19	4248
2026-01-08 00:16:22.62	188.38	15.90	-29.5	-30.9	13.5	1.36e-04	0	44	0	1168113664	19	4220
2026-01-08 00:16:23.62	188.42	15.79	-29.5	-30.8	13.5	6.80e-06	0	44	0	1170210816	19	4193
2026-01-08 00:16:24.63	188.45	15.68	-29.6	-31.3	13.2	3.28e-05	0	44	0	1172307968	19	4343
2026-01-08 00:16:25.63	188.48	15.57	-29.0	-30.6	13.1	1.06e-04	0	44	0	1174405120	19	4338
2026-01-08 00:16:26.63	188.52	15.47	-29.6	-31.1	13.4	1.52e-05	0	44	0	1176502272	19	4274
2026-01-08 00:16:27.64	188.55	15.36	-29.7	-31.3	13.1	1.60e-05	0	43	0	1177550848	19	4365
2026-01-08 00:16:28.64	188.59	15.25	-29.7	-31.4	12.9	1.18e-04	0	44	0	1179648000	19	4375
2026-01-08 00:16:29.65	188.62	15.14	-29.7	-31.3	13.2	2.06e-04	0	44	0	1181745152	19	4364
2026-01-08 00:16:30.65	188.66	15.04	-29.6	-31.2	13.1	1.14e-05	0	44	0	1183842304	19	4309
2026-01-08 00:16:31.66	188.69	14.93	-29.7	-31.4	13.0	3.66e-05	0	43	0	1185939456	19	4380
2026-01-08 00:16:32.67	188.72	14.82	-29.6	-31.2	13.1	3.77e-04	0	44	0	1186988032	19	4337
2026-01-08 00:16:33.67	188.76	14.72	-29.7	-31.5	13.1	2.20e-04	0	43	0	1189085184	19	4413
2026-01-08 00:16:34.68	188.79	14.61	-29.7	-31.6	13.0	4.50e-05	0	44	0	1191182336	19	4442
2026-01-08 00:16:35.69	188.82	14.51	-29.8	-31.8	12.8	5.43e-04	0	44	0	1193279488	19	4530
2026-01-08 00:16:36.69	188.85	14.40	-29.8	-31.7	12.9	2.89e-04	0	44	0	1195376640	19	4481
2026-01-08 00:16:37.70	188.89	14.30	-29.8	-31.8	12.8	5.34e-05	0	44	0	1196425216	19	4525
2026-01-08 00:16:38.71	188.92	14.19	-29.9	-31.9	12.8	5.79e-05	0	44	0	1198522368	19	4546
2026-01-08 00:16:39.71	188.95	14.09	-29.9	-32.1	12.6	1.12e-03	0	44	0	1200619520	19	4625
2026-01-08 00:16:40.72	188.98	13.99	-30.0	-31.9	12.3	3.67e-04	0	44	0	1202716672	20	4467
2026-01-08 00:16:41.73	189.01	13.89	-30.2	-32.5	11.9	3.18e-04	0	44	0	1204813824	20	4679
2026-01-08 00:16:42.73	189.04	13.79	-30.1	-32.2	12.1	1.60e-03	0	44	0	1205862400	20	4579
2026-01-08 00:16:43.74	189.07	13.68	-30.1	-32.2	12.1	5.13e-04	0	44	0	1207959552	20	4581
2026-01-08 00:16:44.75	189.11	13.58	-29.9	-31.7	12.5	1.75e-04	0	44	0	1210056704	20	4409
2026-01-08 00:16:45.75	189.14	13.48	-30.0	-32.2	12.5	1.07e-04	0	44	0	1212153856	19	4659
2026-01-08 00:16:46.76	189.17	13.38	-30.0	-31.9	12.3	4.13e-04	0	44	0	1214251008	20	4480
2026-01-08 00:16:47.77	189.20	13.28	-29.9	-31.7	12.4	1.65e-04	0	44	0	1215299584	20	4411
2026-01-08 00:16:48.77	189.23	13.18	-30.1	-32.1	12.1	2.01e-04	0	44	0	1217396736	20	4566
2026-01-08 00:16:49.77	189.26	13.09	-30.2	-32.4	11.9	4.36e-04	0	43	0	1219493888	20	4669
2026-01-08 00:16:50.78	189.29	12.99	-30.0	-32.1	12.2	2.63e-04	0	44	0	1221591040	20	4537
2026-01-08 00:16:51.79	189.32	12.89	-30.0	-32.0	12.1	3.78e-04	0	43	0	1223688192	20	4517
2026-01-08 00:16:52.79	189.35	12.79	-30.1	-32.1	12.1	2.44e-04	0	44	0	1224736768	20	4565
2026-01-08 00:16:53.79	189.37	12.70	-30.0	-32.0	12.2	2.56e-04	0	44	0	1226833920	20	4521
2026-01-08 00:16:54.80	189.40	12.60	-30.0	-32.0	12.1	3.76e-04	0	44	0	1228931072	20	4539
2026-01-08 00:16:55.81	189.43	12.50	-30.0	-32.0	12.1	3.11e-04	0	44	0	1231028224	20	4512
2026-01-08 00:16:56.82	189.46	12.40	-30.1	-32.2	12.0	3.16e-04	0	44	0	1233125376	20	4585
2026-01-08 00:16:57.82	189.49	12.31	-30.0	-32.1	12.1	4.30e-04	0	44	0	1234173952	20	4548
2026-01-08 00:16:58.83	189.52	12.21	-30.2	-32.5	11.8	4.20e-04	0	44	0	1236271104	20	4682
2026-01-08 00:16:59.83	189.55	12.12	-30.2	-32.5	11.7	5.13e-04	0	44	0	1238368256	20	4712
2026-01-08 00:17:00.83	189.57	12.03	-30.2	-32.6	11.6	6.41e-04	0	44	0	1240465408	20	4727
2026-01-08 00:17:01.84	189.60	11.93	-30.2	-32.5	11.7	5.87e-04	0	44	0	1242562560	20	4717
2026-01-08 00:17:02.84	189.63	11.84	-30.4	-33.1	11.3	8.97e-04	0	44	0	1243611136	20	4949
2026-01-08 00:17:03.85	189.66	11.74	-30.3	-33.0	11.4	1.25e-03	0	44	0	1245708288	20	4908
2026-01-08 00:17:04.86	189.69	11.65	-30.4	-33.3	11.2	9.92e-04	0	44	0	1247805440	20	5004
2026-01-08 00:17:05.86	189.71	11.56	-30.4	-33.1	11.3	1.45e-03	0	44	0	1249902592	20	4922
2026-01-08 00:17:06.86	189.74	11.47	-30.3	-33.0	11.3	1.14e-03	0	44	0	1251999744	20	4910
2026-01-08 00:17:07.87	189.77	11.37	-30.3	-32.9	11.4	1.09e-03	0	44	0	1253048320	20	4870
2026-01-08 00:17:08.88	189.79	11.28	-30.4	-32.9	11.1	1.24e-03	0	44	0	1255145472	21	4751
2026-01-08 00:17:09.88	189.82	11.19	-30.7	-33.7	10.6	3.45e-03	0	44	0	1257242624	21	5068
2026-01-08 00:17:10.89	189.85	11.10	-30.5	-33.1	10.9	5.96e-03	0	44	0	1259339776	21	4833
2026-01-08 00:17:11.89	189.87	11.01	-30.2	-32.8	11.5	1.46e-03	0	44	0	1261436928	20	4806
2026-01-08 00:17:12.90	189.90	10.92	-30.0	-32.1	11.9	5.86e-04	0	44	0	1262485504	20	4581
2026-01-08 00:17:13.91	189.93	10.83	-30.0	-31.9	12.0	2.06e-03	0	44	0	1264582656	20	4518
2026-01-08 00:17:14.91	189.95	10.74	-29.8	-31.8	12.5	1.07e-04	0	44	0	1266679808	19	4567
2026-01-08 00:17:15.91	189.98	10.65	-29.9	-32.3	12.2	2.49e-04	0	44	0	1268776960	19	4740
2026-01-08 00:17:16.92	190.00	10.56	-29.9	-32.2	12.3	1.89e-03	0	44	0	1269825536	19	4688
2026-01-08 00:17:17.93	190.03	10.47	-29.9	-32.3	12.2	1.95e-03	0	44	0	1271922688	19	4744
2026-01-08 00:17:18.94	190.05	10.38	-29.9	-31.8	12.1	3.50e-04	0	44	0	1274019840	20	4468
2026-01-08 00:17:19.94	190.08	10.29	-30.0	-32.4	12.1	2.07e-03	0	44	0	1276116992	19	4774
2026-01-08 00:17:20.95	190.10	10.20	-29.9	-32.3	12.2	2.02e-03	0	44	0	1278214144	19	4727
2026-01-08 00:17:21.95	190.13	10.12	-29.9	-32.2	12.2	3.42e-04	0	43	0	1280311296	19	4696
2026-01-08 00:17:22.96	190.15	10.03	-29.8	-32.0	12.3	1.77e-04	0	44	0	1281359872	19	4641
2026-01-08 00:17:23.97	190.18	9.94	-29.9	-32.3	12.2	1.88e-03	0	44	0	1283457024	19	4711
2026-01-08 00:17:24.97	190.20	9.86	-29.6	-31.5	12.7	2.48e-04	0	44	0	1285554176	19	4448
2026-01-08 00:17:25.98	190.23	9.77	-29.6	-31.4	12.7	1.83e-04	0	44	0	1287651328	19	4420
2026-01-08 00:17:26.98	190.25	9.68	-29.7	-31.6	12.6	2.04e-03	0	44	0	1289748480	19	4490
2026-01-08 00:17:27.99	190.28	9.60	-29.5	-31.1	12.8	7.01e-05	0	44	0	1290797056	19	4334
