passes_logs/2026/01/08/R2M6_AANII_01/R2M6_AANII_01__20260108_010628_FENGYUN_3D_rec.log

#Pass ID: 20260108_010628_FENGYUN 3D
#Satellite: FENGYUN 3D
#Configuration: FENGYUN 3D
#almurnet v.1.7.20240730
#Start time: 2026-01-08 01:06:28

#Version: 2.2.20231116
#Station: R2M6_AANII_01
#Location: 30.233357 lon 59.946436 lat
#TLE: 1 43010U 17072A   26006.26440730  .00000376  00000+0  19957-3 0  9994
#TLE: 2 43010  98.9925 337.9455 0002045 123.9195 236.2175 14.19693586422016

#Time	Az	El	Level	Level2	SNR	BER	BlckErr	Temp	State	Recorded	gain1	gain2
2026-01-08 01:06:28.75	27.50	7.04	-28.6	-31.3	5.6	7.72e-01	0	41	0	0	17	4888
2026-01-08 01:06:29.75	27.57	7.10	-30.2	-34.3	5.1	7.97e-01	0	41	104	0	20	5793
2026-01-08 01:06:30.76	27.65	7.17	-29.9	-33.3	8.9	2.86e-02	0	41	0	0	20	5327
2026-01-08 01:06:31.77	27.73	7.24	-30.0	-33.7	8.6	2.94e-02	0	41	0	5242880	20	5491
2026-01-08 01:06:32.77	27.81	7.31	-29.9	-33.2	9.0	3.45e-02	0	41	0	11534336	20	5284
2026-01-08 01:06:33.78	27.89	7.38	-29.5	-32.6	9.8	1.05e-02	0	41	0	16777216	19	5145
2026-01-08 01:06:34.79	27.97	7.45	-29.1	-31.9	10.6	4.34e-03	0	41	0	22020096	18	4976
2026-01-08 01:06:35.79	28.05	7.51	-28.5	-31.0	11.5	8.46e-04	0	41	0	28311552	17	4772
2026-01-08 01:06:36.79	28.13	7.58	-28.1	-30.3	12.3	2.20e-04	0	41	0	33554432	16	4649
2026-01-08 01:06:37.80	28.21	7.65	-27.8	-29.6	12.8	5.26e-05	0	41	0	38797312	16	4450
2026-01-08 01:06:38.80	28.29	7.72	-27.4	-29.2	13.1	2.38e-04	0	42	0	45088768	15	4438
2026-01-08 01:06:39.81	28.37	7.79	-27.2	-29.2	13.5	1.48e-05	0	41	0	50331648	14	4557
2026-01-08 01:06:40.82	28.45	7.86	-27.2	-29.3	13.4	5.70e-06	0	42	0	56623104	14	4575
2026-01-08 01:06:41.83	28.54	7.93	-27.6	-29.7	12.9	2.63e-05	0	42	0	61865984	15	4578
2026-01-08 01:06:42.83	28.62	8.00	-27.3	-29.1	13.2	2.28e-05	0	42	0	67108864	15	4398
2026-01-08 01:06:43.84	28.70	8.07	-26.9	-28.0	13.9	2.29e-04	0	42	0	73400320	15	4110
2026-01-08 01:06:44.84	28.79	8.14	-26.8	-28.3	14.0	1.10e-06	0	42	0	78643200	14	4273
2026-01-08 01:06:45.84	28.87	8.21	-26.9	-29.1	13.8	1.10e-06	0	42	0	84934656	13	4641
2026-01-08 01:06:46.85	28.95	8.28	-26.7	-28.7	14.1	2.20e-06	0	42	0	90177536	13	4499
2026-01-08 01:06:47.85	29.04	8.35	-26.6	-28.4	14.2	0.00e+00	0	42	0	96468992	13	4438
2026-01-08 01:06:48.86	29.12	8.42	-26.6	-28.3	14.3	0.00e+00	0	42	0	101711872	13	4385
2026-01-08 01:06:49.87	29.21	8.49	-26.6	-28.3	14.3	0.00e+00	0	42	0	106954752	13	4395
2026-01-08 01:06:50.88	29.29	8.57	-26.5	-28.1	14.4	0.00e+00	0	42	0	113246208	13	4337
2026-01-08 01:06:51.89	29.38	8.64	-26.8	-28.7	14.1	1.10e-06	0	42	0	118489088	13	4521
2026-01-08 01:06:52.89	29.47	8.71	-26.6	-28.4	14.3	1.10e-06	0	42	0	123731968	13	4422
2026-01-08 01:06:53.90	29.55	8.78	-26.5	-28.1	14.5	0.00e+00	0	42	0	130023424	13	4324
2026-01-08 01:06:54.90	29.64	8.85	-26.4	-27.9	14.6	0.00e+00	0	42	0	135266304	13	4276
2026-01-08 01:06:55.90	29.73	8.92	-26.4	-28.5	14.5	0.00e+00	0	42	0	140509184	12	4562
2026-01-08 01:06:56.91	29.81	8.99	-26.3	-27.8	14.7	0.00e+00	0	42	0	146800640	13	4245
2026-01-08 01:06:57.92	29.90	9.07	-26.4	-28.4	14.6	0.00e+00	0	42	0	152043520	12	4538
2026-01-08 01:06:58.92	29.99	9.14	-26.4	-28.4	14.6	0.00e+00	0	42	0	158334976	12	4536
2026-01-08 01:06:59.93	30.08	9.21	-26.3	-28.2	14.7	0.00e+00	0	42	0	163577856	12	4480
2026-01-08 01:07:00.94	30.17	9.28	-26.4	-28.4	14.6	0.00e+00	0	42	0	169869312	12	4522
2026-01-08 01:07:01.94	30.26	9.36	-26.3	-27.8	14.7	0.00e+00	0	42	0	175112192	13	4243
2026-01-08 01:07:02.94	30.35	9.43	-26.3	-28.1	14.8	2.20e-06	0	42	0	180355072	12	4449
2026-01-08 01:07:03.95	30.44	9.50	-26.3	-28.2	14.8	0.00e+00	0	42	0	186646528	12	4471
2026-01-08 01:07:04.96	30.53	9.58	-26.3	-28.2	14.7	0.00e+00	0	42	0	191889408	12	4479
2026-01-08 01:07:05.96	30.62	9.65	-26.3	-28.2	14.7	0.00e+00	0	42	0	198180864	12	4488
2026-01-08 01:07:06.97	30.72	9.72	-26.1	-27.8	15.0	0.00e+00	0	42	0	203423744	12	4349
2026-01-08 01:07:07.99	30.81	9.80	-26.1	-27.8	15.0	0.00e+00	0	42	0	208666624	12	4357
2026-01-08 01:07:08.99	30.90	9.87	-26.1	-27.7	15.1	0.00e+00	0	42	0	214958080	12	4332
2026-01-08 01:07:10.00	31.00	9.95	-26.1	-27.8	15.0	0.00e+00	0	42	0	220200960	12	4358
2026-01-08 01:07:11.00	31.09	10.02	-26.2	-27.8	15.0	0.00e+00	0	42	0	225443840	12	4369
2026-01-08 01:07:12.01	31.19	10.09	-26.3	-28.2	14.8	0.00e+00	0	42	0	231735296	12	4483
2026-01-08 01:07:13.02	31.28	10.17	-26.2	-27.9	14.9	0.00e+00	0	42	0	236978176	12	4406
2026-01-08 01:07:14.02	31.38	10.24	-26.4	-28.4	14.7	0.00e+00	0	42	0	243269632	12	4538
2026-01-08 01:07:15.03	31.47	10.32	-26.1	-27.8	15.0	5.60e-04	0	42	0	248512512	12	4359
2026-01-08 01:07:16.04	31.57	10.39	-26.0	-27.5	15.2	0.00e+00	0	42	0	254803968	12	4271
2026-01-08 01:07:17.04	31.67	10.47	-26.1	-27.7	15.1	0.00e+00	0	42	0	260046848	12	4329
2026-01-08 01:07:18.05	31.76	10.54	-26.0	-27.5	15.2	7.43e-05	0	42	0	265289728	12	4274
2026-01-08 01:07:19.05	31.86	10.62	-26.0	-27.6	15.1	0.00e+00	0	43	0	271581184	12	4307
2026-01-08 01:07:20.06	31.96	10.69	-25.9	-27.3	15.2	3.72e-04	0	42	0	276824064	12	4194
2026-01-08 01:07:21.06	32.06	10.77	-26.0	-27.5	15.3	0.00e+00	0	43	0	283115520	12	4272
2026-01-08 01:07:22.06	32.16	10.85	-26.0	-27.9	13.9	0.00e+00	0	42	0	288358400	11	4493
2026-01-08 01:07:23.07	32.26	10.92	-25.9	-27.8	15.3	0.00e+00	0	42	0	293601280	11	4461
2026-01-08 01:07:24.08	32.36	11.00	-25.9	-27.4	15.3	3.17e-04	0	42	0	299892736	12	4239
2026-01-08 01:07:25.08	32.46	11.07	-25.9	-27.8	15.4	0.00e+00	0	42	0	305135616	11	4480
2026-01-08 01:07:26.09	32.56	11.15	-25.9	-27.2	15.4	0.00e+00	0	42	0	310378496	12	4196
2026-01-08 01:07:27.10	32.66	11.23	-26.1	-27.6	15.2	3.82e-04	0	42	0	316669952	12	4297
2026-01-08 01:07:28.10	32.76	11.30	-25.9	-27.1	15.5	0.00e+00	0	43	0	321912832	12	4179
2026-01-08 01:07:29.11	32.87	11.38	-25.7	-27.4	15.7	3.62e-04	0	42	0	328204288	11	4336
2026-01-08 01:07:30.11	32.97	11.46	-25.7	-27.4	15.7	3.26e-04	0	42	0	333447168	11	4343
2026-01-08 01:07:31.12	33.07	11.54	-25.6	-27.1	15.9	1.20e-04	0	42	0	339738624	11	4261
2026-01-08 01:07:32.13	33.18	11.61	-25.7	-27.3	15.8	2.84e-04	0	43	0	344981504	11	4315
2026-01-08 01:07:33.14	33.28	11.69	-25.7	-27.2	15.8	3.20e-04	0	42	0	350224384	11	4297
2026-01-08 01:07:34.14	33.39	11.77	-25.8	-27.5	15.7	0.00e+00	0	43	0	356515840	11	4371
2026-01-08 01:07:35.15	33.49	11.85	-25.7	-27.4	15.8	3.28e-04	0	42	0	361758720	11	4343
2026-01-08 01:07:36.15	33.60	11.93	-25.6	-27.0	15.9	2.97e-04	0	42	0	367001600	11	4241
2026-01-08 01:07:37.15	33.71	12.00	-25.7	-27.4	15.7	0.00e+00	0	43	0	373293056	11	4340
2026-01-08 01:07:38.15	33.81	12.08	-25.7	-27.2	15.8	4.08e-04	0	43	0	378535936	11	4304
2026-01-08 01:07:39.16	33.92	12.16	-25.6	-27.0	15.9	2.60e-04	0	42	0	384827392	11	4250
2026-01-08 01:07:40.16	34.03	12.24	-25.7	-27.3	15.8	1.46e-04	0	43	0	390070272	11	4335
2026-01-08 01:07:41.17	34.14	12.32	-25.7	-27.2	15.8	2.35e-04	0	43	0	395313152	11	4309
2026-01-08 01:07:42.17	34.25	12.40	-25.8	-27.6	15.6	0.00e+00	0	43	0	401604608	11	4405
2026-01-08 01:07:43.18	34.36	12.48	-26.0	-27.6	15.3	2.87e-04	0	43	0	406847488	12	4292
2026-01-08 01:07:44.19	34.47	12.56	-26.4	-28.4	14.8	2.75e-04	0	43	0	413138944	12	4513
2026-01-08 01:07:45.20	34.58	12.64	-26.1	-27.7	15.2	2.02e-04	0	43	0	418381824	12	4325
2026-01-08 01:07:46.20	34.69	12.72	-26.1	-27.8	15.2	0.00e+00	0	43	0	423624704	12	4345
2026-01-08 01:07:47.21	34.81	12.80	-26.3	-28.2	14.9	1.22e-04	0	43	0	429916160	12	4460
2026-01-08 01:07:48.22	34.92	12.88	-26.3	-28.0	15.0	0.00e+00	0	43	0	435159040	12	4428
2026-01-08 01:07:49.22	35.03	12.96	-26.2	-27.9	15.1	1.10e-06	0	43	0	441450496	12	4384
2026-01-08 01:07:50.22	35.15	13.04	-26.2	-27.9	15.1	1.92e-04	0	43	0	446693376	12	4394
2026-01-08 01:07:51.23	35.26	13.12	-26.0	-27.5	15.4	0.00e+00	0	43	0	451936256	12	4265
2026-01-08 01:07:52.24	35.38	13.20	-25.7	-26.9	15.7	0.00e+00	0	43	0	458227712	12	4101
2026-01-08 01:07:53.24	35.49	13.28	-25.5	-26.2	16.1	0.00e+00	0	43	0	463470592	12	3941
2026-01-08 01:07:54.25	35.61	13.36	-25.4	-26.7	16.2	0.00e+00	0	43	0	468713472	11	4163
2026-01-08 01:07:55.26	35.73	13.44	-25.9	-27.6	15.9	0.00e+00	0	43	0	475004928	11	4392
2026-01-08 01:07:56.26	35.85	13.53	-25.9	-27.6	15.8	2.40e-05	0	43	0	480247808	11	4403
2026-01-08 01:07:57.26	35.97	13.61	-25.7	-27.3	16.0	0.00e+00	0	43	0	486539264	11	4312
2026-01-08 01:07:58.26	36.08	13.69	-25.7	-27.3	16.0	1.68e-04	0	43	0	491782144	11	4321
2026-01-08 01:07:59.27	36.20	13.77	-25.8	-27.6	15.8	1.98e-04	0	43	0	498073600	11	4402
2026-01-08 01:08:00.27	36.32	13.85	-25.8	-27.6	15.8	0.00e+00	0	43	0	503316480	11	4400
2026-01-08 01:08:01.28	36.45	13.94	-25.7	-27.4	15.9	2.02e-04	0	43	0	508559360	11	4334
2026-01-08 01:08:02.28	36.57	14.02	-25.7	-27.2	16.0	0.00e+00	0	43	0	514850816	11	4309
2026-01-08 01:08:03.28	36.69	14.10	-25.7	-27.2	16.0	0.00e+00	0	43	0	520093696	11	4289
2026-01-08 01:08:04.28	36.81	14.18	-25.5	-26.7	16.3	0.00e+00	0	43	0	525336576	11	4160
2026-01-08 01:08:05.29	36.94	14.27	-25.4	-26.6	16.4	0.00e+00	0	43	0	531628032	11	4122
2026-01-08 01:08:06.29	37.06	14.35	-25.4	-26.6	16.4	0.00e+00	0	43	0	536870912	11	4143
2026-01-08 01:08:07.30	37.19	14.43	-25.4	-26.6	16.4	0.00e+00	0	43	0	542113792	11	4125
2026-01-08 01:08:08.31	37.31	14.52	-25.1	-25.9	16.8	0.00e+00	0	43	0	548405248	11	3960
2026-01-08 01:08:09.31	37.44	14.60	-25.0	-25.8	16.8	0.00e+00	0	43	0	553648128	11	3939
2026-01-08 01:08:10.32	37.57	14.68	-25.2	-26.1	16.7	1.14e-05	0	43	0	559939584	11	3992
2026-01-08 01:08:11.32	37.69	14.77	-25.2	-26.1	16.7	0.00e+00	0	43	0	565182464	11	4008
2026-01-08 01:08:12.32	37.82	14.85	-25.2	-26.2	16.6	0.00e+00	0	43	0	571473920	11	4038
2026-01-08 01:08:13.33	37.95	14.94	-25.3	-26.3	16.6	0.00e+00	0	43	0	576716800	11	4044
2026-01-08 01:08:14.33	38.08	15.02	-25.4	-26.5	16.5	0.00e+00	0	43	0	581959680	11	4096
2026-01-08 01:08:15.33	38.21	15.10	-25.3	-26.5	16.5	0.00e+00	0	43	0	588251136	11	4098
2026-01-08 01:08:16.34	38.34	15.19	-25.3	-26.3	16.6	0.00e+00	0	43	0	593494016	11	4046
2026-01-08 01:08:17.35	38.48	15.27	-25.3	-26.3	16.6	0.00e+00	0	43	0	598736896	11	4039
2026-01-08 01:08:18.35	38.61	15.36	-25.3	-26.3	16.6	0.00e+00	0	43	0	605028352	11	4042
2026-01-08 01:08:19.36	38.74	15.45	-25.4	-26.7	16.4	0.00e+00	0	43	0	610271232	11	4144
2026-01-08 01:08:20.37	38.88	15.53	-25.6	-26.9	16.3	0.00e+00	0	43	0	616562688	11	4214
2026-01-08 01:08:21.38	39.01	15.62	-25.2	-26.2	16.6	0.00e+00	0	43	0	621805568	11	4027
2026-01-08 01:08:22.38	39.15	15.70	-24.9	-25.6	17.0	0.00e+00	0	43	0	627048448	11	3869
2026-01-08 01:08:23.39	39.28	15.79	-24.9	-25.9	17.1	0.00e+00	0	43	0	633339904	10	4068
2026-01-08 01:08:24.40	39.42	15.88	-25.0	-26.1	17.0	0.00e+00	0	43	0	638582784	10	4123
2026-01-08 01:08:25.41	39.56	15.96	-25.0	-26.1	17.0	0.00e+00	0	43	0	644874240	10	4119
2026-01-08 01:08:26.41	39.70	16.05	-24.9	-26.0	17.0	0.00e+00	0	43	0	650117120	10	4087
2026-01-08 01:08:27.41	39.84	16.13	-25.0	-26.1	16.9	0.00e+00	0	43	0	656408576	10	4121
2026-01-08 01:08:28.42	39.98	16.22	-25.0	-26.1	17.0	0.00e+00	0	43	0	661651456	10	4111
2026-01-08 01:08:29.42	40.12	16.31	-24.8	-25.9	17.1	0.00e+00	0	43	0	666894336	10	4050
2026-01-08 01:08:30.43	40.26	16.40	-24.8	-25.9	17.2	0.00e+00	0	43	0	673185792	10	4051
2026-01-08 01:08:31.43	40.41	16.48	-24.8	-25.8	17.1	0.00e+00	0	43	0	678428672	10	4037
2026-01-08 01:08:32.44	40.55	16.57	-24.9	-26.0	17.1	0.00e+00	0	43	0	683671552	10	4079
2026-01-08 01:08:33.45	40.70	16.66	-24.9	-26.0	17.0	0.00e+00	0	43	0	689963008	10	4086
2026-01-08 01:08:34.46	40.84	16.75	-24.7	-25.6	17.3	0.00e+00	0	43	0	695205888	10	3992
2026-01-08 01:08:35.47	40.99	16.83	-24.7	-25.6	17.3	0.00e+00	0	43	0	701497344	10	3997
2026-01-08 01:08:36.48	41.14	16.92	-24.8	-25.7	17.2	0.00e+00	0	43	0	706740224	10	4021
2026-01-08 01:08:37.48	41.28	17.01	-24.8	-25.9	17.1	0.00e+00	0	43	0	711983104	10	4060
2026-01-08 01:08:38.49	41.43	17.10	-24.9	-26.0	17.1	0.00e+00	0	43	0	718274560	10	4078
2026-01-08 01:08:39.49	41.58	17.19	-24.7	-25.6	17.4	0.00e+00	0	43	0	723517440	10	3976
2026-01-08 01:08:40.50	41.73	17.27	-24.7	-25.6	17.3	0.00e+00	0	43	0	729808896	10	3975
2026-01-08 01:08:41.50	41.88	17.36	-24.8	-25.8	17.2	0.00e+00	0	43	0	735051776	10	4023
2026-01-08 01:08:42.51	42.04	17.45	-24.7	-25.6	17.3	0.00e+00	0	43	0	741343232	10	3977
2026-01-08 01:08:43.51	42.19	17.54	-24.5	-25.2	17.5	0.00e+00	0	43	0	746586112	10	3878
2026-01-08 01:08:44.52	42.34	17.63	-24.4	-25.0	17.6	0.00e+00	0	43	0	751828992	10	3835
2026-01-08 01:08:45.53	42.50	17.72	-24.4	-25.0	17.7	0.00e+00	0	43	0	758120448	10	3830
2026-01-08 01:08:46.54	42.65	17.81	-24.4	-24.9	17.7	0.00e+00	0	43	0	763363328	10	3811
2026-01-08 01:08:47.55	42.81	17.90	-24.4	-24.8	17.8	0.00e+00	0	43	0	768606208	10	3798
2026-01-08 01:08:48.55	42.97	17.99	-24.3	-24.7	17.8	0.00e+00	0	43	0	774897664	10	3769
2026-01-08 01:08:49.56	43.13	18.08	-24.2	-25.0	17.9	0.00e+00	0	43	0	780140544	9	3953
2026-01-08 01:08:50.57	43.29	18.17	-24.3	-25.1	17.8	0.00e+00	0	43	0	786432000	9	3978
2026-01-08 01:08:51.57	43.45	18.26	-24.3	-25.1	17.8	0.00e+00	0	43	0	791674880	9	3971
2026-01-08 01:08:52.58	43.61	18.35	-24.4	-25.4	17.7	0.00e+00	0	43	0	796917760	9	4041
2026-01-08 01:08:53.59	43.77	18.44	-24.4	-25.3	17.7	0.00e+00	0	43	0	803209216	9	4022
2026-01-08 01:08:54.60	43.93	18.53	-24.3	-25.2	17.8	0.00e+00	0	43	0	808452096	9	4001
2026-01-08 01:08:55.60	44.10	18.62	-24.2	-25.1	17.9	0.00e+00	0	43	0	814743552	9	3962
2026-01-08 01:08:56.61	44.26	18.71	-24.3	-25.1	17.8	0.00e+00	0	43	0	819986432	9	3974
2026-01-08 01:08:57.61	44.43	18.80	-24.4	-25.4	17.7	0.00e+00	0	43	0	826277888	9	4036
2026-01-08 01:08:58.62	44.60	18.89	-24.4	-25.3	17.7	0.00e+00	0	43	0	831520768	9	4026
2026-01-08 01:08:59.63	44.76	18.98	-24.4	-25.3	17.8	0.00e+00	0	43	0	836763648	9	4021
2026-01-08 01:09:00.63	44.93	19.07	-24.5	-25.5	17.6	0.00e+00	0	43	0	843055104	9	4080
2026-01-08 01:09:01.64	45.10	19.16	-24.4	-25.5	17.7	7.09e-05	0	44	0	848297984	9	4068
2026-01-08 01:09:02.64	45.27	19.25	-24.3	-25.2	17.8	0.00e+00	0	43	0	853540864	9	3990
2026-01-08 01:09:03.65	45.44	19.35	-24.3	-25.2	17.8	0.00e+00	0	43	0	859832320	9	3983
2026-01-08 01:09:04.66	45.62	19.44	-24.4	-25.4	17.7	9.61e-05	0	43	0	865075200	9	4040
2026-01-08 01:09:05.65	45.79	19.53	-24.3	-25.3	17.8	0.00e+00	0	44	0	871366656	9	4007
2026-01-08 01:09:06.67	45.97	19.62	-24.2	-25.1	17.9	2.72e-04	0	43	0	876609536	9	3957
2026-01-08 01:09:07.67	46.14	19.71	-24.3	-25.1	17.9	2.60e-04	0	43	0	881852416	9	3967
2026-01-08 01:09:08.68	46.32	19.80	-24.3	-25.2	17.8	0.00e+00	0	43	0	888143872	9	3997
2026-01-08 01:09:09.69	46.50	19.90	-24.4	-25.4	17.8	2.91e-04	0	44	0	893386752	9	4030
2026-01-08 01:09:10.70	46.68	19.99	-24.3	-25.2	17.9	3.23e-04	0	43	0	899678208	9	4000
2026-01-08 01:09:11.71	46.86	20.08	-24.4	-25.4	17.7	0.00e+00	0	43	0	904921088	9	4052
2026-01-08 01:09:12.71	47.04	20.17	-24.3	-25.3	17.8	1.52e-04	0	43	0	911212544	9	4008
2026-01-08 01:09:13.72	47.22	20.26	-24.1	-24.8	18.1	4.06e-04	0	44	0	916455424	9	3886
2026-01-08 01:09:14.73	47.41	20.36	-24.0	-24.5	18.3	0.00e+00	0	43	0	921698304	9	3819
2026-01-08 01:09:15.73	47.59	20.45	-24.0	-24.6	18.2	4.99e-04	0	43	0	927989760	9	3840
2026-01-08 01:09:16.74	47.77	20.54	-24.0	-25.0	18.3	5.64e-04	0	44	0	933232640	8	4047
2026-01-08 01:09:17.74	47.96	20.63	-23.9	-24.8	18.3	0.00e+00	0	43	0	938475520	8	4012
2026-01-08 01:09:18.75	48.15	20.72	-23.9	-24.8	18.3	5.62e-04	0	43	0	944766976	8	4005
2026-01-08 01:09:19.76	48.34	20.82	-24.1	-25.2	18.1	0.00e+00	0	43	0	950009856	8	4099
2026-01-08 01:09:20.76	48.53	20.91	-23.9	-24.9	18.3	0.00e+00	0	44	0	956301312	8	4017
2026-01-08 01:09:21.76	48.72	21.00	-23.8	-24.7	18.4	0.00e+00	0	43	0	961544192	8	3975
2026-01-08 01:09:22.77	48.91	21.09	-23.9	-24.8	18.3	6.83e-04	0	43	0	966787072	8	4001
2026-01-08 01:09:23.77	49.10	21.18	-23.9	-24.9	18.3	0.00e+00	0	43	0	973078528	8	4016
2026-01-08 01:09:24.77	49.29	21.28	-23.8	-24.7	18.4	0.00e+00	0	43	0	978321408	8	3963
2026-01-08 01:09:25.78	49.49	21.37	-23.8	-24.7	18.4	5.68e-04	0	44	0	984612864	8	3978
2026-01-08 01:09:26.78	49.69	21.46	-23.9	-24.9	18.3	0.00e+00	0	44	0	989855744	8	4012
2026-01-08 01:09:27.79	49.88	21.55	-23.9	-24.9	18.3	3.78e-04	0	43	0	995098624	8	4019
2026-01-08 01:09:28.80	50.08	21.65	-24.0	-25.1	18.2	0.00e+00	0	43	0	1001390080	8	4074
2026-01-08 01:09:29.81	50.28	21.74	-23.9	-24.9	18.3	0.00e+00	0	44	0	1006632960	8	4028
2026-01-08 01:09:30.82	50.49	21.83	-24.1	-25.2	18.2	0.00e+00	0	43	0	1012924416	8	4104
2026-01-08 01:09:31.82	50.69	21.92	-23.8	-24.7	18.4	0.00e+00	0	43	0	1018167296	8	3975
2026-01-08 01:09:32.83	50.89	22.02	-23.7	-24.4	18.6	0.00e+00	0	43	0	1023410176	8	3914
2026-01-08 01:09:33.84	51.10	22.11	-23.7	-24.3	18.6	0.00e+00	0	44	0	1029701632	8	3893
2026-01-08 01:09:34.84	51.30	22.20	-23.8	-24.6	18.5	0.00e+00	0	44	0	1034944512	8	3955
2026-01-08 01:09:35.84	51.51	22.29	-23.8	-24.6	18.5	0.00e+00	0	44	0	1040187392	8	3946
2026-01-08 01:09:36.85	51.72	22.38	-23.7	-24.4	18.6	0.00e+00	0	44	0	1046478848	8	3905
2026-01-08 01:09:37.86	51.93	22.48	-23.6	-24.3	18.7	0.00e+00	0	43	0	1051721728	8	3875
2026-01-08 01:09:38.86	52.14	22.57	-23.7	-24.4	18.6	0.00e+00	0	44	0	1058013184	8	3909
2026-01-08 01:09:39.87	52.35	22.66	-23.5	-24.0	18.8	0.00e+00	0	44	0	1063256064	8	3809
2026-01-08 01:09:40.88	52.56	22.75	-23.4	-23.9	18.9	0.00e+00	0	44	0	1069547520	8	3782
2026-01-08 01:09:41.88	52.78	22.84	-23.6	-24.1	18.8	0.00e+00	0	44	0	1074790400	8	3846
2026-01-08 01:09:42.89	52.99	22.94	-23.7	-24.3	18.7	0.00e+00	0	44	0	1080033280	8	3891
2026-01-08 01:09:43.90	53.21	23.03	-23.7	-25.0	18.5	0.00e+00	0	44	0	1086324736	7	4159
2026-01-08 01:09:44.90	53.43	23.12	-23.6	-24.8	18.6	0.00e+00	0	43	0	1091567616	7	4122
2026-01-08 01:09:45.91	53.65	23.21	-23.6	-24.7	18.7	0.00e+00	0	44	0	1097859072	7	4083
2026-01-08 01:09:46.91	53.87	23.30	-23.6	-24.7	18.7	0.00e+00	0	44	0	1103101952	7	4078
2026-01-08 01:09:47.91	54.09	23.39	-23.6	-24.8	18.6	0.00e+00	0	44	0	1108344832	7	4105
2026-01-08 01:09:48.91	54.31	23.48	-23.5	-24.5	18.8	0.00e+00	0	44	0	1114636288	7	4042
2026-01-08 01:09:49.92	54.54	23.58	-23.5	-24.6	18.8	0.00e+00	0	44	0	1119879168	7	4052
2026-01-08 01:09:50.92	54.76	23.67	-23.4	-24.4	18.9	0.00e+00	0	44	0	1125122048	7	4014
2026-01-08 01:09:51.93	54.99	23.76	-23.5	-24.5	18.8	0.00e+00	0	44	0	1131413504	7	4029
2026-01-08 01:09:52.93	55.21	23.85	-23.4	-24.3	18.9	0.00e+00	0	44	0	1136656384	7	3983
2026-01-08 01:09:53.92	55.44	23.94	-23.5	-24.6	18.8	0.00e+00	0	44	0	1142947840	7	4058
2026-01-08 01:09:54.93	55.67	24.03	-23.5	-24.5	18.8	0.00e+00	0	43	0	1148190720	7	4039
2026-01-08 01:09:55.94	55.91	24.12	-23.6	-24.7	18.7	0.00e+00	0	43	0	1153433600	7	4088
2026-01-08 01:09:56.94	56.14	24.21	-23.7	-24.9	18.5	0.00e+00	0	44	0	1159725056	7	4158
2026-01-08 01:09:57.94	56.37	24.30	-23.3	-24.2	18.9	0.00e+00	0	44	0	1164967936	7	3976
2026-01-08 01:09:58.95	56.61	24.39	-23.0	-23.6	19.3	0.00e+00	0	44	0	1170210816	7	3819
2026-01-08 01:09:59.95	56.84	24.48	-23.0	-23.4	19.4	0.00e+00	0	44	0	1176502272	7	3776
2026-01-08 01:10:00.96	57.08	24.57	-23.2	-23.8	19.2	0.00e+00	0	44	0	1181745152	7	3865
2026-01-08 01:10:01.96	57.32	24.65	-23.2	-23.8	19.1	0.00e+00	0	44	0	1188036608	7	3882
2026-01-08 01:10:02.95	57.56	24.74	-23.6	-24.8	18.7	0.00e+00	0	44	0	1193279488	7	4104
2026-01-08 01:10:03.96	57.80	24.83	-23.5	-24.5	18.8	0.00e+00	0	44	0	1198522368	7	4047
2026-01-08 01:10:04.97	58.05	24.92	-23.6	-24.8	18.7	0.00e+00	0	44	0	1204813824	7	4109
2026-01-08 01:10:05.98	58.30	25.01	-23.3	-24.0	19.1	0.00e+00	0	44	0	1210056704	7	3925
2026-01-08 01:10:06.98	58.54	25.10	-23.0	-23.5	19.3	0.00e+00	0	44	0	1216348160	7	3811
2026-01-08 01:10:07.99	58.79	25.18	-22.9	-23.3	19.5	0.00e+00	0	44	0	1221591040	7	3760
2026-01-08 01:10:09.00	59.04	25.27	-23.0	-23.5	19.4	0.00e+00	0	44	0	1226833920	7	3809
2026-01-08 01:10:10.01	59.29	25.36	-23.0	-23.4	19.4	0.00e+00	0	43	0	1233125376	7	3772
2026-01-08 01:10:11.02	59.55	25.45	-23.0	-23.5	19.3	0.00e+00	0	44	0	1238368256	7	3806
2026-01-08 01:10:12.03	59.80	25.53	-23.2	-23.8	19.2	0.00e+00	0	43	0	1244659712	7	3874
2026-01-08 01:10:13.04	60.06	25.62	-23.1	-23.6	19.3	0.00e+00	0	44	0	1249902592	7	3833
2026-01-08 01:10:14.04	60.31	25.71	-23.2	-23.8	19.2	0.00e+00	0	44	0	1255145472	7	3870
2026-01-08 01:10:15.04	60.57	25.79	-23.3	-24.1	19.0	0.00e+00	0	44	0	1261436928	7	3939
2026-01-08 01:10:16.05	60.83	25.88	-23.0	-23.4	19.4	0.00e+00	0	43	0	1266679808	7	3783
2026-01-08 01:10:17.06	61.09	25.96	-22.8	-23.1	19.5	0.00e+00	0	43	0	1272971264	7	3716
2026-01-08 01:10:18.06	61.35	26.05	-22.9	-23.7	19.5	0.00e+00	0	44	0	1278214144	6	3945
2026-01-08 01:10:19.07	61.62	26.13	-23.1	-24.2	19.2	0.00e+00	0	44	0	1283457024	6	4064
2026-01-08 01:10:20.07	61.88	26.21	-22.8	-23.6	19.6	0.00e+00	0	44	0	1289748480	6	3919
2026-01-08 01:10:21.07	62.14	26.30	-22.7	-23.4	19.7	0.00e+00	0	44	0	1294991360	6	3882
2026-01-08 01:10:22.08	62.41	26.38	-22.7	-23.3	19.7	3.00e-04	0	44	0	1301282816	6	3872
2026-01-08 01:10:23.08	62.68	26.46	-22.6	-23.2	19.7	0.00e+00	0	44	0	1306525696	6	3836
2026-01-08 01:10:24.10	62.95	26.55	-22.5	-22.9	19.9	2.56e-04	0	44	0	1311768576	6	3770
2026-01-08 01:10:25.10	63.22	26.63	-22.6	-23.0	19.9	0.00e+00	0	44	0	1318060032	6	3794
2026-01-08 01:10:26.11	63.50	26.71	-22.6	-23.0	19.8	0.00e+00	0	44	0	1323302912	6	3799
2026-01-08 01:10:27.12	63.77	26.79	-22.6	-23.1	19.8	0.00e+00	0	43	0	1329594368	6	3824
2026-01-08 01:10:28.12	64.05	26.87	-22.5	-23.0	19.9	0.00e+00	0	44	0	1334837248	6	3793
2026-01-08 01:10:29.13	64.33	26.95	-22.6	-23.1	19.8	0.00e+00	0	44	0	1340080128	6	3805
2026-01-08 01:10:30.14	64.61	27.03	-22.6	-23.1	19.8	0.00e+00	0	44	0	1346371584	6	3812
2026-01-08 01:10:31.15	64.89	27.11	-22.8	-23.5	19.6	2.76e-04	0	44	0	1351614464	6	3897
2026-01-08 01:10:32.14	65.16	27.19	-22.7	-23.4	19.7	0.00e+00	0	44	0	1356857344	6	3878
2026-01-08 01:10:33.15	65.45	27.27	-22.8	-23.6	19.6	2.16e-04	0	44	0	1363148800	6	3927
2026-01-08 01:10:34.16	65.73	27.35	-22.6	-23.2	19.8	1.10e-04	0	44	0	1368391680	6	3842
2026-01-08 01:10:35.17	66.02	27.42	-22.6	-23.1	19.8	0.00e+00	0	44	0	1374683136	6	3825
2026-01-08 01:10:36.17	66.30	27.50	-22.7	-23.3	19.7	4.23e-05	0	44	0	1379926016	6	3863
2026-01-08 01:10:37.17	66.59	27.58	-22.6	-23.2	19.8	5.70e-06	0	44	0	1386217472	6	3827
2026-01-08 01:10:38.18	66.88	27.65	-22.7	-23.2	19.7	0.00e+00	0	44	0	1391460352	6	3848
2026-01-08 01:10:39.18	67.17	27.73	-22.8	-23.5	19.6	0.00e+00	0	44	0	1396703232	6	3913
2026-01-08 01:10:40.19	67.46	27.80	-22.7	-23.2	19.8	0.00e+00	0	44	0	1402994688	6	3851
2026-01-08 01:10:41.20	67.76	27.88	-22.6	-23.1	19.8	0.00e+00	0	44	0	1408237568	6	3811
2026-01-08 01:10:42.20	68.05	27.95	-22.6	-23.0	19.9	0.00e+00	0	44	0	1414529024	6	3799
2026-01-08 01:10:43.21	68.35	28.02	-22.5	-23.0	19.9	1.10e-06	0	44	0	1419771904	6	3791
2026-01-08 01:10:44.22	68.65	28.09	-22.6	-23.1	19.9	0.00e+00	0	44	0	1425014784	6	3813
2026-01-08 01:10:45.22	68.94	28.16	-22.7	-23.4	19.7	1.61e-04	0	44	0	1431306240	6	3873
2026-01-08 01:10:46.22	69.24	28.24	-22.8	-23.5	19.6	0.00e+00	0	44	0	1436549120	6	3908
2026-01-08 01:10:47.23	69.54	28.31	-22.8	-23.5	19.6	0.00e+00	0	44	0	1442840576	6	3918
2026-01-08 01:10:48.24	69.85	28.38	-22.6	-23.1	19.9	0.00e+00	0	44	0	1448083456	6	3811
2026-01-08 01:10:49.25	70.15	28.44	-22.4	-22.7	19.9	4.50e-06	0	44	0	1453326336	6	3726
2026-01-08 01:10:50.26	70.46	28.51	-22.5	-23.0	19.7	0.00e+00	0	44	0	1459617792	6	3798
2026-01-08 01:10:51.26	70.76	28.58	-22.7	-23.3	19.6	0.00e+00	0	44	0	1464860672	6	3875
2026-01-08 01:10:52.27	71.07	28.65	-22.6	-23.2	19.6	1.36e-04	0	44	0	1471152128	6	3855
2026-01-08 01:10:53.27	71.38	28.71	-22.6	-23.1	19.6	0.00e+00	0	44	0	1476395008	6	3834
2026-01-08 01:10:54.28	71.69	28.78	-22.6	-23.2	19.6	1.48e-04	0	44	0	1481637888	6	3863
2026-01-08 01:10:55.29	72.01	28.84	-22.5	-23.0	19.7	0.00e+00	0	44	0	1487929344	6	3815
2026-01-08 01:10:56.30	72.32	28.91	-22.2	-22.9	20.0	0.00e+00	0	44	0	1493172224	5	3885
2026-01-08 01:10:57.30	72.63	28.97	-22.1	-22.6	20.1	0.00e+00	0	44	0	1499463680	5	3815
2026-01-08 01:10:58.31	72.95	29.03	-22.1	-22.6	20.2	0.00e+00	0	44	0	1504706560	5	3811
2026-01-08 01:10:59.31	73.26	29.09	-22.3	-23.1	19.9	0.00e+00	0	44	0	1509949440	5	3925
2026-01-08 01:11:00.32	73.58	29.15	-22.5	-23.5	19.6	0.00e+00	0	44	0	1516240896	5	4044
2026-01-08 01:11:01.32	73.90	29.21	-22.6	-23.7	19.6	1.45e-04	0	44	0	1521483776	5	4088
2026-01-08 01:11:02.32	74.22	29.27	-22.7	-23.9	19.5	0.00e+00	0	44	0	1527775232	5	4140
2026-01-08 01:11:03.33	74.54	29.33	-22.6	-23.7	19.6	0.00e+00	0	43	0	1533018112	5	4079
2026-01-08 01:11:04.34	74.86	29.39	-22.7	-24.0	19.5	0.00e+00	0	44	0	1538260992	5	4146
2026-01-08 01:11:05.34	75.18	29.44	-22.9	-24.2	19.3	0.00e+00	0	44	0	1544552448	5	4213
2026-01-08 01:11:06.35	75.51	29.50	-22.7	-23.8	19.5	0.00e+00	0	44	0	1549795328	5	4117
2026-01-08 01:11:07.35	75.83	29.55	-22.5	-23.4	19.7	0.00e+00	0	44	0	1555038208	5	4022
2026-01-08 01:11:08.35	76.16	29.61	-22.5	-23.5	19.7	0.00e+00	0	44	0	1561329664	5	4036
2026-01-08 01:11:09.36	76.49	29.66	-22.6	-23.7	19.5	0.00e+00	0	44	0	1566572544	5	4097
2026-01-08 01:11:10.36	76.81	29.71	-22.6	-23.6	19.6	0.00e+00	0	44	0	1572864000	5	4062
2026-01-08 01:11:11.37	77.15	29.76	-22.5	-23.6	19.7	0.00e+00	0	44	0	1578106880	5	4057
2026-01-08 01:11:12.38	77.48	29.81	-22.3	-23.0	19.9	0.00e+00	0	44	0	1583349760	5	3902
2026-01-08 01:11:13.38	77.81	29.86	-22.2	-22.9	20.0	0.00e+00	0	44	0	1589641216	5	3891
2026-01-08 01:11:14.40	78.15	29.91	-22.3	-23.1	19.9	0.00e+00	0	44	0	1594884096	5	3939
2026-01-08 01:11:15.40	78.48	29.96	-22.4	-23.3	19.8	0.00e+00	0	44	0	1601175552	5	3989
2026-01-08 01:11:16.41	78.81	30.00	-22.4	-23.4	19.8	0.00e+00	0	44	0	1606418432	5	4000
2026-01-08 01:11:17.42	79.15	30.05	-22.4	-23.3	19.7	0.00e+00	0	44	0	1612709888	5	3993
2026-01-08 01:11:18.43	79.49	30.09	-22.5	-23.5	19.7	0.00e+00	0	44	0	1617952768	5	4038
2026-01-08 01:11:19.44	79.83	30.14	-22.6	-23.8	19.5	0.00e+00	0	43	0	1623195648	5	4106
2026-01-08 01:11:20.45	80.17	30.18	-22.6	-23.7	19.6	0.00e+00	0	44	0	1629487104	5	4094
2026-01-08 01:11:21.46	80.51	30.22	-22.6	-23.7	19.6	0.00e+00	0	44	0	1634729984	5	4074
2026-01-08 01:11:22.46	80.85	30.26	-22.7	-23.8	19.5	0.00e+00	0	44	0	1641021440	5	4116
2026-01-08 01:11:23.47	81.19	30.30	-22.9	-24.3	19.3	0.00e+00	0	44	0	1646264320	5	4222
2026-01-08 01:11:24.48	81.53	30.34	-23.0	-24.1	19.1	0.00e+00	0	44	0	1651507200	6	4065
2026-01-08 01:11:25.48	81.87	30.38	-23.2	-24.5	19.0	0.00e+00	0	43	0	1657798656	6	4161
2026-01-08 01:11:26.49	82.22	30.41	-23.3	-24.6	19.0	0.00e+00	0	44	0	1663041536	6	4201
2026-01-08 01:11:27.50	82.56	30.45	-23.2	-24.4	19.0	0.00e+00	0	43	0	1668284416	6	4149
2026-01-08 01:11:28.50	82.91	30.48	-23.2	-24.5	19.0	0.00e+00	0	44	0	1674575872	6	4176
2026-01-08 01:11:29.51	83.26	30.51	-23.2	-24.5	19.0	0.00e+00	0	43	0	1679818752	6	4164
2026-01-08 01:11:30.52	83.60	30.55	-23.3	-24.7	18.9	0.00e+00	0	44	0	1686110208	6	4219
2026-01-08 01:11:31.53	83.95	30.58	-23.3	-24.1	18.9	0.00e+00	0	44	0	1691353088	7	3963
2026-01-08 01:11:32.53	84.30	30.61	-22.9	-23.3	19.4	0.00e+00	0	44	0	1697644544	7	3775
2026-01-08 01:11:33.54	84.65	30.63	-22.7	-23.4	19.5	0.00e+00	0	44	0	1702887424	6	3902
2026-01-08 01:11:34.55	85.00	30.66	-22.7	-23.4	19.5	0.00e+00	0	44	0	1708130304	6	3908
2026-01-08 01:11:35.56	85.35	30.69	-22.7	-23.4	19.5	0.00e+00	0	44	0	1714421760	6	3892
2026-01-08 01:11:36.56	85.70	30.71	-22.5	-23.0	19.7	0.00e+00	0	44	0	1719664640	6	3820
2026-01-08 01:11:37.57	86.05	30.74	-22.5	-22.9	19.8	0.00e+00	0	44	0	1725956096	6	3788
2026-01-08 01:11:38.58	86.40	30.76	-22.5	-23.1	19.7	0.00e+00	0	44	0	1731198976	6	3826
2026-01-08 01:11:39.59	86.75	30.78	-22.6	-23.1	19.6	0.00e+00	0	44	0	1736441856	6	3840
2026-01-08 01:11:40.59	87.10	30.80	-22.5	-22.9	19.7	0.00e+00	0	44	0	1742733312	6	3789
2026-01-08 01:11:41.60	87.46	30.82	-22.6	-23.1	19.7	3.43e-05	0	44	0	1747976192	6	3844
2026-01-08 01:11:42.60	87.81	30.84	-22.6	-23.2	19.6	0.00e+00	0	44	0	1753219072	6	3865
2026-01-08 01:11:43.61	88.16	30.86	-22.6	-23.2	19.6	0.00e+00	0	44	0	1759510528	6	3865
2026-01-08 01:11:44.62	88.52	30.87	-22.8	-23.6	19.4	0.00e+00	0	44	0	1764753408	6	3943
2026-01-08 01:11:45.62	88.87	30.89	-22.7	-23.4	19.5	1.25e-04	0	44	0	1771044864	6	3908
2026-01-08 01:11:46.63	89.23	30.90	-22.5	-22.9	19.8	0.00e+00	0	44	0	1776287744	6	3786
2026-01-08 01:11:47.64	89.58	30.91	-22.4	-22.8	19.8	0.00e+00	0	44	0	1782579200	6	3761
2026-01-08 01:11:48.64	89.94	30.92	-22.5	-22.9	19.8	2.70e-04	0	44	0	1787822080	6	3797
2026-01-08 01:11:49.65	90.29	30.93	-22.6	-23.1	19.7	0.00e+00	0	44	0	1793064960	6	3833
2026-01-08 01:11:50.65	90.65	30.94	-22.5	-23.5	19.7	2.78e-04	0	44	0	1799356416	5	4030
2026-01-08 01:11:51.66	91.00	30.95	-22.5	-23.5	19.7	0.00e+00	0	44	0	1804599296	5	4030
2026-01-08 01:11:52.67	91.36	30.96	-22.5	-23.5	19.7	0.00e+00	0	44	0	1810890752	5	4029
2026-01-08 01:11:53.67	91.71	30.96	-22.6	-23.6	19.6	9.61e-05	0	44	0	1816133632	5	4070
2026-01-08 01:11:54.68	92.07	30.97	-22.5	-23.5	19.7	1.26e-04	0	44	0	1821376512	5	4032
2026-01-08 01:11:55.69	92.43	30.97	-22.5	-23.4	19.7	0.00e+00	0	44	0	1827667968	5	4007
2026-01-08 01:11:56.70	92.79	30.97	-22.6	-23.7	19.6	8.23e-05	0	44	0	1832910848	5	4094
2026-01-08 01:11:57.70	93.14	30.97	-22.7	-23.8	19.6	9.95e-05	0	44	0	1838153728	5	4106
2026-01-08 01:11:58.70	93.49	30.97	-22.5	-23.5	19.7	0.00e+00	0	44	0	1844445184	5	4027
2026-01-08 01:11:59.70	93.85	30.97	-22.6	-23.6	19.6	1.25e-05	0	44	0	1849688064	5	4060
2026-01-08 01:12:00.70	94.20	30.97	-22.6	-23.7	19.6	6.80e-06	0	44	0	1855979520	5	4092
2026-01-08 01:12:01.71	94.56	30.96	-22.6	-23.8	19.5	0.00e+00	0	44	0	1861222400	5	4106
2026-01-08 01:12:02.71	94.91	30.96	-22.8	-24.1	19.4	0.00e+00	0	43	0	1867513856	5	4183
2026-01-08 01:12:03.72	95.27	30.95	-22.7	-24.0	19.4	0.00e+00	0	44	0	1872756736	5	4147
2026-01-08 01:12:04.73	95.63	30.94	-22.7	-23.8	19.5	0.00e+00	0	44	0	1877999616	5	4118
2026-01-08 01:12:05.73	95.98	30.93	-22.8	-24.2	19.3	0.00e+00	0	44	0	1884291072	5	4222
2026-01-08 01:12:06.74	96.34	30.92	-22.8	-24.2	19.3	1.94e-05	0	44	0	1889533952	5	4222
2026-01-08 01:12:07.74	96.69	30.91	-22.7	-24.0	19.4	0.00e+00	0	44	0	1894776832	5	4153
2026-01-08 01:12:08.75	97.05	30.90	-22.6	-23.7	19.6	0.00e+00	0	44	0	1901068288	5	4078
2026-01-08 01:12:09.76	97.40	30.88	-22.7	-23.8	19.5	0.00e+00	0	44	0	1906311168	5	4119
2026-01-08 01:12:10.77	97.76	30.87	-22.6	-23.6	19.6	0.00e+00	0	44	0	1912602624	5	4064
2026-01-08 01:12:11.78	98.11	30.85	-22.5	-23.6	19.7	1.02e-05	0	44	0	1917845504	5	4055
2026-01-08 01:12:12.78	98.47	30.84	-22.6	-23.7	19.6	0.00e+00	0	44	0	1923088384	5	4086
2026-01-08 01:12:13.79	98.82	30.82	-22.6	-23.6	19.6	0.00e+00	0	44	0	1929379840	5	4062
2026-01-08 01:12:14.79	99.17	30.80	-22.7	-24.0	19.4	0.00e+00	0	43	0	1934622720	5	4149
2026-01-08 01:12:15.80	99.52	30.78	-22.6	-23.8	19.5	0.00e+00	0	44	0	1940914176	5	4097
2026-01-08 01:12:16.81	99.88	30.75	-22.5	-23.4	19.7	0.00e+00	0	44	0	1946157056	5	4018
2026-01-08 01:12:17.82	100.23	30.73	-22.5	-23.5	19.6	0.00e+00	0	44	0	1952448512	5	4045
2026-01-08 01:12:18.82	100.58	30.71	-22.6	-23.7	19.5	0.00e+00	0	43	0	1957691392	5	4086
2026-01-08 01:12:19.83	100.93	30.68	-22.6	-23.8	19.5	0.00e+00	0	44	0	1962934272	5	4107
2026-01-08 01:12:20.83	101.28	30.65	-22.6	-23.7	19.6	0.00e+00	0	44	0	1969225728	5	4089
2026-01-08 01:12:21.84	101.63	30.63	-22.6	-23.8	19.6	0.00e+00	0	44	0	1974468608	5	4096
2026-01-08 01:12:22.85	101.98	30.60	-22.8	-24.1	19.4	0.00e+00	0	44	0	1979711488	5	4180
2026-01-08 01:12:23.85	102.33	30.57	-22.7	-23.9	19.5	0.00e+00	0	44	0	1986002944	5	4128
2026-01-08 01:12:24.86	102.67	30.54	-22.6	-23.7	19.6	0.00e+00	0	44	0	1991245824	5	4078
2026-01-08 01:12:25.86	103.02	30.51	-22.5	-23.6	19.6	0.00e+00	0	44	0	1997537280	5	4052
2026-01-08 01:12:26.86	103.36	30.47	-22.6	-23.7	19.6	0.00e+00	0	44	0	2002780160	5	4076
2026-01-08 01:12:27.87	103.71	30.44	-22.5	-23.5	19.7	0.00e+00	0	44	0	2008023040	5	4027
2026-01-08 01:12:28.88	104.06	30.40	-22.5	-23.4	19.7	0.00e+00	0	44	0	2014314496	5	4007
2026-01-08 01:12:29.89	104.40	30.37	-22.5	-23.5	19.7	0.00e+00	0	44	0	2019557376	5	4036
2026-01-08 01:12:30.89	104.74	30.33	-22.3	-23.1	19.9	0.00e+00	0	44	0	2025848832	5	3934
2026-01-08 01:12:31.90	105.09	30.29	-22.2	-22.9	19.9	0.00e+00	0	44	0	2031091712	5	3901
2026-01-08 01:12:32.90	105.43	30.25	-22.4	-23.3	19.7	0.00e+00	0	44	0	2037383168	5	3981
2026-01-08 01:12:33.91	105.77	30.21	-22.5	-23.5	19.6	0.00e+00	0	44	0	2042626048	5	4043
2026-01-08 01:12:34.91	106.11	30.17	-22.5	-23.5	19.6	0.00e+00	0	44	0	2047868928	5	4037
2026-01-08 01:12:35.92	106.45	30.13	-22.5	-23.5	19.6	0.00e+00	0	44	0	2054160384	5	4045
2026-01-08 01:12:36.92	106.78	30.08	-22.6	-23.7	19.5	0.00e+00	0	44	0	2059403264	5	4092
2026-01-08 01:12:37.93	107.12	30.04	-22.6	-23.6	19.6	0.00e+00	0	44	0	2064646144	5	4063
2026-01-08 01:12:38.94	107.46	29.99	-22.6	-23.8	19.5	0.00e+00	0	44	0	2070937600	5	4110
2026-01-08 01:12:39.94	107.79	29.94	-22.7	-24.0	19.3	0.00e+00	0	44	0	2076180480	5	4168
2026-01-08 01:12:40.95	108.13	29.90	-22.7	-24.0	19.4	0.00e+00	0	44	0	2081423360	5	4165
2026-01-08 01:12:41.95	108.46	29.85	-22.8	-24.1	19.3	1.10e-06	0	44	0	2087714816	5	4172
2026-01-08 01:12:42.96	108.79	29.80	-23.0	-24.1	19.1	0.00e+00	0	44	0	2092957696	6	4064
2026-01-08 01:12:43.97	109.13	29.75	-22.9	-23.9	19.2	0.00e+00	0	44	0	2099249152	6	4019
2026-01-08 01:12:44.98	109.46	29.70	-22.9	-23.9	19.1	3.40e-06	0	44	0	2104492032	6	4034
2026-01-08 01:12:45.99	109.79	29.64	-23.1	-24.3	19.0	0.00e+00	0	44	0	2110783488	6	4117
2026-01-08 01:12:47.00	110.12	29.59	-22.8	-23.6	19.3	0.00e+00	0	44	0	2116026368	6	3946
2026-01-08 01:12:48.01	110.45	29.54	-22.7	-23.3	19.5	0.00e+00	0	44	0	2122317824	6	3885
2026-01-08 01:12:49.02	110.77	29.48	-22.8	-23.5	19.4	0.00e+00	0	44	0	2127560704	6	3930
2026-01-08 01:12:50.02	111.10	29.42	-22.6	-23.3	19.5	0.00e+00	0	44	0	2132803584	6	3868
2026-01-08 01:12:51.03	111.42	29.37	-22.7	-23.4	19.5	0.00e+00	0	44	0	2139095040	6	3896
2026-01-08 01:12:52.03	111.74	29.31	-22.9	-23.8	19.3	0.00e+00	0	44	0	2144337920	6	3987
2026-01-08 01:12:53.03	112.06	29.25	-22.7	-23.5	19.4	0.00e+00	0	44	0	2149580800	6	3931
2026-01-08 01:12:54.04	112.39	29.19	-22.7	-23.4	19.4	4.50e-06	0	44	0	2155872256	6	3903
2026-01-08 01:12:55.05	112.71	29.13	-22.8	-23.6	19.3	0.00e+00	0	44	0	2161115136	6	3950
2026-01-08 01:12:56.05	113.02	29.07	-22.7	-23.3	19.5	0.00e+00	0	44	0	2166358016	6	3877
2026-01-08 01:12:57.06	113.34	29.01	-22.7	-23.3	19.5	0.00e+00	0	44	0	2172649472	6	3876
2026-01-08 01:12:58.06	113.65	28.95	-22.8	-23.6	19.3	0.00e+00	0	44	0	2177892352	6	3956
2026-01-08 01:12:59.06	113.97	28.88	-22.7	-23.3	19.5	0.00e+00	0	44	0	2184183808	6	3875
2026-01-08 01:13:00.06	114.28	28.82	-22.7	-23.4	19.4	0.00e+00	0	44	0	2189426688	6	3898
2026-01-08 01:13:01.07	114.59	28.75	-22.8	-23.6	19.3	0.00e+00	0	44	0	2195718144	6	3951
2026-01-08 01:13:02.07	114.90	28.69	-22.9	-23.9	19.2	0.00e+00	0	44	0	2200961024	6	4029
2026-01-08 01:13:03.08	115.21	28.62	-22.8	-23.6	19.3	0.00e+00	0	43	0	2206203904	6	3948
2026-01-08 01:13:04.09	115.52	28.56	-22.7	-23.4	19.4	0.00e+00	0	44	0	2212495360	6	3912
2026-01-08 01:13:05.10	115.83	28.49	-22.9	-23.8	19.2	0.00e+00	0	44	0	2217738240	6	3987
2026-01-08 01:13:06.10	116.13	28.42	-22.8	-23.7	19.3	1.30e-04	0	44	0	2224029696	6	3971
2026-01-08 01:13:07.11	116.44	28.35	-22.9	-23.8	19.2	0.00e+00	0	44	0	2229272576	6	4008
2026-01-08 01:13:08.12	116.75	28.28	-23.0	-24.0	19.1	2.46e-04	0	44	0	2234515456	6	4058
2026-01-08 01:13:09.12	117.05	28.21	-22.8	-23.5	19.4	0.00e+00	0	44	0	2240806912	6	3933
2026-01-08 01:13:10.12	117.34	28.14	-22.7	-23.5	19.4	0.00e+00	0	44	0	2246049792	6	3922
2026-01-08 01:13:11.13	117.65	28.07	-22.9	-23.8	19.2	2.14e-04	0	44	0	2251292672	6	3994
2026-01-08 01:13:12.13	117.94	27.99	-23.0	-23.9	19.2	1.82e-04	0	44	0	2257584128	6	4032
2026-01-08 01:13:13.13	118.24	27.92	-23.1	-24.2	19.0	0.00e+00	0	44	0	2262827008	6	4112
2026-01-08 01:13:14.14	118.53	27.85	-23.0	-24.0	19.1	0.00e+00	0	44	0	2269118464	6	4061
2026-01-08 01:13:15.15	118.83	27.77	-23.0	-23.9	19.1	8.69e-05	0	44	0	2274361344	6	4034
2026-01-08 01:13:16.16	119.12	27.70	-23.0	-24.0	19.1	0.00e+00	0	44	0	2280652800	6	4053
2026-01-08 01:13:17.17	119.42	27.62	-22.9	-23.7	19.2	3.20e-05	0	44	0	2285895680	6	3981
2026-01-08 01:13:18.17	119.70	27.54	-22.8	-23.7	19.3	1.42e-04	0	44	0	2291138560	6	3962
2026-01-08 01:13:19.18	119.99	27.47	-22.9	-23.8	19.2	0.00e+00	0	44	0	2297430016	6	3999
2026-01-08 01:13:20.19	120.28	27.39	-22.9	-23.8	19.2	2.80e-04	0	44	0	2302672896	6	3995
2026-01-08 01:13:21.19	120.57	27.31	-22.8	-23.6	19.3	2.48e-04	0	44	0	2307915776	6	3954
2026-01-08 01:13:22.20	120.85	27.23	-22.8	-23.6	19.3	0.00e+00	0	44	0	2314207232	6	3943
2026-01-08 01:13:23.20	121.13	27.16	-22.9	-23.8	19.2	3.28e-04	0	44	0	2319450112	6	3995
2026-01-08 01:13:24.21	121.42	27.08	-22.7	-23.3	19.4	2.87e-04	0	44	0	2325741568	6	3889
2026-01-08 01:13:25.22	121.70	27.00	-22.7	-23.4	19.4	0.00e+00	0	44	0	2330984448	6	3911
2026-01-08 01:13:26.22	121.98	26.92	-22.9	-23.8	19.2	1.49e-04	0	44	0	2336227328	6	4009
2026-01-08 01:13:27.22	122.25	26.84	-22.9	-23.9	19.1	1.43e-04	0	44	0	2342518784	6	4025
2026-01-08 01:13:28.22	122.53	26.75	-23.0	-24.0	19.1	0.00e+00	0	44	0	2347761664	6	4039
2026-01-08 01:13:29.23	122.80	26.67	-22.9	-23.8	19.2	1.25e-05	0	44	0	2354053120	6	4002
2026-01-08 01:13:30.24	123.08	26.59	-22.9	-23.8	19.2	0.00e+00	0	44	0	2359296000	6	4009
2026-01-08 01:13:31.25	123.35	26.51	-22.9	-23.9	19.1	0.00e+00	0	44	0	2364538880	6	4029
2026-01-08 01:13:32.25	123.62	26.42	-23.1	-24.2	18.9	2.20e-06	0	44	0	2370830336	6	4109
2026-01-08 01:13:33.26	123.89	26.34	-23.1	-24.2	18.9	0.00e+00	0	44	0	2376073216	6	4110
2026-01-08 01:13:34.27	124.16	26.26	-23.1	-24.3	18.9	0.00e+00	0	44	0	2382364672	6	4132
2026-01-08 01:13:35.27	124.43	26.17	-23.2	-24.4	18.9	1.10e-06	0	44	0	2387607552	6	4140
2026-01-08 01:13:36.28	124.69	26.09	-22.9	-23.9	19.1	1.44e-04	0	44	0	2392850432	6	4018
2026-01-08 01:13:37.28	124.95	26.00	-22.9	-23.8	19.1	0.00e+00	0	44	0	2399141888	6	3992
2026-01-08 01:13:38.30	125.22	25.92	-23.0	-24.0	19.0	6.63e-05	0	44	0	2404384768	6	4045
2026-01-08 01:13:39.30	125.48	25.83	-23.0	-24.2	19.0	0.00e+00	0	44	0	2409627648	6	4089
2026-01-08 01:13:40.31	125.74	25.75	-23.1	-24.2	18.9	0.00e+00	0	44	0	2415919104	6	4109
2026-01-08 01:13:41.32	126.00	25.66	-23.1	-24.2	18.9	2.20e-06	0	44	0	2421161984	6	4092
2026-01-08 01:13:42.32	126.26	25.57	-23.1	-24.3	18.9	0.00e+00	0	44	0	2427453440	6	4118
2026-01-08 01:13:43.32	126.51	25.49	-23.1	-24.3	18.9	0.00e+00	0	44	0	2432696320	6	4139
2026-01-08 01:13:44.33	126.77	25.40	-22.9	-23.9	19.1	1.10e-06	0	44	0	2438987776	6	4031
2026-01-08 01:13:45.34	127.02	25.31	-22.8	-23.7	19.2	0.00e+00	0	44	0	2444230656	6	3983
2026-01-08 01:13:46.34	127.27	25.22	-22.9	-23.7	19.2	0.00e+00	0	44	0	2449473536	6	3986
2026-01-08 01:13:47.35	127.52	25.13	-22.9	-23.8	19.2	1.10e-06	0	44	0	2455764992	6	3983
2026-01-08 01:13:48.35	127.77	25.05	-22.9	-23.9	19.1	0.00e+00	0	44	0	2461007872	6	4019
2026-01-08 01:13:49.36	128.02	24.96	-23.0	-23.9	19.1	0.00e+00	0	44	0	2467299328	6	4023
2026-01-08 01:13:50.36	128.26	24.87	-23.0	-24.1	19.0	1.10e-06	0	44	0	2472542208	6	4074
2026-01-08 01:13:51.37	128.51	24.78	-23.0	-24.1	19.0	0.00e+00	0	44	0	2477785088	6	4064
2026-01-08 01:13:52.37	128.75	24.69	-23.1	-24.2	18.9	0.00e+00	0	44	0	2484076544	6	4098
2026-01-08 01:13:53.38	128.99	24.60	-23.1	-24.2	18.9	2.20e-06	0	44	0	2489319424	6	4111
2026-01-08 01:13:54.39	129.23	24.51	-23.2	-24.6	18.7	0.00e+00	0	44	0	2494562304	6	4189
2026-01-08 01:13:55.39	129.47	24.42	-23.4	-24.8	18.6	0.00e+00	0	44	0	2500853760	6	4260
2026-01-08 01:13:56.39	129.71	24.33	-23.4	-25.0	18.5	0.00e+00	0	44	0	2506096640	6	4298
2026-01-08 01:13:57.39	129.94	24.24	-23.5	-25.0	18.5	0.00e+00	0	44	0	2512388096	6	4314
2026-01-08 01:13:58.40	130.18	24.15	-23.4	-24.9	18.5	0.00e+00	0	44	0	2517630976	6	4280
2026-01-08 01:13:59.40	130.41	24.06	-23.4	-24.9	18.5	0.00e+00	0	44	0	2523922432	6	4261
2026-01-08 01:14:00.41	130.65	23.97	-23.4	-24.8	18.6	0.00e+00	0	44	0	2529165312	6	4241
2026-01-08 01:14:01.42	130.88	23.88	-23.3	-24.8	18.6	0.00e+00	0	44	0	2534408192	6	4235
2026-01-08 01:14:02.42	131.11	23.79	-23.4	-24.5	18.5	0.00e+00	0	44	0	2540699648	7	4050
2026-01-08 01:14:03.43	131.34	23.69	-23.4	-24.3	18.5	0.00e+00	0	44	0	2545942528	7	4024
2026-01-08 01:14:04.44	131.57	23.60	-23.4	-24.3	18.6	0.00e+00	0	44	0	2551185408	7	4009
2026-01-08 01:14:05.44	131.79	23.51	-23.4	-24.4	18.5	0.00e+00	0	44	0	2557476864	7	4050
2026-01-08 01:14:06.44	132.01	23.42	-23.5	-24.5	18.5	0.00e+00	0	44	0	2562719744	7	4066
2026-01-08 01:14:07.45	132.24	23.33	-23.5	-24.7	18.4	0.00e+00	0	44	0	2567962624	7	4110
2026-01-08 01:14:08.45	132.46	23.24	-23.5	-24.7	18.4	0.00e+00	0	44	0	2574254080	7	4102
2026-01-08 01:14:09.46	132.68	23.14	-23.3	-24.3	18.6	0.00e+00	0	44	0	2579496960	7	4000
2026-01-08 01:14:10.47	132.90	23.05	-23.4	-24.3	18.6	0.00e+00	0	44	0	2585788416	7	4017
2026-01-08 01:14:11.47	133.12	22.96	-23.4	-24.4	18.5	0.00e+00	0	44	0	2591031296	7	4028
2026-01-08 01:14:12.48	133.34	22.87	-23.4	-24.4	18.5	0.00e+00	0	44	0	2597322752	7	4042
2026-01-08 01:14:13.48	133.55	22.77	-23.5	-24.6	18.4	0.00e+00	0	44	0	2602565632	7	4086
2026-01-08 01:14:14.49	133.77	22.68	-23.5	-24.6	18.4	0.00e+00	0	44	0	2607808512	7	4090
2026-01-08 01:14:15.50	133.98	22.59	-23.6	-24.8	18.3	0.00e+00	0	44	0	2614099968	7	4134
2026-01-08 01:14:16.51	134.20	22.50	-23.7	-25.0	18.1	0.00e+00	0	44	0	2619342848	7	4178
2026-01-08 01:14:17.51	134.41	22.40	-23.8	-25.1	18.0	0.00e+00	0	44	0	2625634304	7	4229
2026-01-08 01:14:18.52	134.62	22.31	-23.8	-25.2	18.1	0.00e+00	0	44	0	2630877184	7	4246
2026-01-08 01:14:19.52	134.82	22.22	-23.8	-25.2	18.0	0.00e+00	0	44	0	2636120064	7	4248
2026-01-08 01:14:20.53	135.03	22.12	-23.8	-25.3	18.0	0.00e+00	0	44	0	2642411520	7	4276
2026-01-08 01:14:21.54	135.24	22.03	-23.8	-25.3	18.0	0.00e+00	0	44	0	2647654400	7	4282
2026-01-08 01:14:22.53	135.44	21.94	-23.7	-25.1	18.1	0.00e+00	0	44	0	2652897280	7	4212
2026-01-08 01:14:23.54	135.65	21.85	-23.8	-25.2	18.0	0.00e+00	0	44	0	2659188736	7	4234
2026-01-08 01:14:24.54	135.85	21.75	-23.7	-25.1	18.1	0.00e+00	0	44	0	2664431616	7	4203
2026-01-08 01:14:25.55	136.05	21.66	-23.7	-25.1	18.0	1.33e-04	0	44	0	2670723072	7	4222
2026-01-08 01:14:26.56	136.25	21.57	-23.8	-25.3	17.9	0.00e+00	0	44	0	2675965952	7	4269
2026-01-08 01:14:27.57	136.45	21.47	-24.0	-25.6	17.8	0.00e+00	0	44	0	2682257408	7	4350
2026-01-08 01:14:28.57	136.65	21.38	-24.3	-25.8	17.5	0.00e+00	0	44	0	2687500288	8	4272
2026-01-08 01:14:29.58	136.84	21.29	-24.4	-26.1	17.3	0.00e+00	0	44	0	2692743168	8	4358
2026-01-08 01:14:30.58	137.04	21.19	-24.6	-25.9	17.1	0.00e+00	0	44	0	2699034624	9	4190
2026-01-08 01:14:31.59	137.23	21.10	-24.7	-26.1	17.0	0.00e+00	0	44	0	2704277504	9	4260
2026-01-08 01:14:32.59	137.43	21.01	-24.7	-26.2	17.0	3.68e-04	0	44	0	2709520384	9	4272
2026-01-08 01:14:33.59	137.62	20.92	-24.7	-26.3	16.9	0.00e+00	0	44	0	2715811840	9	4301
2026-01-08 01:14:34.59	137.81	20.82	-24.7	-26.2	17.0	4.49e-04	0	44	0	2721054720	9	4270
2026-01-08 01:14:35.60	138.00	20.73	-24.8	-26.4	16.8	4.52e-04	0	44	0	2726297600	9	4317
2026-01-08 01:14:36.60	138.19	20.64	-24.8	-26.4	16.8	0.00e+00	0	44	0	2732589056	9	4322
2026-01-08 01:14:37.61	138.37	20.54	-24.7	-26.1	17.0	3.94e-04	0	44	0	2737831936	9	4257
2026-01-08 01:14:38.61	138.56	20.45	-24.7	-26.2	17.0	3.59e-04	0	44	0	2744123392	9	4271
2026-01-08 01:14:39.62	138.75	20.36	-24.7	-26.3	16.9	0.00e+00	0	44	0	2749366272	9	4299
2026-01-08 01:14:40.62	138.93	20.27	-25.0	-26.8	16.6	3.40e-06	0	44	0	2755657728	9	4452
2026-01-08 01:14:41.63	139.11	20.17	-24.9	-26.2	16.7	3.18e-04	0	44	0	2760900608	10	4182
2026-01-08 01:14:42.64	139.30	20.08	-24.6	-25.5	17.0	0.00e+00	0	44	0	2766143488	10	3994
2026-01-08 01:14:43.65	139.48	19.99	-24.3	-25.4	17.3	4.34e-04	0	44	0	2772434944	9	4072
2026-01-08 01:14:44.65	139.66	19.90	-24.2	-25.0	17.5	5.54e-04	0	44	0	2777677824	9	3981
2026-01-08 01:14:45.65	139.84	19.80	-24.2	-25.0	17.5	0.00e+00	0	44	0	2783969280	9	3983
2026-01-08 01:14:46.66	140.02	19.71	-24.1	-25.4	17.6	7.37e-04	0	44	0	2789212160	8	4190
2026-01-08 01:14:47.67	140.19	19.62	-24.1	-25.4	17.6	0.00e+00	0	44	0	2794455040	8	4192
2026-01-08 01:14:48.67	140.37	19.53	-24.2	-25.6	17.5	0.00e+00	0	44	0	2800746496	8	4224
2026-01-08 01:14:49.68	140.54	19.43	-24.2	-25.6	17.4	7.45e-04	0	44	0	2805989376	8	4248
2026-01-08 01:14:50.69	140.72	19.34	-24.2	-25.7	17.4	7.52e-04	0	44	0	2811232256	8	4258
2026-01-08 01:14:51.70	140.89	19.25	-24.3	-25.9	17.3	1.10e-06	0	44	0	2817523712	8	4313
2026-01-08 01:14:52.70	141.06	19.16	-24.3	-25.9	17.3	0.00e+00	0	44	0	2822766592	8	4321
2026-01-08 01:14:53.71	141.23	19.07	-24.3	-25.9	17.3	5.56e-04	0	44	0	2829058048	8	4315
2026-01-08 01:14:54.72	141.41	18.97	-24.5	-26.2	17.1	0.00e+00	0	44	0	2834300928	8	4398
2026-01-08 01:14:55.72	141.57	18.88	-24.5	-25.7	17.1	4.46e-04	0	44	0	2840592384	9	4151
2026-01-08 01:14:56.73	141.74	18.79	-24.5	-25.7	17.1	0.00e+00	0	44	0	2845835264	9	4156
2026-01-08 01:14:57.74	141.91	18.70	-24.5	-25.9	17.0	0.00e+00	0	44	0	2851078144	9	4192
2026-01-08 01:14:58.75	142.08	18.61	-24.6	-25.9	17.0	0.00e+00	0	44	0	2857369600	9	4207
2026-01-08 01:14:59.76	142.24	18.52	-24.7	-26.2	16.8	0.00e+00	0	44	0	2862612480	9	4284
2026-01-08 01:15:00.76	142.41	18.42	-24.7	-26.2	16.8	0.00e+00	0	44	0	2868903936	9	4286
2026-01-08 01:15:01.77	142.57	18.33	-24.7	-26.3	16.7	0.00e+00	0	44	0	2874146816	9	4313
2026-01-08 01:15:02.78	142.73	18.24	-24.8	-26.4	16.7	9.04e-04	0	44	0	2879389696	9	4345
2026-01-08 01:15:03.78	142.89	18.15	-24.9	-26.7	16.5	0.00e+00	0	44	0	2885681152	9	4408
2026-01-08 01:15:04.79	143.05	18.06	-24.9	-26.6	16.6	0.00e+00	0	44	0	2890924032	9	4389
2026-01-08 01:15:05.80	143.21	17.97	-24.9	-26.6	16.6	0.00e+00	0	44	0	2896166912	9	4383
2026-01-08 01:15:06.80	143.37	17.88	-24.8	-26.5	16.6	0.00e+00	0	44	0	2902458368	9	4361
2026-01-08 01:15:07.80	143.53	17.79	-24.8	-26.5	16.6	0.00e+00	0	44	0	2907701248	9	4363
2026-01-08 01:15:08.80	143.68	17.70	-24.9	-26.7	16.4	0.00e+00	0	44	0	2913992704	9	4429
2026-01-08 01:15:09.81	143.84	17.61	-24.9	-26.5	16.6	0.00e+00	0	44	0	2919235584	9	4369
2026-01-08 01:15:10.82	143.99	17.52	-24.8	-26.5	16.6	0.00e+00	0	44	0	2925527040	9	4349
2026-01-08 01:15:11.83	144.15	17.43	-24.9	-26.6	16.5	0.00e+00	0	44	0	2930769920	9	4392
2026-01-08 01:15:12.83	144.30	17.34	-25.0	-26.4	16.3	0.00e+00	0	44	0	2936012800	10	4229
2026-01-08 01:15:13.84	144.45	17.25	-25.2	-26.9	16.1	0.00e+00	0	44	0	2942304256	10	4354
2026-01-08 01:15:14.84	144.60	17.16	-25.2	-26.8	16.1	0.00e+00	0	44	0	2947547136	10	4337
2026-01-08 01:15:15.84	144.75	17.07	-25.2	-26.7	16.1	0.00e+00	0	44	0	2952790016	10	4313
2026-01-08 01:15:16.85	144.90	16.98	-25.3	-27.0	16.0	0.00e+00	0	44	0	2959081472	10	4377
2026-01-08 01:15:17.86	145.05	16.89	-25.2	-26.9	16.0	0.00e+00	0	44	0	2964324352	10	4365
2026-01-08 01:15:18.86	145.20	16.81	-25.4	-27.2	15.9	0.00e+00	0	44	0	2970615808	10	4441
2026-01-08 01:15:19.87	145.35	16.72	-25.2	-26.9	16.0	0.00e+00	0	44	0	2975858688	10	4373
2026-01-08 01:15:20.88	145.50	16.63	-25.2	-26.8	16.1	0.00e+00	0	44	0	2981101568	10	4326
2026-01-08 01:15:21.88	145.64	16.54	-25.2	-26.9	16.1	0.00e+00	0	44	0	2987393024	10	4346
2026-01-08 01:15:22.89	145.79	16.45	-25.1	-26.6	16.2	0.00e+00	0	44	0	2992635904	10	4289
2026-01-08 01:15:23.89	145.93	16.36	-25.1	-26.6	16.2	0.00e+00	0	44	0	2998927360	10	4277
2026-01-08 01:15:24.90	146.07	16.28	-25.2	-26.9	16.0	0.00e+00	0	44	0	3004170240	10	4356
2026-01-08 01:15:25.90	146.21	16.19	-25.1	-26.7	16.2	0.00e+00	0	44	0	3009413120	10	4292
2026-01-08 01:15:26.91	146.35	16.10	-25.2	-26.7	16.1	0.00e+00	0	44	0	3015704576	10	4316
2026-01-08 01:15:27.92	146.50	16.01	-25.2	-26.8	16.1	0.00e+00	0	44	0	3020947456	10	4331
2026-01-08 01:15:28.93	146.64	15.93	-25.4	-27.2	15.9	0.00e+00	0	44	0	3027238912	10	4440
2026-01-08 01:15:29.94	146.78	15.84	-25.3	-27.0	15.9	0.00e+00	0	44	0	3032481792	10	4390
2026-01-08 01:15:30.94	146.91	15.75	-25.3	-27.0	15.9	0.00e+00	0	44	0	3037724672	10	4402
2026-01-08 01:15:31.95	147.05	15.66	-25.3	-27.1	15.9	0.00e+00	0	44	0	3044016128	10	4425
2026-01-08 01:15:32.95	147.19	15.58	-25.5	-27.5	15.7	0.00e+00	0	44	0	3049259008	10	4519
2026-01-08 01:15:33.96	147.32	15.49	-25.3	-26.6	15.9	6.80e-06	0	44	0	3055550464	11	4174
2026-01-08 01:15:34.97	147.46	15.40	-25.2	-26.9	16.0	0.00e+00	0	44	0	3060793344	10	4355
2026-01-08 01:15:35.97	147.59	15.32	-25.3	-26.9	16.0	0.00e+00	0	44	0	3066036224	10	4370
2026-01-08 01:15:36.98	147.73	15.23	-25.4	-27.2	15.8	0.00e+00	0	44	0	3072327680	10	4440
2026-01-08 01:15:37.99	147.86	15.15	-25.2	-26.8	16.1	0.00e+00	0	44	0	3077570560	10	4321
2026-01-08 01:15:38.99	147.99	15.06	-25.1	-26.6	16.1	0.00e+00	0	44	0	3083862016	10	4286
2026-01-08 01:15:40.00	148.12	14.98	-25.1	-26.6	16.1	0.00e+00	0	44	0	3089104896	10	4283
2026-01-08 01:15:41.01	148.25	14.89	-25.1	-26.5	16.2	0.00e+00	0	44	0	3095396352	10	4239
2026-01-08 01:15:42.01	148.38	14.81	-25.2	-26.8	16.1	0.00e+00	0	44	0	3100639232	10	4323
2026-01-08 01:15:43.02	148.51	14.72	-25.1	-26.6	16.1	1.43e-03	0	44	0	3105882112	10	4288
2026-01-08 01:15:44.03	148.64	14.63	-25.1	-26.7	16.1	0.00e+00	0	44	0	3112173568	10	4301
2026-01-08 01:15:45.04	148.77	14.55	-25.2	-26.7	16.1	0.00e+00	0	44	0	3117416448	10	4308
2026-01-08 01:15:46.04	148.90	14.47	-25.3	-27.0	15.9	0.00e+00	0	44	0	3122659328	10	4391
2026-01-08 01:15:47.05	149.02	14.38	-25.2	-26.9	15.9	0.00e+00	0	44	0	3128950784	10	4358
2026-01-08 01:15:48.06	149.15	14.30	-25.3	-27.1	15.8	1.43e-04	0	44	0	3134193664	10	4426
2026-01-08 01:15:49.07	149.28	14.21	-25.3	-27.0	15.9	3.40e-06	0	44	0	3140485120	10	4390
2026-01-08 01:15:50.07	149.40	14.13	-25.4	-27.3	15.7	1.35e-03	0	44	0	3145728000	10	4466
2026-01-08 01:15:51.09	149.52	14.04	-25.3	-27.2	15.8	0.00e+00	0	44	0	3150970880	10	4446
2026-01-08 01:15:52.10	149.65	13.96	-25.5	-27.4	15.6	1.30e-03	0	44	0	3157262336	10	4510
2026-01-08 01:15:53.10	149.77	13.88	-25.7	-27.4	15.4	2.63e-05	0	44	0	3162505216	11	4388
2026-01-08 01:15:54.10	149.89	13.79	-25.7	-27.5	15.3	2.01e-04	0	44	0	3168796672	11	4404
2026-01-08 01:15:55.11	150.01	13.71	-25.8	-27.6	15.2	1.58e-03	0	44	0	3174039552	11	4431
2026-01-08 01:15:56.12	150.13	13.63	-25.8	-27.7	15.2	1.53e-03	0	44	0	3180331008	11	4481
2026-01-08 01:15:57.12	150.25	13.55	-25.8	-27.6	15.2	2.18e-04	0	44	0	3185573888	11	4456
2026-01-08 01:15:58.12	150.37	13.46	-25.8	-27.8	15.1	8.00e-06	0	44	0	3190816768	11	4507
2026-01-08 01:15:59.13	150.49	13.38	-25.9	-27.9	15.0	1.52e-03	0	44	0	3197108224	11	4531
2026-01-08 01:16:00.13	150.61	13.30	-26.2	-28.1	14.5	2.48e-04	0	44	0	3202351104	12	4470
2026-01-08 01:16:01.14	150.72	13.22	-26.5	-28.4	14.1	1.71e-03	0	44	0	3207593984	13	4456
2026-01-08 01:16:02.15	150.84	13.13	-26.2	-28.2	14.5	1.78e-03	0	44	0	3213885440	12	4507
2026-01-08 01:16:03.15	150.96	13.05	-26.0	-27.6	14.8	2.93e-04	0	44	0	3219128320	12	4357
2026-01-08 01:16:04.16	151.07	12.97	-25.8	-27.8	15.0	1.71e-03	0	44	0	3225419776	11	4518
2026-01-08 01:16:05.17	151.19	12.89	-25.9	-27.9	15.0	2.40e-05	0	44	0	3230662656	11	4529
2026-01-08 01:16:06.17	151.30	12.81	-25.9	-27.9	14.9	2.86e-04	0	44	0	3235905536	11	4541
2026-01-08 01:16:07.17	151.41	12.73	-26.0	-27.6	14.8	0.00e+00	0	44	0	3242196992	12	4336
2026-01-08 01:16:08.19	151.53	12.65	-26.1	-27.9	14.6	1.57e-03	0	44	0	3247439872	12	4441
2026-01-08 01:16:09.19	151.64	12.57	-25.9	-27.5	14.8	3.39e-04	0	44	0	3253731328	12	4313
2026-01-08 01:16:10.20	151.75	12.49	-25.9	-28.0	14.9	1.58e-03	0	44	0	3258974208	11	4569
2026-01-08 01:16:11.20	151.86	12.41	-26.0	-28.1	14.8	1.69e-03	0	44	0	3264217088	11	4605
2026-01-08 01:16:12.21	151.97	12.32	-26.1	-27.9	14.6	0.00e+00	0	44	0	3270508544	12	4415
2026-01-08 01:16:13.21	152.08	12.25	-26.2	-28.2	14.4	1.75e-03	0	44	0	3275751424	12	4508
2026-01-08 01:16:14.22	152.19	12.17	-26.1	-27.9	14.6	0.00e+00	0	44	0	3282042880	12	4429
2026-01-08 01:16:15.23	152.30	12.09	-26.2	-28.0	14.5	3.31e-04	0	44	0	3287285760	12	4453
2026-01-08 01:16:16.23	152.41	12.01	-26.2	-28.1	14.5	0.00e+00	0	44	0	3292528640	12	4476
2026-01-08 01:16:17.24	152.52	11.93	-26.3	-28.3	14.4	2.20e-06	0	44	0	3298820096	12	4529
2026-01-08 01:16:18.23	152.62	11.85	-26.4	-28.5	14.2	3.47e-04	0	44	0	3304062976	12	4604
2026-01-08 01:16:19.24	152.73	11.77	-26.6	-28.5	13.9	1.10e-06	0	44	0	3309305856	13	4493
2026-01-08 01:16:20.25	152.84	11.69	-26.4	-28.1	14.2	1.69e-03	0	44	0	3315597312	13	4364
2026-01-08 01:16:21.26	152.94	11.61	-26.3	-28.4	14.3	0.00e+00	0	44	0	3320840192	12	4586
2026-01-08 01:16:22.26	153.05	11.53	-26.4	-28.7	14.1	0.00e+00	0	44	0	3327131648	12	4652
2026-01-08 01:16:23.27	153.15	11.45	-26.3	-28.4	14.3	0.00e+00	0	44	0	3332374528	12	4566
2026-01-08 01:16:24.27	153.25	11.38	-26.2	-28.1	14.4	0.00e+00	0	44	0	3338665984	12	4497
2026-01-08 01:16:25.28	153.36	11.30	-26.2	-28.1	14.4	0.00e+00	0	44	0	3343908864	12	4502
2026-01-08 01:16:26.28	153.46	11.22	-26.2	-28.2	14.4	0.00e+00	0	44	0	3349151744	12	4523
2026-01-08 01:16:27.29	153.56	11.14	-26.2	-28.2	14.4	0.00e+00	0	44	0	3355443200	12	4503
2026-01-08 01:16:28.30	153.66	11.07	-26.3	-28.3	14.3	0.00e+00	0	44	0	3360686080	12	4547
2026-01-08 01:16:29.31	153.77	10.99	-26.2	-28.2	14.3	0.00e+00	0	44	0	3366977536	12	4523
2026-01-08 01:16:30.31	153.87	10.91	-26.3	-28.3	14.3	0.00e+00	0	44	0	3372220416	12	4557
2026-01-08 01:16:31.32	153.97	10.83	-26.3	-28.3	14.2	0.00e+00	0	44	0	3377463296	12	4569
2026-01-08 01:16:32.32	154.07	10.76	-26.2	-28.2	14.3	0.00e+00	0	44	0	3383754752	12	4537
2026-01-08 01:16:33.32	154.16	10.68	-26.2	-28.2	14.3	1.10e-06	0	44	0	3388997632	12	4544
2026-01-08 01:16:34.32	154.26	10.61	-26.3	-28.5	14.2	1.10e-06	0	44	0	3394240512	12	4610
2026-01-08 01:16:35.33	154.36	10.53	-26.3	-28.4	14.2	0.00e+00	0	44	0	3400531968	12	4575
2026-01-08 01:16:36.33	154.46	10.45	-26.4	-28.6	14.1	0.00e+00	0	44	0	3405774848	12	4629
2026-01-08 01:16:37.34	154.56	10.38	-26.4	-28.6	14.1	0.00e+00	0	44	0	3412066304	12	4650
2026-01-08 01:16:38.35	154.65	10.30	-26.3	-28.5	14.2	0.00e+00	0	44	0	3417309184	12	4600
2026-01-08 01:16:39.35	154.75	10.23	-26.4	-28.6	14.1	0.00e+00	0	44	0	3422552064	12	4632
2026-01-08 01:16:40.35	154.84	10.15	-26.5	-28.8	14.0	0.00e+00	0	44	0	3428843520	12	4707
2026-01-08 01:16:41.36	154.94	10.07	-26.4	-28.7	14.1	1.10e-06	0	44	0	3434086400	12	4670
2026-01-08 01:16:42.36	155.03	10.00	-26.5	-28.3	14.0	1.10e-06	0	44	0	3440377856	13	4442
2026-01-08 01:16:43.37	155.13	9.92	-26.7	-28.8	13.7	1.10e-06	0	44	0	3445620736	13	4580
2026-01-08 01:16:44.38	155.22	9.85	-26.8	-29.1	13.5	6.80e-06	0	44	0	3450863616	13	4690
2026-01-08 01:16:45.39	155.32	9.77	-26.6	-28.6	13.8	2.20e-06	0	44	0	3457155072	13	4538
2026-01-08 01:16:46.39	155.41	9.70	-26.5	-28.3	13.9	2.20e-06	0	44	0	3462397952	13	4449
2026-01-08 01:16:47.39	155.50	9.63	-26.4	-28.2	14.0	1.10e-06	0	44	0	3467640832	13	4419
2026-01-08 01:16:48.39	155.59	9.55	-26.5	-28.3	14.0	0.00e+00	0	44	0	3473932288	13	4444
2026-01-08 01:16:49.39	155.68	9.48	-26.5	-28.7	14.0	0.00e+00	0	44	0	3479175168	12	4677
2026-01-08 01:16:50.40	155.78	9.41	-26.4	-28.7	14.0	2.20e-06	0	44	0	3485466624	12	4683
2026-01-08 01:16:51.40	155.87	9.33	-26.6	-28.7	13.8	0.00e+00	0	44	0	3490709504	13	4542
2026-01-08 01:16:52.40	155.96	9.26	-26.6	-28.5	13.8	1.10e-06	0	44	0	3497000960	13	4510
2026-01-08 01:16:53.41	156.05	9.18	-26.5	-28.3	14.0	2.20e-06	0	44	0	3502243840	13	4441
2026-01-08 01:16:54.42	156.14	9.11	-26.4	-28.1	14.1	2.20e-06	0	44	0	3507486720	13	4380
2026-01-08 01:16:55.43	156.23	9.04	-26.5	-28.7	14.0	2.20e-06	0	44	0	3513778176	12	4654
2026-01-08 01:16:56.43	156.31	8.97	-26.5	-28.7	14.0	1.10e-06	0	44	0	3519021056	12	4662
2026-01-08 01:16:57.44	156.40	8.89	-26.6	-28.5	13.9	5.70e-06	0	44	0	3524263936	13	4481
2026-01-08 01:16:58.44	156.49	8.82	-26.6	-28.5	13.8	0.00e+00	0	44	0	3530555392	13	4491
2026-01-08 01:16:59.44	156.58	8.75	-26.5	-28.3	13.9	2.20e-06	0	44	0	3535798272	13	4443
2026-01-08 01:17:00.45	156.66	8.68	-26.5	-28.3	13.9	1.10e-06	0	44	0	3541041152	13	4436
2026-01-08 01:17:01.45	156.75	8.60	-26.5	-28.4	13.8	2.20e-06	0	44	0	3547332608	13	4485
2026-01-08 01:17:02.45	156.84	8.53	-26.5	-28.4	13.7	3.40e-06	0	44	0	3552575488	13	4492
2026-01-08 01:17:03.46	156.92	8.46	-26.5	-28.4	13.5	1.10e-06	0	44	0	3558866944	13	4495
2026-01-08 01:17:04.47	157.01	8.39	-26.5	-28.5	13.7	1.10e-06	0	44	0	3564109824	13	4509
2026-01-08 01:17:05.47	157.09	8.32	-26.5	-28.5	13.7	4.57e-05	0	44	0	3570401280	13	4504
2026-01-08 01:17:06.48	157.18	8.25	-26.5	-28.4	13.8	5.70e-06	0	44	0	3575644160	13	4484
2026-01-08 01:17:07.49	157.26	8.17	-26.6	-28.6	13.6	1.50e-03	0	44	0	3580887040	13	4567
2026-01-08 01:17:08.49	157.34	8.10	-26.6	-28.6	13.6	9.61e-05	0	44	0	3587178496	13	4551
2026-01-08 01:17:09.50	157.43	8.03	-26.6	-28.8	13.5	8.00e-06	0	44	0	3592421376	13	4595
2026-01-08 01:17:10.51	157.51	7.96	-26.8	-29.2	13.2	1.34e-04	0	44	0	3598712832	13	4740
2026-01-08 01:17:11.52	157.59	7.89	-26.8	-29.2	13.3	1.57e-04	0	44	0	3603955712	13	4726
2026-01-08 01:17:12.52	157.68	7.82	-26.6	-28.7	13.6	1.33e-03	0	44	0	3609198592	13	4575
2026-01-08 01:17:13.53	157.76	7.75	-26.6	-28.6	13.6	1.52e-04	0	44	0	3615490048	13	4531
2026-01-08 01:17:14.53	157.84	7.68	-26.6	-28.7	13.6	1.42e-04	0	44	0	3620732928	13	4558
2026-01-08 01:17:15.54	157.92	7.61	-26.6	-28.7	13.6	3.40e-06	0	44	0	3625975808	13	4557
2026-01-08 01:17:16.54	158.00	7.54	-26.7	-28.9	13.5	1.55e-03	0	44	0	3632267264	13	4629
2026-01-08 01:17:17.55	158.08	7.47	-26.7	-28.9	13.4	1.15e-04	0	44	0	3637510144	13	4634
2026-01-08 01:17:18.56	158.16	7.40	-26.7	-28.8	13.5	1.39e-03	0	44	0	3643801600	13	4592
2026-01-08 01:17:19.57	158.24	7.33	-26.7	-28.8	13.5	1.35e-03	0	44	0	3649044480	13	4585
2026-01-08 01:17:20.57	158.32	7.26	-26.7	-28.8	13.5	6.80e-06	0	44	0	3655335936	13	4618
2026-01-08 01:17:21.58	158.40	7.19	-26.7	-28.9	13.4	1.27e-03	0	44	0	3660578816	13	4624
2026-01-08 01:17:22.58	158.48	7.12	-26.8	-29.2	13.2	6.80e-06	0	44	0	3665821696	13	4729
2026-01-08 01:17:23.59	158.56	7.05	-32.1	-43.0	3.8	4.40e-01	0	44	104	3670016000	24	12694
2026-01-08 01:17:24.59	158.63	6.98	-32.4	-43.5	3.8	8.47e-01	0	44	104	3670016000	25	12865
2026-01-08 01:17:25.61	158.71	6.92	-33.1	-44.3	3.8	8.47e-01	0	44	104	3670016000	26	13111
2026-01-08 01:17:26.61	158.79	6.85	-33.5	-45.0	3.8	8.45e-01	0	44	104	3670016000	26	13573

#Closed at: 2026-01-08 01:17:27
#Recorded file [3670 MB]: D:/data/31010_260108_040630.dat