passes_logs/2026/01/08/R2M6_AANII_01/R2M6_AANII_01__20260108_020718_NOAA_20_JPSS-1_rec.log

#Pass ID: 20260108_020718_NOAA 20 (JPSS-1)
#Satellite: NOAA 20 (JPSS-1)
#Configuration: NOAA 20
#almurnet v.1.7.20240730
#Start time: 2026-01-08 02:07:20

#Version: 2.2.20231116
#Station: R2M6_AANII_01
#Location: 30.233357 lon 59.946436 lat
#TLE: 1 43013U 17073A   26006.30790171  .00000126  00000+0  80695-4 0  9991
#TLE: 2 43013  98.7629 307.3394 0001808  51.8724 308.2615 14.19533762421505

#Time	Az	El	Level	Level2	SNR	BER	BlckErr	Temp	State	Recorded	gain1	gain2
2026-01-08 02:07:20.19	10.72	7.09	-32.1	-40.2	4.5	1.37e+00	0	41	0	0	24	9164
2026-01-08 02:07:21.19	10.64	7.15	-32.0	-39.5	4.6	1.34e+00	0	41	104	0	24	8566
2026-01-08 02:07:22.19	10.55	7.22	-32.0	-39.7	6.0	3.18e-01	0	41	0	0	24	8719
2026-01-08 02:07:23.20	10.46	7.28	-32.0	-39.6	6.1	3.07e-01	0	41	0	1048576	24	8601
2026-01-08 02:07:24.20	10.38	7.35	-32.0	-39.5	6.2	2.93e-01	0	41	0	3145728	24	8538
2026-01-08 02:07:25.21	10.29	7.42	-32.1	-39.8	6.0	3.08e-01	0	41	0	5242880	24	8761
2026-01-08 02:07:26.21	10.20	7.48	-32.1	-40.1	5.8	3.46e-01	0	41	0	7340032	24	9069
2026-01-08 02:07:27.22	10.12	7.55	-32.1	-39.7	6.1	3.50e-01	0	41	0	9437184	24	8661
2026-01-08 02:07:28.22	10.03	7.62	-31.9	-39.0	6.9	2.22e-01	0	41	0	10485760	23	8204
2026-01-08 02:07:29.22	9.94	7.68	-31.7	-38.0	7.7	1.33e-01	0	41	0	12582912	23	7490
2026-01-08 02:07:30.23	9.85	7.75	-31.5	-37.1	8.4	5.86e-02	0	41	0	14680064	23	6882
2026-01-08 02:07:31.24	9.76	7.82	-31.2	-36.7	9.2	2.79e-02	0	41	0	16777216	22	6724
2026-01-08 02:07:32.24	9.67	7.89	-31.2	-36.4	9.4	2.25e-02	0	41	0	18874368	22	6560
2026-01-08 02:07:33.25	9.58	7.95	-31.0	-35.8	9.9	1.08e-02	0	41	0	19922944	22	6245
2026-01-08 02:07:34.25	9.49	8.02	-30.9	-35.8	10.3	8.88e-03	0	42	0	22020096	21	6334
2026-01-08 02:07:35.26	9.40	8.09	-30.8	-35.6	10.4	7.04e-03	0	41	0	24117248	21	6251
2026-01-08 02:07:36.26	9.31	8.16	-30.8	-35.7	10.4	4.95e-03	0	41	0	26214400	21	6266
2026-01-08 02:07:37.27	9.21	8.22	-30.8	-35.6	10.5	6.93e-03	0	42	0	28311552	21	6238
2026-01-08 02:07:38.28	9.12	8.29	-30.9	-35.8	10.3	7.40e-03	0	42	0	29360128	21	6346
2026-01-08 02:07:39.28	9.03	8.36	-30.9	-35.9	10.3	5.49e-03	0	42	0	31457280	21	6372
2026-01-08 02:07:40.29	8.94	8.43	-30.8	-35.5	10.5	3.96e-03	0	42	0	33554432	21	6197
2026-01-08 02:07:41.30	8.84	8.50	-30.9	-35.7	10.5	7.47e-03	0	42	0	35651584	21	6270
2026-01-08 02:07:42.30	8.75	8.57	-30.8	-35.5	10.6	4.12e-03	0	42	0	37748736	21	6192
2026-01-08 02:07:43.31	8.65	8.63	-30.8	-35.5	10.6	3.64e-03	0	42	0	38797312	21	6158
2026-01-08 02:07:44.32	8.56	8.70	-30.8	-35.5	10.6	5.60e-03	0	42	0	40894464	21	6190
2026-01-08 02:07:45.33	8.46	8.77	-30.9	-35.6	10.5	4.21e-03	0	42	0	42991616	21	6233
2026-01-08 02:07:46.33	8.36	8.84	-30.9	-35.8	10.4	7.53e-03	0	42	0	45088768	21	6339
2026-01-08 02:07:47.34	8.27	8.91	-30.8	-35.6	10.6	3.62e-03	0	42	0	47185920	21	6224
2026-01-08 02:07:48.34	8.17	8.98	-30.8	-35.3	10.8	3.39e-03	0	42	0	48234496	21	6076
2026-01-08 02:07:49.35	8.07	9.05	-30.8	-35.4	10.7	6.29e-03	0	42	0	50331648	21	6098
2026-01-08 02:07:50.36	7.97	9.12	-30.8	-35.3	10.8	2.80e-03	0	42	0	52428800	21	6065
2026-01-08 02:07:51.37	7.88	9.19	-30.8	-35.4	10.7	2.71e-03	0	42	0	54525952	21	6085
2026-01-08 02:07:52.37	7.78	9.26	-30.7	-35.1	10.9	5.35e-03	0	42	0	56623104	21	5953
2026-01-08 02:07:53.38	7.68	9.33	-30.7	-35.1	11.0	2.02e-03	0	42	0	57671680	21	5976
2026-01-08 02:07:54.39	7.58	9.40	-30.8	-35.4	10.8	2.77e-03	0	42	0	59768832	21	6086
2026-01-08 02:07:55.39	7.48	9.47	-30.8	-35.2	10.9	5.16e-03	0	42	0	61865984	21	6025
2026-01-08 02:07:56.40	7.37	9.54	-30.7	-35.1	11.0	2.07e-03	0	42	0	63963136	21	5961
2026-01-08 02:07:57.40	7.27	9.61	-30.7	-35.1	11.0	1.81e-03	0	42	0	66060288	21	5959
2026-01-08 02:07:58.40	7.17	9.68	-30.8	-35.3	10.9	2.25e-03	0	42	0	67108864	21	6030
2026-01-08 02:07:59.40	7.07	9.75	-30.7	-35.1	11.0	4.73e-03	0	42	0	69206016	21	5962
2026-01-08 02:08:00.41	6.97	9.82	-30.8	-35.4	10.8	2.38e-03	0	42	0	71303168	21	6107
2026-01-08 02:08:01.41	6.86	9.89	-30.8	-35.3	10.8	3.21e-03	0	42	0	73400320	21	6063
2026-01-08 02:08:02.42	6.76	9.96	-30.8	-35.2	10.9	3.81e-03	0	42	0	74448896	21	6006
2026-01-08 02:08:03.43	6.65	10.03	-30.8	-35.3	10.9	1.95e-03	0	42	0	76546048	21	6026
2026-01-08 02:08:04.43	6.55	10.10	-30.8	-35.3	10.9	2.58e-03	0	42	0	78643200	21	6034
2026-01-08 02:08:05.44	6.44	10.17	-30.8	-35.2	11.0	1.86e-03	0	42	0	80740352	21	5989
2026-01-08 02:08:06.44	6.34	10.24	-30.8	-35.3	10.9	2.13e-03	0	42	0	82837504	21	6042
2026-01-08 02:08:07.45	6.23	10.31	-30.8	-35.3	10.9	2.46e-03	0	42	0	84934656	21	6018
2026-01-08 02:08:08.45	6.12	10.38	-30.8	-35.3	10.9	2.40e-03	0	42	0	85983232	21	6028
2026-01-08 02:08:09.46	6.01	10.45	-30.8	-35.4	10.8	2.29e-03	0	42	0	88080384	21	6093
2026-01-08 02:08:10.47	5.91	10.53	-30.8	-35.4	10.8	2.54e-03	0	42	0	90177536	21	6114
2026-01-08 02:08:11.47	5.80	10.60	-30.9	-35.7	10.6	2.65e-03	0	42	0	92274688	21	6229
2026-01-08 02:08:12.48	5.69	10.67	-30.9	-35.5	10.8	2.98e-03	0	42	0	93323264	21	6155
2026-01-08 02:08:13.49	5.58	10.74	-30.9	-35.5	10.8	2.71e-03	0	42	0	95420416	21	6126
2026-01-08 02:08:14.50	5.47	10.81	-30.9	-35.5	10.8	2.75e-03	0	42	0	97517568	21	6128
2026-01-08 02:08:15.50	5.36	10.89	-30.9	-35.5	10.8	2.28e-03	0	42	0	99614720	21	6106
2026-01-08 02:08:16.51	5.24	10.96	-30.9	-35.4	10.8	2.40e-03	0	42	0	101711872	21	6084
2026-01-08 02:08:17.52	5.13	11.03	-31.0	-35.8	10.6	3.04e-03	0	42	0	102760448	21	6292
2026-01-08 02:08:18.52	5.02	11.10	-30.1	-34.5	10.4	4.21e-03	0	43	0	104857600	22	6012
2026-01-08 02:08:19.53	4.90	11.17	-31.0	-35.8	10.4	4.35e-03	0	42	0	106954752	21	6291
2026-01-08 02:08:20.53	4.79	11.25	-31.0	-35.5	10.5	3.52e-03	0	42	0	109051904	22	6001
2026-01-08 02:08:21.54	4.68	11.32	-30.9	-35.7	10.7	3.44e-03	0	43	0	111149056	21	6194
2026-01-08 02:08:22.55	4.56	11.39	-30.9	-35.5	10.8	2.94e-03	0	43	0	113246208	21	6113
2026-01-08 02:08:23.55	4.44	11.46	-30.9	-35.5	10.8	2.44e-03	0	42	0	114294784	21	6139
2026-01-08 02:08:24.55	4.33	11.54	-30.9	-35.6	10.8	2.55e-03	0	42	0	116391936	21	6152
2026-01-08 02:08:25.56	4.21	11.61	-31.0	-35.4	10.6	2.90e-03	0	43	0	118489088	22	5952
2026-01-08 02:08:26.56	4.09	11.68	-31.2	-36.2	10.0	6.77e-03	0	43	0	120586240	22	6340
2026-01-08 02:08:27.56	3.98	11.76	-31.3	-36.2	10.1	9.86e-03	0	43	0	121634816	22	6371
2026-01-08 02:08:28.56	3.86	11.83	-31.0	-35.3	10.7	4.55e-03	0	42	0	123731968	22	5930
2026-01-08 02:08:29.56	3.74	11.90	-30.8	-34.7	11.1	2.31e-03	0	42	0	125829120	22	5644
2026-01-08 02:08:30.57	3.62	11.98	-30.7	-34.9	11.3	3.48e-03	0	42	0	127926272	21	5822
2026-01-08 02:08:31.58	3.50	12.05	-30.8	-35.0	11.2	1.02e-03	0	43	0	130023424	21	5875
2026-01-08 02:08:32.59	3.38	12.12	-30.8	-35.1	11.2	1.44e-03	0	43	0	131072000	21	5923
2026-01-08 02:08:33.59	3.25	12.20	-30.8	-35.2	11.2	4.68e-03	0	43	0	133169152	21	5957
2026-01-08 02:08:34.60	3.13	12.27	-30.8	-35.2	11.1	1.36e-03	0	43	0	135266304	21	5958
2026-01-08 02:08:35.60	3.01	12.34	-30.8	-35.1	11.2	1.31e-03	0	43	0	137363456	21	5928
2026-01-08 02:08:36.60	2.89	12.42	-30.8	-35.1	11.2	4.37e-03	0	43	0	139460608	21	5912
2026-01-08 02:08:37.61	2.76	12.49	-30.8	-35.1	11.2	4.14e-03	0	43	0	140509184	21	5922
2026-01-08 02:08:38.60	2.64	12.57	-30.8	-35.2	11.2	1.35e-03	0	43	0	142606336	21	5967
2026-01-08 02:08:39.61	2.51	12.64	-30.9	-35.3	11.2	1.28e-03	0	43	0	144703488	21	6002
2026-01-08 02:08:40.62	2.38	12.72	-30.8	-35.2	11.2	4.56e-03	0	43	0	146800640	21	5945
2026-01-08 02:08:41.62	2.26	12.79	-30.7	-34.7	11.5	9.36e-04	0	43	0	148897792	21	5708
2026-01-08 02:08:42.63	2.13	12.86	-30.7	-34.6	11.6	7.39e-04	0	43	0	149946368	21	5681
2026-01-08 02:08:43.64	2.00	12.94	-30.7	-34.7	11.6	3.53e-03	0	43	0	152043520	21	5704
2026-01-08 02:08:44.64	1.87	13.01	-30.6	-34.4	11.8	8.96e-04	0	43	0	154140672	21	5598
2026-01-08 02:08:45.65	1.74	13.09	-30.6	-34.5	11.8	5.44e-04	0	43	0	156237824	21	5605
2026-01-08 02:08:46.66	1.61	13.16	-30.6	-34.4	11.8	3.20e-03	0	43	0	158334976	21	5564
2026-01-08 02:08:47.66	1.48	13.24	-30.5	-34.2	12.0	6.25e-04	0	43	0	159383552	21	5482
2026-01-08 02:08:48.66	1.35	13.31	-30.4	-34.4	12.2	2.86e-03	0	43	0	161480704	20	5681
2026-01-08 02:08:49.67	1.22	13.39	-30.4	-34.5	12.1	2.42e-04	0	43	0	163577856	20	5710
2026-01-08 02:08:50.67	1.08	13.46	-30.4	-34.4	12.2	4.52e-04	0	43	0	165675008	20	5691
2026-01-08 02:08:51.67	0.95	13.54	-30.4	-34.3	12.2	3.15e-03	0	43	0	167772160	20	5653
2026-01-08 02:08:52.68	0.82	13.61	-30.4	-34.3	12.3	2.33e-04	0	43	0	168820736	20	5635
2026-01-08 02:08:53.69	0.68	13.69	-30.4	-34.2	12.3	4.13e-04	0	43	0	170917888	20	5603
2026-01-08 02:08:54.70	0.54	13.77	-30.4	-34.2	12.3	2.95e-03	0	43	0	173015040	20	5591
2026-01-08 02:08:55.71	0.41	13.84	-30.5	-34.5	12.1	2.73e-03	0	43	0	175112192	20	5737
2026-01-08 02:08:56.71	0.27	13.92	-30.4	-33.9	12.2	4.97e-04	0	43	0	177209344	21	5372
2026-01-08 02:08:57.72	0.13	13.99	-30.4	-34.2	12.3	2.78e-03	0	43	0	178257920	20	5607
2026-01-08 02:08:58.73	359.99	14.07	-30.4	-34.2	12.3	2.95e-03	0	43	0	180355072	20	5607
2026-01-08 02:08:59.74	359.85	14.14	-30.4	-34.4	12.3	1.75e-04	0	43	0	182452224	20	5668
2026-01-08 02:09:00.74	359.71	14.22	-30.5	-34.5	12.2	3.05e-03	0	43	0	184549376	20	5721
2026-01-08 02:09:01.75	359.57	14.30	-30.4	-34.3	12.4	2.92e-03	0	43	0	186646528	20	5644
2026-01-08 02:09:02.76	359.43	14.37	-30.4	-34.2	12.4	4.21e-04	0	43	0	187695104	20	5609
2026-01-08 02:09:03.77	359.28	14.45	-30.4	-34.1	12.4	2.84e-03	0	43	0	189792256	20	5565
2026-01-08 02:09:04.77	359.14	14.53	-30.3	-34.0	12.5	2.60e-03	0	43	0	191889408	20	5508
2026-01-08 02:09:05.77	359.00	14.60	-30.4	-34.2	12.3	4.10e-04	0	43	0	193986560	20	5606
2026-01-08 02:09:06.78	358.85	14.68	-30.4	-34.1	12.4	1.59e-04	0	43	0	196083712	20	5560
2026-01-08 02:09:07.79	358.71	14.75	-30.5	-34.5	12.3	2.98e-03	0	43	0	197132288	20	5700
2026-01-08 02:09:08.79	358.56	14.83	-30.7	-34.6	11.8	6.70e-04	0	43	0	199229440	21	5665
2026-01-08 02:09:09.79	358.42	14.91	-30.6	-34.3	12.0	4.20e-04	0	43	0	201326592	21	5521
2026-01-08 02:09:10.79	358.27	14.98	-30.4	-33.8	12.4	2.35e-04	0	43	0	203423744	21	5303
2026-01-08 02:09:11.80	358.12	15.06	-30.4	-33.6	12.5	5.52e-04	0	43	0	205520896	21	5242
2026-01-08 02:09:12.80	357.97	15.13	-30.3	-33.8	12.7	2.86e-03	0	43	0	206569472	20	5428
2026-01-08 02:09:13.81	357.82	15.21	-30.3	-33.9	12.7	8.23e-05	0	43	0	208666624	20	5467
2026-01-08 02:09:14.82	357.67	15.29	-30.3	-34.0	12.6	5.15e-04	0	43	0	210763776	20	5478
2026-01-08 02:09:15.83	357.52	15.37	-30.3	-34.0	12.7	2.55e-03	0	43	0	212860928	20	5487
2026-01-08 02:09:16.84	357.36	15.44	-30.3	-33.9	12.7	7.17e-05	0	43	0	214958080	20	5466
2026-01-08 02:09:17.85	357.21	15.52	-30.3	-34.0	12.6	6.56e-05	0	43	0	216006656	20	5507
2026-01-08 02:09:18.85	357.05	15.60	-30.3	-33.9	12.7	2.77e-03	0	43	0	218103808	20	5447
2026-01-08 02:09:19.86	356.90	15.67	-30.3	-34.0	12.7	8.31e-05	0	43	0	220200960	20	5490
2026-01-08 02:09:20.86	356.74	15.75	-30.3	-34.0	12.7	9.23e-05	0	43	0	222298112	20	5499
2026-01-08 02:09:21.86	356.59	15.83	-30.3	-33.9	12.7	7.46e-04	0	43	0	224395264	20	5459
2026-01-08 02:09:22.87	356.43	15.90	-30.3	-34.0	12.6	2.38e-03	0	43	0	225443840	20	5482
2026-01-08 02:09:23.87	356.27	15.98	-30.5	-34.4	12.3	9.91e-05	0	43	0	227540992	20	5683
2026-01-08 02:09:24.88	356.11	16.06	-30.3	-34.0	12.6	1.22e-04	0	43	0	229638144	20	5490
2026-01-08 02:09:25.88	355.95	16.13	-30.3	-33.9	12.8	2.56e-03	0	43	0	231735296	20	5462
2026-01-08 02:09:26.89	355.79	16.21	-30.3	-34.0	12.6	7.70e-05	0	43	0	233832448	20	5508
2026-01-08 02:09:27.90	355.63	16.29	-30.4	-34.2	12.5	1.17e-04	0	43	0	234881024	20	5574
2026-01-08 02:09:28.90	355.47	16.36	-30.4	-34.2	12.5	1.12e-04	0	43	0	236978176	20	5581
2026-01-08 02:09:29.90	355.31	16.44	-30.4	-34.2	12.5	1.14e-04	0	43	0	239075328	20	5569
2026-01-08 02:09:30.90	355.14	16.52	-30.5	-34.0	12.3	1.04e-04	0	43	0	241172480	21	5382
2026-01-08 02:09:31.91	354.98	16.59	-30.6	-34.2	12.2	2.08e-04	0	43	0	243269632	21	5479
2026-01-08 02:09:32.92	354.81	16.67	-30.7	-34.6	11.9	5.55e-04	0	43	0	244318208	21	5645
2026-01-08 02:09:33.92	354.64	16.75	-30.7	-34.5	12.0	3.42e-04	0	43	0	246415360	21	5591
2026-01-08 02:09:34.93	354.48	16.83	-30.7	-34.5	12.0	2.82e-04	0	43	0	248512512	21	5584
2026-01-08 02:09:35.93	354.31	16.90	-30.8	-35.0	11.7	4.71e-04	0	43	0	250609664	21	5811
2026-01-08 02:09:36.94	354.14	16.98	-30.7	-34.7	11.9	4.48e-04	0	43	0	251658240	21	5670
2026-01-08 02:09:37.94	353.97	17.06	-30.7	-34.4	12.0	3.35e-04	0	43	0	253755392	21	5535
2026-01-08 02:09:38.95	353.80	17.13	-30.7	-34.5	12.0	3.14e-04	0	43	0	255852544	21	5588
2026-01-08 02:09:39.95	353.63	17.21	-30.7	-34.5	12.1	3.04e-04	0	43	0	257949696	21	5569
2026-01-08 02:09:40.95	353.45	17.29	-30.9	-35.2	11.5	6.19e-04	0	43	0	260046848	21	5883
2026-01-08 02:09:41.95	353.28	17.36	-30.8	-34.7	11.8	6.43e-04	0	43	0	261095424	21	5679
2026-01-08 02:09:42.96	353.11	17.44	-30.6	-34.3	12.1	3.63e-04	0	43	0	263192576	21	5493
2026-01-08 02:09:43.96	352.93	17.52	-30.6	-34.1	12.3	1.83e-04	0	43	0	265289728	21	5409
2026-01-08 02:09:44.97	352.75	17.59	-30.4	-33.8	12.5	1.50e-04	0	43	0	267386880	21	5285
2026-01-08 02:09:45.98	352.57	17.67	-30.5	-33.8	12.5	1.12e-04	0	43	0	269484032	21	5286
2026-01-08 02:09:46.98	352.40	17.75	-29.8	-33.1	12.6	1.07e-04	0	43	0	270532608	21	5261
2026-01-08 02:09:47.99	352.22	17.82	-30.5	-34.3	12.5	1.08e-04	0	43	0	272629760	20	5610
2026-01-08 02:09:48.99	352.04	17.90	-30.6	-34.1	12.3	1.33e-04	0	43	0	274726912	21	5420
2026-01-08 02:09:50.00	351.86	17.98	-30.6	-34.1	12.4	2.48e-04	0	43	0	276824064	21	5407
2026-01-08 02:09:51.01	351.67	18.05	-30.6	-34.3	12.1	2.19e-04	0	43	0	278921216	21	5505
2026-01-08 02:09:52.01	351.49	18.13	-30.5	-34.0	12.4	1.83e-04	0	43	0	279969792	21	5376
2026-01-08 02:09:53.02	351.31	18.20	-30.4	-33.7	12.6	1.06e-04	0	43	0	282066944	21	5242
2026-01-08 02:09:54.03	351.12	18.28	-30.5	-34.3	12.5	7.78e-05	0	43	0	284164096	20	5601
2026-01-08 02:09:55.04	350.93	18.36	-30.5	-34.1	12.4	1.33e-04	0	43	0	286261248	21	5388
2026-01-08 02:09:56.04	350.75	18.43	-30.5	-34.0	12.4	1.46e-04	0	43	0	288358400	21	5373
2026-01-08 02:09:57.04	350.56	18.51	-30.6	-34.2	12.3	1.99e-03	0	43	0	289406976	21	5467
2026-01-08 02:09:58.05	350.37	18.58	-30.7	-34.5	12.1	1.91e-04	0	43	0	291504128	21	5594
2026-01-08 02:09:59.06	350.18	18.66	-30.6	-34.3	12.2	2.11e-04	0	43	0	293601280	21	5503
2026-01-08 02:10:00.07	349.99	18.74	-30.7	-34.4	12.2	2.13e-03	0	43	0	295698432	21	5535
2026-01-08 02:10:01.07	349.80	18.81	-30.7	-34.6	12.0	2.32e-03	0	43	0	297795584	21	5612
2026-01-08 02:10:02.08	349.61	18.89	-30.6	-34.1	12.4	1.92e-04	0	43	0	298844160	21	5397
2026-01-08 02:10:03.09	349.41	18.96	-30.5	-34.0	12.4	1.34e-04	0	43	0	300941312	21	5362
2026-01-08 02:10:04.10	349.22	19.04	-30.6	-34.3	12.3	2.09e-03	0	43	0	303038464	21	5483
2026-01-08 02:10:05.10	349.02	19.11	-30.7	-34.4	12.1	2.20e-04	0	43	0	305135616	21	5542
2026-01-08 02:10:06.10	348.83	19.19	-30.5	-33.9	12.5	2.02e-04	0	43	0	307232768	21	5307
2026-01-08 02:10:07.11	348.63	19.26	-30.4	-34.1	12.7	1.78e-03	0	43	0	308281344	20	5513
2026-01-08 02:10:08.12	348.43	19.34	-30.4	-34.2	12.6	2.34e-04	0	43	0	310378496	20	5558
2026-01-08 02:10:09.12	348.23	19.41	-30.6	-34.1	12.4	1.13e-04	0	43	0	312475648	21	5414
2026-01-08 02:10:10.13	348.03	19.49	-30.5	-33.8	12.5	1.14e-03	0	43	0	314572800	21	5300
2026-01-08 02:10:11.13	347.83	19.56	-30.4	-33.6	12.7	1.01e-04	0	43	0	316669952	21	5216
2026-01-08 02:10:12.14	347.62	19.64	-30.5	-33.8	12.6	8.54e-05	0	43	0	317718528	21	5282
2026-01-08 02:10:13.14	347.42	19.71	-30.4	-33.6	12.7	9.23e-05	0	43	0	319815680	21	5216
2026-01-08 02:10:14.15	347.22	19.78	-30.4	-33.6	12.8	7.93e-05	0	43	0	321912832	21	5213
2026-01-08 02:10:15.16	347.01	19.86	-30.4	-33.6	12.7	5.41e-05	0	43	0	324009984	21	5207
2026-01-08 02:10:16.16	346.81	19.93	-30.4	-33.6	12.8	6.86e-05	0	43	0	326107136	21	5188
2026-01-08 02:10:17.17	346.60	20.00	-30.5	-33.8	12.6	9.07e-05	0	43	0	327155712	21	5273
2026-01-08 02:10:18.17	346.39	20.08	-30.3	-33.8	13.0	1.78e-03	0	43	0	329252864	20	5379
2026-01-08 02:10:19.17	346.18	20.15	-30.4	-33.7	12.6	2.27e-03	0	43	0	331350016	21	5238
2026-01-08 02:10:20.17	345.97	20.22	-30.2	-32.9	13.2	2.59e-05	0	43	0	333447168	21	4921
2026-01-08 02:10:21.18	345.76	20.29	-30.0	-32.9	13.6	2.44e-03	0	43	0	335544320	20	5048
2026-01-08 02:10:22.19	345.55	20.37	-30.1	-33.2	13.3	2.34e-03	0	43	0	336592896	20	5151
2026-01-08 02:10:23.20	345.33	20.44	-30.0	-33.1	13.4	1.06e-05	0	43	0	338690048	20	5109
2026-01-08 02:10:24.20	345.12	20.51	-30.0	-32.8	13.6	2.41e-03	0	43	0	340787200	20	5014
2026-01-08 02:10:25.20	344.90	20.58	-30.0	-32.8	13.6	2.23e-03	0	43	0	342884352	20	5015
2026-01-08 02:10:26.21	344.69	20.65	-29.9	-32.8	13.6	6.10e-06	0	43	0	344981504	20	5005
2026-01-08 02:10:27.22	344.47	20.72	-29.9	-33.0	13.9	2.20e-03	0	43	0	346030080	19	5177
2026-01-08 02:10:28.22	344.25	20.80	-30.0	-33.3	13.7	2.43e-03	0	43	0	348127232	19	5281
2026-01-08 02:10:29.23	344.03	20.87	-30.1	-33.2	13.4	4.50e-06	0	43	0	350224384	20	5135
2026-01-08 02:10:30.24	343.81	20.94	-30.2	-33.6	13.1	2.97e-05	0	43	0	352321536	20	5298
2026-01-08 02:10:31.24	343.59	21.01	-29.8	-32.5	13.8	2.53e-03	0	43	0	354418688	20	4892
2026-01-08 02:10:32.24	343.37	21.08	-29.6	-31.9	14.2	1.50e-06	0	43	0	355467264	20	4682
2026-01-08 02:10:33.25	343.14	21.15	-29.5	-32.2	14.5	7.00e-07	0	43	0	357564416	19	4868
2026-01-08 02:10:34.25	342.92	21.22	-29.7	-32.5	14.2	2.29e-03	0	43	0	359661568	19	4989
2026-01-08 02:10:35.26	342.69	21.28	-29.8	-32.8	14.0	3.00e-06	0	43	0	361758720	19	5113
2026-01-08 02:10:36.26	342.47	21.35	-29.7	-32.7	14.1	2.33e-03	0	43	0	363855872	19	5056
2026-01-08 02:10:37.27	342.24	21.42	-29.7	-32.6	14.2	7.00e-07	0	43	0	364904448	19	5017
2026-01-08 02:10:38.28	342.01	21.49	-29.7	-32.6	14.1	3.80e-06	0	43	0	367001600	19	5037
2026-01-08 02:10:39.28	341.78	21.56	-29.8	-32.9	14.1	2.72e-03	0	43	0	369098752	19	5124
2026-01-08 02:10:40.29	341.55	21.63	-29.8	-32.8	14.1	1.50e-06	0	44	0	371195904	19	5098
2026-01-08 02:10:41.29	341.32	21.69	-29.8	-32.9	14.0	2.20e-06	0	43	0	373293056	19	5148
2026-01-08 02:10:42.29	341.08	21.76	-29.9	-32.7	13.8	2.74e-03	0	43	0	374341632	20	4946
2026-01-08 02:10:43.30	340.85	21.83	-29.6	-32.4	14.3	3.80e-06	0	43	0	376438784	19	4939
2026-01-08 02:10:44.30	340.62	21.89	-29.4	-31.8	14.7	7.00e-07	0	43	0	378535936	19	4758
2026-01-08 02:10:45.30	340.38	21.96	-29.4	-32.3	14.7	2.40e-03	0	43	0	380633088	18	5012
2026-01-08 02:10:46.31	340.14	22.02	-29.4	-32.4	14.7	2.74e-03	0	43	0	382730240	18	5059
2026-01-08 02:10:47.32	339.90	22.09	-29.4	-32.4	14.6	0.00e+00	0	43	0	383778816	18	5067
2026-01-08 02:10:48.32	339.67	22.15	-29.6	-32.3	14.5	0.00e+00	0	43	0	385875968	19	4898
2026-01-08 02:10:49.33	339.42	22.22	-29.7	-32.5	14.3	2.72e-03	0	44	0	387973120	19	4984
2026-01-08 02:10:50.34	339.18	22.28	-29.4	-31.7	14.7	0.00e+00	0	43	0	390070272	19	4720
2026-01-08 02:10:51.34	338.94	22.35	-29.3	-31.9	15.0	0.00e+00	0	43	0	392167424	18	4906
2026-01-08 02:10:52.34	338.70	22.41	-29.1	-31.5	15.2	2.39e-03	0	43	0	393216000	18	4758
2026-01-08 02:10:53.35	338.45	22.47	-29.1	-31.4	15.2	0.00e+00	0	43	0	395313152	18	4727
2026-01-08 02:10:54.36	338.21	22.53	-29.2	-31.7	15.1	0.00e+00	0	43	0	397410304	18	4831
2026-01-08 02:10:55.37	337.96	22.60	-29.2	-31.9	15.0	0.00e+00	0	43	0	399507456	18	4873
2026-01-08 02:10:56.37	337.72	22.66	-29.4	-32.2	14.8	0.00e+00	0	43	0	401604608	18	5000
2026-01-08 02:10:57.38	337.47	22.72	-29.4	-32.3	14.7	0.00e+00	0	43	0	402653184	18	5033
2026-01-08 02:10:58.39	337.22	22.78	-29.7	-32.6	14.3	0.00e+00	0	43	0	404750336	19	5015
2026-01-08 02:10:59.40	336.97	22.84	-29.7	-32.5	14.2	1.50e-06	0	43	0	406847488	19	4991
2026-01-08 02:11:00.40	336.72	22.90	-29.5	-32.1	14.6	0.00e+00	0	43	0	408944640	19	4831
2026-01-08 02:11:01.40	336.46	22.96	-29.4	-31.7	14.8	0.00e+00	0	43	0	411041792	19	4700
2026-01-08 02:11:02.41	336.21	23.02	-29.4	-31.8	14.8	0.00e+00	0	43	0	412090368	19	4737
2026-01-08 02:11:03.41	335.96	23.08	-29.5	-32.4	14.7	0.00e+00	0	43	0	414187520	18	5067
2026-01-08 02:11:04.42	335.70	23.14	-29.5	-32.0	14.6	7.00e-07	0	43	0	416284672	19	4805
2026-01-08 02:11:05.43	335.45	23.19	-29.5	-32.1	14.5	0.00e+00	0	43	0	418381824	19	4839
2026-01-08 02:11:06.44	335.19	23.25	-29.5	-32.1	14.5	0.00e+00	0	44	0	419430400	19	4853
2026-01-08 02:11:07.44	334.93	23.31	-29.4	-31.9	14.7	0.00e+00	0	43	0	421527552	19	4776
2026-01-08 02:11:08.45	334.67	23.36	-29.3	-31.6	14.9	0.00e+00	0	43	0	423624704	19	4664
2026-01-08 02:11:09.45	334.41	23.42	-29.2	-31.9	15.0	0.00e+00	0	43	0	425721856	18	4884
2026-01-08 02:11:10.46	334.15	23.47	-29.2	-31.8	15.0	0.00e+00	0	43	0	427819008	18	4846
2026-01-08 02:11:11.46	333.89	23.53	-29.2	-31.9	13.9	0.00e+00	0	43	0	429916160	18	4881
2026-01-08 02:11:12.47	333.63	23.58	-29.2	-31.8	13.6	7.00e-07	0	43	0	430964736	18	4837
2026-01-08 02:11:13.47	333.37	23.64	-29.2	-31.8	15.0	0.00e+00	0	43	0	433061888	18	4865
2026-01-08 02:11:14.47	333.10	23.69	-29.2	-31.8	13.5	0.00e+00	0	43	0	435159040	18	4869
2026-01-08 02:11:15.47	332.84	23.74	-29.3	-32.0	14.8	0.00e+00	0	43	0	437256192	18	4918
2026-01-08 02:11:16.48	332.57	23.79	-29.3	-32.0	15.0	0.00e+00	0	43	0	438304768	18	4928
2026-01-08 02:11:17.49	332.30	23.84	-29.3	-32.0	14.9	7.00e-07	0	43	0	440401920	18	4929
2026-01-08 02:11:18.50	332.04	23.90	-29.2	-31.9	15.1	0.00e+00	0	43	0	442499072	18	4880
2026-01-08 02:11:19.50	331.77	23.95	-29.1	-31.5	15.3	0.00e+00	0	43	0	444596224	18	4736
2026-01-08 02:11:20.51	331.50	23.99	-29.1	-31.5	15.2	0.00e+00	0	43	0	446693376	18	4751
2026-01-08 02:11:21.52	331.23	24.04	-29.1	-31.4	15.3	0.00e+00	0	43	0	448790528	18	4728
2026-01-08 02:11:22.53	330.95	24.09	-29.1	-31.6	15.2	0.00e+00	0	43	0	449839104	18	4767
2026-01-08 02:11:23.53	330.68	24.14	-29.1	-31.5	15.3	2.34e-03	0	43	0	451936256	18	4741
2026-01-08 02:11:24.54	330.41	24.19	-28.8	-31.3	15.7	0.00e+00	0	43	0	454033408	17	4796
2026-01-08 02:11:25.55	330.13	24.23	-28.5	-30.7	16.1	0.00e+00	0	43	0	456130560	17	4592
2026-01-08 02:11:26.56	329.86	24.28	-28.5	-30.6	16.1	2.20e-03	0	43	0	458227712	17	4569
2026-01-08 02:11:27.55	329.59	24.32	-28.6	-30.8	16.0	2.03e-03	0	43	0	459276288	17	4631
2026-01-08 02:11:28.55	329.31	24.37	-28.7	-31.1	15.8	0.00e+00	0	43	0	461373440	17	4736
2026-01-08 02:11:29.56	329.03	24.41	-28.9	-31.6	15.4	0.00e+00	0	44	0	463470592	17	4899
2026-01-08 02:11:30.56	328.76	24.46	-29.1	-31.5	15.3	2.34e-03	0	43	0	465567744	18	4752
2026-01-08 02:11:31.57	328.48	24.50	-29.1	-31.6	15.3	7.00e-07	0	43	0	466616320	18	4794
2026-01-08 02:11:32.58	328.20	24.54	-29.2	-31.7	15.1	7.00e-07	0	43	0	468713472	18	4810
2026-01-08 02:11:33.58	327.92	24.58	-29.2	-31.7	15.1	9.54e-04	0	43	0	470810624	18	4821
2026-01-08 02:11:34.59	327.64	24.62	-29.2	-31.8	15.1	4.87e-04	0	43	0	472907776	18	4843
2026-01-08 02:11:35.59	327.36	24.66	-29.2	-31.6	15.2	0.00e+00	0	43	0	475004928	18	4793
2026-01-08 02:11:36.60	327.07	24.70	-29.2	-31.8	15.1	1.62e-03	0	43	0	477102080	18	4855
2026-01-08 02:11:37.60	326.79	24.74	-29.4	-32.2	14.8	4.42e-04	0	43	0	478150656	18	4975
2026-01-08 02:11:38.61	326.51	24.78	-29.4	-32.2	14.8	1.99e-03	0	44	0	480247808	18	4988
2026-01-08 02:11:39.61	326.22	24.81	-29.4	-32.3	14.7	0.00e+00	0	43	0	482344960	18	5014
2026-01-08 02:11:40.62	325.94	24.85	-29.3	-32.0	14.9	3.95e-04	0	43	0	484442112	18	4928
2026-01-08 02:11:41.63	325.65	24.89	-29.4	-32.3	14.8	1.58e-03	0	43	0	485490688	18	5016
2026-01-08 02:11:42.63	325.37	24.92	-29.4	-31.9	14.7	0.00e+00	0	43	0	487587840	19	4764
2026-01-08 02:11:43.63	325.08	24.95	-29.5	-32.4	14.8	5.19e-04	0	43	0	489684992	18	5067
2026-01-08 02:11:44.63	324.80	24.99	-29.5	-32.1	14.6	6.16e-04	0	43	0	491782144	19	4837
2026-01-08 02:11:45.63	324.51	25.02	-29.5	-32.0	14.6	1.03e-03	0	43	0	493879296	19	4818
2026-01-08 02:11:46.64	324.22	25.05	-29.6	-32.2	14.4	9.28e-04	0	43	0	494927872	19	4894
2026-01-08 02:11:47.65	323.93	25.08	-29.8	-32.9	14.1	1.36e-03	0	43	0	497025024	19	5116
2026-01-08 02:11:48.66	323.64	25.11	-29.9	-33.2	13.9	1.14e-03	0	43	0	499122176	19	5230
2026-01-08 02:11:49.66	323.35	25.14	-29.9	-32.7	13.8	1.37e-03	0	44	0	501219328	20	4956
2026-01-08 02:11:50.67	323.06	25.17	-30.1	-33.2	13.6	7.69e-04	0	43	0	503316480	20	5130
2026-01-08 02:11:51.68	322.76	25.20	-30.0	-32.9	13.6	1.33e-03	0	43	0	504365056	20	5040
2026-01-08 02:11:52.68	322.47	25.23	-29.9	-32.6	13.9	1.02e-03	0	43	0	506462208	20	4909
2026-01-08 02:11:53.68	322.18	25.25	-29.9	-33.2	13.9	2.32e-03	0	43	0	508559360	19	5227
2026-01-08 02:11:54.69	321.89	25.28	-30.0	-32.9	13.7	2.29e-03	0	43	0	510656512	20	5007
2026-01-08 02:11:55.70	321.59	25.30	-30.0	-33.0	13.6	1.52e-03	0	44	0	512753664	20	5057
2026-01-08 02:11:56.71	321.30	25.33	-30.1	-33.1	13.6	1.29e-05	0	43	0	513802240	20	5090
2026-01-08 02:11:57.70	321.01	25.35	-30.1	-33.2	13.5	2.74e-03	0	43	0	515899392	20	5134
2026-01-08 02:11:58.71	320.71	25.37	-30.1	-33.1	13.6	1.62e-03	0	43	0	517996544	20	5094
2026-01-08 02:11:59.72	320.42	25.39	-30.0	-32.9	13.7	2.64e-03	0	43	0	520093696	20	5034
2026-01-08 02:12:00.73	320.12	25.42	-30.0	-33.0	13.6	2.52e-03	0	44	0	522190848	20	5043
2026-01-08 02:12:01.73	319.82	25.44	-30.0	-32.8	13.7	1.26e-03	0	44	0	523239424	20	4989
2026-01-08 02:12:02.73	319.53	25.45	-30.0	-32.9	13.6	2.73e-03	0	43	0	525336576	20	5028
2026-01-08 02:12:03.74	319.23	25.47	-30.2	-33.5	13.3	1.44e-05	0	44	0	527433728	20	5252
2026-01-08 02:12:04.74	318.94	25.49	-30.2	-33.4	13.3	1.13e-03	0	43	0	529530880	20	5217
2026-01-08 02:12:05.74	318.64	25.51	-30.3	-33.9	13.0	2.64e-03	0	44	0	531628032	20	5388
2026-01-08 02:12:06.75	318.34	25.52	-30.4	-33.6	12.9	6.10e-05	0	43	0	532676608	21	5181
2026-01-08 02:12:07.75	318.04	25.54	-30.4	-34.1	12.9	4.88e-05	0	44	0	534773760	20	5475
2026-01-08 02:12:08.76	317.75	25.55	-30.5	-33.8	12.7	3.09e-03	0	44	0	536870912	21	5260
2026-01-08 02:12:09.76	317.45	25.57	-30.5	-33.7	12.8	3.00e-03	0	43	0	538968064	21	5209
2026-01-08 02:12:10.76	317.15	25.58	-30.5	-33.7	12.8	4.73e-05	0	43	0	541065216	21	5227
2026-01-08 02:12:11.77	316.85	25.59	-30.5	-33.8	12.7	3.06e-03	0	43	0	542113792	21	5273
2026-01-08 02:12:12.77	316.55	25.60	-30.7	-34.3	12.4	2.88e-03	0	43	0	544210944	21	5451
2026-01-08 02:12:13.78	316.25	25.61	-30.6	-34.1	12.5	1.38e-04	0	43	0	546308096	21	5361
2026-01-08 02:12:14.79	315.95	25.62	-30.4	-33.6	12.9	6.48e-05	0	43	0	548405248	21	5177
2026-01-08 02:12:15.80	315.65	25.63	-30.4	-33.9	13.0	3.16e-03	0	43	0	550502400	20	5393
2026-01-08 02:12:16.81	315.35	25.63	-30.5	-34.2	12.8	4.27e-05	0	43	0	551550976	20	5516
2026-01-08 02:12:17.82	315.05	25.64	-30.5	-33.8	12.8	7.40e-05	0	44	0	553648128	21	5249
2026-01-08 02:12:18.82	314.75	25.65	-30.5	-33.9	12.7	6.48e-05	0	43	0	555745280	21	5279
2026-01-08 02:12:19.82	314.45	25.65	-30.5	-33.9	12.7	8.77e-05	0	43	0	557842432	21	5298
2026-01-08 02:12:20.83	314.15	25.66	-30.5	-33.7	12.8	5.72e-05	0	43	0	559939584	21	5233
2026-01-08 02:12:21.83	313.85	25.66	-30.5	-33.9	12.7	6.25e-05	0	43	0	560988160	21	5297
2026-01-08 02:12:22.83	313.55	25.66	-30.7	-34.2	12.4	9.68e-05	0	43	0	563085312	21	5419
2026-01-08 02:12:23.84	313.25	25.66	-30.5	-33.7	12.8	7.40e-05	0	43	0	565182464	21	5209
2026-01-08 02:12:24.85	312.95	25.66	-30.5	-34.2	12.8	4.57e-05	0	43	0	567279616	20	5511
2026-01-08 02:12:25.85	312.65	25.66	-30.3	-33.3	13.1	5.11e-05	0	43	0	569376768	21	5057
2026-01-08 02:12:26.85	312.35	25.66	-30.2	-33.4	13.4	2.21e-05	0	43	0	570425344	20	5205
2026-01-08 02:12:27.86	312.05	25.66	-30.3	-33.7	13.2	2.05e-05	0	43	0	572522496	20	5332
2026-01-08 02:12:28.86	311.75	25.66	-30.3	-33.7	13.2	2.21e-05	0	43	0	574619648	20	5321
2026-01-08 02:12:29.87	311.45	25.65	-30.4	-34.1	13.0	3.17e-04	0	43	0	576716800	20	5481
2026-01-08 02:12:30.88	311.14	25.65	-30.6	-34.0	12.6	8.46e-05	0	43	0	578813952	21	5332
2026-01-08 02:12:31.88	310.85	25.64	-30.8	-34.5	12.2	1.43e-04	0	43	0	579862528	21	5564
2026-01-08 02:12:32.89	310.54	25.63	-30.4	-33.5	12.9	1.43e-04	0	44	0	581959680	21	5157
2026-01-08 02:12:33.90	310.24	25.63	-30.0	-33.0	13.7	1.14e-05	0	44	0	584056832	20	5055
2026-01-08 02:12:34.90	309.94	25.62	-29.8	-32.3	14.1	1.50e-06	0	43	0	586153984	20	4807
2026-01-08 02:12:35.91	309.64	25.61	-29.6	-32.4	14.4	1.50e-06	0	43	0	588251136	19	4943
2026-01-08 02:12:36.91	309.34	25.60	-29.7	-32.4	14.4	0.00e+00	0	44	0	589299712	19	4946
2026-01-08 02:12:37.92	309.04	25.59	-29.5	-32.1	14.6	0.00e+00	0	43	0	591396864	19	4827
2026-01-08 02:12:38.92	308.75	25.58	-29.5	-32.0	14.6	0.00e+00	0	43	0	593494016	19	4798
2026-01-08 02:12:39.93	308.45	25.57	-29.5	-32.0	14.6	0.00e+00	0	43	0	595591168	19	4826
2026-01-08 02:12:40.94	308.15	25.55	-29.6	-32.3	14.4	0.00e+00	0	44	0	597688320	19	4908
2026-01-08 02:12:41.94	307.85	25.54	-29.4	-32.3	14.8	0.00e+00	0	43	0	598736896	18	5008
2026-01-08 02:12:42.95	307.55	25.52	-29.4	-32.3	14.8	0.00e+00	0	44	0	600834048	18	5013
2026-01-08 02:12:43.96	307.25	25.51	-29.3	-32.1	14.8	0.00e+00	0	43	0	602931200	18	4967
2026-01-08 02:12:44.96	306.95	25.49	-29.5	-32.1	14.6	0.00e+00	0	43	0	605028352	19	4828
2026-01-08 02:12:45.97	306.66	25.47	-29.4	-32.2	14.8	0.00e+00	0	43	0	607125504	18	4968
2026-01-08 02:12:46.97	306.36	25.45	-29.2	-31.7	15.1	2.34e-03	0	44	0	608174080	18	4819
2026-01-08 02:12:47.98	306.06	25.44	-29.1	-31.6	15.2	0.00e+00	0	43	0	610271232	18	4766
2026-01-08 02:12:48.99	305.76	25.42	-29.1	-31.6	15.1	0.00e+00	0	43	0	612368384	18	4796
2026-01-08 02:12:50.00	305.47	25.39	-28.9	-31.4	15.6	2.36e-03	0	43	0	614465536	17	4829
2026-01-08 02:12:51.00	305.17	25.37	-28.7	-31.1	15.7	0.00e+00	0	43	0	616562688	17	4752
2026-01-08 02:12:52.00	304.88	25.35	-28.8	-31.2	15.7	0.00e+00	0	44	0	617611264	17	4766
2026-01-08 02:12:53.01	304.58	25.33	-29.0	-31.7	15.4	0.00e+00	0	43	0	619708416	17	4923
2026-01-08 02:12:54.02	304.29	25.30	-28.8	-31.4	15.5	2.55e-03	0	43	0	621805568	17	4820
2026-01-08 02:12:55.03	303.99	25.28	-28.7	-31.2	15.7	0.00e+00	0	43	0	623902720	17	4753
2026-01-08 02:12:56.04	303.70	25.25	-28.8	-31.2	15.7	0.00e+00	0	43	0	624951296	17	4763
2026-01-08 02:12:57.03	303.41	25.23	-28.8	-31.4	15.5	2.36e-03	0	43	0	627048448	17	4850
2026-01-08 02:12:58.04	303.12	25.20	-28.8	-31.3	15.6	3.35e-04	0	43	0	629145600	17	4808
2026-01-08 02:12:59.04	302.83	25.17	-29.0	-31.3	15.3	0.00e+00	0	44	0	631242752	18	4694
2026-01-08 02:13:00.05	302.53	25.14	-28.8	-31.4	15.6	2.68e-03	0	44	0	633339904	17	4827
2026-01-08 02:13:01.05	302.24	25.11	-28.8	-31.2	15.6	4.27e-05	0	44	0	635437056	17	4763
2026-01-08 02:13:02.06	301.95	25.08	-28.8	-31.2	15.7	0.00e+00	0	43	0	636485632	17	4774
2026-01-08 02:13:03.07	301.66	25.05	-28.7	-31.1	15.7	0.00e+00	0	43	0	638582784	17	4745
2026-01-08 02:13:04.07	301.37	25.02	-28.8	-31.2	15.7	0.00e+00	0	44	0	640679936	17	4764
2026-01-08 02:13:05.08	301.09	24.99	-28.7	-31.0	15.7	2.28e-03	0	44	0	642777088	17	4717
2026-01-08 02:13:06.09	300.80	24.95	-28.7	-31.0	15.8	0.00e+00	0	43	0	643825664	17	4700
2026-01-08 02:13:07.09	300.51	24.92	-28.7	-31.0	15.7	0.00e+00	0	43	0	645922816	17	4719
2026-01-08 02:13:08.10	300.22	24.88	-28.6	-30.9	15.8	2.04e-03	0	43	0	648019968	17	4682
2026-01-08 02:13:09.10	299.94	24.85	-28.7	-31.0	15.8	2.24e-03	0	44	0	650117120	17	4697
2026-01-08 02:13:10.10	299.65	24.81	-28.6	-30.9	15.8	0.00e+00	0	44	0	652214272	17	4675
2026-01-08 02:13:11.11	299.37	24.78	-28.8	-31.3	15.6	1.89e-03	0	44	0	653262848	17	4801
2026-01-08 02:13:12.12	299.08	24.74	-28.9	-31.6	15.5	1.61e-03	0	43	0	655360000	17	4896
2026-01-08 02:13:13.13	298.80	24.70	-29.0	-31.4	15.3	0.00e+00	0	43	0	657457152	18	4715
2026-01-08 02:13:14.14	298.51	24.66	-29.2	-31.8	15.1	6.80e-04	0	43	0	659554304	18	4842
2026-01-08 02:13:15.14	298.23	24.62	-29.2	-31.8	15.0	6.99e-04	0	44	0	661651456	18	4844
2026-01-08 02:13:16.15	297.95	24.58	-29.3	-32.0	14.9	6.79e-05	0	44	0	663748608	18	4911
2026-01-08 02:13:17.15	297.67	24.54	-29.2	-31.9	15.0	1.11e-03	0	44	0	664797184	18	4893
2026-01-08 02:13:18.16	297.39	24.50	-29.2	-31.8	15.0	5.90e-04	0	43	0	666894336	18	4874
2026-01-08 02:13:19.17	297.11	24.45	-29.1	-31.6	15.1	6.02e-05	0	43	0	668991488	18	4800
2026-01-08 02:13:20.17	296.83	24.41	-29.1	-31.7	15.0	3.34e-04	0	43	0	671088640	18	4814
2026-01-08 02:13:21.18	296.56	24.37	-29.2	-31.7	15.1	2.94e-04	0	43	0	672137216	18	4825
2026-01-08 02:13:22.18	296.28	24.32	-29.2	-31.8	15.0	0.00e+00	0	43	0	674234368	18	4842
2026-01-08 02:13:23.19	296.00	24.28	-29.1	-31.5	15.2	1.94e-03	0	43	0	676331520	18	4741
2026-01-08 02:13:24.19	295.73	24.23	-29.2	-31.8	15.0	2.05e-03	0	43	0	678428672	18	4847
2026-01-08 02:13:25.20	295.46	24.18	-29.3	-32.1	14.8	0.00e+00	0	43	0	680525824	18	4942
2026-01-08 02:13:26.21	295.18	24.14	-29.4	-32.3	14.7	2.13e-03	0	43	0	681574400	18	5029
2026-01-08 02:13:27.21	294.91	24.09	-29.6	-32.3	14.4	7.00e-07	0	44	0	683671552	19	4902
2026-01-08 02:13:28.21	294.64	24.04	-29.7	-32.7	14.1	2.20e-06	0	44	0	685768704	19	5069
2026-01-08 02:13:29.22	294.37	23.99	-29.7	-32.6	14.2	1.63e-03	0	43	0	687865856	19	5023
2026-01-08 02:13:30.23	294.10	23.94	-29.7	-32.7	14.1	4.50e-06	0	43	0	689963008	19	5058
2026-01-08 02:13:31.24	293.83	23.89	-29.7	-32.6	14.1	1.50e-06	0	43	0	691011584	19	5027
2026-01-08 02:13:32.24	293.56	23.84	-29.8	-32.7	14.1	2.11e-03	0	43	0	693108736	19	5070
2026-01-08 02:13:33.25	293.29	23.79	-29.7	-32.7	14.1	1.50e-06	0	43	0	695205888	19	5073
2026-01-08 02:13:34.26	293.02	23.74	-29.8	-32.8	14.0	7.00e-07	0	43	0	697303040	19	5115
2026-01-08 02:13:35.27	292.75	23.68	-29.9	-33.2	13.8	9.67e-04	0	43	0	699400192	19	5242
2026-01-08 02:13:36.28	292.49	23.63	-29.8	-33.0	13.9	1.61e-03	0	43	0	700448768	19	5169
2026-01-08 02:13:37.28	292.23	23.58	-30.1	-33.1	13.4	5.30e-06	0	43	0	702545920	20	5114
2026-01-08 02:13:38.29	291.96	23.52	-30.2	-33.4	13.2	1.52e-05	0	44	0	704643072	20	5234
2026-01-08 02:13:39.29	291.70	23.47	-30.2	-33.4	13.2	2.61e-03	0	43	0	706740224	20	5240
2026-01-08 02:13:40.29	291.44	23.41	-30.3	-33.7	13.0	3.66e-05	0	43	0	708837376	20	5347
2026-01-08 02:13:41.30	291.18	23.36	-30.2	-33.6	13.0	2.59e-05	0	43	0	709885952	20	5324
2026-01-08 02:13:42.30	290.92	23.30	-30.4	-34.0	12.9	2.32e-03	0	43	0	711983104	20	5464
2026-01-08 02:13:43.30	290.67	23.25	-30.3	-33.7	13.0	4.80e-05	0	43	0	714080256	20	5347
2026-01-08 02:13:44.30	290.41	23.19	-30.2	-33.6	13.0	4.19e-05	0	43	0	716177408	20	5309
2026-01-08 02:13:45.31	290.15	23.13	-30.2	-33.5	13.1	3.05e-05	0	43	0	718274560	20	5277
2026-01-08 02:13:46.31	289.90	23.07	-30.2	-33.5	13.1	2.74e-05	0	43	0	719323136	20	5289
2026-01-08 02:13:47.31	289.64	23.02	-30.2	-33.6	13.0	3.89e-05	0	44	0	721420288	20	5323
2026-01-08 02:13:48.32	289.39	22.96	-30.1	-33.2	13.3	2.44e-05	0	44	0	723517440	20	5164
2026-01-08 02:13:49.32	289.14	22.90	-30.0	-32.9	13.5	9.90e-06	0	43	0	725614592	20	5064
2026-01-08 02:13:50.33	288.89	22.84	-29.9	-32.8	13.6	8.30e-06	0	43	0	727711744	20	5020
2026-01-08 02:13:51.34	288.63	22.78	-30.0	-32.9	13.5	7.60e-06	0	43	0	728760320	20	5054
2026-01-08 02:13:52.34	288.39	22.71	-30.1	-33.2	13.3	1.67e-05	0	44	0	730857472	20	5158
2026-01-08 02:13:53.35	288.14	22.65	-30.3	-33.7	13.0	2.82e-05	0	43	0	732954624	20	5338
2026-01-08 02:13:54.35	287.89	22.59	-30.4	-34.0	12.8	4.42e-05	0	43	0	735051776	20	5465
2026-01-08 02:13:55.36	287.64	22.53	-30.3	-33.7	12.9	5.56e-05	0	44	0	737148928	20	5366
2026-01-08 02:13:56.36	287.40	22.47	-30.1	-33.4	13.2	5.03e-05	0	43	0	738197504	20	5232
2026-01-08 02:13:57.37	287.15	22.40	-30.1	-33.2	13.3	2.13e-05	0	43	0	740294656	20	5173
2026-01-08 02:13:58.38	286.91	22.34	-30.0	-33.1	13.3	1.83e-05	0	44	0	742391808	20	5135
2026-01-08 02:13:59.38	286.67	22.28	-30.2	-33.4	13.2	1.44e-05	0	43	0	744488960	20	5244
2026-01-08 02:14:00.39	286.42	22.21	-30.2	-33.7	12.9	4.19e-05	0	44	0	746586112	20	5335
2026-01-08 02:14:01.40	286.18	22.15	-30.3	-33.9	12.9	3.43e-05	0	44	0	747634688	20	5425
2026-01-08 02:14:02.40	285.94	22.08	-30.4	-34.0	12.7	6.10e-05	0	44	0	749731840	20	5481
2026-01-08 02:14:03.41	285.70	22.02	-30.3	-33.8	12.8	4.80e-05	0	44	0	751828992	20	5391
2026-01-08 02:14:04.41	285.47	21.95	-30.3	-33.7	12.9	5.34e-05	0	43	0	753926144	20	5359
2026-01-08 02:14:05.42	285.23	21.88	-29.4	-33.4	12.6	4.80e-05	0	44	0	756023296	19	5733
2026-01-08 02:14:06.43	284.99	21.82	-30.2	-33.7	12.9	5.72e-05	0	44	0	757071872	20	5355
2026-01-08 02:14:07.44	284.76	21.75	-30.0	-33.0	12.5	1.98e-05	0	43	0	759169024	20	5076
2026-01-08 02:14:08.44	284.52	21.68	-29.8	-33.0	13.7	9.10e-06	0	44	0	761266176	19	5204
2026-01-08 02:14:09.45	284.29	21.62	-29.7	-32.7	13.9	0.00e+00	0	43	0	763363328	19	5063
2026-01-08 02:14:10.45	284.06	21.55	-29.8	-33.0	13.8	4.50e-06	0	44	0	765460480	19	5185
2026-01-08 02:14:11.46	283.83	21.48	-29.9	-33.1	13.7	7.60e-06	0	43	0	766509056	19	5232
2026-01-08 02:14:12.46	283.60	21.41	-29.9	-33.2	13.7	6.80e-06	0	43	0	768606208	19	5258
2026-01-08 02:14:13.47	283.37	21.34	-29.9	-33.3	13.5	2.52e-03	0	44	0	770703360	19	5325
2026-01-08 02:14:14.48	283.14	21.27	-29.9	-33.1	13.7	6.10e-06	0	43	0	772800512	19	5238
2026-01-08 02:14:15.48	282.92	21.21	-29.7	-32.7	13.9	4.50e-06	0	43	0	774897664	19	5071
2026-01-08 02:14:16.49	282.69	21.14	-29.6	-32.5	14.0	2.02e-03	0	44	0	775946240	19	5005
2026-01-08 02:14:17.50	282.46	21.06	-29.6	-32.5	14.1	9.39e-04	0	43	0	778043392	19	5021
2026-01-08 02:14:18.50	282.24	21.00	-29.6	-32.4	14.2	3.80e-06	0	43	0	780140544	19	4966
2026-01-08 02:14:19.51	282.02	20.92	-29.5	-32.1	14.3	7.00e-07	0	44	0	782237696	19	4862
2026-01-08 02:14:20.52	281.80	20.85	-29.5	-32.2	14.3	1.61e-04	0	44	0	784334848	19	4887
2026-01-08 02:14:21.52	281.58	20.78	-29.5	-32.2	14.3	1.50e-06	0	44	0	785383424	19	4907
2026-01-08 02:14:22.53	281.36	20.71	-29.6	-32.3	14.1	7.00e-07	0	44	0	787480576	19	4957
2026-01-08 02:14:23.53	281.14	20.64	-29.6	-32.4	14.1	5.53e-04	0	43	0	789577728	19	4984
2026-01-08 02:14:24.53	280.92	20.57	-29.6	-32.5	14.1	7.00e-07	0	43	0	791674880	19	4990
2026-01-08 02:14:25.53	280.71	20.50	-29.6	-32.5	14.1	3.00e-06	0	43	0	793772032	19	5008
2026-01-08 02:14:26.54	280.49	20.43	-29.6	-32.4	14.1	2.12e-03	0	44	0	794820608	19	4977
2026-01-08 02:14:27.55	280.28	20.35	-29.6	-32.4	14.1	1.50e-06	0	43	0	796917760	19	4974
2026-01-08 02:14:28.56	280.06	20.28	-29.7	-32.7	13.9	7.00e-07	0	44	0	799014912	19	5073
2026-01-08 02:14:29.56	279.85	20.21	-29.7	-32.6	13.9	3.80e-06	0	43	0	801112064	19	5055
2026-01-08 02:14:30.57	279.64	20.13	-29.5	-32.3	14.2	2.20e-06	0	43	0	803209216	19	4928
2026-01-08 02:14:31.57	279.43	20.06	-29.5	-32.1	14.2	2.19e-03	0	43	0	804257792	19	4889
2026-01-08 02:14:32.58	279.22	19.99	-29.6	-32.5	14.1	2.20e-06	0	44	0	806354944	19	5006
2026-01-08 02:14:33.58	279.01	19.92	-29.6	-32.5	14.0	3.89e-05	0	44	0	808452096	19	5027
2026-01-08 02:14:34.59	278.80	19.84	-29.7	-32.6	13.9	2.34e-03	0	43	0	810549248	19	5064
2026-01-08 02:14:35.59	278.60	19.77	-29.8	-32.9	13.7	2.22e-03	0	44	0	812646400	19	5157
2026-01-08 02:14:36.60	278.39	19.69	-29.7	-32.8	13.8	2.60e-04	0	43	0	813694976	19	5116
2026-01-08 02:14:37.60	278.19	19.62	-29.6	-32.5	14.0	2.28e-03	0	43	0	815792128	19	5026
2026-01-08 02:14:38.61	277.99	19.55	-29.6	-32.4	14.1	2.46e-03	0	43	0	817889280	19	4972
2026-01-08 02:14:39.62	277.78	19.47	-29.5	-32.1	14.2	1.50e-06	0	44	0	819986432	19	4880
2026-01-08 02:14:40.61	277.58	19.40	-29.5	-32.6	14.3	2.39e-03	0	44	0	822083584	18	5147
2026-01-08 02:14:41.61	277.39	19.32	-29.4	-32.5	14.3	2.02e-03	0	43	0	823132160	18	5120
2026-01-08 02:14:42.62	277.19	19.25	-29.4	-32.3	14.4	0.00e+00	0	44	0	825229312	18	5064
2026-01-08 02:14:43.62	276.99	19.17	-29.4	-32.3	14.4	1.95e-03	0	44	0	827326464	18	5063
2026-01-08 02:14:44.62	276.79	19.10	-29.4	-32.5	14.3	2.02e-03	0	44	0	829423616	18	5123
2026-01-08 02:14:45.63	276.59	19.02	-29.4	-32.0	14.3	2.20e-06	0	43	0	830472192	19	4838
2026-01-08 02:14:46.64	276.40	18.95	-29.4	-32.4	14.3	1.25e-03	0	44	0	832569344	18	5104
2026-01-08 02:14:47.64	276.21	18.87	-29.4	-32.3	14.4	2.01e-03	0	43	0	834666496	18	5066
2026-01-08 02:14:48.65	276.01	18.80	-29.3	-32.3	14.5	7.00e-07	0	43	0	836763648	18	5042
2026-01-08 02:14:49.65	275.82	18.72	-29.3	-32.1	14.5	2.33e-03	0	44	0	838860800	18	4992
2026-01-08 02:14:50.66	275.63	18.64	-29.2	-31.9	14.7	2.26e-03	0	44	0	839909376	18	4906
2026-01-08 02:14:51.67	275.44	18.57	-29.3	-32.2	14.5	1.50e-06	0	43	0	842006528	18	5013
2026-01-08 02:14:52.67	275.25	18.49	-29.4	-32.4	14.4	2.50e-03	0	43	0	844103680	18	5089
2026-01-08 02:14:53.68	275.06	18.42	-29.3	-32.2	14.5	7.00e-07	0	44	0	846200832	18	5021
2026-01-08 02:14:54.68	274.87	18.34	-29.2	-32.0	14.6	7.09e-05	0	43	0	848297984	18	4959
2026-01-08 02:14:55.69	274.68	18.26	-29.3	-32.3	14.4	2.33e-03	0	44	0	850395136	18	5065
2026-01-08 02:14:56.70	274.50	18.19	-29.3	-32.3	14.4	7.00e-07	0	43	0	851443712	18	5057
2026-01-08 02:14:57.70	274.31	18.11	-29.4	-32.4	14.3	2.02e-04	0	43	0	853540864	18	5095
2026-01-08 02:14:58.71	274.13	18.03	-29.3	-32.2	14.4	2.56e-03	0	44	0	855638016	18	5021
2026-01-08 02:14:59.71	273.95	17.96	-29.1	-31.7	14.7	2.36e-03	0	43	0	857735168	18	4853
2026-01-08 02:15:00.71	273.77	17.88	-29.0	-31.3	14.9	1.50e-06	0	43	0	858783744	18	4733
2026-01-08 02:15:01.71	273.59	17.80	-29.0	-31.5	14.9	2.30e-03	0	43	0	860880896	18	4776
2026-01-08 02:15:02.71	273.41	17.73	-28.8	-31.0	15.1	1.92e-03	0	44	0	862978048	18	4637
2026-01-08 02:15:03.72	273.23	17.65	-28.7	-30.8	15.3	1.50e-06	0	44	0	865075200	18	4552
2026-01-08 02:15:04.73	273.05	17.57	-28.8	-31.3	15.2	0.00e+00	0	44	0	867172352	17	4843
2026-01-08 02:15:05.73	272.87	17.50	-28.8	-31.5	15.1	2.46e-03	0	44	0	868220928	17	4918
2026-01-08 02:15:06.74	272.69	17.42	-28.9	-31.7	15.0	3.00e-06	0	44	0	870318080	17	4960
2026-01-08 02:15:07.75	272.52	17.34	-29.0	-31.5	14.8	0.00e+00	0	44	0	872415232	18	4785
2026-01-08 02:15:08.76	272.34	17.27	-29.2	-32.0	14.5	2.37e-03	0	44	0	874512384	18	4961
2026-01-08 02:15:09.76	272.17	17.19	-29.1	-31.8	14.7	6.56e-05	0	43	0	876609536	18	4874
2026-01-08 02:15:10.77	272.00	17.11	-29.0	-31.5	14.8	0.00e+00	0	44	0	877658112	18	4798
2026-01-08 02:15:11.77	271.82	17.03	-29.0	-31.4	14.9	0.00e+00	0	44	0	879755264	18	4740
2026-01-08 02:15:12.78	271.65	16.96	-29.0	-31.4	14.9	8.30e-06	0	44	0	881852416	18	4747
2026-01-08 02:15:13.79	271.48	16.88	-28.8	-31.0	15.1	0.00e+00	0	44	0	883949568	18	4629
2026-01-08 02:15:14.79	271.31	16.80	-28.8	-31.5	15.1	0.00e+00	0	44	0	886046720	17	4887
2026-01-08 02:15:15.80	271.14	16.73	-28.7	-31.3	15.2	0.00e+00	0	44	0	887095296	17	4840
2026-01-08 02:15:16.81	270.98	16.65	-28.7	-31.3	15.2	0.00e+00	0	44	0	889192448	17	4850
2026-01-08 02:15:17.81	270.81	16.57	-28.8	-31.4	15.1	0.00e+00	0	44	0	891289600	17	4888
2026-01-08 02:15:18.82	270.64	16.49	-28.9	-31.8	14.9	0.00e+00	0	44	0	893386752	17	5008
2026-01-08 02:15:19.82	270.48	16.42	-29.1	-31.6	14.7	2.33e-03	0	44	0	895483904	18	4844
2026-01-08 02:15:20.83	270.31	16.34	-29.1	-31.8	14.6	0.00e+00	0	43	0	896532480	18	4892
2026-01-08 02:15:21.83	270.15	16.26	-29.2	-32.1	14.4	1.50e-06	0	43	0	898629632	18	4997
2026-01-08 02:15:22.84	269.99	16.19	-29.2	-32.1	14.4	0.00e+00	0	44	0	900726784	18	4998
2026-01-08 02:15:23.84	269.83	16.11	-29.2	-31.9	14.5	1.50e-06	0	44	0	902823936	18	4943
2026-01-08 02:15:24.85	269.67	16.03	-29.2	-32.1	14.4	7.00e-07	0	44	0	904921088	18	4992
2026-01-08 02:15:25.86	269.51	15.95	-29.1	-31.6	14.7	7.00e-07	0	43	0	905969664	18	4838
2026-01-08 02:15:26.87	269.35	15.88	-29.0	-31.6	14.7	0.00e+00	0	44	0	908066816	18	4824
2026-01-08 02:15:27.87	269.19	15.80	-29.0	-31.4	14.8	1.50e-06	0	43	0	910163968	18	4774
2026-01-08 02:15:28.87	269.03	15.72	-29.1	-31.7	14.6	0.00e+00	0	44	0	912261120	18	4868
2026-01-08 02:15:29.87	268.88	15.65	-29.1	-31.7	14.6	0.00e+00	0	43	0	914358272	18	4852
2026-01-08 02:15:30.88	268.72	15.57	-29.1	-31.8	14.6	7.00e-07	0	44	0	915406848	18	4882
2026-01-08 02:15:31.88	268.57	15.49	-29.3	-32.2	14.3	7.00e-07	0	44	0	917504000	18	5054
2026-01-08 02:15:32.89	268.41	15.41	-29.2	-32.0	14.4	2.20e-06	0	44	0	919601152	18	4986
2026-01-08 02:15:33.90	268.26	15.34	-29.1	-31.8	14.5	7.00e-07	0	43	0	921698304	18	4895
2026-01-08 02:15:34.91	268.10	15.26	-29.1	-31.9	14.5	7.00e-07	0	43	0	923795456	18	4923
2026-01-08 02:15:35.92	267.95	15.18	-28.3	-31.1	14.4	0.00e+00	0	44	0	924844032	18	4940
2026-01-08 02:15:36.92	267.80	15.11	-28.2	-31.4	13.3	0.00e+00	0	44	0	926941184	17	5187
2026-01-08 02:15:37.93	267.65	15.03	-29.2	-32.0	12.9	0.00e+00	0	44	0	929038336	18	4968
2026-01-08 02:15:38.94	267.50	14.95	-29.2	-31.9	13.5	0.00e+00	0	43	0	931135488	18	4941
2026-01-08 02:15:39.94	267.35	14.88	-29.2	-32.0	14.4	2.91e-03	0	43	0	933232640	18	4964
2026-01-08 02:15:40.96	267.20	14.80	-29.2	-32.2	14.2	7.00e-07	0	43	0	934281216	18	5039
2026-01-08 02:15:41.96	267.06	14.72	-29.4	-32.6	14.0	1.50e-06	0	43	0	936378368	18	5208
2026-01-08 02:15:42.96	266.91	14.65	-29.4	-32.6	13.9	3.80e-06	0	44	0	938475520	18	5193
2026-01-08 02:15:43.97	266.76	14.57	-29.5	-32.8	13.8	5.30e-06	0	44	0	940572672	18	5280
2026-01-08 02:15:44.97	266.62	14.49	-29.6	-32.7	13.6	1.50e-06	0	44	0	942669824	19	5113
2026-01-08 02:15:45.98	266.48	14.42	-29.7	-32.8	13.5	6.10e-06	0	43	0	943718400	19	5167
2026-01-08 02:15:46.98	266.33	14.34	-29.7	-32.8	13.4	3.03e-03	0	43	0	945815552	19	5186
2026-01-08 02:15:47.98	266.19	14.26	-29.7	-32.9	13.4	1.60e-05	0	44	0	947912704	19	5211
2026-01-08 02:15:48.99	266.05	14.19	-29.6	-32.8	13.5	1.22e-05	0	44	0	950009856	19	5157
2026-01-08 02:15:50.00	265.91	14.11	-29.6	-32.8	13.5	3.06e-03	0	44	0	952107008	19	5156
2026-01-08 02:15:51.01	265.77	14.04	-29.7	-32.8	13.5	4.46e-04	0	43	0	953155584	19	5161
2026-01-08 02:15:52.02	265.63	13.96	-29.7	-32.9	13.4	8.30e-06	0	43	0	955252736	19	5212
2026-01-08 02:15:53.02	265.49	13.88	-29.8	-33.2	13.1	1.67e-05	0	44	0	957349888	19	5343
2026-01-08 02:15:54.02	265.35	13.81	-29.6	-32.7	13.5	9.84e-05	0	43	0	959447040	19	5143
2026-01-08 02:15:55.03	265.21	13.73	-29.6	-32.5	13.6	9.10e-06	0	44	0	961544192	19	5058
2026-01-08 02:15:56.04	265.07	13.66	-29.7	-33.0	13.3	1.14e-05	0	43	0	962592768	19	5231
2026-01-08 02:15:57.04	264.94	13.58	-29.9	-33.5	13.0	4.04e-05	0	44	0	964689920	19	5447
2026-01-08 02:15:58.05	264.80	13.50	-29.8	-33.3	13.1	2.36e-03	0	44	0	966787072	19	5364
2026-01-08 02:15:59.05	264.67	13.43	-30.0	-33.2	12.8	4.04e-05	0	43	0	968884224	20	5222
2026-01-08 02:16:00.05	264.54	13.35	-29.8	-32.9	13.0	4.29e-04	0	44	0	970981376	20	5098
2026-01-08 02:16:01.06	264.40	13.28	-29.8	-33.2	13.1	2.89e-03	0	44	0	972029952	19	5335
2026-01-08 02:16:02.06	264.27	13.20	-29.9	-33.4	13.0	2.51e-05	0	43	0	974127104	19	5407
2026-01-08 02:16:03.07	264.14	13.13	-30.0	-33.2	12.7	6.17e-05	0	43	0	976224256	20	5253
2026-01-08 02:16:04.07	264.01	13.05	-29.9	-33.5	12.9	3.20e-03	0	44	0	978321408	19	5469
2026-01-08 02:16:05.08	263.88	12.98	-29.8	-33.2	13.1	2.98e-03	0	44	0	980418560	19	5330
2026-01-08 02:16:06.09	263.75	12.90	-29.8	-33.2	13.1	3.28e-05	0	43	0	981467136	19	5318
2026-01-08 02:16:07.09	263.62	12.83	-29.8	-33.2	13.1	3.02e-03	0	44	0	983564288	19	5353
2026-01-08 02:16:08.10	263.49	12.75	-29.9	-33.5	12.9	3.51e-03	0	44	0	985661440	19	5444
2026-01-08 02:16:09.10	263.36	12.68	-29.9	-33.4	12.9	1.30e-03	0	44	0	987758592	19	5422
2026-01-08 02:16:10.11	263.23	12.60	-30.0	-33.8	12.7	3.66e-03	0	43	0	989855744	19	5577
2026-01-08 02:16:11.12	263.11	12.53	-30.1	-33.6	12.3	3.65e-03	0	44	0	990904320	20	5423
2026-01-08 02:16:12.13	262.98	12.45	-30.3	-34.4	11.8	1.79e-03	0	44	0	993001472	20	5760
2026-01-08 02:16:13.13	262.86	12.38	-30.2	-33.9	12.1	3.78e-04	0	43	0	995098624	20	5542
2026-01-08 02:16:14.13	262.73	12.31	-30.0	-33.5	12.5	3.20e-03	0	44	0	997195776	20	5354
2026-01-08 02:16:15.13	262.61	12.23	-29.9	-33.6	12.8	1.31e-03	0	44	0	998244352	19	5505
2026-01-08 02:16:16.14	262.48	12.16	-30.0	-33.3	12.6	2.90e-03	0	44	0	1000341504	20	5272
2026-01-08 02:16:17.15	262.36	12.08	-30.1	-33.6	12.3	3.24e-03	0	44	0	1002438656	20	5421
2026-01-08 02:16:18.16	262.24	12.01	-30.3	-34.2	11.9	7.39e-04	0	44	0	1004535808	20	5654
2026-01-08 02:16:19.16	262.12	11.94	-30.1	-33.6	12.3	3.15e-03	0	44	0	1006632960	20	5417
2026-01-08 02:16:20.17	262.00	11.86	-29.9	-33.2	12.6	9.68e-05	0	44	0	1008730112	20	5250
2026-01-08 02:16:21.18	261.88	11.79	-29.9	-33.1	12.7	9.38e-05	0	44	0	1009778688	20	5205
2026-01-08 02:16:22.18	261.76	11.72	-29.9	-33.2	12.6	2.03e-03	0	44	0	1011875840	20	5255
2026-01-08 02:16:23.19	261.64	11.64	-30.1	-33.7	12.3	1.60e-04	0	44	0	1013972992	20	5450
2026-01-08 02:16:24.19	261.52	11.57	-30.2	-34.1	12.0	3.04e-04	0	44	0	1016070144	20	5626
2026-01-08 02:16:25.20	261.40	11.50	-30.2	-34.0	12.1	6.32e-04	0	43	0	1018167296	20	5565
2026-01-08 02:16:26.20	261.28	11.42	-30.2	-34.2	11.9	4.76e-04	0	44	0	1019215872	20	5663
2026-01-08 02:16:27.21	261.17	11.35	-30.1	-33.8	12.2	2.99e-04	0	44	0	1021313024	20	5489
2026-01-08 02:16:28.22	261.05	11.28	-30.0	-33.6	12.3	4.31e-04	0	44	0	1023410176	20	5417
2026-01-08 02:16:29.22	260.94	11.20	-30.0	-33.5	12.4	6.49e-04	0	44	0	1025507328	20	5356
2026-01-08 02:16:30.22	260.82	11.13	-30.0	-33.5	12.4	1.43e-04	0	44	0	1026555904	20	5377
2026-01-08 02:16:31.22	260.71	11.06	-30.0	-33.4	12.5	2.16e-03	0	44	0	1028653056	20	5313
2026-01-08 02:16:32.23	260.59	10.99	-30.0	-33.3	12.4	2.28e-03	0	44	0	1030750208	20	5308
2026-01-08 02:16:33.23	260.48	10.91	-30.1	-33.6	12.3	4.97e-04	0	44	0	1032847360	20	5416
2026-01-08 02:16:34.24	260.37	10.84	-29.9	-33.1	12.6	1.17e-04	0	44	0	1034944512	20	5221
2026-01-08 02:16:35.24	260.26	10.77	-29.9	-33.6	12.7	2.81e-03	0	44	0	1037041664	19	5521
2026-01-08 02:16:36.25	260.14	10.70	-30.0	-33.8	12.5	2.78e-04	0	44	0	1038090240	19	5611
2026-01-08 02:16:37.25	260.03	10.63	-29.9	-33.7	12.6	9.91e-05	0	43	0	1040187392	19	5568
2026-01-08 02:16:38.26	259.92	10.55	-30.0	-33.4	12.4	9.61e-05	0	44	0	1042284544	20	5332
2026-01-08 02:16:39.27	259.81	10.48	-30.2	-34.0	12.0	2.25e-04	0	44	0	1044381696	20	5596
2026-01-08 02:16:40.27	259.70	10.41	-30.3	-34.3	11.7	5.41e-04	0	44	0	1045430272	20	5706
2026-01-08 02:16:41.28	259.60	10.34	-30.2	-33.9	12.0	3.60e-04	0	44	0	1047527424	20	5569
2026-01-08 02:16:42.28	259.49	10.27	-30.2	-34.1	11.9	3.91e-04	0	44	0	1049624576	20	5626
2026-01-08 02:16:43.29	259.38	10.20	-30.3	-34.5	11.6	3.20e-03	0	44	0	1051721728	20	5842
2026-01-08 02:16:44.30	259.27	10.13	-30.4	-34.8	11.4	1.02e-03	0	43	0	1053818880	20	5968
2026-01-08 02:16:45.30	259.17	10.05	-30.4	-34.7	11.4	9.10e-04	0	44	0	1055916032	20	5929
2026-01-08 02:16:46.30	259.06	9.98	-30.5	-34.6	11.1	4.49e-03	0	43	0	1056964608	21	5801
2026-01-08 02:16:47.31	258.95	9.91	-30.6	-35.0	10.8	2.20e-03	0	44	0	1059061760	21	5953
2026-01-08 02:16:48.31	258.85	9.84	-30.7	-35.1	10.6	3.31e-03	0	44	0	1061158912	21	6033
2026-01-08 02:16:49.32	258.75	9.77	-30.6	-34.8	10.9	2.66e-03	0	43	0	1063256064	21	5858
2026-01-08 02:16:50.33	258.64	9.70	-30.4	-34.4	11.2	1.47e-03	0	44	0	1064304640	21	5691
2026-01-08 02:16:51.33	258.54	9.63	-30.4	-34.9	11.2	1.20e-03	0	44	0	1066401792	20	6011
2026-01-08 02:16:52.34	258.43	9.56	-30.4	-34.8	11.3	1.38e-03	0	44	0	1068498944	20	5949
2026-01-08 02:16:53.34	258.33	9.49	-30.3	-34.6	11.4	9.12e-04	0	43	0	1070596096	20	5876
2026-01-08 02:16:54.35	258.23	9.42	-30.4	-34.7	11.3	9.97e-04	0	44	0	1072693248	20	5926
2026-01-08 02:16:55.36	258.13	9.35	-30.4	-34.9	11.1	1.43e-03	0	43	0	1073741824	20	6052
2026-01-08 02:16:56.36	258.03	9.28	-30.5	-35.0	11.1	1.57e-03	0	44	0	1075838976	20	6069
2026-01-08 02:16:57.37	257.93	9.21	-30.6	-34.9	10.8	2.20e-03	0	43	0	1077936128	21	5915
2026-01-08 02:16:58.37	257.83	9.14	-30.7	-35.2	10.5	3.65e-03	0	44	0	1080033280	21	6071
2026-01-08 02:16:59.38	257.73	9.07	-30.7	-35.3	10.4	4.00e-03	0	44	0	1082130432	21	6128
2026-01-08 02:17:00.37	257.63	9.00	-30.8	-35.6	10.3	5.89e-03	0	44	0	1083179008	21	6257
2026-01-08 02:17:01.38	257.53	8.93	-30.8	-35.6	10.2	4.99e-03	0	44	0	1085276160	21	6265
2026-01-08 02:17:02.38	257.43	8.86	-30.8	-35.8	10.1	7.05e-03	0	44	0	1087373312	21	6367
2026-01-08 02:17:03.39	257.34	8.79	-30.7	-35.3	10.4	5.72e-03	0	44	0	1089470464	21	6125
2026-01-08 02:17:04.39	257.24	8.73	-29.4	-34.1	10.4	2.94e-03	0	43	0	1091567616	20	6146
2026-01-08 02:17:05.40	257.14	8.66	-30.6	-35.1	10.3	3.29e-03	0	44	0	1092616192	21	6013
2026-01-08 02:17:06.41	257.05	8.59	-30.5	-35.2	10.2	3.26e-03	0	44	0	1094713344	20	6208
2026-01-08 02:17:07.42	256.95	8.52	-30.4	-34.9	10.0	2.02e-03	0	44	0	1096810496	20	6042
2026-01-08 02:17:08.42	256.86	8.45	-30.4	-34.9	10.5	1.81e-03	0	44	0	1098907648	20	6024
2026-01-08 02:17:09.43	256.76	8.38	-30.4	-34.9	10.5	1.74e-03	0	44	0	1101004800	20	6043
2026-01-08 02:17:10.43	256.67	8.31	-30.5	-35.1	10.7	2.17e-03	0	44	0	1102053376	20	6141
2026-01-08 02:17:11.44	256.57	8.24	-30.5	-35.1	10.8	2.64e-03	0	44	0	1104150528	20	6154
2026-01-08 02:17:12.45	256.48	8.18	-30.5	-34.7	10.7	2.35e-03	0	44	0	1106247680	21	5871
2026-01-08 02:17:13.46	256.39	8.11	-30.6	-35.1	10.5	6.99e-03	0	44	0	1108344832	21	6031
2026-01-08 02:17:14.46	256.29	8.04	-30.5	-35.0	10.6	4.03e-03	0	44	0	1110441984	21	5982
2026-01-08 02:17:15.47	256.20	7.97	-30.6	-35.1	10.5	3.66e-03	0	44	0	1111490560	21	6061
2026-01-08 02:17:16.47	256.11	7.90	-30.7	-35.4	10.2	5.11e-03	0	44	0	1113587712	21	6216
2026-01-08 02:17:17.48	256.02	7.84	-30.7	-35.6	10.1	6.62e-03	0	44	0	1115684864	21	6300
2026-01-08 02:17:18.48	255.93	7.77	-30.7	-35.6	10.1	8.58e-03	0	43	0	1117782016	21	6283
2026-01-08 02:17:19.49	255.84	7.70	-30.6	-35.2	10.4	5.35e-03	0	44	0	1119879168	21	6088
2026-01-08 02:17:20.49	255.75	7.64	-30.6	-35.3	10.3	5.49e-03	0	44	0	1120927744	21	6143
2026-01-08 02:17:21.50	255.66	7.57	-30.6	-35.2	10.4	4.71e-03	0	44	0	1123024896	21	6090
2026-01-08 02:17:22.51	255.57	7.50	-30.7	-35.5	10.2	5.46e-03	0	44	0	1125122048	21	6242
2026-01-08 02:17:23.52	255.48	7.43	-30.7	-35.4	10.2	6.76e-03	0	44	0	1127219200	21	6201
2026-01-08 02:17:24.52	255.39	7.37	-30.6	-35.3	10.2	8.40e-03	0	44	0	1129316352	21	6170
2026-01-08 02:17:25.52	255.30	7.30	-30.7	-35.4	10.1	6.74e-03	0	44	0	1130364928	21	6224
2026-01-08 02:17:26.52	255.22	7.23	-30.7	-35.5	10.1	6.27e-03	0	44	0	1132462080	21	6241
2026-01-08 02:17:27.53	255.13	7.17	-30.7	-35.6	10.0	7.89e-03	0	44	0	1134559232	21	6308
2026-01-08 02:17:28.53	255.04	7.10	-30.7	-35.6	10.1	7.57e-03	0	43	0	1136656384	21	6289
2026-01-08 02:17:29.54	254.96	7.03	-32.7	-46.2	3.8	6.49e-03	0	44	104	1137704960	25	17067

#Closed at: 2026-01-08 02:17:30
#Recorded file [1137 MB]: D:/data/31010_260108_050722.dat