passes_logs/2026/01/08/R2M6_AANII_01/R2M6_AANII_01__20260108_120130_NOAA_20_JPSS-1_rec.log

#Pass ID: 20260108_120130_NOAA 20 (JPSS-1)
#Satellite: NOAA 20 (JPSS-1)
#Configuration: NOAA 20
#almurnet v.1.7.20240730
#Start time: 2026-01-08 12:01:32

#Version: 2.2.20231116
#Station: R2M6_AANII_01
#Location: 30.233357 lon 59.946436 lat
#TLE: 1 43013U 17073A   26006.30790171  .00000126  00000+0  80695-4 0  9991
#TLE: 2 43013  98.7629 307.3394 0001808  51.8724 308.2615 14.19533762421505

#Time	Az	El	Level	Level2	SNR	BER	BlckErr	Temp	State	Recorded	gain1	gain2
2026-01-08 12:01:32.83	216.65	7.12	-31.2	-36.2	5.2	1.17e+00	0	41	0	0	23	6391
2026-01-08 12:01:33.84	216.75	7.19	-31.5	-37.0	5.1	1.20e+00	0	41	104	0	24	6791
2026-01-08 12:01:34.85	216.85	7.25	-31.4	-36.4	8.5	5.76e-02	0	41	0	0	24	6430
2026-01-08 12:01:35.85	216.96	7.31	-31.3	-35.9	9.0	2.96e-02	0	41	0	1048576	24	6111
2026-01-08 12:01:36.86	217.06	7.37	-31.2	-35.9	9.3	1.87e-02	0	41	0	3145728	23	6230
2026-01-08 12:01:37.86	217.16	7.43	-31.2	-35.9	9.4	1.65e-02	0	41	0	5242880	23	6203
2026-01-08 12:01:38.87	217.27	7.50	-31.4	-36.7	8.7	2.12e-02	0	41	0	7340032	23	6650
2026-01-08 12:01:39.87	217.37	7.56	-31.2	-36.1	9.2	2.30e-02	0	41	0	9437184	23	6300
2026-01-08 12:01:40.87	217.47	7.62	-31.1	-35.4	9.8	1.51e-02	0	41	0	10485760	23	5948
2026-01-08 12:01:41.87	217.58	7.68	-30.9	-34.9	10.2	8.85e-03	0	41	0	12582912	23	5700
2026-01-08 12:01:42.88	217.68	7.75	-30.8	-34.6	10.5	4.27e-03	0	41	0	14680064	23	5553
2026-01-08 12:01:43.88	217.79	7.81	-30.8	-34.9	10.6	3.20e-03	0	41	0	16777216	22	5783
2026-01-08 12:01:44.89	217.89	7.87	-30.7	-34.8	10.7	2.95e-03	0	41	0	18874368	22	5740
2026-01-08 12:01:45.90	218.00	7.93	-30.9	-35.4	10.2	5.02e-03	0	41	0	19922944	22	6035
2026-01-08 12:01:46.90	218.11	8.00	-30.8	-34.8	10.7	4.33e-03	0	41	0	22020096	22	5756
2026-01-08 12:01:47.91	218.21	8.06	-30.6	-34.3	11.0	2.26e-03	0	41	0	24117248	22	5530
2026-01-08 12:01:48.91	218.32	8.12	-30.5	-34.1	11.3	1.51e-03	0	41	0	26214400	22	5408
2026-01-08 12:01:49.92	218.43	8.19	-30.4	-33.8	11.5	7.83e-04	0	41	0	28311552	22	5276
2026-01-08 12:01:50.92	218.54	8.25	-30.4	-33.8	11.6	8.41e-04	0	41	0	29360128	22	5266
2026-01-08 12:01:51.93	218.65	8.31	-30.5	-33.8	11.5	8.36e-04	0	41	0	31457280	22	5289
2026-01-08 12:01:52.93	218.76	8.37	-30.6	-34.1	11.3	1.04e-03	0	42	0	33554432	22	5397
2026-01-08 12:01:53.94	218.87	8.44	-30.5	-33.8	11.5	1.01e-03	0	41	0	35651584	22	5286
2026-01-08 12:01:54.94	218.98	8.50	-30.6	-34.2	11.3	9.12e-04	0	42	0	37748736	22	5450
2026-01-08 12:01:55.95	219.09	8.56	-30.5	-34.0	11.4	1.18e-03	0	41	0	38797312	22	5347
2026-01-08 12:01:56.95	219.20	8.63	-30.5	-33.9	11.5	8.78e-04	0	41	0	40894464	22	5302
2026-01-08 12:01:57.95	219.31	8.69	-30.5	-33.8	11.5	7.30e-04	0	41	0	42991616	22	5297
2026-01-08 12:01:58.96	219.42	8.75	-30.6	-34.2	11.3	9.02e-04	0	41	0	45088768	22	5439
2026-01-08 12:01:59.97	219.54	8.82	-30.5	-33.9	11.5	9.63e-04	0	42	0	46137344	22	5309
2026-01-08 12:02:00.97	219.65	8.88	-30.6	-34.1	11.3	9.78e-04	0	41	0	48234496	22	5400
2026-01-08 12:02:01.98	219.76	8.95	-30.7	-34.5	11.1	1.26e-03	0	42	0	50331648	22	5568
2026-01-08 12:02:02.99	219.88	9.01	-30.6	-34.3	11.2	1.56e-03	0	42	0	52428800	22	5478
2026-01-08 12:02:03.99	219.99	9.07	-30.6	-34.1	11.4	1.08e-03	0	42	0	54525952	22	5396
2026-01-08 12:02:05.00	220.11	9.14	-30.5	-33.9	11.5	9.21e-04	0	42	0	56623104	22	5325
2026-01-08 12:02:06.01	220.23	9.20	-30.6	-34.1	11.4	8.55e-04	0	42	0	57671680	22	5399
2026-01-08 12:02:07.01	220.34	9.27	-30.6	-34.2	11.3	1.06e-03	0	42	0	59768832	22	5457
2026-01-08 12:02:08.02	220.46	9.33	-30.7	-34.6	11.2	1.38e-03	0	42	0	61865984	22	5588
2026-01-08 12:02:09.03	220.58	9.40	-30.6	-34.2	11.4	1.37e-03	0	42	0	63963136	22	5427
2026-01-08 12:02:10.04	220.69	9.46	-30.5	-34.0	11.5	9.04e-04	0	42	0	66060288	22	5335
2026-01-08 12:02:11.04	220.81	9.52	-30.5	-34.0	11.5	7.23e-04	0	42	0	67108864	22	5333
2026-01-08 12:02:12.05	220.93	9.59	-30.6	-34.1	11.4	9.30e-04	0	42	0	69206016	22	5409
2026-01-08 12:02:13.05	221.05	9.65	-30.5	-33.8	11.6	7.13e-04	0	42	0	71303168	22	5270
2026-01-08 12:02:14.06	221.17	9.72	-30.6	-34.1	11.4	7.96e-04	0	42	0	73400320	22	5408
2026-01-08 12:02:15.06	221.29	9.78	-30.4	-33.6	11.8	7.64e-04	0	42	0	74448896	22	5186
2026-01-08 12:02:16.06	221.41	9.85	-30.3	-33.3	12.0	4.07e-04	0	42	0	76546048	22	5073
2026-01-08 12:02:17.07	221.53	9.91	-30.3	-33.2	12.1	3.03e-04	0	42	0	78643200	22	5015
2026-01-08 12:02:18.08	221.65	9.98	-30.3	-33.2	12.1	2.62e-04	0	42	0	80740352	22	5004
2026-01-08 12:02:19.09	221.78	10.04	-30.4	-33.4	12.0	3.00e-04	0	42	0	82837504	22	5090
2026-01-08 12:02:20.09	221.90	10.11	-30.3	-33.1	12.2	2.57e-04	0	42	0	84934656	22	4982
2026-01-08 12:02:21.10	222.02	10.17	-30.3	-33.7	12.1	2.21e-04	0	42	0	85983232	21	5309
2026-01-08 12:02:22.11	222.15	10.24	-30.3	-33.7	12.1	2.65e-04	0	42	0	88080384	21	5307
2026-01-08 12:02:23.12	222.27	10.30	-30.3	-33.7	12.1	2.68e-04	0	42	0	90177536	21	5299
2026-01-08 12:02:24.12	222.40	10.37	-30.4	-34.0	11.9	3.11e-04	0	42	0	92274688	21	5444
2026-01-08 12:02:25.13	222.52	10.43	-30.3	-33.5	12.2	3.00e-04	0	42	0	94371840	21	5246
2026-01-08 12:02:26.14	222.65	10.50	-30.2	-33.4	12.3	1.65e-04	0	42	0	95420416	21	5193
2026-01-08 12:02:27.14	222.78	10.56	-30.2	-33.2	12.4	1.29e-04	0	42	0	97517568	21	5133
2026-01-08 12:02:28.15	222.90	10.63	-30.2	-33.4	12.4	1.55e-04	0	42	0	99614720	21	5175
2026-01-08 12:02:29.15	223.03	10.69	-30.1	-33.1	12.6	1.07e-04	0	42	0	101711872	21	5060
2026-01-08 12:02:30.16	223.16	10.76	-30.1	-32.9	12.7	6.63e-05	0	42	0	102760448	21	5011
2026-01-08 12:02:31.16	223.29	10.82	-30.0	-32.8	12.7	7.93e-05	0	42	0	104857600	21	4980
2026-01-08 12:02:32.17	223.42	10.89	-30.0	-32.8	12.8	7.40e-05	0	42	0	106954752	21	4955
2026-01-08 12:02:33.18	223.55	10.96	-30.1	-32.9	12.7	6.63e-05	0	42	0	109051904	21	5011
2026-01-08 12:02:34.18	223.68	11.02	-30.1	-33.1	12.6	7.62e-05	0	42	0	111149056	21	5058
2026-01-08 12:02:35.19	223.81	11.09	-30.0	-32.9	12.7	9.61e-05	0	42	0	113246208	21	4983
2026-01-08 12:02:36.20	223.94	11.15	-30.0	-32.8	12.8	4.95e-05	0	42	0	114294784	21	4948
2026-01-08 12:02:37.20	224.07	11.22	-30.1	-33.0	12.7	7.32e-05	0	42	0	116391936	21	5014
2026-01-08 12:02:38.20	224.21	11.28	-30.0	-32.7	12.9	6.56e-05	0	42	0	118489088	21	4923
2026-01-08 12:02:39.21	224.34	11.35	-30.0	-32.8	12.8	4.04e-05	0	42	0	120586240	21	4965
2026-01-08 12:02:40.21	224.47	11.42	-30.1	-33.1	12.6	8.39e-05	0	42	0	121634816	21	5054
2026-01-08 12:02:41.22	224.61	11.48	-30.1	-32.9	12.7	6.17e-05	0	42	0	123731968	21	5008
2026-01-08 12:02:42.22	224.74	11.55	-30.1	-33.1	12.6	6.10e-05	0	42	0	125829120	21	5071
2026-01-08 12:02:43.23	224.88	11.61	-30.2	-33.4	12.4	1.47e-04	0	42	0	127926272	21	5192
2026-01-08 12:02:44.24	225.02	11.68	-30.1	-33.1	12.7	8.08e-05	0	42	0	130023424	21	5054
2026-01-08 12:02:45.25	225.15	11.75	-30.2	-33.2	12.6	7.62e-05	0	43	0	131072000	21	5124
2026-01-08 12:02:46.25	225.29	11.81	-30.2	-33.3	12.5	1.21e-04	0	42	0	133169152	21	5150
2026-01-08 12:02:47.26	225.43	11.88	-30.1	-33.1	12.7	8.77e-05	0	42	0	135266304	21	5080
2026-01-08 12:02:48.27	225.57	11.95	-30.2	-33.3	12.5	8.69e-05	0	42	0	137363456	21	5155
2026-01-08 12:02:49.27	225.71	12.01	-30.3	-33.5	12.4	1.59e-04	0	43	0	139460608	21	5207
2026-01-08 12:02:50.27	225.85	12.08	-30.1	-33.1	12.6	9.30e-05	0	42	0	140509184	21	5071
2026-01-08 12:02:51.28	225.99	12.14	-30.0	-32.8	12.9	6.40e-05	0	42	0	142606336	21	4953
2026-01-08 12:02:52.28	226.13	12.21	-30.0	-32.6	13.0	3.35e-05	0	42	0	144703488	21	4883
2026-01-08 12:02:53.28	226.27	12.28	-30.0	-32.8	12.9	5.26e-05	0	42	0	146800640	21	4928
2026-01-08 12:02:54.29	226.41	12.34	-30.0	-32.7	12.9	4.19e-05	0	42	0	148897792	21	4910
2026-01-08 12:02:55.30	226.55	12.41	-30.0	-32.6	13.0	4.88e-05	0	42	0	149946368	21	4878
2026-01-08 12:02:56.30	226.70	12.48	-29.9	-32.4	13.1	1.98e-05	0	42	0	152043520	21	4806
2026-01-08 12:02:57.31	226.84	12.54	-29.9	-32.4	13.2	2.28e-05	0	42	0	154140672	21	4813
2026-01-08 12:02:58.32	226.99	12.61	-30.0	-32.6	13.0	2.74e-05	0	43	0	156237824	21	4885
2026-01-08 12:02:59.32	227.13	12.68	-30.0	-32.7	13.0	4.11e-05	0	43	0	158334976	21	4905
2026-01-08 12:03:00.32	227.28	12.74	-30.0	-32.6	13.1	2.89e-05	0	43	0	159383552	21	4863
2026-01-08 12:03:01.32	227.42	12.81	-29.9	-32.5	13.1	3.05e-05	0	42	0	161480704	21	4845
2026-01-08 12:03:02.33	227.57	12.87	-30.0	-32.7	13.0	3.66e-05	0	43	0	163577856	21	4910
2026-01-08 12:03:03.34	227.72	12.94	-30.1	-33.0	12.8	5.41e-05	0	43	0	165675008	21	5004
2026-01-08 12:03:04.34	227.87	13.01	-30.1	-33.0	12.8	6.10e-05	0	43	0	167772160	21	5013
2026-01-08 12:03:05.35	228.02	13.07	-30.0	-32.7	13.0	5.34e-05	0	43	0	168820736	21	4905
2026-01-08 12:03:06.35	228.17	13.14	-30.0	-32.7	13.0	4.11e-05	0	42	0	170917888	21	4904
2026-01-08 12:03:07.37	228.32	13.21	-30.0	-32.6	13.1	2.67e-05	0	43	0	173015040	21	4863
2026-01-08 12:03:08.37	228.47	13.27	-30.0	-32.7	13.0	3.05e-05	0	43	0	175112192	21	4897
2026-01-08 12:03:09.37	228.62	13.34	-30.0	-32.7	13.0	3.43e-05	0	43	0	177209344	21	4902
2026-01-08 12:03:10.38	228.78	13.41	-30.1	-33.0	12.8	6.48e-05	0	43	0	178257920	21	4996
2026-01-08 12:03:11.39	228.93	13.47	-29.9	-32.5	13.2	2.82e-05	0	43	0	180355072	21	4826
2026-01-08 12:03:12.39	229.08	13.54	-29.9	-32.3	13.4	1.44e-05	0	43	0	182452224	21	4737
2026-01-08 12:03:13.40	229.24	13.61	-29.9	-32.3	13.3	1.67e-05	0	43	0	184549376	21	4773
2026-01-08 12:03:14.41	229.39	13.67	-29.9	-32.3	13.3	1.06e-05	0	43	0	186646528	21	4747
2026-01-08 12:03:15.41	229.55	13.74	-29.9	-32.3	13.3	1.67e-05	0	43	0	187695104	21	4755
2026-01-08 12:03:16.42	229.71	13.81	-29.9	-32.3	13.4	1.83e-05	0	42	0	189792256	21	4742
2026-01-08 12:03:17.42	229.86	13.87	-29.8	-32.2	13.4	1.06e-05	0	43	0	191889408	21	4702
2026-01-08 12:03:18.43	230.02	13.94	-29.8	-32.1	13.5	1.14e-05	0	42	0	193986560	21	4680
2026-01-08 12:03:19.44	230.18	14.00	-29.8	-32.1	13.5	1.22e-05	0	42	0	196083712	21	4669
2026-01-08 12:03:20.44	230.34	14.07	-29.8	-32.1	13.5	1.37e-05	0	43	0	197132288	21	4694
2026-01-08 12:03:21.45	230.50	14.14	-29.8	-32.5	13.5	9.10e-06	0	43	0	199229440	20	4928
2026-01-08 12:03:22.46	230.66	14.20	-29.9	-32.7	13.4	1.29e-05	0	43	0	201326592	20	4991
2026-01-08 12:03:23.47	230.82	14.27	-29.9	-32.7	13.5	1.14e-05	0	43	0	203423744	20	4987
2026-01-08 12:03:24.48	230.99	14.34	-29.9	-32.9	13.3	1.67e-05	0	43	0	205520896	20	5089
2026-01-08 12:03:25.48	231.15	14.40	-30.0	-33.0	13.3	3.12e-05	0	43	0	206569472	20	5102
2026-01-08 12:03:26.49	231.31	14.47	-30.0	-33.2	13.2	2.28e-05	0	43	0	208666624	20	5164
2026-01-08 12:03:27.48	231.48	14.53	-30.0	-33.0	13.2	2.59e-05	0	43	0	210763776	20	5121
2026-01-08 12:03:28.49	231.64	14.60	-30.0	-33.0	13.3	1.90e-05	0	43	0	212860928	20	5104
2026-01-08 12:03:29.49	231.81	14.67	-30.0	-33.2	13.1	1.90e-05	0	43	0	214958080	20	5173
2026-01-08 12:03:30.50	231.97	14.73	-30.1	-33.2	13.1	4.19e-05	0	43	0	216006656	20	5191
2026-01-08 12:03:31.50	232.14	14.80	-30.0	-33.2	13.2	2.67e-05	0	43	0	218103808	20	5160
2026-01-08 12:03:32.50	232.31	14.86	-30.1	-33.5	13.0	4.27e-05	0	43	0	220200960	20	5274
2026-01-08 12:03:33.51	232.48	14.93	-30.2	-33.6	12.9	6.48e-05	0	43	0	222298112	20	5312
2026-01-08 12:03:34.52	232.65	15.00	-30.0	-33.1	13.2	3.28e-05	0	43	0	224395264	20	5140
2026-01-08 12:03:35.52	232.82	15.06	-30.0	-33.1	13.2	2.51e-05	0	43	0	225443840	20	5147
2026-01-08 12:03:36.53	232.99	15.13	-30.0	-33.1	13.2	2.74e-05	0	43	0	227540992	20	5150
2026-01-08 12:03:37.54	233.16	15.19	-30.1	-33.2	13.2	3.20e-05	0	43	0	229638144	20	5182
2026-01-08 12:03:38.55	233.33	15.26	-30.1	-33.3	13.1	2.59e-05	0	43	0	231735296	20	5209
2026-01-08 12:03:39.55	233.50	15.33	-30.1	-33.4	13.0	2.36e-05	0	43	0	233832448	20	5243
2026-01-08 12:03:40.56	233.68	15.39	-30.2	-33.7	12.8	4.27e-05	0	43	0	234881024	20	5372
2026-01-08 12:03:41.56	233.85	15.46	-30.2	-33.7	12.8	7.47e-05	0	43	0	236978176	20	5378
2026-01-08 12:03:42.57	234.03	15.52	-30.1	-33.2	13.2	3.12e-05	0	43	0	239075328	20	5193
2026-01-08 12:03:43.58	234.21	15.59	-30.0	-32.9	13.4	1.90e-05	0	43	0	241172480	20	5068
2026-01-08 12:03:44.58	234.38	15.65	-29.9	-32.9	13.4	2.44e-05	0	43	0	243269632	20	5053
2026-01-08 12:03:45.59	234.56	15.72	-30.0	-33.0	13.4	1.37e-05	0	43	0	244318208	20	5080
2026-01-08 12:03:46.60	234.74	15.78	-30.0	-33.0	13.3	1.14e-05	0	43	0	246415360	20	5097
2026-01-08 12:03:47.60	234.92	15.85	-30.0	-33.0	13.3	1.22e-05	0	43	0	248512512	20	5093
2026-01-08 12:03:48.61	235.10	15.91	-30.1	-33.2	13.2	1.44e-05	0	43	0	250609664	20	5178
2026-01-08 12:03:49.62	235.28	15.98	-30.1	-33.2	13.2	2.44e-05	0	43	0	252706816	20	5176
2026-01-08 12:03:50.63	235.46	16.04	-30.1	-33.2	13.2	1.98e-05	0	43	0	253755392	20	5181
2026-01-08 12:03:51.64	235.64	16.11	-30.2	-33.5	13.0	2.13e-05	0	43	0	255852544	20	5264
2026-01-08 12:03:52.65	235.83	16.17	-30.1	-33.2	13.2	2.67e-05	0	43	0	257949696	20	5167
2026-01-08 12:03:53.65	236.01	16.24	-30.0	-33.1	13.3	2.21e-05	0	43	0	260046848	20	5114
2026-01-08 12:03:54.66	236.19	16.30	-30.1	-33.3	13.2	2.28e-05	0	43	0	262144000	20	5214
2026-01-08 12:03:55.66	236.38	16.36	-30.1	-33.2	13.3	2.36e-05	0	43	0	263192576	20	5157
2026-01-08 12:03:56.67	236.57	16.43	-29.9	-32.8	13.5	8.30e-06	0	43	0	265289728	20	5030
2026-01-08 12:03:57.68	236.75	16.49	-29.9	-32.8	13.6	9.90e-06	0	43	0	267386880	20	5004
2026-01-08 12:03:58.68	236.94	16.56	-29.9	-32.9	13.5	6.80e-06	0	43	0	269484032	20	5042
2026-01-08 12:03:59.68	237.13	16.62	-30.0	-33.0	13.4	1.83e-05	0	43	0	271581184	20	5092
2026-01-08 12:04:00.69	237.32	16.68	-30.0	-32.9	13.5	1.60e-05	0	43	0	272629760	20	5056
2026-01-08 12:04:01.69	237.50	16.75	-29.9	-32.7	13.6	1.14e-05	0	43	0	274726912	20	4962
2026-01-08 12:04:02.70	237.70	16.81	-29.9	-32.7	13.6	3.00e-06	0	43	0	276824064	20	4981
2026-01-08 12:04:03.71	237.89	16.87	-29.9	-32.8	13.5	3.00e-06	0	43	0	278921216	20	5015
2026-01-08 12:04:04.71	238.08	16.94	-30.0	-33.1	13.4	8.30e-06	0	43	0	281018368	20	5101
2026-01-08 12:04:05.72	238.27	17.00	-30.0	-33.0	13.4	1.14e-05	0	43	0	282066944	20	5094
2026-01-08 12:04:06.73	238.47	17.06	-30.0	-32.9	13.5	7.60e-06	0	43	0	284164096	20	5055
2026-01-08 12:04:07.73	238.66	17.12	-29.9	-32.8	13.5	1.06e-05	0	43	0	286261248	20	4995
2026-01-08 12:04:08.74	238.86	17.19	-29.9	-32.6	13.6	9.90e-06	0	43	0	288358400	20	4948
2026-01-08 12:04:09.74	239.05	17.25	-29.9	-32.7	13.6	9.10e-06	0	43	0	290455552	20	4983
2026-01-08 12:04:10.75	239.25	17.31	-30.0	-33.1	13.4	9.90e-06	0	43	0	291504128	20	5108
2026-01-08 12:04:11.75	239.45	17.37	-30.0	-32.9	13.5	2.05e-05	0	43	0	293601280	20	5043
2026-01-08 12:04:12.76	239.64	17.43	-29.8	-32.4	13.9	8.30e-06	0	43	0	295698432	20	4863
2026-01-08 12:04:13.76	239.84	17.50	-29.7	-32.0	14.0	7.00e-07	0	43	0	297795584	20	4731
2026-01-08 12:04:14.77	240.04	17.56	-29.6	-31.8	14.2	3.00e-06	0	43	0	299892736	20	4671
2026-01-08 12:04:15.77	240.24	17.62	-29.6	-32.0	14.1	2.20e-06	0	43	0	300941312	20	4710
2026-01-08 12:04:16.76	240.44	17.68	-29.6	-31.9	14.1	1.50e-06	0	43	0	303038464	20	4703
2026-01-08 12:04:17.77	240.64	17.74	-29.6	-31.8	14.2	2.20e-06	0	43	0	305135616	20	4658
2026-01-08 12:04:18.77	240.85	17.80	-29.6	-31.9	14.1	7.00e-07	0	43	0	307232768	20	4704
2026-01-08 12:04:19.78	241.05	17.86	-29.6	-31.9	14.1	1.50e-06	0	43	0	308281344	20	4699
2026-01-08 12:04:20.79	241.26	17.92	-29.8	-32.5	13.8	1.50e-06	0	43	0	310378496	20	4879
2026-01-08 12:04:21.79	241.46	17.98	-29.7	-32.2	14.0	3.00e-06	0	43	0	312475648	20	4791
2026-01-08 12:04:22.80	241.67	18.04	-29.5	-31.8	14.2	1.50e-06	0	43	0	314572800	20	4646
2026-01-08 12:04:23.81	241.88	18.10	-29.4	-31.4	14.5	1.50e-06	0	43	0	316669952	20	4527
2026-01-08 12:04:24.81	242.08	18.16	-29.4	-31.3	14.5	2.20e-06	0	43	0	317718528	20	4493
2026-01-08 12:04:25.82	242.29	18.22	-29.5	-31.5	14.4	1.50e-06	0	43	0	319815680	20	4560
2026-01-08 12:04:26.83	242.50	18.28	-29.4	-31.3	14.5	1.50e-06	0	43	0	321912832	20	4509
2026-01-08 12:04:27.83	242.71	18.34	-29.4	-31.4	14.6	1.50e-06	0	43	0	324009984	20	4514
2026-01-08 12:04:28.83	242.92	18.39	-29.4	-31.5	14.5	7.00e-07	0	43	0	326107136	20	4549
2026-01-08 12:04:29.84	243.13	18.45	-29.5	-31.6	14.4	7.00e-07	0	43	0	328204288	20	4604
2026-01-08 12:04:30.84	243.34	18.51	-29.6	-31.9	14.2	0.00e+00	0	43	0	329252864	20	4692
2026-01-08 12:04:31.85	243.56	18.57	-29.7	-32.2	14.0	7.00e-07	0	43	0	331350016	20	4788
2026-01-08 12:04:32.86	243.77	18.63	-29.8	-32.4	13.9	3.80e-06	0	43	0	333447168	20	4877
2026-01-08 12:04:33.86	243.99	18.68	-30.0	-32.8	13.6	4.50e-06	0	43	0	335544320	20	5014
2026-01-08 12:04:34.87	244.20	18.74	-30.0	-32.9	13.6	7.60e-06	0	43	0	336592896	20	5025
2026-01-08 12:04:35.88	244.42	18.80	-30.1	-33.2	13.4	1.22e-05	0	43	0	338690048	20	5131
2026-01-08 12:04:36.87	244.64	18.85	-30.1	-33.1	13.5	9.90e-06	0	43	0	340787200	20	5108
2026-01-08 12:04:37.88	244.85	18.91	-30.0	-33.0	13.5	1.14e-05	0	43	0	342884352	20	5069
2026-01-08 12:04:38.88	245.07	18.96	-30.1	-33.3	13.3	1.14e-05	0	43	0	344981504	20	5193
2026-01-08 12:04:39.89	245.29	19.02	-30.2	-33.4	13.3	1.44e-05	0	43	0	346030080	20	5224
2026-01-08 12:04:40.89	245.51	19.07	-30.2	-33.4	13.3	1.22e-05	0	43	0	348127232	20	5223
2026-01-08 12:04:41.90	245.73	19.13	-30.3	-33.7	13.1	1.83e-05	0	43	0	350224384	20	5326
2026-01-08 12:04:42.90	245.95	19.18	-30.3	-33.8	13.0	3.66e-05	0	43	0	352321536	20	5374
2026-01-08 12:04:43.91	246.18	19.24	-30.4	-34.1	12.8	4.95e-05	0	43	0	354418688	20	5483
2026-01-08 12:04:44.92	246.40	19.29	-30.5	-33.9	12.6	6.17e-05	0	43	0	355467264	21	5295
2026-01-08 12:04:45.92	246.63	19.35	-30.6	-34.1	12.5	1.03e-04	0	43	0	357564416	21	5384
2026-01-08 12:04:46.92	246.85	19.40	-30.8	-34.8	12.0	2.17e-04	0	43	0	359661568	21	5684
2026-01-08 12:04:47.92	247.07	19.45	-30.8	-34.7	12.1	3.30e-04	0	43	0	361758720	21	5658
2026-01-08 12:04:48.93	247.30	19.51	-31.0	-34.9	11.7	3.55e-04	0	43	0	363855872	22	5598
2026-01-08 12:04:49.93	247.53	19.56	-31.0	-34.7	11.8	5.79e-04	0	43	0	364904448	22	5523
2026-01-08 12:04:50.94	247.76	19.61	-30.9	-34.6	11.9	4.55e-04	0	43	0	367001600	22	5465
2026-01-08 12:04:51.95	247.99	19.66	-30.9	-34.4	12.0	4.29e-04	0	43	0	369098752	22	5415
2026-01-08 12:04:52.95	248.21	19.71	-30.9	-34.5	11.9	3.94e-04	0	43	0	371195904	22	5449
2026-01-08 12:04:53.95	248.44	19.76	-31.0	-34.7	11.8	4.24e-04	0	43	0	373293056	22	5514
2026-01-08 12:04:54.96	248.67	19.81	-31.0	-34.8	11.7	4.39e-04	0	43	0	374341632	22	5584
2026-01-08 12:04:55.97	248.91	19.87	-31.0	-34.6	11.8	4.29e-04	0	43	0	376438784	22	5486
2026-01-08 12:04:56.97	249.14	19.92	-30.8	-34.3	12.0	3.38e-04	0	43	0	378535936	22	5353
2026-01-08 12:04:57.98	249.37	19.96	-30.8	-34.2	12.1	2.40e-04	0	43	0	380633088	22	5325
2026-01-08 12:04:58.99	249.61	20.01	-30.8	-34.3	12.1	2.70e-04	0	43	0	382730240	22	5336
2026-01-08 12:04:59.99	249.84	20.06	-30.9	-34.5	11.9	3.11e-04	0	43	0	383778816	22	5454
2026-01-08 12:05:01.00	250.08	20.11	-30.9	-34.3	12.1	3.14e-04	0	43	0	385875968	22	5371
2026-01-08 12:05:02.00	250.31	20.16	-31.0	-34.7	11.8	2.94e-04	0	43	0	387973120	22	5511
2026-01-08 12:05:03.01	250.55	20.21	-30.9	-34.3	12.1	3.13e-04	0	43	0	390070272	22	5367
2026-01-08 12:05:04.01	250.79	20.25	-30.8	-34.3	12.1	2.27e-04	0	43	0	392167424	22	5343
2026-01-08 12:05:05.02	251.03	20.30	-30.8	-34.1	12.2	2.45e-04	0	43	0	393216000	22	5273
2026-01-08 12:05:06.03	251.27	20.35	-30.8	-34.2	12.2	2.66e-04	0	43	0	395313152	22	5309
2026-01-08 12:05:07.03	251.50	20.39	-30.8	-34.1	12.2	2.30e-04	0	43	0	397410304	22	5290
2026-01-08 12:05:08.03	251.74	20.44	-30.8	-34.3	12.1	2.04e-04	0	43	0	399507456	22	5361
2026-01-08 12:05:09.04	251.98	20.49	-31.0	-34.6	11.9	3.61e-04	0	43	0	401604608	22	5486
2026-01-08 12:05:10.05	252.23	20.53	-30.6	-33.6	12.6	1.61e-04	0	43	0	402653184	22	5090
2026-01-08 12:05:11.05	252.47	20.57	-30.4	-33.0	12.9	7.85e-05	0	43	0	404750336	22	4863
2026-01-08 12:05:12.06	252.71	20.62	-30.3	-32.8	13.1	3.28e-05	0	43	0	406847488	22	4781
2026-01-08 12:05:13.06	252.96	20.66	-30.4	-32.9	13.0	3.05e-05	0	43	0	408944640	22	4830
2026-01-08 12:05:14.07	253.20	20.71	-30.5	-33.4	12.7	4.27e-05	0	43	0	411041792	22	5002
2026-01-08 12:05:15.07	253.44	20.75	-30.6	-33.5	12.7	7.47e-05	0	43	0	412090368	22	5034
2026-01-08 12:05:16.08	253.69	20.79	-30.6	-33.6	12.6	8.39e-05	0	43	0	414187520	22	5079
2026-01-08 12:05:17.08	253.94	20.83	-30.7	-33.9	12.4	1.48e-04	0	43	0	416284672	22	5197
2026-01-08 12:05:18.08	254.18	20.87	-30.6	-33.6	12.6	1.43e-04	0	43	0	418381824	22	5077
2026-01-08 12:05:19.09	254.43	20.91	-30.6	-33.5	12.7	8.23e-05	0	43	0	420478976	22	5023
2026-01-08 12:05:20.09	254.68	20.95	-30.5	-33.3	12.7	7.55e-05	0	43	0	421527552	22	4970
2026-01-08 12:05:21.10	254.93	20.99	-30.5	-33.3	12.8	6.79e-05	0	43	0	423624704	22	4952
2026-01-08 12:05:22.10	255.18	21.03	-30.6	-33.5	12.6	5.49e-05	0	43	0	425721856	22	5051
2026-01-08 12:05:23.11	255.43	21.07	-30.4	-33.1	12.9	4.88e-05	0	43	0	427819008	22	4874
2026-01-08 12:05:24.11	255.68	21.11	-30.3	-32.8	13.2	3.50e-05	0	43	0	429916160	22	4773
2026-01-08 12:05:25.12	255.93	21.15	-30.3	-32.7	13.2	2.36e-05	0	43	0	430964736	22	4758
2026-01-08 12:05:26.13	256.18	21.19	-30.4	-32.9	13.1	2.51e-05	0	43	0	433061888	22	4807
2026-01-08 12:05:27.13	256.43	21.22	-30.4	-32.8	13.1	3.73e-05	0	43	0	435159040	22	4786
2026-01-08 12:05:28.14	256.69	21.26	-30.4	-32.9	13.1	3.58e-05	0	43	0	437256192	22	4826
2026-01-08 12:05:29.14	256.94	21.30	-30.4	-33.1	13.0	2.74e-05	0	43	0	439353344	22	4868
2026-01-08 12:05:30.15	257.20	21.33	-30.5	-33.3	12.8	5.26e-05	0	43	0	440401920	22	4961
2026-01-08 12:05:31.16	257.45	21.37	-30.7	-33.7	12.6	9.07e-05	0	43	0	442499072	22	5112
2026-01-08 12:05:32.16	257.71	21.40	-30.5	-33.2	12.9	9.46e-05	0	43	0	444596224	22	4929
2026-01-08 12:05:33.16	257.96	21.43	-30.4	-32.9	13.1	4.11e-05	0	43	0	446693376	22	4799
2026-01-08 12:05:34.16	258.21	21.47	-30.3	-32.8	13.2	1.29e-05	0	43	0	448790528	22	4764
2026-01-08 12:05:35.17	258.47	21.50	-30.3	-32.7	13.2	1.98e-05	0	43	0	449839104	22	4755
2026-01-08 12:05:36.17	258.73	21.53	-30.1	-32.6	13.6	7.60e-06	0	43	0	451936256	21	4795
2026-01-08 12:05:37.18	258.99	21.57	-29.9	-32.2	13.8	6.10e-06	0	43	0	454033408	21	4667
2026-01-08 12:05:38.18	259.25	21.60	-30.0	-32.3	13.8	3.00e-06	0	43	0	456130560	21	4705
2026-01-08 12:05:39.19	259.51	21.63	-30.0	-32.5	13.7	5.30e-06	0	43	0	458227712	21	4758
2026-01-08 12:05:40.19	259.76	21.66	-29.9	-32.0	14.0	1.50e-06	0	43	0	459276288	21	4595
2026-01-08 12:05:41.20	260.02	21.69	-29.8	-31.9	14.1	3.00e-06	0	43	0	461373440	21	4574
2026-01-08 12:05:42.21	260.29	21.72	-29.9	-32.0	14.0	7.60e-06	0	43	0	463470592	21	4607
2026-01-08 12:05:43.21	260.55	21.74	-29.9	-32.0	14.0	7.00e-07	0	43	0	465567744	21	4609
2026-01-08 12:05:44.22	260.81	21.77	-29.8	-31.9	14.1	7.00e-07	0	43	0	466616320	21	4561
2026-01-08 12:05:45.22	261.07	21.80	-29.9	-32.1	13.9	5.30e-06	0	43	0	468713472	21	4634
2026-01-08 12:05:46.23	261.33	21.83	-29.8	-31.9	14.1	3.00e-06	0	43	0	470810624	21	4572
2026-01-08 12:05:47.23	261.59	21.85	-29.9	-32.1	14.0	3.00e-06	0	43	0	472907776	21	4628
2026-01-08 12:05:48.24	261.86	21.88	-29.9	-32.0	14.0	3.80e-06	0	43	0	475004928	21	4600
2026-01-08 12:05:49.25	262.12	21.90	-30.0	-32.2	13.9	6.10e-06	0	43	0	477102080	21	4670
2026-01-08 12:05:50.26	262.39	21.93	-29.9	-32.1	13.9	2.20e-06	0	43	0	478150656	21	4648
2026-01-08 12:05:51.27	262.65	21.95	-29.9	-32.0	14.1	1.50e-06	0	43	0	480247808	21	4599
2026-01-08 12:05:52.27	262.92	21.97	-29.8	-31.9	14.1	1.50e-06	0	43	0	482344960	21	4580
2026-01-08 12:05:53.28	263.18	22.00	-29.9	-32.1	13.9	2.20e-06	0	43	0	484442112	21	4640
2026-01-08 12:05:54.29	263.45	22.02	-30.0	-32.3	13.8	5.30e-06	0	43	0	486539264	21	4699
2026-01-08 12:05:55.29	263.71	22.04	-30.1	-32.5	13.7	4.50e-06	0	43	0	487587840	21	4764
2026-01-08 12:05:56.30	263.98	22.06	-30.1	-32.7	13.6	6.80e-06	0	43	0	489684992	21	4834
2026-01-08 12:05:57.31	264.25	22.08	-30.2	-32.8	13.5	1.06e-05	0	43	0	491782144	21	4886
2026-01-08 12:05:58.31	264.52	22.10	-30.2	-32.8	13.5	9.10e-06	0	43	0	493879296	21	4891
2026-01-08 12:05:59.32	264.78	22.12	-30.3	-33.0	13.4	1.98e-05	0	43	0	494927872	21	4937
2026-01-08 12:06:00.33	265.05	22.14	-30.3	-33.1	13.4	1.67e-05	0	43	0	497025024	21	4964
2026-01-08 12:06:01.33	265.32	22.16	-30.3	-33.3	13.2	1.29e-05	0	43	0	499122176	21	5044
2026-01-08 12:06:02.34	265.59	22.17	-30.5	-33.6	13.0	3.58e-05	0	43	0	501219328	21	5164
2026-01-08 12:06:03.35	265.86	22.19	-30.5	-33.7	13.0	4.11e-05	0	43	0	503316480	21	5203
2026-01-08 12:06:04.36	266.13	22.21	-30.5	-33.7	12.9	4.42e-05	0	43	0	505413632	21	5191
2026-01-08 12:06:05.36	266.39	22.22	-30.5	-33.6	13.0	3.96e-05	0	43	0	506462208	21	5163
2026-01-08 12:06:06.37	266.67	22.24	-30.4	-33.5	13.1	2.51e-05	0	43	0	508559360	21	5116
2026-01-08 12:06:07.37	266.93	22.25	-30.4	-33.4	13.1	2.97e-05	0	43	0	510656512	21	5100
2026-01-08 12:06:08.38	267.20	22.26	-30.4	-33.3	13.2	2.36e-05	0	43	0	512753664	21	5062
2026-01-08 12:06:09.39	267.47	22.28	-30.3	-33.1	13.3	2.67e-05	0	43	0	514850816	21	4995
2026-01-08 12:06:10.39	267.74	22.29	-30.1	-32.6	13.6	9.10e-06	0	43	0	515899392	21	4818
2026-01-08 12:06:11.40	268.01	22.30	-30.1	-32.5	13.7	7.60e-06	0	43	0	517996544	21	4773
2026-01-08 12:06:12.40	268.28	22.31	-30.1	-32.7	13.6	9.10e-06	0	43	0	520093696	21	4837
2026-01-08 12:06:13.41	268.56	22.32	-30.2	-32.9	13.4	1.90e-05	0	43	0	522190848	21	4915
2026-01-08 12:06:14.42	268.83	22.33	-30.2	-32.9	13.5	1.60e-05	0	43	0	523239424	21	4913
2026-01-08 12:06:15.43	269.10	22.34	-30.4	-33.3	13.2	2.51e-05	0	43	0	525336576	21	5052
2026-01-08 12:06:16.43	269.37	22.35	-30.4	-33.5	13.1	2.21e-05	0	43	0	527433728	21	5124
2026-01-08 12:06:17.43	269.64	22.35	-30.5	-33.7	12.9	5.72e-05	0	43	0	529530880	21	5221
2026-01-08 12:06:18.44	269.91	22.36	-30.5	-33.7	12.9	4.04e-05	0	43	0	531628032	21	5203
2026-01-08 12:06:19.45	270.18	22.37	-30.5	-33.7	12.9	5.64e-05	0	43	0	533725184	21	5204
2026-01-08 12:06:20.46	270.46	22.37	-30.4	-33.5	13.0	4.27e-05	0	43	0	534773760	21	5141
2026-01-08 12:06:21.46	270.73	22.38	-30.3	-33.0	13.4	2.97e-05	0	43	0	536870912	21	4955
2026-01-08 12:06:22.47	271.00	22.38	-30.1	-32.6	13.6	5.30e-06	0	43	0	538968064	21	4817
2026-01-08 12:06:23.48	271.27	22.39	-30.0	-32.4	13.8	9.10e-06	0	43	0	541065216	21	4725
2026-01-08 12:06:24.49	271.55	22.39	-30.0	-32.2	13.9	3.80e-06	0	43	0	543162368	21	4657
2026-01-08 12:06:25.50	271.82	22.39	-29.8	-31.9	14.1	3.00e-06	0	43	0	544210944	21	4562
2026-01-08 12:06:26.50	272.09	22.39	-29.9	-32.0	14.1	3.00e-06	0	43	0	546308096	21	4589
2026-01-08 12:06:27.51	272.36	22.39	-30.0	-32.3	13.8	5.30e-06	0	43	0	548405248	21	4706
2026-01-08 12:06:28.51	272.63	22.39	-30.2	-32.8	13.5	3.80e-06	0	43	0	550502400	21	4884
2026-01-08 12:06:29.52	272.91	22.39	-30.2	-32.9	13.5	9.10e-06	0	43	0	551550976	21	4898
2026-01-08 12:06:30.53	273.18	22.39	-30.3	-33.1	13.3	9.90e-06	0	43	0	553648128	21	4993
2026-01-08 12:06:31.54	273.45	22.39	-30.3	-33.0	13.4	1.90e-05	0	43	0	555745280	21	4950
2026-01-08 12:06:32.53	273.72	22.39	-30.2	-32.8	13.5	6.80e-06	0	43	0	557842432	21	4862
2026-01-08 12:06:33.54	273.99	22.39	-30.1	-32.6	13.7	6.10e-06	0	43	0	559939584	21	4785
2026-01-08 12:06:34.55	274.26	22.38	-30.0	-32.4	13.8	8.30e-06	0	43	0	562036736	21	4726
2026-01-08 12:06:35.55	274.53	22.38	-29.9	-32.1	13.9	3.80e-06	0	43	0	563085312	21	4641
2026-01-08 12:06:36.55	274.80	22.37	-29.8	-31.8	14.2	0.00e+00	0	43	0	565182464	21	4531
2026-01-08 12:06:37.55	275.07	22.37	-29.6	-31.9	14.4	0.00e+00	0	43	0	567279616	20	4657
2026-01-08 12:06:38.55	275.34	22.36	-29.7	-32.0	14.4	0.00e+00	0	43	0	569376768	20	4694
2026-01-08 12:06:39.56	275.62	22.36	-29.8	-32.2	14.2	1.50e-06	0	43	0	570425344	20	4773
2026-01-08 12:06:40.56	275.89	22.35	-29.9	-32.7	14.0	7.00e-07	0	43	0	572522496	20	4934
2026-01-08 12:06:41.57	276.16	22.34	-30.1	-33.1	13.7	6.80e-06	0	43	0	574619648	20	5085
2026-01-08 12:06:42.58	276.43	22.33	-30.3	-33.6	13.3	1.44e-05	0	43	0	576716800	20	5291
2026-01-08 12:06:43.59	276.70	22.32	-30.4	-34.0	13.1	3.58e-05	0	43	0	578813952	20	5423
2026-01-08 12:06:44.59	276.97	22.31	-30.4	-33.9	13.1	3.28e-05	0	43	0	579862528	20	5399
2026-01-08 12:06:45.60	277.24	22.30	-30.4	-34.0	13.1	2.74e-05	0	43	0	581959680	20	5419
2026-01-08 12:06:46.60	277.51	22.29	-30.5	-34.1	13.0	4.27e-05	0	43	0	584056832	20	5457
2026-01-08 12:06:47.61	277.78	22.28	-30.6	-33.9	12.7	5.64e-05	0	43	0	586153984	21	5299
2026-01-08 12:06:48.62	278.05	22.27	-30.6	-34.1	12.7	8.16e-05	0	43	0	588251136	21	5347
2026-01-08 12:06:49.63	278.32	22.25	-30.7	-34.2	12.6	8.69e-05	0	43	0	589299712	21	5393
2026-01-08 12:06:50.63	278.59	22.24	-30.6	-34.1	12.6	1.06e-04	0	43	0	591396864	21	5363
2026-01-08 12:06:51.64	278.86	22.22	-30.4	-33.5	13.1	5.72e-05	0	43	0	593494016	21	5124
2026-01-08 12:06:52.64	279.13	22.21	-30.3	-33.1	13.3	2.59e-05	0	43	0	595591168	21	4995
2026-01-08 12:06:53.65	279.40	22.19	-30.4	-33.4	13.2	1.06e-05	0	43	0	597688320	21	5094
2026-01-08 12:06:54.65	279.66	22.18	-30.3	-33.1	13.4	2.36e-05	0	43	0	598736896	21	4968
2026-01-08 12:06:55.66	279.93	22.16	-30.4	-33.4	13.2	1.75e-05	0	43	0	600834048	21	5075
2026-01-08 12:06:56.66	280.20	22.14	-30.4	-33.4	13.1	2.97e-05	0	43	0	602931200	21	5094
2026-01-08 12:06:57.66	280.46	22.12	-30.6	-33.9	12.8	3.05e-05	0	43	0	605028352	21	5298
2026-01-08 12:06:58.67	280.73	22.11	-30.7	-34.2	12.6	9.00e-05	0	43	0	607125504	21	5418
2026-01-08 12:06:59.67	281.00	22.09	-30.5	-33.9	12.8	6.17e-05	0	43	0	608174080	21	5268
2026-01-08 12:07:00.68	281.27	22.07	-30.4	-33.6	13.0	4.11e-05	0	43	0	610271232	21	5159
2026-01-08 12:07:01.68	281.53	22.05	-30.5	-33.6	13.0	4.19e-05	0	43	0	612368384	21	5160
2026-01-08 12:07:02.69	281.80	22.02	-30.4	-33.3	13.2	2.36e-05	0	43	0	614465536	21	5061
2026-01-08 12:07:03.69	282.06	22.00	-30.3	-33.1	13.3	2.05e-05	0	43	0	616562688	21	4968
2026-01-08 12:07:04.69	282.32	21.98	-30.3	-33.1	13.4	1.83e-05	0	43	0	617611264	21	4959
2026-01-08 12:07:05.69	282.59	21.96	-30.4	-33.4	13.2	2.44e-05	0	43	0	619708416	21	5084
2026-01-08 12:07:06.70	282.85	21.93	-30.3	-33.1	13.3	2.36e-05	0	43	0	621805568	21	4993
2026-01-08 12:07:07.71	283.12	21.91	-30.1	-32.7	13.6	7.60e-06	0	43	0	623902720	21	4842
2026-01-08 12:07:08.72	283.38	21.89	-30.1	-32.5	13.7	7.60e-06	0	43	0	625999872	21	4784
2026-01-08 12:07:09.72	283.64	21.86	-29.9	-32.2	13.9	4.50e-06	0	43	0	627048448	21	4660
2026-01-08 12:07:10.72	283.90	21.83	-30.0	-32.3	13.8	4.50e-06	0	43	0	629145600	21	4683
2026-01-08 12:07:11.73	284.17	21.81	-30.0	-32.4	13.8	1.50e-06	0	43	0	631242752	21	4718
2026-01-08 12:07:12.73	284.43	21.78	-30.0	-32.3	13.8	3.80e-06	0	43	0	633339904	21	4713
2026-01-08 12:07:13.74	284.69	21.75	-30.0	-32.3	13.9	3.00e-06	0	43	0	635437056	21	4684
2026-01-08 12:07:14.74	284.95	21.73	-30.0	-32.4	13.8	6.10e-06	0	43	0	636485632	21	4741
2026-01-08 12:07:15.74	285.21	21.70	-30.1	-32.5	13.7	8.30e-06	0	43	0	638582784	21	4783
2026-01-08 12:07:16.75	285.47	21.67	-30.0	-32.4	13.7	3.00e-06	0	43	0	640679936	21	4746
2026-01-08 12:07:17.75	285.72	21.64	-30.1	-32.6	13.7	4.50e-06	0	43	0	642777088	21	4789
2026-01-08 12:07:18.76	285.98	21.61	-30.2	-32.9	13.5	7.60e-06	0	43	0	644874240	21	4890
2026-01-08 12:07:19.75	286.24	21.58	-30.1	-32.5	13.7	8.30e-06	0	43	0	645922816	21	4759
2026-01-08 12:07:20.76	286.50	21.55	-29.8	-31.9	14.1	2.20e-06	0	43	0	648019968	21	4558
2026-01-08 12:07:21.76	286.75	21.51	-29.8	-32.3	14.2	0.00e+00	0	43	0	650117120	20	4802
2026-01-08 12:07:22.76	287.01	21.48	-29.9	-32.7	13.9	2.20e-06	0	43	0	652214272	20	4922
2026-01-08 12:07:23.76	287.26	21.45	-30.1	-33.1	13.6	3.80e-06	0	43	0	653262848	20	5085
2026-01-08 12:07:24.76	287.52	21.41	-30.1	-33.2	13.6	1.06e-05	0	43	0	655360000	20	5109
2026-01-08 12:07:25.77	287.77	21.38	-30.1	-33.3	13.5	9.10e-06	0	43	0	657457152	20	5150
2026-01-08 12:07:26.78	288.03	21.35	-30.0	-32.9	13.7	7.60e-06	0	43	0	659554304	20	5034
2026-01-08 12:07:27.78	288.28	21.31	-30.0	-32.7	13.9	7.60e-06	0	43	0	661651456	20	4950
2026-01-08 12:07:28.79	288.53	21.27	-29.9	-32.5	14.0	0.00e+00	0	43	0	663748608	20	4871
2026-01-08 12:07:29.80	288.79	21.24	-30.0	-32.8	13.8	4.50e-06	0	43	0	664797184	20	4983
2026-01-08 12:07:30.80	289.04	21.20	-29.8	-32.3	14.1	2.20e-06	0	43	0	666894336	20	4792
2026-01-08 12:07:31.81	289.29	21.16	-29.8	-32.3	14.2	7.00e-07	0	43	0	668991488	20	4797
2026-01-08 12:07:32.81	289.54	21.13	-29.9	-32.5	14.0	0.00e+00	0	43	0	671088640	20	4871
2026-01-08 12:07:33.82	289.79	21.09	-29.6	-31.7	14.5	2.20e-06	0	43	0	672137216	20	4619
2026-01-08 12:07:34.82	290.04	21.05	-29.3	-31.0	14.9	0.00e+00	0	43	0	674234368	20	4389
2026-01-08 12:07:35.83	290.29	21.01	-29.1	-31.1	15.3	0.00e+00	0	43	0	676331520	19	4513
2026-01-08 12:07:36.84	290.54	20.97	-29.3	-31.4	15.1	0.00e+00	0	43	0	678428672	19	4615
2026-01-08 12:07:37.84	290.79	20.93	-29.5	-32.0	14.7	0.00e+00	0	43	0	680525824	19	4798
2026-01-08 12:07:38.84	291.03	20.89	-29.6	-32.3	14.5	0.00e+00	0	43	0	681574400	19	4900
2026-01-08 12:07:39.86	291.28	20.85	-29.9	-33.0	14.1	1.50e-06	0	43	0	683671552	19	5153
2026-01-08 12:07:40.86	291.53	20.81	-29.9	-33.1	14.0	3.00e-06	0	43	0	685768704	19	5180
2026-01-08 12:07:41.86	291.77	20.77	-29.8	-32.8	14.2	0.00e+00	0	43	0	687865856	19	5077
2026-01-08 12:07:42.87	292.01	20.72	-29.7	-32.6	14.3	2.20e-06	0	43	0	689963008	19	5027
2026-01-08 12:07:43.88	292.26	20.68	-29.7	-32.6	14.3	1.50e-06	0	43	0	691011584	19	5008
2026-01-08 12:07:44.88	292.50	20.64	-29.7	-32.6	14.3	7.00e-07	0	43	0	693108736	19	5037
2026-01-08 12:07:45.88	292.74	20.60	-29.9	-33.2	14.0	3.00e-06	0	43	0	695205888	19	5224
2026-01-08 12:07:46.89	292.99	20.55	-29.7	-32.6	14.3	7.00e-07	0	43	0	697303040	19	5033
2026-01-08 12:07:47.89	293.23	20.51	-29.6	-32.4	14.5	1.50e-06	0	43	0	699400192	19	4926
2026-01-08 12:07:48.90	293.47	20.46	-29.4	-31.8	14.8	0.00e+00	0	43	0	700448768	19	4751
2026-01-08 12:07:49.90	293.70	20.42	-29.3	-31.6	15.0	0.00e+00	0	43	0	702545920	19	4667
2026-01-08 12:07:50.91	293.94	20.37	-29.4	-31.6	14.9	0.00e+00	0	43	0	704643072	19	4679
2026-01-08 12:07:51.91	294.18	20.32	-29.1	-31.1	15.2	0.00e+00	0	43	0	706740224	19	4512
2026-01-08 12:07:52.92	294.42	20.28	-29.2	-31.4	15.1	0.00e+00	0	43	0	708837376	19	4602
2026-01-08 12:07:53.93	294.66	20.23	-29.0	-30.8	15.4	0.00e+00	0	43	0	709885952	19	4432
2026-01-08 12:07:54.94	294.90	20.18	-28.9	-30.4	15.6	0.00e+00	0	43	0	711983104	19	4313
2026-01-08 12:07:55.94	295.13	20.14	-28.8	-30.4	15.7	0.00e+00	0	43	0	714080256	19	4294
2026-01-08 12:07:56.95	295.37	20.09	-28.9	-30.6	15.5	0.00e+00	0	43	0	716177408	19	4374
2026-01-08 12:07:57.96	295.60	20.04	-28.9	-30.6	15.5	0.00e+00	0	43	0	718274560	19	4366
2026-01-08 12:07:58.97	295.83	19.99	-29.0	-30.8	15.4	0.00e+00	0	43	0	719323136	19	4429
2026-01-08 12:07:59.97	296.07	19.94	-29.2	-31.3	15.1	0.00e+00	0	43	0	721420288	19	4576
2026-01-08 12:08:00.98	296.30	19.89	-29.1	-31.1	15.2	0.00e+00	0	43	0	723517440	19	4512
2026-01-08 12:08:01.98	296.53	19.84	-29.2	-31.2	15.1	0.00e+00	0	43	0	725614592	19	4560
2026-01-08 12:08:02.99	296.76	19.79	-29.4	-31.8	14.8	0.00e+00	0	43	0	727711744	19	4733
2026-01-08 12:08:04.00	296.99	19.74	-29.5	-32.0	14.7	0.00e+00	0	43	0	728760320	19	4793
2026-01-08 12:08:05.00	297.22	19.69	-29.7	-32.5	14.4	0.00e+00	0	43	0	730857472	19	4971
2026-01-08 12:08:06.01	297.45	19.64	-29.7	-32.4	14.4	7.00e-07	0	43	0	732954624	19	4958
2026-01-08 12:08:07.01	297.67	19.59	-29.7	-32.5	14.4	0.00e+00	0	43	0	735051776	19	4974
2026-01-08 12:08:08.02	297.90	19.53	-29.6	-32.4	14.4	0.00e+00	0	43	0	737148928	19	4966
2026-01-08 12:08:09.02	298.13	19.48	-29.8	-32.8	14.1	0.00e+00	0	43	0	738197504	19	5107
2026-01-08 12:08:10.03	298.35	19.43	-29.6	-32.2	14.5	3.80e-06	0	43	0	740294656	19	4884
2026-01-08 12:08:11.03	298.57	19.38	-29.4	-31.8	14.7	0.00e+00	0	43	0	742391808	19	4758
2026-01-08 12:08:12.03	298.80	19.32	-29.4	-31.8	14.8	0.00e+00	0	43	0	744488960	19	4735
2026-01-08 12:08:13.03	299.02	19.27	-29.4	-31.7	14.8	0.00e+00	0	43	0	746586112	19	4706
2026-01-08 12:08:14.04	299.24	19.22	-29.4	-31.9	14.7	7.00e-07	0	43	0	747634688	19	4774
2026-01-08 12:08:15.05	299.46	19.16	-29.3	-31.6	14.9	0.00e+00	0	43	0	749731840	19	4666
2026-01-08 12:08:16.05	299.68	19.11	-29.3	-31.5	15.0	0.00e+00	0	43	0	751828992	19	4651
2026-01-08 12:08:17.05	299.90	19.05	-29.5	-32.0	14.7	0.00e+00	0	43	0	753926144	19	4804
2026-01-08 12:08:18.06	300.12	19.00	-29.5	-32.2	14.5	7.00e-07	0	43	0	756023296	19	4893
2026-01-08 12:08:19.06	300.34	18.94	-29.8	-32.9	14.1	1.50e-06	0	43	0	757071872	19	5143
2026-01-08 12:08:20.06	300.55	18.89	-30.0	-32.8	13.7	7.00e-07	0	43	0	759169024	20	4998
2026-01-08 12:08:21.07	300.77	18.83	-30.1	-33.3	13.5	1.22e-05	0	43	0	761266176	20	5157
2026-01-08 12:08:22.08	300.99	18.78	-30.2	-33.6	13.3	1.22e-05	0	43	0	763363328	20	5274
2026-01-08 12:08:23.09	301.20	18.72	-30.2	-33.5	13.3	2.05e-05	0	43	0	765460480	20	5268
2026-01-08 12:08:24.10	301.42	18.66	-30.3	-33.7	13.2	2.05e-05	0	43	0	766509056	20	5310
2026-01-08 12:08:25.10	301.63	18.61	-30.4	-34.0	12.9	4.19e-05	0	43	0	768606208	20	5449
2026-01-08 12:08:26.11	301.84	18.55	-30.4	-33.9	13.0	4.04e-05	0	43	0	770703360	20	5404
2026-01-08 12:08:27.12	302.06	18.49	-30.5	-33.7	12.8	4.95e-05	0	43	0	772800512	21	5220
2026-01-08 12:08:28.13	302.27	18.43	-30.4	-33.5	13.0	4.50e-05	0	43	0	774897664	21	5120
2026-01-08 12:08:29.13	302.48	18.37	-30.4	-33.4	13.0	4.34e-05	0	43	0	775946240	21	5093
2026-01-08 12:08:30.14	302.69	18.32	-30.3	-33.2	13.1	2.28e-05	0	43	0	778043392	21	5044
2026-01-08 12:08:31.14	302.90	18.26	-30.3	-33.2	13.2	3.35e-05	0	43	0	780140544	21	5015
2026-01-08 12:08:32.15	303.10	18.20	-30.3	-33.1	13.2	1.83e-05	0	43	0	782237696	21	4995
2026-01-08 12:08:33.16	303.31	18.14	-30.4	-33.4	13.0	2.67e-05	0	43	0	784334848	21	5098
2026-01-08 12:08:34.16	303.52	18.08	-30.4	-33.4	13.0	3.73e-05	0	43	0	785383424	21	5111
2026-01-08 12:08:35.17	303.72	18.02	-30.3	-33.2	13.1	3.66e-05	0	43	0	787480576	21	5021
2026-01-08 12:08:36.17	303.93	17.96	-30.2	-33.0	13.2	2.36e-05	0	43	0	789577728	21	4951
2026-01-08 12:08:37.18	304.13	17.90	-30.0	-32.8	13.2	2.51e-05	0	43	0	791674880	21	4970
2026-01-08 12:08:38.18	304.34	17.84	-30.2	-33.2	13.1	2.67e-05	0	43	0	793772032	21	5040
2026-01-08 12:08:39.19	304.54	17.78	-30.3	-33.4	12.9	5.11e-05	0	43	0	794820608	21	5117
2026-01-08 12:08:40.20	304.74	17.72	-30.3	-33.2	13.0	3.66e-05	0	43	0	796917760	21	5073
2026-01-08 12:08:41.20	304.94	17.66	-30.3	-33.3	13.0	3.73e-05	0	43	0	799014912	21	5090
2026-01-08 12:08:42.20	305.14	17.60	-30.4	-33.6	12.8	4.04e-05	0	43	0	801112064	21	5193
2026-01-08 12:08:43.21	305.34	17.54	-30.4	-33.6	12.9	4.88e-05	0	43	0	803209216	21	5180
2026-01-08 12:08:44.22	305.54	17.48	-30.4	-33.7	12.8	6.86e-05	0	43	0	804257792	21	5212
2026-01-08 12:08:45.23	305.74	17.42	-30.5	-33.7	12.8	6.86e-05	0	43	0	806354944	21	5230
2026-01-08 12:08:46.23	305.93	17.36	-30.5	-33.9	12.6	8.08e-05	0	43	0	808452096	21	5321
2026-01-08 12:08:47.24	306.13	17.30	-30.6	-34.1	12.5	1.43e-04	0	43	0	810549248	21	5370
2026-01-08 12:08:48.25	306.33	17.23	-30.3	-33.3	13.0	7.70e-05	0	43	0	812646400	21	5064
2026-01-08 12:08:49.25	306.52	17.17	-30.1	-32.7	13.5	1.75e-05	0	43	0	813694976	21	4833
2026-01-08 12:08:50.26	306.71	17.11	-30.0	-32.3	13.7	9.90e-06	0	43	0	815792128	21	4728
2026-01-08 12:08:51.27	306.91	17.05	-29.9	-32.1	13.8	1.50e-06	0	43	0	817889280	21	4645
2026-01-08 12:08:52.27	307.10	16.99	-30.0	-32.3	13.7	5.30e-06	0	43	0	819986432	21	4705
2026-01-08 12:08:53.28	307.29	16.92	-30.0	-32.4	13.6	8.30e-06	0	43	0	822083584	21	4762
2026-01-08 12:08:54.29	307.48	16.86	-29.9	-32.3	13.7	7.60e-06	0	43	0	823132160	21	4712
2026-01-08 12:08:55.29	307.67	16.80	-30.0	-32.4	13.6	6.80e-06	0	43	0	825229312	21	4744
2026-01-08 12:08:56.30	307.86	16.74	-30.0	-32.4	13.6	5.30e-06	0	43	0	827326464	21	4757
2026-01-08 12:08:57.31	308.05	16.67	-30.1	-32.7	13.4	9.10e-06	0	43	0	829423616	21	4854
2026-01-08 12:08:58.31	308.24	16.61	-29.9	-32.2	13.7	1.22e-05	0	43	0	831520768	21	4688
2026-01-08 12:08:59.31	308.42	16.55	-30.0	-32.3	13.7	4.50e-06	0	43	0	832569344	21	4726
2026-01-08 12:09:00.32	308.61	16.48	-30.1	-32.6	13.5	1.90e-05	0	43	0	834666496	21	4831
2026-01-08 12:09:01.32	308.79	16.42	-30.0	-32.5	13.5	9.90e-06	0	43	0	836763648	21	4800
2026-01-08 12:09:02.33	308.98	16.36	-30.1	-32.8	13.3	1.22e-05	0	43	0	838860800	21	4904
2026-01-08 12:09:03.34	309.16	16.29	-30.3	-33.2	13.0	3.73e-05	0	43	0	840957952	21	5061
2026-01-08 12:09:04.34	309.35	16.23	-30.4	-33.6	12.8	3.58e-05	0	43	0	842006528	21	5181
2026-01-08 12:09:05.35	309.53	16.17	-30.5	-33.9	12.6	7.24e-05	0	43	0	844103680	21	5314
2026-01-08 12:09:06.35	309.71	16.10	-30.5	-33.8	12.6	1.02e-04	0	43	0	846200832	21	5282
2026-01-08 12:09:07.36	309.89	16.04	-30.4	-33.6	12.8	6.63e-05	0	43	0	848297984	21	5203
2026-01-08 12:09:08.36	310.07	15.97	-30.3	-33.4	12.9	5.18e-05	0	43	0	850395136	21	5107
2026-01-08 12:09:09.37	310.25	15.91	-30.3	-33.4	12.9	3.96e-05	0	43	0	851443712	21	5108
2026-01-08 12:09:10.37	310.43	15.85	-30.3	-33.4	12.9	4.50e-05	0	43	0	853540864	21	5128
2026-01-08 12:09:11.37	310.60	15.78	-30.4	-33.6	12.7	8.69e-05	0	43	0	855638016	21	5202
2026-01-08 12:09:12.38	310.78	15.72	-30.3	-33.2	13.0	4.65e-05	0	43	0	857735168	21	5046
2026-01-08 12:09:13.38	310.96	15.65	-30.1	-32.8	13.2	2.36e-05	0	43	0	858783744	21	4912
2026-01-08 12:09:14.39	311.13	15.59	-30.1	-32.8	13.3	2.21e-05	0	43	0	860880896	21	4895
2026-01-08 12:09:15.39	311.31	15.52	-30.2	-32.9	13.2	2.59e-05	0	43	0	862978048	21	4926
2026-01-08 12:09:16.40	311.48	15.46	-30.1	-32.9	13.2	1.98e-05	0	43	0	865075200	21	4934
2026-01-08 12:09:17.41	311.66	15.39	-30.2	-32.9	13.2	2.51e-05	0	43	0	867172352	21	4933
2026-01-08 12:09:18.41	311.83	15.33	-30.1	-32.6	13.4	1.75e-05	0	43	0	868220928	21	4834
2026-01-08 12:09:19.41	312.00	15.26	-30.0	-32.5	13.5	1.14e-05	0	43	0	870318080	21	4781
2026-01-08 12:09:20.41	312.17	15.20	-30.0	-32.4	13.5	1.29e-05	0	43	0	872415232	21	4754
2026-01-08 12:09:21.42	312.34	15.13	-29.9	-32.1	13.7	6.10e-06	0	43	0	874512384	21	4675
2026-01-08 12:09:22.43	312.51	15.07	-30.0	-32.5	13.4	1.37e-05	0	43	0	876609536	21	4809
2026-01-08 12:09:23.44	312.68	15.00	-30.1	-32.8	13.2	1.83e-05	0	43	0	878706688	21	4908
2026-01-08 12:09:24.44	312.85	14.94	-30.2	-33.2	13.0	2.74e-05	0	43	0	879755264	21	5038
2026-01-08 12:09:25.44	313.01	14.87	-30.3	-33.3	12.9	4.50e-05	0	43	0	881852416	21	5084
2026-01-08 12:09:26.45	313.18	14.81	-30.3	-33.3	12.9	5.26e-05	0	43	0	883949568	21	5100
2026-01-08 12:09:27.46	313.35	14.74	-30.2	-33.2	12.9	3.73e-05	0	43	0	886046720	21	5052
2026-01-08 12:09:28.46	313.51	14.68	-30.2	-33.1	13.0	3.58e-05	0	43	0	887095296	21	5023
2026-01-08 12:09:29.47	313.68	14.61	-30.3	-33.3	12.8	3.81e-05	0	43	0	889192448	21	5097
2026-01-08 12:09:30.48	313.84	14.54	-30.4	-33.5	12.7	1.06e-04	0	44	0	891289600	21	5186
2026-01-08 12:09:31.49	314.01	14.48	-30.3	-33.4	12.7	6.71e-05	0	43	0	893386752	21	5145
2026-01-08 12:09:32.49	314.17	14.41	-30.4	-33.7	12.5	1.03e-04	0	43	0	895483904	21	5261
2026-01-08 12:09:33.50	314.33	14.35	-30.5	-33.9	12.4	1.57e-04	0	43	0	896532480	21	5347
2026-01-08 12:09:34.50	314.49	14.28	-30.6	-34.3	12.1	1.86e-04	0	43	0	898629632	21	5517
2026-01-08 12:09:35.51	314.65	14.22	-30.7	-34.6	11.9	3.67e-04	0	43	0	900726784	21	5653
2026-01-08 12:09:36.51	314.81	14.15	-30.9	-35.2	11.5	5.20e-04	0	43	0	902823936	21	5883
2026-01-08 12:09:37.52	314.97	14.09	-30.9	-34.8	11.4	1.23e-03	0	43	0	904921088	22	5601
2026-01-08 12:09:38.53	315.13	14.02	-30.6	-33.7	12.2	4.65e-04	0	43	0	905969664	22	5167
2026-01-08 12:09:39.54	315.29	13.95	-30.3	-32.9	12.7	1.12e-04	0	43	0	908066816	22	4855
2026-01-08 12:09:40.54	315.45	13.89	-30.0	-32.6	13.2	4.42e-05	0	43	0	910163968	21	4853
2026-01-08 12:09:41.55	315.60	13.82	-29.9	-32.3	13.5	1.06e-05	0	43	0	912261120	21	4729
2026-01-08 12:09:42.56	315.76	13.76	-29.8	-32.0	13.6	9.10e-06	0	43	0	914358272	21	4650
2026-01-08 12:09:43.56	315.91	13.69	-29.8	-32.1	13.6	1.14e-05	0	43	0	915406848	21	4661
2026-01-08 12:09:44.57	316.07	13.62	-29.9	-32.2	13.5	6.80e-06	0	43	0	917504000	21	4693
2026-01-08 12:09:45.57	316.22	13.56	-30.0	-32.6	13.3	6.80e-06	0	43	0	919601152	21	4829
2026-01-08 12:09:46.57	316.37	13.49	-30.1	-32.8	13.1	2.59e-05	0	43	0	921698304	21	4929
2026-01-08 12:09:47.58	316.53	13.43	-30.3	-33.4	12.7	3.73e-05	0	43	0	923795456	21	5156
2026-01-08 12:09:48.59	316.68	13.36	-30.4	-33.6	12.6	1.07e-04	0	43	0	924844032	21	5243
2026-01-08 12:09:49.58	316.83	13.30	-30.4	-33.7	12.5	1.24e-04	0	43	0	926941184	21	5280
2026-01-08 12:09:50.58	316.98	13.23	-30.4	-33.6	12.5	1.43e-04	0	43	0	929038336	21	5238
2026-01-08 12:09:51.59	317.13	13.16	-30.3	-33.5	12.6	9.53e-05	0	43	0	931135488	21	5171
2026-01-08 12:09:52.60	317.28	13.10	-30.3	-33.5	12.6	9.68e-05	0	43	0	933232640	21	5203
2026-01-08 12:09:53.61	317.43	13.03	-30.4	-33.8	12.3	1.23e-04	0	43	0	934281216	21	5308
2026-01-08 12:09:54.61	317.57	12.97	-30.4	-33.6	12.5	1.62e-04	0	43	0	936378368	21	5215
2026-01-08 12:09:55.62	317.72	12.90	-30.2	-33.3	12.7	9.99e-05	0	43	0	938475520	21	5100
2026-01-08 12:09:56.62	317.87	12.84	-30.2	-33.0	12.9	5.64e-05	0	43	0	940572672	21	5013
2026-01-08 12:09:57.63	318.01	12.77	-30.3	-33.3	12.7	5.49e-05	0	43	0	942669824	21	5119
2026-01-08 12:09:58.63	318.16	12.70	-30.4	-33.7	12.4	9.07e-05	0	43	0	943718400	21	5272
2026-01-08 12:09:59.63	318.30	12.64	-30.5	-33.9	12.3	1.79e-04	0	43	0	945815552	21	5353
2026-01-08 12:10:00.63	318.45	12.57	-30.5	-34.0	12.2	1.91e-04	0	43	0	947912704	21	5403
2026-01-08 12:10:01.64	318.59	12.51	-30.4	-33.8	12.3	2.59e-04	0	43	0	950009856	21	5306
2026-01-08 12:10:02.64	318.73	12.44	-30.4	-33.7	12.4	1.46e-04	0	43	0	952107008	21	5267
2026-01-08 12:10:03.64	318.87	12.38	-30.3	-33.5	12.5	1.23e-04	0	43	0	953155584	21	5192
2026-01-08 12:10:04.65	319.02	12.31	-30.3	-33.4	12.6	7.01e-05	0	43	0	955252736	21	5139
2026-01-08 12:10:05.66	319.16	12.24	-30.4	-33.7	12.4	1.15e-04	0	43	0	957349888	21	5263
2026-01-08 12:10:06.67	319.30	12.18	-30.3	-33.4	12.6	1.24e-04	0	43	0	959447040	21	5142
2026-01-08 12:10:07.67	319.44	12.11	-30.2	-33.0	12.8	6.25e-05	0	43	0	961544192	21	5018
2026-01-08 12:10:08.68	319.58	12.05	-30.1	-32.8	13.0	6.63e-05	0	43	0	962592768	21	4948
2026-01-08 12:10:09.69	319.72	11.98	-30.2	-33.1	12.8	5.64e-05	0	43	0	964689920	21	5057
2026-01-08 12:10:10.69	319.85	11.92	-30.3	-33.6	12.4	1.34e-04	0	43	0	966787072	21	5244
2026-01-08 12:10:11.69	319.99	11.85	-30.5	-34.0	12.1	1.48e-04	0	43	0	968884224	21	5414
2026-01-08 12:10:12.69	320.13	11.79	-30.6	-34.4	11.9	3.25e-04	0	43	0	970981376	21	5577
2026-01-08 12:10:13.70	320.26	11.72	-30.7	-34.6	11.8	4.17e-04	0	43	0	972029952	21	5641
2026-01-08 12:10:14.70	320.40	11.66	-30.7	-34.7	11.6	5.48e-04	0	43	0	974127104	21	5696
2026-01-08 12:10:15.71	320.53	11.59	-30.7	-34.8	11.6	7.18e-04	0	43	0	976224256	21	5730
2026-01-08 12:10:16.72	320.67	11.52	-30.7	-34.7	11.6	6.16e-04	0	43	0	978321408	21	5709
2026-01-08 12:10:17.72	320.80	11.46	-30.7	-34.7	11.6	5.97e-04	0	43	0	980418560	21	5716
2026-01-08 12:10:18.73	320.94	11.39	-30.8	-35.0	11.4	7.74e-04	0	43	0	981467136	21	5844
2026-01-08 12:10:19.74	321.07	11.33	-30.7	-34.6	11.7	7.20e-04	0	43	0	983564288	21	5654
2026-01-08 12:10:20.74	321.20	11.26	-30.5	-34.2	12.0	4.13e-04	0	43	0	985661440	21	5471
2026-01-08 12:10:21.76	321.33	11.20	-30.5	-34.1	12.1	3.36e-04	0	43	0	987758592	21	5432
2026-01-08 12:10:22.75	321.46	11.13	-30.5	-34.1	12.0	3.04e-04	0	43	0	989855744	21	5443
2026-01-08 12:10:23.76	321.59	11.07	-30.5	-34.2	12.0	3.33e-04	0	43	0	990904320	21	5498
2026-01-08 12:10:24.76	321.72	11.00	-30.6	-34.3	11.9	3.76e-04	0	43	0	993001472	21	5532
2026-01-08 12:10:25.76	321.85	10.94	-30.5	-34.1	12.0	3.83e-04	0	43	0	995098624	21	5469
2026-01-08 12:10:26.77	321.98	10.87	-30.6	-34.5	11.7	5.00e-04	0	43	0	997195776	21	5620
2026-01-08 12:10:27.77	322.11	10.81	-30.6	-34.4	11.8	5.39e-04	0	43	0	998244352	21	5574
2026-01-08 12:10:28.78	322.24	10.74	-30.6	-34.3	11.9	4.85e-04	0	43	0	1000341504	21	5537
2026-01-08 12:10:29.78	322.36	10.68	-30.7	-34.9	11.5	7.25e-04	0	43	0	1002438656	21	5792
2026-01-08 12:10:30.79	322.49	10.61	-30.5	-34.3	11.9	6.19e-04	0	43	0	1004535808	21	5538
2026-01-08 12:10:31.80	322.62	10.55	-30.6	-34.4	11.8	4.79e-04	0	43	0	1006632960	21	5572
2026-01-08 12:10:32.80	322.74	10.49	-30.5	-34.3	11.9	4.17e-04	0	43	0	1008730112	21	5526
2026-01-08 12:10:33.80	322.87	10.42	-30.6	-34.5	11.7	5.35e-04	0	43	0	1009778688	21	5627
2026-01-08 12:10:34.81	322.99	10.36	-30.6	-34.6	11.6	5.61e-04	0	43	0	1011875840	21	5664
2026-01-08 12:10:35.81	323.12	10.29	-30.7	-34.7	11.5	6.13e-04	0	43	0	1013972992	21	5736
2026-01-08 12:10:36.81	323.24	10.23	-30.7	-34.9	11.4	9.40e-04	0	43	0	1016070144	21	5794
2026-01-08 12:10:37.81	323.36	10.16	-30.9	-35.4	11.0	1.20e-03	0	43	0	1017118720	21	6051
2026-01-08 12:10:38.82	323.48	10.10	-30.9	-35.4	11.0	2.18e-03	0	43	0	1019215872	21	6066
2026-01-08 12:10:39.82	323.60	10.04	-30.8	-35.3	11.1	1.55e-03	0	43	0	1021313024	21	5994
2026-01-08 12:10:40.82	323.73	9.97	-30.9	-35.6	10.9	1.84e-03	0	43	0	1023410176	21	6131
2026-01-08 12:10:41.83	323.85	9.91	-30.9	-35.6	10.9	2.10e-03	0	43	0	1025507328	21	6135
2026-01-08 12:10:42.83	323.97	9.84	-31.0	-35.6	10.8	2.41e-03	0	43	0	1026555904	21	6157
2026-01-08 12:10:43.84	324.09	9.78	-31.1	-35.5	10.6	3.03e-03	0	43	0	1028653056	22	6007
2026-01-08 12:10:44.85	324.21	9.72	-31.0	-35.4	10.7	3.65e-03	0	43	0	1030750208	22	5928
2026-01-08 12:10:45.86	324.33	9.65	-31.0	-35.4	10.6	3.28e-03	0	43	0	1032847360	22	5963
2026-01-08 12:10:46.86	324.44	9.59	-31.0	-35.1	10.8	2.94e-03	0	43	0	1034944512	22	5826
2026-01-08 12:10:47.87	324.56	9.52	-30.9	-34.8	11.1	1.81e-03	0	43	0	1035993088	22	5655
2026-01-08 12:10:48.87	324.68	9.46	-30.8	-34.6	11.3	1.37e-03	0	43	0	1038090240	22	5564
2026-01-08 12:10:49.88	324.80	9.40	-30.8	-34.6	11.2	1.36e-03	0	43	0	1040187392	22	5573
2026-01-08 12:10:50.88	324.91	9.33	-30.7	-34.3	11.4	1.18e-03	0	43	0	1042284544	22	5457
2026-01-08 12:10:51.89	325.03	9.27	-30.8	-34.8	11.1	1.32e-03	0	43	0	1044381696	22	5652
2026-01-08 12:10:52.90	325.14	9.21	-30.8	-34.5	11.3	1.38e-03	0	43	0	1045430272	22	5515
2026-01-08 12:10:53.90	325.26	9.14	-30.7	-34.3	11.4	1.11e-03	0	43	0	1047527424	22	5467
2026-01-08 12:10:54.90	325.37	9.08	-30.7	-34.2	11.5	8.08e-04	0	43	0	1049624576	22	5400
2026-01-08 12:10:55.90	325.49	9.02	-30.7	-34.2	11.5	7.57e-04	0	43	0	1051721728	22	5399
2026-01-08 12:10:56.91	325.60	8.95	-30.8	-34.8	11.1	1.60e-03	0	43	0	1053818880	22	5655
2026-01-08 12:10:57.91	325.71	8.89	-30.8	-34.6	11.2	1.78e-03	0	43	0	1054867456	22	5574
2026-01-08 12:10:58.92	325.83	8.83	-30.7	-34.4	11.3	1.15e-03	0	43	0	1056964608	22	5502
2026-01-08 12:10:59.92	325.94	8.77	-30.8	-34.7	11.1	1.62e-03	0	43	0	1059061760	22	5625
2026-01-08 12:11:00.92	326.05	8.70	-30.6	-34.2	11.4	1.37e-03	0	43	0	1061158912	22	5401
2026-01-08 12:11:01.93	326.16	8.64	-30.7	-34.3	11.3	1.19e-03	0	43	0	1063256064	22	5451
2026-01-08 12:11:02.94	326.27	8.58	-30.8	-34.6	11.1	1.44e-03	0	43	0	1064304640	22	5591
2026-01-08 12:11:03.95	326.38	8.51	-30.7	-34.4	11.3	1.28e-03	0	43	0	1066401792	22	5500
2026-01-08 12:11:04.95	326.49	8.45	-30.7	-34.4	11.2	1.50e-03	0	43	0	1068498944	22	5500
2026-01-08 12:11:05.96	326.60	8.39	-30.8	-34.8	10.9	1.64e-03	0	43	0	1070596096	22	5712
2026-01-08 12:11:06.96	326.71	8.33	-30.8	-34.9	10.9	2.17e-03	0	43	0	1072693248	22	5725
2026-01-08 12:11:07.96	326.82	8.26	-31.0	-35.4	10.5	2.98e-03	0	43	0	1073741824	22	5984
2026-01-08 12:11:08.97	326.93	8.20	-31.0	-35.3	10.6	4.40e-03	0	43	0	1075838976	22	5926
2026-01-08 12:11:09.97	327.03	8.14	-31.1	-35.8	10.1	5.97e-03	0	43	0	1077936128	22	6199
2026-01-08 12:11:10.97	327.14	8.08	-31.0	-35.6	10.4	5.93e-03	0	43	0	1080033280	22	6071
2026-01-08 12:11:11.98	327.25	8.02	-31.1	-35.8	10.1	5.66e-03	0	43	0	1082130432	22	6202
2026-01-08 12:11:12.99	327.35	7.95	-31.1	-35.9	10.0	6.17e-03	0	43	0	1083179008	22	6231
2026-01-08 12:11:14.00	327.46	7.89	-31.0	-35.5	10.3	5.83e-03	0	43	0	1085276160	22	6037
2026-01-08 12:11:15.00	327.57	7.83	-31.1	-35.7	10.2	6.02e-03	0	43	0	1087373312	22	6147
2026-01-08 12:11:16.00	327.67	7.77	-31.1	-36.0	9.9	7.19e-03	0	43	0	1089470464	22	6328
2026-01-08 12:11:17.01	327.77	7.71	-30.9	-35.3	10.5	5.11e-03	0	43	0	1091567616	22	5948
2026-01-08 12:11:18.00	327.88	7.65	-31.0	-35.4	10.3	4.72e-03	0	43	0	1092616192	22	6011
2026-01-08 12:11:19.01	327.98	7.58	-31.0	-35.4	10.3	4.77e-03	0	43	0	1094713344	22	6017
2026-01-08 12:11:20.02	328.09	7.52	-30.8	-35.0	10.6	3.75e-03	0	43	0	1096810496	22	5799
2026-01-08 12:11:21.02	328.19	7.46	-30.9	-35.3	10.4	3.96e-03	0	43	0	1098907648	22	5967
2026-01-08 12:11:22.03	328.29	7.40	-30.9	-35.3	10.4	4.80e-03	0	43	0	1101004800	22	5950
2026-01-08 12:11:23.04	328.39	7.34	-31.0	-35.5	10.3	4.93e-03	0	43	0	1102053376	22	6068
2026-01-08 12:11:24.04	328.49	7.28	-31.2	-36.2	9.7	9.53e-03	0	43	0	1104150528	22	6418
2026-01-08 12:11:25.05	328.60	7.22	-31.1	-36.1	9.7	1.04e-02	0	43	0	1106247680	22	6372
2026-01-08 12:11:26.06	328.70	7.15	-31.3	-36.7	9.3	9.10e-03	0	43	0	1108344832	22	6733
2026-01-08 12:11:27.06	328.80	7.09	-31.3	-36.7	9.2	2.08e-02	0	43	0	1110441984	22	6685
2026-01-08 12:11:28.07	328.90	7.03	-33.2	-47.2	3.8	1.36e+00	0	43	104	1110441984	26	18160
2026-01-08 12:11:29.08	329.00	6.97	-33.5	-48.0	3.8	1.49e+00	0	43	104	1110441984	26	19193
2026-01-08 12:11:30.08	329.10	6.91	-33.7	-47.9	3.8	1.49e+00	0	43	104	1110441984	27	18578

#Closed at: 2026-01-08 12:11:31
#Recorded file [1110 MB]: D:/data/31010_260108_150134.dat