passes_logs/2026/01/08/R2M6_AANII_01/R2M6_AANII_01__20260108_142203_FENGYUN_3D_rec.log

#Pass ID: 20260108_142203_FENGYUN 3D
#Satellite: FENGYUN 3D
#Configuration: FENGYUN 3D
#almurnet v.1.7.20240730
#Start time: 2026-01-08 14:22:05

#Version: 2.2.20231116
#Station: R2M6_AANII_01
#Location: 30.233357 lon 59.946436 lat
#TLE: 1 43010U 17072A   26007.88538054  .00000150  00000+0  92867-4 0  9992
#TLE: 2 43010  98.9932 339.5913 0002105 121.8756 238.2625 14.19694026422245

#Time	Az	El	Level	Level2	SNR	BER	BlckErr	Temp	State	Recorded	gain1	gain2
2026-01-08 14:22:05.57	228.42	7.09	-28.4	-30.8	5.6	7.53e-01	0	40	0	0	17	4746
2026-01-08 14:22:06.56	228.54	7.14	-29.1	-31.9	5.5	7.61e-01	0	40	104	0	18	5018
2026-01-08 14:22:07.57	228.66	7.20	-29.0	-31.8	10.5	5.43e-03	0	40	0	0	18	4970
2026-01-08 14:22:08.58	228.78	7.25	-28.6	-30.8	11.2	2.68e-03	0	40	0	5242880	18	4625
2026-01-08 14:22:09.58	228.90	7.30	-28.3	-30.1	11.7	1.37e-03	0	41	0	11534336	18	4389
2026-01-08 14:22:10.59	229.02	7.36	-28.0	-29.8	12.1	4.73e-04	0	41	0	16777216	17	4420
2026-01-08 14:22:11.60	229.14	7.41	-27.9	-29.4	12.4	3.28e-04	0	41	0	22020096	17	4283
2026-01-08 14:22:12.60	229.26	7.47	-27.7	-29.4	12.7	1.18e-04	0	41	0	28311552	16	4387
2026-01-08 14:22:13.60	229.38	7.52	-27.7	-29.4	12.7	1.06e-04	0	41	0	33554432	16	4393
2026-01-08 14:22:14.61	229.50	7.58	-27.4	-28.8	13.1	7.55e-05	0	41	0	38797312	16	4224
2026-01-08 14:22:15.62	229.63	7.63	-26.9	-28.0	13.7	2.28e-05	0	41	0	45088768	15	4120
2026-01-08 14:22:16.62	229.75	7.69	-26.6	-27.9	14.1	6.80e-06	0	41	0	50331648	14	4178
2026-01-08 14:22:17.62	229.87	7.74	-26.7	-28.2	13.9	3.40e-06	0	41	0	56623104	14	4271
2026-01-08 14:22:18.62	229.99	7.79	-26.6	-28.0	14.0	1.02e-05	0	41	0	61865984	14	4204
2026-01-08 14:22:19.63	230.12	7.85	-26.5	-27.7	14.2	1.10e-06	0	41	0	67108864	14	4126
2026-01-08 14:22:20.63	230.24	7.90	-26.4	-27.5	14.3	3.40e-06	0	41	0	73400320	14	4073
2026-01-08 14:22:21.64	230.37	7.96	-26.4	-27.5	14.4	1.10e-06	0	41	0	78643200	14	4078
2026-01-08 14:22:22.65	230.49	8.01	-26.5	-27.7	14.2	2.20e-06	0	41	0	84934656	14	4146
2026-01-08 14:22:23.65	230.62	8.07	-26.5	-27.6	14.3	1.10e-06	0	41	0	90177536	14	4116
2026-01-08 14:22:24.65	230.74	8.12	-26.5	-27.8	14.2	3.40e-06	0	41	0	95420416	14	4162
2026-01-08 14:22:25.66	230.87	8.17	-26.5	-27.7	14.2	2.20e-06	0	41	0	101711872	14	4146
2026-01-08 14:22:26.67	231.00	8.23	-26.7	-28.0	14.0	5.70e-06	0	41	0	106954752	14	4223
2026-01-08 14:22:27.68	231.13	8.28	-26.6	-27.8	14.2	4.50e-06	0	41	0	113246208	14	4157
2026-01-08 14:22:28.69	231.25	8.34	-26.4	-27.4	14.4	3.40e-06	0	41	0	118489088	14	4052
2026-01-08 14:22:29.70	231.38	8.39	-26.3	-27.3	14.5	1.10e-06	0	41	0	123731968	14	4015
2026-01-08 14:22:30.71	231.51	8.45	-26.4	-27.5	14.4	2.20e-06	0	41	0	130023424	14	4062
2026-01-08 14:22:31.71	231.64	8.50	-26.3	-27.3	14.5	1.10e-06	0	41	0	135266304	14	4029
2026-01-08 14:22:32.72	231.77	8.56	-26.4	-27.4	14.5	0.00e+00	0	41	0	141557760	14	4058
2026-01-08 14:22:33.72	231.90	8.61	-26.3	-27.2	14.6	3.40e-06	0	41	0	146800640	14	4006
2026-01-08 14:22:34.73	232.03	8.67	-26.4	-27.4	14.5	1.10e-06	0	41	0	152043520	14	4035
2026-01-08 14:22:35.74	232.16	8.72	-26.3	-27.3	14.6	1.10e-06	0	41	0	158334976	14	4008
2026-01-08 14:22:36.74	232.30	8.77	-26.2	-27.6	14.7	0.00e+00	0	41	0	163577856	13	4192
2026-01-08 14:22:37.75	232.43	8.83	-26.2	-27.5	14.7	0.00e+00	0	41	0	169869312	13	4174
2026-01-08 14:22:38.75	232.56	8.88	-26.2	-27.5	14.7	2.20e-06	0	41	0	175112192	13	4177
2026-01-08 14:22:39.76	232.69	8.94	-26.3	-27.7	14.6	2.20e-06	0	41	0	180355072	13	4224
2026-01-08 14:22:40.77	232.83	8.99	-26.2	-27.5	14.7	1.10e-06	0	41	0	186646528	13	4183
2026-01-08 14:22:41.77	232.96	9.05	-26.2	-27.4	14.8	1.10e-06	0	41	0	191889408	13	4135
2026-01-08 14:22:42.78	233.10	9.10	-26.1	-27.3	14.9	0.00e+00	0	41	0	198180864	13	4120
2026-01-08 14:22:43.79	233.23	9.16	-26.3	-27.7	14.7	1.10e-06	0	41	0	203423744	13	4217
2026-01-08 14:22:44.79	233.37	9.21	-26.2	-27.5	14.8	0.00e+00	0	41	0	208666624	13	4174
2026-01-08 14:22:45.80	233.50	9.26	-26.2	-27.5	14.8	0.00e+00	0	42	0	214958080	13	4177
2026-01-08 14:22:46.80	233.64	9.32	-26.2	-27.4	14.8	0.00e+00	0	41	0	220200960	13	4142
2026-01-08 14:22:47.81	233.78	9.37	-26.2	-27.4	14.8	2.20e-06	0	42	0	225443840	13	4148
2026-01-08 14:22:48.82	233.92	9.43	-26.2	-27.5	14.8	0.00e+00	0	41	0	231735296	13	4181
2026-01-08 14:22:49.82	234.05	9.48	-26.0	-27.1	15.0	1.10e-06	0	41	0	236978176	13	4072
2026-01-08 14:22:50.83	234.19	9.53	-25.9	-26.8	15.2	2.20e-06	0	42	0	243269632	13	3987
2026-01-08 14:22:51.84	234.33	9.59	-25.9	-26.8	15.2	0.00e+00	0	42	0	248512512	13	3995
2026-01-08 14:22:52.84	234.47	9.64	-25.8	-26.6	15.3	0.00e+00	0	42	0	254803968	13	3943
2026-01-08 14:22:53.85	234.61	9.70	-25.7	-26.8	15.5	0.00e+00	0	42	0	260046848	12	4090
2026-01-08 14:22:54.86	234.75	9.75	-25.7	-26.8	15.5	0.00e+00	0	42	0	265289728	12	4086
2026-01-08 14:22:55.86	234.89	9.80	-25.6	-26.7	15.5	0.00e+00	0	42	0	271581184	12	4066
2026-01-08 14:22:56.87	235.03	9.86	-25.6	-26.6	15.6	0.00e+00	0	42	0	276824064	12	4029
2026-01-08 14:22:57.87	235.18	9.91	-25.7	-26.9	15.4	0.00e+00	0	42	0	283115520	12	4125
2026-01-08 14:22:58.88	235.32	9.97	-25.7	-26.9	15.4	0.00e+00	0	42	0	288358400	12	4123
2026-01-08 14:22:59.89	235.46	10.02	-25.8	-27.1	15.3	1.10e-06	0	42	0	293601280	12	4170
2026-01-08 14:23:00.90	235.61	10.07	-25.9	-27.3	15.2	0.00e+00	0	42	0	299892736	12	4235
2026-01-08 14:23:01.90	235.75	10.13	-25.9	-27.2	15.3	0.00e+00	0	41	0	305135616	12	4201
2026-01-08 14:23:02.91	235.90	10.18	-26.0	-27.5	15.1	0.00e+00	0	42	0	310378496	12	4271
2026-01-08 14:23:03.91	236.04	10.24	-25.9	-27.4	15.2	0.00e+00	0	42	0	316669952	12	4248
2026-01-08 14:23:04.92	236.19	10.29	-26.0	-27.4	15.2	0.00e+00	0	42	0	321912832	12	4248
2026-01-08 14:23:05.92	236.33	10.34	-26.1	-27.7	15.0	0.00e+00	0	42	0	328204288	12	4342
2026-01-08 14:23:06.93	236.48	10.40	-26.1	-27.7	15.0	2.20e-06	0	42	0	333447168	12	4332
2026-01-08 14:23:07.94	236.63	10.45	-26.2	-27.9	14.9	0.00e+00	0	42	0	339738624	12	4386
2026-01-08 14:23:08.94	236.77	10.50	-26.1	-27.7	15.0	0.00e+00	0	42	0	344981504	12	4338
2026-01-08 14:23:09.95	236.92	10.56	-26.1	-27.7	15.0	1.10e-06	0	42	0	350224384	12	4349
2026-01-08 14:23:10.95	237.07	10.61	-26.1	-27.7	15.0	0.00e+00	0	42	0	356515840	12	4329
2026-01-08 14:23:11.96	237.22	10.66	-26.1	-27.7	15.0	1.10e-06	0	42	0	361758720	12	4329
2026-01-08 14:23:12.97	237.37	10.72	-26.5	-28.6	14.5	1.10e-06	0	42	0	368050176	12	4582
2026-01-08 14:23:13.97	237.52	10.77	-26.2	-27.9	14.9	0.00e+00	0	42	0	373293056	12	4378
2026-01-08 14:23:14.98	237.67	10.82	-25.9	-27.3	15.2	0.00e+00	0	42	0	378535936	12	4235
2026-01-08 14:23:15.98	237.82	10.87	-25.9	-27.2	15.3	0.00e+00	0	42	0	384827392	12	4191
2026-01-08 14:23:16.99	237.98	10.93	-25.8	-27.2	15.4	0.00e+00	0	42	0	390070272	12	4185
2026-01-08 14:23:17.99	238.13	10.98	-25.9	-27.3	15.3	0.00e+00	0	42	0	395313152	12	4222
2026-01-08 14:23:19.00	238.28	11.03	-25.8	-27.1	15.4	1.10e-06	0	42	0	401604608	12	4163
2026-01-08 14:23:20.01	238.43	11.09	-25.9	-27.4	15.3	0.00e+00	0	42	0	406847488	12	4235
2026-01-08 14:23:21.01	238.59	11.14	-25.9	-27.2	15.3	0.00e+00	0	42	0	413138944	12	4204
2026-01-08 14:23:22.02	238.74	11.19	-25.8	-27.1	15.4	0.00e+00	0	42	0	418381824	12	4169
2026-01-08 14:23:23.03	238.90	11.24	-25.9	-27.2	15.4	0.00e+00	0	42	0	424673280	12	4186
2026-01-08 14:23:24.03	239.05	11.30	-25.7	-26.9	15.5	0.00e+00	0	42	0	429916160	12	4111
2026-01-08 14:23:25.04	239.21	11.35	-25.6	-26.7	15.7	0.00e+00	0	42	0	435159040	12	4051
2026-01-08 14:23:26.05	239.37	11.40	-25.7	-26.8	15.6	0.00e+00	0	42	0	441450496	12	4083
2026-01-08 14:23:27.05	239.52	11.45	-25.8	-27.0	15.3	6.52e-05	0	42	0	446693376	12	4149
2026-01-08 14:23:28.05	239.68	11.51	-25.9	-27.2	15.1	1.72e-04	0	42	0	451936256	12	4199
2026-01-08 14:23:29.05	239.84	11.56	-25.7	-26.9	15.2	5.23e-04	0	42	0	458227712	12	4124
2026-01-08 14:23:30.06	240.00	11.61	-25.7	-26.9	15.2	5.77e-04	0	42	0	463470592	12	4131
2026-01-08 14:23:31.07	240.16	11.66	-25.9	-27.3	14.8	2.28e-03	0	42	0	469762048	12	4223
2026-01-08 14:23:32.08	240.32	11.71	-25.8	-27.1	14.9	4.50e-03	0	42	0	475004928	12	4174
2026-01-08 14:23:33.09	240.48	11.77	-25.8	-27.0	14.9	4.23e-03	0	42	0	480247808	12	4156
2026-01-08 14:23:34.09	240.64	11.82	-25.8	-27.0	14.9	5.26e-03	0	42	0	486539264	12	4155
2026-01-08 14:23:35.10	240.80	11.87	-25.8	-27.0	15.5	4.70e-03	0	42	0	491782144	12	4133
2026-01-08 14:23:36.10	240.96	11.92	-26.0	-27.5	15.3	0.00e+00	0	42	0	498073600	12	4266
2026-01-08 14:23:37.10	241.13	11.97	-25.8	-26.9	15.6	0.00e+00	0	42	0	503316480	12	4113
2026-01-08 14:23:38.11	241.29	12.02	-25.6	-26.6	15.8	0.00e+00	0	42	0	508559360	12	4028
2026-01-08 14:23:39.11	241.45	12.07	-25.5	-26.4	15.9	0.00e+00	0	42	0	514850816	12	3996
2026-01-08 14:23:40.12	241.62	12.12	-25.5	-26.5	15.9	0.00e+00	0	42	0	520093696	12	3997
2026-01-08 14:23:41.12	241.78	12.17	-25.6	-26.6	15.8	0.00e+00	0	42	0	526385152	12	4037
2026-01-08 14:23:42.12	241.95	12.23	-25.5	-26.3	15.9	0.00e+00	0	42	0	531628032	12	3965
2026-01-08 14:23:43.13	242.11	12.28	-25.4	-26.2	16.0	0.00e+00	0	42	0	536870912	12	3936
2026-01-08 14:23:44.13	242.28	12.33	-25.4	-26.2	16.0	0.00e+00	0	42	0	543162368	12	3938
2026-01-08 14:23:45.14	242.45	12.38	-25.6	-26.5	15.8	0.00e+00	0	42	0	548405248	12	4010
2026-01-08 14:23:46.15	242.62	12.43	-25.3	-25.9	16.2	0.00e+00	0	42	0	553648128	12	3864
2026-01-08 14:23:47.15	242.78	12.48	-25.3	-26.4	16.2	0.00e+00	0	42	0	559939584	11	4083
2026-01-08 14:23:48.16	242.95	12.53	-25.4	-26.6	16.2	0.00e+00	0	42	0	565182464	11	4133
2026-01-08 14:23:49.17	243.12	12.58	-25.5	-26.7	16.0	0.00e+00	0	42	0	571473920	11	4174
2026-01-08 14:23:50.18	243.29	12.63	-25.4	-26.7	16.1	1.10e-06	0	42	0	576716800	11	4153
2026-01-08 14:23:51.19	243.47	12.68	-25.4	-26.7	16.1	0.00e+00	0	42	0	583008256	11	4165
2026-01-08 14:23:52.19	243.64	12.73	-25.5	-26.9	16.0	0.00e+00	0	42	0	588251136	11	4211
2026-01-08 14:23:53.20	243.81	12.78	-25.4	-26.7	16.1	2.20e-06	0	42	0	593494016	11	4155
2026-01-08 14:23:54.20	243.98	12.83	-25.4	-26.6	16.1	0.00e+00	0	42	0	599785472	11	4142
2026-01-08 14:23:55.20	244.15	12.88	-25.4	-26.6	16.1	0.00e+00	0	42	0	605028352	11	4146
2026-01-08 14:23:56.21	244.32	12.92	-25.4	-26.6	16.2	0.00e+00	0	42	0	610271232	11	4138
2026-01-08 14:23:57.21	244.50	12.97	-25.5	-26.9	16.0	0.00e+00	0	42	0	616562688	11	4203
2026-01-08 14:23:58.22	244.67	13.02	-25.3	-26.3	16.3	0.00e+00	0	42	0	621805568	11	4070
2026-01-08 14:23:59.22	244.85	13.07	-25.2	-26.2	16.4	0.00e+00	0	43	0	628097024	11	4046
2026-01-08 14:24:00.24	245.02	13.12	-25.3	-26.3	16.3	0.00e+00	0	42	0	633339904	11	4071
2026-01-08 14:24:01.23	245.20	13.17	-25.3	-26.3	16.3	0.00e+00	0	42	0	638582784	11	4074
2026-01-08 14:24:02.24	245.38	13.22	-25.4	-26.6	16.2	0.00e+00	0	42	0	644874240	11	4139
2026-01-08 14:24:03.25	245.55	13.26	-25.4	-26.6	16.2	0.00e+00	0	42	0	650117120	11	4150
2026-01-08 14:24:04.26	245.73	13.31	-25.3	-26.5	16.2	0.00e+00	0	42	0	656408576	11	4117
2026-01-08 14:24:05.26	245.91	13.36	-25.3	-26.5	16.2	0.00e+00	0	42	0	661651456	11	4107
2026-01-08 14:24:06.27	246.09	13.41	-25.3	-26.5	16.3	0.00e+00	0	42	0	667942912	11	4098
2026-01-08 14:24:07.28	246.27	13.45	-25.3	-26.3	16.4	0.00e+00	0	42	0	673185792	11	4059
2026-01-08 14:24:08.29	246.45	13.50	-25.2	-26.3	16.4	0.00e+00	0	42	0	678428672	11	4052
2026-01-08 14:24:09.29	246.63	13.55	-25.3	-26.4	16.3	0.00e+00	0	42	0	684720128	11	4078
2026-01-08 14:24:10.30	246.81	13.60	-25.4	-26.7	16.2	0.00e+00	0	42	0	689963008	11	4152
2026-01-08 14:24:11.31	246.99	13.64	-25.2	-26.3	16.4	0.00e+00	0	42	0	695205888	11	4058
2026-01-08 14:24:12.31	247.18	13.69	-25.2	-26.1	16.5	0.00e+00	0	42	0	701497344	11	4004
2026-01-08 14:24:13.32	247.36	13.74	-25.1	-26.0	16.5	0.00e+00	0	43	0	706740224	11	3994
2026-01-08 14:24:14.33	247.54	13.78	-25.2	-26.2	16.4	0.00e+00	0	43	0	713031680	11	4030
2026-01-08 14:24:15.34	247.73	13.83	-25.2	-26.2	16.4	0.00e+00	0	42	0	718274560	11	4038
2026-01-08 14:24:16.33	247.91	13.87	-25.2	-26.3	16.4	0.00e+00	0	42	0	723517440	11	4053
2026-01-08 14:24:17.33	248.09	13.92	-25.2	-26.3	16.4	0.00e+00	0	43	0	729808896	11	4048
2026-01-08 14:24:18.34	248.28	13.96	-25.3	-26.4	16.3	0.00e+00	0	42	0	735051776	11	4082
2026-01-08 14:24:19.34	248.46	14.01	-25.3	-26.4	16.3	0.00e+00	0	42	0	741343232	11	4076
2026-01-08 14:24:20.35	248.65	14.05	-25.3	-26.5	16.3	0.00e+00	0	42	0	746586112	11	4099
2026-01-08 14:24:21.36	248.84	14.10	-25.2	-26.2	16.5	0.00e+00	0	42	0	751828992	11	4026
2026-01-08 14:24:22.37	249.03	14.14	-25.1	-26.0	16.6	0.00e+00	0	43	0	758120448	11	3987
2026-01-08 14:24:23.38	249.22	14.19	-25.2	-26.1	16.5	0.00e+00	0	43	0	763363328	11	3997
2026-01-08 14:24:24.38	249.41	14.23	-25.2	-26.2	16.5	0.00e+00	0	42	0	769654784	11	4026
2026-01-08 14:24:25.38	249.59	14.28	-25.0	-25.6	16.8	0.00e+00	0	43	0	774897664	11	3894
2026-01-08 14:24:26.38	249.78	14.32	-24.8	-25.3	17.0	0.00e+00	0	43	0	780140544	11	3804
2026-01-08 14:24:27.39	249.97	14.36	-24.8	-25.7	17.0	0.00e+00	0	42	0	786432000	10	4020
2026-01-08 14:24:28.40	250.17	14.41	-24.9	-25.9	16.9	0.00e+00	0	42	0	791674880	10	4067
2026-01-08 14:24:29.41	250.36	14.45	-25.0	-26.2	16.8	0.00e+00	0	42	0	796917760	10	4141
2026-01-08 14:24:30.41	250.55	14.49	-25.0	-26.2	16.7	0.00e+00	0	42	0	803209216	10	4143
2026-01-08 14:24:31.42	250.74	14.54	-25.1	-26.4	16.6	0.00e+00	0	43	0	808452096	10	4202
2026-01-08 14:24:32.42	250.93	14.58	-25.1	-26.5	16.6	0.00e+00	0	42	0	814743552	10	4215
2026-01-08 14:24:33.43	251.13	14.62	-25.1	-26.4	16.7	0.00e+00	0	43	0	819986432	10	4186
2026-01-08 14:24:34.44	251.32	14.66	-25.1	-26.4	16.7	0.00e+00	0	42	0	826277888	10	4186
2026-01-08 14:24:35.44	251.52	14.71	-25.0	-26.3	16.7	0.00e+00	0	43	0	831520768	10	4161
2026-01-08 14:24:36.45	251.71	14.75	-25.1	-26.4	16.7	0.00e+00	0	42	0	836763648	10	4179
2026-01-08 14:24:37.45	251.91	14.79	-25.1	-26.5	16.6	0.00e+00	0	43	0	843055104	10	4207
2026-01-08 14:24:38.46	252.11	14.83	-24.9	-26.1	16.9	0.00e+00	0	43	0	848297984	10	4104
2026-01-08 14:24:39.47	252.30	14.87	-24.8	-25.8	17.0	0.00e+00	0	43	0	854589440	10	4038
2026-01-08 14:24:40.47	252.50	14.91	-24.8	-25.8	17.0	3.40e-06	0	42	0	859832320	10	4036
2026-01-08 14:24:41.48	252.70	14.95	-24.8	-25.9	17.0	0.00e+00	0	43	0	865075200	10	4055
2026-01-08 14:24:42.49	252.90	14.99	-24.8	-25.8	17.0	0.00e+00	0	42	0	871366656	10	4035
2026-01-08 14:24:43.50	253.10	15.03	-24.8	-25.9	17.0	0.00e+00	0	43	0	876609536	10	4057
2026-01-08 14:24:44.51	253.30	15.07	-24.9	-26.0	16.9	0.00e+00	0	42	0	881852416	10	4099
2026-01-08 14:24:45.51	253.50	15.11	-25.0	-26.1	16.9	0.00e+00	0	42	0	888143872	10	4117
2026-01-08 14:24:46.52	253.70	15.15	-24.9	-26.1	16.9	0.00e+00	0	43	0	893386752	10	4117
2026-01-08 14:24:47.53	253.90	15.19	-24.9	-26.0	16.9	0.00e+00	0	43	0	899678208	10	4091
2026-01-08 14:24:48.53	254.10	15.23	-24.9	-26.0	16.9	0.00e+00	0	43	0	904921088	10	4083
2026-01-08 14:24:49.55	254.30	15.27	-24.8	-25.8	17.0	4.50e-06	0	43	0	911212544	10	4031
2026-01-08 14:24:50.55	254.51	15.30	-24.8	-25.8	17.0	0.00e+00	0	43	0	916455424	10	4033
2026-01-08 14:24:51.55	254.71	15.34	-24.7	-25.7	17.1	0.00e+00	0	43	0	921698304	10	4005
2026-01-08 14:24:52.56	254.91	15.38	-24.6	-25.4	17.2	8.00e-06	0	42	0	927989760	10	3944
2026-01-08 14:24:53.57	255.12	15.42	-24.6	-25.5	17.2	0.00e+00	0	43	0	933232640	10	3953
2026-01-08 14:24:54.58	255.32	15.45	-24.7	-25.5	17.2	0.00e+00	0	43	0	939524096	10	3958
2026-01-08 14:24:55.59	255.53	15.49	-24.7	-25.5	17.2	4.50e-06	0	43	0	944766976	10	3970
2026-01-08 14:24:56.60	255.73	15.53	-24.8	-25.7	17.1	0.00e+00	0	43	0	950009856	10	4005
2026-01-08 14:24:57.60	255.94	15.56	-24.7	-25.7	17.1	0.00e+00	0	43	0	956301312	10	4005
2026-01-08 14:24:58.60	256.14	15.60	-24.9	-25.9	17.0	4.50e-06	0	43	0	961544192	10	4064
2026-01-08 14:24:59.60	256.35	15.63	-24.8	-25.7	17.1	0.00e+00	0	43	0	966787072	10	4016
2026-01-08 14:25:00.61	256.56	15.67	-24.7	-25.5	17.2	0.00e+00	0	43	0	973078528	10	3962
2026-01-08 14:25:01.61	256.77	15.70	-24.6	-25.3	17.3	6.80e-06	0	43	0	978321408	10	3923
2026-01-08 14:25:02.62	256.97	15.74	-24.6	-25.3	17.3	0.00e+00	0	43	0	984612864	10	3919
2026-01-08 14:25:03.63	257.18	15.77	-24.6	-25.3	17.3	0.00e+00	0	43	0	989855744	10	3908
2026-01-08 14:25:04.63	257.39	15.80	-24.6	-25.4	17.3	3.40e-06	0	43	0	996147200	10	3927
2026-01-08 14:25:05.63	257.60	15.84	-24.5	-25.2	17.4	0.00e+00	0	43	0	1001390080	10	3899
2026-01-08 14:25:06.64	257.81	15.87	-24.5	-25.2	17.4	0.00e+00	0	43	0	1006632960	10	3890
2026-01-08 14:25:07.64	258.02	15.90	-24.6	-25.2	17.4	0.00e+00	0	43	0	1012924416	10	3898
2026-01-08 14:25:08.65	258.23	15.94	-24.6	-25.4	17.3	0.00e+00	0	43	0	1018167296	10	3927
2026-01-08 14:25:09.65	258.44	15.97	-24.7	-25.5	17.2	0.00e+00	0	43	0	1023410176	10	3967
2026-01-08 14:25:10.65	258.65	16.00	-24.7	-25.7	17.1	5.70e-06	0	43	0	1029701632	10	4000
2026-01-08 14:25:11.65	258.87	16.03	-24.7	-25.6	17.2	0.00e+00	0	43	0	1034944512	10	3984
2026-01-08 14:25:12.66	259.08	16.06	-24.7	-25.7	17.1	0.00e+00	0	43	0	1040187392	10	4002
2026-01-08 14:25:13.67	259.29	16.09	-24.8	-25.7	17.1	5.70e-06	0	43	0	1046478848	10	4017
2026-01-08 14:25:14.68	259.51	16.13	-24.8	-25.8	17.1	0.00e+00	0	43	0	1051721728	10	4045
2026-01-08 14:25:15.68	259.72	16.16	-24.8	-25.9	17.1	0.00e+00	0	43	0	1058013184	10	4048
2026-01-08 14:25:16.68	259.93	16.19	-25.0	-26.2	16.9	0.00e+00	0	43	0	1063256064	10	4133
2026-01-08 14:25:17.69	260.15	16.22	-24.8	-25.8	17.1	0.00e+00	0	43	0	1069547520	10	4044
2026-01-08 14:25:18.70	260.37	16.24	-24.6	-25.3	17.4	0.00e+00	0	43	0	1074790400	10	3903
2026-01-08 14:25:19.71	260.58	16.27	-24.4	-25.0	17.5	0.00e+00	0	43	0	1080033280	10	3847
2026-01-08 14:25:20.71	260.80	16.30	-24.5	-25.1	17.5	0.00e+00	0	43	0	1086324736	10	3873
2026-01-08 14:25:21.71	261.01	16.33	-24.5	-25.2	17.4	0.00e+00	0	43	0	1091567616	10	3900
2026-01-08 14:25:22.72	261.23	16.36	-24.6	-25.4	17.3	0.00e+00	0	43	0	1097859072	10	3931
2026-01-08 14:25:23.73	261.45	16.39	-24.6	-25.4	17.3	0.00e+00	0	43	0	1103101952	10	3941
2026-01-08 14:25:24.73	261.66	16.41	-24.7	-25.6	17.2	0.00e+00	0	43	0	1108344832	10	3980
2026-01-08 14:25:25.73	261.88	16.44	-24.6	-25.4	17.3	0.00e+00	0	43	0	1114636288	10	3953
2026-01-08 14:25:26.74	262.10	16.47	-24.7	-25.5	17.2	0.00e+00	0	43	0	1119879168	10	3975
2026-01-08 14:25:27.74	262.32	16.49	-24.8	-25.9	17.1	0.00e+00	0	43	0	1125122048	10	4054
2026-01-08 14:25:28.76	262.54	16.52	-24.9	-26.0	17.0	0.00e+00	0	43	0	1131413504	10	4080
2026-01-08 14:25:29.76	262.76	16.54	-24.8	-25.8	17.1	0.00e+00	0	43	0	1136656384	10	4048
2026-01-08 14:25:30.76	262.98	16.57	-24.7	-25.6	17.2	0.00e+00	0	43	0	1142947840	10	3989
2026-01-08 14:25:31.76	263.20	16.59	-24.9	-25.9	17.1	0.00e+00	0	43	0	1148190720	10	4069
2026-01-08 14:25:32.77	263.42	16.62	-24.8	-25.8	17.1	0.00e+00	0	43	0	1154482176	10	4038
2026-01-08 14:25:33.78	263.64	16.64	-24.8	-25.8	17.1	0.00e+00	0	43	0	1159725056	10	4051
2026-01-08 14:25:34.77	263.86	16.66	-24.9	-25.9	17.1	0.00e+00	0	43	0	1164967936	10	4068
2026-01-08 14:25:35.77	264.08	16.69	-25.1	-26.4	16.8	0.00e+00	0	43	0	1171259392	10	4193
2026-01-08 14:25:36.78	264.30	16.71	-24.9	-26.1	17.0	0.00e+00	0	43	0	1176502272	10	4114
2026-01-08 14:25:37.79	264.52	16.73	-24.7	-25.7	17.2	0.00e+00	0	43	0	1181745152	10	4003
2026-01-08 14:25:38.79	264.74	16.75	-24.6	-25.4	17.4	0.00e+00	0	43	0	1188036608	10	3936
2026-01-08 14:25:39.79	264.97	16.77	-24.6	-25.3	17.4	0.00e+00	0	43	0	1193279488	10	3908
2026-01-08 14:25:40.79	265.19	16.79	-24.7	-25.5	17.3	0.00e+00	0	43	0	1198522368	10	3960
2026-01-08 14:25:41.80	265.41	16.82	-24.6	-25.3	17.4	0.00e+00	0	43	0	1204813824	10	3904
2026-01-08 14:25:42.80	265.63	16.84	-24.6	-25.3	17.4	0.00e+00	0	43	0	1210056704	10	3915
2026-01-08 14:25:43.81	265.86	16.86	-24.5	-25.0	17.5	0.00e+00	0	43	0	1216348160	10	3846
2026-01-08 14:25:44.82	266.08	16.87	-24.3	-24.7	17.7	0.00e+00	0	43	0	1221591040	10	3776
2026-01-08 14:25:45.82	266.31	16.89	-24.4	-25.0	17.6	0.00e+00	0	43	0	1227882496	10	3840
2026-01-08 14:25:46.83	266.53	16.91	-24.5	-25.0	17.6	0.00e+00	0	43	0	1233125376	10	3848
2026-01-08 14:25:47.83	266.76	16.93	-24.6	-25.3	17.4	0.00e+00	0	43	0	1238368256	10	3915
2026-01-08 14:25:48.83	266.98	16.95	-24.8	-25.8	17.1	0.00e+00	0	43	0	1244659712	10	4041
2026-01-08 14:25:49.84	267.21	16.97	-24.8	-25.8	17.2	0.00e+00	0	43	0	1249902592	10	4031
2026-01-08 14:25:50.85	267.43	16.98	-24.7	-25.7	17.2	0.00e+00	0	43	0	1255145472	10	4003
2026-01-08 14:25:51.85	267.66	17.00	-24.7	-25.6	17.2	0.00e+00	0	43	0	1261436928	10	3987
2026-01-08 14:25:52.86	267.89	17.02	-24.8	-25.7	17.2	0.00e+00	0	43	0	1266679808	10	4016
2026-01-08 14:25:53.86	268.11	17.03	-24.6	-25.3	17.4	0.00e+00	0	43	0	1271922688	10	3910
2026-01-08 14:25:54.85	268.33	17.05	-24.7	-25.6	17.3	0.00e+00	0	43	0	1278214144	10	3976
2026-01-08 14:25:55.86	268.56	17.06	-24.6	-25.4	17.3	0.00e+00	0	43	0	1283457024	10	3941
2026-01-08 14:25:56.86	268.79	17.08	-24.5	-25.1	17.5	0.00e+00	0	43	0	1289748480	10	3856
2026-01-08 14:25:57.87	269.02	17.09	-24.5	-25.1	17.5	0.00e+00	0	43	0	1294991360	10	3854
2026-01-08 14:25:58.88	269.24	17.10	-24.4	-24.9	17.6	0.00e+00	0	43	0	1301282816	10	3825
2026-01-08 14:25:59.89	269.47	17.12	-24.5	-25.1	17.5	0.00e+00	0	43	0	1306525696	10	3866
2026-01-08 14:26:00.90	269.70	17.13	-24.4	-24.9	17.7	1.10e-06	0	43	0	1311768576	10	3808
2026-01-08 14:26:01.91	269.93	17.14	-24.3	-24.7	17.8	0.00e+00	0	43	0	1318060032	10	3768
2026-01-08 14:26:02.92	270.16	17.15	-24.3	-25.2	17.7	0.00e+00	0	43	0	1323302912	9	3989
2026-01-08 14:26:03.93	270.39	17.17	-24.3	-25.2	17.8	0.00e+00	0	43	0	1329594368	9	3982
2026-01-08 14:26:04.93	270.62	17.18	-24.3	-25.2	17.7	0.00e+00	0	43	0	1334837248	9	3992
2026-01-08 14:26:05.94	270.85	17.19	-24.4	-25.4	17.6	0.00e+00	0	43	0	1340080128	9	4051
2026-01-08 14:26:06.94	271.07	17.20	-24.4	-25.3	17.7	0.00e+00	0	43	0	1346371584	9	4028
2026-01-08 14:26:07.95	271.31	17.21	-24.4	-25.3	17.7	0.00e+00	0	43	0	1351614464	9	4029
2026-01-08 14:26:08.95	271.53	17.22	-24.4	-25.5	17.6	0.00e+00	0	43	0	1356857344	9	4080
2026-01-08 14:26:09.96	271.76	17.23	-24.5	-25.7	17.5	1.10e-06	0	43	0	1363148800	9	4125
2026-01-08 14:26:10.96	271.99	17.23	-24.3	-25.3	17.7	0.00e+00	0	43	0	1368391680	9	4015
2026-01-08 14:26:11.97	272.22	17.24	-24.2	-25.1	17.8	0.00e+00	0	43	0	1374683136	9	3967
2026-01-08 14:26:12.97	272.45	17.25	-24.3	-25.3	17.7	2.20e-06	0	43	0	1379926016	9	4013
2026-01-08 14:26:13.98	272.68	17.26	-24.2	-25.1	17.8	0.00e+00	0	43	0	1386217472	9	3961
2026-01-08 14:26:14.98	272.91	17.26	-24.3	-25.1	17.7	0.00e+00	0	43	0	1391460352	9	3977
2026-01-08 14:26:15.99	273.14	17.27	-24.3	-25.1	17.8	1.10e-06	0	43	0	1396703232	9	3971
2026-01-08 14:26:17.00	273.37	17.28	-24.4	-25.5	17.6	0.00e+00	0	43	0	1402994688	9	4058
2026-01-08 14:26:18.00	273.60	17.28	-24.3	-25.2	17.7	0.00e+00	0	43	0	1408237568	9	4002
2026-01-08 14:26:19.01	273.83	17.29	-24.2	-25.1	17.8	0.00e+00	0	43	0	1413480448	9	3963
2026-01-08 14:26:20.02	274.06	17.29	-24.3	-25.2	17.7	0.00e+00	0	43	0	1419771904	9	3983
2026-01-08 14:26:21.02	274.29	17.30	-24.3	-25.1	17.8	0.00e+00	0	43	0	1425014784	9	3972
2026-01-08 14:26:22.03	274.52	17.30	-24.4	-25.3	17.7	0.00e+00	0	43	0	1431306240	9	4020
2026-01-08 14:26:23.04	274.75	17.30	-24.4	-25.5	17.6	0.00e+00	0	43	0	1436549120	9	4065
2026-01-08 14:26:24.04	274.98	17.31	-24.5	-25.5	17.6	0.00e+00	0	43	0	1441792000	9	4076
2026-01-08 14:26:25.04	275.21	17.31	-24.5	-25.6	17.5	0.00e+00	0	43	0	1448083456	9	4087
2026-01-08 14:26:26.05	275.44	17.31	-24.5	-25.7	17.3	0.00e+00	0	43	0	1453326336	9	4129
2026-01-08 14:26:27.05	275.67	17.31	-24.4	-25.4	17.6	0.00e+00	0	43	0	1459617792	9	4055
2026-01-08 14:26:28.05	275.90	17.31	-24.4	-25.4	17.6	0.00e+00	0	43	0	1464860672	9	4036
2026-01-08 14:26:29.05	276.13	17.31	-24.5	-25.6	17.5	0.00e+00	0	43	0	1470103552	9	4084
2026-01-08 14:26:30.06	276.36	17.31	-24.3	-25.3	17.7	0.00e+00	0	43	0	1476395008	9	4023
2026-01-08 14:26:31.06	276.59	17.31	-24.5	-25.5	17.5	0.00e+00	0	43	0	1481637888	9	4077
2026-01-08 14:26:32.07	276.83	17.31	-24.3	-25.2	17.7	0.00e+00	0	43	0	1487929344	9	4004
2026-01-08 14:26:33.08	277.06	17.31	-24.3	-25.3	17.7	0.00e+00	0	43	0	1493172224	9	4006
2026-01-08 14:26:34.09	277.29	17.31	-24.4	-25.3	17.6	0.00e+00	0	43	0	1498415104	9	4028
2026-01-08 14:26:35.10	277.52	17.31	-24.5	-25.6	17.5	0.00e+00	0	43	0	1504706560	9	4090
2026-01-08 14:26:36.10	277.75	17.30	-24.4	-25.4	17.5	0.00e+00	0	43	0	1509949440	9	4049
2026-01-08 14:26:37.11	277.98	17.30	-24.3	-25.3	17.5	0.00e+00	0	43	0	1515192320	9	4020
2026-01-08 14:26:38.11	278.21	17.30	-24.4	-25.5	17.3	0.00e+00	0	43	0	1521483776	9	4066
2026-01-08 14:26:39.12	278.44	17.29	-24.3	-25.2	17.4	0.00e+00	0	43	0	1526726656	9	4010
2026-01-08 14:26:40.13	278.67	17.29	-24.4	-25.4	17.3	0.00e+00	0	43	0	1533018112	9	4050
2026-01-08 14:26:41.13	278.90	17.28	-24.6	-25.8	16.9	5.70e-06	0	43	0	1538260992	9	4172
2026-01-08 14:26:42.13	279.13	17.28	-24.5	-25.7	17.1	2.20e-06	0	43	0	1544552448	9	4129
2026-01-08 14:26:43.14	279.36	17.27	-24.7	-26.2	16.9	0.00e+00	0	43	0	1549795328	9	4246
2026-01-08 14:26:44.14	279.59	17.27	-24.6	-25.9	17.2	0.00e+00	0	43	0	1555038208	9	4184
2026-01-08 14:26:45.15	279.82	17.26	-24.6	-25.8	17.4	0.00e+00	0	43	0	1561329664	9	4154
2026-01-08 14:26:46.16	280.05	17.25	-24.6	-25.9	17.4	0.00e+00	0	43	0	1566572544	9	4172
2026-01-08 14:26:47.17	280.28	17.25	-24.5	-25.7	17.5	0.00e+00	0	43	0	1572864000	9	4121
2026-01-08 14:26:48.17	280.51	17.24	-24.5	-25.7	17.5	0.00e+00	0	43	0	1578106880	9	4126
2026-01-08 14:26:49.18	280.74	17.23	-24.6	-25.9	17.3	0.00e+00	0	43	0	1583349760	9	4177
2026-01-08 14:26:50.18	280.97	17.22	-24.5	-25.7	17.5	0.00e+00	0	43	0	1589641216	9	4120
2026-01-08 14:26:51.19	281.20	17.21	-24.6	-25.8	17.4	0.00e+00	0	43	0	1594884096	9	4153
2026-01-08 14:26:52.19	281.42	17.20	-24.6	-25.8	17.4	0.00e+00	0	43	0	1600126976	9	4146
2026-01-08 14:26:53.20	281.65	17.19	-24.5	-25.6	17.5	0.00e+00	0	43	0	1606418432	9	4109
2026-01-08 14:26:54.21	281.88	17.18	-24.5	-25.6	17.5	0.00e+00	0	43	0	1611661312	9	4104
2026-01-08 14:26:55.21	282.11	17.17	-24.5	-25.7	17.5	0.00e+00	0	43	0	1617952768	9	4103
2026-01-08 14:26:56.21	282.34	17.16	-24.3	-25.2	17.7	0.00e+00	0	43	0	1623195648	9	3993
2026-01-08 14:26:57.22	282.57	17.15	-24.3	-25.2	17.8	0.00e+00	0	43	0	1629487104	9	3977
2026-01-08 14:26:58.22	282.79	17.14	-24.4	-25.3	17.7	0.00e+00	0	43	0	1634729984	9	4025
2026-01-08 14:26:59.23	283.02	17.12	-24.4	-25.4	17.6	0.00e+00	0	43	0	1639972864	9	4052
2026-01-08 14:27:00.24	283.25	17.11	-24.4	-25.4	17.6	0.00e+00	0	43	0	1646264320	9	4051
2026-01-08 14:27:01.24	283.48	17.10	-24.5	-25.6	17.5	0.00e+00	0	43	0	1651507200	9	4091
2026-01-08 14:27:02.25	283.71	17.08	-24.5	-25.5	17.5	0.00e+00	0	43	0	1656750080	9	4073
2026-01-08 14:27:03.26	283.93	17.07	-24.5	-25.6	17.5	0.00e+00	0	43	0	1663041536	9	4088
2026-01-08 14:27:04.27	284.16	17.05	-24.5	-25.6	17.5	0.00e+00	0	43	0	1668284416	9	4108
2026-01-08 14:27:05.28	284.39	17.04	-24.5	-25.7	17.5	0.00e+00	0	43	0	1674575872	9	4126
2026-01-08 14:27:06.29	284.62	17.02	-24.6	-25.8	17.4	0.00e+00	0	43	0	1679818752	9	4139
2026-01-08 14:27:07.29	284.84	17.01	-24.7	-26.0	17.3	0.00e+00	0	43	0	1686110208	9	4205
2026-01-08 14:27:08.30	285.07	16.99	-24.8	-26.2	17.2	0.00e+00	0	43	0	1691353088	9	4254
2026-01-08 14:27:09.30	285.29	16.97	-24.7	-26.0	17.3	0.00e+00	0	43	0	1696595968	9	4198
2026-01-08 14:27:10.31	285.52	16.96	-24.7	-26.0	17.3	0.00e+00	0	43	0	1702887424	9	4192
2026-01-08 14:27:11.31	285.74	16.94	-24.7	-26.0	17.3	0.00e+00	0	43	0	1708130304	9	4184
2026-01-08 14:27:12.32	285.97	16.92	-24.7	-26.0	17.3	0.00e+00	0	43	0	1714421760	9	4183
2026-01-08 14:27:13.32	286.19	16.90	-24.7	-26.0	17.3	0.00e+00	0	43	0	1719664640	9	4197
2026-01-08 14:27:14.33	286.42	16.88	-24.6	-25.8	17.4	0.00e+00	0	43	0	1724907520	9	4140
2026-01-08 14:27:15.34	286.64	16.86	-24.6	-25.9	17.3	0.00e+00	0	43	0	1731198976	9	4168
2026-01-08 14:27:16.34	286.86	16.85	-24.7	-26.0	17.3	0.00e+00	0	43	0	1736441856	9	4204
2026-01-08 14:27:17.34	287.08	16.83	-24.8	-26.2	17.2	0.00e+00	0	43	0	1741684736	9	4240
2026-01-08 14:27:18.35	287.31	16.80	-24.8	-26.3	17.1	0.00e+00	0	43	0	1747976192	9	4270
2026-01-08 14:27:19.35	287.53	16.78	-24.9	-26.5	17.0	0.00e+00	0	43	0	1753219072	9	4328
2026-01-08 14:27:20.36	287.75	16.76	-24.9	-26.6	17.0	0.00e+00	0	43	0	1759510528	9	4358
2026-01-08 14:27:21.37	287.98	16.74	-25.0	-26.7	16.9	0.00e+00	0	43	0	1764753408	9	4374
2026-01-08 14:27:22.38	288.20	16.72	-25.0	-26.6	16.9	0.00e+00	0	43	0	1771044864	9	4365
2026-01-08 14:27:23.39	288.42	16.70	-25.0	-26.3	16.9	0.00e+00	0	43	0	1776287744	10	4160
2026-01-08 14:27:24.40	288.64	16.67	-25.1	-26.5	16.8	0.00e+00	0	43	0	1781530624	10	4209
2026-01-08 14:27:25.40	288.86	16.65	-25.1	-26.5	16.8	0.00e+00	0	43	0	1787822080	10	4207
2026-01-08 14:27:26.40	289.08	16.63	-25.1	-26.3	16.8	0.00e+00	0	43	0	1793064960	10	4172
2026-01-08 14:27:27.41	289.30	16.60	-25.1	-26.5	16.8	0.00e+00	0	43	0	1798307840	10	4203
2026-01-08 14:27:28.42	289.52	16.58	-25.1	-26.4	16.8	0.00e+00	0	43	0	1804599296	10	4196
2026-01-08 14:27:29.42	289.74	16.55	-25.0	-26.3	16.8	0.00e+00	0	43	0	1809842176	10	4168
2026-01-08 14:27:30.43	289.96	16.53	-25.0	-26.3	16.9	0.00e+00	0	43	0	1816133632	10	4159
2026-01-08 14:27:31.43	290.18	16.50	-25.1	-26.5	16.7	0.00e+00	0	43	0	1821376512	10	4220
2026-01-08 14:27:32.44	290.40	16.48	-25.1	-26.5	16.8	0.00e+00	0	43	0	1826619392	10	4209
2026-01-08 14:27:33.45	290.62	16.45	-25.0	-26.2	17.0	0.00e+00	0	43	0	1832910848	10	4123
2026-01-08 14:27:34.46	290.84	16.43	-24.9	-26.1	17.0	0.00e+00	0	43	0	1838153728	10	4104
2026-01-08 14:27:35.47	291.05	16.40	-25.0	-26.2	16.9	0.00e+00	0	43	0	1844445184	10	4130
2026-01-08 14:27:36.48	291.27	16.37	-25.2	-26.6	16.7	0.00e+00	0	43	0	1849688064	10	4227
2026-01-08 14:27:37.48	291.49	16.34	-25.3	-26.8	16.6	0.00e+00	0	43	0	1855979520	10	4283
2026-01-08 14:27:38.49	291.70	16.32	-25.4	-27.1	16.4	0.00e+00	0	43	0	1861222400	10	4381
2026-01-08 14:27:39.50	291.92	16.29	-25.4	-26.6	16.4	0.00e+00	0	43	0	1866465280	11	4141
2026-01-08 14:27:40.50	292.14	16.26	-25.2	-26.2	16.6	0.00e+00	0	43	0	1872756736	11	4039
2026-01-08 14:27:41.50	292.35	16.23	-25.2	-26.1	16.7	0.00e+00	0	43	0	1877999616	11	3995
2026-01-08 14:27:42.51	292.56	16.20	-25.1	-26.0	16.8	0.00e+00	0	43	0	1883242496	11	3968
2026-01-08 14:27:43.51	292.78	16.17	-25.1	-25.9	16.8	0.00e+00	0	43	0	1889533952	11	3957
2026-01-08 14:27:44.52	292.99	16.14	-25.1	-25.8	16.8	0.00e+00	0	43	0	1894776832	11	3934
2026-01-08 14:27:45.52	293.20	16.11	-25.1	-25.9	16.8	0.00e+00	0	43	0	1901068288	11	3955
2026-01-08 14:27:46.53	293.42	16.08	-25.1	-25.9	16.8	0.00e+00	0	43	0	1906311168	11	3954
2026-01-08 14:27:47.53	293.63	16.05	-25.0	-25.6	17.0	0.00e+00	0	43	0	1911554048	11	3885
2026-01-08 14:27:48.54	293.84	16.02	-25.0	-25.6	17.0	0.00e+00	0	43	0	1917845504	11	3884
2026-01-08 14:27:49.54	294.05	15.99	-25.0	-25.6	16.9	0.00e+00	0	43	0	1923088384	11	3880
2026-01-08 14:27:50.55	294.26	15.95	-24.9	-25.5	17.0	0.00e+00	0	43	0	1929379840	11	3861
2026-01-08 14:27:51.55	294.47	15.92	-25.0	-25.8	16.9	0.00e+00	0	43	0	1934622720	11	3918
2026-01-08 14:27:52.56	294.68	15.89	-25.0	-25.7	16.9	0.00e+00	0	43	0	1939865600	11	3909
2026-01-08 14:27:53.57	294.89	15.86	-25.1	-25.9	16.8	0.00e+00	0	43	0	1946157056	11	3946
2026-01-08 14:27:54.58	295.10	15.82	-25.0	-25.8	16.8	0.00e+00	0	43	0	1951399936	11	3932
2026-01-08 14:27:55.58	295.31	15.79	-24.9	-25.5	17.0	0.00e+00	0	43	0	1957691392	11	3866
2026-01-08 14:27:56.58	295.52	15.76	-24.9	-25.5	17.0	0.00e+00	0	43	0	1962934272	11	3856
2026-01-08 14:27:57.59	295.73	15.72	-24.9	-25.5	17.0	0.00e+00	0	43	0	1968177152	11	3842
2026-01-08 14:27:58.60	295.94	15.69	-24.9	-25.5	17.0	0.00e+00	0	43	0	1974468608	11	3866
2026-01-08 14:27:59.60	296.14	15.65	-24.9	-25.5	17.0	0.00e+00	0	43	0	1979711488	11	3865
2026-01-08 14:28:00.60	296.35	15.62	-25.0	-25.8	16.8	0.00e+00	0	43	0	1984954368	11	3918
2026-01-08 14:28:01.61	296.55	15.58	-25.1	-25.8	16.8	0.00e+00	0	43	0	1991245824	11	3936
2026-01-08 14:28:02.62	296.76	15.55	-25.0	-25.8	16.8	2.20e-06	0	43	0	1996488704	11	3920
2026-01-08 14:28:03.62	296.96	15.51	-25.0	-25.7	16.9	0.00e+00	0	43	0	2002780160	11	3898
2026-01-08 14:28:04.63	297.17	15.47	-25.0	-25.8	16.8	0.00e+00	0	43	0	2008023040	11	3921
2026-01-08 14:28:05.63	297.37	15.44	-25.1	-25.9	16.8	2.20e-06	0	43	0	2014314496	11	3954
2026-01-08 14:28:06.63	297.57	15.40	-25.1	-25.9	16.7	0.00e+00	0	43	0	2019557376	11	3955
2026-01-08 14:28:07.64	297.78	15.36	-25.0	-25.7	16.9	0.00e+00	0	43	0	2024800256	11	3910
2026-01-08 14:28:08.65	297.98	15.33	-25.0	-25.7	16.9	0.00e+00	0	43	0	2031091712	11	3905
2026-01-08 14:28:09.65	298.18	15.29	-25.0	-25.8	16.8	0.00e+00	0	43	0	2036334592	11	3930
2026-01-08 14:28:10.66	298.38	15.25	-25.1	-26.0	16.7	0.00e+00	0	43	0	2042626048	11	3974
2026-01-08 14:28:11.66	298.58	15.21	-25.1	-26.0	16.7	0.00e+00	0	43	0	2047868928	11	3971
2026-01-08 14:28:12.67	298.79	15.17	-25.1	-26.0	16.7	0.00e+00	0	43	0	2053111808	11	3990
2026-01-08 14:28:13.68	298.99	15.14	-25.2	-26.1	16.7	0.00e+00	0	43	0	2059403264	11	3992
2026-01-08 14:28:14.69	299.19	15.10	-25.2	-26.1	16.6	2.20e-06	0	43	0	2064646144	11	4005
2026-01-08 14:28:15.70	299.39	15.06	-25.2	-26.2	16.6	0.00e+00	0	43	0	2069889024	11	4033
2026-01-08 14:28:16.69	299.58	15.02	-25.3	-26.5	16.4	0.00e+00	0	43	0	2076180480	11	4105
2026-01-08 14:28:17.70	299.78	14.98	-25.3	-26.5	16.4	3.40e-06	0	43	0	2081423360	11	4103
2026-01-08 14:28:18.71	299.98	14.94	-25.4	-26.5	16.4	0.00e+00	0	43	0	2087714816	11	4109
2026-01-08 14:28:19.71	300.17	14.90	-25.4	-26.6	16.3	0.00e+00	0	43	0	2092957696	11	4134
2026-01-08 14:28:20.73	300.37	14.86	-25.3	-26.4	16.5	0.00e+00	0	43	0	2099249152	11	4087
2026-01-08 14:28:21.73	300.57	14.82	-25.3	-26.3	16.6	0.00e+00	0	43	0	2104492032	11	4048
2026-01-08 14:28:22.74	300.76	14.78	-25.2	-26.2	16.6	0.00e+00	0	43	0	2109734912	11	4038
2026-01-08 14:28:23.74	300.96	14.73	-25.2	-26.2	16.5	0.00e+00	0	43	0	2116026368	11	4040
2026-01-08 14:28:24.75	301.15	14.69	-25.4	-26.6	16.4	0.00e+00	0	43	0	2121269248	11	4125
2026-01-08 14:28:25.76	301.35	14.65	-25.4	-26.7	16.3	0.00e+00	0	43	0	2126512128	11	4150
2026-01-08 14:28:26.76	301.54	14.61	-25.5	-26.9	16.2	3.40e-06	0	43	0	2132803584	11	4219
2026-01-08 14:28:27.77	301.73	14.57	-25.5	-26.8	16.3	0.00e+00	0	43	0	2138046464	11	4184
2026-01-08 14:28:28.78	301.93	14.53	-25.4	-26.5	16.4	0.00e+00	0	43	0	2144337920	11	4106
2026-01-08 14:28:29.79	302.12	14.48	-25.4	-26.6	16.3	0.00e+00	0	43	0	2149580800	11	4147
2026-01-08 14:28:30.79	302.31	14.44	-25.4	-26.6	16.4	0.00e+00	0	43	0	2154823680	11	4129
2026-01-08 14:28:31.80	302.50	14.40	-25.4	-26.5	16.4	0.00e+00	0	43	0	2161115136	11	4114
2026-01-08 14:28:32.80	302.69	14.35	-25.5	-26.8	16.2	0.00e+00	0	43	0	2166358016	11	4177
2026-01-08 14:28:33.81	302.88	14.31	-25.4	-26.7	16.3	0.00e+00	0	43	0	2172649472	11	4151
2026-01-08 14:28:34.82	303.07	14.27	-25.4	-26.5	16.4	0.00e+00	0	43	0	2177892352	11	4113
2026-01-08 14:28:35.82	303.26	14.22	-25.4	-26.6	16.3	0.00e+00	0	43	0	2184183808	11	4125
2026-01-08 14:28:36.83	303.44	14.18	-25.4	-26.5	16.4	0.00e+00	0	43	0	2189426688	11	4102
2026-01-08 14:28:37.83	303.63	14.13	-25.4	-26.5	16.4	0.00e+00	0	43	0	2194669568	11	4113
2026-01-08 14:28:38.83	303.82	14.09	-25.5	-26.8	16.2	0.00e+00	0	43	0	2200961024	11	4188
2026-01-08 14:28:39.84	304.00	14.05	-25.3	-26.4	16.4	0.00e+00	0	43	0	2206203904	11	4078
2026-01-08 14:28:40.84	304.19	14.00	-25.2	-26.1	16.6	0.00e+00	0	43	0	2211446784	11	4007
2026-01-08 14:28:41.85	304.37	13.96	-25.2	-26.2	16.5	0.00e+00	0	43	0	2217738240	11	4037
2026-01-08 14:28:42.86	304.56	13.91	-25.3	-26.3	16.5	0.00e+00	0	43	0	2222981120	11	4042
2026-01-08 14:28:43.86	304.74	13.87	-25.3	-26.5	16.4	0.00e+00	0	43	0	2229272576	11	4093
2026-01-08 14:28:44.87	304.93	13.82	-25.4	-26.5	16.4	0.00e+00	0	43	0	2234515456	11	4096
2026-01-08 14:28:45.87	305.11	13.77	-25.5	-26.8	16.2	0.00e+00	0	43	0	2239758336	11	4171
2026-01-08 14:28:46.88	305.29	13.73	-25.5	-26.8	16.2	0.00e+00	0	43	0	2246049792	11	4175
2026-01-08 14:28:47.89	305.47	13.68	-25.5	-26.9	16.1	0.00e+00	0	43	0	2251292672	11	4207
2026-01-08 14:28:48.89	305.65	13.64	-25.5	-26.8	16.2	0.00e+00	0	43	0	2257584128	11	4197
2026-01-08 14:28:49.90	305.84	13.59	-25.5	-26.9	16.1	0.00e+00	0	43	0	2262827008	11	4216
2026-01-08 14:28:50.91	306.02	13.54	-25.5	-26.7	16.2	0.00e+00	0	43	0	2269118464	11	4170
2026-01-08 14:28:51.92	306.20	13.50	-25.5	-26.8	16.2	0.00e+00	0	43	0	2274361344	11	4197
2026-01-08 14:28:52.93	306.38	13.45	-25.7	-27.3	15.9	0.00e+00	0	43	0	2279604224	11	4306
2026-01-08 14:28:53.93	306.55	13.40	-25.6	-26.9	16.1	0.00e+00	0	43	0	2285895680	11	4223
2026-01-08 14:28:54.94	306.73	13.35	-25.5	-26.9	16.2	0.00e+00	0	43	0	2291138560	11	4200
2026-01-08 14:28:55.95	306.91	13.31	-25.6	-27.0	16.1	0.00e+00	0	43	0	2296381440	11	4239
2026-01-08 14:28:56.96	307.09	13.26	-25.6	-27.0	16.1	0.00e+00	0	43	0	2302672896	11	4228
2026-01-08 14:28:57.96	307.26	13.21	-25.6	-27.1	16.0	0.00e+00	0	43	0	2307915776	11	4253
2026-01-08 14:28:58.97	307.44	13.16	-25.6	-27.1	16.0	0.00e+00	0	43	0	2314207232	11	4267
2026-01-08 14:28:59.97	307.61	13.12	-25.7	-27.2	15.9	0.00e+00	0	43	0	2319450112	11	4295
2026-01-08 14:29:00.98	307.79	13.07	-25.7	-27.3	15.9	0.00e+00	0	43	0	2324692992	11	4330
2026-01-08 14:29:01.99	307.96	13.02	-25.8	-27.4	15.9	0.00e+00	0	43	0	2330984448	11	4345
2026-01-08 14:29:02.99	308.14	12.97	-25.9	-27.6	15.7	0.00e+00	0	43	0	2336227328	11	4404
2026-01-08 14:29:04.00	308.31	12.92	-25.9	-27.8	15.6	0.00e+00	0	43	0	2342518784	11	4455
2026-01-08 14:29:05.00	308.48	12.87	-25.9	-27.8	15.6	0.00e+00	0	43	0	2347761664	11	4449
2026-01-08 14:29:06.01	308.65	12.82	-26.0	-27.9	15.6	0.00e+00	0	43	0	2353004544	11	4492
2026-01-08 14:29:07.01	308.82	12.78	-25.9	-27.1	15.6	0.00e+00	0	43	0	2359296000	12	4169
2026-01-08 14:29:08.02	309.00	12.73	-25.9	-27.1	15.7	0.00e+00	0	43	0	2364538880	12	4169
2026-01-08 14:29:09.03	309.17	12.68	-26.0	-27.4	15.5	0.00e+00	0	43	0	2370830336	12	4243
2026-01-08 14:29:10.04	309.34	12.63	-25.8	-27.1	15.7	0.00e+00	0	43	0	2376073216	12	4150
2026-01-08 14:29:11.04	309.50	12.58	-26.0	-27.5	15.5	0.00e+00	0	43	0	2381316096	12	4264
2026-01-08 14:29:12.05	309.67	12.53	-25.9	-27.1	15.6	0.00e+00	0	43	0	2387607552	12	4160
2026-01-08 14:29:13.05	309.84	12.48	-25.8	-27.0	15.7	0.00e+00	0	43	0	2392850432	12	4144
2026-01-08 14:29:14.07	310.01	12.43	-25.8	-27.1	15.7	0.00e+00	0	43	0	2399141888	12	4146
2026-01-08 14:29:15.07	310.18	12.38	-25.9	-27.2	15.6	0.00e+00	0	43	0	2404384768	12	4191
2026-01-08 14:29:16.07	310.34	12.33	-25.9	-27.2	15.6	0.00e+00	0	43	0	2409627648	12	4195
2026-01-08 14:29:17.08	310.51	12.28	-25.9	-27.3	15.5	0.00e+00	0	43	0	2415919104	12	4204
2026-01-08 14:29:18.09	310.67	12.23	-25.9	-27.3	15.6	0.00e+00	0	43	0	2421161984	12	4203
2026-01-08 14:29:19.10	310.84	12.18	-26.0	-27.5	15.4	0.00e+00	0	43	0	2427453440	12	4264
2026-01-08 14:29:20.11	311.00	12.13	-25.9	-27.3	15.5	0.00e+00	0	43	0	2432696320	12	4219
2026-01-08 14:29:21.11	311.17	12.08	-25.9	-27.3	15.5	0.00e+00	0	43	0	2438987776	12	4208
2026-01-08 14:29:22.12	311.33	12.02	-25.9	-27.2	15.5	0.00e+00	0	43	0	2444230656	12	4196
2026-01-08 14:29:23.12	311.49	11.97	-26.0	-27.4	15.4	0.00e+00	0	43	0	2449473536	12	4242
2026-01-08 14:29:24.14	311.66	11.92	-26.0	-27.5	15.4	0.00e+00	0	43	0	2455764992	12	4268
2026-01-08 14:29:25.14	311.82	11.87	-26.0	-27.4	15.4	0.00e+00	0	43	0	2461007872	12	4251
2026-01-08 14:29:26.15	311.98	11.82	-26.0	-27.5	15.4	0.00e+00	0	43	0	2466250752	12	4256
2026-01-08 14:29:27.16	312.14	11.77	-26.0	-27.6	15.3	0.00e+00	0	43	0	2472542208	12	4282
2026-01-08 14:29:28.17	312.30	11.72	-26.1	-27.7	15.3	0.00e+00	0	43	0	2477785088	12	4320
2026-01-08 14:29:29.18	312.46	11.67	-26.1	-27.7	15.2	0.00e+00	0	43	0	2484076544	12	4321
2026-01-08 14:29:30.18	312.62	11.61	-26.3	-28.1	15.0	0.00e+00	0	43	0	2489319424	12	4438
2026-01-08 14:29:31.19	312.78	11.56	-26.0	-27.6	15.3	0.00e+00	0	43	0	2494562304	12	4288
2026-01-08 14:29:32.19	312.93	11.51	-26.0	-27.4	15.4	0.00e+00	0	43	0	2500853760	12	4244
2026-01-08 14:29:33.20	313.09	11.46	-26.0	-27.4	15.4	0.00e+00	0	43	0	2506096640	12	4233
2026-01-08 14:29:34.21	313.25	11.41	-26.0	-27.5	15.4	0.00e+00	0	43	0	2512388096	12	4258
2026-01-08 14:29:35.21	313.40	11.36	-25.9	-27.3	15.5	0.00e+00	0	43	0	2517630976	12	4199
2026-01-08 14:29:36.22	313.56	11.30	-25.9	-27.2	15.5	0.00e+00	0	43	0	2523922432	12	4197
2026-01-08 14:29:37.23	313.71	11.25	-25.9	-27.3	15.4	0.00e+00	0	43	0	2529165312	12	4228
2026-01-08 14:29:38.23	313.87	11.20	-26.1	-27.6	15.3	0.00e+00	0	43	0	2534408192	12	4289
2026-01-08 14:29:39.24	314.02	11.15	-26.0	-27.5	15.4	0.00e+00	0	43	0	2540699648	12	4268
2026-01-08 14:29:40.25	314.17	11.10	-26.0	-27.5	15.4	0.00e+00	0	43	0	2545942528	12	4274
2026-01-08 14:29:41.25	314.33	11.04	-26.1	-27.6	15.3	0.00e+00	0	43	0	2551185408	12	4309
2026-01-08 14:29:42.26	314.48	10.99	-26.1	-27.7	15.2	0.00e+00	0	43	0	2557476864	12	4330
2026-01-08 14:29:43.26	314.63	10.94	-26.1	-27.7	15.3	0.00e+00	0	43	0	2562719744	12	4315
2026-01-08 14:29:44.27	314.78	10.89	-26.1	-27.6	15.3	0.00e+00	0	43	0	2569011200	12	4308
2026-01-08 14:29:45.27	314.93	10.83	-26.2	-27.8	15.1	0.00e+00	0	43	0	2574254080	12	4359
2026-01-08 14:29:46.28	315.08	10.78	-26.1	-27.7	15.2	0.00e+00	0	43	0	2579496960	12	4321
2026-01-08 14:29:47.29	315.23	10.73	-26.1	-27.8	15.2	0.00e+00	0	43	0	2585788416	12	4345
2026-01-08 14:29:48.29	315.38	10.68	-26.3	-28.0	15.0	0.00e+00	0	43	0	2591031296	12	4416
2026-01-08 14:29:49.30	315.53	10.62	-26.3	-28.1	15.0	0.00e+00	0	43	0	2597322752	12	4443
2026-01-08 14:29:50.31	315.68	10.57	-26.3	-28.2	14.9	0.00e+00	0	43	0	2602565632	12	4464
2026-01-08 14:29:51.32	315.83	10.52	-26.3	-28.2	14.9	1.10e-06	0	43	0	2608857088	12	4471
2026-01-08 14:29:52.32	315.97	10.46	-26.4	-28.3	14.8	0.00e+00	0	43	0	2614099968	12	4499
2026-01-08 14:29:53.33	316.12	10.41	-26.3	-28.2	14.9	0.00e+00	0	43	0	2619342848	12	4466
2026-01-08 14:29:54.33	316.27	10.36	-26.4	-28.4	14.8	0.00e+00	0	43	0	2625634304	12	4513
2026-01-08 14:29:55.34	316.41	10.30	-26.7	-28.6	14.4	0.00e+00	0	43	0	2630877184	13	4464
2026-01-08 14:29:56.34	316.56	10.25	-26.8	-28.8	14.3	4.50e-06	0	43	0	2636120064	13	4520
2026-01-08 14:29:57.34	316.70	10.20	-26.6	-28.2	14.6	0.00e+00	0	43	0	2642411520	13	4348
2026-01-08 14:29:58.35	316.84	10.15	-26.4	-27.9	14.7	0.00e+00	0	43	0	2647654400	13	4261
2026-01-08 14:29:59.36	316.99	10.09	-26.4	-27.8	14.8	0.00e+00	0	43	0	2652897280	13	4235
2026-01-08 14:30:00.36	317.13	10.04	-26.4	-27.8	14.8	0.00e+00	0	43	0	2659188736	13	4249
2026-01-08 14:30:01.37	317.27	9.99	-26.4	-27.8	14.8	0.00e+00	0	43	0	2664431616	13	4257
2026-01-08 14:30:02.38	317.42	9.93	-26.5	-28.0	14.7	0.00e+00	0	43	0	2670723072	13	4297
2026-01-08 14:30:03.39	317.56	9.88	-26.5	-28.1	14.6	2.20e-06	0	43	0	2675965952	13	4331
2026-01-08 14:30:04.40	317.70	9.82	-26.5	-28.1	14.6	1.10e-06	0	43	0	2682257408	13	4341
2026-01-08 14:30:05.41	317.84	9.77	-26.6	-28.4	14.5	1.10e-06	0	43	0	2687500288	13	4410
2026-01-08 14:30:06.42	317.98	9.72	-26.7	-28.5	14.4	0.00e+00	0	43	0	2693791744	13	4428
2026-01-08 14:30:07.42	318.12	9.66	-26.5	-28.2	14.6	0.00e+00	0	43	0	2699034624	13	4342
2026-01-08 14:30:08.43	318.26	9.61	-26.5	-28.1	14.7	0.00e+00	0	43	0	2704277504	13	4314
2026-01-08 14:30:09.43	318.40	9.56	-26.5	-28.1	14.6	2.20e-06	0	43	0	2710568960	13	4336
2026-01-08 14:30:10.44	318.53	9.50	-26.6	-28.4	14.5	3.40e-06	0	43	0	2715811840	13	4400
2026-01-08 14:30:11.43	318.67	9.45	-26.6	-28.2	14.5	1.10e-06	0	43	0	2721054720	13	4358
2026-01-08 14:30:12.44	318.81	9.40	-26.6	-28.3	14.5	0.00e+00	0	43	0	2727346176	13	4376
2026-01-08 14:30:13.45	318.94	9.34	-26.5	-28.1	14.6	0.00e+00	0	43	0	2732589056	13	4326
2026-01-08 14:30:14.45	319.08	9.29	-26.5	-28.2	14.5	0.00e+00	0	43	0	2737831936	13	4351
2026-01-08 14:30:15.46	319.22	9.24	-26.6	-28.3	14.5	0.00e+00	0	43	0	2744123392	13	4369
2026-01-08 14:30:16.46	319.35	9.18	-26.6	-28.2	14.5	1.10e-06	0	43	0	2749366272	13	4370
2026-01-08 14:30:17.47	319.48	9.13	-26.7	-28.5	14.4	2.20e-06	0	43	0	2755657728	13	4439
2026-01-08 14:30:18.47	319.62	9.07	-26.6	-28.3	14.5	1.10e-06	0	43	0	2760900608	13	4384
2026-01-08 14:30:19.48	319.75	9.02	-26.6	-28.4	14.4	3.40e-06	0	43	0	2767192064	13	4420
2026-01-08 14:30:20.48	319.88	8.97	-26.6	-28.4	14.4	3.40e-06	0	43	0	2772434944	13	4428
2026-01-08 14:30:21.49	320.02	8.91	-26.6	-28.5	14.4	0.00e+00	0	43	0	2777677824	13	4433
2026-01-08 14:30:22.50	320.15	8.86	-26.7	-28.5	14.3	1.10e-06	0	43	0	2783969280	13	4430
2026-01-08 14:30:23.51	320.28	8.81	-26.6	-28.3	14.4	3.40e-06	0	43	0	2789212160	13	4397
2026-01-08 14:30:24.51	320.41	8.75	-26.6	-28.4	14.4	2.20e-06	0	43	0	2795503616	13	4414
2026-01-08 14:30:25.52	320.54	8.70	-26.7	-28.5	14.3	4.50e-06	0	43	0	2800746496	13	4430
2026-01-08 14:30:26.52	320.67	8.64	-26.6	-28.4	14.4	5.70e-06	0	43	0	2805989376	13	4404
2026-01-08 14:30:27.53	320.80	8.59	-26.6	-28.3	14.4	1.10e-06	0	43	0	2812280832	13	4399
2026-01-08 14:30:28.53	320.93	8.54	-26.5	-28.2	14.5	2.20e-06	0	43	0	2817523712	13	4350
2026-01-08 14:30:29.54	321.06	8.48	-26.6	-28.4	14.4	2.20e-06	0	43	0	2822766592	13	4411
2026-01-08 14:30:30.55	321.19	8.43	-26.7	-28.6	14.2	1.10e-06	0	43	0	2829058048	13	4467
2026-01-08 14:30:31.56	321.32	8.37	-26.8	-28.8	14.1	1.10e-06	0	43	0	2834300928	13	4517
2026-01-08 14:30:32.56	321.45	8.32	-26.9	-29.0	14.0	2.20e-06	0	43	0	2840592384	13	4588
2026-01-08 14:30:33.57	321.57	8.27	-26.8	-28.9	14.0	4.50e-06	0	43	0	2845835264	13	4567
2026-01-08 14:30:34.58	321.70	8.21	-26.9	-28.9	14.0	5.70e-06	0	43	0	2852126720	13	4577
2026-01-08 14:30:35.58	321.83	8.16	-26.9	-29.0	13.9	6.80e-06	0	43	0	2857369600	13	4598
2026-01-08 14:30:36.59	321.95	8.10	-26.9	-29.1	13.9	4.50e-06	0	43	0	2862612480	13	4622
2026-01-08 14:30:37.60	322.08	8.05	-27.0	-28.8	13.8	9.10e-06	0	43	0	2868903936	14	4418
2026-01-08 14:30:38.61	322.20	8.00	-27.2	-29.3	13.5	2.17e-05	0	43	0	2874146816	14	4586
2026-01-08 14:30:39.61	322.33	7.94	-27.2	-29.2	13.5	2.05e-05	0	43	0	2880438272	14	4548
2026-01-08 14:30:40.62	322.45	7.89	-27.1	-29.0	13.7	1.02e-05	0	43	0	2885681152	14	4481
2026-01-08 14:30:41.62	322.58	7.83	-27.0	-28.9	13.8	1.02e-05	0	43	0	2890924032	14	4442
2026-01-08 14:30:42.63	322.70	7.78	-27.2	-29.2	13.6	1.02e-05	0	43	0	2897215488	14	4531
2026-01-08 14:30:43.64	322.82	7.73	-27.2	-29.3	13.5	1.48e-05	0	43	0	2902458368	14	4569
2026-01-08 14:30:44.65	322.95	7.67	-27.3	-29.5	13.4	1.25e-05	0	43	0	2907701248	14	4638
2026-01-08 14:30:45.66	323.07	7.62	-27.3	-29.6	13.3	2.97e-05	0	43	0	2913992704	14	4663
2026-01-08 14:30:46.66	323.19	7.56	-27.3	-29.5	13.4	2.05e-05	0	43	0	2919235584	14	4629
2026-01-08 14:30:47.67	323.31	7.51	-27.3	-29.6	13.3	2.63e-05	0	43	0	2925527040	14	4654
2026-01-08 14:30:48.67	323.43	7.46	-27.3	-29.5	13.3	2.17e-05	0	43	0	2930769920	14	4643
2026-01-08 14:30:49.68	323.55	7.40	-27.2	-29.3	13.5	1.60e-05	0	43	0	2937061376	14	4563
2026-01-08 14:30:50.69	323.67	7.35	-27.3	-29.5	13.3	2.17e-05	0	43	0	2942304256	14	4633
2026-01-08 14:30:51.70	323.79	7.30	-27.2	-29.3	13.4	1.83e-05	0	43	0	2947547136	14	4568
2026-01-08 14:30:52.70	323.91	7.24	-27.2	-29.3	13.4	1.94e-05	0	43	0	2953838592	14	4577
2026-01-08 14:30:53.70	324.03	7.19	-27.2	-29.3	13.5	2.74e-05	0	43	0	2959081472	14	4557
2026-01-08 14:30:54.71	324.14	7.13	-27.2	-29.3	13.4	2.28e-05	0	43	0	2964324352	14	4580
2026-01-08 14:30:55.71	324.26	7.08	-27.3	-29.4	13.3	2.63e-05	0	43	0	2970615808	14	4594
2026-01-08 14:30:56.72	324.38	7.03	-32.8	-43.7	3.8	3.53e-01	0	43	104	2974810112	25	12626
2026-01-08 14:30:57.73	324.50	6.97	-33.2	-44.4	3.8	8.47e-01	0	43	104	2974810112	26	13059

#Closed at: 2026-01-08 14:30:57
#Recorded file [2974 MB]: D:/data/31010_260108_172207.dat