passes_logs/2026/01/08/R2M6_AANII_01/R2M6_AANII_01__20260108_042711_FENGYUN_3D_rec.log

#Pass ID: 20260108_042711_FENGYUN 3D
#Satellite: FENGYUN 3D
#Configuration: FENGYUN 3D
#almurnet v.1.7.20240730
#Start time: 2026-01-08 04:27:11

#Version: 2.2.20231116
#Station: R2M6_AANII_01
#Location: 30.233357 lon 59.946436 lat
#TLE: 1 43010U 17072A   26006.26440730  .00000376  00000+0  19957-3 0  9994
#TLE: 2 43010  98.9925 337.9455 0002045 123.9195 236.2175 14.19693586422016

#Time	Az	El	Level	Level2	SNR	BER	BlckErr	Temp	State	Recorded	gain1	gain2
2026-01-08 04:27:11.90	10.62	7.03	-30.8	-34.8	5.0	8.02e-01	0	40	0	0	22	5697
2026-01-08 04:27:12.91	10.52	7.09	-30.4	-33.7	5.1	7.92e-01	0	41	104	0	22	5217
2026-01-08 04:27:13.91	10.43	7.15	-30.3	-33.2	8.7	3.21e-02	0	41	0	0	22	5013
2026-01-08 04:27:14.92	10.33	7.22	-30.4	-34.0	8.4	3.60e-02	0	41	0	5242880	21	5449
2026-01-08 04:27:15.91	10.24	7.28	-30.2	-33.4	8.9	3.15e-02	0	41	0	11534336	21	5197
2026-01-08 04:27:16.92	10.14	7.34	-30.1	-33.2	9.1	2.07e-02	0	41	0	16777216	21	5105
2026-01-08 04:27:17.92	10.04	7.40	-30.1	-33.1	9.1	1.74e-02	0	41	0	22020096	21	5083
2026-01-08 04:27:18.93	9.95	7.47	-30.1	-33.2	9.1	1.95e-02	0	41	0	28311552	21	5101
2026-01-08 04:27:19.94	9.85	7.53	-30.0	-32.9	9.3	1.57e-02	0	41	0	33554432	21	4998
2026-01-08 04:27:20.94	9.75	7.59	-29.7	-32.4	9.9	8.10e-03	0	41	0	38797312	20	4920
2026-01-08 04:27:21.94	9.65	7.66	-29.2	-31.6	10.9	2.43e-03	0	41	0	45088768	19	4719
2026-01-08 04:27:22.95	9.55	7.72	-28.7	-30.8	11.7	4.40e-04	0	41	0	50331648	18	4554
2026-01-08 04:27:23.95	9.45	7.78	-28.3	-29.7	12.4	1.25e-04	0	41	0	55574528	18	4249
2026-01-08 04:27:24.96	9.35	7.85	-28.0	-29.4	12.9	2.63e-05	0	41	0	61865984	17	4256
2026-01-08 04:27:25.96	9.25	7.91	-27.7	-29.4	13.2	1.83e-05	0	41	0	67108864	16	4370
2026-01-08 04:27:26.97	9.15	7.98	-27.6	-29.0	13.5	8.00e-06	0	41	0	73400320	16	4256
2026-01-08 04:27:27.97	9.04	8.04	-27.7	-29.3	13.3	8.00e-06	0	41	0	78643200	16	4330
2026-01-08 04:27:28.98	8.94	8.10	-27.6	-29.0	13.5	4.50e-06	0	41	0	84934656	16	4242
2026-01-08 04:27:29.98	8.84	8.17	-27.4	-28.7	13.7	8.00e-06	0	41	0	90177536	16	4149
2026-01-08 04:27:30.98	8.74	8.23	-27.5	-28.7	13.6	8.00e-06	0	41	0	95420416	16	4168
2026-01-08 04:27:31.98	8.63	8.30	-27.6	-29.1	13.4	6.80e-06	0	41	0	101711872	16	4268
2026-01-08 04:27:32.97	8.53	8.36	-27.6	-29.1	13.4	6.80e-06	0	41	0	106954752	16	4264
2026-01-08 04:27:33.98	8.43	8.42	-27.6	-29.0	13.5	5.70e-06	0	41	0	112197632	16	4249
2026-01-08 04:27:34.99	8.32	8.49	-27.8	-29.5	13.3	4.50e-06	0	41	0	118489088	16	4384
2026-01-08 04:27:36.00	8.21	8.55	-27.6	-29.1	13.5	1.37e-05	0	41	0	123731968	16	4254
2026-01-08 04:27:37.00	8.11	8.62	-27.3	-28.3	13.9	5.70e-06	0	42	0	128974848	16	4060
2026-01-08 04:27:38.00	8.00	8.68	-27.1	-28.4	14.0	2.20e-06	0	41	0	135266304	15	4187
2026-01-08 04:27:39.01	7.89	8.75	-27.1	-28.5	14.0	1.10e-06	0	41	0	140509184	15	4213
2026-01-08 04:27:40.02	7.79	8.81	-27.0	-28.3	14.1	1.10e-06	0	41	0	146800640	15	4153
2026-01-08 04:27:41.02	7.68	8.88	-27.0	-28.2	14.2	1.10e-06	0	42	0	152043520	15	4144
2026-01-08 04:27:42.03	7.57	8.94	-27.2	-28.6	14.0	2.20e-06	0	41	0	158334976	15	4232
2026-01-08 04:27:43.04	7.46	9.01	-27.0	-28.1	14.2	0.00e+00	0	42	0	163577856	15	4110
2026-01-08 04:27:44.04	7.35	9.07	-27.0	-28.3	14.1	0.00e+00	0	42	0	168820736	15	4155
2026-01-08 04:27:45.05	7.24	9.14	-27.1	-28.5	14.0	0.00e+00	0	42	0	175112192	15	4219
2026-01-08 04:27:46.05	7.13	9.20	-27.1	-28.5	14.0	1.10e-06	0	42	0	180355072	15	4202
2026-01-08 04:27:47.06	7.02	9.27	-27.3	-28.8	13.8	0.00e+00	0	41	0	186646528	15	4306
2026-01-08 04:27:48.07	6.91	9.33	-27.3	-28.8	13.8	2.20e-06	0	42	0	191889408	15	4304
2026-01-08 04:27:49.08	6.79	9.40	-27.2	-28.7	13.9	1.10e-06	0	42	0	197132288	15	4250
2026-01-08 04:27:50.08	6.68	9.46	-27.2	-28.6	14.0	1.10e-06	0	42	0	203423744	15	4240
2026-01-08 04:27:51.08	6.57	9.53	-27.3	-28.8	13.9	1.10e-06	0	42	0	208666624	15	4304
2026-01-08 04:27:52.08	6.45	9.59	-27.1	-28.4	14.1	3.40e-06	0	42	0	213909504	15	4177
2026-01-08 04:27:53.09	6.34	9.66	-27.0	-28.1	14.3	0.00e+00	0	42	0	220200960	15	4119
2026-01-08 04:27:54.09	6.23	9.72	-27.0	-28.1	14.3	1.10e-06	0	42	0	225443840	15	4100
2026-01-08 04:27:55.06	6.11	9.79	-26.8	-27.8	14.5	0.00e+00	0	42	0	231735296	15	4027
2026-01-08 04:27:56.07	6.00	9.85	-27.0	-28.3	14.2	0.00e+00	0	42	0	236978176	15	4142
2026-01-08 04:27:57.08	5.88	9.92	-26.8	-27.7	14.5	0.00e+00	0	42	0	243269632	15	4005
2026-01-08 04:27:58.08	5.76	9.99	-26.8	-28.2	14.6	1.10e-06	0	42	0	248512512	14	4220
2026-01-08 04:27:59.09	5.65	10.05	-26.8	-28.2	14.6	0.00e+00	0	42	0	253755392	14	4244
2026-01-08 04:28:00.09	5.53	10.12	-26.7	-28.1	14.6	0.00e+00	0	42	0	260046848	14	4205
2026-01-08 04:28:01.10	5.41	10.18	-26.8	-28.2	14.6	0.00e+00	0	42	0	265289728	14	4225
2026-01-08 04:28:02.10	5.29	10.25	-26.7	-28.1	14.6	0.00e+00	0	42	0	270532608	14	4204
2026-01-08 04:28:03.11	5.17	10.32	-26.7	-28.0	14.7	0.00e+00	0	42	0	276824064	14	4167
2026-01-08 04:28:04.11	5.05	10.38	-26.8	-28.2	14.6	1.10e-06	0	42	0	282066944	14	4237
2026-01-08 04:28:05.12	4.93	10.45	-26.7	-28.0	14.7	1.10e-06	0	42	0	288358400	14	4175
2026-01-08 04:28:06.13	4.81	10.51	-26.7	-28.0	14.7	0.00e+00	0	42	0	293601280	14	4175
2026-01-08 04:28:07.14	4.68	10.58	-26.7	-28.0	14.7	0.00e+00	0	42	0	298844160	14	4192
2026-01-08 04:28:08.14	4.56	10.65	-26.8	-28.2	14.6	1.10e-06	0	42	0	305135616	14	4224
2026-01-08 04:28:09.15	4.44	10.71	-26.7	-28.0	14.8	0.00e+00	0	42	0	310378496	14	4182
2026-01-08 04:28:10.16	4.31	10.78	-26.8	-28.1	14.7	0.00e+00	0	42	0	316669952	14	4205
2026-01-08 04:28:11.16	4.19	10.85	-26.6	-27.7	14.9	0.00e+00	0	42	0	321912832	14	4083
2026-01-08 04:28:12.16	4.07	10.91	-26.5	-27.6	14.9	0.00e+00	0	42	0	327155712	14	4066
2026-01-08 04:28:13.17	3.94	10.98	-26.5	-27.5	15.0	0.00e+00	0	42	0	333447168	14	4038
2026-01-08 04:28:14.18	3.81	11.05	-26.4	-27.2	15.2	0.00e+00	0	42	0	338690048	14	3977
2026-01-08 04:28:15.19	3.69	11.11	-26.4	-27.2	15.2	0.00e+00	0	42	0	344981504	14	3968
2026-01-08 04:28:16.19	3.56	11.18	-26.4	-27.2	15.2	0.00e+00	0	42	0	350224384	14	3970
2026-01-08 04:28:17.20	3.43	11.25	-26.3	-27.1	15.3	0.00e+00	0	42	0	355467264	14	3929
2026-01-08 04:28:18.21	3.30	11.32	-26.4	-27.2	15.2	0.00e+00	0	42	0	361758720	14	3960
2026-01-08 04:28:19.22	3.17	11.38	-26.4	-27.2	15.2	0.00e+00	0	42	0	367001600	14	3976
2026-01-08 04:28:20.23	3.04	11.45	-26.5	-27.4	15.1	0.00e+00	0	42	0	373293056	14	4026
2026-01-08 04:28:21.23	2.91	11.52	-26.4	-27.3	15.1	0.00e+00	0	42	0	378535936	14	3999
2026-01-08 04:28:22.24	2.78	11.58	-26.5	-27.4	15.1	0.00e+00	0	42	0	383778816	14	4027
2026-01-08 04:28:23.24	2.65	11.65	-26.5	-27.6	15.0	0.00e+00	0	42	0	390070272	14	4062
2026-01-08 04:28:24.25	2.52	11.72	-26.5	-27.6	15.0	0.00e+00	0	42	0	395313152	14	4077
2026-01-08 04:28:25.26	2.38	11.79	-26.5	-27.5	15.1	0.00e+00	0	42	0	401604608	14	4055
2026-01-08 04:28:26.27	2.25	11.85	-26.4	-27.4	15.1	0.00e+00	0	42	0	406847488	14	3999
2026-01-08 04:28:27.27	2.12	11.92	-26.5	-27.4	15.1	0.00e+00	0	42	0	413138944	14	4028
2026-01-08 04:28:28.27	1.98	11.99	-26.4	-27.2	15.2	0.00e+00	0	42	0	418381824	14	3965
2026-01-08 04:28:29.28	1.85	12.05	-26.3	-27.5	15.4	0.00e+00	0	42	0	423624704	13	4149
2026-01-08 04:28:30.28	1.71	12.12	-26.2	-27.4	15.4	0.00e+00	0	42	0	429916160	13	4129
2026-01-08 04:28:31.28	1.58	12.19	-26.3	-27.5	15.4	0.00e+00	0	42	0	435159040	13	4143
2026-01-08 04:28:32.29	1.44	12.26	-26.1	-27.2	15.5	0.00e+00	0	42	0	440401920	13	4076
2026-01-08 04:28:33.29	1.30	12.32	-26.2	-27.3	15.4	0.00e+00	0	42	0	446693376	13	4095
2026-01-08 04:28:34.30	1.16	12.39	-26.1	-27.2	15.5	0.00e+00	0	42	0	451936256	13	4060
2026-01-08 04:28:35.31	1.02	12.46	-26.2	-27.3	15.4	0.00e+00	0	42	0	457179136	13	4093
2026-01-08 04:28:36.31	0.88	12.53	-26.2	-27.3	15.5	0.00e+00	0	42	0	463470592	13	4103
2026-01-08 04:28:37.32	0.74	12.59	-26.1	-27.2	15.5	0.00e+00	0	43	0	468713472	13	4069
2026-01-08 04:28:38.32	0.60	12.66	-26.1	-27.2	15.5	0.00e+00	0	42	0	475004928	13	4064
2026-01-08 04:28:39.34	0.46	12.73	-25.9	-26.8	15.7	0.00e+00	0	42	0	480247808	13	3957
2026-01-08 04:28:40.34	0.32	12.80	-25.9	-26.7	15.8	0.00e+00	0	43	0	486539264	13	3944
2026-01-08 04:28:41.34	0.17	12.86	-26.0	-27.0	15.7	0.00e+00	0	43	0	491782144	13	4010
2026-01-08 04:28:42.35	0.03	12.93	-26.0	-27.0	15.7	0.00e+00	0	42	0	497025024	13	4016
2026-01-08 04:28:43.36	359.88	13.00	-26.0	-26.9	15.8	0.00e+00	0	43	0	503316480	13	3989
2026-01-08 04:28:44.37	359.74	13.07	-25.9	-26.7	15.8	0.00e+00	0	42	0	508559360	13	3944
2026-01-08 04:28:45.38	359.59	13.13	-26.1	-27.1	15.6	0.00e+00	0	42	0	514850816	13	4057
2026-01-08 04:28:46.37	359.45	13.20	-26.2	-27.4	15.4	0.00e+00	0	42	0	520093696	13	4115
2026-01-08 04:28:47.38	359.30	13.27	-26.1	-27.1	15.6	0.00e+00	0	42	0	525336576	13	4047
2026-01-08 04:28:48.39	359.15	13.34	-26.1	-27.1	15.6	0.00e+00	0	42	0	531628032	13	4037
2026-01-08 04:28:49.40	359.00	13.40	-26.1	-27.2	15.5	0.00e+00	0	43	0	536870912	13	4070
2026-01-08 04:28:50.41	358.85	13.47	-26.2	-27.4	15.5	0.00e+00	0	42	0	542113792	13	4109
2026-01-08 04:28:51.41	358.70	13.54	-26.2	-27.2	15.5	0.00e+00	0	43	0	548405248	13	4079
2026-01-08 04:28:52.42	358.55	13.61	-26.2	-27.3	15.5	0.00e+00	0	43	0	553648128	13	4087
2026-01-08 04:28:53.43	358.40	13.67	-26.1	-27.1	15.6	0.00e+00	0	42	0	559939584	13	4041
2026-01-08 04:28:54.44	358.25	13.74	-26.1	-27.0	15.6	0.00e+00	0	42	0	565182464	13	4028
2026-01-08 04:28:55.44	358.09	13.81	-26.0	-27.0	15.7	0.00e+00	0	42	0	571473920	13	4005
2026-01-08 04:28:56.44	357.94	13.88	-25.9	-26.7	15.9	0.00e+00	0	43	0	576716800	13	3942
2026-01-08 04:28:57.44	357.79	13.94	-25.9	-26.7	15.9	0.00e+00	0	42	0	581959680	13	3951
2026-01-08 04:28:58.45	357.63	14.01	-25.8	-26.5	16.0	0.00e+00	0	42	0	588251136	13	3901
2026-01-08 04:28:59.45	357.48	14.08	-25.6	-26.6	16.2	0.00e+00	0	43	0	593494016	12	4022
2026-01-08 04:29:00.46	357.32	14.15	-25.6	-26.5	16.2	0.00e+00	0	43	0	598736896	12	3998
2026-01-08 04:29:01.46	357.16	14.21	-25.6	-26.5	16.2	0.00e+00	0	43	0	605028352	12	3998
2026-01-08 04:29:02.47	357.00	14.28	-25.6	-26.5	16.3	0.00e+00	0	43	0	610271232	12	3990
2026-01-08 04:29:03.48	356.85	14.35	-25.7	-26.7	16.2	0.00e+00	0	43	0	616562688	12	4054
2026-01-08 04:29:04.48	356.69	14.41	-25.7	-26.8	16.1	0.00e+00	0	42	0	621805568	12	4076
2026-01-08 04:29:05.49	356.53	14.48	-25.6	-26.5	16.2	0.00e+00	0	43	0	627048448	12	4004
2026-01-08 04:29:06.49	356.37	14.55	-25.7	-26.6	16.2	0.00e+00	0	42	0	633339904	12	4027
2026-01-08 04:29:07.49	356.20	14.62	-25.6	-26.5	16.3	0.00e+00	0	43	0	638582784	12	3992
2026-01-08 04:29:08.50	356.04	14.68	-25.6	-26.5	16.3	0.00e+00	0	43	0	644874240	12	3999
2026-01-08 04:29:09.51	355.88	14.75	-25.6	-26.6	16.3	0.00e+00	0	43	0	650117120	12	4021
2026-01-08 04:29:10.51	355.72	14.82	-25.6	-26.6	16.2	0.00e+00	0	43	0	655360000	12	4011
2026-01-08 04:29:11.52	355.55	14.88	-25.7	-26.7	16.2	0.00e+00	0	43	0	661651456	12	4056
2026-01-08 04:29:12.53	355.38	14.95	-25.8	-26.9	16.1	0.00e+00	0	43	0	666894336	12	4096
2026-01-08 04:29:13.54	355.22	15.02	-25.8	-26.9	16.1	0.00e+00	0	43	0	673185792	12	4098
2026-01-08 04:29:14.54	355.05	15.08	-25.7	-26.7	16.2	0.00e+00	0	43	0	678428672	12	4041
2026-01-08 04:29:15.54	354.88	15.15	-25.7	-26.6	16.3	0.00e+00	0	43	0	683671552	12	4027
2026-01-08 04:29:16.55	354.71	15.22	-25.7	-26.7	16.2	0.00e+00	0	43	0	689963008	12	4037
2026-01-08 04:29:17.55	354.55	15.28	-25.7	-26.6	16.3	0.00e+00	0	43	0	695205888	12	4031
2026-01-08 04:29:18.55	354.38	15.35	-25.6	-26.5	16.3	0.00e+00	0	43	0	700448768	12	3994
2026-01-08 04:29:19.56	354.21	15.42	-25.7	-26.8	16.1	0.00e+00	0	43	0	706740224	12	4057
2026-01-08 04:29:20.56	354.04	15.48	-25.7	-26.8	16.2	0.00e+00	0	43	0	711983104	12	4069
2026-01-08 04:29:21.57	353.86	15.55	-25.6	-26.4	16.4	0.00e+00	0	43	0	718274560	12	3976
2026-01-08 04:29:22.57	353.69	15.61	-25.5	-26.3	16.4	0.00e+00	0	42	0	723517440	12	3937
2026-01-08 04:29:23.57	353.52	15.68	-25.6	-26.5	16.4	0.00e+00	0	43	0	729808896	12	3991
2026-01-08 04:29:24.58	353.34	15.75	-25.6	-26.6	16.3	0.00e+00	0	43	0	735051776	12	4020
2026-01-08 04:29:25.58	353.17	15.81	-25.6	-26.6	16.3	0.00e+00	0	43	0	740294656	12	4011
2026-01-08 04:29:26.59	352.99	15.88	-25.7	-26.7	16.3	0.00e+00	0	43	0	746586112	12	4049
2026-01-08 04:29:27.60	352.81	15.94	-25.6	-26.5	16.4	0.00e+00	0	43	0	751828992	12	3998
2026-01-08 04:29:28.61	352.63	16.01	-25.4	-26.1	16.6	0.00e+00	0	43	0	757071872	12	3883
2026-01-08 04:29:29.62	352.46	16.08	-25.3	-26.4	16.7	0.00e+00	0	43	0	763363328	11	4067
2026-01-08 04:29:30.63	352.28	16.14	-25.3	-26.3	16.8	0.00e+00	0	43	0	768606208	11	4040
2026-01-08 04:29:31.64	352.09	16.21	-25.3	-26.2	16.9	0.00e+00	0	43	0	774897664	11	4026
2026-01-08 04:29:32.65	351.91	16.27	-25.2	-26.0	17.0	0.00e+00	0	43	0	780140544	11	3982
2026-01-08 04:29:33.66	351.73	16.34	-25.2	-26.1	16.9	0.00e+00	0	43	0	785383424	11	3992
2026-01-08 04:29:34.67	351.55	16.40	-25.2	-26.1	16.9	0.00e+00	0	43	0	791674880	11	3988
2026-01-08 04:29:35.67	351.36	16.47	-25.3	-26.2	16.9	0.00e+00	0	43	0	796917760	11	4028
2026-01-08 04:29:36.67	351.18	16.53	-25.2	-26.2	16.9	0.00e+00	0	43	0	803209216	11	4005
2026-01-08 04:29:37.68	350.99	16.60	-25.2	-26.2	16.9	0.00e+00	0	43	0	808452096	11	4006
2026-01-08 04:29:38.69	350.81	16.66	-25.2	-26.1	16.9	0.00e+00	0	43	0	814743552	11	3999
2026-01-08 04:29:39.70	350.62	16.72	-25.3	-26.3	16.8	0.00e+00	0	43	0	819986432	11	4032
2026-01-08 04:29:40.71	350.43	16.79	-25.2	-26.2	16.9	0.00e+00	0	43	0	825229312	11	4007
2026-01-08 04:29:41.71	350.25	16.85	-25.2	-26.0	17.1	0.00e+00	0	43	0	831520768	11	3971
2026-01-08 04:29:42.72	350.06	16.92	-25.1	-26.0	17.0	0.00e+00	0	43	0	836763648	11	3962
2026-01-08 04:29:43.72	349.87	16.98	-25.1	-25.9	17.0	0.00e+00	0	43	0	843055104	11	3955
2026-01-08 04:29:44.73	349.68	17.04	-25.1	-25.9	17.0	0.00e+00	0	43	0	848297984	11	3945
2026-01-08 04:29:45.74	349.48	17.11	-25.3	-26.3	16.9	0.00e+00	0	43	0	853540864	11	4035
2026-01-08 04:29:46.74	349.29	17.17	-25.2	-26.1	17.0	0.00e+00	0	43	0	859832320	11	3990
2026-01-08 04:29:47.75	349.10	17.23	-25.2	-26.1	17.0	0.00e+00	0	43	0	865075200	11	3982
2026-01-08 04:29:48.76	348.90	17.30	-25.1	-26.0	17.0	0.00e+00	0	43	0	870318080	11	3962
2026-01-08 04:29:49.77	348.71	17.36	-25.2	-26.0	17.1	0.00e+00	0	43	0	876609536	11	3968
2026-01-08 04:29:50.77	348.51	17.42	-25.1	-25.9	17.1	0.00e+00	0	43	0	881852416	11	3943
2026-01-08 04:29:51.77	348.32	17.48	-25.2	-26.0	17.0	0.00e+00	0	43	0	888143872	11	3974
2026-01-08 04:29:52.77	348.12	17.54	-25.2	-26.1	16.9	0.00e+00	0	43	0	893386752	11	3992
2026-01-08 04:29:53.78	347.92	17.61	-25.1	-25.9	17.1	0.00e+00	0	43	0	899678208	11	3943
2026-01-08 04:29:54.79	347.72	17.67	-25.0	-25.7	17.2	0.00e+00	0	43	0	904921088	11	3888
2026-01-08 04:29:55.80	347.52	17.73	-25.1	-25.8	17.1	0.00e+00	0	43	0	910163968	11	3918
2026-01-08 04:29:56.80	347.32	17.79	-25.1	-25.8	17.1	0.00e+00	0	43	0	916455424	11	3923
2026-01-08 04:29:57.81	347.12	17.85	-25.0	-25.7	17.2	0.00e+00	0	43	0	921698304	11	3907
2026-01-08 04:29:58.81	346.92	17.91	-25.3	-26.4	16.8	0.00e+00	0	43	0	926941184	11	4055
2026-01-08 04:29:59.82	346.71	17.97	-25.2	-26.2	16.9	0.00e+00	0	43	0	933232640	11	4016
2026-01-08 04:30:00.82	346.51	18.03	-25.1	-25.9	17.1	0.00e+00	0	43	0	938475520	11	3959
2026-01-08 04:30:01.83	346.31	18.09	-25.1	-25.9	17.1	0.00e+00	0	43	0	944766976	11	3946
2026-01-08 04:30:02.84	346.10	18.15	-25.0	-25.8	17.2	0.00e+00	0	43	0	950009856	11	3919
2026-01-08 04:30:03.84	345.89	18.21	-24.9	-25.5	17.3	0.00e+00	0	43	0	955252736	11	3838
2026-01-08 04:30:04.85	345.69	18.27	-24.8	-25.7	17.4	0.00e+00	0	43	0	961544192	10	4011
2026-01-08 04:30:05.86	345.48	18.33	-24.7	-25.5	17.6	0.00e+00	0	43	0	966787072	10	3951
2026-01-08 04:30:06.86	345.27	18.39	-24.7	-25.6	17.5	0.00e+00	0	43	0	973078528	10	3973
2026-01-08 04:30:07.87	345.06	18.45	-24.7	-25.5	17.6	0.00e+00	0	43	0	978321408	10	3961
2026-01-08 04:30:08.88	344.85	18.51	-24.7	-25.6	17.5	0.00e+00	0	43	0	984612864	10	3974
2026-01-08 04:30:09.88	344.64	18.57	-24.9	-26.1	17.3	0.00e+00	0	43	0	989855744	10	4101
2026-01-08 04:30:10.89	344.42	18.62	-25.1	-26.4	17.1	0.00e+00	0	43	0	995098624	10	4193
2026-01-08 04:30:11.89	344.21	18.68	-25.1	-26.4	17.1	0.00e+00	0	43	0	1001390080	10	4171
2026-01-08 04:30:12.90	344.00	18.74	-25.0	-26.3	17.2	0.00e+00	0	43	0	1006632960	10	4151
2026-01-08 04:30:13.91	343.78	18.80	-25.0	-26.2	17.2	0.00e+00	0	43	0	1011875840	10	4137
2026-01-08 04:30:14.92	343.57	18.85	-24.9	-26.0	17.3	0.00e+00	0	43	0	1018167296	10	4084
2026-01-08 04:30:15.92	343.35	18.91	-24.9	-25.9	17.3	0.00e+00	0	43	0	1023410176	10	4059
2026-01-08 04:30:16.93	343.13	18.96	-25.0	-26.1	17.2	0.00e+00	0	43	0	1029701632	10	4110
2026-01-08 04:30:17.93	342.92	19.02	-24.9	-25.9	17.3	0.00e+00	0	43	0	1034944512	10	4059
2026-01-08 04:30:18.93	342.70	19.08	-25.0	-26.3	17.1	0.00e+00	0	43	0	1040187392	10	4144
2026-01-08 04:30:19.94	342.48	19.13	-24.8	-25.7	17.5	0.00e+00	0	43	0	1046478848	10	4001
2026-01-08 04:30:20.95	342.26	19.19	-24.5	-25.2	17.7	0.00e+00	0	43	0	1051721728	10	3889
2026-01-08 04:30:21.96	342.04	19.24	-24.5	-25.1	17.8	0.00e+00	0	43	0	1058013184	10	3844
2026-01-08 04:30:22.97	341.81	19.30	-24.5	-25.2	17.7	0.00e+00	0	43	0	1063256064	10	3882
2026-01-08 04:30:23.97	341.59	19.35	-24.4	-24.9	17.9	0.00e+00	0	43	0	1069547520	10	3809
2026-01-08 04:30:24.98	341.37	19.40	-24.4	-24.9	17.9	0.00e+00	0	43	0	1074790400	10	3818
2026-01-08 04:30:25.99	341.14	19.46	-24.5	-25.2	17.8	0.00e+00	0	43	0	1080033280	10	3880
2026-01-08 04:30:26.99	340.92	19.51	-24.4	-25.0	17.8	0.00e+00	0	43	0	1086324736	10	3830
2026-01-08 04:30:28.00	340.69	19.56	-24.5	-25.1	17.8	0.00e+00	0	43	0	1091567616	10	3851
2026-01-08 04:30:29.01	340.46	19.61	-24.5	-25.1	17.8	0.00e+00	0	43	0	1096810496	10	3848
2026-01-08 04:30:30.02	340.24	19.67	-24.3	-24.7	18.0	0.00e+00	0	43	0	1103101952	10	3767
2026-01-08 04:30:31.02	340.01	19.72	-24.3	-25.1	18.1	0.00e+00	0	43	0	1108344832	9	3972
2026-01-08 04:30:32.03	339.78	19.77	-24.2	-25.0	18.1	0.00e+00	0	43	0	1114636288	9	3947
2026-01-08 04:30:33.04	339.55	19.82	-24.2	-25.0	18.1	0.00e+00	0	43	0	1119879168	9	3945
2026-01-08 04:30:34.04	339.32	19.87	-24.3	-25.2	18.0	0.00e+00	0	43	0	1125122048	9	3978
2026-01-08 04:30:35.05	339.09	19.92	-24.1	-24.8	18.2	0.00e+00	0	43	0	1131413504	9	3883
2026-01-08 04:30:36.06	338.85	19.97	-23.9	-24.4	18.4	0.00e+00	0	43	0	1136656384	9	3799
2026-01-08 04:30:37.06	338.62	20.02	-24.0	-24.6	18.3	0.00e+00	0	43	0	1142947840	9	3840
2026-01-08 04:30:38.07	338.39	20.07	-23.9	-24.4	18.4	0.00e+00	0	43	0	1148190720	9	3789
2026-01-08 04:30:39.08	338.15	20.11	-24.0	-24.5	18.3	0.00e+00	0	43	0	1154482176	9	3831
2026-01-08 04:30:40.09	337.92	20.16	-23.9	-24.4	18.4	0.00e+00	0	43	0	1159725056	9	3802
2026-01-08 04:30:41.09	337.68	20.21	-24.0	-24.6	18.3	0.00e+00	0	43	0	1164967936	9	3838
2026-01-08 04:30:42.10	337.44	20.26	-24.1	-24.7	18.3	8.00e-06	0	43	0	1171259392	9	3867
2026-01-08 04:30:43.10	337.21	20.30	-23.9	-24.4	18.4	0.00e+00	0	43	0	1176502272	9	3808
2026-01-08 04:30:44.11	336.97	20.35	-23.9	-24.3	18.5	0.00e+00	0	43	0	1181745152	9	3770
2026-01-08 04:30:45.10	336.73	20.39	-23.9	-24.4	18.4	0.00e+00	0	43	0	1188036608	9	3788
2026-01-08 04:30:46.11	336.49	20.44	-23.9	-24.4	18.4	0.00e+00	0	43	0	1193279488	9	3790
2026-01-08 04:30:47.12	336.25	20.48	-24.0	-24.6	18.3	0.00e+00	0	43	0	1199570944	9	3838
2026-01-08 04:30:48.13	336.01	20.53	-24.1	-24.7	18.3	0.00e+00	0	43	0	1204813824	9	3870
2026-01-08 04:30:49.14	335.77	20.57	-24.1	-24.8	18.3	0.00e+00	0	43	0	1210056704	9	3889
2026-01-08 04:30:50.15	335.52	20.62	-24.2	-24.9	18.2	0.00e+00	0	43	0	1216348160	9	3913
2026-01-08 04:30:51.15	335.28	20.66	-24.2	-24.9	18.1	0.00e+00	0	43	0	1221591040	9	3924
2026-01-08 04:30:52.16	335.04	20.70	-23.9	-24.4	18.4	0.00e+00	0	43	0	1227882496	9	3788
2026-01-08 04:30:53.16	334.79	20.74	-23.9	-24.4	18.4	0.00e+00	0	43	0	1233125376	9	3804
2026-01-08 04:30:54.18	334.55	20.79	-24.1	-24.8	18.2	0.00e+00	0	43	0	1239416832	9	3898
2026-01-08 04:30:55.19	334.30	20.83	-24.2	-24.9	18.1	0.00e+00	0	43	0	1244659712	9	3924
2026-01-08 04:30:56.19	334.05	20.87	-24.2	-24.9	18.2	0.00e+00	0	43	0	1249902592	9	3914
2026-01-08 04:30:57.20	333.81	20.91	-24.0	-24.6	18.3	0.00e+00	0	43	0	1256194048	9	3855
2026-01-08 04:30:58.20	333.56	20.95	-24.0	-24.5	18.4	0.00e+00	0	43	0	1261436928	9	3815
2026-01-08 04:30:59.21	333.31	20.99	-24.0	-24.6	18.3	0.00e+00	0	43	0	1266679808	9	3852
2026-01-08 04:31:00.21	333.06	21.03	-23.9	-24.4	18.4	0.00e+00	0	43	0	1272971264	9	3795
2026-01-08 04:31:01.21	332.81	21.06	-23.9	-24.3	18.5	0.00e+00	0	43	0	1278214144	9	3783
2026-01-08 04:31:02.22	332.56	21.10	-23.9	-24.3	18.5	0.00e+00	0	43	0	1284505600	9	3772
2026-01-08 04:31:03.23	332.31	21.14	-23.8	-24.2	18.5	0.00e+00	0	43	0	1289748480	9	3754
2026-01-08 04:31:04.24	332.06	21.17	-23.9	-24.4	18.4	0.00e+00	0	43	0	1294991360	9	3801
2026-01-08 04:31:05.25	331.81	21.21	-24.0	-24.6	18.3	0.00e+00	0	43	0	1301282816	9	3842
2026-01-08 04:31:06.26	331.55	21.25	-23.7	-24.5	18.6	0.00e+00	0	43	0	1306525696	8	3918
2026-01-08 04:31:07.26	331.30	21.28	-23.7	-24.4	18.7	0.00e+00	0	43	0	1312817152	8	3905
2026-01-08 04:31:08.27	331.05	21.31	-23.7	-24.4	18.7	0.00e+00	0	43	0	1318060032	8	3912
2026-01-08 04:31:09.27	330.79	21.35	-23.7	-24.4	18.6	0.00e+00	0	43	0	1324351488	8	3914
2026-01-08 04:31:10.28	330.54	21.38	-23.7	-24.5	18.7	0.00e+00	0	43	0	1329594368	8	3917
2026-01-08 04:31:11.28	330.28	21.41	-23.7	-24.4	18.7	0.00e+00	0	43	0	1334837248	8	3892
2026-01-08 04:31:12.28	330.03	21.45	-23.6	-24.2	18.8	0.00e+00	0	43	0	1341128704	8	3851
2026-01-08 04:31:13.29	329.77	21.48	-23.5	-24.1	18.8	0.00e+00	0	43	0	1346371584	8	3824
2026-01-08 04:31:14.30	329.51	21.51	-23.6	-24.2	18.8	0.00e+00	0	43	0	1351614464	8	3856
2026-01-08 04:31:15.30	329.26	21.54	-23.7	-24.3	18.8	0.00e+00	0	43	0	1357905920	8	3880
2026-01-08 04:31:16.31	329.00	21.57	-23.5	-24.0	18.9	0.00e+00	0	43	0	1363148800	8	3813
2026-01-08 04:31:17.32	328.74	21.60	-23.5	-23.9	18.9	0.00e+00	0	43	0	1368391680	8	3800
2026-01-08 04:31:18.33	328.48	21.63	-23.7	-24.4	18.8	0.00e+00	0	43	0	1374683136	8	3897
2026-01-08 04:31:19.33	328.22	21.65	-23.7	-24.4	18.7	0.00e+00	0	43	0	1379926016	8	3899
2026-01-08 04:31:20.34	327.96	21.68	-23.7	-24.4	18.7	0.00e+00	0	43	0	1386217472	8	3891
2026-01-08 04:31:21.34	327.70	21.71	-23.7	-24.4	18.7	0.00e+00	0	43	0	1391460352	8	3901
2026-01-08 04:31:22.35	327.44	21.73	-23.7	-24.5	18.7	0.00e+00	0	43	0	1397751808	8	3928
2026-01-08 04:31:23.35	327.18	21.76	-23.8	-24.6	18.6	0.00e+00	0	43	0	1402994688	8	3955
2026-01-08 04:31:24.35	326.92	21.79	-23.8	-24.6	18.6	0.00e+00	0	43	0	1408237568	8	3952
2026-01-08 04:31:25.36	326.65	21.81	-23.9	-24.8	18.5	0.00e+00	0	43	0	1414529024	8	4002
2026-01-08 04:31:26.37	326.39	21.83	-23.9	-24.9	18.4	0.00e+00	0	43	0	1419771904	8	4016
2026-01-08 04:31:27.38	326.13	21.86	-23.8	-24.5	18.6	0.00e+00	0	43	0	1426063360	8	3930
2026-01-08 04:31:28.38	325.86	21.88	-23.8	-24.6	18.6	0.00e+00	0	43	0	1431306240	8	3942
2026-01-08 04:31:29.39	325.60	21.90	-23.9	-24.8	18.5	0.00e+00	0	43	0	1436549120	8	3996
2026-01-08 04:31:30.40	325.33	21.92	-23.9	-24.9	18.4	0.00e+00	0	43	0	1442840576	8	4029
2026-01-08 04:31:31.40	325.07	21.94	-23.9	-24.8	18.4	0.00e+00	0	43	0	1448083456	8	3997
2026-01-08 04:31:32.41	324.80	21.96	-23.7	-24.5	18.7	0.00e+00	0	43	0	1453326336	8	3915
2026-01-08 04:31:33.42	324.54	21.98	-23.6	-24.2	18.8	0.00e+00	0	43	0	1459617792	8	3865
2026-01-08 04:31:34.43	324.27	22.00	-23.5	-24.1	18.9	0.00e+00	0	43	0	1464860672	8	3818
2026-01-08 04:31:35.43	324.01	22.02	-23.4	-23.7	19.0	0.00e+00	0	43	0	1471152128	8	3748
2026-01-08 04:31:36.43	323.74	22.04	-23.5	-23.9	19.0	0.00e+00	0	43	0	1476395008	8	3780
2026-01-08 04:31:37.44	323.47	22.05	-23.5	-24.0	18.9	0.00e+00	0	43	0	1482686464	8	3823
2026-01-08 04:31:38.44	323.21	22.07	-23.7	-24.3	18.8	0.00e+00	0	43	0	1487929344	8	3885
2026-01-08 04:31:39.45	322.94	22.08	-23.7	-24.5	18.7	0.00e+00	0	43	0	1493172224	8	3922
2026-01-08 04:31:40.46	322.67	22.10	-23.7	-24.4	18.7	0.00e+00	0	43	0	1499463680	8	3904
2026-01-08 04:31:41.46	322.40	22.11	-23.7	-24.4	18.7	0.00e+00	0	43	0	1504706560	8	3905
2026-01-08 04:31:42.47	322.14	22.13	-23.5	-23.9	18.9	0.00e+00	0	43	0	1510998016	8	3798
2026-01-08 04:31:43.48	321.87	22.14	-23.4	-23.8	19.0	0.00e+00	0	43	0	1516240896	8	3764
2026-01-08 04:31:44.48	321.60	22.15	-23.4	-23.8	19.0	0.00e+00	0	43	0	1521483776	8	3762
2026-01-08 04:31:45.49	321.33	22.16	-23.4	-23.8	19.0	0.00e+00	0	43	0	1527775232	8	3754
2026-01-08 04:31:46.49	321.06	22.17	-23.4	-23.8	19.0	0.00e+00	0	43	0	1533018112	8	3764
2026-01-08 04:31:47.50	320.79	22.18	-23.4	-23.7	19.0	0.00e+00	0	43	0	1538260992	8	3753
2026-01-08 04:31:48.50	320.53	22.19	-23.3	-23.6	19.1	0.00e+00	0	43	0	1544552448	8	3719
2026-01-08 04:31:49.51	320.25	22.20	-23.3	-24.0	19.1	0.00e+00	0	43	0	1549795328	7	3922
2026-01-08 04:31:50.51	319.99	22.21	-23.3	-24.1	19.1	0.00e+00	0	43	0	1556086784	7	3932
2026-01-08 04:31:51.52	319.72	22.22	-23.3	-24.2	19.0	0.00e+00	0	43	0	1561329664	7	3959
2026-01-08 04:31:52.53	319.45	22.22	-23.3	-24.1	19.1	0.00e+00	0	43	0	1567621120	7	3949
2026-01-08 04:31:53.54	319.17	22.23	-23.4	-24.3	19.0	0.00e+00	0	43	0	1572864000	7	3992
2026-01-08 04:31:54.54	318.91	22.24	-23.5	-24.4	18.9	0.00e+00	0	43	0	1578106880	7	4019
2026-01-08 04:31:55.55	318.63	22.24	-23.5	-24.5	18.9	0.00e+00	0	43	0	1584398336	7	4041
2026-01-08 04:31:56.55	318.37	22.24	-23.6	-24.7	18.8	0.00e+00	0	43	0	1589641216	7	4073
2026-01-08 04:31:57.56	318.09	22.25	-23.7	-24.8	18.7	0.00e+00	0	43	0	1594884096	7	4118
2026-01-08 04:31:58.57	317.82	22.25	-23.6	-24.6	18.8	0.00e+00	0	43	0	1601175552	7	4068
2026-01-08 04:31:59.57	317.55	22.25	-23.4	-24.4	18.9	0.00e+00	0	43	0	1606418432	7	4006
2026-01-08 04:32:00.58	317.28	22.25	-23.5	-24.5	18.9	0.00e+00	0	43	0	1612709888	7	4035
2026-01-08 04:32:01.59	317.01	22.25	-23.4	-24.3	19.0	0.00e+00	0	43	0	1617952768	7	3994
2026-01-08 04:32:02.59	316.74	22.25	-23.2	-23.9	19.2	0.00e+00	0	43	0	1623195648	7	3885
2026-01-08 04:32:03.59	316.47	22.25	-23.2	-23.8	19.2	0.00e+00	0	43	0	1629487104	7	3871
2026-01-08 04:32:04.60	316.20	22.25	-23.3	-24.0	19.1	0.00e+00	0	43	0	1634729984	7	3923
2026-01-08 04:32:05.61	315.93	22.25	-23.3	-24.1	19.1	0.00e+00	0	43	0	1641021440	7	3943
2026-01-08 04:32:06.62	315.66	22.25	-23.3	-24.1	19.1	0.00e+00	0	43	0	1646264320	7	3941
2026-01-08 04:32:07.62	315.39	22.24	-23.4	-24.2	19.0	0.00e+00	0	43	0	1652555776	7	3974
2026-01-08 04:32:08.63	315.12	22.24	-23.4	-24.3	19.0	0.00e+00	0	43	0	1657798656	7	3981
2026-01-08 04:32:09.63	314.85	22.23	-23.5	-24.6	18.8	0.00e+00	0	43	0	1663041536	7	4050
2026-01-08 04:32:10.64	314.58	22.23	-23.4	-24.3	18.9	0.00e+00	0	43	0	1669332992	7	3992
2026-01-08 04:32:11.65	314.31	22.22	-23.4	-24.3	19.0	0.00e+00	0	43	0	1674575872	7	3982
2026-01-08 04:32:12.65	314.04	22.22	-23.4	-24.4	18.9	0.00e+00	0	43	0	1679818752	7	4007
2026-01-08 04:32:13.65	313.77	22.21	-23.6	-24.8	18.7	0.00e+00	0	43	0	1686110208	7	4104
2026-01-08 04:32:14.66	313.50	22.20	-23.7	-24.8	18.7	0.00e+00	0	43	0	1691353088	7	4114
2026-01-08 04:32:15.67	313.23	22.19	-23.6	-24.8	18.7	0.00e+00	0	43	0	1697644544	7	4099
2026-01-08 04:32:16.67	312.96	22.18	-23.7	-24.9	18.7	0.00e+00	0	43	0	1702887424	7	4124
2026-01-08 04:32:17.68	312.69	22.17	-23.6	-24.7	18.8	0.00e+00	0	43	0	1708130304	7	4080
2026-01-08 04:32:18.68	312.43	22.16	-23.5	-24.4	18.9	0.00e+00	0	43	0	1714421760	7	4016
2026-01-08 04:32:19.69	312.16	22.15	-23.5	-24.6	18.8	0.00e+00	0	43	0	1719664640	7	4052
2026-01-08 04:32:20.70	311.89	22.14	-23.5	-24.5	18.8	0.00e+00	0	43	0	1725956096	7	4045
2026-01-08 04:32:21.71	311.62	22.12	-23.5	-24.5	18.8	0.00e+00	0	43	0	1731198976	7	4036
2026-01-08 04:32:22.71	311.35	22.11	-23.3	-24.1	19.0	0.00e+00	0	43	0	1736441856	7	3941
2026-01-08 04:32:23.72	311.08	22.10	-23.2	-23.9	19.2	0.00e+00	0	43	0	1742733312	7	3884
2026-01-08 04:32:24.72	310.81	22.08	-23.3	-24.1	19.1	0.00e+00	0	43	0	1747976192	7	3931
2026-01-08 04:32:25.73	310.55	22.07	-23.3	-24.1	19.0	0.00e+00	0	43	0	1754267648	7	3936
2026-01-08 04:32:26.73	310.28	22.05	-23.3	-24.1	19.0	0.00e+00	0	43	0	1759510528	7	3947
2026-01-08 04:32:27.74	310.01	22.03	-23.4	-24.3	19.0	0.00e+00	0	43	0	1764753408	7	3984
2026-01-08 04:32:28.74	309.75	22.02	-23.5	-24.5	18.9	0.00e+00	0	43	0	1771044864	7	4034
2026-01-08 04:32:29.75	309.48	22.00	-23.5	-24.4	18.9	0.00e+00	0	43	0	1776287744	7	4021
2026-01-08 04:32:30.76	309.21	21.98	-23.5	-24.4	18.9	0.00e+00	0	43	0	1782579200	7	4015
2026-01-08 04:32:31.76	308.95	21.96	-23.5	-24.5	18.8	0.00e+00	0	43	0	1787822080	7	4045
2026-01-08 04:32:32.76	308.69	21.94	-23.5	-24.5	18.8	0.00e+00	0	43	0	1793064960	7	4029
2026-01-08 04:32:33.77	308.42	21.92	-23.6	-24.7	18.8	0.00e+00	0	43	0	1799356416	7	4075
2026-01-08 04:32:34.78	308.15	21.90	-23.4	-24.3	19.0	0.00e+00	0	43	0	1804599296	7	3994
2026-01-08 04:32:35.79	307.89	21.87	-23.3	-24.0	19.1	0.00e+00	0	43	0	1810890752	7	3920
2026-01-08 04:32:36.80	307.62	21.85	-23.3	-24.1	19.1	0.00e+00	0	43	0	1816133632	7	3941
2026-01-08 04:32:37.81	307.36	21.83	-23.4	-24.2	19.0	0.00e+00	0	43	0	1821376512	7	3965
2026-01-08 04:32:38.81	307.10	21.80	-23.4	-24.3	19.0	0.00e+00	0	43	0	1827667968	7	3981
2026-01-08 04:32:39.81	306.84	21.78	-23.4	-24.4	18.9	0.00e+00	0	43	0	1832910848	7	4004
2026-01-08 04:32:40.82	306.57	21.76	-23.3	-24.1	19.1	0.00e+00	0	43	0	1839202304	7	3939
2026-01-08 04:32:41.83	306.31	21.73	-23.3	-24.0	19.1	0.00e+00	0	43	0	1844445184	7	3918
2026-01-08 04:32:42.84	306.05	21.70	-23.3	-24.0	19.1	0.00e+00	0	43	0	1849688064	7	3905
2026-01-08 04:32:43.84	305.79	21.68	-23.3	-24.0	19.1	0.00e+00	0	43	0	1855979520	7	3910
2026-01-08 04:32:44.85	305.53	21.65	-23.4	-24.3	19.0	0.00e+00	0	43	0	1861222400	7	3990
2026-01-08 04:32:45.86	305.27	21.62	-23.4	-24.2	19.0	0.00e+00	0	43	0	1867513856	7	3964
2026-01-08 04:32:46.86	305.01	21.59	-23.6	-24.6	18.8	0.00e+00	0	43	0	1872756736	7	4070
2026-01-08 04:32:47.86	304.75	21.56	-23.5	-24.5	18.8	0.00e+00	0	43	0	1877999616	7	4046
2026-01-08 04:32:48.87	304.49	21.53	-23.6	-24.7	18.7	0.00e+00	0	43	0	1884291072	7	4091
2026-01-08 04:32:49.88	304.23	21.50	-23.8	-25.1	18.5	0.00e+00	0	43	0	1889533952	7	4185
2026-01-08 04:32:50.88	303.98	21.47	-23.6	-24.6	18.8	0.00e+00	0	43	0	1895825408	7	4060
2026-01-08 04:32:51.89	303.72	21.44	-23.4	-24.3	18.9	0.00e+00	0	43	0	1901068288	7	3979
2026-01-08 04:32:52.89	303.46	21.41	-23.4	-24.3	18.9	0.00e+00	0	43	0	1906311168	7	3976
2026-01-08 04:32:53.90	303.21	21.37	-23.4	-24.4	18.9	0.00e+00	0	43	0	1912602624	7	4002
2026-01-08 04:32:54.91	302.95	21.34	-23.5	-24.5	18.8	0.00e+00	0	43	0	1917845504	7	4039
2026-01-08 04:32:55.92	302.70	21.31	-23.3	-24.1	19.0	0.00e+00	0	43	0	1924136960	7	3946
2026-01-08 04:32:56.92	302.44	21.27	-23.2	-23.9	19.1	0.00e+00	0	43	0	1929379840	7	3887
2026-01-08 04:32:57.93	302.19	21.24	-23.3	-24.1	19.0	0.00e+00	0	43	0	1934622720	7	3939
2026-01-08 04:32:58.93	301.94	21.20	-23.4	-24.3	19.0	0.00e+00	0	43	0	1940914176	7	3977
2026-01-08 04:32:59.94	301.68	21.17	-23.6	-24.7	18.7	0.00e+00	0	43	0	1946157056	7	4088
2026-01-08 04:33:00.94	301.43	21.13	-23.7	-24.9	18.6	0.00e+00	0	43	0	1952448512	7	4129
2026-01-08 04:33:01.96	301.18	21.09	-23.7	-24.8	18.6	0.00e+00	0	43	0	1957691392	7	4115
2026-01-08 04:33:02.96	300.93	21.05	-23.8	-25.2	18.5	0.00e+00	0	43	0	1962934272	7	4205
2026-01-08 04:33:03.97	300.68	21.02	-23.6	-24.8	18.7	0.00e+00	0	43	0	1969225728	7	4105
2026-01-08 04:33:04.98	300.43	20.98	-23.6	-24.6	18.8	0.00e+00	0	43	0	1974468608	7	4063
2026-01-08 04:33:05.98	300.18	20.94	-23.7	-24.9	18.6	0.00e+00	0	43	0	1980760064	7	4142
2026-01-08 04:33:06.99	299.93	20.90	-23.7	-24.9	18.6	0.00e+00	0	43	0	1986002944	7	4129
2026-01-08 04:33:07.99	299.68	20.86	-23.7	-25.0	18.6	0.00e+00	0	43	0	1991245824	7	4155
2026-01-08 04:33:08.99	299.44	20.82	-23.9	-25.3	18.4	0.00e+00	0	43	0	1997537280	7	4234
2026-01-08 04:33:10.00	299.19	20.78	-23.8	-25.1	18.5	0.00e+00	0	43	0	2002780160	7	4180
2026-01-08 04:33:11.00	298.95	20.74	-23.7	-25.0	18.6	0.00e+00	0	43	0	2008023040	7	4150
2026-01-08 04:33:12.01	298.70	20.69	-23.8	-25.1	18.5	0.00e+00	0	43	0	2014314496	7	4174
2026-01-08 04:33:13.02	298.46	20.65	-23.6	-24.7	18.7	0.00e+00	0	43	0	2019557376	7	4098
2026-01-08 04:33:14.02	298.21	20.61	-23.6	-24.8	18.7	0.00e+00	0	43	0	2025848832	7	4098
2026-01-08 04:33:15.02	297.97	20.56	-23.7	-24.8	18.6	0.00e+00	0	43	0	2031091712	7	4122
2026-01-08 04:33:16.02	297.73	20.52	-23.6	-24.7	18.7	0.00e+00	0	43	0	2037383168	7	4097
2026-01-08 04:33:17.02	297.49	20.48	-23.8	-25.2	18.5	0.00e+00	0	43	0	2042626048	7	4203
2026-01-08 04:33:18.02	297.25	20.43	-23.7	-24.9	18.6	0.00e+00	0	43	0	2047868928	7	4127
2026-01-08 04:33:19.02	297.01	20.39	-23.8	-25.1	18.5	0.00e+00	0	43	0	2054160384	7	4177
2026-01-08 04:33:20.03	296.77	20.34	-23.8	-25.1	18.5	0.00e+00	0	43	0	2059403264	7	4186
2026-01-08 04:33:21.04	296.53	20.29	-23.9	-25.3	18.4	0.00e+00	0	43	0	2064646144	7	4228
2026-01-08 04:33:22.04	296.30	20.25	-23.8	-25.1	18.5	0.00e+00	0	43	0	2070937600	7	4181
2026-01-08 04:33:23.05	296.06	20.20	-23.8	-25.1	18.5	0.00e+00	0	43	0	2076180480	7	4177
2026-01-08 04:33:24.05	295.82	20.15	-23.9	-25.3	18.4	0.00e+00	0	43	0	2081423360	7	4225
2026-01-08 04:33:25.06	295.59	20.10	-23.8	-25.1	18.4	0.00e+00	0	43	0	2087714816	7	4196
2026-01-08 04:33:26.06	295.35	20.06	-23.9	-25.3	18.4	0.00e+00	0	43	0	2092957696	7	4227
2026-01-08 04:33:27.07	295.12	20.01	-24.1	-25.4	18.1	0.00e+00	0	43	0	2099249152	8	4138
2026-01-08 04:33:28.08	294.88	19.96	-24.5	-25.7	17.7	0.00e+00	0	43	0	2104492032	9	4102
2026-01-08 04:33:29.08	294.65	19.91	-24.3	-25.2	17.9	0.00e+00	0	43	0	2110783488	9	4000
2026-01-08 04:33:30.09	294.42	19.86	-24.3	-25.1	17.9	0.00e+00	0	43	0	2116026368	9	3972
2026-01-08 04:33:31.10	294.19	19.81	-24.2	-25.1	18.0	0.00e+00	0	43	0	2121269248	9	3954
2026-01-08 04:33:32.10	293.96	19.76	-24.1	-24.8	18.1	0.00e+00	0	43	0	2127560704	9	3904
2026-01-08 04:33:33.11	293.73	19.70	-24.2	-25.0	18.0	0.00e+00	0	43	0	2132803584	9	3937
2026-01-08 04:33:34.12	293.50	19.65	-24.0	-24.5	18.3	0.00e+00	0	43	0	2139095040	9	3829
2026-01-08 04:33:35.12	293.27	19.60	-24.1	-24.7	18.1	0.00e+00	0	43	0	2144337920	9	3875
2026-01-08 04:33:36.13	293.04	19.55	-23.9	-24.2	18.4	0.00e+00	0	43	0	2149580800	9	3761
2026-01-08 04:33:37.14	292.82	19.50	-23.8	-24.2	18.4	0.00e+00	0	43	0	2155872256	9	3756
2026-01-08 04:33:38.15	292.59	19.44	-24.1	-24.7	18.2	0.00e+00	0	43	0	2161115136	9	3861
2026-01-08 04:33:39.15	292.37	19.39	-23.9	-24.4	18.3	0.00e+00	0	43	0	2166358016	9	3794
2026-01-08 04:33:40.15	292.14	19.34	-23.9	-24.3	18.4	0.00e+00	0	43	0	2172649472	9	3780
2026-01-08 04:33:41.16	291.92	19.28	-23.9	-24.4	18.3	0.00e+00	0	43	0	2177892352	9	3792
2026-01-08 04:33:42.17	291.70	19.23	-23.9	-24.4	18.3	0.00e+00	0	43	0	2184183808	9	3805
2026-01-08 04:33:43.18	291.47	19.17	-24.1	-24.7	18.1	0.00e+00	0	43	0	2189426688	9	3873
2026-01-08 04:33:44.18	291.25	19.12	-24.1	-24.7	18.1	0.00e+00	0	43	0	2195718144	9	3867
2026-01-08 04:33:45.18	291.03	19.06	-24.2	-25.0	18.0	0.00e+00	0	43	0	2200961024	9	3939
2026-01-08 04:33:46.19	290.81	19.01	-24.2	-25.0	18.0	0.00e+00	0	43	0	2206203904	9	3933
2026-01-08 04:33:47.20	290.59	18.95	-24.2	-25.1	18.0	0.00e+00	0	43	0	2212495360	9	3955
2026-01-08 04:33:48.21	290.38	18.89	-24.2	-24.9	18.0	0.00e+00	0	43	0	2217738240	9	3928
2026-01-08 04:33:49.22	290.16	18.84	-24.3	-25.2	17.8	0.00e+00	0	43	0	2224029696	9	3989
2026-01-08 04:33:50.23	289.94	18.78	-24.3	-25.2	17.9	0.00e+00	0	43	0	2229272576	9	3992
2026-01-08 04:33:51.24	289.73	18.72	-24.4	-25.4	17.8	0.00e+00	0	43	0	2234515456	9	4035
2026-01-08 04:33:52.24	289.51	18.67	-24.3	-25.3	17.8	0.00e+00	0	43	0	2240806912	9	4008
2026-01-08 04:33:53.25	289.30	18.61	-24.3	-25.3	17.8	0.00e+00	0	43	0	2246049792	9	4010
2026-01-08 04:33:54.26	289.08	18.55	-24.5	-25.5	17.7	0.00e+00	0	43	0	2251292672	9	4062
2026-01-08 04:33:55.26	288.87	18.49	-24.5	-25.6	17.7	0.00e+00	0	43	0	2257584128	9	4087
2026-01-08 04:33:56.27	288.66	18.43	-24.6	-25.8	17.5	0.00e+00	0	43	0	2262827008	9	4144
2026-01-08 04:33:57.27	288.45	18.37	-24.6	-25.9	17.5	0.00e+00	0	43	0	2269118464	9	4176
2026-01-08 04:33:58.28	288.24	18.31	-24.7	-26.0	17.4	0.00e+00	0	43	0	2274361344	9	4187
2026-01-08 04:33:59.28	288.03	18.26	-24.7	-26.1	17.3	0.00e+00	0	43	0	2280652800	9	4228
2026-01-08 04:34:00.29	287.82	18.20	-24.7	-26.0	17.4	0.00e+00	0	43	0	2285895680	9	4195
2026-01-08 04:34:01.30	287.62	18.14	-24.6	-25.9	17.4	0.00e+00	0	43	0	2291138560	9	4164
2026-01-08 04:34:02.31	287.41	18.07	-24.4	-25.3	17.8	0.00e+00	0	43	0	2297430016	9	4013
2026-01-08 04:34:03.31	287.21	18.01	-24.2	-25.1	17.9	0.00e+00	0	43	0	2302672896	9	3956
2026-01-08 04:34:04.32	287.00	17.95	-24.3	-25.1	17.9	0.00e+00	0	43	0	2308964352	9	3978
2026-01-08 04:34:05.32	286.80	17.89	-24.4	-25.3	17.8	0.00e+00	0	43	0	2314207232	9	4022
2026-01-08 04:34:06.33	286.59	17.83	-24.4	-25.4	17.7	0.00e+00	0	43	0	2319450112	9	4038
2026-01-08 04:34:07.34	286.39	17.77	-24.5	-25.5	17.6	0.00e+00	0	43	0	2325741568	9	4077
2026-01-08 04:34:08.35	286.19	17.71	-24.5	-25.7	17.5	0.00e+00	0	43	0	2330984448	9	4129
2026-01-08 04:34:09.35	285.99	17.65	-24.5	-25.7	17.6	0.00e+00	0	43	0	2336227328	9	4109
2026-01-08 04:34:10.36	285.79	17.59	-24.6	-25.9	17.4	0.00e+00	0	43	0	2342518784	9	4181
2026-01-08 04:34:11.37	285.59	17.52	-24.7	-26.0	17.3	0.00e+00	0	43	0	2347761664	9	4191
2026-01-08 04:34:12.38	285.39	17.46	-24.7	-26.0	17.4	0.00e+00	0	43	0	2354053120	9	4183
2026-01-08 04:34:13.38	285.19	17.40	-24.6	-25.9	17.4	0.00e+00	0	43	0	2359296000	9	4175
2026-01-08 04:34:14.39	285.00	17.34	-24.7	-26.0	17.4	0.00e+00	0	43	0	2365587456	9	4203
2026-01-08 04:34:15.39	284.80	17.27	-24.6	-25.9	17.4	0.00e+00	0	43	0	2370830336	9	4159
2026-01-08 04:34:16.40	284.61	17.21	-24.5	-25.7	17.5	0.00e+00	0	43	0	2376073216	9	4103
2026-01-08 04:34:17.41	284.41	17.15	-24.7	-26.0	17.4	0.00e+00	0	43	0	2382364672	9	4197
2026-01-08 04:34:18.42	284.22	17.08	-24.8	-26.3	17.2	0.00e+00	0	43	0	2387607552	9	4267
2026-01-08 04:34:19.42	284.03	17.02	-24.7	-26.0	17.3	0.00e+00	0	43	0	2393899008	9	4202
2026-01-08 04:34:20.43	283.84	16.96	-24.6	-25.9	17.4	0.00e+00	0	43	0	2399141888	9	4177
2026-01-08 04:34:21.44	283.64	16.89	-24.7	-26.1	17.3	0.00e+00	0	43	0	2404384768	9	4221
2026-01-08 04:34:22.45	283.45	16.83	-24.8	-26.3	17.2	0.00e+00	0	43	0	2410676224	9	4256
2026-01-08 04:34:23.45	283.27	16.76	-24.7	-26.0	17.3	0.00e+00	0	43	0	2415919104	9	4198
2026-01-08 04:34:24.46	283.08	16.70	-24.8	-26.3	17.2	0.00e+00	0	43	0	2421161984	9	4274
2026-01-08 04:34:25.46	282.89	16.64	-24.9	-26.6	17.1	0.00e+00	0	43	0	2427453440	9	4343
2026-01-08 04:34:26.46	282.70	16.57	-25.0	-26.6	17.0	0.00e+00	0	43	0	2432696320	9	4364
2026-01-08 04:34:27.46	282.52	16.51	-25.2	-26.6	16.8	0.00e+00	0	43	0	2438987776	10	4240
2026-01-08 04:34:28.47	282.33	16.44	-25.1	-26.5	16.8	0.00e+00	0	43	0	2444230656	10	4202
2026-01-08 04:34:29.47	282.15	16.38	-24.8	-25.7	17.2	0.00e+00	0	43	0	2450522112	10	4011
2026-01-08 04:34:30.48	281.97	16.31	-24.6	-25.4	17.4	0.00e+00	0	43	0	2455764992	10	3942
2026-01-08 04:34:31.48	281.79	16.25	-24.7	-25.5	17.3	0.00e+00	0	43	0	2461007872	10	3967
2026-01-08 04:34:32.49	281.60	16.18	-24.8	-25.7	17.2	0.00e+00	0	43	0	2467299328	10	4005
2026-01-08 04:34:33.50	281.42	16.12	-24.8	-25.8	17.2	0.00e+00	0	43	0	2472542208	10	4040
2026-01-08 04:34:34.50	281.24	16.05	-24.9	-26.0	17.1	0.00e+00	0	43	0	2477785088	10	4088
2026-01-08 04:34:35.51	281.06	15.98	-24.9	-25.9	17.1	0.00e+00	0	43	0	2484076544	10	4071
2026-01-08 04:34:36.52	280.88	15.92	-25.0	-26.1	17.0	0.00e+00	0	43	0	2489319424	10	4114
2026-01-08 04:34:37.52	280.71	15.85	-24.9	-26.0	17.0	0.00e+00	0	43	0	2495610880	10	4082
2026-01-08 04:34:38.53	280.53	15.79	-24.7	-25.5	17.3	0.00e+00	0	43	0	2500853760	10	3955
2026-01-08 04:34:39.53	280.35	15.72	-24.6	-25.4	17.4	0.00e+00	0	43	0	2506096640	10	3925
2026-01-08 04:34:40.54	280.18	15.65	-24.7	-25.6	17.2	0.00e+00	0	43	0	2512388096	10	3982
2026-01-08 04:34:41.55	280.00	15.59	-24.8	-25.7	17.2	0.00e+00	0	43	0	2517630976	10	4004
2026-01-08 04:34:42.55	279.83	15.52	-24.8	-25.8	17.2	0.00e+00	0	43	0	2523922432	10	4024
2026-01-08 04:34:43.56	279.65	15.46	-24.8	-25.8	17.1	0.00e+00	0	43	0	2529165312	10	4043
2026-01-08 04:34:44.56	279.48	15.39	-24.9	-25.9	17.1	0.00e+00	0	43	0	2534408192	10	4065
2026-01-08 04:34:45.57	279.31	15.32	-24.9	-25.9	17.1	1.10e-06	0	43	0	2540699648	10	4060
2026-01-08 04:34:46.58	279.14	15.26	-24.8	-25.7	17.2	0.00e+00	0	43	0	2545942528	10	4008
2026-01-08 04:34:47.58	278.97	15.19	-24.8	-25.8	17.1	0.00e+00	0	43	0	2552233984	10	4037
2026-01-08 04:34:48.58	278.80	15.12	-24.9	-26.0	17.0	0.00e+00	0	43	0	2557476864	10	4089
2026-01-08 04:34:49.59	278.63	15.06	-24.9	-26.1	17.0	0.00e+00	0	43	0	2562719744	10	4108
2026-01-08 04:34:50.60	278.47	14.99	-24.9	-26.1	17.0	0.00e+00	0	43	0	2569011200	10	4114
2026-01-08 04:34:51.61	278.30	14.92	-25.0	-26.3	16.9	0.00e+00	0	43	0	2574254080	10	4155
2026-01-08 04:34:52.61	278.13	14.85	-25.0	-26.1	16.9	0.00e+00	0	43	0	2579496960	10	4121
2026-01-08 04:34:53.62	277.97	14.79	-24.8	-25.9	17.1	0.00e+00	0	43	0	2585788416	10	4053
2026-01-08 04:34:54.63	277.80	14.72	-24.8	-25.9	17.1	0.00e+00	0	43	0	2591031296	10	4053
2026-01-08 04:34:55.63	277.64	14.65	-24.9	-26.0	17.0	0.00e+00	0	43	0	2597322752	10	4080
2026-01-08 04:34:56.63	277.48	14.59	-25.0	-26.2	16.9	0.00e+00	0	43	0	2602565632	10	4124
2026-01-08 04:34:57.64	277.31	14.52	-25.0	-26.3	16.9	0.00e+00	0	43	0	2608857088	10	4148
2026-01-08 04:34:58.65	277.15	14.45	-25.1	-26.5	16.7	0.00e+00	0	43	0	2614099968	10	4219
2026-01-08 04:34:59.65	276.99	14.38	-25.2	-26.5	16.7	0.00e+00	0	43	0	2619342848	10	4224
2026-01-08 04:35:00.66	276.83	14.32	-25.1	-26.4	16.8	0.00e+00	0	43	0	2625634304	10	4201
2026-01-08 04:35:01.67	276.67	14.25	-25.1	-26.5	16.7	0.00e+00	0	43	0	2630877184	10	4213
2026-01-08 04:35:02.68	276.51	14.18	-25.2	-26.5	16.7	0.00e+00	0	43	0	2637168640	10	4229
2026-01-08 04:35:03.68	276.35	14.11	-25.1	-26.5	16.7	0.00e+00	0	43	0	2642411520	10	4223
2026-01-08 04:35:04.69	276.19	14.04	-25.3	-26.9	16.5	0.00e+00	0	43	0	2647654400	10	4328
2026-01-08 04:35:05.70	276.04	13.98	-25.4	-27.0	16.4	0.00e+00	0	43	0	2653945856	10	4352
2026-01-08 04:35:06.71	275.88	13.91	-25.3	-26.8	16.5	0.00e+00	0	43	0	2659188736	10	4303
2026-01-08 04:35:07.71	275.73	13.84	-25.4	-27.1	16.3	0.00e+00	0	43	0	2664431616	10	4382
2026-01-08 04:35:08.72	275.57	13.77	-25.4	-27.1	16.3	0.00e+00	0	43	0	2670723072	10	4378
2026-01-08 04:35:09.72	275.42	13.71	-25.4	-27.2	16.3	0.00e+00	0	43	0	2675965952	10	4400
2026-01-08 04:35:10.72	275.27	13.64	-25.4	-27.2	16.3	0.00e+00	0	43	0	2682257408	10	4392
2026-01-08 04:35:11.73	275.11	13.57	-25.4	-27.2	16.3	0.00e+00	0	43	0	2687500288	10	4395
2026-01-08 04:35:12.74	274.96	13.50	-25.5	-26.9	16.2	0.00e+00	0	43	0	2693791744	11	4198
2026-01-08 04:35:13.74	274.81	13.44	-25.8	-27.5	15.8	0.00e+00	0	43	0	2699034624	11	4378
2026-01-08 04:35:14.75	274.66	13.37	-25.8	-27.5	15.9	0.00e+00	0	43	0	2704277504	11	4362
2026-01-08 04:35:15.75	274.51	13.30	-25.8	-27.5	15.9	0.00e+00	0	43	0	2710568960	11	4358
2026-01-08 04:35:16.75	274.37	13.23	-25.7	-27.3	15.9	0.00e+00	0	43	0	2715811840	11	4326
2026-01-08 04:35:17.76	274.22	13.16	-25.7	-27.3	15.9	0.00e+00	0	43	0	2721054720	11	4324
2026-01-08 04:35:18.76	274.07	13.10	-25.8	-27.5	15.9	0.00e+00	0	43	0	2727346176	11	4360
2026-01-08 04:35:19.77	273.92	13.03	-25.8	-27.4	15.9	0.00e+00	0	43	0	2732589056	11	4344
2026-01-08 04:35:20.77	273.78	12.96	-25.9	-27.6	15.8	0.00e+00	0	43	0	2738880512	11	4397
2026-01-08 04:35:21.78	273.63	12.89	-25.7	-27.3	15.9	0.00e+00	0	43	0	2744123392	11	4324
2026-01-08 04:35:22.78	273.49	12.83	-25.6	-27.1	16.0	0.00e+00	0	43	0	2749366272	11	4270
2026-01-08 04:35:23.79	273.34	12.76	-25.5	-26.7	16.2	3.40e-06	0	43	0	2755657728	11	4160
2026-01-08 04:35:24.79	273.20	12.69	-25.4	-26.7	16.3	0.00e+00	0	43	0	2760900608	11	4158
2026-01-08 04:35:25.80	273.06	12.62	-25.6	-27.0	16.1	0.00e+00	0	43	0	2767192064	11	4242
2026-01-08 04:35:26.81	272.91	12.56	-25.5	-26.9	16.1	4.50e-06	0	43	0	2772434944	11	4210
2026-01-08 04:35:27.81	272.77	12.49	-25.6	-27.0	16.0	0.00e+00	0	43	0	2777677824	11	4245
2026-01-08 04:35:28.82	272.63	12.42	-25.6	-27.0	16.1	0.00e+00	0	43	0	2783969280	11	4252
2026-01-08 04:35:29.82	272.49	12.35	-25.7	-27.2	16.0	3.40e-06	0	43	0	2789212160	11	4289
2026-01-08 04:35:30.83	272.35	12.28	-25.6	-27.1	16.0	0.00e+00	0	43	0	2795503616	11	4253
2026-01-08 04:35:31.83	272.22	12.22	-25.7	-27.2	15.9	0.00e+00	0	43	0	2800746496	11	4297
2026-01-08 04:35:32.84	272.08	12.15	-25.7	-27.2	15.9	0.00e+00	0	43	0	2805989376	11	4287
2026-01-08 04:35:33.85	271.94	12.08	-25.8	-27.5	15.8	0.00e+00	0	43	0	2812280832	11	4361
2026-01-08 04:35:34.85	271.80	12.01	-25.8	-27.5	15.8	0.00e+00	0	43	0	2817523712	11	4364
2026-01-08 04:35:35.86	271.67	11.95	-25.7	-27.3	15.9	2.20e-06	0	43	0	2822766592	11	4315
2026-01-08 04:35:36.87	271.53	11.88	-25.8	-27.5	15.8	0.00e+00	0	43	0	2829058048	11	4362
2026-01-08 04:35:37.87	271.40	11.81	-25.7	-27.2	15.9	0.00e+00	0	43	0	2834300928	11	4302
2026-01-08 04:35:38.88	271.26	11.74	-25.7	-27.2	15.9	6.80e-06	0	43	0	2840592384	11	4301
2026-01-08 04:35:39.89	271.13	11.68	-25.7	-27.4	15.8	0.00e+00	0	43	0	2845835264	11	4335
2026-01-08 04:35:40.90	270.99	11.61	-25.7	-27.4	15.8	0.00e+00	0	43	0	2852126720	11	4338
2026-01-08 04:35:41.90	270.86	11.54	-25.8	-27.6	15.7	0.00e+00	0	43	0	2857369600	11	4396
2026-01-08 04:35:42.91	270.73	11.47	-25.9	-27.6	15.7	0.00e+00	0	43	0	2862612480	11	4415
2026-01-08 04:35:43.92	270.60	11.41	-25.9	-27.8	15.5	0.00e+00	0	43	0	2868903936	11	4467
2026-01-08 04:35:44.92	270.47	11.34	-25.9	-27.7	15.6	0.00e+00	0	43	0	2874146816	11	4422
2026-01-08 04:35:45.93	270.34	11.27	-25.9	-27.7	15.6	0.00e+00	0	43	0	2880438272	11	4440
2026-01-08 04:35:46.93	270.21	11.21	-25.8	-27.6	15.7	0.00e+00	0	43	0	2885681152	11	4395
2026-01-08 04:35:47.93	270.08	11.14	-25.9	-27.7	15.6	0.00e+00	0	43	0	2890924032	11	4443
2026-01-08 04:35:48.94	269.95	11.07	-25.9	-27.6	15.6	0.00e+00	0	43	0	2897215488	11	4413
2026-01-08 04:35:49.95	269.82	11.00	-26.0	-27.4	15.4	0.00e+00	0	43	0	2902458368	12	4236
2026-01-08 04:35:50.96	269.70	10.94	-26.2	-27.8	15.2	0.00e+00	0	43	0	2907701248	12	4343
2026-01-08 04:35:51.97	269.57	10.87	-26.1	-27.6	15.3	0.00e+00	0	43	0	2913992704	12	4292
2026-01-08 04:35:52.97	269.45	10.80	-26.0	-27.5	15.3	0.00e+00	0	43	0	2919235584	12	4264
2026-01-08 04:35:53.98	269.32	10.74	-26.0	-27.5	15.3	0.00e+00	0	43	0	2925527040	12	4279
2026-01-08 04:35:54.98	269.20	10.67	-26.1	-27.8	15.2	0.00e+00	0	43	0	2930769920	12	4348
2026-01-08 04:35:55.99	269.07	10.60	-26.2	-27.8	15.1	0.00e+00	0	43	0	2937061376	12	4370
2026-01-08 04:35:57.00	268.95	10.54	-26.1	-27.8	15.2	0.00e+00	0	43	0	2942304256	12	4348
2026-01-08 04:35:58.00	268.83	10.47	-26.2	-27.9	15.1	0.00e+00	0	43	0	2947547136	12	4384
2026-01-08 04:35:59.00	268.70	10.40	-26.3	-28.2	14.9	0.00e+00	0	43	0	2953838592	12	4464
2026-01-08 04:36:00.01	268.58	10.34	-26.1	-27.7	15.1	0.00e+00	0	43	0	2959081472	12	4335
2026-01-08 04:36:01.01	268.46	10.27	-26.1	-27.6	15.2	0.00e+00	0	43	0	2964324352	12	4307
2026-01-08 04:36:02.02	268.34	10.20	-26.1	-27.7	15.1	0.00e+00	0	43	0	2970615808	12	4328
2026-01-08 04:36:03.03	268.22	10.14	-26.3	-28.2	14.9	0.00e+00	0	43	0	2975858688	12	4461
2026-01-08 04:36:04.03	268.10	10.07	-26.2	-28.0	15.0	0.00e+00	0	43	0	2982150144	12	4402
2026-01-08 04:36:05.04	267.98	10.00	-26.3	-28.2	14.9	0.00e+00	0	43	0	2987393024	12	4452
2026-01-08 04:36:06.05	267.86	9.94	-26.5	-28.6	14.7	1.10e-06	0	43	0	2992635904	12	4581
2026-01-08 04:36:07.06	267.74	9.87	-26.4	-28.4	14.8	0.00e+00	0	43	0	2998927360	12	4535
2026-01-08 04:36:08.06	267.63	9.81	-26.6	-28.3	14.5	0.00e+00	0	43	0	3004170240	13	4388
2026-01-08 04:36:09.07	267.51	9.74	-26.7	-28.5	14.4	0.00e+00	0	43	0	3010461696	13	4453
2026-01-08 04:36:10.08	267.39	9.67	-26.5	-28.1	14.6	0.00e+00	0	43	0	3015704576	13	4333
2026-01-08 04:36:11.08	267.28	9.61	-26.5	-28.1	14.6	0.00e+00	0	43	0	3021996032	13	4325
2026-01-08 04:36:12.09	267.16	9.54	-26.7	-28.5	14.3	0.00e+00	0	43	0	3027238912	13	4451
2026-01-08 04:36:13.10	267.05	9.48	-26.6	-28.4	14.4	2.20e-06	0	43	0	3032481792	13	4412
2026-01-08 04:36:14.10	266.93	9.41	-26.8	-28.7	14.2	0.00e+00	0	43	0	3038773248	13	4496
2026-01-08 04:36:15.10	266.82	9.35	-26.6	-28.4	14.4	0.00e+00	0	43	0	3044016128	13	4399
2026-01-08 04:36:16.11	266.71	9.28	-26.6	-28.4	14.4	0.00e+00	0	43	0	3049259008	13	4424
2026-01-08 04:36:17.12	266.59	9.21	-26.9	-29.0	14.1	3.40e-06	0	43	0	3055550464	13	4581
2026-01-08 04:36:18.13	266.48	9.15	-26.8	-28.7	14.2	1.10e-06	0	43	0	3060793344	13	4521
2026-01-08 04:36:19.13	266.37	9.08	-26.6	-28.4	14.4	0.00e+00	0	43	0	3067084800	13	4426
2026-01-08 04:36:20.14	266.26	9.02	-26.6	-28.3	14.4	2.20e-06	0	43	0	3072327680	13	4398
2026-01-08 04:36:21.15	266.15	8.95	-26.6	-28.3	14.5	2.20e-06	0	43	0	3077570560	13	4395
2026-01-08 04:36:22.16	266.04	8.89	-26.6	-28.3	14.5	0.00e+00	0	43	0	3083862016	13	4390
2026-01-08 04:36:23.16	265.93	8.82	-26.5	-28.1	14.6	0.00e+00	0	43	0	3089104896	13	4322
2026-01-08 04:36:24.17	265.82	8.76	-26.6	-28.3	14.4	0.00e+00	0	43	0	3095396352	13	4384
2026-01-08 04:36:25.18	265.71	8.69	-26.6	-28.4	14.4	0.00e+00	0	43	0	3100639232	13	4403
2026-01-08 04:36:26.18	265.60	8.63	-26.6	-28.3	14.4	0.00e+00	0	43	0	3106930688	13	4387
2026-01-08 04:36:27.19	265.50	8.56	-26.7	-28.5	14.3	0.00e+00	0	43	0	3112173568	13	4453
2026-01-08 04:36:28.19	265.39	8.50	-26.7	-28.7	14.2	0.00e+00	0	43	0	3117416448	13	4507
2026-01-08 04:36:29.19	265.28	8.43	-26.9	-29.0	14.0	3.40e-06	0	43	0	3123707904	13	4595
2026-01-08 04:36:30.20	265.18	8.37	-26.8	-28.9	14.0	0.00e+00	0	43	0	3128950784	13	4566
2026-01-08 04:36:31.20	265.07	8.30	-26.9	-29.1	13.9	1.10e-06	0	43	0	3134193664	13	4622
2026-01-08 04:36:32.21	264.97	8.24	-26.9	-29.2	13.9	3.40e-06	0	43	0	3140485120	13	4650
2026-01-08 04:36:33.21	264.86	8.18	-27.1	-29.0	13.7	3.40e-06	0	43	0	3145728000	14	4495
2026-01-08 04:36:34.21	264.76	8.11	-27.3	-29.5	13.4	1.48e-05	0	43	0	3150970880	14	4629
2026-01-08 04:36:35.22	264.65	8.05	-27.0	-28.8	13.8	3.40e-06	0	43	0	3157262336	14	4433
2026-01-08 04:36:36.23	264.55	7.98	-26.9	-28.5	14.0	0.00e+00	0	43	0	3162505216	14	4334
2026-01-08 04:36:37.24	264.45	7.92	-26.8	-28.3	14.1	3.40e-06	0	44	0	3168796672	14	4299
2026-01-08 04:36:38.24	264.35	7.85	-26.9	-28.6	13.9	2.20e-06	0	43	0	3174039552	14	4362
2026-01-08 04:36:39.25	264.24	7.79	-26.9	-28.5	14.0	1.10e-06	0	43	0	3180331008	14	4331
2026-01-08 04:36:40.25	264.14	7.73	-26.9	-28.5	14.0	0.00e+00	0	43	0	3185573888	14	4332
2026-01-08 04:36:41.26	264.04	7.66	-26.9	-28.6	13.9	8.00e-06	0	43	0	3190816768	14	4366
2026-01-08 04:36:42.27	263.94	7.60	-26.9	-28.5	13.9	0.00e+00	0	43	0	3197108224	14	4349
2026-01-08 04:36:43.27	263.84	7.54	-26.8	-28.4	13.9	1.10e-06	0	43	0	3202351104	14	4325
2026-01-08 04:36:44.28	263.74	7.47	-26.9	-28.5	13.9	1.10e-06	0	43	0	3208642560	14	4349
2026-01-08 04:36:45.28	263.64	7.41	-27.0	-28.7	13.8	2.20e-06	0	43	0	3213885440	14	4412
2026-01-08 04:36:46.29	263.54	7.34	-26.9	-28.6	13.8	0.00e+00	0	43	0	3219128320	14	4372
2026-01-08 04:36:47.29	263.45	7.28	-26.9	-28.6	13.9	0.00e+00	0	43	0	3225419776	14	4364
2026-01-08 04:36:48.30	263.35	7.22	-26.9	-28.7	13.8	0.00e+00	0	43	0	3230662656	14	4387
2026-01-08 04:36:49.31	263.25	7.15	-26.9	-28.6	13.8	1.10e-06	0	43	0	3235905536	14	4360
2026-01-08 04:36:50.32	263.15	7.09	-31.2	-36.5	7.0	3.71e-04	0	43	0	3242196992	22	6618
2026-01-08 04:36:51.32	263.06	7.03	-33.0	-44.1	3.8	8.45e-01	0	43	104	3242196992	26	12866

#Closed at: 2026-01-08 04:36:52
#Recorded file [3242 MB]: D:/data/31010_260108_072713.dat