passes_logs/2026/01/08/R2M6_AANII_01/R2M6_AANII_01__20260108_113958_SUOMI_NPP_rec.log

#Pass ID: 20260108_113958_SUOMI NPP
#Satellite: SUOMI NPP
#Configuration: NPP
#almurnet v.1.7.20240730
#Start time: 2026-01-08 11:39:58

#Version: 2.2.20231116
#Station: R2M6_AANII_01
#Location: 30.233357 lon 59.946436 lat
#TLE: 1 37849U 11061A   26005.94084933  .00000134  00000+0  84554-4 0  9990
#TLE: 2 37849  98.7803 308.0679 0002567  79.1029 281.0436 14.19522657735426

#Time	Az	El	Level	Level2	SNR	BER	BlckErr	Temp	State	Recorded	gain1	gain2
2026-01-08 11:39:58.62	201.23	7.01	-29.5	-34.2	4.8	1.31e+00	0	40	0	0	20	6163
2026-01-08 11:39:59.62	201.31	7.07	-29.9	-36.1	4.4	1.38e+00	0	41	104	0	20	7305
2026-01-08 11:40:00.62	201.39	7.14	-29.8	-35.4	6.0	3.81e-01	0	41	0	0	20	6886
2026-01-08 11:40:01.62	201.46	7.21	-29.7	-35.3	6.0	3.13e-01	0	41	0	1048576	20	6841
2026-01-08 11:40:02.64	201.54	7.28	-29.7	-35.2	6.0	3.64e-01	0	41	0	3145728	20	6772
2026-01-08 11:40:03.64	201.62	7.35	-29.7	-34.7	6.5	2.74e-01	0	41	0	5242880	20	6403
2026-01-08 11:40:04.65	201.70	7.42	-29.8	-34.2	7.2	1.76e-01	0	41	0	7340032	20	6024
2026-01-08 11:40:05.65	201.78	7.49	-29.9	-34.1	7.9	9.40e-02	0	41	0	9437184	20	5815
2026-01-08 11:40:06.66	201.86	7.56	-30.1	-34.1	8.6	5.28e-02	0	41	0	10485760	20	5662
2026-01-08 11:40:07.66	201.94	7.63	-30.2	-34.1	8.9	2.90e-02	0	41	0	12582912	20	5599
2026-01-08 11:40:08.67	202.02	7.70	-30.4	-34.7	8.4	3.58e-02	0	41	0	14680064	20	5901
2026-01-08 11:40:09.68	202.10	7.77	-30.5	-34.5	9.0	3.96e-02	0	41	0	16777216	20	5736
2026-01-08 11:40:10.69	202.18	7.84	-30.5	-33.7	9.8	1.55e-02	0	41	0	18874368	21	5168
2026-01-08 11:40:11.70	202.26	7.91	-30.6	-33.5	10.3	5.61e-03	0	41	0	19922944	21	5058
2026-01-08 11:40:12.70	202.34	7.98	-30.5	-33.2	10.7	3.18e-03	0	41	0	22020096	21	4899
2026-01-08 11:40:13.71	202.42	8.06	-30.6	-33.3	10.7	3.13e-03	0	41	0	24117248	21	4925
2026-01-08 11:40:14.72	202.51	8.13	-30.6	-33.2	10.8	2.80e-03	0	41	0	26214400	21	4910
2026-01-08 11:40:15.72	202.59	8.20	-30.6	-33.4	10.6	2.56e-03	0	41	0	28311552	21	4984
2026-01-08 11:40:16.73	202.67	8.27	-30.6	-33.5	10.7	3.50e-03	0	41	0	29360128	21	4987
2026-01-08 11:40:17.74	202.76	8.34	-30.6	-33.2	10.9	2.44e-03	0	41	0	31457280	21	4889
2026-01-08 11:40:18.75	202.84	8.41	-30.5	-33.1	11.0	1.97e-03	0	41	0	33554432	21	4817
2026-01-08 11:40:19.75	202.92	8.49	-30.5	-33.1	11.0	1.87e-03	0	41	0	35651584	21	4834
2026-01-08 11:40:20.76	203.01	8.56	-30.6	-33.2	10.9	2.11e-03	0	41	0	37748736	21	4870
2026-01-08 11:40:21.77	203.10	8.63	-30.5	-33.0	11.1	2.13e-03	0	41	0	38797312	21	4799
2026-01-08 11:40:22.77	203.18	8.70	-30.4	-32.8	11.1	2.02e-03	0	41	0	40894464	21	4728
2026-01-08 11:40:23.78	203.27	8.78	-30.6	-33.4	10.6	2.03e-03	0	41	0	42991616	21	4986
2026-01-08 11:40:24.79	203.35	8.85	-30.5	-33.1	10.9	2.32e-03	0	41	0	45088768	21	4860
2026-01-08 11:40:25.80	203.44	8.92	-30.4	-32.8	11.1	1.77e-03	0	42	0	47185920	21	4733
2026-01-08 11:40:26.79	203.53	8.99	-30.5	-32.9	11.1	1.66e-03	0	41	0	48234496	21	4758
2026-01-08 11:40:27.80	203.61	9.07	-30.4	-32.7	11.1	1.66e-03	0	41	0	50331648	21	4693
2026-01-08 11:40:28.80	203.70	9.14	-30.6	-33.3	10.7	1.71e-03	0	41	0	52428800	21	4952
2026-01-08 11:40:29.81	203.79	9.22	-30.5	-33.0	11.0	1.82e-03	0	42	0	54525952	21	4792
2026-01-08 11:40:30.81	203.88	9.29	-30.4	-32.6	11.3	1.66e-03	0	42	0	56623104	21	4665
2026-01-08 11:40:31.82	203.97	9.36	-30.4	-32.5	11.4	9.87e-04	0	42	0	57671680	21	4614
2026-01-08 11:40:32.82	204.06	9.44	-30.4	-32.6	11.4	7.90e-04	0	42	0	59768832	21	4643
2026-01-08 11:40:33.83	204.15	9.51	-30.3	-32.4	11.5	1.02e-03	0	42	0	61865984	21	4562
2026-01-08 11:40:34.84	204.24	9.59	-30.3	-32.2	11.6	6.68e-04	0	42	0	63963136	21	4495
2026-01-08 11:40:35.84	204.33	9.66	-30.3	-32.1	11.7	7.19e-04	0	42	0	66060288	21	4479
2026-01-08 11:40:36.85	204.42	9.73	-30.4	-32.4	11.5	7.80e-04	0	42	0	67108864	21	4576
2026-01-08 11:40:37.86	204.51	9.81	-30.2	-32.1	11.7	8.76e-04	0	42	0	69206016	21	4457
2026-01-08 11:40:38.86	204.61	9.88	-30.1	-31.8	11.9	4.59e-04	0	42	0	71303168	21	4359
2026-01-08 11:40:39.86	204.70	9.96	-30.0	-31.4	12.2	3.71e-04	0	42	0	73400320	21	4218
2026-01-08 11:40:40.88	204.79	10.04	-30.1	-31.6	12.1	3.15e-04	0	42	0	75497472	21	4276
2026-01-08 11:40:41.88	204.89	10.11	-30.0	-31.3	12.3	2.20e-04	0	42	0	76546048	21	4185
2026-01-08 11:40:42.89	204.98	10.19	-30.1	-31.6	12.2	1.27e-04	0	42	0	78643200	21	4284
2026-01-08 11:40:43.90	205.08	10.26	-30.0	-31.3	12.4	1.70e-04	0	42	0	80740352	21	4164
2026-01-08 11:40:44.91	205.17	10.34	-30.0	-31.1	12.6	8.54e-05	0	42	0	82837504	21	4127
2026-01-08 11:40:45.92	205.27	10.42	-29.9	-31.1	12.6	1.43e-04	0	42	0	84934656	21	4124
2026-01-08 11:40:46.92	205.36	10.49	-29.9	-30.9	12.7	7.85e-05	0	42	0	85983232	21	4049
2026-01-08 11:40:47.93	205.46	10.57	-29.9	-31.0	12.7	6.10e-05	0	42	0	88080384	21	4081
2026-01-08 11:40:48.94	205.56	10.65	-29.9	-30.9	12.8	7.85e-05	0	42	0	90177536	21	4054
2026-01-08 11:40:49.95	205.66	10.72	-30.0	-31.3	12.5	9.84e-05	0	42	0	92274688	21	4168
2026-01-08 11:40:50.95	205.76	10.80	-30.0	-31.4	12.5	1.05e-04	0	42	0	94371840	21	4196
2026-01-08 11:40:51.96	205.85	10.88	-30.1	-31.6	12.3	1.28e-04	0	42	0	95420416	21	4283
2026-01-08 11:40:52.96	205.95	10.95	-29.9	-31.0	12.8	1.45e-04	0	42	0	97517568	21	4080
2026-01-08 11:40:53.96	206.05	11.03	-29.8	-30.7	12.9	6.86e-05	0	42	0	99614720	21	3996
2026-01-08 11:40:54.96	206.15	11.11	-29.9	-31.0	12.8	5.41e-05	0	42	0	101711872	21	4069
2026-01-08 11:40:55.97	206.25	11.19	-29.9	-30.9	12.8	5.56e-05	0	42	0	103809024	21	4056
2026-01-08 11:40:56.97	206.35	11.26	-29.8	-31.1	13.0	3.12e-05	0	42	0	104857600	20	4205
2026-01-08 11:40:57.97	206.45	11.34	-30.0	-31.8	12.6	8.54e-05	0	42	0	106954752	20	4411
2026-01-08 11:40:58.98	206.56	11.42	-29.8	-31.1	13.0	7.32e-05	0	42	0	109051904	20	4200
2026-01-08 11:40:59.99	206.66	11.50	-29.7	-30.8	13.2	3.28e-05	0	42	0	111149056	20	4116
2026-01-08 11:41:01.00	206.76	11.58	-29.7	-30.9	13.2	2.13e-05	0	42	0	113246208	20	4139
2026-01-08 11:41:02.00	206.87	11.66	-29.7	-30.9	13.2	2.82e-05	0	42	0	114294784	20	4112
2026-01-08 11:41:03.01	206.97	11.74	-29.9	-31.3	12.9	4.57e-05	0	42	0	116391936	20	4263
2026-01-08 11:41:04.02	207.08	11.82	-29.8	-31.0	13.2	3.20e-05	0	42	0	118489088	20	4167
2026-01-08 11:41:05.02	207.18	11.90	-29.9	-31.4	12.9	5.26e-05	0	42	0	120586240	20	4287
2026-01-08 11:41:06.02	207.29	11.97	-30.0	-31.8	12.7	6.10e-05	0	42	0	122683392	20	4407
2026-01-08 11:41:07.02	207.39	12.05	-30.0	-31.7	12.7	5.03e-05	0	42	0	123731968	20	4374
2026-01-08 11:41:08.03	207.50	12.13	-30.1	-31.9	12.6	7.62e-05	0	42	0	125829120	20	4440
2026-01-08 11:41:09.03	207.61	12.21	-30.2	-32.1	12.4	8.77e-05	0	42	0	127926272	20	4519
2026-01-08 11:41:10.04	207.72	12.29	-30.0	-31.8	12.6	1.18e-04	0	43	0	130023424	20	4407
2026-01-08 11:41:11.04	207.83	12.37	-30.1	-31.8	12.6	4.95e-05	0	42	0	131072000	20	4412
2026-01-08 11:41:12.05	207.94	12.46	-30.0	-31.8	12.7	7.01e-05	0	42	0	133169152	20	4399
2026-01-08 11:41:13.05	208.04	12.54	-30.0	-31.7	12.7	1.14e-04	0	42	0	135266304	20	4382
2026-01-08 11:41:14.06	208.16	12.62	-29.9	-31.3	13.0	7.01e-05	0	42	0	137363456	20	4239
2026-01-08 11:41:15.06	208.27	12.70	-29.8	-31.1	13.1	2.36e-05	0	42	0	139460608	20	4182
2026-01-08 11:41:16.07	208.38	12.78	-29.8	-31.1	13.2	2.05e-05	0	42	0	141557760	20	4170
2026-01-08 11:41:17.07	208.49	12.86	-29.8	-31.1	13.3	1.75e-05	0	43	0	142606336	20	4166
2026-01-08 11:41:18.07	208.60	12.94	-29.7	-30.7	13.4	1.06e-05	0	43	0	144703488	20	4067
2026-01-08 11:41:19.08	208.72	13.02	-29.6	-30.7	13.5	1.52e-05	0	43	0	146800640	20	4044
2026-01-08 11:41:20.09	208.83	13.11	-29.7	-30.7	13.5	8.30e-06	0	43	0	148897792	20	4068
2026-01-08 11:41:21.09	208.95	13.19	-29.7	-30.8	13.4	1.52e-05	0	42	0	149946368	20	4076
2026-01-08 11:41:22.10	209.06	13.27	-29.6	-30.4	13.7	2.28e-05	0	43	0	152043520	20	3970
2026-01-08 11:41:23.11	209.18	13.35	-29.5	-30.3	13.7	9.90e-06	0	43	0	154140672	20	3937
2026-01-08 11:41:24.12	209.30	13.44	-29.6	-30.6	13.5	6.80e-06	0	42	0	156237824	20	4038
2026-01-08 11:41:25.12	209.41	13.52	-29.5	-30.4	13.7	1.14e-05	0	43	0	158334976	20	3957
2026-01-08 11:41:26.12	209.53	13.60	-29.6	-30.4	13.7	5.30e-06	0	43	0	159383552	20	3986
2026-01-08 11:41:27.13	209.65	13.69	-29.6	-30.5	13.6	1.14e-05	0	43	0	161480704	20	4011
2026-01-08 11:41:28.14	209.77	13.77	-29.6	-30.5	13.7	3.80e-06	0	43	0	163577856	20	3995
2026-01-08 11:41:29.15	209.89	13.85	-29.7	-30.9	13.4	6.10e-06	0	43	0	165675008	20	4100
2026-01-08 11:41:30.15	210.01	13.94	-29.7	-30.9	13.4	1.37e-05	0	43	0	167772160	20	4100
2026-01-08 11:41:31.16	210.13	14.02	-29.9	-31.4	13.1	2.05e-05	0	43	0	168820736	20	4273
2026-01-08 11:41:32.17	210.25	14.11	-30.0	-31.5	13.0	2.67e-05	0	43	0	170917888	20	4302
2026-01-08 11:41:33.17	210.37	14.19	-30.0	-31.6	13.0	2.36e-05	0	43	0	173015040	20	4321
2026-01-08 11:41:34.18	210.50	14.27	-30.2	-32.1	12.7	6.33e-05	0	43	0	175112192	20	4488
2026-01-08 11:41:35.18	210.62	14.36	-30.2	-32.0	12.7	5.72e-05	0	43	0	177209344	20	4455
2026-01-08 11:41:36.18	210.74	14.44	-30.3	-32.3	12.5	7.78e-05	0	43	0	178257920	20	4563
2026-01-08 11:41:37.19	210.87	14.53	-30.2	-32.0	12.7	8.16e-05	0	43	0	180355072	20	4460
2026-01-08 11:41:38.19	211.00	14.61	-30.1	-31.8	12.8	6.17e-05	0	43	0	182452224	20	4396
2026-01-08 11:41:39.20	211.12	14.70	-30.0	-31.6	13.1	3.28e-05	0	43	0	184549376	20	4310
2026-01-08 11:41:40.21	211.25	14.79	-30.1	-31.8	12.9	7.09e-05	0	43	0	186646528	20	4384
2026-01-08 11:41:41.22	211.38	14.87	-30.1	-31.7	12.9	6.33e-05	0	43	0	187695104	20	4366
2026-01-08 11:41:42.22	211.51	14.96	-30.0	-31.5	13.1	2.21e-05	0	43	0	189792256	20	4306
2026-01-08 11:41:43.23	211.64	15.04	-29.9	-31.4	13.2	2.67e-05	0	43	0	191889408	20	4258
2026-01-08 11:41:44.24	211.77	15.13	-29.9	-31.3	13.3	3.35e-05	0	43	0	193986560	20	4216
2026-01-08 11:41:45.24	211.90	15.22	-30.0	-31.6	13.0	2.89e-05	0	43	0	196083712	20	4326
2026-01-08 11:41:46.25	212.03	15.30	-30.2	-32.1	12.8	4.80e-05	0	43	0	197132288	20	4483
2026-01-08 11:41:47.25	212.16	15.39	-30.1	-31.8	12.9	3.50e-05	0	43	0	199229440	20	4381
2026-01-08 11:41:48.26	212.30	15.48	-30.1	-31.8	12.9	5.11e-05	0	42	0	201326592	20	4396
2026-01-08 11:41:49.27	212.43	15.56	-30.2	-32.2	12.7	6.71e-05	0	43	0	203423744	20	4514
2026-01-08 11:41:50.27	212.56	15.65	-30.1	-31.9	12.8	8.62e-05	0	43	0	205520896	20	4424
2026-01-08 11:41:51.28	212.70	15.74	-30.2	-32.2	12.7	8.69e-05	0	43	0	206569472	20	4514
2026-01-08 11:41:52.28	212.84	15.83	-30.4	-32.7	12.4	1.01e-04	0	43	0	208666624	20	4676
2026-01-08 11:41:53.29	212.97	15.91	-30.3	-32.4	12.6	1.20e-04	0	43	0	210763776	20	4582
2026-01-08 11:41:54.29	213.11	16.00	-30.1	-31.8	12.9	8.62e-05	0	43	0	212860928	20	4378
2026-01-08 11:41:55.30	213.25	16.09	-30.1	-31.8	13.0	5.95e-05	0	43	0	214958080	20	4361
2026-01-08 11:41:56.31	213.39	16.18	-30.2	-32.0	12.9	4.34e-05	0	43	0	216006656	20	4432
2026-01-08 11:41:57.32	213.53	16.27	-30.2	-32.0	12.9	5.49e-05	0	43	0	218103808	20	4430
2026-01-08 11:41:58.32	213.67	16.35	-30.1	-31.8	13.0	2.74e-05	0	43	0	220200960	20	4362
2026-01-08 11:41:59.33	213.81	16.44	-30.3	-32.2	12.7	4.65e-05	0	43	0	222298112	20	4505
2026-01-08 11:42:00.34	213.96	16.53	-30.0	-31.6	13.1	4.57e-05	0	43	0	224395264	20	4295
2026-01-08 11:42:01.35	214.10	16.62	-30.1	-31.8	13.0	3.35e-05	0	43	0	225443840	20	4385
2026-01-08 11:42:02.35	214.24	16.71	-30.2	-32.0	12.8	4.19e-05	0	43	0	227540992	20	4448
2026-01-08 11:42:03.36	214.39	16.80	-30.2	-32.0	12.9	3.20e-05	0	43	0	229638144	20	4433
2026-01-08 11:42:04.36	214.53	16.89	-30.1	-31.9	12.9	5.03e-05	0	43	0	231735296	20	4413
2026-01-08 11:42:05.37	214.68	16.98	-30.1	-31.8	13.0	5.72e-05	0	43	0	233832448	20	4360
2026-01-08 11:42:06.38	214.83	17.07	-30.3	-32.2	12.7	8.62e-05	0	43	0	234881024	20	4506
2026-01-08 11:42:07.38	214.98	17.16	-30.2	-32.0	12.9	4.65e-05	0	43	0	236978176	20	4430
2026-01-08 11:42:08.39	215.13	17.25	-30.4	-32.5	12.5	7.62e-05	0	43	0	239075328	20	4605
2026-01-08 11:42:09.40	215.28	17.34	-30.3	-32.3	12.7	8.39e-05	0	43	0	241172480	20	4545
2026-01-08 11:42:10.40	215.43	17.43	-30.2	-32.1	12.9	7.32e-05	0	43	0	243269632	20	4460
2026-01-08 11:42:11.40	215.58	17.52	-30.4	-32.5	12.6	9.99e-05	0	43	0	244318208	20	4610
2026-01-08 11:42:12.41	215.73	17.61	-30.5	-32.7	12.4	1.27e-04	0	43	0	246415360	20	4680
2026-01-08 11:42:13.41	215.89	17.70	-30.5	-32.8	12.4	1.14e-04	0	43	0	248512512	20	4692
2026-01-08 11:42:14.41	216.04	17.79	-30.2	-32.1	12.7	1.02e-04	0	43	0	250609664	20	4481
2026-01-08 11:42:15.42	216.20	17.88	-30.1	-31.9	13.0	8.31e-05	0	43	0	252706816	20	4386
2026-01-08 11:42:16.41	216.35	17.97	-30.2	-31.9	13.0	5.11e-05	0	43	0	253755392	20	4415
2026-01-08 11:42:17.41	216.51	18.06	-30.2	-32.1	12.8	4.73e-05	0	43	0	255852544	20	4478
2026-01-08 11:42:18.41	216.66	18.16	-30.3	-32.3	12.7	7.09e-05	0	43	0	257949696	20	4526
2026-01-08 11:42:19.41	216.82	18.25	-30.1	-31.8	13.0	2.74e-05	0	43	0	260046848	20	4373
2026-01-08 11:42:20.41	216.98	18.34	-30.0	-31.5	13.2	3.12e-05	0	43	0	261095424	20	4284
2026-01-08 11:42:21.42	217.14	18.43	-30.1	-31.7	13.1	3.35e-05	0	43	0	263192576	20	4332
2026-01-08 11:42:22.42	217.30	18.52	-30.1	-31.9	13.0	4.04e-05	0	43	0	265289728	20	4384
2026-01-08 11:42:23.43	217.47	18.61	-30.2	-31.9	13.0	4.42e-05	0	43	0	267386880	20	4406
2026-01-08 11:42:24.44	217.63	18.71	-30.1	-31.8	13.1	4.42e-05	0	43	0	269484032	20	4366
2026-01-08 11:42:25.44	217.80	18.80	-30.1	-31.7	13.1	2.13e-05	0	43	0	271581184	20	4320
2026-01-08 11:42:26.43	217.96	18.89	-30.0	-31.5	13.3	3.12e-05	0	43	0	272629760	20	4257
2026-01-08 11:42:27.44	218.13	18.98	-29.9	-31.1	13.6	2.89e-05	0	43	0	274726912	20	4146
2026-01-08 11:42:28.44	218.29	19.07	-29.8	-31.0	13.7	7.60e-06	0	43	0	276824064	20	4113
2026-01-08 11:42:29.45	218.46	19.17	-29.9	-31.2	13.5	6.80e-06	0	43	0	278921216	20	4179
2026-01-08 11:42:30.44	218.63	19.26	-29.8	-31.0	13.7	1.75e-05	0	43	0	279969792	20	4108
2026-01-08 11:42:31.45	218.80	19.35	-29.7	-30.7	13.8	4.50e-06	0	43	0	282066944	20	4014
2026-01-08 11:42:32.46	218.97	19.45	-29.7	-30.6	13.9	4.50e-06	0	43	0	284164096	20	3999
2026-01-08 11:42:33.46	219.15	19.54	-29.8	-30.9	13.7	1.60e-05	0	43	0	286261248	20	4079
2026-01-08 11:42:34.47	219.32	19.63	-29.6	-30.3	14.1	1.50e-06	0	43	0	288358400	20	3921
2026-01-08 11:42:35.48	219.50	19.73	-29.5	-30.2	14.2	7.00e-07	0	43	0	289406976	20	3887
2026-01-08 11:42:36.48	219.67	19.82	-29.6	-30.3	14.1	9.10e-06	0	43	0	291504128	20	3911
2026-01-08 11:42:37.48	219.85	19.91	-29.4	-29.7	14.5	0.00e+00	0	43	0	293601280	20	3759
2026-01-08 11:42:38.49	220.03	20.01	-29.3	-29.6	14.5	7.00e-07	0	43	0	295698432	20	3720
2026-01-08 11:42:39.49	220.20	20.10	-29.4	-29.8	14.5	0.00e+00	0	43	0	297795584	20	3775
2026-01-08 11:42:40.49	220.38	20.19	-29.6	-30.7	14.2	0.00e+00	0	43	0	298844160	19	4112
2026-01-08 11:42:41.50	220.57	20.29	-29.5	-30.6	14.3	1.50e-06	0	43	0	300941312	19	4062
2026-01-08 11:42:42.50	220.75	20.38	-29.5	-30.5	14.4	7.00e-07	0	43	0	303038464	19	4039
2026-01-08 11:42:43.51	220.93	20.47	-29.5	-30.6	14.3	7.00e-07	0	43	0	305135616	19	4086
2026-01-08 11:42:44.52	221.12	20.57	-29.4	-30.4	14.5	2.20e-06	0	43	0	307232768	19	4022
2026-01-08 11:42:45.51	221.30	20.66	-29.3	-30.0	14.7	1.50e-06	0	43	0	308281344	19	3905
2026-01-08 11:42:46.52	221.49	20.76	-29.5	-30.5	14.4	0.00e+00	0	43	0	310378496	19	4059
2026-01-08 11:42:47.53	221.67	20.85	-29.4	-30.3	14.5	7.00e-07	0	43	0	312475648	19	4003
2026-01-08 11:42:48.54	221.86	20.95	-29.3	-30.1	14.7	0.00e+00	0	43	0	314572800	19	3947
2026-01-08 11:42:49.54	222.05	21.04	-29.3	-30.2	14.6	0.00e+00	0	43	0	316669952	19	3951
2026-01-08 11:42:50.55	222.25	21.13	-29.3	-30.1	14.7	0.00e+00	0	43	0	317718528	19	3928
2026-01-08 11:42:51.56	222.44	21.23	-29.4	-30.2	14.6	2.20e-06	0	43	0	319815680	19	3971
2026-01-08 11:42:52.56	222.63	21.32	-29.3	-30.0	14.7	0.00e+00	0	43	0	321912832	19	3904
2026-01-08 11:42:53.56	222.82	21.42	-29.2	-29.7	14.9	1.50e-06	0	43	0	324009984	19	3837
2026-01-08 11:42:54.57	223.02	21.51	-29.0	-29.2	15.2	0.00e+00	0	43	0	326107136	19	3699
2026-01-08 11:42:55.58	223.22	21.61	-29.0	-29.2	15.2	0.00e+00	0	43	0	327155712	19	3705
2026-01-08 11:42:56.58	223.42	21.70	-29.0	-29.2	15.2	0.00e+00	0	43	0	329252864	19	3689
2026-01-08 11:42:57.59	223.62	21.80	-28.8	-28.8	15.5	0.00e+00	0	43	0	331350016	19	3602
2026-01-08 11:42:58.60	223.82	21.89	-29.0	-29.4	15.1	7.00e-07	0	43	0	333447168	19	3741
2026-01-08 11:42:59.60	224.02	21.98	-28.8	-28.8	15.5	0.00e+00	0	43	0	335544320	19	3590
2026-01-08 11:43:00.61	224.22	22.08	-28.7	-29.1	15.6	0.00e+00	0	43	0	336592896	18	3749
2026-01-08 11:43:01.62	224.43	22.17	-28.6	-28.8	15.7	0.00e+00	0	43	0	338690048	18	3683
2026-01-08 11:43:02.62	224.63	22.27	-28.9	-29.4	15.4	0.00e+00	0	43	0	340787200	18	3844
2026-01-08 11:43:03.63	224.84	22.36	-28.6	-28.8	15.8	0.00e+00	0	43	0	342884352	18	3684
2026-01-08 11:43:04.63	225.04	22.46	-28.6	-28.7	15.8	0.00e+00	0	43	0	344981504	18	3652
2026-01-08 11:43:05.63	225.25	22.55	-28.5	-28.6	16.0	3.00e-06	0	43	0	346030080	18	3618
2026-01-08 11:43:06.64	225.46	22.65	-28.6	-28.8	15.8	0.00e+00	0	43	0	348127232	18	3685
2026-01-08 11:43:07.64	225.67	22.74	-28.7	-29.1	15.6	0.00e+00	0	43	0	350224384	18	3756
2026-01-08 11:43:08.64	225.89	22.83	-28.7	-29.1	15.6	3.80e-06	0	43	0	352321536	18	3759
2026-01-08 11:43:09.65	226.10	22.93	-28.9	-29.4	15.4	0.00e+00	0	43	0	354418688	18	3844
2026-01-08 11:43:10.66	226.32	23.02	-29.0	-29.8	15.2	0.00e+00	0	43	0	355467264	18	3948
2026-01-08 11:43:11.67	226.53	23.12	-29.2	-30.3	14.9	4.50e-06	0	43	0	357564416	18	4065
2026-01-08 11:43:12.68	226.75	23.21	-29.3	-30.5	14.8	0.00e+00	0	43	0	359661568	18	4141
2026-01-08 11:43:13.68	226.97	23.31	-29.7	-30.9	14.2	0.00e+00	0	43	0	361758720	19	4167
2026-01-08 11:43:14.69	227.19	23.40	-29.6	-30.8	14.3	7.00e-07	0	43	0	363855872	19	4114
2026-01-08 11:43:15.69	227.41	23.49	-29.8	-31.2	14.0	1.50e-06	0	43	0	364904448	19	4258
2026-01-08 11:43:16.70	227.64	23.59	-29.6	-30.7	14.4	2.20e-06	0	43	0	367001600	19	4112
2026-01-08 11:43:17.71	227.86	23.68	-29.5	-30.6	14.5	0.00e+00	0	43	0	369098752	19	4065
2026-01-08 11:43:18.72	228.09	23.77	-29.5	-30.6	14.4	0.00e+00	0	43	0	371195904	19	4071
2026-01-08 11:43:19.72	228.31	23.87	-29.6	-30.8	14.3	1.50e-06	0	43	0	373293056	19	4133
2026-01-08 11:43:20.73	228.54	23.96	-29.5	-30.4	14.6	8.30e-06	0	43	0	374341632	19	3996
2026-01-08 11:43:21.74	228.77	24.05	-29.4	-30.3	14.6	7.00e-07	0	43	0	376438784	19	3996
2026-01-08 11:43:22.75	229.01	24.15	-29.5	-30.6	14.5	0.00e+00	0	43	0	378535936	19	4056
2026-01-08 11:43:23.75	229.24	24.24	-29.6	-30.9	14.3	1.06e-05	0	43	0	380633088	19	4148
2026-01-08 11:43:24.76	229.47	24.33	-29.6	-30.7	14.3	3.00e-06	0	43	0	382730240	19	4098
2026-01-08 11:43:25.77	229.71	24.43	-29.4	-30.2	14.7	0.00e+00	0	43	0	383778816	19	3950
2026-01-08 11:43:26.77	229.94	24.52	-29.4	-30.1	14.8	6.80e-06	0	43	0	385875968	19	3941
2026-01-08 11:43:27.78	230.18	24.61	-29.4	-30.3	14.7	0.00e+00	0	43	0	387973120	19	3997
2026-01-08 11:43:28.79	230.42	24.70	-29.3	-30.0	14.9	7.00e-07	0	43	0	390070272	19	3886
2026-01-08 11:43:29.80	230.66	24.79	-29.5	-30.4	14.7	5.30e-06	0	43	0	392167424	19	4002
2026-01-08 11:43:30.80	230.90	24.89	-29.2	-29.7	15.1	0.00e+00	0	43	0	393216000	19	3806
2026-01-08 11:43:31.81	231.15	24.98	-29.1	-29.5	15.1	0.00e+00	0	43	0	395313152	19	3771
2026-01-08 11:43:32.81	231.39	25.07	-29.2	-29.7	15.0	5.30e-06	0	43	0	397410304	19	3811
2026-01-08 11:43:33.82	231.64	25.16	-28.9	-29.0	15.4	0.00e+00	0	43	0	399507456	19	3640
2026-01-08 11:43:34.83	231.89	25.25	-28.9	-29.0	15.5	0.00e+00	0	43	0	401604608	19	3637
2026-01-08 11:43:35.84	232.13	25.34	-29.1	-29.4	15.3	0.00e+00	0	43	0	402653184	19	3728
2026-01-08 11:43:36.84	232.38	25.43	-29.1	-29.4	15.2	0.00e+00	0	43	0	404750336	19	3740
2026-01-08 11:43:37.85	232.64	25.52	-29.2	-29.7	15.1	0.00e+00	0	43	0	406847488	19	3807
2026-01-08 11:43:38.86	232.89	25.61	-29.3	-29.9	15.0	0.00e+00	0	43	0	408944640	19	3875
2026-01-08 11:43:39.86	233.14	25.70	-29.5	-30.5	14.6	0.00e+00	0	43	0	411041792	19	4014
2026-01-08 11:43:40.87	233.40	25.79	-29.8	-31.2	14.2	1.50e-06	0	43	0	412090368	19	4226
2026-01-08 11:43:41.88	233.66	25.88	-30.1	-31.5	13.6	4.50e-06	0	43	0	414187520	20	4245
2026-01-08 11:43:42.89	233.92	25.97	-30.0	-31.4	13.7	7.00e-07	0	43	0	416284672	20	4201
2026-01-08 11:43:43.89	234.18	26.05	-29.9	-31.0	13.9	2.20e-06	0	43	0	418381824	20	4093
2026-01-08 11:43:44.90	234.44	26.14	-29.8	-30.7	14.1	1.50e-06	0	43	0	420478976	20	3997
2026-01-08 11:43:45.90	234.70	26.23	-29.8	-30.8	14.1	7.00e-07	0	43	0	421527552	20	4021
2026-01-08 11:43:46.91	234.96	26.32	-29.6	-30.2	14.4	7.00e-07	0	43	0	423624704	20	3854
2026-01-08 11:43:47.91	235.23	26.40	-29.5	-29.9	14.7	3.80e-06	0	43	0	425721856	20	3774
2026-01-08 11:43:48.92	235.50	26.49	-29.5	-29.9	14.6	0.00e+00	0	43	0	427819008	20	3790
2026-01-08 11:43:49.92	235.76	26.57	-29.4	-29.8	14.7	0.00e+00	0	43	0	429916160	20	3753
2026-01-08 11:43:50.93	236.03	26.66	-29.3	-29.5	14.9	0.00e+00	0	43	0	430964736	20	3666
2026-01-08 11:43:51.94	236.31	26.75	-29.3	-29.4	14.9	0.00e+00	0	43	0	433061888	20	3660
2026-01-08 11:43:52.95	236.58	26.83	-29.4	-29.7	14.8	0.00e+00	0	43	0	435159040	20	3723
2026-01-08 11:43:53.94	236.85	26.91	-29.6	-30.1	14.5	0.00e+00	0	43	0	437256192	20	3827
2026-01-08 11:43:54.94	237.12	27.00	-29.7	-30.5	14.3	7.00e-07	0	43	0	439353344	20	3944
2026-01-08 11:43:55.95	237.40	27.08	-29.8	-30.6	14.2	3.00e-06	0	43	0	440401920	20	3980
2026-01-08 11:43:56.96	237.68	27.16	-29.6	-30.3	14.4	0.00e+00	0	43	0	442499072	20	3880
2026-01-08 11:43:57.96	237.96	27.25	-29.3	-29.6	14.9	0.00e+00	0	43	0	444596224	20	3690
2026-01-08 11:43:58.97	238.24	27.33	-29.4	-29.7	14.8	7.00e-07	0	43	0	446693376	20	3728
2026-01-08 11:43:59.98	238.53	27.41	-29.4	-29.7	14.8	7.00e-07	0	43	0	448790528	20	3714
2026-01-08 11:44:00.98	238.81	27.49	-29.4	-29.7	14.8	0.00e+00	0	43	0	449839104	20	3721
2026-01-08 11:44:01.98	239.09	27.57	-29.6	-30.3	14.4	0.00e+00	0	43	0	451936256	20	3879
2026-01-08 11:44:02.98	239.38	27.65	-29.7	-30.5	14.3	0.00e+00	0	43	0	454033408	20	3937
2026-01-08 11:44:03.98	239.66	27.73	-29.8	-30.7	14.2	7.00e-07	0	43	0	456130560	20	3988
2026-01-08 11:44:04.99	239.95	27.81	-29.8	-30.8	14.1	5.30e-06	0	43	0	458227712	20	4027
2026-01-08 11:44:06.00	240.25	27.89	-30.0	-31.1	13.9	7.00e-07	0	43	0	459276288	20	4118
2026-01-08 11:44:07.01	240.54	27.97	-29.9	-30.9	14.1	3.80e-06	0	43	0	461373440	20	4054
2026-01-08 11:44:08.01	240.83	28.04	-29.9	-30.8	14.1	0.00e+00	0	43	0	463470592	20	4029
2026-01-08 11:44:09.01	241.13	28.12	-29.8	-30.7	14.1	3.80e-06	0	43	0	465567744	20	3998
2026-01-08 11:44:10.02	241.42	28.20	-29.7	-30.5	14.3	1.50e-06	0	43	0	467664896	20	3945
2026-01-08 11:44:11.02	241.72	28.27	-29.9	-30.9	14.0	2.20e-06	0	43	0	468713472	20	4059
2026-01-08 11:44:12.03	242.02	28.35	-29.7	-30.5	14.3	3.80e-06	0	43	0	470810624	20	3933
2026-01-08 11:44:13.03	242.32	28.42	-30.0	-31.2	13.9	4.50e-06	0	43	0	472907776	20	4147
2026-01-08 11:44:14.04	242.62	28.49	-29.9	-30.9	14.0	5.30e-06	0	43	0	475004928	20	4057
2026-01-08 11:44:15.04	242.92	28.57	-29.9	-31.0	14.0	3.00e-06	0	43	0	476053504	20	4065
2026-01-08 11:44:16.05	243.23	28.64	-29.9	-30.8	14.1	7.00e-07	0	43	0	478150656	20	4029
2026-01-08 11:44:17.05	243.53	28.71	-29.8	-30.8	14.1	5.30e-06	0	43	0	480247808	20	4005
2026-01-08 11:44:18.06	243.84	28.78	-30.2	-31.6	13.6	3.80e-06	0	43	0	482344960	20	4263
2026-01-08 11:44:19.06	244.15	28.85	-30.4	-31.9	13.1	3.43e-05	0	43	0	484442112	21	4261
2026-01-08 11:44:20.07	244.46	28.92	-30.5	-32.0	13.1	5.03e-05	0	43	0	486539264	21	4277
2026-01-08 11:44:21.08	244.77	28.99	-30.6	-32.3	12.8	4.42e-05	0	43	0	487587840	21	4395
2026-01-08 11:44:22.09	245.09	29.06	-30.3	-31.4	13.4	4.57e-05	0	43	0	489684992	21	4107
2026-01-08 11:44:23.10	245.40	29.12	-30.0	-30.7	13.8	9.90e-06	0	43	0	491782144	21	3892
2026-01-08 11:44:24.10	245.72	29.19	-30.3	-31.4	13.5	3.80e-06	0	43	0	493879296	21	4101
2026-01-08 11:44:25.11	246.03	29.26	-30.4	-31.7	13.2	1.52e-05	0	43	0	494927872	21	4193
2026-01-08 11:44:26.12	246.35	29.32	-30.6	-32.4	12.8	4.88e-05	0	43	0	497025024	21	4405
2026-01-08 11:44:27.12	246.67	29.39	-30.8	-32.8	12.6	9.91e-05	0	43	0	499122176	21	4554
2026-01-08 11:44:28.13	246.99	29.45	-30.6	-32.3	12.8	4.88e-05	0	43	0	501219328	21	4379
2026-01-08 11:44:29.14	247.31	29.51	-30.3	-31.4	13.5	2.59e-05	0	43	0	503316480	21	4105
2026-01-08 11:44:30.14	247.63	29.57	-30.3	-31.5	13.4	1.22e-05	0	43	0	504365056	21	4124
2026-01-08 11:44:31.15	247.96	29.63	-30.3	-31.5	13.4	1.37e-05	0	43	0	506462208	21	4142
2026-01-08 11:44:32.15	248.28	29.69	-30.4	-31.8	13.2	2.13e-05	0	43	0	508559360	21	4237
2026-01-08 11:44:33.16	248.61	29.75	-30.6	-32.5	12.8	3.96e-05	0	43	0	510656512	21	4436
2026-01-08 11:44:34.16	248.93	29.81	-30.8	-33.0	12.4	9.15e-05	0	43	0	512753664	21	4607
2026-01-08 11:44:35.17	249.26	29.87	-30.9	-33.2	12.2	1.89e-04	0	43	0	514850816	21	4702
2026-01-08 11:44:36.17	249.59	29.92	-31.2	-33.5	11.8	4.67e-04	0	43	0	515899392	22	4684
2026-01-08 11:44:37.18	249.92	29.98	-31.5	-34.5	11.1	8.74e-04	0	43	0	517996544	22	5086
2026-01-08 11:44:38.19	250.26	30.03	-31.6	-34.2	10.9	2.52e-03	0	43	0	520093696	23	4869
2026-01-08 11:44:39.19	250.59	30.09	-31.6	-34.2	10.8	2.13e-03	0	43	0	522190848	23	4866
2026-01-08 11:44:40.20	250.92	30.14	-31.4	-33.6	11.3	1.55e-03	0	43	0	523239424	23	4668
2026-01-08 11:44:41.20	251.26	30.19	-31.2	-32.9	11.8	9.15e-04	0	43	0	525336576	23	4414
2026-01-08 11:44:42.21	251.59	30.24	-31.1	-32.6	11.9	4.41e-04	0	43	0	527433728	23	4316
2026-01-08 11:44:43.21	251.93	30.29	-31.4	-33.7	11.2	9.88e-04	0	43	0	529530880	23	4697
2026-01-08 11:44:44.22	252.27	30.34	-31.5	-33.9	11.1	1.13e-03	0	43	0	531628032	23	4744
2026-01-08 11:44:45.22	252.61	30.39	-31.3	-33.4	11.5	7.88e-04	0	43	0	532676608	23	4592
2026-01-08 11:44:46.23	252.95	30.44	-31.2	-33.0	11.7	5.19e-04	0	43	0	534773760	23	4449
2026-01-08 11:44:47.24	253.29	30.48	-31.3	-33.3	11.5	5.95e-04	0	43	0	536870912	23	4527
2026-01-08 11:44:48.25	253.63	30.53	-31.3	-33.5	11.4	6.94e-04	0	43	0	538968064	23	4592
2026-01-08 11:44:49.25	253.97	30.57	-31.2	-33.1	11.7	8.45e-04	0	43	0	541065216	23	4450
2026-01-08 11:44:50.26	254.32	30.61	-31.0	-32.3	12.3	2.44e-04	0	43	0	542113792	23	4199
2026-01-08 11:44:51.26	254.66	30.65	-30.6	-31.9	12.9	8.01e-05	0	43	0	544210944	22	4154
2026-01-08 11:44:52.27	255.01	30.70	-30.6	-31.9	12.9	3.12e-05	0	43	0	546308096	22	4160
2026-01-08 11:44:53.27	255.35	30.73	-30.9	-32.7	12.3	6.63e-05	0	43	0	548405248	22	4425
2026-01-08 11:44:54.27	255.70	30.77	-31.1	-33.3	11.9	1.85e-04	0	43	0	550502400	22	4622
2026-01-08 11:44:55.27	256.04	30.81	-31.3	-33.9	11.5	9.05e-04	0	43	0	551550976	22	4846
2026-01-08 11:44:56.28	256.39	30.85	-30.9	-32.8	12.2	3.67e-04	0	43	0	553648128	22	4448
2026-01-08 11:44:57.29	256.75	30.88	-30.7	-32.1	12.7	1.16e-04	0	43	0	555745280	22	4231
2026-01-08 11:44:58.29	257.09	30.92	-30.5	-31.6	13.1	4.95e-05	0	43	0	557842432	22	4066
2026-01-08 11:44:59.30	257.45	30.95	-30.8	-32.3	12.6	5.34e-05	0	43	0	559939584	22	4280
2026-01-08 11:45:00.31	257.80	30.98	-30.8	-32.4	12.5	1.08e-04	0	43	0	560988160	22	4315
2026-01-08 11:45:01.32	258.15	31.01	-30.4	-31.3	13.2	2.36e-05	0	43	0	563085312	22	3997
2026-01-08 11:45:02.32	258.50	31.04	-30.0	-30.8	13.9	3.80e-06	0	43	0	565182464	21	3924
2026-01-08 11:45:03.33	258.86	31.07	-30.0	-30.7	13.9	2.20e-06	0	43	0	567279616	21	3907
2026-01-08 11:45:04.33	259.21	31.10	-30.3	-31.4	13.5	2.20e-06	0	43	0	569376768	21	4102
2026-01-08 11:45:05.34	259.57	31.12	-30.5	-32.1	13.1	1.67e-05	0	43	0	570425344	21	4319
2026-01-08 11:45:06.35	259.92	31.15	-31.0	-33.5	12.2	1.38e-04	0	43	0	572522496	21	4778
2026-01-08 11:45:07.35	260.28	31.17	-31.0	-32.9	12.1	1.48e-04	0	43	0	574619648	22	4502
2026-01-08 11:45:08.36	260.63	31.19	-31.1	-33.2	12.0	2.76e-04	0	43	0	576716800	22	4578
2026-01-08 11:45:09.36	260.99	31.21	-31.0	-32.8	12.2	3.17e-04	0	43	0	578813952	22	4464
2026-01-08 11:45:10.37	261.35	31.23	-30.6	-31.9	12.9	9.15e-05	0	43	0	579862528	22	4150
2026-01-08 11:45:11.38	261.71	31.25	-30.3	-31.4	13.5	2.05e-05	0	43	0	581959680	21	4093
2026-01-08 11:45:12.39	262.07	31.27	-30.1	-30.9	13.8	7.60e-06	0	43	0	584056832	21	3964
2026-01-08 11:45:13.39	262.42	31.29	-29.7	-30.4	14.4	4.50e-06	0	43	0	586153984	20	3913
2026-01-08 11:45:14.39	262.78	31.30	-29.4	-29.8	14.8	0.00e+00	0	43	0	588251136	20	3736
2026-01-08 11:45:15.40	263.14	31.32	-29.5	-29.8	14.8	0.00e+00	0	43	0	589299712	20	3733
2026-01-08 11:45:16.40	263.50	31.33	-29.6	-30.2	14.6	3.00e-06	0	43	0	591396864	20	3841
2026-01-08 11:45:17.41	263.86	31.34	-30.0	-31.1	14.0	1.50e-06	0	43	0	593494016	20	4094
2026-01-08 11:45:18.42	264.22	31.35	-30.5	-32.5	13.1	3.80e-06	0	43	0	595591168	20	4540
2026-01-08 11:45:19.42	264.58	31.36	-30.7	-32.7	12.7	5.79e-05	0	43	0	597688320	21	4494
2026-01-08 11:45:20.43	264.94	31.37	-30.7	-32.5	12.7	5.41e-05	0	43	0	598736896	21	4442
2026-01-08 11:45:21.44	265.30	31.38	-30.7	-32.5	12.8	4.27e-05	0	43	0	600834048	21	4432
2026-01-08 11:45:22.45	265.66	31.38	-30.5	-32.0	13.1	3.12e-05	0	43	0	602931200	21	4283
2026-01-08 11:45:23.45	266.02	31.39	-30.6	-32.2	13.0	4.19e-05	0	43	0	605028352	21	4335
2026-01-08 11:45:24.46	266.38	31.39	-30.6	-32.2	13.0	2.05e-05	0	43	0	607125504	21	4340
2026-01-08 11:45:25.47	266.74	31.39	-30.6	-32.4	12.8	5.95e-05	0	43	0	608174080	21	4404
2026-01-08 11:45:26.47	267.10	31.39	-30.6	-32.2	13.0	4.73e-05	0	43	0	610271232	21	4358
2026-01-08 11:45:27.48	267.46	31.39	-30.3	-31.4	13.5	2.51e-05	0	43	0	612368384	21	4089
2026-01-08 11:45:28.48	267.82	31.39	-30.0	-30.6	14.0	5.30e-06	0	43	0	614465536	21	3879
2026-01-08 11:45:29.48	268.18	31.39	-29.9	-30.4	14.1	1.50e-06	0	43	0	616562688	21	3807
2026-01-08 11:45:30.49	268.54	31.38	-30.0	-30.6	14.0	7.00e-07	0	43	0	617611264	21	3865
2026-01-08 11:45:31.49	268.90	31.38	-29.9	-30.5	14.1	3.00e-06	0	43	0	619708416	21	3847
2026-01-08 11:45:32.50	269.26	31.37	-29.9	-30.5	14.0	3.80e-06	0	43	0	621805568	21	3856
2026-01-08 11:45:33.50	269.62	31.36	-29.3	-29.8	14.3	0.00e+00	0	43	0	623902720	20	3841
2026-01-08 11:45:34.51	269.98	31.35	-29.6	-30.2	14.6	3.00e-06	0	43	0	625999872	20	3859
2026-01-08 11:45:35.52	270.34	31.34	-29.4	-29.7	14.8	7.00e-07	0	43	0	627048448	20	3728
2026-01-08 11:45:36.52	270.70	31.33	-29.6	-30.3	14.5	0.00e+00	0	43	0	629145600	20	3867
2026-01-08 11:45:37.53	271.06	31.32	-30.1	-31.4	13.8	2.20e-06	0	43	0	631242752	20	4184
2026-01-08 11:45:38.53	271.42	31.30	-30.5	-32.1	13.0	2.51e-05	0	43	0	633339904	21	4326
2026-01-08 11:45:39.53	271.77	31.29	-30.6	-32.4	12.8	4.27e-05	0	43	0	635437056	21	4414
2026-01-08 11:45:40.54	272.13	31.27	-30.6	-32.4	12.9	7.93e-05	0	43	0	636485632	21	4400
2026-01-08 11:45:41.55	272.49	31.25	-30.5	-32.1	13.1	3.05e-05	0	43	0	638582784	21	4317
2026-01-08 11:45:42.56	272.85	31.24	-30.4	-31.9	13.2	2.05e-05	0	43	0	640679936	21	4236
2026-01-08 11:45:43.56	273.20	31.22	-30.6	-32.2	13.0	3.35e-05	0	43	0	642777088	21	4345
2026-01-08 11:45:44.57	273.56	31.20	-30.5	-32.2	13.0	3.66e-05	0	43	0	644874240	21	4337
2026-01-08 11:45:45.58	273.92	31.17	-30.4	-31.9	13.1	2.89e-05	0	43	0	645922816	21	4247
2026-01-08 11:45:46.58	274.27	31.15	-30.2	-31.1	13.7	1.29e-05	0	43	0	648019968	21	4011
2026-01-08 11:45:47.59	274.63	31.12	-30.0	-30.8	13.9	3.00e-06	0	43	0	650117120	21	3913
2026-01-08 11:45:48.59	274.98	31.10	-30.0	-30.7	14.0	2.20e-06	0	43	0	652214272	21	3898
2026-01-08 11:45:49.60	275.34	31.07	-30.1	-30.9	13.8	3.00e-06	0	43	0	654311424	21	3955
2026-01-08 11:45:50.59	275.68	31.04	-30.3	-31.4	13.5	9.10e-06	0	43	0	655360000	21	4106
2026-01-08 11:45:51.60	276.04	31.01	-30.2	-31.2	13.6	1.06e-05	0	43	0	657457152	21	4045
2026-01-08 11:45:52.60	276.39	30.98	-30.1	-30.9	13.8	4.50e-06	0	43	0	659554304	21	3943
2026-01-08 11:45:53.61	276.74	30.95	-30.1	-30.9	13.8	4.50e-06	0	43	0	661651456	21	3958
2026-01-08 11:45:54.62	277.09	30.92	-30.4	-31.6	13.4	6.10e-06	0	43	0	663748608	21	4170
2026-01-08 11:45:55.62	277.44	30.89	-30.6	-32.2	13.0	2.67e-05	0	43	0	664797184	21	4355
2026-01-08 11:45:56.63	277.79	30.85	-30.8	-32.9	12.6	4.11e-05	0	43	0	666894336	21	4567
2026-01-08 11:45:57.64	278.14	30.82	-31.1	-33.1	12.0	2.28e-04	0	43	0	668991488	22	4560
2026-01-08 11:45:58.64	278.49	30.78	-31.2	-33.6	11.8	4.48e-04	0	43	0	671088640	22	4740
2026-01-08 11:45:59.65	278.83	30.74	-31.4	-34.1	11.4	7.25e-04	0	43	0	673185792	22	4915
2026-01-08 11:46:00.65	279.18	30.70	-31.6	-34.1	11.0	1.27e-03	0	43	0	674234368	23	4822
2026-01-08 11:46:01.66	279.52	30.66	-31.4	-33.6	11.4	1.53e-03	0	43	0	676331520	23	4638
2026-01-08 11:46:02.66	279.87	30.62	-31.4	-33.7	11.3	1.21e-03	0	43	0	678428672	23	4674
2026-01-08 11:46:03.66	280.21	30.58	-31.3	-33.3	11.6	1.15e-03	0	43	0	680525824	23	4528
2026-01-08 11:46:04.66	280.55	30.53	-31.2	-32.9	11.8	6.55e-04	0	43	0	681574400	23	4405
2026-01-08 11:46:05.67	280.89	30.49	-30.8	-31.8	12.6	1.54e-04	0	43	0	683671552	23	4046
2026-01-08 11:46:06.67	281.23	30.44	-30.8	-32.4	12.6	8.01e-05	0	43	0	685768704	22	4302
2026-01-08 11:46:07.68	281.57	30.40	-31.2	-33.4	11.9	1.34e-04	0	43	0	687865856	22	4665
2026-01-08 11:46:08.69	281.91	30.35	-31.7	-34.7	10.6	2.15e-03	0	43	0	689963008	23	5057
2026-01-08 11:46:09.69	282.24	30.30	-31.9	-35.3	10.2	4.93e-03	0	44	0	692060160	23	5316
2026-01-08 11:46:10.70	282.58	30.25	-31.8	-34.4	10.4	7.21e-03	0	43	0	693108736	24	4876
2026-01-08 11:46:11.70	282.92	30.20	-31.6	-33.7	11.0	2.04e-03	0	43	0	695205888	24	4576
2026-01-08 11:46:12.71	283.25	30.15	-31.6	-33.6	11.0	1.38e-03	0	43	0	697303040	24	4576
2026-01-08 11:46:13.71	283.58	30.10	-31.8	-34.5	10.3	2.35e-03	0	43	0	699400192	24	4911
2026-01-08 11:46:14.71	283.91	30.05	-31.8	-34.6	10.3	6.37e-03	0	43	0	700448768	24	4932
2026-01-08 11:46:15.72	284.25	29.99	-31.5	-33.5	11.1	2.88e-03	0	43	0	702545920	24	4531
2026-01-08 11:46:16.72	284.57	29.94	-31.1	-32.8	12.0	9.11e-04	0	44	0	704643072	23	4360
2026-01-08 11:46:17.72	284.90	29.88	-31.1	-32.5	12.1	2.46e-04	0	43	0	706740224	23	4277
2026-01-08 11:46:18.73	285.23	29.82	-31.2	-33.0	11.8	2.31e-04	0	43	0	708837376	23	4440
2026-01-08 11:46:19.73	285.56	29.77	-31.2	-33.0	11.8	4.23e-04	0	43	0	709885952	23	4432
2026-01-08 11:46:20.73	285.88	29.71	-31.4	-33.7	11.3	6.26e-04	0	43	0	711983104	23	4680
2026-01-08 11:46:21.74	286.20	29.65	-31.4	-33.8	11.2	1.53e-03	0	43	0	714080256	23	4706
2026-01-08 11:46:22.75	286.53	29.59	-31.4	-33.5	11.4	1.15e-03	0	43	0	716177408	23	4625
2026-01-08 11:46:23.76	286.85	29.53	-31.4	-33.6	11.4	1.36e-03	0	44	0	718274560	23	4627
2026-01-08 11:46:24.76	287.17	29.46	-31.2	-32.9	11.9	9.50e-04	0	43	0	719323136	23	4387
2026-01-08 11:46:25.76	287.49	29.40	-31.0	-32.3	12.3	1.93e-04	0	43	0	721420288	23	4205
2026-01-08 11:46:26.77	287.81	29.34	-30.9	-32.7	12.4	8.77e-05	0	43	0	723517440	22	4401
2026-01-08 11:46:27.77	288.12	29.27	-31.1	-33.1	12.0	2.28e-04	0	43	0	725614592	22	4553
2026-01-08 11:46:28.78	288.44	29.21	-31.0	-33.0	12.1	2.57e-04	0	43	0	727711744	22	4526
2026-01-08 11:46:29.79	288.76	29.14	-30.9	-32.7	12.3	2.53e-04	0	43	0	728760320	22	4402
2026-01-08 11:46:30.79	289.07	29.07	-31.0	-32.8	12.3	2.23e-04	0	44	0	730857472	22	4451
2026-01-08 11:46:31.80	289.38	29.01	-30.6	-31.7	13.0	7.70e-05	0	43	0	732954624	22	4095
2026-01-08 11:46:32.80	289.69	28.94	-30.6	-31.7	13.0	1.98e-05	0	43	0	735051776	22	4100
2026-01-08 11:46:33.81	290.00	28.87	-30.6	-31.9	12.8	3.50e-05	0	43	0	737148928	22	4158
2026-01-08 11:46:34.81	290.31	28.80	-30.9	-32.7	12.3	7.70e-05	0	43	0	738197504	22	4407
2026-01-08 11:46:35.82	290.61	28.73	-31.0	-32.8	12.2	2.07e-04	0	43	0	740294656	22	4452
2026-01-08 11:46:36.82	290.92	28.66	-31.1	-33.2	12.0	4.26e-04	0	43	0	742391808	22	4577
2026-01-08 11:46:37.83	291.22	28.59	-31.1	-33.4	11.9	7.16e-04	0	43	0	744488960	22	4644
2026-01-08 11:46:38.83	291.52	28.52	-31.4	-34.0	11.3	8.06e-04	0	43	0	746586112	22	4894
2026-01-08 11:46:39.83	291.82	28.44	-31.3	-33.7	11.1	1.15e-03	0	43	0	747634688	23	4739
2026-01-08 11:46:40.84	292.12	28.37	-31.5	-34.3	10.6	1.68e-03	0	43	0	749731840	23	4979
2026-01-08 11:46:41.84	292.42	28.29	-31.5	-34.1	10.7	2.49e-03	0	43	0	751828992	23	4902
2026-01-08 11:46:42.85	292.72	28.22	-31.5	-34.2	10.8	2.37e-03	0	44	0	753926144	23	4908
2026-01-08 11:46:43.86	293.02	28.14	-30.9	-32.5	11.9	1.07e-03	0	44	0	756023296	23	4296
2026-01-08 11:46:44.86	293.31	28.07	-30.7	-32.2	12.5	3.04e-04	0	43	0	757071872	22	4305
2026-01-08 11:46:45.87	293.60	27.99	-30.6	-31.9	12.7	6.40e-05	0	43	0	759169024	22	4204
2026-01-08 11:46:46.87	293.89	27.91	-30.9	-32.9	12.0	1.14e-04	0	43	0	761266176	22	4531
2026-01-08 11:46:47.87	294.18	27.84	-31.3	-34.1	11.2	3.33e-04	0	43	0	763363328	22	4988
2026-01-08 11:46:48.88	294.47	27.76	-31.6	-34.7	10.3	2.96e-03	0	43	0	765460480	23	5147
2026-01-08 11:46:49.88	294.76	27.68	-31.8	-35.3	9.9	7.03e-03	0	43	0	766509056	23	5398
2026-01-08 11:46:50.89	295.04	27.60	-31.7	-35.0	10.2	1.02e-02	0	43	0	768606208	23	5248
2026-01-08 11:46:51.89	295.33	27.52	-31.9	-35.6	9.7	1.03e-02	0	43	0	770703360	23	5514
2026-01-08 11:46:52.90	295.61	27.44	-31.9	-35.6	9.9	9.62e-03	0	43	0	772800512	23	5519
2026-01-08 11:46:53.90	295.89	27.36	-32.1	-35.8	9.2	9.10e-03	0	43	0	774897664	24	5535
2026-01-08 11:46:54.91	296.17	27.28	-32.0	-35.6	9.4	1.42e-02	0	44	0	775946240	24	5418
2026-01-08 11:46:55.92	296.45	27.19	-31.9	-35.3	9.6	1.61e-02	0	43	0	778043392	24	5319
2026-01-08 11:46:56.92	296.73	27.11	-31.8	-34.7	9.9	9.89e-03	0	43	0	780140544	24	5071
2026-01-08 11:46:57.93	297.01	27.03	-31.8	-34.7	10.0	9.88e-03	0	43	0	782237696	24	5042
2026-01-08 11:46:58.93	297.28	26.95	-31.6	-34.2	10.4	5.38e-03	0	44	0	784334848	24	4842
2026-01-08 11:46:59.93	297.55	26.86	-31.5	-33.7	10.8	2.78e-03	0	43	0	785383424	24	4657
2026-01-08 11:47:00.94	297.83	26.78	-31.3	-33.8	11.0	1.58e-03	0	43	0	787480576	23	4777
2026-01-08 11:47:01.94	298.09	26.70	-31.2	-33.5	11.3	1.23e-03	0	43	0	789577728	23	4648
2026-01-08 11:47:02.95	298.36	26.61	-31.4	-34.0	10.9	1.55e-03	0	43	0	791674880	23	4858
2026-01-08 11:47:03.95	298.63	26.53	-31.5	-34.3	10.6	3.11e-03	0	43	0	793772032	23	4977
2026-01-08 11:47:04.95	298.90	26.44	-31.8	-35.3	9.9	4.00e-03	0	43	0	794820608	23	5394
2026-01-08 11:47:05.96	299.16	26.35	-31.7	-35.0	10.1	7.19e-03	0	43	0	796917760	23	5294
2026-01-08 11:47:06.97	299.43	26.27	-31.7	-35.3	9.8	6.87e-03	0	43	0	799014912	23	5415
2026-01-08 11:47:07.98	299.69	26.18	-31.6	-35.0	10.1	7.31e-03	0	43	0	801112064	23	5279
2026-01-08 11:47:08.98	299.95	26.09	-31.6	-34.8	10.2	5.96e-03	0	43	0	803209216	23	5183
2026-01-08 11:47:09.98	300.21	26.01	-31.5	-34.5	10.5	5.61e-03	0	43	0	804257792	23	5091
2026-01-08 11:47:10.98	300.46	25.92	-31.5	-34.5	10.4	4.11e-03	0	43	0	806354944	23	5084
2026-01-08 11:47:11.99	300.72	25.83	-31.3	-33.9	10.8	2.59e-03	0	43	0	808452096	23	4852
2026-01-08 11:47:12.99	300.97	25.74	-31.2	-33.4	11.2	1.85e-03	0	44	0	810549248	23	4655
2026-01-08 11:47:13.99	301.23	25.65	-31.1	-33.3	11.3	1.08e-03	0	43	0	811597824	23	4610
2026-01-08 11:47:15.00	301.48	25.57	-31.2	-33.4	11.2	1.29e-03	0	43	0	813694976	23	4675
2026-01-08 11:47:16.01	301.73	25.48	-30.9	-32.6	11.8	9.62e-04	0	43	0	815792128	23	4363
2026-01-08 11:47:17.02	301.98	25.39	-31.0	-33.0	11.6	8.00e-04	0	43	0	817889280	23	4497
2026-01-08 11:47:18.02	302.23	25.30	-30.9	-32.4	11.9	6.86e-04	0	43	0	819986432	23	4313
2026-01-08 11:47:19.03	302.48	25.21	-30.8	-32.7	12.0	3.12e-04	0	43	0	822083584	22	4483
2026-01-08 11:47:20.04	302.72	25.12	-30.9	-33.2	11.7	3.49e-04	0	44	0	823132160	22	4675
2026-01-08 11:47:21.04	302.96	25.03	-30.9	-33.0	11.8	4.61e-04	0	44	0	825229312	22	4612
2026-01-08 11:47:22.05	303.21	24.94	-31.0	-33.3	11.6	7.35e-04	0	43	0	827326464	22	4690
2026-01-08 11:47:23.06	303.45	24.84	-30.6	-32.1	12.5	4.60e-04	0	44	0	829423616	22	4280
2026-01-08 11:47:24.07	303.69	24.75	-30.5	-31.7	12.7	1.14e-04	0	43	0	831520768	22	4158
2026-01-08 11:47:25.07	303.93	24.66	-30.4	-31.6	12.8	8.62e-05	0	44	0	832569344	22	4108
2026-01-08 11:47:26.08	304.17	24.57	-30.2	-31.4	13.2	1.67e-05	0	43	0	834666496	21	4162
2026-01-08 11:47:27.08	304.40	24.48	-30.4	-32.2	12.6	3.89e-05	0	43	0	836763648	21	4394
2026-01-08 11:47:28.09	304.64	24.39	-30.7	-32.9	12.2	9.00e-05	0	44	0	838860800	21	4639
2026-01-08 11:47:29.10	304.87	24.29	-30.9	-33.5	11.8	3.11e-04	0	43	0	839909376	21	4872
2026-01-08 11:47:30.11	305.10	24.20	-30.9	-33.6	11.7	4.90e-04	0	44	0	842006528	21	4911
2026-01-08 11:47:31.12	305.33	24.11	-30.7	-32.8	12.2	4.03e-04	0	44	0	844103680	21	4629
2026-01-08 11:47:32.12	305.56	24.02	-30.5	-32.3	12.6	1.50e-04	0	44	0	846200832	21	4426
2026-01-08 11:47:33.13	305.79	23.92	-30.3	-31.8	12.9	4.50e-05	0	43	0	848297984	21	4284
2026-01-08 11:47:34.13	306.02	23.83	-30.4	-31.9	12.9	3.73e-05	0	44	0	850395136	21	4315
2026-01-08 11:47:35.14	306.24	23.74	-30.1	-31.3	13.3	1.29e-05	0	43	0	851443712	21	4121
2026-01-08 11:47:36.14	306.46	23.65	-30.6	-32.8	12.3	6.33e-05	0	43	0	853540864	21	4601
2026-01-08 11:47:37.15	306.69	23.55	-30.9	-33.7	11.7	3.85e-04	0	43	0	855638016	21	4930
2026-01-08 11:47:38.15	306.91	23.46	-31.0	-33.5	11.5	5.61e-04	0	44	0	857735168	22	4778
2026-01-08 11:47:39.16	307.13	23.37	-31.1	-33.6	11.4	9.87e-04	0	43	0	858783744	22	4816
2026-01-08 11:47:40.16	307.35	23.28	-30.5	-31.9	12.5	2.93e-04	0	43	0	860880896	22	4224
2026-01-08 11:47:41.16	307.56	23.18	-30.3	-31.3	12.9	6.79e-05	0	43	0	862978048	22	4047
2026-01-08 11:47:42.16	307.78	23.09	-30.2	-31.6	13.1	4.11e-05	0	43	0	865075200	21	4202
2026-01-08 11:47:43.16	307.99	23.00	-29.9	-30.6	13.8	1.22e-05	0	43	0	867172352	21	3921
2026-01-08 11:47:44.17	308.21	22.90	-29.7	-30.8	13.9	1.50e-06	0	43	0	868220928	20	4055
2026-01-08 11:47:45.17	308.42	22.81	-29.8	-31.0	13.8	4.50e-06	0	43	0	870318080	20	4103
2026-01-08 11:47:46.17	308.63	22.72	-29.7	-30.6	14.1	5.30e-06	0	43	0	872415232	20	4006
2026-01-08 11:47:47.18	308.84	22.62	-29.5	-30.1	14.4	7.00e-07	0	43	0	874512384	20	3853
2026-01-08 11:47:48.19	309.05	22.53	-29.4	-29.9	14.5	7.00e-07	0	44	0	876609536	20	3796
2026-01-08 11:47:49.19	309.25	22.44	-29.3	-29.6	14.6	7.00e-07	0	44	0	877658112	20	3719
2026-01-08 11:47:50.19	309.46	22.34	-29.6	-30.9	14.2	0.00e+00	0	43	0	879755264	19	4178
2026-01-08 11:47:51.20	309.66	22.25	-30.1	-31.8	13.3	5.30e-06	0	44	0	881852416	20	4349
2026-01-08 11:47:52.21	309.87	22.15	-30.4	-32.6	12.7	6.86e-05	0	43	0	883949568	20	4624
2026-01-08 11:47:53.21	310.07	22.06	-31.1	-33.7	11.2	5.20e-04	0	43	0	886046720	22	4860
2026-01-08 11:47:54.22	310.27	21.97	-31.5	-34.6	10.2	3.84e-03	0	43	0	887095296	23	5122
2026-01-08 11:47:55.22	310.47	21.87	-31.8	-35.7	9.3	1.48e-02	0	43	0	889192448	23	5648
2026-01-08 11:47:56.23	310.67	21.78	-31.7	-35.4	9.6	1.07e-02	0	43	0	891289600	23	5500
2026-01-08 11:47:57.24	310.87	21.68	-31.6	-34.7	10.1	1.13e-02	0	43	0	893386752	23	5170
2026-01-08 11:47:58.25	311.07	21.59	-31.0	-32.8	11.5	2.87e-03	0	43	0	895483904	23	4434
2026-01-08 11:47:59.25	311.26	21.50	-30.5	-32.0	12.4	2.73e-04	0	44	0	896532480	22	4252
2026-01-08 11:48:00.26	311.46	21.40	-30.2	-31.6	13.0	7.32e-05	0	43	0	898629632	21	4229
2026-01-08 11:48:01.27	311.65	21.31	-30.2	-31.4	13.1	2.67e-05	0	43	0	900726784	21	4174
2026-01-08 11:48:02.27	311.84	21.22	-30.3	-31.8	12.9	4.50e-05	0	43	0	902823936	21	4279
2026-01-08 11:48:03.28	312.03	21.12	-30.4	-32.2	12.5	5.95e-05	0	43	0	904921088	21	4401
2026-01-08 11:48:04.28	312.22	21.03	-30.5	-32.3	12.5	1.05e-04	0	43	0	905969664	21	4452
2026-01-08 11:48:05.29	312.41	20.93	-30.0	-31.0	13.3	1.75e-05	0	43	0	908066816	21	4052
2026-01-08 11:48:06.30	312.60	20.84	-29.7	-30.6	13.9	6.10e-06	0	43	0	910163968	20	4015
2026-01-08 11:48:07.30	312.79	20.75	-29.3	-29.6	14.5	1.50e-06	0	43	0	912261120	20	3747
2026-01-08 11:48:08.31	312.97	20.65	-29.1	-29.5	15.0	0.00e+00	0	43	0	914358272	19	3789
2026-01-08 11:48:09.31	313.16	20.56	-29.0	-29.3	15.1	7.00e-07	0	43	0	915406848	19	3744
2026-01-08 11:48:10.32	313.34	20.47	-29.2	-29.7	14.9	0.00e+00	0	43	0	917504000	19	3849
2026-01-08 11:48:11.32	313.52	20.37	-29.3	-30.1	14.6	0.00e+00	0	43	0	919601152	19	3947
2026-01-08 11:48:12.33	313.70	20.28	-29.5	-30.8	14.2	2.20e-06	0	43	0	921698304	19	4134
2026-01-08 11:48:13.34	313.88	20.19	-29.7	-31.1	14.1	0.00e+00	0	43	0	923795456	19	4227
2026-01-08 11:48:14.34	314.06	20.10	-29.7	-31.2	13.9	2.20e-06	0	43	0	924844032	19	4270
2026-01-08 11:48:15.35	314.24	20.00	-29.6	-30.8	14.2	3.00e-06	0	43	0	926941184	19	4143
2026-01-08 11:48:16.35	314.42	19.91	-29.5	-30.7	14.2	0.00e+00	0	43	0	929038336	19	4124
2026-01-08 11:48:17.36	314.59	19.82	-29.5	-30.6	14.2	2.20e-06	0	43	0	931135488	19	4087
2026-01-08 11:48:18.37	314.77	19.72	-29.5	-30.8	14.2	2.20e-06	0	43	0	933232640	19	4144
2026-01-08 11:48:19.38	314.94	19.63	-29.7	-31.1	14.0	3.00e-06	0	43	0	934281216	19	4241
2026-01-08 11:48:20.38	315.11	19.54	-29.9	-31.8	13.6	7.60e-06	0	43	0	936378368	19	4448
2026-01-08 11:48:21.38	315.28	19.45	-30.0	-31.7	13.2	1.37e-05	0	43	0	938475520	20	4345
2026-01-08 11:48:22.38	315.45	19.35	-30.2	-32.2	12.9	3.05e-05	0	43	0	940572672	20	4508
2026-01-08 11:48:23.39	315.62	19.26	-30.2	-32.1	12.9	5.72e-05	0	44	0	942669824	20	4493
2026-01-08 11:48:24.40	315.79	19.17	-30.0	-31.5	13.4	4.42e-05	0	43	0	943718400	20	4293
2026-01-08 11:48:25.41	315.96	19.08	-29.8	-31.1	13.5	1.22e-05	0	43	0	945815552	20	4164
2026-01-08 11:48:26.41	316.13	18.99	-29.7	-30.7	13.7	1.52e-05	0	43	0	947912704	20	4046
2026-01-08 11:48:27.42	316.29	18.89	-29.7	-30.8	13.7	8.30e-06	0	43	0	950009856	20	4073
2026-01-08 11:48:28.42	316.46	18.80	-29.8	-31.0	13.6	5.30e-06	0	44	0	952107008	20	4137
2026-01-08 11:48:29.43	316.62	18.71	-29.8	-30.9	13.7	1.52e-05	0	43	0	953155584	20	4091
2026-01-08 11:48:30.44	316.79	18.62	-29.5	-30.3	14.1	3.00e-06	0	43	0	955252736	20	3923
2026-01-08 11:48:31.44	316.95	18.53	-29.6	-30.3	14.1	3.00e-06	0	43	0	957349888	20	3937
2026-01-08 11:48:32.44	317.11	18.44	-29.6	-30.5	14.0	4.50e-06	0	43	0	959447040	20	3972
2026-01-08 11:48:33.45	317.27	18.35	-29.6	-30.6	13.9	3.00e-06	0	43	0	961544192	20	4002
2026-01-08 11:48:34.46	317.43	18.25	-29.6	-30.4	14.0	4.50e-06	0	43	0	962592768	20	3965
2026-01-08 11:48:35.46	317.58	18.16	-29.6	-30.4	14.0	2.20e-06	0	43	0	964689920	20	3957
2026-01-08 11:48:36.47	317.74	18.07	-29.5	-30.2	14.1	1.50e-06	0	43	0	966787072	20	3904
2026-01-08 11:48:37.47	317.90	17.98	-29.6	-30.4	14.0	2.20e-06	0	44	0	968884224	20	3941
2026-01-08 11:48:38.47	318.05	17.89	-29.3	-29.6	14.5	3.00e-06	0	43	0	970981376	20	3739
2026-01-08 11:48:39.48	318.21	17.80	-29.1	-29.7	14.7	7.00e-07	0	43	0	972029952	19	3845
2026-01-08 11:48:40.49	318.36	17.71	-29.1	-29.7	14.8	0.00e+00	0	43	0	974127104	19	3834
2026-01-08 11:48:41.49	318.51	17.62	-29.1	-29.5	14.9	0.00e+00	0	43	0	976224256	19	3787
2026-01-08 11:48:42.49	318.66	17.53	-29.2	-30.0	14.6	1.50e-06	0	43	0	978321408	19	3911
2026-01-08 11:48:43.50	318.82	17.44	-29.2	-30.0	14.6	1.50e-06	0	43	0	980418560	19	3912
2026-01-08 11:48:44.50	318.97	17.35	-29.3	-30.2	14.4	0.00e+00	0	43	0	981467136	19	3982
2026-01-08 11:48:45.51	319.12	17.26	-29.5	-30.7	14.1	3.00e-06	0	43	0	983564288	19	4133
2026-01-08 11:48:46.52	319.26	17.17	-29.5	-30.6	14.2	1.50e-06	0	43	0	985661440	19	4091
2026-01-08 11:48:47.53	319.41	17.09	-29.4	-30.5	14.3	1.50e-06	0	43	0	987758592	19	4054
2026-01-08 11:48:48.53	319.56	17.00	-29.4	-30.5	14.3	2.20e-06	0	43	0	989855744	19	4053
2026-01-08 11:48:49.54	319.71	16.91	-29.4	-30.4	14.4	0.00e+00	0	43	0	990904320	19	4029
2026-01-08 11:48:50.55	319.85	16.82	-29.4	-30.3	14.4	2.20e-06	0	43	0	993001472	19	4012
2026-01-08 11:48:51.56	320.00	16.73	-29.4	-30.4	14.3	1.50e-06	0	43	0	995098624	19	4038
2026-01-08 11:48:52.56	320.14	16.64	-29.3	-30.3	14.4	7.00e-07	0	43	0	997195776	19	3997
2026-01-08 11:48:53.57	320.28	16.55	-29.3	-30.0	14.5	0.00e+00	0	43	0	999292928	19	3937
2026-01-08 11:48:54.57	320.42	16.47	-29.3	-30.1	14.5	0.00e+00	0	43	0	1000341504	19	3967
2026-01-08 11:48:55.58	320.56	16.38	-29.3	-30.1	14.5	7.00e-07	0	43	0	1002438656	19	3964
2026-01-08 11:48:56.58	320.70	16.29	-29.4	-30.4	14.3	0.00e+00	0	44	0	1004535808	19	4042
2026-01-08 11:48:57.59	320.84	16.20	-29.3	-30.3	14.3	2.20e-06	0	43	0	1006632960	19	4007
2026-01-08 11:48:58.60	320.98	16.11	-29.4	-30.6	14.1	2.20e-06	0	43	0	1008730112	19	4101
2026-01-08 11:48:59.60	321.12	16.03	-29.5	-30.7	14.0	2.20e-06	0	44	0	1009778688	19	4143
2026-01-08 11:49:00.60	321.26	15.94	-29.5	-30.7	14.0	7.00e-07	0	44	0	1011875840	19	4133
2026-01-08 11:49:01.61	321.39	15.85	-29.5	-30.8	14.0	5.30e-06	0	43	0	1013972992	19	4171
2026-01-08 11:49:02.62	321.53	15.77	-29.6	-30.9	13.9	3.00e-06	0	43	0	1016070144	19	4206
2026-01-08 11:49:03.62	321.66	15.68	-29.5	-30.8	14.0	2.20e-06	0	43	0	1018167296	19	4171
2026-01-08 11:49:04.63	321.80	15.59	-29.5	-30.7	14.0	2.20e-06	0	43	0	1019215872	19	4144
2026-01-08 11:49:05.63	321.93	15.51	-29.4	-30.4	14.2	7.00e-07	0	43	0	1021313024	19	4051
2026-01-08 11:49:06.63	322.06	15.42	-29.4	-30.5	14.1	7.00e-07	0	43	0	1023410176	19	4090
2026-01-08 11:49:07.64	322.19	15.34	-29.3	-30.3	14.3	3.00e-06	0	43	0	1025507328	19	4010
2026-01-08 11:49:08.64	322.33	15.25	-29.2	-29.9	14.5	0.00e+00	0	44	0	1026555904	19	3902
2026-01-08 11:49:09.65	322.46	15.16	-29.4	-30.3	14.2	0.00e+00	0	43	0	1028653056	19	4027
2026-01-08 11:49:10.65	322.58	15.08	-29.3	-30.2	14.2	4.50e-06	0	43	0	1030750208	19	4005
2026-01-08 11:49:11.65	322.71	15.00	-29.4	-30.5	14.0	1.50e-06	0	43	0	1032847360	19	4076
2026-01-08 11:49:12.66	322.84	14.91	-29.6	-31.0	13.7	7.60e-06	0	43	0	1034944512	19	4225
2026-01-08 11:49:13.66	322.97	14.83	-29.7	-31.1	13.7	4.50e-06	0	43	0	1035993088	19	4252
2026-01-08 11:49:14.66	323.09	14.74	-29.8	-31.6	13.4	6.80e-06	0	43	0	1038090240	19	4407
2026-01-08 11:49:15.67	323.22	14.66	-30.0	-31.9	13.2	1.67e-05	0	43	0	1040187392	19	4512
2026-01-08 11:49:16.67	323.35	14.57	-30.1	-31.8	12.8	2.89e-05	0	44	0	1042284544	20	4396
2026-01-08 11:49:17.67	323.47	14.49	-30.2	-32.3	12.4	1.12e-04	0	44	0	1044381696	20	4554
2026-01-08 11:49:18.68	323.60	14.40	-30.3	-32.3	12.3	1.52e-04	0	44	0	1045430272	20	4571
2026-01-08 11:49:19.68	323.72	14.32	-30.3	-32.4	12.3	1.93e-04	0	43	0	1047527424	20	4604
2026-01-08 11:49:20.68	323.84	14.24	-30.3	-32.3	12.4	1.71e-04	0	43	0	1049624576	20	4560
2026-01-08 11:49:21.68	323.96	14.15	-30.1	-32.0	12.8	7.93e-05	0	43	0	1051721728	20	4450
2026-01-08 11:49:22.69	324.08	14.07	-30.2	-32.2	12.6	7.17e-05	0	43	0	1053818880	20	4525
2026-01-08 11:49:23.70	324.20	13.99	-30.0	-31.8	12.9	6.71e-05	0	43	0	1054867456	20	4381
2026-01-08 11:49:24.70	324.32	13.90	-29.9	-31.2	13.3	3.28e-05	0	44	0	1056964608	20	4197
2026-01-08 11:49:25.71	324.44	13.82	-30.0	-31.5	13.0	2.59e-05	0	43	0	1059061760	20	4306
2026-01-08 11:49:26.72	324.56	13.74	-29.9	-31.3	13.2	2.05e-05	0	43	0	1061158912	20	4221
2026-01-08 11:49:27.72	324.68	13.66	-30.0	-31.6	12.9	2.74e-05	0	43	0	1063256064	20	4328
2026-01-08 11:49:28.73	324.80	13.57	-30.1	-31.9	12.8	6.40e-05	0	43	0	1064304640	20	4426
2026-01-08 11:49:29.74	324.92	13.49	-30.2	-32.1	12.6	9.84e-05	0	43	0	1066401792	20	4490
2026-01-08 11:49:30.75	325.03	13.41	-30.5	-33.0	12.0	1.32e-04	0	43	0	1068498944	20	4819
2026-01-08 11:49:31.76	325.15	13.33	-30.5	-32.6	11.9	4.36e-04	0	44	0	1070596096	21	4594
2026-01-08 11:49:32.76	325.26	13.25	-30.6	-33.0	11.6	5.29e-04	0	44	0	1072693248	21	4730
2026-01-08 11:49:33.76	325.38	13.16	-30.8	-33.4	11.3	7.95e-04	0	44	0	1073741824	21	4879
2026-01-08 11:49:34.76	325.49	13.08	-30.8	-33.6	11.2	9.40e-04	0	44	0	1075838976	21	4936
2026-01-08 11:49:35.77	325.60	13.00	-30.8	-33.6	11.2	1.34e-03	0	44	0	1077936128	21	4950
2026-01-08 11:49:36.78	325.72	12.92	-30.8	-33.6	11.2	2.11e-03	0	43	0	1080033280	21	4950
2026-01-08 11:49:37.78	325.83	12.84	-30.8	-33.6	11.2	1.97e-03	0	44	0	1082130432	21	4971
2026-01-08 11:49:38.79	325.94	12.76	-30.8	-33.5	11.3	1.20e-03	0	43	0	1083179008	21	4911
2026-01-08 11:49:39.79	326.05	12.68	-30.7	-33.3	11.4	1.15e-03	0	43	0	1085276160	21	4841
2026-01-08 11:49:40.79	326.16	12.60	-30.8	-33.5	11.2	1.06e-03	0	43	0	1087373312	21	4924
2026-01-08 11:49:41.79	326.27	12.52	-30.7	-33.3	11.4	1.16e-03	0	43	0	1089470464	21	4823
2026-01-08 11:49:42.80	326.38	12.44	-30.7	-33.3	11.4	8.86e-04	0	43	0	1091567616	21	4851
2026-01-08 11:49:43.81	326.49	12.36	-30.7	-33.2	11.4	7.22e-04	0	43	0	1092616192	21	4825
2026-01-08 11:49:44.81	326.60	12.28	-30.8	-33.6	11.1	1.26e-03	0	43	0	1094713344	21	4954
2026-01-08 11:49:45.81	326.70	12.20	-30.8	-33.6	11.1	1.64e-03	0	43	0	1096810496	21	4975
2026-01-08 11:49:46.82	326.81	12.12	-31.0	-34.1	10.8	1.63e-03	0	43	0	1098907648	21	5160
2026-01-08 11:49:47.83	326.92	12.04	-30.9	-33.4	10.9	2.41e-03	0	43	0	1101004800	22	4792
2026-01-08 11:49:48.83	327.02	11.96	-30.9	-33.3	11.0	1.95e-03	0	43	0	1102053376	22	4755
2026-01-08 11:49:49.84	327.13	11.88	-30.9	-33.2	11.0	1.81e-03	0	44	0	1104150528	22	4739
2026-01-08 11:49:50.84	327.23	11.81	-30.9	-33.3	11.0	1.69e-03	0	43	0	1106247680	22	4750
2026-01-08 11:49:51.85	327.34	11.73	-30.9	-33.3	11.0	1.85e-03	0	43	0	1108344832	22	4753
2026-01-08 11:49:52.85	327.44	11.65	-30.9	-33.3	11.0	2.49e-03	0	44	0	1110441984	22	4765
2026-01-08 11:49:53.86	327.55	11.57	-31.0	-33.6	10.7	2.31e-03	0	43	0	1111490560	22	4882
2026-01-08 11:49:54.87	327.65	11.49	-30.8	-33.1	11.1	2.34e-03	0	43	0	1113587712	22	4682
2026-01-08 11:49:55.88	327.75	11.42	-30.6	-32.3	11.6	7.26e-04	0	44	0	1115684864	22	4413
2026-01-08 11:49:56.88	327.85	11.34	-30.4	-31.8	12.0	4.33e-04	0	44	0	1117782016	22	4234
2026-01-08 11:49:57.89	327.95	11.26	-30.2	-31.8	12.3	2.05e-04	0	43	0	1119879168	21	4328
2026-01-08 11:49:58.90	328.05	11.18	-30.1	-31.6	12.5	1.39e-04	0	44	0	1120927744	21	4244
2026-01-08 11:49:59.91	328.16	11.11	-30.2	-31.7	12.3	1.87e-04	0	43	0	1123024896	21	4302
2026-01-08 11:50:00.91	328.25	11.03	-30.0	-31.4	12.6	1.56e-04	0	44	0	1125122048	21	4190
2026-01-08 11:50:01.92	328.35	10.95	-30.0	-31.1	12.8	6.17e-05	0	43	0	1127219200	21	4093
2026-01-08 11:50:02.92	328.45	10.88	-30.1	-31.6	12.5	6.56e-05	0	43	0	1129316352	21	4268
2026-01-08 11:50:03.93	328.55	10.80	-30.0	-31.1	12.7	6.25e-05	0	43	0	1130364928	21	4102
2026-01-08 11:50:04.94	328.65	10.72	-30.2	-31.7	12.4	8.23e-05	0	43	0	1132462080	21	4290
2026-01-08 11:50:05.94	328.75	10.65	-30.2	-31.8	12.3	1.62e-04	0	43	0	1134559232	21	4340
2026-01-08 11:50:06.95	328.84	10.57	-30.2	-31.8	12.2	1.62e-04	0	43	0	1136656384	21	4344
2026-01-08 11:50:07.96	328.94	10.50	-30.3	-32.1	12.1	2.62e-04	0	43	0	1138753536	21	4439
2026-01-08 11:50:08.96	329.03	10.42	-30.3	-32.1	12.1	3.65e-04	0	43	0	1139802112	21	4419
2026-01-08 11:50:09.97	329.13	10.35	-30.5	-32.6	11.6	4.39e-04	0	43	0	1141899264	21	4601
2026-01-08 11:50:10.96	329.22	10.27	-30.6	-33.0	11.4	5.05e-04	0	43	0	1143996416	21	4745
2026-01-08 11:50:11.97	329.32	10.20	-30.6	-33.1	11.4	8.55e-04	0	43	0	1146093568	21	4799
2026-01-08 11:50:12.97	329.41	10.12	-30.7	-33.4	11.1	1.37e-03	0	44	0	1148190720	21	4906
2026-01-08 11:50:13.98	329.51	10.05	-30.8	-33.6	11.0	2.24e-03	0	44	0	1149239296	21	4971
2026-01-08 11:50:14.99	329.60	9.97	-30.8	-33.7	10.8	2.00e-03	0	44	0	1151336448	21	5041
2026-01-08 11:50:15.99	329.69	9.90	-30.7	-33.4	11.1	1.96e-03	0	43	0	1153433600	21	4909
2026-01-08 11:50:17.00	329.78	9.82	-30.7	-33.4	11.1	1.98e-03	0	44	0	1155530752	21	4924
2026-01-08 11:50:18.01	329.88	9.75	-30.8	-33.6	10.9	2.09e-03	0	43	0	1156579328	21	4991
2026-01-08 11:50:19.02	329.97	9.67	-30.7	-33.5	11.0	1.81e-03	0	43	0	1158676480	21	4969
2026-01-08 11:50:20.03	330.06	9.60	-30.7	-33.4	11.1	1.67e-03	0	43	0	1160773632	21	4920
2026-01-08 11:50:21.04	330.15	9.53	-30.6	-33.2	11.1	1.46e-03	0	43	0	1162870784	21	4851
2026-01-08 11:50:22.04	330.24	9.45	-30.6	-33.1	11.2	1.37e-03	0	43	0	1164967936	21	4809
2026-01-08 11:50:23.05	330.33	9.38	-30.6	-33.1	11.3	9.99e-04	0	43	0	1167065088	21	4807
2026-01-08 11:50:24.06	330.42	9.31	-30.7	-33.3	11.2	1.07e-03	0	43	0	1168113664	21	4874
2026-01-08 11:50:25.06	330.51	9.23	-30.5	-32.9	11.4	1.27e-03	0	43	0	1170210816	21	4714
2026-01-08 11:50:26.07	330.59	9.16	-30.4	-32.5	11.6	7.00e-04	0	44	0	1172307968	21	4581
2026-01-08 11:50:27.07	330.68	9.09	-30.5	-32.7	11.5	5.68e-04	0	44	0	1174405120	21	4669
2026-01-08 11:50:28.08	330.77	9.02	-30.4	-32.6	11.5	9.14e-04	0	43	0	1176502272	21	4635
2026-01-08 11:50:29.08	330.86	8.94	-30.6	-33.1	11.1	1.14e-03	0	43	0	1177550848	21	4824
2026-01-08 11:50:30.08	330.94	8.87	-30.4	-32.6	11.5	9.55e-04	0	43	0	1179648000	21	4611
2026-01-08 11:50:31.09	331.03	8.80	-30.4	-32.4	11.7	4.91e-04	0	43	0	1181745152	21	4540
2026-01-08 11:50:32.10	331.12	8.73	-30.2	-32.0	12.0	3.54e-04	0	43	0	1183842304	21	4412
2026-01-08 11:50:33.11	331.20	8.66	-30.2	-32.0	12.0	3.32e-04	0	43	0	1184890880	21	4413
2026-01-08 11:50:34.11	331.29	8.58	-30.3	-32.1	11.8	3.68e-04	0	43	0	1186988032	21	4461
2026-01-08 11:50:35.12	331.37	8.51	-30.2	-32.0	12.0	3.31e-04	0	43	0	1189085184	21	4414
2026-01-08 11:50:36.12	331.45	8.44	-30.1	-31.8	12.1	2.62e-04	0	43	0	1191182336	21	4340
2026-01-08 11:50:37.13	331.54	8.37	-30.3	-32.2	11.8	3.75e-04	0	43	0	1193279488	21	4472
2026-01-08 11:50:38.13	331.62	8.30	-30.2	-32.0	11.9	3.36e-04	0	43	0	1195376640	21	4411
2026-01-08 11:50:39.14	331.70	8.23	-30.2	-32.0	11.9	3.48e-04	0	43	0	1196425216	21	4426
2026-01-08 11:50:40.15	331.79	8.16	-30.2	-32.1	11.8	3.43e-04	0	43	0	1198522368	21	4464
2026-01-08 11:50:41.15	331.87	8.09	-30.2	-32.1	11.8	4.11e-04	0	43	0	1200619520	21	4468
2026-01-08 11:50:42.16	331.95	8.02	-30.4	-32.7	11.3	9.08e-04	0	43	0	1202716672	21	4680
2026-01-08 11:50:43.17	332.03	7.95	-30.2	-31.9	11.9	6.90e-04	0	43	0	1204813824	21	4413
2026-01-08 11:50:44.17	332.11	7.88	-30.2	-32.0	11.8	4.79e-04	0	43	0	1205862400	21	4439
2026-01-08 11:50:45.17	332.19	7.81	-30.2	-32.0	11.9	3.22e-04	0	43	0	1207959552	21	4445
2026-01-08 11:50:46.18	332.28	7.74	-30.2	-32.1	11.8	4.53e-04	0	43	0	1210056704	21	4455
2026-01-08 11:50:47.19	332.36	7.67	-30.1	-31.7	12.0	2.77e-04	0	43	0	1212153856	21	4349
2026-01-08 11:50:48.19	332.44	7.60	-30.1	-31.7	12.0	2.59e-04	0	43	0	1213202432	21	4333
2026-01-08 11:50:49.19	332.51	7.53	-30.2	-31.9	11.9	3.63e-04	0	43	0	1215299584	21	4415
2026-01-08 11:50:50.20	332.59	7.46	-30.1	-31.8	11.9	3.11e-04	0	43	0	1217396736	21	4381
2026-01-08 11:50:51.21	332.67	7.39	-30.1	-31.7	12.0	3.70e-04	0	44	0	1219493888	21	4325
2026-01-08 11:50:52.21	332.75	7.32	-30.1	-31.7	12.0	3.05e-04	0	43	0	1221591040	21	4344
2026-01-08 11:50:53.22	332.83	7.25	-30.2	-32.0	11.8	3.88e-04	0	43	0	1223688192	21	4444
2026-01-08 11:50:54.22	332.91	7.19	-30.1	-31.8	11.9	3.24e-04	0	43	0	1224736768	21	4388
2026-01-08 11:50:55.23	332.98	7.12	-30.4	-32.8	11.5	4.16e-04	0	43	0	1226833920	21	4739
2026-01-08 11:50:56.23	333.06	7.05	-33.3	-45.8	3.8	1.49e+00	0	44	104	1226833920	26	15146
2026-01-08 11:50:57.23	333.14	6.98	-33.6	-45.9	3.8	1.49e+00	0	43	104	1226833920	27	14838
2026-01-08 11:50:58.24	333.21	6.91	-33.8	-46.3	3.8	1.49e+00	0	44	104	1226833920	27	15218
2026-01-08 11:50:59.25	333.29	6.85	-33.9	-46.5	3.8	1.49e+00	0	44	104	1226833920	27	15380

#Closed at: 2026-01-08 11:51:00
#Recorded file [1226 MB]: D:/data/31010_260108_144000.dat