passes_logs/2026/01/08/R2M6_AANII_01/R2M6_AANII_01__20260108_110950_NOAA_21_JPSS-2_rec.log

#Pass ID: 20260108_110950_NOAA 21 (JPSS-2)
#Satellite: NOAA 21 (JPSS-2)
#Configuration: NOAA 21
#almurnet v.1.7.20240730
#Start time: 2026-01-08 11:10:58

#Version: 2.2.20231116
#Station: R2M6_AANII_01
#Location: 30.233357 lon 59.946436 lat
#TLE: 1 54234U 22150A   26005.56767909  .00000152  00000+0  92756-4 0  9990
#TLE: 2 54234  98.7490 306.5820 0001036 340.2747  19.8389 14.19532370163472

#Time	Az	El	Level	Level2	SNR	BER	BlckErr	Temp	State	Recorded	gain1	gain2
2026-01-08 11:10:58.75	191.17	12.53	-33.5	-44.6	3.8	8.47e-01	0	43	0	0	27	12852
2026-01-08 11:10:59.74	191.25	12.61	-34.2	-45.7	3.8	1.49e+00	0	43	104	0	29	13528
2026-01-08 11:11:00.75	191.32	12.71	-34.2	-45.7	3.8	1.49e+00	0	43	104	0	29	13567
2026-01-08 11:11:01.74	191.40	12.80	-34.2	-45.8	3.8	1.49e+00	0	43	104	0	29	13602
2026-01-08 11:11:02.73	191.47	12.88	-34.3	-45.8	3.8	1.49e+00	0	43	104	0	29	13639
2026-01-08 11:11:03.74	191.55	12.98	-34.3	-45.8	3.8	1.49e+00	0	43	104	0	29	13652
2026-01-08 11:11:04.73	191.63	13.07	-34.3	-45.9	3.8	1.49e+00	0	43	104	0	29	13724
2026-01-08 11:11:05.73	191.70	13.16	-34.3	-45.9	3.8	1.49e+00	0	43	104	0	29	13734
2026-01-08 11:11:06.74	191.78	13.25	-34.3	-45.9	3.8	1.49e+00	0	43	104	0	29	13721
2026-01-08 11:11:07.74	191.86	13.34	-34.3	-46.0	3.8	1.49e+00	0	43	104	0	29	13769
2026-01-08 11:11:08.75	191.94	13.44	-34.3	-46.0	3.8	1.49e+00	0	43	104	0	29	13774
2026-01-08 11:11:09.75	192.02	13.53	-34.3	-45.9	3.8	1.49e+00	0	43	104	0	29	13738
2026-01-08 11:11:10.75	192.10	13.62	-34.3	-46.0	3.8	1.49e+00	0	43	104	0	29	13788
2026-01-08 11:11:11.75	192.18	13.72	-34.3	-45.9	3.8	1.49e+00	0	43	104	0	29	13733
2026-01-08 11:11:12.74	192.26	13.81	-34.3	-45.9	3.8	1.49e+00	0	43	104	0	29	13774
2026-01-08 11:11:13.74	192.34	13.90	-34.3	-45.9	3.8	1.49e+00	0	43	104	0	29	13766
2026-01-08 11:11:14.74	192.42	14.00	-34.3	-45.9	3.8	1.49e+00	0	43	104	0	29	13764
2026-01-08 11:11:15.75	192.50	14.09	-34.3	-45.9	3.8	1.49e+00	0	43	104	0	29	13718
2026-01-08 11:11:16.75	192.59	14.19	-34.3	-45.9	3.8	1.49e+00	0	43	104	0	29	13719
2026-01-08 11:11:17.75	192.67	14.28	-34.3	-45.9	3.8	1.49e+00	0	43	104	0	29	13767
2026-01-08 11:11:18.76	192.75	14.38	-34.3	-45.9	3.8	1.49e+00	0	43	104	0	29	13696
2026-01-08 11:11:19.76	192.84	14.48	-34.2	-45.7	3.8	1.49e+00	0	44	104	0	29	13604
2026-01-08 11:11:20.77	192.92	14.57	-34.2	-45.7	3.8	1.49e+00	0	43	104	0	29	13557
2026-01-08 11:11:21.77	193.01	14.67	-34.1	-45.5	3.8	1.49e+00	0	43	104	0	29	13433
2026-01-08 11:11:22.76	193.09	14.77	-34.1	-45.5	3.8	1.49e+00	0	43	104	0	29	13406
2026-01-08 11:11:23.76	193.18	14.86	-34.1	-45.5	3.8	1.49e+00	0	43	104	0	29	13421
2026-01-08 11:11:24.76	193.27	14.96	-34.0	-45.3	3.8	1.49e+00	0	43	104	0	29	13227
2026-01-08 11:11:25.75	193.35	15.06	-33.9	-45.1	3.8	1.49e+00	0	43	104	0	29	13076
2026-01-08 11:11:26.76	193.44	15.16	-33.8	-45.0	3.8	1.49e+00	0	44	104	0	29	13007
2026-01-08 11:11:27.75	193.53	15.25	-33.8	-45.0	3.8	1.49e+00	0	43	104	0	29	13011
2026-01-08 11:11:28.76	193.62	15.35	-33.8	-45.0	3.8	1.49e+00	0	43	104	0	29	13014
2026-01-08 11:11:29.76	193.71	15.45	-33.8	-44.9	3.8	1.49e+00	0	43	104	0	29	12914
2026-01-08 11:11:30.77	193.80	15.55	-33.7	-45.3	3.8	1.49e+00	0	43	104	0	28	13628
2026-01-08 11:11:31.77	193.89	15.65	-33.6	-45.1	3.8	1.49e+00	0	43	104	0	28	13509
2026-01-08 11:11:32.77	193.98	15.75	-33.5	-44.9	3.8	1.49e+00	0	44	104	0	28	13360
2026-01-08 11:11:33.76	194.07	15.85	-33.3	-43.1	3.8	1.49e+00	0	44	104	0	28	11123
2026-01-08 11:11:34.75	194.16	15.95	-32.9	-40.6	4.0	1.47e+00	0	43	104	0	27	8757
2026-01-08 11:11:35.75	194.26	16.05	-32.8	-40.0	4.0	8.64e-01	0	43	104	0	27	8283
2026-01-08 11:11:36.76	194.35	16.16	-32.7	-39.6	4.9	1.47e+00	0	43	104	0	26	7888
2026-01-08 11:11:37.76	194.45	16.26	-32.8	-39.6	4.9	7.36e-01	0	43	0	0	26	7940
2026-01-08 11:11:38.76	194.54	16.36	-32.8	-40.6	4.0	8.02e-01	0	43	104	3145728	26	8837
2026-01-08 11:11:39.77	194.64	16.47	-32.9	-40.2	4.7	1.47e+00	0	43	104	3145728	26	8433
2026-01-08 11:11:40.76	194.73	16.57	-32.8	-40.5	4.0	1.47e+00	0	43	104	3145728	26	8797
2026-01-08 11:11:41.75	194.83	16.67	-32.6	-38.6	5.4	5.70e-01	0	43	104	3145728	26	7215
2026-01-08 11:11:42.75	194.93	16.77	-32.0	-36.8	6.7	2.84e-01	0	43	0	1048576	25	6262
2026-01-08 11:11:43.76	195.03	16.88	-31.3	-35.0	8.7	6.23e-02	0	43	0	4194304	23	5550
2026-01-08 11:11:44.75	195.12	16.98	-30.4	-33.0	10.4	7.47e-03	0	43	0	7340032	22	4861
2026-01-08 11:11:45.75	195.22	17.09	-29.5	-31.7	12.0	5.67e-04	0	43	0	10485760	20	4586
2026-01-08 11:11:46.75	195.32	17.19	-28.8	-30.3	13.1	6.40e-05	0	43	0	13631488	19	4281
2026-01-08 11:11:47.76	195.42	17.30	-28.3	-29.5	14.0	5.30e-06	0	44	0	16777216	18	4139
2026-01-08 11:11:48.77	195.53	17.41	-27.9	-29.2	14.4	7.00e-07	0	43	0	19922944	17	4157
2026-01-08 11:11:49.77	195.63	17.51	-27.9	-29.1	14.5	0.00e+00	0	43	0	23068672	17	4123
2026-01-08 11:11:50.77	195.73	17.62	-28.1	-29.5	14.2	1.50e-06	0	43	0	26214400	17	4253
2026-01-08 11:11:51.77	195.84	17.73	-28.5	-30.5	13.6	9.10e-06	0	43	0	29360128	17	4546
2026-01-08 11:11:52.76	195.94	17.83	-29.1	-31.6	12.7	7.32e-05	0	43	0	32505856	18	4761
2026-01-08 11:11:53.76	196.04	17.94	-29.5	-32.4	12.2	2.27e-04	0	44	0	35651584	18	5062
2026-01-08 11:11:54.76	196.15	18.05	-29.1	-31.5	12.7	1.12e-04	0	43	0	38797312	18	4751
2026-01-08 11:11:55.77	196.26	18.16	-29.4	-32.2	12.4	9.91e-05	0	43	0	41943040	18	4973
2026-01-08 11:11:56.77	196.36	18.27	-29.2	-31.2	12.6	1.27e-04	0	44	0	45088768	19	4542
2026-01-08 11:11:57.76	196.47	18.38	-28.8	-30.6	13.4	2.82e-05	0	43	0	48234496	18	4460
2026-01-08 11:11:58.76	196.58	18.49	-28.4	-29.7	13.9	6.80e-06	0	43	0	51380224	18	4194
2026-01-08 11:11:59.76	196.69	18.60	-28.1	-29.5	14.3	2.20e-06	0	43	0	54525952	17	4232
2026-01-08 11:12:00.76	196.80	18.71	-27.8	-29.0	14.6	0.00e+00	0	43	0	57671680	17	4092
2026-01-08 11:12:01.76	196.91	18.82	-27.7	-29.2	14.8	1.37e-05	0	43	0	60817408	16	4260
2026-01-08 11:12:02.75	197.02	18.93	-27.7	-29.2	14.8	1.50e-06	0	43	0	62914560	16	4273
2026-01-08 11:12:03.75	197.13	19.04	-27.7	-29.0	14.9	0.00e+00	0	43	0	66060288	16	4210
2026-01-08 11:12:04.75	197.25	19.15	-27.6	-28.9	15.0	0.00e+00	0	43	0	69206016	16	4177
2026-01-08 11:12:05.75	197.36	19.27	-27.6	-28.8	15.0	0.00e+00	0	43	0	72351744	16	4152
2026-01-08 11:12:06.75	197.48	19.38	-27.6	-28.9	15.0	0.00e+00	0	43	0	75497472	16	4186
2026-01-08 11:12:07.76	197.59	19.49	-27.6	-28.7	15.1	8.30e-06	0	43	0	78643200	16	4129
2026-01-08 11:12:08.76	197.71	19.61	-27.4	-28.5	15.2	0.00e+00	0	43	0	81788928	16	4057
2026-01-08 11:12:09.75	197.82	19.72	-27.4	-28.5	15.2	0.00e+00	0	43	0	84934656	16	4063
2026-01-08 11:12:10.75	197.94	19.84	-27.5	-28.6	15.2	8.30e-06	0	43	0	88080384	16	4102
2026-01-08 11:12:11.75	198.06	19.95	-27.5	-28.5	15.2	0.00e+00	0	43	0	91226112	16	4074
2026-01-08 11:12:12.74	198.18	20.07	-27.4	-28.5	15.2	0.00e+00	0	43	0	94371840	16	4057
2026-01-08 11:12:13.74	198.30	20.18	-27.5	-28.5	15.2	0.00e+00	0	43	0	97517568	16	4070
2026-01-08 11:12:14.75	198.42	20.30	-27.3	-28.3	15.4	0.00e+00	0	43	0	100663296	16	4008
2026-01-08 11:12:15.76	198.55	20.42	-27.1	-28.3	15.5	0.00e+00	0	43	0	103809024	15	4127
2026-01-08 11:12:16.75	198.67	20.53	-27.1	-28.3	15.4	1.67e-05	0	43	0	106954752	15	4131
2026-01-08 11:12:17.76	198.80	20.65	-27.1	-28.2	15.5	0.00e+00	0	43	0	110100480	15	4105
2026-01-08 11:12:18.76	198.92	20.77	-27.3	-28.6	15.3	0.00e+00	0	43	0	113246208	15	4220
2026-01-08 11:12:19.76	199.05	20.89	-27.1	-28.4	15.4	0.00e+00	0	43	0	116391936	15	4143
2026-01-08 11:12:20.77	199.18	21.01	-27.0	-28.0	15.6	0.00e+00	0	43	0	119537664	15	4044
2026-01-08 11:12:21.77	199.31	21.13	-26.9	-27.9	15.7	0.00e+00	0	43	0	122683392	15	4022
2026-01-08 11:12:22.77	199.43	21.25	-27.0	-27.9	15.7	1.14e-05	0	43	0	125829120	15	4032
2026-01-08 11:12:23.76	199.56	21.37	-26.9	-27.8	15.7	0.00e+00	0	43	0	128974848	15	3988
2026-01-08 11:12:24.76	199.69	21.49	-26.9	-27.8	15.8	0.00e+00	0	44	0	132120576	15	4004
2026-01-08 11:12:25.76	199.83	21.61	-26.8	-27.6	15.9	9.10e-06	0	43	0	135266304	15	3930
2026-01-08 11:12:26.76	199.96	21.73	-26.8	-28.0	15.9	0.00e+00	0	43	0	138412032	14	4152
2026-01-08 11:12:27.77	200.10	21.85	-26.7	-27.8	16.0	0.00e+00	0	43	0	141557760	14	4109
2026-01-08 11:12:28.77	200.23	21.98	-26.7	-27.9	16.0	0.00e+00	0	43	0	144703488	14	4116
2026-01-08 11:12:29.78	200.37	22.10	-26.7	-27.8	16.1	0.00e+00	0	43	0	147849216	14	4092
2026-01-08 11:12:30.78	200.51	22.22	-26.7	-27.9	16.0	0.00e+00	0	43	0	150994944	14	4122
2026-01-08 11:12:31.78	200.64	22.35	-26.7	-27.8	16.1	6.10e-06	0	43	0	154140672	14	4102
2026-01-08 11:12:32.78	200.78	22.47	-26.6	-27.7	16.1	0.00e+00	0	43	0	157286400	14	4075
2026-01-08 11:12:33.78	200.92	22.60	-26.5	-27.5	16.2	0.00e+00	0	43	0	160432128	14	4017
2026-01-08 11:12:34.78	201.07	22.72	-26.6	-27.6	16.2	0.00e+00	0	43	0	163577856	14	4046
2026-01-08 11:12:35.78	201.21	22.85	-26.6	-27.5	16.2	0.00e+00	0	43	0	166723584	14	4029
2026-01-08 11:12:36.79	201.35	22.97	-26.5	-27.5	16.3	0.00e+00	0	44	0	169869312	14	4006
2026-01-08 11:12:37.79	201.50	23.10	-26.6	-27.7	16.2	0.00e+00	0	43	0	173015040	14	4060
2026-01-08 11:12:38.78	201.64	23.22	-26.5	-27.5	16.3	0.00e+00	0	43	0	176160768	14	4013
2026-01-08 11:12:39.79	201.79	23.35	-26.5	-27.3	16.4	0.00e+00	0	43	0	179306496	14	3975
2026-01-08 11:12:40.79	201.94	23.48	-26.5	-27.3	16.4	0.00e+00	0	43	0	182452224	14	3974
2026-01-08 11:12:41.79	202.09	23.61	-26.4	-27.1	16.5	0.00e+00	0	44	0	185597952	14	3926
2026-01-08 11:12:42.78	202.24	23.74	-26.3	-27.0	16.5	0.00e+00	0	43	0	188743680	14	3897
2026-01-08 11:12:43.78	202.39	23.86	-26.4	-27.2	16.4	0.00e+00	0	43	0	191889408	14	3934
2026-01-08 11:12:44.78	202.54	23.99	-26.4	-27.1	16.5	0.00e+00	0	44	0	195035136	14	3911
2026-01-08 11:12:45.78	202.70	24.12	-26.4	-27.1	16.5	0.00e+00	0	43	0	198180864	14	3921
2026-01-08 11:12:46.77	202.85	24.25	-26.4	-27.2	16.4	0.00e+00	0	43	0	201326592	14	3946
2026-01-08 11:12:47.76	203.01	24.38	-26.4	-27.3	16.4	0.00e+00	0	44	0	204472320	14	3964
2026-01-08 11:12:48.76	203.17	24.51	-26.5	-27.4	16.4	0.00e+00	0	43	0	207618048	14	3985
2026-01-08 11:12:49.76	203.33	24.64	-26.6	-27.6	16.2	0.00e+00	0	44	0	210763776	14	4059
2026-01-08 11:12:50.75	203.49	24.78	-26.5	-27.4	16.3	0.00e+00	0	43	0	213909504	14	4003
2026-01-08 11:12:51.74	203.65	24.91	-26.5	-27.4	16.4	0.00e+00	0	44	0	216006656	14	3989
2026-01-08 11:12:52.74	203.81	25.04	-26.5	-27.4	16.4	0.00e+00	0	44	0	219152384	14	3995
2026-01-08 11:12:53.74	203.97	25.17	-26.5	-27.5	16.3	0.00e+00	0	44	0	222298112	14	4005
2026-01-08 11:12:54.74	204.14	25.31	-26.5	-27.4	16.4	0.00e+00	0	44	0	225443840	14	3985
2026-01-08 11:12:55.75	204.31	25.44	-26.5	-27.4	16.4	0.00e+00	0	43	0	228589568	14	3988
2026-01-08 11:12:56.75	204.48	25.58	-26.6	-27.6	16.3	0.00e+00	0	43	0	231735296	14	4040
2026-01-08 11:12:57.75	204.65	25.71	-26.8	-28.0	16.1	0.00e+00	0	43	0	234881024	14	4153
2026-01-08 11:12:58.75	204.82	25.85	-26.8	-28.1	16.0	0.00e+00	0	43	0	238026752	14	4163
2026-01-08 11:12:59.75	204.99	25.98	-26.9	-28.3	15.9	0.00e+00	0	43	0	241172480	14	4223
2026-01-08 11:13:00.75	205.17	26.12	-26.9	-28.3	15.9	0.00e+00	0	44	0	244318208	14	4216
2026-01-08 11:13:01.75	205.34	26.25	-27.0	-28.4	15.9	0.00e+00	0	43	0	247463936	14	4255
2026-01-08 11:13:02.75	205.52	26.39	-26.9	-28.3	15.9	0.00e+00	0	43	0	250609664	14	4219
2026-01-08 11:13:03.74	205.70	26.53	-26.9	-28.3	15.9	0.00e+00	0	43	0	253755392	14	4226
2026-01-08 11:13:04.74	205.88	26.66	-27.1	-28.6	15.7	0.00e+00	0	43	0	256901120	14	4309
2026-01-08 11:13:05.74	206.06	26.80	-27.0	-28.6	15.7	0.00e+00	0	43	0	260046848	14	4301
2026-01-08 11:13:06.75	206.25	26.94	-27.0	-28.5	15.8	0.00e+00	0	43	0	263192576	14	4275
2026-01-08 11:13:07.74	206.43	27.08	-27.0	-28.5	15.8	0.00e+00	0	43	0	266338304	14	4290
2026-01-08 11:13:08.74	206.62	27.22	-27.1	-28.7	15.7	0.00e+00	0	43	0	269484032	14	4345
2026-01-08 11:13:09.74	206.81	27.36	-27.2	-28.9	15.6	0.00e+00	0	43	0	272629760	14	4384
2026-01-08 11:13:10.75	207.00	27.50	-27.3	-29.1	15.5	0.00e+00	0	43	0	275775488	14	4447
2026-01-08 11:13:11.74	207.19	27.64	-27.2	-29.0	15.5	0.00e+00	0	43	0	278921216	14	4428
2026-01-08 11:13:12.74	207.38	27.78	-27.3	-29.1	15.5	0.00e+00	0	43	0	282066944	14	4438
2026-01-08 11:13:13.72	207.57	27.92	-27.2	-29.0	15.6	0.00e+00	0	43	0	285212672	14	4406
2026-01-08 11:13:14.73	207.77	28.06	-27.3	-29.1	15.5	0.00e+00	0	43	0	288358400	14	4445
2026-01-08 11:13:15.74	207.97	28.21	-27.2	-29.0	15.6	0.00e+00	0	43	0	291504128	14	4402
2026-01-08 11:13:16.73	208.17	28.35	-27.2	-29.0	15.6	0.00e+00	0	44	0	294649856	14	4407
2026-01-08 11:13:17.74	208.37	28.49	-27.2	-29.0	15.6	0.00e+00	0	43	0	297795584	14	4416
2026-01-08 11:13:18.74	208.58	28.63	-27.3	-29.2	15.4	0.00e+00	0	43	0	300941312	14	4491
2026-01-08 11:13:19.75	208.78	28.78	-27.3	-29.3	15.5	0.00e+00	0	43	0	304087040	14	4496
2026-01-08 11:13:20.75	208.99	28.92	-27.3	-29.2	15.4	0.00e+00	0	43	0	307232768	14	4488
2026-01-08 11:13:21.75	209.20	29.07	-27.5	-29.1	15.2	0.00e+00	0	43	0	310378496	15	4338
2026-01-08 11:13:22.75	209.41	29.21	-27.8	-29.7	14.9	0.00e+00	0	43	0	313524224	15	4519
2026-01-08 11:13:23.74	209.62	29.36	-27.7	-29.5	15.0	0.00e+00	0	43	0	316669952	15	4455
2026-01-08 11:13:24.75	209.84	29.50	-27.5	-29.1	15.2	0.00e+00	0	43	0	319815680	15	4340
2026-01-08 11:13:25.75	210.05	29.65	-27.5	-29.1	15.2	0.00e+00	0	43	0	322961408	15	4336
2026-01-08 11:13:26.75	210.27	29.79	-27.7	-29.5	15.0	0.00e+00	0	43	0	326107136	15	4451
2026-01-08 11:13:27.76	210.50	29.94	-27.5	-29.1	15.3	0.00e+00	0	43	0	329252864	15	4324
2026-01-08 11:13:28.77	210.72	30.09	-27.6	-29.5	15.1	0.00e+00	0	43	0	332398592	15	4433
2026-01-08 11:13:29.77	210.94	30.24	-27.5	-29.2	15.2	0.00e+00	0	43	0	335544320	15	4362
2026-01-08 11:13:30.78	211.17	30.38	-27.3	-28.6	15.6	0.00e+00	0	44	0	338690048	15	4192
2026-01-08 11:13:31.79	211.40	30.53	-27.2	-28.4	15.7	0.00e+00	0	43	0	341835776	15	4145
2026-01-08 11:13:32.79	211.63	30.68	-27.2	-28.4	15.7	0.00e+00	0	43	0	344981504	15	4142
2026-01-08 11:13:33.79	211.87	30.83	-27.3	-28.5	15.6	0.00e+00	0	43	0	348127232	15	4169
2026-01-08 11:13:34.79	212.10	30.98	-27.3	-28.7	15.5	0.00e+00	0	43	0	351272960	15	4223
2026-01-08 11:13:35.79	212.34	31.12	-27.5	-29.1	15.3	0.00e+00	0	43	0	354418688	15	4337
2026-01-08 11:13:36.79	212.58	31.27	-27.5	-29.1	15.3	0.00e+00	0	43	0	357564416	15	4334
2026-01-08 11:13:37.80	212.82	31.42	-27.4	-29.0	15.4	0.00e+00	0	43	0	360710144	15	4300
2026-01-08 11:13:38.80	213.06	31.57	-27.5	-29.1	15.4	0.00e+00	0	43	0	363855872	15	4328
2026-01-08 11:13:39.81	213.31	31.72	-27.5	-29.1	15.3	4.50e-06	0	43	0	367001600	15	4327
2026-01-08 11:13:40.81	213.56	31.87	-27.7	-29.5	15.1	0.00e+00	0	43	0	370147328	15	4453
2026-01-08 11:13:41.82	213.81	32.02	-27.8	-29.7	15.0	0.00e+00	0	43	0	373293056	15	4517
2026-01-08 11:13:42.82	214.06	32.17	-27.8	-29.8	15.0	7.00e-07	0	43	0	376438784	15	4538
2026-01-08 11:13:43.82	214.32	32.32	-28.0	-30.2	14.7	0.00e+00	0	43	0	379584512	15	4646
2026-01-08 11:13:44.82	214.57	32.47	-28.2	-30.2	14.6	0.00e+00	0	44	0	382730240	16	4524
2026-01-08 11:13:45.81	214.83	32.62	-28.2	-30.3	14.5	3.80e-06	0	43	0	385875968	16	4564
2026-01-08 11:13:46.81	215.09	32.77	-28.4	-30.6	14.4	0.00e+00	0	43	0	389021696	16	4652
2026-01-08 11:13:47.82	215.36	32.92	-28.2	-30.3	14.5	0.00e+00	0	43	0	392167424	16	4552
2026-01-08 11:13:48.81	215.62	33.07	-28.2	-30.1	14.7	3.80e-06	0	43	0	395313152	16	4495
2026-01-08 11:13:49.82	215.89	33.22	-28.3	-30.4	14.5	7.00e-07	0	43	0	398458880	16	4580
2026-01-08 11:13:50.81	216.16	33.37	-28.2	-30.1	14.7	7.00e-07	0	43	0	401604608	16	4498
2026-01-08 11:13:51.81	216.44	33.52	-28.1	-30.0	14.7	0.00e+00	0	43	0	404750336	16	4465
2026-01-08 11:13:52.81	216.71	33.67	-28.2	-30.1	14.7	0.00e+00	0	43	0	407896064	16	4486
2026-01-08 11:13:53.81	216.99	33.82	-28.2	-30.1	14.7	7.00e-07	0	43	0	411041792	16	4479
2026-01-08 11:13:54.82	217.27	33.97	-28.2	-30.1	14.7	2.20e-06	0	43	0	414187520	16	4500
2026-01-08 11:13:55.82	217.56	34.12	-28.3	-30.4	14.5	7.00e-07	0	43	0	417333248	16	4595
2026-01-08 11:13:56.83	217.85	34.28	-28.1	-29.9	14.8	0.00e+00	0	43	0	419430400	16	4433
2026-01-08 11:13:57.83	218.14	34.43	-27.9	-29.5	15.1	0.00e+00	0	43	0	422576128	16	4309
2026-01-08 11:13:58.83	218.43	34.58	-27.9	-29.5	15.0	0.00e+00	0	43	0	425721856	16	4315
2026-01-08 11:13:59.83	218.72	34.73	-28.1	-29.9	14.8	0.00e+00	0	43	0	428867584	16	4421
2026-01-08 11:14:00.83	219.02	34.88	-28.1	-29.9	14.8	0.00e+00	0	43	0	432013312	16	4434
2026-01-08 11:14:01.84	219.32	35.03	-28.2	-30.2	14.7	7.00e-07	0	43	0	435159040	16	4519
2026-01-08 11:14:02.83	219.62	35.18	-28.2	-30.1	14.7	0.00e+00	0	43	0	438304768	16	4483
2026-01-08 11:14:03.83	219.92	35.32	-28.2	-30.2	14.7	0.00e+00	0	43	0	441450496	16	4528
2026-01-08 11:14:04.83	220.23	35.47	-28.3	-30.5	14.5	0.00e+00	0	43	0	444596224	16	4604
2026-01-08 11:14:05.83	220.54	35.62	-28.5	-30.5	14.2	2.20e-06	0	43	0	447741952	17	4488
2026-01-08 11:14:06.84	220.86	35.77	-28.6	-30.7	14.1	2.20e-06	0	43	0	450887680	17	4561
2026-01-08 11:14:07.85	221.18	35.92	-28.7	-30.8	14.0	4.50e-06	0	43	0	454033408	17	4597
2026-01-08 11:14:08.84	221.49	36.07	-28.8	-31.1	13.8	0.00e+00	0	43	0	457179136	17	4702
2026-01-08 11:14:09.83	221.81	36.22	-28.8	-31.2	13.8	5.30e-06	0	43	0	460324864	17	4717
2026-01-08 11:14:10.84	222.14	36.37	-28.8	-31.2	13.8	3.00e-06	0	43	0	463470592	17	4716
2026-01-08 11:14:11.85	222.47	36.52	-29.0	-31.5	13.6	8.30e-06	0	43	0	466616320	17	4820
2026-01-08 11:14:12.84	222.80	36.66	-28.9	-30.7	13.8	5.30e-06	0	43	0	469762048	18	4454
2026-01-08 11:14:13.83	223.13	36.81	-28.9	-30.9	13.7	4.50e-06	0	43	0	472907776	18	4511
2026-01-08 11:14:14.83	223.47	36.95	-29.0	-31.0	13.7	8.30e-06	0	43	0	476053504	18	4556
2026-01-08 11:14:15.82	223.80	37.10	-29.1	-31.3	13.4	7.60e-06	0	43	0	479199232	18	4636
2026-01-08 11:14:16.83	224.15	37.24	-29.1	-31.3	13.5	9.10e-06	0	44	0	482344960	18	4641
2026-01-08 11:14:17.83	224.49	37.39	-29.1	-31.2	13.5	6.80e-06	0	43	0	485490688	18	4622
2026-01-08 11:14:18.84	224.84	37.53	-29.3	-31.7	13.2	2.05e-05	0	43	0	488636416	18	4764
2026-01-08 11:14:19.85	225.20	37.68	-29.2	-31.6	13.3	1.52e-05	0	43	0	491782144	18	4717
2026-01-08 11:14:20.85	225.55	37.82	-29.4	-32.0	13.1	3.58e-05	0	43	0	494927872	18	4847
2026-01-08 11:14:21.84	225.91	37.96	-29.2	-31.4	13.4	1.52e-05	0	43	0	498073600	18	4663
2026-01-08 11:14:22.83	226.26	38.10	-29.1	-31.2	13.6	9.10e-06	0	43	0	501219328	18	4589
2026-01-08 11:14:23.83	226.63	38.24	-29.1	-31.2	13.5	5.30e-06	0	43	0	504365056	18	4591
2026-01-08 11:14:24.83	227.00	38.38	-29.0	-31.1	13.5	9.10e-06	0	43	0	507510784	18	4575
2026-01-08 11:14:25.83	227.37	38.52	-29.2	-31.5	13.3	9.10e-06	0	43	0	510656512	18	4693
2026-01-08 11:14:26.83	227.74	38.66	-29.0	-31.1	13.6	1.14e-05	0	43	0	513802240	18	4560
2026-01-08 11:14:27.83	228.11	38.80	-29.3	-31.8	13.2	1.44e-05	0	43	0	516947968	18	4780
2026-01-08 11:14:28.83	228.49	38.94	-29.1	-31.3	13.5	1.83e-05	0	43	0	520093696	18	4616
2026-01-08 11:14:29.84	228.88	39.08	-28.9	-30.8	13.8	3.00e-06	0	43	0	523239424	18	4483
2026-01-08 11:14:30.83	229.26	39.21	-28.8	-30.5	14.0	3.80e-06	0	43	0	526385152	18	4391
2026-01-08 11:14:31.83	229.65	39.35	-28.8	-30.4	14.1	2.20e-06	0	43	0	529530880	18	4371
2026-01-08 11:14:32.84	230.05	39.48	-28.8	-30.6	14.0	3.80e-06	0	43	0	532676608	18	4410
2026-01-08 11:14:33.83	230.44	39.61	-28.8	-30.5	14.0	3.00e-06	0	43	0	535822336	18	4376
2026-01-08 11:14:34.83	230.84	39.74	-28.8	-30.6	13.9	2.20e-06	0	43	0	538968064	18	4423
2026-01-08 11:14:35.83	231.24	39.87	-28.8	-30.6	13.9	3.00e-06	0	43	0	542113792	18	4428
2026-01-08 11:14:36.83	231.64	40.00	-28.9	-30.8	13.8	3.80e-06	0	43	0	545259520	18	4473
2026-01-08 11:14:37.82	232.05	40.13	-28.8	-30.6	13.9	1.50e-06	0	43	0	548405248	18	4414
2026-01-08 11:14:38.82	232.46	40.26	-28.9	-30.8	13.8	4.50e-06	0	43	0	551550976	18	4473
2026-01-08 11:14:39.82	232.87	40.39	-29.2	-31.4	13.4	1.44e-05	0	43	0	554696704	18	4668
2026-01-08 11:14:40.83	233.29	40.51	-29.4	-31.9	13.1	2.59e-05	0	43	0	557842432	18	4819
2026-01-08 11:14:41.83	233.71	40.64	-29.4	-31.9	13.1	3.43e-05	0	43	0	560988160	18	4817
2026-01-08 11:14:42.82	234.13	40.76	-29.4	-32.1	13.1	3.28e-05	0	43	0	564133888	18	4874
2026-01-08 11:14:43.81	234.56	40.88	-29.3	-31.7	13.3	1.67e-05	0	43	0	567279616	18	4751
2026-01-08 11:14:44.81	234.99	41.00	-29.2	-31.5	13.4	1.52e-05	0	43	0	570425344	18	4683
2026-01-08 11:14:45.82	235.42	41.12	-29.4	-31.9	13.2	1.22e-05	0	43	0	573571072	18	4813
2026-01-08 11:14:46.83	235.86	41.23	-29.3	-31.9	13.2	1.75e-05	0	43	0	576716800	18	4813
2026-01-08 11:14:47.83	236.30	41.35	-29.4	-32.0	13.1	2.13e-05	0	43	0	578813952	18	4863
2026-01-08 11:14:48.83	236.75	41.46	-29.5	-32.1	13.0	2.59e-05	0	43	0	581959680	18	4888
2026-01-08 11:14:49.83	237.19	41.58	-29.6	-32.0	12.8	3.28e-05	0	43	0	585105408	19	4747
2026-01-08 11:14:50.83	237.64	41.69	-29.8	-32.5	12.5	8.85e-05	0	43	0	588251136	19	4890
2026-01-08 11:14:51.84	238.10	41.80	-29.8	-32.4	12.6	1.18e-04	0	43	0	591396864	19	4852
2026-01-08 11:14:52.83	238.55	41.90	-30.0	-33.0	12.2	1.30e-04	0	43	0	594542592	19	5064
2026-01-08 11:14:53.83	239.00	42.01	-30.0	-32.5	12.2	2.43e-04	0	43	0	597688320	20	4808
2026-01-08 11:14:54.84	239.47	42.12	-30.0	-32.6	12.0	2.82e-04	0	43	0	600834048	20	4824
2026-01-08 11:14:55.84	239.93	42.22	-30.1	-32.7	12.0	3.97e-04	0	43	0	603979776	20	4863
2026-01-08 11:14:56.84	240.40	42.32	-29.9	-32.3	12.2	2.75e-04	0	43	0	607125504	20	4755
2026-01-08 11:14:57.84	240.87	42.42	-29.8	-32.1	12.4	2.17e-04	0	43	0	610271232	20	4679
2026-01-08 11:14:58.83	241.34	42.51	-29.8	-32.0	12.4	1.50e-04	0	43	0	613416960	20	4645
2026-01-08 11:14:59.84	241.82	42.61	-29.7	-31.8	12.5	1.25e-04	0	43	0	616562688	20	4587
2026-01-08 11:15:00.83	242.29	42.70	-29.7	-31.9	12.5	1.35e-04	0	43	0	619708416	20	4603
2026-01-08 11:15:01.83	242.77	42.79	-29.7	-31.8	12.5	1.24e-04	0	43	0	622854144	20	4579
2026-01-08 11:15:02.83	243.25	42.88	-29.5	-31.3	12.8	6.40e-05	0	43	0	625999872	20	4405
2026-01-08 11:15:03.83	243.74	42.97	-29.5	-31.3	12.9	4.11e-05	0	43	0	629145600	20	4415
2026-01-08 11:15:04.83	244.22	43.05	-29.3	-30.8	13.1	2.44e-05	0	43	0	632291328	20	4259
2026-01-08 11:15:05.83	244.72	43.14	-29.4	-31.1	12.9	3.50e-05	0	43	0	635437056	20	4366
2026-01-08 11:15:06.83	245.21	43.22	-29.8	-32.1	12.3	1.27e-04	0	43	0	638582784	20	4680
2026-01-08 11:15:07.83	245.70	43.30	-29.9	-32.3	12.2	2.63e-04	0	43	0	641728512	20	4743
2026-01-08 11:15:08.83	246.20	43.37	-29.7	-31.7	12.6	1.30e-04	0	43	0	644874240	20	4548
2026-01-08 11:15:09.83	246.70	43.45	-29.5	-31.3	12.9	6.02e-05	0	43	0	648019968	20	4423
2026-01-08 11:15:10.83	247.20	43.52	-29.8	-31.9	12.5	1.11e-04	0	43	0	651165696	20	4607
2026-01-08 11:15:11.83	247.71	43.59	-29.8	-32.0	12.4	1.71e-04	0	43	0	654311424	20	4651
2026-01-08 11:15:12.83	248.22	43.66	-30.2	-33.2	11.7	4.90e-04	0	44	0	657457152	20	5035
2026-01-08 11:15:13.82	248.72	43.72	-30.3	-33.5	11.4	9.74e-04	0	43	0	660602880	20	5160
2026-01-08 11:15:14.82	249.23	43.78	-30.3	-33.3	11.6	9.69e-04	0	43	0	663748608	20	5101
2026-01-08 11:15:15.83	249.75	43.85	-30.0	-32.4	12.2	2.73e-04	0	43	0	666894336	20	4764
2026-01-08 11:15:16.83	250.26	43.90	-30.0	-32.5	12.1	2.14e-04	0	44	0	670040064	20	4801
2026-01-08 11:15:17.83	250.78	43.96	-29.8	-31.9	12.5	1.29e-04	0	43	0	673185792	20	4605
2026-01-08 11:15:18.83	251.30	44.01	-29.6	-31.5	12.8	7.40e-05	0	43	0	676331520	20	4469
2026-01-08 11:15:19.82	251.81	44.06	-29.7	-31.6	12.7	7.62e-05	0	43	0	679477248	20	4524
2026-01-08 11:15:20.82	252.33	44.11	-29.6	-31.5	12.7	9.07e-05	0	43	0	682622976	20	4486
2026-01-08 11:15:21.81	252.85	44.15	-29.8	-32.1	12.4	1.28e-04	0	43	0	685768704	20	4652
2026-01-08 11:15:22.82	253.38	44.20	-29.7	-31.6	12.6	8.85e-05	0	43	0	688914432	20	4509
2026-01-08 11:15:23.81	253.90	44.24	-29.6	-31.4	12.8	7.17e-05	0	43	0	692060160	20	4437
2026-01-08 11:15:24.81	254.43	44.28	-29.4	-31.1	13.0	3.81e-05	0	43	0	695205888	20	4349
2026-01-08 11:15:25.80	254.95	44.31	-29.3	-31.1	13.3	1.83e-05	0	43	0	698351616	19	4450
2026-01-08 11:15:26.80	255.48	44.34	-29.2	-31.0	13.4	1.37e-05	0	43	0	701497344	19	4425
2026-01-08 11:15:27.80	256.01	44.37	-29.4	-31.5	13.2	3.12e-05	0	43	0	704643072	19	4564
2026-01-08 11:15:28.79	256.54	44.40	-29.5	-31.7	13.0	3.58e-05	0	43	0	707788800	19	4633
2026-01-08 11:15:29.80	257.07	44.43	-29.6	-31.9	12.9	5.03e-05	0	43	0	710934528	19	4704
2026-01-08 11:15:30.80	257.61	44.45	-29.6	-31.9	12.9	3.58e-05	0	43	0	713031680	19	4702
2026-01-08 11:15:31.80	258.14	44.47	-29.7	-32.3	12.7	7.24e-05	0	43	0	716177408	19	4855
2026-01-08 11:15:32.80	258.67	44.48	-29.8	-32.5	12.5	1.19e-04	0	43	0	719323136	19	4897
2026-01-08 11:15:33.79	259.20	44.50	-29.8	-32.5	12.5	1.07e-04	0	43	0	722468864	19	4917
2026-01-08 11:15:34.79	259.74	44.51	-29.7	-32.1	12.7	7.09e-05	0	43	0	725614592	19	4781
2026-01-08 11:15:35.80	260.28	44.52	-29.6	-32.0	12.8	6.10e-05	0	43	0	728760320	19	4739
2026-01-08 11:15:36.80	260.81	44.52	-29.8	-32.3	12.6	7.47e-05	0	43	0	731906048	19	4854
2026-01-08 11:15:37.79	261.34	44.53	-29.7	-32.1	12.7	7.17e-05	0	43	0	735051776	19	4778
2026-01-08 11:15:38.80	261.88	44.53	-29.7	-32.3	12.7	7.55e-05	0	44	0	738197504	19	4841
2026-01-08 11:15:39.80	262.42	44.52	-29.6	-32.1	12.8	5.56e-05	0	43	0	741343232	19	4761
2026-01-08 11:15:40.79	262.95	44.52	-29.8	-32.5	12.5	9.23e-05	0	43	0	744488960	19	4916
2026-01-08 11:15:41.79	263.49	44.51	-29.5	-31.8	12.9	5.34e-05	0	43	0	747634688	19	4677
2026-01-08 11:15:42.79	264.02	44.50	-29.5	-31.6	13.1	2.36e-05	0	44	0	750780416	19	4585
2026-01-08 11:15:43.79	264.55	44.49	-29.6	-31.8	13.0	4.88e-05	0	43	0	753926144	19	4676
2026-01-08 11:15:44.79	265.09	44.47	-29.6	-32.0	12.9	6.56e-05	0	43	0	757071872	19	4730
2026-01-08 11:15:45.79	265.62	44.45	-29.8	-32.4	12.6	7.47e-05	0	43	0	760217600	19	4847
2026-01-08 11:15:46.79	266.15	44.43	-29.7	-32.2	12.7	7.62e-05	0	43	0	763363328	19	4804
2026-01-08 11:15:47.79	266.69	44.41	-29.6	-31.9	12.9	6.33e-05	0	43	0	766509056	19	4710
2026-01-08 11:15:48.79	267.22	44.38	-29.3	-31.3	13.3	1.98e-05	0	44	0	769654784	19	4510
2026-01-08 11:15:49.79	267.75	44.35	-29.5	-31.7	13.1	2.51e-05	0	43	0	772800512	19	4629
2026-01-08 11:15:50.79	268.28	44.32	-29.3	-31.3	13.3	1.90e-05	0	43	0	775946240	19	4509
2026-01-08 11:15:51.79	268.80	44.29	-29.2	-30.9	13.5	1.52e-05	0	43	0	779091968	19	4388
2026-01-08 11:15:52.79	269.33	44.25	-29.2	-30.9	13.5	3.80e-06	0	43	0	782237696	19	4374
2026-01-08 11:15:53.80	269.86	44.21	-29.3	-31.1	13.4	5.30e-06	0	43	0	785383424	19	4452
2026-01-08 11:15:54.79	270.38	44.17	-29.3	-31.1	13.4	1.52e-05	0	43	0	788529152	19	4452
2026-01-08 11:15:55.79	270.90	44.12	-29.6	-31.8	12.9	2.05e-05	0	43	0	791674880	19	4668
2026-01-08 11:15:56.79	271.43	44.08	-29.5	-31.6	13.1	4.57e-05	0	43	0	794820608	19	4618
2026-01-08 11:15:57.79	271.95	44.03	-29.1	-30.8	13.6	6.10e-06	0	43	0	797966336	19	4348
2026-01-08 11:15:58.79	272.46	43.97	-29.2	-31.0	13.4	1.44e-05	0	43	0	801112064	19	4427
2026-01-08 11:15:59.80	272.98	43.92	-29.6	-32.0	12.9	4.42e-05	0	43	0	804257792	19	4755
2026-01-08 11:16:00.80	273.50	43.86	-30.0	-32.5	12.2	1.92e-04	0	43	0	807403520	20	4799
2026-01-08 11:16:01.80	274.01	43.80	-30.3	-33.3	11.7	5.22e-04	0	43	0	810549248	20	5088
2026-01-08 11:16:02.79	274.52	43.74	-30.1	-32.7	12.0	4.36e-04	0	43	0	813694976	20	4853
2026-01-08 11:16:03.79	275.03	43.68	-29.9	-32.4	12.3	2.30e-04	0	43	0	816840704	20	4758
2026-01-08 11:16:04.78	275.53	43.61	-29.7	-31.7	12.7	8.01e-05	0	43	0	819986432	20	4542
2026-01-08 11:16:05.79	276.04	43.54	-29.6	-31.5	12.8	7.32e-05	0	43	0	823132160	20	4487
2026-01-08 11:16:06.79	276.54	43.47	-29.5	-31.1	13.0	5.56e-05	0	43	0	826277888	20	4368
2026-01-08 11:16:07.80	277.04	43.39	-29.4	-31.0	13.1	3.50e-05	0	43	0	829423616	20	4328
2026-01-08 11:16:08.80	277.54	43.32	-28.9	-31.3	12.3	5.18e-05	0	43	0	832569344	19	4758
2026-01-08 11:16:09.79	278.03	43.24	-29.0	-31.7	12.2	1.79e-02	0	43	0	835715072	19	4887
2026-01-08 11:16:10.80	278.53	43.16	-29.2	-32.2	11.9	1.78e-02	0	43	0	838860800	19	5052
2026-01-08 11:16:11.81	279.03	43.08	-29.1	-31.7	12.2	1.74e-02	0	43	0	842006528	19	4864
2026-01-08 11:16:12.81	279.51	42.99	-28.7	-31.4	12.7	1.68e-02	0	43	0	845152256	18	4862
2026-01-08 11:16:13.82	280.00	42.91	-28.5	-30.6	13.1	1.64e-02	0	43	0	848297984	18	4602
2026-01-08 11:16:14.82	280.49	42.82	-28.4	-30.5	13.2	1.57e-02	0	43	0	851443712	18	4558
2026-01-08 11:16:15.83	280.97	42.73	-28.7	-31.1	12.9	1.05e-02	0	43	0	854589440	18	4765
2026-01-08 11:16:16.84	281.45	42.63	-28.8	-31.5	12.7	1.26e-02	0	43	0	857735168	18	4877
2026-01-08 11:16:17.85	281.93	42.54	-29.9	-32.7	12.4	1.08e-04	0	43	0	860880896	19	4951
2026-01-08 11:16:18.85	282.40	42.44	-30.1	-32.9	12.0	3.62e-04	0	44	0	864026624	20	4942
2026-01-08 11:16:19.87	282.88	42.34	-30.2	-33.2	11.8	5.35e-04	0	43	0	867172352	20	5034
2026-01-08 11:16:20.87	283.35	42.24	-29.9	-32.3	12.2	2.61e-04	0	43	0	870318080	20	4724
2026-01-08 11:16:21.88	283.81	42.14	-29.8	-31.9	12.6	1.18e-04	0	43	0	873463808	20	4597
2026-01-08 11:16:22.88	284.27	42.03	-29.8	-31.9	12.5	9.38e-05	0	43	0	876609536	20	4596
2026-01-08 11:16:23.89	284.74	41.93	-29.8	-32.1	12.4	1.53e-04	0	44	0	879755264	20	4680
2026-01-08 11:16:24.89	285.19	41.82	-30.1	-32.7	12.1	2.15e-04	0	43	0	882900992	20	4851
2026-01-08 11:16:25.90	285.65	41.71	-30.1	-32.7	12.1	2.84e-04	0	43	0	886046720	20	4848
2026-01-08 11:16:26.90	286.09	41.60	-30.5	-33.8	11.3	6.79e-04	0	43	0	889192448	20	5266
2026-01-08 11:16:27.91	286.54	41.49	-30.7	-34.0	10.9	1.82e-03	0	43	0	892338176	21	5219
2026-01-08 11:16:28.91	286.98	41.38	-30.6	-33.6	11.1	1.79e-03	0	43	0	895483904	21	5087
2026-01-08 11:16:29.92	287.43	41.26	-30.1	-32.3	12.0	5.34e-04	0	43	0	898629632	21	4627
2026-01-08 11:16:30.93	287.87	41.14	-29.8	-31.9	12.6	1.10e-04	0	43	0	901775360	20	4596
2026-01-08 11:16:31.94	288.30	41.02	-29.8	-32.0	12.5	8.54e-05	0	43	0	904921088	20	4620
2026-01-08 11:16:32.94	288.73	40.90	-29.9	-32.1	12.4	1.61e-04	0	43	0	908066816	20	4665
2026-01-08 11:16:33.95	289.16	40.78	-30.2	-33.1	11.8	3.89e-04	0	43	0	911212544	20	4996
2026-01-08 11:16:34.95	289.59	40.66	-30.1	-32.8	11.9	3.52e-04	0	44	0	914358272	20	4903
2026-01-08 11:16:35.95	290.01	40.54	-30.0	-32.5	12.1	2.95e-04	0	43	0	917504000	20	4804
2026-01-08 11:16:36.96	290.43	40.41	-29.8	-32.0	12.4	1.46e-04	0	43	0	920649728	20	4650
2026-01-08 11:16:37.97	290.85	40.29	-29.6	-31.6	12.8	8.16e-05	0	43	0	923795456	20	4500
2026-01-08 11:16:38.97	291.26	40.16	-29.3	-30.9	13.2	2.44e-05	0	43	0	926941184	20	4289
2026-01-08 11:16:39.97	291.66	40.03	-29.1	-30.7	13.6	1.29e-05	0	43	0	930086912	19	4318
2026-01-08 11:16:40.97	292.07	39.90	-28.9	-30.2	14.0	2.20e-06	0	43	0	933232640	19	4184
2026-01-08 11:16:41.98	292.47	39.77	-29.0	-30.4	13.8	3.00e-06	0	43	0	936378368	19	4235
2026-01-08 11:16:42.99	292.87	39.64	-29.3	-31.1	13.4	1.37e-05	0	43	0	939524096	19	4456
2026-01-08 11:16:44.00	293.27	39.50	-29.3	-31.3	13.3	1.29e-05	0	43	0	942669824	19	4515
2026-01-08 11:16:45.01	293.67	39.37	-29.5	-31.6	13.1	3.12e-05	0	43	0	945815552	19	4621
2026-01-08 11:16:46.02	294.06	39.23	-29.2	-30.8	13.5	1.37e-05	0	43	0	948961280	19	4363
2026-01-08 11:16:47.02	294.44	39.10	-28.8	-30.0	14.0	6.80e-06	0	43	0	952107008	19	4134
2026-01-08 11:16:48.03	294.83	38.96	-29.0	-31.1	13.7	3.00e-06	0	43	0	955252736	18	4549
2026-01-08 11:16:49.04	295.21	38.82	-29.2	-31.4	13.5	1.22e-05	0	43	0	958398464	18	4663
2026-01-08 11:16:50.04	295.59	38.69	-29.4	-31.9	13.2	1.44e-05	0	43	0	961544192	18	4822
2026-01-08 11:16:51.04	295.96	38.55	-29.2	-31.5	13.4	1.44e-05	0	43	0	964689920	18	4675
2026-01-08 11:16:52.05	296.33	38.41	-29.1	-31.2	13.6	9.10e-06	0	43	0	967835648	18	4591
2026-01-08 11:16:53.05	296.70	38.27	-29.4	-32.0	13.1	2.28e-05	0	43	0	970981376	18	4859
2026-01-08 11:16:54.06	297.06	38.13	-29.5	-32.1	13.1	2.13e-05	0	43	0	974127104	18	4887
2026-01-08 11:16:55.06	297.42	37.99	-29.4	-32.0	13.1	3.35e-05	0	43	0	977272832	18	4846
2026-01-08 11:16:56.07	297.78	37.84	-29.1	-31.3	13.5	9.90e-06	0	43	0	980418560	18	4631
2026-01-08 11:16:57.07	298.14	37.70	-29.1	-31.3	13.6	1.22e-05	0	43	0	983564288	18	4611
2026-01-08 11:16:58.08	298.49	37.56	-29.2	-31.4	13.5	1.06e-05	0	43	0	986710016	18	4652
2026-01-08 11:16:59.09	298.84	37.41	-28.8	-30.5	14.0	2.20e-06	0	44	0	989855744	18	4376
2026-01-08 11:17:00.09	299.18	37.27	-28.5	-29.9	14.3	3.00e-06	0	43	0	993001472	18	4209
2026-01-08 11:17:01.10	299.53	37.12	-28.5	-29.8	14.5	7.00e-07	0	43	0	996147200	18	4174
2026-01-08 11:17:02.11	299.87	36.98	-28.5	-29.7	14.4	1.50e-06	0	43	0	999292928	18	4152
2026-01-08 11:17:03.11	300.21	36.83	-28.7	-30.2	14.2	7.00e-07	0	43	0	1002438656	18	4293
2026-01-08 11:17:04.12	300.54	36.68	-28.7	-30.2	14.1	7.00e-07	0	43	0	1005584384	18	4306
2026-01-08 11:17:05.12	300.87	36.54	-28.8	-30.5	14.0	7.00e-07	0	43	0	1008730112	18	4385
2026-01-08 11:17:06.13	301.20	36.39	-28.9	-30.7	13.9	6.10e-06	0	43	0	1011875840	18	4445
2026-01-08 11:17:07.14	301.53	36.24	-28.8	-30.6	13.9	3.80e-06	0	43	0	1015021568	18	4403
2026-01-08 11:17:08.15	301.85	36.09	-28.8	-30.6	13.9	6.10e-06	0	43	0	1018167296	18	4408
2026-01-08 11:17:09.16	302.17	35.94	-29.0	-31.0	13.7	4.50e-06	0	43	0	1021313024	18	4520
2026-01-08 11:17:10.16	302.49	35.80	-28.8	-30.6	13.9	3.80e-06	0	43	0	1024458752	18	4411
2026-01-08 11:17:11.17	302.80	35.65	-28.9	-30.8	13.9	3.80e-06	0	43	0	1027604480	18	4462
2026-01-08 11:17:12.17	303.11	35.50	-28.9	-30.8	13.8	6.10e-06	0	43	0	1030750208	18	4475
2026-01-08 11:17:13.17	303.42	35.35	-28.9	-30.7	13.8	5.30e-06	0	43	0	1033895936	18	4449
2026-01-08 11:17:14.18	303.72	35.20	-29.0	-31.1	13.7	1.06e-05	0	43	0	1037041664	18	4557
2026-01-08 11:17:15.19	304.03	35.05	-29.1	-31.3	13.5	7.60e-06	0	43	0	1040187392	18	4621
2026-01-08 11:17:16.20	304.33	34.90	-28.9	-30.9	13.8	3.80e-06	0	43	0	1043333120	18	4492
2026-01-08 11:17:17.21	304.63	34.75	-28.9	-30.8	13.8	3.80e-06	0	43	0	1046478848	18	4476
2026-01-08 11:17:18.21	304.92	34.60	-28.9	-30.8	13.8	5.30e-06	0	43	0	1049624576	18	4472
2026-01-08 11:17:19.22	305.21	34.45	-28.9	-30.7	13.9	6.80e-06	0	43	0	1052770304	18	4458
2026-01-08 11:17:20.23	305.51	34.30	-28.5	-29.9	14.3	0.00e+00	0	43	0	1055916032	18	4204
2026-01-08 11:17:21.23	305.79	34.15	-28.3	-29.4	14.6	0.00e+00	0	43	0	1059061760	18	4079
2026-01-08 11:17:22.24	306.08	34.00	-28.4	-29.5	14.6	0.00e+00	0	43	0	1062207488	18	4095
2026-01-08 11:17:23.24	306.36	33.85	-28.4	-29.5	14.6	0.00e+00	0	43	0	1065353216	18	4109
2026-01-08 11:17:24.25	306.64	33.70	-28.3	-29.4	14.6	7.00e-07	0	43	0	1068498944	18	4075
2026-01-08 11:17:25.26	306.91	33.55	-28.2	-29.7	14.7	0.00e+00	0	43	0	1071644672	17	4270
2026-01-08 11:17:26.27	307.19	33.40	-28.2	-29.7	14.7	0.00e+00	0	43	0	1074790400	17	4261
2026-01-08 11:17:27.27	307.46	33.25	-28.0	-29.2	15.0	7.00e-07	0	43	0	1077936128	17	4129
2026-01-08 11:17:28.28	307.73	33.10	-28.0	-29.2	15.0	0.00e+00	0	43	0	1081081856	17	4117
2026-01-08 11:17:29.28	307.99	32.95	-27.9	-29.0	15.1	0.00e+00	0	43	0	1084227584	17	4067
2026-01-08 11:17:30.29	308.26	32.80	-27.9	-29.0	15.1	0.00e+00	0	43	0	1087373312	17	4061
2026-01-08 11:17:31.30	308.52	32.64	-27.9	-29.0	15.1	7.00e-07	0	43	0	1090519040	17	4066
2026-01-08 11:17:32.30	308.78	32.50	-27.7	-28.9	15.5	0.00e+00	0	43	0	1093664768	16	4136
2026-01-08 11:17:33.31	309.04	32.35	-27.4	-28.3	15.8	0.00e+00	0	43	0	1096810496	16	3980
2026-01-08 11:17:34.31	309.29	32.20	-27.3	-28.2	15.8	0.00e+00	0	43	0	1099956224	16	3954
2026-01-08 11:17:35.32	309.54	32.05	-27.4	-28.2	15.8	0.00e+00	0	43	0	1103101952	16	3962
2026-01-08 11:17:36.33	309.80	31.90	-27.3	-28.0	15.9	0.00e+00	0	43	0	1106247680	16	3919
2026-01-08 11:17:37.33	310.04	31.75	-27.1	-28.2	15.9	0.00e+00	0	43	0	1109393408	15	4063
2026-01-08 11:17:38.34	310.29	31.60	-27.2	-28.3	15.8	0.00e+00	0	43	0	1112539136	15	4113
2026-01-08 11:17:39.35	310.53	31.45	-27.3	-28.6	15.7	0.00e+00	0	43	0	1115684864	15	4187
2026-01-08 11:17:40.36	310.78	31.30	-27.2	-28.4	15.8	0.00e+00	0	43	0	1118830592	15	4134
2026-01-08 11:17:41.36	311.01	31.15	-27.3	-28.7	15.6	0.00e+00	0	43	0	1121976320	15	4208
2026-01-08 11:17:42.36	311.25	31.01	-27.4	-28.9	15.5	0.00e+00	0	43	0	1125122048	15	4265
2026-01-08 11:17:43.37	311.49	30.86	-27.4	-28.8	15.6	0.00e+00	0	43	0	1128267776	15	4239
2026-01-08 11:17:44.38	311.72	30.71	-27.4	-28.8	15.5	7.00e-07	0	43	0	1131413504	15	4247
2026-01-08 11:17:45.38	311.95	30.56	-27.4	-28.9	15.5	0.00e+00	0	43	0	1134559232	15	4270
2026-01-08 11:17:46.39	312.18	30.42	-27.5	-29.0	15.4	0.00e+00	0	43	0	1137704960	15	4286
2026-01-08 11:17:47.40	312.41	30.27	-27.5	-29.2	15.3	0.00e+00	0	43	0	1140850688	15	4338
2026-01-08 11:17:48.41	312.63	30.12	-27.6	-29.4	15.2	0.00e+00	0	43	0	1143996416	15	4402
2026-01-08 11:17:49.42	312.86	29.97	-27.8	-29.7	15.0	0.00e+00	0	43	0	1147142144	15	4496
2026-01-08 11:17:50.43	313.08	29.83	-28.1	-29.9	14.8	0.00e+00	0	43	0	1150287872	16	4442
2026-01-08 11:17:51.43	313.29	29.68	-27.8	-29.1	15.3	0.00e+00	0	43	0	1153433600	16	4208
2026-01-08 11:17:52.44	313.51	29.54	-27.5	-28.5	15.6	0.00e+00	0	43	0	1156579328	16	4059
2026-01-08 11:17:53.45	313.73	29.39	-27.4	-28.2	15.8	0.00e+00	0	43	0	1159725056	16	3975
2026-01-08 11:17:54.45	313.94	29.25	-27.4	-28.2	15.7	0.00e+00	0	43	0	1162870784	16	3980
2026-01-08 11:17:55.46	314.15	29.10	-27.4	-28.4	15.6	0.00e+00	0	43	0	1166016512	16	4022
2026-01-08 11:17:56.46	314.36	28.96	-27.6	-28.7	15.4	0.00e+00	0	43	0	1169162240	16	4105
2026-01-08 11:17:57.47	314.57	28.82	-27.6	-28.8	15.4	0.00e+00	0	43	0	1172307968	16	4121
2026-01-08 11:17:58.47	314.77	28.67	-27.4	-28.4	15.6	0.00e+00	0	43	0	1175453696	16	4022
2026-01-08 11:17:59.48	314.98	28.53	-27.3	-28.2	15.7	0.00e+00	0	43	0	1178599424	16	3963
2026-01-08 11:18:00.49	315.18	28.39	-27.4	-28.2	15.7	0.00e+00	0	43	0	1181745152	16	3971
2026-01-08 11:18:01.49	315.38	28.25	-27.4	-28.2	15.7	0.00e+00	0	43	0	1184890880	16	3978
2026-01-08 11:18:02.50	315.58	28.10	-27.4	-28.3	15.7	0.00e+00	0	43	0	1188036608	16	3993
2026-01-08 11:18:03.51	315.78	27.96	-27.4	-28.2	15.7	0.00e+00	0	43	0	1191182336	16	3981
2026-01-08 11:18:04.52	315.97	27.82	-27.5	-28.6	15.5	0.00e+00	0	43	0	1194328064	16	4075
2026-01-08 11:18:05.52	316.16	27.68	-27.5	-28.5	15.5	0.00e+00	0	43	0	1197473792	16	4058
2026-01-08 11:18:06.52	316.36	27.54	-27.4	-28.3	15.7	0.00e+00	0	43	0	1200619520	16	4005
2026-01-08 11:18:07.53	316.55	27.40	-27.4	-28.3	15.7	0.00e+00	0	43	0	1203765248	16	4004
2026-01-08 11:18:08.54	316.74	27.26	-27.4	-28.4	15.6	0.00e+00	0	43	0	1206910976	16	4035
2026-01-08 11:18:09.55	316.92	27.12	-27.5	-28.6	15.5	0.00e+00	0	43	0	1210056704	16	4067
2026-01-08 11:18:10.55	317.11	26.98	-27.5	-28.5	15.5	0.00e+00	0	43	0	1213202432	16	4042
2026-01-08 11:18:11.56	317.29	26.84	-27.4	-28.2	15.7	0.00e+00	0	43	0	1216348160	16	3988
2026-01-08 11:18:12.56	317.47	26.71	-27.3	-28.1	15.7	0.00e+00	0	44	0	1219493888	16	3955
2026-01-08 11:18:13.57	317.66	26.57	-27.4	-28.3	15.7	0.00e+00	0	43	0	1222639616	16	3994
2026-01-08 11:18:14.57	317.83	26.43	-26.8	-27.8	15.8	7.00e-07	0	43	0	1225785344	15	4051
2026-01-08 11:18:15.58	318.01	26.29	-26.9	-27.8	16.1	0.00e+00	0	43	0	1228931072	15	3968
2026-01-08 11:18:16.59	318.19	26.16	-26.8	-27.5	16.2	0.00e+00	0	43	0	1232076800	15	3908
2026-01-08 11:18:17.59	318.36	26.02	-26.8	-28.1	16.1	0.00e+00	0	43	0	1235222528	14	4152
2026-01-08 11:18:18.59	318.54	25.89	-26.7	-27.9	16.2	0.00e+00	0	43	0	1238368256	14	4104
2026-01-08 11:18:19.59	318.71	25.75	-26.7	-27.8	16.3	0.00e+00	0	44	0	1241513984	14	4075
2026-01-08 11:18:20.59	318.88	25.62	-26.8	-28.0	16.2	0.00e+00	0	43	0	1244659712	14	4126
2026-01-08 11:18:21.59	319.04	25.49	-26.8	-27.9	16.2	0.00e+00	0	43	0	1247805440	14	4121
2026-01-08 11:18:22.60	319.21	25.35	-26.7	-27.9	16.2	0.00e+00	0	43	0	1249902592	14	4103
2026-01-08 11:18:23.61	319.38	25.22	-26.8	-28.0	16.1	0.00e+00	0	44	0	1254096896	14	4141
2026-01-08 11:18:24.62	319.55	25.09	-26.9	-28.3	16.0	0.00e+00	0	43	0	1257242624	14	4229
2026-01-08 11:18:25.62	319.71	24.95	-27.0	-28.5	15.9	0.00e+00	0	43	0	1260388352	14	4261
2026-01-08 11:18:26.63	319.87	24.82	-27.0	-28.5	15.9	0.00e+00	0	43	0	1263534080	14	4284
2026-01-08 11:18:27.64	320.03	24.69	-27.1	-28.6	15.8	0.00e+00	0	43	0	1266679808	14	4307
2026-01-08 11:18:28.64	320.19	24.56	-27.1	-28.7	15.7	0.00e+00	0	43	0	1269825536	14	4328
2026-01-08 11:18:29.65	320.35	24.43	-27.0	-28.5	15.8	0.00e+00	0	43	0	1272971264	14	4287
2026-01-08 11:18:30.66	320.51	24.30	-26.9	-28.2	16.0	0.00e+00	0	43	0	1276116992	14	4204
2026-01-08 11:18:31.67	320.67	24.17	-26.9	-28.2	16.0	0.00e+00	0	43	0	1279262720	14	4192
2026-01-08 11:18:32.67	320.82	24.04	-26.8	-28.1	16.1	0.00e+00	0	43	0	1282408448	14	4168
2026-01-08 11:18:33.68	320.97	23.91	-26.9	-28.3	15.9	0.00e+00	0	43	0	1285554176	14	4221
2026-01-08 11:18:34.69	321.13	23.78	-26.9	-28.3	15.9	0.00e+00	0	43	0	1288699904	14	4224
2026-01-08 11:18:35.70	321.28	23.65	-27.0	-28.4	15.8	0.00e+00	0	43	0	1291845632	14	4254
2026-01-08 11:18:36.70	321.43	23.52	-27.0	-28.6	15.8	0.00e+00	0	43	0	1294991360	14	4289
2026-01-08 11:18:37.71	321.58	23.40	-27.1	-28.7	15.7	0.00e+00	0	43	0	1298137088	14	4326
2026-01-08 11:18:38.72	321.72	23.27	-27.1	-28.7	15.7	0.00e+00	0	43	0	1301282816	14	4336
2026-01-08 11:18:39.72	321.87	23.14	-27.1	-28.6	15.8	7.00e-07	0	44	0	1304428544	14	4309
2026-01-08 11:18:40.73	322.02	23.02	-27.2	-28.9	15.6	0.00e+00	0	43	0	1307574272	14	4386
2026-01-08 11:18:41.73	322.16	22.89	-27.1	-28.7	15.7	0.00e+00	0	43	0	1310720000	14	4329
2026-01-08 11:18:42.74	322.30	22.77	-27.0	-28.6	15.8	0.00e+00	0	43	0	1313865728	14	4304
2026-01-08 11:18:43.75	322.44	22.64	-27.1	-28.7	15.7	0.00e+00	0	43	0	1317011456	14	4319
2026-01-08 11:18:44.76	322.59	22.52	-27.1	-28.7	15.7	0.00e+00	0	43	0	1320157184	14	4344
2026-01-08 11:18:45.76	322.73	22.39	-27.1	-28.8	15.6	0.00e+00	0	43	0	1323302912	14	4348
2026-01-08 11:18:46.77	322.86	22.27	-27.2	-29.0	15.5	0.00e+00	0	43	0	1326448640	14	4413
2026-01-08 11:18:47.78	323.00	22.15	-27.2	-28.9	15.6	7.00e-07	0	43	0	1329594368	14	4389
2026-01-08 11:18:48.79	323.14	22.02	-27.2	-28.9	15.6	0.00e+00	0	43	0	1332740096	14	4389
2026-01-08 11:18:49.80	323.28	21.90	-27.3	-29.1	15.5	0.00e+00	0	43	0	1335885824	14	4451
2026-01-08 11:18:50.80	323.41	21.78	-27.3	-29.2	15.4	0.00e+00	0	43	0	1339031552	14	4467
2026-01-08 11:18:51.81	323.54	21.66	-27.2	-29.0	15.5	0.00e+00	0	43	0	1342177280	14	4422
2026-01-08 11:18:52.82	323.68	21.54	-27.4	-29.4	15.3	0.00e+00	0	43	0	1345323008	14	4525
2026-01-08 11:18:53.83	323.81	21.42	-27.2	-28.9	15.5	0.00e+00	0	43	0	1348468736	14	4400
2026-01-08 11:18:54.83	323.94	21.30	-27.1	-28.7	15.7	0.00e+00	0	43	0	1351614464	14	4336
2026-01-08 11:18:55.83	324.07	21.18	-27.1	-28.7	15.7	0.00e+00	0	43	0	1354760192	14	4324
2026-01-08 11:18:56.84	324.20	21.06	-27.2	-28.9	15.6	0.00e+00	0	43	0	1357905920	14	4376
2026-01-08 11:18:57.85	324.32	20.94	-27.1	-28.7	15.6	0.00e+00	0	43	0	1361051648	14	4337
2026-01-08 11:18:58.86	324.45	20.82	-27.2	-29.0	15.5	0.00e+00	0	43	0	1364197376	14	4412
2026-01-08 11:18:59.87	324.58	20.70	-27.1	-28.8	15.6	0.00e+00	0	43	0	1367343104	14	4353
2026-01-08 11:19:00.88	324.70	20.58	-27.1	-28.8	15.6	0.00e+00	0	43	0	1370488832	14	4353
2026-01-08 11:19:01.89	324.83	20.47	-27.1	-28.8	15.6	0.00e+00	0	43	0	1373634560	14	4366
2026-01-08 11:19:02.90	324.95	20.35	-27.2	-29.0	15.5	0.00e+00	0	43	0	1376780288	14	4417
2026-01-08 11:19:03.91	325.07	20.23	-27.2	-28.8	15.5	0.00e+00	0	43	0	1379926016	14	4377
2026-01-08 11:19:04.91	325.19	20.12	-27.1	-28.6	15.7	0.00e+00	0	43	0	1383071744	14	4325
2026-01-08 11:19:05.91	325.31	20.00	-27.1	-28.6	15.7	0.00e+00	0	43	0	1386217472	14	4315
2026-01-08 11:19:06.91	325.43	19.89	-27.1	-28.7	15.6	0.00e+00	0	43	0	1389363200	14	4336
2026-01-08 11:19:07.92	325.55	19.78	-27.1	-28.6	15.6	0.00e+00	0	43	0	1392508928	14	4317
2026-01-08 11:19:08.93	325.67	19.66	-27.2	-28.8	15.5	0.00e+00	0	43	0	1395654656	14	4376
2026-01-08 11:19:09.94	325.79	19.55	-27.0	-28.6	15.7	0.00e+00	0	43	0	1398800384	14	4295
2026-01-08 11:19:10.94	325.90	19.43	-26.9	-28.2	15.9	0.00e+00	0	44	0	1401946112	14	4207
2026-01-08 11:19:11.95	326.02	19.32	-26.9	-28.3	15.8	0.00e+00	0	43	0	1405091840	14	4237
2026-01-08 11:19:12.95	326.13	19.21	-27.1	-28.7	15.6	0.00e+00	0	43	0	1408237568	14	4322
2026-01-08 11:19:13.96	326.24	19.10	-27.2	-29.0	15.4	0.00e+00	0	43	0	1411383296	14	4420
2026-01-08 11:19:14.97	326.36	18.98	-27.0	-28.6	15.6	0.00e+00	0	43	0	1414529024	14	4303
2026-01-08 11:19:15.97	326.47	18.87	-27.0	-28.5	15.7	0.00e+00	0	43	0	1417674752	14	4277
2026-01-08 11:19:16.97	326.58	18.76	-27.0	-28.6	15.6	0.00e+00	0	43	0	1420820480	14	4307
2026-01-08 11:19:17.98	326.69	18.65	-27.1	-28.7	15.6	0.00e+00	0	43	0	1423966208	14	4324
2026-01-08 11:19:18.99	326.80	18.54	-27.2	-28.9	15.4	0.00e+00	0	43	0	1427111936	14	4397
2026-01-08 11:19:20.01	326.91	18.43	-27.1	-28.7	15.6	0.00e+00	0	43	0	1430257664	14	4330
2026-01-08 11:19:21.00	327.02	18.32	-27.3	-29.3	15.2	0.00e+00	0	43	0	1433403392	14	4502
2026-01-08 11:19:22.01	327.13	18.22	-27.1	-28.9	15.4	7.00e-07	0	43	0	1436549120	14	4383
2026-01-08 11:19:23.02	327.23	18.11	-27.2	-28.9	15.4	0.00e+00	0	43	0	1439694848	14	4409
2026-01-08 11:19:24.03	327.34	18.00	-27.3	-29.3	15.2	0.00e+00	0	43	0	1442840576	14	4501
2026-01-08 11:19:25.04	327.44	17.89	-27.3	-29.3	15.2	0.00e+00	0	43	0	1445986304	14	4507
2026-01-08 11:19:26.04	327.55	17.78	-27.4	-29.4	15.1	0.00e+00	0	43	0	1449132032	14	4545
2026-01-08 11:19:27.05	327.65	17.68	-27.5	-29.6	15.0	0.00e+00	0	43	0	1452277760	14	4604
2026-01-08 11:19:28.05	327.76	17.57	-27.5	-29.7	15.0	0.00e+00	0	43	0	1455423488	14	4624
2026-01-08 11:19:29.06	327.86	17.46	-27.6	-29.4	14.8	0.00e+00	0	43	0	1458569216	15	4429
2026-01-08 11:19:30.07	327.96	17.36	-27.7	-29.7	14.6	0.00e+00	0	43	0	1461714944	15	4518
2026-01-08 11:19:31.08	328.06	17.25	-27.6	-29.4	14.8	7.00e-07	0	43	0	1464860672	15	4435
2026-01-08 11:19:32.08	328.16	17.15	-27.7	-29.5	14.7	0.00e+00	0	43	0	1468006400	15	4476
2026-01-08 11:19:33.09	328.26	17.04	-27.8	-29.9	14.6	0.00e+00	0	43	0	1471152128	15	4565
2026-01-08 11:19:34.10	328.36	16.94	-27.6	-29.5	14.7	0.00e+00	0	43	0	1474297856	15	4464
2026-01-08 11:19:35.11	328.46	16.83	-27.6	-29.3	14.8	0.00e+00	0	43	0	1477443584	15	4410
2026-01-08 11:19:36.12	328.56	16.73	-27.6	-29.3	14.8	0.00e+00	0	43	0	1480589312	15	4410
2026-01-08 11:19:37.12	328.66	16.63	-27.8	-29.8	14.6	1.50e-06	0	43	0	1483735040	15	4534
2026-01-08 11:19:38.12	328.75	16.52	-27.6	-29.5	14.7	0.00e+00	0	43	0	1486880768	15	4462
2026-01-08 11:19:39.13	328.85	16.42	-27.7	-29.6	14.7	0.00e+00	0	43	0	1490026496	15	4475
2026-01-08 11:19:40.13	328.94	16.32	-27.7	-29.7	14.6	7.00e-07	0	43	0	1493172224	15	4524
2026-01-08 11:19:41.13	329.04	16.22	-27.7	-29.6	14.6	7.00e-07	0	44	0	1496317952	15	4504
2026-01-08 11:19:42.14	329.13	16.12	-27.8	-29.8	14.5	0.00e+00	0	43	0	1499463680	15	4557
2026-01-08 11:19:43.14	329.22	16.02	-27.8	-29.9	14.5	0.00e+00	0	43	0	1502609408	15	4568
2026-01-08 11:19:44.15	329.32	15.92	-27.8	-30.0	14.4	7.00e-07	0	43	0	1505755136	15	4597
2026-01-08 11:19:45.16	329.41	15.82	-27.9	-30.1	14.3	1.50e-06	0	43	0	1508900864	15	4638
2026-01-08 11:19:46.17	329.50	15.72	-27.9	-30.1	14.3	0.00e+00	0	43	0	1512046592	15	4643
2026-01-08 11:19:47.17	329.59	15.62	-27.9	-30.0	14.3	1.50e-06	0	43	0	1515192320	15	4622
2026-01-08 11:19:48.18	329.68	15.52	-27.9	-30.1	14.3	1.50e-06	0	43	0	1518338048	15	4652
2026-01-08 11:19:49.19	329.77	15.42	-27.9	-30.1	14.3	0.00e+00	0	43	0	1521483776	15	4634
2026-01-08 11:19:50.18	329.86	15.32	-27.9	-30.1	14.3	1.50e-06	0	43	0	1524629504	15	4631
2026-01-08 11:19:51.19	329.95	15.22	-27.9	-30.1	14.3	7.00e-07	0	43	0	1527775232	15	4658
2026-01-08 11:19:52.19	330.04	15.12	-28.1	-30.1	14.2	7.00e-07	0	43	0	1530920960	16	4536
2026-01-08 11:19:53.19	330.13	15.03	-28.0	-29.8	14.4	0.00e+00	0	43	0	1533018112	16	4423
2026-01-08 11:19:54.20	330.21	14.93	-28.0	-29.7	14.4	7.00e-07	0	43	0	1536163840	16	4416
2026-01-08 11:19:55.21	330.30	14.83	-27.9	-29.7	14.4	7.00e-07	0	43	0	1540358144	16	4394
2026-01-08 11:19:56.21	330.39	14.74	-28.0	-29.7	14.4	7.00e-07	0	43	0	1543503872	16	4412
2026-01-08 11:19:57.22	330.47	14.64	-28.0	-29.8	14.3	2.20e-06	0	43	0	1546649600	16	4440
2026-01-08 11:19:58.23	330.56	14.54	-28.0	-29.9	14.2	1.50e-06	0	44	0	1549795328	16	4475
2026-01-08 11:19:59.23	330.64	14.45	-28.1	-30.0	14.2	1.50e-06	0	44	0	1552941056	16	4493
2026-01-08 11:20:00.24	330.73	14.35	-28.2	-30.2	14.1	2.20e-06	0	44	0	1556086784	16	4556
2026-01-08 11:20:01.25	330.81	14.26	-28.2	-30.4	14.0	3.80e-06	0	43	0	1558183936	16	4609
2026-01-08 11:20:02.25	330.89	14.16	-28.2	-30.4	14.0	1.50e-06	0	43	0	1561329664	16	4610
2026-01-08 11:20:03.25	330.97	14.07	-28.4	-30.7	13.8	6.10e-06	0	43	0	1564475392	16	4722
2026-01-08 11:20:04.26	331.06	13.98	-28.3	-30.6	13.9	3.00e-06	0	43	0	1568669696	16	4665
2026-01-08 11:20:05.27	331.14	13.88	-28.4	-30.9	13.7	7.60e-06	0	43	0	1571815424	16	4767
2026-01-08 11:20:06.28	331.22	13.79	-28.3	-30.5	13.9	1.50e-06	0	43	0	1574961152	16	4664
2026-01-08 11:20:07.29	331.30	13.69	-28.2	-30.4	13.9	7.00e-07	0	43	0	1578106880	16	4617
2026-01-08 11:20:08.29	331.38	13.60	-28.3	-30.4	13.9	6.10e-06	0	43	0	1580204032	16	4627
2026-01-08 11:20:09.31	331.46	13.51	-28.4	-30.7	13.7	3.00e-06	0	43	0	1584398336	16	4722
2026-01-08 11:20:10.32	331.54	13.42	-28.4	-30.8	13.7	6.10e-06	0	44	0	1587544064	16	4746
2026-01-08 11:20:11.32	331.62	13.32	-28.5	-30.4	13.6	1.44e-05	0	43	0	1590689792	17	4523
2026-01-08 11:20:12.32	331.70	13.23	-28.4	-30.3	13.7	9.10e-06	0	43	0	1593835520	17	4488
2026-01-08 11:20:13.32	331.77	13.14	-28.4	-30.4	13.6	6.80e-06	0	43	0	1596981248	17	4505
2026-01-08 11:20:14.33	331.85	13.05	-28.5	-30.5	13.6	4.50e-06	0	43	0	1600126976	17	4534
2026-01-08 11:20:15.33	331.93	12.96	-28.5	-30.5	13.6	1.06e-05	0	43	0	1603272704	17	4534
2026-01-08 11:20:16.34	332.01	12.87	-28.5	-30.7	13.5	1.06e-05	0	43	0	1605369856	17	4599
2026-01-08 11:20:17.35	332.08	12.78	-28.6	-30.8	13.4	1.14e-05	0	43	0	1608515584	17	4624
2026-01-08 11:20:18.36	332.16	12.69	-28.6	-30.7	13.4	1.75e-05	0	43	0	1612709888	17	4621
2026-01-08 11:20:19.37	332.23	12.60	-28.6	-30.8	13.3	1.83e-05	0	43	0	1615855616	17	4650
2026-01-08 11:20:20.37	332.31	12.51	-28.6	-30.8	13.3	2.13e-05	0	44	0	1619001344	17	4639
2026-01-08 11:20:21.38	332.38	12.42	-28.6	-30.7	13.3	1.22e-05	0	43	0	1622147072	17	4618
2026-01-08 11:20:22.39	332.46	12.33	-28.5	-30.7	13.4	1.60e-05	0	43	0	1625292800	17	4598
2026-01-08 11:20:23.40	332.53	12.24	-28.6	-30.8	13.3	1.37e-05	0	43	0	1627389952	17	4638
2026-01-08 11:20:24.41	332.60	12.16	-28.6	-30.9	13.2	2.67e-05	0	43	0	1631584256	17	4675
2026-01-08 11:20:25.41	332.68	12.07	-28.5	-30.7	13.3	1.75e-05	0	43	0	1634729984	17	4614
2026-01-08 11:20:26.42	332.75	11.98	-28.5	-30.7	13.4	1.60e-05	0	43	0	1637875712	17	4608
2026-01-08 11:20:27.43	332.82	11.89	-28.6	-30.9	13.2	2.59e-05	0	43	0	1641021440	17	4674
2026-01-08 11:20:28.43	332.89	11.81	-28.6	-30.9	13.2	2.13e-05	0	43	0	1644167168	17	4684
2026-01-08 11:20:29.44	332.96	11.72	-28.6	-30.8	13.3	2.28e-05	0	43	0	1647312896	17	4640
2026-01-08 11:20:30.44	333.03	11.63	-28.5	-30.6	13.4	1.90e-05	0	43	0	1650458624	17	4574
2026-01-08 11:20:31.45	333.10	11.55	-28.5	-30.7	13.4	2.05e-05	0	43	0	1652555776	17	4605
2026-01-08 11:20:32.46	333.17	11.46	-28.5	-30.7	13.4	1.52e-05	0	43	0	1656750080	17	4606
2026-01-08 11:20:33.46	333.24	11.38	-28.6	-30.9	13.2	2.21e-05	0	43	0	1659895808	17	4665
2026-01-08 11:20:34.47	333.31	11.29	-28.6	-31.0	13.2	2.28e-05	0	43	0	1663041536	17	4702
2026-01-08 11:20:35.48	333.38	11.20	-28.6	-30.8	13.2	2.59e-05	0	43	0	1666187264	17	4656
2026-01-08 11:20:36.48	333.45	11.12	-28.7	-31.1	13.0	2.97e-05	0	43	0	1669332992	17	4740
2026-01-08 11:20:37.49	333.52	11.04	-28.7	-31.2	13.0	4.04e-05	0	44	0	1672478720	17	4778
2026-01-08 11:20:38.49	333.59	10.95	-28.7	-31.1	13.0	3.58e-05	0	43	0	1674575872	17	4746
2026-01-08 11:20:39.50	333.65	10.87	-28.7	-31.2	13.0	2.89e-05	0	43	0	1677721600	17	4770
2026-01-08 11:20:40.51	333.72	10.78	-28.7	-31.2	13.0	4.57e-05	0	43	0	1681915904	17	4762
2026-01-08 11:20:41.51	333.79	10.70	-28.7	-31.0	13.1	2.82e-05	0	43	0	1685061632	17	4726
2026-01-08 11:20:42.52	333.85	10.62	-28.5	-30.7	13.3	2.28e-05	0	43	0	1688207360	17	4626
2026-01-08 11:20:43.53	333.92	10.53	-28.6	-30.9	13.1	2.28e-05	0	43	0	1691353088	17	4685
2026-01-08 11:20:44.54	333.99	10.45	-28.6	-31.0	13.1	2.28e-05	0	43	0	1694498816	17	4702
2026-01-08 11:20:45.54	334.05	10.37	-28.6	-30.8	13.2	2.74e-05	0	43	0	1697644544	17	4649
2026-01-08 11:20:46.55	334.12	10.29	-28.6	-30.8	13.2	2.05e-05	0	43	0	1699741696	17	4642
2026-01-08 11:20:47.56	334.18	10.20	-28.5	-30.7	13.2	1.98e-05	0	43	0	1703936000	17	4628
2026-01-08 11:20:48.56	334.24	10.12	-28.6	-30.9	13.1	2.82e-05	0	43	0	1707081728	17	4677
2026-01-08 11:20:49.57	334.31	10.04	-28.6	-30.8	13.1	3.58e-05	0	43	0	1710227456	17	4667
2026-01-08 11:20:50.58	334.37	9.96	-28.6	-30.8	13.2	2.89e-05	0	43	0	1713373184	17	4645
2026-01-08 11:20:51.58	334.43	9.88	-28.5	-30.7	13.2	2.13e-05	0	43	0	1716518912	17	4627
2026-01-08 11:20:52.58	334.50	9.80	-28.6	-31.0	13.0	3.89e-05	0	43	0	1719664640	17	4718
2026-01-08 11:20:53.59	334.56	9.72	-28.7	-31.0	13.0	4.95e-05	0	43	0	1721761792	17	4725
2026-01-08 11:20:54.60	334.62	9.64	-28.7	-31.1	13.0	4.73e-05	0	43	0	1724907520	17	4737
2026-01-08 11:20:55.61	334.68	9.55	-28.7	-31.1	12.9	4.04e-05	0	43	0	1729101824	17	4750
2026-01-08 11:20:56.61	334.75	9.48	-28.7	-31.1	12.9	4.34e-05	0	43	0	1732247552	17	4746
2026-01-08 11:20:57.62	334.81	9.40	-28.8	-31.3	12.8	5.03e-05	0	43	0	1735393280	17	4812
2026-01-08 11:20:58.63	334.87	9.32	-28.7	-31.1	12.9	4.11e-05	0	43	0	1738539008	17	4747
2026-01-08 11:20:59.63	334.93	9.24	-28.6	-31.0	13.0	3.58e-05	0	43	0	1741684736	17	4713
2026-01-08 11:21:00.64	334.99	9.16	-28.8	-31.4	12.7	7.32e-05	0	43	0	1744830464	17	4862
2026-01-08 11:21:01.64	335.05	9.08	-28.8	-31.5	12.6	9.30e-05	0	43	0	1746927616	17	4891
2026-01-08 11:21:02.65	335.11	9.00	-28.8	-31.3	12.8	7.78e-05	0	44	0	1750073344	17	4809
2026-01-08 11:21:03.66	335.17	8.92	-28.8	-31.4	12.7	5.49e-05	0	43	0	1754267648	17	4856
2026-01-08 11:21:04.66	335.23	8.84	-28.8	-31.5	12.7	8.16e-05	0	43	0	1757413376	17	4877
2026-01-08 11:21:05.67	335.29	8.77	-28.9	-31.6	12.5	1.24e-04	0	43	0	1760559104	17	4938
2026-01-08 11:21:06.68	335.35	8.69	-28.8	-31.4	12.7	9.68e-05	0	43	0	1763704832	17	4857
2026-01-08 11:21:07.68	335.40	8.61	-28.8	-31.4	12.7	8.62e-05	0	43	0	1766850560	17	4854
2026-01-08 11:21:08.69	335.46	8.53	-28.8	-31.5	12.5	8.77e-05	0	43	0	1768947712	17	4908
2026-01-08 11:21:09.69	335.52	8.46	-28.9	-31.7	12.4	1.31e-04	0	43	0	1772093440	17	4958
2026-01-08 11:21:10.70	335.58	8.38	-28.9	-31.7	12.4	1.23e-04	0	43	0	1775239168	17	4966
2026-01-08 11:21:11.70	335.63	8.30	-28.9	-31.8	12.4	1.33e-04	0	43	0	1778384896	17	4982
2026-01-08 11:21:12.71	335.69	8.23	-28.9	-31.7	12.4	1.22e-04	0	43	0	1782579200	17	4983
2026-01-08 11:21:13.71	335.75	8.15	-29.1	-31.7	12.1	2.45e-04	0	43	0	1785724928	18	4864
2026-01-08 11:21:14.72	335.80	8.08	-29.3	-32.3	11.7	4.97e-04	0	43	0	1788870656	18	5057
2026-01-08 11:21:15.73	335.86	8.00	-29.3	-32.1	11.8	6.11e-04	0	43	0	1792016384	18	5021
2026-01-08 11:21:16.73	335.92	7.92	-29.2	-32.1	11.8	4.38e-04	0	43	0	1794113536	18	5006
2026-01-08 11:21:17.74	335.97	7.85	-29.2	-32.0	11.8	3.78e-04	0	43	0	1797259264	18	4974
2026-01-08 11:21:18.75	336.03	7.77	-29.3	-32.3	11.7	5.32e-04	0	43	0	1800404992	18	5064
2026-01-08 11:21:19.76	336.08	7.70	-29.3	-32.2	11.7	5.77e-04	0	43	0	1804599296	18	5038
2026-01-08 11:21:20.76	336.14	7.62	-29.4	-32.4	11.6	5.34e-04	0	43	0	1807745024	18	5104
2026-01-08 11:21:21.77	336.19	7.55	-29.3	-32.1	11.7	5.80e-04	0	43	0	1810890752	18	5021
2026-01-08 11:21:22.78	336.25	7.47	-29.2	-31.9	11.9	6.55e-04	0	43	0	1814036480	18	4936
2026-01-08 11:21:23.79	336.30	7.40	-29.3	-32.2	11.7	5.48e-04	0	43	0	1816133632	18	5025
2026-01-08 11:21:24.79	336.35	7.33	-29.4	-32.5	11.5	7.71e-04	0	43	0	1819279360	18	5137
2026-01-08 11:21:25.80	336.41	7.25	-29.5	-32.4	11.2	1.08e-03	0	43	0	1822425088	19	5006
2026-01-08 11:21:26.80	336.46	7.18	-29.8	-33.1	10.7	2.52e-03	0	43	0	1825570816	19	5266
2026-01-08 11:21:27.81	336.52	7.11	-29.8	-33.2	10.7	3.62e-03	0	43	0	1829765120	19	5299
2026-01-08 11:21:28.81	336.57	7.03	-33.0	-44.4	3.8	1.42e+00	0	43	104	1830813696	26	13381
2026-01-08 11:21:29.82	336.62	6.96	-33.4	-45.7	3.8	1.49e+00	0	43	104	1830813696	26	14766

#Closed at: 2026-01-08 11:21:30
#Recorded file [1830 MB]: D:/data/31010_260108_141142.dat