passes_logs/2026/01/08/R2M6_AANII_01/R2M6_AANII_01__20260108_084031_NOAA_20_JPSS-1_rec.log

#Pass ID: 20260108_084031_NOAA 20 (JPSS-1)
#Satellite: NOAA 20 (JPSS-1)
#Configuration: NOAA 20
#almurnet v.1.7.20240730
#Start time: 2026-01-08 08:40:32

#Version: 2.2.20231116
#Station: R2M6_AANII_01
#Location: 30.233357 lon 59.946436 lat
#TLE: 1 43013U 17073A   26006.30790171  .00000126  00000+0  80695-4 0  9991
#TLE: 2 43013  98.7629 307.3394 0001808  51.8724 308.2615 14.19533762421505

#Time	Az	El	Level	Level2	SNR	BER	BlckErr	Temp	State	Recorded	gain1	gain2
2026-01-08 08:40:32.42	109.33	7.03	-31.9	-38.8	4.6	1.35e+00	0	40	0	0	25	7995
2026-01-08 08:40:33.42	109.25	7.10	-31.7	-38.1	4.8	1.29e+00	0	40	104	0	24	7556
2026-01-08 08:40:34.43	109.17	7.17	-31.7	-37.9	7.2	1.35e-01	0	41	0	0	24	7378
2026-01-08 08:40:35.43	109.09	7.23	-31.7	-38.0	7.2	1.38e-01	0	41	0	1048576	24	7455
2026-01-08 08:40:36.44	109.01	7.30	-31.8	-38.4	6.9	1.45e-01	0	40	0	3145728	24	7695
2026-01-08 08:40:37.45	108.93	7.37	-31.7	-38.3	6.9	1.80e-01	0	40	0	5242880	24	7690
2026-01-08 08:40:38.45	108.84	7.44	-31.7	-37.7	7.4	1.48e-01	0	41	0	7340032	24	7262
2026-01-08 08:40:39.46	108.76	7.51	-31.5	-36.9	8.1	7.31e-02	0	40	0	9437184	24	6684
2026-01-08 08:40:40.47	108.68	7.58	-31.3	-36.3	9.0	4.30e-02	0	41	0	10485760	23	6461
2026-01-08 08:40:41.46	108.60	7.65	-31.1	-35.6	9.6	1.89e-02	0	41	0	12582912	23	6079
2026-01-08 08:40:42.47	108.51	7.72	-31.0	-35.3	9.9	1.06e-02	0	41	0	14680064	23	5884
2026-01-08 08:40:43.48	108.43	7.78	-30.9	-35.0	10.1	6.79e-03	0	41	0	16777216	23	5770
2026-01-08 08:40:44.48	108.34	7.85	-30.9	-34.9	10.1	6.02e-03	0	41	0	18874368	23	5728
2026-01-08 08:40:45.49	108.26	7.92	-30.9	-34.9	10.2	6.05e-03	0	41	0	19922944	23	5711
2026-01-08 08:40:46.50	108.17	7.99	-30.9	-34.9	10.2	6.73e-03	0	41	0	22020096	23	5697
2026-01-08 08:40:47.50	108.09	8.06	-30.9	-34.8	10.3	5.53e-03	0	41	0	24117248	23	5671
2026-01-08 08:40:48.50	108.00	8.13	-31.0	-35.1	10.1	5.91e-03	0	41	0	26214400	23	5794
2026-01-08 08:40:49.51	107.91	8.20	-31.0	-35.2	10.1	8.02e-03	0	41	0	28311552	23	5803
2026-01-08 08:40:50.52	107.83	8.27	-31.0	-35.1	10.2	5.71e-03	0	41	0	29360128	23	5762
2026-01-08 08:40:51.52	107.74	8.34	-31.0	-35.0	10.2	5.73e-03	0	41	0	31457280	23	5722
2026-01-08 08:40:52.53	107.65	8.41	-31.0	-35.2	10.1	6.02e-03	0	41	0	33554432	23	5817
2026-01-08 08:40:53.54	107.56	8.49	-30.9	-34.9	10.3	6.04e-03	0	41	0	35651584	23	5685
2026-01-08 08:40:54.55	107.47	8.56	-30.9	-34.7	10.5	4.31e-03	0	41	0	37748736	23	5576
2026-01-08 08:40:55.56	107.38	8.63	-30.8	-34.5	10.7	3.03e-03	0	41	0	38797312	23	5488
2026-01-08 08:40:56.56	107.29	8.70	-30.9	-34.5	10.7	3.35e-03	0	41	0	40894464	23	5503
2026-01-08 08:40:57.57	107.20	8.77	-30.9	-34.6	10.6	3.37e-03	0	41	0	42991616	23	5525
2026-01-08 08:40:58.57	107.11	8.84	-30.9	-34.9	10.4	4.18e-03	0	41	0	45088768	23	5680
2026-01-08 08:40:59.58	107.02	8.91	-31.0	-35.0	10.3	4.74e-03	0	41	0	47185920	23	5747
2026-01-08 08:41:00.58	106.93	8.98	-31.0	-35.0	10.3	5.97e-03	0	41	0	48234496	23	5715
2026-01-08 08:41:01.59	106.84	9.06	-31.0	-35.0	10.3	4.70e-03	0	41	0	50331648	23	5699
2026-01-08 08:41:02.59	106.75	9.13	-31.0	-35.0	10.3	5.38e-03	0	41	0	52428800	23	5742
2026-01-08 08:41:03.59	106.65	9.20	-31.0	-34.9	10.3	5.63e-03	0	41	0	54525952	23	5686
2026-01-08 08:41:04.60	106.56	9.27	-30.9	-34.7	10.6	4.43e-03	0	41	0	56623104	23	5596
2026-01-08 08:41:05.60	106.47	9.34	-30.9	-34.7	10.6	3.53e-03	0	41	0	57671680	23	5565
2026-01-08 08:41:06.61	106.37	9.42	-31.0	-34.9	10.4	3.85e-03	0	41	0	59768832	23	5677
2026-01-08 08:41:07.62	106.28	9.49	-31.0	-35.0	10.4	4.73e-03	0	41	0	61865984	23	5689
2026-01-08 08:41:08.62	106.18	9.56	-31.0	-35.0	10.4	4.24e-03	0	41	0	63963136	23	5716
2026-01-08 08:41:09.62	106.09	9.63	-31.0	-34.9	10.4	5.23e-03	0	41	0	66060288	23	5670
2026-01-08 08:41:10.63	105.99	9.71	-30.9	-34.7	10.7	3.99e-03	0	42	0	67108864	23	5542
2026-01-08 08:41:11.63	105.89	9.78	-30.9	-34.6	10.7	3.11e-03	0	41	0	69206016	23	5508
2026-01-08 08:41:12.64	105.80	9.85	-30.9	-34.6	10.7	2.68e-03	0	41	0	71303168	23	5520
2026-01-08 08:41:13.65	105.70	9.93	-30.9	-34.4	10.9	2.79e-03	0	42	0	73400320	23	5434
2026-01-08 08:41:14.65	105.60	10.00	-30.9	-34.5	10.8	2.24e-03	0	41	0	74448896	23	5485
2026-01-08 08:41:15.66	105.50	10.07	-30.9	-34.4	10.9	2.54e-03	0	42	0	76546048	23	5436
2026-01-08 08:41:16.66	105.40	10.15	-30.8	-34.4	10.9	1.99e-03	0	42	0	78643200	23	5419
2026-01-08 08:41:17.66	105.30	10.22	-30.8	-34.4	10.9	2.15e-03	0	41	0	80740352	23	5400
2026-01-08 08:41:18.67	105.20	10.30	-30.9	-34.6	10.8	2.71e-03	0	42	0	82837504	23	5515
2026-01-08 08:41:19.68	105.10	10.37	-30.9	-34.7	10.7	2.75e-03	0	42	0	84934656	23	5533
2026-01-08 08:41:20.69	105.00	10.44	-30.9	-34.6	10.8	2.57e-03	0	42	0	85983232	23	5509
2026-01-08 08:41:21.69	104.90	10.52	-30.9	-34.5	10.8	2.46e-03	0	42	0	88080384	23	5459
2026-01-08 08:41:22.70	104.80	10.59	-30.9	-34.7	10.7	2.87e-03	0	42	0	90177536	23	5540
2026-01-08 08:41:23.70	104.69	10.67	-30.9	-34.7	10.7	3.79e-03	0	42	0	92274688	23	5545
2026-01-08 08:41:24.71	104.59	10.74	-30.9	-34.4	10.9	2.37e-03	0	42	0	93323264	23	5433
2026-01-08 08:41:25.72	104.48	10.82	-30.8	-34.2	11.1	1.78e-03	0	42	0	95420416	23	5319
2026-01-08 08:41:26.72	104.38	10.89	-30.8	-34.3	11.0	1.84e-03	0	42	0	97517568	23	5388
2026-01-08 08:41:27.73	104.28	10.97	-30.8	-34.3	11.0	1.77e-03	0	42	0	99614720	23	5380
2026-01-08 08:41:28.74	104.17	11.04	-30.8	-34.5	11.2	1.34e-03	0	42	0	101711872	22	5573
2026-01-08 08:41:29.74	104.06	11.12	-30.7	-34.4	11.3	1.24e-03	0	42	0	102760448	22	5501
2026-01-08 08:41:30.75	103.96	11.20	-30.6	-34.1	11.5	1.01e-03	0	42	0	104857600	22	5384
2026-01-08 08:41:31.76	103.85	11.27	-30.7	-34.2	11.5	8.38e-04	0	42	0	106954752	22	5428
2026-01-08 08:41:32.77	103.74	11.35	-30.6	-34.1	11.5	7.67e-04	0	42	0	109051904	22	5370
2026-01-08 08:41:33.77	103.63	11.42	-30.6	-34.1	11.6	7.10e-04	0	42	0	111149056	22	5363
2026-01-08 08:41:34.78	103.52	11.50	-30.6	-34.1	11.6	7.48e-04	0	42	0	113246208	22	5362
2026-01-08 08:41:35.79	103.41	11.58	-30.7	-34.3	11.5	7.28e-04	0	42	0	114294784	22	5442
2026-01-08 08:41:36.80	103.30	11.65	-30.6	-34.2	11.5	8.24e-04	0	42	0	116391936	22	5404
2026-01-08 08:41:37.81	103.19	11.73	-30.6	-34.1	11.6	6.90e-04	0	42	0	118489088	22	5357
2026-01-08 08:41:38.82	103.08	11.81	-30.6	-33.9	11.7	6.48e-04	0	42	0	120586240	22	5292
2026-01-08 08:41:39.82	102.97	11.88	-30.6	-34.0	11.7	5.68e-04	0	42	0	122683392	22	5317
2026-01-08 08:41:40.83	102.85	11.96	-30.7	-34.2	11.5	6.28e-04	0	42	0	123731968	22	5427
2026-01-08 08:41:41.84	102.74	12.04	-30.7	-34.4	11.4	9.61e-04	0	42	0	125829120	22	5489
2026-01-08 08:41:42.85	102.62	12.12	-30.8	-34.5	11.3	9.53e-04	0	42	0	127926272	22	5551
2026-01-08 08:41:43.85	102.51	12.19	-30.7	-34.3	11.4	1.07e-03	0	42	0	130023424	22	5477
2026-01-08 08:41:44.86	102.40	12.27	-30.8	-34.5	11.3	9.24e-04	0	42	0	131072000	22	5536
2026-01-08 08:41:45.87	102.28	12.35	-30.8	-34.5	11.4	1.04e-03	0	42	0	133169152	22	5514
2026-01-08 08:41:46.88	102.16	12.43	-30.7	-34.4	11.4	1.05e-03	0	42	0	135266304	22	5499
2026-01-08 08:41:47.88	102.05	12.50	-30.8	-34.8	11.1	1.03e-03	0	42	0	137363456	22	5649
2026-01-08 08:41:48.88	101.93	12.58	-30.7	-34.3	11.5	1.09e-03	0	42	0	139460608	22	5456
2026-01-08 08:41:49.89	101.81	12.66	-30.6	-34.1	11.6	7.45e-04	0	42	0	141557760	22	5374
2026-01-08 08:41:50.89	101.69	12.74	-30.7	-34.4	11.4	8.03e-04	0	42	0	142606336	22	5469
2026-01-08 08:41:51.90	101.57	12.82	-30.7	-34.3	11.5	8.20e-04	0	42	0	144703488	22	5441
2026-01-08 08:41:52.90	101.45	12.90	-30.6	-34.1	11.7	6.58e-04	0	42	0	146800640	22	5364
2026-01-08 08:41:53.91	101.33	12.97	-30.7	-34.2	11.6	6.25e-04	0	42	0	148897792	22	5403
2026-01-08 08:41:54.91	101.21	13.05	-30.6	-33.8	11.8	6.41e-04	0	42	0	149946368	22	5255
2026-01-08 08:41:55.92	101.09	13.13	-30.6	-33.9	11.8	4.25e-04	0	42	0	152043520	22	5273
2026-01-08 08:41:56.92	100.97	13.21	-30.5	-33.7	11.9	3.69e-04	0	42	0	154140672	22	5199
2026-01-08 08:41:57.92	100.84	13.29	-30.5	-33.7	12.0	4.38e-04	0	42	0	156237824	22	5190
2026-01-08 08:41:58.93	100.72	13.37	-30.5	-33.7	12.0	3.66e-04	0	42	0	158334976	22	5193
2026-01-08 08:41:59.94	100.59	13.45	-30.5	-33.7	12.0	3.38e-04	0	42	0	159383552	22	5202
2026-01-08 08:42:00.95	100.47	13.53	-30.5	-33.8	11.9	3.52e-04	0	42	0	161480704	22	5224
2026-01-08 08:42:01.95	100.34	13.61	-30.5	-33.7	12.0	3.74e-04	0	42	0	163577856	22	5189
2026-01-08 08:42:02.95	100.21	13.69	-30.6	-33.9	11.9	3.89e-04	0	42	0	165675008	22	5258
2026-01-08 08:42:03.95	100.09	13.77	-30.5	-33.7	12.0	3.77e-04	0	42	0	167772160	22	5187
2026-01-08 08:42:04.95	99.96	13.85	-30.5	-33.7	12.0	2.89e-04	0	42	0	168820736	22	5206
2026-01-08 08:42:05.96	99.83	13.93	-30.5	-33.7	12.0	3.00e-04	0	42	0	170917888	22	5187
2026-01-08 08:42:06.96	99.70	14.01	-30.6	-33.9	11.9	3.46e-04	0	42	0	173015040	22	5284
2026-01-08 08:42:07.97	99.57	14.09	-30.7	-34.4	11.5	5.66e-04	0	42	0	175112192	22	5466
2026-01-08 08:42:08.97	99.44	14.17	-30.6	-34.1	11.7	5.11e-04	0	42	0	177209344	22	5340
2026-01-08 08:42:09.98	99.31	14.25	-30.5	-33.7	12.0	3.46e-04	0	42	0	178257920	22	5195
2026-01-08 08:42:10.98	99.18	14.33	-30.5	-33.5	12.2	2.42e-04	0	42	0	180355072	22	5093
2026-01-08 08:42:11.99	99.04	14.41	-30.5	-33.6	12.1	2.44e-04	0	42	0	182452224	22	5156
2026-01-08 08:42:13.00	98.91	14.49	-30.5	-33.6	12.1	2.63e-04	0	42	0	184549376	22	5153
2026-01-08 08:42:14.00	98.77	14.57	-30.6	-33.7	12.0	2.93e-04	0	42	0	186646528	22	5193
2026-01-08 08:42:15.00	98.64	14.65	-30.7	-34.2	11.7	4.52e-04	0	42	0	187695104	22	5394
2026-01-08 08:42:16.01	98.50	14.74	-30.5	-33.6	12.2	3.39e-04	0	42	0	189792256	22	5128
2026-01-08 08:42:17.02	98.36	14.82	-30.4	-33.2	12.5	1.91e-04	0	42	0	191889408	22	4968
2026-01-08 08:42:18.02	98.23	14.90	-30.3	-32.9	12.7	1.22e-04	0	42	0	193986560	22	4882
2026-01-08 08:42:19.02	98.09	14.98	-30.2	-33.3	12.7	7.09e-05	0	43	0	196083712	21	5117
2026-01-08 08:42:20.02	97.95	15.06	-30.3	-33.5	12.6	9.00e-05	0	42	0	197132288	21	5183
2026-01-08 08:42:21.03	97.81	15.14	-30.3	-33.5	12.6	9.00e-05	0	42	0	199229440	21	5212
2026-01-08 08:42:22.03	97.67	15.22	-30.3	-33.4	12.7	9.23e-05	0	42	0	201326592	21	5158
2026-01-08 08:42:23.04	97.53	15.31	-30.3	-33.5	12.6	9.53e-05	0	42	0	203423744	21	5187
2026-01-08 08:42:24.05	97.38	15.39	-30.4	-33.7	12.5	1.05e-04	0	42	0	205520896	21	5275
2026-01-08 08:42:25.05	97.24	15.47	-30.3	-33.5	12.6	1.07e-04	0	42	0	206569472	21	5206
2026-01-08 08:42:26.05	97.10	15.55	-30.3	-33.5	12.7	7.47e-05	0	42	0	208666624	21	5191
2026-01-08 08:42:27.06	96.95	15.64	-30.3	-33.4	12.7	9.76e-05	0	42	0	210763776	21	5166
2026-01-08 08:42:28.06	96.81	15.72	-30.3	-33.5	12.6	6.86e-05	0	42	0	212860928	21	5191
2026-01-08 08:42:29.07	96.66	15.80	-30.4	-33.7	12.5	9.53e-05	0	43	0	214958080	21	5261
2026-01-08 08:42:30.06	96.51	15.88	-30.5	-34.0	12.3	1.64e-04	0	42	0	216006656	21	5406
2026-01-08 08:42:31.07	96.36	15.97	-30.3	-33.6	12.5	1.26e-04	0	42	0	218103808	21	5254
2026-01-08 08:42:32.07	96.22	16.05	-30.3	-33.5	12.7	7.32e-05	0	42	0	220200960	21	5179
2026-01-08 08:42:33.08	96.07	16.13	-30.3	-33.4	12.7	6.33e-05	0	43	0	222298112	21	5162
2026-01-08 08:42:34.08	95.92	16.21	-30.3	-33.4	12.7	5.56e-05	0	42	0	224395264	21	5139
2026-01-08 08:42:35.09	95.76	16.30	-30.2	-33.2	12.9	7.17e-05	0	42	0	225443840	21	5074
2026-01-08 08:42:36.10	95.61	16.38	-30.2	-33.3	12.8	6.48e-05	0	43	0	227540992	21	5089
2026-01-08 08:42:37.10	95.46	16.46	-30.3	-33.4	12.8	4.88e-05	0	42	0	229638144	21	5134
2026-01-08 08:42:38.10	95.30	16.55	-30.4	-33.7	12.6	7.17e-05	0	42	0	231735296	21	5261
2026-01-08 08:42:39.11	95.15	16.63	-30.3	-33.5	12.7	6.33e-05	0	42	0	232783872	21	5165
2026-01-08 08:42:40.12	94.99	16.71	-30.3	-33.3	12.9	5.34e-05	0	43	0	234881024	21	5092
2026-01-08 08:42:41.12	94.84	16.80	-30.3	-33.3	12.8	5.49e-05	0	42	0	236978176	21	5115
2026-01-08 08:42:42.13	94.68	16.88	-30.2	-33.2	12.9	5.56e-05	0	42	0	239075328	21	5058
2026-01-08 08:42:43.14	94.52	16.96	-30.3	-33.4	12.9	4.57e-05	0	42	0	241172480	21	5124
2026-01-08 08:42:44.13	94.36	17.05	-30.3	-33.5	12.7	6.25e-05	0	42	0	243269632	21	5180
2026-01-08 08:42:45.14	94.20	17.13	-30.5	-33.8	12.5	7.93e-05	0	42	0	244318208	21	5306
2026-01-08 08:42:46.15	94.04	17.22	-30.4	-33.7	12.6	9.76e-05	0	42	0	246415360	21	5259
2026-01-08 08:42:47.16	93.88	17.30	-30.5	-33.8	12.5	8.77e-05	0	42	0	248512512	21	5308
2026-01-08 08:42:48.16	93.71	17.38	-30.5	-33.9	12.5	1.32e-04	0	43	0	250609664	21	5336
2026-01-08 08:42:49.16	93.55	17.47	-30.5	-33.8	12.5	1.14e-04	0	42	0	251658240	21	5297
2026-01-08 08:42:50.17	93.38	17.55	-30.4	-33.7	12.6	1.03e-04	0	43	0	253755392	21	5255
2026-01-08 08:42:51.18	93.22	17.64	-30.5	-34.0	12.5	8.39e-05	0	42	0	255852544	21	5361
2026-01-08 08:42:52.18	93.05	17.72	-30.6	-34.1	12.4	1.21e-04	0	43	0	257949696	21	5399
2026-01-08 08:42:53.19	92.88	17.80	-30.6	-34.1	12.4	1.61e-04	0	43	0	260046848	21	5404
2026-01-08 08:42:54.20	92.71	17.89	-30.5	-33.9	12.6	1.10e-04	0	42	0	261095424	21	5330
2026-01-08 08:42:55.20	92.55	17.97	-30.5	-33.8	12.6	8.46e-05	0	42	0	263192576	21	5278
2026-01-08 08:42:56.21	92.37	18.06	-30.5	-33.9	12.6	8.85e-05	0	42	0	265289728	21	5306
2026-01-08 08:42:57.21	92.20	18.14	-30.5	-34.0	12.5	1.26e-04	0	43	0	267386880	21	5349
2026-01-08 08:42:58.21	92.03	18.22	-30.5	-34.0	12.5	1.08e-04	0	43	0	269484032	21	5359
2026-01-08 08:42:59.21	91.86	18.31	-30.5	-34.0	12.6	9.84e-05	0	43	0	270532608	21	5343
2026-01-08 08:43:00.21	91.69	18.39	-30.6	-34.1	12.4	1.27e-04	0	42	0	272629760	21	5422
2026-01-08 08:43:01.22	91.51	18.48	-30.6	-34.2	12.3	1.69e-04	0	42	0	274726912	21	5454
2026-01-08 08:43:02.22	91.33	18.56	-30.5	-34.0	12.5	1.20e-04	0	43	0	276824064	21	5360
2026-01-08 08:43:03.23	91.16	18.64	-30.5	-33.9	12.6	1.18e-04	0	43	0	278921216	21	5328
2026-01-08 08:43:04.23	90.98	18.73	-30.6	-34.1	12.5	8.39e-05	0	42	0	279969792	21	5388
2026-01-08 08:43:05.24	90.80	18.81	-30.6	-34.3	12.4	1.30e-04	0	42	0	282066944	21	5461
2026-01-08 08:43:06.25	90.62	18.90	-30.6	-34.3	12.4	1.52e-04	0	42	0	284164096	21	5466
2026-01-08 08:43:07.25	90.44	18.98	-30.7	-34.5	12.2	1.90e-04	0	43	0	286261248	21	5551
2026-01-08 08:43:08.26	90.25	19.07	-30.8	-34.7	12.1	2.75e-04	0	43	0	288358400	21	5659
2026-01-08 08:43:09.27	90.07	19.15	-30.7	-34.5	12.2	2.13e-04	0	43	0	289406976	21	5570
2026-01-08 08:43:10.27	89.89	19.23	-30.8	-34.7	12.1	2.16e-04	0	43	0	291504128	21	5626
2026-01-08 08:43:11.28	89.70	19.32	-30.8	-34.7	12.1	2.98e-04	0	43	0	293601280	21	5631
2026-01-08 08:43:12.28	89.51	19.40	-30.8	-34.6	12.1	2.38e-04	0	43	0	295698432	21	5592
2026-01-08 08:43:13.28	89.33	19.49	-30.9	-34.9	12.0	4.79e-04	0	43	0	297795584	21	5747
2026-01-08 08:43:14.29	89.14	19.57	-30.7	-34.3	12.3	2.61e-04	0	43	0	298844160	21	5501
2026-01-08 08:43:15.30	88.95	19.66	-30.6	-34.1	12.5	1.45e-04	0	43	0	300941312	21	5390
2026-01-08 08:43:16.30	88.76	19.74	-30.4	-33.6	12.8	6.63e-05	0	42	0	303038464	21	5199
2026-01-08 08:43:17.31	88.56	19.82	-30.4	-33.6	12.9	4.88e-05	0	43	0	305135616	21	5178
2026-01-08 08:43:18.31	88.37	19.91	-30.4	-33.5	12.9	4.80e-05	0	43	0	307232768	21	5144
2026-01-08 08:43:19.32	88.18	19.99	-30.3	-33.2	13.2	3.05e-05	0	43	0	308281344	21	5022
2026-01-08 08:43:20.32	87.98	20.07	-30.3	-33.3	13.1	3.66e-05	0	43	0	310378496	21	5056
2026-01-08 08:43:21.33	87.79	20.16	-30.3	-33.1	13.2	2.59e-05	0	42	0	312475648	21	5016
2026-01-08 08:43:22.33	87.59	20.24	-30.3	-33.3	13.1	4.27e-05	0	43	0	314572800	21	5075
2026-01-08 08:43:23.33	87.39	20.32	-30.3	-33.3	13.1	4.65e-05	0	43	0	316669952	21	5081
2026-01-08 08:43:24.34	87.19	20.41	-30.2	-33.1	13.2	2.05e-05	0	43	0	317718528	21	5003
2026-01-08 08:43:25.35	86.99	20.49	-30.2	-32.9	13.4	1.44e-05	0	42	0	319815680	21	4923
2026-01-08 08:43:26.36	86.79	20.58	-30.2	-32.9	13.4	1.60e-05	0	43	0	321912832	21	4911
2026-01-08 08:43:27.37	86.59	20.66	-30.1	-32.8	13.4	2.05e-05	0	43	0	324009984	21	4900
2026-01-08 08:43:28.37	86.38	20.74	-30.1	-32.6	13.5	1.83e-05	0	43	0	326107136	21	4831
2026-01-08 08:43:29.38	86.18	20.82	-30.1	-32.6	13.6	4.50e-06	0	43	0	327155712	21	4802
2026-01-08 08:43:30.38	85.97	20.91	-30.1	-32.6	13.5	8.30e-06	0	43	0	329252864	21	4828
2026-01-08 08:43:31.38	85.77	20.99	-30.1	-32.6	13.5	1.29e-05	0	43	0	331350016	21	4815
2026-01-08 08:43:32.39	85.56	21.07	-29.9	-32.2	13.8	3.80e-06	0	43	0	333447168	21	4671
2026-01-08 08:43:33.39	85.35	21.15	-29.8	-31.8	14.1	1.50e-06	0	43	0	335544320	21	4540
2026-01-08 08:43:34.40	85.14	21.24	-29.8	-32.3	14.1	1.50e-06	0	43	0	336592896	20	4809
2026-01-08 08:43:35.41	84.93	21.32	-29.8	-32.3	14.1	4.50e-06	0	43	0	338690048	20	4801
2026-01-08 08:43:36.42	84.71	21.40	-29.8	-32.4	14.0	1.50e-06	0	43	0	340787200	20	4850
2026-01-08 08:43:37.42	84.50	21.48	-29.8	-32.4	14.0	5.30e-06	0	43	0	342884352	20	4860
2026-01-08 08:43:38.43	84.28	21.56	-29.8	-32.3	14.0	1.50e-06	0	43	0	344981504	20	4824
2026-01-08 08:43:39.43	84.07	21.65	-29.7	-32.0	14.3	3.80e-06	0	42	0	346030080	20	4728
2026-01-08 08:43:40.44	83.85	21.73	-29.6	-31.8	14.4	0.00e+00	0	43	0	348127232	20	4646
2026-01-08 08:43:41.44	83.63	21.81	-29.6	-31.8	14.4	1.50e-06	0	43	0	350224384	20	4656
2026-01-08 08:43:42.45	83.41	21.89	-29.5	-31.6	14.5	0.00e+00	0	43	0	352321536	20	4576
2026-01-08 08:43:43.46	83.19	21.97	-29.4	-31.3	14.7	0.00e+00	0	43	0	354418688	20	4492
2026-01-08 08:43:44.46	82.97	22.05	-29.4	-31.2	14.8	0.00e+00	0	43	0	355467264	20	4459
2026-01-08 08:43:45.47	82.75	22.13	-29.3	-31.6	15.0	0.00e+00	0	43	0	357564416	19	4660
2026-01-08 08:43:46.48	82.52	22.21	-29.4	-31.7	14.9	0.00e+00	0	43	0	359661568	19	4704
2026-01-08 08:43:47.48	82.30	22.29	-29.4	-31.8	14.8	0.00e+00	0	43	0	361758720	19	4731
2026-01-08 08:43:48.49	82.07	22.37	-29.4	-31.8	14.8	0.00e+00	0	43	0	363855872	19	4731
2026-01-08 08:43:49.49	81.84	22.45	-29.4	-31.7	14.9	0.00e+00	0	43	0	364904448	19	4718
2026-01-08 08:43:50.49	81.62	22.53	-29.4	-31.9	14.8	0.00e+00	0	43	0	367001600	19	4764
2026-01-08 08:43:51.50	81.38	22.61	-29.5	-32.0	14.7	0.00e+00	0	42	0	369098752	19	4800
2026-01-08 08:43:52.51	81.15	22.69	-29.4	-31.8	14.9	0.00e+00	0	42	0	371195904	19	4740
2026-01-08 08:43:53.51	80.92	22.77	-29.5	-32.0	14.8	7.00e-07	0	43	0	373293056	19	4788
2026-01-08 08:43:54.52	80.69	22.84	-29.5	-31.9	14.8	7.00e-07	0	43	0	374341632	19	4777
2026-01-08 08:43:55.53	80.45	22.92	-29.4	-31.8	14.9	0.00e+00	0	43	0	376438784	19	4721
2026-01-08 08:43:56.54	80.21	23.00	-29.5	-32.1	14.7	1.50e-06	0	43	0	378535936	19	4825
2026-01-08 08:43:57.54	79.98	23.08	-29.5	-32.1	14.7	7.00e-07	0	43	0	380633088	19	4820
2026-01-08 08:43:58.55	79.74	23.15	-29.7	-32.4	14.5	0.00e+00	0	43	0	382730240	19	4941
2026-01-08 08:43:59.55	79.50	23.23	-29.6	-32.3	14.5	1.50e-06	0	43	0	383778816	19	4916
2026-01-08 08:44:00.56	79.26	23.31	-29.5	-32.0	14.8	0.00e+00	0	43	0	385875968	19	4799
2026-01-08 08:44:01.57	79.02	23.38	-29.4	-31.7	14.9	0.00e+00	0	43	0	387973120	19	4714
2026-01-08 08:44:02.57	78.77	23.46	-29.4	-31.7	15.0	0.00e+00	0	43	0	390070272	19	4701
2026-01-08 08:44:03.58	78.53	23.53	-29.4	-31.8	14.8	7.00e-07	0	43	0	392167424	19	4748
2026-01-08 08:44:04.58	78.28	23.61	-29.3	-31.4	15.1	0.00e+00	0	43	0	393216000	19	4585
2026-01-08 08:44:05.59	78.04	23.68	-29.3	-31.5	15.1	0.00e+00	0	43	0	395313152	19	4631
2026-01-08 08:44:06.59	77.79	23.76	-29.4	-31.7	15.0	0.00e+00	0	43	0	397410304	19	4685
2026-01-08 08:44:07.60	77.54	23.83	-29.4	-31.8	14.9	0.00e+00	0	42	0	399507456	19	4734
2026-01-08 08:44:08.61	77.29	23.91	-29.4	-31.8	14.9	7.00e-07	0	43	0	401604608	19	4723
2026-01-08 08:44:09.61	77.04	23.98	-29.5	-32.0	14.8	1.50e-06	0	43	0	402653184	19	4790
2026-01-08 08:44:10.62	76.79	24.05	-29.5	-32.1	14.7	1.50e-06	0	43	0	404750336	19	4818
2026-01-08 08:44:11.63	76.53	24.12	-29.5	-32.0	14.8	0.00e+00	0	42	0	406847488	19	4787
2026-01-08 08:44:12.64	76.28	24.20	-29.6	-32.3	14.6	7.00e-07	0	43	0	408944640	19	4888
2026-01-08 08:44:13.64	76.02	24.27	-29.6	-32.3	14.6	7.00e-07	0	43	0	411041792	19	4892
2026-01-08 08:44:14.65	75.76	24.34	-29.7	-32.5	14.5	0.00e+00	0	43	0	412090368	19	4972
2026-01-08 08:44:15.65	75.51	24.41	-29.8	-32.7	14.4	7.00e-07	0	43	0	414187520	19	5030
2026-01-08 08:44:16.65	75.25	24.48	-29.7	-32.5	14.4	1.50e-06	0	43	0	416284672	19	4975
2026-01-08 08:44:17.66	74.99	24.55	-29.6	-32.2	14.7	0.00e+00	0	43	0	418381824	19	4849
2026-01-08 08:44:18.67	74.72	24.62	-29.6	-32.3	14.6	2.20e-06	0	43	0	420478976	19	4899
2026-01-08 08:44:19.67	74.46	24.69	-29.5	-32.0	14.8	0.00e+00	0	43	0	421527552	19	4783
2026-01-08 08:44:20.68	74.20	24.76	-29.4	-31.8	14.9	0.00e+00	0	43	0	423624704	19	4730
2026-01-08 08:44:21.69	73.93	24.82	-29.5	-31.8	14.9	2.20e-06	0	43	0	425721856	19	4741
2026-01-08 08:44:22.69	73.66	24.89	-29.6	-32.2	14.7	0.00e+00	0	43	0	427819008	19	4859
2026-01-08 08:44:23.70	73.40	24.96	-29.7	-32.4	14.6	1.50e-06	0	43	0	429916160	19	4915
2026-01-08 08:44:24.70	73.13	25.02	-29.6	-32.3	14.6	0.00e+00	0	43	0	430964736	19	4903
2026-01-08 08:44:25.71	72.86	25.09	-29.7	-32.4	14.6	0.00e+00	0	43	0	433061888	19	4930
2026-01-08 08:44:26.71	72.59	25.15	-29.7	-32.4	14.6	0.00e+00	0	43	0	435159040	19	4932
2026-01-08 08:44:27.72	72.31	25.22	-29.9	-33.0	14.3	1.50e-06	0	43	0	437256192	19	5128
2026-01-08 08:44:28.73	72.04	25.28	-29.7	-32.5	14.5	0.00e+00	0	43	0	439353344	19	4968
2026-01-08 08:44:29.73	71.77	25.35	-29.9	-33.0	14.2	0.00e+00	0	43	0	440401920	19	5133
2026-01-08 08:44:30.74	71.49	25.41	-29.8	-32.8	14.3	1.50e-06	0	43	0	442499072	19	5054
2026-01-08 08:44:31.74	71.22	25.47	-29.7	-32.3	14.6	1.50e-06	0	43	0	444596224	19	4899
2026-01-08 08:44:32.75	70.94	25.53	-29.5	-31.9	14.9	0.00e+00	0	43	0	446693376	19	4764
2026-01-08 08:44:33.76	70.66	25.60	-29.5	-31.8	14.9	3.00e-06	0	43	0	448790528	19	4736
2026-01-08 08:44:34.76	70.38	25.66	-29.5	-31.9	14.9	0.00e+00	0	43	0	449839104	19	4750
2026-01-08 08:44:35.77	70.10	25.72	-29.5	-31.9	14.9	0.00e+00	0	42	0	451936256	19	4751
2026-01-08 08:44:36.77	69.82	25.78	-29.3	-31.5	15.1	0.00e+00	0	43	0	454033408	19	4640
2026-01-08 08:44:37.78	69.53	25.83	-29.2	-31.1	15.4	0.00e+00	0	43	0	456130560	19	4503
2026-01-08 08:44:38.79	69.25	25.89	-29.3	-31.4	15.2	0.00e+00	0	43	0	458227712	19	4607
2026-01-08 08:44:39.79	68.96	25.95	-29.3	-31.5	15.1	0.00e+00	0	43	0	459276288	19	4621
2026-01-08 08:44:40.80	68.68	26.01	-29.4	-31.6	15.1	0.00e+00	0	43	0	461373440	19	4670
2026-01-08 08:44:41.81	68.39	26.06	-29.5	-31.9	14.9	0.00e+00	0	43	0	463470592	19	4753
2026-01-08 08:44:42.81	68.10	26.12	-29.5	-32.0	14.9	0.00e+00	0	43	0	465567744	19	4791
2026-01-08 08:44:43.81	67.81	26.17	-29.5	-32.0	14.8	0.00e+00	0	43	0	466616320	19	4804
2026-01-08 08:44:44.82	67.52	26.23	-29.5	-32.1	14.8	0.00e+00	0	43	0	468713472	19	4813
2026-01-08 08:44:45.82	67.23	26.28	-29.6	-32.3	14.7	0.00e+00	0	43	0	470810624	19	4881
2026-01-08 08:44:46.83	66.94	26.33	-29.7	-32.3	14.6	0.00e+00	0	43	0	472907776	19	4906
2026-01-08 08:44:47.84	66.65	26.39	-29.9	-32.9	14.3	0.00e+00	0	43	0	475004928	19	5094
2026-01-08 08:44:48.84	66.35	26.44	-30.0	-33.1	14.1	0.00e+00	0	43	0	477102080	19	5190
2026-01-08 08:44:49.85	66.06	26.49	-29.9	-33.0	14.2	1.50e-06	0	43	0	478150656	19	5148
2026-01-08 08:44:50.86	65.76	26.54	-29.9	-33.1	14.2	1.50e-06	0	43	0	480247808	19	5159
2026-01-08 08:44:51.87	65.46	26.59	-30.1	-33.0	13.9	3.00e-06	0	43	0	482344960	20	5017
2026-01-08 08:44:52.87	65.17	26.63	-30.3	-33.5	13.6	5.30e-06	0	43	0	484442112	20	5221
2026-01-08 08:44:53.87	64.87	26.68	-30.3	-33.5	13.5	1.14e-05	0	43	0	486539264	20	5234
2026-01-08 08:44:54.88	64.57	26.73	-30.4	-33.8	13.3	8.30e-06	0	43	0	487587840	20	5342
2026-01-08 08:44:55.89	64.27	26.77	-30.3	-33.5	13.5	1.60e-05	0	43	0	489684992	20	5225
2026-01-08 08:44:56.89	63.97	26.82	-30.3	-33.7	13.5	1.06e-05	0	43	0	491782144	20	5279
2026-01-08 08:44:57.90	63.66	26.86	-30.4	-33.9	13.3	9.10e-06	0	43	0	493879296	20	5375
2026-01-08 08:44:58.91	63.36	26.91	-30.4	-33.8	13.3	1.75e-05	0	43	0	494927872	20	5340
2026-01-08 08:44:59.91	63.06	26.95	-30.4	-33.8	13.4	2.05e-05	0	43	0	497025024	20	5325
2026-01-08 08:45:00.91	62.76	26.99	-30.4	-33.8	13.4	9.90e-06	0	43	0	499122176	20	5316
2026-01-08 08:45:01.92	62.45	27.03	-30.3	-33.6	13.5	1.52e-05	0	43	0	501219328	20	5239
2026-01-08 08:45:02.92	62.14	27.07	-30.3	-33.6	13.5	7.60e-06	0	43	0	503316480	20	5265
2026-01-08 08:45:03.93	61.84	27.11	-30.4	-33.8	13.4	1.06e-05	0	43	0	505413632	20	5333
2026-01-08 08:45:04.94	61.53	27.15	-30.4	-33.8	13.4	2.44e-05	0	43	0	506462208	20	5325
2026-01-08 08:45:05.94	61.22	27.19	-30.5	-34.0	13.2	1.98e-05	0	43	0	508559360	20	5422
2026-01-08 08:45:06.94	60.91	27.22	-30.5	-33.7	13.1	2.28e-05	0	43	0	510656512	21	5193
2026-01-08 08:45:07.95	60.60	27.26	-30.5	-33.6	13.2	2.67e-05	0	43	0	512753664	21	5143
2026-01-08 08:45:08.96	60.29	27.29	-30.5	-33.7	13.1	2.82e-05	0	43	0	513802240	21	5178
2026-01-08 08:45:09.97	59.98	27.33	-30.4	-33.4	13.3	2.67e-05	0	43	0	515899392	21	5059
2026-01-08 08:45:10.97	59.67	27.36	-30.5	-33.6	13.2	1.37e-05	0	43	0	517996544	21	5135
2026-01-08 08:45:11.98	59.36	27.39	-30.6	-34.0	12.9	4.04e-05	0	43	0	520093696	21	5309
2026-01-08 08:45:12.98	59.04	27.43	-30.6	-33.9	13.0	2.44e-05	0	43	0	522190848	21	5258
2026-01-08 08:45:13.98	58.73	27.46	-30.6	-33.9	13.0	2.74e-05	0	43	0	523239424	21	5243
2026-01-08 08:45:14.99	58.42	27.49	-30.7	-34.1	12.9	4.19e-05	0	43	0	525336576	21	5341
2026-01-08 08:45:16.00	58.10	27.51	-30.6	-33.9	13.0	3.58e-05	0	43	0	527433728	21	5246
2026-01-08 08:45:17.01	57.78	27.54	-30.9	-34.7	12.5	8.08e-05	0	43	0	529530880	21	5567
2026-01-08 08:45:18.02	57.47	27.57	-30.8	-34.6	12.5	1.03e-04	0	43	0	531628032	21	5541
2026-01-08 08:45:19.02	57.15	27.59	-31.1	-34.8	12.1	2.07e-04	0	43	0	533725184	22	5526
2026-01-08 08:45:20.03	56.83	27.62	-31.2	-35.1	11.8	4.28e-04	0	43	0	534773760	22	5648
2026-01-08 08:45:21.04	56.52	27.64	-31.2	-35.1	11.9	3.65e-04	0	43	0	536870912	22	5627
2026-01-08 08:45:22.05	56.20	27.67	-31.2	-35.0	12.0	3.10e-04	0	43	0	538968064	22	5587
2026-01-08 08:45:23.05	55.88	27.69	-31.0	-34.5	12.3	2.78e-04	0	43	0	541065216	22	5386
2026-01-08 08:45:24.06	55.56	27.71	-31.0	-34.7	12.2	2.41e-04	0	43	0	542113792	22	5452
2026-01-08 08:45:25.06	55.24	27.73	-31.1	-34.9	12.0	2.60e-04	0	43	0	544210944	22	5562
2026-01-08 08:45:26.06	54.92	27.75	-31.1	-34.7	12.2	2.62e-04	0	43	0	546308096	22	5470
2026-01-08 08:45:27.07	54.60	27.77	-31.2	-35.3	11.8	3.35e-04	0	43	0	548405248	22	5716
2026-01-08 08:45:28.08	54.28	27.78	-31.1	-34.7	12.1	4.03e-04	0	43	0	550502400	22	5493
2026-01-08 08:45:29.08	53.96	27.80	-31.0	-34.5	12.3	2.23e-04	0	43	0	551550976	22	5394
2026-01-08 08:45:30.09	53.64	27.81	-31.2	-35.2	11.8	3.37e-04	0	43	0	553648128	22	5685
2026-01-08 08:45:31.09	53.32	27.83	-31.1	-34.8	12.1	3.81e-04	0	43	0	555745280	22	5532
2026-01-08 08:45:32.10	53.00	27.84	-31.1	-34.8	12.0	3.27e-04	0	43	0	557842432	22	5530
2026-01-08 08:45:33.10	52.68	27.85	-30.9	-34.3	12.4	1.82e-04	0	43	0	559939584	22	5293
2026-01-08 08:45:34.11	52.36	27.86	-30.8	-33.9	12.7	1.14e-04	0	43	0	560988160	22	5161
2026-01-08 08:45:35.12	52.03	27.88	-30.9	-34.3	12.4	1.31e-04	0	43	0	563085312	22	5307
2026-01-08 08:45:36.12	51.71	27.88	-30.9	-34.1	12.6	9.84e-05	0	43	0	565182464	22	5229
2026-01-08 08:45:37.13	51.39	27.89	-30.8	-34.0	12.6	9.07e-05	0	43	0	567279616	22	5175
2026-01-08 08:45:38.14	51.06	27.90	-30.8	-34.0	12.6	9.61e-05	0	43	0	569376768	22	5195
2026-01-08 08:45:39.15	50.74	27.91	-31.0	-34.5	12.3	1.69e-04	0	43	0	570425344	22	5372
2026-01-08 08:45:40.16	50.42	27.91	-30.7	-33.5	12.9	7.62e-05	0	43	0	572522496	22	5005
2026-01-08 08:45:41.16	50.10	27.91	-30.5	-33.2	13.2	4.11e-05	0	43	0	574619648	22	4884
2026-01-08 08:45:42.16	49.77	27.92	-30.4	-32.9	13.3	2.05e-05	0	43	0	576716800	22	4778
2026-01-08 08:45:43.17	49.45	27.92	-30.5	-33.0	13.3	1.52e-05	0	43	0	578813952	22	4820
2026-01-08 08:45:44.18	49.13	27.92	-30.5	-33.0	13.3	2.13e-05	0	43	0	579862528	22	4805
2026-01-08 08:45:45.19	48.80	27.92	-30.5	-33.0	13.3	1.75e-05	0	43	0	581959680	22	4811
2026-01-08 08:45:46.19	48.48	27.92	-30.5	-32.9	13.3	1.90e-05	0	43	0	584056832	22	4792
2026-01-08 08:45:47.19	48.16	27.92	-30.4	-32.8	13.4	1.60e-05	0	43	0	586153984	22	4751
2026-01-08 08:45:48.20	47.83	27.92	-30.4	-32.8	13.5	9.10e-06	0	43	0	588251136	22	4737
2026-01-08 08:45:49.21	47.51	27.91	-30.5	-33.1	13.2	2.44e-05	0	43	0	589299712	22	4864
2026-01-08 08:45:50.21	47.19	27.91	-30.4	-32.9	13.4	1.90e-05	0	43	0	591396864	22	4762
2026-01-08 08:45:51.21	46.87	27.90	-30.5	-33.1	13.3	1.22e-05	0	43	0	593494016	22	4835
2026-01-08 08:45:52.22	46.55	27.89	-30.6	-33.4	13.0	4.11e-05	0	43	0	595591168	22	4980
2026-01-08 08:45:53.23	46.22	27.89	-30.5	-33.0	13.3	1.75e-05	0	43	0	597688320	22	4819
2026-01-08 08:45:54.23	45.90	27.88	-30.4	-32.9	13.4	1.83e-05	0	43	0	598736896	22	4768
2026-01-08 08:45:55.24	45.58	27.87	-30.4	-32.7	13.5	7.60e-06	0	43	0	600834048	22	4716
2026-01-08 08:45:56.25	45.25	27.85	-30.3	-32.5	13.6	1.37e-05	0	43	0	602931200	22	4651
2026-01-08 08:45:57.25	44.94	27.84	-30.2	-32.9	13.6	3.80e-06	0	43	0	605028352	21	4887
2026-01-08 08:45:58.26	44.61	27.83	-30.3	-33.2	13.5	1.06e-05	0	43	0	607125504	21	4981
2026-01-08 08:45:59.27	44.29	27.82	-30.2	-32.7	13.8	4.50e-06	0	43	0	608174080	21	4803
2026-01-08 08:46:00.27	43.97	27.80	-30.1	-32.4	14.0	5.30e-06	0	43	0	610271232	21	4699
2026-01-08 08:46:01.27	43.65	27.79	-30.0	-32.2	14.1	1.50e-06	0	43	0	612368384	21	4643
2026-01-08 08:46:02.28	43.33	27.77	-30.0	-32.4	14.0	7.00e-07	0	43	0	614465536	21	4693
2026-01-08 08:46:03.29	43.01	27.75	-29.9	-32.1	14.1	3.80e-06	0	43	0	616562688	21	4606
2026-01-08 08:46:04.29	42.69	27.73	-29.9	-32.0	14.2	2.20e-06	0	43	0	617611264	21	4587
2026-01-08 08:46:05.30	42.37	27.71	-29.9	-31.9	14.3	2.20e-06	0	43	0	619708416	21	4544
2026-01-08 08:46:06.30	42.06	27.69	-29.9	-32.0	14.2	1.50e-06	0	43	0	621805568	21	4572
2026-01-08 08:46:07.30	41.74	27.67	-30.0	-32.2	14.1	2.20e-06	0	43	0	623902720	21	4652
2026-01-08 08:46:08.31	41.42	27.65	-29.7	-32.0	14.5	1.50e-06	0	43	0	625999872	20	4683
2026-01-08 08:46:09.32	41.10	27.62	-29.5	-31.4	14.9	0.00e+00	0	43	0	627048448	20	4500
2026-01-08 08:46:10.32	40.79	27.60	-29.4	-31.2	15.0	7.00e-07	0	43	0	629145600	20	4427
2026-01-08 08:46:11.33	40.47	27.57	-29.5	-31.4	14.9	0.00e+00	0	43	0	631242752	20	4491
2026-01-08 08:46:12.33	40.16	27.55	-29.5	-31.6	14.8	7.00e-07	0	43	0	633339904	20	4548
2026-01-08 08:46:13.35	39.84	27.52	-29.6	-31.6	14.7	1.50e-06	0	43	0	635437056	20	4554
2026-01-08 08:46:14.35	39.53	27.49	-29.5	-31.5	14.8	0.00e+00	0	43	0	636485632	20	4535
2026-01-08 08:46:15.35	39.21	27.46	-29.6	-31.7	14.7	0.00e+00	0	43	0	638582784	20	4573
2026-01-08 08:46:16.35	38.90	27.43	-29.5	-31.5	14.8	0.00e+00	0	43	0	640679936	20	4531
2026-01-08 08:46:17.35	38.59	27.40	-29.4	-31.2	15.0	0.00e+00	0	43	0	642777088	20	4422
2026-01-08 08:46:18.35	38.28	27.37	-29.4	-31.3	14.9	7.00e-07	0	43	0	644874240	20	4464
2026-01-08 08:46:19.36	37.97	27.33	-29.5	-31.5	14.8	0.00e+00	0	43	0	645922816	20	4534
2026-01-08 08:46:20.37	37.66	27.30	-29.5	-31.4	14.8	0.00e+00	0	43	0	648019968	20	4506
2026-01-08 08:46:21.38	37.34	27.26	-29.6	-31.7	14.7	7.00e-07	0	43	0	650117120	20	4571
2026-01-08 08:46:22.38	37.04	27.23	-29.6	-31.7	14.7	7.00e-07	0	43	0	652214272	20	4593
2026-01-08 08:46:23.39	36.73	27.19	-29.7	-32.0	14.5	0.00e+00	0	43	0	654311424	20	4686
2026-01-08 08:46:24.39	36.42	27.16	-29.7	-32.0	14.5	1.50e-06	0	43	0	655360000	20	4693
2026-01-08 08:46:25.40	36.11	27.12	-29.8	-32.3	14.3	1.50e-06	0	43	0	657457152	20	4791
2026-01-08 08:46:26.40	35.81	27.08	-30.1	-33.0	13.9	3.80e-06	0	43	0	659554304	20	5023
2026-01-08 08:46:27.41	35.50	27.04	-30.2	-33.2	13.7	4.50e-06	0	43	0	661651456	20	5110
2026-01-08 08:46:28.41	35.20	27.00	-30.2	-33.4	13.6	4.50e-06	0	43	0	663748608	20	5182
2026-01-08 08:46:29.42	34.89	26.96	-30.3	-33.5	13.5	1.22e-05	0	43	0	664797184	20	5234
2026-01-08 08:46:30.42	34.59	26.91	-30.2	-33.2	13.7	9.90e-06	0	43	0	666894336	20	5114
2026-01-08 08:46:31.43	34.29	26.87	-30.2	-33.3	13.7	6.80e-06	0	43	0	668991488	20	5139
2026-01-08 08:46:32.43	33.99	26.83	-30.2	-33.4	13.6	6.80e-06	0	43	0	671088640	20	5199
2026-01-08 08:46:33.44	33.69	26.78	-30.4	-33.7	13.3	1.67e-05	0	43	0	673185792	20	5307
2026-01-08 08:46:34.44	33.39	26.74	-30.3	-33.7	13.4	1.06e-05	0	43	0	674234368	20	5287
2026-01-08 08:46:35.45	33.09	26.69	-30.5	-33.5	13.2	2.59e-05	0	43	0	676331520	21	5105
2026-01-08 08:46:36.45	32.79	26.64	-30.4	-33.4	13.2	2.82e-05	0	43	0	678428672	21	5088
2026-01-08 08:46:37.45	32.50	26.59	-30.5	-33.7	13.0	1.90e-05	0	43	0	680525824	21	5204
2026-01-08 08:46:38.46	32.20	26.55	-30.7	-34.1	12.8	5.18e-05	0	43	0	681574400	21	5357
2026-01-08 08:46:39.46	31.90	26.50	-30.7	-34.1	12.7	7.24e-05	0	43	0	683671552	21	5366
2026-01-08 08:46:40.47	31.61	26.45	-30.7	-34.2	12.7	5.95e-05	0	43	0	685768704	21	5380
2026-01-08 08:46:41.47	31.32	26.40	-30.7	-34.1	12.7	8.54e-05	0	43	0	687865856	21	5367
2026-01-08 08:46:42.48	31.02	26.34	-30.6	-33.9	12.9	4.65e-05	0	43	0	689963008	21	5270
2026-01-08 08:46:43.49	30.73	26.29	-30.6	-34.0	12.9	4.04e-05	0	43	0	692060160	21	5316
2026-01-08 08:46:44.50	30.44	26.24	-30.7	-34.1	12.7	4.65e-05	0	43	0	693108736	21	5372
2026-01-08 08:46:45.50	30.15	26.18	-30.7	-34.3	12.6	8.23e-05	0	43	0	695205888	21	5444
2026-01-08 08:46:46.50	29.86	26.13	-30.7	-34.2	12.7	6.86e-05	0	43	0	697303040	21	5406
2026-01-08 08:46:47.50	29.58	26.07	-30.8	-34.5	12.5	8.54e-05	0	43	0	699400192	21	5509
2026-01-08 08:46:48.51	29.29	26.02	-30.8	-34.6	12.4	1.58e-04	0	43	0	700448768	21	5586
2026-01-08 08:46:49.52	29.00	25.96	-30.9	-34.7	12.3	1.59e-04	0	43	0	702545920	21	5606
2026-01-08 08:46:50.52	28.72	25.90	-30.8	-34.5	12.4	1.90e-04	0	43	0	704643072	21	5523
2026-01-08 08:46:51.52	28.44	25.85	-30.8	-34.4	12.6	1.24e-04	0	43	0	706740224	21	5462
2026-01-08 08:46:52.52	28.16	25.79	-30.9	-34.9	12.2	1.71e-04	0	43	0	708837376	21	5678
2026-01-08 08:46:53.52	27.88	25.73	-31.0	-34.5	12.1	3.17e-04	0	43	0	709885952	22	5408
2026-01-08 08:46:54.53	27.60	25.67	-30.8	-33.9	12.5	1.81e-04	0	43	0	711983104	22	5180
2026-01-08 08:46:55.53	27.32	25.61	-30.7	-33.6	12.7	8.39e-05	0	43	0	714080256	22	5066
2026-01-08 08:46:56.53	27.04	25.55	-30.6	-33.5	12.8	4.73e-05	0	43	0	716177408	22	5012
2026-01-08 08:46:57.54	26.76	25.49	-30.6	-33.5	12.8	5.87e-05	0	43	0	718274560	22	5008
2026-01-08 08:46:58.54	26.49	25.43	-30.6	-33.4	12.9	4.50e-05	0	43	0	719323136	22	4977
2026-01-08 08:46:59.55	26.21	25.36	-30.6	-33.3	13.0	4.57e-05	0	43	0	721420288	22	4949
2026-01-08 08:47:00.55	25.94	25.30	-30.5	-33.3	13.0	3.58e-05	0	43	0	723517440	22	4930
2026-01-08 08:47:01.56	25.67	25.24	-30.6	-33.4	12.8	4.34e-05	0	43	0	725614592	22	5003
2026-01-08 08:47:02.56	25.40	25.17	-30.5	-33.3	12.9	5.34e-05	0	43	0	727711744	22	4943
2026-01-08 08:47:03.57	25.13	25.11	-30.4	-33.0	13.1	3.05e-05	0	43	0	728760320	22	4819
2026-01-08 08:47:04.58	24.86	25.04	-30.4	-33.0	13.1	2.51e-05	0	43	0	730857472	22	4855
2026-01-08 08:47:05.59	24.59	24.98	-30.5	-33.2	13.0	2.97e-05	0	43	0	732954624	22	4912
2026-01-08 08:47:06.59	24.32	24.91	-30.5	-33.1	13.1	3.12e-05	0	43	0	735051776	22	4860
2026-01-08 08:47:07.60	24.06	24.84	-30.4	-32.9	13.3	2.51e-05	0	43	0	737148928	22	4785
2026-01-08 08:47:08.61	23.79	24.77	-30.4	-33.0	13.1	2.51e-05	0	43	0	738197504	22	4819
2026-01-08 08:47:09.61	23.53	24.71	-30.4	-32.9	13.3	2.59e-05	0	43	0	740294656	22	4790
2026-01-08 08:47:10.62	23.26	24.64	-30.2	-32.9	13.5	1.14e-05	0	43	0	742391808	21	4891
2026-01-08 08:47:11.63	23.00	24.57	-30.2	-32.9	13.5	1.22e-05	0	43	0	744488960	21	4899
2026-01-08 08:47:12.63	22.74	24.50	-30.3	-33.3	13.3	9.90e-06	0	43	0	746586112	21	5039
2026-01-08 08:47:13.63	22.49	24.43	-30.3	-33.1	13.4	1.75e-05	0	43	0	747634688	21	4960
2026-01-08 08:47:14.64	22.23	24.36	-30.3	-33.2	13.4	1.52e-05	0	43	0	749731840	21	4994
2026-01-08 08:47:15.65	21.97	24.29	-30.4	-33.4	13.2	2.28e-05	0	43	0	751828992	21	5086
2026-01-08 08:47:16.65	21.72	24.22	-30.4	-33.4	13.2	2.74e-05	0	43	0	753926144	21	5088
2026-01-08 08:47:17.65	21.46	24.15	-30.2	-33.0	13.4	1.22e-05	0	43	0	756023296	21	4934
2026-01-08 08:47:18.65	21.21	24.07	-30.1	-32.5	13.8	1.14e-05	0	43	0	757071872	21	4751
2026-01-08 08:47:19.66	20.96	24.00	-30.0	-32.2	13.8	6.10e-06	0	43	0	759169024	21	4676
2026-01-08 08:47:20.67	20.71	23.93	-30.1	-32.5	13.7	3.00e-06	0	43	0	761266176	21	4763
2026-01-08 08:47:21.67	20.46	23.86	-29.9	-32.1	14.0	1.50e-06	0	43	0	763363328	21	4632
2026-01-08 08:47:22.68	20.21	23.78	-29.9	-31.9	14.1	7.00e-07	0	43	0	765460480	21	4575
2026-01-08 08:47:23.68	19.96	23.71	-29.8	-31.8	14.2	1.50e-06	0	43	0	766509056	21	4544
2026-01-08 08:47:24.69	19.72	23.63	-29.9	-32.0	14.1	1.50e-06	0	43	0	768606208	21	4592
2026-01-08 08:47:25.69	19.47	23.56	-29.8	-32.2	14.2	0.00e+00	0	43	0	770703360	20	4751
2026-01-08 08:47:26.70	19.23	23.48	-29.7	-32.0	14.3	7.00e-07	0	43	0	772800512	20	4712
2026-01-08 08:47:27.71	18.99	23.41	-29.8	-32.3	14.1	0.00e+00	0	43	0	774897664	20	4818
2026-01-08 08:47:28.71	18.75	23.33	-29.9	-32.7	13.9	2.20e-06	0	43	0	775946240	20	4941
2026-01-08 08:47:29.71	18.51	23.26	-29.8	-32.4	14.1	1.50e-06	0	43	0	778043392	20	4824
2026-01-08 08:47:30.71	18.27	23.18	-29.7	-32.2	14.2	1.50e-06	0	43	0	780140544	20	4754
2026-01-08 08:47:31.72	18.03	23.10	-29.8	-32.2	14.2	1.50e-06	0	43	0	782237696	20	4773
2026-01-08 08:47:32.72	17.80	23.03	-29.7	-32.2	14.2	2.20e-06	0	43	0	784334848	20	4753
2026-01-08 08:47:33.73	17.56	22.95	-29.8	-32.3	14.1	7.00e-07	0	43	0	785383424	20	4802
2026-01-08 08:47:34.73	17.33	22.87	-30.0	-32.8	13.8	1.50e-06	0	43	0	787480576	20	4971
2026-01-08 08:47:35.74	17.09	22.80	-29.8	-32.4	14.0	5.30e-06	0	43	0	789577728	20	4856
2026-01-08 08:47:36.74	16.86	22.72	-29.6	-31.8	14.4	2.20e-06	0	43	0	791674880	20	4639
2026-01-08 08:47:37.75	16.63	22.64	-29.4	-31.2	14.8	1.50e-06	0	43	0	793772032	20	4440
2026-01-08 08:47:38.75	16.40	22.56	-29.3	-31.1	14.9	7.00e-07	0	43	0	794820608	20	4405
2026-01-08 08:47:39.76	16.17	22.48	-29.3	-31.5	15.0	7.00e-07	0	43	0	796917760	19	4645
2026-01-08 08:47:40.77	15.95	22.40	-29.3	-31.5	15.0	0.00e+00	0	43	0	799014912	19	4654
2026-01-08 08:47:41.77	15.72	22.32	-29.3	-31.6	14.9	0.00e+00	0	43	0	801112064	19	4665
2026-01-08 08:47:42.78	15.49	22.24	-29.5	-32.0	14.7	0.00e+00	0	43	0	803209216	19	4806
2026-01-08 08:47:43.78	15.27	22.16	-29.3	-31.6	14.9	7.00e-07	0	43	0	804257792	19	4663
2026-01-08 08:47:44.78	15.05	22.08	-29.1	-31.1	15.2	0.00e+00	0	43	0	806354944	19	4520
2026-01-08 08:47:45.79	14.83	22.00	-29.0	-30.8	15.4	0.00e+00	0	43	0	808452096	19	4405
2026-01-08 08:47:46.79	14.61	21.92	-29.0	-30.7	15.4	0.00e+00	0	43	0	810549248	19	4398
2026-01-08 08:47:47.80	14.39	21.84	-28.9	-30.6	15.5	0.00e+00	0	43	0	811597824	19	4364
2026-01-08 08:47:48.80	14.17	21.76	-28.9	-30.6	15.5	0.00e+00	0	43	0	813694976	19	4375
2026-01-08 08:47:49.81	13.96	21.68	-28.8	-30.3	15.7	0.00e+00	0	43	0	815792128	19	4257
2026-01-08 08:47:50.82	13.74	21.60	-28.7	-30.6	15.8	0.00e+00	0	43	0	817889280	18	4467
2026-01-08 08:47:51.82	13.53	21.52	-28.7	-30.5	15.9	0.00e+00	0	43	0	819986432	18	4426
2026-01-08 08:47:52.82	13.32	21.44	-28.7	-30.5	15.8	0.00e+00	0	43	0	822083584	18	4445
2026-01-08 08:47:53.83	13.10	21.36	-28.6	-30.2	16.0	0.00e+00	0	43	0	823132160	18	4361
2026-01-08 08:47:54.84	12.89	21.27	-28.6	-30.3	16.0	0.00e+00	0	43	0	825229312	18	4374
2026-01-08 08:47:55.84	12.68	21.19	-28.7	-30.5	15.8	0.00e+00	0	43	0	827326464	18	4425
2026-01-08 08:47:56.85	12.47	21.11	-28.5	-30.0	16.0	0.00e+00	0	43	0	829423616	18	4290
2026-01-08 08:47:57.86	12.26	21.03	-28.4	-29.8	16.2	0.00e+00	0	43	0	830472192	18	4241
2026-01-08 08:47:58.86	12.06	20.95	-28.4	-29.7	16.3	0.00e+00	0	43	0	832569344	18	4198
2026-01-08 08:47:59.87	11.85	20.86	-28.3	-29.6	16.3	0.00e+00	0	43	0	834666496	18	4181
2026-01-08 08:48:00.87	11.65	20.78	-28.3	-29.6	16.3	0.00e+00	0	43	0	836763648	18	4183
2026-01-08 08:48:01.87	11.45	20.70	-28.4	-29.9	16.2	0.00e+00	0	43	0	838860800	18	4270
2026-01-08 08:48:02.87	11.25	20.62	-28.4	-29.9	16.2	0.00e+00	0	43	0	839909376	18	4256
2026-01-08 08:48:03.88	11.05	20.53	-28.5	-30.1	16.0	0.00e+00	0	43	0	842006528	18	4324
2026-01-08 08:48:04.89	10.84	20.45	-28.5	-30.0	16.1	0.00e+00	0	43	0	844103680	18	4294
2026-01-08 08:48:05.90	10.65	20.37	-28.4	-29.9	16.1	0.00e+00	0	43	0	846200832	18	4272
2026-01-08 08:48:06.90	10.45	20.28	-28.4	-29.9	16.1	0.00e+00	0	43	0	848297984	18	4260
2026-01-08 08:48:07.91	10.25	20.20	-28.5	-30.1	16.0	0.00e+00	0	43	0	849346560	18	4337
2026-01-08 08:48:08.92	10.06	20.12	-28.5	-30.2	16.0	0.00e+00	0	43	0	851443712	18	4341
2026-01-08 08:48:09.92	9.86	20.03	-28.6	-30.3	15.9	0.00e+00	0	43	0	853540864	18	4370
2026-01-08 08:48:10.93	9.67	19.95	-28.5	-30.2	16.0	0.00e+00	0	43	0	855638016	18	4343
2026-01-08 08:48:11.94	9.47	19.87	-28.5	-30.2	16.0	0.00e+00	0	43	0	857735168	18	4351
2026-01-08 08:48:12.94	9.28	19.78	-28.6	-30.2	15.9	0.00e+00	0	43	0	858783744	18	4361
2026-01-08 08:48:13.95	9.09	19.70	-28.5	-30.2	15.9	0.00e+00	0	43	0	860880896	18	4352
2026-01-08 08:48:14.95	8.91	19.62	-28.8	-30.7	15.6	0.00e+00	0	43	0	862978048	18	4520
2026-01-08 08:48:15.96	8.72	19.53	-28.7	-30.5	15.7	0.00e+00	0	43	0	865075200	18	4443
2026-01-08 08:48:16.96	8.53	19.45	-28.6	-30.4	15.8	0.00e+00	0	43	0	867172352	18	4413
2026-01-08 08:48:17.97	8.34	19.36	-28.6	-30.4	15.8	0.00e+00	0	43	0	868220928	18	4417
2026-01-08 08:48:18.98	8.16	19.28	-28.7	-30.5	15.7	0.00e+00	0	43	0	870318080	18	4438
2026-01-08 08:48:19.98	7.98	19.20	-28.7	-30.6	15.7	0.00e+00	0	43	0	872415232	18	4475
2026-01-08 08:48:20.99	7.79	19.11	-28.7	-30.7	15.6	0.00e+00	0	43	0	874512384	18	4493
2026-01-08 08:48:21.99	7.61	19.03	-28.9	-30.9	15.5	0.00e+00	0	43	0	876609536	18	4575
2026-01-08 08:48:23.00	7.43	18.95	-28.9	-31.1	15.4	0.00e+00	0	43	0	877658112	18	4640
2026-01-08 08:48:24.01	7.25	18.86	-29.0	-31.2	15.3	0.00e+00	0	43	0	879755264	18	4670
2026-01-08 08:48:25.01	7.07	18.78	-29.0	-31.3	15.2	0.00e+00	0	43	0	881852416	18	4696
2026-01-08 08:48:26.02	6.89	18.69	-29.0	-31.4	15.2	0.00e+00	0	43	0	883949568	18	4724
2026-01-08 08:48:27.03	6.72	18.61	-28.9	-31.2	15.3	0.00e+00	0	43	0	886046720	18	4661
2026-01-08 08:48:28.04	6.54	18.52	-29.0	-31.3	15.2	0.00e+00	0	43	0	887095296	18	4698
2026-01-08 08:48:29.04	6.37	18.44	-29.0	-31.3	15.2	0.00e+00	0	43	0	889192448	18	4698
2026-01-08 08:48:30.04	6.19	18.36	-29.1	-31.6	15.0	0.00e+00	0	43	0	891289600	18	4811
2026-01-08 08:48:31.06	6.02	18.27	-29.2	-31.7	15.0	0.00e+00	0	43	0	893386752	18	4843
2026-01-08 08:48:32.05	5.85	18.19	-29.3	-32.1	14.7	0.00e+00	0	43	0	895483904	18	4978
2026-01-08 08:48:33.06	5.68	18.11	-29.4	-32.3	14.6	7.00e-07	0	43	0	896532480	18	5054
2026-01-08 08:48:34.06	5.51	18.02	-29.5	-32.6	14.4	7.00e-07	0	43	0	898629632	18	5143
2026-01-08 08:48:35.06	5.34	17.94	-29.6	-32.5	14.2	1.50e-06	0	43	0	900726784	19	4991
2026-01-08 08:48:36.07	5.17	17.85	-29.8	-33.0	13.8	1.50e-06	0	43	0	902823936	19	5186
2026-01-08 08:48:37.08	5.00	17.77	-29.7	-32.6	14.1	3.00e-06	0	43	0	904921088	19	5035
2026-01-08 08:48:38.09	4.84	17.69	-29.6	-32.4	14.2	0.00e+00	0	43	0	905969664	19	4973
2026-01-08 08:48:39.09	4.67	17.60	-29.6	-32.4	14.2	2.20e-06	0	43	0	908066816	19	4977
2026-01-08 08:48:40.10	4.51	17.52	-29.7	-32.6	14.1	5.30e-06	0	43	0	910163968	19	5038
2026-01-08 08:48:41.11	4.34	17.44	-29.7	-32.8	13.9	1.50e-06	0	43	0	912261120	19	5104
2026-01-08 08:48:42.12	4.18	17.35	-29.7	-32.6	14.1	3.00e-06	0	43	0	914358272	19	5031
2026-01-08 08:48:43.12	4.02	17.27	-29.6	-32.3	14.2	1.50e-06	0	43	0	915406848	19	4944
2026-01-08 08:48:44.13	3.86	17.18	-29.6	-32.3	14.2	2.20e-06	0	43	0	917504000	19	4937
2026-01-08 08:48:45.13	3.70	17.10	-29.5	-32.1	14.3	7.00e-07	0	43	0	919601152	19	4876
2026-01-08 08:48:46.14	3.54	17.02	-29.6	-32.4	14.2	1.50e-06	0	43	0	921698304	19	4956
2026-01-08 08:48:47.14	3.38	16.93	-29.7	-32.6	14.0	3.80e-06	0	43	0	923795456	19	5043
2026-01-08 08:48:48.14	3.23	16.85	-29.7	-32.6	14.0	1.50e-06	0	43	0	924844032	19	5034
2026-01-08 08:48:49.14	3.07	16.77	-29.7	-32.8	13.9	3.80e-06	0	43	0	926941184	19	5115
2026-01-08 08:48:50.15	2.92	16.69	-29.8	-32.9	13.8	2.20e-06	0	43	0	929038336	19	5173
2026-01-08 08:48:51.15	2.76	16.60	-29.9	-33.1	13.7	7.60e-06	0	43	0	931135488	19	5219
2026-01-08 08:48:52.15	2.61	16.52	-29.8	-33.1	13.7	6.10e-06	0	43	0	933232640	19	5223
2026-01-08 08:48:53.16	2.46	16.44	-29.9	-33.2	13.6	6.10e-06	0	43	0	934281216	19	5274
2026-01-08 08:48:54.17	2.31	16.35	-30.0	-33.0	13.3	1.37e-05	0	43	0	936378368	20	5104
2026-01-08 08:48:55.17	2.16	16.27	-30.3	-33.8	12.8	3.20e-05	0	43	0	938475520	20	5402
2026-01-08 08:48:56.18	2.01	16.19	-30.1	-33.2	13.2	2.89e-05	0	43	0	940572672	20	5187
2026-01-08 08:48:57.19	1.86	16.11	-29.9	-32.8	13.4	1.37e-05	0	43	0	942669824	20	5024
2026-01-08 08:48:58.20	1.71	16.02	-29.8	-32.6	13.6	9.90e-06	0	43	0	943718400	20	4941
2026-01-08 08:48:59.21	1.56	15.94	-29.8	-32.5	13.7	8.30e-06	0	43	0	945815552	20	4922
2026-01-08 08:49:00.22	1.41	15.86	-29.9	-32.8	13.5	9.10e-06	0	43	0	947912704	20	5002
2026-01-08 08:49:01.22	1.27	15.78	-30.0	-32.9	13.4	1.67e-05	0	43	0	950009856	20	5073
2026-01-08 08:49:02.21	1.12	15.69	-29.9	-32.6	13.5	1.67e-05	0	43	0	952107008	20	4968
2026-01-08 08:49:03.22	0.98	15.61	-29.8	-32.6	13.6	1.06e-05	0	43	0	953155584	20	4951
2026-01-08 08:49:04.23	0.83	15.53	-29.9	-32.7	13.5	5.30e-06	0	43	0	955252736	20	4992
2026-01-08 08:49:05.24	0.69	15.45	-29.9	-32.7	13.5	1.06e-05	0	43	0	957349888	20	4973
2026-01-08 08:49:06.24	0.55	15.37	-29.9	-32.9	13.4	1.06e-05	0	43	0	959447040	20	5061
2026-01-08 08:49:07.24	0.41	15.29	-29.9	-32.8	13.5	1.22e-05	0	43	0	961544192	20	5006
2026-01-08 08:49:08.24	0.27	15.20	-30.0	-33.1	13.2	1.52e-05	0	43	0	962592768	20	5128
2026-01-08 08:49:09.25	0.13	15.12	-30.0	-33.0	13.3	1.83e-05	0	43	0	964689920	20	5111
2026-01-08 08:49:10.26	359.99	15.04	-30.1	-33.3	13.1	2.13e-05	0	43	0	966787072	20	5228
2026-01-08 08:49:11.26	359.85	14.96	-30.2	-33.6	12.8	5.03e-05	0	43	0	968884224	20	5357
2026-01-08 08:49:12.27	359.72	14.88	-30.1	-33.3	13.0	5.56e-05	0	43	0	970981376	20	5233
2026-01-08 08:49:13.27	359.58	14.80	-30.1	-33.2	13.1	2.05e-05	0	43	0	972029952	20	5194
2026-01-08 08:49:14.28	359.44	14.72	-30.0	-33.2	13.1	2.36e-05	0	43	0	974127104	20	5184
2026-01-08 08:49:15.28	359.31	14.64	-30.1	-33.4	13.0	2.67e-05	0	43	0	976224256	20	5263
2026-01-08 08:49:16.28	359.18	14.56	-30.1	-33.5	13.0	5.03e-05	0	43	0	978321408	20	5287
2026-01-08 08:49:17.29	359.04	14.47	-30.1	-33.5	12.9	4.19e-05	0	43	0	980418560	20	5289
2026-01-08 08:49:18.30	358.91	14.39	-30.2	-33.6	12.8	5.26e-05	0	43	0	981467136	20	5342
2026-01-08 08:49:19.30	358.78	14.31	-30.2	-33.6	12.8	4.73e-05	0	43	0	983564288	20	5326
2026-01-08 08:49:20.30	358.65	14.23	-30.2	-33.6	12.8	5.34e-05	0	43	0	985661440	20	5337
2026-01-08 08:49:21.30	358.52	14.15	-30.2	-33.7	12.8	5.49e-05	0	43	0	987758592	20	5373
2026-01-08 08:49:22.31	358.39	14.07	-30.3	-33.9	12.6	8.16e-05	0	43	0	988807168	20	5452
2026-01-08 08:49:23.32	358.26	13.99	-30.2	-33.8	12.7	7.62e-05	0	43	0	990904320	20	5416
2026-01-08 08:49:24.33	358.13	13.91	-30.3	-33.9	12.6	7.32e-05	0	43	0	993001472	20	5469
2026-01-08 08:49:25.33	358.00	13.83	-30.3	-34.1	12.5	1.07e-04	0	43	0	995098624	20	5555
2026-01-08 08:49:26.34	357.88	13.75	-30.3	-34.1	12.4	1.29e-04	0	43	0	997195776	20	5552
2026-01-08 08:49:27.34	357.75	13.67	-30.4	-34.3	12.3	1.81e-04	0	43	0	999292928	20	5652
2026-01-08 08:49:28.35	357.62	13.59	-30.4	-34.4	12.2	2.27e-04	0	43	0	1000341504	20	5675
2026-01-08 08:49:29.36	357.50	13.51	-30.5	-34.1	12.1	2.90e-04	0	43	0	1002438656	21	5444
2026-01-08 08:49:30.37	357.37	13.44	-30.5	-34.1	12.1	2.95e-04	0	43	0	1004535808	21	5468
2026-01-08 08:49:31.37	357.25	13.36	-30.6	-34.3	11.9	3.07e-04	0	43	0	1006632960	21	5555
2026-01-08 08:49:32.38	357.13	13.28	-30.5	-34.3	11.9	4.39e-04	0	43	0	1008730112	21	5523
2026-01-08 08:49:33.39	357.01	13.20	-30.4	-33.9	12.2	2.62e-04	0	43	0	1009778688	21	5378
2026-01-08 08:49:34.39	356.88	13.12	-30.4	-33.8	12.2	2.36e-04	0	43	0	1011875840	21	5336
2026-01-08 08:49:35.40	356.76	13.04	-30.4	-33.8	12.3	1.95e-04	0	43	0	1013972992	21	5318
2026-01-08 08:49:36.41	356.64	12.96	-30.4	-33.8	12.2	2.31e-04	0	43	0	1016070144	21	5325
2026-01-08 08:49:37.41	356.52	12.88	-30.4	-33.7	12.3	1.93e-04	0	43	0	1017118720	21	5292
2026-01-08 08:49:38.42	356.40	12.81	-30.4	-34.0	12.1	2.12e-04	0	43	0	1019215872	21	5406
2026-01-08 08:49:39.42	356.29	12.73	-30.5	-34.0	12.1	3.33e-04	0	43	0	1021313024	21	5405
2026-01-08 08:49:40.43	356.17	12.65	-30.5	-34.1	12.0	2.83e-04	0	43	0	1023410176	21	5450
2026-01-08 08:49:41.44	356.05	12.57	-30.5	-34.3	11.9	4.37e-04	0	43	0	1025507328	21	5554
2026-01-08 08:49:42.45	355.94	12.49	-30.6	-34.4	11.7	4.52e-04	0	43	0	1027604480	21	5615
2026-01-08 08:49:43.45	355.82	12.42	-30.6	-34.4	11.7	6.06e-04	0	43	0	1028653056	21	5611
2026-01-08 08:49:44.46	355.71	12.34	-30.5	-34.3	11.8	5.30e-04	0	43	0	1030750208	21	5562
2026-01-08 08:49:45.46	355.59	12.26	-30.6	-34.4	11.8	4.91e-04	0	43	0	1032847360	21	5589
2026-01-08 08:49:46.47	355.48	12.18	-30.6	-34.5	11.7	5.38e-04	0	43	0	1034944512	21	5638
2026-01-08 08:49:47.48	355.36	12.11	-30.6	-34.5	11.7	6.61e-04	0	43	0	1037041664	21	5615
2026-01-08 08:49:48.48	355.25	12.03	-30.5	-34.2	11.8	5.50e-04	0	43	0	1038090240	21	5523
2026-01-08 08:49:49.49	355.14	11.95	-30.5	-34.2	11.9	4.42e-04	0	43	0	1040187392	21	5501
2026-01-08 08:49:50.48	355.03	11.88	-30.4	-34.0	12.0	4.52e-04	0	43	0	1042284544	21	5442
2026-01-08 08:49:51.49	354.92	11.80	-30.5	-34.1	11.8	3.29e-04	0	43	0	1044381696	21	5479
2026-01-08 08:49:52.50	354.81	11.73	-30.5	-34.0	11.9	4.00e-04	0	43	0	1045430272	21	5445
2026-01-08 08:49:53.50	354.70	11.65	-30.5	-34.4	11.8	4.17e-04	0	43	0	1047527424	21	5583
2026-01-08 08:49:54.51	354.59	11.57	-30.5	-34.1	11.9	4.90e-04	0	43	0	1049624576	21	5491
2026-01-08 08:49:55.51	354.48	11.50	-30.5	-34.3	11.7	4.26e-04	0	43	0	1051721728	21	5563
2026-01-08 08:49:56.52	354.37	11.42	-30.6	-34.4	11.6	6.23e-04	0	43	0	1053818880	21	5606
2026-01-08 08:49:57.52	354.27	11.35	-30.5	-34.2	11.8	5.10e-04	0	43	0	1055916032	21	5501
2026-01-08 08:49:58.53	354.16	11.27	-30.6	-34.4	11.7	4.52e-04	0	43	0	1056964608	21	5593
2026-01-08 08:49:59.54	354.05	11.19	-30.6	-34.5	11.6	6.96e-04	0	43	0	1059061760	21	5666
2026-01-08 08:50:00.55	353.95	11.12	-30.6	-34.5	11.6	7.80e-04	0	43	0	1061158912	21	5652
2026-01-08 08:50:01.56	353.84	11.04	-30.7	-34.8	11.4	9.35e-04	0	43	0	1063256064	21	5802
2026-01-08 08:50:02.56	353.74	10.97	-30.7	-34.9	11.2	1.36e-03	0	43	0	1064304640	21	5816
2026-01-08 08:50:03.57	353.63	10.89	-30.7	-35.0	11.3	1.03e-03	0	43	0	1066401792	21	5859
2026-01-08 08:50:04.58	353.53	10.82	-30.7	-35.0	11.2	1.23e-03	0	43	0	1068498944	21	5874
2026-01-08 08:50:05.58	353.43	10.74	-30.7	-34.9	11.2	1.39e-03	0	43	0	1070596096	21	5850
2026-01-08 08:50:06.59	353.33	10.67	-30.7	-34.9	11.3	1.15e-03	0	43	0	1072693248	21	5818
2026-01-08 08:50:07.59	353.22	10.60	-30.7	-34.8	11.3	1.15e-03	0	43	0	1073741824	21	5816
2026-01-08 08:50:08.60	353.12	10.52	-30.8	-35.1	11.1	1.20e-03	0	43	0	1075838976	21	5928
2026-01-08 08:50:09.61	353.02	10.45	-30.8	-35.2	11.0	1.88e-03	0	43	0	1077936128	21	5984
2026-01-08 08:50:10.62	352.92	10.37	-30.7	-35.0	11.2	1.70e-03	0	43	0	1080033280	21	5880
2026-01-08 08:50:11.62	352.82	10.30	-30.7	-34.9	11.2	1.28e-03	0	43	0	1082130432	21	5826
2026-01-08 08:50:12.62	352.72	10.23	-30.7	-35.1	11.1	1.59e-03	0	43	0	1084227584	21	5925
2026-01-08 08:50:13.62	352.63	10.15	-30.8	-35.2	11.0	2.01e-03	0	43	0	1085276160	21	5967
2026-01-08 08:50:14.63	352.53	10.08	-30.8	-35.3	10.9	1.91e-03	0	43	0	1087373312	21	6033
2026-01-08 08:50:15.64	352.43	10.01	-30.8	-35.4	10.8	2.45e-03	0	43	0	1089470464	21	6113
2026-01-08 08:50:16.64	352.33	9.93	-30.9	-35.6	10.7	2.46e-03	0	43	0	1091567616	21	6179
2026-01-08 08:50:17.65	352.24	9.86	-30.9	-35.5	10.7	3.28e-03	0	43	0	1092616192	21	6154
2026-01-08 08:50:18.65	352.14	9.79	-30.9	-35.5	10.8	2.87e-03	0	43	0	1094713344	21	6126
2026-01-08 08:50:19.65	352.05	9.71	-30.8	-35.4	10.8	2.61e-03	0	43	0	1096810496	21	6106
2026-01-08 08:50:20.65	351.95	9.64	-30.9	-35.5	10.7	2.71e-03	0	43	0	1098907648	21	6159
2026-01-08 08:50:21.64	351.86	9.57	-30.9	-35.6	10.6	3.10e-03	0	43	0	1101004800	21	6176
2026-01-08 08:50:22.63	351.77	9.50	-30.9	-35.6	10.6	3.36e-03	0	43	0	1102053376	21	6221
2026-01-08 08:50:23.64	351.67	9.43	-30.9	-35.8	10.5	4.04e-03	0	43	0	1104150528	21	6276
2026-01-08 08:50:24.64	351.58	9.36	-30.9	-35.7	10.6	4.48e-03	0	43	0	1106247680	21	6229
2026-01-08 08:50:25.65	351.49	9.28	-30.7	-35.2	10.9	3.23e-03	0	43	0	1108344832	21	5985
2026-01-08 08:50:26.66	351.39	9.21	-30.6	-34.7	11.2	1.47e-03	0	43	0	1110441984	21	5774
2026-01-08 08:50:27.67	351.30	9.14	-30.7	-34.9	11.1	1.60e-03	0	43	0	1111490560	21	5866
2026-01-08 08:50:28.67	351.21	9.07	-30.7	-35.0	11.0	1.53e-03	0	43	0	1113587712	21	5898
2026-01-08 08:50:29.68	351.12	9.00	-30.7	-34.9	11.0	1.67e-03	0	43	0	1115684864	21	5874
2026-01-08 08:50:30.68	351.03	8.93	-30.7	-35.2	10.9	1.68e-03	0	43	0	1117782016	21	5989
2026-01-08 08:50:31.69	350.94	8.85	-30.7	-35.1	10.9	2.38e-03	0	43	0	1119879168	21	5977
2026-01-08 08:50:32.69	350.85	8.78	-30.7	-35.1	10.9	2.18e-03	0	43	0	1120927744	21	5982
2026-01-08 08:50:33.69	350.76	8.71	-30.9	-35.8	10.4	3.58e-03	0	43	0	1123024896	21	6313
2026-01-08 08:50:34.70	350.67	8.64	-30.9	-35.7	10.4	5.64e-03	0	43	0	1125122048	21	6253
2026-01-08 08:50:35.71	350.59	8.57	-30.8	-35.4	10.6	3.61e-03	0	43	0	1127219200	21	6114
2026-01-08 08:50:36.71	350.50	8.50	-30.9	-35.6	10.5	3.45e-03	0	43	0	1129316352	21	6240
2026-01-08 08:50:37.72	350.41	8.43	-30.9	-35.7	10.4	4.74e-03	0	43	0	1130364928	21	6289
2026-01-08 08:50:38.73	350.32	8.36	-30.9	-35.7	10.3	4.95e-03	0	43	0	1132462080	21	6300
2026-01-08 08:50:39.73	350.24	8.29	-30.9	-35.9	10.2	5.37e-03	0	43	0	1134559232	21	6372
2026-01-08 08:50:40.74	350.15	8.22	-30.9	-35.9	10.2	5.54e-03	0	43	0	1136656384	21	6388
2026-01-08 08:50:41.75	350.07	8.15	-30.9	-36.0	10.2	5.88e-03	0	43	0	1138753536	21	6420
2026-01-08 08:50:42.76	349.98	8.08	-30.9	-36.0	10.1	6.17e-03	0	43	0	1139802112	21	6474
2026-01-08 08:50:43.77	349.90	8.01	-30.9	-35.9	10.2	7.02e-03	0	43	0	1141899264	21	6373
2026-01-08 08:50:44.78	349.81	7.94	-30.9	-35.7	10.3	5.62e-03	0	43	0	1143996416	21	6299
2026-01-08 08:50:45.78	349.73	7.87	-30.8	-35.7	10.3	4.75e-03	0	43	0	1146093568	21	6290
2026-01-08 08:50:46.78	349.65	7.80	-30.8	-35.7	10.4	5.37e-03	0	43	0	1148190720	21	6275
2026-01-08 08:50:47.79	349.56	7.73	-30.9	-36.1	10.0	7.56e-03	0	43	0	1149239296	21	6524
2026-01-08 08:50:48.79	349.48	7.67	-30.9	-35.9	10.1	8.29e-03	0	43	0	1151336448	21	6422
2026-01-08 08:50:49.80	349.40	7.60	-31.0	-35.9	9.8	9.59e-03	0	43	0	1153433600	22	6294
2026-01-08 08:50:50.81	349.32	7.53	-31.1	-36.3	9.5	1.07e-02	0	43	0	1155530752	22	6509
2026-01-08 08:50:51.81	349.24	7.46	-31.2	-36.4	9.4	1.85e-02	0	43	0	1157627904	22	6554
2026-01-08 08:50:52.81	349.16	7.39	-31.1	-36.2	9.5	1.56e-02	0	43	0	1158676480	22	6454
2026-01-08 08:50:53.82	349.07	7.32	-31.0	-36.0	9.7	1.29e-02	0	43	0	1160773632	22	6360
2026-01-08 08:50:54.82	349.00	7.25	-31.1	-36.2	9.5	1.29e-02	0	43	0	1162870784	22	6464
2026-01-08 08:50:55.82	348.92	7.19	-31.1	-36.2	9.5	1.51e-02	0	43	0	1164967936	22	6453
2026-01-08 08:50:56.83	348.84	7.12	-31.1	-36.4	9.4	1.48e-02	0	43	0	1167065088	22	6570
2026-01-08 08:50:57.84	348.76	7.05	-32.9	-45.6	3.8	3.17e-01	0	43	104	1168113664	25	15617
2026-01-08 08:50:58.85	348.68	6.98	-33.2	-47.3	3.8	1.49e+00	0	43	104	1168113664	26	18217
2026-01-08 08:50:59.85	348.60	6.92	-33.5	-48.0	3.8	1.49e+00	0	43	104	1168113664	26	19199

#Closed at: 2026-01-08 08:51:00
#Recorded file [1168 MB]: D:/data/31010_260108_114034.dat