passes_logs/2026/01/08/R2M6_AANII_01/R2M6_AANII_01__20260108_002643_NOAA_20_JPSS-1_rec.log

#Pass ID: 20260108_002643_NOAA 20 (JPSS-1)
#Satellite: NOAA 20 (JPSS-1)
#Configuration: NOAA 20
#almurnet v.1.7.20240730
#Start time: 2026-01-08 00:26:43

#Version: 2.2.20231116
#Station: R2M6_AANII_01
#Location: 30.233357 lon 59.946436 lat
#TLE: 1 43013U 17073A   26006.30790171  .00000126  00000+0  80695-4 0  9991
#TLE: 2 43013  98.7629 307.3394 0001808  51.8724 308.2615 14.19533762421505

#Time	Az	El	Level	Level2	SNR	BER	BlckErr	Temp	State	Recorded	gain1	gain2
2026-01-08 00:26:43.20	17.60	7.01	-31.7	-39.3	4.6	1.36e+00	0	41	0	0	23	8682
2026-01-08 00:26:44.20	17.60	7.09	-32.0	-41.1	4.2	1.43e+00	0	41	104	0	24	10303
2026-01-08 00:26:45.21	17.60	7.17	-32.0	-40.8	5.1	6.79e-01	0	41	0	0	24	9913
2026-01-08 00:26:46.22	17.60	7.25	-31.9	-40.7	5.5	5.09e-01	0	41	0	1048576	23	9825
2026-01-08 00:26:47.22	17.59	7.32	-32.1	-41.0	5.1	5.99e-01	0	41	0	3145728	24	10113
2026-01-08 00:26:48.23	17.59	7.40	-32.1	-41.3	4.9	7.49e-01	0	42	0	5242880	24	10375
2026-01-08 00:26:49.23	17.59	7.48	-32.0	-40.6	5.3	6.74e-01	0	41	0	7340032	24	9681
2026-01-08 00:26:50.24	17.59	7.56	-31.9	-40.2	5.8	4.40e-01	0	41	0	9437184	23	9400
2026-01-08 00:26:51.25	17.59	7.64	-31.8	-39.7	6.1	3.36e-01	0	41	0	10485760	23	8915
2026-01-08 00:26:52.26	17.58	7.72	-31.7	-38.8	6.8	2.52e-01	0	41	0	12582912	23	8158
2026-01-08 00:26:53.25	17.58	7.80	-31.6	-38.3	7.2	1.48e-01	0	41	0	14680064	23	7757
2026-01-08 00:26:54.26	17.58	7.88	-31.5	-37.6	7.7	1.12e-01	0	42	0	16777216	23	7301
2026-01-08 00:26:55.27	17.58	7.96	-31.4	-37.9	7.9	7.69e-02	0	42	0	18874368	22	7558
2026-01-08 00:26:56.28	17.58	8.04	-31.4	-37.7	8.1	6.40e-02	0	42	0	19922944	22	7433
2026-01-08 00:26:57.28	17.57	8.12	-31.4	-37.6	8.2	6.04e-02	0	42	0	22020096	22	7376
2026-01-08 00:26:58.29	17.57	8.20	-31.4	-37.8	8.1	5.54e-02	0	42	0	24117248	22	7467
2026-01-08 00:26:59.31	17.57	8.28	-31.4	-37.7	8.2	6.12e-02	0	42	0	26214400	22	7402
2026-01-08 00:27:00.31	17.57	8.36	-31.4	-37.8	8.1	5.56e-02	0	42	0	28311552	22	7456
2026-01-08 00:27:01.32	17.56	8.44	-31.5	-37.5	7.9	6.91e-02	0	42	0	29360128	23	7207
2026-01-08 00:27:02.33	17.56	8.53	-31.5	-37.8	8.1	6.70e-02	0	42	0	31457280	22	7505
2026-01-08 00:27:03.33	17.56	8.61	-31.6	-37.8	7.8	7.82e-02	0	42	0	33554432	23	7371
2026-01-08 00:27:04.33	17.56	8.69	-31.7	-38.3	7.4	1.05e-01	0	42	0	35651584	23	7705
2026-01-08 00:27:05.33	17.55	8.77	-31.6	-37.8	7.8	9.26e-02	0	42	0	37748736	23	7364
2026-01-08 00:27:06.34	17.55	8.86	-31.6	-37.8	7.7	8.18e-02	0	42	0	38797312	23	7397
2026-01-08 00:27:07.34	17.55	8.94	-31.6	-38.0	7.6	1.00e-01	0	42	0	40894464	23	7513
2026-01-08 00:27:08.35	17.55	9.02	-31.6	-37.7	7.8	8.51e-02	0	42	0	42991616	23	7326
2026-01-08 00:27:09.35	17.54	9.11	-31.5	-37.2	8.3	6.64e-02	0	42	0	45088768	23	6960
2026-01-08 00:27:10.36	17.54	9.19	-30.6	-36.4	8.2	5.62e-02	0	42	0	47185920	23	7015
2026-01-08 00:27:11.36	17.54	9.27	-31.5	-37.2	8.3	6.20e-02	0	42	0	48234496	23	6984
2026-01-08 00:27:12.37	17.54	9.36	-31.5	-37.7	8.3	5.49e-02	0	42	0	50331648	22	7358
2026-01-08 00:27:13.37	17.53	9.44	-31.4	-37.3	8.6	4.15e-02	0	42	0	52428800	22	7096
2026-01-08 00:27:14.38	17.53	9.53	-31.3	-36.9	8.9	3.35e-02	0	42	0	54525952	22	6884
2026-01-08 00:27:15.39	17.53	9.62	-31.2	-36.5	9.2	2.16e-02	0	42	0	56623104	22	6620
2026-01-08 00:27:16.39	17.52	9.70	-31.1	-36.0	9.6	1.60e-02	0	42	0	57671680	22	6356
2026-01-08 00:27:17.40	17.52	9.79	-31.0	-35.7	9.9	1.30e-02	0	42	0	59768832	22	6205
2026-01-08 00:27:18.41	17.52	9.87	-30.9	-35.9	10.1	7.46e-03	0	42	0	61865984	21	6403
2026-01-08 00:27:19.41	17.52	9.96	-30.8	-35.7	10.2	9.75e-03	0	42	0	63963136	21	6327
2026-01-08 00:27:20.41	17.51	10.05	-30.9	-35.8	10.3	8.57e-03	0	42	0	66060288	21	6334
2026-01-08 00:27:21.42	17.51	10.13	-30.8	-35.7	10.3	5.36e-03	0	42	0	67108864	21	6287
2026-01-08 00:27:22.42	17.51	10.22	-30.8	-35.7	10.2	7.75e-03	0	42	0	69206016	21	6307
2026-01-08 00:27:23.43	17.50	10.31	-30.8	-35.7	10.2	8.98e-03	0	42	0	71303168	21	6324
2026-01-08 00:27:24.44	17.50	10.40	-30.8	-35.6	10.4	5.68e-03	0	42	0	73400320	21	6269
2026-01-08 00:27:25.44	17.50	10.49	-30.9	-36.0	10.1	8.11e-03	0	42	0	74448896	21	6466
2026-01-08 00:27:26.45	17.49	10.58	-31.0	-35.9	9.8	9.33e-03	0	42	0	76546048	22	6281
2026-01-08 00:27:27.45	17.49	10.66	-31.0	-35.7	9.9	9.54e-03	0	42	0	78643200	22	6199
2026-01-08 00:27:28.45	17.49	10.75	-31.0	-36.1	10.0	1.14e-02	0	42	0	80740352	21	6531
2026-01-08 00:27:29.46	17.48	10.84	-30.9	-36.0	10.1	7.20e-03	0	42	0	82837504	21	6463
2026-01-08 00:27:30.46	17.48	10.93	-31.0	-36.1	10.0	9.22e-03	0	42	0	84934656	21	6508
2026-01-08 00:27:31.46	17.47	11.02	-30.9	-36.0	10.1	9.64e-03	0	43	0	85983232	21	6434
2026-01-08 00:27:32.47	17.47	11.12	-30.9	-35.8	10.3	8.99e-03	0	42	0	88080384	21	6368
2026-01-08 00:27:33.48	17.47	11.21	-30.9	-36.0	10.1	6.55e-03	0	42	0	90177536	21	6459
2026-01-08 00:27:34.48	17.46	11.30	-31.2	-36.3	9.5	1.26e-02	0	43	0	92274688	22	6500
2026-01-08 00:27:35.48	17.46	11.39	-31.2	-36.3	9.5	2.12e-02	0	42	0	93323264	22	6526
2026-01-08 00:27:36.49	17.46	11.48	-30.9	-36.0	10.1	8.82e-03	0	43	0	95420416	21	6428
2026-01-08 00:27:37.49	17.45	11.57	-30.7	-35.3	10.6	4.65e-03	0	42	0	97517568	21	6083
2026-01-08 00:27:38.50	17.45	11.67	-30.6	-34.9	10.9	5.27e-03	0	42	0	99614720	21	5903
2026-01-08 00:27:39.50	17.44	11.76	-30.5	-34.5	11.2	2.06e-03	0	43	0	101711872	21	5726
2026-01-08 00:27:40.51	17.44	11.85	-30.5	-34.5	11.3	1.89e-03	0	43	0	102760448	21	5727
2026-01-08 00:27:41.52	17.44	11.95	-30.6	-34.6	11.2	3.59e-03	0	42	0	104857600	21	5766
2026-01-08 00:27:42.52	17.43	12.04	-30.6	-34.7	11.1	2.14e-03	0	43	0	106954752	21	5812
2026-01-08 00:27:43.53	17.43	12.14	-30.5	-34.5	11.3	1.81e-03	0	43	0	109051904	21	5685
2026-01-08 00:27:44.54	17.42	12.23	-30.5	-34.4	11.4	1.29e-03	0	43	0	111149056	21	5664
2026-01-08 00:27:45.54	17.42	12.33	-30.4	-34.8	11.5	1.22e-03	0	43	0	112197632	20	5942
2026-01-08 00:27:46.55	17.41	12.42	-30.5	-34.8	11.5	1.48e-03	0	43	0	114294784	20	5944
2026-01-08 00:27:47.55	17.41	12.52	-30.5	-34.3	11.5	8.35e-04	0	43	0	116391936	21	5604
2026-01-08 00:27:48.55	17.41	12.62	-30.4	-34.7	11.6	1.82e-03	0	43	0	118489088	20	5890
2026-01-08 00:27:49.55	17.40	12.71	-30.4	-34.7	11.6	1.32e-03	0	43	0	120586240	20	5884
2026-01-08 00:27:50.56	17.40	12.81	-30.4	-34.6	11.6	6.58e-04	0	43	0	121634816	20	5844
2026-01-08 00:27:51.55	17.39	12.91	-30.3	-34.5	11.7	1.21e-03	0	43	0	123731968	20	5776
2026-01-08 00:27:52.56	17.39	13.01	-30.4	-34.6	11.6	3.00e-03	0	43	0	125829120	20	5863
2026-01-08 00:27:53.57	17.38	13.10	-30.4	-34.6	11.6	7.38e-04	0	43	0	127926272	20	5848
2026-01-08 00:27:54.57	17.38	13.20	-30.3	-34.3	11.9	1.30e-03	0	43	0	130023424	20	5717
2026-01-08 00:27:55.58	17.37	13.30	-30.3	-34.3	11.9	1.04e-03	0	43	0	131072000	20	5717
2026-01-08 00:27:56.58	17.37	13.40	-30.3	-34.2	11.9	3.87e-04	0	43	0	133169152	20	5665
2026-01-08 00:27:57.59	17.36	13.50	-30.2	-34.1	12.0	1.03e-03	0	43	0	135266304	20	5608
2026-01-08 00:27:58.60	17.36	13.60	-30.3	-34.3	11.9	1.03e-03	0	43	0	137363456	20	5692
2026-01-08 00:27:59.61	17.35	13.70	-30.3	-34.2	11.9	4.42e-04	0	43	0	139460608	20	5671
2026-01-08 00:28:00.62	17.35	13.81	-30.3	-34.3	11.9	1.04e-03	0	43	0	140509184	20	5680
2026-01-08 00:28:01.62	17.34	13.91	-30.3	-34.2	12.0	9.86e-04	0	43	0	142606336	20	5650
2026-01-08 00:28:02.62	17.34	14.01	-30.3	-34.3	11.9	2.99e-04	0	43	0	144703488	20	5682
2026-01-08 00:28:03.63	17.33	14.11	-30.3	-34.3	11.9	9.25e-04	0	43	0	146800640	20	5684
2026-01-08 00:28:04.63	17.33	14.22	-30.4	-34.5	11.8	1.07e-03	0	43	0	148897792	20	5777
2026-01-08 00:28:05.63	17.32	14.32	-30.3	-34.3	11.9	4.96e-04	0	43	0	149946368	20	5705
2026-01-08 00:28:06.64	17.31	14.42	-30.3	-34.2	12.0	3.25e-04	0	43	0	152043520	20	5674
2026-01-08 00:28:07.64	17.31	14.53	-29.5	-33.4	11.9	7.44e-04	0	43	0	154140672	20	5628
2026-01-08 00:28:08.65	17.30	14.63	-30.3	-34.2	11.9	3.38e-04	0	43	0	156237824	20	5667
2026-01-08 00:28:09.65	17.30	14.74	-30.4	-34.6	10.9	4.55e-04	0	43	0	158334976	20	5812
2026-01-08 00:28:10.65	17.29	14.84	-30.4	-34.5	11.5	1.06e-03	0	43	0	159383552	20	5789
2026-01-08 00:28:11.65	17.29	14.95	-30.4	-34.6	11.7	4.27e-04	0	43	0	161480704	20	5818
2026-01-08 00:28:12.66	17.28	15.06	-30.4	-34.5	11.7	1.01e-03	0	43	0	163577856	20	5760
2026-01-08 00:28:13.66	17.27	15.16	-30.3	-34.1	12.0	2.84e-04	0	43	0	165675008	20	5622
2026-01-08 00:28:14.67	17.27	15.27	-30.2	-34.0	12.2	2.57e-04	0	43	0	167772160	20	5547
2026-01-08 00:28:15.68	17.26	15.38	-30.2	-34.0	12.2	7.41e-04	0	43	0	168820736	20	5546
2026-01-08 00:28:16.68	17.25	15.49	-30.2	-34.0	12.2	1.27e-03	0	43	0	170917888	20	5554
2026-01-08 00:28:17.69	17.25	15.60	-30.3	-34.2	12.1	2.21e-04	0	43	0	173015040	20	5627
2026-01-08 00:28:18.69	17.24	15.71	-30.2	-34.0	12.2	8.24e-04	0	43	0	175112192	20	5546
2026-01-08 00:28:19.70	17.23	15.82	-30.1	-33.5	12.6	2.81e-03	0	43	0	177209344	20	5357
2026-01-08 00:28:20.71	17.23	15.93	-30.0	-33.3	12.7	7.70e-05	0	43	0	178257920	20	5276
2026-01-08 00:28:21.72	17.22	16.04	-30.0	-33.3	12.8	5.93e-04	0	43	0	180355072	20	5251
2026-01-08 00:28:22.72	17.21	16.15	-30.0	-33.4	12.6	5.74e-04	0	43	0	182452224	20	5306
2026-01-08 00:28:23.73	17.21	16.26	-30.0	-33.3	12.8	3.32e-04	0	43	0	184549376	20	5251
2026-01-08 00:28:24.73	17.20	16.38	-30.0	-33.2	12.9	6.71e-05	0	43	0	186646528	20	5207
2026-01-08 00:28:25.74	17.19	16.49	-30.0	-33.3	12.8	6.04e-04	0	43	0	187695104	20	5259
2026-01-08 00:28:26.75	17.19	16.60	-30.1	-33.7	12.5	4.13e-04	0	43	0	189792256	20	5401
2026-01-08 00:28:27.75	17.18	16.72	-30.0	-33.4	12.7	1.03e-04	0	43	0	191889408	20	5286
2026-01-08 00:28:28.76	17.17	16.83	-29.9	-33.0	13.0	4.73e-05	0	43	0	193986560	20	5140
2026-01-08 00:28:29.76	17.16	16.95	-29.9	-32.9	13.1	3.49e-04	0	43	0	196083712	20	5097
2026-01-08 00:28:30.77	17.16	17.06	-29.9	-33.4	13.1	2.63e-03	0	43	0	197132288	19	5389
2026-01-08 00:28:31.77	17.15	17.18	-30.0	-33.6	13.0	2.89e-05	0	43	0	199229440	19	5466
2026-01-08 00:28:32.78	17.14	17.30	-29.8	-32.8	13.1	4.27e-05	0	43	0	201326592	20	5062
2026-01-08 00:28:33.78	17.13	17.41	-29.9	-33.3	13.2	2.61e-03	0	43	0	203423744	19	5354
2026-01-08 00:28:34.79	17.13	17.53	-29.9	-33.4	13.2	2.39e-03	0	43	0	205520896	19	5397
2026-01-08 00:28:35.80	17.12	17.65	-29.8	-33.1	13.4	1.60e-05	0	43	0	206569472	19	5279
2026-01-08 00:28:36.81	17.11	17.77	-29.9	-33.3	13.3	2.38e-03	0	43	0	208666624	19	5345
2026-01-08 00:28:37.81	17.10	17.89	-29.8	-33.1	13.3	2.68e-03	0	43	0	210763776	19	5277
2026-01-08 00:28:38.82	17.09	18.01	-29.8	-33.1	13.4	1.14e-05	0	43	0	212860928	19	5252
2026-01-08 00:28:39.83	17.08	18.13	-29.9	-33.5	13.1	2.69e-03	0	43	0	214958080	19	5427
2026-01-08 00:28:40.83	17.08	18.25	-29.9	-33.4	13.2	2.58e-03	0	43	0	216006656	19	5374
2026-01-08 00:28:41.84	17.07	18.38	-29.9	-33.4	13.2	3.71e-04	0	43	0	218103808	19	5382
2026-01-08 00:28:42.84	17.06	18.50	-30.0	-33.3	12.9	2.60e-03	0	43	0	220200960	20	5238
2026-01-08 00:28:43.85	17.05	18.62	-30.2	-33.9	12.5	2.51e-03	0	43	0	222298112	20	5465
2026-01-08 00:28:44.86	17.04	18.75	-30.1	-33.4	12.8	4.64e-04	0	43	0	224395264	20	5288
2026-01-08 00:28:45.86	17.03	18.87	-30.0	-33.1	13.0	1.31e-03	0	43	0	225443840	20	5163
2026-01-08 00:28:46.86	17.02	19.00	-30.0	-33.3	12.9	2.70e-03	0	43	0	227540992	20	5251
2026-01-08 00:28:47.87	17.01	19.12	-30.1	-33.8	13.0	3.46e-04	0	43	0	229638144	19	5527
2026-01-08 00:28:48.88	17.00	19.25	-30.6	-34.2	12.8	2.68e-03	0	43	0	231735296	20	5436
2026-01-08 00:28:49.89	17.00	19.38	-30.1	-33.6	12.7	2.57e-03	0	43	0	232783872	20	5357
2026-01-08 00:28:50.90	16.99	19.51	-30.1	-33.3	12.9	3.48e-04	0	43	0	234881024	20	5258
2026-01-08 00:28:51.90	16.98	19.64	-29.9	-33.5	13.2	2.55e-03	0	43	0	236978176	19	5409
2026-01-08 00:28:52.90	16.97	19.76	-29.8	-33.1	13.5	1.29e-05	0	43	0	239075328	19	5250
2026-01-08 00:28:53.91	16.96	19.90	-29.8	-33.1	13.5	2.72e-04	0	43	0	241172480	19	5243
2026-01-08 00:28:54.92	16.95	20.03	-30.0	-33.5	13.2	2.31e-03	0	43	0	243269632	19	5401
2026-01-08 00:28:55.93	16.94	20.16	-29.9	-33.3	13.4	2.55e-03	0	43	0	244318208	19	5316
2026-01-08 00:28:56.93	16.93	20.29	-29.7	-32.8	13.6	2.68e-04	0	43	0	246415360	19	5155
2026-01-08 00:28:57.93	16.92	20.42	-29.6	-32.5	13.9	2.41e-03	0	43	0	248512512	19	5035
2026-01-08 00:28:58.94	16.90	20.56	-29.7	-32.7	13.8	2.37e-03	0	43	0	250609664	19	5109
2026-01-08 00:28:59.95	16.89	20.69	-29.8	-33.1	13.5	5.14e-04	0	43	0	252706816	19	5256
2026-01-08 00:29:00.95	16.88	20.82	-29.7	-32.7	13.8	2.41e-03	0	43	0	253755392	19	5091
2026-01-08 00:29:01.96	16.87	20.96	-29.6	-32.5	14.0	2.24e-03	0	43	0	255852544	19	5005
2026-01-08 00:29:02.96	16.86	21.10	-29.5	-32.3	14.0	4.02e-04	0	43	0	257949696	19	4952
2026-01-08 00:29:03.97	16.85	21.23	-29.6	-32.5	13.9	4.69e-04	0	43	0	260046848	19	5030
2026-01-08 00:29:04.97	16.84	21.37	-29.5	-32.2	14.1	2.49e-03	0	43	0	261095424	19	4931
2026-01-08 00:29:05.98	16.83	21.51	-29.6	-32.6	13.9	2.27e-04	0	43	0	263192576	19	5052
2026-01-08 00:29:06.99	16.82	21.65	-29.9	-33.2	13.5	3.76e-04	0	43	0	265289728	19	5286
2026-01-08 00:29:07.99	16.80	21.79	-29.7	-32.7	13.8	2.38e-03	0	43	0	267386880	19	5089
2026-01-08 00:29:09.00	16.79	21.93	-29.6	-32.4	14.0	2.55e-04	0	43	0	269484032	19	5001
2026-01-08 00:29:10.01	16.78	22.07	-29.5	-32.3	14.1	3.41e-04	0	43	0	271581184	19	4951
2026-01-08 00:29:11.01	16.77	22.22	-29.5	-32.3	14.1	2.20e-06	0	43	0	272629760	19	4947
2026-01-08 00:29:12.02	16.76	22.36	-29.6	-32.4	14.0	2.64e-04	0	43	0	274726912	19	4998
2026-01-08 00:29:13.02	16.74	22.50	-29.5	-32.2	14.2	3.61e-04	0	43	0	276824064	19	4909
2026-01-08 00:29:14.03	16.73	22.65	-29.5	-32.6	14.2	2.20e-06	0	43	0	278921216	18	5174
2026-01-08 00:29:15.04	16.72	22.80	-29.5	-32.6	14.2	2.69e-04	0	43	0	279969792	18	5166
2026-01-08 00:29:16.04	16.71	22.94	-29.5	-32.6	14.2	3.39e-04	0	43	0	282066944	18	5171
2026-01-08 00:29:17.05	16.69	23.09	-29.6	-32.4	14.1	1.50e-06	0	43	0	284164096	19	4978
2026-01-08 00:29:18.05	16.68	23.24	-29.7	-32.9	13.7	3.68e-04	0	43	0	286261248	19	5151
2026-01-08 00:29:19.06	16.67	23.39	-29.6	-32.3	14.1	2.36e-03	0	43	0	288358400	19	4952
2026-01-08 00:29:20.07	16.65	23.54	-29.5	-32.1	14.2	7.00e-07	0	43	0	289406976	19	4868
2026-01-08 00:29:21.06	16.64	23.69	-29.5	-32.1	14.3	4.14e-04	0	43	0	291504128	19	4863
2026-01-08 00:29:22.07	16.62	23.84	-29.5	-32.2	14.2	3.34e-04	0	43	0	293601280	19	4894
2026-01-08 00:29:23.08	16.61	23.99	-29.5	-32.2	14.2	7.00e-07	0	43	0	295698432	19	4897
2026-01-08 00:29:24.08	16.60	24.15	-29.5	-32.2	14.2	3.40e-04	0	43	0	297795584	19	4916
2026-01-08 00:29:25.09	16.58	24.30	-29.5	-32.3	14.2	3.30e-04	0	43	0	299892736	19	4927
2026-01-08 00:29:26.10	16.57	24.46	-29.7	-32.7	13.9	4.50e-06	0	43	0	300941312	19	5102
2026-01-08 00:29:27.10	16.55	24.61	-29.6	-32.3	14.1	2.97e-04	0	43	0	303038464	19	4948
2026-01-08 00:29:28.11	16.54	24.77	-29.5	-32.2	14.3	3.38e-04	0	43	0	305135616	19	4895
2026-01-08 00:29:29.12	16.52	24.93	-29.5	-32.2	14.2	7.00e-07	0	43	0	307232768	19	4917
2026-01-08 00:29:30.12	16.51	25.09	-29.6	-32.4	14.1	3.62e-04	0	43	0	308281344	19	4980
2026-01-08 00:29:31.13	16.49	25.25	-29.7	-32.7	13.9	2.71e-04	0	43	0	310378496	19	5078
2026-01-08 00:29:32.14	16.48	25.41	-29.6	-32.4	14.1	3.80e-06	0	43	0	312475648	19	4991
2026-01-08 00:29:33.14	16.46	25.57	-29.6	-32.5	14.1	3.00e-06	0	43	0	314572800	19	4995
2026-01-08 00:29:34.15	16.44	25.74	-29.8	-32.9	12.9	3.11e-04	0	43	0	316669952	19	5151
2026-01-08 00:29:35.15	16.43	25.90	-29.8	-32.9	13.7	3.00e-06	0	43	0	317718528	19	5139
2026-01-08 00:29:36.16	16.41	26.06	-29.8	-33.0	12.9	3.00e-06	0	43	0	319815680	19	5178
2026-01-08 00:29:37.16	16.39	26.23	-29.8	-33.0	12.6	3.54e-04	0	43	0	321912832	19	5202
2026-01-08 00:29:38.16	16.38	26.40	-29.9	-33.2	13.6	5.30e-06	0	43	0	324009984	19	5284
2026-01-08 00:29:39.16	16.36	26.56	-30.0	-33.4	13.4	3.71e-04	0	43	0	326107136	19	5349
2026-01-08 00:29:40.17	16.34	26.73	-30.0	-33.4	13.5	8.30e-06	0	43	0	327155712	19	5328
2026-01-08 00:29:41.18	16.32	26.90	-30.1	-33.2	13.2	1.60e-05	0	43	0	329252864	20	5163
2026-01-08 00:29:42.18	16.31	27.07	-30.1	-33.2	13.2	4.50e-04	0	43	0	331350016	20	5181
2026-01-08 00:29:43.18	16.29	27.25	-30.2	-33.5	13.0	2.40e-03	0	43	0	333447168	20	5294
2026-01-08 00:29:44.19	16.27	27.42	-30.2	-33.4	13.1	3.20e-05	0	43	0	335544320	20	5251
2026-01-08 00:29:45.19	16.25	27.59	-30.2	-33.6	13.0	3.91e-04	0	43	0	336592896	20	5334
2026-01-08 00:29:46.20	16.23	27.77	-30.3	-34.0	12.7	2.21e-03	0	43	0	338690048	20	5470
2026-01-08 00:29:47.20	16.21	27.95	-30.5	-34.3	12.5	7.70e-05	0	43	0	340787200	20	5613
2026-01-08 00:29:48.20	16.19	28.12	-30.6	-34.1	12.3	4.89e-04	0	43	0	342884352	21	5412
2026-01-08 00:29:49.21	16.17	28.30	-30.7	-34.6	12.0	5.42e-04	0	44	0	344981504	21	5630
2026-01-08 00:29:50.22	16.15	28.49	-30.8	-34.8	11.8	3.97e-04	0	43	0	346030080	21	5725
2026-01-08 00:29:51.23	16.13	28.67	-31.0	-35.3	11.5	8.51e-04	0	43	0	348127232	21	5929
2026-01-08 00:29:52.23	16.11	28.85	-31.0	-35.0	11.4	1.29e-03	0	43	0	350224384	22	5692
2026-01-08 00:29:53.24	16.09	29.03	-31.1	-35.4	11.1	1.83e-03	0	44	0	352321536	22	5853
2026-01-08 00:29:54.25	16.07	29.22	-31.3	-35.8	10.8	2.32e-03	0	43	0	354418688	22	6071
2026-01-08 00:29:55.25	16.05	29.41	-31.3	-36.0	10.6	3.18e-03	0	44	0	355467264	22	6176
2026-01-08 00:29:56.26	16.03	29.59	-31.5	-36.5	10.3	5.03e-03	0	44	0	357564416	22	6405
2026-01-08 00:29:57.26	16.01	29.78	-31.6	-36.2	10.1	8.11e-03	0	43	0	359661568	23	6154
2026-01-08 00:29:58.27	15.98	29.97	-31.6	-36.6	9.9	7.02e-03	0	43	0	361758720	23	6344
2026-01-08 00:29:59.27	15.96	30.16	-31.6	-36.5	10.0	8.26e-03	0	44	0	363855872	23	6290
2026-01-08 00:30:00.28	15.94	30.36	-31.7	-36.6	9.9	1.23e-02	0	44	0	364904448	23	6334
2026-01-08 00:30:01.28	15.92	30.55	-31.6	-36.4	10.0	1.08e-02	0	44	0	367001600	23	6246
2026-01-08 00:30:02.29	15.89	30.75	-31.7	-36.8	9.7	9.23e-03	0	43	0	369098752	23	6456
2026-01-08 00:30:03.29	15.87	30.94	-31.7	-36.8	9.6	1.55e-02	0	44	0	371195904	23	6493
2026-01-08 00:30:04.29	15.84	31.14	-31.7	-36.6	9.8	1.23e-02	0	43	0	373293056	23	6367
2026-01-08 00:30:05.30	15.82	31.34	-31.7	-36.8	9.7	9.33e-03	0	43	0	374341632	23	6439
2026-01-08 00:30:06.30	15.79	31.54	-31.8	-37.2	9.5	1.47e-02	0	44	0	376438784	23	6665
2026-01-08 00:30:07.31	15.77	31.74	-31.8	-37.1	9.4	1.89e-02	0	43	0	378535936	23	6661
2026-01-08 00:30:08.31	15.74	31.94	-31.7	-36.8	9.7	1.22e-02	0	44	0	380633088	23	6483
2026-01-08 00:30:09.32	15.72	32.15	-31.6	-36.4	10.1	8.32e-03	0	44	0	382730240	23	6222
2026-01-08 00:30:10.33	15.69	32.36	-31.5	-36.0	10.3	7.71e-03	0	44	0	383778816	23	6023
2026-01-08 00:30:11.34	15.66	32.57	-31.4	-35.7	10.5	4.08e-03	0	43	0	385875968	23	5924
2026-01-08 00:30:12.34	15.64	32.77	-31.3	-36.0	10.7	6.24e-03	0	43	0	387973120	22	6120
2026-01-08 00:30:13.34	15.61	32.98	-31.3	-36.0	10.7	4.68e-03	0	43	0	390070272	22	6134
2026-01-08 00:30:14.35	15.58	33.20	-31.3	-35.9	10.8	3.38e-03	0	43	0	392167424	22	6126
2026-01-08 00:30:15.35	15.55	33.41	-31.1	-35.2	11.3	3.90e-03	0	44	0	393216000	22	5764
2026-01-08 00:30:16.36	15.52	33.62	-30.9	-34.9	11.8	2.65e-03	0	44	0	395313152	21	5762
2026-01-08 00:30:17.37	15.49	33.84	-30.7	-34.3	12.3	2.44e-04	0	44	0	397410304	21	5496
2026-01-08 00:30:18.37	15.47	34.06	-30.6	-34.0	12.5	2.07e-03	0	44	0	399507456	21	5375
2026-01-08 00:30:19.38	15.43	34.28	-30.4	-34.1	12.8	2.01e-03	0	43	0	401604608	20	5515
2026-01-08 00:30:20.39	15.40	34.50	-30.3	-33.8	12.9	4.34e-05	0	44	0	402653184	20	5363
2026-01-08 00:30:21.40	15.37	34.73	-30.2	-33.4	13.2	1.97e-03	0	43	0	404750336	20	5205
2026-01-08 00:30:22.40	15.34	34.95	-30.0	-32.9	13.6	1.75e-03	0	43	0	406847488	20	5029
2026-01-08 00:30:23.41	15.31	35.18	-29.9	-33.2	13.5	6.80e-06	0	44	0	408944640	19	5250
2026-01-08 00:30:24.41	15.28	35.40	-29.8	-32.8	13.8	1.69e-03	0	43	0	411041792	19	5098
2026-01-08 00:30:25.42	15.24	35.63	-29.5	-32.0	14.5	1.72e-03	0	44	0	412090368	19	4830
2026-01-08 00:30:26.41	15.21	35.86	-29.3	-32.1	14.7	0.00e+00	0	44	0	414187520	18	4963
2026-01-08 00:30:27.42	15.18	36.09	-29.2	-31.7	15.1	1.62e-03	0	43	0	416284672	18	4821
2026-01-08 00:30:28.43	15.14	36.33	-29.0	-31.4	15.3	1.55e-03	0	44	0	418381824	18	4710
2026-01-08 00:30:29.43	15.11	36.56	-28.8	-31.4	15.5	0.00e+00	0	43	0	420478976	17	4827
2026-01-08 00:30:30.44	15.07	36.80	-28.8	-31.4	15.5	0.00e+00	0	43	0	421527552	17	4844
2026-01-08 00:30:31.44	15.03	37.04	-28.8	-31.4	15.5	1.51e-03	0	44	0	423624704	17	4825
2026-01-08 00:30:32.45	15.00	37.28	-28.7	-31.1	15.7	0.00e+00	0	43	0	425721856	17	4731
2026-01-08 00:30:33.46	14.96	37.53	-28.7	-31.1	15.7	0.00e+00	0	43	0	427819008	17	4728
2026-01-08 00:30:34.46	14.92	37.77	-28.7	-31.1	15.7	1.48e-03	0	43	0	429916160	17	4749
2026-01-08 00:30:35.47	14.88	38.02	-28.7	-31.1	15.7	0.00e+00	0	43	0	430964736	17	4730
2026-01-08 00:30:36.48	14.84	38.27	-28.8	-31.3	15.6	2.07e-04	0	44	0	433061888	17	4799
2026-01-08 00:30:37.49	14.80	38.52	-28.9	-31.5	15.5	0.00e+00	0	43	0	435159040	17	4868
2026-01-08 00:30:38.49	14.76	38.77	-29.0	-31.3	15.3	0.00e+00	0	44	0	437256192	18	4707
2026-01-08 00:30:39.49	14.72	39.02	-29.1	-31.5	15.2	1.31e-03	0	44	0	438304768	18	4759
2026-01-08 00:30:40.49	14.68	39.27	-29.3	-32.1	14.9	0.00e+00	0	44	0	440401920	18	4954
2026-01-08 00:30:41.50	14.63	39.53	-29.5	-32.5	14.6	0.00e+00	0	44	0	442499072	18	5098
2026-01-08 00:30:42.51	14.59	39.79	-29.6	-32.4	14.3	9.60e-04	0	44	0	444596224	19	4963
2026-01-08 00:30:43.51	14.55	40.05	-29.7	-32.5	14.2	0.00e+00	0	44	0	446693376	19	4985
2026-01-08 00:30:44.52	14.50	40.32	-29.5	-32.1	14.5	7.00e-07	0	44	0	448790528	19	4853
2026-01-08 00:30:45.52	14.45	40.58	-29.5	-32.2	14.5	7.81e-04	0	43	0	449839104	19	4881
2026-01-08 00:30:46.52	14.41	40.85	-29.5	-32.1	14.6	7.00e-07	0	43	0	451936256	19	4835
2026-01-08 00:30:47.53	14.36	41.12	-29.6	-32.3	14.4	3.06e-04	0	43	0	454033408	19	4932
2026-01-08 00:30:48.54	14.31	41.39	-29.7	-32.5	14.2	7.00e-07	0	44	0	456130560	19	4999
2026-01-08 00:30:49.55	14.26	41.66	-29.5	-32.0	14.6	0.00e+00	0	44	0	458227712	19	4823
2026-01-08 00:30:50.56	14.21	41.94	-29.4	-32.3	14.7	1.92e-04	0	43	0	459276288	18	5046
2026-01-08 00:30:51.57	14.16	42.22	-29.5	-32.5	14.6	0.00e+00	0	43	0	461373440	18	5087
2026-01-08 00:30:52.57	14.11	42.50	-29.5	-32.4	14.6	6.53e-04	0	44	0	463470592	18	5078
2026-01-08 00:30:53.57	14.05	42.78	-29.4	-32.3	14.7	2.17e-04	0	43	0	465567744	18	5013
2026-01-08 00:30:54.58	14.00	43.06	-29.5	-32.0	14.7	1.91e-04	0	44	0	466616320	19	4801
2026-01-08 00:30:55.58	13.94	43.35	-29.4	-31.8	14.7	0.00e+00	0	44	0	468713472	19	4748
2026-01-08 00:30:56.59	13.89	43.64	-29.5	-32.1	14.6	1.99e-04	0	44	0	470810624	19	4833
2026-01-08 00:30:57.60	13.83	43.93	-29.6	-32.3	14.5	2.54e-04	0	43	0	472907776	19	4910
2026-01-08 00:30:58.61	13.77	44.22	-29.8	-32.7	14.2	1.50e-06	0	43	0	475004928	19	5052
2026-01-08 00:30:59.61	13.71	44.51	-30.0	-33.2	13.9	2.43e-04	0	44	0	477102080	19	5252
2026-01-08 00:31:00.61	13.65	44.81	-30.3	-33.7	13.1	2.24e-04	0	44	0	478150656	20	5343
2026-01-08 00:31:01.62	13.59	45.11	-30.5	-33.9	12.7	5.26e-05	0	44	0	480247808	21	5319
2026-01-08 00:31:02.63	13.52	45.41	-30.8	-34.7	12.1	8.69e-05	0	44	0	482344960	21	5615
2026-01-08 00:31:03.63	13.46	45.71	-30.9	-35.0	12.0	5.65e-04	0	44	0	484442112	21	5749
2026-01-08 00:31:04.64	13.39	46.02	-31.0	-35.1	11.8	3.70e-04	0	44	0	485490688	21	5810
2026-01-08 00:31:05.64	13.32	46.32	-31.1	-35.1	11.6	7.57e-04	0	43	0	487587840	22	5703
2026-01-08 00:31:06.64	13.26	46.63	-31.3	-35.5	11.2	1.40e-03	0	44	0	489684992	22	5890
2026-01-08 00:31:07.65	13.18	46.95	-31.4	-36.0	10.9	1.69e-03	0	44	0	491782144	22	6096
2026-01-08 00:31:08.66	13.11	47.26	-31.5	-35.9	10.6	2.63e-03	0	43	0	493879296	23	5958
2026-01-08 00:31:09.66	13.04	47.58	-31.6	-36.0	10.6	3.83e-03	0	43	0	494927872	23	5998
2026-01-08 00:31:10.67	12.96	47.90	-31.4	-35.6	10.8	3.01e-03	0	44	0	497025024	23	5811
2026-01-08 00:31:11.68	12.89	48.22	-31.3	-35.2	11.1	2.05e-03	0	44	0	499122176	23	5637
2026-01-08 00:31:12.69	12.81	48.55	-31.3	-35.2	11.1	1.63e-03	0	44	0	501219328	23	5631
2026-01-08 00:31:13.70	12.73	48.87	-31.2	-34.9	11.5	9.89e-04	0	44	0	503316480	23	5475
2026-01-08 00:31:14.71	12.64	49.20	-31.3	-35.7	11.1	1.39e-03	0	44	0	505413632	22	5950
2026-01-08 00:31:15.71	12.56	49.53	-31.2	-35.4	11.3	2.40e-03	0	43	0	506462208	22	5815
2026-01-08 00:31:16.71	12.48	49.86	-30.9	-34.5	12.0	5.65e-04	0	44	0	508559360	22	5427
2026-01-08 00:31:17.72	12.39	50.20	-30.7	-33.9	12.4	3.78e-04	0	44	0	510656512	22	5185
2026-01-08 00:31:18.72	12.30	50.54	-30.7	-34.2	12.6	3.00e-04	0	44	0	512753664	21	5403
2026-01-08 00:31:19.73	12.21	50.88	-30.4	-33.5	13.0	5.64e-05	0	43	0	513802240	21	5149
2026-01-08 00:31:20.74	12.11	51.23	-29.9	-32.2	13.8	1.41e-04	0	44	0	515899392	21	4683
2026-01-08 00:31:21.75	12.01	51.57	-29.6	-32.0	14.3	1.13e-04	0	44	0	517996544	20	4695
2026-01-08 00:31:22.76	11.91	51.92	-29.4	-31.3	14.7	0.00e+00	0	44	0	520093696	20	4472
2026-01-08 00:31:23.76	11.81	52.27	-29.4	-31.9	14.7	4.50e-06	0	43	0	522190848	19	4779
2026-01-08 00:31:24.77	11.71	52.62	-29.5	-32.1	14.5	3.12e-05	0	44	0	523239424	19	4861
2026-01-08 00:31:25.77	11.60	52.98	-29.8	-32.7	14.1	0.00e+00	0	44	0	525336576	19	5061
2026-01-08 00:31:26.78	11.49	53.34	-29.5	-32.0	14.6	3.75e-04	0	44	0	527433728	19	4798
2026-01-08 00:31:27.78	11.38	53.70	-29.1	-31.5	15.2	4.95e-04	0	44	0	529530880	18	4765
2026-01-08 00:31:28.79	11.27	54.06	-28.8	-30.8	15.7	0.00e+00	0	43	0	531628032	18	4531
2026-01-08 00:31:29.79	11.15	54.42	-28.7	-31.0	15.9	4.41e-04	0	44	0	532676608	17	4681
2026-01-08 00:31:30.80	11.03	54.79	-28.8	-31.2	15.7	4.74e-04	0	44	0	534773760	17	4771
2026-01-08 00:31:31.81	10.90	55.16	-29.0	-31.7	15.4	0.00e+00	0	44	0	536870912	17	4927
2026-01-08 00:31:32.82	10.77	55.54	-29.4	-32.2	14.9	6.32e-04	0	43	0	538968064	18	4986
2026-01-08 00:31:33.82	10.64	55.91	-29.8	-32.7	14.2	5.61e-04	0	44	0	541065216	19	5048
2026-01-08 00:31:34.83	10.51	56.29	-30.2	-33.3	13.5	4.50e-06	0	44	0	542113792	20	5178
2026-01-08 00:31:35.84	10.37	56.67	-30.4	-34.1	12.9	7.17e-05	0	44	0	544210944	20	5476
2026-01-08 00:31:36.85	10.22	57.05	-30.9	-34.8	12.2	6.06e-04	0	44	0	546308096	21	5656
2026-01-08 00:31:37.85	10.08	57.44	-31.2	-35.4	11.4	6.13e-04	0	44	0	548405248	22	5816
2026-01-08 00:31:38.85	9.93	57.82	-31.5	-35.9	10.6	2.11e-03	0	44	0	550502400	23	5928
2026-01-08 00:31:39.86	9.77	58.21	-31.6	-36.0	10.6	3.82e-03	0	44	0	551550976	23	6019
2026-01-08 00:31:40.86	9.61	58.60	-31.6	-36.2	10.3	4.27e-03	0	44	0	553648128	23	6079
2026-01-08 00:31:41.87	9.44	59.00	-31.4	-35.5	11.0	4.02e-03	0	44	0	555745280	23	5746
2026-01-08 00:31:42.87	9.27	59.39	-31.1	-35.0	11.6	1.49e-03	0	44	0	557842432	22	5645
2026-01-08 00:31:43.88	9.10	59.79	-31.0	-34.5	12.0	4.72e-04	0	44	0	559939584	22	5448
2026-01-08 00:31:44.88	8.92	60.19	-30.7	-33.9	12.5	6.31e-04	0	44	0	560988160	22	5173
2026-01-08 00:31:45.88	8.73	60.59	-30.7	-34.3	12.5	6.79e-04	0	44	0	563085312	21	5452
2026-01-08 00:31:46.89	8.53	61.00	-30.3	-33.2	13.3	7.09e-05	0	44	0	565182464	21	5038
2026-01-08 00:31:47.90	8.33	61.41	-30.0	-32.9	13.8	4.42e-04	0	44	0	567279616	20	5029
2026-01-08 00:31:48.90	8.13	61.82	-29.8	-32.4	14.1	4.31e-04	0	44	0	569376768	20	4825
2026-01-08 00:31:49.92	7.91	62.24	-29.8	-32.3	14.1	2.20e-06	0	44	0	570425344	20	4794
2026-01-08 00:31:50.92	7.69	62.65	-29.9	-32.7	13.9	3.78e-04	0	43	0	572522496	20	4939
2026-01-08 00:31:51.92	7.46	63.07	-29.6	-31.8	14.5	3.48e-04	0	44	0	574619648	20	4644
2026-01-08 00:31:52.92	7.22	63.48	-29.5	-31.5	14.7	0.00e+00	0	44	0	576716800	20	4537
2026-01-08 00:31:53.93	6.97	63.90	-29.5	-32.1	14.7	2.74e-05	0	44	0	578813952	19	4819
2026-01-08 00:31:54.93	6.72	64.32	-29.7	-32.5	14.5	0.00e+00	0	44	0	579862528	19	4974
2026-01-08 00:31:55.94	6.45	64.75	-30.0	-33.0	13.8	2.20e-06	0	44	0	581959680	20	5040
2026-01-08 00:31:56.95	6.17	65.18	-30.1	-33.2	13.6	8.30e-06	0	44	0	584056832	20	5116
2026-01-08 00:31:57.95	5.89	65.61	-30.8	-34.6	12.3	2.59e-05	0	44	0	586153984	21	5588
2026-01-08 00:31:58.95	5.59	66.03	-30.6	-34.0	12.7	1.20e-04	0	44	0	588251136	21	5342
2026-01-08 00:31:59.95	5.28	66.46	-30.4	-33.4	13.1	3.12e-05	0	44	0	589299712	21	5090
2026-01-08 00:32:00.96	4.96	66.90	-30.2	-32.8	13.5	1.20e-04	0	44	0	591396864	21	4878
2026-01-08 00:32:01.96	4.62	67.33	-30.0	-32.2	13.9	7.60e-06	0	44	0	593494016	21	4667
2026-01-08 00:32:02.96	4.27	67.77	-29.8	-32.3	14.2	3.00e-06	0	44	0	595591168	20	4802
2026-01-08 00:32:03.97	3.90	68.21	-30.0	-33.2	14.0	2.20e-06	0	44	0	597688320	19	5231
2026-01-08 00:32:04.97	3.52	68.64	-30.1	-33.0	13.8	2.20e-06	0	44	0	598736896	20	5042
2026-01-08 00:32:05.98	3.11	69.09	-30.0	-32.7	13.9	1.17e-03	0	44	0	600834048	20	4948
2026-01-08 00:32:06.98	2.69	69.52	-30.0	-32.7	14.0	3.80e-06	0	44	0	602931200	20	4926
2026-01-08 00:32:07.99	2.25	69.97	-30.2	-33.2	13.6	5.30e-06	0	44	0	605028352	20	5116
2026-01-08 00:32:09.00	1.78	70.41	-29.9	-32.5	14.1	1.38e-03	0	44	0	607125504	20	4844
2026-01-08 00:32:10.00	1.30	70.86	-29.8	-32.6	14.5	7.00e-07	0	44	0	608174080	19	4988
2026-01-08 00:32:11.01	0.79	71.30	-29.8	-32.8	14.4	2.20e-06	0	44	0	610271232	19	5051
2026-01-08 00:32:12.02	0.25	71.75	-29.9	-32.6	14.1	1.45e-03	0	44	0	612368384	20	4907
2026-01-08 00:32:13.02	359.68	72.19	-29.7	-32.4	14.6	0.00e+00	0	44	0	614465536	19	4923
2026-01-08 00:32:14.03	359.08	72.64	-29.6	-32.3	14.7	0.00e+00	0	44	0	616562688	19	4872
2026-01-08 00:32:15.04	358.45	73.09	-30.0	-32.7	14.0	7.00e-07	0	44	0	617611264	20	4925
2026-01-08 00:32:16.04	357.79	73.53	-30.1	-33.0	13.8	5.26e-04	0	44	0	619708416	20	5050
2026-01-08 00:32:17.04	357.08	73.97	-30.5	-34.1	13.1	1.06e-05	0	44	0	621805568	20	5467
2026-01-08 00:32:18.05	356.33	74.42	-31.0	-34.7	12.0	1.30e-04	0	44	0	623902720	22	5505
2026-01-08 00:32:19.05	355.54	74.86	-30.9	-34.2	12.5	2.23e-04	0	44	0	625999872	22	5259
2026-01-08 00:32:20.06	354.69	75.30	-30.4	-32.9	13.3	4.34e-05	0	44	0	627048448	22	4789
2026-01-08 00:32:21.06	353.80	75.74	-30.4	-33.3	13.4	2.28e-05	0	44	0	629145600	21	5018
2026-01-08 00:32:22.07	352.84	76.18	-30.7	-34.2	12.7	1.98e-05	0	44	0	631242752	21	5385
2026-01-08 00:32:23.08	351.81	76.61	-30.9	-34.7	12.4	1.61e-04	0	44	0	633339904	21	5573
2026-01-08 00:32:24.09	350.71	77.05	-30.9	-34.8	12.4	1.47e-04	0	44	0	635437056	21	5612
2026-01-08 00:32:25.09	349.55	77.47	-31.3	-35.6	11.5	4.83e-04	0	44	0	636485632	22	5865
2026-01-08 00:32:26.09	348.30	77.89	-31.2	-35.1	11.9	4.01e-04	0	44	0	638582784	22	5631
2026-01-08 00:32:27.10	346.95	78.31	-31.2	-35.1	11.8	3.82e-04	0	44	0	640679936	22	5636
2026-01-08 00:32:28.10	345.50	78.72	-31.0	-34.4	12.3	2.17e-04	0	44	0	642777088	22	5347
2026-01-08 00:32:29.11	343.93	79.13	-30.8	-34.0	12.6	2.01e-04	0	44	0	644874240	22	5180
2026-01-08 00:32:30.10	342.28	79.52	-30.1	-32.6	13.8	1.06e-05	0	44	0	645922816	21	4784
2026-01-08 00:32:31.11	340.45	79.91	-29.8	-31.8	14.3	1.50e-06	0	44	0	648019968	21	4505
2026-01-08 00:32:32.12	338.48	80.29	-29.9	-32.6	14.2	0.00e+00	0	44	0	650117120	20	4884
2026-01-08 00:32:33.12	336.36	80.66	-30.7	-34.1	12.9	2.36e-05	0	44	0	652214272	21	5319
2026-01-08 00:32:34.12	334.08	81.01	-31.2	-35.1	11.9	2.84e-04	0	44	0	653262848	22	5643
2026-01-08 00:32:35.13	331.58	81.35	-31.1	-34.8	12.0	4.42e-04	0	44	0	655360000	22	5496
2026-01-08 00:32:36.14	328.88	81.68	-31.3	-35.4	11.6	4.63e-04	0	44	0	657457152	22	5760
2026-01-08 00:32:37.14	325.99	81.98	-31.3	-35.4	11.6	1.02e-03	0	44	0	659554304	22	5785
2026-01-08 00:32:38.14	322.89	82.26	-31.0	-34.6	12.2	3.81e-04	0	44	0	661651456	22	5419
2026-01-08 00:32:39.15	319.52	82.52	-31.1	-34.7	12.2	2.86e-04	0	44	0	663748608	22	5447
2026-01-08 00:32:40.14	316.00	82.75	-31.0	-34.5	12.4	2.23e-04	0	44	0	664797184	22	5371
2026-01-08 00:32:41.15	312.19	82.95	-31.2	-35.0	11.9	1.75e-04	0	44	0	666894336	22	5591
2026-01-08 00:32:42.16	308.16	83.12	-31.4	-35.6	11.5	6.68e-04	0	44	0	668991488	22	5892
2026-01-08 00:32:43.16	304.00	83.25	-31.3	-35.5	11.6	6.39e-04	0	44	0	671088640	22	5799
2026-01-08 00:32:44.16	299.69	83.35	-31.2	-35.0	11.9	3.40e-04	0	44	0	672137216	22	5603
2026-01-08 00:32:45.16	295.27	83.41	-31.3	-35.4	11.7	3.38e-04	0	44	0	674234368	22	5760
2026-01-08 00:32:46.17	290.76	83.43	-31.7	-36.2	10.8	1.13e-03	0	44	0	676331520	23	6011
2026-01-08 00:32:47.17	286.30	83.40	-31.6	-35.7	11.1	2.45e-03	0	44	0	678428672	23	5803
2026-01-08 00:32:48.18	281.85	83.34	-31.5	-35.5	11.1	1.51e-03	0	44	0	680525824	23	5715
2026-01-08 00:32:49.18	277.55	83.24	-31.6	-35.9	10.9	1.98e-03	0	44	0	681574400	23	5892
2026-01-08 00:32:50.19	273.35	83.11	-31.6	-35.8	11.0	1.94e-03	0	44	0	683671552	23	5846
2026-01-08 00:32:51.19	269.38	82.93	-31.7	-36.1	10.8	2.52e-03	0	44	0	685768704	23	6018
2026-01-08 00:32:52.20	265.58	82.73	-31.8	-36.7	10.2	4.05e-03	0	44	0	687865856	23	6296
2026-01-08 00:32:53.20	262.04	82.50	-32.2	-37.6	9.3	1.40e-02	0	44	0	689963008	24	6672
2026-01-08 00:32:54.21	258.70	82.24	-32.2	-37.6	9.2	3.46e-02	0	44	0	691011584	24	6674
2026-01-08 00:32:55.22	255.58	81.95	-31.4	-35.3	11.2	6.82e-03	0	43	0	693108736	23	5632
2026-01-08 00:32:56.23	252.69	81.64	-30.7	-33.7	12.7	5.24e-04	0	43	0	695205888	22	5079
2026-01-08 00:32:57.23	250.03	81.32	-30.5	-33.1	13.1	7.78e-05	0	44	0	697303040	22	4874
2026-01-08 00:32:58.23	247.58	80.98	-30.1	-32.7	13.7	9.10e-06	0	44	0	699400192	21	4809
2026-01-08 00:32:59.23	245.31	80.63	-30.0	-32.9	14.0	1.24e-04	0	43	0	700448768	20	4990
2026-01-08 00:33:00.23	243.21	80.26	-30.0	-32.8	13.9	1.88e-03	0	44	0	702545920	20	4967
2026-01-08 00:33:01.23	241.26	79.88	-29.8	-32.3	14.3	7.00e-07	0	44	0	704643072	20	4790
2026-01-08 00:33:02.23	239.47	79.49	-30.1	-32.9	13.9	3.00e-06	0	44	0	706740224	20	5006
2026-01-08 00:33:03.24	237.78	79.09	-30.1	-33.2	13.8	1.75e-03	0	44	0	708837376	20	5094
2026-01-08 00:33:04.24	236.24	78.69	-30.5	-34.0	13.2	1.98e-05	0	44	0	709885952	20	5422
2026-01-08 00:33:05.25	234.79	78.27	-30.7	-34.2	12.7	1.80e-03	0	44	0	711983104	21	5399
2026-01-08 00:33:06.25	233.46	77.86	-30.7	-34.1	12.7	6.33e-05	0	44	0	714080256	21	5356
2026-01-08 00:33:07.25	232.21	77.43	-30.7	-34.1	12.7	8.23e-05	0	44	0	716177408	21	5346
2026-01-08 00:33:08.26	231.04	77.00	-30.6	-34.0	12.8	2.11e-03	0	43	0	718274560	21	5307
2026-01-08 00:33:09.26	229.96	76.57	-30.9	-34.9	12.2	1.98e-03	0	44	0	719323136	21	5687
2026-01-08 00:33:10.27	228.94	76.14	-31.2	-35.2	11.7	2.83e-04	0	44	0	721420288	22	5686
2026-01-08 00:33:11.27	227.99	75.70	-31.5	-35.8	10.8	4.42e-03	0	44	0	723517440	23	5873
2026-01-08 00:33:12.28	227.09	75.26	-31.0	-34.6	12.0	2.76e-03	0	43	0	725614592	22	5453
2026-01-08 00:33:13.29	226.25	74.82	-30.4	-32.8	13.2	3.50e-05	0	44	0	726663168	22	4770
2026-01-08 00:33:14.30	225.45	74.37	-29.8	-32.2	14.2	8.93e-04	0	44	0	728760320	20	4763
2026-01-08 00:33:15.30	224.71	73.93	-29.8	-32.6	14.3	4.71e-04	0	44	0	730857472	19	5014
2026-01-08 00:33:16.31	224.01	73.48	-29.8	-32.8	14.3	0.00e+00	0	44	0	732954624	19	5063
2026-01-08 00:33:17.31	223.35	73.04	-29.7	-32.4	14.5	2.65e-04	0	44	0	735051776	19	4939
2026-01-08 00:33:18.31	222.72	72.60	-29.0	-30.6	15.6	3.36e-04	0	44	0	737148928	19	4358
2026-01-08 00:33:19.32	222.12	72.15	-28.1	-29.7	16.7	0.00e+00	0	44	0	738197504	17	4288
2026-01-08 00:33:20.32	221.56	71.70	-28.0	-29.8	16.9	1.50e-06	0	44	0	740294656	16	4428
2026-01-08 00:33:21.33	221.02	71.26	-28.1	-30.1	16.7	3.88e-04	0	44	0	742391808	16	4529
2026-01-08 00:33:22.33	220.52	70.81	-28.2	-30.2	16.7	0.00e+00	0	44	0	744488960	16	4559
2026-01-08 00:33:23.34	220.03	70.37	-28.2	-30.3	16.6	0.00e+00	0	43	0	746586112	16	4594
2026-01-08 00:33:24.35	219.57	69.92	-28.8	-31.2	15.9	3.97e-04	0	44	0	747634688	17	4740
2026-01-08 00:33:25.35	219.13	69.48	-29.6	-32.2	14.6	0.00e+00	0	44	0	749731840	19	4876
2026-01-08 00:33:26.36	218.71	69.03	-30.2	-33.3	13.5	5.07e-04	0	44	0	751828992	20	5170
2026-01-08 00:33:27.36	218.31	68.59	-30.9	-34.7	12.2	9.23e-05	0	44	0	753926144	21	5622
2026-01-08 00:33:28.37	217.92	68.15	-31.3	-35.7	11.2	8.06e-04	0	44	0	754974720	22	5972
2026-01-08 00:33:29.37	217.56	67.72	-31.5	-35.9	10.7	3.85e-03	0	44	0	757071872	23	5924
2026-01-08 00:33:30.37	217.21	67.28	-31.8	-36.8	10.1	5.08e-03	0	44	0	759169024	23	6417
2026-01-08 00:33:31.38	216.87	66.84	-31.8	-36.9	10.0	8.81e-03	0	44	0	761266176	23	6474
2026-01-08 00:33:32.39	216.54	66.41	-31.7	-36.3	10.3	1.22e-02	0	44	0	763363328	23	6134
2026-01-08 00:33:33.39	216.23	65.98	-31.0	-34.6	12.0	8.07e-04	0	44	0	765460480	22	5460
2026-01-08 00:33:34.39	215.94	65.55	-30.3	-32.7	13.3	4.88e-05	0	43	0	766509056	22	4714
2026-01-08 00:33:35.40	215.65	65.12	-29.8	-32.2	14.2	7.09e-04	0	44	0	768606208	20	4765
2026-01-08 00:33:36.40	215.38	64.69	-29.7	-32.6	14.4	0.00e+00	0	44	0	770703360	19	4989
2026-01-08 00:33:37.41	215.11	64.26	-29.6	-32.1	14.6	7.00e-07	0	43	0	772800512	19	4850
2026-01-08 00:33:38.41	214.85	63.84	-29.1	-31.4	15.4	0.00e+00	0	44	0	773849088	18	4700
2026-01-08 00:33:39.41	214.61	63.42	-28.8	-30.8	15.7	1.34e-03	0	44	0	775946240	18	4522
2026-01-08 00:33:40.42	214.37	63.00	-29.1	-31.4	15.4	0.00e+00	0	44	0	778043392	18	4713
2026-01-08 00:33:41.42	214.14	62.59	-29.2	-31.7	15.2	7.00e-07	0	44	0	780140544	18	4791
2026-01-08 00:33:42.43	213.92	62.17	-29.2	-31.7	15.2	1.86e-03	0	44	0	782237696	18	4797
2026-01-08 00:33:43.43	213.71	61.76	-29.0	-31.4	15.5	1.24e-04	0	44	0	783286272	18	4696
2026-01-08 00:33:44.44	213.50	61.35	-29.1	-31.6	15.3	0.00e+00	0	44	0	785383424	18	4774
2026-01-08 00:33:45.45	213.30	60.94	-29.3	-31.9	15.1	0.00e+00	0	44	0	787480576	18	4877
2026-01-08 00:33:46.45	213.10	60.53	-29.9	-33.1	14.1	1.56e-04	0	44	0	789577728	19	5184
2026-01-08 00:33:47.46	212.91	60.12	-30.6	-34.1	12.7	3.50e-05	0	44	0	791674880	21	5365
2026-01-08 00:33:48.47	212.73	59.72	-31.3	-35.6	11.3	3.46e-04	0	44	0	792723456	22	5924
2026-01-08 00:33:49.47	212.56	59.32	-31.7	-36.3	10.4	3.35e-03	0	44	0	794820608	23	6162
2026-01-08 00:33:50.48	212.39	58.92	-31.7	-36.3	10.4	4.35e-03	0	44	0	796917760	23	6134
2026-01-08 00:33:51.48	212.22	58.53	-31.6	-36.0	10.6	5.55e-03	0	44	0	799014912	23	6008
2026-01-08 00:33:52.50	212.06	58.13	-31.3	-35.0	11.4	1.93e-03	0	44	0	801112064	23	5535
2026-01-08 00:33:53.50	211.90	57.74	-31.0	-34.6	12.0	5.80e-04	0	43	0	802160640	22	5472
2026-01-08 00:33:54.51	211.75	57.36	-30.7	-34.3	12.5	1.72e-04	0	44	0	804257792	21	5443
2026-01-08 00:33:55.51	211.61	56.97	-30.4	-33.4	13.0	6.56e-05	0	44	0	806354944	21	5108
2026-01-08 00:33:56.52	211.46	56.59	-29.9	-32.7	13.9	1.64e-04	0	44	0	808452096	20	4936
2026-01-08 00:33:57.53	211.32	56.20	-29.5	-32.1	14.6	7.00e-07	0	44	0	810549248	19	4824
2026-01-08 00:33:58.53	211.19	55.83	-29.1	-30.9	15.3	0.00e+00	0	44	0	811597824	19	4457
2026-01-08 00:33:59.54	211.06	55.45	-29.0	-31.2	15.4	0.00e+00	0	44	0	813694976	18	4643
2026-01-08 00:34:00.53	210.93	55.08	-28.7	-31.1	15.8	0.00e+00	0	44	0	815792128	17	4724
2026-01-08 00:34:01.54	210.81	54.71	-28.6	-30.8	16.0	1.29e-04	0	44	0	817889280	17	4624
2026-01-08 00:34:02.54	210.69	54.35	-27.9	-30.4	15.0	0.00e+00	0	43	0	819986432	17	4810
2026-01-08 00:34:03.55	210.57	53.98	-29.0	-31.3	15.3	0.00e+00	0	43	0	821035008	18	4678
2026-01-08 00:34:04.55	210.45	53.62	-28.9	-31.6	14.1	8.69e-05	0	44	0	823132160	17	4910
2026-01-08 00:34:05.55	210.34	53.26	-28.7	-31.1	15.4	1.03e-04	0	44	0	825229312	17	4736
2026-01-08 00:34:06.56	210.23	52.90	-28.6	-30.7	15.9	1.68e-04	0	44	0	827326464	17	4614
2026-01-08 00:34:07.57	210.12	52.54	-28.7	-31.0	15.7	2.28e-05	0	43	0	829423616	17	4698
2026-01-08 00:34:08.57	210.02	52.19	-28.6	-30.8	16.0	2.20e-06	0	44	0	830472192	17	4644
2026-01-08 00:34:09.57	209.92	51.84	-28.5	-30.6	16.1	0.00e+00	0	43	0	832569344	17	4563
2026-01-08 00:34:10.58	209.82	51.49	-28.9	-31.4	15.6	9.90e-06	0	44	0	834666496	17	4839
2026-01-08 00:34:11.59	209.72	51.14	-29.6	-32.4	14.4	1.75e-05	0	44	0	836763648	19	4949
2026-01-08 00:34:12.59	209.63	50.80	-30.4	-34.0	13.0	4.50e-06	0	43	0	838860800	20	5431
2026-01-08 00:34:13.59	209.54	50.46	-30.8	-34.8	12.2	2.69e-04	0	44	0	839909376	21	5676
2026-01-08 00:34:14.60	209.45	50.12	-31.3	-35.8	11.1	8.36e-04	0	44	0	842006528	22	6010
2026-01-08 00:34:15.61	209.36	49.78	-31.7	-36.6	10.1	3.28e-03	0	43	0	844103680	23	6315
2026-01-08 00:34:16.61	209.27	49.45	-31.8	-36.8	9.9	9.77e-03	0	44	0	846200832	23	6446
2026-01-08 00:34:17.62	209.19	49.11	-31.5	-35.9	10.6	4.95e-03	0	44	0	848297984	23	5972
2026-01-08 00:34:18.63	209.11	48.78	-31.2	-35.3	11.4	1.70e-03	0	44	0	849346560	22	5797
2026-01-08 00:34:19.64	209.03	48.45	-31.3	-35.7	11.1	1.50e-03	0	44	0	851443712	22	5991
2026-01-08 00:34:20.64	208.95	48.13	-31.4	-36.2	10.8	2.83e-03	0	43	0	853540864	22	6245
2026-01-08 00:34:21.65	208.87	47.81	-31.7	-36.7	10.0	5.39e-03	0	44	0	855638016	23	6387
2026-01-08 00:34:22.65	208.79	47.49	-31.7	-36.6	10.1	7.66e-03	0	44	0	857735168	23	6333
2026-01-08 00:34:23.66	208.72	47.17	-31.5	-36.1	10.5	5.45e-03	0	43	0	858783744	23	6058
2026-01-08 00:34:24.66	208.65	46.86	-31.3	-35.2	11.1	2.45e-03	0	44	0	860880896	23	5619
2026-01-08 00:34:25.67	208.58	46.54	-31.3	-35.3	11.1	1.43e-03	0	44	0	862978048	23	5668
2026-01-08 00:34:26.67	208.51	46.23	-31.1	-34.5	11.6	1.08e-03	0	44	0	865075200	23	5330
2026-01-08 00:34:27.68	208.44	45.92	-30.8	-34.2	12.2	4.80e-04	0	44	0	867172352	22	5302
2026-01-08 00:34:28.69	208.37	45.62	-30.6	-33.6	12.6	3.13e-04	0	44	0	868220928	22	5057
2026-01-08 00:34:29.69	208.31	45.31	-30.7	-34.5	12.3	2.68e-04	0	44	0	870318080	21	5532
2026-01-08 00:34:30.70	208.25	45.01	-30.9	-35.0	12.0	5.16e-04	0	44	0	872415232	21	5771
2026-01-08 00:34:31.70	208.18	44.71	-31.2	-35.4	11.3	1.08e-03	0	44	0	874512384	22	5847
2026-01-08 00:34:32.71	208.12	44.41	-31.4	-36.0	11.0	1.75e-03	0	44	0	876609536	22	6123
2026-01-08 00:34:33.72	208.06	44.12	-31.4	-36.2	10.8	2.71e-03	0	44	0	877658112	22	6222
2026-01-08 00:34:34.73	208.00	43.82	-31.3	-35.6	11.1	2.76e-03	0	43	0	879755264	22	5941
2026-01-08 00:34:35.74	207.94	43.53	-30.9	-34.5	11.9	1.26e-03	0	44	0	881852416	22	5464
2026-01-08 00:34:36.75	207.89	43.24	-30.9	-34.4	12.0	3.83e-04	0	44	0	883949568	22	5397
2026-01-08 00:34:37.75	207.83	42.96	-30.8	-34.6	12.2	3.96e-04	0	44	0	886046720	21	5592
2026-01-08 00:34:38.76	207.78	42.67	-30.7	-34.5	12.3	5.40e-04	0	44	0	887095296	21	5544
2026-01-08 00:34:39.77	207.72	42.39	-30.7	-34.4	12.3	1.85e-04	0	44	0	889192448	21	5520
2026-01-08 00:34:40.77	207.67	42.11	-30.9	-35.0	11.9	4.21e-04	0	44	0	891289600	21	5770
2026-01-08 00:34:41.78	207.62	41.83	-30.9	-35.1	11.9	5.40e-04	0	44	0	893386752	21	5825
2026-01-08 00:34:42.79	207.57	41.55	-31.2	-35.3	11.5	6.11e-04	0	44	0	895483904	22	5808
2026-01-08 00:34:43.80	207.52	41.28	-31.3	-35.7	11.1	1.60e-03	0	44	0	896532480	22	5964
2026-01-08 00:34:44.80	207.47	41.01	-31.7	-36.5	10.1	4.18e-03	0	44	0	898629632	23	6288
2026-01-08 00:34:45.80	207.42	40.74	-31.6	-36.4	10.2	8.62e-03	0	44	0	900726784	23	6231
2026-01-08 00:34:46.81	207.37	40.47	-31.5	-36.1	10.3	5.10e-03	0	44	0	902823936	23	6072
2026-01-08 00:34:47.82	207.33	40.20	-31.4	-36.2	10.7	3.99e-03	0	44	0	904921088	22	6222
2026-01-08 00:34:48.82	207.28	39.94	-31.3	-35.8	11.0	2.79e-03	0	44	0	905969664	22	6019
2026-01-08 00:34:49.83	207.24	39.68	-31.1	-35.2	11.4	2.30e-03	0	44	0	908066816	22	5766
2026-01-08 00:34:50.83	207.19	39.42	-31.0	-35.0	11.5	8.58e-04	0	44	0	910163968	22	5662
2026-01-08 00:34:51.84	207.15	39.16	-31.1	-35.0	11.5	7.92e-04	0	44	0	912261120	22	5682
2026-01-08 00:34:52.84	207.11	38.91	-31.0	-34.7	11.8	7.02e-04	0	44	0	914358272	22	5543
2026-01-08 00:34:53.85	207.06	38.65	-30.9	-34.6	11.8	3.60e-04	0	44	0	915406848	22	5476
2026-01-08 00:34:54.85	207.02	38.40	-31.0	-34.8	11.6	6.71e-04	0	44	0	917504000	22	5602
2026-01-08 00:34:55.85	206.98	38.15	-31.0	-34.9	11.6	8.90e-04	0	44	0	919601152	22	5612
2026-01-08 00:34:56.85	206.94	37.90	-31.2	-35.3	11.3	1.05e-03	0	43	0	921698304	22	5828
2026-01-08 00:34:57.85	206.90	37.66	-31.1	-35.3	11.4	1.11e-03	0	44	0	923795456	22	5793
2026-01-08 00:34:58.85	206.87	37.41	-31.0	-34.8	11.7	1.21e-03	0	44	0	924844032	22	5563
2026-01-08 00:34:59.86	206.83	37.17	-30.8	-34.7	12.1	3.42e-04	0	44	0	926941184	21	5648
2026-01-08 00:35:00.86	206.79	36.93	-30.8	-34.8	12.0	3.17e-04	0	44	0	929038336	21	5695
2026-01-08 00:35:01.86	206.75	36.69	-30.9	-34.9	11.9	1.32e-03	0	44	0	931135488	21	5753
2026-01-08 00:35:02.86	206.72	36.45	-30.9	-35.0	11.7	1.64e-03	0	44	0	932184064	21	5805
2026-01-08 00:35:03.87	206.68	36.21	-30.8	-34.7	12.0	3.73e-04	0	44	0	934281216	21	5675
2026-01-08 00:35:04.87	206.65	35.98	-30.7	-34.4	12.2	2.67e-04	0	44	0	936378368	21	5545
2026-01-08 00:35:05.87	206.61	35.75	-30.6	-34.2	12.4	1.99e-03	0	44	0	938475520	21	5450
2026-01-08 00:35:06.88	206.58	35.52	-30.6	-34.2	12.3	1.68e-04	0	44	0	940572672	21	5443
2026-01-08 00:35:07.88	206.54	35.29	-30.5	-34.0	12.5	1.50e-04	0	44	0	941621248	21	5372
2026-01-08 00:35:08.89	206.51	35.06	-30.8	-34.7	12.0	1.71e-04	0	44	0	943718400	21	5665
2026-01-08 00:35:09.90	206.48	34.83	-30.5	-34.1	12.4	1.76e-04	0	44	0	945815552	21	5392
2026-01-08 00:35:10.90	206.45	34.61	-30.4	-33.6	12.8	9.53e-05	0	44	0	947912704	21	5208
2026-01-08 00:35:11.90	206.42	34.38	-30.3	-33.8	13.0	5.03e-05	0	44	0	950009856	20	5391
2026-01-08 00:35:12.91	206.38	34.16	-30.3	-33.9	12.9	7.85e-05	0	44	0	951058432	20	5419
2026-01-08 00:35:13.91	206.35	33.94	-30.4	-34.2	12.7	7.32e-05	0	44	0	953155584	20	5541
2026-01-08 00:35:14.91	206.32	33.73	-30.5	-34.0	12.5	9.99e-05	0	44	0	955252736	21	5366
2026-01-08 00:35:15.92	206.29	33.51	-30.8	-34.8	12.0	1.93e-04	0	43	0	957349888	21	5696
2026-01-08 00:35:16.93	206.27	33.29	-30.9	-35.0	11.8	6.52e-04	0	44	0	959447040	21	5793
2026-01-08 00:35:17.94	206.24	33.08	-31.2	-35.5	11.0	1.07e-03	0	44	0	960495616	22	5929
2026-01-08 00:35:18.94	206.21	32.86	-31.3	-35.8	10.8	2.47e-03	0	44	0	962592768	22	6075
2026-01-08 00:35:19.95	206.18	32.65	-31.5	-36.1	10.3	4.99e-03	0	44	0	964689920	23	6100
2026-01-08 00:35:20.96	206.15	32.44	-31.6	-36.2	10.1	6.62e-03	0	44	0	966787072	23	6176
2026-01-08 00:35:21.97	206.13	32.23	-31.4	-36.4	10.4	5.55e-03	0	44	0	968884224	22	6341
2026-01-08 00:35:22.97	206.10	32.03	-31.5	-35.9	10.4	4.67e-03	0	44	0	969932800	23	6003
2026-01-08 00:35:23.98	206.07	31.82	-31.6	-36.3	10.0	7.23e-03	0	44	0	972029952	23	6207
2026-01-08 00:35:24.99	206.05	31.62	-31.5	-35.9	10.3	6.43e-03	0	44	0	974127104	23	6012
2026-01-08 00:35:25.99	206.02	31.41	-31.2	-35.7	10.9	3.11e-03	0	44	0	976224256	22	5988
2026-01-08 00:35:27.00	205.99	31.21	-31.0	-35.1	11.4	1.25e-03	0	44	0	978321408	22	5711
2026-01-08 00:35:28.01	205.97	31.01	-31.0	-35.3	11.5	1.29e-03	0	44	0	979369984	21	5924
2026-01-08 00:35:29.01	205.95	30.81	-30.9	-35.3	11.5	7.67e-04	0	44	0	981467136	21	5932
2026-01-08 00:35:30.01	205.92	30.62	-30.0	-34.1	11.7	5.10e-04	0	44	0	983564288	21	5788
2026-01-08 00:35:31.01	205.90	30.42	-30.8	-34.8	11.7	1.36e-03	0	44	0	985661440	21	5707
2026-01-08 00:35:32.02	205.87	30.23	-30.7	-34.5	11.6	1.06e-03	0	44	0	987758592	21	5575
2026-01-08 00:35:33.03	205.85	30.03	-30.6	-34.3	12.0	2.08e-04	0	44	0	988807168	21	5516
2026-01-08 00:35:34.03	205.83	29.84	-30.8	-34.7	11.7	1.31e-03	0	44	0	990904320	21	5697
2026-01-08 00:35:35.04	205.80	29.65	-30.7	-34.5	12.0	1.67e-03	0	44	0	993001472	21	5596
2026-01-08 00:35:36.05	205.78	29.46	-30.8	-34.9	11.8	3.58e-04	0	44	0	995098624	21	5757
2026-01-08 00:35:37.05	205.76	29.27	-30.7	-34.8	11.9	2.99e-03	0	44	0	997195776	21	5719
2026-01-08 00:35:38.06	205.74	29.09	-30.9	-35.2	11.5	1.88e-03	0	44	0	998244352	21	5936
2026-01-08 00:35:39.06	205.72	28.90	-30.9	-35.2	11.5	8.22e-04	0	44	0	1000341504	21	5909
2026-01-08 00:35:40.06	205.70	28.72	-31.1	-35.2	11.2	4.06e-03	0	44	0	1002438656	22	5822
2026-01-08 00:35:41.07	205.67	28.53	-31.2	-35.8	10.7	3.92e-03	0	44	0	1004535808	22	6093
2026-01-08 00:35:42.07	205.65	28.35	-31.3	-35.9	10.6	2.68e-03	0	44	0	1006632960	22	6153
2026-01-08 00:35:43.07	205.63	28.17	-31.2	-35.6	10.9	2.74e-03	0	44	0	1007681536	22	6019
2026-01-08 00:35:44.08	205.61	27.99	-31.0	-35.2	11.2	4.92e-03	0	44	0	1009778688	22	5806
2026-01-08 00:35:45.08	205.59	27.82	-30.9	-34.9	11.4	9.37e-04	0	44	0	1011875840	22	5655
2026-01-08 00:35:46.08	205.57	27.64	-30.9	-35.4	11.4	2.35e-03	0	44	0	1013972992	21	6005
2026-01-08 00:35:47.09	205.55	27.46	-30.9	-35.2	11.5	4.75e-03	0	44	0	1016070144	21	5911
2026-01-08 00:35:48.09	205.53	27.29	-30.9	-35.3	11.4	8.32e-04	0	44	0	1017118720	21	5964
2026-01-08 00:35:49.10	205.52	27.11	-31.1	-35.4	11.0	2.46e-03	0	44	0	1019215872	22	5917
2026-01-08 00:35:50.11	205.50	26.94	-31.3	-36.1	10.5	6.70e-03	0	44	0	1021313024	22	6258
2026-01-08 00:35:51.12	205.48	26.77	-31.0	-35.1	11.2	2.08e-03	0	44	0	1023410176	22	5767
2026-01-08 00:35:52.13	205.46	26.59	-30.7	-34.6	11.9	2.10e-03	0	44	0	1025507328	21	5662
2026-01-08 00:35:53.13	205.44	26.43	-30.5	-34.1	12.2	1.52e-03	0	44	0	1026555904	21	5455
2026-01-08 00:35:54.14	205.42	26.26	-30.3	-33.5	12.7	8.08e-05	0	44	0	1028653056	21	5177
2026-01-08 00:35:55.15	205.41	26.09	-30.3	-33.9	12.7	3.35e-03	0	44	0	1030750208	20	5440
2026-01-08 00:35:56.15	205.39	25.92	-30.2	-33.7	12.9	1.32e-03	0	44	0	1032847360	20	5380
2026-01-08 00:35:57.16	205.37	25.76	-30.3	-33.9	12.7	6.79e-05	0	43	0	1034944512	20	5447
2026-01-08 00:35:58.17	205.36	25.59	-30.2	-33.6	12.9	3.71e-03	0	44	0	1035993088	20	5343
2026-01-08 00:35:59.18	205.34	25.43	-30.1	-33.3	13.1	3.53e-03	0	44	0	1038090240	20	5227
2026-01-08 00:36:00.18	205.32	25.27	-30.0	-33.2	13.2	2.44e-05	0	44	0	1040187392	20	5175
2026-01-08 00:36:01.19	205.31	25.10	-30.0	-33.1	13.2	2.40e-03	0	44	0	1042284544	20	5148
2026-01-08 00:36:02.19	205.29	24.94	-30.0	-33.2	13.2	3.14e-03	0	44	0	1044381696	20	5175
2026-01-08 00:36:03.20	205.27	24.78	-30.1	-33.4	13.0	2.97e-05	0	44	0	1045430272	20	5250
2026-01-08 00:36:04.21	205.26	24.62	-30.0	-33.2	13.2	2.22e-03	0	44	0	1047527424	20	5177
2026-01-08 00:36:05.22	205.24	24.47	-30.0	-33.2	13.1	3.26e-03	0	44	0	1049624576	20	5190
2026-01-08 00:36:06.23	205.23	24.31	-30.0	-33.2	13.2	1.60e-05	0	44	0	1051721728	20	5192
2026-01-08 00:36:07.23	205.21	24.15	-30.2	-33.6	12.9	2.54e-03	0	44	0	1053818880	20	5327
2026-01-08 00:36:08.23	205.20	24.00	-30.0	-33.2	13.1	2.36e-03	0	44	0	1054867456	20	5170
2026-01-08 00:36:09.24	205.18	23.84	-30.0	-33.1	13.2	2.28e-05	0	44	0	1056964608	20	5152
2026-01-08 00:36:10.24	205.17	23.69	-30.1	-33.5	13.0	3.89e-05	0	44	0	1059061760	20	5282
2026-01-08 00:36:11.25	205.15	23.54	-30.0	-33.1	13.2	2.18e-03	0	44	0	1061158912	20	5163
2026-01-08 00:36:12.26	205.14	23.39	-30.1	-33.4	13.0	4.50e-05	0	44	0	1063256064	20	5267
2026-01-08 00:36:13.27	205.12	23.24	-30.2	-33.6	12.8	6.02e-05	0	44	0	1064304640	20	5357
2026-01-08 00:36:14.27	205.11	23.09	-30.1	-33.5	12.9	2.46e-03	0	44	0	1066401792	20	5290
2026-01-08 00:36:15.28	205.10	22.94	-30.2	-33.8	12.7	1.20e-04	0	44	0	1068498944	20	5429
2026-01-08 00:36:16.29	205.08	22.79	-30.3	-33.9	12.6	3.26e-03	0	44	0	1070596096	20	5474
2026-01-08 00:36:17.29	205.07	22.64	-30.3	-33.8	12.6	9.46e-05	0	44	0	1072693248	20	5443
2026-01-08 00:36:18.29	205.06	22.50	-30.4	-34.2	12.4	2.25e-04	0	44	0	1073741824	20	5587
2026-01-08 00:36:19.30	205.04	22.35	-30.5	-34.1	12.1	2.59e-03	0	44	0	1075838976	21	5441
2026-01-08 00:36:20.31	205.03	22.21	-30.3	-33.9	12.6	1.17e-04	0	44	0	1077936128	20	5478
2026-01-08 00:36:21.31	205.02	22.06	-30.2	-33.6	12.8	1.76e-04	0	44	0	1080033280	20	5371
2026-01-08 00:36:22.32	205.01	21.92	-30.2	-33.7	12.7	2.21e-03	0	44	0	1082130432	20	5371
2026-01-08 00:36:23.32	204.99	21.78	-30.3	-33.9	12.6	8.62e-05	0	44	0	1083179008	20	5458
2026-01-08 00:36:24.33	204.98	21.64	-30.5	-34.5	12.2	1.92e-04	0	44	0	1085276160	20	5718
2026-01-08 00:36:25.34	204.97	21.50	-30.3	-34.1	12.4	2.60e-03	0	44	0	1087373312	20	5578
2026-01-08 00:36:26.34	204.96	21.36	-30.2	-33.8	12.7	2.28e-03	0	44	0	1089470464	20	5422
2026-01-08 00:36:27.34	204.94	21.22	-30.2	-33.9	12.6	9.07e-05	0	44	0	1091567616	20	5468
2026-01-08 00:36:28.35	204.93	21.08	-30.3	-33.9	12.5	1.21e-04	0	44	0	1092616192	20	5485
2026-01-08 00:36:29.35	204.92	20.94	-30.3	-34.0	12.5	1.87e-03	0	44	0	1094713344	20	5509
2026-01-08 00:36:30.36	204.91	20.81	-30.4	-34.2	12.3	1.98e-04	0	44	0	1096810496	20	5621
2026-01-08 00:36:31.37	204.90	20.67	-30.4	-34.2	12.3	1.69e-04	0	44	0	1098907648	20	5631
2026-01-08 00:36:32.37	204.89	20.54	-30.4	-34.5	12.1	2.10e-03	0	44	0	1101004800	20	5750
2026-01-08 00:36:33.38	204.87	20.40	-30.5	-34.5	12.1	2.33e-04	0	44	0	1102053376	20	5747
2026-01-08 00:36:34.37	204.86	20.27	-30.6	-34.5	11.8	3.88e-04	0	44	0	1104150528	21	5625
2026-01-08 00:36:35.38	204.85	20.14	-30.7	-34.7	11.6	7.55e-04	0	44	0	1106247680	21	5723
2026-01-08 00:36:36.39	204.84	20.00	-30.6	-34.5	11.8	6.77e-04	0	44	0	1108344832	21	5616
2026-01-08 00:36:37.40	204.83	19.87	-30.6	-34.5	11.7	5.30e-04	0	44	0	1110441984	21	5630
2026-01-08 00:36:38.40	204.82	19.74	-30.6	-34.4	11.8	4.31e-04	0	44	0	1111490560	21	5581
2026-01-08 00:36:39.41	204.81	19.61	-30.6	-34.6	11.6	5.95e-04	0	44	0	1113587712	21	5676
2026-01-08 00:36:40.41	204.80	19.48	-30.5	-34.3	11.9	6.25e-04	0	44	0	1115684864	21	5531
2026-01-08 00:36:41.43	204.79	19.35	-30.7	-34.7	11.6	5.06e-04	0	44	0	1117782016	21	5703
2026-01-08 00:36:42.43	204.78	19.22	-30.7	-34.8	11.5	8.69e-04	0	44	0	1118830592	21	5782
2026-01-08 00:36:43.43	204.77	19.10	-30.6	-34.5	11.7	7.17e-04	0	44	0	1120927744	21	5618
2026-01-08 00:36:44.44	204.76	18.97	-30.5	-34.2	11.9	4.16e-04	0	44	0	1123024896	21	5518
2026-01-08 00:36:45.45	204.75	18.84	-30.5	-34.2	11.9	4.16e-04	0	44	0	1125122048	21	5523
2026-01-08 00:36:46.45	204.74	18.72	-30.4	-34.5	12.0	3.36e-04	0	44	0	1127219200	20	5772
2026-01-08 00:36:47.45	204.73	18.59	-30.5	-34.2	11.8	4.15e-04	0	44	0	1129316352	21	5520
2026-01-08 00:36:48.45	204.72	18.47	-30.5	-34.3	11.8	4.53e-04	0	44	0	1130364928	21	5560
2026-01-08 00:36:49.46	204.71	18.34	-30.6	-34.6	11.6	6.86e-04	0	44	0	1132462080	21	5698
2026-01-08 00:36:50.46	204.70	18.22	-30.6	-34.4	11.7	5.77e-04	0	44	0	1134559232	21	5612
2026-01-08 00:36:51.47	204.69	18.10	-30.6	-34.5	11.6	5.24e-04	0	44	0	1136656384	21	5639
2026-01-08 00:36:52.48	204.68	17.98	-30.6	-34.6	11.5	7.58e-04	0	44	0	1137704960	21	5716
2026-01-08 00:36:53.49	204.67	17.85	-30.6	-34.6	11.6	7.26e-04	0	44	0	1139802112	21	5681
2026-01-08 00:36:54.49	204.66	17.73	-30.7	-34.8	10.8	8.60e-04	0	44	0	1141899264	21	5800
2026-01-08 00:36:55.50	204.66	17.61	-30.8	-35.1	10.7	1.43e-03	0	44	0	1143996416	21	5928
2026-01-08 00:36:56.50	204.65	17.49	-30.8	-35.2	11.1	1.41e-03	0	44	0	1146093568	21	5974
2026-01-08 00:36:57.50	204.64	17.38	-30.8	-35.3	11.0	2.02e-03	0	44	0	1147142144	21	6034
2026-01-08 00:36:58.50	204.63	17.26	-30.8	-35.3	11.0	1.72e-03	0	44	0	1149239296	21	6028
2026-01-08 00:36:59.50	204.62	17.14	-30.9	-35.5	10.9	2.46e-03	0	44	0	1151336448	21	6122
2026-01-08 00:37:00.51	204.61	17.02	-30.9	-35.5	10.9	2.26e-03	0	44	0	1153433600	21	6105
2026-01-08 00:37:01.51	204.60	16.91	-31.0	-35.5	10.5	3.21e-03	0	44	0	1155530752	22	6047
2026-01-08 00:37:02.52	204.60	16.79	-31.2	-36.1	10.0	5.61e-03	0	44	0	1156579328	22	6343
2026-01-08 00:37:03.52	204.59	16.67	-31.2	-36.2	10.0	1.08e-02	0	44	0	1158676480	22	6377
2026-01-08 00:37:04.52	204.58	16.56	-31.3	-36.3	9.8	8.32e-03	0	44	0	1160773632	22	6446
2026-01-08 00:37:05.53	204.57	16.45	-31.3	-36.4	9.8	1.05e-02	0	44	0	1162870784	22	6493
2026-01-08 00:37:06.53	204.56	16.33	-31.2	-36.2	9.9	9.62e-03	0	44	0	1164967936	22	6380
2026-01-08 00:37:07.54	204.56	16.22	-31.2	-36.2	9.9	1.19e-02	0	44	0	1166016512	22	6398
2026-01-08 00:37:08.54	204.55	16.11	-31.2	-36.1	10.0	7.98e-03	0	44	0	1168113664	22	6306
2026-01-08 00:37:09.54	204.54	15.99	-31.3	-36.6	9.7	8.13e-03	0	44	0	1170210816	22	6586
2026-01-08 00:37:10.55	204.53	15.88	-31.3	-36.6	9.6	1.70e-02	0	44	0	1172307968	22	6592
2026-01-08 00:37:11.56	204.53	15.77	-31.1	-35.9	10.1	7.79e-03	0	44	0	1174405120	22	6232
2026-01-08 00:37:12.57	204.52	15.66	-31.0	-35.6	10.3	5.39e-03	0	44	0	1175453696	22	6095
2026-01-08 00:37:13.57	204.51	15.55	-31.0	-35.9	10.5	6.30e-03	0	44	0	1177550848	21	6322
2026-01-08 00:37:14.58	204.50	15.44	-31.0	-35.8	10.5	4.21e-03	0	44	0	1179648000	21	6307
2026-01-08 00:37:15.59	204.50	15.33	-31.0	-35.6	10.3	5.00e-03	0	44	0	1181745152	22	6110
2026-01-08 00:37:16.59	204.49	15.22	-31.1	-35.9	10.1	5.67e-03	0	44	0	1183842304	22	6254
2026-01-08 00:37:17.59	204.48	15.11	-31.2	-36.3	9.8	1.02e-02	0	44	0	1184890880	22	6463
2026-01-08 00:37:18.60	204.48	15.00	-31.2	-36.2	9.9	1.06e-02	0	44	0	1186988032	22	6396
2026-01-08 00:37:19.59	204.47	14.90	-31.2	-36.1	9.9	9.93e-03	0	44	0	1189085184	22	6348
2026-01-08 00:37:20.60	204.46	14.79	-31.1	-35.9	10.0	8.31e-03	0	44	0	1191182336	22	6256
2026-01-08 00:37:21.61	204.46	14.68	-31.1	-35.7	10.2	8.42e-03	0	44	0	1193279488	22	6142
2026-01-08 00:37:22.62	204.45	14.58	-30.9	-35.7	10.5	4.84e-03	0	44	0	1194328064	21	6274
2026-01-08 00:37:23.63	204.44	14.47	-30.9	-35.8	10.5	4.32e-03	0	44	0	1196425216	21	6309
2026-01-08 00:37:24.63	204.44	14.37	-31.0	-35.6	10.3	6.77e-03	0	44	0	1198522368	22	6078
2026-01-08 00:37:25.64	204.43	14.26	-31.1	-36.0	10.0	8.76e-03	0	43	0	1200619520	22	6304
2026-01-08 00:37:26.64	204.42	14.16	-31.1	-35.9	10.0	9.69e-03	0	43	0	1202716672	22	6255
2026-01-08 00:37:27.65	204.42	14.05	-30.9	-35.9	10.4	7.18e-03	0	44	0	1203765248	21	6344
2026-01-08 00:37:28.65	204.41	13.95	-30.9	-35.8	10.4	5.68e-03	0	44	0	1205862400	21	6313
2026-01-08 00:37:29.66	204.40	13.85	-31.1	-35.8	10.0	5.43e-03	0	44	0	1207959552	22	6229
2026-01-08 00:37:30.66	204.40	13.74	-31.1	-36.1	9.8	1.14e-02	0	44	0	1210056704	22	6353
2026-01-08 00:37:31.66	204.39	13.64	-31.1	-36.0	9.8	1.07e-02	0	44	0	1212153856	22	6327
2026-01-08 00:37:32.67	204.39	13.54	-31.1	-36.1	9.8	1.00e-02	0	44	0	1213202432	22	6375
2026-01-08 00:37:33.67	204.38	13.44	-31.1	-36.0	9.9	1.19e-02	0	44	0	1215299584	22	6323
2026-01-08 00:37:34.67	204.37	13.34	-31.1	-35.9	9.9	1.00e-02	0	44	0	1217396736	22	6252
2026-01-08 00:37:35.68	204.37	13.24	-31.0	-35.8	10.0	8.06e-03	0	44	0	1219493888	22	6211
2026-01-08 00:37:36.69	204.36	13.14	-31.0	-35.7	10.0	9.38e-03	0	44	0	1220542464	22	6188
2026-01-08 00:37:37.70	204.36	13.04	-31.1	-36.1	9.8	1.10e-02	0	43	0	1222639616	22	6382
2026-01-08 00:37:38.71	204.35	12.94	-31.0	-35.7	10.0	1.05e-02	0	44	0	1224736768	22	6155
2026-01-08 00:37:39.71	204.35	12.84	-30.9	-35.8	10.3	7.60e-03	0	44	0	1226833920	21	6345
2026-01-08 00:37:40.72	204.34	12.74	-30.9	-36.0	10.2	7.22e-03	0	44	0	1228931072	21	6449
2026-01-08 00:37:41.72	204.33	12.64	-30.8	-35.6	10.5	6.05e-03	0	44	0	1231028224	21	6225
2026-01-08 00:37:42.72	204.33	12.55	-30.8	-35.5	10.5	5.52e-03	0	44	0	1232076800	21	6193
2026-01-08 00:37:43.73	204.32	12.45	-30.8	-35.5	10.5	3.75e-03	0	44	0	1234173952	21	6185
2026-01-08 00:37:44.73	204.32	12.35	-30.8	-35.7	10.4	3.98e-03	0	44	0	1236271104	21	6272
2026-01-08 00:37:45.74	204.31	12.26	-30.9	-35.8	10.3	7.81e-03	0	44	0	1238368256	21	6354
2026-01-08 00:37:46.74	204.31	12.16	-30.9	-35.9	10.1	7.52e-03	0	44	0	1239416832	21	6405
2026-01-08 00:37:47.74	204.30	12.07	-30.9	-35.8	10.3	6.23e-03	0	44	0	1241513984	21	6351
2026-01-08 00:37:48.75	204.30	11.97	-30.8	-35.7	10.3	6.94e-03	0	44	0	1243611136	21	6276
2026-01-08 00:37:49.75	204.29	11.88	-30.7	-35.2	10.7	6.13e-03	0	44	0	1245708288	21	6049
2026-01-08 00:37:50.76	204.29	11.78	-30.7	-35.1	10.7	3.03e-03	0	44	0	1247805440	21	6011
2026-01-08 00:37:51.77	204.28	11.69	-30.7	-35.3	10.6	5.27e-03	0	44	0	1248854016	21	6087
2026-01-08 00:37:52.78	204.28	11.59	-30.8	-35.6	10.4	5.90e-03	0	44	0	1250951168	21	6227
2026-01-08 00:37:53.79	204.27	11.50	-30.8	-35.4	10.5	4.45e-03	0	44	0	1253048320	21	6137
2026-01-08 00:37:54.79	204.27	11.41	-30.7	-35.4	10.5	3.72e-03	0	44	0	1255145472	21	6149
2026-01-08 00:37:55.80	204.26	11.31	-30.7	-35.4	10.5	5.90e-03	0	44	0	1257242624	21	6147
2026-01-08 00:37:56.81	204.26	11.22	-30.8	-35.7	10.2	5.36e-03	0	44	0	1259339776	21	6327
2026-01-08 00:37:57.81	204.25	11.13	-30.8	-35.5	10.4	5.81e-03	0	44	0	1260388352	21	6217
2026-01-08 00:37:58.82	204.25	11.04	-30.9	-35.8	10.2	4.94e-03	0	44	0	1262485504	21	6354
2026-01-08 00:37:59.83	204.24	10.94	-30.8	-35.8	10.2	6.89e-03	0	44	0	1264582656	21	6346
2026-01-08 00:38:00.83	204.24	10.85	-30.9	-35.9	10.1	6.25e-03	0	44	0	1266679808	21	6395
2026-01-08 00:38:01.84	204.24	10.76	-30.8	-35.8	10.2	7.09e-03	0	44	0	1268776960	21	6350
2026-01-08 00:38:02.85	204.23	10.67	-30.9	-35.9	10.1	6.12e-03	0	44	0	1269825536	21	6402
2026-01-08 00:38:03.85	204.23	10.58	-30.9	-35.9	10.1	7.43e-03	0	44	0	1271922688	21	6419
2026-01-08 00:38:04.85	204.22	10.49	-30.8	-35.7	10.2	6.54e-03	0	44	0	1274019840	21	6318
2026-01-08 00:38:05.86	204.22	10.40	-30.8	-35.6	10.3	5.26e-03	0	44	0	1276116992	21	6273
2026-01-08 00:38:06.86	204.21	10.32	-30.8	-35.5	10.3	5.08e-03	0	44	0	1277165568	21	6211
2026-01-08 00:38:07.87	204.21	10.23	-30.8	-35.6	10.3	5.60e-03	0	43	0	1279262720	21	6274
2026-01-08 00:38:08.87	204.21	10.14	-30.8	-35.7	10.1	5.77e-03	0	44	0	1281359872	21	6326
2026-01-08 00:38:09.88	204.20	10.05	-30.8	-35.8	10.1	8.18e-03	0	44	0	1283457024	21	6380
2026-01-08 00:38:10.89	204.20	9.96	-30.9	-35.9	10.0	6.57e-03	0	44	0	1285554176	21	6436
2026-01-08 00:38:11.90	204.19	9.87	-30.8	-35.9	10.0	8.57e-03	0	44	0	1287651328	21	6456
2026-01-08 00:38:12.90	204.19	9.79	-30.9	-36.0	9.9	8.81e-03	0	44	0	1288699904	21	6510
2026-01-08 00:38:13.91	204.19	9.70	-30.9	-36.0	9.9	8.40e-03	0	43	0	1290797056	21	6480
