passes_logs/2026/01/08/R2M6_AANII_01/R2M6_AANII_01__20260108_075147_NOAA_21_JPSS-2_rec.log

#Pass ID: 20260108_075147_NOAA 21 (JPSS-2)
#Satellite: NOAA 21 (JPSS-2)
#Configuration: NOAA 21
#almurnet v.1.7.20240730
#Start time: 2026-01-08 07:51:47

#Version: 2.2.20231116
#Station: R2M6_AANII_01
#Location: 30.233357 lon 59.946436 lat
#TLE: 1 54234U 22150A   26005.56767909  .00000152  00000+0  92756-4 0  9990
#TLE: 2 54234  98.7490 306.5820 0001036 340.2747  19.8389 14.19532370163472

#Time	Az	El	Level	Level2	SNR	BER	BlckErr	Temp	State	Recorded	gain1	gain2
2026-01-08 07:51:47.36	83.81	7.00	-30.9	-35.6	4.5	1.41e+00	0	41	0	0	23	6170
2026-01-08 07:51:48.36	83.69	7.06	-30.5	-34.5	4.7	1.37e+00	0	41	104	0	22	5749
2026-01-08 07:51:49.37	83.58	7.11	-30.4	-33.6	9.1	2.49e-02	0	41	0	0	22	5202
2026-01-08 07:51:50.38	83.46	7.17	-30.4	-33.6	9.2	1.90e-02	0	41	0	3145728	22	5200
2026-01-08 07:51:51.38	83.35	7.22	-30.4	-33.6	9.2	2.18e-02	0	41	0	6291456	22	5199
2026-01-08 07:51:52.39	83.24	7.28	-30.3	-33.3	9.4	1.71e-02	0	41	0	9437184	22	5095
2026-01-08 07:51:53.39	83.12	7.34	-30.3	-33.3	9.4	1.54e-02	0	41	0	12582912	22	5067
2026-01-08 07:51:54.40	83.00	7.39	-30.4	-33.5	9.3	1.96e-02	0	41	0	15728640	22	5144
2026-01-08 07:51:55.41	82.89	7.45	-30.5	-33.9	9.0	2.03e-02	0	41	0	18874368	22	5321
2026-01-08 07:51:56.42	82.77	7.50	-30.5	-34.0	8.9	3.73e-02	0	41	0	22020096	22	5366
2026-01-08 07:51:57.42	82.65	7.56	-30.2	-33.3	9.7	1.42e-02	0	41	0	25165824	21	5178
2026-01-08 07:51:58.42	82.54	7.62	-29.8	-32.3	10.4	5.41e-03	0	41	0	28311552	21	4813
2026-01-08 07:51:59.43	82.42	7.67	-29.4	-31.8	11.1	1.64e-03	0	41	0	31457280	20	4727
2026-01-08 07:52:00.44	82.30	7.73	-29.1	-31.4	11.8	7.17e-04	0	41	0	34603008	19	4678
2026-01-08 07:52:01.44	82.18	7.79	-28.9	-30.7	12.2	2.45e-04	0	41	0	37748736	19	4445
2026-01-08 07:52:02.45	82.06	7.84	-28.8	-30.9	12.4	1.56e-04	0	41	0	40894464	18	4624
2026-01-08 07:52:03.46	81.94	7.90	-28.7	-30.9	12.4	9.91e-05	0	41	0	44040192	18	4612
2026-01-08 07:52:04.46	81.82	7.95	-28.8	-31.1	12.3	1.65e-04	0	41	0	47185920	18	4668
2026-01-08 07:52:05.46	81.70	8.01	-28.7	-30.9	12.5	1.78e-04	0	41	0	49283072	18	4597
2026-01-08 07:52:06.47	81.58	8.07	-28.7	-30.8	12.5	1.16e-04	0	41	0	53477376	18	4572
2026-01-08 07:52:07.48	81.46	8.12	-28.7	-30.8	12.5	1.16e-04	0	41	0	56623104	18	4580
2026-01-08 07:52:08.49	81.33	8.18	-28.7	-30.8	12.5	1.17e-04	0	41	0	59768832	18	4596
2026-01-08 07:52:09.50	81.21	8.24	-28.8	-31.0	12.5	9.53e-05	0	41	0	62914560	18	4625
2026-01-08 07:52:10.50	81.09	8.29	-28.6	-30.6	12.7	7.55e-05	0	41	0	66060288	18	4509
2026-01-08 07:52:11.51	80.96	8.35	-28.7	-30.7	12.7	6.48e-05	0	41	0	69206016	18	4538
2026-01-08 07:52:12.52	80.84	8.40	-28.7	-30.6	12.7	1.09e-04	0	41	0	72351744	18	4519
2026-01-08 07:52:13.52	80.71	8.46	-28.5	-30.3	12.9	5.56e-05	0	41	0	75497472	18	4411
2026-01-08 07:52:14.53	80.59	8.52	-28.4	-29.9	13.2	2.67e-05	0	41	0	78643200	18	4294
2026-01-08 07:52:15.54	80.46	8.57	-28.4	-29.9	13.2	1.60e-05	0	41	0	81788928	18	4287
2026-01-08 07:52:16.55	80.34	8.63	-28.4	-29.9	13.2	2.89e-05	0	41	0	84934656	18	4279
2026-01-08 07:52:17.55	80.21	8.69	-28.3	-29.8	13.3	1.83e-05	0	41	0	88080384	18	4269
2026-01-08 07:52:18.56	80.08	8.74	-28.3	-29.8	13.3	1.22e-05	0	41	0	91226112	18	4251
2026-01-08 07:52:19.57	79.95	8.80	-28.5	-30.1	13.1	3.12e-05	0	42	0	94371840	18	4362
2026-01-08 07:52:20.58	79.82	8.85	-28.5	-30.1	13.1	4.73e-05	0	42	0	97517568	18	4355
2026-01-08 07:52:21.59	79.69	8.91	-28.4	-29.9	13.2	2.44e-05	0	42	0	100663296	18	4295
2026-01-08 07:52:22.60	79.56	8.97	-28.3	-29.6	13.4	1.52e-05	0	42	0	103809024	18	4209
2026-01-08 07:52:23.60	79.44	9.02	-28.3	-30.2	13.4	2.28e-05	0	42	0	106954752	17	4481
2026-01-08 07:52:24.60	79.31	9.08	-28.3	-30.2	13.4	2.05e-05	0	42	0	110100480	17	4475
2026-01-08 07:52:25.61	79.17	9.13	-28.3	-30.1	13.4	1.37e-05	0	42	0	113246208	17	4449
2026-01-08 07:52:26.62	79.04	9.19	-28.4	-30.4	13.2	1.83e-05	0	42	0	116391936	17	4546
2026-01-08 07:52:27.62	78.91	9.25	-28.4	-30.5	13.2	2.13e-05	0	42	0	119537664	17	4568
2026-01-08 07:52:28.63	78.78	9.30	-28.2	-30.0	13.5	2.36e-05	0	42	0	122683392	17	4420
2026-01-08 07:52:29.64	78.65	9.36	-28.2	-30.0	13.5	1.14e-05	0	42	0	125829120	17	4406
2026-01-08 07:52:30.65	78.51	9.42	-28.2	-30.0	13.5	1.06e-05	0	42	0	128974848	17	4420
2026-01-08 07:52:31.65	78.38	9.47	-28.2	-30.0	13.5	1.22e-05	0	42	0	132120576	17	4426
2026-01-08 07:52:32.66	78.24	9.53	-28.3	-30.2	13.4	1.90e-05	0	42	0	135266304	17	4485
2026-01-08 07:52:33.66	78.11	9.58	-28.3	-30.1	13.4	1.60e-05	0	42	0	138412032	17	4447
2026-01-08 07:52:34.67	77.97	9.64	-28.2	-29.9	13.5	8.30e-06	0	42	0	141557760	17	4398
2026-01-08 07:52:35.67	77.84	9.69	-28.2	-30.0	13.5	1.44e-05	0	42	0	144703488	17	4426
2026-01-08 07:52:36.68	77.70	9.75	-28.2	-30.0	13.6	8.30e-06	0	42	0	147849216	17	4410
2026-01-08 07:52:37.69	77.56	9.81	-28.3	-30.1	13.5	1.14e-05	0	42	0	150994944	17	4454
2026-01-08 07:52:38.70	77.43	9.86	-28.3	-30.1	13.5	1.06e-05	0	42	0	154140672	17	4449
2026-01-08 07:52:39.71	77.29	9.92	-28.3	-30.1	13.5	1.06e-05	0	42	0	157286400	17	4447
2026-01-08 07:52:40.72	77.15	9.97	-28.4	-30.5	13.2	1.52e-05	0	42	0	160432128	17	4588
2026-01-08 07:52:41.73	77.01	10.03	-28.3	-30.2	13.4	2.36e-05	0	42	0	163577856	17	4484
2026-01-08 07:52:42.74	76.87	10.09	-28.2	-29.9	13.6	9.90e-06	0	42	0	166723584	17	4382
2026-01-08 07:52:43.74	76.73	10.14	-28.1	-29.8	13.7	7.60e-06	0	42	0	169869312	17	4352
2026-01-08 07:52:44.75	76.59	10.20	-28.2	-29.8	13.7	1.06e-05	0	42	0	173015040	17	4366
2026-01-08 07:52:45.75	76.45	10.25	-28.1	-29.8	13.7	5.30e-06	0	42	0	176160768	17	4354
2026-01-08 07:52:46.76	76.30	10.31	-28.2	-29.9	13.7	6.80e-06	0	42	0	179306496	17	4370
2026-01-08 07:52:47.76	76.16	10.36	-28.2	-29.8	13.7	1.44e-05	0	42	0	182452224	17	4360
2026-01-08 07:52:48.77	76.02	10.42	-28.2	-29.8	13.7	7.60e-06	0	42	0	185597952	17	4363
2026-01-08 07:52:49.77	75.87	10.47	-28.2	-29.8	13.7	5.30e-06	0	42	0	188743680	17	4361
2026-01-08 07:52:50.78	75.73	10.53	-28.1	-29.7	13.8	1.60e-05	0	42	0	191889408	17	4336
2026-01-08 07:52:51.79	75.58	10.58	-28.1	-29.7	13.8	9.10e-06	0	42	0	195035136	17	4327
2026-01-08 07:52:52.80	75.44	10.64	-28.2	-29.9	13.7	2.20e-06	0	42	0	198180864	17	4376
2026-01-08 07:52:53.80	75.29	10.69	-28.2	-29.8	13.7	5.30e-06	0	42	0	201326592	17	4347
2026-01-08 07:52:54.80	75.15	10.75	-28.2	-29.9	13.7	4.50e-06	0	42	0	204472320	17	4375
2026-01-08 07:52:55.81	75.00	10.80	-28.2	-29.9	13.7	7.60e-06	0	42	0	207618048	17	4377
2026-01-08 07:52:56.81	74.85	10.86	-28.3	-30.1	13.6	1.60e-05	0	42	0	210763776	17	4442
2026-01-08 07:52:57.81	74.71	10.91	-28.3	-30.3	13.4	1.06e-05	0	42	0	213909504	17	4499
2026-01-08 07:52:58.82	74.56	10.97	-28.4	-30.4	13.4	1.06e-05	0	42	0	217055232	17	4528
2026-01-08 07:52:59.83	74.41	11.02	-28.4	-30.3	13.4	1.14e-05	0	42	0	220200960	17	4513
2026-01-08 07:53:00.84	74.26	11.08	-28.4	-30.4	13.4	1.14e-05	0	42	0	223346688	17	4539
2026-01-08 07:53:01.84	74.11	11.13	-28.4	-30.4	13.4	1.75e-05	0	42	0	226492416	17	4545
2026-01-08 07:53:02.85	73.96	11.19	-28.4	-30.3	13.5	1.60e-05	0	42	0	229638144	17	4506
2026-01-08 07:53:03.86	73.81	11.24	-28.4	-30.4	13.4	9.10e-06	0	42	0	232783872	17	4532
2026-01-08 07:53:04.87	73.65	11.30	-28.3	-30.1	13.6	6.80e-06	0	42	0	235929600	17	4447
2026-01-08 07:53:05.87	73.50	11.35	-28.3	-30.2	13.5	8.30e-06	0	42	0	239075328	17	4467
2026-01-08 07:53:06.88	73.35	11.40	-28.3	-30.1	13.6	8.30e-06	0	42	0	242221056	17	4439
2026-01-08 07:53:07.88	73.19	11.46	-28.4	-30.4	13.4	6.10e-06	0	42	0	245366784	17	4541
2026-01-08 07:53:08.89	73.04	11.51	-28.4	-30.4	13.5	1.22e-05	0	42	0	248512512	17	4516
2026-01-08 07:53:09.89	72.89	11.57	-28.3	-30.2	13.6	1.22e-05	0	42	0	251658240	17	4472
2026-01-08 07:53:10.90	72.73	11.62	-28.4	-30.4	13.4	8.30e-06	0	42	0	254803968	17	4534
2026-01-08 07:53:11.91	72.57	11.67	-28.5	-30.5	13.3	1.06e-05	0	42	0	257949696	17	4573
2026-01-08 07:53:12.92	72.42	11.73	-28.4	-30.4	13.5	9.90e-06	0	42	0	261095424	17	4534
2026-01-08 07:53:13.92	72.26	11.78	-28.3	-30.1	13.6	9.90e-06	0	42	0	264241152	17	4442
2026-01-08 07:53:14.94	72.10	11.84	-28.3	-30.2	13.6	7.60e-06	0	42	0	267386880	17	4461
2026-01-08 07:53:15.94	71.94	11.89	-28.3	-30.2	13.6	9.10e-06	0	43	0	270532608	17	4455
2026-01-08 07:53:16.95	71.78	11.94	-28.3	-30.0	13.7	8.30e-06	0	42	0	273678336	17	4417
2026-01-08 07:53:17.96	71.62	12.00	-28.3	-30.1	13.6	9.90e-06	0	42	0	276824064	17	4442
2026-01-08 07:53:18.97	71.46	12.05	-28.4	-30.3	13.5	4.50e-06	0	42	0	279969792	17	4487
2026-01-08 07:53:19.97	71.30	12.10	-28.2	-30.0	13.7	6.10e-06	0	42	0	283115520	17	4398
2026-01-08 07:53:20.98	71.14	12.15	-28.3	-30.1	13.7	6.80e-06	0	42	0	286261248	17	4421
2026-01-08 07:53:21.99	70.98	12.21	-28.1	-29.7	13.9	3.80e-06	0	42	0	289406976	17	4313
2026-01-08 07:53:23.00	70.81	12.26	-28.1	-29.5	14.0	1.50e-06	0	42	0	292552704	17	4264
2026-01-08 07:53:24.01	70.65	12.31	-28.1	-29.6	13.9	1.50e-06	0	42	0	295698432	17	4292
2026-01-08 07:53:25.01	70.49	12.37	-27.9	-29.3	14.1	2.20e-06	0	42	0	298844160	17	4196
2026-01-08 07:53:26.02	70.32	12.42	-27.9	-29.2	14.2	2.20e-06	0	43	0	301989888	17	4185
2026-01-08 07:53:27.03	70.16	12.47	-28.0	-29.5	14.0	2.20e-06	0	42	0	305135616	17	4266
2026-01-08 07:53:28.03	69.99	12.52	-28.2	-29.8	13.9	1.50e-06	0	43	0	308281344	17	4346
2026-01-08 07:53:29.04	69.83	12.57	-28.2	-29.8	13.9	4.50e-06	0	43	0	311427072	17	4333
2026-01-08 07:53:30.05	69.66	12.63	-28.1	-29.7	13.9	6.80e-06	0	42	0	314572800	17	4326
2026-01-08 07:53:31.05	69.49	12.68	-28.2	-29.8	13.9	3.80e-06	0	43	0	317718528	17	4330
2026-01-08 07:53:32.06	69.32	12.73	-28.3	-30.2	13.7	5.30e-06	0	42	0	320864256	17	4466
2026-01-08 07:53:33.07	69.16	12.78	-28.3	-30.1	13.7	3.80e-06	0	43	0	324009984	17	4440
2026-01-08 07:53:34.08	68.99	12.83	-28.5	-30.6	13.4	9.90e-06	0	42	0	327155712	17	4590
2026-01-08 07:53:35.08	68.82	12.88	-28.3	-30.0	13.8	7.60e-06	0	43	0	330301440	17	4403
2026-01-08 07:53:36.09	68.65	12.93	-28.1	-29.7	13.9	3.80e-06	0	43	0	333447168	17	4313
2026-01-08 07:53:37.09	68.48	12.98	-28.2	-29.8	13.9	0.00e+00	0	42	0	336592896	17	4331
2026-01-08 07:53:38.10	68.30	13.04	-28.2	-29.8	13.9	5.30e-06	0	43	0	339738624	17	4352
2026-01-08 07:53:39.11	68.13	13.09	-28.1	-29.6	14.0	3.80e-06	0	42	0	342884352	17	4284
2026-01-08 07:53:40.11	67.96	13.14	-28.1	-29.5	14.1	6.10e-06	0	43	0	346030080	17	4266
2026-01-08 07:53:41.12	67.79	13.19	-28.1	-29.7	14.0	3.80e-06	0	42	0	349175808	17	4309
2026-01-08 07:53:42.13	67.61	13.24	-28.1	-29.6	14.0	4.50e-06	0	42	0	352321536	17	4282
2026-01-08 07:53:43.14	67.44	13.29	-28.1	-29.6	14.0	2.20e-06	0	43	0	355467264	17	4289
2026-01-08 07:53:44.15	67.26	13.34	-28.1	-29.7	14.0	7.00e-07	0	43	0	358612992	17	4313
2026-01-08 07:53:45.15	67.09	13.39	-28.0	-29.5	14.1	7.00e-07	0	43	0	361758720	17	4245
2026-01-08 07:53:46.16	66.91	13.44	-28.0	-29.4	14.2	2.20e-06	0	42	0	364904448	17	4222
2026-01-08 07:53:47.17	66.73	13.49	-28.0	-29.4	14.2	7.00e-07	0	43	0	368050176	17	4212
2026-01-08 07:53:48.17	66.56	13.53	-28.0	-29.3	14.2	7.00e-07	0	43	0	371195904	17	4197
2026-01-08 07:53:49.18	66.38	13.58	-28.0	-29.3	14.2	0.00e+00	0	43	0	374341632	17	4211
2026-01-08 07:53:50.19	66.20	13.63	-28.0	-29.3	14.2	2.20e-06	0	43	0	377487360	17	4200
2026-01-08 07:53:51.19	66.02	13.68	-27.9	-29.2	14.3	7.00e-07	0	43	0	380633088	17	4163
2026-01-08 07:53:52.20	65.84	13.73	-27.9	-29.2	14.3	0.00e+00	0	43	0	383778816	17	4150
2026-01-08 07:53:53.21	65.66	13.78	-28.0	-29.3	14.2	1.50e-06	0	43	0	386924544	17	4205
2026-01-08 07:53:54.22	65.48	13.83	-27.9	-29.2	14.3	1.50e-06	0	43	0	390070272	17	4173
2026-01-08 07:53:55.22	65.30	13.87	-27.9	-29.2	14.3	7.00e-07	0	43	0	393216000	17	4162
2026-01-08 07:53:56.23	65.11	13.92	-28.0	-29.4	14.2	1.50e-06	0	43	0	396361728	17	4215
2026-01-08 07:53:57.24	64.93	13.97	-27.9	-29.1	14.4	0.00e+00	0	43	0	399507456	17	4144
2026-01-08 07:53:58.25	64.75	14.02	-27.9	-29.1	14.4	7.00e-07	0	43	0	402653184	17	4137
2026-01-08 07:53:59.26	64.56	14.06	-27.9	-29.1	14.4	0.00e+00	0	43	0	405798912	17	4138
2026-01-08 07:54:00.25	64.38	14.11	-28.0	-29.3	14.3	0.00e+00	0	43	0	408944640	17	4197
2026-01-08 07:54:01.23	64.20	14.16	-27.9	-29.1	14.4	1.50e-06	0	43	0	412090368	17	4143
2026-01-08 07:54:02.24	64.02	14.20	-27.9	-29.1	14.4	0.00e+00	0	43	0	415236096	17	4125
2026-01-08 07:54:03.24	63.83	14.25	-28.0	-29.2	14.3	3.80e-06	0	43	0	418381824	17	4174
2026-01-08 07:54:04.26	63.64	14.29	-28.0	-29.3	14.3	0.00e+00	0	43	0	421527552	17	4185
2026-01-08 07:54:05.26	63.45	14.34	-27.9	-29.1	14.4	0.00e+00	0	43	0	424673280	17	4146
2026-01-08 07:54:06.27	63.27	14.39	-28.0	-29.3	14.3	1.50e-06	0	43	0	427819008	17	4192
2026-01-08 07:54:07.27	63.08	14.43	-27.9	-29.2	14.4	0.00e+00	0	43	0	430964736	17	4161
2026-01-08 07:54:08.28	62.89	14.48	-27.9	-29.2	14.4	1.50e-06	0	43	0	434110464	17	4169
2026-01-08 07:54:09.29	62.70	14.52	-28.0	-29.4	14.2	7.00e-07	0	43	0	437256192	17	4232
2026-01-08 07:54:10.30	62.51	14.57	-27.9	-29.2	14.4	0.00e+00	0	43	0	440401920	17	4154
2026-01-08 07:54:11.31	62.32	14.61	-27.9	-29.2	14.3	2.20e-06	0	43	0	443547648	17	4167
2026-01-08 07:54:12.32	62.12	14.65	-27.8	-29.0	14.5	7.00e-07	0	43	0	446693376	17	4103
2026-01-08 07:54:13.32	61.93	14.70	-27.8	-28.9	14.5	7.00e-07	0	43	0	449839104	17	4089
2026-01-08 07:54:14.32	61.74	14.74	-27.7	-29.2	14.6	0.00e+00	0	43	0	452984832	16	4263
2026-01-08 07:54:15.33	61.55	14.79	-27.7	-29.2	14.7	7.00e-07	0	43	0	456130560	16	4254
2026-01-08 07:54:16.34	61.35	14.83	-27.7	-29.1	14.8	0.00e+00	0	43	0	459276288	16	4226
2026-01-08 07:54:17.35	61.16	14.87	-27.7	-29.2	14.7	0.00e+00	0	43	0	462422016	16	4266
2026-01-08 07:54:18.35	60.97	14.91	-27.7	-29.1	14.7	7.00e-07	0	43	0	465567744	16	4235
2026-01-08 07:54:19.36	60.77	14.96	-27.8	-29.3	14.6	0.00e+00	0	43	0	468713472	16	4291
2026-01-08 07:54:20.36	60.57	15.00	-27.9	-29.6	14.5	1.50e-06	0	43	0	471859200	16	4370
2026-01-08 07:54:21.37	60.38	15.04	-28.0	-29.8	14.4	3.80e-06	0	43	0	475004928	16	4427
2026-01-08 07:54:22.37	60.18	15.08	-27.9	-29.7	14.4	1.50e-06	0	43	0	478150656	16	4410
2026-01-08 07:54:23.38	59.98	15.12	-28.0	-29.8	14.3	7.00e-07	0	43	0	481296384	16	4448
2026-01-08 07:54:24.39	59.78	15.16	-28.0	-29.8	14.3	3.80e-06	0	43	0	484442112	16	4445
2026-01-08 07:54:25.39	59.59	15.20	-27.9	-29.5	14.5	7.00e-07	0	43	0	487587840	16	4362
2026-01-08 07:54:26.41	59.39	15.25	-27.9	-29.6	14.4	7.00e-07	0	43	0	490733568	16	4375
2026-01-08 07:54:27.41	59.19	15.29	-27.9	-29.6	14.4	7.00e-07	0	43	0	493879296	16	4393
2026-01-08 07:54:28.42	58.99	15.33	-28.0	-29.7	14.4	4.50e-06	0	43	0	497025024	16	4416
2026-01-08 07:54:29.43	58.78	15.37	-28.0	-29.9	14.2	2.20e-06	0	43	0	500170752	16	4480
2026-01-08 07:54:30.44	58.58	15.41	-27.9	-29.7	14.4	1.50e-06	0	43	0	503316480	16	4398
2026-01-08 07:54:31.44	58.38	15.44	-27.9	-29.5	14.5	7.00e-07	0	43	0	506462208	16	4353
2026-01-08 07:54:32.44	58.18	15.48	-27.9	-29.5	14.5	0.00e+00	0	43	0	509607936	16	4355
2026-01-08 07:54:33.45	57.98	15.52	-27.9	-29.5	14.5	0.00e+00	0	43	0	512753664	16	4360
2026-01-08 07:54:34.46	57.77	15.56	-28.0	-29.8	14.4	0.00e+00	0	43	0	515899392	16	4435
2026-01-08 07:54:35.46	57.57	15.60	-27.9	-29.7	14.4	0.00e+00	0	43	0	519045120	16	4398
2026-01-08 07:54:36.47	57.36	15.63	-27.9	-29.6	14.4	1.50e-06	0	43	0	522190848	16	4385
2026-01-08 07:54:37.48	57.16	15.67	-27.9	-29.7	14.4	0.00e+00	0	43	0	525336576	16	4399
2026-01-08 07:54:38.49	56.95	15.71	-27.9	-29.7	14.4	0.00e+00	0	43	0	528482304	16	4412
2026-01-08 07:54:39.49	56.75	15.75	-27.9	-29.7	14.4	0.00e+00	0	43	0	531628032	16	4402
2026-01-08 07:54:40.50	56.54	15.78	-27.9	-29.6	14.5	3.00e-06	0	43	0	534773760	16	4370
2026-01-08 07:54:41.50	56.33	15.82	-27.9	-29.6	14.5	7.00e-07	0	43	0	537919488	16	4369
2026-01-08 07:54:42.51	56.13	15.85	-27.9	-29.7	14.4	0.00e+00	0	43	0	541065216	16	4403
2026-01-08 07:54:43.52	55.92	15.89	-27.9	-29.7	14.5	0.00e+00	0	43	0	544210944	16	4398
2026-01-08 07:54:44.52	55.71	15.92	-27.7	-29.2	14.7	0.00e+00	0	43	0	547356672	16	4267
2026-01-08 07:54:45.52	55.50	15.96	-27.6	-28.9	14.9	0.00e+00	0	43	0	550502400	16	4176
2026-01-08 07:54:46.54	55.29	15.99	-27.6	-28.9	14.9	2.20e-06	0	43	0	553648128	16	4175
2026-01-08 07:54:47.54	55.08	16.03	-27.7	-29.0	14.8	7.00e-07	0	43	0	556793856	16	4206
2026-01-08 07:54:48.55	54.87	16.06	-27.7	-29.1	14.8	0.00e+00	0	43	0	559939584	16	4224
2026-01-08 07:54:49.56	54.66	16.09	-27.7	-29.1	14.8	0.00e+00	0	43	0	563085312	16	4233
2026-01-08 07:54:50.56	54.45	16.13	-27.7	-29.0	14.8	0.00e+00	0	43	0	566231040	16	4218
2026-01-08 07:54:51.57	54.24	16.16	-27.7	-29.1	14.7	0.00e+00	0	43	0	569376768	16	4245
2026-01-08 07:54:52.58	54.02	16.19	-27.7	-29.1	14.8	7.00e-07	0	43	0	572522496	16	4240
2026-01-08 07:54:53.59	53.81	16.22	-27.7	-29.1	14.8	0.00e+00	0	43	0	575668224	16	4229
2026-01-08 07:54:54.59	53.60	16.25	-27.7	-29.1	14.8	7.00e-07	0	43	0	578813952	16	4234
2026-01-08 07:54:55.59	53.39	16.29	-27.8	-29.4	14.6	1.50e-06	0	43	0	581959680	16	4312
2026-01-08 07:54:56.60	53.17	16.32	-27.8	-29.4	14.6	0.00e+00	0	43	0	585105408	16	4315
2026-01-08 07:54:57.60	52.96	16.35	-27.7	-29.2	14.7	7.00e-07	0	43	0	588251136	16	4262
2026-01-08 07:54:58.61	52.74	16.38	-27.8	-29.3	14.7	0.00e+00	0	43	0	591396864	16	4284
2026-01-08 07:54:59.62	52.53	16.41	-28.0	-29.8	14.4	0.00e+00	0	43	0	594542592	16	4440
2026-01-08 07:55:00.63	52.31	16.44	-27.9	-29.7	14.4	7.00e-07	0	43	0	597688320	16	4402
2026-01-08 07:55:01.63	52.09	16.46	-27.9	-29.6	14.5	0.00e+00	0	43	0	600834048	16	4385
2026-01-08 07:55:02.64	51.88	16.49	-27.9	-29.5	14.5	0.00e+00	0	43	0	603979776	16	4341
2026-01-08 07:55:03.65	51.66	16.52	-27.8	-29.4	14.6	0.00e+00	0	43	0	607125504	16	4313
2026-01-08 07:55:04.66	51.44	16.55	-27.8	-29.4	14.6	0.00e+00	0	43	0	610271232	16	4328
2026-01-08 07:55:05.67	51.22	16.58	-27.8	-29.4	14.6	3.00e-06	0	43	0	613416960	16	4327
2026-01-08 07:55:06.67	51.00	16.60	-27.8	-29.4	14.6	0.00e+00	0	43	0	616562688	16	4310
2026-01-08 07:55:07.68	50.79	16.63	-27.7	-29.2	14.7	0.00e+00	0	43	0	619708416	16	4254
2026-01-08 07:55:08.68	50.57	16.66	-27.8	-29.3	14.7	1.50e-06	0	43	0	622854144	16	4303
2026-01-08 07:55:09.69	50.35	16.68	-27.7	-29.1	14.8	0.00e+00	0	43	0	625999872	16	4229
2026-01-08 07:55:10.69	50.13	16.71	-27.5	-28.7	15.0	7.00e-07	0	43	0	629145600	16	4110
2026-01-08 07:55:11.70	49.91	16.73	-27.5	-28.6	15.1	0.00e+00	0	43	0	632291328	16	4095
2026-01-08 07:55:12.71	49.69	16.76	-27.4	-28.5	15.1	0.00e+00	0	43	0	635437056	16	4080
2026-01-08 07:55:13.71	49.47	16.78	-27.6	-28.8	15.0	0.00e+00	0	43	0	638582784	16	4154
2026-01-08 07:55:14.72	49.25	16.80	-27.5	-28.8	15.0	0.00e+00	0	43	0	641728512	16	4145
2026-01-08 07:55:15.72	49.02	16.83	-27.5	-28.7	15.0	0.00e+00	0	43	0	644874240	16	4134
2026-01-08 07:55:16.72	48.80	16.85	-27.6	-29.0	14.9	0.00e+00	0	43	0	648019968	16	4192
2026-01-08 07:55:17.73	48.58	16.87	-27.7	-29.1	14.8	0.00e+00	0	43	0	651165696	16	4243
2026-01-08 07:55:18.73	48.36	16.89	-27.6	-28.9	14.9	0.00e+00	0	43	0	654311424	16	4172
2026-01-08 07:55:19.74	48.14	16.92	-27.5	-28.6	15.1	0.00e+00	0	43	0	657457152	16	4104
2026-01-08 07:55:20.74	47.91	16.94	-27.5	-28.7	15.1	0.00e+00	0	43	0	660602880	16	4113
2026-01-08 07:55:21.75	47.69	16.96	-27.6	-28.8	15.0	0.00e+00	0	43	0	663748608	16	4140
2026-01-08 07:55:22.76	47.47	16.98	-27.6	-29.0	14.9	0.00e+00	0	43	0	665845760	16	4196
2026-01-08 07:55:23.76	47.24	17.00	-27.7	-29.1	14.8	0.00e+00	0	43	0	668991488	16	4240
2026-01-08 07:55:24.77	47.02	17.02	-27.7	-29.2	14.7	0.00e+00	0	43	0	673185792	16	4262
2026-01-08 07:55:25.78	46.79	17.04	-27.9	-29.5	14.5	0.00e+00	0	43	0	676331520	16	4355
2026-01-08 07:55:26.78	46.57	17.06	-27.8	-29.4	14.7	7.00e-07	0	43	0	679477248	16	4307
2026-01-08 07:55:27.79	46.34	17.07	-27.7	-29.1	14.8	0.00e+00	0	43	0	682622976	16	4246
2026-01-08 07:55:28.80	46.12	17.09	-27.7	-29.0	14.9	7.00e-07	0	43	0	685768704	16	4206
2026-01-08 07:55:29.81	45.89	17.11	-27.8	-29.2	14.8	0.00e+00	0	43	0	687865856	16	4272
2026-01-08 07:55:30.82	45.66	17.13	-27.6	-29.0	14.9	0.00e+00	0	43	0	692060160	16	4194
2026-01-08 07:55:31.82	45.44	17.14	-27.6	-29.0	14.9	0.00e+00	0	43	0	695205888	16	4206
2026-01-08 07:55:32.83	45.21	17.16	-27.6	-28.8	14.9	0.00e+00	0	43	0	698351616	16	4161
2026-01-08 07:55:33.84	44.98	17.17	-27.5	-28.8	15.0	0.00e+00	0	43	0	701497344	16	4151
2026-01-08 07:55:34.84	44.76	17.19	-27.5	-28.6	15.1	0.00e+00	0	43	0	704643072	16	4105
2026-01-08 07:55:35.85	44.53	17.20	-27.6	-28.8	15.0	0.00e+00	0	43	0	707788800	16	4156
2026-01-08 07:55:36.85	44.30	17.22	-27.5	-28.7	15.0	7.00e-07	0	43	0	710934528	16	4129
2026-01-08 07:55:37.86	44.07	17.23	-27.5	-28.7	15.0	0.00e+00	0	43	0	713031680	16	4140
2026-01-08 07:55:38.87	43.85	17.24	-27.5	-28.7	15.0	0.00e+00	0	43	0	717225984	16	4126
2026-01-08 07:55:39.87	43.62	17.26	-27.5	-28.7	15.0	0.00e+00	0	43	0	720371712	16	4123
2026-01-08 07:55:40.88	43.39	17.27	-27.7	-29.1	14.8	0.00e+00	0	43	0	723517440	16	4227
2026-01-08 07:55:41.89	43.16	17.28	-27.7	-29.2	14.7	0.00e+00	0	43	0	726663168	16	4257
2026-01-08 07:55:42.89	42.93	17.29	-27.8	-29.4	14.6	1.50e-06	0	43	0	729808896	16	4330
2026-01-08 07:55:43.90	42.70	17.30	-27.8	-29.3	14.7	0.00e+00	0	43	0	732954624	16	4282
2026-01-08 07:55:44.91	42.47	17.31	-27.7	-29.2	14.7	0.00e+00	0	43	0	736100352	16	4265
2026-01-08 07:55:45.92	42.24	17.32	-27.7	-29.0	14.8	0.00e+00	0	43	0	739246080	16	4218
2026-01-08 07:55:46.92	42.02	17.33	-27.7	-29.2	14.8	0.00e+00	0	43	0	742391808	16	4254
2026-01-08 07:55:47.93	41.79	17.34	-27.7	-29.0	14.8	7.00e-07	0	43	0	745537536	16	4207
2026-01-08 07:55:48.94	41.56	17.35	-27.7	-29.2	14.8	7.00e-07	0	43	0	748683264	16	4258
2026-01-08 07:55:49.94	41.33	17.36	-27.8	-29.2	14.7	0.00e+00	0	43	0	751828992	16	4273
2026-01-08 07:55:50.94	41.10	17.37	-28.0	-29.7	14.5	1.50e-06	0	43	0	754974720	16	4403
2026-01-08 07:55:51.95	40.87	17.37	-27.9	-29.5	14.6	7.00e-07	0	43	0	758120448	16	4354
2026-01-08 07:55:52.95	40.64	17.38	-27.8	-29.3	14.7	2.20e-06	0	43	0	760217600	16	4302
2026-01-08 07:55:53.96	40.41	17.39	-27.8	-29.4	14.6	0.00e+00	0	43	0	763363328	16	4328
2026-01-08 07:55:54.97	40.18	17.39	-27.6	-29.0	14.9	0.00e+00	0	43	0	767557632	16	4200
2026-01-08 07:55:55.97	39.95	17.40	-27.5	-28.8	15.0	7.00e-07	0	43	0	770703360	16	4137
2026-01-08 07:55:56.98	39.72	17.40	-27.6	-28.9	14.9	0.00e+00	0	43	0	773849088	16	4183
2026-01-08 07:55:57.99	39.49	17.41	-27.4	-28.5	15.2	0.00e+00	0	43	0	776994816	16	4067
2026-01-08 07:55:58.99	39.26	17.41	-27.4	-28.4	15.2	0.00e+00	0	43	0	780140544	16	4054
2026-01-08 07:56:00.00	39.03	17.41	-27.5	-28.6	15.1	0.00e+00	0	43	0	783286272	16	4088
2026-01-08 07:56:01.00	38.80	17.42	-27.4	-28.3	15.2	0.00e+00	0	43	0	785383424	16	4027
2026-01-08 07:56:02.00	38.57	17.42	-27.4	-28.4	15.2	0.00e+00	0	43	0	788529152	16	4032
2026-01-08 07:56:03.01	38.34	17.42	-27.4	-28.5	15.1	0.00e+00	0	43	0	791674880	16	4067
2026-01-08 07:56:04.02	38.11	17.42	-27.4	-28.4	15.2	0.00e+00	0	43	0	795869184	16	4047
2026-01-08 07:56:05.03	37.88	17.42	-27.4	-28.5	15.2	0.00e+00	0	43	0	799014912	16	4061
2026-01-08 07:56:06.02	37.65	17.42	-27.6	-28.8	15.0	0.00e+00	0	43	0	802160640	16	4155
2026-01-08 07:56:07.03	37.42	17.42	-27.5	-28.6	15.0	0.00e+00	0	43	0	805306368	16	4104
2026-01-08 07:56:08.04	37.19	17.42	-27.5	-28.6	15.0	0.00e+00	0	43	0	807403520	16	4111
2026-01-08 07:56:09.05	36.95	17.42	-27.5	-28.7	15.0	0.00e+00	0	43	0	810549248	16	4136
2026-01-08 07:56:10.05	36.73	17.42	-27.5	-28.6	15.1	0.00e+00	0	43	0	813694976	16	4093
2026-01-08 07:56:11.05	36.50	17.42	-27.5	-28.8	15.0	0.00e+00	0	43	0	816840704	16	4140
2026-01-08 07:56:12.06	36.27	17.42	-27.5	-28.6	15.1	0.00e+00	0	43	0	819986432	16	4098
2026-01-08 07:56:13.06	36.04	17.41	-27.6	-29.0	14.9	0.00e+00	0	43	0	823132160	16	4197
2026-01-08 07:56:14.06	35.81	17.41	-27.5	-28.6	15.1	0.00e+00	0	43	0	826277888	16	4111
2026-01-08 07:56:15.07	35.58	17.41	-27.4	-28.4	15.2	0.00e+00	0	43	0	830472192	16	4050
2026-01-08 07:56:16.08	35.34	17.40	-27.4	-28.5	15.2	0.00e+00	0	43	0	832569344	16	4064
2026-01-08 07:56:17.08	35.12	17.40	-27.5	-28.6	15.1	0.00e+00	0	43	0	835715072	16	4097
2026-01-08 07:56:18.08	34.89	17.39	-27.4	-28.4	15.2	0.00e+00	0	43	0	838860800	16	4041
2026-01-08 07:56:19.09	34.66	17.39	-27.3	-28.3	15.3	0.00e+00	0	43	0	842006528	16	4010
2026-01-08 07:56:20.10	34.43	17.38	-27.4	-28.5	15.1	0.00e+00	0	43	0	845152256	16	4073
2026-01-08 07:56:21.10	34.20	17.38	-27.3	-28.2	15.3	0.00e+00	0	43	0	848297984	16	3980
2026-01-08 07:56:22.11	33.97	17.37	-27.2	-28.5	15.3	0.00e+00	0	43	0	851443712	15	4174
2026-01-08 07:56:23.11	33.74	17.36	-27.3	-28.7	15.2	0.00e+00	0	43	0	854589440	15	4232
2026-01-08 07:56:24.12	33.51	17.35	-27.2	-28.6	15.2	0.00e+00	0	43	0	857735168	15	4212
2026-01-08 07:56:25.13	33.28	17.34	-27.2	-28.5	15.3	0.00e+00	0	43	0	860880896	15	4180
2026-01-08 07:56:26.14	33.05	17.34	-27.2	-28.6	15.2	0.00e+00	0	43	0	864026624	15	4219
2026-01-08 07:56:27.14	32.82	17.33	-27.2	-28.5	15.3	0.00e+00	0	43	0	867172352	15	4179
2026-01-08 07:56:28.15	32.59	17.32	-27.2	-28.6	15.2	0.00e+00	0	43	0	870318080	15	4216
2026-01-08 07:56:29.16	32.36	17.31	-27.2	-28.6	15.2	0.00e+00	0	43	0	873463808	15	4212
2026-01-08 07:56:30.17	32.13	17.30	-27.3	-28.8	15.1	0.00e+00	0	43	0	877658112	15	4261
2026-01-08 07:56:31.17	31.90	17.28	-27.3	-28.7	15.2	0.00e+00	0	43	0	879755264	15	4228
2026-01-08 07:56:32.18	31.68	17.27	-27.3	-28.8	15.1	0.00e+00	0	43	0	882900992	15	4262
2026-01-08 07:56:33.19	31.45	17.26	-27.4	-29.0	14.9	0.00e+00	0	43	0	886046720	15	4330
2026-01-08 07:56:34.20	31.22	17.25	-27.3	-28.8	15.1	0.00e+00	0	43	0	889192448	15	4261
2026-01-08 07:56:35.20	30.99	17.23	-27.3	-28.8	15.1	0.00e+00	0	43	0	892338176	15	4263
2026-01-08 07:56:36.21	30.76	17.22	-27.3	-28.8	15.1	0.00e+00	0	43	0	895483904	15	4271
2026-01-08 07:56:37.21	30.54	17.21	-27.4	-28.9	15.0	0.00e+00	0	43	0	898629632	15	4297
2026-01-08 07:56:38.22	30.31	17.19	-27.5	-29.1	14.9	0.00e+00	0	43	0	901775360	15	4355
2026-01-08 07:56:39.22	30.08	17.18	-27.5	-29.1	14.9	0.00e+00	0	43	0	904921088	15	4357
2026-01-08 07:56:40.23	29.86	17.16	-27.5	-29.2	14.9	0.00e+00	0	43	0	908066816	15	4372
2026-01-08 07:56:41.24	29.63	17.15	-27.3	-28.8	15.1	0.00e+00	0	43	0	911212544	15	4253
2026-01-08 07:56:42.25	29.40	17.13	-27.3	-28.7	15.1	0.00e+00	0	43	0	914358272	15	4233
2026-01-08 07:56:43.25	29.18	17.11	-27.3	-28.7	15.1	0.00e+00	0	43	0	917504000	15	4230
2026-01-08 07:56:44.26	28.95	17.10	-27.2	-28.5	15.2	0.00e+00	0	43	0	920649728	15	4193
2026-01-08 07:56:45.26	28.73	17.08	-27.2	-28.5	15.2	7.00e-07	0	43	0	923795456	15	4195
2026-01-08 07:56:46.27	28.50	17.06	-27.2	-28.5	15.2	0.00e+00	0	43	0	926941184	15	4189
2026-01-08 07:56:47.28	28.28	17.04	-27.3	-28.7	15.1	0.00e+00	0	43	0	930086912	15	4247
2026-01-08 07:56:48.29	28.05	17.02	-27.3	-28.7	15.1	0.00e+00	0	43	0	933232640	15	4236
2026-01-08 07:56:49.29	27.83	17.00	-27.4	-28.8	15.0	0.00e+00	0	43	0	936378368	15	4276
2026-01-08 07:56:50.30	27.60	16.98	-27.5	-29.2	14.8	0.00e+00	0	43	0	939524096	15	4368
2026-01-08 07:56:51.31	27.38	16.96	-27.5	-29.3	14.7	7.00e-07	0	43	0	942669824	15	4412
2026-01-08 07:56:52.32	27.16	16.94	-27.5	-29.3	14.7	0.00e+00	0	43	0	946864128	15	4412
2026-01-08 07:56:53.32	26.93	16.92	-27.5	-29.3	14.8	0.00e+00	0	43	0	948961280	15	4400
2026-01-08 07:56:54.33	26.71	16.90	-27.5	-29.2	14.8	0.00e+00	0	43	0	952107008	15	4390
2026-01-08 07:56:55.34	26.49	16.88	-27.4	-28.9	14.9	7.00e-07	0	43	0	955252736	15	4307
2026-01-08 07:56:56.35	26.26	16.86	-27.4	-28.9	15.0	0.00e+00	0	43	0	958398464	15	4296
2026-01-08 07:56:57.35	26.04	16.83	-27.4	-29.0	14.9	0.00e+00	0	43	0	961544192	15	4324
2026-01-08 07:56:58.34	25.83	16.81	-27.3	-28.8	15.0	0.00e+00	0	43	0	964689920	15	4274
2026-01-08 07:56:59.35	25.60	16.79	-27.3	-28.6	15.1	0.00e+00	0	43	0	967835648	15	4220
2026-01-08 07:57:00.36	25.38	16.76	-27.3	-28.7	15.1	0.00e+00	0	43	0	970981376	15	4236
2026-01-08 07:57:01.37	25.16	16.74	-27.3	-28.8	15.0	0.00e+00	0	43	0	974127104	15	4274
2026-01-08 07:57:02.38	24.94	16.71	-27.4	-28.9	14.9	0.00e+00	0	43	0	977272832	15	4306
2026-01-08 07:57:03.39	24.72	16.69	-27.4	-28.9	15.0	7.00e-07	0	43	0	980418560	15	4297
2026-01-08 07:57:04.40	24.50	16.66	-27.5	-29.2	14.8	0.00e+00	0	43	0	983564288	15	4381
2026-01-08 07:57:05.40	24.28	16.64	-27.5	-29.3	14.7	0.00e+00	0	43	0	986710016	15	4419
2026-01-08 07:57:06.41	24.06	16.61	-27.5	-29.3	14.7	0.00e+00	0	43	0	989855744	15	4403
2026-01-08 07:57:07.41	23.85	16.58	-27.5	-29.3	14.7	7.00e-07	0	43	0	993001472	15	4406
2026-01-08 07:57:08.42	23.63	16.56	-27.6	-29.5	14.6	0.00e+00	0	43	0	997195776	15	4468
2026-01-08 07:57:09.43	23.41	16.53	-27.6	-29.5	14.6	0.00e+00	0	43	0	999292928	15	4455
2026-01-08 07:57:10.44	23.19	16.50	-27.6	-29.4	14.7	0.00e+00	0	43	0	1002438656	15	4429
2026-01-08 07:57:11.45	22.98	16.47	-27.6	-29.4	14.7	0.00e+00	0	43	0	1005584384	15	4444
2026-01-08 07:57:12.45	22.76	16.44	-27.3	-28.8	15.0	0.00e+00	0	43	0	1008730112	15	4283
2026-01-08 07:57:13.45	22.55	16.42	-27.3	-28.8	15.0	0.00e+00	0	43	0	1011875840	15	4261
2026-01-08 07:57:14.46	22.33	16.39	-27.3	-28.7	15.1	0.00e+00	0	43	0	1015021568	15	4239
2026-01-08 07:57:15.48	22.12	16.36	-27.4	-29.0	14.9	0.00e+00	0	43	0	1019215872	15	4321
2026-01-08 07:57:16.48	21.90	16.33	-27.5	-29.3	14.7	7.00e-07	0	43	0	1021313024	15	4407
2026-01-08 07:57:17.49	21.69	16.30	-27.5	-29.2	14.7	0.00e+00	0	43	0	1024458752	15	4390
2026-01-08 07:57:18.49	21.48	16.26	-27.3	-28.8	15.0	0.00e+00	0	43	0	1027604480	15	4271
2026-01-08 07:57:19.49	21.26	16.23	-27.2	-28.6	15.1	0.00e+00	0	43	0	1030750208	15	4218
2026-01-08 07:57:20.50	21.05	16.20	-27.3	-28.8	15.0	0.00e+00	0	43	0	1033895936	15	4268
2026-01-08 07:57:21.51	20.84	16.17	-27.4	-29.0	14.9	7.00e-07	0	43	0	1037041664	15	4313
2026-01-08 07:57:22.52	20.63	16.14	-27.4	-29.0	14.9	0.00e+00	0	43	0	1041235968	15	4340
2026-01-08 07:57:23.52	20.42	16.10	-27.4	-29.0	14.9	1.50e-06	0	43	0	1044381696	15	4327
2026-01-08 07:57:24.53	20.21	16.07	-27.3	-28.8	15.0	0.00e+00	0	43	0	1046478848	15	4256
2026-01-08 07:57:25.53	20.00	16.04	-27.3	-28.8	15.0	0.00e+00	0	43	0	1049624576	15	4277
2026-01-08 07:57:26.54	19.79	16.00	-27.4	-28.9	14.9	0.00e+00	0	43	0	1052770304	15	4293
2026-01-08 07:57:27.54	19.58	15.97	-27.3	-28.8	15.0	0.00e+00	0	43	0	1055916032	15	4274
2026-01-08 07:57:28.54	19.37	15.94	-27.4	-29.0	14.9	0.00e+00	0	43	0	1059061760	15	4311
2026-01-08 07:57:29.55	19.16	15.90	-27.5	-29.2	14.7	0.00e+00	0	43	0	1062207488	15	4378
2026-01-08 07:57:30.55	18.96	15.87	-27.5	-29.3	14.7	7.00e-07	0	43	0	1065353216	15	4411
2026-01-08 07:57:31.56	18.75	15.83	-27.6	-29.5	14.5	7.00e-07	0	43	0	1068498944	15	4484
2026-01-08 07:57:32.56	18.54	15.79	-27.6	-29.5	14.6	0.00e+00	0	43	0	1071644672	15	4474
2026-01-08 07:57:33.57	18.34	15.76	-27.5	-29.3	14.7	0.00e+00	0	43	0	1074790400	15	4400
2026-01-08 07:57:34.58	18.13	15.72	-27.5	-29.1	14.7	7.00e-07	0	43	0	1077936128	15	4369
2026-01-08 07:57:35.59	17.92	15.69	-27.5	-29.1	14.8	0.00e+00	0	43	0	1081081856	15	4368
2026-01-08 07:57:36.60	17.72	15.65	-27.5	-29.1	14.8	0.00e+00	0	43	0	1084227584	15	4361
2026-01-08 07:57:37.60	17.52	15.61	-27.5	-29.2	14.7	7.00e-07	0	43	0	1087373312	15	4381
2026-01-08 07:57:38.61	17.31	15.57	-27.5	-29.3	14.7	0.00e+00	0	43	0	1090519040	15	4404
2026-01-08 07:57:39.61	17.11	15.54	-27.3	-28.8	14.9	1.50e-06	0	43	0	1093664768	15	4279
2026-01-08 07:57:40.61	16.91	15.50	-27.3	-28.7	15.0	0.00e+00	0	43	0	1096810496	15	4245
2026-01-08 07:57:41.61	16.71	15.46	-27.3	-28.7	15.0	0.00e+00	0	43	0	1099956224	15	4250
2026-01-08 07:57:42.62	16.51	15.42	-27.4	-29.1	14.8	0.00e+00	0	43	0	1103101952	15	4352
2026-01-08 07:57:43.63	16.30	15.38	-27.6	-29.4	14.6	0.00e+00	0	43	0	1106247680	15	4455
2026-01-08 07:57:44.63	16.10	15.34	-27.6	-29.5	14.6	0.00e+00	0	43	0	1109393408	15	4469
2026-01-08 07:57:45.64	15.90	15.30	-27.6	-29.5	14.6	0.00e+00	0	43	0	1112539136	15	4465
2026-01-08 07:57:46.64	15.71	15.26	-27.6	-29.5	14.5	0.00e+00	0	43	0	1115684864	15	4468
2026-01-08 07:57:47.65	15.51	15.22	-27.6	-29.6	14.5	7.00e-07	0	43	0	1118830592	15	4487
2026-01-08 07:57:48.65	15.31	15.18	-27.6	-29.4	14.6	0.00e+00	0	43	0	1121976320	15	4439
2026-01-08 07:57:49.66	15.11	15.14	-27.4	-29.0	14.8	0.00e+00	0	43	0	1125122048	15	4342
2026-01-08 07:57:50.67	14.91	15.10	-27.4	-29.0	14.8	0.00e+00	0	43	0	1128267776	15	4322
2026-01-08 07:57:51.67	14.72	15.06	-27.4	-29.1	14.8	0.00e+00	0	43	0	1131413504	15	4344
2026-01-08 07:57:52.68	14.52	15.02	-27.4	-29.0	14.8	0.00e+00	0	43	0	1134559232	15	4329
2026-01-08 07:57:53.69	14.32	14.97	-27.6	-29.5	14.5	0.00e+00	0	43	0	1137704960	15	4465
2026-01-08 07:57:54.68	14.13	14.93	-27.7	-29.6	14.4	7.00e-07	0	43	0	1140850688	15	4509
2026-01-08 07:57:55.69	13.94	14.89	-27.8	-29.9	14.2	7.00e-07	0	43	0	1143996416	15	4603
2026-01-08 07:57:56.69	13.75	14.85	-27.8	-29.9	14.3	1.50e-06	0	43	0	1147142144	15	4600
2026-01-08 07:57:57.69	13.55	14.80	-27.7	-29.7	14.4	0.00e+00	0	43	0	1150287872	15	4530
2026-01-08 07:57:58.69	13.36	14.76	-27.6	-29.5	14.5	7.00e-07	0	43	0	1153433600	15	4491
2026-01-08 07:57:59.70	13.17	14.72	-27.6	-29.5	14.5	7.00e-07	0	43	0	1156579328	15	4486
2026-01-08 07:58:00.71	12.98	14.67	-27.5	-29.3	14.6	0.00e+00	0	43	0	1159725056	15	4419
2026-01-08 07:58:01.72	12.79	14.63	-27.5	-29.1	14.7	0.00e+00	0	43	0	1162870784	15	4368
2026-01-08 07:58:02.72	12.60	14.59	-27.5	-29.1	14.7	0.00e+00	0	43	0	1166016512	15	4367
2026-01-08 07:58:03.73	12.41	14.54	-27.6	-29.4	14.6	0.00e+00	0	43	0	1169162240	15	4453
2026-01-08 07:58:04.73	12.22	14.50	-27.5	-29.3	14.6	0.00e+00	0	43	0	1172307968	15	4411
2026-01-08 07:58:05.74	12.03	14.45	-27.4	-29.1	14.8	1.50e-06	0	43	0	1175453696	15	4345
2026-01-08 07:58:06.75	11.84	14.41	-27.5	-29.1	14.7	7.00e-07	0	43	0	1178599424	15	4369
2026-01-08 07:58:07.75	11.65	14.36	-27.5	-29.2	14.7	0.00e+00	0	43	0	1181745152	15	4372
2026-01-08 07:58:08.75	11.47	14.32	-27.5	-29.2	14.6	0.00e+00	0	43	0	1184890880	15	4395
2026-01-08 07:58:09.77	11.28	14.27	-27.5	-29.2	14.6	0.00e+00	0	43	0	1188036608	15	4393
2026-01-08 07:58:10.78	11.09	14.22	-27.6	-29.4	14.5	7.00e-07	0	43	0	1191182336	15	4445
2026-01-08 07:58:11.79	10.91	14.18	-27.5	-29.3	14.6	0.00e+00	0	43	0	1194328064	15	4416
2026-01-08 07:58:12.78	10.73	14.13	-27.6	-29.4	14.5	0.00e+00	0	43	0	1197473792	15	4442
2026-01-08 07:58:13.78	10.54	14.09	-27.5	-29.3	14.6	1.50e-06	0	43	0	1200619520	15	4413
2026-01-08 07:58:14.79	10.36	14.04	-27.5	-29.3	14.5	0.00e+00	0	43	0	1203765248	15	4428
2026-01-08 07:58:15.79	10.18	13.99	-27.7	-29.6	14.4	0.00e+00	0	43	0	1206910976	15	4515
2026-01-08 07:58:16.79	10.00	13.94	-27.6	-29.4	14.5	0.00e+00	0	43	0	1210056704	15	4462
2026-01-08 07:58:17.79	9.82	13.90	-27.5	-29.3	14.6	0.00e+00	0	43	0	1213202432	15	4428
2026-01-08 07:58:18.80	9.63	13.85	-27.6	-29.4	14.5	7.00e-07	0	43	0	1216348160	15	4444
2026-01-08 07:58:19.81	9.45	13.80	-27.6	-29.6	14.4	3.00e-06	0	43	0	1219493888	15	4505
2026-01-08 07:58:20.81	9.27	13.75	-27.7	-29.7	14.3	0.00e+00	0	43	0	1222639616	15	4547
2026-01-08 07:58:21.82	9.09	13.71	-27.8	-30.0	14.2	7.00e-07	0	43	0	1225785344	15	4626
2026-01-08 07:58:22.82	8.92	13.66	-27.8	-29.9	14.2	3.80e-06	0	43	0	1228931072	15	4614
2026-01-08 07:58:23.83	8.74	13.61	-27.8	-30.1	14.1	0.00e+00	0	43	0	1232076800	15	4648
2026-01-08 07:58:24.83	8.56	13.56	-27.8	-30.1	14.1	1.50e-06	0	43	0	1235222528	15	4648
2026-01-08 07:58:25.83	8.39	13.51	-27.8	-30.0	14.1	2.20e-06	0	43	0	1238368256	15	4630
2026-01-08 07:58:26.85	8.21	13.46	-27.9	-30.2	14.0	7.00e-07	0	43	0	1241513984	15	4690
2026-01-08 07:58:27.84	8.04	13.41	-27.7	-29.9	14.2	3.80e-06	0	43	0	1244659712	15	4589
2026-01-08 07:58:28.85	7.86	13.36	-27.7	-29.8	14.2	2.20e-06	0	43	0	1247805440	15	4576
2026-01-08 07:58:29.86	7.68	13.31	-27.8	-30.0	14.1	1.50e-06	0	43	0	1250951168	15	4640
2026-01-08 07:58:30.86	7.51	13.26	-27.7	-29.8	14.2	7.00e-07	0	43	0	1254096896	15	4578
2026-01-08 07:58:31.87	7.34	13.21	-27.7	-29.7	14.3	0.00e+00	0	43	0	1257242624	15	4533
2026-01-08 07:58:32.88	7.16	13.16	-27.7	-29.7	14.3	7.00e-07	0	43	0	1260388352	15	4559
2026-01-08 07:58:33.89	6.99	13.11	-27.8	-30.0	14.1	2.20e-06	0	43	0	1263534080	15	4618
2026-01-08 07:58:34.89	6.82	13.06	-27.9	-30.2	14.0	1.50e-06	0	43	0	1266679808	15	4696
2026-01-08 07:58:35.90	6.65	13.01	-27.7	-29.8	14.2	3.00e-06	0	43	0	1269825536	15	4577
2026-01-08 07:58:36.91	6.48	12.96	-27.7	-29.7	14.3	1.50e-06	0	43	0	1272971264	15	4539
2026-01-08 07:58:37.91	6.31	12.91	-27.7	-29.7	14.3	1.50e-06	0	43	0	1276116992	15	4529
2026-01-08 07:58:38.93	6.14	12.86	-27.6	-29.6	14.3	0.00e+00	0	43	0	1279262720	15	4519
2026-01-08 07:58:39.92	5.97	12.81	-27.7	-29.7	14.3	1.50e-06	0	43	0	1282408448	15	4554
2026-01-08 07:58:40.93	5.80	12.76	-27.6	-29.6	14.3	1.50e-06	0	43	0	1285554176	15	4517
2026-01-08 07:58:41.94	5.64	12.71	-27.8	-29.9	14.1	3.80e-06	0	43	0	1288699904	15	4618
2026-01-08 07:58:42.94	5.47	12.66	-27.6	-29.6	14.3	7.00e-07	0	43	0	1291845632	15	4514
2026-01-08 07:58:43.94	5.31	12.60	-27.6	-29.4	14.4	0.00e+00	0	43	0	1294991360	15	4464
2026-01-08 07:58:44.95	5.14	12.55	-27.6	-29.5	14.4	0.00e+00	0	43	0	1298137088	15	4476
2026-01-08 07:58:45.95	4.98	12.50	-27.6	-29.5	14.4	1.50e-06	0	43	0	1301282816	15	4489
2026-01-08 07:58:46.96	4.81	12.45	-27.7	-29.7	14.2	2.20e-06	0	43	0	1304428544	15	4549
2026-01-08 07:58:47.97	4.65	12.40	-27.6	-29.5	14.3	0.00e+00	0	43	0	1307574272	15	4497
2026-01-08 07:58:48.98	4.48	12.34	-27.7	-29.7	14.3	7.00e-07	0	43	0	1310720000	15	4535
2026-01-08 07:58:49.98	4.32	12.29	-27.6	-29.6	14.3	0.00e+00	0	43	0	1313865728	15	4516
2026-01-08 07:58:50.99	4.16	12.24	-27.7	-29.9	14.1	7.00e-07	0	43	0	1317011456	15	4597
2026-01-08 07:58:52.00	4.00	12.19	-27.7	-29.8	14.2	0.00e+00	0	43	0	1320157184	15	4580
2026-01-08 07:58:53.00	3.84	12.13	-27.9	-30.2	14.0	5.30e-06	0	43	0	1323302912	15	4691
2026-01-08 07:58:54.00	3.68	12.08	-27.9	-30.4	13.8	4.50e-06	0	43	0	1326448640	15	4748
2026-01-08 07:58:55.01	3.52	12.03	-28.3	-30.6	13.6	3.80e-06	0	43	0	1329594368	16	4696
2026-01-08 07:58:56.02	3.36	11.98	-28.2	-30.5	13.6	5.30e-06	0	43	0	1332740096	16	4675
2026-01-08 07:58:57.02	3.20	11.92	-28.3	-30.7	13.5	1.14e-05	0	43	0	1335885824	16	4747
2026-01-08 07:58:58.02	3.04	11.87	-28.3	-30.6	13.6	8.30e-06	0	43	0	1339031552	16	4707
2026-01-08 07:58:59.03	2.89	11.82	-28.3	-30.6	13.6	9.10e-06	0	43	0	1342177280	16	4702
2026-01-08 07:59:00.04	2.73	11.76	-28.3	-30.5	13.6	9.90e-06	0	43	0	1345323008	16	4684
2026-01-08 07:59:01.04	2.57	11.71	-28.3	-30.8	13.5	1.14e-05	0	43	0	1348468736	16	4752
2026-01-08 07:59:02.05	2.42	11.66	-28.3	-30.6	13.5	7.60e-06	0	43	0	1351614464	16	4709
2026-01-08 07:59:03.06	2.26	11.60	-28.3	-30.7	13.5	6.10e-06	0	43	0	1354760192	16	4741
2026-01-08 07:59:04.07	2.11	11.55	-28.5	-31.1	13.2	1.52e-05	0	43	0	1357905920	16	4874
2026-01-08 07:59:05.07	1.95	11.49	-28.4	-30.8	13.4	1.90e-05	0	43	0	1361051648	16	4781
2026-01-08 07:59:06.08	1.80	11.44	-28.4	-30.9	13.4	1.29e-05	0	43	0	1364197376	16	4798
2026-01-08 07:59:07.09	1.65	11.39	-28.4	-31.0	13.3	1.52e-05	0	43	0	1367343104	16	4826
2026-01-08 07:59:08.10	1.49	11.33	-28.4	-31.0	13.3	2.05e-05	0	43	0	1370488832	16	4820
2026-01-08 07:59:09.10	1.34	11.28	-28.5	-30.7	13.1	2.05e-05	0	43	0	1373634560	17	4638
2026-01-08 07:59:10.11	1.19	11.22	-28.7	-31.0	13.0	5.03e-05	0	43	0	1376780288	17	4732
2026-01-08 07:59:11.11	1.04	11.17	-28.5	-30.5	13.2	2.05e-05	0	43	0	1379926016	17	4575
2026-01-08 07:59:12.12	0.89	11.12	-28.3	-30.1	13.5	1.67e-05	0	43	0	1383071744	17	4457
2026-01-08 07:59:13.12	0.74	11.06	-28.3	-30.1	13.5	9.10e-06	0	43	0	1386217472	17	4437
2026-01-08 07:59:14.13	0.60	11.01	-28.2	-29.9	13.6	9.90e-06	0	43	0	1389363200	17	4401
2026-01-08 07:59:15.14	0.45	10.95	-28.3	-30.1	13.5	6.80e-06	0	43	0	1392508928	17	4430
2026-01-08 07:59:16.14	0.30	10.90	-28.2	-29.8	13.6	6.10e-06	0	43	0	1395654656	17	4362
2026-01-08 07:59:17.14	0.15	10.84	-28.2	-29.9	13.6	4.50e-06	0	43	0	1398800384	17	4375
2026-01-08 07:59:18.15	0.01	10.79	-28.3	-30.1	13.5	1.22e-05	0	43	0	1401946112	17	4434
2026-01-08 07:59:19.16	359.86	10.73	-28.2	-29.9	13.6	9.90e-06	0	43	0	1405091840	17	4373
2026-01-08 07:59:20.17	359.72	10.68	-28.1	-29.7	13.7	5.30e-06	0	43	0	1408237568	17	4331
2026-01-08 07:59:21.18	359.57	10.62	-28.2	-30.0	13.5	8.30e-06	0	43	0	1411383296	17	4419
2026-01-08 07:59:22.18	359.43	10.57	-28.2	-29.8	13.6	7.60e-06	0	43	0	1414529024	17	4361
2026-01-08 07:59:23.18	359.28	10.51	-28.2	-29.9	13.6	6.10e-06	0	43	0	1417674752	17	4397
2026-01-08 07:59:24.18	359.14	10.46	-28.2	-29.9	13.6	6.80e-06	0	43	0	1420820480	17	4377
2026-01-08 07:59:25.19	359.00	10.40	-28.2	-29.8	13.6	1.06e-05	0	43	0	1423966208	17	4367
2026-01-08 07:59:26.19	358.86	10.35	-28.2	-30.0	13.5	6.80e-06	0	43	0	1427111936	17	4409
2026-01-08 07:59:27.20	358.72	10.29	-28.4	-30.3	13.3	1.75e-05	0	43	0	1430257664	17	4508
2026-01-08 07:59:28.20	358.58	10.24	-28.3	-30.1	13.4	1.22e-05	0	43	0	1433403392	17	4458
2026-01-08 07:59:29.22	358.43	10.18	-28.3	-30.3	13.3	1.90e-05	0	43	0	1436549120	17	4517
2026-01-08 07:59:30.23	358.29	10.13	-28.5	-30.6	13.1	2.28e-05	0	43	0	1439694848	17	4603
2026-01-08 07:59:31.23	358.15	10.07	-28.4	-30.3	13.3	1.98e-05	0	43	0	1442840576	17	4520
2026-01-08 07:59:32.24	358.02	10.02	-28.3	-30.1	13.4	1.29e-05	0	43	0	1445986304	17	4462
2026-01-08 07:59:33.24	357.88	9.96	-28.3	-30.1	13.4	1.52e-05	0	43	0	1449132032	17	4453
2026-01-08 07:59:34.25	357.74	9.90	-28.2	-30.0	13.5	1.29e-05	0	43	0	1452277760	17	4424
2026-01-08 07:59:35.26	357.60	9.85	-28.2	-30.0	13.4	1.29e-05	0	43	0	1455423488	17	4424
2026-01-08 07:59:36.27	357.47	9.79	-28.2	-30.0	13.4	1.06e-05	0	43	0	1458569216	17	4420
2026-01-08 07:59:37.28	357.33	9.74	-28.2	-30.0	13.4	1.14e-05	0	43	0	1461714944	17	4425
2026-01-08 07:59:38.29	357.19	9.68	-28.2	-29.9	13.5	6.80e-06	0	43	0	1464860672	17	4377
2026-01-08 07:59:39.30	357.06	9.63	-28.3	-30.1	13.4	1.14e-05	0	43	0	1468006400	17	4442
2026-01-08 07:59:40.31	356.92	9.57	-28.3	-30.1	13.4	9.90e-06	0	43	0	1471152128	17	4444
2026-01-08 07:59:41.31	356.79	9.51	-28.3	-30.1	13.4	1.44e-05	0	43	0	1474297856	17	4450
2026-01-08 07:59:42.33	356.65	9.46	-28.3	-30.2	13.3	1.52e-05	0	43	0	1477443584	17	4490
2026-01-08 07:59:43.33	356.52	9.40	-28.3	-30.2	13.3	1.90e-05	0	43	0	1480589312	17	4471
2026-01-08 07:59:44.34	356.39	9.35	-28.4	-30.5	13.2	1.83e-05	0	43	0	1483735040	17	4560
2026-01-08 07:59:45.35	356.26	9.29	-28.3	-30.3	13.3	1.98e-05	0	43	0	1486880768	17	4501
2026-01-08 07:59:46.35	356.13	9.23	-28.4	-30.5	13.2	2.21e-05	0	43	0	1490026496	17	4571
2026-01-08 07:59:47.36	356.00	9.18	-28.4	-30.4	13.1	1.44e-05	0	43	0	1493172224	17	4557
2026-01-08 07:59:48.37	355.86	9.12	-28.4	-30.4	13.2	2.51e-05	0	43	0	1496317952	17	4541
2026-01-08 07:59:49.37	355.74	9.07	-28.6	-30.9	12.9	5.26e-05	0	43	0	1499463680	17	4710
2026-01-08 07:59:50.38	355.61	9.01	-28.6	-30.9	12.9	4.34e-05	0	43	0	1502609408	17	4701
2026-01-08 07:59:51.39	355.48	8.95	-28.5	-30.8	12.9	4.50e-05	0	43	0	1505755136	17	4674
2026-01-08 07:59:52.39	355.35	8.90	-28.5	-30.8	12.9	3.96e-05	0	43	0	1508900864	17	4672
2026-01-08 07:59:53.40	355.22	8.84	-28.5	-30.8	12.9	3.50e-05	0	43	0	1512046592	17	4674
2026-01-08 07:59:54.41	355.09	8.79	-28.7	-31.1	12.7	6.48e-05	0	43	0	1515192320	17	4771
2026-01-08 07:59:55.42	354.97	8.73	-28.6	-31.0	12.8	7.40e-05	0	43	0	1518338048	17	4741
2026-01-08 07:59:56.43	354.84	8.67	-28.7	-31.2	12.6	8.31e-05	0	43	0	1521483776	17	4797
2026-01-08 07:59:57.44	354.71	8.62	-28.7	-31.2	12.6	8.85e-05	0	43	0	1524629504	17	4810
2026-01-08 07:59:58.44	354.59	8.56	-28.7	-31.2	12.6	8.85e-05	0	43	0	1527775232	17	4811
2026-01-08 07:59:59.45	354.46	8.51	-28.7	-31.1	12.7	1.05e-04	0	43	0	1530920960	17	4789
2026-01-08 08:00:00.45	354.34	8.45	-28.7	-31.2	12.6	1.46e-04	0	43	0	1534066688	17	4808
2026-01-08 08:00:01.45	354.22	8.39	-28.7	-31.3	12.5	9.76e-05	0	43	0	1537212416	17	4847
2026-01-08 08:00:02.46	354.09	8.34	-28.7	-31.3	12.5	1.30e-04	0	43	0	1540358144	17	4845
2026-01-08 08:00:03.46	353.97	8.28	-28.7	-31.3	12.5	1.12e-04	0	43	0	1543503872	17	4840
2026-01-08 08:00:04.47	353.85	8.23	-28.7	-31.1	12.6	7.24e-05	0	43	0	1546649600	17	4791
2026-01-08 08:00:05.48	353.73	8.17	-28.7	-31.1	12.6	1.03e-04	0	43	0	1549795328	17	4788
2026-01-08 08:00:06.48	353.61	8.11	-28.7	-31.3	12.5	1.27e-04	0	43	0	1552941056	17	4840
2026-01-08 08:00:07.49	353.48	8.06	-28.7	-31.3	12.5	1.20e-04	0	43	0	1556086784	17	4854
2026-01-08 08:00:08.50	353.36	8.00	-28.8	-31.6	12.3	1.48e-04	0	43	0	1559232512	17	4956
2026-01-08 08:00:09.51	353.24	7.95	-28.9	-31.8	12.1	2.04e-04	0	43	0	1562378240	17	5028
2026-01-08 08:00:10.52	353.12	7.89	-28.9	-31.2	12.3	2.23e-04	0	43	0	1565523968	18	4690
2026-01-08 08:00:11.53	353.00	7.83	-28.9	-31.3	12.2	1.49e-04	0	43	0	1568669696	18	4724
2026-01-08 08:00:12.53	352.89	7.78	-28.8	-31.0	12.4	1.40e-04	0	43	0	1571815424	18	4646
2026-01-08 08:00:13.52	352.77	7.72	-28.7	-30.8	12.5	1.56e-04	0	43	0	1574961152	18	4579
2026-01-08 08:00:14.53	352.65	7.67	-28.7	-30.8	12.5	1.10e-04	0	43	0	1578106880	18	4585
2026-01-08 08:00:15.54	352.53	7.61	-28.6	-30.5	12.7	1.06e-04	0	43	0	1581252608	18	4472
2026-01-08 08:00:16.55	352.42	7.55	-28.6	-30.4	12.7	6.71e-05	0	43	0	1584398336	18	4452
2026-01-08 08:00:17.55	352.30	7.50	-28.6	-30.5	12.7	7.93e-05	0	43	0	1587544064	18	4471
2026-01-08 08:00:18.56	352.19	7.44	-28.6	-30.5	12.7	7.93e-05	0	43	0	1590689792	18	4488
2026-01-08 08:00:19.57	352.07	7.39	-28.5	-30.3	12.8	4.50e-05	0	43	0	1593835520	18	4405
2026-01-08 08:00:20.57	351.96	7.33	-28.5	-30.3	12.8	5.79e-05	0	43	0	1596981248	18	4415
2026-01-08 08:00:21.57	351.84	7.27	-28.4	-30.1	12.8	5.79e-05	0	43	0	1600126976	18	4371
2026-01-08 08:00:22.58	351.73	7.22	-28.6	-30.5	12.6	9.38e-05	0	43	0	1603272704	18	4472
2026-01-08 08:00:23.58	351.62	7.16	-28.6	-30.6	12.5	1.13e-04	0	43	0	1606418432	18	4525
2026-01-08 08:00:24.59	351.50	7.11	-28.6	-30.6	12.5	1.21e-04	0	43	0	1609564160	18	4528
2026-01-08 08:00:25.60	351.39	7.05	-32.8	-44.0	3.8	1.49e-02	0	43	104	1612709888	25	13080
2026-01-08 08:00:26.61	351.28	6.99	-33.2	-45.1	3.8	1.49e+00	0	43	104	1612709888	26	14240

#Closed at: 2026-01-08 08:00:27
#Recorded file [1612 MB]: D:/data/31010_260108_105149.dat