passes_logs/2026/01/08/R2M6_AANII_01/R2M6_AANII_01__20260108_043244_FENGYUN_3E_rec.log

#Pass ID: 20260108_043244_FENGYUN 3E
#Satellite: FENGYUN 3E
#Configuration: FENGYUN 3E
#almurnet v.1.7.20240730
#Start time: 2026-01-08 04:36:58

#Version: 2.2.20231116
#Station: R2M6_AANII_01
#Location: 30.233357 lon 59.946436 lat
#TLE: 1 49008U 21062A   26006.26767912  .00000427  00000+0  22170-3 0  9993
#TLE: 2 49008  98.7475  11.4982 0001602 156.1158 204.0093 14.19885456233607

#Time	Az	El	Level	Level2	SNR	BER	BlckErr	Temp	State	Recorded	gain1	gain2
2026-01-08 04:36:58.78	22.65	43.88	-33.3	-44.6	3.8	8.45e-01	0	43	0	0	26	13264
2026-01-08 04:36:59.77	22.69	44.17	-34.0	-42.8	3.8	8.45e-01	0	43	104	0	29	9929
2026-01-08 04:37:00.77	22.74	44.46	-34.0	-42.8	3.8	8.46e-01	0	43	104	0	29	9933
2026-01-08 04:37:01.76	22.78	44.75	-34.1	-42.9	3.8	8.46e-01	0	43	104	0	29	9974
2026-01-08 04:37:02.77	22.83	45.05	-34.1	-43.0	3.8	8.47e-01	0	43	104	0	29	10029
2026-01-08 04:37:03.77	22.88	45.35	-34.1	-42.9	3.8	8.46e-01	0	43	104	0	29	9995
2026-01-08 04:37:04.77	22.93	45.66	-34.1	-43.1	3.8	8.47e-01	0	43	104	0	29	10103
2026-01-08 04:37:05.77	22.98	45.96	-34.1	-43.0	3.8	8.45e-01	0	43	104	0	29	10065
2026-01-08 04:37:06.77	23.03	46.27	-34.1	-43.0	3.8	8.46e-01	0	43	104	0	29	10077
2026-01-08 04:37:07.77	23.08	46.58	-34.1	-42.9	3.8	8.45e-01	0	43	104	0	29	10021
2026-01-08 04:37:08.77	23.13	46.89	-34.0	-42.9	3.8	8.46e-01	0	43	104	0	29	10035
2026-01-08 04:37:09.77	23.19	47.20	-34.0	-42.9	3.8	8.46e-01	0	43	104	0	29	10027
2026-01-08 04:37:10.77	23.24	47.52	-34.0	-42.9	3.8	8.47e-01	0	43	104	0	29	9988
2026-01-08 04:37:11.76	23.29	47.83	-34.0	-42.9	3.8	8.46e-01	0	43	104	0	29	10000
2026-01-08 04:37:12.76	23.35	48.16	-34.0	-42.8	3.8	8.48e-01	0	43	104	0	29	9955
2026-01-08 04:37:13.76	23.41	48.48	-34.0	-42.9	3.8	8.46e-01	0	43	104	0	29	9998
2026-01-08 04:37:14.76	23.47	48.80	-34.0	-42.9	3.8	8.46e-01	0	43	104	0	29	9974
2026-01-08 04:37:15.75	23.53	49.13	-34.0	-42.9	3.8	8.46e-01	0	43	104	0	29	10036
2026-01-08 04:37:16.73	23.59	49.45	-34.0	-43.0	3.8	8.46e-01	0	43	104	0	29	10048
2026-01-08 04:37:17.74	23.65	49.79	-34.0	-42.9	3.8	8.46e-01	0	43	104	0	29	10039
2026-01-08 04:37:18.74	23.72	50.12	-34.0	-42.9	3.8	8.47e-01	0	43	104	0	29	10024
2026-01-08 04:37:19.74	23.78	50.46	-34.0	-42.7	3.8	8.45e-01	0	43	104	0	29	9891
2026-01-08 04:37:20.75	23.85	50.81	-33.9	-42.7	3.8	8.47e-01	0	43	104	0	29	9919
2026-01-08 04:37:21.74	23.92	51.15	-33.8	-42.9	3.8	8.48e-01	0	43	104	0	28	10335
2026-01-08 04:37:22.75	23.99	51.49	-33.7	-42.8	3.8	8.47e-01	0	43	104	0	28	10272
2026-01-08 04:37:23.76	24.06	51.85	-33.7	-42.8	3.8	8.45e-01	0	43	104	0	28	10199
2026-01-08 04:37:24.76	24.13	52.20	-33.7	-42.7	3.8	8.45e-01	0	43	104	0	28	10143
2026-01-08 04:37:25.75	24.20	52.55	-33.7	-42.8	3.8	8.46e-01	0	43	104	0	28	10222
2026-01-08 04:37:26.75	24.28	52.90	-33.7	-42.7	3.8	8.46e-01	0	44	104	0	28	10184
2026-01-08 04:37:27.75	24.36	53.26	-33.7	-42.7	3.8	8.47e-01	0	43	104	0	28	10157
2026-01-08 04:37:28.75	24.44	53.62	-33.7	-42.7	3.8	8.46e-01	0	43	104	0	28	10194
2026-01-08 04:37:29.76	24.52	53.99	-33.7	-42.8	3.8	8.45e-01	0	43	104	0	28	10202
2026-01-08 04:37:30.77	24.60	54.36	-33.7	-42.7	3.8	8.46e-01	0	43	104	0	28	10155
2026-01-08 04:37:31.77	24.69	54.72	-33.7	-42.6	3.8	8.45e-01	0	43	104	0	28	10091
2026-01-08 04:37:32.76	24.78	55.09	-33.7	-42.5	3.8	8.45e-01	0	43	104	0	28	9913
2026-01-08 04:37:33.77	24.87	55.47	-33.7	-42.4	3.8	8.45e-01	0	43	104	0	28	9892
2026-01-08 04:37:34.78	24.96	55.85	-33.6	-42.4	3.8	8.48e-01	0	43	104	0	28	9828
2026-01-08 04:37:35.78	25.06	56.23	-33.7	-42.4	3.8	8.47e-01	0	43	104	0	28	9887
2026-01-08 04:37:36.78	25.15	56.61	-33.7	-42.5	3.8	8.47e-01	0	44	104	0	28	9926
2026-01-08 04:37:37.77	25.25	56.99	-33.7	-42.6	3.8	8.46e-01	0	43	104	0	28	10073
2026-01-08 04:37:38.78	25.36	57.38	-33.7	-42.6	3.8	8.47e-01	0	43	104	0	28	10076
2026-01-08 04:37:39.79	25.46	57.77	-33.7	-42.6	3.8	8.46e-01	0	43	104	0	28	10028
2026-01-08 04:37:40.79	25.57	58.16	-33.6	-42.1	3.8	8.46e-01	0	43	104	0	28	9523
2026-01-08 04:37:41.79	25.69	58.55	-33.4	-40.4	3.8	8.47e-01	0	43	104	0	28	8076
2026-01-08 04:37:42.79	25.80	58.95	-33.3	-39.8	3.9	8.43e-01	0	44	104	0	27	7651
2026-01-08 04:37:43.79	25.92	59.35	-33.4	-40.4	4.0	8.44e-01	0	44	104	0	27	8074
2026-01-08 04:37:44.80	26.04	59.75	-33.6	-42.0	3.8	8.45e-01	0	44	104	0	27	9530
2026-01-08 04:37:45.79	26.17	60.15	-33.7	-42.6	3.8	8.46e-01	0	43	104	0	27	10089
2026-01-08 04:37:46.79	26.30	60.56	-33.6	-42.4	3.8	8.45e-01	0	43	104	0	27	9924
2026-01-08 04:37:47.79	26.43	60.97	-33.6	-41.9	3.8	8.46e-01	0	43	104	0	27	9392
2026-01-08 04:37:48.79	26.57	61.38	-33.4	-40.8	3.8	8.46e-01	0	44	104	0	27	8380
2026-01-08 04:37:49.78	26.71	61.79	-32.8	-37.9	4.7	8.28e-01	0	43	0	0	26	6481
2026-01-08 04:37:50.79	26.86	62.21	-32.0	-35.4	6.1	5.00e-01	0	44	0	1048576	25	5295
2026-01-08 04:37:51.80	27.01	62.63	-30.0	-31.8	10.0	3.97e-02	0	43	0	8388608	20	4451
2026-01-08 04:37:52.80	27.17	63.05	-26.5	-26.7	14.7	5.70e-06	0	43	0	15728640	14	3684
2026-01-08 04:37:53.80	27.33	63.48	-26.0	-26.1	15.4	0.00e+00	0	44	0	23068672	13	3625
2026-01-08 04:37:54.81	27.51	63.91	-26.3	-27.2	15.0	0.00e+00	0	44	0	29360128	12	3987
2026-01-08 04:37:55.82	27.68	64.34	-26.0	-26.5	15.4	0.00e+00	0	43	0	36700160	12	3823
2026-01-08 04:37:56.82	27.87	64.77	-25.3	-25.5	16.2	0.00e+00	0	43	0	44040192	11	3681
2026-01-08 04:37:57.82	28.05	65.20	-25.4	-25.8	16.2	0.00e+00	0	44	0	51380224	11	3757
2026-01-08 04:37:58.82	28.25	65.64	-25.5	-26.0	16.1	0.00e+00	0	44	0	58720256	11	3801
2026-01-08 04:37:59.83	28.46	66.08	-26.3	-27.2	15.0	0.00e+00	0	43	0	66060288	12	4001
2026-01-08 04:38:00.83	28.67	66.52	-25.7	-26.0	15.6	0.00e+00	0	43	0	73400320	12	3722
2026-01-08 04:38:01.82	28.89	66.95	-24.6	-24.5	17.0	0.00e+00	0	44	0	80740352	10	3560
2026-01-08 04:38:02.83	29.12	67.40	-24.2	-24.2	17.5	0.00e+00	0	43	0	88080384	9	3611
2026-01-08 04:38:03.82	29.36	67.84	-23.6	-23.4	18.2	0.00e+00	0	43	0	94371840	8	3528
2026-01-08 04:38:04.83	29.61	68.29	-23.0	-22.7	18.7	0.00e+00	0	43	0	102760448	7	3476
2026-01-08 04:38:05.82	29.87	68.74	-22.9	-22.9	18.9	0.00e+00	0	43	0	109051904	6	3615
2026-01-08 04:38:06.80	30.14	69.18	-23.1	-23.4	18.6	0.00e+00	0	43	0	116391936	6	3720
2026-01-08 04:38:07.80	30.43	69.63	-23.3	-23.3	18.3	0.00e+00	0	44	0	123731968	7	3604
2026-01-08 04:38:08.81	30.73	70.09	-23.5	-23.7	18.2	0.00e+00	0	44	0	131072000	7	3693
2026-01-08 04:38:09.81	31.05	70.55	-23.2	-23.0	18.6	2.20e-06	0	44	0	138412032	7	3547
2026-01-08 04:38:10.81	31.38	71.00	-22.9	-23.0	18.9	0.00e+00	0	44	0	145752064	6	3645
2026-01-08 04:38:11.80	31.73	71.46	-23.2	-23.5	18.6	0.00e+00	0	44	0	153092096	6	3755
2026-01-08 04:38:12.80	32.10	71.92	-23.1	-22.8	18.3	0.00e+00	0	44	0	159383552	7	3494
2026-01-08 04:38:13.80	32.49	72.38	-23.7	-24.2	18.0	0.00e+00	0	44	0	166723584	7	3815
2026-01-08 04:38:14.80	32.90	72.84	-23.5	-23.8	18.2	0.00e+00	0	43	0	174063616	7	3714
2026-01-08 04:38:15.79	33.33	73.30	-23.4	-23.6	18.3	0.00e+00	0	44	0	181403648	7	3666
2026-01-08 04:38:16.79	33.79	73.77	-23.3	-23.4	18.4	0.00e+00	0	44	0	188743680	7	3617
2026-01-08 04:38:17.79	34.27	74.23	-23.3	-23.2	18.6	0.00e+00	0	44	0	196083712	7	3581
2026-01-08 04:38:18.79	34.79	74.70	-23.4	-23.5	18.4	2.20e-06	0	43	0	203423744	7	3650
2026-01-08 04:38:19.79	35.34	75.16	-23.1	-22.8	18.8	0.00e+00	0	44	0	210763776	7	3501
2026-01-08 04:38:20.79	35.93	75.63	-23.3	-23.2	18.5	0.00e+00	0	44	0	217055232	7	3598
2026-01-08 04:38:21.78	36.56	76.09	-22.9	-22.5	19.0	0.00e+00	0	44	0	224395264	7	3428
2026-01-08 04:38:22.78	37.23	76.56	-22.5	-22.2	19.2	0.00e+00	0	43	0	231735296	6	3475
2026-01-08 04:38:23.77	37.95	77.02	-22.3	-22.3	19.5	0.00e+00	0	44	0	239075328	5	3579
2026-01-08 04:38:24.77	38.73	77.49	-22.0	-21.6	19.9	0.00e+00	0	44	0	246415360	5	3432
2026-01-08 04:38:25.77	39.57	77.95	-21.8	-21.7	20.0	0.00e+00	0	44	0	253755392	4	3557
2026-01-08 04:38:26.77	40.48	78.42	-21.6	-21.4	20.2	0.00e+00	0	43	0	260046848	4	3493
2026-01-08 04:38:27.76	41.45	78.87	-21.4	-21.4	20.5	0.00e+00	0	44	0	267386880	3	3598
2026-01-08 04:38:28.76	42.53	79.33	-21.7	-22.0	20.2	0.00e+00	0	44	0	274726912	3	3720
2026-01-08 04:38:29.76	43.70	79.79	-21.4	-21.4	20.5	0.00e+00	0	43	0	282066944	3	3601
2026-01-08 04:38:30.77	44.99	80.25	-21.5	-21.7	20.4	0.00e+00	0	43	0	289406976	3	3648
2026-01-08 04:38:31.76	46.38	80.69	-21.5	-21.6	20.4	0.00e+00	0	44	0	296747008	3	3636
2026-01-08 04:38:32.77	47.95	81.14	-21.2	-21.0	20.7	0.00e+00	0	43	0	304087040	3	3502
2026-01-08 04:38:33.77	49.67	81.57	-21.3	-21.2	20.5	0.00e+00	0	44	0	311427072	3	3559
2026-01-08 04:38:34.77	51.57	82.00	-21.6	-21.9	20.2	0.00e+00	0	43	0	318767104	3	3707
2026-01-08 04:38:35.77	53.69	82.43	-21.9	-22.4	20.0	0.00e+00	0	44	0	325058560	3	3810
2026-01-08 04:38:36.76	56.03	82.83	-21.6	-21.7	20.3	0.00e+00	0	43	0	332398592	3	3667
2026-01-08 04:38:37.77	58.71	83.23	-21.3	-21.2	20.5	0.00e+00	0	44	0	339738624	3	3544
2026-01-08 04:38:38.77	61.69	83.61	-21.4	-21.3	20.6	0.00e+00	0	44	0	347078656	3	3568
2026-01-08 04:38:39.77	65.04	83.98	-21.6	-21.9	20.3	0.00e+00	0	44	0	354418688	3	3695
2026-01-08 04:38:40.76	68.77	84.31	-21.9	-22.3	20.1	0.00e+00	0	44	0	361758720	3	3797
2026-01-08 04:38:41.77	73.04	84.63	-22.2	-22.6	19.7	0.00e+00	0	43	0	369098752	4	3746
2026-01-08 04:38:42.77	77.77	84.91	-22.8	-23.3	19.1	0.00e+00	0	43	0	376438784	5	3803
2026-01-08 04:38:43.77	83.01	85.15	-23.5	-24.3	18.4	0.00e+00	0	43	0	382730240	6	3930
2026-01-08 04:38:44.77	88.75	85.35	-23.9	-24.6	18.0	0.00e+00	0	43	0	390070272	7	3889
2026-01-08 04:38:45.77	94.94	85.50	-23.8	-24.3	18.2	0.00e+00	0	43	0	397410304	7	3812
2026-01-08 04:38:46.77	101.47	85.59	-23.6	-24.0	18.4	0.00e+00	0	43	0	404750336	7	3744
2026-01-08 04:38:47.77	108.19	85.63	-23.7	-24.0	18.3	0.00e+00	0	44	0	412090368	7	3759
2026-01-08 04:38:48.76	114.86	85.60	-23.8	-24.4	18.1	0.00e+00	0	43	0	419430400	7	3856
2026-01-08 04:38:49.76	121.42	85.52	-23.7	-24.1	18.2	0.00e+00	0	44	0	426770432	7	3786
2026-01-08 04:38:50.76	127.66	85.38	-23.4	-23.6	18.6	0.00e+00	0	44	0	434110464	7	3651
2026-01-08 04:38:51.76	133.47	85.18	-23.5	-23.7	18.5	0.00e+00	0	44	0	441450496	7	3673
2026-01-08 04:38:52.76	138.78	84.95	-23.8	-24.3	18.3	0.00e+00	0	43	0	447741952	7	3816
2026-01-08 04:38:53.75	143.53	84.67	-23.8	-24.4	18.2	0.00e+00	0	43	0	455081984	7	3841
2026-01-08 04:38:54.76	147.87	84.36	-23.8	-24.4	18.1	0.00e+00	0	44	0	462422016	7	3849
2026-01-08 04:38:55.76	151.70	84.02	-23.5	-23.7	18.5	0.00e+00	0	44	0	469762048	7	3690
2026-01-08 04:38:56.75	155.08	83.67	-23.1	-22.9	18.9	0.00e+00	0	44	0	477102080	7	3506
2026-01-08 04:38:57.75	158.11	83.29	-23.1	-22.9	19.0	0.00e+00	0	44	0	484442112	7	3510
2026-01-08 04:38:58.76	160.83	82.89	-23.1	-22.9	19.0	0.00e+00	0	43	0	491782144	7	3514
2026-01-08 04:38:59.76	163.24	82.48	-23.2	-23.0	18.9	0.00e+00	0	44	0	499122176	7	3536
2026-01-08 04:39:00.76	165.39	82.06	-23.7	-24.2	18.3	0.00e+00	0	43	0	506462208	7	3785
2026-01-08 04:39:01.77	167.34	81.63	-23.3	-23.3	18.7	0.00e+00	0	43	0	512753664	7	3598
2026-01-08 04:39:02.77	169.08	81.19	-22.8	-22.8	19.2	0.00e+00	0	44	0	520093696	6	3591
2026-01-08 04:39:03.77	170.65	80.75	-22.3	-22.1	19.7	0.00e+00	0	44	0	527433728	5	3549
2026-01-08 04:39:04.77	172.07	80.30	-21.9	-21.8	20.2	0.00e+00	0	44	0	534773760	4	3575
2026-01-08 04:39:05.76	173.36	79.85	-21.7	-21.5	20.3	0.00e+00	0	44	0	542113792	4	3518
2026-01-08 04:39:06.76	174.54	79.39	-21.7	-21.6	20.3	0.00e+00	0	44	0	549453824	4	3528
2026-01-08 04:39:07.75	175.62	78.94	-21.7	-21.4	20.4	0.00e+00	0	43	0	556793856	4	3505
2026-01-08 04:39:08.75	176.62	78.48	-21.8	-21.6	20.2	0.00e+00	0	43	0	564133888	4	3540
2026-01-08 04:39:09.75	177.54	78.01	-21.8	-21.6	20.3	0.00e+00	0	44	0	570425344	4	3539
2026-01-08 04:39:10.75	178.39	77.55	-21.9	-21.9	20.1	0.00e+00	0	44	0	577765376	4	3608
2026-01-08 04:39:11.75	179.18	77.08	-22.2	-22.6	19.8	0.00e+00	0	43	0	585105408	4	3753
2026-01-08 04:39:12.75	179.91	76.61	-22.3	-22.6	19.7	0.00e+00	0	44	0	592445440	4	3759
2026-01-08 04:39:13.75	180.59	76.15	-22.7	-23.0	19.2	0.00e+00	0	44	0	599785472	5	3738
2026-01-08 04:39:14.75	181.22	75.68	-23.1	-23.8	18.9	0.00e+00	0	44	0	607125504	5	3931
2026-01-08 04:39:15.76	181.82	75.21	-23.5	-23.7	18.2	0.00e+00	0	43	0	614465536	7	3683
2026-01-08 04:39:16.75	182.37	74.74	-23.7	-24.2	18.2	0.00e+00	0	44	0	621805568	7	3788
2026-01-08 04:39:17.75	182.90	74.28	-23.7	-24.1	18.3	0.00e+00	0	44	0	629145600	7	3786
2026-01-08 04:39:18.75	183.39	73.81	-23.7	-24.2	18.2	0.00e+00	0	43	0	635437056	7	3804
2026-01-08 04:39:19.76	183.86	73.34	-23.9	-24.5	18.1	0.00e+00	0	43	0	642777088	7	3874
2026-01-08 04:39:20.76	184.29	72.88	-23.9	-24.5	18.1	0.00e+00	0	44	0	650117120	7	3879
2026-01-08 04:39:21.76	184.70	72.41	-23.7	-24.1	18.2	0.00e+00	0	44	0	657457152	7	3779
2026-01-08 04:39:22.76	185.10	71.95	-23.6	-23.8	18.3	0.00e+00	0	43	0	664797184	7	3710
2026-01-08 04:39:23.76	185.47	71.49	-23.8	-24.4	18.1	0.00e+00	0	44	0	672137216	7	3839
2026-01-08 04:39:24.76	185.82	71.03	-24.0	-24.7	17.9	0.00e+00	0	44	0	679477248	7	3913
2026-01-08 04:39:25.77	186.15	70.56	-23.9	-24.7	17.9	0.00e+00	0	44	0	686817280	7	3913
2026-01-08 04:39:26.76	186.47	70.11	-23.8	-24.3	18.1	3.40e-06	0	44	0	693108736	7	3825
2026-01-08 04:39:27.76	186.77	69.66	-23.5	-23.8	18.4	0.00e+00	0	44	0	700448768	7	3708
2026-01-08 04:39:28.76	187.06	69.20	-23.3	-23.4	18.5	0.00e+00	0	44	0	707788800	7	3631
2026-01-08 04:39:29.75	187.33	68.76	-23.3	-23.3	18.6	0.00e+00	0	43	0	715128832	7	3592
2026-01-08 04:39:30.75	187.60	68.31	-23.2	-23.1	18.7	0.00e+00	0	44	0	722468864	7	3556
2026-01-08 04:39:31.74	187.85	67.86	-23.1	-22.9	18.7	0.00e+00	0	44	0	729808896	7	3519
2026-01-08 04:39:32.74	188.09	67.41	-23.0	-22.7	18.8	0.00e+00	0	43	0	737148928	7	3477
2026-01-08 04:39:33.75	188.32	66.97	-23.3	-23.2	18.6	0.00e+00	0	44	0	744488960	7	3588
2026-01-08 04:39:34.76	188.55	66.52	-23.3	-23.3	18.6	0.00e+00	0	43	0	751828992	7	3603
2026-01-08 04:39:35.76	188.76	66.08	-23.3	-23.3	18.6	0.00e+00	0	44	0	758120448	7	3605
2026-01-08 04:39:36.76	188.96	65.64	-23.3	-23.2	18.6	0.00e+00	0	44	0	765460480	7	3587
2026-01-08 04:39:37.77	189.16	65.20	-23.3	-23.3	18.6	0.00e+00	0	44	0	772800512	7	3607
2026-01-08 04:39:38.78	189.35	64.76	-23.4	-23.4	18.5	0.00e+00	0	44	0	780140544	7	3625
2026-01-08 04:39:39.77	189.53	64.33	-23.7	-24.1	18.2	0.00e+00	0	43	0	787480576	7	3781
2026-01-08 04:39:40.77	189.71	63.91	-23.8	-24.4	18.0	0.00e+00	0	44	0	794820608	7	3841
2026-01-08 04:39:41.77	189.88	63.48	-23.8	-24.4	18.0	0.00e+00	0	44	0	802160640	7	3844
2026-01-08 04:39:42.78	190.05	63.05	-23.5	-23.8	18.3	0.00e+00	0	44	0	809500672	7	3713
2026-01-08 04:39:43.79	190.21	62.62	-23.4	-23.6	18.4	0.00e+00	0	44	0	816840704	7	3658
2026-01-08 04:39:44.79	190.36	62.20	-23.6	-24.0	18.2	0.00e+00	0	44	0	824180736	7	3750
2026-01-08 04:39:45.78	190.50	61.79	-24.0	-24.7	17.8	0.00e+00	0	43	0	831520768	7	3921
2026-01-08 04:39:46.77	190.65	61.38	-24.3	-25.0	17.5	0.00e+00	0	43	0	837812224	8	3873
2026-01-08 04:39:47.77	190.78	60.97	-24.6	-25.5	17.2	0.00e+00	0	43	0	845152256	8	4014
2026-01-08 04:39:48.77	190.92	60.56	-24.9	-25.7	16.8	0.00e+00	0	43	0	852492288	9	3947
2026-01-08 04:39:49.77	191.05	60.15	-25.1	-25.6	16.6	0.00e+00	0	44	0	859832320	10	3811
2026-01-08 04:39:50.76	191.17	59.75	-25.1	-25.6	16.6	0.00e+00	0	43	0	867172352	10	3822
2026-01-08 04:39:51.77	191.30	59.34	-25.3	-26.0	16.3	0.00e+00	0	44	0	874512384	10	3920
2026-01-08 04:39:52.77	191.42	58.94	-25.4	-26.3	16.2	0.00e+00	0	44	0	880803840	10	3980
2026-01-08 04:39:53.76	191.53	58.55	-25.5	-26.4	16.2	0.00e+00	0	43	0	888143872	10	4014
2026-01-08 04:39:54.77	191.64	58.15	-25.6	-26.6	16.1	0.00e+00	0	43	0	895483904	10	4065
2026-01-08 04:39:55.76	191.75	57.76	-25.4	-26.2	16.3	0.00e+00	0	43	0	902823936	10	3963
2026-01-08 04:39:56.76	191.86	57.37	-25.1	-25.6	16.6	0.00e+00	0	43	0	910163968	10	3822
2026-01-08 04:39:57.76	191.96	56.98	-25.0	-25.4	16.7	0.00e+00	0	44	0	917504000	10	3757
2026-01-08 04:39:58.76	192.06	56.60	-25.2	-25.8	16.5	0.00e+00	0	44	0	924844032	10	3854
2026-01-08 04:39:59.77	192.16	56.21	-25.0	-25.5	16.7	0.00e+00	0	43	0	932184064	10	3778
2026-01-08 04:40:00.76	192.25	55.83	-25.2	-25.9	16.4	0.00e+00	0	44	0	939524096	10	3881
2026-01-08 04:40:01.76	192.35	55.46	-25.2	-25.8	16.5	0.00e+00	0	44	0	945815552	10	3849
2026-01-08 04:40:02.76	192.44	55.08	-24.8	-25.1	16.7	0.00e+00	0	44	0	953155584	10	3686
2026-01-08 04:40:03.76	192.52	54.71	-24.8	-24.9	16.9	0.00e+00	0	44	0	960495616	10	3656
2026-01-08 04:40:04.76	192.61	54.34	-24.6	-24.6	17.1	0.00e+00	0	44	0	967835648	10	3580
2026-01-08 04:40:05.77	192.70	53.97	-24.6	-24.5	17.2	0.00e+00	0	44	0	975175680	10	3554
2026-01-08 04:40:06.77	192.78	53.60	-24.5	-24.3	17.2	0.00e+00	0	44	0	982515712	10	3533
2026-01-08 04:40:07.77	192.86	53.24	-24.4	-24.6	17.3	0.00e+00	0	44	0	989855744	9	3696
2026-01-08 04:40:08.77	192.93	52.88	-24.6	-25.0	17.1	0.00e+00	0	43	0	997195776	9	3782
2026-01-08 04:40:09.76	193.01	52.53	-24.5	-24.8	17.2	0.00e+00	0	43	0	1004535808	9	3732
2026-01-08 04:40:10.75	193.08	52.18	-24.5	-24.9	17.1	0.00e+00	0	43	0	1010827264	9	3760
2026-01-08 04:40:11.75	193.16	51.83	-24.7	-25.2	17.0	0.00e+00	0	44	0	1018167296	9	3814
2026-01-08 04:40:12.74	193.23	51.48	-24.6	-25.0	17.1	0.00e+00	0	43	0	1025507328	9	3778
2026-01-08 04:40:13.74	193.30	51.13	-24.6	-25.0	17.1	0.00e+00	0	43	0	1032847360	9	3788
2026-01-08 04:40:14.74	193.36	50.79	-24.8	-25.4	16.9	0.00e+00	0	43	0	1040187392	9	3874
2026-01-08 04:40:15.73	193.43	50.45	-24.8	-25.6	16.7	0.00e+00	0	44	0	1047527424	9	3908
2026-01-08 04:40:16.73	193.50	50.11	-24.8	-25.6	16.8	0.00e+00	0	44	0	1054867456	9	3913
2026-01-08 04:40:17.73	193.56	49.77	-24.8	-25.4	16.9	0.00e+00	0	44	0	1062207488	9	3873
2026-01-08 04:40:18.73	193.62	49.44	-24.8	-25.5	16.8	0.00e+00	0	44	0	1068498944	9	3884
2026-01-08 04:40:19.74	193.68	49.10	-24.6	-25.0	17.1	0.00e+00	0	44	0	1075838976	9	3790
2026-01-08 04:40:20.74	193.74	48.77	-24.2	-24.3	17.3	0.00e+00	0	44	0	1083179008	9	3611
2026-01-08 04:40:21.72	193.80	48.45	-24.3	-24.4	17.3	0.00e+00	0	44	0	1090519040	9	3636
2026-01-08 04:40:22.72	193.86	48.13	-24.1	-24.0	17.5	0.00e+00	0	43	0	1097859072	9	3558
2026-01-08 04:40:23.71	193.92	47.81	-24.1	-24.5	17.1	0.00e+00	0	44	0	1105199104	8	3766
2026-01-08 04:40:24.72	193.97	47.48	-23.9	-24.0	17.8	0.00e+00	0	44	0	1111490560	8	3659
2026-01-08 04:40:25.72	194.03	47.17	-23.8	-23.8	17.8	0.00e+00	0	44	0	1118830592	8	3598
2026-01-08 04:40:26.71	194.08	46.85	-23.8	-23.8	17.9	0.00e+00	0	44	0	1126170624	8	3610
2026-01-08 04:40:27.71	194.13	46.54	-23.7	-23.6	18.0	0.00e+00	0	44	0	1133510656	8	3562
2026-01-08 04:40:28.71	194.18	46.23	-23.5	-23.2	18.2	0.00e+00	0	44	0	1140850688	8	3486
2026-01-08 04:40:29.71	194.23	45.92	-23.5	-23.3	18.1	0.00e+00	0	44	0	1148190720	8	3498
2026-01-08 04:40:30.72	194.28	45.61	-23.6	-23.5	18.0	0.00e+00	0	44	0	1155530752	8	3559
2026-01-08 04:40:31.73	194.33	45.31	-23.8	-23.9	17.8	0.00e+00	0	43	0	1162870784	8	3631
2026-01-08 04:40:32.73	194.38	45.00	-23.8	-23.9	17.8	0.00e+00	0	44	0	1170210816	8	3646
2026-01-08 04:40:33.73	194.43	44.70	-23.8	-24.0	17.7	0.00e+00	0	44	0	1177550848	8	3657
2026-01-08 04:40:34.73	194.48	44.41	-23.7	-23.7	17.7	0.00e+00	0	44	0	1184890880	8	3602
2026-01-08 04:40:35.74	194.52	44.11	-23.4	-23.1	18.2	0.00e+00	0	44	0	1192230912	8	3468
2026-01-08 04:40:36.74	194.57	43.82	-23.5	-23.2	18.2	0.00e+00	0	44	0	1198522368	8	3471
2026-01-08 04:40:37.74	194.61	43.53	-23.2	-23.1	18.4	0.00e+00	0	44	0	1205862400	7	3554
2026-01-08 04:40:38.74	194.65	43.24	-23.0	-22.8	18.6	0.00e+00	0	44	0	1213202432	7	3490
2026-01-08 04:40:39.75	194.70	42.95	-23.0	-22.8	18.5	0.00e+00	0	43	0	1220542464	7	3493
2026-01-08 04:40:40.76	194.74	42.66	-23.2	-23.1	18.4	0.00e+00	0	43	0	1227882496	7	3558
2026-01-08 04:40:41.76	194.78	42.38	-23.2	-23.1	18.4	0.00e+00	0	43	0	1235222528	7	3556
2026-01-08 04:40:42.76	194.82	42.10	-23.2	-23.1	18.4	0.00e+00	0	44	0	1242562560	7	3567
2026-01-08 04:40:43.76	194.86	41.82	-23.4	-23.5	18.2	0.00e+00	0	44	0	1249902592	7	3658
2026-01-08 04:40:44.77	194.90	41.54	-23.4	-23.6	18.0	0.00e+00	0	43	0	1256194048	7	3678
2026-01-08 04:40:45.76	194.94	41.27	-23.4	-23.6	18.2	0.00e+00	0	43	0	1263534080	7	3664
2026-01-08 04:40:46.76	194.98	41.00	-23.4	-23.4	18.2	0.00e+00	0	44	0	1270874112	7	3637
2026-01-08 04:40:47.76	195.01	40.73	-23.3	-23.4	18.2	0.00e+00	0	44	0	1278214144	7	3629
2026-01-08 04:40:48.76	195.05	40.46	-23.4	-23.6	18.2	0.00e+00	0	43	0	1285554176	7	3664
2026-01-08 04:40:49.75	195.09	40.20	-23.3	-23.2	18.3	0.00e+00	0	43	0	1292894208	7	3584
2026-01-08 04:40:50.75	195.12	39.94	-23.2	-23.1	18.4	0.00e+00	0	44	0	1300234240	7	3564
2026-01-08 04:40:51.75	195.16	39.68	-23.3	-23.3	18.3	0.00e+00	0	43	0	1307574272	7	3598
2026-01-08 04:40:52.74	195.19	39.42	-23.2	-23.1	18.3	0.00e+00	0	43	0	1314914304	7	3567
2026-01-08 04:40:53.74	195.23	39.16	-23.3	-23.2	18.3	0.00e+00	0	43	0	1321205760	7	3589
2026-01-08 04:40:54.75	195.26	38.90	-23.3	-23.4	18.2	0.00e+00	0	43	0	1328545792	7	3621
2026-01-08 04:40:55.74	195.29	38.65	-23.2	-23.2	18.3	2.20e-06	0	43	0	1335885824	7	3582
2026-01-08 04:40:56.73	195.33	38.40	-23.0	-22.6	18.6	0.00e+00	0	43	0	1343225856	7	3464
2026-01-08 04:40:57.72	195.36	38.15	-22.9	-22.5	18.7	0.00e+00	0	43	0	1350565888	7	3429
2026-01-08 04:40:58.72	195.39	37.91	-22.9	-23.0	18.6	0.00e+00	0	44	0	1356857344	6	3641
2026-01-08 04:40:59.72	195.42	37.66	-22.8	-22.8	18.8	0.00e+00	0	44	0	1364197376	6	3596
2026-01-08 04:41:00.72	195.45	37.41	-22.8	-22.7	18.7	0.00e+00	0	44	0	1371537408	6	3577
2026-01-08 04:41:01.72	195.49	37.17	-23.0	-23.1	18.6	0.00e+00	0	44	0	1378877440	6	3667
2026-01-08 04:41:02.73	195.52	36.93	-22.9	-23.0	18.6	0.00e+00	0	44	0	1386217472	6	3636
2026-01-08 04:41:03.74	195.55	36.68	-22.8	-22.9	18.7	0.00e+00	0	44	0	1393557504	6	3613
2026-01-08 04:41:04.75	195.58	36.44	-22.9	-23.0	18.6	0.00e+00	0	44	0	1400897536	6	3649
2026-01-08 04:41:05.74	195.60	36.21	-23.0	-23.2	18.5	0.00e+00	0	44	0	1408237568	6	3682
2026-01-08 04:41:06.74	195.63	35.98	-23.0	-23.3	18.5	0.00e+00	0	43	0	1415577600	6	3707
2026-01-08 04:41:07.74	195.66	35.74	-23.2	-23.5	18.3	1.10e-06	0	43	0	1422917632	6	3757
2026-01-08 04:41:08.73	195.69	35.51	-23.1	-23.5	18.2	0.00e+00	0	44	0	1430257664	6	3755
2026-01-08 04:41:09.73	195.72	35.29	-23.1	-23.4	18.4	0.00e+00	0	44	0	1437597696	6	3720
2026-01-08 04:41:10.73	195.75	35.06	-23.1	-23.4	18.2	2.20e-06	0	43	0	1443889152	6	3741
2026-01-08 04:41:11.74	195.77	34.83	-23.0	-23.2	18.5	0.00e+00	0	43	0	1451229184	6	3694
2026-01-08 04:41:12.73	195.80	34.61	-22.9	-23.0	18.6	0.00e+00	0	43	0	1458569216	6	3633
2026-01-08 04:41:13.74	195.83	34.38	-22.8	-22.9	18.6	1.10e-06	0	43	0	1465909248	6	3610
2026-01-08 04:41:14.74	195.85	34.16	-22.7	-22.6	18.8	0.00e+00	0	44	0	1473249280	6	3549
2026-01-08 04:41:15.75	195.88	33.94	-22.8	-22.9	18.6	0.00e+00	0	44	0	1480589312	6	3612
2026-01-08 04:41:16.74	195.90	33.72	-22.7	-22.5	18.8	1.10e-06	0	43	0	1487929344	6	3536
2026-01-08 04:41:17.74	195.93	33.51	-22.5	-22.2	19.0	0.00e+00	0	44	0	1495269376	6	3471
2026-01-08 04:41:18.75	195.95	33.29	-22.6	-22.3	18.9	0.00e+00	0	43	0	1502609408	6	3487
2026-01-08 04:41:19.75	195.98	33.08	-22.5	-22.2	19.0	1.10e-06	0	44	0	1508900864	6	3468
2026-01-08 04:41:20.76	196.00	32.86	-22.6	-22.3	18.9	0.00e+00	0	44	0	1516240896	6	3496
2026-01-08 04:41:21.75	196.03	32.65	-22.6	-22.5	18.8	0.00e+00	0	44	0	1523580928	6	3529
2026-01-08 04:41:22.75	196.05	32.44	-22.7	-22.5	18.8	0.00e+00	0	43	0	1530920960	6	3533
2026-01-08 04:41:23.76	196.08	32.23	-22.8	-22.7	18.7	0.00e+00	0	44	0	1538260992	6	3584
2026-01-08 04:41:24.76	196.10	32.03	-22.8	-22.7	18.7	0.00e+00	0	44	0	1545601024	6	3586
2026-01-08 04:41:25.76	196.12	31.82	-22.9	-22.9	18.6	0.00e+00	0	44	0	1552941056	6	3627
2026-01-08 04:41:26.75	196.14	31.62	-22.9	-23.0	18.5	0.00e+00	0	44	0	1560281088	6	3645
2026-01-08 04:41:27.76	196.17	31.42	-22.9	-23.0	18.6	0.00e+00	0	44	0	1566572544	6	3633
2026-01-08 04:41:28.75	196.19	31.22	-23.0	-23.1	18.5	0.00e+00	0	44	0	1573912576	6	3675
2026-01-08 04:41:29.75	196.21	31.02	-22.9	-23.0	18.5	0.00e+00	0	44	0	1581252608	6	3641
2026-01-08 04:41:30.74	196.23	30.82	-23.0	-23.2	18.4	0.00e+00	0	44	0	1588592640	6	3684
2026-01-08 04:41:31.74	196.26	30.63	-23.0	-23.3	18.3	0.00e+00	0	44	0	1595932672	6	3700
2026-01-08 04:41:32.74	196.28	30.43	-23.0	-23.3	18.4	0.00e+00	0	44	0	1603272704	6	3702
2026-01-08 04:41:33.75	196.30	30.23	-23.0	-23.3	18.4	0.00e+00	0	43	0	1610612736	6	3704
2026-01-08 04:41:34.76	196.32	30.04	-23.0	-23.3	18.3	0.00e+00	0	44	0	1617952768	6	3708
2026-01-08 04:41:35.76	196.34	29.85	-23.1	-23.5	18.3	0.00e+00	0	44	0	1625292800	6	3746
2026-01-08 04:41:36.77	196.36	29.66	-23.1	-23.4	18.3	0.00e+00	0	44	0	1631584256	6	3743
2026-01-08 04:41:37.77	196.38	29.47	-23.1	-23.4	18.3	0.00e+00	0	43	0	1638924288	6	3726
2026-01-08 04:41:38.78	196.40	29.28	-23.1	-23.5	18.3	0.00e+00	0	43	0	1647312896	6	3751
2026-01-08 04:41:39.79	196.42	29.09	-23.2	-23.6	18.2	0.00e+00	0	44	0	1653604352	6	3774
2026-01-08 04:41:40.80	196.44	28.90	-23.2	-23.6	18.2	0.00e+00	0	43	0	1660944384	6	3789
2026-01-08 04:41:41.81	196.46	28.72	-23.2	-23.6	18.2	0.00e+00	0	43	0	1668284416	6	3789
2026-01-08 04:41:42.81	196.48	28.53	-23.3	-23.8	18.1	0.00e+00	0	44	0	1675624448	6	3813
2026-01-08 04:41:43.82	196.50	28.35	-23.3	-23.8	18.1	0.00e+00	0	43	0	1682964480	6	3817
2026-01-08 04:41:44.83	196.52	28.17	-23.4	-24.0	18.0	0.00e+00	0	43	0	1690304512	6	3863
2026-01-08 04:41:45.84	196.54	27.99	-23.3	-23.9	18.0	0.00e+00	0	44	0	1697644544	6	3856
2026-01-08 04:41:46.84	196.56	27.81	-23.4	-24.0	18.0	0.00e+00	0	43	0	1704984576	6	3869
2026-01-08 04:41:47.85	196.58	27.63	-23.3	-23.9	18.0	0.00e+00	0	43	0	1712324608	6	3850
2026-01-08 04:41:48.86	196.60	27.45	-23.4	-24.1	17.9	0.00e+00	0	44	0	1719664640	6	3899
2026-01-08 04:41:49.87	196.61	27.28	-23.4	-24.1	17.9	0.00e+00	0	43	0	1727004672	6	3884
2026-01-08 04:41:50.88	196.63	27.10	-23.4	-24.1	17.9	0.00e+00	0	44	0	1734344704	6	3888
2026-01-08 04:41:51.88	196.65	26.93	-23.5	-24.3	17.8	0.00e+00	0	43	0	1741684736	6	3935
2026-01-08 04:41:52.88	196.67	26.76	-23.6	-23.9	17.7	0.00e+00	0	44	0	1749024768	7	3755
2026-01-08 04:41:53.89	196.69	26.59	-23.6	-23.9	17.7	0.00e+00	0	44	0	1755316224	7	3747
2026-01-08 04:41:54.90	196.70	26.42	-23.6	-24.0	17.6	0.00e+00	0	43	0	1762656256	7	3775
2026-01-08 04:41:55.90	196.72	26.25	-23.6	-24.0	17.7	0.00e+00	0	44	0	1769996288	7	3769
2026-01-08 04:41:56.91	196.74	26.08	-23.7	-24.1	17.6	0.00e+00	0	44	0	1777336320	7	3792
2026-01-08 04:41:57.92	196.76	25.91	-23.8	-24.4	17.4	0.00e+00	0	43	0	1784676352	7	3866
2026-01-08 04:41:58.93	196.77	25.74	-23.7	-24.1	17.6	0.00e+00	0	44	0	1792016384	7	3795
2026-01-08 04:41:59.93	196.79	25.58	-23.9	-24.7	17.3	0.00e+00	0	43	0	1799356416	7	3931
2026-01-08 04:42:00.94	196.81	25.42	-23.7	-24.2	17.5	0.00e+00	0	44	0	1806696448	7	3824
2026-01-08 04:42:01.95	196.82	25.25	-23.5	-23.8	17.8	0.00e+00	0	43	0	1814036480	7	3728
2026-01-08 04:42:02.96	196.84	25.09	-23.4	-23.6	17.9	0.00e+00	0	44	0	1821376512	7	3675
2026-01-08 04:42:03.97	196.86	24.93	-23.4	-23.5	17.9	0.00e+00	0	43	0	1828716544	7	3653
2026-01-08 04:42:04.97	196.87	24.77	-23.4	-23.5	17.9	0.00e+00	0	43	0	1836056576	7	3658
2026-01-08 04:42:05.98	196.89	24.61	-23.3	-23.4	18.0	0.00e+00	0	44	0	1843396608	7	3641
2026-01-08 04:42:06.99	196.90	24.45	-23.4	-23.6	17.8	1.10e-06	0	44	0	1850736640	7	3689
2026-01-08 04:42:07.99	196.92	24.30	-23.4	-23.5	17.9	0.00e+00	0	44	0	1858076672	7	3653
2026-01-08 04:42:09.00	196.93	24.14	-23.5	-23.7	17.8	0.00e+00	0	44	0	1864368128	7	3696
2026-01-08 04:42:10.01	196.95	23.98	-23.4	-23.6	17.9	0.00e+00	0	44	0	1871708160	7	3671
2026-01-08 04:42:11.02	196.97	23.83	-23.4	-23.6	17.8	0.00e+00	0	44	0	1879048192	7	3675
2026-01-08 04:42:12.02	196.98	23.68	-23.6	-23.9	17.7	0.00e+00	0	44	0	1886388224	7	3745
2026-01-08 04:42:13.03	197.00	23.52	-23.6	-23.9	17.7	0.00e+00	0	44	0	1893728256	7	3740
2026-01-08 04:42:14.04	197.01	23.37	-23.6	-24.0	17.6	0.00e+00	0	44	0	1901068288	7	3768
2026-01-08 04:42:15.05	197.03	23.22	-23.8	-24.4	17.4	0.00e+00	0	44	0	1908408320	7	3865
2026-01-08 04:42:16.05	197.04	23.07	-23.5	-23.9	17.7	0.00e+00	0	44	0	1915748352	7	3739
2026-01-08 04:42:17.05	197.06	22.92	-23.5	-23.7	17.8	0.00e+00	0	44	0	1923088384	7	3694
2026-01-08 04:42:18.06	197.07	22.77	-23.5	-23.7	17.8	0.00e+00	0	44	0	1930428416	7	3698
2026-01-08 04:42:19.06	197.08	22.63	-23.5	-23.7	17.8	0.00e+00	0	44	0	1937768448	7	3708
2026-01-08 04:42:20.07	197.10	22.48	-23.4	-23.6	17.8	0.00e+00	0	44	0	1945108480	7	3674
2026-01-08 04:42:21.07	197.11	22.34	-23.6	-24.1	17.6	0.00e+00	0	44	0	1951399936	7	3789
2026-01-08 04:42:22.08	197.13	22.19	-23.5	-23.8	17.7	0.00e+00	0	44	0	1959788544	7	3716
2026-01-08 04:42:23.09	197.14	22.05	-23.4	-23.5	17.8	0.00e+00	0	43	0	1967128576	7	3665
2026-01-08 04:42:24.09	197.16	21.90	-23.4	-23.7	17.7	0.00e+00	0	44	0	1973420032	7	3696
2026-01-08 04:42:25.09	197.17	21.76	-23.4	-23.5	17.8	0.00e+00	0	43	0	1980760064	7	3664
2026-01-08 04:42:26.10	197.18	21.62	-23.5	-23.8	17.7	0.00e+00	0	43	0	1988100096	7	3721
2026-01-08 04:42:27.11	197.20	21.48	-23.5	-23.7	17.7	0.00e+00	0	44	0	1995440128	7	3709
2026-01-08 04:42:28.11	197.21	21.34	-23.5	-23.8	17.7	0.00e+00	0	44	0	2002780160	7	3735
2026-01-08 04:42:29.12	197.22	21.20	-23.7	-24.1	17.5	0.00e+00	0	43	0	2010120192	7	3790
2026-01-08 04:42:30.13	197.24	21.06	-23.6	-24.0	17.6	0.00e+00	0	43	0	2017460224	7	3762
2026-01-08 04:42:31.13	197.25	20.92	-23.7	-24.3	17.4	0.00e+00	0	44	0	2024800256	7	3833
2026-01-08 04:42:32.14	197.26	20.79	-23.7	-24.2	17.5	0.00e+00	0	44	0	2032140288	7	3819
2026-01-08 04:42:33.15	197.28	20.65	-23.8	-24.5	17.3	0.00e+00	0	43	0	2039480320	7	3870
2026-01-08 04:42:34.15	197.29	20.52	-23.8	-24.5	17.3	0.00e+00	0	44	0	2046820352	7	3882
2026-01-08 04:42:35.16	197.30	20.38	-23.9	-24.6	17.3	0.00e+00	0	44	0	2053111808	7	3898
2026-01-08 04:42:36.17	197.32	20.25	-24.0	-24.8	17.2	0.00e+00	0	44	0	2060451840	7	3946
2026-01-08 04:42:37.18	197.33	20.11	-23.9	-24.7	17.2	0.00e+00	0	44	0	2068840448	7	3931
2026-01-08 04:42:38.19	197.34	19.98	-24.0	-24.9	17.1	0.00e+00	0	44	0	2075131904	7	3973
2026-01-08 04:42:39.19	197.35	19.85	-24.3	-24.9	16.8	0.00e+00	0	44	0	2082471936	8	3880
2026-01-08 04:42:40.20	197.37	19.72	-24.5	-25.5	16.5	0.00e+00	0	43	0	2089811968	8	4011
2026-01-08 04:42:41.21	197.38	19.59	-24.5	-25.3	16.6	0.00e+00	0	44	0	2097152000	8	3970
2026-01-08 04:42:42.21	197.39	19.46	-24.7	-25.2	16.4	0.00e+00	0	44	0	2104492032	9	3848
2026-01-08 04:42:43.22	197.40	19.33	-24.5	-24.9	16.6	0.00e+00	0	44	0	2111832064	9	3768
2026-01-08 04:42:44.22	197.42	19.20	-24.4	-24.6	16.7	0.00e+00	0	43	0	2119172096	9	3701
2026-01-08 04:42:45.23	197.43	19.07	-24.2	-24.3	16.8	0.00e+00	0	44	0	2126512128	9	3641
2026-01-08 04:42:46.24	197.44	18.94	-24.3	-24.5	16.8	0.00e+00	0	44	0	2133852160	9	3676
2026-01-08 04:42:47.25	197.45	18.82	-24.3	-24.5	16.7	0.00e+00	0	43	0	2141192192	9	3689
2026-01-08 04:42:48.25	197.46	18.69	-24.1	-24.1	17.0	0.00e+00	0	44	0	2148532224	9	3595
2026-01-08 04:42:49.25	197.48	18.57	-24.1	-24.1	17.0	0.00e+00	0	44	0	2155872256	9	3587
2026-01-08 04:42:50.26	197.49	18.44	-24.2	-24.2	16.9	0.00e+00	0	44	0	2162163712	9	3613
2026-01-08 04:42:51.27	197.50	18.32	-24.2	-24.2	16.9	0.00e+00	0	44	0	2169503744	9	3613
2026-01-08 04:42:52.28	197.51	18.19	-24.3	-24.5	16.8	0.00e+00	0	44	0	2177892352	9	3677
2026-01-08 04:42:53.28	197.52	18.07	-24.4	-24.7	16.6	0.00e+00	0	44	0	2184183808	9	3727
2026-01-08 04:42:54.29	197.54	17.95	-24.3	-24.5	16.8	0.00e+00	0	43	0	2191523840	9	3678
2026-01-08 04:42:55.30	197.55	17.83	-24.4	-24.7	16.7	0.00e+00	0	44	0	2198863872	9	3717
2026-01-08 04:42:56.30	197.56	17.71	-24.5	-24.9	16.5	0.00e+00	0	44	0	2206203904	9	3779
2026-01-08 04:42:57.31	197.57	17.59	-24.4	-24.7	16.6	0.00e+00	0	43	0	2213543936	9	3724
2026-01-08 04:42:58.32	197.58	17.47	-24.4	-24.6	16.7	0.00e+00	0	44	0	2220883968	9	3705
2026-01-08 04:42:59.32	197.59	17.35	-24.5	-24.9	16.5	0.00e+00	0	44	0	2228224000	9	3772
2026-01-08 04:43:00.33	197.60	17.23	-24.6	-25.2	16.4	4.50e-06	0	44	0	2235564032	9	3843
2026-01-08 04:43:01.34	197.61	17.11	-24.7	-25.3	16.3	0.00e+00	0	44	0	2242904064	9	3856
2026-01-08 04:43:02.34	197.63	16.99	-24.6	-25.1	16.4	0.00e+00	0	44	0	2250244096	9	3827
2026-01-08 04:43:03.35	197.64	16.88	-24.6	-25.1	16.4	3.40e-06	0	44	0	2257584128	9	3818
2026-01-08 04:43:04.36	197.65	16.76	-24.7	-25.3	16.4	0.00e+00	0	44	0	2263875584	9	3860
2026-01-08 04:43:05.37	197.66	16.64	-24.8	-25.5	16.2	0.00e+00	0	44	0	2271215616	9	3912
2026-01-08 04:43:06.37	197.67	16.53	-24.7	-25.3	16.3	1.10e-06	0	44	0	2278555648	9	3865
2026-01-08 04:43:07.37	197.68	16.41	-24.8	-25.5	16.2	0.00e+00	0	44	0	2285895680	9	3915
2026-01-08 04:43:08.37	197.69	16.30	-25.0	-26.0	16.0	0.00e+00	0	44	0	2293235712	9	4026
2026-01-08 04:43:09.37	197.70	16.19	-25.0	-26.0	15.9	0.00e+00	0	43	0	2300575744	9	4032
2026-01-08 04:43:10.38	197.71	16.07	-25.2	-25.9	15.7	0.00e+00	0	44	0	2307915776	10	3902
2026-01-08 04:43:11.39	197.72	15.96	-25.0	-25.5	15.9	0.00e+00	0	44	0	2315255808	10	3809
2026-01-08 04:43:12.40	197.73	15.85	-24.8	-25.0	16.2	0.00e+00	0	44	0	2322595840	10	3692
2026-01-08 04:43:13.40	197.74	15.74	-24.7	-24.9	16.3	0.00e+00	0	44	0	2329935872	10	3669
2026-01-08 04:43:14.41	197.75	15.63	-24.6	-24.7	16.3	0.00e+00	0	43	0	2337275904	10	3633
2026-01-08 04:43:15.42	197.76	15.52	-24.6	-24.7	16.3	0.00e+00	0	44	0	2344615936	10	3633
2026-01-08 04:43:16.43	197.77	15.41	-24.6	-24.7	16.3	0.00e+00	0	44	0	2350907392	10	3630
2026-01-08 04:43:17.44	197.78	15.30	-24.7	-24.8	16.3	0.00e+00	0	43	0	2359296000	10	3646
2026-01-08 04:43:18.44	197.79	15.19	-24.8	-25.0	16.2	5.70e-06	0	43	0	2366636032	10	3698
2026-01-08 04:43:19.45	197.80	15.08	-24.8	-25.1	16.1	0.00e+00	0	44	0	2372927488	10	3708
2026-01-08 04:43:20.45	197.81	14.97	-24.8	-25.0	16.2	0.00e+00	0	44	0	2380267520	10	3684
2026-01-08 04:43:21.46	197.82	14.86	-24.8	-25.0	16.1	0.00e+00	0	43	0	2387607552	10	3697
2026-01-08 04:43:22.46	197.83	14.76	-24.9	-25.3	16.0	0.00e+00	0	44	0	2394947584	10	3767
2026-01-08 04:43:23.47	197.84	14.65	-24.9	-25.3	16.0	0.00e+00	0	43	0	2402287616	10	3759
2026-01-08 04:43:24.48	197.85	14.54	-25.0	-25.5	15.9	0.00e+00	0	44	0	2409627648	10	3803
2026-01-08 04:43:25.48	197.86	14.44	-25.0	-25.5	15.9	0.00e+00	0	44	0	2416967680	10	3806
2026-01-08 04:43:26.49	197.87	14.33	-25.0	-25.5	15.9	0.00e+00	0	44	0	2424307712	10	3810
2026-01-08 04:43:27.50	197.88	14.23	-25.0	-25.5	15.9	0.00e+00	0	44	0	2431647744	10	3811
2026-01-08 04:43:28.51	197.89	14.12	-25.1	-25.7	15.7	0.00e+00	0	44	0	2438987776	10	3860
2026-01-08 04:43:29.51	197.90	14.02	-25.1	-25.7	15.7	0.00e+00	0	44	0	2446327808	10	3866
2026-01-08 04:43:30.51	197.91	13.92	-25.3	-26.1	15.5	0.00e+00	0	44	0	2452619264	10	3950
2026-01-08 04:43:31.52	197.92	13.81	-25.3	-26.2	15.4	0.00e+00	0	44	0	2459959296	10	3998
2026-01-08 04:43:32.53	197.93	13.71	-25.2	-26.0	15.6	0.00e+00	0	44	0	2468347904	10	3939
2026-01-08 04:43:33.53	197.94	13.61	-25.3	-26.1	15.5	0.00e+00	0	44	0	2474639360	10	3957
2026-01-08 04:43:34.54	197.95	13.51	-25.3	-26.1	15.5	0.00e+00	0	44	0	2481979392	10	3969
2026-01-08 04:43:35.55	197.96	13.41	-25.3	-26.1	15.5	0.00e+00	0	44	0	2489319424	10	3963
2026-01-08 04:43:36.55	197.97	13.31	-25.4	-26.3	15.4	0.00e+00	0	44	0	2496659456	10	4000
2026-01-08 04:43:37.56	197.98	13.20	-25.4	-26.4	15.3	0.00e+00	0	44	0	2503999488	10	4031
2026-01-08 04:43:38.57	197.99	13.10	-25.5	-26.5	15.2	0.00e+00	0	44	0	2511339520	10	4063
2026-01-08 04:43:39.58	198.00	13.00	-25.5	-26.7	15.2	0.00e+00	0	44	0	2518679552	10	4103
2026-01-08 04:43:40.58	198.00	12.91	-25.5	-26.6	15.2	0.00e+00	0	44	0	2526019584	10	4089
2026-01-08 04:43:41.59	198.01	12.81	-25.6	-26.7	15.1	0.00e+00	0	44	0	2533359616	10	4125
2026-01-08 04:43:42.60	198.02	12.71	-25.7	-26.6	14.9	0.00e+00	0	44	0	2540699648	11	3987
2026-01-08 04:43:43.61	198.03	12.61	-25.8	-26.7	14.8	0.00e+00	0	43	0	2548039680	11	4011
2026-01-08 04:43:44.61	198.04	12.51	-25.8	-26.8	14.8	1.10e-06	0	44	0	2555379712	11	4033
2026-01-08 04:43:45.62	198.05	12.41	-25.8	-26.9	14.8	0.00e+00	0	43	0	2561671168	11	4045
2026-01-08 04:43:46.62	198.06	12.32	-25.8	-26.8	14.8	0.00e+00	0	43	0	2569011200	11	4025
2026-01-08 04:43:47.63	198.07	12.22	-25.9	-26.9	14.7	0.00e+00	0	44	0	2577399808	11	4047
2026-01-08 04:43:48.64	198.08	12.12	-25.9	-26.9	14.7	0.00e+00	0	44	0	2583691264	11	4059
2026-01-08 04:43:49.64	198.08	12.03	-25.9	-26.9	14.7	0.00e+00	0	44	0	2591031296	11	4068
2026-01-08 04:43:50.65	198.09	11.93	-25.9	-27.0	14.6	1.10e-06	0	44	0	2598371328	11	4071
2026-01-08 04:43:51.65	198.10	11.84	-26.0	-27.1	14.6	0.00e+00	0	44	0	2605711360	11	4117
2026-01-08 04:43:52.66	198.11	11.74	-26.0	-27.1	14.5	2.20e-06	0	44	0	2613051392	11	4111
2026-01-08 04:43:53.66	198.12	11.65	-26.0	-27.2	14.5	5.70e-06	0	44	0	2620391424	11	4136
2026-01-08 04:43:54.66	198.13	11.56	-26.0	-27.2	14.5	1.10e-06	0	44	0	2627731456	11	4136
2026-01-08 04:43:55.67	198.14	11.46	-26.0	-27.2	14.5	0.00e+00	0	44	0	2635071488	11	4144
2026-01-08 04:43:56.68	198.15	11.37	-26.1	-27.0	14.3	1.71e-05	0	44	0	2642411520	12	3977
2026-01-08 04:43:57.69	198.15	11.28	-26.4	-27.5	14.0	2.20e-06	0	44	0	2649751552	12	4118
2026-01-08 04:43:58.70	198.16	11.18	-26.3	-27.4	14.0	2.20e-06	0	44	0	2657091584	12	4086
2026-01-08 04:43:59.70	198.17	11.09	-26.1	-27.0	14.3	1.37e-05	0	44	0	2664431616	12	3973
2026-01-08 04:44:00.71	198.18	11.00	-26.1	-27.0	14.3	0.00e+00	0	44	0	2670723072	12	3977
2026-01-08 04:44:01.72	198.19	10.91	-26.1	-27.0	14.2	1.10e-06	0	44	0	2678063104	12	3991
2026-01-08 04:44:02.72	198.20	10.82	-26.2	-27.1	14.1	1.10e-06	0	44	0	2685403136	12	4020
2026-01-08 04:44:03.72	198.20	10.73	-26.2	-27.3	14.1	1.10e-06	0	44	0	2692743168	12	4051
2026-01-08 04:44:04.73	198.21	10.64	-26.3	-27.3	14.0	0.00e+00	0	44	0	2700083200	12	4068
2026-01-08 04:44:05.74	198.22	10.55	-26.4	-27.6	13.9	9.10e-06	0	44	0	2707423232	12	4136
2026-01-08 04:44:06.75	198.23	10.46	-26.4	-27.6	13.8	6.80e-06	0	44	0	2714763264	12	4141
2026-01-08 04:44:07.76	198.24	10.37	-26.2	-27.3	14.0	2.20e-06	0	44	0	2722103296	12	4055
2026-01-08 04:44:08.76	198.24	10.28	-26.2	-27.1	14.1	5.70e-06	0	44	0	2729443328	12	4022
2026-01-08 04:44:09.77	198.25	10.19	-26.2	-27.1	14.1	2.20e-06	0	44	0	2736783360	12	4023
2026-01-08 04:44:10.78	198.26	10.10	-26.2	-27.2	14.0	2.20e-06	0	44	0	2744123392	12	4045
2026-01-08 04:44:11.78	198.27	10.01	-26.3	-27.4	13.9	6.80e-06	0	44	0	2751463424	12	4091
2026-01-08 04:44:12.79	198.28	9.93	-26.3	-27.4	13.9	3.40e-06	0	43	0	2758803456	12	4090
2026-01-08 04:44:13.80	198.29	9.84	-26.2	-27.1	14.1	1.10e-06	0	44	0	2766143488	12	4021
2026-01-08 04:44:14.80	198.29	9.75	-26.2	-27.3	14.0	5.70e-06	0	44	0	2772434944	12	4059
2026-01-08 04:44:15.80	198.30	9.67	-26.4	-27.6	13.8	5.70e-06	0	44	0	2779774976	12	4143
2026-01-08 04:44:16.81	198.31	9.58	-26.2	-27.3	14.0	8.00e-06	0	44	0	2787115008	12	4062
2026-01-08 04:44:17.81	198.32	9.49	-26.2	-27.2	14.0	4.50e-06	0	44	0	2794455040	12	4043
2026-01-08 04:44:18.82	198.32	9.41	-26.2	-27.3	14.0	1.10e-06	0	43	0	2801795072	12	4062
2026-01-08 04:44:19.83	198.33	9.32	-26.3	-27.4	13.9	3.40e-06	0	43	0	2809135104	12	4095
2026-01-08 04:44:20.83	198.34	9.24	-26.3	-27.5	13.8	4.50e-06	0	43	0	2816475136	12	4112
2026-01-08 04:44:21.84	198.35	9.15	-26.3	-27.4	13.9	5.70e-06	0	43	0	2823815168	12	4084
2026-01-08 04:44:22.85	198.36	9.06	-26.4	-27.7	13.7	6.80e-06	0	44	0	2831155200	12	4189
2026-01-08 04:44:23.85	198.36	8.98	-26.5	-27.8	13.6	3.40e-06	0	44	0	2838495232	12	4205
2026-01-08 04:44:24.86	198.37	8.90	-26.4	-27.7	13.7	1.14e-05	0	44	0	2845835264	12	4163
2026-01-08 04:44:25.86	198.38	8.81	-26.6	-28.1	13.4	1.14e-05	0	44	0	2853175296	12	4287
2026-01-08 04:44:26.87	198.39	8.73	-26.6	-27.6	13.4	1.25e-05	0	44	0	2859466752	13	4040
2026-01-08 04:44:27.88	198.39	8.65	-26.5	-27.4	13.5	9.10e-06	0	43	0	2867855360	13	4003
2026-01-08 04:44:28.88	198.40	8.56	-26.7	-27.8	13.3	1.71e-05	0	44	0	2875195392	13	4111
2026-01-08 04:44:29.89	198.41	8.48	-26.7	-27.8	13.3	2.28e-05	0	44	0	2881486848	13	4087
2026-01-08 04:44:30.90	198.42	8.40	-26.6	-27.6	13.4	1.94e-05	0	44	0	2888826880	13	4045
2026-01-08 04:44:31.90	198.42	8.31	-26.8	-28.0	13.2	2.40e-05	0	44	0	2896166912	13	4153
2026-01-08 04:44:32.91	198.43	8.23	-26.6	-27.6	13.4	2.17e-05	0	44	0	2903506944	13	4055
2026-01-08 04:44:33.92	198.44	8.15	-26.5	-27.5	13.5	1.14e-05	0	44	0	2910846976	13	4006
2026-01-08 04:44:34.93	198.45	8.07	-26.4	-27.2	13.6	1.25e-05	0	44	0	2918187008	13	3944
2026-01-08 04:44:35.93	198.45	7.99	-26.5	-27.3	13.5	1.25e-05	0	44	0	2925527040	13	3984
2026-01-08 04:44:36.94	198.46	7.91	-26.4	-27.2	13.6	6.80e-06	0	44	0	2932867072	13	3948
2026-01-08 04:44:37.94	198.47	7.83	-26.6	-27.6	13.4	2.40e-05	0	44	0	2940207104	13	4052
2026-01-08 04:44:38.95	198.48	7.75	-26.5	-27.5	13.4	1.02e-05	0	44	0	2947547136	13	4024
2026-01-08 04:44:39.95	198.48	7.67	-26.4	-27.3	13.5	1.37e-05	0	44	0	2954887168	13	3977
2026-01-08 04:44:40.96	198.49	7.59	-26.5	-27.5	13.3	1.37e-05	0	44	0	2961178624	13	4030
2026-01-08 04:44:41.96	198.50	7.51	-26.5	-27.5	13.4	1.25e-05	0	44	0	2968518656	13	4011
2026-01-08 04:44:42.97	198.50	7.43	-26.5	-27.4	13.4	1.37e-05	0	44	0	2975858688	13	3994
2026-01-08 04:44:43.97	198.51	7.35	-26.6	-27.7	13.3	1.60e-05	0	44	0	2983198720	13	4074
2026-01-08 04:44:44.98	198.52	7.27	-26.6	-27.6	13.3	2.28e-05	0	44	0	2990538752	13	4039
2026-01-08 04:44:45.99	198.53	7.19	-26.6	-27.6	13.3	1.83e-05	0	44	0	2997878784	13	4049
2026-01-08 04:44:46.99	198.53	7.11	-26.8	-28.1	13.0	2.74e-05	0	44	0	3005218816	13	4167
2026-01-08 04:44:48.00	198.54	7.03	-32.8	-42.5	3.8	8.47e-01	0	44	104	3007315968	25	11007
2026-01-08 04:44:49.00	198.55	6.96	-33.1	-43.0	3.8	8.47e-01	0	44	104	3007315968	25	11348
2026-01-08 04:44:50.01	198.55	6.88	-33.2	-42.7	3.8	8.46e-01	0	44	104	3007315968	26	10810
2026-01-08 04:44:51.01	198.56	6.80	-33.3	-43.1	3.8	8.46e-01	0	44	104	3007315968	26	11089

#Closed at: 2026-01-08 04:44:51
#Recorded file [3007 MB]: D:/data/31010_260108_073749.dat