passes_logs/2026/01/08/R2M6_AANII_01/R2M6_AANII_01__20260108_095849_SUOMI_NPP_rec.log

#Pass ID: 20260108_095849_SUOMI NPP
#Satellite: SUOMI NPP
#Configuration: NPP
#almurnet v.1.7.20240730
#Start time: 2026-01-08 09:58:51

#Version: 2.2.20231116
#Station: R2M6_AANII_01
#Location: 30.233357 lon 59.946436 lat
#TLE: 1 37849U 11061A   26005.94084933  .00000134  00000+0  84554-4 0  9990
#TLE: 2 37849  98.7803 308.0679 0002567  79.1029 281.0436 14.19522657735426

#Time	Az	El	Level	Level2	SNR	BER	BlckErr	Temp	State	Recorded	gain1	gain2
2026-01-08 09:58:51.12	147.42	7.11	-30.0	-34.1	5.2	1.25e+00	0	41	0	0	21	5737
2026-01-08 09:58:52.12	147.40	7.19	-30.2	-34.5	5.1	1.28e+00	0	40	104	0	21	5890
2026-01-08 09:58:53.12	147.38	7.27	-30.3	-35.1	8.3	4.05e-02	0	41	0	0	21	6202
2026-01-08 09:58:54.13	147.36	7.34	-30.3	-34.7	8.5	3.91e-02	0	41	0	1048576	21	6007
2026-01-08 09:58:55.15	147.35	7.42	-30.3	-35.0	8.3	5.25e-02	0	40	0	3145728	21	6178
2026-01-08 09:58:56.15	147.33	7.50	-30.4	-35.0	8.4	4.68e-02	0	41	0	5242880	21	6096
2026-01-08 09:58:57.15	147.31	7.58	-30.3	-34.4	8.9	3.29e-02	0	41	0	7340032	21	5769
2026-01-08 09:58:58.16	147.29	7.66	-30.2	-33.9	9.3	1.99e-02	0	41	0	9437184	21	5529
2026-01-08 09:58:59.17	147.27	7.74	-30.1	-33.5	9.7	1.57e-02	0	41	0	10485760	21	5307
2026-01-08 09:59:00.18	147.25	7.82	-30.0	-33.1	10.0	9.69e-03	0	41	0	12582912	21	5124
2026-01-08 09:59:01.18	147.23	7.90	-30.0	-32.8	10.3	4.26e-03	0	41	0	14680064	21	4983
2026-01-08 09:59:02.19	147.21	7.98	-29.9	-32.2	10.8	3.02e-03	0	41	0	16777216	21	4715
2026-01-08 09:59:03.20	147.19	8.06	-29.8	-32.0	11.1	2.13e-03	0	41	0	18874368	21	4613
2026-01-08 09:59:04.20	147.17	8.14	-29.9	-32.0	11.1	1.62e-03	0	41	0	19922944	21	4581
2026-01-08 09:59:05.21	147.16	8.23	-29.8	-31.6	11.4	1.06e-03	0	41	0	22020096	21	4448
2026-01-08 09:59:06.21	147.14	8.31	-29.6	-31.5	12.0	5.45e-04	0	41	0	24117248	20	4458
2026-01-08 09:59:07.22	147.12	8.39	-29.5	-31.1	12.2	3.40e-04	0	41	0	26214400	20	4327
2026-01-08 09:59:08.22	147.10	8.47	-29.5	-31.0	12.4	1.81e-04	0	41	0	28311552	20	4275
2026-01-08 09:59:09.23	147.08	8.55	-29.6	-31.4	12.1	1.53e-04	0	41	0	29360128	20	4389
2026-01-08 09:59:10.24	147.06	8.63	-29.5	-30.9	12.5	1.25e-04	0	41	0	31457280	20	4217
2026-01-08 09:59:11.24	147.04	8.72	-29.5	-30.9	12.5	1.46e-04	0	41	0	33554432	20	4220
2026-01-08 09:59:12.24	147.02	8.80	-29.5	-31.0	12.4	1.44e-04	0	41	0	35651584	20	4252
2026-01-08 09:59:13.25	146.99	8.88	-29.6	-31.1	12.3	1.43e-04	0	41	0	37748736	20	4304
2026-01-08 09:59:14.25	146.97	8.97	-29.6	-31.2	12.4	1.82e-04	0	41	0	38797312	20	4311
2026-01-08 09:59:15.25	146.95	9.05	-29.8	-31.6	12.1	2.68e-04	0	41	0	40894464	20	4451
2026-01-08 09:59:16.26	146.93	9.13	-29.8	-31.8	11.9	3.17e-04	0	41	0	42991616	20	4513
2026-01-08 09:59:17.27	146.91	9.22	-30.0	-32.1	11.8	4.36e-04	0	41	0	45088768	20	4622
2026-01-08 09:59:18.28	146.89	9.30	-30.0	-32.2	11.7	4.49e-04	0	41	0	47185920	20	4635
2026-01-08 09:59:19.28	146.87	9.39	-29.9	-32.0	11.8	5.42e-04	0	41	0	48234496	20	4578
2026-01-08 09:59:20.29	146.85	9.47	-29.9	-32.0	11.8	4.56e-04	0	42	0	50331648	20	4571
2026-01-08 09:59:21.29	146.83	9.56	-29.9	-31.8	11.9	3.58e-04	0	41	0	52428800	20	4513
2026-01-08 09:59:22.30	146.80	9.65	-29.9	-32.0	11.9	3.42e-04	0	42	0	54525952	20	4572
2026-01-08 09:59:23.31	146.78	9.73	-29.9	-32.0	11.8	5.04e-04	0	41	0	56623104	20	4588
2026-01-08 09:59:24.31	146.76	9.82	-29.7	-31.3	12.3	2.34e-04	0	42	0	57671680	20	4344
2026-01-08 09:59:25.32	146.74	9.90	-29.6	-31.0	12.5	1.09e-04	0	42	0	59768832	20	4253
2026-01-08 09:59:26.31	146.71	9.99	-29.4	-30.6	12.8	6.48e-05	0	42	0	61865984	20	4128
2026-01-08 09:59:27.32	146.69	10.08	-29.4	-30.5	12.9	3.89e-05	0	42	0	63963136	20	4107
2026-01-08 09:59:28.31	146.67	10.16	-29.5	-30.8	12.7	1.04e-04	0	42	0	65011712	20	4181
2026-01-08 09:59:29.32	146.65	10.25	-29.4	-30.5	12.9	5.72e-05	0	41	0	67108864	20	4101
2026-01-08 09:59:30.33	146.62	10.34	-29.5	-30.7	12.8	5.87e-05	0	42	0	69206016	20	4156
2026-01-08 09:59:31.34	146.60	10.43	-29.5	-30.8	12.8	6.94e-05	0	42	0	71303168	20	4177
2026-01-08 09:59:32.35	146.58	10.52	-29.6	-31.0	12.6	9.15e-05	0	42	0	73400320	20	4240
2026-01-08 09:59:33.35	146.55	10.61	-29.6	-31.2	12.5	9.53e-05	0	42	0	74448896	20	4288
2026-01-08 09:59:34.36	146.53	10.70	-29.7	-31.3	12.4	1.39e-04	0	42	0	76546048	20	4341
2026-01-08 09:59:35.36	146.51	10.79	-29.7	-31.2	12.5	1.27e-04	0	42	0	78643200	20	4282
2026-01-08 09:59:36.37	146.48	10.88	-29.7	-31.3	12.5	1.30e-04	0	42	0	80740352	20	4319
2026-01-08 09:59:37.38	146.46	10.97	-29.7	-31.3	12.4	1.28e-04	0	42	0	82837504	20	4341
2026-01-08 09:59:38.38	146.43	11.06	-29.8	-31.5	12.4	1.30e-04	0	42	0	84934656	20	4384
2026-01-08 09:59:39.39	146.41	11.15	-29.7	-31.3	12.5	1.53e-04	0	42	0	85983232	20	4331
2026-01-08 09:59:40.40	146.38	11.24	-29.5	-30.6	12.9	9.99e-05	0	42	0	88080384	20	4111
2026-01-08 09:59:41.40	146.36	11.33	-29.3	-30.2	13.2	2.67e-05	0	42	0	90177536	20	3984
2026-01-08 09:59:42.40	146.33	11.43	-29.3	-30.5	13.4	1.83e-05	0	42	0	92274688	19	4143
2026-01-08 09:59:43.41	146.31	11.52	-29.2	-30.3	13.5	1.75e-05	0	42	0	93323264	19	4104
2026-01-08 09:59:44.41	146.28	11.61	-29.1	-30.1	13.7	6.10e-06	0	42	0	95420416	19	4039
2026-01-08 09:59:45.41	146.26	11.70	-29.0	-29.9	13.8	3.80e-06	0	42	0	97517568	19	3969
2026-01-08 09:59:46.42	146.23	11.80	-29.1	-30.0	13.8	3.80e-06	0	42	0	99614720	19	3997
2026-01-08 09:59:47.43	146.21	11.89	-29.1	-30.0	13.8	6.80e-06	0	42	0	101711872	19	3993
2026-01-08 09:59:48.43	146.18	11.98	-29.1	-29.9	13.9	4.50e-06	0	42	0	102760448	19	3977
2026-01-08 09:59:49.44	146.15	12.08	-29.1	-30.0	13.8	9.90e-06	0	42	0	104857600	19	4000
2026-01-08 09:59:50.44	146.13	12.17	-29.2	-30.2	13.7	5.30e-06	0	42	0	106954752	19	4057
2026-01-08 09:59:51.45	146.10	12.27	-29.1	-30.1	13.8	4.50e-06	0	42	0	109051904	19	4004
2026-01-08 09:59:52.46	146.08	12.37	-29.2	-30.3	13.7	7.60e-06	0	42	0	111149056	19	4085
2026-01-08 09:59:53.46	146.05	12.46	-29.2	-30.3	13.7	6.10e-06	0	42	0	112197632	19	4078
2026-01-08 09:59:54.47	146.02	12.56	-29.3	-30.4	13.6	6.10e-06	0	42	0	114294784	19	4109
2026-01-08 09:59:55.48	145.99	12.66	-29.1	-30.1	13.8	8.30e-06	0	42	0	116391936	19	3998
2026-01-08 09:59:56.48	145.97	12.75	-29.2	-30.1	13.8	6.80e-06	0	42	0	118489088	19	4005
2026-01-08 09:59:57.49	145.94	12.85	-29.1	-30.0	13.9	3.00e-06	0	42	0	120586240	19	3987
2026-01-08 09:59:58.49	145.91	12.95	-29.2	-30.1	13.9	5.30e-06	0	42	0	121634816	19	3996
2026-01-08 09:59:59.51	145.88	13.05	-29.0	-29.8	14.1	2.20e-06	0	42	0	123731968	19	3919
2026-01-08 10:00:00.51	145.85	13.15	-29.1	-29.9	14.0	5.30e-06	0	42	0	125829120	19	3934
2026-01-08 10:00:01.52	145.82	13.25	-29.1	-30.0	13.9	6.10e-06	0	42	0	127926272	19	3978
2026-01-08 10:00:02.53	145.80	13.34	-29.3	-30.3	13.7	3.80e-06	0	42	0	130023424	19	4072
2026-01-08 10:00:03.53	145.77	13.44	-29.1	-29.8	14.1	1.50e-06	0	42	0	131072000	19	3929
2026-01-08 10:00:04.54	145.74	13.55	-29.0	-29.8	14.1	1.50e-06	0	42	0	133169152	19	3921
2026-01-08 10:00:05.55	145.71	13.65	-28.9	-29.5	14.3	2.20e-06	0	42	0	135266304	19	3855
2026-01-08 10:00:06.55	145.68	13.75	-29.1	-30.0	14.0	2.20e-06	0	42	0	137363456	19	3977
2026-01-08 10:00:07.56	145.65	13.85	-29.2	-30.2	13.7	4.50e-06	0	42	0	139460608	19	4051
2026-01-08 10:00:08.57	145.62	13.95	-29.4	-30.7	13.5	8.30e-06	0	42	0	140509184	19	4175
2026-01-08 10:00:09.58	145.59	14.05	-29.3	-30.5	13.7	9.10e-06	0	42	0	142606336	19	4126
2026-01-08 10:00:10.58	145.56	14.16	-29.3	-30.5	13.6	8.30e-06	0	42	0	144703488	19	4131
2026-01-08 10:00:11.59	145.53	14.26	-29.4	-30.6	13.6	1.22e-05	0	42	0	146800640	19	4161
2026-01-08 10:00:12.59	145.49	14.36	-29.4	-30.8	13.5	2.20e-06	0	42	0	148897792	19	4208
2026-01-08 10:00:13.59	145.46	14.47	-29.5	-30.9	13.4	1.37e-05	0	42	0	149946368	19	4247
2026-01-08 10:00:14.60	145.43	14.57	-29.4	-30.8	13.5	9.90e-06	0	42	0	152043520	19	4209
2026-01-08 10:00:15.61	145.40	14.68	-29.4	-30.6	13.7	5.30e-06	0	42	0	154140672	19	4150
2026-01-08 10:00:16.62	145.37	14.78	-29.4	-30.8	13.5	1.52e-05	0	42	0	156237824	19	4205
2026-01-08 10:00:17.62	145.34	14.89	-29.4	-30.7	13.6	4.50e-06	0	42	0	158334976	19	4177
2026-01-08 10:00:18.63	145.30	15.00	-29.4	-30.6	13.7	3.00e-06	0	42	0	159383552	19	4132
2026-01-08 10:00:19.63	145.27	15.10	-29.6	-31.2	13.3	9.10e-06	0	42	0	161480704	19	4331
2026-01-08 10:00:20.63	145.24	15.21	-29.5	-31.0	13.4	2.05e-05	0	42	0	163577856	19	4248
2026-01-08 10:00:21.64	145.20	15.32	-29.5	-30.9	13.5	4.50e-06	0	42	0	165675008	19	4222
2026-01-08 10:00:22.65	145.17	15.43	-29.4	-30.7	13.6	3.00e-06	0	42	0	167772160	19	4156
2026-01-08 10:00:23.65	145.14	15.53	-29.4	-30.5	13.7	9.90e-06	0	42	0	168820736	19	4116
2026-01-08 10:00:24.66	145.10	15.64	-29.4	-30.5	13.7	4.50e-06	0	42	0	170917888	19	4112
2026-01-08 10:00:25.67	145.07	15.75	-29.4	-30.6	13.7	9.10e-06	0	42	0	173015040	19	4126
2026-01-08 10:00:26.67	145.03	15.86	-29.5	-30.7	13.6	3.80e-06	0	42	0	175112192	19	4172
2026-01-08 10:00:27.67	145.00	15.97	-29.4	-30.6	13.7	9.90e-06	0	43	0	177209344	19	4125
2026-01-08 10:00:28.68	144.96	16.08	-29.2	-30.0	14.1	2.20e-06	0	43	0	178257920	19	3950
2026-01-08 10:00:29.69	144.93	16.20	-29.2	-29.9	14.1	0.00e+00	0	42	0	180355072	19	3938
2026-01-08 10:00:30.69	144.89	16.31	-29.0	-29.5	14.4	7.00e-07	0	43	0	182452224	19	3810
2026-01-08 10:00:31.69	144.86	16.42	-29.0	-29.5	14.5	7.00e-07	0	43	0	184549376	19	3808
2026-01-08 10:00:32.70	144.82	16.53	-29.2	-30.0	14.2	1.50e-06	0	42	0	186646528	19	3953
2026-01-08 10:00:33.71	144.78	16.65	-29.2	-29.9	14.2	1.50e-06	0	43	0	187695104	19	3930
2026-01-08 10:00:34.71	144.75	16.76	-29.0	-29.5	14.5	7.00e-07	0	42	0	189792256	19	3821
2026-01-08 10:00:35.71	144.71	16.87	-29.2	-30.0	14.2	1.50e-06	0	42	0	191889408	19	3937
2026-01-08 10:00:36.72	144.67	16.99	-29.2	-30.0	14.2	3.00e-06	0	42	0	193986560	19	3951
2026-01-08 10:00:37.73	144.63	17.11	-29.2	-30.0	14.2	0.00e+00	0	43	0	196083712	19	3955
2026-01-08 10:00:38.73	144.59	17.22	-29.4	-30.4	14.0	1.50e-06	0	43	0	197132288	19	4055
2026-01-08 10:00:39.74	144.56	17.34	-29.3	-30.2	14.1	4.50e-06	0	43	0	199229440	19	3994
2026-01-08 10:00:40.74	144.52	17.46	-29.3	-30.2	14.1	7.00e-07	0	43	0	201326592	19	4012
2026-01-08 10:00:41.74	144.48	17.57	-29.2	-30.1	14.3	1.50e-06	0	43	0	203423744	19	3969
2026-01-08 10:00:42.74	144.44	17.69	-29.2	-30.0	14.3	7.00e-07	0	43	0	205520896	19	3958
2026-01-08 10:00:43.75	144.40	17.81	-29.4	-30.6	13.9	1.50e-06	0	42	0	206569472	19	4104
2026-01-08 10:00:44.75	144.36	17.93	-29.3	-30.2	14.1	7.00e-07	0	43	0	208666624	19	4010
2026-01-08 10:00:45.76	144.32	18.05	-29.2	-29.9	14.3	7.00e-07	0	43	0	210763776	19	3927
2026-01-08 10:00:46.77	144.28	18.17	-29.1	-29.6	14.5	3.00e-06	0	43	0	212860928	19	3849
2026-01-08 10:00:47.77	144.24	18.29	-28.9	-29.2	14.8	0.00e+00	0	43	0	214958080	19	3736
2026-01-08 10:00:48.77	144.19	18.41	-29.1	-29.8	14.5	0.00e+00	0	43	0	216006656	19	3894
2026-01-08 10:00:49.78	144.15	18.54	-29.2	-30.0	14.4	0.00e+00	0	43	0	218103808	19	3932
2026-01-08 10:00:50.78	144.11	18.66	-29.2	-30.1	14.3	0.00e+00	0	43	0	220200960	19	3960
2026-01-08 10:00:51.79	144.07	18.78	-29.3	-30.2	14.2	2.20e-06	0	43	0	222298112	19	3999
2026-01-08 10:00:52.79	144.02	18.91	-29.3	-30.1	14.3	0.00e+00	0	43	0	224395264	19	3966
2026-01-08 10:00:53.80	143.98	19.03	-29.6	-30.9	13.9	7.00e-07	0	43	0	225443840	19	4186
2026-01-08 10:00:54.80	143.94	19.16	-29.5	-30.6	14.0	1.50e-06	0	43	0	227540992	19	4092
2026-01-08 10:00:55.81	143.89	19.28	-29.2	-30.0	14.4	9.90e-06	0	43	0	229638144	19	3934
2026-01-08 10:00:56.82	143.85	19.41	-29.4	-30.4	14.2	7.00e-07	0	43	0	231735296	19	4042
2026-01-08 10:00:57.82	143.80	19.54	-29.4	-30.4	14.2	2.20e-06	0	43	0	232783872	19	4046
2026-01-08 10:00:58.82	143.76	19.66	-29.4	-30.4	14.2	1.50e-06	0	43	0	234881024	19	4051
2026-01-08 10:00:59.83	143.71	19.79	-29.7	-31.0	13.8	2.20e-06	0	43	0	236978176	19	4221
2026-01-08 10:01:00.83	143.67	19.92	-29.6	-31.0	13.9	8.30e-06	0	43	0	239075328	19	4208
2026-01-08 10:01:01.84	143.62	20.05	-29.6	-30.8	14.0	1.50e-06	0	43	0	241172480	19	4152
2026-01-08 10:01:02.85	143.57	20.18	-29.5	-30.7	14.1	1.50e-06	0	43	0	243269632	19	4120
2026-01-08 10:01:03.85	143.53	20.31	-29.4	-30.3	14.3	6.10e-06	0	43	0	244318208	19	3997
2026-01-08 10:01:04.86	143.48	20.45	-29.7	-31.1	13.8	2.20e-06	0	43	0	246415360	19	4247
2026-01-08 10:01:05.87	143.43	20.58	-29.5	-30.5	14.2	2.20e-06	0	43	0	248512512	19	4075
2026-01-08 10:01:06.88	143.38	20.71	-29.4	-30.4	14.3	3.00e-06	0	43	0	250609664	19	4042
2026-01-08 10:01:07.88	143.33	20.85	-29.4	-30.3	14.4	7.00e-07	0	43	0	252706816	19	4001
2026-01-08 10:01:08.88	143.28	20.98	-29.3	-30.2	14.4	0.00e+00	0	43	0	253755392	19	3984
2026-01-08 10:01:09.89	143.23	21.12	-29.3	-30.0	14.6	5.30e-06	0	43	0	255852544	19	3918
2026-01-08 10:01:10.90	143.18	21.25	-29.4	-30.3	14.4	0.00e+00	0	43	0	257949696	19	4011
2026-01-08 10:01:11.90	143.13	21.39	-29.2	-29.7	14.7	7.00e-07	0	43	0	260046848	19	3839
2026-01-08 10:01:12.90	143.08	21.53	-29.4	-30.4	14.3	6.10e-06	0	43	0	261095424	19	4021
2026-01-08 10:01:13.90	143.03	21.66	-29.6	-30.8	14.1	3.00e-06	0	43	0	263192576	19	4147
2026-01-08 10:01:14.90	142.97	21.80	-29.7	-31.0	14.0	3.00e-06	0	43	0	265289728	19	4190
2026-01-08 10:01:15.90	142.92	21.94	-29.8	-31.4	13.8	6.80e-06	0	43	0	267386880	19	4309
2026-01-08 10:01:16.91	142.87	22.08	-29.9	-31.8	13.5	6.80e-06	0	43	0	269484032	19	4433
2026-01-08 10:01:17.91	142.81	22.22	-29.9	-31.6	13.6	9.90e-06	0	43	0	270532608	19	4399
2026-01-08 10:01:18.92	142.76	22.37	-29.7	-30.7	13.8	3.80e-06	0	43	0	272629760	20	4040
2026-01-08 10:01:19.92	142.70	22.51	-29.5	-30.2	14.2	5.30e-06	0	43	0	274726912	20	3875
2026-01-08 10:01:20.93	142.65	22.65	-29.7	-30.6	13.9	3.80e-06	0	43	0	276824064	20	3986
2026-01-08 10:01:21.94	142.59	22.80	-29.5	-30.1	14.2	3.00e-06	0	43	0	278921216	20	3852
2026-01-08 10:01:22.95	142.54	22.94	-29.4	-30.3	14.5	1.50e-06	0	43	0	279969792	19	3990
2026-01-08 10:01:23.95	142.48	23.09	-29.5	-30.4	14.5	0.00e+00	0	43	0	282066944	19	4028
2026-01-08 10:01:24.95	142.42	23.23	-29.2	-29.8	14.8	0.00e+00	0	43	0	284164096	19	3867
2026-01-08 10:01:25.96	142.36	23.38	-29.3	-30.0	14.7	1.50e-06	0	43	0	286261248	19	3898
2026-01-08 10:01:26.97	142.30	23.53	-29.6	-30.7	14.3	0.00e+00	0	43	0	288358400	19	4106
2026-01-08 10:01:27.97	142.24	23.68	-29.3	-30.0	14.7	7.00e-07	0	43	0	289406976	19	3903
2026-01-08 10:01:28.98	142.18	23.83	-29.5	-30.5	14.4	1.50e-06	0	43	0	291504128	19	4057
2026-01-08 10:01:29.98	142.12	23.98	-29.7	-31.0	14.1	1.50e-06	0	43	0	293601280	19	4193
2026-01-08 10:01:30.98	142.06	24.13	-29.8	-31.4	13.9	2.20e-06	0	43	0	295698432	19	4299
2026-01-08 10:01:31.98	142.00	24.28	-30.0	-31.8	13.6	1.50e-06	0	43	0	297795584	19	4436
2026-01-08 10:01:32.98	141.94	24.43	-29.9	-31.2	13.6	3.80e-06	0	43	0	298844160	20	4170
2026-01-08 10:01:33.98	141.87	24.59	-30.1	-31.7	13.3	3.80e-06	0	43	0	300941312	20	4306
2026-01-08 10:01:34.99	141.81	24.74	-30.2	-31.9	13.1	1.75e-05	0	43	0	303038464	20	4382
2026-01-08 10:01:35.99	141.75	24.90	-30.1	-31.6	13.4	2.21e-05	0	43	0	305135616	20	4280
2026-01-08 10:01:37.00	141.68	25.05	-30.3	-32.3	12.9	2.82e-05	0	43	0	307232768	20	4493
2026-01-08 10:01:38.01	141.61	25.21	-30.3	-32.2	13.1	3.35e-05	0	43	0	308281344	20	4469
2026-01-08 10:01:39.01	141.55	25.37	-30.4	-32.6	12.8	2.59e-05	0	43	0	310378496	20	4603
2026-01-08 10:01:40.02	141.48	25.53	-30.3	-32.3	13.0	5.49e-05	0	43	0	312475648	20	4508
2026-01-08 10:01:41.03	141.41	25.69	-30.2	-32.0	13.1	3.58e-05	0	43	0	314572800	20	4416
2026-01-08 10:01:42.04	141.34	25.85	-30.3	-32.2	13.0	2.67e-05	0	43	0	316669952	20	4463
2026-01-08 10:01:43.04	141.27	26.02	-30.2	-31.9	13.3	1.83e-05	0	43	0	317718528	20	4372
2026-01-08 10:01:44.05	141.20	26.18	-30.0	-31.3	13.6	1.98e-05	0	43	0	319815680	20	4195
2026-01-08 10:01:45.06	141.13	26.34	-30.3	-32.2	13.0	2.05e-05	0	43	0	321912832	20	4472
2026-01-08 10:01:46.06	141.06	26.51	-30.1	-31.7	13.3	2.36e-05	0	43	0	324009984	20	4304
2026-01-08 10:01:47.07	140.99	26.67	-30.0	-31.5	13.5	6.80e-06	0	43	0	326107136	20	4237
2026-01-08 10:01:48.07	140.91	26.84	-30.2	-32.0	13.2	1.14e-05	0	43	0	327155712	20	4386
2026-01-08 10:01:49.08	140.84	27.01	-30.3	-31.6	13.2	3.81e-05	0	43	0	329252864	21	4169
2026-01-08 10:01:50.08	140.77	27.18	-30.5	-32.2	12.8	4.80e-05	0	43	0	331350016	21	4384
2026-01-08 10:01:51.09	140.69	27.35	-30.6	-32.6	12.5	1.04e-04	0	43	0	333447168	21	4493
2026-01-08 10:01:52.10	140.61	27.52	-30.6	-32.5	12.6	1.54e-04	0	43	0	335544320	21	4485
2026-01-08 10:01:53.10	140.54	27.69	-30.7	-32.6	12.5	9.99e-05	0	43	0	336592896	21	4493
2026-01-08 10:01:54.11	140.46	27.86	-30.7	-32.7	12.5	1.19e-04	0	43	0	338690048	21	4524
2026-01-08 10:01:55.12	140.38	28.04	-30.5	-32.2	12.8	7.17e-05	0	43	0	340787200	21	4380
2026-01-08 10:01:56.12	140.30	28.21	-30.6	-32.5	12.7	5.72e-05	0	43	0	342884352	21	4455
2026-01-08 10:01:57.13	140.22	28.39	-30.5	-32.2	12.8	8.69e-05	0	43	0	344981504	21	4351
2026-01-08 10:01:58.13	140.13	28.57	-30.5	-32.1	12.9	5.26e-05	0	43	0	346030080	21	4341
2026-01-08 10:01:59.14	140.05	28.75	-30.5	-32.0	12.9	4.73e-05	0	43	0	348127232	21	4308
2026-01-08 10:02:00.15	139.97	28.93	-30.6	-32.3	12.7	5.18e-05	0	43	0	350224384	21	4407
2026-01-08 10:02:01.16	139.88	29.11	-30.8	-33.0	12.3	1.50e-04	0	43	0	352321536	21	4616
2026-01-08 10:02:02.17	139.80	29.29	-30.7	-32.6	12.6	8.69e-05	0	43	0	354418688	21	4483
2026-01-08 10:02:03.17	139.71	29.47	-30.6	-32.5	12.7	4.80e-05	0	43	0	355467264	21	4446
2026-01-08 10:02:04.17	139.62	29.65	-30.6	-32.4	12.7	9.00e-05	0	43	0	357564416	21	4436
2026-01-08 10:02:05.17	139.53	29.84	-30.6	-32.4	12.8	1.02e-04	0	43	0	359661568	21	4412
2026-01-08 10:02:06.17	139.44	30.02	-30.9	-32.8	12.1	1.60e-04	0	43	0	361758720	22	4462
2026-01-08 10:02:07.18	139.35	30.21	-30.8	-32.4	12.4	1.26e-04	0	43	0	363855872	22	4327
2026-01-08 10:02:08.18	139.26	30.40	-30.8	-32.3	12.5	4.11e-05	0	43	0	364904448	22	4302
2026-01-08 10:02:09.18	139.17	30.58	-30.9	-32.7	12.2	2.29e-04	0	43	0	367001600	22	4430
2026-01-08 10:02:10.18	139.07	30.77	-31.0	-33.0	12.1	2.58e-04	0	43	0	369098752	22	4518
2026-01-08 10:02:11.18	138.98	30.96	-31.0	-33.1	12.0	2.33e-04	0	43	0	371195904	22	4565
2026-01-08 10:02:12.19	138.88	31.16	-31.1	-33.2	11.9	2.71e-04	0	43	0	373293056	22	4606
2026-01-08 10:02:13.19	138.78	31.35	-31.2	-33.5	11.7	6.56e-04	0	43	0	374341632	22	4708
2026-01-08 10:02:14.20	138.68	31.55	-31.6	-34.4	10.6	1.79e-03	0	43	0	376438784	23	4979
2026-01-08 10:02:15.20	138.58	31.74	-31.6	-34.2	10.9	2.34e-03	0	43	0	378535936	23	4883
2026-01-08 10:02:16.21	138.48	31.94	-31.8	-35.2	10.2	2.98e-03	0	43	0	380633088	23	5297
2026-01-08 10:02:17.21	138.38	32.14	-32.0	-35.1	9.9	8.85e-03	0	43	0	381681664	24	5162
2026-01-08 10:02:18.22	138.27	32.34	-32.0	-35.3	9.6	2.02e-02	0	43	0	383778816	24	5245
2026-01-08 10:02:19.23	138.17	32.54	-32.3	-36.3	8.8	1.82e-02	0	43	0	385875968	24	5727
2026-01-08 10:02:20.24	138.06	32.75	-32.3	-36.3	8.9	2.59e-02	0	43	0	387973120	24	5732
2026-01-08 10:02:21.25	137.95	32.95	-32.3	-36.2	9.0	1.87e-02	0	43	0	390070272	24	5654
2026-01-08 10:02:22.26	137.84	33.16	-32.4	-37.0	8.4	3.50e-02	0	43	0	391118848	24	6075
2026-01-08 10:02:23.26	137.73	33.36	-32.3	-35.9	8.8	3.29e-02	0	43	0	393216000	25	5452
2026-01-08 10:02:24.26	137.62	33.57	-32.6	-36.9	8.1	3.27e-02	0	43	0	395313152	25	5946
2026-01-08 10:02:25.26	137.51	33.77	-32.8	-38.2	7.1	1.39e-01	0	43	0	397410304	25	6667
2026-01-08 10:02:26.27	137.39	33.99	-32.8	-38.1	7.1	1.50e-01	0	43	0	399507456	25	6628
2026-01-08 10:02:27.28	137.27	34.20	-33.0	-38.7	6.2	1.64e-01	0	43	0	401604608	26	6912
2026-01-08 10:02:28.28	137.15	34.41	-33.1	-38.9	6.3	2.95e-01	0	43	0	402653184	26	7065
2026-01-08 10:02:29.28	137.03	34.62	-32.9	-38.0	6.8	2.53e-01	0	43	0	404750336	26	6475
2026-01-08 10:02:30.28	136.91	34.84	-33.1	-39.0	6.2	2.91e-01	0	43	0	406847488	26	7094
2026-01-08 10:02:31.29	136.79	35.05	-33.1	-38.8	6.3	2.85e-01	0	43	0	408944640	26	7006
2026-01-08 10:02:32.29	136.66	35.27	-32.9	-38.0	6.9	1.92e-01	0	43	0	409993216	26	6491
2026-01-08 10:02:33.29	136.54	35.49	-32.7	-36.9	7.7	1.21e-01	0	43	0	412090368	26	5825
2026-01-08 10:02:34.30	136.41	35.71	-32.7	-36.8	7.9	7.97e-02	0	43	0	414187520	26	5789
2026-01-08 10:02:35.31	136.28	35.93	-32.8	-37.2	7.6	1.17e-01	0	43	0	416284672	26	5981
2026-01-08 10:02:36.32	136.14	36.16	-32.4	-36.7	7.7	9.98e-02	0	43	0	418381824	26	5899
2026-01-08 10:02:37.32	136.01	36.38	-32.6	-37.6	6.9	1.11e-01	0	43	0	419430400	26	6402
2026-01-08 10:02:38.32	135.88	36.61	-32.0	-35.7	8.8	4.35e-02	0	43	0	421527552	25	5456
2026-01-08 10:02:39.33	135.74	36.84	-31.6	-34.5	10.1	1.31e-02	0	43	0	423624704	24	5017
2026-01-08 10:02:40.33	135.60	37.06	-31.2	-33.7	11.0	9.57e-03	0	43	0	425721856	23	4812
2026-01-08 10:02:41.34	135.45	37.29	-31.1	-33.4	11.3	1.26e-03	0	43	0	427819008	23	4676
2026-01-08 10:02:42.35	135.31	37.53	-31.4	-34.1	10.9	1.32e-03	0	43	0	428867584	23	4936
2026-01-08 10:02:43.35	135.16	37.76	-31.4	-34.1	10.8	3.91e-03	0	43	0	430964736	23	4920
2026-01-08 10:02:44.35	135.02	37.99	-31.5	-34.4	10.6	2.70e-03	0	43	0	433061888	23	5024
2026-01-08 10:02:45.36	134.87	38.23	-31.8	-35.4	9.9	6.78e-03	0	43	0	435159040	23	5460
2026-01-08 10:02:46.37	134.71	38.47	-31.5	-34.5	10.5	2.88e-03	0	43	0	437256192	23	5085
2026-01-08 10:02:47.37	134.56	38.71	-31.5	-34.3	10.7	3.11e-03	0	43	0	438304768	23	4995
2026-01-08 10:02:48.38	134.40	38.95	-31.4	-34.0	11.0	3.75e-03	0	43	0	440401920	23	4874
2026-01-08 10:02:49.39	134.24	39.19	-31.5	-34.2	10.8	2.98e-03	0	43	0	442499072	23	4960
2026-01-08 10:02:50.39	134.08	39.43	-31.6	-34.8	10.5	3.42e-03	0	43	0	444596224	23	5197
2026-01-08 10:02:51.39	133.91	39.67	-31.7	-35.2	10.1	6.01e-03	0	43	0	446693376	23	5372
2026-01-08 10:02:52.40	133.74	39.92	-31.7	-35.2	10.2	7.51e-03	0	43	0	447741952	23	5375
2026-01-08 10:02:53.40	133.58	40.17	-31.6	-34.7	10.6	4.64e-03	0	43	0	449839104	23	5143
2026-01-08 10:02:54.41	133.40	40.42	-31.3	-33.9	11.0	2.42e-03	0	43	0	451936256	23	4819
2026-01-08 10:02:55.42	133.23	40.67	-31.2	-33.4	11.4	1.63e-03	0	43	0	454033408	23	4659
2026-01-08 10:02:56.43	133.05	40.92	-31.0	-32.7	11.8	8.05e-04	0	43	0	456130560	23	4397
2026-01-08 10:02:57.44	132.86	41.18	-30.9	-32.6	11.9	6.40e-04	0	43	0	457179136	23	4357
2026-01-08 10:02:58.44	132.68	41.43	-30.7	-32.3	12.5	2.00e-04	0	43	0	459276288	22	4346
2026-01-08 10:02:59.45	132.49	41.69	-30.6	-31.9	12.8	1.50e-04	0	43	0	461373440	22	4206
2026-01-08 10:03:00.46	132.30	41.95	-30.6	-31.9	12.8	4.11e-05	0	43	0	463470592	22	4205
2026-01-08 10:03:01.46	132.11	42.20	-30.4	-32.0	13.1	1.83e-05	0	43	0	465567744	21	4335
2026-01-08 10:03:02.46	131.92	42.46	-30.5	-32.2	13.0	2.67e-05	0	43	0	466616320	21	4369
2026-01-08 10:03:03.47	131.72	42.72	-30.2	-31.5	13.3	5.11e-05	0	43	0	468713472	21	4149
2026-01-08 10:03:04.47	131.51	42.99	-30.1	-31.6	13.7	6.10e-06	0	43	0	470810624	20	4295
2026-01-08 10:03:05.48	131.31	43.25	-29.9	-31.0	14.0	7.60e-06	0	43	0	472907776	20	4104
2026-01-08 10:03:06.48	131.10	43.52	-29.9	-31.1	14.1	3.00e-06	0	43	0	475004928	20	4116
2026-01-08 10:03:07.48	130.89	43.78	-30.2	-32.0	13.4	7.60e-06	0	43	0	476053504	20	4422
2026-01-08 10:03:08.49	130.67	44.05	-30.1	-31.7	13.7	7.60e-06	0	43	0	478150656	20	4300
2026-01-08 10:03:09.49	130.45	44.32	-30.1	-31.5	13.8	2.20e-06	0	43	0	480247808	20	4237
2026-01-08 10:03:10.50	130.22	44.60	-30.0	-31.2	14.0	3.80e-06	0	43	0	482344960	20	4141
2026-01-08 10:03:11.51	129.99	44.87	-30.0	-31.4	13.9	3.00e-06	0	43	0	484442112	20	4197
2026-01-08 10:03:12.52	129.76	45.15	-29.9	-31.1	14.1	4.50e-06	0	43	0	485490688	20	4126
2026-01-08 10:03:13.52	129.52	45.42	-30.0	-31.4	13.8	6.10e-06	0	43	0	487587840	20	4219
2026-01-08 10:03:14.52	129.29	45.69	-30.7	-32.8	12.6	1.67e-05	0	43	0	489684992	21	4580
2026-01-08 10:03:15.53	129.04	45.97	-30.3	-31.6	13.3	1.29e-05	0	43	0	491782144	21	4186
2026-01-08 10:03:16.53	128.79	46.25	-30.4	-32.0	13.2	1.83e-05	0	43	0	493879296	21	4307
2026-01-08 10:03:17.54	128.54	46.54	-30.1	-31.2	13.6	5.18e-05	0	43	0	494927872	21	4075
2026-01-08 10:03:18.55	128.28	46.82	-30.0	-30.9	13.9	7.00e-07	0	43	0	497025024	21	3994
2026-01-08 10:03:19.56	128.01	47.10	-30.2	-31.5	13.5	8.30e-06	0	43	0	499122176	21	4184
2026-01-08 10:03:20.56	127.74	47.39	-30.4	-32.0	13.2	1.29e-05	0	43	0	501219328	21	4327
2026-01-08 10:03:21.57	127.47	47.67	-30.6	-32.7	12.6	4.95e-05	0	43	0	503316480	21	4587
2026-01-08 10:03:22.58	127.19	47.96	-30.4	-32.1	13.0	6.17e-05	0	43	0	504365056	21	4373
2026-01-08 10:03:23.59	126.90	48.25	-30.4	-31.9	13.1	4.04e-05	0	43	0	506462208	21	4325
2026-01-08 10:03:24.59	126.62	48.54	-30.5	-32.4	12.9	4.19e-05	0	43	0	508559360	21	4463
2026-01-08 10:03:25.60	126.32	48.83	-30.7	-32.9	12.6	4.34e-05	0	43	0	510656512	21	4640
2026-01-08 10:03:26.60	126.02	49.12	-30.6	-32.7	12.7	1.73e-04	0	43	0	512753664	21	4540
2026-01-08 10:03:27.62	125.71	49.42	-30.3	-31.6	13.5	3.73e-05	0	43	0	513802240	21	4206
2026-01-08 10:03:28.62	125.40	49.71	-29.7	-30.6	14.4	2.20e-06	0	43	0	515899392	20	3976
2026-01-08 10:03:29.63	125.08	50.01	-29.2	-29.8	15.3	0.00e+00	0	43	0	517996544	19	3836
2026-01-08 10:03:30.64	124.75	50.30	-28.9	-29.0	15.8	0.00e+00	0	43	0	520093696	19	3642
2026-01-08 10:03:31.65	124.42	50.60	-29.1	-29.4	15.5	0.00e+00	0	43	0	522190848	19	3722
2026-01-08 10:03:32.65	124.09	50.90	-29.2	-29.8	15.3	0.00e+00	0	43	0	523239424	19	3840
2026-01-08 10:03:33.66	123.74	51.20	-29.7	-31.0	14.6	0.00e+00	0	43	0	525336576	19	4173
2026-01-08 10:03:34.66	123.39	51.50	-29.7	-30.9	14.6	0.00e+00	0	43	0	527433728	19	4156
2026-01-08 10:03:35.67	123.03	51.80	-29.4	-30.2	15.1	0.00e+00	0	43	0	529530880	19	3961
2026-01-08 10:03:36.67	122.66	52.09	-29.0	-29.3	15.6	7.00e-07	0	43	0	531628032	19	3722
2026-01-08 10:03:37.67	122.29	52.39	-29.3	-29.9	15.2	0.00e+00	0	43	0	532676608	19	3884
2026-01-08 10:03:38.67	121.91	52.69	-29.8	-31.3	14.3	0.00e+00	0	43	0	534773760	19	4286
2026-01-08 10:03:39.68	121.52	53.00	-30.3	-32.1	13.4	3.00e-06	0	43	0	536870912	20	4469
2026-01-08 10:03:40.68	121.13	53.30	-30.3	-32.2	13.3	2.05e-05	0	43	0	538968064	20	4510
2026-01-08 10:03:41.69	120.72	53.60	-29.8	-31.0	14.1	5.30e-06	0	43	0	541065216	20	4118
2026-01-08 10:03:42.70	120.30	53.91	-29.6	-30.3	14.6	0.00e+00	0	43	0	542113792	20	3914
2026-01-08 10:03:43.70	119.88	54.21	-29.8	-30.8	14.3	7.00e-07	0	43	0	544210944	20	4062
2026-01-08 10:03:44.70	119.45	54.51	-30.1	-31.7	13.7	3.80e-06	0	43	0	546308096	20	4323
2026-01-08 10:03:45.71	119.01	54.82	-30.0	-31.2	14.1	4.50e-06	0	43	0	548405248	20	4153
2026-01-08 10:03:46.71	118.56	55.12	-30.1	-31.5	13.9	3.80e-06	0	43	0	550502400	20	4250
2026-01-08 10:03:47.71	118.10	55.42	-30.0	-31.4	13.9	3.80e-06	0	43	0	551550976	20	4205
2026-01-08 10:03:48.71	117.63	55.72	-30.4	-32.3	13.3	1.37e-05	0	43	0	553648128	20	4506
2026-01-08 10:03:49.72	117.15	56.03	-30.1	-31.2	13.8	1.60e-05	0	43	0	555745280	21	4056
2026-01-08 10:03:50.73	116.65	56.33	-30.0	-30.8	14.0	9.90e-06	0	43	0	557842432	21	3950
2026-01-08 10:03:51.73	116.15	56.63	-30.4	-31.8	13.4	2.20e-06	0	43	0	559939584	21	4244
2026-01-08 10:03:52.74	115.64	56.93	-30.0	-30.9	14.0	3.80e-06	0	43	0	560988160	21	3964
2026-01-08 10:03:53.75	115.11	57.24	-30.3	-31.6	13.5	3.00e-06	0	43	0	563085312	21	4166
2026-01-08 10:03:54.75	114.57	57.53	-30.4	-31.8	13.5	2.44e-05	0	43	0	565182464	21	4232
2026-01-08 10:03:55.76	114.02	57.83	-30.8	-33.0	12.7	1.44e-05	0	43	0	567279616	21	4644
2026-01-08 10:03:56.77	113.46	58.13	-30.8	-32.4	12.7	1.43e-04	0	43	0	568328192	22	4360
2026-01-08 10:03:57.78	112.88	58.43	-30.5	-31.6	13.3	1.22e-05	0	43	0	570425344	22	4099
2026-01-08 10:03:58.78	112.29	58.73	-30.0	-30.9	14.1	3.80e-06	0	43	0	572522496	21	3952
2026-01-08 10:03:59.78	111.70	59.02	-30.0	-30.7	14.3	7.00e-07	0	43	0	574619648	21	3901
2026-01-08 10:04:00.79	111.08	59.31	-30.1	-31.1	13.9	1.50e-06	0	43	0	576716800	21	4008
2026-01-08 10:04:01.79	110.45	59.60	-29.9	-30.5	14.2	3.00e-06	0	43	0	578813952	21	3857
2026-01-08 10:04:02.79	109.81	59.89	-30.2	-31.2	13.9	3.00e-06	0	43	0	579862528	21	4035
2026-01-08 10:04:03.79	109.16	60.18	-29.8	-30.3	14.4	3.80e-06	0	43	0	581959680	21	3808
2026-01-08 10:04:04.80	108.48	60.46	-29.2	-29.7	15.5	0.00e+00	0	43	0	584056832	19	3797
2026-01-08 10:04:05.81	107.79	60.75	-28.9	-29.0	15.8	0.00e+00	0	43	0	586153984	19	3632
2026-01-08 10:04:06.82	107.09	61.03	-28.8	-29.3	16.0	0.00e+00	0	43	0	587202560	18	3798
2026-01-08 10:04:07.83	106.36	61.31	-28.9	-29.5	15.9	0.00e+00	0	43	0	589299712	18	3858
2026-01-08 10:04:08.83	105.63	61.58	-29.2	-30.2	15.5	0.00e+00	0	43	0	591396864	18	4038
2026-01-08 10:04:09.83	104.89	61.85	-29.5	-30.4	15.0	0.00e+00	0	43	0	593494016	19	4001
2026-01-08 10:04:10.84	104.11	62.12	-29.7	-31.1	14.7	0.00e+00	0	43	0	595591168	19	4194
2026-01-08 10:04:11.85	103.32	62.38	-29.3	-30.0	15.3	0.00e+00	0	43	0	596639744	19	3900
2026-01-08 10:04:12.85	102.53	62.64	-29.1	-29.4	15.8	0.00e+00	0	43	0	598736896	19	3738
2026-01-08 10:04:13.85	101.71	62.90	-29.4	-30.2	15.1	3.00e-06	0	43	0	600834048	19	3965
2026-01-08 10:04:14.85	100.88	63.15	-29.0	-29.3	15.7	0.00e+00	0	43	0	602931200	19	3718
2026-01-08 10:04:15.86	100.02	63.40	-28.6	-28.8	16.3	0.00e+00	0	43	0	605028352	18	3670
2026-01-08 10:04:16.87	99.14	63.65	-29.0	-29.8	15.8	0.00e+00	0	43	0	606076928	18	3918
2026-01-08 10:04:17.88	98.24	63.89	-29.7	-30.9	14.8	0.00e+00	0	43	0	608174080	19	4158
2026-01-08 10:04:18.88	97.34	64.12	-29.1	-29.4	15.6	0.00e+00	0	43	0	610271232	19	3742
2026-01-08 10:04:19.89	96.41	64.35	-29.0	-29.2	15.8	0.00e+00	0	43	0	612368384	19	3680
2026-01-08 10:04:20.89	95.46	64.57	-29.3	-29.8	15.5	0.00e+00	0	43	0	614465536	19	3817
2026-01-08 10:04:21.89	94.50	64.79	-29.1	-29.4	15.7	0.00e+00	0	43	0	615514112	19	3723
2026-01-08 10:04:22.90	93.51	65.00	-30.1	-31.5	14.0	0.00e+00	0	43	0	617611264	20	4229
2026-01-08 10:04:23.90	92.52	65.21	-30.8	-32.9	12.8	1.52e-05	0	43	0	619708416	21	4605
2026-01-08 10:04:24.91	91.49	65.41	-30.9	-33.2	12.5	1.03e-04	0	43	0	621805568	21	4703
2026-01-08 10:04:25.92	90.45	65.60	-30.8	-32.9	12.8	4.73e-05	0	43	0	623902720	21	4583
2026-01-08 10:04:26.93	89.38	65.79	-31.3	-34.0	11.8	1.88e-04	0	43	0	624951296	22	4916
2026-01-08 10:04:27.94	88.30	65.96	-31.1	-33.3	12.2	3.91e-04	0	43	0	627048448	22	4665
2026-01-08 10:04:28.94	87.22	66.13	-29.9	-30.5	14.2	8.30e-06	0	43	0	629145600	21	3855
2026-01-08 10:04:29.94	86.11	66.30	-29.7	-30.4	14.7	7.00e-07	0	43	0	631242752	20	3922
2026-01-08 10:04:30.95	84.98	66.45	-29.9	-31.1	14.3	0.00e+00	0	43	0	633339904	20	4116
2026-01-08 10:04:31.96	83.83	66.60	-29.9	-31.0	14.3	1.50e-06	0	43	0	634388480	20	4101
2026-01-08 10:04:32.97	82.67	66.74	-29.9	-31.0	14.3	7.00e-07	0	43	0	636485632	20	4074
2026-01-08 10:04:33.97	81.51	66.87	-29.6	-30.2	14.9	0.00e+00	0	43	0	638582784	20	3850
2026-01-08 10:04:34.97	80.33	66.99	-29.3	-29.9	15.4	0.00e+00	0	43	0	640679936	19	3857
2026-01-08 10:04:35.97	79.13	67.10	-30.1	-31.4	14.0	0.00e+00	0	43	0	642777088	20	4197
2026-01-08 10:04:36.98	77.92	67.20	-30.2	-31.8	13.8	2.20e-06	0	43	0	643825664	20	4307
2026-01-08 10:04:37.98	76.70	67.30	-29.2	-29.6	15.6	0.00e+00	0	43	0	645922816	19	3767
2026-01-08 10:04:38.98	75.47	67.38	-29.4	-30.2	15.3	0.00e+00	0	43	0	648019968	19	3920
2026-01-08 10:04:39.99	74.22	67.46	-30.2	-31.7	13.9	0.00e+00	0	43	0	650117120	20	4280
2026-01-08 10:04:41.00	72.96	67.52	-30.1	-31.4	14.1	2.20e-06	0	43	0	652214272	20	4183
2026-01-08 10:04:42.01	71.70	67.57	-30.0	-31.1	14.3	0.00e+00	0	43	0	653262848	20	4082
2026-01-08 10:04:43.01	70.44	67.62	-30.1	-31.4	14.1	1.50e-06	0	43	0	655360000	20	4198
2026-01-08 10:04:44.02	69.17	67.65	-30.3	-31.9	13.8	5.30e-06	0	43	0	657457152	20	4341
2026-01-08 10:04:45.02	67.90	67.68	-30.5	-32.4	13.6	3.80e-06	0	43	0	659554304	20	4514
2026-01-08 10:04:46.03	66.62	67.69	-30.5	-32.0	13.5	2.21e-05	0	43	0	661651456	21	4274
2026-01-08 10:04:47.03	65.35	67.70	-30.1	-31.1	14.0	6.80e-06	0	43	0	662700032	21	4010
2026-01-08 10:04:48.03	64.08	67.69	-30.5	-32.1	13.3	1.22e-05	0	43	0	664797184	21	4320
2026-01-08 10:04:49.03	62.81	67.67	-30.3	-31.5	13.7	3.80e-06	0	43	0	666894336	21	4148
2026-01-08 10:04:50.04	61.53	67.65	-30.1	-31.1	13.9	7.00e-07	0	43	0	668991488	21	4030
2026-01-08 10:04:51.05	60.26	67.61	-30.5	-32.1	13.3	2.20e-06	0	43	0	671088640	21	4330
2026-01-08 10:04:52.06	58.99	67.56	-30.8	-32.9	12.8	1.01e-04	0	43	0	672137216	21	4605
2026-01-08 10:04:53.06	57.74	67.51	-30.3	-31.6	13.6	1.75e-05	0	43	0	674234368	21	4187
2026-01-08 10:04:54.07	56.48	67.44	-30.6	-32.2	13.3	8.30e-06	0	43	0	676331520	21	4361
2026-01-08 10:04:55.07	55.25	67.37	-31.2	-33.7	12.0	1.33e-04	0	43	0	678428672	22	4762
2026-01-08 10:04:56.07	54.02	67.28	-31.6	-34.2	11.2	1.15e-03	0	43	0	680525824	23	4868
2026-01-08 10:04:57.08	52.79	67.18	-32.0	-35.0	10.3	6.34e-03	0	43	0	681574400	24	5106
2026-01-08 10:04:58.09	51.58	67.08	-31.5	-33.2	11.5	8.32e-04	0	43	0	683671552	24	4408
2026-01-08 10:04:59.09	50.39	66.97	-31.3	-33.1	12.0	7.49e-04	0	43	0	685768704	23	4468
2026-01-08 10:05:00.10	49.20	66.84	-31.4	-33.5	11.6	3.24e-04	0	43	0	687865856	23	4615
2026-01-08 10:05:01.10	48.04	66.71	-31.0	-32.5	12.4	3.57e-04	0	43	0	689963008	23	4264
2026-01-08 10:05:02.10	46.89	66.57	-30.6	-31.8	13.2	6.33e-05	0	43	0	691011584	22	4117
2026-01-08 10:05:03.12	45.74	66.42	-29.7	-30.3	14.8	7.00e-07	0	43	0	693108736	20	3864
2026-01-08 10:05:04.12	44.62	66.27	-29.0	-29.2	15.8	0.00e+00	0	43	0	695205888	19	3669
2026-01-08 10:05:05.13	43.51	66.10	-29.7	-30.9	14.8	0.00e+00	0	43	0	697303040	19	4109
2026-01-08 10:05:06.13	42.43	65.93	-30.4	-32.2	13.6	1.50e-06	0	43	0	699400192	20	4451
2026-01-08 10:05:07.14	41.35	65.75	-30.4	-31.7	13.6	1.44e-05	0	43	0	700448768	21	4198
2026-01-08 10:05:08.14	40.31	65.57	-29.9	-30.5	14.3	1.50e-06	0	43	0	702545920	21	3863
2026-01-08 10:05:09.14	39.28	65.37	-29.3	-29.9	15.3	0.00e+00	0	43	0	704643072	19	3868
2026-01-08 10:05:10.15	38.25	65.17	-29.3	-29.8	15.5	0.00e+00	0	43	0	706740224	19	3819
2026-01-08 10:05:11.15	37.26	64.97	-29.1	-29.5	15.7	0.00e+00	0	43	0	708837376	19	3755
2026-01-08 10:05:12.16	36.28	64.75	-29.6	-30.7	14.9	7.00e-07	0	43	0	709885952	19	4085
2026-01-08 10:05:13.17	35.31	64.53	-29.4	-30.2	15.2	4.50e-06	0	43	0	711983104	19	3930
2026-01-08 10:05:14.16	34.38	64.31	-29.5	-30.3	15.3	7.00e-07	0	43	0	714080256	19	3968
2026-01-08 10:05:15.17	33.45	64.08	-29.4	-30.1	15.3	0.00e+00	0	43	0	716177408	19	3902
2026-01-08 10:05:16.18	32.54	63.85	-29.7	-30.9	14.8	4.50e-06	0	43	0	718274560	19	4139
2026-01-08 10:05:17.18	31.66	63.61	-30.5	-32.2	13.3	2.20e-06	0	43	0	719323136	21	4356
2026-01-08 10:05:18.19	30.79	63.36	-30.5	-32.1	13.2	4.42e-05	0	43	0	721420288	21	4329
2026-01-08 10:05:19.20	29.93	63.11	-29.9	-30.5	14.3	6.80e-06	0	43	0	723517440	21	3841
2026-01-08 10:05:20.20	29.10	62.86	-30.5	-32.2	13.1	0.00e+00	0	43	0	725614592	21	4372
2026-01-08 10:05:21.21	28.28	62.60	-30.9	-33.3	12.5	5.49e-05	0	43	0	726663168	21	4730
2026-01-08 10:05:22.22	27.48	62.34	-30.3	-31.7	13.8	1.29e-05	0	43	0	728760320	21	4191
2026-01-08 10:05:23.23	26.70	62.07	-30.2	-31.2	13.9	2.20e-06	0	43	0	730857472	21	4058
2026-01-08 10:05:24.23	25.94	61.81	-30.8	-32.9	12.7	2.13e-05	0	43	0	732954624	21	4607
2026-01-08 10:05:25.23	25.19	61.54	-30.8	-33.1	12.5	6.79e-05	0	43	0	735051776	21	4665
2026-01-08 10:05:26.24	24.46	61.26	-30.9	-32.7	12.5	1.04e-04	0	43	0	737148928	22	4439
2026-01-08 10:05:27.24	23.75	60.99	-31.1	-33.2	12.2	2.71e-04	0	43	0	738197504	22	4623
2026-01-08 10:05:28.24	23.05	60.71	-31.0	-33.0	12.4	1.59e-04	0	43	0	740294656	22	4547
2026-01-08 10:05:29.25	22.37	60.42	-31.6	-34.6	10.8	1.19e-03	0	43	0	742391808	23	5063
2026-01-08 10:05:30.25	21.70	60.14	-31.6	-34.5	10.7	4.12e-03	0	43	0	744488960	23	5002
2026-01-08 10:05:31.26	21.04	59.85	-30.9	-32.2	12.5	1.48e-03	0	43	0	745537536	23	4194
2026-01-08 10:05:32.27	20.40	59.56	-30.4	-31.2	13.6	9.10e-06	0	43	0	747634688	22	3964
2026-01-08 10:05:33.27	19.78	59.27	-30.7	-32.0	13.0	3.20e-05	0	43	0	749731840	22	4202
2026-01-08 10:05:34.28	19.17	58.98	-30.9	-32.5	12.7	1.90e-05	0	43	0	751828992	22	4357
2026-01-08 10:05:35.28	18.57	58.69	-30.5	-31.5	13.3	1.22e-05	0	43	0	753926144	22	4047
2026-01-08 10:05:36.28	17.99	58.39	-29.8	-30.2	14.4	1.50e-06	0	43	0	754974720	21	3772
2026-01-08 10:05:37.28	17.42	58.10	-29.6	-30.0	14.9	0.00e+00	0	43	0	757071872	20	3801
2026-01-08 10:05:38.29	16.86	57.80	-29.6	-30.2	14.8	0.00e+00	0	43	0	759169024	20	3857
2026-01-08 10:05:39.29	16.32	57.50	-29.8	-30.8	14.4	0.00e+00	0	43	0	761266176	20	4007
2026-01-08 10:05:40.30	15.78	57.20	-30.0	-31.2	14.2	0.00e+00	0	43	0	763363328	20	4128
2026-01-08 10:05:41.31	15.25	56.90	-30.6	-32.4	13.1	5.30e-06	0	43	0	764411904	21	4406
2026-01-08 10:05:42.31	14.74	56.60	-30.9	-33.2	12.5	9.15e-05	0	43	0	766509056	21	4691
2026-01-08 10:05:43.31	14.25	56.30	-31.1	-33.4	12.1	4.65e-04	0	43	0	768606208	22	4647
2026-01-08 10:05:44.31	13.76	56.00	-30.7	-32.2	12.8	1.95e-04	0	43	0	770703360	22	4244
2026-01-08 10:05:45.32	13.28	55.70	-30.7	-32.1	12.9	4.42e-05	0	43	0	772800512	22	4222
2026-01-08 10:05:46.32	12.81	55.40	-30.7	-32.1	12.9	1.40e-04	0	43	0	773849088	22	4228
2026-01-08 10:05:47.33	12.35	55.09	-30.7	-31.9	13.0	1.79e-04	0	43	0	775946240	22	4152
2026-01-08 10:05:48.33	11.90	54.79	-30.6	-31.8	13.1	2.36e-05	0	43	0	778043392	22	4121
2026-01-08 10:05:49.33	11.47	54.49	-30.9	-32.5	12.6	1.16e-04	0	43	0	780140544	22	4344
2026-01-08 10:05:50.34	11.03	54.19	-30.8	-32.3	12.8	6.94e-05	0	43	0	782237696	22	4266
2026-01-08 10:05:51.34	10.62	53.89	-30.8	-32.2	12.8	1.45e-04	0	43	0	783286272	22	4262
2026-01-08 10:05:52.35	10.20	53.58	-30.3	-31.4	13.6	2.36e-05	0	43	0	785383424	21	4093
2026-01-08 10:05:53.36	9.80	53.28	-31.0	-33.1	12.2	3.73e-05	0	43	0	787480576	22	4553
2026-01-08 10:05:54.37	9.40	52.98	-31.5	-34.1	11.1	1.51e-03	0	43	0	789577728	23	4852
2026-01-08 10:05:55.37	9.01	52.68	-31.5	-34.1	11.1	1.66e-03	0	43	0	791674880	23	4830
2026-01-08 10:05:56.38	8.63	52.38	-31.5	-34.0	11.2	1.08e-03	0	43	0	792723456	23	4798
2026-01-08 10:05:57.39	8.26	52.08	-31.5	-33.9	11.2	1.74e-03	0	43	0	794820608	23	4761
2026-01-08 10:05:58.40	7.89	51.77	-30.9	-32.0	12.5	2.31e-04	0	43	0	796917760	23	4101
2026-01-08 10:05:59.40	7.54	51.48	-30.8	-32.3	12.6	7.01e-05	0	43	0	799014912	22	4292
2026-01-08 10:06:00.41	7.19	51.18	-30.9	-32.5	12.7	1.69e-04	0	43	0	801112064	22	4338
2026-01-08 10:06:01.42	6.84	50.88	-31.1	-33.0	12.3	1.23e-04	0	43	0	802160640	22	4528
2026-01-08 10:06:02.43	6.50	50.58	-31.2	-33.4	12.0	4.74e-04	0	43	0	804257792	22	4639
2026-01-08 10:06:03.43	6.18	50.29	-30.9	-32.5	12.6	1.53e-04	0	43	0	806354944	22	4358
2026-01-08 10:06:04.44	5.85	49.99	-31.4	-34.1	11.4	1.37e-04	0	43	0	808452096	22	4938
2026-01-08 10:06:05.45	5.53	49.70	-32.3	-36.2	9.1	9.69e-03	0	43	0	810549248	24	5670
2026-01-08 10:06:06.45	5.23	49.41	-32.3	-36.3	9.1	1.50e-02	0	43	0	811597824	24	5694
2026-01-08 10:06:07.45	4.92	49.12	-32.2	-35.7	9.5	2.59e-02	0	43	0	813694976	24	5444
2026-01-08 10:06:08.46	4.62	48.83	-32.2	-35.8	9.5	1.29e-02	0	43	0	815792128	24	5477
2026-01-08 10:06:09.47	4.33	48.53	-32.5	-36.8	8.3	4.03e-02	0	43	0	817889280	25	5877
2026-01-08 10:06:10.47	4.04	48.25	-32.0	-34.5	10.1	3.20e-02	0	43	0	819986432	25	4814
2026-01-08 10:06:11.48	3.76	47.96	-31.5	-33.3	11.4	2.10e-03	0	43	0	821035008	24	4447
2026-01-08 10:06:12.48	3.48	47.67	-31.7	-34.0	10.9	1.72e-03	0	43	0	823132160	24	4682
2026-01-08 10:06:13.49	3.21	47.39	-31.8	-34.4	10.6	6.39e-03	0	43	0	825229312	24	4845
2026-01-08 10:06:14.49	2.94	47.11	-30.8	-32.2	12.8	1.44e-03	0	43	0	827326464	22	4231
2026-01-08 10:06:15.50	2.68	46.82	-30.1	-31.0	14.0	9.10e-06	0	43	0	829423616	21	3965
2026-01-08 10:06:16.51	2.42	46.54	-30.2	-31.2	13.8	3.00e-06	0	43	0	830472192	21	4047
2026-01-08 10:06:17.51	2.17	46.26	-30.9	-33.2	12.4	2.13e-05	0	43	0	832569344	21	4676
2026-01-08 10:06:18.52	1.92	45.98	-31.0	-33.0	12.2	4.58e-04	0	43	0	834666496	22	4504
2026-01-08 10:06:19.52	1.68	45.71	-30.6	-31.8	13.0	1.36e-04	0	43	0	836763648	22	4126
2026-01-08 10:06:20.52	1.44	45.43	-30.4	-31.2	13.4	2.59e-05	0	43	0	838860800	22	3943
2026-01-08 10:06:21.53	1.20	45.16	-31.2	-33.6	11.8	1.90e-04	0	43	0	839909376	22	4732
2026-01-08 10:06:22.53	0.97	44.88	-31.9	-35.5	10.1	2.33e-03	0	43	0	842006528	23	5397
2026-01-08 10:06:23.53	0.75	44.61	-32.4	-36.1	8.5	2.54e-02	0	43	0	844103680	25	5533
2026-01-08 10:06:24.54	0.52	44.34	-32.5	-36.4	8.4	4.24e-02	0	43	0	846200832	25	5691
2026-01-08 10:06:25.55	0.30	44.07	-32.2	-35.5	9.2	4.26e-02	0	43	0	848297984	25	5262
2026-01-08 10:06:26.55	0.09	43.81	-31.6	-33.9	10.8	9.33e-03	0	43	0	849346560	24	4689
2026-01-08 10:06:27.56	359.87	43.54	-31.7	-34.2	10.5	3.08e-03	0	43	0	851443712	24	4796
2026-01-08 10:06:28.57	359.66	43.27	-31.5	-33.8	10.8	2.46e-03	0	43	0	853540864	24	4672
2026-01-08 10:06:29.58	359.46	43.01	-31.5	-33.8	10.7	1.74e-03	0	43	0	855638016	24	4660
2026-01-08 10:06:30.59	359.26	42.74	-31.0	-32.5	12.0	8.47e-04	0	43	0	857735168	23	4299
2026-01-08 10:06:31.58	359.06	42.49	-31.4	-33.7	11.3	5.54e-04	0	43	0	858783744	23	4731
2026-01-08 10:06:32.60	358.86	42.22	-31.4	-33.8	11.1	2.73e-03	0	43	0	860880896	23	4736
2026-01-08 10:06:33.60	358.67	41.97	-31.6	-34.6	10.5	3.14e-03	0	43	0	862978048	23	5093
2026-01-08 10:06:34.61	358.48	41.71	-32.2	-36.0	9.0	1.07e-02	0	43	0	865075200	24	5638
2026-01-08 10:06:35.62	358.29	41.45	-32.4	-37.3	8.1	4.14e-02	0	43	0	867172352	24	6299
2026-01-08 10:06:36.62	358.11	41.20	-32.5	-37.1	7.8	8.55e-02	0	43	0	868220928	25	6106
2026-01-08 10:06:37.63	357.93	40.95	-32.2	-36.0	8.6	4.11e-02	0	43	0	870318080	25	5545
2026-01-08 10:06:38.64	357.75	40.70	-31.8	-34.4	9.9	1.73e-02	0	43	0	872415232	25	4837
2026-01-08 10:06:39.64	357.58	40.45	-31.7	-34.4	10.3	6.24e-03	0	43	0	874512384	24	4909
2026-01-08 10:06:40.65	357.41	40.20	-31.3	-33.7	11.2	6.93e-03	0	43	0	876609536	23	4720
2026-01-08 10:06:41.65	357.24	39.96	-31.2	-33.1	11.6	6.42e-04	0	43	0	877658112	23	4492
2026-01-08 10:06:42.65	357.07	39.71	-31.3	-33.7	11.2	1.02e-03	0	43	0	879755264	23	4708
2026-01-08 10:06:43.66	356.91	39.47	-31.4	-33.8	11.1	8.58e-04	0	43	0	881852416	23	4754
2026-01-08 10:06:44.66	356.75	39.23	-31.5	-34.1	10.8	1.73e-03	0	43	0	883949568	23	4891
2026-01-08 10:06:45.66	356.59	38.99	-31.5	-34.4	10.6	2.21e-03	0	43	0	884998144	23	4978
2026-01-08 10:06:46.67	356.43	38.75	-31.7	-35.0	10.1	1.09e-02	0	43	0	887095296	23	5269
2026-01-08 10:06:47.67	356.28	38.51	-31.2	-33.3	11.4	4.91e-03	0	43	0	889192448	23	4566
2026-01-08 10:06:48.68	356.13	38.27	-31.2	-33.4	11.3	1.11e-03	0	43	0	891289600	23	4612
2026-01-08 10:06:49.69	355.98	38.04	-31.1	-32.9	11.7	7.37e-04	0	43	0	893386752	23	4445
2026-01-08 10:06:50.69	355.83	37.81	-31.5	-34.4	10.6	1.67e-03	0	43	0	895483904	23	4981
2026-01-08 10:06:51.70	355.68	37.57	-31.2	-33.2	11.4	1.52e-03	0	43	0	896532480	23	4556
2026-01-08 10:06:52.70	355.54	37.34	-31.0	-32.6	11.9	6.44e-04	0	43	0	898629632	23	4334
2026-01-08 10:06:53.71	355.40	37.11	-30.8	-32.1	12.2	4.86e-04	0	43	0	900726784	23	4172
2026-01-08 10:06:54.71	355.26	36.89	-30.9	-33.0	12.0	3.81e-04	0	43	0	902823936	22	4558
2026-01-08 10:06:55.72	355.12	36.66	-30.8	-32.6	12.2	3.80e-04	0	43	0	903872512	22	4418
2026-01-08 10:06:56.72	354.99	36.44	-31.2	-33.9	11.3	6.18e-04	0	43	0	905969664	22	4905
2026-01-08 10:06:57.72	354.85	36.21	-31.1	-33.6	11.5	1.61e-03	0	43	0	908066816	22	4770
2026-01-08 10:06:58.73	354.72	35.99	-30.4	-31.5	12.8	1.09e-04	0	43	0	910163968	22	4097
2026-01-08 10:06:59.73	354.59	35.77	-30.0	-30.8	13.6	2.82e-05	0	43	0	912261120	21	3970
2026-01-08 10:07:00.73	354.47	35.55	-29.6	-30.3	14.2	6.80e-06	0	43	0	913309696	20	3905
2026-01-08 10:07:01.72	354.34	35.34	-29.8	-30.9	13.9	2.20e-06	0	43	0	915406848	20	4076
2026-01-08 10:07:02.73	354.22	35.12	-29.9	-31.1	13.8	2.20e-06	0	43	0	917504000	20	4156
2026-01-08 10:07:03.74	354.09	34.90	-30.2	-31.8	13.3	9.90e-06	0	43	0	919601152	20	4375
2026-01-08 10:07:04.74	353.97	34.69	-30.9	-33.5	11.9	1.69e-04	0	43	0	921698304	21	4858
2026-01-08 10:07:05.75	353.85	34.47	-31.5	-34.4	10.5	2.46e-03	0	43	0	922746880	23	5030
2026-01-08 10:07:06.76	353.73	34.26	-32.0	-35.4	9.4	1.22e-02	0	43	0	924844032	24	5360
2026-01-08 10:07:07.77	353.62	34.05	-31.9	-35.2	9.6	1.66e-02	0	43	0	926941184	24	5268
2026-01-08 10:07:08.78	353.50	33.84	-31.6	-34.0	10.6	5.16e-03	0	43	0	929038336	24	4766
2026-01-08 10:07:09.78	353.39	33.63	-31.6	-34.6	10.5	1.81e-03	0	43	0	931135488	23	5087
2026-01-08 10:07:10.79	353.28	33.43	-31.2	-33.3	11.3	2.94e-03	0	43	0	932184064	23	4584
2026-01-08 10:07:11.79	353.17	33.22	-31.3	-33.6	11.2	1.03e-03	0	43	0	934281216	23	4680
2026-01-08 10:07:12.80	353.06	33.02	-31.2	-33.3	11.4	1.74e-03	0	43	0	936378368	23	4594
2026-01-08 10:07:13.80	352.95	32.81	-31.3	-33.6	11.1	1.70e-03	0	43	0	938475520	23	4673
2026-01-08 10:07:14.81	352.84	32.61	-31.4	-33.8	11.0	1.25e-03	0	43	0	940572672	23	4775
2026-01-08 10:07:15.82	352.74	32.41	-31.1	-32.8	11.7	5.94e-04	0	43	0	941621248	23	4419
2026-01-08 10:07:16.82	352.63	32.21	-30.9	-32.2	12.2	3.85e-04	0	43	0	943718400	23	4216
2026-01-08 10:07:17.82	352.53	32.02	-30.8	-32.5	12.3	2.37e-04	0	43	0	945815552	22	4377
2026-01-08 10:07:18.83	352.43	31.82	-30.8	-32.6	12.2	1.93e-04	0	43	0	947912704	22	4416
2026-01-08 10:07:19.83	352.33	31.62	-30.9	-33.0	11.9	3.69e-04	0	43	0	950009856	22	4560
2026-01-08 10:07:20.84	352.23	31.43	-31.0	-33.2	11.7	7.06e-04	0	43	0	951058432	22	4651
2026-01-08 10:07:21.84	352.14	31.24	-31.4	-34.5	10.7	1.95e-03	0	43	0	953155584	22	5140
2026-01-08 10:07:22.85	352.04	31.04	-31.3	-33.7	11.0	2.57e-03	0	43	0	955252736	23	4732
2026-01-08 10:07:23.85	351.95	30.85	-31.4	-34.0	10.8	2.72e-03	0	43	0	957349888	23	4844
2026-01-08 10:07:24.86	351.85	30.66	-31.7	-35.1	10.3	3.60e-03	0	43	0	959447040	23	5294
2026-01-08 10:07:25.87	351.76	30.47	-31.9	-35.9	9.3	7.82e-03	0	43	0	960495616	23	5670
2026-01-08 10:07:26.88	351.67	30.29	-31.8	-35.7	9.4	1.00e-02	0	43	0	962592768	23	5590
2026-01-08 10:07:27.88	351.58	30.10	-31.9	-35.4	9.2	1.44e-02	0	43	0	964689920	24	5400
2026-01-08 10:07:28.89	351.49	29.92	-32.0	-35.9	8.8	2.53e-02	0	43	0	966787072	24	5621
2026-01-08 10:07:29.89	351.40	29.73	-32.2	-36.4	8.5	3.56e-02	0	43	0	968884224	24	5840
2026-01-08 10:07:30.90	351.31	29.55	-32.3	-36.8	8.2	5.40e-02	0	43	0	969932800	24	6058
2026-01-08 10:07:31.90	351.23	29.37	-32.2	-36.4	8.5	4.83e-02	0	43	0	972029952	24	5865
2026-01-08 10:07:32.91	351.14	29.19	-32.2	-36.6	8.1	4.39e-02	0	43	0	974127104	24	5970
2026-01-08 10:07:33.91	351.06	29.01	-32.3	-36.8	8.2	4.78e-02	0	43	0	976224256	24	6043
2026-01-08 10:07:34.92	350.97	28.83	-32.1	-36.1	8.8	4.30e-02	0	43	0	978321408	24	5667
2026-01-08 10:07:35.93	350.89	28.65	-32.4	-37.3	7.9	3.20e-02	0	43	0	979369984	24	6323
2026-01-08 10:07:36.94	350.81	28.47	-32.1	-36.2	8.8	3.77e-02	0	43	0	981467136	24	5717
2026-01-08 10:07:37.94	350.73	28.30	-32.0	-35.7	9.1	2.59e-02	0	43	0	983564288	24	5513
2026-01-08 10:07:38.94	350.65	28.13	-31.9	-35.3	9.4	2.37e-02	0	43	0	985661440	24	5300
2026-01-08 10:07:39.94	350.57	27.95	-32.0	-35.4	9.3	1.99e-02	0	43	0	987758592	24	5346
2026-01-08 10:07:40.95	350.49	27.78	-31.7	-34.5	10.1	1.22e-02	0	43	0	988807168	24	4973
2026-01-08 10:07:41.96	350.42	27.61	-31.4	-33.5	10.8	3.23e-03	0	43	0	990904320	24	4570
2026-01-08 10:07:42.96	350.34	27.44	-30.9	-32.2	12.0	1.02e-03	0	43	0	993001472	23	4225
2026-01-08 10:07:43.97	350.26	27.27	-30.4	-31.5	12.9	1.37e-04	0	43	0	995098624	22	4064
2026-01-08 10:07:44.97	350.19	27.10	-30.3	-31.7	13.1	3.35e-05	0	43	0	997195776	21	4219
2026-01-08 10:07:45.97	350.12	26.94	-30.1	-31.1	13.5	1.52e-05	0	43	0	998244352	21	4027
2026-01-08 10:07:46.98	350.04	26.77	-30.1	-31.2	13.4	1.98e-05	0	43	0	1000341504	21	4077
2026-01-08 10:07:47.98	349.97	26.60	-30.1	-31.0	13.4	1.37e-05	0	43	0	1002438656	21	4019
2026-01-08 10:07:48.99	349.90	26.44	-30.3	-31.6	13.1	2.28e-05	0	43	0	1004535808	21	4181
2026-01-08 10:07:50.00	349.83	26.27	-29.9	-30.7	13.7	1.44e-05	0	43	0	1006632960	21	3917
2026-01-08 10:07:51.00	349.76	26.11	-29.9	-30.6	13.7	4.50e-06	0	43	0	1007681536	21	3904
2026-01-08 10:07:52.01	349.69	25.95	-30.2	-31.4	13.3	1.75e-05	0	43	0	1009778688	21	4133
2026-01-08 10:07:53.01	349.62	25.79	-30.4	-32.1	12.7	5.56e-05	0	43	0	1011875840	21	4371
2026-01-08 10:07:54.01	349.56	25.63	-30.8	-33.2	12.0	1.32e-04	0	43	0	1013972992	21	4726
2026-01-08 10:07:55.02	349.49	25.47	-31.4	-34.5	10.8	5.86e-04	0	43	0	1015021568	22	5138
2026-01-08 10:07:56.02	349.43	25.32	-31.6	-34.6	10.3	3.98e-03	0	43	0	1017118720	23	5098
2026-01-08 10:07:57.03	349.36	25.16	-32.0	-35.8	8.9	1.17e-02	0	43	0	1019215872	24	5551
2026-01-08 10:07:58.04	349.29	25.00	-32.2	-36.4	8.4	3.14e-02	0	43	0	1021313024	24	5874
2026-01-08 10:07:59.05	349.23	24.85	-32.3	-37.0	8.0	5.64e-02	0	43	0	1023410176	24	6165
2026-01-08 10:08:00.05	349.17	24.69	-32.1	-36.0	8.7	4.57e-02	0	43	0	1025507328	24	5684
2026-01-08 10:08:01.06	349.10	24.54	-32.0	-35.6	9.0	3.14e-02	0	43	0	1026555904	24	5459
2026-01-08 10:08:02.06	349.04	24.39	-31.8	-34.9	9.6	1.32e-02	0	43	0	1028653056	24	5144
2026-01-08 10:08:03.07	348.98	24.23	-31.6	-34.3	10.1	9.01e-03	0	43	0	1030750208	24	4911
2026-01-08 10:08:04.07	348.92	24.08	-31.7	-34.4	10.0	8.13e-03	0	43	0	1032847360	24	4956
2026-01-08 10:08:05.08	348.86	23.93	-31.2	-33.4	11.1	2.48e-03	0	43	0	1034944512	23	4633
2026-01-08 10:08:06.09	348.80	23.78	-31.1	-33.1	11.3	9.99e-04	0	43	0	1035993088	23	4533
2026-01-08 10:08:07.10	348.74	23.63	-31.0	-32.7	11.6	9.86e-04	0	43	0	1038090240	23	4386
2026-01-08 10:08:08.10	348.68	23.49	-30.7	-32.6	12.0	5.40e-04	0	43	0	1040187392	22	4434
2026-01-08 10:08:09.10	348.63	23.34	-30.7	-32.5	12.0	2.59e-04	0	43	0	1042284544	22	4424
2026-01-08 10:08:10.11	348.57	23.19	-30.6	-32.2	12.1	3.02e-04	0	43	0	1043333120	22	4328
2026-01-08 10:08:11.11	348.51	23.05	-30.6	-32.1	12.3	2.78e-04	0	43	0	1045430272	22	4289
2026-01-08 10:08:12.11	348.46	22.91	-30.5	-31.8	12.5	1.44e-04	0	43	0	1047527424	22	4194
2026-01-08 10:08:13.12	348.40	22.76	-30.7	-32.3	12.2	2.51e-04	0	43	0	1049624576	22	4355
2026-01-08 10:08:14.13	348.35	22.62	-30.5	-31.9	12.4	2.49e-04	0	43	0	1051721728	22	4227
2026-01-08 10:08:15.13	348.29	22.48	-30.4	-31.7	12.6	1.09e-04	0	43	0	1053818880	22	4149
2026-01-08 10:08:16.14	348.24	22.33	-30.5	-31.9	12.4	1.23e-04	0	43	0	1054867456	22	4226
2026-01-08 10:08:17.14	348.18	22.19	-30.4	-31.4	12.7	8.62e-05	0	43	0	1056964608	22	4076
2026-01-08 10:08:18.14	348.13	22.05	-30.7	-32.4	12.2	8.01e-05	0	43	0	1059061760	22	4372
2026-01-08 10:08:19.15	348.08	21.92	-30.7	-32.5	12.0	3.33e-04	0	43	0	1061158912	22	4433
2026-01-08 10:08:20.15	348.03	21.78	-30.4	-31.5	12.6	1.48e-04	0	43	0	1062207488	22	4113
2026-01-08 10:08:21.16	347.98	21.64	-30.5	-31.8	12.5	7.09e-05	0	43	0	1064304640	22	4183
2026-01-08 10:08:22.16	347.93	21.50	-30.4	-31.5	12.6	1.05e-04	0	43	0	1066401792	22	4108
2026-01-08 10:08:23.17	347.87	21.37	-30.4	-31.5	12.6	1.04e-04	0	43	0	1068498944	22	4117
2026-01-08 10:08:24.17	347.83	21.23	-30.5	-32.0	12.3	1.43e-04	0	43	0	1070596096	22	4272
2026-01-08 10:08:25.17	347.78	21.10	-30.6	-32.2	12.2	2.07e-04	0	43	0	1071644672	22	4331
2026-01-08 10:08:26.17	347.73	20.96	-30.7	-32.5	12.0	2.81e-04	0	43	0	1073741824	22	4440
2026-01-08 10:08:27.18	347.68	20.83	-31.0	-33.3	11.4	6.49e-04	0	43	0	1075838976	22	4711
2026-01-08 10:08:28.18	347.63	20.70	-31.0	-33.5	11.2	1.42e-03	0	43	0	1077936128	22	4809
2026-01-08 10:08:29.19	347.58	20.56	-31.2	-33.9	10.9	2.33e-03	0	43	0	1080033280	22	4956
2026-01-08 10:08:30.20	347.54	20.43	-31.0	-33.4	11.2	1.22e-03	0	43	0	1081081856	22	4777
2026-01-08 10:08:31.20	347.49	20.30	-30.9	-33.2	11.4	1.28e-03	0	43	0	1083179008	22	4696
2026-01-08 10:08:32.20	347.44	20.17	-31.0	-33.4	11.2	2.08e-03	0	43	0	1085276160	22	4761
2026-01-08 10:08:33.21	347.40	20.04	-31.0	-33.4	11.3	1.36e-03	0	43	0	1087373312	22	4748
2026-01-08 10:08:34.21	347.35	19.92	-31.1	-33.7	11.0	1.82e-03	0	43	0	1089470464	22	4874
2026-01-08 10:08:35.22	347.31	19.79	-31.1	-33.7	11.0	2.50e-03	0	43	0	1090519040	22	4888
2026-01-08 10:08:36.23	347.26	19.66	-30.9	-33.1	11.5	1.17e-03	0	43	0	1092616192	22	4644
2026-01-08 10:08:37.23	347.22	19.53	-30.9	-33.2	11.4	8.12e-04	0	43	0	1094713344	22	4685
2026-01-08 10:08:38.24	347.17	19.41	-30.9	-33.1	11.5	1.49e-03	0	43	0	1096810496	22	4665
2026-01-08 10:08:39.24	347.13	19.28	-30.8	-33.0	11.5	9.13e-04	0	43	0	1098907648	22	4641
2026-01-08 10:08:40.25	347.09	19.15	-30.8	-32.8	11.6	6.81e-04	0	43	0	1099956224	22	4560
2026-01-08 10:08:41.25	347.04	19.03	-30.6	-32.3	11.9	5.23e-04	0	43	0	1102053376	22	4385
2026-01-08 10:08:42.25	347.00	18.91	-30.7	-32.5	11.7	4.56e-04	0	43	0	1104150528	22	4458
2026-01-08 10:08:43.26	346.96	18.78	-30.8	-33.0	11.4	9.73e-04	0	44	0	1106247680	22	4642
2026-01-08 10:08:44.27	346.92	18.66	-30.9	-33.3	11.2	1.00e-03	0	43	0	1108344832	22	4726
2026-01-08 10:08:45.28	346.88	18.54	-31.0	-33.6	11.0	1.68e-03	0	43	0	1109393408	22	4840
2026-01-08 10:08:46.28	346.84	18.42	-31.0	-33.5	11.0	1.97e-03	0	43	0	1111490560	22	4827
2026-01-08 10:08:47.28	346.80	18.30	-30.9	-33.4	11.1	1.77e-03	0	43	0	1113587712	22	4768
2026-01-08 10:08:48.29	346.76	18.18	-31.1	-33.9	10.7	1.62e-03	0	43	0	1115684864	22	4968
2026-01-08 10:08:49.30	346.72	18.06	-31.0	-33.7	10.9	2.46e-03	0	43	0	1117782016	22	4906
2026-01-08 10:08:50.31	346.68	17.94	-31.0	-33.7	10.8	2.70e-03	0	43	0	1118830592	22	4914
2026-01-08 10:08:51.32	346.64	17.82	-30.9	-33.4	11.1	2.39e-03	0	43	0	1120927744	22	4766
2026-01-08 10:08:52.33	346.60	17.70	-31.0	-33.7	10.9	2.83e-03	0	43	0	1123024896	22	4904
2026-01-08 10:08:53.33	346.56	17.58	-30.7	-32.7	11.6	1.34e-03	0	43	0	1125122048	22	4530
2026-01-08 10:08:54.34	346.52	17.46	-30.6	-32.4	11.8	6.39e-04	0	43	0	1127219200	22	4407
2026-01-08 10:08:55.34	346.48	17.35	-30.7	-32.6	11.6	4.41e-04	0	43	0	1128267776	22	4490
2026-01-08 10:08:56.35	346.45	17.23	-30.5	-31.9	12.1	3.97e-04	0	43	0	1130364928	22	4266
2026-01-08 10:08:57.36	346.41	17.12	-30.4	-31.8	12.2	2.48e-04	0	43	0	1132462080	22	4226
2026-01-08 10:08:58.36	346.37	17.00	-30.3	-32.0	12.4	1.70e-04	0	43	0	1134559232	21	4367
2026-01-08 10:08:59.37	346.34	16.89	-30.3	-32.0	12.4	1.46e-04	0	43	0	1136656384	21	4381
2026-01-08 10:09:00.37	346.30	16.77	-30.3	-31.9	12.4	1.69e-04	0	43	0	1137704960	21	4361
2026-01-08 10:09:01.38	346.26	16.66	-30.2	-31.7	12.6	9.46e-05	0	43	0	1139802112	21	4267
2026-01-08 10:09:02.38	346.23	16.55	-30.4	-32.3	12.2	1.84e-04	0	43	0	1141899264	21	4478
2026-01-08 10:09:03.39	346.19	16.44	-30.4	-32.3	12.1	2.46e-04	0	43	0	1143996416	21	4474
2026-01-08 10:09:04.40	346.16	16.32	-30.4	-32.2	12.2	2.54e-04	0	43	0	1146093568	21	4454
2026-01-08 10:09:05.40	346.12	16.21	-30.5	-32.7	11.8	3.36e-04	0	43	0	1147142144	21	4636
2026-01-08 10:09:06.41	346.09	16.10	-30.7	-33.2	11.5	4.79e-04	0	43	0	1149239296	21	4790
2026-01-08 10:09:07.41	346.05	15.99	-30.7	-33.3	11.4	7.84e-04	0	43	0	1151336448	21	4864
2026-01-08 10:09:08.42	346.02	15.88	-30.8	-33.6	11.2	1.12e-03	0	43	0	1153433600	21	4961
2026-01-08 10:09:09.43	345.99	15.77	-30.9	-34.0	10.8	2.49e-03	0	43	0	1155530752	21	5138
2026-01-08 10:09:10.43	345.95	15.66	-30.8	-33.7	11.0	2.32e-03	0	43	0	1156579328	21	5021
2026-01-08 10:09:11.44	345.92	15.56	-31.1	-33.9	10.6	2.93e-03	0	43	0	1158676480	22	5004
2026-01-08 10:09:12.44	345.89	15.45	-31.3	-34.8	9.9	7.76e-03	0	43	0	1160773632	22	5384
2026-01-08 10:09:13.44	345.85	15.34	-31.4	-35.1	9.7	8.86e-03	0	43	0	1162870784	22	5507
2026-01-08 10:09:14.44	345.82	15.23	-31.4	-35.2	9.6	1.03e-02	0	43	0	1164967936	22	5583
2026-01-08 10:09:15.45	345.79	15.13	-31.5	-35.0	9.3	1.62e-02	0	43	0	1166016512	23	5399
2026-01-08 10:09:16.45	345.76	15.02	-31.4	-34.6	9.7	1.16e-02	0	43	0	1168113664	23	5207
2026-01-08 10:09:17.46	345.73	14.92	-31.5	-35.2	9.1	1.17e-02	0	43	0	1170210816	23	5494
2026-01-08 10:09:18.47	345.70	14.81	-31.3	-34.5	9.7	1.32e-02	0	43	0	1172307968	23	5161
2026-01-08 10:09:19.47	345.66	14.71	-31.4	-34.8	9.6	1.32e-02	0	43	0	1174405120	23	5316
2026-01-08 10:09:20.48	345.63	14.60	-31.3	-34.3	9.8	1.09e-02	0	43	0	1175453696	23	5106
2026-01-08 10:09:21.48	345.60	14.50	-31.1	-33.7	10.2	7.84e-03	0	43	0	1177550848	23	4870
2026-01-08 10:09:22.48	345.57	14.40	-31.0	-33.2	10.6	4.44e-03	0	43	0	1179648000	23	4663
2026-01-08 10:09:23.49	345.54	14.29	-30.9	-33.0	10.8	3.87e-03	0	43	0	1181745152	23	4592
2026-01-08 10:09:24.49	345.51	14.19	-30.8	-32.7	11.0	2.40e-03	0	43	0	1183842304	23	4463
2026-01-08 10:09:25.50	345.48	14.09	-30.9	-33.0	10.8	1.99e-03	0	44	0	1184890880	23	4603
2026-01-08 10:09:26.50	345.45	13.99	-30.8	-32.7	11.0	1.97e-03	0	43	0	1186988032	23	4476
2026-01-08 10:09:27.50	345.43	13.89	-30.9	-33.4	10.9	1.96e-03	0	43	0	1189085184	22	4817
2026-01-08 10:09:28.51	345.40	13.79	-30.6	-32.7	11.3	1.45e-03	0	43	0	1191182336	22	4555
2026-01-08 10:09:29.51	345.37	13.69	-30.6	-32.5	11.5	9.16e-04	0	43	0	1192230912	22	4491
2026-01-08 10:09:30.52	345.34	13.58	-30.5	-32.3	11.6	9.18e-04	0	43	0	1194328064	22	4409
2026-01-08 10:09:31.52	345.31	13.49	-30.6	-32.6	11.4	1.27e-03	0	43	0	1196425216	22	4521
2026-01-08 10:09:32.52	345.28	13.39	-30.5	-32.4	11.5	9.62e-04	0	43	0	1198522368	22	4465
2026-01-08 10:09:33.53	345.26	13.29	-30.7	-32.8	11.2	6.55e-04	0	43	0	1200619520	22	4601
2026-01-08 10:09:34.54	345.23	13.19	-30.8	-33.1	11.0	1.11e-03	0	43	0	1201668096	22	4699
2026-01-08 10:09:35.54	345.20	13.09	-30.4	-32.1	11.6	1.17e-03	0	43	0	1203765248	22	4356
2026-01-08 10:09:36.55	345.17	12.99	-30.4	-32.1	11.7	6.39e-04	0	43	0	1205862400	22	4347
2026-01-08 10:09:37.56	345.15	12.90	-30.7	-32.9	11.2	9.35e-04	0	43	0	1207959552	22	4628
2026-01-08 10:09:38.57	345.12	12.80	-30.5	-32.2	11.6	9.61e-04	0	43	0	1210056704	22	4411
2026-01-08 10:09:39.57	345.09	12.70	-30.5	-32.3	11.5	6.02e-04	0	43	0	1212153856	22	4420
2026-01-08 10:09:40.58	345.07	12.61	-30.6	-32.7	11.2	1.25e-03	0	43	0	1213202432	22	4565
2026-01-08 10:09:41.59	345.04	12.51	-30.5	-32.2	11.6	1.01e-03	0	43	0	1215299584	22	4406
2026-01-08 10:09:42.59	345.01	12.41	-30.6	-32.7	11.2	9.80e-04	0	43	0	1217396736	22	4575
2026-01-08 10:09:43.60	344.99	12.32	-30.6	-32.5	11.4	1.39e-03	0	43	0	1219493888	22	4504
2026-01-08 10:09:44.61	344.96	12.22	-30.7	-32.9	11.1	1.36e-03	0	43	0	1220542464	22	4647
2026-01-08 10:09:45.61	344.94	12.13	-30.8	-33.2	10.8	2.29e-03	0	43	0	1222639616	22	4766
2026-01-08 10:09:46.62	344.91	12.04	-30.8	-33.3	10.7	2.73e-03	0	43	0	1224736768	22	4804
2026-01-08 10:09:47.62	344.89	11.94	-30.8	-33.3	10.8	2.37e-03	0	43	0	1226833920	22	4805
2026-01-08 10:09:48.62	344.86	11.85	-30.8	-33.3	10.8	2.35e-03	0	43	0	1228931072	22	4786
2026-01-08 10:09:49.62	344.84	11.76	-30.8	-33.4	10.7	3.10e-03	0	43	0	1229979648	22	4839
2026-01-08 10:09:50.63	344.81	11.66	-31.0	-34.0	10.3	5.35e-03	0	43	0	1232076800	22	5066
2026-01-08 10:09:51.63	344.79	11.57	-30.9	-33.7	10.4	4.57e-03	0	43	0	1234173952	22	4976
2026-01-08 10:09:52.64	344.76	11.48	-30.9	-33.8	10.4	4.13e-03	0	43	0	1236271104	22	4998
2026-01-08 10:09:53.65	344.74	11.39	-31.0	-34.0	10.2	5.13e-03	0	43	0	1238368256	22	5079
2026-01-08 10:09:54.65	344.72	11.30	-31.1	-34.2	10.1	6.48e-03	0	43	0	1239416832	22	5156
2026-01-08 10:09:55.66	344.69	11.21	-31.0	-34.1	10.1	6.23e-03	0	43	0	1241513984	22	5107
2026-01-08 10:09:56.67	344.67	11.12	-31.1	-34.2	10.0	7.29e-03	0	43	0	1243611136	22	5173
2026-01-08 10:09:57.68	344.65	11.03	-31.1	-34.5	9.8	7.67e-03	0	43	0	1245708288	22	5300
2026-01-08 10:09:58.68	344.62	10.94	-31.1	-34.3	10.0	8.46e-03	0	43	0	1247805440	22	5208
2026-01-08 10:09:59.69	344.60	10.85	-31.0	-34.1	10.1	6.76e-03	0	43	0	1248854016	22	5142
2026-01-08 10:10:00.69	344.58	10.76	-31.1	-34.4	9.9	7.91e-03	0	43	0	1250951168	22	5249
2026-01-08 10:10:01.70	344.56	10.67	-31.1	-34.5	9.8	8.15e-03	0	43	0	1253048320	22	5315
2026-01-08 10:10:02.70	344.53	10.58	-31.2	-34.7	9.6	1.25e-02	0	43	0	1255145472	22	5392
2026-01-08 10:10:03.71	344.51	10.49	-31.1	-34.4	9.8	1.22e-02	0	43	0	1257242624	22	5278
2026-01-08 10:10:04.71	344.49	10.40	-31.2	-34.8	9.5	1.18e-02	0	43	0	1258291200	22	5454
2026-01-08 10:10:05.72	344.47	10.32	-31.2	-34.9	9.5	1.63e-02	0	43	0	1260388352	22	5481
2026-01-08 10:10:06.73	344.44	10.23	-31.1	-34.6	9.6	1.06e-02	0	43	0	1262485504	22	5354
2026-01-08 10:10:07.73	344.42	10.14	-31.1	-34.5	9.7	1.03e-02	0	43	0	1264582656	22	5338
2026-01-08 10:10:08.74	344.40	10.05	-31.2	-34.7	9.6	1.27e-02	0	43	0	1266679808	22	5398
2026-01-08 10:10:09.74	344.38	9.97	-31.1	-34.6	9.7	1.21e-02	0	43	0	1267728384	22	5344
2026-01-08 10:10:10.75	344.36	9.88	-31.2	-34.7	9.5	9.10e-03	0	43	0	1269825536	22	5415
2026-01-08 10:10:11.75	344.34	9.80	-31.0	-34.2	9.9	1.42e-02	0	43	0	1271922688	22	5182
2026-01-08 10:10:12.76	344.32	9.71	-31.0	-34.1	10.0	7.64e-03	0	43	0	1274019840	22	5158
2026-01-08 10:10:13.76	344.30	9.63	-31.0	-34.2	9.9	8.27e-03	0	43	0	1276116992	22	5201
2026-01-08 10:10:14.77	344.28	9.54	-31.0	-34.3	9.8	8.84e-03	0	43	0	1277165568	22	5219
2026-01-08 10:10:15.78	344.26	9.46	-31.2	-34.8	9.4	1.39e-02	0	43	0	1279262720	22	5479
2026-01-08 10:10:16.78	344.23	9.37	-31.2	-34.8	9.4	2.21e-02	0	43	0	1281359872	22	5450
2026-01-08 10:10:17.78	344.21	9.29	-31.2	-35.0	9.3	1.77e-02	0	43	0	1283457024	22	5568
2026-01-08 10:10:18.79	344.19	9.20	-31.2	-35.0	9.2	1.96e-02	0	43	0	1285554176	22	5571
2026-01-08 10:10:19.79	344.17	9.12	-31.1	-34.7	9.5	1.68e-02	0	43	0	1286602752	22	5405
2026-01-08 10:10:20.80	344.16	9.04	-31.2	-34.8	9.3	1.40e-02	0	43	0	1288699904	22	5487
