passes_logs/2026/01/08/R2M6_AANII_01/R2M6_AANII_01__20260108_122534_AQUA_rec.log

#Pass ID: 20260108_122534_AQUA
#Satellite: AQUA
#Configuration: AQUA
#almurnet v.1.7.20240730
#Start time: 2026-01-08 12:25:34

#Version: 2.2.20231116
#Station: R2M6_AANII_01
#Location: 30.233357 lon 59.946436 lat
#TLE: 1 27424U 02022A   26004.96787593  .00001598  00000+0  32997-3 0  9996
#TLE: 2 27424  98.4069 331.2279 0002002  90.2377   0.6092 14.61798176259425

#Time	Az	El	Level	Level2	SNR	BER	BlckErr	Temp	State	Recorded	gain1	gain2
2026-01-08 12:25:34.32	173.35	7.01	-30.5	-35.6	5.2	7.09e-01	0	40	0	0	22	6444
2026-01-08 12:25:35.32	173.38	7.09	-31.4	-38.3	5.0	7.08e-01	0	40	104	0	23	7937
2026-01-08 12:25:36.33	173.41	7.18	-31.4	-37.3	13.9	6.08e-01	0	41	104	0	23	7158
2026-01-08 12:25:37.33	173.44	7.26	-31.2	-36.8	14.5	6.08e-01	0	41	0	1572864	23	6835
2026-01-08 12:25:38.34	173.47	7.34	-31.3	-37.2	14.1	6.07e-01	0	41	0	3145728	23	7082
2026-01-08 12:25:39.35	173.50	7.42	-31.1	-36.3	14.8	6.07e-01	0	41	0	5242880	23	6533
2026-01-08 12:25:40.35	173.54	7.51	-30.8	-35.1	15.7	6.06e-01	0	41	0	7340032	23	5916
2026-01-08 12:25:41.35	173.57	7.59	-30.6	-34.4	16.2	6.08e-01	0	40	0	8912896	23	5618
2026-01-08 12:25:42.36	173.60	7.67	-30.3	-34.2	16.7	6.08e-01	0	41	0	11010048	22	5589
2026-01-08 12:25:43.37	173.63	7.76	-30.1	-33.5	17.2	6.07e-01	0	41	0	12582912	22	5324
2026-01-08 12:25:44.37	173.67	7.84	-30.1	-33.3	17.4	6.07e-01	0	41	0	14680064	22	5218
2026-01-08 12:25:45.38	173.70	7.92	-30.1	-33.4	17.3	6.06e-01	0	41	0	16777216	22	5260
2026-01-08 12:25:46.38	173.73	8.01	-30.1	-33.3	17.4	6.07e-01	0	41	0	18350080	22	5198
2026-01-08 12:25:47.38	173.77	8.09	-30.1	-33.4	17.4	6.07e-01	0	41	0	20447232	22	5249
2026-01-08 12:25:48.39	173.80	8.18	-30.2	-33.6	17.2	6.07e-01	0	41	0	22020096	22	5315
2026-01-08 12:25:49.40	173.83	8.27	-30.1	-33.2	17.5	6.06e-01	0	41	0	24117248	22	5170
2026-01-08 12:25:50.41	173.87	8.35	-30.2	-33.7	17.2	6.07e-01	0	41	0	26214400	22	5368
2026-01-08 12:25:51.41	173.90	8.44	-30.3	-33.8	17.1	6.08e-01	0	41	0	27787264	22	5424
2026-01-08 12:25:52.42	173.93	8.53	-30.1	-33.2	17.5	6.07e-01	0	41	0	29884416	22	5186
2026-01-08 12:25:53.43	173.97	8.61	-30.0	-33.0	17.7	6.03e-01	0	41	0	31457280	22	5094
2026-01-08 12:25:54.44	174.00	8.70	-29.9	-32.8	17.8	6.05e-01	0	41	0	33554432	22	5022
2026-01-08 12:25:55.44	174.04	8.79	-29.9	-32.8	17.8	6.06e-01	0	41	0	35651584	22	5005
2026-01-08 12:25:56.45	174.07	8.88	-30.0	-32.9	17.8	6.06e-01	0	41	0	37224448	22	5034
2026-01-08 12:25:57.45	174.11	8.96	-30.0	-32.9	17.8	6.06e-01	0	41	0	39321600	22	5029
2026-01-08 12:25:58.46	174.14	9.05	-30.0	-33.1	17.7	6.06e-01	0	41	0	40894464	22	5117
2026-01-08 12:25:59.46	174.18	9.14	-30.1	-33.1	17.6	6.06e-01	0	41	0	42991616	22	5129
2026-01-08 12:26:00.47	174.22	9.23	-29.9	-32.7	18.0	6.08e-01	0	41	0	45088768	22	4949
2026-01-08 12:26:01.47	174.25	9.32	-29.9	-32.7	17.9	6.04e-01	0	41	0	46661632	22	4972
2026-01-08 12:26:02.47	174.29	9.41	-30.0	-32.8	17.9	6.06e-01	0	41	0	48758784	22	5013
2026-01-08 12:26:03.48	174.33	9.50	-29.9	-32.7	18.0	6.06e-01	0	41	0	50331648	22	4951
2026-01-08 12:26:04.48	174.36	9.59	-29.9	-32.7	18.0	6.08e-01	0	41	0	52428800	22	4966
2026-01-08 12:26:05.49	174.40	9.68	-30.0	-33.0	17.8	6.05e-01	0	41	0	54525952	22	5066
2026-01-08 12:26:06.49	174.44	9.78	-30.0	-33.0	17.8	6.05e-01	0	41	0	56098816	22	5066
2026-01-08 12:26:07.49	174.47	9.87	-29.9	-32.7	18.0	6.08e-01	0	41	0	58195968	22	4969
2026-01-08 12:26:08.50	174.51	9.96	-29.9	-33.1	18.1	6.05e-01	0	42	0	59768832	21	5207
2026-01-08 12:26:09.50	174.55	10.05	-29.9	-33.2	18.0	6.08e-01	0	41	0	61865984	21	5258
2026-01-08 12:26:10.51	174.59	10.15	-29.9	-33.2	18.0	6.05e-01	0	41	0	63438848	21	5240
2026-01-08 12:26:11.51	174.63	10.24	-29.9	-33.0	18.1	6.06e-01	0	41	0	65536000	21	5170
2026-01-08 12:26:12.51	174.66	10.33	-29.9	-33.1	18.0	6.05e-01	0	41	0	67633152	21	5226
2026-01-08 12:26:13.51	174.70	10.43	-29.9	-33.2	18.0	6.08e-01	0	42	0	69206016	21	5232
2026-01-08 12:26:14.52	174.74	10.52	-29.9	-33.1	18.1	6.08e-01	0	42	0	71303168	21	5218
2026-01-08 12:26:15.52	174.78	10.62	-30.0	-33.3	18.0	6.09e-01	0	42	0	73400320	21	5270
2026-01-08 12:26:16.52	174.82	10.71	-30.0	-33.4	17.9	6.06e-01	0	42	0	74973184	21	5339
2026-01-08 12:26:17.53	174.86	10.81	-30.1	-33.8	17.6	6.09e-01	0	42	0	77070336	21	5476
2026-01-08 12:26:18.54	174.90	10.90	-30.0	-33.4	17.9	6.09e-01	0	42	0	78643200	21	5331
2026-01-08 12:26:19.54	174.94	11.00	-29.9	-33.0	18.2	6.05e-01	0	42	0	80740352	21	5152
2026-01-08 12:26:20.55	174.98	11.10	-29.8	-32.9	18.3	6.08e-01	0	42	0	82313216	21	5119
2026-01-08 12:26:21.55	175.02	11.19	-29.8	-32.9	18.3	6.06e-01	0	42	0	84410368	21	5108
2026-01-08 12:26:22.56	175.06	11.29	-29.9	-33.0	18.2	6.05e-01	0	42	0	86507520	21	5158
2026-01-08 12:26:23.56	175.11	11.39	-29.8	-32.9	18.3	6.08e-01	0	42	0	88080384	21	5112
2026-01-08 12:26:24.57	175.15	11.49	-29.7	-32.6	18.5	6.07e-01	0	42	0	90177536	21	5004
2026-01-08 12:26:25.58	175.19	11.59	-29.6	-32.2	18.7	6.07e-01	0	42	0	91750400	21	4875
2026-01-08 12:26:26.58	175.23	11.69	-29.6	-32.3	18.7	6.07e-01	0	42	0	93847552	21	4899
2026-01-08 12:26:27.58	175.27	11.79	-29.6	-32.3	18.7	6.07e-01	0	42	0	95944704	21	4906
2026-01-08 12:26:28.58	175.32	11.89	-29.6	-32.2	18.7	6.06e-01	0	42	0	97517568	21	4883
2026-01-08 12:26:29.58	175.36	11.99	-29.7	-32.4	18.7	6.08e-01	0	42	0	99614720	21	4931
2026-01-08 12:26:30.59	175.40	12.09	-29.5	-32.1	18.8	6.06e-01	0	42	0	101187584	21	4824
2026-01-08 12:26:31.60	175.45	12.19	-29.6	-32.2	18.7	6.06e-01	0	42	0	103284736	21	4877
2026-01-08 12:26:32.60	175.49	12.29	-29.6	-32.2	18.8	6.07e-01	0	42	0	104857600	21	4864
2026-01-08 12:26:33.61	175.54	12.40	-29.6	-32.2	18.7	6.08e-01	0	42	0	106954752	21	4881
2026-01-08 12:26:34.62	175.58	12.50	-29.6	-32.1	18.8	6.06e-01	0	42	0	109051904	21	4839
2026-01-08 12:26:35.62	175.63	12.61	-29.6	-32.2	18.8	6.06e-01	0	42	0	110624768	21	4852
2026-01-08 12:26:36.62	175.67	12.71	-29.7	-32.4	18.7	6.05e-01	0	42	0	112721920	21	4930
2026-01-08 12:26:37.62	175.72	12.81	-29.6	-32.2	18.8	6.07e-01	0	42	0	114819072	21	4851
2026-01-08 12:26:38.63	175.76	12.92	-29.5	-32.0	18.9	6.07e-01	0	42	0	116391936	21	4802
2026-01-08 12:26:39.63	175.81	13.02	-29.5	-31.8	19.0	6.07e-01	0	42	0	118489088	21	4737
2026-01-08 12:26:40.64	175.86	13.13	-29.6	-32.2	18.9	6.07e-01	0	42	0	120061952	21	4847
2026-01-08 12:26:41.64	175.90	13.24	-29.5	-32.1	18.9	6.07e-01	0	42	0	122159104	21	4823
2026-01-08 12:26:42.64	175.95	13.34	-29.5	-31.9	19.0	6.07e-01	0	42	0	123731968	21	4755
2026-01-08 12:26:43.65	176.00	13.45	-29.6	-32.3	18.8	6.06e-01	0	42	0	125829120	21	4888
2026-01-08 12:26:44.66	176.05	13.56	-29.6	-32.2	18.8	6.08e-01	0	42	0	127926272	21	4860
2026-01-08 12:26:45.66	176.09	13.67	-29.5	-31.9	19.0	6.05e-01	0	42	0	129499136	21	4741
2026-01-08 12:26:46.67	176.14	13.78	-29.4	-31.8	19.1	6.05e-01	0	42	0	131596288	21	4705
2026-01-08 12:26:47.68	176.19	13.89	-29.5	-31.8	19.1	6.05e-01	0	42	0	133169152	21	4734
2026-01-08 12:26:48.69	176.24	14.00	-29.4	-31.8	19.1	6.08e-01	0	42	0	135266304	21	4706
2026-01-08 12:26:49.69	176.29	14.11	-29.4	-32.1	19.2	6.07e-01	0	42	0	137363456	20	4945
2026-01-08 12:26:50.70	176.34	14.22	-29.4	-32.1	19.2	6.06e-01	0	42	0	138936320	20	4940
2026-01-08 12:26:51.70	176.39	14.33	-29.4	-32.1	19.2	6.07e-01	0	42	0	141033472	20	4937
2026-01-08 12:26:52.71	176.44	14.45	-29.3	-32.0	19.3	6.08e-01	0	42	0	142606336	20	4897
2026-01-08 12:26:53.71	176.50	14.56	-29.3	-32.0	19.3	6.07e-01	0	42	0	144703488	20	4884
2026-01-08 12:26:54.71	176.55	14.67	-29.4	-32.1	19.3	6.05e-01	0	42	0	146800640	20	4915
2026-01-08 12:26:55.71	176.60	14.79	-29.3	-32.0	19.3	6.07e-01	0	42	0	148373504	20	4887
2026-01-08 12:26:56.72	176.65	14.90	-29.4	-32.1	19.3	6.07e-01	0	42	0	150470656	20	4923
2026-01-08 12:26:57.72	176.70	15.02	-29.5	-32.4	19.1	6.05e-01	0	42	0	152043520	20	5042
2026-01-08 12:26:58.73	176.76	15.13	-29.5	-32.4	19.1	6.06e-01	0	42	0	154140672	20	5020
2026-01-08 12:26:59.73	176.81	15.25	-29.4	-32.2	19.2	6.05e-01	0	42	0	156237824	20	4965
2026-01-08 12:27:00.74	176.87	15.37	-29.4	-32.3	19.2	6.06e-01	0	42	0	157810688	20	4992
2026-01-08 12:27:01.74	176.92	15.48	-29.6	-32.6	19.0	6.06e-01	0	42	0	159907840	20	5099
2026-01-08 12:27:02.75	176.98	15.60	-29.7	-32.9	18.9	6.07e-01	0	42	0	161480704	20	5210
2026-01-08 12:27:03.75	177.03	15.72	-29.6	-32.7	18.9	6.05e-01	0	42	0	163577856	20	5159
2026-01-08 12:27:04.76	177.09	15.84	-29.6	-32.7	18.9	6.07e-01	0	42	0	165150720	20	5135
2026-01-08 12:27:05.77	177.14	15.96	-29.6	-32.7	19.0	6.08e-01	0	42	0	167247872	20	5130
2026-01-08 12:27:06.78	177.20	16.08	-29.6	-32.6	19.0	6.07e-01	0	42	0	169345024	20	5128
2026-01-08 12:27:07.78	177.26	16.21	-29.6	-32.6	19.0	6.08e-01	0	42	0	170917888	20	5103
2026-01-08 12:27:08.79	177.32	16.33	-29.7	-32.9	18.8	6.06e-01	0	42	0	173015040	20	5211
2026-01-08 12:27:09.78	177.37	16.45	-29.6	-32.6	19.0	6.05e-01	0	42	0	175112192	20	5122
2026-01-08 12:27:10.79	177.43	16.57	-29.4	-32.2	19.3	6.07e-01	0	42	0	176685056	20	4950
2026-01-08 12:27:11.80	177.49	16.70	-29.3	-32.0	19.4	6.07e-01	0	42	0	178782208	20	4882
2026-01-08 12:27:12.80	177.55	16.82	-29.3	-32.0	19.4	6.07e-01	0	42	0	180355072	20	4888
2026-01-08 12:27:13.80	177.61	16.95	-29.3	-32.0	19.4	6.05e-01	0	42	0	182452224	20	4898
2026-01-08 12:27:14.81	177.67	17.07	-29.4	-32.3	19.2	6.06e-01	0	42	0	184025088	20	4983
2026-01-08 12:27:15.82	177.73	17.20	-29.4	-32.3	19.3	6.06e-01	0	42	0	186122240	20	4983
2026-01-08 12:27:16.82	177.79	17.33	-29.5	-32.4	19.2	6.08e-01	0	42	0	188219392	20	5017
2026-01-08 12:27:17.82	177.86	17.46	-29.5	-32.3	19.3	6.08e-01	0	42	0	189792256	20	4988
2026-01-08 12:27:18.83	177.92	17.59	-29.5	-32.3	19.3	6.06e-01	0	42	0	191889408	20	4982
2026-01-08 12:27:19.84	177.98	17.72	-29.4	-32.1	19.4	6.04e-01	0	42	0	193462272	20	4928
2026-01-08 12:27:20.84	178.05	17.85	-29.5	-32.3	19.3	6.07e-01	0	42	0	195559424	20	4975
2026-01-08 12:27:21.85	178.11	17.98	-29.3	-32.0	19.5	6.06e-01	0	42	0	197656576	20	4873
2026-01-08 12:27:22.86	178.18	18.11	-29.4	-32.1	19.4	6.08e-01	0	42	0	199229440	20	4931
2026-01-08 12:27:23.86	178.24	18.24	-29.3	-31.9	19.5	6.06e-01	0	42	0	201326592	20	4853
2026-01-08 12:27:24.87	178.31	18.38	-29.2	-31.7	19.7	6.05e-01	0	42	0	202899456	20	4775
2026-01-08 12:27:25.87	178.38	18.51	-29.2	-31.6	19.7	6.05e-01	0	42	0	204996608	20	4752
2026-01-08 12:27:26.88	178.44	18.65	-29.2	-31.8	19.6	6.06e-01	0	43	0	207093760	20	4812
2026-01-08 12:27:27.88	178.51	18.78	-29.2	-31.6	19.7	6.07e-01	0	43	0	208666624	20	4768
2026-01-08 12:27:28.89	178.58	18.92	-29.3	-31.8	19.6	6.06e-01	0	42	0	210763776	20	4832
2026-01-08 12:27:29.90	178.65	19.06	-29.4	-32.3	19.3	6.08e-01	0	42	0	212336640	20	4997
2026-01-08 12:27:30.89	178.72	19.19	-29.3	-32.0	19.5	6.06e-01	0	42	0	214433792	20	4898
2026-01-08 12:27:31.90	178.79	19.33	-29.3	-31.8	19.6	6.04e-01	0	42	0	216530944	20	4838
2026-01-08 12:27:32.90	178.86	19.47	-29.3	-31.9	19.6	6.06e-01	0	42	0	218103808	20	4842
2026-01-08 12:27:33.91	178.93	19.61	-29.3	-31.9	19.6	6.06e-01	0	42	0	220200960	20	4834
2026-01-08 12:27:34.91	179.00	19.76	-29.2	-31.7	19.7	6.09e-01	0	42	0	221773824	20	4779
2026-01-08 12:27:35.92	179.08	19.90	-29.3	-31.8	19.7	6.07e-01	0	42	0	223870976	20	4806
2026-01-08 12:27:36.92	179.15	20.04	-29.3	-31.9	19.6	6.06e-01	0	42	0	225968128	20	4855
2026-01-08 12:27:37.93	179.23	20.19	-29.2	-31.6	19.8	6.06e-01	0	43	0	227540992	20	4739
2026-01-08 12:27:38.93	179.30	20.33	-29.2	-31.4	19.9	6.07e-01	0	42	0	229638144	20	4676
2026-01-08 12:27:39.94	179.38	20.48	-29.2	-31.6	19.9	6.07e-01	0	42	0	231211008	20	4727
2026-01-08 12:27:40.94	179.45	20.62	-29.3	-31.7	19.8	6.09e-01	0	43	0	233308160	20	4770
2026-01-08 12:27:41.95	179.53	20.77	-29.4	-31.9	19.7	6.06e-01	0	43	0	235405312	20	4839
2026-01-08 12:27:42.96	179.61	20.92	-29.4	-32.0	19.6	6.08e-01	0	43	0	236978176	20	4850
2026-01-08 12:27:43.97	179.69	21.07	-29.5	-32.1	19.5	6.06e-01	0	43	0	239075328	20	4904
2026-01-08 12:27:44.97	179.77	21.22	-29.5	-32.2	19.5	6.08e-01	0	43	0	240648192	20	4937
2026-01-08 12:27:45.97	179.85	21.37	-29.5	-32.2	19.5	6.06e-01	0	43	0	242745344	20	4929
2026-01-08 12:27:46.98	179.93	21.52	-29.5	-32.1	19.5	6.07e-01	0	42	0	244842496	20	4897
2026-01-08 12:27:47.98	180.01	21.68	-29.4	-32.1	19.6	6.07e-01	0	42	0	246415360	20	4877
2026-01-08 12:27:48.99	180.09	21.83	-29.5	-32.3	19.5	6.06e-01	0	42	0	248512512	20	4937
2026-01-08 12:27:50.00	180.18	21.99	-29.4	-31.9	19.7	6.07e-01	0	43	0	250085376	20	4832
2026-01-08 12:27:51.00	180.26	22.14	-29.4	-32.0	19.7	6.07e-01	0	43	0	252182528	20	4832
2026-01-08 12:27:52.00	180.35	22.30	-29.4	-32.1	19.6	6.05e-01	0	43	0	253755392	20	4875
2026-01-08 12:27:53.01	180.43	22.46	-29.5	-32.2	19.5	6.07e-01	0	43	0	255852544	20	4933
2026-01-08 12:27:54.01	180.52	22.62	-29.5	-32.3	19.5	6.06e-01	0	43	0	257949696	20	4961
2026-01-08 12:27:55.02	180.61	22.78	-29.5	-32.3	19.5	6.04e-01	0	43	0	259522560	20	4963
2026-01-08 12:27:56.02	180.70	22.94	-29.5	-32.3	19.5	6.07e-01	0	42	0	261619712	20	4959
2026-01-08 12:27:57.02	180.79	23.10	-29.6	-32.5	19.4	6.06e-01	0	43	0	263716864	20	5028
2026-01-08 12:27:58.03	180.88	23.26	-29.4	-32.1	19.6	6.08e-01	0	43	0	265289728	20	4864
2026-01-08 12:27:59.04	180.97	23.43	-29.4	-31.9	19.8	6.07e-01	0	43	0	267386880	20	4796
2026-01-08 12:28:00.02	181.06	23.59	-29.4	-31.9	19.7	6.07e-01	0	43	0	268959744	20	4818
2026-01-08 12:28:01.03	181.15	23.76	-29.4	-31.9	19.8	6.06e-01	0	43	0	271056896	20	4816
2026-01-08 12:28:02.03	181.25	23.92	-29.5	-32.1	19.7	6.08e-01	0	43	0	272629760	20	4871
2026-01-08 12:28:03.03	181.34	24.09	-29.5	-32.2	19.6	6.06e-01	0	43	0	274726912	20	4904
2026-01-08 12:28:04.03	181.44	24.26	-29.6	-32.4	19.5	6.05e-01	0	43	0	276824064	20	4962
2026-01-08 12:28:05.04	181.54	24.43	-29.6	-32.4	19.5	6.06e-01	0	43	0	278396928	20	4990
2026-01-08 12:28:06.05	181.64	24.61	-29.6	-32.5	19.4	6.05e-01	0	43	0	280494080	20	4999
2026-01-08 12:28:07.05	181.74	24.78	-29.6	-32.5	19.4	6.05e-01	0	43	0	282066944	20	5023
2026-01-08 12:28:08.06	181.84	24.95	-29.5	-32.1	19.7	6.06e-01	0	43	0	284164096	20	4869
2026-01-08 12:28:09.07	181.94	25.13	-29.5	-32.2	19.6	6.05e-01	0	43	0	286261248	20	4921
2026-01-08 12:28:10.06	182.04	25.30	-29.6	-32.5	19.4	6.08e-01	0	42	0	287834112	20	5005
2026-01-08 12:28:11.07	182.15	25.48	-29.6	-32.3	19.6	6.06e-01	0	43	0	289931264	20	4946
2026-01-08 12:28:12.08	182.26	25.66	-29.6	-32.4	19.5	6.05e-01	0	43	0	291504128	20	4965
2026-01-08 12:28:13.08	182.36	25.84	-29.7	-32.6	19.4	6.08e-01	0	43	0	293601280	20	5045
2026-01-08 12:28:14.08	182.47	26.02	-29.6	-32.3	19.6	6.08e-01	0	43	0	295174144	20	4940
2026-01-08 12:28:15.09	182.58	26.21	-29.5	-32.2	19.6	6.07e-01	0	43	0	297271296	20	4893
2026-01-08 12:28:16.09	182.69	26.39	-29.6	-32.3	19.6	6.07e-01	0	43	0	299368448	20	4932
2026-01-08 12:28:17.10	182.80	26.58	-29.3	-31.7	20.0	6.05e-01	0	43	0	300941312	20	4722
2026-01-08 12:28:18.10	182.92	26.76	-29.3	-31.5	20.1	6.05e-01	0	43	0	303038464	20	4677
2026-01-08 12:28:19.11	183.03	26.95	-29.4	-31.8	20.0	6.07e-01	0	42	0	305135616	20	4759
2026-01-08 12:28:20.11	183.15	27.14	-29.4	-31.9	19.9	6.06e-01	0	43	0	306708480	20	4789
2026-01-08 12:28:21.11	183.26	27.33	-29.4	-31.9	19.9	6.05e-01	0	42	0	308805632	20	4796
2026-01-08 12:28:22.12	183.38	27.52	-29.3	-31.7	20.0	6.03e-01	0	43	0	310378496	20	4731
2026-01-08 12:28:23.13	183.50	27.72	-29.3	-31.6	20.0	6.08e-01	0	43	0	312475648	20	4707
2026-01-08 12:28:24.14	183.63	27.91	-29.4	-31.9	19.9	6.08e-01	0	43	0	314048512	20	4784
2026-01-08 12:28:25.15	183.75	28.11	-29.2	-31.4	20.2	6.06e-01	0	43	0	316145664	20	4623
2026-01-08 12:28:26.15	183.87	28.30	-29.2	-31.4	20.2	6.07e-01	0	43	0	318242816	20	4625
2026-01-08 12:28:27.16	184.00	28.50	-29.3	-31.5	20.1	6.06e-01	0	43	0	319815680	20	4662
2026-01-08 12:28:28.16	184.13	28.70	-29.4	-31.8	19.9	6.05e-01	0	43	0	321912832	20	4761
2026-01-08 12:28:29.17	184.26	28.91	-29.3	-31.6	20.1	6.07e-01	0	43	0	323485696	20	4686
2026-01-08 12:28:30.17	184.39	29.11	-29.3	-31.5	20.1	6.05e-01	0	43	0	325582848	20	4674
2026-01-08 12:28:31.18	184.52	29.31	-29.1	-31.1	20.3	6.07e-01	0	43	0	327680000	20	4545
2026-01-08 12:28:32.18	184.66	29.52	-29.2	-31.3	20.3	6.07e-01	0	43	0	329252864	20	4584
2026-01-08 12:28:33.19	184.79	29.72	-29.3	-31.5	20.1	6.07e-01	0	43	0	331350016	20	4660
2026-01-08 12:28:34.19	184.93	29.93	-29.2	-31.5	20.2	6.05e-01	0	43	0	332922880	20	4644
2026-01-08 12:28:35.19	185.07	30.14	-29.3	-31.7	20.1	6.06e-01	0	43	0	335020032	20	4714
2026-01-08 12:28:36.20	185.21	30.35	-29.1	-31.2	20.3	6.05e-01	0	43	0	337117184	20	4568
2026-01-08 12:28:37.20	185.36	30.57	-29.1	-31.1	20.4	6.06e-01	0	43	0	338690048	20	4524
2026-01-08 12:28:38.21	185.50	30.78	-29.1	-31.1	20.4	6.06e-01	0	43	0	340787200	20	4530
2026-01-08 12:28:39.22	185.65	31.00	-29.1	-31.2	20.4	6.07e-01	0	43	0	342360064	20	4574
2026-01-08 12:28:40.21	185.80	31.21	-29.3	-31.7	20.0	6.07e-01	0	43	0	344457216	20	4733
2026-01-08 12:28:41.21	185.95	31.43	-29.5	-32.0	19.8	6.05e-01	0	43	0	346554368	20	4840
2026-01-08 12:28:42.21	186.10	31.65	-29.4	-31.8	20.0	6.07e-01	0	43	0	348127232	20	4753
2026-01-08 12:28:43.21	186.26	31.87	-29.2	-31.4	20.2	6.07e-01	0	43	0	350224384	20	4633
2026-01-08 12:28:44.22	186.41	32.10	-29.3	-31.5	20.2	6.08e-01	0	43	0	351797248	20	4650
2026-01-08 12:28:45.23	186.58	32.32	-29.5	-32.2	19.8	6.08e-01	0	43	0	353894400	20	4891
2026-01-08 12:28:46.24	186.74	32.55	-29.5	-32.2	19.8	6.04e-01	0	43	0	355467264	20	4886
2026-01-08 12:28:47.24	186.90	32.78	-29.5	-32.1	19.9	6.07e-01	0	43	0	357564416	20	4840
2026-01-08 12:28:48.26	187.07	33.01	-29.5	-32.0	19.9	6.05e-01	0	43	0	359661568	20	4822
2026-01-08 12:28:49.26	187.24	33.24	-29.5	-32.1	19.8	6.06e-01	0	43	0	361234432	20	4869
2026-01-08 12:28:50.26	187.41	33.47	-29.6	-32.4	19.7	6.07e-01	0	43	0	363331584	20	4945
2026-01-08 12:28:51.27	187.59	33.71	-29.7	-32.5	19.6	6.08e-01	0	43	0	365428736	20	5001
2026-01-08 12:28:52.28	187.76	33.95	-29.7	-32.7	19.5	6.06e-01	0	43	0	367001600	20	5064
2026-01-08 12:28:53.27	187.94	34.18	-29.9	-33.1	19.3	6.08e-01	0	43	0	369098752	20	5197
2026-01-08 12:28:54.28	188.12	34.42	-30.0	-33.4	19.1	6.08e-01	0	43	0	370671616	20	5315
2026-01-08 12:28:55.28	188.31	34.66	-29.8	-32.9	19.4	6.06e-01	0	43	0	372768768	20	5121
2026-01-08 12:28:56.29	188.50	34.91	-29.8	-32.9	19.4	6.09e-01	0	43	0	374341632	20	5131
2026-01-08 12:28:57.30	188.69	35.15	-29.9	-33.2	19.2	6.07e-01	0	43	0	376438784	20	5251
2026-01-08 12:28:58.30	188.88	35.40	-29.9	-33.2	19.2	6.08e-01	0	43	0	378535936	20	5238
2026-01-08 12:28:59.31	189.08	35.65	-30.0	-33.4	19.1	6.06e-01	0	43	0	380108800	20	5317
2026-01-08 12:29:00.31	189.28	35.90	-30.1	-33.2	18.9	6.06e-01	0	43	0	382205952	21	5147
2026-01-08 12:29:01.31	189.48	36.15	-30.1	-33.2	18.9	6.07e-01	0	43	0	383778816	21	5129
2026-01-08 12:29:02.32	189.68	36.40	-30.1	-33.2	18.9	6.05e-01	0	43	0	385875968	21	5145
2026-01-08 12:29:03.32	189.89	36.66	-30.3	-33.8	18.6	6.05e-01	0	43	0	387973120	21	5350
2026-01-08 12:29:04.34	190.11	36.92	-30.6	-34.4	18.2	6.09e-01	0	43	0	389545984	21	5619
2026-01-08 12:29:05.34	190.32	37.18	-30.6	-34.1	18.1	6.06e-01	0	43	0	391643136	22	5364
2026-01-08 12:29:06.35	190.54	37.44	-30.3	-33.2	18.7	6.06e-01	0	43	0	393216000	22	5017
2026-01-08 12:29:07.35	190.76	37.70	-30.4	-33.4	18.6	6.07e-01	0	43	0	395313152	22	5093
2026-01-08 12:29:08.35	190.99	37.96	-30.7	-34.2	18.0	6.04e-01	0	43	0	397410304	22	5402
2026-01-08 12:29:09.36	191.22	38.23	-30.9	-34.7	17.7	6.05e-01	0	43	0	398983168	22	5615
2026-01-08 12:29:10.37	191.45	38.50	-30.8	-34.5	17.9	6.06e-01	0	43	0	401080320	22	5495
2026-01-08 12:29:11.38	191.69	38.77	-30.5	-33.7	18.4	6.07e-01	0	43	0	402653184	22	5184
2026-01-08 12:29:12.39	191.93	39.04	-30.4	-33.4	18.6	6.05e-01	0	43	0	404750336	22	5079
2026-01-08 12:29:13.39	192.18	39.31	-30.4	-33.5	18.5	6.04e-01	0	43	0	406847488	22	5134
2026-01-08 12:29:14.40	192.43	39.58	-30.3	-33.3	18.7	6.05e-01	0	43	0	408420352	22	5029
2026-01-08 12:29:15.40	192.68	39.86	-30.2	-32.9	18.8	6.06e-01	0	43	0	410517504	22	4919
2026-01-08 12:29:16.41	192.94	40.14	-30.2	-32.8	18.9	6.06e-01	0	43	0	412090368	22	4865
2026-01-08 12:29:17.42	193.21	40.42	-30.2	-32.8	19.0	6.05e-01	0	43	0	414187520	22	4860
2026-01-08 12:29:18.43	193.48	40.70	-30.1	-32.7	19.0	6.07e-01	0	43	0	416284672	22	4811
2026-01-08 12:29:19.44	193.75	40.98	-29.8	-32.4	19.5	6.06e-01	0	43	0	417857536	21	4833
2026-01-08 12:29:20.44	194.03	41.27	-29.9	-32.4	19.5	6.06e-01	0	43	0	419954688	21	4848
2026-01-08 12:29:21.44	194.31	41.55	-29.8	-32.2	19.6	6.05e-01	0	43	0	421527552	21	4759
2026-01-08 12:29:22.44	194.59	41.84	-29.6	-31.8	19.9	6.05e-01	0	43	0	423624704	21	4638
2026-01-08 12:29:23.45	194.89	42.13	-29.6	-31.8	19.8	6.07e-01	0	43	0	425721856	21	4647
2026-01-08 12:29:24.45	195.18	42.42	-29.5	-31.5	20.1	6.04e-01	0	43	0	427294720	21	4529
2026-01-08 12:29:25.46	195.49	42.71	-29.2	-31.3	20.5	6.08e-01	0	43	0	429391872	20	4590
2026-01-08 12:29:26.46	195.79	43.00	-29.4	-31.7	20.3	6.07e-01	0	43	0	430964736	20	4699
2026-01-08 12:29:27.47	196.11	43.30	-29.3	-31.6	20.3	6.07e-01	0	43	0	433061888	20	4669
2026-01-08 12:29:28.47	196.43	43.59	-29.3	-31.6	20.3	6.08e-01	0	43	0	435159040	20	4681
2026-01-08 12:29:29.47	196.75	43.89	-29.2	-31.3	20.5	6.07e-01	0	43	0	436731904	20	4565
2026-01-08 12:29:30.47	197.08	44.19	-29.0	-30.7	20.8	6.07e-01	0	43	0	438829056	20	4397
2026-01-08 12:29:31.48	197.42	44.49	-29.0	-30.9	20.7	6.06e-01	0	43	0	440401920	20	4455
2026-01-08 12:29:32.49	197.77	44.79	-29.0	-30.7	20.8	6.07e-01	0	43	0	442499072	20	4408
2026-01-08 12:29:33.50	198.12	45.10	-28.9	-30.6	20.9	6.06e-01	0	43	0	444071936	20	4365
2026-01-08 12:29:34.50	198.48	45.40	-28.9	-30.7	20.8	6.06e-01	0	43	0	446169088	20	4390
2026-01-08 12:29:35.51	198.85	45.71	-28.9	-30.5	20.9	6.07e-01	0	43	0	448266240	20	4346
2026-01-08 12:29:36.52	199.22	46.02	-28.9	-30.9	21.0	6.07e-01	0	43	0	449839104	19	4560
2026-01-08 12:29:37.52	199.60	46.32	-28.8	-30.9	21.1	6.06e-01	0	43	0	451936256	19	4538
2026-01-08 12:29:38.52	199.98	46.63	-29.1	-31.4	20.8	6.09e-01	0	43	0	454033408	19	4710
2026-01-08 12:29:39.53	200.38	46.94	-28.9	-30.9	21.0	6.07e-01	0	43	0	455606272	19	4567
2026-01-08 12:29:40.54	200.79	47.25	-28.9	-31.1	21.0	6.07e-01	0	43	0	457703424	19	4622
2026-01-08 12:29:41.54	201.20	47.56	-28.9	-31.0	21.0	6.07e-01	0	43	0	459276288	19	4594
2026-01-08 12:29:42.55	201.62	47.88	-28.9	-31.0	21.0	6.08e-01	0	43	0	461373440	19	4595
2026-01-08 12:29:43.56	202.05	48.19	-29.1	-31.4	20.8	6.07e-01	0	43	0	463470592	19	4716
2026-01-08 12:29:44.56	202.48	48.51	-29.0	-31.1	21.0	6.06e-01	0	43	0	465043456	19	4626
2026-01-08 12:29:45.57	202.93	48.82	-29.0	-31.2	21.0	6.09e-01	0	43	0	467140608	19	4638
2026-01-08 12:29:46.57	203.38	49.14	-29.0	-31.2	21.0	6.06e-01	0	43	0	468713472	19	4634
2026-01-08 12:29:47.58	203.85	49.45	-28.9	-31.0	21.0	6.05e-01	0	43	0	470810624	19	4584
2026-01-08 12:29:48.59	204.33	49.77	-29.1	-31.5	20.8	6.08e-01	0	43	0	472383488	19	4735
2026-01-08 12:29:49.59	204.81	50.09	-29.1	-31.5	20.8	6.06e-01	0	43	0	474480640	19	4734
2026-01-08 12:29:50.60	205.31	50.40	-29.0	-31.2	21.0	6.08e-01	0	43	0	476577792	19	4640
2026-01-08 12:29:51.60	205.81	50.72	-29.1	-31.4	20.8	6.07e-01	0	43	0	478150656	19	4699
2026-01-08 12:29:52.61	206.33	51.04	-28.9	-31.1	21.1	6.06e-01	0	43	0	480247808	19	4604
2026-01-08 12:29:53.62	206.86	51.35	-28.9	-31.0	21.0	6.06e-01	0	43	0	482344960	19	4598
2026-01-08 12:29:54.63	207.40	51.67	-29.1	-31.5	20.8	6.07e-01	0	43	0	483917824	19	4753
2026-01-08 12:29:55.63	207.95	51.98	-28.9	-30.9	21.1	6.06e-01	0	43	0	486014976	19	4541
2026-01-08 12:29:56.64	208.51	52.30	-28.8	-30.7	21.2	6.06e-01	0	43	0	487587840	19	4498
2026-01-08 12:29:57.64	209.08	52.61	-29.0	-31.3	20.9	6.06e-01	0	43	0	489684992	19	4664
2026-01-08 12:29:58.65	209.67	52.93	-28.8	-30.8	21.2	6.06e-01	0	43	0	491257856	19	4515
2026-01-08 12:29:59.65	210.27	53.24	-29.2	-31.7	20.7	6.07e-01	0	43	0	493355008	19	4821
2026-01-08 12:30:00.66	210.88	53.55	-29.1	-31.5	20.8	6.03e-01	0	43	0	495452160	19	4750
2026-01-08 12:30:01.67	211.51	53.86	-28.9	-30.8	21.2	6.05e-01	0	43	0	497025024	19	4531
2026-01-08 12:30:02.67	212.14	54.17	-28.9	-31.0	21.1	6.06e-01	0	43	0	499122176	19	4585
2026-01-08 12:30:03.68	212.80	54.48	-28.9	-31.1	21.1	6.06e-01	0	43	0	500695040	19	4599
2026-01-08 12:30:04.69	213.47	54.78	-29.3	-31.9	20.6	6.08e-01	0	43	0	502792192	19	4862
2026-01-08 12:30:05.70	214.15	55.09	-29.2	-31.6	20.8	6.06e-01	0	43	0	504889344	19	4773
2026-01-08 12:30:06.70	214.84	55.38	-29.3	-31.8	20.7	6.04e-01	0	43	0	506462208	19	4834
2026-01-08 12:30:07.71	215.56	55.68	-29.5	-32.5	20.3	6.05e-01	0	43	0	508559360	19	5059
2026-01-08 12:30:08.71	216.28	55.98	-29.5	-32.0	20.2	6.07e-01	0	43	0	510656512	20	4810
2026-01-08 12:30:09.71	217.02	56.27	-29.8	-32.8	19.7	6.06e-01	0	43	0	512229376	20	5077
2026-01-08 12:30:10.71	217.77	56.56	-29.8	-32.8	19.7	6.06e-01	0	43	0	514326528	20	5068
2026-01-08 12:30:11.72	218.54	56.84	-30.0	-33.3	19.5	6.06e-01	0	43	0	515899392	20	5240
2026-01-08 12:30:12.73	219.34	57.13	-30.1	-33.4	19.4	6.06e-01	0	43	0	517996544	20	5280
2026-01-08 12:30:13.73	220.14	57.41	-30.3	-33.4	19.0	6.06e-01	0	43	0	519569408	21	5192
2026-01-08 12:30:14.74	220.96	57.68	-30.1	-33.0	19.3	6.07e-01	0	43	0	521666560	21	5022
2026-01-08 12:30:15.75	221.81	57.95	-30.4	-33.9	18.8	6.08e-01	0	43	0	523763712	21	5365
2026-01-08 12:30:16.75	222.66	58.22	-30.5	-33.4	18.7	6.07e-01	0	43	0	525336576	22	5073
2026-01-08 12:30:17.75	223.52	58.48	-30.2	-32.8	19.2	6.08e-01	0	43	0	527433728	22	4846
2026-01-08 12:30:18.76	224.42	58.73	-30.4	-33.4	18.8	6.07e-01	0	43	0	529006592	22	5041
2026-01-08 12:30:19.76	225.32	58.98	-30.4	-33.4	18.8	6.06e-01	0	43	0	531103744	22	5043
2026-01-08 12:30:20.77	226.25	59.23	-30.6	-33.8	18.6	6.08e-01	0	43	0	533200896	22	5194
2026-01-08 12:30:21.78	227.19	59.47	-30.6	-33.7	18.6	6.06e-01	0	43	0	534773760	22	5169
2026-01-08 12:30:22.78	228.15	59.70	-30.8	-34.4	18.2	6.07e-01	0	43	0	536870912	22	5431
2026-01-08 12:30:23.78	229.12	59.93	-30.9	-34.7	18.0	6.07e-01	0	43	0	538443776	22	5566
2026-01-08 12:30:24.79	230.11	60.15	-31.0	-34.9	17.9	6.07e-01	0	43	0	540540928	22	5654
2026-01-08 12:30:25.79	231.12	60.36	-31.0	-34.8	18.0	6.07e-01	0	43	0	542113792	22	5592
2026-01-08 12:30:26.79	232.14	60.57	-31.1	-34.8	17.6	6.06e-01	0	43	0	544210944	23	5476
2026-01-08 12:30:27.79	233.17	60.77	-31.3	-35.3	17.3	6.06e-01	0	43	0	546308096	23	5706
2026-01-08 12:30:28.79	234.23	60.96	-31.1	-34.6	17.7	6.07e-01	0	43	0	547880960	23	5419
2026-01-08 12:30:29.80	235.31	61.14	-31.2	-35.0	17.4	6.05e-01	0	43	0	549978112	23	5578
2026-01-08 12:30:30.81	236.40	61.32	-31.1	-34.7	17.8	6.09e-01	0	43	0	552075264	23	5445
2026-01-08 12:30:31.81	237.50	61.48	-31.1	-34.8	17.7	6.07e-01	0	43	0	553648128	23	5465
2026-01-08 12:30:32.81	238.61	61.64	-31.0	-34.5	17.9	6.06e-01	0	43	0	555745280	23	5335
2026-01-08 12:30:33.82	239.75	61.79	-31.3	-35.2	17.4	6.07e-01	0	43	0	557318144	23	5629
2026-01-08 12:30:34.83	240.90	61.93	-31.2	-34.9	17.7	6.07e-01	0	43	0	559415296	23	5509
2026-01-08 12:30:35.83	242.06	62.06	-31.1	-34.7	17.8	6.07e-01	0	43	0	560988160	23	5420
2026-01-08 12:30:36.84	243.23	62.18	-31.2	-34.9	17.6	6.08e-01	0	43	0	563085312	23	5538
2026-01-08 12:30:37.85	244.42	62.29	-31.2	-35.0	17.5	6.06e-01	0	43	0	565182464	23	5572
2026-01-08 12:30:38.85	245.61	62.39	-31.3	-35.4	17.3	6.09e-01	0	43	0	566755328	23	5714
2026-01-08 12:30:39.86	246.81	62.47	-31.3	-35.2	17.4	6.07e-01	0	43	0	568852480	23	5644
2026-01-08 12:30:40.86	248.02	62.55	-31.4	-35.5	17.2	6.06e-01	0	43	0	570425344	23	5769
2026-01-08 12:30:41.87	249.24	62.62	-31.4	-35.5	17.2	6.08e-01	0	43	0	572522496	23	5782
2026-01-08 12:30:42.88	250.47	62.68	-31.4	-35.4	17.2	6.05e-01	0	43	0	574619648	23	5752
2026-01-08 12:30:43.88	251.69	62.73	-31.3	-35.2	17.5	6.07e-01	0	43	0	576192512	23	5644
2026-01-08 12:30:44.89	252.93	62.76	-31.7	-35.8	16.7	6.07e-01	0	43	0	578289664	24	5805
2026-01-08 12:30:45.89	254.16	62.79	-31.1	-34.2	17.8	6.05e-01	0	43	0	579862528	24	5132
2026-01-08 12:30:46.89	255.39	62.80	-31.2	-34.5	17.6	6.07e-01	0	43	0	581959680	24	5260
2026-01-08 12:30:47.90	256.63	62.80	-31.3	-34.8	17.4	6.07e-01	0	43	0	584056832	24	5367
2026-01-08 12:30:48.91	257.88	62.79	-31.0	-33.9	18.0	6.07e-01	0	43	0	585629696	24	5013
2026-01-08 12:30:49.92	259.12	62.77	-31.0	-33.7	18.1	6.08e-01	0	43	0	587726848	24	4942
2026-01-08 12:30:50.93	260.36	62.74	-31.6	-35.6	16.9	6.06e-01	0	43	0	589299712	24	5725
2026-01-08 12:30:51.94	261.60	62.70	-31.0	-33.7	18.0	6.06e-01	0	43	0	591396864	24	4940
2026-01-08 12:30:52.94	262.82	62.65	-31.3	-34.7	17.5	6.07e-01	0	43	0	593494016	24	5321
2026-01-08 12:30:53.95	264.04	62.58	-31.4	-34.8	17.4	6.05e-01	0	43	0	595066880	24	5381
2026-01-08 12:30:54.96	265.26	62.51	-31.4	-35.0	17.2	6.06e-01	0	43	0	597164032	24	5464
2026-01-08 12:30:55.97	266.47	62.42	-31.0	-33.8	18.1	6.07e-01	0	43	0	598736896	24	4982
2026-01-08 12:30:56.97	267.66	62.33	-31.2	-34.5	17.6	6.07e-01	0	43	0	600834048	24	5238
2026-01-08 12:30:57.98	268.85	62.22	-31.3	-34.8	17.5	6.05e-01	0	43	0	602931200	24	5355
2026-01-08 12:30:58.98	270.02	62.11	-30.9	-33.5	18.3	6.06e-01	0	43	0	604504064	24	4858
2026-01-08 12:30:59.99	271.19	61.98	-30.9	-34.0	18.2	6.07e-01	0	43	0	606601216	23	5157
2026-01-08 12:31:01.00	272.34	61.85	-30.9	-34.0	18.2	6.07e-01	0	43	0	608174080	23	5167
2026-01-08 12:31:02.01	273.49	61.70	-30.9	-34.0	18.2	6.07e-01	0	43	0	610271232	23	5167
2026-01-08 12:31:03.01	274.60	61.55	-30.9	-34.0	18.3	6.08e-01	0	43	0	612368384	23	5134
2026-01-08 12:31:04.02	275.72	61.39	-30.6	-33.3	18.7	6.07e-01	0	43	0	613941248	23	4892
2026-01-08 12:31:05.03	276.82	61.22	-31.0	-34.4	18.1	6.07e-01	0	43	0	616038400	23	5303
2026-01-08 12:31:06.04	277.90	61.04	-30.9	-34.2	18.2	6.07e-01	0	43	0	617611264	23	5216
2026-01-08 12:31:07.04	278.96	60.85	-30.9	-34.0	18.2	6.08e-01	0	43	0	619708416	23	5147
2026-01-08 12:31:08.05	280.02	60.65	-31.0	-34.4	18.0	6.05e-01	0	43	0	621805568	23	5304
2026-01-08 12:31:09.05	281.04	60.45	-31.1	-34.8	17.7	6.05e-01	0	43	0	623378432	23	5478
2026-01-08 12:31:10.05	282.05	60.24	-31.2	-35.1	17.5	6.09e-01	0	43	0	625475584	23	5593
2026-01-08 12:31:11.06	283.05	60.03	-30.9	-34.0	18.2	6.07e-01	0	43	0	627048448	23	5163
2026-01-08 12:31:12.06	284.03	59.80	-30.7	-33.5	18.5	6.08e-01	0	43	0	629145600	23	4988
2026-01-08 12:31:13.07	285.00	59.57	-30.9	-34.0	18.2	6.07e-01	0	43	0	631242752	23	5155
2026-01-08 12:31:14.08	285.95	59.33	-30.9	-34.1	18.1	6.08e-01	0	43	0	632815616	23	5202
2026-01-08 12:31:15.08	286.87	59.09	-30.3	-33.1	19.1	6.07e-01	0	43	0	634912768	22	4915
2026-01-08 12:31:16.09	287.79	58.84	-30.5	-33.4	18.9	6.06e-01	0	43	0	636485632	22	5047
2026-01-08 12:31:17.09	288.68	58.59	-30.6	-33.9	18.6	6.09e-01	0	43	0	638582784	22	5220
2026-01-08 12:31:18.10	289.56	58.33	-30.6	-33.6	18.8	6.07e-01	0	43	0	640679936	22	5130
2026-01-08 12:31:19.11	290.43	58.07	-30.4	-33.2	19.0	6.06e-01	0	43	0	642252800	22	4986
2026-01-08 12:31:20.12	291.27	57.80	-30.6	-33.7	18.7	6.06e-01	0	43	0	644349952	22	5152
2026-01-08 12:31:21.13	292.11	57.52	-30.9	-34.6	18.1	6.05e-01	0	43	0	645922816	22	5522
2026-01-08 12:31:22.14	292.92	57.25	-30.6	-33.9	18.6	6.07e-01	0	43	0	648019968	22	5221
2026-01-08 12:31:23.14	293.71	56.97	-30.8	-34.2	18.4	6.06e-01	0	43	0	650117120	22	5333
2026-01-08 12:31:24.15	294.49	56.68	-30.8	-34.4	18.3	6.07e-01	0	43	0	651689984	22	5409
2026-01-08 12:31:25.16	295.25	56.39	-30.6	-33.8	18.6	6.06e-01	0	43	0	653787136	22	5181
2026-01-08 12:31:26.15	295.99	56.11	-30.3	-33.0	19.1	6.05e-01	0	43	0	655884288	22	4906
2026-01-08 12:31:27.16	296.72	55.81	-30.3	-33.0	19.2	6.07e-01	0	43	0	657457152	22	4883
2026-01-08 12:31:28.16	297.43	55.52	-30.6	-33.7	18.7	6.07e-01	0	43	0	659554304	22	5141
2026-01-08 12:31:29.16	298.13	55.22	-30.5	-33.5	18.8	6.07e-01	0	43	0	661127168	22	5088
2026-01-08 12:31:30.17	298.82	54.92	-30.0	-32.2	19.6	6.04e-01	0	43	0	663224320	22	4629
2026-01-08 12:31:31.18	299.49	54.61	-29.8	-32.1	20.0	6.07e-01	0	43	0	664797184	21	4693
2026-01-08 12:31:32.18	300.15	54.31	-30.2	-33.1	19.4	6.06e-01	0	43	0	666894336	21	5033
2026-01-08 12:31:33.19	300.79	54.00	-30.1	-32.9	19.5	6.07e-01	0	43	0	668991488	21	4973
2026-01-08 12:31:34.19	301.42	53.70	-30.0	-32.6	19.6	6.07e-01	0	43	0	670564352	21	4887
2026-01-08 12:31:35.20	302.04	53.39	-29.8	-32.3	19.9	6.04e-01	0	43	0	672661504	21	4747
2026-01-08 12:31:36.21	302.64	53.07	-30.2	-33.3	19.2	6.08e-01	0	43	0	674234368	21	5110
2026-01-08 12:31:37.22	303.24	52.76	-30.4	-33.8	19.0	6.06e-01	0	43	0	676331520	21	5292
2026-01-08 12:31:38.22	303.81	52.45	-30.7	-34.1	18.4	6.07e-01	0	43	0	678428672	22	5290
2026-01-08 12:31:39.22	304.37	52.14	-30.2	-32.7	19.3	6.06e-01	0	43	0	680001536	22	4798
2026-01-08 12:31:40.23	304.93	51.82	-30.3	-32.8	19.2	6.05e-01	0	43	0	682098688	22	4841
2026-01-08 12:31:41.24	305.47	51.51	-30.1	-32.5	19.3	6.06e-01	0	43	0	683671552	22	4729
2026-01-08 12:31:42.25	306.01	51.19	-30.1	-32.4	19.5	6.05e-01	0	43	0	685768704	22	4674
2026-01-08 12:31:43.25	306.52	50.88	-30.3	-33.0	19.2	6.06e-01	0	43	0	687341568	22	4892
2026-01-08 12:31:44.25	307.03	50.57	-30.7	-33.9	18.6	6.07e-01	0	43	0	689438720	22	5253
2026-01-08 12:31:45.25	307.53	50.25	-30.7	-33.9	18.5	6.08e-01	0	43	0	691535872	22	5248
2026-01-08 12:31:46.25	308.01	49.94	-30.4	-33.3	18.9	6.07e-01	0	43	0	693108736	22	5018
2026-01-08 12:31:47.26	308.49	49.62	-30.5	-33.6	18.7	6.08e-01	0	43	0	695205888	22	5113
2026-01-08 12:31:48.27	308.96	49.31	-30.8	-34.2	18.3	6.07e-01	0	43	0	697303040	22	5356
2026-01-08 12:31:49.27	309.42	48.99	-30.8	-34.3	18.3	6.07e-01	0	43	0	698875904	22	5379
2026-01-08 12:31:50.27	309.87	48.68	-31.0	-34.7	18.0	6.08e-01	0	43	0	700973056	22	5570
2026-01-08 12:31:51.28	310.31	48.37	-30.6	-33.9	18.6	6.06e-01	0	43	0	702545920	22	5216
2026-01-08 12:31:52.29	310.74	48.05	-30.4	-33.1	19.0	6.07e-01	0	43	0	704643072	22	4945
2026-01-08 12:31:53.30	311.17	47.74	-30.5	-33.5	18.7	6.08e-01	0	43	0	706740224	22	5104
2026-01-08 12:31:54.31	311.58	47.43	-30.6	-33.7	18.6	6.07e-01	0	43	0	708313088	22	5166
2026-01-08 12:31:55.32	311.99	47.12	-30.4	-33.2	19.0	6.06e-01	0	43	0	710410240	22	4962
2026-01-08 12:31:56.32	312.39	46.81	-30.2	-32.6	19.3	6.07e-01	0	43	0	711983104	22	4768
2026-01-08 12:31:57.32	312.77	46.50	-30.2	-32.8	19.2	6.04e-01	0	43	0	714080256	22	4822
2026-01-08 12:31:58.33	313.16	46.19	-30.3	-32.8	19.1	6.06e-01	0	43	0	715653120	22	4852
2026-01-08 12:31:59.33	313.53	45.89	-30.0	-32.2	19.5	6.07e-01	0	43	0	717750272	22	4648
2026-01-08 12:32:00.33	313.90	45.58	-30.0	-32.2	19.5	6.06e-01	0	43	0	719847424	22	4647
2026-01-08 12:32:01.33	314.26	45.28	-30.2	-32.6	19.3	6.06e-01	0	43	0	721420288	22	4778
2026-01-08 12:32:02.34	314.61	44.98	-30.2	-32.8	19.2	6.08e-01	0	43	0	723517440	22	4835
2026-01-08 12:32:03.35	314.96	44.68	-30.3	-33.0	19.0	6.04e-01	0	43	0	725090304	22	4917
2026-01-08 12:32:04.36	315.31	44.37	-30.2	-32.8	19.1	6.06e-01	0	43	0	727187456	22	4840
2026-01-08 12:32:05.37	315.64	44.07	-30.2	-32.7	19.2	6.06e-01	0	43	0	729284608	22	4804
2026-01-08 12:32:06.37	315.97	43.78	-30.2	-32.8	19.2	6.07e-01	0	43	0	730857472	22	4825
2026-01-08 12:32:07.37	316.29	43.48	-30.2	-32.6	19.3	6.10e-01	0	43	0	732954624	22	4778
2026-01-08 12:32:08.38	316.61	43.19	-30.3	-33.0	19.0	6.08e-01	0	43	0	734527488	22	4926
2026-01-08 12:32:09.39	316.92	42.89	-30.4	-33.2	18.9	6.05e-01	0	43	0	736624640	22	4974
2026-01-08 12:32:10.39	317.22	42.60	-30.5	-33.5	18.7	6.07e-01	0	43	0	738721792	22	5094
2026-01-08 12:32:11.40	317.52	42.31	-30.7	-34.0	18.4	6.07e-01	0	43	0	740294656	22	5284
2026-01-08 12:32:12.40	317.82	42.03	-30.7	-34.2	18.3	6.09e-01	0	43	0	742391808	22	5349
2026-01-08 12:32:13.40	318.10	41.74	-30.7	-34.1	18.3	6.05e-01	0	43	0	743964672	22	5336
2026-01-08 12:32:14.41	318.39	41.45	-30.5	-33.6	18.7	6.07e-01	0	43	0	746061824	22	5119
2026-01-08 12:32:15.41	318.67	41.17	-30.6	-33.7	18.6	6.09e-01	0	43	0	748158976	22	5169
2026-01-08 12:32:16.42	318.94	40.89	-30.5	-33.6	18.6	6.07e-01	0	43	0	749731840	22	5145
2026-01-08 12:32:17.42	319.21	40.61	-30.5	-33.6	18.6	6.06e-01	0	43	0	751828992	22	5118
2026-01-08 12:32:18.43	319.48	40.33	-30.6	-33.8	18.5	6.08e-01	0	43	0	753401856	22	5223
2026-01-08 12:32:19.43	319.74	40.05	-30.7	-34.0	18.4	6.07e-01	0	43	0	755499008	22	5289
2026-01-08 12:32:20.44	319.99	39.78	-30.4	-33.3	18.7	6.06e-01	0	43	0	757596160	22	5038
2026-01-08 12:32:21.45	320.25	39.50	-30.3	-33.1	18.9	6.07e-01	0	43	0	759169024	22	4953
2026-01-08 12:32:22.45	320.49	39.23	-30.4	-33.2	18.9	6.05e-01	0	43	0	761266176	22	4969
2026-01-08 12:32:23.45	320.73	38.96	-30.4	-33.3	18.8	6.08e-01	0	43	0	762839040	22	5028
2026-01-08 12:32:24.45	320.97	38.70	-30.4	-33.2	18.9	6.06e-01	0	43	0	764936192	22	4977
2026-01-08 12:32:25.46	321.21	38.43	-30.4	-33.4	18.7	6.07e-01	0	43	0	767033344	22	5050
2026-01-08 12:32:26.46	321.44	38.17	-30.4	-33.4	18.7	6.06e-01	0	43	0	768606208	22	5069
2026-01-08 12:32:27.47	321.67	37.90	-30.3	-32.9	19.0	6.06e-01	0	43	0	770703360	22	4882
2026-01-08 12:32:28.48	321.89	37.64	-30.2	-32.8	19.1	6.06e-01	0	43	0	772276224	22	4839
2026-01-08 12:32:29.48	322.11	37.38	-30.2	-32.9	19.0	6.08e-01	0	43	0	774373376	22	4886
2026-01-08 12:32:30.49	322.33	37.12	-30.1	-32.6	19.2	6.06e-01	0	43	0	775946240	22	4790
2026-01-08 12:32:31.49	322.54	36.86	-30.0	-32.3	19.4	6.08e-01	0	43	0	778043392	22	4680
2026-01-08 12:32:32.50	322.75	36.61	-30.0	-32.3	19.4	6.07e-01	0	43	0	780140544	22	4684
2026-01-08 12:32:33.50	322.96	36.36	-30.0	-32.2	19.4	6.06e-01	0	43	0	781713408	22	4638
2026-01-08 12:32:34.51	323.16	36.10	-29.7	-32.0	19.9	6.07e-01	0	43	0	783810560	21	4672
2026-01-08 12:32:35.51	323.36	35.86	-29.6	-31.7	20.0	6.06e-01	0	43	0	785907712	21	4576
2026-01-08 12:32:36.52	323.56	35.61	-29.5	-31.4	20.2	6.06e-01	0	43	0	787480576	21	4491
2026-01-08 12:32:37.53	323.76	35.36	-29.5	-31.4	20.2	6.06e-01	0	43	0	789577728	21	4494
2026-01-08 12:32:38.53	323.95	35.11	-29.3	-31.6	20.3	6.04e-01	0	43	0	791150592	20	4658
2026-01-08 12:32:39.54	324.14	34.87	-29.2	-31.3	20.5	6.07e-01	0	43	0	793247744	20	4564
2026-01-08 12:32:40.55	324.33	34.63	-29.3	-31.5	20.4	6.07e-01	0	43	0	794820608	20	4635
2026-01-08 12:32:41.55	324.51	34.39	-29.3	-31.5	20.4	6.05e-01	0	43	0	796917760	20	4648
2026-01-08 12:32:42.56	324.69	34.15	-29.4	-31.6	20.3	6.08e-01	0	43	0	799014912	20	4683
2026-01-08 12:32:43.56	324.87	33.92	-29.3	-31.6	20.3	6.05e-01	0	43	0	800587776	20	4678
2026-01-08 12:32:44.56	325.04	33.68	-29.3	-31.4	20.5	6.07e-01	0	43	0	802684928	20	4595
2026-01-08 12:32:45.57	325.22	33.45	-29.2	-31.3	20.5	6.04e-01	0	43	0	804257792	20	4573
2026-01-08 12:32:46.58	325.39	33.22	-29.1	-31.0	20.7	6.02e-01	0	43	0	806354944	20	4495
2026-01-08 12:32:47.58	325.55	32.99	-29.1	-31.0	20.6	6.04e-01	0	43	0	808452096	20	4486
2026-01-08 12:32:48.59	325.72	32.76	-29.1	-31.0	20.6	6.03e-01	0	43	0	810024960	20	4479
2026-01-08 12:32:49.60	325.89	32.53	-29.1	-31.0	20.6	6.03e-01	0	43	0	812122112	20	4496
2026-01-08 12:32:50.60	326.05	32.31	-29.1	-31.0	20.7	6.02e-01	0	43	0	814219264	20	4483
2026-01-08 12:32:51.61	326.21	32.08	-29.0	-30.7	20.8	6.04e-01	0	43	0	815792128	20	4393
2026-01-08 12:32:52.62	326.36	31.86	-29.0	-30.7	20.9	6.05e-01	0	43	0	817889280	20	4384
2026-01-08 12:32:53.63	326.52	31.64	-29.0	-30.7	20.9	6.07e-01	0	43	0	819462144	20	4386
2026-01-08 12:32:54.63	326.67	31.42	-28.9	-30.6	20.9	6.04e-01	0	43	0	821559296	20	4351
2026-01-08 12:32:55.64	326.82	31.20	-29.0	-30.8	20.8	6.06e-01	0	43	0	823132160	20	4416
2026-01-08 12:32:56.64	326.97	30.99	-29.0	-30.7	20.8	6.02e-01	0	43	0	825229312	20	4381
2026-01-08 12:32:57.65	327.12	30.77	-28.9	-30.6	20.9	6.01e-01	0	43	0	827326464	20	4372
2026-01-08 12:32:58.66	327.26	30.56	-29.1	-30.9	20.7	6.04e-01	0	43	0	828899328	20	4467
2026-01-08 12:32:59.67	327.41	30.34	-29.1	-30.9	20.7	6.01e-01	0	43	0	830996480	20	4466
2026-01-08 12:33:00.67	327.55	30.14	-29.1	-31.1	20.6	6.03e-01	0	43	0	832569344	20	4509
2026-01-08 12:33:01.68	327.69	29.93	-29.2	-31.4	20.4	6.03e-01	0	43	0	834666496	20	4600
2026-01-08 12:33:02.69	327.82	29.72	-29.2	-31.3	20.4	6.04e-01	0	43	0	836763648	20	4582
2026-01-08 12:33:03.70	327.96	29.51	-29.1	-31.1	20.6	6.06e-01	0	43	0	838336512	20	4509
2026-01-08 12:33:04.70	328.09	29.31	-29.1	-31.1	20.5	6.05e-01	0	43	0	840433664	20	4527
2026-01-08 12:33:05.71	328.23	29.11	-29.2	-31.2	20.4	6.02e-01	0	43	0	842530816	20	4549
2026-01-08 12:33:06.72	328.36	28.90	-29.2	-31.4	20.3	6.04e-01	0	43	0	844103680	20	4619
2026-01-08 12:33:07.72	328.48	28.71	-29.2	-31.4	20.3	6.02e-01	0	43	0	846200832	20	4611
2026-01-08 12:33:08.72	328.61	28.51	-29.2	-31.4	20.3	6.02e-01	0	43	0	847773696	20	4603
2026-01-08 12:33:09.72	328.74	28.31	-29.2	-31.3	20.4	6.04e-01	0	43	0	849870848	20	4588
2026-01-08 12:33:10.72	328.86	28.12	-29.3	-31.4	20.3	6.05e-01	0	43	0	851443712	20	4620
2026-01-08 12:33:11.73	328.98	27.92	-29.2	-31.3	20.3	6.00e-01	0	43	0	853540864	20	4586
2026-01-08 12:33:12.74	329.10	27.73	-29.2	-31.3	20.3	6.03e-01	0	43	0	855638016	20	4592
2026-01-08 12:33:13.75	329.22	27.54	-29.3	-31.5	20.2	6.05e-01	0	43	0	857210880	20	4658
2026-01-08 12:33:14.75	329.34	27.35	-29.4	-31.7	20.1	6.04e-01	0	43	0	859308032	20	4730
2026-01-08 12:33:15.76	329.46	27.16	-29.4	-31.8	20.1	6.04e-01	0	43	0	860880896	20	4753
2026-01-08 12:33:16.77	329.58	26.97	-29.5	-32.0	19.9	6.05e-01	0	43	0	862978048	20	4815
2026-01-08 12:33:17.77	329.69	26.78	-29.5	-32.1	19.9	6.04e-01	0	43	0	865075200	20	4854
2026-01-08 12:33:18.78	329.80	26.60	-29.6	-32.3	19.8	6.03e-01	0	43	0	866648064	20	4918
2026-01-08 12:33:19.79	329.92	26.41	-29.6	-32.2	19.8	6.03e-01	0	43	0	868745216	20	4901
2026-01-08 12:33:20.79	330.03	26.23	-29.7	-32.5	19.6	6.05e-01	0	43	0	870318080	20	4996
2026-01-08 12:33:21.79	330.13	26.05	-29.6	-32.4	19.6	6.05e-01	0	43	0	872415232	20	4945
2026-01-08 12:33:22.80	330.24	25.87	-29.7	-32.5	19.5	6.03e-01	0	43	0	873988096	20	4994
2026-01-08 12:33:23.80	330.35	25.69	-29.8	-32.9	19.3	6.04e-01	0	43	0	876085248	20	5133
2026-01-08 12:33:24.81	330.45	25.51	-29.7	-32.7	19.4	6.03e-01	0	43	0	878182400	20	5054
2026-01-08 12:33:25.82	330.56	25.34	-29.6	-32.3	19.7	6.04e-01	0	43	0	879755264	20	4932
2026-01-08 12:33:26.82	330.66	25.16	-29.6	-32.3	19.7	6.03e-01	0	43	0	881852416	20	4937
2026-01-08 12:33:27.82	330.76	24.99	-29.6	-32.5	19.6	6.04e-01	0	43	0	883949568	20	4991
2026-01-08 12:33:28.83	330.86	24.81	-29.7	-32.7	19.4	6.04e-01	0	43	0	885522432	20	5085
2026-01-08 12:33:29.83	330.96	24.64	-29.8	-32.9	19.3	6.03e-01	0	43	0	887619584	20	5125
2026-01-08 12:33:30.83	331.06	24.47	-29.8	-32.8	19.4	6.04e-01	0	43	0	889192448	20	5115
2026-01-08 12:33:31.84	331.16	24.30	-29.9	-33.0	19.2	6.01e-01	0	43	0	891289600	20	5183
2026-01-08 12:33:32.84	331.26	24.13	-29.7	-32.7	19.4	6.03e-01	0	43	0	892862464	20	5067
2026-01-08 12:33:33.85	331.35	23.97	-29.6	-32.4	19.6	6.02e-01	0	43	0	894959616	20	4974
2026-01-08 12:33:34.86	331.45	23.80	-29.7	-32.6	19.5	6.03e-01	0	43	0	897056768	20	5019
2026-01-08 12:33:35.86	331.54	23.63	-29.6	-32.4	19.6	6.02e-01	0	43	0	898629632	20	4945
2026-01-08 12:33:36.87	331.63	23.47	-29.7	-32.6	19.5	6.01e-01	0	43	0	900726784	20	5016
2026-01-08 12:33:37.87	331.72	23.31	-29.6	-32.4	19.6	6.04e-01	0	43	0	902299648	20	4950
2026-01-08 12:33:38.88	331.81	23.14	-29.7	-32.6	19.5	6.02e-01	0	43	0	904396800	20	5019
2026-01-08 12:33:39.88	331.90	22.98	-29.8	-33.0	19.2	6.03e-01	0	43	0	906493952	20	5181
2026-01-08 12:33:40.88	331.99	22.83	-29.7	-32.6	19.4	6.05e-01	0	43	0	908066816	20	5047
2026-01-08 12:33:41.89	332.08	22.67	-29.5	-32.1	19.7	6.02e-01	0	43	0	910163968	20	4863
2026-01-08 12:33:42.89	332.17	22.51	-29.5	-32.1	19.8	6.02e-01	0	43	0	911736832	20	4857
2026-01-08 12:33:43.90	332.25	22.35	-29.5	-32.1	19.7	6.04e-01	0	43	0	913833984	20	4856
2026-01-08 12:33:44.90	332.34	22.20	-29.5	-32.2	19.7	6.01e-01	0	43	0	915931136	20	4892
2026-01-08 12:33:45.91	332.42	22.04	-29.5	-32.2	19.7	6.05e-01	0	43	0	917504000	20	4896
2026-01-08 12:33:46.91	332.51	21.89	-29.5	-32.2	19.7	6.05e-01	0	43	0	919601152	20	4903
2026-01-08 12:33:47.92	332.59	21.73	-29.7	-32.6	19.5	6.03e-01	0	43	0	921174016	20	5023
2026-01-08 12:33:48.93	332.67	21.58	-29.6	-32.3	19.6	6.04e-01	0	43	0	923271168	20	4948
2026-01-08 12:33:49.93	332.75	21.43	-29.7	-32.6	19.4	6.03e-01	0	43	0	925368320	20	5039
2026-01-08 12:33:50.94	332.83	21.28	-29.9	-33.1	19.1	6.03e-01	0	43	0	926941184	20	5219
2026-01-08 12:33:51.95	332.91	21.13	-29.8	-32.8	19.2	6.04e-01	0	43	0	929038336	20	5123
2026-01-08 12:33:52.95	332.99	20.98	-29.6	-32.5	19.4	6.02e-01	0	43	0	930611200	20	5010
2026-01-08 12:33:53.96	333.07	20.83	-29.7	-32.7	19.3	6.04e-01	0	43	0	932708352	20	5072
2026-01-08 12:33:54.96	333.15	20.69	-29.7	-32.6	19.3	6.05e-01	0	43	0	934805504	20	5058
2026-01-08 12:33:55.96	333.22	20.54	-29.7	-32.8	19.0	6.04e-01	0	43	0	936378368	20	5147
2026-01-08 12:33:56.97	333.30	20.40	-29.6	-32.5	19.3	6.03e-01	0	43	0	938475520	20	5014
2026-01-08 12:33:57.98	333.38	20.25	-29.8	-32.9	18.9	6.03e-01	0	43	0	940048384	20	5181
2026-01-08 12:33:58.99	333.45	20.11	-29.5	-32.3	19.3	6.02e-01	0	43	0	942145536	20	4966
2026-01-08 12:33:59.99	333.52	19.97	-29.4	-32.0	19.5	6.04e-01	0	43	0	944242688	20	4845
2026-01-08 12:34:01.00	333.60	19.82	-29.4	-32.0	19.5	6.04e-01	0	43	0	945815552	20	4847
2026-01-08 12:34:02.00	333.67	19.68	-29.4	-32.1	19.4	6.02e-01	0	43	0	947912704	20	4912
2026-01-08 12:34:03.01	333.74	19.54	-29.4	-32.1	19.4	6.02e-01	0	43	0	949485568	20	4915
2026-01-08 12:34:04.02	333.81	19.40	-29.4	-32.1	19.4	6.01e-01	0	43	0	951582720	20	4911
2026-01-08 12:34:05.02	333.88	19.27	-29.6	-32.5	19.2	6.05e-01	0	43	0	953679872	20	5044
2026-01-08 12:34:06.03	333.95	19.13	-29.4	-32.1	19.4	6.04e-01	0	43	0	955252736	20	4897
2026-01-08 12:34:07.04	334.02	18.99	-29.3	-31.8	19.6	6.03e-01	0	43	0	957349888	20	4793
2026-01-08 12:34:08.05	334.09	18.86	-29.4	-32.0	19.5	6.05e-01	0	43	0	958922752	20	4863
2026-01-08 12:34:09.05	334.16	18.72	-29.4	-31.9	19.5	6.05e-01	0	43	0	961019904	20	4837
2026-01-08 12:34:10.06	334.23	18.59	-29.4	-32.1	19.4	6.04e-01	0	43	0	963117056	20	4911
2026-01-08 12:34:11.06	334.29	18.45	-29.5	-32.3	19.3	6.03e-01	0	43	0	964689920	20	4957
2026-01-08 12:34:12.07	334.36	18.32	-29.5	-32.1	19.6	6.03e-01	0	43	0	966787072	20	4892
2026-01-08 12:34:13.08	334.43	18.19	-29.5	-32.2	19.5	6.02e-01	0	43	0	968359936	20	4912
2026-01-08 12:34:14.08	334.49	18.06	-29.6	-32.5	19.3	6.04e-01	0	43	0	970457088	20	5008
2026-01-08 12:34:15.08	334.56	17.93	-29.5	-32.1	19.6	6.05e-01	0	43	0	972554240	20	4881
2026-01-08 12:34:16.08	334.62	17.80	-29.4	-31.9	19.7	6.04e-01	0	43	0	974127104	20	4813
2026-01-08 12:34:17.09	334.68	17.67	-29.4	-31.9	19.7	6.03e-01	0	43	0	976224256	20	4801
2026-01-08 12:34:18.10	334.75	17.54	-29.5	-32.2	19.4	6.03e-01	0	43	0	977797120	20	4918
2026-01-08 12:34:19.10	334.81	17.41	-29.4	-31.9	19.7	6.03e-01	0	43	0	979894272	20	4800
2026-01-08 12:34:20.11	334.87	17.29	-29.3	-31.6	19.8	6.03e-01	0	43	0	981991424	20	4718
2026-01-08 12:34:21.11	334.93	17.16	-29.3	-31.8	19.7	6.02e-01	0	43	0	983564288	20	4765
2026-01-08 12:34:22.11	334.99	17.04	-29.3	-31.6	19.8	6.04e-01	0	43	0	985661440	20	4720
2026-01-08 12:34:23.12	335.05	16.91	-29.4	-31.9	19.6	6.01e-01	0	43	0	987234304	20	4828
2026-01-08 12:34:24.12	335.11	16.79	-29.5	-32.3	19.4	6.03e-01	0	43	0	989331456	20	4955
2026-01-08 12:34:25.12	335.17	16.66	-29.4	-32.0	19.6	6.03e-01	0	43	0	990904320	20	4835
2026-01-08 12:34:26.13	335.23	16.54	-29.3	-31.7	19.7	6.02e-01	0	43	0	993001472	20	4768
2026-01-08 12:34:27.13	335.29	16.42	-29.3	-31.8	19.7	6.03e-01	0	43	0	995098624	20	4777
2026-01-08 12:34:28.14	335.35	16.30	-29.3	-31.8	19.7	6.04e-01	0	43	0	996671488	20	4788
2026-01-08 12:34:29.15	335.41	16.18	-29.3	-31.8	19.6	6.02e-01	0	43	0	998768640	20	4797
2026-01-08 12:34:30.15	335.46	16.06	-29.2	-31.6	19.7	6.03e-01	0	43	0	1000865792	20	4715
2026-01-08 12:34:31.15	335.52	15.94	-29.2	-31.6	19.7	6.02e-01	0	43	0	1002438656	20	4712
2026-01-08 12:34:32.16	335.58	15.82	-29.3	-31.7	19.6	6.04e-01	0	43	0	1004535808	20	4772
2026-01-08 12:34:33.17	335.63	15.70	-29.3	-31.8	19.6	6.00e-01	0	43	0	1006108672	20	4786
2026-01-08 12:34:34.18	335.69	15.58	-29.3	-31.7	19.6	6.02e-01	0	43	0	1008205824	20	4773
2026-01-08 12:34:35.19	335.74	15.46	-29.4	-31.9	19.5	6.05e-01	0	43	0	1009778688	20	4831
2026-01-08 12:34:36.20	335.80	15.35	-29.3	-31.8	19.6	6.04e-01	0	43	0	1011875840	20	4802
2026-01-08 12:34:37.21	335.85	15.23	-29.4	-32.1	19.4	6.05e-01	0	43	0	1013972992	20	4888
2026-01-08 12:34:38.21	335.91	15.11	-29.3	-31.7	19.6	6.03e-01	0	43	0	1015545856	20	4774
2026-01-08 12:34:39.22	335.96	15.00	-29.3	-31.8	19.4	6.04e-01	0	43	0	1017643008	20	4810
2026-01-08 12:34:40.22	336.01	14.89	-29.3	-31.8	19.5	6.05e-01	0	43	0	1019215872	20	4799
2026-01-08 12:34:41.22	336.07	14.77	-29.3	-31.8	19.5	6.01e-01	0	43	0	1021313024	20	4795
2026-01-08 12:34:42.23	336.12	14.66	-29.4	-32.1	19.3	6.04e-01	0	43	0	1023410176	20	4885
2026-01-08 12:34:43.24	336.17	14.55	-29.5	-32.2	19.3	6.02e-01	0	43	0	1024983040	20	4933
2026-01-08 12:34:44.25	336.22	14.43	-29.4	-31.9	19.4	6.05e-01	0	43	0	1027080192	20	4839
2026-01-08 12:34:45.25	336.27	14.32	-29.4	-31.9	19.3	6.04e-01	0	43	0	1028653056	20	4850
2026-01-08 12:34:46.25	336.32	14.21	-29.4	-32.1	19.2	6.02e-01	0	43	0	1030750208	20	4922
2026-01-08 12:34:47.26	336.37	14.10	-29.5	-32.3	19.1	6.04e-01	0	43	0	1032847360	20	4986
2026-01-08 12:34:48.27	336.42	13.99	-29.5	-32.2	19.2	6.03e-01	0	43	0	1034420224	20	4952
2026-01-08 12:34:49.27	336.47	13.88	-29.5	-32.3	19.1	6.02e-01	0	43	0	1036517376	20	4988
2026-01-08 12:34:50.28	336.52	13.77	-29.4	-32.1	19.3	6.04e-01	0	43	0	1038090240	20	4910
2026-01-08 12:34:51.28	336.57	13.67	-29.4	-32.1	19.3	6.02e-01	0	43	0	1040187392	20	4921
2026-01-08 12:34:52.29	336.62	13.56	-29.4	-32.0	19.4	6.03e-01	0	43	0	1042284544	20	4889
2026-01-08 12:34:53.29	336.67	13.45	-29.5	-32.3	19.2	6.03e-01	0	43	0	1043857408	20	4978
2026-01-08 12:34:54.30	336.72	13.35	-29.5	-32.4	19.0	6.05e-01	0	43	0	1045954560	20	5017
2026-01-08 12:34:55.29	336.76	13.24	-29.6	-32.7	18.8	6.03e-01	0	43	0	1047527424	20	5128
2026-01-08 12:34:56.30	336.81	13.13	-29.5	-32.3	19.0	6.04e-01	0	43	0	1049624576	20	4997
2026-01-08 12:34:57.31	336.86	13.03	-29.5	-32.3	19.0	6.03e-01	0	43	0	1051721728	20	5001
2026-01-08 12:34:58.31	336.90	12.93	-29.4	-32.2	19.0	6.04e-01	0	43	0	1053294592	20	4963
2026-01-08 12:34:59.32	336.95	12.82	-29.5	-32.3	18.8	6.02e-01	0	43	0	1055391744	20	4990
2026-01-08 12:35:00.32	336.99	12.72	-29.5	-32.4	18.7	6.06e-01	0	43	0	1056964608	20	5033
2026-01-08 12:35:01.33	337.04	12.61	-29.5	-32.5	18.7	6.04e-01	0	43	0	1059061760	20	5068
2026-01-08 12:35:02.33	337.09	12.51	-29.6	-32.8	18.6	6.03e-01	0	43	0	1060634624	20	5168
2026-01-08 12:35:03.33	337.13	12.41	-29.5	-32.4	18.8	6.01e-01	0	43	0	1062731776	20	5037
2026-01-08 12:35:04.34	337.17	12.31	-29.5	-32.5	18.8	6.03e-01	0	43	0	1064828928	20	5065
2026-01-08 12:35:05.35	337.22	12.21	-29.6	-32.6	18.8	6.01e-01	0	43	0	1066401792	20	5098
2026-01-08 12:35:06.36	337.26	12.10	-29.5	-32.3	19.0	6.03e-01	0	43	0	1068498944	20	5009
2026-01-08 12:35:07.36	337.31	12.00	-29.6	-32.6	18.8	6.02e-01	0	43	0	1070596096	20	5108
2026-01-08 12:35:08.37	337.35	11.90	-29.7	-33.0	18.5	6.03e-01	0	43	0	1072168960	20	5252
2026-01-08 12:35:09.37	337.39	11.81	-29.7	-32.9	18.5	6.03e-01	0	43	0	1074266112	20	5214
2026-01-08 12:35:10.37	337.44	11.71	-29.7	-32.9	18.6	6.03e-01	0	43	0	1075838976	20	5220
2026-01-08 12:35:11.38	337.48	11.61	-29.8	-33.3	18.4	6.05e-01	0	43	0	1077936128	20	5375
2026-01-08 12:35:12.38	337.52	11.51	-29.9	-33.5	18.3	6.03e-01	0	43	0	1079508992	20	5439
2026-01-08 12:35:13.38	337.56	11.41	-29.7	-33.0	18.4	6.02e-01	0	43	0	1081606144	20	5285
2026-01-08 12:35:14.39	337.61	11.31	-29.7	-33.0	18.3	6.06e-01	0	43	0	1083703296	20	5283
2026-01-08 12:35:15.39	337.65	11.22	-29.8	-33.3	18.0	6.00e-01	0	43	0	1085276160	20	5387
2026-01-08 12:35:16.40	337.69	11.12	-29.9	-33.5	17.8	6.00e-01	0	43	0	1087373312	20	5498
2026-01-08 12:35:17.41	337.73	11.02	-29.7	-33.0	18.3	6.04e-01	0	43	0	1088946176	20	5261
2026-01-08 12:35:18.42	337.77	10.93	-29.6	-32.8	18.5	6.05e-01	0	43	0	1091043328	20	5202
2026-01-08 12:35:19.42	337.81	10.83	-29.6	-32.8	18.6	6.03e-01	0	43	0	1093140480	20	5172
2026-01-08 12:35:20.43	337.85	10.74	-29.7	-32.9	18.6	6.04e-01	0	43	0	1094713344	20	5227
2026-01-08 12:35:21.43	337.89	10.64	-29.7	-32.9	18.6	6.02e-01	0	43	0	1096810496	20	5239
2026-01-08 12:35:22.44	337.93	10.55	-29.7	-32.9	18.7	6.03e-01	0	43	0	1098383360	20	5213
2026-01-08 12:35:23.44	337.97	10.46	-29.6	-32.8	18.6	6.02e-01	0	43	0	1100480512	20	5197
2026-01-08 12:35:24.45	338.01	10.36	-29.7	-33.0	18.5	6.02e-01	0	43	0	1102577664	20	5248
2026-01-08 12:35:25.46	338.05	10.27	-29.7	-32.9	18.5	6.02e-01	0	43	0	1104150528	20	5238
2026-01-08 12:35:26.47	338.09	10.18	-29.6	-32.8	18.6	6.02e-01	0	43	0	1106247680	20	5174
2026-01-08 12:35:27.48	338.13	10.08	-29.7	-33.0	18.5	6.05e-01	0	43	0	1107820544	20	5261
2026-01-08 12:35:28.48	338.16	9.99	-29.8	-33.2	18.4	6.04e-01	0	43	0	1109917696	20	5323
2026-01-08 12:35:29.49	338.20	9.90	-29.8	-33.2	18.4	6.04e-01	0	43	0	1112014848	20	5346
2026-01-08 12:35:30.50	338.24	9.81	-29.9	-33.5	18.2	6.05e-01	0	43	0	1113587712	20	5448
2026-01-08 12:35:31.51	338.28	9.72	-29.7	-33.1	18.5	6.04e-01	0	43	0	1115684864	20	5285
2026-01-08 12:35:32.51	338.32	9.63	-29.8	-33.4	18.3	6.03e-01	0	43	0	1117257728	20	5416
2026-01-08 12:35:33.52	338.35	9.54	-29.8	-33.4	18.3	6.02e-01	0	43	0	1119354880	20	5408
2026-01-08 12:35:34.52	338.39	9.45	-29.8	-33.3	18.3	6.04e-01	0	43	0	1121452032	20	5379
2026-01-08 12:35:35.53	338.43	9.36	-29.8	-33.4	18.3	6.03e-01	0	43	0	1123024896	20	5424
2026-01-08 12:35:36.53	338.46	9.27	-29.9	-33.7	18.0	6.04e-01	0	43	0	1125122048	20	5557
2026-01-08 12:35:37.54	338.50	9.18	-29.9	-33.7	18.0	6.05e-01	0	43	0	1126694912	20	5547
2026-01-08 12:35:38.54	338.54	9.09	-29.9	-33.7	18.0	6.04e-01	0	43	0	1128792064	20	5538
2026-01-08 12:35:39.55	338.57	9.01	-30.0	-34.0	17.8	6.03e-01	0	43	0	1130889216	20	5692
2026-01-08 12:35:40.55	338.61	8.92	-30.1	-33.7	17.7	6.04e-01	0	43	0	1132462080	21	5428
2026-01-08 12:35:41.55	338.64	8.83	-30.0	-33.4	17.8	6.02e-01	0	43	0	1134559232	21	5334
2026-01-08 12:35:42.56	338.68	8.74	-30.0	-33.3	17.9	6.03e-01	0	43	0	1136132096	21	5299
2026-01-08 12:35:43.56	338.71	8.66	-30.1	-33.7	17.6	6.05e-01	0	43	0	1138229248	21	5459
2026-01-08 12:35:44.57	338.75	8.57	-30.1	-33.8	17.6	6.04e-01	0	43	0	1140326400	21	5478
2026-01-08 12:35:45.57	338.78	8.49	-30.0	-33.5	17.7	6.03e-01	0	43	0	1141899264	21	5379
2026-01-08 12:35:46.58	338.82	8.40	-30.1	-33.6	17.7	6.01e-01	0	43	0	1143996416	21	5422
2026-01-08 12:35:47.58	338.85	8.31	-30.1	-33.6	17.7	6.02e-01	0	43	0	1145569280	21	5412
2026-01-08 12:35:48.59	338.89	8.23	-30.1	-33.7	17.5	6.03e-01	0	43	0	1147666432	21	5474
2026-01-08 12:35:49.59	338.92	8.15	-30.1	-33.8	17.5	6.04e-01	0	43	0	1149239296	21	5519
2026-01-08 12:35:50.60	338.95	8.06	-30.2	-34.1	17.4	6.03e-01	0	43	0	1151336448	21	5617
2026-01-08 12:35:51.61	338.99	7.98	-30.1	-33.9	17.4	6.04e-01	0	43	0	1153433600	21	5538
2026-01-08 12:35:52.61	339.02	7.89	-30.2	-34.0	17.4	6.03e-01	0	43	0	1155006464	21	5586
2026-01-08 12:35:53.62	339.05	7.81	-30.2	-34.2	17.2	6.03e-01	0	43	0	1157103616	21	5689
2026-01-08 12:35:54.62	339.09	7.73	-30.3	-34.3	17.2	6.06e-01	0	43	0	1159200768	21	5711
2026-01-08 12:35:55.63	339.12	7.64	-30.2	-34.0	17.3	6.03e-01	0	43	0	1160773632	21	5574
2026-01-08 12:35:56.63	339.15	7.56	-30.0	-33.7	17.5	6.01e-01	0	43	0	1162870784	21	5455
2026-01-08 12:35:57.64	339.19	7.48	-30.1	-33.8	17.4	6.03e-01	0	43	0	1164443648	21	5519
2026-01-08 12:35:58.65	339.22	7.40	-30.1	-33.9	17.3	6.04e-01	0	43	0	1166540800	21	5563
2026-01-08 12:35:59.65	339.25	7.31	-30.2	-34.2	17.1	6.02e-01	0	43	0	1168637952	21	5680
2026-01-08 12:36:00.66	339.28	7.23	-30.1	-34.0	17.2	6.02e-01	0	43	0	1170210816	21	5618
2026-01-08 12:36:01.66	339.31	7.15	-30.1	-33.9	17.2	6.04e-01	0	43	0	1172307968	21	5575
2026-01-08 12:36:02.67	339.35	7.07	-33.3	-51.7	3.8	7.48e-01	0	43	104	1173356544	27	30152
2026-01-08 12:36:03.68	339.38	6.99	-33.6	-53.1	3.8	7.47e-01	0	43	104	1173356544	27	34280
2026-01-08 12:36:04.68	339.41	6.91	-33.7	-52.9	3.8	7.46e-01	0	43	104	1173356544	28	32707
2026-01-08 12:36:05.69	339.44	6.83	-33.8	-53.0	3.8	7.44e-01	0	43	104	1173356544	28	33050

#Closed at: 2026-01-08 12:36:05
#Recorded file [1173 MB]: D:/data/31010_260108_152536.dat