passes_logs/2026/01/08/R2M6_AANII_01/R2M6_AANII_01__20260108_101928_NOAA_20_JPSS-1_rec.log

#Pass ID: 20260108_101928_NOAA 20 (JPSS-1)
#Satellite: NOAA 20 (JPSS-1)
#Configuration: NOAA 20
#almurnet v.1.7.20240730
#Start time: 2026-01-08 10:19:28

#Version: 2.2.20231116
#Station: R2M6_AANII_01
#Location: 30.233357 lon 59.946436 lat
#TLE: 1 43013U 17073A   26006.30790171  .00000126  00000+0  80695-4 0  9991
#TLE: 2 43013  98.7629 307.3394 0001808  51.8724 308.2615 14.19533762421505

#Time	Az	El	Level	Level2	SNR	BER	BlckErr	Temp	State	Recorded	gain1	gain2
2026-01-08 10:19:28.04	160.31	6.98	-31.9	-40.4	4.3	1.43e+00	0	40	0	0	25	9556
2026-01-08 10:19:29.05	160.31	7.05	-31.7	-39.4	4.6	1.38e+00	0	41	104	0	24	8736
2026-01-08 10:19:30.06	160.32	7.13	-31.7	-39.1	6.1	3.24e-01	0	41	0	0	24	8510
2026-01-08 10:19:31.06	160.32	7.21	-31.7	-39.4	5.9	3.46e-01	0	41	0	1048576	24	8778
2026-01-08 10:19:32.07	160.33	7.29	-31.7	-39.2	6.0	3.24e-01	0	41	0	3145728	24	8571
2026-01-08 10:19:33.08	160.33	7.37	-31.7	-39.1	6.1	3.12e-01	0	41	0	5242880	24	8502
2026-01-08 10:19:34.09	160.34	7.45	-31.6	-39.0	6.1	3.24e-01	0	41	0	7340032	24	8397
2026-01-08 10:19:35.09	160.34	7.53	-31.7	-39.3	5.9	3.40e-01	0	41	0	9437184	24	8710
2026-01-08 10:19:36.09	160.35	7.61	-31.6	-39.1	6.0	3.51e-01	0	41	0	10485760	24	8562
2026-01-08 10:19:37.10	160.35	7.69	-31.7	-39.8	5.7	3.53e-01	0	41	0	12582912	24	9099
2026-01-08 10:19:38.10	160.36	7.77	-31.6	-39.1	6.0	3.63e-01	0	41	0	14680064	24	8577
2026-01-08 10:19:39.11	160.36	7.85	-31.4	-38.2	6.7	2.55e-01	0	41	0	16777216	24	7825
2026-01-08 10:19:40.12	160.37	7.93	-31.4	-37.8	7.0	1.93e-01	0	41	0	18874368	24	7534
2026-01-08 10:19:41.12	160.37	8.01	-31.2	-37.5	7.6	1.14e-01	0	41	0	19922944	23	7435
2026-01-08 10:19:42.12	160.38	8.09	-31.1	-36.8	8.0	7.89e-02	0	41	0	22020096	23	6973
2026-01-08 10:19:43.13	160.38	8.17	-30.9	-36.2	8.5	5.93e-02	0	41	0	24117248	23	6636
2026-01-08 10:19:44.14	160.39	8.25	-30.8	-35.8	8.9	4.08e-02	0	41	0	26214400	23	6380
2026-01-08 10:19:45.14	160.39	8.34	-30.8	-35.5	9.2	2.91e-02	0	41	0	28311552	23	6176
2026-01-08 10:19:46.15	160.40	8.42	-30.7	-35.5	9.5	2.50e-02	0	41	0	29360128	22	6308
2026-01-08 10:19:47.15	160.40	8.50	-30.7	-35.6	9.5	2.08e-02	0	41	0	31457280	22	6333
2026-01-08 10:19:48.16	160.41	8.58	-30.7	-35.7	9.4	1.88e-02	0	41	0	33554432	22	6364
2026-01-08 10:19:49.17	160.42	8.67	-30.8	-35.8	9.5	1.68e-02	0	41	0	35651584	22	6413
2026-01-08 10:19:50.17	160.42	8.75	-30.8	-35.7	9.6	1.30e-02	0	41	0	37748736	22	6344
2026-01-08 10:19:51.18	160.43	8.83	-30.8	-35.8	9.5	1.39e-02	0	42	0	38797312	22	6396
2026-01-08 10:19:52.18	160.43	8.92	-30.8	-35.9	9.5	1.34e-02	0	42	0	40894464	22	6441
2026-01-08 10:19:53.19	160.44	9.00	-30.9	-36.0	9.4	1.44e-02	0	41	0	42991616	22	6493
2026-01-08 10:19:54.19	160.44	9.09	-30.8	-35.6	9.7	1.39e-02	0	41	0	45088768	22	6302
2026-01-08 10:19:55.19	160.45	9.17	-30.7	-35.4	9.9	1.02e-02	0	41	0	47185920	22	6164
2026-01-08 10:19:56.19	160.45	9.25	-30.7	-35.2	10.0	7.49e-03	0	42	0	48234496	22	6067
2026-01-08 10:19:57.20	160.46	9.34	-30.6	-35.1	10.1	7.34e-03	0	41	0	50331648	22	6042
2026-01-08 10:19:58.20	160.46	9.43	-30.6	-35.1	10.2	6.08e-03	0	41	0	52428800	22	6002
2026-01-08 10:19:59.20	160.47	9.51	-30.6	-35.1	10.2	6.64e-03	0	42	0	54525952	22	6014
2026-01-08 10:20:00.21	160.47	9.60	-30.6	-35.1	10.2	6.44e-03	0	42	0	56623104	22	6034
2026-01-08 10:20:01.22	160.48	9.68	-30.7	-35.4	10.0	7.80e-03	0	42	0	57671680	22	6165
2026-01-08 10:20:02.23	160.49	9.77	-30.6	-35.0	10.2	6.56e-03	0	42	0	59768832	22	5991
2026-01-08 10:20:03.23	160.49	9.86	-30.6	-34.8	10.4	5.53e-03	0	42	0	61865984	22	5886
2026-01-08 10:20:04.24	160.50	9.95	-30.6	-34.9	10.3	4.63e-03	0	42	0	63963136	22	5919
2026-01-08 10:20:05.24	160.50	10.03	-30.5	-34.7	10.5	4.31e-03	0	42	0	65011712	22	5827
2026-01-08 10:20:06.24	160.51	10.12	-30.5	-34.7	10.5	3.69e-03	0	42	0	67108864	22	5845
2026-01-08 10:20:07.24	160.51	10.21	-30.6	-34.9	10.3	5.05e-03	0	42	0	69206016	22	5939
2026-01-08 10:20:08.25	160.52	10.30	-30.5	-34.7	10.5	4.28e-03	0	42	0	71303168	22	5838
2026-01-08 10:20:09.25	160.52	10.39	-30.5	-34.7	10.5	3.57e-03	0	42	0	73400320	22	5837
2026-01-08 10:20:10.26	160.53	10.48	-30.6	-34.8	10.4	4.03e-03	0	42	0	74448896	22	5879
2026-01-08 10:20:11.26	160.54	10.57	-30.5	-34.6	10.6	3.29e-03	0	42	0	76546048	22	5760
2026-01-08 10:20:12.27	160.54	10.66	-30.5	-34.6	10.6	3.27e-03	0	42	0	78643200	22	5756
2026-01-08 10:20:13.28	160.55	10.75	-30.5	-34.6	10.7	3.15e-03	0	42	0	80740352	22	5757
2026-01-08 10:20:14.29	160.55	10.84	-30.5	-34.6	10.7	3.11e-03	0	42	0	82837504	22	5740
2026-01-08 10:20:15.29	160.56	10.93	-30.5	-34.5	10.7	3.17e-03	0	42	0	84934656	22	5719
2026-01-08 10:20:16.30	160.56	11.02	-30.5	-34.5	10.7	3.07e-03	0	42	0	85983232	22	5710
2026-01-08 10:20:17.30	160.57	11.11	-30.6	-34.9	10.5	2.87e-03	0	42	0	88080384	22	5882
2026-01-08 10:20:18.30	160.58	11.20	-30.6	-34.9	10.4	4.95e-03	0	42	0	90177536	22	5902
2026-01-08 10:20:19.30	160.58	11.30	-30.6	-34.5	10.7	3.55e-03	0	42	0	92274688	22	5695
2026-01-08 10:20:20.32	160.59	11.39	-30.5	-34.3	11.0	2.33e-03	0	42	0	93323264	22	5565
2026-01-08 10:20:21.32	160.59	11.48	-30.6	-34.4	11.0	1.78e-03	0	42	0	95420416	22	5573
2026-01-08 10:20:22.33	160.60	11.58	-30.6	-34.4	11.0	2.04e-03	0	42	0	97517568	22	5600
2026-01-08 10:20:23.33	160.60	11.67	-30.5	-34.2	11.1	1.83e-03	0	42	0	99614720	22	5504
2026-01-08 10:20:24.34	160.61	11.76	-30.6	-34.3	11.0	1.89e-03	0	42	0	101711872	22	5541
2026-01-08 10:20:25.34	160.62	11.86	-30.6	-34.3	11.1	1.77e-03	0	42	0	102760448	22	5539
2026-01-08 10:20:26.35	160.62	11.95	-30.5	-34.2	11.2	1.39e-03	0	42	0	104857600	22	5488
2026-01-08 10:20:27.36	160.63	12.05	-30.5	-34.2	11.2	1.51e-03	0	42	0	106954752	22	5468
2026-01-08 10:20:28.36	160.63	12.14	-30.6	-34.4	11.0	1.72e-03	0	42	0	109051904	22	5598
2026-01-08 10:20:29.37	160.64	12.24	-30.7	-34.7	10.8	2.41e-03	0	42	0	111149056	22	5696
2026-01-08 10:20:30.37	160.65	12.34	-30.7	-34.7	10.8	2.27e-03	0	42	0	112197632	22	5711
2026-01-08 10:20:31.37	160.65	12.43	-30.7	-34.7	10.8	2.58e-03	0	42	0	114294784	22	5715
2026-01-08 10:20:32.38	160.66	12.53	-30.7	-34.7	10.8	2.41e-03	0	42	0	116391936	22	5719
2026-01-08 10:20:33.39	160.66	12.63	-30.8	-35.0	10.6	2.54e-03	0	42	0	118489088	22	5851
2026-01-08 10:20:34.39	160.67	12.73	-30.8	-35.0	10.6	3.60e-03	0	42	0	120586240	22	5838
2026-01-08 10:20:35.40	160.68	12.83	-30.7	-34.5	11.0	2.44e-03	0	42	0	121634816	22	5625
2026-01-08 10:20:36.40	160.68	12.92	-30.6	-34.4	11.1	1.78e-03	0	42	0	123731968	22	5557
2026-01-08 10:20:37.41	160.69	13.02	-30.6	-34.3	11.1	1.49e-03	0	42	0	125829120	22	5525
2026-01-08 10:20:38.41	160.69	13.12	-30.6	-34.3	11.2	1.38e-03	0	42	0	127926272	22	5514
2026-01-08 10:20:39.42	160.70	13.22	-30.5	-33.9	11.5	9.99e-04	0	42	0	130023424	22	5338
2026-01-08 10:20:40.43	160.71	13.32	-30.4	-33.7	11.6	7.96e-04	0	42	0	131072000	22	5256
2026-01-08 10:20:41.43	160.71	13.42	-30.4	-33.6	11.7	5.61e-04	0	42	0	133169152	22	5211
2026-01-08 10:20:42.44	160.72	13.53	-30.4	-33.6	11.7	5.84e-04	0	42	0	135266304	22	5201
2026-01-08 10:20:43.45	160.72	13.63	-30.3	-33.4	11.9	4.73e-04	0	42	0	137363456	22	5110
2026-01-08 10:20:44.45	160.73	13.73	-30.3	-33.4	11.9	4.28e-04	0	42	0	139460608	22	5132
2026-01-08 10:20:45.46	160.74	13.83	-30.3	-33.4	11.8	4.47e-04	0	42	0	140509184	22	5136
2026-01-08 10:20:46.46	160.74	13.93	-30.4	-33.8	11.6	4.93e-04	0	42	0	142606336	22	5292
2026-01-08 10:20:47.47	160.75	14.04	-30.4	-33.8	11.6	7.86e-04	0	42	0	144703488	22	5299
2026-01-08 10:20:48.47	160.76	14.14	-30.3	-33.4	11.8	4.95e-04	0	42	0	146800640	22	5160
2026-01-08 10:20:49.48	160.76	14.25	-30.3	-33.8	11.8	4.05e-04	0	42	0	148897792	21	5439
2026-01-08 10:20:50.48	160.77	14.35	-30.3	-33.8	11.9	4.79e-04	0	42	0	149946368	21	5434
2026-01-08 10:20:51.48	160.78	14.46	-30.2	-33.7	12.0	3.42e-04	0	42	0	152043520	21	5367
2026-01-08 10:20:52.48	160.78	14.56	-30.3	-33.8	11.9	3.84e-04	0	42	0	154140672	21	5423
2026-01-08 10:20:53.48	160.79	14.67	-30.3	-33.9	11.8	4.49e-04	0	43	0	156237824	21	5473
2026-01-08 10:20:54.49	160.79	14.77	-30.2	-33.7	12.0	3.18e-04	0	42	0	158334976	21	5379
2026-01-08 10:20:55.50	160.80	14.88	-30.1	-33.4	12.2	2.37e-04	0	43	0	159383552	21	5259
2026-01-08 10:20:56.50	160.81	14.99	-30.2	-33.5	12.2	2.23e-04	0	43	0	161480704	21	5286
2026-01-08 10:20:57.51	160.81	15.10	-30.2	-33.6	12.1	2.50e-04	0	42	0	163577856	21	5298
2026-01-08 10:20:58.52	160.82	15.21	-30.2	-33.4	12.3	2.30e-04	0	42	0	165675008	21	5231
2026-01-08 10:20:59.52	160.83	15.31	-30.2	-33.5	12.2	2.04e-04	0	42	0	167772160	21	5271
2026-01-08 10:21:00.53	160.83	15.42	-30.3	-33.7	12.1	2.55e-04	0	42	0	168820736	21	5360
2026-01-08 10:21:01.54	160.84	15.53	-30.3	-33.8	12.0	3.75e-04	0	43	0	170917888	21	5370
2026-01-08 10:21:02.55	160.85	15.65	-30.2	-33.6	12.2	2.27e-04	0	43	0	173015040	21	5279
2026-01-08 10:21:03.55	160.85	15.76	-30.2	-33.4	12.3	1.69e-04	0	43	0	175112192	21	5188
2026-01-08 10:21:04.56	160.86	15.87	-30.3	-33.6	12.2	1.98e-04	0	43	0	177209344	21	5277
2026-01-08 10:21:05.56	160.87	15.98	-30.3	-33.7	12.2	2.55e-04	0	43	0	178257920	21	5312
2026-01-08 10:21:06.57	160.87	16.09	-30.3	-33.5	12.3	1.99e-04	0	42	0	180355072	21	5258
2026-01-08 10:21:07.57	160.88	16.20	-30.3	-33.7	12.2	2.14e-04	0	43	0	182452224	21	5306
2026-01-08 10:21:08.58	160.89	16.32	-30.3	-33.7	12.2	2.72e-04	0	43	0	184549376	21	5322
2026-01-08 10:21:09.59	160.90	16.43	-30.3	-33.7	12.2	2.43e-04	0	42	0	186646528	21	5302
2026-01-08 10:21:10.59	160.90	16.55	-30.4	-33.9	12.0	2.43e-04	0	43	0	187695104	21	5416
2026-01-08 10:21:11.60	160.91	16.66	-30.4	-33.9	12.0	3.56e-04	0	43	0	189792256	21	5418
2026-01-08 10:21:12.61	160.92	16.78	-30.4	-34.1	11.9	3.12e-04	0	43	0	191889408	21	5475
2026-01-08 10:21:13.61	160.92	16.89	-30.4	-34.0	12.0	4.01e-04	0	43	0	193986560	21	5437
2026-01-08 10:21:14.62	160.93	17.01	-30.3	-33.8	12.2	2.30e-04	0	43	0	196083712	21	5336
2026-01-08 10:21:15.62	160.94	17.13	-30.3	-33.7	12.2	2.35e-04	0	43	0	197132288	21	5313
2026-01-08 10:21:16.63	160.94	17.25	-30.4	-33.9	12.0	2.56e-04	0	43	0	199229440	21	5407
2026-01-08 10:21:17.64	160.95	17.37	-30.4	-33.8	12.2	2.88e-04	0	43	0	201326592	21	5347
2026-01-08 10:21:18.64	160.96	17.49	-30.4	-33.8	12.1	2.27e-04	0	43	0	203423744	21	5360
2026-01-08 10:21:19.64	160.97	17.60	-30.4	-34.0	12.1	3.20e-04	0	42	0	204472320	21	5437
2026-01-08 10:21:20.65	160.97	17.73	-30.4	-34.0	12.0	2.72e-04	0	42	0	206569472	21	5450
2026-01-08 10:21:21.65	160.98	17.85	-30.6	-34.5	11.7	4.47e-04	0	43	0	208666624	21	5670
2026-01-08 10:21:22.65	160.99	17.97	-30.6	-34.7	11.6	8.44e-04	0	43	0	210763776	21	5736
2026-01-08 10:21:23.65	160.99	18.09	-30.6	-34.6	11.7	5.81e-04	0	43	0	212860928	21	5676
2026-01-08 10:21:24.66	161.00	18.21	-30.7	-35.0	11.4	8.41e-04	0	43	0	214958080	21	5878
2026-01-08 10:21:25.67	161.01	18.33	-30.7	-34.9	11.4	1.40e-03	0	43	0	216006656	21	5827
2026-01-08 10:21:26.67	161.02	18.46	-30.6	-34.4	11.8	5.51e-04	0	43	0	218103808	21	5609
2026-01-08 10:21:27.68	161.02	18.58	-30.6	-34.5	11.7	5.00e-04	0	43	0	220200960	21	5638
2026-01-08 10:21:28.68	161.03	18.71	-30.6	-34.6	11.7	6.44e-04	0	43	0	222298112	21	5664
2026-01-08 10:21:29.68	161.04	18.83	-30.6	-34.5	11.7	5.16e-04	0	43	0	223346688	21	5639
2026-01-08 10:21:30.69	161.05	18.96	-30.7	-34.9	11.6	5.24e-04	0	43	0	225443840	21	5789
2026-01-08 10:21:31.70	161.05	19.09	-30.7	-34.6	11.7	7.01e-04	0	43	0	227540992	21	5667
2026-01-08 10:21:32.71	161.06	19.22	-30.5	-34.3	12.0	5.33e-04	0	43	0	229638144	21	5519
2026-01-08 10:21:33.71	161.07	19.34	-30.3	-33.5	12.5	1.79e-04	0	43	0	231735296	21	5195
2026-01-08 10:21:34.72	161.08	19.47	-30.0	-32.7	13.0	5.49e-05	0	43	0	232783872	21	4912
2026-01-08 10:21:35.72	161.09	19.60	-29.8	-32.1	13.4	1.67e-05	0	43	0	234881024	21	4692
2026-01-08 10:21:36.73	161.09	19.73	-29.7	-32.2	13.7	1.44e-05	0	43	0	236978176	20	4836
2026-01-08 10:21:37.74	161.10	19.87	-29.6	-32.1	13.8	5.30e-06	0	42	0	239075328	20	4788
2026-01-08 10:21:38.74	161.11	20.00	-29.6	-32.0	13.8	6.10e-06	0	43	0	241172480	20	4756
2026-01-08 10:21:39.75	161.12	20.13	-29.6	-32.1	13.8	0.00e+00	0	43	0	243269632	20	4774
2026-01-08 10:21:40.75	161.13	20.26	-29.7	-32.4	13.6	7.00e-07	0	43	0	244318208	20	4890
2026-01-08 10:21:41.76	161.13	20.40	-29.7	-32.3	13.7	9.90e-06	0	43	0	246415360	20	4839
2026-01-08 10:21:42.77	161.14	20.53	-29.6	-32.0	13.9	2.20e-06	0	43	0	248512512	20	4748
2026-01-08 10:21:43.77	161.15	20.67	-29.6	-32.1	13.8	4.50e-06	0	43	0	250609664	20	4773
2026-01-08 10:21:44.78	161.16	20.80	-29.6	-32.1	13.8	4.50e-06	0	43	0	251658240	20	4792
2026-01-08 10:21:45.78	161.17	20.94	-29.6	-32.1	13.8	6.80e-06	0	43	0	253755392	20	4794
2026-01-08 10:21:46.79	161.17	21.08	-29.6	-32.2	13.8	4.50e-06	0	43	0	255852544	20	4810
2026-01-08 10:21:47.80	161.18	21.22	-29.6	-32.2	13.8	4.50e-06	0	43	0	257949696	20	4818
2026-01-08 10:21:48.81	161.19	21.36	-29.8	-32.6	13.5	1.14e-05	0	43	0	260046848	20	4955
2026-01-08 10:21:49.81	161.20	21.50	-29.8	-32.7	13.4	1.52e-05	0	43	0	261095424	20	5011
2026-01-08 10:21:50.82	161.21	21.64	-29.8	-32.7	13.4	9.10e-06	0	43	0	263192576	20	5010
2026-01-08 10:21:51.82	161.22	21.78	-30.0	-33.2	13.1	1.98e-05	0	43	0	265289728	20	5209
2026-01-08 10:21:52.83	161.22	21.92	-30.1	-33.5	12.9	3.50e-05	0	43	0	267386880	20	5325
2026-01-08 10:21:53.84	161.23	22.06	-30.1	-33.5	12.9	4.34e-05	0	43	0	269484032	20	5327
2026-01-08 10:21:54.83	161.24	22.21	-30.2	-33.7	12.8	5.64e-05	0	43	0	270532608	20	5389
2026-01-08 10:21:55.84	161.25	22.35	-30.2	-33.7	12.8	7.24e-05	0	43	0	272629760	20	5394
2026-01-08 10:21:56.85	161.26	22.50	-30.2	-33.8	12.7	6.02e-05	0	43	0	274726912	20	5427
2026-01-08 10:21:57.85	161.27	22.64	-30.4	-34.3	12.4	1.14e-04	0	43	0	276824064	20	5632
2026-01-08 10:21:58.86	161.28	22.79	-30.2	-33.6	12.9	7.93e-05	0	43	0	278921216	20	5317
2026-01-08 10:21:59.87	161.28	22.94	-30.0	-33.0	13.3	2.89e-05	0	43	0	279969792	20	5107
2026-01-08 10:22:00.88	161.29	23.09	-29.8	-32.6	13.6	1.90e-05	0	43	0	282066944	20	4965
2026-01-08 10:22:01.88	161.30	23.24	-29.6	-32.1	13.9	7.60e-06	0	43	0	284164096	20	4783
2026-01-08 10:22:02.89	161.31	23.39	-29.6	-32.0	14.1	3.80e-06	0	43	0	286261248	20	4740
2026-01-08 10:22:03.89	161.32	23.54	-29.7	-32.1	13.9	5.30e-06	0	43	0	288358400	20	4770
2026-01-08 10:22:04.90	161.33	23.69	-29.7	-32.1	13.9	4.50e-06	0	43	0	289406976	20	4776
2026-01-08 10:22:05.90	161.34	23.85	-29.5	-31.8	14.1	7.00e-07	0	43	0	291504128	20	4669
2026-01-08 10:22:06.90	161.35	24.00	-29.5	-31.6	14.3	1.50e-06	0	43	0	293601280	20	4608
2026-01-08 10:22:07.91	161.36	24.16	-29.5	-31.7	14.2	0.00e+00	0	43	0	295698432	20	4649
2026-01-08 10:22:08.91	161.37	24.31	-29.5	-31.7	14.2	7.00e-07	0	43	0	297795584	20	4641
2026-01-08 10:22:09.92	161.38	24.47	-29.5	-31.7	14.2	1.50e-06	0	43	0	298844160	20	4642
2026-01-08 10:22:10.93	161.39	24.63	-29.4	-31.5	14.3	2.20e-06	0	43	0	300941312	20	4588
2026-01-08 10:22:11.92	161.40	24.78	-29.5	-31.7	14.2	7.00e-07	0	43	0	303038464	20	4629
2026-01-08 10:22:12.92	161.40	24.94	-29.5	-31.7	14.2	1.50e-06	0	43	0	305135616	20	4645
2026-01-08 10:22:13.93	161.41	25.11	-29.5	-31.7	14.3	3.00e-06	0	43	0	307232768	20	4625
2026-01-08 10:22:14.94	161.42	25.27	-29.6	-31.9	14.1	4.50e-06	0	43	0	308281344	20	4695
2026-01-08 10:22:15.94	161.43	25.43	-29.7	-32.3	13.9	4.50e-06	0	43	0	310378496	20	4849
2026-01-08 10:22:16.94	161.44	25.59	-29.8	-32.4	13.8	2.20e-06	0	43	0	312475648	20	4868
2026-01-08 10:22:17.95	161.45	25.76	-29.9	-32.7	13.6	5.30e-06	0	43	0	314572800	20	5001
2026-01-08 10:22:18.96	161.46	25.93	-30.0	-32.9	13.4	8.30e-06	0	43	0	316669952	20	5073
2026-01-08 10:22:19.96	161.47	26.09	-30.0	-33.0	13.4	7.60e-06	0	43	0	317718528	20	5114
2026-01-08 10:22:20.97	161.48	26.26	-30.2	-33.5	13.1	3.12e-05	0	43	0	319815680	20	5286
2026-01-08 10:22:21.97	161.49	26.43	-30.1	-33.3	13.2	2.89e-05	0	43	0	321912832	20	5207
2026-01-08 10:22:22.97	161.50	26.60	-30.3	-33.7	12.9	3.35e-05	0	43	0	324009984	20	5381
2026-01-08 10:22:23.98	161.52	26.77	-30.3	-33.8	12.9	4.50e-05	0	43	0	326107136	20	5408
2026-01-08 10:22:24.99	161.53	26.94	-30.5	-34.3	12.6	5.11e-05	0	43	0	327155712	20	5611
2026-01-08 10:22:25.99	161.54	27.12	-30.5	-33.8	12.5	1.17e-04	0	43	0	329252864	21	5296
2026-01-08 10:22:27.00	161.55	27.29	-30.5	-33.8	12.6	1.01e-04	0	43	0	331350016	21	5300
2026-01-08 10:22:28.01	161.56	27.47	-30.7	-34.4	12.2	1.60e-04	0	43	0	333447168	21	5537
2026-01-08 10:22:29.01	161.57	27.64	-30.7	-34.5	12.1	2.66e-04	0	43	0	335544320	21	5577
2026-01-08 10:22:30.02	161.58	27.82	-30.8	-34.8	11.9	3.25e-04	0	43	0	336592896	21	5703
2026-01-08 10:22:31.02	161.59	28.00	-30.9	-35.1	11.7	5.03e-04	0	43	0	338690048	21	5852
2026-01-08 10:22:32.03	161.60	28.18	-31.0	-35.3	11.6	6.66e-04	0	43	0	340787200	21	5927
2026-01-08 10:22:33.03	161.61	28.36	-31.1	-35.2	11.3	7.43e-04	0	43	0	342884352	22	5788
2026-01-08 10:22:34.04	161.62	28.54	-31.2	-35.4	11.2	1.34e-03	0	43	0	344981504	22	5878
2026-01-08 10:22:35.04	161.63	28.73	-31.2	-35.6	11.1	1.64e-03	0	43	0	346030080	22	5936
2026-01-08 10:22:36.05	161.65	28.91	-31.3	-35.9	10.8	1.82e-03	0	43	0	348127232	22	6090
2026-01-08 10:22:37.06	161.66	29.10	-31.4	-36.0	10.7	2.59e-03	0	43	0	350224384	22	6165
2026-01-08 10:22:38.07	161.67	29.29	-31.5	-36.4	10.5	3.93e-03	0	43	0	352321536	22	6364
2026-01-08 10:22:39.07	161.68	29.48	-31.5	-36.4	10.4	4.31e-03	0	43	0	354418688	22	6364
2026-01-08 10:22:40.08	161.69	29.67	-31.6	-36.3	10.2	4.98e-03	0	43	0	355467264	23	6189
2026-01-08 10:22:41.08	161.70	29.86	-31.7	-36.7	9.8	9.79e-03	0	43	0	357564416	23	6431
2026-01-08 10:22:42.08	161.72	30.05	-31.7	-36.8	9.8	1.06e-02	0	43	0	359661568	23	6447
2026-01-08 10:22:43.08	161.73	30.24	-31.8	-37.2	9.6	1.16e-02	0	43	0	361758720	23	6656
2026-01-08 10:22:44.08	161.74	30.44	-31.8	-37.0	9.6	1.40e-02	0	43	0	362807296	23	6590
2026-01-08 10:22:45.09	161.75	30.63	-31.8	-37.1	9.6	1.25e-02	0	43	0	364904448	23	6620
2026-01-08 10:22:46.10	161.77	30.83	-31.9	-37.5	9.3	1.62e-02	0	43	0	367001600	23	6836
2026-01-08 10:22:47.11	161.78	31.03	-31.8	-37.2	9.6	1.31e-02	0	43	0	369098752	23	6654
2026-01-08 10:22:48.11	161.79	31.23	-31.8	-37.1	9.7	1.16e-02	0	43	0	371195904	23	6596
2026-01-08 10:22:49.12	161.80	31.43	-31.8	-36.9	9.8	1.27e-02	0	43	0	373293056	23	6484
2026-01-08 10:22:50.13	161.82	31.64	-31.7	-36.4	10.2	8.64e-03	0	43	0	374341632	23	6237
2026-01-08 10:22:51.13	161.83	31.84	-31.7	-36.5	10.1	6.53e-03	0	43	0	376438784	23	6280
2026-01-08 10:22:52.14	161.84	32.05	-31.7	-36.7	9.9	8.38e-03	0	43	0	378535936	23	6406
2026-01-08 10:22:53.14	161.86	32.26	-31.7	-36.5	10.2	8.56e-03	0	43	0	380633088	23	6267
2026-01-08 10:22:54.15	161.87	32.47	-31.7	-36.7	10.0	7.06e-03	0	43	0	382730240	23	6374
2026-01-08 10:22:55.16	161.88	32.68	-31.5	-36.1	10.4	6.24e-03	0	43	0	383778816	23	6073
2026-01-08 10:22:56.17	161.90	32.89	-31.3	-35.3	11.0	2.94e-03	0	43	0	385875968	23	5692
2026-01-08 10:22:57.17	161.91	33.10	-31.1	-34.6	11.5	1.36e-03	0	43	0	387973120	23	5403
2026-01-08 10:22:58.18	161.92	33.32	-30.9	-34.1	11.9	5.08e-04	0	43	0	390070272	23	5167
2026-01-08 10:22:59.18	161.94	33.54	-30.8	-33.7	12.1	3.00e-04	0	43	0	392167424	23	5025
2026-01-08 10:23:00.19	161.95	33.75	-30.7	-34.0	12.3	2.39e-04	0	43	0	393216000	22	5221
2026-01-08 10:23:01.19	161.97	33.97	-30.6	-33.6	12.6	1.27e-04	0	43	0	395313152	22	5092
2026-01-08 10:23:02.20	161.98	34.20	-30.4	-33.1	12.9	6.63e-05	0	43	0	397410304	22	4885
2026-01-08 10:23:03.20	162.00	34.42	-30.4	-33.0	13.0	5.26e-05	0	43	0	399507456	22	4853
2026-01-08 10:23:04.20	162.01	34.64	-30.4	-32.9	13.0	2.82e-05	0	43	0	401604608	22	4831
2026-01-08 10:23:05.21	162.03	34.87	-30.3	-32.7	13.1	3.12e-05	0	43	0	402653184	22	4761
2026-01-08 10:23:06.20	162.04	35.09	-29.8	-31.9	14.0	6.80e-06	0	43	0	404750336	21	4574
2026-01-08 10:23:07.21	162.06	35.32	-29.5	-31.5	14.5	1.50e-06	0	43	0	406847488	20	4563
2026-01-08 10:23:08.21	162.07	35.55	-29.3	-31.6	14.9	0.00e+00	0	43	0	408944640	19	4665
2026-01-08 10:23:09.22	162.09	35.79	-29.2	-31.2	15.2	0.00e+00	0	43	0	409993216	19	4558
2026-01-08 10:23:10.22	162.10	36.02	-29.0	-30.9	15.4	0.00e+00	0	43	0	412090368	19	4443
2026-01-08 10:23:11.23	162.12	36.26	-29.1	-31.0	15.3	0.00e+00	0	43	0	414187520	19	4490
2026-01-08 10:23:12.23	162.13	36.49	-29.2	-31.2	15.2	0.00e+00	0	43	0	416284672	19	4539
2026-01-08 10:23:13.23	162.15	36.73	-29.3	-31.4	15.0	0.00e+00	0	43	0	418381824	19	4606
2026-01-08 10:23:14.24	162.17	36.97	-29.2	-31.3	15.1	0.00e+00	0	43	0	419430400	19	4594
2026-01-08 10:23:15.24	162.18	37.21	-29.3	-31.4	15.0	0.00e+00	0	43	0	421527552	19	4613
2026-01-08 10:23:16.25	162.20	37.46	-29.2	-31.2	15.1	0.00e+00	0	43	0	423624704	19	4555
2026-01-08 10:23:17.26	162.22	37.71	-29.1	-31.0	15.3	0.00e+00	0	43	0	425721856	19	4468
2026-01-08 10:23:18.26	162.24	37.96	-29.0	-30.9	15.4	0.00e+00	0	43	0	427819008	19	4442
2026-01-08 10:23:19.27	162.25	38.21	-29.1	-30.9	15.3	0.00e+00	0	43	0	428867584	19	4463
2026-01-08 10:23:20.27	162.27	38.46	-29.0	-30.8	15.4	0.00e+00	0	43	0	430964736	19	4425
2026-01-08 10:23:21.28	162.29	38.71	-29.2	-31.2	15.2	0.00e+00	0	43	0	433061888	19	4548
2026-01-08 10:23:22.29	162.31	38.97	-29.2	-31.2	15.2	0.00e+00	0	43	0	435159040	19	4539
2026-01-08 10:23:23.29	162.33	39.23	-29.2	-31.2	15.2	0.00e+00	0	43	0	437256192	19	4560
2026-01-08 10:23:24.29	162.34	39.49	-29.1	-30.9	15.4	0.00e+00	0	43	0	438304768	19	4455
2026-01-08 10:23:25.30	162.36	39.75	-29.0	-30.8	15.5	1.50e-06	0	43	0	440401920	19	4424
2026-01-08 10:23:26.31	162.38	40.02	-29.1	-31.0	15.3	0.00e+00	0	43	0	442499072	19	4500
2026-01-08 10:23:27.31	162.40	40.28	-28.9	-30.6	15.5	0.00e+00	0	43	0	444596224	19	4371
2026-01-08 10:23:28.31	162.42	40.55	-29.0	-30.7	15.5	0.00e+00	0	43	0	446693376	19	4373
2026-01-08 10:23:29.31	162.44	40.81	-29.0	-30.7	15.5	0.00e+00	0	43	0	447741952	19	4397
2026-01-08 10:23:30.32	162.46	41.09	-29.1	-30.9	15.4	0.00e+00	0	43	0	449839104	19	4452
2026-01-08 10:23:31.33	162.48	41.36	-29.0	-30.9	15.4	1.50e-06	0	43	0	451936256	19	4435
2026-01-08 10:23:32.33	162.50	41.64	-29.0	-30.7	15.5	0.00e+00	0	43	0	454033408	19	4403
2026-01-08 10:23:33.34	162.52	41.92	-29.1	-31.0	15.3	0.00e+00	0	43	0	456130560	19	4497
2026-01-08 10:23:34.35	162.55	42.20	-29.3	-31.4	15.1	2.20e-06	0	43	0	457179136	19	4624
2026-01-08 10:23:35.36	162.57	42.48	-29.2	-31.4	15.1	0.00e+00	0	43	0	459276288	19	4599
2026-01-08 10:23:36.36	162.59	42.77	-29.2	-31.2	15.2	0.00e+00	0	43	0	461373440	19	4548
2026-01-08 10:23:37.36	162.61	43.05	-29.3	-31.4	15.1	1.50e-06	0	43	0	463470592	19	4616
2026-01-08 10:23:38.37	162.64	43.34	-29.3	-31.4	15.1	0.00e+00	0	43	0	465567744	19	4601
2026-01-08 10:23:39.37	162.66	43.63	-29.3	-31.5	15.1	0.00e+00	0	43	0	466616320	19	4638
2026-01-08 10:23:40.38	162.68	43.93	-29.6	-32.3	14.6	1.50e-06	0	43	0	468713472	19	4897
2026-01-08 10:23:41.39	162.71	44.22	-29.9	-33.1	14.2	1.50e-06	0	43	0	470810624	19	5175
2026-01-08 10:23:42.39	162.73	44.52	-30.2	-33.2	13.6	8.30e-06	0	43	0	472907776	20	5141
2026-01-08 10:23:43.40	162.76	44.82	-30.5	-33.8	12.8	2.28e-05	0	43	0	475004928	21	5267
2026-01-08 10:23:44.40	162.78	45.12	-30.7	-34.3	12.6	9.30e-05	0	43	0	476053504	21	5441
2026-01-08 10:23:45.41	162.81	45.43	-30.8	-34.6	12.3	1.25e-04	0	43	0	478150656	21	5571
2026-01-08 10:23:46.42	162.83	45.73	-30.7	-34.4	12.5	1.28e-04	0	43	0	480247808	21	5506
2026-01-08 10:23:47.42	162.86	46.04	-30.8	-34.6	12.4	1.11e-04	0	43	0	482344960	21	5564
2026-01-08 10:23:48.43	162.89	46.36	-30.9	-34.8	12.2	2.17e-04	0	43	0	484442112	21	5654
2026-01-08 10:23:49.44	162.91	46.67	-30.8	-34.7	12.3	1.76e-04	0	43	0	485490688	21	5618
2026-01-08 10:23:50.44	162.94	46.99	-31.0	-34.7	12.0	2.71e-04	0	43	0	487587840	22	5491
2026-01-08 10:23:51.45	162.97	47.31	-31.1	-35.0	11.8	3.69e-04	0	43	0	489684992	22	5626
2026-01-08 10:23:52.46	163.00	47.63	-31.2	-35.4	11.5	7.17e-04	0	43	0	491782144	22	5805
2026-01-08 10:23:53.46	163.03	47.95	-31.2	-35.4	11.5	1.06e-03	0	43	0	493879296	22	5809
2026-01-08 10:23:54.46	163.06	48.28	-31.2	-35.1	11.6	6.36e-04	0	43	0	494927872	22	5700
2026-01-08 10:23:55.47	163.09	48.61	-31.1	-35.0	11.7	5.74e-04	0	43	0	497025024	22	5629
2026-01-08 10:23:56.48	163.12	48.94	-31.0	-34.6	12.0	4.00e-04	0	43	0	499122176	22	5451
2026-01-08 10:23:57.49	163.15	49.27	-30.9	-34.4	12.1	2.68e-04	0	43	0	501219328	22	5397
2026-01-08 10:23:58.49	163.18	49.61	-30.8	-34.0	12.5	1.01e-04	0	43	0	503316480	22	5200
2026-01-08 10:23:59.50	163.21	49.95	-30.8	-33.9	12.5	9.99e-05	0	43	0	504365056	22	5191
2026-01-08 10:24:00.51	163.25	50.29	-30.7	-33.6	12.7	8.77e-05	0	43	0	506462208	22	5068
2026-01-08 10:24:01.51	163.28	50.63	-30.4	-32.9	13.2	4.19e-05	0	43	0	508559360	22	4801
2026-01-08 10:24:02.52	163.32	50.98	-30.1	-32.5	13.8	9.10e-06	0	43	0	510656512	21	4751
2026-01-08 10:24:03.52	163.35	51.33	-29.8	-32.2	14.3	3.00e-06	0	43	0	512753664	20	4740
2026-01-08 10:24:04.53	163.39	51.68	-29.5	-31.5	14.8	0.00e+00	0	43	0	513802240	20	4531
2026-01-08 10:24:05.54	163.43	52.03	-29.7	-32.1	14.4	7.00e-07	0	43	0	515899392	20	4721
2026-01-08 10:24:06.54	163.47	52.39	-29.8	-32.2	14.3	1.50e-06	0	43	0	517996544	20	4762
2026-01-08 10:24:07.55	163.50	52.75	-29.7	-32.0	14.5	0.00e+00	0	43	0	520093696	20	4692
2026-01-08 10:24:08.56	163.54	53.11	-29.6	-31.8	14.6	7.00e-07	0	43	0	522190848	20	4624
2026-01-08 10:24:09.56	163.58	53.48	-29.7	-31.9	14.5	0.00e+00	0	43	0	523239424	20	4678
2026-01-08 10:24:10.57	163.63	53.84	-29.8	-32.1	14.3	1.50e-06	0	43	0	525336576	20	4743
2026-01-08 10:24:11.57	163.67	54.21	-29.8	-32.3	14.3	7.00e-07	0	43	0	527433728	20	4794
2026-01-08 10:24:12.57	163.71	54.58	-29.8	-32.2	14.3	2.20e-06	0	43	0	529530880	20	4764
2026-01-08 10:24:13.58	163.76	54.96	-29.6	-31.7	14.7	1.50e-06	0	43	0	531628032	20	4580
2026-01-08 10:24:14.58	163.80	55.33	-29.6	-31.7	14.7	7.00e-07	0	43	0	532676608	20	4580
2026-01-08 10:24:15.58	163.85	55.71	-29.3	-31.0	15.1	7.00e-07	0	43	0	534773760	20	4372
2026-01-08 10:24:16.58	163.90	56.09	-29.3	-31.4	15.3	0.00e+00	0	43	0	536870912	19	4585
2026-01-08 10:24:17.59	163.95	56.48	-29.5	-31.9	14.9	0.00e+00	0	43	0	538968064	19	4753
2026-01-08 10:24:18.59	164.00	56.87	-29.8	-32.8	14.4	7.00e-07	0	43	0	541065216	19	5056
2026-01-08 10:24:19.60	164.05	57.26	-30.2	-33.3	13.6	1.50e-06	0	43	0	542113792	20	5162
2026-01-08 10:24:20.61	164.10	57.65	-30.4	-33.8	13.2	7.60e-06	0	43	0	544210944	20	5349
2026-01-08 10:24:21.62	164.16	58.05	-30.3	-33.6	13.5	1.60e-05	0	43	0	546308096	20	5241
2026-01-08 10:24:22.62	164.21	58.45	-30.4	-33.9	13.3	9.10e-06	0	43	0	548405248	20	5360
2026-01-08 10:24:23.62	164.27	58.85	-30.4	-33.3	13.4	2.05e-05	0	43	0	550502400	21	5036
2026-01-08 10:24:24.62	164.33	59.25	-30.2	-32.9	13.7	5.30e-06	0	43	0	551550976	21	4873
2026-01-08 10:24:25.63	164.39	59.66	-29.9	-32.0	14.2	5.30e-06	0	43	0	553648128	21	4598
2026-01-08 10:24:26.63	164.46	60.07	-29.7	-31.9	14.6	0.00e+00	0	43	0	555745280	20	4640
2026-01-08 10:24:27.64	164.52	60.48	-29.4	-31.2	14.9	0.00e+00	0	43	0	557842432	20	4439
2026-01-08 10:24:28.65	164.59	60.90	-29.3	-31.1	15.1	0.00e+00	0	43	0	559939584	20	4391
2026-01-08 10:24:29.66	164.66	61.32	-29.5	-31.5	14.9	0.00e+00	0	43	0	560988160	20	4518
2026-01-08 10:24:30.66	164.73	61.73	-29.1	-30.9	15.6	0.00e+00	0	43	0	563085312	19	4436
2026-01-08 10:24:31.67	164.81	62.16	-28.9	-30.5	15.8	3.58e-05	0	43	0	565182464	19	4316
2026-01-08 10:24:32.67	164.88	62.58	-29.0	-30.7	15.7	0.00e+00	0	43	0	567279616	19	4368
2026-01-08 10:24:33.67	164.96	63.01	-28.8	-30.3	15.9	0.00e+00	0	43	0	568328192	19	4246
2026-01-08 10:24:34.67	165.04	63.43	-28.6	-30.2	16.3	0.00e+00	0	43	0	570425344	18	4342
2026-01-08 10:24:35.68	165.13	63.87	-28.6	-30.2	16.2	0.00e+00	0	43	0	572522496	18	4336
2026-01-08 10:24:36.69	165.22	64.31	-29.0	-31.2	15.8	0.00e+00	0	43	0	574619648	18	4621
2026-01-08 10:24:37.69	165.31	64.74	-29.9	-32.9	14.3	2.20e-06	0	43	0	576716800	19	5121
2026-01-08 10:24:38.69	165.40	65.18	-30.1	-33.0	13.9	3.00e-06	0	43	0	578813952	20	5035
2026-01-08 10:24:39.70	165.50	65.63	-30.2	-33.3	13.7	2.20e-06	0	43	0	579862528	20	5148
2026-01-08 10:24:40.70	165.60	66.07	-30.6	-33.8	13.1	8.30e-06	0	43	0	581959680	21	5202
2026-01-08 10:24:41.70	165.71	66.51	-30.6	-33.8	13.1	5.03e-05	0	43	0	584056832	21	5207
2026-01-08 10:24:42.71	165.82	66.97	-30.3	-33.0	13.6	1.22e-05	0	43	0	586153984	21	4906
2026-01-08 10:24:43.71	165.93	67.42	-30.2	-32.8	13.8	6.80e-06	0	43	0	587202560	21	4838
2026-01-08 10:24:44.72	166.06	67.87	-30.5	-33.7	13.2	1.29e-05	0	43	0	589299712	21	5170
2026-01-08 10:24:45.72	166.18	68.33	-30.8	-34.4	12.7	5.03e-05	0	43	0	591396864	21	5447
2026-01-08 10:24:46.73	166.31	68.79	-31.0	-34.9	12.3	1.02e-04	0	43	0	593494016	21	5684
2026-01-08 10:24:47.74	166.45	69.25	-30.7	-33.6	12.9	1.71e-04	0	43	0	595591168	22	5022
2026-01-08 10:24:48.74	166.60	69.71	-30.2	-32.6	13.8	6.80e-06	0	43	0	596639744	21	4785
2026-01-08 10:24:49.74	166.75	70.18	-29.8	-32.1	14.5	7.00e-07	0	43	0	598736896	20	4692
2026-01-08 10:24:50.74	166.90	70.64	-29.6	-31.6	14.9	0.00e+00	0	43	0	600834048	20	4544
2026-01-08 10:24:51.74	167.07	71.11	-29.5	-31.6	14.9	0.00e+00	0	43	0	602931200	20	4538
2026-01-08 10:24:52.75	167.25	71.58	-29.9	-32.4	14.3	0.00e+00	0	43	0	605028352	20	4808
2026-01-08 10:24:53.76	167.43	72.06	-30.6	-34.0	13.0	4.50e-06	0	43	0	606076928	21	5295
2026-01-08 10:24:54.76	167.63	72.53	-31.0	-34.6	12.3	1.62e-04	0	43	0	608174080	22	5403
2026-01-08 10:24:55.77	167.84	73.01	-31.1	-34.8	12.1	2.53e-04	0	43	0	610271232	22	5500
2026-01-08 10:24:56.78	168.06	73.49	-31.1	-34.9	12.2	2.88e-04	0	43	0	612368384	22	5525
2026-01-08 10:24:57.79	168.29	73.98	-31.2	-35.0	12.0	2.43e-04	0	43	0	614465536	22	5589
2026-01-08 10:24:58.79	168.54	74.46	-31.5	-36.0	11.4	7.26e-04	0	43	0	615514112	22	6026
2026-01-08 10:24:59.80	168.81	74.94	-31.7	-36.2	10.8	1.44e-03	0	43	0	617611264	23	6019
2026-01-08 10:25:00.80	169.09	75.43	-31.5	-35.6	11.2	1.86e-03	0	43	0	619708416	23	5765
2026-01-08 10:25:01.81	169.39	75.92	-31.1	-34.2	12.2	3.84e-04	0	43	0	621805568	23	5138
2026-01-08 10:25:02.81	169.72	76.40	-30.8	-33.4	12.8	1.06e-04	0	43	0	623902720	23	4838
2026-01-08 10:25:03.82	170.07	76.89	-30.7	-33.4	13.1	2.82e-05	0	43	0	624951296	22	4956
2026-01-08 10:25:04.82	170.45	77.38	-30.9	-34.2	12.7	6.10e-05	0	43	0	627048448	22	5234
2026-01-08 10:25:05.82	170.85	77.87	-30.7	-33.7	12.9	1.03e-04	0	43	0	629145600	22	5046
2026-01-08 10:25:06.83	171.30	78.37	-30.6	-33.2	13.3	3.05e-05	0	43	0	631242752	22	4879
2026-01-08 10:25:07.83	171.78	78.86	-30.5	-32.9	13.4	2.05e-05	0	43	0	633339904	22	4781
2026-01-08 10:25:08.83	172.31	79.35	-30.5	-33.0	13.4	1.29e-05	0	43	0	634388480	22	4797
2026-01-08 10:25:09.84	172.89	79.84	-29.9	-31.8	14.4	1.50e-06	0	43	0	636485632	21	4516
2026-01-08 10:25:10.84	173.53	80.34	-29.7	-31.8	14.9	0.00e+00	0	43	0	638582784	20	4602
2026-01-08 10:25:11.85	174.24	80.83	-29.7	-32.0	14.7	0.00e+00	0	43	0	640679936	20	4677
2026-01-08 10:25:12.86	175.04	81.33	-30.3	-33.5	13.8	7.00e-07	0	43	0	642777088	20	5181
2026-01-08 10:25:13.87	175.94	81.82	-31.3	-35.2	12.0	2.67e-05	0	43	0	643825664	22	5646
2026-01-08 10:25:14.87	176.94	82.31	-31.9	-36.3	10.4	2.91e-03	0	43	0	645922816	24	5921
2026-01-08 10:25:15.88	178.09	82.80	-32.6	-38.1	8.8	2.03e-02	0	43	0	648019968	25	6823
2026-01-08 10:25:16.88	179.39	83.29	-32.2	-36.5	10.1	1.77e-02	0	43	0	650117120	25	5915
2026-01-08 10:25:17.88	180.90	83.77	-31.5	-34.9	11.7	2.49e-03	0	43	0	652214272	24	5275
2026-01-08 10:25:18.89	182.68	84.25	-30.9	-33.5	12.9	6.71e-05	0	43	0	653262848	23	4869
2026-01-08 10:25:19.89	184.76	84.73	-31.0	-33.6	12.8	2.82e-05	0	43	0	655360000	23	4911
2026-01-08 10:25:20.90	187.28	85.19	-31.4	-34.9	12.1	1.18e-04	0	43	0	657457152	23	5396
2026-01-08 10:25:21.91	190.33	85.65	-31.5	-35.2	11.8	3.97e-04	0	43	0	659554304	23	5523
2026-01-08 10:25:22.91	194.05	86.09	-31.6	-35.5	11.6	6.04e-04	0	43	0	661651456	23	5667
2026-01-08 10:25:23.91	198.69	86.51	-32.0	-36.7	10.8	1.46e-03	0	43	0	662700032	23	6232
2026-01-08 10:25:24.92	204.61	86.90	-31.9	-36.0	11.0	2.12e-03	0	43	0	664797184	24	5761
2026-01-08 10:25:25.92	212.06	87.25	-31.7	-35.4	11.5	9.55e-04	0	43	0	666894336	24	5474
2026-01-08 10:25:26.93	221.58	87.54	-31.4	-34.3	12.2	3.94e-04	0	43	0	668991488	24	5020
2026-01-08 10:25:27.94	233.24	87.75	-30.6	-33.1	13.7	6.79e-05	0	43	0	670040064	22	4807
2026-01-08 10:25:28.94	246.47	87.85	-30.1	-32.2	14.6	0.00e+00	0	43	0	672137216	21	4600
2026-01-08 10:25:29.95	260.31	87.83	-30.0	-32.1	14.7	0.00e+00	0	43	0	674234368	21	4553
2026-01-08 10:25:30.96	273.14	87.69	-30.4	-33.1	14.0	1.50e-06	0	43	0	676331520	21	4896
2026-01-08 10:25:31.96	283.91	87.45	-30.5	-33.4	13.7	4.50e-06	0	43	0	678428672	21	5008
2026-01-08 10:25:32.97	292.67	87.13	-30.9	-34.6	12.9	1.29e-05	0	43	0	680525824	21	5486
2026-01-08 10:25:33.97	299.49	86.76	-31.0	-34.4	12.6	1.26e-04	0	43	0	681574400	22	5319
2026-01-08 10:25:34.98	304.92	86.36	-30.5	-32.9	13.6	1.67e-05	0	43	0	683671552	22	4744
2026-01-08 10:25:35.99	309.23	85.93	-30.4	-32.6	13.7	6.80e-06	0	43	0	685768704	22	4660
2026-01-08 10:25:36.99	312.67	85.48	-30.0	-32.2	14.3	2.20e-06	0	43	0	687865856	21	4622
2026-01-08 10:25:38.00	315.50	85.02	-29.7	-31.9	14.9	7.00e-07	0	43	0	689963008	20	4620
2026-01-08 10:25:39.01	317.85	84.55	-29.6	-31.5	15.0	7.00e-07	0	43	0	691011584	20	4515
2026-01-08 10:25:40.01	319.80	84.08	-30.2	-33.2	14.0	7.00e-07	0	43	0	693108736	20	5083
2026-01-08 10:25:41.01	321.46	83.60	-31.0	-34.7	12.6	1.22e-05	0	43	0	695205888	21	5561
2026-01-08 10:25:42.03	322.92	83.10	-31.7	-35.9	11.3	5.29e-04	0	43	0	697303040	23	5839
2026-01-08 10:25:43.03	324.16	82.62	-32.2	-37.1	9.9	3.75e-03	0	43	0	698351616	24	6384
2026-01-08 10:25:44.03	325.24	82.13	-32.1	-36.8	10.0	8.31e-03	0	43	0	700448768	24	6216
2026-01-08 10:25:45.04	326.20	81.64	-32.0	-36.4	10.3	5.46e-03	0	43	0	702545920	24	5979
2026-01-08 10:25:46.03	327.04	81.15	-31.7	-35.5	11.0	2.87e-03	0	43	0	704643072	24	5590
2026-01-08 10:25:47.04	327.81	80.66	-31.5	-34.9	11.5	1.14e-03	0	43	0	706740224	24	5305
2026-01-08 10:25:48.05	328.50	80.16	-31.5	-34.9	11.4	1.19e-03	0	43	0	708837376	24	5342
2026-01-08 10:25:49.05	329.11	79.67	-30.7	-33.6	13.1	1.23e-04	0	43	0	709885952	22	5019
2026-01-08 10:25:50.06	329.67	79.17	-30.9	-34.0	12.8	2.59e-05	0	43	0	711983104	22	5177
2026-01-08 10:25:51.06	330.18	78.68	-31.1	-34.8	12.3	1.32e-04	0	43	0	714080256	22	5506
2026-01-08 10:25:52.07	330.66	78.19	-31.8	-36.3	10.9	1.19e-03	0	43	0	716177408	23	6041
2026-01-08 10:25:53.08	331.09	77.69	-32.5	-38.0	8.7	9.26e-03	0	43	0	717225984	25	6788
2026-01-08 10:25:54.09	331.49	77.20	-33.1	-40.2	6.6	9.43e-02	0	43	0	719323136	26	8159
2026-01-08 10:25:55.09	331.85	76.71	-33.1	-40.1	6.7	2.26e-01	0	43	0	721420288	26	8107
2026-01-08 10:25:56.10	332.19	76.22	-32.5	-37.5	8.7	7.40e-02	0	43	0	723517440	26	6374
2026-01-08 10:25:57.10	332.51	75.74	-32.1	-36.6	9.9	1.49e-02	0	43	0	725614592	25	6012
2026-01-08 10:25:58.11	332.81	75.25	-32.5	-37.8	8.9	2.11e-02	0	43	0	726663168	25	6681
2026-01-08 10:25:59.12	333.08	74.76	-32.9	-39.9	7.3	9.05e-02	0	43	0	728760320	25	8030
2026-01-08 10:26:00.12	333.34	74.28	-32.2	-36.8	9.5	6.52e-02	0	43	0	730857472	25	6131
2026-01-08 10:26:01.13	333.58	73.80	-30.9	-33.6	12.7	1.85e-03	0	43	0	732954624	23	4916
2026-01-08 10:26:02.14	333.81	73.32	-30.1	-32.5	14.1	7.60e-06	0	43	0	735051776	21	4732
2026-01-08 10:26:03.15	334.03	72.84	-30.1	-32.3	14.1	1.50e-06	0	43	0	737148928	21	4682
2026-01-08 10:26:04.15	334.23	72.37	-29.8	-31.8	14.5	0.00e+00	0	43	0	738197504	21	4501
2026-01-08 10:26:05.16	334.42	71.89	-29.4	-31.0	15.2	0.00e+00	0	43	0	740294656	20	4372
2026-01-08 10:26:06.16	334.61	71.42	-28.9	-30.4	16.0	0.00e+00	0	43	0	742391808	19	4263
2026-01-08 10:26:07.17	334.78	70.95	-29.2	-31.2	15.5	0.00e+00	0	43	0	744488960	19	4523
2026-01-08 10:26:08.17	334.94	70.48	-30.2	-33.2	13.8	7.00e-07	0	43	0	745537536	20	5089
2026-01-08 10:26:09.17	335.10	70.02	-30.9	-34.7	12.6	5.64e-05	0	43	0	747634688	21	5563
2026-01-08 10:26:10.18	335.25	69.55	-30.4	-33.2	13.5	4.27e-05	0	43	0	749731840	21	4985
2026-01-08 10:26:11.18	335.39	69.09	-30.6	-33.7	13.2	6.10e-06	0	43	0	751828992	21	5188
2026-01-08 10:26:12.19	335.52	68.63	-31.7	-36.0	11.0	6.26e-04	0	43	0	753926144	23	5964
2026-01-08 10:26:13.19	335.65	68.18	-32.6	-38.7	8.3	2.09e-02	0	43	0	754974720	25	7273
2026-01-08 10:26:14.20	335.78	67.72	-32.4	-37.9	8.7	8.61e-02	0	43	0	757071872	25	6737
2026-01-08 10:26:15.21	335.90	67.26	-31.7	-35.6	10.9	4.68e-03	0	43	0	759169024	24	5638
2026-01-08 10:26:16.21	336.01	66.82	-31.3	-34.4	11.6	9.51e-04	0	43	0	761266176	24	5150
2026-01-08 10:26:17.22	336.12	66.37	-31.5	-34.9	11.4	7.25e-04	0	43	0	763363328	24	5329
2026-01-08 10:26:18.23	336.23	65.92	-32.0	-36.7	10.0	5.50e-03	0	43	0	764411904	24	6167
2026-01-08 10:26:19.24	336.33	65.47	-32.2	-37.6	9.3	1.61e-02	0	43	0	766509056	24	6678
2026-01-08 10:26:20.24	336.42	65.04	-31.8	-36.0	10.5	1.54e-02	0	43	0	768606208	24	5835
2026-01-08 10:26:21.24	336.52	64.60	-30.6	-33.4	13.0	9.76e-05	0	43	0	770703360	22	4965
2026-01-08 10:26:22.25	336.61	64.16	-30.3	-33.0	13.6	4.50e-06	0	43	0	772800512	21	4909
2026-01-08 10:26:23.25	336.69	63.73	-30.2	-32.8	13.7	9.10e-06	0	43	0	773849088	21	4863
2026-01-08 10:26:24.25	336.78	63.30	-29.7	-31.9	14.6	2.20e-06	0	43	0	775946240	20	4642
2026-01-08 10:26:25.25	336.86	62.88	-29.3	-31.3	15.3	0.00e+00	0	43	0	778043392	19	4560
2026-01-08 10:26:26.26	336.94	62.45	-28.9	-30.4	15.9	0.00e+00	0	43	0	780140544	19	4278
2026-01-08 10:26:27.27	337.01	62.03	-28.5	-30.0	16.5	0.00e+00	0	43	0	782237696	18	4257
2026-01-08 10:26:28.27	337.09	61.61	-28.6	-30.1	16.4	0.00e+00	0	43	0	783286272	18	4310
2026-01-08 10:26:29.28	337.16	61.19	-29.5	-32.0	15.0	0.00e+00	0	43	0	785383424	19	4774
2026-01-08 10:26:30.28	337.22	60.77	-30.5	-34.0	13.3	3.00e-06	0	43	0	787480576	20	5414
2026-01-08 10:26:31.29	337.29	60.36	-31.1	-34.9	11.9	1.52e-04	0	43	0	789577728	22	5556
2026-01-08 10:26:32.30	337.36	59.95	-30.7	-33.5	12.9	8.54e-05	0	43	0	791674880	22	4996
2026-01-08 10:26:33.30	337.42	59.54	-30.3	-32.6	13.6	2.13e-05	0	43	0	792723456	22	4658
2026-01-08 10:26:34.31	337.48	59.14	-30.7	-33.6	12.8	1.75e-05	0	43	0	794820608	22	5046
2026-01-08 10:26:35.32	337.54	58.73	-31.2	-35.2	11.8	2.54e-04	0	43	0	796917760	22	5685
2026-01-08 10:26:36.33	337.60	58.33	-31.6	-35.7	11.0	1.44e-03	0	43	0	799014912	23	5825
2026-01-08 10:26:37.33	337.65	57.94	-31.7	-36.4	10.5	3.03e-03	0	43	0	801112064	23	6134
2026-01-08 10:26:38.33	337.71	57.55	-31.7	-36.1	10.7	3.78e-03	0	43	0	802160640	23	6020
2026-01-08 10:26:39.34	337.76	57.15	-31.3	-34.9	11.5	1.76e-03	0	43	0	804257792	23	5464
2026-01-08 10:26:40.34	337.81	56.77	-30.7	-33.6	12.8	2.11e-04	0	43	0	806354944	22	5030
2026-01-08 10:26:41.35	337.86	56.38	-30.6	-33.5	12.9	4.19e-05	0	43	0	808452096	22	4985
2026-01-08 10:26:42.36	337.91	55.99	-30.8	-33.9	12.6	7.78e-05	0	43	0	810549248	22	5147
2026-01-08 10:26:43.37	337.96	55.61	-30.4	-32.8	13.3	4.42e-05	0	43	0	811597824	22	4736
2026-01-08 10:26:44.38	338.01	55.23	-30.1	-32.4	13.8	1.44e-05	0	43	0	813694976	21	4732
2026-01-08 10:26:45.38	338.05	54.86	-29.9	-32.1	14.1	2.20e-06	0	43	0	815792128	21	4622
2026-01-08 10:26:46.39	338.10	54.49	-30.4	-33.4	13.3	1.37e-05	0	43	0	817889280	21	5066
2026-01-08 10:26:47.39	338.14	54.12	-30.7	-34.3	12.6	2.59e-05	0	43	0	819986432	21	5436
2026-01-08 10:26:48.40	338.18	53.75	-31.0	-34.6	12.0	3.00e-04	0	43	0	821035008	22	5442
2026-01-08 10:26:49.40	338.22	53.39	-30.5	-33.2	13.0	9.00e-05	0	43	0	823132160	22	4894
2026-01-08 10:26:50.41	338.27	53.02	-30.1	-32.4	13.8	1.67e-05	0	43	0	825229312	21	4737
2026-01-08 10:26:51.41	338.30	52.66	-30.1	-32.4	13.9	2.20e-06	0	43	0	827326464	21	4723
2026-01-08 10:26:52.42	338.34	52.31	-30.3	-33.2	13.3	7.60e-06	0	43	0	829423616	21	5015
2026-01-08 10:26:53.42	338.38	51.95	-30.9	-34.9	12.2	5.18e-05	0	43	0	830472192	21	5695
2026-01-08 10:26:54.43	338.42	51.60	-31.4	-35.5	11.0	9.20e-04	0	43	0	832569344	23	5738
2026-01-08 10:26:55.43	338.45	51.25	-31.7	-36.4	10.4	2.77e-03	0	43	0	834666496	23	6192
2026-01-08 10:26:56.44	338.49	50.91	-32.1	-37.2	9.4	1.36e-02	0	43	0	836763648	24	6516
2026-01-08 10:26:57.45	338.53	50.56	-32.1	-37.2	9.4	1.58e-02	0	43	0	838860800	24	6509
2026-01-08 10:26:58.45	338.56	50.22	-31.9	-36.8	9.7	1.33e-02	0	43	0	839909376	24	6263
2026-01-08 10:26:59.46	338.59	49.88	-31.6	-35.4	10.7	4.47e-03	0	43	0	842006528	24	5614
2026-01-08 10:27:00.47	338.63	49.54	-31.4	-35.0	11.0	2.14e-03	0	43	0	844103680	24	5398
2026-01-08 10:27:01.47	338.66	49.21	-31.7	-35.8	10.4	2.91e-03	0	43	0	846200832	24	5797
2026-01-08 10:27:02.47	338.69	48.88	-32.6	-39.1	7.5	4.90e-02	0	43	0	848297984	25	7630
2026-01-08 10:27:03.48	338.72	48.55	-33.2	-42.4	5.1	3.36e-01	0	43	0	849346560	26	10385
2026-01-08 10:27:04.48	338.75	48.23	-33.0	-41.1	5.5	7.51e-01	0	43	0	851443712	26	9156
2026-01-08 10:27:05.48	338.78	47.90	-32.0	-36.5	9.3	6.42e-02	0	43	0	853540864	25	6044
2026-01-08 10:27:06.49	338.81	47.58	-30.8	-33.7	12.2	1.56e-03	0	43	0	855638016	23	4982
2026-01-08 10:27:07.50	338.84	47.26	-30.0	-32.3	13.8	2.28e-05	0	43	0	857735168	21	4690
2026-01-08 10:27:08.51	338.87	46.94	-29.9	-32.0	14.1	7.00e-07	0	43	0	858783744	21	4587
2026-01-08 10:27:09.51	338.90	46.63	-30.0	-32.2	13.9	4.50e-06	0	43	0	860880896	21	4655
2026-01-08 10:27:10.52	338.92	46.32	-30.4	-33.4	13.2	3.80e-06	0	43	0	862978048	21	5101
2026-01-08 10:27:11.52	338.95	46.01	-30.8	-34.5	12.3	1.21e-04	0	43	0	865075200	21	5550
2026-01-08 10:27:12.52	338.98	45.70	-31.1	-35.0	11.7	4.36e-04	0	43	0	867172352	22	5630
2026-01-08 10:27:13.53	339.00	45.40	-31.0	-34.9	11.8	6.06e-04	0	43	0	868220928	22	5585
2026-01-08 10:27:14.54	339.03	45.09	-31.1	-35.0	11.7	4.96e-04	0	43	0	870318080	22	5635
2026-01-08 10:27:15.54	339.05	44.79	-31.0	-34.7	11.9	3.65e-04	0	43	0	872415232	22	5506
2026-01-08 10:27:16.54	339.08	44.50	-30.7	-33.9	12.5	1.77e-04	0	43	0	874512384	22	5175
2026-01-08 10:27:17.55	339.10	44.20	-30.5	-33.3	12.9	9.15e-05	0	43	0	876609536	22	4944
2026-01-08 10:27:18.55	339.13	43.91	-30.6	-33.5	12.8	5.56e-05	0	43	0	877658112	22	5024
2026-01-08 10:27:19.55	339.15	43.62	-30.6	-33.6	12.7	1.49e-04	0	43	0	879755264	22	5042
2026-01-08 10:27:20.56	339.17	43.33	-30.5	-33.2	12.9	4.11e-05	0	43	0	881852416	22	4916
2026-01-08 10:27:21.56	339.20	43.04	-30.5	-33.3	12.8	5.26e-05	0	43	0	883949568	22	4943
2026-01-08 10:27:22.57	339.22	42.75	-30.7	-33.7	12.6	5.03e-05	0	43	0	886046720	22	5093
2026-01-08 10:27:23.57	339.24	42.47	-31.2	-35.4	11.4	3.19e-04	0	43	0	887095296	22	5813
2026-01-08 10:27:24.57	339.26	42.19	-31.6	-36.3	10.4	2.34e-03	0	43	0	889192448	23	6159
2026-01-08 10:27:25.57	339.28	41.92	-32.0	-37.5	9.4	1.16e-02	0	43	0	891289600	23	6810
2026-01-08 10:27:26.57	339.31	41.64	-32.1	-37.5	9.1	2.38e-02	0	43	0	893386752	24	6707
2026-01-08 10:27:27.57	339.33	41.37	-31.9	-36.8	9.5	2.62e-02	0	43	0	894435328	24	6328
2026-01-08 10:27:28.58	339.35	41.10	-31.4	-35.0	11.0	3.16e-03	0	43	0	896532480	24	5430
2026-01-08 10:27:29.58	339.37	40.83	-30.8	-33.7	12.3	4.23e-04	0	43	0	898629632	23	4989
2026-01-08 10:27:30.58	339.39	40.56	-30.3	-32.7	13.2	7.40e-05	0	43	0	900726784	22	4746
2026-01-08 10:27:31.59	339.41	40.29	-29.9	-32.1	14.0	9.10e-06	0	43	0	902823936	21	4615
2026-01-08 10:27:32.60	339.43	40.03	-29.8	-31.8	14.1	5.30e-06	0	43	0	903872512	21	4523
2026-01-08 10:27:33.60	339.45	39.77	-30.0	-32.4	13.7	2.20e-06	0	43	0	905969664	21	4741
2026-01-08 10:27:34.60	339.47	39.51	-30.4	-33.5	13.0	8.30e-06	0	43	0	908066816	21	5134
2026-01-08 10:27:35.61	339.49	39.25	-30.8	-34.6	12.2	1.14e-04	0	43	0	910163968	21	5598
2026-01-08 10:27:36.62	339.50	38.99	-31.4	-36.0	10.9	7.99e-04	0	43	0	912261120	22	6135
2026-01-08 10:27:37.62	339.52	38.74	-31.8	-37.0	9.8	6.49e-03	0	43	0	913309696	23	6531
2026-01-08 10:27:38.63	339.54	38.48	-32.2	-37.9	8.6	2.81e-02	0	43	0	915406848	24	6997
2026-01-08 10:27:39.63	339.56	38.23	-32.4	-38.8	8.0	5.62e-02	0	43	0	917504000	24	7552
2026-01-08 10:27:40.63	339.58	37.99	-32.3	-38.5	8.2	5.78e-02	0	43	0	919601152	24	7327
2026-01-08 10:27:41.63	339.59	37.74	-32.0	-37.4	9.0	4.76e-02	0	43	0	921698304	24	6644
2026-01-08 10:27:42.64	339.61	37.49	-31.8	-36.3	9.9	1.42e-02	0	43	0	922746880	24	6074
2026-01-08 10:27:43.65	339.63	37.25	-31.6	-35.8	10.3	7.21e-03	0	43	0	924844032	24	5795
2026-01-08 10:27:44.65	339.65	37.01	-31.5	-35.5	10.5	4.43e-03	0	43	0	926941184	24	5656
2026-01-08 10:27:45.66	339.66	36.77	-31.7	-36.1	10.1	5.35e-03	0	43	0	929038336	24	5952
2026-01-08 10:27:46.67	339.68	36.53	-31.7	-36.0	10.1	8.01e-03	0	43	0	931135488	24	5906
2026-01-08 10:27:47.68	339.70	36.29	-31.5	-35.3	10.7	3.96e-03	0	43	0	932184064	24	5586
2026-01-08 10:27:48.68	339.71	36.06	-31.3	-34.7	11.1	2.01e-03	0	43	0	934281216	24	5320
2026-01-08 10:27:49.69	339.73	35.82	-31.2	-34.7	11.4	1.01e-03	0	43	0	936378368	23	5435
2026-01-08 10:27:50.69	339.74	35.59	-31.1	-34.4	11.7	5.74e-04	0	43	0	938475520	23	5268
2026-01-08 10:27:51.70	339.76	35.36	-31.1	-34.6	11.6	5.77e-04	0	43	0	940572672	23	5350
2026-01-08 10:27:52.70	339.78	35.14	-31.4	-35.6	10.8	1.58e-03	0	43	0	941621248	23	5806
2026-01-08 10:27:53.71	339.79	34.91	-31.7	-36.7	10.0	4.65e-03	0	43	0	943718400	23	6349
2026-01-08 10:27:54.71	339.81	34.69	-32.2	-38.1	8.5	1.56e-02	0	43	0	945815552	24	7067
2026-01-08 10:27:55.72	339.82	34.46	-32.5	-39.0	7.4	8.87e-02	0	43	0	947912704	25	7584
2026-01-08 10:27:56.73	339.84	34.24	-32.8	-40.3	6.4	1.72e-01	0	43	0	950009856	25	8594
2026-01-08 10:27:57.73	339.85	34.02	-32.8	-40.4	6.4	2.74e-01	0	43	0	951058432	25	8653
2026-01-08 10:27:58.74	339.87	33.80	-32.8	-40.5	6.3	2.52e-01	0	43	0	953155584	25	8728
2026-01-08 10:27:59.75	339.88	33.58	-32.7	-39.9	6.7	2.35e-01	0	43	0	955252736	25	8245
2026-01-08 10:28:00.74	339.90	33.37	-32.5	-39.0	7.4	1.62e-01	0	43	0	957349888	25	7570
2026-01-08 10:28:01.74	339.91	33.16	-32.4	-38.3	8.0	7.58e-02	0	43	0	959447040	25	7088
2026-01-08 10:28:02.75	339.92	32.95	-32.2	-37.6	8.5	4.79e-02	0	43	0	960495616	25	6704
2026-01-08 10:28:03.76	339.94	32.73	-32.1	-37.3	8.8	3.77e-02	0	43	0	962592768	25	6493
2026-01-08 10:28:04.76	339.95	32.53	-32.2	-37.3	8.7	3.44e-02	0	43	0	964689920	25	6541
2026-01-08 10:28:05.77	339.97	32.32	-32.1	-37.1	8.9	3.27e-02	0	43	0	966787072	25	6409
2026-01-08 10:28:06.77	339.98	32.11	-32.1	-37.0	8.9	2.48e-02	0	43	0	968884224	25	6367
2026-01-08 10:28:07.78	339.99	31.91	-32.0	-36.8	9.1	2.58e-02	0	43	0	969932800	25	6229
2026-01-08 10:28:08.78	340.01	31.70	-31.9	-36.5	9.3	1.89e-02	0	43	0	972029952	25	6062
2026-01-08 10:28:09.79	340.02	31.50	-32.0	-36.6	9.2	1.83e-02	0	43	0	974127104	25	6154
2026-01-08 10:28:10.79	340.03	31.30	-32.1	-36.9	9.0	2.08e-02	0	43	0	976224256	25	6319
2026-01-08 10:28:11.80	340.05	31.10	-32.1	-37.0	9.0	2.57e-02	0	43	0	978321408	25	6328
2026-01-08 10:28:12.80	340.06	30.90	-32.2	-37.5	8.5	3.47e-02	0	43	0	979369984	25	6648
2026-01-08 10:28:13.80	340.07	30.71	-32.3	-37.8	8.3	5.25e-02	0	43	0	981467136	25	6831
2026-01-08 10:28:14.81	340.08	30.51	-32.3	-38.2	8.0	5.20e-02	0	43	0	983564288	25	7064
2026-01-08 10:28:15.81	340.10	30.32	-32.3	-38.3	7.9	8.17e-02	0	43	0	985661440	25	7126
2026-01-08 10:28:16.82	340.11	30.12	-32.4	-38.3	7.8	7.02e-02	0	43	0	987758592	25	7173
2026-01-08 10:28:17.83	340.12	29.93	-32.4	-38.8	7.5	8.80e-02	0	43	0	988807168	25	7465
2026-01-08 10:28:18.83	340.13	29.74	-32.4	-38.7	7.5	1.08e-01	0	43	0	990904320	25	7394
2026-01-08 10:28:19.83	340.15	29.55	-32.4	-38.4	7.8	8.87e-02	0	43	0	993001472	25	7222
2026-01-08 10:28:20.83	340.16	29.37	-32.4	-38.4	7.8	7.98e-02	0	43	0	995098624	25	7204
2026-01-08 10:28:21.83	340.17	29.18	-32.3	-38.0	8.1	7.92e-02	0	43	0	996147200	25	6967
2026-01-08 10:28:22.84	340.18	29.00	-32.2	-37.6	8.4	5.36e-02	0	43	0	998244352	25	6726
2026-01-08 10:28:23.85	340.19	28.81	-32.1	-37.2	8.7	3.70e-02	0	43	0	1000341504	25	6503
2026-01-08 10:28:24.85	340.21	28.63	-32.1	-37.1	8.7	3.39e-02	0	43	0	1002438656	25	6453
2026-01-08 10:28:25.86	340.22	28.45	-32.1	-37.1	8.8	3.25e-02	0	43	0	1004535808	25	6427
2026-01-08 10:28:26.87	340.23	28.27	-31.9	-36.3	9.3	2.48e-02	0	43	0	1005584384	25	6022
2026-01-08 10:28:27.87	340.24	28.09	-31.6	-35.9	10.0	1.36e-02	0	43	0	1007681536	24	5901
2026-01-08 10:28:28.87	340.25	27.91	-31.3	-35.2	11.0	2.37e-03	0	43	0	1009778688	23	5645
2026-01-08 10:28:29.88	340.26	27.73	-30.9	-34.1	11.7	7.90e-04	0	43	0	1011875840	23	5182
2026-01-08 10:28:30.89	340.27	27.56	-30.7	-33.9	12.2	2.76e-04	0	43	0	1013972992	22	5213
2026-01-08 10:28:31.89	340.29	27.38	-30.5	-33.3	12.7	9.99e-05	0	43	0	1016070144	22	4970
2026-01-08 10:28:32.90	340.30	27.21	-30.2	-33.1	13.1	2.89e-05	0	43	0	1017118720	21	4991
2026-01-08 10:28:33.91	340.31	27.03	-30.2	-33.1	13.1	2.67e-05	0	43	0	1019215872	21	5010
2026-01-08 10:28:34.91	340.32	26.86	-30.1	-32.8	13.3	3.81e-05	0	43	0	1021313024	21	4889
2026-01-08 10:28:35.92	340.33	26.69	-30.0	-32.4	13.5	9.10e-06	0	43	0	1023410176	21	4758
2026-01-08 10:28:36.93	340.34	26.52	-30.0	-32.5	13.5	1.75e-05	0	43	0	1024458752	21	4775
2026-01-08 10:28:37.93	340.35	26.36	-30.0	-32.6	13.5	6.10e-06	0	43	0	1026555904	21	4813
2026-01-08 10:28:38.94	340.36	26.19	-30.2	-33.0	13.2	1.75e-05	0	43	0	1028653056	21	4964
2026-01-08 10:28:39.94	340.37	26.02	-30.2	-32.9	13.2	2.36e-05	0	43	0	1030750208	21	4934
2026-01-08 10:28:40.94	340.38	25.86	-30.2	-33.1	13.1	2.44e-05	0	43	0	1032847360	21	5022
2026-01-08 10:28:41.94	340.39	25.70	-30.3	-33.3	12.9	4.95e-05	0	43	0	1033895936	21	5101
2026-01-08 10:28:42.95	340.40	25.53	-30.2	-33.1	13.0	4.88e-05	0	43	0	1035993088	21	5020
2026-01-08 10:28:43.96	340.41	25.37	-30.2	-33.1	13.1	4.50e-05	0	43	0	1038090240	21	5023
2026-01-08 10:28:44.96	340.42	25.21	-30.2	-33.2	13.0	3.58e-05	0	43	0	1040187392	21	5040
2026-01-08 10:28:45.96	340.43	25.05	-30.3	-33.5	12.8	5.41e-05	0	43	0	1042284544	21	5159
2026-01-08 10:28:46.97	340.44	24.89	-30.2	-33.2	13.0	5.26e-05	0	43	0	1043333120	21	5040
2026-01-08 10:28:47.97	340.45	24.73	-30.1	-32.7	13.3	2.89e-05	0	43	0	1045430272	21	4869
2026-01-08 10:28:48.97	340.46	24.58	-29.9	-32.3	13.6	1.29e-05	0	43	0	1047527424	21	4724
2026-01-08 10:28:49.97	340.47	24.42	-29.7	-32.2	13.9	3.00e-06	0	43	0	1049624576	20	4806
2026-01-08 10:28:50.98	340.48	24.26	-29.6	-32.0	14.1	3.00e-06	0	43	0	1051721728	20	4710
2026-01-08 10:28:51.99	340.49	24.11	-29.7	-32.2	13.9	3.00e-06	0	43	0	1052770304	20	4809
2026-01-08 10:28:52.99	340.50	23.96	-29.4	-31.5	14.4	1.50e-06	0	43	0	1054867456	20	4558
2026-01-08 10:28:54.00	340.51	23.80	-29.3	-31.7	14.7	0.00e+00	0	43	0	1056964608	19	4717
2026-01-08 10:28:55.01	340.52	23.65	-29.2	-31.3	14.8	0.00e+00	0	43	0	1059061760	19	4614
2026-01-08 10:28:56.01	340.53	23.50	-29.2	-31.4	14.8	0.00e+00	0	43	0	1061158912	19	4613
2026-01-08 10:28:57.01	340.54	23.35	-29.3	-31.5	14.7	0.00e+00	0	43	0	1062207488	19	4675
2026-01-08 10:28:58.02	340.55	23.20	-29.1	-31.0	15.0	0.00e+00	0	43	0	1064304640	19	4507
2026-01-08 10:28:59.03	340.56	23.05	-29.1	-31.2	14.9	0.00e+00	0	43	0	1066401792	19	4557
2026-01-08 10:29:00.03	340.57	22.91	-29.2	-31.3	14.8	0.00e+00	0	43	0	1068498944	19	4611
2026-01-08 10:29:01.04	340.58	22.76	-29.2	-31.3	14.9	0.00e+00	0	43	0	1070596096	19	4601
2026-01-08 10:29:02.05	340.59	22.61	-29.3	-31.5	14.7	0.00e+00	0	43	0	1071644672	19	4669
2026-01-08 10:29:03.06	340.60	22.47	-29.3	-31.5	14.7	1.50e-06	0	43	0	1073741824	19	4661
2026-01-08 10:29:04.06	340.61	22.32	-29.3	-31.7	14.6	0.00e+00	0	43	0	1075838976	19	4738
2026-01-08 10:29:05.06	340.62	22.18	-29.4	-32.0	14.4	0.00e+00	0	43	0	1077936128	19	4834
2026-01-08 10:29:06.06	340.63	22.04	-29.4	-31.9	14.4	7.00e-07	0	43	0	1080033280	19	4815
2026-01-08 10:29:07.07	340.64	21.90	-29.6	-32.3	14.2	0.00e+00	0	43	0	1081081856	19	4932
2026-01-08 10:29:08.07	340.64	21.76	-29.5	-32.2	14.3	0.00e+00	0	43	0	1083179008	19	4898
2026-01-08 10:29:09.07	340.65	21.62	-29.7	-32.7	13.9	3.00e-06	0	43	0	1085276160	19	5096
2026-01-08 10:29:10.08	340.66	21.48	-29.7	-32.6	14.0	4.50e-06	0	43	0	1087373312	19	5029
2026-01-08 10:29:11.09	340.67	21.34	-29.8	-33.0	13.7	3.80e-06	0	43	0	1089470464	19	5195
2026-01-08 10:29:12.09	340.68	21.20	-29.8	-33.0	13.7	9.90e-06	0	43	0	1090519040	19	5189
2026-01-08 10:29:13.10	340.69	21.06	-29.9	-33.1	13.6	5.30e-06	0	43	0	1092616192	19	5246
2026-01-08 10:29:14.11	340.70	20.93	-29.8	-33.1	13.7	8.30e-06	0	43	0	1094713344	19	5238
2026-01-08 10:29:15.11	340.71	20.79	-29.7	-32.7	13.9	9.10e-06	0	43	0	1096810496	19	5086
2026-01-08 10:29:16.12	340.71	20.66	-29.7	-32.6	14.0	3.80e-06	0	43	0	1098907648	19	5054
2026-01-08 10:29:17.12	340.72	20.52	-29.8	-32.9	13.8	5.30e-06	0	43	0	1099956224	19	5165
2026-01-08 10:29:18.13	340.73	20.39	-29.7	-32.7	13.9	1.50e-06	0	43	0	1102053376	19	5101
2026-01-08 10:29:19.14	340.74	20.26	-29.8	-32.9	13.8	6.10e-06	0	43	0	1104150528	19	5170
2026-01-08 10:29:20.14	340.75	20.13	-29.7	-32.8	13.8	3.00e-06	0	43	0	1106247680	19	5116
2026-01-08 10:29:21.15	340.76	19.99	-29.8	-32.9	13.8	4.50e-06	0	43	0	1108344832	19	5160
2026-01-08 10:29:22.16	340.77	19.86	-29.8	-33.1	13.7	6.80e-06	0	43	0	1109393408	19	5226
2026-01-08 10:29:23.16	340.77	19.73	-29.8	-33.0	13.7	4.50e-06	0	43	0	1111490560	19	5199
2026-01-08 10:29:24.17	340.78	19.60	-29.9	-33.3	13.5	3.80e-06	0	43	0	1113587712	19	5340
2026-01-08 10:29:25.17	340.79	19.48	-29.9	-33.2	13.5	7.60e-06	0	43	0	1115684864	19	5282
2026-01-08 10:29:26.17	340.80	19.35	-30.0	-33.4	13.4	1.60e-05	0	43	0	1117782016	19	5369
2026-01-08 10:29:27.18	340.81	19.22	-29.9	-33.2	13.5	1.14e-05	0	43	0	1118830592	19	5281
2026-01-08 10:29:28.18	340.82	19.10	-30.0	-33.1	13.3	9.10e-06	0	43	0	1120927744	20	5131
2026-01-08 10:29:29.19	340.82	18.97	-30.1	-33.3	13.1	1.90e-05	0	43	0	1123024896	20	5228
2026-01-08 10:29:30.19	340.83	18.84	-30.1	-33.3	13.1	2.51e-05	0	43	0	1125122048	20	5222
2026-01-08 10:29:31.20	340.84	18.72	-30.1	-33.5	12.9	3.43e-05	0	43	0	1127219200	20	5307
2026-01-08 10:29:32.20	340.85	18.60	-30.2	-33.6	12.9	4.11e-05	0	43	0	1128267776	20	5332
2026-01-08 10:29:33.20	340.86	18.47	-30.2	-33.6	12.8	6.02e-05	0	43	0	1130364928	20	5347
2026-01-08 10:29:34.21	340.86	18.35	-30.3	-34.0	12.6	9.30e-05	0	43	0	1132462080	20	5482
2026-01-08 10:29:35.21	340.87	18.23	-30.3	-33.8	12.7	1.13e-04	0	43	0	1134559232	20	5440
2026-01-08 10:29:36.22	340.88	18.11	-30.4	-34.2	12.5	1.04e-04	0	43	0	1135607808	20	5586
2026-01-08 10:29:37.22	340.89	17.99	-30.6	-34.5	11.9	2.66e-04	0	43	0	1137704960	21	5616
2026-01-08 10:29:38.23	340.90	17.86	-30.6	-34.4	12.0	4.11e-04	0	43	0	1139802112	21	5565
2026-01-08 10:29:39.23	340.90	17.75	-30.6	-34.5	11.8	4.50e-04	0	43	0	1141899264	21	5619
2026-01-08 10:29:40.24	340.91	17.63	-30.8	-35.1	11.4	8.70e-04	0	43	0	1143996416	21	5898
2026-01-08 10:29:41.24	340.92	17.51	-30.9	-35.3	11.2	8.98e-04	0	43	0	1146093568	21	5994
2026-01-08 10:29:42.25	340.93	17.39	-31.0	-35.5	11.1	1.38e-03	0	43	0	1147142144	21	6079
2026-01-08 10:29:43.25	340.94	17.27	-31.1	-35.3	10.9	1.91e-03	0	43	0	1149239296	22	5878
2026-01-08 10:29:44.25	340.94	17.16	-31.2	-35.7	10.6	2.85e-03	0	43	0	1151336448	22	6061
2026-01-08 10:29:45.25	340.95	17.04	-31.1	-35.5	10.7	2.85e-03	0	43	0	1153433600	22	5985
2026-01-08 10:29:46.26	340.96	16.92	-31.1	-35.6	10.7	2.81e-03	0	43	0	1154482176	22	6018
2026-01-08 10:29:47.27	340.97	16.81	-31.1	-35.6	10.7	3.21e-03	0	43	0	1156579328	22	6015
2026-01-08 10:29:48.27	340.97	16.69	-31.2	-35.7	10.6	2.93e-03	0	43	0	1158676480	22	6079
2026-01-08 10:29:49.27	340.98	16.58	-31.2	-36.0	10.4	4.26e-03	0	43	0	1160773632	22	6195
2026-01-08 10:29:50.28	340.99	16.47	-31.2	-35.7	10.6	4.05e-03	0	43	0	1162870784	22	6092
2026-01-08 10:29:51.28	341.00	16.35	-31.3	-36.1	10.3	4.02e-03	0	43	0	1163919360	22	6297
2026-01-08 10:29:52.29	341.00	16.24	-31.5	-36.5	9.6	1.27e-02	0	43	0	1166016512	23	6360
2026-01-08 10:29:53.29	341.01	16.13	-31.4	-35.9	10.0	1.02e-02	0	43	0	1168113664	23	6082
2026-01-08 10:29:54.30	341.02	16.02	-31.1	-34.9	10.8	4.71e-03	0	43	0	1170210816	23	5581
2026-01-08 10:29:55.31	341.03	15.91	-30.8	-34.1	11.3	1.93e-03	0	43	0	1172307968	23	5251
2026-01-08 10:29:56.31	341.03	15.80	-30.6	-33.8	11.9	4.55e-04	0	43	0	1173356544	22	5245
2026-01-08 10:29:57.32	341.04	15.69	-30.4	-33.3	12.3	2.43e-04	0	43	0	1175453696	22	5017
2026-01-08 10:29:58.33	341.05	15.58	-30.1	-32.9	12.9	1.04e-04	0	43	0	1177550848	21	4977
2026-01-08 10:29:59.33	341.06	15.47	-29.9	-32.5	13.1	3.28e-05	0	43	0	1179648000	21	4838
2026-01-08 10:30:00.34	341.06	15.36	-29.8	-32.1	13.4	1.83e-05	0	43	0	1181745152	21	4684
2026-01-08 10:30:01.34	341.07	15.25	-29.7	-32.5	13.4	1.75e-05	0	43	0	1182793728	20	4930
2026-01-08 10:30:02.35	341.08	15.14	-29.8	-32.6	13.3	1.06e-05	0	43	0	1184890880	20	4990
2026-01-08 10:30:03.35	341.09	15.04	-29.7	-32.5	13.4	1.67e-05	0	43	0	1186988032	20	4925
2026-01-08 10:30:04.35	341.09	14.93	-29.7	-32.5	13.4	1.44e-05	0	43	0	1189085184	20	4937
2026-01-08 10:30:05.36	341.10	14.82	-29.7	-32.4	13.4	8.30e-06	0	43	0	1191182336	20	4921
2026-01-08 10:30:06.36	341.11	14.72	-29.8	-32.6	13.4	1.44e-05	0	43	0	1192230912	20	4972
2026-01-08 10:30:07.37	341.12	14.61	-29.8	-32.8	13.2	2.05e-05	0	43	0	1194328064	20	5045
2026-01-08 10:30:08.37	341.12	14.51	-29.7	-32.5	13.4	1.75e-05	0	43	0	1196425216	20	4943
2026-01-08 10:30:09.37	341.13	14.40	-29.9	-32.9	13.1	2.28e-05	0	43	0	1198522368	20	5079
2026-01-08 10:30:10.38	341.14	14.30	-30.0	-33.2	13.0	3.58e-05	0	43	0	1200619520	20	5198
2026-01-08 10:30:11.39	341.14	14.20	-30.0	-33.1	13.0	4.19e-05	0	43	0	1201668096	20	5183
2026-01-08 10:30:12.40	341.15	14.09	-30.0	-33.2	12.9	4.42e-05	0	43	0	1203765248	20	5230
2026-01-08 10:30:13.39	341.16	13.99	-30.1	-33.6	12.6	9.61e-05	0	43	0	1205862400	20	5385
2026-01-08 10:30:14.41	341.17	13.89	-30.1	-33.5	12.7	8.31e-05	0	43	0	1207959552	20	5346
2026-01-08 10:30:15.41	341.17	13.79	-30.2	-33.8	12.5	1.10e-04	0	43	0	1210056704	20	5432
2026-01-08 10:30:16.42	341.18	13.68	-30.2	-33.9	12.4	1.80e-04	0	43	0	1211105280	20	5499
2026-01-08 10:30:17.42	341.19	13.58	-30.2	-34.0	12.3	1.18e-04	0	43	0	1213202432	20	5530
2026-01-08 10:30:18.43	341.19	13.48	-30.3	-34.2	12.2	2.00e-04	0	43	0	1215299584	20	5618
2026-01-08 10:30:19.44	341.20	13.38	-30.3	-34.2	12.2	2.50e-04	0	43	0	1217396736	20	5639
2026-01-08 10:30:20.44	341.21	13.28	-30.3	-34.3	12.1	2.90e-04	0	43	0	1219493888	20	5676
2026-01-08 10:30:21.45	341.21	13.18	-30.4	-34.3	12.1	3.29e-04	0	43	0	1220542464	20	5675
2026-01-08 10:30:22.45	341.22	13.09	-30.2	-33.9	12.4	1.91e-04	0	43	0	1222639616	20	5493
2026-01-08 10:30:23.45	341.23	12.99	-30.1	-33.5	12.6	1.14e-04	0	43	0	1224736768	20	5330
2026-01-08 10:30:24.46	341.23	12.89	-30.0	-33.3	12.8	5.95e-05	0	43	0	1226833920	20	5252
2026-01-08 10:30:25.47	341.24	12.79	-30.0	-33.2	12.8	6.10e-05	0	43	0	1228931072	20	5219
2026-01-08 10:30:26.48	341.25	12.69	-30.0	-33.3	12.8	4.80e-05	0	43	0	1229979648	20	5246
2026-01-08 10:30:27.47	341.26	12.60	-30.0	-33.3	12.8	5.64e-05	0	43	0	1232076800	20	5248
2026-01-08 10:30:28.47	341.26	12.50	-30.0	-33.4	12.7	7.93e-05	0	43	0	1234173952	20	5293
2026-01-08 10:30:29.49	341.27	12.40	-30.0	-33.2	12.8	5.64e-05	0	43	0	1236271104	20	5242
2026-01-08 10:30:30.49	341.28	12.31	-29.9	-33.1	12.8	5.18e-05	0	43	0	1238368256	20	5197
2026-01-08 10:30:31.50	341.28	12.21	-30.0	-33.3	12.7	7.01e-05	0	43	0	1239416832	20	5273
2026-01-08 10:30:32.50	341.29	12.12	-30.0	-33.4	12.7	1.06e-04	0	43	0	1241513984	20	5310
2026-01-08 10:30:33.51	341.30	12.02	-30.1	-33.5	12.6	7.55e-05	0	43	0	1243611136	20	5342
2026-01-08 10:30:34.52	341.30	11.93	-30.1	-33.6	12.5	1.40e-04	0	43	0	1245708288	20	5399
2026-01-08 10:30:35.53	341.31	11.84	-30.1	-33.5	12.6	1.01e-04	0	43	0	1247805440	20	5356
2026-01-08 10:30:36.53	341.32	11.74	-30.0	-33.5	12.6	1.32e-04	0	43	0	1248854016	20	5334
2026-01-08 10:30:37.54	341.32	11.65	-30.1	-33.7	12.4	1.11e-04	0	43	0	1250951168	20	5448
2026-01-08 10:30:38.55	341.33	11.56	-30.2	-33.8	12.3	1.51e-04	0	43	0	1253048320	20	5482
2026-01-08 10:30:39.55	341.34	11.46	-30.1	-33.7	12.4	1.40e-04	0	43	0	1255145472	20	5446
2026-01-08 10:30:40.55	341.34	11.37	-30.2	-33.9	12.2	1.72e-04	0	43	0	1257242624	20	5534
2026-01-08 10:30:41.56	341.35	11.28	-30.2	-33.9	12.2	2.15e-04	0	43	0	1258291200	20	5536
2026-01-08 10:30:42.56	341.36	11.19	-30.3	-34.2	12.0	2.97e-04	0	43	0	1260388352	20	5656
2026-01-08 10:30:43.57	341.36	11.10	-30.3	-34.2	12.0	3.13e-04	0	43	0	1262485504	20	5655
2026-01-08 10:30:44.57	341.37	11.01	-30.2	-34.0	12.2	2.40e-04	0	43	0	1264582656	20	5557
2026-01-08 10:30:45.58	341.38	10.92	-30.3	-34.1	12.1	2.55e-04	0	43	0	1266679808	20	5619
2026-01-08 10:30:46.59	341.38	10.83	-30.3	-34.2	12.0	3.59e-04	0	43	0	1267728384	20	5650
2026-01-08 10:30:47.60	341.39	10.74	-30.2	-33.8	12.2	2.42e-04	0	43	0	1269825536	20	5484
2026-01-08 10:30:48.60	341.39	10.65	-30.2	-34.0	12.2	1.79e-04	0	43	0	1271922688	20	5565
2026-01-08 10:30:49.61	341.40	10.56	-30.2	-33.9	12.2	2.71e-04	0	43	0	1274019840	20	5514
2026-01-08 10:30:50.62	341.41	10.47	-30.2	-34.0	12.1	2.06e-04	0	43	0	1276116992	20	5559
2026-01-08 10:30:51.62	341.41	10.38	-30.2	-33.9	12.2	2.39e-04	0	43	0	1277165568	20	5545
2026-01-08 10:30:52.63	341.42	10.29	-30.2	-34.0	12.1	2.73e-04	0	43	0	1279262720	20	5563
2026-01-08 10:30:53.64	341.43	10.20	-30.2	-34.1	12.0	2.88e-04	0	43	0	1281359872	20	5624
2026-01-08 10:30:54.63	341.43	10.12	-30.2	-34.1	12.0	3.01e-04	0	43	0	1283457024	20	5639
2026-01-08 10:30:55.64	341.44	10.03	-30.3	-34.4	11.8	3.42e-04	0	43	0	1285554176	20	5767
