passes_logs/2026/01/08/R2M6_AANII_01/R2M6_AANII_01__20260108_123918_FENGYUN_3D_rec.log

#Pass ID: 20260108_123918_FENGYUN 3D
#Satellite: FENGYUN 3D
#Configuration: FENGYUN 3D
#almurnet v.1.7.20240730
#Start time: 2026-01-08 12:39:19

#Version: 2.2.20231116
#Station: R2M6_AANII_01
#Location: 30.233357 lon 59.946436 lat
#TLE: 1 43010U 17072A   26006.26440730  .00000376  00000+0  19957-3 0  9994
#TLE: 2 43010  98.9925 337.9455 0002045 123.9195 236.2175 14.19693586422016

#Time	Az	El	Level	Level2	SNR	BER	BlckErr	Temp	State	Recorded	gain1	gain2
2026-01-08 12:39:19.56	169.57	7.09	-27.8	-30.5	5.7	7.77e-01	0	41	0	0	15	4899
2026-01-08 12:39:20.56	169.59	7.17	-28.7	-31.5	5.5	7.83e-01	0	41	104	0	17	5020
2026-01-08 12:39:21.57	169.62	7.25	-28.6	-31.4	11.0	1.04e-03	0	41	0	0	17	4958
2026-01-08 12:39:22.58	169.64	7.32	-28.6	-31.3	11.1	1.43e-03	0	41	0	5242880	17	4940
2026-01-08 12:39:23.59	169.66	7.40	-28.2	-30.4	11.7	6.98e-04	0	41	0	11534336	17	4616
2026-01-08 12:39:24.59	169.68	7.48	-27.8	-29.8	12.4	1.21e-04	0	41	0	16777216	16	4529
2026-01-08 12:39:25.60	169.71	7.56	-27.5	-29.1	12.9	3.43e-05	0	41	0	22020096	16	4323
2026-01-08 12:39:26.61	169.73	7.64	-26.9	-28.3	13.4	1.25e-05	0	41	0	28311552	15	4230
2026-01-08 12:39:27.61	169.75	7.72	-26.7	-28.3	13.7	2.20e-06	0	41	0	33554432	14	4324
2026-01-08 12:39:28.63	169.78	7.80	-26.7	-28.3	13.7	1.10e-06	0	41	0	39845888	14	4326
2026-01-08 12:39:29.62	169.80	7.88	-26.9	-28.6	13.6	3.40e-06	0	42	0	45088768	14	4422
2026-01-08 12:39:30.63	169.83	7.96	-26.8	-28.5	13.6	4.50e-06	0	42	0	50331648	14	4394
2026-01-08 12:39:31.64	169.85	8.04	-26.6	-28.0	14.0	1.10e-06	0	42	0	56623104	14	4242
2026-01-08 12:39:32.64	169.87	8.12	-26.7	-28.2	13.9	0.00e+00	0	42	0	61865984	14	4287
2026-01-08 12:39:33.65	169.90	8.20	-26.7	-28.3	13.8	6.80e-06	0	42	0	67108864	14	4328
2026-01-08 12:39:34.66	169.92	8.28	-26.9	-28.7	13.6	4.50e-06	0	42	0	73400320	14	4443
2026-01-08 12:39:35.66	169.95	8.36	-27.0	-29.0	13.4	1.02e-05	0	42	0	78643200	14	4522
2026-01-08 12:39:36.67	169.97	8.44	-27.0	-28.9	13.5	4.50e-06	0	41	0	84934656	14	4499
2026-01-08 12:39:37.67	170.00	8.52	-27.1	-29.1	13.4	8.00e-06	0	42	0	90177536	14	4553
2026-01-08 12:39:38.68	170.02	8.61	-27.1	-29.3	13.3	1.48e-05	0	42	0	96468992	14	4595
2026-01-08 12:39:39.69	170.04	8.69	-27.0	-29.0	13.5	9.10e-06	0	42	0	101711872	14	4515
2026-01-08 12:39:40.69	170.07	8.77	-27.0	-28.9	13.5	8.00e-06	0	42	0	106954752	14	4474
2026-01-08 12:39:41.69	170.09	8.85	-26.9	-28.6	13.7	4.50e-06	0	42	0	113246208	14	4399
2026-01-08 12:39:42.70	170.12	8.94	-27.1	-29.3	13.4	1.10e-06	0	42	0	118489088	14	4598
2026-01-08 12:39:43.70	170.15	9.02	-27.0	-29.0	13.5	4.50e-06	0	42	0	123731968	14	4521
2026-01-08 12:39:44.71	170.17	9.11	-26.7	-28.2	14.0	2.20e-06	0	42	0	130023424	14	4276
2026-01-08 12:39:45.70	170.20	9.19	-26.5	-27.7	14.2	0.00e+00	0	42	0	135266304	14	4154
2026-01-08 12:39:46.71	170.22	9.27	-26.3	-27.4	14.4	0.00e+00	0	42	0	140509184	14	4058
2026-01-08 12:39:47.72	170.25	9.36	-26.1	-27.4	14.7	0.00e+00	0	42	0	146800640	13	4166
2026-01-08 12:39:48.72	170.27	9.44	-26.2	-27.5	14.7	0.00e+00	0	42	0	152043520	13	4190
2026-01-08 12:39:49.73	170.30	9.53	-26.2	-27.6	14.6	0.00e+00	0	42	0	158334976	13	4211
2026-01-08 12:39:50.74	170.33	9.61	-26.1	-27.4	14.7	1.10e-06	0	42	0	163577856	13	4182
2026-01-08 12:39:51.74	170.35	9.70	-26.1	-27.3	14.8	0.00e+00	0	42	0	169869312	13	4158
2026-01-08 12:39:52.75	170.38	9.78	-26.2	-27.5	14.7	0.00e+00	0	42	0	175112192	13	4186
2026-01-08 12:39:53.75	170.41	9.87	-26.1	-27.4	14.7	0.00e+00	0	42	0	180355072	13	4173
2026-01-08 12:39:54.75	170.43	9.96	-26.3	-27.8	14.5	1.10e-06	0	42	0	186646528	13	4269
2026-01-08 12:39:55.76	170.46	10.04	-26.5	-28.2	14.3	0.00e+00	0	42	0	191889408	13	4384
2026-01-08 12:39:56.76	170.49	10.13	-26.3	-27.9	14.5	1.10e-06	0	42	0	197132288	13	4298
2026-01-08 12:39:57.77	170.51	10.22	-26.5	-28.2	14.3	1.10e-06	0	42	0	203423744	13	4385
2026-01-08 12:39:58.78	170.54	10.31	-26.5	-28.2	14.3	0.00e+00	0	42	0	208666624	13	4385
2026-01-08 12:39:59.78	170.57	10.39	-26.5	-28.2	14.3	5.70e-06	0	42	0	214958080	13	4390
2026-01-08 12:40:00.79	170.60	10.48	-26.6	-28.5	14.1	2.20e-06	0	42	0	220200960	13	4477
2026-01-08 12:40:01.80	170.62	10.57	-26.6	-28.4	14.2	3.40e-06	0	42	0	225443840	13	4455
2026-01-08 12:40:02.81	170.65	10.66	-26.5	-28.2	14.3	5.70e-06	0	42	0	231735296	13	4391
2026-01-08 12:40:03.81	170.68	10.75	-26.5	-28.1	14.4	0.00e+00	0	42	0	236978176	13	4361
2026-01-08 12:40:04.82	170.71	10.84	-26.5	-28.3	14.3	0.00e+00	0	42	0	243269632	13	4410
2026-01-08 12:40:05.82	170.74	10.93	-26.5	-28.2	14.4	0.00e+00	0	42	0	248512512	13	4373
2026-01-08 12:40:06.83	170.76	11.02	-26.4	-27.9	14.5	0.00e+00	0	42	0	254803968	13	4303
2026-01-08 12:40:07.83	170.79	11.11	-26.7	-28.7	14.1	0.00e+00	0	42	0	260046848	13	4514
2026-01-08 12:40:08.84	170.82	11.20	-26.5	-28.1	14.4	9.10e-06	0	42	0	265289728	13	4368
2026-01-08 12:40:09.85	170.85	11.29	-26.3	-27.7	14.6	0.00e+00	0	43	0	271581184	13	4250
2026-01-08 12:40:10.86	170.88	11.39	-26.0	-27.2	15.0	0.00e+00	0	42	0	276824064	13	4093
2026-01-08 12:40:11.86	170.91	11.48	-25.9	-26.9	15.1	1.25e-05	0	42	0	282066944	13	4021
2026-01-08 12:40:12.87	170.94	11.57	-26.0	-27.0	15.1	0.00e+00	0	42	0	288358400	13	4057
2026-01-08 12:40:13.88	170.97	11.66	-26.0	-27.0	15.1	0.00e+00	0	42	0	293601280	13	4062
2026-01-08 12:40:14.88	171.00	11.76	-26.0	-27.0	15.0	0.00e+00	0	42	0	299892736	13	4058
2026-01-08 12:40:15.89	171.03	11.85	-26.2	-27.6	14.7	0.00e+00	0	42	0	305135616	13	4198
2026-01-08 12:40:16.89	171.06	11.94	-26.1	-27.4	14.8	0.00e+00	0	42	0	310378496	13	4158
2026-01-08 12:40:17.89	171.09	12.04	-25.9	-26.9	15.1	0.00e+00	0	42	0	316669952	13	4032
2026-01-08 12:40:18.89	171.12	12.13	-25.9	-26.8	15.2	0.00e+00	0	42	0	321912832	13	4005
2026-01-08 12:40:19.90	171.15	12.23	-26.0	-27.1	15.0	0.00e+00	0	42	0	328204288	13	4073
2026-01-08 12:40:20.90	171.18	12.32	-25.9	-27.0	15.1	1.14e-05	0	42	0	333447168	13	4046
2026-01-08 12:40:21.91	171.21	12.42	-25.9	-26.8	15.2	1.10e-06	0	43	0	338690048	13	4011
2026-01-08 12:40:22.91	171.24	12.51	-26.1	-27.3	14.9	0.00e+00	0	43	0	344981504	13	4120
2026-01-08 12:40:23.92	171.28	12.61	-25.9	-26.8	15.2	0.00e+00	0	43	0	350224384	13	4016
2026-01-08 12:40:24.93	171.31	12.71	-25.9	-26.8	15.2	0.00e+00	0	43	0	356515840	13	3997
2026-01-08 12:40:25.94	171.34	12.80	-25.7	-27.0	15.4	0.00e+00	0	43	0	361758720	12	4154
2026-01-08 12:40:26.94	171.37	12.90	-25.7	-27.0	15.4	0.00e+00	0	43	0	367001600	12	4150
2026-01-08 12:40:27.96	171.40	13.00	-25.7	-26.8	15.4	0.00e+00	0	43	0	373293056	12	4124
2026-01-08 12:40:28.96	171.44	13.10	-25.7	-27.0	15.4	0.00e+00	0	42	0	378535936	12	4165
2026-01-08 12:40:29.97	171.47	13.20	-25.7	-26.9	15.5	0.00e+00	0	43	0	384827392	12	4133
2026-01-08 12:40:30.97	171.50	13.30	-25.6	-26.6	15.6	0.00e+00	0	42	0	390070272	12	4064
2026-01-08 12:40:31.98	171.53	13.40	-25.6	-26.8	15.5	0.00e+00	0	43	0	395313152	12	4108
2026-01-08 12:40:32.99	171.57	13.50	-25.5	-26.4	15.7	0.00e+00	0	43	0	401604608	12	4005
2026-01-08 12:40:34.00	171.60	13.60	-25.5	-26.5	15.7	0.00e+00	0	43	0	406847488	12	4040
2026-01-08 12:40:35.00	171.63	13.70	-25.4	-26.3	15.8	0.00e+00	0	42	0	413138944	12	3984
2026-01-08 12:40:36.01	171.67	13.80	-25.3	-26.1	15.9	0.00e+00	0	43	0	418381824	12	3925
2026-01-08 12:40:37.02	171.70	13.90	-25.4	-26.3	15.8	0.00e+00	0	43	0	424673280	12	3972
2026-01-08 12:40:38.02	171.74	14.00	-25.3	-26.6	16.0	0.00e+00	0	43	0	429916160	11	4163
2026-01-08 12:40:39.03	171.77	14.10	-25.3	-26.5	16.0	0.00e+00	0	43	0	435159040	11	4140
2026-01-08 12:40:40.04	171.81	14.21	-25.2	-26.2	16.2	0.00e+00	0	43	0	441450496	11	4072
2026-01-08 12:40:41.04	171.84	14.31	-25.1	-26.2	16.1	0.00e+00	0	43	0	446693376	11	4064
2026-01-08 12:40:42.04	171.88	14.41	-25.2	-26.3	16.0	0.00e+00	0	43	0	451936256	11	4096
2026-01-08 12:40:43.05	171.91	14.52	-25.3	-26.7	15.8	6.80e-06	0	43	0	458227712	11	4193
2026-01-08 12:40:44.06	171.95	14.62	-25.1	-26.0	16.2	1.10e-06	0	43	0	463470592	11	4022
2026-01-08 12:40:45.07	171.98	14.73	-24.9	-25.7	16.4	1.10e-06	0	43	0	469762048	11	3933
2026-01-08 12:40:46.07	172.02	14.83	-24.9	-25.6	16.5	0.00e+00	0	43	0	475004928	11	3925
2026-01-08 12:40:47.08	172.05	14.94	-24.9	-25.6	16.5	0.00e+00	0	43	0	480247808	11	3928
2026-01-08 12:40:48.09	172.09	15.05	-24.7	-25.8	16.6	0.00e+00	0	43	0	486539264	10	4080
2026-01-08 12:40:49.09	172.13	15.15	-24.7	-25.7	16.7	0.00e+00	0	43	0	491782144	10	4055
2026-01-08 12:40:50.10	172.16	15.26	-24.7	-25.8	16.7	0.00e+00	0	43	0	498073600	10	4067
2026-01-08 12:40:51.11	172.20	15.37	-24.9	-26.1	16.5	0.00e+00	0	43	0	503316480	10	4145
2026-01-08 12:40:52.12	172.24	15.48	-24.6	-25.6	16.7	0.00e+00	0	43	0	509607936	10	4015
2026-01-08 12:40:53.12	172.28	15.58	-24.4	-25.2	16.7	3.40e-06	0	43	0	514850816	10	3945
2026-01-08 12:40:54.13	172.32	15.69	-24.4	-25.1	16.9	0.00e+00	0	43	0	520093696	10	3914
2026-01-08 12:40:55.14	172.35	15.80	-24.5	-25.3	17.0	0.00e+00	0	43	0	526385152	10	3950
2026-01-08 12:40:56.15	172.39	15.91	-24.4	-25.2	17.1	0.00e+00	0	43	0	531628032	10	3905
2026-01-08 12:40:57.16	172.43	16.03	-24.4	-25.1	17.2	0.00e+00	0	43	0	536870912	10	3884
2026-01-08 12:40:58.16	172.47	16.14	-24.4	-25.2	16.7	2.05e-05	0	43	0	543162368	10	3940
2026-01-08 12:40:59.17	172.51	16.25	-24.5	-25.5	16.5	2.63e-05	0	43	0	548405248	10	4025
2026-01-08 12:41:00.18	172.55	16.36	-24.3	-25.1	16.7	7.43e-05	0	43	0	554696704	10	3921
2026-01-08 12:41:01.18	172.59	16.47	-24.2	-25.3	16.8	1.83e-05	0	43	0	559939584	9	4077
2026-01-08 12:41:02.19	172.63	16.59	-24.3	-25.5	16.5	2.71e-04	0	43	0	565182464	9	4143
2026-01-08 12:41:03.20	172.67	16.70	-24.4	-25.7	16.4	9.02e-04	0	43	0	571473920	9	4214
2026-01-08 12:41:04.20	172.71	16.81	-24.2	-25.5	16.6	4.11e-05	0	43	0	576716800	9	4143
2026-01-08 12:41:05.20	172.75	16.93	-24.5	-25.7	17.1	3.41e-04	0	43	0	583008256	9	4146
2026-01-08 12:41:06.21	172.79	17.04	-24.4	-25.6	17.1	0.00e+00	0	43	0	588251136	9	4124
2026-01-08 12:41:07.21	172.83	17.16	-24.4	-25.6	17.2	0.00e+00	0	43	0	593494016	9	4110
2026-01-08 12:41:08.22	172.87	17.28	-24.5	-25.7	17.1	0.00e+00	0	43	0	599785472	9	4135
2026-01-08 12:41:09.23	172.92	17.39	-24.5	-25.8	17.1	0.00e+00	0	43	0	605028352	9	4173
2026-01-08 12:41:10.24	172.96	17.51	-24.5	-25.7	17.1	0.00e+00	0	43	0	611319808	9	4145
2026-01-08 12:41:11.24	173.00	17.63	-24.7	-26.1	16.9	2.20e-06	0	43	0	616562688	9	4250
2026-01-08 12:41:12.25	173.05	17.75	-24.9	-26.6	16.6	0.00e+00	0	43	0	621805568	9	4391
2026-01-08 12:41:13.26	173.09	17.87	-24.6	-25.9	17.1	0.00e+00	0	43	0	628097024	9	4196
2026-01-08 12:41:14.26	173.13	17.98	-24.4	-25.5	17.3	0.00e+00	0	43	0	633339904	9	4100
2026-01-08 12:41:15.26	173.18	18.10	-24.4	-25.5	17.3	0.00e+00	0	43	0	638582784	9	4082
2026-01-08 12:41:16.26	173.22	18.22	-24.4	-25.4	17.3	0.00e+00	0	43	0	644874240	9	4071
2026-01-08 12:41:17.26	173.26	18.34	-24.2	-25.1	17.5	0.00e+00	0	43	0	650117120	9	3998
2026-01-08 12:41:18.27	173.31	18.47	-24.2	-25.0	17.5	0.00e+00	0	43	0	656408576	9	3959
2026-01-08 12:41:19.28	173.35	18.59	-24.2	-25.1	17.5	0.00e+00	0	43	0	661651456	9	3979
2026-01-08 12:41:20.27	173.40	18.71	-24.2	-25.1	17.5	1.02e-05	0	43	0	667942912	9	3998
2026-01-08 12:41:21.27	173.44	18.83	-24.1	-24.8	17.7	0.00e+00	0	43	0	673185792	9	3911
2026-01-08 12:41:22.28	173.49	18.96	-24.0	-24.6	17.8	0.00e+00	0	43	0	678428672	9	3864
2026-01-08 12:41:23.29	173.54	19.08	-24.0	-24.6	17.8	4.50e-06	0	43	0	684720128	9	3880
2026-01-08 12:41:24.29	173.58	19.21	-24.1	-24.8	17.6	0.00e+00	0	43	0	689963008	9	3922
2026-01-08 12:41:25.30	173.63	19.34	-24.1	-24.9	17.7	0.00e+00	0	43	0	695205888	9	3927
2026-01-08 12:41:26.31	173.68	19.46	-24.0	-24.6	17.8	0.00e+00	0	43	0	701497344	9	3866
2026-01-08 12:41:27.31	173.73	19.59	-24.0	-24.7	17.7	0.00e+00	0	43	0	706740224	9	3902
2026-01-08 12:41:28.32	173.78	19.72	-24.1	-24.9	17.6	0.00e+00	0	43	0	713031680	9	3936
2026-01-08 12:41:29.33	173.83	19.85	-23.9	-24.5	17.9	0.00e+00	0	43	0	718274560	9	3839
2026-01-08 12:41:30.34	173.88	19.98	-23.9	-24.4	17.9	0.00e+00	0	43	0	723517440	9	3823
2026-01-08 12:41:31.34	173.92	20.11	-23.9	-24.4	17.9	0.00e+00	0	43	0	729808896	9	3812
2026-01-08 12:41:32.35	173.97	20.24	-23.8	-24.7	18.0	8.00e-06	0	43	0	735051776	8	4002
2026-01-08 12:41:33.35	174.02	20.37	-23.8	-24.7	18.0	0.00e+00	0	43	0	741343232	8	4010
2026-01-08 12:41:34.36	174.08	20.50	-23.6	-24.2	18.3	0.00e+00	0	43	0	746586112	8	3874
2026-01-08 12:41:35.36	174.13	20.63	-23.4	-23.9	18.4	0.00e+00	0	43	0	751828992	8	3802
2026-01-08 12:41:36.37	174.18	20.77	-23.4	-23.8	18.5	0.00e+00	0	43	0	758120448	8	3789
2026-01-08 12:41:37.37	174.23	20.90	-23.4	-23.9	18.4	0.00e+00	0	43	0	763363328	8	3795
2026-01-08 12:41:38.38	174.28	21.04	-23.3	-23.7	18.6	0.00e+00	0	43	0	769654784	8	3755
2026-01-08 12:41:39.39	174.34	21.17	-23.4	-23.8	18.5	0.00e+00	0	43	0	774897664	8	3774
2026-01-08 12:41:40.40	174.39	21.31	-23.5	-24.0	18.4	0.00e+00	0	43	0	780140544	8	3837
2026-01-08 12:41:41.40	174.44	21.44	-23.5	-24.0	18.4	0.00e+00	0	43	0	786432000	8	3836
2026-01-08 12:41:42.41	174.50	21.58	-23.4	-23.9	18.5	0.00e+00	0	43	0	791674880	8	3805
2026-01-08 12:41:43.42	174.55	21.72	-23.5	-24.1	18.4	0.00e+00	0	43	0	797966336	8	3845
2026-01-08 12:41:44.42	174.61	21.86	-23.6	-24.2	18.3	0.00e+00	0	43	0	803209216	8	3876
2026-01-08 12:41:45.43	174.66	22.00	-23.7	-24.4	18.2	0.00e+00	0	43	0	808452096	8	3935
2026-01-08 12:41:46.43	174.72	22.14	-23.8	-24.7	18.1	0.00e+00	0	43	0	814743552	8	3990
2026-01-08 12:41:47.44	174.78	22.28	-23.8	-24.7	18.1	0.00e+00	0	43	0	819986432	8	4001
2026-01-08 12:41:48.45	174.83	22.42	-23.9	-24.9	18.0	0.00e+00	0	43	0	826277888	8	4050
2026-01-08 12:41:49.45	174.89	22.57	-23.9	-24.9	18.0	0.00e+00	0	43	0	831520768	8	4043
2026-01-08 12:41:50.45	174.95	22.71	-23.8	-24.8	18.0	0.00e+00	0	43	0	836763648	8	4032
2026-01-08 12:41:51.46	175.01	22.85	-23.8	-24.8	18.1	0.00e+00	0	43	0	843055104	8	4016
2026-01-08 12:41:52.46	175.07	23.00	-23.9	-24.9	18.0	0.00e+00	0	43	0	848297984	8	4052
2026-01-08 12:41:53.47	175.12	23.15	-23.9	-25.0	18.0	0.00e+00	0	43	0	854589440	8	4068
2026-01-08 12:41:54.47	175.18	23.29	-23.7	-24.6	18.2	0.00e+00	0	43	0	859832320	8	3980
2026-01-08 12:41:55.48	175.25	23.44	-23.7	-24.5	18.2	0.00e+00	0	43	0	865075200	8	3942
2026-01-08 12:41:56.48	175.31	23.59	-23.7	-24.4	18.3	0.00e+00	0	43	0	871366656	8	3930
2026-01-08 12:41:57.49	175.37	23.74	-23.5	-24.1	18.5	0.00e+00	0	43	0	876609536	8	3854
2026-01-08 12:41:58.49	175.43	23.89	-23.5	-24.1	18.4	0.00e+00	0	43	0	881852416	8	3853
2026-01-08 12:41:59.50	175.49	24.04	-23.6	-24.4	18.3	0.00e+00	0	43	0	888143872	8	3916
2026-01-08 12:42:00.51	175.56	24.19	-23.7	-24.5	18.3	0.00e+00	0	43	0	893386752	8	3946
2026-01-08 12:42:01.51	175.62	24.34	-23.5	-24.1	18.4	0.00e+00	0	43	0	899678208	8	3858
2026-01-08 12:42:02.52	175.69	24.50	-23.4	-23.9	18.5	0.00e+00	0	43	0	904921088	8	3812
2026-01-08 12:42:03.52	175.75	24.65	-23.4	-23.8	18.6	0.00e+00	0	43	0	911212544	8	3784
2026-01-08 12:42:04.53	175.82	24.80	-23.4	-23.8	18.6	0.00e+00	0	43	0	916455424	8	3784
2026-01-08 12:42:05.53	175.88	24.96	-23.4	-24.0	18.5	0.00e+00	0	43	0	921698304	8	3830
2026-01-08 12:42:06.54	175.95	25.12	-23.4	-23.9	18.6	0.00e+00	0	43	0	927989760	8	3806
2026-01-08 12:42:07.55	176.02	25.28	-23.4	-23.8	18.6	0.00e+00	0	43	0	933232640	8	3777
2026-01-08 12:42:08.55	176.09	25.43	-23.2	-23.9	18.8	0.00e+00	0	43	0	938475520	7	3899
2026-01-08 12:42:09.56	176.15	25.59	-23.2	-23.8	18.8	0.00e+00	0	43	0	944766976	7	3899
2026-01-08 12:42:10.57	176.22	25.76	-23.1	-23.7	18.9	0.00e+00	0	43	0	950009856	7	3872
2026-01-08 12:42:11.58	176.30	25.92	-23.0	-23.6	18.9	0.00e+00	0	43	0	956301312	7	3847
2026-01-08 12:42:12.58	176.37	26.08	-23.1	-23.8	18.9	0.00e+00	0	43	0	961544192	7	3880
2026-01-08 12:42:13.59	176.44	26.24	-23.1	-23.7	18.9	0.00e+00	0	43	0	966787072	7	3867
2026-01-08 12:42:14.60	176.51	26.41	-23.1	-23.8	18.8	0.00e+00	0	43	0	973078528	7	3895
2026-01-08 12:42:15.60	176.58	26.57	-23.1	-23.8	18.8	0.00e+00	0	43	0	978321408	7	3897
2026-01-08 12:42:16.60	176.66	26.74	-23.0	-23.5	19.0	0.00e+00	0	43	0	984612864	7	3829
2026-01-08 12:42:17.61	176.73	26.91	-23.0	-23.5	19.0	0.00e+00	0	43	0	989855744	7	3829
2026-01-08 12:42:18.61	176.81	27.07	-23.1	-23.7	18.9	0.00e+00	0	43	0	995098624	7	3861
2026-01-08 12:42:19.62	176.88	27.24	-23.1	-23.7	18.9	0.00e+00	0	43	0	1001390080	7	3866
2026-01-08 12:42:20.62	176.96	27.41	-23.2	-23.9	18.8	0.00e+00	0	43	0	1006632960	7	3915
2026-01-08 12:42:21.63	177.04	27.59	-23.1	-23.8	18.9	0.00e+00	0	43	0	1012924416	7	3904
2026-01-08 12:42:22.64	177.12	27.76	-23.1	-23.7	18.9	2.20e-06	0	43	0	1018167296	7	3858
2026-01-08 12:42:23.65	177.20	27.93	-23.0	-23.6	19.0	0.00e+00	0	43	0	1023410176	7	3845
2026-01-08 12:42:24.66	177.28	28.11	-22.9	-23.4	19.0	0.00e+00	0	43	0	1029701632	7	3804
2026-01-08 12:42:25.66	177.36	28.28	-22.8	-23.2	19.2	2.20e-06	0	43	0	1034944512	7	3757
2026-01-08 12:42:26.66	177.44	28.46	-22.8	-23.5	19.3	0.00e+00	0	43	0	1041235968	6	3928
2026-01-08 12:42:27.66	177.52	28.63	-22.7	-23.4	19.3	0.00e+00	0	43	0	1046478848	6	3905
2026-01-08 12:42:28.67	177.60	28.81	-22.7	-23.4	19.3	0.00e+00	0	43	0	1051721728	6	3900
2026-01-08 12:42:29.68	177.69	28.99	-22.7	-23.4	19.3	0.00e+00	0	43	0	1058013184	6	3908
2026-01-08 12:42:30.68	177.77	29.17	-22.8	-23.6	19.2	0.00e+00	0	43	0	1063256064	6	3952
2026-01-08 12:42:31.69	177.86	29.36	-22.9	-23.9	19.1	2.20e-06	0	43	0	1069547520	6	4025
2026-01-08 12:42:32.70	177.95	29.54	-23.0	-24.1	19.0	0.00e+00	0	43	0	1074790400	6	4068
2026-01-08 12:42:33.70	178.03	29.72	-23.0	-24.1	19.0	0.00e+00	0	43	0	1080033280	6	4059
2026-01-08 12:42:34.71	178.12	29.91	-23.0	-24.0	19.0	0.00e+00	0	43	0	1086324736	6	4050
2026-01-08 12:42:35.71	178.21	30.09	-23.1	-24.2	18.9	0.00e+00	0	43	0	1091567616	6	4099
2026-01-08 12:42:36.72	178.31	30.28	-22.9	-23.8	19.1	0.00e+00	0	43	0	1097859072	6	3998
2026-01-08 12:42:37.73	178.40	30.47	-22.7	-23.4	19.3	0.00e+00	0	43	0	1103101952	6	3902
2026-01-08 12:42:38.73	178.49	30.66	-22.8	-23.6	19.3	0.00e+00	0	43	0	1108344832	6	3940
2026-01-08 12:42:39.73	178.58	30.85	-22.8	-23.5	19.3	0.00e+00	0	43	0	1114636288	6	3937
2026-01-08 12:42:40.74	178.68	31.04	-22.8	-23.7	19.2	0.00e+00	0	43	0	1119879168	6	3978
2026-01-08 12:42:41.75	178.78	31.24	-22.8	-23.7	19.2	0.00e+00	0	43	0	1125122048	6	3979
2026-01-08 12:42:42.75	178.87	31.43	-22.9	-23.7	19.2	0.00e+00	0	43	0	1131413504	6	3986
2026-01-08 12:42:43.76	178.97	31.63	-22.9	-23.9	19.1	0.00e+00	0	43	0	1136656384	6	4040
2026-01-08 12:42:44.77	179.07	31.83	-22.9	-23.8	19.1	0.00e+00	0	43	0	1142947840	6	4010
2026-01-08 12:42:45.78	179.17	32.03	-22.7	-23.5	19.3	0.00e+00	0	43	0	1148190720	6	3918
2026-01-08 12:42:46.79	179.28	32.23	-22.7	-23.4	19.3	0.00e+00	0	43	0	1154482176	6	3912
2026-01-08 12:42:47.79	179.38	32.43	-22.7	-23.4	19.3	0.00e+00	0	43	0	1159725056	6	3908
2026-01-08 12:42:48.80	179.48	32.63	-22.8	-23.6	19.3	0.00e+00	0	43	0	1164967936	6	3941
2026-01-08 12:42:49.80	179.59	32.83	-22.8	-23.6	19.3	0.00e+00	0	43	0	1171259392	6	3941
2026-01-08 12:42:50.80	179.70	33.03	-22.8	-23.6	19.3	0.00e+00	0	43	0	1176502272	6	3953
2026-01-08 12:42:51.81	179.81	33.24	-22.9	-23.9	19.1	0.00e+00	0	43	0	1181745152	6	4029
2026-01-08 12:42:52.82	179.92	33.45	-22.8	-23.6	19.3	0.00e+00	0	43	0	1188036608	6	3942
2026-01-08 12:42:53.82	180.03	33.66	-22.7	-23.3	19.4	0.00e+00	0	43	0	1193279488	6	3884
2026-01-08 12:42:54.83	180.14	33.87	-22.7	-23.3	19.4	0.00e+00	0	43	0	1199570944	6	3888
2026-01-08 12:42:55.84	180.25	34.08	-22.5	-23.1	19.5	0.00e+00	0	43	0	1204813824	6	3833
2026-01-08 12:42:56.84	180.37	34.29	-22.5	-23.0	19.6	0.00e+00	0	43	0	1210056704	6	3801
2026-01-08 12:42:57.85	180.49	34.51	-22.6	-23.2	19.5	0.00e+00	0	43	0	1216348160	6	3853
2026-01-08 12:42:58.86	180.60	34.72	-22.6	-23.3	19.5	0.00e+00	0	43	0	1221591040	6	3870
2026-01-08 12:42:59.86	180.72	34.94	-22.8	-23.6	19.3	0.00e+00	0	43	0	1227882496	6	3950
2026-01-08 12:43:00.86	180.84	35.15	-22.7	-23.4	19.4	0.00e+00	0	43	0	1233125376	6	3897
2026-01-08 12:43:01.87	180.97	35.37	-22.5	-23.0	19.6	0.00e+00	0	43	0	1239416832	6	3820
2026-01-08 12:43:02.87	181.09	35.59	-22.5	-23.1	19.6	0.00e+00	0	43	0	1244659712	6	3829
2026-01-08 12:43:03.88	181.22	35.82	-22.4	-22.8	19.7	0.00e+00	0	43	0	1249902592	6	3755
2026-01-08 12:43:04.89	181.35	36.04	-22.4	-22.9	19.7	0.00e+00	0	43	0	1256194048	6	3780
2026-01-08 12:43:05.89	181.48	36.26	-22.7	-23.4	19.4	0.00e+00	0	43	0	1261436928	6	3913
2026-01-08 12:43:06.89	181.61	36.49	-22.7	-23.4	19.4	0.00e+00	0	43	0	1266679808	6	3914
2026-01-08 12:43:07.90	181.74	36.72	-22.8	-23.6	19.3	0.00e+00	0	43	0	1272971264	6	3949
2026-01-08 12:43:08.91	181.88	36.95	-22.6	-23.2	19.5	0.00e+00	0	43	0	1278214144	6	3850
2026-01-08 12:43:09.91	182.01	37.18	-22.4	-22.9	19.7	0.00e+00	0	43	0	1283457024	6	3776
2026-01-08 12:43:10.92	182.15	37.41	-22.5	-23.1	19.6	0.00e+00	0	43	0	1289748480	6	3824
2026-01-08 12:43:11.92	182.29	37.64	-22.4	-22.9	19.7	0.00e+00	0	43	0	1294991360	6	3774
2026-01-08 12:43:12.93	182.44	37.88	-22.4	-22.7	19.8	0.00e+00	0	43	0	1301282816	6	3741
2026-01-08 12:43:13.93	182.58	38.11	-22.4	-22.8	19.8	0.00e+00	0	43	0	1306525696	6	3756
2026-01-08 12:43:14.94	182.73	38.35	-22.6	-23.1	19.6	0.00e+00	0	43	0	1312817152	6	3832
2026-01-08 12:43:15.95	182.88	38.59	-22.3	-22.6	19.8	0.00e+00	0	43	0	1318060032	6	3723
2026-01-08 12:43:16.95	183.03	38.83	-22.3	-23.0	19.9	0.00e+00	0	43	0	1323302912	5	3902
2026-01-08 12:43:17.96	183.18	39.07	-22.3	-23.1	19.8	0.00e+00	0	43	0	1329594368	5	3943
2026-01-08 12:43:18.97	183.34	39.32	-22.6	-23.7	19.5	1.10e-06	0	43	0	1334837248	5	4091
2026-01-08 12:43:19.98	183.50	39.57	-22.5	-23.5	19.7	0.00e+00	0	43	0	1341128704	5	4034
2026-01-08 12:43:20.98	183.66	39.81	-22.5	-23.6	19.6	0.00e+00	0	43	0	1346371584	5	4052
2026-01-08 12:43:21.99	183.82	40.06	-22.7	-24.0	19.4	0.00e+00	0	43	0	1351614464	5	4157
2026-01-08 12:43:23.00	183.98	40.31	-22.6	-23.6	19.6	0.00e+00	0	43	0	1357905920	5	4066
2026-01-08 12:43:24.01	184.15	40.56	-22.4	-23.3	19.8	0.00e+00	0	43	0	1363148800	5	3986
2026-01-08 12:43:25.02	184.32	40.82	-22.6	-23.6	19.6	0.00e+00	0	43	0	1369440256	5	4058
2026-01-08 12:43:26.02	184.50	41.07	-22.5	-23.4	19.8	0.00e+00	0	43	0	1374683136	5	4013
2026-01-08 12:43:27.03	184.67	41.33	-22.8	-24.1	19.5	0.00e+00	0	43	0	1379926016	5	4171
2026-01-08 12:43:28.04	184.85	41.59	-22.8	-24.2	19.4	0.00e+00	0	43	0	1386217472	5	4203
2026-01-08 12:43:29.04	185.03	41.84	-23.0	-24.1	19.2	0.00e+00	0	43	0	1391460352	6	4067
2026-01-08 12:43:30.05	185.22	42.10	-22.8	-23.5	19.5	0.00e+00	0	43	0	1397751808	6	3924
2026-01-08 12:43:31.06	185.40	42.37	-22.6	-23.3	19.6	0.00e+00	0	43	0	1402994688	6	3863
2026-01-08 12:43:32.07	185.59	42.63	-22.8	-23.6	19.5	0.00e+00	0	43	0	1409286144	6	3935
2026-01-08 12:43:33.07	185.79	42.90	-22.8	-23.5	19.5	0.00e+00	0	43	0	1414529024	6	3921
2026-01-08 12:43:34.08	185.98	43.16	-22.8	-23.7	19.4	0.00e+00	0	43	0	1419771904	6	3969
2026-01-08 12:43:35.09	186.18	43.43	-22.9	-23.8	19.3	0.00e+00	0	43	0	1426063360	6	4004
2026-01-08 12:43:36.09	186.38	43.70	-22.8	-23.6	19.4	0.00e+00	0	43	0	1431306240	6	3935
2026-01-08 12:43:37.10	186.59	43.97	-22.8	-23.6	19.4	0.00e+00	0	43	0	1436549120	6	3941
2026-01-08 12:43:38.11	186.80	44.25	-23.1	-24.3	19.1	0.00e+00	0	43	0	1442840576	6	4111
2026-01-08 12:43:39.11	187.01	44.52	-23.2	-24.4	19.0	0.00e+00	0	43	0	1448083456	6	4150
2026-01-08 12:43:40.12	187.23	44.80	-23.4	-25.0	18.8	0.00e+00	0	43	0	1454374912	6	4286
2026-01-08 12:43:41.13	187.45	45.07	-23.2	-24.4	19.1	0.00e+00	0	43	0	1459617792	6	4141
2026-01-08 12:43:42.13	187.67	45.35	-23.0	-24.1	19.2	0.00e+00	0	43	0	1464860672	6	4055
2026-01-08 12:43:43.14	187.90	45.63	-23.0	-24.0	19.3	0.00e+00	0	43	0	1471152128	6	4033
2026-01-08 12:43:44.15	188.14	45.91	-23.0	-24.0	19.3	0.00e+00	0	43	0	1476395008	6	4049
2026-01-08 12:43:45.16	188.37	46.20	-22.7	-23.3	19.7	0.00e+00	0	43	0	1482686464	6	3873
2026-01-08 12:43:46.16	188.61	46.48	-22.7	-23.3	19.7	0.00e+00	0	43	0	1487929344	6	3876
2026-01-08 12:43:47.17	188.86	46.77	-22.9	-23.8	19.4	0.00e+00	0	43	0	1494220800	6	3977
2026-01-08 12:43:48.17	189.11	47.05	-22.9	-23.9	19.4	0.00e+00	0	43	0	1499463680	6	4008
2026-01-08 12:43:49.18	189.36	47.34	-23.1	-24.3	19.2	0.00e+00	0	43	0	1504706560	6	4104
2026-01-08 12:43:50.18	189.62	47.63	-23.0	-24.0	19.3	0.00e+00	0	43	0	1510998016	6	4048
2026-01-08 12:43:51.18	189.88	47.92	-22.9	-23.7	19.5	0.00e+00	0	43	0	1516240896	6	3965
2026-01-08 12:43:52.19	190.15	48.21	-22.8	-23.6	19.5	0.00e+00	0	43	0	1521483776	6	3936
2026-01-08 12:43:53.20	190.42	48.51	-22.9	-23.8	19.4	0.00e+00	0	43	0	1527775232	6	3990
2026-01-08 12:43:54.20	190.70	48.80	-22.9	-23.9	19.4	0.00e+00	0	43	0	1533018112	6	4002
2026-01-08 12:43:55.21	190.99	49.10	-23.3	-24.7	19.0	0.00e+00	0	43	0	1539309568	6	4216
2026-01-08 12:43:56.21	191.27	49.40	-23.4	-24.9	18.8	0.00e+00	0	43	0	1544552448	6	4273
2026-01-08 12:43:57.22	191.57	49.70	-23.3	-24.5	19.0	0.00e+00	0	43	0	1550843904	6	4174
2026-01-08 12:43:58.23	191.87	50.00	-23.3	-24.6	19.1	0.00e+00	0	43	0	1556086784	6	4176
2026-01-08 12:43:59.23	192.18	50.30	-23.3	-24.7	19.0	0.00e+00	0	43	0	1561329664	6	4198
2026-01-08 12:44:00.24	192.49	50.60	-23.3	-24.5	19.1	0.00e+00	0	43	0	1567621120	6	4161
2026-01-08 12:44:01.25	192.81	50.90	-23.1	-24.2	19.2	0.00e+00	0	43	0	1572864000	6	4094
2026-01-08 12:44:02.26	193.14	51.21	-23.1	-24.2	19.3	0.00e+00	0	44	0	1578106880	6	4069
2026-01-08 12:44:03.27	193.47	51.52	-23.3	-24.5	19.1	0.00e+00	0	43	0	1584398336	6	4156
2026-01-08 12:44:04.27	193.81	51.82	-23.7	-24.9	18.7	0.00e+00	0	43	0	1589641216	7	4135
2026-01-08 12:44:05.28	194.15	52.13	-24.0	-25.1	18.3	0.00e+00	0	43	0	1595932672	8	4083
2026-01-08 12:44:06.28	194.50	52.44	-23.7	-24.4	18.7	0.00e+00	0	43	0	1601175552	8	3905
2026-01-08 12:44:07.28	194.86	52.74	-23.6	-24.2	18.8	0.00e+00	0	43	0	1606418432	8	3868
2026-01-08 12:44:08.29	195.23	53.06	-23.8	-24.6	18.6	0.00e+00	0	43	0	1612709888	8	3965
2026-01-08 12:44:09.29	195.60	53.36	-23.7	-24.3	18.7	0.00e+00	0	43	0	1617952768	8	3899
2026-01-08 12:44:10.30	195.99	53.68	-23.5	-24.1	18.9	0.00e+00	0	43	0	1624244224	8	3833
2026-01-08 12:44:11.30	196.38	53.99	-23.8	-24.7	18.6	0.00e+00	0	43	0	1629487104	8	3971
2026-01-08 12:44:12.31	196.78	54.30	-24.0	-25.0	18.4	0.00e+00	0	43	0	1635778560	8	4063
2026-01-08 12:44:13.32	197.19	54.61	-24.2	-25.5	18.1	0.00e+00	0	43	0	1641021440	8	4198
2026-01-08 12:44:14.33	197.61	54.93	-24.0	-25.2	18.3	0.00e+00	0	43	0	1646264320	8	4106
2026-01-08 12:44:15.34	198.04	55.24	-23.7	-24.5	18.7	0.00e+00	0	43	0	1652555776	8	3935
2026-01-08 12:44:16.33	198.47	55.55	-23.8	-24.7	18.5	0.00e+00	0	43	0	1657798656	8	3992
2026-01-08 12:44:17.34	198.92	55.87	-24.0	-25.1	18.4	0.00e+00	0	43	0	1663041536	8	4080
2026-01-08 12:44:18.34	199.37	56.18	-23.9	-24.9	18.4	0.00e+00	0	43	0	1669332992	8	4035
2026-01-08 12:44:19.35	199.84	56.50	-24.0	-25.1	18.3	0.00e+00	0	43	0	1674575872	8	4090
2026-01-08 12:44:20.36	200.32	56.81	-23.8	-24.7	18.6	0.00e+00	0	43	0	1679818752	8	3997
2026-01-08 12:44:21.37	200.81	57.13	-23.7	-24.5	18.7	0.00e+00	0	43	0	1686110208	8	3940
2026-01-08 12:44:22.37	201.31	57.44	-24.0	-25.0	18.5	0.00e+00	0	43	0	1691353088	8	4052
2026-01-08 12:44:23.37	201.82	57.75	-24.0	-25.1	18.4	0.00e+00	0	43	0	1697644544	8	4085
2026-01-08 12:44:24.39	202.35	58.07	-24.3	-25.7	18.1	0.00e+00	0	43	0	1702887424	8	4241
2026-01-08 12:44:25.40	202.88	58.38	-24.2	-25.6	18.1	0.00e+00	0	43	0	1709178880	8	4213
2026-01-08 12:44:26.40	203.43	58.69	-23.8	-24.6	18.7	0.00e+00	0	43	0	1714421760	8	3948
2026-01-08 12:44:27.41	203.99	59.00	-23.5	-24.1	18.9	0.00e+00	0	43	0	1719664640	8	3832
2026-01-08 12:44:28.41	204.56	59.31	-23.3	-23.6	19.2	0.00e+00	0	43	0	1725956096	8	3733
2026-01-08 12:44:29.42	205.15	59.62	-23.3	-23.7	19.1	0.00e+00	0	43	0	1731198976	8	3757
2026-01-08 12:44:30.43	205.76	59.93	-23.3	-23.7	19.1	0.00e+00	0	43	0	1737490432	8	3744
2026-01-08 12:44:31.43	206.37	60.23	-23.1	-23.7	19.3	0.00e+00	0	43	0	1742733312	7	3860
2026-01-08 12:44:32.44	207.00	60.54	-23.4	-24.2	19.1	0.00e+00	0	44	0	1747976192	7	3974
2026-01-08 12:44:33.45	207.65	60.84	-23.5	-24.5	18.9	0.00e+00	0	43	0	1754267648	7	4053
2026-01-08 12:44:34.46	208.32	61.15	-22.8	-23.1	19.6	0.00e+00	0	44	0	1759510528	7	3728
2026-01-08 12:44:35.47	209.00	61.45	-22.1	-22.6	20.5	0.00e+00	0	44	0	1765801984	5	3806
2026-01-08 12:44:36.48	209.69	61.74	-22.1	-22.6	20.5	0.00e+00	0	44	0	1771044864	5	3799
2026-01-08 12:44:37.48	210.40	62.04	-22.4	-23.3	20.2	0.00e+00	0	43	0	1776287744	5	3965
2026-01-08 12:44:38.48	211.12	62.33	-22.4	-23.1	20.3	0.00e+00	0	43	0	1782579200	5	3921
2026-01-08 12:44:39.49	211.87	62.62	-22.3	-22.9	20.4	0.00e+00	0	43	0	1787822080	5	3875
2026-01-08 12:44:40.49	212.63	62.90	-22.3	-23.0	20.3	0.00e+00	0	43	0	1793064960	5	3893
2026-01-08 12:44:41.49	213.41	63.18	-22.2	-22.7	20.5	0.00e+00	0	44	0	1799356416	5	3837
2026-01-08 12:44:42.50	214.21	63.46	-22.4	-23.2	20.2	0.00e+00	0	43	0	1804599296	5	3945
2026-01-08 12:44:43.51	215.03	63.74	-22.4	-23.2	20.2	0.00e+00	0	44	0	1810890752	5	3932
2026-01-08 12:44:44.52	215.88	64.01	-22.2	-22.7	20.4	0.00e+00	0	43	0	1816133632	5	3834
2026-01-08 12:44:45.53	216.74	64.28	-22.3	-23.0	20.4	0.00e+00	0	44	0	1822425088	5	3884
2026-01-08 12:44:46.54	217.62	64.55	-22.4	-23.2	20.2	0.00e+00	0	44	0	1827667968	5	3948
2026-01-08 12:44:47.54	218.51	64.81	-22.5	-23.4	20.1	0.00e+00	0	44	0	1832910848	5	3997
2026-01-08 12:44:48.55	219.44	65.06	-22.3	-23.0	20.3	0.00e+00	0	43	0	1839202304	5	3894
2026-01-08 12:44:49.56	220.38	65.31	-21.9	-22.2	20.7	0.00e+00	0	43	0	1844445184	5	3723
2026-01-08 12:44:50.56	221.33	65.56	-22.2	-22.8	20.4	0.00e+00	0	43	0	1849688064	5	3849
2026-01-08 12:44:51.56	222.31	65.79	-22.3	-22.9	20.4	0.00e+00	0	43	0	1855979520	5	3882
2026-01-08 12:44:52.57	223.32	66.03	-22.1	-22.7	20.5	0.00e+00	0	43	0	1861222400	5	3821
2026-01-08 12:44:53.57	224.34	66.25	-22.4	-23.2	20.3	0.00e+00	0	43	0	1867513856	5	3939
2026-01-08 12:44:54.58	225.39	66.48	-22.4	-23.1	20.3	0.00e+00	0	43	0	1872756736	5	3929
2026-01-08 12:44:55.58	226.45	66.69	-22.3	-23.0	20.4	0.00e+00	0	43	0	1879048192	5	3888
2026-01-08 12:44:56.59	227.54	66.90	-22.1	-22.5	20.6	0.00e+00	0	43	0	1884291072	5	3776
2026-01-08 12:44:57.60	228.66	67.10	-22.2	-22.8	20.4	0.00e+00	0	44	0	1889533952	5	3849
2026-01-08 12:44:58.60	229.78	67.29	-22.6	-23.7	20.0	0.00e+00	0	43	0	1895825408	5	4068
2026-01-08 12:44:59.61	230.94	67.47	-23.0	-24.0	19.6	0.00e+00	0	44	0	1901068288	6	4030
2026-01-08 12:45:00.61	232.10	67.65	-22.6	-23.0	20.1	0.00e+00	0	43	0	1907359744	6	3794
2026-01-08 12:45:01.62	233.30	67.82	-22.2	-22.8	20.5	0.00e+00	0	43	0	1912602624	5	3844
2026-01-08 12:45:02.63	234.51	67.98	-22.3	-22.9	20.4	0.00e+00	0	43	0	1917845504	5	3874
2026-01-08 12:45:03.63	235.73	68.13	-22.2	-22.7	20.5	0.00e+00	0	44	0	1924136960	5	3823
2026-01-08 12:45:04.64	236.98	68.27	-22.1	-22.6	20.6	0.00e+00	0	44	0	1929379840	5	3810
2026-01-08 12:45:05.65	238.25	68.40	-22.3	-23.0	20.4	0.00e+00	0	44	0	1934622720	5	3884
2026-01-08 12:45:06.65	239.53	68.53	-22.5	-23.5	20.1	0.00e+00	0	43	0	1940914176	5	4015
2026-01-08 12:45:07.66	240.83	68.64	-22.4	-23.2	20.3	0.00e+00	0	43	0	1946157056	5	3953
2026-01-08 12:45:08.67	242.14	68.74	-22.0	-22.4	20.7	0.00e+00	0	43	0	1952448512	5	3760
2026-01-08 12:45:09.68	243.47	68.83	-21.8	-22.0	20.9	0.00e+00	0	44	0	1957691392	5	3662
2026-01-08 12:45:10.68	244.79	68.92	-21.9	-22.6	20.8	0.00e+00	0	44	0	1963982848	4	3919
2026-01-08 12:45:11.69	246.14	68.99	-22.0	-22.8	20.7	0.00e+00	0	44	0	1969225728	4	3957
2026-01-08 12:45:12.69	247.49	69.05	-21.7	-22.2	21.0	0.00e+00	0	43	0	1974468608	4	3816
2026-01-08 12:45:13.70	248.86	69.10	-21.6	-22.1	21.1	0.00e+00	0	44	0	1980760064	4	3787
2026-01-08 12:45:14.70	250.22	69.14	-22.0	-22.9	20.7	0.00e+00	0	43	0	1986002944	4	3978
2026-01-08 12:45:15.71	251.60	69.17	-21.9	-22.7	20.8	0.00e+00	0	43	0	1991245824	4	3925
2026-01-08 12:45:16.71	252.96	69.18	-21.6	-21.9	21.2	0.00e+00	0	44	0	1997537280	4	3760
2026-01-08 12:45:17.72	254.35	69.19	-21.7	-22.3	21.0	0.00e+00	0	43	0	2002780160	4	3839
2026-01-08 12:45:18.73	255.73	69.19	-21.7	-22.3	21.0	0.00e+00	0	43	0	2009071616	4	3840
2026-01-08 12:45:19.74	257.11	69.17	-21.9	-22.5	20.9	0.00e+00	0	44	0	2014314496	4	3895
2026-01-08 12:45:20.75	258.49	69.14	-22.0	-22.9	20.7	0.00e+00	0	44	0	2019557376	4	3972
2026-01-08 12:45:21.75	259.85	69.10	-21.9	-22.7	20.8	0.00e+00	0	44	0	2025848832	4	3944
2026-01-08 12:45:22.76	261.22	69.06	-22.0	-22.8	20.7	0.00e+00	0	43	0	2031091712	4	3959
2026-01-08 12:45:23.76	262.56	69.00	-22.0	-22.8	20.7	0.00e+00	0	43	0	2037383168	4	3966
2026-01-08 12:45:24.76	263.90	68.93	-21.9	-22.6	20.8	0.00e+00	0	44	0	2042626048	4	3908
2026-01-08 12:45:25.78	265.25	68.84	-21.8	-22.4	21.0	0.00e+00	0	44	0	2048917504	4	3860
2026-01-08 12:45:26.79	266.58	68.75	-22.1	-23.0	20.6	0.00e+00	0	44	0	2054160384	4	4017
2026-01-08 12:45:27.79	267.88	68.65	-21.9	-22.7	20.8	0.00e+00	0	44	0	2059403264	4	3936
2026-01-08 12:45:28.80	269.19	68.54	-21.9	-22.7	20.8	0.00e+00	0	44	0	2065694720	4	3938
2026-01-08 12:45:29.81	270.47	68.42	-21.9	-22.6	20.9	0.00e+00	0	43	0	2070937600	4	3904
2026-01-08 12:45:30.81	271.73	68.29	-21.7	-22.2	21.0	0.00e+00	0	43	0	2076180480	4	3816
2026-01-08 12:45:31.81	272.97	68.15	-21.9	-22.5	20.9	0.00e+00	0	44	0	2082471936	4	3893
2026-01-08 12:45:32.82	274.20	68.00	-22.2	-23.4	20.5	1.10e-06	0	44	0	2087714816	4	4100
2026-01-08 12:45:33.83	275.42	67.84	-22.3	-23.6	20.4	0.00e+00	0	44	0	2094006272	4	4150
2026-01-08 12:45:34.84	276.62	67.67	-22.1	-23.0	20.6	0.00e+00	0	43	0	2099249152	4	3997
2026-01-08 12:45:35.85	277.79	67.49	-22.3	-23.5	20.4	0.00e+00	0	43	0	2104492032	4	4123
2026-01-08 12:45:36.86	278.95	67.31	-22.3	-23.4	20.5	0.00e+00	0	44	0	2110783488	4	4109
2026-01-08 12:45:37.87	280.09	67.12	-22.1	-23.0	20.7	0.00e+00	0	43	0	2116026368	4	4004
2026-01-08 12:45:38.87	281.19	66.92	-22.1	-23.0	20.6	0.00e+00	0	44	0	2122317824	4	4016
2026-01-08 12:45:39.88	282.29	66.71	-22.2	-23.3	20.5	0.00e+00	0	43	0	2127560704	4	4078
2026-01-08 12:45:40.89	283.36	66.50	-22.0	-22.9	20.7	0.00e+00	0	43	0	2133852160	4	3970
2026-01-08 12:45:41.90	284.41	66.28	-22.1	-23.1	20.6	0.00e+00	0	44	0	2139095040	4	4027
2026-01-08 12:45:42.90	285.43	66.05	-22.2	-23.3	20.5	0.00e+00	0	44	0	2144337920	4	4074
2026-01-08 12:45:43.91	286.44	65.82	-22.3	-23.5	20.4	0.00e+00	0	43	0	2150629376	4	4132
2026-01-08 12:45:44.91	287.42	65.58	-22.3	-23.5	20.4	0.00e+00	0	44	0	2155872256	4	4117
2026-01-08 12:45:45.92	288.38	65.34	-22.5	-23.8	20.2	0.00e+00	0	44	0	2162163712	4	4218
2026-01-08 12:45:46.93	289.33	65.09	-22.4	-23.6	20.3	0.00e+00	0	44	0	2167406592	4	4156
2026-01-08 12:45:47.92	290.23	64.84	-22.4	-23.7	20.2	0.00e+00	0	43	0	2172649472	4	4174
2026-01-08 12:45:48.94	291.14	64.58	-22.7	-23.8	19.9	0.00e+00	0	44	0	2178940928	5	4092
2026-01-08 12:45:49.94	292.02	64.32	-22.3	-23.0	20.3	0.00e+00	0	44	0	2184183808	5	3896
2026-01-08 12:45:50.94	292.87	64.05	-22.2	-22.7	20.5	0.00e+00	0	44	0	2189426688	5	3829
2026-01-08 12:45:51.95	293.72	63.78	-21.6	-22.6	18.7	0.00e+00	0	44	0	2195718144	4	4075
2026-01-08 12:45:52.96	294.54	63.50	-20.8	-22.5	16.8	0.00e+00	0	44	0	2200961024	3	4353
2026-01-08 12:45:53.96	295.34	63.22	-21.2	-23.2	16.5	0.00e+00	0	44	0	2207252480	3	4554
2026-01-08 12:45:54.96	296.11	62.94	-21.8	-23.8	18.0	0.00e+00	0	43	0	2212495360	3	4528
2026-01-08 12:45:55.97	296.88	62.66	-22.0	-23.2	19.7	0.00e+00	0	44	0	2218786816	4	4103
2026-01-08 12:45:56.98	297.63	62.37	-22.4	-23.7	20.0	0.00e+00	0	44	0	2224029696	4	4196
2026-01-08 12:45:57.98	298.35	62.08	-22.6	-23.7	19.7	0.00e+00	0	44	0	2229272576	5	4089
2026-01-08 12:45:58.99	299.07	61.78	-22.8	-24.1	19.6	0.00e+00	0	43	0	2235564032	5	4183
2026-01-08 12:46:00.00	299.77	61.49	-22.7	-23.8	19.8	0.00e+00	0	44	0	2240806912	5	4102
2026-01-08 12:46:01.00	300.44	61.19	-22.7	-23.9	19.8	0.00e+00	0	44	0	2246049792	5	4118
2026-01-08 12:46:02.01	301.11	60.89	-22.6	-23.6	20.0	0.00e+00	0	44	0	2252341248	5	4045
2026-01-08 12:46:03.02	301.76	60.59	-22.4	-23.3	20.2	0.00e+00	0	44	0	2257584128	5	3960
2026-01-08 12:46:04.03	302.39	60.28	-22.7	-23.9	20.0	0.00e+00	0	44	0	2263875584	5	4116
2026-01-08 12:46:05.04	303.01	59.97	-22.9	-24.2	19.8	0.00e+00	0	44	0	2269118464	5	4201
2026-01-08 12:46:06.05	303.62	59.67	-23.0	-24.4	19.7	0.00e+00	0	44	0	2274361344	5	4242
2026-01-08 12:46:07.05	304.20	59.36	-22.8	-24.1	19.9	0.00e+00	0	44	0	2280652800	5	4152
2026-01-08 12:46:08.06	304.78	59.05	-23.1	-24.0	19.6	0.00e+00	0	43	0	2285895680	6	4030
2026-01-08 12:46:09.06	305.34	58.74	-23.2	-24.4	19.4	0.00e+00	0	44	0	2292187136	6	4130
2026-01-08 12:46:10.07	305.89	58.43	-23.4	-24.8	19.2	0.00e+00	0	43	0	2297430016	6	4226
2026-01-08 12:46:11.07	306.42	58.12	-23.2	-24.3	19.5	0.00e+00	0	44	0	2302672896	6	4099
2026-01-08 12:46:12.08	306.95	57.81	-23.1	-24.1	19.6	0.00e+00	0	43	0	2308964352	6	4053
2026-01-08 12:46:13.09	307.46	57.50	-23.5	-24.9	19.2	0.00e+00	0	43	0	2314207232	6	4226
2026-01-08 12:46:14.09	307.96	57.18	-23.8	-25.0	18.9	0.00e+00	0	44	0	2320498688	7	4165
2026-01-08 12:46:15.10	308.45	56.87	-24.0	-25.2	18.6	0.00e+00	0	44	0	2325741568	8	4090
2026-01-08 12:46:16.10	308.92	56.56	-23.9	-24.9	18.7	0.00e+00	0	44	0	2330984448	8	4034
2026-01-08 12:46:17.10	309.39	56.25	-23.8	-24.6	18.9	0.00e+00	0	43	0	2337275904	8	3949
2026-01-08 12:46:18.11	309.85	55.93	-24.1	-25.3	18.5	0.00e+00	0	44	0	2342518784	8	4111
2026-01-08 12:46:19.13	310.30	55.62	-24.0	-25.1	18.7	0.00e+00	0	44	0	2348810240	8	4053
2026-01-08 12:46:20.13	310.74	55.30	-24.4	-25.8	18.3	0.00e+00	0	43	0	2354053120	8	4234
2026-01-08 12:46:21.14	311.17	54.99	-24.1	-25.3	18.5	0.00e+00	0	43	0	2359296000	8	4110
2026-01-08 12:46:22.15	311.59	54.68	-23.8	-24.7	18.8	0.00e+00	0	43	0	2365587456	8	3973
2026-01-08 12:46:23.16	312.00	54.36	-23.6	-24.2	19.1	0.00e+00	0	43	0	2370830336	8	3855
2026-01-08 12:46:24.17	312.40	54.05	-23.5	-24.0	19.2	0.00e+00	0	44	0	2377121792	8	3811
2026-01-08 12:46:25.18	312.79	53.74	-23.8	-24.6	18.9	0.00e+00	0	43	0	2382364672	8	3946
2026-01-08 12:46:26.18	313.18	53.43	-23.7	-24.4	19.0	0.00e+00	0	44	0	2388656128	8	3909
2026-01-08 12:46:27.19	313.55	53.12	-23.8	-24.6	18.9	0.00e+00	0	43	0	2393899008	8	3942
2026-01-08 12:46:28.19	313.92	52.81	-23.5	-24.0	19.2	0.00e+00	0	44	0	2399141888	8	3809
2026-01-08 12:46:29.20	314.28	52.50	-23.6	-24.1	19.1	0.00e+00	0	44	0	2405433344	8	3830
2026-01-08 12:46:30.21	314.64	52.20	-23.8	-24.6	18.8	0.00e+00	0	44	0	2410676224	8	3947
2026-01-08 12:46:31.22	314.98	51.89	-23.8	-24.6	18.9	0.00e+00	0	44	0	2416967680	8	3943
2026-01-08 12:46:32.21	315.32	51.59	-23.9	-24.8	18.8	0.00e+00	0	43	0	2422210560	8	3989
2026-01-08 12:46:33.22	315.65	51.28	-23.8	-24.7	18.8	0.00e+00	0	43	0	2427453440	8	3968
2026-01-08 12:46:34.22	315.97	50.98	-23.4	-23.8	19.3	0.00e+00	0	43	0	2433744896	8	3766
2026-01-08 12:46:35.22	316.29	50.68	-23.2	-23.9	19.4	0.00e+00	0	43	0	2438987776	7	3887
2026-01-08 12:46:36.23	316.61	50.38	-23.2	-23.9	19.4	0.00e+00	0	43	0	2444230656	7	3890
2026-01-08 12:46:37.24	316.91	50.07	-23.2	-23.8	19.5	0.00e+00	0	44	0	2450522112	7	3868
2026-01-08 12:46:38.24	317.21	49.78	-23.2	-23.8	19.4	0.00e+00	0	43	0	2455764992	7	3869
2026-01-08 12:46:39.25	317.51	49.48	-23.1	-23.7	19.5	0.00e+00	0	44	0	2462056448	7	3847
2026-01-08 12:46:40.26	317.80	49.18	-23.1	-23.6	19.5	0.00e+00	0	44	0	2467299328	7	3824
2026-01-08 12:46:41.26	318.08	48.89	-22.8	-23.0	19.9	0.00e+00	0	43	0	2472542208	7	3676
2026-01-08 12:46:42.27	318.36	48.59	-22.7	-23.4	19.9	0.00e+00	0	43	0	2478833664	6	3872
2026-01-08 12:46:43.27	318.64	48.30	-22.9	-23.7	19.7	0.00e+00	0	44	0	2484076544	6	3951
2026-01-08 12:46:44.28	318.91	48.01	-23.0	-24.0	19.6	0.00e+00	0	44	0	2490368000	6	4024
2026-01-08 12:46:45.28	319.17	47.72	-23.1	-24.1	19.5	0.00e+00	0	44	0	2495610880	6	4062
2026-01-08 12:46:46.29	319.43	47.43	-23.1	-24.2	19.5	0.00e+00	0	44	0	2500853760	6	4072
2026-01-08 12:46:47.29	319.68	47.14	-23.1	-24.1	19.5	0.00e+00	0	44	0	2507145216	6	4056
2026-01-08 12:46:48.30	319.93	46.86	-23.1	-24.2	19.5	0.00e+00	0	43	0	2512388096	6	4078
2026-01-08 12:46:49.31	320.18	46.57	-23.1	-24.1	19.5	0.00e+00	0	44	0	2517630976	6	4047
2026-01-08 12:46:50.32	320.42	46.28	-23.0	-24.0	19.6	0.00e+00	0	43	0	2523922432	6	4017
2026-01-08 12:46:51.32	320.66	46.00	-22.9	-23.7	19.7	0.00e+00	0	44	0	2529165312	6	3961
2026-01-08 12:46:52.33	320.89	45.72	-23.0	-23.9	19.6	0.00e+00	0	44	0	2535456768	6	3992
2026-01-08 12:46:53.33	321.12	45.45	-23.0	-24.0	19.6	0.00e+00	0	44	0	2540699648	6	4019
2026-01-08 12:46:54.33	321.34	45.17	-22.9	-23.7	19.7	0.00e+00	0	44	0	2546991104	6	3961
2026-01-08 12:46:55.34	321.56	44.89	-23.0	-24.0	19.6	0.00e+00	0	43	0	2552233984	6	4020
2026-01-08 12:46:56.35	321.78	44.62	-23.0	-23.9	19.6	0.00e+00	0	44	0	2557476864	6	3993
2026-01-08 12:46:57.36	321.99	44.34	-23.0	-23.9	19.6	0.00e+00	0	43	0	2563768320	6	4011
2026-01-08 12:46:58.37	322.20	44.07	-23.0	-23.9	19.6	0.00e+00	0	44	0	2569011200	6	4002
2026-01-08 12:46:59.38	322.41	43.80	-23.0	-23.9	19.6	0.00e+00	0	44	0	2575302656	6	4002
2026-01-08 12:47:00.38	322.61	43.53	-22.8	-23.4	19.8	0.00e+00	0	43	0	2580545536	6	3886
2026-01-08 12:47:01.39	322.81	43.26	-22.6	-23.1	20.0	0.00e+00	0	43	0	2585788416	6	3805
2026-01-08 12:47:02.39	323.01	43.00	-22.6	-23.0	20.0	0.00e+00	0	43	0	2592079872	6	3791
2026-01-08 12:47:03.40	323.20	42.73	-22.6	-23.2	20.0	0.00e+00	0	44	0	2597322752	6	3822
2026-01-08 12:47:04.40	323.39	42.47	-22.6	-23.1	20.0	0.00e+00	0	44	0	2602565632	6	3809
2026-01-08 12:47:05.41	323.58	42.21	-22.7	-23.2	19.9	0.00e+00	0	44	0	2608857088	6	3847
2026-01-08 12:47:06.42	323.77	41.95	-22.7	-23.3	19.9	0.00e+00	0	43	0	2614099968	6	3859
2026-01-08 12:47:07.42	323.95	41.69	-22.8	-23.5	19.8	0.00e+00	0	44	0	2620391424	6	3915
2026-01-08 12:47:08.43	324.13	41.44	-22.8	-23.4	19.8	0.00e+00	0	44	0	2625634304	6	3890
2026-01-08 12:47:09.44	324.30	41.18	-22.5	-22.9	20.1	0.00e+00	0	44	0	2631925760	6	3760
2026-01-08 12:47:10.44	324.47	40.93	-22.4	-22.7	20.2	0.00e+00	0	44	0	2637168640	6	3715
2026-01-08 12:47:11.45	324.65	40.67	-22.4	-22.7	20.2	0.00e+00	0	44	0	2642411520	6	3731
2026-01-08 12:47:12.45	324.81	40.42	-22.5	-22.9	20.1	0.00e+00	0	44	0	2648702976	6	3765
2026-01-08 12:47:13.46	324.98	40.17	-22.6	-23.1	20.0	0.00e+00	0	44	0	2653945856	6	3813
2026-01-08 12:47:14.46	325.14	39.93	-22.6	-23.2	20.0	0.00e+00	0	44	0	2660237312	6	3829
2026-01-08 12:47:15.47	325.30	39.68	-22.6	-23.2	19.9	0.00e+00	0	44	0	2665480192	6	3832
2026-01-08 12:47:16.48	325.46	39.44	-22.6	-23.1	20.0	0.00e+00	0	44	0	2670723072	6	3807
2026-01-08 12:47:17.49	325.62	39.19	-22.6	-23.2	19.9	0.00e+00	0	43	0	2677014528	6	3841
2026-01-08 12:47:18.50	325.77	38.95	-22.6	-23.2	19.9	0.00e+00	0	44	0	2682257408	6	3838
2026-01-08 12:47:19.50	325.92	38.71	-22.5	-23.0	20.0	0.00e+00	0	44	0	2687500288	6	3783
2026-01-08 12:47:20.50	326.07	38.47	-22.7	-23.3	19.9	0.00e+00	0	44	0	2693791744	6	3857
2026-01-08 12:47:21.51	326.22	38.24	-22.7	-23.3	19.9	0.00e+00	0	44	0	2699034624	6	3850
2026-01-08 12:47:22.51	326.36	38.00	-22.5	-22.8	20.1	0.00e+00	0	44	0	2705326080	6	3757
2026-01-08 12:47:23.52	326.51	37.77	-22.5	-22.9	20.1	0.00e+00	0	43	0	2710568960	6	3765
2026-01-08 12:47:24.53	326.65	37.53	-22.5	-22.9	20.0	0.00e+00	0	44	0	2716860416	6	3774
2026-01-08 12:47:25.53	326.79	37.30	-22.7	-23.2	19.9	0.00e+00	0	43	0	2722103296	6	3847
2026-01-08 12:47:26.54	326.93	37.07	-22.6	-23.1	19.9	0.00e+00	0	43	0	2727346176	6	3829
2026-01-08 12:47:27.55	327.06	36.84	-22.5	-22.8	20.1	0.00e+00	0	44	0	2733637632	6	3753
2026-01-08 12:47:28.55	327.20	36.62	-22.4	-22.7	20.1	0.00e+00	0	44	0	2738880512	6	3731
2026-01-08 12:47:29.56	327.33	36.39	-22.4	-22.6	20.2	0.00e+00	0	43	0	2744123392	6	3707
2026-01-08 12:47:30.56	327.46	36.17	-22.3	-22.5	20.2	0.00e+00	0	43	0	2750414848	6	3684
2026-01-08 12:47:31.57	327.59	35.94	-22.5	-22.8	20.1	0.00e+00	0	44	0	2755657728	6	3749
2026-01-08 12:47:32.58	327.71	35.72	-22.6	-23.1	19.9	0.00e+00	0	43	0	2761949184	6	3806
2026-01-08 12:47:33.58	327.84	35.50	-22.7	-23.2	19.8	0.00e+00	0	43	0	2767192064	6	3845
2026-01-08 12:47:34.59	327.96	35.28	-22.8	-23.5	19.7	0.00e+00	0	44	0	2772434944	6	3918
2026-01-08 12:47:35.59	328.08	35.07	-22.9	-23.7	19.6	0.00e+00	0	44	0	2778726400	6	3960
2026-01-08 12:47:36.60	328.21	34.85	-23.0	-23.9	19.5	0.00e+00	0	43	0	2783969280	6	4011
2026-01-08 12:47:37.60	328.32	34.64	-23.0	-24.0	19.5	0.00e+00	0	44	0	2790260736	6	4021
2026-01-08 12:47:38.61	328.44	34.42	-23.1	-24.3	19.3	0.00e+00	0	44	0	2795503616	6	4094
2026-01-08 12:47:39.61	328.56	34.21	-23.1	-24.2	19.4	0.00e+00	0	43	0	2800746496	6	4072
2026-01-08 12:47:40.63	328.67	34.00	-22.8	-23.6	19.7	0.00e+00	0	43	0	2807037952	6	3925
2026-01-08 12:47:41.63	328.79	33.79	-22.7	-23.2	19.9	0.00e+00	0	43	0	2812280832	6	3837
2026-01-08 12:47:42.63	328.90	33.58	-22.6	-23.1	19.9	0.00e+00	0	43	0	2818572288	6	3810
2026-01-08 12:47:43.64	329.01	33.38	-22.7	-23.4	19.8	0.00e+00	0	43	0	2823815168	6	3871
2026-01-08 12:47:44.65	329.12	33.17	-22.7	-23.4	19.8	0.00e+00	0	44	0	2829058048	6	3879
2026-01-08 12:47:45.66	329.22	32.97	-22.7	-23.3	19.8	0.00e+00	0	44	0	2835349504	6	3871
2026-01-08 12:47:46.66	329.33	32.76	-22.8	-23.5	19.7	0.00e+00	0	44	0	2840592384	6	3904
2026-01-08 12:47:47.67	329.44	32.56	-22.9	-23.8	19.6	0.00e+00	0	43	0	2846883840	6	3978
2026-01-08 12:47:48.68	329.54	32.36	-23.0	-23.9	19.5	0.00e+00	0	44	0	2852126720	6	4000
2026-01-08 12:47:49.68	329.64	32.16	-23.0	-24.0	19.4	0.00e+00	0	44	0	2857369600	6	4036
2026-01-08 12:47:50.69	329.74	31.96	-23.1	-24.1	19.4	0.00e+00	0	44	0	2863661056	6	4059
2026-01-08 12:47:51.71	329.85	31.76	-23.1	-24.1	19.4	0.00e+00	0	43	0	2868903936	6	4057
2026-01-08 12:47:52.71	329.94	31.57	-23.1	-24.2	19.3	0.00e+00	0	43	0	2875195392	6	4086
2026-01-08 12:47:53.72	330.04	31.38	-23.0	-24.1	19.4	0.00e+00	0	43	0	2880438272	6	4042
2026-01-08 12:47:54.73	330.14	31.18	-23.0	-24.0	19.4	0.00e+00	0	44	0	2886729728	6	4038
2026-01-08 12:47:55.73	330.24	30.99	-23.1	-24.1	19.3	0.00e+00	0	44	0	2891972608	6	4066
2026-01-08 12:47:56.74	330.33	30.80	-23.0	-24.0	19.4	0.00e+00	0	44	0	2897215488	6	4032
2026-01-08 12:47:57.75	330.42	30.61	-23.0	-24.0	19.4	0.00e+00	0	43	0	2903506944	6	4027
2026-01-08 12:47:58.75	330.52	30.42	-23.1	-24.2	19.3	0.00e+00	0	44	0	2908749824	6	4072
2026-01-08 12:47:59.76	330.61	30.23	-23.1	-24.1	19.4	0.00e+00	0	43	0	2913992704	6	4042
2026-01-08 12:48:00.77	330.70	30.05	-22.9	-23.8	19.5	0.00e+00	0	44	0	2920284160	6	3985
2026-01-08 12:48:01.77	330.79	29.86	-22.9	-23.8	19.5	0.00e+00	0	44	0	2925527040	6	3992
2026-01-08 12:48:02.78	330.88	29.68	-23.0	-23.9	19.5	0.00e+00	0	43	0	2931818496	6	4001
2026-01-08 12:48:03.78	330.96	29.50	-23.0	-23.9	19.4	0.00e+00	0	43	0	2937061376	6	4017
2026-01-08 12:48:04.79	331.05	29.32	-23.0	-24.0	19.4	0.00e+00	0	44	0	2942304256	6	4028
2026-01-08 12:48:05.80	331.14	29.13	-23.1	-24.1	19.3	0.00e+00	0	44	0	2948595712	6	4050
2026-01-08 12:48:06.81	331.22	28.95	-23.1	-24.2	19.3	0.00e+00	0	43	0	2953838592	6	4075
2026-01-08 12:48:07.81	331.31	28.78	-23.0	-24.0	19.4	0.00e+00	0	43	0	2960130048	6	4038
2026-01-08 12:48:08.82	331.39	28.60	-23.2	-24.3	19.2	0.00e+00	0	43	0	2965372928	6	4113
2026-01-08 12:48:09.83	331.47	28.42	-23.0	-24.0	19.4	0.00e+00	0	43	0	2971664384	6	4032
2026-01-08 12:48:10.83	331.55	28.25	-23.1	-24.1	19.3	0.00e+00	0	43	0	2976907264	6	4053
2026-01-08 12:48:11.83	331.63	28.08	-22.9	-23.8	19.4	0.00e+00	0	44	0	2982150144	6	3991
2026-01-08 12:48:12.84	331.71	27.90	-23.0	-23.9	19.4	0.00e+00	0	43	0	2988441600	6	4000
2026-01-08 12:48:13.85	331.79	27.73	-22.9	-23.7	19.5	0.00e+00	0	43	0	2993684480	6	3952
2026-01-08 12:48:14.86	331.87	27.56	-22.9	-23.8	19.4	0.00e+00	0	43	0	2998927360	6	3992
2026-01-08 12:48:15.87	331.95	27.39	-23.2	-24.3	19.2	0.00e+00	0	43	0	3005218816	6	4100
2026-01-08 12:48:16.87	332.03	27.22	-23.3	-24.6	19.0	0.00e+00	0	43	0	3010461696	6	4189
2026-01-08 12:48:17.88	332.10	27.05	-23.2	-24.4	19.1	0.00e+00	0	43	0	3016753152	6	4137
2026-01-08 12:48:18.89	332.18	26.88	-23.2	-24.4	19.2	0.00e+00	0	44	0	3021996032	6	4122
2026-01-08 12:48:19.89	332.25	26.72	-23.3	-24.6	19.1	0.00e+00	0	43	0	3027238912	6	4169
2026-01-08 12:48:20.90	332.33	26.55	-23.3	-24.5	19.1	0.00e+00	0	43	0	3033530368	6	4161
2026-01-08 12:48:21.91	332.40	26.39	-23.4	-24.7	18.9	0.00e+00	0	43	0	3038773248	6	4219
2026-01-08 12:48:22.91	332.47	26.23	-23.2	-24.5	19.1	0.00e+00	0	44	0	3045064704	6	4147
2026-01-08 12:48:23.92	332.54	26.06	-23.2	-24.4	19.1	0.00e+00	0	43	0	3050307584	6	4133
2026-01-08 12:48:24.93	332.61	25.90	-23.3	-24.5	19.1	0.00e+00	0	43	0	3056599040	6	4155
2026-01-08 12:48:25.94	332.68	25.74	-23.2	-24.4	19.1	0.00e+00	0	43	0	3061841920	6	4144
2026-01-08 12:48:26.94	332.75	25.58	-23.4	-24.7	18.9	0.00e+00	0	43	0	3067084800	6	4216
2026-01-08 12:48:27.95	332.82	25.42	-23.3	-24.6	19.0	0.00e+00	0	43	0	3073376256	6	4167
2026-01-08 12:48:28.96	332.89	25.27	-23.5	-24.9	18.8	0.00e+00	0	43	0	3078619136	6	4263
2026-01-08 12:48:29.96	332.96	25.11	-23.3	-24.7	19.0	0.00e+00	0	43	0	3084910592	6	4199
2026-01-08 12:48:30.97	333.02	24.95	-23.3	-24.6	19.0	0.00e+00	0	44	0	3090153472	6	4185
2026-01-08 12:48:31.98	333.09	24.80	-23.4	-24.7	18.9	0.00e+00	0	43	0	3095396352	6	4212
2026-01-08 12:48:32.99	333.16	24.64	-23.5	-24.6	18.7	0.00e+00	0	43	0	3101687808	7	4056
2026-01-08 12:48:34.00	333.22	24.49	-23.4	-24.3	18.9	0.00e+00	0	43	0	3106930688	7	3998
2026-01-08 12:48:35.01	333.29	24.34	-23.4	-24.3	18.9	0.00e+00	0	43	0	3112173568	7	3981
2026-01-08 12:48:36.02	333.35	24.19	-23.5	-24.4	18.8	0.00e+00	0	43	0	3118465024	7	4025
2026-01-08 12:48:37.02	333.41	24.04	-23.6	-24.7	18.7	0.00e+00	0	44	0	3123707904	7	4088
2026-01-08 12:48:38.03	333.48	23.89	-23.6	-24.6	18.7	0.00e+00	0	44	0	3129999360	7	4070
2026-01-08 12:48:39.04	333.54	23.74	-23.7	-24.8	18.6	0.00e+00	0	43	0	3135242240	7	4127
2026-01-08 12:48:40.05	333.60	23.59	-23.6	-24.7	18.6	0.00e+00	0	44	0	3141533696	7	4090
2026-01-08 12:48:41.05	333.66	23.44	-23.7	-25.0	18.5	0.00e+00	0	43	0	3146776576	7	4162
2026-01-08 12:48:42.05	333.72	23.30	-23.6	-24.8	18.6	0.00e+00	0	43	0	3152019456	7	4115
2026-01-08 12:48:43.07	333.78	23.15	-23.8	-25.3	18.4	0.00e+00	0	44	0	3158310912	7	4235
2026-01-08 12:48:44.07	333.84	23.01	-23.7	-24.9	18.6	0.00e+00	0	43	0	3163553792	7	4147
2026-01-08 12:48:45.08	333.90	22.86	-23.6	-24.7	18.6	0.00e+00	0	44	0	3169845248	7	4099
2026-01-08 12:48:46.09	333.96	22.72	-23.7	-24.9	18.5	0.00e+00	0	43	0	3175088128	7	4139
2026-01-08 12:48:47.09	334.02	22.58	-23.6	-24.8	18.5	0.00e+00	0	44	0	3180331008	7	4119
2026-01-08 12:48:48.09	334.08	22.43	-23.7	-24.9	18.5	0.00e+00	0	43	0	3186622464	7	4139
2026-01-08 12:48:49.10	334.13	22.29	-23.7	-25.0	18.4	0.00e+00	0	43	0	3191865344	7	4180
2026-01-08 12:48:50.11	334.19	22.15	-23.7	-25.0	18.5	0.00e+00	0	43	0	3197108224	7	4159
2026-01-08 12:48:51.11	334.25	22.01	-23.8	-25.0	18.5	0.00e+00	0	44	0	3203399680	7	4179
2026-01-08 12:48:52.12	334.30	21.87	-23.7	-25.0	18.5	0.00e+00	0	43	0	3208642560	7	4169
2026-01-08 12:48:53.13	334.36	21.74	-23.8	-25.2	18.3	0.00e+00	0	43	0	3214934016	7	4211
2026-01-08 12:48:54.14	334.41	21.60	-23.8	-25.2	18.3	0.00e+00	0	43	0	3220176896	7	4225
2026-01-08 12:48:55.14	334.47	21.46	-23.9	-25.4	18.2	0.00e+00	0	44	0	3226468352	7	4270
2026-01-08 12:48:56.14	334.52	21.33	-23.8	-25.2	18.3	0.00e+00	0	44	0	3231711232	7	4219
2026-01-08 12:48:57.15	334.57	21.19	-23.8	-25.2	18.2	0.00e+00	0	43	0	3236954112	7	4228
2026-01-08 12:48:58.16	334.63	21.06	-23.9	-25.4	18.2	0.00e+00	0	43	0	3243245568	7	4282
2026-01-08 12:48:59.17	334.68	20.92	-23.9	-25.4	18.2	0.00e+00	0	43	0	3248488448	7	4268
2026-01-08 12:49:00.17	334.73	20.79	-24.1	-25.3	18.1	0.00e+00	0	43	0	3254779904	8	4129
2026-01-08 12:49:01.18	334.78	20.66	-24.3	-25.7	17.9	0.00e+00	0	44	0	3260022784	8	4225
2026-01-08 12:49:02.19	334.84	20.53	-24.2	-25.4	18.0	1.10e-06	0	43	0	3265265664	8	4153
2026-01-08 12:49:03.20	334.89	20.39	-24.2	-25.6	17.9	0.00e+00	0	43	0	3271557120	8	4198
2026-01-08 12:49:04.20	334.94	20.26	-24.3	-25.7	17.8	0.00e+00	0	43	0	3276800000	8	4227
2026-01-08 12:49:05.21	334.99	20.13	-24.4	-25.9	17.7	0.00e+00	0	43	0	3282042880	8	4271
2026-01-08 12:49:06.21	335.04	20.01	-24.4	-25.9	17.7	0.00e+00	0	44	0	3288334336	8	4272
2026-01-08 12:49:07.22	335.09	19.88	-24.4	-25.9	17.7	0.00e+00	0	43	0	3293577216	8	4276
2026-01-08 12:49:08.22	335.14	19.75	-24.5	-26.1	17.6	0.00e+00	0	43	0	3299868672	8	4334
2026-01-08 12:49:09.23	335.19	19.62	-24.7	-26.0	17.4	0.00e+00	0	44	0	3305111552	9	4204
2026-01-08 12:49:10.23	335.23	19.50	-25.0	-26.6	17.0	0.00e+00	0	43	0	3311403008	9	4359
2026-01-08 12:49:11.24	335.28	19.37	-24.7	-26.1	17.3	0.00e+00	0	43	0	3316645888	9	4210
2026-01-08 12:49:12.24	335.33	19.25	-24.6	-25.8	17.5	0.00e+00	0	43	0	3321888768	9	4135
2026-01-08 12:49:13.25	335.38	19.12	-24.5	-25.6	17.5	0.00e+00	0	43	0	3328180224	9	4088
2026-01-08 12:49:14.26	335.42	19.00	-24.5	-25.7	17.5	0.00e+00	0	43	0	3333423104	9	4110
2026-01-08 12:49:15.27	335.47	18.87	-24.5	-25.7	17.5	0.00e+00	0	43	0	3339714560	9	4120
2026-01-08 12:49:16.26	335.52	18.75	-24.6	-25.8	17.4	0.00e+00	0	43	0	3344957440	9	4152
2026-01-08 12:49:17.27	335.56	18.63	-24.6	-25.8	17.4	0.00e+00	0	43	0	3350200320	9	4153
2026-01-08 12:49:18.27	335.61	18.51	-24.6	-25.9	17.4	0.00e+00	0	43	0	3356491776	9	4167
2026-01-08 12:49:19.28	335.65	18.39	-24.6	-25.9	17.4	0.00e+00	0	43	0	3361734656	9	4177
2026-01-08 12:49:20.29	335.70	18.27	-24.7	-26.1	17.3	0.00e+00	0	43	0	3366977536	9	4220
2026-01-08 12:49:21.30	335.74	18.15	-24.9	-26.4	17.1	0.00e+00	0	44	0	3373268992	9	4302
2026-01-08 12:49:22.31	335.79	18.03	-24.8	-26.4	17.1	0.00e+00	0	43	0	3378511872	9	4290
2026-01-08 12:49:23.31	335.83	17.91	-24.9	-26.5	17.1	0.00e+00	0	43	0	3384803328	9	4321
2026-01-08 12:49:24.32	335.87	17.79	-24.8	-26.4	17.1	0.00e+00	0	44	0	3390046208	9	4287
2026-01-08 12:49:25.33	335.92	17.67	-24.9	-26.5	17.1	0.00e+00	0	43	0	3396337664	9	4316
2026-01-08 12:49:26.33	335.96	17.56	-24.9	-26.5	17.0	0.00e+00	0	43	0	3401580544	9	4319
2026-01-08 12:49:27.33	336.00	17.44	-24.9	-26.6	16.9	0.00e+00	0	44	0	3406823424	9	4351
2026-01-08 12:49:28.34	336.05	17.32	-25.0	-26.2	16.9	1.10e-06	0	43	0	3413114880	10	4144
2026-01-08 12:49:29.35	336.09	17.21	-25.0	-26.2	16.9	0.00e+00	0	43	0	3418357760	10	4139
2026-01-08 12:49:30.35	336.13	17.09	-25.2	-26.6	16.6	0.00e+00	0	43	0	3423600640	10	4252
2026-01-08 12:49:31.36	336.17	16.98	-24.9	-26.0	16.9	0.00e+00	0	43	0	3429892096	10	4081
2026-01-08 12:49:32.37	336.21	16.86	-24.8	-25.7	17.1	0.00e+00	0	43	0	3435134976	10	4020
2026-01-08 12:49:33.37	336.25	16.75	-24.7	-25.6	17.2	0.00e+00	0	43	0	3441426432	10	3980
2026-01-08 12:49:34.38	336.29	16.64	-24.7	-25.7	17.1	0.00e+00	0	43	0	3446669312	10	4010
2026-01-08 12:49:35.39	336.34	16.53	-24.8	-25.8	17.0	0.00e+00	0	43	0	3451912192	10	4027
2026-01-08 12:49:36.39	336.38	16.41	-24.9	-26.0	16.9	0.00e+00	0	44	0	3458203648	10	4091
2026-01-08 12:49:37.40	336.42	16.30	-25.0	-26.3	16.7	0.00e+00	0	44	0	3463446528	10	4167
2026-01-08 12:49:38.41	336.46	16.19	-25.0	-26.2	16.8	0.00e+00	0	43	0	3469737984	10	4150
2026-01-08 12:49:39.41	336.49	16.08	-25.1	-26.4	16.7	0.00e+00	0	43	0	3474980864	10	4184
2026-01-08 12:49:40.42	336.53	15.97	-25.0	-26.2	16.9	0.00e+00	0	44	0	3481272320	10	4137
2026-01-08 12:49:41.42	336.57	15.86	-24.9	-25.9	17.0	0.00e+00	0	43	0	3486515200	10	4071
2026-01-08 12:49:42.43	336.61	15.75	-24.9	-26.1	16.9	0.00e+00	0	43	0	3491758080	10	4103
2026-01-08 12:49:43.44	336.65	15.64	-25.0	-26.2	16.8	0.00e+00	0	44	0	3498049536	10	4133
2026-01-08 12:49:44.44	336.69	15.54	-25.0	-26.2	16.8	0.00e+00	0	44	0	3503292416	10	4143
2026-01-08 12:49:45.45	336.73	15.43	-25.0	-26.2	16.8	0.00e+00	0	43	0	3508535296	10	4152
2026-01-08 12:49:46.46	336.76	15.32	-25.0	-26.3	16.8	0.00e+00	0	44	0	3514826752	10	4173
2026-01-08 12:49:47.46	336.80	15.22	-25.1	-26.4	16.7	0.00e+00	0	43	0	3520069632	10	4185
2026-01-08 12:49:48.47	336.84	15.11	-25.1	-26.4	16.6	0.00e+00	0	44	0	3526361088	10	4201
2026-01-08 12:49:49.47	336.88	15.01	-25.1	-26.4	16.6	0.00e+00	0	44	0	3531603968	10	4177
2026-01-08 12:49:50.48	336.91	14.90	-25.1	-26.6	16.4	0.00e+00	0	43	0	3536846848	10	4243
2026-01-08 12:49:51.49	336.95	14.79	-25.2	-26.6	16.4	0.00e+00	0	43	0	3543138304	10	4236
2026-01-08 12:49:52.49	336.99	14.69	-25.2	-26.6	16.4	0.00e+00	0	43	0	3548381184	10	4247
2026-01-08 12:49:53.50	337.02	14.59	-25.2	-26.6	16.4	0.00e+00	0	43	0	3554672640	10	4240
2026-01-08 12:49:54.51	337.06	14.48	-25.2	-26.7	16.4	0.00e+00	0	43	0	3559915520	10	4262
2026-01-08 12:49:55.50	337.09	14.38	-25.2	-26.6	16.4	0.00e+00	0	43	0	3565158400	10	4258
2026-01-08 12:49:56.52	337.13	14.28	-25.3	-26.8	16.4	0.00e+00	0	44	0	3571449856	10	4294
2026-01-08 12:49:57.52	337.16	14.18	-25.3	-27.0	16.3	0.00e+00	0	43	0	3576692736	10	4339
2026-01-08 12:49:58.53	337.20	14.07	-25.4	-27.1	16.2	0.00e+00	0	44	0	3582984192	10	4369
2026-01-08 12:49:59.54	337.23	13.97	-25.3	-27.0	16.2	0.00e+00	0	44	0	3588227072	10	4345
2026-01-08 12:50:00.55	337.27	13.87	-25.5	-27.3	16.0	0.00e+00	0	43	0	3593469952	10	4436
2026-01-08 12:50:01.56	337.30	13.77	-25.8	-27.4	15.6	0.00e+00	0	43	0	3599761408	11	4355
2026-01-08 12:50:02.56	337.34	13.67	-25.8	-27.5	15.6	0.00e+00	0	43	0	3605004288	11	4364
2026-01-08 12:50:03.56	337.37	13.57	-25.7	-27.4	15.7	0.00e+00	0	43	0	3610247168	11	4339
2026-01-08 12:50:04.57	337.40	13.47	-25.8	-27.6	15.5	0.00e+00	0	43	0	3616538624	11	4392
2026-01-08 12:50:05.57	337.44	13.37	-25.6	-27.1	15.7	0.00e+00	0	43	0	3621781504	11	4281
2026-01-08 12:50:06.58	337.47	13.28	-25.6	-27.0	15.7	0.00e+00	0	43	0	3628072960	11	4256
2026-01-08 12:50:07.59	337.50	13.18	-25.7	-27.2	15.5	0.00e+00	0	44	0	3633315840	11	4288
2026-01-08 12:50:08.59	337.54	13.08	-25.7	-27.3	15.5	0.00e+00	0	44	0	3639607296	11	4324
2026-01-08 12:50:09.60	337.57	12.98	-25.8	-27.6	15.3	0.00e+00	0	43	0	3644850176	11	4395
2026-01-08 12:50:10.61	337.60	12.88	-25.9	-27.6	15.4	0.00e+00	0	43	0	3650093056	11	4408
2026-01-08 12:50:11.62	337.64	12.79	-25.7	-27.2	15.7	0.00e+00	0	43	0	3656384512	11	4292
2026-01-08 12:50:12.62	337.67	12.69	-25.5	-26.9	15.9	0.00e+00	0	43	0	3661627392	11	4207
2026-01-08 12:50:13.63	337.70	12.60	-25.6	-27.1	15.8	0.00e+00	0	43	0	3667918848	11	4262
2026-01-08 12:50:14.63	337.73	12.50	-25.6	-27.0	15.9	0.00e+00	0	43	0	3673161728	11	4242
2026-01-08 12:50:15.63	337.76	12.41	-25.6	-27.0	15.9	0.00e+00	0	43	0	3678404608	11	4234
2026-01-08 12:50:16.63	337.80	12.31	-25.6	-27.1	15.7	0.00e+00	0	43	0	3684696064	11	4274
2026-01-08 12:50:17.64	337.83	12.22	-25.7	-27.3	15.6	0.00e+00	0	43	0	3689938944	11	4314
2026-01-08 12:50:18.64	337.86	12.12	-25.6	-27.1	15.5	0.00e+00	0	43	0	3695181824	11	4273
2026-01-08 12:50:19.65	337.89	12.03	-25.8	-27.5	15.2	0.00e+00	0	43	0	3701473280	11	4374
2026-01-08 12:50:20.66	337.92	11.94	-25.9	-27.6	15.0	0.00e+00	0	43	0	3706716160	11	4418
2026-01-08 12:50:21.66	337.95	11.84	-25.8	-27.6	15.1	0.00e+00	0	44	0	3713007616	11	4400
2026-01-08 12:50:22.67	337.98	11.75	-25.8	-27.5	15.2	0.00e+00	0	43	0	3718250496	11	4388
2026-01-08 12:50:23.67	338.01	11.66	-26.0	-27.3	15.1	0.00e+00	0	43	0	3724541952	12	4227
2026-01-08 12:50:24.68	338.04	11.57	-26.1	-27.8	15.0	0.00e+00	0	43	0	3729784832	12	4342
2026-01-08 12:50:25.68	338.07	11.48	-26.1	-27.7	15.0	0.00e+00	0	43	0	3735027712	12	4332
2026-01-08 12:50:26.69	338.10	11.39	-25.9	-27.3	15.1	0.00e+00	0	44	0	3741319168	12	4225
2026-01-08 12:50:27.70	338.13	11.29	-25.9	-27.3	14.9	0.00e+00	0	43	0	3746562048	12	4230
2026-01-08 12:50:28.71	338.16	11.20	-26.0	-27.4	14.7	0.00e+00	0	43	0	3751804928	12	4252
2026-01-08 12:50:29.72	338.19	11.11	-26.1	-27.8	14.4	0.00e+00	0	44	0	3758096384	12	4363
2026-01-08 12:50:30.73	338.22	11.02	-26.1	-27.7	14.5	0.00e+00	0	43	0	3763339264	12	4338
2026-01-08 12:50:31.74	338.25	10.93	-26.0	-27.5	14.8	0.00e+00	0	43	0	3769630720	12	4285
2026-01-08 12:50:32.75	338.28	10.84	-26.1	-27.7	14.8	0.00e+00	0	43	0	3774873600	12	4335
2026-01-08 12:50:33.75	338.31	10.75	-26.1	-27.6	15.0	0.00e+00	0	43	0	3780116480	12	4298
2026-01-08 12:50:34.76	338.34	10.67	-26.0	-27.5	15.2	0.00e+00	0	43	0	3786407936	12	4268
2026-01-08 12:50:35.77	338.36	10.58	-26.0	-27.5	15.2	0.00e+00	0	43	0	3791650816	12	4285
2026-01-08 12:50:36.77	338.39	10.49	-26.1	-27.7	15.1	0.00e+00	0	43	0	3797942272	12	4314
2026-01-08 12:50:37.78	338.42	10.40	-26.1	-27.7	15.2	0.00e+00	0	44	0	3803185152	12	4318
2026-01-08 12:50:38.79	338.45	10.31	-26.1	-27.6	15.2	0.00e+00	0	43	0	3809476608	12	4300
2026-01-08 12:50:39.79	338.48	10.23	-26.2	-27.8	15.0	0.00e+00	0	43	0	3814719488	12	4370
2026-01-08 12:50:40.80	338.51	10.14	-26.1	-27.8	15.0	0.00e+00	0	44	0	3819962368	12	4341
2026-01-08 12:50:41.81	338.53	10.05	-26.1	-27.6	15.0	0.00e+00	0	43	0	3826253824	12	4308
2026-01-08 12:50:42.81	338.56	9.97	-26.3	-28.1	14.7	0.00e+00	0	43	0	3831496704	12	4442
2026-01-08 12:50:43.82	338.59	9.88	-26.2	-28.0	14.8	0.00e+00	0	44	0	3837788160	12	4411
2026-01-08 12:50:44.83	338.62	9.80	-26.3	-28.1	14.8	1.10e-06	0	43	0	3843031040	12	4435
2026-01-08 12:50:45.84	338.64	9.71	-26.3	-28.2	14.8	0.00e+00	0	43	0	3848273920	12	4456
2026-01-08 12:50:46.85	338.67	9.63	-26.3	-28.2	14.8	0.00e+00	0	44	0	3854565376	12	4467
2026-01-08 12:50:47.85	338.70	9.54	-26.5	-28.1	14.6	0.00e+00	0	44	0	3859808256	13	4346
