passes_logs/2026/01/08/R2M6_AANII_01/R2M6_AANII_01__20260108_024635_FENGYUN_3D_rec.log

#Pass ID: 20260108_024635_FENGYUN 3D
#Satellite: FENGYUN 3D
#Configuration: FENGYUN 3D
#almurnet v.1.7.20240730
#Start time: 2026-01-08 02:46:35

#Version: 2.2.20231116
#Station: R2M6_AANII_01
#Location: 30.233357 lon 59.946436 lat
#TLE: 1 43010U 17072A   26006.26440730  .00000376  00000+0  19957-3 0  9994
#TLE: 2 43010  98.9925 337.9455 0002045 123.9195 236.2175 14.19693586422016

#Time	Az	El	Level	Level2	SNR	BER	BlckErr	Temp	State	Recorded	gain1	gain2
2026-01-08 02:46:35.52	16.85	6.96	-29.6	-32.9	5.4	7.88e-01	0	41	0	0	19	5208
2026-01-08 02:46:36.52	16.83	7.04	-30.4	-34.7	5.1	7.99e-01	0	41	104	0	20	5883
2026-01-08 02:46:37.52	16.82	7.12	-30.1	-33.7	8.9	4.01e-02	0	41	0	0	20	5440
2026-01-08 02:46:38.53	16.80	7.19	-30.1	-33.7	9.0	2.89e-02	0	41	0	5242880	20	5415
2026-01-08 02:46:39.53	16.79	7.27	-30.0	-33.4	9.2	3.81e-02	0	41	0	10485760	20	5312
2026-01-08 02:46:40.54	16.77	7.35	-29.7	-32.9	9.9	1.42e-02	0	41	0	16777216	19	5220
2026-01-08 02:46:41.54	16.76	7.43	-29.4	-32.5	10.6	6.70e-03	0	41	0	22020096	18	5173
2026-01-08 02:46:42.55	16.74	7.51	-29.1	-31.9	11.0	5.54e-03	0	41	0	28311552	18	4929
2026-01-08 02:46:43.56	16.72	7.59	-28.8	-31.1	11.6	1.95e-03	0	41	0	33554432	18	4667
2026-01-08 02:46:44.57	16.71	7.66	-28.7	-31.2	11.8	3.01e-03	0	41	0	38797312	17	4808
2026-01-08 02:46:45.57	16.69	7.74	-28.6	-31.1	11.9	2.80e-03	0	41	0	45088768	17	4779
2026-01-08 02:46:46.57	16.67	7.82	-28.9	-31.8	11.5	1.35e-03	0	41	0	50331648	17	5017
2026-01-08 02:46:47.57	16.66	7.90	-29.0	-31.4	11.4	4.17e-03	0	41	0	56623104	18	4779
2026-01-08 02:46:48.57	16.64	7.98	-28.7	-31.1	11.9	6.28e-04	0	41	0	61865984	17	4782
2026-01-08 02:46:49.58	16.62	8.06	-28.3	-30.7	12.4	6.55e-04	0	41	0	67108864	16	4762
2026-01-08 02:46:50.58	16.61	8.14	-28.0	-29.9	12.9	2.08e-03	0	41	0	73400320	16	4518
2026-01-08 02:46:51.59	16.59	8.22	-27.5	-29.4	13.4	2.08e-03	0	41	0	78643200	15	4481
2026-01-08 02:46:52.60	16.57	8.30	-27.3	-29.3	13.7	3.38e-04	0	41	0	84934656	14	4574
2026-01-08 02:46:53.60	16.55	8.38	-27.1	-29.0	13.9	2.00e-03	0	42	0	90177536	14	4468
2026-01-08 02:46:54.61	16.54	8.46	-27.0	-28.8	14.1	1.91e-03	0	41	0	95420416	14	4402
2026-01-08 02:46:55.62	16.52	8.55	-26.9	-29.0	14.2	2.20e-06	0	42	0	101711872	13	4591
2026-01-08 02:46:56.62	16.50	8.63	-26.9	-28.9	14.3	1.82e-03	0	42	0	106954752	13	4555
2026-01-08 02:46:57.63	16.48	8.71	-27.0	-29.1	14.1	4.50e-06	0	42	0	113246208	13	4624
2026-01-08 02:46:58.64	16.46	8.79	-26.9	-28.9	14.3	3.17e-04	0	42	0	118489088	13	4554
2026-01-08 02:46:59.64	16.45	8.88	-26.7	-28.6	14.5	1.72e-03	0	41	0	123731968	13	4455
2026-01-08 02:47:00.65	16.43	8.96	-26.8	-28.7	14.5	1.10e-06	0	42	0	130023424	13	4490
2026-01-08 02:47:01.65	16.41	9.04	-26.8	-28.7	14.5	2.88e-04	0	42	0	135266304	13	4492
2026-01-08 02:47:02.66	16.39	9.12	-26.7	-28.6	14.5	0.00e+00	0	42	0	140509184	13	4464
2026-01-08 02:47:03.66	16.37	9.21	-26.8	-28.8	14.4	1.84e-03	0	42	0	146800640	13	4520
2026-01-08 02:47:04.66	16.35	9.29	-26.8	-28.6	14.5	3.40e-06	0	42	0	152043520	13	4467
2026-01-08 02:47:05.67	16.33	9.38	-26.7	-28.5	14.6	1.43e-03	0	42	0	158334976	13	4421
2026-01-08 02:47:06.68	16.32	9.46	-26.7	-28.5	14.6	2.20e-06	0	42	0	163577856	13	4433
2026-01-08 02:47:07.68	16.30	9.55	-26.7	-28.5	14.6	1.10e-06	0	42	0	169869312	13	4419
2026-01-08 02:47:08.68	16.28	9.63	-26.6	-28.3	14.7	0.00e+00	0	42	0	175112192	13	4363
2026-01-08 02:47:09.68	16.26	9.71	-26.6	-28.2	14.8	0.00e+00	0	42	0	180355072	13	4355
2026-01-08 02:47:10.68	16.24	9.80	-26.6	-28.2	14.8	3.23e-04	0	42	0	186646528	13	4355
2026-01-08 02:47:11.69	16.22	9.89	-26.6	-28.2	14.8	0.00e+00	0	42	0	191889408	13	4346
2026-01-08 02:47:12.70	16.20	9.97	-26.5	-28.1	14.8	0.00e+00	0	42	0	197132288	13	4326
2026-01-08 02:47:13.71	16.18	10.06	-26.5	-28.1	14.9	0.00e+00	0	42	0	203423744	13	4303
2026-01-08 02:47:14.71	16.16	10.15	-26.8	-28.6	14.6	0.00e+00	0	42	0	208666624	13	4464
2026-01-08 02:47:15.72	16.14	10.23	-26.7	-28.4	14.7	0.00e+00	0	42	0	213909504	13	4388
2026-01-08 02:47:16.73	16.12	10.32	-26.5	-28.0	14.9	0.00e+00	0	42	0	220200960	13	4302
2026-01-08 02:47:17.74	16.10	10.41	-26.4	-27.9	15.0	1.10e-06	0	42	0	225443840	13	4263
2026-01-08 02:47:18.75	16.08	10.50	-26.3	-28.1	15.2	0.00e+00	0	42	0	231735296	12	4425
2026-01-08 02:47:19.76	16.05	10.59	-26.5	-28.5	14.9	1.10e-06	0	42	0	236978176	12	4550
2026-01-08 02:47:20.76	16.03	10.68	-26.5	-28.1	14.9	0.00e+00	0	42	0	243269632	13	4298
2026-01-08 02:47:21.77	16.01	10.77	-26.5	-28.1	14.9	0.00e+00	0	42	0	248512512	13	4317
2026-01-08 02:47:22.78	15.99	10.85	-26.3	-28.2	15.2	0.00e+00	0	42	0	254803968	12	4441
2026-01-08 02:47:23.78	15.97	10.94	-26.5	-28.5	15.0	0.00e+00	0	42	0	260046848	12	4542
2026-01-08 02:47:24.79	15.95	11.03	-26.3	-28.1	15.2	0.00e+00	0	42	0	265289728	12	4420
2026-01-08 02:47:25.80	15.92	11.13	-26.3	-28.2	15.2	0.00e+00	0	42	0	271581184	12	4452
2026-01-08 02:47:26.81	15.90	11.22	-26.3	-28.2	15.2	0.00e+00	0	42	0	276824064	12	4449
2026-01-08 02:47:27.82	15.88	11.31	-26.3	-28.2	15.2	0.00e+00	0	42	0	282066944	12	4442
2026-01-08 02:47:28.83	15.86	11.40	-26.6	-28.2	14.9	0.00e+00	0	42	0	288358400	13	4329
2026-01-08 02:47:29.83	15.84	11.49	-26.8	-28.8	14.6	0.00e+00	0	42	0	293601280	13	4511
2026-01-08 02:47:30.84	15.81	11.58	-26.6	-28.2	14.9	1.10e-06	0	42	0	299892736	13	4342
2026-01-08 02:47:31.84	15.79	11.67	-26.4	-27.7	15.2	0.00e+00	0	42	0	305135616	13	4210
2026-01-08 02:47:32.85	15.77	11.77	-26.3	-28.0	15.3	0.00e+00	0	42	0	310378496	12	4409
2026-01-08 02:47:33.85	15.74	11.86	-26.3	-28.1	15.3	0.00e+00	0	42	0	316669952	12	4418
2026-01-08 02:47:34.86	15.72	11.95	-26.4	-28.3	15.2	0.00e+00	0	42	0	321912832	12	4475
2026-01-08 02:47:35.86	15.70	12.05	-26.4	-28.3	15.2	0.00e+00	0	42	0	328204288	12	4467
2026-01-08 02:47:36.87	15.67	12.14	-26.4	-28.2	15.2	0.00e+00	0	42	0	333447168	12	4459
2026-01-08 02:47:37.88	15.65	12.24	-26.3	-28.2	15.3	0.00e+00	0	42	0	339738624	12	4445
2026-01-08 02:47:38.89	15.62	12.33	-26.6	-28.1	15.0	1.10e-06	0	42	0	344981504	13	4323
2026-01-08 02:47:39.89	15.60	12.43	-26.8	-28.8	14.7	0.00e+00	0	43	0	350224384	13	4509
2026-01-08 02:47:40.90	15.58	12.52	-26.6	-28.2	15.0	0.00e+00	0	42	0	356515840	13	4328
2026-01-08 02:47:41.90	15.55	12.62	-26.7	-28.5	14.8	0.00e+00	0	43	0	361758720	13	4414
2026-01-08 02:47:42.90	15.53	12.71	-26.6	-28.2	15.0	1.10e-06	0	42	0	367001600	13	4352
2026-01-08 02:47:43.91	15.50	12.81	-26.4	-27.9	15.2	0.00e+00	0	42	0	373293056	13	4252
2026-01-08 02:47:44.92	15.48	12.91	-26.4	-27.8	15.2	0.00e+00	0	42	0	378535936	13	4229
2026-01-08 02:47:45.92	15.45	13.01	-26.4	-27.7	15.3	0.00e+00	0	42	0	384827392	13	4194
2026-01-08 02:47:46.92	15.42	13.10	-26.6	-28.3	15.0	0.00e+00	0	43	0	390070272	13	4357
2026-01-08 02:47:47.93	15.40	13.20	-26.5	-28.1	15.1	1.10e-06	0	42	0	395313152	13	4306
2026-01-08 02:47:48.93	15.37	13.30	-26.7	-28.5	14.9	0.00e+00	0	43	0	401604608	13	4421
2026-01-08 02:47:49.94	15.35	13.40	-26.6	-28.3	15.0	0.00e+00	0	43	0	406847488	13	4354
2026-01-08 02:47:50.95	15.32	13.50	-26.3	-27.5	15.2	0.00e+00	0	43	0	413138944	13	4147
2026-01-08 02:47:51.94	15.29	13.60	-25.3	-27.1	15.3	0.00e+00	0	43	0	418381824	12	4430
2026-01-08 02:47:52.95	15.27	13.70	-26.3	-28.1	12.3	0.00e+00	0	43	0	423624704	12	4425
2026-01-08 02:47:53.96	15.24	13.80	-26.5	-28.4	12.8	0.00e+00	0	43	0	429916160	12	4517
2026-01-08 02:47:54.96	15.21	13.90	-26.3	-28.0	15.4	0.00e+00	0	42	0	435159040	12	4405
2026-01-08 02:47:55.97	15.19	14.00	-26.3	-28.1	15.4	0.00e+00	0	43	0	440401920	12	4411
2026-01-08 02:47:56.98	15.16	14.10	-26.4	-28.2	15.4	0.00e+00	0	43	0	446693376	12	4448
2026-01-08 02:47:57.98	15.13	14.21	-26.3	-28.1	15.4	2.76e-04	0	43	0	451936256	12	4427
2026-01-08 02:47:58.99	15.10	14.31	-26.2	-27.9	15.5	0.00e+00	0	43	0	458227712	12	4352
2026-01-08 02:48:00.00	15.07	14.41	-26.3	-28.0	15.4	1.53e-03	0	42	0	463470592	12	4404
2026-01-08 02:48:01.00	15.04	14.52	-26.4	-28.3	15.3	0.00e+00	0	43	0	468713472	12	4482
2026-01-08 02:48:02.01	15.02	14.62	-26.2	-27.8	15.6	1.49e-03	0	43	0	475004928	12	4335
2026-01-08 02:48:03.00	14.99	14.72	-26.1	-27.5	15.7	0.00e+00	0	43	0	480247808	12	4257
2026-01-08 02:48:04.01	14.96	14.83	-26.0	-27.4	15.8	0.00e+00	0	43	0	486539264	12	4237
2026-01-08 02:48:05.02	14.93	14.93	-26.0	-27.4	15.8	1.61e-03	0	43	0	491782144	12	4228
2026-01-08 02:48:06.03	14.90	15.04	-25.9	-27.2	15.9	0.00e+00	0	43	0	498073600	12	4185
2026-01-08 02:48:07.03	14.87	15.15	-25.8	-27.0	16.0	2.96e-04	0	43	0	503316480	12	4117
2026-01-08 02:48:08.04	14.84	15.25	-25.9	-27.7	16.0	0.00e+00	0	43	0	508559360	11	4420
2026-01-08 02:48:09.04	14.81	15.36	-25.7	-27.3	16.2	1.50e-03	0	43	0	514850816	11	4299
2026-01-08 02:48:10.05	14.78	15.47	-25.9	-27.6	16.1	2.84e-04	0	43	0	520093696	11	4379
2026-01-08 02:48:11.05	14.75	15.58	-25.7	-27.3	16.3	1.48e-03	0	43	0	525336576	11	4310
2026-01-08 02:48:12.05	14.71	15.68	-25.7	-27.1	16.4	1.54e-03	0	43	0	531628032	11	4256
2026-01-08 02:48:13.06	14.68	15.79	-25.8	-27.3	16.3	0.00e+00	0	43	0	536870912	11	4315
2026-01-08 02:48:14.07	14.65	15.90	-25.6	-26.9	16.5	1.62e-03	0	43	0	543162368	11	4200
2026-01-08 02:48:15.07	14.62	16.01	-25.7	-27.1	16.4	1.56e-03	0	43	0	548405248	11	4249
2026-01-08 02:48:16.07	14.59	16.12	-25.9	-27.6	16.1	3.22e-04	0	43	0	553648128	11	4381
2026-01-08 02:48:17.08	14.55	16.23	-25.6	-27.0	16.4	1.52e-03	0	43	0	559939584	11	4213
2026-01-08 02:48:18.09	14.52	16.35	-25.4	-26.6	16.7	1.44e-03	0	43	0	565182464	11	4118
2026-01-08 02:48:19.09	14.49	16.46	-25.3	-26.4	16.8	2.99e-04	0	43	0	571473920	11	4063
2026-01-08 02:48:20.09	14.45	16.57	-25.3	-26.9	16.8	1.42e-03	0	43	0	576716800	10	4307
2026-01-08 02:48:21.10	14.42	16.68	-25.3	-26.7	16.9	1.58e-03	0	43	0	581959680	10	4266
2026-01-08 02:48:22.11	14.39	16.80	-25.2	-26.6	17.0	0.00e+00	0	43	0	588251136	10	4224
2026-01-08 02:48:23.12	14.35	16.91	-25.2	-26.6	16.9	1.63e-03	0	43	0	593494016	10	4230
2026-01-08 02:48:24.12	14.32	17.02	-25.3	-26.8	16.8	0.00e+00	0	43	0	599785472	10	4275
2026-01-08 02:48:25.13	14.28	17.14	-25.1	-26.4	17.0	2.54e-04	0	43	0	605028352	10	4191
2026-01-08 02:48:26.14	14.25	17.26	-25.1	-26.4	17.1	1.56e-03	0	43	0	610271232	10	4186
2026-01-08 02:48:27.15	14.21	17.37	-25.1	-26.3	17.1	0.00e+00	0	43	0	616562688	10	4153
2026-01-08 02:48:28.16	14.18	17.49	-25.0	-26.1	17.2	2.62e-04	0	43	0	621805568	10	4094
2026-01-08 02:48:29.17	14.14	17.61	-24.9	-26.0	17.3	0.00e+00	0	43	0	628097024	10	4090
2026-01-08 02:48:30.18	14.10	17.73	-25.0	-26.2	17.1	1.60e-03	0	43	0	633339904	10	4141
2026-01-08 02:48:31.19	14.07	17.85	-24.8	-26.3	17.4	0.00e+00	0	43	0	638582784	9	4258
2026-01-08 02:48:32.20	14.03	17.96	-24.9	-26.4	17.3	1.54e-03	0	43	0	644874240	9	4290
2026-01-08 02:48:33.19	13.99	18.08	-25.1	-26.3	17.1	0.00e+00	0	43	0	650117120	10	4162
2026-01-08 02:48:34.19	13.95	18.20	-25.4	-26.9	16.8	0.00e+00	0	43	0	656408576	10	4320
2026-01-08 02:48:35.20	13.92	18.32	-25.1	-26.3	17.2	0.00e+00	0	43	0	661651456	10	4151
2026-01-08 02:48:36.20	13.88	18.44	-25.1	-26.4	17.1	0.00e+00	0	43	0	666894336	10	4176
2026-01-08 02:48:37.21	13.84	18.57	-25.1	-26.4	17.1	2.46e-04	0	43	0	673185792	10	4181
2026-01-08 02:48:38.22	13.80	18.69	-24.9	-26.0	17.3	0.00e+00	0	43	0	678428672	10	4079
2026-01-08 02:48:39.23	13.76	18.81	-24.9	-25.9	17.4	0.00e+00	0	43	0	684720128	10	4062
2026-01-08 02:48:40.24	13.72	18.94	-24.9	-26.4	17.4	0.00e+00	0	43	0	689963008	9	4287
2026-01-08 02:48:41.24	13.68	19.06	-24.9	-26.5	17.3	0.00e+00	0	43	0	695205888	9	4323
2026-01-08 02:48:42.25	13.64	19.19	-25.3	-26.8	16.9	0.00e+00	0	43	0	701497344	10	4275
2026-01-08 02:48:43.26	13.60	19.31	-25.6	-27.0	16.6	0.00e+00	0	43	0	706740224	11	4211
2026-01-08 02:48:44.27	13.56	19.44	-25.2	-26.2	17.0	0.00e+00	0	43	0	711983104	11	4011
2026-01-08 02:48:45.28	13.52	19.57	-25.0	-26.1	17.3	0.00e+00	0	43	0	718274560	10	4102
2026-01-08 02:48:46.28	13.47	19.69	-24.8	-25.6	17.5	0.00e+00	0	43	0	723517440	10	3982
2026-01-08 02:48:47.29	13.43	19.82	-24.7	-25.9	17.6	0.00e+00	0	43	0	729808896	9	4171
2026-01-08 02:48:48.30	13.39	19.95	-24.7	-26.0	17.6	0.00e+00	0	43	0	735051776	9	4198
2026-01-08 02:48:49.30	13.35	20.08	-24.8	-26.2	17.5	0.00e+00	0	43	0	741343232	9	4250
2026-01-08 02:48:50.30	13.30	20.21	-24.8	-26.2	17.5	0.00e+00	0	43	0	746586112	9	4247
2026-01-08 02:48:51.30	13.26	20.34	-24.8	-26.3	17.5	0.00e+00	0	43	0	751828992	9	4267
2026-01-08 02:48:52.32	13.21	20.47	-24.8	-26.2	17.5	0.00e+00	0	43	0	758120448	9	4252
2026-01-08 02:48:53.33	13.17	20.60	-24.9	-26.4	17.4	0.00e+00	0	43	0	763363328	9	4291
2026-01-08 02:48:54.33	13.12	20.74	-24.9	-26.4	17.4	0.00e+00	0	43	0	769654784	9	4301
2026-01-08 02:48:55.34	13.08	20.87	-24.9	-26.5	17.4	0.00e+00	0	43	0	774897664	9	4313
2026-01-08 02:48:56.35	13.03	21.00	-24.8	-26.2	17.6	0.00e+00	0	43	0	780140544	9	4230
2026-01-08 02:48:57.36	12.99	21.14	-24.8	-26.1	17.6	0.00e+00	0	43	0	786432000	9	4226
2026-01-08 02:48:58.36	12.94	21.27	-24.8	-26.2	17.5	0.00e+00	0	43	0	791674880	9	4242
2026-01-08 02:48:59.37	12.89	21.41	-24.8	-26.2	17.5	0.00e+00	0	43	0	796917760	9	4244
2026-01-08 02:49:00.37	12.84	21.55	-24.6	-25.9	17.7	0.00e+00	0	43	0	803209216	9	4161
2026-01-08 02:49:01.37	12.80	21.68	-24.5	-25.6	17.8	0.00e+00	0	43	0	808452096	9	4098
2026-01-08 02:49:02.38	12.75	21.82	-24.5	-25.5	17.9	0.00e+00	0	43	0	814743552	9	4070
2026-01-08 02:49:03.39	12.70	21.96	-24.4	-25.4	18.0	0.00e+00	0	43	0	819986432	9	4044
2026-01-08 02:49:04.39	12.65	22.10	-24.5	-25.6	17.9	0.00e+00	0	43	0	826277888	9	4080
2026-01-08 02:49:05.40	12.60	22.24	-24.5	-25.6	17.9	0.00e+00	0	43	0	831520768	9	4083
2026-01-08 02:49:06.41	12.55	22.38	-24.2	-24.9	18.3	0.00e+00	0	43	0	836763648	9	3922
2026-01-08 02:49:07.41	12.50	22.52	-24.1	-25.2	18.4	0.00e+00	0	43	0	843055104	8	4089
2026-01-08 02:49:08.42	12.44	22.67	-24.3	-25.6	18.2	0.00e+00	0	43	0	848297984	8	4190
2026-01-08 02:49:09.43	12.39	22.81	-24.4	-25.8	18.1	0.00e+00	0	43	0	854589440	8	4247
2026-01-08 02:49:10.44	12.34	22.96	-24.4	-25.8	18.1	0.00e+00	0	43	0	859832320	8	4258
2026-01-08 02:49:11.44	12.29	23.10	-24.4	-25.8	18.1	0.00e+00	0	43	0	865075200	8	4240
2026-01-08 02:49:12.45	12.23	23.25	-24.4	-25.9	18.0	0.00e+00	0	43	0	871366656	8	4281
2026-01-08 02:49:13.45	12.18	23.39	-24.4	-25.4	18.0	0.00e+00	0	43	0	876609536	9	4033
2026-01-08 02:49:14.46	12.12	23.54	-24.3	-25.2	18.1	0.00e+00	0	43	0	881852416	9	3986
2026-01-08 02:49:15.47	12.07	23.69	-24.3	-25.1	18.2	0.00e+00	0	43	0	888143872	9	3955
2026-01-08 02:49:16.47	12.01	23.84	-24.3	-25.6	18.2	0.00e+00	0	43	0	893386752	8	4192
2026-01-08 02:49:17.48	11.95	23.99	-24.4	-25.9	18.0	0.00e+00	0	43	0	899678208	8	4284
2026-01-08 02:49:18.48	11.90	24.14	-24.2	-25.5	18.3	0.00e+00	0	43	0	904921088	8	4162
2026-01-08 02:49:19.49	11.84	24.29	-24.0	-25.0	18.5	1.07e-03	0	43	0	911212544	8	4055
2026-01-08 02:49:20.49	11.78	24.44	-23.9	-24.9	18.6	0.00e+00	0	43	0	916455424	8	4017
2026-01-08 02:49:21.49	11.72	24.60	-24.0	-25.0	18.5	0.00e+00	0	43	0	921698304	8	4041
2026-01-08 02:49:22.49	11.66	24.75	-23.9	-24.9	18.6	0.00e+00	0	43	0	927989760	8	4009
2026-01-08 02:49:23.50	11.60	24.91	-23.9	-24.7	18.7	0.00e+00	0	43	0	933232640	8	3971
2026-01-08 02:49:24.51	11.54	25.06	-24.0	-25.0	18.6	0.00e+00	0	43	0	938475520	8	4040
2026-01-08 02:49:25.51	11.48	25.22	-24.0	-25.0	18.5	0.00e+00	0	43	0	944766976	8	4049
2026-01-08 02:49:26.52	11.42	25.38	-23.8	-24.7	18.7	1.02e-03	0	43	0	950009856	8	3963
2026-01-08 02:49:27.52	11.36	25.54	-23.8	-24.5	18.8	0.00e+00	0	43	0	956301312	8	3935
2026-01-08 02:49:28.53	11.29	25.70	-23.8	-24.5	18.8	1.10e-03	0	43	0	961544192	8	3922
2026-01-08 02:49:29.54	11.23	25.86	-23.9	-24.8	18.7	0.00e+00	0	43	0	966787072	8	3987
2026-01-08 02:49:30.55	11.16	26.02	-23.8	-24.6	18.7	0.00e+00	0	43	0	973078528	8	3958
2026-01-08 02:49:31.55	11.10	26.18	-23.6	-24.6	19.0	9.21e-04	0	43	0	978321408	7	4046
2026-01-08 02:49:32.55	11.03	26.34	-23.5	-24.5	19.1	0.00e+00	0	43	0	984612864	7	4026
2026-01-08 02:49:33.56	10.97	26.51	-23.5	-24.5	19.1	0.00e+00	0	43	0	989855744	7	4030
2026-01-08 02:49:34.57	10.90	26.68	-23.5	-24.5	19.1	0.00e+00	0	43	0	995098624	7	4033
2026-01-08 02:49:35.57	10.83	26.84	-23.5	-24.4	19.1	8.22e-04	0	43	0	1001390080	7	4014
2026-01-08 02:49:36.57	10.76	27.01	-23.5	-24.5	19.1	0.00e+00	0	43	0	1006632960	7	4037
2026-01-08 02:49:37.58	10.69	27.18	-23.7	-24.9	18.9	8.15e-04	0	43	0	1012924416	7	4136
2026-01-08 02:49:38.59	10.62	27.35	-23.8	-25.0	18.8	8.12e-04	0	43	0	1018167296	7	4161
2026-01-08 02:49:39.60	10.55	27.52	-23.9	-25.3	18.7	0.00e+00	0	43	0	1023410176	7	4227
2026-01-08 02:49:40.60	10.48	27.69	-24.0	-25.0	18.6	7.64e-04	0	43	0	1029701632	8	4053
2026-01-08 02:49:41.60	10.40	27.86	-23.8	-24.6	18.8	0.00e+00	0	43	0	1034944512	8	3937
2026-01-08 02:49:42.61	10.33	28.03	-23.7	-24.4	18.9	0.00e+00	0	43	0	1040187392	8	3900
2026-01-08 02:49:43.62	10.25	28.21	-23.7	-24.5	18.9	0.00e+00	0	43	0	1046478848	8	3915
2026-01-08 02:49:44.63	10.18	28.38	-23.7	-24.5	18.9	7.74e-04	0	43	0	1051721728	8	3911
2026-01-08 02:49:45.64	10.10	28.56	-23.6	-24.1	19.0	0.00e+00	0	43	0	1058013184	8	3841
2026-01-08 02:49:46.64	10.02	28.74	-23.6	-24.8	19.0	7.68e-04	0	43	0	1063256064	7	4101
2026-01-08 02:49:47.64	9.94	28.92	-23.6	-24.7	19.0	6.71e-04	0	43	0	1069547520	7	4090
2026-01-08 02:49:48.65	9.86	29.10	-23.6	-24.7	19.0	0.00e+00	0	43	0	1074790400	7	4073
2026-01-08 02:49:49.66	9.78	29.28	-23.6	-24.7	19.0	5.10e-04	0	43	0	1080033280	7	4078
2026-01-08 02:49:50.66	9.70	29.46	-23.6	-24.8	19.0	0.00e+00	0	43	0	1086324736	7	4102
2026-01-08 02:49:51.67	9.62	29.64	-23.7	-24.8	19.0	0.00e+00	0	43	0	1091567616	7	4107
2026-01-08 02:49:52.68	9.54	29.83	-23.7	-24.9	19.0	0.00e+00	0	43	0	1097859072	7	4121
2026-01-08 02:49:53.69	9.45	30.01	-23.7	-24.9	18.9	2.55e-04	0	43	0	1103101952	7	4135
2026-01-08 02:49:54.70	9.37	30.20	-23.7	-24.9	18.9	0.00e+00	0	43	0	1108344832	7	4129
2026-01-08 02:49:55.70	9.28	30.39	-23.7	-24.9	18.9	0.00e+00	0	43	0	1114636288	7	4133
2026-01-08 02:49:56.70	9.19	30.57	-23.6	-24.7	19.0	8.24e-04	0	43	0	1119879168	7	4094
2026-01-08 02:49:57.71	9.11	30.77	-23.6	-24.7	19.0	0.00e+00	0	43	0	1125122048	7	4073
2026-01-08 02:49:58.72	9.02	30.96	-23.6	-24.8	19.0	7.37e-04	0	43	0	1131413504	7	4101
2026-01-08 02:49:59.73	8.92	31.15	-23.5	-24.5	19.1	0.00e+00	0	43	0	1136656384	7	4032
2026-01-08 02:50:00.74	8.83	31.34	-23.5	-24.5	19.1	0.00e+00	0	43	0	1142947840	7	4035
2026-01-08 02:50:01.74	8.74	31.54	-23.6	-24.6	19.0	0.00e+00	0	43	0	1148190720	7	4069
2026-01-08 02:50:02.74	8.65	31.73	-23.5	-24.5	19.1	0.00e+00	0	43	0	1154482176	7	4031
2026-01-08 02:50:03.74	8.55	31.93	-23.4	-24.3	19.2	0.00e+00	0	43	0	1159725056	7	4000
2026-01-08 02:50:04.75	8.46	32.13	-23.5	-24.4	19.2	0.00e+00	0	43	0	1164967936	7	4013
2026-01-08 02:50:05.76	8.36	32.33	-23.3	-24.0	19.4	0.00e+00	0	43	0	1171259392	7	3923
2026-01-08 02:50:06.76	8.26	32.53	-23.1	-23.6	19.6	0.00e+00	0	43	0	1176502272	7	3833
2026-01-08 02:50:07.76	8.16	32.73	-23.0	-23.5	19.7	0.00e+00	0	43	0	1181745152	7	3798
2026-01-08 02:50:08.77	8.06	32.93	-23.1	-24.2	19.5	0.00e+00	0	43	0	1188036608	6	4081
2026-01-08 02:50:09.78	7.95	33.14	-23.0	-23.9	19.7	0.00e+00	0	43	0	1193279488	6	4001
2026-01-08 02:50:10.78	7.85	33.34	-22.9	-23.7	19.8	0.00e+00	0	43	0	1199570944	6	3952
2026-01-08 02:50:11.79	7.74	33.55	-23.0	-23.8	19.7	0.00e+00	0	43	0	1204813824	6	3982
2026-01-08 02:50:12.79	7.64	33.76	-23.0	-24.0	19.7	0.00e+00	0	43	0	1210056704	6	4016
2026-01-08 02:50:13.80	7.53	33.97	-23.2	-24.3	19.5	0.00e+00	0	43	0	1216348160	6	4103
2026-01-08 02:50:14.81	7.42	34.18	-23.2	-24.4	19.5	0.00e+00	0	43	0	1221591040	6	4116
2026-01-08 02:50:15.81	7.31	34.39	-23.3	-24.5	19.4	0.00e+00	0	43	0	1227882496	6	4142
2026-01-08 02:50:16.82	7.19	34.61	-23.3	-24.5	19.4	0.00e+00	0	43	0	1233125376	6	4134
2026-01-08 02:50:17.82	7.08	34.82	-23.1	-24.2	19.6	0.00e+00	0	43	0	1239416832	6	4065
2026-01-08 02:50:18.83	6.96	35.04	-23.1	-24.2	19.5	0.00e+00	0	43	0	1244659712	6	4083
2026-01-08 02:50:19.83	6.85	35.26	-23.3	-24.5	19.4	0.00e+00	0	43	0	1249902592	6	4146
2026-01-08 02:50:20.84	6.73	35.48	-23.2	-24.3	19.5	0.00e+00	0	43	0	1256194048	6	4107
2026-01-08 02:50:21.85	6.61	35.70	-23.3	-24.5	19.4	0.00e+00	0	43	0	1261436928	6	4158
2026-01-08 02:50:22.85	6.48	35.92	-23.2	-24.3	19.5	0.00e+00	0	43	0	1266679808	6	4092
2026-01-08 02:50:23.86	6.36	36.14	-23.1	-24.1	19.6	0.00e+00	0	43	0	1272971264	6	4041
2026-01-08 02:50:24.86	6.23	36.37	-23.2	-24.2	19.6	0.00e+00	0	44	0	1278214144	6	4078
2026-01-08 02:50:25.87	6.11	36.59	-23.1	-24.2	19.6	0.00e+00	0	43	0	1283457024	6	4078
2026-01-08 02:50:26.88	5.98	36.82	-23.6	-24.7	19.1	0.00e+00	0	43	0	1289748480	7	4079
2026-01-08 02:50:27.88	5.84	37.05	-23.4	-24.3	19.3	0.00e+00	0	43	0	1294991360	7	3981
2026-01-08 02:50:28.89	5.71	37.28	-23.2	-23.9	19.5	0.00e+00	0	43	0	1301282816	7	3882
2026-01-08 02:50:29.89	5.58	37.51	-23.1	-23.6	19.6	0.00e+00	0	43	0	1306525696	7	3828
2026-01-08 02:50:30.90	5.44	37.75	-23.1	-23.6	19.7	0.00e+00	0	43	0	1312817152	7	3813
2026-01-08 02:50:31.90	5.30	37.98	-23.1	-24.2	19.6	0.00e+00	0	43	0	1318060032	6	4064
2026-01-08 02:50:32.91	5.16	38.22	-23.0	-23.9	19.8	0.00e+00	0	43	0	1323302912	6	3998
2026-01-08 02:50:33.92	5.01	38.46	-22.9	-23.8	19.8	0.00e+00	0	43	0	1329594368	6	3976
2026-01-08 02:50:34.93	4.86	38.70	-23.1	-24.2	19.6	0.00e+00	0	43	0	1334837248	6	4060
2026-01-08 02:50:35.93	4.72	38.93	-23.0	-23.9	19.8	0.00e+00	0	43	0	1341128704	6	3989
2026-01-08 02:50:36.94	4.57	39.18	-22.9	-23.7	19.9	0.00e+00	0	43	0	1346371584	6	3954
2026-01-08 02:50:37.95	4.41	39.42	-23.2	-24.2	19.6	0.00e+00	0	44	0	1351614464	6	4077
2026-01-08 02:50:38.95	4.26	39.67	-23.3	-24.6	19.4	0.00e+00	0	43	0	1357905920	6	4172
2026-01-08 02:50:39.96	4.10	39.91	-23.7	-24.8	19.1	0.00e+00	0	43	0	1363148800	7	4099
2026-01-08 02:50:40.97	3.94	40.16	-23.5	-24.4	19.3	0.00e+00	0	43	0	1368391680	7	4021
2026-01-08 02:50:41.96	3.78	40.41	-23.4	-24.2	19.4	0.00e+00	0	43	0	1374683136	7	3952
2026-01-08 02:50:42.97	3.61	40.66	-23.4	-24.3	19.4	0.00e+00	0	43	0	1379926016	7	3971
2026-01-08 02:50:43.98	3.45	40.91	-23.6	-24.8	19.1	0.00e+00	0	43	0	1386217472	7	4093
2026-01-08 02:50:44.98	3.28	41.17	-23.5	-24.5	19.2	0.00e+00	0	43	0	1391460352	7	4037
2026-01-08 02:50:45.99	3.10	41.42	-23.8	-25.1	18.9	1.05e-03	0	43	0	1397751808	7	4179
2026-01-08 02:50:46.99	2.93	41.68	-23.7	-24.9	19.0	0.00e+00	0	43	0	1402994688	7	4137
2026-01-08 02:50:47.99	2.75	41.94	-23.7	-24.9	19.1	0.00e+00	0	43	0	1408237568	7	4116
2026-01-08 02:50:48.99	2.57	42.19	-24.0	-25.4	18.8	0.00e+00	0	43	0	1414529024	7	4254
2026-01-08 02:50:50.00	2.38	42.46	-23.7	-24.8	19.1	0.00e+00	0	43	0	1419771904	7	4112
2026-01-08 02:50:51.00	2.19	42.72	-23.7	-24.8	19.1	0.00e+00	0	43	0	1425014784	7	4105
2026-01-08 02:50:52.01	2.00	42.98	-23.7	-24.8	19.1	0.00e+00	0	43	0	1431306240	7	4106
2026-01-08 02:50:53.02	1.81	43.25	-23.7	-24.8	19.1	1.08e-03	0	43	0	1436549120	7	4098
2026-01-08 02:50:54.02	1.61	43.52	-23.9	-25.2	18.9	0.00e+00	0	43	0	1442840576	7	4201
2026-01-08 02:50:55.03	1.41	43.79	-23.4	-24.2	19.4	1.06e-03	0	44	0	1448083456	7	3957
2026-01-08 02:50:56.03	1.21	44.06	-23.2	-23.8	19.7	0.00e+00	0	44	0	1454374912	7	3847
2026-01-08 02:50:57.04	1.00	44.33	-23.2	-23.7	19.7	0.00e+00	0	43	0	1459617792	7	3847
2026-01-08 02:50:58.04	0.79	44.60	-23.4	-24.2	19.4	1.06e-03	0	43	0	1464860672	7	3955
2026-01-08 02:50:59.05	0.57	44.88	-23.4	-24.2	19.4	0.00e+00	0	43	0	1471152128	7	3967
2026-01-08 02:51:00.06	0.35	45.16	-23.5	-24.5	19.3	0.00e+00	0	43	0	1476395008	7	4020
2026-01-08 02:51:01.07	0.12	45.43	-23.5	-24.5	19.3	0.00e+00	0	43	0	1481637888	7	4016
2026-01-08 02:51:02.07	359.90	45.71	-23.6	-24.7	19.2	1.09e-03	0	43	0	1487929344	7	4076
2026-01-08 02:51:03.08	359.67	45.99	-23.4	-24.3	19.4	0.00e+00	0	43	0	1493172224	7	3989
2026-01-08 02:51:04.09	359.43	46.28	-23.4	-24.2	19.4	1.07e-03	0	44	0	1499463680	7	3969
2026-01-08 02:51:05.09	359.19	46.56	-23.5	-24.4	19.3	1.03e-03	0	43	0	1504706560	7	4010
2026-01-08 02:51:06.09	358.95	46.84	-23.7	-24.9	19.1	0.00e+00	0	43	0	1509949440	7	4126
2026-01-08 02:51:07.10	358.70	47.13	-23.3	-24.1	19.5	8.43e-04	0	43	0	1516240896	7	3937
2026-01-08 02:51:08.10	358.44	47.42	-23.3	-24.1	19.5	0.00e+00	0	43	0	1521483776	7	3940
2026-01-08 02:51:09.11	358.18	47.71	-23.4	-24.2	19.5	0.00e+00	0	43	0	1527775232	7	3947
2026-01-08 02:51:10.11	357.92	47.99	-23.6	-24.6	19.2	8.59e-04	0	43	0	1533018112	7	4062
2026-01-08 02:51:11.12	357.65	48.29	-23.7	-24.8	19.1	8.47e-04	0	44	0	1538260992	7	4097
2026-01-08 02:51:12.12	357.38	48.58	-23.8	-25.1	19.0	0.00e+00	0	43	0	1544552448	7	4178
2026-01-08 02:51:13.13	357.10	48.87	-23.9	-25.2	19.0	9.05e-04	0	43	0	1549795328	7	4209
2026-01-08 02:51:14.13	356.82	49.17	-24.3	-25.6	18.6	8.69e-04	0	43	0	1556086784	8	4190
2026-01-08 02:51:15.14	356.52	49.46	-24.6	-25.9	18.1	0.00e+00	0	43	0	1561329664	9	4150
2026-01-08 02:51:16.15	356.23	49.76	-24.4	-25.4	18.4	7.75e-04	0	43	0	1566572544	9	4032
2026-01-08 02:51:17.15	355.93	50.06	-24.5	-25.5	18.4	0.00e+00	0	43	0	1572864000	9	4055
2026-01-08 02:51:18.15	355.62	50.36	-24.5	-25.5	18.4	0.00e+00	0	44	0	1578106880	9	4053
2026-01-08 02:51:19.16	355.30	50.66	-24.3	-25.2	18.5	6.56e-04	0	43	0	1583349760	9	3978
2026-01-08 02:51:20.16	354.99	50.96	-24.3	-25.6	18.6	7.26e-04	0	43	0	1589641216	8	4187
2026-01-08 02:51:21.17	354.66	51.27	-24.4	-25.8	18.4	0.00e+00	0	43	0	1594884096	8	4242
2026-01-08 02:51:22.18	354.32	51.57	-24.4	-25.8	18.5	0.00e+00	0	44	0	1601175552	8	4226
2026-01-08 02:51:23.19	353.98	51.88	-24.2	-25.5	18.6	7.17e-04	0	43	0	1606418432	8	4148
2026-01-08 02:51:24.19	353.63	52.18	-24.4	-25.7	18.5	0.00e+00	0	43	0	1612709888	8	4222
2026-01-08 02:51:25.20	353.27	52.49	-24.6	-25.8	18.2	7.12e-04	0	43	0	1617952768	9	4125
2026-01-08 02:51:26.21	352.91	52.80	-25.1	-26.4	17.7	0.00e+00	0	43	0	1623195648	10	4150
2026-01-08 02:51:27.22	352.54	53.11	-24.8	-25.6	18.1	0.00e+00	0	43	0	1629487104	10	3968
2026-01-08 02:51:28.22	352.16	53.41	-24.9	-25.8	18.0	0.00e+00	0	43	0	1634729984	10	4013
2026-01-08 02:51:29.23	351.77	53.72	-24.8	-26.2	18.0	0.00e+00	0	43	0	1641021440	9	4227
2026-01-08 02:51:30.24	351.37	54.03	-24.7	-26.0	18.1	0.00e+00	0	43	0	1646264320	9	4170
2026-01-08 02:51:31.25	350.97	54.34	-24.7	-26.0	18.1	0.00e+00	0	43	0	1651507200	9	4170
2026-01-08 02:51:32.26	350.55	54.66	-24.8	-26.1	18.1	4.53e-04	0	43	0	1657798656	9	4196
2026-01-08 02:51:33.27	350.13	54.97	-24.9	-26.4	18.0	0.00e+00	0	43	0	1663041536	9	4262
2026-01-08 02:51:34.28	349.69	55.28	-25.2	-26.5	17.6	0.00e+00	0	43	0	1669332992	10	4195
2026-01-08 02:51:35.28	349.25	55.59	-25.0	-26.0	17.9	0.00e+00	0	44	0	1674575872	10	4072
2026-01-08 02:51:36.29	348.80	55.90	-24.4	-24.9	18.5	0.00e+00	0	43	0	1679818752	10	3801
2026-01-08 02:51:37.30	348.34	56.22	-23.9	-24.3	19.0	0.00e+00	0	43	0	1686110208	9	3770
2026-01-08 02:51:38.30	347.87	56.52	-23.8	-24.5	19.2	0.00e+00	0	43	0	1691353088	8	3911
2026-01-08 02:51:39.31	347.38	56.84	-23.9	-24.7	19.0	0.00e+00	0	43	0	1697644544	8	3970
2026-01-08 02:51:40.32	346.88	57.15	-24.0	-25.0	18.9	0.00e+00	0	44	0	1702887424	8	4026
2026-01-08 02:51:41.33	346.38	57.46	-24.2	-25.3	18.7	0.00e+00	0	43	0	1709178880	8	4122
2026-01-08 02:51:42.33	345.86	57.77	-23.8	-24.5	19.2	0.00e+00	0	43	0	1714421760	8	3907
2026-01-08 02:51:43.34	345.33	58.08	-23.7	-24.8	19.3	0.00e+00	0	43	0	1719664640	7	4091
2026-01-08 02:51:44.33	344.80	58.38	-23.8	-25.0	19.1	0.00e+00	0	43	0	1725956096	7	4154
2026-01-08 02:51:45.34	344.24	58.69	-23.9	-25.2	19.0	0.00e+00	0	43	0	1731198976	7	4205
2026-01-08 02:51:46.34	343.67	59.00	-24.0	-25.4	18.9	0.00e+00	0	43	0	1736441856	7	4260
2026-01-08 02:51:47.34	343.09	59.30	-23.9	-24.8	19.0	0.00e+00	0	43	0	1742733312	8	3996
2026-01-08 02:51:48.35	342.50	59.60	-23.8	-24.6	19.1	0.00e+00	0	44	0	1747976192	8	3934
2026-01-08 02:51:49.35	341.89	59.91	-24.2	-25.4	18.7	0.00e+00	0	43	0	1753219072	8	4146
2026-01-08 02:51:50.35	341.27	60.21	-24.3	-25.7	18.6	0.00e+00	0	43	0	1759510528	8	4219
2026-01-08 02:51:51.35	340.63	60.50	-24.1	-25.1	18.8	0.00e+00	0	43	0	1764753408	8	4068
2026-01-08 02:51:52.36	339.98	60.80	-23.6	-24.1	19.4	0.00e+00	0	43	0	1771044864	8	3821
2026-01-08 02:51:53.37	339.30	61.10	-23.7	-24.8	19.2	0.00e+00	0	43	0	1776287744	7	4111
2026-01-08 02:51:54.38	338.62	61.39	-23.4	-24.1	19.6	0.00e+00	0	44	0	1782579200	7	3940
2026-01-08 02:51:55.38	337.92	61.68	-23.3	-24.1	19.6	0.00e+00	0	43	0	1787822080	7	3921
2026-01-08 02:51:56.39	337.20	61.97	-23.4	-24.3	19.5	0.00e+00	0	44	0	1793064960	7	3977
2026-01-08 02:51:57.39	336.46	62.26	-23.4	-24.3	19.5	0.00e+00	0	43	0	1799356416	7	3979
2026-01-08 02:51:58.39	335.71	62.54	-23.2	-23.7	19.8	0.00e+00	0	43	0	1804599296	7	3847
2026-01-08 02:51:59.40	334.94	62.82	-22.9	-23.7	20.1	0.00e+00	0	43	0	1809842176	6	3939
2026-01-08 02:52:00.38	334.17	63.09	-23.0	-23.9	20.0	0.00e+00	0	43	0	1816133632	6	3982
2026-01-08 02:52:01.38	333.37	63.36	-23.1	-24.1	19.9	0.00e+00	0	44	0	1821376512	6	4037
2026-01-08 02:52:02.39	332.54	63.63	-22.7	-23.3	20.3	0.00e+00	0	44	0	1826619392	6	3859
2026-01-08 02:52:03.40	331.69	63.89	-22.6	-23.0	20.4	0.00e+00	0	44	0	1832910848	6	3782
2026-01-08 02:52:04.41	330.82	64.16	-22.8	-23.4	20.2	0.00e+00	0	44	0	1838153728	6	3875
2026-01-08 02:52:05.42	329.93	64.41	-22.7	-23.8	20.3	0.00e+00	0	43	0	1844445184	5	4082
2026-01-08 02:52:06.43	329.02	64.67	-22.8	-23.9	20.2	0.00e+00	0	44	0	1849688064	5	4120
2026-01-08 02:52:07.44	328.09	64.91	-22.7	-23.8	20.2	0.00e+00	0	44	0	1855979520	5	4082
2026-01-08 02:52:08.44	327.15	65.15	-22.5	-23.3	20.5	0.00e+00	0	43	0	1861222400	5	3950
2026-01-08 02:52:09.45	326.18	65.39	-22.3	-23.0	20.6	0.00e+00	0	43	0	1866465280	5	3888
2026-01-08 02:52:10.46	325.19	65.62	-22.2	-22.8	20.8	0.00e+00	0	43	0	1872756736	5	3835
2026-01-08 02:52:11.47	324.18	65.85	-22.3	-23.0	20.6	0.00e+00	0	43	0	1877999616	5	3892
2026-01-08 02:52:12.47	323.16	66.06	-22.6	-23.6	20.3	9.61e-05	0	43	0	1884291072	5	4037
2026-01-08 02:52:13.48	322.10	66.27	-22.7	-23.8	20.2	0.00e+00	0	43	0	1889533952	5	4095
2026-01-08 02:52:14.48	321.04	66.48	-22.3	-22.9	20.7	0.00e+00	0	43	0	1894776832	5	3861
2026-01-08 02:52:15.49	319.95	66.67	-22.1	-22.5	20.9	0.00e+00	0	43	0	1901068288	5	3770
2026-01-08 02:52:16.50	318.83	66.86	-22.1	-22.5	20.9	0.00e+00	0	44	0	1906311168	5	3767
2026-01-08 02:52:17.50	317.71	67.04	-22.0	-22.3	21.0	0.00e+00	0	44	0	1911554048	5	3736
2026-01-08 02:52:18.50	316.57	67.22	-22.0	-22.4	20.9	0.00e+00	0	43	0	1917845504	5	3753
2026-01-08 02:52:19.51	315.40	67.38	-22.0	-22.3	21.0	6.40e-05	0	44	0	1923088384	5	3723
2026-01-08 02:52:20.52	314.21	67.54	-22.0	-22.4	20.9	0.00e+00	0	43	0	1929379840	5	3754
2026-01-08 02:52:21.52	313.01	67.69	-22.0	-22.4	20.9	0.00e+00	0	43	0	1934622720	5	3760
2026-01-08 02:52:22.53	311.78	67.83	-22.1	-22.6	20.8	0.00e+00	0	43	0	1940914176	5	3806
2026-01-08 02:52:23.53	310.55	67.96	-22.1	-22.6	20.8	0.00e+00	0	43	0	1946157056	5	3794
2026-01-08 02:52:24.54	309.30	68.08	-22.2	-22.8	20.7	0.00e+00	0	44	0	1951399936	5	3841
2026-01-08 02:52:25.55	308.02	68.19	-22.1	-22.6	20.8	0.00e+00	0	43	0	1957691392	5	3805
2026-01-08 02:52:26.55	306.75	68.29	-22.1	-22.5	20.9	0.00e+00	0	43	0	1962934272	5	3780
2026-01-08 02:52:27.55	305.46	68.38	-21.8	-22.0	21.1	0.00e+00	0	44	0	1968177152	5	3670
2026-01-08 02:52:28.56	304.15	68.46	-22.0	-22.4	20.9	1.57e-04	0	43	0	1974468608	5	3747
2026-01-08 02:52:29.57	302.83	68.54	-22.0	-22.3	20.9	0.00e+00	0	44	0	1979711488	5	3736
2026-01-08 02:52:30.58	301.51	68.60	-21.6	-22.0	21.4	3.89e-05	0	44	0	1986002944	4	3758
2026-01-08 02:52:31.58	300.18	68.64	-21.8	-22.5	21.1	0.00e+00	0	44	0	1991245824	4	3880
2026-01-08 02:52:32.59	298.84	68.68	-22.0	-22.9	20.9	0.00e+00	0	43	0	1996488704	4	3971
2026-01-08 02:52:33.59	297.51	68.71	-22.0	-22.7	21.0	3.18e-04	0	43	0	2002780160	4	3939
2026-01-08 02:52:34.60	296.16	68.73	-21.9	-22.7	21.0	2.20e-06	0	44	0	2008023040	4	3921
2026-01-08 02:52:35.61	294.81	68.73	-22.1	-23.0	20.8	0.00e+00	0	43	0	2014314496	4	4002
2026-01-08 02:52:36.62	293.46	68.73	-22.2	-23.3	20.7	6.26e-04	0	43	0	2019557376	4	4076
2026-01-08 02:52:37.62	292.12	68.71	-22.0	-22.7	21.0	5.19e-04	0	43	0	2025848832	4	3933
2026-01-08 02:52:38.63	290.77	68.69	-22.0	-22.9	20.9	0.00e+00	0	43	0	2031091712	4	3971
2026-01-08 02:52:39.64	289.43	68.65	-22.0	-22.8	20.9	3.05e-04	0	43	0	2036334592	4	3961
2026-01-08 02:52:40.65	288.09	68.60	-21.9	-22.6	21.0	6.33e-04	0	43	0	2042626048	4	3909
2026-01-08 02:52:41.65	286.77	68.54	-21.9	-22.7	20.9	0.00e+00	0	44	0	2047868928	4	3928
2026-01-08 02:52:42.66	285.45	68.47	-21.7	-22.2	21.2	7.15e-04	0	44	0	2053111808	4	3806
2026-01-08 02:52:43.66	284.15	68.39	-21.9	-22.7	21.0	0.00e+00	0	43	0	2059403264	4	3924
2026-01-08 02:52:44.67	282.85	68.30	-22.0	-22.7	20.9	0.00e+00	0	44	0	2064646144	4	3938
2026-01-08 02:52:45.68	281.57	68.20	-21.8	-22.4	21.1	0.00e+00	0	44	0	2070937600	4	3854
2026-01-08 02:52:46.69	280.29	68.09	-21.7	-22.2	21.2	9.19e-04	0	44	0	2076180480	4	3822
2026-01-08 02:52:47.69	279.04	67.97	-21.8	-22.5	21.0	0.00e+00	0	43	0	2081423360	4	3890
2026-01-08 02:52:48.70	277.80	67.84	-21.8	-22.4	21.1	0.00e+00	0	43	0	2087714816	4	3851
2026-01-08 02:52:49.71	276.57	67.71	-21.6	-22.1	21.2	1.01e-03	0	43	0	2092957696	4	3792
2026-01-08 02:52:50.71	275.37	67.56	-21.7	-22.2	21.2	0.00e+00	0	43	0	2099249152	4	3825
2026-01-08 02:52:51.72	274.18	67.40	-21.8	-22.5	21.1	8.96e-04	0	43	0	2104492032	4	3879
2026-01-08 02:52:52.72	273.01	67.24	-22.0	-22.9	20.8	0.00e+00	0	44	0	2109734912	4	3991
2026-01-08 02:52:53.72	271.87	67.07	-21.8	-22.5	21.0	0.00e+00	0	44	0	2116026368	4	3881
2026-01-08 02:52:54.73	270.73	66.88	-21.8	-22.5	21.0	0.00e+00	0	44	0	2121269248	4	3880
2026-01-08 02:52:55.74	269.61	66.69	-22.2	-23.3	20.6	0.00e+00	0	44	0	2127560704	4	4081
2026-01-08 02:52:56.74	268.53	66.50	-22.1	-23.1	20.7	0.00e+00	0	44	0	2132803584	4	4030
2026-01-08 02:52:57.75	267.45	66.29	-22.0	-22.8	20.9	0.00e+00	0	44	0	2138046464	4	3963
2026-01-08 02:52:58.75	266.40	66.09	-22.4	-23.7	20.5	6.04e-04	0	44	0	2144337920	4	4164
2026-01-08 02:52:59.76	265.37	65.87	-22.3	-22.9	20.6	0.00e+00	0	44	0	2149580800	5	3874
2026-01-08 02:53:00.77	264.35	65.64	-22.0	-22.9	20.9	0.00e+00	0	44	0	2154823680	4	3968
2026-01-08 02:53:01.78	263.36	65.41	-22.2	-23.2	20.7	0.00e+00	0	43	0	2161115136	4	4050
2026-01-08 02:53:02.79	262.38	65.18	-22.0	-22.8	20.9	0.00e+00	0	44	0	2166358016	4	3953
2026-01-08 02:53:03.80	261.43	64.93	-22.0	-22.8	20.9	0.00e+00	0	44	0	2172649472	4	3954
2026-01-08 02:53:04.80	260.51	64.69	-22.1	-23.1	20.7	0.00e+00	0	44	0	2177892352	4	4035
2026-01-08 02:53:05.81	259.59	64.44	-22.0	-22.9	20.8	0.00e+00	0	44	0	2184183808	4	3971
2026-01-08 02:53:06.82	258.70	64.18	-22.1	-22.9	20.8	0.00e+00	0	44	0	2189426688	4	3987
2026-01-08 02:53:07.82	257.84	63.92	-22.3	-23.5	20.5	0.00e+00	0	43	0	2195718144	4	4121
2026-01-08 02:53:08.83	256.99	63.65	-22.5	-23.4	20.4	0.00e+00	0	43	0	2200961024	5	3981
2026-01-08 02:53:09.84	256.15	63.38	-22.8	-24.0	20.0	0.00e+00	0	43	0	2206203904	5	4127
2026-01-08 02:53:10.84	255.35	63.11	-22.7	-23.9	20.1	0.00e+00	0	44	0	2212495360	5	4109
2026-01-08 02:53:11.85	254.55	62.84	-22.7	-23.8	20.1	0.00e+00	0	43	0	2217738240	5	4085
2026-01-08 02:53:12.85	253.78	62.56	-22.7	-23.8	20.2	0.00e+00	0	43	0	2222981120	5	4078
2026-01-08 02:53:13.86	253.02	62.27	-22.5	-23.4	20.3	0.00e+00	0	43	0	2229272576	5	3988
2026-01-08 02:53:14.86	252.29	61.99	-22.6	-23.5	20.3	0.00e+00	0	43	0	2234515456	5	4014
2026-01-08 02:53:15.87	251.56	61.70	-22.6	-23.5	20.3	0.00e+00	0	44	0	2239758336	5	4014
2026-01-08 02:53:16.87	250.86	61.41	-22.6	-23.6	20.2	0.00e+00	0	43	0	2246049792	5	4042
2026-01-08 02:53:17.87	250.18	61.12	-22.6	-23.5	20.3	0.00e+00	0	43	0	2251292672	5	4008
2026-01-08 02:53:18.88	249.50	60.82	-22.8	-24.0	20.0	0.00e+00	0	44	0	2257584128	5	4124
2026-01-08 02:53:19.88	248.85	60.52	-23.1	-24.2	19.7	0.00e+00	0	44	0	2262827008	6	4070
2026-01-08 02:53:20.89	248.20	60.22	-23.5	-25.0	19.3	0.00e+00	0	44	0	2269118464	6	4272
2026-01-08 02:53:21.90	247.57	59.92	-23.6	-24.6	19.2	0.00e+00	0	44	0	2274361344	7	4058
2026-01-08 02:53:22.90	246.97	59.62	-23.5	-24.4	19.3	0.00e+00	0	44	0	2279604224	7	4007
2026-01-08 02:53:23.91	246.37	59.31	-23.6	-24.6	19.3	0.00e+00	0	44	0	2285895680	7	4042
2026-01-08 02:53:24.91	245.79	59.01	-23.5	-24.4	19.3	0.00e+00	0	43	0	2291138560	7	4013
2026-01-08 02:53:25.92	245.21	58.70	-23.6	-24.6	19.2	0.00e+00	0	43	0	2296381440	7	4068
2026-01-08 02:53:26.92	244.66	58.39	-23.8	-25.2	18.9	0.00e+00	0	44	0	2302672896	7	4215
2026-01-08 02:53:27.94	244.11	58.08	-23.7	-24.9	19.1	0.00e+00	0	43	0	2307915776	7	4124
2026-01-08 02:53:28.93	243.58	57.77	-24.1	-25.1	18.7	0.00e+00	0	44	0	2314207232	8	4073
2026-01-08 02:53:29.94	243.06	57.46	-24.0	-24.9	18.8	0.00e+00	0	44	0	2319450112	8	4013
2026-01-08 02:53:30.94	242.56	57.15	-23.7	-24.5	19.1	0.00e+00	0	43	0	2324692992	8	3910
2026-01-08 02:53:31.94	242.06	56.84	-23.6	-24.1	19.2	0.00e+00	0	43	0	2330984448	8	3837
2026-01-08 02:53:32.95	241.58	56.53	-23.6	-24.2	19.2	0.00e+00	0	44	0	2336227328	8	3860
2026-01-08 02:53:33.94	241.11	56.22	-24.0	-25.5	18.7	0.00e+00	0	43	0	2342518784	7	4268
2026-01-08 02:53:34.95	240.64	55.91	-23.8	-24.7	18.9	0.00e+00	0	44	0	2347761664	8	3961
2026-01-08 02:53:35.95	240.19	55.60	-23.7	-24.4	19.1	0.00e+00	0	44	0	2353004544	8	3884
2026-01-08 02:53:36.96	239.75	55.28	-23.7	-24.4	19.0	0.00e+00	0	43	0	2359296000	8	3908
2026-01-08 02:53:37.97	239.31	54.97	-23.6	-24.3	19.1	0.00e+00	0	43	0	2364538880	8	3868
2026-01-08 02:53:38.98	238.88	54.66	-23.6	-24.6	19.2	3.25e-04	0	44	0	2370830336	7	4050
2026-01-08 02:53:39.98	238.47	54.35	-23.8	-25.0	18.9	0.00e+00	0	44	0	2376073216	7	4165
2026-01-08 02:53:40.99	238.06	54.03	-23.7	-24.9	19.0	0.00e+00	0	44	0	2381316096	7	4121
2026-01-08 02:53:41.99	237.67	53.73	-23.9	-25.3	18.8	0.00e+00	0	43	0	2387607552	7	4222
2026-01-08 02:53:43.00	237.28	53.41	-23.8	-25.0	18.9	0.00e+00	0	43	0	2392850432	7	4160
2026-01-08 02:53:44.00	236.90	53.11	-23.8	-25.1	18.9	0.00e+00	0	43	0	2398093312	7	4177
2026-01-08 02:53:45.01	236.53	52.80	-24.0	-25.4	18.7	0.00e+00	0	43	0	2404384768	7	4272
2026-01-08 02:53:46.02	236.16	52.49	-23.8	-25.1	18.9	7.68e-04	0	43	0	2409627648	7	4179
2026-01-08 02:53:47.02	235.80	52.18	-23.7	-25.0	18.9	0.00e+00	0	44	0	2415919104	7	4138
2026-01-08 02:53:48.03	235.45	51.87	-24.0	-25.5	18.7	7.69e-04	0	44	0	2421161984	7	4265
2026-01-08 02:53:49.04	235.11	51.57	-24.0	-25.5	18.7	0.00e+00	0	44	0	2427453440	7	4278
2026-01-08 02:53:50.05	234.77	51.26	-24.4	-26.0	18.2	0.00e+00	0	43	0	2432696320	8	4298
2026-01-08 02:53:51.06	234.44	50.95	-24.0	-24.9	18.7	5.12e-04	0	44	0	2437939200	8	4026
2026-01-08 02:53:52.06	234.12	50.65	-23.5	-24.5	19.1	0.00e+00	0	44	0	2444230656	7	4042
2026-01-08 02:53:53.07	233.80	50.35	-23.4	-24.1	19.3	0.00e+00	0	44	0	2449473536	7	3945
2026-01-08 02:53:54.07	233.50	50.05	-23.3	-24.0	19.4	0.00e+00	0	44	0	2455764992	7	3918
2026-01-08 02:53:55.08	233.19	49.75	-23.4	-24.3	19.3	4.39e-04	0	44	0	2461007872	7	3977
2026-01-08 02:53:56.08	232.90	49.45	-23.3	-24.0	19.4	0.00e+00	0	43	0	2466250752	7	3902
2026-01-08 02:53:57.10	232.60	49.15	-23.2	-23.9	19.5	3.22e-04	0	44	0	2472542208	7	3879
2026-01-08 02:53:58.10	232.32	48.86	-23.4	-24.2	19.3	2.95e-04	0	44	0	2477785088	7	3955
2026-01-08 02:53:59.10	232.04	48.56	-23.4	-24.3	19.2	0.00e+00	0	43	0	2483027968	7	3991
2026-01-08 02:54:00.11	231.76	48.27	-23.3	-24.5	19.4	3.86e-04	0	44	0	2489319424	6	4144
2026-01-08 02:54:01.11	231.49	47.98	-23.1	-24.1	19.6	0.00e+00	0	43	0	2494562304	6	4054
2026-01-08 02:54:02.12	231.23	47.68	-23.2	-24.4	19.4	0.00e+00	0	44	0	2500853760	6	4113
2026-01-08 02:54:03.13	230.97	47.39	-23.0	-24.0	19.6	7.09e-04	0	44	0	2506096640	6	4025
2026-01-08 02:54:04.13	230.71	47.10	-22.9	-23.7	19.8	6.81e-04	0	44	0	2512388096	6	3967
2026-01-08 02:54:05.13	230.46	46.82	-22.8	-23.5	19.9	0.00e+00	0	43	0	2517630976	6	3904
2026-01-08 02:54:06.14	230.22	46.53	-22.8	-23.5	19.9	6.53e-04	0	43	0	2522873856	6	3898
2026-01-08 02:54:07.15	229.98	46.25	-22.9	-23.7	19.8	6.04e-04	0	44	0	2529165312	6	3936
2026-01-08 02:54:08.15	229.74	45.96	-22.7	-23.3	20.0	0.00e+00	0	44	0	2534408192	6	3854
2026-01-08 02:54:09.16	229.51	45.68	-22.8	-23.5	19.9	3.07e-04	0	43	0	2539651072	6	3893
2026-01-08 02:54:10.16	229.28	45.40	-23.0	-24.0	19.6	2.71e-04	0	43	0	2545942528	6	4026
2026-01-08 02:54:11.17	229.05	45.12	-23.2	-24.4	19.4	0.00e+00	0	44	0	2551185408	6	4128
2026-01-08 02:54:12.17	228.83	44.85	-22.9	-23.8	19.7	0.00e+00	0	44	0	2557476864	6	3962
2026-01-08 02:54:13.18	228.62	44.57	-22.8	-23.5	19.9	0.00e+00	0	44	0	2562719744	6	3897
2026-01-08 02:54:14.19	228.40	44.29	-22.8	-23.5	19.9	0.00e+00	0	43	0	2567962624	6	3897
2026-01-08 02:54:15.20	228.19	44.02	-23.0	-24.0	19.6	0.00e+00	0	44	0	2574254080	6	4013
2026-01-08 02:54:16.20	227.99	43.75	-22.9	-23.7	19.8	1.82e-04	0	44	0	2579496960	6	3960
2026-01-08 02:54:17.21	227.79	43.48	-23.0	-23.9	19.6	0.00e+00	0	44	0	2585788416	6	4016
2026-01-08 02:54:18.21	227.59	43.21	-22.9	-23.6	19.8	1.86e-04	0	43	0	2591031296	6	3940
2026-01-08 02:54:19.21	227.39	42.94	-22.9	-23.7	19.8	0.00e+00	0	44	0	2596274176	6	3948
2026-01-08 02:54:20.21	227.20	42.68	-22.9	-23.7	19.8	0.00e+00	0	43	0	2602565632	6	3950
2026-01-08 02:54:21.22	227.01	42.42	-22.7	-23.3	20.0	2.78e-04	0	44	0	2607808512	6	3857
2026-01-08 02:54:22.23	226.83	42.15	-22.6	-23.0	20.1	0.00e+00	0	43	0	2614099968	6	3794
2026-01-08 02:54:23.23	226.65	41.89	-22.6	-23.0	20.1	0.00e+00	0	44	0	2619342848	6	3793
2026-01-08 02:54:24.24	226.46	41.63	-22.7	-23.2	20.0	0.00e+00	0	44	0	2624585728	6	3838
2026-01-08 02:54:25.25	226.29	41.37	-22.4	-22.8	20.2	0.00e+00	0	44	0	2630877184	6	3735
2026-01-08 02:54:26.26	226.11	41.11	-22.5	-22.9	20.2	0.00e+00	0	44	0	2636120064	6	3754
2026-01-08 02:54:27.26	225.94	40.86	-22.7	-23.2	20.0	0.00e+00	0	43	0	2641362944	6	3837
2026-01-08 02:54:28.27	225.77	40.61	-22.7	-23.3	19.9	0.00e+00	0	44	0	2647654400	6	3862
2026-01-08 02:54:29.28	225.61	40.35	-22.8	-23.6	19.8	0.00e+00	0	43	0	2652897280	6	3938
2026-01-08 02:54:30.28	225.44	40.10	-22.8	-23.5	19.8	0.00e+00	0	44	0	2659188736	6	3912
2026-01-08 02:54:31.29	225.28	39.85	-22.8	-23.6	19.8	0.00e+00	0	44	0	2664431616	6	3924
2026-01-08 02:54:32.29	225.12	39.61	-23.0	-23.9	19.6	0.00e+00	0	44	0	2670723072	6	3996
2026-01-08 02:54:33.29	224.97	39.36	-23.1	-24.2	19.5	0.00e+00	0	43	0	2675965952	6	4081
2026-01-08 02:54:34.30	224.82	39.12	-22.9	-23.8	19.7	0.00e+00	0	44	0	2681208832	6	3972
2026-01-08 02:54:35.30	224.67	38.88	-22.8	-23.6	19.8	0.00e+00	0	44	0	2687500288	6	3923
2026-01-08 02:54:36.31	224.52	38.63	-22.8	-23.5	19.8	0.00e+00	0	44	0	2692743168	6	3919
2026-01-08 02:54:37.31	224.37	38.39	-22.8	-23.4	19.9	0.00e+00	0	43	0	2697986048	6	3896
2026-01-08 02:54:38.31	224.23	38.16	-22.6	-23.2	20.0	0.00e+00	0	44	0	2704277504	6	3833
2026-01-08 02:54:39.33	224.08	37.92	-22.7	-23.3	19.9	1.10e-06	0	44	0	2709520384	6	3867
2026-01-08 02:54:40.33	223.94	37.68	-22.5	-22.9	20.1	0.00e+00	0	43	0	2715811840	6	3770
2026-01-08 02:54:41.33	223.81	37.45	-22.5	-23.0	20.0	0.00e+00	0	44	0	2721054720	6	3790
2026-01-08 02:54:42.34	223.67	37.21	-22.6	-23.0	20.0	0.00e+00	0	44	0	2726297600	6	3796
2026-01-08 02:54:43.35	223.53	36.98	-22.5	-22.9	20.1	0.00e+00	0	44	0	2732589056	6	3762
2026-01-08 02:54:44.36	223.40	36.75	-22.5	-22.8	20.1	0.00e+00	0	44	0	2737831936	6	3747
2026-01-08 02:54:45.36	223.27	36.52	-22.4	-22.6	20.2	0.00e+00	0	44	0	2744123392	6	3706
2026-01-08 02:54:46.37	223.14	36.30	-22.5	-22.8	20.1	0.00e+00	0	44	0	2749366272	6	3745
2026-01-08 02:54:47.38	223.01	36.07	-22.5	-22.9	20.1	0.00e+00	0	44	0	2755657728	6	3771
2026-01-08 02:54:48.38	222.89	35.85	-22.5	-22.9	20.1	0.00e+00	0	44	0	2760900608	6	3759
2026-01-08 02:54:49.39	222.77	35.62	-22.6	-23.0	20.0	0.00e+00	0	44	0	2766143488	6	3798
2026-01-08 02:54:50.40	222.64	35.40	-22.6	-23.2	19.9	0.00e+00	0	44	0	2772434944	6	3828
2026-01-08 02:54:51.41	222.52	35.18	-22.7	-23.2	19.9	0.00e+00	0	44	0	2777677824	6	3850
2026-01-08 02:54:52.40	222.41	34.96	-22.7	-23.2	19.9	0.00e+00	0	43	0	2782920704	6	3848
2026-01-08 02:54:53.41	222.29	34.74	-22.7	-23.3	19.9	0.00e+00	0	44	0	2789212160	6	3855
2026-01-08 02:54:54.41	222.18	34.53	-22.7	-23.2	19.9	0.00e+00	0	44	0	2794455040	6	3838
2026-01-08 02:54:55.42	222.06	34.31	-22.5	-22.9	20.1	0.00e+00	0	44	0	2800746496	6	3769
2026-01-08 02:54:56.43	221.95	34.10	-22.5	-23.0	20.1	0.00e+00	0	44	0	2805989376	6	3778
2026-01-08 02:54:57.44	221.84	33.89	-22.6	-23.0	20.0	0.00e+00	0	44	0	2811232256	6	3798
2026-01-08 02:54:58.44	221.73	33.68	-22.6	-23.0	20.0	0.00e+00	0	44	0	2817523712	6	3800
2026-01-08 02:54:59.44	221.62	33.47	-22.7	-23.3	19.9	0.00e+00	0	44	0	2822766592	6	3853
2026-01-08 02:55:00.45	221.52	33.26	-22.8	-23.5	19.8	0.00e+00	0	44	0	2829058048	6	3910
2026-01-08 02:55:01.46	221.41	33.05	-22.8	-23.5	19.7	0.00e+00	0	44	0	2834300928	6	3920
2026-01-08 02:55:02.45	221.31	32.85	-22.8	-23.6	19.7	0.00e+00	0	44	0	2839543808	6	3940
2026-01-08 02:55:03.46	221.21	32.65	-22.8	-23.6	19.7	0.00e+00	0	44	0	2845835264	6	3934
2026-01-08 02:55:04.47	221.11	32.44	-22.9	-23.6	19.7	0.00e+00	0	43	0	2851078144	6	3942
2026-01-08 02:55:05.47	221.01	32.24	-22.8	-23.6	19.7	0.00e+00	0	44	0	2857369600	6	3937
2026-01-08 02:55:06.47	220.91	32.04	-22.9	-23.7	19.7	0.00e+00	0	44	0	2862612480	6	3946
2026-01-08 02:55:07.48	220.81	31.84	-22.9	-23.7	19.7	0.00e+00	0	44	0	2867855360	6	3951
2026-01-08 02:55:08.48	220.72	31.65	-22.8	-23.5	19.7	0.00e+00	0	44	0	2874146816	6	3913
2026-01-08 02:55:09.48	220.62	31.45	-22.9	-23.8	19.6	0.00e+00	0	44	0	2879389696	6	3974
2026-01-08 02:55:10.49	220.53	31.25	-22.9	-23.8	19.6	0.00e+00	0	43	0	2884632576	6	3981
2026-01-08 02:55:11.50	220.44	31.06	-23.0	-23.8	19.6	0.00e+00	0	44	0	2890924032	6	3985
2026-01-08 02:55:12.51	220.34	30.86	-23.0	-23.9	19.5	0.00e+00	0	44	0	2896166912	6	4006
2026-01-08 02:55:13.51	220.25	30.67	-22.9	-23.6	19.7	0.00e+00	0	44	0	2902458368	6	3939
2026-01-08 02:55:14.51	220.17	30.48	-22.8	-23.6	19.7	0.00e+00	0	44	0	2907701248	6	3930
2026-01-08 02:55:15.52	220.08	30.29	-22.9	-23.6	19.7	0.00e+00	0	44	0	2912944128	6	3936
2026-01-08 02:55:16.53	219.99	30.10	-22.9	-23.7	19.6	0.00e+00	0	44	0	2919235584	6	3956
2026-01-08 02:55:17.53	219.90	29.92	-22.9	-23.7	19.6	1.59e-04	0	44	0	2924478464	6	3961
2026-01-08 02:55:18.54	219.82	29.73	-23.0	-23.8	19.6	0.00e+00	0	44	0	2930769920	6	3988
2026-01-08 02:55:19.54	219.74	29.55	-23.0	-24.0	19.5	0.00e+00	0	43	0	2936012800	6	4022
2026-01-08 02:55:20.54	219.65	29.37	-23.0	-24.0	19.5	0.00e+00	0	44	0	2941255680	6	4030
2026-01-08 02:55:21.55	219.57	29.18	-23.1	-24.2	19.4	4.23e-05	0	43	0	2947547136	6	4069
2026-01-08 02:55:22.56	219.49	29.00	-23.1	-24.2	19.4	0.00e+00	0	44	0	2952790016	6	4081
2026-01-08 02:55:23.57	219.41	28.82	-23.2	-24.3	19.3	0.00e+00	0	44	0	2958032896	6	4098
2026-01-08 02:55:24.58	219.33	28.64	-23.3	-24.6	19.2	1.70e-04	0	44	0	2964324352	6	4167
2026-01-08 02:55:25.59	219.25	28.46	-23.3	-24.6	19.2	0.00e+00	0	43	0	2969567232	6	4171
2026-01-08 02:55:26.59	219.18	28.28	-23.3	-24.5	19.2	3.33e-04	0	44	0	2975858688	6	4146
2026-01-08 02:55:27.60	219.10	28.11	-23.3	-24.6	19.2	4.98e-04	0	44	0	2981101568	6	4169
2026-01-08 02:55:28.61	219.02	27.93	-23.3	-24.5	19.2	0.00e+00	0	44	0	2987393024	6	4158
2026-01-08 02:55:29.62	218.95	27.76	-23.3	-24.7	19.1	6.18e-04	0	44	0	2992635904	6	4191
2026-01-08 02:55:30.63	218.87	27.58	-23.3	-24.6	19.1	7.48e-04	0	44	0	2998927360	6	4164
2026-01-08 02:55:31.64	218.80	27.41	-23.3	-24.6	19.1	0.00e+00	0	44	0	3004170240	6	4169
2026-01-08 02:55:32.64	218.73	27.24	-23.2	-24.5	19.2	8.11e-04	0	44	0	3009413120	6	4136
2026-01-08 02:55:33.65	218.66	27.07	-23.2	-24.3	19.3	7.99e-04	0	44	0	3015704576	6	4097
2026-01-08 02:55:34.65	218.59	26.90	-23.2	-24.4	19.2	0.00e+00	0	44	0	3020947456	6	4113
2026-01-08 02:55:35.66	218.52	26.73	-23.2	-24.3	19.2	8.41e-04	0	44	0	3026190336	6	4103
2026-01-08 02:55:36.66	218.45	26.57	-23.2	-24.3	19.2	9.76e-04	0	44	0	3032481792	6	4109
2026-01-08 02:55:37.67	218.38	26.40	-23.2	-24.4	19.2	0.00e+00	0	44	0	3037724672	6	4122
2026-01-08 02:55:38.67	218.31	26.23	-23.2	-24.3	19.2	1.05e-03	0	44	0	3044016128	6	4111
2026-01-08 02:55:39.68	218.25	26.07	-23.3	-24.5	19.1	0.00e+00	0	44	0	3049259008	6	4163
2026-01-08 02:55:40.69	218.18	25.91	-23.3	-24.5	19.1	0.00e+00	0	43	0	3054501888	6	4153
2026-01-08 02:55:41.69	218.11	25.74	-23.3	-24.5	19.1	0.00e+00	0	43	0	3060793344	6	4163
2026-01-08 02:55:42.70	218.05	25.58	-23.3	-24.6	19.1	1.17e-03	0	44	0	3066036224	6	4176
2026-01-08 02:55:43.71	217.98	25.42	-23.4	-24.8	19.0	0.00e+00	0	44	0	3072327680	6	4232
2026-01-08 02:55:44.72	217.92	25.26	-23.4	-24.8	18.9	1.15e-03	0	44	0	3077570560	6	4240
2026-01-08 02:55:45.72	217.86	25.10	-23.5	-25.0	18.9	0.00e+00	0	44	0	3083862016	6	4280
2026-01-08 02:55:46.73	217.80	24.95	-23.7	-24.8	18.7	0.00e+00	0	43	0	3089104896	7	4120
2026-01-08 02:55:47.74	217.73	24.79	-23.6	-24.8	18.7	0.00e+00	0	44	0	3094347776	7	4103
2026-01-08 02:55:48.75	217.67	24.63	-23.4	-24.4	18.9	0.00e+00	0	43	0	3100639232	7	4005
2026-01-08 02:55:49.75	217.61	24.48	-23.4	-24.3	18.9	1.10e-06	0	44	0	3105882112	7	3992
2026-01-08 02:55:50.76	217.55	24.32	-23.3	-24.2	19.0	0.00e+00	0	43	0	3111124992	7	3959
2026-01-08 02:55:51.77	217.49	24.17	-23.4	-24.3	19.0	0.00e+00	0	44	0	3117416448	7	3991
2026-01-08 02:55:52.77	217.44	24.02	-23.4	-24.3	19.0	0.00e+00	0	44	0	3122659328	7	3977
2026-01-08 02:55:53.78	217.38	23.87	-23.5	-24.6	18.8	0.00e+00	0	44	0	3128950784	7	4052
2026-01-08 02:55:54.78	217.32	23.72	-23.5	-24.4	18.8	0.00e+00	0	44	0	3134193664	7	4018
2026-01-08 02:55:55.79	217.26	23.57	-23.5	-24.4	18.9	0.00e+00	0	44	0	3139436544	7	4008
2026-01-08 02:55:56.80	217.21	23.42	-23.5	-24.5	18.8	0.00e+00	0	44	0	3145728000	7	4039
2026-01-08 02:55:57.81	217.15	23.27	-23.6	-24.7	18.7	0.00e+00	0	44	0	3150970880	7	4075
2026-01-08 02:55:58.82	217.10	23.12	-23.7	-24.9	18.6	0.00e+00	0	44	0	3157262336	7	4130
2026-01-08 02:55:59.82	217.04	22.97	-23.6	-24.7	18.7	0.00e+00	0	44	0	3162505216	7	4084
2026-01-08 02:56:00.83	216.99	22.83	-23.7	-25.0	18.5	0.00e+00	0	43	0	3168796672	7	4165
2026-01-08 02:56:01.84	216.94	22.68	-23.8	-25.2	18.4	0.00e+00	0	44	0	3174039552	7	4216
2026-01-08 02:56:02.85	216.88	22.54	-23.9	-25.3	18.4	0.00e+00	0	44	0	3179282432	7	4243
2026-01-08 02:56:03.85	216.83	22.40	-24.1	-25.2	18.2	0.00e+00	0	44	0	3185573888	8	4115
2026-01-08 02:56:04.86	216.78	22.25	-24.3	-25.8	17.9	0.00e+00	0	43	0	3190816768	8	4252
2026-01-08 02:56:05.86	216.73	22.11	-24.2	-25.6	18.0	0.00e+00	0	44	0	3196059648	8	4200
2026-01-08 02:56:06.87	216.68	21.97	-24.1	-25.3	18.1	0.00e+00	0	44	0	3202351104	8	4140
2026-01-08 02:56:07.87	216.63	21.83	-24.1	-25.3	18.1	0.00e+00	0	44	0	3207593984	8	4143
2026-01-08 02:56:08.88	216.58	21.69	-24.1	-25.2	18.2	0.00e+00	0	44	0	3213885440	8	4114
2026-01-08 02:56:09.89	216.53	21.55	-24.1	-25.4	18.1	0.00e+00	0	44	0	3219128320	8	4146
2026-01-08 02:56:10.90	216.48	21.41	-24.3	-25.7	17.9	0.00e+00	0	44	0	3224371200	8	4246
2026-01-08 02:56:11.91	216.43	21.27	-24.2	-25.6	18.0	0.00e+00	0	44	0	3230662656	8	4200
2026-01-08 02:56:12.91	216.38	21.14	-24.0	-25.2	18.2	0.00e+00	0	44	0	3235905536	8	4097
2026-01-08 02:56:13.91	216.33	21.00	-24.0	-25.0	18.3	0.00e+00	0	44	0	3242196992	8	4054
2026-01-08 02:56:14.91	216.29	20.87	-24.0	-25.2	18.2	0.00e+00	0	44	0	3247439872	8	4090
2026-01-08 02:56:15.92	216.24	20.73	-23.9	-24.9	18.3	0.00e+00	0	44	0	3253731328	8	4032
2026-01-08 02:56:16.93	216.19	20.60	-24.2	-25.4	18.0	0.00e+00	0	44	0	3258974208	8	4151
2026-01-08 02:56:17.94	216.15	20.47	-23.9	-24.9	18.3	0.00e+00	0	44	0	3264217088	8	4035
2026-01-08 02:56:18.94	216.10	20.34	-23.8	-24.6	18.4	0.00e+00	0	44	0	3270508544	8	3955
2026-01-08 02:56:19.95	216.06	20.20	-23.8	-24.7	18.4	0.00e+00	0	44	0	3275751424	8	3968
2026-01-08 02:56:20.96	216.01	20.07	-23.8	-25.1	18.4	0.00e+00	0	44	0	3280994304	7	4189
2026-01-08 02:56:21.96	215.97	19.94	-23.8	-25.2	18.4	0.00e+00	0	43	0	3287285760	7	4206
2026-01-08 02:56:22.97	215.93	19.81	-23.9	-25.4	18.3	0.00e+00	0	44	0	3292528640	7	4255
2026-01-08 02:56:23.98	215.88	19.68	-23.9	-25.5	18.2	0.00e+00	0	43	0	3298820096	7	4281
2026-01-08 02:56:24.98	215.84	19.55	-24.0	-25.1	18.1	0.00e+00	0	44	0	3304062976	8	4086
2026-01-08 02:56:25.99	215.80	19.43	-23.9	-24.9	18.1	0.00e+00	0	44	0	3309305856	8	4008
2026-01-08 02:56:27.00	215.75	19.30	-24.1	-25.4	16.6	0.00e+00	0	44	0	3315597312	8	4166
2026-01-08 02:56:28.01	215.71	19.17	-24.2	-25.5	17.5	0.00e+00	0	44	0	3320840192	8	4172
2026-01-08 02:56:29.02	215.67	19.04	-24.3	-25.6	17.4	0.00e+00	0	43	0	3327131648	8	4206
2026-01-08 02:56:30.02	215.63	18.92	-24.5	-26.1	17.6	0.00e+00	0	44	0	3332374528	8	4329
2026-01-08 02:56:31.03	215.59	18.80	-24.4	-25.9	17.7	0.00e+00	0	44	0	3338665984	8	4283
2026-01-08 02:56:32.04	215.55	18.67	-24.4	-26.0	17.7	1.61e-04	0	44	0	3343908864	8	4308
2026-01-08 02:56:33.04	215.51	18.55	-24.5	-25.7	17.6	0.00e+00	0	44	0	3349151744	9	4120
2026-01-08 02:56:34.05	215.47	18.42	-24.5	-25.7	17.6	0.00e+00	0	44	0	3355443200	9	4124
2026-01-08 02:56:35.05	215.43	18.30	-24.7	-26.0	17.4	0.00e+00	0	44	0	3360686080	9	4209
2026-01-08 02:56:36.06	215.39	18.18	-24.6	-25.9	17.4	0.00e+00	0	43	0	3365928960	9	4175
2026-01-08 02:56:37.06	215.35	18.06	-24.7	-26.0	17.4	0.00e+00	0	44	0	3372220416	9	4205
2026-01-08 02:56:38.07	215.31	17.94	-24.7	-26.1	17.4	0.00e+00	0	44	0	3377463296	9	4214
2026-01-08 02:56:39.08	215.27	17.82	-24.8	-26.2	17.3	3.50e-04	0	44	0	3383754752	9	4244
2026-01-08 02:56:40.08	215.24	17.70	-24.7	-26.1	17.3	0.00e+00	0	44	0	3388997632	9	4232
2026-01-08 02:56:41.09	215.20	17.58	-24.8	-26.3	17.2	3.83e-04	0	44	0	3394240512	9	4276
2026-01-08 02:56:42.10	215.16	17.46	-24.8	-26.3	17.2	3.77e-05	0	44	0	3400531968	9	4268
2026-01-08 02:56:43.10	215.13	17.35	-24.8	-26.3	17.2	0.00e+00	0	44	0	3405774848	9	4275
2026-01-08 02:56:44.11	215.09	17.23	-25.0	-26.6	17.0	2.94e-04	0	44	0	3412066304	9	4367
2026-01-08 02:56:45.11	215.05	17.11	-24.8	-26.3	17.2	0.00e+00	0	44	0	3417309184	9	4287
2026-01-08 02:56:46.11	215.02	17.00	-24.8	-26.3	17.2	0.00e+00	0	44	0	3422552064	9	4266
2026-01-08 02:56:47.12	214.98	16.88	-24.9	-26.5	17.0	0.00e+00	0	44	0	3428843520	9	4341
2026-01-08 02:56:48.13	214.95	16.77	-24.8	-26.3	17.1	1.91e-04	0	44	0	3434086400	9	4279
2026-01-08 02:56:49.14	214.91	16.65	-24.9	-26.4	17.1	0.00e+00	0	44	0	3440377856	9	4304
2026-01-08 02:56:50.14	214.88	16.54	-24.9	-26.4	17.1	1.42e-04	0	44	0	3445620736	9	4307
2026-01-08 02:56:51.15	214.84	16.42	-25.0	-26.7	16.9	1.38e-04	0	44	0	3450863616	9	4372
2026-01-08 02:56:52.16	214.81	16.31	-24.9	-26.5	17.0	0.00e+00	0	44	0	3457155072	9	4337
2026-01-08 02:56:53.16	214.77	16.20	-25.0	-26.3	16.9	1.44e-04	0	44	0	3462397952	10	4151
2026-01-08 02:56:54.17	214.74	16.09	-25.0	-26.2	17.0	0.00e+00	0	44	0	3468689408	10	4136
2026-01-08 02:56:55.18	214.71	15.97	-25.0	-26.3	16.9	0.00e+00	0	44	0	3473932288	10	4165
2026-01-08 02:56:56.19	214.67	15.86	-25.2	-26.7	16.7	0.00e+00	0	43	0	3479175168	10	4255
2026-01-08 02:56:57.19	214.64	15.75	-25.1	-26.4	16.8	1.77e-04	0	44	0	3485466624	10	4197
2026-01-08 02:56:58.20	214.61	15.64	-25.1	-26.5	16.8	0.00e+00	0	43	0	3490709504	10	4214
2026-01-08 02:56:59.21	214.58	15.53	-25.2	-26.6	16.7	1.67e-04	0	44	0	3497000960	10	4240
2026-01-08 02:57:00.22	214.54	15.42	-25.1	-26.5	16.8	1.72e-04	0	44	0	3502243840	10	4206
2026-01-08 02:57:01.22	214.51	15.32	-25.2	-26.7	16.7	0.00e+00	0	44	0	3508535296	10	4260
2026-01-08 02:57:02.23	214.48	15.21	-25.2	-26.7	16.6	1.59e-04	0	44	0	3513778176	10	4275
2026-01-08 02:57:03.24	214.45	15.10	-25.3	-26.9	16.5	0.00e+00	0	44	0	3519021056	10	4316
2026-01-08 02:57:04.24	214.42	14.99	-25.3	-26.8	16.6	0.00e+00	0	44	0	3525312512	10	4295
2026-01-08 02:57:05.24	214.39	14.89	-25.3	-26.8	16.6	0.00e+00	0	43	0	3530555392	10	4291
2026-01-08 02:57:06.25	214.36	14.78	-25.3	-26.9	16.5	0.00e+00	0	44	0	3535798272	10	4331
2026-01-08 02:57:07.25	214.33	14.68	-25.3	-26.9	16.5	0.00e+00	0	44	0	3542089728	10	4320
2026-01-08 02:57:08.26	214.30	14.57	-25.3	-26.9	16.5	0.00e+00	0	44	0	3547332608	10	4330
2026-01-08 02:57:09.27	214.27	14.46	-25.4	-27.1	16.4	5.26e-05	0	44	0	3552575488	10	4378
2026-01-08 02:57:10.28	214.24	14.36	-25.4	-27.0	16.4	0.00e+00	0	44	0	3558866944	10	4365
2026-01-08 02:57:11.28	214.21	14.26	-25.4	-27.2	16.3	0.00e+00	0	44	0	3564109824	10	4397
2026-01-08 02:57:12.29	214.18	14.15	-25.4	-27.1	16.4	0.00e+00	0	44	0	3570401280	10	4376
2026-01-08 02:57:13.30	214.15	14.05	-25.4	-27.2	16.3	0.00e+00	0	44	0	3575644160	10	4412
2026-01-08 02:57:14.30	214.12	13.95	-25.5	-27.2	16.3	0.00e+00	0	43	0	3581935616	10	4422
2026-01-08 02:57:15.31	214.09	13.84	-25.6	-27.0	16.1	0.00e+00	0	44	0	3587178496	11	4234
2026-01-08 02:57:16.31	214.06	13.74	-25.7	-27.2	16.0	0.00e+00	0	44	0	3592421376	11	4297
2026-01-08 02:57:17.32	214.04	13.64	-25.6	-27.1	16.1	0.00e+00	0	44	0	3598712832	11	4257
2026-01-08 02:57:18.33	214.01	13.54	-25.5	-26.9	16.2	0.00e+00	0	44	0	3603955712	11	4202
2026-01-08 02:57:19.34	213.98	13.44	-25.5	-26.9	16.2	0.00e+00	0	44	0	3610247168	11	4202
2026-01-08 02:57:20.34	213.95	13.34	-25.6	-27.0	16.1	0.00e+00	0	44	0	3615490048	11	4241
2026-01-08 02:57:21.35	213.93	13.24	-25.5	-26.9	16.1	0.00e+00	0	44	0	3620732928	11	4226
2026-01-08 02:57:22.36	213.90	13.14	-25.7	-27.2	16.0	0.00e+00	0	44	0	3627024384	11	4287
2026-01-08 02:57:23.36	213.87	13.04	-25.8	-27.4	15.8	0.00e+00	0	44	0	3632267264	11	4358
2026-01-08 02:57:24.37	213.84	12.94	-25.6	-27.1	16.0	0.00e+00	0	44	0	3637510144	11	4263
2026-01-08 02:57:25.37	213.82	12.85	-25.6	-27.0	16.1	0.00e+00	0	44	0	3643801600	11	4248
2026-01-08 02:57:26.37	213.79	12.75	-25.7	-27.2	16.0	0.00e+00	0	44	0	3649044480	11	4283
2026-01-08 02:57:27.38	213.77	12.65	-25.6	-27.2	16.0	0.00e+00	0	44	0	3655335936	11	4286
2026-01-08 02:57:28.38	213.74	12.55	-25.7	-27.3	15.9	0.00e+00	0	44	0	3660578816	11	4324
2026-01-08 02:57:29.39	213.71	12.46	-25.8	-27.6	15.7	0.00e+00	0	44	0	3666870272	11	4389
2026-01-08 02:57:30.39	213.69	12.36	-25.9	-27.7	15.7	0.00e+00	0	44	0	3672113152	11	4422
2026-01-08 02:57:31.40	213.66	12.27	-25.7	-27.4	15.9	0.00e+00	0	44	0	3677356032	11	4345
2026-01-08 02:57:32.40	213.64	12.17	-25.7	-27.3	15.9	0.00e+00	0	44	0	3683647488	11	4318
2026-01-08 02:57:33.41	213.61	12.07	-25.8	-27.5	15.7	0.00e+00	0	44	0	3688890368	11	4386
2026-01-08 02:57:34.42	213.59	11.98	-25.8	-27.5	15.7	0.00e+00	0	44	0	3694133248	11	4383
2026-01-08 02:57:35.42	213.56	11.89	-25.9	-27.6	15.7	0.00e+00	0	44	0	3700424704	11	4406
2026-01-08 02:57:36.43	213.54	11.79	-25.8	-27.6	15.7	0.00e+00	0	44	0	3705667584	11	4415
2026-01-08 02:57:37.43	213.52	11.70	-25.9	-27.6	15.7	0.00e+00	0	44	0	3711959040	11	4415
2026-01-08 02:57:38.44	213.49	11.60	-25.9	-27.7	15.6	0.00e+00	0	44	0	3717201920	11	4430
2026-01-08 02:57:39.45	213.47	11.51	-25.9	-27.7	15.6	0.00e+00	0	44	0	3722444800	11	4449
2026-01-08 02:57:40.45	213.44	11.42	-25.9	-27.3	15.5	0.00e+00	0	44	0	3728736256	12	4221
2026-01-08 02:57:41.45	213.42	11.33	-26.1	-27.6	15.3	0.00e+00	0	44	0	3733979136	12	4311
2026-01-08 02:57:42.46	213.40	11.24	-26.0	-27.6	15.3	0.00e+00	0	44	0	3740270592	12	4287
2026-01-08 02:57:43.47	213.37	11.14	-26.0	-27.4	15.4	0.00e+00	0	44	0	3745513472	12	4254
2026-01-08 02:57:44.47	213.35	11.05	-26.0	-27.4	15.4	0.00e+00	0	44	0	3751804928	12	4258
2026-01-08 02:57:45.48	213.33	10.96	-26.0	-27.5	15.3	0.00e+00	0	44	0	3757047808	12	4266
2026-01-08 02:57:46.49	213.31	10.87	-26.1	-27.8	15.2	1.10e-06	0	44	0	3762290688	12	4354
2026-01-08 02:57:47.49	213.28	10.78	-26.0	-27.6	15.3	0.00e+00	0	44	0	3768582144	12	4294
2026-01-08 02:57:48.50	213.26	10.69	-26.1	-27.8	15.1	0.00e+00	0	44	0	3773825024	12	4351
2026-01-08 02:57:49.51	213.24	10.60	-26.2	-27.8	15.1	0.00e+00	0	44	0	3779067904	12	4361
2026-01-08 02:57:50.52	213.22	10.51	-26.1	-27.7	15.2	0.00e+00	0	44	0	3785359360	12	4335
2026-01-08 02:57:51.52	213.19	10.42	-26.1	-27.7	15.2	0.00e+00	0	43	0	3790602240	12	4328
2026-01-08 02:57:52.53	213.17	10.33	-26.1	-27.7	15.2	0.00e+00	0	44	0	3796893696	12	4338
2026-01-08 02:57:53.54	213.15	10.24	-26.1	-27.8	15.1	0.00e+00	0	44	0	3802136576	12	4344
2026-01-08 02:57:54.53	213.13	10.16	-26.1	-27.6	15.2	1.10e-06	0	44	0	3807379456	12	4305
2026-01-08 02:57:55.54	213.11	10.07	-26.1	-27.6	15.2	1.10e-06	0	44	0	3813670912	12	4302
2026-01-08 02:57:56.54	213.09	9.98	-26.0	-27.6	15.2	3.40e-04	0	44	0	3818913792	12	4289
2026-01-08 02:57:57.55	213.06	9.90	-26.2	-28.0	15.0	1.10e-06	0	44	0	3825205248	12	4422
2026-01-08 02:57:58.55	213.04	9.81	-26.4	-28.3	14.8	4.38e-04	0	44	0	3830448128	12	4486
2026-01-08 02:57:59.56	213.02	9.72	-26.3	-28.1	14.9	0.00e+00	0	43	0	3836739584	12	4436
2026-01-08 02:58:00.57	213.00	9.64	-26.3	-28.1	14.9	0.00e+00	0	44	0	3841982464	12	4447
2026-01-08 02:58:01.57	212.98	9.55	-26.3	-28.3	14.8	0.00e+00	0	44	0	3847225344	12	4481
2026-01-08 02:58:02.58	212.96	9.46	-26.2	-27.9	15.0	4.22e-04	0	44	0	3853516800	12	4373
2026-01-08 02:58:03.59	212.94	9.38	-26.3	-28.1	14.9	0.00e+00	0	44	0	3858759680	12	4434
2026-01-08 02:58:04.60	212.92	9.29	-26.3	-28.2	14.8	0.00e+00	0	44	0	3864002560	12	4464
2026-01-08 02:58:05.60	212.90	9.21	-26.2	-27.9	15.0	4.76e-04	0	44	0	3870294016	12	4374
2026-01-08 02:58:06.61	212.88	9.12	-26.2	-27.9	15.0	0.00e+00	0	44	0	3875536896	12	4380
2026-01-08 02:58:07.62	212.86	9.04	-26.2	-27.8	15.0	3.87e-04	0	44	0	3881828352	12	4366
