passes_logs/2026/01/08/R2M6_AANII_01/R2M6_AANII_01__20260108_105953_FENGYUN_3D_rec.log

#Pass ID: 20260108_105953_FENGYUN 3D
#Satellite: FENGYUN 3D
#Configuration: FENGYUN 3D
#almurnet v.1.7.20240730
#Start time: 2026-01-08 10:59:53

#Version: 2.2.20231116
#Station: R2M6_AANII_01
#Location: 30.233357 lon 59.946436 lat
#TLE: 1 43010U 17072A   26006.26440730  .00000376  00000+0  19957-3 0  9994
#TLE: 2 43010  98.9925 337.9455 0002045 123.9195 236.2175 14.19693586422016

#Time	Az	El	Level	Level2	SNR	BER	BlckErr	Temp	State	Recorded	gain1	gain2
2026-01-08 10:59:53.54	118.47	6.97	-30.8	-34.2	5.0	8.02e-01	0	43	0	0	23	5285
2026-01-08 10:59:54.55	118.41	7.04	-30.5	-33.6	5.2	7.94e-01	0	42	104	0	22	5170
2026-01-08 10:59:55.55	118.34	7.12	-30.2	-33.3	9.2	2.73e-02	0	42	0	0	21	5117
2026-01-08 10:59:56.56	118.27	7.19	-30.3	-33.4	9.2	2.60e-02	0	42	0	5242880	21	5159
2026-01-08 10:59:57.56	118.21	7.26	-30.2	-33.1	9.3	2.46e-02	0	43	0	11534336	21	5057
2026-01-08 10:59:58.57	118.14	7.33	-30.2	-33.2	9.4	1.92e-02	0	42	0	16777216	21	5075
2026-01-08 10:59:59.57	118.07	7.40	-30.2	-33.2	9.3	2.18e-02	0	43	0	22020096	21	5080
2026-01-08 11:00:00.58	118.01	7.48	-30.4	-33.8	9.0	2.77e-02	0	43	0	28311552	21	5322
2026-01-08 11:00:01.58	117.94	7.55	-30.4	-33.6	9.1	4.10e-02	0	42	0	33554432	21	5227
2026-01-08 11:00:02.59	117.87	7.62	-29.8	-32.1	10.1	1.14e-02	0	43	0	38797312	21	4691
2026-01-08 11:00:03.60	117.80	7.69	-29.4	-31.3	11.0	4.31e-03	0	43	0	45088768	20	4525
2026-01-08 11:00:04.60	117.73	7.77	-29.0	-30.9	11.6	1.08e-03	0	43	0	50331648	19	4493
2026-01-08 11:00:05.61	117.66	7.84	-28.6	-30.3	12.3	3.46e-04	0	43	0	56623104	18	4415
2026-01-08 11:00:06.62	117.59	7.91	-28.2	-30.0	12.8	9.38e-05	0	43	0	61865984	17	4423
2026-01-08 11:00:07.62	117.53	7.99	-28.0	-29.4	13.2	3.43e-05	0	43	0	67108864	17	4246
2026-01-08 11:00:08.62	117.46	8.06	-27.9	-29.2	13.4	3.31e-05	0	43	0	73400320	17	4183
2026-01-08 11:00:09.63	117.38	8.13	-27.8	-29.4	13.6	1.83e-05	0	43	0	78643200	16	4336
2026-01-08 11:00:10.63	117.31	8.21	-27.7	-29.3	13.6	1.94e-05	0	43	0	84934656	16	4338
2026-01-08 11:00:11.63	117.24	8.28	-27.7	-29.3	13.6	1.14e-05	0	43	0	90177536	16	4330
2026-01-08 11:00:12.63	117.17	8.36	-27.7	-29.3	13.6	1.71e-05	0	43	0	95420416	16	4317
2026-01-08 11:00:13.64	117.10	8.43	-27.8	-29.4	13.6	1.60e-05	0	43	0	101711872	16	4341
2026-01-08 11:00:14.64	117.03	8.51	-27.7	-29.2	13.7	1.60e-05	0	43	0	106954752	16	4297
2026-01-08 11:00:15.65	116.95	8.58	-27.7	-29.2	13.7	1.48e-05	0	43	0	113246208	16	4281
2026-01-08 11:00:16.66	116.88	8.66	-27.6	-29.1	13.8	8.00e-06	0	43	0	118489088	16	4267
2026-01-08 11:00:17.67	116.81	8.73	-27.6	-29.1	13.8	6.80e-06	0	43	0	123731968	16	4268
2026-01-08 11:00:18.68	116.73	8.81	-27.8	-29.5	13.6	1.71e-05	0	43	0	130023424	16	4359
2026-01-08 11:00:19.69	116.66	8.88	-27.8	-29.5	13.6	2.05e-05	0	43	0	135266304	16	4365
2026-01-08 11:00:20.69	116.58	8.96	-27.6	-28.9	13.9	4.50e-06	0	43	0	141557760	16	4207
2026-01-08 11:00:21.70	116.51	9.04	-27.6	-28.9	13.9	1.60e-05	0	43	0	146800640	16	4213
2026-01-08 11:00:22.70	116.43	9.11	-27.6	-28.9	13.9	3.40e-06	0	43	0	152043520	16	4207
2026-01-08 11:00:23.71	116.36	9.19	-27.7	-29.1	13.8	3.40e-06	0	43	0	158334976	16	4263
2026-01-08 11:00:24.72	116.28	9.27	-27.6	-29.0	13.9	6.80e-06	0	43	0	163577856	16	4223
2026-01-08 11:00:25.73	116.20	9.34	-27.5	-28.8	14.0	4.50e-06	0	43	0	169869312	16	4167
2026-01-08 11:00:26.73	116.13	9.42	-27.5	-28.7	14.1	3.40e-06	0	43	0	175112192	16	4159
2026-01-08 11:00:27.74	116.05	9.50	-27.5	-28.7	14.1	6.80e-06	0	43	0	180355072	16	4137
2026-01-08 11:00:28.75	115.97	9.57	-27.5	-28.7	14.1	3.40e-06	0	43	0	186646528	16	4146
2026-01-08 11:00:29.75	115.89	9.65	-27.5	-28.7	14.1	1.10e-06	0	43	0	191889408	16	4134
2026-01-08 11:00:30.76	115.81	9.73	-27.5	-28.8	14.0	2.20e-06	0	43	0	198180864	16	4186
2026-01-08 11:00:31.76	115.73	9.81	-27.4	-28.6	14.2	3.40e-06	0	43	0	203423744	16	4115
2026-01-08 11:00:32.77	115.65	9.89	-27.4	-28.6	14.2	0.00e+00	0	43	0	208666624	16	4106
2026-01-08 11:00:33.78	115.57	9.96	-27.4	-28.6	14.2	4.50e-06	0	43	0	214958080	16	4129
2026-01-08 11:00:34.79	115.49	10.04	-27.4	-28.5	14.3	2.20e-06	0	43	0	220200960	16	4091
2026-01-08 11:00:35.80	115.41	10.12	-27.1	-28.4	14.4	3.40e-06	0	43	0	226492416	15	4186
2026-01-08 11:00:36.80	115.33	10.20	-27.2	-28.5	14.4	1.10e-06	0	43	0	231735296	15	4211
2026-01-08 11:00:37.81	115.24	10.28	-27.1	-28.4	14.5	0.00e+00	0	43	0	236978176	15	4168
2026-01-08 11:00:38.81	115.16	10.36	-27.1	-28.4	14.4	0.00e+00	0	43	0	243269632	15	4190
2026-01-08 11:00:39.82	115.08	10.44	-27.1	-28.3	14.5	0.00e+00	0	43	0	248512512	15	4145
2026-01-08 11:00:40.83	115.00	10.52	-27.0	-28.1	14.6	3.40e-06	0	43	0	254803968	15	4087
2026-01-08 11:00:41.84	114.91	10.60	-27.0	-28.1	14.7	0.00e+00	0	43	0	260046848	15	4091
2026-01-08 11:00:42.84	114.83	10.68	-27.0	-28.2	14.6	0.00e+00	0	43	0	266338304	15	4118
2026-01-08 11:00:43.85	114.74	10.76	-26.9	-28.0	14.7	0.00e+00	0	43	0	271581184	15	4069
2026-01-08 11:00:44.86	114.66	10.84	-26.9	-27.9	14.8	0.00e+00	0	43	0	276824064	15	4049
2026-01-08 11:00:45.86	114.57	10.92	-27.0	-28.2	14.6	1.10e-06	0	43	0	283115520	15	4126
2026-01-08 11:00:46.87	114.48	11.00	-27.1	-28.3	14.6	0.00e+00	0	43	0	288358400	15	4156
2026-01-08 11:00:47.88	114.40	11.08	-27.1	-28.3	14.6	0.00e+00	0	43	0	293601280	15	4143
2026-01-08 11:00:48.88	114.31	11.16	-27.0	-28.1	14.7	0.00e+00	0	43	0	299892736	15	4106
2026-01-08 11:00:49.89	114.22	11.25	-27.2	-28.6	14.4	1.10e-06	0	43	0	305135616	15	4225
2026-01-08 11:00:50.90	114.13	11.33	-27.1	-28.4	14.5	3.40e-06	0	43	0	311427072	15	4176
2026-01-08 11:00:51.91	114.04	11.41	-27.2	-28.7	14.4	1.10e-06	0	43	0	316669952	15	4244
2026-01-08 11:00:52.91	113.95	11.49	-27.1	-28.4	14.6	2.20e-06	0	43	0	321912832	15	4173
2026-01-08 11:00:53.92	113.86	11.57	-27.1	-28.3	14.6	1.10e-06	0	43	0	328204288	15	4140
2026-01-08 11:00:54.92	113.77	11.66	-27.0	-28.2	14.6	0.00e+00	0	43	0	333447168	15	4127
2026-01-08 11:00:55.93	113.68	11.74	-26.9	-28.0	14.7	0.00e+00	0	43	0	339738624	15	4082
2026-01-08 11:00:56.93	113.59	11.82	-26.9	-28.0	14.8	0.00e+00	0	43	0	344981504	15	4066
2026-01-08 11:00:57.93	113.50	11.90	-26.8	-27.7	14.9	0.00e+00	0	43	0	350224384	15	4001
2026-01-08 11:00:58.94	113.41	11.99	-26.8	-27.6	15.0	0.00e+00	0	43	0	356515840	15	3978
2026-01-08 11:00:59.95	113.31	12.07	-26.8	-28.1	15.0	2.20e-06	0	43	0	361758720	14	4204
2026-01-08 11:01:00.95	113.22	12.16	-26.7	-27.9	15.1	0.00e+00	0	43	0	368050176	14	4142
2026-01-08 11:01:01.96	113.12	12.24	-26.7	-27.9	15.1	0.00e+00	0	43	0	373293056	14	4159
2026-01-08 11:01:02.97	113.03	12.32	-26.6	-27.8	15.2	0.00e+00	0	43	0	378535936	14	4111
2026-01-08 11:01:03.98	112.93	12.41	-26.7	-27.9	15.2	0.00e+00	0	43	0	384827392	14	4141
2026-01-08 11:01:04.98	112.84	12.49	-26.9	-28.3	14.9	0.00e+00	0	43	0	390070272	14	4249
2026-01-08 11:01:05.99	112.74	12.58	-26.9	-28.3	14.9	0.00e+00	0	43	0	395313152	14	4253
2026-01-08 11:01:07.00	112.64	12.66	-26.8	-28.2	15.0	0.00e+00	0	43	0	401604608	14	4229
2026-01-08 11:01:08.00	112.55	12.75	-26.8	-28.3	15.0	0.00e+00	0	43	0	406847488	14	4242
2026-01-08 11:01:09.00	112.45	12.83	-27.0	-28.7	14.7	3.40e-06	0	43	0	413138944	14	4364
2026-01-08 11:01:10.01	112.35	12.92	-26.8	-28.2	15.0	0.00e+00	0	43	0	418381824	14	4238
2026-01-08 11:01:11.02	112.25	13.01	-26.7	-27.9	15.2	0.00e+00	0	43	0	424673280	14	4151
2026-01-08 11:01:12.03	112.15	13.09	-26.7	-27.9	15.2	2.20e-06	0	43	0	429916160	14	4142
2026-01-08 11:01:13.03	112.05	13.18	-26.8	-28.1	15.1	0.00e+00	0	43	0	435159040	14	4209
2026-01-08 11:01:14.04	111.95	13.27	-26.7	-27.8	15.2	0.00e+00	0	43	0	441450496	14	4125
2026-01-08 11:01:15.05	111.85	13.35	-26.9	-28.4	14.9	0.00e+00	0	43	0	446693376	14	4284
2026-01-08 11:01:16.05	111.74	13.44	-26.6	-27.7	15.3	0.00e+00	0	43	0	452984832	14	4097
2026-01-08 11:01:17.06	111.64	13.53	-26.4	-27.3	15.6	0.00e+00	0	43	0	458227712	14	3980
2026-01-08 11:01:18.06	111.54	13.61	-26.4	-27.2	15.6	0.00e+00	0	43	0	463470592	14	3951
2026-01-08 11:01:19.07	111.43	13.70	-26.4	-27.2	15.6	0.00e+00	0	43	0	469762048	14	3974
2026-01-08 11:01:20.08	111.33	13.79	-26.3	-27.1	15.7	0.00e+00	0	43	0	475004928	14	3934
2026-01-08 11:01:21.08	111.22	13.88	-26.2	-27.4	15.7	3.40e-06	0	43	0	480247808	13	4121
2026-01-08 11:01:22.09	111.12	13.97	-26.3	-27.5	15.7	0.00e+00	0	43	0	486539264	13	4148
2026-01-08 11:01:23.10	111.01	14.06	-26.2	-27.2	15.8	0.00e+00	0	43	0	491782144	13	4079
2026-01-08 11:01:24.11	110.90	14.15	-26.2	-27.2	15.9	0.00e+00	0	43	0	498073600	13	4076
2026-01-08 11:01:25.12	110.79	14.23	-26.2	-27.3	15.8	0.00e+00	0	43	0	503316480	13	4104
2026-01-08 11:01:26.12	110.68	14.32	-26.1	-27.2	15.9	0.00e+00	0	43	0	509607936	13	4058
2026-01-08 11:01:27.13	110.57	14.41	-26.1	-27.2	15.9	0.00e+00	0	43	0	514850816	13	4066
2026-01-08 11:01:28.14	110.46	14.50	-26.0	-27.0	16.0	0.00e+00	0	43	0	520093696	13	4006
2026-01-08 11:01:29.14	110.35	14.59	-26.1	-27.0	16.0	0.00e+00	0	43	0	526385152	13	4023
2026-01-08 11:01:30.15	110.24	14.68	-26.0	-26.9	16.0	0.00e+00	0	43	0	531628032	13	3995
2026-01-08 11:01:31.16	110.13	14.77	-26.1	-27.0	16.0	0.00e+00	0	43	0	537919488	13	4021
2026-01-08 11:01:32.17	110.01	14.86	-26.0	-26.9	16.1	0.00e+00	0	43	0	543162368	13	3993
2026-01-08 11:01:33.17	109.90	14.96	-26.0	-26.8	16.1	0.00e+00	0	43	0	548405248	13	3977
2026-01-08 11:01:34.18	109.79	15.05	-26.0	-26.9	16.1	0.00e+00	0	43	0	554696704	13	3987
2026-01-08 11:01:35.19	109.67	15.14	-25.9	-26.8	16.1	0.00e+00	0	43	0	559939584	13	3961
2026-01-08 11:01:36.19	109.56	15.23	-25.9	-26.7	16.2	0.00e+00	0	43	0	565182464	13	3949
2026-01-08 11:01:37.20	109.44	15.32	-26.0	-26.9	16.1	0.00e+00	0	43	0	571473920	13	3989
2026-01-08 11:01:38.20	109.32	15.41	-25.9	-26.7	16.2	0.00e+00	0	43	0	576716800	13	3940
2026-01-08 11:01:39.21	109.20	15.51	-25.9	-26.6	16.3	0.00e+00	0	43	0	583008256	13	3904
2026-01-08 11:01:40.22	109.08	15.60	-25.9	-26.7	16.2	0.00e+00	0	43	0	588251136	13	3931
2026-01-08 11:01:41.23	108.96	15.69	-25.8	-26.9	16.4	0.00e+00	0	43	0	594542592	12	4086
2026-01-08 11:01:42.23	108.84	15.78	-25.8	-26.9	16.4	0.00e+00	0	43	0	599785472	12	4106
2026-01-08 11:01:43.24	108.72	15.88	-25.8	-26.9	16.4	0.00e+00	0	43	0	605028352	12	4099
2026-01-08 11:01:44.25	108.60	15.97	-25.8	-27.0	16.3	0.00e+00	0	43	0	611319808	12	4129
2026-01-08 11:01:45.26	108.48	16.06	-25.8	-26.9	16.4	0.00e+00	0	43	0	616562688	12	4096
2026-01-08 11:01:46.26	108.35	16.16	-25.8	-27.0	16.3	0.00e+00	0	43	0	622854144	12	4124
2026-01-08 11:01:47.27	108.23	16.25	-25.7	-26.7	16.5	0.00e+00	0	43	0	628097024	12	4055
2026-01-08 11:01:48.28	108.10	16.35	-25.7	-26.7	16.5	0.00e+00	0	43	0	633339904	12	4051
2026-01-08 11:01:49.29	107.98	16.44	-25.7	-26.7	16.5	0.00e+00	0	43	0	639631360	12	4040
2026-01-08 11:01:50.30	107.85	16.54	-25.5	-26.4	16.7	0.00e+00	0	43	0	644874240	12	3966
2026-01-08 11:01:51.30	107.72	16.63	-25.5	-26.2	16.8	0.00e+00	0	43	0	651165696	12	3933
2026-01-08 11:01:52.31	107.60	16.73	-25.5	-26.2	16.8	0.00e+00	0	43	0	656408576	12	3926
2026-01-08 11:01:53.31	107.47	16.82	-25.3	-25.9	17.0	0.00e+00	0	43	0	661651456	12	3855
2026-01-08 11:01:54.31	107.34	16.92	-25.3	-25.9	17.0	0.00e+00	0	43	0	667942912	12	3856
2026-01-08 11:01:55.32	107.21	17.01	-25.3	-25.9	17.0	0.00e+00	0	43	0	673185792	12	3852
2026-01-08 11:01:56.33	107.07	17.11	-25.4	-26.1	16.9	0.00e+00	0	43	0	679477248	12	3903
2026-01-08 11:01:57.33	106.94	17.20	-25.5	-26.3	16.8	0.00e+00	0	43	0	684720128	12	3939
2026-01-08 11:01:58.33	106.81	17.30	-25.5	-26.2	16.8	0.00e+00	0	43	0	689963008	12	3927
2026-01-08 11:01:59.33	106.68	17.40	-25.5	-26.4	16.7	0.00e+00	0	43	0	696254464	12	3966
2026-01-08 11:02:00.34	106.54	17.49	-25.5	-26.2	16.8	0.00e+00	0	43	0	701497344	12	3927
2026-01-08 11:02:01.34	106.41	17.59	-25.4	-26.1	16.9	0.00e+00	0	43	0	706740224	12	3903
2026-01-08 11:02:02.34	106.27	17.69	-25.4	-26.1	16.9	0.00e+00	0	43	0	713031680	12	3909
2026-01-08 11:02:03.35	106.13	17.78	-25.5	-26.3	16.8	0.00e+00	0	43	0	718274560	12	3935
2026-01-08 11:02:04.36	105.99	17.88	-25.6	-26.5	16.7	0.00e+00	0	43	0	724566016	12	3987
2026-01-08 11:02:05.36	105.85	17.98	-25.3	-25.9	17.0	0.00e+00	0	43	0	729808896	12	3848
2026-01-08 11:02:06.37	105.71	18.08	-25.3	-26.3	17.2	0.00e+00	0	43	0	735051776	11	4039
2026-01-08 11:02:07.37	105.57	18.18	-25.3	-26.3	17.1	0.00e+00	0	43	0	741343232	11	4052
2026-01-08 11:02:08.38	105.43	18.27	-25.2	-26.2	17.2	0.00e+00	0	43	0	746586112	11	4021
2026-01-08 11:02:09.38	105.29	18.37	-25.3	-26.4	17.1	0.00e+00	0	43	0	752877568	11	4067
2026-01-08 11:02:10.39	105.14	18.47	-25.3	-26.4	17.1	0.00e+00	0	43	0	758120448	11	4069
2026-01-08 11:02:11.40	105.00	18.57	-25.2	-26.2	17.2	0.00e+00	0	43	0	764411904	11	4023
2026-01-08 11:02:12.40	104.85	18.67	-25.2	-26.1	17.3	0.00e+00	0	43	0	769654784	11	3999
2026-01-08 11:02:13.40	104.71	18.77	-25.3	-26.4	17.2	0.00e+00	0	43	0	774897664	11	4065
2026-01-08 11:02:14.41	104.56	18.87	-25.4	-26.6	17.0	2.20e-06	0	43	0	781189120	11	4116
2026-01-08 11:02:15.42	104.41	18.97	-25.3	-26.2	17.2	0.00e+00	0	43	0	786432000	11	4032
2026-01-08 11:02:16.42	104.26	19.07	-25.2	-26.2	17.2	0.00e+00	0	43	0	791674880	11	4022
2026-01-08 11:02:17.43	104.11	19.17	-25.2	-26.2	17.2	0.00e+00	0	43	0	797966336	11	4026
2026-01-08 11:02:18.44	103.95	19.27	-25.3	-26.4	17.1	0.00e+00	0	43	0	803209216	11	4069
2026-01-08 11:02:19.44	103.80	19.37	-25.3	-26.4	17.1	0.00e+00	0	43	0	808452096	11	4079
2026-01-08 11:02:20.45	103.65	19.47	-25.3	-26.3	17.2	0.00e+00	0	43	0	814743552	11	4056
2026-01-08 11:02:21.45	103.49	19.57	-25.2	-26.1	17.3	0.00e+00	0	43	0	819986432	11	3995
2026-01-08 11:02:22.46	103.34	19.68	-25.1	-25.9	17.4	0.00e+00	0	43	0	826277888	11	3940
2026-01-08 11:02:23.46	103.18	19.78	-25.0	-25.8	17.5	0.00e+00	0	44	0	831520768	11	3916
2026-01-08 11:02:24.47	103.02	19.88	-25.0	-25.7	17.5	0.00e+00	0	43	0	837812224	11	3895
2026-01-08 11:02:25.48	102.86	19.98	-24.9	-25.4	17.7	0.00e+00	0	43	0	843055104	11	3836
2026-01-08 11:02:26.49	102.70	20.08	-24.9	-25.4	17.7	0.00e+00	0	43	0	848297984	11	3833
2026-01-08 11:02:27.49	102.54	20.19	-24.9	-25.4	17.7	0.00e+00	0	43	0	854589440	11	3823
2026-01-08 11:02:28.49	102.38	20.29	-24.9	-25.5	17.7	0.00e+00	0	43	0	859832320	11	3844
2026-01-08 11:02:29.50	102.21	20.39	-25.0	-25.6	17.6	0.00e+00	0	43	0	866123776	11	3882
2026-01-08 11:02:30.51	102.05	20.49	-24.8	-25.2	17.8	0.00e+00	0	43	0	871366656	11	3788
2026-01-08 11:02:31.51	101.88	20.60	-24.8	-25.8	17.7	0.00e+00	0	43	0	876609536	10	4034
2026-01-08 11:02:32.52	101.71	20.70	-24.9	-25.9	17.7	0.00e+00	0	43	0	882900992	10	4067
2026-01-08 11:02:33.53	101.54	20.80	-24.9	-25.9	17.6	0.00e+00	0	43	0	888143872	10	4064
2026-01-08 11:02:34.53	101.38	20.91	-25.0	-26.2	17.5	0.00e+00	0	43	0	893386752	10	4125
2026-01-08 11:02:35.54	101.20	21.01	-25.0	-26.2	17.5	0.00e+00	0	43	0	899678208	10	4139
2026-01-08 11:02:36.55	101.03	21.11	-25.0	-26.1	17.6	0.00e+00	0	43	0	904921088	10	4110
2026-01-08 11:02:37.55	100.86	21.22	-25.0	-26.2	17.6	0.00e+00	0	43	0	911212544	10	4131
2026-01-08 11:02:38.55	100.69	21.32	-24.9	-26.0	17.6	0.00e+00	0	43	0	916455424	10	4083
2026-01-08 11:02:39.56	100.51	21.43	-24.8	-25.7	17.8	0.00e+00	0	43	0	922746880	10	4012
2026-01-08 11:02:40.56	100.34	21.53	-24.8	-25.7	17.8	0.00e+00	0	43	0	927989760	10	3999
2026-01-08 11:02:41.57	100.16	21.63	-24.7	-25.5	17.9	0.00e+00	0	43	0	933232640	10	3956
2026-01-08 11:02:42.58	99.98	21.74	-24.6	-25.4	18.0	0.00e+00	0	43	0	939524096	10	3925
2026-01-08 11:02:43.58	99.80	21.84	-24.6	-25.3	18.0	0.00e+00	0	43	0	944766976	10	3907
2026-01-08 11:02:44.58	99.62	21.95	-24.5	-25.2	18.1	0.00e+00	0	43	0	950009856	10	3879
2026-01-08 11:02:45.59	99.44	22.05	-24.5	-25.1	18.2	0.00e+00	0	43	0	956301312	10	3851
2026-01-08 11:02:46.60	99.25	22.16	-24.5	-25.1	18.1	0.00e+00	0	43	0	961544192	10	3853
2026-01-08 11:02:47.61	99.06	22.26	-24.6	-25.3	18.0	0.00e+00	0	43	0	967835648	10	3905
2026-01-08 11:02:48.61	98.88	22.37	-24.5	-25.2	18.1	0.00e+00	0	43	0	973078528	10	3877
2026-01-08 11:02:49.62	98.69	22.47	-24.5	-25.2	18.1	0.00e+00	0	43	0	978321408	10	3885
2026-01-08 11:02:50.63	98.50	22.58	-24.5	-25.2	18.1	0.00e+00	0	43	0	984612864	10	3884
2026-01-08 11:02:51.64	98.31	22.69	-24.5	-25.2	18.1	0.00e+00	0	43	0	989855744	10	3891
2026-01-08 11:02:52.64	98.12	22.79	-24.6	-25.4	18.0	0.00e+00	0	43	0	996147200	10	3933
2026-01-08 11:02:53.64	97.93	22.90	-24.5	-25.2	18.1	0.00e+00	0	43	0	1001390080	10	3885
2026-01-08 11:02:54.65	97.73	23.00	-24.4	-24.9	18.2	0.00e+00	0	43	0	1007681536	10	3813
2026-01-08 11:02:55.66	97.54	23.11	-24.3	-24.8	18.3	0.00e+00	0	43	0	1012924416	10	3785
2026-01-08 11:02:56.66	97.34	23.21	-24.3	-24.8	18.3	0.00e+00	0	43	0	1018167296	10	3792
2026-01-08 11:02:57.66	97.14	23.32	-24.2	-25.0	18.4	0.00e+00	0	43	0	1024458752	9	3957
2026-01-08 11:02:58.66	96.95	23.43	-24.1	-24.8	18.5	0.00e+00	0	43	0	1029701632	9	3904
2026-01-08 11:02:59.67	96.74	23.53	-24.2	-24.9	18.5	0.00e+00	0	43	0	1034944512	9	3925
2026-01-08 11:03:00.67	96.54	23.64	-24.1	-24.9	18.5	0.00e+00	0	43	0	1041235968	9	3913
2026-01-08 11:03:01.68	96.34	23.74	-24.1	-24.9	18.5	0.00e+00	0	43	0	1046478848	9	3916
2026-01-08 11:03:02.69	96.13	23.85	-24.2	-24.9	18.5	0.00e+00	0	43	0	1051721728	9	3927
2026-01-08 11:03:03.70	95.92	23.96	-24.3	-25.1	18.4	0.00e+00	0	43	0	1058013184	9	3973
2026-01-08 11:03:04.70	95.72	24.06	-24.5	-25.6	18.1	0.00e+00	0	43	0	1063256064	9	4100
2026-01-08 11:03:05.71	95.51	24.17	-24.5	-25.6	18.1	0.00e+00	0	43	0	1069547520	9	4088
2026-01-08 11:03:06.71	95.30	24.28	-24.3	-25.3	18.3	0.00e+00	0	43	0	1074790400	9	4012
2026-01-08 11:03:07.71	95.09	24.38	-24.3	-25.2	18.4	0.00e+00	0	43	0	1081081856	9	3994
2026-01-08 11:03:08.72	94.87	24.49	-24.4	-25.3	18.3	0.00e+00	0	43	0	1086324736	9	4034
2026-01-08 11:03:09.73	94.66	24.60	-24.2	-25.0	18.5	0.00e+00	0	43	0	1091567616	9	3940
2026-01-08 11:03:10.73	94.44	24.70	-24.2	-24.9	18.5	0.00e+00	0	43	0	1097859072	9	3925
2026-01-08 11:03:11.74	94.22	24.81	-24.0	-24.6	18.7	0.00e+00	0	43	0	1103101952	9	3861
2026-01-08 11:03:12.75	94.00	24.92	-23.9	-24.3	18.8	0.00e+00	0	43	0	1109393408	9	3782
2026-01-08 11:03:13.75	93.78	25.02	-23.9	-24.4	18.8	0.00e+00	0	43	0	1114636288	9	3791
2026-01-08 11:03:14.75	93.56	25.13	-23.9	-24.4	18.8	0.00e+00	0	43	0	1119879168	9	3794
2026-01-08 11:03:15.76	93.34	25.23	-23.9	-24.4	18.8	0.00e+00	0	43	0	1126170624	9	3810
2026-01-08 11:03:16.77	93.11	25.34	-24.1	-24.7	18.7	0.00e+00	0	43	0	1131413504	9	3869
2026-01-08 11:03:17.77	92.88	25.45	-24.0	-24.5	18.8	0.00e+00	0	43	0	1136656384	9	3818
2026-01-08 11:03:18.78	92.65	25.55	-23.9	-24.3	18.9	0.00e+00	0	43	0	1142947840	9	3770
2026-01-08 11:03:19.79	92.42	25.66	-23.8	-24.2	18.9	0.00e+00	0	43	0	1148190720	9	3763
2026-01-08 11:03:20.80	92.19	25.76	-23.7	-24.5	19.0	0.00e+00	0	43	0	1154482176	8	3939
2026-01-08 11:03:21.81	91.95	25.87	-23.8	-24.7	18.9	0.00e+00	0	43	0	1159725056	8	3975
2026-01-08 11:03:22.81	91.72	25.98	-23.8	-24.7	18.9	0.00e+00	0	43	0	1166016512	8	3972
2026-01-08 11:03:23.82	91.48	26.08	-23.7	-24.5	19.0	0.00e+00	0	43	0	1171259392	8	3932
2026-01-08 11:03:24.83	91.24	26.19	-23.7	-24.4	19.1	0.00e+00	0	43	0	1176502272	8	3901
2026-01-08 11:03:25.83	91.01	26.29	-23.7	-24.4	19.1	0.00e+00	0	43	0	1182793728	8	3909
2026-01-08 11:03:26.84	90.76	26.40	-23.5	-24.1	19.3	0.00e+00	0	43	0	1188036608	8	3832
2026-01-08 11:03:27.84	90.52	26.50	-23.5	-23.9	19.3	0.00e+00	0	43	0	1193279488	8	3800
2026-01-08 11:03:28.85	90.28	26.61	-23.5	-24.1	19.3	0.00e+00	0	43	0	1199570944	8	3831
2026-01-08 11:03:29.85	90.03	26.71	-23.5	-23.9	19.3	0.00e+00	0	43	0	1204813824	8	3802
2026-01-08 11:03:30.85	89.79	26.82	-23.5	-24.1	19.2	0.00e+00	0	43	0	1211105280	8	3838
2026-01-08 11:03:31.86	89.54	26.92	-23.6	-24.3	19.1	0.00e+00	0	43	0	1216348160	8	3891
2026-01-08 11:03:32.87	89.28	27.02	-23.8	-24.6	19.0	0.00e+00	0	43	0	1221591040	8	3951
2026-01-08 11:03:33.87	89.03	27.13	-23.8	-24.6	19.0	0.00e+00	0	43	0	1227882496	8	3952
2026-01-08 11:03:34.88	88.78	27.23	-23.8	-24.6	19.0	0.00e+00	0	43	0	1233125376	8	3955
2026-01-08 11:03:35.88	88.52	27.33	-23.9	-24.8	18.9	0.00e+00	0	43	0	1239416832	8	4013
2026-01-08 11:03:36.89	88.26	27.44	-23.9	-24.9	18.8	0.00e+00	0	43	0	1244659712	8	4024
2026-01-08 11:03:37.90	88.00	27.54	-23.8	-24.5	19.0	0.00e+00	0	43	0	1250951168	8	3943
2026-01-08 11:03:38.90	87.74	27.64	-23.7	-24.4	19.1	0.00e+00	0	43	0	1256194048	8	3900
2026-01-08 11:03:39.91	87.48	27.75	-23.7	-24.5	19.0	0.00e+00	0	43	0	1261436928	8	3942
2026-01-08 11:03:40.92	87.21	27.85	-23.7	-24.5	19.1	0.00e+00	0	44	0	1267728384	8	3933
2026-01-08 11:03:41.92	86.95	27.95	-23.8	-24.7	18.9	0.00e+00	0	43	0	1272971264	8	3977
2026-01-08 11:03:42.93	86.68	28.05	-23.7	-24.5	19.0	0.00e+00	0	43	0	1278214144	8	3935
2026-01-08 11:03:43.93	86.41	28.15	-23.7	-24.3	19.1	0.00e+00	0	43	0	1284505600	8	3894
2026-01-08 11:03:44.94	86.14	28.25	-23.7	-24.5	19.1	0.00e+00	0	43	0	1289748480	8	3936
2026-01-08 11:03:45.94	85.87	28.35	-23.7	-24.4	19.1	0.00e+00	0	43	0	1294991360	8	3905
2026-01-08 11:03:46.94	85.59	28.45	-23.7	-24.5	19.1	0.00e+00	0	43	0	1301282816	8	3922
2026-01-08 11:03:47.95	85.32	28.55	-23.9	-24.8	18.9	0.00e+00	0	43	0	1306525696	8	4012
2026-01-08 11:03:48.95	85.04	28.65	-23.7	-24.5	19.1	0.00e+00	0	43	0	1312817152	8	3925
2026-01-08 11:03:49.96	84.76	28.75	-23.7	-24.4	19.1	0.00e+00	0	43	0	1318060032	8	3916
2026-01-08 11:03:50.97	84.48	28.85	-23.5	-24.0	19.4	0.00e+00	0	43	0	1324351488	8	3807
2026-01-08 11:03:51.97	84.19	28.95	-23.4	-23.7	19.4	0.00e+00	0	43	0	1329594368	8	3746
2026-01-08 11:03:52.98	83.91	29.04	-23.3	-23.7	19.5	0.00e+00	0	43	0	1334837248	8	3740
2026-01-08 11:03:53.98	83.62	29.14	-23.5	-24.0	19.3	0.00e+00	0	43	0	1341128704	8	3820
2026-01-08 11:03:54.99	83.33	29.24	-23.5	-23.9	19.4	0.00e+00	0	43	0	1346371584	8	3792
2026-01-08 11:03:55.99	83.04	29.33	-23.6	-24.1	19.3	0.00e+00	0	44	0	1352663040	8	3852
2026-01-08 11:03:56.99	82.75	29.43	-23.6	-24.2	19.2	0.00e+00	0	43	0	1357905920	8	3860
2026-01-08 11:03:58.00	82.46	29.52	-23.5	-24.0	19.3	0.00e+00	0	43	0	1363148800	8	3810
2026-01-08 11:03:59.01	82.16	29.62	-23.6	-24.2	19.2	0.00e+00	0	43	0	1369440256	8	3856
2026-01-08 11:04:00.01	81.87	29.71	-23.5	-24.0	19.3	0.00e+00	0	43	0	1374683136	8	3824
2026-01-08 11:04:01.02	81.57	29.80	-23.6	-24.2	19.2	0.00e+00	0	43	0	1379926016	8	3856
2026-01-08 11:04:02.02	81.27	29.90	-23.7	-24.5	19.1	0.00e+00	0	43	0	1386217472	8	3922
2026-01-08 11:04:03.03	80.96	29.99	-23.9	-24.8	18.9	0.00e+00	0	43	0	1391460352	8	4005
2026-01-08 11:04:04.04	80.66	30.08	-23.7	-24.3	19.2	0.00e+00	0	43	0	1397751808	8	3890
2026-01-08 11:04:05.05	80.35	30.17	-23.6	-24.2	19.2	0.00e+00	0	43	0	1402994688	8	3854
2026-01-08 11:04:06.06	80.04	30.26	-23.6	-24.1	19.3	0.00e+00	0	43	0	1409286144	8	3836
2026-01-08 11:04:07.06	79.73	30.35	-23.7	-24.3	19.2	0.00e+00	0	43	0	1414529024	8	3895
2026-01-08 11:04:08.07	79.42	30.44	-23.4	-23.9	19.4	0.00e+00	0	43	0	1419771904	8	3786
2026-01-08 11:04:09.08	79.11	30.53	-23.7	-24.4	19.1	0.00e+00	0	43	0	1426063360	8	3904
2026-01-08 11:04:10.09	78.79	30.62	-23.4	-23.9	19.4	0.00e+00	0	44	0	1431306240	8	3788
2026-01-08 11:04:11.10	78.47	30.70	-23.4	-23.7	19.5	0.00e+00	0	43	0	1437597696	8	3757
2026-01-08 11:04:12.10	78.16	30.79	-23.3	-23.6	19.5	0.00e+00	0	43	0	1442840576	8	3729
2026-01-08 11:04:13.10	77.84	30.87	-23.3	-23.7	19.5	0.00e+00	0	44	0	1448083456	8	3737
2026-01-08 11:04:14.11	77.52	30.96	-23.4	-23.8	19.4	0.00e+00	0	43	0	1454374912	8	3779
2026-01-08 11:04:15.12	77.19	31.04	-23.6	-24.2	19.3	0.00e+00	0	43	0	1459617792	8	3856
2026-01-08 11:04:16.12	76.87	31.13	-23.7	-24.4	19.2	1.10e-06	0	43	0	1464860672	8	3894
2026-01-08 11:04:17.13	76.54	31.21	-23.5	-24.0	19.3	0.00e+00	0	43	0	1471152128	8	3826
2026-01-08 11:04:18.14	76.21	31.29	-23.5	-24.0	19.4	0.00e+00	0	44	0	1476395008	8	3805
2026-01-08 11:04:19.15	75.88	31.37	-23.5	-23.9	19.4	0.00e+00	0	43	0	1482686464	8	3797
2026-01-08 11:04:20.15	75.55	31.45	-23.6	-24.1	19.3	0.00e+00	0	43	0	1487929344	8	3840
2026-01-08 11:04:21.16	75.22	31.53	-23.5	-23.9	19.4	0.00e+00	0	43	0	1494220800	8	3798
2026-01-08 11:04:22.17	74.88	31.61	-23.9	-24.8	19.0	0.00e+00	0	43	0	1499463680	8	3995
2026-01-08 11:04:23.17	74.55	31.68	-23.6	-24.2	19.2	0.00e+00	0	43	0	1504706560	8	3852
2026-01-08 11:04:24.18	74.21	31.76	-23.4	-23.8	19.5	0.00e+00	0	44	0	1510998016	8	3760
2026-01-08 11:04:25.19	73.87	31.84	-23.2	-23.8	19.6	0.00e+00	0	43	0	1516240896	7	3891
2026-01-08 11:04:26.20	73.53	31.91	-23.0	-23.5	19.8	0.00e+00	0	43	0	1522532352	7	3808
2026-01-08 11:04:27.20	73.19	31.98	-22.9	-23.2	19.9	0.00e+00	0	43	0	1527775232	7	3748
2026-01-08 11:04:28.20	72.84	32.06	-22.9	-23.2	19.9	0.00e+00	0	43	0	1533018112	7	3733
2026-01-08 11:04:29.21	72.50	32.13	-23.0	-23.4	19.8	0.00e+00	0	43	0	1539309568	7	3783
2026-01-08 11:04:30.22	72.15	32.20	-23.1	-23.8	19.7	0.00e+00	0	43	0	1544552448	7	3867
2026-01-08 11:04:31.23	71.80	32.27	-23.0	-23.4	19.8	0.00e+00	0	43	0	1549795328	7	3786
2026-01-08 11:04:32.23	71.45	32.33	-23.0	-23.4	19.8	0.00e+00	0	43	0	1556086784	7	3789
2026-01-08 11:04:33.24	71.10	32.40	-23.0	-23.6	19.7	0.00e+00	0	43	0	1561329664	7	3822
2026-01-08 11:04:34.24	70.75	32.47	-23.1	-23.6	19.8	0.00e+00	0	43	0	1567621120	7	3826
2026-01-08 11:04:35.24	70.39	32.53	-23.0	-23.4	19.8	0.00e+00	0	43	0	1572864000	7	3792
2026-01-08 11:04:36.24	70.04	32.60	-23.0	-23.5	19.8	0.00e+00	0	43	0	1579155456	7	3811
2026-01-08 11:04:37.25	69.68	32.66	-22.8	-23.1	20.0	0.00e+00	0	43	0	1584398336	7	3711
2026-01-08 11:04:38.25	69.32	32.72	-22.7	-23.3	20.1	0.00e+00	0	44	0	1589641216	6	3857
2026-01-08 11:04:39.26	68.96	32.78	-22.6	-23.1	20.2	0.00e+00	0	43	0	1595932672	6	3812
2026-01-08 11:04:40.27	68.60	32.84	-22.5	-23.0	20.3	0.00e+00	0	44	0	1601175552	6	3788
2026-01-08 11:04:41.28	68.24	32.90	-22.4	-22.7	20.4	0.00e+00	0	43	0	1606418432	6	3723
2026-01-08 11:04:42.29	67.87	32.96	-22.5	-22.9	20.3	0.00e+00	0	43	0	1612709888	6	3779
2026-01-08 11:04:43.29	67.51	33.01	-22.9	-23.7	20.1	0.00e+00	0	43	0	1617952768	6	3943
2026-01-08 11:04:44.30	67.14	33.07	-22.9	-23.7	20.1	0.00e+00	0	43	0	1624244224	6	3941
2026-01-08 11:04:45.31	66.77	33.12	-23.0	-23.9	20.1	0.00e+00	0	43	0	1629487104	6	3986
2026-01-08 11:04:46.32	66.40	33.17	-22.7	-23.3	20.3	0.00e+00	0	43	0	1634729984	6	3841
2026-01-08 11:04:47.33	66.03	33.22	-22.7	-23.2	20.4	0.00e+00	0	43	0	1641021440	6	3827
2026-01-08 11:04:48.33	65.66	33.27	-22.8	-23.4	20.3	0.00e+00	0	43	0	1646264320	6	3874
2026-01-08 11:04:49.34	65.29	33.32	-22.8	-23.5	20.2	0.00e+00	0	43	0	1652555776	6	3895
2026-01-08 11:04:50.35	64.91	33.37	-22.7	-23.2	20.4	0.00e+00	0	43	0	1657798656	6	3838
2026-01-08 11:04:51.35	64.54	33.41	-22.6	-23.0	20.5	0.00e+00	0	43	0	1664090112	6	3770
2026-01-08 11:04:52.36	64.16	33.46	-22.7	-23.3	20.3	0.00e+00	0	44	0	1669332992	6	3845
2026-01-08 11:04:53.37	63.79	33.50	-22.9	-23.7	20.1	0.00e+00	0	43	0	1674575872	6	3948
2026-01-08 11:04:54.38	63.41	33.54	-22.9	-23.6	20.2	0.00e+00	0	43	0	1680867328	6	3928
2026-01-08 11:04:55.39	63.03	33.58	-22.9	-23.6	20.2	0.00e+00	0	43	0	1686110208	6	3918
2026-01-08 11:04:56.39	62.65	33.62	-22.9	-23.6	20.2	0.00e+00	0	43	0	1692401664	6	3913
2026-01-08 11:04:57.40	62.27	33.66	-23.0	-23.8	20.1	0.00e+00	0	43	0	1697644544	6	3974
2026-01-08 11:04:58.40	61.89	33.69	-23.1	-24.1	19.9	0.00e+00	0	43	0	1702887424	6	4038
2026-01-08 11:04:59.41	61.51	33.73	-23.2	-24.3	19.8	0.00e+00	0	43	0	1709178880	6	4082
2026-01-08 11:05:00.41	61.13	33.76	-23.2	-24.4	19.8	0.00e+00	0	43	0	1714421760	6	4108
2026-01-08 11:05:01.42	60.74	33.79	-23.3	-24.4	19.8	0.00e+00	0	43	0	1720713216	6	4117
2026-01-08 11:05:02.43	60.36	33.82	-23.2	-24.2	19.9	0.00e+00	0	43	0	1725956096	6	4061
2026-01-08 11:05:03.44	59.97	33.85	-22.9	-23.6	20.2	4.50e-06	0	43	0	1731198976	6	3916
2026-01-08 11:05:04.44	59.59	33.88	-22.8	-23.4	20.2	0.00e+00	0	43	0	1737490432	6	3883
2026-01-08 11:05:05.45	59.20	33.90	-22.8	-23.5	20.2	0.00e+00	0	43	0	1742733312	6	3899
2026-01-08 11:05:06.46	58.81	33.93	-22.8	-23.5	20.2	1.10e-06	0	44	0	1749024768	6	3895
2026-01-08 11:05:07.47	58.42	33.95	-22.9	-23.6	20.2	0.00e+00	0	43	0	1754267648	6	3924
2026-01-08 11:05:08.47	58.04	33.97	-23.0	-23.8	20.1	0.00e+00	0	43	0	1759510528	6	3975
2026-01-08 11:05:09.48	57.65	33.99	-23.1	-24.1	19.9	0.00e+00	0	43	0	1765801984	6	4051
2026-01-08 11:05:10.48	57.26	34.01	-23.3	-24.5	19.7	0.00e+00	0	43	0	1771044864	6	4141
2026-01-08 11:05:11.49	56.87	34.03	-23.3	-24.5	19.7	0.00e+00	0	43	0	1776287744	6	4142
2026-01-08 11:05:12.50	56.48	34.04	-23.2	-24.3	19.8	0.00e+00	0	43	0	1782579200	6	4097
2026-01-08 11:05:13.50	56.09	34.06	-23.2	-24.3	19.8	0.00e+00	0	43	0	1787822080	6	4089
2026-01-08 11:05:14.50	55.70	34.07	-23.2	-24.3	19.8	0.00e+00	0	43	0	1794113536	6	4098
2026-01-08 11:05:15.50	55.31	34.08	-23.2	-24.4	19.8	0.00e+00	0	43	0	1799356416	6	4097
2026-01-08 11:05:16.51	54.92	34.09	-23.2	-24.3	19.9	0.00e+00	0	43	0	1805647872	6	4075
2026-01-08 11:05:17.52	54.53	34.10	-22.8	-23.5	20.2	0.00e+00	0	43	0	1810890752	6	3893
2026-01-08 11:05:18.52	54.14	34.10	-22.6	-23.0	20.5	0.00e+00	0	43	0	1816133632	6	3780
2026-01-08 11:05:19.53	53.75	34.11	-22.5	-22.8	20.6	0.00e+00	0	43	0	1822425088	6	3734
2026-01-08 11:05:20.53	53.36	34.11	-22.5	-22.8	20.5	0.00e+00	0	44	0	1827667968	6	3745
2026-01-08 11:05:21.55	52.96	34.11	-22.6	-23.2	20.4	0.00e+00	0	44	0	1833959424	6	3818
2026-01-08 11:05:22.55	52.57	34.12	-22.8	-23.4	20.3	0.00e+00	0	43	0	1839202304	6	3883
2026-01-08 11:05:23.56	52.18	34.11	-22.6	-23.2	20.4	0.00e+00	0	43	0	1844445184	6	3819
2026-01-08 11:05:24.57	51.79	34.11	-22.5	-22.8	20.6	0.00e+00	0	44	0	1850736640	6	3743
2026-01-08 11:05:25.58	51.40	34.11	-22.6	-23.1	20.4	0.00e+00	0	43	0	1855979520	6	3801
2026-01-08 11:05:26.58	51.01	34.10	-22.8	-23.4	20.3	0.00e+00	0	43	0	1861222400	6	3873
2026-01-08 11:05:27.59	50.61	34.09	-22.9	-23.7	20.1	0.00e+00	0	43	0	1867513856	6	3957
2026-01-08 11:05:28.60	50.22	34.09	-23.1	-24.1	19.9	0.00e+00	0	44	0	1872756736	6	4043
2026-01-08 11:05:29.60	49.83	34.08	-23.0	-23.9	20.0	0.00e+00	0	44	0	1879048192	6	3985
2026-01-08 11:05:30.60	49.45	34.06	-22.9	-23.7	20.1	0.00e+00	0	43	0	1884291072	6	3950
2026-01-08 11:05:31.61	49.06	34.05	-23.0	-24.0	20.0	0.00e+00	0	43	0	1890582528	6	4010
2026-01-08 11:05:32.61	48.67	34.04	-23.0	-23.9	20.0	0.00e+00	0	43	0	1895825408	6	3996
2026-01-08 11:05:33.62	48.28	34.02	-22.9	-23.7	20.1	0.00e+00	0	43	0	1901068288	6	3952
2026-01-08 11:05:34.63	47.89	34.00	-23.0	-23.8	20.0	0.00e+00	0	43	0	1907359744	6	3979
2026-01-08 11:05:35.63	47.50	33.98	-22.9	-23.6	20.1	0.00e+00	0	43	0	1912602624	6	3930
2026-01-08 11:05:36.64	47.11	33.96	-22.8	-23.5	20.2	0.00e+00	0	43	0	1918894080	6	3905
2026-01-08 11:05:37.65	46.72	33.94	-22.6	-23.1	20.4	0.00e+00	0	44	0	1924136960	6	3806
2026-01-08 11:05:38.65	46.34	33.92	-22.5	-22.8	20.6	0.00e+00	0	44	0	1929379840	6	3733
2026-01-08 11:05:39.66	45.95	33.89	-22.6	-23.0	20.4	0.00e+00	0	43	0	1935671296	6	3786
2026-01-08 11:05:40.66	45.57	33.87	-22.6	-23.0	20.4	0.00e+00	0	44	0	1940914176	6	3786
2026-01-08 11:05:41.67	45.18	33.84	-22.5	-22.9	20.5	0.00e+00	0	43	0	1946157056	6	3767
2026-01-08 11:05:42.68	44.80	33.81	-22.6	-23.0	20.4	0.00e+00	0	44	0	1952448512	6	3791
2026-01-08 11:05:43.68	44.41	33.78	-22.7	-23.2	20.4	0.00e+00	0	44	0	1957691392	6	3821
2026-01-08 11:05:44.69	44.03	33.74	-22.7	-23.4	20.3	0.00e+00	0	43	0	1963982848	6	3864
2026-01-08 11:05:45.70	43.65	33.71	-22.8	-23.5	20.1	0.00e+00	0	44	0	1969225728	6	3912
2026-01-08 11:05:46.70	43.27	33.68	-22.8	-23.4	20.2	0.00e+00	0	43	0	1975517184	6	3888
2026-01-08 11:05:47.71	42.89	33.64	-22.8	-23.4	20.2	0.00e+00	0	43	0	1980760064	6	3880
2026-01-08 11:05:48.72	42.51	33.60	-23.1	-24.0	19.9	0.00e+00	0	43	0	1986002944	6	4018
2026-01-08 11:05:49.73	42.13	33.56	-23.0	-23.8	20.0	0.00e+00	0	44	0	1992294400	6	3975
2026-01-08 11:05:50.74	41.75	33.52	-22.8	-23.5	20.2	0.00e+00	0	43	0	1997537280	6	3895
2026-01-08 11:05:51.74	41.37	33.48	-22.8	-23.5	20.2	0.00e+00	0	44	0	2002780160	6	3905
2026-01-08 11:05:52.75	41.00	33.44	-23.1	-24.1	19.9	0.00e+00	0	43	0	2009071616	6	4042
2026-01-08 11:05:53.75	40.62	33.39	-23.0	-23.9	20.0	0.00e+00	0	43	0	2014314496	6	3986
2026-01-08 11:05:54.75	40.25	33.35	-22.8	-23.6	20.1	0.00e+00	0	43	0	2020605952	6	3910
2026-01-08 11:05:55.76	39.88	33.30	-22.7	-23.3	20.3	0.00e+00	0	43	0	2025848832	6	3855
2026-01-08 11:05:56.77	39.51	33.25	-22.8	-23.4	20.2	0.00e+00	0	43	0	2031091712	6	3879
2026-01-08 11:05:57.78	39.13	33.20	-22.7	-23.3	20.3	0.00e+00	0	43	0	2037383168	6	3848
2026-01-08 11:05:58.78	38.77	33.15	-22.6	-23.0	20.4	0.00e+00	0	43	0	2042626048	6	3791
2026-01-08 11:05:59.79	38.40	33.10	-22.5	-22.8	20.5	0.00e+00	0	43	0	2048917504	6	3738
2026-01-08 11:06:00.80	38.03	33.04	-22.6	-23.0	20.5	0.00e+00	0	43	0	2054160384	6	3780
2026-01-08 11:06:01.81	37.66	32.99	-22.6	-23.0	20.4	0.00e+00	0	43	0	2060451840	6	3780
2026-01-08 11:06:02.82	37.30	32.93	-22.6	-23.0	20.4	0.00e+00	0	43	0	2065694720	6	3780
2026-01-08 11:06:03.83	36.93	32.87	-22.7	-23.3	20.3	0.00e+00	0	43	0	2070937600	6	3841
2026-01-08 11:06:04.84	36.57	32.82	-22.8	-23.6	20.1	0.00e+00	0	43	0	2077229056	6	3910
2026-01-08 11:06:05.84	36.21	32.76	-23.1	-24.0	19.9	0.00e+00	0	43	0	2082471936	6	4023
2026-01-08 11:06:06.85	35.85	32.69	-23.0	-23.9	20.0	0.00e+00	0	43	0	2088763392	6	4001
2026-01-08 11:06:07.86	35.49	32.63	-23.0	-23.8	20.0	0.00e+00	0	43	0	2094006272	6	3976
2026-01-08 11:06:08.87	35.14	32.57	-23.0	-23.9	20.0	0.00e+00	0	43	0	2099249152	6	3997
2026-01-08 11:06:09.87	34.78	32.51	-23.2	-24.3	19.8	0.00e+00	0	43	0	2105540608	6	4078
2026-01-08 11:06:10.87	34.43	32.44	-22.9	-23.8	20.0	0.00e+00	0	44	0	2110783488	6	3965
2026-01-08 11:06:11.88	34.08	32.37	-22.8	-23.5	20.2	0.00e+00	0	43	0	2116026368	6	3903
2026-01-08 11:06:12.89	33.73	32.31	-22.9	-23.7	20.1	0.00e+00	0	43	0	2122317824	6	3940
2026-01-08 11:06:13.90	33.38	32.24	-22.8	-23.4	20.2	0.00e+00	0	43	0	2127560704	6	3869
2026-01-08 11:06:14.90	33.03	32.17	-22.7	-23.3	20.3	0.00e+00	0	43	0	2133852160	6	3852
2026-01-08 11:06:15.91	32.69	32.10	-22.8	-23.6	20.1	0.00e+00	0	44	0	2139095040	6	3916
2026-01-08 11:06:16.92	32.34	32.03	-22.8	-23.5	20.2	0.00e+00	0	44	0	2145386496	6	3898
2026-01-08 11:06:17.92	32.00	31.95	-23.1	-24.1	19.8	0.00e+00	0	43	0	2150629376	6	4040
2026-01-08 11:06:18.93	31.66	31.88	-23.0	-23.8	20.0	0.00e+00	0	43	0	2155872256	6	3977
2026-01-08 11:06:19.93	31.32	31.81	-22.8	-23.5	20.1	0.00e+00	0	43	0	2162163712	6	3908
2026-01-08 11:06:20.94	30.98	31.73	-22.8	-23.4	20.2	0.00e+00	0	43	0	2167406592	6	3879
2026-01-08 11:06:21.95	30.64	31.65	-22.9	-23.8	20.0	0.00e+00	0	43	0	2173698048	6	3967
2026-01-08 11:06:22.95	30.31	31.58	-23.1	-24.0	19.9	0.00e+00	0	44	0	2178940928	6	4028
2026-01-08 11:06:23.96	29.97	31.50	-23.3	-24.5	19.6	0.00e+00	0	43	0	2184183808	6	4143
2026-01-08 11:06:24.96	29.65	31.42	-23.2	-24.3	19.7	0.00e+00	0	43	0	2190475264	6	4093
2026-01-08 11:06:25.98	29.31	31.34	-23.0	-23.9	19.9	0.00e+00	0	44	0	2195718144	6	3984
2026-01-08 11:06:26.99	28.98	31.26	-22.9	-23.7	20.0	0.00e+00	0	43	0	2200961024	6	3950
2026-01-08 11:06:27.99	28.66	31.18	-23.2	-24.3	19.7	0.00e+00	0	43	0	2207252480	6	4084
2026-01-08 11:06:29.00	28.33	31.09	-23.0	-23.8	19.9	0.00e+00	0	43	0	2212495360	6	3978
2026-01-08 11:06:30.00	28.01	31.01	-22.9	-23.6	20.1	0.00e+00	0	43	0	2218786816	6	3930
2026-01-08 11:06:31.00	27.69	30.93	-22.8	-23.6	20.1	0.00e+00	0	43	0	2224029696	6	3912
2026-01-08 11:06:32.01	27.37	30.84	-22.9	-23.7	20.0	0.00e+00	0	43	0	2230321152	6	3955
2026-01-08 11:06:33.01	27.05	30.76	-23.0	-23.9	19.9	0.00e+00	0	43	0	2235564032	6	3987
2026-01-08 11:06:34.02	26.73	30.67	-23.1	-24.0	19.9	0.00e+00	0	43	0	2240806912	6	4021
2026-01-08 11:06:35.03	26.42	30.58	-23.0	-23.8	19.9	0.00e+00	0	43	0	2247098368	6	3975
2026-01-08 11:06:36.04	26.10	30.50	-23.0	-23.9	19.9	0.00e+00	0	43	0	2252341248	6	3994
2026-01-08 11:06:37.04	25.79	30.41	-23.0	-23.8	19.9	0.00e+00	0	43	0	2257584128	6	3978
2026-01-08 11:06:38.05	25.48	30.32	-23.0	-24.0	19.8	0.00e+00	0	43	0	2263875584	6	4022
2026-01-08 11:06:39.05	25.18	30.23	-23.0	-23.8	19.9	0.00e+00	0	43	0	2269118464	6	3981
2026-01-08 11:06:40.06	24.87	30.14	-23.0	-23.9	19.9	0.00e+00	0	43	0	2275409920	6	3999
2026-01-08 11:06:41.06	24.57	30.05	-22.9	-23.7	20.0	0.00e+00	0	43	0	2280652800	6	3957
2026-01-08 11:06:42.07	24.26	29.96	-23.0	-23.8	19.9	0.00e+00	0	43	0	2285895680	6	3968
2026-01-08 11:06:43.07	23.96	29.87	-23.1	-24.0	19.8	0.00e+00	0	43	0	2292187136	6	4023
2026-01-08 11:06:44.08	23.66	29.77	-22.9	-23.6	20.0	0.00e+00	0	43	0	2297430016	6	3920
2026-01-08 11:06:45.09	23.37	29.68	-22.9	-23.6	20.0	0.00e+00	0	43	0	2303721472	6	3921
2026-01-08 11:06:46.10	23.07	29.58	-22.9	-23.7	20.0	0.00e+00	0	43	0	2308964352	6	3954
2026-01-08 11:06:47.11	22.77	29.49	-22.9	-23.7	20.0	0.00e+00	0	43	0	2315255808	6	3947
2026-01-08 11:06:48.12	22.48	29.39	-22.9	-23.8	19.9	0.00e+00	0	43	0	2320498688	6	3972
2026-01-08 11:06:49.12	22.19	29.30	-23.1	-24.1	19.7	0.00e+00	0	43	0	2325741568	6	4038
2026-01-08 11:06:50.13	21.90	29.20	-22.9	-23.7	20.0	0.00e+00	0	43	0	2332033024	6	3939
2026-01-08 11:06:51.14	21.61	29.11	-22.8	-23.6	20.0	0.00e+00	0	43	0	2337275904	6	3915
2026-01-08 11:06:52.14	21.33	29.01	-22.9	-23.8	19.9	0.00e+00	0	43	0	2342518784	6	3964
2026-01-08 11:06:53.14	21.05	28.91	-23.0	-23.8	19.9	0.00e+00	0	44	0	2348810240	6	3973
2026-01-08 11:06:54.15	20.76	28.81	-23.1	-24.0	19.8	0.00e+00	0	43	0	2354053120	6	4021
2026-01-08 11:06:55.15	20.49	28.72	-23.1	-24.1	19.7	0.00e+00	0	43	0	2360344576	6	4048
2026-01-08 11:06:56.16	20.21	28.62	-23.2	-24.4	19.6	0.00e+00	0	43	0	2365587456	6	4119
2026-01-08 11:06:57.16	19.93	28.52	-23.2	-24.4	19.6	0.00e+00	0	43	0	2370830336	6	4104
2026-01-08 11:06:58.17	19.66	28.42	-23.2	-24.3	19.6	0.00e+00	0	43	0	2377121792	6	4079
2026-01-08 11:06:59.17	19.38	28.32	-23.0	-24.0	19.8	0.00e+00	0	43	0	2382364672	6	4010
2026-01-08 11:07:00.18	19.11	28.22	-23.0	-23.9	19.8	0.00e+00	0	44	0	2388656128	6	4004
2026-01-08 11:07:01.18	18.84	28.12	-23.3	-24.4	19.6	0.00e+00	0	44	0	2393899008	6	4125
2026-01-08 11:07:02.19	18.58	28.02	-23.2	-24.4	19.6	0.00e+00	0	43	0	2399141888	6	4125
2026-01-08 11:07:03.19	18.31	27.92	-23.2	-24.3	19.6	0.00e+00	0	43	0	2405433344	6	4098
2026-01-08 11:07:04.19	18.05	27.82	-23.3	-24.5	19.5	0.00e+00	0	44	0	2410676224	6	4140
2026-01-08 11:07:05.20	17.78	27.72	-23.2	-24.2	19.7	0.00e+00	0	43	0	2416967680	6	4064
2026-01-08 11:07:06.21	17.52	27.61	-23.3	-24.5	19.5	0.00e+00	0	43	0	2422210560	6	4128
2026-01-08 11:07:07.22	17.26	27.51	-23.4	-24.7	19.4	0.00e+00	0	43	0	2427453440	6	4198
2026-01-08 11:07:08.23	17.00	27.41	-23.4	-24.8	19.3	0.00e+00	0	43	0	2433744896	6	4221
2026-01-08 11:07:09.23	16.75	27.31	-23.7	-24.9	19.1	0.00e+00	0	43	0	2438987776	7	4120
2026-01-08 11:07:10.23	16.49	27.20	-23.9	-25.2	18.9	0.00e+00	0	44	0	2444230656	7	4203
2026-01-08 11:07:11.24	16.24	27.10	-23.6	-24.8	19.1	0.00e+00	0	43	0	2450522112	7	4092
2026-01-08 11:07:12.25	15.99	27.00	-23.6	-24.6	19.2	0.00e+00	0	43	0	2455764992	7	4058
2026-01-08 11:07:13.24	15.74	26.89	-23.6	-24.6	19.2	0.00e+00	0	43	0	2462056448	7	4050
2026-01-08 11:07:14.24	15.50	26.79	-23.6	-24.8	19.1	0.00e+00	0	43	0	2467299328	7	4095
2026-01-08 11:07:15.23	15.25	26.69	-23.5	-24.4	19.3	0.00e+00	0	43	0	2472542208	7	4010
2026-01-08 11:07:16.22	15.01	26.58	-23.5	-24.5	19.3	0.00e+00	0	43	0	2478833664	7	4018
2026-01-08 11:07:17.23	14.77	26.48	-23.3	-24.0	19.5	0.00e+00	0	43	0	2484076544	7	3899
2026-01-08 11:07:18.22	14.53	26.38	-23.3	-24.0	19.5	0.00e+00	0	44	0	2489319424	7	3911
2026-01-08 11:07:19.22	14.29	26.27	-23.5	-24.4	19.3	0.00e+00	0	43	0	2495610880	7	4001
2026-01-08 11:07:20.22	14.06	26.17	-23.7	-24.9	19.1	0.00e+00	0	43	0	2500853760	7	4126
2026-01-08 11:07:21.22	13.82	26.06	-23.7	-25.0	19.0	0.00e+00	0	43	0	2506096640	7	4150
2026-01-08 11:07:22.22	13.59	25.96	-23.8	-25.2	18.9	0.00e+00	0	44	0	2512388096	7	4200
2026-01-08 11:07:23.23	13.35	25.85	-23.8	-25.1	18.9	0.00e+00	0	43	0	2517630976	7	4186
2026-01-08 11:07:24.23	13.12	25.75	-23.8	-25.0	19.0	0.00e+00	0	44	0	2523922432	7	4154
2026-01-08 11:07:25.23	12.89	25.64	-23.8	-25.0	18.9	0.00e+00	0	44	0	2529165312	7	4163
2026-01-08 11:07:26.24	12.66	25.54	-23.6	-24.7	19.1	0.00e+00	0	43	0	2534408192	7	4079
2026-01-08 11:07:27.23	12.44	25.43	-23.6	-24.6	19.2	0.00e+00	0	44	0	2540699648	7	4038
2026-01-08 11:07:28.23	12.21	25.33	-23.6	-24.6	19.2	0.00e+00	0	44	0	2545942528	7	4054
2026-01-08 11:07:29.24	11.99	25.22	-23.5	-24.4	19.2	0.00e+00	0	43	0	2551185408	7	4013
2026-01-08 11:07:30.24	11.77	25.12	-23.5	-24.5	19.2	0.00e+00	0	44	0	2557476864	7	4040
2026-01-08 11:07:31.25	11.55	25.01	-23.7	-24.8	19.0	0.00e+00	0	43	0	2562719744	7	4095
2026-01-08 11:07:32.26	11.33	24.90	-23.8	-25.1	18.9	0.00e+00	0	43	0	2569011200	7	4166
2026-01-08 11:07:33.26	11.11	24.80	-23.8	-25.2	18.8	0.00e+00	0	43	0	2574254080	7	4196
2026-01-08 11:07:34.27	10.89	24.69	-23.8	-25.1	18.8	0.00e+00	0	43	0	2579496960	7	4187
2026-01-08 11:07:35.27	10.68	24.59	-23.9	-25.2	18.8	0.00e+00	0	43	0	2585788416	7	4201
2026-01-08 11:07:36.28	10.46	24.48	-24.0	-25.4	18.7	0.00e+00	0	43	0	2591031296	7	4254
2026-01-08 11:07:37.28	10.25	24.38	-23.8	-25.2	18.8	0.00e+00	0	43	0	2597322752	7	4194
2026-01-08 11:07:38.29	10.04	24.27	-23.9	-25.4	18.7	0.00e+00	0	43	0	2602565632	7	4247
2026-01-08 11:07:39.29	9.83	24.16	-24.0	-25.1	18.6	0.00e+00	0	43	0	2607808512	8	4066
2026-01-08 11:07:40.29	9.62	24.06	-24.2	-25.4	18.5	0.00e+00	0	44	0	2614099968	8	4155
2026-01-08 11:07:41.29	9.42	23.95	-24.3	-25.6	18.4	0.00e+00	0	43	0	2619342848	8	4199
2026-01-08 11:07:42.30	9.21	23.85	-24.3	-25.6	18.3	0.00e+00	0	43	0	2625634304	8	4200
2026-01-08 11:07:43.31	9.01	23.74	-24.3	-25.6	18.3	0.00e+00	0	43	0	2630877184	8	4191
2026-01-08 11:07:44.31	8.81	23.63	-24.1	-25.1	18.6	0.00e+00	0	43	0	2636120064	8	4077
2026-01-08 11:07:45.31	8.61	23.53	-24.0	-24.9	18.7	0.00e+00	0	44	0	2642411520	8	4021
2026-01-08 11:07:46.32	8.41	23.42	-24.0	-24.9	18.7	0.00e+00	0	44	0	2647654400	8	4020
2026-01-08 11:07:47.32	8.21	23.32	-24.0	-24.9	18.7	0.00e+00	0	44	0	2652897280	8	4017
2026-01-08 11:07:48.33	8.01	23.21	-23.8	-24.6	18.9	0.00e+00	0	43	0	2659188736	8	3954
2026-01-08 11:07:49.34	7.81	23.11	-23.9	-24.7	18.8	0.00e+00	0	43	0	2664431616	8	3963
2026-01-08 11:07:50.34	7.62	23.00	-23.9	-24.8	18.7	0.00e+00	0	44	0	2670723072	8	3991
2026-01-08 11:07:51.35	7.43	22.89	-23.7	-24.5	18.9	0.00e+00	0	43	0	2675965952	8	3916
2026-01-08 11:07:52.36	7.24	22.79	-23.7	-24.5	18.9	0.00e+00	0	44	0	2682257408	8	3917
2026-01-08 11:07:53.36	7.05	22.68	-23.8	-24.6	18.9	0.00e+00	0	44	0	2687500288	8	3940
2026-01-08 11:07:54.36	6.86	22.58	-23.8	-24.5	18.9	0.00e+00	0	44	0	2692743168	8	3934
2026-01-08 11:07:55.37	6.67	22.47	-23.8	-24.6	18.8	0.00e+00	0	43	0	2699034624	8	3940
2026-01-08 11:07:56.38	6.48	22.37	-23.8	-24.5	18.9	0.00e+00	0	44	0	2704277504	8	3934
2026-01-08 11:07:57.38	6.30	22.26	-23.9	-24.7	18.8	0.00e+00	0	43	0	2709520384	8	3973
2026-01-08 11:07:58.39	6.11	22.16	-23.9	-24.8	18.8	0.00e+00	0	44	0	2715811840	8	3987
2026-01-08 11:07:59.40	5.93	22.05	-23.9	-24.8	18.7	0.00e+00	0	44	0	2721054720	8	4002
2026-01-08 11:08:00.40	5.75	21.95	-23.9	-24.8	18.7	0.00e+00	0	43	0	2727346176	8	3984
2026-01-08 11:08:01.41	5.57	21.85	-23.8	-24.7	18.8	0.00e+00	0	43	0	2732589056	8	3963
2026-01-08 11:08:02.42	5.39	21.74	-23.9	-24.8	18.7	0.00e+00	0	43	0	2737831936	8	4000
2026-01-08 11:08:03.42	5.21	21.64	-23.9	-24.9	18.7	0.00e+00	0	43	0	2744123392	8	4014
2026-01-08 11:08:04.43	5.04	21.53	-23.9	-24.8	18.7	0.00e+00	0	44	0	2749366272	8	3982
2026-01-08 11:08:05.44	4.86	21.43	-24.0	-25.0	18.5	0.00e+00	0	44	0	2755657728	8	4048
2026-01-08 11:08:06.45	4.69	21.32	-24.1	-25.2	18.4	0.00e+00	0	43	0	2760900608	8	4102
2026-01-08 11:08:07.46	4.51	21.22	-24.0	-25.0	18.6	0.00e+00	0	43	0	2767192064	8	4049
2026-01-08 11:08:08.47	4.34	21.12	-24.0	-25.0	18.6	0.00e+00	0	43	0	2772434944	8	4051
2026-01-08 11:08:09.47	4.17	21.01	-24.0	-25.0	18.5	0.00e+00	0	44	0	2777677824	8	4049
2026-01-08 11:08:10.48	4.00	20.91	-24.0	-25.0	18.5	0.00e+00	0	44	0	2783969280	8	4045
2026-01-08 11:08:11.49	3.83	20.81	-24.0	-25.0	18.5	0.00e+00	0	44	0	2789212160	8	4050
2026-01-08 11:08:12.50	3.66	20.70	-24.0	-25.0	18.5	0.00e+00	0	43	0	2795503616	8	4042
2026-01-08 11:08:13.50	3.50	20.60	-24.1	-25.3	18.4	0.00e+00	0	44	0	2800746496	8	4104
2026-01-08 11:08:14.51	3.33	20.50	-24.1	-25.2	18.4	0.00e+00	0	43	0	2805989376	8	4085
2026-01-08 11:08:15.51	3.17	20.40	-24.0	-25.1	18.5	0.00e+00	0	43	0	2812280832	8	4059
2026-01-08 11:08:16.52	3.01	20.29	-24.1	-25.3	18.3	0.00e+00	0	43	0	2817523712	8	4121
2026-01-08 11:08:17.52	2.85	20.19	-24.2	-25.4	18.3	0.00e+00	0	43	0	2822766592	8	4137
2026-01-08 11:08:18.52	2.69	20.09	-24.2	-25.5	18.2	0.00e+00	0	44	0	2829058048	8	4175
2026-01-08 11:08:19.53	2.53	19.99	-24.3	-25.6	18.2	0.00e+00	0	43	0	2834300928	8	4189
2026-01-08 11:08:20.54	2.37	19.89	-24.3	-25.7	18.1	0.00e+00	0	43	0	2840592384	8	4223
2026-01-08 11:08:21.55	2.21	19.79	-24.3	-25.7	18.1	0.00e+00	0	44	0	2845835264	8	4229
2026-01-08 11:08:22.56	2.05	19.68	-24.3	-25.7	18.1	0.00e+00	0	43	0	2852126720	8	4230
2026-01-08 11:08:23.56	1.90	19.58	-24.4	-25.8	18.1	0.00e+00	0	43	0	2857369600	8	4240
2026-01-08 11:08:24.57	1.74	19.48	-24.5	-26.0	18.0	0.00e+00	0	44	0	2862612480	8	4298
2026-01-08 11:08:25.57	1.59	19.38	-24.5	-25.5	18.0	0.00e+00	0	44	0	2868903936	9	4063
2026-01-08 11:08:26.58	1.44	19.28	-24.5	-25.6	17.9	0.00e+00	0	43	0	2874146816	9	4092
2026-01-08 11:08:27.58	1.29	19.18	-24.6	-25.8	17.9	0.00e+00	0	44	0	2879389696	9	4125
2026-01-08 11:08:28.59	1.14	19.08	-24.5	-25.5	18.0	0.00e+00	0	43	0	2885681152	9	4062
2026-01-08 11:08:29.60	0.99	18.98	-24.5	-25.6	17.9	0.00e+00	0	43	0	2890924032	9	4077
2026-01-08 11:08:30.60	0.84	18.88	-24.5	-25.5	17.9	0.00e+00	0	44	0	2897215488	9	4052
2026-01-08 11:08:31.61	0.70	18.78	-24.6	-25.7	17.8	0.00e+00	0	43	0	2902458368	9	4117
2026-01-08 11:08:32.61	0.55	18.68	-24.5	-25.7	17.7	0.00e+00	0	43	0	2907701248	9	4106
2026-01-08 11:08:33.62	0.40	18.59	-24.5	-25.5	17.8	0.00e+00	0	43	0	2913992704	9	4058
2026-01-08 11:08:34.63	0.26	18.49	-24.6	-25.8	17.7	0.00e+00	0	43	0	2919235584	9	4122
2026-01-08 11:08:35.64	0.12	18.39	-24.6	-25.8	17.6	0.00e+00	0	43	0	2925527040	9	4129
2026-01-08 11:08:36.65	359.97	18.29	-24.7	-26.1	17.4	0.00e+00	0	43	0	2930769920	9	4206
2026-01-08 11:08:37.65	359.83	18.19	-24.9	-26.4	17.3	0.00e+00	0	43	0	2937061376	9	4302
2026-01-08 11:08:38.66	359.69	18.09	-25.0	-26.6	17.2	0.00e+00	0	43	0	2942304256	9	4337
2026-01-08 11:08:39.67	359.55	17.99	-25.0	-26.2	17.2	0.00e+00	0	43	0	2947547136	10	4127
2026-01-08 11:08:40.67	359.42	17.90	-25.2	-26.7	17.0	0.00e+00	0	43	0	2953838592	10	4245
2026-01-08 11:08:41.68	359.28	17.80	-25.2	-26.6	17.0	0.00e+00	0	43	0	2959081472	10	4224
2026-01-08 11:08:42.68	359.14	17.70	-25.1	-26.4	17.1	0.00e+00	0	44	0	2964324352	10	4175
2026-01-08 11:08:43.69	359.01	17.61	-25.2	-26.5	17.1	0.00e+00	0	44	0	2970615808	10	4187
2026-01-08 11:08:44.70	358.87	17.51	-25.2	-26.5	17.1	0.00e+00	0	44	0	2975858688	10	4195
2026-01-08 11:08:45.70	358.74	17.41	-25.1	-26.4	17.1	0.00e+00	0	44	0	2982150144	10	4181
2026-01-08 11:08:46.70	358.60	17.32	-25.2	-26.6	17.0	0.00e+00	0	44	0	2987393024	10	4233
2026-01-08 11:08:47.71	358.47	17.22	-25.3	-26.7	17.0	0.00e+00	0	44	0	2992635904	10	4243
2026-01-08 11:08:48.71	358.34	17.13	-25.3	-26.8	17.0	0.00e+00	0	43	0	2998927360	10	4265
2026-01-08 11:08:49.72	358.21	17.03	-25.4	-27.1	16.8	0.00e+00	0	43	0	3004170240	10	4359
2026-01-08 11:08:50.73	358.08	16.93	-25.4	-26.5	16.9	0.00e+00	0	43	0	3010461696	11	4090
2026-01-08 11:08:51.74	357.95	16.84	-25.3	-26.4	16.9	0.00e+00	0	43	0	3015704576	11	4061
2026-01-08 11:08:52.75	357.82	16.74	-25.4	-26.4	16.9	0.00e+00	0	43	0	3021996032	11	4065
2026-01-08 11:08:53.75	357.70	16.65	-25.3	-26.3	17.0	0.00e+00	0	43	0	3027238912	11	4042
2026-01-08 11:08:54.75	357.57	16.56	-25.3	-26.3	17.0	0.00e+00	0	44	0	3032481792	11	4046
2026-01-08 11:08:55.76	357.44	16.46	-25.4	-26.6	16.8	0.00e+00	0	43	0	3038773248	11	4112
2026-01-08 11:08:56.77	357.32	16.37	-25.4	-26.4	16.9	0.00e+00	0	43	0	3044016128	11	4073
2026-01-08 11:08:57.78	357.19	16.27	-25.3	-26.3	16.9	0.00e+00	0	44	0	3049259008	11	4050
2026-01-08 11:08:58.79	357.07	16.18	-25.3	-26.3	16.9	0.00e+00	0	43	0	3055550464	11	4048
2026-01-08 11:08:59.79	356.95	16.09	-25.4	-26.6	16.8	0.00e+00	0	43	0	3060793344	11	4102
2026-01-08 11:09:00.79	356.83	15.99	-25.6	-26.9	16.7	0.00e+00	0	43	0	3066036224	11	4176
2026-01-08 11:09:01.79	356.71	15.90	-25.5	-26.8	16.7	0.00e+00	0	43	0	3072327680	11	4175
2026-01-08 11:09:02.79	356.59	15.81	-25.7	-27.1	16.6	0.00e+00	0	44	0	3077570560	11	4248
2026-01-08 11:09:03.80	356.47	15.72	-25.7	-27.1	16.6	0.00e+00	0	43	0	3083862016	11	4238
2026-01-08 11:09:04.80	356.35	15.62	-25.7	-27.1	16.5	0.00e+00	0	43	0	3089104896	11	4251
2026-01-08 11:09:05.81	356.23	15.53	-25.8	-27.4	16.3	0.00e+00	0	44	0	3095396352	11	4336
2026-01-08 11:09:06.82	356.12	15.44	-25.8	-27.3	16.4	0.00e+00	0	43	0	3100639232	11	4302
2026-01-08 11:09:07.83	356.00	15.35	-25.7	-27.1	16.5	0.00e+00	0	43	0	3105882112	11	4257
2026-01-08 11:09:08.83	355.88	15.26	-25.7	-27.1	16.4	0.00e+00	0	44	0	3112173568	11	4252
2026-01-08 11:09:09.84	355.77	15.16	-25.8	-27.3	16.4	1.10e-06	0	43	0	3117416448	11	4305
2026-01-08 11:09:10.84	355.66	15.07	-25.8	-27.3	16.3	0.00e+00	0	43	0	3123707904	11	4299
2026-01-08 11:09:11.85	355.54	14.98	-25.8	-27.4	16.3	0.00e+00	0	43	0	3128950784	11	4315
2026-01-08 11:09:12.86	355.43	14.89	-26.0	-27.7	16.1	0.00e+00	0	43	0	3134193664	11	4413
2026-01-08 11:09:13.86	355.32	14.80	-25.8	-26.9	16.3	0.00e+00	0	44	0	3140485120	12	4080
2026-01-08 11:09:14.86	355.21	14.71	-25.6	-26.5	16.5	0.00e+00	0	43	0	3145728000	12	3989
2026-01-08 11:09:15.86	355.10	14.62	-25.6	-26.6	16.4	0.00e+00	0	43	0	3150970880	12	4001
2026-01-08 11:09:16.87	354.99	14.53	-25.6	-26.6	16.4	0.00e+00	0	43	0	3157262336	12	4005
2026-01-08 11:09:17.87	354.88	14.45	-25.8	-26.9	16.2	0.00e+00	0	44	0	3162505216	12	4085
2026-01-08 11:09:18.89	354.77	14.35	-25.7	-26.8	16.3	0.00e+00	0	43	0	3168796672	12	4064
2026-01-08 11:09:19.89	354.66	14.27	-25.8	-26.8	16.3	0.00e+00	0	43	0	3174039552	12	4070
2026-01-08 11:09:20.89	354.55	14.18	-25.9	-27.1	16.1	0.00e+00	0	44	0	3180331008	12	4143
2026-01-08 11:09:21.90	354.45	14.09	-25.9	-27.2	16.0	0.00e+00	0	43	0	3185573888	12	4177
2026-01-08 11:09:22.92	354.34	14.00	-25.9	-27.1	16.1	0.00e+00	0	44	0	3190816768	12	4136
2026-01-08 11:09:23.92	354.24	13.91	-25.9	-27.2	16.0	0.00e+00	0	43	0	3197108224	12	4168
2026-01-08 11:09:24.93	354.13	13.82	-26.0	-27.3	16.0	0.00e+00	0	44	0	3202351104	12	4190
2026-01-08 11:09:25.93	354.03	13.74	-26.0	-27.5	15.9	0.00e+00	0	43	0	3207593984	12	4235
2026-01-08 11:09:26.94	353.92	13.65	-25.9	-27.2	16.0	0.00e+00	0	44	0	3213885440	12	4174
2026-01-08 11:09:27.95	353.82	13.56	-25.9	-27.2	16.0	0.00e+00	0	43	0	3219128320	12	4176
2026-01-08 11:09:28.96	353.72	13.47	-26.0	-27.3	16.0	0.00e+00	0	43	0	3225419776	12	4190
2026-01-08 11:09:29.96	353.62	13.39	-26.1	-27.5	15.8	0.00e+00	0	43	0	3230662656	12	4252
2026-01-08 11:09:30.97	353.52	13.30	-26.0	-27.3	16.0	0.00e+00	0	44	0	3235905536	12	4185
2026-01-08 11:09:31.97	353.42	13.22	-26.0	-27.4	15.9	0.00e+00	0	44	0	3242196992	12	4218
2026-01-08 11:09:32.98	353.32	13.13	-26.0	-27.3	15.9	0.00e+00	0	44	0	3247439872	12	4194
2026-01-08 11:09:33.99	353.22	13.04	-25.9	-27.2	15.9	0.00e+00	0	44	0	3253731328	12	4175
2026-01-08 11:09:34.99	353.12	12.96	-26.1	-27.7	15.7	0.00e+00	0	43	0	3258974208	12	4295
2026-01-08 11:09:36.00	353.02	12.87	-25.9	-27.2	15.9	0.00e+00	0	43	0	3265265664	12	4161
2026-01-08 11:09:37.00	352.92	12.79	-26.0	-27.3	15.9	0.00e+00	0	44	0	3270508544	12	4201
2026-01-08 11:09:38.00	352.83	12.70	-26.0	-27.4	15.8	0.00e+00	0	43	0	3275751424	12	4226
2026-01-08 11:09:39.01	352.73	12.62	-26.2	-27.9	15.6	0.00e+00	0	43	0	3282042880	12	4349
2026-01-08 11:09:40.01	352.64	12.53	-26.0	-27.5	15.8	0.00e+00	0	43	0	3287285760	12	4235
2026-01-08 11:09:41.02	352.54	12.45	-26.0	-27.5	15.8	0.00e+00	0	43	0	3292528640	12	4242
2026-01-08 11:09:42.03	352.45	12.37	-26.2	-27.7	15.6	0.00e+00	0	43	0	3298820096	12	4315
2026-01-08 11:09:43.03	352.35	12.28	-26.2	-27.7	15.6	0.00e+00	0	43	0	3304062976	12	4309
2026-01-08 11:09:44.04	352.26	12.20	-26.2	-27.8	15.5	0.00e+00	0	43	0	3310354432	12	4344
2026-01-08 11:09:45.05	352.17	12.11	-26.3	-28.0	15.4	0.00e+00	0	43	0	3315597312	12	4397
2026-01-08 11:09:46.05	352.07	12.03	-26.2	-27.8	15.5	1.10e-06	0	43	0	3320840192	12	4324
2026-01-08 11:09:47.06	351.98	11.95	-26.1	-27.7	15.6	0.00e+00	0	43	0	3327131648	12	4297
2026-01-08 11:09:48.07	351.89	11.86	-26.2	-27.8	15.5	0.00e+00	0	43	0	3332374528	12	4323
2026-01-08 11:09:49.07	351.80	11.78	-26.2	-27.8	15.5	0.00e+00	0	43	0	3338665984	12	4336
2026-01-08 11:09:50.07	351.71	11.70	-26.3	-28.1	15.4	0.00e+00	0	43	0	3343908864	12	4407
2026-01-08 11:09:51.07	351.62	11.62	-26.3	-28.0	15.4	0.00e+00	0	43	0	3349151744	12	4393
2026-01-08 11:09:52.07	351.53	11.54	-26.6	-28.3	15.0	0.00e+00	0	43	0	3355443200	13	4353
2026-01-08 11:09:53.08	351.45	11.45	-26.8	-28.8	14.7	0.00e+00	0	44	0	3360686080	13	4496
2026-01-08 11:09:54.07	351.36	11.37	-26.6	-28.2	15.1	0.00e+00	0	43	0	3365928960	13	4324
2026-01-08 11:09:55.08	351.27	11.29	-26.4	-27.8	15.3	0.00e+00	0	43	0	3372220416	13	4213
2026-01-08 11:09:56.08	351.18	11.21	-26.3	-27.6	15.4	0.00e+00	0	44	0	3377463296	13	4178
2026-01-08 11:09:57.09	351.10	11.13	-26.3	-27.6	15.3	0.00e+00	0	43	0	3382706176	13	4178
2026-01-08 11:09:58.09	351.01	11.05	-26.4	-27.7	15.3	0.00e+00	0	43	0	3388997632	13	4208
2026-01-08 11:09:59.10	350.93	10.97	-26.4	-27.9	15.2	0.00e+00	0	43	0	3394240512	13	4247
2026-01-08 11:10:00.11	350.84	10.89	-26.4	-27.8	15.3	0.00e+00	0	44	0	3400531968	13	4229
2026-01-08 11:10:01.11	350.76	10.81	-26.5	-28.0	15.1	1.10e-06	0	43	0	3405774848	13	4288
2026-01-08 11:10:02.12	350.67	10.73	-26.5	-28.0	15.2	1.10e-06	0	43	0	3412066304	13	4272
2026-01-08 11:10:03.12	350.59	10.65	-26.5	-27.9	15.2	0.00e+00	0	43	0	3417309184	13	4256
2026-01-08 11:10:04.12	350.51	10.57	-26.5	-28.1	15.1	0.00e+00	0	43	0	3422552064	13	4299
2026-01-08 11:10:05.13	350.42	10.49	-26.4	-27.9	15.2	0.00e+00	0	43	0	3428843520	13	4235
2026-01-08 11:10:06.13	350.34	10.41	-26.6	-28.1	15.0	0.00e+00	0	44	0	3434086400	13	4316
2026-01-08 11:10:07.14	350.26	10.33	-26.6	-28.3	14.9	2.20e-06	0	43	0	3439329280	13	4363
2026-01-08 11:10:08.14	350.18	10.25	-26.5	-28.0	15.0	0.00e+00	0	43	0	3445620736	13	4276
2026-01-08 11:10:09.15	350.10	10.17	-26.4	-27.8	15.2	0.00e+00	0	43	0	3450863616	13	4213
2026-01-08 11:10:10.15	350.02	10.10	-26.5	-27.9	15.1	0.00e+00	0	43	0	3457155072	13	4241
2026-01-08 11:10:11.16	349.94	10.02	-26.5	-27.9	15.1	0.00e+00	0	44	0	3462397952	13	4253
2026-01-08 11:10:12.17	349.86	9.94	-26.5	-28.0	15.0	0.00e+00	0	44	0	3467640832	13	4283
2026-01-08 11:10:13.17	349.78	9.86	-26.5	-28.1	15.0	0.00e+00	0	44	0	3473932288	13	4297
2026-01-08 11:10:14.18	349.70	9.78	-26.5	-28.0	15.0	1.10e-06	0	43	0	3479175168	13	4291
2026-01-08 11:10:15.18	349.62	9.71	-26.5	-28.0	15.0	1.10e-06	0	43	0	3485466624	13	4280
2026-01-08 11:10:16.19	349.55	9.63	-26.6	-28.1	14.9	1.10e-06	0	43	0	3490709504	13	4314
2026-01-08 11:10:17.20	349.47	9.55	-26.7	-28.4	14.8	1.10e-06	0	44	0	3497000960	13	4394
2026-01-08 11:10:18.20	349.39	9.47	-26.6	-28.2	14.9	0.00e+00	0	43	0	3502243840	13	4341
2026-01-08 11:10:19.21	349.32	9.40	-26.7	-28.5	14.7	1.10e-06	0	44	0	3507486720	13	4421
2026-01-08 11:10:20.21	349.24	9.32	-26.7	-28.5	14.7	0.00e+00	0	43	0	3513778176	13	4413
2026-01-08 11:10:21.22	349.16	9.24	-26.7	-28.6	14.6	0.00e+00	0	43	0	3519021056	13	4442
2026-01-08 11:10:22.23	349.09	9.17	-26.6	-28.4	14.8	1.10e-06	0	44	0	3524263936	13	4386
2026-01-08 11:10:23.23	349.01	9.09	-26.8	-28.6	14.6	3.40e-06	0	43	0	3530555392	13	4462
2026-01-08 11:10:24.24	348.94	9.02	-26.8	-28.6	14.6	0.00e+00	0	44	0	3535798272	13	4451
2026-01-08 11:10:25.24	348.87	8.94	-26.6	-28.3	14.8	0.00e+00	0	43	0	3542089728	13	4372
2026-01-08 11:10:26.25	348.79	8.87	-26.8	-28.6	14.6	2.20e-06	0	43	0	3547332608	13	4453
2026-01-08 11:10:27.26	348.72	8.79	-26.8	-28.7	14.6	0.00e+00	0	44	0	3552575488	13	4480
2026-01-08 11:10:28.26	348.65	8.72	-26.8	-28.6	14.6	2.20e-06	0	44	0	3558866944	13	4455
2026-01-08 11:10:29.27	348.57	8.64	-26.8	-28.7	14.5	1.10e-06	0	43	0	3564109824	13	4478
2026-01-08 11:10:30.28	348.50	8.57	-26.8	-28.8	14.4	3.40e-06	0	43	0	3570401280	13	4517
2026-01-08 11:10:31.29	348.43	8.49	-26.7	-28.6	14.6	1.10e-06	0	44	0	3575644160	13	4454
2026-01-08 11:10:32.29	348.36	8.42	-26.8	-28.8	14.5	2.20e-06	0	43	0	3581935616	13	4504
2026-01-08 11:10:33.30	348.29	8.34	-26.8	-28.7	14.4	0.00e+00	0	43	0	3587178496	13	4496
2026-01-08 11:10:34.31	348.22	8.27	-26.8	-28.8	14.4	1.10e-06	0	43	0	3592421376	13	4511
2026-01-08 11:10:35.32	348.15	8.19	-26.9	-29.0	14.3	3.40e-06	0	44	0	3598712832	13	4573
2026-01-08 11:10:36.33	348.08	8.12	-27.0	-28.6	14.2	4.50e-06	0	44	0	3603955712	14	4358
2026-01-08 11:10:37.33	348.01	8.05	-26.8	-28.3	14.4	2.20e-06	0	44	0	3609198592	14	4256
2026-01-08 11:10:38.33	347.94	7.97	-26.8	-28.2	14.4	1.10e-06	0	44	0	3615490048	14	4245
2026-01-08 11:10:39.34	347.87	7.90	-26.8	-28.2	14.4	0.00e+00	0	44	0	3620732928	14	4248
2026-01-08 11:10:40.34	347.80	7.83	-26.9	-28.4	14.3	2.20e-06	0	44	0	3625975808	14	4297
2026-01-08 11:10:41.35	347.74	7.75	-26.9	-28.5	14.2	4.50e-06	0	44	0	3632267264	14	4324
2026-01-08 11:10:42.35	347.67	7.68	-26.9	-28.5	14.2	1.10e-06	0	43	0	3637510144	14	4334
2026-01-08 11:10:43.36	347.60	7.61	-26.9	-28.5	14.2	3.40e-06	0	43	0	3643801600	14	4334
2026-01-08 11:10:44.37	347.53	7.54	-26.9	-28.4	14.3	0.00e+00	0	43	0	3649044480	14	4300
2026-01-08 11:10:45.38	347.47	7.46	-26.9	-28.5	14.2	6.80e-06	0	43	0	3655335936	14	4321
2026-01-08 11:10:46.38	347.40	7.39	-26.9	-28.4	14.3	2.20e-06	0	43	0	3660578816	14	4305
2026-01-08 11:10:47.39	347.34	7.32	-27.0	-28.7	14.1	1.10e-06	0	44	0	3665821696	14	4379
2026-01-08 11:10:48.39	347.27	7.25	-27.0	-28.7	14.1	3.40e-06	0	44	0	3672113152	14	4392
2026-01-08 11:10:49.40	347.21	7.18	-27.1	-29.0	13.9	2.20e-06	0	44	0	3677356032	14	4456
2026-01-08 11:10:50.40	347.14	7.11	-31.3	-36.1	7.4	5.64e-04	0	43	0	3683647488	22	6286
2026-01-08 11:10:51.41	347.08	7.03	-33.2	-43.9	3.8	8.44e-01	0	44	104	3683647488	26	12328

#Closed at: 2026-01-08 11:10:52
#Recorded file [3683 MB]: D:/data/31010_260108_135955.dat