passes_logs/2026/01/08/R2M6_AANII_01/R2M6_AANII_01__20260108_014628_SUOMI_NPP_rec.log

#Pass ID: 20260108_014628_SUOMI NPP
#Satellite: SUOMI NPP
#Configuration: NPP
#almurnet v.1.7.20240730
#Start time: 2026-01-08 01:46:28

#Version: 2.2.20231116
#Station: R2M6_AANII_01
#Location: 30.233357 lon 59.946436 lat
#TLE: 1 37849U 11061A   26005.94084933  .00000134  00000+0  84554-4 0  9990
#TLE: 2 37849  98.7803 308.0679 0002567  79.1029 281.0436 14.19522657735426

#Time	Az	El	Level	Level2	SNR	BER	BlckErr	Temp	State	Recorded	gain1	gain2
2026-01-08 01:46:28.41	12.33	6.99	-31.9	-38.4	4.5	1.39e+00	0	41	0	0	23	7639
2026-01-08 01:46:29.40	12.26	7.06	-31.9	-38.6	4.5	1.38e+00	0	41	104	0	23	7779
2026-01-08 01:46:30.40	12.19	7.13	-31.9	-38.3	5.9	4.28e-01	0	41	0	0	23	7533
2026-01-08 01:46:31.41	12.13	7.20	-31.9	-38.1	6.2	2.61e-01	0	41	0	1048576	23	7349
2026-01-08 01:46:32.42	12.06	7.27	-31.9	-38.4	6.0	2.89e-01	0	41	0	3145728	23	7553
2026-01-08 01:46:33.43	11.99	7.34	-32.0	-38.5	5.9	3.44e-01	0	41	0	5242880	23	7685
2026-01-08 01:46:34.43	11.93	7.41	-31.9	-37.9	6.4	3.01e-01	0	41	0	7340032	23	7192
2026-01-08 01:46:35.43	11.86	7.48	-31.8	-37.5	6.6	2.21e-01	0	41	0	9437184	23	6941
2026-01-08 01:46:36.44	11.79	7.56	-31.8	-37.4	6.6	1.98e-01	0	41	0	10485760	23	6869
2026-01-08 01:46:37.45	11.72	7.63	-31.8	-37.4	6.7	1.86e-01	0	41	0	12582912	23	6849
2026-01-08 01:46:38.45	11.65	7.70	-31.7	-36.7	7.2	1.63e-01	0	41	0	14680064	23	6429
2026-01-08 01:46:39.46	11.58	7.77	-31.5	-35.7	8.0	9.49e-02	0	41	0	16777216	23	5881
2026-01-08 01:46:40.47	11.51	7.85	-31.3	-35.6	8.6	4.64e-02	0	41	0	18874368	22	5890
2026-01-08 01:46:41.48	11.44	7.92	-31.3	-35.6	8.5	3.26e-02	0	41	0	19922944	22	5874
2026-01-08 01:46:42.48	11.37	7.99	-31.3	-35.7	8.5	4.59e-02	0	42	0	22020096	22	5944
2026-01-08 01:46:43.49	11.30	8.06	-31.6	-36.1	7.8	7.54e-02	0	42	0	24117248	23	6069
2026-01-08 01:46:44.48	11.23	8.14	-31.5	-35.7	8.2	6.28e-02	0	42	0	26214400	23	5858
2026-01-08 01:46:45.49	11.16	8.21	-31.6	-36.1	7.8	6.49e-02	0	42	0	28311552	23	6066
2026-01-08 01:46:46.49	11.09	8.28	-31.6	-36.3	7.7	8.90e-02	0	42	0	29360128	23	6198
2026-01-08 01:46:47.50	11.02	8.36	-31.6	-36.1	7.9	8.66e-02	0	42	0	31457280	23	6058
2026-01-08 01:46:48.50	10.94	8.43	-31.6	-36.0	8.0	6.71e-02	0	42	0	33554432	23	5985
2026-01-08 01:46:49.51	10.87	8.50	-31.6	-36.2	7.7	7.49e-02	0	42	0	35651584	23	6131
2026-01-08 01:46:50.52	10.80	8.58	-31.5	-35.7	8.1	8.54e-02	0	42	0	37748736	23	5846
2026-01-08 01:46:51.52	10.72	8.65	-31.7	-36.5	7.6	7.44e-02	0	42	0	38797312	23	6263
2026-01-08 01:46:52.53	10.65	8.73	-31.7	-36.5	7.5	1.22e-01	0	42	0	40894464	23	6257
2026-01-08 01:46:53.53	10.57	8.80	-31.5	-35.5	8.3	5.68e-02	0	42	0	42991616	23	5735
2026-01-08 01:46:54.55	10.50	8.88	-31.2	-34.9	9.1	3.94e-02	0	42	0	45088768	22	5549
2026-01-08 01:46:55.55	10.42	8.95	-31.0	-34.4	9.5	1.57e-02	0	42	0	46137344	22	5290
2026-01-08 01:46:56.56	10.35	9.03	-31.0	-34.3	9.6	9.86e-03	0	42	0	48234496	22	5263
2026-01-08 01:46:57.56	10.27	9.10	-31.1	-34.5	9.6	1.47e-02	0	42	0	50331648	22	5322
2026-01-08 01:46:58.56	10.19	9.18	-31.1	-34.6	9.5	1.33e-02	0	42	0	52428800	22	5394
2026-01-08 01:46:59.57	10.12	9.25	-31.2	-34.8	9.3	1.91e-02	0	42	0	54525952	22	5486
2026-01-08 01:47:00.57	10.04	9.33	-31.1	-34.6	9.5	1.55e-02	0	42	0	56623104	22	5376
2026-01-08 01:47:01.57	9.96	9.40	-31.2	-34.9	9.3	1.55e-02	0	42	0	57671680	22	5518
2026-01-08 01:47:02.58	9.88	9.48	-31.1	-34.7	9.5	1.95e-02	0	42	0	59768832	22	5429
2026-01-08 01:47:03.59	9.80	9.56	-31.1	-34.6	9.4	1.33e-02	0	42	0	61865984	22	5372
2026-01-08 01:47:04.60	9.72	9.64	-31.2	-35.0	9.2	2.21e-02	0	42	0	63963136	22	5585
2026-01-08 01:47:05.60	9.64	9.71	-31.3	-35.3	9.0	2.02e-02	0	42	0	65011712	22	5681
2026-01-08 01:47:06.61	9.56	9.79	-31.2	-34.9	9.3	3.18e-02	0	42	0	67108864	22	5503
2026-01-08 01:47:07.61	9.48	9.87	-31.0	-34.1	9.8	1.60e-02	0	42	0	69206016	22	5179
2026-01-08 01:47:08.62	9.40	9.94	-30.8	-34.1	10.3	5.66e-03	0	42	0	71303168	21	5255
2026-01-08 01:47:09.62	9.32	10.02	-30.5	-33.0	11.0	2.58e-03	0	42	0	73400320	21	4805
2026-01-08 01:47:10.62	9.24	10.10	-30.4	-32.8	11.2	1.92e-03	0	42	0	74448896	21	4720
2026-01-08 01:47:11.63	9.16	10.18	-29.8	-32.2	11.3	1.59e-03	0	42	0	76546048	21	4748
2026-01-08 01:47:12.64	9.07	10.25	-30.5	-33.2	11.0	1.67e-03	0	42	0	78643200	21	4871
2026-01-08 01:47:13.64	8.99	10.33	-30.4	-33.2	10.6	1.63e-03	0	42	0	80740352	20	4990
2026-01-08 01:47:14.65	8.91	10.41	-30.2	-32.6	10.8	9.70e-04	0	42	0	82837504	20	4748
2026-01-08 01:47:15.65	8.82	10.49	-30.5	-33.4	11.1	1.07e-03	0	42	0	83886080	20	5037
2026-01-08 01:47:16.66	8.74	10.57	-30.3	-33.0	10.7	1.14e-03	0	43	0	85983232	20	4882
2026-01-08 01:47:17.66	8.65	10.65	-30.2	-32.6	11.7	3.70e-04	0	42	0	88080384	20	4755
2026-01-08 01:47:18.67	8.57	10.73	-30.2	-32.6	11.7	6.61e-04	0	42	0	90177536	20	4751
2026-01-08 01:47:19.68	8.48	10.81	-30.2	-32.5	11.9	6.77e-04	0	43	0	92274688	20	4693
2026-01-08 01:47:20.69	8.39	10.89	-30.4	-33.2	11.4	7.26e-04	0	43	0	93323264	20	4945
2026-01-08 01:47:21.69	8.31	10.97	-30.3	-32.9	11.5	1.39e-03	0	42	0	95420416	20	4850
2026-01-08 01:47:22.69	8.22	11.05	-30.2	-32.6	11.8	4.30e-04	0	43	0	97517568	20	4716
2026-01-08 01:47:23.70	8.13	11.13	-30.1	-32.3	12.1	3.40e-04	0	42	0	99614720	20	4622
2026-01-08 01:47:24.70	8.04	11.21	-30.2	-32.6	11.8	5.02e-04	0	43	0	101711872	20	4733
2026-01-08 01:47:25.70	7.95	11.29	-30.2	-32.6	11.8	3.17e-03	0	43	0	102760448	20	4743
2026-01-08 01:47:26.71	7.86	11.37	-30.3	-32.7	11.9	4.35e-04	0	42	0	104857600	20	4754
2026-01-08 01:47:27.72	7.77	11.45	-30.0	-31.9	12.3	3.28e-04	0	43	0	106954752	20	4476
2026-01-08 01:47:28.73	7.68	11.53	-30.2	-32.4	12.0	2.71e-03	0	43	0	109051904	20	4655
2026-01-08 01:47:29.73	7.59	11.61	-30.1	-32.2	12.1	2.73e-04	0	43	0	111149056	20	4583
2026-01-08 01:47:30.74	7.50	11.69	-30.2	-32.4	12.1	2.48e-04	0	42	0	112197632	20	4633
2026-01-08 01:47:31.74	7.41	11.77	-30.2	-32.6	12.0	3.06e-03	0	43	0	114294784	20	4707
2026-01-08 01:47:32.74	7.31	11.86	-30.2	-32.4	12.0	3.01e-03	0	43	0	116391936	20	4652
2026-01-08 01:47:33.74	7.22	11.94	-30.1	-32.2	12.1	3.13e-04	0	43	0	118489088	20	4588
2026-01-08 01:47:34.75	7.13	12.02	-30.1	-32.0	12.2	2.56e-04	0	43	0	120586240	20	4525
2026-01-08 01:47:35.76	7.03	12.10	-30.1	-32.1	12.3	2.56e-03	0	43	0	121634816	20	4537
2026-01-08 01:47:36.77	6.94	12.19	-30.2	-32.4	12.0	4.75e-04	0	43	0	123731968	20	4651
2026-01-08 01:47:37.77	6.84	12.27	-30.1	-32.2	12.2	3.55e-04	0	43	0	125829120	20	4586
2026-01-08 01:47:38.77	6.75	12.35	-30.2	-32.3	12.2	2.95e-03	0	43	0	127926272	20	4588
2026-01-08 01:47:39.78	6.65	12.43	-30.2	-32.4	12.0	5.02e-04	0	43	0	130023424	20	4629
2026-01-08 01:47:40.79	6.55	12.52	-30.3	-32.6	11.9	2.82e-04	0	43	0	131072000	20	4696
2026-01-08 01:47:41.79	6.45	12.60	-30.1	-32.3	12.2	3.05e-03	0	43	0	133169152	20	4587
2026-01-08 01:47:42.80	6.36	12.69	-30.2	-32.4	12.1	4.78e-04	0	43	0	135266304	20	4638
2026-01-08 01:47:43.81	6.26	12.77	-30.2	-32.3	12.2	3.14e-03	0	43	0	137363456	20	4583
2026-01-08 01:47:44.81	6.16	12.85	-30.3	-32.6	12.0	3.06e-03	0	43	0	139460608	20	4688
2026-01-08 01:47:45.82	6.06	12.94	-30.2	-32.3	12.2	6.55e-04	0	43	0	140509184	20	4592
2026-01-08 01:47:46.83	5.95	13.02	-30.2	-32.5	12.1	2.96e-03	0	43	0	142606336	20	4654
2026-01-08 01:47:47.83	5.85	13.11	-30.3	-32.6	12.0	3.39e-04	0	43	0	144703488	20	4702
2026-01-08 01:47:48.84	5.75	13.19	-30.2	-32.4	12.2	6.51e-04	0	43	0	146800640	20	4625
2026-01-08 01:47:49.84	5.65	13.28	-30.3	-32.7	11.9	3.27e-03	0	43	0	148897792	20	4732
2026-01-08 01:47:50.85	5.55	13.37	-30.3	-32.5	12.0	3.19e-03	0	43	0	149946368	20	4679
2026-01-08 01:47:51.85	5.44	13.45	-30.3	-32.5	12.1	7.42e-04	0	43	0	152043520	20	4672
2026-01-08 01:47:52.86	5.34	13.54	-30.2	-32.3	12.2	3.11e-03	0	43	0	154140672	20	4607
2026-01-08 01:47:53.87	5.23	13.62	-30.1	-32.1	12.3	2.87e-03	0	43	0	156237824	20	4519
2026-01-08 01:47:54.87	5.13	13.71	-30.0	-31.8	12.6	2.92e-04	0	43	0	158334976	20	4422
2026-01-08 01:47:55.88	5.02	13.80	-30.2	-32.3	12.2	2.79e-03	0	43	0	159383552	20	4601
2026-01-08 01:47:56.89	4.91	13.88	-30.1	-32.0	12.4	3.12e-03	0	43	0	161480704	20	4491
2026-01-08 01:47:57.90	4.80	13.97	-30.1	-32.0	12.5	4.48e-04	0	43	0	163577856	20	4478
2026-01-08 01:47:58.90	4.70	14.06	-30.1	-32.1	12.4	3.07e-03	0	43	0	165675008	20	4540
2026-01-08 01:47:59.90	4.59	14.15	-30.1	-32.1	12.4	2.93e-03	0	43	0	167772160	20	4522
2026-01-08 01:48:00.91	4.48	14.23	-30.1	-32.1	12.4	4.47e-04	0	43	0	168820736	20	4521
2026-01-08 01:48:01.91	4.37	14.32	-30.2	-32.4	12.2	2.17e-04	0	43	0	170917888	20	4639
2026-01-08 01:48:02.91	4.26	14.41	-30.1	-31.9	12.6	2.81e-03	0	43	0	173015040	20	4456
2026-01-08 01:48:03.92	4.14	14.50	-30.1	-32.0	12.5	3.89e-04	0	43	0	175112192	20	4496
2026-01-08 01:48:04.92	4.03	14.58	-30.1	-31.9	12.7	9.84e-05	0	43	0	177209344	20	4455
2026-01-08 01:48:05.92	3.92	14.67	-29.9	-31.4	12.9	2.99e-03	0	43	0	178257920	20	4296
2026-01-08 01:48:06.93	3.81	14.76	-29.9	-31.4	12.9	3.37e-04	0	43	0	180355072	20	4271
2026-01-08 01:48:07.94	3.69	14.85	-30.0	-31.6	12.8	2.94e-03	0	43	0	182452224	20	4326
2026-01-08 01:48:08.94	3.58	14.94	-29.7	-30.9	13.3	2.82e-05	0	43	0	184549376	20	4115
2026-01-08 01:48:09.95	3.46	15.03	-29.6	-30.5	13.6	3.42e-04	0	43	0	186646528	20	3996
2026-01-08 01:48:10.95	3.34	15.12	-29.5	-30.8	13.8	2.74e-03	0	43	0	187695104	19	4166
2026-01-08 01:48:11.96	3.23	15.21	-29.6	-31.1	13.6	6.80e-06	0	43	0	189792256	19	4274
2026-01-08 01:48:12.97	3.11	15.30	-29.6	-31.1	13.6	3.80e-06	0	43	0	191889408	19	4248
2026-01-08 01:48:13.98	2.99	15.39	-29.6	-31.0	13.7	2.46e-03	0	43	0	193986560	19	4237
2026-01-08 01:48:14.98	2.87	15.48	-29.7	-31.3	13.4	1.29e-05	0	43	0	196083712	19	4332
2026-01-08 01:48:15.99	2.75	15.57	-29.8	-31.5	13.4	9.90e-06	0	43	0	197132288	19	4378
2026-01-08 01:48:16.98	2.63	15.66	-29.8	-31.6	13.3	2.79e-03	0	43	0	199229440	19	4411
2026-01-08 01:48:17.99	2.51	15.75	-29.9	-31.4	13.0	2.76e-03	0	43	0	201326592	20	4272
2026-01-08 01:48:19.00	2.38	15.85	-29.9	-31.4	13.0	3.58e-05	0	43	0	203423744	20	4282
2026-01-08 01:48:20.00	2.26	15.94	-30.0	-31.7	12.8	5.26e-05	0	43	0	204472320	20	4358
2026-01-08 01:48:21.01	2.14	16.03	-30.0	-31.7	12.8	2.67e-03	0	43	0	206569472	20	4375
2026-01-08 01:48:22.01	2.01	16.12	-30.0	-31.7	12.9	2.01e-04	0	43	0	208666624	20	4355
2026-01-08 01:48:23.01	1.89	16.21	-30.0	-31.8	12.8	6.63e-05	0	43	0	210763776	20	4387
2026-01-08 01:48:24.02	1.76	16.31	-29.8	-31.2	13.2	3.08e-03	0	43	0	212860928	20	4206
2026-01-08 01:48:25.02	1.63	16.40	-30.0	-31.7	12.9	4.73e-05	0	43	0	214958080	20	4375
2026-01-08 01:48:26.03	1.50	16.49	-30.3	-32.5	12.4	9.91e-05	0	43	0	216006656	20	4623
2026-01-08 01:48:27.03	1.38	16.58	-30.0	-31.8	12.8	3.10e-04	0	43	0	218103808	20	4389
2026-01-08 01:48:28.04	1.24	16.68	-29.9	-31.4	13.1	5.28e-04	0	43	0	220200960	20	4272
2026-01-08 01:48:29.05	1.11	16.77	-29.9	-31.5	13.0	3.12e-05	0	43	0	222298112	20	4312
2026-01-08 01:48:30.05	0.98	16.86	-29.9	-31.5	13.0	2.89e-05	0	43	0	223346688	20	4320
2026-01-08 01:48:31.05	0.85	16.96	-29.8	-31.1	13.2	3.20e-05	0	43	0	225443840	20	4191
2026-01-08 01:48:32.06	0.72	17.05	-29.8	-31.5	13.4	2.44e-05	0	43	0	227540992	19	4395
2026-01-08 01:48:33.06	0.58	17.15	-30.1	-31.8	12.8	3.81e-05	0	43	0	229638144	20	4407
2026-01-08 01:48:34.07	0.45	17.24	-30.1	-31.8	12.8	6.48e-05	0	43	0	231735296	20	4403
2026-01-08 01:48:35.08	0.31	17.34	-30.0	-31.6	12.9	3.58e-05	0	43	0	232783872	20	4349
2026-01-08 01:48:36.08	0.18	17.43	-30.0	-31.7	12.9	2.69e-04	0	43	0	234881024	20	4361
2026-01-08 01:48:37.09	0.04	17.53	-30.1	-31.8	12.7	4.42e-05	0	43	0	236978176	20	4412
2026-01-08 01:48:38.10	359.90	17.62	-30.0	-31.5	13.0	3.73e-04	0	43	0	239075328	20	4307
2026-01-08 01:48:39.10	359.76	17.72	-30.0	-31.5	13.0	3.28e-05	0	43	0	241172480	20	4313
2026-01-08 01:48:40.10	359.62	17.81	-29.9	-31.3	13.2	3.66e-05	0	43	0	242221056	20	4242
2026-01-08 01:48:41.11	359.48	17.91	-29.9	-31.3	13.2	3.05e-04	0	43	0	244318208	20	4242
2026-01-08 01:48:42.12	359.34	18.00	-29.9	-31.3	13.1	2.13e-05	0	43	0	246415360	20	4232
2026-01-08 01:48:43.12	359.19	18.10	-29.9	-31.4	13.1	1.83e-05	0	43	0	248512512	20	4264
2026-01-08 01:48:44.13	359.05	18.20	-30.2	-32.1	12.7	4.01e-04	0	43	0	250609664	20	4479
2026-01-08 01:48:45.13	358.91	18.29	-29.4	-31.4	12.6	5.72e-05	0	43	0	251658240	20	4522
2026-01-08 01:48:46.14	358.76	18.39	-30.2	-32.5	12.4	5.79e-05	0	43	0	253755392	19	4717
2026-01-08 01:48:47.15	358.61	18.49	-30.2	-32.5	11.8	5.01e-04	0	43	0	255852544	19	4722
2026-01-08 01:48:48.16	358.46	18.59	-30.3	-32.3	12.5	5.03e-04	0	43	0	257949696	20	4575
2026-01-08 01:48:49.16	358.32	18.68	-30.3	-32.5	12.4	1.30e-04	0	43	0	260046848	20	4617
2026-01-08 01:48:50.17	358.17	18.78	-30.4	-32.7	12.3	1.80e-04	0	43	0	261095424	20	4682
2026-01-08 01:48:51.17	358.02	18.88	-30.5	-32.6	12.0	7.14e-04	0	43	0	263192576	21	4557
2026-01-08 01:48:52.17	357.86	18.97	-30.4	-32.7	12.3	2.38e-04	0	43	0	265289728	20	4688
2026-01-08 01:48:53.18	357.71	19.07	-30.4	-32.7	12.3	1.82e-04	0	43	0	267386880	20	4702
2026-01-08 01:48:54.18	357.56	19.17	-30.4	-32.6	12.4	5.81e-04	0	43	0	269484032	20	4658
2026-01-08 01:48:55.19	357.40	19.27	-30.3	-32.5	12.4	2.90e-03	0	43	0	270532608	20	4633
2026-01-08 01:48:56.19	357.25	19.37	-30.3	-32.5	12.5	1.72e-04	0	43	0	272629760	20	4616
2026-01-08 01:48:57.20	357.09	19.47	-30.4	-32.7	12.4	1.41e-04	0	43	0	274726912	20	4686
2026-01-08 01:48:58.20	356.93	19.57	-30.5	-33.0	12.2	1.72e-04	0	43	0	276824064	20	4788
2026-01-08 01:48:59.21	356.77	19.66	-30.3	-32.4	12.5	2.85e-03	0	43	0	278921216	20	4606
2026-01-08 01:49:00.21	356.62	19.76	-30.2	-32.2	12.6	7.40e-05	0	43	0	279969792	20	4530
2026-01-08 01:49:01.22	356.45	19.86	-30.3	-32.4	12.5	8.39e-05	0	43	0	282066944	20	4580
2026-01-08 01:49:02.23	356.29	19.96	-30.3	-32.3	12.6	2.53e-03	0	43	0	284164096	20	4555
2026-01-08 01:49:03.24	356.13	20.06	-30.4	-32.6	12.4	1.25e-04	0	43	0	286261248	20	4660
2026-01-08 01:49:04.25	355.96	20.16	-30.5	-32.5	12.1	3.34e-04	0	43	0	288358400	21	4519
2026-01-08 01:49:05.25	355.80	20.26	-30.4	-32.6	12.5	2.28e-03	0	43	0	289406976	20	4646
2026-01-08 01:49:06.26	355.63	20.36	-30.5	-32.9	12.3	3.44e-04	0	43	0	291504128	20	4758
2026-01-08 01:49:07.27	355.46	20.46	-30.2	-32.3	12.7	1.17e-04	0	43	0	293601280	20	4541
2026-01-08 01:49:08.26	355.30	20.56	-30.3	-32.4	12.5	2.13e-03	0	43	0	295698432	20	4599
2026-01-08 01:49:09.27	355.13	20.66	-30.2	-32.1	12.7	3.72e-04	0	43	0	297795584	20	4490
2026-01-08 01:49:10.28	354.95	20.77	-30.0	-31.7	13.0	4.27e-05	0	43	0	298844160	20	4354
2026-01-08 01:49:11.29	354.78	20.87	-30.1	-31.8	13.0	3.12e-05	0	43	0	300941312	20	4388
2026-01-08 01:49:12.29	354.61	20.97	-30.2	-32.0	12.8	3.28e-04	0	43	0	303038464	20	4459
2026-01-08 01:49:13.30	354.43	21.07	-30.2	-32.1	12.7	2.27e-03	0	43	0	305135616	20	4490
2026-01-08 01:49:14.31	354.26	21.17	-30.3	-32.5	12.5	5.18e-05	0	43	0	307232768	20	4621
2026-01-08 01:49:15.30	354.08	21.27	-30.4	-32.6	12.5	4.28e-04	0	43	0	308281344	20	4640
2026-01-08 01:49:16.31	353.91	21.37	-30.4	-32.6	12.5	2.05e-03	0	44	0	310378496	20	4640
2026-01-08 01:49:17.31	353.73	21.47	-30.6	-32.6	12.1	2.34e-03	0	43	0	312475648	21	4576
2026-01-08 01:49:18.32	353.55	21.58	-30.6	-32.7	12.1	5.78e-04	0	44	0	314572800	21	4588
2026-01-08 01:49:19.32	353.37	21.68	-30.3	-32.4	12.6	2.21e-03	0	43	0	316669952	20	4583
2026-01-08 01:49:20.33	353.18	21.78	-30.3	-32.4	12.7	1.97e-03	0	43	0	317718528	20	4556
2026-01-08 01:49:21.34	353.00	21.88	-30.3	-32.2	12.7	9.61e-05	0	43	0	319815680	20	4521
2026-01-08 01:49:22.34	352.81	21.98	-30.5	-32.8	12.4	1.63e-03	0	43	0	321912832	20	4715
2026-01-08 01:49:23.34	352.63	22.08	-30.4	-32.7	12.4	1.57e-03	0	43	0	324009984	20	4692
2026-01-08 01:49:24.35	352.44	22.19	-30.5	-32.8	12.3	4.23e-04	0	43	0	326107136	20	4728
2026-01-08 01:49:25.35	352.25	22.29	-30.7	-33.0	12.0	2.37e-03	0	43	0	327155712	21	4673
2026-01-08 01:49:26.36	352.06	22.39	-30.9	-33.5	11.5	2.50e-03	0	43	0	329252864	21	4890
2026-01-08 01:49:27.36	351.87	22.49	-30.9	-33.6	11.5	9.73e-04	0	43	0	331350016	21	4916
2026-01-08 01:49:28.37	351.68	22.60	-30.8	-33.5	11.5	2.03e-03	0	43	0	333447168	21	4885
2026-01-08 01:49:29.38	351.48	22.70	-31.0	-33.5	11.2	2.63e-03	0	44	0	335544320	22	4791
2026-01-08 01:49:30.38	351.29	22.80	-31.1	-33.8	11.0	9.63e-04	0	43	0	336592896	22	4899
2026-01-08 01:49:31.38	351.09	22.90	-31.0	-33.9	11.2	2.68e-03	0	43	0	338690048	21	5028
2026-01-08 01:49:32.39	350.89	23.01	-30.9	-33.7	11.4	2.89e-03	0	43	0	340787200	21	4962
2026-01-08 01:49:33.39	350.69	23.11	-30.8	-32.7	11.7	1.05e-03	0	43	0	342884352	22	4498
2026-01-08 01:49:34.39	350.50	23.21	-30.6	-32.8	12.0	2.38e-03	0	43	0	344981504	21	4613
2026-01-08 01:49:35.40	350.29	23.31	-30.6	-32.7	12.1	4.94e-04	0	43	0	346030080	21	4579
2026-01-08 01:49:36.41	350.09	23.42	-30.5	-32.4	12.3	4.47e-04	0	43	0	348127232	21	4479
2026-01-08 01:49:37.42	349.88	23.52	-30.4	-32.6	12.5	2.29e-03	0	44	0	350224384	20	4642
2026-01-08 01:49:38.42	349.68	23.62	-30.6	-32.6	12.2	1.29e-04	0	43	0	352321536	21	4567
2026-01-08 01:49:39.43	349.47	23.73	-30.3	-31.9	12.7	3.32e-04	0	43	0	354418688	21	4304
2026-01-08 01:49:40.43	349.26	23.83	-30.2	-32.1	12.9	2.02e-03	0	43	0	355467264	20	4460
2026-01-08 01:49:41.44	349.05	23.93	-30.2	-32.1	12.9	1.93e-03	0	44	0	357564416	20	4479
2026-01-08 01:49:42.45	348.84	24.03	-30.1	-31.7	13.1	4.04e-05	0	44	0	359661568	20	4352
2026-01-08 01:49:43.46	348.62	24.14	-30.2	-32.0	12.9	1.84e-03	0	43	0	361758720	20	4442
2026-01-08 01:49:44.47	348.41	24.24	-30.2	-32.0	12.9	1.99e-03	0	43	0	363855872	20	4442
2026-01-08 01:49:45.47	348.19	24.34	-30.2	-32.0	13.0	4.11e-05	0	44	0	364904448	20	4430
2026-01-08 01:49:46.48	347.98	24.45	-30.5	-32.8	12.4	5.32e-04	0	43	0	367001600	20	4704
2026-01-08 01:49:47.49	347.76	24.55	-30.6	-32.7	12.2	1.49e-03	0	43	0	369098752	21	4569
2026-01-08 01:49:48.50	347.53	24.65	-30.6	-32.6	12.2	1.85e-04	0	43	0	371195904	21	4544
2026-01-08 01:49:49.50	347.31	24.75	-30.7	-32.9	12.0	4.58e-04	0	44	0	373293056	21	4661
2026-01-08 01:49:50.51	347.09	24.86	-30.8	-33.3	11.7	4.98e-04	0	43	0	374341632	21	4805
2026-01-08 01:49:51.51	346.87	24.96	-30.8	-33.3	11.8	6.83e-04	0	43	0	376438784	21	4804
2026-01-08 01:49:52.52	346.64	25.06	-30.5	-32.5	12.3	3.22e-04	0	44	0	378535936	21	4495
2026-01-08 01:49:53.53	346.41	25.16	-30.5	-32.4	12.4	2.26e-04	0	43	0	380633088	21	4475
2026-01-08 01:49:54.53	346.18	25.27	-30.5	-32.5	12.3	1.36e-04	0	43	0	382730240	21	4489
2026-01-08 01:49:55.54	345.95	25.37	-30.4	-32.0	12.7	2.76e-04	0	43	0	383778816	21	4346
2026-01-08 01:49:56.55	345.72	25.47	-30.3	-32.4	12.7	2.62e-04	0	43	0	385875968	20	4561
2026-01-08 01:49:57.55	345.49	25.57	-30.2	-32.1	13.0	7.01e-05	0	43	0	387973120	20	4459
2026-01-08 01:49:58.55	345.25	25.67	-30.2	-32.0	13.0	2.33e-04	0	43	0	390070272	20	4425
2026-01-08 01:49:59.56	345.01	25.77	-30.3	-32.4	12.7	2.45e-04	0	44	0	392167424	20	4576
2026-01-08 01:50:00.56	344.78	25.87	-30.3	-32.5	12.7	7.93e-05	0	44	0	393216000	20	4589
2026-01-08 01:50:01.57	344.54	25.98	-30.5	-32.3	12.4	9.23e-05	0	44	0	395313152	21	4437
2026-01-08 01:50:02.57	344.30	26.08	-30.5	-32.2	12.6	1.42e-04	0	44	0	397410304	21	4412
2026-01-08 01:50:03.58	344.05	26.18	-30.5	-32.5	12.4	1.12e-04	0	44	0	399507456	21	4493
2026-01-08 01:50:04.58	343.81	26.28	-30.4	-32.0	12.7	5.15e-04	0	43	0	401604608	21	4321
2026-01-08 01:50:05.59	343.56	26.38	-30.3	-32.4	12.9	4.71e-04	0	43	0	402653184	20	4545
2026-01-08 01:50:06.60	343.31	26.48	-30.4	-32.7	12.6	5.18e-05	0	43	0	404750336	20	4647
2026-01-08 01:50:07.60	343.07	26.58	-30.5	-32.4	12.3	9.32e-04	0	43	0	406847488	21	4454
2026-01-08 01:50:08.61	342.81	26.68	-30.8	-33.2	11.9	4.34e-04	0	43	0	408944640	21	4737
2026-01-08 01:50:09.61	342.56	26.78	-31.0	-33.2	11.6	7.22e-04	0	43	0	411041792	22	4650
2026-01-08 01:50:10.62	342.31	26.88	-31.1	-33.7	11.2	1.15e-03	0	44	0	412090368	22	4834
2026-01-08 01:50:11.63	342.05	26.98	-30.9	-33.1	11.6	4.75e-04	0	44	0	414187520	22	4620
2026-01-08 01:50:12.64	341.79	27.07	-30.9	-32.9	11.8	5.03e-04	0	44	0	416284672	22	4536
2026-01-08 01:50:13.64	341.54	27.17	-30.6	-32.6	12.3	1.15e-03	0	44	0	418381824	21	4536
2026-01-08 01:50:14.65	341.27	27.27	-30.0	-31.5	13.3	5.52e-04	0	43	0	419430400	20	4258
2026-01-08 01:50:15.66	341.01	27.37	-29.6	-30.9	13.2	1.50e-06	0	43	0	421527552	19	4173
2026-01-08 01:50:16.65	340.75	27.46	-29.4	-30.3	14.4	6.68e-04	0	43	0	423624704	19	4009
2026-01-08 01:50:17.66	340.48	27.56	-29.5	-30.7	14.2	1.19e-03	0	44	0	425721856	19	4100
2026-01-08 01:50:18.67	340.22	27.66	-29.8	-31.2	13.8	3.00e-06	0	43	0	427819008	19	4273
2026-01-08 01:50:19.67	339.95	27.76	-30.0	-32.0	13.4	4.50e-06	0	44	0	429916160	19	4511
2026-01-08 01:50:20.67	339.68	27.85	-30.3	-32.3	12.8	1.66e-03	0	44	0	430964736	20	4550
2026-01-08 01:50:21.68	339.41	27.95	-30.4	-32.6	12.6	2.58e-03	0	43	0	433061888	20	4638
2026-01-08 01:50:22.69	339.13	28.04	-30.6	-32.8	12.0	2.23e-04	0	44	0	435159040	21	4636
2026-01-08 01:50:23.69	338.86	28.14	-30.3	-32.0	12.7	1.82e-04	0	43	0	437256192	21	4332
2026-01-08 01:50:24.70	338.58	28.23	-30.1	-31.8	13.1	5.26e-05	0	44	0	438304768	20	4378
2026-01-08 01:50:25.70	338.30	28.32	-29.9	-31.3	13.5	1.37e-05	0	44	0	440401920	20	4215
2026-01-08 01:50:26.71	338.02	28.42	-30.1	-31.8	13.2	1.44e-05	0	44	0	442499072	20	4377
2026-01-08 01:50:27.72	337.74	28.51	-30.4	-32.8	12.4	6.25e-05	0	44	0	444596224	20	4717
2026-01-08 01:50:28.72	337.46	28.60	-30.9	-33.6	11.6	1.96e-03	0	43	0	446693376	21	4911
2026-01-08 01:50:29.73	337.17	28.70	-31.1	-33.8	11.1	1.16e-03	0	44	0	447741952	22	4897
2026-01-08 01:50:30.74	336.88	28.79	-31.2	-34.0	10.9	1.79e-03	0	44	0	449839104	22	4983
2026-01-08 01:50:31.74	336.60	28.88	-31.1	-33.8	11.0	1.94e-03	0	44	0	451936256	22	4915
2026-01-08 01:50:32.75	336.31	28.97	-30.9	-33.5	11.6	1.34e-03	0	44	0	454033408	21	4873
2026-01-08 01:50:33.75	336.02	29.06	-30.7	-32.9	12.0	4.75e-04	0	44	0	456130560	21	4648
2026-01-08 01:50:34.76	335.72	29.15	-30.8	-33.1	11.9	4.22e-04	0	44	0	458227712	21	4720
2026-01-08 01:50:35.77	335.42	29.24	-30.6	-32.8	12.1	6.67e-04	0	44	0	459276288	21	4612
2026-01-08 01:50:36.77	335.13	29.33	-30.6	-32.6	12.3	1.25e-04	0	44	0	461373440	21	4551
2026-01-08 01:50:37.78	334.83	29.41	-30.9	-33.7	11.5	2.41e-04	0	44	0	463470592	21	4948
2026-01-08 01:50:38.78	334.53	29.50	-31.3	-34.5	10.6	2.20e-03	0	44	0	465567744	22	5165
2026-01-08 01:50:39.79	334.23	29.59	-31.5	-34.7	10.0	6.83e-03	0	44	0	466616320	23	5220
2026-01-08 01:50:40.79	333.93	29.67	-32.0	-36.5	8.7	1.60e-02	0	44	0	468713472	23	6037
2026-01-08 01:50:41.80	333.62	29.76	-31.8	-35.9	9.0	2.50e-02	0	44	0	470810624	23	5744
2026-01-08 01:50:42.80	333.32	29.84	-31.7	-35.6	9.3	1.52e-02	0	44	0	472907776	23	5582
2026-01-08 01:50:43.81	333.01	29.93	-31.7	-35.3	9.6	1.49e-02	0	43	0	475004928	23	5443
2026-01-08 01:50:44.81	332.70	30.01	-31.7	-35.1	9.7	1.17e-02	0	44	0	476053504	23	5369
2026-01-08 01:50:45.81	332.39	30.09	-31.9	-36.0	9.0	1.84e-02	0	44	0	478150656	23	5792
2026-01-08 01:50:46.81	332.08	30.17	-31.8	-35.9	8.9	2.01e-02	0	44	0	480247808	23	5739
2026-01-08 01:50:47.82	331.76	30.25	-32.0	-36.1	8.5	2.05e-02	0	44	0	482344960	24	5767
2026-01-08 01:50:48.82	331.45	30.33	-32.0	-36.0	8.6	3.15e-02	0	43	0	484442112	24	5699
2026-01-08 01:50:49.83	331.13	30.41	-31.9	-36.2	8.8	3.49e-02	0	44	0	485490688	23	5910
2026-01-08 01:50:50.84	330.81	30.49	-31.9	-35.5	9.0	3.11e-02	0	44	0	487587840	24	5474
2026-01-08 01:50:51.84	330.49	30.57	-31.7	-35.3	9.6	1.60e-02	0	44	0	489684992	23	5430
2026-01-08 01:50:52.85	330.17	30.65	-31.5	-34.6	10.1	8.42e-03	0	44	0	491782144	23	5122
2026-01-08 01:50:53.86	329.84	30.73	-31.6	-34.7	10.2	6.12e-03	0	44	0	493879296	23	5146
2026-01-08 01:50:54.86	329.52	30.80	-31.5	-34.4	10.4	7.23e-03	0	44	0	494927872	23	5011
2026-01-08 01:50:55.87	329.19	30.88	-31.5	-34.5	10.2	7.10e-03	0	44	0	497025024	23	5095
2026-01-08 01:50:56.88	328.86	30.95	-31.9	-35.9	9.2	1.59e-02	0	44	0	499122176	23	5744
2026-01-08 01:50:57.88	328.53	31.02	-32.0	-36.0	8.7	2.88e-02	0	43	0	501219328	24	5678
2026-01-08 01:50:58.89	328.20	31.09	-32.0	-36.2	8.5	4.09e-02	0	44	0	503316480	24	5804
2026-01-08 01:50:59.89	327.87	31.16	-32.0	-36.1	8.6	3.58e-02	0	44	0	504365056	24	5747
2026-01-08 01:51:00.87	327.54	31.23	-32.1	-36.6	8.4	3.21e-02	0	44	0	506462208	24	5993
2026-01-08 01:51:01.88	327.20	31.30	-31.9	-35.9	9.1	2.40e-02	0	44	0	508559360	23	5725
2026-01-08 01:51:02.88	326.87	31.37	-31.7	-35.4	9.5	1.70e-02	0	44	0	510656512	23	5488
2026-01-08 01:51:03.89	326.53	31.44	-31.7	-35.4	9.5	1.53e-02	0	43	0	512753664	23	5494
2026-01-08 01:51:04.89	326.19	31.50	-31.7	-35.5	9.4	1.48e-02	0	43	0	513802240	23	5556
2026-01-08 01:51:05.90	325.84	31.57	-31.6	-35.2	9.6	1.26e-02	0	44	0	515899392	23	5428
2026-01-08 01:51:06.91	325.50	31.63	-31.7	-35.5	9.4	1.73e-02	0	44	0	517996544	23	5576
2026-01-08 01:51:07.91	325.16	31.70	-31.5	-34.7	10.0	1.21e-02	0	44	0	520093696	23	5215
2026-01-08 01:51:08.92	324.81	31.76	-31.7	-35.2	9.6	9.24e-03	0	44	0	522190848	23	5406
2026-01-08 01:51:09.93	324.46	31.82	-31.4	-34.0	10.6	1.23e-02	0	44	0	523239424	23	4893
2026-01-08 01:51:10.93	324.12	31.88	-31.0	-33.3	11.5	4.95e-03	0	44	0	525336576	22	4703
2026-01-08 01:51:11.94	323.76	31.94	-30.6	-32.2	12.1	3.33e-04	0	44	0	527433728	22	4347
2026-01-08 01:51:12.95	323.41	32.00	-30.6	-32.9	12.0	3.23e-03	0	44	0	529530880	21	4644
2026-01-08 01:51:13.96	323.06	32.06	-30.9	-33.6	11.5	3.17e-03	0	44	0	531628032	21	4933
2026-01-08 01:51:14.96	322.71	32.11	-30.9	-33.7	11.5	4.92e-04	0	44	0	532676608	21	4965
2026-01-08 01:51:15.97	322.35	32.17	-31.1	-33.9	11.0	2.09e-03	0	43	0	534773760	22	4928
2026-01-08 01:51:16.98	321.99	32.22	-31.1	-33.9	11.1	5.75e-03	0	44	0	536870912	22	4944
2026-01-08 01:51:17.99	321.63	32.27	-31.3	-34.5	10.6	3.37e-03	0	44	0	538968064	22	5195
2026-01-08 01:51:18.99	321.28	32.32	-31.1	-33.8	11.0	2.79e-03	0	44	0	541065216	22	4914
2026-01-08 01:51:20.00	320.92	32.37	-30.9	-33.3	11.4	1.79e-03	0	44	0	542113792	22	4726
2026-01-08 01:51:21.00	320.56	32.42	-30.7	-33.1	11.9	8.77e-04	0	44	0	544210944	21	4741
2026-01-08 01:51:22.01	320.20	32.47	-30.8	-33.4	11.7	4.55e-04	0	44	0	546308096	21	4830
2026-01-08 01:51:23.01	319.84	32.51	-30.6	-32.8	12.1	4.06e-04	0	44	0	548405248	21	4636
2026-01-08 01:51:24.02	319.47	32.56	-30.8	-33.4	11.8	6.03e-04	0	44	0	550502400	21	4839
2026-01-08 01:51:25.02	319.11	32.60	-31.1	-33.6	11.2	1.16e-03	0	44	0	551550976	22	4842
2026-01-08 01:51:26.03	318.74	32.65	-31.0	-33.4	11.5	1.57e-03	0	44	0	553648128	22	4734
2026-01-08 01:51:27.03	318.38	32.69	-30.8	-32.7	11.9	9.81e-04	0	44	0	555745280	22	4487
2026-01-08 01:51:28.04	318.01	32.73	-30.8	-33.3	11.8	3.25e-03	0	44	0	557842432	21	4802
2026-01-08 01:51:29.05	317.64	32.77	-30.4	-32.2	12.5	2.57e-04	0	44	0	559939584	21	4405
2026-01-08 01:51:30.06	317.27	32.80	-30.0	-31.6	13.3	5.26e-05	0	44	0	560988160	20	4298
2026-01-08 01:51:31.06	316.90	32.84	-29.8	-30.9	13.7	1.58e-03	0	44	0	563085312	20	4085
2026-01-08 01:51:32.07	316.52	32.87	-30.0	-31.8	13.5	1.60e-05	0	44	0	565182464	19	4468
2026-01-08 01:51:33.08	316.15	32.91	-29.9	-31.1	13.5	9.90e-06	0	43	0	567279616	20	4162
2026-01-08 01:51:34.08	315.78	32.94	-29.9	-31.2	13.5	2.17e-04	0	44	0	569376768	20	4201
2026-01-08 01:51:35.09	315.41	32.97	-29.9	-31.7	13.6	7.60e-06	0	43	0	570425344	19	4420
2026-01-08 01:51:36.09	315.03	33.00	-29.5	-30.6	14.3	3.00e-06	0	44	0	572522496	19	4102
2026-01-08 01:51:37.09	314.66	33.03	-29.4	-30.8	14.5	2.94e-04	0	44	0	574619648	18	4236
2026-01-08 01:51:38.09	314.29	33.05	-29.9	-31.6	13.7	1.81e-04	0	43	0	576716800	19	4394
2026-01-08 01:51:39.10	313.91	33.08	-30.3	-32.4	12.7	3.35e-05	0	43	0	578813952	20	4588
2026-01-08 01:51:40.10	313.54	33.10	-30.8	-33.5	11.6	4.32e-04	0	44	0	579862528	21	4889
2026-01-08 01:51:41.10	313.16	33.13	-31.0	-33.5	11.3	1.25e-03	0	43	0	581959680	22	4772
2026-01-08 01:51:42.11	312.78	33.15	-31.1	-33.7	11.2	1.60e-03	0	44	0	584056832	22	4866
2026-01-08 01:51:43.11	312.41	33.17	-30.8	-32.9	11.7	9.26e-04	0	44	0	586153984	22	4563
2026-01-08 01:51:44.12	312.03	33.18	-30.7	-33.0	12.0	6.71e-04	0	44	0	588251136	21	4694
2026-01-08 01:51:45.12	311.65	33.20	-30.8	-33.4	11.7	3.70e-04	0	43	0	589299712	21	4826
2026-01-08 01:51:46.12	311.27	33.22	-30.5	-32.4	12.6	2.75e-04	0	43	0	591396864	21	4490
2026-01-08 01:51:47.13	310.89	33.23	-30.4	-32.1	12.7	1.92e-04	0	43	0	593494016	21	4387
2026-01-08 01:51:48.12	310.52	33.24	-30.4	-32.1	12.7	9.46e-05	0	43	0	595591168	21	4356
2026-01-08 01:51:49.13	310.14	33.26	-29.7	-31.6	12.5	8.77e-05	0	44	0	596639744	21	4452
2026-01-08 01:51:50.14	309.75	33.27	-30.2	-32.0	13.0	3.13e-04	0	44	0	598736896	20	4424
2026-01-08 01:51:51.15	309.37	33.27	-30.2	-31.9	13.0	2.28e-05	0	44	0	600834048	20	4384
2026-01-08 01:51:52.15	308.99	33.28	-30.1	-31.7	12.0	1.75e-05	0	44	0	602931200	20	4337
2026-01-08 01:51:53.16	308.61	33.29	-30.4	-32.5	12.4	6.17e-05	0	44	0	605028352	20	4600
2026-01-08 01:51:54.16	308.23	33.29	-30.7	-32.9	12.1	1.65e-04	0	44	0	607125504	21	4637
2026-01-08 01:51:55.17	307.85	33.29	-30.9	-33.6	11.6	2.85e-03	0	44	0	608174080	21	4884
2026-01-08 01:51:56.18	307.47	33.29	-30.9	-33.6	11.6	5.98e-04	0	44	0	610271232	21	4911
2026-01-08 01:51:57.19	307.08	33.29	-31.1	-33.8	11.2	8.12e-04	0	43	0	612368384	22	4862
2026-01-08 01:51:58.20	306.70	33.29	-31.4	-34.6	10.5	2.68e-03	0	44	0	614465536	22	5208
2026-01-08 01:51:59.20	306.32	33.29	-31.3	-34.3	10.9	3.63e-03	0	43	0	615514112	22	5072
2026-01-08 01:52:00.21	305.94	33.28	-31.5	-34.9	10.4	7.84e-03	0	44	0	617611264	22	5343
2026-01-08 01:52:01.21	305.56	33.28	-31.4	-34.6	10.6	4.61e-03	0	44	0	619708416	22	5206
2026-01-08 01:52:02.22	305.18	33.27	-31.3	-34.5	10.5	3.40e-03	0	44	0	621805568	22	5186
2026-01-08 01:52:03.23	304.79	33.26	-31.4	-34.8	10.3	3.64e-03	0	44	0	623902720	22	5326
2026-01-08 01:52:04.23	304.42	33.25	-31.2	-34.0	10.8	3.51e-03	0	44	0	624951296	22	4982
2026-01-08 01:52:05.23	304.04	33.24	-30.9	-33.2	11.6	1.08e-03	0	44	0	627048448	22	4671
2026-01-08 01:52:06.23	303.66	33.23	-30.4	-32.1	12.6	2.53e-03	0	44	0	629145600	21	4385
2026-01-08 01:52:07.24	303.28	33.21	-30.4	-32.4	12.7	9.61e-05	0	44	0	631242752	20	4575
2026-01-08 01:52:08.24	302.90	33.20	-30.5	-32.2	12.6	2.82e-04	0	44	0	633339904	21	4409
2026-01-08 01:52:09.25	302.52	33.18	-30.8	-33.2	11.9	2.48e-03	0	44	0	634388480	21	4756
2026-01-08 01:52:10.26	302.14	33.16	-30.8	-33.1	11.9	2.72e-04	0	44	0	636485632	21	4722
2026-01-08 01:52:11.26	301.76	33.14	-31.2	-34.0	11.0	6.19e-04	0	44	0	638582784	22	4966
2026-01-08 01:52:12.25	301.39	33.12	-31.4	-34.2	10.3	6.75e-03	0	44	0	640679936	23	4978
2026-01-08 01:52:13.26	301.01	33.10	-31.6	-34.9	9.9	9.22e-03	0	44	0	642777088	23	5248
2026-01-08 01:52:14.27	300.64	33.07	-31.4	-34.2	10.4	8.43e-03	0	44	0	643825664	23	4972
2026-01-08 01:52:15.27	300.26	33.05	-31.5	-34.5	10.3	8.69e-03	0	44	0	645922816	23	5061
2026-01-08 01:52:16.28	299.88	33.02	-31.5	-34.5	10.3	1.02e-02	0	44	0	648019968	23	5059
2026-01-08 01:52:17.28	299.51	32.99	-31.8	-35.4	9.5	1.10e-02	0	44	0	650117120	23	5490
2026-01-08 01:52:18.29	299.14	32.96	-31.5	-34.5	10.2	1.20e-02	0	44	0	652214272	23	5093
2026-01-08 01:52:19.29	298.76	32.93	-31.4	-34.2	10.4	5.86e-03	0	44	0	653262848	23	4975
2026-01-08 01:52:20.30	298.39	32.90	-31.2	-34.0	10.9	2.91e-03	0	44	0	655360000	22	4981
2026-01-08 01:52:21.31	298.02	32.86	-31.2	-33.9	11.1	1.98e-03	0	44	0	657457152	22	4926
2026-01-08 01:52:22.31	297.65	32.83	-31.0	-33.5	11.2	2.12e-03	0	44	0	659554304	22	4780
2026-01-08 01:52:23.32	297.28	32.79	-30.9	-33.1	11.6	1.05e-03	0	44	0	661651456	22	4653
2026-01-08 01:52:24.32	296.91	32.75	-30.8	-33.2	11.3	3.28e-03	0	44	0	662700032	21	4757
2026-01-08 01:52:25.33	296.54	32.71	-30.5	-32.5	12.0	2.13e-03	0	44	0	664797184	21	4521
2026-01-08 01:52:26.33	296.17	32.67	-30.6	-32.7	12.3	2.54e-04	0	44	0	666894336	21	4591
2026-01-08 01:52:27.33	295.81	32.63	-30.6	-32.6	12.2	2.61e-03	0	44	0	668991488	21	4544
2026-01-08 01:52:28.34	295.44	32.59	-30.6	-32.8	12.2	2.48e-03	0	44	0	671088640	21	4599
2026-01-08 01:52:29.35	295.07	32.55	-30.6	-32.7	12.1	2.07e-04	0	44	0	672137216	21	4576
2026-01-08 01:52:30.35	294.71	32.50	-30.6	-32.6	12.3	2.79e-03	0	44	0	674234368	21	4563
2026-01-08 01:52:31.36	294.35	32.45	-30.4	-32.7	12.4	2.59e-03	0	44	0	676331520	20	4681
2026-01-08 01:52:32.37	293.99	32.41	-30.4	-32.3	12.4	6.34e-04	0	44	0	678428672	21	4447
2026-01-08 01:52:33.38	293.62	32.36	-30.1	-31.9	13.0	2.35e-03	0	44	0	680525824	20	4417
2026-01-08 01:52:34.38	293.27	32.31	-30.4	-32.6	12.6	2.56e-03	0	44	0	681574400	20	4669
2026-01-08 01:52:35.39	292.91	32.25	-30.3	-32.6	12.6	1.15e-04	0	44	0	683671552	20	4644
2026-01-08 01:52:36.39	292.55	32.20	-30.6	-32.6	12.1	2.67e-03	0	44	0	685768704	21	4577
2026-01-08 01:52:37.40	292.19	32.15	-30.6	-32.8	12.1	2.66e-03	0	44	0	687865856	21	4642
2026-01-08 01:52:38.40	291.84	32.09	-30.5	-32.4	12.4	4.09e-04	0	44	0	689963008	21	4486
2026-01-08 01:52:39.41	291.48	32.04	-30.4	-32.2	12.4	2.90e-03	0	44	0	691011584	21	4447
2026-01-08 01:52:40.42	291.13	31.98	-30.3	-32.0	12.5	2.68e-03	0	44	0	693108736	21	4367
2026-01-08 01:52:41.42	290.78	31.92	-30.8	-32.9	12.2	3.57e-04	0	44	0	695205888	21	4631
2026-01-08 01:52:42.43	290.43	31.86	-31.0	-33.1	11.7	6.00e-04	0	44	0	697303040	22	4612
2026-01-08 01:52:43.44	290.08	31.80	-30.7	-32.9	12.3	3.46e-03	0	44	0	699400192	21	4601
2026-01-08 01:52:44.44	289.73	31.74	-30.5	-32.2	12.7	4.90e-04	0	44	0	700448768	21	4368
2026-01-08 01:52:45.45	289.39	31.68	-30.1	-31.1	13.3	2.23e-04	0	44	0	702545920	21	4052
2026-01-08 01:52:46.45	289.04	31.61	-30.2	-31.7	13.4	2.05e-04	0	44	0	704643072	20	4307
2026-01-08 01:52:47.46	288.70	31.55	-30.1	-31.6	13.3	1.74e-04	0	44	0	706740224	20	4278
2026-01-08 01:52:48.46	288.36	31.48	-30.1	-31.7	13.4	1.36e-04	0	44	0	708837376	20	4309
2026-01-08 01:52:49.47	288.02	31.42	-30.3	-32.2	13.0	1.98e-05	0	44	0	709885952	20	4456
2026-01-08 01:52:50.48	287.68	31.35	-30.7	-32.7	12.3	1.85e-04	0	44	0	711983104	21	4548
2026-01-08 01:52:51.48	287.34	31.28	-30.7	-32.8	12.3	2.72e-03	0	44	0	714080256	21	4575
2026-01-08 01:52:52.48	287.01	31.21	-30.6	-32.6	12.4	1.94e-04	0	44	0	716177408	21	4500
2026-01-08 01:52:53.49	286.67	31.14	-30.5	-32.2	12.7	1.08e-04	0	44	0	718274560	21	4391
2026-01-08 01:52:54.50	286.34	31.07	-30.7	-32.8	12.3	1.84e-03	0	44	0	719323136	21	4567
2026-01-08 01:52:55.51	286.00	30.99	-30.9	-33.2	11.9	3.59e-04	0	44	0	721420288	21	4728
2026-01-08 01:52:56.51	285.67	30.92	-31.1	-33.4	11.5	7.57e-04	0	44	0	723517440	22	4711
2026-01-08 01:52:57.52	285.34	30.85	-31.2	-33.7	11.3	1.22e-03	0	44	0	725614592	22	4816
2026-01-08 01:52:58.52	285.02	30.77	-31.0	-33.3	11.6	1.43e-03	0	44	0	727711744	22	4668
2026-01-08 01:52:59.53	284.69	30.70	-31.1	-33.5	11.5	7.74e-04	0	44	0	728760320	22	4744
2026-01-08 01:53:00.53	284.37	30.62	-31.1	-33.4	11.5	1.02e-03	0	44	0	730857472	22	4709
2026-01-08 01:53:01.54	284.05	30.54	-31.2	-33.8	11.1	4.07e-03	0	44	0	732954624	22	4873
2026-01-08 01:53:02.53	283.73	30.46	-31.3	-34.2	10.9	2.11e-03	0	43	0	735051776	22	5006
2026-01-08 01:53:03.53	283.41	30.39	-31.3	-34.2	10.9	3.33e-03	0	44	0	737148928	22	5024
2026-01-08 01:53:04.54	283.09	30.31	-31.4	-33.9	10.8	4.11e-03	0	44	0	738197504	23	4805
2026-01-08 01:53:05.55	282.77	30.22	-31.3	-33.7	10.9	2.31e-03	0	44	0	740294656	23	4750
2026-01-08 01:53:06.56	282.46	30.14	-30.9	-32.8	11.9	1.05e-03	0	44	0	742391808	22	4497
2026-01-08 01:53:07.56	282.15	30.06	-31.1	-33.6	11.4	7.97e-04	0	44	0	744488960	22	4772
2026-01-08 01:53:08.56	281.84	29.98	-31.0	-33.1	11.6	7.99e-04	0	44	0	746586112	22	4623
2026-01-08 01:53:09.57	281.53	29.89	-31.0	-33.2	11.6	7.28e-04	0	44	0	747634688	22	4636
2026-01-08 01:53:10.57	281.22	29.81	-31.1	-33.4	11.4	7.21e-04	0	44	0	749731840	22	4728
2026-01-08 01:53:11.58	280.91	29.73	-31.0	-33.3	11.5	1.17e-03	0	44	0	751828992	22	4665
2026-01-08 01:53:12.58	280.61	29.64	-30.7	-32.3	12.2	3.04e-04	0	44	0	753926144	22	4322
2026-01-08 01:53:13.58	280.31	29.55	-30.6	-32.6	12.4	2.32e-04	0	44	0	754974720	21	4503
2026-01-08 01:53:14.58	280.01	29.47	-30.4	-32.1	12.8	1.38e-04	0	44	0	757071872	21	4367
2026-01-08 01:53:15.59	279.70	29.38	-30.3	-32.1	13.0	4.27e-05	0	43	0	759169024	20	4439
2026-01-08 01:53:16.60	279.40	29.29	-29.7	-30.6	13.9	1.22e-05	0	44	0	761266176	20	3986
2026-01-08 01:53:17.60	279.11	29.20	-29.2	-29.8	14.8	2.20e-06	0	44	0	763363328	19	3835
2026-01-08 01:53:18.61	278.81	29.11	-29.1	-30.1	13.3	0.00e+00	0	44	0	765460480	18	4022
2026-01-08 01:53:19.62	278.52	29.02	-29.5	-30.5	14.3	0.00e+00	0	44	0	766509056	19	4052
2026-01-08 01:53:20.62	278.23	28.93	-29.8	-31.2	13.8	3.00e-06	0	44	0	768606208	19	4258
2026-01-08 01:53:21.63	277.93	28.84	-30.0	-31.4	13.4	5.30e-06	0	44	0	770703360	20	4218
2026-01-08 01:53:22.64	277.64	28.75	-30.3	-32.2	12.8	3.96e-05	0	44	0	772800512	20	4498
2026-01-08 01:53:23.65	277.36	28.66	-30.7	-32.9	12.1	1.11e-04	0	44	0	773849088	21	4645
2026-01-08 01:53:24.65	277.07	28.57	-31.2	-34.0	11.0	7.11e-04	0	44	0	775946240	22	4948
2026-01-08 01:53:25.66	276.79	28.47	-31.2	-34.0	11.0	2.21e-03	0	44	0	778043392	22	4940
2026-01-08 01:53:26.66	276.51	28.38	-31.0	-33.7	11.5	2.14e-03	0	44	0	780140544	21	4942
2026-01-08 01:53:27.67	276.23	28.28	-30.3	-32.3	12.8	2.60e-04	0	44	0	782237696	20	4529
2026-01-08 01:53:28.68	275.95	28.19	-30.2	-32.0	12.9	5.26e-05	0	44	0	783286272	20	4432
2026-01-08 01:53:29.68	275.67	28.10	-30.6	-32.6	12.3	7.55e-05	0	44	0	785383424	21	4538
2026-01-08 01:53:30.68	275.40	28.00	-31.1	-33.6	11.2	7.36e-04	0	44	0	787480576	22	4783
2026-01-08 01:53:31.69	275.12	27.91	-31.6	-34.6	10.2	2.05e-03	0	44	0	789577728	23	5106
2026-01-08 01:53:32.69	274.85	27.81	-31.9	-35.9	9.1	2.48e-02	0	44	0	791674880	23	5720
2026-01-08 01:53:33.69	274.58	27.71	-32.2	-36.5	8.3	3.16e-02	0	44	0	792723456	24	5903
2026-01-08 01:53:34.70	274.31	27.62	-32.2	-36.6	8.2	6.71e-02	0	44	0	794820608	24	5985
2026-01-08 01:53:35.71	274.04	27.52	-31.9	-35.6	9.0	4.02e-02	0	44	0	796917760	24	5469
2026-01-08 01:53:36.71	273.78	27.42	-31.9	-35.3	9.2	2.59e-02	0	44	0	799014912	24	5339
2026-01-08 01:53:37.71	273.52	27.33	-31.8	-35.2	9.3	2.11e-02	0	44	0	801112064	24	5289
2026-01-08 01:53:38.72	273.25	27.23	-31.9	-35.4	9.1	2.21e-02	0	44	0	802160640	24	5396
2026-01-08 01:53:39.72	272.99	27.13	-31.6	-34.6	10.0	1.45e-02	0	44	0	804257792	23	5119
2026-01-08 01:53:40.73	272.73	27.03	-31.3	-33.6	10.7	4.49e-03	0	44	0	806354944	23	4731
2026-01-08 01:53:41.74	272.47	26.93	-31.1	-33.0	11.2	2.39e-03	0	44	0	808452096	23	4510
2026-01-08 01:53:42.74	272.22	26.83	-30.9	-33.6	11.5	2.29e-03	0	44	0	810549248	21	4910
2026-01-08 01:53:43.75	271.96	26.73	-30.6	-32.6	12.2	4.95e-04	0	44	0	811597824	21	4555
2026-01-08 01:53:44.76	271.71	26.63	-30.2	-32.1	12.8	8.77e-05	0	44	0	813694976	20	4450
2026-01-08 01:53:45.76	271.46	26.53	-30.1	-31.6	13.2	1.76e-03	0	44	0	815792128	20	4293
2026-01-08 01:53:46.77	271.21	26.43	-30.0	-31.5	13.2	2.67e-05	0	43	0	817889280	20	4264
2026-01-08 01:53:47.77	270.96	26.33	-30.3	-32.4	12.7	5.34e-05	0	44	0	819986432	20	4547
2026-01-08 01:53:48.77	270.72	26.23	-30.3	-32.4	12.6	8.31e-05	0	44	0	821035008	20	4567
2026-01-08 01:53:49.78	270.47	26.13	-30.1	-31.7	13.1	4.95e-05	0	44	0	823132160	20	4322
2026-01-08 01:53:50.79	270.23	26.03	-29.9	-31.3	13.3	1.76e-03	0	44	0	825229312	20	4215
2026-01-08 01:53:51.78	269.99	25.93	-29.9	-31.5	13.6	6.80e-06	0	44	0	827326464	19	4366
2026-01-08 01:53:52.79	269.75	25.83	-30.0	-31.4	13.3	1.37e-04	0	44	0	829423616	20	4230
2026-01-08 01:53:53.79	269.51	25.73	-30.2	-32.0	12.9	2.18e-03	0	44	0	830472192	20	4431
2026-01-08 01:53:54.80	269.27	25.62	-30.0	-31.5	13.2	2.62e-03	0	44	0	832569344	20	4286
2026-01-08 01:53:55.81	269.04	25.52	-30.0	-31.5	13.2	1.37e-04	0	44	0	834666496	20	4282
2026-01-08 01:53:56.82	268.80	25.42	-30.1	-31.8	13.0	2.54e-03	0	44	0	836763648	20	4374
2026-01-08 01:53:57.83	268.57	25.32	-30.2	-31.9	12.9	2.45e-03	0	44	0	838860800	20	4413
2026-01-08 01:53:58.83	268.34	25.21	-30.1	-31.6	13.1	3.05e-05	0	44	0	839909376	20	4311
2026-01-08 01:53:59.84	268.11	25.11	-30.3	-32.2	12.7	2.31e-03	0	44	0	842006528	20	4511
2026-01-08 01:54:00.85	267.88	25.01	-30.2	-31.9	12.9	1.63e-03	0	44	0	844103680	20	4414
2026-01-08 01:54:01.85	267.65	24.91	-30.0	-31.6	13.1	3.81e-05	0	44	0	846200832	20	4295
2026-01-08 01:54:02.86	267.43	24.80	-30.0	-31.4	13.3	1.54e-04	0	44	0	848297984	20	4246
2026-01-08 01:54:03.86	267.20	24.70	-29.9	-31.2	13.3	2.80e-04	0	44	0	849346560	20	4190
2026-01-08 01:54:04.87	266.98	24.60	-29.8	-30.9	13.6	1.22e-05	0	43	0	851443712	20	4106
2026-01-08 01:54:05.87	266.76	24.49	-29.9	-31.7	13.4	2.10e-03	0	44	0	853540864	19	4420
2026-01-08 01:54:06.88	266.54	24.39	-29.5	-30.6	14.1	2.12e-03	0	44	0	855638016	19	4092
2026-01-08 01:54:07.88	266.32	24.29	-29.1	-29.5	14.8	0.00e+00	0	43	0	857735168	19	3782
2026-01-08 01:54:08.89	266.11	24.19	-28.6	-29.5	15.4	5.85e-04	0	44	0	858783744	17	3956
2026-01-08 01:54:09.89	265.89	24.08	-28.4	-29.4	15.7	3.04e-03	0	44	0	860880896	16	4033
2026-01-08 01:54:10.90	265.68	23.98	-28.4	-29.4	15.8	2.20e-06	0	44	0	862978048	16	4025
2026-01-08 01:54:11.91	265.47	23.88	-28.6	-29.4	15.4	2.07e-03	0	44	0	865075200	17	3940
2026-01-08 01:54:12.92	265.25	23.77	-28.5	-29.2	15.5	2.03e-03	0	44	0	867172352	17	3884
2026-01-08 01:54:13.92	265.05	23.67	-28.6	-29.4	15.4	3.00e-06	0	44	0	868220928	17	3936
2026-01-08 01:54:14.93	264.84	23.57	-29.1	-30.0	14.8	0.00e+00	0	44	0	870318080	18	4018
2026-01-08 01:54:15.94	264.63	23.46	-29.5	-30.8	14.0	2.11e-03	0	44	0	872415232	19	4141
2026-01-08 01:54:16.95	264.42	23.36	-29.6	-30.8	13.9	8.30e-06	0	43	0	874512384	19	4167
2026-01-08 01:54:17.95	264.22	23.26	-29.7	-31.2	13.7	2.57e-03	0	43	0	876609536	19	4279
2026-01-08 01:54:18.96	264.02	23.15	-29.4	-30.9	14.2	2.01e-03	0	44	0	877658112	18	4272
2026-01-08 01:54:19.97	263.82	23.05	-29.2	-30.3	14.6	4.50e-06	0	44	0	879755264	18	4105
2026-01-08 01:54:20.97	263.62	22.95	-28.9	-29.7	14.9	4.45e-03	0	43	0	881852416	18	3941
2026-01-08 01:54:21.98	263.42	22.84	-29.0	-29.8	14.9	1.74e-03	0	44	0	883949568	18	3955
2026-01-08 01:54:22.99	263.22	22.74	-29.1	-30.2	14.6	6.80e-06	0	44	0	886046720	18	4071
2026-01-08 01:54:24.00	263.02	22.64	-29.3	-30.6	14.4	1.38e-03	0	44	0	887095296	18	4183
2026-01-08 01:54:25.00	262.83	22.53	-29.3	-30.8	14.2	2.96e-03	0	44	0	889192448	18	4250
2026-01-08 01:54:26.01	262.64	22.43	-29.3	-30.6	14.4	2.20e-06	0	44	0	891289600	18	4200
2026-01-08 01:54:27.01	262.45	22.33	-29.5	-30.7	14.1	3.89e-04	0	44	0	893386752	19	4118
2026-01-08 01:54:28.01	262.26	22.23	-29.6	-31.0	13.8	3.01e-03	0	44	0	895483904	19	4205
2026-01-08 01:54:29.01	262.07	22.12	-29.5	-30.7	14.0	2.20e-06	0	44	0	896532480	19	4116
2026-01-08 01:54:30.02	261.88	22.02	-29.5	-30.8	13.9	8.78e-04	0	44	0	898629632	19	4163
2026-01-08 01:54:31.02	261.69	21.92	-29.6	-31.0	13.7	1.19e-03	0	44	0	900726784	19	4234
2026-01-08 01:54:32.02	261.51	21.82	-29.7	-31.3	13.6	6.80e-06	0	44	0	902823936	19	4295
2026-01-08 01:54:33.03	261.32	21.71	-29.3	-30.8	14.2	1.32e-03	0	44	0	904921088	18	4255
2026-01-08 01:54:34.03	261.14	21.61	-29.2	-30.4	14.5	1.10e-03	0	44	0	905969664	18	4133
2026-01-08 01:54:35.04	260.96	21.51	-29.2	-30.4	14.4	1.64e-04	0	44	0	908066816	18	4147
2026-01-08 01:54:36.04	260.78	21.41	-29.5	-31.1	14.1	1.16e-03	0	44	0	910163968	18	4340
2026-01-08 01:54:37.05	260.60	21.31	-29.2	-30.4	14.4	1.33e-03	0	44	0	912261120	18	4140
2026-01-08 01:54:38.06	260.42	21.20	-29.1	-30.1	14.6	7.60e-06	0	44	0	914358272	18	4055
2026-01-08 01:54:39.07	260.24	21.10	-29.2	-30.4	14.4	0.00e+00	0	43	0	915406848	18	4133
2026-01-08 01:54:40.07	260.07	21.00	-29.4	-31.0	14.1	1.38e-03	0	44	0	917504000	18	4317
2026-01-08 01:54:41.08	259.89	20.90	-29.6	-31.0	13.8	3.00e-06	0	44	0	919601152	19	4215
2026-01-08 01:54:42.08	259.72	20.80	-29.9	-31.7	13.3	7.60e-06	0	44	0	921698304	19	4436
2026-01-08 01:54:43.09	259.54	20.70	-29.6	-31.0	13.7	1.91e-03	0	44	0	923795456	19	4216
2026-01-08 01:54:44.10	259.37	20.60	-29.5	-30.7	13.9	5.30e-06	0	43	0	924844032	19	4119
2026-01-08 01:54:45.10	259.20	20.50	-29.4	-30.8	14.1	2.06e-03	0	44	0	926941184	18	4262
2026-01-08 01:54:46.10	259.03	20.40	-29.3	-30.5	14.3	0.00e+00	0	44	0	929038336	18	4173
2026-01-08 01:54:47.10	258.87	20.29	-29.3	-30.7	14.2	7.00e-07	0	44	0	931135488	18	4215
2026-01-08 01:54:48.11	258.70	20.19	-28.9	-30.2	13.9	1.81e-03	0	44	0	933232640	17	4162
2026-01-08 01:54:49.12	258.53	20.09	-28.9	-30.3	14.7	7.00e-07	0	44	0	934281216	17	4201
2026-01-08 01:54:50.13	258.37	19.99	-28.8	-29.8	15.0	1.50e-06	0	44	0	936378368	17	4068
2026-01-08 01:54:51.13	258.21	19.89	-28.7	-29.7	15.1	1.66e-03	0	44	0	938475520	17	4031
2026-01-08 01:54:52.13	258.04	19.79	-28.7	-29.7	15.1	3.11e-04	0	44	0	940572672	17	4041
2026-01-08 01:54:53.13	257.88	19.69	-28.9	-30.2	14.8	0.00e+00	0	44	0	941621248	17	4187
2026-01-08 01:54:54.14	257.72	19.59	-29.0	-30.4	14.7	1.13e-03	0	44	0	943718400	17	4227
2026-01-08 01:54:55.14	257.56	19.50	-29.3	-30.8	14.1	1.10e-03	0	44	0	945815552	18	4262
2026-01-08 01:54:56.15	257.40	19.40	-29.7	-31.1	13.6	5.30e-06	0	44	0	947912704	19	4269
2026-01-08 01:54:57.15	257.25	19.30	-29.9	-31.7	13.2	5.30e-06	0	44	0	950009856	19	4455
2026-01-08 01:54:58.16	257.09	19.20	-30.0	-31.7	12.9	3.11e-04	0	44	0	951058432	20	4379
2026-01-08 01:54:59.16	256.94	19.10	-30.1	-31.9	12.7	2.94e-03	0	44	0	953155584	20	4423
2026-01-08 01:55:00.17	256.78	19.00	-30.1	-31.9	12.6	9.61e-05	0	44	0	955252736	20	4442
2026-01-08 01:55:01.17	256.63	18.90	-29.7	-31.3	13.4	4.25e-04	0	44	0	957349888	19	4337
2026-01-08 01:55:02.18	256.48	18.80	-29.7	-31.3	13.5	2.66e-03	0	44	0	959447040	19	4310
2026-01-08 01:55:03.18	256.33	18.71	-29.5	-30.9	13.7	9.90e-06	0	44	0	960495616	19	4190
2026-01-08 01:55:04.18	256.18	18.61	-29.5	-30.8	13.8	6.10e-06	0	44	0	962592768	19	4175
2026-01-08 01:55:05.19	256.03	18.51	-29.6	-30.9	13.7	4.50e-06	0	44	0	964689920	19	4202
2026-01-08 01:55:06.20	255.88	18.41	-29.7	-31.2	13.5	1.67e-03	0	44	0	966787072	19	4300
2026-01-08 01:55:07.20	255.73	18.32	-29.7	-31.4	13.3	2.44e-05	0	44	0	968884224	19	4362
2026-01-08 01:55:08.21	255.58	18.22	-29.9	-31.3	13.0	2.05e-05	0	44	0	969932800	20	4246
2026-01-08 01:55:09.22	255.44	18.12	-29.9	-31.5	12.9	1.70e-03	0	44	0	972029952	20	4299
2026-01-08 01:55:10.22	255.30	18.03	-29.9	-31.3	13.0	3.12e-05	0	43	0	974127104	20	4258
2026-01-08 01:55:11.23	255.15	17.93	-29.9	-31.5	12.9	5.41e-05	0	44	0	976224256	20	4301
2026-01-08 01:55:12.23	255.01	17.83	-29.8	-31.3	13.0	2.30e-03	0	44	0	978321408	20	4233
2026-01-08 01:55:13.23	254.87	17.74	-30.0	-31.8	12.7	3.65e-04	0	44	0	979369984	20	4410
2026-01-08 01:55:14.24	254.73	17.64	-29.9	-31.4	12.9	8.01e-05	0	44	0	981467136	20	4274
2026-01-08 01:55:15.24	254.59	17.55	-30.0	-31.8	12.7	6.10e-05	0	44	0	983564288	20	4400
2026-01-08 01:55:16.24	254.45	17.45	-30.2	-32.2	12.4	1.36e-03	0	44	0	985661440	20	4548
2026-01-08 01:55:17.24	254.31	17.36	-29.8	-31.5	13.2	3.16e-03	0	44	0	987758592	19	4395
2026-01-08 01:55:18.24	254.18	17.26	-29.5	-30.9	13.6	1.83e-05	0	44	0	988807168	19	4211
2026-01-08 01:55:19.25	254.04	17.17	-29.3	-30.9	14.0	1.31e-03	0	44	0	990904320	18	4286
2026-01-08 01:55:20.25	253.90	17.07	-29.3	-30.9	14.0	2.86e-03	0	44	0	993001472	18	4291
2026-01-08 01:55:21.26	253.77	16.98	-29.2	-30.5	14.2	2.69e-03	0	43	0	995098624	18	4188
2026-01-08 01:55:22.27	253.63	16.88	-29.4	-30.9	13.9	1.52e-03	0	44	0	997195776	18	4307
2026-01-08 01:55:23.28	253.50	16.79	-29.4	-31.0	13.8	2.77e-03	0	43	0	998244352	18	4344
2026-01-08 01:55:24.28	253.37	16.69	-29.6	-31.2	13.4	3.18e-03	0	44	0	1000341504	19	4299
2026-01-08 01:55:25.29	253.24	16.60	-30.0	-32.1	12.8	2.89e-05	0	44	0	1002438656	19	4592
2026-01-08 01:55:26.29	253.11	16.51	-29.7	-31.5	13.0	3.30e-03	0	44	0	1004535808	19	4412
2026-01-08 01:55:27.29	252.98	16.41	-29.6	-31.1	12.8	3.18e-03	0	44	0	1006632960	19	4279
2026-01-08 01:55:28.29	252.85	16.32	-29.5	-30.7	13.7	1.44e-03	0	44	0	1007681536	19	4156
2026-01-08 01:55:29.30	252.72	16.23	-29.6	-31.2	13.2	3.18e-03	0	44	0	1009778688	19	4292
2026-01-08 01:55:30.31	252.59	16.14	-29.4	-31.0	13.7	2.82e-03	0	44	0	1011875840	18	4326
2026-01-08 01:55:31.30	252.47	16.04	-29.5	-31.2	13.7	9.37e-04	0	44	0	1013972992	18	4410
2026-01-08 01:55:32.31	252.34	15.95	-29.4	-31.0	13.8	2.71e-03	0	44	0	1016070144	18	4328
2026-01-08 01:55:33.31	252.22	15.86	-29.2	-30.5	14.1	2.91e-03	0	44	0	1017118720	18	4172
2026-01-08 01:55:34.31	252.10	15.77	-29.2	-30.5	14.1	7.40e-04	0	44	0	1019215872	18	4195
2026-01-08 01:55:35.31	251.97	15.68	-29.2	-30.6	14.1	2.98e-03	0	43	0	1021313024	18	4210
2026-01-08 01:55:36.32	251.85	15.59	-29.3	-30.9	13.8	2.96e-03	0	44	0	1023410176	18	4311
2026-01-08 01:55:37.32	251.73	15.49	-29.3	-30.7	14.0	1.63e-03	0	44	0	1025507328	18	4246
2026-01-08 01:55:38.33	251.61	15.40	-29.5	-30.9	13.5	3.17e-03	0	44	0	1026555904	19	4227
2026-01-08 01:55:39.33	251.49	15.31	-29.8	-31.5	13.1	3.87e-04	0	44	0	1028653056	19	4415
2026-01-08 01:55:40.34	251.37	15.22	-30.0	-31.8	12.5	2.47e-03	0	44	0	1030750208	20	4431
2026-01-08 01:55:41.35	251.25	15.13	-30.3	-32.7	11.9	3.90e-03	0	44	0	1032847360	20	4758
2026-01-08 01:55:42.36	251.13	15.04	-30.5	-32.8	11.4	9.95e-04	0	44	0	1034944512	21	4702
2026-01-08 01:55:43.37	251.01	14.95	-30.6	-33.2	11.1	3.64e-03	0	44	0	1035993088	21	4833
2026-01-08 01:55:44.37	250.90	14.86	-30.7	-33.3	11.0	6.78e-03	0	44	0	1038090240	21	4883
2026-01-08 01:55:45.38	250.78	14.77	-30.5	-32.8	11.3	6.25e-03	0	44	0	1040187392	21	4697
2026-01-08 01:55:46.38	250.67	14.68	-30.3	-32.7	11.8	6.87e-04	0	44	0	1042284544	20	4756
2026-01-08 01:55:47.39	250.55	14.59	-30.1	-32.0	12.3	4.13e-03	0	43	0	1043333120	20	4511
2026-01-08 01:55:48.39	250.44	14.50	-29.8	-31.3	12.7	3.62e-03	0	44	0	1045430272	20	4280
2026-01-08 01:55:49.39	250.33	14.42	-29.6	-31.2	13.2	3.96e-05	0	44	0	1047527424	19	4330
2026-01-08 01:55:50.39	250.21	14.33	-29.5	-30.8	13.4	2.09e-04	0	43	0	1049624576	19	4209
2026-01-08 01:55:51.40	250.10	14.24	-29.3	-30.8	13.8	3.37e-03	0	43	0	1051721728	18	4294
2026-01-08 01:55:52.41	249.99	14.15	-29.3	-30.7	13.9	3.80e-06	0	44	0	1053818880	18	4253
2026-01-08 01:55:53.42	249.88	14.06	-29.2	-30.6	13.9	1.72e-04	0	44	0	1054867456	18	4233
2026-01-08 01:55:54.43	249.77	13.97	-29.4	-31.0	13.7	3.24e-03	0	44	0	1056964608	18	4352
2026-01-08 01:55:55.43	249.66	13.89	-29.5	-30.9	13.4	1.46e-03	0	44	0	1059061760	19	4237
2026-01-08 01:55:56.44	249.55	13.80	-29.7	-31.5	13.0	1.64e-04	0	44	0	1061158912	19	4414
2026-01-08 01:55:57.44	249.44	13.71	-30.0	-31.8	12.4	2.07e-04	0	44	0	1062207488	20	4449
2026-01-08 01:55:58.45	249.34	13.63	-30.1	-32.2	12.1	1.45e-03	0	44	0	1064304640	20	4591
2026-01-08 01:55:59.46	249.23	13.54	-30.3	-32.8	11.7	4.73e-04	0	44	0	1066401792	20	4776
2026-01-08 01:56:00.46	249.12	13.45	-30.5	-32.9	11.2	1.21e-03	0	44	0	1068498944	21	4756
2026-01-08 01:56:01.46	249.02	13.37	-30.6	-33.2	11.1	1.38e-03	0	44	0	1070596096	21	4835
2026-01-08 01:56:02.47	248.92	13.28	-30.6	-33.2	11.0	2.15e-03	0	44	0	1071644672	21	4848
2026-01-08 01:56:03.47	248.81	13.20	-30.7	-33.6	10.7	3.23e-03	0	44	0	1073741824	21	5008
2026-01-08 01:56:04.48	248.71	13.11	-30.8	-33.7	10.6	4.25e-03	0	44	0	1075838976	21	5070
2026-01-08 01:56:05.48	248.61	13.02	-30.7	-33.5	10.7	7.35e-03	0	44	0	1077936128	21	4983
2026-01-08 01:56:06.49	248.50	12.94	-30.7	-33.6	10.7	3.21e-03	0	44	0	1080033280	21	5001
2026-01-08 01:56:07.49	248.40	12.85	-30.9	-34.1	10.4	3.30e-03	0	44	0	1081081856	21	5213
2026-01-08 01:56:08.50	248.30	12.77	-30.8	-33.9	10.4	5.54e-03	0	44	0	1083179008	21	5164
2026-01-08 01:56:09.50	248.20	12.69	-30.8	-33.7	10.6	3.75e-03	0	44	0	1085276160	21	5063
2026-01-08 01:56:10.51	248.10	12.60	-30.9	-34.2	10.1	4.25e-03	0	44	0	1087373312	21	5276
2026-01-08 01:56:11.52	248.00	12.52	-30.9	-33.8	10.2	8.95e-03	0	44	0	1089470464	22	5020
2026-01-08 01:56:12.53	247.90	12.43	-30.7	-33.5	10.7	3.49e-03	0	44	0	1090519040	21	4998
2026-01-08 01:56:13.53	247.81	12.35	-30.6	-33.3	10.9	2.52e-03	0	44	0	1092616192	21	4892
2026-01-08 01:56:14.54	247.71	12.26	-30.4	-32.7	11.3	2.23e-03	0	44	0	1094713344	21	4680
2026-01-08 01:56:15.55	247.61	12.18	-30.3	-33.0	11.5	1.72e-03	0	44	0	1096810496	20	4867
2026-01-08 01:56:16.55	247.51	12.10	-30.5	-32.9	11.1	1.56e-03	0	44	0	1098907648	21	4738
2026-01-08 01:56:17.55	247.42	12.02	-30.6	-33.4	10.7	2.73e-03	0	44	0	1099956224	21	4944
2026-01-08 01:56:18.55	247.32	11.93	-30.6	-33.3	10.8	4.02e-03	0	44	0	1102053376	21	4921
2026-01-08 01:56:19.56	247.23	11.85	-30.5	-33.5	10.8	1.80e-03	0	44	0	1104150528	20	5072
2026-01-08 01:56:20.56	247.14	11.77	-30.4	-33.3	10.2	2.46e-03	0	44	0	1106247680	20	4986
2026-01-08 01:56:21.57	247.04	11.69	-30.4	-33.0	11.0	2.29e-03	0	44	0	1108344832	20	4890
2026-01-08 01:56:22.58	246.95	11.60	-30.4	-33.2	10.7	1.41e-03	0	43	0	1109393408	20	4960
2026-01-08 01:56:23.58	246.86	11.52	-30.5	-33.3	10.7	1.38e-03	0	44	0	1111490560	20	5020
2026-01-08 01:56:24.59	246.76	11.44	-30.6	-33.2	10.8	3.25e-03	0	44	0	1113587712	21	4868
2026-01-08 01:56:25.60	246.67	11.36	-30.7	-33.6	10.4	2.27e-03	0	44	0	1115684864	21	5054
2026-01-08 01:56:26.61	246.58	11.28	-30.7	-33.7	10.4	5.16e-03	0	44	0	1117782016	21	5076
2026-01-08 01:56:27.61	246.49	11.20	-30.4	-33.3	11.1	3.93e-03	0	44	0	1118830592	20	5010
2026-01-08 01:56:28.62	246.40	11.12	-30.3	-32.7	11.5	1.15e-03	0	44	0	1120927744	20	4798
2026-01-08 01:56:29.62	246.31	11.04	-30.2	-32.5	11.7	3.35e-03	0	44	0	1123024896	20	4707
2026-01-08 01:56:30.63	246.22	10.95	-30.0	-32.3	12.2	2.94e-04	0	44	0	1125122048	19	4716
2026-01-08 01:56:31.64	246.13	10.87	-29.9	-31.6	12.3	2.11e-04	0	44	0	1127219200	20	4380
2026-01-08 01:56:32.64	246.05	10.79	-30.0	-31.9	12.1	3.21e-03	0	44	0	1128267776	20	4503
2026-01-08 01:56:33.65	245.96	10.71	-29.9	-32.1	12.3	2.26e-04	0	44	0	1130364928	19	4650
2026-01-08 01:56:34.65	245.87	10.64	-29.7	-31.6	12.8	9.76e-05	0	44	0	1132462080	19	4475
2026-01-08 01:56:35.65	245.79	10.56	-29.7	-31.7	12.6	9.01e-04	0	44	0	1134559232	19	4507
2026-01-08 01:56:36.65	245.70	10.48	-29.7	-31.6	12.7	5.39e-04	0	44	0	1136656384	19	4468
2026-01-08 01:56:37.66	245.61	10.40	-29.7	-31.5	12.8	5.64e-05	0	44	0	1137704960	19	4433
2026-01-08 01:56:38.66	245.53	10.32	-29.8	-31.7	12.6	6.83e-04	0	44	0	1139802112	19	4517
2026-01-08 01:56:39.67	245.44	10.24	-29.7	-31.6	12.7	1.46e-04	0	44	0	1141899264	19	4480
2026-01-08 01:56:40.67	245.36	10.16	-29.7	-31.5	12.7	6.56e-05	0	44	0	1143996416	19	4459
2026-01-08 01:56:41.68	245.28	10.08	-29.9	-32.1	12.3	9.53e-05	0	44	0	1146093568	19	4666
2026-01-08 01:56:42.69	245.19	10.01	-29.9	-32.3	12.2	1.90e-04	0	44	0	1147142144	19	4723
2026-01-08 01:56:43.70	245.11	9.93	-30.0	-31.9	12.0	1.44e-03	0	44	0	1149239296	20	4520
2026-01-08 01:56:44.70	245.03	9.85	-30.1	-32.3	11.7	3.70e-04	0	44	0	1151336448	20	4653
2026-01-08 01:56:45.71	244.95	9.77	-30.1	-32.4	11.7	6.27e-04	0	44	0	1153433600	20	4666
2026-01-08 01:56:46.72	244.87	9.70	-30.3	-32.9	11.3	3.43e-03	0	44	0	1155530752	20	4853
2026-01-08 01:56:47.71	244.79	9.62	-30.4	-33.3	11.0	4.24e-03	0	44	0	1156579328	20	5044
2026-01-08 01:56:48.72	244.70	9.54	-30.4	-33.4	10.9	1.88e-03	0	44	0	1158676480	20	5063
2026-01-08 01:56:49.73	244.62	9.46	-30.6	-33.6	10.4	7.02e-03	0	44	0	1160773632	21	5056
2026-01-08 01:56:50.74	244.54	9.39	-30.7	-33.9	10.1	9.07e-03	0	44	0	1162870784	21	5191
2026-01-08 01:56:51.74	244.47	9.31	-30.8	-34.2	9.9	9.26e-03	0	44	0	1164967936	21	5329
2026-01-08 01:56:52.75	244.39	9.24	-30.8	-34.3	9.8	1.20e-02	0	44	0	1166016512	21	5390
2026-01-08 01:56:53.75	244.31	9.16	-31.0	-34.5	9.3	1.67e-02	0	44	0	1168113664	22	5362
2026-01-08 01:56:54.75	244.23	9.08	-31.1	-34.9	8.9	2.07e-02	0	44	0	1170210816	22	5581
2026-01-08 01:56:55.76	244.15	9.01	-31.1	-34.7	9.1	2.58e-02	0	44	0	1172307968	22	5496
2026-01-08 01:56:56.76	244.08	8.93	-31.0	-35.0	9.2	1.98e-02	0	44	0	1174405120	21	5704
2026-01-08 01:56:57.77	244.00	8.86	-31.0	-35.0	9.2	1.75e-02	0	44	0	1175453696	21	5699
2026-01-08 01:56:58.77	243.92	8.78	-31.1	-35.0	8.9	2.30e-02	0	44	0	1177550848	22	5607
2026-01-08 01:56:59.78	243.85	8.71	-31.1	-35.1	8.7	3.16e-02	0	44	0	1179648000	22	5695
2026-01-08 01:57:00.78	243.77	8.63	-31.1	-35.0	8.8	3.77e-02	0	44	0	1181745152	22	5649
2026-01-08 01:57:01.79	243.70	8.56	-31.0	-34.4	9.2	2.84e-02	0	44	0	1183842304	22	5375
2026-01-08 01:57:02.80	243.62	8.48	-30.8	-34.4	9.6	1.82e-02	0	44	0	1184890880	21	5439
2026-01-08 01:57:03.80	243.55	8.41	-30.9	-34.6	9.4	1.42e-02	0	44	0	1186988032	21	5554
2026-01-08 01:57:04.81	243.47	8.34	-30.8	-34.3	9.6	1.91e-02	0	44	0	1189085184	21	5425
2026-01-08 01:57:05.82	243.40	8.26	-30.8	-34.5	9.5	1.33e-02	0	44	0	1191182336	21	5499
2026-01-08 01:57:06.82	243.33	8.19	-30.8	-34.2	9.7	1.07e-02	0	44	0	1193279488	21	5352
2026-01-08 01:57:07.82	243.26	8.11	-30.6	-33.7	10.1	1.15e-02	0	44	0	1194328064	21	5145
2026-01-08 01:57:08.83	243.18	8.04	-30.5	-33.2	10.4	9.09e-03	0	44	0	1196425216	21	4952
2026-01-08 01:57:09.83	243.11	7.97	-30.4	-33.1	10.6	3.39e-03	0	44	0	1198522368	21	4881
2026-01-08 01:57:10.84	243.04	7.89	-30.4	-33.5	10.6	6.70e-03	0	44	0	1200619520	20	5153
2026-01-08 01:57:11.85	242.97	7.82	-30.4	-33.5	10.7	6.63e-03	0	44	0	1201668096	20	5128
2026-01-08 01:57:12.85	242.90	7.75	-30.4	-33.5	10.6	3.12e-03	0	44	0	1203765248	20	5139
2026-01-08 01:57:13.86	242.83	7.68	-30.5	-33.5	10.2	8.10e-03	0	44	0	1205862400	21	5070
2026-01-08 01:57:14.87	242.76	7.60	-30.6	-33.9	9.8	1.08e-02	0	44	0	1207959552	21	5273
2026-01-08 01:57:15.87	242.69	7.53	-30.5	-33.4	10.2	6.64e-03	0	44	0	1210056704	21	5040
2026-01-08 01:57:16.88	242.62	7.46	-30.5	-34.0	10.3	4.75e-03	0	44	0	1212153856	20	5394
2026-01-08 01:57:17.89	242.55	7.39	-30.5	-33.7	10.0	9.20e-03	0	44	0	1213202432	21	5159
2026-01-08 01:57:18.89	242.48	7.32	-30.7	-34.4	9.4	9.31e-03	0	44	0	1215299584	21	5479
2026-01-08 01:57:19.90	242.41	7.24	-30.7	-34.3	9.5	1.52e-02	0	44	0	1217396736	21	5447
2026-01-08 01:57:20.90	242.34	7.17	-30.7	-34.2	9.6	1.66e-02	0	44	0	1219493888	21	5390
2026-01-08 01:57:21.91	242.28	7.10	-30.6	-34.1	9.6	1.49e-02	0	44	0	1220542464	21	5340
2026-01-08 01:57:22.91	242.21	7.03	-32.7	-45.0	3.8	1.49e+00	0	44	104	1221591040	25	14767

#Closed at: 2026-01-08 01:57:23
#Recorded file [1221 MB]: D:/data/31010_260108_044630.dat