passes_logs/2026/01/08/R2M6_AANII_01/R2M6_AANII_01__20260108_222807_NOAA_20_JPSS-1_rec.log

#Pass ID: 20260108_222807_NOAA 20 (JPSS-1)
#Satellite: NOAA 20 (JPSS-1)
#Configuration: NOAA 20
#almurnet v.1.7.20240730
#Start time: 2026-01-08 22:28:07

#Version: 2.2.20231116
#Station: R2M6_AANII_01
#Location: 30.233357 lon 59.946436 lat
#TLE: 1 43013U 17073A   26008.42245989  .00000120  00000+0  77990-4 0  9996
#TLE: 2 43013  98.7631 309.4315 0001737  48.7960 311.3365 14.19534455421802

#Time	Az	El	Level	Level2	SNR	BER	BlckErr	Temp	State	Recorded	gain1	gain2
2026-01-08 22:28:07.91	33.25	7.05	-31.5	-38.2	4.9	1.24e+00	0	41	0	0	23	7774
2026-01-08 22:28:08.91	33.36	7.11	-31.8	-39.5	4.7	1.29e+00	0	41	104	0	23	8783
2026-01-08 22:28:09.92	33.47	7.16	-31.7	-38.9	6.7	2.32e-01	0	41	0	0	23	8280
2026-01-08 22:28:10.93	33.58	7.22	-31.7	-39.1	6.6	2.13e-01	0	41	0	1048576	23	8422
2026-01-08 22:28:11.93	33.69	7.28	-31.8	-39.7	6.2	2.59e-01	0	41	0	3145728	23	8884
2026-01-08 22:28:12.94	33.80	7.34	-31.8	-39.2	6.6	2.56e-01	0	41	0	5242880	23	8450
2026-01-08 22:28:13.94	33.91	7.39	-31.7	-38.5	7.1	1.57e-01	0	41	0	7340032	23	7895
2026-01-08 22:28:14.95	34.02	7.45	-31.6	-38.2	7.4	1.26e-01	0	41	0	9437184	23	7649
2026-01-08 22:28:15.96	34.14	7.51	-31.5	-37.7	7.8	8.99e-02	0	41	0	10485760	23	7319
2026-01-08 22:28:16.97	34.25	7.57	-31.5	-37.9	8.0	7.31e-02	0	41	0	12582912	22	7583
2026-01-08 22:28:17.97	34.36	7.62	-31.5	-37.6	7.9	7.18e-02	0	41	0	14680064	23	7247
2026-01-08 22:28:18.98	34.48	7.68	-31.7	-38.5	7.2	1.07e-01	0	41	0	16777216	23	7881
2026-01-08 22:28:19.99	34.59	7.74	-31.5	-37.5	8.0	1.06e-01	0	41	0	18874368	23	7191
2026-01-08 22:28:20.99	34.70	7.80	-31.2	-36.4	8.8	3.79e-02	0	41	0	19922944	23	6526
2026-01-08 22:28:22.00	34.82	7.85	-30.9	-35.9	9.6	1.77e-02	0	41	0	22020096	22	6355
2026-01-08 22:28:23.00	34.94	7.91	-30.7	-35.5	10.3	9.14e-03	0	41	0	24117248	21	6243
2026-01-08 22:28:24.01	35.05	7.97	-30.5	-34.7	10.8	2.95e-03	0	41	0	26214400	21	5885
2026-01-08 22:28:25.01	35.17	8.03	-30.3	-34.2	11.2	1.58e-03	0	41	0	28311552	21	5653
2026-01-08 22:28:26.02	35.29	8.09	-30.2	-34.5	11.4	1.73e-03	0	41	0	29360128	20	5871
2026-01-08 22:28:27.02	35.40	8.14	-30.3	-34.8	11.2	1.06e-03	0	41	0	31457280	20	6007
2026-01-08 22:28:28.02	35.52	8.20	-30.3	-34.5	11.4	1.10e-03	0	41	0	33554432	20	5874
2026-01-08 22:28:29.03	35.64	8.26	-30.3	-34.5	11.4	1.25e-03	0	41	0	35651584	20	5883
2026-01-08 22:28:30.04	35.76	8.32	-30.3	-34.7	11.3	8.99e-04	0	41	0	37748736	20	5946
2026-01-08 22:28:31.04	35.88	8.38	-30.4	-34.8	11.3	1.15e-03	0	41	0	38797312	20	5976
2026-01-08 22:28:32.05	36.00	8.43	-30.4	-34.7	11.3	1.28e-03	0	41	0	40894464	20	5959
2026-01-08 22:28:33.06	36.12	8.49	-30.4	-34.8	11.3	1.05e-03	0	41	0	42991616	20	5997
2026-01-08 22:28:34.06	36.24	8.55	-30.5	-34.6	11.1	1.78e-03	0	41	0	45088768	21	5776
2026-01-08 22:28:35.07	36.36	8.61	-30.6	-35.1	10.7	2.76e-03	0	41	0	47185920	21	6037
2026-01-08 22:28:36.07	36.48	8.67	-30.5	-34.7	11.0	2.68e-03	0	41	0	48234496	21	5809
2026-01-08 22:28:37.08	36.60	8.72	-30.4	-34.4	11.2	1.76e-03	0	41	0	50331648	21	5680
2026-01-08 22:28:38.08	36.72	8.78	-30.4	-34.7	11.4	9.86e-04	0	41	0	52428800	20	5912
2026-01-08 22:28:39.08	36.84	8.84	-30.4	-34.9	11.2	1.12e-03	0	42	0	54525952	20	6037
2026-01-08 22:28:40.09	36.97	8.90	-30.5	-34.8	11.0	1.69e-03	0	42	0	56623104	21	5846
2026-01-08 22:28:41.10	37.09	8.96	-30.8	-35.5	10.4	3.75e-03	0	42	0	57671680	21	6195
2026-01-08 22:28:42.10	37.22	9.01	-30.6	-35.1	10.7	3.40e-03	0	41	0	59768832	21	6030
2026-01-08 22:28:43.11	37.34	9.07	-30.5	-34.7	11.1	2.03e-03	0	41	0	61865984	21	5801
2026-01-08 22:28:44.12	37.47	9.13	-30.5	-35.0	11.2	1.27e-03	0	42	0	63963136	20	6041
2026-01-08 22:28:45.12	37.59	9.19	-30.5	-35.0	11.2	1.31e-03	0	42	0	66060288	20	6074
2026-01-08 22:28:46.13	37.72	9.25	-30.5	-34.6	11.1	1.50e-03	0	42	0	67108864	21	5781
2026-01-08 22:28:47.14	37.85	9.31	-30.7	-35.2	10.7	2.56e-03	0	42	0	69206016	21	6074
2026-01-08 22:28:48.14	37.97	9.37	-30.5	-34.7	11.1	2.08e-03	0	42	0	71303168	21	5824
2026-01-08 22:28:49.15	38.10	9.42	-30.6	-35.0	10.8	1.77e-03	0	42	0	73400320	21	5975
2026-01-08 22:28:50.15	38.23	9.48	-30.8	-35.4	10.6	3.10e-03	0	42	0	74448896	21	6144
2026-01-08 22:28:51.16	38.36	9.54	-30.6	-34.8	11.0	2.25e-03	0	42	0	76546048	21	5833
2026-01-08 22:28:52.16	38.49	9.60	-30.4	-34.3	11.4	1.15e-03	0	42	0	78643200	21	5624
2026-01-08 22:28:53.17	38.62	9.66	-30.4	-34.1	11.6	8.51e-04	0	42	0	80740352	21	5535
2026-01-08 22:28:54.17	38.75	9.72	-30.4	-34.1	11.5	7.00e-04	0	42	0	82837504	21	5546
2026-01-08 22:28:55.17	38.88	9.77	-30.4	-34.3	11.4	8.23e-04	0	42	0	84934656	21	5608
2026-01-08 22:28:56.17	39.01	9.83	-30.3	-34.0	11.6	7.79e-04	0	42	0	85983232	21	5472
2026-01-08 22:28:57.18	39.14	9.89	-30.4	-34.0	11.6	6.90e-04	0	42	0	88080384	21	5495
2026-01-08 22:28:58.19	39.27	9.95	-30.3	-34.0	11.6	6.74e-04	0	42	0	90177536	21	5505
2026-01-08 22:28:59.19	39.40	10.01	-30.4	-34.3	11.5	7.22e-04	0	42	0	92274688	21	5632
2026-01-08 22:29:00.20	39.54	10.07	-30.5	-34.6	11.2	1.02e-03	0	42	0	93323264	21	5747
2026-01-08 22:29:01.21	39.67	10.13	-30.4	-34.1	11.6	8.51e-04	0	42	0	95420416	21	5534
2026-01-08 22:29:02.21	39.81	10.18	-30.3	-33.7	11.9	5.72e-04	0	42	0	97517568	21	5371
2026-01-08 22:29:03.22	39.94	10.24	-30.2	-33.4	12.1	2.95e-04	0	42	0	99614720	21	5243
2026-01-08 22:29:04.23	40.08	10.30	-30.2	-33.5	12.1	2.96e-04	0	42	0	101711872	21	5262
2026-01-08 22:29:05.24	40.21	10.36	-30.2	-33.4	12.2	2.26e-04	0	42	0	102760448	21	5226
2026-01-08 22:29:06.24	40.35	10.42	-30.2	-33.6	11.9	2.84e-04	0	42	0	104857600	21	5331
2026-01-08 22:29:07.24	40.48	10.48	-30.4	-34.1	11.7	7.20e-04	0	42	0	106954752	21	5520
2026-01-08 22:29:08.25	40.62	10.54	-30.3	-33.8	11.8	4.13e-04	0	42	0	109051904	21	5384
2026-01-08 22:29:09.26	40.76	10.59	-30.4	-34.1	11.6	6.37e-04	0	42	0	111149056	21	5537
2026-01-08 22:29:10.26	40.90	10.65	-30.3	-33.8	11.9	4.71e-04	0	42	0	113246208	21	5390
2026-01-08 22:29:11.27	41.04	10.71	-30.2	-33.5	12.1	3.43e-04	0	42	0	114294784	21	5267
2026-01-08 22:29:12.27	41.18	10.77	-30.2	-33.5	12.1	2.72e-04	0	42	0	116391936	21	5266
2026-01-08 22:29:13.28	41.32	10.83	-30.3	-33.7	11.9	2.71e-04	0	42	0	118489088	21	5361
2026-01-08 22:29:14.28	41.46	10.89	-30.2	-33.6	12.0	4.15e-04	0	42	0	120586240	21	5314
2026-01-08 22:29:15.29	41.60	10.95	-30.2	-33.5	12.1	2.89e-04	0	42	0	121634816	21	5262
2026-01-08 22:29:16.30	41.74	11.00	-30.2	-33.5	12.2	2.43e-04	0	42	0	123731968	21	5251
2026-01-08 22:29:17.30	41.88	11.06	-30.2	-33.4	12.2	2.19e-04	0	42	0	125829120	21	5216
2026-01-08 22:29:18.31	42.03	11.12	-30.2	-33.4	12.2	2.39e-04	0	42	0	127926272	21	5221
2026-01-08 22:29:19.32	42.17	11.18	-30.2	-33.4	12.3	1.82e-04	0	42	0	130023424	21	5205
2026-01-08 22:29:20.32	42.31	11.24	-30.2	-33.4	12.2	2.10e-04	0	42	0	131072000	21	5212
2026-01-08 22:29:21.33	42.46	11.30	-30.1	-33.1	12.4	2.60e-04	0	42	0	133169152	21	5118
2026-01-08 22:29:22.34	42.60	11.36	-30.1	-33.2	12.3	1.94e-04	0	42	0	135266304	21	5158
2026-01-08 22:29:23.34	42.75	11.41	-30.1	-33.1	12.4	1.76e-04	0	42	0	137363456	21	5118
2026-01-08 22:29:24.34	42.90	11.47	-30.0	-32.9	12.5	1.20e-04	0	42	0	139460608	21	5034
2026-01-08 22:29:25.35	43.04	11.53	-30.1	-33.1	12.4	1.02e-04	0	42	0	140509184	21	5103
2026-01-08 22:29:26.35	43.19	11.59	-30.1	-33.2	12.3	1.60e-04	0	42	0	142606336	21	5154
2026-01-08 22:29:27.35	43.34	11.65	-30.1	-33.3	12.3	2.27e-04	0	42	0	144703488	21	5179
2026-01-08 22:29:28.35	43.48	11.70	-30.1	-33.3	12.3	1.85e-04	0	42	0	146800640	21	5163
2026-01-08 22:29:29.36	43.63	11.76	-30.2	-33.4	12.2	1.75e-04	0	42	0	148897792	21	5202
2026-01-08 22:29:30.37	43.78	11.82	-30.2	-33.6	12.1	2.04e-04	0	42	0	149946368	21	5284
2026-01-08 22:29:31.37	43.93	11.88	-30.3	-33.7	12.1	3.63e-04	0	42	0	152043520	21	5321
2026-01-08 22:29:32.38	44.08	11.94	-30.1	-33.1	12.5	1.64e-04	0	42	0	154140672	21	5092
2026-01-08 22:29:33.38	44.23	12.00	-29.9	-32.7	12.7	8.08e-05	0	42	0	156237824	21	4941
2026-01-08 22:29:34.39	44.39	12.05	-29.9	-32.6	12.8	8.39e-05	0	42	0	158334976	21	4897
2026-01-08 22:29:35.40	44.54	12.11	-29.9	-32.5	12.8	4.95e-05	0	42	0	159383552	21	4874
2026-01-08 22:29:36.40	44.69	12.17	-29.9	-33.1	12.8	1.36e-04	0	42	0	161480704	20	5177
2026-01-08 22:29:37.41	44.85	12.23	-30.0	-33.2	12.7	1.79e-04	0	42	0	163577856	20	5253
2026-01-08 22:29:38.41	45.00	12.29	-29.8	-32.7	13.1	4.19e-05	0	42	0	165675008	20	5042
2026-01-08 22:29:39.42	45.16	12.34	-29.7	-33.0	13.3	3.12e-05	0	42	0	167772160	19	5268
2026-01-08 22:29:40.42	45.31	12.40	-29.7	-33.1	13.3	2.05e-05	0	43	0	168820736	19	5292
2026-01-08 22:29:41.43	45.47	12.46	-29.8	-33.3	13.2	2.28e-05	0	42	0	170917888	19	5356
2026-01-08 22:29:42.43	45.62	12.52	-29.9	-33.4	13.0	3.43e-05	0	42	0	173015040	19	5424
2026-01-08 22:29:43.43	45.78	12.57	-29.9	-33.4	13.1	2.74e-05	0	42	0	175112192	19	5399
2026-01-08 22:29:44.44	45.94	12.63	-29.8	-33.3	13.1	3.89e-05	0	43	0	177209344	19	5376
2026-01-08 22:29:45.44	46.09	12.69	-29.8	-33.2	13.1	2.74e-05	0	43	0	178257920	19	5339
2026-01-08 22:29:46.45	46.25	12.75	-29.8	-33.3	13.1	2.67e-05	0	42	0	180355072	19	5378
2026-01-08 22:29:47.46	46.41	12.80	-29.9	-33.4	13.1	3.58e-05	0	42	0	182452224	19	5413
2026-01-08 22:29:48.46	46.57	12.86	-29.9	-33.5	13.0	3.35e-05	0	42	0	184549376	19	5463
2026-01-08 22:29:49.47	46.74	12.92	-29.9	-33.0	12.9	5.72e-05	0	43	0	186646528	20	5155
2026-01-08 22:29:50.47	46.90	12.98	-29.8	-32.7	13.1	3.66e-05	0	42	0	187695104	20	5041
2026-01-08 22:29:51.48	47.06	13.03	-29.7	-32.4	13.4	1.29e-05	0	43	0	189792256	20	4914
2026-01-08 22:29:52.48	47.22	13.09	-29.7	-32.3	13.4	1.60e-05	0	43	0	191889408	20	4908
2026-01-08 22:29:53.49	47.38	13.15	-29.6	-32.3	13.4	1.60e-05	0	43	0	193986560	20	4890
2026-01-08 22:29:54.49	47.55	13.20	-29.6	-32.3	13.4	2.05e-05	0	43	0	196083712	20	4884
2026-01-08 22:29:55.49	47.71	13.26	-29.6	-32.0	13.6	1.22e-05	0	43	0	197132288	20	4797
2026-01-08 22:29:56.50	47.88	13.32	-29.5	-31.9	13.7	6.80e-06	0	43	0	199229440	20	4739
2026-01-08 22:29:57.51	48.04	13.37	-29.5	-31.9	13.7	4.42e-05	0	43	0	201326592	20	4735
2026-01-08 22:29:58.51	48.21	13.43	-29.6	-32.1	13.6	8.30e-06	0	43	0	203423744	20	4797
2026-01-08 22:29:59.51	48.37	13.49	-29.6	-32.1	13.5	1.14e-05	0	43	0	205520896	20	4820
2026-01-08 22:30:00.52	48.54	13.54	-29.5	-31.9	13.7	6.10e-06	0	42	0	206569472	20	4734
2026-01-08 22:30:01.53	48.71	13.60	-29.5	-31.8	13.8	2.20e-06	0	43	0	208666624	20	4710
2026-01-08 22:30:02.54	48.88	13.66	-29.6	-32.0	13.6	1.05e-04	0	43	0	210763776	20	4770
2026-01-08 22:30:03.54	49.05	13.71	-29.7	-32.8	13.5	1.37e-05	0	43	0	212860928	19	5167
2026-01-08 22:30:04.55	49.22	13.77	-29.7	-32.8	13.5	9.10e-06	0	43	0	214958080	19	5169
2026-01-08 22:30:05.55	49.39	13.82	-29.7	-32.8	13.5	4.73e-05	0	43	0	216006656	19	5165
2026-01-08 22:30:06.56	49.56	13.88	-29.6	-32.7	13.6	3.05e-05	0	42	0	218103808	19	5136
2026-01-08 22:30:07.57	49.73	13.94	-29.7	-32.7	13.6	7.60e-06	0	43	0	220200960	19	5132
2026-01-08 22:30:08.57	49.91	13.99	-29.6	-32.7	13.6	9.90e-06	0	43	0	222298112	19	5109
2026-01-08 22:30:09.58	50.08	14.05	-29.7	-32.8	13.5	6.10e-06	0	43	0	224395264	19	5160
2026-01-08 22:30:10.58	50.25	14.10	-29.7	-32.8	13.6	8.30e-06	0	43	0	225443840	19	5162
2026-01-08 22:30:11.59	50.43	14.16	-29.7	-33.0	13.4	9.90e-06	0	43	0	227540992	19	5214
2026-01-08 22:30:12.60	50.60	14.21	-29.9	-33.3	13.3	1.44e-05	0	43	0	229638144	19	5350
2026-01-08 22:30:13.60	50.78	14.27	-29.9	-32.9	13.1	4.95e-05	0	43	0	231735296	20	5117
2026-01-08 22:30:14.61	50.96	14.32	-29.8	-32.7	13.2	2.51e-05	0	43	0	233832448	20	5021
2026-01-08 22:30:15.62	51.13	14.38	-29.8	-32.8	13.1	3.73e-05	0	43	0	234881024	20	5077
2026-01-08 22:30:16.63	51.31	14.43	-30.1	-33.5	12.7	4.57e-05	0	43	0	236978176	20	5347
2026-01-08 22:30:17.63	51.49	14.49	-30.0	-33.4	12.8	7.93e-05	0	43	0	239075328	20	5280
2026-01-08 22:30:18.64	51.67	14.54	-29.9	-32.9	13.1	1.73e-04	0	43	0	241172480	20	5081
2026-01-08 22:30:19.64	51.85	14.60	-29.8	-32.7	13.2	2.59e-05	0	43	0	243269632	20	5038
2026-01-08 22:30:20.65	52.03	14.65	-29.8	-32.6	13.3	1.52e-05	0	43	0	244318208	20	4985
2026-01-08 22:30:21.66	52.21	14.70	-30.0	-33.6	13.1	3.34e-04	0	43	0	246415360	19	5464
2026-01-08 22:30:22.66	52.39	14.76	-29.9	-32.8	13.2	3.35e-05	0	43	0	248512512	20	5066
2026-01-08 22:30:23.67	52.57	14.81	-29.9	-33.1	13.0	3.63e-04	0	43	0	250609664	20	5154
2026-01-08 22:30:24.67	52.75	14.87	-30.0	-33.2	12.9	5.18e-05	0	43	0	252706816	20	5219
2026-01-08 22:30:25.68	52.94	14.92	-30.2	-33.7	12.6	5.95e-05	0	43	0	253755392	20	5395
2026-01-08 22:30:26.69	53.12	14.97	-30.1	-33.5	12.8	4.43e-04	0	43	0	255852544	20	5337
2026-01-08 22:30:27.69	53.31	15.03	-30.2	-33.9	12.5	9.53e-05	0	42	0	257949696	20	5471
2026-01-08 22:30:28.70	53.49	15.08	-30.2	-33.8	12.5	1.46e-04	0	43	0	260046848	20	5460
2026-01-08 22:30:29.70	53.68	15.13	-30.3	-34.0	12.4	2.30e-04	0	43	0	261095424	20	5525
2026-01-08 22:30:30.71	53.87	15.18	-30.4	-34.4	12.1	2.50e-04	0	43	0	263192576	20	5709
2026-01-08 22:30:31.72	54.05	15.24	-30.4	-34.3	12.2	2.46e-04	0	43	0	265289728	20	5653
2026-01-08 22:30:32.73	54.24	15.29	-30.3	-34.0	12.4	2.68e-04	0	43	0	267386880	20	5519
2026-01-08 22:30:33.73	54.43	15.34	-30.3	-34.0	12.4	1.98e-04	0	43	0	269484032	20	5542
2026-01-08 22:30:34.74	54.62	15.39	-30.3	-34.2	12.3	1.55e-04	0	43	0	271581184	20	5610
2026-01-08 22:30:35.75	54.81	15.44	-30.4	-34.2	12.3	1.88e-04	0	43	0	272629760	20	5619
2026-01-08 22:30:36.75	55.00	15.50	-30.5	-34.6	12.0	4.10e-04	0	43	0	274726912	20	5784
2026-01-08 22:30:37.75	55.19	15.55	-30.7	-34.8	11.5	5.44e-04	0	43	0	276824064	21	5766
2026-01-08 22:30:38.76	55.38	15.60	-30.6	-34.6	11.7	7.29e-04	0	43	0	278921216	21	5667
2026-01-08 22:30:39.77	55.58	15.65	-30.5	-34.2	12.0	4.45e-04	0	43	0	281018368	21	5487
2026-01-08 22:30:40.78	55.77	15.70	-30.4	-33.8	12.2	2.50e-04	0	43	0	282066944	21	5333
2026-01-08 22:30:41.79	55.96	15.75	-30.4	-34.2	12.3	1.52e-04	0	43	0	284164096	20	5620
2026-01-08 22:30:42.79	56.16	15.80	-30.4	-34.2	12.3	1.74e-04	0	43	0	286261248	20	5623
2026-01-08 22:30:43.80	56.35	15.85	-30.5	-34.6	12.0	2.76e-04	0	43	0	288358400	20	5771
2026-01-08 22:30:44.80	56.55	15.90	-30.4	-33.8	12.3	2.17e-04	0	43	0	289406976	21	5314
2026-01-08 22:30:45.81	56.74	15.95	-30.4	-33.8	12.3	1.81e-04	0	43	0	291504128	21	5325
2026-01-08 22:30:46.82	56.94	16.00	-30.5	-34.0	12.1	1.78e-04	0	43	0	293601280	21	5406
2026-01-08 22:30:47.82	57.14	16.05	-30.4	-33.9	12.1	2.36e-04	0	43	0	295698432	21	5385
2026-01-08 22:30:48.82	57.34	16.10	-30.5	-34.1	12.0	2.60e-04	0	43	0	297795584	21	5468
2026-01-08 22:30:49.83	57.54	16.15	-30.5	-34.1	12.1	2.79e-04	0	43	0	299892736	21	5446
2026-01-08 22:30:50.83	57.73	16.20	-30.6	-34.4	11.9	3.94e-04	0	43	0	300941312	21	5579
2026-01-08 22:30:51.84	57.93	16.25	-30.6	-34.5	11.8	4.59e-04	0	43	0	303038464	21	5630
2026-01-08 22:30:52.84	58.13	16.29	-30.7	-34.8	11.7	5.03e-04	0	43	0	305135616	21	5749
2026-01-08 22:30:53.85	58.34	16.34	-30.7	-34.8	11.6	7.21e-04	0	43	0	307232768	21	5751
2026-01-08 22:30:54.86	58.54	16.39	-30.7	-34.7	11.6	6.07e-04	0	43	0	308281344	21	5720
2026-01-08 22:30:55.86	58.74	16.44	-30.8	-35.0	11.5	7.54e-04	0	43	0	310378496	21	5853
2026-01-08 22:30:56.87	58.94	16.48	-30.7	-34.8	11.6	8.73e-04	0	43	0	312475648	21	5739
2026-01-08 22:30:57.88	59.15	16.53	-30.7	-34.8	11.6	6.16e-04	0	43	0	314572800	21	5744
2026-01-08 22:30:58.89	59.35	16.58	-30.7	-34.6	11.6	5.61e-04	0	43	0	316669952	21	5637
2026-01-08 22:30:59.89	59.56	16.62	-30.7	-34.5	11.6	4.29e-04	0	43	0	317718528	21	5617
2026-01-08 22:31:00.89	59.76	16.67	-30.7	-34.7	11.7	5.13e-04	0	43	0	319815680	21	5711
2026-01-08 22:31:01.90	59.97	16.72	-30.7	-34.5	11.8	5.42e-04	0	43	0	321912832	21	5621
2026-01-08 22:31:02.90	60.18	16.76	-30.7	-34.7	11.7	4.23e-04	0	43	0	324009984	21	5699
2026-01-08 22:31:03.91	60.38	16.81	-30.9	-35.3	11.2	7.82e-04	0	43	0	326107136	21	5972
2026-01-08 22:31:04.91	60.59	16.85	-30.7	-34.7	11.7	8.79e-04	0	43	0	328204288	21	5705
2026-01-08 22:31:05.92	60.80	16.90	-30.5	-34.1	12.1	3.65e-04	0	43	0	329252864	21	5442
2026-01-08 22:31:06.92	61.01	16.94	-30.3	-33.6	12.5	1.98e-04	0	43	0	331350016	21	5237
2026-01-08 22:31:07.92	61.22	16.99	-30.3	-33.4	12.5	9.84e-05	0	43	0	333447168	21	5180
2026-01-08 22:31:08.93	61.43	17.03	-30.3	-33.5	12.6	1.08e-04	0	43	0	335544320	21	5183
2026-01-08 22:31:09.93	61.64	17.07	-30.3	-33.4	12.6	1.13e-04	0	43	0	336592896	21	5165
2026-01-08 22:31:10.93	61.85	17.12	-30.3	-33.4	12.6	1.23e-04	0	43	0	338690048	21	5155
2026-01-08 22:31:11.93	62.06	17.16	-30.4	-33.9	12.3	1.55e-04	0	43	0	340787200	21	5338
2026-01-08 22:31:12.93	62.27	17.20	-30.3	-33.3	12.7	1.40e-04	0	43	0	342884352	21	5133
2026-01-08 22:31:13.94	62.49	17.25	-30.1	-32.9	13.0	1.03e-04	0	43	0	344981504	21	4958
2026-01-08 22:31:14.94	62.70	17.29	-30.0	-32.7	13.1	7.93e-05	0	43	0	346030080	21	4893
2026-01-08 22:31:15.95	62.92	17.33	-30.0	-32.7	13.1	3.73e-05	0	43	0	348127232	21	4878
2026-01-08 22:31:16.95	63.13	17.37	-30.0	-33.1	13.2	2.36e-05	0	43	0	350224384	20	5131
2026-01-08 22:31:17.95	63.35	17.41	-30.0	-33.0	13.2	2.58e-04	0	43	0	352321536	20	5101
2026-01-08 22:31:18.96	63.56	17.45	-29.9	-32.7	13.4	1.22e-05	0	43	0	354418688	20	4999
2026-01-08 22:31:19.96	63.78	17.49	-29.9	-32.8	13.4	1.22e-05	0	43	0	355467264	20	5030
2026-01-08 22:31:20.97	64.00	17.53	-29.9	-33.4	13.4	3.69e-04	0	43	0	357564416	19	5348
2026-01-08 22:31:21.98	64.22	17.57	-29.9	-33.3	13.5	1.29e-05	0	43	0	359661568	19	5324
2026-01-08 22:31:22.98	64.43	17.61	-29.9	-33.2	13.6	1.22e-05	0	43	0	361758720	19	5263
2026-01-08 22:31:23.99	64.65	17.65	-29.9	-33.3	13.5	3.25e-04	0	43	0	363855872	19	5327
2026-01-08 22:31:25.00	64.87	17.69	-29.9	-32.9	13.3	7.60e-06	0	43	0	364904448	20	5079
2026-01-08 22:31:26.00	65.09	17.73	-29.9	-32.8	13.4	3.79e-04	0	43	0	367001600	20	5026
2026-01-08 22:31:27.01	65.32	17.77	-30.0	-33.2	13.2	1.29e-05	0	43	0	369098752	20	5159
2026-01-08 22:31:28.01	65.54	17.81	-30.0	-33.2	13.2	2.21e-05	0	43	0	371195904	20	5158
2026-01-08 22:31:29.02	65.76	17.84	-30.0	-33.2	13.2	3.54e-04	0	43	0	373293056	20	5173
2026-01-08 22:31:30.02	65.98	17.88	-30.1	-33.4	13.0	3.58e-05	0	43	0	374341632	20	5249
2026-01-08 22:31:31.02	66.20	17.92	-30.1	-33.5	13.0	3.96e-05	0	43	0	376438784	20	5280
2026-01-08 22:31:32.03	66.43	17.96	-30.1	-33.3	13.1	2.84e-04	0	43	0	378535936	20	5209
2026-01-08 22:31:33.03	66.65	17.99	-30.1	-33.5	13.0	2.34e-04	0	43	0	380633088	20	5302
2026-01-08 22:31:34.04	66.88	18.03	-30.3	-34.0	12.7	6.79e-05	0	43	0	382730240	20	5484
2026-01-08 22:31:35.04	67.10	18.06	-30.1	-33.5	13.0	2.67e-04	0	43	0	383778816	20	5280
2026-01-08 22:31:36.05	67.33	18.10	-30.0	-33.2	13.2	1.92e-04	0	43	0	385875968	20	5179
2026-01-08 22:31:37.06	67.55	18.13	-30.0	-33.2	13.2	2.82e-05	0	43	0	387973120	20	5184
2026-01-08 22:31:38.06	67.78	18.17	-30.1	-33.4	13.0	2.05e-04	0	43	0	390070272	20	5244
2026-01-08 22:31:39.06	68.01	18.20	-30.1	-33.3	13.1	1.46e-04	0	43	0	392167424	20	5226
2026-01-08 22:31:40.07	68.23	18.23	-30.1	-33.4	13.0	2.97e-05	0	43	0	393216000	20	5261
2026-01-08 22:31:41.08	68.46	18.27	-30.1	-33.3	13.1	7.40e-05	0	43	0	395313152	20	5236
2026-01-08 22:31:42.08	68.69	18.30	-30.0	-33.2	13.2	4.57e-05	0	43	0	397410304	20	5177
2026-01-08 22:31:43.09	68.92	18.33	-30.0	-33.2	13.1	2.89e-05	0	43	0	399507456	20	5180
2026-01-08 22:31:44.10	69.15	18.36	-30.1	-33.5	13.0	3.35e-05	0	43	0	401604608	20	5286
2026-01-08 22:31:45.10	69.38	18.40	-30.1	-33.3	13.0	3.96e-05	0	43	0	402653184	20	5230
2026-01-08 22:31:46.10	69.61	18.43	-30.2	-33.6	12.9	3.20e-05	0	43	0	404750336	20	5322
2026-01-08 22:31:47.11	69.84	18.46	-30.3	-33.8	12.7	5.26e-05	0	43	0	406847488	20	5433
2026-01-08 22:31:48.11	70.07	18.49	-30.2	-33.6	12.9	4.50e-05	0	43	0	408944640	20	5332
2026-01-08 22:31:49.12	70.31	18.52	-30.1	-33.4	13.1	3.89e-05	0	43	0	411041792	20	5251
2026-01-08 22:31:50.12	70.54	18.55	-30.1	-33.4	13.0	3.28e-05	0	43	0	412090368	20	5248
2026-01-08 22:31:51.13	70.77	18.58	-30.2	-33.5	12.9	5.03e-05	0	43	0	414187520	20	5313
2026-01-08 22:31:52.14	71.01	18.60	-30.0	-33.1	13.2	2.44e-05	0	43	0	416284672	20	5159
2026-01-08 22:31:53.14	71.24	18.63	-30.2	-33.7	12.8	3.81e-05	0	43	0	418381824	20	5358
2026-01-08 22:31:54.15	71.47	18.66	-30.1	-33.3	13.0	8.39e-05	0	43	0	419430400	20	5234
2026-01-08 22:31:55.15	71.71	18.69	-30.2	-33.7	12.8	4.73e-05	0	43	0	421527552	20	5370
2026-01-08 22:31:56.16	71.94	18.71	-30.1	-33.5	12.9	4.50e-05	0	43	0	423624704	20	5295
2026-01-08 22:31:57.16	72.18	18.74	-30.3	-33.8	12.7	5.49e-05	0	43	0	425721856	20	5430
2026-01-08 22:31:58.17	72.41	18.77	-30.1	-33.3	13.1	3.81e-05	0	43	0	427819008	20	5221
2026-01-08 22:31:59.17	72.65	18.79	-30.0	-33.1	13.2	2.21e-05	0	43	0	429916160	20	5156
2026-01-08 22:32:00.18	72.89	18.82	-29.9	-32.9	13.3	2.36e-05	0	43	0	430964736	20	5072
2026-01-08 22:32:01.18	73.12	18.84	-29.9	-32.9	13.4	1.90e-05	0	43	0	433061888	20	5083
2026-01-08 22:32:02.19	73.36	18.87	-30.0	-33.1	13.3	1.67e-05	0	43	0	435159040	20	5128
2026-01-08 22:32:03.19	73.60	18.89	-30.0	-33.0	13.3	2.44e-05	0	43	0	437256192	20	5098
2026-01-08 22:32:04.20	73.84	18.91	-30.0	-33.0	13.3	1.44e-05	0	43	0	438304768	20	5109
2026-01-08 22:32:05.21	74.08	18.94	-30.2	-33.6	12.9	8.16e-05	0	43	0	440401920	20	5319
2026-01-08 22:32:06.21	74.31	18.96	-29.9	-32.8	13.4	2.67e-05	0	43	0	442499072	20	5015
2026-01-08 22:32:07.21	74.55	18.98	-30.1	-33.3	13.1	2.51e-05	0	43	0	444596224	20	5229
2026-01-08 22:32:08.21	74.79	19.00	-30.3	-33.8	12.8	5.64e-05	0	43	0	446693376	20	5428
2026-01-08 22:32:09.22	75.03	19.02	-30.2	-33.8	12.8	6.33e-05	0	43	0	447741952	20	5397
2026-01-08 22:32:10.22	75.27	19.04	-30.3	-33.8	12.8	6.56e-05	0	43	0	449839104	20	5429
2026-01-08 22:32:11.23	75.51	19.06	-30.1	-33.5	13.0	5.34e-05	0	43	0	451936256	20	5277
2026-01-08 22:32:12.24	75.75	19.08	-30.2	-33.7	12.9	4.19e-05	0	43	0	454033408	20	5356
2026-01-08 22:32:13.24	75.99	19.10	-30.1	-33.5	13.0	4.27e-05	0	43	0	456130560	20	5282
2026-01-08 22:32:14.24	76.23	19.12	-30.1	-33.4	13.0	4.42e-05	0	43	0	457179136	20	5271
2026-01-08 22:32:15.25	76.48	19.14	-30.2	-33.6	12.9	7.32e-05	0	43	0	459276288	20	5340
2026-01-08 22:32:16.25	76.72	19.16	-30.1	-33.5	13.0	3.43e-05	0	43	0	461373440	20	5281
2026-01-08 22:32:17.26	76.96	19.17	-30.2	-33.7	12.9	3.35e-05	0	43	0	463470592	20	5357
2026-01-08 22:32:18.27	77.20	19.19	-30.3	-33.8	12.7	1.07e-04	0	43	0	465567744	20	5424
2026-01-08 22:32:19.28	77.45	19.21	-30.2	-33.5	13.0	5.49e-05	0	43	0	466616320	20	5286
2026-01-08 22:32:20.28	77.69	19.22	-30.2	-33.5	13.0	6.10e-05	0	43	0	468713472	20	5309
2026-01-08 22:32:21.29	77.93	19.24	-30.3	-33.8	12.8	6.71e-05	0	43	0	470810624	20	5405
2026-01-08 22:32:22.29	78.17	19.25	-30.3	-33.8	12.8	6.10e-05	0	43	0	472907776	20	5426
2026-01-08 22:32:23.30	78.42	19.27	-30.3	-33.8	12.7	5.79e-05	0	43	0	475004928	20	5430
2026-01-08 22:32:24.30	78.66	19.28	-30.2	-33.7	12.9	5.79e-05	0	43	0	476053504	20	5375
2026-01-08 22:32:25.31	78.91	19.29	-30.2	-33.7	12.9	6.86e-05	0	43	0	478150656	20	5356
2026-01-08 22:32:26.32	79.15	19.30	-30.3	-34.0	12.7	7.70e-05	0	43	0	480247808	20	5481
2026-01-08 22:32:27.31	79.39	19.32	-30.4	-34.2	12.5	1.20e-04	0	43	0	482344960	20	5574
2026-01-08 22:32:28.32	79.64	19.33	-30.2	-33.5	12.9	7.78e-05	0	43	0	484442112	20	5291
2026-01-08 22:32:29.32	79.88	19.34	-30.2	-33.5	13.0	3.66e-05	0	43	0	485490688	20	5297
2026-01-08 22:32:30.32	80.13	19.35	-30.3	-33.8	12.8	3.96e-05	0	43	0	487587840	20	5411
2026-01-08 22:32:31.33	80.37	19.36	-30.3	-34.0	12.7	9.46e-05	0	43	0	489684992	20	5497
2026-01-08 22:32:32.34	80.62	19.37	-30.6	-34.2	12.2	2.34e-04	0	43	0	491782144	21	5470
2026-01-08 22:32:33.35	80.87	19.38	-30.5	-34.1	12.2	2.51e-04	0	43	0	493879296	21	5437
2026-01-08 22:32:34.35	81.11	19.39	-30.6	-34.4	12.0	3.47e-04	0	43	0	494927872	21	5555
2026-01-08 22:32:35.35	81.36	19.40	-30.4	-33.9	12.3	2.18e-04	0	43	0	497025024	21	5338
2026-01-08 22:32:36.36	81.60	19.40	-30.3	-33.5	12.6	1.17e-04	0	43	0	499122176	21	5186
2026-01-08 22:32:37.36	81.85	19.41	-30.3	-33.4	12.7	7.85e-05	0	43	0	501219328	21	5160
2026-01-08 22:32:38.36	82.09	19.42	-30.3	-33.4	12.7	9.99e-05	0	43	0	503316480	21	5157
2026-01-08 22:32:39.36	82.34	19.42	-30.3	-33.4	12.8	5.95e-05	0	43	0	504365056	21	5130
2026-01-08 22:32:40.37	82.59	19.43	-30.3	-33.4	12.7	8.39e-05	0	43	0	506462208	21	5165
2026-01-08 22:32:41.37	82.83	19.43	-30.3	-33.5	12.7	6.94e-05	0	43	0	508559360	21	5172
2026-01-08 22:32:42.38	83.08	19.44	-30.4	-33.7	12.5	1.14e-04	0	43	0	510656512	21	5248
2026-01-08 22:32:43.38	83.32	19.44	-30.3	-33.4	12.7	8.01e-05	0	43	0	512753664	21	5148
2026-01-08 22:32:44.38	83.57	19.44	-30.3	-33.4	12.7	7.70e-05	0	43	0	513802240	21	5155
2026-01-08 22:32:45.39	83.82	19.45	-30.3	-33.5	12.7	1.25e-04	0	43	0	515899392	21	5189
2026-01-08 22:32:46.40	84.06	19.45	-30.2	-33.2	12.8	5.95e-05	0	43	0	517996544	21	5089
2026-01-08 22:32:47.40	84.31	19.45	-30.2	-33.1	12.9	7.70e-05	0	43	0	520093696	21	5026
2026-01-08 22:32:48.41	84.56	19.45	-30.3	-33.3	12.8	5.18e-05	0	43	0	522190848	21	5099
2026-01-08 22:32:49.42	84.81	19.45	-30.3	-33.4	12.7	8.46e-05	0	43	0	523239424	21	5155
2026-01-08 22:32:50.43	85.05	19.45	-30.2	-33.1	12.9	8.62e-05	0	43	0	525336576	21	5042
2026-01-08 22:32:51.43	85.30	19.45	-30.1	-33.0	13.0	3.20e-05	0	43	0	527433728	21	4986
2026-01-08 22:32:52.43	85.55	19.45	-30.2	-33.1	12.9	4.95e-05	0	43	0	529530880	21	5037
2026-01-08 22:32:53.43	85.79	19.45	-30.3	-33.4	12.7	8.08e-05	0	43	0	531628032	21	5150
2026-01-08 22:32:54.44	86.04	19.45	-30.4	-33.6	12.6	1.07e-04	0	43	0	532676608	21	5224
2026-01-08 22:32:55.44	86.28	19.45	-30.2	-33.0	12.9	6.86e-05	0	43	0	534773760	21	5008
2026-01-08 22:32:56.44	86.53	19.44	-30.1	-32.8	13.1	3.05e-05	0	43	0	536870912	21	4929
2026-01-08 22:32:57.45	86.78	19.44	-30.1	-32.7	13.2	3.20e-05	0	43	0	538968064	21	4905
2026-01-08 22:32:58.45	87.02	19.44	-30.0	-32.7	13.2	3.20e-05	0	43	0	540016640	21	4878
2026-01-08 22:32:59.47	87.27	19.43	-30.1	-32.9	13.0	2.67e-05	0	43	0	542113792	21	4975
2026-01-08 22:33:00.47	87.52	19.43	-30.2	-33.1	12.9	5.03e-05	0	43	0	544210944	21	5031
2026-01-08 22:33:01.48	87.77	19.42	-30.2	-33.2	12.9	4.04e-05	0	43	0	546308096	21	5052
2026-01-08 22:33:02.48	88.01	19.42	-30.4	-33.6	12.5	7.32e-05	0	43	0	548405248	21	5238
2026-01-08 22:33:03.49	88.26	19.41	-30.4	-33.9	12.4	1.64e-04	0	43	0	550502400	21	5333
2026-01-08 22:33:04.50	88.51	19.40	-30.3	-33.6	12.6	1.09e-04	0	43	0	551550976	21	5212
2026-01-08 22:33:05.50	88.75	19.40	-30.4	-33.6	12.6	1.04e-04	0	43	0	553648128	21	5237
2026-01-08 22:33:06.51	89.00	19.39	-30.3	-33.6	12.6	9.30e-05	0	43	0	555745280	21	5214
2026-01-08 22:33:07.52	89.25	19.38	-30.3	-33.6	12.6	8.69e-05	0	43	0	557842432	21	5210
2026-01-08 22:33:08.52	89.49	19.37	-30.4	-33.7	12.5	1.19e-04	0	43	0	559939584	21	5287
2026-01-08 22:33:09.53	89.74	19.36	-30.3	-33.4	12.7	9.00e-05	0	43	0	560988160	21	5149
2026-01-08 22:33:10.53	89.98	19.35	-30.1	-32.8	13.1	4.19e-05	0	43	0	563085312	21	4932
2026-01-08 22:33:11.54	90.23	19.34	-30.0	-32.6	13.2	2.67e-05	0	43	0	565182464	21	4859
2026-01-08 22:33:12.54	90.47	19.33	-29.9	-32.4	13.4	1.83e-05	0	43	0	567279616	21	4769
2026-01-08 22:33:13.55	90.72	19.32	-29.9	-32.2	13.4	1.65e-04	0	43	0	568328192	21	4724
2026-01-08 22:33:14.55	90.96	19.31	-29.8	-32.7	13.5	1.29e-05	0	43	0	570425344	20	4977
2026-01-08 22:33:15.56	91.21	19.29	-29.9	-32.9	13.3	1.52e-05	0	43	0	572522496	20	5054
2026-01-08 22:33:16.56	91.45	19.28	-30.0	-33.0	13.3	1.37e-05	0	43	0	574619648	20	5105
2026-01-08 22:33:17.56	91.69	19.27	-30.1	-33.3	13.1	3.05e-05	0	43	0	576716800	20	5227
2026-01-08 22:33:18.57	91.94	19.25	-30.2	-33.5	12.9	3.81e-05	0	43	0	578813952	20	5311
2026-01-08 22:33:19.58	92.18	19.24	-30.3	-34.0	12.6	4.95e-05	0	43	0	579862528	20	5524
2026-01-08 22:33:20.58	92.43	19.22	-30.5	-34.4	12.3	1.02e-04	0	43	0	581959680	20	5680
2026-01-08 22:33:21.59	92.67	19.21	-30.3	-34.1	12.5	1.20e-04	0	43	0	584056832	20	5532
2026-01-08 22:33:22.59	92.91	19.19	-30.2	-33.6	12.9	7.17e-05	0	43	0	586153984	20	5338
2026-01-08 22:33:23.60	93.16	19.17	-30.0	-33.1	13.2	2.89e-05	0	43	0	587202560	20	5143
2026-01-08 22:33:24.60	93.40	19.16	-29.9	-32.8	13.4	1.83e-05	0	43	0	589299712	20	5033
2026-01-08 22:33:25.61	93.64	19.14	-29.9	-32.9	13.3	1.06e-05	0	43	0	591396864	20	5079
2026-01-08 22:33:26.62	93.88	19.12	-29.9	-32.7	13.4	1.60e-05	0	43	0	593494016	20	5009
2026-01-08 22:33:27.62	94.12	19.10	-29.9	-32.8	13.4	8.30e-06	0	43	0	595591168	20	5026
2026-01-08 22:33:28.63	94.37	19.08	-29.8	-32.6	13.6	6.10e-06	0	43	0	596639744	20	4944
2026-01-08 22:33:29.63	94.61	19.06	-29.5	-31.7	14.1	2.20e-06	0	43	0	598736896	20	4638
2026-01-08 22:33:30.64	94.85	19.04	-29.3	-31.7	14.5	1.50e-06	0	43	0	600834048	19	4747
2026-01-08 22:33:31.65	95.09	19.02	-29.3	-31.6	14.5	3.00e-06	0	43	0	602931200	19	4724
2026-01-08 22:33:32.66	95.33	19.00	-29.4	-31.9	14.3	0.00e+00	0	43	0	605028352	19	4822
2026-01-08 22:33:33.67	95.57	18.98	-29.4	-32.0	14.3	1.50e-06	0	43	0	607125504	19	4830
2026-01-08 22:33:34.67	95.81	18.96	-29.6	-32.4	14.1	2.74e-05	0	43	0	608174080	19	4993
2026-01-08 22:33:35.68	96.05	18.94	-29.6	-32.6	14.0	3.81e-05	0	43	0	610271232	19	5044
2026-01-08 22:33:36.68	96.29	18.91	-29.7	-32.8	13.8	2.20e-06	0	43	0	612368384	19	5132
2026-01-08 22:33:37.68	96.53	18.89	-29.8	-32.9	13.7	2.13e-05	0	43	0	614465536	19	5171
2026-01-08 22:33:38.68	96.76	18.87	-29.8	-33.1	13.6	1.98e-05	0	43	0	615514112	19	5254
2026-01-08 22:33:39.68	97.00	18.84	-29.9	-33.4	13.4	1.60e-05	0	43	0	617611264	19	5371
2026-01-08 22:33:40.69	97.24	18.82	-30.0	-33.3	13.1	1.90e-05	0	43	0	619708416	20	5210
2026-01-08 22:33:41.69	97.47	18.79	-30.2	-33.6	12.9	2.67e-05	0	43	0	621805568	20	5332
2026-01-08 22:33:42.70	97.71	18.77	-30.4	-34.3	12.4	1.30e-04	0	43	0	623902720	20	5623
2026-01-08 22:33:43.70	97.95	18.74	-30.2	-33.6	12.8	1.89e-04	0	43	0	624951296	20	5347
2026-01-08 22:33:44.70	98.18	18.71	-29.9	-32.9	13.3	2.74e-05	0	43	0	627048448	20	5068
2026-01-08 22:33:45.70	98.42	18.69	-29.9	-32.8	13.3	1.75e-05	0	43	0	629145600	20	5050
2026-01-08 22:33:46.71	98.65	18.66	-29.9	-32.8	13.4	1.37e-05	0	43	0	631242752	20	5039
2026-01-08 22:33:47.72	98.89	18.63	-29.9	-32.7	13.4	4.42e-05	0	43	0	633339904	20	5014
2026-01-08 22:33:48.72	99.12	18.60	-30.0	-33.1	13.2	1.98e-05	0	43	0	634388480	20	5135
2026-01-08 22:33:49.72	99.35	18.58	-29.9	-32.9	13.3	1.02e-04	0	43	0	636485632	20	5060
2026-01-08 22:33:50.73	99.59	18.55	-29.7	-32.2	13.7	4.04e-05	0	43	0	638582784	20	4839
2026-01-08 22:33:51.73	99.82	18.52	-29.5	-31.7	14.1	3.00e-06	0	43	0	640679936	20	4638
2026-01-08 22:33:52.73	100.05	18.49	-29.3	-31.3	14.3	2.21e-05	0	43	0	642777088	20	4515
2026-01-08 22:33:53.73	100.28	18.46	-29.3	-31.7	14.4	1.50e-06	0	43	0	643825664	19	4755
2026-01-08 22:33:54.74	100.52	18.43	-29.5	-32.1	14.2	1.50e-06	0	43	0	645922816	19	4894
2026-01-08 22:33:55.74	100.75	18.39	-29.5	-32.2	14.2	0.00e+00	0	43	0	648019968	19	4910
2026-01-08 22:33:56.74	100.98	18.36	-29.4	-32.0	14.3	0.00e+00	0	43	0	650117120	19	4862
2026-01-08 22:33:57.75	101.21	18.33	-29.5	-32.1	14.2	0.00e+00	0	43	0	652214272	19	4903
2026-01-08 22:33:58.75	101.44	18.30	-29.3	-31.7	14.4	3.00e-06	0	43	0	653262848	19	4762
2026-01-08 22:33:59.76	101.67	18.27	-29.3	-31.6	14.5	0.00e+00	0	43	0	655360000	19	4712
2026-01-08 22:34:00.77	101.90	18.23	-29.4	-32.0	14.3	7.00e-07	0	43	0	657457152	19	4840
2026-01-08 22:34:01.77	102.12	18.20	-29.2	-31.5	14.6	7.00e-07	0	43	0	659554304	19	4693
2026-01-08 22:34:02.78	102.35	18.16	-29.3	-31.7	14.5	0.00e+00	0	43	0	661651456	19	4740
2026-01-08 22:34:03.79	102.58	18.13	-29.1	-31.1	14.8	0.00e+00	0	43	0	662700032	19	4558
2026-01-08 22:34:04.79	102.81	18.10	-28.9	-30.8	15.0	0.00e+00	0	43	0	664797184	19	4450
2026-01-08 22:34:05.80	103.03	18.06	-28.8	-30.5	15.2	0.00e+00	0	43	0	666894336	19	4377
2026-01-08 22:34:06.80	103.26	18.02	-28.8	-30.5	15.1	0.00e+00	0	43	0	668991488	19	4385
2026-01-08 22:34:07.81	103.48	17.99	-28.8	-30.5	15.2	0.00e+00	0	43	0	671088640	19	4361
2026-01-08 22:34:08.81	103.71	17.95	-28.7	-30.8	15.3	0.00e+00	0	43	0	672137216	18	4577
2026-01-08 22:34:09.82	103.93	17.92	-29.0	-31.4	14.9	0.00e+00	0	43	0	674234368	18	4747
2026-01-08 22:34:10.82	104.16	17.88	-28.8	-31.1	15.1	0.00e+00	0	43	0	676331520	18	4647
2026-01-08 22:34:11.83	104.38	17.84	-28.8	-30.9	15.2	0.00e+00	0	43	0	678428672	18	4592
2026-01-08 22:34:12.83	104.60	17.80	-28.7	-30.8	15.3	0.00e+00	0	43	0	680525824	18	4555
2026-01-08 22:34:13.84	104.83	17.76	-28.8	-30.9	15.2	7.00e-07	0	43	0	681574400	18	4610
2026-01-08 22:34:14.85	105.05	17.73	-28.9	-31.1	15.0	0.00e+00	0	43	0	683671552	18	4667
2026-01-08 22:34:15.85	105.27	17.69	-28.9	-31.2	15.0	1.52e-05	0	43	0	685768704	18	4701
2026-01-08 22:34:16.86	105.49	17.65	-29.0	-31.6	14.8	1.50e-06	0	43	0	687865856	18	4819
2026-01-08 22:34:17.87	105.71	17.61	-29.1	-31.7	14.7	1.50e-06	0	43	0	689963008	18	4847
2026-01-08 22:34:18.87	105.93	17.57	-29.1	-31.7	14.7	0.00e+00	0	43	0	691011584	18	4853
2026-01-08 22:34:19.88	106.15	17.53	-29.1	-31.7	14.7	0.00e+00	0	43	0	693108736	18	4862
2026-01-08 22:34:20.88	106.37	17.49	-29.2	-32.1	14.5	1.14e-05	0	43	0	695205888	18	4995
2026-01-08 22:34:21.89	106.58	17.45	-29.4	-32.4	14.3	7.00e-07	0	43	0	697303040	18	5101
2026-01-08 22:34:22.90	106.80	17.41	-29.3	-32.2	14.4	4.50e-06	0	43	0	698351616	18	5034
2026-01-08 22:34:23.91	107.02	17.36	-29.5	-32.3	14.1	0.00e+00	0	43	0	700448768	19	4952
2026-01-08 22:34:24.92	107.24	17.32	-29.6	-32.6	13.8	6.80e-06	0	43	0	702545920	19	5079
2026-01-08 22:34:25.92	107.45	17.28	-29.8	-33.0	13.5	1.14e-05	0	43	0	704643072	19	5214
2026-01-08 22:34:26.93	107.67	17.24	-29.8	-32.9	13.6	1.14e-05	0	43	0	706740224	19	5193
2026-01-08 22:34:27.94	107.88	17.19	-29.7	-32.7	13.7	6.10e-06	0	43	0	708837376	19	5112
2026-01-08 22:34:28.94	108.10	17.15	-29.6	-32.6	13.8	6.10e-06	0	43	0	709885952	19	5048
2026-01-08 22:34:29.95	108.31	17.11	-29.6	-32.5	13.8	6.10e-06	0	43	0	711983104	19	5049
2026-01-08 22:34:30.96	108.52	17.06	-29.6	-32.5	13.9	3.00e-06	0	43	0	714080256	19	5034
2026-01-08 22:34:31.96	108.73	17.02	-29.6	-32.5	13.9	5.30e-06	0	43	0	716177408	19	5038
2026-01-08 22:34:32.97	108.95	16.98	-29.7	-32.8	13.7	9.10e-06	0	43	0	718274560	19	5146
2026-01-08 22:34:33.97	109.16	16.93	-29.8	-33.1	13.5	7.60e-06	0	43	0	719323136	19	5244
2026-01-08 22:34:34.98	109.37	16.89	-29.8	-33.1	13.5	8.30e-06	0	43	0	721420288	19	5248
2026-01-08 22:34:35.99	109.58	16.84	-29.7	-32.8	13.7	9.10e-06	0	43	0	723517440	19	5137
2026-01-08 22:34:37.00	109.79	16.79	-29.7	-32.7	13.7	1.60e-05	0	43	0	725614592	19	5106
2026-01-08 22:34:38.00	109.99	16.75	-29.6	-32.5	13.8	3.58e-05	0	43	0	726663168	19	5048
2026-01-08 22:34:39.01	110.20	16.70	-29.7	-32.7	13.7	3.00e-06	0	43	0	728760320	19	5101
2026-01-08 22:34:40.02	110.41	16.66	-29.8	-33.0	13.5	4.11e-05	0	43	0	730857472	19	5216
2026-01-08 22:34:41.02	110.62	16.61	-29.7	-32.8	13.6	1.14e-05	0	43	0	732954624	19	5160
2026-01-08 22:34:42.03	110.82	16.56	-29.8	-33.1	13.4	9.90e-06	0	43	0	735051776	19	5250
2026-01-08 22:34:43.03	111.03	16.52	-29.9	-33.5	13.2	9.61e-05	0	43	0	737148928	19	5419
2026-01-08 22:34:44.03	111.23	16.47	-30.0	-33.2	13.0	2.36e-05	0	43	0	738197504	20	5218
2026-01-08 22:34:45.04	111.43	16.42	-30.2	-33.7	12.7	7.24e-05	0	43	0	740294656	20	5387
2026-01-08 22:34:46.05	111.64	16.37	-30.2	-33.8	12.6	9.15e-05	0	43	0	742391808	20	5422
2026-01-08 22:34:47.05	111.84	16.33	-30.2	-33.9	12.5	1.15e-04	0	43	0	744488960	20	5495
2026-01-08 22:34:48.06	112.04	16.28	-30.3	-34.2	12.2	1.83e-04	0	43	0	745537536	20	5637
2026-01-08 22:34:49.07	112.25	16.23	-30.1	-33.5	12.7	9.46e-05	0	43	0	747634688	20	5325
2026-01-08 22:34:50.07	112.44	16.18	-30.0	-33.1	13.0	4.27e-05	0	43	0	749731840	20	5184
2026-01-08 22:34:51.08	112.65	16.13	-29.9	-33.0	13.0	4.11e-05	0	43	0	751828992	20	5132
2026-01-08 22:34:52.09	112.85	16.08	-30.0	-33.2	12.9	6.48e-05	0	43	0	753926144	20	5207
2026-01-08 22:34:53.10	113.05	16.03	-30.0	-33.1	13.0	4.65e-05	0	43	0	754974720	20	5177
2026-01-08 22:34:54.10	113.24	15.98	-30.1	-33.5	12.7	4.27e-05	0	43	0	757071872	20	5317
2026-01-08 22:34:55.11	113.44	15.93	-30.0	-33.3	12.8	2.02e-04	0	43	0	759169024	20	5232
2026-01-08 22:34:56.11	113.64	15.88	-30.1	-33.4	12.7	2.34e-04	0	43	0	761266176	20	5300
2026-01-08 22:34:57.12	113.83	15.83	-30.1	-33.5	12.7	6.17e-05	0	43	0	763363328	20	5312
2026-01-08 22:34:58.12	114.03	15.78	-30.1	-33.4	12.7	2.33e-04	0	43	0	765460480	20	5311
2026-01-08 22:34:59.13	114.22	15.73	-30.2	-33.8	12.5	2.48e-04	0	43	0	766509056	20	5441
2026-01-08 22:35:00.14	114.42	15.68	-30.2	-33.9	12.5	1.10e-04	0	43	0	768606208	20	5484
2026-01-08 22:35:01.15	114.61	15.63	-30.2	-33.7	12.6	2.78e-04	0	43	0	770703360	20	5407
2026-01-08 22:35:02.15	114.81	15.58	-30.2	-33.7	12.5	2.30e-04	0	43	0	772800512	20	5410
2026-01-08 22:35:03.16	115.00	15.52	-30.2	-33.7	12.5	1.39e-04	0	43	0	774897664	20	5423
2026-01-08 22:35:04.17	115.19	15.47	-29.9	-32.9	13.0	9.61e-05	0	43	0	775946240	20	5091
2026-01-08 22:35:05.18	115.38	15.42	-29.7	-32.5	13.3	7.70e-05	0	43	0	778043392	20	4951
2026-01-08 22:35:06.18	115.57	15.37	-29.7	-32.3	13.4	1.60e-05	0	43	0	780140544	20	4892
2026-01-08 22:35:07.18	115.76	15.32	-29.7	-32.4	13.4	3.28e-05	0	43	0	782237696	20	4923
2026-01-08 22:35:08.19	115.95	15.26	-29.6	-32.2	13.5	1.44e-05	0	43	0	783286272	20	4853
2026-01-08 22:35:09.19	116.14	15.21	-29.6	-32.3	13.4	8.30e-06	0	43	0	785383424	20	4876
2026-01-08 22:35:10.20	116.33	15.16	-29.7	-32.4	13.4	4.27e-05	0	43	0	787480576	20	4916
2026-01-08 22:35:11.21	116.52	15.11	-29.7	-32.5	13.3	1.37e-05	0	43	0	789577728	20	4965
2026-01-08 22:35:12.20	116.70	15.05	-29.7	-32.5	13.3	1.83e-05	0	43	0	791674880	20	4962
2026-01-08 22:35:13.21	116.89	15.00	-29.8	-32.6	13.2	5.56e-05	0	43	0	793772032	20	5008
2026-01-08 22:35:14.22	117.07	14.95	-30.0	-33.2	12.8	5.26e-05	0	43	0	794820608	20	5238
2026-01-08 22:35:15.22	117.26	14.89	-30.2	-33.8	12.4	1.19e-04	0	43	0	796917760	20	5475
2026-01-08 22:35:16.23	117.44	14.84	-30.3	-34.1	12.2	1.79e-04	0	43	0	799014912	20	5599
2026-01-08 22:35:17.23	117.63	14.78	-30.5	-34.3	11.7	3.58e-04	0	43	0	801112064	21	5576
2026-01-08 22:35:18.24	117.81	14.73	-30.6	-34.6	11.5	7.74e-04	0	43	0	802160640	21	5693
2026-01-08 22:35:19.25	117.99	14.68	-30.7	-34.8	11.3	9.70e-04	0	43	0	804257792	21	5804
2026-01-08 22:35:20.25	118.17	14.62	-30.6	-34.7	11.4	1.29e-03	0	43	0	806354944	21	5772
2026-01-08 22:35:21.26	118.35	14.57	-30.4	-33.9	11.9	4.63e-04	0	43	0	808452096	21	5416
2026-01-08 22:35:22.27	118.53	14.51	-30.2	-33.4	12.3	2.84e-04	0	43	0	810549248	21	5196
2026-01-08 22:35:23.28	118.71	14.46	-30.0	-32.7	12.8	1.66e-04	0	43	0	811597824	21	4934
2026-01-08 22:35:24.29	118.89	14.40	-30.0	-32.8	12.8	1.73e-04	0	43	0	813694976	21	4960
2026-01-08 22:35:25.29	119.07	14.35	-30.0	-33.3	12.7	9.00e-05	0	43	0	815792128	20	5256
2026-01-08 22:35:26.30	119.25	14.29	-29.7	-32.4	13.3	2.89e-05	0	43	0	817889280	20	4927
2026-01-08 22:35:27.31	119.43	14.23	-29.7	-32.4	13.3	1.83e-05	0	43	0	819986432	20	4936
2026-01-08 22:35:28.32	119.61	14.18	-29.8	-33.3	13.1	3.96e-05	0	43	0	822083584	19	5378
2026-01-08 22:35:29.32	119.78	14.12	-29.8	-33.3	13.1	2.89e-05	0	43	0	823132160	19	5388
2026-01-08 22:35:30.33	119.96	14.07	-29.9	-33.6	12.9	4.34e-05	0	43	0	825229312	19	5485
2026-01-08 22:35:31.34	120.13	14.01	-29.8	-33.4	13.0	7.24e-05	0	43	0	827326464	19	5412
2026-01-08 22:35:32.34	120.30	13.96	-29.8	-33.2	13.1	2.28e-05	0	43	0	829423616	19	5347
2026-01-08 22:35:33.35	120.48	13.90	-29.8	-33.2	13.1	2.05e-05	0	43	0	830472192	19	5339
2026-01-08 22:35:34.36	120.65	13.84	-29.8	-33.3	13.1	3.50e-05	0	43	0	832569344	19	5375
2026-01-08 22:35:35.36	120.82	13.79	-29.7	-32.9	13.4	1.22e-05	0	43	0	834666496	19	5192
2026-01-08 22:35:36.37	120.99	13.73	-29.7	-33.0	13.3	1.90e-05	0	43	0	836763648	19	5231
2026-01-08 22:35:37.38	121.17	13.67	-29.8	-33.2	13.2	8.08e-05	0	43	0	838860800	19	5315
2026-01-08 22:35:38.38	121.33	13.62	-29.8	-33.3	13.0	2.28e-05	0	43	0	839909376	19	5383
2026-01-08 22:35:39.39	121.50	13.56	-30.0	-33.7	12.9	4.80e-05	0	43	0	842006528	19	5508
2026-01-08 22:35:40.39	121.67	13.50	-29.9	-33.6	12.9	4.65e-05	0	43	0	844103680	19	5494
2026-01-08 22:35:41.40	121.84	13.45	-29.8	-33.3	13.1	3.50e-05	0	43	0	846200832	19	5361
2026-01-08 22:35:42.40	122.01	13.39	-29.7	-32.9	13.3	2.51e-05	0	43	0	848297984	19	5208
2026-01-08 22:35:43.40	122.17	13.33	-29.6	-32.7	13.4	1.29e-05	0	43	0	849346560	19	5155
2026-01-08 22:35:44.41	122.34	13.28	-29.6	-32.8	13.4	1.37e-05	0	43	0	851443712	19	5174
2026-01-08 22:35:45.41	122.51	13.22	-29.7	-32.9	13.3	1.37e-05	0	43	0	853540864	19	5210
2026-01-08 22:35:46.42	122.67	13.16	-29.5	-32.3	13.7	9.90e-06	0	43	0	855638016	19	5000
2026-01-08 22:35:47.42	122.83	13.10	-29.5	-32.3	13.7	5.30e-06	0	43	0	857735168	19	5001
2026-01-08 22:35:48.43	123.00	13.05	-29.5	-32.6	13.5	4.50e-06	0	43	0	858783744	19	5099
2026-01-08 22:35:49.43	123.16	12.99	-29.6	-32.8	13.3	9.90e-06	0	43	0	860880896	19	5202
2026-01-08 22:35:50.44	123.32	12.93	-29.7	-33.1	13.1	2.13e-05	0	43	0	862978048	19	5321
2026-01-08 22:35:51.45	123.49	12.87	-29.8	-33.2	13.0	3.66e-05	0	43	0	865075200	19	5360
2026-01-08 22:35:52.46	123.65	12.82	-29.8	-33.2	13.1	3.28e-05	0	43	0	867172352	19	5339
2026-01-08 22:35:53.46	123.81	12.76	-29.7	-33.0	13.2	2.44e-05	0	43	0	868220928	19	5273
2026-01-08 22:35:54.47	123.97	12.70	-29.7	-32.9	13.3	2.67e-05	0	43	0	870318080	19	5247
2026-01-08 22:35:55.48	124.13	12.64	-29.8	-33.2	13.1	2.44e-05	0	43	0	872415232	19	5323
2026-01-08 22:35:56.48	124.29	12.58	-29.7	-32.9	13.3	2.21e-05	0	43	0	874512384	19	5206
2026-01-08 22:35:57.49	124.45	12.53	-29.7	-33.0	13.2	3.66e-05	0	43	0	876609536	19	5259
2026-01-08 22:35:58.50	124.60	12.47	-29.7	-33.0	13.2	5.26e-05	0	43	0	877658112	19	5263
2026-01-08 22:35:59.50	124.76	12.41	-29.8	-33.3	13.0	2.36e-05	0	43	0	879755264	19	5384
2026-01-08 22:36:00.51	124.92	12.35	-29.9	-33.7	12.7	5.87e-05	0	43	0	881852416	19	5533
2026-01-08 22:36:01.51	125.07	12.29	-30.1	-33.6	12.3	2.51e-04	0	43	0	883949568	20	5418
2026-01-08 22:36:02.52	125.23	12.23	-30.1	-33.8	12.2	1.91e-04	0	43	0	886046720	20	5487
2026-01-08 22:36:03.52	125.38	12.18	-30.0	-33.5	12.4	1.79e-04	0	43	0	887095296	20	5370
2026-01-08 22:36:04.53	125.54	12.12	-30.0	-33.5	12.4	1.31e-04	0	43	0	889192448	20	5367
2026-01-08 22:36:05.54	125.69	12.06	-30.0	-33.4	12.4	1.50e-04	0	43	0	891289600	20	5366
2026-01-08 22:36:06.54	125.84	12.00	-30.0	-33.5	12.4	4.92e-04	0	43	0	893386752	20	5392
2026-01-08 22:36:07.55	126.00	11.94	-30.0	-33.6	12.3	1.59e-04	0	43	0	895483904	20	5435
2026-01-08 22:36:08.55	126.15	11.88	-30.0	-33.5	12.4	2.01e-04	0	43	0	896532480	20	5377
2026-01-08 22:36:09.55	126.30	11.82	-29.9	-33.7	12.7	4.55e-04	0	43	0	898629632	19	5561
2026-01-08 22:36:10.56	126.45	11.77	-30.0	-33.8	12.5	2.41e-04	0	43	0	900726784	19	5622
2026-01-08 22:36:11.56	126.60	11.71	-30.0	-33.6	12.3	1.80e-04	0	43	0	902823936	20	5418
2026-01-08 22:36:12.56	126.75	11.65	-30.2	-34.0	12.0	3.74e-04	0	43	0	904921088	20	5585
2026-01-08 22:36:13.57	126.90	11.59	-30.3	-34.4	11.7	3.56e-04	0	43	0	905969664	20	5745
2026-01-08 22:36:14.57	127.04	11.53	-30.3	-34.3	11.7	5.16e-04	0	43	0	908066816	20	5731
2026-01-08 22:36:15.58	127.19	11.47	-30.2	-34.0	12.0	4.05e-04	0	43	0	910163968	20	5593
2026-01-08 22:36:16.58	127.34	11.41	-30.1	-33.7	12.2	3.24e-04	0	43	0	912261120	20	5448
2026-01-08 22:36:17.58	127.48	11.35	-29.9	-33.3	12.4	1.47e-04	0	43	0	914358272	20	5326
2026-01-08 22:36:18.59	127.63	11.30	-29.9	-33.2	12.5	1.68e-04	0	43	0	915406848	20	5271
2026-01-08 22:36:19.59	127.77	11.24	-29.8	-33.0	12.7	1.10e-04	0	43	0	917504000	20	5177
2026-01-08 22:36:20.59	127.92	11.18	-29.8	-32.9	12.7	7.01e-05	0	43	0	919601152	20	5171
2026-01-08 22:36:21.60	128.06	11.12	-29.8	-33.0	12.6	1.04e-04	0	43	0	921698304	20	5199
2026-01-08 22:36:22.61	128.21	11.06	-29.9	-33.3	12.4	1.11e-04	0	43	0	923795456	20	5318
2026-01-08 22:36:23.62	128.35	11.00	-30.0	-33.6	12.2	1.92e-04	0	43	0	924844032	20	5420
2026-01-08 22:36:24.62	128.49	10.94	-30.1	-33.7	12.1	2.94e-04	0	43	0	926941184	20	5495
2026-01-08 22:36:25.63	128.64	10.88	-30.2	-34.2	11.8	5.40e-04	0	43	0	929038336	20	5680
2026-01-08 22:36:26.64	128.78	10.82	-30.3	-34.6	11.5	5.51e-04	0	43	0	931135488	20	5856
2026-01-08 22:36:27.65	128.92	10.76	-30.3	-34.6	11.5	9.26e-04	0	43	0	933232640	20	5867
2026-01-08 22:36:28.65	129.06	10.70	-30.3	-34.5	11.6	8.03e-04	0	43	0	934281216	20	5814
2026-01-08 22:36:29.65	129.20	10.65	-30.2	-34.3	11.7	7.09e-04	0	43	0	936378368	20	5732
2026-01-08 22:36:30.65	129.34	10.59	-30.2	-34.3	11.7	6.34e-04	0	43	0	938475520	20	5728
2026-01-08 22:36:31.66	129.48	10.53	-30.1	-34.0	11.8	5.31e-04	0	43	0	940572672	20	5636
2026-01-08 22:36:32.67	129.62	10.47	-30.1	-33.8	12.0	4.08e-04	0	43	0	942669824	20	5545
2026-01-08 22:36:33.67	129.75	10.41	-30.1	-33.8	12.0	3.58e-04	0	43	0	943718400	20	5541
2026-01-08 22:36:34.68	129.89	10.35	-30.1	-33.9	11.9	4.20e-04	0	43	0	945815552	20	5577
2026-01-08 22:36:35.69	130.03	10.29	-30.1	-34.0	11.8	4.49e-04	0	43	0	947912704	20	5629
2026-01-08 22:36:36.70	130.16	10.23	-30.2	-34.1	11.7	6.00e-04	0	43	0	950009856	20	5675
2026-01-08 22:36:37.70	130.30	10.17	-30.3	-34.4	11.5	7.06e-04	0	43	0	952107008	20	5796
2026-01-08 22:36:38.71	130.43	10.11	-30.3	-34.4	11.5	8.85e-04	0	43	0	953155584	20	5791
2026-01-08 22:36:39.72	130.57	10.05	-30.3	-34.5	11.4	8.35e-04	0	43	0	955252736	20	5825
2026-01-08 22:36:40.72	130.70	9.99	-30.4	-34.8	11.2	1.23e-03	0	43	0	957349888	20	6003
2026-01-08 22:36:41.72	130.83	9.94	-30.4	-34.9	11.1	1.54e-03	0	43	0	959447040	20	6032
2026-01-08 22:36:42.73	130.97	9.88	-30.4	-34.8	11.2	1.67e-03	0	43	0	961544192	20	5982
2026-01-08 22:36:43.73	131.10	9.82	-30.4	-34.8	11.2	1.39e-03	0	43	0	962592768	20	5969
2026-01-08 22:36:44.74	131.23	9.76	-30.3	-34.6	11.3	1.25e-03	0	43	0	964689920	20	5876
2026-01-08 22:36:45.74	131.36	9.70	-30.3	-34.6	11.3	1.21e-03	0	43	0	966787072	20	5908
2026-01-08 22:36:46.75	131.49	9.64	-30.3	-34.7	11.2	1.48e-03	0	43	0	968884224	20	5974
2026-01-08 22:36:47.76	131.63	9.58	-30.4	-34.8	11.1	1.54e-03	0	43	0	970981376	20	6018
2026-01-08 22:36:48.77	131.76	9.52	-30.4	-34.9	11.0	1.85e-03	0	43	0	972029952	20	6055
2026-01-08 22:36:49.78	131.89	9.46	-30.5	-34.9	10.6	2.25e-03	0	43	0	974127104	21	5951
2026-01-08 22:36:50.78	132.01	9.40	-30.7	-35.7	10.0	4.09e-03	0	43	0	976224256	21	6380
2026-01-08 22:36:51.79	132.14	9.34	-30.8	-35.8	9.9	9.16e-03	0	43	0	978321408	21	6408
2026-01-08 22:36:52.79	132.27	9.29	-30.8	-36.1	9.7	9.23e-03	0	43	0	980418560	21	6603
2026-01-08 22:36:53.80	132.40	9.23	-30.8	-35.9	9.8	1.31e-02	0	43	0	981467136	21	6483
2026-01-08 22:36:54.81	132.53	9.17	-30.8	-35.9	9.8	9.44e-03	0	43	0	983564288	21	6474
2026-01-08 22:36:55.82	132.65	9.11	-30.7	-35.6	10.0	8.74e-03	0	43	0	985661440	21	6330
2026-01-08 22:36:56.82	132.78	9.05	-30.7	-35.5	10.1	7.11e-03	0	43	0	987758592	21	6263
2026-01-08 22:36:57.83	132.90	8.99	-30.6	-35.3	10.3	5.97e-03	0	43	0	989855744	21	6176
2026-01-08 22:36:58.84	133.03	8.93	-30.6	-35.2	10.4	5.01e-03	0	43	0	990904320	21	6100
2026-01-08 22:36:59.84	133.15	8.87	-30.5	-34.9	10.5	4.53e-03	0	43	0	993001472	21	5976
2026-01-08 22:37:00.84	133.28	8.81	-30.3	-34.2	11.0	3.11e-03	0	43	0	995098624	21	5663
2026-01-08 22:37:01.85	133.40	8.75	-30.3	-34.1	11.1	1.52e-03	0	43	0	997195776	21	5625
2026-01-08 22:37:02.85	133.52	8.70	-30.2	-34.1	11.2	1.51e-03	0	43	0	998244352	21	5587
2026-01-08 22:37:03.86	133.64	8.64	-30.2	-34.0	11.2	1.43e-03	0	43	0	1000341504	21	5576
2026-01-08 22:37:04.86	133.77	8.58	-30.3	-34.4	10.9	1.88e-03	0	43	0	1002438656	21	5751
2026-01-08 22:37:05.87	133.89	8.52	-30.2	-34.1	11.0	2.52e-03	0	43	0	1004535808	21	5629
2026-01-08 22:37:06.88	134.01	8.46	-30.3	-34.7	11.0	1.73e-03	0	43	0	1006632960	20	6006
2026-01-08 22:37:07.89	134.13	8.40	-30.3	-34.8	10.9	2.24e-03	0	43	0	1008730112	20	6071
2026-01-08 22:37:08.89	134.25	8.34	-30.2	-34.7	11.0	2.79e-03	0	43	0	1009778688	20	6004
2026-01-08 22:37:09.90	134.37	8.28	-30.2	-34.7	10.9	1.99e-03	0	43	0	1011875840	20	6029
2026-01-08 22:37:10.90	134.49	8.23	-30.3	-35.0	10.7	2.66e-03	0	43	0	1013972992	20	6164
2026-01-08 22:37:11.91	134.61	8.17	-30.2	-34.8	10.8	3.03e-03	0	43	0	1016070144	20	6072
2026-01-08 22:37:12.91	134.73	8.11	-30.2	-34.7	10.8	2.61e-03	0	43	0	1018167296	20	6064
2026-01-08 22:37:13.92	134.84	8.05	-30.2	-34.7	10.8	2.83e-03	0	43	0	1019215872	20	6085
2026-01-08 22:37:14.93	134.96	7.99	-30.3	-35.1	10.5	3.14e-03	0	43	0	1021313024	20	6253
2026-01-08 22:37:15.93	135.08	7.93	-30.3	-35.1	10.5	3.97e-03	0	43	0	1023410176	20	6264
2026-01-08 22:37:16.94	135.19	7.88	-30.3	-35.2	10.4	4.03e-03	0	43	0	1025507328	20	6337
2026-01-08 22:37:17.94	135.31	7.82	-30.4	-35.4	10.3	5.00e-03	0	43	0	1026555904	20	6407
2026-01-08 22:37:18.94	135.43	7.76	-30.5	-35.6	10.1	6.21e-03	0	43	0	1028653056	20	6532
2026-01-08 22:37:19.94	135.54	7.70	-30.5	-35.3	10.1	7.09e-03	0	43	0	1030750208	21	6223
2026-01-08 22:37:20.95	135.65	7.64	-30.6	-35.7	9.7	8.47e-03	0	43	0	1032847360	21	6446
2026-01-08 22:37:21.95	135.77	7.59	-30.7	-35.7	9.7	1.17e-02	0	43	0	1034944512	21	6458
2026-01-08 22:37:22.96	135.88	7.53	-30.6	-35.6	9.8	1.03e-02	0	43	0	1037041664	21	6401
2026-01-08 22:37:23.97	136.00	7.47	-30.7	-35.7	9.7	1.18e-02	0	43	0	1038090240	21	6456
2026-01-08 22:37:24.98	136.11	7.41	-30.6	-35.5	9.8	9.98e-03	0	43	0	1040187392	21	6322
2026-01-08 22:37:25.98	136.22	7.35	-30.6	-35.7	9.6	9.23e-03	0	43	0	1042284544	21	6480
2026-01-08 22:37:26.99	136.33	7.29	-30.5	-35.4	9.8	1.22e-02	0	43	0	1044381696	21	6337
2026-01-08 22:37:28.00	136.45	7.24	-30.4	-35.1	10.0	7.98e-03	0	43	0	1045430272	21	6200
2026-01-08 22:37:29.01	136.56	7.18	-30.5	-35.4	9.7	8.97e-03	0	43	0	1047527424	21	6379
2026-01-08 22:37:30.01	136.67	7.12	-30.4	-35.1	10.0	8.66e-03	0	43	0	1049624576	21	6180
2026-01-08 22:37:31.02	136.78	7.06	-30.3	-35.0	10.0	7.22e-03	0	43	0	1051721728	21	6159
2026-01-08 22:37:32.03	136.89	7.00	-32.6	-46.8	3.8	1.49e+00	0	43	104	1052770304	25	18464
2026-01-08 22:37:33.03	137.00	6.95	-33.1	-47.4	3.8	1.49e+00	0	43	104	1052770304	26	18531

#Closed at: 2026-01-08 22:37:33
#Recorded file [1052 MB]: D:/data/31010_260109_012809.dat