passes_logs/2026/01/08/R2M6_AANII_01/R2M6_AANII_01__20260108_092929_NOAA_21_JPSS-2_rec.log

#Pass ID: 20260108_092929_NOAA 21 (JPSS-2)
#Satellite: NOAA 21 (JPSS-2)
#Configuration: NOAA 21
#almurnet v.1.7.20240730
#Start time: 2026-01-08 09:29:31

#Version: 2.2.20231116
#Station: R2M6_AANII_01
#Location: 30.233357 lon 59.946436 lat
#TLE: 1 54234U 22150A   26005.56767909  .00000152  00000+0  92756-4 0  9990
#TLE: 2 54234  98.7490 306.5820 0001036 340.2747  19.8389 14.19532370163472

#Time	Az	El	Level	Level2	SNR	BER	BlckErr	Temp	State	Recorded	gain1	gain2
2026-01-08 09:29:31.07	134.61	7.10	-30.2	-34.5	4.7	1.39e+00	0	40	0	0	21	5865
2026-01-08 09:29:32.07	134.57	7.17	-30.3	-34.1	4.7	1.39e+00	0	41	104	0	22	5602
2026-01-08 09:29:33.08	134.53	7.25	-30.4	-33.6	9.0	2.30e-02	0	41	0	0	22	5198
2026-01-08 09:29:34.09	134.49	7.33	-30.5	-34.0	8.7	3.35e-02	0	41	0	3145728	22	5379
2026-01-08 09:29:35.09	134.45	7.40	-30.3	-33.5	9.1	2.51e-02	0	41	0	6291456	22	5158
2026-01-08 09:29:36.09	134.41	7.48	-30.1	-33.3	9.6	1.29e-02	0	41	0	9437184	21	5199
2026-01-08 09:29:37.09	134.37	7.56	-30.0	-33.0	9.8	1.08e-02	0	41	0	12582912	21	5085
2026-01-08 09:29:38.09	134.33	7.63	-29.9	-32.7	10.1	7.52e-03	0	41	0	15728640	21	4968
2026-01-08 09:29:39.10	134.29	7.71	-29.9	-32.8	10.0	8.27e-03	0	41	0	18874368	21	5022
2026-01-08 09:29:40.11	134.24	7.79	-29.8	-32.5	10.2	6.70e-03	0	41	0	22020096	21	4892
2026-01-08 09:29:41.11	134.20	7.87	-29.6	-32.3	10.7	3.12e-03	0	41	0	24117248	20	4907
2026-01-08 09:29:42.12	134.16	7.94	-29.3	-31.8	11.4	1.13e-03	0	41	0	28311552	19	4828
2026-01-08 09:29:43.13	134.12	8.02	-29.0	-31.0	12.0	3.49e-04	0	41	0	31457280	19	4568
2026-01-08 09:29:44.13	134.07	8.10	-28.8	-30.6	12.3	2.08e-04	0	41	0	34603008	19	4408
2026-01-08 09:29:45.14	134.03	8.18	-28.7	-30.9	12.4	1.25e-04	0	41	0	37748736	18	4615
2026-01-08 09:29:46.14	133.99	8.26	-28.9	-31.2	12.2	1.88e-04	0	41	0	40894464	18	4720
2026-01-08 09:29:47.15	133.94	8.34	-28.9	-31.2	12.3	1.64e-04	0	41	0	44040192	18	4701
2026-01-08 09:29:48.16	133.90	8.42	-28.7	-30.8	12.5	1.12e-04	0	41	0	47185920	18	4562
2026-01-08 09:29:49.17	133.85	8.50	-28.8	-30.9	12.4	1.37e-04	0	41	0	49283072	18	4623
2026-01-08 09:29:50.17	133.81	8.58	-28.8	-30.9	12.5	1.30e-04	0	41	0	52428800	18	4602
2026-01-08 09:29:51.18	133.76	8.66	-28.8	-30.9	12.5	8.23e-05	0	41	0	56623104	18	4600
2026-01-08 09:29:52.18	133.72	8.74	-28.8	-31.0	12.5	1.31e-04	0	41	0	59768832	18	4622
2026-01-08 09:29:53.19	133.67	8.82	-28.8	-31.0	12.5	1.11e-04	0	41	0	62914560	18	4637
2026-01-08 09:29:54.19	133.63	8.90	-28.9	-31.2	12.3	1.74e-04	0	41	0	66060288	18	4712
2026-01-08 09:29:55.20	133.58	8.98	-28.7	-30.8	12.6	1.16e-04	0	42	0	69206016	18	4572
2026-01-08 09:29:56.21	133.53	9.06	-28.5	-30.3	12.9	5.34e-05	0	41	0	71303168	18	4429
2026-01-08 09:29:57.21	133.49	9.14	-28.4	-30.1	13.1	2.97e-05	0	42	0	74448896	18	4347
2026-01-08 09:29:58.21	133.44	9.23	-28.4	-30.0	13.2	2.28e-05	0	42	0	77594624	18	4319
2026-01-08 09:29:59.22	133.39	9.31	-28.4	-30.1	13.1	2.97e-05	0	41	0	81788928	18	4347
2026-01-08 09:30:00.23	133.35	9.39	-28.4	-30.0	13.2	2.44e-05	0	42	0	84934656	18	4326
2026-01-08 09:30:01.23	133.30	9.47	-28.4	-30.1	13.2	3.20e-05	0	42	0	88080384	18	4340
2026-01-08 09:30:02.24	133.25	9.56	-28.5	-30.1	13.1	2.51e-05	0	41	0	91226112	18	4344
2026-01-08 09:30:03.25	133.20	9.64	-28.4	-30.1	13.1	2.59e-05	0	42	0	94371840	18	4338
2026-01-08 09:30:04.25	133.16	9.72	-28.4	-30.0	13.2	1.67e-05	0	42	0	96468992	18	4314
2026-01-08 09:30:05.26	133.11	9.81	-28.4	-30.0	13.2	2.89e-05	0	42	0	99614720	18	4318
2026-01-08 09:30:06.26	133.06	9.89	-28.4	-29.8	13.4	1.44e-05	0	42	0	102760448	18	4258
2026-01-08 09:30:07.26	133.01	9.97	-28.3	-29.7	13.4	1.60e-05	0	42	0	105906176	18	4232
2026-01-08 09:30:08.27	132.96	10.06	-28.4	-29.9	13.3	1.22e-05	0	42	0	110100480	18	4275
2026-01-08 09:30:09.28	132.91	10.14	-28.5	-30.0	13.3	2.05e-05	0	42	0	113246208	18	4319
2026-01-08 09:30:10.28	132.86	10.23	-28.3	-29.7	13.5	9.10e-06	0	42	0	116391936	18	4209
2026-01-08 09:30:11.29	132.81	10.31	-28.2	-30.0	13.6	7.60e-06	0	42	0	118489088	17	4405
2026-01-08 09:30:12.29	132.76	10.40	-28.2	-29.9	13.6	7.60e-06	0	42	0	121634816	17	4386
2026-01-08 09:30:13.30	132.71	10.49	-28.3	-30.1	13.5	8.30e-06	0	42	0	124780544	17	4442
2026-01-08 09:30:14.31	132.65	10.57	-28.4	-30.3	13.4	1.44e-05	0	42	0	127926272	17	4513
2026-01-08 09:30:15.32	132.60	10.66	-28.2	-29.9	13.7	8.30e-06	0	42	0	131072000	17	4393
2026-01-08 09:30:16.32	132.55	10.74	-28.2	-29.8	13.7	7.60e-06	0	42	0	135266304	17	4351
2026-01-08 09:30:17.33	132.50	10.83	-28.2	-30.0	13.7	6.10e-06	0	42	0	138412032	17	4400
2026-01-08 09:30:18.33	132.45	10.92	-28.2	-30.0	13.6	8.30e-06	0	42	0	141557760	17	4416
2026-01-08 09:30:19.34	132.39	11.01	-28.2	-29.9	13.7	6.10e-06	0	42	0	143654912	17	4374
2026-01-08 09:30:20.35	132.34	11.09	-28.2	-29.9	13.7	5.30e-06	0	42	0	146800640	17	4367
2026-01-08 09:30:21.35	132.28	11.18	-28.0	-29.4	14.0	6.10e-06	0	42	0	149946368	17	4242
2026-01-08 09:30:22.36	132.23	11.27	-28.0	-29.4	14.1	7.00e-07	0	42	0	153092096	17	4225
2026-01-08 09:30:23.37	132.18	11.36	-28.0	-29.4	14.0	2.20e-06	0	42	0	156237824	17	4232
2026-01-08 09:30:24.37	132.12	11.45	-28.0	-29.3	14.1	2.20e-06	0	42	0	159383552	17	4222
2026-01-08 09:30:25.38	132.07	11.54	-28.1	-29.6	13.9	3.80e-06	0	42	0	163577856	17	4302
2026-01-08 09:30:26.38	132.01	11.63	-28.2	-30.0	13.7	3.00e-06	0	42	0	166723584	17	4407
2026-01-08 09:30:27.39	131.95	11.72	-28.2	-29.8	13.7	1.14e-05	0	42	0	168820736	17	4370
2026-01-08 09:30:28.40	131.90	11.81	-28.1	-29.6	14.0	4.50e-06	0	42	0	171966464	17	4279
2026-01-08 09:30:29.40	131.84	11.90	-28.0	-29.4	14.0	7.00e-07	0	42	0	175112192	17	4241
2026-01-08 09:30:30.40	131.78	11.99	-28.0	-29.4	14.1	7.00e-07	0	42	0	178257920	17	4218
2026-01-08 09:30:31.41	131.73	12.08	-28.0	-29.4	14.1	3.00e-06	0	42	0	181403648	17	4227
2026-01-08 09:30:32.42	131.67	12.17	-28.0	-29.3	14.1	4.50e-06	0	42	0	184549376	17	4216
2026-01-08 09:30:33.42	131.61	12.26	-28.1	-29.6	14.0	1.50e-06	0	42	0	188743680	17	4275
2026-01-08 09:30:34.43	131.55	12.36	-28.2	-29.9	13.8	3.80e-06	0	42	0	190840832	17	4361
2026-01-08 09:30:35.43	131.49	12.45	-28.2	-29.7	13.9	1.50e-06	0	42	0	193986560	17	4326
2026-01-08 09:30:36.43	131.44	12.54	-28.2	-29.8	13.9	4.50e-06	0	42	0	197132288	17	4335
2026-01-08 09:30:37.44	131.38	12.63	-28.0	-29.4	14.1	7.60e-06	0	42	0	200278016	17	4227
2026-01-08 09:30:38.45	131.31	12.73	-27.9	-29.1	14.3	2.20e-06	0	42	0	203423744	17	4157
2026-01-08 09:30:39.46	131.25	12.82	-27.9	-29.2	14.3	0.00e+00	0	42	0	206569472	17	4159
2026-01-08 09:30:40.47	131.19	12.91	-27.9	-29.1	14.3	3.00e-06	0	42	0	209715200	17	4153
2026-01-08 09:30:41.47	131.13	13.01	-28.0	-29.4	14.2	0.00e+00	0	42	0	213909504	17	4228
2026-01-08 09:30:42.48	131.07	13.10	-28.0	-29.4	14.2	2.20e-06	0	42	0	216006656	17	4226
2026-01-08 09:30:43.49	131.01	13.20	-27.9	-29.1	14.4	9.10e-06	0	42	0	219152384	17	4137
2026-01-08 09:30:44.50	130.95	13.29	-27.9	-29.1	14.4	0.00e+00	0	42	0	222298112	17	4130
2026-01-08 09:30:45.50	130.88	13.39	-27.9	-29.2	14.2	7.00e-07	0	42	0	225443840	17	4184
2026-01-08 09:30:46.51	130.82	13.49	-27.9	-29.3	14.3	6.10e-06	0	42	0	228589568	17	4188
2026-01-08 09:30:47.51	130.76	13.58	-27.9	-29.3	14.3	1.50e-06	0	42	0	231735296	17	4192
2026-01-08 09:30:48.51	130.69	13.68	-28.0	-29.3	14.2	5.30e-06	0	42	0	234881024	17	4197
2026-01-08 09:30:49.52	130.63	13.78	-27.8	-29.0	14.4	1.50e-06	0	42	0	238026752	17	4110
2026-01-08 09:30:50.53	130.56	13.87	-27.8	-29.3	14.5	0.00e+00	0	42	0	241172480	16	4309
2026-01-08 09:30:51.53	130.50	13.97	-27.7	-29.3	14.5	7.00e-07	0	42	0	244318208	16	4304
2026-01-08 09:30:52.53	130.43	14.07	-27.7	-29.3	14.6	3.00e-06	0	42	0	247463936	16	4296
2026-01-08 09:30:53.54	130.36	14.17	-27.7	-29.2	14.6	0.00e+00	0	42	0	250609664	16	4280
2026-01-08 09:30:54.54	130.30	14.27	-27.6	-29.0	14.7	0.00e+00	0	42	0	253755392	16	4226
2026-01-08 09:30:55.55	130.23	14.37	-27.7	-29.1	14.7	7.00e-07	0	42	0	256901120	16	4239
2026-01-08 09:30:56.56	130.16	14.47	-27.7	-29.1	14.7	0.00e+00	0	42	0	260046848	16	4238
2026-01-08 09:30:57.57	130.09	14.57	-27.6	-28.9	14.8	0.00e+00	0	43	0	263192576	16	4197
2026-01-08 09:30:58.57	130.02	14.67	-27.7	-29.1	14.7	0.00e+00	0	43	0	266338304	16	4246
2026-01-08 09:30:59.58	129.96	14.77	-27.7	-29.1	14.8	1.50e-06	0	42	0	269484032	16	4228
2026-01-08 09:31:00.58	129.89	14.87	-27.7	-29.1	14.8	0.00e+00	0	43	0	272629760	16	4235
2026-01-08 09:31:01.59	129.82	14.97	-27.7	-29.2	14.7	7.00e-07	0	42	0	275775488	16	4260
2026-01-08 09:31:02.59	129.75	15.07	-27.7	-29.2	14.7	7.00e-07	0	42	0	278921216	16	4275
2026-01-08 09:31:03.60	129.67	15.17	-27.9	-29.6	14.5	7.00e-07	0	42	0	282066944	16	4369
2026-01-08 09:31:04.61	129.60	15.28	-27.9	-29.5	14.6	0.00e+00	0	42	0	285212672	16	4351
2026-01-08 09:31:05.62	129.53	15.38	-27.8	-29.3	14.7	0.00e+00	0	43	0	288358400	16	4299
2026-01-08 09:31:06.62	129.46	15.48	-27.8	-29.4	14.7	0.00e+00	0	42	0	291504128	16	4301
2026-01-08 09:31:07.63	129.38	15.59	-27.9	-29.5	14.6	0.00e+00	0	43	0	294649856	16	4346
2026-01-08 09:31:08.63	129.31	15.69	-27.9	-29.7	14.5	0.00e+00	0	42	0	297795584	16	4396
2026-01-08 09:31:09.64	129.23	15.79	-27.9	-29.6	14.5	7.00e-07	0	43	0	300941312	16	4388
2026-01-08 09:31:10.64	129.16	15.90	-27.9	-29.7	14.5	7.00e-07	0	42	0	304087040	16	4399
2026-01-08 09:31:11.64	129.09	16.00	-28.0	-29.8	14.4	0.00e+00	0	43	0	307232768	16	4446
2026-01-08 09:31:12.65	129.01	16.11	-28.1	-29.9	14.4	7.00e-07	0	42	0	310378496	16	4476
2026-01-08 09:31:13.65	128.93	16.21	-28.1	-30.0	14.3	1.50e-06	0	42	0	313524224	16	4491
2026-01-08 09:31:14.65	128.86	16.32	-28.0	-29.9	14.4	0.00e+00	0	43	0	316669952	16	4467
2026-01-08 09:31:15.66	128.78	16.43	-28.0	-29.8	14.4	0.00e+00	0	43	0	319815680	16	4447
2026-01-08 09:31:16.67	128.70	16.54	-28.0	-29.9	14.4	0.00e+00	0	42	0	322961408	16	4462
2026-01-08 09:31:17.68	128.62	16.64	-28.0	-29.9	14.4	7.00e-07	0	42	0	326107136	16	4456
2026-01-08 09:31:18.68	128.54	16.75	-28.0	-29.9	14.4	0.00e+00	0	43	0	329252864	16	4456
2026-01-08 09:31:19.68	128.46	16.86	-28.1	-30.0	14.4	0.00e+00	0	43	0	332398592	16	4481
2026-01-08 09:31:20.69	128.38	16.97	-28.1	-30.2	14.3	7.00e-07	0	43	0	335544320	16	4550
2026-01-08 09:31:21.70	128.30	17.08	-28.0	-30.0	14.4	0.00e+00	0	43	0	338690048	16	4485
2026-01-08 09:31:22.70	128.22	17.19	-28.0	-29.8	14.5	0.00e+00	0	42	0	341835776	16	4426
2026-01-08 09:31:23.71	128.14	17.30	-28.0	-30.0	14.4	0.00e+00	0	42	0	344981504	16	4484
2026-01-08 09:31:24.72	128.05	17.41	-28.0	-29.8	14.5	2.20e-06	0	43	0	348127232	16	4442
2026-01-08 09:31:25.73	127.97	17.52	-28.0	-29.8	14.5	0.00e+00	0	43	0	351272960	16	4442
2026-01-08 09:31:26.73	127.88	17.63	-28.0	-29.9	14.5	0.00e+00	0	43	0	354418688	16	4469
2026-01-08 09:31:27.74	127.80	17.75	-28.0	-29.7	14.6	7.00e-07	0	42	0	357564416	16	4409
2026-01-08 09:31:28.75	127.71	17.86	-27.9	-29.6	14.7	0.00e+00	0	43	0	360710144	16	4369
2026-01-08 09:31:29.76	127.63	17.97	-27.8	-29.4	14.7	0.00e+00	0	43	0	363855872	16	4328
2026-01-08 09:31:30.76	127.54	18.08	-27.9	-29.6	14.7	0.00e+00	0	43	0	367001600	16	4369
2026-01-08 09:31:31.77	127.45	18.20	-27.9	-29.6	14.7	0.00e+00	0	43	0	370147328	16	4360
2026-01-08 09:31:32.78	127.36	18.31	-27.9	-29.5	14.7	0.00e+00	0	43	0	373293056	16	4349
2026-01-08 09:31:33.78	127.27	18.43	-27.9	-29.6	14.7	3.80e-06	0	43	0	376438784	16	4369
2026-01-08 09:31:34.79	127.18	18.54	-28.1	-30.0	14.5	0.00e+00	0	43	0	379584512	16	4486
2026-01-08 09:31:35.79	127.09	18.66	-28.1	-29.9	14.5	1.50e-06	0	43	0	382730240	16	4455
2026-01-08 09:31:36.80	127.00	18.78	-27.9	-29.6	14.7	0.00e+00	0	43	0	385875968	16	4372
2026-01-08 09:31:37.81	126.91	18.89	-28.0	-29.8	14.6	0.00e+00	0	43	0	389021696	16	4405
2026-01-08 09:31:38.82	126.82	19.01	-27.9	-29.6	14.8	0.00e+00	0	43	0	392167424	16	4365
2026-01-08 09:31:39.82	126.72	19.13	-28.0	-29.9	14.6	7.00e-07	0	43	0	395313152	16	4437
2026-01-08 09:31:40.83	126.63	19.25	-28.0	-29.7	14.7	7.00e-07	0	43	0	398458880	16	4390
2026-01-08 09:31:41.83	126.54	19.36	-28.1	-30.1	14.5	0.00e+00	0	43	0	401604608	16	4508
2026-01-08 09:31:42.84	126.44	19.48	-27.9	-29.6	14.7	0.00e+00	0	43	0	404750336	16	4363
2026-01-08 09:31:43.85	126.34	19.60	-27.9	-29.6	14.8	0.00e+00	0	43	0	407896064	16	4353
2026-01-08 09:31:44.85	126.25	19.72	-27.9	-29.6	14.8	7.00e-07	0	43	0	411041792	16	4365
2026-01-08 09:31:45.86	126.15	19.84	-28.0	-29.7	14.7	7.00e-07	0	43	0	414187520	16	4382
2026-01-08 09:31:46.86	126.05	19.96	-27.8	-29.4	14.9	0.00e+00	0	43	0	417333248	16	4302
2026-01-08 09:31:47.87	125.95	20.09	-27.8	-29.4	14.9	0.00e+00	0	43	0	420478976	16	4311
2026-01-08 09:31:48.87	125.85	20.21	-27.8	-29.2	15.0	0.00e+00	0	43	0	423624704	16	4263
2026-01-08 09:31:49.88	125.75	20.33	-27.8	-29.4	14.9	0.00e+00	0	43	0	426770432	16	4299
2026-01-08 09:31:50.88	125.65	20.45	-27.7	-29.2	15.1	0.00e+00	0	43	0	429916160	16	4238
2026-01-08 09:31:51.89	125.54	20.58	-27.7	-29.0	15.1	0.00e+00	0	43	0	433061888	16	4192
2026-01-08 09:31:52.90	125.44	20.70	-27.8	-29.1	15.1	0.00e+00	0	43	0	436207616	16	4225
2026-01-08 09:31:53.90	125.34	20.83	-27.6	-28.8	15.3	0.00e+00	0	43	0	439353344	16	4124
2026-01-08 09:31:54.91	125.23	20.95	-27.4	-28.4	15.5	0.00e+00	0	43	0	442499072	16	4038
2026-01-08 09:31:55.92	125.12	21.08	-27.5	-28.5	15.5	0.00e+00	0	43	0	445644800	16	4045
2026-01-08 09:31:56.92	125.02	21.20	-27.6	-28.7	15.4	0.00e+00	0	43	0	448790528	16	4099
2026-01-08 09:31:57.92	124.91	21.33	-27.4	-28.3	15.6	0.00e+00	0	43	0	451936256	16	3994
2026-01-08 09:31:58.92	124.80	21.45	-27.1	-28.2	15.7	0.00e+00	0	43	0	455081984	15	4093
2026-01-08 09:31:59.92	124.69	21.58	-27.1	-28.3	15.7	0.00e+00	0	43	0	458227712	15	4102
2026-01-08 09:32:00.93	124.58	21.71	-27.0	-28.1	15.8	0.00e+00	0	43	0	461373440	15	4061
2026-01-08 09:32:01.93	124.47	21.84	-27.1	-28.2	15.7	0.00e+00	0	43	0	464519168	15	4095
2026-01-08 09:32:02.93	124.36	21.97	-27.0	-28.0	15.8	0.00e+00	0	43	0	467664896	15	4042
2026-01-08 09:32:03.93	124.24	22.10	-27.0	-28.0	15.9	0.00e+00	0	43	0	470810624	15	4032
2026-01-08 09:32:04.93	124.13	22.23	-27.1	-28.2	15.8	0.00e+00	0	43	0	473956352	15	4088
2026-01-08 09:32:05.94	124.01	22.36	-27.0	-28.0	15.9	0.00e+00	0	43	0	477102080	15	4030
2026-01-08 09:32:06.95	123.90	22.49	-26.9	-27.7	16.0	0.00e+00	0	43	0	480247808	15	3966
2026-01-08 09:32:07.96	123.78	22.62	-26.9	-27.8	16.0	0.00e+00	0	43	0	483393536	15	3977
2026-01-08 09:32:08.96	123.66	22.75	-26.9	-27.9	15.9	0.00e+00	0	43	0	486539264	15	4004
2026-01-08 09:32:09.97	123.54	22.89	-26.9	-27.7	16.1	0.00e+00	0	43	0	489684992	15	3965
2026-01-08 09:32:10.97	123.42	23.02	-26.9	-27.7	16.1	0.00e+00	0	43	0	492830720	15	3967
2026-01-08 09:32:11.97	123.30	23.15	-26.8	-27.5	16.2	0.00e+00	0	43	0	495976448	15	3907
2026-01-08 09:32:12.98	123.18	23.29	-26.8	-28.1	16.2	0.00e+00	0	43	0	499122176	14	4166
2026-01-08 09:32:13.98	123.05	23.42	-26.8	-28.0	16.2	0.00e+00	0	43	0	502267904	14	4147
2026-01-08 09:32:14.98	122.93	23.56	-26.9	-28.2	16.1	0.00e+00	0	43	0	505413632	14	4177
2026-01-08 09:32:15.99	122.80	23.69	-26.8	-28.0	16.2	0.00e+00	0	43	0	508559360	14	4131
2026-01-08 09:32:17.00	122.67	23.83	-27.0	-28.5	15.9	0.00e+00	0	43	0	511705088	14	4278
2026-01-08 09:32:18.00	122.55	23.97	-26.8	-28.1	16.2	0.00e+00	0	43	0	514850816	14	4171
2026-01-08 09:32:19.01	122.42	24.11	-26.6	-27.6	16.4	0.00e+00	0	43	0	517996544	14	4045
2026-01-08 09:32:20.02	122.29	24.25	-26.6	-27.5	16.5	0.00e+00	0	43	0	521142272	14	3998
2026-01-08 09:32:21.03	122.15	24.39	-26.6	-27.5	16.5	0.00e+00	0	43	0	524288000	14	4007
2026-01-08 09:32:22.03	122.02	24.53	-26.5	-27.4	16.5	0.00e+00	0	43	0	527433728	14	3980
2026-01-08 09:32:23.03	121.89	24.67	-26.5	-27.4	16.5	0.00e+00	0	43	0	530579456	14	3993
2026-01-08 09:32:24.04	121.75	24.81	-26.6	-27.5	16.5	0.00e+00	0	43	0	533725184	14	4012
2026-01-08 09:32:25.05	121.61	24.95	-26.7	-27.8	16.4	0.00e+00	0	43	0	536870912	14	4076
2026-01-08 09:32:26.06	121.48	25.09	-26.7	-27.7	16.4	0.00e+00	0	43	0	540016640	14	4068
2026-01-08 09:32:27.06	121.34	25.23	-26.7	-27.9	16.3	0.00e+00	0	43	0	543162368	14	4107
2026-01-08 09:32:28.07	121.20	25.38	-26.9	-28.3	16.1	0.00e+00	0	43	0	546308096	14	4217
2026-01-08 09:32:29.08	121.05	25.52	-27.1	-28.7	15.9	0.00e+00	0	43	0	549453824	14	4314
2026-01-08 09:32:30.09	120.91	25.67	-27.1	-28.6	15.9	0.00e+00	0	43	0	552599552	14	4298
2026-01-08 09:32:31.10	120.76	25.81	-27.1	-28.7	15.9	0.00e+00	0	43	0	555745280	14	4326
2026-01-08 09:32:32.11	120.62	25.96	-27.1	-28.6	15.9	0.00e+00	0	43	0	558891008	14	4309
2026-01-08 09:32:33.12	120.47	26.11	-27.1	-28.8	15.9	0.00e+00	0	43	0	562036736	14	4347
2026-01-08 09:32:34.13	120.32	26.25	-27.1	-28.7	15.9	0.00e+00	0	43	0	565182464	14	4336
2026-01-08 09:32:35.14	120.17	26.40	-27.2	-29.0	15.7	0.00e+00	0	43	0	568328192	14	4404
2026-01-08 09:32:36.14	120.02	26.55	-27.5	-29.1	15.4	0.00e+00	0	43	0	571473920	15	4309
2026-01-08 09:32:37.15	119.87	26.70	-27.4	-28.7	15.6	0.00e+00	0	43	0	574619648	15	4226
2026-01-08 09:32:38.16	119.71	26.85	-27.3	-28.6	15.7	0.00e+00	0	43	0	577765376	15	4198
2026-01-08 09:32:39.17	119.55	27.00	-27.3	-28.6	15.7	0.00e+00	0	43	0	580911104	15	4192
2026-01-08 09:32:40.17	119.40	27.15	-27.3	-28.7	15.6	0.00e+00	0	43	0	584056832	15	4221
2026-01-08 09:32:41.18	119.24	27.30	-27.2	-28.5	15.8	0.00e+00	0	43	0	587202560	15	4150
2026-01-08 09:32:42.19	119.08	27.45	-27.4	-28.7	15.6	1.14e-05	0	43	0	590348288	15	4219
2026-01-08 09:32:43.19	118.92	27.60	-27.2	-28.5	15.8	0.00e+00	0	43	0	593494016	15	4160
2026-01-08 09:32:44.20	118.75	27.76	-27.3	-28.7	15.7	0.00e+00	0	43	0	596639744	15	4200
2026-01-08 09:32:45.21	118.59	27.91	-27.4	-28.9	15.6	9.90e-06	0	43	0	599785472	15	4266
2026-01-08 09:32:46.22	118.42	28.06	-27.5	-29.1	15.5	0.00e+00	0	43	0	602931200	15	4314
2026-01-08 09:32:47.22	118.25	28.22	-27.7	-29.5	15.2	0.00e+00	0	43	0	606076928	15	4427
2026-01-08 09:32:48.23	118.08	28.37	-27.7	-29.6	15.2	1.22e-05	0	43	0	609222656	15	4464
2026-01-08 09:32:49.24	117.91	28.53	-27.6	-29.4	15.3	0.00e+00	0	43	0	612368384	15	4397
2026-01-08 09:32:50.25	117.73	28.69	-27.6	-29.3	15.4	0.00e+00	0	43	0	615514112	15	4371
2026-01-08 09:32:51.25	117.56	28.84	-27.8	-29.7	15.1	1.22e-05	0	43	0	618659840	15	4485
2026-01-08 09:32:52.25	117.38	29.00	-27.7	-29.6	15.2	0.00e+00	0	43	0	621805568	15	4452
2026-01-08 09:32:53.25	117.21	29.15	-27.6	-29.2	15.4	0.00e+00	0	43	0	624951296	15	4344
2026-01-08 09:32:54.26	117.02	29.31	-27.6	-29.4	15.3	0.00e+00	0	43	0	628097024	15	4392
2026-01-08 09:32:55.27	116.84	29.47	-27.4	-28.9	15.6	0.00e+00	0	43	0	631242752	15	4264
2026-01-08 09:32:56.27	116.66	29.63	-27.4	-28.9	15.6	0.00e+00	0	43	0	634388480	15	4265
2026-01-08 09:32:57.28	116.47	29.79	-27.5	-29.0	15.5	9.90e-06	0	43	0	637534208	15	4303
2026-01-08 09:32:58.28	116.28	29.95	-27.6	-29.2	15.4	0.00e+00	0	43	0	640679936	15	4352
2026-01-08 09:32:59.28	116.10	30.11	-27.7	-29.5	15.2	0.00e+00	0	43	0	643825664	15	4422
2026-01-08 09:33:00.29	115.90	30.28	-27.8	-29.7	15.1	0.00e+00	0	43	0	646971392	15	4504
2026-01-08 09:33:01.30	115.71	30.44	-28.1	-29.9	14.9	0.00e+00	0	43	0	650117120	16	4424
2026-01-08 09:33:02.31	115.51	30.60	-27.9	-29.5	15.1	0.00e+00	0	43	0	653262848	16	4306
2026-01-08 09:33:03.31	115.32	30.76	-27.8	-29.2	15.3	0.00e+00	0	43	0	656408576	16	4228
2026-01-08 09:33:04.31	115.12	30.93	-27.8	-29.1	15.3	0.00e+00	0	43	0	659554304	16	4212
2026-01-08 09:33:05.32	114.92	31.09	-27.8	-29.3	15.3	0.00e+00	0	43	0	662700032	16	4260
2026-01-08 09:33:06.33	114.71	31.26	-28.0	-29.6	15.1	0.00e+00	0	43	0	665845760	16	4331
2026-01-08 09:33:07.33	114.51	31.42	-28.0	-29.7	15.0	0.00e+00	0	43	0	668991488	16	4375
2026-01-08 09:33:08.33	114.30	31.59	-28.0	-29.7	15.1	0.00e+00	0	43	0	672137216	16	4357
2026-01-08 09:33:09.34	114.09	31.75	-28.0	-29.8	15.0	0.00e+00	0	43	0	675282944	16	4384
2026-01-08 09:33:10.34	113.88	31.92	-28.0	-29.7	15.1	0.00e+00	0	43	0	678428672	16	4377
2026-01-08 09:33:11.35	113.66	32.09	-28.1	-29.9	15.0	7.00e-07	0	43	0	681574400	16	4422
2026-01-08 09:33:12.36	113.44	32.26	-28.1	-30.0	14.9	0.00e+00	0	43	0	684720128	16	4443
2026-01-08 09:33:13.36	113.23	32.42	-28.1	-30.0	14.9	7.00e-07	0	43	0	687865856	16	4458
2026-01-08 09:33:14.36	113.01	32.59	-28.3	-30.3	14.7	0.00e+00	0	43	0	691011584	16	4555
2026-01-08 09:33:15.37	112.78	32.76	-28.3	-30.4	14.7	0.00e+00	0	43	0	694157312	16	4585
2026-01-08 09:33:16.37	112.56	32.93	-28.1	-29.9	15.0	0.00e+00	0	43	0	697303040	16	4412
2026-01-08 09:33:17.38	112.33	33.10	-28.1	-29.9	15.0	0.00e+00	0	43	0	700448768	16	4408
2026-01-08 09:33:18.38	112.10	33.27	-28.1	-29.8	15.0	0.00e+00	0	43	0	703594496	16	4403
2026-01-08 09:33:19.39	111.86	33.44	-28.1	-29.9	15.0	7.00e-07	0	43	0	706740224	16	4412
2026-01-08 09:33:20.40	111.63	33.62	-28.1	-29.9	14.9	0.00e+00	0	43	0	709885952	16	4427
2026-01-08 09:33:21.40	111.39	33.79	-28.2	-30.0	14.9	0.00e+00	0	43	0	713031680	16	4451
2026-01-08 09:33:22.41	111.15	33.96	-28.2	-30.1	14.9	0.00e+00	0	43	0	716177408	16	4485
2026-01-08 09:33:23.41	110.91	34.13	-28.2	-30.0	15.0	0.00e+00	0	43	0	719323136	16	4438
2026-01-08 09:33:24.41	110.66	34.30	-28.2	-30.1	14.9	7.00e-07	0	43	0	722468864	16	4487
2026-01-08 09:33:25.42	110.41	34.48	-28.3	-30.4	14.7	0.00e+00	0	43	0	725614592	16	4563
2026-01-08 09:33:26.43	110.16	34.65	-28.5	-30.7	14.5	0.00e+00	0	43	0	728760320	16	4657
2026-01-08 09:33:27.43	109.91	34.82	-28.7	-30.7	14.2	0.00e+00	0	43	0	731906048	17	4548
2026-01-08 09:33:28.43	109.65	35.00	-28.8	-31.0	14.1	3.00e-06	0	43	0	735051776	17	4621
2026-01-08 09:33:29.44	109.39	35.17	-28.7	-30.7	14.3	0.00e+00	0	43	0	738197504	17	4540
2026-01-08 09:33:30.45	109.13	35.35	-28.7	-30.7	14.3	2.20e-06	0	43	0	741343232	17	4534
2026-01-08 09:33:31.45	108.86	35.52	-28.7	-30.7	14.3	7.00e-07	0	43	0	744488960	17	4539
2026-01-08 09:33:32.46	108.59	35.70	-28.8	-30.9	14.2	1.50e-06	0	43	0	747634688	17	4609
2026-01-08 09:33:33.46	108.32	35.87	-28.8	-30.9	14.2	2.20e-06	0	43	0	750780416	17	4601
2026-01-08 09:33:34.47	108.05	36.05	-28.8	-31.1	14.1	1.50e-06	0	43	0	753926144	17	4649
2026-01-08 09:33:35.47	107.77	36.23	-28.9	-31.3	13.9	1.50e-06	0	43	0	757071872	17	4716
2026-01-08 09:33:36.48	107.49	36.40	-29.2	-31.5	13.6	8.30e-06	0	43	0	760217600	18	4673
2026-01-08 09:33:37.48	107.21	36.58	-29.3	-31.7	13.4	9.90e-06	0	43	0	763363328	18	4753
2026-01-08 09:33:38.50	106.92	36.76	-29.1	-31.1	13.8	4.50e-06	0	43	0	766509056	18	4553
2026-01-08 09:33:39.50	106.63	36.93	-29.1	-31.1	13.8	6.80e-06	0	43	0	769654784	18	4569
2026-01-08 09:33:40.51	106.34	37.11	-29.1	-31.2	13.8	6.80e-06	0	43	0	772800512	18	4591
2026-01-08 09:33:41.52	106.04	37.29	-29.1	-31.1	13.8	2.20e-06	0	43	0	775946240	18	4550
2026-01-08 09:33:42.53	105.74	37.46	-29.0	-30.9	14.0	2.20e-06	0	43	0	779091968	18	4487
2026-01-08 09:33:43.53	105.44	37.64	-28.9	-30.8	14.0	2.20e-06	0	43	0	782237696	18	4455
2026-01-08 09:33:44.54	105.13	37.82	-29.1	-31.1	13.9	3.00e-06	0	43	0	785383424	18	4543
2026-01-08 09:33:45.55	104.82	38.00	-29.0	-31.0	13.9	5.30e-06	0	43	0	788529152	18	4532
2026-01-08 09:33:46.55	104.51	38.17	-28.9	-30.7	14.1	2.20e-06	0	43	0	791674880	18	4416
2026-01-08 09:33:47.56	104.19	38.35	-29.0	-31.0	13.9	3.80e-06	0	43	0	794820608	18	4523
2026-01-08 09:33:48.57	103.87	38.53	-29.1	-31.1	13.8	6.10e-06	0	43	0	797966336	18	4547
2026-01-08 09:33:49.57	103.55	38.70	-29.0	-31.0	13.9	6.10e-06	0	43	0	801112064	18	4529
2026-01-08 09:33:50.58	103.22	38.88	-29.0	-30.9	14.0	6.10e-06	0	43	0	804257792	18	4496
2026-01-08 09:33:51.58	102.90	39.05	-29.0	-30.8	14.0	4.50e-06	0	43	0	807403520	18	4473
2026-01-08 09:33:52.59	102.56	39.23	-28.9	-30.8	14.1	7.00e-07	0	43	0	810549248	18	4447
2026-01-08 09:33:53.60	102.22	39.41	-28.9	-30.7	14.1	6.80e-06	0	43	0	813694976	18	4420
2026-01-08 09:33:54.61	101.88	39.58	-29.1	-31.1	13.9	7.00e-07	0	43	0	816840704	18	4543
2026-01-08 09:33:55.62	101.53	39.76	-29.0	-31.0	13.9	1.50e-06	0	43	0	819986432	18	4508
2026-01-08 09:33:56.63	101.18	39.94	-28.9	-30.8	14.0	1.50e-06	0	43	0	823132160	18	4456
2026-01-08 09:33:57.63	100.83	40.11	-29.0	-31.0	14.0	2.20e-06	0	43	0	826277888	18	4521
2026-01-08 09:33:58.64	100.48	40.28	-29.2	-31.5	13.7	5.30e-06	0	43	0	829423616	18	4658
2026-01-08 09:33:59.64	100.12	40.46	-29.4	-31.9	13.4	1.29e-05	0	43	0	832569344	18	4798
2026-01-08 09:34:00.65	99.75	40.63	-29.5	-31.6	13.3	1.44e-05	0	43	0	835715072	19	4597
2026-01-08 09:34:01.66	99.38	40.80	-29.6	-31.8	13.2	2.97e-05	0	43	0	838860800	19	4645
2026-01-08 09:34:02.66	99.02	40.98	-29.6	-32.0	13.1	3.66e-05	0	43	0	842006528	19	4704
2026-01-08 09:34:03.67	98.64	41.15	-29.7	-32.2	12.9	2.97e-05	0	43	0	845152256	19	4780
2026-01-08 09:34:04.67	98.26	41.32	-29.9	-32.6	12.7	8.16e-05	0	43	0	848297984	19	4908
2026-01-08 09:34:05.68	97.88	41.49	-30.0	-32.5	12.3	1.21e-04	0	43	0	851443712	20	4791
2026-01-08 09:34:06.69	97.49	41.66	-30.2	-33.0	12.1	2.47e-04	0	43	0	854589440	20	4972
2026-01-08 09:34:07.69	97.10	41.83	-30.2	-33.0	12.1	3.29e-04	0	43	0	857735168	20	4955
2026-01-08 09:34:08.70	96.70	42.00	-30.1	-32.7	12.3	2.08e-04	0	43	0	860880896	20	4836
2026-01-08 09:34:09.70	96.30	42.16	-30.0	-32.5	12.4	1.79e-04	0	43	0	864026624	20	4766
2026-01-08 09:34:10.71	95.89	42.33	-30.2	-32.8	12.2	1.82e-04	0	43	0	867172352	20	4883
2026-01-08 09:34:11.72	95.48	42.50	-30.2	-33.0	12.1	3.31e-04	0	43	0	870318080	20	4936
2026-01-08 09:34:12.73	95.07	42.66	-30.2	-33.0	12.1	2.65e-04	0	43	0	873463808	20	4949
2026-01-08 09:34:13.73	94.65	42.83	-30.2	-33.0	12.1	2.28e-04	0	43	0	876609536	20	4939
2026-01-08 09:34:14.74	94.23	42.99	-30.1	-32.6	12.3	2.07e-04	0	43	0	879755264	20	4800
2026-01-08 09:34:15.75	93.80	43.15	-29.9	-32.1	12.6	1.10e-04	0	43	0	882900992	20	4652
2026-01-08 09:34:16.75	93.38	43.31	-29.9	-32.2	12.6	7.40e-05	0	43	0	886046720	20	4676
2026-01-08 09:34:17.76	92.94	43.47	-29.8	-31.9	12.8	6.10e-05	0	43	0	889192448	20	4571
2026-01-08 09:34:18.76	92.50	43.63	-29.6	-31.4	13.1	2.97e-05	0	43	0	892338176	20	4422
2026-01-08 09:34:19.76	92.06	43.79	-29.6	-31.4	13.0	3.12e-05	0	43	0	895483904	20	4430
2026-01-08 09:34:20.77	91.61	43.94	-29.8	-31.8	12.9	5.49e-05	0	43	0	898629632	20	4550
2026-01-08 09:34:21.78	91.16	44.10	-29.8	-31.8	12.9	4.73e-05	0	43	0	901775360	20	4559
2026-01-08 09:34:22.78	90.71	44.25	-29.8	-31.9	12.8	5.26e-05	0	43	0	904921088	20	4589
2026-01-08 09:34:23.79	90.25	44.40	-30.0	-32.4	12.5	1.03e-04	0	43	0	908066816	20	4735
2026-01-08 09:34:24.79	89.78	44.55	-30.1	-32.6	12.3	1.50e-04	0	43	0	911212544	20	4806
2026-01-08 09:34:25.80	89.31	44.70	-30.1	-32.5	12.4	1.43e-04	0	43	0	914358272	20	4771
2026-01-08 09:34:26.81	88.84	44.85	-30.0	-32.5	12.5	1.27e-04	0	43	0	917504000	20	4769
2026-01-08 09:34:27.81	88.36	44.99	-29.8	-31.9	12.8	9.00e-05	0	43	0	920649728	20	4562
2026-01-08 09:34:28.81	87.88	45.13	-29.5	-31.0	13.3	2.59e-05	0	43	0	923795456	20	4304
2026-01-08 09:34:29.82	87.39	45.28	-29.5	-31.2	13.3	1.60e-05	0	43	0	926941184	20	4359
2026-01-08 09:34:30.83	86.90	45.42	-29.6	-31.3	13.2	1.52e-05	0	43	0	930086912	20	4378
2026-01-08 09:34:31.83	86.41	45.55	-29.6	-31.3	13.2	2.44e-05	0	43	0	933232640	20	4395
2026-01-08 09:34:32.84	85.90	45.69	-29.4	-30.9	13.4	1.29e-05	0	43	0	936378368	20	4267
2026-01-08 09:34:33.85	85.40	45.82	-29.3	-31.0	13.7	4.50e-06	0	43	0	939524096	19	4402
2026-01-08 09:34:34.86	84.89	45.96	-29.1	-30.6	13.9	3.00e-06	0	43	0	942669824	19	4288
2026-01-08 09:34:35.87	84.37	46.09	-29.3	-31.2	13.6	3.00e-06	0	43	0	945815552	19	4450
2026-01-08 09:34:36.87	83.86	46.21	-29.8	-32.3	12.8	3.05e-05	0	43	0	948961280	19	4819
2026-01-08 09:34:37.87	83.34	46.34	-29.8	-32.4	12.8	5.49e-05	0	43	0	952107008	19	4848
2026-01-08 09:34:38.87	82.82	46.46	-29.8	-32.2	12.9	4.04e-05	0	43	0	955252736	19	4786
2026-01-08 09:34:39.87	82.29	46.58	-29.8	-32.5	12.8	6.40e-05	0	43	0	958398464	19	4861
2026-01-08 09:34:40.89	81.75	46.70	-29.8	-32.3	12.8	5.11e-05	0	43	0	961544192	19	4819
2026-01-08 09:34:41.89	81.22	46.82	-30.1	-32.5	12.4	9.46e-05	0	43	0	964689920	20	4774
2026-01-08 09:34:42.90	80.67	46.93	-30.3	-33.1	12.1	2.49e-04	0	43	0	967835648	20	4975
2026-01-08 09:34:43.90	80.13	47.04	-29.9	-32.2	12.6	1.17e-04	0	43	0	970981376	20	4674
2026-01-08 09:34:44.91	79.58	47.15	-29.7	-31.6	13.0	3.66e-05	0	43	0	974127104	20	4470
2026-01-08 09:34:45.92	79.03	47.26	-30.1	-32.6	12.4	1.03e-04	0	43	0	977272832	20	4802
2026-01-08 09:34:46.93	78.47	47.36	-30.1	-32.7	12.3	1.69e-04	0	43	0	980418560	20	4841
2026-01-08 09:34:47.94	77.90	47.46	-30.4	-33.5	11.8	3.86e-04	0	43	0	983564288	20	5121
2026-01-08 09:34:48.94	77.34	47.56	-30.5	-33.6	11.7	4.90e-04	0	43	0	986710016	20	5163
2026-01-08 09:34:49.95	76.77	47.65	-30.2	-32.9	12.1	3.36e-04	0	43	0	989855744	20	4923
2026-01-08 09:34:50.96	76.20	47.75	-30.4	-33.4	11.8	3.87e-04	0	43	0	993001472	20	5080
2026-01-08 09:34:51.97	75.62	47.83	-30.1	-32.7	12.3	2.46e-04	0	43	0	996147200	20	4851
2026-01-08 09:34:52.97	75.05	47.92	-29.6	-31.4	13.1	6.56e-05	0	43	0	999292928	20	4420
2026-01-08 09:34:53.98	74.47	48.00	-29.4	-30.8	13.4	1.37e-05	0	43	0	1002438656	20	4249
2026-01-08 09:34:54.98	73.89	48.08	-29.3	-30.6	13.5	1.06e-05	0	43	0	1005584384	20	4197
2026-01-08 09:34:55.99	73.30	48.16	-29.4	-31.0	13.4	1.29e-05	0	43	0	1008730112	20	4291
2026-01-08 09:34:57.00	72.71	48.23	-29.5	-31.0	13.3	1.90e-05	0	43	0	1011875840	20	4314
2026-01-08 09:34:58.00	72.12	48.30	-29.7	-31.7	12.9	5.03e-05	0	43	0	1015021568	20	4502
2026-01-08 09:34:59.00	71.53	48.37	-29.3	-31.2	13.7	1.75e-05	0	43	0	1018167296	19	4461
2026-01-08 09:35:00.01	70.93	48.44	-29.2	-30.9	13.8	4.50e-06	0	43	0	1021313024	19	4385
2026-01-08 09:35:01.01	70.33	48.50	-29.5	-31.6	13.4	9.90e-06	0	43	0	1024458752	19	4571
2026-01-08 09:35:02.02	69.73	48.55	-29.9	-32.7	12.7	6.02e-05	0	43	0	1027604480	19	4955
2026-01-08 09:35:03.03	69.12	48.61	-30.0	-32.5	12.4	1.41e-04	0	43	0	1030750208	20	4787
2026-01-08 09:35:04.04	68.51	48.66	-29.9	-32.0	12.7	9.76e-05	0	43	0	1033895936	20	4621
2026-01-08 09:35:05.05	67.90	48.71	-29.9	-32.3	12.6	8.92e-05	0	43	0	1037041664	20	4699
2026-01-08 09:35:06.06	67.29	48.75	-30.0	-32.5	12.4	1.17e-04	0	43	0	1040187392	20	4785
2026-01-08 09:35:07.05	66.69	48.79	-29.8	-32.0	12.7	6.86e-05	0	43	0	1043333120	20	4612
2026-01-08 09:35:08.06	66.07	48.83	-29.9	-32.2	12.6	9.15e-05	0	43	0	1046478848	20	4686
2026-01-08 09:35:09.07	65.45	48.86	-29.7	-31.7	12.9	6.10e-05	0	43	0	1049624576	20	4528
2026-01-08 09:35:10.07	64.84	48.89	-29.9	-32.1	12.7	8.62e-05	0	43	0	1052770304	20	4625
2026-01-08 09:35:11.08	64.22	48.92	-29.8	-31.8	12.8	6.33e-05	0	43	0	1055916032	20	4565
2026-01-08 09:35:12.09	63.60	48.94	-29.5	-31.2	13.2	3.89e-05	0	43	0	1059061760	20	4366
2026-01-08 09:35:13.10	62.98	48.96	-29.4	-30.9	13.4	1.60e-05	0	43	0	1062207488	20	4287
2026-01-08 09:35:14.09	62.37	48.97	-29.3	-30.7	13.5	8.30e-06	0	43	0	1065353216	20	4228
2026-01-08 09:35:15.09	61.76	48.98	-29.6	-31.3	13.1	2.21e-05	0	43	0	1068498944	20	4405
2026-01-08 09:35:16.10	61.13	48.99	-29.6	-31.4	13.0	3.81e-05	0	43	0	1071644672	20	4430
2026-01-08 09:35:17.11	60.51	49.00	-29.6	-31.3	13.2	3.35e-05	0	43	0	1074790400	20	4402
2026-01-08 09:35:18.12	59.89	49.00	-28.9	-30.2	14.1	2.20e-06	0	43	0	1077936128	19	4178
2026-01-08 09:35:19.12	59.27	49.00	-28.7	-30.2	14.5	7.00e-07	0	43	0	1081081856	18	4271
2026-01-08 09:35:20.13	58.65	48.99	-28.7	-30.1	14.5	7.00e-07	0	43	0	1084227584	18	4241
2026-01-08 09:35:21.14	58.03	48.98	-28.9	-30.7	14.2	0.00e+00	0	43	0	1087373312	18	4414
2026-01-08 09:35:22.14	57.41	48.97	-28.8	-30.5	14.3	2.20e-06	0	43	0	1090519040	18	4368
2026-01-08 09:35:23.14	56.79	48.95	-28.9	-30.8	14.2	2.20e-06	0	43	0	1093664768	18	4438
2026-01-08 09:35:24.14	56.18	48.93	-29.2	-31.4	13.7	3.00e-06	0	43	0	1096810496	18	4648
2026-01-08 09:35:25.15	55.56	48.90	-29.5	-31.6	13.3	1.29e-05	0	43	0	1099956224	19	4599
2026-01-08 09:35:26.15	54.95	48.88	-29.5	-31.7	13.3	1.98e-05	0	43	0	1103101952	19	4609
2026-01-08 09:35:27.16	54.33	48.85	-29.4	-31.3	13.5	1.29e-05	0	43	0	1106247680	19	4501
2026-01-08 09:35:28.16	53.72	48.81	-29.3	-31.0	13.7	4.50e-06	0	43	0	1109393408	19	4415
2026-01-08 09:35:29.17	53.11	48.77	-29.6	-31.7	13.3	1.29e-05	0	43	0	1112539136	19	4617
2026-01-08 09:35:30.18	52.49	48.73	-29.7	-32.1	13.1	3.05e-05	0	43	0	1115684864	19	4732
2026-01-08 09:35:31.18	51.89	48.69	-29.9	-32.5	12.8	6.33e-05	0	43	0	1118830592	19	4886
2026-01-08 09:35:32.19	51.28	48.64	-30.0	-32.8	12.6	7.85e-05	0	43	0	1121976320	19	4987
2026-01-08 09:35:33.20	50.67	48.58	-29.8	-32.4	12.9	5.18e-05	0	43	0	1125122048	19	4848
2026-01-08 09:35:34.20	50.07	48.53	-29.9	-32.5	12.8	4.42e-05	0	43	0	1128267776	19	4875
2026-01-08 09:35:35.21	49.47	48.47	-30.0	-32.4	12.4	1.36e-04	0	43	0	1131413504	20	4759
2026-01-08 09:35:36.21	48.87	48.41	-29.7	-31.6	13.0	5.95e-05	0	43	0	1134559232	20	4504
2026-01-08 09:35:37.22	48.28	48.34	-29.6	-31.4	13.1	1.98e-05	0	43	0	1137704960	20	4423
2026-01-08 09:35:38.22	47.69	48.27	-29.3	-30.8	13.5	1.14e-05	0	43	0	1140850688	20	4241
2026-01-08 09:35:39.22	47.10	48.20	-29.4	-31.4	13.5	7.60e-06	0	43	0	1143996416	19	4513
2026-01-08 09:35:40.23	46.51	48.13	-29.8	-32.3	12.9	3.20e-05	0	43	0	1147142144	19	4826
2026-01-08 09:35:41.23	45.93	48.05	-30.0	-32.4	12.5	1.19e-04	0	43	0	1150287872	20	4753
2026-01-08 09:35:42.24	45.35	47.97	-30.2	-32.8	12.1	2.50e-04	0	43	0	1153433600	20	4888
2026-01-08 09:35:43.25	44.76	47.88	-29.9	-32.2	12.5	1.50e-04	0	43	0	1156579328	20	4669
2026-01-08 09:35:44.25	44.19	47.80	-29.3	-30.7	13.5	2.21e-05	0	43	0	1159725056	20	4215
2026-01-08 09:35:45.26	43.62	47.71	-29.0	-30.5	14.0	3.80e-06	0	43	0	1162870784	19	4255
2026-01-08 09:35:46.27	43.05	47.61	-29.0	-30.4	14.0	3.80e-06	0	43	0	1166016512	19	4219
2026-01-08 09:35:47.27	42.49	47.52	-29.2	-31.0	13.7	3.00e-06	0	43	0	1169162240	19	4396
2026-01-08 09:35:48.28	41.92	47.42	-29.5	-31.5	13.4	1.06e-05	0	43	0	1172307968	19	4566
2026-01-08 09:35:49.28	41.37	47.32	-29.6	-31.8	13.2	2.21e-05	0	43	0	1175453696	19	4666
2026-01-08 09:35:50.29	40.81	47.21	-29.5	-31.5	13.3	1.98e-05	0	43	0	1178599424	19	4553
2026-01-08 09:35:51.29	40.26	47.11	-29.5	-31.5	13.3	2.13e-05	0	43	0	1181745152	19	4572
2026-01-08 09:35:52.30	39.72	47.00	-29.4	-31.4	13.4	1.75e-05	0	43	0	1184890880	19	4528
2026-01-08 09:35:53.30	39.18	46.89	-29.3	-31.1	13.5	6.10e-06	0	43	0	1188036608	19	4444
2026-01-08 09:35:54.31	38.64	46.77	-29.6	-31.8	13.0	3.12e-05	0	43	0	1191182336	19	4665
2026-01-08 09:35:55.31	38.10	46.66	-29.8	-32.5	12.7	8.62e-05	0	43	0	1194328064	19	4874
2026-01-08 09:35:56.32	37.57	46.54	-29.8	-32.4	12.7	7.85e-05	0	43	0	1197473792	19	4860
2026-01-08 09:35:57.33	37.04	46.41	-29.7	-32.0	13.0	6.25e-05	0	43	0	1200619520	19	4732
2026-01-08 09:35:58.33	36.52	46.29	-29.3	-31.2	13.5	1.29e-05	0	43	0	1203765248	19	4459
2026-01-08 09:35:59.34	36.00	46.16	-29.3	-31.2	13.6	6.10e-06	0	43	0	1206910976	19	4453
2026-01-08 09:36:00.35	35.49	46.04	-29.6	-31.7	13.2	2.13e-05	0	43	0	1210056704	19	4634
2026-01-08 09:36:01.35	34.98	45.91	-29.9	-32.6	12.7	3.20e-05	0	43	0	1213202432	19	4908
2026-01-08 09:36:02.36	34.47	45.77	-30.6	-33.6	11.4	5.97e-04	0	43	0	1216348160	21	5065
2026-01-08 09:36:03.37	33.97	45.64	-30.8	-34.0	11.0	1.74e-03	0	43	0	1219493888	21	5228
2026-01-08 09:36:04.38	33.47	45.50	-30.2	-32.3	12.0	5.16e-04	0	43	0	1222639616	21	4619
2026-01-08 09:36:05.38	32.98	45.36	-29.5	-31.1	13.2	3.05e-05	0	43	0	1225785344	20	4345
2026-01-08 09:36:06.39	32.49	45.22	-29.4	-31.4	13.4	9.90e-06	0	43	0	1228931072	19	4510
2026-01-08 09:36:07.39	32.01	45.08	-29.8	-32.3	12.8	3.50e-05	0	43	0	1232076800	19	4829
2026-01-08 09:36:08.40	31.53	44.94	-30.5	-33.3	11.5	2.21e-04	0	43	0	1235222528	21	4952
2026-01-08 09:36:09.40	31.05	44.79	-31.5	-35.4	9.7	7.66e-03	0	43	0	1238368256	22	5688
2026-01-08 09:36:10.41	30.58	44.65	-31.5	-35.0	9.7	1.24e-02	0	43	0	1241513984	23	5401
2026-01-08 09:36:11.42	30.11	44.50	-30.9	-33.2	10.8	4.42e-03	0	43	0	1244659712	23	4720
2026-01-08 09:36:12.43	29.65	44.35	-30.4	-32.3	11.7	6.99e-04	0	43	0	1247805440	22	4509
2026-01-08 09:36:13.43	29.20	44.20	-30.5	-32.5	11.6	4.85e-04	0	43	0	1250951168	22	4578
2026-01-08 09:36:14.43	28.74	44.04	-30.5	-32.8	11.5	1.15e-03	0	43	0	1254096896	22	4648
2026-01-08 09:36:15.43	28.30	43.89	-30.5	-32.8	11.5	5.43e-04	0	43	0	1257242624	22	4665
2026-01-08 09:36:16.44	27.85	43.73	-31.4	-35.1	9.9	4.57e-03	0	43	0	1260388352	22	5548
2026-01-08 09:36:17.45	27.41	43.58	-32.2	-36.8	8.1	5.53e-02	0	43	0	1263534080	24	6139
2026-01-08 09:36:18.44	26.98	43.42	-32.2	-36.9	7.8	8.25e-02	0	43	0	1266679808	24	6191
2026-01-08 09:36:19.45	26.55	43.26	-31.7	-35.2	8.9	4.37e-02	0	43	0	1269825536	24	5402
2026-01-08 09:36:20.45	26.12	43.10	-31.4	-34.2	9.7	1.24e-02	0	43	0	1272971264	24	4966
2026-01-08 09:36:21.46	25.70	42.94	-31.5	-34.7	9.5	1.23e-02	0	43	0	1276116992	24	5169
2026-01-08 09:36:22.46	25.28	42.78	-31.7	-35.1	9.2	2.39e-02	0	43	0	1279262720	24	5356
2026-01-08 09:36:23.47	24.87	42.61	-31.3	-34.4	10.0	1.06e-02	0	43	0	1282408448	23	5141
2026-01-08 09:36:24.47	24.46	42.45	-31.1	-33.9	10.3	5.37e-03	0	43	0	1285554176	23	4970
2026-01-08 09:36:25.48	24.05	42.28	-31.4	-34.8	9.8	6.32e-03	0	43	0	1288699904	23	5323
2026-01-08 09:36:26.49	23.65	42.11	-31.5	-34.9	9.7	1.51e-02	0	43	0	1291845632	23	5365
2026-01-08 09:36:27.50	23.25	41.95	-30.7	-33.3	11.1	2.96e-03	0	43	0	1294991360	22	4843
2026-01-08 09:36:28.50	22.86	41.78	-29.9	-31.6	12.5	2.39e-04	0	43	0	1298137088	21	4377
2026-01-08 09:36:29.51	22.47	41.61	-29.4	-31.0	13.2	1.60e-05	0	43	0	1301282816	20	4292
2026-01-08 09:36:30.52	22.08	41.44	-29.5	-31.3	13.1	1.83e-05	0	43	0	1304428544	20	4386
2026-01-08 09:36:31.52	21.70	41.27	-30.0	-32.4	12.3	8.46e-05	0	43	0	1307574272	20	4765
2026-01-08 09:36:32.53	21.32	41.10	-30.8	-34.1	10.9	8.60e-04	0	43	0	1310720000	21	5246
2026-01-08 09:36:33.53	20.95	40.93	-31.1	-34.5	10.3	5.38e-03	0	43	0	1313865728	22	5322
2026-01-08 09:36:34.54	20.58	40.76	-31.2	-34.6	10.2	5.31e-03	0	43	0	1317011456	22	5344
2026-01-08 09:36:35.54	20.22	40.59	-30.8	-33.6	10.8	3.53e-03	0	43	0	1320157184	22	4970
2026-01-08 09:36:36.55	19.86	40.41	-30.0	-31.9	12.3	2.55e-04	0	43	0	1323302912	21	4471
2026-01-08 09:36:37.55	19.50	40.24	-29.4	-30.9	13.2	3.96e-05	0	43	0	1326448640	20	4291
2026-01-08 09:36:38.55	19.15	40.07	-29.1	-30.7	13.7	7.60e-06	0	43	0	1329594368	19	4338
2026-01-08 09:36:39.56	18.80	39.89	-29.1	-30.7	13.6	8.30e-06	0	43	0	1332740096	19	4340
2026-01-08 09:36:40.57	18.45	39.72	-29.3	-31.2	13.4	1.52e-05	0	43	0	1335885824	19	4481
2026-01-08 09:36:41.58	18.11	39.54	-29.7	-32.1	12.8	3.66e-05	0	43	0	1339031552	19	4761
2026-01-08 09:36:42.59	17.77	39.37	-30.0	-32.5	12.2	1.86e-04	0	43	0	1342177280	20	4782
2026-01-08 09:36:43.59	17.44	39.19	-30.1	-32.8	12.0	2.69e-04	0	43	0	1345323008	20	4896
2026-01-08 09:36:44.59	17.11	39.02	-29.9	-32.1	12.4	1.68e-04	0	43	0	1348468736	20	4677
2026-01-08 09:36:45.60	16.78	38.84	-29.3	-30.7	13.3	3.12e-05	0	43	0	1351614464	20	4242
2026-01-08 09:36:46.61	16.45	38.67	-29.0	-30.5	13.8	6.80e-06	0	43	0	1354760192	19	4267
2026-01-08 09:36:47.61	16.13	38.49	-29.1	-30.7	13.7	3.80e-06	0	43	0	1357905920	19	4315
2026-01-08 09:36:48.62	15.81	38.31	-29.1	-30.8	13.6	9.90e-06	0	43	0	1361051648	19	4355
2026-01-08 09:36:49.62	15.50	38.14	-29.3	-31.3	13.3	1.06e-05	0	43	0	1364197376	19	4502
2026-01-08 09:36:50.63	15.19	37.96	-29.6	-31.9	13.0	4.19e-05	0	43	0	1367343104	19	4684
2026-01-08 09:36:51.64	14.88	37.78	-29.8	-32.3	12.7	5.26e-05	0	43	0	1370488832	19	4838
2026-01-08 09:36:52.64	14.58	37.61	-29.8	-32.4	12.7	7.93e-05	0	43	0	1373634560	19	4855
2026-01-08 09:36:53.65	14.28	37.43	-29.8	-32.5	12.6	1.01e-04	0	43	0	1376780288	19	4890
2026-01-08 09:36:54.65	13.99	37.26	-29.8	-32.4	12.6	9.76e-05	0	43	0	1379926016	19	4875
2026-01-08 09:36:55.66	13.69	37.08	-29.5	-31.7	13.0	6.40e-05	0	43	0	1383071744	19	4647
2026-01-08 09:36:56.67	13.40	36.90	-29.1	-30.7	13.6	9.10e-06	0	43	0	1386217472	19	4339
2026-01-08 09:36:57.68	13.11	36.73	-28.6	-30.1	14.3	1.50e-06	0	43	0	1389363200	18	4260
2026-01-08 09:36:58.69	12.83	36.55	-28.3	-29.3	14.8	0.00e+00	0	43	0	1392508928	18	4029
2026-01-08 09:36:59.68	12.55	36.38	-28.2	-29.6	14.8	0.00e+00	0	43	0	1395654656	17	4219
2026-01-08 09:37:00.69	12.27	36.20	-28.3	-29.8	14.7	7.00e-07	0	43	0	1398800384	17	4293
2026-01-08 09:37:01.69	12.00	36.03	-28.3	-29.9	14.6	0.00e+00	0	43	0	1401946112	17	4314
2026-01-08 09:37:02.69	11.73	35.85	-28.4	-30.2	14.5	0.00e+00	0	43	0	1405091840	17	4397
2026-01-08 09:37:03.70	11.45	35.68	-28.3	-29.9	14.6	0.00e+00	0	43	0	1408237568	17	4308
2026-01-08 09:37:04.71	11.19	35.50	-28.0	-29.2	15.0	0.00e+00	0	43	0	1411383296	17	4126
2026-01-08 09:37:05.72	10.92	35.33	-27.8	-28.8	15.3	0.00e+00	0	43	0	1414529024	17	4008
2026-01-08 09:37:06.72	10.66	35.16	-27.9	-28.9	15.2	0.00e+00	0	43	0	1417674752	17	4037
2026-01-08 09:37:07.73	10.41	34.98	-27.8	-28.7	15.3	0.00e+00	0	43	0	1420820480	17	3985
2026-01-08 09:37:08.73	10.15	34.81	-27.9	-28.9	15.2	0.00e+00	0	43	0	1423966208	17	4040
2026-01-08 09:37:09.74	9.90	34.64	-28.0	-29.1	15.1	0.00e+00	0	43	0	1427111936	17	4091
2026-01-08 09:37:10.74	9.65	34.46	-28.1	-29.4	14.9	0.00e+00	0	43	0	1430257664	17	4164
2026-01-08 09:37:11.75	9.40	34.29	-28.1	-29.3	14.9	0.00e+00	0	43	0	1433403392	17	4147
2026-01-08 09:37:12.75	9.16	34.12	-28.1	-29.3	14.9	0.00e+00	0	43	0	1436549120	17	4151
2026-01-08 09:37:13.76	8.92	33.95	-28.3	-29.8	14.6	7.00e-07	0	43	0	1439694848	17	4283
2026-01-08 09:37:14.77	8.68	33.77	-28.5	-30.2	14.4	3.80e-06	0	43	0	1441792000	17	4410
2026-01-08 09:37:15.77	8.44	33.60	-28.5	-30.4	14.3	0.00e+00	0	43	0	1445986304	17	4454
2026-01-08 09:37:16.78	8.21	33.43	-28.5	-30.4	14.3	1.50e-06	0	43	0	1449132032	17	4461
2026-01-08 09:37:17.79	7.97	33.26	-28.6	-30.5	14.2	7.00e-07	0	43	0	1452277760	17	4508
2026-01-08 09:37:18.79	7.75	33.09	-28.4	-30.2	14.4	7.00e-07	0	43	0	1455423488	17	4399
2026-01-08 09:37:19.80	7.52	32.92	-28.3	-29.9	14.6	7.00e-07	0	43	0	1458569216	17	4323
2026-01-08 09:37:20.80	7.30	32.76	-28.3	-29.7	14.7	0.00e+00	0	43	0	1461714944	17	4271
2026-01-08 09:37:21.81	7.07	32.59	-28.5	-30.2	14.4	0.00e+00	0	43	0	1463812096	17	4415
2026-01-08 09:37:22.82	6.85	32.42	-28.4	-30.1	14.4	2.20e-06	0	43	0	1466957824	17	4391
2026-01-08 09:37:23.82	6.64	32.25	-28.6	-30.6	14.2	0.00e+00	0	43	0	1470103552	17	4538
2026-01-08 09:37:24.83	6.42	32.08	-28.6	-30.6	14.2	4.50e-06	0	43	0	1474297856	17	4518
2026-01-08 09:37:25.84	6.21	31.92	-28.7	-30.9	14.0	2.20e-06	0	43	0	1477443584	17	4626
2026-01-08 09:37:26.85	5.99	31.75	-28.5	-30.4	14.3	4.50e-06	0	43	0	1480589312	17	4474
2026-01-08 09:37:27.85	5.79	31.59	-28.3	-29.8	14.6	1.50e-06	0	43	0	1483735040	17	4296
2026-01-08 09:37:28.86	5.58	31.42	-28.0	-29.2	14.9	0.00e+00	0	43	0	1486880768	17	4129
2026-01-08 09:37:29.87	5.38	31.26	-27.9	-29.0	15.0	0.00e+00	0	43	0	1488977920	17	4065
2026-01-08 09:37:30.87	5.17	31.09	-27.9	-29.0	15.0	0.00e+00	0	43	0	1493172224	17	4082
2026-01-08 09:37:31.88	4.97	30.93	-27.9	-29.0	15.1	0.00e+00	0	43	0	1496317952	17	4061
2026-01-08 09:37:32.89	4.77	30.76	-27.7	-29.1	15.3	0.00e+00	0	43	0	1499463680	16	4202
2026-01-08 09:37:33.89	4.58	30.60	-28.0	-29.8	14.9	0.00e+00	0	43	0	1502609408	16	4395
2026-01-08 09:37:34.89	4.39	30.44	-28.0	-29.8	14.9	0.00e+00	0	43	0	1505755136	16	4395
2026-01-08 09:37:35.89	4.20	30.28	-28.2	-30.3	14.6	1.50e-06	0	43	0	1508900864	16	4553
2026-01-08 09:37:36.90	4.00	30.12	-28.1	-29.9	14.8	0.00e+00	0	43	0	1510998016	16	4442
2026-01-08 09:37:37.91	3.82	29.96	-28.0	-29.6	15.0	0.00e+00	0	43	0	1514143744	16	4357
2026-01-08 09:37:38.91	3.63	29.80	-27.9	-29.5	15.0	7.00e-07	0	43	0	1517289472	16	4330
2026-01-08 09:37:39.92	3.45	29.64	-27.9	-29.5	15.0	0.00e+00	0	43	0	1520435200	16	4336
2026-01-08 09:37:40.93	3.26	29.48	-27.8	-29.3	15.1	0.00e+00	0	43	0	1524629504	16	4275
2026-01-08 09:37:41.93	3.08	29.32	-27.9	-29.5	15.0	0.00e+00	0	43	0	1527775232	16	4326
2026-01-08 09:37:42.94	2.90	29.17	-27.9	-29.4	15.0	0.00e+00	0	43	0	1530920960	16	4301
2026-01-08 09:37:43.95	2.72	29.01	-27.9	-29.5	15.0	0.00e+00	0	43	0	1534066688	16	4318
2026-01-08 09:37:44.95	2.55	28.85	-27.8	-29.1	15.2	0.00e+00	0	43	0	1536163840	16	4216
2026-01-08 09:37:45.96	2.38	28.70	-27.7	-28.9	15.4	0.00e+00	0	43	0	1539309568	16	4159
2026-01-08 09:37:46.96	2.20	28.54	-27.7	-29.0	15.3	0.00e+00	0	43	0	1542455296	16	4179
2026-01-08 09:37:47.97	2.03	28.39	-27.4	-28.4	15.6	0.00e+00	0	43	0	1545601024	16	4029
2026-01-08 09:37:48.97	1.87	28.23	-27.5	-28.6	15.5	0.00e+00	0	43	0	1549795328	16	4086
2026-01-08 09:37:49.98	1.70	28.08	-27.4	-28.2	15.7	0.00e+00	0	43	0	1552941056	16	3977
2026-01-08 09:37:50.98	1.53	27.93	-27.4	-28.2	15.7	0.00e+00	0	43	0	1556086784	16	3979
2026-01-08 09:37:51.99	1.37	27.77	-27.4	-28.3	15.7	0.00e+00	0	43	0	1559232512	16	4001
2026-01-08 09:37:53.01	1.21	27.62	-27.5	-28.5	15.5	0.00e+00	0	43	0	1561329664	16	4058
2026-01-08 09:37:54.02	1.04	27.47	-27.4	-28.3	15.6	0.00e+00	0	43	0	1564475392	16	4009
2026-01-08 09:37:55.02	0.89	27.32	-27.4	-28.4	15.6	0.00e+00	0	43	0	1567621120	16	4024
2026-01-08 09:37:56.02	0.73	27.17	-27.5	-28.6	15.5	0.00e+00	0	43	0	1571815424	16	4066
2026-01-08 09:37:57.03	0.57	27.02	-27.4	-28.3	15.6	0.00e+00	0	43	0	1574961152	16	4009
2026-01-08 09:37:58.03	0.42	26.87	-27.4	-28.3	15.6	7.00e-07	0	43	0	1578106880	16	4008
2026-01-08 09:37:59.03	0.27	26.72	-27.4	-28.4	15.5	0.00e+00	0	43	0	1581252608	16	4039
2026-01-08 09:38:00.04	0.11	26.58	-27.1	-28.2	15.8	0.00e+00	0	43	0	1583349760	15	4088
2026-01-08 09:38:01.04	359.96	26.43	-26.9	-27.8	16.0	0.00e+00	0	43	0	1586495488	15	3984
2026-01-08 09:38:02.05	359.82	26.28	-26.9	-27.8	16.0	0.00e+00	0	43	0	1589641216	15	3984
2026-01-08 09:38:03.06	359.67	26.14	-27.0	-27.9	15.9	0.00e+00	0	43	0	1592786944	15	4014
2026-01-08 09:38:04.07	359.52	25.99	-26.7	-27.9	16.2	0.00e+00	0	43	0	1595932672	14	4103
2026-01-08 09:38:05.07	359.38	25.85	-26.6	-27.7	16.3	0.00e+00	0	43	0	1599078400	14	4053
2026-01-08 09:38:06.07	359.23	25.70	-26.7	-27.8	16.3	0.00e+00	0	43	0	1603272704	14	4076
2026-01-08 09:38:07.07	359.09	25.56	-26.7	-27.7	16.4	0.00e+00	0	43	0	1606418432	14	4053
2026-01-08 09:38:08.08	358.95	25.42	-26.8	-28.0	16.2	0.00e+00	0	43	0	1608515584	14	4130
2026-01-08 09:38:09.08	358.81	25.27	-26.8	-28.1	16.1	0.00e+00	0	43	0	1611661312	14	4153
2026-01-08 09:38:10.09	358.67	25.13	-27.0	-28.4	15.9	0.00e+00	0	43	0	1614807040	14	4242
2026-01-08 09:38:11.09	358.54	24.99	-27.0	-28.4	15.9	0.00e+00	0	43	0	1617952768	14	4251
2026-01-08 09:38:12.09	358.40	24.85	-27.1	-28.7	15.8	0.00e+00	0	43	0	1621098496	14	4323
2026-01-08 09:38:13.10	358.27	24.71	-27.1	-28.7	15.7	0.00e+00	0	43	0	1624244224	14	4334
2026-01-08 09:38:14.10	358.14	24.57	-27.3	-29.1	15.6	0.00e+00	0	43	0	1627389952	14	4430
2026-01-08 09:38:15.11	358.00	24.43	-27.3	-29.1	15.5	0.00e+00	0	43	0	1630535680	14	4439
2026-01-08 09:38:16.12	357.87	24.29	-27.4	-29.5	15.3	0.00e+00	0	43	0	1633681408	14	4555
2026-01-08 09:38:17.13	357.74	24.16	-27.5	-29.1	15.2	0.00e+00	0	43	0	1636827136	15	4339
2026-01-08 09:38:18.13	357.61	24.02	-27.6	-29.3	15.1	0.00e+00	0	43	0	1639972864	15	4402
2026-01-08 09:38:19.13	357.49	23.88	-27.7	-29.6	14.9	0.00e+00	0	43	0	1643118592	15	4486
2026-01-08 09:38:20.13	357.36	23.75	-27.6	-29.4	15.1	0.00e+00	0	43	0	1646264320	15	4424
2026-01-08 09:38:21.14	357.24	23.61	-27.7	-29.5	15.0	0.00e+00	0	43	0	1649410048	15	4453
2026-01-08 09:38:22.15	357.11	23.48	-27.7	-29.5	15.0	0.00e+00	0	43	0	1652555776	15	4451
2026-01-08 09:38:23.15	356.99	23.34	-27.8	-29.7	14.9	0.00e+00	0	43	0	1655701504	15	4522
2026-01-08 09:38:24.15	356.87	23.21	-27.7	-29.6	14.9	0.00e+00	0	43	0	1658847232	15	4489
2026-01-08 09:38:25.16	356.75	23.07	-27.7	-29.5	14.9	0.00e+00	0	43	0	1661992960	15	4466
2026-01-08 09:38:26.16	356.63	22.94	-27.6	-29.3	15.1	0.00e+00	0	43	0	1665138688	15	4405
2026-01-08 09:38:27.17	356.51	22.81	-27.5	-29.1	15.2	0.00e+00	0	43	0	1668284416	15	4331
2026-01-08 09:38:28.18	356.39	22.68	-27.4	-28.9	15.3	0.00e+00	0	43	0	1671430144	15	4285
2026-01-08 09:38:29.18	356.28	22.55	-27.5	-29.0	15.2	0.00e+00	0	43	0	1674575872	15	4305
2026-01-08 09:38:30.19	356.16	22.42	-27.2	-28.5	15.5	0.00e+00	0	43	0	1677721600	15	4168
2026-01-08 09:38:31.19	356.05	22.29	-27.1	-28.2	15.7	0.00e+00	0	43	0	1680867328	15	4087
2026-01-08 09:38:32.20	355.93	22.16	-27.1	-28.1	15.7	0.00e+00	0	43	0	1684013056	15	4067
2026-01-08 09:38:33.20	355.82	22.03	-27.1	-28.2	15.8	0.00e+00	0	43	0	1687158784	15	4089
2026-01-08 09:38:34.20	355.71	21.90	-27.0	-28.1	15.8	0.00e+00	0	43	0	1690304512	15	4056
2026-01-08 09:38:35.21	355.60	21.77	-27.0	-28.0	15.8	0.00e+00	0	43	0	1693450240	15	4046
2026-01-08 09:38:36.21	355.49	21.64	-27.0	-28.1	15.8	0.00e+00	0	43	0	1696595968	15	4050
2026-01-08 09:38:37.21	355.38	21.52	-27.0	-28.1	15.8	0.00e+00	0	43	0	1699741696	15	4064
2026-01-08 09:38:38.22	355.27	21.39	-27.1	-28.1	15.7	0.00e+00	0	43	0	1702887424	15	4072
2026-01-08 09:38:39.23	355.16	21.26	-27.2	-28.6	15.5	7.00e-07	0	43	0	1706033152	15	4188
2026-01-08 09:38:40.24	355.06	21.14	-27.3	-28.6	15.4	0.00e+00	0	43	0	1709178880	15	4196
2026-01-08 09:38:41.24	354.95	21.01	-27.3	-28.6	15.4	0.00e+00	0	43	0	1712324608	15	4196
2026-01-08 09:38:42.25	354.85	20.89	-27.3	-28.7	15.4	7.00e-07	0	43	0	1715470336	15	4225
2026-01-08 09:38:43.26	354.75	20.77	-27.3	-28.7	15.3	0.00e+00	0	43	0	1718616064	15	4236
2026-01-08 09:38:44.25	354.64	20.64	-27.4	-29.0	15.2	0.00e+00	0	43	0	1721761792	15	4303
2026-01-08 09:38:45.26	354.54	20.52	-27.4	-29.0	15.2	0.00e+00	0	43	0	1724907520	15	4297
2026-01-08 09:38:46.27	354.44	20.40	-27.6	-29.4	15.0	0.00e+00	0	43	0	1728053248	15	4425
2026-01-08 09:38:47.27	354.34	20.28	-27.4	-28.9	15.2	0.00e+00	0	43	0	1731198976	15	4271
2026-01-08 09:38:48.27	354.24	20.16	-27.2	-28.5	15.5	0.00e+00	0	43	0	1734344704	15	4168
2026-01-08 09:38:49.28	354.14	20.03	-27.2	-28.5	15.4	0.00e+00	0	43	0	1737490432	15	4178
2026-01-08 09:38:50.28	354.05	19.91	-27.2	-28.5	15.4	0.00e+00	0	43	0	1740636160	15	4166
2026-01-08 09:38:51.29	353.95	19.79	-27.1	-28.3	15.5	0.00e+00	0	43	0	1743781888	15	4124
2026-01-08 09:38:52.29	353.85	19.68	-27.3	-28.7	15.3	0.00e+00	0	43	0	1746927616	15	4233
2026-01-08 09:38:53.30	353.76	19.56	-27.4	-28.8	15.2	0.00e+00	0	43	0	1750073344	15	4266
2026-01-08 09:38:54.31	353.66	19.44	-27.1	-28.2	15.6	0.00e+00	0	43	0	1753219072	15	4091
2026-01-08 09:38:55.31	353.57	19.32	-27.1	-28.2	15.6	0.00e+00	0	43	0	1756364800	15	4083
2026-01-08 09:38:56.32	353.48	19.20	-27.0	-28.1	15.6	0.00e+00	0	43	0	1759510528	15	4066
2026-01-08 09:38:57.32	353.38	19.09	-27.0	-28.0	15.7	0.00e+00	0	43	0	1762656256	15	4029
2026-01-08 09:38:58.33	353.29	18.97	-27.0	-28.1	15.6	0.00e+00	0	43	0	1765801984	15	4058
2026-01-08 09:38:59.33	353.20	18.85	-27.0	-27.9	15.7	0.00e+00	0	43	0	1768947712	15	4013
2026-01-08 09:39:00.34	353.11	18.74	-27.0	-28.0	15.6	0.00e+00	0	43	0	1772093440	15	4055
2026-01-08 09:39:01.35	353.02	18.62	-27.1	-28.1	15.6	0.00e+00	0	43	0	1775239168	15	4079
2026-01-08 09:39:02.35	352.93	18.51	-27.0	-27.9	15.7	0.00e+00	0	43	0	1778384896	15	4025
2026-01-08 09:39:03.36	352.84	18.39	-26.9	-27.9	15.7	0.00e+00	0	43	0	1781530624	15	4011
2026-01-08 09:39:04.36	352.76	18.28	-26.9	-27.9	15.7	7.00e-07	0	43	0	1784676352	15	4015
2026-01-08 09:39:05.37	352.67	18.17	-27.0	-28.0	15.6	0.00e+00	0	43	0	1787822080	15	4053
2026-01-08 09:39:06.37	352.59	18.05	-27.1	-28.2	15.6	0.00e+00	0	43	0	1790967808	15	4087
2026-01-08 09:39:07.37	352.50	17.94	-27.1	-28.3	15.5	0.00e+00	0	43	0	1794113536	15	4112
2026-01-08 09:39:08.37	352.42	17.83	-27.2	-28.5	15.4	0.00e+00	0	43	0	1797259264	15	4183
2026-01-08 09:39:09.38	352.33	17.72	-27.2	-28.6	15.3	0.00e+00	0	43	0	1800404992	15	4196
2026-01-08 09:39:10.38	352.25	17.61	-27.4	-28.8	15.2	0.00e+00	0	43	0	1803550720	15	4267
2026-01-08 09:39:11.39	352.17	17.50	-27.4	-28.8	15.2	0.00e+00	0	43	0	1806696448	15	4267
2026-01-08 09:39:12.40	352.08	17.39	-27.4	-29.0	15.1	7.00e-07	0	43	0	1809842176	15	4316
2026-01-08 09:39:13.40	352.00	17.28	-27.5	-29.2	15.0	0.00e+00	0	43	0	1812987904	15	4361
2026-01-08 09:39:14.41	351.92	17.17	-27.6	-29.3	14.9	0.00e+00	0	43	0	1816133632	15	4411
2026-01-08 09:39:15.41	351.84	17.06	-27.6	-29.4	14.8	7.00e-07	0	43	0	1819279360	15	4420
2026-01-08 09:39:16.41	351.76	16.95	-27.5	-29.3	14.9	0.00e+00	0	43	0	1822425088	15	4402
2026-01-08 09:39:17.41	351.68	16.84	-27.6	-29.4	14.8	0.00e+00	0	43	0	1825570816	15	4433
2026-01-08 09:39:18.42	351.60	16.73	-27.7	-29.7	14.7	0.00e+00	0	43	0	1828716544	15	4506
2026-01-08 09:39:19.42	351.53	16.63	-27.8	-29.8	14.6	7.00e-07	0	43	0	1831862272	15	4535
2026-01-08 09:39:20.43	351.45	16.52	-27.8	-29.8	14.6	7.00e-07	0	43	0	1835008000	15	4557
2026-01-08 09:39:21.44	351.37	16.41	-27.8	-30.0	14.5	7.00e-07	0	43	0	1838153728	15	4596
2026-01-08 09:39:22.44	351.30	16.31	-27.8	-29.9	14.5	7.00e-07	0	43	0	1841299456	15	4574
2026-01-08 09:39:23.45	351.22	16.20	-27.9	-30.1	14.4	0.00e+00	0	43	0	1844445184	15	4647
2026-01-08 09:39:24.46	351.14	16.10	-27.8	-30.0	14.5	0.00e+00	0	43	0	1847590912	15	4608
2026-01-08 09:39:25.46	351.07	15.99	-27.9	-30.1	14.4	0.00e+00	0	43	0	1850736640	15	4633
2026-01-08 09:39:26.46	351.00	15.89	-28.1	-30.1	14.3	7.00e-07	0	43	0	1853882368	16	4519
2026-01-08 09:39:27.46	350.92	15.79	-28.0	-29.9	14.4	7.00e-07	0	43	0	1857028096	16	4448
2026-01-08 09:39:28.47	350.85	15.68	-28.1	-30.0	14.3	0.00e+00	0	43	0	1860173824	16	4487
2026-01-08 09:39:29.48	350.78	15.58	-28.1	-30.0	14.4	3.80e-06	0	43	0	1863319552	16	4485
2026-01-08 09:39:30.48	350.71	15.48	-28.0	-29.8	14.4	0.00e+00	0	43	0	1866465280	16	4447
2026-01-08 09:39:31.49	350.63	15.37	-28.1	-30.0	14.3	1.50e-06	0	43	0	1869611008	16	4504
2026-01-08 09:39:32.50	350.56	15.27	-28.1	-30.0	14.3	1.50e-06	0	43	0	1872756736	16	4487
2026-01-08 09:39:33.50	350.49	15.17	-28.0	-29.8	14.4	0.00e+00	0	43	0	1875902464	16	4439
2026-01-08 09:39:34.51	350.42	15.07	-28.1	-30.0	14.3	7.00e-07	0	43	0	1879048192	16	4490
2026-01-08 09:39:35.52	350.35	14.97	-28.1	-30.0	14.3	0.00e+00	0	43	0	1882193920	16	4502
2026-01-08 09:39:36.52	350.29	14.87	-27.9	-29.6	14.5	0.00e+00	0	43	0	1885339648	16	4381
2026-01-08 09:39:37.53	350.22	14.76	-27.9	-29.6	14.6	7.00e-07	0	43	0	1888485376	16	4367
2026-01-08 09:39:38.53	350.15	14.67	-28.0	-29.8	14.4	7.00e-07	0	43	0	1891631104	16	4440
2026-01-08 09:39:39.54	350.08	14.57	-28.0	-29.8	14.4	0.00e+00	0	43	0	1894776832	16	4427
2026-01-08 09:39:40.54	350.02	14.47	-27.9	-29.7	14.5	0.00e+00	0	43	0	1897922560	16	4390
2026-01-08 09:39:41.54	349.95	14.37	-27.9	-29.7	14.5	0.00e+00	0	43	0	1901068288	16	4392
2026-01-08 09:39:42.55	349.88	14.27	-28.0	-29.8	14.4	0.00e+00	0	43	0	1904214016	16	4448
2026-01-08 09:39:43.56	349.82	14.17	-27.9	-29.6	14.5	0.00e+00	0	43	0	1907359744	16	4392
2026-01-08 09:39:44.56	349.75	14.07	-28.0	-29.8	14.4	2.20e-06	0	43	0	1910505472	16	4430
2026-01-08 09:39:45.57	349.69	13.98	-28.0	-29.8	14.3	1.50e-06	0	43	0	1913651200	16	4447
2026-01-08 09:39:46.58	349.62	13.88	-27.9	-29.7	14.5	7.00e-07	0	43	0	1916796928	16	4399
2026-01-08 09:39:47.58	349.56	13.78	-28.0	-29.7	14.4	7.00e-07	0	43	0	1919942656	16	4410
2026-01-08 09:39:48.59	349.50	13.69	-27.9	-29.6	14.5	0.00e+00	0	43	0	1923088384	16	4376
2026-01-08 09:39:49.59	349.43	13.59	-28.0	-29.7	14.4	1.50e-06	0	43	0	1926234112	16	4413
2026-01-08 09:39:50.60	349.37	13.50	-27.9	-29.6	14.4	1.50e-06	0	43	0	1929379840	16	4379
2026-01-08 09:39:51.60	349.31	13.40	-27.9	-29.6	14.4	1.50e-06	0	43	0	1932525568	16	4392
2026-01-08 09:39:52.60	349.25	13.31	-28.1	-30.0	14.2	0.00e+00	0	43	0	1935671296	16	4498
2026-01-08 09:39:53.61	349.19	13.21	-28.0	-30.0	14.3	1.50e-06	0	43	0	1938817024	16	4483
2026-01-08 09:39:54.63	349.13	13.12	-28.0	-29.8	14.3	7.00e-07	0	43	0	1941962752	16	4439
2026-01-08 09:39:55.63	349.07	13.02	-27.8	-29.5	14.5	1.50e-06	0	43	0	1945108480	16	4338
2026-01-08 09:39:56.64	349.01	12.93	-28.0	-29.7	14.4	2.20e-06	0	43	0	1948254208	16	4420
2026-01-08 09:39:57.65	348.95	12.83	-27.9	-29.6	14.4	7.00e-07	0	43	0	1951399936	16	4374
2026-01-08 09:39:58.66	348.89	12.74	-27.9	-29.7	14.4	7.00e-07	0	43	0	1954545664	16	4400
2026-01-08 09:39:59.66	348.83	12.65	-28.0	-29.9	14.2	7.00e-07	0	43	0	1957691392	16	4472
2026-01-08 09:40:00.66	348.77	12.56	-28.1	-30.0	14.2	4.50e-06	0	43	0	1960837120	16	4492
2026-01-08 09:40:01.67	348.71	12.46	-28.0	-29.9	14.2	0.00e+00	0	43	0	1963982848	16	4470
2026-01-08 09:40:02.68	348.65	12.37	-28.0	-29.9	14.2	0.00e+00	0	43	0	1967128576	16	4484
2026-01-08 09:40:03.69	348.60	12.28	-28.0	-29.9	14.2	3.80e-06	0	43	0	1970274304	16	4462
2026-01-08 09:40:04.69	348.54	12.19	-28.1	-30.0	14.1	7.00e-07	0	43	0	1973420032	16	4502
2026-01-08 09:40:05.70	348.48	12.10	-28.1	-30.1	14.1	1.50e-06	0	43	0	1976565760	16	4516
2026-01-08 09:40:06.71	348.43	12.01	-28.1	-30.1	14.1	3.00e-06	0	43	0	1979711488	16	4524
2026-01-08 09:40:07.72	348.37	11.92	-28.1	-30.2	14.0	2.20e-06	0	43	0	1982857216	16	4547
2026-01-08 09:40:08.72	348.32	11.83	-28.1	-30.2	14.1	1.50e-06	0	43	0	1986002944	16	4553
2026-01-08 09:40:09.73	348.26	11.74	-28.2	-30.3	14.0	3.00e-06	0	43	0	1989148672	16	4586
2026-01-08 09:40:10.74	348.21	11.65	-28.2	-30.3	14.0	3.00e-06	0	43	0	1992294400	16	4580
2026-01-08 09:40:11.75	348.15	11.56	-28.2	-30.4	13.9	2.20e-06	0	43	0	1995440128	16	4606
2026-01-08 09:40:12.75	348.10	11.47	-28.3	-30.6	13.7	3.00e-06	0	43	0	1998585856	16	4687
2026-01-08 09:40:13.76	348.04	11.38	-28.3	-30.6	13.8	6.10e-06	0	43	0	2001731584	16	4673
2026-01-08 09:40:14.76	347.99	11.30	-28.2	-30.3	13.9	4.50e-06	0	43	0	2004877312	16	4584
2026-01-08 09:40:15.77	347.94	11.21	-28.2	-30.4	13.9	3.80e-06	0	43	0	2008023040	16	4625
2026-01-08 09:40:16.78	347.89	11.12	-28.2	-30.4	13.8	6.10e-06	0	43	0	2011168768	16	4641
2026-01-08 09:40:17.78	347.83	11.03	-28.3	-30.5	13.8	6.10e-06	0	43	0	2014314496	16	4660
2026-01-08 09:40:18.79	347.78	10.95	-28.4	-30.8	13.6	1.06e-05	0	43	0	2017460224	16	4763
2026-01-08 09:40:19.80	347.73	10.86	-28.3	-30.5	13.7	1.14e-05	0	43	0	2020605952	16	4672
2026-01-08 09:40:20.80	347.68	10.77	-28.3	-30.6	13.7	5.30e-06	0	43	0	2023751680	16	4692
2026-01-08 09:40:21.81	347.63	10.69	-28.4	-30.7	13.6	6.10e-06	0	43	0	2026897408	16	4740
2026-01-08 09:40:22.82	347.58	10.60	-28.4	-30.9	13.5	7.60e-06	0	43	0	2030043136	16	4802
2026-01-08 09:40:23.83	347.53	10.51	-28.4	-30.9	13.5	1.06e-05	0	43	0	2033188864	16	4778
2026-01-08 09:40:24.83	347.48	10.43	-28.5	-30.6	13.4	1.06e-05	0	43	0	2036334592	17	4596
2026-01-08 09:40:25.84	347.43	10.34	-28.7	-31.2	13.0	2.36e-05	0	43	0	2039480320	17	4757
2026-01-08 09:40:26.85	347.38	10.26	-28.6	-30.9	13.2	2.82e-05	0	43	0	2042626048	17	4677
2026-01-08 09:40:27.85	347.33	10.18	-28.4	-30.5	13.5	1.60e-05	0	43	0	2045771776	17	4542
2026-01-08 09:40:28.86	347.28	10.09	-28.4	-30.3	13.6	5.30e-06	0	43	0	2048917504	17	4477
2026-01-08 09:40:29.87	347.23	10.01	-28.4	-30.4	13.5	9.90e-06	0	43	0	2052063232	17	4509
2026-01-08 09:40:30.87	347.18	9.92	-28.3	-30.2	13.6	7.60e-06	0	43	0	2055208960	17	4479
2026-01-08 09:40:31.88	347.14	9.84	-28.4	-30.4	13.5	1.06e-05	0	43	0	2058354688	17	4534
2026-01-08 09:40:32.89	347.09	9.76	-28.5	-30.6	13.3	1.75e-05	0	43	0	2061500416	17	4594
2026-01-08 09:40:33.90	347.04	9.67	-28.5	-30.5	13.4	1.60e-05	0	43	0	2064646144	17	4551
2026-01-08 09:40:34.89	346.99	9.59	-28.6	-30.9	13.2	1.98e-05	0	43	0	2067791872	17	4672
2026-01-08 09:40:35.90	346.95	9.51	-28.6	-30.8	13.2	2.59e-05	0	43	0	2070937600	17	4643
2026-01-08 09:40:36.90	346.90	9.43	-28.5	-30.6	13.3	1.67e-05	0	43	0	2074083328	17	4585
2026-01-08 09:40:37.91	346.85	9.34	-28.6	-30.8	13.2	2.13e-05	0	43	0	2077229056	17	4644
2026-01-08 09:40:38.92	346.81	9.26	-28.5	-30.7	13.2	2.13e-05	0	43	0	2080374784	17	4618
2026-01-08 09:40:39.93	346.76	9.18	-28.6	-30.9	13.1	2.13e-05	0	43	0	2083520512	17	4685
2026-01-08 09:40:40.93	346.72	9.10	-28.6	-30.9	13.1	3.20e-05	0	43	0	2086666240	17	4691
2026-01-08 09:40:41.94	346.67	9.02	-28.7	-31.1	12.9	3.50e-05	0	43	0	2089811968	17	4762
2026-01-08 09:40:42.95	346.63	8.94	-28.6	-31.0	13.0	3.35e-05	0	43	0	2092957696	17	4711
2026-01-08 09:40:43.96	346.58	8.86	-28.6	-30.9	13.1	3.58e-05	0	43	0	2096103424	17	4699
2026-01-08 09:40:44.97	346.54	8.78	-28.7	-31.1	12.9	3.35e-05	0	43	0	2099249152	17	4767
2026-01-08 09:40:45.98	346.50	8.70	-28.7	-31.1	13.0	4.27e-05	0	43	0	2102394880	17	4741
2026-01-08 09:40:46.98	346.45	8.62	-28.7	-31.2	12.9	5.95e-05	0	43	0	2105540608	17	4778
2026-01-08 09:40:47.99	346.41	8.54	-28.8	-31.4	12.7	6.71e-05	0	43	0	2108686336	17	4839
2026-01-08 09:40:49.00	346.37	8.46	-28.8	-31.4	12.7	6.79e-05	0	43	0	2111832064	17	4854
2026-01-08 09:40:50.01	346.32	8.38	-29.1	-31.6	12.3	1.40e-04	0	43	0	2114977792	18	4825
2026-01-08 09:40:51.02	346.28	8.30	-29.0	-31.3	12.4	1.81e-04	0	43	0	2118123520	18	4725
2026-01-08 09:40:52.03	346.24	8.22	-29.0	-31.4	12.4	1.48e-04	0	43	0	2121269248	18	4745
2026-01-08 09:40:53.04	346.19	8.14	-29.0	-31.4	12.4	1.64e-04	0	43	0	2124414976	18	4756
2026-01-08 09:40:54.04	346.15	8.06	-29.0	-31.4	12.4	1.73e-04	0	43	0	2127560704	18	4754
2026-01-08 09:40:55.05	346.11	7.99	-29.0	-31.5	12.3	2.20e-04	0	43	0	2130706432	18	4788
2026-01-08 09:40:56.06	346.07	7.91	-29.1	-31.7	12.2	2.15e-04	0	43	0	2133852160	18	4841
2026-01-08 09:40:57.07	346.03	7.83	-29.2	-31.8	12.0	2.27e-04	0	43	0	2136997888	18	4901
2026-01-08 09:40:58.07	345.99	7.75	-29.3	-32.2	11.8	3.62e-04	0	43	0	2140143616	18	5016
2026-01-08 09:40:59.08	345.95	7.68	-29.2	-31.9	12.0	4.09e-04	0	43	0	2143289344	18	4942
