passes_logs/2026/01/07/R2.0S_Moscow/R2.0S_Moscow__20260107_004511_NOAA_20_JPSS-1_rec.log

#Pass ID: 20260107_004511_NOAA 20 (JPSS-1)
#Satellite: NOAA 20 (JPSS-1)
#Configuration: NOAA 20
#almurnet v.1.7.20251203
#Start time: 2026-01-07 00:46:21

#Version: 2.2.20231116
#Station: R2.0S_Moscow
#Location: 37.707566 lon 55.798166 lat
#TLE: 1 43013U 17073A   26006.30790171  .00000126  00000+0  80695-4 0  9991
#TLE: 2 43013  98.7629 307.3394 0001808  51.8724 308.2615 14.19533762421505

#Time	Az	El	Level	Level2	SNR	BER	BlckErr	Temp	State	Recorded	gain1	gain2
2026-01-07 00:46:21.91	8.56	6.57	-45.8	-64.7	3.8	7.43e-01	0	56	0	0	62	33227
2026-01-07 00:46:22.91	8.50	6.64	-45.2	-60.0	3.8	1.49e+00	0	56	104	0	62	19330
2026-01-07 00:46:23.92	8.45	6.71	-45.2	-60.0	3.8	1.49e+00	0	56	104	0	62	19269
2026-01-07 00:46:24.93	8.39	6.78	-45.2	-60.0	3.8	1.49e+00	0	56	104	0	62	19179
2026-01-07 00:46:25.94	8.33	6.85	-45.1	-59.8	3.8	1.49e+00	0	56	104	0	62	18925
2026-01-07 00:46:26.95	8.26	6.92	-44.9	-59.6	3.8	1.49e+00	0	56	104	0	61	19610
2026-01-07 00:46:27.96	8.20	6.99	-44.8	-59.5	3.8	1.49e+00	0	56	104	0	61	19292
2026-01-07 00:46:28.97	8.14	7.07	-44.6	-59.3	3.8	1.49e+00	0	56	104	0	61	18850
2026-01-07 00:46:29.98	8.08	7.14	-44.2	-59.0	3.8	1.49e+00	0	56	104	0	60	19178
2026-01-07 00:46:30.99	8.02	7.21	-42.0	-56.6	3.8	1.49e+00	0	57	104	0	56	18390
2026-01-07 00:46:32.01	7.96	7.28	-40.0	-54.6	3.8	1.49e+00	0	57	104	0	52	18323
2026-01-07 00:46:33.02	7.89	7.36	-40.0	-54.6	3.8	1.49e+00	0	56	104	0	52	18308
2026-01-07 00:46:34.03	7.83	7.43	-40.0	-54.5	3.8	1.49e+00	0	57	104	0	52	18239
2026-01-07 00:46:35.04	7.77	7.50	-40.0	-54.6	3.8	1.49e+00	0	57	104	0	52	18317
2026-01-07 00:46:36.05	7.70	7.58	-40.0	-54.5	3.8	1.49e+00	0	57	104	0	52	18219
2026-01-07 00:46:37.06	7.64	7.65	-40.0	-54.5	3.8	1.49e+00	0	56	104	0	52	18305
2026-01-07 00:46:38.07	7.58	7.72	-40.0	-54.5	3.8	1.49e+00	0	57	104	0	52	18263
2026-01-07 00:46:39.08	7.51	7.80	-40.0	-54.5	3.8	1.49e+00	0	56	104	0	52	18248
2026-01-07 00:46:40.10	7.45	7.87	-40.0	-54.5	3.8	1.49e+00	0	57	104	0	52	18261
2026-01-07 00:46:41.11	7.38	7.94	-40.0	-54.5	3.8	1.49e+00	0	57	104	0	52	18154
2026-01-07 00:46:42.12	7.31	8.02	-40.0	-54.5	3.8	1.49e+00	0	56	104	0	52	18213
2026-01-07 00:46:43.13	7.25	8.09	-40.0	-54.5	3.8	1.49e+00	0	57	104	0	52	18182
2026-01-07 00:46:44.14	7.18	8.17	-40.0	-54.5	3.8	1.49e+00	0	57	104	0	52	18195
2026-01-07 00:46:45.15	7.12	8.24	-40.0	-54.5	3.8	1.49e+00	0	57	104	0	52	18224
2026-01-07 00:46:46.16	7.05	8.32	-40.0	-54.5	3.8	1.49e+00	0	56	104	0	52	18230
2026-01-07 00:46:47.17	6.98	8.39	-40.0	-54.5	3.8	1.49e+00	0	56	104	0	52	18223
2026-01-07 00:46:48.18	6.91	8.47	-40.1	-54.6	3.8	1.49e+00	0	56	104	0	51	19438
2026-01-07 00:46:49.19	6.84	8.54	-40.1	-54.6	3.8	1.49e+00	0	57	104	0	51	19400
2026-01-07 00:46:50.20	6.78	8.62	-40.1	-54.6	3.8	1.49e+00	0	57	104	0	51	19495
2026-01-07 00:46:51.22	6.71	8.70	-40.0	-54.5	3.8	1.49e+00	0	56	104	0	51	19382
2026-01-07 00:46:52.23	6.64	8.77	-40.1	-54.6	3.8	1.49e+00	0	57	104	0	51	19438
2026-01-07 00:46:53.24	6.57	8.85	-40.1	-54.6	3.8	1.49e+00	0	56	104	0	51	19419
2026-01-07 00:46:54.25	6.50	8.92	-40.1	-54.6	3.8	1.49e+00	0	57	104	0	51	19428
2026-01-07 00:46:55.26	6.43	9.00	-40.1	-54.6	3.8	1.49e+00	0	57	104	0	51	19441
2026-01-07 00:46:56.27	6.36	9.08	-40.1	-54.6	3.8	1.49e+00	0	57	104	0	51	19396
2026-01-07 00:46:57.28	6.28	9.16	-40.0	-54.5	3.8	1.49e+00	0	57	104	0	51	19376
2026-01-07 00:46:58.29	6.21	9.23	-40.0	-54.6	3.8	1.49e+00	0	57	104	0	51	19415
2026-01-07 00:46:59.30	6.14	9.31	-40.0	-54.5	3.8	1.49e+00	0	57	104	0	51	19373
2026-01-07 00:47:00.31	6.07	9.39	-40.0	-54.5	3.8	1.49e+00	0	57	104	0	51	19361
2026-01-07 00:47:01.33	6.00	9.47	-40.0	-54.5	3.8	1.49e+00	0	57	104	0	51	19372
2026-01-07 00:47:02.34	5.92	9.54	-40.0	-54.5	3.8	1.49e+00	0	57	104	0	51	19328
2026-01-07 00:47:03.35	5.85	9.62	-40.0	-54.5	3.8	1.49e+00	0	57	104	0	51	19342
2026-01-07 00:47:04.36	5.77	9.70	-40.0	-54.5	3.8	1.49e+00	0	57	104	0	51	19359
2026-01-07 00:47:05.37	5.70	9.78	-40.0	-54.6	3.8	1.49e+00	0	57	104	0	51	19390
2026-01-07 00:47:06.38	5.62	9.86	-40.0	-54.5	3.8	1.49e+00	0	57	104	0	51	19366
2026-01-07 00:47:07.39	5.55	9.94	-40.0	-54.5	3.8	1.49e+00	0	57	104	0	51	19363
2026-01-07 00:47:08.40	5.47	10.02	-40.0	-54.5	3.8	1.49e+00	0	57	104	0	51	19371
2026-01-07 00:47:09.41	5.40	10.10	-40.0	-54.5	3.8	1.49e+00	0	57	104	0	51	19331
2026-01-07 00:47:10.42	5.32	10.18	-40.0	-54.5	3.8	1.49e+00	0	57	104	0	51	19343
2026-01-07 00:47:11.44	5.24	10.26	-40.0	-54.5	3.8	1.49e+00	0	57	104	0	51	19272
2026-01-07 00:47:12.45	5.16	10.34	-40.0	-54.5	3.8	1.49e+00	0	57	104	0	51	19339
2026-01-07 00:47:13.46	5.09	10.42	-40.0	-54.5	3.8	1.49e+00	0	57	104	0	51	19281
2026-01-07 00:47:14.47	5.01	10.50	-40.0	-54.5	3.8	1.49e+00	0	57	104	0	51	19311
2026-01-07 00:47:15.48	4.93	10.58	-40.0	-54.5	3.8	1.49e+00	0	57	104	0	51	19290
2026-01-07 00:47:16.49	4.85	10.66	-40.0	-54.6	3.8	1.49e+00	0	57	104	0	51	19407
2026-01-07 00:47:17.50	4.77	10.74	-40.2	-54.6	3.8	1.49e+00	0	57	104	0	51	19528
2026-01-07 00:47:18.51	4.69	10.82	-40.1	-54.6	3.8	1.49e+00	0	57	104	0	51	19421
2026-01-07 00:47:19.52	4.61	10.90	-40.1	-54.6	3.8	1.49e+00	0	56	104	0	51	19533
2026-01-07 00:47:20.53	4.53	10.98	-40.2	-54.6	3.8	1.49e+00	0	57	104	0	51	19549
2026-01-07 00:47:21.54	4.45	11.07	-40.2	-54.6	3.8	1.49e+00	0	57	104	0	51	19558
2026-01-07 00:47:22.55	4.36	11.15	-40.2	-54.6	3.8	1.49e+00	0	57	104	0	51	19555
2026-01-07 00:47:23.56	4.28	11.23	-40.3	-54.8	3.8	1.49e+00	0	57	104	0	51	19906
2026-01-07 00:47:24.58	4.20	11.31	-40.1	-54.5	3.8	1.49e+00	0	57	104	0	52	18172
2026-01-07 00:47:25.59	4.11	11.40	-40.1	-54.2	3.8	1.49e+00	0	57	104	0	51	18652
2026-01-07 00:47:26.60	4.03	11.48	-40.0	-54.5	3.8	1.49e+00	0	57	104	0	51	19291
2026-01-07 00:47:27.61	3.94	11.56	-40.0	-54.5	3.8	1.49e+00	0	57	104	0	51	19241
2026-01-07 00:47:28.62	3.86	11.65	-40.0	-54.5	3.8	1.49e+00	0	57	104	0	51	19308
2026-01-07 00:47:29.63	3.77	11.73	-40.0	-54.5	3.8	1.49e+00	0	57	104	0	51	19360
2026-01-07 00:47:30.64	3.69	11.81	-40.4	-54.9	3.8	1.49e+00	0	57	104	0	51	20211
2026-01-07 00:47:31.65	3.60	11.90	-40.1	-54.8	3.8	1.49e+00	0	57	104	0	52	18740
2026-01-07 00:47:32.66	3.51	11.98	-40.0	-54.5	3.8	1.49e+00	0	57	104	0	52	18208
2026-01-07 00:47:33.67	3.43	12.07	-40.0	-54.5	3.8	1.49e+00	0	57	104	0	52	18222
2026-01-07 00:47:34.68	3.34	12.15	-40.0	-54.6	3.8	1.49e+00	0	57	104	0	51	19482
2026-01-07 00:47:35.69	3.25	12.24	-40.0	-54.6	3.8	1.49e+00	0	57	104	0	51	19435
2026-01-07 00:47:36.70	3.16	12.32	-40.1	-54.7	3.8	1.49e+00	0	57	104	0	51	19669
2026-01-07 00:47:37.71	3.07	12.41	-40.0	-54.6	3.8	1.49e+00	0	57	104	0	51	19502
2026-01-07 00:47:38.72	2.98	12.49	-40.6	-53.7	3.8	1.49e+00	0	57	104	0	51	17647
2026-01-07 00:47:39.73	2.89	12.58	-41.8	-53.5	4.1	1.49e+00	0	57	104	0	54	14480
2026-01-07 00:47:40.74	2.80	12.67	-40.8	-55.0	3.8	1.46e+00	0	57	104	0	53	18296
2026-01-07 00:47:41.75	2.70	12.75	-41.2	-53.2	3.9	1.49e+00	0	57	104	0	53	14801
2026-01-07 00:47:42.76	2.61	12.84	-41.5	-51.8	4.5	1.32e+00	0	57	0	0	53	12628
2026-01-07 00:47:43.77	2.52	12.93	-41.5	-51.1	4.9	7.95e-01	0	57	0	2097152	53	11631
2026-01-07 00:47:44.78	2.42	13.01	-41.4	-50.6	5.2	6.78e-01	0	57	0	4194304	53	10966
2026-01-07 00:47:45.79	2.33	13.10	-41.4	-50.0	5.6	5.32e-01	0	57	0	6291456	53	10234
2026-01-07 00:47:46.80	2.23	13.19	-41.4	-49.3	6.2	3.71e-01	0	57	0	7340032	53	9466
2026-01-07 00:47:47.81	2.14	13.28	-41.3	-48.9	6.6	2.42e-01	0	57	0	9437184	53	8983
2026-01-07 00:47:48.82	2.04	13.36	-41.3	-48.5	7.0	1.77e-01	0	57	0	11534336	53	8578
2026-01-07 00:47:49.83	1.95	13.45	-41.0	-47.4	8.0	1.12e-01	0	57	0	13631488	53	7583
2026-01-07 00:47:50.83	1.85	13.54	-40.7	-46.5	8.9	3.76e-02	0	57	0	15728640	53	6862
2026-01-07 00:47:51.84	1.75	13.63	-40.4	-45.7	9.8	1.61e-02	0	57	0	17825792	52	6592
2026-01-07 00:47:52.85	1.65	13.72	-40.2	-45.1	10.3	7.10e-03	0	56	0	18874368	52	6185
2026-01-07 00:47:53.86	1.55	13.81	-40.0	-44.7	10.8	2.73e-03	0	57	0	20971520	52	5871
2026-01-07 00:47:54.87	1.45	13.90	-40.1	-44.7	11.0	2.31e-03	0	57	0	23068672	52	5908
2026-01-07 00:47:55.88	1.35	13.99	-40.3	-45.1	10.7	2.48e-03	0	57	0	25165824	52	6133
2026-01-07 00:47:56.89	1.25	14.08	-40.4	-45.2	10.7	3.36e-03	0	57	0	27262976	52	6243
2026-01-07 00:47:57.90	1.15	14.17	-40.6	-45.5	10.5	3.73e-03	0	57	0	28311552	52	6434
2026-01-07 00:47:58.91	1.05	14.26	-40.7	-45.6	10.4	4.55e-03	0	57	0	30408704	52	6544
2026-01-07 00:47:59.92	0.95	14.35	-40.5	-45.0	11.1	2.07e-03	0	57	0	32505856	52	6113
2026-01-07 00:48:00.93	0.84	14.44	-40.5	-44.8	11.5	8.80e-04	0	57	0	34603008	52	5970
2026-01-07 00:48:01.94	0.74	14.53	-40.2	-44.1	12.2	4.19e-04	0	57	0	36700160	52	5521
2026-01-07 00:48:02.95	0.63	14.62	-40.0	-43.6	12.8	1.26e-04	0	57	0	37748736	52	5195
2026-01-07 00:48:03.96	0.53	14.71	-39.9	-43.4	13.2	2.51e-05	0	57	0	39845888	51	5385
2026-01-07 00:48:04.97	0.42	14.80	-40.0	-43.5	13.1	2.13e-05	0	57	0	41943040	51	5426
2026-01-07 00:48:05.98	0.31	14.90	-40.2	-43.8	12.9	2.51e-05	0	57	0	44040192	51	5611
2026-01-07 00:48:06.99	0.21	14.99	-40.2	-43.8	12.9	5.03e-05	0	57	0	46137344	51	5633
2026-01-07 00:48:07.99	0.10	15.08	-40.2	-43.8	13.0	3.58e-05	0	57	0	47185920	51	5611
2026-01-07 00:48:09.00	359.99	15.17	-40.1	-43.6	13.3	2.51e-05	0	57	0	49283072	51	5474
2026-01-07 00:48:10.01	359.88	15.27	-40.1	-43.3	13.7	6.80e-06	0	57	0	51380224	51	5323
2026-01-07 00:48:11.02	359.77	15.36	-40.1	-43.4	13.7	1.50e-06	0	57	0	53477376	51	5348
2026-01-07 00:48:12.03	359.66	15.45	-40.2	-43.5	13.6	6.10e-06	0	57	0	55574528	51	5447
2026-01-07 00:48:13.04	359.55	15.55	-40.2	-43.4	13.8	7.60e-06	0	57	0	56623104	51	5365
2026-01-07 00:48:14.06	359.43	15.64	-40.1	-43.2	14.0	5.30e-06	0	57	0	58720256	51	5250
2026-01-07 00:48:15.06	359.32	15.74	-40.1	-43.2	14.0	7.00e-07	0	57	0	60817408	51	5264
2026-01-07 00:48:16.07	359.21	15.83	-40.1	-43.3	14.0	6.10e-06	0	57	0	62914560	51	5294
2026-01-07 00:48:17.08	359.09	15.93	-40.2	-43.3	13.9	6.10e-06	0	57	0	65011712	51	5324
2026-01-07 00:48:18.09	358.97	16.02	-40.2	-43.3	14.0	4.50e-06	0	57	0	66060288	51	5309
2026-01-07 00:48:19.10	358.86	16.12	-40.2	-43.3	14.0	7.00e-07	0	57	0	68157440	51	5316
2026-01-07 00:48:20.11	358.74	16.21	-40.2	-43.3	14.0	7.00e-07	0	57	0	70254592	51	5313
2026-01-07 00:48:21.12	358.62	16.31	-40.2	-43.4	13.9	2.20e-06	0	57	0	72351744	51	5353
2026-01-07 00:48:22.13	358.50	16.40	-40.3	-43.4	13.9	1.50e-06	0	57	0	74448896	51	5386
2026-01-07 00:48:23.14	358.38	16.50	-40.3	-43.4	13.8	6.80e-06	0	57	0	75497472	51	5383
2026-01-07 00:48:24.15	358.26	16.60	-40.2	-43.3	13.9	3.00e-06	0	57	0	77594624	51	5325
2026-01-07 00:48:25.16	358.14	16.69	-40.2	-43.3	13.9	3.80e-06	0	57	0	79691776	51	5328
2026-01-07 00:48:26.17	358.02	16.79	-40.2	-43.4	13.8	3.80e-06	0	57	0	81788928	51	5392
2026-01-07 00:48:27.18	357.90	16.89	-40.3	-43.6	13.6	7.60e-06	0	57	0	83886080	51	5510
2026-01-07 00:48:28.19	357.78	16.99	-40.3	-43.5	13.7	6.10e-06	0	57	0	85983232	51	5456
2026-01-07 00:48:29.20	357.65	17.08	-40.3	-43.5	13.6	6.10e-06	0	57	0	87031808	51	5461
2026-01-07 00:48:30.21	357.53	17.18	-40.2	-43.4	13.7	7.60e-06	0	57	0	89128960	51	5398
2026-01-07 00:48:31.22	357.40	17.28	-40.1	-43.3	13.9	7.60e-06	0	57	0	91226112	51	5302
2026-01-07 00:48:32.23	357.27	17.38	-40.0	-43.1	14.0	3.00e-06	0	57	0	93323264	51	5188
2026-01-07 00:48:33.24	357.14	17.48	-39.9	-42.9	14.1	4.50e-06	0	57	0	95420416	51	5074
2026-01-07 00:48:34.25	357.02	17.58	-39.7	-42.7	14.3	7.00e-07	0	57	0	96468992	51	4941
2026-01-07 00:48:35.26	356.89	17.68	-39.7	-42.8	14.1	7.00e-07	0	57	0	98566144	51	4984
2026-01-07 00:48:36.27	356.76	17.78	-39.8	-43.0	13.8	3.00e-06	0	57	0	100663296	51	5102
2026-01-07 00:48:37.28	356.63	17.88	-39.9	-43.4	13.2	1.60e-05	0	57	0	102760448	51	5352
2026-01-07 00:48:38.29	356.49	17.98	-40.2	-44.1	12.2	7.93e-05	0	57	0	104857600	51	5811
2026-01-07 00:48:39.30	356.36	18.08	-40.5	-45.0	11.0	1.14e-03	0	57	0	105906176	51	6439
2026-01-07 00:48:40.31	356.23	18.18	-40.7	-46.1	9.5	6.13e-03	0	57	0	108003328	52	6909
2026-01-07 00:48:41.32	356.09	18.28	-40.9	-47.3	8.0	2.92e-02	0	57	0	110100480	52	7918
2026-01-07 00:48:42.33	355.96	18.38	-41.0	-48.5	6.5	1.70e-01	0	57	0	112197632	52	9167
2026-01-07 00:48:43.34	355.82	18.48	-41.0	-49.8	5.4	3.99e-01	0	57	0	114294784	52	10607
2026-01-07 00:48:44.35	355.68	18.58	-41.0	-51.0	4.6	7.01e-01	0	57	0	115343360	52	12153
2026-01-07 00:48:45.36	355.54	18.69	-40.9	-52.3	4.1	1.37e+00	0	57	0	117440512	52	14208
2026-01-07 00:48:46.37	355.40	18.79	-40.9	-53.9	3.8	1.49e+00	0	57	104	117440512	52	16891
2026-01-07 00:48:47.38	355.26	18.89	-40.9	-54.7	3.8	1.49e+00	0	57	104	117440512	52	18648
2026-01-07 00:48:48.39	355.12	18.99	-40.8	-54.7	3.8	1.49e+00	0	57	104	117440512	52	18706
2026-01-07 00:48:49.39	354.98	19.09	-40.8	-54.4	3.8	1.49e+00	0	57	104	117440512	52	18083
2026-01-07 00:48:50.40	354.84	19.20	-40.8	-53.9	3.8	1.49e+00	0	57	104	117440512	52	17008
2026-01-07 00:48:51.41	354.69	19.30	-40.8	-54.1	3.8	1.49e+00	0	57	104	117440512	52	17402
2026-01-07 00:48:52.42	354.55	19.40	-40.9	-54.4	3.8	1.49e+00	0	57	104	117440512	52	18012
2026-01-07 00:48:53.43	354.40	19.51	-40.9	-54.6	3.8	1.49e+00	0	57	104	117440512	52	18373
2026-01-07 00:48:54.44	354.25	19.61	-40.9	-54.6	3.8	1.49e+00	0	57	104	117440512	52	18450
2026-01-07 00:48:55.45	354.10	19.72	-40.9	-54.6	3.8	1.49e+00	0	57	104	117440512	52	18354
2026-01-07 00:48:56.46	353.95	19.82	-40.9	-54.6	3.8	1.49e+00	0	57	104	117440512	52	18374
2026-01-07 00:48:57.47	353.80	19.93	-40.9	-54.3	3.8	1.49e+00	0	57	104	117440512	52	17806
2026-01-07 00:48:58.48	353.65	20.03	-40.9	-54.1	3.8	1.49e+00	0	57	104	117440512	52	17396
2026-01-07 00:48:59.49	353.50	20.14	-40.8	-53.7	3.8	1.49e+00	0	57	104	117440512	52	16522
2026-01-07 00:49:00.50	353.35	20.24	-40.7	-53.2	3.8	1.49e+00	0	57	104	117440512	52	15635
2026-01-07 00:49:01.51	353.19	20.35	-40.7	-52.8	4.0	1.49e+00	0	57	104	117440512	52	14887
2026-01-07 00:49:02.52	353.03	20.45	-40.8	-52.6	4.1	1.47e+00	0	57	104	117440512	52	14674
2026-01-07 00:49:03.53	352.88	20.56	-40.9	-52.5	3.9	1.47e+00	0	57	104	117440512	52	14482
2026-01-07 00:49:04.54	352.72	20.67	-41.0	-52.0	4.2	1.41e+00	0	57	0	117440512	52	13648
2026-01-07 00:49:05.55	352.56	20.77	-41.2	-50.7	4.9	8.97e-01	0	57	0	118489088	52	11792
2026-01-07 00:49:06.56	352.40	20.88	-41.2	-49.4	6.0	4.97e-01	0	57	0	120586240	53	9600
2026-01-07 00:49:07.57	352.24	20.99	-41.3	-48.4	7.1	2.58e-01	0	57	0	122683392	53	8560
2026-01-07 00:49:08.58	352.07	21.09	-41.4	-47.7	8.2	7.47e-02	0	57	0	124780544	53	7896
2026-01-07 00:49:09.59	351.91	21.20	-41.5	-47.3	8.9	3.52e-02	0	57	0	125829120	53	7538
2026-01-07 00:49:10.60	351.75	21.31	-41.4	-46.9	9.5	2.14e-02	0	57	0	127926272	53	7132
2026-01-07 00:49:11.61	351.58	21.42	-41.3	-46.5	9.9	9.90e-03	0	57	0	130023424	53	6830
2026-01-07 00:49:12.62	351.41	21.52	-41.1	-46.0	10.5	6.19e-03	0	57	0	132120576	53	6469
2026-01-07 00:49:13.63	351.24	21.63	-40.7	-45.0	11.5	1.99e-03	0	57	0	134217728	53	5775
2026-01-07 00:49:14.63	351.08	21.74	-40.3	-44.2	12.4	2.04e-04	0	57	0	135266304	52	5535
2026-01-07 00:49:15.64	350.90	21.85	-40.0	-43.5	13.2	5.18e-05	0	57	0	137363456	52	5113
2026-01-07 00:49:16.65	350.73	21.96	-40.0	-43.5	13.2	2.36e-05	0	57	0	139460608	52	5120
2026-01-07 00:49:17.66	350.56	22.07	-40.1	-43.6	13.2	1.83e-05	0	57	0	141557760	52	5178
2026-01-07 00:49:18.67	350.38	22.17	-40.2	-43.6	13.2	2.05e-05	0	57	0	143654912	52	5214
2026-01-07 00:49:19.68	350.21	22.28	-40.2	-43.6	13.3	1.67e-05	0	57	0	144703488	52	5176
2026-01-07 00:49:20.69	350.03	22.39	-40.1	-43.4	13.5	1.29e-05	0	57	0	146800640	52	5067
2026-01-07 00:49:21.70	349.85	22.50	-40.1	-43.4	13.5	6.80e-06	0	57	0	148897792	52	5096
2026-01-07 00:49:22.71	349.67	22.61	-40.2	-43.6	13.3	9.90e-06	0	57	0	150994944	52	5207
2026-01-07 00:49:23.72	349.49	22.72	-40.3	-43.7	13.3	2.05e-05	0	57	0	153092096	52	5273
2026-01-07 00:49:24.73	349.31	22.83	-40.3	-43.7	13.5	1.98e-05	0	57	0	154140672	52	5247
2026-01-07 00:49:25.74	349.12	22.94	-40.4	-43.7	13.5	6.10e-06	0	57	0	156237824	52	5275
2026-01-07 00:49:26.75	348.94	23.05	-40.3	-43.6	13.7	1.14e-05	0	57	0	158334976	52	5173
2026-01-07 00:49:27.76	348.75	23.16	-40.3	-43.4	14.0	1.50e-06	0	57	0	160432128	52	5055
2026-01-07 00:49:28.77	348.57	23.27	-40.2	-43.2	14.2	7.00e-07	0	57	0	162529280	52	4982
2026-01-07 00:49:29.78	348.38	23.39	-40.4	-43.4	14.1	2.20e-06	0	57	0	163577856	52	5082
2026-01-07 00:49:30.79	348.19	23.50	-40.5	-43.7	13.9	1.50e-06	0	57	0	165675008	52	5245
2026-01-07 00:49:31.80	347.99	23.61	-40.5	-43.6	14.0	2.20e-06	0	57	0	167772160	52	5161
2026-01-07 00:49:32.81	347.80	23.72	-40.4	-43.4	14.2	1.50e-06	0	57	0	169869312	52	5087
2026-01-07 00:49:33.82	347.61	23.83	-40.4	-43.4	14.2	7.00e-07	0	57	0	171966464	52	5071
2026-01-07 00:49:34.83	347.41	23.94	-40.4	-43.4	14.2	7.00e-07	0	57	0	173015040	52	5068
2026-01-07 00:49:35.84	347.21	24.05	-40.3	-43.3	14.4	0.00e+00	0	57	0	175112192	52	5010
2026-01-07 00:49:36.85	347.01	24.17	-40.3	-43.3	14.5	0.00e+00	0	57	0	177209344	52	4992
2026-01-07 00:49:37.86	346.81	24.28	-40.4	-43.3	14.5	1.50e-06	0	57	0	179306496	52	5012
2026-01-07 00:49:38.87	346.61	24.39	-40.5	-43.4	14.4	7.00e-07	0	57	0	181403648	52	5086
2026-01-07 00:49:39.88	346.41	24.50	-40.5	-43.4	14.4	0.00e+00	0	57	0	183500800	52	5080
2026-01-07 00:49:40.89	346.20	24.61	-40.6	-43.5	14.3	1.50e-06	0	57	0	184549376	52	5156
2026-01-07 00:49:41.90	346.00	24.73	-40.7	-43.8	14.1	1.50e-06	0	57	0	186646528	52	5300
2026-01-07 00:49:42.91	345.79	24.84	-40.8	-43.9	14.0	3.80e-06	0	57	0	188743680	52	5374
2026-01-07 00:49:43.92	345.58	24.95	-40.9	-44.1	13.8	9.10e-06	0	57	0	190840832	52	5473
2026-01-07 00:49:44.93	345.37	25.06	-41.0	-44.2	13.7	8.30e-06	0	57	0	192937984	52	5568
2026-01-07 00:49:45.94	345.16	25.17	-41.1	-44.5	13.4	7.60e-06	0	57	0	193986560	52	5742
2026-01-07 00:49:46.95	344.94	25.29	-41.1	-44.4	13.5	1.67e-05	0	57	0	196083712	52	5698
2026-01-07 00:49:47.96	344.73	25.40	-41.2	-44.5	13.4	2.13e-05	0	57	0	198180864	52	5770
2026-01-07 00:49:48.96	344.51	25.51	-41.2	-44.6	13.3	2.13e-05	0	57	0	200278016	53	5519
2026-01-07 00:49:49.97	344.29	25.62	-41.3	-44.7	13.2	1.67e-05	0	57	0	202375168	53	5542
2026-01-07 00:49:50.98	344.07	25.74	-41.3	-44.8	13.1	1.60e-05	0	57	0	203423744	53	5626
2026-01-07 00:49:51.99	343.85	25.85	-41.4	-44.8	13.1	3.50e-05	0	57	0	205520896	53	5656
2026-01-07 00:49:53.00	343.63	25.96	-41.4	-44.9	13.0	2.89e-05	0	57	0	207618048	53	5701
2026-01-07 00:49:54.01	343.40	26.07	-41.5	-45.0	12.9	4.19e-05	0	57	0	209715200	53	5773
2026-01-07 00:49:55.02	343.18	26.19	-41.4	-44.8	13.1	4.34e-05	0	57	0	211812352	53	5653
2026-01-07 00:49:56.03	342.95	26.30	-41.3	-44.8	13.2	2.67e-05	0	57	0	212860928	53	5613
2026-01-07 00:49:57.04	342.72	26.41	-41.3	-44.7	13.3	2.51e-05	0	57	0	214958080	53	5532
2026-01-07 00:49:58.05	342.49	26.52	-41.1	-44.4	13.6	6.10e-06	0	57	0	217055232	53	5376
2026-01-07 00:49:59.06	342.25	26.64	-41.1	-44.4	13.6	6.10e-06	0	57	0	219152384	53	5363
2026-01-07 00:50:00.07	342.02	26.75	-41.2	-44.4	13.5	1.22e-05	0	57	0	221249536	53	5391
2026-01-07 00:50:01.08	341.78	26.86	-41.3	-44.6	13.4	1.22e-05	0	57	0	222298112	53	5522
2026-01-07 00:50:02.09	341.54	26.97	-41.3	-44.7	13.3	1.29e-05	0	57	0	224395264	53	5556
2026-01-07 00:50:03.10	341.30	27.08	-41.3	-44.7	13.3	1.98e-05	0	57	0	226492416	53	5553
2026-01-07 00:50:04.11	341.06	27.20	-41.3	-44.7	13.3	1.29e-05	0	57	0	228589568	53	5580
2026-01-07 00:50:05.12	340.82	27.31	-41.4	-44.8	13.2	2.05e-05	0	57	0	230686720	53	5626
2026-01-07 00:50:06.13	340.57	27.42	-41.4	-44.8	13.2	1.83e-05	0	57	0	231735296	53	5639
2026-01-07 00:50:07.14	340.33	27.53	-41.3	-44.6	13.4	2.59e-05	0	57	0	233832448	53	5509
2026-01-07 00:50:08.15	340.08	27.64	-41.3	-44.6	13.4	9.10e-06	0	57	0	235929600	53	5524
2026-01-07 00:50:09.16	339.83	27.75	-41.3	-44.7	13.5	1.44e-05	0	57	0	238026752	53	5531
2026-01-07 00:50:10.17	339.58	27.87	-41.2	-44.5	13.6	9.90e-06	0	57	0	240123904	53	5417
2026-01-07 00:50:11.18	339.32	27.98	-41.1	-44.3	13.8	7.60e-06	0	57	0	241172480	53	5325
2026-01-07 00:50:12.19	339.07	28.09	-41.2	-44.5	13.6	1.22e-05	0	57	0	243269632	53	5415
2026-01-07 00:50:13.19	338.81	28.20	-41.2	-44.4	13.7	3.80e-06	0	57	0	245366784	53	5402
2026-01-07 00:50:14.20	338.55	28.31	-41.2	-44.4	13.7	7.60e-06	0	57	0	247463936	53	5375
2026-01-07 00:50:15.21	338.29	28.42	-41.2	-44.4	13.7	6.10e-06	0	57	0	249561088	53	5397
2026-01-07 00:50:16.22	338.03	28.53	-41.3	-44.5	13.6	9.90e-06	0	57	0	251658240	53	5461
2026-01-07 00:50:17.23	337.76	28.64	-41.3	-44.5	13.7	9.10e-06	0	57	0	252706816	53	5427
2026-01-07 00:50:18.24	337.50	28.75	-41.3	-44.5	13.6	9.90e-06	0	57	0	254803968	53	5455
2026-01-07 00:50:19.25	337.23	28.85	-41.3	-44.6	13.5	1.14e-05	0	57	0	256901120	53	5495
2026-01-07 00:50:20.26	336.96	28.96	-41.2	-44.5	13.7	5.30e-06	0	57	0	258998272	53	5414
2026-01-07 00:50:21.27	336.69	29.07	-41.2	-44.5	13.7	6.10e-06	0	57	0	261095424	53	5416
2026-01-07 00:50:22.27	336.42	29.18	-41.2	-44.4	13.8	5.30e-06	0	57	0	262144000	53	5349
2026-01-07 00:50:23.28	336.14	29.29	-41.2	-44.4	13.8	2.20e-06	0	57	0	264241152	53	5362
2026-01-07 00:50:24.29	335.86	29.39	-41.1	-44.2	14.0	1.50e-06	0	57	0	266338304	53	5222
2026-01-07 00:50:25.30	335.58	29.50	-41.1	-44.3	13.9	3.00e-06	0	57	0	268435456	53	5287
2026-01-07 00:50:26.31	335.30	29.61	-41.2	-44.3	13.8	3.00e-06	0	57	0	270532608	53	5340
2026-01-07 00:50:27.32	335.02	29.72	-41.1	-44.3	13.9	3.80e-06	0	57	0	271581184	53	5304
2026-01-07 00:50:28.33	334.73	29.82	-41.2	-44.4	13.8	3.00e-06	0	57	0	273678336	53	5396
2026-01-07 00:50:29.34	334.45	29.93	-41.3	-44.5	13.6	7.60e-06	0	57	0	275775488	53	5463
2026-01-07 00:50:30.35	334.16	30.03	-41.4	-44.7	13.5	1.22e-05	0	57	0	277872640	53	5538
2026-01-07 00:50:31.36	333.87	30.14	-41.4	-44.7	13.4	1.44e-05	0	57	0	279969792	53	5589
2026-01-07 00:50:32.37	333.57	30.24	-41.6	-45.2	13.0	2.82e-05	0	57	0	281018368	53	5884
2026-01-07 00:50:33.38	333.28	30.35	-41.9	-45.6	12.6	8.85e-05	0	57	0	283115520	54	5832
2026-01-07 00:50:34.39	332.98	30.45	-42.1	-46.1	12.2	1.65e-04	0	57	0	285212672	54	6138
2026-01-07 00:50:35.40	332.68	30.55	-42.2	-46.4	11.8	4.03e-04	0	57	0	287309824	55	5994
2026-01-07 00:50:36.41	332.38	30.65	-42.2	-46.3	11.8	4.32e-04	0	57	0	289406976	55	5960
2026-01-07 00:50:37.42	332.08	30.76	-42.3	-46.4	11.7	4.15e-04	0	57	0	290455552	55	6023
2026-01-07 00:50:38.43	331.77	30.86	-42.4	-46.7	11.5	6.43e-04	0	57	0	292552704	55	6209
2026-01-07 00:50:39.44	331.47	30.96	-42.4	-46.8	11.3	1.08e-03	0	57	0	294649856	55	6324
2026-01-07 00:50:40.45	331.16	31.06	-42.5	-47.0	11.2	1.43e-03	0	57	0	296747008	55	6441
2026-01-07 00:50:41.46	330.85	31.16	-42.6	-47.0	11.1	1.36e-03	0	57	0	298844160	55	6476
2026-01-07 00:50:42.47	330.54	31.26	-42.6	-47.0	11.0	1.70e-03	0	57	0	299892736	55	6488
2026-01-07 00:50:43.48	330.22	31.35	-42.5	-46.9	11.2	1.26e-03	0	57	0	301989888	55	6388
2026-01-07 00:50:44.49	329.91	31.45	-42.7	-47.3	10.8	2.23e-03	0	57	0	304087040	55	6665
2026-01-07 00:50:45.50	329.59	31.55	-42.9	-47.7	10.6	2.86e-03	0	57	0	306184192	56	6605
2026-01-07 00:50:46.51	329.27	31.65	-43.0	-47.9	10.4	5.42e-03	0	57	0	308281344	56	6752
2026-01-07 00:50:47.52	328.95	31.74	-43.0	-47.9	10.3	5.02e-03	0	57	0	309329920	56	6757
2026-01-07 00:50:48.53	328.62	31.84	-43.0	-48.0	10.2	5.22e-03	0	57	0	311427072	56	6833
2026-01-07 00:50:49.54	328.30	31.93	-43.1	-48.2	10.1	6.27e-03	0	57	0	313524224	56	6978
2026-01-07 00:50:50.56	327.97	32.02	-43.2	-48.4	9.9	7.35e-03	0	57	0	315621376	56	7140
2026-01-07 00:50:51.56	327.64	32.12	-43.3	-48.6	9.6	1.47e-02	0	57	0	317718528	57	6922
2026-01-07 00:50:52.57	327.31	32.21	-43.3	-48.8	9.4	1.53e-02	0	57	0	319815680	57	7048
2026-01-07 00:50:53.58	326.98	32.30	-43.3	-48.8	9.4	1.65e-02	0	57	0	320864256	57	7110
2026-01-07 00:50:54.59	326.64	32.39	-43.4	-49.0	9.2	1.50e-02	0	57	0	322961408	57	7230
2026-01-07 00:50:55.60	326.31	32.48	-43.4	-49.1	9.1	2.00e-02	0	57	0	325058560	57	7366
2026-01-07 00:50:56.61	325.97	32.57	-43.4	-48.9	9.2	2.05e-02	0	57	0	327155712	57	7174
2026-01-07 00:50:57.62	325.63	32.65	-43.3	-48.6	9.6	1.75e-02	0	57	0	329252864	57	6907
2026-01-07 00:50:58.63	325.28	32.74	-43.1	-48.0	10.1	7.48e-03	0	57	0	330301440	57	6483
2026-01-07 00:50:59.64	324.94	32.83	-42.9	-47.6	10.6	3.79e-03	0	57	0	332398592	57	6189
2026-01-07 00:51:00.65	324.59	32.91	-42.6	-46.9	11.4	1.56e-03	0	57	0	334495744	57	5679
2026-01-07 00:51:01.66	324.24	33.00	-42.6	-46.8	11.5	8.20e-04	0	57	0	336592896	57	5643
2026-01-07 00:51:02.67	323.89	33.08	-42.6	-46.9	11.5	9.14e-04	0	57	0	338690048	57	5657
2026-01-07 00:51:03.68	323.54	33.16	-42.6	-47.0	11.3	1.06e-03	0	57	0	339738624	57	5763
2026-01-07 00:51:04.69	323.19	33.24	-42.7	-47.0	11.3	1.22e-03	0	57	0	341835776	57	5780
2026-01-07 00:51:05.70	322.83	33.32	-42.6	-46.9	11.5	1.09e-03	0	57	0	343932928	57	5693
2026-01-07 00:51:06.71	322.48	33.40	-42.5	-46.8	11.6	9.87e-04	0	57	0	346030080	57	5603
2026-01-07 00:51:07.72	322.12	33.48	-42.5	-46.6	11.8	6.01e-04	0	57	0	348127232	56	5813
2026-01-07 00:51:08.73	321.76	33.55	-42.5	-46.7	11.6	6.11e-04	0	57	0	349175808	56	5905
2026-01-07 00:51:09.74	321.40	33.63	-42.5	-46.6	11.7	6.19e-04	0	57	0	351272960	56	5828
2026-01-07 00:51:10.75	321.03	33.70	-42.4	-46.5	11.8	5.58e-04	0	57	0	353370112	56	5756
2026-01-07 00:51:11.76	320.67	33.78	-42.3	-46.2	12.1	3.07e-04	0	57	0	355467264	56	5557
2026-01-07 00:51:12.77	320.30	33.85	-42.1	-45.9	12.5	1.88e-04	0	57	0	357564416	56	5368
2026-01-07 00:51:13.78	319.93	33.92	-41.8	-45.4	12.9	8.08e-05	0	57	0	358612992	55	5345
2026-01-07 00:51:14.79	319.56	33.99	-41.6	-45.1	13.1	3.43e-05	0	56	0	360710144	55	5185
2026-01-07 00:51:15.80	319.19	34.06	-41.7	-45.2	13.1	2.89e-05	0	57	0	362807296	55	5222
2026-01-07 00:51:16.81	318.82	34.13	-41.5	-44.9	13.4	1.98e-05	0	57	0	364904448	55	5069
2026-01-07 00:51:17.82	318.44	34.19	-41.3	-44.6	13.7	1.14e-05	0	57	0	367001600	54	5162
2026-01-07 00:51:18.83	318.06	34.26	-41.3	-44.5	13.7	6.80e-06	0	57	0	368050176	54	5149
2026-01-07 00:51:19.84	317.69	34.32	-41.3	-44.4	13.9	6.10e-06	0	57	0	370147328	54	5092
2026-01-07 00:51:20.85	317.31	34.38	-41.3	-44.4	13.9	2.20e-06	0	57	0	372244480	54	5087
2026-01-07 00:51:21.86	316.92	34.44	-41.2	-44.3	14.0	2.20e-06	0	57	0	374341632	54	4994
2026-01-07 00:51:22.87	316.54	34.50	-41.2	-44.4	13.9	1.50e-06	0	57	0	376438784	54	5053
2026-01-07 00:51:23.88	316.16	34.56	-41.1	-44.1	14.2	2.20e-06	0	57	0	377487360	54	4880
2026-01-07 00:51:24.89	315.77	34.62	-41.1	-44.2	14.1	3.00e-06	0	57	0	379584512	54	4936
2026-01-07 00:51:25.90	315.39	34.67	-41.1	-44.1	14.1	1.50e-06	0	57	0	381681664	54	4890
2026-01-07 00:51:26.91	315.00	34.73	-40.9	-43.9	14.4	7.00e-07	0	57	0	383778816	53	5044
2026-01-07 00:51:27.93	314.61	34.78	-40.8	-43.7	14.6	0.00e+00	0	57	0	385875968	53	4935
2026-01-07 00:51:28.93	314.22	34.83	-40.7	-43.5	14.8	0.00e+00	0	57	0	387973120	53	4844
2026-01-07 00:51:29.95	313.82	34.88	-40.6	-43.4	14.9	7.00e-07	0	57	0	389021696	53	4788
2026-01-07 00:51:30.96	313.43	34.93	-40.7	-43.4	14.9	0.00e+00	0	57	0	391118848	53	4812
2026-01-07 00:51:31.97	313.04	34.98	-40.7	-43.5	14.8	7.00e-07	0	57	0	393216000	53	4861
2026-01-07 00:51:32.97	312.65	35.02	-40.8	-43.6	14.7	7.00e-07	0	57	0	395313152	53	4897
2026-01-07 00:51:33.98	312.25	35.07	-40.6	-43.4	14.9	0.00e+00	0	57	0	397410304	53	4790
2026-01-07 00:51:34.99	311.85	35.11	-40.6	-43.3	15.0	0.00e+00	0	57	0	398458880	53	4719
2026-01-07 00:51:36.00	311.45	35.15	-40.3	-42.9	15.4	0.00e+00	0	57	0	400556032	52	4783
2026-01-07 00:51:37.01	311.05	35.19	-40.1	-42.6	15.7	0.00e+00	0	57	0	402653184	52	4629
2026-01-07 00:51:38.02	310.65	35.23	-40.0	-42.4	15.9	0.00e+00	0	57	0	404750336	52	4540
2026-01-07 00:51:39.03	310.25	35.26	-40.1	-42.6	15.8	0.00e+00	0	57	0	406847488	51	4889
2026-01-07 00:51:40.04	309.85	35.30	-40.2	-42.7	15.7	0.00e+00	0	57	0	407896064	51	4949
2026-01-07 00:51:41.05	309.45	35.33	-40.3	-42.8	15.6	0.00e+00	0	57	0	409993216	51	5012
2026-01-07 00:51:42.06	309.04	35.36	-40.2	-42.7	15.7	0.00e+00	0	57	0	412090368	51	4956
2026-01-07 00:51:43.07	308.64	35.39	-40.1	-42.5	15.9	0.00e+00	0	57	0	414187520	51	4836
2026-01-07 00:51:44.08	308.23	35.42	-39.9	-42.3	16.1	0.00e+00	0	57	0	416284672	51	4731
2026-01-07 00:51:45.09	307.83	35.45	-39.9	-42.3	16.1	0.00e+00	0	57	0	417333248	51	4732
2026-01-07 00:51:46.10	307.42	35.47	-39.8	-42.2	16.2	0.00e+00	0	57	0	419430400	51	4668
2026-01-07 00:51:47.11	307.01	35.50	-39.9	-42.2	16.2	0.00e+00	0	57	0	421527552	51	4680
2026-01-07 00:51:48.12	306.60	35.52	-39.6	-41.9	16.5	0.00e+00	0	57	0	423624704	51	4524
2026-01-07 00:51:49.13	306.20	35.54	-39.6	-41.9	16.5	0.00e+00	0	57	0	425721856	51	4500
2026-01-07 00:51:50.14	305.79	35.56	-39.7	-42.0	16.4	0.00e+00	0	57	0	426770432	51	4566
2026-01-07 00:51:51.14	305.38	35.58	-39.7	-42.0	16.4	0.00e+00	0	57	0	428867584	51	4596
2026-01-07 00:51:52.15	304.97	35.59	-39.9	-42.3	16.1	0.00e+00	0	57	0	430964736	51	4728
2026-01-07 00:51:53.16	304.56	35.60	-40.1	-42.6	15.8	0.00e+00	0	57	0	433061888	51	4871
2026-01-07 00:51:54.17	304.15	35.62	-40.2	-42.7	15.6	0.00e+00	0	57	0	435159040	51	4961
2026-01-07 00:51:55.18	303.74	35.63	-40.2	-42.8	15.6	0.00e+00	0	57	0	436207616	51	4996
2026-01-07 00:51:56.19	303.33	35.64	-40.3	-42.8	15.5	0.00e+00	0	57	0	438304768	51	5038
2026-01-07 00:51:57.20	302.92	35.64	-40.4	-43.1	15.3	0.00e+00	0	57	0	440401920	51	5174
2026-01-07 00:51:58.21	302.51	35.65	-40.6	-43.3	15.0	0.00e+00	0	56	0	442499072	51	5306
2026-01-07 00:51:59.22	302.09	35.65	-40.6	-43.4	15.0	0.00e+00	0	57	0	444596224	51	5353
2026-01-07 00:52:00.23	301.68	35.65	-40.7	-43.4	14.9	7.00e-07	0	57	0	445644800	51	5376
2026-01-07 00:52:01.24	301.27	35.65	-40.6	-43.3	15.0	0.00e+00	0	57	0	447741952	51	5340
2026-01-07 00:52:02.25	300.86	35.65	-40.7	-43.5	14.9	0.00e+00	0	57	0	449839104	51	5420
2026-01-07 00:52:03.26	300.45	35.65	-40.6	-43.4	14.9	0.00e+00	0	57	0	451936256	52	5047
2026-01-07 00:52:04.27	300.04	35.64	-40.6	-43.4	14.9	0.00e+00	0	57	0	454033408	52	5080
2026-01-07 00:52:05.28	299.63	35.64	-40.6	-43.4	14.8	0.00e+00	0	57	0	456130560	52	5095
2026-01-07 00:52:06.29	299.21	35.63	-40.6	-43.4	14.9	0.00e+00	0	57	0	457179136	52	5077
2026-01-07 00:52:07.29	298.81	35.62	-40.7	-43.5	14.8	0.00e+00	0	57	0	459276288	52	5101
2026-01-07 00:52:08.30	298.40	35.61	-40.4	-43.1	15.2	0.00e+00	0	57	0	461373440	52	4887
2026-01-07 00:52:09.31	297.99	35.60	-40.2	-42.8	15.5	0.00e+00	0	57	0	463470592	52	4730
2026-01-07 00:52:10.32	297.58	35.58	-40.2	-42.7	15.6	0.00e+00	0	57	0	465567744	52	4684
2026-01-07 00:52:11.33	297.17	35.56	-40.3	-42.8	15.4	0.00e+00	0	56	0	466616320	52	4742
2026-01-07 00:52:12.34	296.76	35.55	-40.5	-43.1	15.1	0.00e+00	0	57	0	468713472	52	4918
2026-01-07 00:52:13.35	296.35	35.53	-40.7	-43.4	14.8	0.00e+00	0	57	0	470810624	52	5097
2026-01-07 00:52:14.36	295.94	35.51	-40.9	-43.8	14.5	7.00e-07	0	57	0	472907776	52	5299
2026-01-07 00:52:15.37	295.53	35.48	-41.1	-44.2	14.1	0.00e+00	0	57	0	475004928	52	5550
2026-01-07 00:52:16.38	295.12	35.46	-41.1	-44.2	14.1	2.20e-06	0	56	0	476053504	52	5576
2026-01-07 00:52:17.39	294.72	35.43	-41.0	-44.0	14.2	3.80e-06	0	57	0	478150656	52	5461
2026-01-07 00:52:18.40	294.31	35.40	-41.0	-44.1	14.2	1.50e-06	0	57	0	480247808	52	5473
2026-01-07 00:52:19.41	293.91	35.37	-41.1	-44.2	14.1	7.00e-07	0	57	0	482344960	52	5532
2026-01-07 00:52:20.42	293.50	35.34	-41.3	-44.4	13.8	4.50e-06	0	57	0	484442112	53	5390
2026-01-07 00:52:21.43	293.10	35.31	-41.3	-44.6	13.6	9.90e-06	0	57	0	485490688	53	5487
2026-01-07 00:52:22.44	292.70	35.28	-41.3	-44.6	13.7	4.50e-06	0	57	0	487587840	53	5482
2026-01-07 00:52:23.45	292.29	35.24	-41.4	-44.6	13.6	8.30e-06	0	57	0	489684992	53	5511
2026-01-07 00:52:24.46	291.89	35.20	-41.5	-44.8	13.4	8.30e-06	0	57	0	491782144	53	5630
2026-01-07 00:52:25.46	291.50	35.16	-41.5	-44.9	13.3	1.37e-05	0	57	0	493879296	53	5718
2026-01-07 00:52:26.47	291.10	35.12	-41.6	-45.1	13.1	1.67e-05	0	57	0	494927872	53	5822
2026-01-07 00:52:27.48	290.70	35.08	-41.7	-45.2	13.0	2.51e-05	0	57	0	497025024	53	5901
2026-01-07 00:52:28.49	290.30	35.04	-41.8	-45.4	12.8	5.49e-05	0	57	0	499122176	54	5699
2026-01-07 00:52:29.50	289.91	34.99	-41.9	-45.6	12.6	9.15e-05	0	57	0	501219328	54	5804
2026-01-07 00:52:30.51	289.51	34.95	-41.9	-45.6	12.6	9.00e-05	0	57	0	503316480	54	5802
2026-01-07 00:52:31.52	289.12	34.90	-41.8	-45.5	12.7	1.09e-04	0	57	0	504365056	54	5776
2026-01-07 00:52:32.53	288.72	34.85	-41.8	-45.5	12.6	6.33e-05	0	57	0	506462208	54	5774
2026-01-07 00:52:33.54	288.33	34.80	-41.9	-45.6	12.6	8.39e-05	0	57	0	508559360	54	5840
2026-01-07 00:52:34.55	287.94	34.74	-41.8	-45.5	12.7	9.53e-05	0	57	0	510656512	54	5766
2026-01-07 00:52:35.56	287.55	34.69	-41.7	-45.3	12.9	6.79e-05	0	57	0	512753664	54	5627
2026-01-07 00:52:36.57	287.17	34.64	-41.5	-44.9	13.3	1.90e-05	0	57	0	513802240	54	5402
2026-01-07 00:52:37.58	286.78	34.58	-41.5	-44.8	13.4	1.98e-05	0	57	0	515899392	54	5338
2026-01-07 00:52:38.59	286.39	34.52	-41.6	-45.1	13.1	2.44e-05	0	57	0	517996544	54	5504
2026-01-07 00:52:39.60	286.01	34.46	-41.7	-45.2	13.0	4.19e-05	0	56	0	520093696	54	5571
2026-01-07 00:52:40.61	285.63	34.40	-41.8	-45.5	12.7	6.86e-05	0	57	0	522190848	54	5785
2026-01-07 00:52:41.62	285.25	34.34	-41.9	-45.6	12.6	7.55e-05	0	57	0	524288000	54	5808
2026-01-07 00:52:42.63	284.87	34.28	-41.8	-45.4	12.8	8.16e-05	0	57	0	525336576	54	5717
2026-01-07 00:52:43.63	284.50	34.21	-41.8	-45.5	12.7	9.76e-05	0	57	0	527433728	54	5774
2026-01-07 00:52:44.64	284.12	34.15	-41.8	-45.4	12.8	5.95e-05	0	57	0	529530880	54	5697
2026-01-07 00:52:45.65	283.74	34.08	-41.7	-45.2	13.0	5.26e-05	0	57	0	531628032	54	5559
2026-01-07 00:52:46.66	283.37	34.01	-41.6	-45.0	13.2	2.97e-05	0	57	0	533725184	54	5451
2026-01-07 00:52:47.67	283.00	33.94	-41.4	-44.7	13.6	2.05e-05	0	57	0	534773760	54	5230
2026-01-07 00:52:48.68	282.63	33.87	-41.2	-44.3	13.9	4.50e-06	0	57	0	536870912	54	5023
2026-01-07 00:52:49.69	282.26	33.80	-41.2	-44.4	13.9	3.80e-06	0	57	0	538968064	54	5073
2026-01-07 00:52:50.70	281.89	33.73	-41.3	-44.6	13.7	6.80e-06	0	57	0	541065216	54	5162
2026-01-07 00:52:51.71	281.53	33.65	-41.5	-44.8	13.4	6.10e-06	0	57	0	543162368	54	5332
2026-01-07 00:52:52.72	281.17	33.58	-41.5	-44.8	13.4	1.44e-05	0	57	0	544210944	54	5333
2026-01-07 00:52:53.73	280.80	33.50	-41.6	-45.0	13.2	1.52e-05	0	57	0	546308096	54	5448
2026-01-07 00:52:54.75	280.44	33.42	-41.6	-45.1	13.1	3.05e-05	0	57	0	548405248	54	5470
2026-01-07 00:52:55.75	280.09	33.34	-41.5	-44.9	13.4	1.75e-05	0	57	0	550502400	54	5354
2026-01-07 00:52:56.76	279.73	33.26	-41.4	-44.6	13.6	8.30e-06	0	57	0	552599552	54	5196
2026-01-07 00:52:57.78	279.37	33.18	-41.2	-44.4	13.8	4.50e-06	0	57	0	553648128	54	5060
2026-01-07 00:52:58.79	279.02	33.10	-41.3	-44.6	13.6	3.80e-06	0	57	0	555745280	54	5173
2026-01-07 00:52:59.79	278.67	33.02	-41.5	-44.8	13.4	7.60e-06	0	57	0	557842432	54	5296
2026-01-07 00:53:00.80	278.32	32.93	-41.5	-44.8	13.4	1.67e-05	0	57	0	559939584	54	5319
2026-01-07 00:53:01.81	277.97	32.85	-41.6	-45.0	13.2	1.90e-05	0	57	0	562036736	54	5460
2026-01-07 00:53:02.82	277.63	32.76	-41.7	-45.2	13.0	3.81e-05	0	57	0	563085312	54	5571
2026-01-07 00:53:03.83	277.28	32.68	-41.8	-45.5	12.7	4.27e-05	0	57	0	565182464	54	5737
2026-01-07 00:53:04.84	276.94	32.59	-41.9	-45.6	12.6	6.71e-05	0	57	0	567279616	54	5832
2026-01-07 00:53:05.85	276.60	32.50	-41.9	-45.7	12.5	1.13e-04	0	57	0	569376768	54	5889
2026-01-07 00:53:06.86	276.26	32.41	-41.9	-45.7	12.4	1.40e-04	0	57	0	571473920	54	5883
2026-01-07 00:53:07.87	275.92	32.32	-41.9	-45.7	12.5	1.16e-04	0	57	0	572522496	54	5885
2026-01-07 00:53:08.88	275.59	32.23	-41.8	-45.5	12.6	8.01e-05	0	57	0	574619648	54	5777
2026-01-07 00:53:09.89	275.26	32.14	-41.8	-45.4	12.8	4.88e-05	0	57	0	576716800	54	5692
2026-01-07 00:53:10.90	274.93	32.05	-41.7	-45.3	12.9	5.49e-05	0	57	0	578813952	54	5599
2026-01-07 00:53:11.91	274.60	31.95	-41.7	-45.4	12.8	5.34e-05	0	57	0	580911104	54	5666
2026-01-07 00:53:12.92	274.27	31.86	-41.8	-45.4	12.8	7.17e-05	0	57	0	581959680	54	5696
2026-01-07 00:53:13.93	273.94	31.76	-41.9	-45.6	12.6	6.86e-05	0	57	0	584056832	54	5820
2026-01-07 00:53:14.94	273.62	31.67	-41.9	-45.7	12.4	1.36e-04	0	57	0	586153984	54	5900
2026-01-07 00:53:15.95	273.30	31.57	-42.1	-46.0	12.2	1.86e-04	0	57	0	588251136	54	6074
2026-01-07 00:53:16.96	272.98	31.47	-42.2	-46.2	11.9	3.82e-04	0	57	0	590348288	54	6256
2026-01-07 00:53:17.97	272.66	31.38	-42.1	-46.2	12.0	3.76e-04	0	57	0	592445440	54	6210
2026-01-07 00:53:18.98	272.35	31.28	-42.1	-46.1	12.1	3.52e-04	0	57	0	593494016	54	6168
2026-01-07 00:53:19.99	272.03	31.18	-42.0	-46.0	12.2	2.20e-04	0	57	0	595591168	54	6063
2026-01-07 00:53:21.00	271.72	31.08	-42.0	-45.9	12.2	2.46e-04	0	57	0	597688320	54	6009
2026-01-07 00:53:22.01	271.41	30.98	-41.9	-45.7	12.4	1.81e-04	0	57	0	599785472	54	5911
2026-01-07 00:53:23.02	271.10	30.88	-41.8	-45.4	12.8	1.27e-04	0	57	0	601882624	54	5689
2026-01-07 00:53:24.03	270.80	30.78	-41.8	-45.5	12.6	8.39e-05	0	57	0	602931200	54	5787
2026-01-07 00:53:25.04	270.49	30.67	-41.8	-45.5	12.7	7.55e-05	0	57	0	605028352	54	5727
2026-01-07 00:53:26.05	270.19	30.57	-41.8	-45.4	12.7	6.17e-05	0	57	0	607125504	54	5684
2026-01-07 00:53:27.06	269.89	30.47	-41.8	-45.5	12.7	8.92e-05	0	57	0	609222656	54	5729
2026-01-07 00:53:28.07	269.59	30.37	-41.8	-45.4	12.7	6.71e-05	0	57	0	611319808	54	5689
2026-01-07 00:53:29.08	269.30	30.26	-41.7	-45.3	12.9	7.17e-05	0	57	0	612368384	54	5607
2026-01-07 00:53:30.09	269.00	30.16	-41.7	-45.3	12.9	5.56e-05	0	57	0	614465536	54	5601
2026-01-07 00:53:31.10	268.71	30.05	-41.6	-45.2	13.0	4.27e-05	0	57	0	616562688	54	5532
2026-01-07 00:53:32.11	268.42	29.95	-41.6	-45.2	12.9	3.35e-05	0	57	0	618659840	54	5549
2026-01-07 00:53:33.11	268.13	29.84	-41.6	-45.0	13.1	3.66e-05	0	57	0	620756992	54	5453
2026-01-07 00:53:34.12	267.85	29.73	-41.5	-44.9	13.2	2.44e-05	0	57	0	621805568	54	5363
2026-01-07 00:53:35.13	267.56	29.63	-41.6	-45.1	13.0	3.58e-05	0	57	0	623902720	54	5521
2026-01-07 00:53:36.14	267.28	29.52	-41.7	-45.3	12.9	4.57e-05	0	57	0	625999872	54	5600
2026-01-07 00:53:37.15	267.00	29.41	-41.7	-45.3	12.7	7.24e-05	0	57	0	628097024	54	5655
2026-01-07 00:53:38.16	266.72	29.31	-41.7	-45.4	12.7	7.01e-05	0	57	0	630194176	54	5677
2026-01-07 00:53:39.17	266.44	29.20	-41.7	-45.3	12.8	7.78e-05	0	57	0	631242752	54	5641
2026-01-07 00:53:40.18	266.16	29.09	-41.6	-45.1	13.0	4.27e-05	0	57	0	633339904	54	5507
2026-01-07 00:53:41.19	265.89	28.98	-41.4	-44.8	13.3	1.98e-05	0	57	0	635437056	54	5302
2026-01-07 00:53:42.20	265.62	28.87	-41.2	-44.4	13.7	9.90e-06	0	57	0	637534208	54	5066
2026-01-07 00:53:43.21	265.35	28.76	-41.1	-44.3	13.8	4.50e-06	0	57	0	639631360	54	5018
2026-01-07 00:53:44.22	265.08	28.65	-41.2	-44.5	13.7	1.14e-05	0	57	0	640679936	54	5111
2026-01-07 00:53:45.23	264.81	28.54	-41.3	-44.6	13.5	1.06e-05	0	57	0	642777088	54	5180
2026-01-07 00:53:46.24	264.55	28.43	-41.3	-44.5	13.6	4.50e-06	0	57	0	644874240	54	5136
2026-01-07 00:53:47.25	264.29	28.32	-41.3	-44.6	13.5	8.30e-06	0	57	0	646971392	54	5201
2026-01-07 00:53:48.26	264.03	28.21	-41.2	-44.3	13.8	4.50e-06	0	57	0	649068544	54	5041
2026-01-07 00:53:49.27	263.77	28.10	-41.1	-44.2	13.9	2.20e-06	0	57	0	650117120	54	4929
2026-01-07 00:53:50.28	263.51	27.99	-40.9	-43.8	14.2	7.00e-07	0	57	0	652214272	53	5039
2026-01-07 00:53:51.29	263.25	27.88	-40.8	-43.7	14.4	0.00e+00	0	57	0	654311424	53	4940
2026-01-07 00:53:52.30	263.00	27.77	-40.6	-43.4	14.7	1.50e-06	0	57	0	656408576	53	4795
2026-01-07 00:53:53.30	262.75	27.65	-40.5	-43.4	14.8	0.00e+00	0	57	0	658505728	53	4763
2026-01-07 00:53:54.31	262.50	27.54	-40.5	-43.3	14.9	0.00e+00	0	57	0	660602880	52	4988
2026-01-07 00:53:55.33	262.25	27.43	-40.5	-43.3	14.8	0.00e+00	0	57	0	661651456	52	5010
2026-01-07 00:53:56.34	262.00	27.32	-40.5	-43.2	14.9	0.00e+00	0	57	0	663748608	52	4972
2026-01-07 00:53:57.35	261.76	27.21	-40.5	-43.2	14.9	7.00e-07	0	57	0	665845760	52	4982
2026-01-07 00:53:58.36	261.52	27.09	-40.3	-43.0	15.1	0.00e+00	0	57	0	667942912	52	4850
2026-01-07 00:53:59.37	261.27	26.98	-40.2	-42.8	15.2	0.00e+00	0	57	0	670040064	52	4729
2026-01-07 00:54:00.38	261.03	26.87	-40.1	-42.5	15.6	0.00e+00	0	57	0	671088640	51	4849
2026-01-07 00:54:01.39	260.80	26.76	-39.8	-42.2	16.0	0.00e+00	0	57	0	673185792	51	4657
2026-01-07 00:54:02.40	260.56	26.64	-39.6	-41.9	16.3	0.00e+00	0	57	0	675282944	51	4507
2026-01-07 00:54:03.41	260.33	26.53	-39.5	-41.7	16.4	0.00e+00	0	57	0	677380096	51	4435
2026-01-07 00:54:04.42	260.09	26.42	-39.4	-41.7	16.5	0.00e+00	0	57	0	679477248	50	4664
2026-01-07 00:54:05.42	259.86	26.31	-39.4	-41.7	16.5	0.00e+00	0	56	0	680525824	50	4674
2026-01-07 00:54:06.43	259.63	26.19	-39.5	-41.7	16.4	0.00e+00	0	57	0	682622976	50	4701
2026-01-07 00:54:07.44	259.41	26.08	-39.5	-41.8	16.4	0.00e+00	0	57	0	684720128	50	4734
2026-01-07 00:54:08.45	259.18	25.97	-39.5	-41.7	16.4	0.00e+00	0	57	0	686817280	50	4700
2026-01-07 00:54:09.46	258.95	25.85	-39.4	-41.6	16.6	0.00e+00	0	57	0	688914432	50	4613
2026-01-07 00:54:10.47	258.73	25.74	-39.2	-41.4	16.8	0.00e+00	0	57	0	689963008	50	4512
2026-01-07 00:54:11.48	258.51	25.63	-39.1	-41.3	16.9	0.00e+00	0	56	0	692060160	50	4454
2026-01-07 00:54:12.49	258.29	25.51	-39.0	-41.1	17.0	0.00e+00	0	57	0	694157312	50	4370
2026-01-07 00:54:13.50	258.07	25.40	-39.0	-41.1	17.1	0.00e+00	0	57	0	696254464	49	4614
2026-01-07 00:54:14.51	257.85	25.29	-38.9	-41.0	17.1	0.00e+00	0	57	0	698351616	49	4571
2026-01-07 00:54:15.53	257.64	25.17	-38.9	-41.0	17.1	0.00e+00	0	57	0	699400192	49	4581
2026-01-07 00:54:16.53	257.43	25.06	-38.9	-41.0	17.1	0.00e+00	0	57	0	701497344	49	4585
2026-01-07 00:54:17.54	257.21	24.95	-39.0	-41.0	17.1	0.00e+00	0	57	0	703594496	49	4598
2026-01-07 00:54:18.55	257.00	24.84	-39.0	-41.1	17.0	0.00e+00	0	57	0	705691648	49	4630
2026-01-07 00:54:19.57	256.79	24.72	-39.1	-41.2	16.9	0.00e+00	0	57	0	707788800	49	4663
2026-01-07 00:54:20.58	256.58	24.61	-39.1	-41.2	16.9	0.00e+00	0	57	0	708837376	49	4678
2026-01-07 00:54:21.58	256.38	24.50	-39.1	-41.3	16.8	0.00e+00	0	57	0	710934528	49	4711
2026-01-07 00:54:22.59	256.17	24.39	-39.0	-41.1	16.9	0.00e+00	0	57	0	713031680	49	4650
2026-01-07 00:54:23.60	255.97	24.27	-39.0	-41.1	17.0	0.00e+00	0	57	0	715128832	49	4614
2026-01-07 00:54:24.61	255.77	24.16	-38.9	-41.0	17.0	0.00e+00	0	56	0	717225984	49	4589
2026-01-07 00:54:25.62	255.57	24.05	-38.9	-41.0	17.1	0.00e+00	0	57	0	718274560	49	4549
2026-01-07 00:54:26.63	255.37	23.94	-39.0	-41.1	17.0	0.00e+00	0	57	0	720371712	49	4599
2026-01-07 00:54:27.64	255.17	23.83	-39.0	-41.2	16.9	0.00e+00	0	57	0	722468864	49	4664
2026-01-07 00:54:28.65	254.98	23.71	-39.1	-41.3	16.8	0.00e+00	0	57	0	724566016	49	4713
2026-01-07 00:54:29.66	254.78	23.60	-39.2	-41.4	16.7	0.00e+00	0	56	0	726663168	49	4768
2026-01-07 00:54:30.67	254.59	23.49	-39.3	-41.5	16.6	0.00e+00	0	57	0	728760320	49	4825
2026-01-07 00:54:31.68	254.40	23.38	-39.3	-41.6	16.5	0.00e+00	0	57	0	729808896	49	4882
2026-01-07 00:54:32.69	254.21	23.27	-39.3	-41.6	16.5	0.00e+00	0	57	0	731906048	49	4871
2026-01-07 00:54:33.70	254.02	23.16	-39.3	-41.5	16.6	0.00e+00	0	57	0	734003200	49	4837
2026-01-07 00:54:34.71	253.83	23.05	-39.2	-41.5	16.6	0.00e+00	0	57	0	736100352	49	4818
2026-01-07 00:54:35.72	253.64	22.93	-39.3	-41.5	16.6	0.00e+00	0	57	0	738197504	49	4848
2026-01-07 00:54:36.73	253.46	22.82	-39.3	-41.5	16.5	0.00e+00	0	57	0	739246080	49	4860
2026-01-07 00:54:37.74	253.27	22.71	-39.3	-41.5	16.5	0.00e+00	0	57	0	741343232	49	4869
2026-01-07 00:54:38.75	253.09	22.60	-39.4	-41.7	16.4	0.00e+00	0	57	0	743440384	49	4939
2026-01-07 00:54:39.76	252.91	22.49	-39.5	-41.8	16.3	0.00e+00	0	57	0	745537536	49	5021
2026-01-07 00:54:40.77	252.73	22.38	-39.5	-41.8	16.2	0.00e+00	0	57	0	747634688	49	5041
2026-01-07 00:54:41.78	252.55	22.27	-39.6	-42.0	16.1	0.00e+00	0	57	0	748683264	49	5128
2026-01-07 00:54:42.79	252.37	22.16	-39.6	-42.0	16.0	0.00e+00	0	57	0	750780416	49	5154
2026-01-07 00:54:43.80	252.20	22.05	-39.6	-42.0	16.0	0.00e+00	0	57	0	752877568	49	5125
2026-01-07 00:54:44.81	252.02	21.94	-39.5	-41.8	16.2	0.00e+00	0	57	0	754974720	49	5034
2026-01-07 00:54:45.82	251.85	21.83	-39.4	-41.7	16.3	0.00e+00	0	57	0	757071872	49	4963
2026-01-07 00:54:46.83	251.68	21.72	-39.4	-41.7	16.4	0.00e+00	0	57	0	758120448	49	4933
2026-01-07 00:54:47.84	251.51	21.62	-39.4	-41.6	16.4	0.00e+00	0	57	0	760217600	49	4904
2026-01-07 00:54:48.85	251.34	21.51	-39.4	-41.7	16.3	0.00e+00	0	57	0	762314752	49	4950
2026-01-07 00:54:49.86	251.17	21.40	-39.4	-41.7	16.3	0.00e+00	0	57	0	764411904	49	4945
2026-01-07 00:54:50.87	251.00	21.29	-39.5	-41.8	16.2	0.00e+00	0	57	0	766509056	49	5017
2026-01-07 00:54:51.88	250.83	21.18	-39.6	-42.0	16.1	0.00e+00	0	57	0	767557632	49	5114
2026-01-07 00:54:52.89	250.67	21.07	-39.6	-42.0	16.0	0.00e+00	0	57	0	769654784	49	5147
2026-01-07 00:54:53.90	250.50	20.97	-39.6	-42.0	16.1	0.00e+00	0	57	0	771751936	50	4821
2026-01-07 00:54:54.91	250.34	20.86	-39.7	-42.0	16.0	0.00e+00	0	57	0	773849088	50	4861
2026-01-07 00:54:55.92	250.18	20.75	-39.6	-42.0	16.1	0.00e+00	0	57	0	775946240	50	4822
2026-01-07 00:54:56.93	250.02	20.64	-39.6	-42.0	16.0	0.00e+00	0	57	0	776994816	50	4829
2026-01-07 00:54:57.95	249.86	20.54	-39.5	-41.8	16.2	0.00e+00	0	56	0	779091968	50	4758
2026-01-07 00:54:58.95	249.70	20.43	-39.6	-42.0	16.0	0.00e+00	0	57	0	781189120	50	4859
2026-01-07 00:54:59.97	249.54	20.32	-39.6	-41.9	16.1	0.00e+00	0	57	0	783286272	50	4802
2026-01-07 00:55:00.98	249.39	20.22	-39.6	-42.0	16.0	0.00e+00	0	57	0	785383424	50	4828
2026-01-07 00:55:01.99	249.23	20.11	-39.7	-42.2	15.8	0.00e+00	0	57	0	786432000	50	4935
2026-01-07 00:55:03.00	249.08	20.01	-39.8	-42.2	15.8	0.00e+00	0	57	0	788529152	50	4976
2026-01-07 00:55:04.01	248.92	19.90	-39.8	-42.3	15.7	0.00e+00	0	57	0	790626304	50	5020
2026-01-07 00:55:05.02	248.77	19.80	-39.9	-42.5	15.5	0.00e+00	0	57	0	792723456	50	5104
2026-01-07 00:55:06.03	248.62	19.69	-40.0	-42.6	15.4	0.00e+00	0	57	0	794820608	50	5179
2026-01-07 00:55:07.04	248.47	19.59	-40.0	-42.6	15.3	0.00e+00	0	57	0	796917760	50	5198
2026-01-07 00:55:08.05	248.32	19.48	-40.0	-42.6	15.3	0.00e+00	0	57	0	797966336	50	5200
2026-01-07 00:55:09.05	248.18	19.38	-40.0	-42.6	15.4	7.00e-07	0	57	0	800063488	50	5182
2026-01-07 00:55:10.07	248.03	19.27	-40.0	-42.6	15.4	0.00e+00	0	57	0	802160640	50	5165
2026-01-07 00:55:11.08	247.88	19.17	-40.0	-42.6	15.4	0.00e+00	0	57	0	804257792	50	5186
2026-01-07 00:55:12.08	247.74	19.07	-40.0	-42.5	15.4	0.00e+00	0	57	0	806354944	50	5142
2026-01-07 00:55:13.09	247.60	18.96	-40.0	-42.6	15.4	7.00e-07	0	57	0	807403520	50	5181
2026-01-07 00:55:14.10	247.45	18.86	-40.0	-42.6	15.3	0.00e+00	0	57	0	809500672	50	5194
2026-01-07 00:55:15.11	247.31	18.76	-40.2	-42.9	15.1	0.00e+00	0	57	0	811597824	50	5360
2026-01-07 00:55:16.12	247.17	18.65	-40.2	-43.0	15.0	0.00e+00	0	57	0	813694976	51	5103
2026-01-07 00:55:17.13	247.03	18.55	-40.3	-43.0	14.9	0.00e+00	0	57	0	815792128	51	5151
2026-01-07 00:55:18.14	246.89	18.45	-40.4	-43.2	14.7	0.00e+00	0	57	0	816840704	51	5273
2026-01-07 00:55:19.15	246.75	18.35	-40.4	-43.2	14.7	0.00e+00	0	57	0	818937856	51	5260
2026-01-07 00:55:20.16	246.62	18.25	-40.4	-43.2	14.7	7.00e-07	0	57	0	821035008	51	5262
2026-01-07 00:55:21.17	246.48	18.15	-40.5	-43.3	14.6	0.00e+00	0	56	0	823132160	51	5336
2026-01-07 00:55:22.18	246.35	18.04	-40.3	-43.0	14.9	0.00e+00	0	57	0	825229312	51	5139
2026-01-07 00:55:23.19	246.21	17.94	-40.2	-42.9	15.0	0.00e+00	0	56	0	826277888	51	5094
2026-01-07 00:55:24.20	246.08	17.84	-40.2	-42.9	15.0	0.00e+00	0	56	0	828375040	51	5089
2026-01-07 00:55:25.21	245.95	17.74	-40.2	-42.9	15.0	0.00e+00	0	57	0	830472192	51	5047
2026-01-07 00:55:26.22	245.81	17.64	-40.2	-42.9	15.0	0.00e+00	0	57	0	832569344	51	5076
2026-01-07 00:55:27.23	245.68	17.54	-40.2	-42.9	15.0	0.00e+00	0	57	0	834666496	51	5074
2026-01-07 00:55:28.24	245.55	17.44	-40.2	-43.0	14.9	0.00e+00	0	57	0	835715072	51	5121
2026-01-07 00:55:29.25	245.42	17.34	-40.4	-43.2	14.7	7.00e-07	0	57	0	837812224	51	5250
2026-01-07 00:55:30.26	245.30	17.24	-40.5	-43.4	14.5	0.00e+00	0	57	0	839909376	51	5354
2026-01-07 00:55:31.27	245.17	17.15	-40.6	-43.5	14.4	0.00e+00	0	57	0	842006528	51	5436
2026-01-07 00:55:32.28	245.04	17.05	-40.7	-43.7	14.1	0.00e+00	0	57	0	844103680	51	5583
2026-01-07 00:55:33.29	244.92	16.95	-40.7	-43.8	14.0	3.00e-06	0	57	0	845152256	52	5283
2026-01-07 00:55:34.30	244.79	16.85	-40.6	-43.7	14.1	7.00e-07	0	57	0	847249408	52	5257
2026-01-07 00:55:35.31	244.67	16.75	-40.7	-43.7	14.0	1.50e-06	0	57	0	849346560	52	5265
2026-01-07 00:55:36.32	244.55	16.65	-40.6	-43.7	14.1	2.20e-06	0	57	0	851443712	52	5243
2026-01-07 00:55:37.33	244.42	16.56	-40.6	-43.6	14.1	2.20e-06	0	57	0	853540864	52	5184
2026-01-07 00:55:38.34	244.30	16.46	-40.5	-43.4	14.3	3.00e-06	0	57	0	854589440	52	5084
2026-01-07 00:55:39.35	244.18	16.36	-40.4	-43.4	14.4	1.50e-06	0	57	0	856686592	52	5060
2026-01-07 00:55:40.36	244.06	16.27	-40.4	-43.3	14.4	7.00e-07	0	57	0	858783744	52	5027
2026-01-07 00:55:41.37	243.94	16.17	-40.4	-43.4	14.4	0.00e+00	0	57	0	860880896	52	5052
2026-01-07 00:55:42.38	243.82	16.07	-40.4	-43.3	14.5	1.50e-06	0	57	0	862978048	52	4997
2026-01-07 00:55:43.39	243.71	15.98	-40.4	-43.3	14.4	7.00e-07	0	57	0	865075200	52	5004
2026-01-07 00:55:44.40	243.59	15.88	-40.5	-43.5	14.2	0.00e+00	0	57	0	866123776	52	5150
2026-01-07 00:55:45.41	243.47	15.79	-40.6	-43.6	14.1	7.00e-07	0	57	0	868220928	52	5185
2026-01-07 00:55:46.42	243.36	15.69	-40.7	-43.7	14.0	2.20e-06	0	57	0	870318080	52	5276
2026-01-07 00:55:47.43	243.24	15.60	-40.6	-43.7	14.0	7.00e-07	0	57	0	872415232	52	5260
2026-01-07 00:55:48.44	243.13	15.50	-40.7	-43.9	13.8	2.20e-06	0	57	0	874512384	52	5367
2026-01-07 00:55:49.45	243.02	15.41	-40.7	-43.9	13.8	3.00e-06	0	57	0	875560960	52	5360
2026-01-07 00:55:50.45	242.91	15.32	-40.7	-43.9	13.9	4.50e-06	0	57	0	877658112	52	5341
2026-01-07 00:55:51.46	242.79	15.22	-40.7	-43.8	13.9	6.10e-06	0	57	0	879755264	52	5332
2026-01-07 00:55:52.47	242.68	15.13	-40.5	-43.6	14.1	1.50e-06	0	57	0	881852416	52	5171
2026-01-07 00:55:53.49	242.57	15.03	-40.5	-43.5	14.1	3.00e-06	0	57	0	883949568	52	5148
2026-01-07 00:55:54.50	242.46	14.94	-40.5	-43.5	14.2	1.50e-06	0	57	0	884998144	52	5130
2026-01-07 00:55:55.51	242.35	14.85	-40.5	-43.5	14.2	1.50e-06	0	57	0	887095296	52	5120
2026-01-07 00:55:56.52	242.25	14.76	-40.4	-43.4	14.3	3.00e-06	0	57	0	889192448	52	5072
2026-01-07 00:55:57.53	242.14	14.66	-40.4	-43.4	14.3	7.00e-07	0	57	0	891289600	52	5097
2026-01-07 00:55:58.53	242.03	14.57	-40.4	-43.3	14.3	3.00e-06	0	57	0	893386752	52	5041
2026-01-07 00:55:59.54	241.93	14.48	-40.4	-43.4	14.3	2.20e-06	0	57	0	894435328	52	5071
2026-01-07 00:56:00.55	241.82	14.39	-40.5	-43.5	14.1	1.50e-06	0	57	0	896532480	52	5144
2026-01-07 00:56:01.56	241.72	14.30	-40.6	-43.7	14.0	7.00e-07	0	57	0	898629632	52	5234
2026-01-07 00:56:02.57	241.61	14.21	-40.7	-43.9	13.7	5.30e-06	0	57	0	900726784	52	5388
2026-01-07 00:56:03.59	241.51	14.12	-40.8	-44.0	13.6	6.80e-06	0	57	0	902823936	52	5443
2026-01-07 00:56:04.60	241.40	14.02	-40.7	-43.9	13.7	7.60e-06	0	57	0	903872512	52	5389
2026-01-07 00:56:05.60	241.30	13.94	-40.8	-44.0	13.6	1.06e-05	0	57	0	905969664	52	5441
2026-01-07 00:56:06.61	241.20	13.85	-40.8	-44.1	13.5	7.60e-06	0	57	0	908066816	52	5505
2026-01-07 00:56:07.62	241.10	13.76	-40.8	-44.1	13.5	1.37e-05	0	57	0	910163968	52	5475
2026-01-07 00:56:08.63	241.00	13.67	-40.7	-43.9	13.7	7.60e-06	0	57	0	912261120	52	5382
2026-01-07 00:56:09.64	240.90	13.58	-40.7	-44.0	13.6	3.00e-06	0	57	0	913309696	52	5404
2026-01-07 00:56:10.65	240.80	13.49	-40.6	-43.8	13.8	3.00e-06	0	57	0	915406848	52	5319
2026-01-07 00:56:11.66	240.70	13.40	-40.6	-43.7	13.9	6.10e-06	0	57	0	917504000	52	5241
2026-01-07 00:56:12.67	240.60	13.31	-40.6	-43.8	13.8	6.80e-06	0	57	0	919601152	52	5286
2026-01-07 00:56:13.68	240.51	13.22	-40.6	-43.8	13.8	3.80e-06	0	57	0	921698304	52	5315
2026-01-07 00:56:14.69	240.41	13.13	-40.6	-43.8	13.8	6.80e-06	0	57	0	922746880	52	5318
2026-01-07 00:56:15.70	240.31	13.04	-40.7	-43.9	13.7	4.50e-06	0	57	0	924844032	52	5372
2026-01-07 00:56:16.71	240.22	12.96	-40.6	-43.9	13.7	5.30e-06	0	57	0	926941184	52	5354
2026-01-07 00:56:17.72	240.12	12.87	-40.7	-43.9	13.6	9.10e-06	0	57	0	929038336	52	5400
2026-01-07 00:56:18.72	240.03	12.78	-40.8	-44.1	13.4	8.30e-06	0	57	0	931135488	52	5501
2026-01-07 00:56:19.73	239.94	12.70	-40.7	-44.0	13.5	9.10e-06	0	57	0	933232640	52	5442
2026-01-07 00:56:20.74	239.84	12.61	-40.7	-44.0	13.5	5.30e-06	0	57	0	934281216	52	5445
2026-01-07 00:56:21.75	239.75	12.52	-40.8	-44.1	13.4	1.37e-05	0	57	0	936378368	52	5498
2026-01-07 00:56:22.76	239.66	12.44	-40.7	-44.0	13.5	1.52e-05	0	57	0	938475520	52	5446
2026-01-07 00:56:23.77	239.57	12.35	-40.8	-44.1	13.5	1.52e-05	0	57	0	940572672	52	5484
2026-01-07 00:56:24.78	239.48	12.26	-40.7	-44.1	13.4	1.37e-05	0	57	0	942669824	52	5494
2026-01-07 00:56:25.79	239.39	12.18	-40.7	-44.0	13.4	1.60e-05	0	57	0	943718400	52	5450
2026-01-07 00:56:26.80	239.30	12.09	-40.6	-43.9	13.6	1.06e-05	0	57	0	945815552	52	5347
2026-01-07 00:56:27.81	239.21	12.01	-40.6	-43.9	13.6	8.30e-06	0	57	0	947912704	52	5349
2026-01-07 00:56:28.82	239.12	11.92	-40.6	-43.9	13.6	3.80e-06	0	57	0	950009856	52	5350
2026-01-07 00:56:29.83	239.03	11.84	-40.6	-43.9	13.6	7.60e-06	0	57	0	952107008	52	5348
2026-01-07 00:56:30.84	238.94	11.75	-40.7	-44.0	13.5	9.10e-06	0	57	0	953155584	52	5424
2026-01-07 00:56:31.85	238.85	11.67	-40.7	-44.1	13.4	1.44e-05	0	57	0	955252736	52	5466
2026-01-07 00:56:32.86	238.77	11.59	-40.8	-44.1	13.3	1.44e-05	0	57	0	957349888	52	5521
2026-01-07 00:56:33.87	238.68	11.50	-40.9	-44.4	13.0	3.58e-05	0	57	0	959447040	52	5689
2026-01-07 00:56:34.88	238.59	11.42	-40.8	-44.3	13.0	2.89e-05	0	57	0	961544192	52	5639
2026-01-07 00:56:35.89	238.51	11.34	-41.0	-44.6	12.8	4.50e-05	0	57	0	962592768	52	5807
2026-01-07 00:56:36.90	238.42	11.25	-41.1	-44.9	12.5	6.56e-05	0	57	0	964689920	52	6014
2026-01-07 00:56:37.91	238.34	11.17	-41.1	-44.9	12.5	9.00e-05	0	57	0	966787072	52	5994
2026-01-07 00:56:38.92	238.26	11.09	-41.1	-44.9	12.5	1.10e-04	0	57	0	968884224	52	5996
2026-01-07 00:56:39.93	238.17	11.00	-41.1	-44.8	12.6	1.07e-04	0	56	0	970981376	52	5930
2026-01-07 00:56:40.94	238.09	10.92	-41.2	-45.0	12.4	1.39e-04	0	57	0	972029952	52	6077
2026-01-07 00:56:41.95	238.01	10.84	-41.2	-45.1	12.3	1.41e-04	0	57	0	974127104	52	6137
2026-01-07 00:56:42.96	237.93	10.76	-41.1	-44.9	12.5	1.59e-04	0	57	0	976224256	52	5995
2026-01-07 00:56:43.97	237.84	10.68	-41.1	-44.9	12.4	1.96e-04	0	57	0	978321408	53	5697
2026-01-07 00:56:44.98	237.76	10.60	-41.1	-44.9	12.4	1.25e-04	0	57	0	980418560	53	5682
2026-01-07 00:56:45.99	237.68	10.51	-41.1	-45.0	12.3	1.30e-04	0	57	0	981467136	53	5733
2026-01-07 00:56:47.00	237.60	10.43	-41.0	-44.7	12.6	1.52e-04	0	57	0	983564288	53	5551
2026-01-07 00:56:48.01	237.52	10.35	-41.1	-44.9	12.4	1.39e-04	0	57	0	985661440	53	5692
2026-01-07 00:56:49.02	237.44	10.27	-41.0	-44.8	12.5	1.54e-04	0	57	0	987758592	53	5620
2026-01-07 00:56:50.03	237.37	10.19	-41.1	-44.8	12.4	1.17e-04	0	57	0	989855744	53	5644
2026-01-07 00:56:51.04	237.29	10.11	-41.0	-44.7	12.5	1.43e-04	0	57	0	990904320	53	5589
2026-01-07 00:56:52.04	237.21	10.03	-41.0	-44.8	12.4	1.28e-04	0	57	0	993001472	53	5623
2026-01-07 00:56:53.05	237.13	9.95	-41.1	-45.0	12.3	1.92e-04	0	57	0	995098624	53	5736
2026-01-07 00:56:54.06	237.06	9.87	-41.1	-45.0	12.2	1.60e-04	0	57	0	997195776	53	5746
2026-01-07 00:56:55.07	236.98	9.79	-41.1	-45.0	12.2	2.22e-04	0	57	0	999292928	53	5770
2026-01-07 00:56:56.08	236.90	9.71	-41.2	-45.1	12.0	2.97e-04	0	57	0	1000341504	53	5855
2026-01-07 00:56:57.09	236.83	9.64	-41.1	-45.0	12.2	3.04e-04	0	57	0	1002438656	53	5778
2026-01-07 00:56:58.10	236.75	9.56	-41.2	-45.3	11.9	3.19e-04	0	57	0	1004535808	53	5944
2026-01-07 00:56:59.11	236.68	9.48	-41.2	-45.3	11.9	3.46e-04	0	57	0	1006632960	53	5935
2026-01-07 00:57:00.12	236.60	9.40	-41.2	-45.2	12.0	3.89e-04	0	57	0	1008730112	53	5896
2026-01-07 00:57:01.13	236.53	9.32	-41.3	-45.5	11.6	4.27e-04	0	57	0	1010827264	53	6087
2026-01-07 00:57:02.14	236.46	9.24	-41.3	-45.4	11.7	5.65e-04	0	57	0	1011875840	53	6045
2026-01-07 00:57:03.15	236.38	9.17	-41.3	-45.4	11.7	5.03e-04	0	57	0	1013972992	53	6025
2026-01-07 00:57:04.16	236.31	9.09	-41.3	-45.4	11.7	5.61e-04	0	57	0	1016070144	53	6055
2026-01-07 00:57:05.17	236.24	9.01	-41.3	-45.5	11.6	6.75e-04	0	57	0	1018167296	53	6112
2026-01-07 00:57:06.18	236.16	8.93	-41.3	-45.6	11.5	7.67e-04	0	57	0	1020264448	53	6173
2026-01-07 00:57:07.19	236.09	8.86	-41.2	-45.3	11.8	6.71e-04	0	57	0	1021313024	53	5973
2026-01-07 00:57:08.20	236.02	8.78	-41.3	-45.6	11.4	8.45e-04	0	57	0	1023410176	53	6195
2026-01-07 00:57:09.21	235.95	8.70	-41.3	-45.5	11.5	6.33e-04	0	57	0	1025507328	53	6094
2026-01-07 00:57:10.22	235.88	8.63	-41.3	-45.6	11.5	8.13e-04	0	57	0	1027604480	53	6134
2026-01-07 00:57:11.23	235.81	8.55	-41.4	-45.7	11.3	9.70e-04	0	57	0	1029701632	53	6259
2026-01-07 00:57:12.24	235.74	8.48	-41.3	-45.6	11.4	9.25e-04	0	57	0	1030750208	53	6183
2026-01-07 00:57:13.25	235.67	8.40	-41.4	-45.9	11.1	1.48e-03	0	57	0	1032847360	53	6380
2026-01-07 00:57:14.26	235.60	8.32	-41.3	-45.7	11.2	9.46e-04	0	57	0	1034944512	53	6253
2026-01-07 00:57:15.27	235.53	8.25	-41.3	-45.5	11.4	8.41e-04	0	57	0	1037041664	53	6126
2026-01-07 00:57:16.28	235.47	8.17	-41.3	-45.7	11.3	1.53e-03	0	57	0	1039138816	53	6221
2026-01-07 00:57:17.29	235.40	8.10	-41.4	-45.9	11.0	1.57e-03	0	57	0	1040187392	53	6417
2026-01-07 00:57:18.30	235.33	8.02	-41.4	-45.9	11.0	1.60e-03	0	57	0	1042284544	53	6376
2026-01-07 00:57:19.31	235.26	7.95	-44.3	-58.7	3.8	1.49e+00	0	57	104	1043333120	59	19782
2026-01-07 00:57:20.32	235.20	7.87	-44.6	-59.1	3.8	1.49e+00	0	57	104	1043333120	59	20585
2026-01-07 00:57:21.33	235.13	7.80	-44.7	-59.4	3.8	1.49e+00	0	57	104	1043333120	60	20214
2026-01-07 00:57:22.34	235.06	7.73	-44.8	-59.5	3.8	1.49e+00	0	57	104	1043333120	60	20463
2026-01-07 00:57:23.35	235.00	7.65	-44.9	-59.6	3.8	1.49e+00	0	57	104	1043333120	60	20749
2026-01-07 00:57:24.36	234.93	7.58	-45.0	-59.7	3.8	1.49e+00	0	57	104	1043333120	60	20906
2026-01-07 00:57:25.37	234.87	7.50	-45.0	-59.8	3.8	1.49e+00	0	57	104	1043333120	60	21082
2026-01-07 00:57:26.38	234.80	7.43	-45.1	-59.8	3.8	1.49e+00	0	57	104	1043333120	60	21199
2026-01-07 00:57:27.39	234.74	7.36	-45.0	-59.8	3.8	1.49e+00	0	57	104	1043333120	60	21136
2026-01-07 00:57:28.40	234.67	7.28	-45.0	-59.8	3.8	1.49e+00	0	57	104	1043333120	60	21123
2026-01-07 00:57:29.41	234.61	7.21	-45.0	-59.8	3.8	1.49e+00	0	57	104	1043333120	60	21135
2026-01-07 00:57:30.42	234.55	7.14	-45.0	-59.8	3.8	1.49e+00	0	57	104	1043333120	60	21067
2026-01-07 00:57:31.43	234.48	7.07	-45.0	-59.8	3.8	1.49e+00	0	57	104	1043333120	60	21060
2026-01-07 00:57:32.44	234.42	6.99	-45.0	-59.7	3.8	1.49e+00	0	57	104	1043333120	60	20999
2026-01-07 00:57:33.45	234.36	6.92	-45.0	-59.8	3.8	1.49e+00	0	57	104	1043333120	60	21039
2026-01-07 00:57:34.46	234.30	6.85	-45.0	-59.8	3.8	1.49e+00	0	57	104	1043333120	60	21153
2026-01-07 00:57:35.47	234.23	6.78	-45.0	-59.8	3.8	1.49e+00	0	57	104	1043333120	60	21088
2026-01-07 00:57:36.48	234.17	6.71	-44.9	-59.8	3.8	1.49e+00	0	57	104	1043333120	60	21038
2026-01-07 00:57:37.49	234.11	6.63	-45.0	-59.8	3.8	1.49e+00	0	57	104	1043333120	60	21029
2026-01-07 00:57:38.51	234.05	6.56	-44.9	-59.8	3.8	1.49e+00	0	57	104	1043333120	60	21036
2026-01-07 00:57:39.52	233.99	6.49	-44.9	-59.8	3.8	1.49e+00	0	57	104	1043333120	60	21047
2026-01-07 00:57:40.53	233.93	6.42	-44.9	-59.8	3.8	1.49e+00	0	57	104	1043333120	60	21083
2026-01-07 00:57:41.54	233.87	6.35	-45.0	-59.7	3.8	1.49e+00	0	57	104	1043333120	60	20952
2026-01-07 00:57:42.55	233.81	6.28	-45.0	-59.8	3.8	1.49e+00	0	57	104	1043333120	60	21044
2026-01-07 00:57:43.56	233.75	6.21	-44.9	-59.7	3.8	1.49e+00	0	57	104	1043333120	60	21014
2026-01-07 00:57:44.57	233.69	6.14	-44.9	-59.7	3.8	1.49e+00	0	57	104	1043333120	60	20975
2026-01-07 00:57:45.57	233.63	6.07	-44.9	-59.8	3.8	1.49e+00	0	57	104	1043333120	60	21029
2026-01-07 00:57:46.58	233.58	6.00	-44.9	-59.7	3.8	1.49e+00	0	57	104	1043333120	60	21014
2026-01-07 00:57:47.59	233.52	5.93	-44.9	-59.8	3.8	1.49e+00	0	57	104	1043333120	60	21019
2026-01-07 00:57:48.60	233.46	5.86	-44.9	-59.7	3.8	1.49e+00	0	57	104	1043333120	60	21007
2026-01-07 00:57:49.62	233.40	5.79	-44.9	-59.8	3.8	1.49e+00	0	57	104	1043333120	60	21040
2026-01-07 00:57:50.62	233.34	5.72	-44.9	-59.7	3.8	1.49e+00	0	57	104	1043333120	60	21004
2026-01-07 00:57:51.63	233.29	5.65	-44.9	-59.7	3.8	1.49e+00	0	57	104	1043333120	60	20952
2026-01-07 00:57:52.64	233.23	5.58	-44.9	-59.7	3.8	1.49e+00	0	57	104	1043333120	60	21013
2026-01-07 00:57:53.66	233.17	5.51	-44.9	-59.7	3.8	1.49e+00	0	57	104	1043333120	60	20975
2026-01-07 00:57:54.67	233.12	5.44	-44.9	-59.7	3.8	1.49e+00	0	57	104	1043333120	60	20981
2026-01-07 00:57:55.67	233.06	5.37	-44.9	-59.7	3.8	1.49e+00	0	57	104	1043333120	60	20943
2026-01-07 00:57:56.68	233.01	5.31	-44.9	-59.7	3.8	1.49e+00	0	57	104	1043333120	60	20949
2026-01-07 00:57:57.69	232.95	5.24	-44.9	-59.7	3.8	1.49e+00	0	57	104	1043333120	60	20957
2026-01-07 00:57:58.71	232.90	5.17	-44.9	-59.7	3.8	1.49e+00	0	57	104	1043333120	60	20964
2026-01-07 00:57:59.72	232.84	5.10	-44.9	-59.7	3.8	1.49e+00	0	57	104	1043333120	60	20953
