passes_logs/2026/01/07/R2.0S_Moscow/R2.0S_Moscow__20260107_021118_AQUA_rec.log

#Pass ID: 20260107_021118_AQUA
#Satellite: AQUA
#Configuration: AQUA
#almurnet v.1.7.20251203
#Start time: 2026-01-07 02:11:19

#Version: 2.2.20231116
#Station: R2.0S_Moscow
#Location: 37.707566 lon 55.798166 lat
#TLE: 1 27424U 02022A   26004.96787593  .00001598  00000+0  32997-3 0  9996
#TLE: 2 27424  98.4069 331.2279 0002002  90.2377   0.6092 14.61798176259425

#Time	Az	El	Level	Level2	SNR	BER	BlckErr	Temp	State	Recorded	gain1	gain2
2026-01-07 02:11:19.46	10.67	2.04	-40.6	-59.5	3.8	7.46e-01	0	53	0	0	53	30505
2026-01-07 02:11:20.46	10.63	2.10	-40.7	-59.5	3.8	7.45e-01	0	53	104	0	51	34475
2026-01-07 02:11:21.47	10.59	2.17	-40.7	-59.5	3.8	7.44e-01	0	53	104	0	51	34347
2026-01-07 02:11:22.48	10.55	2.23	-40.7	-59.5	3.8	7.44e-01	0	53	104	0	51	34383
2026-01-07 02:11:23.49	10.51	2.30	-40.7	-59.5	3.8	7.46e-01	0	54	104	0	51	34322
2026-01-07 02:11:24.50	10.46	2.36	-40.7	-59.5	3.8	7.44e-01	0	53	104	0	51	34326
2026-01-07 02:11:25.51	10.42	2.43	-40.7	-59.5	3.8	7.45e-01	0	54	104	0	51	34308
2026-01-07 02:11:26.53	10.38	2.49	-40.7	-59.5	3.8	7.43e-01	0	54	104	0	51	34278
2026-01-07 02:11:27.54	10.33	2.56	-40.7	-59.5	3.8	7.45e-01	0	53	104	0	51	34336
2026-01-07 02:11:28.55	10.29	2.62	-40.7	-59.5	3.8	7.44e-01	0	54	104	0	51	34272
2026-01-07 02:11:29.56	10.25	2.69	-40.7	-59.5	3.8	7.50e-01	0	54	104	0	51	34305
2026-01-07 02:11:30.57	10.20	2.76	-40.7	-59.5	3.8	7.49e-01	0	54	104	0	51	34310
2026-01-07 02:11:31.58	10.16	2.82	-40.7	-59.5	3.8	7.46e-01	0	54	104	0	51	34365
2026-01-07 02:11:32.59	10.11	2.89	-40.7	-59.5	3.8	7.46e-01	0	54	104	0	51	34274
2026-01-07 02:11:33.60	10.07	2.95	-40.7	-59.5	3.8	7.45e-01	0	54	104	0	51	34175
2026-01-07 02:11:34.61	10.03	3.02	-40.7	-59.5	3.8	7.46e-01	0	54	104	0	51	34281
2026-01-07 02:11:35.62	9.98	3.09	-40.6	-59.5	3.8	7.45e-01	0	54	104	0	51	34200
2026-01-07 02:11:36.63	9.94	3.15	-40.7	-59.5	3.8	7.44e-01	0	54	104	0	51	34220
2026-01-07 02:11:37.64	9.89	3.22	-40.6	-59.5	3.8	7.45e-01	0	54	104	0	51	34225
2026-01-07 02:11:38.66	9.84	3.29	-40.6	-59.5	3.8	7.45e-01	0	54	104	0	51	34188
2026-01-07 02:11:39.67	9.80	3.36	-40.6	-59.5	3.8	7.44e-01	0	54	104	0	51	34145
2026-01-07 02:11:40.68	9.75	3.42	-40.6	-59.5	3.8	7.46e-01	0	54	104	0	51	34193
2026-01-07 02:11:41.69	9.70	3.49	-40.6	-59.5	3.8	7.46e-01	0	54	104	0	51	34145
2026-01-07 02:11:42.70	9.66	3.56	-40.6	-59.5	3.8	7.45e-01	0	54	104	0	51	34161
2026-01-07 02:11:43.71	9.61	3.63	-40.6	-59.5	3.8	7.44e-01	0	54	104	0	51	34184
2026-01-07 02:11:44.72	9.56	3.70	-40.6	-59.5	3.8	7.47e-01	0	54	104	0	51	34166
2026-01-07 02:11:45.73	9.52	3.76	-40.6	-59.5	3.8	7.47e-01	0	54	104	0	51	34104
2026-01-07 02:11:46.74	9.47	3.83	-40.6	-59.5	3.8	7.42e-01	0	54	104	0	51	34147
2026-01-07 02:11:47.75	9.42	3.90	-40.6	-59.5	3.8	7.48e-01	0	54	104	0	51	34214
2026-01-07 02:11:48.76	9.37	3.97	-40.6	-59.5	3.8	7.47e-01	0	54	104	0	51	34144
2026-01-07 02:11:49.78	9.32	4.04	-40.6	-59.5	3.8	7.46e-01	0	54	104	0	51	34136
2026-01-07 02:11:50.79	9.27	4.11	-40.6	-59.5	3.8	7.48e-01	0	54	104	0	51	34128
2026-01-07 02:11:51.80	9.22	4.18	-40.6	-59.5	3.8	7.46e-01	0	54	104	0	51	34180
2026-01-07 02:11:52.81	9.18	4.25	-40.6	-59.5	3.8	7.43e-01	0	54	104	0	51	34108
2026-01-07 02:11:53.82	9.13	4.32	-40.6	-59.5	3.8	7.45e-01	0	54	104	0	51	34155
2026-01-07 02:11:54.83	9.08	4.39	-40.6	-59.5	3.8	7.46e-01	0	54	104	0	51	34210
2026-01-07 02:11:55.84	9.03	4.46	-40.6	-59.5	3.8	7.44e-01	0	54	104	0	51	34139
2026-01-07 02:11:56.85	8.97	4.53	-40.6	-59.5	3.8	7.45e-01	0	54	104	0	51	34130
2026-01-07 02:11:57.86	8.92	4.60	-40.6	-59.5	3.8	7.45e-01	0	54	104	0	51	34089
2026-01-07 02:11:58.87	8.87	4.67	-40.6	-59.5	3.8	7.42e-01	0	54	104	0	51	34164
2026-01-07 02:11:59.89	8.82	4.74	-40.6	-59.5	3.8	7.48e-01	0	54	104	0	51	34137
2026-01-07 02:12:00.87	8.77	4.81	-40.6	-59.5	3.8	7.45e-01	0	54	104	0	51	34098
2026-01-07 02:12:01.88	8.72	4.88	-40.6	-59.5	3.8	7.45e-01	0	54	104	0	51	34087
2026-01-07 02:12:02.89	8.67	4.95	-40.6	-59.5	3.8	7.47e-01	0	54	104	0	51	34108
2026-01-07 02:12:03.90	8.61	5.03	-40.6	-59.5	3.8	7.45e-01	0	54	104	0	51	34099
2026-01-07 02:12:04.91	8.56	5.10	-40.6	-59.5	3.8	7.48e-01	0	54	104	0	51	34175
2026-01-07 02:12:05.92	8.51	5.17	-40.6	-59.5	3.8	7.44e-01	0	55	104	0	51	34112
2026-01-07 02:12:06.93	8.45	5.24	-40.6	-59.5	3.8	7.45e-01	0	55	104	0	51	34159
2026-01-07 02:12:07.94	8.40	5.31	-40.6	-59.5	3.8	7.45e-01	0	54	104	0	51	34147
2026-01-07 02:12:08.95	8.35	5.39	-40.6	-59.4	3.8	7.46e-01	0	54	104	0	51	34083
2026-01-07 02:12:09.97	8.29	5.46	-40.6	-59.5	3.8	7.42e-01	0	54	104	0	51	34174
2026-01-07 02:12:10.98	8.24	5.53	-40.6	-59.5	3.8	7.43e-01	0	55	104	0	51	34127
2026-01-07 02:12:11.99	8.18	5.61	-40.6	-59.5	3.8	7.47e-01	0	54	104	0	51	34154
2026-01-07 02:12:13.00	8.12	5.68	-40.6	-59.4	3.8	7.44e-01	0	55	104	0	51	34071
2026-01-07 02:12:14.01	8.07	5.75	-40.6	-59.5	3.8	7.45e-01	0	55	104	0	51	34109
2026-01-07 02:12:15.02	8.01	5.83	-40.6	-59.5	3.8	7.48e-01	0	55	104	0	51	34115
2026-01-07 02:12:16.03	7.96	5.90	-40.6	-59.4	3.8	7.47e-01	0	55	104	0	51	34063
2026-01-07 02:12:17.04	7.90	5.98	-40.6	-59.5	3.8	7.46e-01	0	55	104	0	51	34099
2026-01-07 02:12:18.05	7.84	6.05	-40.6	-59.5	3.8	7.46e-01	0	55	104	0	51	34138
2026-01-07 02:12:19.06	7.78	6.13	-40.6	-59.5	3.8	7.46e-01	0	55	104	0	51	34090
2026-01-07 02:12:20.07	7.73	6.20	-40.6	-59.5	3.8	7.43e-01	0	55	104	0	51	34160
2026-01-07 02:12:21.08	7.67	6.28	-40.6	-59.5	3.8	7.46e-01	0	55	104	0	51	34098
2026-01-07 02:12:22.09	7.61	6.35	-40.6	-59.5	3.8	7.45e-01	0	55	104	0	51	34089
2026-01-07 02:12:23.11	7.55	6.43	-40.6	-59.5	3.8	7.44e-01	0	55	104	0	51	34098
2026-01-07 02:12:24.12	7.49	6.50	-40.6	-59.5	3.8	7.48e-01	0	55	104	0	51	34109
2026-01-07 02:12:25.13	7.43	6.58	-40.6	-59.5	3.8	7.50e-01	0	55	104	0	51	34086
2026-01-07 02:12:26.14	7.37	6.66	-40.6	-59.5	3.8	7.46e-01	0	55	104	0	51	34090
2026-01-07 02:12:27.15	7.31	6.73	-40.6	-59.5	3.8	7.40e-01	0	55	104	0	51	34119
2026-01-07 02:12:28.16	7.25	6.81	-40.6	-59.4	3.8	7.47e-01	0	55	104	0	51	34056
2026-01-07 02:12:29.17	7.19	6.89	-40.6	-59.5	3.8	7.43e-01	0	55	104	0	51	34094
2026-01-07 02:12:30.18	7.13	6.96	-40.6	-59.4	3.8	7.44e-01	0	55	104	0	51	34068
2026-01-07 02:12:31.19	7.07	7.04	-40.6	-59.4	3.8	7.43e-01	0	55	104	0	51	34070
2026-01-07 02:12:32.20	7.00	7.12	-40.6	-59.5	3.8	7.45e-01	0	55	104	0	51	34087
2026-01-07 02:12:33.21	6.94	7.20	-40.6	-59.5	3.8	7.45e-01	0	55	104	0	51	34190
2026-01-07 02:12:34.23	6.88	7.27	-40.6	-59.5	3.8	7.46e-01	0	55	104	0	51	34169
2026-01-07 02:12:35.24	6.81	7.35	-40.6	-59.4	3.8	7.45e-01	0	55	104	0	51	34066
2026-01-07 02:12:36.25	6.75	7.43	-40.6	-59.4	3.8	7.46e-01	0	55	104	0	51	34070
2026-01-07 02:12:37.26	6.69	7.51	-40.6	-59.5	3.8	7.42e-01	0	55	104	0	51	34148
2026-01-07 02:12:38.27	6.62	7.59	-40.6	-59.5	3.8	7.47e-01	0	55	104	0	51	34107
2026-01-07 02:12:39.28	6.56	7.67	-40.6	-59.5	3.8	7.45e-01	0	55	104	0	51	34143
2026-01-07 02:12:40.29	6.49	7.75	-40.6	-59.4	3.8	7.49e-01	0	55	104	0	51	34048
2026-01-07 02:12:41.30	6.43	7.83	-40.6	-59.4	3.8	7.46e-01	0	55	104	0	51	34080
2026-01-07 02:12:42.31	6.36	7.91	-40.6	-59.4	3.8	7.43e-01	0	55	104	0	51	34058
2026-01-07 02:12:43.32	6.29	7.99	-40.6	-59.5	3.8	7.46e-01	0	55	104	0	51	34088
2026-01-07 02:12:44.33	6.23	8.07	-40.6	-59.5	3.8	7.48e-01	0	55	104	0	51	34233
2026-01-07 02:12:45.34	6.16	8.15	-40.7	-59.5	3.8	7.44e-01	0	55	104	0	51	34390
2026-01-07 02:12:46.36	6.09	8.23	-40.7	-59.5	3.8	7.47e-01	0	55	104	0	51	34452
2026-01-07 02:12:47.37	6.02	8.31	-40.7	-59.5	3.8	7.44e-01	0	55	104	0	51	34382
2026-01-07 02:12:48.38	5.95	8.39	-40.6	-59.5	3.8	7.46e-01	0	55	104	0	52	32329
2026-01-07 02:12:49.39	5.88	8.47	-40.6	-59.5	3.8	7.45e-01	0	55	104	0	52	32181
2026-01-07 02:12:50.39	5.81	8.56	-40.6	-59.5	3.8	7.45e-01	0	55	104	0	52	32372
2026-01-07 02:12:51.40	5.74	8.64	-40.6	-59.5	3.8	7.46e-01	0	55	104	0	52	32216
2026-01-07 02:12:52.41	5.67	8.72	-40.6	-59.5	3.8	7.44e-01	0	55	104	0	52	32307
2026-01-07 02:12:53.42	5.60	8.80	-40.6	-59.5	3.8	7.47e-01	0	55	104	0	52	32284
2026-01-07 02:12:54.43	5.53	8.89	-40.6	-59.5	3.8	7.44e-01	0	55	104	0	52	32381
2026-01-07 02:12:55.44	5.46	8.97	-40.6	-59.5	3.8	7.45e-01	0	55	104	0	52	32288
2026-01-07 02:12:56.45	5.39	9.05	-40.6	-59.5	3.8	7.45e-01	0	55	104	0	52	32414
2026-01-07 02:12:57.46	5.31	9.14	-40.6	-59.4	3.8	7.46e-01	0	55	104	0	52	32134
2026-01-07 02:12:58.48	5.24	9.22	-40.6	-59.5	3.8	7.45e-01	0	55	104	0	52	32294
2026-01-07 02:12:59.49	5.16	9.31	-40.6	-59.5	3.8	7.43e-01	0	55	104	0	52	32218
2026-01-07 02:13:00.50	5.09	9.39	-40.6	-59.5	3.8	7.45e-01	0	55	104	0	52	32485
2026-01-07 02:13:01.51	5.02	9.48	-40.6	-59.5	3.8	7.43e-01	0	55	104	0	52	32248
2026-01-07 02:13:02.52	4.94	9.56	-40.6	-59.6	3.8	7.47e-01	0	55	104	0	52	32623
2026-01-07 02:13:03.53	4.86	9.65	-40.6	-59.6	3.8	7.45e-01	0	55	104	0	52	32667
2026-01-07 02:13:04.54	4.79	9.73	-40.6	-59.6	3.8	7.46e-01	0	55	104	0	52	32607
2026-01-07 02:13:05.55	4.71	9.82	-40.6	-59.6	3.8	7.44e-01	0	55	104	0	52	32579
2026-01-07 02:13:06.56	4.63	9.90	-40.7	-59.6	3.8	7.45e-01	0	55	104	0	52	32746
2026-01-07 02:13:07.57	4.56	9.99	-40.8	-59.7	3.8	7.46e-01	0	55	104	0	52	33036
2026-01-07 02:13:08.58	4.48	10.08	-40.7	-59.7	3.8	7.44e-01	0	55	104	0	52	32938
2026-01-07 02:13:09.59	4.40	10.17	-40.8	-59.7	3.8	7.45e-01	0	55	104	0	52	33021
2026-01-07 02:13:10.60	4.32	10.25	-40.7	-59.7	3.8	7.43e-01	0	56	104	0	52	33099
2026-01-07 02:13:11.61	4.24	10.34	-40.7	-59.7	3.8	7.47e-01	0	56	104	0	52	33126
2026-01-07 02:13:12.62	4.16	10.43	-40.8	-59.7	3.8	7.43e-01	0	55	104	0	52	33049
2026-01-07 02:13:13.63	4.08	10.52	-40.8	-59.7	3.8	7.44e-01	0	55	104	0	52	33083
2026-01-07 02:13:14.64	3.99	10.61	-40.8	-59.7	3.8	7.46e-01	0	55	104	0	52	33120
2026-01-07 02:13:15.65	3.91	10.69	-40.8	-59.7	3.8	7.42e-01	0	56	104	0	52	33254
2026-01-07 02:13:16.66	3.83	10.78	-40.8	-59.7	3.8	7.48e-01	0	55	104	0	52	33261
2026-01-07 02:13:17.67	3.75	10.87	-40.9	-59.8	3.8	7.44e-01	0	56	104	0	52	33447
2026-01-07 02:13:18.68	3.66	10.96	-40.8	-59.7	3.8	7.44e-01	0	56	104	0	52	33256
2026-01-07 02:13:19.69	3.58	11.05	-41.0	-59.8	3.8	7.44e-01	0	56	104	0	52	33576
2026-01-07 02:13:20.70	3.49	11.14	-40.8	-59.7	3.8	7.42e-01	0	56	104	0	52	33183
2026-01-07 02:13:21.71	3.41	11.24	-40.9	-59.9	3.8	7.43e-01	0	56	104	0	52	33944
2026-01-07 02:13:22.72	3.32	11.33	-40.8	-59.7	3.8	7.44e-01	0	56	104	0	52	33057
2026-01-07 02:13:23.73	3.23	11.42	-40.7	-59.9	3.8	7.46e-01	0	56	104	0	52	33818
2026-01-07 02:13:24.74	3.15	11.51	-40.8	-59.8	3.8	7.43e-01	0	56	104	0	52	33574
2026-01-07 02:13:25.75	3.06	11.60	-40.7	-59.9	3.8	7.47e-01	0	55	104	0	52	33818
2026-01-07 02:13:26.76	2.97	11.69	-40.8	-59.8	3.8	7.47e-01	0	56	104	0	52	33671
2026-01-07 02:13:27.77	2.88	11.79	-40.9	-60.1	3.8	7.44e-01	0	56	104	0	52	34515
2026-01-07 02:13:28.78	2.79	11.88	-40.7	-59.7	3.8	7.45e-01	0	56	104	0	52	33278
2026-01-07 02:13:29.78	2.70	11.97	-40.8	-59.5	3.8	7.48e-01	0	56	104	0	52	32405
2026-01-07 02:13:30.80	2.61	12.07	-40.7	-59.8	3.8	7.46e-01	0	55	104	0	52	33425
2026-01-07 02:13:31.81	2.51	12.16	-41.1	-59.4	3.8	7.47e-01	0	56	104	0	52	32074
2026-01-07 02:13:32.82	2.42	12.26	-40.7	-59.9	3.8	7.44e-01	0	56	104	0	53	32116
2026-01-07 02:13:33.83	2.33	12.35	-41.1	-58.6	3.9	7.45e-01	0	56	104	0	53	27596
2026-01-07 02:13:34.84	2.23	12.45	-41.2	-56.9	4.1	7.34e-01	0	56	104	0	53	22596
2026-01-07 02:13:35.85	2.14	12.54	-41.3	-56.5	3.9	7.42e-01	0	56	104	0	53	21730
2026-01-07 02:13:36.86	2.04	12.64	-42.4	-59.0	3.9	7.44e-01	0	56	104	0	55	25815
2026-01-07 02:13:37.86	1.95	12.73	-42.3	-54.0	6.5	6.72e-01	92	56	0	524288	55	14503
2026-01-07 02:13:38.88	1.85	12.83	-40.9	-59.3	3.8	7.47e-01	0	56	104	1048576	53	29937
2026-01-07 02:13:39.89	1.75	12.93	-41.9	-51.5	8.8	6.30e-01	0	56	104	1048576	54	11469
2026-01-07 02:13:40.90	1.65	13.02	-41.2	-57.5	3.8	7.48e-01	0	56	104	2097152	54	22904
2026-01-07 02:13:41.90	1.56	13.12	-41.2	-48.3	11.8	6.09e-01	0	56	0	2097152	54	7923
2026-01-07 02:13:42.92	1.46	13.22	-40.9	-46.6	14.2	6.02e-01	0	56	0	4194304	53	6884
2026-01-07 02:13:43.93	1.35	13.32	-40.6	-45.6	15.5	6.01e-01	0	56	0	5767168	53	6143
2026-01-07 02:13:44.94	1.25	13.41	-40.4	-44.7	16.6	6.02e-01	0	56	0	7864320	52	5920
2026-01-07 02:13:45.95	1.15	13.51	-40.3	-44.3	17.2	6.01e-01	0	56	0	9437184	52	5655
2026-01-07 02:13:46.96	1.05	13.61	-40.3	-44.1	17.6	6.00e-01	0	56	0	11534336	52	5506
2026-01-07 02:13:47.97	0.95	13.71	-40.3	-43.9	17.9	6.00e-01	0	56	0	13631488	52	5351
2026-01-07 02:13:48.98	0.84	13.81	-39.8	-43.0	18.8	6.01e-01	0	56	0	15204352	51	5142
2026-01-07 02:13:49.99	0.74	13.91	-39.5	-42.5	19.3	6.03e-01	0	56	0	17301504	51	4858
2026-01-07 02:13:50.99	0.63	14.01	-39.4	-42.4	19.5	6.05e-01	0	56	0	18874368	50	5050
2026-01-07 02:13:52.00	0.52	14.11	-39.5	-42.4	19.5	6.03e-01	0	56	0	20971520	50	5068
2026-01-07 02:13:53.01	0.42	14.21	-39.5	-42.4	19.5	6.03e-01	0	56	0	23068672	50	5087
2026-01-07 02:13:54.02	0.31	14.32	-39.4	-42.2	19.7	6.04e-01	0	56	0	24641536	50	4963
2026-01-07 02:13:55.03	0.20	14.42	-39.2	-42.0	19.9	6.03e-01	0	56	0	26738688	50	4832
2026-01-07 02:13:56.04	0.09	14.52	-39.0	-41.6	20.3	6.02e-01	0	56	0	28311552	50	4647
2026-01-07 02:13:57.05	359.98	14.62	-38.8	-41.3	20.7	6.04e-01	0	56	0	30408704	49	4726
2026-01-07 02:13:58.06	359.87	14.73	-38.7	-41.2	20.6	6.02e-01	0	56	0	32505856	49	4672
2026-01-07 02:13:59.07	359.75	14.83	-38.7	-41.2	21.0	6.01e-01	0	56	0	34078720	49	4657
2026-01-07 02:14:00.08	359.64	14.94	-38.8	-41.3	20.9	6.03e-01	0	56	0	36175872	49	4739
2026-01-07 02:14:01.08	359.53	15.04	-38.9	-41.4	20.9	6.04e-01	0	56	0	37748736	49	4796
2026-01-07 02:14:02.09	359.41	15.14	-38.8	-41.3	21.1	6.03e-01	0	56	0	39845888	49	4727
2026-01-07 02:14:03.10	359.30	15.25	-38.7	-41.1	21.4	6.00e-01	0	56	0	41943040	49	4617
2026-01-07 02:14:04.11	359.18	15.35	-38.7	-41.1	21.4	6.02e-01	0	56	0	43515904	49	4634
2026-01-07 02:14:05.12	359.06	15.46	-38.8	-41.2	21.4	6.03e-01	0	56	0	45613056	49	4683
2026-01-07 02:14:06.13	358.94	15.57	-38.8	-41.2	21.4	6.04e-01	0	56	0	47710208	49	4678
2026-01-07 02:14:07.14	358.82	15.67	-38.6	-41.0	21.7	6.03e-01	0	56	0	49283072	49	4556
2026-01-07 02:14:08.15	358.70	15.78	-38.7	-41.1	21.6	6.01e-01	0	56	0	51380224	49	4605
2026-01-07 02:14:09.16	358.58	15.89	-38.7	-41.1	21.6	6.02e-01	0	56	0	52953088	49	4604
2026-01-07 02:14:10.18	358.46	16.00	-38.9	-41.2	21.4	6.03e-01	0	56	0	55050240	49	4697
2026-01-07 02:14:11.18	358.34	16.11	-38.8	-41.1	21.5	6.03e-01	0	56	0	57147392	49	4626
2026-01-07 02:14:12.19	358.21	16.21	-38.7	-41.0	21.6	6.03e-01	0	56	0	58720256	49	4565
2026-01-07 02:14:13.20	358.09	16.32	-38.7	-41.0	21.6	6.03e-01	0	56	0	60817408	49	4572
2026-01-07 02:14:14.21	357.96	16.43	-38.8	-41.1	21.5	6.03e-01	0	56	0	62914560	49	4640
2026-01-07 02:14:15.22	357.83	16.54	-38.9	-41.2	21.4	6.01e-01	0	56	0	64487424	49	4689
2026-01-07 02:14:16.23	357.70	16.65	-38.9	-41.2	21.4	6.04e-01	0	56	0	66584576	49	4705
2026-01-07 02:14:17.24	357.57	16.76	-38.8	-41.2	21.4	5.99e-01	0	56	0	68157440	49	4666
2026-01-07 02:14:18.25	357.44	16.88	-38.7	-41.0	21.5	6.03e-01	0	56	0	70254592	49	4597
2026-01-07 02:14:19.25	357.31	16.99	-38.6	-40.8	21.7	6.02e-01	0	56	0	71827456	49	4487
2026-01-07 02:14:20.27	357.18	17.10	-38.4	-40.6	21.9	6.01e-01	0	56	0	73924608	48	4650
2026-01-07 02:14:21.27	357.05	17.21	-38.3	-40.5	21.9	6.02e-01	0	56	0	76021760	48	4575
2026-01-07 02:14:22.28	356.91	17.32	-38.2	-40.5	21.9	6.02e-01	0	56	0	77594624	48	4550
2026-01-07 02:14:23.29	356.77	17.44	-38.3	-40.6	21.6	6.03e-01	0	56	0	79691776	48	4639
2026-01-07 02:14:24.31	356.64	17.55	-38.6	-41.0	21.0	6.02e-01	0	56	0	81264640	48	4861
2026-01-07 02:14:25.31	356.50	17.66	-39.1	-41.8	20.0	6.04e-01	0	56	0	83361792	48	5299
2026-01-07 02:14:26.32	356.36	17.78	-39.6	-42.8	18.8	6.04e-01	0	56	0	85458944	49	5616
2026-01-07 02:14:27.33	356.22	17.89	-40.2	-44.1	17.2	6.04e-01	0	56	0	87031808	50	6139
2026-01-07 02:14:28.34	356.08	18.01	-40.7	-45.5	15.5	6.01e-01	0	56	0	89128960	51	6857
2026-01-07 02:14:29.35	355.93	18.13	-41.0	-47.0	13.4	6.08e-01	0	56	0	91226112	52	7713
2026-01-07 02:14:30.36	355.79	18.24	-41.3	-49.1	10.8	6.15e-01	0	56	0	92798976	53	9190
2026-01-07 02:14:31.37	355.64	18.36	-41.3	-50.8	8.6	6.36e-01	3	56	0	94896128	53	11178
2026-01-07 02:14:32.38	355.50	18.48	-41.3	-52.4	6.8	6.69e-01	92	56	0	96468992	53	13567
2026-01-07 02:14:33.39	355.35	18.59	-41.5	-54.1	5.6	6.97e-01	0	56	0	98041856	53	16467
2026-01-07 02:14:34.40	355.20	18.71	-41.5	-57.3	4.1	7.34e-01	0	56	104	98041856	53	23733
2026-01-07 02:14:35.41	355.05	18.83	-41.5	-59.8	3.8	7.46e-01	0	56	104	98041856	53	31495
2026-01-07 02:14:36.42	354.90	18.95	-41.3	-58.2	3.9	7.44e-01	0	56	104	98041856	53	26435
2026-01-07 02:14:37.43	354.75	19.07	-40.5	-56.2	4.1	7.37e-01	0	56	104	98041856	53	20944
2026-01-07 02:14:38.44	354.59	19.19	-40.4	-57.0	3.9	7.47e-01	0	56	104	98041856	51	25631
2026-01-07 02:14:39.44	354.44	19.31	-41.5	-60.0	3.8	7.43e-01	0	56	104	98041856	54	30639
2026-01-07 02:14:40.45	354.28	19.43	-41.1	-57.5	4.1	7.45e-01	0	56	104	98041856	53	24146
2026-01-07 02:14:41.46	354.12	19.55	-40.7	-58.4	3.8	7.42e-01	0	56	104	98041856	52	28651
2026-01-07 02:14:42.47	353.96	19.67	-40.0	-56.9	3.8	7.42e-01	0	56	104	98041856	51	25455
2026-01-07 02:14:43.48	353.80	19.79	-38.3	-54.7	3.8	7.49e-01	0	56	104	98041856	48	23515
2026-01-07 02:14:44.49	353.64	19.91	-33.7	-50.4	3.9	7.45e-01	0	56	104	98041856	39	23925
2026-01-07 02:14:45.50	353.48	20.04	-32.2	-49.0	3.9	7.46e-01	0	56	104	98041856	36	24367
2026-01-07 02:14:46.52	353.31	20.16	-40.7	-53.5	4.1	7.32e-01	0	56	104	98041856	51	17266
2026-01-07 02:14:47.52	353.15	20.28	-39.9	-51.3	5.9	6.83e-01	72	56	104	98041856	52	12632
2026-01-07 02:14:48.53	352.98	20.41	-35.9	-50.3	3.8	7.43e-01	0	56	104	98041856	42	19953
2026-01-07 02:14:49.54	352.81	20.53	-38.5	-52.3	4.4	7.29e-01	0	56	104	98041856	49	16765
2026-01-07 02:14:50.55	352.64	20.66	-38.0	-48.8	6.1	6.79e-01	92	56	0	98566144	46	13381
2026-01-07 02:14:51.56	352.47	20.78	-39.3	-48.4	8.2	6.42e-01	27	56	0	100139008	49	10712
2026-01-07 02:14:52.57	352.29	20.91	-40.5	-47.7	11.0	6.11e-01	0	56	0	102236160	51	8837
2026-01-07 02:14:53.58	352.12	21.03	-41.2	-47.0	13.5	6.05e-01	0	56	0	103809024	52	7685
2026-01-07 02:14:54.59	351.94	21.16	-41.2	-46.0	15.2	5.99e-01	0	56	0	105906176	53	6474
2026-01-07 02:14:55.60	351.76	21.29	-41.0	-45.2	16.5	6.02e-01	0	56	0	108003328	53	5866
2026-01-07 02:14:56.61	351.58	21.41	-40.5	-44.1	17.8	6.00e-01	0	56	0	109576192	53	5208
2026-01-07 02:14:57.62	351.40	21.54	-40.2	-43.4	18.7	6.02e-01	0	56	0	111673344	52	5081
2026-01-07 02:14:58.63	351.22	21.67	-40.0	-43.0	19.3	5.99e-01	0	56	0	113770496	51	5105
2026-01-07 02:14:59.64	351.03	21.80	-39.7	-42.5	19.8	6.03e-01	0	56	0	115343360	51	4868
2026-01-07 02:15:00.65	350.84	21.93	-39.3	-41.9	20.4	6.02e-01	0	56	0	117440512	50	4777
2026-01-07 02:15:01.66	350.66	22.05	-38.8	-41.2	21.1	6.02e-01	0	56	0	119013376	49	4678
2026-01-07 02:15:02.67	350.47	22.18	-38.6	-41.0	21.4	6.00e-01	0	56	0	121110528	49	4549
2026-01-07 02:15:03.68	350.27	22.31	-38.7	-41.0	21.3	6.03e-01	0	56	0	123207680	49	4597
2026-01-07 02:15:04.69	350.08	22.44	-38.8	-41.1	21.3	6.04e-01	0	56	0	124780544	49	4650
2026-01-07 02:15:05.70	349.89	22.58	-39.0	-41.5	21.1	6.00e-01	0	56	0	126877696	49	4820
2026-01-07 02:15:06.71	349.69	22.71	-39.1	-41.6	21.1	5.99e-01	0	56	0	128450560	49	4903
2026-01-07 02:15:07.72	349.49	22.84	-39.2	-41.7	21.1	5.99e-01	0	56	0	130547712	49	4939
2026-01-07 02:15:08.73	349.29	22.97	-39.0	-41.4	21.4	6.03e-01	0	56	0	132644864	49	4767
2026-01-07 02:15:09.74	349.09	23.10	-39.0	-41.3	21.6	6.01e-01	0	56	0	134217728	49	4734
2026-01-07 02:15:10.75	348.88	23.24	-39.0	-41.3	21.7	5.99e-01	0	56	0	136314880	49	4735
2026-01-07 02:15:11.76	348.68	23.37	-39.2	-41.5	21.6	6.02e-01	0	56	0	137887744	49	4825
2026-01-07 02:15:12.77	348.47	23.50	-39.4	-41.7	21.4	6.00e-01	0	56	0	139984896	49	4955
2026-01-07 02:15:13.78	348.26	23.64	-39.2	-41.4	21.8	6.04e-01	0	56	0	142082048	49	4786
2026-01-07 02:15:14.79	348.05	23.77	-39.1	-41.3	21.9	6.03e-01	0	56	0	143654912	49	4748
2026-01-07 02:15:15.80	347.83	23.90	-39.2	-41.4	21.9	6.01e-01	0	56	0	145752064	49	4785
2026-01-07 02:15:16.81	347.62	24.04	-39.1	-41.2	22.0	6.04e-01	0	56	0	147324928	49	4700
2026-01-07 02:15:17.82	347.40	24.17	-39.0	-41.1	22.1	6.02e-01	0	56	0	149422080	49	4646
2026-01-07 02:15:18.83	347.18	24.31	-39.1	-41.2	22.1	6.03e-01	0	56	0	151519232	49	4678
2026-01-07 02:15:19.83	346.96	24.44	-38.9	-41.0	22.3	5.99e-01	0	56	0	153092096	49	4590
2026-01-07 02:15:20.84	346.74	24.58	-39.0	-41.1	22.3	6.01e-01	0	56	0	155189248	49	4604
2026-01-07 02:15:21.85	346.51	24.72	-39.0	-41.1	22.2	6.02e-01	0	56	0	157286400	49	4647
2026-01-07 02:15:22.86	346.29	24.85	-39.0	-41.1	22.3	6.01e-01	0	56	0	158859264	49	4616
2026-01-07 02:15:23.87	346.06	24.99	-39.0	-41.1	22.3	5.99e-01	0	56	0	160956416	49	4613
2026-01-07 02:15:24.88	345.82	25.13	-39.0	-41.0	22.4	6.02e-01	0	56	0	162529280	49	4585
2026-01-07 02:15:25.89	345.59	25.26	-39.0	-41.1	22.4	6.02e-01	0	56	0	164626432	49	4600
2026-01-07 02:15:26.90	345.35	25.40	-39.0	-41.1	22.4	6.00e-01	0	56	0	166723584	49	4622
2026-01-07 02:15:27.91	345.12	25.54	-39.1	-41.2	22.3	6.02e-01	0	56	0	168296448	49	4653
2026-01-07 02:15:28.93	344.87	25.68	-39.1	-41.2	22.3	6.02e-01	0	56	0	170393600	49	4671
2026-01-07 02:15:29.94	344.63	25.82	-39.0	-41.1	22.4	6.02e-01	0	56	0	171966464	49	4612
2026-01-07 02:15:30.95	344.38	25.96	-39.0	-41.0	22.4	6.02e-01	0	56	0	174063616	49	4565
2026-01-07 02:15:31.96	344.14	26.10	-38.9	-41.0	22.5	6.00e-01	0	56	0	176160768	49	4559
2026-01-07 02:15:32.97	343.89	26.24	-39.0	-41.0	22.5	6.01e-01	0	56	0	177733632	49	4580
2026-01-07 02:15:33.98	343.64	26.37	-39.0	-41.0	22.4	6.02e-01	0	56	0	179830784	49	4593
2026-01-07 02:15:34.99	343.38	26.51	-38.9	-41.0	22.6	6.03e-01	0	56	0	181927936	49	4546
2026-01-07 02:15:36.00	343.12	26.65	-38.9	-40.9	22.6	6.01e-01	0	56	0	183500800	49	4514
2026-01-07 02:15:37.00	342.87	26.79	-38.8	-40.8	22.7	6.02e-01	0	56	0	185597952	49	4468
2026-01-07 02:15:38.01	342.61	26.93	-38.8	-40.8	22.7	6.01e-01	0	56	0	187170816	49	4475
2026-01-07 02:15:39.02	342.34	27.07	-38.9	-40.9	22.7	6.00e-01	0	56	0	189267968	49	4501
2026-01-07 02:15:40.03	342.08	27.21	-38.8	-40.8	22.7	6.02e-01	0	56	0	191365120	49	4478
2026-01-07 02:15:41.04	341.81	27.35	-38.9	-40.9	22.7	6.03e-01	0	56	0	192937984	49	4496
2026-01-07 02:15:42.05	341.54	27.49	-38.9	-40.9	22.7	6.01e-01	0	56	0	195035136	49	4516
2026-01-07 02:15:43.06	341.26	27.63	-38.9	-40.9	22.7	6.02e-01	0	56	0	196608000	49	4500
2026-01-07 02:15:44.07	340.99	27.77	-38.9	-40.8	22.7	6.01e-01	0	56	0	198705152	49	4493
2026-01-07 02:15:45.07	340.71	27.91	-38.9	-40.8	22.8	6.01e-01	0	56	0	200802304	49	4483
2026-01-07 02:15:46.09	340.43	28.06	-38.7	-40.6	23.0	6.01e-01	0	56	0	202375168	49	4372
2026-01-07 02:15:47.10	340.14	28.20	-38.6	-40.5	23.1	6.00e-01	0	56	0	204472320	49	4324
2026-01-07 02:15:48.11	339.86	28.34	-38.6	-40.5	23.1	6.01e-01	0	56	0	206045184	49	4310
2026-01-07 02:15:49.11	339.57	28.48	-38.6	-40.5	23.1	5.99e-01	0	56	0	208142336	49	4320
2026-01-07 02:15:50.12	339.28	28.62	-38.6	-40.5	23.1	5.98e-01	0	56	0	210239488	49	4318
2026-01-07 02:15:51.13	338.98	28.76	-38.6	-40.5	23.1	5.99e-01	0	56	0	211812352	49	4327
2026-01-07 02:15:52.15	338.68	28.90	-38.6	-40.5	23.1	6.04e-01	0	56	0	213909504	49	4331
2026-01-07 02:15:53.15	338.38	29.04	-38.6	-40.5	23.2	6.00e-01	0	56	0	215482368	49	4313
2026-01-07 02:15:54.16	338.08	29.18	-38.6	-40.5	23.2	6.01e-01	0	56	0	217579520	49	4299
2026-01-07 02:15:55.17	337.78	29.32	-38.5	-40.4	23.3	6.01e-01	0	56	0	219676672	49	4261
2026-01-07 02:15:56.18	337.47	29.46	-38.6	-40.5	23.2	6.00e-01	0	56	0	221249536	49	4310
2026-01-07 02:15:57.19	337.16	29.60	-38.7	-40.6	23.1	6.00e-01	0	56	0	223346688	49	4376
2026-01-07 02:15:58.20	336.84	29.74	-38.6	-40.5	23.2	5.99e-01	0	56	0	225443840	49	4328
2026-01-07 02:15:59.22	336.52	29.88	-38.6	-40.5	23.2	5.99e-01	0	56	0	227016704	49	4293
2026-01-07 02:16:00.23	336.20	30.02	-38.4	-40.3	23.4	6.03e-01	0	56	0	229113856	48	4451
2026-01-07 02:16:01.24	335.88	30.16	-38.4	-40.2	23.4	6.00e-01	0	56	0	230686720	48	4424
2026-01-07 02:16:02.25	335.55	30.30	-38.4	-40.3	23.4	6.03e-01	0	56	0	232783872	48	4442
2026-01-07 02:16:03.26	335.22	30.44	-38.5	-40.4	23.3	6.01e-01	0	56	0	234881024	48	4507
2026-01-07 02:16:04.26	334.90	30.57	-38.6	-40.5	23.2	6.02e-01	0	56	0	236453888	48	4564
2026-01-07 02:16:05.27	334.56	30.71	-38.6	-40.5	23.2	6.03e-01	0	56	0	238551040	48	4584
2026-01-07 02:16:06.28	334.22	30.85	-38.6	-40.5	23.2	6.02e-01	0	56	0	240123904	48	4578
2026-01-07 02:16:07.29	333.88	30.98	-38.5	-40.4	23.3	6.01e-01	0	56	0	242221056	48	4511
2026-01-07 02:16:08.30	333.54	31.12	-38.5	-40.4	23.3	6.02e-01	0	56	0	244318208	48	4510
2026-01-07 02:16:09.31	333.19	31.26	-38.4	-40.3	23.4	6.00e-01	0	56	0	245891072	48	4465
2026-01-07 02:16:10.32	332.84	31.39	-38.4	-40.2	23.6	6.01e-01	0	56	0	247988224	48	4422
2026-01-07 02:16:11.33	332.49	31.53	-38.5	-40.3	23.4	6.00e-01	0	56	0	250085376	48	4483
2026-01-07 02:16:12.34	332.14	31.66	-38.6	-40.4	23.3	6.03e-01	0	56	0	251658240	48	4536
2026-01-07 02:16:13.35	331.78	31.80	-38.7	-40.6	23.1	6.02e-01	0	56	0	253755392	48	4633
2026-01-07 02:16:14.36	331.42	31.93	-38.6	-40.5	23.2	6.04e-01	0	56	0	255328256	48	4576
2026-01-07 02:16:15.37	331.05	32.06	-38.6	-40.5	23.2	6.02e-01	0	56	0	257425408	48	4577
2026-01-07 02:16:16.38	330.68	32.19	-38.5	-40.4	23.3	6.02e-01	0	56	0	259522560	48	4519
2026-01-07 02:16:17.39	330.31	32.32	-38.7	-40.6	23.2	6.03e-01	0	56	0	261095424	48	4612
2026-01-07 02:16:18.39	329.94	32.45	-38.7	-40.5	23.2	6.00e-01	0	56	0	263192576	48	4596
2026-01-07 02:16:19.40	329.56	32.58	-38.7	-40.6	23.2	6.01e-01	0	56	0	264765440	48	4618
2026-01-07 02:16:20.41	329.18	32.71	-38.5	-40.4	23.4	6.01e-01	0	56	0	266862592	48	4504
2026-01-07 02:16:21.42	328.80	32.84	-38.6	-40.5	23.3	6.05e-01	0	56	0	268959744	48	4583
2026-01-07 02:16:22.43	328.41	32.97	-38.7	-40.6	23.1	6.01e-01	0	56	0	270532608	48	4643
2026-01-07 02:16:23.44	328.02	33.10	-39.0	-41.0	22.8	6.02e-01	0	56	0	272629760	48	4825
2026-01-07 02:16:24.45	327.63	33.22	-39.0	-40.9	22.9	6.01e-01	0	56	0	274202624	48	4789
2026-01-07 02:16:25.46	327.23	33.35	-38.9	-40.9	22.9	6.01e-01	0	56	0	276299776	48	4772
2026-01-07 02:16:26.47	326.83	33.47	-38.6	-40.5	23.3	6.02e-01	0	56	0	278396928	48	4553
2026-01-07 02:16:27.48	326.43	33.59	-38.8	-40.7	23.1	6.04e-01	0	56	0	279969792	48	4684
2026-01-07 02:16:28.49	326.03	33.71	-38.9	-40.9	22.9	6.04e-01	0	56	0	282066944	48	4771
2026-01-07 02:16:29.50	325.62	33.83	-39.1	-41.1	22.7	6.04e-01	0	56	0	283639808	48	4907
2026-01-07 02:16:30.51	325.20	33.95	-39.1	-41.1	22.7	5.98e-01	0	56	0	285736960	48	4905
2026-01-07 02:16:31.52	324.79	34.07	-39.1	-41.0	22.7	6.01e-01	0	56	0	287834112	48	4864
2026-01-07 02:16:32.53	324.37	34.19	-39.0	-40.9	22.9	6.02e-01	0	56	0	289406976	48	4805
2026-01-07 02:16:33.53	323.95	34.30	-38.9	-40.8	23.0	6.00e-01	0	56	0	291504128	48	4759
2026-01-07 02:16:34.54	323.53	34.42	-39.2	-41.2	22.7	6.02e-01	0	56	0	293076992	48	4927
2026-01-07 02:16:35.55	323.10	34.53	-39.2	-41.2	22.6	5.99e-01	0	56	0	295174144	48	4968
2026-01-07 02:16:36.56	322.67	34.64	-39.1	-41.1	22.7	5.98e-01	0	56	0	297271296	49	4645
2026-01-07 02:16:37.57	322.24	34.75	-39.1	-41.1	22.7	6.04e-01	0	56	0	298844160	49	4634
2026-01-07 02:16:38.58	321.80	34.86	-39.1	-41.1	22.7	6.00e-01	0	56	0	300941312	49	4634
2026-01-07 02:16:39.59	321.36	34.97	-39.3	-41.3	22.5	5.97e-01	0	56	0	303038464	49	4727
2026-01-07 02:16:40.60	320.92	35.08	-39.3	-41.4	22.5	6.00e-01	0	57	0	304611328	49	4760
2026-01-07 02:16:41.61	320.47	35.18	-39.1	-41.0	22.8	6.01e-01	0	56	0	306708480	49	4598
2026-01-07 02:16:42.62	320.03	35.28	-39.3	-41.3	22.5	6.02e-01	0	56	0	308281344	49	4748
2026-01-07 02:16:43.63	319.57	35.38	-39.5	-41.5	22.3	6.01e-01	0	56	0	310378496	49	4865
2026-01-07 02:16:44.64	319.12	35.48	-39.5	-41.6	22.3	6.00e-01	0	56	0	312475648	49	4878
2026-01-07 02:16:45.64	318.67	35.58	-39.3	-41.4	22.4	6.02e-01	0	56	0	314048512	49	4767
2026-01-07 02:16:46.65	318.21	35.68	-39.5	-41.6	22.3	6.01e-01	0	56	0	316145664	49	4910
2026-01-07 02:16:47.66	317.74	35.77	-39.5	-41.6	22.3	6.04e-01	0	56	0	318242816	49	4913
2026-01-07 02:16:48.67	317.28	35.86	-39.5	-41.5	22.3	6.02e-01	0	57	0	319815680	49	4857
2026-01-07 02:16:49.68	316.81	35.95	-39.5	-41.6	22.2	6.02e-01	0	56	0	321912832	49	4920
2026-01-07 02:16:50.69	316.34	36.04	-39.6	-41.8	22.1	6.00e-01	0	56	0	323485696	49	4985
2026-01-07 02:16:51.70	315.87	36.13	-39.4	-41.4	22.5	6.03e-01	0	56	0	325582848	49	4784
2026-01-07 02:16:52.71	315.39	36.22	-39.6	-41.7	22.1	6.02e-01	0	56	0	327680000	50	4663
2026-01-07 02:16:53.72	314.91	36.30	-39.6	-41.7	22.1	6.01e-01	0	56	0	329252864	50	4677
2026-01-07 02:16:54.73	314.43	36.38	-39.7	-41.9	22.0	6.01e-01	0	56	0	331350016	50	4786
2026-01-07 02:16:55.74	313.95	36.46	-39.7	-41.8	22.0	6.03e-01	0	56	0	332922880	50	4755
2026-01-07 02:16:56.75	313.46	36.54	-39.5	-41.6	22.3	6.01e-01	0	56	0	335020032	50	4600
2026-01-07 02:16:57.76	312.97	36.61	-39.7	-41.9	22.0	5.99e-01	0	56	0	336592896	50	4760
2026-01-07 02:16:58.76	312.49	36.68	-40.0	-42.3	21.6	6.02e-01	0	56	0	338690048	50	5009
2026-01-07 02:16:59.77	311.99	36.75	-40.0	-42.3	21.6	6.01e-01	0	56	0	340787200	50	4989
2026-01-07 02:17:00.78	311.50	36.82	-39.6	-41.7	22.1	6.02e-01	0	56	0	342360064	50	4699
2026-01-07 02:17:01.79	311.00	36.89	-39.5	-41.7	22.2	6.00e-01	0	56	0	344457216	50	4652
2026-01-07 02:17:02.80	310.50	36.95	-39.9	-42.1	21.7	6.00e-01	0	56	0	346554368	50	4918
2026-01-07 02:17:03.81	310.00	37.01	-40.1	-42.5	21.4	6.01e-01	0	56	0	348127232	50	5110
2026-01-07 02:17:04.82	309.50	37.07	-40.0	-42.3	21.5	6.02e-01	0	56	0	350224384	50	5024
2026-01-07 02:17:05.83	308.99	37.13	-39.7	-41.9	22.0	6.01e-01	0	56	0	351797248	50	4776
2026-01-07 02:17:06.84	308.49	37.18	-39.8	-42.0	21.9	6.02e-01	0	56	0	353894400	50	4823
2026-01-07 02:17:07.85	307.98	37.23	-39.9	-42.1	21.8	6.00e-01	0	57	0	355991552	50	4900
2026-01-07 02:17:08.86	307.47	37.28	-39.8	-42.1	21.7	6.02e-01	0	56	0	357564416	50	4872
2026-01-07 02:17:09.87	306.96	37.33	-39.8	-42.0	21.5	6.02e-01	0	56	0	359661568	50	4868
2026-01-07 02:17:10.88	306.44	37.37	-39.9	-42.1	21.8	6.03e-01	0	56	0	361234432	50	4920
2026-01-07 02:17:11.89	305.93	37.42	-39.6	-41.8	22.1	5.99e-01	0	56	0	363331584	50	4707
2026-01-07 02:17:12.90	305.41	37.46	-39.2	-41.2	22.6	6.00e-01	0	56	0	365428736	50	4413
2026-01-07 02:17:13.91	304.89	37.49	-39.3	-41.3	22.4	6.00e-01	0	56	0	367001600	50	4444
2026-01-07 02:17:14.92	304.38	37.53	-39.7	-41.9	21.7	6.01e-01	0	56	0	369098752	51	4503
2026-01-07 02:17:15.93	303.86	37.56	-40.3	-42.8	21.0	6.01e-01	0	56	0	371195904	51	4986
2026-01-07 02:17:16.94	303.34	37.59	-40.2	-42.8	21.4	6.00e-01	0	56	0	372768768	51	5027
2026-01-07 02:17:17.95	302.82	37.61	-39.9	-42.1	21.8	6.02e-01	0	56	0	374865920	50	4889
2026-01-07 02:17:18.96	302.29	37.64	-39.8	-42.0	21.9	6.01e-01	0	56	0	376438784	50	4843
2026-01-07 02:17:19.97	301.77	37.66	-39.3	-41.3	22.6	6.03e-01	0	56	0	378535936	50	4460
2026-01-07 02:17:20.98	301.25	37.68	-39.0	-40.9	22.9	6.02e-01	0	56	0	380633088	50	4287
2026-01-07 02:17:21.99	300.72	37.69	-39.6	-41.7	21.7	6.03e-01	0	56	0	382205952	51	4411
2026-01-07 02:17:23.00	300.20	37.71	-40.5	-43.1	20.6	6.01e-01	0	56	0	384303104	52	4914
2026-01-07 02:17:24.01	299.67	37.72	-40.2	-42.6	21.3	6.03e-01	0	56	0	385875968	50	5182
2026-01-07 02:17:25.02	299.15	37.73	-39.6	-41.8	22.1	6.04e-01	0	56	0	387973120	50	4706
2026-01-07 02:17:26.03	298.62	37.73	-39.2	-41.2	22.6	6.00e-01	0	56	0	390070272	50	4428
2026-01-07 02:17:27.04	298.10	37.73	-39.7	-41.8	22.0	6.03e-01	0	56	0	391643136	50	4731
2026-01-07 02:17:28.05	297.57	37.73	-39.9	-42.1	21.7	6.03e-01	0	57	0	393740288	50	4892
2026-01-07 02:17:29.05	297.05	37.73	-40.3	-42.7	21.2	6.01e-01	0	56	0	395313152	51	4931
2026-01-07 02:17:30.06	296.52	37.72	-40.0	-42.3	21.7	6.02e-01	0	56	0	397410304	50	5010
2026-01-07 02:17:31.07	296.00	37.72	-39.4	-41.5	22.4	6.02e-01	0	56	0	399507456	50	4553
2026-01-07 02:17:32.08	295.47	37.71	-39.4	-41.4	22.3	6.01e-01	0	56	0	401080320	50	4530
2026-01-07 02:17:33.09	294.95	37.69	-40.0	-42.3	21.5	6.02e-01	0	56	0	403177472	50	5013
2026-01-07 02:17:34.10	294.42	37.68	-40.1	-42.5	21.5	6.03e-01	0	57	0	404750336	50	5102
2026-01-07 02:17:35.11	293.90	37.66	-39.5	-41.5	22.4	6.02e-01	0	56	0	406847488	50	4573
2026-01-07 02:17:36.12	293.38	37.64	-39.4	-41.5	22.2	6.03e-01	0	56	0	408944640	50	4550
2026-01-07 02:17:37.13	292.85	37.61	-40.2	-42.5	21.4	6.01e-01	0	56	0	410517504	50	5149
2026-01-07 02:17:38.14	292.33	37.58	-39.6	-41.7	22.2	6.00e-01	0	56	0	412614656	50	4689
2026-01-07 02:17:39.15	291.81	37.55	-39.6	-41.7	22.1	6.03e-01	0	56	0	414711808	50	4676
2026-01-07 02:17:40.16	291.29	37.52	-40.1	-42.4	21.5	5.99e-01	0	56	0	416284672	50	5055
2026-01-07 02:17:41.17	290.77	37.49	-39.7	-41.8	22.1	6.01e-01	0	56	0	418381824	50	4723
2026-01-07 02:17:42.18	290.26	37.45	-40.3	-42.6	21.3	5.99e-01	0	57	0	419954688	51	4904
2026-01-07 02:17:43.19	289.74	37.41	-39.8	-41.9	21.9	6.02e-01	0	56	0	422051840	51	4540
2026-01-07 02:17:44.20	289.22	37.37	-40.3	-42.7	21.2	5.99e-01	0	56	0	424148992	51	4930
2026-01-07 02:17:45.21	288.71	37.32	-39.8	-41.9	22.0	6.00e-01	0	57	0	425721856	51	4534
2026-01-07 02:17:46.21	288.20	37.28	-39.8	-41.9	21.9	6.02e-01	0	56	0	427819008	51	4524
2026-01-07 02:17:47.22	287.69	37.23	-40.2	-42.6	21.3	6.01e-01	0	56	0	429391872	51	4874
2026-01-07 02:17:48.23	287.19	37.17	-39.7	-41.9	22.0	6.01e-01	0	56	0	431489024	51	4513
2026-01-07 02:17:49.24	286.68	37.12	-39.5	-41.5	22.1	6.00e-01	0	56	0	433586176	51	4325
2026-01-07 02:17:50.25	286.17	37.06	-39.8	-42.1	21.8	5.99e-01	0	56	0	435159040	50	4879
2026-01-07 02:17:51.26	285.67	37.00	-39.1	-41.1	22.7	6.01e-01	0	56	0	437256192	50	4348
2026-01-07 02:17:52.27	285.17	36.94	-40.3	-42.7	21.2	6.02e-01	0	56	0	439353344	51	4954
2026-01-07 02:17:53.28	284.67	36.88	-39.5	-41.6	22.2	5.98e-01	0	56	0	440926208	51	4374
2026-01-07 02:17:54.29	284.17	36.81	-40.1	-42.4	21.5	6.02e-01	0	56	0	443023360	51	4804
2026-01-07 02:17:55.30	283.67	36.74	-39.4	-41.4	22.4	6.00e-01	0	56	0	444596224	50	4529
2026-01-07 02:17:56.31	283.18	36.67	-40.2	-42.5	21.4	5.99e-01	0	57	0	446693376	50	5146
2026-01-07 02:17:57.32	282.69	36.60	-39.3	-41.3	22.5	6.01e-01	0	56	0	448790528	50	4447
2026-01-07 02:17:58.33	282.20	36.52	-39.9	-42.2	21.6	6.00e-01	0	56	0	450363392	50	4944
2026-01-07 02:17:59.34	281.71	36.45	-39.4	-41.4	22.4	6.02e-01	0	56	0	452460544	50	4531
2026-01-07 02:18:00.35	281.23	36.37	-40.0	-42.3	21.7	6.01e-01	0	57	0	454033408	50	4996
2026-01-07 02:18:01.36	280.75	36.28	-39.4	-41.4	22.4	6.00e-01	0	56	0	456130560	50	4509
2026-01-07 02:18:02.37	280.27	36.20	-40.1	-42.3	21.5	6.02e-01	0	56	0	458227712	50	5039
2026-01-07 02:18:03.37	279.80	36.12	-39.5	-41.6	22.1	6.01e-01	0	57	0	459800576	50	4633
2026-01-07 02:18:04.38	279.32	36.03	-39.8	-42.0	21.9	6.01e-01	0	57	0	461897728	50	4866
2026-01-07 02:18:05.39	278.85	35.94	-39.6	-41.7	22.1	6.02e-01	0	56	0	463470592	50	4697
2026-01-07 02:18:06.40	278.38	35.85	-39.7	-41.9	22.0	6.01e-01	0	56	0	465567744	50	4770
2026-01-07 02:18:07.41	277.92	35.75	-39.8	-42.0	21.8	6.03e-01	0	56	0	467664896	50	4867
2026-01-07 02:18:08.42	277.45	35.66	-39.6	-41.6	22.2	6.04e-01	0	56	0	469237760	50	4649
2026-01-07 02:18:09.43	276.99	35.56	-39.7	-41.8	22.1	6.01e-01	0	56	0	471334912	50	4740
2026-01-07 02:18:10.45	276.53	35.46	-39.4	-41.5	22.3	6.01e-01	0	56	0	472907776	50	4562
2026-01-07 02:18:11.46	276.07	35.36	-39.6	-41.7	22.1	6.00e-01	0	56	0	475004928	50	4697
2026-01-07 02:18:12.46	275.63	35.26	-40.2	-42.5	21.3	6.02e-01	0	56	0	477102080	51	4845
2026-01-07 02:18:13.47	275.18	35.16	-39.1	-41.0	22.7	6.04e-01	0	56	0	478674944	50	4338
2026-01-07 02:18:14.49	274.73	35.05	-39.7	-41.9	21.9	6.03e-01	0	56	0	480772096	50	4796
2026-01-07 02:18:15.49	274.29	34.95	-39.7	-41.9	21.7	6.04e-01	0	57	0	482869248	50	4801
2026-01-07 02:18:16.51	273.84	34.84	-39.1	-41.0	22.8	6.01e-01	0	56	0	484442112	50	4321
2026-01-07 02:18:17.52	273.41	34.73	-40.1	-42.5	21.4	6.01e-01	0	56	0	486539264	50	5102
2026-01-07 02:18:18.53	272.97	34.62	-39.9	-42.1	21.5	6.00e-01	0	56	0	488112128	51	4645
2026-01-07 02:18:19.54	272.54	34.51	-39.2	-41.2	22.7	6.00e-01	0	56	0	490209280	50	4392
2026-01-07 02:18:20.55	272.11	34.39	-39.9	-42.2	21.6	5.99e-01	0	56	0	492306432	50	4953
2026-01-07 02:18:21.56	271.69	34.28	-40.1	-42.5	21.3	6.01e-01	0	56	0	493879296	51	4837
2026-01-07 02:18:22.57	271.27	34.16	-39.2	-41.1	22.7	6.02e-01	0	56	0	495976448	50	4390
2026-01-07 02:18:23.57	270.85	34.04	-39.6	-41.7	22.1	6.01e-01	0	56	0	497549312	50	4684
2026-01-07 02:18:24.58	270.43	33.92	-40.1	-42.4	21.5	6.01e-01	0	56	0	499646464	50	5079
2026-01-07 02:18:25.60	270.02	33.80	-39.6	-41.7	22.0	5.99e-01	0	57	0	501743616	50	4668
2026-01-07 02:18:26.61	269.61	33.68	-39.0	-40.9	22.9	6.01e-01	0	56	0	503316480	50	4280
2026-01-07 02:18:27.61	269.21	33.56	-39.5	-41.5	22.2	6.03e-01	0	56	0	505413632	50	4597
2026-01-07 02:18:28.62	268.80	33.44	-40.1	-42.4	21.5	6.01e-01	0	56	0	507510784	50	5096
2026-01-07 02:18:29.63	268.40	33.31	-39.8	-42.0	21.6	6.00e-01	0	56	0	509083648	50	4869
2026-01-07 02:18:30.65	268.00	33.19	-39.3	-41.4	22.4	6.02e-01	0	56	0	511180800	50	4497
2026-01-07 02:18:31.65	267.61	33.06	-39.4	-41.4	22.4	6.03e-01	0	56	0	512753664	50	4527
2026-01-07 02:18:32.67	267.22	32.93	-39.8	-42.1	21.8	6.03e-01	0	56	0	514850816	50	4879
2026-01-07 02:18:33.68	266.83	32.81	-40.0	-42.3	21.6	6.03e-01	0	56	0	516947968	50	4993
2026-01-07 02:18:34.68	266.45	32.68	-39.6	-41.7	22.0	6.03e-01	0	57	0	518520832	50	4700
2026-01-07 02:18:35.70	266.06	32.55	-39.3	-41.3	22.4	6.01e-01	0	56	0	520617984	50	4482
2026-01-07 02:18:36.71	265.69	32.42	-39.2	-41.3	22.6	6.00e-01	0	56	0	522190848	50	4443
2026-01-07 02:18:37.72	265.31	32.29	-39.4	-41.5	22.4	6.03e-01	0	56	0	524288000	50	4563
2026-01-07 02:18:38.73	264.94	32.15	-39.6	-41.7	22.1	6.02e-01	0	57	0	526385152	50	4692
2026-01-07 02:18:39.73	264.57	32.02	-39.6	-41.8	22.1	6.03e-01	0	56	0	527958016	50	4712
2026-01-07 02:18:40.74	264.21	31.89	-39.3	-41.3	22.5	6.02e-01	0	56	0	530055168	50	4457
2026-01-07 02:18:41.75	263.85	31.75	-39.3	-41.3	22.5	6.02e-01	0	56	0	531628032	50	4460
2026-01-07 02:18:42.77	263.48	31.62	-39.2	-41.3	22.5	6.00e-01	0	57	0	533725184	50	4454
2026-01-07 02:18:43.77	263.13	31.48	-39.3	-41.3	22.5	6.02e-01	0	56	0	535822336	50	4470
2026-01-07 02:18:44.78	262.78	31.35	-39.4	-41.5	22.4	6.03e-01	0	56	0	537395200	50	4546
2026-01-07 02:18:45.79	262.43	31.21	-39.5	-41.6	22.2	6.01e-01	0	56	0	539492352	50	4628
2026-01-07 02:18:46.80	262.08	31.08	-39.4	-41.5	22.4	6.00e-01	0	56	0	541065216	50	4551
2026-01-07 02:18:47.81	261.73	30.94	-39.4	-41.5	22.3	6.01e-01	0	56	0	543162368	50	4561
2026-01-07 02:18:48.82	261.39	30.80	-39.3	-41.3	22.5	6.00e-01	0	56	0	545259520	50	4460
2026-01-07 02:18:49.83	261.05	30.66	-39.2	-41.2	22.6	6.02e-01	0	56	0	546832384	50	4398
2026-01-07 02:18:50.85	260.72	30.52	-39.3	-41.3	22.4	6.01e-01	0	56	0	548929536	50	4482
2026-01-07 02:18:51.85	260.39	30.39	-39.5	-41.7	22.1	6.01e-01	0	57	0	551026688	50	4666
2026-01-07 02:18:52.87	260.05	30.25	-39.7	-41.9	21.9	6.00e-01	0	56	0	552599552	50	4761
2026-01-07 02:18:53.88	259.73	30.11	-39.4	-41.5	22.3	6.03e-01	0	56	0	554696704	50	4575
2026-01-07 02:18:54.89	259.40	29.97	-39.3	-41.3	22.5	6.00e-01	0	56	0	556269568	50	4461
2026-01-07 02:18:55.90	259.08	29.83	-39.3	-41.4	22.4	6.01e-01	0	56	0	558366720	50	4522
2026-01-07 02:18:56.91	258.77	29.69	-39.5	-41.6	22.2	6.00e-01	0	56	0	560463872	50	4641
2026-01-07 02:18:57.92	258.45	29.55	-39.5	-41.6	22.2	6.04e-01	0	56	0	562036736	50	4630
2026-01-07 02:18:58.93	258.14	29.41	-39.4	-41.5	22.2	6.01e-01	0	56	0	564133888	50	4589
2026-01-07 02:18:59.94	257.83	29.26	-39.5	-41.6	22.2	6.00e-01	0	56	0	565706752	50	4609
2026-01-07 02:19:00.95	257.52	29.12	-39.4	-41.5	22.3	6.01e-01	0	56	0	567803904	50	4571
2026-01-07 02:19:01.96	257.22	28.98	-39.3	-41.3	22.4	6.01e-01	0	56	0	569901056	50	4487
2026-01-07 02:19:02.97	256.92	28.84	-39.4	-41.5	22.3	6.03e-01	0	57	0	571473920	50	4549
2026-01-07 02:19:03.98	256.62	28.70	-39.5	-41.6	22.1	5.98e-01	0	57	0	573571072	50	4642
2026-01-07 02:19:04.99	256.33	28.56	-39.4	-41.5	22.2	6.02e-01	0	56	0	575668224	50	4596
2026-01-07 02:19:06.00	256.03	28.42	-39.4	-41.5	22.3	6.00e-01	0	56	0	577241088	50	4552
2026-01-07 02:19:07.01	255.74	28.28	-39.5	-41.6	22.2	6.04e-01	0	56	0	579338240	50	4612
2026-01-07 02:19:08.02	255.46	28.14	-39.7	-41.9	21.9	6.00e-01	0	57	0	580911104	50	4764
2026-01-07 02:19:09.03	255.17	27.99	-39.7	-41.8	21.9	6.01e-01	0	57	0	583008256	50	4753
2026-01-07 02:19:10.04	254.89	27.85	-39.4	-41.5	22.2	6.01e-01	0	56	0	585105408	50	4564
2026-01-07 02:19:11.05	254.61	27.71	-39.2	-41.3	22.5	6.02e-01	0	56	0	586678272	50	4451
2026-01-07 02:19:12.06	254.33	27.57	-39.3	-41.4	22.4	6.01e-01	0	57	0	588775424	50	4497
2026-01-07 02:19:13.07	254.06	27.43	-39.6	-41.7	22.0	6.05e-01	0	57	0	590872576	50	4688
2026-01-07 02:19:14.08	253.79	27.29	-39.7	-41.9	21.9	6.01e-01	0	57	0	592445440	50	4771
2026-01-07 02:19:15.09	253.52	27.15	-39.6	-41.8	21.9	6.01e-01	0	57	0	594542592	50	4732
2026-01-07 02:19:16.10	253.25	27.01	-39.5	-41.6	22.1	5.99e-01	0	56	0	596115456	50	4635
2026-01-07 02:19:17.11	252.98	26.86	-39.4	-41.5	22.2	6.01e-01	0	56	0	598212608	50	4585
2026-01-07 02:19:18.12	252.72	26.72	-39.4	-41.5	22.2	6.03e-01	0	56	0	600309760	50	4564
2026-01-07 02:19:19.13	252.46	26.58	-39.3	-41.4	22.3	6.02e-01	0	56	0	601882624	50	4499
2026-01-07 02:19:20.14	252.21	26.44	-39.6	-41.7	22.0	6.00e-01	0	56	0	603979776	50	4671
2026-01-07 02:19:21.15	251.95	26.30	-39.7	-42.0	21.8	6.01e-01	0	56	0	605552640	50	4821
2026-01-07 02:19:22.16	251.70	26.16	-39.7	-42.0	21.7	6.01e-01	0	57	0	607649792	50	4830
2026-01-07 02:19:23.17	251.45	26.02	-39.6	-41.8	21.9	6.02e-01	0	57	0	609746944	50	4718
2026-01-07 02:19:24.18	251.20	25.88	-39.5	-41.6	22.1	6.00e-01	0	56	0	611319808	50	4626
2026-01-07 02:19:25.19	250.95	25.74	-39.5	-41.7	22.0	6.02e-01	0	56	0	613416960	50	4666
2026-01-07 02:19:26.20	250.71	25.61	-39.6	-41.8	21.9	6.00e-01	0	56	0	614989824	50	4719
2026-01-07 02:19:27.21	250.47	25.47	-39.6	-41.8	21.9	6.01e-01	0	57	0	617086976	50	4713
2026-01-07 02:19:28.22	250.23	25.33	-39.6	-41.7	22.0	6.01e-01	0	56	0	619184128	50	4690
2026-01-07 02:19:29.23	249.99	25.19	-39.6	-41.8	21.9	6.00e-01	0	56	0	620756992	50	4731
2026-01-07 02:19:30.24	249.76	25.05	-39.7	-41.9	21.8	6.00e-01	0	57	0	622854144	50	4770
2026-01-07 02:19:31.24	249.53	24.91	-39.7	-41.9	21.8	6.02e-01	0	57	0	624427008	50	4770
2026-01-07 02:19:32.25	249.30	24.78	-39.7	-41.9	21.8	6.03e-01	0	57	0	626524160	50	4773
2026-01-07 02:19:33.26	249.07	24.64	-39.6	-41.8	21.8	5.98e-01	0	56	0	628621312	50	4755
2026-01-07 02:19:34.27	248.84	24.50	-39.7	-41.9	21.8	5.99e-01	0	56	0	630194176	50	4792
2026-01-07 02:19:35.28	248.62	24.37	-39.7	-42.0	21.7	6.03e-01	0	56	0	632291328	50	4816
2026-01-07 02:19:36.29	248.40	24.23	-39.7	-41.9	21.8	6.02e-01	0	56	0	633864192	50	4778
2026-01-07 02:19:37.30	248.18	24.09	-39.6	-41.8	21.9	6.03e-01	0	57	0	635961344	50	4741
2026-01-07 02:19:38.31	247.96	23.96	-39.7	-41.9	21.8	6.00e-01	0	56	0	638058496	50	4767
2026-01-07 02:19:39.32	247.74	23.82	-39.7	-41.9	21.7	6.01e-01	0	57	0	639631360	50	4810
2026-01-07 02:19:40.33	247.53	23.69	-39.7	-42.0	21.7	5.99e-01	0	57	0	641728512	50	4819
2026-01-07 02:19:41.34	247.32	23.55	-39.7	-41.9	21.7	6.00e-01	0	56	0	643825664	50	4798
2026-01-07 02:19:42.35	247.11	23.42	-39.7	-41.9	21.7	6.02e-01	0	56	0	645398528	50	4793
2026-01-07 02:19:43.36	246.90	23.28	-39.6	-41.8	21.8	5.99e-01	0	56	0	647495680	50	4750
2026-01-07 02:19:44.37	246.69	23.15	-39.6	-41.8	21.8	6.01e-01	0	56	0	649068544	50	4756
2026-01-07 02:19:45.38	246.49	23.02	-39.7	-41.9	21.7	6.03e-01	0	56	0	651165696	50	4800
2026-01-07 02:19:46.39	246.28	22.89	-39.8	-42.1	21.5	6.02e-01	0	57	0	653262848	50	4908
2026-01-07 02:19:47.40	246.08	22.75	-39.9	-42.3	21.4	6.01e-01	0	57	0	654835712	50	4985
2026-01-07 02:19:48.40	245.88	22.62	-39.9	-42.2	21.5	6.01e-01	0	57	0	656932864	50	4941
2026-01-07 02:19:49.41	245.69	22.49	-39.8	-42.0	21.6	6.01e-01	0	56	0	659030016	50	4856
2026-01-07 02:19:50.42	245.49	22.36	-39.7	-41.9	21.7	6.01e-01	0	56	0	660602880	50	4807
2026-01-07 02:19:51.43	245.30	22.23	-39.6	-41.8	21.9	6.02e-01	0	57	0	662700032	50	4710
2026-01-07 02:19:52.44	245.10	22.10	-39.5	-41.7	21.9	6.02e-01	0	56	0	664272896	50	4667
2026-01-07 02:19:53.45	244.91	21.97	-39.6	-41.8	21.8	6.02e-01	0	56	0	666370048	50	4720
2026-01-07 02:19:54.46	244.72	21.84	-39.7	-41.9	21.7	6.00e-01	0	56	0	668467200	50	4778
2026-01-07 02:19:55.47	244.54	21.71	-39.7	-42.0	21.6	6.02e-01	0	56	0	670040064	50	4845
2026-01-07 02:19:56.48	244.35	21.58	-39.8	-42.1	21.5	6.00e-01	0	56	0	672137216	50	4907
2026-01-07 02:19:57.49	244.17	21.45	-39.8	-42.1	21.5	6.02e-01	0	56	0	673710080	50	4915
2026-01-07 02:19:58.50	243.99	21.32	-39.8	-42.1	21.5	6.03e-01	0	56	0	675807232	50	4882
2026-01-07 02:19:59.51	243.80	21.19	-39.7	-41.9	21.7	6.02e-01	0	57	0	677904384	50	4781
2026-01-07 02:20:00.52	243.62	21.07	-39.6	-41.7	21.8	6.04e-01	0	56	0	679477248	50	4703
2026-01-07 02:20:01.53	243.45	20.94	-39.6	-41.8	21.8	6.00e-01	0	57	0	681574400	50	4720
2026-01-07 02:20:02.54	243.27	20.81	-39.6	-41.9	21.7	5.99e-01	0	56	0	683147264	50	4760
2026-01-07 02:20:03.55	243.10	20.69	-39.8	-42.1	21.5	6.02e-01	0	56	0	685244416	50	4881
2026-01-07 02:20:04.56	242.92	20.56	-39.8	-42.1	21.5	6.03e-01	0	56	0	687341568	50	4898
2026-01-07 02:20:05.57	242.75	20.44	-39.8	-42.0	21.5	6.02e-01	0	57	0	688914432	50	4870
2026-01-07 02:20:06.58	242.58	20.31	-39.7	-41.9	21.7	6.01e-01	0	57	0	691011584	50	4784
2026-01-07 02:20:07.59	242.41	20.19	-39.6	-41.8	21.7	6.01e-01	0	56	0	692584448	50	4725
2026-01-07 02:20:08.60	242.25	20.06	-39.5	-41.7	21.8	6.02e-01	0	57	0	694681600	50	4703
2026-01-07 02:20:09.61	242.08	19.94	-39.6	-41.9	21.7	6.02e-01	0	57	0	696778752	50	4780
2026-01-07 02:20:10.62	241.92	19.82	-39.6	-41.9	21.7	6.03e-01	0	56	0	698351616	50	4784
2026-01-07 02:20:11.63	241.75	19.69	-39.7	-41.9	21.6	6.00e-01	0	57	0	700448768	50	4791
2026-01-07 02:20:12.64	241.59	19.57	-39.6	-41.9	21.7	6.02e-01	0	56	0	702021632	50	4762
2026-01-07 02:20:13.65	241.43	19.45	-39.5	-41.7	21.8	6.03e-01	0	56	0	704118784	50	4681
2026-01-07 02:20:14.66	241.27	19.33	-39.4	-41.6	21.9	6.00e-01	0	57	0	706215936	50	4633
2026-01-07 02:20:15.67	241.11	19.21	-39.5	-41.6	21.9	6.03e-01	0	56	0	707788800	50	4651
2026-01-07 02:20:16.68	240.96	19.09	-39.5	-41.7	21.7	6.00e-01	0	57	0	709885952	50	4705
2026-01-07 02:20:17.69	240.80	18.97	-39.6	-41.8	21.7	6.01e-01	0	57	0	711983104	50	4723
2026-01-07 02:20:18.70	240.65	18.85	-39.6	-41.8	21.6	6.03e-01	0	57	0	713555968	50	4759
2026-01-07 02:20:19.71	240.50	18.73	-39.5	-41.7	21.7	6.00e-01	0	57	0	715653120	50	4693
2026-01-07 02:20:20.72	240.35	18.61	-39.5	-41.7	21.8	6.00e-01	0	57	0	717225984	50	4677
2026-01-07 02:20:21.73	240.20	18.49	-39.4	-41.6	21.9	6.00e-01	0	56	0	719323136	50	4606
2026-01-07 02:20:22.74	240.05	18.37	-39.4	-41.6	21.9	6.00e-01	0	56	0	721420288	50	4608
2026-01-07 02:20:23.75	239.90	18.25	-39.5	-41.8	21.7	6.03e-01	0	56	0	722993152	50	4706
2026-01-07 02:20:24.76	239.76	18.14	-39.7	-41.9	21.6	6.02e-01	0	57	0	725090304	50	4813
2026-01-07 02:20:25.76	239.61	18.02	-39.6	-41.9	21.6	6.04e-01	0	56	0	726663168	50	4796
2026-01-07 02:20:26.77	239.47	17.91	-39.6	-41.9	21.6	6.04e-01	0	57	0	728760320	50	4789
2026-01-07 02:20:27.78	239.33	17.79	-39.5	-41.7	21.7	6.01e-01	0	57	0	730857472	50	4692
2026-01-07 02:20:28.79	239.18	17.67	-39.4	-41.6	21.8	6.02e-01	0	56	0	732430336	50	4648
2026-01-07 02:20:29.80	239.04	17.56	-39.4	-41.6	21.8	6.00e-01	0	56	0	734527488	50	4612
2026-01-07 02:20:30.81	238.91	17.45	-39.4	-41.6	21.8	5.98e-01	0	57	0	736100352	50	4630
2026-01-07 02:20:31.82	238.77	17.33	-39.5	-41.8	21.7	6.01e-01	0	57	0	738197504	50	4711
2026-01-07 02:20:32.83	238.63	17.22	-39.7	-42.0	21.5	6.01e-01	0	56	0	740294656	50	4845
2026-01-07 02:20:33.84	238.49	17.10	-39.8	-42.1	21.3	6.00e-01	0	57	0	741867520	50	4908
2026-01-07 02:20:34.85	238.36	16.99	-39.7	-42.1	21.4	6.01e-01	0	57	0	743964672	50	4872
2026-01-07 02:20:35.86	238.23	16.88	-39.7	-42.0	21.4	5.99e-01	0	57	0	745537536	50	4858
2026-01-07 02:20:36.87	238.09	16.77	-39.6	-41.9	21.5	5.98e-01	0	57	0	747634688	50	4783
2026-01-07 02:20:37.88	237.96	16.65	-39.6	-41.8	21.6	6.02e-01	0	56	0	749731840	50	4744
2026-01-07 02:20:38.89	237.83	16.54	-39.6	-41.8	21.5	6.00e-01	0	57	0	751304704	50	4752
2026-01-07 02:20:39.90	237.70	16.43	-39.6	-41.8	21.6	5.99e-01	0	56	0	753401856	50	4758
2026-01-07 02:20:40.91	237.57	16.32	-39.5	-41.7	21.6	6.01e-01	0	57	0	755499008	50	4704
2026-01-07 02:20:41.92	237.45	16.21	-39.5	-41.8	21.6	6.00e-01	0	56	0	757071872	50	4727
2026-01-07 02:20:42.93	237.32	16.10	-39.5	-41.8	21.6	6.01e-01	0	57	0	759169024	50	4724
2026-01-07 02:20:43.94	237.20	15.99	-39.5	-41.7	21.6	6.01e-01	0	57	0	760741888	50	4692
2026-01-07 02:20:44.95	237.07	15.88	-39.5	-41.8	21.5	6.00e-01	0	57	0	762839040	50	4729
2026-01-07 02:20:45.96	236.95	15.78	-39.6	-41.9	21.5	6.01e-01	0	57	0	764936192	50	4775
2026-01-07 02:20:46.97	236.83	15.67	-39.6	-41.9	21.4	6.03e-01	0	56	0	766509056	50	4799
2026-01-07 02:20:47.98	236.70	15.56	-39.7	-42.0	21.3	6.03e-01	0	56	0	768606208	50	4864
2026-01-07 02:20:48.99	236.58	15.45	-39.8	-42.2	21.2	5.99e-01	0	56	0	770179072	50	4954
2026-01-07 02:20:50.00	236.46	15.35	-39.8	-42.2	21.1	5.98e-01	0	57	0	772276224	50	4963
2026-01-07 02:20:51.01	236.35	15.24	-39.8	-42.3	21.1	6.02e-01	0	57	0	774373376	50	4989
2026-01-07 02:20:52.02	236.23	15.13	-39.8	-42.2	21.1	6.01e-01	0	56	0	775946240	50	4945
2026-01-07 02:20:53.03	236.11	15.03	-39.7	-42.0	21.3	6.00e-01	0	57	0	778043392	50	4841
2026-01-07 02:20:54.04	236.00	14.92	-39.6	-41.9	21.4	6.01e-01	0	57	0	780140544	50	4782
2026-01-07 02:20:55.04	235.88	14.82	-39.6	-41.8	21.5	5.99e-01	0	57	0	781713408	50	4755
2026-01-07 02:20:56.05	235.77	14.72	-39.5	-41.8	21.5	6.01e-01	0	57	0	783810560	50	4729
2026-01-07 02:20:57.07	235.65	14.61	-39.6	-41.9	21.4	6.01e-01	0	56	0	785383424	50	4792
2026-01-07 02:20:58.07	235.54	14.51	-39.6	-42.0	21.3	6.01e-01	0	57	0	787480576	50	4827
2026-01-07 02:20:59.08	235.43	14.40	-39.7	-42.0	21.2	6.02e-01	0	56	0	789577728	50	4858
2026-01-07 02:21:00.09	235.32	14.30	-39.8	-42.2	21.1	6.01e-01	0	57	0	791150592	50	4940
2026-01-07 02:21:01.10	235.21	14.20	-39.8	-42.2	21.1	6.01e-01	0	57	0	793247744	50	4954
2026-01-07 02:21:02.11	235.10	14.10	-39.7	-42.1	21.1	6.02e-01	0	56	0	794820608	50	4910
2026-01-07 02:21:03.12	234.99	14.00	-39.7	-42.1	21.2	5.99e-01	0	56	0	796917760	50	4871
2026-01-07 02:21:04.13	234.89	13.89	-39.7	-42.1	21.2	6.02e-01	0	57	0	799014912	50	4877
2026-01-07 02:21:05.14	234.78	13.79	-39.7	-42.0	21.2	5.99e-01	0	57	0	800587776	50	4845
2026-01-07 02:21:06.15	234.67	13.69	-39.7	-42.0	21.2	6.02e-01	0	57	0	802684928	50	4845
2026-01-07 02:21:07.16	234.57	13.59	-39.6	-42.0	21.2	6.02e-01	0	57	0	804782080	50	4849
2026-01-07 02:21:08.17	234.46	13.49	-39.7	-42.1	21.1	6.04e-01	0	56	0	806354944	50	4889
2026-01-07 02:21:09.18	234.36	13.39	-39.8	-42.3	20.9	6.02e-01	0	56	0	808452096	50	5010
2026-01-07 02:21:10.19	234.26	13.29	-39.9	-42.4	20.8	5.98e-01	0	57	0	810024960	50	5069
2026-01-07 02:21:11.20	234.15	13.19	-39.9	-42.4	20.8	6.01e-01	0	56	0	812122112	50	5054
2026-01-07 02:21:12.21	234.05	13.10	-39.9	-42.4	20.7	6.02e-01	0	57	0	814219264	50	5072
2026-01-07 02:21:13.22	233.95	13.00	-39.8	-42.3	20.8	6.03e-01	0	57	0	815792128	50	5040
2026-01-07 02:21:14.23	233.85	12.90	-39.8	-42.3	20.9	6.01e-01	0	57	0	817889280	50	4995
2026-01-07 02:21:15.24	233.75	12.80	-39.9	-42.4	20.7	6.02e-01	0	57	0	819462144	50	5072
2026-01-07 02:21:16.25	233.66	12.71	-39.8	-42.3	20.8	6.04e-01	0	56	0	821559296	50	5028
2026-01-07 02:21:17.26	233.56	12.61	-39.8	-42.3	20.8	6.01e-01	0	57	0	823656448	50	5011
2026-01-07 02:21:18.27	233.46	12.51	-39.8	-42.3	20.8	6.02e-01	0	56	0	825229312	50	5026
2026-01-07 02:21:19.28	233.36	12.42	-39.9	-42.4	20.8	5.99e-01	0	57	0	827326464	50	5044
2026-01-07 02:21:20.29	233.27	12.32	-39.8	-42.3	20.8	6.03e-01	0	57	0	828899328	50	5010
2026-01-07 02:21:21.30	233.17	12.23	-39.9	-42.4	20.7	6.02e-01	0	57	0	830996480	50	5063
2026-01-07 02:21:22.31	233.08	12.13	-39.9	-42.4	20.7	6.03e-01	0	57	0	833093632	50	5091
2026-01-07 02:21:23.32	232.99	12.04	-39.8	-42.3	20.8	6.00e-01	0	57	0	834666496	50	5035
2026-01-07 02:21:24.33	232.89	11.94	-39.9	-42.4	20.7	5.99e-01	0	56	0	836763648	50	5087
2026-01-07 02:21:25.34	232.80	11.85	-39.9	-42.5	20.6	6.02e-01	0	57	0	838336512	50	5118
2026-01-07 02:21:26.35	232.71	11.75	-39.9	-42.4	20.7	6.01e-01	0	56	0	840433664	50	5076
2026-01-07 02:21:27.36	232.62	11.66	-39.8	-42.4	20.7	6.01e-01	0	57	0	842530816	50	5051
2026-01-07 02:21:28.37	232.53	11.57	-39.9	-42.4	20.6	6.04e-01	0	57	0	844103680	50	5096
2026-01-07 02:21:29.38	232.44	11.47	-40.0	-42.6	20.5	6.03e-01	0	57	0	846200832	50	5194
2026-01-07 02:21:30.39	232.35	11.38	-40.0	-42.6	20.5	6.01e-01	0	56	0	848297984	50	5167
2026-01-07 02:21:31.40	232.26	11.29	-40.0	-42.6	20.5	6.03e-01	0	56	0	849870848	50	5184
2026-01-07 02:21:32.41	232.17	11.20	-40.0	-42.6	20.4	6.02e-01	0	57	0	851968000	50	5214
2026-01-07 02:21:33.42	232.09	11.11	-40.1	-42.7	20.3	6.02e-01	0	57	0	853540864	50	5271
2026-01-07 02:21:34.43	232.00	11.02	-40.1	-42.8	20.2	6.01e-01	0	57	0	855638016	50	5325
2026-01-07 02:21:35.43	231.91	10.93	-40.2	-42.9	20.1	6.01e-01	0	57	0	857735168	50	5392
2026-01-07 02:21:36.44	231.83	10.84	-40.2	-42.9	20.1	6.00e-01	0	57	0	859308032	50	5374
2026-01-07 02:21:37.45	231.74	10.75	-40.2	-43.0	20.0	6.01e-01	0	56	0	861405184	51	5116
2026-01-07 02:21:38.46	231.66	10.66	-40.1	-42.8	20.2	6.02e-01	0	57	0	862978048	51	5020
2026-01-07 02:21:39.47	231.58	10.57	-40.2	-42.9	20.1	6.01e-01	0	57	0	865075200	51	5068
2026-01-07 02:21:40.48	231.49	10.48	-40.2	-43.0	20.1	6.03e-01	0	56	0	867172352	51	5107
2026-01-07 02:21:41.49	231.41	10.39	-40.1	-42.8	20.2	5.99e-01	0	57	0	868745216	51	5029
2026-01-07 02:21:42.50	231.33	10.30	-40.3	-43.0	19.9	6.01e-01	0	57	0	870842368	51	5152
2026-01-07 02:21:43.51	231.25	10.21	-40.1	-42.8	20.2	6.00e-01	0	57	0	872939520	51	4988
2026-01-07 02:21:44.52	231.17	10.12	-40.1	-42.8	20.2	6.02e-01	0	57	0	874512384	51	4995
2026-01-07 02:21:45.53	231.09	10.04	-40.2	-43.0	20.0	6.01e-01	0	57	0	876609536	51	5113
2026-01-07 02:21:46.54	231.01	9.95	-40.1	-42.9	20.1	6.04e-01	0	57	0	878182400	51	5059
2026-01-07 02:21:47.55	230.93	9.86	-40.1	-42.9	20.1	6.00e-01	0	57	0	880279552	51	5043
2026-01-07 02:21:48.56	230.85	9.77	-40.3	-43.1	19.8	6.00e-01	0	57	0	881852416	51	5196
2026-01-07 02:21:49.57	230.77	9.69	-40.1	-42.9	20.0	6.01e-01	0	57	0	883949568	51	5091
2026-01-07 02:21:50.58	230.69	9.60	-40.1	-42.9	20.0	6.02e-01	0	57	0	886046720	51	5076
2026-01-07 02:21:51.59	230.61	9.52	-40.2	-42.9	19.9	6.00e-01	0	57	0	887619584	51	5093
2026-01-07 02:21:52.60	230.54	9.43	-40.1	-42.8	20.0	6.00e-01	0	57	0	889716736	51	5025
2026-01-07 02:21:53.61	230.46	9.34	-40.2	-42.9	19.9	6.04e-01	0	57	0	891289600	51	5091
2026-01-07 02:21:54.62	230.38	9.26	-40.1	-42.8	20.0	6.01e-01	0	56	0	893386752	51	5027
2026-01-07 02:21:55.63	230.31	9.17	-40.2	-43.0	19.8	6.01e-01	0	56	0	895483904	51	5158
2026-01-07 02:21:56.63	230.24	9.09	-40.2	-43.0	19.8	6.03e-01	0	56	0	897056768	51	5154
2026-01-07 02:21:57.65	230.16	9.01	-40.3	-43.2	19.6	6.02e-01	0	56	0	899153920	51	5247
2026-01-07 02:21:58.65	230.09	8.92	-40.1	-42.9	19.9	6.04e-01	0	56	0	901251072	51	5077
2026-01-07 02:21:59.67	230.01	8.84	-40.3	-43.2	19.6	6.02e-01	0	57	0	902823936	51	5248
2026-01-07 02:22:00.67	229.94	8.75	-40.3	-43.2	19.5	6.00e-01	0	57	0	904921088	51	5259
2026-01-07 02:22:01.68	229.87	8.67	-40.3	-43.3	19.5	6.01e-01	0	57	0	906493952	51	5302
2026-01-07 02:22:02.69	229.80	8.59	-40.4	-43.4	19.3	6.02e-01	0	57	0	908591104	51	5347
2026-01-07 02:22:03.70	229.72	8.51	-40.3	-43.3	19.4	6.01e-01	0	57	0	910688256	51	5306
2026-01-07 02:22:04.71	229.65	8.42	-40.5	-43.5	19.3	6.03e-01	0	57	0	912261120	51	5447
2026-01-07 02:22:05.73	229.58	8.34	-40.5	-43.6	19.2	6.01e-01	0	57	0	914358272	51	5465
2026-01-07 02:22:06.74	229.51	8.26	-40.6	-43.8	18.9	6.00e-01	0	57	0	916455424	51	5643
2026-01-07 02:22:07.75	229.44	8.18	-40.6	-43.8	18.9	6.01e-01	0	57	0	918028288	51	5597
2026-01-07 02:22:08.76	229.37	8.10	-40.5	-43.6	19.0	6.00e-01	0	57	0	920125440	51	5514
2026-01-07 02:22:09.77	229.30	8.01	-44.6	-60.9	3.8	7.39e-01	0	57	104	921698304	60	24020
2026-01-07 02:22:10.78	229.24	7.93	-45.2	-64.0	3.8	7.46e-01	0	57	104	921698304	60	34208
2026-01-07 02:22:11.79	229.17	7.85	-45.5	-64.4	3.8	7.49e-01	0	57	104	921698304	61	33730
2026-01-07 02:22:12.80	229.10	7.77	-45.7	-64.5	3.8	7.47e-01	0	57	104	921698304	61	34392
2026-01-07 02:22:13.81	229.03	7.69	-45.8	-64.7	3.8	7.43e-01	0	57	104	921698304	62	32969
2026-01-07 02:22:14.82	228.97	7.61	-45.9	-64.7	3.8	7.44e-01	0	57	104	921698304	62	33288
2026-01-07 02:22:15.83	228.90	7.53	-45.9	-64.8	3.8	7.47e-01	0	57	104	921698304	62	33518
2026-01-07 02:22:16.84	228.83	7.45	-46.0	-64.9	3.8	7.45e-01	0	57	104	921698304	62	33762
2026-01-07 02:22:17.85	228.77	7.37	-46.0	-64.8	3.8	7.45e-01	0	57	104	921698304	62	33653
2026-01-07 02:22:18.86	228.70	7.30	-46.0	-64.9	3.8	7.48e-01	0	57	104	921698304	62	33860
2026-01-07 02:22:19.87	228.64	7.22	-46.0	-64.8	3.8	7.44e-01	0	57	104	921698304	62	33678
2026-01-07 02:22:20.88	228.57	7.14	-45.9	-64.8	3.8	7.46e-01	0	57	104	921698304	62	33599
2026-01-07 02:22:21.89	228.51	7.06	-45.9	-64.8	3.8	7.45e-01	0	57	104	921698304	62	33585
2026-01-07 02:22:22.90	228.45	6.98	-45.9	-64.8	3.8	7.47e-01	0	57	104	921698304	62	33542
2026-01-07 02:22:23.91	228.38	6.90	-45.9	-64.8	3.8	7.46e-01	0	57	104	921698304	62	33548
2026-01-07 02:22:24.92	228.32	6.83	-45.9	-64.8	3.8	7.44e-01	0	57	104	921698304	62	33570
2026-01-07 02:22:25.93	228.26	6.75	-45.9	-64.8	3.8	7.42e-01	0	57	104	921698304	62	33568
2026-01-07 02:22:26.94	228.20	6.67	-45.9	-64.8	3.8	7.45e-01	0	57	104	921698304	62	33443
2026-01-07 02:22:27.95	228.13	6.60	-45.9	-64.8	3.8	7.47e-01	0	57	104	921698304	62	33370
2026-01-07 02:22:28.97	228.07	6.52	-45.9	-64.8	3.8	7.47e-01	0	57	104	921698304	62	33426
2026-01-07 02:22:29.98	228.01	6.44	-45.9	-64.8	3.8	7.48e-01	0	57	104	921698304	62	33469
2026-01-07 02:22:30.99	227.95	6.37	-45.9	-64.8	3.8	7.42e-01	0	57	104	921698304	62	33407
2026-01-07 02:22:32.00	227.89	6.29	-45.9	-64.8	3.8	7.44e-01	0	57	104	921698304	62	33358
2026-01-07 02:22:33.01	227.83	6.21	-45.9	-64.8	3.8	7.45e-01	0	57	104	921698304	62	33337
2026-01-07 02:22:34.02	227.77	6.14	-45.9	-64.8	3.8	7.49e-01	0	57	104	921698304	62	33388
2026-01-07 02:22:35.03	227.71	6.06	-45.9	-64.8	3.8	7.49e-01	0	57	104	921698304	62	33385
2026-01-07 02:22:36.04	227.65	5.99	-45.9	-64.7	3.8	7.44e-01	0	57	104	921698304	62	33261
2026-01-07 02:22:37.05	227.59	5.91	-45.9	-64.8	3.8	7.47e-01	0	57	104	921698304	62	33365
2026-01-07 02:22:38.06	227.54	5.84	-45.8	-64.7	3.8	7.43e-01	0	57	104	921698304	62	33289
2026-01-07 02:22:39.07	227.48	5.76	-45.8	-64.7	3.8	7.49e-01	0	57	104	921698304	62	33183
2026-01-07 02:22:40.08	227.42	5.69	-45.8	-64.8	3.8	7.44e-01	0	57	104	921698304	62	33343
2026-01-07 02:22:41.09	227.36	5.62	-45.8	-64.8	3.8	7.46e-01	0	57	104	921698304	62	33335
2026-01-07 02:22:42.10	227.31	5.54	-45.8	-64.7	3.8	7.44e-01	0	57	104	921698304	62	33289
2026-01-07 02:22:43.12	227.25	5.47	-45.8	-64.7	3.8	7.46e-01	0	57	104	921698304	62	33267
2026-01-07 02:22:44.13	227.19	5.39	-45.8	-64.7	3.8	7.42e-01	0	57	104	921698304	62	33276
2026-01-07 02:22:45.14	227.14	5.32	-45.8	-64.7	3.8	7.43e-01	0	57	104	921698304	62	33185
2026-01-07 02:22:46.15	227.08	5.25	-45.8	-64.7	3.8	7.48e-01	0	57	104	921698304	62	33240
2026-01-07 02:22:47.16	227.03	5.17	-45.8	-64.7	3.8	7.45e-01	0	57	104	921698304	62	33186
2026-01-07 02:22:48.17	226.97	5.10	-45.8	-64.7	3.8	7.42e-01	0	57	104	921698304	62	33277
2026-01-07 02:22:49.18	226.92	5.03	-45.8	-64.7	3.8	7.44e-01	0	57	104	921698304	62	33164
2026-01-07 02:22:50.19	226.86	4.96	-45.8	-64.7	3.8	7.43e-01	0	57	104	921698304	62	33211
2026-01-07 02:22:51.20	226.81	4.89	-45.8	-64.7	3.8	7.46e-01	0	57	104	921698304	62	33160
2026-01-07 02:22:52.21	226.76	4.81	-45.8	-64.7	3.8	7.44e-01	0	57	104	921698304	62	33130
2026-01-07 02:22:53.22	226.70	4.74	-45.8	-64.7	3.8	7.44e-01	0	57	104	921698304	62	33222
2026-01-07 02:22:54.23	226.65	4.67	-45.8	-64.7	3.8	7.46e-01	0	57	104	921698304	62	33162
2026-01-07 02:22:55.24	226.60	4.60	-45.8	-64.7	3.8	7.45e-01	0	57	104	921698304	62	33187
2026-01-07 02:22:56.25	226.54	4.53	-45.8	-64.7	3.8	7.42e-01	0	57	104	921698304	62	33242
2026-01-07 02:22:57.26	226.49	4.46	-45.8	-64.7	3.8	7.43e-01	0	57	104	921698304	62	33196
2026-01-07 02:22:58.28	226.44	4.39	-45.8	-64.7	3.8	7.45e-01	0	57	104	921698304	62	33225
2026-01-07 02:22:59.28	226.39	4.32	-45.8	-64.7	3.8	7.46e-01	0	57	104	921698304	62	33235
2026-01-07 02:23:00.30	226.34	4.25	-45.8	-64.7	3.8	7.45e-01	0	57	104	921698304	62	33249
2026-01-07 02:23:01.31	226.29	4.18	-45.8	-64.7	3.8	7.43e-01	0	57	104	921698304	62	33238
2026-01-07 02:23:02.32	226.23	4.11	-45.8	-64.7	3.8	7.47e-01	0	57	104	921698304	62	33117
2026-01-07 02:23:03.33	226.18	4.04	-45.8	-64.7	3.8	7.45e-01	0	57	104	921698304	62	33226
