passes_logs/2026/01/07/R2.0S_Moscow/R2.0S_Moscow__20260107_224600_NOAA_20_JPSS-1_rec.log

#Pass ID: 20260107_224600_NOAA 20 (JPSS-1)
#Satellite: NOAA 20 (JPSS-1)
#Configuration: NOAA 20
#almurnet v.1.7.20251203
#Start time: 2026-01-07 22:46:00

#Version: 2.2.20231116
#Station: R2.0S_Moscow
#Location: 37.707566 lon 55.798166 lat
#TLE: 1 43013U 17073A   26006.30790171  .00000126  00000+0  80695-4 0  9991
#TLE: 2 43013  98.7629 307.3394 0001808  51.8724 308.2615 14.19533762421505

#Time	Az	El	Level	Level2	SNR	BER	BlckErr	Temp	State	Recorded	gain1	gain2
2026-01-07 22:46:00.92	20.92	2.02	-42.0	-56.9	3.8	1.49e+00	0	48	0	0	56	19012
2026-01-07 22:46:01.92	20.96	2.08	-41.9	-56.7	3.8	1.49e+00	0	48	104	0	54	20859
2026-01-07 22:46:02.93	21.01	2.14	-41.9	-56.7	3.8	1.49e+00	0	48	104	0	54	20863
2026-01-07 22:46:03.93	21.05	2.20	-41.8	-56.7	3.8	1.49e+00	0	48	104	0	54	20906
2026-01-07 22:46:04.94	21.10	2.26	-41.8	-56.7	3.8	1.49e+00	0	48	104	0	54	20862
2026-01-07 22:46:05.95	21.15	2.32	-41.8	-56.7	3.8	1.49e+00	0	49	104	0	54	20869
2026-01-07 22:46:06.96	21.19	2.38	-41.8	-56.7	3.8	1.49e+00	0	49	104	0	54	20843
2026-01-07 22:46:07.97	21.24	2.45	-41.8	-56.7	3.8	1.49e+00	0	49	104	0	54	20835
2026-01-07 22:46:08.98	21.28	2.51	-41.8	-56.7	3.8	1.49e+00	0	49	104	0	54	20846
2026-01-07 22:46:09.99	21.33	2.57	-41.9	-56.7	3.8	1.49e+00	0	49	104	0	54	20842
2026-01-07 22:46:11.00	21.38	2.63	-41.8	-56.7	3.8	1.49e+00	0	49	104	0	54	20836
2026-01-07 22:46:12.01	21.42	2.69	-41.8	-56.7	3.8	1.49e+00	0	49	104	0	54	20833
2026-01-07 22:46:13.02	21.47	2.76	-41.8	-56.7	3.8	1.49e+00	0	49	104	0	54	20826
2026-01-07 22:46:14.03	21.52	2.82	-41.8	-56.7	3.8	1.49e+00	0	49	104	0	54	20824
2026-01-07 22:46:15.04	21.56	2.88	-41.8	-56.7	3.8	1.49e+00	0	49	104	0	54	20876
2026-01-07 22:46:16.05	21.61	2.94	-41.8	-56.7	3.8	1.49e+00	0	49	104	0	54	20778
2026-01-07 22:46:17.06	21.66	3.01	-41.8	-56.7	3.8	1.49e+00	0	49	104	0	54	20862
2026-01-07 22:46:18.07	21.71	3.07	-41.8	-56.7	3.8	1.49e+00	0	49	104	0	54	20818
2026-01-07 22:46:19.08	21.75	3.13	-41.8	-56.7	3.8	1.49e+00	0	50	104	0	54	20861
2026-01-07 22:46:20.08	21.80	3.20	-41.8	-56.7	3.8	1.49e+00	0	50	104	0	54	20843
2026-01-07 22:46:21.10	21.85	3.26	-41.8	-56.7	3.8	1.49e+00	0	50	104	0	54	20826
2026-01-07 22:46:22.10	21.90	3.32	-41.8	-56.7	3.8	1.49e+00	0	50	104	0	54	20809
2026-01-07 22:46:23.11	21.95	3.39	-41.8	-56.7	3.8	1.49e+00	0	50	104	0	54	20794
2026-01-07 22:46:24.12	21.99	3.45	-41.8	-56.7	3.8	1.49e+00	0	50	104	0	54	20785
2026-01-07 22:46:25.13	22.04	3.51	-41.8	-56.6	3.8	1.49e+00	0	50	104	0	54	20768
2026-01-07 22:46:26.14	22.09	3.58	-41.8	-56.7	3.8	1.49e+00	0	50	104	0	54	20847
2026-01-07 22:46:27.15	22.14	3.64	-41.8	-56.7	3.8	1.49e+00	0	50	104	0	54	20784
2026-01-07 22:46:28.16	22.19	3.71	-41.8	-56.6	3.8	1.49e+00	0	50	104	0	54	20765
2026-01-07 22:46:29.17	22.24	3.77	-41.8	-56.7	3.8	1.49e+00	0	50	104	0	54	20788
2026-01-07 22:46:30.18	22.29	3.84	-41.8	-56.7	3.8	1.49e+00	0	50	104	0	54	20784
2026-01-07 22:46:31.19	22.34	3.90	-41.8	-56.6	3.8	1.49e+00	0	50	104	0	54	20766
2026-01-07 22:46:32.20	22.39	3.96	-41.8	-56.6	3.8	1.49e+00	0	50	104	0	54	20764
2026-01-07 22:46:33.21	22.44	4.03	-41.8	-56.7	3.8	1.49e+00	0	51	104	0	54	20831
2026-01-07 22:46:34.22	22.49	4.09	-41.8	-56.7	3.8	1.49e+00	0	50	104	0	54	20794
2026-01-07 22:46:35.23	22.54	4.16	-41.8	-56.7	3.8	1.49e+00	0	51	104	0	54	20786
2026-01-07 22:46:36.24	22.60	4.23	-41.8	-56.6	3.8	1.49e+00	0	51	104	0	54	20739
2026-01-07 22:46:37.25	22.65	4.29	-41.8	-56.7	3.8	1.49e+00	0	51	104	0	54	20817
2026-01-07 22:46:38.26	22.70	4.36	-41.8	-56.7	3.8	1.49e+00	0	51	104	0	54	20804
2026-01-07 22:46:39.27	22.75	4.42	-41.8	-56.7	3.8	1.49e+00	0	51	104	0	54	20829
2026-01-07 22:46:40.28	22.80	4.49	-41.8	-56.6	3.8	1.49e+00	0	51	104	0	54	20764
2026-01-07 22:46:41.29	22.85	4.55	-41.8	-56.7	3.8	1.49e+00	0	51	104	0	54	20778
2026-01-07 22:46:42.29	22.91	4.62	-41.8	-56.7	3.8	1.49e+00	0	51	104	0	54	20809
2026-01-07 22:46:43.30	22.96	4.69	-41.8	-56.7	3.8	1.49e+00	0	51	104	0	54	20839
2026-01-07 22:46:44.30	23.01	4.75	-41.8	-56.7	3.8	1.49e+00	0	51	104	0	54	20793
2026-01-07 22:46:45.31	23.06	4.82	-41.8	-56.7	3.8	1.49e+00	0	51	104	0	54	20805
2026-01-07 22:46:46.31	23.12	4.89	-41.8	-56.6	3.8	1.49e+00	0	51	104	0	54	20775
2026-01-07 22:46:47.32	23.17	4.95	-41.8	-56.7	3.8	1.49e+00	0	51	104	0	54	20793
2026-01-07 22:46:48.33	23.22	5.02	-41.8	-56.6	3.8	1.49e+00	0	51	104	0	54	20726
2026-01-07 22:46:49.34	23.28	5.09	-41.8	-56.6	3.8	1.49e+00	0	51	104	0	54	20748
2026-01-07 22:46:50.35	23.33	5.15	-41.8	-56.7	3.8	1.49e+00	0	51	104	0	54	20799
2026-01-07 22:46:51.35	23.39	5.22	-41.8	-56.6	3.8	1.49e+00	0	51	104	0	54	20728
2026-01-07 22:46:52.36	23.44	5.29	-41.8	-56.6	3.8	1.49e+00	0	51	104	0	54	20708
2026-01-07 22:46:53.37	23.50	5.36	-41.8	-56.6	3.8	1.49e+00	0	52	104	0	54	20765
2026-01-07 22:46:54.37	23.55	5.42	-41.8	-56.6	3.8	1.49e+00	0	52	104	0	54	20734
2026-01-07 22:46:55.38	23.61	5.49	-41.8	-56.6	3.8	1.49e+00	0	51	104	0	54	20769
2026-01-07 22:46:56.38	23.66	5.56	-41.8	-56.6	3.8	1.49e+00	0	52	104	0	54	20748
2026-01-07 22:46:57.39	23.72	5.63	-41.8	-56.7	3.8	1.49e+00	0	52	104	0	54	20799
2026-01-07 22:46:58.39	23.77	5.70	-41.8	-56.6	3.8	1.49e+00	0	52	104	0	54	20762
2026-01-07 22:46:59.39	23.83	5.76	-41.8	-56.6	3.8	1.49e+00	0	52	104	0	54	20702
2026-01-07 22:47:00.39	23.88	5.83	-41.8	-56.6	3.8	1.49e+00	0	52	104	0	54	20722
2026-01-07 22:47:01.40	23.94	5.90	-41.8	-56.6	3.8	1.49e+00	0	52	104	0	54	20754
2026-01-07 22:47:02.41	24.00	5.97	-41.8	-56.7	3.8	1.49e+00	0	52	104	0	54	20793
2026-01-07 22:47:03.41	24.06	6.04	-41.8	-56.6	3.8	1.49e+00	0	52	104	0	54	20774
2026-01-07 22:47:04.40	24.11	6.11	-41.8	-56.6	3.8	1.49e+00	0	52	104	0	54	20730
2026-01-07 22:47:05.40	24.17	6.18	-41.8	-56.6	3.8	1.49e+00	0	52	104	0	54	20765
2026-01-07 22:47:06.40	24.23	6.25	-41.8	-56.6	3.8	1.49e+00	0	52	104	0	54	20760
2026-01-07 22:47:07.41	24.28	6.32	-41.8	-56.6	3.8	1.49e+00	0	52	104	0	54	20772
2026-01-07 22:47:08.41	24.34	6.39	-41.8	-56.6	3.8	1.49e+00	0	52	104	0	54	20767
2026-01-07 22:47:09.41	24.40	6.46	-41.8	-56.7	3.8	1.49e+00	0	52	104	0	54	20812
2026-01-07 22:47:10.41	24.46	6.53	-41.8	-56.6	3.8	1.49e+00	0	52	104	0	54	20726
2026-01-07 22:47:11.41	24.52	6.60	-41.8	-56.6	3.8	1.49e+00	0	52	104	0	54	20725
2026-01-07 22:47:12.42	24.58	6.67	-41.8	-56.6	3.8	1.49e+00	0	52	104	0	54	20720
2026-01-07 22:47:13.42	24.64	6.74	-41.8	-56.6	3.8	1.49e+00	0	52	104	0	54	20574
2026-01-07 22:47:14.42	24.70	6.81	-41.8	-56.5	3.8	1.49e+00	0	52	104	0	54	20457
2026-01-07 22:47:15.42	24.76	6.88	-41.8	-56.4	3.8	1.49e+00	0	53	104	0	54	20292
2026-01-07 22:47:16.43	24.82	6.95	-41.8	-56.4	3.8	1.49e+00	0	53	104	0	54	20146
2026-01-07 22:47:17.43	24.88	7.02	-41.8	-56.2	3.8	1.49e+00	0	53	104	0	54	19779
2026-01-07 22:47:18.44	24.94	7.09	-41.8	-56.1	3.8	1.49e+00	0	53	104	0	54	19490
2026-01-07 22:47:19.45	25.00	7.17	-41.8	-55.9	3.8	1.49e+00	0	53	104	0	54	19111
2026-01-07 22:47:20.45	25.06	7.24	-41.7	-55.6	3.8	1.49e+00	0	53	104	0	54	18359
2026-01-07 22:47:21.46	25.12	7.31	-41.7	-55.0	3.8	1.49e+00	0	53	104	0	54	17161
2026-01-07 22:47:22.47	25.19	7.38	-41.6	-54.0	3.9	1.49e+00	0	53	104	0	54	15347
2026-01-07 22:47:23.48	25.25	7.46	-41.6	-53.1	4.2	1.43e+00	0	53	0	0	54	13761
2026-01-07 22:47:24.49	25.31	7.53	-41.5	-52.3	4.5	1.33e+00	39	53	0	0	54	12555
2026-01-07 22:47:25.50	25.37	7.60	-41.4	-51.1	5.0	8.34e-01	0	53	0	2097152	54	10982
2026-01-07 22:47:26.51	25.44	7.68	-41.2	-49.9	5.7	5.43e-01	0	53	0	4194304	54	9559
2026-01-07 22:47:27.51	25.50	7.75	-41.0	-48.5	6.8	2.80e-01	0	53	0	6291456	54	8151
2026-01-07 22:47:28.52	25.57	7.82	-40.7	-47.3	7.9	9.56e-02	0	53	0	8388608	53	7510
2026-01-07 22:47:29.53	25.63	7.90	-40.4	-46.3	9.0	3.68e-02	0	53	0	9437184	52	7063
2026-01-07 22:47:30.53	25.69	7.97	-40.1	-45.3	10.0	1.47e-02	0	53	0	11534336	52	6331
2026-01-07 22:47:31.54	25.76	8.05	-40.0	-44.8	10.8	3.88e-03	0	53	0	13631488	52	5964
2026-01-07 22:47:32.55	25.82	8.12	-40.7	-45.6	10.8	1.89e-03	0	53	0	15728640	52	6507
2026-01-07 22:47:33.55	25.89	8.19	-40.2	-45.2	10.7	8.50e-03	0	53	0	17825792	52	6207
2026-01-07 22:47:34.56	25.96	8.27	-41.0	-51.3	4.8	3.61e-01	0	53	0	18874368	52	12536
2026-01-07 22:47:35.57	26.02	8.34	-40.8	-45.8	10.1	1.15e+00	0	53	0	19922944	53	6335
2026-01-07 22:47:36.57	26.09	8.42	-41.3	-46.3	10.2	2.17e-02	0	53	0	22020096	54	6316
2026-01-07 22:47:37.58	26.15	8.49	-41.0	-45.5	11.1	2.73e-03	0	53	0	23068672	54	5759
2026-01-07 22:47:38.59	26.22	8.57	-41.0	-45.5	11.2	1.39e-03	0	53	0	25165824	54	5727
2026-01-07 22:47:39.59	26.29	8.65	-40.9	-45.2	11.5	9.92e-04	0	53	0	27262976	53	5877
2026-01-07 22:47:40.60	26.36	8.72	-40.9	-45.3	11.4	9.19e-04	0	53	0	29360128	53	5962
2026-01-07 22:47:41.61	26.43	8.80	-40.8	-45.0	11.7	5.77e-04	0	54	0	30408704	53	5770
2026-01-07 22:47:42.61	26.49	8.87	-40.8	-44.9	11.9	4.20e-04	0	53	0	32505856	53	5659
2026-01-07 22:47:43.62	26.56	8.95	-40.7	-44.7	12.0	3.43e-04	0	53	0	34603008	53	5587
2026-01-07 22:47:44.62	26.63	9.03	-40.7	-44.8	12.0	3.29e-04	0	54	0	36700160	53	5596
2026-01-07 22:47:45.62	26.70	9.10	-40.7	-44.7	12.1	2.32e-04	0	54	0	38797312	53	5546
2026-01-07 22:47:46.63	26.77	9.18	-40.7	-44.7	12.1	2.90e-04	0	54	0	40894464	53	5565
2026-01-07 22:47:47.63	26.84	9.26	-40.8	-44.7	12.1	2.30e-04	0	54	0	41943040	53	5564
2026-01-07 22:47:48.63	26.91	9.34	-40.8	-44.8	12.1	2.69e-04	0	54	0	44040192	53	5637
2026-01-07 22:47:49.64	26.98	9.41	-40.8	-44.8	12.2	2.71e-04	0	54	0	46137344	53	5619
2026-01-07 22:47:50.64	27.05	9.49	-40.8	-44.7	12.2	1.97e-04	0	54	0	48234496	53	5570
2026-01-07 22:47:51.65	27.12	9.57	-40.8	-44.6	12.4	1.46e-04	0	54	0	49283072	53	5484
2026-01-07 22:47:52.65	27.19	9.65	-40.8	-44.5	12.5	1.14e-04	0	54	0	51380224	53	5457
2026-01-07 22:47:53.65	27.27	9.73	-40.8	-44.5	12.5	1.08e-04	0	54	0	53477376	53	5451
2026-01-07 22:47:54.66	27.34	9.80	-40.7	-44.3	12.8	1.16e-04	0	54	0	55574528	53	5293
2026-01-07 22:47:55.66	27.41	9.88	-40.8	-44.4	12.7	7.93e-05	0	54	0	57671680	53	5352
2026-01-07 22:47:56.67	27.48	9.96	-40.7	-44.2	13.0	6.10e-05	0	54	0	58720256	53	5240
2026-01-07 22:47:57.68	27.56	10.04	-40.7	-44.2	13.0	3.12e-05	0	54	0	60817408	53	5221
2026-01-07 22:47:58.68	27.63	10.12	-40.7	-44.1	13.1	3.81e-05	0	54	0	62914560	53	5213
2026-01-07 22:47:59.69	27.71	10.20	-40.7	-44.1	13.1	2.74e-05	0	54	0	65011712	53	5208
2026-01-07 22:48:00.69	27.78	10.28	-40.6	-44.0	13.2	2.28e-05	0	54	0	67108864	53	5113
2026-01-07 22:48:01.70	27.86	10.36	-40.6	-44.0	13.2	2.13e-05	0	54	0	68157440	53	5114
2026-01-07 22:48:02.71	27.93	10.44	-40.6	-43.9	13.3	1.98e-05	0	54	0	70254592	53	5085
2026-01-07 22:48:03.71	28.01	10.52	-40.6	-43.9	13.4	1.98e-05	0	54	0	72351744	53	5052
2026-01-07 22:48:04.70	28.08	10.60	-40.5	-43.8	13.4	1.60e-05	0	54	0	74448896	53	5025
2026-01-07 22:48:05.70	28.16	10.68	-40.5	-43.8	13.5	1.83e-05	0	54	0	76546048	53	5015
2026-01-07 22:48:06.70	28.24	10.76	-40.5	-43.8	13.5	1.67e-05	0	54	0	77594624	53	5012
2026-01-07 22:48:07.70	28.31	10.85	-40.6	-43.9	13.4	6.80e-06	0	54	0	79691776	53	5070
2026-01-07 22:48:08.70	28.39	10.93	-40.6	-43.8	13.5	1.44e-05	0	54	0	81788928	53	5038
2026-01-07 22:48:09.71	28.47	11.01	-40.5	-43.8	13.6	4.50e-06	0	54	0	83886080	53	5003
2026-01-07 22:48:10.71	28.55	11.09	-40.4	-43.6	13.8	4.50e-06	0	54	0	85983232	52	5176
2026-01-07 22:48:11.71	28.63	11.17	-40.5	-43.7	13.7	3.00e-06	0	54	0	87031808	52	5256
2026-01-07 22:48:12.71	28.70	11.26	-40.5	-43.6	13.8	3.80e-06	0	54	0	89128960	52	5217
2026-01-07 22:48:13.72	28.79	11.34	-40.5	-43.6	13.9	5.30e-06	0	54	0	91226112	52	5176
2026-01-07 22:48:14.72	28.87	11.42	-40.5	-43.6	13.8	7.00e-07	0	54	0	93323264	52	5193
2026-01-07 22:48:15.72	28.95	11.50	-40.5	-43.6	13.9	3.00e-06	0	54	0	95420416	52	5169
2026-01-07 22:48:16.73	29.03	11.59	-40.5	-43.6	13.8	4.50e-06	0	54	0	96468992	52	5213
2026-01-07 22:48:17.73	29.11	11.67	-40.5	-43.5	13.9	4.50e-06	0	55	0	98566144	52	5153
2026-01-07 22:48:18.73	29.19	11.76	-40.5	-43.6	13.9	3.00e-06	0	54	0	100663296	52	5173
2026-01-07 22:48:19.73	29.27	11.84	-40.5	-43.6	13.9	3.80e-06	0	54	0	102760448	52	5176
2026-01-07 22:48:20.73	29.35	11.92	-40.5	-43.6	14.0	2.20e-06	0	54	0	103809024	52	5166
2026-01-07 22:48:21.73	29.44	12.01	-40.5	-43.5	14.0	3.00e-06	0	55	0	105906176	52	5153
2026-01-07 22:48:22.74	29.52	12.09	-40.5	-43.5	14.0	1.50e-06	0	54	0	108003328	52	5136
2026-01-07 22:48:23.74	29.61	12.18	-40.4	-43.5	14.1	1.50e-06	0	54	0	110100480	52	5102
2026-01-07 22:48:24.74	29.69	12.26	-40.4	-43.4	14.2	1.50e-06	0	55	0	112197632	52	5062
2026-01-07 22:48:25.75	29.78	12.35	-40.4	-43.3	14.2	1.50e-06	0	55	0	113246208	52	5019
2026-01-07 22:48:26.75	29.86	12.44	-40.3	-43.3	14.2	1.50e-06	0	54	0	115343360	52	5014
2026-01-07 22:48:27.75	29.95	12.52	-40.3	-43.2	14.4	1.50e-06	0	54	0	117440512	52	4965
2026-01-07 22:48:28.75	30.03	12.61	-40.3	-43.1	14.5	0.00e+00	0	55	0	119537664	52	4919
2026-01-07 22:48:29.75	30.12	12.69	-40.3	-43.2	14.4	0.00e+00	0	55	0	121634816	52	4965
2026-01-07 22:48:30.76	30.21	12.78	-40.2	-43.0	14.6	0.00e+00	0	55	0	122683392	52	4862
2026-01-07 22:48:31.75	30.30	12.87	-40.2	-43.1	14.5	1.50e-06	0	54	0	124780544	52	4878
2026-01-07 22:48:32.76	30.38	12.96	-40.2	-43.0	14.6	0.00e+00	0	54	0	126877696	52	4830
2026-01-07 22:48:33.76	30.47	13.04	-40.2	-43.0	14.7	0.00e+00	0	55	0	128974848	52	4834
2026-01-07 22:48:34.76	30.56	13.13	-40.1	-42.9	14.7	0.00e+00	0	55	0	131072000	52	4807
2026-01-07 22:48:35.76	30.65	13.22	-40.1	-42.8	14.8	0.00e+00	0	54	0	132120576	52	4754
2026-01-07 22:48:36.77	30.74	13.31	-40.1	-42.9	14.8	0.00e+00	0	55	0	134217728	52	4771
2026-01-07 22:48:37.77	30.83	13.40	-40.1	-42.9	14.8	0.00e+00	0	55	0	136314880	52	4765
2026-01-07 22:48:38.77	30.93	13.49	-40.0	-42.8	14.9	0.00e+00	0	55	0	138412032	52	4710
2026-01-07 22:48:39.77	31.02	13.57	-40.1	-42.7	15.0	0.00e+00	0	55	0	140509184	51	4969
2026-01-07 22:48:40.78	31.11	13.66	-40.1	-42.7	15.0	0.00e+00	0	55	0	141557760	51	4961
2026-01-07 22:48:41.78	31.20	13.75	-40.0	-42.6	15.1	0.00e+00	0	55	0	143654912	51	4900
2026-01-07 22:48:42.79	31.30	13.85	-40.0	-42.6	15.2	0.00e+00	0	55	0	145752064	51	4896
2026-01-07 22:48:43.79	31.39	13.94	-40.0	-42.6	15.2	0.00e+00	0	55	0	147849216	51	4893
2026-01-07 22:48:44.79	31.49	14.03	-39.9	-42.5	15.3	0.00e+00	0	55	0	148897792	51	4850
2026-01-07 22:48:45.79	31.58	14.12	-39.9	-42.5	15.3	0.00e+00	0	55	0	150994944	51	4835
2026-01-07 22:48:46.79	31.68	14.21	-39.9	-42.5	15.3	0.00e+00	0	55	0	153092096	51	4860
2026-01-07 22:48:47.80	31.77	14.30	-39.9	-42.5	15.4	0.00e+00	0	55	0	155189248	51	4840
2026-01-07 22:48:48.81	31.87	14.39	-39.9	-42.5	15.4	0.00e+00	0	55	0	157286400	51	4826
2026-01-07 22:48:49.81	31.97	14.48	-39.9	-42.5	15.4	0.00e+00	0	55	0	158334976	51	4838
2026-01-07 22:48:50.81	32.07	14.58	-40.0	-42.5	15.4	0.00e+00	0	55	0	160432128	51	4846
2026-01-07 22:48:51.82	32.17	14.67	-39.9	-42.5	15.4	0.00e+00	0	55	0	162529280	51	4818
2026-01-07 22:48:52.82	32.27	14.76	-39.9	-42.5	15.4	0.00e+00	0	55	0	164626432	51	4842
2026-01-07 22:48:53.83	32.37	14.85	-39.9	-42.5	15.4	0.00e+00	0	55	0	166723584	51	4845
2026-01-07 22:48:54.83	32.47	14.95	-40.0	-42.6	15.3	7.00e-07	0	55	0	167772160	51	4905
2026-01-07 22:48:55.83	32.57	15.04	-40.1	-42.7	15.2	0.00e+00	0	55	0	169869312	51	4936
2026-01-07 22:48:56.84	32.67	15.14	-40.0	-42.5	15.4	0.00e+00	0	55	0	171966464	51	4859
2026-01-07 22:48:57.84	32.77	15.23	-40.1	-42.7	15.2	0.00e+00	0	55	0	174063616	51	4929
2026-01-07 22:48:58.83	32.87	15.32	-40.1	-42.7	15.3	0.00e+00	0	55	0	176160768	51	4927
2026-01-07 22:48:59.84	32.98	15.42	-40.1	-42.7	15.2	0.00e+00	0	55	0	177209344	51	4955
2026-01-07 22:49:00.84	33.08	15.51	-40.1	-42.8	15.1	0.00e+00	0	55	0	179306496	51	5008
2026-01-07 22:49:01.85	33.19	15.61	-40.2	-42.8	15.1	0.00e+00	0	55	0	181403648	51	5037
2026-01-07 22:49:02.85	33.29	15.70	-40.2	-42.9	15.1	0.00e+00	0	55	0	183500800	51	5046
2026-01-07 22:49:03.85	33.40	15.80	-40.2	-42.9	15.0	0.00e+00	0	55	0	185597952	51	5079
2026-01-07 22:49:04.84	33.50	15.90	-40.2	-42.9	15.0	0.00e+00	0	55	0	186646528	51	5086
2026-01-07 22:49:05.84	33.61	15.99	-40.2	-42.9	15.1	0.00e+00	0	55	0	188743680	51	5066
2026-01-07 22:49:06.85	33.72	16.09	-40.2	-42.9	15.1	0.00e+00	0	55	0	190840832	51	5065
2026-01-07 22:49:07.86	33.83	16.19	-40.3	-43.0	15.0	7.00e-07	0	55	0	192937984	51	5117
2026-01-07 22:49:08.86	33.94	16.28	-40.3	-43.0	15.0	0.00e+00	0	55	0	195035136	51	5106
2026-01-07 22:49:09.87	34.05	16.38	-40.3	-42.9	15.1	0.00e+00	0	55	0	196083712	51	5087
2026-01-07 22:49:10.87	34.16	16.48	-40.2	-42.9	15.1	0.00e+00	0	55	0	198180864	51	5072
2026-01-07 22:49:11.88	34.27	16.58	-40.3	-43.0	15.0	0.00e+00	0	55	0	200278016	51	5102
2026-01-07 22:49:12.88	34.39	16.68	-40.3	-42.9	15.1	0.00e+00	0	55	0	202375168	51	5096
2026-01-07 22:49:13.89	34.50	16.78	-40.3	-43.0	15.0	0.00e+00	0	56	0	204472320	51	5125
2026-01-07 22:49:14.89	34.61	16.88	-40.3	-43.0	15.0	0.00e+00	0	55	0	205520896	51	5124
2026-01-07 22:49:15.90	34.73	16.98	-40.3	-43.0	15.0	0.00e+00	0	55	0	207618048	51	5137
2026-01-07 22:49:16.91	34.84	17.08	-40.4	-43.1	14.9	7.00e-07	0	55	0	209715200	51	5176
2026-01-07 22:49:17.91	34.96	17.18	-40.3	-43.0	15.0	0.00e+00	0	56	0	211812352	51	5140
2026-01-07 22:49:18.92	35.08	17.28	-40.3	-43.1	15.0	0.00e+00	0	56	0	213909504	51	5160
2026-01-07 22:49:19.93	35.20	17.38	-40.4	-43.1	14.9	0.00e+00	0	55	0	214958080	51	5178
2026-01-07 22:49:20.93	35.31	17.48	-40.4	-43.1	14.9	0.00e+00	0	56	0	217055232	51	5186
2026-01-07 22:49:21.94	35.43	17.58	-40.4	-43.1	14.9	0.00e+00	0	56	0	219152384	51	5206
2026-01-07 22:49:22.94	35.55	17.68	-40.4	-43.1	14.9	0.00e+00	0	56	0	221249536	51	5191
2026-01-07 22:49:23.95	35.67	17.79	-40.5	-43.2	14.8	0.00e+00	0	55	0	223346688	51	5264
2026-01-07 22:49:24.96	35.80	17.89	-40.4	-43.2	14.8	0.00e+00	0	55	0	224395264	51	5252
2026-01-07 22:49:25.96	35.92	17.99	-40.5	-43.3	14.7	7.00e-07	0	56	0	226492416	51	5320
2026-01-07 22:49:26.96	36.04	18.09	-40.6	-43.4	14.6	0.00e+00	0	55	0	228589568	51	5373
2026-01-07 22:49:27.96	36.16	18.20	-40.6	-43.4	14.7	0.00e+00	0	55	0	230686720	51	5352
2026-01-07 22:49:28.97	36.29	18.30	-40.7	-43.6	14.5	0.00e+00	0	56	0	231735296	51	5470
2026-01-07 22:49:29.97	36.41	18.40	-40.7	-43.6	14.4	7.00e-07	0	55	0	233832448	52	5165
2026-01-07 22:49:30.97	36.54	18.51	-40.7	-43.6	14.4	0.00e+00	0	56	0	235929600	52	5191
2026-01-07 22:49:31.97	36.67	18.61	-40.7	-43.6	14.3	7.00e-07	0	56	0	238026752	52	5207
2026-01-07 22:49:32.98	36.79	18.72	-40.7	-43.7	14.3	7.00e-07	0	56	0	240123904	52	5224
2026-01-07 22:49:33.99	36.92	18.82	-40.8	-43.7	14.3	0.00e+00	0	56	0	241172480	52	5262
2026-01-07 22:49:34.99	37.05	18.93	-40.7	-43.7	14.3	1.50e-06	0	56	0	243269632	52	5219
2026-01-07 22:49:36.00	37.19	19.04	-40.8	-43.7	14.2	7.00e-07	0	55	0	245366784	52	5275
2026-01-07 22:49:37.01	37.32	19.14	-40.8	-43.7	14.2	7.00e-07	0	56	0	247463936	52	5278
2026-01-07 22:49:38.01	37.45	19.25	-40.8	-43.8	14.2	3.00e-06	0	56	0	249561088	52	5300
2026-01-07 22:49:39.02	37.58	19.36	-40.8	-43.8	14.2	7.00e-07	0	56	0	250609664	52	5338
2026-01-07 22:49:40.02	37.72	19.46	-40.8	-43.8	14.2	2.20e-06	0	56	0	252706816	52	5308
2026-01-07 22:49:41.03	37.85	19.57	-40.8	-43.8	14.2	7.00e-07	0	56	0	254803968	52	5333
2026-01-07 22:49:42.03	37.99	19.68	-40.9	-43.9	14.2	3.00e-06	0	56	0	256901120	52	5344
2026-01-07 22:49:43.04	38.13	19.79	-40.8	-43.8	14.2	0.00e+00	0	56	0	258998272	52	5289
2026-01-07 22:49:44.05	38.26	19.89	-40.8	-43.8	14.3	7.00e-07	0	56	0	260046848	52	5300
2026-01-07 22:49:45.06	38.40	20.00	-40.8	-43.7	14.3	1.50e-06	0	56	0	262144000	52	5277
2026-01-07 22:49:46.06	38.54	20.11	-40.7	-43.6	14.4	0.00e+00	0	56	0	264241152	52	5211
2026-01-07 22:49:47.06	38.68	20.22	-40.7	-43.6	14.5	0.00e+00	0	56	0	266338304	52	5181
2026-01-07 22:49:48.07	38.83	20.33	-40.7	-43.6	14.5	3.00e-06	0	56	0	268435456	52	5168
2026-01-07 22:49:49.07	38.97	20.44	-40.7	-43.6	14.5	7.00e-07	0	56	0	269484032	52	5188
2026-01-07 22:49:50.07	39.11	20.55	-40.7	-43.6	14.4	1.50e-06	0	56	0	271581184	52	5217
2026-01-07 22:49:51.08	39.26	20.66	-40.8	-43.6	14.4	1.50e-06	0	56	0	273678336	52	5217
2026-01-07 22:49:52.08	39.40	20.77	-40.8	-43.7	14.4	7.00e-07	0	56	0	275775488	52	5250
2026-01-07 22:49:53.09	39.55	20.88	-40.8	-43.7	14.4	0.00e+00	0	56	0	277872640	52	5248
2026-01-07 22:49:54.10	39.70	21.00	-40.8	-43.7	14.4	0.00e+00	0	56	0	278921216	52	5242
2026-01-07 22:49:55.10	39.85	21.11	-40.8	-43.7	14.3	7.00e-07	0	56	0	281018368	52	5254
2026-01-07 22:49:56.11	40.00	21.22	-40.9	-43.8	14.3	7.00e-07	0	56	0	283115520	52	5332
2026-01-07 22:49:57.12	40.15	21.33	-40.8	-43.8	14.3	1.50e-06	0	56	0	285212672	52	5288
2026-01-07 22:49:58.12	40.30	21.45	-40.8	-43.8	14.3	7.00e-07	0	56	0	287309824	52	5285
2026-01-07 22:49:59.13	40.46	21.56	-40.8	-43.8	14.3	0.00e+00	0	56	0	288358400	52	5302
2026-01-07 22:50:00.13	40.61	21.67	-40.9	-43.8	14.3	1.50e-06	0	56	0	290455552	52	5298
2026-01-07 22:50:01.13	40.76	21.79	-40.8	-43.8	14.3	7.00e-07	0	56	0	292552704	52	5288
2026-01-07 22:50:02.14	40.92	21.90	-40.9	-43.8	14.3	0.00e+00	0	56	0	294649856	52	5321
2026-01-07 22:50:03.15	41.08	22.02	-40.9	-43.9	14.2	0.00e+00	0	56	0	296747008	52	5356
2026-01-07 22:50:04.15	41.24	22.13	-40.9	-43.9	14.2	0.00e+00	0	56	0	297795584	52	5344
2026-01-07 22:50:05.15	41.40	22.24	-40.9	-43.9	14.2	1.50e-06	0	56	0	299892736	52	5383
2026-01-07 22:50:06.16	41.56	22.36	-40.9	-43.8	14.2	2.20e-06	0	56	0	301989888	52	5340
2026-01-07 22:50:07.16	41.72	22.47	-40.9	-43.8	14.2	7.00e-07	0	56	0	304087040	52	5323
2026-01-07 22:50:08.17	41.88	22.59	-40.8	-43.7	14.3	7.00e-07	0	56	0	306184192	52	5279
2026-01-07 22:50:09.17	42.05	22.71	-40.9	-43.8	14.2	0.00e+00	0	56	0	307232768	52	5335
2026-01-07 22:50:10.17	42.21	22.82	-40.8	-43.6	14.4	0.00e+00	0	56	0	309329920	52	5217
2026-01-07 22:50:11.17	42.38	22.94	-40.7	-43.6	14.5	1.50e-06	0	56	0	311427072	52	5164
2026-01-07 22:50:12.17	42.55	23.05	-40.7	-43.5	14.6	0.00e+00	0	56	0	313524224	52	5119
2026-01-07 22:50:13.18	42.72	23.17	-40.7	-43.5	14.6	0.00e+00	0	56	0	315621376	52	5118
2026-01-07 22:50:14.18	42.89	23.29	-40.7	-43.5	14.6	0.00e+00	0	56	0	316669952	52	5130
2026-01-07 22:50:15.18	43.06	23.41	-40.7	-43.6	14.5	0.00e+00	0	56	0	318767104	52	5162
2026-01-07 22:50:16.19	43.23	23.53	-40.7	-43.6	14.5	0.00e+00	0	56	0	320864256	52	5172
2026-01-07 22:50:17.20	43.41	23.64	-40.7	-43.6	14.5	0.00e+00	0	56	0	322961408	52	5201
2026-01-07 22:50:18.21	43.58	23.76	-40.7	-43.6	14.5	0.00e+00	0	56	0	325058560	52	5182
2026-01-07 22:50:19.22	43.76	23.88	-40.7	-43.5	14.6	0.00e+00	0	56	0	326107136	52	5119
2026-01-07 22:50:20.22	43.94	24.00	-40.6	-43.4	14.7	0.00e+00	0	56	0	328204288	52	5063
2026-01-07 22:50:21.23	44.12	24.12	-40.5	-43.2	14.9	0.00e+00	0	56	0	330301440	52	4971
2026-01-07 22:50:22.23	44.30	24.24	-40.5	-43.2	15.0	7.00e-07	0	56	0	332398592	52	4955
2026-01-07 22:50:23.23	44.48	24.36	-40.4	-43.1	15.1	0.00e+00	0	56	0	334495744	52	4880
2026-01-07 22:50:24.24	44.67	24.48	-40.3	-42.9	15.3	0.00e+00	0	56	0	335544320	52	4776
2026-01-07 22:50:25.24	44.85	24.60	-40.2	-42.7	15.4	0.00e+00	0	56	0	337641472	52	4693
2026-01-07 22:50:26.25	45.04	24.72	-40.2	-42.7	15.4	0.00e+00	0	56	0	339738624	52	4692
2026-01-07 22:50:27.25	45.23	24.84	-40.1	-42.6	15.5	0.00e+00	0	56	0	341835776	52	4641
2026-01-07 22:50:28.26	45.42	24.97	-40.1	-42.6	15.6	0.00e+00	0	56	0	342884352	52	4620
2026-01-07 22:50:29.26	45.61	25.09	-40.1	-42.5	15.7	0.00e+00	0	56	0	344981504	52	4584
2026-01-07 22:50:30.27	45.80	25.21	-40.0	-42.4	15.7	0.00e+00	0	56	0	347078656	52	4545
2026-01-07 22:50:31.27	45.99	25.33	-40.0	-42.5	15.7	0.00e+00	0	56	0	349175808	52	4560
2026-01-07 22:50:32.28	46.19	25.45	-40.0	-42.4	15.8	0.00e+00	0	56	0	351272960	52	4531
2026-01-07 22:50:33.29	46.39	25.58	-40.1	-42.5	15.8	0.00e+00	0	56	0	353370112	51	4836
2026-01-07 22:50:34.30	46.59	25.70	-40.0	-42.4	15.9	0.00e+00	0	56	0	354418688	51	4802
2026-01-07 22:50:35.30	46.79	25.82	-40.1	-42.5	15.8	0.00e+00	0	56	0	356515840	51	4841
2026-01-07 22:50:36.31	46.99	25.95	-40.1	-42.5	15.8	0.00e+00	0	56	0	358612992	51	4827
2026-01-07 22:50:37.32	47.19	26.07	-40.1	-42.5	15.8	0.00e+00	0	56	0	360710144	51	4821
2026-01-07 22:50:38.32	47.39	26.19	-40.1	-42.5	15.8	0.00e+00	0	56	0	362807296	51	4863
2026-01-07 22:50:39.33	47.60	26.32	-40.1	-42.6	15.7	0.00e+00	0	56	0	363855872	51	4881
2026-01-07 22:50:40.34	47.81	26.44	-40.2	-42.7	15.6	0.00e+00	0	56	0	365953024	51	4952
2026-01-07 22:50:41.35	48.02	26.57	-40.2	-42.7	15.6	0.00e+00	0	56	0	368050176	51	4945
2026-01-07 22:50:42.36	48.23	26.69	-40.3	-42.8	15.5	0.00e+00	0	56	0	370147328	51	5005
2026-01-07 22:50:43.36	48.44	26.81	-40.4	-42.9	15.4	0.00e+00	0	56	0	371195904	51	5065
2026-01-07 22:50:44.37	48.66	26.94	-40.3	-42.9	15.4	0.00e+00	0	56	0	373293056	51	5060
2026-01-07 22:50:45.38	48.88	27.06	-40.4	-43.0	15.3	0.00e+00	0	56	0	375390208	51	5119
2026-01-07 22:50:46.39	49.09	27.19	-40.4	-43.0	15.3	0.00e+00	0	56	0	377487360	51	5142
2026-01-07 22:50:47.40	49.31	27.32	-40.4	-43.0	15.3	0.00e+00	0	56	0	379584512	51	5143
2026-01-07 22:50:48.41	49.54	27.44	-40.5	-43.1	15.2	0.00e+00	0	56	0	381681664	51	5193
2026-01-07 22:50:49.41	49.76	27.57	-40.5	-43.2	15.1	0.00e+00	0	56	0	382730240	51	5237
2026-01-07 22:50:50.42	49.98	27.69	-40.7	-43.4	14.9	0.00e+00	0	56	0	384827392	51	5345
2026-01-07 22:50:51.42	50.21	27.82	-40.6	-43.4	14.9	0.00e+00	0	56	0	386924544	52	5061
2026-01-07 22:50:52.43	50.44	27.94	-40.8	-43.5	14.7	7.00e-07	0	56	0	389021696	52	5157
2026-01-07 22:50:53.44	50.67	28.07	-40.8	-43.6	14.7	0.00e+00	0	57	0	391118848	52	5173
2026-01-07 22:50:54.45	50.90	28.20	-40.7	-43.5	14.7	7.00e-07	0	57	0	392167424	52	5132
2026-01-07 22:50:55.45	51.13	28.32	-40.6	-43.4	14.8	0.00e+00	0	56	0	394264576	52	5052
2026-01-07 22:50:56.46	51.37	28.45	-40.6	-43.2	15.0	0.00e+00	0	57	0	396361728	52	4980
2026-01-07 22:50:57.47	51.60	28.57	-40.7	-43.4	14.9	7.00e-07	0	56	0	398458880	52	5046
2026-01-07 22:50:58.48	51.84	28.70	-40.7	-43.5	14.7	0.00e+00	0	57	0	400556032	52	5131
2026-01-07 22:50:59.48	52.08	28.83	-40.8	-43.6	14.7	0.00e+00	0	56	0	401604608	52	5190
2026-01-07 22:51:00.49	52.33	28.95	-41.1	-44.0	14.2	1.50e-06	0	57	0	403701760	52	5445
2026-01-07 22:51:01.50	52.57	29.08	-41.2	-44.3	13.9	2.20e-06	0	56	0	405798912	53	5289
2026-01-07 22:51:02.50	52.82	29.21	-41.4	-44.6	13.6	4.50e-06	0	56	0	407896064	53	5489
2026-01-07 22:51:03.51	53.07	29.33	-41.5	-44.8	13.4	9.90e-06	0	57	0	409993216	53	5626
2026-01-07 22:51:04.52	53.32	29.46	-41.5	-44.8	13.4	1.37e-05	0	57	0	411041792	53	5611
2026-01-07 22:51:05.53	53.57	29.59	-41.5	-44.8	13.4	1.60e-05	0	57	0	413138944	53	5644
2026-01-07 22:51:06.53	53.82	29.71	-41.6	-44.9	13.3	1.98e-05	0	56	0	415236096	53	5680
2026-01-07 22:51:07.54	54.08	29.84	-41.6	-44.9	13.3	1.06e-05	0	57	0	417333248	53	5694
2026-01-07 22:51:08.55	54.34	29.97	-41.7	-45.1	13.1	1.98e-05	0	57	0	419430400	53	5834
2026-01-07 22:51:09.56	54.60	30.09	-41.8	-45.3	13.0	3.89e-05	0	56	0	420478976	54	5612
2026-01-07 22:51:10.57	54.86	30.22	-41.8	-45.3	13.0	3.66e-05	0	57	0	422576128	54	5598
2026-01-07 22:51:11.57	55.12	30.34	-41.7	-45.2	13.1	3.20e-05	0	57	0	424673280	54	5533
2026-01-07 22:51:12.58	55.39	30.47	-41.7	-45.1	13.1	2.36e-05	0	57	0	426770432	54	5488
2026-01-07 22:51:13.59	55.66	30.60	-41.7	-45.1	13.2	2.89e-05	0	57	0	428867584	54	5477
2026-01-07 22:51:14.60	55.93	30.72	-41.8	-45.3	13.0	1.83e-05	0	57	0	429916160	54	5609
2026-01-07 22:51:15.61	56.20	30.85	-42.0	-45.7	12.6	4.57e-05	0	57	0	432013312	54	5880
2026-01-07 22:51:16.62	56.48	30.97	-42.2	-46.1	12.1	1.84e-04	0	57	0	434110464	54	6137
2026-01-07 22:51:17.62	56.75	31.10	-42.5	-46.7	11.5	3.99e-04	0	56	0	436207616	55	6234
2026-01-07 22:51:18.63	57.03	31.22	-42.6	-46.9	11.2	1.06e-03	0	57	0	438304768	55	6416
2026-01-07 22:51:19.64	57.32	31.35	-42.9	-47.5	10.7	2.35e-03	0	57	0	439353344	56	6467
2026-01-07 22:51:20.65	57.60	31.47	-43.0	-47.7	10.6	3.24e-03	0	56	0	441450496	56	6611
2026-01-07 22:51:21.66	57.88	31.60	-43.1	-47.9	10.5	3.62e-03	0	56	0	443547648	56	6730
2026-01-07 22:51:22.67	58.17	31.72	-43.1	-47.9	10.4	4.35e-03	0	57	0	445644800	56	6783
2026-01-07 22:51:23.67	58.46	31.85	-43.2	-48.1	10.2	5.04e-03	0	57	0	447741952	56	6953
2026-01-07 22:51:24.68	58.75	31.97	-43.1	-48.0	10.4	5.95e-03	0	57	0	448790528	56	6803
2026-01-07 22:51:25.69	59.05	32.09	-43.2	-48.0	10.3	5.57e-03	0	56	0	450887680	56	6847
2026-01-07 22:51:26.70	59.34	32.22	-43.0	-47.7	10.6	4.77e-03	0	57	0	452984832	56	6593
2026-01-07 22:51:27.71	59.64	32.34	-42.9	-47.4	11.0	2.43e-03	0	57	0	455081984	56	6373
2026-01-07 22:51:28.72	59.95	32.46	-42.8	-47.2	11.2	1.81e-03	0	57	0	457179136	56	6248
2026-01-07 22:51:29.72	60.25	32.59	-42.9	-47.3	11.1	1.55e-03	0	57	0	458227712	56	6308
2026-01-07 22:51:30.72	60.55	32.71	-43.0	-47.6	10.7	2.18e-03	0	57	0	460324864	56	6532
2026-01-07 22:51:31.73	60.86	32.83	-43.3	-48.2	10.1	5.26e-03	0	57	0	462422016	57	6645
2026-01-07 22:51:32.73	61.16	32.95	-43.4	-48.6	9.7	1.04e-02	0	57	0	464519168	57	6921
2026-01-07 22:51:33.74	61.48	33.07	-43.5	-48.9	9.4	1.85e-02	0	56	0	466616320	57	7134
2026-01-07 22:51:34.75	61.79	33.19	-43.5	-48.9	9.4	1.86e-02	0	56	0	467664896	57	7196
2026-01-07 22:51:35.75	62.11	33.31	-43.4	-48.6	9.7	1.25e-02	0	57	0	469762048	57	6952
2026-01-07 22:51:36.76	62.43	33.43	-43.2	-48.0	10.3	6.29e-03	0	56	0	471859200	57	6460
2026-01-07 22:51:37.76	62.75	33.55	-43.0	-47.5	10.8	3.96e-03	0	57	0	473956352	57	6083
2026-01-07 22:51:38.76	63.07	33.66	-42.7	-46.9	11.4	1.53e-03	0	57	0	476053504	57	5711
2026-01-07 22:51:39.77	63.39	33.78	-42.6	-46.7	11.7	8.81e-04	0	57	0	477102080	57	5556
2026-01-07 22:51:40.77	63.72	33.90	-42.6	-46.7	11.7	5.19e-04	0	57	0	479199232	57	5550
2026-01-07 22:51:41.76	64.04	34.01	-42.7	-46.8	11.6	7.28e-04	0	57	0	481296384	57	5606
2026-01-07 22:51:42.76	64.37	34.13	-42.7	-47.0	11.4	8.97e-04	0	57	0	483393536	57	5744
2026-01-07 22:51:43.76	64.71	34.24	-42.8	-47.2	11.2	1.32e-03	0	57	0	484442112	57	5868
2026-01-07 22:51:44.76	65.04	34.35	-42.8	-47.1	11.3	1.21e-03	0	57	0	486539264	57	5840
2026-01-07 22:51:45.76	65.38	34.47	-42.8	-47.1	11.3	1.26e-03	0	57	0	488636416	57	5828
2026-01-07 22:51:46.75	65.71	34.58	-42.7	-46.8	11.5	8.99e-04	0	57	0	490733568	57	5619
2026-01-07 22:51:47.75	66.06	34.69	-42.6	-46.6	11.8	6.00e-04	0	57	0	492830720	57	5484
2026-01-07 22:51:48.76	66.40	34.80	-42.6	-46.6	11.9	4.62e-04	0	57	0	493879296	57	5470
2026-01-07 22:51:49.76	66.75	34.91	-42.4	-46.3	12.2	3.17e-04	0	57	0	495976448	56	5600
2026-01-07 22:51:50.77	67.10	35.02	-42.3	-46.0	12.5	1.43e-04	0	57	0	498073600	56	5410
2026-01-07 22:51:51.78	67.46	35.13	-42.1	-45.7	12.8	7.85e-05	0	57	0	500170752	56	5247
2026-01-07 22:51:52.78	67.81	35.24	-41.8	-45.1	13.2	2.74e-05	0	57	0	502267904	55	5213
2026-01-07 22:51:53.79	68.17	35.35	-41.7	-45.0	13.3	2.05e-05	0	57	0	503316480	55	5111
2026-01-07 22:51:54.79	68.53	35.45	-41.7	-45.0	13.3	1.44e-05	0	57	0	505413632	55	5149
2026-01-07 22:51:55.80	68.89	35.56	-41.8	-45.1	13.3	1.37e-05	0	57	0	507510784	55	5197
2026-01-07 22:51:56.81	69.26	35.67	-41.8	-45.3	13.1	3.12e-05	0	57	0	509607936	55	5294
2026-01-07 22:51:57.81	69.62	35.77	-41.7	-45.0	13.4	2.51e-05	0	57	0	511705088	55	5107
2026-01-07 22:51:58.82	69.99	35.87	-41.4	-44.4	14.0	3.00e-06	0	57	0	512753664	54	5087
2026-01-07 22:51:59.82	70.36	35.97	-41.0	-43.9	14.5	7.00e-07	0	57	0	514850816	54	4784
2026-01-07 22:52:00.82	70.73	36.07	-40.7	-43.3	15.0	0.00e+00	0	57	0	516947968	53	4756
2026-01-07 22:52:01.82	71.11	36.17	-40.5	-43.0	15.4	0.00e+00	0	57	0	519045120	53	4592
2026-01-07 22:52:02.82	71.49	36.27	-40.5	-43.1	15.3	0.00e+00	0	57	0	521142272	52	4873
2026-01-07 22:52:03.83	71.87	36.37	-40.7	-43.3	15.1	0.00e+00	0	57	0	522190848	52	5024
2026-01-07 22:52:04.83	72.25	36.47	-40.9	-43.7	14.6	0.00e+00	0	57	0	524288000	52	5266
2026-01-07 22:52:05.82	72.63	36.56	-41.2	-44.2	14.3	0.00e+00	0	57	0	526385152	52	5538
2026-01-07 22:52:06.83	73.02	36.66	-41.1	-44.1	14.3	1.50e-06	0	57	0	528482304	53	5160
2026-01-07 22:52:07.82	73.40	36.75	-41.0	-43.9	14.5	1.50e-06	0	57	0	530579456	53	5063
2026-01-07 22:52:08.82	73.79	36.84	-40.8	-43.5	14.9	0.00e+00	0	57	0	531628032	53	4846
2026-01-07 22:52:09.83	74.19	36.93	-40.7	-43.3	15.0	0.00e+00	0	57	0	533725184	53	4757
2026-01-07 22:52:10.83	74.58	37.02	-40.7	-43.4	15.0	0.00e+00	0	57	0	535822336	53	4788
2026-01-07 22:52:11.83	74.98	37.11	-40.9	-43.7	14.8	7.00e-07	0	57	0	537919488	53	4931
2026-01-07 22:52:12.83	75.37	37.19	-41.1	-44.0	14.4	7.00e-07	0	57	0	540016640	53	5140
2026-01-07 22:52:13.83	75.77	37.28	-41.4	-44.5	13.9	3.80e-06	0	57	0	541065216	53	5411
2026-01-07 22:52:14.84	76.18	37.37	-41.4	-44.5	13.9	5.30e-06	0	57	0	543162368	53	5421
2026-01-07 22:52:15.84	76.59	37.45	-41.4	-44.6	13.8	6.80e-06	0	57	0	545259520	53	5470
2026-01-07 22:52:16.83	76.99	37.53	-41.3	-44.4	14.0	4.50e-06	0	57	0	547356672	53	5386
2026-01-07 22:52:17.84	77.40	37.61	-41.3	-44.3	14.1	7.00e-07	0	57	0	548405248	53	5302
2026-01-07 22:52:18.84	77.81	37.69	-41.3	-44.4	14.0	2.20e-06	0	57	0	550502400	53	5381
2026-01-07 22:52:19.85	78.23	37.77	-41.4	-44.5	13.9	4.50e-06	0	57	0	552599552	53	5448
2026-01-07 22:52:20.85	78.64	37.84	-41.4	-44.5	13.9	8.30e-06	0	57	0	554696704	53	5439
2026-01-07 22:52:21.85	79.06	37.91	-41.5	-44.6	13.8	3.00e-06	0	57	0	556793856	53	5512
2026-01-07 22:52:22.85	79.48	37.99	-41.4	-44.5	13.9	5.30e-06	0	57	0	557842432	53	5408
2026-01-07 22:52:23.85	79.90	38.06	-41.3	-44.4	14.0	1.50e-06	0	57	0	559939584	53	5376
2026-01-07 22:52:24.85	80.32	38.13	-41.3	-44.3	14.0	2.20e-06	0	57	0	562036736	53	5337
2026-01-07 22:52:25.84	80.74	38.19	-41.3	-44.3	14.1	2.20e-06	0	57	0	564133888	53	5299
2026-01-07 22:52:26.83	81.16	38.26	-41.4	-44.6	13.8	0.00e+00	0	57	0	566231040	53	5478
2026-01-07 22:52:27.83	81.59	38.33	-41.7	-45.0	13.4	1.06e-05	0	57	0	567279616	53	5759
2026-01-07 22:52:28.83	82.01	38.39	-41.9	-45.4	12.9	2.82e-05	0	57	0	569376768	54	5719
2026-01-07 22:52:29.83	82.44	38.45	-42.0	-45.6	12.7	6.17e-05	0	57	0	571473920	54	5847
2026-01-07 22:52:30.82	82.87	38.51	-41.9	-45.5	12.9	5.03e-05	0	57	0	573571072	54	5732
2026-01-07 22:52:31.82	83.31	38.57	-41.9	-45.3	13.0	3.66e-05	0	57	0	575668224	54	5643
2026-01-07 22:52:32.81	83.74	38.62	-41.8	-45.2	13.2	3.12e-05	0	57	0	576716800	54	5552
2026-01-07 22:52:33.81	84.17	38.68	-41.6	-44.8	13.6	1.22e-05	0	57	0	578813952	54	5302
2026-01-07 22:52:34.80	84.61	38.73	-41.6	-44.8	13.7	9.90e-06	0	57	0	580911104	54	5282
2026-01-07 22:52:35.80	85.05	38.78	-41.6	-44.9	13.5	1.14e-05	0	57	0	583008256	54	5378
2026-01-07 22:52:36.80	85.49	38.83	-41.8	-45.2	13.2	1.67e-05	0	57	0	584056832	54	5554
2026-01-07 22:52:37.80	85.93	38.88	-41.9	-45.4	12.9	2.97e-05	0	57	0	586153984	54	5693
2026-01-07 22:52:38.80	86.37	38.92	-41.8	-45.2	13.2	3.35e-05	0	57	0	588251136	54	5551
2026-01-07 22:52:39.80	86.82	38.97	-41.7	-44.9	13.5	2.05e-05	0	57	0	590348288	54	5401
2026-01-07 22:52:40.80	87.26	39.01	-41.6	-44.8	13.6	1.06e-05	0	57	0	592445440	54	5308
2026-01-07 22:52:41.79	87.70	39.05	-41.6	-44.8	13.6	3.80e-06	0	57	0	593494016	54	5292
2026-01-07 22:52:42.79	88.15	39.09	-41.8	-45.1	13.3	9.90e-06	0	57	0	595591168	54	5477
2026-01-07 22:52:43.79	88.60	39.12	-41.9	-45.4	13.0	2.13e-05	0	57	0	597688320	54	5667
2026-01-07 22:52:44.79	89.05	39.16	-42.1	-45.8	12.6	8.69e-05	0	57	0	599785472	54	5932
2026-01-07 22:52:45.79	89.50	39.19	-42.3	-46.1	12.2	1.78e-04	0	57	0	600834048	55	5828
2026-01-07 22:52:46.79	89.95	39.22	-42.4	-46.4	12.0	3.14e-04	0	57	0	602931200	55	5993
2026-01-07 22:52:47.80	90.41	39.25	-42.5	-46.6	11.8	4.36e-04	0	57	0	605028352	55	6132
2026-01-07 22:52:48.80	90.86	39.28	-42.5	-46.6	11.8	5.64e-04	0	57	0	607125504	55	6140
2026-01-07 22:52:49.80	91.32	39.30	-42.6	-46.7	11.6	6.10e-04	0	57	0	609222656	55	6217
2026-01-07 22:52:50.80	91.77	39.32	-42.6	-46.8	11.5	6.76e-04	0	57	0	610271232	55	6309
2026-01-07 22:52:51.80	92.23	39.35	-42.9	-47.2	11.2	1.04e-03	0	57	0	612368384	56	6271
2026-01-07 22:52:52.79	92.68	39.36	-42.9	-47.3	11.1	1.23e-03	0	57	0	614465536	56	6308
2026-01-07 22:52:53.79	93.13	39.38	-42.9	-47.2	11.3	1.37e-03	0	57	0	616562688	56	6237
2026-01-07 22:52:54.79	93.59	39.40	-42.9	-47.3	11.2	1.15e-03	0	57	0	618659840	56	6311
2026-01-07 22:52:55.80	94.05	39.41	-42.8	-47.0	11.5	9.41e-04	0	57	0	619708416	56	6111
2026-01-07 22:52:56.81	94.51	39.42	-42.7	-46.8	11.7	7.28e-04	0	57	0	621805568	56	5945
2026-01-07 22:52:57.81	94.97	39.43	-42.5	-46.4	12.1	4.94e-04	0	57	0	623902720	56	5664
2026-01-07 22:52:58.82	95.43	39.44	-42.3	-45.9	12.5	1.69e-04	0	57	0	625999872	56	5378
2026-01-07 22:52:59.83	95.90	39.44	-42.2	-45.9	12.6	9.15e-05	0	57	0	628097024	56	5356
2026-01-07 22:53:00.83	96.35	39.44	-42.1	-45.6	12.9	9.30e-05	0	57	0	629145600	56	5216
2026-01-07 22:53:01.84	96.82	39.44	-42.1	-45.5	13.0	3.12e-05	0	57	0	631242752	56	5153
2026-01-07 22:53:02.84	97.28	39.44	-42.1	-45.6	13.0	3.43e-05	0	57	0	633339904	56	5165
2026-01-07 22:53:03.85	97.74	39.44	-41.7	-45.0	13.4	2.21e-05	0	57	0	635437056	55	5118
2026-01-07 22:53:04.85	98.20	39.43	-41.6	-44.7	13.6	1.22e-05	0	57	0	637534208	55	4978
2026-01-07 22:53:05.86	98.66	39.43	-41.4	-44.4	13.9	3.80e-06	0	57	0	638582784	54	5095
2026-01-07 22:53:06.86	99.12	39.42	-41.4	-44.4	14.0	3.00e-06	0	57	0	640679936	54	5083
2026-01-07 22:53:07.87	99.58	39.41	-41.5	-44.7	13.7	4.50e-06	0	57	0	642777088	54	5229
2026-01-07 22:53:08.87	100.04	39.39	-41.8	-45.1	13.2	6.80e-06	0	57	0	644874240	54	5509
2026-01-07 22:53:09.88	100.50	39.38	-42.1	-45.7	12.7	5.26e-05	0	57	0	646971392	54	5881
2026-01-07 22:53:10.89	100.96	39.36	-42.2	-45.9	12.5	5.95e-05	0	57	0	648019968	54	6002
2026-01-07 22:53:11.89	101.41	39.34	-42.0	-45.5	12.8	8.92e-05	0	57	0	650117120	54	5784
2026-01-07 22:53:12.89	101.87	39.32	-41.9	-45.3	13.1	2.67e-05	0	57	0	652214272	54	5647
2026-01-07 22:53:13.89	102.32	39.29	-42.0	-45.6	12.8	3.50e-05	0	57	0	654311424	54	5791
2026-01-07 22:53:14.89	102.78	39.27	-42.2	-46.0	12.4	8.23e-05	0	57	0	655360000	55	5748
2026-01-07 22:53:15.89	103.23	39.24	-42.4	-46.2	12.1	2.59e-04	0	57	0	657457152	55	5922
2026-01-07 22:53:16.89	103.68	39.21	-42.3	-46.2	12.2	2.31e-04	0	57	0	659554304	55	5869
2026-01-07 22:53:17.89	104.14	39.18	-42.4	-46.3	12.0	2.85e-04	0	57	0	661651456	55	5988
2026-01-07 22:53:18.89	104.59	39.15	-42.5	-46.5	11.8	3.85e-04	0	57	0	663748608	55	6077
2026-01-07 22:53:19.89	105.04	39.11	-42.5	-46.6	11.7	4.48e-04	0	57	0	664797184	55	6188
2026-01-07 22:53:20.89	105.48	39.08	-42.8	-47.1	11.3	9.93e-04	0	57	0	666894336	56	6172
2026-01-07 22:53:21.90	105.94	39.04	-42.8	-47.0	11.5	1.14e-03	0	57	0	668991488	56	6092
2026-01-07 22:53:22.90	106.38	38.99	-42.5	-46.5	12.0	5.35e-04	0	57	0	671088640	56	5736
2026-01-07 22:53:23.90	106.83	38.95	-42.3	-46.0	12.5	1.72e-04	0	57	0	673185792	56	5406
2026-01-07 22:53:24.90	107.27	38.91	-42.3	-45.9	12.6	8.54e-05	0	57	0	674234368	56	5357
2026-01-07 22:53:25.90	107.72	38.86	-42.5	-46.4	12.1	1.75e-04	0	57	0	676331520	56	5678
2026-01-07 22:53:26.90	108.16	38.81	-42.8	-47.1	11.3	7.65e-04	0	57	0	678428672	56	6142
2026-01-07 22:53:27.91	108.60	38.76	-42.4	-46.1	12.3	7.06e-04	0	57	0	680525824	56	5522
2026-01-07 22:53:28.91	109.04	38.71	-41.6	-44.7	13.6	2.13e-05	0	57	0	682622976	55	4980
2026-01-07 22:53:29.92	109.49	38.66	-41.3	-44.3	14.1	0.00e+00	0	57	0	683671552	54	5017
2026-01-07 22:53:30.92	109.92	38.60	-41.6	-44.7	13.6	2.20e-06	0	57	0	685768704	54	5266
2026-01-07 22:53:31.93	110.36	38.54	-41.9	-45.3	13.0	1.67e-05	0	57	0	687865856	54	5651
2026-01-07 22:53:32.93	110.80	38.48	-41.8	-45.2	13.1	5.34e-05	0	57	0	689963008	54	5568
2026-01-07 22:53:33.94	111.23	38.42	-41.3	-44.3	14.0	6.10e-06	0	57	0	692060160	54	5018
2026-01-07 22:53:34.94	111.66	38.36	-40.8	-43.5	14.9	7.00e-07	0	57	0	693108736	53	4827
2026-01-07 22:53:35.94	112.09	38.30	-40.6	-43.2	15.2	0.00e+00	0	57	0	695205888	53	4686
2026-01-07 22:53:36.94	112.52	38.23	-40.9	-43.7	14.7	0.00e+00	0	57	0	697303040	53	4955
2026-01-07 22:53:37.95	112.95	38.16	-41.3	-44.3	14.0	7.00e-07	0	57	0	699400192	53	5323
2026-01-07 22:53:38.96	113.38	38.09	-41.4	-44.5	13.8	7.60e-06	0	57	0	700448768	53	5432
2026-01-07 22:53:39.96	113.80	38.02	-41.0	-43.9	14.5	3.00e-06	0	57	0	702545920	53	5060
2026-01-07 22:53:40.97	114.22	37.95	-40.7	-43.3	15.0	0.00e+00	0	57	0	704643072	53	4721
2026-01-07 22:53:41.97	114.64	37.88	-40.6	-43.3	15.1	0.00e+00	0	57	0	706740224	53	4718
2026-01-07 22:53:42.98	115.06	37.80	-40.8	-43.6	14.8	0.00e+00	0	57	0	708837376	53	4882
2026-01-07 22:53:43.98	115.47	37.73	-40.9	-43.7	14.7	0.00e+00	0	57	0	710934528	53	4940
2026-01-07 22:53:44.99	115.89	37.65	-40.4	-43.0	15.4	0.00e+00	0	57	0	711983104	52	4817
2026-01-07 22:53:46.00	116.31	37.57	-39.9	-42.2	16.3	0.00e+00	0	57	0	714080256	51	4656
2026-01-07 22:53:47.00	116.71	37.49	-39.6	-41.7	16.8	0.00e+00	0	57	0	716177408	51	4411
2026-01-07 22:53:48.01	117.12	37.40	-39.6	-41.8	16.7	0.00e+00	0	57	0	718274560	51	4459
2026-01-07 22:53:49.01	117.53	37.32	-40.2	-42.6	15.9	0.00e+00	0	57	0	719323136	51	4876
2026-01-07 22:53:50.02	117.93	37.23	-40.6	-43.2	15.2	0.00e+00	0	57	0	721420288	51	5250
2026-01-07 22:53:51.03	118.34	37.15	-40.5	-43.0	15.4	0.00e+00	0	57	0	723517440	52	4833
2026-01-07 22:53:52.03	118.74	37.06	-40.0	-42.4	16.0	0.00e+00	0	57	0	725614592	52	4495
2026-01-07 22:53:53.04	119.14	36.97	-39.9	-42.1	16.3	0.00e+00	0	57	0	727711744	51	4620
2026-01-07 22:53:54.04	119.53	36.88	-39.7	-41.8	16.6	0.00e+00	0	57	0	728760320	51	4469
2026-01-07 22:53:55.04	119.92	36.79	-39.8	-42.0	16.5	0.00e+00	0	57	0	730857472	51	4566
2026-01-07 22:53:56.04	120.31	36.69	-39.7	-41.8	16.6	0.00e+00	0	57	0	732954624	51	4482
2026-01-07 22:53:57.04	120.70	36.60	-39.5	-41.5	16.9	0.00e+00	0	57	0	735051776	50	4590
2026-01-07 22:53:58.04	121.08	36.51	-39.2	-41.2	17.3	0.00e+00	0	57	0	737148928	50	4404
2026-01-07 22:53:59.04	121.47	36.41	-39.2	-41.2	17.3	0.00e+00	0	57	0	738197504	50	4400
2026-01-07 22:54:00.05	121.85	36.31	-39.7	-41.8	16.6	0.00e+00	0	57	0	740294656	50	4750
2026-01-07 22:54:01.05	122.23	36.21	-40.2	-42.5	15.9	0.00e+00	0	57	0	742391808	50	5149
2026-01-07 22:54:02.06	122.61	36.11	-40.1	-42.5	16.0	0.00e+00	0	57	0	744488960	51	4822
2026-01-07 22:54:03.07	122.99	36.01	-39.7	-41.9	16.6	0.00e+00	0	58	0	746586112	51	4515
2026-01-07 22:54:04.07	123.36	35.91	-39.3	-41.3	17.1	0.00e+00	0	57	0	747634688	50	4491
2026-01-07 22:54:05.07	123.73	35.81	-39.5	-41.6	16.8	0.00e+00	0	57	0	749731840	50	4647
2026-01-07 22:54:06.07	124.10	35.70	-40.1	-42.4	16.1	0.00e+00	0	57	0	751828992	50	5065
2026-01-07 22:54:07.08	124.46	35.60	-40.7	-43.3	15.1	0.00e+00	0	57	0	753926144	51	5321
2026-01-07 22:54:08.09	124.83	35.49	-40.9	-43.7	14.6	0.00e+00	0	57	0	756023296	52	5261
2026-01-07 22:54:09.09	125.19	35.39	-40.6	-43.2	15.2	0.00e+00	0	57	0	757071872	52	4947
2026-01-07 22:54:10.10	125.55	35.28	-40.3	-42.7	15.6	0.00e+00	0	57	0	759169024	52	4696
2026-01-07 22:54:11.11	125.91	35.17	-40.2	-42.6	15.8	0.00e+00	0	57	0	761266176	52	4620
2026-01-07 22:54:12.11	126.26	35.06	-40.5	-43.1	15.3	0.00e+00	0	57	0	763363328	52	4899
2026-01-07 22:54:13.12	126.62	34.95	-40.9	-43.7	14.7	0.00e+00	0	57	0	765460480	52	5227
2026-01-07 22:54:14.12	126.97	34.84	-40.6	-43.2	15.2	0.00e+00	0	57	0	766509056	52	4928
2026-01-07 22:54:15.12	127.31	34.73	-40.0	-42.3	16.2	0.00e+00	0	57	0	768606208	51	4725
2026-01-07 22:54:16.13	127.66	34.62	-39.7	-41.8	16.6	0.00e+00	0	57	0	770703360	51	4480
2026-01-07 22:54:17.13	128.00	34.50	-39.8	-42.0	16.5	0.00e+00	0	57	0	772800512	51	4574
2026-01-07 22:54:18.13	128.34	34.39	-40.4	-42.8	15.6	0.00e+00	0	57	0	774897664	51	5019
2026-01-07 22:54:19.14	128.68	34.27	-40.8	-43.5	14.9	0.00e+00	0	57	0	775946240	52	5103
2026-01-07 22:54:20.14	129.02	34.16	-40.8	-43.6	14.8	0.00e+00	0	57	0	778043392	52	5160
2026-01-07 22:54:21.14	129.35	34.04	-40.7	-43.3	15.1	0.00e+00	0	57	0	780140544	52	5040
2026-01-07 22:54:22.14	129.68	33.93	-40.6	-43.2	15.2	0.00e+00	0	57	0	782237696	52	4971
2026-01-07 22:54:23.14	130.01	33.81	-40.8	-43.5	14.9	0.00e+00	0	57	0	784334848	52	5108
2026-01-07 22:54:24.14	130.33	33.69	-41.1	-44.1	14.3	0.00e+00	0	57	0	785383424	52	5481
2026-01-07 22:54:25.15	130.66	33.58	-41.6	-44.9	13.5	4.50e-06	0	57	0	787480576	53	5666
2026-01-07 22:54:26.15	130.98	33.46	-41.5	-44.7	13.7	3.00e-06	0	57	0	789577728	53	5553
2026-01-07 22:54:27.15	131.30	33.34	-41.1	-44.0	14.3	1.50e-06	0	57	0	791674880	53	5115
2026-01-07 22:54:28.16	131.62	33.22	-40.8	-43.5	14.9	0.00e+00	0	57	0	792723456	53	4837
2026-01-07 22:54:29.16	131.93	33.10	-40.8	-43.5	14.8	0.00e+00	0	57	0	794820608	53	4867
2026-01-07 22:54:30.16	132.24	32.98	-41.3	-44.3	14.1	2.20e-06	0	57	0	796917760	53	5308
2026-01-07 22:54:31.17	132.55	32.86	-41.9	-45.4	12.9	1.83e-05	0	57	0	799014912	54	5708
2026-01-07 22:54:32.17	132.86	32.74	-42.1	-45.8	12.5	1.60e-04	0	57	0	801112064	54	5930
2026-01-07 22:54:33.16	133.16	32.62	-41.5	-44.6	13.7	9.90e-06	0	57	0	802160640	54	5184
2026-01-07 22:54:34.17	133.47	32.49	-41.1	-44.0	14.3	3.00e-06	0	57	0	804257792	54	4864
2026-01-07 22:54:35.17	133.77	32.37	-40.9	-43.7	14.6	7.00e-07	0	57	0	806354944	53	4930
2026-01-07 22:54:36.17	134.07	32.25	-41.3	-44.3	14.0	7.00e-07	0	57	0	808452096	53	5286
2026-01-07 22:54:37.17	134.36	32.13	-42.0	-45.7	12.6	3.05e-05	0	57	0	810549248	54	5859
2026-01-07 22:54:38.17	134.66	32.00	-42.6	-46.7	11.5	3.37e-04	0	57	0	811597824	55	6271
2026-01-07 22:54:39.18	134.95	31.88	-42.4	-46.5	11.7	1.07e-03	0	57	0	813694976	55	6074
2026-01-07 22:54:40.19	135.24	31.75	-41.9	-45.4	12.9	1.16e-04	0	57	0	815792128	55	5349
2026-01-07 22:54:41.20	135.53	31.63	-41.5	-44.7	13.6	1.90e-05	0	57	0	817889280	55	4953
2026-01-07 22:54:42.21	135.82	31.50	-41.4	-44.4	13.9	6.80e-06	0	57	0	819986432	54	5091
2026-01-07 22:54:43.22	136.11	31.38	-41.7	-45.0	13.3	1.60e-05	0	57	0	821035008	54	5460
2026-01-07 22:54:44.22	136.39	31.25	-42.2	-46.0	12.3	7.24e-05	0	57	0	823132160	54	6070
2026-01-07 22:54:45.23	136.67	31.12	-42.5	-46.5	11.7	3.56e-04	0	57	0	825229312	55	6117
2026-01-07 22:54:46.23	136.95	31.00	-42.2	-45.9	12.3	3.05e-04	0	57	0	827326464	55	5720
2026-01-07 22:54:47.24	137.22	30.87	-41.3	-44.3	13.9	1.60e-05	0	57	0	829423616	54	5020
2026-01-07 22:54:48.24	137.49	30.75	-40.6	-43.2	15.1	0.00e+00	0	57	0	830472192	53	4671
2026-01-07 22:54:49.24	137.77	30.62	-40.3	-42.8	15.6	0.00e+00	0	57	0	832569344	52	4724
2026-01-07 22:54:50.25	138.04	30.50	-40.4	-42.9	15.4	0.00e+00	0	57	0	834666496	52	4810
2026-01-07 22:54:51.25	138.30	30.37	-40.9	-43.7	14.6	0.00e+00	0	57	0	836763648	52	5257
2026-01-07 22:54:52.25	138.57	30.24	-41.6	-44.9	13.4	5.30e-06	0	57	0	838860800	53	5659
2026-01-07 22:54:53.25	138.83	30.12	-41.8	-45.2	13.1	4.11e-05	0	57	0	839909376	54	5550
2026-01-07 22:54:54.26	139.09	29.99	-41.1	-44.0	14.3	3.80e-06	0	57	0	842006528	54	4836
2026-01-07 22:54:55.26	139.35	29.86	-40.3	-42.8	15.5	0.00e+00	0	57	0	844103680	52	4730
2026-01-07 22:54:56.27	139.61	29.74	-40.0	-42.3	16.0	0.00e+00	0	57	0	846200832	52	4471
2026-01-07 22:54:57.28	139.86	29.61	-40.3	-42.7	15.7	0.00e+00	0	57	0	848297984	51	4952
2026-01-07 22:54:58.28	140.12	29.48	-40.8	-43.6	14.7	0.00e+00	0	57	0	849346560	52	5190
2026-01-07 22:54:59.29	140.37	29.35	-41.5	-44.7	13.6	0.00e+00	0	57	0	851443712	53	5573
2026-01-07 22:55:00.29	140.62	29.23	-41.8	-45.3	13.0	3.28e-05	0	57	0	853540864	54	5607
2026-01-07 22:55:01.30	140.87	29.10	-41.4	-44.6	13.6	2.28e-05	0	58	0	855638016	54	5192
2026-01-07 22:55:02.30	141.11	28.97	-40.7	-43.4	14.8	0.00e+00	0	57	0	857735168	53	4814
2026-01-07 22:55:03.31	141.36	28.85	-40.1	-42.5	15.8	0.00e+00	0	57	0	858783744	52	4577
2026-01-07 22:55:04.31	141.60	28.72	-39.9	-42.1	16.3	0.00e+00	0	57	0	860880896	51	4624
2026-01-07 22:55:05.31	141.84	28.59	-39.7	-41.9	16.5	0.00e+00	0	57	0	862978048	51	4538
2026-01-07 22:55:06.32	142.07	28.47	-40.0	-42.3	16.2	0.00e+00	0	57	0	865075200	51	4708
2026-01-07 22:55:07.33	142.31	28.34	-40.4	-42.8	15.6	0.00e+00	0	57	0	867172352	51	5035
2026-01-07 22:55:08.33	142.55	28.21	-40.7	-43.5	14.8	0.00e+00	0	57	0	868220928	52	5116
2026-01-07 22:55:09.33	142.78	28.09	-40.8	-43.5	14.7	7.00e-07	0	57	0	870318080	52	5153
2026-01-07 22:55:10.33	143.01	27.96	-40.2	-42.6	15.6	0.00e+00	0	57	0	872415232	52	4628
2026-01-07 22:55:11.33	143.23	27.83	-39.6	-41.7	16.6	0.00e+00	0	57	0	874512384	51	4425
2026-01-07 22:55:12.33	143.46	27.71	-39.1	-41.1	17.3	0.00e+00	0	57	0	875560960	50	4358
2026-01-07 22:55:13.33	143.69	27.58	-38.9	-40.9	17.5	0.00e+00	0	57	0	877658112	49	4500
2026-01-07 22:55:14.33	143.91	27.46	-39.0	-41.0	17.4	0.00e+00	0	58	0	879755264	49	4564
2026-01-07 22:55:15.33	144.13	27.33	-39.6	-41.7	16.6	0.00e+00	0	57	0	881852416	49	4974
2026-01-07 22:55:16.34	144.35	27.21	-40.2	-42.7	15.7	0.00e+00	0	57	0	883949568	50	5233
2026-01-07 22:55:17.34	144.57	27.08	-40.7	-43.5	14.8	0.00e+00	0	57	0	884998144	52	5146
2026-01-07 22:55:18.35	144.79	26.95	-40.8	-43.5	14.7	0.00e+00	0	57	0	887095296	52	5152
2026-01-07 22:55:19.36	145.00	26.83	-40.3	-42.8	15.5	0.00e+00	0	57	0	889192448	52	4734
2026-01-07 22:55:20.36	145.22	26.70	-39.7	-41.9	16.4	0.00e+00	0	57	0	891289600	51	4545
2026-01-07 22:55:21.37	145.43	26.58	-39.3	-41.3	17.1	0.00e+00	0	57	0	893386752	50	4469
2026-01-07 22:55:22.37	145.64	26.45	-39.1	-41.0	17.4	0.00e+00	0	57	0	894435328	50	4334
2026-01-07 22:55:23.38	145.85	26.33	-39.0	-40.9	17.4	0.00e+00	0	57	0	896532480	49	4519
2026-01-07 22:55:24.39	146.06	26.20	-39.2	-41.2	17.1	0.00e+00	0	58	0	898629632	49	4705
2026-01-07 22:55:25.40	146.26	26.08	-39.6	-41.8	16.5	0.00e+00	0	57	0	900726784	49	5035
2026-01-07 22:55:26.40	146.47	25.95	-40.0	-42.4	16.0	0.00e+00	0	57	0	902823936	50	5069
2026-01-07 22:55:27.40	146.67	25.83	-40.2	-42.6	15.8	0.00e+00	0	57	0	903872512	50	5175
2026-01-07 22:55:28.41	146.87	25.71	-39.9	-42.2	16.2	0.00e+00	0	57	0	905969664	50	4941
2026-01-07 22:55:29.41	147.07	25.58	-39.5	-41.6	16.8	0.00e+00	0	58	0	908066816	50	4607
2026-01-07 22:55:30.41	147.27	25.46	-39.0	-40.9	17.4	0.00e+00	0	58	0	910163968	50	4283
2026-01-07 22:55:31.42	147.46	25.34	-38.8	-40.7	17.7	0.00e+00	0	57	0	912261120	49	4398
2026-01-07 22:55:32.43	147.66	25.21	-38.6	-40.5	17.8	0.00e+00	0	57	0	913309696	49	4311
2026-01-07 22:55:33.43	147.85	25.09	-38.8	-40.7	17.6	0.00e+00	0	58	0	915406848	49	4426
2026-01-07 22:55:34.44	148.05	24.97	-39.2	-41.2	17.2	0.00e+00	0	58	0	917504000	49	4673
2026-01-07 22:55:35.44	148.24	24.85	-39.4	-41.5	16.8	0.00e+00	0	57	0	919601152	49	4864
2026-01-07 22:55:36.44	148.42	24.72	-39.7	-41.9	16.5	0.00e+00	0	58	0	921698304	49	5058
2026-01-07 22:55:37.44	148.61	24.60	-39.7	-42.0	16.4	0.00e+00	0	57	0	922746880	50	4835
2026-01-07 22:55:38.44	148.80	24.48	-39.6	-41.8	16.6	0.00e+00	0	57	0	924844032	50	4713
2026-01-07 22:55:39.44	148.98	24.36	-39.5	-41.7	16.7	0.00e+00	0	57	0	926941184	50	4655
2026-01-07 22:55:40.45	149.17	24.24	-39.4	-41.5	16.9	0.00e+00	0	57	0	929038336	50	4567
2026-01-07 22:55:41.45	149.35	24.12	-39.3	-41.3	17.0	0.00e+00	0	57	0	931135488	50	4488
2026-01-07 22:55:42.45	149.53	24.00	-39.4	-41.5	16.9	0.00e+00	0	58	0	932184064	50	4560
2026-01-07 22:55:43.45	149.71	23.88	-39.5	-41.7	16.7	0.00e+00	0	58	0	934281216	50	4658
2026-01-07 22:55:44.45	149.88	23.76	-39.6	-41.8	16.5	0.00e+00	0	57	0	936378368	50	4739
2026-01-07 22:55:45.45	150.06	23.64	-39.8	-42.1	16.3	0.00e+00	0	57	0	938475520	50	4874
2026-01-07 22:55:46.45	150.23	23.52	-39.9	-42.2	16.1	0.00e+00	0	58	0	939524096	50	4983
2026-01-07 22:55:47.45	150.41	23.40	-39.9	-42.1	16.2	0.00e+00	0	57	0	941621248	50	4923
2026-01-07 22:55:48.45	150.58	23.29	-39.8	-42.1	16.3	0.00e+00	0	58	0	943718400	50	4882
2026-01-07 22:55:49.45	150.75	23.17	-39.8	-42.1	16.2	0.00e+00	0	57	0	945815552	50	4901
2026-01-07 22:55:50.45	150.92	23.05	-39.7	-41.9	16.4	0.00e+00	0	57	0	947912704	50	4812
2026-01-07 22:55:51.46	151.09	22.93	-39.8	-42.1	16.3	0.00e+00	0	58	0	948961280	50	4889
2026-01-07 22:55:52.46	151.26	22.81	-39.8	-42.1	16.2	0.00e+00	0	57	0	951058432	50	4908
2026-01-07 22:55:53.47	151.42	22.70	-39.9	-42.2	16.1	0.00e+00	0	57	0	953155584	50	4978
2026-01-07 22:55:54.47	151.59	22.58	-40.1	-42.5	15.9	0.00e+00	0	57	0	955252736	50	5129
2026-01-07 22:55:55.47	151.75	22.46	-40.1	-42.5	15.9	0.00e+00	0	57	0	957349888	50	5104
2026-01-07 22:55:56.48	151.92	22.35	-40.0	-42.4	15.9	0.00e+00	0	57	0	958398464	50	5080
2026-01-07 22:55:57.48	152.08	22.23	-40.1	-42.5	15.9	0.00e+00	0	57	0	960495616	50	5104
2026-01-07 22:55:58.48	152.24	22.12	-39.9	-42.2	16.1	0.00e+00	0	57	0	962592768	50	4959
2026-01-07 22:55:59.49	152.40	22.00	-39.9	-42.2	16.1	0.00e+00	0	57	0	964689920	50	4975
2026-01-07 22:56:00.50	152.56	21.88	-39.8	-42.1	16.2	0.00e+00	0	57	0	966787072	50	4925
2026-01-07 22:56:01.50	152.71	21.77	-39.8	-42.1	16.2	0.00e+00	0	57	0	967835648	50	4896
2026-01-07 22:56:02.51	152.87	21.65	-39.9	-42.3	16.0	0.00e+00	0	57	0	969932800	50	5002
2026-01-07 22:56:03.51	153.03	21.54	-39.9	-42.3	16.0	0.00e+00	0	57	0	972029952	50	4998
2026-01-07 22:56:04.52	153.18	21.43	-40.2	-42.7	15.6	0.00e+00	0	58	0	974127104	51	4966
2026-01-07 22:56:05.52	153.33	21.31	-40.4	-43.0	15.3	0.00e+00	0	57	0	976224256	51	5137
2026-01-07 22:56:06.53	153.49	21.20	-40.5	-43.1	15.2	0.00e+00	0	57	0	977272832	51	5171
2026-01-07 22:56:07.53	153.64	21.09	-40.6	-43.3	14.9	7.00e-07	0	57	0	979369984	51	5336
2026-01-07 22:56:08.54	153.79	20.97	-40.6	-43.3	15.0	0.00e+00	0	57	0	981467136	51	5340
2026-01-07 22:56:09.54	153.93	20.86	-40.7	-43.4	14.9	0.00e+00	0	57	0	983564288	51	5367
2026-01-07 22:56:10.54	154.08	20.75	-40.6	-43.3	14.9	0.00e+00	0	57	0	985661440	52	5021
2026-01-07 22:56:11.54	154.23	20.64	-40.5	-43.1	15.1	0.00e+00	0	57	0	986710016	52	4919
2026-01-07 22:56:12.54	154.37	20.53	-40.4	-43.1	15.1	0.00e+00	0	57	0	988807168	52	4872
2026-01-07 22:56:13.55	154.52	20.41	-40.5	-43.1	15.1	0.00e+00	0	57	0	990904320	52	4901
2026-01-07 22:56:14.55	154.66	20.30	-40.4	-43.0	15.2	0.00e+00	0	58	0	993001472	52	4850
2026-01-07 22:56:15.56	154.80	20.19	-40.4	-43.1	15.1	0.00e+00	0	57	0	995098624	52	4893
2026-01-07 22:56:16.56	154.94	20.08	-40.5	-43.2	15.0	7.00e-07	0	57	0	996147200	52	4950
2026-01-07 22:56:17.56	155.08	19.97	-40.5	-43.2	15.0	0.00e+00	0	57	0	998244352	52	4978
2026-01-07 22:56:18.56	155.22	19.86	-40.5	-43.2	14.9	0.00e+00	0	57	0	1000341504	52	4978
2026-01-07 22:56:19.57	155.36	19.75	-40.6	-43.4	14.8	7.00e-07	0	58	0	1002438656	52	5046
2026-01-07 22:56:20.57	155.50	19.65	-40.7	-43.4	14.7	0.00e+00	0	57	0	1004535808	52	5092
2026-01-07 22:56:21.58	155.64	19.54	-40.7	-43.6	14.6	0.00e+00	0	58	0	1005584384	52	5182
2026-01-07 22:56:22.58	155.77	19.43	-40.7	-43.5	14.7	0.00e+00	0	57	0	1007681536	52	5114
2026-01-07 22:56:23.58	155.90	19.32	-40.6	-43.4	14.7	0.00e+00	0	57	0	1009778688	52	5080
2026-01-07 22:56:24.58	156.04	19.21	-40.7	-43.5	14.7	0.00e+00	0	57	0	1011875840	52	5101
2026-01-07 22:56:25.58	156.17	19.11	-40.5	-43.3	14.9	0.00e+00	0	57	0	1012924416	52	4989
2026-01-07 22:56:26.58	156.30	19.00	-40.5	-43.1	15.0	0.00e+00	0	57	0	1015021568	52	4913
2026-01-07 22:56:27.58	156.43	18.89	-40.4	-43.0	15.1	0.00e+00	0	57	0	1017118720	52	4836
2026-01-07 22:56:28.58	156.56	18.79	-40.3	-42.9	15.2	0.00e+00	0	57	0	1019215872	52	4783
2026-01-07 22:56:29.58	156.69	18.68	-40.3	-42.8	15.4	0.00e+00	0	57	0	1021313024	52	4739
2026-01-07 22:56:30.57	156.82	18.58	-40.3	-42.9	15.3	0.00e+00	0	57	0	1022361600	52	4785
2026-01-07 22:56:31.57	156.94	18.47	-40.2	-42.7	15.4	0.00e+00	0	58	0	1024458752	52	4700
2026-01-07 22:56:32.58	157.07	18.37	-40.3	-43.0	15.2	0.00e+00	0	57	0	1026555904	52	4816
2026-01-07 22:56:33.58	157.20	18.26	-40.4	-43.0	15.2	0.00e+00	0	58	0	1028653056	52	4817
2026-01-07 22:56:34.58	157.32	18.16	-40.4	-43.0	15.1	0.00e+00	0	58	0	1030750208	52	4861
2026-01-07 22:56:35.59	157.45	18.05	-40.4	-43.1	15.0	0.00e+00	0	57	0	1031798784	52	4919
2026-01-07 22:56:36.59	157.57	17.95	-40.5	-43.2	14.9	0.00e+00	0	57	0	1033895936	52	4938
2026-01-07 22:56:37.59	157.69	17.85	-40.5	-43.3	14.8	0.00e+00	0	57	0	1035993088	52	4995
2026-01-07 22:56:38.60	157.81	17.74	-40.6	-43.4	14.7	0.00e+00	0	57	0	1038090240	52	5073
2026-01-07 22:56:39.60	157.94	17.64	-40.5	-43.3	14.8	0.00e+00	0	58	0	1040187392	52	4990
2026-01-07 22:56:40.60	158.05	17.54	-40.6	-43.3	14.8	0.00e+00	0	57	0	1041235968	52	5023
2026-01-07 22:56:41.61	158.17	17.43	-40.4	-43.1	15.0	0.00e+00	0	57	0	1043333120	52	4911
2026-01-07 22:56:42.61	158.29	17.33	-40.4	-43.1	15.0	7.00e-07	0	57	0	1045430272	52	4877
2026-01-07 22:56:43.62	158.41	17.23	-40.4	-43.0	15.1	7.00e-07	0	57	0	1047527424	52	4834
2026-01-07 22:56:44.62	158.53	17.13	-40.3	-43.0	15.1	0.00e+00	0	58	0	1048576000	52	4827
2026-01-07 22:56:45.62	158.64	17.03	-40.4	-43.0	15.1	7.00e-07	0	57	0	1050673152	52	4841
2026-01-07 22:56:46.62	158.76	16.93	-40.4	-43.1	15.0	0.00e+00	0	57	0	1052770304	52	4884
2026-01-07 22:56:47.63	158.87	16.83	-40.4	-43.1	15.0	0.00e+00	0	57	0	1054867456	52	4893
2026-01-07 22:56:48.62	158.99	16.73	-40.6	-43.3	14.7	0.00e+00	0	58	0	1056964608	52	5022
2026-01-07 22:56:49.62	159.10	16.63	-40.6	-43.4	14.6	0.00e+00	0	57	0	1058013184	52	5095
2026-01-07 22:56:50.62	159.21	16.53	-40.7	-43.6	14.4	0.00e+00	0	58	0	1060110336	52	5194
2026-01-07 22:56:51.63	159.33	16.43	-40.8	-43.8	14.2	3.00e-06	0	57	0	1062207488	52	5320
2026-01-07 22:56:52.64	159.44	16.33	-40.9	-43.9	14.1	2.20e-06	0	58	0	1064304640	52	5385
2026-01-07 22:56:53.64	159.55	16.23	-41.0	-44.1	14.0	7.00e-07	0	58	0	1066401792	52	5489
2026-01-07 22:56:54.65	159.66	16.13	-41.1	-44.2	13.8	3.80e-06	0	57	0	1067450368	52	5591
2026-01-07 22:56:55.66	159.77	16.03	-41.0	-44.1	13.9	3.80e-06	0	57	0	1069547520	52	5511
2026-01-07 22:56:56.67	159.88	15.94	-41.1	-44.3	13.7	3.80e-06	0	57	0	1071644672	52	5595
2026-01-07 22:56:57.67	159.98	15.84	-41.1	-44.2	13.8	4.50e-06	0	57	0	1073741824	52	5571
2026-01-07 22:56:58.68	160.09	15.74	-41.0	-44.1	13.9	6.80e-06	0	57	0	1075838976	52	5522
2026-01-07 22:56:59.69	160.20	15.64	-41.1	-44.2	13.8	5.30e-06	0	57	0	1076887552	52	5557
2026-01-07 22:57:00.69	160.30	15.55	-41.1	-44.2	13.8	3.80e-06	0	57	0	1078984704	52	5564
2026-01-07 22:57:01.70	160.41	15.45	-41.1	-44.3	13.6	5.30e-06	0	57	0	1081081856	52	5643
2026-01-07 22:57:02.70	160.51	15.36	-41.1	-44.2	13.7	8.30e-06	0	57	0	1083179008	52	5582
2026-01-07 22:57:03.71	160.62	15.26	-40.9	-44.0	14.0	1.50e-06	0	58	0	1085276160	52	5412
2026-01-07 22:57:04.72	160.72	15.16	-41.0	-44.0	14.0	3.80e-06	0	57	0	1086324736	52	5448
2026-01-07 22:57:05.73	160.82	15.07	-41.0	-44.0	13.9	3.80e-06	0	58	0	1088421888	52	5459
2026-01-07 22:57:06.73	160.93	14.97	-40.9	-44.0	14.0	4.50e-06	0	58	0	1090519040	52	5411
2026-01-07 22:57:07.74	161.03	14.88	-40.9	-43.9	14.0	2.20e-06	0	58	0	1092616192	52	5390
2026-01-07 22:57:08.74	161.13	14.78	-40.9	-43.9	14.0	7.00e-07	0	57	0	1094713344	52	5377
2026-01-07 22:57:09.74	161.23	14.69	-41.0	-44.1	13.9	3.00e-06	0	57	0	1095761920	52	5469
2026-01-07 22:57:10.75	161.33	14.60	-40.9	-43.9	14.1	1.50e-06	0	58	0	1097859072	52	5347
2026-01-07 22:57:11.75	161.43	14.50	-40.7	-43.6	14.4	1.50e-06	0	57	0	1099956224	52	5163
2026-01-07 22:57:12.76	161.53	14.41	-40.6	-43.5	14.4	0.00e+00	0	58	0	1102053376	52	5126
2026-01-07 22:57:13.77	161.62	14.32	-40.5	-43.3	14.6	7.00e-07	0	58	0	1104150528	52	5033
2026-01-07 22:57:14.76	161.72	14.22	-40.6	-43.4	14.5	7.00e-07	0	58	0	1105199104	52	5082
2026-01-07 22:57:15.77	161.82	14.13	-40.6	-43.5	14.4	1.50e-06	0	57	0	1107296256	52	5143
2026-01-07 22:57:16.78	161.91	14.04	-40.7	-43.7	14.2	2.20e-06	0	57	0	1109393408	52	5256
2026-01-07 22:57:17.78	162.01	13.95	-40.8	-43.8	14.1	0.00e+00	0	57	0	1111490560	52	5314
2026-01-07 22:57:18.79	162.10	13.86	-40.8	-43.7	14.1	1.50e-06	0	58	0	1113587712	52	5279
2026-01-07 22:57:19.80	162.20	13.76	-40.8	-43.8	14.2	1.50e-06	0	57	0	1114636288	52	5286
2026-01-07 22:57:20.81	162.29	13.67	-40.9	-43.9	14.0	7.00e-07	0	57	0	1116733440	52	5379
2026-01-07 22:57:21.82	162.39	13.58	-40.9	-43.9	13.9	3.00e-06	0	57	0	1118830592	52	5401
2026-01-07 22:57:22.82	162.48	13.49	-40.9	-44.0	13.9	3.00e-06	0	58	0	1120927744	52	5455
2026-01-07 22:57:23.83	162.57	13.40	-41.0	-44.2	13.6	3.00e-06	0	57	0	1123024896	52	5573
2026-01-07 22:57:24.83	162.66	13.31	-40.9	-44.0	13.8	3.00e-06	0	58	0	1124073472	52	5451
2026-01-07 22:57:25.83	162.75	13.22	-41.0	-44.1	13.7	4.50e-06	0	57	0	1126170624	52	5506
2026-01-07 22:57:26.84	162.84	13.13	-41.0	-44.2	13.7	3.80e-06	0	58	0	1128267776	52	5555
2026-01-07 22:57:27.85	162.93	13.04	-41.0	-44.2	13.6	6.10e-06	0	57	0	1130364928	52	5562
2026-01-07 22:57:28.86	163.02	12.95	-41.0	-44.2	13.6	9.10e-06	0	58	0	1132462080	52	5589
2026-01-07 22:57:29.86	163.11	12.87	-41.1	-44.3	13.5	1.06e-05	0	57	0	1133510656	52	5632
2026-01-07 22:57:30.87	163.20	12.78	-41.1	-44.3	13.5	9.10e-06	0	57	0	1135607808	52	5652
2026-01-07 22:57:31.88	163.29	12.69	-41.1	-44.4	13.5	1.52e-05	0	57	0	1137704960	52	5676
2026-01-07 22:57:32.88	163.38	12.60	-41.1	-44.4	13.5	1.06e-05	0	58	0	1139802112	52	5664
2026-01-07 22:57:33.89	163.46	12.51	-41.2	-44.5	13.3	1.06e-05	0	57	0	1141899264	52	5757
2026-01-07 22:57:34.89	163.55	12.43	-41.2	-44.5	13.3	2.89e-05	0	58	0	1142947840	52	5757
2026-01-07 22:57:35.89	163.64	12.34	-41.2	-44.6	13.2	2.05e-05	0	58	0	1145044992	52	5790
2026-01-07 22:57:36.90	163.72	12.25	-41.2	-44.6	13.1	2.74e-05	0	58	0	1147142144	53	5504
2026-01-07 22:57:37.89	163.80	12.17	-41.2	-44.6	13.1	2.13e-05	0	57	0	1149239296	53	5510
2026-01-07 22:57:38.90	163.89	12.08	-41.2	-44.7	13.0	3.96e-05	0	57	0	1151336448	53	5551
