passes_logs/2026/01/07/R2.0S_Moscow/R2.0S_Moscow__20260107_100849_AQUA_rec.log

#Pass ID: 20260107_100849_AQUA
#Satellite: AQUA
#Configuration: AQUA
#almurnet v.1.7.20251203
#Start time: 2026-01-07 10:08:49

#Version: 2.2.20231116
#Station: R2.0S_Moscow
#Location: 37.707566 lon 55.798166 lat
#TLE: 1 27424U 02022A   26004.96787593  .00001598  00000+0  32997-3 0  9996
#TLE: 2 27424  98.4069 331.2279 0002002  90.2377   0.6092 14.61798176259425

#Time	Az	El	Level	Level2	SNR	BER	BlckErr	Temp	State	Recorded	gain1	gain2
2026-01-07 10:08:49.24	114.18	2.01	-32.9	-57.3	4.1	7.61e-01	0	47	0	0	40	50150
2026-01-07 10:08:50.25	114.11	2.07	-39.2	-59.7	4.1	7.54e-01	0	47	104	0	43	55303
2026-01-07 10:08:51.26	114.03	2.13	-36.8	-60.7	4.0	7.49e-01	0	47	104	0	44	59175
2026-01-07 10:08:52.27	113.95	2.19	-38.4	-59.6	4.2	7.52e-01	0	47	104	0	44	51812
2026-01-07 10:08:53.28	113.88	2.25	-38.5	-59.5	4.4	7.49e-01	0	47	104	0	44	51506
2026-01-07 10:08:54.29	113.80	2.31	-33.9	-60.5	3.3	7.54e-01	0	47	104	0	42	64840
2026-01-07 10:08:55.30	113.72	2.37	-25.4	-53.0	3.9	7.44e-01	0	47	104	0	37	36422
2026-01-07 10:08:56.32	113.64	2.43	-37.6	-58.7	4.3	7.54e-01	0	47	104	0	43	49773
2026-01-07 10:08:57.33	113.56	2.49	-36.2	-59.8	4.1	7.52e-01	0	48	104	0	45	50084
2026-01-07 10:08:58.34	113.48	2.55	-38.1	-58.9	3.9	7.52e-01	0	48	104	0	43	50894
2026-01-07 10:08:59.35	113.41	2.61	-37.3	-59.3	4.2	7.61e-01	0	48	104	0	40	63054
2026-01-07 10:09:00.36	113.33	2.67	-38.7	-60.8	3.9	7.47e-01	0	48	104	0	46	53093
2026-01-07 10:09:01.37	113.25	2.73	-37.2	-60.5	3.3	7.53e-01	0	48	104	0	45	54053
2026-01-07 10:09:02.38	113.17	2.79	-36.0	-59.6	4.4	7.64e-01	0	48	104	0	40	65440
2026-01-07 10:09:03.39	113.08	2.85	-37.5	-60.4	4.1	7.55e-01	0	48	104	0	44	56768
2026-01-07 10:09:04.40	113.00	2.91	-35.6	-59.8	3.9	7.45e-01	0	48	104	0	42	59809
2026-01-07 10:09:05.41	112.92	2.97	-33.9	-60.2	4.2	7.39e-01	0	48	104	0	46	49316
2026-01-07 10:09:06.42	112.84	3.03	-37.5	-60.2	3.6	7.49e-01	0	48	104	0	42	62344
2026-01-07 10:09:07.44	112.76	3.09	-37.2	-60.0	4.0	7.52e-01	0	48	104	0	42	61214
2026-01-07 10:09:08.45	112.67	3.15	-37.1	-60.1	4.2	7.50e-01	0	49	104	0	43	58356
2026-01-07 10:09:09.46	112.59	3.21	-37.1	-60.5	4.2	7.46e-01	0	48	104	0	42	64235
2026-01-07 10:09:10.47	112.51	3.27	-28.4	-51.6	4.4	7.81e-01	0	49	104	0	24	65535
2026-01-07 10:09:11.48	112.42	3.33	-32.5	-52.6	3.7	7.82e-01	0	49	104	0	26	65535
2026-01-07 10:09:12.49	112.34	3.39	-37.2	-58.9	3.9	7.52e-01	0	48	104	0	45	45213
2026-01-07 10:09:13.50	112.26	3.45	-36.3	-59.3	4.1	7.55e-01	0	49	104	0	42	56351
2026-01-07 10:09:14.51	112.17	3.51	-35.3	-58.6	4.1	7.54e-01	0	49	104	0	40	58496
2026-01-07 10:09:15.53	112.08	3.58	-28.5	-50.5	4.4	7.40e-01	0	49	104	0	38	25662
2026-01-07 10:09:16.54	112.00	3.64	-36.2	-59.2	4.1	7.57e-01	0	49	104	0	43	52473
2026-01-07 10:09:17.55	111.91	3.70	-31.1	-56.1	4.2	7.52e-01	0	49	104	0	41	41175
2026-01-07 10:09:18.55	111.83	3.76	-37.6	-57.8	3.9	7.53e-01	0	49	104	0	39	56460
2026-01-07 10:09:19.57	111.74	3.82	-31.1	-55.7	4.2	7.48e-01	0	49	104	0	34	59225
2026-01-07 10:09:20.58	111.65	3.88	-34.5	-58.1	3.8	7.61e-01	0	49	104	0	37	65535
2026-01-07 10:09:21.59	111.56	3.94	-36.7	-54.6	3.3	7.63e-01	0	49	104	0	30	65535
2026-01-07 10:09:22.60	111.48	4.01	-34.8	-57.6	3.9	7.58e-01	0	49	104	0	36	65521
2026-01-07 10:09:23.61	111.39	4.07	-36.9	-59.0	4.0	7.55e-01	0	49	104	0	40	60833
2026-01-07 10:09:24.62	111.30	4.13	-35.5	-59.0	3.5	7.53e-01	0	49	104	0	40	60789
2026-01-07 10:09:25.63	111.21	4.19	-37.4	-58.9	4.3	7.47e-01	0	50	104	0	43	50657
2026-01-07 10:09:26.64	111.12	4.25	-36.4	-59.2	4.1	7.48e-01	0	49	104	0	44	49368
2026-01-07 10:09:27.65	111.03	4.32	-35.1	-58.3	4.4	7.51e-01	0	49	104	0	41	53327
2026-01-07 10:09:28.66	110.94	4.38	-38.2	-57.6	3.6	7.64e-01	0	50	104	0	37	61792
2026-01-07 10:09:29.67	110.85	4.44	-25.6	-53.3	3.6	7.73e-01	0	50	104	0	28	63185
2026-01-07 10:09:30.68	110.75	4.50	-37.1	-48.6	3.5	7.67e-01	0	50	104	0	18	65535
2026-01-07 10:09:31.70	110.66	4.57	-33.8	-59.4	4.3	7.48e-01	0	50	104	0	42	56885
2026-01-07 10:09:32.71	110.57	4.63	-30.9	-57.8	4.1	7.50e-01	0	50	104	0	42	47125
2026-01-07 10:09:33.72	110.48	4.69	-37.7	-59.2	4.3	7.53e-01	0	50	104	0	44	49777
2026-01-07 10:09:34.73	110.38	4.76	-36.8	-57.1	4.3	7.46e-01	0	50	104	0	40	49005
2026-01-07 10:09:35.74	110.29	4.82	-25.7	-48.0	3.3	7.59e-01	0	50	104	0	24	43149
2026-01-07 10:09:36.75	110.19	4.88	-29.8	-52.6	3.7	7.81e-01	0	50	104	0	26	65535
2026-01-07 10:09:37.76	110.10	4.95	-23.6	-46.0	3.5	7.59e-01	0	50	104	0	18	48302
2026-01-07 10:09:38.77	110.00	5.01	-23.3	-53.0	4.0	7.43e-01	0	50	104	0	32	48672
2026-01-07 10:09:39.78	109.91	5.07	-23.3	-46.4	3.4	7.51e-01	0	50	104	0	15	60451
2026-01-07 10:09:40.79	109.81	5.14	-35.2	-57.6	3.8	7.53e-01	0	50	104	0	36	65396
2026-01-07 10:09:41.81	109.72	5.20	-23.1	-47.0	3.8	7.32e-01	0	51	104	0	21	45799
2026-01-07 10:09:42.82	109.62	5.26	-32.2	-56.9	3.7	7.53e-01	0	50	104	0	39	50544
2026-01-07 10:09:43.83	109.52	5.33	-30.0	-54.6	3.6	7.68e-01	0	50	104	0	30	65413
2026-01-07 10:09:44.84	109.42	5.39	-29.3	-52.3	3.9	7.40e-01	0	51	104	0	32	44651
2026-01-07 10:09:45.85	109.32	5.46	-36.1	-48.5	3.7	7.52e-01	0	51	104	0	18	64613
2026-01-07 10:09:46.86	109.22	5.52	-35.8	-60.5	4.1	7.49e-01	0	50	104	0	45	54040
2026-01-07 10:09:47.87	109.13	5.59	-38.3	-60.5	4.0	7.45e-01	0	51	104	0	46	51475
2026-01-07 10:09:48.88	109.02	5.65	-36.0	-58.1	3.8	7.61e-01	0	51	104	0	37	65527
2026-01-07 10:09:49.89	108.92	5.71	-37.5	-60.1	4.2	7.52e-01	0	51	104	0	43	57909
2026-01-07 10:09:50.90	108.82	5.78	-37.6	-60.7	3.8	7.49e-01	0	51	104	0	45	55633
2026-01-07 10:09:51.91	108.72	5.84	-37.2	-59.7	4.0	7.48e-01	0	51	104	0	44	52587
2026-01-07 10:09:52.92	108.62	5.91	-30.0	-53.1	3.8	7.73e-01	0	51	104	0	27	65535
2026-01-07 10:09:53.94	108.52	5.97	-38.2	-59.2	4.3	7.52e-01	0	51	104	0	43	52260
2026-01-07 10:09:54.95	108.41	6.04	-37.1	-59.3	4.0	7.57e-01	0	51	104	0	41	59359
2026-01-07 10:09:55.96	108.31	6.10	-36.5	-58.8	4.2	7.47e-01	0	51	104	0	39	63232
2026-01-07 10:09:56.97	108.21	6.17	-37.6	-60.1	3.8	7.38e-01	0	51	104	0	43	57912
2026-01-07 10:09:57.98	108.10	6.23	-35.4	-60.5	4.0	7.44e-01	0	51	104	0	46	51128
2026-01-07 10:09:58.99	108.00	6.30	-36.7	-58.8	4.1	7.51e-01	0	51	104	0	41	56113
2026-01-07 10:10:00.00	107.89	6.37	-37.3	-60.3	3.9	7.48e-01	0	51	104	0	45	53006
2026-01-07 10:10:01.02	107.78	6.43	-34.9	-58.6	4.1	7.49e-01	0	51	104	0	40	57919
2026-01-07 10:10:02.03	107.68	6.50	-30.8	-56.5	3.5	7.58e-01	0	51	104	0	34	64284
2026-01-07 10:10:03.04	107.57	6.56	-34.7	-59.3	4.1	7.45e-01	0	51	104	0	42	56485
2026-01-07 10:10:04.05	107.46	6.63	-35.3	-58.7	4.1	7.47e-01	0	51	104	0	41	55334
2026-01-07 10:10:05.06	107.35	6.70	-32.7	-58.6	3.7	7.62e-01	0	51	104	0	38	65519
2026-01-07 10:10:06.07	107.24	6.76	-25.1	-52.6	4.1	7.77e-01	0	52	104	0	30	51890
2026-01-07 10:10:07.08	107.13	6.83	-32.0	-54.3	3.7	7.53e-01	0	52	104	0	30	63468
2026-01-07 10:10:08.09	107.02	6.89	-37.7	-61.4	3.5	7.36e-01	0	52	104	0	46	56824
2026-01-07 10:10:09.10	106.91	6.96	-33.3	-58.1	3.9	7.59e-01	0	52	104	0	37	65533
2026-01-07 10:10:10.12	106.80	7.03	-32.6	-58.1	3.6	7.59e-01	0	52	104	0	37	65535
2026-01-07 10:10:11.13	106.69	7.09	-22.6	-46.5	3.4	7.55e-01	0	52	104	0	15	61086
2026-01-07 10:10:12.14	106.58	7.16	-29.5	-55.1	3.6	7.54e-01	0	52	104	0	31	65533
2026-01-07 10:10:13.15	106.46	7.23	-21.9	-47.1	3.6	7.65e-01	0	52	104	0	15	65135
2026-01-07 10:10:14.16	106.35	7.29	-32.2	-55.1	3.8	7.65e-01	0	52	104	0	31	65535
2026-01-07 10:10:15.17	106.24	7.36	-22.6	-48.6	3.9	7.76e-01	0	52	104	0	18	65530
2026-01-07 10:10:16.18	106.12	7.43	-34.7	-54.6	4.4	7.39e-01	0	52	104	0	34	51755
2026-01-07 10:10:17.19	106.01	7.50	-31.3	-51.7	4.3	7.58e-01	0	52	104	0	26	58577
2026-01-07 10:10:18.20	105.89	7.56	-31.1	-48.6	7.1	6.44e-01	51	52	0	0	33	27540
2026-01-07 10:10:19.21	105.78	7.63	-22.1	-44.4	4.2	7.44e-01	0	52	104	524288	16	45165
2026-01-07 10:10:20.23	105.66	7.70	-32.1	-45.0	10.9	6.16e-01	21	52	0	1048576	34	17108
2026-01-07 10:10:21.24	105.54	7.77	-21.9	-42.7	4.6	7.39e-01	0	52	104	2097152	17	35238
2026-01-07 10:10:22.25	105.42	7.83	-31.9	-44.0	4.1	7.24e-01	0	52	104	2097152	16	43190
2026-01-07 10:10:23.26	105.30	7.90	-23.3	-41.0	7.0	6.74e-01	67	52	0	2097152	15	32389
2026-01-07 10:10:24.27	105.18	7.97	-32.6	-42.2	13.4	6.11e-01	3	52	0	4194304	34	12389
2026-01-07 10:10:25.28	105.06	8.04	-34.6	-43.9	13.0	6.15e-01	14	52	0	5242880	36	13418
2026-01-07 10:10:26.29	104.94	8.11	-37.8	-61.4	3.7	7.39e-01	0	52	104	5242880	52	40401
2026-01-07 10:10:27.30	104.82	8.17	-37.0	-49.4	4.7	7.03e-01	0	53	104	5242880	36	25270
2026-01-07 10:10:28.31	104.70	8.24	-26.5	-47.1	6.7	6.50e-01	80	53	0	5767168	23	41058
2026-01-07 10:10:29.32	104.58	8.31	-27.1	-44.8	4.3	7.36e-01	0	52	104	5767168	11	63141
2026-01-07 10:10:30.33	104.45	8.38	-25.9	-48.1	5.3	7.43e-01	0	52	104	5767168	22	49211
2026-01-07 10:10:31.34	104.33	8.45	-30.1	-45.0	5.8	7.08e-01	0	52	104	5767168	36	15255
2026-01-07 10:10:32.35	104.21	8.52	-30.7	-43.9	10.4	6.20e-01	33	52	0	6291456	24	26815
2026-01-07 10:10:33.36	104.08	8.58	-30.1	-43.7	9.8	6.15e-01	29	52	0	6291456	28	20958
2026-01-07 10:10:34.37	103.95	8.65	-26.0	-43.1	10.3	6.27e-01	34	53	0	8388608	25	23201
2026-01-07 10:10:35.38	103.83	8.72	-18.1	-40.3	7.2	6.76e-01	40	53	104	8388608	9	42015
2026-01-07 10:10:36.39	103.70	8.79	-16.6	-40.2	5.1	7.48e-01	0	53	104	9961472	14	31443
2026-01-07 10:10:37.40	103.57	8.86	-26.2	-43.4	9.3	6.16e-01	25	53	0	10485760	18	35980
2026-01-07 10:10:38.41	103.45	8.93	-16.4	-39.2	5.9	6.99e-01	0	53	0	12058624	12	31327
2026-01-07 10:10:39.42	103.32	9.00	-27.4	-41.8	12.7	6.18e-01	11	53	0	12582912	25	20023
2026-01-07 10:10:40.43	103.19	9.07	-23.6	-41.4	10.7	6.32e-01	19	53	0	14155776	19	26797
2026-01-07 10:10:41.44	103.06	9.14	-28.7	-42.0	10.9	6.29e-01	17	53	0	16252928	25	20363
2026-01-07 10:10:42.45	102.93	9.21	-18.1	-40.8	8.4	6.34e-01	47	53	0	18350080	18	26608
2026-01-07 10:10:43.46	102.79	9.27	-28.8	-41.9	11.8	6.17e-01	5	53	0	19922944	24	21324
2026-01-07 10:10:44.47	102.66	9.34	-28.6	-41.8	9.6	6.13e-01	42	53	0	22020096	24	21081
2026-01-07 10:10:45.48	102.53	9.41	-31.1	-42.1	14.7	6.06e-01	1	53	0	23592960	31	14704
2026-01-07 10:10:46.49	102.39	9.48	-29.7	-42.1	12.3	6.15e-01	2	53	0	25690112	28	17462
2026-01-07 10:10:47.50	102.26	9.55	-31.0	-42.6	14.5	6.09e-01	0	53	0	27787264	29	17417
2026-01-07 10:10:48.51	102.12	9.62	-30.3	-44.5	13.7	6.12e-01	0	53	0	29360128	31	19180
2026-01-07 10:10:49.52	101.99	9.69	-30.9	-44.2	12.8	6.15e-01	0	53	0	31457280	28	22084
2026-01-07 10:10:50.53	101.85	9.76	-29.7	-44.9	11.9	6.16e-01	4	53	0	33030144	30	21503
2026-01-07 10:10:51.54	101.71	9.83	-26.5	-44.9	7.4	6.43e-01	81	53	0	35127296	23	32015
2026-01-07 10:10:52.55	101.58	9.90	-30.0	-44.4	12.0	6.13e-01	0	53	0	36700160	28	22541
2026-01-07 10:10:53.56	101.44	9.97	-25.1	-41.7	13.6	6.08e-01	0	53	0	38797312	24	20989
2026-01-07 10:10:54.57	101.30	10.04	-27.3	-40.2	15.3	6.07e-01	0	53	0	40894464	26	15692
2026-01-07 10:10:55.58	101.16	10.11	-25.8	-42.3	13.2	6.13e-01	0	53	0	42467328	25	21247
2026-01-07 10:10:56.59	101.02	10.18	-26.3	-43.9	11.4	6.16e-01	8	53	0	44564480	26	23882
2026-01-07 10:10:57.60	100.87	10.26	-26.8	-42.5	11.6	6.15e-01	11	53	0	46137344	23	24292
2026-01-07 10:10:58.61	100.73	10.33	-26.8	-44.0	10.5	6.28e-01	35	53	0	48234496	22	30691
2026-01-07 10:10:59.62	100.59	10.40	-25.6	-46.1	4.7	7.39e-01	0	53	104	49807360	20	43508
2026-01-07 10:11:00.63	100.44	10.47	-23.7	-44.7	6.6	6.56e-01	74	53	0	50855936	16	46792
2026-01-07 10:11:01.64	100.30	10.54	-28.7	-43.4	10.7	6.19e-01	26	54	0	52428800	22	28442
2026-01-07 10:11:02.65	100.15	10.61	-27.0	-41.6	11.4	6.18e-01	14	54	0	52953088	22	23256
2026-01-07 10:11:03.66	100.01	10.68	-27.5	-41.5	12.2	6.21e-01	15	54	0	54525952	22	22789
2026-01-07 10:11:04.67	99.86	10.75	-25.1	-41.6	12.1	6.15e-01	16	54	0	56623104	21	24430
2026-01-07 10:11:05.68	99.71	10.82	-26.9	-42.4	11.3	6.19e-01	27	53	104	57147392	24	22521
2026-01-07 10:11:06.69	99.56	10.89	-27.7	-43.6	4.8	7.07e-01	0	53	104	57147392	23	27645
2026-01-07 10:11:07.70	99.41	10.96	-16.7	-40.3	4.6	7.45e-01	0	54	104	57147392	7	47379
2026-01-07 10:11:08.71	99.26	11.03	-18.6	-38.1	4.9	7.30e-01	0	54	104	57147392	7	36823
2026-01-07 10:11:09.72	99.11	11.11	-28.5	-43.7	3.8	6.99e-01	0	54	104	57147392	19	35160
2026-01-07 10:11:10.73	98.96	11.18	-18.7	-39.5	6.9	6.58e-01	11	54	0	57147392	10	36159
2026-01-07 10:11:11.73	98.81	11.25	-29.2	-41.6	12.9	6.16e-01	8	54	0	57671680	27	17478
2026-01-07 10:11:12.74	98.66	11.32	-24.9	-41.9	9.6	6.21e-01	34	53	0	59768832	22	24052
2026-01-07 10:11:13.75	98.50	11.39	-26.1	-41.7	9.6	6.45e-01	56	54	0	60293120	21	24732
2026-01-07 10:11:14.76	98.35	11.46	-28.4	-42.0	13.8	6.13e-01	1	54	0	61865984	30	15251
2026-01-07 10:11:15.77	98.19	11.53	-26.2	-41.8	14.4	6.10e-01	1	54	0	63963136	28	16717
2026-01-07 10:11:16.78	98.03	11.60	-28.5	-41.7	14.0	6.13e-01	10	54	0	65536000	30	14855
2026-01-07 10:11:17.79	97.88	11.68	-30.3	-42.3	15.0	6.09e-01	1	54	0	67633152	34	12629
2026-01-07 10:11:18.80	97.72	11.75	-34.6	-42.9	16.0	6.07e-01	0	54	0	69730304	37	11298
2026-01-07 10:11:19.81	97.56	11.82	-32.0	-42.1	13.1	6.07e-01	1	54	0	71303168	33	13038
2026-01-07 10:11:20.82	97.40	11.89	-33.3	-42.4	16.5	6.04e-01	0	54	0	73400320	36	11309
2026-01-07 10:11:21.83	97.24	11.96	-36.5	-42.7	17.8	6.04e-01	0	54	0	74973184	42	8319
2026-01-07 10:11:22.84	97.07	12.03	-29.5	-41.0	16.7	6.06e-01	0	54	0	77070336	28	15386
2026-01-07 10:11:23.84	96.91	12.10	-29.2	-41.5	16.7	6.04e-01	0	54	0	78643200	30	14502
2026-01-07 10:11:24.85	96.75	12.18	-36.3	-42.5	18.7	6.09e-01	0	54	0	80740352	43	7632
2026-01-07 10:11:25.86	96.58	12.25	-38.3	-42.2	19.1	6.05e-01	0	54	0	82837504	44	6983
2026-01-07 10:11:26.87	96.42	12.32	-36.9	-42.5	19.5	6.08e-01	0	54	0	84410368	48	5774
2026-01-07 10:11:27.88	96.25	12.39	-38.5	-42.7	19.3	6.05e-01	0	54	0	86507520	48	5903
2026-01-07 10:11:28.89	96.09	12.46	-39.8	-42.9	19.6	6.06e-01	0	54	0	88604672	50	5341
2026-01-07 10:11:29.90	95.92	12.53	-39.9	-42.8	19.7	6.08e-01	0	54	0	90177536	50	5320
2026-01-07 10:11:30.91	95.75	12.61	-40.1	-43.0	19.5	6.06e-01	0	54	0	92274688	50	5464
2026-01-07 10:11:31.92	95.58	12.68	-39.9	-42.7	19.8	6.06e-01	0	54	0	93847552	50	5270
2026-01-07 10:11:32.93	95.41	12.75	-39.9	-42.7	19.9	6.06e-01	0	54	0	95944704	50	5239
2026-01-07 10:11:33.94	95.24	12.82	-39.3	-42.4	20.2	6.06e-01	0	54	0	98041856	49	5357
2026-01-07 10:11:34.95	95.06	12.89	-39.6	-42.2	20.4	6.07e-01	0	54	0	99614720	50	4955
2026-01-07 10:11:35.96	94.89	12.96	-39.6	-42.2	20.4	6.06e-01	0	54	0	101711872	50	4944
2026-01-07 10:11:36.97	94.72	13.04	-39.5	-42.1	20.5	6.08e-01	0	54	0	103284736	50	4918
2026-01-07 10:11:37.98	94.54	13.11	-39.5	-42.2	20.4	6.07e-01	0	54	0	105381888	50	4938
2026-01-07 10:11:38.99	94.37	13.18	-39.4	-42.0	20.6	6.07e-01	0	54	0	107479040	50	4840
2026-01-07 10:11:40.00	94.19	13.25	-39.6	-42.2	20.4	6.06e-01	0	54	0	109051904	50	4976
2026-01-07 10:11:41.01	94.01	13.32	-40.0	-42.8	19.7	6.06e-01	0	54	0	111149056	50	5338
2026-01-07 10:11:42.02	93.83	13.39	-40.4	-43.4	19.1	6.06e-01	0	54	0	112721920	51	5393
2026-01-07 10:11:43.03	93.65	13.47	-40.5	-43.7	18.7	6.07e-01	0	54	0	114819072	51	5584
2026-01-07 10:11:44.04	93.47	13.54	-40.6	-43.9	18.6	6.06e-01	0	54	0	116916224	51	5694
2026-01-07 10:11:45.05	93.29	13.61	-40.5	-43.8	18.6	6.05e-01	0	54	0	118489088	51	5628
2026-01-07 10:11:46.06	93.11	13.68	-40.3	-43.3	19.1	6.04e-01	0	54	0	120586240	51	5321
2026-01-07 10:11:47.07	92.92	13.75	-40.2	-43.3	19.1	6.06e-01	0	54	0	122159104	51	5289
2026-01-07 10:11:48.08	92.74	13.82	-40.3	-43.4	19.1	6.06e-01	0	54	0	124256256	51	5370
2026-01-07 10:11:49.09	92.55	13.89	-40.4	-43.6	18.8	6.06e-01	0	54	0	126353408	51	5466
2026-01-07 10:11:50.10	92.37	13.97	-40.4	-43.6	18.7	6.05e-01	0	54	0	127926272	51	5517
2026-01-07 10:11:51.11	92.18	14.04	-40.4	-43.6	18.6	6.07e-01	0	54	0	130023424	51	5500
2026-01-07 10:11:52.12	91.99	14.11	-40.3	-43.5	18.8	6.05e-01	0	54	0	131596288	51	5449
2026-01-07 10:11:53.13	91.80	14.18	-40.4	-43.7	18.5	6.06e-01	0	54	0	133693440	51	5584
2026-01-07 10:11:54.14	91.61	14.25	-40.3	-43.5	18.8	6.07e-01	0	54	0	135790592	51	5437
2026-01-07 10:11:55.15	91.42	14.32	-40.4	-43.7	18.6	6.04e-01	0	55	0	137363456	51	5559
2026-01-07 10:11:56.16	91.23	14.39	-40.4	-43.8	18.5	6.06e-01	0	54	0	139460608	51	5595
2026-01-07 10:11:57.17	91.03	14.46	-40.4	-43.6	18.7	6.08e-01	0	54	0	141557760	51	5491
2026-01-07 10:11:58.18	90.84	14.53	-40.1	-43.1	19.2	6.05e-01	0	54	0	143130624	51	5193
2026-01-07 10:11:59.19	90.64	14.60	-39.7	-42.5	19.7	6.06e-01	0	54	0	145227776	51	4859
2026-01-07 10:12:00.19	90.45	14.67	-39.3	-42.0	20.3	6.09e-01	0	55	0	146800640	50	4853
2026-01-07 10:12:01.20	90.25	14.74	-39.3	-41.9	20.3	6.04e-01	0	54	0	148897792	50	4811
2026-01-07 10:12:02.21	90.05	14.81	-39.5	-42.2	20.0	6.06e-01	0	55	0	150994944	50	4961
2026-01-07 10:12:03.22	89.85	14.89	-39.4	-42.1	20.1	6.07e-01	0	54	0	152567808	50	4886
2026-01-07 10:12:04.23	89.65	14.96	-39.4	-42.1	20.0	6.08e-01	0	54	0	154664960	50	4910
2026-01-07 10:12:05.24	89.45	15.03	-39.5	-42.3	19.8	6.07e-01	0	54	0	156762112	50	5018
2026-01-07 10:12:06.25	89.25	15.10	-39.6	-42.5	19.6	6.05e-01	0	54	0	158334976	50	5129
2026-01-07 10:12:07.26	89.04	15.16	-39.7	-42.8	19.2	6.07e-01	0	55	0	160432128	50	5281
2026-01-07 10:12:08.27	88.84	15.23	-39.8	-42.8	19.1	6.05e-01	0	55	0	162004992	50	5340
2026-01-07 10:12:09.28	88.63	15.30	-39.8	-43.0	18.8	6.07e-01	0	55	0	164102144	50	5460
2026-01-07 10:12:10.28	88.43	15.37	-39.8	-43.1	18.6	6.07e-01	0	55	0	165675008	50	5523
2026-01-07 10:12:11.29	88.22	15.44	-40.0	-43.5	18.1	6.07e-01	0	55	0	167772160	50	5737
2026-01-07 10:12:12.30	88.01	15.51	-40.0	-43.5	18.0	6.06e-01	0	55	0	169869312	50	5772
2026-01-07 10:12:13.31	87.80	15.58	-40.1	-43.8	17.5	6.08e-01	0	55	0	171442176	50	5984
2026-01-07 10:12:14.32	87.59	15.65	-40.2	-44.1	17.1	6.04e-01	0	55	0	173539328	50	6175
2026-01-07 10:12:15.33	87.38	15.72	-40.1	-44.1	17.1	6.06e-01	0	55	0	175112192	50	6132
2026-01-07 10:12:16.34	87.17	15.79	-40.1	-44.1	17.0	6.07e-01	0	55	0	177209344	50	6156
2026-01-07 10:12:17.35	86.95	15.85	-40.2	-44.3	16.8	6.03e-01	0	55	0	179306496	50	6282
2026-01-07 10:12:18.36	86.74	15.92	-40.3	-44.6	16.4	6.06e-01	0	55	0	180879360	51	6185
2026-01-07 10:12:19.37	86.52	15.99	-40.4	-44.7	16.3	6.08e-01	0	55	0	182976512	51	6254
2026-01-07 10:12:20.38	86.31	16.06	-40.4	-44.8	16.2	6.06e-01	0	55	0	185073664	51	6315
2026-01-07 10:12:21.39	86.09	16.13	-40.5	-45.0	15.9	6.04e-01	0	55	0	186646528	51	6446
2026-01-07 10:12:22.40	85.87	16.19	-40.6	-45.3	15.6	6.07e-01	0	55	0	188743680	51	6687
2026-01-07 10:12:23.41	85.65	16.26	-40.6	-45.3	15.6	6.06e-01	0	55	0	190316544	51	6651
2026-01-07 10:12:24.41	85.43	16.33	-40.6	-45.1	15.8	6.06e-01	0	55	0	192413696	51	6557
2026-01-07 10:12:25.42	85.21	16.39	-40.6	-45.0	16.0	6.07e-01	0	55	0	194510848	51	6483
2026-01-07 10:12:26.43	84.99	16.46	-40.7	-45.1	16.0	6.07e-01	0	55	0	196083712	51	6539
2026-01-07 10:12:27.44	84.76	16.53	-40.6	-44.9	16.4	6.07e-01	0	55	0	198180864	51	6375
2026-01-07 10:12:28.45	84.54	16.59	-40.6	-44.7	16.6	6.06e-01	0	55	0	199753728	51	6224
2026-01-07 10:12:29.46	84.31	16.66	-40.6	-44.6	16.8	6.06e-01	0	55	0	201850880	51	6171
2026-01-07 10:12:30.47	84.08	16.72	-40.6	-44.6	16.9	6.06e-01	0	55	0	203948032	51	6138
2026-01-07 10:12:31.48	83.85	16.79	-40.4	-44.2	17.4	6.07e-01	0	55	0	205520896	51	5862
2026-01-07 10:12:32.49	83.62	16.85	-40.4	-44.2	17.4	6.07e-01	0	55	0	207618048	51	5868
2026-01-07 10:12:33.50	83.39	16.92	-40.5	-44.2	17.4	6.05e-01	0	55	0	209715200	51	5912
2026-01-07 10:12:34.51	83.16	16.98	-40.4	-44.1	17.5	6.07e-01	0	55	0	211288064	51	5848
2026-01-07 10:12:35.52	82.93	17.05	-40.4	-44.1	17.6	6.06e-01	0	55	0	213385216	51	5801
2026-01-07 10:12:36.53	82.69	17.11	-40.2	-43.6	18.1	6.06e-01	0	55	0	214958080	51	5501
2026-01-07 10:12:37.54	82.46	17.18	-40.1	-43.4	18.4	6.08e-01	0	55	0	217055232	51	5359
2026-01-07 10:12:38.55	82.22	17.24	-40.1	-43.4	18.4	6.03e-01	0	55	0	219152384	51	5383
2026-01-07 10:12:39.56	81.99	17.30	-40.1	-43.4	18.5	6.05e-01	0	55	0	220725248	51	5372
2026-01-07 10:12:40.57	81.75	17.37	-40.2	-43.5	18.3	6.05e-01	0	55	0	222822400	51	5456
2026-01-07 10:12:41.58	81.51	17.43	-40.3	-43.8	18.0	6.07e-01	0	55	0	224395264	51	5594
2026-01-07 10:12:42.58	81.27	17.49	-40.4	-44.0	17.6	6.06e-01	0	55	0	226492416	51	5779
2026-01-07 10:12:43.59	81.03	17.55	-40.4	-44.3	17.1	6.06e-01	0	55	0	228589568	51	5991
2026-01-07 10:12:44.60	80.79	17.61	-40.4	-44.4	16.9	6.08e-01	0	55	0	230162432	51	6008
2026-01-07 10:12:45.61	80.54	17.67	-40.3	-44.3	16.9	6.06e-01	0	55	0	232259584	51	5941
2026-01-07 10:12:46.62	80.30	17.74	-40.3	-44.4	16.6	6.05e-01	0	55	0	233832448	51	6044
2026-01-07 10:12:47.63	80.05	17.80	-40.3	-44.6	16.3	6.06e-01	0	55	0	235929600	51	6164
2026-01-07 10:12:48.64	79.81	17.86	-40.4	-44.9	15.9	6.04e-01	0	55	0	238026752	51	6378
2026-01-07 10:12:49.65	79.56	17.92	-40.6	-45.3	15.5	6.07e-01	0	55	0	239599616	51	6697
2026-01-07 10:12:50.66	79.31	17.98	-40.6	-45.5	15.3	6.07e-01	0	55	0	241696768	51	6812
2026-01-07 10:12:51.67	79.06	18.03	-40.6	-45.4	15.4	6.08e-01	0	55	0	243269632	51	6766
2026-01-07 10:12:52.68	78.81	18.09	-40.5	-45.2	15.5	6.08e-01	0	55	0	245366784	51	6607
2026-01-07 10:12:53.69	78.56	18.15	-40.5	-45.2	15.5	6.07e-01	0	55	0	247463936	51	6635
2026-01-07 10:12:54.70	78.31	18.21	-40.6	-45.3	15.5	6.06e-01	0	55	0	249036800	51	6685
2026-01-07 10:12:55.70	78.06	18.27	-40.6	-45.4	15.4	6.09e-01	0	55	0	251133952	51	6785
2026-01-07 10:12:56.71	77.80	18.32	-40.6	-45.3	15.6	6.07e-01	0	55	0	253231104	51	6702
2026-01-07 10:12:57.72	77.54	18.38	-40.5	-45.0	15.9	6.08e-01	0	55	0	254803968	51	6487
2026-01-07 10:12:58.73	77.29	18.44	-40.6	-45.1	15.9	6.04e-01	0	55	0	256901120	51	6559
2026-01-07 10:12:59.74	77.03	18.49	-40.6	-45.2	15.7	6.07e-01	0	55	0	258473984	51	6626
2026-01-07 10:13:00.75	76.77	18.55	-40.6	-45.3	15.7	6.05e-01	0	55	0	260571136	51	6660
2026-01-07 10:13:01.76	76.51	18.60	-40.6	-45.2	15.7	6.06e-01	0	55	0	262668288	51	6631
2026-01-07 10:13:02.77	76.25	18.66	-40.5	-45.1	15.9	6.04e-01	0	55	0	264241152	51	6506
2026-01-07 10:13:03.78	75.99	18.71	-40.5	-45.1	15.8	6.08e-01	0	55	0	266338304	51	6540
2026-01-07 10:13:04.79	75.73	18.77	-40.5	-45.0	15.9	6.06e-01	0	55	0	267911168	51	6446
2026-01-07 10:13:05.80	75.46	18.82	-40.5	-45.0	16.0	6.06e-01	0	55	0	270008320	51	6452
2026-01-07 10:13:06.81	75.20	18.87	-40.5	-44.8	16.2	6.07e-01	0	55	0	272105472	51	6342
2026-01-07 10:13:07.82	74.93	18.92	-40.3	-44.5	16.6	6.06e-01	0	55	0	273678336	51	6100
2026-01-07 10:13:08.83	74.67	18.97	-40.3	-44.4	16.9	6.05e-01	0	55	0	275775488	51	6004
2026-01-07 10:13:09.83	74.40	19.03	-40.3	-44.3	17.0	6.06e-01	0	55	0	277348352	51	5930
2026-01-07 10:13:10.85	74.13	19.08	-40.4	-44.4	17.0	6.07e-01	0	55	0	279445504	51	6028
2026-01-07 10:13:11.86	73.86	19.13	-40.4	-44.4	17.0	6.08e-01	0	55	0	281542656	51	6025
2026-01-07 10:13:12.87	73.59	19.18	-40.5	-44.5	16.9	6.07e-01	0	55	0	283115520	51	6095
2026-01-07 10:13:13.87	73.32	19.23	-40.6	-44.6	16.9	6.07e-01	0	55	0	285212672	51	6144
2026-01-07 10:13:14.88	73.05	19.27	-40.5	-44.4	17.2	6.07e-01	0	55	0	286785536	51	6008
2026-01-07 10:13:15.89	72.78	19.32	-40.5	-44.4	17.2	6.05e-01	0	55	0	288882688	51	6008
2026-01-07 10:13:16.90	72.50	19.37	-40.5	-44.5	17.1	6.05e-01	0	55	0	290979840	51	6075
2026-01-07 10:13:17.91	72.23	19.42	-40.4	-44.2	17.5	6.03e-01	0	55	0	292552704	51	5869
2026-01-07 10:13:18.92	71.95	19.46	-40.4	-44.0	17.8	6.06e-01	0	55	0	294649856	51	5778
2026-01-07 10:13:19.93	71.67	19.51	-40.4	-44.0	17.9	6.07e-01	0	55	0	296222720	51	5757
2026-01-07 10:13:20.94	71.40	19.55	-40.5	-44.0	18.0	6.07e-01	0	55	0	298319872	51	5772
2026-01-07 10:13:21.95	71.12	19.60	-40.4	-43.8	18.3	6.07e-01	0	55	0	300417024	51	5622
2026-01-07 10:13:22.96	70.84	19.64	-40.5	-43.9	18.3	6.05e-01	0	55	0	301989888	51	5693
2026-01-07 10:13:23.97	70.56	19.69	-40.6	-43.9	18.4	6.05e-01	0	55	0	304087040	51	5696
2026-01-07 10:13:24.98	70.28	19.73	-40.6	-43.9	18.5	6.05e-01	0	55	0	306184192	51	5689
2026-01-07 10:13:25.99	70.00	19.77	-40.7	-44.0	18.5	6.06e-01	0	55	0	307757056	52	5427
2026-01-07 10:13:27.00	69.71	19.81	-40.8	-44.1	18.6	6.08e-01	0	55	0	309854208	52	5480
2026-01-07 10:13:28.00	69.43	19.85	-40.5	-43.5	19.2	6.07e-01	0	55	0	311427072	52	5140
2026-01-07 10:13:29.01	69.15	19.89	-40.3	-43.2	19.7	6.05e-01	0	55	0	313524224	52	4942
2026-01-07 10:13:30.02	68.86	19.93	-40.2	-43.0	20.0	6.06e-01	0	55	0	315621376	52	4836
2026-01-07 10:13:31.03	68.58	19.97	-40.2	-42.8	20.3	6.07e-01	0	55	0	317194240	52	4747
2026-01-07 10:13:32.04	68.29	20.01	-40.2	-42.8	20.4	6.07e-01	0	55	0	319291392	52	4742
2026-01-07 10:13:33.05	68.00	20.05	-40.3	-43.0	20.3	6.07e-01	0	55	0	321388544	52	4844
2026-01-07 10:13:34.06	67.72	20.09	-40.3	-43.0	20.3	6.10e-01	0	55	0	322961408	52	4826
2026-01-07 10:13:35.07	67.43	20.12	-40.3	-42.9	20.4	6.07e-01	0	55	0	325058560	52	4778
2026-01-07 10:13:36.08	67.14	20.16	-40.1	-42.6	20.7	6.08e-01	0	55	0	326631424	52	4638
2026-01-07 10:13:37.09	66.85	20.19	-40.0	-42.5	20.8	6.05e-01	0	55	0	328728576	52	4580
2026-01-07 10:13:38.10	66.56	20.23	-40.1	-42.6	20.8	6.07e-01	0	55	0	330825728	52	4625
2026-01-07 10:13:39.10	66.27	20.26	-40.2	-42.8	20.6	6.07e-01	0	55	0	332398592	52	4733
2026-01-07 10:13:40.12	65.97	20.29	-40.4	-43.0	20.4	6.05e-01	0	55	0	334495744	52	4840
2026-01-07 10:13:41.12	65.68	20.33	-40.4	-43.0	20.4	6.06e-01	0	55	0	336068608	52	4825
2026-01-07 10:13:42.13	65.39	20.36	-40.2	-42.7	20.7	6.07e-01	0	55	0	338165760	52	4695
2026-01-07 10:13:43.14	65.10	20.39	-40.3	-42.8	20.5	6.09e-01	0	55	0	340262912	52	4752
2026-01-07 10:13:44.16	64.80	20.42	-40.3	-42.9	20.5	6.08e-01	0	55	0	341835776	52	4787
2026-01-07 10:13:45.16	64.51	20.45	-40.2	-42.7	20.7	6.05e-01	0	55	0	343932928	52	4693
2026-01-07 10:13:46.17	64.21	20.48	-40.2	-42.6	20.8	6.07e-01	0	56	0	345505792	52	4641
2026-01-07 10:13:47.18	63.91	20.51	-40.0	-42.5	21.0	6.06e-01	0	55	0	347602944	52	4553
2026-01-07 10:13:48.19	63.62	20.53	-40.2	-42.6	20.8	6.07e-01	0	55	0	349700096	52	4641
2026-01-07 10:13:49.20	63.32	20.56	-40.3	-42.9	20.6	6.08e-01	0	55	0	351272960	52	4774
2026-01-07 10:13:50.21	63.02	20.58	-40.3	-42.8	20.6	6.06e-01	0	55	0	353370112	52	4735
2026-01-07 10:13:51.22	62.72	20.61	-40.0	-42.4	21.1	6.06e-01	0	55	0	354942976	52	4520
2026-01-07 10:13:52.23	62.42	20.63	-40.0	-42.4	21.2	6.06e-01	0	55	0	357040128	51	4760
2026-01-07 10:13:53.24	62.12	20.66	-40.1	-42.5	21.0	6.07e-01	0	56	0	359137280	51	4856
2026-01-07 10:13:54.25	61.82	20.68	-40.2	-42.7	20.9	6.06e-01	0	55	0	360710144	51	4957
2026-01-07 10:13:55.26	61.52	20.70	-40.2	-42.7	20.9	6.06e-01	0	56	0	362807296	51	4930
2026-01-07 10:13:56.27	61.22	20.72	-40.3	-42.8	20.7	6.07e-01	0	55	0	364380160	51	5028
2026-01-07 10:13:57.28	60.92	20.74	-40.3	-42.8	20.7	6.08e-01	0	56	0	366477312	51	5032
2026-01-07 10:13:58.29	60.62	20.76	-40.3	-42.8	20.8	6.06e-01	0	55	0	368574464	51	4984
2026-01-07 10:13:59.30	60.32	20.78	-40.4	-42.9	20.7	6.07e-01	0	55	0	370147328	51	5046
2026-01-07 10:14:00.31	60.01	20.80	-40.3	-42.8	20.8	6.06e-01	0	55	0	372244480	51	4995
2026-01-07 10:14:01.32	59.71	20.82	-40.2	-42.6	21.0	6.08e-01	0	55	0	374341632	51	4887
2026-01-07 10:14:02.33	59.41	20.83	-40.3	-42.8	20.8	6.09e-01	0	55	0	375914496	51	4987
2026-01-07 10:14:03.34	59.10	20.85	-40.3	-42.8	20.8	6.06e-01	0	56	0	378011648	51	5014
2026-01-07 10:14:04.35	58.80	20.86	-40.2	-42.6	20.9	6.06e-01	0	55	0	379584512	51	4914
2026-01-07 10:14:05.36	58.50	20.88	-40.1	-42.5	21.1	6.06e-01	0	55	0	381681664	51	4848
2026-01-07 10:14:06.38	58.19	20.89	-40.2	-42.6	21.1	6.04e-01	0	55	0	383778816	51	4882
2026-01-07 10:14:07.39	57.88	20.90	-40.3	-42.8	20.8	6.03e-01	0	56	0	385351680	51	4996
2026-01-07 10:14:08.40	57.58	20.92	-40.3	-42.7	20.9	6.06e-01	0	55	0	387448832	51	4972
2026-01-07 10:14:09.41	57.27	20.93	-40.3	-42.8	20.8	6.05e-01	0	56	0	389545984	51	4998
2026-01-07 10:14:10.41	56.97	20.94	-40.2	-42.6	21.0	6.07e-01	0	55	0	391118848	51	4884
2026-01-07 10:14:11.42	56.67	20.95	-40.1	-42.6	21.0	6.06e-01	0	55	0	393216000	51	4874
2026-01-07 10:14:12.44	56.36	20.95	-40.2	-42.6	20.9	6.08e-01	0	56	0	394788864	51	4913
2026-01-07 10:14:13.44	56.05	20.96	-40.2	-42.7	20.9	6.04e-01	0	56	0	396886016	51	4935
2026-01-07 10:14:14.45	55.75	20.97	-40.3	-42.8	20.8	6.06e-01	0	56	0	398983168	51	5008
2026-01-07 10:14:15.47	55.44	20.97	-40.3	-42.8	20.8	6.07e-01	0	56	0	400556032	51	5013
2026-01-07 10:14:16.48	55.13	20.98	-40.3	-42.8	20.8	6.07e-01	0	55	0	402653184	51	5016
2026-01-07 10:14:17.49	54.83	20.98	-40.2	-42.6	21.0	6.06e-01	0	55	0	404226048	51	4902
2026-01-07 10:14:18.50	54.52	20.99	-40.3	-42.7	20.9	6.05e-01	0	56	0	406323200	51	4959
2026-01-07 10:14:19.51	54.21	20.99	-40.2	-42.6	21.0	6.08e-01	0	56	0	408420352	51	4903
2026-01-07 10:14:20.51	53.91	20.99	-40.2	-42.6	21.0	6.05e-01	0	56	0	409993216	51	4915
2026-01-07 10:14:21.52	53.60	20.99	-40.1	-42.5	21.1	6.08e-01	0	56	0	412090368	51	4843
2026-01-07 10:14:22.53	53.30	20.99	-40.2	-42.6	20.9	6.05e-01	0	56	0	413663232	51	4924
2026-01-07 10:14:23.54	52.99	20.99	-40.2	-42.7	20.9	6.05e-01	0	55	0	415760384	51	4949
2026-01-07 10:14:24.55	52.68	20.99	-40.2	-42.6	21.0	6.06e-01	0	55	0	417857536	51	4901
2026-01-07 10:14:25.56	52.38	20.99	-40.2	-42.6	20.9	6.06e-01	0	56	0	419430400	51	4917
2026-01-07 10:14:26.57	52.07	20.98	-40.3	-42.7	20.9	6.07e-01	0	56	0	421527552	51	4958
2026-01-07 10:14:27.58	51.77	20.98	-40.4	-42.9	20.7	6.06e-01	0	56	0	423100416	51	5042
2026-01-07 10:14:28.59	51.46	20.97	-40.4	-42.9	20.7	6.05e-01	0	55	0	425197568	51	5061
2026-01-07 10:14:29.60	51.15	20.97	-40.5	-43.1	20.5	6.07e-01	0	55	0	427294720	51	5193
2026-01-07 10:14:30.61	50.85	20.96	-40.8	-52.8	3.8	7.45e-01	0	56	104	428343296	52	14909
2026-01-07 10:14:31.62	50.54	20.95	-40.9	-52.9	3.9	7.41e-01	0	56	104	428343296	52	15106
2026-01-07 10:14:32.63	50.24	20.95	-41.0	-53.1	3.8	7.42e-01	0	56	104	428343296	52	15454
2026-01-07 10:14:33.64	49.93	20.94	-40.9	-52.9	3.9	7.42e-01	0	56	104	428343296	52	15088
2026-01-07 10:14:34.65	49.62	20.93	-43.7	-57.5	3.8	7.46e-01	0	56	104	428343296	57	19180
2026-01-07 10:14:35.66	49.32	20.92	-41.0	-52.9	3.9	7.41e-01	0	55	104	428343296	53	14365
2026-01-07 10:14:36.67	49.02	20.90	-42.4	-55.0	3.8	7.45e-01	0	55	104	428343296	56	15365
2026-01-07 10:14:37.68	48.71	20.89	-40.9	-52.7	3.9	7.43e-01	0	56	104	428343296	53	13914
2026-01-07 10:14:38.69	48.41	20.88	-41.7	-54.1	3.9	7.41e-01	0	55	104	428343296	55	14665
2026-01-07 10:14:39.70	48.10	20.87	-40.8	-52.8	3.9	7.44e-01	0	56	104	428343296	53	14124
2026-01-07 10:14:40.71	47.80	20.85	-40.7	-52.6	3.9	7.44e-01	0	56	104	428343296	53	13758
2026-01-07 10:14:41.72	47.50	20.84	-40.6	-52.4	3.9	7.45e-01	0	56	104	428343296	53	13544
2026-01-07 10:14:42.73	47.19	20.82	-41.8	-54.2	3.8	7.39e-01	0	56	104	428343296	54	15737
2026-01-07 10:14:43.74	46.89	20.80	-41.6	-53.9	3.8	7.47e-01	0	56	104	428343296	53	15998
2026-01-07 10:14:44.75	46.59	20.78	-43.3	-56.9	3.8	7.45e-01	0	56	104	428343296	57	17933
2026-01-07 10:14:45.76	46.29	20.77	-43.4	-56.8	3.8	7.46e-01	0	56	104	428343296	57	17841
2026-01-07 10:14:46.77	45.98	20.75	-41.0	-52.9	3.7	7.45e-01	0	56	104	428343296	54	13532
2026-01-07 10:14:47.78	45.68	20.73	-40.6	-52.3	3.7	7.55e-01	0	56	104	428343296	53	13401
2026-01-07 10:14:48.80	45.38	20.70	-40.7	-52.3	4.2	7.30e-01	0	56	104	428343296	53	13396
2026-01-07 10:14:49.81	45.08	20.68	-42.6	-55.5	3.8	7.47e-01	0	56	104	428343296	55	17135
2026-01-07 10:14:50.82	44.78	20.66	-42.6	-55.3	4.1	7.33e-01	0	56	104	428343296	56	15873
2026-01-07 10:14:51.83	44.48	20.64	-41.9	-54.2	3.7	7.52e-01	0	56	104	428343296	54	15628
2026-01-07 10:14:52.84	44.18	20.61	-43.2	-56.3	3.8	7.44e-01	0	56	104	428343296	56	17730
2026-01-07 10:14:53.85	43.88	20.59	-44.6	-59.6	3.8	7.45e-01	0	56	104	428343296	59	21779
2026-01-07 10:14:54.86	43.59	20.56	-41.5	-53.9	3.8	7.47e-01	0	56	104	428343296	55	14272
2026-01-07 10:14:55.87	43.29	20.54	-40.7	-52.6	3.8	7.42e-01	0	56	104	428343296	53	13800
2026-01-07 10:14:56.88	42.99	20.51	-40.6	-52.4	3.8	7.43e-01	0	56	104	428343296	53	13560
2026-01-07 10:14:57.89	42.70	20.48	-43.4	-56.9	3.8	7.45e-01	0	56	104	428343296	57	17976
2026-01-07 10:14:58.90	42.40	20.45	-43.8	-57.9	3.8	7.42e-01	0	56	104	428343296	58	19058
2026-01-07 10:14:59.91	42.11	20.42	-44.6	-59.8	3.8	7.45e-01	0	56	104	428343296	59	22395
2026-01-07 10:15:00.92	41.81	20.39	-42.5	-55.3	3.8	7.42e-01	0	56	104	428343296	56	15922
2026-01-07 10:15:01.93	41.52	20.36	-42.5	-55.3	3.8	7.46e-01	0	56	104	428343296	55	16844
2026-01-07 10:15:02.94	41.23	20.33	-41.5	-53.7	3.8	7.46e-01	0	56	104	428343296	55	14002
2026-01-07 10:15:03.95	40.93	20.30	-40.7	-52.7	3.8	7.46e-01	0	56	104	428343296	53	14013
2026-01-07 10:15:04.96	40.64	20.26	-40.7	-52.6	3.8	7.47e-01	0	56	104	428343296	53	13796
2026-01-07 10:15:05.97	40.35	20.23	-40.6	-52.4	3.8	7.41e-01	0	56	104	428343296	52	14309
2026-01-07 10:15:06.99	40.06	20.20	-43.6	-57.4	3.8	7.40e-01	0	56	104	428343296	57	19048
2026-01-07 10:15:08.00	39.77	20.16	-44.8	-60.9	3.9	7.49e-01	0	56	104	428343296	60	23926
2026-01-07 10:15:09.00	39.48	20.13	-42.6	-55.4	3.8	7.43e-01	0	56	104	428343296	56	16117
2026-01-07 10:15:10.01	39.20	20.09	-43.0	-56.2	3.8	7.44e-01	0	56	104	428343296	56	17520
2026-01-07 10:15:11.02	38.91	20.05	-41.4	-53.7	3.8	7.40e-01	0	56	104	428343296	54	14768
2026-01-07 10:15:12.03	38.62	20.02	-40.6	-52.5	3.8	7.44e-01	0	56	104	428343296	53	13610
2026-01-07 10:15:13.04	38.34	19.98	-40.5	-52.3	3.8	7.42e-01	0	56	104	428343296	53	13380
2026-01-07 10:15:14.05	38.05	19.94	-40.6	-52.5	3.8	7.44e-01	0	56	104	428343296	52	14426
2026-01-07 10:15:15.06	37.77	19.90	-43.3	-56.8	3.8	7.43e-01	0	56	104	428343296	57	17831
2026-01-07 10:15:16.07	37.48	19.86	-42.5	-55.5	3.8	7.43e-01	0	56	104	428343296	55	17091
2026-01-07 10:15:17.08	37.20	19.82	-43.7	-57.6	3.9	7.44e-01	0	56	104	428343296	58	18320
2026-01-07 10:15:18.09	36.92	19.78	-44.6	-60.8	3.8	7.46e-01	0	56	104	428343296	60	23588
2026-01-07 10:15:19.10	36.64	19.73	-40.6	-52.4	3.8	7.46e-01	0	56	104	428343296	52	14229
2026-01-07 10:15:20.11	36.36	19.69	-40.6	-52.5	3.8	7.41e-01	0	56	104	428343296	52	14535
2026-01-07 10:15:21.12	36.08	19.65	-40.6	-52.5	3.8	7.43e-01	0	56	104	428343296	52	14485
2026-01-07 10:15:22.13	35.80	19.60	-43.2	-56.4	3.8	7.42e-01	0	56	104	428343296	57	17037
2026-01-07 10:15:23.14	35.52	19.56	-43.1	-56.5	3.8	7.42e-01	0	56	104	428343296	57	17175
2026-01-07 10:15:24.15	35.24	19.51	-44.5	-60.3	3.9	7.43e-01	0	56	104	428343296	60	22346
2026-01-07 10:15:25.16	34.97	19.47	-42.1	-54.7	3.8	7.40e-01	0	56	104	428343296	56	14722
2026-01-07 10:15:26.16	34.70	19.42	-43.1	-56.4	3.8	7.42e-01	0	56	104	428343296	56	18038
2026-01-07 10:15:27.17	34.42	19.38	-40.7	-52.5	3.9	7.45e-01	0	56	104	428343296	53	13653
2026-01-07 10:15:28.18	34.15	19.33	-40.7	-52.6	3.8	7.42e-01	0	56	104	428343296	53	13860
2026-01-07 10:15:29.19	33.88	19.28	-40.7	-52.6	3.8	7.44e-01	0	56	104	428343296	53	13870
2026-01-07 10:15:30.21	33.60	19.23	-40.4	-52.2	3.8	7.44e-01	0	56	104	428343296	52	14035
2026-01-07 10:15:31.22	33.33	19.18	-42.6	-55.6	3.8	7.45e-01	0	56	104	428343296	57	15425
2026-01-07 10:15:32.23	33.06	19.13	-42.1	-54.7	3.8	7.47e-01	0	56	104	428343296	55	15587
2026-01-07 10:15:33.24	32.79	19.08	-42.5	-55.4	3.9	7.42e-01	0	56	104	428343296	57	15179
2026-01-07 10:15:34.24	32.53	19.03	-44.3	-59.8	3.8	7.45e-01	0	56	104	428343296	60	21024
2026-01-07 10:15:35.25	32.26	18.98	-40.7	-52.6	3.8	7.44e-01	0	56	104	428343296	53	13789
2026-01-07 10:15:36.26	32.00	18.93	-40.5	-52.3	3.8	7.43e-01	0	56	104	428343296	53	13376
2026-01-07 10:15:37.27	31.73	18.88	-40.4	-52.2	3.8	7.43e-01	0	56	104	428343296	52	13955
2026-01-07 10:15:38.28	31.47	18.83	-41.5	-53.8	3.8	7.44e-01	0	56	104	428343296	54	15024
2026-01-07 10:15:39.29	31.20	18.77	-41.4	-53.5	3.8	7.46e-01	0	56	104	428343296	54	14385
2026-01-07 10:15:40.31	30.94	18.72	-42.6	-55.5	3.8	7.45e-01	0	56	104	428343296	57	15230
2026-01-07 10:15:41.31	30.68	18.67	-41.4	-53.5	3.9	7.40e-01	0	56	104	428343296	54	14405
2026-01-07 10:15:42.32	30.42	18.61	-44.5	-60.4	3.9	7.41e-01	0	56	104	428343296	60	22761
2026-01-07 10:15:43.34	30.16	18.56	-40.7	-52.5	3.8	7.43e-01	0	56	104	428343296	53	13720
2026-01-07 10:15:44.35	29.90	18.50	-40.5	-52.3	3.8	7.45e-01	0	56	104	428343296	53	13292
2026-01-07 10:15:45.36	29.65	18.45	-40.5	-52.4	3.8	7.44e-01	0	56	104	428343296	52	14294
2026-01-07 10:15:46.37	29.39	18.39	-43.3	-56.8	3.8	7.42e-01	0	56	104	428343296	57	17812
2026-01-07 10:15:47.38	29.14	18.33	-40.8	-52.9	3.8	7.41e-01	0	56	104	428343296	53	14282
2026-01-07 10:15:48.39	28.88	18.28	-43.9	-58.8	3.8	7.44e-01	0	56	104	428343296	60	18891
2026-01-07 10:15:49.40	28.63	18.22	-40.7	-52.7	3.8	7.45e-01	0	56	104	428343296	53	14043
2026-01-07 10:15:50.40	28.38	18.16	-42.5	-55.4	3.8	7.43e-01	0	56	104	428343296	56	15965
2026-01-07 10:15:51.41	28.13	18.10	-40.6	-52.6	3.8	7.46e-01	0	56	104	428343296	53	13738
2026-01-07 10:15:52.42	27.88	18.05	-40.5	-52.5	3.8	7.46e-01	0	56	104	428343296	53	13616
2026-01-07 10:15:53.43	27.63	17.99	-40.4	-52.3	3.8	7.43e-01	0	56	104	428343296	52	14116
2026-01-07 10:15:54.44	27.38	17.93	-40.5	-52.5	3.8	7.44e-01	0	56	104	428343296	52	14376
2026-01-07 10:15:55.45	27.14	17.87	-40.3	-52.1	3.8	7.44e-01	0	56	104	428343296	52	13772
2026-01-07 10:15:56.46	26.89	17.81	-43.5	-57.3	3.9	7.43e-01	0	56	104	428343296	59	16884
2026-01-07 10:15:57.47	26.65	17.75	-40.5	-52.3	3.8	7.43e-01	0	56	104	428343296	53	13364
2026-01-07 10:15:58.48	26.40	17.69	-42.2	-54.9	3.8	7.42e-01	0	56	104	428343296	56	15165
2026-01-07 10:15:59.49	26.16	17.63	-40.6	-52.4	3.8	7.45e-01	0	56	104	428343296	53	13495
2026-01-07 10:16:00.50	25.92	17.56	-40.5	-52.4	3.8	7.44e-01	0	56	104	428343296	53	13534
2026-01-07 10:16:01.51	25.68	17.50	-40.3	-52.1	3.8	7.43e-01	0	56	104	428343296	52	13733
2026-01-07 10:16:02.52	25.44	17.44	-40.7	-52.7	3.8	7.44e-01	0	56	104	428343296	52	14867
2026-01-07 10:16:03.53	25.20	17.38	-40.4	-52.2	3.8	7.44e-01	0	56	104	428343296	52	13919
2026-01-07 10:16:04.55	24.96	17.32	-42.9	-55.9	3.8	7.43e-01	0	56	104	428343296	57	16072
2026-01-07 10:16:05.56	24.73	17.25	-40.4	-52.2	3.8	7.44e-01	0	56	104	428343296	52	13994
2026-01-07 10:16:06.57	24.49	17.19	-41.8	-54.2	3.8	7.45e-01	0	56	104	428343296	55	14737
2026-01-07 10:16:07.57	24.26	17.13	-40.7	-52.6	3.8	7.46e-01	0	56	104	428343296	53	13874
2026-01-07 10:16:08.58	24.03	17.06	-40.5	-52.3	3.8	7.45e-01	0	56	104	428343296	53	13393
2026-01-07 10:16:09.59	23.80	17.00	-40.2	-52.0	3.8	7.43e-01	0	56	104	428343296	52	13637
2026-01-07 10:16:10.61	23.56	16.93	-41.2	-53.4	3.8	7.45e-01	0	56	104	428343296	52	16112
2026-01-07 10:16:11.62	23.33	16.87	-41.7	-54.0	3.8	7.44e-01	0	56	104	428343296	53	16184
2026-01-07 10:16:12.63	23.10	16.80	-42.7	-55.9	3.8	7.44e-01	0	56	104	428343296	57	16077
2026-01-07 10:16:13.63	22.88	16.74	-40.5	-52.4	3.8	7.47e-01	0	56	104	428343296	52	14269
2026-01-07 10:16:14.65	22.65	16.67	-41.5	-53.7	3.8	7.43e-01	0	56	104	428343296	55	13985
2026-01-07 10:16:15.66	22.42	16.61	-40.6	-52.5	3.8	7.43e-01	0	56	104	428343296	53	13574
2026-01-07 10:16:16.67	22.20	16.54	-40.5	-52.3	3.8	7.44e-01	0	56	104	428343296	52	14202
2026-01-07 10:16:17.68	21.98	16.48	-40.4	-52.4	3.8	7.45e-01	0	56	104	428343296	52	14316
2026-01-07 10:16:18.69	21.75	16.41	-41.6	-54.0	3.8	7.47e-01	0	56	104	428343296	53	16226
2026-01-07 10:16:19.70	21.53	16.34	-41.2	-53.5	3.8	7.47e-01	0	56	104	428343296	53	15319
2026-01-07 10:16:20.71	21.31	16.28	-41.6	-54.0	3.8	7.45e-01	0	56	104	428343296	54	15274
2026-01-07 10:16:21.72	21.09	16.21	-43.1	-56.6	3.8	7.44e-01	0	56	104	428343296	56	18438
2026-01-07 10:16:22.73	20.88	16.14	-41.3	-53.6	3.8	7.43e-01	0	56	104	428343296	54	14606
2026-01-07 10:16:23.74	20.66	16.08	-40.5	-52.4	3.8	7.42e-01	0	56	104	428343296	52	14259
2026-01-07 10:16:24.75	20.44	16.01	-40.5	-52.5	3.8	7.43e-01	0	56	104	428343296	52	14402
2026-01-07 10:16:25.76	20.23	15.94	-41.6	-54.1	3.9	7.45e-01	0	56	104	428343296	53	16445
2026-01-07 10:16:26.77	20.02	15.87	-42.3	-55.2	3.8	7.49e-01	0	56	104	428343296	55	16625
2026-01-07 10:16:27.79	19.80	15.80	-43.7	-57.7	3.8	7.50e-01	0	56	104	428343296	57	19718
2026-01-07 10:16:28.80	19.59	15.74	-42.5	-55.4	3.8	7.45e-01	0	56	104	428343296	57	15213
2026-01-07 10:16:29.81	19.38	15.67	-41.6	-54.0	3.8	7.47e-01	0	56	104	428343296	53	16198
2026-01-07 10:16:30.82	19.17	15.60	-41.3	-53.6	3.8	7.44e-01	0	56	104	428343296	54	14563
2026-01-07 10:16:31.83	18.96	15.53	-40.5	-52.5	3.8	7.47e-01	0	56	104	428343296	53	13662
2026-01-07 10:16:32.84	18.75	15.46	-40.4	-52.3	3.8	7.44e-01	0	56	104	428343296	52	14167
2026-01-07 10:16:33.85	18.55	15.39	-40.5	-52.4	3.8	7.44e-01	0	56	104	428343296	52	14373
2026-01-07 10:16:34.86	18.34	15.32	-41.8	-54.5	3.8	7.45e-01	0	56	104	428343296	54	16301
2026-01-07 10:16:35.87	18.14	15.25	-44.4	-60.2	3.7	7.46e-01	0	56	104	428343296	59	23312
2026-01-07 10:16:36.89	17.93	15.18	-42.5	-55.6	3.8	7.48e-01	0	56	104	428343296	56	16387
2026-01-07 10:16:37.90	17.73	15.12	-42.3	-55.5	3.8	7.44e-01	0	56	104	428343296	55	17123
2026-01-07 10:16:38.91	17.53	15.05	-41.1	-53.3	3.8	7.45e-01	0	56	104	428343296	54	14098
2026-01-07 10:16:39.92	17.33	14.98	-40.8	-52.9	3.8	7.46e-01	0	56	104	428343296	53	14324
2026-01-07 10:16:40.93	17.13	14.91	-40.7	-52.8	3.8	7.45e-01	0	56	104	428343296	53	14091
2026-01-07 10:16:41.94	16.93	14.84	-40.7	-52.8	3.8	7.39e-01	0	56	104	428343296	53	14154
2026-01-07 10:16:42.95	16.73	14.77	-42.9	-56.6	3.8	7.44e-01	0	56	104	428343296	56	18353
2026-01-07 10:16:43.96	16.54	14.70	-42.4	-55.4	3.8	7.43e-01	0	56	104	428343296	55	16917
2026-01-07 10:16:44.97	16.34	14.63	-42.1	-54.9	3.8	7.44e-01	0	56	104	428343296	54	16917
2026-01-07 10:16:45.98	16.15	14.56	-44.6	-61.4	3.8	7.47e-01	0	56	104	428343296	59	27000
2026-01-07 10:16:46.99	15.95	14.49	-40.6	-52.7	3.8	7.44e-01	0	56	104	428343296	53	14026
2026-01-07 10:16:48.00	15.76	14.41	-40.7	-52.8	3.8	7.45e-01	0	56	104	428343296	53	14096
2026-01-07 10:16:49.01	15.57	14.34	-40.6	-52.6	3.8	7.48e-01	0	56	104	428343296	53	13877
2026-01-07 10:16:50.02	15.38	14.27	-43.9	-59.0	3.8	7.44e-01	0	56	104	428343296	58	21619
2026-01-07 10:16:51.03	15.19	14.20	-42.0	-54.8	3.9	7.44e-01	0	56	104	428343296	54	16842
2026-01-07 10:16:52.04	15.00	14.13	-44.7	-62.0	3.8	7.48e-01	0	56	104	428343296	59	28847
2026-01-07 10:16:53.05	14.81	14.06	-42.4	-55.6	3.8	7.46e-01	0	56	104	428343296	56	16421
2026-01-07 10:16:54.06	14.63	13.99	-43.0	-56.5	3.8	7.45e-01	0	56	104	428343296	56	18231
2026-01-07 10:16:55.07	14.44	13.92	-41.1	-53.5	3.8	7.44e-01	0	56	104	428343296	54	14408
2026-01-07 10:16:56.08	14.26	13.85	-40.6	-52.6	3.8	7.43e-01	0	56	104	428343296	53	13866
2026-01-07 10:16:57.10	14.07	13.78	-40.6	-52.6	3.8	7.44e-01	0	56	104	428343296	53	13837
2026-01-07 10:16:58.11	13.89	13.71	-40.9	-53.2	3.8	7.45e-01	0	56	104	428343296	53	14742
2026-01-07 10:16:59.12	13.71	13.63	-42.8	-56.5	3.8	7.45e-01	0	56	104	428343296	56	18177
2026-01-07 10:17:00.13	13.53	13.56	-42.3	-55.7	3.8	7.42e-01	0	56	104	428343296	55	17648
2026-01-07 10:17:01.14	13.35	13.49	-41.9	-54.9	3.8	7.42e-01	0	56	104	428343296	54	16994
2026-01-07 10:17:02.15	13.17	13.42	-44.4	-61.6	3.8	7.45e-01	0	56	104	428343296	59	27529
2026-01-07 10:17:03.16	12.99	13.35	-40.8	-53.1	3.8	7.45e-01	0	56	104	428343296	53	14568
2026-01-07 10:17:04.17	12.81	13.28	-40.7	-52.8	3.8	7.46e-01	0	56	104	428343296	53	14124
2026-01-07 10:17:05.18	12.64	13.21	-40.4	-52.4	3.8	7.42e-01	0	56	104	428343296	52	14267
2026-01-07 10:17:06.19	12.46	13.14	-42.4	-55.7	3.8	7.44e-01	0	56	104	428343296	55	17577
2026-01-07 10:17:07.20	12.29	13.06	-41.2	-53.8	3.8	7.43e-01	0	56	104	428343296	54	14915
2026-01-07 10:17:08.21	12.12	12.99	-44.1	-61.1	3.9	7.45e-01	0	56	104	428343296	59	26116
2026-01-07 10:17:09.22	11.94	12.92	-41.6	-54.9	3.8	7.45e-01	0	56	104	428343296	55	15965
2026-01-07 10:17:10.23	11.77	12.85	-42.8	-56.5	3.8	7.42e-01	0	56	104	428343296	56	18243
2026-01-07 10:17:11.24	11.60	12.78	-40.7	-53.1	3.8	7.46e-01	0	56	104	428343296	53	14673
2026-01-07 10:17:12.25	11.43	12.71	-40.7	-53.1	3.8	7.44e-01	0	56	104	428343296	53	14556
2026-01-07 10:17:13.26	11.26	12.64	-40.5	-52.6	3.8	7.45e-01	0	56	104	428343296	52	14546
2026-01-07 10:17:14.27	11.10	12.56	-40.1	-52.3	3.8	7.43e-01	0	56	104	428343296	52	14069
2026-01-07 10:17:15.28	10.93	12.49	-40.6	-53.1	3.9	7.45e-01	0	56	104	428343296	53	14541
2026-01-07 10:17:16.28	10.77	12.42	-43.3	-61.3	3.8	7.46e-01	0	56	104	428343296	57	29759
2026-01-07 10:17:17.29	10.60	12.35	-40.6	-53.4	3.8	7.43e-01	0	56	104	428343296	53	15189
2026-01-07 10:17:18.31	10.43	12.28	-41.8	-55.2	3.8	7.45e-01	0	56	104	428343296	54	17500
2026-01-07 10:17:19.32	10.27	12.21	-40.0	-52.3	3.8	7.46e-01	0	56	104	428343296	52	14064
2026-01-07 10:17:20.33	10.11	12.14	-39.8	-52.1	3.8	7.46e-01	0	56	104	428343296	51	14545
2026-01-07 10:17:21.34	9.95	12.07	-39.6	-51.8	3.8	7.47e-01	0	56	104	428343296	51	14094
2026-01-07 10:17:22.35	9.79	11.99	-39.5	-51.8	3.9	7.42e-01	0	56	104	428343296	51	14200
2026-01-07 10:17:23.36	9.63	11.92	-40.6	-53.7	3.9	7.41e-01	0	56	104	428343296	53	15701
2026-01-07 10:17:24.37	9.47	11.85	-40.3	-53.7	3.8	7.42e-01	0	56	104	428343296	51	17529
2026-01-07 10:17:25.37	9.31	11.78	-40.1	-53.0	3.8	7.44e-01	0	56	104	428343296	52	15348
2026-01-07 10:17:26.38	9.15	11.71	-40.9	-58.0	3.9	7.44e-01	0	56	104	428343296	52	27366
2026-01-07 10:17:27.39	9.00	11.64	-40.5	-54.5	3.8	7.43e-01	0	56	104	428343296	52	18231
2026-01-07 10:17:28.40	8.84	11.57	-40.6	-55.0	3.8	7.44e-01	0	56	104	428343296	52	19384
2026-01-07 10:17:29.41	8.69	11.50	-40.8	-55.5	3.8	7.44e-01	0	56	104	428343296	52	20444
2026-01-07 10:17:30.42	8.53	11.43	-41.4	-57.0	3.8	7.45e-01	0	56	104	428343296	54	21742
2026-01-07 10:17:31.43	8.38	11.35	-40.9	-57.6	3.8	7.45e-01	0	56	104	428343296	53	24542
2026-01-07 10:17:32.44	8.23	11.28	-42.1	-58.5	3.9	7.47e-01	0	56	104	428343296	54	25662
2026-01-07 10:17:33.45	8.08	11.21	-41.5	-57.5	3.8	7.45e-01	0	56	104	428343296	54	23035
2026-01-07 10:17:34.46	7.92	11.14	-41.0	-59.7	3.8	7.47e-01	0	56	104	428343296	53	31258
2026-01-07 10:17:35.47	7.77	11.07	-41.3	-59.0	3.8	7.43e-01	0	56	104	428343296	53	28995
2026-01-07 10:17:36.48	7.63	11.00	-41.2	-59.3	3.8	7.46e-01	0	56	104	428343296	53	29766
2026-01-07 10:17:37.49	7.48	10.93	-41.0	-59.7	3.8	7.45e-01	0	56	104	428343296	53	31208
2026-01-07 10:17:38.50	7.33	10.86	-41.1	-59.8	3.8	7.44e-01	0	56	104	428343296	53	31482
2026-01-07 10:17:39.51	7.18	10.79	-41.1	-59.9	3.8	7.45e-01	0	56	104	428343296	54	30316
2026-01-07 10:17:40.52	7.04	10.72	-40.8	-59.7	3.8	7.46e-01	0	56	104	428343296	53	31258
2026-01-07 10:17:41.53	6.89	10.65	-40.9	-59.8	3.8	7.46e-01	0	56	104	428343296	53	31515
2026-01-07 10:17:42.54	6.75	10.58	-40.9	-59.7	3.8	7.43e-01	0	56	104	428343296	53	31437
2026-01-07 10:17:43.55	6.60	10.51	-40.8	-59.7	3.8	7.44e-01	0	56	104	428343296	53	31383
2026-01-07 10:17:44.56	6.46	10.44	-40.8	-59.7	3.8	7.47e-01	0	56	104	428343296	53	31237
2026-01-07 10:17:45.57	6.32	10.37	-40.7	-59.7	3.8	7.42e-01	0	56	104	428343296	53	31104
2026-01-07 10:17:46.58	6.18	10.29	-40.7	-59.7	3.8	7.47e-01	0	56	104	428343296	53	31149
2026-01-07 10:17:47.59	6.04	10.22	-40.9	-59.8	3.8	7.45e-01	0	56	104	428343296	53	31790
2026-01-07 10:17:48.60	5.90	10.15	-41.1	-60.0	3.8	7.44e-01	0	56	104	428343296	53	32462
2026-01-07 10:17:49.61	5.76	10.08	-40.8	-59.8	3.8	7.46e-01	0	56	104	428343296	53	31452
2026-01-07 10:17:50.62	5.62	10.01	-40.8	-59.9	3.8	7.45e-01	0	56	104	428343296	53	31859
2026-01-07 10:17:51.63	5.48	9.94	-40.7	-59.7	3.8	7.47e-01	0	56	104	428343296	53	31124
2026-01-07 10:17:52.64	5.34	9.87	-40.7	-59.6	3.8	7.45e-01	0	56	104	428343296	53	30775
2026-01-07 10:17:53.65	5.21	9.81	-40.7	-59.7	3.8	7.48e-01	0	56	104	428343296	53	31321
2026-01-07 10:17:54.66	5.07	9.74	-40.7	-59.6	3.8	7.47e-01	0	56	104	428343296	53	30933
2026-01-07 10:17:55.67	4.94	9.67	-40.7	-59.6	3.8	7.46e-01	0	57	104	428343296	53	31035
2026-01-07 10:17:56.68	4.80	9.60	-40.7	-59.8	3.8	7.48e-01	0	56	104	428343296	53	31556
2026-01-07 10:17:57.69	4.67	9.53	-40.6	-59.5	3.8	7.46e-01	0	56	104	428343296	53	30629
2026-01-07 10:17:58.70	4.54	9.46	-40.8	-59.7	3.8	7.42e-01	0	56	104	428343296	53	31350
2026-01-07 10:17:59.71	4.41	9.39	-40.6	-59.6	3.8	7.42e-01	0	56	104	428343296	53	30765
2026-01-07 10:18:00.72	4.27	9.32	-40.6	-59.6	3.8	7.46e-01	0	56	104	428343296	53	31004
2026-01-07 10:18:01.73	4.14	9.25	-40.7	-59.6	3.8	7.50e-01	0	56	104	428343296	53	30936
2026-01-07 10:18:02.74	4.01	9.18	-40.6	-59.6	3.8	7.43e-01	0	56	104	428343296	53	30914
2026-01-07 10:18:03.76	3.88	9.11	-40.7	-59.6	3.8	7.46e-01	0	56	104	428343296	53	30910
2026-01-07 10:18:04.77	3.75	9.04	-40.8	-59.7	3.8	7.45e-01	0	56	104	428343296	53	31436
2026-01-07 10:18:05.78	3.63	8.97	-40.6	-59.6	3.8	7.45e-01	0	56	104	428343296	53	30998
2026-01-07 10:18:06.79	3.50	8.90	-40.6	-59.6	3.8	7.43e-01	0	56	104	428343296	53	31080
2026-01-07 10:18:07.80	3.37	8.84	-40.6	-59.6	3.8	7.44e-01	0	56	104	428343296	53	30824
2026-01-07 10:18:08.81	3.25	8.77	-40.6	-59.6	3.8	7.45e-01	0	56	104	428343296	53	30755
2026-01-07 10:18:09.82	3.12	8.70	-40.6	-59.6	3.8	7.43e-01	0	56	104	428343296	53	30859
2026-01-07 10:18:10.83	3.00	8.63	-40.6	-59.6	3.8	7.45e-01	0	56	104	428343296	53	30828
2026-01-07 10:18:11.84	2.87	8.56	-40.5	-59.5	3.8	7.47e-01	0	56	104	428343296	53	30710
2026-01-07 10:18:12.85	2.75	8.49	-40.6	-59.6	3.8	7.43e-01	0	57	104	428343296	53	31051
2026-01-07 10:18:13.86	2.63	8.43	-40.6	-59.6	3.8	7.47e-01	0	56	104	428343296	53	30800
2026-01-07 10:18:14.87	2.50	8.36	-40.7	-59.7	3.8	7.42e-01	0	57	104	428343296	53	31241
2026-01-07 10:18:15.88	2.38	8.29	-40.5	-59.6	3.8	7.46e-01	0	57	104	428343296	53	30877
2026-01-07 10:18:16.89	2.26	8.22	-40.2	-59.6	3.8	7.46e-01	0	56	104	428343296	52	32851
2026-01-07 10:18:17.90	2.14	8.15	-40.6	-59.5	3.8	7.47e-01	0	56	104	428343296	52	32542
2026-01-07 10:18:18.91	2.02	8.09	-40.1	-59.6	3.8	7.46e-01	0	57	104	428343296	52	32686
2026-01-07 10:18:19.92	1.90	8.02	-40.6	-59.6	3.8	7.47e-01	0	57	104	428343296	52	32699
2026-01-07 10:18:20.93	1.79	7.95	-40.8	-59.8	3.8	7.42e-01	0	57	104	428343296	52	33428
2026-01-07 10:18:21.95	1.67	7.88	-44.8	-63.8	3.8	7.47e-01	0	56	104	428343296	60	33330
2026-01-07 10:18:22.96	1.55	7.82	-45.6	-64.4	3.8	7.45e-01	0	56	104	428343296	61	34047
2026-01-07 10:18:23.97	1.43	7.75	-45.8	-64.7	3.8	7.47e-01	0	57	104	428343296	62	32987
2026-01-07 10:18:24.98	1.32	7.68	-46.0	-64.8	3.8	7.45e-01	0	56	104	428343296	62	33550
2026-01-07 10:18:25.99	1.20	7.61	-46.1	-64.9	3.8	7.44e-01	0	56	104	428343296	62	34018
2026-01-07 10:18:27.00	1.09	7.55	-46.1	-65.0	3.8	7.45e-01	0	56	104	428343296	62	34374
2026-01-07 10:18:28.01	0.97	7.48	-46.3	-65.1	3.8	7.46e-01	0	56	104	428343296	63	32837
2026-01-07 10:18:29.02	0.86	7.41	-46.3	-65.1	3.8	7.46e-01	0	56	104	428343296	63	32769
2026-01-07 10:18:30.03	0.75	7.35	-46.3	-65.1	3.8	7.44e-01	0	56	104	428343296	63	32830
2026-01-07 10:18:31.05	0.63	7.28	-46.2	-65.0	3.8	7.47e-01	0	56	104	428343296	63	32521
2026-01-07 10:18:32.06	0.52	7.21	-46.1	-65.0	3.8	7.43e-01	0	57	104	428343296	63	32241
2026-01-07 10:18:33.07	0.41	7.15	-46.1	-64.9	3.8	7.44e-01	0	57	104	428343296	63	32154
2026-01-07 10:18:34.08	0.30	7.08	-46.1	-65.0	3.8	7.42e-01	0	56	104	428343296	63	32210
2026-01-07 10:18:35.09	0.19	7.01	-46.1	-64.9	3.8	7.44e-01	0	57	104	428343296	63	32174
2026-01-07 10:18:36.10	0.08	6.95	-46.0	-64.9	3.8	7.46e-01	0	57	104	428343296	63	32020
2026-01-07 10:18:37.11	359.97	6.88	-46.0	-64.9	3.8	7.43e-01	0	56	104	428343296	63	32006
2026-01-07 10:18:38.12	359.86	6.82	-46.0	-64.9	3.8	7.48e-01	0	56	104	428343296	63	32029
2026-01-07 10:18:39.13	359.76	6.75	-46.0	-64.9	3.8	7.47e-01	0	57	104	428343296	63	31943
2026-01-07 10:18:40.15	359.65	6.68	-46.0	-64.9	3.8	7.48e-01	0	57	104	428343296	63	31973
2026-01-07 10:18:41.16	359.54	6.62	-46.0	-64.9	3.8	7.47e-01	0	57	104	428343296	63	31875
2026-01-07 10:18:42.17	359.44	6.55	-46.0	-64.9	3.8	7.47e-01	0	56	104	428343296	63	31927
2026-01-07 10:18:43.18	359.33	6.49	-46.0	-64.9	3.8	7.46e-01	0	56	104	428343296	63	31905
2026-01-07 10:18:44.19	359.23	6.42	-46.0	-64.9	3.8	7.42e-01	0	56	104	428343296	63	31863
2026-01-07 10:18:45.20	359.12	6.36	-46.0	-64.9	3.8	7.44e-01	0	56	104	428343296	63	31836
2026-01-07 10:18:46.21	359.02	6.29	-46.0	-64.9	3.8	7.43e-01	0	57	104	428343296	63	31882
2026-01-07 10:18:47.22	358.91	6.23	-46.0	-64.9	3.8	7.45e-01	0	57	104	428343296	63	31842
2026-01-07 10:18:48.23	358.81	6.16	-46.0	-64.9	3.8	7.44e-01	0	56	104	428343296	63	31858
2026-01-07 10:18:49.24	358.71	6.10	-46.0	-64.9	3.8	7.45e-01	0	56	104	428343296	63	31859
2026-01-07 10:18:50.25	358.61	6.03	-46.0	-64.9	3.8	7.44e-01	0	56	104	428343296	63	31814
2026-01-07 10:18:51.26	358.50	5.97	-46.0	-64.9	3.8	7.44e-01	0	56	104	428343296	63	31881
2026-01-07 10:18:52.28	358.40	5.90	-46.0	-64.8	3.8	7.45e-01	0	56	104	428343296	63	31803
2026-01-07 10:18:53.29	358.30	5.84	-46.0	-64.9	3.8	7.45e-01	0	56	104	428343296	63	31836
2026-01-07 10:18:54.30	358.20	5.77	-46.0	-64.9	3.8	7.47e-01	0	56	104	428343296	63	31837
2026-01-07 10:18:55.31	358.10	5.71	-46.0	-64.9	3.8	7.46e-01	0	56	104	428343296	63	31835
2026-01-07 10:18:56.32	358.00	5.64	-46.0	-64.8	3.8	7.45e-01	0	57	104	428343296	63	31799
2026-01-07 10:18:57.33	357.91	5.58	-46.0	-64.8	3.8	7.46e-01	0	56	104	428343296	63	31786
2026-01-07 10:18:58.34	357.81	5.52	-46.0	-64.9	3.8	7.48e-01	0	57	104	428343296	63	31822
2026-01-07 10:18:59.36	357.71	5.45	-46.0	-64.8	3.8	7.46e-01	0	57	104	428343296	63	31748
2026-01-07 10:19:00.37	357.61	5.39	-46.0	-64.9	3.8	7.45e-01	0	56	104	428343296	63	31849
2026-01-07 10:19:01.38	357.52	5.32	-46.0	-64.8	3.8	7.45e-01	0	56	104	428343296	63	31778
2026-01-07 10:19:02.39	357.42	5.26	-46.0	-64.9	3.8	7.45e-01	0	57	104	428343296	63	31865
2026-01-07 10:19:03.40	357.32	5.20	-46.0	-64.8	3.8	7.47e-01	0	57	104	428343296	63	31754
2026-01-07 10:19:04.41	357.23	5.13	-46.0	-64.8	3.8	7.45e-01	0	57	104	428343296	63	31786
2026-01-07 10:19:05.42	357.13	5.07	-46.0	-64.8	3.8	7.48e-01	0	56	104	428343296	63	31799
2026-01-07 10:19:06.43	357.04	5.01	-46.0	-64.8	3.8	7.48e-01	0	56	104	428343296	63	31753
2026-01-07 10:19:07.44	356.95	4.94	-45.9	-64.8	3.8	7.47e-01	0	56	104	428343296	63	31748
2026-01-07 10:19:08.45	356.85	4.88	-46.0	-64.8	3.8	7.45e-01	0	57	104	428343296	63	31801
2026-01-07 10:19:09.46	356.76	4.82	-46.0	-64.8	3.8	7.44e-01	0	56	104	428343296	63	31778
2026-01-07 10:19:10.48	356.67	4.75	-45.8	-64.9	3.8	7.46e-01	0	56	104	428343296	63	31821
2026-01-07 10:19:11.49	356.58	4.69	-45.9	-64.8	3.8	7.44e-01	0	56	104	428343296	63	31739
2026-01-07 10:19:12.50	356.48	4.63	-46.0	-64.8	3.8	7.47e-01	0	57	104	428343296	63	31803
2026-01-07 10:19:13.51	356.39	4.57	-46.0	-64.8	3.8	7.44e-01	0	56	104	428343296	63	31807
2026-01-07 10:19:14.52	356.30	4.50	-46.0	-64.8	3.8	7.46e-01	0	57	104	428343296	63	31804
2026-01-07 10:19:15.53	356.21	4.44	-45.9	-64.8	3.8	7.50e-01	0	57	104	428343296	63	31730
2026-01-07 10:19:16.54	356.12	4.38	-46.0	-64.8	3.8	7.43e-01	0	56	104	428343296	63	31743
2026-01-07 10:19:17.55	356.03	4.32	-45.9	-64.8	3.8	7.44e-01	0	57	104	428343296	63	31754
2026-01-07 10:19:18.56	355.95	4.26	-46.0	-64.8	3.8	7.44e-01	0	57	104	428343296	63	31763
2026-01-07 10:19:19.57	355.86	4.19	-46.0	-64.8	3.8	7.46e-01	0	57	104	428343296	63	31763
2026-01-07 10:19:20.59	355.77	4.13	-45.9	-64.8	3.8	7.46e-01	0	57	104	428343296	63	31803
2026-01-07 10:19:21.60	355.68	4.07	-46.0	-64.8	3.8	7.45e-01	0	56	104	428343296	63	31779
2026-01-07 10:19:22.61	355.59	4.01	-46.0	-64.8	3.8	7.45e-01	0	57	104	428343296	63	31756
2026-01-07 10:19:23.62	355.51	3.95	-46.0	-64.8	3.8	7.47e-01	0	57	104	428343296	63	31754
2026-01-07 10:19:24.63	355.42	3.88	-45.9	-64.9	3.8	7.45e-01	0	56	104	428343296	63	31815
2026-01-07 10:19:25.64	355.34	3.82	-46.0	-64.8	3.8	7.45e-01	0	56	104	428343296	63	31727
2026-01-07 10:19:26.65	355.25	3.76	-45.9	-64.8	3.8	7.45e-01	0	57	104	428343296	63	31692
2026-01-07 10:19:27.66	355.17	3.70	-45.9	-64.8	3.8	7.48e-01	0	57	104	428343296	63	31785
2026-01-07 10:19:28.67	355.08	3.64	-46.0	-64.8	3.8	7.44e-01	0	57	104	428343296	63	31680
2026-01-07 10:19:29.68	355.00	3.58	-45.9	-64.8	3.8	7.47e-01	0	57	104	428343296	63	31731
2026-01-07 10:19:30.70	354.91	3.52	-45.5	-64.6	3.8	7.45e-01	0	57	104	428343296	62	32746
2026-01-07 10:19:31.71	354.83	3.46	-45.9	-64.8	3.8	7.47e-01	0	57	104	428343296	62	33579
2026-01-07 10:19:32.72	354.75	3.40	-45.9	-64.8	3.8	7.45e-01	0	56	104	428343296	62	33651
2026-01-07 10:19:33.73	354.66	3.34	-45.9	-64.8	3.8	7.45e-01	0	57	104	428343296	62	33682
2026-01-07 10:19:34.74	354.58	3.28	-45.9	-64.8	3.8	7.47e-01	0	57	104	428343296	62	33655
2026-01-07 10:19:35.75	354.50	3.21	-45.9	-64.8	3.8	7.44e-01	0	57	104	428343296	62	33652
2026-01-07 10:19:36.76	354.42	3.15	-45.9	-64.8	3.8	7.45e-01	0	56	104	428343296	62	33572
2026-01-07 10:19:37.77	354.34	3.09	-45.9	-64.8	3.8	7.46e-01	0	57	104	428343296	62	33676
2026-01-07 10:19:38.78	354.26	3.03	-45.9	-64.8	3.8	7.45e-01	0	57	104	428343296	62	33624
2026-01-07 10:19:39.79	354.18	2.97	-45.9	-64.8	3.8	7.48e-01	0	57	104	428343296	62	33596
2026-01-07 10:19:40.81	354.09	2.91	-45.9	-64.8	3.8	7.44e-01	0	57	104	428343296	62	33640
2026-01-07 10:19:41.82	354.02	2.85	-45.9	-64.8	3.8	7.44e-01	0	57	104	428343296	62	33646
2026-01-07 10:19:42.83	353.94	2.79	-46.0	-64.8	3.8	7.42e-01	0	57	104	428343296	62	33648
2026-01-07 10:19:43.84	353.86	2.73	-46.0	-64.8	3.8	7.46e-01	0	56	104	428343296	62	33677
2026-01-07 10:19:44.85	353.78	2.67	-46.0	-64.8	3.8	7.45e-01	0	57	104	428343296	62	33666
2026-01-07 10:19:45.86	353.70	2.62	-45.9	-64.8	3.8	7.46e-01	0	57	104	428343296	62	33686
2026-01-07 10:19:46.87	353.62	2.56	-45.9	-64.8	3.8	7.46e-01	0	57	104	428343296	62	33666
2026-01-07 10:19:47.88	353.55	2.50	-45.9	-64.8	3.8	7.47e-01	0	57	104	428343296	62	33637
2026-01-07 10:19:48.89	353.47	2.44	-46.0	-64.8	3.8	7.45e-01	0	57	104	428343296	62	33585
2026-01-07 10:19:49.90	353.39	2.38	-45.9	-64.8	3.8	7.48e-01	0	57	104	428343296	62	33617
2026-01-07 10:19:50.92	353.32	2.32	-45.9	-64.8	3.8	7.40e-01	0	57	104	428343296	62	33599
2026-01-07 10:19:51.93	353.24	2.26	-45.9	-64.8	3.8	7.45e-01	0	57	104	428343296	62	33645
2026-01-07 10:19:52.94	353.16	2.20	-45.9	-64.8	3.8	7.43e-01	0	56	104	428343296	62	33568
2026-01-07 10:19:53.95	353.09	2.14	-45.9	-64.8	3.8	7.43e-01	0	57	104	428343296	62	33613
2026-01-07 10:19:54.96	353.01	2.08	-45.9	-64.8	3.8	7.44e-01	0	57	104	428343296	62	33602
2026-01-07 10:19:55.97	352.94	2.03	-45.9	-64.8	3.8	7.44e-01	0	57	104	428343296	62	33662

#Closed at: 2026-01-07 10:19:56
#Recorded file [428 MB]: D:/lorett/data/31039_260107_130849.dat