passes_logs/2026/01/07/R2.0S_Moscow/R2.0S_Moscow__20260107_031111_FENGYUN_3E_rec.log

#Pass ID: 20260107_031111_FENGYUN 3E
#Satellite: FENGYUN 3E
#Configuration: FENGYUN 3E
#almurnet v.1.7.20251203
#Start time: 2026-01-07 03:18:34

#Version: 2.2.20231116
#Station: R2.0S_Moscow
#Location: 37.707566 lon 55.798166 lat
#TLE: 1 49008U 21062A   26006.26767912  .00000427  00000+0  22170-3 0  9993
#TLE: 2 49008  98.7475  11.4982 0001602 156.1158 204.0093 14.19885456233607

#Time	Az	El	Level	Level2	SNR	BER	BlckErr	Temp	State	Recorded	gain1	gain2
2026-01-07 03:18:34.52	108.18	44.54	-44.9	-56.8	3.8	8.46e-01	0	57	0	0	60	14886
2026-01-07 03:18:35.52	108.71	44.49	-45.7	-56.8	3.8	8.46e-01	0	57	104	0	62	12597
2026-01-07 03:18:36.53	109.24	44.44	-45.8	-56.8	3.8	8.45e-01	0	57	104	0	62	12588
2026-01-07 03:18:37.54	109.77	44.38	-45.7	-56.8	3.8	8.46e-01	0	57	104	0	62	12565
2026-01-07 03:18:38.55	110.30	44.32	-45.7	-56.7	3.8	8.44e-01	0	58	104	0	62	12500
2026-01-07 03:18:39.56	110.83	44.26	-45.7	-56.8	3.8	8.47e-01	0	57	104	0	62	12527
2026-01-07 03:18:40.57	111.36	44.19	-45.7	-56.8	3.8	8.48e-01	0	57	104	0	62	12573
2026-01-07 03:18:41.58	111.88	44.13	-45.6	-56.7	3.8	8.46e-01	0	57	104	0	62	12508
2026-01-07 03:18:42.59	112.40	44.06	-45.6	-56.7	3.8	8.45e-01	0	57	104	0	62	12514
2026-01-07 03:18:43.60	112.92	43.99	-45.6	-56.7	3.8	8.46e-01	0	57	104	0	62	12498
2026-01-07 03:18:44.61	113.44	43.91	-45.6	-56.6	3.8	8.46e-01	0	57	104	0	62	12339
2026-01-07 03:18:45.62	113.95	43.84	-45.5	-56.7	3.8	8.46e-01	0	57	104	0	62	12402
2026-01-07 03:18:46.63	114.46	43.76	-45.5	-56.7	3.8	8.46e-01	0	57	104	0	62	12381
2026-01-07 03:18:47.64	114.97	43.68	-45.5	-56.7	3.8	8.46e-01	0	58	104	0	62	12383
2026-01-07 03:18:48.65	115.48	43.59	-45.5	-56.6	3.8	8.46e-01	0	58	104	0	62	12291
2026-01-07 03:18:49.66	115.99	43.51	-45.5	-56.5	3.8	8.46e-01	0	57	104	0	62	12199
2026-01-07 03:18:50.67	116.49	43.42	-45.5	-56.5	3.8	8.46e-01	0	57	104	0	62	12234
2026-01-07 03:18:51.68	116.99	43.33	-45.5	-56.7	3.8	8.46e-01	0	57	104	0	62	12396
2026-01-07 03:18:52.69	117.48	43.24	-45.5	-56.6	3.8	8.46e-01	0	57	104	0	62	12350
2026-01-07 03:18:53.70	117.98	43.15	-45.5	-56.5	3.8	8.46e-01	0	57	104	0	62	12195
2026-01-07 03:18:54.71	118.47	43.05	-45.5	-56.6	3.8	8.46e-01	0	57	104	0	62	12278
2026-01-07 03:18:55.72	118.95	42.95	-45.5	-56.7	3.8	8.47e-01	0	57	104	0	62	12438
2026-01-07 03:18:56.73	119.44	42.85	-45.5	-56.6	3.8	8.45e-01	0	58	104	0	62	12353
2026-01-07 03:18:57.75	119.93	42.75	-45.5	-56.6	3.8	8.46e-01	0	58	104	0	62	12243
2026-01-07 03:18:58.76	120.40	42.64	-45.5	-56.5	3.8	8.45e-01	0	58	104	0	62	12097
2026-01-07 03:18:59.77	120.88	42.54	-45.5	-56.4	3.8	8.46e-01	0	58	104	0	62	11987
2026-01-07 03:19:00.78	121.35	42.43	-45.5	-56.5	3.8	8.46e-01	0	57	104	0	61	12832
2026-01-07 03:19:01.79	121.82	42.32	-45.5	-56.6	3.8	8.47e-01	0	58	104	0	61	13036
2026-01-07 03:19:02.80	122.29	42.21	-45.5	-56.6	3.8	8.45e-01	0	58	104	0	61	12974
2026-01-07 03:19:03.81	122.75	42.09	-45.4	-56.1	3.8	8.46e-01	0	57	104	0	61	12352
2026-01-07 03:19:04.82	123.21	41.98	-45.4	-56.0	3.8	8.45e-01	0	58	104	0	61	12131
2026-01-07 03:19:05.83	123.67	41.86	-45.4	-56.2	3.8	8.47e-01	0	57	104	0	61	12476
2026-01-07 03:19:06.84	124.12	41.75	-45.4	-56.5	3.8	8.46e-01	0	58	104	0	61	12911
2026-01-07 03:19:07.86	124.57	41.62	-45.4	-56.6	3.8	8.45e-01	0	58	104	0	61	12991
2026-01-07 03:19:08.87	125.02	41.50	-45.4	-56.3	3.8	8.46e-01	0	58	104	0	61	12562
2026-01-07 03:19:09.88	125.46	41.38	-45.3	-55.4	3.8	8.46e-01	0	58	104	0	61	11384
2026-01-07 03:19:10.89	125.90	41.26	-45.2	-54.9	3.8	8.45e-01	0	58	104	0	61	10754
2026-01-07 03:19:11.90	126.34	41.13	-45.3	-55.4	3.8	8.45e-01	0	58	104	0	61	11403
2026-01-07 03:19:12.91	126.77	41.00	-45.4	-56.3	3.8	8.46e-01	0	58	104	0	61	12535
2026-01-07 03:19:13.92	127.20	40.88	-45.2	-54.6	3.9	8.46e-01	0	57	104	0	61	10372
2026-01-07 03:19:14.93	127.63	40.75	-44.9	-52.6	4.3	8.35e-01	0	58	0	0	60	8720
2026-01-07 03:19:15.94	128.05	40.62	-44.9	-52.6	4.3	8.28e-01	0	58	0	0	60	8695
2026-01-07 03:19:16.96	128.48	40.48	-45.2	-54.7	3.8	8.43e-01	0	58	104	0	60	11077
2026-01-07 03:19:17.97	128.89	40.35	-45.4	-56.4	3.8	8.45e-01	0	58	104	0	60	13479
2026-01-07 03:19:18.98	129.31	40.21	-45.1	-54.1	4.0	8.45e-01	0	58	104	0	60	10300
2026-01-07 03:19:19.99	129.72	40.08	-44.2	-49.5	5.8	7.28e-01	0	58	0	0	59	6493
2026-01-07 03:19:21.00	130.12	39.94	-42.8	-46.3	8.8	6.21e-02	0	57	0	7340032	56	5320
2026-01-07 03:19:22.01	130.52	39.80	-42.0	-45.1	10.0	7.29e-03	0	58	0	14680064	55	4884
2026-01-07 03:19:23.02	130.92	39.67	-43.2	-47.3	7.8	2.92e-02	0	58	0	22020096	55	6284
2026-01-07 03:19:24.03	131.32	39.53	-44.9	-52.5	4.3	8.26e-01	0	58	0	25165824	59	9134
2026-01-07 03:19:25.05	131.72	39.38	-41.7	-44.5	10.5	5.25e-02	0	58	0	29360128	54	4857
2026-01-07 03:19:26.05	132.10	39.24	-37.6	-39.0	16.1	0.00e+00	0	58	0	36700160	46	4088
2026-01-07 03:19:27.07	132.49	39.10	-35.1	-36.3	18.7	0.00e+00	0	58	0	44040192	41	3963
2026-01-07 03:19:28.08	132.88	38.96	-34.4	-35.5	19.4	0.00e+00	0	58	0	51380224	39	4086
2026-01-07 03:19:29.09	133.26	38.81	-45.3	-55.3	3.8	8.29e-01	0	58	104	56623104	60	11849
2026-01-07 03:19:30.10	133.63	38.67	-37.7	-39.2	15.8	0.00e+00	0	58	0	60817408	45	4397
2026-01-07 03:19:31.11	134.00	38.52	-44.7	-51.4	4.7	2.65e-01	0	58	0	67108864	59	8033
2026-01-07 03:19:32.12	134.37	38.38	-39.7	-41.6	13.6	7.55e-05	0	58	0	73400320	50	4372
2026-01-07 03:19:33.13	134.74	38.23	-37.6	-39.0	16.1	0.00e+00	0	58	0	80740352	45	4338
2026-01-07 03:19:34.14	135.10	38.08	-34.5	-35.6	19.4	0.00e+00	0	57	0	88080384	39	4118
2026-01-07 03:19:35.15	135.46	37.94	-34.3	-35.4	19.3	0.00e+00	0	58	0	95420416	39	4029
2026-01-07 03:19:36.16	135.82	37.79	-34.1	-35.2	19.7	0.00e+00	0	58	0	102760448	39	3943
2026-01-07 03:19:37.17	136.17	37.64	-34.1	-35.1	19.8	0.00e+00	0	57	0	110100480	39	3893
2026-01-07 03:19:38.18	136.52	37.49	-34.0	-35.0	19.9	0.00e+00	0	58	0	117440512	38	4077
2026-01-07 03:19:39.20	136.87	37.34	-34.1	-35.1	19.8	0.00e+00	0	58	0	124780544	38	4114
2026-01-07 03:19:40.21	137.22	37.19	-34.2	-35.3	19.7	0.00e+00	0	58	0	132120576	38	4211
2026-01-07 03:19:41.22	137.56	37.03	-34.3	-35.3	19.6	0.00e+00	0	58	0	139460608	38	4231
2026-01-07 03:19:42.23	137.90	36.88	-34.2	-35.2	19.7	0.00e+00	0	58	0	146800640	38	4191
2026-01-07 03:19:43.24	138.23	36.73	-34.2	-35.3	19.7	0.00e+00	0	58	0	154140672	38	4219
2026-01-07 03:19:44.25	138.56	36.58	-34.0	-35.1	19.9	0.00e+00	0	58	0	161480704	38	4120
2026-01-07 03:19:45.26	138.89	36.43	-33.9	-34.9	20.0	0.00e+00	0	58	0	168820736	38	4026
2026-01-07 03:19:46.27	139.22	36.27	-33.7	-34.7	20.1	0.00e+00	0	58	0	176160768	38	3948
2026-01-07 03:19:47.27	139.54	36.12	-33.5	-34.5	20.4	0.00e+00	0	58	0	183500800	38	3838
2026-01-07 03:19:48.28	139.86	35.97	-33.4	-34.4	20.5	0.00e+00	0	58	0	190840832	37	4039
2026-01-07 03:19:49.30	140.18	35.81	-33.5	-34.5	20.4	0.00e+00	0	58	0	198180864	37	4070
2026-01-07 03:19:50.31	140.49	35.66	-33.7	-34.7	20.2	0.00e+00	0	58	0	204472320	37	4151
2026-01-07 03:19:51.32	140.80	35.51	-33.8	-34.8	20.1	0.00e+00	0	58	0	211812352	37	4239
2026-01-07 03:19:52.33	141.11	35.35	-33.9	-35.0	20.0	0.00e+00	0	58	0	220200960	37	4305
2026-01-07 03:19:53.34	141.41	35.20	-34.0	-35.1	19.8	0.00e+00	0	58	0	226492416	37	4367
2026-01-07 03:19:54.35	141.72	35.04	-34.2	-35.3	19.7	0.00e+00	0	58	0	233832448	37	4469
2026-01-07 03:19:55.36	142.02	34.89	-34.4	-35.5	19.5	0.00e+00	0	58	0	241172480	38	4302
2026-01-07 03:19:56.37	142.31	34.73	-34.5	-35.6	19.3	0.00e+00	0	57	0	248512512	38	4348
2026-01-07 03:19:57.38	142.61	34.58	-34.5	-35.6	19.4	0.00e+00	0	58	0	255852544	38	4355
2026-01-07 03:19:58.39	142.90	34.42	-34.4	-35.5	19.4	0.00e+00	0	58	0	263192576	38	4318
2026-01-07 03:19:59.40	143.19	34.27	-34.2	-35.3	19.6	0.00e+00	0	58	0	270532608	38	4218
2026-01-07 03:20:00.41	143.47	34.11	-34.0	-35.1	19.9	0.00e+00	0	57	0	277872640	38	4103
2026-01-07 03:20:01.41	143.75	33.96	-33.8	-34.9	20.0	0.00e+00	0	58	0	285212672	38	4019
2026-01-07 03:20:02.43	144.04	33.80	-33.7	-34.7	20.2	0.00e+00	0	58	0	292552704	38	3956
2026-01-07 03:20:03.43	144.31	33.65	-33.7	-34.7	20.2	0.00e+00	0	58	0	299892736	38	3948
2026-01-07 03:20:04.44	144.59	33.50	-33.6	-34.6	20.3	0.00e+00	0	58	0	307232768	38	3889
2026-01-07 03:20:05.45	144.86	33.34	-33.6	-34.7	20.2	0.00e+00	0	58	0	314572800	38	3917
2026-01-07 03:20:06.46	145.13	33.19	-33.7	-34.7	20.2	0.00e+00	0	58	0	321912832	38	3952
2026-01-07 03:20:07.47	145.40	33.03	-33.8	-34.8	19.9	0.00e+00	0	58	0	329252864	38	4002
2026-01-07 03:20:08.48	145.66	32.88	-33.9	-34.9	20.0	0.00e+00	0	58	0	336592896	38	4025
2026-01-07 03:20:09.49	145.93	32.72	-34.0	-35.0	19.9	0.00e+00	0	58	0	343932928	38	4086
2026-01-07 03:20:10.50	146.19	32.57	-34.1	-35.2	19.7	0.00e+00	0	58	0	350224384	38	4165
2026-01-07 03:20:11.51	146.44	32.42	-34.2	-35.3	19.6	0.00e+00	0	58	0	357564416	38	4226
2026-01-07 03:20:12.52	146.70	32.26	-34.3	-35.4	19.5	0.00e+00	0	58	0	365953024	38	4266
2026-01-07 03:20:13.53	146.95	32.11	-34.4	-35.4	19.5	0.00e+00	0	57	0	372244480	38	4287
2026-01-07 03:20:14.54	147.20	31.95	-34.4	-35.5	19.5	0.00e+00	0	58	0	379584512	38	4296
2026-01-07 03:20:15.55	147.45	31.80	-34.3	-35.4	19.5	0.00e+00	0	58	0	386924544	38	4261
2026-01-07 03:20:16.56	147.70	31.65	-34.2	-35.2	19.7	0.00e+00	0	58	0	394264576	38	4185
2026-01-07 03:20:17.58	147.95	31.49	-34.1	-35.2	19.7	0.00e+00	0	58	0	401604608	38	4162
2026-01-07 03:20:18.59	148.19	31.34	-34.1	-35.2	19.7	0.00e+00	0	58	0	408944640	38	4158
2026-01-07 03:20:19.59	148.42	31.19	-34.1	-35.2	19.8	0.00e+00	0	58	0	416284672	38	4151
2026-01-07 03:20:20.60	148.66	31.04	-34.1	-35.1	19.8	0.00e+00	0	58	0	423624704	38	4123
2026-01-07 03:20:21.61	148.90	30.89	-34.0	-35.1	19.8	0.00e+00	0	58	0	430964736	38	4115
2026-01-07 03:20:22.62	149.13	30.74	-34.0	-35.0	19.8	0.00e+00	0	58	0	438304768	38	4065
2026-01-07 03:20:23.63	149.36	30.58	-33.9	-34.9	20.0	0.00e+00	0	58	0	445644800	38	4045
2026-01-07 03:20:24.65	149.59	30.43	-34.0	-35.0	19.9	0.00e+00	0	57	0	452984832	38	4092
2026-01-07 03:20:25.65	149.82	30.28	-34.0	-35.1	19.9	0.00e+00	0	58	0	460324864	38	4099
2026-01-07 03:20:26.66	150.04	30.13	-33.9	-35.0	19.9	0.00e+00	0	58	0	467664896	38	4061
2026-01-07 03:20:27.68	150.27	29.98	-34.1	-35.1	19.7	0.00e+00	0	58	0	475004928	38	4120
2026-01-07 03:20:28.69	150.49	29.83	-34.2	-35.3	19.5	0.00e+00	0	58	0	482344960	38	4196
2026-01-07 03:20:29.70	150.71	29.68	-34.4	-35.5	19.4	0.00e+00	0	58	0	489684992	38	4298
2026-01-07 03:20:30.70	150.92	29.53	-34.6	-35.7	19.2	0.00e+00	0	57	0	497025024	38	4413
2026-01-07 03:20:31.71	151.13	29.39	-34.7	-35.8	19.1	0.00e+00	0	58	0	503316480	39	4231
2026-01-07 03:20:32.72	151.35	29.24	-34.8	-35.9	19.0	0.00e+00	0	58	0	511705088	39	4263
2026-01-07 03:20:33.74	151.56	29.09	-34.8	-35.9	19.0	0.00e+00	0	58	0	519045120	39	4285
2026-01-07 03:20:34.75	151.77	28.94	-34.8	-35.9	19.0	0.00e+00	0	58	0	525336576	39	4258
2026-01-07 03:20:35.76	151.98	28.79	-34.7	-35.8	19.1	0.00e+00	0	58	0	532676608	39	4217
2026-01-07 03:20:36.77	152.18	28.65	-34.5	-35.6	19.3	0.00e+00	0	58	0	540016640	39	4135
2026-01-07 03:20:37.78	152.39	28.50	-34.4	-35.5	19.4	0.00e+00	0	57	0	547356672	39	4054
2026-01-07 03:20:38.79	152.59	28.35	-34.3	-35.4	19.5	0.00e+00	0	58	0	554696704	39	4010
2026-01-07 03:20:39.80	152.79	28.21	-34.3	-35.3	19.5	0.00e+00	0	58	0	562036736	39	4002
2026-01-07 03:20:40.81	152.98	28.06	-34.2	-35.3	19.6	0.00e+00	0	58	0	569376768	39	3970
2026-01-07 03:20:41.82	153.18	27.92	-34.3	-35.4	19.5	0.00e+00	0	58	0	576716800	39	4011
2026-01-07 03:20:42.83	153.38	27.77	-34.3	-35.4	19.5	0.00e+00	0	58	0	584056832	39	4039
2026-01-07 03:20:43.84	153.57	27.63	-34.3	-35.4	19.5	0.00e+00	0	58	0	591396864	39	4035
2026-01-07 03:20:44.85	153.76	27.49	-34.5	-35.6	19.3	0.00e+00	0	58	0	598736896	39	4099
2026-01-07 03:20:45.86	153.95	27.34	-34.3	-35.4	19.5	0.00e+00	0	58	0	606076928	39	4020
2026-01-07 03:20:46.87	154.14	27.20	-34.2	-35.3	19.5	0.00e+00	0	58	0	613416960	39	3970
2026-01-07 03:20:47.88	154.32	27.06	-34.2	-35.3	19.5	0.00e+00	0	58	0	620756992	39	3984
2026-01-07 03:20:48.89	154.51	26.92	-34.3	-35.4	19.5	0.00e+00	0	58	0	628097024	39	4012
2026-01-07 03:20:49.90	154.69	26.78	-34.3	-35.4	19.4	0.00e+00	0	58	0	635437056	39	4018
2026-01-07 03:20:50.91	154.87	26.63	-34.4	-35.5	19.3	0.00e+00	0	58	0	642777088	39	4053
2026-01-07 03:20:51.92	155.05	26.49	-34.5	-35.6	19.2	0.00e+00	0	58	0	650117120	39	4131
2026-01-07 03:20:52.93	155.23	26.35	-34.5	-35.6	19.2	0.00e+00	0	58	0	657457152	39	4122
2026-01-07 03:20:53.94	155.41	26.21	-34.5	-35.6	19.1	0.00e+00	0	58	0	664797184	39	4145
2026-01-07 03:20:54.95	155.58	26.08	-34.5	-35.6	19.2	0.00e+00	0	58	0	671088640	39	4113
2026-01-07 03:20:55.96	155.76	25.94	-34.4	-35.5	19.3	0.00e+00	0	58	0	678428672	39	4092
2026-01-07 03:20:56.97	155.93	25.80	-34.4	-35.5	19.3	0.00e+00	0	58	0	686817280	39	4075
2026-01-07 03:20:57.98	156.10	25.66	-34.5	-35.6	19.2	0.00e+00	0	58	0	693108736	39	4104
2026-01-07 03:20:58.99	156.27	25.52	-34.5	-35.5	19.2	0.00e+00	0	58	0	700448768	39	4092
2026-01-07 03:21:00.00	156.44	25.39	-34.3	-35.3	19.4	0.00e+00	0	58	0	707788800	39	4001
2026-01-07 03:21:01.01	156.61	25.25	-34.2	-35.3	19.5	0.00e+00	0	58	0	715128832	39	3978
2026-01-07 03:21:02.02	156.77	25.11	-34.2	-35.3	19.4	0.00e+00	0	58	0	722468864	39	3976
2026-01-07 03:21:03.03	156.93	24.98	-34.1	-35.2	19.5	0.00e+00	0	58	0	729808896	39	3937
2026-01-07 03:21:04.04	157.10	24.84	-34.1	-35.2	19.5	0.00e+00	0	58	0	737148928	39	3926
2026-01-07 03:21:05.06	157.26	24.71	-34.2	-35.3	19.5	0.00e+00	0	58	0	744488960	39	3977
2026-01-07 03:21:06.07	157.42	24.57	-34.3	-35.4	19.3	0.00e+00	0	57	0	751828992	39	4013
2026-01-07 03:21:07.08	157.58	24.44	-34.3	-35.3	19.4	0.00e+00	0	58	0	759169024	39	3993
2026-01-07 03:21:08.09	157.74	24.30	-34.3	-35.3	19.3	0.00e+00	0	57	0	766509056	39	3998
2026-01-07 03:21:09.10	157.89	24.17	-34.4	-35.5	19.2	0.00e+00	0	58	0	773849088	39	4055
2026-01-07 03:21:10.11	158.05	24.04	-34.4	-35.5	19.2	0.00e+00	0	58	0	781189120	39	4071
2026-01-07 03:21:11.12	158.20	23.91	-34.4	-35.5	19.2	0.00e+00	0	58	0	788529152	39	4075
2026-01-07 03:21:12.13	158.35	23.78	-34.4	-35.5	19.2	0.00e+00	0	58	0	795869184	39	4071
2026-01-07 03:21:13.14	158.50	23.65	-34.4	-35.5	19.2	0.00e+00	0	58	0	803209216	39	4077
2026-01-07 03:21:14.15	158.65	23.51	-34.4	-35.5	19.2	0.00e+00	0	58	0	810549248	39	4067
2026-01-07 03:21:15.16	158.80	23.38	-34.3	-35.4	19.3	0.00e+00	0	58	0	817889280	39	4025
2026-01-07 03:21:16.17	158.95	23.25	-34.4	-35.5	19.2	0.00e+00	0	58	0	825229312	39	4054
2026-01-07 03:21:17.18	159.09	23.13	-34.4	-35.4	19.2	0.00e+00	0	58	0	832569344	39	4041
2026-01-07 03:21:18.19	159.24	23.00	-34.3	-35.4	19.2	0.00e+00	0	58	0	839909376	39	4038
2026-01-07 03:21:19.20	159.38	22.87	-34.3	-35.4	19.1	0.00e+00	0	57	0	846200832	39	4029
2026-01-07 03:21:20.21	159.52	22.74	-34.4	-35.5	19.2	0.00e+00	0	58	0	853540864	39	4082
2026-01-07 03:21:21.22	159.67	22.61	-34.4	-35.5	19.1	0.00e+00	0	58	0	861929472	39	4055
2026-01-07 03:21:22.23	159.81	22.49	-34.4	-35.4	19.2	0.00e+00	0	58	0	868220928	39	4044
2026-01-07 03:21:23.24	159.95	22.36	-34.4	-35.5	19.1	0.00e+00	0	58	0	875560960	39	4066
2026-01-07 03:21:24.25	160.08	22.23	-34.4	-35.5	19.2	0.00e+00	0	58	0	882900992	39	4070
2026-01-07 03:21:25.26	160.22	22.11	-34.5	-35.5	19.1	0.00e+00	0	58	0	890241024	39	4093
2026-01-07 03:21:26.27	160.36	21.98	-34.5	-35.6	19.0	0.00e+00	0	58	0	897581056	39	4131
2026-01-07 03:21:27.28	160.49	21.86	-34.4	-35.5	19.1	0.00e+00	0	58	0	904921088	39	4074
2026-01-07 03:21:28.30	160.63	21.73	-34.5	-35.6	19.0	0.00e+00	0	58	0	912261120	39	4118
2026-01-07 03:21:29.31	160.76	21.61	-34.6	-35.7	18.9	0.00e+00	0	58	0	919601152	39	4159
2026-01-07 03:21:30.32	160.89	21.49	-34.6	-35.8	18.8	0.00e+00	0	57	0	926941184	39	4202
2026-01-07 03:21:31.33	161.02	21.36	-34.6	-35.7	18.9	0.00e+00	0	58	0	934281216	39	4176
2026-01-07 03:21:32.34	161.15	21.24	-34.6	-35.7	18.9	0.00e+00	0	58	0	941621248	39	4169
2026-01-07 03:21:33.35	161.28	21.12	-34.6	-35.8	18.8	0.00e+00	0	57	0	948961280	39	4200
2026-01-07 03:21:34.36	161.41	21.00	-34.7	-35.8	18.8	0.00e+00	0	58	0	956301312	39	4210
2026-01-07 03:21:35.37	161.54	20.88	-34.8	-35.9	18.7	0.00e+00	0	58	0	963641344	39	4275
2026-01-07 03:21:36.38	161.66	20.76	-34.7	-35.9	18.6	0.00e+00	0	57	0	970981376	39	4255
2026-01-07 03:21:37.39	161.79	20.64	-34.8	-36.0	18.6	0.00e+00	0	58	0	978321408	39	4292
2026-01-07 03:21:38.40	161.91	20.52	-34.8	-36.0	18.6	0.00e+00	0	58	0	985661440	39	4293
2026-01-07 03:21:39.41	162.03	20.40	-34.9	-36.0	18.5	0.00e+00	0	58	0	991952896	39	4333
2026-01-07 03:21:40.42	162.16	20.28	-34.9	-36.1	18.4	0.00e+00	0	58	0	1000341504	39	4346
2026-01-07 03:21:41.43	162.28	20.16	-34.9	-36.0	18.5	0.00e+00	0	57	0	1007681536	39	4332
2026-01-07 03:21:42.44	162.40	20.04	-34.9	-36.1	18.4	0.00e+00	0	58	0	1013972992	39	4353
2026-01-07 03:21:43.45	162.52	19.93	-34.9	-36.0	18.5	0.00e+00	0	58	0	1021313024	39	4336
2026-01-07 03:21:44.46	162.64	19.81	-34.9	-36.1	18.4	0.00e+00	0	58	0	1028653056	39	4355
2026-01-07 03:21:45.47	162.75	19.69	-35.0	-36.1	18.3	0.00e+00	0	58	0	1035993088	39	4384
2026-01-07 03:21:46.48	162.87	19.58	-35.1	-36.2	18.3	0.00e+00	0	57	0	1043333120	39	4425
2026-01-07 03:21:47.49	162.99	19.46	-35.0	-36.2	18.3	0.00e+00	0	57	0	1050673152	39	4419
2026-01-07 03:21:48.50	163.10	19.34	-35.0	-36.1	18.4	0.00e+00	0	58	0	1058013184	39	4375
2026-01-07 03:21:49.52	163.22	19.23	-34.9	-36.1	18.4	0.00e+00	0	58	0	1065353216	39	4361
2026-01-07 03:21:50.53	163.33	19.11	-35.0	-36.2	18.3	0.00e+00	0	58	0	1072693248	39	4423
2026-01-07 03:21:51.54	163.44	19.00	-35.1	-36.2	18.3	0.00e+00	0	58	0	1080033280	39	4428
2026-01-07 03:21:52.55	163.56	18.89	-35.1	-36.2	18.2	0.00e+00	0	58	0	1087373312	39	4438
2026-01-07 03:21:53.55	163.67	18.77	-35.2	-36.4	18.1	0.00e+00	0	58	0	1094713344	39	4501
2026-01-07 03:21:54.57	163.78	18.66	-35.2	-36.4	18.0	0.00e+00	0	58	0	1102053376	40	4261
2026-01-07 03:21:55.57	163.89	18.55	-35.3	-36.5	17.9	0.00e+00	0	58	0	1109393408	40	4308
2026-01-07 03:21:56.59	164.00	18.44	-35.1	-36.3	18.1	0.00e+00	0	58	0	1116733440	40	4219
2026-01-07 03:21:57.60	164.10	18.32	-35.0	-36.2	18.2	0.00e+00	0	58	0	1124073472	40	4150
2026-01-07 03:21:58.61	164.21	18.21	-34.9	-36.1	18.3	0.00e+00	0	58	0	1131413504	40	4119
2026-01-07 03:21:59.62	164.32	18.10	-34.9	-36.1	18.3	0.00e+00	0	58	0	1138753536	40	4108
2026-01-07 03:22:00.63	164.42	17.99	-35.0	-36.2	18.2	0.00e+00	0	58	0	1146093568	40	4154
2026-01-07 03:22:01.64	164.53	17.88	-35.0	-36.2	18.2	0.00e+00	0	58	0	1153433600	40	4156
2026-01-07 03:22:02.65	164.63	17.77	-35.0	-36.2	18.2	0.00e+00	0	58	0	1160773632	40	4164
2026-01-07 03:22:03.66	164.74	17.66	-35.1	-36.3	18.1	0.00e+00	0	58	0	1167065088	40	4207
2026-01-07 03:22:04.67	164.84	17.55	-35.2	-36.4	17.9	0.00e+00	0	58	0	1175453696	40	4258
2026-01-07 03:22:05.68	164.94	17.45	-35.2	-36.4	17.9	0.00e+00	0	58	0	1182793728	40	4284
2026-01-07 03:22:06.69	165.04	17.34	-35.2	-36.4	17.9	0.00e+00	0	58	0	1189085184	40	4286
2026-01-07 03:22:07.70	165.14	17.23	-35.3	-36.6	17.8	0.00e+00	0	58	0	1196425216	40	4341
2026-01-07 03:22:08.71	165.24	17.12	-35.3	-36.4	17.9	0.00e+00	0	58	0	1203765248	40	4290
2026-01-07 03:22:09.72	165.34	17.02	-35.3	-36.5	17.9	0.00e+00	0	58	0	1211105280	40	4308
2026-01-07 03:22:10.73	165.44	16.91	-35.2	-36.4	17.9	0.00e+00	0	58	0	1218445312	40	4288
2026-01-07 03:22:11.74	165.54	16.80	-35.4	-36.6	17.7	0.00e+00	0	58	0	1225785344	40	4355
2026-01-07 03:22:12.75	165.64	16.70	-35.4	-36.6	17.7	0.00e+00	0	58	0	1233125376	40	4371
2026-01-07 03:22:13.76	165.73	16.59	-35.5	-36.7	17.6	0.00e+00	0	58	0	1240465408	40	4426
2026-01-07 03:22:14.77	165.83	16.49	-35.4	-36.6	17.6	0.00e+00	0	58	0	1247805440	40	4384
2026-01-07 03:22:15.78	165.92	16.38	-35.4	-36.6	17.7	0.00e+00	0	58	0	1255145472	40	4352
2026-01-07 03:22:16.79	166.02	16.28	-35.3	-36.5	17.8	0.00e+00	0	57	0	1262485504	40	4321
2026-01-07 03:22:17.79	166.11	16.18	-35.5	-36.7	17.6	0.00e+00	0	58	0	1269825536	40	4408
2026-01-07 03:22:18.81	166.21	16.07	-35.4	-36.7	17.6	0.00e+00	0	58	0	1277165568	40	4394
2026-01-07 03:22:19.82	166.30	15.97	-35.5	-36.7	17.6	0.00e+00	0	58	0	1284505600	40	4423
2026-01-07 03:22:20.83	166.39	15.87	-35.6	-36.8	17.4	0.00e+00	0	58	0	1291845632	40	4482
2026-01-07 03:22:21.84	166.48	15.77	-35.6	-36.9	17.4	0.00e+00	0	58	0	1299185664	40	4496
2026-01-07 03:22:22.85	166.57	15.66	-35.6	-36.9	17.4	0.00e+00	0	58	0	1306525696	40	4501
2026-01-07 03:22:23.86	166.67	15.56	-35.7	-36.9	17.3	0.00e+00	0	58	0	1312817152	40	4538
2026-01-07 03:22:24.87	166.76	15.46	-35.6	-36.9	17.3	0.00e+00	0	58	0	1320157184	40	4526
2026-01-07 03:22:25.88	166.84	15.36	-35.7	-37.0	17.2	0.00e+00	0	58	0	1328545792	41	4318
2026-01-07 03:22:26.89	166.93	15.26	-35.7	-37.0	17.3	0.00e+00	0	58	0	1334837248	41	4299
2026-01-07 03:22:27.90	167.02	15.16	-35.7	-37.0	17.3	0.00e+00	0	58	0	1342177280	41	4301
2026-01-07 03:22:28.91	167.11	15.06	-35.7	-37.0	17.2	0.00e+00	0	58	0	1349517312	41	4327
2026-01-07 03:22:29.92	167.20	14.96	-35.7	-37.0	17.2	0.00e+00	0	58	0	1356857344	41	4321
2026-01-07 03:22:30.93	167.28	14.86	-35.7	-37.0	17.2	0.00e+00	0	58	0	1364197376	41	4324
2026-01-07 03:22:31.94	167.37	14.76	-35.8	-37.1	17.1	0.00e+00	0	58	0	1371537408	41	4360
2026-01-07 03:22:32.95	167.45	14.66	-35.9	-37.2	17.0	0.00e+00	0	58	0	1378877440	41	4404
2026-01-07 03:22:33.96	167.54	14.57	-35.9	-37.1	17.0	0.00e+00	0	58	0	1386217472	41	4391
2026-01-07 03:22:34.97	167.62	14.47	-35.8	-37.1	17.0	0.00e+00	0	58	0	1393557504	41	4382
2026-01-07 03:22:35.98	167.71	14.37	-35.9	-37.2	17.0	0.00e+00	0	58	0	1400897536	41	4401
2026-01-07 03:22:36.99	167.79	14.27	-35.9	-37.2	17.0	0.00e+00	0	57	0	1408237568	41	4400
2026-01-07 03:22:38.00	167.87	14.18	-36.0	-37.3	16.9	0.00e+00	0	58	0	1415577600	41	4449
2026-01-07 03:22:39.01	167.95	14.08	-36.0	-37.3	16.7	0.00e+00	0	58	0	1422917632	41	4467
2026-01-07 03:22:40.02	168.04	13.98	-35.9	-37.2	16.9	0.00e+00	0	58	0	1430257664	41	4424
2026-01-07 03:22:41.02	168.12	13.89	-35.9	-37.2	17.0	0.00e+00	0	58	0	1437597696	41	4416
2026-01-07 03:22:42.03	168.20	13.79	-36.0	-37.3	16.9	0.00e+00	0	58	0	1444937728	41	4457
2026-01-07 03:22:43.04	168.28	13.70	-36.0	-37.3	16.9	0.00e+00	0	58	0	1452277760	41	4462
2026-01-07 03:22:44.05	168.36	13.60	-36.0	-37.3	16.9	0.00e+00	0	58	0	1459617792	41	4462
2026-01-07 03:22:45.06	168.44	13.51	-36.1	-37.4	16.7	0.00e+00	0	58	0	1465909248	41	4540
2026-01-07 03:22:46.07	168.52	13.42	-36.3	-37.6	16.6	0.00e+00	0	58	0	1474297856	42	4362
2026-01-07 03:22:47.08	168.59	13.32	-36.4	-37.7	16.4	0.00e+00	0	58	0	1481637888	42	4430
2026-01-07 03:22:48.09	168.67	13.23	-36.5	-37.9	16.2	0.00e+00	0	58	0	1487929344	42	4519
2026-01-07 03:22:49.10	168.75	13.14	-36.3	-37.7	16.5	0.00e+00	0	58	0	1495269376	42	4404
2026-01-07 03:22:50.11	168.83	13.04	-36.3	-37.6	16.6	0.00e+00	0	58	0	1502609408	42	4373
2026-01-07 03:22:51.12	168.90	12.95	-36.3	-37.6	16.5	0.00e+00	0	58	0	1509949440	42	4372
2026-01-07 03:22:52.13	168.98	12.86	-36.2	-37.6	16.6	0.00e+00	0	58	0	1517289472	42	4357
2026-01-07 03:22:53.14	169.05	12.77	-36.3	-37.7	16.4	0.00e+00	0	58	0	1524629504	42	4428
2026-01-07 03:22:54.15	169.13	12.67	-36.4	-37.8	16.4	0.00e+00	0	58	0	1531969536	42	4448
2026-01-07 03:22:55.15	169.20	12.58	-36.3	-37.7	16.4	0.00e+00	0	57	0	1539309568	42	4420
2026-01-07 03:22:56.17	169.28	12.49	-36.4	-37.8	16.3	0.00e+00	0	58	0	1546649600	42	4469
2026-01-07 03:22:57.18	169.35	12.40	-36.4	-37.8	16.3	0.00e+00	0	58	0	1553989632	42	4446
2026-01-07 03:22:58.19	169.42	12.31	-36.5	-37.9	16.2	0.00e+00	0	58	0	1561329664	42	4498
2026-01-07 03:22:59.20	169.50	12.22	-36.5	-37.9	16.2	0.00e+00	0	58	0	1568669696	42	4503
2026-01-07 03:23:00.21	169.57	12.13	-36.5	-37.9	16.2	0.00e+00	0	58	0	1576009728	42	4517
2026-01-07 03:23:01.22	169.64	12.04	-36.5	-37.9	16.2	0.00e+00	0	58	0	1583349760	42	4511
2026-01-07 03:23:02.23	169.71	11.95	-36.6	-38.0	16.1	0.00e+00	0	58	0	1590689792	42	4568
2026-01-07 03:23:03.24	169.78	11.86	-36.6	-38.0	16.0	0.00e+00	0	58	0	1598029824	42	4592
2026-01-07 03:23:04.25	169.86	11.77	-36.7	-38.1	15.9	0.00e+00	0	58	0	1605369856	42	4638
2026-01-07 03:23:05.26	169.93	11.69	-36.7	-38.1	15.9	0.00e+00	0	58	0	1612709888	42	4619
2026-01-07 03:23:06.26	170.00	11.60	-36.7	-38.2	15.8	0.00e+00	0	58	0	1619001344	43	4398
2026-01-07 03:23:07.28	170.07	11.51	-36.8	-38.2	15.8	0.00e+00	0	58	0	1627389952	43	4435
2026-01-07 03:23:08.29	170.13	11.42	-36.9	-38.4	15.6	0.00e+00	0	58	0	1633681408	43	4503
2026-01-07 03:23:09.30	170.20	11.34	-36.9	-38.4	15.6	0.00e+00	0	58	0	1641021440	43	4521
2026-01-07 03:23:10.30	170.27	11.25	-36.9	-38.4	15.5	0.00e+00	0	58	0	1648361472	43	4540
2026-01-07 03:23:11.31	170.34	11.16	-37.0	-38.5	15.5	0.00e+00	0	58	0	1655701504	43	4556
2026-01-07 03:23:12.32	170.41	11.08	-36.9	-38.4	15.5	0.00e+00	0	58	0	1663041536	43	4532
2026-01-07 03:23:13.33	170.47	10.99	-36.9	-38.4	15.5	0.00e+00	0	58	0	1670381568	43	4530
2026-01-07 03:23:14.34	170.54	10.90	-37.0	-38.5	15.4	0.00e+00	0	58	0	1677721600	43	4579
2026-01-07 03:23:15.35	170.61	10.82	-37.1	-38.6	15.3	0.00e+00	0	58	0	1685061632	43	4627
2026-01-07 03:23:16.36	170.67	10.73	-37.0	-38.5	15.4	0.00e+00	0	58	0	1692401664	43	4569
2026-01-07 03:23:17.38	170.74	10.65	-37.1	-38.7	15.3	0.00e+00	0	58	0	1699741696	43	4653
2026-01-07 03:23:18.39	170.81	10.56	-37.1	-38.6	15.3	0.00e+00	0	58	0	1707081728	43	4641
2026-01-07 03:23:19.40	170.87	10.48	-37.1	-38.7	15.2	0.00e+00	0	58	0	1714421760	43	4681
2026-01-07 03:23:20.41	170.94	10.39	-37.2	-38.7	15.1	0.00e+00	0	58	0	1721761792	43	4704
2026-01-07 03:23:21.42	171.00	10.31	-37.1	-38.7	15.1	0.00e+00	0	58	0	1729101824	43	4681
2026-01-07 03:23:22.43	171.06	10.23	-37.2	-38.8	15.1	0.00e+00	0	58	0	1736441856	43	4723
2026-01-07 03:23:23.44	171.13	10.14	-37.4	-39.0	14.9	0.00e+00	0	58	0	1743781888	44	4592
2026-01-07 03:23:24.45	171.19	10.06	-37.5	-39.1	14.9	0.00e+00	0	58	0	1751121920	44	4620
2026-01-07 03:23:25.46	171.25	9.98	-37.3	-38.9	15.0	1.10e-06	0	58	0	1758461952	44	4531
2026-01-07 03:23:26.47	171.32	9.89	-37.2	-38.8	15.1	0.00e+00	0	58	0	1765801984	44	4471
2026-01-07 03:23:27.48	171.38	9.81	-37.4	-39.0	14.9	0.00e+00	0	58	0	1773142016	44	4576
2026-01-07 03:23:28.49	171.44	9.73	-37.4	-39.1	14.9	0.00e+00	0	58	0	1780482048	44	4609
2026-01-07 03:23:29.50	171.50	9.65	-37.3	-38.9	15.0	0.00e+00	0	58	0	1786773504	44	4543
2026-01-07 03:23:30.51	171.56	9.56	-37.4	-39.0	14.9	0.00e+00	0	58	0	1794113536	44	4560
2026-01-07 03:23:31.52	171.62	9.48	-37.5	-39.1	14.8	0.00e+00	0	58	0	1802502144	44	4628
2026-01-07 03:23:32.53	171.69	9.40	-37.4	-39.1	14.8	0.00e+00	0	58	0	1808793600	44	4599
2026-01-07 03:23:33.54	171.75	9.32	-37.4	-39.1	14.8	0.00e+00	0	58	0	1816133632	44	4601
2026-01-07 03:23:34.55	171.81	9.24	-37.5	-39.1	14.7	1.10e-06	0	58	0	1823473664	44	4627
2026-01-07 03:23:35.56	171.87	9.16	-37.5	-39.2	14.6	1.10e-06	0	58	0	1830813696	44	4688
2026-01-07 03:23:36.57	171.92	9.08	-37.5	-39.1	14.6	1.10e-06	0	58	0	1838153728	44	4649
2026-01-07 03:23:37.58	171.98	9.00	-37.5	-39.2	14.5	1.10e-06	0	58	0	1845493760	44	4688
2026-01-07 03:23:38.59	172.04	8.92	-37.6	-39.2	14.5	0.00e+00	0	58	0	1852833792	44	4696
2026-01-07 03:23:39.60	172.10	8.84	-37.6	-39.3	14.4	1.10e-06	0	58	0	1860173824	44	4736
2026-01-07 03:23:40.61	172.16	8.76	-37.5	-39.2	14.5	0.00e+00	0	58	0	1867513856	44	4663
2026-01-07 03:23:41.62	172.22	8.68	-37.6	-39.3	14.3	1.10e-06	0	58	0	1874853888	44	4738
2026-01-07 03:23:42.63	172.27	8.60	-37.6	-39.3	14.4	0.00e+00	0	58	0	1882193920	44	4718
2026-01-07 03:23:43.64	172.33	8.52	-37.7	-39.4	14.2	0.00e+00	0	58	0	1889533952	44	4812
2026-01-07 03:23:44.65	172.39	8.44	-37.5	-39.2	14.4	1.10e-06	0	58	0	1896873984	44	4678
2026-01-07 03:23:45.67	172.45	8.36	-37.6	-39.4	14.2	2.20e-06	0	58	0	1904214016	44	4766
2026-01-07 03:23:46.68	172.50	8.29	-37.7	-39.5	14.0	1.10e-06	0	58	0	1911554048	44	4847
2026-01-07 03:23:47.69	172.56	8.21	-37.8	-39.6	13.9	4.50e-06	0	58	0	1918894080	45	4620
2026-01-07 03:23:48.70	172.61	8.13	-37.8	-39.7	13.7	6.80e-06	0	58	0	1926234112	45	4653
2026-01-07 03:23:49.71	172.67	8.05	-37.6	-39.4	13.9	3.40e-06	0	58	0	1932525568	45	4529
2026-01-07 03:23:50.72	172.73	7.98	-42.1	-46.3	7.6	5.80e-03	0	58	0	1939865600	53	6345
2026-01-07 03:23:51.73	172.78	7.90	-44.9	-55.6	3.8	8.45e-01	0	58	104	1940914176	59	13046
2026-01-07 03:23:52.74	172.84	7.82	-45.1	-55.9	3.8	8.45e-01	0	58	104	1940914176	59	13488
2026-01-07 03:23:53.75	172.89	7.75	-45.2	-56.2	3.8	8.46e-01	0	58	104	1940914176	60	13199
2026-01-07 03:23:54.76	172.94	7.67	-45.3	-56.3	3.8	8.46e-01	0	58	104	1940914176	60	13408
2026-01-07 03:23:55.76	173.00	7.59	-45.4	-56.4	3.8	8.47e-01	0	58	104	1940914176	60	13522
2026-01-07 03:23:56.77	173.05	7.52	-45.4	-56.5	3.8	8.46e-01	0	58	104	1940914176	60	13586
2026-01-07 03:23:57.78	173.10	7.44	-45.5	-56.5	3.8	8.45e-01	0	58	104	1940914176	60	13610
2026-01-07 03:23:58.79	173.16	7.37	-45.5	-56.5	3.8	8.47e-01	0	58	104	1940914176	60	13674
2026-01-07 03:23:59.80	173.21	7.29	-45.5	-56.5	3.8	8.47e-01	0	58	104	1940914176	60	13691
2026-01-07 03:24:00.81	173.26	7.22	-45.5	-56.5	3.8	8.47e-01	0	58	104	1940914176	60	13630
2026-01-07 03:24:01.82	173.32	7.14	-45.5	-56.5	3.8	8.46e-01	0	58	104	1940914176	60	13656
2026-01-07 03:24:02.83	173.37	7.07	-45.4	-56.5	3.8	8.47e-01	0	58	104	1940914176	60	13599
2026-01-07 03:24:03.84	173.42	6.99	-45.4	-56.4	3.8	8.46e-01	0	58	104	1940914176	60	13536
2026-01-07 03:24:04.86	173.47	6.92	-45.4	-56.4	3.8	8.47e-01	0	58	104	1940914176	60	13488
2026-01-07 03:24:05.87	173.52	6.84	-45.4	-56.5	3.8	8.46e-01	0	58	104	1940914176	60	13595
2026-01-07 03:24:06.88	173.57	6.77	-45.4	-56.5	3.8	8.45e-01	0	58	104	1940914176	60	13607
2026-01-07 03:24:07.89	173.63	6.70	-45.4	-56.4	3.8	8.47e-01	0	58	104	1940914176	60	13568
2026-01-07 03:24:08.90	173.68	6.62	-45.4	-56.4	3.8	8.47e-01	0	58	104	1940914176	60	13564
2026-01-07 03:24:09.91	173.73	6.55	-45.4	-56.4	3.8	8.46e-01	0	58	104	1940914176	60	13511
2026-01-07 03:24:10.92	173.78	6.47	-45.4	-56.5	3.8	8.47e-01	0	58	104	1940914176	60	13596
2026-01-07 03:24:11.93	173.83	6.40	-45.4	-56.4	3.8	8.46e-01	0	58	104	1940914176	60	13492
2026-01-07 03:24:12.94	173.88	6.33	-45.4	-56.4	3.8	8.47e-01	0	58	104	1940914176	60	13502
2026-01-07 03:24:13.95	173.93	6.26	-45.4	-56.4	3.8	8.46e-01	0	58	104	1940914176	60	13478
2026-01-07 03:24:14.96	173.97	6.18	-45.4	-56.4	3.8	8.46e-01	0	58	104	1940914176	60	13471
2026-01-07 03:24:15.97	174.02	6.11	-45.4	-56.4	3.8	8.46e-01	0	58	104	1940914176	60	13520
2026-01-07 03:24:16.98	174.07	6.04	-45.4	-56.4	3.8	8.47e-01	0	58	104	1940914176	60	13471
2026-01-07 03:24:17.99	174.12	5.97	-45.4	-56.4	3.8	8.46e-01	0	58	104	1940914176	60	13499
2026-01-07 03:24:19.00	174.17	5.90	-45.4	-56.4	3.8	8.46e-01	0	58	104	1940914176	60	13509
2026-01-07 03:24:20.01	174.22	5.82	-45.4	-56.4	3.8	8.45e-01	0	58	104	1940914176	60	13456
2026-01-07 03:24:21.02	174.27	5.75	-45.4	-56.4	3.8	8.46e-01	0	58	104	1940914176	60	13475
2026-01-07 03:24:22.03	174.31	5.68	-45.4	-56.4	3.8	8.47e-01	0	58	104	1940914176	60	13436
2026-01-07 03:24:23.04	174.36	5.61	-45.4	-56.4	3.8	8.46e-01	0	58	104	1940914176	60	13511
2026-01-07 03:24:24.06	174.41	5.54	-45.4	-56.4	3.8	8.46e-01	0	58	104	1940914176	60	13467
2026-01-07 03:24:25.07	174.45	5.47	-45.4	-56.4	3.8	8.47e-01	0	58	104	1940914176	60	13502
2026-01-07 03:24:26.08	174.50	5.40	-45.4	-56.4	3.8	8.46e-01	0	58	104	1940914176	60	13505
2026-01-07 03:24:27.09	174.55	5.33	-45.4	-56.4	3.8	8.46e-01	0	58	104	1940914176	60	13497
2026-01-07 03:24:28.10	174.59	5.26	-45.4	-56.4	3.8	8.46e-01	0	58	104	1940914176	60	13457
2026-01-07 03:24:29.11	174.64	5.19	-45.3	-56.4	3.8	8.48e-01	0	58	104	1940914176	60	13448
2026-01-07 03:24:30.12	174.69	5.12	-45.3	-56.4	3.8	8.46e-01	0	58	104	1940914176	60	13452
2026-01-07 03:24:31.13	174.73	5.05	-45.3	-56.4	3.8	8.46e-01	0	58	104	1940914176	60	13478
2026-01-07 03:24:32.14	174.78	4.98	-45.3	-56.4	3.8	8.45e-01	0	58	104	1940914176	60	13445
2026-01-07 03:24:33.15	174.82	4.91	-45.3	-56.4	3.8	8.46e-01	0	58	104	1940914176	60	13417
2026-01-07 03:24:34.16	174.87	4.84	-45.3	-56.4	3.8	8.47e-01	0	58	104	1940914176	60	13487
2026-01-07 03:24:35.17	174.91	4.77	-45.3	-56.4	3.8	8.46e-01	0	58	104	1940914176	60	13437
2026-01-07 03:24:36.19	174.96	4.70	-45.3	-56.4	3.8	8.45e-01	0	58	104	1940914176	60	13430
2026-01-07 03:24:37.20	175.00	4.63	-45.3	-56.4	3.8	8.46e-01	0	58	104	1940914176	60	13460
2026-01-07 03:24:38.21	175.05	4.57	-45.3	-56.4	3.8	8.46e-01	0	58	104	1940914176	60	13488
2026-01-07 03:24:39.22	175.09	4.50	-45.3	-56.4	3.8	8.45e-01	0	58	104	1940914176	60	13444
2026-01-07 03:24:40.23	175.14	4.43	-45.3	-56.4	3.8	8.47e-01	0	58	104	1940914176	60	13435
2026-01-07 03:24:41.24	175.18	4.36	-45.3	-56.4	3.8	8.47e-01	0	58	104	1940914176	60	13452
2026-01-07 03:24:42.25	175.22	4.29	-45.3	-56.4	3.8	8.46e-01	0	58	104	1940914176	60	13493
2026-01-07 03:24:43.26	175.27	4.23	-45.3	-56.4	3.8	8.45e-01	0	58	104	1940914176	60	13435
2026-01-07 03:24:44.27	175.31	4.16	-45.3	-56.4	3.8	8.45e-01	0	58	104	1940914176	60	13446
2026-01-07 03:24:45.29	175.35	4.09	-45.3	-56.4	3.8	8.47e-01	0	58	104	1940914176	60	13455
2026-01-07 03:24:46.29	175.40	4.02	-45.3	-56.4	3.8	8.46e-01	0	58	104	1940914176	60	13443
2026-01-07 03:24:47.31	175.44	3.96	-45.3	-56.4	3.8	8.45e-01	0	58	104	1940914176	60	13430
2026-01-07 03:24:48.32	175.48	3.89	-45.3	-56.4	3.8	8.46e-01	0	58	104	1940914176	60	13457
2026-01-07 03:24:49.33	175.52	3.82	-45.3	-56.4	3.8	8.46e-01	0	58	104	1940914176	60	13449
2026-01-07 03:24:50.34	175.57	3.76	-45.3	-56.3	3.8	8.46e-01	0	58	104	1940914176	60	13389
2026-01-07 03:24:51.35	175.61	3.69	-45.3	-56.4	3.8	8.47e-01	0	58	104	1940914176	60	13423
2026-01-07 03:24:52.36	175.65	3.62	-45.3	-56.4	3.8	8.46e-01	0	58	104	1940914176	60	13445
2026-01-07 03:24:53.37	175.69	3.56	-45.3	-56.4	3.8	8.45e-01	0	58	104	1940914176	60	13437
2026-01-07 03:24:54.38	175.73	3.49	-45.3	-56.4	3.8	8.47e-01	0	58	104	1940914176	60	13432
2026-01-07 03:24:55.39	175.77	3.43	-45.3	-56.4	3.8	8.46e-01	0	58	104	1940914176	60	13418
2026-01-07 03:24:56.40	175.81	3.36	-45.3	-56.3	3.8	8.46e-01	0	58	104	1940914176	60	13340
2026-01-07 03:24:57.41	175.86	3.30	-45.3	-56.3	3.8	8.46e-01	0	58	104	1940914176	60	13397
2026-01-07 03:24:58.43	175.90	3.23	-45.3	-56.3	3.8	8.46e-01	0	58	104	1940914176	60	13367
2026-01-07 03:24:59.43	175.94	3.16	-45.3	-56.3	3.8	8.47e-01	0	58	104	1940914176	60	13392
2026-01-07 03:25:00.45	175.98	3.10	-45.3	-56.3	3.8	8.46e-01	0	58	104	1940914176	60	13360
2026-01-07 03:25:01.46	176.02	3.03	-45.3	-56.3	3.8	8.47e-01	0	58	104	1940914176	60	13375
2026-01-07 03:25:02.47	176.06	2.97	-45.3	-56.3	3.8	8.45e-01	0	58	104	1940914176	60	13395
2026-01-07 03:25:03.48	176.10	2.90	-45.3	-56.4	3.8	8.46e-01	0	58	104	1940914176	60	13415
2026-01-07 03:25:04.49	176.14	2.84	-45.3	-56.3	3.8	8.46e-01	0	58	104	1940914176	60	13362
2026-01-07 03:25:05.50	176.18	2.78	-45.3	-56.3	3.8	8.47e-01	0	58	104	1940914176	60	13414
2026-01-07 03:25:06.51	176.22	2.71	-45.3	-56.3	3.8	8.45e-01	0	58	104	1940914176	60	13375
2026-01-07 03:25:07.52	176.26	2.65	-45.3	-56.3	3.8	8.47e-01	0	58	104	1940914176	60	13392
2026-01-07 03:25:08.53	176.29	2.58	-45.3	-56.3	3.8	8.47e-01	0	58	104	1940914176	60	13384
2026-01-07 03:25:09.54	176.33	2.52	-45.3	-56.3	3.8	8.46e-01	0	58	104	1940914176	60	13389
2026-01-07 03:25:10.55	176.37	2.46	-45.3	-56.3	3.8	8.46e-01	0	58	104	1940914176	60	13333
2026-01-07 03:25:11.56	176.41	2.39	-45.3	-56.3	3.8	8.46e-01	0	58	104	1940914176	60	13381
2026-01-07 03:25:12.57	176.45	2.33	-45.3	-56.3	3.8	8.46e-01	0	58	104	1940914176	60	13350
2026-01-07 03:25:13.58	176.49	2.27	-45.3	-56.3	3.8	8.46e-01	0	58	104	1940914176	60	13354
2026-01-07 03:25:14.59	176.53	2.20	-45.3	-56.3	3.8	8.45e-01	0	58	104	1940914176	60	13375
2026-01-07 03:25:15.61	176.56	2.14	-45.3	-56.3	3.8	8.47e-01	0	58	104	1940914176	60	13368
2026-01-07 03:25:16.62	176.60	2.08	-45.3	-56.3	3.8	8.47e-01	0	58	104	1940914176	60	13328
2026-01-07 03:25:17.63	176.64	2.01	-45.3	-56.3	3.8	8.47e-01	0	58	104	1940914176	60	13360

#Closed at: 2026-01-07 03:25:17
#Recorded file [1940 MB]: D:/lorett/data/31039_260107_061834.dat