passes_logs/2026/01/07/R2.0S_Moscow/R2.0S_Moscow__20260107_114453_AQUA_rec.log

#Pass ID: 20260107_114453_AQUA
#Satellite: AQUA
#Configuration: AQUA
#almurnet v.1.7.20251203
#Start time: 2026-01-07 11:44:55

#Version: 2.2.20231116
#Station: R2.0S_Moscow
#Location: 37.707566 lon 55.798166 lat
#TLE: 1 27424U 02022A   26004.96787593  .00001598  00000+0  32997-3 0  9996
#TLE: 2 27424  98.4069 331.2279 0002002  90.2377   0.6092 14.61798176259425

#Time	Az	El	Level	Level2	SNR	BER	BlckErr	Temp	State	Recorded	gain1	gain2
2026-01-07 11:44:55.74	164.34	2.13	-44.9	-63.7	3.8	7.47e-01	0	48	0	0	60	32977
2026-01-07 11:44:56.75	164.35	2.20	-44.9	-63.6	3.8	7.48e-01	0	49	104	0	60	32916
2026-01-07 11:44:57.76	164.35	2.27	-44.8	-63.6	3.8	7.44e-01	0	49	104	0	60	32910
2026-01-07 11:44:58.78	164.36	2.34	-44.9	-63.6	3.8	7.39e-01	0	49	104	0	60	32879
2026-01-07 11:44:59.79	164.37	2.41	-44.8	-63.6	3.8	7.45e-01	0	49	104	0	60	32892
2026-01-07 11:45:00.80	164.38	2.48	-44.8	-63.6	3.8	7.45e-01	0	49	104	0	60	32915
2026-01-07 11:45:01.81	164.38	2.54	-44.8	-63.7	3.8	7.46e-01	0	49	104	0	60	32934
2026-01-07 11:45:02.82	164.39	2.61	-44.8	-63.6	3.8	7.41e-01	0	49	104	0	60	32825
2026-01-07 11:45:03.83	164.40	2.68	-44.8	-63.6	3.8	7.45e-01	0	49	104	0	60	32897
2026-01-07 11:45:04.84	164.41	2.75	-44.8	-63.6	3.8	7.45e-01	0	49	104	0	60	32885
2026-01-07 11:45:05.85	164.42	2.82	-44.8	-63.6	3.8	7.46e-01	0	49	104	0	60	32801
2026-01-07 11:45:06.86	164.42	2.89	-44.8	-63.6	3.8	7.45e-01	0	49	104	0	60	32873
2026-01-07 11:45:07.88	164.43	2.96	-44.8	-63.7	3.8	7.45e-01	0	49	104	0	60	32944
2026-01-07 11:45:08.89	164.44	3.03	-44.8	-63.6	3.8	7.43e-01	0	49	104	0	60	32785
2026-01-07 11:45:09.90	164.45	3.10	-44.8	-63.6	3.8	7.43e-01	0	50	104	0	60	32859
2026-01-07 11:45:10.91	164.46	3.17	-44.7	-63.6	3.8	7.46e-01	0	50	104	0	60	32800
2026-01-07 11:45:11.92	164.46	3.24	-44.8	-63.6	3.8	7.44e-01	0	50	104	0	60	32798
2026-01-07 11:45:12.93	164.47	3.31	-44.8	-63.6	3.8	7.42e-01	0	49	104	0	60	32827
2026-01-07 11:45:13.94	164.48	3.38	-44.8	-63.6	3.8	7.48e-01	0	50	104	0	60	32759
2026-01-07 11:45:14.95	164.49	3.46	-44.8	-63.6	3.8	7.49e-01	0	50	104	0	60	32810
2026-01-07 11:45:15.96	164.50	3.53	-44.8	-63.6	3.8	7.47e-01	0	50	104	0	60	32783
2026-01-07 11:45:16.97	164.50	3.60	-44.8	-63.6	3.8	7.44e-01	0	50	104	0	60	32870
2026-01-07 11:45:17.99	164.51	3.67	-44.8	-63.6	3.8	7.43e-01	0	50	104	0	60	32843
2026-01-07 11:45:19.00	164.52	3.74	-44.8	-63.6	3.8	7.44e-01	0	50	104	0	60	32868
2026-01-07 11:45:20.01	164.53	3.82	-44.8	-63.6	3.8	7.46e-01	0	50	104	0	60	32690
2026-01-07 11:45:21.02	164.54	3.89	-44.8	-63.6	3.8	7.47e-01	0	50	104	0	60	32814
2026-01-07 11:45:22.03	164.55	3.96	-44.8	-63.6	3.8	7.45e-01	0	50	104	0	60	32728
2026-01-07 11:45:23.04	164.55	4.03	-44.8	-63.6	3.8	7.44e-01	0	50	104	0	60	32756
2026-01-07 11:45:24.05	164.56	4.11	-44.8	-63.6	3.8	7.48e-01	0	50	104	0	60	32725
2026-01-07 11:45:25.06	164.57	4.18	-44.8	-63.6	3.8	7.44e-01	0	51	104	0	60	32748
2026-01-07 11:45:26.07	164.58	4.25	-44.8	-63.6	3.8	7.46e-01	0	51	104	0	60	32723
2026-01-07 11:45:27.08	164.59	4.33	-44.8	-63.6	3.8	7.47e-01	0	51	104	0	60	32608
2026-01-07 11:45:28.10	164.60	4.40	-44.8	-63.5	3.8	7.45e-01	0	51	104	0	60	32551
2026-01-07 11:45:29.11	164.61	4.48	-44.8	-63.6	3.8	7.46e-01	0	51	104	0	60	32673
2026-01-07 11:45:30.12	164.61	4.55	-44.8	-63.6	3.8	7.45e-01	0	51	104	0	60	32772
2026-01-07 11:45:31.13	164.62	4.63	-44.8	-63.6	3.8	7.44e-01	0	51	104	0	60	32677
2026-01-07 11:45:32.14	164.63	4.70	-44.8	-63.6	3.8	7.49e-01	0	51	104	0	60	32589
2026-01-07 11:45:33.15	164.64	4.78	-44.8	-63.5	3.8	7.47e-01	0	51	104	0	60	32518
2026-01-07 11:45:34.16	164.65	4.85	-44.8	-63.5	3.8	7.42e-01	0	51	104	0	60	32407
2026-01-07 11:45:35.17	164.66	4.93	-44.8	-63.5	3.8	7.43e-01	0	51	104	0	60	32334
2026-01-07 11:45:36.18	164.67	5.00	-44.8	-63.5	3.8	7.46e-01	0	51	104	0	60	32374
2026-01-07 11:45:37.20	164.68	5.08	-44.8	-63.5	3.8	7.44e-01	0	51	104	0	60	32280
2026-01-07 11:45:38.21	164.69	5.16	-44.8	-63.4	3.8	7.45e-01	0	51	104	0	60	32021
2026-01-07 11:45:39.22	164.69	5.23	-44.8	-63.1	3.8	7.46e-01	0	51	104	0	60	31035
2026-01-07 11:45:40.23	164.70	5.31	-44.8	-62.9	3.8	7.41e-01	0	51	104	0	60	30332
2026-01-07 11:45:41.24	164.71	5.39	-44.8	-62.8	3.8	7.48e-01	0	51	104	0	60	29689
2026-01-07 11:45:42.25	164.72	5.46	-44.8	-62.5	3.8	7.49e-01	0	51	104	0	60	28887
2026-01-07 11:45:43.26	164.73	5.54	-44.8	-62.2	3.8	7.43e-01	0	51	104	0	60	27805
2026-01-07 11:45:44.27	164.74	5.62	-44.8	-62.3	3.8	7.46e-01	0	51	104	0	60	28211
2026-01-07 11:45:45.28	164.75	5.70	-44.8	-62.6	3.8	7.46e-01	0	51	104	0	60	29158
2026-01-07 11:45:46.30	164.76	5.78	-44.8	-62.9	3.8	7.42e-01	0	51	104	0	60	30266
2026-01-07 11:45:47.31	164.77	5.86	-44.8	-63.2	3.8	7.48e-01	0	52	104	0	60	31287
2026-01-07 11:45:48.32	164.78	5.94	-44.8	-63.5	3.8	7.46e-01	0	52	104	0	60	32308
2026-01-07 11:45:49.33	164.79	6.01	-44.8	-63.6	3.8	7.45e-01	0	52	104	0	60	32634
2026-01-07 11:45:50.34	164.79	6.09	-44.8	-63.5	3.8	7.46e-01	0	52	104	0	60	32509
2026-01-07 11:45:51.35	164.80	6.17	-44.8	-63.5	3.8	7.47e-01	0	52	104	0	60	32519
2026-01-07 11:45:52.36	164.81	6.25	-44.8	-63.4	3.8	7.44e-01	0	52	104	0	60	31985
2026-01-07 11:45:53.37	164.82	6.33	-44.8	-63.1	3.8	7.45e-01	0	52	104	0	60	31026
2026-01-07 11:45:54.38	164.83	6.41	-44.8	-63.1	3.8	7.47e-01	0	52	104	0	60	31073
2026-01-07 11:45:55.39	164.84	6.50	-44.8	-62.3	3.8	7.47e-01	0	52	104	0	60	28148
2026-01-07 11:45:56.40	164.85	6.58	-44.8	-61.5	3.8	7.43e-01	0	52	104	0	60	25830
2026-01-07 11:45:57.41	164.86	6.66	-44.7	-60.1	3.9	7.40e-01	0	52	104	0	60	21835
2026-01-07 11:45:58.43	164.87	6.74	-44.6	-58.2	4.9	7.12e-01	0	52	104	0	60	17487
2026-01-07 11:45:59.44	164.88	6.82	-44.6	-57.1	5.6	6.96e-01	0	52	0	0	60	15518
2026-01-07 11:46:00.45	164.89	6.91	-44.4	-55.1	7.2	6.60e-01	90	52	0	1572864	60	12262
2026-01-07 11:46:01.46	164.90	6.99	-44.3	-53.9	8.4	6.42e-01	20	52	0	3670016	60	10709
2026-01-07 11:46:02.47	164.91	7.07	-44.1	-52.6	9.7	6.29e-01	0	52	0	5242880	60	9248
2026-01-07 11:46:03.48	164.92	7.15	-44.0	-51.5	11.2	6.16e-01	0	52	0	7340032	59	8639
2026-01-07 11:46:04.49	164.93	7.24	-43.7	-50.2	12.6	6.09e-01	0	52	0	9437184	59	7429
2026-01-07 11:46:05.50	164.94	7.32	-43.5	-49.4	13.5	6.08e-01	0	52	0	11010048	58	7134
2026-01-07 11:46:06.51	164.95	7.41	-43.0	-48.2	14.7	6.06e-01	0	52	0	13107200	58	6246
2026-01-07 11:46:07.52	164.96	7.49	-42.7	-47.4	15.5	6.08e-01	0	52	0	14680064	57	6052
2026-01-07 11:46:08.53	164.97	7.57	-42.4	-46.6	16.3	6.08e-01	0	52	0	16777216	56	5839
2026-01-07 11:46:09.54	164.98	7.66	-42.0	-46.0	16.9	6.05e-01	0	52	0	18874368	56	5420
2026-01-07 11:46:10.55	164.99	7.75	-41.6	-45.3	17.6	6.05e-01	0	52	0	20447232	55	5304
2026-01-07 11:46:11.56	165.00	7.83	-41.3	-44.7	18.2	6.05e-01	0	52	0	22544384	54	5239
2026-01-07 11:46:12.57	165.01	7.92	-41.2	-44.5	18.4	6.05e-01	0	52	0	24117248	54	5101
2026-01-07 11:46:13.58	165.02	8.00	-40.9	-44.1	18.7	6.06e-01	0	52	0	26214400	53	5181
2026-01-07 11:46:14.59	165.03	8.09	-41.0	-44.2	18.7	6.06e-01	0	53	0	28311552	53	5267
2026-01-07 11:46:15.60	165.04	8.18	-42.4	-46.7	16.6	6.08e-01	0	53	0	29884416	55	6242
2026-01-07 11:46:16.61	165.05	8.26	-40.7	-43.6	19.1	6.08e-01	0	53	0	31981568	53	4920
2026-01-07 11:46:17.62	165.06	8.35	-42.7	-47.2	16.3	6.08e-01	0	53	0	33554432	55	6619
2026-01-07 11:46:18.63	165.07	8.44	-40.8	-43.8	19.2	6.06e-01	0	53	0	35651584	53	5036
2026-01-07 11:46:19.64	165.09	8.53	-41.2	-44.5	18.1	6.05e-01	0	52	0	37748736	54	5138
2026-01-07 11:46:20.65	165.10	8.62	-40.5	-43.4	19.5	6.05e-01	0	53	0	39321600	53	4792
2026-01-07 11:46:21.66	165.11	8.71	-40.3	-43.1	19.8	6.07e-01	0	53	0	41418752	52	4899
2026-01-07 11:46:22.67	165.12	8.80	-40.4	-43.3	19.6	6.06e-01	0	53	0	42991616	52	4991
2026-01-07 11:46:23.68	165.13	8.89	-40.3	-43.1	19.9	6.07e-01	0	53	0	45088768	52	4873
2026-01-07 11:46:24.69	165.14	8.98	-40.4	-43.1	19.8	6.08e-01	0	53	0	47185920	52	4921
2026-01-07 11:46:25.70	165.15	9.07	-40.3	-43.1	19.9	6.06e-01	0	53	0	48758784	52	4890
2026-01-07 11:46:26.71	165.16	9.16	-40.2	-42.9	20.0	6.07e-01	0	53	0	50855936	52	4814
2026-01-07 11:46:27.72	165.17	9.25	-40.2	-42.9	20.0	6.06e-01	0	53	0	52428800	52	4803
2026-01-07 11:46:28.73	165.18	9.34	-40.2	-42.9	20.1	6.09e-01	0	53	0	54525952	52	4794
2026-01-07 11:46:29.74	165.19	9.43	-40.2	-42.8	20.2	6.05e-01	0	53	0	56623104	52	4734
2026-01-07 11:46:30.75	165.21	9.53	-40.1	-42.8	20.3	6.05e-01	0	53	0	58195968	52	4709
2026-01-07 11:46:31.76	165.22	9.62	-40.0	-42.6	20.4	6.07e-01	0	53	0	60293120	52	4634
2026-01-07 11:46:32.77	165.23	9.71	-40.1	-42.6	20.4	6.07e-01	0	53	0	62390272	52	4641
2026-01-07 11:46:33.78	165.24	9.80	-40.0	-42.5	20.5	6.08e-01	0	53	0	63963136	52	4581
2026-01-07 11:46:34.79	165.25	9.90	-40.1	-42.7	20.5	6.07e-01	0	53	0	66060288	51	4939
2026-01-07 11:46:35.80	165.26	9.99	-40.0	-42.6	20.6	6.06e-01	0	53	0	67633152	51	4876
2026-01-07 11:46:36.81	165.27	10.09	-40.0	-42.4	20.7	6.05e-01	0	53	0	69730304	51	4812
2026-01-07 11:46:37.82	165.29	10.18	-40.0	-42.5	20.6	6.07e-01	0	53	0	71827456	51	4854
2026-01-07 11:46:38.83	165.30	10.28	-39.9	-42.4	20.8	6.06e-01	0	53	0	73400320	51	4772
2026-01-07 11:46:39.84	165.31	10.37	-39.8	-42.3	20.9	6.07e-01	0	53	0	75497472	51	4715
2026-01-07 11:46:40.85	165.32	10.47	-39.9	-42.3	20.8	6.03e-01	0	53	0	77594624	51	4759
2026-01-07 11:46:41.85	165.33	10.57	-39.8	-42.2	21.0	6.06e-01	0	53	0	79167488	51	4684
2026-01-07 11:46:42.86	165.35	10.66	-39.9	-42.4	20.8	6.05e-01	0	53	0	81264640	51	4769
2026-01-07 11:46:43.87	165.36	10.76	-39.9	-42.3	20.9	6.04e-01	0	53	0	82837504	51	4745
2026-01-07 11:46:44.88	165.37	10.86	-39.8	-42.2	21.0	6.07e-01	0	53	0	84934656	51	4691
2026-01-07 11:46:45.89	165.38	10.96	-40.0	-42.4	20.6	6.05e-01	0	53	0	86507520	51	4797
2026-01-07 11:46:46.90	165.39	11.06	-39.8	-42.2	21.0	6.07e-01	0	53	0	88604672	51	4697
2026-01-07 11:46:47.91	165.41	11.16	-39.9	-42.3	21.0	6.07e-01	0	54	0	90701824	51	4735
2026-01-07 11:46:48.92	165.42	11.26	-39.9	-42.3	21.0	6.05e-01	0	53	0	92274688	51	4730
2026-01-07 11:46:49.93	165.43	11.36	-39.9	-42.3	21.0	6.06e-01	0	54	0	94371840	51	4752
2026-01-07 11:46:50.94	165.44	11.46	-39.9	-42.3	21.0	6.06e-01	0	53	0	95944704	51	4737
2026-01-07 11:46:51.95	165.46	11.56	-39.9	-42.3	21.0	6.07e-01	0	54	0	98041856	51	4729
2026-01-07 11:46:52.95	165.47	11.66	-39.9	-42.3	21.0	6.07e-01	0	53	0	100139008	51	4725
2026-01-07 11:46:53.96	165.48	11.76	-39.8	-42.2	21.1	6.07e-01	0	54	0	101711872	51	4682
2026-01-07 11:46:54.97	165.50	11.87	-40.0	-42.5	20.9	6.07e-01	0	54	0	103809024	51	4831
2026-01-07 11:46:55.98	165.51	11.97	-40.0	-42.5	20.8	6.06e-01	0	54	0	105906176	51	4825
2026-01-07 11:46:56.99	165.52	12.07	-40.1	-42.5	20.8	6.06e-01	0	54	0	107479040	51	4862
2026-01-07 11:46:58.00	165.53	12.18	-40.0	-42.4	20.9	6.06e-01	0	54	0	109576192	51	4801
2026-01-07 11:46:59.01	165.55	12.28	-39.9	-42.3	21.0	6.07e-01	0	54	0	111149056	51	4734
2026-01-07 11:47:00.02	165.56	12.39	-39.9	-42.3	21.0	6.08e-01	0	54	0	113246208	51	4758
2026-01-07 11:47:01.03	165.57	12.49	-39.9	-42.3	21.1	6.06e-01	0	54	0	115343360	51	4735
2026-01-07 11:47:02.04	165.59	12.60	-39.9	-42.3	21.1	6.05e-01	0	54	0	116916224	51	4726
2026-01-07 11:47:03.05	165.60	12.71	-39.8	-42.2	21.2	6.07e-01	0	54	0	119013376	51	4673
2026-01-07 11:47:04.06	165.61	12.81	-39.9	-42.2	21.1	6.07e-01	0	54	0	120586240	51	4700
2026-01-07 11:47:05.07	165.63	12.92	-39.8	-42.1	21.3	6.06e-01	0	54	0	122683392	51	4617
2026-01-07 11:47:06.08	165.64	13.03	-39.8	-42.0	21.4	6.06e-01	0	54	0	124780544	51	4595
2026-01-07 11:47:07.09	165.66	13.14	-39.7	-42.0	21.4	6.05e-01	0	54	0	126353408	51	4577
2026-01-07 11:47:08.10	165.67	13.25	-39.6	-41.9	21.5	6.06e-01	0	54	0	128450560	51	4518
2026-01-07 11:47:09.11	165.68	13.36	-39.5	-41.8	21.6	6.08e-01	0	54	0	130547712	51	4453
2026-01-07 11:47:10.12	165.70	13.47	-39.5	-41.8	21.7	6.05e-01	0	54	0	132120576	51	4452
2026-01-07 11:47:11.13	165.71	13.58	-39.6	-41.8	21.7	6.07e-01	0	54	0	134217728	51	4454
2026-01-07 11:47:12.14	165.73	13.69	-39.5	-41.8	21.7	6.08e-01	0	54	0	135790592	50	4718
2026-01-07 11:47:13.15	165.74	13.80	-39.4	-41.6	21.8	6.07e-01	0	54	0	137887744	50	4635
2026-01-07 11:47:14.16	165.75	13.92	-39.5	-41.7	21.8	6.07e-01	0	54	0	139984896	50	4664
2026-01-07 11:47:15.17	165.77	14.03	-39.4	-41.6	21.8	6.05e-01	0	54	0	141557760	50	4633
2026-01-07 11:47:16.18	165.78	14.14	-39.3	-41.5	22.0	6.04e-01	0	54	0	143654912	50	4569
2026-01-07 11:47:17.18	165.80	14.26	-39.4	-41.6	21.8	6.07e-01	0	54	0	145227776	50	4634
2026-01-07 11:47:18.19	165.81	14.37	-39.4	-41.6	21.9	6.06e-01	0	54	0	147324928	50	4626
2026-01-07 11:47:19.20	165.83	14.49	-39.4	-41.6	21.8	6.07e-01	0	54	0	149422080	50	4646
2026-01-07 11:47:20.21	165.84	14.60	-39.4	-41.6	21.9	6.08e-01	0	54	0	150994944	50	4641
2026-01-07 11:47:21.22	165.86	14.72	-39.5	-41.7	21.8	6.04e-01	0	54	0	153092096	50	4658
2026-01-07 11:47:22.23	165.87	14.84	-39.5	-41.7	21.8	6.05e-01	0	54	0	154664960	50	4675
2026-01-07 11:47:23.24	165.89	14.96	-39.5	-41.7	21.8	6.07e-01	0	54	0	156762112	50	4682
2026-01-07 11:47:24.25	165.90	15.08	-39.5	-41.7	21.8	6.06e-01	0	54	0	158859264	50	4691
2026-01-07 11:47:25.26	165.92	15.20	-39.6	-41.8	21.7	6.07e-01	0	54	0	160432128	50	4753
2026-01-07 11:47:26.27	165.94	15.32	-39.5	-41.8	21.8	6.04e-01	0	54	0	162529280	50	4706
2026-01-07 11:47:27.27	165.95	15.44	-39.6	-41.7	21.8	6.06e-01	0	54	0	164102144	50	4702
2026-01-07 11:47:28.29	165.97	15.56	-39.6	-41.8	21.8	6.06e-01	0	54	0	166199296	50	4708
2026-01-07 11:47:29.30	165.98	15.68	-39.5	-41.7	21.9	6.06e-01	0	54	0	168296448	50	4674
2026-01-07 11:47:30.31	166.00	15.80	-39.5	-41.7	21.9	6.07e-01	0	54	0	169869312	50	4676
2026-01-07 11:47:31.32	166.02	15.93	-39.4	-41.6	21.9	6.07e-01	0	54	0	171966464	50	4635
2026-01-07 11:47:32.33	166.03	16.05	-39.4	-41.6	22.0	6.07e-01	0	54	0	174063616	50	4599
2026-01-07 11:47:33.33	166.05	16.17	-39.4	-41.6	21.9	6.07e-01	0	54	0	175636480	50	4601
2026-01-07 11:47:34.35	166.07	16.30	-39.4	-41.5	22.1	6.06e-01	0	54	0	177733632	50	4579
2026-01-07 11:47:35.36	166.08	16.43	-39.2	-41.3	22.2	6.08e-01	0	54	0	179306496	50	4481
2026-01-07 11:47:36.37	166.10	16.56	-39.3	-41.5	22.1	6.06e-01	0	55	0	181403648	50	4548
2026-01-07 11:47:37.38	166.12	16.68	-39.3	-41.4	22.2	6.05e-01	0	54	0	183500800	50	4533
2026-01-07 11:47:38.39	166.13	16.81	-39.2	-41.3	22.2	6.08e-01	0	54	0	185073664	50	4486
2026-01-07 11:47:39.40	166.15	16.94	-39.3	-41.4	22.2	6.06e-01	0	55	0	187170816	50	4505
2026-01-07 11:47:40.41	166.17	17.07	-39.2	-41.2	22.3	6.07e-01	0	55	0	188743680	50	4433
2026-01-07 11:47:41.42	166.18	17.20	-39.2	-41.3	22.3	6.07e-01	0	54	0	190840832	50	4454
2026-01-07 11:47:42.43	166.20	17.33	-39.2	-41.3	22.3	6.06e-01	0	55	0	192937984	50	4465
2026-01-07 11:47:43.43	166.22	17.46	-39.3	-41.3	22.3	6.07e-01	0	54	0	194510848	50	4492
2026-01-07 11:47:44.44	166.24	17.60	-39.2	-41.3	22.3	6.06e-01	0	54	0	196608000	50	4449
2026-01-07 11:47:45.46	166.26	17.73	-39.3	-41.4	22.2	6.05e-01	0	54	0	198705152	50	4518
2026-01-07 11:47:46.46	166.27	17.87	-39.4	-41.5	22.1	6.08e-01	0	55	0	200278016	50	4568
2026-01-07 11:47:47.47	166.29	18.00	-39.4	-41.5	22.1	6.07e-01	0	54	0	202375168	50	4590
2026-01-07 11:47:48.48	166.31	18.14	-39.5	-41.6	22.0	6.07e-01	0	55	0	203948032	50	4629
2026-01-07 11:47:49.49	166.33	18.28	-39.4	-41.6	22.1	6.06e-01	0	54	0	206045184	50	4613
2026-01-07 11:47:50.50	166.35	18.41	-39.4	-41.6	22.1	6.05e-01	0	55	0	208142336	50	4612
2026-01-07 11:47:51.51	166.37	18.55	-39.4	-41.6	22.1	6.06e-01	0	55	0	209715200	50	4606
2026-01-07 11:47:52.52	166.39	18.69	-39.4	-41.5	22.1	6.07e-01	0	54	0	211812352	50	4596
2026-01-07 11:47:53.53	166.40	18.83	-39.4	-41.5	22.1	6.06e-01	0	55	0	213385216	50	4590
2026-01-07 11:47:54.54	166.42	18.98	-39.4	-41.5	22.2	6.08e-01	0	55	0	215482368	50	4581
2026-01-07 11:47:55.55	166.44	19.12	-39.4	-41.5	22.1	6.04e-01	0	55	0	217579520	50	4571
2026-01-07 11:47:56.56	166.46	19.26	-39.4	-41.5	22.1	6.08e-01	0	54	0	219152384	50	4596
2026-01-07 11:47:57.57	166.48	19.41	-39.5	-41.6	22.1	6.07e-01	0	55	0	221249536	50	4639
2026-01-07 11:47:58.59	166.50	19.55	-39.5	-41.7	22.0	6.05e-01	0	55	0	222822400	50	4652
2026-01-07 11:47:59.59	166.52	19.70	-39.5	-41.6	22.0	6.06e-01	0	55	0	224919552	50	4644
2026-01-07 11:48:00.60	166.54	19.84	-39.6	-41.7	22.0	6.05e-01	0	55	0	227016704	50	4698
2026-01-07 11:48:01.61	166.56	19.99	-39.6	-41.8	21.9	6.06e-01	0	55	0	228589568	50	4720
2026-01-07 11:48:02.62	166.59	20.14	-39.6	-41.8	21.9	6.07e-01	0	55	0	230686720	50	4737
2026-01-07 11:48:03.63	166.61	20.29	-39.7	-41.8	21.9	6.05e-01	0	55	0	232259584	50	4748
2026-01-07 11:48:04.64	166.63	20.44	-39.7	-41.9	21.8	6.07e-01	0	55	0	234356736	50	4806
2026-01-07 11:48:05.65	166.65	20.60	-39.7	-41.9	21.8	6.07e-01	0	55	0	236453888	50	4767
2026-01-07 11:48:06.66	166.67	20.75	-39.7	-41.9	20.8	6.08e-01	0	55	0	238026752	50	4785
2026-01-07 11:48:07.67	166.69	20.90	-39.7	-41.9	21.8	6.07e-01	0	55	0	240123904	50	4799
2026-01-07 11:48:08.68	166.71	21.06	-39.7	-41.9	21.8	6.07e-01	0	55	0	242221056	50	4783
2026-01-07 11:48:09.69	166.74	21.21	-39.8	-42.0	21.8	6.07e-01	0	55	0	243793920	50	4825
2026-01-07 11:48:10.70	166.76	21.37	-39.8	-42.0	21.7	6.06e-01	0	55	0	245891072	50	4856
2026-01-07 11:48:11.71	166.78	21.53	-39.7	-41.9	21.9	6.04e-01	0	55	0	247463936	50	4799
2026-01-07 11:48:12.72	166.80	21.69	-39.7	-41.9	21.8	6.05e-01	0	55	0	249561088	50	4794
2026-01-07 11:48:13.73	166.83	21.85	-39.7	-41.9	21.9	6.06e-01	0	55	0	251658240	50	4762
2026-01-07 11:48:14.74	166.85	22.01	-39.7	-41.9	21.9	6.06e-01	0	55	0	253231104	50	4771
2026-01-07 11:48:15.75	166.87	22.17	-39.7	-41.8	22.0	6.07e-01	0	55	0	255328256	50	4746
2026-01-07 11:48:16.76	166.90	22.34	-39.7	-41.9	21.9	6.08e-01	0	55	0	256901120	50	4783
2026-01-07 11:48:17.77	166.92	22.50	-39.7	-41.9	21.9	6.06e-01	0	55	0	258998272	50	4798
2026-01-07 11:48:18.78	166.94	22.67	-39.9	-42.1	21.7	6.06e-01	0	55	0	261095424	50	4897
2026-01-07 11:48:19.79	166.97	22.84	-39.9	-42.1	21.7	6.07e-01	0	55	0	262668288	50	4922
2026-01-07 11:48:20.80	166.99	23.00	-39.9	-42.2	21.6	6.05e-01	0	55	0	264765440	50	4943
2026-01-07 11:48:21.81	167.02	23.17	-39.9	-42.2	21.7	6.05e-01	0	55	0	266862592	50	4935
2026-01-07 11:48:22.82	167.04	23.35	-39.9	-42.2	21.6	6.07e-01	0	55	0	268435456	50	4943
2026-01-07 11:48:23.82	167.07	23.52	-39.9	-42.1	21.7	6.06e-01	0	55	0	270532608	50	4901
2026-01-07 11:48:24.83	167.09	23.69	-39.9	-42.1	21.7	6.08e-01	0	55	0	272105472	50	4902
2026-01-07 11:48:25.84	167.12	23.86	-39.8	-42.0	21.8	6.06e-01	0	55	0	274202624	50	4868
2026-01-07 11:48:26.85	167.14	24.04	-39.8	-42.0	21.8	6.07e-01	0	55	0	276299776	50	4862
2026-01-07 11:48:27.86	167.17	24.22	-39.8	-42.0	21.8	6.06e-01	0	55	0	277872640	50	4845
2026-01-07 11:48:28.87	167.20	24.40	-39.9	-42.1	21.8	6.07e-01	0	55	0	279969792	50	4911
2026-01-07 11:48:29.88	167.22	24.58	-39.9	-42.1	21.8	6.08e-01	0	55	0	281542656	50	4878
2026-01-07 11:48:30.89	167.25	24.76	-39.8	-42.0	21.8	6.07e-01	0	55	0	283639808	50	4859
2026-01-07 11:48:31.90	167.28	24.94	-39.8	-42.0	21.8	6.06e-01	0	55	0	285736960	50	4857
2026-01-07 11:48:32.91	167.31	25.12	-39.8	-42.0	21.8	6.03e-01	0	55	0	287309824	50	4861
2026-01-07 11:48:33.92	167.33	25.31	-39.9	-42.1	21.7	6.07e-01	0	55	0	289406976	50	4914
2026-01-07 11:48:34.93	167.36	25.50	-39.9	-42.1	21.7	6.06e-01	0	55	0	290979840	50	4918
2026-01-07 11:48:35.94	167.39	25.68	-39.8	-42.0	21.8	6.06e-01	0	55	0	293076992	50	4845
2026-01-07 11:48:36.96	167.42	25.88	-39.7	-41.9	22.0	6.07e-01	0	55	0	295174144	50	4765
2026-01-07 11:48:37.97	167.45	26.07	-39.6	-41.7	22.2	6.05e-01	0	55	0	296747008	50	4676
2026-01-07 11:48:38.98	167.48	26.26	-39.5	-41.6	22.3	6.06e-01	0	55	0	298844160	50	4626
2026-01-07 11:48:39.98	167.51	26.45	-39.5	-41.6	22.3	6.07e-01	0	55	0	300417024	50	4608
2026-01-07 11:48:40.99	167.54	26.65	-39.6	-41.6	22.3	6.05e-01	0	55	0	302514176	50	4645
2026-01-07 11:48:42.00	167.57	26.84	-39.6	-41.7	22.2	6.05e-01	0	55	0	304611328	50	4689
2026-01-07 11:48:43.01	167.60	27.04	-39.7	-41.8	22.1	6.08e-01	0	55	0	306184192	50	4733
2026-01-07 11:48:44.02	167.63	27.24	-39.6	-41.8	22.1	6.04e-01	0	55	0	308281344	50	4708
2026-01-07 11:48:45.03	167.66	27.44	-39.6	-41.7	22.2	6.08e-01	0	55	0	310378496	50	4656
2026-01-07 11:48:46.04	167.69	27.65	-39.5	-41.5	22.4	6.05e-01	0	55	0	311951360	50	4597
2026-01-07 11:48:47.05	167.73	27.85	-39.3	-41.3	22.6	6.06e-01	0	55	0	314048512	50	4464
2026-01-07 11:48:48.06	167.76	28.06	-39.2	-41.2	22.7	6.07e-01	0	55	0	315621376	50	4417
2026-01-07 11:48:49.07	167.79	28.27	-39.2	-41.2	22.7	6.05e-01	0	55	0	317718528	50	4398
2026-01-07 11:48:50.08	167.83	28.48	-39.2	-41.2	22.7	6.06e-01	0	55	0	319815680	50	4414
2026-01-07 11:48:51.09	167.86	28.69	-39.2	-41.2	22.7	6.07e-01	0	55	0	321388544	50	4430
2026-01-07 11:48:52.09	167.89	28.90	-39.3	-41.3	22.6	6.05e-01	0	55	0	323485696	50	4462
2026-01-07 11:48:53.11	167.93	29.12	-39.3	-41.4	22.6	6.05e-01	0	55	0	325058560	50	4506
2026-01-07 11:48:54.11	167.97	29.33	-39.3	-41.3	22.6	6.05e-01	0	55	0	327155712	50	4457
2026-01-07 11:48:55.12	168.00	29.55	-39.3	-41.3	22.7	6.06e-01	0	55	0	329252864	50	4468
2026-01-07 11:48:56.13	168.04	29.77	-39.3	-41.3	22.7	6.06e-01	0	55	0	330825728	50	4455
2026-01-07 11:48:57.14	168.07	30.00	-39.2	-41.2	22.7	6.06e-01	0	55	0	332922880	50	4421
2026-01-07 11:48:58.15	168.11	30.22	-39.1	-41.1	22.8	6.06e-01	0	55	0	335020032	50	4376
2026-01-07 11:48:59.16	168.15	30.45	-39.2	-41.2	22.8	6.06e-01	0	55	0	336592896	50	4415
2026-01-07 11:49:00.17	168.19	30.67	-39.4	-41.5	22.5	6.07e-01	0	55	0	338690048	50	4569
2026-01-07 11:49:01.18	168.23	30.90	-39.5	-41.5	22.5	6.06e-01	0	55	0	340262912	50	4581
2026-01-07 11:49:02.19	168.26	31.14	-39.4	-41.5	22.5	6.04e-01	0	55	0	342360064	50	4566
2026-01-07 11:49:03.20	168.30	31.37	-39.4	-41.4	22.6	6.07e-01	0	55	0	344457216	50	4540
2026-01-07 11:49:04.21	168.34	31.61	-39.4	-41.4	22.6	6.06e-01	0	55	0	346030080	50	4512
2026-01-07 11:49:05.22	168.39	31.84	-39.3	-41.4	22.6	6.05e-01	0	55	0	348127232	50	4500
2026-01-07 11:49:06.23	168.43	32.08	-39.4	-41.4	22.6	6.08e-01	0	55	0	349700096	50	4521
2026-01-07 11:49:07.24	168.47	32.33	-39.5	-41.5	22.5	6.06e-01	0	55	0	351797248	50	4598
2026-01-07 11:49:08.25	168.51	32.57	-39.6	-41.7	22.3	6.06e-01	0	55	0	353894400	50	4690
2026-01-07 11:49:09.26	168.56	32.82	-39.8	-41.9	22.1	6.06e-01	0	55	0	355467264	50	4784
2026-01-07 11:49:10.27	168.60	33.07	-39.8	-41.9	22.1	6.07e-01	0	56	0	357564416	50	4801
2026-01-07 11:49:11.28	168.64	33.32	-39.8	-41.9	22.1	6.05e-01	0	55	0	359137280	50	4785
2026-01-07 11:49:12.29	168.69	33.57	-39.8	-42.0	22.1	6.06e-01	0	55	0	361234432	50	4816
2026-01-07 11:49:13.30	168.73	33.82	-39.8	-42.0	22.0	6.09e-01	0	56	0	363331584	50	4823
2026-01-07 11:49:14.31	168.78	34.08	-39.9	-42.0	22.0	6.06e-01	0	56	0	364904448	50	4851
2026-01-07 11:49:15.32	168.83	34.34	-40.0	-42.2	21.9	6.07e-01	0	55	0	367001600	50	4955
2026-01-07 11:49:16.33	168.88	34.60	-40.2	-42.5	21.6	6.07e-01	0	55	0	368574464	50	5126
2026-01-07 11:49:17.34	168.93	34.87	-40.4	-42.7	21.4	6.06e-01	0	55	0	370671616	51	4965
2026-01-07 11:49:18.35	168.97	35.13	-40.4	-42.8	21.3	6.05e-01	0	55	0	372768768	51	4985
2026-01-07 11:49:19.35	169.02	35.40	-40.4	-42.8	21.3	6.08e-01	0	56	0	374341632	51	5014
2026-01-07 11:49:20.36	169.08	35.67	-40.6	-43.0	21.1	6.06e-01	0	55	0	376438784	51	5110
2026-01-07 11:49:21.37	169.13	35.94	-40.6	-43.0	21.1	6.06e-01	0	55	0	378535936	51	5142
2026-01-07 11:49:22.38	169.18	36.22	-40.7	-43.2	20.9	6.06e-01	0	55	0	380108800	52	4935
2026-01-07 11:49:23.39	169.23	36.50	-40.8	-43.3	20.7	6.08e-01	0	55	0	382205952	52	5027
2026-01-07 11:49:24.40	169.29	36.78	-41.0	-43.6	20.5	6.08e-01	0	56	0	383778816	52	5190
2026-01-07 11:49:25.41	169.34	37.07	-41.2	-43.9	20.2	6.09e-01	0	56	0	385875968	52	5354
2026-01-07 11:49:26.42	169.40	37.35	-41.3	-44.0	20.0	6.04e-01	0	56	0	387973120	53	5127
2026-01-07 11:49:27.43	169.46	37.64	-41.4	-44.2	19.9	6.06e-01	0	55	0	389545984	53	5223
2026-01-07 11:49:28.44	169.52	37.93	-41.4	-44.2	19.9	6.08e-01	0	56	0	391643136	53	5265
2026-01-07 11:49:29.45	169.57	38.23	-41.5	-44.4	19.7	6.07e-01	0	55	0	393216000	53	5367
2026-01-07 11:49:30.46	169.64	38.52	-41.6	-44.6	19.5	6.05e-01	0	55	0	395313152	53	5466
2026-01-07 11:49:31.47	169.70	38.82	-41.4	-44.2	19.8	6.05e-01	0	56	0	397410304	53	5269
2026-01-07 11:49:32.48	169.76	39.13	-41.3	-44.0	20.0	6.07e-01	0	56	0	398983168	53	5142
2026-01-07 11:49:33.49	169.82	39.43	-41.3	-44.0	20.0	6.08e-01	0	56	0	401080320	53	5139
2026-01-07 11:49:34.50	169.89	39.74	-41.2	-43.9	20.2	6.05e-01	0	55	0	403177472	53	5056
2026-01-07 11:49:35.51	169.95	40.05	-41.2	-43.8	20.2	6.08e-01	0	56	0	404750336	53	5037
2026-01-07 11:49:36.52	170.02	40.37	-41.0	-43.7	20.4	6.05e-01	0	56	0	406847488	53	4933
2026-01-07 11:49:37.53	170.09	40.68	-41.0	-43.6	20.4	6.06e-01	0	56	0	408420352	53	4885
2026-01-07 11:49:38.54	170.16	41.00	-40.9	-43.4	20.6	6.06e-01	0	56	0	410517504	53	4791
2026-01-07 11:49:39.55	170.23	41.32	-40.5	-43.0	21.0	6.04e-01	0	56	0	412614656	53	4546
2026-01-07 11:49:40.56	170.30	41.65	-40.4	-42.7	21.3	6.08e-01	0	56	0	414187520	52	4694
2026-01-07 11:49:41.57	170.38	41.98	-40.1	-42.4	21.6	6.07e-01	0	56	0	416284672	52	4523
2026-01-07 11:49:42.58	170.45	42.31	-40.0	-42.3	21.8	6.06e-01	0	56	0	417857536	52	4447
2026-01-07 11:49:43.59	170.53	42.65	-40.0	-42.2	22.0	6.05e-01	0	56	0	419954688	51	4652
2026-01-07 11:49:44.60	170.61	42.98	-39.9	-42.1	22.0	6.05e-01	0	56	0	422051840	51	4599
2026-01-07 11:49:45.61	170.69	43.33	-39.7	-41.8	22.3	6.06e-01	0	56	0	423624704	51	4489
2026-01-07 11:49:46.62	170.77	43.67	-39.6	-41.7	22.4	6.08e-01	0	56	0	425721856	51	4415
2026-01-07 11:49:47.63	170.85	44.02	-39.7	-41.8	22.3	6.05e-01	0	56	0	427294720	51	4484
2026-01-07 11:49:48.64	170.94	44.37	-39.7	-41.8	22.3	6.09e-01	0	55	0	429391872	51	4457
2026-01-07 11:49:49.65	171.03	44.72	-39.5	-41.5	22.5	6.07e-01	0	56	0	431489024	51	4340
2026-01-07 11:49:50.66	171.12	45.08	-39.5	-41.6	22.5	6.06e-01	0	56	0	433061888	51	4363
2026-01-07 11:49:51.67	171.21	45.44	-39.7	-41.7	22.4	6.05e-01	0	56	0	435159040	51	4441
2026-01-07 11:49:52.68	171.30	45.80	-39.4	-41.3	22.7	6.06e-01	0	56	0	436731904	50	4491
2026-01-07 11:49:53.69	171.40	46.17	-39.4	-41.4	22.7	6.06e-01	0	56	0	438829056	50	4539
2026-01-07 11:49:54.70	171.50	46.54	-39.6	-41.7	22.4	6.07e-01	0	56	0	440926208	50	4676
2026-01-07 11:49:55.70	171.59	46.91	-39.7	-41.7	22.4	6.07e-01	0	56	0	442499072	50	4699
2026-01-07 11:49:56.71	171.70	47.29	-39.5	-41.5	22.6	6.07e-01	0	56	0	444596224	50	4586
2026-01-07 11:49:57.72	171.80	47.67	-39.4	-41.4	22.7	6.08e-01	0	56	0	446693376	50	4528
2026-01-07 11:49:58.74	171.91	48.06	-39.4	-41.4	22.7	6.06e-01	0	56	0	448266240	50	4532
2026-01-07 11:49:59.75	172.02	48.45	-39.7	-41.8	22.3	6.05e-01	0	56	0	450363392	50	4728
2026-01-07 11:50:00.75	172.13	48.84	-39.5	-41.5	22.6	6.07e-01	0	56	0	451936256	50	4590
2026-01-07 11:50:01.76	172.25	49.23	-39.4	-41.4	22.7	6.07e-01	0	55	0	454033408	50	4529
2026-01-07 11:50:02.77	172.37	49.63	-39.6	-41.7	22.4	6.05e-01	0	56	0	456130560	50	4688
2026-01-07 11:50:03.78	172.49	50.03	-39.2	-41.2	22.9	6.07e-01	0	56	0	457703424	50	4411
2026-01-07 11:50:04.79	172.61	50.44	-39.1	-41.0	23.2	6.08e-01	0	56	0	459800576	50	4310
2026-01-07 11:50:05.80	172.74	50.85	-39.3	-41.2	22.9	6.09e-01	0	56	0	461373440	50	4427
2026-01-07 11:50:06.81	172.87	51.26	-39.2	-41.2	22.9	6.07e-01	0	56	0	463470592	50	4392
2026-01-07 11:50:07.82	173.01	51.68	-38.9	-40.8	23.3	6.06e-01	0	56	0	465567744	49	4465
2026-01-07 11:50:08.83	173.15	52.10	-38.8	-40.7	23.4	6.06e-01	0	56	0	467140608	49	4419
2026-01-07 11:50:09.84	173.29	52.52	-38.9	-40.8	23.3	6.07e-01	0	56	0	469237760	49	4479
2026-01-07 11:50:10.85	173.44	52.95	-38.6	-40.5	23.6	6.06e-01	0	56	0	471334912	49	4303
2026-01-07 11:50:11.86	173.59	53.38	-38.8	-40.6	23.5	6.04e-01	0	56	0	472907776	49	4366
2026-01-07 11:50:12.87	173.75	53.82	-38.8	-40.7	23.4	6.04e-01	0	56	0	475004928	49	4411
2026-01-07 11:50:13.88	173.91	54.25	-38.8	-40.7	23.4	6.07e-01	0	56	0	476577792	49	4422
2026-01-07 11:50:14.89	174.07	54.70	-39.0	-40.9	23.2	6.06e-01	0	56	0	478674944	49	4522
2026-01-07 11:50:15.90	174.24	55.14	-39.0	-41.0	23.2	6.06e-01	0	56	0	480772096	49	4554
2026-01-07 11:50:16.91	174.42	55.59	-39.4	-41.4	22.8	6.06e-01	0	56	0	482344960	49	4761
2026-01-07 11:50:17.92	174.60	56.05	-39.6	-41.7	22.4	6.08e-01	0	56	0	484442112	49	4965
2026-01-07 11:50:18.93	174.79	56.50	-39.6	-41.7	22.5	6.07e-01	0	56	0	486014976	49	4933
2026-01-07 11:50:19.94	174.98	56.96	-39.6	-41.7	22.5	6.08e-01	0	56	0	488112128	49	4938
2026-01-07 11:50:20.95	175.18	57.43	-40.2	-42.5	21.7	6.05e-01	0	56	0	490209280	50	5128
2026-01-07 11:50:21.96	175.39	57.90	-40.1	-42.3	21.8	6.07e-01	0	56	0	491782144	51	4747
2026-01-07 11:50:22.97	175.61	58.37	-40.1	-42.3	21.9	6.06e-01	0	56	0	493879296	51	4743
2026-01-07 11:50:23.98	175.83	58.84	-40.3	-42.6	21.5	6.04e-01	0	56	0	495452160	51	4920
2026-01-07 11:50:24.99	176.06	59.32	-40.4	-42.7	21.5	6.04e-01	0	56	0	497549312	51	4958
2026-01-07 11:50:25.99	176.30	59.80	-40.5	-42.8	21.4	6.07e-01	0	56	0	499646464	51	5024
2026-01-07 11:50:27.00	176.55	60.28	-40.7	-43.2	21.0	6.08e-01	0	56	0	501219328	52	4934
2026-01-07 11:50:28.01	176.80	60.77	-40.7	-43.2	21.0	6.04e-01	0	56	0	503316480	52	4927
2026-01-07 11:50:29.02	177.07	61.26	-40.8	-43.3	20.8	6.09e-01	0	56	0	504889344	52	5020
2026-01-07 11:50:30.03	177.35	61.76	-41.1	-43.7	20.4	6.08e-01	0	56	0	506986496	52	5275
2026-01-07 11:50:31.04	177.64	62.26	-41.3	-44.1	20.1	6.08e-01	0	56	0	509083648	53	5170
2026-01-07 11:50:32.05	177.94	62.76	-41.4	-44.1	20.0	6.06e-01	0	56	0	510656512	53	5210
2026-01-07 11:50:33.06	178.26	63.26	-41.7	-44.6	19.6	6.06e-01	0	56	0	512753664	53	5504
2026-01-07 11:50:34.07	178.59	63.77	-41.9	-44.9	19.3	6.05e-01	0	56	0	514850816	54	5374
2026-01-07 11:50:35.08	178.93	64.28	-42.4	-45.8	18.4	6.07e-01	0	56	0	516423680	55	5635
2026-01-07 11:50:36.09	179.29	64.80	-42.3	-45.6	18.6	6.06e-01	0	56	0	518520832	55	5496
2026-01-07 11:50:37.10	179.67	65.31	-42.9	-46.6	17.6	6.05e-01	0	56	0	520093696	56	5842
2026-01-07 11:50:38.11	180.06	65.83	-42.8	-46.3	18.0	6.07e-01	0	56	0	522190848	56	5641
2026-01-07 11:50:39.12	180.47	66.35	-43.2	-47.2	17.0	6.05e-01	0	56	0	524288000	57	5913
2026-01-07 11:50:40.13	180.90	66.87	-42.9	-46.5	17.8	6.07e-01	0	56	0	525860864	57	5434
2026-01-07 11:50:41.14	181.36	67.40	-43.0	-46.8	17.5	6.06e-01	0	56	0	527958016	57	5606
2026-01-07 11:50:42.15	181.84	67.93	-43.3	-47.4	16.8	6.09e-01	0	56	0	529530880	57	6040
2026-01-07 11:50:43.16	182.34	68.46	-43.2	-47.1	17.1	6.06e-01	0	56	0	531628032	57	5826
2026-01-07 11:50:44.17	182.87	68.99	-43.1	-47.0	17.3	6.06e-01	0	56	0	533725184	57	5751
2026-01-07 11:50:45.18	183.43	69.52	-43.7	-48.2	16.0	6.07e-01	0	56	0	535298048	57	6624
2026-01-07 11:50:46.19	184.02	70.05	-43.2	-47.1	17.0	6.05e-01	0	56	0	537395200	57	5831
2026-01-07 11:50:47.21	184.66	70.59	-43.1	-46.9	17.3	6.08e-01	0	56	0	539492352	57	5720
2026-01-07 11:50:48.21	185.31	71.12	-43.3	-47.4	16.8	6.08e-01	0	56	0	541065216	57	6030
2026-01-07 11:50:49.22	186.02	71.66	-42.6	-46.0	18.2	6.07e-01	0	56	0	543162368	57	5121
2026-01-07 11:50:50.23	186.77	72.20	-42.6	-46.2	18.0	6.06e-01	0	56	0	544735232	57	5226
2026-01-07 11:50:51.24	187.57	72.73	-42.5	-45.9	18.3	6.04e-01	0	56	0	546832384	56	5350
2026-01-07 11:50:52.25	188.43	73.27	-42.2	-45.3	18.9	6.05e-01	0	56	0	548929536	56	5031
2026-01-07 11:50:53.26	189.34	73.80	-42.1	-45.2	19.0	6.08e-01	0	56	0	550502400	56	4959
2026-01-07 11:50:54.27	190.32	74.33	-42.1	-45.1	19.1	6.05e-01	0	56	0	552599552	56	4918
2026-01-07 11:50:55.28	191.37	74.86	-42.1	-45.2	19.1	6.06e-01	0	56	0	554172416	56	4941
2026-01-07 11:50:56.29	192.49	75.39	-41.9	-44.9	19.2	6.07e-01	0	56	0	556269568	55	5079
2026-01-07 11:50:57.30	193.71	75.91	-41.7	-44.7	19.5	6.06e-01	0	56	0	558366720	55	4942
2026-01-07 11:50:58.31	195.02	76.43	-41.6	-44.6	19.5	6.06e-01	0	56	0	559939584	55	4876
2026-01-07 11:50:59.32	196.44	76.94	-41.6	-44.4	19.7	6.07e-01	0	56	0	562036736	55	4802
2026-01-07 11:51:00.33	197.97	77.45	-41.5	-44.4	19.7	6.05e-01	0	56	0	563609600	54	5063
2026-01-07 11:51:01.34	199.64	77.94	-41.3	-44.0	20.1	6.06e-01	0	56	0	565706752	54	4843
2026-01-07 11:51:02.35	201.45	78.43	-41.4	-44.2	19.8	6.06e-01	0	56	0	567803904	54	4952
2026-01-07 11:51:03.36	203.43	78.91	-41.3	-44.0	20.0	6.06e-01	0	56	0	569376768	54	4859
2026-01-07 11:51:04.37	205.58	79.38	-40.6	-43.0	21.0	6.06e-01	0	56	0	571473920	53	4575
2026-01-07 11:51:05.38	207.93	79.83	-40.7	-43.1	20.9	6.07e-01	0	56	0	573046784	53	4651
2026-01-07 11:51:06.39	210.50	80.26	-40.4	-42.8	21.2	6.07e-01	0	56	0	575143936	52	4719
2026-01-07 11:51:07.40	213.30	80.67	-40.1	-42.3	21.7	6.08e-01	0	56	0	577241088	52	4474
2026-01-07 11:51:08.40	216.33	81.06	-39.9	-42.0	22.1	6.07e-01	0	56	0	578813952	51	4595
2026-01-07 11:51:09.42	219.69	81.42	-39.7	-41.9	22.1	6.07e-01	0	56	0	580911104	51	4533
2026-01-07 11:51:10.42	223.27	81.75	-39.8	-41.9	22.2	6.07e-01	0	56	0	583008256	51	4505
2026-01-07 11:51:11.43	227.17	82.05	-40.0	-42.2	21.9	6.07e-01	0	56	0	584581120	51	4681
2026-01-07 11:51:12.44	231.36	82.31	-39.9	-42.1	22.0	6.07e-01	0	56	0	586678272	51	4633
2026-01-07 11:51:13.45	235.82	82.53	-40.1	-42.3	21.8	6.06e-01	0	56	0	588251136	51	4747
2026-01-07 11:51:14.46	240.52	82.70	-40.1	-42.3	21.7	6.07e-01	0	56	0	590348288	51	4754
2026-01-07 11:51:15.47	245.41	82.82	-40.3	-42.6	21.5	6.06e-01	0	56	0	592445440	51	4914
2026-01-07 11:51:16.48	250.43	82.88	-40.3	-42.6	21.6	6.05e-01	0	56	0	594018304	51	4878
2026-01-07 11:51:17.49	255.50	82.89	-40.2	-42.4	21.7	6.07e-01	0	56	0	596115456	51	4803
2026-01-07 11:51:18.50	260.54	82.85	-40.2	-42.5	21.6	6.06e-01	0	56	0	597688320	51	4843
2026-01-07 11:51:19.51	265.49	82.75	-40.0	-42.1	22.0	6.07e-01	0	56	0	599785472	51	4647
2026-01-07 11:51:20.52	270.26	82.60	-40.1	-42.3	21.7	6.06e-01	0	56	0	601882624	51	4743
2026-01-07 11:51:21.53	274.82	82.40	-39.6	-41.7	22.4	6.07e-01	0	56	0	603455488	51	4420
2026-01-07 11:51:22.54	279.11	82.16	-40.1	-42.3	21.7	6.06e-01	0	56	0	605552640	51	4756
2026-01-07 11:51:23.55	283.12	81.87	-39.8	-42.0	22.2	6.06e-01	0	56	0	607649792	51	4552
2026-01-07 11:51:24.56	286.85	81.55	-39.8	-42.0	22.2	6.06e-01	0	56	0	609222656	51	4551
2026-01-07 11:51:25.57	290.28	81.20	-40.0	-42.1	22.0	6.04e-01	0	56	0	611319808	51	4645
2026-01-07 11:51:26.58	293.44	80.82	-40.4	-42.7	21.4	6.05e-01	0	56	0	612892672	51	4961
2026-01-07 11:51:27.58	296.31	80.42	-40.2	-42.5	21.6	6.06e-01	0	56	0	614989824	51	4848
2026-01-07 11:51:28.59	298.96	79.99	-40.7	-43.2	21.0	6.07e-01	0	56	0	617086976	51	5230
2026-01-07 11:51:29.60	301.39	79.55	-40.7	-43.2	20.9	6.06e-01	0	56	0	618659840	52	4934
2026-01-07 11:51:30.61	303.62	79.09	-40.6	-43.0	21.1	6.07e-01	0	56	0	620756992	52	4827
2026-01-07 11:51:31.62	305.66	78.62	-41.0	-43.6	20.5	6.06e-01	0	56	0	622329856	52	5193
2026-01-07 11:51:32.63	307.53	78.14	-41.0	-43.6	20.5	6.06e-01	0	56	0	624427008	52	5161
2026-01-07 11:51:33.64	309.25	77.64	-41.2	-43.9	20.1	6.07e-01	0	56	0	625999872	53	5072
2026-01-07 11:51:34.65	310.83	77.14	-41.1	-43.8	19.6	6.06e-01	0	56	0	628097024	53	5015
2026-01-07 11:51:35.66	312.29	76.63	-41.4	-44.2	19.9	6.07e-01	0	56	0	630194176	53	5275
2026-01-07 11:51:36.67	313.64	76.11	-41.9	-44.9	19.2	6.06e-01	0	56	0	631767040	54	5386
2026-01-07 11:51:37.68	314.89	75.59	-41.5	-44.3	19.9	6.04e-01	0	56	0	633864192	54	4991
2026-01-07 11:51:38.69	316.05	75.07	-42.1	-45.2	18.9	6.06e-01	0	56	0	635961344	54	5570
2026-01-07 11:51:39.70	317.13	74.54	-42.1	-45.2	18.9	6.06e-01	0	56	0	637534208	54	5576
2026-01-07 11:51:40.70	318.12	74.02	-42.1	-45.2	18.9	6.05e-01	0	56	0	639631360	54	5574
2026-01-07 11:51:41.71	319.06	73.49	-42.0	-45.2	19.0	6.06e-01	0	56	0	641204224	54	5532
2026-01-07 11:51:42.72	319.94	72.95	-42.2	-45.5	18.6	6.05e-01	0	56	0	643301376	55	5438
2026-01-07 11:51:43.73	320.76	72.42	-42.5	-45.9	18.3	6.07e-01	0	56	0	645398528	55	5672
2026-01-07 11:51:44.74	321.53	71.89	-42.4	-45.8	18.4	6.06e-01	0	56	0	646971392	55	5611
2026-01-07 11:51:45.75	322.25	71.35	-42.4	-45.7	18.4	6.05e-01	0	56	0	649068544	55	5556
2026-01-07 11:51:46.76	322.93	70.82	-42.3	-45.5	18.6	6.06e-01	0	56	0	651165696	55	5444
2026-01-07 11:51:47.77	323.57	70.28	-42.6	-46.2	17.9	6.06e-01	0	56	0	652738560	55	5897
2026-01-07 11:51:48.78	324.18	69.75	-42.7	-46.2	18.0	6.07e-01	0	56	0	654835712	56	5577
2026-01-07 11:51:49.79	324.75	69.22	-41.9	-45.0	19.1	6.08e-01	0	56	0	656408576	55	5140
2026-01-07 11:51:50.80	325.29	68.69	-42.3	-45.6	18.6	6.06e-01	0	56	0	658505728	55	5478
2026-01-07 11:51:51.81	325.81	68.16	-42.9	-46.6	17.7	6.07e-01	0	56	0	660602880	56	5819
2026-01-07 11:51:52.82	326.29	67.63	-42.8	-46.3	18.0	6.05e-01	0	56	0	662175744	56	5617
2026-01-07 11:51:53.83	326.76	67.11	-42.5	-45.9	18.2	6.06e-01	0	56	0	664272896	56	5379
2026-01-07 11:51:54.84	327.20	66.58	-42.4	-45.6	18.8	6.06e-01	0	56	0	665845760	56	5168
2026-01-07 11:51:55.85	327.62	66.06	-43.2	-47.1	17.1	6.06e-01	0	56	0	667942912	56	6192
2026-01-07 11:51:56.86	328.02	65.54	-42.7	-46.3	17.9	6.06e-01	0	56	0	670040064	56	5648
2026-01-07 11:51:57.87	328.40	65.03	-42.2	-45.3	18.8	6.07e-01	0	56	0	671612928	55	5334
2026-01-07 11:51:58.88	328.77	64.52	-42.2	-45.4	18.8	6.07e-01	0	56	0	673710080	55	5355
2026-01-07 11:51:59.89	329.12	64.00	-42.2	-45.4	18.7	6.08e-01	0	56	0	675282944	55	5398
2026-01-07 11:52:00.90	329.45	63.50	-41.5	-44.3	19.8	6.06e-01	0	56	0	677380096	55	4740
2026-01-07 11:52:01.91	329.77	62.99	-41.3	-44.1	20.1	6.05e-01	0	56	0	679477248	54	4878
2026-01-07 11:52:02.92	330.08	62.49	-41.0	-43.6	20.6	6.07e-01	0	56	0	681050112	54	4601
2026-01-07 11:52:03.93	330.37	61.99	-41.0	-43.5	20.6	6.05e-01	0	56	0	683147264	53	4866
2026-01-07 11:52:04.94	330.66	61.50	-40.8	-43.3	20.8	6.06e-01	0	56	0	684720128	53	4746
2026-01-07 11:52:05.95	330.93	61.01	-41.1	-43.7	20.4	6.08e-01	0	56	0	686817280	53	4972
2026-01-07 11:52:06.96	331.19	60.52	-40.7	-43.1	21.0	6.09e-01	0	56	0	688914432	53	4602
2026-01-07 11:52:07.97	331.44	60.03	-40.6	-42.9	21.2	6.07e-01	0	56	0	690487296	52	4804
2026-01-07 11:52:08.98	331.68	59.55	-40.8	-43.3	20.9	6.06e-01	0	56	0	692584448	52	5019
2026-01-07 11:52:09.99	331.92	59.07	-40.8	-43.2	20.9	6.06e-01	0	56	0	694157312	52	4964
2026-01-07 11:52:11.00	332.14	58.60	-40.6	-42.9	21.2	6.07e-01	0	56	0	696254464	52	4801
2026-01-07 11:52:12.01	332.36	58.13	-40.3	-42.6	21.5	6.04e-01	0	56	0	698351616	52	4643
2026-01-07 11:52:13.02	332.57	57.66	-40.1	-42.3	21.8	6.08e-01	0	57	0	699924480	52	4444
2026-01-07 11:52:14.03	332.78	57.19	-39.9	-42.1	22.1	6.06e-01	0	56	0	702021632	51	4606
2026-01-07 11:52:15.04	332.97	56.73	-39.5	-41.5	22.6	6.05e-01	0	56	0	704118784	51	4321
2026-01-07 11:52:16.05	333.16	56.28	-39.2	-41.1	23.1	6.06e-01	0	56	0	705691648	50	4354
2026-01-07 11:52:17.06	333.35	55.82	-39.1	-41.1	23.1	6.04e-01	0	56	0	707788800	50	4342
2026-01-07 11:52:18.07	333.53	55.37	-39.3	-41.3	22.9	6.06e-01	0	56	0	709361664	50	4480
2026-01-07 11:52:19.07	333.70	54.93	-39.1	-41.0	23.1	6.05e-01	0	56	0	711458816	50	4310
2026-01-07 11:52:20.08	333.87	54.49	-38.9	-40.8	23.3	6.06e-01	0	56	0	713555968	49	4453
2026-01-07 11:52:21.09	334.03	54.05	-39.1	-41.1	23.1	6.07e-01	0	56	0	715128832	49	4608
2026-01-07 11:52:22.10	334.19	53.62	-39.2	-41.1	23.0	6.08e-01	0	56	0	717225984	49	4616
2026-01-07 11:52:23.11	334.34	53.19	-39.1	-41.1	23.0	6.08e-01	0	56	0	719323136	49	4605
2026-01-07 11:52:24.12	334.49	52.76	-39.0	-40.8	23.3	6.07e-01	0	56	0	720896000	49	4488
2026-01-07 11:52:25.13	334.64	52.33	-39.1	-41.0	23.1	6.06e-01	0	56	0	722993152	49	4577
2026-01-07 11:52:26.14	334.78	51.91	-39.4	-41.4	22.7	6.07e-01	0	56	0	724566016	49	4788
2026-01-07 11:52:27.15	334.91	51.50	-39.4	-41.3	22.8	6.05e-01	0	56	0	726663168	49	4758
2026-01-07 11:52:28.16	335.05	51.08	-39.3	-41.3	22.8	6.05e-01	0	56	0	728760320	49	4736
2026-01-07 11:52:29.17	335.18	50.67	-39.5	-41.5	22.7	6.06e-01	0	56	0	730333184	49	4841
2026-01-07 11:52:30.18	335.30	50.27	-39.8	-41.9	22.2	6.07e-01	0	56	0	732430336	50	4812
2026-01-07 11:52:31.19	335.43	49.87	-40.0	-42.1	22.0	6.05e-01	0	56	0	734003200	50	4920
2026-01-07 11:52:32.20	335.55	49.47	-39.9	-42.0	22.1	6.05e-01	0	56	0	736100352	50	4841
2026-01-07 11:52:33.21	335.66	49.07	-39.9	-42.0	22.2	6.04e-01	0	56	0	738197504	50	4825
2026-01-07 11:52:34.22	335.78	48.68	-39.7	-41.8	22.3	6.05e-01	0	56	0	739770368	50	4732
2026-01-07 11:52:35.23	335.89	48.29	-39.5	-41.5	22.5	6.09e-01	0	56	0	741867520	50	4587
2026-01-07 11:52:36.24	336.00	47.91	-39.6	-41.6	22.5	6.06e-01	0	56	0	743964672	50	4611
2026-01-07 11:52:37.25	336.10	47.53	-39.6	-41.7	22.5	6.08e-01	0	56	0	745537536	50	4663
2026-01-07 11:52:38.26	336.21	47.15	-39.7	-41.7	22.4	6.05e-01	0	56	0	747634688	50	4693
2026-01-07 11:52:39.27	336.31	46.77	-39.7	-41.8	22.3	6.07e-01	0	56	0	749207552	50	4723
2026-01-07 11:52:40.28	336.41	46.40	-39.8	-42.0	22.2	6.06e-01	0	56	0	751304704	50	4823
2026-01-07 11:52:41.29	336.50	46.04	-39.9	-42.1	22.0	6.06e-01	0	56	0	752877568	50	4903
2026-01-07 11:52:42.30	336.60	45.67	-40.0	-42.2	21.9	6.08e-01	0	56	0	754974720	50	4971
2026-01-07 11:52:43.31	336.69	45.31	-39.9	-42.1	22.0	6.06e-01	0	56	0	757071872	50	4885
2026-01-07 11:52:44.32	336.78	44.95	-39.8	-41.9	22.2	6.05e-01	0	56	0	758644736	50	4779
2026-01-07 11:52:45.33	336.87	44.60	-39.8	-41.8	22.3	6.07e-01	0	56	0	760741888	50	4759
2026-01-07 11:52:46.34	336.96	44.25	-39.9	-42.0	22.1	6.04e-01	0	56	0	762314752	50	4853
2026-01-07 11:52:47.35	337.04	43.90	-39.8	-42.0	22.2	6.06e-01	0	56	0	764411904	50	4820
2026-01-07 11:52:48.36	337.12	43.56	-39.8	-41.9	22.2	6.06e-01	0	56	0	766509056	50	4781
2026-01-07 11:52:49.37	337.21	43.22	-40.0	-42.2	21.9	6.05e-01	0	56	0	768081920	50	4966
2026-01-07 11:52:50.38	337.29	42.88	-40.3	-42.6	21.6	6.08e-01	0	56	0	770179072	51	4871
2026-01-07 11:52:51.38	337.36	42.55	-40.3	-42.6	21.6	6.04e-01	0	56	0	772276224	51	4876
2026-01-07 11:52:52.39	337.44	42.21	-40.2	-42.4	21.7	6.06e-01	0	56	0	773849088	51	4807
2026-01-07 11:52:53.40	337.51	41.89	-40.2	-42.5	21.7	6.06e-01	0	56	0	775946240	51	4818
2026-01-07 11:52:54.41	337.59	41.56	-40.3	-42.6	21.5	6.04e-01	0	56	0	777519104	51	4903
2026-01-07 11:52:55.42	337.66	41.24	-40.5	-42.9	21.3	6.06e-01	0	56	0	779616256	51	5045
2026-01-07 11:52:56.43	337.73	40.92	-40.7	-43.1	20.9	6.06e-01	0	56	0	781713408	52	4892
2026-01-07 11:52:57.44	337.80	40.60	-40.9	-43.5	20.6	6.05e-01	0	56	0	783286272	52	5134
2026-01-07 11:52:58.45	337.87	40.29	-41.0	-43.5	20.5	6.06e-01	0	56	0	785383424	52	5150
2026-01-07 11:52:59.46	337.93	39.97	-40.9	-43.4	20.6	6.07e-01	0	56	0	786956288	52	5092
2026-01-07 11:53:00.47	338.00	39.67	-40.6	-43.0	21.0	6.03e-01	0	56	0	789053440	52	4859
2026-01-07 11:53:01.48	338.06	39.36	-40.5	-42.9	21.1	6.08e-01	0	56	0	791150592	52	4799
2026-01-07 11:53:02.49	338.13	39.06	-40.7	-43.2	20.8	6.06e-01	0	56	0	792723456	52	4931
2026-01-07 11:53:03.50	338.19	38.76	-40.8	-43.3	20.8	6.07e-01	0	56	0	794820608	52	5000
2026-01-07 11:53:04.51	338.25	38.46	-40.7	-43.2	20.8	6.05e-01	0	56	0	796917760	52	4978
2026-01-07 11:53:05.52	338.31	38.17	-40.7	-43.2	20.8	6.08e-01	0	56	0	798490624	52	4938
2026-01-07 11:53:06.53	338.37	37.88	-40.5	-42.9	21.1	6.05e-01	0	56	0	800587776	52	4790
2026-01-07 11:53:07.54	338.43	37.59	-40.4	-42.7	21.3	6.05e-01	0	56	0	802160640	52	4698
2026-01-07 11:53:08.55	338.49	37.30	-40.3	-42.7	21.3	6.05e-01	0	56	0	804257792	52	4664
2026-01-07 11:53:09.56	338.54	37.02	-40.2	-42.5	21.5	6.05e-01	0	56	0	806354944	52	4575
2026-01-07 11:53:10.57	338.60	36.73	-40.2	-42.5	21.5	6.03e-01	0	56	0	807927808	52	4565
2026-01-07 11:53:11.58	338.65	36.46	-40.0	-42.2	21.7	6.06e-01	0	56	0	810024960	52	4441
2026-01-07 11:53:12.59	338.70	36.18	-39.9	-42.1	21.9	6.08e-01	0	56	0	812122112	51	4620
2026-01-07 11:53:13.60	338.76	35.91	-39.9	-42.0	22.0	6.06e-01	0	56	0	813694976	51	4582
2026-01-07 11:53:14.61	338.81	35.63	-39.8	-41.9	22.1	6.07e-01	0	56	0	815792128	51	4533
2026-01-07 11:53:15.62	338.86	35.36	-39.8	-41.9	22.2	6.05e-01	0	56	0	817364992	51	4503
2026-01-07 11:53:16.63	338.91	35.10	-39.7	-41.8	22.2	6.07e-01	0	56	0	819462144	51	4483
2026-01-07 11:53:17.64	338.96	34.83	-39.7	-41.8	22.2	6.06e-01	0	56	0	821559296	51	4477
2026-01-07 11:53:18.65	339.01	34.57	-39.6	-41.7	22.3	6.06e-01	0	56	0	823132160	51	4419
2026-01-07 11:53:19.66	339.06	34.31	-39.6	-41.6	22.4	6.05e-01	0	56	0	825229312	51	4384
2026-01-07 11:53:20.67	339.10	34.06	-39.4	-41.5	22.5	6.06e-01	0	56	0	826802176	50	4560
2026-01-07 11:53:21.68	339.15	33.80	-39.3	-41.3	22.7	6.06e-01	0	56	0	828899328	50	4471
2026-01-07 11:53:22.69	339.20	33.55	-39.2	-41.2	22.8	6.07e-01	0	56	0	830996480	50	4423
2026-01-07 11:53:23.70	339.24	33.30	-39.1	-41.1	22.9	6.07e-01	0	56	0	832569344	50	4350
2026-01-07 11:53:24.71	339.29	33.05	-39.0	-41.0	23.0	6.05e-01	0	56	0	834666496	50	4307
2026-01-07 11:53:25.72	339.33	32.80	-39.0	-40.9	23.0	6.06e-01	0	56	0	836239360	50	4259
2026-01-07 11:53:26.73	339.37	32.56	-38.8	-40.7	22.8	6.04e-01	0	56	0	838336512	49	4432
2026-01-07 11:53:27.74	339.42	32.32	-38.8	-40.7	23.2	6.08e-01	0	56	0	840433664	49	4419
2026-01-07 11:53:28.75	339.46	32.08	-38.8	-40.7	23.2	6.07e-01	0	56	0	842006528	49	4410
2026-01-07 11:53:29.76	339.50	31.84	-38.8	-40.7	23.2	6.03e-01	0	56	0	844103680	49	4408
2026-01-07 11:53:30.77	339.54	31.60	-38.8	-40.7	23.2	6.06e-01	0	56	0	845676544	49	4414
2026-01-07 11:53:31.78	339.58	31.37	-38.8	-40.7	23.2	6.05e-01	0	56	0	847773696	49	4437
2026-01-07 11:53:32.79	339.62	31.14	-38.9	-40.8	23.1	6.07e-01	0	56	0	849870848	49	4477
2026-01-07 11:53:33.80	339.66	30.91	-39.0	-40.9	23.0	6.07e-01	0	56	0	851443712	49	4522
2026-01-07 11:53:34.81	339.70	30.68	-39.0	-40.9	22.9	6.07e-01	0	56	0	853540864	49	4539
2026-01-07 11:53:35.82	339.74	30.45	-39.0	-40.9	23.0	6.08e-01	0	56	0	855113728	49	4522
2026-01-07 11:53:36.83	339.77	30.23	-39.0	-41.0	22.9	6.04e-01	0	56	0	857210880	49	4553
2026-01-07 11:53:37.84	339.81	30.00	-39.0	-40.9	23.0	6.07e-01	0	56	0	859308032	49	4517
2026-01-07 11:53:38.85	339.85	29.78	-38.9	-40.9	23.0	6.05e-01	0	56	0	860880896	49	4506
2026-01-07 11:53:39.86	339.89	29.57	-39.0	-40.9	22.9	6.04e-01	0	56	0	862978048	49	4516
2026-01-07 11:53:40.86	339.92	29.35	-39.0	-40.9	22.9	6.06e-01	0	56	0	865075200	49	4545
2026-01-07 11:53:41.87	339.96	29.13	-39.0	-40.9	22.9	6.06e-01	0	56	0	866648064	49	4542
2026-01-07 11:53:42.88	339.99	28.92	-39.1	-41.0	22.8	6.06e-01	0	56	0	868745216	49	4584
2026-01-07 11:53:43.89	340.03	28.71	-39.1	-41.1	22.7	6.07e-01	0	56	0	870318080	49	4634
2026-01-07 11:53:44.90	340.06	28.50	-39.2	-41.2	22.6	6.06e-01	0	56	0	872415232	49	4697
2026-01-07 11:53:45.91	340.09	28.29	-39.3	-41.3	22.5	6.06e-01	0	56	0	874512384	49	4735
2026-01-07 11:53:46.92	340.13	28.08	-39.3	-41.3	22.5	6.07e-01	0	56	0	876085248	49	4738
2026-01-07 11:53:47.93	340.16	27.88	-39.3	-41.4	22.4	6.06e-01	0	56	0	878182400	49	4786
2026-01-07 11:53:48.94	340.19	27.68	-39.4	-41.5	22.3	6.04e-01	0	57	0	880279552	49	4820
2026-01-07 11:53:49.95	340.23	27.47	-39.4	-41.6	22.3	6.08e-01	0	57	0	881852416	49	4874
2026-01-07 11:53:50.96	340.26	27.27	-39.4	-41.5	22.3	6.07e-01	0	56	0	883949568	49	4869
2026-01-07 11:53:51.97	340.29	27.08	-39.4	-41.5	22.3	6.06e-01	0	56	0	885522432	49	4849
2026-01-07 11:53:52.98	340.32	26.88	-39.5	-41.6	22.2	6.05e-01	0	56	0	887619584	49	4886
2026-01-07 11:53:53.99	340.35	26.68	-39.5	-41.6	22.2	6.06e-01	0	56	0	889716736	49	4916
2026-01-07 11:53:55.00	340.38	26.49	-39.5	-41.7	22.1	6.06e-01	0	56	0	891289600	49	4950
2026-01-07 11:53:56.01	340.41	26.30	-39.6	-41.7	22.0	6.07e-01	0	56	0	893386752	49	4979
2026-01-07 11:53:57.02	340.44	26.10	-39.6	-41.8	22.0	6.05e-01	0	56	0	894959616	49	4995
2026-01-07 11:53:58.02	340.47	25.92	-39.6	-41.8	21.9	6.04e-01	0	56	0	897056768	49	5019
2026-01-07 11:53:59.03	340.50	25.73	-39.7	-41.9	21.8	6.05e-01	0	56	0	898629632	49	5084
2026-01-07 11:54:00.04	340.53	25.54	-39.8	-42.0	21.7	6.06e-01	0	56	0	900726784	50	4837
2026-01-07 11:54:01.05	340.56	25.36	-39.8	-42.0	21.7	6.05e-01	0	56	0	902823936	50	4854
2026-01-07 11:54:02.06	340.59	25.17	-39.8	-42.0	21.7	6.04e-01	0	57	0	904396800	50	4851
2026-01-07 11:54:03.07	340.61	24.99	-39.7	-42.0	21.7	6.08e-01	0	56	0	906493952	50	4831
2026-01-07 11:54:04.08	340.64	24.81	-39.8	-42.0	21.7	6.03e-01	0	56	0	908591104	50	4850
2026-01-07 11:54:05.09	340.67	24.63	-39.8	-42.0	21.6	6.06e-01	0	57	0	910163968	50	4856
2026-01-07 11:54:06.10	340.70	24.45	-39.8	-42.1	21.5	6.06e-01	0	56	0	912261120	50	4901
2026-01-07 11:54:07.11	340.72	24.27	-39.9	-42.2	21.4	6.05e-01	0	56	0	913833984	50	4935
2026-01-07 11:54:08.12	340.75	24.10	-39.8	-42.2	21.4	6.07e-01	0	56	0	915931136	50	4929
2026-01-07 11:54:09.13	340.78	23.92	-39.8	-42.0	21.5	6.09e-01	0	56	0	918028288	50	4863
2026-01-07 11:54:10.14	340.80	23.75	-39.7	-42.0	21.6	6.05e-01	0	56	0	919601152	50	4825
2026-01-07 11:54:11.15	340.83	23.58	-39.8	-42.1	21.4	6.04e-01	0	56	0	921698304	50	4900
2026-01-07 11:54:12.16	340.85	23.41	-39.7	-42.0	21.4	6.03e-01	0	56	0	923271168	50	4863
2026-01-07 11:54:13.17	340.88	23.24	-39.8	-42.2	21.3	6.02e-01	0	56	0	925368320	50	4936
2026-01-07 11:54:14.18	340.90	23.07	-39.8	-42.1	21.2	6.00e-01	0	56	0	927465472	50	4921
2026-01-07 11:54:15.19	340.93	22.90	-39.5	-41.8	21.5	6.00e-01	0	56	0	929038336	50	4729
2026-01-07 11:54:16.20	340.95	22.73	-39.6	-41.9	21.3	6.03e-01	0	56	0	931135488	50	4789
2026-01-07 11:54:17.21	340.98	22.57	-39.6	-42.1	21.0	5.99e-01	0	56	0	933232640	50	4872
2026-01-07 11:54:18.22	341.00	22.41	-39.5	-41.9	21.1	6.01e-01	0	56	0	934805504	50	4781
2026-01-07 11:54:19.23	341.03	22.24	-39.4	-41.9	21.0	6.00e-01	0	56	0	936902656	50	4767
2026-01-07 11:54:20.24	341.05	22.08	-39.5	-41.9	20.9	6.03e-01	0	56	0	938475520	50	4800
2026-01-07 11:54:21.25	341.07	21.92	-39.3	-41.8	20.8	6.03e-01	0	56	0	940572672	50	4725
2026-01-07 11:54:22.26	341.10	21.76	-39.1	-41.5	21.1	5.97e-01	0	56	0	942669824	50	4565
2026-01-07 11:54:23.27	341.12	21.60	-39.0	-41.3	21.2	6.01e-01	0	56	0	944242688	50	4489
2026-01-07 11:54:24.28	341.14	21.45	-38.9	-41.2	21.2	6.01e-01	0	56	0	946339840	49	4703
2026-01-07 11:54:25.29	341.17	21.29	-38.9	-41.4	20.9	5.99e-01	0	56	0	947912704	49	4785
2026-01-07 11:54:26.30	341.19	21.13	-39.2	-41.9	20.3	6.03e-01	0	56	0	950009856	49	5053
2026-01-07 11:54:27.30	341.21	20.98	-39.7	-42.6	19.4	6.04e-01	0	56	0	952107008	49	5527
2026-01-07 11:54:28.32	341.23	20.83	-40.3	-43.8	17.9	6.01e-01	0	56	0	953679872	51	5623
2026-01-07 11:54:29.33	341.26	20.68	-40.8	-45.1	16.2	6.01e-01	0	56	0	955777024	52	6181
2026-01-07 11:54:30.34	341.28	20.52	-41.3	-46.8	14.2	6.01e-01	0	56	0	957349888	53	7109
2026-01-07 11:54:31.35	341.30	20.37	-41.7	-48.8	11.9	6.09e-01	0	56	0	959447040	53	8869
2026-01-07 11:54:32.36	341.32	20.23	-41.8	-50.9	9.3	6.28e-01	0	56	0	961544192	54	10710
2026-01-07 11:54:33.37	341.34	20.08	-41.9	-53.0	6.9	6.64e-01	92	56	0	963117056	54	13676
2026-01-07 11:54:34.38	341.36	19.93	-41.7	-55.2	5.2	7.04e-01	0	56	0	964689920	54	17575
2026-01-07 11:54:35.38	341.38	19.79	-41.5	-57.6	3.8	7.46e-01	0	56	104	964689920	54	23128
2026-01-07 11:54:36.40	341.40	19.64	-41.3	-58.5	3.9	7.46e-01	0	56	104	964689920	54	25767
2026-01-07 11:54:37.41	341.42	19.49	-41.1	-59.6	3.8	7.45e-01	0	56	104	964689920	54	29183
2026-01-07 11:54:38.42	341.44	19.35	-41.3	-59.8	3.8	7.44e-01	0	56	104	964689920	54	29957
2026-01-07 11:54:39.42	341.46	19.21	-40.8	-60.0	3.8	7.47e-01	0	56	104	964689920	53	32182
2026-01-07 11:54:40.43	341.49	19.07	-40.7	-60.4	3.8	7.47e-01	0	57	104	964689920	52	35869
2026-01-07 11:54:41.44	341.50	18.93	-40.5	-60.4	3.8	7.48e-01	0	57	104	964689920	53	33886
2026-01-07 11:54:42.45	341.52	18.79	-40.4	-60.4	3.8	7.44e-01	0	57	104	964689920	52	35727
2026-01-07 11:54:43.46	341.54	18.65	-40.6	-60.4	3.8	7.46e-01	0	56	104	964689920	53	33817
2026-01-07 11:54:44.47	341.56	18.51	-41.0	-60.5	3.8	7.43e-01	0	56	104	964689920	52	36163
2026-01-07 11:54:45.48	341.58	18.37	-40.9	-60.4	3.8	7.46e-01	0	56	104	964689920	52	35975
2026-01-07 11:54:46.49	341.60	18.24	-40.6	-60.4	3.8	7.43e-01	0	56	104	964689920	52	35817
2026-01-07 11:54:47.50	341.62	18.10	-40.9	-60.4	3.8	7.45e-01	0	56	104	964689920	52	35891
2026-01-07 11:54:48.51	341.64	17.97	-40.7	-60.4	3.8	7.48e-01	0	57	104	964689920	52	35868
2026-01-07 11:54:49.52	341.66	17.83	-41.0	-60.4	3.8	7.44e-01	0	57	104	964689920	52	35917
2026-01-07 11:54:50.53	341.68	17.70	-40.9	-60.4	3.8	7.47e-01	0	56	104	964689920	52	35960
2026-01-07 11:54:51.54	341.70	17.57	-40.9	-60.3	3.8	7.46e-01	0	56	104	964689920	52	35671
2026-01-07 11:54:52.55	341.71	17.43	-40.5	-60.5	3.8	7.46e-01	0	56	104	964689920	52	36119
2026-01-07 11:54:53.56	341.73	17.30	-40.7	-60.3	3.8	7.44e-01	0	56	104	964689920	53	33651
2026-01-07 11:54:54.57	341.75	17.17	-40.8	-60.3	3.8	7.45e-01	0	56	104	964689920	53	33455
2026-01-07 11:54:55.58	341.77	17.04	-40.8	-60.3	3.8	7.45e-01	0	57	104	964689920	53	33507
2026-01-07 11:54:56.59	341.79	16.92	-41.0	-60.2	3.8	7.44e-01	0	56	104	964689920	53	33274
2026-01-07 11:54:57.60	341.80	16.79	-40.9	-60.4	3.8	7.45e-01	0	56	104	964689920	53	33818
2026-01-07 11:54:58.61	341.82	16.66	-41.1	-60.3	3.8	7.45e-01	0	57	104	964689920	52	35554
2026-01-07 11:54:59.62	341.84	16.53	-41.2	-60.4	3.8	7.43e-01	0	56	104	964689920	52	35893
2026-01-07 11:55:00.63	341.86	16.41	-41.7	-60.6	3.8	7.46e-01	0	57	104	964689920	53	34611
2026-01-07 11:55:01.64	341.87	16.28	-41.2	-60.4	3.8	7.44e-01	0	57	104	964689920	53	33785
2026-01-07 11:55:02.65	341.89	16.16	-41.5	-60.5	3.8	7.48e-01	0	57	104	964689920	53	34094
2026-01-07 11:55:03.66	341.91	16.04	-41.3	-60.4	3.8	7.47e-01	0	56	104	964689920	53	33900
2026-01-07 11:55:04.67	341.92	15.91	-41.3	-60.3	3.8	7.42e-01	0	57	104	964689920	53	33627
2026-01-07 11:55:05.68	341.94	15.79	-41.7	-60.6	3.8	7.47e-01	0	57	104	964689920	53	34607
2026-01-07 11:55:06.69	341.96	15.67	-41.4	-60.3	3.8	7.46e-01	0	57	104	964689920	54	31612
2026-01-07 11:55:07.70	341.97	15.55	-41.7	-60.6	3.8	7.47e-01	0	57	104	964689920	54	32857
2026-01-07 11:55:08.71	341.99	15.43	-41.5	-60.4	3.8	7.47e-01	0	57	104	964689920	54	32165
2026-01-07 11:55:09.72	342.01	15.31	-41.6	-60.4	3.8	7.49e-01	0	57	104	964689920	54	32112
2026-01-07 11:55:10.73	342.02	15.19	-41.5	-60.4	3.8	7.44e-01	0	57	104	964689920	54	31875
2026-01-07 11:55:11.74	342.04	15.07	-41.6	-60.4	3.8	7.50e-01	0	57	104	964689920	54	32149
2026-01-07 11:55:12.75	342.06	14.95	-41.3	-60.2	3.8	7.46e-01	0	56	104	964689920	54	31208
2026-01-07 11:55:13.76	342.07	14.84	-41.5	-60.6	3.8	7.45e-01	0	56	104	964689920	54	32652
2026-01-07 11:55:14.77	342.09	14.72	-41.2	-60.3	3.8	7.42e-01	0	57	104	964689920	54	31511
2026-01-07 11:55:15.78	342.10	14.61	-41.4	-60.6	3.8	7.42e-01	0	57	104	964689920	54	32573
2026-01-07 11:55:16.79	342.12	14.49	-41.5	-60.5	3.8	7.46e-01	0	57	104	964689920	54	32508
2026-01-07 11:55:17.80	342.13	14.38	-41.5	-60.4	3.8	7.45e-01	0	57	104	964689920	54	31882
2026-01-07 11:55:18.81	342.15	14.26	-41.3	-60.5	3.8	7.48e-01	0	56	104	964689920	54	32250
2026-01-07 11:55:19.82	342.17	14.15	-41.5	-60.4	3.8	7.44e-01	0	57	104	964689920	54	31843
2026-01-07 11:55:20.82	342.18	14.04	-40.8	-60.3	3.8	7.45e-01	0	57	104	964689920	53	33516
2026-01-07 11:55:21.83	342.20	13.92	-41.4	-60.6	3.8	7.47e-01	0	57	104	964689920	53	34601
2026-01-07 11:55:22.84	342.21	13.81	-40.6	-60.3	3.8	7.50e-01	0	57	104	964689920	53	33342
2026-01-07 11:55:23.85	342.23	13.70	-41.4	-60.6	3.8	7.44e-01	0	56	104	964689920	53	34525
2026-01-07 11:55:24.86	342.24	13.59	-41.1	-60.4	3.8	7.45e-01	0	57	104	964689920	53	33808
2026-01-07 11:55:25.88	342.26	13.48	-41.5	-60.4	3.8	7.47e-01	0	56	104	964689920	53	33955
2026-01-07 11:55:26.89	342.27	13.37	-41.1	-60.3	3.8	7.46e-01	0	57	104	964689920	53	33669
2026-01-07 11:55:27.90	342.29	13.26	-41.4	-60.5	3.8	7.45e-01	0	57	104	964689920	53	34147
2026-01-07 11:55:28.91	342.30	13.15	-40.3	-60.1	3.8	7.45e-01	0	57	104	964689920	52	34825
2026-01-07 11:55:29.92	342.31	13.05	-41.5	-60.5	3.8	7.43e-01	0	57	104	964689920	53	34126
2026-01-07 11:55:30.93	342.33	12.94	-40.5	-60.2	3.8	7.46e-01	0	57	104	964689920	52	34911
2026-01-07 11:55:31.94	342.34	12.83	-41.4	-60.4	3.8	7.44e-01	0	57	104	964689920	53	34043
2026-01-07 11:55:32.95	342.36	12.73	-41.5	-60.5	3.8	7.41e-01	0	57	104	964689920	53	34193
2026-01-07 11:55:33.96	342.37	12.62	-41.3	-60.4	3.8	7.48e-01	0	57	104	964689920	53	34076
2026-01-07 11:55:34.97	342.39	12.52	-41.5	-60.4	3.8	7.46e-01	0	57	104	964689920	53	34037
2026-01-07 11:55:35.97	342.40	12.41	-41.2	-60.4	3.8	7.47e-01	0	57	104	964689920	53	33950
2026-01-07 11:55:36.98	342.41	12.31	-41.1	-60.2	3.8	7.47e-01	0	57	104	964689920	53	33156
2026-01-07 11:55:37.99	342.43	12.20	-41.2	-60.4	3.8	7.47e-01	0	57	104	964689920	53	33697
2026-01-07 11:55:39.00	342.44	12.10	-41.2	-60.2	3.8	7.43e-01	0	57	104	964689920	53	33198
2026-01-07 11:55:40.01	342.46	12.00	-41.1	-60.4	3.8	7.45e-01	0	57	104	964689920	53	33746
2026-01-07 11:55:41.02	342.47	11.90	-41.3	-60.2	3.8	7.44e-01	0	57	104	964689920	53	33184
2026-01-07 11:55:42.03	342.48	11.79	-41.1	-60.3	3.8	7.47e-01	0	57	104	964689920	53	33589
2026-01-07 11:55:43.04	342.50	11.69	-41.3	-60.1	3.8	7.43e-01	0	57	104	964689920	53	32754
2026-01-07 11:55:44.05	342.51	11.59	-41.1	-60.3	3.8	7.44e-01	0	57	104	964689920	53	33663
2026-01-07 11:55:45.06	342.52	11.49	-41.1	-60.1	3.8	7.45e-01	0	57	104	964689920	53	32662
2026-01-07 11:55:46.07	342.54	11.39	-41.2	-60.4	3.8	7.46e-01	0	57	104	964689920	53	33785
2026-01-07 11:55:47.08	342.55	11.29	-41.0	-60.0	3.8	7.45e-01	0	57	104	964689920	53	32470
2026-01-07 11:55:48.10	342.56	11.19	-41.2	-60.3	3.8	7.47e-01	0	57	104	964689920	53	33629
2026-01-07 11:55:49.10	342.58	11.09	-41.3	-60.1	3.8	7.41e-01	0	57	104	964689920	53	32875
2026-01-07 11:55:50.11	342.59	11.00	-41.4	-60.5	3.8	7.46e-01	0	57	104	964689920	53	34105
2026-01-07 11:55:51.12	342.60	10.90	-41.3	-60.2	3.8	7.47e-01	0	57	104	964689920	53	33124
2026-01-07 11:55:52.13	342.61	10.80	-41.4	-60.4	3.8	7.44e-01	0	57	104	964689920	53	34064
2026-01-07 11:55:53.14	342.63	10.70	-41.1	-59.9	3.8	7.45e-01	0	57	104	964689920	53	32166
2026-01-07 11:55:54.16	342.64	10.61	-41.1	-60.1	3.8	7.49e-01	0	57	104	964689920	53	32624
2026-01-07 11:55:55.17	342.65	10.51	-41.1	-60.0	3.8	7.45e-01	0	57	104	964689920	53	32275
2026-01-07 11:55:56.18	342.67	10.42	-41.1	-60.0	3.8	7.48e-01	0	57	104	964689920	53	32362
2026-01-07 11:55:57.19	342.68	10.32	-41.5	-60.3	3.8	7.47e-01	0	57	104	964689920	53	33678
2026-01-07 11:55:58.20	342.69	10.23	-41.3	-60.3	3.8	7.45e-01	0	57	104	964689920	53	33414
2026-01-07 11:55:59.21	342.70	10.13	-41.5	-60.3	3.8	7.48e-01	0	57	104	964689920	53	33683
2026-01-07 11:56:00.22	342.72	10.04	-41.3	-60.2	3.8	7.45e-01	0	57	104	964689920	53	33119
2026-01-07 11:56:01.23	342.73	9.94	-41.2	-60.1	3.8	7.48e-01	0	57	104	964689920	53	32758
2026-01-07 11:56:02.24	342.74	9.85	-41.2	-60.1	3.8	7.46e-01	0	57	104	964689920	53	32690
2026-01-07 11:56:03.25	342.75	9.76	-41.3	-60.2	3.8	7.45e-01	0	57	104	964689920	53	33084
2026-01-07 11:56:04.26	342.77	9.67	-41.3	-60.2	3.8	7.43e-01	0	57	104	964689920	53	32997
2026-01-07 11:56:05.27	342.78	9.57	-41.3	-60.3	3.8	7.47e-01	0	57	104	964689920	53	33484
2026-01-07 11:56:06.28	342.79	9.48	-41.3	-60.1	3.8	7.46e-01	0	57	104	964689920	53	32846
2026-01-07 11:56:07.29	342.80	9.39	-41.3	-60.3	3.8	7.42e-01	0	57	104	964689920	53	33377
2026-01-07 11:56:08.30	342.81	9.30	-41.3	-60.1	3.8	7.44e-01	0	57	104	964689920	53	32886
2026-01-07 11:56:09.31	342.83	9.21	-41.3	-60.2	3.8	7.44e-01	0	57	104	964689920	53	33261
2026-01-07 11:56:10.32	342.84	9.12	-41.4	-60.3	3.8	7.47e-01	0	57	104	964689920	53	33397
2026-01-07 11:56:11.33	342.85	9.03	-41.3	-60.2	3.8	7.47e-01	0	57	104	964689920	53	33217
2026-01-07 11:56:12.34	342.86	8.94	-41.2	-60.2	3.8	7.46e-01	0	57	104	964689920	53	33106
2026-01-07 11:56:13.35	342.87	8.85	-41.3	-60.3	3.8	7.45e-01	0	57	104	964689920	53	33365
2026-01-07 11:56:14.36	342.88	8.76	-41.4	-60.4	3.8	7.44e-01	0	57	104	964689920	53	33718
2026-01-07 11:56:15.37	342.90	8.67	-41.3	-60.3	3.8	7.46e-01	0	57	104	964689920	53	33404
2026-01-07 11:56:16.38	342.91	8.59	-41.4	-60.3	3.8	7.46e-01	0	57	104	964689920	53	33648
2026-01-07 11:56:17.39	342.92	8.50	-41.3	-60.2	3.8	7.44e-01	0	57	104	964689920	53	33295
2026-01-07 11:56:18.40	342.93	8.41	-41.2	-60.2	3.8	7.44e-01	0	57	104	964689920	53	33120
2026-01-07 11:56:19.41	342.94	8.32	-41.3	-60.3	3.8	7.45e-01	0	57	104	964689920	53	33371
2026-01-07 11:56:20.42	342.95	8.24	-41.3	-60.2	3.8	7.44e-01	0	57	104	964689920	53	33168
2026-01-07 11:56:21.43	342.97	8.15	-41.4	-60.3	3.8	7.47e-01	0	57	104	964689920	53	33527
2026-01-07 11:56:22.44	342.98	8.07	-41.3	-60.3	3.8	7.44e-01	0	57	104	964689920	53	33329
2026-01-07 11:56:23.45	342.99	7.98	-41.4	-60.3	3.8	7.48e-01	0	57	104	964689920	53	33371
2026-01-07 11:56:24.46	343.00	7.89	-41.2	-60.1	3.8	7.47e-01	0	57	104	964689920	53	32709
2026-01-07 11:56:25.47	343.01	7.81	-43.1	-62.1	3.8	7.45e-01	0	57	104	964689920	56	34536
2026-01-07 11:56:26.48	343.02	7.72	-45.2	-64.0	3.8	7.44e-01	0	57	104	964689920	60	34139
2026-01-07 11:56:27.49	343.03	7.64	-45.8	-64.6	3.8	7.43e-01	0	57	104	964689920	62	32713
2026-01-07 11:56:28.50	343.04	7.56	-46.0	-64.8	3.8	7.45e-01	0	57	104	964689920	62	33380
2026-01-07 11:56:29.51	343.05	7.47	-46.1	-64.8	3.8	7.46e-01	0	57	104	964689920	62	33694
