passes_logs/2026/01/07/R2.0S_Moscow/R2.0S_Moscow__20260107_233556_NOAA_21_JPSS-2_rec.log

#Pass ID: 20260107_233556_NOAA 21 (JPSS-2)
#Satellite: NOAA 21 (JPSS-2)
#Configuration: NOAA-21
#almurnet v.1.7.20251203
#Start time: 2026-01-07 23:35:56

#Version: 2.2.20231116
#Station: R2.0S_Moscow
#Location: 37.707566 lon 55.798166 lat
#TLE: 1 54234U 22150A   26005.56767909  .00000152  00000+0  92756-4 0  9990
#TLE: 2 54234  98.7490 306.5820 0001036 340.2747  19.8389 14.19532370163472

#Time	Az	El	Level	Level2	SNR	BER	BlckErr	Temp	State	Recorded	gain1	gain2
2026-01-07 23:35:56.44	16.45	2.03	-41.8	-54.5	3.8	1.49e+00	0	48	0	0	55	15348
2026-01-07 23:35:57.44	16.45	2.09	-41.8	-54.5	3.8	1.49e+00	0	48	104	0	54	16268
2026-01-07 23:35:58.44	16.46	2.16	-41.8	-54.5	3.8	1.49e+00	0	48	104	0	54	16299
2026-01-07 23:35:59.44	16.47	2.22	-41.8	-54.6	3.8	1.49e+00	0	48	104	0	54	16339
2026-01-07 23:36:00.43	16.47	2.28	-41.8	-54.5	3.8	1.49e+00	0	48	104	0	54	16271
2026-01-07 23:36:01.43	16.48	2.35	-41.8	-54.5	3.8	1.49e+00	0	48	104	0	54	16292
2026-01-07 23:36:02.43	16.49	2.41	-41.8	-54.5	3.8	1.49e+00	0	49	104	0	54	16274
2026-01-07 23:36:03.42	16.49	2.48	-41.8	-54.5	3.8	1.49e+00	0	48	104	0	54	16268
2026-01-07 23:36:04.40	16.50	2.54	-41.8	-54.5	3.8	1.49e+00	0	49	104	0	54	16222
2026-01-07 23:36:05.40	16.51	2.61	-41.8	-54.5	3.8	1.49e+00	0	49	104	0	54	16300
2026-01-07 23:36:06.40	16.51	2.67	-41.8	-54.5	3.8	1.49e+00	0	49	104	0	54	16249
2026-01-07 23:36:07.40	16.52	2.74	-41.8	-54.5	3.8	1.49e+00	0	49	104	0	54	16235
2026-01-07 23:36:08.40	16.53	2.80	-41.8	-54.5	3.8	1.49e+00	0	49	104	0	54	16238
2026-01-07 23:36:09.40	16.54	2.87	-41.8	-54.5	3.8	1.49e+00	0	49	104	0	54	16250
2026-01-07 23:36:10.41	16.54	2.93	-41.8	-54.5	3.8	1.49e+00	0	49	104	0	54	16228
2026-01-07 23:36:11.42	16.55	3.00	-41.8	-54.5	3.8	1.49e+00	0	49	104	0	54	16208
2026-01-07 23:36:12.42	16.56	3.07	-41.8	-54.5	3.8	1.49e+00	0	49	104	0	54	16276
2026-01-07 23:36:13.43	16.56	3.13	-41.8	-54.5	3.8	1.49e+00	0	49	104	0	54	16239
2026-01-07 23:36:14.43	16.57	3.20	-41.8	-54.5	3.8	1.49e+00	0	49	104	0	54	16212
2026-01-07 23:36:15.44	16.58	3.27	-41.8	-54.5	3.8	1.49e+00	0	49	104	0	54	16265
2026-01-07 23:36:16.45	16.59	3.33	-41.8	-54.5	3.8	1.49e+00	0	49	104	0	54	16228
2026-01-07 23:36:17.46	16.59	3.40	-41.8	-54.5	3.8	1.49e+00	0	50	104	0	54	16204
2026-01-07 23:36:18.46	16.60	3.47	-41.8	-54.5	3.8	1.49e+00	0	50	104	0	54	16259
2026-01-07 23:36:19.47	16.61	3.54	-41.8	-54.5	3.8	1.49e+00	0	50	104	0	54	16205
2026-01-07 23:36:20.47	16.61	3.60	-41.8	-54.5	3.8	1.49e+00	0	50	104	0	54	16244
2026-01-07 23:36:21.49	16.62	3.67	-41.8	-54.5	3.8	1.49e+00	0	50	104	0	54	16226
2026-01-07 23:36:22.49	16.63	3.74	-41.8	-54.5	3.8	1.49e+00	0	50	104	0	54	16241
2026-01-07 23:36:23.50	16.64	3.81	-41.8	-54.5	3.8	1.49e+00	0	50	104	0	54	16188
2026-01-07 23:36:24.51	16.64	3.88	-41.8	-54.5	3.8	1.49e+00	0	50	104	0	54	16187
2026-01-07 23:36:25.52	16.65	3.95	-41.8	-54.5	3.8	1.49e+00	0	50	104	0	54	16172
2026-01-07 23:36:26.53	16.66	4.02	-41.8	-54.5	3.8	1.49e+00	0	50	104	0	54	16144
2026-01-07 23:36:27.53	16.66	4.08	-41.8	-54.5	3.8	1.49e+00	0	50	104	0	54	16240
2026-01-07 23:36:28.53	16.67	4.15	-41.8	-54.5	3.8	1.49e+00	0	50	104	0	54	16191
2026-01-07 23:36:29.53	16.68	4.22	-41.8	-54.5	3.8	1.49e+00	0	50	104	0	54	16261
2026-01-07 23:36:30.52	16.69	4.29	-41.8	-54.5	3.8	1.49e+00	0	50	104	0	54	16204
2026-01-07 23:36:31.52	16.69	4.36	-41.8	-54.5	3.8	1.49e+00	0	50	104	0	54	16260
2026-01-07 23:36:32.52	16.70	4.43	-41.8	-54.5	3.8	1.49e+00	0	50	104	0	54	16242
2026-01-07 23:36:33.51	16.71	4.50	-41.8	-54.5	3.8	1.49e+00	0	51	104	0	54	16288
2026-01-07 23:36:34.51	16.72	4.57	-41.8	-54.5	3.8	1.49e+00	0	51	104	0	54	16271
2026-01-07 23:36:35.52	16.72	4.64	-41.8	-54.5	3.8	1.49e+00	0	51	104	0	54	16232
2026-01-07 23:36:36.52	16.73	4.71	-41.8	-54.5	3.8	1.49e+00	0	51	104	0	54	16220
2026-01-07 23:36:37.51	16.74	4.78	-41.8	-54.5	3.8	1.49e+00	0	51	104	0	54	16180
2026-01-07 23:36:38.51	16.75	4.85	-41.8	-54.5	3.8	1.49e+00	0	51	104	0	54	16234
2026-01-07 23:36:39.51	16.75	4.92	-41.8	-54.5	3.8	1.49e+00	0	51	104	0	54	16260
2026-01-07 23:36:40.51	16.76	4.99	-41.8	-54.5	3.8	1.49e+00	0	51	104	0	54	16258
2026-01-07 23:36:41.50	16.77	5.06	-41.8	-54.5	3.8	1.49e+00	0	51	104	0	54	16249
2026-01-07 23:36:42.50	16.78	5.13	-41.8	-54.5	3.8	1.49e+00	0	51	104	0	54	16186
2026-01-07 23:36:43.50	16.78	5.20	-41.7	-54.4	3.8	1.49e+00	0	51	104	0	54	16117
2026-01-07 23:36:44.51	16.79	5.27	-41.8	-54.4	3.8	1.49e+00	0	51	104	0	54	16068
2026-01-07 23:36:45.50	16.80	5.35	-41.8	-54.4	3.8	1.49e+00	0	51	104	0	54	16032
2026-01-07 23:36:46.51	16.81	5.42	-41.8	-54.4	3.8	1.49e+00	0	52	104	0	54	16122
2026-01-07 23:36:47.51	16.81	5.49	-41.8	-54.5	3.8	1.49e+00	0	51	104	0	54	16187
2026-01-07 23:36:48.51	16.82	5.56	-41.7	-54.5	3.8	1.49e+00	0	51	104	0	54	16135
2026-01-07 23:36:49.51	16.83	5.64	-41.8	-54.5	3.8	1.49e+00	0	51	104	0	54	16153
2026-01-07 23:36:50.52	16.84	5.71	-41.8	-54.4	3.8	1.49e+00	0	51	104	0	54	16113
2026-01-07 23:36:51.52	16.84	5.78	-41.8	-54.5	3.8	1.49e+00	0	52	104	0	54	16159
2026-01-07 23:36:52.52	16.85	5.86	-41.8	-54.5	3.8	1.49e+00	0	52	104	0	54	16221
2026-01-07 23:36:53.53	16.86	5.93	-41.8	-54.5	3.8	1.49e+00	0	52	104	0	54	16210
2026-01-07 23:36:54.53	16.87	6.00	-41.8	-54.5	3.8	1.49e+00	0	52	104	0	54	16163
2026-01-07 23:36:55.53	16.87	6.08	-41.8	-54.5	3.8	1.49e+00	0	52	104	0	54	16160
2026-01-07 23:36:56.52	16.88	6.15	-41.8	-54.5	3.8	1.49e+00	0	52	104	0	54	16198
2026-01-07 23:36:57.52	16.89	6.22	-41.8	-54.5	3.8	1.49e+00	0	52	104	0	54	16176
2026-01-07 23:36:58.52	16.90	6.30	-41.8	-54.5	3.8	1.49e+00	0	52	104	0	54	16240
2026-01-07 23:36:59.52	16.90	6.37	-41.8	-54.4	3.8	1.49e+00	0	52	104	0	54	16123
2026-01-07 23:37:00.52	16.91	6.45	-41.7	-54.4	3.8	1.49e+00	0	52	104	0	54	15992
2026-01-07 23:37:01.53	16.92	6.52	-41.7	-54.3	3.8	1.49e+00	0	52	104	0	54	15771
2026-01-07 23:37:02.52	16.93	6.60	-41.7	-54.2	3.8	1.49e+00	0	52	104	0	54	15616
2026-01-07 23:37:03.52	16.94	6.67	-41.7	-54.0	3.8	1.49e+00	0	52	104	0	54	15329
2026-01-07 23:37:04.52	16.94	6.75	-41.7	-53.8	3.8	1.49e+00	0	52	104	0	54	14998
2026-01-07 23:37:05.52	16.95	6.83	-41.7	-53.7	3.8	1.49e+00	0	52	104	0	54	14799
2026-01-07 23:37:06.52	16.96	6.90	-41.7	-53.6	3.8	1.49e+00	0	52	104	0	54	14582
2026-01-07 23:37:07.52	16.97	6.98	-41.7	-53.5	3.8	1.49e+00	0	52	104	0	54	14460
2026-01-07 23:37:08.52	16.97	7.06	-41.6	-53.4	3.8	1.49e+00	0	52	104	0	54	14303
2026-01-07 23:37:09.52	16.98	7.13	-41.6	-53.0	3.8	1.49e+00	0	52	104	0	54	13675
2026-01-07 23:37:10.52	16.99	7.21	-41.5	-51.9	4.0	1.49e+00	0	53	104	0	54	12062
2026-01-07 23:37:11.51	17.00	7.29	-41.4	-50.9	4.2	1.46e+00	0	52	104	0	54	10691
2026-01-07 23:37:12.51	17.01	7.36	-41.3	-49.8	4.6	1.33e+00	2	52	104	0	54	9403
2026-01-07 23:37:13.51	17.01	7.44	-41.1	-48.7	5.2	7.21e-01	0	52	0	1048576	54	8309
2026-01-07 23:37:14.51	17.02	7.52	-40.8	-47.4	6.0	3.90e-01	0	53	0	4194304	53	7605
2026-01-07 23:37:15.51	17.03	7.60	-40.4	-46.0	7.2	1.67e-01	0	53	0	6291456	52	6832
2026-01-07 23:37:16.51	17.04	7.68	-40.0	-44.8	8.4	5.48e-02	0	53	0	9437184	51	6331
2026-01-07 23:37:17.51	17.05	7.76	-39.4	-43.5	9.8	1.74e-02	0	53	0	12582912	50	5745
2026-01-07 23:37:18.51	17.05	7.83	-38.8	-42.2	11.1	2.77e-03	0	53	0	15728640	49	5266
2026-01-07 23:37:19.51	17.06	7.91	-38.3	-41.3	12.1	3.94e-04	0	53	0	18874368	48	4994
2026-01-07 23:37:20.51	17.07	7.99	-37.8	-40.6	12.7	1.11e-04	0	53	0	22020096	47	4910
2026-01-07 23:37:21.52	17.08	8.07	-37.7	-40.3	13.2	2.89e-05	0	53	0	25165824	47	4748
2026-01-07 23:37:22.52	17.09	8.15	-38.6	-41.9	11.7	1.37e-05	0	53	0	28311552	47	5661
2026-01-07 23:37:23.52	17.10	8.23	-39.0	-42.2	11.4	9.56e-02	0	53	0	31457280	50	4956
2026-01-07 23:37:24.53	17.10	8.32	-39.6	-42.4	12.2	2.47e-03	0	53	0	34603008	51	4775
2026-01-07 23:37:25.53	17.11	8.40	-40.1	-44.0	10.4	2.17e-04	0	53	0	37748736	50	6090
2026-01-07 23:37:26.53	17.12	8.48	-40.0	-44.5	8.5	7.80e-01	0	53	0	38797312	52	5778
2026-01-07 23:37:27.53	17.13	8.56	-38.5	-40.8	13.9	5.30e-06	0	53	0	41943040	49	4442
2026-01-07 23:37:28.53	17.14	8.64	-38.5	-40.7	14.0	3.00e-06	0	53	0	45088768	49	4411
2026-01-07 23:37:29.52	17.14	8.72	-38.8	-41.1	13.6	1.06e-05	0	53	0	48234496	49	4610
2026-01-07 23:37:30.53	17.15	8.81	-38.7	-41.0	13.7	4.50e-06	0	53	0	51380224	49	4569
2026-01-07 23:37:31.53	17.16	8.89	-38.6	-40.8	13.9	2.20e-06	0	53	0	54525952	49	4485
2026-01-07 23:37:32.53	17.17	8.97	-38.6	-40.9	13.9	1.50e-06	0	53	0	57671680	49	4494
2026-01-07 23:37:33.53	17.18	9.05	-38.6	-40.8	14.0	3.00e-06	0	53	0	60817408	49	4459
2026-01-07 23:37:34.53	17.19	9.14	-38.6	-40.8	14.0	1.50e-06	0	53	0	63963136	49	4478
2026-01-07 23:37:35.53	17.20	9.22	-38.6	-40.8	14.0	1.50e-06	0	54	0	67108864	49	4453
2026-01-07 23:37:36.53	17.20	9.30	-38.5	-40.7	14.1	1.50e-06	0	53	0	70254592	48	4656
2026-01-07 23:37:37.53	17.21	9.39	-38.6	-40.8	14.0	2.20e-06	0	53	0	73400320	48	4741
2026-01-07 23:37:38.54	17.22	9.47	-38.5	-40.6	14.2	0.00e+00	0	54	0	76546048	48	4644
2026-01-07 23:37:39.55	17.23	9.56	-38.5	-40.7	14.2	3.00e-06	0	53	0	79691776	48	4652
2026-01-07 23:37:40.56	17.24	9.64	-38.6	-40.7	14.1	2.20e-06	0	54	0	82837504	48	4701
2026-01-07 23:37:41.56	17.25	9.73	-38.4	-40.5	14.4	0.00e+00	0	54	0	85983232	48	4564
2026-01-07 23:37:42.57	17.26	9.82	-38.5	-40.7	14.3	7.00e-07	0	54	0	89128960	48	4659
2026-01-07 23:37:43.58	17.26	9.90	-38.4	-40.5	14.4	7.00e-07	0	53	0	92274688	48	4578
2026-01-07 23:37:44.59	17.27	9.99	-38.5	-40.6	14.5	1.50e-06	0	54	0	95420416	48	4603
2026-01-07 23:37:45.59	17.28	10.08	-38.6	-40.6	14.4	7.00e-07	0	54	0	98566144	48	4648
2026-01-07 23:37:46.59	17.29	10.16	-38.4	-40.5	14.5	0.00e+00	0	54	0	101711872	48	4570
2026-01-07 23:37:47.60	17.30	10.25	-38.4	-40.5	14.6	0.00e+00	0	54	0	104857600	48	4559
2026-01-07 23:37:48.61	17.31	10.34	-38.5	-40.5	14.5	7.00e-07	0	54	0	108003328	48	4589
2026-01-07 23:37:49.61	17.32	10.43	-38.4	-40.4	14.7	0.00e+00	0	54	0	111149056	48	4519
2026-01-07 23:37:50.62	17.33	10.52	-38.4	-40.4	14.6	7.00e-07	0	54	0	114294784	48	4533
2026-01-07 23:37:51.62	17.33	10.60	-38.3	-40.3	14.7	0.00e+00	0	54	0	117440512	48	4486
2026-01-07 23:37:52.63	17.34	10.69	-38.4	-40.3	14.8	7.00e-07	0	54	0	120586240	48	4491
2026-01-07 23:37:53.62	17.35	10.78	-38.4	-40.3	14.8	0.00e+00	0	54	0	123731968	48	4487
2026-01-07 23:37:54.63	17.36	10.87	-38.3	-40.2	14.9	0.00e+00	0	54	0	126877696	48	4438
2026-01-07 23:37:55.63	17.37	10.96	-38.2	-40.1	15.0	0.00e+00	0	54	0	130023424	48	4368
2026-01-07 23:37:56.64	17.38	11.05	-38.2	-40.2	14.9	0.00e+00	0	54	0	133169152	48	4415
2026-01-07 23:37:57.64	17.39	11.14	-38.2	-40.1	15.0	0.00e+00	0	54	0	136314880	48	4390
2026-01-07 23:37:58.65	17.40	11.24	-38.2	-40.1	15.0	0.00e+00	0	54	0	139460608	48	4391
2026-01-07 23:37:59.66	17.41	11.33	-38.2	-40.1	15.1	0.00e+00	0	54	0	142606336	48	4357
2026-01-07 23:38:00.67	17.42	11.42	-38.2	-40.1	15.1	0.00e+00	0	54	0	145752064	48	4368
2026-01-07 23:38:01.67	17.43	11.51	-38.2	-40.1	15.1	0.00e+00	0	54	0	148897792	48	4378
2026-01-07 23:38:02.68	17.43	11.60	-38.1	-40.0	15.2	0.00e+00	0	54	0	152043520	48	4329
2026-01-07 23:38:03.69	17.44	11.70	-38.1	-40.0	15.2	0.00e+00	0	54	0	155189248	48	4319
2026-01-07 23:38:04.70	17.45	11.79	-38.1	-40.0	15.3	0.00e+00	0	54	0	158334976	48	4301
2026-01-07 23:38:05.70	17.46	11.88	-38.1	-39.9	15.3	0.00e+00	0	54	0	161480704	48	4284
2026-01-07 23:38:06.71	17.47	11.98	-38.1	-40.0	15.3	1.50e-06	0	54	0	164626432	48	4293
2026-01-07 23:38:07.72	17.48	12.07	-38.1	-39.9	15.4	0.00e+00	0	54	0	167772160	48	4258
2026-01-07 23:38:08.72	17.49	12.17	-38.1	-39.9	15.4	0.00e+00	0	54	0	170917888	48	4257
2026-01-07 23:38:09.73	17.50	12.26	-38.1	-39.9	15.4	0.00e+00	0	54	0	174063616	48	4282
2026-01-07 23:38:10.73	17.51	12.36	-38.1	-39.9	15.4	0.00e+00	0	54	0	177209344	48	4268
2026-01-07 23:38:11.74	17.52	12.45	-38.0	-39.8	15.5	0.00e+00	0	54	0	180355072	48	4223
2026-01-07 23:38:12.74	17.53	12.55	-38.0	-39.8	15.5	0.00e+00	0	54	0	183500800	48	4241
2026-01-07 23:38:13.75	17.54	12.65	-38.0	-39.8	15.5	0.00e+00	0	55	0	186646528	48	4226
2026-01-07 23:38:14.75	17.55	12.74	-37.9	-39.7	15.6	0.00e+00	0	55	0	189792256	47	4421
2026-01-07 23:38:15.75	17.56	12.84	-37.8	-39.7	15.6	0.00e+00	0	54	0	192937984	47	4394
2026-01-07 23:38:16.75	17.57	12.94	-37.8	-39.6	15.7	0.00e+00	0	54	0	196083712	47	4372
2026-01-07 23:38:17.76	17.58	13.04	-37.8	-39.6	15.7	0.00e+00	0	55	0	199229440	47	4357
2026-01-07 23:38:18.76	17.59	13.13	-37.8	-39.6	15.7	0.00e+00	0	55	0	202375168	47	4346
2026-01-07 23:38:19.77	17.60	13.23	-37.7	-39.5	15.8	0.00e+00	0	54	0	205520896	47	4315
2026-01-07 23:38:20.77	17.61	13.33	-37.8	-39.5	15.7	0.00e+00	0	54	0	208666624	47	4332
2026-01-07 23:38:21.78	17.62	13.43	-37.8	-39.5	15.7	0.00e+00	0	55	0	211812352	47	4335
2026-01-07 23:38:22.79	17.63	13.53	-37.7	-39.5	15.8	0.00e+00	0	55	0	214958080	47	4318
2026-01-07 23:38:23.80	17.64	13.63	-37.7	-39.4	15.9	0.00e+00	0	55	0	218103808	47	4271
2026-01-07 23:38:24.81	17.65	13.73	-37.6	-39.3	16.0	0.00e+00	0	55	0	221249536	47	4234
2026-01-07 23:38:25.81	17.66	13.84	-37.6	-39.3	16.0	0.00e+00	0	55	0	224395264	47	4239
2026-01-07 23:38:26.82	17.67	13.94	-37.6	-39.4	15.9	0.00e+00	0	55	0	227540992	47	4258
2026-01-07 23:38:27.83	17.68	14.04	-37.6	-39.3	16.0	0.00e+00	0	55	0	230686720	47	4235
2026-01-07 23:38:28.83	17.69	14.14	-37.7	-39.4	15.9	0.00e+00	0	55	0	233832448	47	4268
2026-01-07 23:38:29.84	17.70	14.25	-37.7	-39.4	16.0	0.00e+00	0	55	0	236978176	47	4260
2026-01-07 23:38:30.85	17.71	14.35	-37.7	-39.4	16.0	0.00e+00	0	55	0	240123904	47	4258
2026-01-07 23:38:31.85	17.72	14.45	-37.6	-39.3	16.1	0.00e+00	0	55	0	243269632	47	4231
2026-01-07 23:38:32.85	17.73	14.56	-37.6	-39.3	16.1	0.00e+00	0	55	0	246415360	47	4226
2026-01-07 23:38:33.85	17.74	14.66	-37.6	-39.3	16.1	0.00e+00	0	55	0	249561088	47	4230
2026-01-07 23:38:34.86	17.75	14.77	-37.6	-39.3	16.1	0.00e+00	0	55	0	252706816	47	4241
2026-01-07 23:38:35.86	17.76	14.87	-37.6	-39.3	16.2	0.00e+00	0	55	0	255852544	47	4211
2026-01-07 23:38:36.87	17.77	14.98	-37.6	-39.3	16.1	0.00e+00	0	55	0	258998272	47	4229
2026-01-07 23:38:37.87	17.78	15.09	-37.6	-39.3	16.2	0.00e+00	0	55	0	262144000	47	4217
2026-01-07 23:38:38.87	17.79	15.19	-37.6	-39.3	16.2	0.00e+00	0	55	0	265289728	47	4214
2026-01-07 23:38:39.88	17.80	15.30	-37.6	-39.3	16.2	0.00e+00	0	55	0	268435456	47	4215
2026-01-07 23:38:40.89	17.81	15.41	-37.7	-39.3	16.1	0.00e+00	0	55	0	271581184	47	4241
2026-01-07 23:38:41.89	17.82	15.52	-37.7	-39.4	16.2	0.00e+00	0	55	0	274726912	47	4244
2026-01-07 23:38:42.90	17.83	15.63	-37.6	-39.3	16.2	0.00e+00	0	55	0	277872640	47	4220
2026-01-07 23:38:43.91	17.85	15.74	-37.6	-39.3	16.2	0.00e+00	0	55	0	281018368	47	4232
2026-01-07 23:38:44.92	17.86	15.85	-37.7	-39.4	16.2	0.00e+00	0	55	0	284164096	47	4244
2026-01-07 23:38:45.93	17.87	15.96	-37.7	-39.3	16.2	0.00e+00	0	55	0	287309824	47	4237
2026-01-07 23:38:46.94	17.88	16.07	-37.7	-39.3	16.2	0.00e+00	0	55	0	290455552	47	4235
2026-01-07 23:38:47.95	17.89	16.18	-37.6	-39.3	16.2	0.00e+00	0	55	0	293601280	47	4227
2026-01-07 23:38:48.95	17.90	16.29	-37.7	-39.4	16.2	0.00e+00	0	55	0	296747008	47	4246
2026-01-07 23:38:49.95	17.91	16.41	-37.6	-39.3	16.2	0.00e+00	0	55	0	299892736	47	4229
2026-01-07 23:38:50.96	17.92	16.52	-37.7	-39.4	16.2	0.00e+00	0	55	0	303038464	47	4247
2026-01-07 23:38:51.97	17.93	16.63	-37.7	-39.3	16.2	0.00e+00	0	55	0	306184192	47	4237
2026-01-07 23:38:52.98	17.95	16.75	-37.6	-39.3	16.3	0.00e+00	0	55	0	309329920	47	4218
2026-01-07 23:38:53.98	17.96	16.86	-37.7	-39.3	16.2	0.00e+00	0	55	0	312475648	47	4237
2026-01-07 23:38:54.99	17.97	16.98	-37.7	-39.4	16.2	0.00e+00	0	55	0	315621376	47	4245
2026-01-07 23:38:55.99	17.98	17.09	-37.7	-39.3	16.2	0.00e+00	0	55	0	318767104	47	4233
2026-01-07 23:38:57.00	17.99	17.21	-37.7	-39.4	16.2	0.00e+00	0	55	0	321912832	47	4264
2026-01-07 23:38:58.01	18.00	17.33	-37.7	-39.4	16.2	0.00e+00	0	55	0	325058560	47	4263
2026-01-07 23:38:59.02	18.01	17.45	-37.7	-39.3	16.3	0.00e+00	0	55	0	328204288	47	4240
2026-01-07 23:39:00.03	18.03	17.57	-37.7	-39.4	16.3	0.00e+00	0	55	0	331350016	47	4259
2026-01-07 23:39:01.03	18.04	17.68	-37.7	-39.4	16.2	0.00e+00	0	55	0	334495744	47	4276
2026-01-07 23:39:02.04	18.05	17.80	-37.8	-39.4	16.2	0.00e+00	0	55	0	337641472	47	4290
2026-01-07 23:39:03.05	18.06	17.92	-37.7	-39.4	16.3	0.00e+00	0	55	0	340787200	47	4249
2026-01-07 23:39:04.05	18.07	18.04	-37.7	-39.3	16.3	0.00e+00	0	56	0	343932928	47	4237
2026-01-07 23:39:05.05	18.09	18.16	-37.7	-39.4	16.3	0.00e+00	0	55	0	347078656	47	4252
2026-01-07 23:39:06.06	18.10	18.29	-37.7	-39.3	16.4	0.00e+00	0	55	0	350224384	47	4234
2026-01-07 23:39:07.05	18.11	18.41	-37.7	-39.3	16.4	0.00e+00	0	55	0	353370112	47	4222
2026-01-07 23:39:08.05	18.12	18.53	-37.7	-39.3	16.4	0.00e+00	0	55	0	356515840	47	4217
2026-01-07 23:39:09.05	18.13	18.65	-37.6	-39.3	16.4	0.00e+00	0	55	0	359661568	47	4205
2026-01-07 23:39:10.05	18.15	18.78	-37.7	-39.3	16.4	0.00e+00	0	55	0	362807296	47	4216
2026-01-07 23:39:11.05	18.16	18.90	-37.6	-39.2	16.5	0.00e+00	0	55	0	365953024	47	4186
2026-01-07 23:39:12.04	18.17	19.02	-37.6	-39.2	16.5	0.00e+00	0	56	0	368050176	47	4151
2026-01-07 23:39:13.03	18.18	19.15	-37.6	-39.2	16.5	0.00e+00	0	56	0	371195904	47	4160
2026-01-07 23:39:14.03	18.20	19.27	-37.5	-39.1	16.6	0.00e+00	0	55	0	374341632	47	4117
2026-01-07 23:39:15.03	18.21	19.40	-37.5	-39.1	16.6	0.00e+00	0	56	0	377487360	47	4119
2026-01-07 23:39:16.02	18.22	19.53	-37.5	-39.1	16.7	0.00e+00	0	55	0	380633088	46	4364
2026-01-07 23:39:17.02	18.23	19.65	-37.5	-39.1	16.6	0.00e+00	0	56	0	383778816	46	4371
2026-01-07 23:39:18.02	18.25	19.78	-37.6	-39.2	16.6	0.00e+00	0	56	0	386924544	46	4403
2026-01-07 23:39:19.01	18.26	19.91	-37.5	-39.1	16.6	0.00e+00	0	56	0	390070272	46	4374
2026-01-07 23:39:20.01	18.27	20.04	-37.5	-39.1	16.7	0.00e+00	0	55	0	393216000	46	4353
2026-01-07 23:39:21.01	18.29	20.17	-37.5	-39.1	16.7	0.00e+00	0	56	0	396361728	46	4355
2026-01-07 23:39:22.00	18.30	20.30	-37.5	-39.0	16.7	0.00e+00	0	56	0	399507456	46	4328
2026-01-07 23:39:23.00	18.31	20.43	-37.4	-39.0	16.8	0.00e+00	0	56	0	402653184	46	4299
2026-01-07 23:39:24.00	18.33	20.57	-37.4	-38.9	16.8	0.00e+00	0	56	0	405798912	46	4282
2026-01-07 23:39:25.00	18.34	20.70	-37.4	-38.9	16.9	0.00e+00	0	56	0	408944640	46	4267
2026-01-07 23:39:25.99	18.35	20.83	-37.3	-38.8	17.0	0.00e+00	0	56	0	412090368	46	4226
2026-01-07 23:39:26.99	18.37	20.97	-37.2	-38.7	17.0	0.00e+00	0	56	0	415236096	46	4190
2026-01-07 23:39:27.99	18.38	21.10	-37.2	-38.7	17.1	0.00e+00	0	56	0	418381824	46	4182
2026-01-07 23:39:28.99	18.39	21.24	-37.1	-38.6	17.1	0.00e+00	0	56	0	421527552	46	4142
2026-01-07 23:39:30.00	18.41	21.38	-37.1	-38.6	17.2	0.00e+00	0	56	0	424673280	46	4115
2026-01-07 23:39:31.00	18.42	21.51	-37.1	-38.6	17.2	0.00e+00	0	56	0	427819008	46	4100
2026-01-07 23:39:31.99	18.44	21.65	-37.0	-38.5	17.3	0.00e+00	0	56	0	430964736	45	4292
2026-01-07 23:39:32.99	18.45	21.79	-36.9	-38.4	17.4	0.00e+00	0	56	0	434110464	45	4257
2026-01-07 23:39:33.99	18.46	21.93	-36.9	-38.3	17.4	0.00e+00	0	56	0	437256192	45	4236
2026-01-07 23:39:34.99	18.48	22.07	-36.8	-38.2	17.5	0.00e+00	0	56	0	440401920	45	4188
2026-01-07 23:39:35.99	18.49	22.21	-36.8	-38.2	17.5	0.00e+00	0	56	0	443547648	45	4180
2026-01-07 23:39:36.99	18.51	22.36	-36.8	-38.2	17.6	0.00e+00	0	56	0	446693376	45	4179
2026-01-07 23:39:37.99	18.52	22.50	-36.7	-38.1	17.6	0.00e+00	0	56	0	449839104	45	4136
2026-01-07 23:39:38.99	18.54	22.64	-36.6	-38.1	17.7	0.00e+00	0	56	0	452984832	45	4110
2026-01-07 23:39:39.99	18.55	22.79	-36.6	-38.0	17.8	0.00e+00	0	56	0	456130560	45	4069
2026-01-07 23:39:40.99	18.57	22.93	-36.6	-38.0	17.8	0.00e+00	0	56	0	459276288	45	4075
2026-01-07 23:39:41.99	18.58	23.08	-36.6	-37.9	17.8	0.00e+00	0	56	0	462422016	45	4051
2026-01-07 23:39:42.99	18.60	23.23	-36.5	-37.9	17.9	0.00e+00	0	56	0	465567744	45	4043
2026-01-07 23:39:43.99	18.61	23.38	-36.5	-37.9	17.9	0.00e+00	0	56	0	468713472	45	4027
2026-01-07 23:39:44.98	18.63	23.52	-36.5	-37.9	17.9	0.00e+00	0	56	0	471859200	45	4021
2026-01-07 23:39:45.98	18.64	23.67	-36.5	-37.9	18.0	0.00e+00	0	56	0	475004928	44	4243
2026-01-07 23:39:46.98	18.66	23.82	-36.4	-37.8	18.0	0.00e+00	0	56	0	478150656	44	4207
2026-01-07 23:39:47.98	18.67	23.98	-36.4	-37.8	18.0	0.00e+00	0	56	0	480247808	44	4221
2026-01-07 23:39:48.98	18.69	24.13	-36.5	-37.9	18.0	0.00e+00	0	56	0	483393536	44	4244
2026-01-07 23:39:49.98	18.70	24.28	-36.5	-37.9	18.0	0.00e+00	0	56	0	486539264	44	4252
2026-01-07 23:39:50.98	18.72	24.44	-36.5	-37.9	18.0	0.00e+00	0	56	0	489684992	44	4250
2026-01-07 23:39:51.98	18.74	24.59	-36.5	-37.9	17.9	0.00e+00	0	56	0	493879296	44	4287
2026-01-07 23:39:52.98	18.75	24.75	-36.5	-37.9	17.9	0.00e+00	0	56	0	495976448	44	4286
2026-01-07 23:39:53.98	18.77	24.90	-36.6	-38.0	17.8	0.00e+00	0	56	0	499122176	44	4324
2026-01-07 23:39:54.97	18.78	25.06	-36.6	-38.0	17.8	0.00e+00	0	56	0	502267904	44	4337
2026-01-07 23:39:55.97	18.80	25.22	-36.7	-38.1	17.8	0.00e+00	0	56	0	505413632	44	4352
2026-01-07 23:39:56.96	18.82	25.38	-36.8	-38.2	17.6	0.00e+00	0	56	0	508559360	44	4431
2026-01-07 23:39:57.96	18.83	25.54	-36.9	-38.3	17.5	0.00e+00	0	56	0	511705088	44	4486
2026-01-07 23:39:58.96	18.85	25.70	-37.0	-38.4	17.4	0.00e+00	0	56	0	514850816	44	4545
2026-01-07 23:39:59.96	18.87	25.86	-37.0	-38.5	17.4	0.00e+00	0	56	0	517996544	44	4592
2026-01-07 23:40:00.96	18.89	26.03	-37.1	-38.6	17.3	0.00e+00	0	56	0	521142272	44	4649
2026-01-07 23:40:01.96	18.90	26.19	-37.3	-38.8	17.1	0.00e+00	0	56	0	524288000	45	4454
2026-01-07 23:40:02.95	18.92	26.36	-37.3	-38.8	17.1	0.00e+00	0	56	0	527433728	45	4485
2026-01-07 23:40:03.95	18.94	26.52	-37.4	-38.9	17.0	0.00e+00	0	56	0	530579456	45	4514
2026-01-07 23:40:04.94	18.96	26.69	-37.5	-39.1	16.8	0.00e+00	0	56	0	533725184	45	4620
2026-01-07 23:40:05.94	18.97	26.86	-37.6	-39.2	16.7	0.00e+00	0	56	0	536870912	45	4676
2026-01-07 23:40:06.93	18.99	27.03	-37.7	-39.3	16.7	0.00e+00	0	56	0	540016640	45	4714
2026-01-07 23:40:07.94	19.01	27.20	-37.8	-39.4	16.5	0.00e+00	0	56	0	543162368	46	4524
2026-01-07 23:40:08.94	19.03	27.37	-37.9	-39.5	16.4	0.00e+00	0	56	0	546308096	46	4583
2026-01-07 23:40:09.94	19.05	27.55	-38.0	-39.6	16.3	0.00e+00	0	56	0	549453824	46	4649
2026-01-07 23:40:10.95	19.07	27.72	-38.0	-39.7	16.3	0.00e+00	0	56	0	552599552	46	4676
2026-01-07 23:40:11.95	19.08	27.90	-38.0	-39.7	16.3	0.00e+00	0	56	0	555745280	46	4682
2026-01-07 23:40:12.95	19.10	28.07	-38.1	-39.8	16.1	0.00e+00	0	56	0	558891008	46	4746
2026-01-07 23:40:13.94	19.12	28.25	-38.1	-39.8	16.1	0.00e+00	0	56	0	562036736	46	4740
2026-01-07 23:40:14.94	19.14	28.43	-38.0	-39.7	16.2	0.00e+00	0	56	0	565182464	46	4680
2026-01-07 23:40:15.94	19.16	28.61	-38.0	-39.7	16.3	0.00e+00	0	56	0	568328192	46	4672
2026-01-07 23:40:16.94	19.18	28.79	-38.0	-39.6	16.3	0.00e+00	0	56	0	571473920	46	4632
2026-01-07 23:40:17.94	19.20	28.97	-37.9	-39.6	16.4	0.00e+00	0	56	0	574619648	46	4604
2026-01-07 23:40:18.94	19.22	29.16	-37.9	-39.5	16.4	0.00e+00	0	56	0	577765376	46	4565
2026-01-07 23:40:19.94	19.24	29.34	-37.7	-39.3	16.7	0.00e+00	0	56	0	580911104	46	4457
2026-01-07 23:40:20.93	19.26	29.53	-37.7	-39.3	16.7	0.00e+00	0	56	0	584056832	46	4461
2026-01-07 23:40:21.94	19.28	29.71	-37.6	-39.2	16.8	0.00e+00	0	56	0	587202560	46	4408
2026-01-07 23:40:22.94	19.30	29.90	-37.4	-39.0	17.0	0.00e+00	0	56	0	590348288	46	4310
2026-01-07 23:40:23.93	19.32	30.09	-37.4	-39.0	17.0	0.00e+00	0	56	0	593494016	46	4293
2026-01-07 23:40:24.94	19.35	30.28	-37.3	-38.8	17.2	0.00e+00	0	56	0	596639744	46	4204
2026-01-07 23:40:25.94	19.37	30.48	-37.2	-38.7	17.3	0.00e+00	0	56	0	599785472	46	4152
2026-01-07 23:40:26.94	19.39	30.67	-37.1	-38.6	17.4	0.00e+00	0	56	0	602931200	46	4108
2026-01-07 23:40:27.94	19.41	30.87	-36.9	-38.4	17.6	0.00e+00	0	56	0	606076928	45	4262
2026-01-07 23:40:28.95	19.43	31.06	-37.0	-38.4	17.5	0.00e+00	0	56	0	609222656	45	4273
2026-01-07 23:40:29.95	19.46	31.26	-37.0	-38.4	17.6	0.00e+00	0	56	0	612368384	45	4263
2026-01-07 23:40:30.95	19.48	31.46	-36.9	-38.4	17.6	0.00e+00	0	56	0	615514112	45	4250
2026-01-07 23:40:31.94	19.50	31.66	-37.0	-38.4	17.6	0.00e+00	0	56	0	618659840	45	4267
2026-01-07 23:40:32.93	19.52	31.86	-36.9	-38.4	17.6	0.00e+00	0	57	0	620756992	45	4245
2026-01-07 23:40:33.93	19.55	32.06	-37.0	-38.4	17.6	0.00e+00	0	56	0	623902720	45	4269
2026-01-07 23:40:34.92	19.57	32.26	-37.1	-38.5	17.4	0.00e+00	0	57	0	627048448	45	4339
2026-01-07 23:40:35.92	19.59	32.47	-37.1	-38.5	17.4	0.00e+00	0	56	0	630194176	45	4339
2026-01-07 23:40:36.93	19.62	32.68	-37.3	-38.8	17.2	0.00e+00	0	57	0	633339904	45	4470
2026-01-07 23:40:37.92	19.64	32.89	-37.3	-38.8	17.2	0.00e+00	0	56	0	636485632	45	4468
2026-01-07 23:40:38.92	19.67	33.10	-37.4	-38.9	17.1	0.00e+00	0	57	0	639631360	45	4512
2026-01-07 23:40:39.92	19.69	33.31	-37.6	-39.1	16.9	0.00e+00	0	56	0	642777088	45	4643
2026-01-07 23:40:40.92	19.72	33.52	-37.6	-39.1	16.9	0.00e+00	0	56	0	645922816	45	4636
2026-01-07 23:40:41.92	19.74	33.74	-37.6	-39.2	16.9	0.00e+00	0	56	0	649068544	45	4655
2026-01-07 23:40:42.93	19.77	33.95	-37.7	-39.2	16.8	0.00e+00	0	56	0	652214272	45	4688
2026-01-07 23:40:43.93	19.79	34.17	-37.6	-39.2	16.8	0.00e+00	0	57	0	655360000	45	4671
2026-01-07 23:40:44.92	19.82	34.39	-37.9	-39.6	16.5	0.00e+00	0	56	0	658505728	46	4604
2026-01-07 23:40:45.93	19.85	34.61	-37.9	-39.6	16.5	0.00e+00	0	56	0	661651456	46	4599
2026-01-07 23:40:46.92	19.87	34.83	-38.1	-39.7	16.3	0.00e+00	0	56	0	664797184	46	4681
2026-01-07 23:40:47.92	19.90	35.06	-38.2	-39.9	16.2	0.00e+00	0	56	0	667942912	47	4526
2026-01-07 23:40:48.92	19.93	35.28	-38.4	-40.1	16.0	0.00e+00	0	56	0	671088640	47	4613
2026-01-07 23:40:49.93	19.96	35.51	-38.4	-40.1	15.9	0.00e+00	0	57	0	674234368	47	4650
2026-01-07 23:40:50.93	19.98	35.74	-38.6	-40.3	15.7	0.00e+00	0	56	0	677380096	47	4745
2026-01-07 23:40:51.93	20.01	35.97	-38.5	-40.2	15.8	0.00e+00	0	56	0	680525824	47	4700
2026-01-07 23:40:52.92	20.04	36.20	-38.9	-40.7	15.5	0.00e+00	0	56	0	683671552	48	4686
2026-01-07 23:40:53.93	20.07	36.44	-38.9	-40.7	15.5	0.00e+00	0	56	0	686817280	48	4667
2026-01-07 23:40:54.93	20.10	36.67	-38.9	-40.7	15.4	0.00e+00	0	56	0	689963008	48	4704
2026-01-07 23:40:55.93	20.13	36.91	-39.1	-41.0	15.2	0.00e+00	0	56	0	693108736	48	4856
2026-01-07 23:40:56.93	20.16	37.15	-39.1	-41.0	15.2	0.00e+00	0	56	0	696254464	48	4831
2026-01-07 23:40:57.93	20.19	37.39	-39.1	-41.0	15.2	0.00e+00	0	57	0	699400192	48	4819
2026-01-07 23:40:58.92	20.22	37.63	-39.1	-41.0	15.2	7.00e-07	0	57	0	702545920	48	4865
2026-01-07 23:40:59.92	20.25	37.87	-39.0	-40.9	15.3	0.00e+00	0	57	0	705691648	48	4778
2026-01-07 23:41:00.92	20.29	38.12	-39.2	-41.2	15.0	0.00e+00	0	56	0	708837376	49	4659
2026-01-07 23:41:01.92	20.32	38.37	-39.1	-41.0	15.2	0.00e+00	0	56	0	711983104	49	4555
2026-01-07 23:41:02.92	20.35	38.62	-39.0	-40.8	15.4	0.00e+00	0	57	0	715128832	49	4479
2026-01-07 23:41:03.92	20.38	38.87	-39.0	-40.9	15.3	0.00e+00	0	57	0	718274560	49	4520
2026-01-07 23:41:04.92	20.42	39.12	-39.0	-40.8	15.4	0.00e+00	0	57	0	721420288	49	4473
2026-01-07 23:41:05.91	20.45	39.37	-38.9	-40.7	15.5	0.00e+00	0	56	0	724566016	49	4402
2026-01-07 23:41:06.91	20.49	39.63	-38.9	-40.7	15.5	0.00e+00	0	57	0	727711744	49	4405
2026-01-07 23:41:07.91	20.52	39.89	-38.8	-40.5	15.7	0.00e+00	0	56	0	730857472	49	4329
2026-01-07 23:41:08.91	20.56	40.15	-39.0	-40.8	15.4	0.00e+00	0	57	0	734003200	49	4473
2026-01-07 23:41:09.91	20.59	40.41	-38.9	-40.6	15.5	0.00e+00	0	57	0	737148928	49	4390
2026-01-07 23:41:10.92	20.63	40.68	-38.9	-40.7	15.6	0.00e+00	0	57	0	740294656	49	4395
2026-01-07 23:41:11.92	20.67	40.95	-39.0	-40.8	15.4	0.00e+00	0	57	0	743440384	49	4457
2026-01-07 23:41:12.92	20.71	41.22	-38.9	-40.7	15.5	0.00e+00	0	57	0	746586112	49	4438
2026-01-07 23:41:13.92	20.74	41.49	-39.1	-40.9	15.3	0.00e+00	0	57	0	749731840	49	4542
2026-01-07 23:41:14.92	20.78	41.76	-39.2	-41.1	15.0	0.00e+00	0	57	0	752877568	49	4643
2026-01-07 23:41:15.92	20.82	42.04	-39.3	-41.2	15.0	7.00e-07	0	56	0	756023296	49	4657
2026-01-07 23:41:16.93	20.86	42.32	-39.6	-41.7	14.5	0.00e+00	0	57	0	759169024	49	4948
2026-01-07 23:41:17.93	20.90	42.59	-39.8	-41.9	14.3	7.00e-07	0	57	0	762314752	50	4810
2026-01-07 23:41:18.93	20.95	42.88	-40.0	-42.2	14.0	1.50e-06	0	57	0	765460480	50	4968
2026-01-07 23:41:19.93	20.99	43.16	-40.1	-42.4	13.9	3.80e-06	0	57	0	768606208	50	5056
2026-01-07 23:41:20.92	21.03	43.44	-40.2	-42.4	13.8	3.80e-06	0	57	0	771751936	51	4779
2026-01-07 23:41:21.92	21.07	43.73	-40.2	-42.5	13.8	1.50e-06	0	57	0	773849088	51	4821
2026-01-07 23:41:22.92	21.12	44.02	-40.1	-42.3	13.9	3.00e-06	0	57	0	776994816	51	4734
2026-01-07 23:41:23.92	21.16	44.31	-40.0	-42.1	14.1	2.20e-06	0	57	0	780140544	51	4647
2026-01-07 23:41:24.92	21.21	44.60	-40.0	-42.1	14.1	7.00e-07	0	57	0	783286272	51	4650
2026-01-07 23:41:25.92	21.26	44.90	-40.0	-42.2	14.1	2.20e-06	0	57	0	786432000	51	4660
2026-01-07 23:41:26.92	21.30	45.20	-40.1	-42.3	14.0	2.20e-06	0	57	0	789577728	51	4718
2026-01-07 23:41:27.91	21.35	45.50	-40.3	-42.7	13.6	3.00e-06	0	57	0	792723456	51	4934
2026-01-07 23:41:28.91	21.40	45.80	-40.5	-42.8	13.4	1.90e-05	0	57	0	795869184	51	5037
2026-01-07 23:41:29.92	21.45	46.11	-40.6	-43.1	13.1	3.81e-05	0	57	0	799014912	52	4897
2026-01-07 23:41:30.92	21.50	46.42	-40.7	-43.3	12.8	6.10e-05	0	57	0	802160640	52	5017
2026-01-07 23:41:31.92	21.55	46.73	-40.6	-43.2	12.9	3.89e-05	0	57	0	805306368	52	4951
2026-01-07 23:41:32.91	21.61	47.03	-40.6	-43.2	12.9	5.41e-05	0	57	0	808452096	52	4948
2026-01-07 23:41:33.91	21.66	47.35	-40.5	-43.1	13.1	3.58e-05	0	57	0	811597824	52	4875
2026-01-07 23:41:34.91	21.71	47.67	-40.3	-42.7	13.4	2.51e-05	0	57	0	814743552	52	4685
2026-01-07 23:41:35.91	21.77	47.98	-40.1	-42.4	13.7	9.90e-06	0	57	0	817889280	52	4528
2026-01-07 23:41:36.90	21.83	48.30	-40.0	-42.2	14.1	2.20e-06	0	57	0	821035008	51	4673
2026-01-07 23:41:37.90	21.88	48.63	-39.7	-41.8	14.5	0.00e+00	0	57	0	824180736	51	4450
2026-01-07 23:41:38.91	21.94	48.96	-39.6	-41.7	14.6	0.00e+00	0	57	0	827326464	51	4411
2026-01-07 23:41:39.91	22.01	49.28	-39.5	-41.5	14.7	0.00e+00	0	57	0	830472192	51	4336
2026-01-07 23:41:40.91	22.07	49.62	-39.4	-41.4	14.9	7.00e-07	0	57	0	833617920	50	4524
2026-01-07 23:41:41.91	22.13	49.95	-39.3	-41.3	15.0	0.00e+00	0	57	0	836763648	50	4466
2026-01-07 23:41:42.91	22.19	50.28	-39.4	-41.3	15.0	0.00e+00	0	57	0	839909376	50	4484
2026-01-07 23:41:43.91	22.26	50.62	-39.2	-41.1	15.2	0.00e+00	0	57	0	843055104	50	4348
2026-01-07 23:41:44.92	22.33	50.97	-39.0	-40.8	15.5	0.00e+00	0	57	0	846200832	49	4475
2026-01-07 23:41:45.92	22.40	51.31	-38.8	-40.6	15.7	0.00e+00	0	57	0	849346560	49	4355
2026-01-07 23:41:46.92	22.47	51.66	-38.8	-40.6	15.7	0.00e+00	0	57	0	852492288	49	4345
2026-01-07 23:41:47.92	22.54	52.00	-38.8	-40.5	15.7	0.00e+00	0	57	0	855638016	49	4322
2026-01-07 23:41:48.92	22.61	52.36	-38.6	-40.4	15.9	0.00e+00	0	57	0	858783744	49	4254
2026-01-07 23:41:49.92	22.69	52.71	-38.5	-40.2	16.1	0.00e+00	0	57	0	861929472	48	4399
2026-01-07 23:41:50.92	22.76	53.06	-38.3	-39.9	16.3	0.00e+00	0	57	0	865075200	48	4278
2026-01-07 23:41:51.92	22.84	53.42	-38.3	-39.9	16.3	0.00e+00	0	57	0	868220928	48	4289
2026-01-07 23:41:52.92	22.92	53.78	-38.4	-40.1	16.2	0.00e+00	0	57	0	871366656	48	4378
2026-01-07 23:41:53.92	23.00	54.15	-38.3	-40.0	16.3	0.00e+00	0	57	0	874512384	48	4319
2026-01-07 23:41:54.93	23.09	54.52	-38.1	-39.7	16.6	0.00e+00	0	57	0	877658112	48	4190
2026-01-07 23:41:55.92	23.17	54.88	-37.8	-39.3	16.8	0.00e+00	0	57	0	880803840	47	4230
2026-01-07 23:41:56.92	23.26	55.25	-37.4	-38.8	17.3	0.00e+00	0	57	0	883949568	46	4232
2026-01-07 23:41:57.92	23.35	55.63	-37.2	-38.6	17.5	0.00e+00	0	57	0	887095296	46	4131
2026-01-07 23:41:58.92	23.45	56.00	-37.1	-38.5	17.7	0.00e+00	0	57	0	890241024	46	4075
2026-01-07 23:41:59.92	23.54	56.38	-37.1	-38.6	17.6	0.00e+00	0	57	0	893386752	46	4100
2026-01-07 23:42:00.93	23.64	56.77	-37.4	-38.9	17.3	0.00e+00	0	57	0	896532480	46	4278
2026-01-07 23:42:01.93	23.74	57.15	-37.6	-39.1	17.1	0.00e+00	0	57	0	899678208	46	4372
2026-01-07 23:42:02.93	23.85	57.53	-37.5	-39.1	17.1	0.00e+00	0	57	0	902823936	46	4344
2026-01-07 23:42:03.93	23.95	57.92	-37.4	-38.9	17.3	0.00e+00	0	57	0	905969664	46	4253
2026-01-07 23:42:04.93	24.06	58.32	-37.3	-38.8	17.4	0.00e+00	0	57	0	909115392	46	4200
2026-01-07 23:42:05.93	24.18	58.71	-37.2	-38.6	17.6	0.00e+00	0	57	0	912261120	46	4130
2026-01-07 23:42:06.92	24.29	59.10	-36.8	-38.2	17.9	0.00e+00	0	57	0	915406848	45	4166
2026-01-07 23:42:07.92	24.41	59.50	-36.6	-38.0	18.1	0.00e+00	0	57	0	918552576	45	4073
2026-01-07 23:42:08.92	24.53	59.90	-36.4	-37.7	18.4	0.00e+00	0	57	0	921698304	44	4180
2026-01-07 23:42:09.92	24.66	60.31	-36.3	-37.6	18.4	0.00e+00	0	57	0	924844032	44	4129
2026-01-07 23:42:10.92	24.79	60.71	-36.5	-37.9	18.2	0.00e+00	0	57	0	927989760	44	4261
2026-01-07 23:42:11.93	24.93	61.12	-36.4	-37.7	18.4	0.00e+00	0	57	0	930086912	44	4190
2026-01-07 23:42:12.93	25.07	61.54	-36.3	-37.6	18.5	0.00e+00	0	57	0	933232640	44	4108
2026-01-07 23:42:13.92	25.21	61.94	-35.8	-37.1	18.8	0.00e+00	0	57	0	936378368	43	4107
2026-01-07 23:42:14.92	25.36	62.36	-35.7	-37.0	19.0	0.00e+00	0	57	0	939524096	43	4054
2026-01-07 23:42:15.92	25.51	62.78	-35.7	-36.9	19.0	0.00e+00	0	57	0	942669824	43	4047
2026-01-07 23:42:16.92	25.67	63.20	-35.6	-36.9	19.0	0.00e+00	0	57	0	945815552	43	4015
2026-01-07 23:42:17.92	25.84	63.62	-35.7	-36.9	18.9	0.00e+00	0	57	0	948961280	43	4045
2026-01-07 23:42:18.92	26.01	64.05	-35.8	-37.1	18.9	0.00e+00	0	57	0	952107008	43	4108
2026-01-07 23:42:19.92	26.19	64.48	-35.9	-37.2	18.7	0.00e+00	0	57	0	955252736	43	4186
2026-01-07 23:42:20.92	26.37	64.91	-35.9	-37.2	18.7	0.00e+00	0	57	0	958398464	43	4178
2026-01-07 23:42:21.92	26.56	65.34	-35.8	-37.0	18.9	0.00e+00	0	57	0	961544192	43	4087
2026-01-07 23:42:22.93	26.76	65.78	-35.6	-36.8	19.0	0.00e+00	0	57	0	964689920	43	4004
2026-01-07 23:42:23.93	26.97	66.21	-35.6	-36.8	19.1	0.00e+00	0	57	0	967835648	43	3995
2026-01-07 23:42:24.92	27.18	66.65	-35.5	-36.8	19.1	0.00e+00	0	57	0	970981376	43	3973
2026-01-07 23:42:25.92	27.40	67.09	-35.8	-37.1	18.9	0.00e+00	0	57	0	974127104	43	4110
2026-01-07 23:42:26.93	27.64	67.54	-36.2	-37.6	18.4	0.00e+00	0	57	0	977272832	43	4341
2026-01-07 23:42:27.93	27.88	67.98	-36.3	-37.7	18.3	0.00e+00	0	57	0	980418560	43	4394
2026-01-07 23:42:28.93	28.14	68.43	-36.0	-37.3	18.6	0.00e+00	0	57	0	983564288	43	4207
2026-01-07 23:42:29.93	28.40	68.88	-35.8	-37.1	18.8	0.00e+00	0	57	0	986710016	43	4100
2026-01-07 23:42:30.93	28.68	69.33	-35.9	-37.3	18.6	0.00e+00	0	57	0	989855744	43	4195
2026-01-07 23:42:31.94	28.97	69.78	-35.9	-37.2	18.7	0.00e+00	0	57	0	993001472	43	4146
2026-01-07 23:42:32.93	29.28	70.23	-35.8	-37.1	18.7	0.00e+00	0	57	0	996147200	43	4122
2026-01-07 23:42:33.93	29.60	70.69	-35.6	-36.9	18.9	0.00e+00	0	57	0	999292928	43	4012
2026-01-07 23:42:34.93	29.93	71.14	-35.3	-36.5	19.3	0.00e+00	0	57	0	1002438656	42	4075
2026-01-07 23:42:35.93	30.29	71.60	-35.3	-36.5	19.3	0.00e+00	0	57	0	1005584384	42	4058
2026-01-07 23:42:36.93	30.66	72.06	-35.3	-36.5	19.3	0.00e+00	0	57	0	1008730112	42	4063
2026-01-07 23:42:37.93	31.05	72.52	-35.2	-36.4	19.4	0.00e+00	0	57	0	1011875840	42	4025
2026-01-07 23:42:38.92	31.47	72.98	-35.2	-36.3	19.4	0.00e+00	0	57	0	1015021568	42	4002
2026-01-07 23:42:39.92	31.91	73.44	-35.2	-36.4	19.4	0.00e+00	0	57	0	1018167296	42	4018
2026-01-07 23:42:40.91	32.37	73.90	-35.4	-36.6	19.2	0.00e+00	0	57	0	1021313024	42	4110
2026-01-07 23:42:41.91	32.86	74.37	-35.4	-36.6	19.2	0.00e+00	0	57	0	1024458752	42	4126
2026-01-07 23:42:42.91	33.39	74.83	-35.0	-36.2	19.5	0.00e+00	0	57	0	1027604480	42	3927
2026-01-07 23:42:43.90	33.95	75.29	-34.9	-36.0	19.7	0.00e+00	0	57	0	1030750208	41	4091
2026-01-07 23:42:44.90	34.54	75.76	-35.5	-36.7	19.1	0.00e+00	0	57	0	1033895936	41	4428
2026-01-07 23:42:45.90	35.18	76.22	-36.2	-37.6	18.3	0.00e+00	0	57	0	1037041664	42	4609
2026-01-07 23:42:46.90	35.87	76.69	-36.3	-37.7	18.1	0.00e+00	0	57	0	1040187392	43	4395
2026-01-07 23:42:47.90	36.61	77.15	-36.2	-37.5	18.4	0.00e+00	0	57	0	1043333120	43	4304
2026-01-07 23:42:48.89	37.39	77.61	-36.3	-37.7	18.2	0.00e+00	0	57	0	1046478848	43	4398
2026-01-07 23:42:49.90	38.26	78.08	-36.7	-38.1	17.8	0.00e+00	0	57	0	1049624576	43	4638
2026-01-07 23:42:50.90	39.19	78.54	-37.2	-38.7	17.4	0.00e+00	0	57	0	1052770304	44	4658
2026-01-07 23:42:51.90	40.20	79.00	-36.8	-38.2	17.8	0.00e+00	0	57	0	1055916032	44	4439
2026-01-07 23:42:52.90	41.29	79.46	-36.6	-38.0	18.1	0.00e+00	0	57	0	1059061760	44	4310
2026-01-07 23:42:53.90	42.49	79.91	-36.4	-37.8	18.2	0.00e+00	0	57	0	1062207488	44	4223
2026-01-07 23:42:54.90	43.80	80.37	-36.2	-37.5	18.5	0.00e+00	0	57	0	1065353216	44	4094
2026-01-07 23:42:55.90	45.24	80.81	-35.8	-37.1	18.8	0.00e+00	0	57	0	1068498944	43	4118
2026-01-07 23:42:56.90	46.83	81.25	-36.0	-37.3	18.5	0.00e+00	0	57	0	1071644672	43	4240
2026-01-07 23:42:57.90	48.59	81.69	-36.5	-37.9	17.9	0.00e+00	0	57	0	1074790400	43	4528
2026-01-07 23:42:58.90	50.55	82.11	-36.6	-38.0	17.9	0.00e+00	0	57	0	1077936128	43	4555
2026-01-07 23:42:59.90	52.72	82.53	-36.3	-37.6	18.2	0.00e+00	0	57	0	1081081856	43	4381
2026-01-07 23:43:00.90	55.15	82.94	-36.4	-37.7	18.1	0.00e+00	0	57	0	1084227584	43	4436
2026-01-07 23:43:01.90	57.88	83.33	-36.5	-37.9	17.9	0.00e+00	0	57	0	1087373312	43	4537
2026-01-07 23:43:02.89	60.91	83.70	-36.5	-37.9	17.9	0.00e+00	0	57	0	1089470464	43	4525
2026-01-07 23:43:03.89	64.35	84.06	-36.2	-37.6	18.3	0.00e+00	0	57	0	1092616192	43	4353
2026-01-07 23:43:04.89	68.21	84.39	-36.3	-37.6	18.2	0.00e+00	0	57	0	1095761920	43	4377
2026-01-07 23:43:05.89	72.54	84.70	-36.7	-38.1	17.7	0.00e+00	0	57	0	1098907648	43	4628
2026-01-07 23:43:06.89	77.38	84.97	-36.9	-38.4	17.7	0.00e+00	0	57	0	1102053376	44	4514
2026-01-07 23:43:07.89	82.72	85.20	-37.0	-38.4	17.6	0.00e+00	0	57	0	1105199104	44	4538
2026-01-07 23:43:08.88	88.50	85.39	-37.0	-38.4	17.6	0.00e+00	0	57	0	1108344832	44	4526
2026-01-07 23:43:09.88	94.75	85.52	-37.2	-38.7	17.4	0.00e+00	0	57	0	1111490560	45	4415
2026-01-07 23:43:10.87	101.25	85.60	-37.0	-38.5	17.5	0.00e+00	0	57	0	1114636288	45	4323
2026-01-07 23:43:11.87	107.97	85.63	-36.6	-38.0	18.0	0.00e+00	0	57	0	1117782016	45	4057
2026-01-07 23:43:12.86	114.59	85.59	-36.6	-38.0	18.0	0.00e+00	0	57	0	1120927744	44	4299
2026-01-07 23:43:13.86	121.09	85.49	-36.7	-38.1	18.0	0.00e+00	0	57	0	1124073472	44	4353
2026-01-07 23:43:14.86	127.24	85.34	-36.4	-37.7	18.3	0.00e+00	0	57	0	1127219200	44	4180
2026-01-07 23:43:15.86	132.94	85.14	-36.6	-37.9	18.1	0.00e+00	0	57	0	1130364928	44	4286
2026-01-07 23:43:16.85	138.09	84.90	-36.4	-37.7	18.3	0.00e+00	0	57	0	1133510656	44	4167
2026-01-07 23:43:17.85	142.78	84.62	-36.0	-37.3	18.7	0.00e+00	0	57	0	1136656384	44	3991
2026-01-07 23:43:18.85	146.98	84.30	-36.0	-37.3	18.6	0.00e+00	0	57	0	1139802112	43	4202
2026-01-07 23:43:19.84	150.69	83.97	-36.5	-37.8	18.0	0.00e+00	0	57	0	1142947840	43	4488
2026-01-07 23:43:20.83	154.00	83.61	-36.3	-37.7	18.2	0.00e+00	0	57	0	1146093568	43	4403
2026-01-07 23:43:21.83	156.96	83.23	-35.9	-37.2	18.6	0.00e+00	0	57	0	1149239296	43	4167
2026-01-07 23:43:22.83	159.61	82.83	-35.8	-37.1	18.7	0.00e+00	0	57	0	1152385024	43	4104
2026-01-07 23:43:23.82	161.95	82.42	-35.8	-37.1	18.7	0.00e+00	0	57	0	1155530752	43	4118
2026-01-07 23:43:24.82	164.07	82.00	-36.0	-37.3	18.5	0.00e+00	0	57	0	1158676480	43	4212
2026-01-07 23:43:25.81	165.95	81.58	-36.5	-37.9	18.0	0.00e+00	0	57	0	1161822208	43	4495
2026-01-07 23:43:26.81	167.67	81.14	-37.2	-38.7	17.3	0.00e+00	0	57	0	1164967936	44	4681
2026-01-07 23:43:27.81	169.22	80.70	-36.8	-38.2	17.8	0.00e+00	0	57	0	1168113664	45	4165
2026-01-07 23:43:28.81	170.63	80.25	-36.2	-37.5	18.5	0.00e+00	0	57	0	1171259392	44	4094
2026-01-07 23:43:29.79	171.89	79.81	-36.0	-37.3	18.7	0.00e+00	0	57	0	1174405120	44	3961
2026-01-07 23:43:30.78	173.05	79.36	-35.7	-36.9	18.7	0.00e+00	0	57	0	1177550848	43	4032
2026-01-07 23:43:31.78	174.12	78.90	-35.7	-37.0	18.8	0.00e+00	0	57	0	1180696576	43	4070
2026-01-07 23:43:32.77	175.10	78.44	-35.9	-37.2	18.5	0.00e+00	0	57	0	1182793728	43	4157
2026-01-07 23:43:33.76	176.01	77.99	-35.7	-36.9	18.8	0.00e+00	0	57	0	1185939456	43	4051
2026-01-07 23:43:34.76	176.85	77.52	-35.7	-36.9	18.9	0.00e+00	0	57	0	1189085184	43	4036
2026-01-07 23:43:35.75	177.63	77.06	-35.4	-36.6	19.1	0.00e+00	0	57	0	1192230912	42	4140
2026-01-07 23:43:36.74	178.35	76.60	-36.0	-37.3	18.5	0.00e+00	0	57	0	1195376640	42	4482
2026-01-07 23:43:37.74	179.03	76.13	-36.3	-37.7	18.0	0.00e+00	0	57	0	1198522368	43	4400
2026-01-07 23:43:38.73	179.65	75.67	-36.5	-37.9	17.9	0.00e+00	0	57	0	1201668096	43	4536
2026-01-07 23:43:39.72	180.24	75.21	-36.3	-37.6	18.1	0.00e+00	0	57	0	1204813824	43	4382
2026-01-07 23:43:40.73	180.80	74.74	-35.9	-37.2	18.3	0.00e+00	0	57	0	1207959552	43	4184
2026-01-07 23:43:41.72	181.32	74.28	-35.8	-37.1	18.6	0.00e+00	0	57	0	1211105280	43	4128
2026-01-07 23:43:42.71	181.80	73.82	-36.2	-37.6	18.2	0.00e+00	0	57	0	1214251008	43	4355
2026-01-07 23:43:43.70	182.26	73.36	-36.9	-38.3	17.7	0.00e+00	0	57	0	1217396736	44	4478
2026-01-07 23:43:44.70	182.70	72.89	-36.4	-37.8	18.2	0.00e+00	0	57	0	1220542464	44	4208
2026-01-07 23:43:45.70	183.11	72.43	-36.3	-37.6	18.3	0.00e+00	0	57	0	1223688192	44	4131
2026-01-07 23:43:46.69	183.50	71.97	-35.7	-37.0	18.7	0.00e+00	0	57	0	1226833920	43	4087
2026-01-07 23:43:47.67	183.86	71.52	-35.3	-36.6	19.2	0.00e+00	0	57	0	1229979648	42	4104
2026-01-07 23:43:48.66	184.21	71.07	-35.3	-36.5	19.2	0.00e+00	0	57	0	1233125376	42	4084
2026-01-07 23:43:49.66	184.54	70.61	-35.7	-37.0	18.6	0.00e+00	0	57	0	1236271104	42	4319
2026-01-07 23:43:50.66	184.86	70.15	-36.3	-37.7	18.1	0.00e+00	0	57	0	1239416832	43	4400
2026-01-07 23:43:51.65	185.16	69.70	-37.3	-38.8	17.2	0.00e+00	0	57	0	1242562560	45	4477
2026-01-07 23:43:52.65	185.45	69.25	-37.4	-39.0	17.0	0.00e+00	0	57	0	1245708288	45	4548
2026-01-07 23:43:53.65	185.73	68.80	-37.0	-38.5	17.5	0.00e+00	0	57	0	1248854016	45	4298
2026-01-07 23:43:54.64	185.99	68.36	-36.6	-38.0	18.0	0.00e+00	0	57	0	1251999744	45	4059
2026-01-07 23:43:55.64	186.24	67.91	-36.5	-37.8	18.1	0.00e+00	0	57	0	1255145472	45	3999
2026-01-07 23:43:56.63	186.48	67.47	-36.6	-37.9	18.0	0.00e+00	0	57	0	1258291200	44	4283
2026-01-07 23:43:57.62	186.71	67.03	-37.4	-38.9	17.2	0.00e+00	0	57	0	1261436928	45	4523
2026-01-07 23:43:58.62	186.93	66.59	-37.9	-39.6	16.4	0.00e+00	0	57	0	1263534080	46	4643
2026-01-07 23:43:59.62	187.15	66.15	-37.4	-38.9	17.1	0.00e+00	0	57	0	1266679808	46	4275
2026-01-07 23:44:00.62	187.35	65.71	-36.7	-38.1	17.9	0.00e+00	0	57	0	1269825536	45	4119
2026-01-07 23:44:01.62	187.55	65.27	-36.4	-37.8	18.2	0.00e+00	0	57	0	1272971264	44	4205
2026-01-07 23:44:02.62	187.74	64.84	-36.0	-37.3	18.7	0.00e+00	0	57	0	1276116992	44	3984
2026-01-07 23:44:03.62	187.92	64.41	-35.6	-36.8	19.0	0.00e+00	0	57	0	1279262720	43	3992
2026-01-07 23:44:04.61	188.10	63.99	-36.1	-37.4	18.4	0.00e+00	0	57	0	1282408448	43	4267
2026-01-07 23:44:05.61	188.27	63.56	-36.6	-38.0	17.8	0.00e+00	0	57	0	1285554176	43	4582
2026-01-07 23:44:06.60	188.43	63.14	-37.8	-39.4	16.7	0.00e+00	0	57	0	1288699904	46	4504
2026-01-07 23:44:07.60	188.59	62.72	-38.1	-39.8	16.4	0.00e+00	0	57	0	1291845632	46	4714
2026-01-07 23:44:08.60	188.74	62.30	-37.7	-39.3	16.6	0.00e+00	0	57	0	1294991360	46	4445
2026-01-07 23:44:09.59	188.89	61.88	-37.0	-38.4	17.4	0.00e+00	0	57	0	1298137088	46	4037
2026-01-07 23:44:10.58	189.03	61.47	-36.4	-37.7	18.1	0.00e+00	0	57	0	1301282816	44	4189
2026-01-07 23:44:11.58	189.17	61.06	-36.5	-37.8	18.2	0.00e+00	0	57	0	1304428544	44	4233
2026-01-07 23:44:12.57	189.31	60.66	-36.7	-38.1	17.8	0.00e+00	0	57	0	1307574272	44	4375
2026-01-07 23:44:13.57	189.44	60.25	-37.1	-38.6	17.3	0.00e+00	0	57	0	1310720000	44	4632
2026-01-07 23:44:14.56	189.56	59.85	-37.1	-38.6	17.2	0.00e+00	0	57	0	1313865728	45	4355
2026-01-07 23:44:15.56	189.69	59.45	-37.0	-38.5	17.5	0.00e+00	0	57	0	1317011456	45	4311
2026-01-07 23:44:16.55	189.80	59.05	-37.1	-38.5	17.4	0.00e+00	0	57	0	1320157184	45	4329
2026-01-07 23:44:17.55	189.92	58.65	-37.3	-38.8	17.1	0.00e+00	0	57	0	1323302912	45	4452
2026-01-07 23:44:18.55	190.03	58.26	-36.8	-38.2	17.7	0.00e+00	0	57	0	1326448640	45	4187
2026-01-07 23:44:19.54	190.14	57.87	-36.2	-37.5	18.5	0.00e+00	0	57	0	1329594368	44	4066
2026-01-07 23:44:20.54	190.25	57.48	-36.2	-37.5	18.5	0.00e+00	0	57	0	1332740096	44	4055
2026-01-07 23:44:21.54	190.35	57.09	-36.5	-37.9	18.1	0.00e+00	0	57	0	1335885824	44	4256
2026-01-07 23:44:22.54	190.45	56.71	-37.0	-38.5	17.5	0.00e+00	0	57	0	1339031552	44	4554
2026-01-07 23:44:23.54	190.55	56.32	-37.8	-39.4	16.6	0.00e+00	0	57	0	1342177280	46	4526
2026-01-07 23:44:24.53	190.64	55.95	-38.5	-40.2	15.8	0.00e+00	0	57	0	1345323008	47	4697
2026-01-07 23:44:25.53	190.74	55.57	-38.9	-40.7	15.5	0.00e+00	0	57	0	1348468736	48	4674
2026-01-07 23:44:26.52	190.83	55.20	-38.9	-40.8	15.4	0.00e+00	0	57	0	1351614464	48	4728
2026-01-07 23:44:27.52	190.91	54.83	-38.5	-40.2	15.9	0.00e+00	0	57	0	1354760192	48	4436
2026-01-07 23:44:28.51	191.00	54.46	-38.3	-40.0	16.2	0.00e+00	0	57	0	1357905920	48	4299
2026-01-07 23:44:29.51	191.08	54.09	-37.9	-39.5	16.6	0.00e+00	0	57	0	1361051648	47	4294
2026-01-07 23:44:30.51	191.17	53.73	-37.4	-38.9	17.1	0.00e+00	0	57	0	1364197376	46	4287
2026-01-07 23:44:31.50	191.25	53.37	-37.4	-38.9	17.1	0.00e+00	0	57	0	1367343104	46	4275
2026-01-07 23:44:32.50	191.32	53.01	-37.5	-39.0	17.0	0.00e+00	0	57	0	1370488832	46	4311
2026-01-07 23:44:33.50	191.40	52.65	-37.9	-39.5	16.6	0.00e+00	0	57	0	1372585984	46	4550
2026-01-07 23:44:34.50	191.48	52.30	-38.6	-40.4	15.7	0.00e+00	0	57	0	1375731712	47	4795
2026-01-07 23:44:35.50	191.55	51.95	-39.4	-41.4	14.8	0.00e+00	0	57	0	1378877440	49	4768
2026-01-07 23:44:36.49	191.62	51.60	-39.5	-41.6	14.6	0.00e+00	0	57	0	1382023168	49	4874
2026-01-07 23:44:37.49	191.69	51.25	-39.3	-41.2	14.8	0.00e+00	0	57	0	1385168896	49	4701
2026-01-07 23:44:38.48	191.76	50.91	-39.1	-41.0	15.1	7.00e-07	0	57	0	1388314624	49	4567
2026-01-07 23:44:39.48	191.82	50.57	-39.0	-40.8	15.4	0.00e+00	0	57	0	1391460352	49	4459
2026-01-07 23:44:40.48	191.89	50.23	-39.2	-41.0	15.1	0.00e+00	0	57	0	1394606080	49	4586
2026-01-07 23:44:41.48	191.95	49.89	-39.7	-41.7	14.3	0.00e+00	0	57	0	1397751808	49	4979
2026-01-07 23:44:42.47	192.02	49.56	-39.9	-42.0	14.1	7.00e-07	0	57	0	1400897536	50	4864
2026-01-07 23:44:43.47	192.08	49.23	-39.7	-41.8	14.3	7.00e-07	0	57	0	1404043264	50	4758
2026-01-07 23:44:44.46	192.14	48.90	-39.4	-41.4	14.8	0.00e+00	0	57	0	1407188992	50	4516
2026-01-07 23:44:45.46	192.20	48.58	-39.2	-41.1	15.0	0.00e+00	0	57	0	1410334720	50	4357
2026-01-07 23:44:46.46	192.25	48.25	-39.2	-41.1	15.0	0.00e+00	0	57	0	1413480448	50	4359
2026-01-07 23:44:47.45	192.31	47.93	-39.6	-41.7	14.5	0.00e+00	0	57	0	1416626176	50	4661
2026-01-07 23:44:48.45	192.37	47.61	-39.6	-41.7	14.4	7.00e-07	0	57	0	1419771904	50	4694
2026-01-07 23:44:49.45	192.42	47.29	-39.6	-41.6	14.5	0.00e+00	0	57	0	1422917632	50	4645
2026-01-07 23:44:50.44	192.47	46.98	-39.9	-42.1	13.9	7.00e-07	0	57	0	1426063360	50	4917
2026-01-07 23:44:51.44	192.53	46.67	-40.1	-42.4	13.7	9.10e-06	0	57	0	1429209088	50	5055
2026-01-07 23:44:52.44	192.58	46.36	-39.9	-42.1	14.0	4.50e-06	0	57	0	1432354816	50	4890
2026-01-07 23:44:53.43	192.63	46.05	-39.5	-41.5	14.6	0.00e+00	0	57	0	1435500544	50	4566
2026-01-07 23:44:54.42	192.68	45.75	-39.4	-41.4	14.7	0.00e+00	0	57	0	1438646272	50	4531
2026-01-07 23:44:55.42	192.73	45.44	-39.6	-41.6	14.6	0.00e+00	0	57	0	1441792000	50	4628
2026-01-07 23:44:56.42	192.77	45.14	-39.9	-42.1	14.0	0.00e+00	0	57	0	1444937728	50	4886
2026-01-07 23:44:57.41	192.82	44.84	-40.3	-42.6	13.5	9.90e-06	0	57	0	1448083456	51	4921
2026-01-07 23:44:58.41	192.87	44.55	-40.6	-43.2	12.9	2.97e-05	0	57	0	1451229184	51	5230
2026-01-07 23:44:59.40	192.91	44.25	-40.7	-43.3	12.9	3.89e-05	0	57	0	1454374912	51	5280
2026-01-07 23:45:00.40	192.96	43.96	-40.5	-43.0	13.1	4.04e-05	0	57	0	1457520640	51	5106
2026-01-07 23:45:01.40	193.00	43.67	-40.1	-42.4	13.7	8.30e-06	0	57	0	1460666368	51	4771
2026-01-07 23:45:02.39	193.04	43.38	-39.8	-41.9	14.2	3.00e-06	0	58	0	1463812096	51	4545
2026-01-07 23:45:03.39	193.09	43.10	-39.5	-41.4	14.7	0.00e+00	0	57	0	1466957824	50	4542
2026-01-07 23:45:04.38	193.13	42.81	-39.1	-40.9	15.1	0.00e+00	0	57	0	1469054976	50	4290
2026-01-07 23:45:05.37	193.17	42.54	-39.0	-40.9	15.2	0.00e+00	0	57	0	1472200704	49	4500
2026-01-07 23:45:06.37	193.21	42.25	-39.3	-41.3	14.8	0.00e+00	0	57	0	1475346432	49	4707
2026-01-07 23:45:07.37	193.25	41.98	-39.8	-42.0	14.1	7.00e-07	0	57	0	1478492160	50	4865
2026-01-07 23:45:08.36	193.29	41.70	-40.1	-42.4	13.7	6.80e-06	0	57	0	1481637888	50	5085
2026-01-07 23:45:09.36	193.33	41.43	-40.4	-42.9	13.2	1.83e-05	0	57	0	1484783616	51	5051
2026-01-07 23:45:10.35	193.37	41.16	-40.6	-43.1	12.9	3.20e-05	0	57	0	1487929344	51	5215
2026-01-07 23:45:11.35	193.40	40.89	-40.5	-43.0	13.0	4.11e-05	0	57	0	1491075072	51	5144
2026-01-07 23:45:12.34	193.44	40.62	-40.3	-42.7	13.3	2.05e-05	0	57	0	1494220800	51	4953
2026-01-07 23:45:13.34	193.48	40.36	-40.2	-42.5	13.5	1.29e-05	0	57	0	1497366528	51	4833
2026-01-07 23:45:14.34	193.51	40.09	-39.9	-42.1	14.0	3.00e-06	0	58	0	1500512256	51	4626
2026-01-07 23:45:15.34	193.55	39.83	-39.5	-41.5	14.5	2.20e-06	0	58	0	1503657984	51	4334
2026-01-07 23:45:16.33	193.58	39.57	-39.3	-41.2	14.8	0.00e+00	0	58	0	1506803712	50	4429
2026-01-07 23:45:17.32	193.62	39.32	-38.9	-40.8	15.2	0.00e+00	0	57	0	1509949440	49	4459
2026-01-07 23:45:18.32	193.65	39.06	-38.8	-40.5	15.5	0.00e+00	0	57	0	1513095168	49	4339
2026-01-07 23:45:19.31	193.68	38.81	-39.1	-41.0	15.1	0.00e+00	0	57	0	1516240896	49	4547
2026-01-07 23:45:20.31	193.72	38.56	-39.3	-41.3	14.8	0.00e+00	0	57	0	1519386624	49	4710
2026-01-07 23:45:21.31	193.75	38.31	-39.2	-41.1	14.9	0.00e+00	0	57	0	1522532352	49	4644
2026-01-07 23:45:22.31	193.78	38.06	-38.9	-40.7	15.3	0.00e+00	0	57	0	1525678080	49	4424
2026-01-07 23:45:23.30	193.81	37.81	-38.6	-40.4	15.7	0.00e+00	0	57	0	1528823808	49	4257
2026-01-07 23:45:24.30	193.84	37.57	-38.4	-40.1	16.0	0.00e+00	0	57	0	1531969536	48	4356
2026-01-07 23:45:25.30	193.87	37.32	-38.2	-39.8	16.2	0.00e+00	0	57	0	1535115264	48	4242
2026-01-07 23:45:26.29	193.90	37.08	-38.2	-39.8	16.2	0.00e+00	0	57	0	1538260992	48	4221
2026-01-07 23:45:27.28	193.93	36.84	-38.4	-40.1	16.0	0.00e+00	0	57	0	1541406720	48	4368
2026-01-07 23:45:28.28	193.96	36.61	-38.7	-40.5	15.6	7.00e-07	0	57	0	1544552448	48	4561
2026-01-07 23:45:29.28	193.99	36.37	-38.9	-40.7	15.3	0.00e+00	0	57	0	1547698176	48	4705
2026-01-07 23:45:30.28	194.02	36.13	-38.9	-40.8	15.2	0.00e+00	0	58	0	1550843904	48	4743
2026-01-07 23:45:31.28	194.05	35.90	-39.1	-41.0	15.0	0.00e+00	0	57	0	1553989632	48	4851
2026-01-07 23:45:32.28	194.08	35.67	-39.3	-41.4	14.7	0.00e+00	0	57	0	1557135360	49	4761
2026-01-07 23:45:33.27	194.11	35.44	-39.5	-41.5	14.5	0.00e+00	0	57	0	1560281088	49	4861
2026-01-07 23:45:34.27	194.13	35.21	-39.5	-41.5	14.5	0.00e+00	0	58	0	1563426816	49	4850
2026-01-07 23:45:35.26	194.16	34.99	-39.3	-41.3	14.6	0.00e+00	0	57	0	1566572544	49	4741
2026-01-07 23:45:36.26	194.19	34.76	-39.2	-41.2	14.6	0.00e+00	0	57	0	1568669696	49	4687
2026-01-07 23:45:37.25	194.21	34.54	-39.4	-41.4	14.4	1.50e-06	0	58	0	1571815424	49	4790
2026-01-07 23:45:38.25	194.24	34.32	-39.2	-41.2	14.7	0.00e+00	0	58	0	1574961152	49	4670
2026-01-07 23:45:39.25	194.27	34.10	-39.0	-40.9	15.0	0.00e+00	0	58	0	1578106880	49	4543
2026-01-07 23:45:40.23	194.29	33.88	-38.7	-40.5	15.4	0.00e+00	0	58	0	1581252608	49	4324
2026-01-07 23:45:41.23	194.32	33.67	-38.5	-40.2	15.8	0.00e+00	0	58	0	1584398336	48	4418
2026-01-07 23:45:42.23	194.34	33.45	-38.3	-39.9	16.1	0.00e+00	0	57	0	1587544064	48	4279
2026-01-07 23:45:43.23	194.37	33.24	-38.1	-39.8	16.2	0.00e+00	0	57	0	1590689792	48	4220
2026-01-07 23:45:44.23	194.39	33.02	-38.1	-39.7	16.3	0.00e+00	0	58	0	1593835520	48	4169
2026-01-07 23:45:45.22	194.41	32.81	-37.9	-39.5	16.4	0.00e+00	0	58	0	1596981248	47	4338
2026-01-07 23:45:46.21	194.44	32.61	-37.8	-39.4	16.5	0.00e+00	0	57	0	1600126976	47	4270
2026-01-07 23:45:47.21	194.46	32.40	-37.7	-39.3	16.6	0.00e+00	0	57	0	1603272704	47	4195
2026-01-07 23:45:48.21	194.48	32.19	-37.5	-39.0	16.9	0.00e+00	0	58	0	1606418432	47	4071
2026-01-07 23:45:49.21	194.51	31.99	-37.3	-38.8	17.1	0.00e+00	0	58	0	1609564160	46	4201
2026-01-07 23:45:50.20	194.53	31.78	-37.3	-38.8	17.1	0.00e+00	0	57	0	1612709888	46	4204
2026-01-07 23:45:51.19	194.55	31.58	-37.3	-38.8	17.1	0.00e+00	0	58	0	1615855616	46	4223
2026-01-07 23:45:52.19	194.58	31.38	-37.5	-39.0	16.9	0.00e+00	0	57	0	1619001344	46	4322
2026-01-07 23:45:53.18	194.60	31.18	-37.6	-39.1	16.7	0.00e+00	0	57	0	1622147072	46	4384
2026-01-07 23:45:54.18	194.62	30.98	-37.8	-39.4	16.5	0.00e+00	0	57	0	1625292800	46	4529
2026-01-07 23:45:55.18	194.64	30.79	-37.9	-39.5	16.4	0.00e+00	0	57	0	1628438528	46	4596
2026-01-07 23:45:56.18	194.66	30.59	-38.0	-39.6	16.3	0.00e+00	0	57	0	1631584256	46	4636
2026-01-07 23:45:57.17	194.68	30.40	-38.0	-39.7	16.2	0.00e+00	0	57	0	1634729984	46	4705
2026-01-07 23:45:58.18	194.70	30.20	-38.1	-39.8	16.1	0.00e+00	0	57	0	1637875712	46	4722
2026-01-07 23:45:59.17	194.73	30.01	-38.0	-39.7	16.2	0.00e+00	0	58	0	1641021440	46	4664
2026-01-07 23:46:00.17	194.75	29.82	-37.9	-39.5	16.4	0.00e+00	0	57	0	1644167168	46	4585
2026-01-07 23:46:01.17	194.77	29.63	-37.9	-39.5	16.4	0.00e+00	0	57	0	1647312896	46	4592
2026-01-07 23:46:02.17	194.79	29.44	-37.9	-39.5	16.3	0.00e+00	0	57	0	1650458624	46	4591
2026-01-07 23:46:03.16	194.81	29.26	-37.9	-39.5	16.4	0.00e+00	0	57	0	1653604352	46	4575
2026-01-07 23:46:04.16	194.83	29.07	-37.8	-39.5	16.4	0.00e+00	0	57	0	1656750080	46	4560
2026-01-07 23:46:05.16	194.85	28.89	-37.8	-39.5	16.4	0.00e+00	0	57	0	1659895808	46	4564
2026-01-07 23:46:06.15	194.86	28.71	-37.8	-39.4	16.5	0.00e+00	0	57	0	1663041536	46	4507
2026-01-07 23:46:07.15	194.88	28.52	-37.6	-39.2	16.7	0.00e+00	0	58	0	1666187264	46	4416
2026-01-07 23:46:08.15	194.90	28.34	-37.5	-39.0	16.8	0.00e+00	0	57	0	1669332992	46	4327
2026-01-07 23:46:09.16	194.92	28.16	-37.4	-38.9	16.9	0.00e+00	0	57	0	1672478720	46	4262
2026-01-07 23:46:10.15	194.94	27.98	-37.3	-38.8	17.0	0.00e+00	0	57	0	1675624448	46	4209
2026-01-07 23:46:11.15	194.96	27.81	-37.2	-38.7	17.2	0.00e+00	0	57	0	1678770176	46	4150
2026-01-07 23:46:12.15	194.98	27.63	-37.1	-38.6	17.2	0.00e+00	0	57	0	1680867328	46	4114
2026-01-07 23:46:13.15	195.00	27.45	-37.1	-38.6	17.2	0.00e+00	0	58	0	1684013056	46	4105
2026-01-07 23:46:14.16	195.01	27.28	-37.1	-38.6	17.2	0.00e+00	0	57	0	1687158784	46	4108
2026-01-07 23:46:15.16	195.03	27.10	-37.0	-38.5	17.3	0.00e+00	0	58	0	1690304512	46	4070
2026-01-07 23:46:16.16	195.05	26.93	-36.9	-38.4	17.4	0.00e+00	0	57	0	1693450240	45	4252
2026-01-07 23:46:17.16	195.07	26.76	-36.9	-38.3	17.5	0.00e+00	0	57	0	1696595968	45	4216
2026-01-07 23:46:18.16	195.08	26.59	-36.7	-38.1	17.7	0.00e+00	0	57	0	1699741696	45	4104
2026-01-07 23:46:19.15	195.10	26.42	-36.6	-38.0	17.8	0.00e+00	0	58	0	1702887424	45	4063
2026-01-07 23:46:20.15	195.12	26.26	-36.5	-37.9	17.9	0.00e+00	0	57	0	1706033152	45	4026
2026-01-07 23:46:21.14	195.14	26.09	-36.5	-37.9	17.8	0.00e+00	0	58	0	1709178880	45	4026
2026-01-07 23:46:22.14	195.15	25.93	-36.5	-37.9	17.9	0.00e+00	0	57	0	1712324608	45	4009
2026-01-07 23:46:23.14	195.17	25.76	-36.5	-37.9	17.8	0.00e+00	0	57	0	1715470336	45	4043
2026-01-07 23:46:24.13	195.19	25.60	-36.5	-37.9	17.9	0.00e+00	0	57	0	1718616064	45	4024
2026-01-07 23:46:25.14	195.20	25.43	-36.5	-37.8	17.9	0.00e+00	0	57	0	1721761792	44	4237
2026-01-07 23:46:26.13	195.22	25.27	-36.4	-37.8	17.9	0.00e+00	0	58	0	1724907520	44	4227
2026-01-07 23:46:27.13	195.23	25.11	-36.5	-37.9	17.9	0.00e+00	0	57	0	1728053248	44	4243
2026-01-07 23:46:28.13	195.25	24.95	-36.4	-37.8	18.0	0.00e+00	0	57	0	1731198976	44	4206
2026-01-07 23:46:29.12	195.27	24.80	-36.4	-37.7	18.0	0.00e+00	0	57	0	1734344704	44	4187
2026-01-07 23:46:30.12	195.28	24.64	-36.4	-37.8	17.9	0.00e+00	0	57	0	1737490432	44	4221
2026-01-07 23:46:31.12	195.30	24.48	-36.4	-37.8	18.0	0.00e+00	0	57	0	1740636160	44	4214
2026-01-07 23:46:32.12	195.31	24.33	-36.5	-37.9	17.9	0.00e+00	0	57	0	1743781888	44	4249
2026-01-07 23:46:33.12	195.33	24.17	-36.6	-38.0	17.8	0.00e+00	0	57	0	1746927616	44	4311
2026-01-07 23:46:34.11	195.34	24.02	-36.6	-38.0	17.8	0.00e+00	0	58	0	1750073344	44	4316
2026-01-07 23:46:35.11	195.36	23.86	-36.7	-38.1	17.7	0.00e+00	0	58	0	1753219072	44	4364
2026-01-07 23:46:36.10	195.37	23.71	-36.8	-38.2	17.6	0.00e+00	0	57	0	1756364800	44	4421
2026-01-07 23:46:37.10	195.39	23.56	-36.8	-38.3	17.5	0.00e+00	0	58	0	1759510528	44	4454
2026-01-07 23:46:38.09	195.40	23.41	-36.9	-38.4	17.4	0.00e+00	0	58	0	1762656256	44	4508
2026-01-07 23:46:39.09	195.42	23.26	-37.0	-38.4	17.3	0.00e+00	0	58	0	1765801984	44	4533
2026-01-07 23:46:40.09	195.43	23.11	-37.1	-38.5	17.2	0.00e+00	0	58	0	1768947712	44	4596
2026-01-07 23:46:41.09	195.45	22.97	-37.1	-38.6	17.2	0.00e+00	0	58	0	1772093440	44	4619
2026-01-07 23:46:42.09	195.46	22.82	-37.2	-38.7	17.1	0.00e+00	0	58	0	1775239168	44	4662
2026-01-07 23:46:43.08	195.47	22.67	-37.2	-38.7	17.1	0.00e+00	0	58	0	1778384896	44	4659
2026-01-07 23:46:44.08	195.49	22.53	-37.1	-38.6	17.1	0.00e+00	0	58	0	1781530624	44	4649
2026-01-07 23:46:45.07	195.50	22.39	-37.2	-38.7	17.1	0.00e+00	0	57	0	1784676352	44	4671
2026-01-07 23:46:46.07	195.52	22.24	-37.1	-38.6	17.1	0.00e+00	0	58	0	1787822080	44	4644
2026-01-07 23:46:47.07	195.53	22.10	-37.1	-38.6	17.1	0.00e+00	0	58	0	1789919232	44	4634
2026-01-07 23:46:48.07	195.54	21.96	-37.1	-38.6	17.1	0.00e+00	0	57	0	1793064960	44	4627
2026-01-07 23:46:49.07	195.56	21.81	-37.1	-38.6	17.2	0.00e+00	0	58	0	1796210688	44	4617
2026-01-07 23:46:50.07	195.57	21.67	-37.1	-38.6	17.2	0.00e+00	0	58	0	1799356416	44	4612
2026-01-07 23:46:51.06	195.58	21.54	-37.0	-38.5	17.3	0.00e+00	0	57	0	1802502144	44	4574
2026-01-07 23:46:52.06	195.60	21.40	-37.1	-38.6	17.2	0.00e+00	0	57	0	1805647872	44	4604
2026-01-07 23:46:53.06	195.61	21.26	-37.0	-38.6	17.2	0.00e+00	0	58	0	1808793600	44	4599
2026-01-07 23:46:54.06	195.62	21.12	-37.1	-38.6	17.2	0.00e+00	0	57	0	1811939328	44	4599
2026-01-07 23:46:55.05	195.64	20.98	-37.0	-38.5	17.2	0.00e+00	0	58	0	1815085056	44	4579
2026-01-07 23:46:56.06	195.65	20.85	-37.0	-38.5	17.3	0.00e+00	0	58	0	1818230784	44	4578
2026-01-07 23:46:57.05	195.66	20.71	-37.1	-38.6	17.2	0.00e+00	0	58	0	1821376512	44	4611
2026-01-07 23:46:58.05	195.68	20.58	-37.1	-38.6	17.2	0.00e+00	0	58	0	1824522240	44	4600
2026-01-07 23:46:59.04	195.69	20.44	-37.0	-38.5	17.2	0.00e+00	0	58	0	1827667968	44	4590
2026-01-07 23:47:00.03	195.70	20.31	-37.1	-38.6	17.1	0.00e+00	0	58	0	1830813696	44	4650
2026-01-07 23:47:01.04	195.71	20.18	-37.1	-38.6	17.1	0.00e+00	0	57	0	1833959424	44	4649
2026-01-07 23:47:02.03	195.73	20.05	-37.2	-38.7	17.0	0.00e+00	0	58	0	1837105152	44	4672
2026-01-07 23:47:03.03	195.74	19.92	-37.2	-38.7	17.0	0.00e+00	0	57	0	1840250880	44	4697
2026-01-07 23:47:04.03	195.75	19.79	-37.2	-38.7	17.0	0.00e+00	0	57	0	1843396608	44	4699
2026-01-07 23:47:05.03	195.76	19.66	-37.2	-38.7	17.0	0.00e+00	0	57	0	1846542336	44	4688
2026-01-07 23:47:06.03	195.78	19.53	-37.2	-38.7	17.0	0.00e+00	0	57	0	1849688064	44	4704
2026-01-07 23:47:07.04	195.79	19.40	-37.2	-38.8	17.0	0.00e+00	0	58	0	1852833792	45	4443
2026-01-07 23:47:08.03	195.80	19.27	-37.3	-38.8	16.8	0.00e+00	0	58	0	1855979520	45	4492
2026-01-07 23:47:09.03	195.81	19.14	-37.3	-38.8	16.9	0.00e+00	0	58	0	1859125248	45	4491
2026-01-07 23:47:10.03	195.82	19.02	-37.3	-38.9	16.8	0.00e+00	0	58	0	1862270976	45	4497
2026-01-07 23:47:11.03	195.83	18.89	-37.3	-38.9	16.8	0.00e+00	0	58	0	1865416704	45	4517
2026-01-07 23:47:12.03	195.85	18.77	-37.4	-39.0	16.7	0.00e+00	0	57	0	1868562432	45	4546
2026-01-07 23:47:13.03	195.86	18.64	-37.4	-38.9	16.7	0.00e+00	0	57	0	1871708160	45	4536
2026-01-07 23:47:14.03	195.87	18.52	-37.4	-39.0	16.7	0.00e+00	0	58	0	1874853888	45	4578
2026-01-07 23:47:15.03	195.88	18.39	-37.5	-39.1	16.6	0.00e+00	0	58	0	1877999616	45	4600
2026-01-07 23:47:16.03	195.89	18.27	-37.5	-39.1	16.5	0.00e+00	0	58	0	1881145344	45	4628
2026-01-07 23:47:17.02	195.90	18.15	-37.5	-39.2	16.5	0.00e+00	0	57	0	1884291072	45	4654
2026-01-07 23:47:18.02	195.92	18.03	-37.6	-39.2	16.5	0.00e+00	0	58	0	1887436800	45	4655
2026-01-07 23:47:19.02	195.93	17.91	-37.6	-39.2	16.4	0.00e+00	0	58	0	1890582528	45	4696
2026-01-07 23:47:20.01	195.94	17.79	-37.6	-39.3	16.4	0.00e+00	0	57	0	1893728256	45	4723
2026-01-07 23:47:21.01	195.95	17.67	-37.7	-39.3	16.4	0.00e+00	0	58	0	1896873984	45	4747
2026-01-07 23:47:22.01	195.96	17.55	-37.7	-39.3	16.3	0.00e+00	0	58	0	1900019712	45	4751
2026-01-07 23:47:23.00	195.97	17.43	-37.7	-39.4	16.3	0.00e+00	0	58	0	1903165440	46	4517
2026-01-07 23:47:23.99	195.98	17.32	-37.8	-39.5	16.2	0.00e+00	0	57	0	1906311168	46	4565
2026-01-07 23:47:24.99	195.99	17.20	-37.8	-39.5	16.2	0.00e+00	0	58	0	1909456896	46	4547
2026-01-07 23:47:25.98	196.00	17.08	-37.8	-39.5	16.2	0.00e+00	0	58	0	1912602624	46	4571
2026-01-07 23:47:26.98	196.01	16.97	-37.8	-39.5	16.2	0.00e+00	0	58	0	1915748352	46	4557
