passes_logs/2026/01/07/R2.0S_Moscow/R2.0S_Moscow__20260107_030515_FENGYUN_3D_rec.log

#Pass ID: 20260107_030515_FENGYUN 3D
#Satellite: FENGYUN 3D
#Configuration: FENGYUN 3D
#almurnet v.1.7.20251203
#Start time: 2026-01-07 03:05:16

#Version: 2.2.20231116
#Station: R2.0S_Moscow
#Location: 37.707566 lon 55.798166 lat
#TLE: 1 43010U 17072A   26006.26440730  .00000376  00000+0  19957-3 0  9994
#TLE: 2 43010  98.9925 337.9455 0002045 123.9195 236.2175 14.19693586422016

#Time	Az	El	Level	Level2	SNR	BER	BlckErr	Temp	State	Recorded	gain1	gain2
2026-01-07 03:05:16.33	11.62	2.06	-39.7	-51.3	3.8	8.45e-01	0	48	0	0	51	13298
2026-01-07 03:05:17.33	11.56	2.12	-39.7	-51.3	3.8	8.45e-01	0	48	104	0	51	13279
2026-01-07 03:05:18.34	11.51	2.18	-39.7	-51.2	3.8	8.46e-01	0	48	104	0	51	13253
2026-01-07 03:05:19.35	11.46	2.24	-39.7	-51.3	3.8	8.45e-01	0	48	104	0	51	13261
2026-01-07 03:05:20.36	11.40	2.30	-39.7	-51.2	3.8	8.47e-01	0	48	104	0	51	13256
2026-01-07 03:05:21.37	11.35	2.36	-39.7	-51.3	3.8	8.47e-01	0	48	104	0	51	13300
2026-01-07 03:05:22.38	11.29	2.42	-39.7	-51.3	3.8	8.46e-01	0	48	104	0	51	13301
2026-01-07 03:05:23.39	11.24	2.48	-39.7	-51.3	3.8	8.45e-01	0	48	104	0	51	13344
2026-01-07 03:05:24.40	11.19	2.54	-39.7	-51.2	3.8	8.46e-01	0	48	104	0	51	13252
2026-01-07 03:05:25.41	11.13	2.60	-39.7	-51.3	3.8	8.46e-01	0	48	104	0	51	13275
2026-01-07 03:05:26.42	11.08	2.66	-39.7	-51.2	3.8	8.47e-01	0	48	104	0	51	13251
2026-01-07 03:05:27.44	11.02	2.72	-39.7	-51.2	3.8	8.46e-01	0	48	104	0	51	13248
2026-01-07 03:05:28.45	10.96	2.79	-39.7	-51.3	3.8	8.45e-01	0	49	104	0	51	13278
2026-01-07 03:05:29.46	10.91	2.85	-39.7	-51.3	3.8	8.47e-01	0	49	104	0	51	13263
2026-01-07 03:05:30.47	10.85	2.91	-39.7	-51.3	3.8	8.46e-01	0	49	104	0	51	13282
2026-01-07 03:05:31.48	10.80	2.97	-39.7	-51.2	3.8	8.46e-01	0	49	104	0	51	13250
2026-01-07 03:05:32.49	10.74	3.03	-39.7	-51.3	3.8	8.46e-01	0	49	104	0	51	13311
2026-01-07 03:05:33.50	10.68	3.09	-39.7	-51.3	3.8	8.46e-01	0	49	104	0	51	13277
2026-01-07 03:05:34.51	10.62	3.15	-39.7	-51.3	3.8	8.47e-01	0	49	104	0	51	13262
2026-01-07 03:05:35.52	10.57	3.21	-39.7	-51.2	3.8	8.45e-01	0	49	104	0	51	13219
2026-01-07 03:05:36.53	10.51	3.28	-39.7	-51.3	3.8	8.46e-01	0	49	104	0	51	13266
2026-01-07 03:05:37.54	10.45	3.34	-39.7	-51.3	3.8	8.47e-01	0	49	104	0	51	13276
2026-01-07 03:05:38.55	10.39	3.40	-39.7	-51.2	3.8	8.47e-01	0	49	104	0	51	13255
2026-01-07 03:05:39.56	10.34	3.46	-39.7	-51.3	3.8	8.46e-01	0	49	104	0	51	13282
2026-01-07 03:05:40.57	10.28	3.52	-39.7	-51.2	3.8	8.46e-01	0	49	104	0	51	13206
2026-01-07 03:05:41.58	10.22	3.59	-39.7	-51.2	3.8	8.46e-01	0	49	104	0	51	13258
2026-01-07 03:05:42.60	10.16	3.65	-39.7	-51.2	3.8	8.45e-01	0	50	104	0	51	13244
2026-01-07 03:05:43.61	10.10	3.71	-39.7	-51.2	3.8	8.45e-01	0	50	104	0	51	13223
2026-01-07 03:05:44.62	10.04	3.77	-39.7	-51.2	3.8	8.46e-01	0	50	104	0	51	13215
2026-01-07 03:05:45.63	9.98	3.84	-39.7	-51.2	3.8	8.45e-01	0	50	104	0	51	13241
2026-01-07 03:05:46.64	9.92	3.90	-39.7	-51.2	3.8	8.47e-01	0	50	104	0	51	13200
2026-01-07 03:05:47.65	9.86	3.96	-39.7	-51.2	3.8	8.46e-01	0	50	104	0	51	13234
2026-01-07 03:05:48.66	9.80	4.03	-39.7	-51.3	3.8	8.45e-01	0	50	104	0	51	13281
2026-01-07 03:05:49.67	9.74	4.09	-39.7	-51.2	3.8	8.46e-01	0	50	104	0	51	13255
2026-01-07 03:05:50.68	9.67	4.15	-39.7	-51.3	3.8	8.46e-01	0	50	104	0	51	13264
2026-01-07 03:05:51.69	9.61	4.21	-39.7	-51.2	3.8	8.46e-01	0	50	104	0	51	13252
2026-01-07 03:05:52.70	9.55	4.28	-39.7	-51.3	3.8	8.47e-01	0	50	104	0	51	13283
2026-01-07 03:05:53.71	9.49	4.34	-39.7	-51.2	3.8	8.46e-01	0	50	104	0	51	13227
2026-01-07 03:05:54.72	9.43	4.41	-39.7	-51.3	3.8	8.46e-01	0	50	104	0	51	13264
2026-01-07 03:05:55.73	9.36	4.47	-39.7	-51.3	3.8	8.46e-01	0	50	104	0	51	13288
2026-01-07 03:05:56.74	9.30	4.53	-39.7	-51.3	3.8	8.46e-01	0	51	104	0	51	13297
2026-01-07 03:05:57.75	9.24	4.60	-39.7	-51.2	3.8	8.45e-01	0	50	104	0	51	13243
2026-01-07 03:05:58.76	9.17	4.66	-39.7	-51.2	3.8	8.46e-01	0	50	104	0	51	13258
2026-01-07 03:05:59.77	9.11	4.73	-39.7	-51.2	3.8	8.46e-01	0	50	104	0	51	13254
2026-01-07 03:06:00.78	9.04	4.79	-39.7	-51.2	3.8	8.46e-01	0	51	104	0	51	13230
2026-01-07 03:06:01.79	8.98	4.86	-39.7	-51.3	3.8	8.45e-01	0	51	104	0	51	13273
2026-01-07 03:06:02.80	8.91	4.92	-39.7	-51.2	3.8	8.46e-01	0	51	104	0	51	13231
2026-01-07 03:06:03.81	8.85	4.98	-39.7	-51.2	3.8	8.46e-01	0	51	104	0	51	13238
2026-01-07 03:06:04.82	8.78	5.05	-39.7	-51.2	3.8	8.45e-01	0	51	104	0	51	13195
2026-01-07 03:06:05.84	8.72	5.12	-39.7	-51.2	3.8	8.45e-01	0	51	104	0	51	13242
2026-01-07 03:06:06.85	8.65	5.18	-39.7	-51.2	3.8	8.46e-01	0	51	104	0	51	13220
2026-01-07 03:06:07.86	8.58	5.25	-39.7	-51.2	3.8	8.46e-01	0	51	104	0	51	13258
2026-01-07 03:06:08.87	8.52	5.31	-39.7	-51.3	3.8	8.46e-01	0	51	104	0	51	13275
2026-01-07 03:06:09.88	8.45	5.38	-39.7	-51.2	3.8	8.47e-01	0	51	104	0	51	13255
2026-01-07 03:06:10.89	8.38	5.44	-39.7	-51.2	3.8	8.46e-01	0	51	104	0	51	13241
2026-01-07 03:06:11.90	8.32	5.51	-39.7	-51.2	3.8	8.46e-01	0	51	104	0	51	13259
2026-01-07 03:06:12.91	8.25	5.57	-39.7	-51.3	3.8	8.46e-01	0	51	104	0	51	13281
2026-01-07 03:06:13.92	8.18	5.64	-39.7	-51.2	3.8	8.46e-01	0	51	104	0	51	13224
2026-01-07 03:06:14.93	8.11	5.71	-39.7	-51.2	3.8	8.47e-01	0	51	104	0	51	13227
2026-01-07 03:06:15.94	8.04	5.77	-39.7	-51.2	3.8	8.46e-01	0	51	104	0	51	13217
2026-01-07 03:06:16.95	7.97	5.84	-39.7	-51.2	3.8	8.46e-01	0	51	104	0	51	13195
2026-01-07 03:06:17.96	7.90	5.91	-39.7	-51.2	3.8	8.47e-01	0	52	104	0	51	13231
2026-01-07 03:06:18.97	7.83	5.97	-39.7	-51.3	3.8	8.47e-01	0	51	104	0	51	13285
2026-01-07 03:06:19.98	7.76	6.04	-39.7	-51.2	3.8	8.45e-01	0	52	104	0	51	13256
2026-01-07 03:06:20.99	7.69	6.11	-39.7	-51.3	3.8	8.45e-01	0	52	104	0	51	13271
2026-01-07 03:06:22.01	7.62	6.17	-39.7	-51.2	3.8	8.46e-01	0	51	104	0	51	13225
2026-01-07 03:06:23.02	7.55	6.24	-39.7	-51.2	3.8	8.46e-01	0	52	104	0	51	13218
2026-01-07 03:06:24.03	7.48	6.31	-39.7	-51.2	3.8	8.46e-01	0	52	104	0	51	13188
2026-01-07 03:06:25.04	7.40	6.38	-39.7	-51.2	3.8	8.47e-01	0	52	104	0	51	13239
2026-01-07 03:06:26.05	7.33	6.44	-39.7	-51.2	3.8	8.47e-01	0	52	104	0	51	13209
2026-01-07 03:06:27.06	7.26	6.51	-39.7	-51.2	3.8	8.46e-01	0	52	104	0	51	13221
2026-01-07 03:06:28.07	7.18	6.58	-39.7	-51.3	3.8	8.46e-01	0	52	104	0	51	13309
2026-01-07 03:06:29.08	7.11	6.65	-39.7	-51.3	3.8	8.46e-01	0	52	104	0	51	13272
2026-01-07 03:06:30.09	7.04	6.71	-39.7	-51.2	3.8	8.46e-01	0	52	104	0	51	13216
2026-01-07 03:06:31.11	6.96	6.78	-39.7	-51.2	3.8	8.46e-01	0	52	104	0	51	13248
2026-01-07 03:06:32.11	6.89	6.85	-39.7	-51.3	3.8	8.47e-01	0	52	104	0	51	13269
2026-01-07 03:06:33.13	6.81	6.92	-39.7	-51.2	3.8	8.47e-01	0	52	104	0	51	13251
2026-01-07 03:06:34.14	6.74	6.99	-39.7	-51.3	3.8	8.45e-01	0	52	104	0	51	13273
2026-01-07 03:06:35.14	6.66	7.06	-39.7	-51.3	3.8	8.46e-01	0	52	104	0	51	13284
2026-01-07 03:06:36.16	6.58	7.13	-39.7	-51.2	3.8	8.46e-01	0	52	104	0	51	13237
2026-01-07 03:06:37.17	6.51	7.20	-39.7	-51.2	3.8	8.46e-01	0	52	104	0	51	13259
2026-01-07 03:06:38.18	6.43	7.26	-39.7	-51.2	3.8	8.46e-01	0	52	104	0	51	13223
2026-01-07 03:06:39.19	6.35	7.33	-39.7	-51.2	3.8	8.46e-01	0	52	104	0	51	13236
2026-01-07 03:06:40.20	6.28	7.40	-39.7	-51.2	3.8	8.46e-01	0	52	104	0	51	13231
2026-01-07 03:06:41.21	6.20	7.47	-39.7	-51.2	3.8	8.46e-01	0	52	104	0	51	13218
2026-01-07 03:06:42.22	6.12	7.54	-39.7	-51.3	3.8	8.46e-01	0	52	104	0	51	13263
2026-01-07 03:06:43.23	6.04	7.61	-39.7	-51.3	3.8	8.46e-01	0	52	104	0	51	13272
2026-01-07 03:06:44.24	5.96	7.68	-39.7	-51.2	3.8	8.45e-01	0	53	104	0	51	13229
2026-01-07 03:06:45.25	5.88	7.75	-39.7	-51.2	3.8	8.47e-01	0	53	104	0	51	13211
2026-01-07 03:06:46.27	5.80	7.82	-39.7	-51.3	3.8	8.45e-01	0	53	104	0	51	13292
2026-01-07 03:06:47.27	5.72	7.89	-39.7	-51.2	3.8	8.46e-01	0	53	104	0	51	13244
2026-01-07 03:06:48.29	5.64	7.97	-39.7	-51.2	3.8	8.45e-01	0	53	104	0	51	13242
2026-01-07 03:06:49.30	5.56	8.04	-39.7	-51.2	3.8	8.46e-01	0	53	104	0	51	13256
2026-01-07 03:06:50.31	5.48	8.11	-39.7	-51.3	3.8	8.46e-01	0	53	104	0	51	13338
2026-01-07 03:06:51.32	5.39	8.18	-39.8	-51.3	3.8	8.45e-01	0	53	104	0	51	13339
2026-01-07 03:06:52.33	5.31	8.25	-39.8	-51.3	3.8	8.46e-01	0	53	104	0	51	13339
2026-01-07 03:06:53.34	5.23	8.32	-39.8	-51.3	3.8	8.46e-01	0	53	104	0	51	13362
2026-01-07 03:06:54.35	5.14	8.39	-39.8	-51.3	3.8	8.45e-01	0	53	104	0	51	13410
2026-01-07 03:06:55.36	5.06	8.46	-39.8	-51.3	3.8	8.46e-01	0	53	104	0	51	13361
2026-01-07 03:06:56.37	4.98	8.53	-39.7	-51.3	3.8	8.45e-01	0	53	104	0	51	13265
2026-01-07 03:06:57.38	4.89	8.61	-39.7	-51.3	3.8	8.47e-01	0	53	104	0	51	13339
2026-01-07 03:06:58.40	4.81	8.68	-39.7	-51.3	3.8	8.46e-01	0	53	104	0	51	13374
2026-01-07 03:06:59.40	4.72	8.75	-39.7	-51.3	3.8	8.45e-01	0	53	104	0	51	13349
2026-01-07 03:07:00.41	4.63	8.82	-39.8	-51.3	3.8	8.47e-01	0	53	104	0	51	13385
2026-01-07 03:07:01.42	4.55	8.90	-39.8	-51.4	3.8	8.46e-01	0	53	104	0	51	13457
2026-01-07 03:07:02.44	4.46	8.97	-39.7	-51.3	3.8	8.45e-01	0	53	104	0	51	13330
2026-01-07 03:07:03.44	4.37	9.04	-39.8	-51.4	3.8	8.47e-01	0	53	104	0	51	13481
2026-01-07 03:07:04.44	4.29	9.11	-39.7	-51.3	3.8	8.45e-01	0	53	104	0	51	13262
2026-01-07 03:07:05.46	4.20	9.19	-39.8	-51.4	3.8	8.47e-01	0	53	104	0	51	13453
2026-01-07 03:07:06.46	4.11	9.26	-39.8	-51.4	3.8	8.46e-01	0	53	104	0	51	13477
2026-01-07 03:07:07.48	4.02	9.33	-39.8	-51.4	3.8	8.46e-01	0	53	104	0	51	13529
2026-01-07 03:07:08.49	3.93	9.41	-39.8	-51.3	3.8	8.46e-01	0	53	104	0	51	13404
2026-01-07 03:07:09.49	3.84	9.48	-39.9	-51.5	3.8	8.46e-01	0	54	104	0	51	13573
2026-01-07 03:07:10.50	3.75	9.55	-39.9	-51.5	3.8	8.45e-01	0	53	104	0	51	13572
2026-01-07 03:07:11.52	3.66	9.63	-39.9	-51.5	3.8	8.46e-01	0	54	104	0	51	13610
2026-01-07 03:07:12.53	3.57	9.70	-39.9	-51.5	3.8	8.46e-01	0	54	104	0	51	13593
2026-01-07 03:07:13.53	3.47	9.78	-39.9	-51.4	3.8	8.46e-01	0	53	104	0	51	13535
2026-01-07 03:07:14.55	3.38	9.85	-39.9	-51.5	3.8	8.46e-01	0	54	104	0	51	13586
2026-01-07 03:07:15.56	3.29	9.93	-39.9	-51.5	3.8	8.46e-01	0	54	104	0	51	13581
2026-01-07 03:07:16.57	3.19	10.00	-39.8	-51.4	3.8	8.46e-01	0	54	104	0	51	13535
2026-01-07 03:07:17.58	3.10	10.07	-39.9	-51.5	3.8	8.47e-01	0	54	104	0	51	13591
2026-01-07 03:07:18.59	3.00	10.15	-39.9	-51.5	3.8	8.47e-01	0	54	104	0	51	13581
2026-01-07 03:07:19.60	2.91	10.22	-39.9	-51.5	3.8	8.46e-01	0	54	104	0	51	13608
2026-01-07 03:07:20.61	2.81	10.30	-40.0	-51.5	3.8	8.47e-01	0	54	104	0	51	13664
2026-01-07 03:07:21.62	2.72	10.38	-39.8	-51.4	3.8	8.47e-01	0	54	104	0	51	13558
2026-01-07 03:07:22.62	2.62	10.45	-39.9	-51.5	3.8	8.46e-01	0	54	104	0	51	13646
2026-01-07 03:07:23.63	2.52	10.53	-39.8	-51.4	3.8	8.46e-01	0	54	104	0	51	13478
2026-01-07 03:07:24.64	2.43	10.60	-39.8	-51.4	3.8	8.46e-01	0	54	104	0	51	13550
2026-01-07 03:07:25.65	2.33	10.68	-39.9	-51.4	3.8	8.46e-01	0	54	104	0	51	13554
2026-01-07 03:07:26.66	2.23	10.75	-39.9	-51.5	3.8	8.46e-01	0	54	104	0	51	13575
2026-01-07 03:07:27.67	2.13	10.83	-39.9	-51.4	3.8	8.45e-01	0	54	104	0	51	13546
2026-01-07 03:07:28.69	2.03	10.91	-40.0	-51.6	3.8	8.47e-01	0	54	104	0	51	13836
2026-01-07 03:07:29.70	1.93	10.98	-39.8	-51.4	3.8	8.47e-01	0	54	104	0	51	13448
2026-01-07 03:07:30.71	1.83	11.06	-39.9	-51.6	3.8	8.47e-01	0	54	104	0	51	13739
2026-01-07 03:07:31.72	1.73	11.14	-39.8	-51.4	3.8	8.47e-01	0	54	104	0	51	13469
2026-01-07 03:07:32.73	1.62	11.21	-40.0	-51.6	3.8	8.46e-01	0	54	104	0	51	13739
2026-01-07 03:07:33.74	1.52	11.29	-39.9	-51.5	3.8	8.47e-01	0	54	104	0	51	13587
2026-01-07 03:07:34.75	1.42	11.37	-40.0	-51.6	3.8	8.46e-01	0	54	104	0	51	13794
2026-01-07 03:07:35.76	1.32	11.45	-39.9	-51.5	3.8	8.46e-01	0	54	104	0	51	13628
2026-01-07 03:07:36.77	1.21	11.52	-40.1	-51.7	3.8	8.46e-01	0	54	104	0	51	13978
2026-01-07 03:07:37.78	1.11	11.60	-39.9	-51.5	3.8	8.46e-01	0	54	104	0	51	13639
2026-01-07 03:07:38.79	1.00	11.68	-40.1	-51.7	3.8	8.46e-01	0	54	104	0	51	13975
2026-01-07 03:07:39.80	0.89	11.76	-39.9	-51.5	3.8	8.45e-01	0	54	104	0	51	13678
2026-01-07 03:07:40.81	0.79	11.84	-40.0	-51.6	3.8	8.46e-01	0	54	104	0	51	13812
2026-01-07 03:07:41.82	0.68	11.91	-39.9	-51.6	3.8	8.46e-01	0	54	104	0	51	13750
2026-01-07 03:07:42.83	0.57	11.99	-40.0	-51.5	3.8	8.46e-01	0	54	104	0	51	13649
2026-01-07 03:07:43.84	0.46	12.07	-40.0	-51.6	3.8	8.45e-01	0	55	104	0	51	13816
2026-01-07 03:07:44.85	0.36	12.15	-40.4	-51.2	3.8	8.45e-01	0	54	104	0	51	13159
2026-01-07 03:07:45.86	0.25	12.23	-39.8	-51.6	3.8	8.46e-01	0	54	104	0	51	13730
2026-01-07 03:07:46.87	0.14	12.31	-40.2	-51.3	3.8	8.45e-01	0	54	104	0	51	13305
2026-01-07 03:07:47.88	0.02	12.39	-40.4	-51.1	3.8	8.46e-01	0	54	104	0	51	13073
2026-01-07 03:07:48.89	359.91	12.47	-40.5	-50.7	3.8	8.46e-01	0	54	104	0	51	12416
2026-01-07 03:07:49.90	359.80	12.55	-40.6	-49.9	4.0	8.45e-01	0	54	104	0	51	11398
2026-01-07 03:07:50.91	359.69	12.63	-40.6	-49.1	4.2	8.40e-01	0	55	0	0	51	10356
2026-01-07 03:07:51.92	359.57	12.71	-40.7	-48.4	4.5	8.22e-01	0	55	0	0	51	9529
2026-01-07 03:07:52.93	359.46	12.79	-40.7	-47.8	4.9	7.94e-01	0	55	0	0	51	8924
2026-01-07 03:07:53.94	359.35	12.87	-40.6	-46.9	5.5	7.41e-01	0	54	0	0	52	7625
2026-01-07 03:07:54.95	359.23	12.95	-40.5	-46.1	6.4	3.26e-01	0	55	0	5242880	52	6892
2026-01-07 03:07:55.96	359.12	13.03	-40.4	-45.3	7.3	1.89e-01	0	55	0	10485760	52	6329
2026-01-07 03:07:56.97	359.00	13.11	-40.3	-44.9	7.9	9.45e-02	0	54	0	16777216	52	6011
2026-01-07 03:07:57.98	358.88	13.19	-40.1	-44.2	8.7	6.48e-02	0	55	0	22020096	52	5570
2026-01-07 03:07:58.99	358.76	13.27	-39.5	-42.9	10.1	1.23e-02	0	55	0	27262976	51	5088
2026-01-07 03:08:00.00	358.64	13.35	-39.0	-41.9	11.2	2.88e-03	0	54	0	33554432	50	4791
2026-01-07 03:08:01.01	358.53	13.43	-38.5	-41.1	12.1	6.17e-04	0	55	0	38797312	49	4641
2026-01-07 03:08:02.02	358.41	13.52	-37.7	-40.0	13.2	6.75e-05	0	55	0	45088768	47	4574
2026-01-07 03:08:03.03	358.28	13.60	-37.0	-39.1	14.1	6.80e-06	0	55	0	50331648	46	4381
2026-01-07 03:08:04.04	358.16	13.68	-36.6	-38.5	14.8	1.10e-06	0	55	0	55574528	45	4316
2026-01-07 03:08:05.05	358.04	13.76	-36.6	-38.5	14.8	1.10e-06	0	55	0	61865984	45	4338
2026-01-07 03:08:06.06	357.92	13.84	-36.8	-38.8	14.6	0.00e+00	0	55	0	67108864	45	4469
2026-01-07 03:08:07.07	357.80	13.92	-37.0	-39.0	14.4	1.10e-06	0	55	0	73400320	45	4558
2026-01-07 03:08:08.08	357.67	14.01	-37.0	-39.1	14.3	3.40e-06	0	55	0	78643200	45	4615
2026-01-07 03:08:09.09	357.55	14.09	-37.1	-39.1	14.4	1.10e-06	0	55	0	83886080	45	4610
2026-01-07 03:08:10.10	357.42	14.17	-37.1	-39.2	14.4	1.10e-06	0	55	0	90177536	45	4653
2026-01-07 03:08:11.11	357.29	14.25	-36.6	-38.5	15.1	0.00e+00	0	55	0	95420416	45	4306
2026-01-07 03:08:12.12	357.17	14.34	-36.6	-38.4	15.2	0.00e+00	0	55	0	101711872	45	4268
2026-01-07 03:08:13.13	357.04	14.42	-36.8	-38.7	14.9	2.20e-06	0	55	0	106954752	45	4424
2026-01-07 03:08:14.14	356.91	14.50	-36.7	-38.5	15.1	0.00e+00	0	55	0	113246208	45	4320
2026-01-07 03:08:15.15	356.78	14.59	-36.9	-38.8	14.7	0.00e+00	0	55	0	118489088	45	4475
2026-01-07 03:08:16.16	356.65	14.67	-37.1	-39.0	14.5	1.10e-06	0	55	0	123731968	45	4581
2026-01-07 03:08:17.17	356.52	14.75	-37.2	-39.2	14.2	0.00e+00	0	55	0	130023424	45	4685
2026-01-07 03:08:18.18	356.39	14.84	-37.6	-39.8	13.4	1.37e-05	0	55	0	135266304	45	5028
2026-01-07 03:08:19.19	356.26	14.92	-38.1	-40.6	12.5	8.35e-05	0	55	0	141557760	46	5188
2026-01-07 03:08:20.20	356.13	15.01	-38.6	-41.5	11.3	1.24e-03	0	55	0	146800640	47	5461
2026-01-07 03:08:21.21	355.99	15.09	-39.4	-42.8	9.8	7.34e-03	0	55	0	152043520	49	5635
2026-01-07 03:08:22.22	355.86	15.17	-39.7	-43.9	8.5	4.48e-02	0	55	0	158334976	50	6016
2026-01-07 03:08:23.23	355.72	15.26	-40.2	-45.2	6.9	1.33e-01	0	55	0	163577856	50	7021
2026-01-07 03:08:24.24	355.59	15.34	-40.4	-46.4	5.7	3.24e-01	0	55	0	169869312	51	7588
2026-01-07 03:08:25.26	355.45	15.43	-40.5	-47.7	4.8	7.65e-01	0	55	0	170917888	51	8788
2026-01-07 03:08:26.26	355.31	15.51	-40.5	-48.7	4.3	8.26e-01	0	55	0	170917888	51	9886
2026-01-07 03:08:27.27	355.17	15.60	-40.5	-49.9	3.8	8.42e-01	0	55	104	170917888	51	11390
2026-01-07 03:08:28.28	355.03	15.68	-40.5	-50.8	3.8	8.46e-01	0	55	104	170917888	51	12522
2026-01-07 03:08:29.29	354.89	15.77	-40.5	-51.3	3.8	8.45e-01	0	55	104	170917888	51	13324
2026-01-07 03:08:30.31	354.75	15.85	-40.5	-51.5	3.8	8.46e-01	0	55	104	170917888	51	13703
2026-01-07 03:08:31.32	354.61	15.94	-40.4	-51.9	3.8	8.46e-01	0	55	104	170917888	51	14242
2026-01-07 03:08:32.33	354.47	16.02	-40.5	-52.0	3.8	8.46e-01	0	55	104	170917888	51	14533
2026-01-07 03:08:33.34	354.32	16.11	-40.4	-51.9	3.8	8.48e-01	0	55	104	170917888	51	14289
2026-01-07 03:08:34.35	354.18	16.19	-40.3	-51.9	3.8	8.46e-01	0	55	104	170917888	51	14360
2026-01-07 03:08:35.36	354.03	16.28	-40.3	-52.0	3.8	8.47e-01	0	55	104	170917888	51	14453
2026-01-07 03:08:36.37	353.89	16.37	-40.4	-52.0	3.8	8.47e-01	0	55	104	170917888	51	14474
2026-01-07 03:08:37.37	353.74	16.45	-40.1	-52.0	3.8	8.46e-01	0	55	104	170917888	51	14460
2026-01-07 03:08:38.39	353.59	16.54	-40.4	-52.0	3.8	8.46e-01	0	55	104	170917888	51	14423
2026-01-07 03:08:39.39	353.45	16.62	-40.2	-52.0	3.8	8.46e-01	0	55	104	170917888	51	14427
2026-01-07 03:08:40.40	353.30	16.71	-39.8	-52.1	3.8	8.46e-01	0	55	104	170917888	51	14611
2026-01-07 03:08:41.41	353.15	16.80	-40.1	-52.0	3.8	8.46e-01	0	55	104	170917888	51	14517
2026-01-07 03:08:42.42	352.99	16.88	-39.7	-52.3	3.8	8.46e-01	0	55	104	170917888	51	14897
2026-01-07 03:08:43.43	352.84	16.97	-40.1	-52.3	3.8	8.46e-01	0	55	104	170917888	51	14896
2026-01-07 03:08:44.44	352.69	17.06	-39.9	-52.2	3.8	8.47e-01	0	55	104	170917888	51	14717
2026-01-07 03:08:45.45	352.54	17.14	-40.4	-52.3	3.8	8.46e-01	0	55	104	170917888	51	15022
2026-01-07 03:08:46.46	352.38	17.23	-40.0	-52.2	3.8	8.46e-01	0	55	104	170917888	51	14747
2026-01-07 03:08:47.47	352.23	17.32	-40.5	-52.3	3.8	8.47e-01	0	55	104	170917888	51	14991
2026-01-07 03:08:48.48	352.07	17.40	-40.4	-52.3	3.8	8.46e-01	0	55	104	170917888	51	14903
2026-01-07 03:08:49.49	351.91	17.49	-40.5	-52.2	3.8	8.46e-01	0	55	104	170917888	51	14846
2026-01-07 03:08:50.50	351.75	17.58	-39.9	-52.3	3.8	8.47e-01	0	55	104	170917888	51	14912
2026-01-07 03:08:51.50	351.59	17.67	-40.3	-52.2	3.8	8.47e-01	0	55	104	170917888	51	14842
2026-01-07 03:08:52.52	351.43	17.75	-40.3	-52.2	3.8	8.46e-01	0	55	104	170917888	51	14820
2026-01-07 03:08:53.53	351.27	17.84	-40.3	-52.3	3.8	8.46e-01	0	55	104	170917888	51	14887
2026-01-07 03:08:54.54	351.11	17.93	-40.4	-52.2	3.8	8.46e-01	0	55	104	170917888	51	14709
2026-01-07 03:08:55.55	350.95	18.02	-40.5	-52.3	3.8	8.47e-01	0	56	104	170917888	51	15016
2026-01-07 03:08:56.56	350.78	18.10	-40.6	-52.3	3.8	8.47e-01	0	55	104	170917888	51	14979
2026-01-07 03:08:57.57	350.62	18.19	-40.7	-52.4	3.8	8.46e-01	0	56	104	170917888	51	15159
2026-01-07 03:08:58.58	350.45	18.28	-40.5	-52.1	3.8	8.46e-01	0	56	104	170917888	52	13813
2026-01-07 03:08:59.59	350.28	18.37	-40.4	-52.0	3.8	8.45e-01	0	56	104	170917888	52	13658
2026-01-07 03:09:00.60	350.11	18.46	-40.4	-51.9	3.8	8.45e-01	0	56	104	170917888	52	13568
2026-01-07 03:09:01.61	349.95	18.54	-40.4	-52.0	3.8	8.45e-01	0	56	104	170917888	52	13611
2026-01-07 03:09:02.62	349.78	18.63	-40.4	-52.0	3.8	8.46e-01	0	55	104	170917888	52	13654
2026-01-07 03:09:03.63	349.60	18.72	-40.5	-52.0	3.8	8.46e-01	0	56	104	170917888	52	13697
2026-01-07 03:09:04.64	349.43	18.81	-40.5	-52.1	3.8	8.45e-01	0	55	104	170917888	52	13795
2026-01-07 03:09:05.65	349.26	18.90	-40.4	-52.0	3.8	8.47e-01	0	56	104	170917888	52	13709
2026-01-07 03:09:06.66	349.08	18.99	-40.4	-52.0	3.8	8.46e-01	0	56	104	170917888	52	13692
2026-01-07 03:09:07.67	348.91	19.07	-40.4	-52.2	3.8	8.45e-01	0	56	104	170917888	52	13886
2026-01-07 03:09:08.68	348.73	19.16	-40.5	-52.0	3.8	8.45e-01	0	56	104	170917888	52	13720
2026-01-07 03:09:09.70	348.55	19.25	-40.5	-52.2	3.8	8.46e-01	0	56	104	170917888	52	13913
2026-01-07 03:09:10.71	348.38	19.34	-40.6	-52.2	3.8	8.46e-01	0	56	104	170917888	52	13970
2026-01-07 03:09:11.72	348.20	19.43	-40.5	-52.1	3.8	8.46e-01	0	56	104	170917888	52	13857
2026-01-07 03:09:12.73	348.02	19.52	-40.5	-52.1	3.8	8.46e-01	0	56	104	170917888	52	13783
2026-01-07 03:09:13.73	347.84	19.60	-40.6	-52.2	3.8	8.45e-01	0	56	104	170917888	52	13886
2026-01-07 03:09:14.74	347.65	19.69	-40.3	-51.7	3.8	8.47e-01	0	56	104	170917888	52	13205
2026-01-07 03:09:15.75	347.47	19.78	-40.6	-52.2	3.8	8.46e-01	0	56	104	170917888	52	13985
2026-01-07 03:09:16.76	347.28	19.87	-40.4	-51.8	3.8	8.46e-01	0	56	104	170917888	52	13369
2026-01-07 03:09:17.77	347.10	19.96	-40.6	-52.2	3.8	8.45e-01	0	56	104	170917888	52	14010
2026-01-07 03:09:18.78	346.91	20.05	-40.5	-51.1	3.8	8.47e-01	0	56	104	170917888	52	12240
2026-01-07 03:09:19.79	346.72	20.14	-40.4	-51.4	3.8	8.44e-01	0	56	104	170917888	52	12689
2026-01-07 03:09:20.80	346.53	20.22	-40.5	-50.6	3.8	8.45e-01	0	56	104	170917888	52	11663
2026-01-07 03:09:21.81	346.34	20.31	-40.7	-50.7	3.8	8.46e-01	0	56	104	170917888	52	11689
2026-01-07 03:09:22.83	346.15	20.40	-41.0	-51.0	3.8	8.46e-01	0	56	104	170917888	52	12216
2026-01-07 03:09:23.83	345.96	20.49	-41.1	-50.0	3.9	8.43e-01	0	56	104	170917888	52	10784
2026-01-07 03:09:24.84	345.77	20.58	-41.1	-48.0	5.0	8.18e-01	0	56	0	170917888	52	8659
2026-01-07 03:09:25.85	345.57	20.67	-41.0	-46.6	6.2	3.96e-01	0	56	0	173015040	52	7295
2026-01-07 03:09:26.87	345.37	20.75	-41.0	-46.0	7.1	1.94e-01	0	56	0	178257920	52	6807
2026-01-07 03:09:27.88	345.18	20.84	-40.9	-45.4	7.8	1.17e-01	0	56	0	184549376	52	6375
2026-01-07 03:09:28.88	344.98	20.93	-40.6	-44.6	8.6	6.19e-02	0	56	0	189792256	52	5841
2026-01-07 03:09:29.89	344.78	21.02	-40.0	-43.5	9.8	1.89e-02	0	56	0	196083712	52	5148
2026-01-07 03:09:30.90	344.58	21.11	-39.3	-42.3	11.2	3.70e-03	0	56	0	201326592	50	4991
2026-01-07 03:09:31.91	344.38	21.19	-38.3	-40.7	12.9	1.96e-04	0	56	0	206569472	48	4664
2026-01-07 03:09:32.92	344.18	21.28	-37.1	-39.0	14.6	2.20e-06	0	56	0	212860928	46	4311
2026-01-07 03:09:33.93	343.97	21.37	-36.2	-37.9	15.7	0.00e+00	0	56	0	218103808	44	4264
2026-01-07 03:09:34.94	343.77	21.46	-35.3	-36.9	16.6	0.00e+00	0	56	0	224395264	42	4263
2026-01-07 03:09:35.95	343.56	21.55	-34.7	-36.1	17.4	0.00e+00	0	56	0	229638144	41	4119
2026-01-07 03:09:36.96	343.35	21.63	-34.1	-35.4	18.1	0.00e+00	0	56	0	235929600	40	4036
2026-01-07 03:09:37.98	343.14	21.72	-33.7	-35.0	18.6	0.00e+00	0	56	0	241172480	39	4054
2026-01-07 03:09:38.99	342.93	21.81	-33.5	-34.7	18.9	0.00e+00	0	56	0	247463936	38	4173
2026-01-07 03:09:39.99	342.72	21.90	-33.4	-34.7	19.0	0.00e+00	0	56	0	252706816	38	4171
2026-01-07 03:09:41.00	342.51	21.98	-33.6	-34.8	18.9	0.00e+00	0	56	0	257949696	38	4232
2026-01-07 03:09:42.01	342.30	22.07	-33.7	-34.9	18.9	0.00e+00	0	56	0	264241152	38	4267
2026-01-07 03:09:43.02	342.08	22.16	-33.8	-35.1	18.8	0.00e+00	0	56	0	269484032	38	4355
2026-01-07 03:09:44.03	341.86	22.24	-33.8	-35.0	19.0	0.00e+00	0	56	0	275775488	38	4331
2026-01-07 03:09:45.04	341.65	22.33	-33.8	-35.0	19.1	0.00e+00	0	56	0	281018368	38	4305
2026-01-07 03:09:46.05	341.43	22.42	-33.7	-34.9	19.3	0.00e+00	0	56	0	286261248	38	4268
2026-01-07 03:09:47.06	341.21	22.50	-33.8	-35.0	19.2	0.00e+00	0	56	0	292552704	38	4325
2026-01-07 03:09:48.07	340.99	22.59	-33.9	-35.1	19.2	0.00e+00	0	56	0	297795584	38	4391
2026-01-07 03:09:49.08	340.76	22.67	-34.0	-35.2	19.1	0.00e+00	0	56	0	304087040	38	4428
2026-01-07 03:09:50.09	340.54	22.76	-33.9	-35.2	19.3	0.00e+00	0	56	0	309329920	38	4395
2026-01-07 03:09:51.10	340.32	22.85	-33.9	-35.1	19.4	0.00e+00	0	56	0	314572800	38	4355
2026-01-07 03:09:52.11	340.09	22.93	-33.9	-35.1	19.5	0.00e+00	0	56	0	320864256	38	4382
2026-01-07 03:09:53.12	339.86	23.02	-33.9	-35.1	19.6	0.00e+00	0	56	0	326107136	38	4349
2026-01-07 03:09:54.13	339.63	23.10	-33.9	-35.1	19.6	0.00e+00	0	56	0	332398592	38	4347
2026-01-07 03:09:55.14	339.40	23.19	-33.7	-34.9	19.8	0.00e+00	0	56	0	337641472	38	4257
2026-01-07 03:09:56.15	339.17	23.27	-33.6	-34.7	20.0	0.00e+00	0	56	0	343932928	38	4188
2026-01-07 03:09:57.16	338.94	23.35	-33.5	-34.7	20.1	0.00e+00	0	56	0	349175808	38	4151
2026-01-07 03:09:58.17	338.71	23.44	-33.6	-34.7	20.0	0.00e+00	0	56	0	355467264	38	4183
2026-01-07 03:09:59.18	338.47	23.52	-33.6	-34.7	20.0	0.00e+00	0	56	0	360710144	38	4193
2026-01-07 03:10:00.19	338.24	23.61	-33.7	-34.8	20.0	0.00e+00	0	56	0	365953024	38	4228
2026-01-07 03:10:01.20	338.00	23.69	-33.7	-34.9	19.9	0.00e+00	0	56	0	372244480	38	4252
2026-01-07 03:10:02.21	337.76	23.77	-33.8	-34.9	19.9	0.00e+00	0	56	0	377487360	38	4284
2026-01-07 03:10:03.22	337.52	23.86	-33.8	-34.9	19.9	0.00e+00	0	56	0	383778816	38	4280
2026-01-07 03:10:04.23	337.28	23.94	-33.7	-34.8	20.0	0.00e+00	0	56	0	389021696	38	4228
2026-01-07 03:10:05.24	337.04	24.02	-33.6	-34.8	20.1	0.00e+00	0	56	0	394264576	38	4202
2026-01-07 03:10:06.24	336.79	24.10	-33.6	-34.8	20.1	0.00e+00	0	56	0	400556032	38	4208
2026-01-07 03:10:07.25	336.55	24.18	-33.6	-34.7	20.1	0.00e+00	0	56	0	405798912	38	4189
2026-01-07 03:10:08.26	336.30	24.26	-33.6	-34.7	20.1	0.00e+00	0	56	0	411041792	38	4188
2026-01-07 03:10:09.27	336.05	24.35	-33.6	-34.7	20.1	0.00e+00	0	56	0	417333248	38	4186
2026-01-07 03:10:10.28	335.81	24.43	-33.6	-34.8	20.1	0.00e+00	0	56	0	422576128	38	4199
2026-01-07 03:10:11.30	335.55	24.51	-33.7	-34.8	20.1	0.00e+00	0	56	0	428867584	38	4216
2026-01-07 03:10:12.31	335.30	24.59	-33.7	-34.8	20.1	0.00e+00	0	56	0	434110464	38	4222
2026-01-07 03:10:13.32	335.05	24.67	-33.7	-34.9	20.0	0.00e+00	0	56	0	440401920	38	4270
2026-01-07 03:10:14.33	334.79	24.75	-33.8	-35.0	19.9	0.00e+00	0	56	0	445644800	38	4303
2026-01-07 03:10:15.34	334.54	24.82	-33.9	-35.1	19.8	0.00e+00	0	56	0	451936256	38	4349
2026-01-07 03:10:16.35	334.28	24.90	-33.9	-35.0	19.9	0.00e+00	0	56	0	457179136	38	4332
2026-01-07 03:10:17.36	334.02	24.98	-33.9	-35.0	19.9	0.00e+00	0	56	0	462422016	38	4325
2026-01-07 03:10:18.37	333.76	25.06	-33.8	-35.0	19.9	0.00e+00	0	56	0	468713472	38	4306
2026-01-07 03:10:19.38	333.50	25.14	-33.9	-35.1	19.8	0.00e+00	0	56	0	473956352	38	4354
2026-01-07 03:10:20.39	333.24	25.21	-33.7	-34.9	20.1	0.00e+00	0	56	0	480247808	38	4256
2026-01-07 03:10:21.40	332.98	25.29	-33.6	-34.8	20.2	0.00e+00	0	56	0	485490688	38	4204
2026-01-07 03:10:22.40	332.71	25.36	-33.7	-34.9	20.1	0.00e+00	0	56	0	490733568	38	4248
2026-01-07 03:10:23.41	332.45	25.44	-33.8	-34.9	20.1	0.00e+00	0	56	0	497025024	38	4270
2026-01-07 03:10:24.42	332.18	25.51	-33.7	-34.8	20.1	0.00e+00	0	56	0	502267904	38	4242
2026-01-07 03:10:25.43	331.91	25.59	-33.6	-34.7	20.2	0.00e+00	0	56	0	508559360	38	4185
2026-01-07 03:10:26.44	331.64	25.66	-33.6	-34.7	20.3	0.00e+00	0	56	0	513802240	38	4166
2026-01-07 03:10:27.45	331.37	25.74	-33.5	-34.6	20.3	0.00e+00	0	56	0	519045120	38	4132
2026-01-07 03:10:28.46	331.10	25.81	-33.5	-34.6	20.4	0.00e+00	0	56	0	525336576	38	4116
2026-01-07 03:10:29.47	330.83	25.88	-33.5	-34.6	20.4	0.00e+00	0	56	0	530579456	38	4112
2026-01-07 03:10:30.48	330.55	25.95	-33.5	-34.6	20.4	0.00e+00	0	56	0	536870912	38	4105
2026-01-07 03:10:31.49	330.28	26.02	-33.4	-34.5	20.4	0.00e+00	0	56	0	542113792	38	4091
2026-01-07 03:10:32.50	330.00	26.10	-33.3	-34.4	20.5	0.00e+00	0	56	0	548405248	38	4048
2026-01-07 03:10:33.51	329.72	26.17	-33.3	-34.4	20.5	0.00e+00	0	56	0	553648128	38	4046
2026-01-07 03:10:34.52	329.44	26.24	-33.3	-34.4	20.5	0.00e+00	0	56	0	559939584	38	4045
2026-01-07 03:10:35.53	329.16	26.30	-33.4	-34.5	20.5	0.00e+00	0	56	0	565182464	38	4085
2026-01-07 03:10:36.54	328.88	26.37	-33.4	-34.5	20.5	0.00e+00	0	56	0	570425344	38	4094
2026-01-07 03:10:37.55	328.59	26.44	-33.4	-34.5	20.4	0.00e+00	0	56	0	576716800	38	4092
2026-01-07 03:10:38.56	328.31	26.51	-33.4	-34.6	20.4	0.00e+00	0	56	0	581959680	38	4103
2026-01-07 03:10:39.57	328.02	26.58	-33.4	-34.5	20.5	0.00e+00	0	56	0	588251136	38	4082
2026-01-07 03:10:40.58	327.73	26.64	-33.4	-34.5	20.5	0.00e+00	0	56	0	593494016	38	4085
2026-01-07 03:10:41.59	327.45	26.71	-33.4	-34.5	20.5	0.00e+00	0	56	0	598736896	38	4071
2026-01-07 03:10:42.60	327.16	26.77	-33.3	-34.4	20.6	0.00e+00	0	56	0	605028352	38	4035
2026-01-07 03:10:43.61	326.86	26.84	-33.3	-34.4	20.6	0.00e+00	0	56	0	610271232	38	4036
2026-01-07 03:10:44.62	326.57	26.90	-33.4	-34.5	20.5	0.00e+00	0	56	0	616562688	38	4060
2026-01-07 03:10:45.63	326.28	26.96	-33.5	-34.6	20.4	0.00e+00	0	56	0	621805568	38	4118
2026-01-07 03:10:46.64	325.99	27.02	-33.6	-34.7	20.3	0.00e+00	0	56	0	627048448	38	4184
2026-01-07 03:10:47.66	325.69	27.09	-33.6	-34.7	20.3	0.00e+00	0	56	0	633339904	38	4193
2026-01-07 03:10:48.67	325.39	27.15	-33.5	-34.6	20.4	0.00e+00	0	56	0	638582784	38	4126
2026-01-07 03:10:49.68	325.09	27.21	-33.3	-34.4	20.6	0.00e+00	0	57	0	644874240	38	4050
2026-01-07 03:10:50.69	324.79	27.27	-33.3	-34.4	20.6	0.00e+00	0	57	0	650117120	38	4014
2026-01-07 03:10:51.70	324.49	27.33	-33.3	-34.4	20.6	0.00e+00	0	56	0	656408576	38	4042
2026-01-07 03:10:52.71	324.19	27.38	-33.4	-34.5	20.5	0.00e+00	0	56	0	661651456	38	4064
2026-01-07 03:10:53.72	323.89	27.44	-33.3	-34.4	20.6	0.00e+00	0	56	0	667942912	38	4049
2026-01-07 03:10:54.73	323.59	27.50	-33.3	-34.4	20.6	0.00e+00	0	57	0	673185792	38	4035
2026-01-07 03:10:55.74	323.28	27.55	-33.3	-34.4	20.6	0.00e+00	0	56	0	678428672	38	4024
2026-01-07 03:10:56.75	322.98	27.61	-33.3	-34.4	20.6	0.00e+00	0	56	0	684720128	38	4042
2026-01-07 03:10:57.76	322.67	27.66	-33.3	-34.4	20.7	0.00e+00	0	56	0	689963008	38	4007
2026-01-07 03:10:58.77	322.36	27.71	-33.1	-34.2	20.8	0.00e+00	0	56	0	696254464	38	3940
2026-01-07 03:10:59.78	322.05	27.77	-33.0	-34.1	20.9	0.00e+00	0	56	0	701497344	38	3887
2026-01-07 03:11:00.78	321.75	27.82	-33.1	-34.1	20.9	0.00e+00	0	56	0	706740224	38	3906
2026-01-07 03:11:01.79	321.44	27.87	-33.1	-34.2	20.8	0.00e+00	0	56	0	713031680	38	3924
2026-01-07 03:11:02.80	321.12	27.92	-33.1	-34.2	20.8	0.00e+00	0	57	0	718274560	38	3939
2026-01-07 03:11:03.81	320.81	27.97	-33.1	-34.2	20.8	0.00e+00	0	56	0	723517440	38	3936
2026-01-07 03:11:04.82	320.50	28.01	-33.1	-34.1	20.9	0.00e+00	0	56	0	729808896	38	3909
2026-01-07 03:11:05.83	320.18	28.06	-33.0	-34.1	20.9	0.00e+00	0	57	0	735051776	38	3872
2026-01-07 03:11:06.84	319.87	28.11	-33.0	-34.1	20.9	0.00e+00	0	56	0	741343232	37	4099
2026-01-07 03:11:07.85	319.55	28.15	-33.0	-34.1	20.9	0.00e+00	0	56	0	746586112	37	4117
2026-01-07 03:11:08.86	319.23	28.20	-33.0	-34.1	20.9	0.00e+00	0	56	0	752877568	37	4130
2026-01-07 03:11:09.87	318.92	28.24	-33.0	-34.1	20.9	0.00e+00	0	57	0	758120448	37	4126
2026-01-07 03:11:10.88	318.60	28.28	-33.0	-34.1	20.9	0.00e+00	0	57	0	764411904	37	4123
2026-01-07 03:11:11.89	318.28	28.33	-33.0	-34.1	20.9	0.00e+00	0	56	0	769654784	37	4135
2026-01-07 03:11:12.90	317.96	28.37	-33.0	-34.1	20.9	0.00e+00	0	56	0	774897664	37	4123
2026-01-07 03:11:13.91	317.63	28.41	-33.0	-34.1	20.9	0.00e+00	0	56	0	781189120	37	4103
2026-01-07 03:11:14.92	317.31	28.45	-32.9	-33.9	21.1	0.00e+00	0	56	0	786432000	37	4039
2026-01-07 03:11:15.93	316.99	28.48	-32.8	-33.8	21.2	0.00e+00	0	56	0	792723456	37	3993
2026-01-07 03:11:16.94	316.66	28.52	-32.8	-33.9	21.1	0.00e+00	0	56	0	797966336	37	4005
2026-01-07 03:11:17.95	316.34	28.56	-32.8	-33.9	21.1	0.00e+00	0	56	0	803209216	37	4032
2026-01-07 03:11:18.96	316.01	28.59	-32.9	-34.0	21.0	0.00e+00	0	56	0	809500672	37	4052
2026-01-07 03:11:19.97	315.69	28.63	-32.9	-33.9	21.0	0.00e+00	0	57	0	814743552	37	4050
2026-01-07 03:11:20.98	315.36	28.66	-32.8	-33.9	21.1	0.00e+00	0	57	0	821035008	37	4025
2026-01-07 03:11:21.99	315.03	28.69	-32.7	-33.8	21.2	0.00e+00	0	56	0	826277888	37	3982
2026-01-07 03:11:23.00	314.70	28.72	-32.7	-33.8	21.2	0.00e+00	0	56	0	831520768	37	3962
2026-01-07 03:11:24.01	314.38	28.75	-32.7	-33.8	21.2	0.00e+00	0	56	0	837812224	37	3979
2026-01-07 03:11:25.02	314.05	28.78	-32.8	-33.9	21.1	0.00e+00	0	56	0	843055104	37	4025
2026-01-07 03:11:26.03	313.72	28.81	-32.8	-33.9	21.1	0.00e+00	0	56	0	849346560	37	4018
2026-01-07 03:11:27.04	313.39	28.84	-32.7	-33.8	21.2	0.00e+00	0	56	0	854589440	37	3963
2026-01-07 03:11:28.05	313.05	28.86	-32.6	-33.7	21.3	0.00e+00	0	57	0	860880896	37	3926
2026-01-07 03:11:29.06	312.72	28.89	-32.7	-33.8	21.2	0.00e+00	0	57	0	866123776	37	3979
2026-01-07 03:11:30.07	312.39	28.91	-32.8	-33.9	21.1	0.00e+00	0	56	0	872415232	37	4031
2026-01-07 03:11:31.08	312.06	28.93	-32.8	-33.9	21.1	0.00e+00	0	57	0	877658112	37	4027
2026-01-07 03:11:32.09	311.72	28.95	-32.7	-33.8	21.2	0.00e+00	0	56	0	882900992	37	3980
2026-01-07 03:11:33.10	311.39	28.98	-32.6	-33.7	21.3	0.00e+00	0	56	0	889192448	37	3934
2026-01-07 03:11:34.11	311.06	29.00	-32.6	-33.6	21.3	0.00e+00	0	56	0	894435328	37	3904
2026-01-07 03:11:35.12	310.72	29.01	-32.6	-33.6	21.4	0.00e+00	0	57	0	900726784	37	3888
2026-01-07 03:11:36.14	310.38	29.03	-32.6	-33.6	21.4	0.00e+00	0	56	0	905969664	37	3901
2026-01-07 03:11:37.15	310.05	29.05	-32.7	-33.8	21.2	0.00e+00	0	56	0	911212544	37	3965
2026-01-07 03:11:38.16	309.71	29.06	-32.8	-33.8	21.1	0.00e+00	0	56	0	917504000	37	4001
2026-01-07 03:11:39.17	309.38	29.08	-32.7	-33.8	21.2	0.00e+00	0	56	0	922746880	37	3962
2026-01-07 03:11:40.17	309.04	29.09	-32.5	-33.6	21.4	0.00e+00	0	56	0	929038336	37	3890
2026-01-07 03:11:41.18	308.71	29.10	-32.4	-33.4	21.5	0.00e+00	0	56	0	934281216	36	4036
2026-01-07 03:11:42.19	308.37	29.11	-32.4	-33.4	21.6	0.00e+00	0	56	0	939524096	36	4028
2026-01-07 03:11:43.20	308.03	29.12	-32.4	-33.4	21.5	0.00e+00	0	57	0	945815552	36	4047
2026-01-07 03:11:44.21	307.70	29.13	-32.5	-33.5	21.4	0.00e+00	0	56	0	951058432	36	4092
2026-01-07 03:11:45.22	307.36	29.14	-32.6	-33.6	21.3	0.00e+00	0	56	0	957349888	36	4144
2026-01-07 03:11:46.23	307.02	29.15	-32.7	-33.8	21.2	0.00e+00	0	56	0	962592768	36	4202
2026-01-07 03:11:47.24	306.68	29.15	-32.7	-33.8	21.2	0.00e+00	0	57	0	968884224	36	4213
2026-01-07 03:11:48.25	306.35	29.15	-32.7	-33.7	21.2	0.00e+00	0	57	0	974127104	36	4188
2026-01-07 03:11:49.26	306.01	29.16	-32.6	-33.7	21.3	0.00e+00	0	56	0	979369984	36	4153
2026-01-07 03:11:50.27	305.67	29.16	-32.6	-33.6	21.4	0.00e+00	0	56	0	985661440	36	4128
2026-01-07 03:11:51.28	305.33	29.16	-32.6	-33.7	21.3	0.00e+00	0	56	0	990904320	36	4166
2026-01-07 03:11:52.29	305.00	29.16	-32.7	-33.7	21.3	0.00e+00	0	57	0	997195776	36	4187
2026-01-07 03:11:53.30	304.66	29.16	-32.7	-33.7	21.3	0.00e+00	0	57	0	1002438656	36	4183
2026-01-07 03:11:54.31	304.32	29.16	-32.5	-33.5	21.4	0.00e+00	0	56	0	1007681536	36	4093
2026-01-07 03:11:55.32	303.98	29.15	-32.3	-33.3	21.6	0.00e+00	0	57	0	1013972992	36	3993
2026-01-07 03:11:56.33	303.64	29.15	-32.3	-33.3	21.6	0.00e+00	0	57	0	1019215872	36	3999
2026-01-07 03:11:57.34	303.31	29.14	-32.4	-33.4	21.5	0.00e+00	0	56	0	1025507328	36	4042
2026-01-07 03:11:58.35	302.97	29.14	-32.3	-33.4	21.6	0.00e+00	0	57	0	1030750208	36	4009
2026-01-07 03:11:59.36	302.63	29.13	-32.3	-33.4	21.6	0.00e+00	0	56	0	1035993088	36	4013
2026-01-07 03:12:00.35	302.30	29.12	-32.4	-33.4	21.5	0.00e+00	0	57	0	1042284544	36	4037
2026-01-07 03:12:01.36	301.96	29.11	-32.5	-33.5	21.4	0.00e+00	0	56	0	1047527424	36	4090
2026-01-07 03:12:02.36	301.63	29.10	-32.5	-33.5	21.4	0.00e+00	0	57	0	1053818880	36	4097
2026-01-07 03:12:03.37	301.29	29.09	-32.5	-33.6	21.4	0.00e+00	0	57	0	1059061760	36	4107
2026-01-07 03:12:04.38	300.96	29.07	-32.5	-33.6	21.4	0.00e+00	0	56	0	1065353216	36	4105
2026-01-07 03:12:05.40	300.62	29.06	-32.5	-33.6	21.4	0.00e+00	0	57	0	1070596096	36	4119
2026-01-07 03:12:06.41	300.28	29.04	-32.5	-33.6	21.4	0.00e+00	0	57	0	1075838976	36	4113
2026-01-07 03:12:07.42	299.95	29.02	-32.5	-33.6	21.4	0.00e+00	0	57	0	1082130432	36	4100
2026-01-07 03:12:08.43	299.61	29.01	-32.5	-33.6	21.4	0.00e+00	0	57	0	1087373312	36	4105
2026-01-07 03:12:09.44	299.28	28.99	-32.5	-33.6	21.4	0.00e+00	0	57	0	1093664768	36	4110
2026-01-07 03:12:10.45	298.94	28.97	-32.6	-33.6	21.3	0.00e+00	0	57	0	1098907648	36	4128
2026-01-07 03:12:11.46	298.61	28.95	-32.6	-33.6	21.3	0.00e+00	0	57	0	1104150528	36	4127
2026-01-07 03:12:12.47	298.28	28.93	-32.5	-33.6	21.4	0.00e+00	0	57	0	1110441984	36	4111
2026-01-07 03:12:13.48	297.94	28.90	-32.5	-33.6	21.4	0.00e+00	0	57	0	1115684864	36	4106
2026-01-07 03:12:14.49	297.61	28.88	-32.5	-33.6	21.4	0.00e+00	0	57	0	1121976320	36	4109
2026-01-07 03:12:15.50	297.28	28.85	-32.6	-33.6	21.4	0.00e+00	0	57	0	1127219200	36	4130
2026-01-07 03:12:16.52	296.94	28.83	-32.6	-33.7	21.3	0.00e+00	0	57	0	1133510656	36	4165
2026-01-07 03:12:17.53	296.61	28.80	-32.7	-33.8	21.2	0.00e+00	0	57	0	1138753536	36	4210
2026-01-07 03:12:18.54	296.28	28.77	-32.8	-33.8	21.2	0.00e+00	0	56	0	1143996416	36	4228
2026-01-07 03:12:19.55	295.95	28.74	-32.8	-33.8	21.2	0.00e+00	0	57	0	1150287872	36	4235
2026-01-07 03:12:20.56	295.62	28.71	-32.6	-33.7	21.3	0.00e+00	0	57	0	1155530752	36	4168
2026-01-07 03:12:21.57	295.30	28.68	-32.5	-33.6	21.4	0.00e+00	0	57	0	1161822208	36	4111
2026-01-07 03:12:22.58	294.97	28.65	-32.4	-33.4	21.5	0.00e+00	0	57	0	1167065088	36	4045
2026-01-07 03:12:23.59	294.64	28.61	-32.4	-33.4	21.6	0.00e+00	0	57	0	1173356544	36	4020
2026-01-07 03:12:24.60	294.31	28.58	-32.4	-33.4	21.6	0.00e+00	0	57	0	1178599424	36	4025
2026-01-07 03:12:25.61	293.99	28.54	-32.4	-33.4	21.6	0.00e+00	0	57	0	1183842304	36	4039
2026-01-07 03:12:26.62	293.66	28.51	-32.4	-33.5	21.5	0.00e+00	0	57	0	1190133760	36	4052
2026-01-07 03:12:27.63	293.34	28.47	-32.5	-33.5	21.4	0.00e+00	0	57	0	1195376640	36	4078
2026-01-07 03:12:28.64	293.02	28.43	-32.5	-33.6	21.4	0.00e+00	0	57	0	1201668096	36	4100
2026-01-07 03:12:29.65	292.69	28.39	-32.5	-33.6	21.4	0.00e+00	0	57	0	1206910976	36	4107
2026-01-07 03:12:30.65	292.37	28.35	-32.5	-33.6	21.4	0.00e+00	0	57	0	1212153856	36	4110
2026-01-07 03:12:31.66	292.05	28.31	-32.6	-33.6	21.4	0.00e+00	0	57	0	1218445312	36	4131
2026-01-07 03:12:32.67	291.73	28.27	-32.7	-33.7	21.2	0.00e+00	0	57	0	1223688192	36	4181
2026-01-07 03:12:33.68	291.41	28.22	-32.8	-33.8	21.2	0.00e+00	0	57	0	1229979648	36	4228
2026-01-07 03:12:34.70	291.09	28.18	-32.7	-33.8	21.2	0.00e+00	0	57	0	1235222528	36	4218
2026-01-07 03:12:35.70	290.78	28.14	-32.7	-33.8	21.2	0.00e+00	0	57	0	1240465408	36	4213
2026-01-07 03:12:36.71	290.46	28.09	-32.8	-33.8	21.1	0.00e+00	0	57	0	1246756864	36	4234
2026-01-07 03:12:37.73	290.14	28.04	-32.8	-33.9	21.1	0.00e+00	0	57	0	1251999744	36	4270
2026-01-07 03:12:38.74	289.83	27.99	-32.8	-33.9	21.1	0.00e+00	0	57	0	1258291200	36	4265
2026-01-07 03:12:39.75	289.51	27.95	-32.7	-33.7	21.2	0.00e+00	0	57	0	1263534080	36	4170
2026-01-07 03:12:40.76	289.20	27.90	-32.6	-33.7	21.3	0.00e+00	0	57	0	1269825536	36	4152
2026-01-07 03:12:41.77	288.89	27.85	-32.5	-33.5	21.4	0.00e+00	0	57	0	1275068416	36	4098
2026-01-07 03:12:42.78	288.58	27.80	-32.5	-33.5	21.4	0.00e+00	0	57	0	1281359872	36	4097
2026-01-07 03:12:43.79	288.27	27.74	-32.6	-33.6	21.3	0.00e+00	0	57	0	1286602752	36	4127
2026-01-07 03:12:44.80	287.96	27.69	-32.6	-33.6	21.3	0.00e+00	0	57	0	1291845632	36	4137
2026-01-07 03:12:45.81	287.65	27.64	-32.7	-33.7	21.3	0.00e+00	0	57	0	1298137088	36	4175
2026-01-07 03:12:46.82	287.34	27.58	-32.7	-33.8	21.2	0.00e+00	0	57	0	1303379968	36	4195
2026-01-07 03:12:47.83	287.04	27.53	-32.7	-33.7	21.2	0.00e+00	0	57	0	1309671424	36	4192
2026-01-07 03:12:48.84	286.73	27.47	-32.7	-33.8	21.2	0.00e+00	0	57	0	1314914304	36	4199
2026-01-07 03:12:49.85	286.43	27.42	-32.8	-33.8	21.1	0.00e+00	0	57	0	1320157184	36	4240
2026-01-07 03:12:50.86	286.13	27.36	-32.9	-33.9	21.0	0.00e+00	0	57	0	1326448640	36	4289
2026-01-07 03:12:51.87	285.82	27.30	-32.9	-34.0	21.0	0.00e+00	0	57	0	1331691520	36	4303
2026-01-07 03:12:52.88	285.52	27.24	-32.8	-33.9	21.0	0.00e+00	0	57	0	1337982976	36	4274
2026-01-07 03:12:53.89	285.22	27.18	-32.8	-33.8	21.1	0.00e+00	0	57	0	1343225856	36	4240
2026-01-07 03:12:54.90	284.93	27.12	-32.8	-33.8	21.1	0.00e+00	0	57	0	1348468736	36	4228
2026-01-07 03:12:55.92	284.63	27.06	-32.7	-33.8	21.2	0.00e+00	0	57	0	1354760192	36	4207
2026-01-07 03:12:56.93	284.33	27.00	-32.8	-33.8	21.1	0.00e+00	0	57	0	1360003072	36	4241
2026-01-07 03:12:57.94	284.03	26.93	-32.8	-33.9	21.1	0.00e+00	0	57	0	1366294528	36	4253
2026-01-07 03:12:58.95	283.74	26.87	-32.8	-33.8	21.1	0.00e+00	0	57	0	1371537408	36	4240
2026-01-07 03:12:59.95	283.45	26.81	-32.8	-33.8	21.1	0.00e+00	0	57	0	1377828864	36	4226
2026-01-07 03:13:00.96	283.16	26.74	-32.7	-33.8	21.2	0.00e+00	0	57	0	1383071744	36	4197
2026-01-07 03:13:01.97	282.87	26.68	-32.7	-33.7	21.2	0.00e+00	0	57	0	1389363200	36	4188
2026-01-07 03:13:02.98	282.58	26.61	-32.7	-33.8	21.2	0.00e+00	0	57	0	1394606080	36	4210
2026-01-07 03:13:03.99	282.29	26.54	-32.8	-33.8	21.1	0.00e+00	0	57	0	1399848960	36	4227
2026-01-07 03:13:05.00	282.01	26.48	-32.8	-33.9	21.0	0.00e+00	0	57	0	1406140416	36	4277
2026-01-07 03:13:06.01	281.72	26.41	-32.8	-33.8	21.1	0.00e+00	0	57	0	1411383296	36	4230
2026-01-07 03:13:07.02	281.44	26.34	-32.7	-33.8	21.2	0.00e+00	0	57	0	1417674752	36	4205
2026-01-07 03:13:08.03	281.15	26.27	-32.7	-33.7	21.2	0.00e+00	0	57	0	1422917632	36	4192
2026-01-07 03:13:09.04	280.87	26.20	-32.7	-33.7	21.2	0.00e+00	0	57	0	1428160512	36	4185
2026-01-07 03:13:10.05	280.59	26.13	-32.7	-33.8	21.1	0.00e+00	0	57	0	1434451968	36	4213
2026-01-07 03:13:11.06	280.31	26.06	-32.7	-33.8	21.2	0.00e+00	0	57	0	1439694848	36	4204
2026-01-07 03:13:12.07	280.04	25.99	-32.8	-33.8	21.1	0.00e+00	0	57	0	1444937728	36	4235
2026-01-07 03:13:13.08	279.76	25.92	-32.9	-34.0	21.0	0.00e+00	0	57	0	1451229184	36	4296
2026-01-07 03:13:14.08	279.49	25.85	-33.0	-34.1	20.9	0.00e+00	0	57	0	1456472064	36	4350
2026-01-07 03:13:15.09	279.21	25.77	-33.0	-34.1	20.9	0.00e+00	0	57	0	1462763520	36	4354
2026-01-07 03:13:16.10	278.94	25.70	-33.1	-34.1	20.8	0.00e+00	0	57	0	1468006400	36	4387
2026-01-07 03:13:17.11	278.67	25.63	-33.1	-34.1	20.8	0.00e+00	0	57	0	1474297856	36	4389
2026-01-07 03:13:18.12	278.40	25.55	-33.1	-34.2	20.8	0.00e+00	0	57	0	1479540736	36	4406
2026-01-07 03:13:19.13	278.13	25.48	-33.1	-34.2	20.7	0.00e+00	0	57	0	1485832192	36	4411
2026-01-07 03:13:20.15	277.86	25.40	-33.1	-34.2	20.7	0.00e+00	0	57	0	1491075072	36	4421
2026-01-07 03:13:21.16	277.59	25.33	-33.1	-34.2	20.7	0.00e+00	0	57	0	1496317952	36	4418
2026-01-07 03:13:22.17	277.33	25.25	-33.0	-34.1	20.8	0.00e+00	0	57	0	1502609408	36	4369
2026-01-07 03:13:23.18	277.06	25.17	-33.0	-34.1	20.8	0.00e+00	0	57	0	1507852288	36	4360
2026-01-07 03:13:24.19	276.80	25.09	-33.1	-34.1	20.8	0.00e+00	0	57	0	1514143744	36	4385
2026-01-07 03:13:25.20	276.54	25.02	-33.1	-34.2	20.7	0.00e+00	0	57	0	1519386624	36	4427
2026-01-07 03:13:26.21	276.28	24.94	-33.2	-34.3	20.7	0.00e+00	0	57	0	1524629504	36	4446
2026-01-07 03:13:27.22	276.02	24.86	-33.2	-34.3	20.6	0.00e+00	0	57	0	1530920960	36	4447
2026-01-07 03:13:28.23	275.76	24.78	-33.1	-34.2	20.7	0.00e+00	0	57	0	1536163840	36	4416
2026-01-07 03:13:29.24	275.51	24.70	-33.1	-34.3	20.7	0.00e+00	0	57	0	1542455296	36	4444
2026-01-07 03:13:30.25	275.25	24.62	-33.2	-34.3	20.6	0.00e+00	0	57	0	1547698176	36	4455
2026-01-07 03:13:31.26	275.00	24.54	-33.3	-34.4	20.6	0.00e+00	0	57	0	1552941056	37	4245
2026-01-07 03:13:32.27	274.75	24.46	-33.2	-34.3	20.6	0.00e+00	0	57	0	1559232512	37	4226
2026-01-07 03:13:33.28	274.49	24.38	-33.1	-34.2	20.7	0.00e+00	0	57	0	1564475392	37	4181
2026-01-07 03:13:34.29	274.24	24.30	-33.1	-34.2	20.7	0.00e+00	0	57	0	1570766848	37	4151
2026-01-07 03:13:35.30	274.00	24.22	-33.0	-34.1	20.8	0.00e+00	0	57	0	1576009728	37	4134
2026-01-07 03:13:36.31	273.75	24.14	-33.0	-34.1	20.8	0.00e+00	0	57	0	1582301184	37	4104
2026-01-07 03:13:37.32	273.50	24.06	-32.9	-34.0	20.9	0.00e+00	0	57	0	1587544064	37	4069
2026-01-07 03:13:38.34	273.26	23.97	-32.8	-33.9	21.0	0.00e+00	0	57	0	1593835520	37	4013
2026-01-07 03:13:39.34	273.02	23.89	-32.8	-33.9	21.0	0.00e+00	0	57	0	1599078400	37	4022
2026-01-07 03:13:40.35	272.77	23.81	-32.9	-34.0	20.9	0.00e+00	0	57	0	1604321280	37	4083
2026-01-07 03:13:41.36	272.53	23.72	-33.1	-34.2	20.7	0.00e+00	0	57	0	1610612736	37	4183
2026-01-07 03:13:42.37	272.29	23.64	-33.2	-34.3	20.6	0.00e+00	0	57	0	1615855616	37	4231
2026-01-07 03:13:43.38	272.06	23.56	-33.2	-34.3	20.5	0.00e+00	0	57	0	1622147072	37	4231
2026-01-07 03:13:44.40	271.82	23.47	-33.1	-34.2	20.6	0.00e+00	0	57	0	1627389952	37	4185
2026-01-07 03:13:45.41	271.58	23.39	-33.1	-34.2	20.7	0.00e+00	0	57	0	1632632832	37	4149
2026-01-07 03:13:46.42	271.35	23.30	-33.0	-34.1	20.7	0.00e+00	0	57	0	1638924288	37	4129
2026-01-07 03:13:47.42	271.12	23.22	-33.1	-34.2	20.6	0.00e+00	0	57	0	1644167168	37	4184
2026-01-07 03:13:48.43	270.88	23.13	-33.2	-34.3	20.5	0.00e+00	0	57	0	1650458624	37	4242
2026-01-07 03:13:49.44	270.65	23.05	-33.3	-34.4	20.4	0.00e+00	0	57	0	1655701504	37	4285
2026-01-07 03:13:50.45	270.42	22.96	-33.3	-34.4	20.4	0.00e+00	0	57	0	1660944384	37	4288
2026-01-07 03:13:51.46	270.20	22.88	-33.4	-34.5	20.4	0.00e+00	0	57	0	1667235840	37	4302
2026-01-07 03:13:52.47	269.97	22.79	-33.3	-34.5	20.4	0.00e+00	0	57	0	1672478720	37	4293
2026-01-07 03:13:53.48	269.74	22.71	-33.4	-34.5	20.3	0.00e+00	0	57	0	1678770176	37	4333
2026-01-07 03:13:54.49	269.52	22.62	-33.5	-34.6	20.3	0.00e+00	0	57	0	1684013056	37	4365
2026-01-07 03:13:55.50	269.30	22.53	-33.5	-34.6	20.3	0.00e+00	0	57	0	1690304512	37	4377
2026-01-07 03:13:56.51	269.08	22.45	-33.5	-34.6	20.2	0.00e+00	0	57	0	1695547392	37	4373
2026-01-07 03:13:57.52	268.86	22.36	-33.5	-34.6	20.3	0.00e+00	0	57	0	1701838848	37	4361
2026-01-07 03:13:58.53	268.64	22.27	-33.4	-34.5	20.3	0.00e+00	0	57	0	1707081728	37	4310
2026-01-07 03:13:59.54	268.42	22.19	-33.5	-34.6	20.2	0.00e+00	0	57	0	1712324608	37	4361
2026-01-07 03:14:00.54	268.20	22.10	-33.6	-34.7	20.2	0.00e+00	0	57	0	1718616064	37	4411
2026-01-07 03:14:01.55	267.99	22.01	-33.7	-34.9	20.0	0.00e+00	0	57	0	1723858944	37	4509
2026-01-07 03:14:02.56	267.77	21.93	-33.8	-35.0	19.9	0.00e+00	0	57	0	1729101824	38	4310
2026-01-07 03:14:03.57	267.56	21.84	-33.9	-35.1	19.8	0.00e+00	0	57	0	1735393280	38	4343
2026-01-07 03:14:04.58	267.35	21.75	-33.9	-35.0	19.8	0.00e+00	0	57	0	1740636160	38	4336
2026-01-07 03:14:05.59	267.14	21.66	-33.9	-35.1	19.8	0.00e+00	0	57	0	1746927616	38	4346
2026-01-07 03:14:06.60	266.93	21.57	-33.9	-35.1	19.8	0.00e+00	0	57	0	1752170496	38	4368
2026-01-07 03:14:07.62	266.72	21.49	-34.0	-35.2	19.7	0.00e+00	0	57	0	1757413376	38	4425
2026-01-07 03:14:08.63	266.51	21.40	-34.2	-35.3	19.5	0.00e+00	0	57	0	1763704832	38	4489
2026-01-07 03:14:09.64	266.30	21.31	-34.0	-35.2	19.7	0.00e+00	0	57	0	1768947712	38	4394
2026-01-07 03:14:10.65	266.10	21.22	-34.0	-35.2	19.7	0.00e+00	0	57	0	1775239168	38	4395
2026-01-07 03:14:11.66	265.90	21.13	-34.0	-35.2	19.7	0.00e+00	0	57	0	1780482048	38	4400
2026-01-07 03:14:12.66	265.70	21.05	-34.0	-35.2	19.7	0.00e+00	0	57	0	1786773504	38	4407
2026-01-07 03:14:13.67	265.49	20.96	-34.0	-35.2	19.7	0.00e+00	0	57	0	1792016384	38	4417
2026-01-07 03:14:14.68	265.29	20.87	-34.0	-35.2	19.7	0.00e+00	0	57	0	1798307840	38	4409
2026-01-07 03:14:15.69	265.10	20.78	-34.0	-35.1	19.7	0.00e+00	0	57	0	1803550720	38	4384
2026-01-07 03:14:16.70	264.90	20.69	-33.9	-35.0	19.8	0.00e+00	0	57	0	1808793600	38	4335
2026-01-07 03:14:17.71	264.70	20.60	-33.9	-35.0	19.9	0.00e+00	0	57	0	1815085056	38	4320
2026-01-07 03:14:18.72	264.51	20.51	-33.9	-35.1	19.7	0.00e+00	0	57	0	1820327936	38	4367
2026-01-07 03:14:19.73	264.31	20.42	-34.1	-35.2	19.6	0.00e+00	0	57	0	1826619392	38	4440
2026-01-07 03:14:20.74	264.12	20.34	-34.2	-35.4	19.4	0.00e+00	0	57	0	1831862272	39	4274
2026-01-07 03:14:21.75	263.93	20.25	-34.4	-35.6	19.3	0.00e+00	0	57	0	1837105152	39	4348
2026-01-07 03:14:22.76	263.74	20.16	-34.5	-35.7	19.1	0.00e+00	0	57	0	1843396608	39	4412
2026-01-07 03:14:23.77	263.55	20.07	-34.4	-35.6	19.2	0.00e+00	0	57	0	1848639488	39	4368
2026-01-07 03:14:24.78	263.36	19.98	-34.3	-35.5	19.4	0.00e+00	0	57	0	1854930944	39	4296
2026-01-07 03:14:25.79	263.17	19.89	-34.2	-35.4	19.5	0.00e+00	0	57	0	1860173824	39	4254
2026-01-07 03:14:26.80	262.98	19.80	-34.2	-35.4	19.4	0.00e+00	0	57	0	1865416704	39	4266
2026-01-07 03:14:27.81	262.80	19.71	-34.3	-35.6	19.3	0.00e+00	0	57	0	1871708160	39	4341
2026-01-07 03:14:28.82	262.61	19.62	-34.2	-35.3	19.5	0.00e+00	0	57	0	1876951040	39	4240
2026-01-07 03:14:29.83	262.43	19.54	-34.1	-35.3	19.5	0.00e+00	0	57	0	1883242496	39	4214
2026-01-07 03:14:30.84	262.25	19.45	-34.1	-35.3	19.6	0.00e+00	0	57	0	1888485376	39	4198
2026-01-07 03:14:31.85	262.07	19.36	-34.0	-35.1	19.7	0.00e+00	0	57	0	1894776832	39	4131
2026-01-07 03:14:32.86	261.89	19.27	-34.0	-35.2	19.6	0.00e+00	0	57	0	1900019712	39	4152
2026-01-07 03:14:33.87	261.71	19.18	-33.9	-35.0	19.8	0.00e+00	0	57	0	1906311168	39	4094
2026-01-07 03:14:34.88	261.53	19.09	-34.0	-35.2	19.6	0.00e+00	0	57	0	1911554048	39	4148
2026-01-07 03:14:35.89	261.35	19.00	-34.1	-35.3	19.5	0.00e+00	0	57	0	1916796928	39	4207
2026-01-07 03:14:36.90	261.18	18.91	-34.2	-35.4	19.4	0.00e+00	0	57	0	1923088384	39	4274
2026-01-07 03:14:37.91	261.00	18.83	-34.3	-35.5	19.3	0.00e+00	0	57	0	1928331264	39	4292
2026-01-07 03:14:38.92	260.83	18.74	-34.3	-35.5	19.3	0.00e+00	0	57	0	1934622720	39	4309
2026-01-07 03:14:39.94	260.65	18.65	-34.4	-35.7	19.2	0.00e+00	0	57	0	1939865600	39	4400
2026-01-07 03:14:40.95	260.48	18.56	-34.6	-35.8	19.0	0.00e+00	0	57	0	1945108480	39	4466
2026-01-07 03:14:41.96	260.31	18.47	-34.5	-35.8	19.1	0.00e+00	0	57	0	1951399936	39	4442
2026-01-07 03:14:42.97	260.14	18.38	-34.4	-35.6	19.2	0.00e+00	0	57	0	1956642816	39	4378
2026-01-07 03:14:43.98	259.97	18.29	-34.4	-35.5	19.3	0.00e+00	0	57	0	1962934272	39	4338
2026-01-07 03:14:44.99	259.80	18.21	-34.4	-35.7	19.1	0.00e+00	0	57	0	1968177152	39	4394
2026-01-07 03:14:46.00	259.64	18.12	-34.4	-35.6	19.2	0.00e+00	0	57	0	1973420032	39	4371
2026-01-07 03:14:47.01	259.47	18.03	-34.4	-35.7	19.1	0.00e+00	0	57	0	1979711488	39	4398
2026-01-07 03:14:48.02	259.31	17.94	-34.5	-35.7	19.1	0.00e+00	0	57	0	1984954368	39	4406
2026-01-07 03:14:49.03	259.14	17.85	-34.5	-35.8	19.0	0.00e+00	0	57	0	1991245824	39	4443
2026-01-07 03:14:50.04	258.98	17.76	-34.6	-35.8	19.0	0.00e+00	0	57	0	1996488704	39	4475
2026-01-07 03:14:51.05	258.82	17.68	-34.7	-36.0	18.8	0.00e+00	0	57	0	2002780160	39	4550
2026-01-07 03:14:52.06	258.66	17.59	-34.7	-35.9	18.8	0.00e+00	0	57	0	2008023040	40	4275
2026-01-07 03:14:53.07	258.50	17.50	-34.7	-36.0	18.7	0.00e+00	0	57	0	2014314496	40	4308
2026-01-07 03:14:54.08	258.34	17.41	-34.7	-36.0	18.7	0.00e+00	0	57	0	2019557376	40	4312
2026-01-07 03:14:55.09	258.18	17.33	-34.8	-36.0	18.7	0.00e+00	0	57	0	2024800256	40	4334
2026-01-07 03:14:56.10	258.02	17.24	-34.8	-36.1	18.6	0.00e+00	0	57	0	2031091712	40	4346
2026-01-07 03:14:57.12	257.86	17.15	-34.8	-36.0	18.6	0.00e+00	0	57	0	2036334592	40	4332
2026-01-07 03:14:58.13	257.71	17.06	-34.8	-36.0	18.6	0.00e+00	0	57	0	2042626048	40	4325
2026-01-07 03:14:59.14	257.55	16.98	-34.7	-36.0	18.7	0.00e+00	0	57	0	2047868928	40	4303
2026-01-07 03:15:00.15	257.40	16.89	-34.6	-35.9	18.8	0.00e+00	0	57	0	2053111808	40	4268
2026-01-07 03:15:01.16	257.25	16.80	-34.6	-35.9	18.8	0.00e+00	0	57	0	2059403264	40	4256
2026-01-07 03:15:02.17	257.09	16.71	-34.6	-35.9	18.8	0.00e+00	0	57	0	2064646144	40	4256
2026-01-07 03:15:03.18	256.94	16.63	-34.7	-36.0	18.7	0.00e+00	0	57	0	2070937600	40	4307
2026-01-07 03:15:04.19	256.79	16.54	-34.8	-36.1	18.6	0.00e+00	0	57	0	2076180480	40	4344
2026-01-07 03:15:05.20	256.64	16.45	-34.9	-36.2	18.4	0.00e+00	0	57	0	2081423360	40	4398
2026-01-07 03:15:06.21	256.50	16.37	-34.8	-36.1	18.6	0.00e+00	0	57	0	2087714816	40	4343
2026-01-07 03:15:07.22	256.35	16.28	-34.8	-36.1	18.6	0.00e+00	0	57	0	2092957696	40	4352
2026-01-07 03:15:08.23	256.20	16.20	-34.8	-36.1	18.5	0.00e+00	0	57	0	2099249152	40	4384
2026-01-07 03:15:09.24	256.06	16.11	-34.9	-36.2	18.4	0.00e+00	0	57	0	2104492032	40	4416
2026-01-07 03:15:10.25	255.91	16.02	-35.0	-36.3	18.3	0.00e+00	0	57	0	2110783488	40	4464
2026-01-07 03:15:11.26	255.77	15.94	-35.0	-36.3	18.3	0.00e+00	0	57	0	2116026368	40	4484
2026-01-07 03:15:12.27	255.62	15.85	-35.1	-36.4	18.2	0.00e+00	0	57	0	2122317824	40	4520
2026-01-07 03:15:13.28	255.48	15.77	-35.1	-36.4	18.2	0.00e+00	0	57	0	2127560704	40	4518
2026-01-07 03:15:14.29	255.34	15.68	-35.1	-36.4	18.2	0.00e+00	0	57	0	2132803584	40	4510
2026-01-07 03:15:15.30	255.20	15.59	-35.0	-36.3	18.2	0.00e+00	0	57	0	2139095040	40	4493
2026-01-07 03:15:16.31	255.06	15.51	-35.0	-36.3	18.3	0.00e+00	0	57	0	2144337920	40	4473
2026-01-07 03:15:17.32	254.92	15.42	-35.0	-36.4	18.3	0.00e+00	0	57	0	2150629376	40	4496
2026-01-07 03:15:18.33	254.78	15.34	-35.2	-36.5	18.1	0.00e+00	0	57	0	2155872256	40	4558
2026-01-07 03:15:19.34	254.64	15.25	-35.1	-36.5	18.1	0.00e+00	0	57	0	2161115136	41	4301
2026-01-07 03:15:20.35	254.51	15.17	-35.1	-36.4	18.1	0.00e+00	0	57	0	2167406592	41	4282
2026-01-07 03:15:21.36	254.37	15.08	-35.2	-36.5	18.1	0.00e+00	0	57	0	2172649472	41	4303
2026-01-07 03:15:22.37	254.23	15.00	-35.1	-36.4	18.1	0.00e+00	0	57	0	2178940928	41	4288
2026-01-07 03:15:23.38	254.10	14.92	-35.2	-36.5	18.1	0.00e+00	0	57	0	2184183808	41	4314
2026-01-07 03:15:24.39	253.97	14.83	-35.2	-36.6	18.0	0.00e+00	0	57	0	2189426688	41	4361
2026-01-07 03:15:25.40	253.83	14.75	-35.4	-36.8	17.8	0.00e+00	0	57	0	2195718144	41	4447
2026-01-07 03:15:26.41	253.70	14.66	-35.4	-36.7	17.8	0.00e+00	0	57	0	2200961024	41	4435
2026-01-07 03:15:27.42	253.57	14.58	-35.4	-36.7	17.8	0.00e+00	0	57	0	2207252480	41	4429
2026-01-07 03:15:28.42	253.44	14.50	-35.4	-36.8	17.8	0.00e+00	0	57	0	2212495360	41	4458
2026-01-07 03:15:29.43	253.31	14.41	-35.5	-36.9	17.7	0.00e+00	0	57	0	2218786816	41	4516
2026-01-07 03:15:30.44	253.18	14.33	-35.5	-36.9	17.6	0.00e+00	0	57	0	2224029696	41	4527
2026-01-07 03:15:31.45	253.05	14.25	-35.4	-36.8	17.7	0.00e+00	0	57	0	2229272576	41	4473
2026-01-07 03:15:32.46	252.93	14.16	-35.4	-36.8	17.7	0.00e+00	0	57	0	2235564032	41	4488
2026-01-07 03:15:33.47	252.80	14.08	-35.5	-36.9	17.7	0.00e+00	0	57	0	2240806912	41	4512
2026-01-07 03:15:34.48	252.67	14.00	-35.5	-36.9	17.7	0.00e+00	0	57	0	2247098368	41	4502
2026-01-07 03:15:35.50	252.55	13.91	-35.6	-37.0	17.6	0.00e+00	0	57	0	2252341248	41	4558
2026-01-07 03:15:36.51	252.42	13.83	-35.5	-36.8	17.7	0.00e+00	0	57	0	2257584128	41	4484
2026-01-07 03:15:37.52	252.30	13.75	-35.5	-36.9	17.7	0.00e+00	0	57	0	2263875584	41	4510
2026-01-07 03:15:38.53	252.17	13.67	-35.4	-36.7	17.8	0.00e+00	0	57	0	2269118464	41	4424
2026-01-07 03:15:39.54	252.05	13.58	-35.3	-36.7	17.8	0.00e+00	0	57	0	2275409920	41	4412
2026-01-07 03:15:40.55	251.93	13.50	-35.4	-36.8	17.7	0.00e+00	0	57	0	2280652800	41	4473
2026-01-07 03:15:41.56	251.81	13.42	-35.5	-36.9	17.7	0.00e+00	0	57	0	2285895680	41	4498
2026-01-07 03:15:42.57	251.69	13.34	-35.5	-36.9	17.6	0.00e+00	0	57	0	2292187136	41	4531
2026-01-07 03:15:43.58	251.57	13.26	-35.6	-37.0	17.5	0.00e+00	0	57	0	2297430016	41	4546
2026-01-07 03:15:44.58	251.45	13.18	-35.5	-36.9	17.6	0.00e+00	0	57	0	2303721472	41	4537
2026-01-07 03:15:45.59	251.33	13.10	-35.6	-37.0	17.5	0.00e+00	0	57	0	2308964352	41	4546
2026-01-07 03:15:46.60	251.21	13.01	-35.5	-36.9	17.6	0.00e+00	0	57	0	2315255808	41	4497
2026-01-07 03:15:47.61	251.09	12.93	-35.6	-36.9	17.5	0.00e+00	0	57	0	2320498688	41	4542
2026-01-07 03:15:48.62	250.98	12.85	-35.6	-37.0	17.5	0.00e+00	0	57	0	2326790144	41	4573
2026-01-07 03:15:49.63	250.86	12.77	-35.5	-36.9	17.6	0.00e+00	0	57	0	2332033024	41	4508
2026-01-07 03:15:50.64	250.75	12.69	-35.6	-37.0	17.5	0.00e+00	0	57	0	2337275904	41	4570
2026-01-07 03:15:51.65	250.63	12.61	-35.7	-37.1	17.4	0.00e+00	0	57	0	2343567360	41	4622
2026-01-07 03:15:52.66	250.52	12.53	-35.7	-37.1	17.4	0.00e+00	0	57	0	2348810240	41	4640
2026-01-07 03:15:53.67	250.40	12.45	-35.8	-37.2	17.3	0.00e+00	0	57	0	2355101696	42	4437
2026-01-07 03:15:54.68	250.29	12.37	-35.9	-37.4	17.1	0.00e+00	0	57	0	2360344576	42	4524
2026-01-07 03:15:55.69	250.18	12.29	-36.0	-37.5	17.0	0.00e+00	0	57	0	2365587456	42	4558
2026-01-07 03:15:56.70	250.07	12.21	-36.1	-37.5	16.9	0.00e+00	0	57	0	2371878912	42	4597
2026-01-07 03:15:57.71	249.95	12.13	-36.1	-37.6	16.9	0.00e+00	0	57	0	2377121792	42	4599
2026-01-07 03:15:58.72	249.84	12.05	-36.0	-37.4	17.0	0.00e+00	0	57	0	2383413248	42	4542
2026-01-07 03:15:59.73	249.73	11.97	-36.0	-37.5	17.0	0.00e+00	0	57	0	2388656128	42	4585
2026-01-07 03:16:00.74	249.63	11.89	-35.9	-37.4	17.1	0.00e+00	0	57	0	2393899008	42	4517
2026-01-07 03:16:01.75	249.52	11.82	-35.9	-37.4	17.1	0.00e+00	0	57	0	2400190464	42	4514
2026-01-07 03:16:02.76	249.41	11.74	-36.0	-37.5	17.0	0.00e+00	0	57	0	2405433344	42	4561
2026-01-07 03:16:03.77	249.30	11.66	-35.9	-37.4	17.0	0.00e+00	0	57	0	2411724800	42	4533
2026-01-07 03:16:04.78	249.19	11.58	-36.1	-37.6	16.9	0.00e+00	0	57	0	2416967680	42	4608
2026-01-07 03:16:05.79	249.09	11.50	-36.1	-37.6	16.8	0.00e+00	0	57	0	2423259136	42	4628
2026-01-07 03:16:06.80	248.98	11.42	-36.1	-37.6	16.8	0.00e+00	0	57	0	2428502016	42	4642
2026-01-07 03:16:07.81	248.88	11.35	-36.1	-37.6	16.8	0.00e+00	0	57	0	2433744896	42	4646
2026-01-07 03:16:08.82	248.77	11.27	-36.2	-37.7	16.7	0.00e+00	0	57	0	2440036352	42	4658
2026-01-07 03:16:09.83	248.67	11.19	-36.1	-37.6	16.8	0.00e+00	0	57	0	2445279232	42	4648
2026-01-07 03:16:10.84	248.57	11.11	-36.1	-37.6	16.8	0.00e+00	0	57	0	2451570688	42	4634
2026-01-07 03:16:11.85	248.46	11.04	-36.1	-37.6	16.8	0.00e+00	0	57	0	2456813568	42	4630
2026-01-07 03:16:12.86	248.36	10.96	-36.2	-37.7	16.7	0.00e+00	0	57	0	2462056448	42	4662
2026-01-07 03:16:13.86	248.26	10.88	-36.2	-37.7	16.7	0.00e+00	0	57	0	2468347904	43	4417
2026-01-07 03:16:14.87	248.16	10.81	-36.2	-37.7	16.7	0.00e+00	0	57	0	2473590784	43	4398
2026-01-07 03:16:15.88	248.06	10.73	-36.2	-37.8	16.6	0.00e+00	0	57	0	2479882240	43	4451
2026-01-07 03:16:16.89	247.96	10.65	-36.2	-37.8	16.6	0.00e+00	0	57	0	2485125120	43	4456
2026-01-07 03:16:17.90	247.86	10.58	-36.3	-37.9	16.5	0.00e+00	0	57	0	2490368000	43	4506
2026-01-07 03:16:18.91	247.76	10.50	-36.4	-37.9	16.4	0.00e+00	0	57	0	2496659456	43	4538
2026-01-07 03:16:19.93	247.66	10.42	-36.4	-38.0	16.4	0.00e+00	0	57	0	2501902336	43	4580
2026-01-07 03:16:20.94	247.56	10.35	-36.5	-38.1	16.2	0.00e+00	0	57	0	2508193792	43	4639
2026-01-07 03:16:21.95	247.46	10.27	-36.7	-38.3	16.1	0.00e+00	0	57	0	2513436672	43	4728
2026-01-07 03:16:22.96	247.37	10.20	-36.6	-38.3	16.1	0.00e+00	0	57	0	2519728128	43	4717
2026-01-07 03:16:23.97	247.27	10.12	-36.6	-38.3	16.1	0.00e+00	0	57	0	2524971008	43	4715
2026-01-07 03:16:24.98	247.17	10.04	-36.6	-38.3	16.1	0.00e+00	0	57	0	2531262464	43	4722
2026-01-07 03:16:25.98	247.08	9.97	-36.5	-38.0	16.3	0.00e+00	0	57	0	2536505344	43	4588
2026-01-07 03:16:26.99	246.98	9.90	-36.5	-38.1	16.2	0.00e+00	0	57	0	2541748224	43	4643
2026-01-07 03:16:28.01	246.89	9.82	-36.4	-38.0	16.3	0.00e+00	0	57	0	2548039680	43	4587
2026-01-07 03:16:29.02	246.79	9.75	-36.5	-38.1	16.2	0.00e+00	0	57	0	2553282560	43	4631
2026-01-07 03:16:30.03	246.70	9.67	-36.6	-38.2	16.1	0.00e+00	0	57	0	2559574016	43	4680
2026-01-07 03:16:31.04	246.61	9.60	-36.6	-38.2	16.1	0.00e+00	0	57	0	2564816896	43	4696
2026-01-07 03:16:32.05	246.52	9.52	-36.9	-38.6	15.9	0.00e+00	0	57	0	2570059776	44	4613
2026-01-07 03:16:33.05	246.42	9.45	-36.9	-38.6	15.9	0.00e+00	0	57	0	2576351232	44	4627
2026-01-07 03:16:34.06	246.33	9.37	-37.0	-38.7	15.7	0.00e+00	0	57	0	2581594112	44	4683
2026-01-07 03:16:35.08	246.24	9.30	-37.2	-38.9	15.5	0.00e+00	0	57	0	2587885568	44	4783
2026-01-07 03:16:36.09	246.15	9.23	-37.2	-38.9	15.5	0.00e+00	0	57	0	2593128448	44	4789
2026-01-07 03:16:37.10	246.06	9.15	-37.3	-39.0	15.4	0.00e+00	0	57	0	2598371328	45	4573
2026-01-07 03:16:38.11	245.97	9.08	-37.1	-38.8	15.6	0.00e+00	0	57	0	2604662784	45	4478
2026-01-07 03:16:39.12	245.88	9.01	-37.1	-38.8	15.5	0.00e+00	0	57	0	2609905664	45	4487
2026-01-07 03:16:40.13	245.79	8.93	-37.1	-38.9	15.5	0.00e+00	0	57	0	2616197120	45	4506
2026-01-07 03:16:41.14	245.70	8.86	-37.1	-38.8	15.6	0.00e+00	0	57	0	2621440000	45	4461
2026-01-07 03:16:42.15	245.62	8.79	-37.0	-38.7	15.7	0.00e+00	0	57	0	2627731456	45	4396
2026-01-07 03:16:43.16	245.53	8.71	-37.1	-38.8	15.5	0.00e+00	0	57	0	2632974336	45	4477
2026-01-07 03:16:44.17	245.44	8.64	-36.9	-38.6	15.8	0.00e+00	0	57	0	2639265792	45	4371
2026-01-07 03:16:45.18	245.36	8.57	-36.9	-38.6	15.7	0.00e+00	0	57	0	2644508672	45	4374
2026-01-07 03:16:46.19	245.27	8.50	-37.0	-38.7	15.6	0.00e+00	0	57	0	2649751552	45	4427
2026-01-07 03:16:47.20	245.18	8.43	-36.9	-38.6	15.8	0.00e+00	0	57	0	2656043008	45	4346
2026-01-07 03:16:48.21	245.10	8.35	-36.9	-38.6	15.7	0.00e+00	0	57	0	2661285888	45	4384
2026-01-07 03:16:49.22	245.01	8.28	-36.9	-38.6	15.8	0.00e+00	0	57	0	2667577344	45	4348
2026-01-07 03:16:50.23	244.93	8.21	-36.9	-38.6	15.7	0.00e+00	0	57	0	2672820224	45	4344
2026-01-07 03:16:51.24	244.85	8.14	-37.0	-38.7	15.5	0.00e+00	0	57	0	2678063104	45	4430
2026-01-07 03:16:52.25	244.76	8.07	-36.9	-38.5	15.8	0.00e+00	0	57	0	2684354560	45	4327
2026-01-07 03:16:53.26	244.68	8.00	-36.9	-38.6	15.7	0.00e+00	0	57	0	2689597440	45	4382
2026-01-07 03:16:54.27	244.60	7.93	-44.4	-55.7	3.8	8.47e-01	0	57	104	2691694592	59	13919
2026-01-07 03:16:55.28	244.51	7.85	-44.6	-56.2	3.8	8.47e-01	0	57	104	2691694592	59	14822
2026-01-07 03:16:56.29	244.43	7.78	-44.7	-56.5	3.8	8.45e-01	0	57	104	2691694592	60	14509
2026-01-07 03:16:57.30	244.35	7.71	-44.9	-56.6	3.8	8.46e-01	0	57	104	2691694592	60	14706
