passes_logs/2026/01/07/R2.0S_Moscow/R2.0S_Moscow__20260107_085556_NOAA_20_JPSS-1_rec.log

#Pass ID: 20260107_085556_NOAA 20 (JPSS-1)
#Satellite: NOAA 20 (JPSS-1)
#Configuration: NOAA 20
#almurnet v.1.7.20251203
#Start time: 2026-01-07 08:55:58

#Version: 2.2.20231116
#Station: R2.0S_Moscow
#Location: 37.707566 lon 55.798166 lat
#TLE: 1 43013U 17073A   26006.30790171  .00000126  00000+0  80695-4 0  9991
#TLE: 2 43013  98.7629 307.3394 0001808  51.8724 308.2615 14.19533762421505

#Time	Az	El	Level	Level2	SNR	BER	BlckErr	Temp	State	Recorded	gain1	gain2
2026-01-07 08:55:58.83	131.76	2.13	-17.8	-36.6	3.5	1.51e+00	0	47	0	0	6	32847
2026-01-07 08:55:59.83	131.72	2.19	-19.8	-36.2	3.8	1.51e+00	0	48	104	0	12	22016
2026-01-07 08:56:00.84	131.68	2.25	-21.4	-40.7	3.6	1.51e+00	0	48	104	0	13	35236
2026-01-07 08:56:01.85	131.64	2.31	-20.4	-36.6	3.9	1.51e+00	0	48	104	0	12	23272
2026-01-07 08:56:02.86	131.59	2.38	-15.5	-31.7	3.9	1.51e+00	0	48	104	0	4	20865
2026-01-07 08:56:03.87	131.55	2.44	-20.5	-37.1	3.7	1.51e+00	0	48	104	0	13	23067
2026-01-07 08:56:04.88	131.51	2.50	-20.7	-37.6	3.8	1.51e+00	0	48	104	0	12	26026
2026-01-07 08:56:05.89	131.47	2.57	-16.4	-34.2	3.9	1.51e+00	0	48	104	0	1	33000
2026-01-07 08:56:06.90	131.43	2.63	-17.2	-32.0	4.1	1.51e+00	0	48	104	0	11	14504
2026-01-07 08:56:07.91	131.38	2.69	-16.5	-34.4	4.1	1.52e+00	0	48	104	0	7	24009
2026-01-07 08:56:08.92	131.34	2.76	-21.3	-35.7	3.9	1.51e+00	0	48	104	0	10	23572
2026-01-07 08:56:09.93	131.30	2.82	-22.1	-37.4	3.8	1.51e+00	0	49	104	0	9	30270
2026-01-07 08:56:10.94	131.25	2.88	-18.2	-34.1	3.7	1.51e+00	0	49	104	0	7	23063
2026-01-07 08:56:11.95	131.21	2.95	-16.3	-35.7	3.9	1.51e+00	0	49	104	0	7	27966
2026-01-07 08:56:12.96	131.17	3.01	-16.1	-38.1	3.8	1.51e+00	0	49	104	0	15	23048
2026-01-07 08:56:13.97	131.12	3.08	-14.0	-34.5	3.9	1.51e+00	0	49	104	0	3	30474
2026-01-07 08:56:14.99	131.08	3.14	-17.8	-37.8	3.7	1.50e+00	0	49	104	0	12	26673
2026-01-07 08:56:16.00	131.04	3.21	-17.3	-37.7	3.7	1.50e+00	0	49	104	0	7	35194
2026-01-07 08:56:17.01	130.99	3.27	-19.7	-35.3	3.6	1.50e+00	0	49	104	0	5	29705
2026-01-07 08:56:18.02	130.95	3.34	-19.4	-39.4	3.6	1.50e+00	0	49	104	0	12	31836
2026-01-07 08:56:19.03	130.90	3.40	-20.2	-37.7	3.6	1.51e+00	0	49	104	0	8	33106
2026-01-07 08:56:20.04	130.86	3.47	-18.8	-36.8	3.6	1.50e+00	0	49	104	0	13	22518
2026-01-07 08:56:21.05	130.81	3.53	-16.9	-33.9	3.6	1.50e+00	0	49	104	0	2	30238
2026-01-07 08:56:22.06	130.77	3.60	-18.3	-32.1	3.9	1.50e+00	0	49	104	0	6	19422
2026-01-07 08:56:23.07	130.72	3.66	-20.6	-39.7	3.6	1.50e+00	0	49	104	0	13	31290
2026-01-07 08:56:24.08	130.67	3.73	-19.4	-37.4	3.8	1.51e+00	0	49	104	0	2	45259
2026-01-07 08:56:25.09	130.63	3.79	-21.4	-35.5	3.6	1.51e+00	0	50	104	0	10	22863
2026-01-07 08:56:26.10	130.58	3.86	-17.5	-30.6	3.9	1.51e+00	0	49	104	0	4	18323
2026-01-07 08:56:27.11	130.54	3.92	-18.8	-34.0	4.1	1.51e+00	0	49	104	0	7	22815
2026-01-07 08:56:28.12	130.49	3.99	-18.8	-38.4	3.5	1.51e+00	0	50	104	0	12	28479
2026-01-07 08:56:29.13	130.44	4.06	-13.8	-35.6	3.5	1.51e+00	0	50	104	0	11	21772
2026-01-07 08:56:30.14	130.39	4.12	-19.9	-34.4	4.0	1.51e+00	0	50	104	0	10	20094
2026-01-07 08:56:31.15	130.35	4.19	-16.3	-31.8	3.8	1.51e+00	0	50	104	0	6	18894
2026-01-07 08:56:32.17	130.30	4.26	-19.9	-35.6	3.8	1.51e+00	0	50	104	0	13	19498
2026-01-07 08:56:33.18	130.25	4.32	-21.6	-38.6	3.4	1.50e+00	0	50	104	0	10	32622
2026-01-07 08:56:34.19	130.20	4.39	-18.6	-35.6	4.1	1.50e+00	0	50	104	0	10	23190
2026-01-07 08:56:35.20	130.16	4.46	-17.4	-38.7	3.3	1.51e+00	0	50	104	0	9	35208
2026-01-07 08:56:36.21	130.11	4.53	-21.1	-35.8	3.8	1.51e+00	0	50	104	0	11	22356
2026-01-07 08:56:37.22	130.06	4.59	-25.7	-41.0	3.5	1.50e+00	0	50	104	0	11	40657
2026-01-07 08:56:38.23	130.01	4.66	-21.7	-38.1	3.7	1.51e+00	0	50	104	0	19	18336
2026-01-07 08:56:39.24	129.96	4.73	-19.5	-36.3	3.3	1.51e+00	0	50	104	0	7	29701
2026-01-07 08:56:40.25	129.91	4.80	-17.0	-30.9	3.7	1.50e+00	0	50	0	0	4	19118
2026-01-07 08:56:41.27	129.86	4.87	-15.8	-36.5	3.7	1.51e+00	0	50	104	0	17	17220
2026-01-07 08:56:42.27	129.81	4.93	-16.1	-40.2	3.9	1.51e+00	0	50	104	0	3	58588
2026-01-07 08:56:43.29	129.76	5.00	-15.9	-32.3	3.8	1.50e+00	0	50	104	0	10	15825
2026-01-07 08:56:44.30	129.71	5.07	-20.6	-35.9	3.6	1.50e+00	0	50	104	0	14	19146
2026-01-07 08:56:45.31	129.66	5.14	-19.0	-34.5	3.7	1.51e+00	0	50	104	0	6	25740
2026-01-07 08:56:46.32	129.61	5.21	-25.6	-37.7	3.6	1.50e+00	0	50	104	0	5	39163
2026-01-07 08:56:47.33	129.56	5.28	-21.2	-41.6	3.8	1.50e+00	0	50	104	0	22	23299
2026-01-07 08:56:48.34	129.50	5.35	-21.9	-41.3	3.7	1.51e+00	0	51	104	0	18	28184
2026-01-07 08:56:49.35	129.45	5.42	-22.8	-40.9	3.7	1.51e+00	0	51	104	0	17	28604
2026-01-07 08:56:50.36	129.40	5.49	-19.8	-39.0	3.7	1.51e+00	0	51	104	0	12	30701
2026-01-07 08:56:51.37	129.35	5.56	-22.4	-40.1	3.5	1.50e+00	0	51	104	0	15	29031
2026-01-07 08:56:52.38	129.30	5.63	-20.5	-40.0	3.6	1.50e+00	0	51	104	0	15	28866
2026-01-07 08:56:53.39	129.24	5.70	-23.6	-39.5	3.7	1.50e+00	0	51	104	0	18	23018
2026-01-07 08:56:54.40	129.19	5.77	-23.3	-40.4	3.5	1.50e+00	0	51	104	0	19	23855
2026-01-07 08:56:55.41	129.14	5.84	-17.6	-36.3	3.6	1.50e+00	0	51	104	0	11	23678
2026-01-07 08:56:56.42	129.08	5.91	-22.8	-41.9	3.7	1.50e+00	0	51	104	0	19	28535
2026-01-07 08:56:57.43	129.03	5.98	-23.0	-41.8	3.9	1.51e+00	0	51	104	0	21	25204
2026-01-07 08:56:58.44	128.98	6.05	-21.7	-40.0	3.9	1.50e+00	0	51	104	0	15	28720
2026-01-07 08:56:59.45	128.92	6.12	-24.3	-43.7	4.0	1.50e+00	0	51	104	0	23	28024
2026-01-07 08:57:00.46	128.87	6.19	-15.9	-32.1	3.6	1.50e+00	0	51	104	0	5	20755
2026-01-07 08:57:01.47	128.81	6.26	-15.5	-34.4	3.6	1.50e+00	0	51	104	0	3	30344
2026-01-07 08:57:02.48	128.76	6.33	-22.3	-41.6	3.8	1.50e+00	0	51	0	0	20	26124
2026-01-07 08:57:03.49	128.70	6.40	-22.9	-40.8	3.6	1.50e+00	0	51	104	0	18	26552
2026-01-07 08:57:04.50	128.64	6.48	-21.9	-40.1	3.6	1.51e+00	0	51	104	0	16	27481
2026-01-07 08:57:05.52	128.59	6.55	-22.8	-38.6	3.7	1.51e+00	0	51	104	0	10	32900
2026-01-07 08:57:06.53	128.53	6.62	-21.0	-37.5	3.5	1.50e+00	0	51	104	0	11	27194
2026-01-07 08:57:07.54	128.48	6.69	-21.4	-40.5	3.7	1.51e+00	0	51	0	0	19	24252
2026-01-07 08:57:08.55	128.42	6.77	-19.1	-39.4	3.8	1.51e+00	0	51	0	0	12	32047
2026-01-07 08:57:09.56	128.36	6.84	-15.8	-37.3	3.7	1.51e+00	0	52	0	0	7	33647
2026-01-07 08:57:10.57	128.30	6.91	-19.5	-38.9	3.6	1.51e+00	0	52	104	0	10	33828
2026-01-07 08:57:11.59	128.24	6.99	-19.9	-41.2	3.7	1.51e+00	0	52	0	0	18	27816
2026-01-07 08:57:12.60	128.19	7.06	-20.3	-37.8	3.8	1.50e+00	0	52	0	0	13	25000
2026-01-07 08:57:13.60	128.13	7.13	-22.8	-38.0	3.6	1.51e+00	0	52	104	0	6	38506
2026-01-07 08:57:14.62	128.07	7.21	-22.3	-39.6	3.6	1.51e+00	0	52	104	0	7	43750
2026-01-07 08:57:15.63	128.01	7.28	-18.3	-35.8	3.5	1.51e+00	0	52	104	0	5	31630
2026-01-07 08:57:16.64	127.95	7.35	-14.8	-37.0	3.9	1.50e+00	0	52	104	0	5	36469
2026-01-07 08:57:17.65	127.89	7.43	-18.2	-37.4	3.7	1.51e+00	0	52	104	0	12	25270
2026-01-07 08:57:18.66	127.83	7.50	-21.2	-40.7	3.8	1.50e+00	0	52	104	0	15	31337
2026-01-07 08:57:19.67	127.77	7.58	-17.4	-37.5	4.0	1.51e+00	0	52	104	0	13	24287
2026-01-07 08:57:20.68	127.71	7.65	-22.9	-37.5	3.8	1.50e+00	0	52	104	0	10	28970
2026-01-07 08:57:21.69	127.65	7.73	-18.6	-35.6	3.7	1.50e+00	0	52	104	0	3	34753
2026-01-07 08:57:22.70	127.59	7.80	-22.7	-39.2	3.7	1.51e+00	0	52	104	0	15	26329
2026-01-07 08:57:23.71	127.53	7.88	-19.5	-40.4	3.6	1.51e+00	0	52	104	0	14	31890
2026-01-07 08:57:24.72	127.46	7.95	-22.3	-40.3	3.9	1.50e+00	0	52	0	0	17	26650
2026-01-07 08:57:25.73	127.40	8.03	-16.0	-35.4	3.6	1.50e+00	0	52	0	0	2	36031
2026-01-07 08:57:26.74	127.34	8.11	-19.8	-39.3	3.5	1.50e+00	0	52	0	0	11	33348
2026-01-07 08:57:27.75	127.28	8.18	-22.8	-40.6	3.6	1.50e+00	0	52	0	0	14	32556
2026-01-07 08:57:28.76	127.21	8.26	-21.9	-40.3	4.2	1.50e+00	0	52	104	0	18	25043
2026-01-07 08:57:29.77	127.15	8.33	-23.6	-42.8	3.8	1.50e+00	0	52	104	0	17	35331
2026-01-07 08:57:30.79	127.08	8.41	-18.7	-34.2	3.9	1.50e+00	0	52	104	0	7	23346
2026-01-07 08:57:31.80	127.02	8.49	-22.6	-39.1	3.7	1.50e+00	0	52	0	0	3	51915
2026-01-07 08:57:32.81	126.95	8.57	-21.3	-37.4	3.7	1.50e+00	0	53	104	0	10	28419
2026-01-07 08:57:33.81	126.89	8.64	-16.4	-38.5	4.4	1.47e+00	0	52	104	0	17	21550
2026-01-07 08:57:34.82	126.82	8.72	-24.1	-37.8	4.3	1.49e+00	0	53	104	0	10	29847
2026-01-07 08:57:35.83	126.76	8.80	-16.8	-35.3	3.9	1.49e+00	0	53	104	0	5	29787
2026-01-07 08:57:36.84	126.69	8.88	-22.8	-41.2	4.5	1.49e+00	0	52	104	0	20	24905
2026-01-07 08:57:37.86	126.63	8.95	-20.0	-42.1	4.6	1.50e+00	0	53	104	0	20	27460
2026-01-07 08:57:38.87	126.56	9.03	-23.9	-38.8	3.8	1.47e+00	0	53	0	0	12	30001
2026-01-07 08:57:39.88	126.49	9.11	-24.3	-40.3	4.2	1.50e+00	0	53	104	0	18	25103
2026-01-07 08:57:40.89	126.42	9.19	-26.7	-41.1	4.2	1.50e+00	0	53	104	0	20	24492
2026-01-07 08:57:41.90	126.36	9.27	-26.0	-38.4	3.8	1.50e+00	0	53	104	0	10	32167
2026-01-07 08:57:42.91	126.29	9.35	-26.2	-41.1	4.4	1.50e+00	0	53	104	0	17	29122
2026-01-07 08:57:43.92	126.22	9.43	-24.4	-41.5	4.3	1.48e+00	0	53	104	0	19	27363
2026-01-07 08:57:44.93	126.15	9.51	-26.0	-42.1	4.7	1.48e+00	0	53	0	0	23	23154
2026-01-07 08:57:45.94	126.08	9.59	-23.4	-41.4	4.9	1.48e+00	0	53	0	0	25	18989
2026-01-07 08:57:46.95	126.01	9.67	-25.7	-44.3	5.0	1.47e+00	0	53	0	0	28	22471
2026-01-07 08:57:47.96	125.94	9.75	-19.9	-36.1	4.1	1.48e+00	0	53	0	0	14	19610
2026-01-07 08:57:48.97	125.87	9.83	-22.2	-38.7	3.9	1.47e+00	0	53	104	0	18	20993
2026-01-07 08:57:49.98	125.80	9.91	-27.4	-44.8	4.9	1.45e+00	0	53	104	0	30	21025
2026-01-07 08:57:50.99	125.72	9.99	-29.3	-42.7	4.7	1.48e+00	0	53	104	0	23	24713
2026-01-07 08:57:52.00	125.65	10.07	-27.4	-43.4	4.5	1.45e+00	0	53	104	0	24	25356
2026-01-07 08:57:53.02	125.58	10.15	-28.8	-44.3	4.6	1.46e+00	0	53	104	0	25	26472
2026-01-07 08:57:54.02	125.51	10.23	-27.2	-41.5	4.2	1.42e+00	0	53	104	0	22	22859
2026-01-07 08:57:55.03	125.43	10.32	-26.4	-42.6	4.7	1.42e+00	0	53	104	0	27	19561
2026-01-07 08:57:56.04	125.36	10.40	-26.8	-43.8	4.6	1.41e+00	0	53	0	0	30	18905
2026-01-07 08:57:57.05	125.29	10.48	-25.8	-43.2	4.4	1.44e+00	0	53	104	0	26	22218
2026-01-07 08:57:58.06	125.21	10.56	-25.8	-42.7	4.5	1.47e+00	0	53	104	0	28	18706
2026-01-07 08:57:59.07	125.14	10.65	-26.7	-42.6	4.8	1.34e+00	23	53	0	0	31	15451
2026-01-07 08:58:00.08	125.06	10.73	-29.7	-45.4	5.2	6.39e-01	53	53	0	1048576	30	22525
2026-01-07 08:58:01.09	124.98	10.81	-32.9	-45.9	6.6	4.79e-01	90	53	0	2097152	38	15136
2026-01-07 08:58:02.10	124.91	10.89	-33.9	-46.4	6.7	4.84e-01	77	53	0	3145728	40	14309
2026-01-07 08:58:03.11	124.83	10.98	-30.9	-45.0	4.7	6.71e-01	0	53	104	5242880	31	20399
2026-01-07 08:58:04.12	124.75	11.06	-36.1	-46.4	7.2	4.86e-01	53	53	0	5242880	42	12778
2026-01-07 08:58:05.13	124.68	11.15	-33.1	-46.9	4.9	6.89e-01	0	53	104	6291456	43	12672
2026-01-07 08:58:06.14	124.60	11.23	-26.2	-45.4	7.1	3.95e-01	35	53	0	7340032	39	13424
2026-01-07 08:58:07.15	124.52	11.32	-35.7	-47.2	7.2	3.08e-01	20	53	0	8388608	45	11739
2026-01-07 08:58:08.16	124.44	11.40	-28.0	-46.8	6.7	5.00e-01	29	53	0	10485760	41	14162
2026-01-07 08:58:09.17	124.36	11.49	-31.9	-46.5	6.5	5.41e-01	54	54	0	11534336	39	15309
2026-01-07 08:58:10.18	124.28	11.57	-39.8	-47.5	7.9	2.33e-01	5	54	0	13631488	50	9139
2026-01-07 08:58:11.19	124.20	11.66	-38.9	-47.8	7.4	4.85e-01	8	54	0	14680064	46	11926
2026-01-07 08:58:12.20	124.12	11.74	-35.1	-47.1	6.3	3.81e-01	27	54	0	16777216	36	19458
2026-01-07 08:58:13.21	124.04	11.83	-40.2	-47.5	5.4	2.93e-01	15	54	0	18874368	46	11539
2026-01-07 08:58:14.22	123.96	11.91	-38.1	-47.7	6.7	2.86e-01	15	54	0	20971520	39	17568
2026-01-07 08:58:15.23	123.87	12.00	-38.4	-47.3	8.0	1.05e-01	5	54	0	22020096	47	10541
2026-01-07 08:58:16.24	123.79	12.09	-37.8	-47.0	9.3	8.93e-02	0	54	0	24117248	49	9123
2026-01-07 08:58:17.25	123.71	12.18	-35.4	-46.7	9.6	4.44e-02	0	54	0	26214400	51	7890
2026-01-07 08:58:18.26	123.62	12.26	-39.9	-46.7	9.8	6.01e-02	0	54	0	28311552	52	7446
2026-01-07 08:58:19.26	123.54	12.35	-40.0	-46.3	10.6	1.23e-02	0	54	0	30408704	53	6675
2026-01-07 08:58:20.28	123.45	12.44	-38.8	-45.7	9.7	9.01e-03	0	54	0	31457280	48	8308
2026-01-07 08:58:21.29	123.37	12.53	-39.6	-45.7	11.3	8.89e-03	0	54	0	33554432	52	6610
2026-01-07 08:58:22.30	123.28	12.61	-40.3	-45.1	11.9	3.43e-03	0	54	0	35651584	51	6527
2026-01-07 08:58:23.30	123.20	12.70	-40.3	-45.0	12.1	3.50e-03	0	54	0	37748736	51	6464
2026-01-07 08:58:24.31	123.11	12.79	-35.7	-45.0	10.1	1.22e-02	0	54	0	39845888	44	9638
2026-01-07 08:58:25.32	123.02	12.88	-41.0	-45.4	10.9	5.61e-03	0	54	0	40894464	49	7596
2026-01-07 08:58:26.33	122.93	12.97	-40.6	-45.6	11.4	3.72e-03	0	54	0	42991616	53	6201
2026-01-07 08:58:27.34	122.84	13.06	-40.5	-45.7	11.6	4.16e-03	0	54	0	45088768	52	6598
2026-01-07 08:58:28.35	122.75	13.15	-36.8	-45.1	11.8	1.50e-03	0	54	0	47185920	50	6880
2026-01-07 08:58:29.36	122.66	13.24	-39.2	-44.8	11.9	3.97e-03	0	54	0	49283072	51	6299
2026-01-07 08:58:30.37	122.57	13.33	-39.4	-44.5	12.6	1.97e-03	0	54	0	50331648	51	6084
2026-01-07 08:58:31.38	122.48	13.42	-40.4	-44.5	12.8	4.01e-03	0	54	0	52428800	51	6087
2026-01-07 08:58:32.39	122.39	13.51	-34.1	-44.3	10.3	1.19e-03	0	54	0	54525952	44	8898
2026-01-07 08:58:33.40	122.30	13.60	-37.7	-44.2	11.4	3.15e-03	0	54	0	56623104	48	7019
2026-01-07 08:58:34.41	122.21	13.69	-39.1	-44.8	12.4	1.81e-03	0	54	0	58720256	51	6303
2026-01-07 08:58:35.42	122.11	13.79	-40.3	-44.9	12.2	1.64e-03	0	54	0	59768832	51	6396
2026-01-07 08:58:36.43	122.02	13.88	-39.2	-44.7	11.7	1.87e-03	0	54	0	61865984	47	7867
2026-01-07 08:58:37.44	121.92	13.97	-36.1	-44.4	11.9	1.32e-03	0	54	0	63963136	44	8988
2026-01-07 08:58:38.45	121.83	14.06	-39.4	-44.1	12.8	1.38e-03	0	54	0	66060288	49	6546
2026-01-07 08:58:39.46	121.73	14.15	-39.7	-43.8	13.4	5.40e-04	0	54	0	68157440	50	5964
2026-01-07 08:58:40.47	121.64	14.25	-39.6	-44.0	13.2	7.86e-04	0	54	0	69206016	50	6116
2026-01-07 08:58:41.48	121.54	14.34	-39.9	-44.1	13.3	2.99e-03	0	54	0	71303168	51	5790
2026-01-07 08:58:42.49	121.44	14.43	-39.9	-44.1	11.8	7.10e-04	0	54	0	73400320	44	8717
2026-01-07 08:58:43.50	121.34	14.53	-39.0	-43.9	13.1	6.32e-04	0	54	0	75497472	48	6761
2026-01-07 08:58:44.51	121.24	14.62	-40.0	-43.7	13.7	5.11e-04	0	54	0	77594624	50	5889
2026-01-07 08:58:45.52	121.15	14.72	-40.0	-43.4	14.0	3.58e-04	0	54	0	78643200	50	5691
2026-01-07 08:58:46.53	121.05	14.81	-39.4	-43.3	14.0	5.13e-04	0	54	0	80740352	50	5652
2026-01-07 08:58:47.54	120.94	14.91	-39.3	-43.2	14.2	1.97e-04	0	54	0	82837504	50	5532
2026-01-07 08:58:48.55	120.84	15.00	-39.7	-43.4	14.1	2.36e-04	0	55	0	84934656	50	5664
2026-01-07 08:58:49.56	120.74	15.10	-39.4	-43.3	14.2	1.96e-04	0	54	0	87031808	50	5641
2026-01-07 08:58:50.58	120.64	15.19	-39.2	-43.3	14.2	3.23e-04	0	54	0	88080384	50	5641
2026-01-07 08:58:51.58	120.53	15.29	-39.7	-43.3	14.2	1.52e-04	0	54	0	90177536	50	5595
2026-01-07 08:58:52.59	120.43	15.39	-37.8	-42.8	14.0	1.06e-03	0	55	0	92274688	48	5979
2026-01-07 08:58:53.60	120.32	15.48	-35.4	-42.8	13.0	1.94e-04	0	54	0	94371840	46	6654
2026-01-07 08:58:54.61	120.22	15.58	-40.0	-43.2	14.2	4.26e-04	0	54	0	96468992	50	5572
2026-01-07 08:58:55.62	120.11	15.68	-39.9	-43.2	14.3	2.03e-04	0	54	0	98566144	50	5577
2026-01-07 08:58:56.63	120.01	15.78	-39.7	-43.4	13.9	3.63e-04	0	54	0	99614720	50	5698
2026-01-07 08:58:57.64	119.90	15.87	-39.7	-43.3	14.2	3.98e-04	0	54	0	101711872	50	5623
2026-01-07 08:58:58.65	119.79	15.97	-40.1	-43.2	14.5	3.96e-05	0	54	0	103809024	50	5545
2026-01-07 08:58:59.66	119.68	16.07	-39.9	-43.2	14.4	5.41e-05	0	54	0	105906176	51	5259
2026-01-07 08:59:00.67	119.57	16.17	-39.8	-43.2	14.3	8.30e-06	0	55	0	108003328	51	5244
2026-01-07 08:59:01.68	119.46	16.27	-39.7	-43.2	14.3	7.17e-05	0	55	0	109051904	51	5272
2026-01-07 08:59:02.69	119.35	16.37	-39.8	-43.1	14.2	1.07e-04	0	55	0	111149056	47	6551
2026-01-07 08:59:03.70	119.24	16.47	-40.2	-43.2	14.4	3.58e-05	0	55	0	113246208	51	5232
2026-01-07 08:59:04.71	119.12	16.57	-40.2	-43.1	14.5	1.90e-05	0	54	0	115343360	51	5197
2026-01-07 08:59:05.72	119.01	16.67	-40.2	-43.2	14.5	6.80e-06	0	55	0	117440512	51	5232
2026-01-07 08:59:06.73	118.89	16.77	-39.6	-43.2	14.2	1.83e-05	0	55	0	118489088	51	5230
2026-01-07 08:59:07.74	118.78	16.87	-40.2	-43.2	14.5	1.06e-05	0	55	0	120586240	51	5237
2026-01-07 08:59:08.75	118.66	16.97	-40.3	-43.1	14.5	7.00e-07	0	55	0	122683392	51	5215
2026-01-07 08:59:09.76	118.55	17.07	-39.8	-43.2	14.5	3.00e-06	0	55	0	124780544	51	5230
2026-01-07 08:59:10.77	118.43	17.17	-40.3	-43.1	14.6	7.00e-07	0	55	0	126877696	51	5171
2026-01-07 08:59:11.75	118.31	17.27	-40.2	-42.9	14.8	0.00e+00	0	55	0	127926272	51	5084
2026-01-07 08:59:12.75	118.20	17.37	-40.1	-43.0	14.7	7.00e-07	0	55	0	130023424	51	5150
2026-01-07 08:59:13.76	118.08	17.48	-40.2	-43.1	14.6	2.20e-06	0	55	0	132120576	51	5192
2026-01-07 08:59:14.77	117.95	17.58	-40.3	-43.2	14.5	7.00e-07	0	55	0	134217728	51	5246
2026-01-07 08:59:15.78	117.83	17.68	-40.5	-43.4	14.3	7.00e-07	0	55	0	136314880	51	5370
2026-01-07 08:59:16.79	117.71	17.78	-40.4	-43.3	14.4	7.00e-07	0	55	0	137363456	51	5313
2026-01-07 08:59:17.80	117.59	17.89	-40.5	-43.5	14.3	2.20e-06	0	55	0	139460608	51	5413
2026-01-07 08:59:18.81	117.46	17.99	-40.4	-43.3	14.4	0.00e+00	0	55	0	141557760	51	5323
2026-01-07 08:59:19.82	117.34	18.10	-40.4	-43.2	14.6	0.00e+00	0	55	0	143654912	51	5253
2026-01-07 08:59:20.83	117.21	18.20	-40.4	-43.3	14.5	0.00e+00	0	55	0	145752064	51	5282
2026-01-07 08:59:21.84	117.08	18.31	-40.1	-43.2	14.5	0.00e+00	0	55	0	146800640	51	5273
2026-01-07 08:59:22.85	116.96	18.41	-40.4	-43.2	14.6	1.50e-06	0	55	0	148897792	51	5270
2026-01-07 08:59:23.86	116.83	18.52	-40.6	-43.6	14.2	0.00e+00	0	55	0	150994944	51	5468
2026-01-07 08:59:24.86	116.70	18.62	-40.6	-43.6	14.2	6.10e-06	0	55	0	153092096	51	5474
2026-01-07 08:59:25.87	116.57	18.73	-40.6	-43.6	14.2	1.50e-06	0	55	0	155189248	51	5511
2026-01-07 08:59:26.88	116.44	18.84	-40.6	-43.5	14.3	1.50e-06	0	55	0	156237824	51	5413
2026-01-07 08:59:27.89	116.30	18.94	-40.4	-43.3	14.5	0.00e+00	0	55	0	158334976	51	5302
2026-01-07 08:59:28.90	116.17	19.05	-40.5	-43.4	14.4	1.50e-06	0	55	0	160432128	51	5368
2026-01-07 08:59:29.92	116.04	19.16	-40.4	-43.4	14.4	7.00e-07	0	55	0	162529280	51	5400
2026-01-07 08:59:30.93	115.90	19.27	-40.6	-43.6	14.2	0.00e+00	0	55	0	164626432	51	5527
2026-01-07 08:59:31.94	115.76	19.37	-40.7	-43.8	13.9	0.00e+00	0	55	0	166723584	52	5323
2026-01-07 08:59:32.95	115.63	19.48	-40.6	-43.6	14.1	4.50e-06	0	55	0	167772160	52	5199
2026-01-07 08:59:33.96	115.49	19.59	-40.7	-43.8	14.0	1.50e-06	0	55	0	169869312	52	5282
2026-01-07 08:59:34.97	115.35	19.70	-40.6	-43.6	14.1	3.00e-06	0	55	0	171966464	52	5205
2026-01-07 08:59:35.98	115.21	19.81	-40.7	-43.7	14.0	7.00e-07	0	55	0	174063616	52	5257
2026-01-07 08:59:36.99	115.07	19.92	-40.7	-43.7	14.0	7.00e-07	0	55	0	176160768	52	5272
2026-01-07 08:59:38.00	114.92	20.03	-40.8	-43.9	13.9	3.00e-06	0	55	0	177209344	52	5360
2026-01-07 08:59:39.01	114.78	20.14	-40.9	-44.1	13.7	7.00e-07	0	55	0	179306496	52	5515
2026-01-07 08:59:40.01	114.64	20.25	-40.8	-44.0	13.8	6.10e-06	0	55	0	181403648	52	5421
2026-01-07 08:59:41.02	114.49	20.36	-40.8	-44.0	13.8	3.00e-06	0	55	0	183500800	52	5408
2026-01-07 08:59:42.03	114.35	20.47	-40.7	-43.7	14.0	7.00e-07	0	55	0	185597952	52	5267
2026-01-07 08:59:43.04	114.20	20.58	-40.6	-43.6	14.2	1.50e-06	0	55	0	186646528	52	5171
2026-01-07 08:59:44.05	114.05	20.69	-40.6	-43.6	14.3	7.00e-07	0	55	0	188743680	52	5163
2026-01-07 08:59:45.06	113.90	20.80	-40.6	-43.6	14.2	0.00e+00	0	55	0	190840832	52	5162
2026-01-07 08:59:46.07	113.75	20.91	-40.6	-43.6	14.2	3.00e-06	0	55	0	192937984	52	5216
2026-01-07 08:59:47.08	113.60	21.03	-40.6	-43.5	14.3	1.50e-06	0	55	0	195035136	52	5159
2026-01-07 08:59:48.09	113.44	21.14	-40.5	-43.3	14.5	2.20e-06	0	55	0	196083712	52	5029
2026-01-07 08:59:49.10	113.29	21.25	-40.4	-43.2	14.6	7.00e-07	0	55	0	198180864	52	4983
2026-01-07 08:59:50.11	113.13	21.37	-40.4	-43.2	14.6	7.00e-07	0	55	0	200278016	52	4955
2026-01-07 08:59:51.12	112.98	21.48	-40.4	-43.3	14.6	7.00e-07	0	55	0	202375168	52	4986
2026-01-07 08:59:52.13	112.82	21.59	-40.5	-43.3	14.5	0.00e+00	0	55	0	204472320	52	5033
2026-01-07 08:59:53.14	112.66	21.71	-40.4	-43.1	14.7	0.00e+00	0	55	0	205520896	52	4923
2026-01-07 08:59:54.15	112.50	21.82	-40.4	-43.1	14.8	1.50e-06	0	55	0	207618048	52	4909
2026-01-07 08:59:55.16	112.34	21.94	-40.3	-43.1	14.8	7.00e-07	0	55	0	209715200	52	4878
2026-01-07 08:59:56.17	112.18	22.05	-40.3	-43.1	14.8	0.00e+00	0	55	0	211812352	52	4871
2026-01-07 08:59:57.18	112.01	22.17	-40.3	-43.1	14.9	0.00e+00	0	55	0	213909504	52	4872
2026-01-07 08:59:58.19	111.85	22.28	-40.4	-43.2	14.8	0.00e+00	0	55	0	214958080	52	4928
2026-01-07 08:59:59.20	111.68	22.40	-40.4	-43.2	14.7	0.00e+00	0	55	0	217055232	52	4956
2026-01-07 09:00:00.21	111.51	22.51	-40.4	-43.1	14.8	0.00e+00	0	55	0	219152384	52	4920
2026-01-07 09:00:01.22	111.35	22.63	-40.3	-43.0	14.9	0.00e+00	0	55	0	221249536	52	4829
2026-01-07 09:00:02.23	111.18	22.75	-40.3	-43.0	14.9	0.00e+00	0	55	0	223346688	52	4828
2026-01-07 09:00:03.24	111.00	22.86	-40.4	-43.1	14.8	0.00e+00	0	55	0	224395264	52	4910
2026-01-07 09:00:04.25	110.83	22.98	-40.4	-43.1	14.8	0.00e+00	0	55	0	226492416	52	4914
2026-01-07 09:00:05.26	110.66	23.10	-40.4	-43.2	14.8	0.00e+00	0	55	0	228589568	52	4929
2026-01-07 09:00:06.27	110.48	23.22	-40.4	-43.1	14.8	0.00e+00	0	55	0	230686720	52	4907
2026-01-07 09:00:07.27	110.31	23.33	-40.3	-43.1	14.9	0.00e+00	0	55	0	232783872	52	4884
2026-01-07 09:00:08.28	110.13	23.45	-40.4	-43.1	14.9	0.00e+00	0	55	0	234881024	52	4895
2026-01-07 09:00:09.29	109.95	23.57	-40.3	-43.0	14.9	0.00e+00	0	55	0	235929600	52	4859
2026-01-07 09:00:10.30	109.77	23.69	-40.3	-43.0	14.9	0.00e+00	0	55	0	238026752	52	4858
2026-01-07 09:00:11.31	109.59	23.80	-40.4	-43.1	14.9	0.00e+00	0	55	0	240123904	52	4885
2026-01-07 09:00:12.32	109.40	23.92	-40.4	-43.1	14.9	7.00e-07	0	55	0	242221056	52	4871
2026-01-07 09:00:13.33	109.22	24.04	-40.3	-43.0	15.0	7.00e-07	0	55	0	244318208	52	4818
2026-01-07 09:00:14.34	109.03	24.16	-40.3	-43.0	15.0	0.00e+00	0	55	0	245366784	52	4821
2026-01-07 09:00:15.35	108.84	24.28	-40.4	-43.0	14.9	7.00e-07	0	55	0	247463936	52	4867
2026-01-07 09:00:16.36	108.66	24.40	-40.5	-43.3	14.6	0.00e+00	0	55	0	249561088	52	5029
2026-01-07 09:00:17.37	108.46	24.52	-40.6	-43.5	14.5	0.00e+00	0	55	0	251658240	52	5112
2026-01-07 09:00:18.38	108.27	24.64	-40.7	-43.6	14.4	0.00e+00	0	55	0	252706816	52	5186
2026-01-07 09:00:19.39	108.08	24.76	-40.8	-43.7	14.3	1.50e-06	0	55	0	254803968	52	5252
2026-01-07 09:00:20.40	107.88	24.88	-40.9	-43.9	14.1	3.00e-06	0	55	0	256901120	52	5363
2026-01-07 09:00:21.41	107.69	25.00	-40.9	-44.0	14.0	2.20e-06	0	56	0	258998272	52	5416
2026-01-07 09:00:22.42	107.49	25.12	-41.1	-44.2	13.8	4.50e-06	0	55	0	261095424	52	5576
2026-01-07 09:00:23.43	107.29	25.25	-41.2	-44.4	13.6	9.90e-06	0	56	0	263192576	52	5694
2026-01-07 09:00:24.44	107.09	25.37	-41.2	-44.4	13.6	9.10e-06	0	55	0	264241152	52	5664
2026-01-07 09:00:25.45	106.89	25.49	-41.1	-44.3	13.6	4.50e-06	0	55	0	266338304	52	5649
2026-01-07 09:00:26.46	106.68	25.61	-41.2	-44.4	13.6	1.29e-05	0	55	0	268435456	52	5666
2026-01-07 09:00:27.47	106.47	25.73	-41.1	-44.3	13.6	7.60e-06	0	55	0	270532608	53	5325
2026-01-07 09:00:28.48	106.27	25.85	-41.3	-44.6	13.4	7.60e-06	0	55	0	272629760	53	5477
2026-01-07 09:00:29.49	106.06	25.97	-41.3	-44.7	13.3	1.60e-05	0	55	0	273678336	53	5546
2026-01-07 09:00:30.50	105.85	26.10	-41.3	-44.6	13.4	9.90e-06	0	55	0	275775488	53	5508
2026-01-07 09:00:31.51	105.63	26.22	-41.4	-44.9	13.1	2.36e-05	0	55	0	277872640	53	5673
2026-01-07 09:00:32.52	105.42	26.34	-41.4	-44.8	13.1	2.74e-05	0	55	0	279969792	53	5647
2026-01-07 09:00:33.53	105.20	26.46	-41.4	-44.9	13.1	2.67e-05	0	55	0	282066944	53	5674
2026-01-07 09:00:34.54	104.99	26.59	-41.3	-44.6	13.4	2.82e-05	0	56	0	283115520	53	5504
2026-01-07 09:00:35.55	104.77	26.71	-41.2	-44.5	13.5	6.80e-06	0	55	0	285212672	53	5408
2026-01-07 09:00:36.56	104.55	26.83	-41.3	-44.6	13.4	1.52e-05	0	55	0	287309824	53	5485
2026-01-07 09:00:37.57	104.32	26.96	-41.3	-44.6	13.4	1.90e-05	0	56	0	289406976	53	5526
2026-01-07 09:00:38.58	104.10	27.08	-41.3	-44.6	13.4	1.44e-05	0	55	0	291504128	53	5482
2026-01-07 09:00:39.59	103.87	27.20	-41.4	-44.8	13.2	1.90e-05	0	56	0	292552704	53	5594
2026-01-07 09:00:40.60	103.65	27.32	-41.4	-44.8	13.2	2.36e-05	0	55	0	294649856	53	5627
2026-01-07 09:00:41.61	103.42	27.45	-41.4	-44.8	13.3	1.98e-05	0	56	0	296747008	53	5593
2026-01-07 09:00:42.62	103.19	27.57	-41.5	-44.9	13.1	1.60e-05	0	56	0	298844160	53	5688
2026-01-07 09:00:43.63	102.95	27.69	-41.6	-45.0	13.0	3.43e-05	0	56	0	300941312	53	5778
2026-01-07 09:00:44.64	102.72	27.82	-41.5	-45.0	13.1	2.67e-05	0	55	0	303038464	53	5732
2026-01-07 09:00:45.64	102.48	27.94	-41.6	-45.0	13.0	4.80e-05	0	56	0	304087040	53	5781
2026-01-07 09:00:46.65	102.24	28.06	-41.6	-45.0	13.0	5.56e-05	0	55	0	306184192	53	5780
2026-01-07 09:00:47.66	102.00	28.18	-41.6	-45.0	13.0	4.04e-05	0	56	0	308281344	53	5772
2026-01-07 09:00:48.67	101.76	28.31	-41.5	-45.0	13.0	2.51e-05	0	56	0	310378496	53	5760
2026-01-07 09:00:49.68	101.52	28.43	-41.5	-44.9	13.0	3.20e-05	0	56	0	312475648	53	5716
2026-01-07 09:00:50.69	101.27	28.55	-41.6	-45.0	13.0	2.51e-05	0	56	0	313524224	53	5779
2026-01-07 09:00:51.70	101.02	28.68	-41.6	-45.1	13.0	2.89e-05	0	56	0	315621376	53	5789
2026-01-07 09:00:52.71	100.77	28.80	-41.6	-45.2	12.9	3.73e-05	0	56	0	317718528	53	5858
2026-01-07 09:00:53.72	100.52	28.92	-41.5	-45.0	13.0	3.66e-05	0	56	0	319815680	53	5758
2026-01-07 09:00:54.73	100.27	29.05	-41.6	-45.0	13.1	2.97e-05	0	56	0	321912832	53	5752
2026-01-07 09:00:55.74	100.01	29.17	-41.7	-45.2	12.9	5.11e-05	0	56	0	322961408	53	5889
2026-01-07 09:00:56.76	99.75	29.29	-41.6	-45.1	12.9	7.01e-05	0	56	0	325058560	53	5845
2026-01-07 09:00:57.76	99.49	29.41	-41.7	-45.2	12.9	6.40e-05	0	56	0	327155712	53	5887
2026-01-07 09:00:58.77	99.23	29.54	-41.7	-45.2	12.8	6.79e-05	0	56	0	329252864	53	5920
2026-01-07 09:00:59.78	98.97	29.66	-41.7	-45.3	12.8	7.62e-05	0	56	0	331350016	54	5601
2026-01-07 09:01:00.79	98.70	29.78	-41.6	-45.0	13.1	4.73e-05	0	56	0	332398592	54	5429
2026-01-07 09:01:01.80	98.43	29.90	-41.7	-45.2	12.9	4.27e-05	0	56	0	334495744	54	5552
2026-01-07 09:01:02.81	98.16	30.02	-41.7	-45.2	12.9	4.57e-05	0	55	0	336592896	54	5533
2026-01-07 09:01:03.82	97.89	30.14	-41.6	-45.0	13.0	6.25e-05	0	56	0	338690048	54	5451
2026-01-07 09:01:04.83	97.62	30.27	-41.6	-45.0	13.1	3.20e-05	0	56	0	340787200	54	5429
2026-01-07 09:01:05.84	97.34	30.39	-41.5	-44.8	13.3	1.83e-05	0	56	0	341835776	54	5330
2026-01-07 09:01:06.85	97.06	30.51	-41.6	-45.0	13.1	1.98e-05	0	56	0	343932928	54	5406
2026-01-07 09:01:07.86	96.78	30.63	-41.7	-45.3	12.8	2.21e-05	0	56	0	346030080	54	5596
2026-01-07 09:01:08.87	96.50	30.75	-42.0	-45.8	12.3	9.61e-05	0	56	0	348127232	54	5951
2026-01-07 09:01:09.88	96.22	30.87	-42.2	-46.3	11.7	2.69e-04	0	56	0	350224384	55	5976
2026-01-07 09:01:10.89	95.93	30.99	-42.4	-46.7	11.3	8.27e-04	0	56	0	351272960	55	6262
2026-01-07 09:01:11.90	95.64	31.11	-42.4	-46.7	11.2	1.21e-03	0	56	0	353370112	55	6256
2026-01-07 09:01:12.91	95.35	31.23	-42.4	-46.8	11.3	1.23e-03	0	56	0	355467264	55	6299
2026-01-07 09:01:13.92	95.06	31.34	-42.5	-46.9	11.1	1.31e-03	0	56	0	357564416	55	6376
2026-01-07 09:01:14.93	94.76	31.46	-42.6	-47.1	10.9	1.67e-03	0	56	0	359661568	55	6522
2026-01-07 09:01:15.94	94.47	31.58	-42.6	-47.1	10.9	1.90e-03	0	56	0	360710144	55	6533
2026-01-07 09:01:16.95	94.17	31.70	-42.9	-47.6	10.6	3.47e-03	0	56	0	362807296	56	6500
2026-01-07 09:01:17.96	93.86	31.81	-42.9	-47.5	10.7	3.15e-03	0	56	0	364904448	56	6459
2026-01-07 09:01:18.97	93.56	31.93	-42.9	-47.6	10.6	3.34e-03	0	56	0	367001600	56	6505
2026-01-07 09:01:19.98	93.25	32.05	-42.9	-47.7	10.4	4.16e-03	0	55	0	369098752	56	6598
2026-01-07 09:01:20.99	92.95	32.16	-43.0	-47.8	10.3	4.87e-03	0	56	0	371195904	56	6715
2026-01-07 09:01:22.00	92.64	32.28	-43.1	-48.1	10.1	5.79e-03	0	56	0	372244480	56	6917
2026-01-07 09:01:23.01	92.32	32.39	-43.0	-47.9	10.2	8.42e-03	0	56	0	374341632	56	6744
2026-01-07 09:01:24.02	92.01	32.51	-43.1	-48.1	10.1	6.27e-03	0	56	0	376438784	56	6920
2026-01-07 09:01:25.03	91.69	32.62	-43.2	-48.4	9.8	8.04e-03	0	56	0	378535936	56	7150
2026-01-07 09:01:26.04	91.37	32.73	-43.4	-48.8	9.2	1.36e-02	0	56	0	380633088	57	7120
2026-01-07 09:01:27.05	91.05	32.84	-43.5	-49.1	9.0	1.99e-02	0	56	0	381681664	57	7352
2026-01-07 09:01:28.05	90.73	32.95	-43.6	-49.5	8.6	3.31e-02	0	56	0	383778816	57	7649
2026-01-07 09:01:29.06	90.40	33.07	-43.6	-49.6	8.6	4.03e-02	0	56	0	385875968	57	7722
2026-01-07 09:01:30.07	90.08	33.18	-43.6	-49.6	8.5	4.32e-02	0	56	0	387973120	57	7788
2026-01-07 09:01:31.09	89.74	33.29	-43.8	-50.0	8.1	5.28e-02	0	56	0	390070272	58	7701
2026-01-07 09:01:32.09	89.41	33.39	-43.8	-50.1	8.0	5.61e-02	0	56	0	391118848	58	7745
2026-01-07 09:01:33.10	89.08	33.50	-43.8	-50.1	8.0	7.03e-02	0	56	0	393216000	58	7764
2026-01-07 09:01:34.11	88.74	33.61	-43.8	-50.1	8.1	6.45e-02	0	56	0	395313152	58	7755
2026-01-07 09:01:35.12	88.40	33.72	-43.8	-50.2	8.0	7.25e-02	0	56	0	397410304	58	7814
2026-01-07 09:01:36.13	88.06	33.82	-43.6	-49.4	8.7	5.82e-02	0	56	0	399507456	58	7173
2026-01-07 09:01:37.14	87.72	33.93	-43.3	-48.4	9.7	1.57e-02	0	56	0	400556032	58	6407
2026-01-07 09:01:38.15	87.37	34.03	-42.9	-47.6	10.6	5.23e-03	0	56	0	402653184	57	6152
2026-01-07 09:01:39.16	87.02	34.14	-42.8	-47.3	10.9	2.57e-03	0	56	0	404750336	57	5954
2026-01-07 09:01:40.17	86.67	34.24	-42.6	-46.9	11.3	1.76e-03	0	56	0	406847488	57	5704
2026-01-07 09:01:41.18	86.32	34.34	-42.6	-46.9	11.3	1.08e-03	0	56	0	408944640	57	5701
2026-01-07 09:01:42.19	85.96	34.44	-42.6	-46.9	11.3	1.52e-03	0	56	0	409993216	57	5706
2026-01-07 09:01:43.20	85.61	34.54	-42.7	-47.1	11.1	1.34e-03	0	56	0	412090368	57	5820
2026-01-07 09:01:44.21	85.25	34.64	-42.5	-46.7	11.5	9.32e-04	0	56	0	414187520	57	5555
2026-01-07 09:01:45.22	84.89	34.74	-42.3	-46.2	12.0	4.00e-04	0	56	0	416284672	56	5588
2026-01-07 09:01:46.23	84.52	34.83	-42.3	-46.2	12.0	2.78e-04	0	56	0	418381824	56	5585
2026-01-07 09:01:47.24	84.16	34.93	-42.3	-46.1	12.2	2.77e-04	0	56	0	419430400	56	5500
2026-01-07 09:01:48.25	83.79	35.03	-42.2	-46.0	12.3	1.88e-04	0	56	0	421527552	56	5409
2026-01-07 09:01:49.26	83.42	35.12	-42.0	-45.6	12.7	1.22e-04	0	56	0	423624704	56	5175
2026-01-07 09:01:50.27	83.05	35.21	-41.6	-45.0	13.2	3.43e-05	0	56	0	425721856	55	5157
2026-01-07 09:01:51.28	82.67	35.30	-41.3	-44.5	13.7	1.52e-05	0	56	0	427819008	54	5137
2026-01-07 09:01:52.29	82.30	35.39	-41.1	-44.1	14.1	3.80e-06	0	56	0	428867584	54	4908
2026-01-07 09:01:53.30	81.92	35.48	-41.1	-44.0	14.2	1.50e-06	0	56	0	430964736	54	4857
2026-01-07 09:01:54.31	81.54	35.57	-41.0	-44.0	14.2	3.80e-06	0	56	0	433061888	54	4827
2026-01-07 09:01:55.32	81.16	35.66	-41.0	-44.0	14.2	1.50e-06	0	56	0	435159040	54	4846
2026-01-07 09:01:56.33	80.77	35.74	-41.0	-43.9	14.3	1.50e-06	0	56	0	437256192	54	4792
2026-01-07 09:01:57.34	80.38	35.83	-40.9	-43.8	14.5	0.00e+00	0	56	0	439353344	53	4986
2026-01-07 09:01:58.35	80.00	35.91	-40.9	-43.8	14.4	0.00e+00	0	56	0	440401920	53	4997
2026-01-07 09:01:59.36	79.60	35.99	-41.0	-43.9	14.3	0.00e+00	0	56	0	442499072	53	5065
2026-01-07 09:02:00.37	79.21	36.07	-41.0	-43.9	14.4	0.00e+00	0	56	0	444596224	53	5052
2026-01-07 09:02:01.38	78.82	36.15	-41.0	-43.8	14.7	3.61e-01	0	56	0	444596224	54	4732
2026-01-07 09:02:02.39	78.42	36.23	-40.9	-43.7	14.6	0.00e+00	0	56	0	446693376	53	4950
2026-01-07 09:02:03.40	78.02	36.31	-40.8	-43.6	14.7	0.00e+00	0	56	0	448790528	53	4914
2026-01-07 09:02:04.41	77.62	36.38	-40.7	-43.4	14.9	0.00e+00	0	56	0	449839104	53	4780
2026-01-07 09:02:05.42	77.22	36.46	-40.6	-43.3	15.1	0.00e+00	0	56	0	451936256	53	4721
2026-01-07 09:02:06.43	76.82	36.53	-40.6	-43.3	15.1	0.00e+00	0	56	0	454033408	53	4720
2026-01-07 09:02:07.44	76.41	36.60	-40.5	-43.0	15.3	0.00e+00	0	56	0	456130560	52	4868
2026-01-07 09:02:08.44	76.01	36.67	-40.3	-42.8	15.6	0.00e+00	0	56	0	458227712	52	4727
2026-01-07 09:02:09.45	75.60	36.73	-40.2	-42.6	15.8	0.00e+00	0	56	0	459276288	52	4622
2026-01-07 09:02:10.46	75.19	36.80	-40.2	-42.6	15.7	0.00e+00	0	56	0	461373440	52	4621
2026-01-07 09:02:11.47	74.78	36.87	-40.1	-42.5	15.9	0.00e+00	0	56	0	463470592	52	4554
2026-01-07 09:02:12.48	74.36	36.93	-39.9	-42.2	16.2	0.00e+00	0	56	0	465567744	51	4685
2026-01-07 09:02:13.49	73.95	36.99	-39.7	-41.9	16.5	0.00e+00	0	56	0	467664896	51	4521
2026-01-07 09:02:14.50	73.53	37.05	-39.7	-41.9	16.6	0.00e+00	0	56	0	468713472	51	4497
2026-01-07 09:02:15.51	73.11	37.11	-39.7	-41.9	16.5	0.00e+00	0	56	0	470810624	51	4539
2026-01-07 09:02:16.52	72.69	37.16	-39.8	-42.1	16.4	0.00e+00	0	56	0	472907776	51	4605
2026-01-07 09:02:17.54	72.27	37.22	-39.9	-42.2	16.3	0.00e+00	0	56	0	475004928	51	4666
2026-01-07 09:02:18.55	71.84	37.27	-40.0	-42.4	16.1	0.00e+00	0	56	0	477102080	51	4770
2026-01-07 09:02:19.56	71.42	37.32	-40.0	-42.4	16.1	0.00e+00	0	56	0	478150656	51	4764
2026-01-07 09:02:20.56	71.00	37.37	-40.1	-42.5	16.0	0.00e+00	0	56	0	480247808	51	4831
2026-01-07 09:02:21.58	70.57	37.42	-40.0	-42.3	16.1	0.00e+00	0	56	0	482344960	51	4749
2026-01-07 09:02:22.59	70.14	37.47	-39.9	-42.1	16.3	0.00e+00	0	56	0	484442112	51	4648
2026-01-07 09:02:23.60	69.71	37.51	-39.8	-42.0	16.5	0.00e+00	0	56	0	486539264	51	4556
2026-01-07 09:02:24.61	69.28	37.55	-39.6	-41.8	16.7	0.00e+00	0	56	0	487587840	51	4472
2026-01-07 09:02:25.62	68.85	37.60	-39.5	-41.7	16.8	0.00e+00	0	56	0	489684992	51	4397
2026-01-07 09:02:26.63	68.42	37.63	-39.5	-41.6	16.8	0.00e+00	0	56	0	491782144	51	4374
2026-01-07 09:02:27.64	67.98	37.67	-39.5	-41.7	16.8	0.00e+00	0	56	0	493879296	50	4666
2026-01-07 09:02:28.65	67.55	37.71	-39.4	-41.5	17.0	0.00e+00	0	56	0	495976448	50	4572
2026-01-07 09:02:29.66	67.11	37.74	-39.6	-41.7	16.8	0.00e+00	0	56	0	497025024	50	4692
2026-01-07 09:02:30.67	66.68	37.77	-39.7	-41.9	16.5	0.00e+00	0	56	0	499122176	50	4800
2026-01-07 09:02:31.68	66.24	37.80	-39.7	-41.9	16.6	0.00e+00	0	56	0	501219328	50	4762
2026-01-07 09:02:32.69	65.80	37.83	-39.8	-42.0	16.5	0.00e+00	0	56	0	503316480	50	4834
2026-01-07 09:02:33.70	65.37	37.86	-40.0	-42.3	16.2	0.00e+00	0	56	0	505413632	50	5031
2026-01-07 09:02:34.71	64.93	37.88	-40.2	-42.6	15.9	0.00e+00	0	56	0	506462208	50	5183
2026-01-07 09:02:35.72	64.49	37.90	-40.3	-42.7	15.7	0.00e+00	0	56	0	508559360	51	4971
2026-01-07 09:02:36.73	64.05	37.92	-40.3	-42.7	15.8	0.00e+00	0	56	0	510656512	51	4941
2026-01-07 09:02:37.74	63.61	37.94	-40.6	-43.1	15.3	0.00e+00	0	56	0	512753664	51	5214
2026-01-07 09:02:38.75	63.16	37.96	-40.8	-43.5	14.9	0.00e+00	0	56	0	514850816	52	5137
2026-01-07 09:02:39.76	62.72	37.97	-40.8	-43.6	14.8	0.00e+00	0	56	0	516947968	52	5190
2026-01-07 09:02:40.77	62.28	37.99	-40.7	-43.4	15.0	0.00e+00	0	56	0	517996544	52	5066
2026-01-07 09:02:41.78	61.84	38.00	-40.6	-43.2	15.2	0.00e+00	0	56	0	520093696	52	4969
2026-01-07 09:02:42.79	61.40	38.01	-40.6	-43.3	15.1	0.00e+00	0	56	0	522190848	52	4986
2026-01-07 09:02:43.80	60.95	38.01	-40.9	-43.7	14.7	7.00e-07	0	56	0	524288000	52	5229
2026-01-07 09:02:44.81	60.51	38.02	-41.0	-43.8	14.7	0.00e+00	0	56	0	526385152	52	5302
2026-01-07 09:02:45.82	60.07	38.02	-40.9	-43.8	14.6	1.50e-06	0	56	0	527433728	52	5286
2026-01-07 09:02:46.83	59.62	38.02	-40.9	-43.8	14.7	0.00e+00	0	56	0	529530880	52	5292
2026-01-07 09:02:47.84	59.18	38.02	-41.0	-43.9	14.5	0.00e+00	0	56	0	531628032	52	5357
2026-01-07 09:02:48.85	58.74	38.02	-41.0	-43.9	14.5	7.00e-07	0	56	0	533725184	52	5369
2026-01-07 09:02:49.86	58.29	38.01	-41.1	-44.0	14.4	0.00e+00	0	56	0	535822336	52	5408
2026-01-07 09:02:50.86	57.86	38.01	-41.1	-44.0	14.4	7.00e-07	0	56	0	536870912	52	5421
2026-01-07 09:02:51.87	57.41	38.00	-41.1	-44.0	14.4	7.00e-07	0	56	0	538968064	53	5118
2026-01-07 09:02:52.88	56.97	37.99	-40.9	-43.7	14.7	0.00e+00	0	56	0	541065216	53	4942
2026-01-07 09:02:53.89	56.53	37.97	-40.8	-43.5	14.9	7.00e-07	0	56	0	543162368	53	4868
2026-01-07 09:02:54.90	56.09	37.96	-41.0	-43.8	14.6	0.00e+00	0	56	0	545259520	53	5012
2026-01-07 09:02:55.91	55.65	37.94	-41.3	-44.4	14.0	2.20e-06	0	56	0	546308096	53	5359
2026-01-07 09:02:56.92	55.21	37.93	-41.5	-44.7	13.6	8.30e-06	0	56	0	548405248	53	5568
2026-01-07 09:02:57.93	54.77	37.91	-41.5	-44.6	13.7	9.10e-06	0	56	0	550502400	53	5511
2026-01-07 09:02:58.94	54.33	37.88	-41.5	-44.7	13.6	7.60e-06	0	56	0	552599552	53	5566
2026-01-07 09:02:59.95	53.89	37.86	-41.6	-44.8	13.5	8.30e-06	0	56	0	554696704	53	5639
2026-01-07 09:03:00.96	53.45	37.83	-41.8	-45.1	13.3	1.75e-05	0	56	0	555745280	54	5526
2026-01-07 09:03:01.97	53.01	37.81	-41.6	-44.9	13.5	1.44e-05	0	56	0	557842432	54	5368
2026-01-07 09:03:02.98	52.58	37.78	-41.6	-44.9	13.5	1.06e-05	0	56	0	559939584	54	5354
2026-01-07 09:03:03.99	52.14	37.74	-41.8	-45.2	13.2	1.44e-05	0	56	0	562036736	54	5558
2026-01-07 09:03:05.00	51.70	37.71	-42.0	-45.5	12.8	5.34e-05	0	56	0	564133888	54	5767
2026-01-07 09:03:06.01	51.27	37.67	-42.0	-45.5	12.8	4.95e-05	0	56	0	565182464	54	5725
2026-01-07 09:03:07.02	50.84	37.64	-42.0	-45.5	12.8	4.19e-05	0	56	0	567279616	54	5784
2026-01-07 09:03:08.03	50.41	37.60	-42.1	-45.7	12.6	6.48e-05	0	56	0	569376768	54	5867
2026-01-07 09:03:09.04	49.97	37.56	-42.2	-45.9	12.4	1.28e-04	0	56	0	571473920	54	6048
2026-01-07 09:03:10.05	49.54	37.52	-42.1	-45.8	12.5	1.41e-04	0	56	0	573571072	55	5646
2026-01-07 09:03:11.06	49.12	37.47	-42.1	-45.8	12.6	9.15e-05	0	56	0	574619648	55	5602
2026-01-07 09:03:12.07	48.69	37.43	-42.1	-45.7	12.7	1.16e-04	0	56	0	576716800	55	5586
2026-01-07 09:03:13.08	48.26	37.38	-42.1	-45.7	12.5	9.53e-05	0	56	0	578813952	55	5590
2026-01-07 09:03:14.09	47.84	37.33	-42.1	-45.7	12.6	9.53e-05	0	56	0	580911104	55	5572
2026-01-07 09:03:15.10	47.41	37.28	-42.0	-45.5	12.9	7.40e-05	0	56	0	583008256	55	5464
2026-01-07 09:03:16.11	46.99	37.22	-41.9	-45.4	13.0	3.35e-05	0	56	0	585105408	55	5348
2026-01-07 09:03:17.12	46.57	37.17	-41.7	-45.1	13.3	2.44e-05	0	56	0	586153984	55	5172
2026-01-07 09:03:18.13	46.15	37.11	-41.6	-44.8	13.5	5.30e-06	0	56	0	588251136	55	5012
2026-01-07 09:03:19.14	45.73	37.06	-41.6	-44.8	13.5	6.80e-06	0	56	0	590348288	55	5035
2026-01-07 09:03:20.15	45.32	37.00	-41.5	-44.6	13.7	8.30e-06	0	56	0	592445440	54	5215
2026-01-07 09:03:21.16	44.90	36.93	-41.3	-44.3	14.0	2.20e-06	0	56	0	594542592	54	5024
2026-01-07 09:03:22.17	44.49	36.87	-41.1	-44.1	14.3	0.00e+00	0	56	0	595591168	54	4881
2026-01-07 09:03:23.18	44.08	36.81	-40.9	-43.7	14.7	0.00e+00	0	56	0	597688320	53	4940
2026-01-07 09:03:24.19	43.67	36.74	-40.8	-43.6	14.8	0.00e+00	0	56	0	599785472	53	4871
2026-01-07 09:03:25.20	43.26	36.67	-40.8	-43.5	14.9	7.00e-07	0	56	0	601882624	53	4828
2026-01-07 09:03:26.21	42.85	36.61	-40.6	-43.1	15.2	0.00e+00	0	56	0	603979776	53	4647
2026-01-07 09:03:27.21	42.45	36.54	-40.3	-42.8	15.6	0.00e+00	0	56	0	605028352	52	4743
2026-01-07 09:03:28.23	42.05	36.46	-40.1	-42.5	15.8	0.00e+00	0	56	0	607125504	52	4588
2026-01-07 09:03:29.23	41.65	36.39	-40.1	-42.5	15.9	0.00e+00	0	56	0	609222656	52	4569
2026-01-07 09:03:30.24	41.25	36.32	-40.2	-42.6	15.9	0.00e+00	0	56	0	611319808	52	4607
2026-01-07 09:03:31.25	40.85	36.24	-40.2	-42.6	15.8	0.00e+00	0	56	0	613416960	52	4633
2026-01-07 09:03:32.26	40.46	36.16	-40.1	-42.5	15.9	0.00e+00	0	56	0	614465536	52	4587
2026-01-07 09:03:33.27	40.06	36.08	-40.0	-42.3	16.1	0.00e+00	0	56	0	616562688	52	4473
2026-01-07 09:03:34.28	39.67	36.00	-40.0	-42.2	16.2	0.00e+00	0	56	0	618659840	51	4700
2026-01-07 09:03:35.29	39.28	35.92	-40.1	-42.4	16.1	0.00e+00	0	56	0	620756992	51	4770
2026-01-07 09:03:36.30	38.89	35.84	-40.2	-42.6	15.9	0.00e+00	0	56	0	622854144	51	4909
2026-01-07 09:03:37.31	38.51	35.76	-40.4	-42.9	15.6	0.00e+00	0	56	0	623902720	51	5100
2026-01-07 09:03:38.32	38.12	35.67	-40.4	-42.9	15.5	0.00e+00	0	56	0	625999872	51	5089
2026-01-07 09:03:39.33	37.74	35.58	-40.4	-42.9	15.5	0.00e+00	0	56	0	628097024	51	5079
2026-01-07 09:03:40.34	37.36	35.50	-40.5	-43.1	15.3	0.00e+00	0	56	0	630194176	51	5180
2026-01-07 09:03:41.35	36.98	35.41	-40.7	-43.3	15.0	0.00e+00	0	56	0	632291328	52	5024
2026-01-07 09:03:42.36	36.61	35.32	-40.8	-43.6	14.9	0.00e+00	0	56	0	633339904	52	5164
2026-01-07 09:03:43.37	36.24	35.23	-40.9	-43.7	14.7	0.00e+00	0	56	0	635437056	52	5231
2026-01-07 09:03:44.38	35.86	35.13	-40.9	-43.7	14.7	7.00e-07	0	56	0	637534208	52	5261
2026-01-07 09:03:45.39	35.50	35.04	-41.0	-43.9	14.5	7.00e-07	0	56	0	639631360	52	5369
2026-01-07 09:03:46.40	35.13	34.95	-40.9	-43.8	14.6	0.00e+00	0	56	0	641728512	52	5285
2026-01-07 09:03:47.40	34.77	34.85	-40.9	-43.7	14.7	7.00e-07	0	56	0	642777088	52	5254
2026-01-07 09:03:48.41	34.40	34.75	-40.8	-43.6	14.8	0.00e+00	0	56	0	644874240	52	5170
2026-01-07 09:03:49.42	34.04	34.66	-40.9	-43.8	14.6	7.00e-07	0	56	0	646971392	52	5291
2026-01-07 09:03:50.43	33.69	34.56	-41.0	-43.9	14.4	7.00e-07	0	56	0	649068544	52	5385
2026-01-07 09:03:51.44	33.33	34.46	-41.1	-44.0	14.4	7.00e-07	0	56	0	651165696	52	5407
2026-01-07 09:03:52.45	32.98	34.36	-41.0	-43.8	14.5	0.00e+00	0	56	0	653262848	52	5320
2026-01-07 09:03:53.46	32.62	34.26	-41.1	-44.0	14.3	0.00e+00	0	56	0	654311424	52	5457
2026-01-07 09:03:54.47	32.27	34.16	-41.1	-44.1	14.3	0.00e+00	0	57	0	656408576	52	5480
2026-01-07 09:03:55.48	31.93	34.05	-41.1	-44.0	14.3	1.50e-06	0	56	0	658505728	52	5407
2026-01-07 09:03:56.49	31.58	33.95	-41.0	-43.9	14.4	7.00e-07	0	56	0	660602880	52	5365
2026-01-07 09:03:57.50	31.24	33.84	-41.1	-44.0	14.3	0.00e+00	0	56	0	662700032	52	5455
2026-01-07 09:03:58.51	30.90	33.74	-41.1	-44.1	14.3	2.20e-06	0	57	0	663748608	52	5484
2026-01-07 09:03:59.52	30.56	33.63	-41.2	-44.1	14.2	1.50e-06	0	56	0	665845760	52	5511
2026-01-07 09:04:00.53	30.22	33.52	-41.1	-44.0	14.4	1.50e-06	0	57	0	667942912	52	5417
2026-01-07 09:04:01.54	29.89	33.42	-41.1	-44.0	14.4	2.20e-06	0	56	0	670040064	52	5416
2026-01-07 09:04:02.55	29.56	33.31	-41.1	-44.0	14.4	7.00e-07	0	56	0	672137216	52	5413
2026-01-07 09:04:03.56	29.23	33.20	-41.0	-43.9	14.4	0.00e+00	0	56	0	673185792	52	5372
2026-01-07 09:04:04.57	28.90	33.09	-41.0	-43.9	14.5	7.00e-07	0	56	0	675282944	52	5352
2026-01-07 09:04:05.58	28.58	32.98	-41.1	-44.1	14.3	0.00e+00	0	56	0	677380096	52	5471
2026-01-07 09:04:06.59	28.25	32.87	-41.3	-44.4	14.1	0.00e+00	0	56	0	679477248	53	5348
2026-01-07 09:04:07.60	27.93	32.76	-41.4	-44.6	13.8	4.50e-06	0	56	0	681574400	53	5495
2026-01-07 09:04:08.61	27.61	32.64	-41.5	-44.7	13.6	9.10e-06	0	56	0	682622976	53	5566
2026-01-07 09:04:09.62	27.30	32.53	-41.6	-44.9	13.4	5.30e-06	0	56	0	684720128	53	5705
2026-01-07 09:04:10.63	26.98	32.42	-41.6	-45.0	13.3	1.67e-05	0	56	0	686817280	53	5755
2026-01-07 09:04:11.64	26.67	32.30	-41.7	-45.1	13.2	1.67e-05	0	56	0	688914432	53	5819
2026-01-07 09:04:12.65	26.36	32.19	-41.7	-45.0	13.3	1.83e-05	0	56	0	691011584	53	5768
2026-01-07 09:04:13.66	26.06	32.07	-41.9	-45.4	13.0	1.90e-05	0	56	0	692060160	54	5690
2026-01-07 09:04:14.67	25.75	31.96	-41.9	-45.4	12.9	4.65e-05	0	56	0	694157312	54	5688
2026-01-07 09:04:15.67	25.45	31.84	-41.9	-45.5	12.8	4.73e-05	0	56	0	696254464	54	5786
2026-01-07 09:04:16.69	25.15	31.73	-41.9	-45.5	12.9	4.88e-05	0	56	0	698351616	54	5740
2026-01-07 09:04:17.70	24.85	31.61	-42.0	-45.6	12.7	5.64e-05	0	56	0	700448768	54	5822
2026-01-07 09:04:18.71	24.55	31.49	-42.0	-45.7	12.7	5.87e-05	0	56	0	701497344	54	5868
2026-01-07 09:04:19.72	24.26	31.37	-42.1	-45.8	12.5	1.14e-04	0	56	0	703594496	54	5990
2026-01-07 09:04:20.73	23.97	31.26	-42.1	-45.8	12.5	9.23e-05	0	56	0	705691648	54	5965
2026-01-07 09:04:21.74	23.68	31.14	-42.1	-45.9	12.4	1.62e-04	0	56	0	707788800	54	6012
2026-01-07 09:04:22.75	23.39	31.02	-42.1	-45.9	12.4	1.56e-04	0	56	0	709885952	54	6030
2026-01-07 09:04:23.76	23.10	30.90	-42.1	-45.8	12.5	1.30e-04	0	57	0	710934528	54	5951
2026-01-07 09:04:24.76	22.82	30.78	-41.9	-45.4	12.9	8.16e-05	0	56	0	713031680	54	5703
2026-01-07 09:04:25.78	22.54	30.66	-41.7	-45.2	13.1	3.73e-05	0	56	0	715128832	54	5536
2026-01-07 09:04:26.79	22.26	30.54	-41.6	-45.0	13.3	1.98e-05	0	56	0	717225984	54	5426
2026-01-07 09:04:27.80	21.98	30.42	-41.7	-45.1	13.3	1.44e-05	0	56	0	719323136	54	5475
2026-01-07 09:04:28.81	21.71	30.30	-41.8	-45.3	13.0	1.98e-05	0	56	0	721420288	54	5609
2026-01-07 09:04:29.82	21.43	30.18	-41.8	-45.2	13.1	4.04e-05	0	56	0	722468864	54	5556
2026-01-07 09:04:30.83	21.16	30.06	-41.8	-45.3	13.0	3.28e-05	0	56	0	724566016	54	5614
2026-01-07 09:04:31.84	20.89	29.94	-41.6	-44.9	13.4	2.44e-05	0	56	0	726663168	54	5392
2026-01-07 09:04:32.85	20.63	29.82	-41.5	-44.7	13.6	3.80e-06	0	56	0	728760320	54	5269
2026-01-07 09:04:33.86	20.36	29.70	-41.3	-44.4	13.9	6.80e-06	0	56	0	730857472	54	5090
2026-01-07 09:04:34.87	20.10	29.57	-41.3	-44.4	13.9	2.20e-06	0	56	0	731906048	54	5090
2026-01-07 09:04:35.88	19.84	29.45	-41.2	-44.3	14.1	1.50e-06	0	56	0	734003200	54	4987
2026-01-07 09:04:36.89	19.58	29.33	-41.2	-44.2	14.1	1.50e-06	0	56	0	736100352	54	4982
2026-01-07 09:04:37.90	19.32	29.21	-41.0	-44.0	14.3	7.00e-07	0	56	0	738197504	54	4815
2026-01-07 09:04:38.91	19.07	29.09	-41.0	-44.0	14.4	0.00e+00	0	56	0	740294656	54	4830
2026-01-07 09:04:39.92	18.82	28.97	-41.0	-44.0	14.3	0.00e+00	0	56	0	741343232	54	4824
2026-01-07 09:04:40.93	18.56	28.84	-40.9	-43.8	14.4	0.00e+00	0	56	0	743440384	53	5035
2026-01-07 09:04:41.94	18.32	28.72	-40.9	-43.8	14.5	0.00e+00	0	56	0	745537536	53	4997
2026-01-07 09:04:42.95	18.07	28.60	-40.9	-43.7	14.5	1.50e-06	0	56	0	747634688	53	4983
2026-01-07 09:04:43.96	17.82	28.48	-40.7	-43.5	14.8	7.00e-07	0	56	0	749731840	53	4835
2026-01-07 09:04:44.97	17.58	28.35	-40.7	-43.5	14.8	0.00e+00	0	56	0	750780416	53	4840
2026-01-07 09:04:45.98	17.34	28.23	-40.8	-43.6	14.6	7.00e-07	0	56	0	752877568	53	4919
2026-01-07 09:04:46.99	17.10	28.11	-40.8	-43.7	14.6	0.00e+00	0	56	0	754974720	53	4937
2026-01-07 09:04:48.00	16.86	27.99	-40.8	-43.6	14.6	0.00e+00	0	56	0	757071872	53	4917
2026-01-07 09:04:49.01	16.62	27.86	-40.6	-43.3	15.0	0.00e+00	0	56	0	759169024	53	4714
2026-01-07 09:04:50.02	16.39	27.74	-40.5	-43.2	15.1	0.00e+00	0	56	0	760217600	53	4682
2026-01-07 09:04:51.02	16.16	27.62	-40.6	-43.3	15.0	0.00e+00	0	56	0	762314752	53	4739
2026-01-07 09:04:52.03	15.93	27.50	-40.6	-43.3	15.0	7.00e-07	0	56	0	764411904	53	4710
2026-01-07 09:04:53.04	15.70	27.37	-40.6	-43.3	15.0	0.00e+00	0	56	0	766509056	53	4744
2026-01-07 09:04:54.05	15.47	27.25	-40.7	-43.5	14.8	7.00e-07	0	57	0	768606208	53	4834
2026-01-07 09:04:55.06	15.25	27.13	-40.6	-43.3	15.0	0.00e+00	0	56	0	769654784	53	4727
2026-01-07 09:04:56.07	15.03	27.01	-40.5	-43.2	15.1	0.00e+00	0	56	0	771751936	53	4685
2026-01-07 09:04:57.08	14.80	26.88	-40.5	-43.2	15.1	0.00e+00	0	56	0	773849088	53	4654
2026-01-07 09:04:58.09	14.58	26.76	-40.6	-43.3	15.0	0.00e+00	0	56	0	775946240	53	4735
2026-01-07 09:04:59.10	14.37	26.64	-40.5	-43.2	15.0	0.00e+00	0	56	0	778043392	53	4700
2026-01-07 09:05:00.12	14.15	26.52	-40.6	-43.4	14.9	0.00e+00	0	56	0	779091968	53	4784
2026-01-07 09:05:01.12	13.93	26.40	-40.6	-43.3	14.9	0.00e+00	0	56	0	781189120	53	4739
2026-01-07 09:05:02.13	13.72	26.27	-40.7	-43.4	14.8	0.00e+00	0	56	0	783286272	53	4801
2026-01-07 09:05:03.14	13.51	26.15	-40.6	-43.3	15.0	0.00e+00	0	56	0	785383424	53	4729
2026-01-07 09:05:04.15	13.30	26.03	-40.6	-43.4	14.9	0.00e+00	0	56	0	787480576	53	4779
2026-01-07 09:05:05.16	13.09	25.91	-40.6	-43.4	14.9	0.00e+00	0	56	0	789577728	53	4768
2026-01-07 09:05:06.17	12.89	25.79	-40.6	-43.3	15.0	0.00e+00	0	57	0	790626304	53	4725
2026-01-07 09:05:07.18	12.68	25.67	-40.5	-43.2	15.1	7.00e-07	0	57	0	792723456	52	4946
2026-01-07 09:05:08.19	12.48	25.55	-40.5	-43.2	15.0	0.00e+00	0	56	0	794820608	52	4956
2026-01-07 09:05:09.20	12.27	25.43	-40.5	-43.1	15.1	0.00e+00	0	56	0	796917760	52	4922
2026-01-07 09:05:10.21	12.07	25.31	-40.4	-43.0	15.2	0.00e+00	0	57	0	799014912	52	4868
2026-01-07 09:05:11.22	11.88	25.18	-40.4	-43.1	15.1	0.00e+00	0	56	0	800063488	52	4909
2026-01-07 09:05:12.23	11.68	25.06	-40.4	-43.1	15.2	0.00e+00	0	56	0	802160640	52	4875
2026-01-07 09:05:13.24	11.48	24.94	-40.4	-43.0	15.2	0.00e+00	0	56	0	804257792	52	4848
2026-01-07 09:05:14.25	11.29	24.82	-40.4	-43.0	15.2	0.00e+00	0	56	0	806354944	52	4843
2026-01-07 09:05:15.26	11.10	24.70	-40.4	-43.1	15.1	0.00e+00	0	56	0	808452096	52	4904
2026-01-07 09:05:16.27	10.90	24.58	-40.5	-43.3	14.9	0.00e+00	0	56	0	809500672	52	4991
2026-01-07 09:05:17.28	10.71	24.47	-40.6	-43.3	14.9	0.00e+00	0	57	0	811597824	52	5005
2026-01-07 09:05:18.29	10.53	24.35	-40.6	-43.4	14.8	7.00e-07	0	57	0	813694976	52	5081
2026-01-07 09:05:19.30	10.34	24.23	-40.8	-43.7	14.5	7.00e-07	0	56	0	815792128	52	5224
2026-01-07 09:05:20.30	10.16	24.11	-40.7	-43.6	14.6	0.00e+00	0	56	0	817889280	52	5186
2026-01-07 09:05:21.31	9.97	23.99	-40.8	-43.6	14.5	0.00e+00	0	56	0	818937856	52	5206
2026-01-07 09:05:22.32	9.79	23.87	-40.7	-43.5	14.7	0.00e+00	0	56	0	821035008	52	5124
2026-01-07 09:05:23.33	9.61	23.75	-40.6	-43.4	14.9	7.00e-07	0	56	0	823132160	52	5047
2026-01-07 09:05:24.34	9.43	23.64	-40.6	-43.3	14.9	0.00e+00	0	56	0	825229312	52	5009
2026-01-07 09:05:25.35	9.25	23.52	-40.5	-43.2	14.9	0.00e+00	0	56	0	827326464	52	4974
2026-01-07 09:05:26.36	9.07	23.40	-40.6	-43.3	14.8	0.00e+00	0	57	0	828375040	52	5029
2026-01-07 09:05:27.37	8.90	23.28	-40.6	-43.4	14.7	0.00e+00	0	56	0	830472192	52	5078
2026-01-07 09:05:28.38	8.72	23.17	-40.8	-43.8	14.3	0.00e+00	0	56	0	832569344	52	5302
2026-01-07 09:05:29.39	8.55	23.05	-40.9	-43.9	14.3	1.50e-06	0	57	0	834666496	52	5367
2026-01-07 09:05:30.40	8.38	22.93	-41.0	-44.0	14.1	2.20e-06	0	56	0	836763648	52	5462
2026-01-07 09:05:31.41	8.21	22.82	-41.0	-44.0	14.1	2.20e-06	0	56	0	837812224	52	5422
2026-01-07 09:05:32.42	8.04	22.70	-41.0	-44.1	14.0	3.00e-06	0	57	0	839909376	52	5502
2026-01-07 09:05:33.43	7.87	22.59	-41.0	-44.1	14.0	0.00e+00	0	57	0	842006528	52	5474
2026-01-07 09:05:34.44	7.70	22.47	-41.0	-44.0	14.1	7.00e-07	0	56	0	844103680	52	5429
2026-01-07 09:05:35.45	7.54	22.36	-41.0	-44.0	14.1	1.50e-06	0	57	0	846200832	52	5441
2026-01-07 09:05:36.46	7.37	22.24	-41.0	-44.0	14.1	2.20e-06	0	57	0	847249408	52	5456
2026-01-07 09:05:37.47	7.21	22.13	-41.0	-44.0	14.1	3.00e-06	0	56	0	849346560	52	5427
2026-01-07 09:05:38.48	7.05	22.01	-41.0	-44.0	14.1	1.50e-06	0	56	0	851443712	52	5436
2026-01-07 09:05:39.49	6.89	21.90	-41.0	-44.1	14.0	1.50e-06	0	57	0	853540864	52	5466
2026-01-07 09:05:40.50	6.73	21.78	-41.0	-44.0	14.1	2.20e-06	0	57	0	855638016	52	5445
2026-01-07 09:05:41.51	6.57	21.67	-41.0	-44.1	14.0	1.50e-06	0	57	0	857735168	52	5483
2026-01-07 09:05:42.53	6.41	21.56	-40.9	-44.0	14.1	5.30e-06	0	57	0	858783744	52	5416
2026-01-07 09:05:43.54	6.26	21.44	-40.9	-44.0	14.1	2.20e-06	0	57	0	860880896	52	5414
2026-01-07 09:05:44.54	6.10	21.33	-40.8	-43.8	14.3	7.00e-07	0	57	0	862978048	52	5287
2026-01-07 09:05:45.55	5.95	21.22	-40.8	-43.8	14.2	2.20e-06	0	57	0	865075200	52	5327
2026-01-07 09:05:46.56	5.80	21.11	-40.8	-43.9	14.1	7.00e-07	0	56	0	867172352	52	5354
2026-01-07 09:05:47.57	5.65	20.99	-40.8	-43.8	14.2	1.50e-06	0	56	0	868220928	52	5314
2026-01-07 09:05:48.58	5.50	20.88	-40.8	-43.8	14.2	3.80e-06	0	57	0	870318080	52	5332
2026-01-07 09:05:49.59	5.35	20.77	-40.9	-44.0	14.0	1.50e-06	0	56	0	872415232	52	5433
2026-01-07 09:05:50.61	5.20	20.66	-41.0	-44.1	13.8	2.20e-06	0	56	0	874512384	52	5525
2026-01-07 09:05:51.61	5.05	20.55	-41.0	-44.2	13.7	4.50e-06	0	57	0	876609536	52	5578
2026-01-07 09:05:52.62	4.91	20.44	-41.1	-44.4	13.5	9.10e-06	0	56	0	877658112	52	5681
2026-01-07 09:05:53.63	4.76	20.33	-41.1	-44.4	13.5	5.30e-06	0	57	0	879755264	52	5680
2026-01-07 09:05:54.64	4.62	20.22	-41.1	-44.4	13.6	1.14e-05	0	57	0	881852416	52	5661
2026-01-07 09:05:55.65	4.48	20.11	-41.0	-44.2	13.7	6.80e-06	0	57	0	883949568	52	5578
2026-01-07 09:05:56.66	4.34	20.00	-41.0	-44.2	13.7	8.30e-06	0	57	0	886046720	52	5579
2026-01-07 09:05:57.67	4.20	19.89	-41.0	-44.1	13.7	3.00e-06	0	56	0	887095296	52	5521
2026-01-07 09:05:58.68	4.06	19.78	-40.9	-44.1	13.8	6.10e-06	0	57	0	889192448	52	5491
2026-01-07 09:05:59.69	3.92	19.67	-40.9	-44.1	13.8	3.80e-06	0	56	0	891289600	52	5471
2026-01-07 09:06:00.70	3.78	19.57	-40.9	-44.0	13.9	2.20e-06	0	57	0	893386752	52	5417
2026-01-07 09:06:01.71	3.64	19.46	-40.8	-43.9	13.9	3.80e-06	0	57	0	895483904	52	5378
2026-01-07 09:06:02.72	3.51	19.35	-40.9	-44.0	13.9	5.30e-06	0	57	0	896532480	52	5432
2026-01-07 09:06:03.73	3.37	19.24	-40.8	-43.9	13.9	3.80e-06	0	56	0	898629632	52	5385
2026-01-07 09:06:04.74	3.24	19.14	-40.8	-43.9	14.0	3.80e-06	0	57	0	900726784	52	5349
2026-01-07 09:06:05.75	3.11	19.03	-40.7	-43.8	14.0	3.00e-06	0	57	0	902823936	52	5301
2026-01-07 09:06:06.76	2.98	18.92	-40.7	-43.8	14.0	2.20e-06	0	57	0	904921088	52	5325
2026-01-07 09:06:07.77	2.85	18.82	-40.7	-43.8	14.0	5.30e-06	0	56	0	905969664	52	5297
2026-01-07 09:06:08.78	2.72	18.71	-40.7	-43.8	14.0	2.20e-06	0	57	0	908066816	52	5322
2026-01-07 09:06:09.79	2.59	18.61	-40.8	-43.9	13.9	4.50e-06	0	57	0	910163968	52	5379
2026-01-07 09:06:10.80	2.46	18.50	-40.8	-44.0	13.8	3.00e-06	0	57	0	912261120	52	5420
2026-01-07 09:06:11.81	2.33	18.40	-40.8	-44.0	13.8	1.50e-06	0	56	0	914358272	52	5423
2026-01-07 09:06:12.81	2.21	18.29	-40.9	-44.1	13.6	5.30e-06	0	56	0	915406848	52	5524
2026-01-07 09:06:13.82	2.08	18.19	-40.8	-44.1	13.6	1.22e-05	0	57	0	917504000	52	5475
2026-01-07 09:06:14.83	1.96	18.09	-40.9	-44.1	13.6	8.30e-06	0	56	0	919601152	52	5505
2026-01-07 09:06:15.84	1.83	17.98	-40.9	-44.2	13.5	6.80e-06	0	56	0	921698304	52	5561
2026-01-07 09:06:16.85	1.71	17.88	-40.9	-44.2	13.5	9.10e-06	0	57	0	923795456	52	5551
2026-01-07 09:06:17.86	1.59	17.78	-40.9	-44.2	13.5	9.10e-06	0	56	0	924844032	52	5543
2026-01-07 09:06:18.87	1.47	17.67	-40.9	-44.2	13.4	1.52e-05	0	57	0	926941184	52	5550
2026-01-07 09:06:19.88	1.35	17.57	-40.8	-44.1	13.5	1.14e-05	0	57	0	929038336	52	5486
2026-01-07 09:06:20.89	1.23	17.47	-40.8	-44.0	13.6	1.06e-05	0	57	0	931135488	52	5424
2026-01-07 09:06:21.90	1.11	17.37	-40.8	-44.0	13.6	7.60e-06	0	57	0	933232640	52	5427
2026-01-07 09:06:22.91	0.99	17.26	-40.7	-44.0	13.6	9.10e-06	0	56	0	935329792	52	5411
2026-01-07 09:06:23.92	0.88	17.16	-40.6	-43.8	13.7	9.10e-06	0	57	0	936378368	52	5339
2026-01-07 09:06:24.93	0.76	17.06	-40.6	-43.9	13.7	9.90e-06	0	57	0	938475520	52	5345
2026-01-07 09:06:25.94	0.65	16.96	-40.6	-43.9	13.6	9.90e-06	0	57	0	940572672	52	5369
2026-01-07 09:06:26.95	0.53	16.86	-40.6	-43.9	13.6	4.50e-06	0	57	0	942669824	52	5348
2026-01-07 09:06:27.96	0.42	16.76	-40.6	-43.8	13.6	6.80e-06	0	57	0	944766976	52	5319
2026-01-07 09:06:28.97	0.30	16.66	-40.6	-43.8	13.6	6.80e-06	0	56	0	945815552	52	5302
2026-01-07 09:06:29.98	0.19	16.56	-40.5	-43.7	13.7	3.00e-06	0	56	0	947912704	52	5279
2026-01-07 09:06:31.00	0.08	16.46	-40.5	-43.6	13.8	7.60e-06	0	57	0	950009856	52	5217
2026-01-07 09:06:32.01	359.97	16.36	-40.6	-43.8	13.6	7.60e-06	0	57	0	952107008	52	5321
2026-01-07 09:06:33.01	359.86	16.26	-40.5	-43.7	13.7	1.14e-05	0	57	0	954204160	52	5248
2026-01-07 09:06:34.03	359.75	16.17	-40.5	-43.7	13.7	6.10e-06	0	56	0	955252736	52	5221
2026-01-07 09:06:35.04	359.64	16.07	-40.5	-43.7	13.6	5.30e-06	0	56	0	957349888	52	5275
2026-01-07 09:06:36.05	359.54	15.97	-40.4	-43.6	13.7	5.30e-06	0	57	0	959447040	52	5210
2026-01-07 09:06:37.05	359.43	15.87	-40.5	-43.9	13.4	6.80e-06	0	56	0	961544192	52	5366
2026-01-07 09:06:38.06	359.32	15.78	-40.6	-44.1	13.1	2.13e-05	0	57	0	963641344	52	5503
2026-01-07 09:06:39.07	359.22	15.68	-40.5	-44.0	13.2	2.21e-05	0	57	0	964689920	52	5442
2026-01-07 09:06:40.08	359.11	15.58	-40.6	-44.3	12.9	3.20e-05	0	57	0	966787072	52	5608
2026-01-07 09:06:41.09	359.01	15.49	-40.7	-44.5	12.6	7.93e-05	0	57	0	968884224	52	5731
2026-01-07 09:06:42.11	358.90	15.39	-40.6	-44.4	12.6	9.53e-05	0	56	0	970981376	52	5659
2026-01-07 09:06:43.12	358.80	15.29	-40.5	-44.2	12.8	6.94e-05	0	57	0	973078528	52	5561
2026-01-07 09:06:44.13	358.70	15.20	-40.7	-44.5	12.4	1.04e-04	0	57	0	975175680	52	5765
2026-01-07 09:06:45.14	358.60	15.10	-40.7	-44.7	12.2	2.35e-04	0	56	0	976224256	52	5866
2026-01-07 09:06:46.15	358.50	15.01	-40.6	-44.6	12.2	2.23e-04	0	57	0	978321408	52	5801
2026-01-07 09:06:47.16	358.40	14.91	-40.6	-44.6	12.2	2.31e-04	0	57	0	980418560	52	5789
2026-01-07 09:06:48.16	358.30	14.82	-40.5	-44.3	12.4	1.98e-04	0	57	0	982515712	52	5649
2026-01-07 09:06:49.17	358.20	14.73	-40.4	-44.3	12.4	1.47e-04	0	57	0	983564288	52	5621
2026-01-07 09:06:50.19	358.10	14.63	-40.4	-44.2	12.4	1.41e-04	0	57	0	985661440	52	5590
2026-01-07 09:06:51.20	358.01	14.54	-40.4	-44.4	12.2	1.66e-04	0	57	0	987758592	52	5684
2026-01-07 09:06:52.21	357.91	14.44	-40.4	-44.4	12.1	2.62e-04	0	57	0	989855744	52	5717
2026-01-07 09:06:53.21	357.81	14.35	-40.4	-44.6	11.9	4.05e-04	0	57	0	991952896	52	5816
2026-01-07 09:06:54.23	357.72	14.26	-40.4	-44.7	11.7	4.90e-04	0	57	0	993001472	52	5869
2026-01-07 09:06:55.24	357.62	14.17	-40.4	-44.8	11.5	7.09e-04	0	57	0	995098624	52	5940
2026-01-07 09:06:56.24	357.53	14.07	-40.4	-44.7	11.5	6.71e-04	0	57	0	997195776	52	5909
2026-01-07 09:06:57.25	357.43	13.98	-40.4	-44.9	11.4	8.96e-04	0	56	0	999292928	52	5995
2026-01-07 09:06:58.26	357.34	13.89	-40.4	-44.8	11.3	1.31e-03	0	56	0	1001390080	52	5992
2026-01-07 09:06:59.27	357.25	13.80	-40.3	-44.7	11.3	1.06e-03	0	57	0	1003487232	52	5923
2026-01-07 09:07:00.28	357.16	13.71	-40.4	-44.9	11.1	1.19e-03	0	57	0	1004535808	52	6044
2026-01-07 09:07:01.29	357.07	13.62	-40.3	-44.7	11.3	1.45e-03	0	57	0	1006632960	52	5867
2026-01-07 09:07:02.30	356.98	13.53	-40.2	-44.6	11.4	1.04e-03	0	57	0	1008730112	52	5791
2026-01-07 09:07:03.30	356.89	13.44	-40.2	-44.6	11.2	1.17e-03	0	57	0	1010827264	52	5850
2026-01-07 09:07:04.31	356.80	13.35	-40.1	-44.7	11.1	1.43e-03	0	56	0	1012924416	52	5857
2026-01-07 09:07:05.32	356.71	13.26	-40.3	-45.2	10.5	2.74e-03	0	56	0	1013972992	52	6261
2026-01-07 09:07:06.33	356.62	13.17	-40.4	-45.7	9.8	7.38e-03	0	57	0	1016070144	52	6645
2026-01-07 09:07:07.34	356.53	13.08	-40.4	-46.1	9.2	1.45e-02	0	57	0	1018167296	52	6943
2026-01-07 09:07:08.35	356.44	12.99	-40.3	-46.4	8.8	2.81e-02	0	57	0	1020264448	52	7122
2026-01-07 09:07:09.36	356.36	12.90	-40.3	-46.6	8.4	4.24e-02	0	57	0	1022361600	52	7345
2026-01-07 09:07:10.37	356.27	12.81	-40.2	-46.9	7.9	5.60e-02	0	57	0	1023410176	52	7601
2026-01-07 09:07:11.38	356.19	12.72	-40.2	-47.6	7.0	1.29e-01	0	56	0	1025507328	52	8255
2026-01-07 09:07:12.39	356.10	12.64	-40.3	-48.7	5.9	2.62e-01	0	57	0	1027604480	52	9384
2026-01-07 09:07:13.40	356.02	12.55	-40.2	-50.0	5.1	5.07e-01	0	57	0	1029701632	52	10803
2026-01-07 09:07:14.41	355.93	12.46	-40.3	-51.4	4.4	8.41e-01	90	57	0	1031798784	52	12720
2026-01-07 09:07:15.42	355.85	12.37	-40.2	-52.7	3.8	1.43e+00	0	57	104	1031798784	52	14862
2026-01-07 09:07:16.43	355.76	12.29	-40.2	-53.6	3.8	1.49e+00	0	57	104	1031798784	52	16492
2026-01-07 09:07:17.44	355.68	12.20	-40.2	-54.2	3.8	1.49e+00	0	57	104	1031798784	52	17643
2026-01-07 09:07:18.45	355.60	12.11	-40.2	-54.5	3.8	1.49e+00	0	57	104	1031798784	52	18286
2026-01-07 09:07:19.46	355.52	12.03	-40.1	-54.6	3.8	1.49e+00	0	57	104	1031798784	52	18458
2026-01-07 09:07:20.47	355.44	11.94	-40.1	-54.7	3.8	1.49e+00	0	57	104	1031798784	52	18567
2026-01-07 09:07:21.48	355.36	11.85	-40.2	-54.7	3.8	1.49e+00	0	57	104	1031798784	52	18726
2026-01-07 09:07:22.49	355.28	11.77	-40.1	-54.8	3.8	1.49e+00	0	57	104	1031798784	52	18742
2026-01-07 09:07:23.49	355.20	11.69	-40.0	-54.6	3.8	1.49e+00	0	57	104	1031798784	51	19431
2026-01-07 09:07:24.50	355.12	11.60	-40.1	-54.7	3.8	1.49e+00	0	57	104	1031798784	51	19741
2026-01-07 09:07:25.51	355.04	11.52	-40.1	-54.7	3.8	1.49e+00	0	57	104	1031798784	51	19641
2026-01-07 09:07:26.52	354.96	11.43	-40.1	-54.6	3.8	1.49e+00	0	57	104	1031798784	51	19583
2026-01-07 09:07:27.53	354.88	11.35	-40.3	-54.8	3.8	1.49e+00	0	57	104	1031798784	51	20067
2026-01-07 09:07:28.54	354.81	11.26	-40.1	-54.6	3.8	1.49e+00	0	57	104	1031798784	51	19600
2026-01-07 09:07:29.55	354.73	11.18	-40.1	-54.6	3.8	1.49e+00	0	57	104	1031798784	51	19530
2026-01-07 09:07:30.56	354.65	11.09	-40.1	-54.6	3.8	1.49e+00	0	57	104	1031798784	51	19473
2026-01-07 09:07:31.57	354.58	11.01	-40.0	-54.5	3.8	1.49e+00	0	57	104	1031798784	51	19289
2026-01-07 09:07:32.58	354.50	10.93	-40.0	-54.6	3.8	1.49e+00	0	57	104	1031798784	51	19407
2026-01-07 09:07:33.59	354.43	10.85	-40.0	-54.5	3.8	1.49e+00	0	57	104	1031798784	51	19293
2026-01-07 09:07:34.59	354.35	10.76	-40.0	-54.5	3.8	1.49e+00	0	57	104	1031798784	51	19309
2026-01-07 09:07:35.60	354.28	10.68	-40.1	-54.6	3.8	1.49e+00	0	57	104	1031798784	51	19583
2026-01-07 09:07:36.61	354.21	10.60	-40.0	-54.5	3.8	1.49e+00	0	57	104	1031798784	51	19362
2026-01-07 09:07:37.62	354.13	10.52	-40.0	-54.6	3.8	1.49e+00	0	56	104	1031798784	51	19407
2026-01-07 09:07:38.63	354.06	10.43	-40.0	-54.5	3.8	1.49e+00	0	57	104	1031798784	51	19331
2026-01-07 09:07:39.64	353.99	10.35	-40.0	-54.5	3.8	1.49e+00	0	57	104	1031798784	51	19382
2026-01-07 09:07:40.65	353.92	10.27	-40.0	-54.5	3.8	1.49e+00	0	57	104	1031798784	51	19278
2026-01-07 09:07:41.66	353.84	10.19	-40.0	-54.5	3.8	1.49e+00	0	57	104	1031798784	51	19376
2026-01-07 09:07:42.67	353.77	10.11	-40.0	-54.5	3.8	1.49e+00	0	57	104	1031798784	51	19274
