passes_logs/2026/01/07/R2.0S_Moscow/R2.0S_Moscow__20260107_125605_FENGYUN_3D_rec.log

#Pass ID: 20260107_125605_FENGYUN 3D
#Satellite: FENGYUN 3D
#Configuration: FENGYUN 3D
#almurnet v.1.7.20251203
#Start time: 2026-01-07 12:56:06

#Version: 2.2.20231116
#Station: R2.0S_Moscow
#Location: 37.707566 lon 55.798166 lat
#TLE: 1 43010U 17072A   26006.26440730  .00000376  00000+0  19957-3 0  9994
#TLE: 2 43010  98.9925 337.9455 0002045 123.9195 236.2175 14.19693586422016

#Time	Az	El	Level	Level2	SNR	BER	BlckErr	Temp	State	Recorded	gain1	gain2
2026-01-07 12:56:06.41	189.72	2.08	-43.9	-55.4	3.8	8.46e-01	0	47	0	0	59	13529
2026-01-07 12:56:07.41	189.77	2.14	-43.9	-55.4	3.8	8.47e-01	0	47	104	0	59	13555
2026-01-07 12:56:08.42	189.82	2.20	-43.9	-55.4	3.8	8.45e-01	0	47	104	0	59	13560
2026-01-07 12:56:09.43	189.86	2.27	-43.9	-55.4	3.8	8.46e-01	0	47	104	0	59	13546
2026-01-07 12:56:10.45	189.91	2.33	-43.9	-55.4	3.8	8.46e-01	0	47	104	0	59	13554
2026-01-07 12:56:11.45	189.96	2.39	-43.9	-55.4	3.8	8.47e-01	0	47	104	0	59	13538
2026-01-07 12:56:12.47	190.01	2.45	-43.9	-55.4	3.8	8.46e-01	0	48	104	0	59	13518
2026-01-07 12:56:13.48	190.06	2.51	-43.9	-55.4	3.8	8.47e-01	0	48	104	0	59	13514
2026-01-07 12:56:14.49	190.11	2.58	-43.9	-55.4	3.8	8.46e-01	0	48	104	0	59	13537
2026-01-07 12:56:15.50	190.16	2.64	-43.9	-55.4	3.8	8.46e-01	0	48	104	0	59	13539
2026-01-07 12:56:16.51	190.21	2.70	-43.9	-55.4	3.8	8.46e-01	0	48	104	0	59	13497
2026-01-07 12:56:17.52	190.26	2.76	-43.9	-55.4	3.8	8.46e-01	0	48	104	0	59	13540
2026-01-07 12:56:18.53	190.31	2.83	-43.9	-55.4	3.8	8.46e-01	0	48	104	0	59	13515
2026-01-07 12:56:19.54	190.36	2.89	-43.9	-55.4	3.8	8.47e-01	0	48	104	0	59	13552
2026-01-07 12:56:20.55	190.41	2.95	-43.9	-55.4	3.8	8.47e-01	0	48	104	0	59	13500
2026-01-07 12:56:21.56	190.46	3.01	-43.9	-55.4	3.8	8.47e-01	0	48	104	0	59	13536
2026-01-07 12:56:22.57	190.51	3.08	-43.9	-55.4	3.8	8.46e-01	0	48	104	0	59	13517
2026-01-07 12:56:23.58	190.56	3.14	-43.9	-55.4	3.8	8.46e-01	0	48	104	0	59	13566
2026-01-07 12:56:24.60	190.61	3.20	-43.9	-55.4	3.8	8.46e-01	0	48	104	0	59	13495
2026-01-07 12:56:25.61	190.67	3.27	-43.9	-55.4	3.8	8.47e-01	0	48	104	0	59	13535
2026-01-07 12:56:26.62	190.72	3.33	-43.9	-55.4	3.8	8.46e-01	0	48	104	0	59	13528
2026-01-07 12:56:27.63	190.77	3.39	-43.9	-55.4	3.8	8.47e-01	0	49	104	0	59	13542
2026-01-07 12:56:28.64	190.82	3.46	-43.9	-55.4	3.8	8.46e-01	0	49	104	0	59	13526
2026-01-07 12:56:29.65	190.87	3.52	-43.9	-55.4	3.8	8.47e-01	0	49	104	0	59	13536
2026-01-07 12:56:30.66	190.93	3.59	-43.9	-55.4	3.8	8.46e-01	0	49	104	0	59	13512
2026-01-07 12:56:31.67	190.98	3.65	-43.9	-55.4	3.8	8.45e-01	0	49	104	0	59	13528
2026-01-07 12:56:32.68	191.03	3.72	-43.9	-55.4	3.8	8.46e-01	0	49	104	0	59	13564
2026-01-07 12:56:33.70	191.09	3.78	-43.9	-55.4	3.8	8.46e-01	0	49	104	0	59	13550
2026-01-07 12:56:34.71	191.14	3.85	-43.9	-55.4	3.8	8.46e-01	0	49	104	0	59	13515
2026-01-07 12:56:35.72	191.19	3.91	-43.9	-55.4	3.8	8.46e-01	0	49	104	0	59	13506
2026-01-07 12:56:36.73	191.25	3.98	-43.9	-55.4	3.8	8.47e-01	0	49	104	0	59	13474
2026-01-07 12:56:37.74	191.30	4.04	-43.9	-55.4	3.8	8.47e-01	0	49	104	0	59	13516
2026-01-07 12:56:38.75	191.36	4.11	-43.9	-55.4	3.8	8.46e-01	0	49	104	0	59	13477
2026-01-07 12:56:39.76	191.41	4.17	-43.9	-55.4	3.8	8.47e-01	0	49	104	0	59	13526
2026-01-07 12:56:40.77	191.47	4.24	-43.9	-55.4	3.8	8.45e-01	0	49	104	0	59	13522
2026-01-07 12:56:41.79	191.52	4.30	-43.9	-55.3	3.8	8.46e-01	0	49	104	0	59	13408
2026-01-07 12:56:42.80	191.58	4.37	-43.9	-55.4	3.8	8.46e-01	0	50	104	0	59	13424
2026-01-07 12:56:43.81	191.63	4.43	-43.9	-55.3	3.8	8.47e-01	0	50	104	0	59	13406
2026-01-07 12:56:44.82	191.69	4.50	-43.9	-55.3	3.8	8.46e-01	0	50	104	0	59	13403
2026-01-07 12:56:45.83	191.74	4.57	-43.9	-55.2	3.8	8.46e-01	0	50	104	0	59	13177
2026-01-07 12:56:46.84	191.80	4.63	-43.9	-55.1	3.8	8.46e-01	0	50	104	0	59	13047
2026-01-07 12:56:47.85	191.86	4.70	-43.9	-54.9	3.8	8.47e-01	0	50	104	0	59	12751
2026-01-07 12:56:48.86	191.91	4.77	-43.8	-54.7	3.8	8.46e-01	0	50	104	0	59	12507
2026-01-07 12:56:49.87	191.97	4.83	-43.8	-54.6	3.8	8.46e-01	0	50	104	0	59	12352
2026-01-07 12:56:50.88	192.03	4.90	-43.8	-54.5	3.8	8.46e-01	0	50	104	0	59	12146
2026-01-07 12:56:51.89	192.09	4.97	-43.8	-54.3	3.8	8.46e-01	0	50	104	0	59	11949
2026-01-07 12:56:52.91	192.14	5.04	-43.7	-53.9	3.8	8.45e-01	0	50	104	0	59	11392
2026-01-07 12:56:53.92	192.20	5.10	-43.7	-53.7	3.8	8.45e-01	0	50	104	0	59	11064
2026-01-07 12:56:54.93	192.26	5.17	-43.7	-53.4	3.8	8.46e-01	0	50	104	0	59	10744
2026-01-07 12:56:55.94	192.32	5.24	-43.7	-53.4	3.8	8.45e-01	0	50	104	0	59	10672
2026-01-07 12:56:56.95	192.38	5.31	-43.6	-53.4	3.9	8.45e-01	0	50	104	0	59	10696
2026-01-07 12:56:57.96	192.44	5.37	-43.7	-53.4	3.9	8.45e-01	0	50	104	0	59	10709
2026-01-07 12:56:58.97	192.50	5.44	-43.7	-53.6	3.8	8.44e-01	0	50	104	0	59	10945
2026-01-07 12:56:59.98	192.56	5.51	-43.7	-53.5	3.8	8.45e-01	0	50	104	0	59	10873
2026-01-07 12:57:00.99	192.62	5.58	-43.7	-53.7	3.8	8.44e-01	0	51	104	0	59	11107
2026-01-07 12:57:02.01	192.68	5.65	-43.8	-54.1	3.8	8.44e-01	0	51	104	0	59	11567
2026-01-07 12:57:03.02	192.74	5.72	-43.8	-54.4	3.8	8.46e-01	0	51	104	0	59	12003
2026-01-07 12:57:04.03	192.80	5.79	-43.8	-54.4	3.8	8.45e-01	0	51	104	0	59	11996
2026-01-07 12:57:05.04	192.86	5.85	-43.8	-54.6	3.8	8.44e-01	0	51	104	0	59	12271
2026-01-07 12:57:06.05	192.92	5.92	-43.8	-54.6	3.8	8.47e-01	0	51	104	0	59	12291
2026-01-07 12:57:07.06	192.98	5.99	-43.8	-54.6	3.8	8.47e-01	0	51	104	0	59	12285
2026-01-07 12:57:08.07	193.04	6.06	-43.8	-54.4	3.8	8.47e-01	0	51	104	0	59	12068
2026-01-07 12:57:09.08	193.11	6.13	-43.8	-54.3	3.8	8.47e-01	0	51	104	0	59	11927
2026-01-07 12:57:10.09	193.17	6.20	-43.8	-54.2	3.8	8.46e-01	0	51	104	0	59	11769
2026-01-07 12:57:11.10	193.23	6.27	-43.7	-54.0	3.8	8.46e-01	0	51	104	0	59	11501
2026-01-07 12:57:12.11	193.29	6.34	-43.7	-53.8	3.8	8.45e-01	0	51	104	0	59	11174
2026-01-07 12:57:13.13	193.36	6.41	-43.7	-53.4	3.8	8.45e-01	0	51	104	0	59	10773
2026-01-07 12:57:14.14	193.42	6.48	-43.7	-53.3	3.9	8.45e-01	0	51	104	0	59	10607
2026-01-07 12:57:15.15	193.49	6.56	-43.6	-52.9	3.8	8.44e-01	0	51	104	0	59	10075
2026-01-07 12:57:16.16	193.55	6.63	-43.5	-52.3	3.9	8.40e-01	0	51	104	0	59	9423
2026-01-07 12:57:17.17	193.61	6.70	-43.3	-51.3	4.4	8.36e-01	0	51	0	0	58	8874
2026-01-07 12:57:18.18	193.68	6.77	-43.1	-50.0	4.9	7.94e-01	0	51	0	0	58	7697
2026-01-07 12:57:19.19	193.74	6.84	-42.8	-49.2	5.4	7.53e-01	0	51	0	0	57	7397
2026-01-07 12:57:20.20	193.81	6.91	-42.5	-47.9	6.4	3.06e-01	0	51	0	4194304	56	6755
2026-01-07 12:57:21.21	193.87	6.98	-42.0	-46.6	7.5	1.64e-01	0	51	0	9437184	56	5815
2026-01-07 12:57:22.23	193.94	7.06	-41.4	-45.6	8.3	7.56e-02	0	52	0	15728640	54	5828
2026-01-07 12:57:23.24	194.01	7.13	-40.8	-44.3	9.6	2.54e-02	0	52	0	20971520	53	5316
2026-01-07 12:57:24.25	194.07	7.20	-40.3	-43.5	10.5	8.39e-03	0	52	0	26214400	52	5140
2026-01-07 12:57:25.26	194.14	7.27	-40.0	-43.0	11.1	2.27e-03	0	52	0	32505856	51	5104
2026-01-07 12:57:26.27	194.21	7.34	-39.3	-41.9	12.2	4.58e-04	0	52	0	37748736	50	4802
2026-01-07 12:57:27.28	194.28	7.42	-38.8	-41.2	13.0	9.38e-05	0	52	0	44040192	49	4663
2026-01-07 12:57:28.29	194.34	7.49	-38.6	-40.9	13.2	1.94e-05	0	52	0	49283072	49	4526
2026-01-07 12:57:29.30	194.41	7.56	-38.0	-40.1	14.1	6.80e-06	0	52	0	55574528	48	4354
2026-01-07 12:57:30.32	194.48	7.64	-37.7	-39.7	14.4	5.70e-06	0	52	0	60817408	47	4406
2026-01-07 12:57:31.33	194.55	7.71	-37.5	-39.5	14.6	1.10e-06	0	52	0	67108864	47	4305
2026-01-07 12:57:32.34	194.62	7.78	-37.2	-39.1	15.0	0.00e+00	0	52	0	72351744	46	4345
2026-01-07 12:57:33.35	194.69	7.86	-37.3	-39.2	14.8	0.00e+00	0	52	0	77594624	46	4438
2026-01-07 12:57:34.36	194.76	7.93	-37.0	-38.9	15.1	0.00e+00	0	52	0	83886080	46	4262
2026-01-07 12:57:35.37	194.83	8.01	-37.3	-39.3	14.8	0.00e+00	0	52	0	89128960	46	4443
2026-01-07 12:57:36.38	194.90	8.08	-37.5	-39.4	14.7	0.00e+00	0	52	0	95420416	46	4532
2026-01-07 12:57:37.39	194.97	8.16	-39.0	-41.4	12.9	1.71e-05	0	52	0	100663296	48	5078
2026-01-07 12:57:38.40	195.04	8.23	-39.9	-42.9	10.7	7.86e-01	0	52	0	103809024	52	4771
2026-01-07 12:57:39.41	195.11	8.30	-38.7	-40.9	13.5	2.40e-05	0	52	0	110100480	48	4776
2026-01-07 12:57:40.42	195.19	8.38	-37.4	-39.3	14.9	2.29e-04	0	52	0	115343360	46	4484
2026-01-07 12:57:41.43	195.26	8.46	-39.6	-42.3	11.8	4.19e-03	0	52	0	121634816	51	4750
2026-01-07 12:57:42.44	195.33	8.53	-37.5	-39.4	14.8	0.00e+00	0	52	0	126877696	46	4499
2026-01-07 12:57:43.45	195.40	8.61	-37.3	-39.1	15.0	0.00e+00	0	52	0	132120576	46	4390
2026-01-07 12:57:44.46	195.48	8.68	-37.4	-39.3	15.0	1.10e-06	0	52	0	138412032	46	4457
2026-01-07 12:57:45.47	195.55	8.76	-36.9	-38.7	15.4	0.00e+00	0	52	0	143654912	45	4439
2026-01-07 12:57:46.48	195.62	8.83	-37.1	-38.9	15.3	0.00e+00	0	52	0	149946368	45	4516
2026-01-07 12:57:47.49	195.70	8.91	-37.2	-39.1	15.2	0.00e+00	0	52	0	155189248	45	4619
2026-01-07 12:57:48.50	195.77	8.99	-37.0	-38.8	15.5	0.00e+00	0	53	0	161480704	45	4462
2026-01-07 12:57:49.51	195.85	9.06	-36.9	-38.7	15.5	0.00e+00	0	53	0	166723584	45	4432
2026-01-07 12:57:50.52	195.92	9.14	-36.9	-38.6	15.6	0.00e+00	0	53	0	173015040	45	4377
2026-01-07 12:57:51.53	196.00	9.22	-37.1	-38.9	15.4	0.00e+00	0	53	0	178257920	45	4514
2026-01-07 12:57:52.54	196.08	9.30	-36.9	-38.7	15.5	0.00e+00	0	53	0	183500800	45	4435
2026-01-07 12:57:53.55	196.15	9.37	-36.7	-38.4	15.9	0.00e+00	0	53	0	189792256	45	4267
2026-01-07 12:57:54.56	196.23	9.45	-36.9	-38.6	15.7	0.00e+00	0	53	0	195035136	45	4371
2026-01-07 12:57:55.57	196.31	9.53	-36.7	-38.5	15.8	0.00e+00	0	53	0	201326592	45	4306
2026-01-07 12:57:56.58	196.39	9.61	-36.7	-38.4	15.9	0.00e+00	0	53	0	206569472	45	4272
2026-01-07 12:57:57.59	196.46	9.69	-36.8	-38.6	15.8	0.00e+00	0	53	0	211812352	45	4347
2026-01-07 12:57:58.60	196.54	9.76	-36.8	-38.5	15.8	0.00e+00	0	53	0	218103808	45	4322
2026-01-07 12:57:59.61	196.62	9.84	-36.8	-38.5	15.9	0.00e+00	0	53	0	223346688	45	4308
2026-01-07 12:58:00.62	196.70	9.92	-36.7	-38.5	15.9	0.00e+00	0	53	0	229638144	45	4294
2026-01-07 12:58:01.63	196.78	10.00	-36.6	-38.3	16.1	0.00e+00	0	53	0	234881024	45	4213
2026-01-07 12:58:02.64	196.86	10.08	-36.7	-38.4	15.9	0.00e+00	0	53	0	240123904	45	4286
2026-01-07 12:58:03.65	196.94	10.16	-36.7	-38.4	16.0	0.00e+00	0	53	0	246415360	45	4272
2026-01-07 12:58:04.66	197.02	10.24	-36.7	-38.5	15.9	0.00e+00	0	53	0	251658240	45	4292
2026-01-07 12:58:05.67	197.11	10.32	-36.6	-38.4	16.0	0.00e+00	0	53	0	257949696	45	4253
2026-01-07 12:58:06.68	197.19	10.40	-36.7	-38.4	16.0	1.10e-06	0	53	0	263192576	45	4280
2026-01-07 12:58:07.69	197.27	10.48	-36.6	-38.4	16.0	0.00e+00	0	53	0	269484032	45	4244
2026-01-07 12:58:08.71	197.35	10.56	-36.5	-38.2	16.2	0.00e+00	0	53	0	274726912	45	4167
2026-01-07 12:58:09.71	197.44	10.64	-36.6	-38.3	16.1	0.00e+00	0	53	0	281018368	45	4233
2026-01-07 12:58:10.73	197.52	10.73	-36.6	-38.3	16.2	0.00e+00	0	53	0	286261248	45	4198
2026-01-07 12:58:11.74	197.61	10.81	-36.5	-38.2	16.2	0.00e+00	0	53	0	291504128	45	4170
2026-01-07 12:58:12.75	197.69	10.89	-36.6	-38.2	16.2	0.00e+00	0	53	0	297795584	45	4190
2026-01-07 12:58:13.76	197.78	10.97	-36.5	-38.1	16.3	0.00e+00	0	53	0	303038464	45	4142
2026-01-07 12:58:14.77	197.86	11.05	-36.6	-38.2	16.2	0.00e+00	0	53	0	309329920	44	4440
2026-01-07 12:58:15.78	197.95	11.13	-36.5	-38.2	16.3	0.00e+00	0	53	0	314572800	44	4411
2026-01-07 12:58:16.79	198.03	11.22	-36.6	-38.3	16.2	0.00e+00	0	53	0	319815680	44	4446
2026-01-07 12:58:17.79	198.12	11.30	-36.3	-37.9	16.5	0.00e+00	0	53	0	326107136	44	4280
2026-01-07 12:58:18.80	198.21	11.38	-36.3	-37.9	16.5	0.00e+00	0	53	0	331350016	44	4288
2026-01-07 12:58:19.81	198.30	11.46	-36.3	-37.9	16.6	0.00e+00	0	53	0	336592896	44	4279
2026-01-07 12:58:20.82	198.38	11.55	-36.3	-37.9	16.6	0.00e+00	0	53	0	342884352	44	4267
2026-01-07 12:58:21.83	198.47	11.63	-36.2	-37.8	16.8	0.00e+00	0	53	0	348127232	44	4195
2026-01-07 12:58:22.84	198.56	11.71	-36.2	-37.8	16.7	0.00e+00	0	54	0	354418688	44	4207
2026-01-07 12:58:23.85	198.65	11.80	-36.0	-37.6	17.0	0.00e+00	0	54	0	359661568	44	4107
2026-01-07 12:58:24.86	198.74	11.88	-36.0	-37.6	16.9	0.00e+00	0	54	0	365953024	44	4123
2026-01-07 12:58:25.87	198.83	11.97	-35.8	-37.3	17.1	0.00e+00	0	53	0	371195904	43	4213
2026-01-07 12:58:26.88	198.93	12.05	-35.8	-37.3	17.0	0.00e+00	0	54	0	377487360	43	4235
2026-01-07 12:58:27.89	199.02	12.14	-35.8	-37.3	17.0	0.00e+00	0	54	0	382730240	43	4237
2026-01-07 12:58:28.90	199.11	12.22	-35.9	-37.4	17.0	0.00e+00	0	54	0	387973120	43	4268
2026-01-07 12:58:29.91	199.20	12.31	-35.9	-37.4	16.9	0.00e+00	0	54	0	394264576	43	4274
2026-01-07 12:58:30.92	199.30	12.39	-35.8	-37.3	17.1	0.00e+00	0	54	0	399507456	43	4225
2026-01-07 12:58:31.93	199.39	12.48	-35.9	-37.4	16.9	0.00e+00	0	54	0	405798912	43	4289
2026-01-07 12:58:32.94	199.49	12.57	-35.8	-37.4	17.0	0.00e+00	0	54	0	411041792	43	4266
2026-01-07 12:58:33.95	199.58	12.65	-35.8	-37.3	17.0	0.00e+00	0	54	0	416284672	43	4236
2026-01-07 12:58:34.96	199.68	12.74	-35.8	-37.3	17.0	0.00e+00	0	54	0	422576128	43	4230
2026-01-07 12:58:35.97	199.77	12.83	-35.7	-37.3	17.1	0.00e+00	0	54	0	427819008	43	4206
2026-01-07 12:58:36.98	199.87	12.91	-35.8	-37.3	17.1	0.00e+00	0	54	0	434110464	43	4221
2026-01-07 12:58:37.99	199.97	13.00	-35.8	-37.4	17.0	0.00e+00	0	54	0	439353344	43	4264
2026-01-07 12:58:39.00	200.06	13.09	-35.7	-37.2	17.1	0.00e+00	0	54	0	444596224	43	4191
2026-01-07 12:58:40.01	200.16	13.17	-35.7	-37.2	17.2	0.00e+00	0	54	0	450887680	43	4185
2026-01-07 12:58:41.02	200.26	13.26	-35.7	-37.2	17.2	0.00e+00	0	54	0	456130560	43	4172
2026-01-07 12:58:42.03	200.36	13.35	-35.7	-37.2	17.2	0.00e+00	0	54	0	462422016	43	4179
2026-01-07 12:58:43.03	200.46	13.44	-35.7	-37.2	17.2	0.00e+00	0	54	0	467664896	43	4156
2026-01-07 12:58:44.04	200.56	13.53	-35.6	-37.1	17.3	0.00e+00	0	54	0	473956352	43	4120
2026-01-07 12:58:45.05	200.66	13.62	-35.5	-37.0	17.4	0.00e+00	0	54	0	479199232	43	4092
2026-01-07 12:58:46.06	200.76	13.71	-35.6	-37.1	17.3	0.00e+00	0	54	0	484442112	43	4110
2026-01-07 12:58:47.07	200.87	13.80	-35.5	-37.0	17.4	0.00e+00	0	54	0	490733568	43	4082
2026-01-07 12:58:48.08	200.97	13.88	-35.6	-37.0	17.4	0.00e+00	0	54	0	495976448	43	4097
2026-01-07 12:58:49.09	201.07	13.97	-35.6	-37.1	17.3	0.00e+00	0	54	0	502267904	43	4137
2026-01-07 12:58:50.10	201.18	14.07	-35.7	-37.2	17.2	0.00e+00	0	54	0	507510784	43	4184
2026-01-07 12:58:51.11	201.28	14.16	-35.6	-37.2	17.3	0.00e+00	0	54	0	513802240	43	4149
2026-01-07 12:58:52.12	201.39	14.25	-35.6	-37.1	17.3	0.00e+00	0	54	0	519045120	43	4121
2026-01-07 12:58:53.13	201.49	14.34	-35.6	-37.1	17.3	0.00e+00	0	54	0	524288000	43	4144
2026-01-07 12:58:54.14	201.60	14.43	-35.6	-37.1	17.4	0.00e+00	0	54	0	530579456	43	4109
2026-01-07 12:58:55.15	201.71	14.52	-35.5	-37.0	17.4	0.00e+00	0	54	0	535822336	43	4080
2026-01-07 12:58:56.16	201.82	14.61	-35.5	-37.0	17.5	0.00e+00	0	54	0	541065216	42	4300
2026-01-07 12:58:57.17	201.93	14.70	-35.4	-36.8	17.6	0.00e+00	0	54	0	547356672	42	4241
2026-01-07 12:58:58.18	202.04	14.80	-35.5	-36.9	17.5	0.00e+00	0	54	0	552599552	42	4285
2026-01-07 12:58:59.19	202.15	14.89	-35.3	-36.8	17.7	0.00e+00	0	54	0	558891008	42	4205
2026-01-07 12:59:00.20	202.26	14.98	-35.3	-36.8	17.7	0.00e+00	0	54	0	564133888	42	4201
2026-01-07 12:59:01.21	202.37	15.07	-35.3	-36.8	17.7	0.00e+00	0	54	0	570425344	42	4207
2026-01-07 12:59:02.22	202.48	15.17	-35.3	-36.7	17.7	0.00e+00	0	54	0	575668224	42	4190
2026-01-07 12:59:03.23	202.59	15.26	-35.2	-36.7	17.8	0.00e+00	0	54	0	581959680	42	4154
2026-01-07 12:59:04.24	202.71	15.35	-35.2	-36.7	17.8	0.00e+00	0	54	0	587202560	42	4157
2026-01-07 12:59:05.25	202.82	15.45	-35.2	-36.6	17.8	0.00e+00	0	54	0	592445440	42	4122
2026-01-07 12:59:06.26	202.93	15.54	-35.2	-36.7	17.8	0.00e+00	0	54	0	598736896	42	4149
2026-01-07 12:59:07.26	203.05	15.64	-35.2	-36.6	17.8	0.00e+00	0	54	0	603979776	42	4144
2026-01-07 12:59:08.27	203.16	15.73	-35.1	-36.6	17.9	0.00e+00	0	54	0	610271232	42	4117
2026-01-07 12:59:09.28	203.28	15.83	-35.1	-36.5	18.0	0.00e+00	0	54	0	615514112	42	4068
2026-01-07 12:59:10.29	203.40	15.92	-35.0	-36.5	18.0	0.00e+00	0	54	0	620756992	42	4061
2026-01-07 12:59:11.31	203.52	16.02	-34.9	-36.3	18.1	0.00e+00	0	54	0	627048448	41	4240
2026-01-07 12:59:12.31	203.64	16.11	-35.0	-36.5	18.0	0.00e+00	0	55	0	632291328	41	4292
2026-01-07 12:59:13.32	203.76	16.21	-34.9	-36.3	18.1	0.00e+00	0	54	0	638582784	41	4227
2026-01-07 12:59:14.33	203.88	16.31	-34.8	-36.3	18.2	0.00e+00	0	54	0	643825664	41	4195
2026-01-07 12:59:15.34	204.00	16.40	-34.8	-36.2	18.2	0.00e+00	0	55	0	649068544	41	4173
2026-01-07 12:59:16.35	204.12	16.50	-34.8	-36.1	18.3	0.00e+00	0	54	0	655360000	41	4142
2026-01-07 12:59:17.36	204.24	16.60	-34.8	-36.2	18.3	0.00e+00	0	55	0	660602880	41	4152
2026-01-07 12:59:18.37	204.37	16.69	-34.8	-36.2	18.3	0.00e+00	0	55	0	666894336	41	4171
2026-01-07 12:59:19.38	204.49	16.79	-34.9	-36.3	18.2	0.00e+00	0	55	0	672137216	41	4220
2026-01-07 12:59:20.39	204.62	16.89	-34.8	-36.2	18.3	0.00e+00	0	54	0	678428672	41	4171
2026-01-07 12:59:21.40	204.74	16.99	-35.0	-36.4	18.1	0.00e+00	0	55	0	683671552	41	4283
2026-01-07 12:59:22.41	204.87	17.09	-35.0	-36.4	18.1	0.00e+00	0	55	0	689963008	41	4258
2026-01-07 12:59:23.42	205.00	17.19	-35.0	-36.4	18.1	0.00e+00	0	55	0	695205888	41	4261
2026-01-07 12:59:24.43	205.12	17.28	-35.0	-36.4	18.1	0.00e+00	0	55	0	700448768	41	4263
2026-01-07 12:59:25.44	205.25	17.38	-35.0	-36.4	18.1	0.00e+00	0	55	0	706740224	41	4272
2026-01-07 12:59:26.45	205.38	17.48	-34.9	-36.3	18.2	0.00e+00	0	55	0	711983104	41	4220
2026-01-07 12:59:27.46	205.51	17.58	-34.8	-36.2	18.3	0.00e+00	0	55	0	717225984	41	4160
2026-01-07 12:59:28.47	205.65	17.68	-34.8	-36.2	18.3	0.00e+00	0	55	0	723517440	41	4167
2026-01-07 12:59:29.48	205.78	17.78	-34.8	-36.2	18.3	0.00e+00	0	55	0	728760320	41	4172
2026-01-07 12:59:30.49	205.91	17.88	-34.7	-36.1	18.4	0.00e+00	0	55	0	735051776	41	4132
2026-01-07 12:59:31.50	206.05	17.99	-34.6	-36.0	18.5	0.00e+00	0	55	0	740294656	41	4084
2026-01-07 12:59:32.51	206.18	18.09	-34.6	-36.0	18.5	0.00e+00	0	55	0	746586112	41	4062
2026-01-07 12:59:33.53	206.32	18.19	-34.6	-36.0	18.5	0.00e+00	0	55	0	751828992	41	4078
2026-01-07 12:59:34.54	206.46	18.29	-34.6	-36.0	18.5	0.00e+00	0	55	0	757071872	41	4076
2026-01-07 12:59:35.55	206.59	18.39	-34.6	-36.0	18.5	0.00e+00	0	55	0	763363328	41	4065
2026-01-07 12:59:36.56	206.73	18.50	-34.6	-36.0	18.5	0.00e+00	0	55	0	768606208	41	4065
2026-01-07 12:59:37.57	206.87	18.60	-34.6	-35.9	18.6	0.00e+00	0	55	0	774897664	41	4046
2026-01-07 12:59:38.58	207.01	18.70	-34.5	-35.8	18.7	0.00e+00	0	55	0	780140544	41	4000
2026-01-07 12:59:39.58	207.15	18.80	-34.4	-35.7	18.8	0.00e+00	0	55	0	786432000	40	4190
2026-01-07 12:59:40.59	207.30	18.91	-34.4	-35.7	18.8	0.00e+00	0	55	0	791674880	40	4180
2026-01-07 12:59:41.60	207.44	19.01	-34.5	-35.8	18.7	0.00e+00	0	55	0	796917760	40	4228
2026-01-07 12:59:42.61	207.58	19.11	-34.4	-35.8	18.7	0.00e+00	0	55	0	803209216	40	4207
2026-01-07 12:59:43.62	207.73	19.22	-34.4	-35.8	18.7	0.00e+00	0	55	0	808452096	40	4218
2026-01-07 12:59:44.63	207.87	19.32	-34.4	-35.7	18.8	0.00e+00	0	55	0	814743552	40	4175
2026-01-07 12:59:45.64	208.02	19.43	-34.3	-35.6	18.9	0.00e+00	0	55	0	819986432	40	4135
2026-01-07 12:59:46.65	208.17	19.53	-34.2	-35.6	18.9	0.00e+00	0	55	0	825229312	40	4101
2026-01-07 12:59:47.66	208.32	19.64	-34.3	-35.6	18.9	0.00e+00	0	55	0	831520768	40	4111
2026-01-07 12:59:48.67	208.47	19.74	-34.1	-35.5	19.0	0.00e+00	0	55	0	836763648	40	4056
2026-01-07 12:59:49.69	208.62	19.85	-34.3	-35.6	18.9	0.00e+00	0	55	0	843055104	40	4117
2026-01-07 12:59:50.70	208.77	19.95	-34.3	-35.6	18.9	0.00e+00	0	55	0	848297984	40	4117
2026-01-07 12:59:51.71	208.93	20.06	-34.3	-35.6	18.9	0.00e+00	0	55	0	853540864	40	4142
2026-01-07 12:59:52.72	209.08	20.17	-34.3	-35.6	19.0	0.00e+00	0	55	0	859832320	40	4113
2026-01-07 12:59:53.73	209.24	20.27	-34.2	-35.5	19.0	0.00e+00	0	55	0	865075200	40	4087
2026-01-07 12:59:54.74	209.39	20.38	-34.1	-35.5	19.1	0.00e+00	0	55	0	871366656	40	4053
2026-01-07 12:59:55.75	209.55	20.49	-34.1	-35.5	19.1	0.00e+00	0	55	0	876609536	40	4052
2026-01-07 12:59:56.76	209.71	20.59	-34.1	-35.4	19.1	0.00e+00	0	55	0	882900992	40	4040
2026-01-07 12:59:57.77	209.87	20.70	-34.1	-35.4	19.2	0.00e+00	0	55	0	888143872	40	4014
2026-01-07 12:59:58.77	210.03	20.81	-34.0	-35.3	19.2	0.00e+00	0	55	0	894435328	40	3967
2026-01-07 12:59:59.78	210.19	20.92	-34.0	-35.3	19.3	0.00e+00	0	55	0	899678208	39	4218
2026-01-07 13:00:00.80	210.35	21.03	-34.1	-35.4	19.2	0.00e+00	0	55	0	904921088	39	4252
2026-01-07 13:00:01.81	210.52	21.14	-34.1	-35.4	19.2	0.00e+00	0	55	0	911212544	39	4263
2026-01-07 13:00:02.81	210.68	21.24	-34.1	-35.4	19.2	0.00e+00	0	55	0	916455424	39	4283
2026-01-07 13:00:03.82	210.85	21.35	-34.1	-35.4	19.2	0.00e+00	0	55	0	922746880	39	4282
2026-01-07 13:00:04.83	211.01	21.46	-34.1	-35.4	19.2	0.00e+00	0	55	0	927989760	39	4259
2026-01-07 13:00:05.84	211.18	21.57	-34.1	-35.4	19.2	0.00e+00	0	55	0	933232640	39	4276
2026-01-07 13:00:06.85	211.35	21.68	-34.1	-35.4	19.2	0.00e+00	0	55	0	939524096	39	4275
2026-01-07 13:00:07.86	211.52	21.79	-34.2	-35.5	19.1	0.00e+00	0	55	0	944766976	39	4302
2026-01-07 13:00:08.87	211.70	21.90	-34.1	-35.4	19.2	0.00e+00	0	55	0	951058432	39	4289
2026-01-07 13:00:09.88	211.87	22.01	-34.1	-35.4	19.2	0.00e+00	0	55	0	956301312	39	4283
2026-01-07 13:00:10.89	212.04	22.12	-34.0	-35.3	19.3	0.00e+00	0	55	0	961544192	39	4199
2026-01-07 13:00:11.90	212.22	22.23	-33.9	-35.1	19.4	0.00e+00	0	55	0	967835648	39	4143
2026-01-07 13:00:12.91	212.40	22.34	-33.8	-35.1	19.5	0.00e+00	0	55	0	973078528	39	4107
2026-01-07 13:00:13.92	212.57	22.45	-33.7	-35.0	19.6	0.00e+00	0	55	0	979369984	39	4056
2026-01-07 13:00:14.93	212.75	22.57	-33.5	-34.8	19.8	0.00e+00	0	55	0	984612864	39	3978
2026-01-07 13:00:15.94	212.93	22.68	-33.5	-34.8	19.8	0.00e+00	0	55	0	990904320	39	3959
2026-01-07 13:00:16.95	213.12	22.79	-33.5	-34.8	19.8	0.00e+00	0	55	0	996147200	38	4198
2026-01-07 13:00:17.96	213.30	22.90	-33.5	-34.7	19.9	0.00e+00	0	55	0	1001390080	38	4160
2026-01-07 13:00:18.97	213.48	23.01	-33.5	-34.7	19.9	0.00e+00	0	55	0	1007681536	38	4164
2026-01-07 13:00:19.98	213.67	23.13	-33.4	-34.6	19.9	0.00e+00	0	55	0	1012924416	38	4129
2026-01-07 13:00:20.99	213.86	23.24	-33.3	-34.6	20.0	0.00e+00	0	55	0	1019215872	38	4102
2026-01-07 13:00:22.00	214.05	23.35	-33.4	-34.6	19.9	0.00e+00	0	55	0	1024458752	38	4141
2026-01-07 13:00:23.01	214.23	23.46	-33.4	-34.7	19.9	0.00e+00	0	55	0	1029701632	38	4148
2026-01-07 13:00:24.02	214.43	23.58	-33.5	-34.7	19.9	0.00e+00	0	55	0	1035993088	38	4173
2026-01-07 13:00:25.03	214.62	23.69	-33.5	-34.8	19.8	0.00e+00	0	55	0	1041235968	38	4195
2026-01-07 13:00:26.04	214.81	23.80	-33.6	-34.8	19.8	0.00e+00	0	55	0	1047527424	38	4217
2026-01-07 13:00:27.05	215.01	23.92	-33.6	-34.8	19.8	0.00e+00	0	55	0	1052770304	38	4230
2026-01-07 13:00:28.06	215.20	24.03	-33.6	-34.9	19.7	0.00e+00	0	55	0	1058013184	38	4247
2026-01-07 13:00:29.07	215.40	24.15	-33.4	-34.6	19.9	0.00e+00	0	55	0	1064304640	38	4135
2026-01-07 13:00:30.08	215.60	24.26	-33.5	-34.7	19.9	0.00e+00	0	55	0	1069547520	38	4164
2026-01-07 13:00:31.09	215.80	24.37	-33.4	-34.6	19.9	0.00e+00	0	55	0	1075838976	38	4145
2026-01-07 13:00:32.10	216.00	24.49	-33.5	-34.7	19.9	0.00e+00	0	55	0	1081081856	38	4164
2026-01-07 13:00:33.11	216.21	24.60	-33.5	-34.8	19.8	0.00e+00	0	55	0	1087373312	38	4203
2026-01-07 13:00:34.12	216.41	24.72	-33.6	-34.8	19.8	0.00e+00	0	56	0	1092616192	38	4237
2026-01-07 13:00:35.13	216.62	24.83	-33.6	-34.8	19.8	0.00e+00	0	55	0	1098907648	38	4223
2026-01-07 13:00:36.14	216.83	24.95	-33.6	-34.8	19.8	0.00e+00	0	56	0	1104150528	38	4237
2026-01-07 13:00:37.15	217.04	25.06	-33.6	-34.9	19.7	0.00e+00	0	55	0	1109393408	38	4255
2026-01-07 13:00:38.16	217.25	25.18	-33.5	-34.8	19.8	0.00e+00	0	55	0	1115684864	38	4198
2026-01-07 13:00:39.17	217.46	25.29	-33.6	-34.8	19.8	0.00e+00	0	55	0	1120927744	38	4221
2026-01-07 13:00:40.18	217.67	25.41	-33.4	-34.7	19.9	0.00e+00	0	55	0	1127219200	38	4158
2026-01-07 13:00:41.19	217.89	25.52	-33.4	-34.7	19.9	0.00e+00	0	55	0	1132462080	38	4146
2026-01-07 13:00:42.20	218.11	25.64	-33.4	-34.6	19.9	0.00e+00	0	55	0	1137704960	38	4137
2026-01-07 13:00:43.21	218.33	25.75	-33.3	-34.6	20.0	0.00e+00	0	55	0	1143996416	38	4102
2026-01-07 13:00:44.22	218.55	25.87	-33.2	-34.4	20.1	0.00e+00	0	55	0	1149239296	38	4040
2026-01-07 13:00:45.23	218.77	25.98	-33.1	-34.3	20.3	0.00e+00	0	55	0	1155530752	38	3987
2026-01-07 13:00:46.24	218.99	26.10	-33.1	-34.3	20.2	0.00e+00	0	56	0	1160773632	38	3991
2026-01-07 13:00:47.25	219.22	26.22	-33.2	-34.4	20.2	0.00e+00	0	55	0	1166016512	38	4018
2026-01-07 13:00:48.26	219.44	26.33	-33.2	-34.5	20.1	0.00e+00	0	55	0	1172307968	38	4059
2026-01-07 13:00:49.27	219.67	26.45	-33.3	-34.5	20.1	0.00e+00	0	56	0	1177550848	38	4083
2026-01-07 13:00:50.28	219.90	26.56	-33.3	-34.6	20.0	0.00e+00	0	56	0	1183842304	38	4110
2026-01-07 13:00:51.28	220.13	26.68	-33.3	-34.5	20.0	0.00e+00	0	56	0	1189085184	38	4078
2026-01-07 13:00:52.29	220.36	26.79	-33.2	-34.4	20.1	0.00e+00	0	55	0	1195376640	38	4047
2026-01-07 13:00:53.30	220.60	26.91	-33.2	-34.4	20.2	0.00e+00	0	55	0	1200619520	38	4015
2026-01-07 13:00:54.32	220.84	27.03	-33.1	-34.3	20.3	0.00e+00	0	55	0	1206910976	38	3973
2026-01-07 13:00:55.33	221.08	27.14	-33.0	-34.2	20.4	0.00e+00	0	55	0	1212153856	38	3926
2026-01-07 13:00:56.34	221.32	27.26	-33.0	-34.2	20.3	0.00e+00	0	56	0	1217396736	37	4164
2026-01-07 13:00:57.35	221.56	27.37	-33.0	-34.2	20.3	0.00e+00	0	56	0	1223688192	37	4186
2026-01-07 13:00:58.36	221.80	27.49	-33.0	-34.2	20.3	0.00e+00	0	56	0	1228931072	37	4185
2026-01-07 13:00:59.36	222.04	27.60	-32.9	-34.1	20.4	0.00e+00	0	56	0	1235222528	37	4134
2026-01-07 13:01:00.37	222.29	27.72	-32.9	-34.1	20.4	0.00e+00	0	55	0	1240465408	37	4127
2026-01-07 13:01:01.38	222.54	27.83	-32.9	-34.1	20.5	0.00e+00	0	56	0	1245708288	37	4099
2026-01-07 13:01:02.39	222.79	27.95	-32.9	-34.1	20.4	0.00e+00	0	56	0	1251999744	37	4101
2026-01-07 13:01:03.40	223.04	28.07	-32.9	-34.1	20.4	0.00e+00	0	56	0	1257242624	37	4139
2026-01-07 13:01:04.41	223.29	28.18	-33.0	-34.2	20.3	0.00e+00	0	56	0	1262485504	37	4165
2026-01-07 13:01:05.42	223.55	28.30	-33.0	-34.2	20.3	0.00e+00	0	56	0	1268776960	37	4183
2026-01-07 13:01:06.43	223.81	28.41	-33.0	-34.2	20.3	0.00e+00	0	56	0	1274019840	37	4164
2026-01-07 13:01:07.44	224.07	28.52	-32.9	-34.1	20.4	0.00e+00	0	56	0	1280311296	37	4133
2026-01-07 13:01:08.45	224.33	28.64	-32.9	-34.1	20.4	0.00e+00	0	56	0	1285554176	37	4122
2026-01-07 13:01:09.46	224.59	28.75	-32.9	-34.1	20.4	0.00e+00	0	55	0	1291845632	37	4132
2026-01-07 13:01:10.47	224.86	28.87	-33.0	-34.2	20.4	0.00e+00	0	56	0	1297088512	37	4159
2026-01-07 13:01:11.48	225.12	28.98	-32.9	-34.1	20.4	0.00e+00	0	56	0	1303379968	37	4133
2026-01-07 13:01:12.49	225.39	29.10	-32.9	-34.1	20.4	0.00e+00	0	56	0	1308622848	37	4139
2026-01-07 13:01:13.50	225.66	29.21	-32.9	-34.1	20.5	0.00e+00	0	56	0	1313865728	37	4126
2026-01-07 13:01:14.51	225.93	29.32	-32.9	-34.1	20.5	0.00e+00	0	56	0	1320157184	37	4120
2026-01-07 13:01:15.52	226.21	29.44	-32.8	-34.0	20.6	0.00e+00	0	56	0	1325400064	37	4055
2026-01-07 13:01:16.53	226.48	29.55	-32.7	-33.9	20.7	0.00e+00	0	56	0	1331691520	37	4030
2026-01-07 13:01:17.54	226.76	29.66	-32.6	-33.7	20.9	0.00e+00	0	56	0	1336934400	37	3948
2026-01-07 13:01:18.55	227.04	29.77	-32.5	-33.6	21.0	0.00e+00	0	56	0	1342177280	36	4119
2026-01-07 13:01:19.56	227.32	29.89	-32.6	-33.7	20.8	0.00e+00	0	56	0	1348468736	36	4189
2026-01-07 13:01:20.57	227.61	30.00	-32.8	-33.9	20.6	0.00e+00	0	56	0	1353711616	36	4283
2026-01-07 13:01:21.58	227.89	30.11	-32.9	-34.1	20.5	0.00e+00	0	56	0	1360003072	36	4350
2026-01-07 13:01:22.59	228.18	30.22	-32.8	-34.0	20.6	0.00e+00	0	56	0	1365245952	36	4313
2026-01-07 13:01:23.60	228.47	30.33	-32.7	-33.9	20.7	0.00e+00	0	56	0	1370488832	36	4256
2026-01-07 13:01:24.61	228.76	30.44	-32.7	-33.9	20.7	0.00e+00	0	56	0	1376780288	36	4255
2026-01-07 13:01:25.61	229.05	30.55	-32.8	-33.9	20.6	0.00e+00	0	56	0	1382023168	36	4289
2026-01-07 13:01:26.62	229.35	30.66	-32.8	-34.0	20.5	0.00e+00	0	56	0	1388314624	36	4324
2026-01-07 13:01:27.64	229.65	30.77	-32.9	-34.1	20.5	0.00e+00	0	56	0	1393557504	36	4346
2026-01-07 13:01:28.65	229.94	30.88	-32.9	-34.0	20.5	0.00e+00	0	56	0	1399848960	36	4339
2026-01-07 13:01:29.66	230.25	30.99	-32.7	-33.9	20.6	0.00e+00	0	56	0	1405091840	36	4267
2026-01-07 13:01:30.67	230.55	31.09	-32.6	-33.8	20.7	0.00e+00	0	55	0	1411383296	36	4198
2026-01-07 13:01:31.68	230.85	31.20	-32.6	-33.7	20.8	0.00e+00	0	56	0	1416626176	36	4190
2026-01-07 13:01:32.69	231.16	31.31	-32.6	-33.8	20.7	0.00e+00	0	56	0	1421869056	36	4217
2026-01-07 13:01:33.70	231.47	31.41	-32.7	-33.8	20.6	0.00e+00	0	56	0	1428160512	36	4239
2026-01-07 13:01:34.71	231.78	31.52	-32.8	-34.0	20.5	0.00e+00	0	56	0	1433403392	36	4318
2026-01-07 13:01:35.72	232.09	31.62	-32.8	-34.1	20.4	0.00e+00	0	56	0	1439694848	36	4341
2026-01-07 13:01:36.73	232.41	31.73	-32.8	-34.0	20.5	0.00e+00	0	56	0	1444937728	36	4333
2026-01-07 13:01:37.75	232.73	31.83	-32.8	-34.0	20.5	0.00e+00	0	56	0	1450180608	36	4315
2026-01-07 13:01:38.76	233.05	31.94	-32.8	-34.0	20.4	0.00e+00	0	56	0	1456472064	36	4322
2026-01-07 13:01:39.77	233.37	32.04	-32.7	-33.9	20.6	0.00e+00	0	56	0	1461714944	36	4276
2026-01-07 13:01:40.78	233.69	32.14	-32.6	-33.8	20.7	0.00e+00	0	56	0	1468006400	36	4229
2026-01-07 13:01:41.79	234.02	32.25	-32.6	-33.8	20.7	0.00e+00	0	56	0	1473249280	36	4210
2026-01-07 13:01:42.80	234.35	32.35	-32.6	-33.7	20.8	0.00e+00	0	56	0	1478492160	36	4189
2026-01-07 13:01:43.81	234.67	32.45	-32.7	-33.9	20.6	0.00e+00	0	56	0	1484783616	36	4263
2026-01-07 13:01:44.82	235.01	32.55	-32.8	-34.0	20.5	0.00e+00	0	56	0	1490026496	36	4321
2026-01-07 13:01:45.83	235.34	32.64	-32.8	-34.0	20.6	0.00e+00	0	56	0	1496317952	36	4298
2026-01-07 13:01:46.83	235.67	32.74	-32.8	-34.0	20.6	0.00e+00	0	56	0	1501560832	36	4294
2026-01-07 13:01:47.84	236.01	32.84	-32.8	-34.0	20.5	0.00e+00	0	56	0	1507852288	36	4320
2026-01-07 13:01:48.86	236.35	32.94	-32.9	-34.1	20.4	0.00e+00	0	56	0	1513095168	36	4380
2026-01-07 13:01:49.87	236.69	33.03	-32.9	-34.2	20.4	0.00e+00	0	56	0	1518338048	36	4395
2026-01-07 13:01:50.88	237.03	33.13	-32.8	-34.0	20.6	0.00e+00	0	56	0	1524629504	36	4301
2026-01-07 13:01:51.89	237.38	33.22	-32.6	-33.8	20.8	0.00e+00	0	56	0	1529872384	36	4202
2026-01-07 13:01:52.90	237.73	33.31	-32.5	-33.6	20.9	0.00e+00	0	56	0	1536163840	36	4135
2026-01-07 13:01:53.90	238.07	33.41	-32.5	-33.7	20.8	0.00e+00	0	56	0	1541406720	36	4162
2026-01-07 13:01:54.91	238.42	33.50	-32.7	-33.8	20.7	0.00e+00	0	56	0	1547698176	36	4239
2026-01-07 13:01:55.93	238.78	33.59	-32.8	-34.0	20.5	0.00e+00	0	56	0	1552941056	36	4298
2026-01-07 13:01:56.94	239.13	33.68	-32.8	-34.0	20.5	0.00e+00	0	56	0	1558183936	36	4308
2026-01-07 13:01:57.95	239.49	33.77	-32.7	-34.0	20.6	0.00e+00	0	56	0	1564475392	36	4294
2026-01-07 13:01:58.96	239.85	33.86	-32.6	-33.8	20.7	0.00e+00	0	56	0	1569718272	36	4198
2026-01-07 13:01:59.97	240.21	33.94	-32.4	-33.6	20.9	0.00e+00	0	56	0	1576009728	36	4101
2026-01-07 13:02:00.98	240.57	34.03	-32.3	-33.5	21.0	0.00e+00	0	56	0	1581252608	36	4069
2026-01-07 13:02:01.99	240.94	34.11	-32.4	-33.6	20.8	0.00e+00	0	56	0	1586495488	36	4126
2026-01-07 13:02:03.00	241.30	34.20	-32.7	-33.9	20.6	0.00e+00	0	56	0	1592786944	36	4245
2026-01-07 13:02:04.01	241.67	34.28	-32.7	-33.9	20.5	0.00e+00	0	56	0	1598029824	36	4275
2026-01-07 13:02:05.02	242.04	34.36	-32.6	-33.8	20.6	0.00e+00	0	56	0	1604321280	36	4230
2026-01-07 13:02:06.03	242.41	34.44	-32.5	-33.7	20.7	0.00e+00	0	56	0	1609564160	36	4178
2026-01-07 13:02:07.04	242.78	34.52	-32.5	-33.7	20.8	0.00e+00	0	56	0	1614807040	36	4153
2026-01-07 13:02:08.05	243.16	34.60	-32.5	-33.6	20.9	0.00e+00	0	56	0	1621098496	36	4135
2026-01-07 13:02:09.06	243.54	34.68	-32.5	-33.6	20.9	0.00e+00	0	56	0	1626341376	36	4144
2026-01-07 13:02:10.06	243.91	34.75	-32.4	-33.6	21.0	0.00e+00	0	56	0	1632632832	36	4099
2026-01-07 13:02:11.07	244.29	34.83	-32.4	-33.6	20.9	0.00e+00	0	56	0	1637875712	36	4112
2026-01-07 13:02:12.08	244.67	34.90	-32.6	-33.8	20.7	0.00e+00	0	56	0	1644167168	36	4226
2026-01-07 13:02:13.09	245.06	34.97	-32.7	-33.9	20.7	0.00e+00	0	56	0	1649410048	36	4270
2026-01-07 13:02:14.10	245.44	35.04	-32.7	-33.8	20.7	0.00e+00	0	56	0	1654652928	36	4237
2026-01-07 13:02:15.11	245.83	35.11	-32.5	-33.6	20.9	0.00e+00	0	56	0	1660944384	36	4143
2026-01-07 13:02:16.12	246.22	35.18	-32.4	-33.6	20.9	0.00e+00	0	56	0	1666187264	36	4121
2026-01-07 13:02:17.14	246.61	35.25	-32.4	-33.5	21.0	0.00e+00	0	56	0	1672478720	36	4089
2026-01-07 13:02:18.15	247.00	35.31	-32.4	-33.6	21.0	0.00e+00	0	56	0	1677721600	36	4110
2026-01-07 13:02:19.16	247.40	35.38	-32.4	-33.6	21.0	0.00e+00	0	56	0	1682964480	36	4123
2026-01-07 13:02:20.17	247.79	35.44	-32.4	-33.6	20.9	0.00e+00	0	56	0	1689255936	36	4121
2026-01-07 13:02:21.18	248.19	35.50	-32.3	-33.4	21.1	0.00e+00	0	56	0	1694498816	36	4047
2026-01-07 13:02:22.19	248.58	35.56	-32.2	-33.3	21.2	0.00e+00	0	56	0	1700790272	36	3974
2026-01-07 13:02:23.20	248.98	35.62	-32.1	-33.3	21.2	0.00e+00	0	56	0	1706033152	36	3963
2026-01-07 13:02:24.21	249.38	35.68	-32.2	-33.3	21.2	0.00e+00	0	56	0	1712324608	36	3969
2026-01-07 13:02:25.21	249.78	35.73	-32.4	-33.5	21.0	0.00e+00	0	56	0	1717567488	36	4081
2026-01-07 13:02:26.22	250.18	35.79	-32.5	-33.7	20.8	0.00e+00	0	56	0	1722810368	36	4175
2026-01-07 13:02:27.23	250.59	35.84	-32.5	-33.7	20.8	0.00e+00	0	56	0	1729101824	36	4179
2026-01-07 13:02:28.24	250.99	35.89	-32.5	-33.7	20.8	0.00e+00	0	56	0	1734344704	36	4148
2026-01-07 13:02:29.25	251.40	35.94	-32.4	-33.6	20.9	0.00e+00	0	56	0	1740636160	36	4108
2026-01-07 13:02:30.26	251.81	35.99	-32.4	-33.5	21.0	0.00e+00	0	56	0	1745879040	36	4081
2026-01-07 13:02:31.27	252.22	36.04	-32.4	-33.5	21.0	0.00e+00	0	56	0	1752170496	36	4087
2026-01-07 13:02:32.28	252.63	36.09	-32.3	-33.4	21.1	0.00e+00	0	56	0	1757413376	36	4040
2026-01-07 13:02:33.29	253.04	36.13	-32.4	-33.6	21.0	0.00e+00	0	56	0	1762656256	36	4104
2026-01-07 13:02:34.30	253.45	36.17	-32.5	-33.7	20.8	0.00e+00	0	56	0	1768947712	36	4184
2026-01-07 13:02:35.31	253.87	36.21	-32.6	-33.8	20.7	0.00e+00	0	56	0	1774190592	36	4219
2026-01-07 13:02:36.32	254.28	36.25	-32.5	-33.7	20.8	0.00e+00	0	56	0	1780482048	36	4183
2026-01-07 13:02:37.33	254.70	36.29	-32.4	-33.5	20.9	0.00e+00	0	56	0	1785724928	36	4096
2026-01-07 13:02:38.34	255.11	36.32	-32.3	-33.5	21.1	0.00e+00	0	56	0	1790967808	36	4053
2026-01-07 13:02:39.36	255.54	36.36	-32.3	-33.4	21.1	0.00e+00	0	56	0	1797259264	36	4031
2026-01-07 13:02:40.37	255.95	36.39	-32.2	-33.3	21.1	0.00e+00	0	56	0	1802502144	36	3999
2026-01-07 13:02:41.37	256.37	36.42	-32.2	-33.4	21.1	0.00e+00	0	56	0	1808793600	36	4013
2026-01-07 13:02:42.38	256.79	36.45	-32.3	-33.5	21.0	0.00e+00	0	56	0	1814036480	36	4065
2026-01-07 13:02:43.40	257.21	36.48	-32.4	-33.5	21.0	0.00e+00	0	56	0	1819279360	36	4080
2026-01-07 13:02:44.41	257.63	36.51	-32.4	-33.5	21.0	0.00e+00	0	56	0	1825570816	36	4077
2026-01-07 13:02:45.42	258.06	36.53	-32.3	-33.5	21.1	0.00e+00	0	56	0	1830813696	36	4053
2026-01-07 13:02:46.43	258.48	36.55	-32.3	-33.4	21.1	0.00e+00	0	56	0	1837105152	36	4036
2026-01-07 13:02:47.44	258.90	36.57	-32.3	-33.5	21.0	0.00e+00	0	56	0	1842348032	36	4063
2026-01-07 13:02:48.44	259.32	36.59	-32.4	-33.5	20.9	0.00e+00	0	56	0	1848639488	36	4098
2026-01-07 13:02:49.45	259.75	36.61	-32.4	-33.6	20.9	0.00e+00	0	56	0	1853882368	36	4116
2026-01-07 13:02:50.46	260.17	36.63	-32.4	-33.5	21.0	0.00e+00	0	56	0	1860173824	36	4088
2026-01-07 13:02:51.47	260.59	36.64	-32.3	-33.4	21.0	0.00e+00	0	56	0	1865416704	36	4046
2026-01-07 13:02:52.48	261.02	36.65	-32.3	-33.5	21.0	0.00e+00	0	56	0	1870659584	36	4058
2026-01-07 13:02:53.49	261.44	36.66	-32.4	-33.6	20.9	0.00e+00	0	56	0	1876951040	36	4125
2026-01-07 13:02:54.50	261.87	36.67	-32.5	-33.7	20.8	0.00e+00	0	56	0	1882193920	36	4180
2026-01-07 13:02:55.52	262.30	36.68	-32.4	-33.6	20.9	0.00e+00	0	56	0	1888485376	36	4118
2026-01-07 13:02:56.52	262.72	36.68	-32.5	-33.5	21.6	0.00e+00	0	56	0	1893728256	36	4084
2026-01-07 13:02:57.53	263.15	36.69	-32.5	-33.6	21.5	0.00e+00	0	56	0	1898971136	36	4118
2026-01-07 13:02:58.54	263.57	36.69	-32.6	-33.6	21.5	0.00e+00	0	56	0	1905262592	36	4118
2026-01-07 13:02:59.55	264.00	36.69	-32.5	-33.5	21.6	0.00e+00	0	56	0	1910505472	36	4094
2026-01-07 13:03:00.56	264.43	36.69	-32.5	-33.5	21.6	0.00e+00	0	56	0	1915748352	36	4068
2026-01-07 13:03:01.57	264.85	36.68	-32.5	-33.5	21.6	0.00e+00	0	56	0	1922039808	36	4066
2026-01-07 13:03:02.58	265.28	36.68	-32.6	-33.6	21.5	0.00e+00	0	56	0	1927282688	36	4143
2026-01-07 13:03:03.59	265.70	36.67	-32.6	-33.6	21.4	0.00e+00	0	56	0	1933574144	36	4144
2026-01-07 13:03:04.60	266.13	36.66	-32.5	-33.5	21.6	0.00e+00	0	56	0	1938817024	36	4082
2026-01-07 13:03:05.61	266.55	36.65	-32.4	-33.5	21.6	0.00e+00	0	56	0	1945108480	36	4064
2026-01-07 13:03:06.62	266.98	36.64	-32.5	-33.5	21.6	0.00e+00	0	56	0	1950351360	36	4076
2026-01-07 13:03:07.63	267.40	36.63	-32.5	-33.6	21.6	0.00e+00	0	56	0	1956642816	36	4102
2026-01-07 13:03:08.64	267.83	36.61	-32.6	-33.7	21.4	0.00e+00	0	56	0	1961885696	36	4176
2026-01-07 13:03:09.65	268.25	36.59	-32.7	-33.7	21.4	0.00e+00	0	56	0	1967128576	36	4175
2026-01-07 13:03:10.66	268.67	36.57	-32.6	-33.7	21.4	0.00e+00	0	56	0	1973420032	36	4166
2026-01-07 13:03:11.67	269.10	36.55	-32.6	-33.6	21.5	0.00e+00	0	56	0	1978662912	36	4131
2026-01-07 13:03:12.68	269.52	36.53	-32.5	-33.5	21.6	0.00e+00	0	56	0	1984954368	36	4084
2026-01-07 13:03:13.69	269.94	36.51	-32.4	-33.4	21.7	0.00e+00	0	56	0	1990197248	36	4041
2026-01-07 13:03:14.70	270.36	36.48	-32.4	-33.5	21.7	0.00e+00	0	56	0	1995440128	36	4057
2026-01-07 13:03:15.71	270.78	36.45	-32.4	-33.5	21.7	0.00e+00	0	56	0	2001731584	36	4057
2026-01-07 13:03:16.72	271.20	36.43	-32.3	-33.4	21.7	0.00e+00	0	56	0	2006974464	36	4005
2026-01-07 13:03:17.73	271.62	36.39	-32.4	-33.4	21.7	0.00e+00	0	56	0	2013265920	36	4011
2026-01-07 13:03:18.74	272.04	36.36	-32.5	-33.5	21.6	0.00e+00	0	56	0	2018508800	36	4088
2026-01-07 13:03:19.75	272.46	36.33	-32.6	-33.6	21.5	0.00e+00	0	56	0	2023751680	36	4145
2026-01-07 13:03:20.76	272.87	36.29	-32.6	-33.7	21.4	0.00e+00	0	56	0	2030043136	36	4169
2026-01-07 13:03:21.77	273.29	36.26	-32.6	-33.6	21.5	0.00e+00	0	56	0	2035286016	36	4131
2026-01-07 13:03:22.78	273.70	36.22	-32.5	-33.5	21.6	0.00e+00	0	56	0	2041577472	36	4068
2026-01-07 13:03:23.79	274.11	36.18	-32.4	-33.4	21.7	0.00e+00	0	56	0	2046820352	36	4020
2026-01-07 13:03:24.80	274.53	36.13	-32.4	-33.5	21.6	0.00e+00	0	56	0	2053111808	36	4059
2026-01-07 13:03:25.81	274.94	36.09	-32.6	-33.7	21.5	0.00e+00	0	56	0	2058354688	36	4160
2026-01-07 13:03:26.82	275.35	36.04	-32.6	-33.6	21.5	0.00e+00	0	56	0	2064646144	36	4134
2026-01-07 13:03:27.83	275.76	36.00	-32.4	-33.4	21.7	0.00e+00	0	56	0	2069889024	36	4034
2026-01-07 13:03:28.84	276.16	35.95	-32.3	-33.3	21.8	0.00e+00	0	56	0	2075131904	36	3978
2026-01-07 13:03:29.85	276.57	35.90	-32.3	-33.3	21.8	0.00e+00	0	56	0	2081423360	36	3993
2026-01-07 13:03:30.86	276.98	35.85	-32.5	-33.5	21.6	0.00e+00	0	56	0	2086666240	36	4074
2026-01-07 13:03:31.87	277.38	35.80	-32.5	-33.6	21.5	0.00e+00	0	56	0	2092957696	36	4106
2026-01-07 13:03:32.88	277.78	35.74	-32.5	-33.5	21.6	0.00e+00	0	56	0	2098200576	36	4077
2026-01-07 13:03:33.89	278.18	35.69	-32.5	-33.5	21.6	0.00e+00	0	56	0	2103443456	36	4075
2026-01-07 13:03:34.90	278.58	35.63	-32.4	-33.4	21.7	0.00e+00	0	56	0	2109734912	36	4031
2026-01-07 13:03:35.91	278.98	35.57	-32.5	-33.5	21.6	0.00e+00	0	56	0	2114977792	36	4058
2026-01-07 13:03:36.92	279.38	35.51	-32.6	-33.7	21.4	0.00e+00	0	56	0	2121269248	36	4169
2026-01-07 13:03:37.94	279.78	35.45	-32.9	-34.0	21.2	0.00e+00	0	56	0	2126512128	36	4302
2026-01-07 13:03:38.95	280.17	35.39	-32.9	-34.0	21.2	0.00e+00	0	56	0	2131755008	36	4311
2026-01-07 13:03:39.96	280.57	35.32	-32.8	-33.9	21.2	0.00e+00	0	56	0	2138046464	36	4261
2026-01-07 13:03:40.97	280.96	35.26	-32.6	-33.7	21.4	0.00e+00	0	56	0	2143289344	36	4154
2026-01-07 13:03:41.98	281.35	35.19	-32.5	-33.5	21.6	0.00e+00	0	56	0	2149580800	36	4060
2026-01-07 13:03:42.99	281.73	35.12	-32.4	-33.4	21.6	0.00e+00	0	56	0	2154823680	36	4046
2026-01-07 13:03:43.99	282.12	35.05	-32.5	-33.5	21.6	0.00e+00	0	56	0	2161115136	36	4069
2026-01-07 13:03:45.00	282.50	34.98	-32.6	-33.6	21.5	0.00e+00	0	56	0	2166358016	36	4132
2026-01-07 13:03:46.01	282.88	34.91	-32.7	-33.7	21.4	0.00e+00	0	56	0	2171600896	36	4179
2026-01-07 13:03:47.02	283.26	34.84	-32.7	-33.8	21.3	0.00e+00	0	56	0	2177892352	36	4211
2026-01-07 13:03:48.03	283.64	34.76	-32.7	-33.8	21.3	0.00e+00	0	56	0	2183135232	36	4215
2026-01-07 13:03:49.04	284.02	34.69	-32.8	-33.8	21.3	0.00e+00	0	56	0	2189426688	36	4229
2026-01-07 13:03:50.05	284.40	34.61	-32.7	-33.7	21.4	0.00e+00	0	56	0	2194669568	36	4188
2026-01-07 13:03:51.06	284.77	34.53	-32.7	-33.7	21.4	0.00e+00	0	56	0	2200961024	36	4179
2026-01-07 13:03:52.07	285.14	34.45	-32.7	-33.8	21.4	0.00e+00	0	56	0	2206203904	36	4194
2026-01-07 13:03:53.08	285.52	34.37	-32.8	-33.8	21.3	0.00e+00	0	56	0	2211446784	36	4239
2026-01-07 13:03:54.09	285.88	34.29	-32.8	-33.8	21.3	0.00e+00	0	56	0	2217738240	36	4229
2026-01-07 13:03:55.10	286.25	34.21	-32.7	-33.7	21.4	0.00e+00	0	56	0	2222981120	36	4183
2026-01-07 13:03:56.11	286.62	34.13	-32.7	-33.7	21.4	0.00e+00	0	56	0	2228224000	36	4173
2026-01-07 13:03:57.12	286.98	34.04	-32.7	-33.8	21.3	0.00e+00	0	56	0	2234515456	36	4214
2026-01-07 13:03:58.13	287.34	33.96	-33.0	-34.1	21.1	0.00e+00	0	56	0	2239758336	36	4352
2026-01-07 13:03:59.14	287.70	33.87	-33.1	-34.2	20.9	0.00e+00	0	56	0	2246049792	36	4416
2026-01-07 13:04:00.15	288.06	33.78	-33.1	-34.2	21.0	0.00e+00	0	56	0	2251292672	36	4392
2026-01-07 13:04:01.16	288.41	33.70	-33.0	-34.0	21.1	0.00e+00	0	56	0	2257584128	36	4329
2026-01-07 13:04:02.17	288.77	33.61	-32.9	-34.0	21.1	0.00e+00	0	56	0	2262827008	36	4315
2026-01-07 13:04:03.18	289.12	33.52	-33.0	-34.1	21.1	0.00e+00	0	56	0	2269118464	36	4346
2026-01-07 13:04:04.19	289.47	33.43	-33.1	-34.2	21.0	0.00e+00	0	56	0	2274361344	36	4407
2026-01-07 13:04:05.20	289.82	33.33	-33.1	-34.2	20.9	0.00e+00	0	56	0	2279604224	36	4413
2026-01-07 13:04:06.21	290.16	33.24	-33.1	-34.1	21.0	0.00e+00	0	56	0	2285895680	36	4383
2026-01-07 13:04:07.22	290.51	33.15	-33.0	-34.1	21.0	0.00e+00	0	56	0	2291138560	36	4348
2026-01-07 13:04:08.23	290.85	33.05	-33.1	-34.2	21.0	0.00e+00	0	56	0	2297430016	36	4401
2026-01-07 13:04:09.24	291.19	32.96	-33.1	-34.2	20.9	0.00e+00	0	56	0	2302672896	36	4414
2026-01-07 13:04:10.25	291.53	32.86	-33.2	-34.3	20.9	0.00e+00	0	56	0	2307915776	36	4445
2026-01-07 13:04:11.26	291.87	32.77	-33.1	-34.2	20.9	0.00e+00	0	56	0	2314207232	36	4424
2026-01-07 13:04:12.27	292.20	32.67	-33.1	-34.2	20.9	0.00e+00	0	56	0	2319450112	36	4417
2026-01-07 13:04:13.28	292.53	32.57	-33.1	-34.2	20.9	0.00e+00	0	56	0	2325741568	36	4409
2026-01-07 13:04:14.29	292.86	32.47	-33.2	-34.3	20.9	0.00e+00	0	56	0	2330984448	36	4444
2026-01-07 13:04:15.30	293.19	32.37	-33.2	-34.3	20.8	0.00e+00	0	56	0	2336227328	36	4470
2026-01-07 13:04:16.31	293.52	32.27	-33.2	-34.3	20.8	0.00e+00	0	56	0	2342518784	37	4223
2026-01-07 13:04:17.32	293.84	32.17	-33.2	-34.3	20.8	0.00e+00	0	56	0	2347761664	37	4229
2026-01-07 13:04:18.33	294.16	32.07	-33.2	-34.3	20.8	0.00e+00	0	56	0	2354053120	37	4210
2026-01-07 13:04:19.34	294.48	31.97	-33.1	-34.2	20.9	0.00e+00	0	56	0	2359296000	37	4175
2026-01-07 13:04:20.35	294.80	31.86	-33.2	-34.2	20.9	0.00e+00	0	56	0	2365587456	37	4187
2026-01-07 13:04:21.36	295.12	31.76	-33.2	-34.3	20.8	0.00e+00	0	56	0	2370830336	37	4198
2026-01-07 13:04:22.37	295.43	31.66	-33.1	-34.2	20.9	0.00e+00	0	56	0	2377121792	37	4183
2026-01-07 13:04:23.38	295.75	31.55	-33.2	-34.3	20.9	0.00e+00	0	56	0	2382364672	37	4194
2026-01-07 13:04:24.39	296.06	31.45	-33.1	-34.2	20.9	0.00e+00	0	56	0	2387607552	37	4170
2026-01-07 13:04:25.40	296.37	31.34	-33.1	-34.1	20.9	0.00e+00	0	56	0	2393899008	37	4142
2026-01-07 13:04:26.41	296.67	31.23	-33.1	-34.1	20.9	0.00e+00	0	56	0	2399141888	37	4131
2026-01-07 13:04:27.42	296.98	31.13	-33.0	-34.1	21.0	0.00e+00	0	56	0	2405433344	37	4119
2026-01-07 13:04:28.43	297.28	31.02	-32.9	-34.0	21.1	0.00e+00	0	56	0	2410676224	37	4069
2026-01-07 13:04:29.44	297.58	30.91	-32.8	-33.8	21.2	0.00e+00	0	56	0	2415919104	37	3999
2026-01-07 13:04:30.45	297.88	30.80	-32.8	-33.8	21.2	0.00e+00	0	56	0	2422210560	37	3992
2026-01-07 13:04:31.47	298.18	30.70	-32.9	-33.9	21.1	0.00e+00	0	56	0	2427453440	37	4039
2026-01-07 13:04:32.48	298.47	30.59	-33.0	-34.1	21.0	0.00e+00	0	56	0	2433744896	37	4128
2026-01-07 13:04:33.49	298.76	30.48	-33.2	-34.3	20.8	0.00e+00	0	56	0	2438987776	37	4206
2026-01-07 13:04:34.50	299.05	30.37	-33.2	-34.3	20.8	0.00e+00	0	56	0	2444230656	37	4217
2026-01-07 13:04:35.51	299.34	30.26	-33.1	-34.2	20.8	0.00e+00	0	56	0	2450522112	37	4184
2026-01-07 13:04:36.52	299.63	30.15	-33.1	-34.2	20.9	0.00e+00	0	56	0	2455764992	37	4156
2026-01-07 13:04:37.53	299.92	30.04	-33.0	-34.1	20.9	0.00e+00	0	56	0	2462056448	37	4127
2026-01-07 13:04:38.54	300.20	29.93	-33.1	-34.1	20.9	0.00e+00	0	56	0	2467299328	37	4133
2026-01-07 13:04:39.55	300.48	29.81	-33.1	-34.2	20.9	0.00e+00	0	56	0	2473590784	37	4159
2026-01-07 13:04:40.56	300.76	29.70	-33.1	-34.2	20.8	0.00e+00	0	56	0	2478833664	37	4169
2026-01-07 13:04:41.57	301.04	29.59	-33.1	-34.2	20.8	0.00e+00	0	56	0	2485125120	37	4186
2026-01-07 13:04:42.58	301.31	29.48	-33.2	-34.3	20.8	0.00e+00	0	56	0	2490368000	37	4202
2026-01-07 13:04:43.59	301.58	29.37	-33.2	-34.3	20.8	0.00e+00	0	56	0	2495610880	37	4203
2026-01-07 13:04:44.60	301.86	29.25	-33.2	-34.3	20.8	0.00e+00	0	56	0	2501902336	37	4195
2026-01-07 13:04:45.61	302.13	29.14	-33.2	-34.3	20.7	0.00e+00	0	56	0	2507145216	37	4213
2026-01-07 13:04:46.62	302.39	29.03	-33.2	-34.3	20.7	0.00e+00	0	56	0	2513436672	37	4222
2026-01-07 13:04:47.63	302.66	28.91	-33.2	-34.3	20.7	0.00e+00	0	56	0	2518679552	37	4230
2026-01-07 13:04:48.64	302.92	28.80	-33.3	-34.3	20.7	0.00e+00	0	56	0	2523922432	37	4234
2026-01-07 13:04:49.65	303.19	28.69	-33.3	-34.4	20.6	0.00e+00	0	56	0	2530213888	37	4244
2026-01-07 13:04:50.66	303.45	28.57	-33.3	-34.4	20.6	0.00e+00	0	56	0	2535456768	37	4259
2026-01-07 13:04:51.67	303.70	28.46	-33.3	-34.4	20.6	0.00e+00	0	56	0	2541748224	37	4274
2026-01-07 13:04:52.68	303.96	28.35	-33.4	-34.5	20.6	0.00e+00	0	56	0	2546991104	37	4297
2026-01-07 13:04:53.69	304.22	28.23	-33.4	-34.6	20.5	0.00e+00	0	56	0	2552233984	37	4349
2026-01-07 13:04:54.69	304.47	28.12	-33.5	-34.6	20.4	0.00e+00	0	56	0	2558525440	37	4379
2026-01-07 13:04:55.70	304.72	28.00	-33.5	-34.6	20.5	0.00e+00	0	56	0	2563768320	37	4364
2026-01-07 13:04:56.71	304.97	27.89	-33.4	-34.5	20.5	0.00e+00	0	56	0	2570059776	37	4318
2026-01-07 13:04:57.72	305.22	27.78	-33.2	-34.3	20.7	0.00e+00	0	56	0	2575302656	37	4210
2026-01-07 13:04:58.73	305.46	27.66	-33.1	-34.2	20.8	0.00e+00	0	56	0	2581594112	37	4169
2026-01-07 13:04:59.74	305.71	27.55	-33.1	-34.1	20.8	0.00e+00	0	56	0	2586836992	37	4142
2026-01-07 13:05:00.76	305.95	27.43	-33.2	-34.3	20.7	0.00e+00	0	56	0	2592079872	37	4209
2026-01-07 13:05:01.77	306.19	27.32	-33.4	-34.5	20.5	0.00e+00	0	56	0	2598371328	37	4300
2026-01-07 13:05:02.77	306.43	27.20	-33.5	-34.6	20.4	0.00e+00	0	56	0	2603614208	37	4371
2026-01-07 13:05:03.78	306.67	27.09	-33.6	-34.8	20.2	0.00e+00	0	56	0	2609905664	37	4452
2026-01-07 13:05:04.79	306.91	26.97	-33.6	-34.8	20.2	0.00e+00	0	56	0	2615148544	37	4459
2026-01-07 13:05:05.80	307.14	26.86	-33.7	-34.8	20.2	0.00e+00	0	56	0	2620391424	37	4482
2026-01-07 13:05:06.81	307.37	26.74	-33.7	-34.8	20.2	0.00e+00	0	56	0	2626682880	37	4475
2026-01-07 13:05:07.82	307.60	26.63	-33.7	-34.8	20.2	0.00e+00	0	56	0	2631925760	37	4460
2026-01-07 13:05:08.83	307.83	26.51	-33.6	-34.7	20.2	0.00e+00	0	56	0	2638217216	37	4436
2026-01-07 13:05:09.84	308.06	26.40	-33.6	-34.8	20.2	0.00e+00	0	56	0	2643460096	37	4442
2026-01-07 13:05:10.85	308.29	26.28	-33.6	-34.7	20.3	0.00e+00	0	56	0	2648702976	37	4411
2026-01-07 13:05:11.86	308.51	26.17	-33.5	-34.7	20.3	0.00e+00	0	56	0	2654994432	37	4394
2026-01-07 13:05:12.87	308.73	26.05	-33.5	-34.6	20.4	0.00e+00	0	56	0	2660237312	37	4369
2026-01-07 13:05:13.88	308.96	25.94	-33.5	-34.6	20.4	0.00e+00	0	56	0	2666528768	37	4364
2026-01-07 13:05:14.89	309.18	25.82	-33.5	-34.6	20.4	0.00e+00	0	57	0	2671771648	37	4370
2026-01-07 13:05:15.89	309.39	25.71	-33.4	-34.6	20.4	0.00e+00	0	56	0	2678063104	37	4344
2026-01-07 13:05:16.90	309.61	25.59	-33.4	-34.5	20.4	0.00e+00	0	56	0	2683305984	37	4340
2026-01-07 13:05:17.91	309.82	25.48	-33.3	-34.5	20.5	0.00e+00	0	56	0	2689597440	37	4297
2026-01-07 13:05:18.93	310.04	25.36	-33.3	-34.4	20.5	0.00e+00	0	56	0	2694840320	37	4279
2026-01-07 13:05:19.94	310.25	25.25	-33.2	-34.3	20.6	0.00e+00	0	56	0	2700083200	37	4222
2026-01-07 13:05:20.95	310.46	25.14	-33.2	-34.3	20.6	0.00e+00	0	56	0	2706374656	37	4219
2026-01-07 13:05:21.96	310.67	25.02	-33.3	-34.4	20.6	0.00e+00	0	56	0	2711617536	37	4249
2026-01-07 13:05:22.97	310.88	24.91	-33.3	-34.4	20.5	0.00e+00	0	56	0	2717908992	37	4282
2026-01-07 13:05:23.98	311.09	24.79	-33.4	-34.5	20.4	0.00e+00	0	56	0	2723151872	37	4326
2026-01-07 13:05:24.99	311.29	24.68	-33.4	-34.6	20.4	0.00e+00	0	56	0	2728394752	37	4343
2026-01-07 13:05:26.00	311.49	24.57	-33.5	-34.7	20.3	0.00e+00	0	56	0	2734686208	37	4398
2026-01-07 13:05:27.01	311.70	24.45	-33.6	-34.7	20.3	0.00e+00	0	56	0	2739929088	37	4419
2026-01-07 13:05:28.01	311.89	24.34	-33.6	-34.8	20.2	0.00e+00	0	57	0	2746220544	37	4461
2026-01-07 13:05:29.02	312.09	24.23	-33.7	-34.8	20.1	0.00e+00	0	56	0	2751463424	37	4486
2026-01-07 13:05:30.03	312.29	24.11	-33.7	-34.9	20.1	0.00e+00	0	56	0	2756706304	38	4260
2026-01-07 13:05:31.04	312.49	24.00	-33.8	-34.9	20.0	0.00e+00	0	57	0	2762997760	38	4268
2026-01-07 13:05:32.05	312.68	23.89	-33.8	-34.9	20.0	0.00e+00	0	56	0	2768240640	38	4276
2026-01-07 13:05:33.06	312.88	23.77	-33.8	-34.9	20.1	0.00e+00	0	56	0	2774532096	38	4260
2026-01-07 13:05:34.07	313.07	23.66	-33.8	-34.9	20.0	0.00e+00	0	56	0	2779774976	38	4272
2026-01-07 13:05:35.08	313.26	23.55	-33.8	-34.9	20.0	0.00e+00	0	56	0	2786066432	38	4281
2026-01-07 13:05:36.09	313.45	23.44	-33.9	-35.0	19.9	0.00e+00	0	56	0	2791309312	38	4317
2026-01-07 13:05:37.10	313.64	23.33	-33.9	-35.1	19.8	0.00e+00	0	57	0	2796552192	38	4355
2026-01-07 13:05:38.11	313.82	23.21	-34.0	-35.1	19.8	0.00e+00	0	57	0	2802843648	38	4381
2026-01-07 13:05:39.12	314.01	23.10	-34.0	-35.2	19.8	0.00e+00	0	57	0	2808086528	38	4419
2026-01-07 13:05:40.13	314.19	22.99	-34.1	-35.3	19.7	0.00e+00	0	56	0	2814377984	38	4453
2026-01-07 13:05:41.14	314.38	22.88	-34.1	-35.3	19.6	0.00e+00	0	56	0	2819620864	38	4473
2026-01-07 13:05:42.15	314.56	22.77	-34.1	-35.3	19.7	0.00e+00	0	56	0	2824863744	38	4463
2026-01-07 13:05:43.16	314.74	22.66	-34.1	-35.3	19.6	0.00e+00	0	56	0	2831155200	38	4477
2026-01-07 13:05:44.17	314.92	22.55	-34.1	-35.3	19.6	0.00e+00	0	56	0	2836398080	38	4467
2026-01-07 13:05:45.18	315.10	22.44	-34.1	-35.3	19.7	0.00e+00	0	56	0	2842689536	38	4449
2026-01-07 13:05:46.19	315.27	22.33	-34.1	-35.3	19.7	0.00e+00	0	56	0	2847932416	38	4453
2026-01-07 13:05:47.20	315.45	22.22	-34.0	-35.2	19.7	0.00e+00	0	56	0	2853175296	38	4405
2026-01-07 13:05:48.21	315.62	22.11	-34.0	-35.2	19.7	0.00e+00	0	56	0	2859466752	38	4415
2026-01-07 13:05:49.22	315.80	22.00	-34.0	-35.2	19.8	0.00e+00	0	57	0	2864709632	38	4392
2026-01-07 13:05:50.23	315.97	21.89	-34.0	-35.2	19.7	0.00e+00	0	56	0	2871001088	38	4399
2026-01-07 13:05:51.24	316.14	21.78	-34.0	-35.1	19.7	0.00e+00	0	56	0	2876243968	38	4386
2026-01-07 13:05:52.25	316.31	21.67	-34.0	-35.2	19.7	0.00e+00	0	57	0	2882535424	38	4392
2026-01-07 13:05:53.26	316.48	21.56	-34.1	-35.2	19.6	0.00e+00	0	56	0	2887778304	38	4439
2026-01-07 13:05:54.27	316.65	21.45	-34.2	-35.3	19.6	0.00e+00	0	56	0	2894069760	38	4483
2026-01-07 13:05:55.27	316.81	21.34	-34.2	-35.4	19.5	0.00e+00	0	57	0	2899312640	39	4279
2026-01-07 13:05:56.28	316.98	21.24	-34.3	-35.5	19.4	0.00e+00	0	56	0	2904555520	39	4316
2026-01-07 13:05:57.29	317.14	21.13	-34.4	-35.6	19.3	0.00e+00	0	56	0	2910846976	39	4374
2026-01-07 13:05:58.30	317.30	21.02	-34.5	-35.7	19.2	0.00e+00	0	56	0	2916089856	39	4424
2026-01-07 13:05:59.31	317.46	20.91	-34.5	-35.7	19.2	0.00e+00	0	56	0	2921332736	39	4433
2026-01-07 13:06:00.32	317.63	20.81	-34.5	-35.7	19.2	0.00e+00	0	57	0	2927624192	39	4434
2026-01-07 13:06:01.33	317.78	20.70	-34.5	-35.7	19.2	0.00e+00	0	56	0	2932867072	39	4439
2026-01-07 13:06:02.34	317.94	20.59	-34.5	-35.7	19.2	0.00e+00	0	56	0	2939158528	39	4417
2026-01-07 13:06:03.35	318.10	20.49	-34.4	-35.6	19.3	0.00e+00	0	56	0	2944401408	39	4378
2026-01-07 13:06:04.36	318.26	20.38	-34.4	-35.6	19.3	0.00e+00	0	56	0	2949644288	39	4361
2026-01-07 13:06:05.37	318.41	20.27	-34.4	-35.6	19.3	0.00e+00	0	56	0	2955935744	39	4358
2026-01-07 13:06:06.38	318.57	20.17	-34.4	-35.6	19.3	0.00e+00	0	57	0	2961178624	39	4361
2026-01-07 13:06:07.39	318.72	20.06	-34.5	-35.6	19.2	0.00e+00	0	57	0	2967470080	39	4389
2026-01-07 13:06:08.40	318.87	19.96	-34.5	-35.7	19.2	0.00e+00	0	57	0	2972712960	39	4432
2026-01-07 13:06:09.41	319.02	19.85	-34.6	-35.8	19.1	0.00e+00	0	56	0	2979004416	39	4479
2026-01-07 13:06:10.42	319.17	19.75	-34.6	-35.9	19.0	0.00e+00	0	56	0	2984247296	39	4500
2026-01-07 13:06:11.43	319.32	19.64	-34.7	-35.9	18.9	0.00e+00	0	57	0	2990538752	40	4283
2026-01-07 13:06:12.44	319.47	19.54	-34.8	-36.0	18.7	0.00e+00	0	56	0	2995781632	40	4335
2026-01-07 13:06:13.45	319.62	19.44	-34.8	-36.1	18.7	0.00e+00	0	56	0	3001024512	40	4341
2026-01-07 13:06:14.46	319.77	19.33	-34.9	-36.2	18.6	0.00e+00	0	56	0	3007315968	40	4395
2026-01-07 13:06:15.47	319.91	19.23	-35.0	-36.3	18.6	0.00e+00	0	56	0	3012558848	40	4443
2026-01-07 13:06:16.48	320.06	19.13	-34.9	-36.2	18.6	0.00e+00	0	56	0	3018850304	40	4426
2026-01-07 13:06:17.49	320.20	19.02	-35.0	-36.3	18.5	0.00e+00	0	56	0	3024093184	40	4448
2026-01-07 13:06:18.50	320.34	18.92	-35.0	-36.3	18.4	0.00e+00	0	56	0	3029336064	40	4491
2026-01-07 13:06:19.51	320.48	18.82	-35.1	-36.3	18.4	0.00e+00	0	57	0	3035627520	40	4491
2026-01-07 13:06:20.52	320.62	18.72	-35.0	-36.3	18.4	0.00e+00	0	57	0	3040870400	40	4483
2026-01-07 13:06:21.53	320.76	18.61	-35.0	-36.4	18.4	0.00e+00	0	57	0	3047161856	40	4497
2026-01-07 13:06:22.54	320.90	18.51	-35.1	-36.4	18.4	0.00e+00	0	57	0	3052404736	40	4505
2026-01-07 13:06:23.55	321.04	18.41	-35.1	-36.4	18.4	0.00e+00	0	57	0	3057647616	40	4522
2026-01-07 13:06:24.56	321.18	18.31	-35.1	-36.4	18.3	0.00e+00	0	56	0	3063939072	40	4543
2026-01-07 13:06:25.57	321.31	18.21	-35.2	-36.5	18.3	0.00e+00	0	56	0	3069181952	40	4580
2026-01-07 13:06:26.58	321.45	18.11	-35.2	-36.6	18.2	0.00e+00	0	56	0	3075473408	41	4347
2026-01-07 13:06:27.59	321.58	18.01	-35.3	-36.6	18.1	0.00e+00	0	57	0	3080716288	41	4378
2026-01-07 13:06:28.60	321.72	17.91	-35.3	-36.6	18.1	0.00e+00	0	57	0	3087007744	41	4375
2026-01-07 13:06:29.61	321.85	17.81	-35.3	-36.6	18.1	0.00e+00	0	56	0	3092250624	41	4373
2026-01-07 13:06:30.62	321.98	17.71	-35.3	-36.6	18.1	0.00e+00	0	57	0	3098542080	41	4382
2026-01-07 13:06:31.63	322.11	17.61	-35.3	-36.6	18.2	0.00e+00	0	56	0	3103784960	41	4364
2026-01-07 13:06:32.64	322.24	17.51	-35.2	-36.6	18.2	0.00e+00	0	57	0	3109027840	41	4352
2026-01-07 13:06:33.65	322.37	17.41	-35.2	-36.5	18.2	0.00e+00	0	57	0	3115319296	41	4338
2026-01-07 13:06:34.65	322.50	17.32	-35.2	-36.5	18.2	0.00e+00	0	56	0	3120562176	41	4324
2026-01-07 13:06:35.67	322.63	17.22	-35.1	-36.5	18.3	0.00e+00	0	56	0	3126853632	41	4294
2026-01-07 13:06:36.68	322.76	17.12	-35.1	-36.4	18.3	0.00e+00	0	56	0	3132096512	41	4271
2026-01-07 13:06:37.69	322.88	17.02	-35.1	-36.4	18.3	0.00e+00	0	56	0	3137339392	41	4271
2026-01-07 13:06:38.69	323.01	16.92	-35.1	-36.4	18.3	0.00e+00	0	57	0	3143630848	41	4278
2026-01-07 13:06:39.70	323.13	16.83	-35.1	-36.4	18.3	0.00e+00	0	56	0	3148873728	41	4273
2026-01-07 13:06:40.72	323.26	16.73	-35.1	-36.4	18.3	0.00e+00	0	57	0	3155165184	41	4282
2026-01-07 13:06:41.73	323.38	16.63	-35.1	-36.4	18.3	0.00e+00	0	56	0	3160408064	41	4265
2026-01-07 13:06:42.73	323.50	16.54	-35.1	-36.4	18.2	0.00e+00	0	56	0	3165650944	41	4287
2026-01-07 13:06:43.75	323.62	16.44	-35.2	-36.5	18.2	0.00e+00	0	56	0	3171942400	41	4309
2026-01-07 13:06:44.76	323.75	16.35	-35.2	-36.5	18.2	0.00e+00	0	56	0	3177185280	41	4329
2026-01-07 13:06:45.77	323.87	16.25	-35.2	-36.5	18.2	0.00e+00	0	56	0	3183476736	41	4313
2026-01-07 13:06:46.78	323.99	16.15	-35.3	-36.6	18.1	0.00e+00	0	57	0	3188719616	41	4356
2026-01-07 13:06:47.79	324.10	16.06	-35.3	-36.6	18.1	0.00e+00	0	56	0	3195011072	41	4369
2026-01-07 13:06:48.80	324.22	15.96	-35.3	-36.6	18.1	0.00e+00	0	57	0	3200253952	41	4359
2026-01-07 13:06:49.80	324.34	15.87	-35.2	-36.6	18.1	0.00e+00	0	57	0	3205496832	41	4341
2026-01-07 13:06:50.81	324.45	15.78	-35.3	-36.6	18.0	0.00e+00	0	57	0	3211788288	41	4381
2026-01-07 13:06:51.82	324.57	15.68	-35.2	-36.6	18.1	0.00e+00	0	56	0	3217031168	41	4342
2026-01-07 13:06:52.83	324.69	15.59	-35.3	-36.6	18.1	0.00e+00	0	57	0	3223322624	41	4357
2026-01-07 13:06:53.84	324.80	15.50	-35.4	-36.7	18.0	0.00e+00	0	57	0	3228565504	41	4416
2026-01-07 13:06:54.85	324.91	15.40	-35.4	-36.7	17.9	0.00e+00	0	57	0	3233808384	41	4435
2026-01-07 13:06:55.86	325.03	15.31	-35.4	-36.8	17.9	0.00e+00	0	57	0	3240099840	41	4444
2026-01-07 13:06:56.87	325.14	15.22	-35.4	-36.8	17.9	0.00e+00	0	57	0	3245342720	41	4448
2026-01-07 13:06:57.88	325.25	15.12	-35.5	-36.9	17.8	0.00e+00	0	57	0	3251634176	41	4495
2026-01-07 13:06:58.89	325.36	15.03	-35.5	-36.9	17.8	0.00e+00	0	56	0	3256877056	41	4508
2026-01-07 13:06:59.90	325.47	14.94	-35.6	-37.0	17.7	0.00e+00	0	56	0	3262119936	41	4551
2026-01-07 13:07:00.91	325.58	14.85	-35.6	-37.0	17.7	0.00e+00	0	57	0	3268411392	41	4547
2026-01-07 13:07:01.92	325.69	14.76	-35.7	-37.1	17.6	0.00e+00	0	57	0	3273654272	41	4624
2026-01-07 13:07:02.94	325.80	14.67	-35.7	-37.1	17.6	0.00e+00	0	56	0	3279945728	41	4614
2026-01-07 13:07:03.95	325.91	14.57	-35.7	-37.1	17.6	0.00e+00	0	57	0	3285188608	41	4619
2026-01-07 13:07:04.96	326.02	14.48	-35.7	-37.2	17.5	0.00e+00	0	57	0	3291480064	42	4393
2026-01-07 13:07:05.96	326.12	14.39	-35.7	-37.1	17.5	0.00e+00	0	56	0	3296722944	42	4368
2026-01-07 13:07:06.97	326.23	14.30	-35.7	-37.1	17.5	0.00e+00	0	57	0	3303014400	42	4363
2026-01-07 13:07:07.97	326.33	14.21	-35.7	-37.1	17.6	0.00e+00	0	57	0	3308257280	42	4363
2026-01-07 13:07:08.98	326.44	14.13	-35.7	-37.1	17.5	0.00e+00	0	57	0	3313500160	42	4360
2026-01-07 13:07:09.99	326.54	14.04	-35.7	-37.1	17.5	0.00e+00	0	57	0	3319791616	42	4365
2026-01-07 13:07:11.00	326.65	13.95	-35.7	-37.1	17.5	0.00e+00	0	57	0	3325034496	42	4352
2026-01-07 13:07:12.01	326.75	13.86	-35.7	-37.1	17.5	0.00e+00	0	57	0	3331325952	42	4381
2026-01-07 13:07:13.03	326.85	13.77	-35.7	-37.1	17.5	0.00e+00	0	57	0	3336568832	42	4383
2026-01-07 13:07:14.04	326.95	13.68	-35.8	-37.2	17.4	0.00e+00	0	57	0	3341811712	42	4418
2026-01-07 13:07:15.05	327.06	13.59	-35.8	-37.2	17.3	0.00e+00	0	57	0	3348103168	42	4437
2026-01-07 13:07:16.06	327.16	13.50	-35.8	-37.3	17.3	0.00e+00	0	57	0	3353346048	42	4451
2026-01-07 13:07:17.07	327.26	13.42	-35.9	-37.4	17.2	0.00e+00	0	57	0	3359637504	42	4514
2026-01-07 13:07:18.08	327.36	13.33	-36.1	-37.5	17.0	0.00e+00	0	57	0	3364880384	42	4586
2026-01-07 13:07:19.09	327.45	13.24	-36.1	-37.6	16.9	0.00e+00	0	57	0	3370123264	42	4633
2026-01-07 13:07:20.10	327.55	13.15	-36.2	-37.7	16.9	0.00e+00	0	57	0	3376414720	42	4657
2026-01-07 13:07:21.11	327.65	13.07	-36.2	-37.7	16.8	0.00e+00	0	57	0	3381657600	43	4432
2026-01-07 13:07:22.11	327.75	12.98	-36.3	-37.8	16.7	0.00e+00	0	57	0	3387949056	43	4460
2026-01-07 13:07:23.13	327.84	12.89	-36.2	-37.7	16.8	0.00e+00	0	57	0	3393191936	43	4440
2026-01-07 13:07:24.14	327.94	12.81	-36.2	-37.7	16.8	0.00e+00	0	57	0	3399483392	43	4427
2026-01-07 13:07:25.15	328.04	12.72	-36.3	-37.8	16.7	0.00e+00	0	57	0	3404726272	43	4469
2026-01-07 13:07:26.16	328.13	12.64	-36.3	-37.8	16.7	0.00e+00	0	57	0	3411017728	43	4454
2026-01-07 13:07:27.16	328.23	12.55	-36.3	-37.8	16.7	0.00e+00	0	57	0	3416260608	43	4461
2026-01-07 13:07:28.17	328.32	12.47	-36.3	-37.9	16.6	0.00e+00	0	57	0	3421503488	43	4502
2026-01-07 13:07:29.18	328.41	12.38	-36.3	-37.8	16.7	0.00e+00	0	57	0	3427794944	43	4491
2026-01-07 13:07:30.19	328.51	12.30	-36.4	-37.9	16.6	0.00e+00	0	57	0	3433037824	43	4511
2026-01-07 13:07:31.20	328.60	12.21	-36.3	-37.9	16.6	0.00e+00	0	57	0	3439329280	43	4495
2026-01-07 13:07:32.21	328.69	12.13	-36.3	-37.8	16.7	0.00e+00	0	56	0	3444572160	43	4478
2026-01-07 13:07:33.23	328.78	12.04	-36.4	-37.9	16.5	0.00e+00	0	56	0	3449815040	43	4542
2026-01-07 13:07:34.23	328.87	11.96	-36.3	-37.9	16.6	0.00e+00	0	56	0	3456106496	43	4515
2026-01-07 13:07:35.24	328.96	11.88	-36.5	-38.1	16.4	0.00e+00	0	57	0	3461349376	43	4604
2026-01-07 13:07:36.26	329.06	11.79	-36.5	-38.0	16.4	0.00e+00	0	57	0	3467640832	43	4594
2026-01-07 13:07:37.27	329.15	11.71	-36.4	-38.0	16.5	0.00e+00	0	57	0	3472883712	43	4560
2026-01-07 13:07:38.28	329.23	11.63	-36.4	-37.9	16.5	0.00e+00	0	57	0	3478126592	43	4538
