passes_logs/2026/01/07/R2.0S_Moscow/R2.0S_Moscow__20260107_101454_SUOMI_NPP_rec.log

#Pass ID: 20260107_101454_SUOMI NPP
#Satellite: SUOMI NPP
#Configuration: NPP
#almurnet v.1.7.20251203
#Start time: 2026-01-07 10:20:03

#Version: 2.2.20231116
#Station: R2.0S_Moscow
#Location: 37.707566 lon 55.798166 lat
#TLE: 1 37849U 11061A   26005.94084933  .00000134  00000+0  84554-4 0  9990
#TLE: 2 37849  98.7803 308.0679 0002567  79.1029 281.0436 14.19522657735426

#Time	Az	El	Level	Level2	SNR	BER	BlckErr	Temp	State	Recorded	gain1	gain2
2026-01-07 10:20:03.88	180.44	39.08	-45.9	-64.8	3.8	7.43e-01	0	56	0	0	62	33576
2026-01-07 10:20:04.88	180.57	39.33	-45.1	-59.9	3.8	1.49e+00	0	56	104	0	62	19086
2026-01-07 10:20:05.89	180.70	39.58	-45.2	-59.9	3.8	1.49e+00	0	56	104	0	62	19105
2026-01-07 10:20:06.90	180.83	39.84	-45.2	-59.9	3.8	1.49e+00	0	56	104	0	62	19105
2026-01-07 10:20:07.91	180.97	40.09	-45.1	-59.9	3.8	1.49e+00	0	56	104	0	62	19021
2026-01-07 10:20:08.92	181.10	40.35	-45.1	-59.9	3.8	1.49e+00	0	56	104	0	62	19018
2026-01-07 10:20:09.93	181.24	40.61	-45.1	-59.9	3.8	1.49e+00	0	56	104	0	62	18973
2026-01-07 10:20:10.94	181.38	40.87	-45.1	-59.9	3.8	1.49e+00	0	56	104	0	62	18964
2026-01-07 10:20:11.95	181.53	41.13	-45.1	-59.8	3.8	1.49e+00	0	56	104	0	62	18932
2026-01-07 10:20:12.97	181.67	41.40	-45.1	-59.9	3.8	1.49e+00	0	56	104	0	62	18956
2026-01-07 10:20:13.98	181.82	41.66	-45.1	-59.8	3.8	1.49e+00	0	56	104	0	62	18898
2026-01-07 10:20:14.99	181.97	41.93	-45.1	-59.8	3.8	1.49e+00	0	56	104	0	62	18892
2026-01-07 10:20:16.00	182.13	42.20	-45.1	-59.8	3.8	1.49e+00	0	56	104	0	62	18903
2026-01-07 10:20:17.01	182.28	42.47	-45.1	-59.8	3.8	1.49e+00	0	56	104	0	62	18919
2026-01-07 10:20:18.02	182.44	42.74	-45.1	-59.8	3.8	1.49e+00	0	56	104	0	62	18848
2026-01-07 10:20:19.03	182.60	43.02	-45.1	-59.8	3.8	1.49e+00	0	56	104	0	62	18883
2026-01-07 10:20:20.04	182.76	43.29	-45.1	-59.8	3.8	1.49e+00	0	56	104	0	62	18912
2026-01-07 10:20:21.05	182.93	43.57	-45.1	-59.8	3.8	1.49e+00	0	56	104	0	62	18890
2026-01-07 10:20:22.06	183.10	43.85	-45.1	-59.8	3.8	1.49e+00	0	56	104	0	62	18881
2026-01-07 10:20:23.07	183.27	44.13	-45.1	-59.8	3.8	1.49e+00	0	56	104	0	62	18841
2026-01-07 10:20:24.08	183.45	44.41	-45.1	-59.8	3.8	1.49e+00	0	56	104	0	62	18862
2026-01-07 10:20:25.10	183.63	44.70	-45.1	-59.8	3.8	1.49e+00	0	56	104	0	62	18861
2026-01-07 10:20:26.11	183.81	44.99	-45.1	-59.8	3.8	1.49e+00	0	56	104	0	62	18915
2026-01-07 10:20:27.12	183.99	45.28	-45.1	-59.8	3.8	1.49e+00	0	56	104	0	62	18868
2026-01-07 10:20:28.13	184.18	45.57	-45.1	-59.9	3.8	1.49e+00	0	56	104	0	62	18955
2026-01-07 10:20:29.14	184.37	45.86	-45.1	-59.8	3.8	1.49e+00	0	56	104	0	62	18887
2026-01-07 10:20:30.15	184.57	46.15	-45.1	-59.8	3.8	1.49e+00	0	56	104	0	62	18914
2026-01-07 10:20:31.16	184.77	46.45	-45.1	-59.8	3.8	1.49e+00	0	56	104	0	62	18893
2026-01-07 10:20:32.17	184.97	46.74	-45.1	-59.8	3.8	1.49e+00	0	56	104	0	62	18907
2026-01-07 10:20:33.18	185.17	47.04	-45.1	-59.8	3.8	1.49e+00	0	56	104	0	62	18924
2026-01-07 10:20:34.19	185.38	47.34	-45.1	-59.9	3.8	1.49e+00	0	56	104	0	62	18949
2026-01-07 10:20:35.21	185.60	47.65	-45.1	-59.8	3.8	1.49e+00	0	56	104	0	62	18881
2026-01-07 10:20:36.22	185.82	47.95	-45.1	-59.8	3.8	1.49e+00	0	56	104	0	62	18918
2026-01-07 10:20:37.23	186.04	48.26	-45.1	-59.8	3.8	1.49e+00	0	56	104	0	62	18889
2026-01-07 10:20:38.24	186.27	48.57	-45.1	-59.8	3.8	1.49e+00	0	56	104	0	62	18810
2026-01-07 10:20:39.25	186.50	48.88	-45.1	-59.8	3.8	1.49e+00	0	56	104	0	62	18830
2026-01-07 10:20:40.26	186.74	49.19	-45.1	-59.8	3.8	1.49e+00	0	56	104	0	62	18832
2026-01-07 10:20:41.27	186.98	49.50	-45.1	-59.8	3.8	1.49e+00	0	56	104	0	62	18740
2026-01-07 10:20:42.28	187.22	49.81	-45.1	-59.7	3.8	1.49e+00	0	56	104	0	62	18688
2026-01-07 10:20:43.29	187.47	50.13	-45.1	-59.7	3.8	1.49e+00	0	56	104	0	62	18642
2026-01-07 10:20:44.31	187.73	50.45	-45.1	-59.8	3.8	1.49e+00	0	56	104	0	62	18758
2026-01-07 10:20:45.32	187.99	50.77	-45.1	-59.8	3.8	1.49e+00	0	56	104	0	62	18826
2026-01-07 10:20:46.33	188.26	51.09	-45.1	-59.8	3.8	1.49e+00	0	57	104	0	62	18818
2026-01-07 10:20:47.34	188.53	51.41	-45.1	-59.6	3.8	1.49e+00	0	56	104	0	62	18428
2026-01-07 10:20:48.35	188.81	51.74	-45.1	-59.3	3.8	1.49e+00	0	56	104	0	62	17785
2026-01-07 10:20:49.36	189.09	52.06	-45.0	-59.2	3.8	1.49e+00	0	56	104	0	62	17547
2026-01-07 10:20:50.37	189.38	52.39	-45.0	-59.1	3.8	1.49e+00	0	56	104	0	62	17370
2026-01-07 10:20:51.39	189.68	52.72	-45.0	-58.3	3.8	1.49e+00	0	56	104	0	62	15920
2026-01-07 10:20:52.40	189.99	53.05	-45.0	-58.0	3.9	1.49e+00	0	56	104	0	62	15269
2026-01-07 10:20:53.41	190.30	53.38	-44.9	-57.2	3.8	1.49e+00	0	56	104	0	61	14849
2026-01-07 10:20:54.42	190.62	53.71	-44.5	-53.6	5.3	1.02e+00	0	56	0	0	61	9727
2026-01-07 10:20:55.43	190.94	54.05	-43.2	-48.0	10.4	1.07e-01	0	56	0	2097152	58	6063
2026-01-07 10:20:56.44	191.27	54.38	-41.0	-43.9	14.5	6.03e-04	0	56	0	4194304	54	4760
2026-01-07 10:20:57.45	191.61	54.72	-38.9	-40.8	17.6	0.00e+00	0	56	0	6291456	49	4467
2026-01-07 10:20:58.46	191.96	55.05	-38.8	-40.6	17.8	0.00e+00	0	56	0	8388608	48	4642
2026-01-07 10:20:59.47	192.32	55.39	-41.6	-44.9	13.6	0.00e+00	0	56	0	9437184	53	5704
2026-01-07 10:21:00.48	192.68	55.73	-39.4	-41.4	16.5	3.08e-01	0	56	0	11534336	50	4522
2026-01-07 10:21:01.49	193.06	56.07	-40.3	-42.8	15.7	0.00e+00	0	56	0	13631488	51	5005
2026-01-07 10:21:02.50	193.44	56.41	-39.2	-41.2	17.0	6.57e-04	0	56	0	15728640	50	4410
2026-01-07 10:21:03.51	193.83	56.75	-41.8	-45.3	12.8	3.15e-04	0	56	0	17825792	55	5286
2026-01-07 10:21:04.52	194.24	57.10	-39.8	-42.1	16.3	3.80e-06	0	56	0	18874368	51	4635
2026-01-07 10:21:05.53	194.65	57.44	-39.5	-41.7	16.7	0.00e+00	0	56	0	20971520	50	4686
2026-01-07 10:21:06.54	195.07	57.79	-39.4	-41.5	16.9	0.00e+00	0	56	0	23068672	50	4586
2026-01-07 10:21:07.55	195.51	58.13	-39.4	-41.6	16.8	0.00e+00	0	56	0	25165824	50	4629
2026-01-07 10:21:08.56	195.95	58.48	-39.5	-41.6	16.7	0.00e+00	0	56	0	27262976	50	4639
2026-01-07 10:21:09.57	196.41	58.82	-38.9	-40.8	17.5	0.00e+00	0	56	0	28311552	49	4487
2026-01-07 10:21:10.58	196.88	59.17	-38.4	-40.3	18.1	0.00e+00	0	56	0	30408704	48	4452
2026-01-07 10:21:11.59	197.36	59.51	-37.8	-39.5	18.7	0.00e+00	0	56	0	32505856	47	4338
2026-01-07 10:21:12.60	197.85	59.86	-37.6	-39.2	18.9	0.00e+00	0	56	0	34603008	47	4184
2026-01-07 10:21:13.61	198.36	60.21	-37.4	-39.0	19.2	0.00e+00	0	56	0	36700160	46	4298
2026-01-07 10:21:14.62	198.88	60.55	-37.1	-38.7	19.5	0.00e+00	0	56	0	38797312	46	4156
2026-01-07 10:21:15.63	199.42	60.90	-37.4	-39.0	19.2	0.00e+00	0	56	0	39845888	46	4304
2026-01-07 10:21:16.64	199.97	61.24	-37.9	-39.7	18.5	0.00e+00	0	56	0	41943040	46	4662
2026-01-07 10:21:17.65	200.53	61.59	-38.4	-40.3	17.9	0.00e+00	0	56	0	44040192	47	4742
2026-01-07 10:21:18.66	201.11	61.93	-39.1	-41.2	17.2	0.00e+00	0	56	0	46137344	48	4937
2026-01-07 10:21:19.67	201.71	62.27	-38.8	-40.7	17.5	0.00e+00	0	56	0	48234496	48	4699
2026-01-07 10:21:20.68	202.33	62.62	-38.6	-40.5	17.9	0.00e+00	0	56	0	49283072	48	4547
2026-01-07 10:21:21.69	202.96	62.96	-38.4	-40.2	18.0	0.00e+00	0	56	0	51380224	48	4437
2026-01-07 10:21:22.70	203.61	63.30	-38.6	-40.5	17.9	0.00e+00	0	57	0	53477376	48	4589
2026-01-07 10:21:23.71	204.28	63.64	-38.9	-40.9	17.4	0.00e+00	0	56	0	55574528	48	4813
2026-01-07 10:21:24.72	204.97	63.97	-39.4	-41.5	16.8	0.00e+00	0	56	0	57671680	49	4856
2026-01-07 10:21:25.73	205.67	64.31	-40.0	-42.5	15.9	0.00e+00	0	56	0	58720256	50	5113
2026-01-07 10:21:26.74	206.40	64.64	-39.9	-42.3	16.1	0.00e+00	0	56	0	60817408	51	4708
2026-01-07 10:21:27.75	207.15	64.97	-39.6	-41.8	16.5	0.00e+00	0	56	0	62914560	50	4755
2026-01-07 10:21:28.76	207.93	65.30	-39.1	-41.1	17.2	0.00e+00	0	57	0	65011712	50	4390
2026-01-07 10:21:29.77	208.72	65.62	-39.4	-41.6	16.9	0.00e+00	0	56	0	67108864	50	4609
2026-01-07 10:21:30.78	209.54	65.95	-40.4	-42.9	15.5	0.00e+00	0	56	0	68157440	51	5085
2026-01-07 10:21:31.79	210.39	66.27	-40.2	-42.7	15.6	0.00e+00	0	56	0	70254592	51	4978
2026-01-07 10:21:32.80	211.26	66.58	-40.1	-42.5	15.8	0.00e+00	0	56	0	72351744	51	4846
2026-01-07 10:21:33.81	212.15	66.89	-40.3	-42.8	15.6	0.00e+00	0	56	0	74448896	51	5025
2026-01-07 10:21:34.81	213.06	67.20	-40.4	-43.2	15.0	0.00e+00	0	56	0	76546048	51	5256
2026-01-07 10:21:35.82	214.01	67.50	-40.8	-43.8	14.4	7.00e-07	0	57	0	77594624	52	5303
2026-01-07 10:21:36.83	214.99	67.80	-40.4	-43.2	15.0	7.00e-07	0	56	0	79691776	52	4962
2026-01-07 10:21:37.84	215.99	68.09	-40.6	-43.5	14.7	0.00e+00	0	56	0	81788928	52	5147
2026-01-07 10:21:38.85	217.02	68.38	-40.5	-43.4	14.8	0.00e+00	0	56	0	83886080	52	5055
2026-01-07 10:21:39.86	218.09	68.66	-40.7	-43.7	14.4	2.20e-06	0	56	0	85983232	52	5246
2026-01-07 10:21:40.87	219.18	68.94	-40.3	-43.0	15.2	0.00e+00	0	57	0	87031808	52	4829
2026-01-07 10:21:41.88	220.31	69.21	-40.1	-42.6	15.5	0.00e+00	0	56	0	89128960	52	4651
2026-01-07 10:21:42.89	221.46	69.47	-40.4	-43.0	15.2	0.00e+00	0	56	0	91226112	52	4858
2026-01-07 10:21:43.90	222.65	69.73	-40.5	-43.3	14.9	7.00e-07	0	56	0	93323264	52	5019
2026-01-07 10:21:44.91	223.87	69.97	-40.7	-43.7	14.5	0.00e+00	0	56	0	95420416	52	5258
2026-01-07 10:21:45.92	225.12	70.21	-41.2	-44.6	13.6	6.10e-06	0	56	0	96468992	53	5504
2026-01-07 10:21:46.93	226.41	70.45	-41.8	-45.8	12.4	1.04e-04	0	56	0	98566144	54	5982
2026-01-07 10:21:47.94	227.72	70.67	-41.6	-45.4	12.6	1.43e-04	0	56	0	100663296	54	5671
2026-01-07 10:21:48.95	229.07	70.88	-41.6	-45.4	12.8	3.28e-05	0	56	0	102760448	54	5659
2026-01-07 10:21:49.95	230.43	71.08	-42.0	-46.4	11.9	9.76e-05	0	56	0	104857600	54	6351
2026-01-07 10:21:50.96	231.84	71.28	-41.7	-45.6	12.5	3.75e-04	0	56	0	106954752	54	5794
2026-01-07 10:21:51.97	233.28	71.46	-41.0	-44.2	13.9	1.50e-06	0	56	0	108003328	53	5264
2026-01-07 10:21:52.98	234.75	71.63	-40.7	-43.8	14.3	7.00e-07	0	56	0	110100480	53	5007
2026-01-07 10:21:53.99	236.25	71.79	-41.1	-44.5	13.7	3.80e-06	0	56	0	112197632	53	5435
2026-01-07 10:21:55.00	237.78	71.94	-40.4	-43.3	14.8	0.00e+00	0	57	0	114294784	52	5034
2026-01-07 10:21:56.01	239.33	72.08	-40.3	-43.0	15.2	0.00e+00	0	56	0	116391936	52	4849
2026-01-07 10:21:57.02	240.90	72.20	-40.5	-43.4	14.8	0.00e+00	0	56	0	117440512	52	5082
2026-01-07 10:21:58.03	242.50	72.32	-40.6	-43.6	14.6	0.00e+00	0	56	0	119537664	52	5165
2026-01-07 10:21:59.04	244.12	72.42	-40.7	-43.8	14.4	1.50e-06	0	56	0	121634816	52	5316
2026-01-07 10:22:00.05	245.75	72.50	-40.1	-42.7	15.5	7.00e-07	0	56	0	123731968	52	4673
2026-01-07 10:22:01.06	247.40	72.57	-40.1	-42.8	15.5	0.00e+00	0	56	0	125829120	51	4992
2026-01-07 10:22:02.07	249.07	72.63	-40.2	-42.9	15.3	0.00e+00	0	56	0	126877696	51	5079
2026-01-07 10:22:03.07	250.73	72.68	-40.3	-43.0	15.4	1.50e-06	0	56	0	128974848	51	5120
2026-01-07 10:22:04.08	252.41	72.71	-39.4	-41.7	16.6	0.00e+00	0	56	0	131072000	50	4683
2026-01-07 10:22:05.09	254.09	72.72	-39.6	-42.0	16.3	0.00e+00	0	56	0	133169152	50	4860
2026-01-07 10:22:06.10	255.78	72.73	-39.0	-41.2	17.0	0.00e+00	0	56	0	135266304	50	4397
2026-01-07 10:22:07.11	257.47	72.71	-38.4	-40.2	17.9	0.00e+00	0	56	0	136314880	48	4432
2026-01-07 10:22:08.12	259.15	72.69	-38.7	-40.7	17.5	0.00e+00	0	56	0	138412032	48	4655
2026-01-07 10:22:09.13	260.83	72.65	-38.7	-40.7	17.5	0.00e+00	0	56	0	140509184	48	4691
2026-01-07 10:22:10.14	262.50	72.59	-39.0	-41.1	17.2	0.00e+00	0	56	0	142606336	48	4926
2026-01-07 10:22:11.15	264.15	72.53	-39.1	-41.3	17.0	5.30e-06	0	56	0	144703488	48	4994
2026-01-07 10:22:12.16	265.79	72.44	-39.6	-42.0	16.3	0.00e+00	0	56	0	145752064	50	4831
2026-01-07 10:22:13.17	267.41	72.35	-40.6	-43.5	14.8	0.00e+00	0	56	0	147849216	51	5441
2026-01-07 10:22:14.18	269.02	72.24	-42.2	-46.6	11.7	5.30e-06	0	56	0	149946368	54	6517
2026-01-07 10:22:15.19	270.60	72.12	-42.9	-48.3	9.9	5.17e-03	0	56	0	152043520	56	7083
2026-01-07 10:22:16.20	272.16	71.99	-42.2	-46.4	11.9	2.58e-03	0	56	0	154140672	56	5667
2026-01-07 10:22:17.21	273.69	71.84	-41.6	-45.2	13.1	7.62e-05	0	56	0	155189248	54	5533
2026-01-07 10:22:18.22	275.19	71.69	-41.9	-46.0	12.2	1.65e-04	0	56	0	157286400	54	6076
2026-01-07 10:22:19.23	276.67	71.52	-42.2	-46.4	11.6	1.32e-03	0	56	0	159383552	55	6056
2026-01-07 10:22:20.23	278.11	71.34	-42.2	-46.5	11.6	7.57e-04	0	56	0	161480704	55	6068
2026-01-07 10:22:21.24	279.53	71.15	-43.1	-48.6	9.6	4.58e-03	0	56	0	163577856	56	7350
2026-01-07 10:22:22.25	280.91	70.95	-44.0	-51.9	6.4	1.87e-01	0	56	0	164626432	58	9595
2026-01-07 10:22:23.26	282.27	70.74	-43.7	-50.5	7.7	1.93e-01	0	56	0	166723584	58	8160
2026-01-07 10:22:24.27	283.60	70.52	-43.6	-50.4	8.0	7.94e-02	0	56	0	168820736	58	8049
2026-01-07 10:22:25.28	284.89	70.29	-43.9	-51.4	6.8	1.20e-01	0	56	0	170917888	58	9034
2026-01-07 10:22:26.29	286.15	70.05	-43.7	-50.6	7.6	1.87e-01	0	56	0	173015040	58	8189
2026-01-07 10:22:27.30	287.38	69.81	-43.2	-49.2	9.0	4.85e-02	0	56	0	175112192	58	6960
2026-01-07 10:22:28.31	288.58	69.56	-42.1	-46.2	12.2	1.68e-03	0	56	0	176160768	56	5543
2026-01-07 10:22:29.32	289.74	69.30	-41.2	-44.5	13.7	2.51e-05	0	56	0	178257920	54	5126
2026-01-07 10:22:30.33	290.87	69.03	-40.7	-43.7	14.5	0.00e+00	0	57	0	180355072	53	4979
2026-01-07 10:22:31.34	291.98	68.76	-40.9	-44.0	14.2	0.00e+00	0	57	0	182452224	52	5431
2026-01-07 10:22:32.35	293.05	68.48	-41.2	-44.6	13.6	1.14e-05	0	56	0	184549376	53	5471
2026-01-07 10:22:33.36	294.09	68.19	-41.2	-44.6	13.6	1.44e-05	0	57	0	185597952	53	5484
2026-01-07 10:22:34.37	295.10	67.90	-40.3	-43.2	15.1	0.00e+00	0	57	0	187695104	52	4942
2026-01-07 10:22:35.38	296.09	67.60	-40.1	-42.8	15.5	0.00e+00	0	56	0	189792256	51	4996
2026-01-07 10:22:36.39	297.04	67.30	-40.8	-44.0	14.2	0.00e+00	0	57	0	191889408	52	5450
2026-01-07 10:22:37.40	297.97	67.00	-41.1	-44.6	13.6	9.90e-06	0	56	0	193986560	53	5522
2026-01-07 10:22:38.41	298.88	66.69	-40.7	-43.8	14.3	1.50e-06	0	56	0	195035136	53	5030
2026-01-07 10:22:39.42	299.75	66.37	-40.3	-43.3	14.9	0.00e+00	0	56	0	197132288	52	4996
2026-01-07 10:22:40.43	300.60	66.06	-40.0	-42.7	15.6	0.00e+00	0	56	0	199229440	51	4949
2026-01-07 10:22:41.44	301.43	65.74	-38.7	-40.8	17.3	0.00e+00	0	56	0	201326592	49	4479
2026-01-07 10:22:42.45	302.23	65.41	-38.5	-40.6	17.5	0.00e+00	0	56	0	203423744	48	4628
2026-01-07 10:22:43.46	303.01	65.09	-38.5	-40.6	17.5	0.00e+00	0	56	0	204472320	48	4612
2026-01-07 10:22:44.46	303.76	64.76	-38.5	-40.7	17.4	0.00e+00	0	57	0	206569472	48	4665
2026-01-07 10:22:45.47	304.50	64.43	-39.0	-41.4	16.8	0.00e+00	0	57	0	208666624	48	5071
2026-01-07 10:22:46.48	305.21	64.10	-39.2	-41.7	16.5	0.00e+00	0	56	0	210763776	49	4954
2026-01-07 10:22:47.49	305.90	63.76	-38.2	-40.3	17.7	0.00e+00	0	57	0	212860928	48	4457
2026-01-07 10:22:48.50	306.58	63.43	-37.8	-39.9	18.0	0.00e+00	0	57	0	213909504	47	4497
2026-01-07 10:22:49.51	307.23	63.09	-37.9	-40.0	17.9	0.00e+00	0	57	0	216006656	47	4588
2026-01-07 10:22:50.52	307.87	62.75	-37.8	-39.9	18.0	0.00e+00	0	56	0	218103808	47	4514
2026-01-07 10:22:51.53	308.49	62.41	-36.8	-38.6	19.2	0.00e+00	0	57	0	220200960	45	4361
2026-01-07 10:22:52.54	309.09	62.06	-36.4	-38.0	19.8	0.00e+00	0	57	0	222298112	44	4330
2026-01-07 10:22:53.55	309.68	61.72	-36.4	-38.0	19.8	0.00e+00	0	56	0	223346688	44	4323
2026-01-07 10:22:54.56	310.25	61.38	-36.7	-38.5	19.4	0.00e+00	0	57	0	225443840	44	4550
2026-01-07 10:22:55.57	310.80	61.03	-37.5	-39.5	18.4	0.00e+00	0	57	0	227540992	45	4836
2026-01-07 10:22:56.58	311.34	60.69	-38.3	-40.6	17.5	0.00e+00	0	57	0	229638144	47	4873
2026-01-07 10:22:57.59	311.87	60.34	-37.4	-39.3	18.6	0.00e+00	0	56	0	231735296	46	4476
2026-01-07 10:22:58.61	312.39	60.00	-36.5	-38.2	19.6	0.00e+00	0	57	0	232783872	45	4176
2026-01-07 10:22:59.62	312.88	59.65	-37.4	-39.3	18.6	0.00e+00	0	57	0	234881024	45	4753
2026-01-07 10:23:00.63	313.37	59.31	-38.1	-40.2	17.7	0.00e+00	0	57	0	236978176	46	4966
2026-01-07 10:23:01.63	313.84	58.96	-38.1	-40.2	17.7	0.00e+00	0	56	0	239075328	47	4688
2026-01-07 10:23:02.64	314.30	58.62	-38.2	-40.3	17.7	0.00e+00	0	56	0	241172480	47	4746
2026-01-07 10:23:03.65	314.74	58.28	-38.5	-40.7	17.3	0.00e+00	0	57	0	243269632	47	4981
2026-01-07 10:23:04.66	315.18	57.93	-38.3	-40.3	17.8	0.00e+00	0	57	0	244318208	48	4490
2026-01-07 10:23:05.67	315.61	57.59	-38.1	-40.1	17.9	0.00e+00	0	57	0	246415360	48	4385
2026-01-07 10:23:06.68	316.02	57.25	-38.7	-41.0	17.1	0.00e+00	0	56	0	248512512	48	4865
2026-01-07 10:23:07.69	316.43	56.90	-39.9	-42.8	15.3	0.00e+00	0	56	0	250609664	50	5322
2026-01-07 10:23:08.70	316.83	56.56	-39.2	-41.7	16.3	0.00e+00	0	56	0	252706816	50	4689
2026-01-07 10:23:09.71	317.21	56.22	-38.0	-40.1	18.0	0.00e+00	0	56	0	253755392	48	4345
2026-01-07 10:23:10.72	317.59	55.88	-37.4	-39.3	18.5	0.00e+00	0	57	0	255852544	46	4489
2026-01-07 10:23:11.73	317.96	55.55	-37.8	-39.8	18.1	0.00e+00	0	56	0	257949696	46	4740
2026-01-07 10:23:12.74	318.32	55.21	-38.5	-40.9	17.1	0.00e+00	0	56	0	260046848	47	5076
2026-01-07 10:23:13.75	318.67	54.87	-38.8	-41.3	16.6	0.00e+00	0	57	0	262144000	48	5041
2026-01-07 10:23:14.76	319.01	54.54	-38.2	-40.4	17.6	0.00e+00	0	56	0	263192576	48	4521
2026-01-07 10:23:15.77	319.34	54.20	-37.6	-39.7	18.1	0.00e+00	0	56	0	265289728	47	4425
2026-01-07 10:23:16.78	319.67	53.87	-38.0	-40.1	17.7	0.00e+00	0	56	0	267386880	47	4634
2026-01-07 10:23:17.79	319.99	53.54	-38.1	-40.3	17.5	0.00e+00	0	57	0	269484032	47	4736
2026-01-07 10:23:18.80	320.30	53.21	-37.7	-39.7	18.1	0.00e+00	0	57	0	271581184	47	4435
2026-01-07 10:23:19.80	320.61	52.88	-38.3	-40.5	17.5	0.00e+00	0	56	0	272629760	47	4858
2026-01-07 10:23:20.81	320.91	52.56	-39.0	-41.5	16.6	0.00e+00	0	56	0	274726912	48	5150
2026-01-07 10:23:21.82	321.20	52.23	-38.5	-40.8	17.3	0.00e+00	0	56	0	276824064	48	4718
2026-01-07 10:23:22.83	321.49	51.90	-37.6	-39.6	18.2	0.00e+00	0	57	0	278921216	47	4372
2026-01-07 10:23:23.84	321.77	51.58	-37.5	-39.4	18.5	0.00e+00	0	56	0	281018368	46	4528
2026-01-07 10:23:24.85	322.04	51.26	-37.7	-39.6	18.3	0.00e+00	0	56	0	282066944	46	4645
2026-01-07 10:23:25.86	322.31	50.94	-38.9	-41.3	16.9	0.00e+00	0	57	0	284164096	48	4988
2026-01-07 10:23:26.87	322.57	50.62	-39.8	-42.7	15.6	0.00e+00	0	57	0	286261248	50	5219
2026-01-07 10:23:27.88	322.83	50.30	-39.9	-42.8	15.4	0.00e+00	0	56	0	288358400	50	5335
2026-01-07 10:23:28.89	323.08	49.99	-39.7	-42.5	15.8	0.00e+00	0	57	0	290455552	50	5119
2026-01-07 10:23:29.90	323.33	49.68	-39.5	-42.1	16.0	0.00e+00	0	56	0	291504128	50	4911
2026-01-07 10:23:30.91	323.57	49.36	-39.7	-42.5	15.6	0.00e+00	0	56	0	293601280	50	5122
2026-01-07 10:23:31.92	323.81	49.05	-40.2	-43.3	14.8	0.00e+00	0	57	0	295698432	50	5627
2026-01-07 10:23:32.93	324.04	48.74	-39.8	-42.7	15.5	0.00e+00	0	56	0	297795584	50	5250
2026-01-07 10:23:33.94	324.27	48.44	-39.8	-42.6	15.4	0.00e+00	0	57	0	299892736	50	5216
2026-01-07 10:23:34.95	324.50	48.13	-40.6	-44.0	14.2	0.00e+00	0	56	0	300941312	51	5746
2026-01-07 10:23:35.96	324.72	47.83	-41.7	-46.6	11.5	2.12e-04	0	57	0	303038464	53	6894
2026-01-07 10:23:36.96	324.93	47.53	-42.2	-47.9	10.1	5.85e-03	0	57	0	305135616	55	7148
2026-01-07 10:23:37.97	325.14	47.23	-41.8	-46.7	11.2	3.85e-03	0	57	0	307232768	55	6256
2026-01-07 10:23:38.98	325.35	46.93	-41.4	-45.7	12.4	3.39e-04	0	57	0	309329920	54	5902
2026-01-07 10:23:39.99	325.55	46.64	-40.8	-44.4	13.6	3.35e-05	0	57	0	311427072	53	5364
2026-01-07 10:23:41.00	325.75	46.34	-40.3	-43.5	14.6	6.10e-06	0	57	0	312475648	52	5116
2026-01-07 10:23:42.01	325.95	46.05	-39.9	-42.7	15.4	0.00e+00	0	57	0	314572800	51	4929
2026-01-07 10:23:43.02	326.14	45.76	-39.9	-42.6	15.6	0.00e+00	0	57	0	316669952	51	4897
2026-01-07 10:23:44.03	326.33	45.47	-40.6	-43.8	14.4	0.00e+00	0	57	0	318767104	51	5615
2026-01-07 10:23:45.04	326.52	45.18	-41.3	-45.2	13.0	6.10e-06	0	57	0	320864256	53	5866
2026-01-07 10:23:46.05	326.70	44.89	-41.9	-46.6	11.5	5.16e-04	0	57	0	321912832	54	6530
2026-01-07 10:23:47.06	326.88	44.61	-42.1	-46.9	11.1	1.64e-03	0	57	0	324009984	55	6404
2026-01-07 10:23:48.07	327.06	44.32	-41.2	-45.0	13.0	6.17e-04	0	57	0	326107136	54	5437
2026-01-07 10:23:49.08	327.23	44.04	-40.4	-43.4	14.8	7.00e-07	0	57	0	328204288	52	5095
2026-01-07 10:23:50.09	327.40	43.76	-39.5	-42.0	16.1	0.00e+00	0	57	0	330301440	51	4592
2026-01-07 10:23:51.09	327.57	43.49	-39.3	-41.7	16.4	0.00e+00	0	57	0	331350016	50	4657
2026-01-07 10:23:52.10	327.73	43.21	-39.4	-41.8	16.3	0.00e+00	0	57	0	333447168	50	4729
2026-01-07 10:23:53.11	327.89	42.94	-39.9	-42.6	15.5	0.00e+00	0	57	0	335544320	50	5173
2026-01-07 10:23:54.12	328.05	42.67	-40.4	-43.5	14.7	7.00e-07	0	57	0	337641472	51	5453
2026-01-07 10:23:55.13	328.21	42.40	-40.9	-44.4	13.7	3.80e-06	0	57	0	339738624	52	5681
2026-01-07 10:23:56.14	328.36	42.13	-40.7	-44.0	14.1	1.50e-06	0	57	0	340787200	52	5442
2026-01-07 10:23:57.15	328.52	41.86	-40.2	-43.1	15.0	0.00e+00	0	57	0	342884352	52	4898
2026-01-07 10:23:58.16	328.67	41.60	-39.3	-41.7	16.4	0.00e+00	0	57	0	344981504	50	4674
2026-01-07 10:23:59.17	328.81	41.33	-38.3	-40.3	17.8	0.00e+00	0	57	0	347078656	48	4474
2026-01-07 10:24:00.18	328.96	41.07	-37.8	-39.8	18.2	0.00e+00	0	57	0	349175808	47	4456
2026-01-07 10:24:01.19	329.10	40.81	-37.5	-39.4	18.5	0.00e+00	0	57	0	350224384	47	4259
2026-01-07 10:24:02.20	329.24	40.55	-37.9	-40.0	18.0	0.00e+00	0	57	0	352321536	47	4550
2026-01-07 10:24:03.21	329.38	40.30	-38.7	-41.0	17.0	0.00e+00	0	57	0	354418688	47	5141
2026-01-07 10:24:04.22	329.51	40.04	-39.4	-42.0	16.1	0.00e+00	0	56	0	356515840	49	5144
2026-01-07 10:24:05.23	329.65	39.79	-40.0	-42.9	15.3	0.00e+00	0	56	0	358612992	50	5349
2026-01-07 10:24:06.24	329.78	39.54	-40.6	-43.8	14.3	0.00e+00	0	57	0	359661568	51	5650
2026-01-07 10:24:07.25	329.91	39.29	-40.7	-44.2	13.8	6.80e-06	0	57	0	361758720	52	5554
2026-01-07 10:24:08.26	330.04	39.04	-40.3	-43.4	14.6	3.00e-06	0	57	0	363855872	52	5058
2026-01-07 10:24:09.27	330.16	38.79	-40.3	-43.4	14.6	0.00e+00	0	57	0	365953024	52	5044
2026-01-07 10:24:10.28	330.29	38.55	-40.3	-43.3	14.7	0.00e+00	0	57	0	368050176	52	5040
2026-01-07 10:24:11.29	330.41	38.30	-40.1	-43.0	15.0	0.00e+00	0	57	0	369098752	52	4854
2026-01-07 10:24:12.29	330.53	38.06	-39.9	-42.6	15.5	0.00e+00	0	57	0	371195904	51	4916
2026-01-07 10:24:13.30	330.65	37.82	-39.4	-41.9	16.1	0.00e+00	0	56	0	373293056	50	4792
2026-01-07 10:24:14.32	330.77	37.58	-38.8	-41.0	17.1	0.00e+00	0	57	0	375390208	49	4562
2026-01-07 10:24:15.33	330.89	37.35	-38.5	-40.6	17.4	0.00e+00	0	56	0	377487360	48	4641
2026-01-07 10:24:16.34	331.00	37.11	-38.7	-40.9	17.3	0.00e+00	0	56	0	379584512	48	4769
2026-01-07 10:24:17.35	331.11	36.88	-38.6	-40.8	17.2	0.00e+00	0	57	0	380633088	48	4740
2026-01-07 10:24:18.36	331.22	36.64	-39.1	-41.5	16.6	0.00e+00	0	56	0	382730240	48	5134
2026-01-07 10:24:19.36	331.33	36.42	-39.5	-42.1	15.9	0.00e+00	0	56	0	384827392	49	5175
2026-01-07 10:24:20.37	331.44	36.19	-40.0	-42.9	15.2	0.00e+00	0	57	0	386924544	50	5348
2026-01-07 10:24:21.38	331.55	35.96	-40.3	-43.3	14.7	0.00e+00	0	57	0	389021696	51	5321
2026-01-07 10:24:22.39	331.65	35.73	-40.5	-43.7	14.3	1.50e-06	0	56	0	390070272	51	5544
2026-01-07 10:24:23.40	331.76	35.51	-40.6	-43.8	14.1	1.50e-06	0	57	0	392167424	51	5655
2026-01-07 10:24:24.41	331.86	35.28	-40.3	-43.2	14.7	0.00e+00	0	57	0	394264576	51	5270
2026-01-07 10:24:25.42	331.96	35.06	-40.5	-43.6	14.5	0.00e+00	0	57	0	396361728	51	5471
2026-01-07 10:24:26.43	332.06	34.84	-40.3	-43.3	14.8	7.00e-07	0	57	0	398458880	51	5281
2026-01-07 10:24:27.44	332.16	34.62	-40.3	-43.2	14.9	0.00e+00	0	57	0	399507456	51	5279
2026-01-07 10:24:28.45	332.25	34.41	-40.2	-43.1	15.1	0.00e+00	0	57	0	401604608	51	5180
2026-01-07 10:24:29.46	332.35	34.19	-40.3	-43.3	14.8	0.00e+00	0	56	0	403701760	51	5284
2026-01-07 10:24:30.47	332.45	33.98	-40.6	-43.6	14.5	0.00e+00	0	57	0	405798912	52	5196
2026-01-07 10:24:31.48	332.54	33.76	-40.8	-44.0	14.1	2.20e-06	0	57	0	407896064	52	5408
2026-01-07 10:24:32.49	332.63	33.55	-41.2	-44.7	13.4	8.30e-06	0	56	0	408944640	52	5895
2026-01-07 10:24:33.50	332.72	33.34	-41.1	-44.6	13.5	7.60e-06	0	57	0	411041792	52	5837
2026-01-07 10:24:34.51	332.81	33.13	-41.4	-45.3	12.8	3.66e-05	0	57	0	413138944	53	5939
2026-01-07 10:24:35.52	332.90	32.92	-41.2	-44.8	13.2	1.20e-04	0	57	0	415236096	53	5619
2026-01-07 10:24:36.53	332.99	32.72	-41.1	-44.6	13.4	9.90e-06	0	57	0	417333248	53	5468
2026-01-07 10:24:37.54	333.08	32.51	-41.1	-44.6	13.5	1.90e-05	0	57	0	418381824	53	5521
2026-01-07 10:24:38.55	333.16	32.31	-41.0	-44.4	13.7	4.50e-06	0	57	0	420478976	53	5352
2026-01-07 10:24:39.56	333.25	32.11	-40.6	-43.6	14.4	1.50e-06	0	57	0	422576128	53	4926
2026-01-07 10:24:40.57	333.33	31.91	-40.6	-43.7	14.4	2.20e-06	0	57	0	424673280	53	4941
2026-01-07 10:24:41.58	333.42	31.71	-40.5	-43.5	14.6	0.00e+00	0	57	0	426770432	52	5115
2026-01-07 10:24:42.59	333.50	31.51	-40.2	-43.0	15.1	0.00e+00	0	56	0	427819008	52	4867
2026-01-07 10:24:43.60	333.58	31.31	-40.3	-43.2	14.8	0.00e+00	0	57	0	429916160	52	4978
2026-01-07 10:24:44.61	333.66	31.12	-40.3	-43.2	14.9	7.00e-07	0	57	0	432013312	52	4928
2026-01-07 10:24:45.61	333.74	30.92	-40.2	-43.0	15.0	0.00e+00	0	57	0	434110464	52	4850
2026-01-07 10:24:46.62	333.82	30.73	-40.3	-43.2	14.9	0.00e+00	0	57	0	436207616	52	4954
2026-01-07 10:24:47.63	333.89	30.54	-40.2	-43.0	15.1	0.00e+00	0	57	0	437256192	52	4842
2026-01-07 10:24:48.64	333.97	30.35	-40.3	-43.2	14.9	0.00e+00	0	57	0	439353344	52	4958
2026-01-07 10:24:49.65	334.05	30.16	-40.5	-43.4	14.6	7.00e-07	0	57	0	441450496	52	5092
2026-01-07 10:24:50.66	334.12	29.97	-40.5	-43.4	14.7	0.00e+00	0	57	0	443547648	52	5061
2026-01-07 10:24:51.67	334.19	29.78	-40.5	-43.5	14.6	7.00e-07	0	57	0	445644800	52	5116
2026-01-07 10:24:52.68	334.27	29.59	-40.7	-43.7	14.4	0.00e+00	0	56	0	447741952	52	5261
2026-01-07 10:24:53.69	334.34	29.41	-40.7	-43.8	14.2	3.80e-06	0	57	0	448790528	52	5308
2026-01-07 10:24:54.70	334.41	29.23	-41.0	-44.3	13.9	3.00e-06	0	57	0	450887680	52	5616
2026-01-07 10:24:55.71	334.48	29.04	-41.6	-45.5	12.5	9.10e-06	0	56	0	452984832	53	6128
2026-01-07 10:24:56.72	334.55	28.86	-41.7	-45.7	12.2	1.01e-04	0	57	0	455081984	54	5875
2026-01-07 10:24:57.72	334.62	28.68	-41.8	-46.0	12.0	2.38e-04	0	57	0	456130560	54	6095
2026-01-07 10:24:58.74	334.69	28.50	-42.0	-46.4	11.5	8.72e-04	0	57	0	458227712	54	6390
2026-01-07 10:24:59.75	334.76	28.32	-41.9	-46.2	11.7	6.87e-04	0	57	0	460324864	54	6219
2026-01-07 10:25:00.76	334.83	28.15	-41.7	-45.7	12.2	1.62e-04	0	57	0	462422016	54	5874
2026-01-07 10:25:01.77	334.89	27.97	-41.4	-45.2	12.7	1.59e-04	0	56	0	464519168	54	5564
2026-01-07 10:25:02.77	334.96	27.80	-40.9	-44.3	13.7	2.13e-05	0	57	0	465567744	53	5292
2026-01-07 10:25:03.78	335.02	27.62	-40.4	-43.4	14.6	0.00e+00	0	57	0	467664896	52	5065
2026-01-07 10:25:04.79	335.09	27.45	-40.0	-42.7	15.3	0.00e+00	0	57	0	469762048	52	4677
2026-01-07 10:25:05.80	335.15	27.28	-39.7	-42.1	15.9	0.00e+00	0	56	0	471859200	51	4647
2026-01-07 10:25:06.81	335.22	27.11	-39.2	-41.5	16.5	0.00e+00	0	57	0	473956352	50	4563
2026-01-07 10:25:07.82	335.28	26.94	-38.9	-41.0	17.0	0.00e+00	0	57	0	476053504	49	4575
2026-01-07 10:25:08.83	335.34	26.77	-38.4	-40.4	17.5	0.00e+00	0	56	0	477102080	48	4521
2026-01-07 10:25:09.84	335.40	26.60	-38.1	-40.0	17.9	0.00e+00	0	57	0	479199232	48	4318
2026-01-07 10:25:10.85	335.46	26.44	-38.1	-40.0	17.9	0.00e+00	0	57	0	481296384	48	4338
2026-01-07 10:25:11.86	335.52	26.27	-38.0	-39.8	18.1	0.00e+00	0	57	0	483393536	48	4234
2026-01-07 10:25:12.87	335.58	26.11	-38.2	-40.1	17.8	0.00e+00	0	57	0	485490688	48	4375
2026-01-07 10:25:13.88	335.64	25.94	-38.3	-40.3	17.6	0.00e+00	0	56	0	486539264	48	4475
2026-01-07 10:25:14.89	335.70	25.78	-38.7	-40.8	17.2	0.00e+00	0	57	0	488636416	48	4742
2026-01-07 10:25:15.90	335.76	25.62	-39.0	-41.2	16.8	0.00e+00	0	56	0	490733568	48	4981
2026-01-07 10:25:16.91	335.82	25.46	-39.4	-41.7	16.2	0.00e+00	0	56	0	492830720	49	4975
2026-01-07 10:25:17.92	335.87	25.30	-39.5	-42.0	16.0	0.00e+00	0	57	0	494927872	49	5113
2026-01-07 10:25:18.93	335.93	25.14	-39.8	-42.4	15.6	0.00e+00	0	57	0	495976448	50	5094
2026-01-07 10:25:19.94	335.99	24.98	-39.8	-42.4	15.5	0.00e+00	0	57	0	498073600	50	5095
2026-01-07 10:25:20.95	336.04	24.83	-39.9	-42.5	15.4	7.00e-07	0	57	0	500170752	50	5143
2026-01-07 10:25:21.96	336.10	24.67	-39.7	-42.4	15.6	0.00e+00	0	56	0	502267904	50	5046
2026-01-07 10:25:22.97	336.15	24.52	-39.8	-42.4	15.6	0.00e+00	0	56	0	504365056	50	5049
2026-01-07 10:25:23.98	336.20	24.36	-39.5	-41.9	16.0	0.00e+00	0	57	0	505413632	50	4809
2026-01-07 10:25:24.99	336.26	24.21	-39.5	-41.9	16.0	0.00e+00	0	57	0	507510784	50	4805
2026-01-07 10:25:26.00	336.31	24.06	-39.4	-41.8	16.1	0.00e+00	0	57	0	509607936	50	4742
2026-01-07 10:25:27.01	336.36	23.90	-39.3	-41.7	16.2	0.00e+00	0	57	0	511705088	50	4698
2026-01-07 10:25:28.01	336.41	23.75	-39.2	-41.6	16.4	0.00e+00	0	57	0	513802240	50	4615
2026-01-07 10:25:29.02	336.47	23.60	-39.2	-41.6	16.4	0.00e+00	0	56	0	514850816	50	4604
2026-01-07 10:25:30.03	336.52	23.46	-39.2	-41.5	16.4	0.00e+00	0	57	0	516947968	50	4588
2026-01-07 10:25:31.04	336.57	23.31	-39.1	-41.4	16.5	0.00e+00	0	56	0	519045120	50	4527
2026-01-07 10:25:32.05	336.62	23.16	-39.1	-41.4	16.5	0.00e+00	0	56	0	521142272	50	4529
2026-01-07 10:25:33.06	336.67	23.01	-39.1	-41.5	16.4	0.00e+00	0	57	0	523239424	49	4827
2026-01-07 10:25:34.07	336.72	22.87	-38.9	-41.2	16.7	0.00e+00	0	56	0	524288000	49	4662
2026-01-07 10:25:35.08	336.77	22.72	-39.0	-41.3	16.5	0.00e+00	0	57	0	526385152	49	4742
2026-01-07 10:25:36.09	336.81	22.58	-38.8	-41.0	16.8	0.00e+00	0	57	0	528482304	49	4584
2026-01-07 10:25:37.10	336.86	22.44	-38.8	-41.0	16.8	0.00e+00	0	56	0	530579456	49	4563
2026-01-07 10:25:38.11	336.91	22.29	-38.7	-40.9	16.9	0.00e+00	0	57	0	532676608	49	4502
2026-01-07 10:25:39.12	336.96	22.15	-38.6	-40.8	16.9	0.00e+00	0	57	0	533725184	49	4483
2026-01-07 10:25:40.13	337.00	22.01	-38.6	-40.7	17.0	0.00e+00	0	56	0	535822336	49	4428
2026-01-07 10:25:41.14	337.05	21.87	-38.9	-41.2	16.6	0.00e+00	0	57	0	537919488	49	4653
2026-01-07 10:25:42.15	337.10	21.73	-38.8	-41.1	16.7	0.00e+00	0	56	0	540016640	49	4603
2026-01-07 10:25:43.16	337.14	21.59	-38.9	-41.2	16.4	0.00e+00	0	57	0	542113792	49	4702
2026-01-07 10:25:44.17	337.19	21.45	-39.1	-41.6	16.1	0.00e+00	0	57	0	544210944	49	4897
2026-01-07 10:25:45.18	337.23	21.32	-39.2	-41.7	15.9	0.00e+00	0	56	0	545259520	49	4974
2026-01-07 10:25:46.19	337.28	21.18	-39.3	-41.8	15.6	0.00e+00	0	57	0	547356672	49	5021
2026-01-07 10:25:47.20	337.32	21.04	-39.5	-42.2	15.4	0.00e+00	0	56	0	549453824	49	5235
2026-01-07 10:25:48.21	337.37	20.91	-39.6	-42.5	15.0	0.00e+00	0	57	0	551550976	49	5411
2026-01-07 10:25:49.22	337.41	20.77	-39.6	-42.4	15.1	0.00e+00	0	57	0	553648128	49	5379
2026-01-07 10:25:50.23	337.45	20.64	-39.5	-42.3	15.1	0.00e+00	0	56	0	554696704	49	5338
2026-01-07 10:25:51.24	337.50	20.51	-39.5	-42.3	15.1	0.00e+00	0	56	0	556793856	49	5305
2026-01-07 10:25:52.25	337.54	20.38	-39.3	-42.0	15.3	0.00e+00	0	57	0	558891008	49	5154
2026-01-07 10:25:53.26	337.58	20.24	-39.3	-42.0	15.2	0.00e+00	0	57	0	560988160	49	5154
2026-01-07 10:25:54.27	337.62	20.11	-39.1	-41.8	15.5	0.00e+00	0	57	0	563085312	49	5006
2026-01-07 10:25:55.28	337.66	19.98	-38.9	-41.5	15.7	0.00e+00	0	57	0	564133888	49	4840
2026-01-07 10:25:56.29	337.71	19.85	-38.7	-41.2	15.9	0.00e+00	0	57	0	566231040	49	4686
2026-01-07 10:25:57.30	337.75	19.72	-38.6	-41.1	16.0	0.00e+00	0	57	0	568328192	49	4626
2026-01-07 10:25:58.31	337.79	19.60	-38.4	-40.9	16.2	0.00e+00	0	56	0	570425344	48	4765
2026-01-07 10:25:59.32	337.83	19.47	-38.3	-40.7	16.3	0.00e+00	0	57	0	572522496	48	4672
2026-01-07 10:26:00.32	337.87	19.34	-38.2	-40.6	16.4	0.00e+00	0	56	0	573571072	48	4626
2026-01-07 10:26:01.33	337.91	19.22	-38.2	-40.5	16.4	0.00e+00	0	57	0	575668224	48	4573
2026-01-07 10:26:02.34	337.95	19.09	-38.0	-40.3	16.6	0.00e+00	0	57	0	577765376	48	4485
2026-01-07 10:26:03.35	337.99	18.97	-38.0	-40.4	16.6	0.00e+00	0	57	0	579862528	48	4494
2026-01-07 10:26:04.36	338.02	18.84	-38.1	-40.4	16.5	0.00e+00	0	57	0	581959680	48	4512
2026-01-07 10:26:05.37	338.06	18.72	-38.1	-40.4	16.4	0.00e+00	0	57	0	583008256	48	4534
2026-01-07 10:26:06.38	338.10	18.59	-38.2	-40.7	16.2	0.00e+00	0	56	0	585105408	48	4659
2026-01-07 10:26:07.39	338.14	18.47	-38.2	-40.6	16.1	0.00e+00	0	57	0	587202560	48	4647
2026-01-07 10:26:08.40	338.18	18.35	-38.4	-40.9	15.8	0.00e+00	0	57	0	589299712	48	4813
2026-01-07 10:26:09.41	338.21	18.23	-38.4	-40.9	15.8	0.00e+00	0	57	0	591396864	48	4776
2026-01-07 10:26:10.41	338.25	18.11	-38.4	-40.9	15.8	0.00e+00	0	57	0	592445440	48	4782
2026-01-07 10:26:11.43	338.29	17.99	-38.5	-41.1	15.6	0.00e+00	0	57	0	594542592	48	4878
2026-01-07 10:26:12.44	338.33	17.87	-38.4	-41.0	15.6	0.00e+00	0	57	0	596639744	48	4859
2026-01-07 10:26:13.45	338.36	17.75	-38.4	-41.0	15.6	0.00e+00	0	57	0	598736896	48	4853
2026-01-07 10:26:14.46	338.40	17.63	-38.4	-41.0	15.5	0.00e+00	0	57	0	600834048	48	4865
2026-01-07 10:26:15.47	338.43	17.51	-38.5	-41.2	15.3	0.00e+00	0	57	0	601882624	48	4957
2026-01-07 10:26:16.48	338.47	17.40	-38.6	-41.4	15.1	0.00e+00	0	56	0	603979776	48	5054
2026-01-07 10:26:17.49	338.51	17.28	-38.4	-41.0	15.4	0.00e+00	0	57	0	606076928	48	4861
2026-01-07 10:26:18.50	338.54	17.16	-38.5	-41.3	15.1	0.00e+00	0	56	0	608174080	48	4996
2026-01-07 10:26:19.51	338.58	17.05	-38.5	-41.3	15.1	0.00e+00	0	56	0	610271232	48	4988
2026-01-07 10:26:20.52	338.61	16.93	-38.5	-41.2	15.1	0.00e+00	0	57	0	612368384	48	4969
2026-01-07 10:26:21.53	338.65	16.82	-38.7	-41.6	14.7	0.00e+00	0	57	0	613416960	48	5170
2026-01-07 10:26:22.54	338.68	16.70	-38.7	-41.6	14.6	7.00e-07	0	57	0	615514112	48	5216
2026-01-07 10:26:23.55	338.71	16.59	-38.7	-41.7	14.5	7.00e-07	0	57	0	617611264	48	5249
2026-01-07 10:26:24.56	338.75	16.48	-38.8	-41.9	14.3	0.00e+00	0	57	0	619708416	48	5341
2026-01-07 10:26:25.57	338.78	16.36	-39.0	-42.1	14.0	1.50e-06	0	56	0	621805568	48	5523
2026-01-07 10:26:26.58	338.82	16.25	-39.1	-42.4	13.7	3.80e-06	0	56	0	622854144	48	5668
2026-01-07 10:26:27.59	338.85	16.14	-39.1	-42.5	13.5	1.44e-05	0	57	0	624951296	49	5435
2026-01-07 10:26:28.60	338.88	16.03	-39.4	-43.1	12.8	4.11e-05	0	57	0	627048448	49	5794
2026-01-07 10:26:29.61	338.91	15.92	-39.6	-43.5	12.4	1.01e-04	0	56	0	629145600	49	6062
2026-01-07 10:26:30.62	338.95	15.81	-39.6	-43.5	12.3	1.16e-04	0	57	0	631242752	49	6129
2026-01-07 10:26:31.63	338.98	15.70	-39.9	-44.1	11.7	4.29e-04	0	57	0	632291328	50	6175
2026-01-07 10:26:32.64	339.01	15.59	-40.0	-44.6	11.2	9.26e-04	0	57	0	634388480	50	6498
2026-01-07 10:26:33.65	339.04	15.48	-40.1	-44.7	11.1	1.57e-03	0	57	0	636485632	50	6599
2026-01-07 10:26:34.65	339.07	15.37	-40.2	-45.2	10.5	2.98e-03	0	56	0	638582784	50	6964
2026-01-07 10:26:35.66	339.11	15.27	-40.3	-45.4	10.0	5.80e-03	0	57	0	640679936	51	6785
2026-01-07 10:26:36.67	339.14	15.16	-40.4	-45.7	9.7	8.90e-03	0	57	0	641728512	51	7026
2026-01-07 10:26:37.68	339.17	15.05	-40.5	-46.2	9.1	1.89e-02	0	57	0	643825664	51	7447
2026-01-07 10:26:38.69	339.20	14.95	-40.5	-46.5	8.8	2.91e-02	0	57	0	645922816	51	7663
2026-01-07 10:26:39.70	339.23	14.84	-40.6	-47.0	8.1	3.95e-02	0	57	0	648019968	51	8099
2026-01-07 10:26:40.71	339.26	14.73	-40.6	-47.1	7.9	5.75e-02	0	56	0	650117120	51	8244
2026-01-07 10:26:41.72	339.29	14.63	-40.6	-47.5	7.5	9.06e-02	0	56	0	651165696	51	8641
2026-01-07 10:26:42.73	339.32	14.53	-40.7	-47.9	7.1	1.32e-01	0	57	0	653262848	51	9029
2026-01-07 10:26:43.74	339.35	14.42	-40.6	-48.3	6.6	1.84e-01	0	57	0	655360000	52	8867
2026-01-07 10:26:44.75	339.38	14.32	-40.7	-48.5	6.4	2.37e-01	0	56	0	657457152	52	9116
2026-01-07 10:26:45.76	339.41	14.21	-40.8	-49.1	5.9	3.01e-01	0	56	0	659554304	52	9737
2026-01-07 10:26:46.77	339.44	14.11	-40.8	-49.3	5.8	3.62e-01	0	56	0	660602880	52	9972
2026-01-07 10:26:47.78	339.47	14.01	-40.8	-49.8	5.3	4.94e-01	0	57	0	662700032	52	10640
2026-01-07 10:26:48.79	339.50	13.91	-40.9	-50.2	5.1	6.03e-01	0	57	0	664797184	52	11130
2026-01-07 10:26:49.80	339.53	13.81	-40.9	-50.6	4.9	6.80e-01	0	56	0	666894336	52	11626
2026-01-07 10:26:50.81	339.56	13.71	-40.9	-50.9	4.7	8.46e-01	0	57	0	668991488	52	12000
2026-01-07 10:26:51.82	339.59	13.61	-40.9	-51.3	4.5	9.35e-01	0	57	0	670040064	52	12619
2026-01-07 10:26:52.82	339.61	13.51	-40.9	-51.6	4.4	1.10e+00	0	57	0	672137216	52	13014
2026-01-07 10:26:53.83	339.64	13.41	-40.9	-52.0	4.2	1.35e+00	0	57	0	673185792	52	13702
2026-01-07 10:26:54.84	339.67	13.31	-40.9	-52.1	4.2	1.38e+00	0	56	0	673185792	52	13838
2026-01-07 10:26:55.86	339.70	13.21	-40.8	-52.3	4.1	1.41e+00	0	57	0	673185792	52	14129
2026-01-07 10:26:56.86	339.73	13.11	-40.8	-52.6	4.0	1.43e+00	0	57	0	673185792	52	14571
2026-01-07 10:26:57.87	339.75	13.01	-40.8	-52.8	3.9	1.47e+00	0	57	104	673185792	52	14974
2026-01-07 10:26:58.88	339.78	12.91	-40.8	-53.1	3.8	1.48e+00	0	57	104	673185792	52	15430
2026-01-07 10:26:59.89	339.81	12.82	-40.8	-53.2	3.8	1.49e+00	0	57	104	673185792	52	15687
2026-01-07 10:27:00.90	339.84	12.72	-40.8	-53.3	3.8	1.49e+00	0	57	104	673185792	52	15810
2026-01-07 10:27:01.91	339.86	12.62	-40.8	-53.3	3.9	1.49e+00	0	57	104	673185792	52	15780
2026-01-07 10:27:02.92	339.89	12.53	-40.8	-53.5	3.8	1.48e+00	0	57	104	673185792	52	16178
2026-01-07 10:27:03.93	339.92	12.43	-40.8	-53.5	3.9	1.49e+00	0	57	104	673185792	52	16167
2026-01-07 10:27:04.94	339.94	12.33	-41.5	-54.2	3.8	1.49e+00	0	56	104	673185792	53	16509
2026-01-07 10:27:05.95	339.97	12.24	-40.3	-54.7	3.8	1.49e+00	0	56	104	673185792	52	18701
2026-01-07 10:27:06.97	340.00	12.14	-40.5	-54.9	3.8	1.49e+00	0	57	104	673185792	52	19083
2026-01-07 10:27:07.97	340.02	12.05	-41.1	-54.3	3.8	1.49e+00	0	57	104	673185792	52	17835
2026-01-07 10:27:08.98	340.05	11.96	-41.0	-54.2	3.8	1.49e+00	0	57	104	673185792	52	17575
2026-01-07 10:27:09.99	340.08	11.86	-41.0	-54.1	3.8	1.49e+00	0	57	104	673185792	52	17387
2026-01-07 10:27:11.00	340.10	11.77	-40.9	-54.0	3.8	1.49e+00	0	57	104	673185792	52	17199
2026-01-07 10:27:12.01	340.13	11.68	-40.8	-54.0	3.8	1.49e+00	0	57	104	673185792	52	17169
2026-01-07 10:27:13.02	340.15	11.58	-40.8	-54.1	3.8	1.49e+00	0	57	104	673185792	52	17340
2026-01-07 10:27:14.03	340.18	11.49	-40.7	-54.1	3.8	1.49e+00	0	57	104	673185792	52	17396
2026-01-07 10:27:15.04	340.20	11.40	-40.6	-54.1	3.8	1.49e+00	0	57	104	673185792	52	17330
2026-01-07 10:27:16.05	340.23	11.31	-40.6	-54.1	3.8	1.49e+00	0	57	104	673185792	52	17477
2026-01-07 10:27:17.06	340.25	11.22	-40.5	-54.2	3.8	1.49e+00	0	57	104	673185792	52	17584
2026-01-07 10:27:18.07	340.28	11.13	-40.4	-54.3	3.8	1.49e+00	0	57	104	673185792	52	17726
2026-01-07 10:27:19.08	340.30	11.04	-40.4	-54.4	3.8	1.49e+00	0	57	104	673185792	52	17902
2026-01-07 10:27:20.09	340.33	10.95	-40.4	-54.4	3.8	1.49e+00	0	57	104	673185792	52	17906
2026-01-07 10:27:21.10	340.35	10.86	-40.4	-54.4	3.8	1.49e+00	0	57	104	673185792	52	17994
2026-01-07 10:27:22.11	340.38	10.77	-40.6	-54.5	3.8	1.49e+00	0	57	104	673185792	52	18203
2026-01-07 10:27:23.12	340.40	10.68	-40.0	-54.7	3.8	1.49e+00	0	57	104	673185792	52	18626
2026-01-07 10:27:24.13	340.43	10.59	-40.1	-54.6	3.8	1.49e+00	0	57	104	673185792	52	18497
2026-01-07 10:27:25.14	340.45	10.50	-40.4	-54.8	3.8	1.49e+00	0	57	104	673185792	52	18915
2026-01-07 10:27:26.15	340.47	10.41	-40.1	-54.6	3.8	1.49e+00	0	57	104	673185792	52	18464
2026-01-07 10:27:27.16	340.50	10.32	-40.4	-54.8	3.8	1.49e+00	0	56	104	673185792	52	18769
2026-01-07 10:27:28.17	340.52	10.24	-40.4	-54.5	3.8	1.49e+00	0	57	104	673185792	52	18272
2026-01-07 10:27:29.18	340.54	10.15	-40.0	-54.6	3.8	1.49e+00	0	57	104	673185792	52	18385
2026-01-07 10:27:30.19	340.57	10.06	-40.3	-54.5	3.8	1.49e+00	0	57	104	673185792	52	18104
2026-01-07 10:27:31.20	340.59	9.97	-40.1	-54.6	3.8	1.49e+00	0	57	104	673185792	52	18399
2026-01-07 10:27:32.21	340.61	9.89	-40.2	-54.7	3.8	1.49e+00	0	57	104	673185792	52	18604
2026-01-07 10:27:33.22	340.64	9.80	-40.2	-54.6	3.8	1.49e+00	0	57	104	673185792	52	18432
2026-01-07 10:27:34.23	340.66	9.72	-40.2	-54.7	3.8	1.49e+00	0	57	104	673185792	52	18703
2026-01-07 10:27:35.24	340.68	9.63	-40.2	-54.7	3.8	1.49e+00	0	57	104	673185792	52	18528
2026-01-07 10:27:36.26	340.71	9.54	-40.2	-54.6	3.8	1.49e+00	0	57	104	673185792	52	18341
2026-01-07 10:27:37.27	340.73	9.46	-40.1	-54.6	3.8	1.49e+00	0	57	104	673185792	52	18378
2026-01-07 10:27:38.28	340.75	9.37	-40.2	-54.6	3.8	1.49e+00	0	57	104	673185792	52	18509
2026-01-07 10:27:39.29	340.77	9.29	-40.1	-54.6	3.8	1.49e+00	0	57	104	673185792	52	18424
2026-01-07 10:27:40.30	340.80	9.21	-40.3	-54.8	3.8	1.49e+00	0	57	104	673185792	52	18890
2026-01-07 10:27:41.31	340.82	9.12	-40.1	-54.6	3.8	1.49e+00	0	57	104	673185792	52	18417
2026-01-07 10:27:42.32	340.84	9.04	-40.3	-54.9	3.8	1.49e+00	0	57	104	673185792	52	18977
2026-01-07 10:27:43.33	340.86	8.95	-40.1	-54.6	3.8	1.49e+00	0	57	104	673185792	52	18448
2026-01-07 10:27:44.34	340.89	8.87	-40.3	-54.8	3.8	1.49e+00	0	57	104	673185792	52	18807
2026-01-07 10:27:45.35	340.91	8.79	-40.2	-54.6	3.8	1.49e+00	0	57	104	673185792	52	18476
2026-01-07 10:27:46.36	340.93	8.71	-40.3	-54.8	3.8	1.49e+00	0	57	104	673185792	52	18839
2026-01-07 10:27:47.37	340.95	8.62	-40.2	-54.6	3.8	1.49e+00	0	57	104	673185792	52	18508
2026-01-07 10:27:48.38	340.97	8.54	-40.3	-54.8	3.8	1.49e+00	0	57	104	673185792	52	18927
2026-01-07 10:27:49.39	340.99	8.46	-40.2	-54.6	3.8	1.49e+00	0	57	104	673185792	52	18456
2026-01-07 10:27:50.40	341.01	8.38	-40.3	-54.8	3.8	1.49e+00	0	57	104	673185792	52	18790
2026-01-07 10:27:51.41	341.04	8.30	-40.2	-54.6	3.8	1.49e+00	0	57	104	673185792	52	18329
2026-01-07 10:27:52.42	341.06	8.22	-40.4	-54.8	3.8	1.49e+00	0	57	104	673185792	52	18834
2026-01-07 10:27:53.43	341.08	8.14	-40.3	-54.4	3.8	1.49e+00	0	57	104	673185792	52	17987
2026-01-07 10:27:54.44	341.10	8.06	-40.2	-54.2	3.8	1.49e+00	0	57	104	673185792	52	17483
2026-01-07 10:27:55.45	341.12	7.98	-40.3	-53.9	3.8	1.49e+00	0	57	104	673185792	52	16999
2026-01-07 10:27:56.46	341.14	7.90	-43.2	-57.5	3.8	1.49e+00	0	57	104	673185792	56	20329
2026-01-07 10:27:57.47	341.16	7.82	-44.2	-58.9	3.8	1.49e+00	0	57	104	673185792	59	20141
2026-01-07 10:27:58.49	341.18	7.74	-44.7	-59.2	3.8	1.49e+00	0	57	104	673185792	59	20864
2026-01-07 10:27:59.50	341.20	7.66	-44.8	-59.5	3.8	1.49e+00	0	57	104	673185792	60	20536
2026-01-07 10:28:00.51	341.22	7.58	-44.9	-59.7	3.8	1.49e+00	0	57	104	673185792	60	20863
2026-01-07 10:28:01.52	341.24	7.50	-42.7	-59.4	3.8	1.49e+00	0	57	104	673185792	55	26893
2026-01-07 10:28:02.53	341.26	7.42	-45.0	-59.8	3.8	1.49e+00	0	57	104	673185792	60	21255
2026-01-07 10:28:03.54	341.28	7.34	-45.2	-59.9	3.8	1.49e+00	0	57	104	673185792	60	21345
2026-01-07 10:28:04.55	341.30	7.27	-45.2	-60.0	3.8	1.49e+00	0	57	104	673185792	60	21548
2026-01-07 10:28:05.56	341.32	7.19	-45.2	-60.0	3.8	1.49e+00	0	57	104	673185792	60	21524
2026-01-07 10:28:06.57	341.34	7.11	-45.2	-60.0	3.8	1.49e+00	0	57	104	673185792	60	21522
2026-01-07 10:28:07.58	341.36	7.03	-45.1	-59.9	3.8	1.49e+00	0	57	104	673185792	60	21464
2026-01-07 10:28:08.59	341.38	6.96	-45.1	-59.9	3.8	1.49e+00	0	57	104	673185792	60	21391
2026-01-07 10:28:09.60	341.40	6.88	-45.1	-59.9	3.8	1.49e+00	0	57	104	673185792	60	21367
2026-01-07 10:28:10.62	341.42	6.80	-45.1	-59.9	3.8	1.49e+00	0	57	104	673185792	60	21367
2026-01-07 10:28:11.63	341.44	6.73	-45.1	-59.9	3.8	1.49e+00	0	57	104	673185792	60	21269
2026-01-07 10:28:12.64	341.46	6.65	-45.1	-59.9	3.8	1.49e+00	0	57	104	673185792	60	21304
2026-01-07 10:28:13.65	341.48	6.57	-45.1	-59.9	3.8	1.49e+00	0	57	104	673185792	60	21335
2026-01-07 10:28:14.66	341.50	6.50	-45.1	-59.9	3.8	1.49e+00	0	57	104	673185792	60	21313
2026-01-07 10:28:15.67	341.52	6.42	-45.1	-59.8	3.8	1.49e+00	0	57	104	673185792	60	21252
2026-01-07 10:28:16.68	341.54	6.35	-45.1	-59.8	3.8	1.49e+00	0	57	104	673185792	60	21248
2026-01-07 10:28:17.70	341.56	6.27	-45.1	-59.9	3.8	1.49e+00	0	57	104	673185792	60	21261
2026-01-07 10:28:18.71	341.58	6.20	-45.0	-59.9	3.8	1.49e+00	0	57	104	673185792	60	21312
2026-01-07 10:28:19.72	341.60	6.12	-45.1	-59.8	3.8	1.49e+00	0	57	104	673185792	60	21236
2026-01-07 10:28:20.73	341.62	6.05	-45.0	-59.9	3.8	1.49e+00	0	57	104	673185792	60	21261
2026-01-07 10:28:21.74	341.63	5.97	-45.0	-59.8	3.8	1.49e+00	0	57	104	673185792	60	21233
2026-01-07 10:28:22.75	341.65	5.90	-45.0	-59.8	3.8	1.49e+00	0	56	104	673185792	60	21204
2026-01-07 10:28:23.76	341.67	5.83	-45.0	-59.8	3.8	1.49e+00	0	57	104	673185792	60	21159
2026-01-07 10:28:24.77	341.69	5.75	-45.0	-59.8	3.8	1.49e+00	0	57	104	673185792	60	21185
2026-01-07 10:28:25.78	341.71	5.68	-45.0	-59.8	3.8	1.49e+00	0	57	104	673185792	60	21208
2026-01-07 10:28:26.79	341.73	5.61	-45.0	-59.8	3.8	1.49e+00	0	57	104	673185792	60	21248
2026-01-07 10:28:27.80	341.75	5.53	-45.0	-59.8	3.8	1.49e+00	0	57	104	673185792	60	21156
2026-01-07 10:28:28.81	341.76	5.46	-45.0	-59.8	3.8	1.49e+00	0	57	104	673185792	60	21177
2026-01-07 10:28:29.83	341.78	5.39	-45.0	-59.8	3.8	1.49e+00	0	57	104	673185792	60	21194
2026-01-07 10:28:30.84	341.80	5.32	-45.0	-59.8	3.8	1.49e+00	0	57	104	673185792	60	21128
2026-01-07 10:28:31.85	341.82	5.24	-45.0	-59.8	3.8	1.49e+00	0	57	104	673185792	60	21209
2026-01-07 10:28:32.86	341.84	5.17	-45.0	-59.8	3.8	1.49e+00	0	57	104	673185792	60	21148
2026-01-07 10:28:33.87	341.86	5.10	-45.0	-59.8	3.8	1.49e+00	0	57	104	673185792	60	21198
2026-01-07 10:28:34.88	341.87	5.03	-45.0	-59.8	3.8	1.49e+00	0	57	104	673185792	60	21192
2026-01-07 10:28:35.89	341.89	4.96	-45.0	-59.8	3.8	1.49e+00	0	57	104	673185792	60	21135
2026-01-07 10:28:36.90	341.91	4.89	-45.0	-59.8	3.8	1.49e+00	0	57	104	673185792	60	21168
2026-01-07 10:28:37.92	341.93	4.81	-45.0	-59.8	3.8	1.49e+00	0	57	104	673185792	60	21148
2026-01-07 10:28:38.93	341.94	4.74	-45.0	-59.8	3.8	1.49e+00	0	57	104	673185792	60	21130
2026-01-07 10:28:39.94	341.96	4.67	-45.0	-59.8	3.8	1.49e+00	0	57	104	673185792	60	21111
2026-01-07 10:28:40.95	341.98	4.60	-45.0	-59.8	3.8	1.49e+00	0	57	104	673185792	60	21151
2026-01-07 10:28:41.96	342.00	4.53	-45.0	-59.8	3.8	1.49e+00	0	57	104	673185792	60	21223
2026-01-07 10:28:42.97	342.01	4.46	-45.0	-59.8	3.8	1.49e+00	0	57	104	673185792	60	21188
2026-01-07 10:28:43.98	342.03	4.39	-45.0	-59.8	3.8	1.49e+00	0	57	104	673185792	60	21136
2026-01-07 10:28:44.99	342.05	4.32	-45.0	-59.8	3.8	1.49e+00	0	57	104	673185792	60	21159
2026-01-07 10:28:46.00	342.07	4.25	-45.0	-59.8	3.8	1.49e+00	0	57	104	673185792	60	21109
2026-01-07 10:28:47.01	342.08	4.18	-45.0	-59.8	3.8	1.49e+00	0	57	104	673185792	60	21138
2026-01-07 10:28:48.03	342.10	4.11	-45.0	-59.8	3.8	1.49e+00	0	57	104	673185792	60	21094
2026-01-07 10:28:49.04	342.12	4.05	-45.0	-59.8	3.8	1.49e+00	0	57	104	673185792	60	21164
2026-01-07 10:28:50.05	342.13	3.98	-45.0	-59.8	3.8	1.49e+00	0	57	104	673185792	60	21097
2026-01-07 10:28:51.06	342.15	3.91	-45.0	-59.8	3.8	1.49e+00	0	57	104	673185792	60	21110
2026-01-07 10:28:52.07	342.17	3.84	-45.0	-59.8	3.8	1.49e+00	0	57	104	673185792	60	21114
2026-01-07 10:28:53.08	342.18	3.77	-45.0	-59.8	3.8	1.49e+00	0	57	104	673185792	60	21084
2026-01-07 10:28:54.09	342.20	3.70	-45.0	-59.8	3.8	1.49e+00	0	57	104	673185792	60	21048
2026-01-07 10:28:55.10	342.22	3.64	-45.0	-59.8	3.8	1.49e+00	0	57	104	673185792	60	21159
2026-01-07 10:28:56.11	342.23	3.57	-45.0	-59.8	3.8	1.49e+00	0	57	104	673185792	60	21112
2026-01-07 10:28:57.12	342.25	3.50	-45.0	-59.8	3.8	1.49e+00	0	57	104	673185792	60	21119
2026-01-07 10:28:58.13	342.27	3.43	-45.0	-59.8	3.8	1.49e+00	0	57	104	673185792	60	21138
2026-01-07 10:28:59.15	342.28	3.36	-45.0	-59.8	3.8	1.49e+00	0	57	104	673185792	60	21138
2026-01-07 10:29:00.16	342.30	3.30	-45.0	-59.8	3.8	1.49e+00	0	57	104	673185792	60	21090
2026-01-07 10:29:01.17	342.32	3.23	-45.0	-59.8	3.8	1.49e+00	0	57	104	673185792	60	21103
2026-01-07 10:29:02.18	342.33	3.16	-45.0	-59.8	3.8	1.49e+00	0	57	104	673185792	60	21129
2026-01-07 10:29:03.19	342.35	3.10	-45.0	-59.8	3.8	1.49e+00	0	57	104	673185792	60	21080
2026-01-07 10:29:04.20	342.37	3.03	-45.0	-59.8	3.8	1.49e+00	0	57	104	673185792	60	21108
2026-01-07 10:29:05.21	342.38	2.96	-45.0	-59.8	3.8	1.49e+00	0	57	104	673185792	60	21155
2026-01-07 10:29:06.22	342.40	2.90	-45.0	-59.8	3.8	1.49e+00	0	57	104	673185792	60	21190
2026-01-07 10:29:07.23	342.41	2.83	-45.0	-59.8	3.8	1.49e+00	0	57	104	673185792	60	21101
2026-01-07 10:29:08.24	342.43	2.77	-45.0	-59.8	3.8	1.49e+00	0	57	104	673185792	60	21103
2026-01-07 10:29:09.25	342.45	2.70	-45.0	-59.8	3.8	1.49e+00	0	57	104	673185792	60	21103
2026-01-07 10:29:10.27	342.46	2.64	-45.0	-59.8	3.8	1.49e+00	0	57	104	673185792	60	21096
2026-01-07 10:29:11.28	342.48	2.57	-45.0	-59.8	3.8	1.49e+00	0	57	104	673185792	60	21068
2026-01-07 10:29:12.29	342.49	2.50	-45.0	-59.8	3.8	1.49e+00	0	57	104	673185792	60	21090
2026-01-07 10:29:13.30	342.51	2.44	-45.0	-59.8	3.8	1.49e+00	0	57	104	673185792	60	21108
2026-01-07 10:29:14.31	342.53	2.37	-45.0	-59.8	3.8	1.49e+00	0	57	104	673185792	60	21111
2026-01-07 10:29:15.32	342.54	2.31	-45.0	-59.8	3.8	1.49e+00	0	57	104	673185792	60	21078
2026-01-07 10:29:16.33	342.56	2.25	-45.0	-59.8	3.8	1.49e+00	0	57	104	673185792	60	21114
2026-01-07 10:29:17.34	342.57	2.18	-45.0	-59.8	3.8	1.49e+00	0	57	104	673185792	60	21076
2026-01-07 10:29:18.36	342.59	2.12	-45.0	-59.8	3.8	1.49e+00	0	57	104	673185792	60	21126
2026-01-07 10:29:19.37	342.60	2.05	-45.0	-59.8	3.8	1.49e+00	0	57	104	673185792	60	21039
2026-01-07 10:29:20.38	342.62	1.99	-45.0	-59.8	3.8	1.49e+00	0	57	104	673185792	60	21047

#Closed at: 2026-01-07 10:29:21
#Recorded file [673 MB]: D:/lorett/data/31039_260107_132003.dat