passes_logs/2026/01/07/R2.0S_Moscow/R2.0S_Moscow__20260107_112656_NOAA_21_JPSS-2_rec.log

#Pass ID: 20260107_112656_NOAA 21 (JPSS-2)
#Satellite: NOAA 21 (JPSS-2)
#Configuration: NOAA-21
#almurnet v.1.7.20251203
#Start time: 2026-01-07 11:29:49

#Version: 2.2.20231116
#Station: R2.0S_Moscow
#Location: 37.707566 lon 55.798166 lat
#TLE: 1 54234U 22150A   26005.56767909  .00000152  00000+0  92756-4 0  9990
#TLE: 2 54234  98.7490 306.5820 0001036 340.2747  19.8389 14.19532370163472

#Time	Az	El	Level	Level2	SNR	BER	BlckErr	Temp	State	Recorded	gain1	gain2
2026-01-07 11:29:49.25	224.63	12.67	-44.9	-56.8	3.8	8.46e-01	0	56	0	0	60	14956
2026-01-07 11:29:50.25	224.77	12.74	-45.1	-57.6	3.8	1.49e+00	0	57	104	0	62	14696
2026-01-07 11:29:51.26	224.92	12.80	-45.1	-57.6	3.8	1.49e+00	0	57	104	0	62	14667
2026-01-07 11:29:52.27	225.06	12.87	-45.1	-57.6	3.8	1.49e+00	0	57	104	0	62	14623
2026-01-07 11:29:53.28	225.21	12.94	-45.1	-57.6	3.8	1.49e+00	0	57	104	0	62	14573
2026-01-07 11:29:54.29	225.36	13.01	-45.1	-57.6	3.8	1.49e+00	0	57	104	0	62	14553
2026-01-07 11:29:55.30	225.51	13.08	-45.0	-57.4	3.8	1.49e+00	0	57	104	0	62	14359
2026-01-07 11:29:56.32	225.66	13.14	-45.0	-57.4	3.8	1.49e+00	0	57	104	0	61	15171
2026-01-07 11:29:57.33	225.81	13.21	-44.9	-57.4	3.8	1.49e+00	0	57	104	0	61	15198
2026-01-07 11:29:58.34	225.96	13.28	-44.8	-57.3	3.8	1.49e+00	0	57	104	0	61	14949
2026-01-07 11:29:59.35	226.11	13.35	-44.7	-57.2	3.8	1.49e+00	0	57	104	0	61	14764
2026-01-07 11:30:00.36	226.26	13.42	-44.6	-57.0	3.8	1.49e+00	0	57	104	0	61	14515
2026-01-07 11:30:01.37	226.41	13.48	-44.6	-57.0	3.8	1.49e+00	0	57	104	0	61	14485
2026-01-07 11:30:02.38	226.56	13.55	-44.6	-57.0	3.8	1.49e+00	0	57	104	0	61	14508
2026-01-07 11:30:03.39	226.72	13.62	-44.6	-57.0	3.8	1.49e+00	0	57	104	0	61	14532
2026-01-07 11:30:04.40	226.87	13.69	-44.6	-57.1	3.8	1.49e+00	0	57	104	0	61	14615
2026-01-07 11:30:05.41	227.03	13.75	-44.6	-57.1	3.8	1.49e+00	0	57	104	0	61	14661
2026-01-07 11:30:06.42	227.18	13.82	-44.6	-57.1	3.8	1.49e+00	0	56	104	0	61	14555
2026-01-07 11:30:07.43	227.34	13.89	-44.6	-56.9	3.8	1.49e+00	0	57	104	0	61	14298
2026-01-07 11:30:08.44	227.50	13.96	-44.6	-56.8	3.8	1.49e+00	0	57	104	0	61	14141
2026-01-07 11:30:09.45	227.65	14.03	-44.6	-56.7	3.8	1.49e+00	0	57	104	0	61	13896
2026-01-07 11:30:10.47	227.81	14.09	-44.6	-56.6	3.8	1.49e+00	0	57	104	0	61	13823
2026-01-07 11:30:11.48	227.97	14.16	-44.6	-56.7	3.8	1.49e+00	0	57	104	0	61	13919
2026-01-07 11:30:12.49	228.13	14.23	-44.6	-56.7	3.8	1.49e+00	0	56	104	0	61	14035
2026-01-07 11:30:13.50	228.29	14.30	-44.6	-56.8	3.8	1.49e+00	0	57	104	0	61	14182
2026-01-07 11:30:14.51	228.46	14.37	-44.6	-57.0	3.8	1.49e+00	0	57	104	0	61	14376
2026-01-07 11:30:15.52	228.62	14.43	-44.6	-57.0	3.8	1.49e+00	0	57	104	0	61	14498
2026-01-07 11:30:16.53	228.78	14.50	-44.6	-57.1	3.8	1.49e+00	0	57	104	0	61	14573
2026-01-07 11:30:17.54	228.94	14.57	-44.6	-57.0	3.8	1.49e+00	0	57	104	0	61	14449
2026-01-07 11:30:18.55	229.11	14.64	-44.6	-56.8	3.8	1.49e+00	0	57	104	0	61	14068
2026-01-07 11:30:19.56	229.27	14.70	-44.5	-56.3	3.8	1.49e+00	0	57	104	0	61	13334
2026-01-07 11:30:20.58	229.44	14.77	-44.5	-55.7	3.8	1.49e+00	0	57	104	0	60	13220
2026-01-07 11:30:21.59	229.61	14.84	-44.4	-55.0	3.9	1.49e+00	0	57	104	0	60	12153
2026-01-07 11:30:22.60	229.77	14.91	-44.4	-54.9	3.9	1.48e+00	0	57	104	0	60	12017
2026-01-07 11:30:23.61	229.94	14.97	-44.4	-54.4	4.0	1.48e+00	0	57	104	0	60	11335
2026-01-07 11:30:24.62	230.11	15.04	-44.4	-54.8	3.8	1.48e+00	0	57	104	0	60	11832
2026-01-07 11:30:25.63	230.28	15.11	-44.4	-55.2	3.9	1.49e+00	0	57	104	0	60	12460
2026-01-07 11:30:26.64	230.45	15.18	-44.5	-55.8	3.8	1.49e+00	0	57	104	0	60	13319
2026-01-07 11:30:27.65	230.62	15.24	-44.5	-56.0	3.8	1.49e+00	0	57	104	0	60	13614
2026-01-07 11:30:28.66	230.79	15.31	-44.5	-55.9	3.8	1.49e+00	0	57	104	0	60	13444
2026-01-07 11:30:29.67	230.97	15.38	-44.4	-55.5	3.8	1.49e+00	0	57	104	0	60	12861
2026-01-07 11:30:30.69	231.14	15.45	-44.4	-55.2	3.8	1.49e+00	0	57	104	0	60	12383
2026-01-07 11:30:31.70	231.31	15.51	-44.3	-54.3	4.0	1.48e+00	0	57	104	0	60	11240
2026-01-07 11:30:32.71	231.49	15.58	-44.2	-53.4	4.2	1.47e+00	0	57	104	0	60	10134
2026-01-07 11:30:33.72	231.66	15.65	-44.0	-52.5	4.0	1.04e+00	1	57	104	0	60	9147
2026-01-07 11:30:34.73	231.84	15.71	-43.6	-49.7	6.1	3.79e-01	0	57	0	1048576	59	7004
2026-01-07 11:30:35.74	232.02	15.78	-42.9	-47.6	8.0	8.86e-02	0	57	0	4194304	57	6191
2026-01-07 11:30:36.75	232.20	15.85	-41.8	-45.4	10.1	8.85e-03	0	57	0	8388608	55	5372
2026-01-07 11:30:37.76	232.37	15.91	-40.8	-43.8	11.9	1.19e-03	0	57	0	11534336	53	4986
2026-01-07 11:30:38.77	232.55	15.98	-40.0	-42.4	13.3	3.50e-05	0	57	0	13631488	51	4793
2026-01-07 11:30:39.78	232.73	16.05	-39.2	-41.3	14.5	0.00e+00	0	57	0	16777216	50	4453
2026-01-07 11:30:40.79	232.91	16.11	-38.6	-40.4	15.3	0.00e+00	0	57	0	19922944	49	4291
2026-01-07 11:30:41.80	233.10	16.18	-38.2	-40.0	15.8	0.00e+00	0	57	0	24117248	48	4298
2026-01-07 11:30:42.81	233.28	16.24	-38.1	-39.9	15.9	0.00e+00	0	57	0	27262976	48	4253
2026-01-07 11:30:43.82	233.46	16.31	-43.1	-48.2	7.7	0.00e+00	0	57	0	30408704	56	7014
2026-01-07 11:30:44.83	233.65	16.38	-42.7	-47.6	8.3	7.00e-07	0	57	0	33554432	55	6906
2026-01-07 11:30:45.84	233.83	16.44	-38.3	-40.1	15.6	7.60e-06	0	57	0	33554432	47	4623
2026-01-07 11:30:46.85	234.02	16.51	-39.8	-42.2	13.7	7.00e-07	0	57	0	36700160	50	4928
2026-01-07 11:30:47.86	234.20	16.57	-39.6	-41.8	14.1	0.00e+00	0	56	0	39845888	49	4992
2026-01-07 11:30:48.87	234.39	16.64	-38.2	-40.0	15.7	0.00e+00	0	57	0	42991616	48	4312
2026-01-07 11:30:49.89	234.58	16.71	-37.7	-39.4	16.3	0.00e+00	0	57	0	46137344	47	4247
2026-01-07 11:30:50.89	234.77	16.77	-37.7	-39.3	16.4	0.00e+00	0	57	0	49283072	47	4224
2026-01-07 11:30:51.90	234.96	16.84	-37.7	-39.4	16.3	0.00e+00	0	57	0	53477376	47	4259
2026-01-07 11:30:52.91	235.15	16.90	-37.6	-39.3	16.4	0.00e+00	0	57	0	56623104	47	4213
2026-01-07 11:30:53.92	235.34	16.97	-37.5	-39.1	16.6	0.00e+00	0	57	0	59768832	46	4348
2026-01-07 11:30:54.93	235.53	17.03	-37.5	-39.2	16.5	0.00e+00	0	57	0	61865984	46	4396
2026-01-07 11:30:55.94	235.72	17.10	-37.5	-39.1	16.5	0.00e+00	0	57	0	65011712	46	4387
2026-01-07 11:30:56.96	235.92	17.16	-37.4	-39.0	16.7	0.00e+00	0	57	0	69206016	46	4319
2026-01-07 11:30:57.97	236.11	17.22	-37.4	-39.0	16.7	0.00e+00	0	57	0	72351744	46	4327
2026-01-07 11:30:58.97	236.30	17.29	-37.4	-39.0	16.7	0.00e+00	0	57	0	75497472	46	4311
2026-01-07 11:30:59.98	236.50	17.35	-37.4	-38.9	16.7	0.00e+00	0	57	0	78643200	46	4286
2026-01-07 11:31:01.00	236.70	17.42	-37.3	-38.9	16.8	0.00e+00	0	57	0	81788928	46	4260
2026-01-07 11:31:02.01	236.90	17.48	-37.3	-38.9	16.8	0.00e+00	0	57	0	84934656	46	4254
2026-01-07 11:31:03.01	237.09	17.54	-37.3	-38.9	16.8	0.00e+00	0	57	0	88080384	46	4260
2026-01-07 11:31:04.02	237.29	17.61	-37.3	-38.8	16.8	0.00e+00	0	57	0	91226112	46	4231
2026-01-07 11:31:05.03	237.49	17.67	-37.3	-38.8	16.8	0.00e+00	0	57	0	94371840	46	4236
2026-01-07 11:31:06.04	237.69	17.73	-37.3	-38.9	16.8	0.00e+00	0	57	0	97517568	46	4247
2026-01-07 11:31:07.05	237.89	17.80	-37.3	-38.9	16.8	0.00e+00	0	57	0	100663296	46	4255
2026-01-07 11:31:08.06	238.10	17.86	-37.3	-38.9	16.8	0.00e+00	0	57	0	103809024	46	4262
2026-01-07 11:31:09.07	238.30	17.92	-37.4	-39.0	16.7	0.00e+00	0	57	0	106954752	46	4323
2026-01-07 11:31:10.08	238.50	17.98	-37.3	-38.9	16.8	0.00e+00	0	57	0	110100480	46	4277
2026-01-07 11:31:11.09	238.71	18.05	-37.4	-39.0	16.7	0.00e+00	0	57	0	113246208	46	4307
2026-01-07 11:31:12.10	238.91	18.11	-37.5	-39.1	16.6	0.00e+00	0	57	0	116391936	46	4352
2026-01-07 11:31:13.11	239.12	18.17	-37.4	-39.0	16.7	0.00e+00	0	56	0	119537664	46	4304
2026-01-07 11:31:14.12	239.33	18.23	-37.3	-38.9	16.8	0.00e+00	0	57	0	122683392	46	4265
2026-01-07 11:31:15.13	239.54	18.29	-37.3	-38.8	16.9	0.00e+00	0	56	0	125829120	46	4223
2026-01-07 11:31:16.14	239.74	18.35	-37.3	-38.8	16.9	0.00e+00	0	57	0	128974848	46	4226
2026-01-07 11:31:17.15	239.95	18.41	-37.2	-38.7	17.0	0.00e+00	0	57	0	132120576	46	4193
2026-01-07 11:31:18.16	240.17	18.48	-37.3	-38.8	16.9	0.00e+00	0	57	0	135266304	46	4236
2026-01-07 11:31:19.17	240.38	18.54	-37.3	-38.8	16.9	0.00e+00	0	56	0	138412032	46	4240
2026-01-07 11:31:20.18	240.59	18.60	-37.3	-38.9	16.8	0.00e+00	0	57	0	141557760	46	4263
2026-01-07 11:31:21.19	240.80	18.66	-37.4	-39.0	16.7	0.00e+00	0	56	0	144703488	46	4327
2026-01-07 11:31:22.19	241.01	18.71	-37.4	-39.0	16.7	0.00e+00	0	56	0	147849216	46	4322
2026-01-07 11:31:23.21	241.23	18.77	-37.5	-39.1	16.7	0.00e+00	0	57	0	150994944	46	4347
2026-01-07 11:31:24.22	241.45	18.83	-37.5	-39.1	16.6	0.00e+00	0	57	0	154140672	46	4359
2026-01-07 11:31:25.23	241.66	18.89	-37.5	-39.1	16.6	0.00e+00	0	57	0	157286400	46	4362
2026-01-07 11:31:26.24	241.88	18.95	-37.5	-39.2	16.6	0.00e+00	0	57	0	160432128	46	4400
2026-01-07 11:31:27.25	242.10	19.01	-37.6	-39.2	16.5	0.00e+00	0	57	0	163577856	46	4409
2026-01-07 11:31:28.26	242.32	19.07	-37.6	-39.2	16.5	7.00e-07	0	57	0	166723584	46	4419
2026-01-07 11:31:29.27	242.54	19.13	-37.5	-39.1	16.6	0.00e+00	0	57	0	169869312	46	4389
2026-01-07 11:31:30.28	242.76	19.18	-37.5	-39.1	16.7	0.00e+00	0	57	0	173015040	46	4360
2026-01-07 11:31:31.29	242.98	19.24	-37.5	-39.1	16.6	0.00e+00	0	57	0	176160768	46	4355
2026-01-07 11:31:32.29	243.20	19.30	-37.4	-38.9	16.8	0.00e+00	0	57	0	179306496	46	4283
2026-01-07 11:31:33.30	243.42	19.35	-37.5	-39.1	16.7	0.00e+00	0	56	0	182452224	46	4348
2026-01-07 11:31:34.31	243.64	19.41	-37.5	-39.1	16.6	0.00e+00	0	57	0	185597952	46	4353
2026-01-07 11:31:35.32	243.87	19.47	-37.5	-39.2	16.6	0.00e+00	0	57	0	188743680	46	4395
2026-01-07 11:31:36.33	244.09	19.52	-37.6	-39.2	16.5	0.00e+00	0	56	0	191889408	46	4428
2026-01-07 11:31:37.34	244.32	19.58	-37.6	-39.3	16.5	0.00e+00	0	57	0	195035136	46	4447
2026-01-07 11:31:38.35	244.54	19.63	-37.7	-39.4	16.4	0.00e+00	0	57	0	198180864	46	4496
2026-01-07 11:31:39.36	244.77	19.69	-37.6	-39.2	16.5	0.00e+00	0	57	0	201326592	46	4441
2026-01-07 11:31:40.37	245.00	19.74	-37.5	-39.1	16.6	0.00e+00	0	57	0	204472320	46	4379
2026-01-07 11:31:41.38	245.23	19.80	-37.4	-39.0	16.8	0.00e+00	0	56	0	207618048	46	4307
2026-01-07 11:31:42.39	245.46	19.85	-37.3	-38.9	16.8	0.00e+00	0	57	0	210763776	46	4268
2026-01-07 11:31:43.40	245.69	19.91	-37.4	-38.9	16.8	0.00e+00	0	57	0	213909504	46	4290
2026-01-07 11:31:44.41	245.92	19.96	-37.4	-39.0	16.8	0.00e+00	0	57	0	217055232	46	4293
2026-01-07 11:31:45.42	246.15	20.01	-37.4	-39.0	16.7	0.00e+00	0	57	0	220200960	46	4314
2026-01-07 11:31:46.43	246.39	20.06	-37.4	-39.0	16.7	0.00e+00	0	57	0	223346688	46	4322
2026-01-07 11:31:47.44	246.62	20.12	-37.5	-39.1	16.7	0.00e+00	0	57	0	226492416	46	4357
2026-01-07 11:31:48.45	246.86	20.17	-37.5	-39.1	16.6	0.00e+00	0	57	0	229638144	46	4364
2026-01-07 11:31:49.46	247.09	20.22	-37.5	-39.2	16.6	0.00e+00	0	57	0	232783872	46	4397
2026-01-07 11:31:50.47	247.33	20.27	-37.5	-39.2	16.5	0.00e+00	0	57	0	235929600	46	4400
2026-01-07 11:31:51.48	247.56	20.32	-37.5	-39.1	16.6	0.00e+00	0	57	0	239075328	46	4377
2026-01-07 11:31:52.49	247.80	20.37	-37.5	-39.1	16.7	0.00e+00	0	57	0	242221056	46	4357
2026-01-07 11:31:53.50	248.04	20.42	-37.4	-39.0	16.8	0.00e+00	0	57	0	245366784	46	4298
2026-01-07 11:31:54.50	248.28	20.47	-37.3	-38.8	16.9	0.00e+00	0	57	0	248512512	46	4229
2026-01-07 11:31:55.52	248.52	20.52	-37.2	-38.7	17.0	0.00e+00	0	56	0	251658240	46	4183
2026-01-07 11:31:56.53	248.76	20.57	-37.2	-38.7	17.0	0.00e+00	0	56	0	254803968	46	4180
2026-01-07 11:31:57.54	249.00	20.62	-37.2	-38.7	17.0	0.00e+00	0	57	0	257949696	46	4178
2026-01-07 11:31:58.55	249.24	20.66	-37.2	-38.8	17.0	0.00e+00	0	57	0	261095424	46	4198
2026-01-07 11:31:59.56	249.49	20.71	-37.3	-38.9	16.8	0.00e+00	0	57	0	264241152	46	4256
2026-01-07 11:32:00.57	249.73	20.76	-37.3	-38.9	16.9	0.00e+00	0	57	0	267386880	46	4247
2026-01-07 11:32:01.58	249.97	20.81	-37.2	-38.8	17.0	0.00e+00	0	57	0	270532608	46	4207
2026-01-07 11:32:02.58	250.22	20.85	-37.1	-38.7	17.0	0.00e+00	0	57	0	273678336	46	4163
2026-01-07 11:32:03.59	250.46	20.90	-37.1	-38.6	17.1	0.00e+00	0	57	0	276824064	46	4143
2026-01-07 11:32:04.60	250.71	20.94	-37.0	-38.5	17.2	0.00e+00	0	57	0	279969792	46	4095
2026-01-07 11:32:05.61	250.96	20.99	-37.0	-38.5	17.2	0.00e+00	0	57	0	283115520	46	4064
2026-01-07 11:32:06.62	251.20	21.03	-37.0	-38.5	17.2	0.00e+00	0	57	0	286261248	45	4327
2026-01-07 11:32:07.63	251.45	21.08	-37.0	-38.5	17.2	0.00e+00	0	57	0	289406976	45	4328
2026-01-07 11:32:08.64	251.70	21.12	-37.1	-38.6	17.1	0.00e+00	0	57	0	292552704	45	4351
2026-01-07 11:32:09.65	251.95	21.16	-37.1	-38.6	17.1	0.00e+00	0	57	0	295698432	45	4370
2026-01-07 11:32:10.66	252.20	21.20	-37.1	-38.6	17.1	0.00e+00	0	57	0	298844160	45	4363
2026-01-07 11:32:11.67	252.45	21.25	-37.0	-38.5	17.2	0.00e+00	0	57	0	301989888	45	4338
2026-01-07 11:32:12.68	252.70	21.29	-37.0	-38.5	17.2	0.00e+00	0	57	0	305135616	45	4323
2026-01-07 11:32:13.69	252.96	21.33	-36.9	-38.4	17.3	0.00e+00	0	57	0	308281344	45	4278
2026-01-07 11:32:14.70	253.21	21.37	-36.9	-38.4	17.3	0.00e+00	0	57	0	311427072	45	4251
2026-01-07 11:32:15.71	253.46	21.41	-36.9	-38.4	17.3	0.00e+00	0	57	0	314572800	45	4243
2026-01-07 11:32:16.73	253.72	21.45	-36.9	-38.4	17.3	0.00e+00	0	57	0	317718528	45	4285
2026-01-07 11:32:17.74	253.98	21.49	-37.0	-38.6	17.1	0.00e+00	0	56	0	320864256	45	4345
2026-01-07 11:32:18.75	254.23	21.53	-37.2	-38.7	17.0	0.00e+00	0	56	0	324009984	45	4420
2026-01-07 11:32:19.76	254.49	21.56	-37.2	-38.7	17.0	0.00e+00	0	57	0	327155712	45	4416
2026-01-07 11:32:20.77	254.74	21.60	-37.1	-38.6	17.1	0.00e+00	0	56	0	330301440	45	4360
2026-01-07 11:32:21.78	255.00	21.64	-36.9	-38.4	17.3	0.00e+00	0	57	0	333447168	45	4270
2026-01-07 11:32:22.79	255.26	21.68	-36.9	-38.4	17.3	0.00e+00	0	56	0	336592896	45	4264
2026-01-07 11:32:23.80	255.52	21.71	-36.9	-38.4	17.3	0.00e+00	0	57	0	339738624	45	4265
2026-01-07 11:32:24.81	255.78	21.75	-36.9	-38.4	17.3	0.00e+00	0	57	0	342884352	45	4264
2026-01-07 11:32:25.82	256.04	21.78	-36.9	-38.4	17.3	0.00e+00	0	57	0	346030080	45	4274
2026-01-07 11:32:26.83	256.30	21.82	-37.0	-38.5	17.2	0.00e+00	0	57	0	349175808	45	4321
2026-01-07 11:32:27.84	256.56	21.85	-37.1	-38.6	17.1	0.00e+00	0	56	0	352321536	45	4383
2026-01-07 11:32:28.85	256.82	21.88	-37.1	-38.7	17.1	0.00e+00	0	56	0	355467264	45	4393
2026-01-07 11:32:29.86	257.08	21.92	-37.1	-38.6	17.1	0.00e+00	0	57	0	358612992	45	4370
2026-01-07 11:32:30.87	257.35	21.95	-37.0	-38.6	17.2	0.00e+00	0	56	0	361758720	45	4343
2026-01-07 11:32:31.88	257.61	21.98	-36.9	-38.4	17.3	0.00e+00	0	57	0	364904448	45	4273
2026-01-07 11:32:32.89	257.87	22.01	-36.8	-38.3	17.4	0.00e+00	0	57	0	368050176	45	4201
2026-01-07 11:32:33.90	258.14	22.04	-36.8	-38.2	17.5	0.00e+00	0	56	0	372244480	45	4176
2026-01-07 11:32:34.91	258.40	22.07	-36.8	-38.2	17.5	0.00e+00	0	57	0	375390208	45	4184
2026-01-07 11:32:35.92	258.67	22.10	-36.8	-38.3	17.4	0.00e+00	0	57	0	377487360	45	4211
2026-01-07 11:32:36.93	258.93	22.13	-36.9	-38.4	17.3	0.00e+00	0	57	0	380633088	45	4267
2026-01-07 11:32:37.94	259.20	22.16	-37.0	-38.5	17.2	0.00e+00	0	57	0	383778816	45	4308
2026-01-07 11:32:38.95	259.46	22.18	-37.0	-38.5	17.2	0.00e+00	0	57	0	387973120	45	4317
2026-01-07 11:32:39.96	259.73	22.21	-37.0	-38.5	17.2	0.00e+00	0	57	0	391118848	45	4314
2026-01-07 11:32:40.97	260.00	22.24	-37.0	-38.4	17.3	0.00e+00	0	57	0	394264576	45	4288
2026-01-07 11:32:41.98	260.27	22.26	-36.9	-38.4	17.2	0.00e+00	0	57	0	397410304	45	4278
2026-01-07 11:32:42.99	260.53	22.29	-37.0	-38.5	17.2	0.00e+00	0	57	0	400556032	45	4308
2026-01-07 11:32:44.00	260.80	22.31	-37.0	-38.5	17.1	0.00e+00	0	57	0	403701760	45	4333
2026-01-07 11:32:45.01	261.07	22.33	-37.0	-38.5	17.2	0.00e+00	0	56	0	406847488	45	4318
2026-01-07 11:32:46.02	261.34	22.36	-36.9	-38.4	17.3	0.00e+00	0	56	0	409993216	45	4278
2026-01-07 11:32:47.03	261.61	22.38	-36.9	-38.4	17.3	0.00e+00	0	57	0	413138944	45	4243
2026-01-07 11:32:48.04	261.88	22.40	-36.9	-38.4	17.4	0.00e+00	0	57	0	416284672	45	4249
2026-01-07 11:32:49.05	262.15	22.42	-36.9	-38.4	17.4	0.00e+00	0	56	0	419430400	45	4245
2026-01-07 11:32:50.06	262.42	22.44	-36.8	-38.3	17.4	0.00e+00	0	57	0	422576128	45	4220
2026-01-07 11:32:51.07	262.69	22.46	-36.9	-38.4	17.3	0.00e+00	0	56	0	425721856	45	4271
2026-01-07 11:32:52.08	262.96	22.48	-37.0	-38.5	17.2	0.00e+00	0	57	0	428867584	45	4339
2026-01-07 11:32:53.09	263.24	22.50	-37.2	-38.7	17.0	0.00e+00	0	56	0	432013312	45	4430
2026-01-07 11:32:54.10	263.51	22.52	-37.2	-38.8	17.0	0.00e+00	0	57	0	435159040	45	4450
2026-01-07 11:32:55.11	263.78	22.54	-37.1	-38.6	17.1	0.00e+00	0	57	0	438304768	45	4391
2026-01-07 11:32:56.12	264.05	22.55	-37.0	-38.5	17.2	0.00e+00	0	57	0	441450496	45	4339
2026-01-07 11:32:57.13	264.33	22.57	-36.9	-38.4	17.3	0.00e+00	0	57	0	444596224	45	4259
2026-01-07 11:32:58.14	264.60	22.59	-36.8	-38.3	17.4	0.00e+00	0	57	0	447741952	45	4207
2026-01-07 11:32:59.15	264.87	22.60	-36.8	-38.2	17.5	0.00e+00	0	57	0	450887680	45	4190
2026-01-07 11:33:00.16	265.15	22.61	-36.8	-38.2	17.5	0.00e+00	0	57	0	454033408	45	4167
2026-01-07 11:33:01.17	265.42	22.63	-36.7	-38.1	17.6	0.00e+00	0	56	0	457179136	45	4135
2026-01-07 11:33:02.18	265.70	22.64	-36.7	-38.1	17.5	0.00e+00	0	57	0	460324864	45	4142
2026-01-07 11:33:03.19	265.97	22.65	-36.8	-38.2	17.5	0.00e+00	0	57	0	463470592	45	4168
2026-01-07 11:33:04.20	266.24	22.66	-36.8	-38.2	17.5	0.00e+00	0	56	0	466616320	45	4174
2026-01-07 11:33:05.21	266.52	22.68	-36.8	-38.3	17.4	0.00e+00	0	57	0	469762048	45	4212
2026-01-07 11:33:06.23	266.80	22.69	-37.0	-38.4	17.3	0.00e+00	0	57	0	472907776	45	4290
2026-01-07 11:33:07.24	267.07	22.69	-37.1	-38.6	17.1	0.00e+00	0	57	0	476053504	45	4359
2026-01-07 11:33:08.25	267.35	22.70	-37.0	-38.5	17.1	0.00e+00	0	57	0	479199232	45	4335
2026-01-07 11:33:09.26	267.62	22.71	-37.0	-38.5	17.2	0.00e+00	0	57	0	482344960	45	4307
2026-01-07 11:33:10.27	267.90	22.72	-36.9	-38.4	17.3	0.00e+00	0	56	0	485490688	45	4248
2026-01-07 11:33:11.28	268.17	22.73	-36.9	-38.4	17.3	0.00e+00	0	56	0	488636416	45	4243
2026-01-07 11:33:12.29	268.45	22.73	-37.0	-38.5	17.2	0.00e+00	0	57	0	491782144	45	4301
2026-01-07 11:33:13.30	268.73	22.74	-37.0	-38.6	17.2	0.00e+00	0	57	0	494927872	45	4343
2026-01-07 11:33:14.31	269.00	22.74	-37.0	-38.5	17.2	0.00e+00	0	57	0	498073600	45	4305
2026-01-07 11:33:15.32	269.28	22.75	-37.0	-38.5	17.2	0.00e+00	0	57	0	501219328	45	4323
2026-01-07 11:33:16.33	269.55	22.75	-37.0	-38.5	17.2	0.00e+00	0	57	0	504365056	45	4317
2026-01-07 11:33:17.34	269.83	22.75	-37.0	-38.5	17.2	0.00e+00	0	57	0	507510784	45	4303
2026-01-07 11:33:18.35	270.11	22.76	-36.9	-38.4	17.3	0.00e+00	0	56	0	510656512	45	4286
2026-01-07 11:33:19.36	270.38	22.76	-36.9	-38.5	17.2	0.00e+00	0	56	0	513802240	45	4297
2026-01-07 11:33:20.37	270.66	22.76	-37.0	-38.5	17.3	0.00e+00	0	57	0	516947968	45	4298
2026-01-07 11:33:21.38	270.93	22.76	-37.0	-38.5	17.2	0.00e+00	0	57	0	520093696	45	4302
2026-01-07 11:33:22.39	271.21	22.76	-36.9	-38.4	17.3	0.00e+00	0	56	0	523239424	45	4271
2026-01-07 11:33:23.40	271.49	22.76	-36.8	-38.3	17.4	0.00e+00	0	56	0	526385152	45	4205
2026-01-07 11:33:24.41	271.76	22.75	-36.7	-38.2	17.5	0.00e+00	0	57	0	529530880	45	4152
2026-01-07 11:33:25.42	272.04	22.75	-36.7	-38.1	17.6	0.00e+00	0	57	0	532676608	45	4123
2026-01-07 11:33:26.43	272.31	22.75	-36.7	-38.2	17.5	0.00e+00	0	57	0	535822336	45	4150
2026-01-07 11:33:27.44	272.59	22.74	-36.8	-38.3	17.4	0.00e+00	0	56	0	538968064	45	4204
2026-01-07 11:33:28.45	272.87	22.74	-36.9	-38.4	17.3	0.00e+00	0	57	0	542113792	45	4264
2026-01-07 11:33:29.46	273.14	22.73	-36.9	-38.4	17.3	0.00e+00	0	57	0	545259520	45	4291
2026-01-07 11:33:30.47	273.42	22.73	-36.9	-38.4	17.3	0.00e+00	0	57	0	548405248	45	4287
2026-01-07 11:33:31.48	273.69	22.72	-36.9	-38.4	17.3	0.00e+00	0	56	0	551550976	45	4267
2026-01-07 11:33:32.49	273.97	22.71	-36.9	-38.4	17.2	0.00e+00	0	57	0	554696704	45	4291
2026-01-07 11:33:33.50	274.24	22.71	-37.0	-38.5	17.2	0.00e+00	0	57	0	557842432	45	4325
2026-01-07 11:33:34.51	274.52	22.70	-37.1	-38.6	17.2	0.00e+00	0	57	0	560988160	45	4360
2026-01-07 11:33:35.52	274.79	22.69	-37.1	-38.6	17.1	0.00e+00	0	57	0	564133888	45	4376
2026-01-07 11:33:36.53	275.07	22.68	-37.1	-38.6	17.1	0.00e+00	0	56	0	567279616	45	4383
2026-01-07 11:33:37.54	275.34	22.67	-37.1	-38.6	17.1	0.00e+00	0	57	0	570425344	45	4361
2026-01-07 11:33:38.55	275.62	22.66	-37.1	-38.6	17.1	0.00e+00	0	57	0	573571072	45	4365
2026-01-07 11:33:39.56	275.89	22.64	-37.0	-38.5	17.2	0.00e+00	0	57	0	576716800	45	4319
2026-01-07 11:33:40.57	276.17	22.63	-37.0	-38.4	17.2	0.00e+00	0	57	0	579862528	45	4288
2026-01-07 11:33:41.58	276.44	22.62	-37.0	-38.5	17.2	0.00e+00	0	57	0	583008256	45	4316
2026-01-07 11:33:42.59	276.71	22.60	-37.1	-38.7	17.1	0.00e+00	0	56	0	586153984	45	4401
2026-01-07 11:33:43.61	276.99	22.59	-37.1	-38.6	17.1	0.00e+00	0	57	0	589299712	45	4362
2026-01-07 11:33:44.62	277.26	22.57	-37.0	-38.5	17.2	0.00e+00	0	57	0	592445440	45	4310
2026-01-07 11:33:45.63	277.53	22.56	-36.9	-38.3	17.4	0.00e+00	0	56	0	595591168	45	4234
2026-01-07 11:33:46.64	277.81	22.54	-36.7	-38.1	17.5	0.00e+00	0	56	0	598736896	45	4132
2026-01-07 11:33:47.64	278.08	22.52	-36.7	-38.1	17.5	0.00e+00	0	57	0	601882624	45	4138
2026-01-07 11:33:48.65	278.35	22.51	-36.7	-38.1	17.6	0.00e+00	0	56	0	605028352	45	4126
2026-01-07 11:33:49.66	278.62	22.49	-36.7	-38.1	17.6	0.00e+00	0	56	0	608174080	45	4132
2026-01-07 11:33:50.67	278.89	22.47	-36.6	-38.1	17.6	0.00e+00	0	57	0	611319808	45	4110
2026-01-07 11:33:51.68	279.16	22.45	-36.6	-38.1	17.6	0.00e+00	0	56	0	614465536	45	4109
2026-01-07 11:33:52.69	279.43	22.43	-36.7	-38.1	17.5	0.00e+00	0	57	0	617611264	45	4131
2026-01-07 11:33:53.70	279.70	22.41	-36.7	-38.1	17.5	0.00e+00	0	57	0	620756992	45	4141
2026-01-07 11:33:54.71	279.97	22.39	-36.7	-38.2	17.5	0.00e+00	0	57	0	623902720	45	4167
2026-01-07 11:33:55.73	280.24	22.36	-36.8	-38.2	17.4	0.00e+00	0	57	0	627048448	45	4184
2026-01-07 11:33:56.74	280.51	22.34	-36.7	-38.2	17.5	0.00e+00	0	57	0	630194176	45	4150
2026-01-07 11:33:57.75	280.78	22.32	-36.7	-38.1	17.5	0.00e+00	0	57	0	633339904	45	4134
2026-01-07 11:33:58.75	281.05	22.29	-36.7	-38.1	17.6	0.00e+00	0	57	0	636485632	45	4120
2026-01-07 11:33:59.76	281.31	22.27	-36.6	-38.1	17.6	0.00e+00	0	56	0	639631360	45	4102
2026-01-07 11:34:00.78	281.58	22.24	-36.7	-38.2	17.5	0.00e+00	0	57	0	642777088	45	4152
2026-01-07 11:34:01.79	281.85	22.22	-36.7	-38.1	17.5	0.00e+00	0	56	0	645922816	45	4137
2026-01-07 11:34:02.80	282.12	22.19	-36.7	-38.2	17.5	0.00e+00	0	57	0	649068544	45	4167
2026-01-07 11:34:03.80	282.38	22.16	-36.7	-38.2	17.5	0.00e+00	0	56	0	652214272	45	4172
2026-01-07 11:34:04.81	282.65	22.14	-36.8	-38.2	17.4	0.00e+00	0	56	0	655360000	45	4193
2026-01-07 11:34:05.82	282.91	22.11	-36.8	-38.3	17.4	0.00e+00	0	57	0	658505728	45	4222
2026-01-07 11:34:06.83	283.18	22.08	-36.8	-38.3	17.4	0.00e+00	0	56	0	661651456	45	4227
2026-01-07 11:34:07.84	283.44	22.05	-36.9	-38.3	17.3	0.00e+00	0	56	0	664797184	45	4241
2026-01-07 11:34:08.85	283.70	22.02	-36.9	-38.4	17.3	0.00e+00	0	57	0	667942912	45	4246
2026-01-07 11:34:09.86	283.97	21.99	-36.9	-38.4	17.2	0.00e+00	0	56	0	671088640	45	4272
2026-01-07 11:34:10.87	284.23	21.96	-37.0	-38.5	17.2	0.00e+00	0	56	0	674234368	45	4316
2026-01-07 11:34:11.88	284.49	21.93	-37.0	-38.5	17.2	0.00e+00	0	57	0	677380096	45	4325
2026-01-07 11:34:12.89	284.75	21.89	-37.0	-38.5	17.2	0.00e+00	0	56	0	680525824	45	4305
2026-01-07 11:34:13.90	285.01	21.86	-36.9	-38.4	17.3	0.00e+00	0	57	0	683671552	45	4286
2026-01-07 11:34:14.91	285.27	21.83	-36.9	-38.4	17.3	0.00e+00	0	57	0	687865856	45	4247
2026-01-07 11:34:15.91	285.53	21.79	-36.9	-38.4	17.3	0.00e+00	0	56	0	691011584	45	4263
2026-01-07 11:34:16.92	285.79	21.76	-37.0	-38.5	17.1	0.00e+00	0	56	0	694157312	45	4312
2026-01-07 11:34:17.93	286.05	21.72	-36.9	-38.4	17.2	0.00e+00	0	57	0	696254464	45	4289
2026-01-07 11:34:18.94	286.31	21.69	-37.0	-38.5	17.2	0.00e+00	0	56	0	699400192	45	4318
2026-01-07 11:34:19.95	286.56	21.65	-36.9	-38.4	17.3	0.00e+00	0	57	0	703594496	45	4271
2026-01-07 11:34:20.96	286.82	21.62	-36.8	-38.3	17.3	0.00e+00	0	57	0	706740224	45	4220
2026-01-07 11:34:21.97	287.08	21.58	-36.8	-38.2	17.4	0.00e+00	0	56	0	709885952	45	4183
2026-01-07 11:34:22.98	287.33	21.54	-36.9	-38.4	17.3	0.00e+00	0	57	0	713031680	45	4248
2026-01-07 11:34:23.99	287.59	21.50	-36.9	-38.4	17.2	0.00e+00	0	56	0	716177408	45	4291
2026-01-07 11:34:25.00	287.84	21.46	-37.0	-38.5	17.1	0.00e+00	0	57	0	719323136	45	4325
2026-01-07 11:34:26.01	288.10	21.42	-37.0	-38.5	17.1	0.00e+00	0	56	0	722468864	45	4327
2026-01-07 11:34:27.03	288.35	21.38	-36.9	-38.5	17.2	0.00e+00	0	56	0	725614592	45	4295
2026-01-07 11:34:28.04	288.60	21.34	-36.8	-38.3	17.3	0.00e+00	0	56	0	728760320	45	4223
2026-01-07 11:34:29.05	288.86	21.30	-36.8	-38.3	17.4	0.00e+00	0	57	0	731906048	45	4198
2026-01-07 11:34:30.06	289.11	21.26	-36.8	-38.2	17.4	0.00e+00	0	56	0	735051776	45	4181
2026-01-07 11:34:31.07	289.36	21.22	-36.8	-38.2	17.4	0.00e+00	0	57	0	738197504	45	4188
2026-01-07 11:34:32.08	289.61	21.18	-36.8	-38.3	17.3	0.00e+00	0	57	0	741343232	45	4208
2026-01-07 11:34:33.09	289.86	21.14	-36.8	-38.3	17.3	0.00e+00	0	57	0	744488960	45	4225
2026-01-07 11:34:34.10	290.10	21.09	-36.9	-38.4	17.3	0.00e+00	0	57	0	747634688	45	4249
2026-01-07 11:34:35.11	290.35	21.05	-36.9	-38.3	17.3	0.00e+00	0	56	0	750780416	45	4242
2026-01-07 11:34:36.12	290.60	21.01	-36.9	-38.4	17.3	0.00e+00	0	56	0	753926144	45	4248
2026-01-07 11:34:37.13	290.85	20.96	-36.9	-38.4	17.2	0.00e+00	0	56	0	757071872	45	4285
2026-01-07 11:34:38.14	291.09	20.92	-36.9	-38.4	17.2	0.00e+00	0	56	0	760217600	45	4280
2026-01-07 11:34:39.15	291.34	20.87	-36.9	-38.4	17.2	0.00e+00	0	56	0	763363328	45	4277
2026-01-07 11:34:40.16	291.58	20.83	-36.9	-38.4	17.2	0.00e+00	0	57	0	766509056	45	4270
2026-01-07 11:34:41.17	291.82	20.78	-36.9	-38.4	17.3	0.00e+00	0	57	0	769654784	45	4245
2026-01-07 11:34:42.18	292.07	20.73	-36.8	-38.3	17.4	0.00e+00	0	56	0	772800512	45	4203
2026-01-07 11:34:43.19	292.31	20.69	-36.8	-38.2	17.4	0.00e+00	0	56	0	775946240	45	4191
2026-01-07 11:34:44.20	292.55	20.64	-36.8	-38.3	17.3	0.00e+00	0	57	0	779091968	45	4208
2026-01-07 11:34:45.21	292.79	20.59	-36.8	-38.3	17.3	0.00e+00	0	56	0	782237696	45	4226
2026-01-07 11:34:46.22	293.03	20.54	-36.9	-38.4	17.2	0.00e+00	0	56	0	785383424	45	4264
2026-01-07 11:34:47.23	293.27	20.49	-37.0	-38.5	17.1	0.00e+00	0	56	0	788529152	45	4313
2026-01-07 11:34:48.24	293.51	20.44	-37.0	-38.6	17.1	0.00e+00	0	57	0	791674880	45	4346
2026-01-07 11:34:49.25	293.75	20.39	-37.0	-38.5	17.1	0.00e+00	0	56	0	794820608	45	4332
2026-01-07 11:34:50.26	293.98	20.34	-37.0	-38.6	17.1	0.00e+00	0	56	0	797966336	45	4342
2026-01-07 11:34:51.27	294.22	20.29	-37.0	-38.5	17.1	0.00e+00	0	57	0	801112064	45	4317
2026-01-07 11:34:52.28	294.45	20.24	-36.9	-38.5	17.2	0.00e+00	0	56	0	804257792	45	4292
2026-01-07 11:34:53.29	294.69	20.19	-36.9	-38.4	17.2	0.00e+00	0	56	0	807403520	45	4290
2026-01-07 11:34:54.30	294.92	20.14	-37.0	-38.6	17.1	0.00e+00	0	57	0	810549248	45	4341
2026-01-07 11:34:55.32	295.16	20.09	-37.0	-38.5	17.1	0.00e+00	0	56	0	813694976	45	4312
2026-01-07 11:34:56.33	295.39	20.04	-36.9	-38.4	17.2	0.00e+00	0	56	0	816840704	45	4266
2026-01-07 11:34:57.34	295.62	19.99	-36.9	-38.4	17.3	0.00e+00	0	57	0	819986432	45	4244
2026-01-07 11:34:58.35	295.85	19.93	-36.9	-38.4	17.2	0.00e+00	0	56	0	823132160	45	4291
2026-01-07 11:34:59.36	296.08	19.88	-37.0	-38.5	17.1	0.00e+00	0	56	0	826277888	45	4338
2026-01-07 11:35:00.37	296.31	19.83	-36.9	-38.4	17.2	0.00e+00	0	56	0	829423616	45	4289
2026-01-07 11:35:01.38	296.54	19.77	-37.0	-38.5	17.1	0.00e+00	0	56	0	832569344	45	4325
2026-01-07 11:35:02.39	296.77	19.72	-37.0	-38.5	17.1	0.00e+00	0	57	0	835715072	45	4304
2026-01-07 11:35:03.40	296.99	19.66	-37.1	-38.6	17.0	0.00e+00	0	56	0	838860800	45	4372
2026-01-07 11:35:04.41	297.22	19.61	-37.1	-38.7	16.9	0.00e+00	0	57	0	842006528	45	4409
2026-01-07 11:35:05.42	297.44	19.55	-37.1	-38.6	17.0	0.00e+00	0	56	0	845152256	45	4375
2026-01-07 11:35:06.43	297.67	19.50	-37.0	-38.5	17.1	0.00e+00	0	57	0	848297984	45	4336
2026-01-07 11:35:07.44	297.89	19.44	-37.0	-38.5	17.1	0.00e+00	0	57	0	851443712	45	4325
2026-01-07 11:35:08.45	298.11	19.39	-37.1	-38.7	16.9	0.00e+00	0	56	0	854589440	45	4403
2026-01-07 11:35:09.47	298.34	19.33	-37.2	-38.8	16.8	0.00e+00	0	57	0	857735168	45	4470
2026-01-07 11:35:10.48	298.56	19.27	-37.3	-38.8	16.8	0.00e+00	0	57	0	860880896	45	4489
2026-01-07 11:35:11.49	298.78	19.22	-37.3	-38.9	16.8	0.00e+00	0	57	0	864026624	45	4499
2026-01-07 11:35:12.50	299.00	19.16	-37.3	-38.9	16.7	0.00e+00	0	56	0	867172352	45	4542
2026-01-07 11:35:13.51	299.22	19.10	-37.3	-38.9	16.7	0.00e+00	0	56	0	870318080	45	4507
2026-01-07 11:35:14.52	299.44	19.04	-37.2	-38.8	16.8	0.00e+00	0	57	0	873463808	45	4475
2026-01-07 11:35:15.53	299.65	18.99	-37.1	-38.7	16.9	0.00e+00	0	57	0	876609536	45	4405
2026-01-07 11:35:16.54	299.87	18.93	-37.1	-38.6	17.0	0.00e+00	0	57	0	879755264	45	4360
2026-01-07 11:35:17.55	300.09	18.87	-37.0	-38.5	17.1	0.00e+00	0	57	0	882900992	45	4321
2026-01-07 11:35:18.56	300.30	18.81	-37.0	-38.5	17.1	0.00e+00	0	57	0	886046720	45	4307
2026-01-07 11:35:19.57	300.51	18.75	-37.0	-38.5	17.0	0.00e+00	0	57	0	889192448	45	4335
2026-01-07 11:35:20.58	300.73	18.69	-37.0	-38.5	17.0	0.00e+00	0	57	0	892338176	45	4332
2026-01-07 11:35:21.59	300.94	18.63	-36.9	-38.4	17.1	0.00e+00	0	57	0	895483904	45	4290
2026-01-07 11:35:22.60	301.15	18.57	-36.9	-38.4	17.1	0.00e+00	0	57	0	898629632	45	4281
2026-01-07 11:35:23.61	301.36	18.52	-36.9	-38.4	17.1	0.00e+00	0	57	0	901775360	45	4289
2026-01-07 11:35:24.62	301.57	18.45	-37.0	-38.5	17.0	0.00e+00	0	57	0	904921088	45	4319
2026-01-07 11:35:25.63	301.78	18.39	-37.1	-38.6	16.9	0.00e+00	0	57	0	908066816	45	4391
2026-01-07 11:35:26.64	301.99	18.33	-37.2	-38.8	16.7	0.00e+00	0	57	0	911212544	45	4480
2026-01-07 11:35:27.65	302.20	18.27	-37.4	-39.0	16.6	0.00e+00	0	56	0	914358272	45	4553
2026-01-07 11:35:28.66	302.40	18.21	-37.3	-38.9	16.6	0.00e+00	0	57	0	917504000	45	4542
2026-01-07 11:35:29.68	302.61	18.15	-37.4	-39.0	16.6	0.00e+00	0	56	0	920649728	45	4574
2026-01-07 11:35:30.69	302.81	18.09	-37.4	-39.0	16.6	0.00e+00	0	56	0	923795456	45	4565
2026-01-07 11:35:31.70	303.02	18.03	-37.3	-38.9	16.7	0.00e+00	0	57	0	926941184	45	4496
2026-01-07 11:35:32.71	303.22	17.97	-37.2	-38.8	16.8	0.00e+00	0	57	0	930086912	45	4465
2026-01-07 11:35:33.72	303.42	17.90	-37.2	-38.8	16.7	0.00e+00	0	56	0	933232640	45	4482
2026-01-07 11:35:34.73	303.63	17.84	-37.2	-38.8	16.7	0.00e+00	0	57	0	936378368	45	4468
2026-01-07 11:35:35.74	303.83	17.78	-37.2	-38.8	16.8	0.00e+00	0	56	0	939524096	45	4456
2026-01-07 11:35:36.75	304.03	17.72	-37.2	-38.8	16.7	0.00e+00	0	57	0	942669824	45	4480
2026-01-07 11:35:37.76	304.23	17.65	-37.3	-38.8	16.7	0.00e+00	0	57	0	945815552	45	4493
2026-01-07 11:35:38.77	304.42	17.59	-37.3	-38.9	16.6	0.00e+00	0	57	0	948961280	45	4537
2026-01-07 11:35:39.78	304.62	17.53	-37.3	-39.0	16.6	0.00e+00	0	57	0	952107008	45	4546
2026-01-07 11:35:40.79	304.82	17.47	-37.5	-39.1	16.4	0.00e+00	0	56	0	955252736	45	4643
2026-01-07 11:35:41.80	305.01	17.40	-37.7	-39.4	16.2	0.00e+00	0	56	0	959447040	45	4783
2026-01-07 11:35:42.81	305.21	17.34	-37.8	-39.5	16.1	0.00e+00	0	56	0	961544192	46	4549
2026-01-07 11:35:43.82	305.40	17.28	-37.8	-39.6	16.0	0.00e+00	0	56	0	964689920	46	4610
2026-01-07 11:35:44.83	305.60	17.21	-37.8	-39.6	16.1	0.00e+00	0	57	0	967835648	46	4601
2026-01-07 11:35:45.84	305.79	17.15	-37.7	-39.4	16.2	0.00e+00	0	57	0	970981376	46	4528
2026-01-07 11:35:46.85	305.98	17.08	-37.7	-39.3	16.2	0.00e+00	0	57	0	974127104	46	4490
2026-01-07 11:35:47.85	306.17	17.02	-37.7	-39.4	16.2	0.00e+00	0	57	0	978321408	46	4525
2026-01-07 11:35:48.87	306.36	16.96	-37.5	-39.2	16.4	0.00e+00	0	56	0	981467136	46	4410
2026-01-07 11:35:49.88	306.55	16.89	-37.5	-39.2	16.4	0.00e+00	0	56	0	984612864	46	4401
2026-01-07 11:35:50.89	306.74	16.83	-37.5	-39.2	16.4	0.00e+00	0	57	0	986710016	46	4403
2026-01-07 11:35:51.89	306.93	16.76	-37.5	-39.2	16.4	0.00e+00	0	57	0	989855744	46	4407
2026-01-07 11:35:52.91	307.12	16.70	-37.6	-39.2	16.3	0.00e+00	0	57	0	994050048	46	4422
2026-01-07 11:35:53.92	307.30	16.63	-37.5	-39.2	16.4	0.00e+00	0	57	0	997195776	46	4408
2026-01-07 11:35:54.93	307.49	16.57	-37.6	-39.3	16.3	0.00e+00	0	57	0	1000341504	46	4442
2026-01-07 11:35:55.94	307.68	16.50	-37.7	-39.4	16.1	0.00e+00	0	57	0	1003487232	46	4538
2026-01-07 11:35:56.95	307.86	16.44	-37.8	-39.5	16.1	0.00e+00	0	56	0	1006632960	46	4559
2026-01-07 11:35:57.96	308.04	16.37	-37.8	-39.6	16.0	0.00e+00	0	56	0	1009778688	46	4609
2026-01-07 11:35:58.97	308.23	16.31	-37.9	-39.6	16.0	0.00e+00	0	57	0	1012924416	46	4631
2026-01-07 11:35:59.98	308.41	16.24	-37.9	-39.7	15.9	0.00e+00	0	56	0	1016070144	46	4663
2026-01-07 11:36:00.99	308.59	16.18	-37.9	-39.6	15.9	0.00e+00	0	56	0	1019215872	46	4631
2026-01-07 11:36:02.00	308.77	16.11	-37.8	-39.6	16.0	0.00e+00	0	57	0	1022361600	46	4614
2026-01-07 11:36:03.01	308.95	16.04	-37.9	-39.7	15.9	0.00e+00	0	56	0	1025507328	46	4657
2026-01-07 11:36:04.02	309.13	15.98	-37.8	-39.5	16.0	0.00e+00	0	56	0	1028653056	46	4571
2026-01-07 11:36:05.03	309.30	15.91	-37.8	-39.5	16.0	0.00e+00	0	57	0	1031798784	46	4584
2026-01-07 11:36:06.04	309.48	15.85	-37.9	-39.6	15.9	0.00e+00	0	57	0	1034944512	46	4638
2026-01-07 11:36:07.05	309.66	15.78	-37.8	-39.6	16.0	0.00e+00	0	57	0	1038090240	46	4617
2026-01-07 11:36:08.06	309.83	15.71	-37.9	-39.7	15.9	0.00e+00	0	57	0	1041235968	46	4656
2026-01-07 11:36:09.07	310.01	15.65	-37.9	-39.6	15.9	0.00e+00	0	57	0	1044381696	46	4645
2026-01-07 11:36:10.08	310.18	15.58	-37.9	-39.6	15.9	0.00e+00	0	57	0	1047527424	46	4645
2026-01-07 11:36:11.09	310.36	15.52	-37.8	-39.5	16.0	0.00e+00	0	57	0	1050673152	46	4574
2026-01-07 11:36:12.10	310.53	15.45	-37.8	-39.5	16.0	0.00e+00	0	57	0	1053818880	46	4577
2026-01-07 11:36:13.11	310.70	15.38	-37.8	-39.6	16.0	0.00e+00	0	57	0	1056964608	46	4614
2026-01-07 11:36:14.12	310.87	15.32	-37.8	-39.5	16.1	0.00e+00	0	56	0	1060110336	46	4566
2026-01-07 11:36:15.13	311.04	15.25	-37.8	-39.5	16.0	0.00e+00	0	57	0	1063256064	46	4563
2026-01-07 11:36:16.14	311.21	15.18	-37.9	-39.7	15.8	7.00e-07	0	57	0	1066401792	46	4683
2026-01-07 11:36:17.15	311.38	15.12	-37.9	-39.6	15.9	0.00e+00	0	57	0	1069547520	46	4623
2026-01-07 11:36:18.17	311.55	15.05	-37.9	-39.6	15.9	0.00e+00	0	56	0	1072693248	46	4639
2026-01-07 11:36:19.17	311.72	14.98	-37.8	-39.5	16.0	0.00e+00	0	57	0	1075838976	46	4583
2026-01-07 11:36:20.18	311.88	14.92	-37.8	-39.5	16.0	0.00e+00	0	56	0	1078984704	46	4568
2026-01-07 11:36:21.19	312.05	14.85	-37.8	-39.6	16.0	0.00e+00	0	57	0	1082130432	46	4603
2026-01-07 11:36:22.20	312.21	14.78	-37.8	-39.5	16.0	0.00e+00	0	57	0	1085276160	46	4594
2026-01-07 11:36:23.21	312.38	14.72	-37.8	-39.5	16.0	0.00e+00	0	56	0	1088421888	46	4571
2026-01-07 11:36:24.22	312.54	14.65	-37.8	-39.5	16.0	0.00e+00	0	57	0	1091567616	46	4572
2026-01-07 11:36:25.23	312.71	14.58	-37.8	-39.5	16.0	0.00e+00	0	57	0	1094713344	46	4585
2026-01-07 11:36:26.24	312.87	14.51	-37.9	-39.7	15.9	0.00e+00	0	56	0	1097859072	46	4655
2026-01-07 11:36:27.25	313.03	14.45	-37.8	-39.6	16.0	0.00e+00	0	57	0	1101004800	46	4605
2026-01-07 11:36:28.26	313.19	14.38	-37.8	-39.5	16.0	0.00e+00	0	57	0	1104150528	46	4586
2026-01-07 11:36:29.27	313.35	14.31	-37.8	-39.5	16.0	0.00e+00	0	57	0	1107296256	46	4581
2026-01-07 11:36:30.28	313.51	14.25	-37.9	-39.7	15.9	0.00e+00	0	57	0	1110441984	46	4658
2026-01-07 11:36:31.29	313.67	14.18	-38.0	-39.8	15.7	0.00e+00	0	56	0	1113587712	46	4732
2026-01-07 11:36:32.30	313.83	14.11	-37.8	-39.6	15.9	0.00e+00	0	57	0	1116733440	46	4623
2026-01-07 11:36:33.31	313.98	14.05	-37.7	-39.4	16.1	0.00e+00	0	57	0	1119879168	46	4517
2026-01-07 11:36:34.33	314.14	13.98	-37.7	-39.4	16.1	0.00e+00	0	57	0	1123024896	46	4523
2026-01-07 11:36:35.34	314.30	13.91	-37.8	-39.5	16.0	0.00e+00	0	57	0	1126170624	46	4564
2026-01-07 11:36:36.35	314.45	13.84	-37.7	-39.4	16.1	0.00e+00	0	57	0	1129316352	46	4529
2026-01-07 11:36:37.36	314.61	13.78	-37.7	-39.4	16.1	0.00e+00	0	57	0	1132462080	46	4517
2026-01-07 11:36:38.37	314.76	13.71	-37.7	-39.4	16.1	0.00e+00	0	57	0	1135607808	46	4504
2026-01-07 11:36:39.38	314.92	13.64	-37.7	-39.5	16.0	0.00e+00	0	57	0	1138753536	46	4547
2026-01-07 11:36:40.39	315.07	13.58	-37.7	-39.4	16.1	0.00e+00	0	57	0	1141899264	46	4530
2026-01-07 11:36:41.40	315.22	13.51	-37.8	-39.5	16.0	0.00e+00	0	57	0	1145044992	46	4574
2026-01-07 11:36:42.41	315.37	13.44	-37.8	-39.6	15.9	0.00e+00	0	57	0	1148190720	46	4600
2026-01-07 11:36:43.42	315.52	13.37	-37.9	-39.7	15.8	0.00e+00	0	57	0	1151336448	46	4662
2026-01-07 11:36:44.43	315.67	13.31	-37.9	-39.7	15.8	0.00e+00	0	57	0	1154482176	46	4678
2026-01-07 11:36:45.44	315.82	13.24	-38.0	-39.8	15.7	0.00e+00	0	56	0	1157627904	46	4731
2026-01-07 11:36:46.45	315.97	13.17	-38.0	-39.8	15.6	0.00e+00	0	57	0	1160773632	46	4748
2026-01-07 11:36:47.46	316.12	13.11	-38.0	-39.8	15.7	0.00e+00	0	57	0	1163919360	46	4729
2026-01-07 11:36:48.47	316.27	13.04	-38.0	-39.8	15.7	0.00e+00	0	57	0	1167065088	46	4733
2026-01-07 11:36:49.47	316.41	12.97	-38.0	-39.8	15.6	0.00e+00	0	57	0	1170210816	46	4733
2026-01-07 11:36:50.48	316.56	12.91	-38.0	-39.8	15.6	0.00e+00	0	57	0	1173356544	46	4744
2026-01-07 11:36:51.49	316.70	12.84	-38.0	-39.8	15.6	0.00e+00	0	57	0	1176502272	46	4754
2026-01-07 11:36:52.50	316.85	12.77	-38.2	-40.0	15.4	0.00e+00	0	56	0	1179648000	46	4855
2026-01-07 11:36:53.51	316.99	12.70	-38.1	-40.0	15.5	0.00e+00	0	57	0	1182793728	46	4819
2026-01-07 11:36:54.52	317.14	12.64	-38.1	-39.9	15.5	0.00e+00	0	57	0	1185939456	46	4797
2026-01-07 11:36:55.53	317.28	12.57	-38.2	-40.1	15.4	0.00e+00	0	57	0	1189085184	46	4873
2026-01-07 11:36:56.55	317.42	12.50	-38.2	-40.0	15.4	0.00e+00	0	56	0	1192230912	46	4864
2026-01-07 11:36:57.55	317.56	12.44	-38.2	-40.1	15.3	0.00e+00	0	57	0	1195376640	47	4641
2026-01-07 11:36:58.56	317.70	12.37	-38.3	-40.2	15.2	0.00e+00	0	56	0	1198522368	47	4699
2026-01-07 11:36:59.57	317.84	12.30	-38.4	-40.3	15.1	0.00e+00	0	57	0	1201668096	47	4732
2026-01-07 11:37:00.58	317.98	12.24	-38.5	-40.4	15.0	0.00e+00	0	57	0	1204813824	47	4796
2026-01-07 11:37:01.59	318.12	12.17	-38.5	-40.5	14.9	0.00e+00	0	57	0	1207959552	47	4855
2026-01-07 11:37:02.60	318.26	12.10	-38.4	-40.4	15.0	0.00e+00	0	57	0	1211105280	47	4788
2026-01-07 11:37:03.61	318.40	12.04	-38.5	-40.4	15.0	0.00e+00	0	56	0	1214251008	47	4811
2026-01-07 11:37:04.62	318.54	11.97	-38.3	-40.3	15.1	0.00e+00	0	56	0	1217396736	47	4720
2026-01-07 11:37:05.63	318.67	11.90	-38.4	-40.3	15.1	0.00e+00	0	56	0	1220542464	47	4753
2026-01-07 11:37:06.64	318.81	11.84	-38.3	-40.2	15.2	0.00e+00	0	57	0	1223688192	47	4696
2026-01-07 11:37:07.65	318.95	11.77	-38.4	-40.3	15.1	0.00e+00	0	57	0	1226833920	47	4725
2026-01-07 11:37:08.65	319.08	11.70	-38.4	-40.3	15.1	0.00e+00	0	57	0	1229979648	47	4743
2026-01-07 11:37:09.66	319.21	11.64	-38.4	-40.4	15.0	0.00e+00	0	56	0	1233125376	47	4767
2026-01-07 11:37:10.67	319.35	11.57	-38.4	-40.3	15.0	7.00e-07	0	57	0	1236271104	47	4747
2026-01-07 11:37:11.68	319.48	11.51	-38.5	-40.5	14.9	7.00e-07	0	56	0	1239416832	47	4825
2026-01-07 11:37:12.69	319.61	11.44	-38.4	-40.3	15.0	0.00e+00	0	57	0	1242562560	47	4752
2026-01-07 11:37:13.70	319.75	11.37	-38.2	-40.2	15.2	0.00e+00	0	57	0	1245708288	47	4653
2026-01-07 11:37:14.71	319.88	11.31	-38.3	-40.3	15.1	0.00e+00	0	56	0	1248854016	47	4719
2026-01-07 11:37:15.72	320.01	11.24	-38.4	-40.3	15.1	0.00e+00	0	57	0	1251999744	47	4728
2026-01-07 11:37:16.73	320.14	11.17	-38.4	-40.4	15.0	0.00e+00	0	57	0	1255145472	47	4779
2026-01-07 11:37:17.74	320.27	11.11	-38.4	-40.4	14.9	7.00e-07	0	57	0	1258291200	47	4786
2026-01-07 11:37:18.75	320.40	11.04	-38.5	-40.5	14.8	0.00e+00	0	57	0	1261436928	47	4824
2026-01-07 11:37:19.76	320.53	10.98	-38.5	-40.5	14.8	0.00e+00	0	57	0	1264582656	47	4854
2026-01-07 11:37:20.78	320.66	10.91	-38.6	-40.7	14.6	0.00e+00	0	56	0	1267728384	47	4945
2026-01-07 11:37:21.78	320.78	10.85	-38.7	-40.8	14.5	0.00e+00	0	57	0	1270874112	47	5006
2026-01-07 11:37:22.79	320.91	10.78	-38.8	-40.9	14.5	0.00e+00	0	57	0	1275068416	48	4778
2026-01-07 11:37:23.81	321.04	10.71	-38.7	-40.8	14.6	1.50e-06	0	57	0	1277165568	48	4721
2026-01-07 11:37:24.82	321.16	10.65	-38.8	-40.8	14.6	0.00e+00	0	57	0	1280311296	48	4751
2026-01-07 11:37:25.83	321.29	10.58	-38.8	-40.8	14.6	7.00e-07	0	57	0	1283457024	48	4738
2026-01-07 11:37:26.84	321.41	10.52	-38.9	-41.0	14.4	0.00e+00	0	57	0	1287651328	48	4841
2026-01-07 11:37:27.85	321.54	10.45	-38.8	-40.9	14.5	0.00e+00	0	57	0	1290797056	48	4763
2026-01-07 11:37:28.86	321.66	10.39	-38.7	-40.7	14.6	0.00e+00	0	56	0	1293942784	48	4705
2026-01-07 11:37:29.87	321.79	10.32	-38.7	-40.7	14.7	1.50e-06	0	57	0	1297088512	48	4664
2026-01-07 11:37:30.88	321.91	10.25	-38.7	-40.7	14.6	7.00e-07	0	57	0	1300234240	48	4688
2026-01-07 11:37:31.89	322.03	10.19	-38.7	-40.8	14.6	0.00e+00	0	56	0	1302331392	48	4723
2026-01-07 11:37:32.90	322.15	10.12	-38.9	-41.0	14.4	7.00e-07	0	56	0	1306525696	48	4832
2026-01-07 11:37:33.90	322.27	10.06	-38.8	-40.9	14.4	7.00e-07	0	57	0	1309671424	48	4809
2026-01-07 11:37:34.92	322.39	9.99	-39.0	-41.1	14.2	3.00e-06	0	57	0	1312817152	48	4894
2026-01-07 11:37:35.93	322.51	9.93	-39.0	-41.2	14.2	7.00e-07	0	57	0	1315962880	48	4941
2026-01-07 11:37:36.94	322.63	9.86	-39.0	-41.2	14.2	7.00e-07	0	57	0	1319108608	48	4939
2026-01-07 11:37:37.95	322.75	9.80	-39.0	-41.2	14.2	1.50e-06	0	56	0	1322254336	48	4942
2026-01-07 11:37:38.96	322.87	9.73	-39.0	-41.1	14.2	0.00e+00	0	57	0	1325400064	48	4909
2026-01-07 11:37:39.97	322.99	9.67	-38.8	-40.9	14.4	0.00e+00	0	57	0	1328545792	48	4781
2026-01-07 11:37:40.98	323.11	9.61	-38.8	-40.9	14.4	0.00e+00	0	57	0	1331691520	48	4799
2026-01-07 11:37:41.98	323.22	9.54	-38.7	-40.8	14.5	0.00e+00	0	57	0	1334837248	48	4728
2026-01-07 11:37:42.99	323.34	9.48	-38.7	-40.8	14.5	1.50e-06	0	57	0	1337982976	48	4740
2026-01-07 11:37:44.00	323.46	9.41	-38.8	-40.8	14.4	2.20e-06	0	56	0	1341128704	48	4756
2026-01-07 11:37:45.02	323.57	9.35	-38.8	-40.9	14.4	7.00e-07	0	57	0	1344274432	48	4786
2026-01-07 11:37:46.03	323.69	9.28	-38.9	-41.0	14.2	1.50e-06	0	57	0	1347420160	48	4850
2026-01-07 11:37:47.04	323.80	9.22	-38.8	-40.9	14.3	7.00e-07	0	57	0	1350565888	48	4805
2026-01-07 11:37:48.05	323.92	9.15	-38.8	-41.0	14.3	7.00e-07	0	57	0	1353711616	48	4823
2026-01-07 11:37:49.06	324.03	9.09	-39.0	-41.1	14.1	7.00e-07	0	57	0	1356857344	48	4925
2026-01-07 11:37:50.07	324.14	9.03	-39.0	-41.1	14.1	7.00e-07	0	57	0	1360003072	48	4920
2026-01-07 11:37:51.08	324.26	8.96	-39.0	-41.2	14.0	4.50e-06	0	57	0	1363148800	48	4952
2026-01-07 11:37:52.09	324.37	8.90	-39.0	-41.2	14.0	2.20e-06	0	57	0	1366294528	48	4967
2026-01-07 11:37:53.10	324.48	8.83	-39.0	-41.3	14.0	2.20e-06	0	57	0	1369440256	48	4993
2026-01-07 11:37:54.11	324.59	8.77	-39.0	-41.2	14.0	4.50e-06	0	57	0	1372585984	48	4979
2026-01-07 11:37:55.12	324.70	8.71	-39.2	-41.4	13.7	4.50e-06	0	57	0	1375731712	48	5092
2026-01-07 11:37:56.13	324.81	8.64	-39.2	-41.5	13.6	3.00e-06	0	57	0	1378877440	48	5147
2026-01-07 11:37:57.14	324.92	8.58	-39.2	-41.6	13.6	5.30e-06	0	57	0	1382023168	49	4876
2026-01-07 11:37:58.15	325.03	8.52	-39.3	-41.6	13.5	8.30e-06	0	57	0	1385168896	49	4910
2026-01-07 11:37:59.16	325.14	8.45	-39.1	-41.4	13.7	7.60e-06	0	57	0	1388314624	49	4785
2026-01-07 11:38:00.17	325.25	8.39	-39.0	-41.3	13.9	3.00e-06	0	57	0	1391460352	49	4706
2026-01-07 11:38:01.18	325.36	8.33	-39.1	-41.3	13.8	3.00e-06	0	57	0	1394606080	49	4758
2026-01-07 11:38:02.19	325.47	8.26	-39.2	-41.5	13.6	5.30e-06	0	57	0	1397751808	49	4816
2026-01-07 11:38:03.20	325.57	8.20	-39.1	-41.4	13.7	9.10e-06	0	56	0	1400897536	49	4803
2026-01-07 11:38:04.21	325.68	8.14	-38.9	-41.1	14.0	3.80e-06	0	57	0	1404043264	49	4645
2026-01-07 11:38:05.22	325.79	8.07	-39.0	-41.2	13.9	2.20e-06	0	57	0	1407188992	49	4692
2026-01-07 11:38:06.23	325.89	8.01	-39.0	-41.2	13.9	4.50e-06	0	57	0	1410334720	49	4685
2026-01-07 11:38:07.24	326.00	7.95	-44.4	-56.6	3.8	1.49e+00	0	57	104	1411383296	59	15539
2026-01-07 11:38:08.25	326.10	7.89	-44.6	-56.9	3.8	1.49e+00	0	57	104	1411383296	59	16100
2026-01-07 11:38:09.26	326.21	7.82	-44.7	-57.2	3.8	1.49e+00	0	57	104	1411383296	60	15708
2026-01-07 11:38:10.27	326.31	7.76	-44.9	-57.4	3.8	1.49e+00	0	57	104	1411383296	60	15981
2026-01-07 11:38:11.28	326.41	7.70	-45.0	-57.5	3.8	1.49e+00	0	57	104	1411383296	60	16274
2026-01-07 11:38:12.29	326.52	7.64	-45.1	-57.6	3.8	1.49e+00	0	57	104	1411383296	60	16387
2026-01-07 11:38:13.30	326.62	7.57	-45.1	-57.7	3.8	1.49e+00	0	57	104	1411383296	60	16534
2026-01-07 11:38:14.31	326.72	7.51	-45.1	-57.7	3.8	1.49e+00	0	57	104	1411383296	60	16574
2026-01-07 11:38:15.32	326.83	7.45	-44.8	-57.7	3.8	1.49e+00	0	57	104	1411383296	60	16509
2026-01-07 11:38:16.33	326.93	7.39	-45.1	-57.7	3.8	1.49e+00	0	57	104	1411383296	60	16569
2026-01-07 11:38:17.35	327.03	7.32	-45.1	-57.6	3.8	1.49e+00	0	57	104	1411383296	60	16475
2026-01-07 11:38:18.36	327.13	7.26	-44.7	-57.7	3.8	1.49e+00	0	57	104	1411383296	60	16555
2026-01-07 11:38:19.37	327.23	7.20	-45.1	-57.6	3.8	1.49e+00	0	57	104	1411383296	60	16471
2026-01-07 11:38:20.38	327.33	7.14	-45.1	-57.7	3.8	1.49e+00	0	57	104	1411383296	60	16619
2026-01-07 11:38:21.39	327.43	7.08	-45.1	-57.6	3.8	1.49e+00	0	57	104	1411383296	60	16480
2026-01-07 11:38:22.40	327.53	7.02	-45.1	-57.6	3.8	1.49e+00	0	57	104	1411383296	60	16498
2026-01-07 11:38:23.41	327.63	6.95	-45.1	-57.6	3.8	1.49e+00	0	57	104	1411383296	60	16436
2026-01-07 11:38:24.42	327.73	6.89	-45.1	-57.6	3.8	1.49e+00	0	57	104	1411383296	60	16470
2026-01-07 11:38:25.43	327.82	6.83	-45.1	-57.6	3.8	1.49e+00	0	57	104	1411383296	60	16424
2026-01-07 11:38:26.44	327.92	6.77	-45.1	-57.6	3.8	1.49e+00	0	57	104	1411383296	60	16461
2026-01-07 11:38:27.45	328.02	6.71	-45.1	-57.6	3.8	1.49e+00	0	57	104	1411383296	60	16405
2026-01-07 11:38:28.46	328.12	6.65	-45.1	-57.6	3.8	1.49e+00	0	57	104	1411383296	60	16419
2026-01-07 11:38:29.47	328.21	6.59	-45.1	-57.6	3.8	1.49e+00	0	57	104	1411383296	60	16492
2026-01-07 11:38:30.48	328.31	6.53	-45.0	-57.6	3.8	1.49e+00	0	57	104	1411383296	60	16438
2026-01-07 11:38:31.49	328.40	6.47	-45.0	-57.6	3.8	1.49e+00	0	57	104	1411383296	60	16409
2026-01-07 11:38:32.51	328.50	6.40	-45.0	-57.6	3.8	1.49e+00	0	57	104	1411383296	60	16395
2026-01-07 11:38:33.52	328.60	6.34	-45.0	-57.6	3.8	1.49e+00	0	57	104	1411383296	60	16443
2026-01-07 11:38:34.53	328.69	6.28	-45.0	-57.6	3.8	1.49e+00	0	57	104	1411383296	60	16375
2026-01-07 11:38:35.54	328.78	6.22	-45.0	-57.6	3.8	1.49e+00	0	57	104	1411383296	60	16421
2026-01-07 11:38:36.55	328.88	6.16	-45.0	-57.6	3.8	1.49e+00	0	57	104	1411383296	60	16439
2026-01-07 11:38:37.56	328.97	6.10	-45.0	-57.6	3.8	1.49e+00	0	57	104	1411383296	60	16446
2026-01-07 11:38:38.57	329.06	6.04	-45.0	-57.6	3.8	1.49e+00	0	57	104	1411383296	60	16399
2026-01-07 11:38:39.58	329.16	5.98	-45.0	-57.6	3.8	1.49e+00	0	57	104	1411383296	60	16411
2026-01-07 11:38:40.60	329.25	5.92	-45.0	-57.6	3.8	1.49e+00	0	57	104	1411383296	60	16449
2026-01-07 11:38:41.61	329.34	5.86	-45.0	-57.6	3.8	1.49e+00	0	57	104	1411383296	60	16392
2026-01-07 11:38:42.62	329.43	5.80	-45.0	-57.6	3.8	1.49e+00	0	57	104	1411383296	60	16388
2026-01-07 11:38:43.63	329.53	5.74	-45.0	-57.6	3.8	1.49e+00	0	57	104	1411383296	60	16391
2026-01-07 11:38:44.64	329.62	5.68	-45.0	-57.6	3.8	1.49e+00	0	57	104	1411383296	60	16397
2026-01-07 11:38:45.65	329.71	5.62	-45.0	-57.6	3.8	1.49e+00	0	57	104	1411383296	60	16377
2026-01-07 11:38:46.66	329.80	5.56	-45.0	-57.6	3.8	1.49e+00	0	57	104	1411383296	60	16442
2026-01-07 11:38:47.68	329.89	5.50	-45.0	-57.6	3.8	1.49e+00	0	57	104	1411383296	60	16367
2026-01-07 11:38:48.69	329.98	5.44	-45.0	-57.6	3.8	1.49e+00	0	57	104	1411383296	60	16355
2026-01-07 11:38:49.70	330.07	5.38	-45.0	-57.6	3.8	1.49e+00	0	57	104	1411383296	60	16370
2026-01-07 11:38:50.71	330.16	5.32	-45.0	-57.6	3.8	1.49e+00	0	57	104	1411383296	60	16399
2026-01-07 11:38:51.72	330.24	5.26	-45.0	-57.6	3.8	1.49e+00	0	57	104	1411383296	60	16390
2026-01-07 11:38:52.73	330.33	5.20	-45.0	-57.6	3.8	1.49e+00	0	57	104	1411383296	60	16421
2026-01-07 11:38:53.74	330.42	5.14	-45.0	-57.6	3.8	1.49e+00	0	57	104	1411383296	60	16376
2026-01-07 11:38:54.75	330.51	5.08	-45.0	-57.6	3.8	1.49e+00	0	57	104	1411383296	60	16357
2026-01-07 11:38:55.76	330.59	5.03	-45.0	-57.6	3.8	1.49e+00	0	57	104	1411383296	60	16374
2026-01-07 11:38:56.78	330.68	4.97	-45.0	-57.6	3.8	1.49e+00	0	57	104	1411383296	60	16395
2026-01-07 11:38:57.79	330.77	4.91	-45.0	-57.6	3.8	1.49e+00	0	57	104	1411383296	60	16400
2026-01-07 11:38:58.80	330.86	4.85	-45.0	-57.6	3.8	1.49e+00	0	57	104	1411383296	60	16395
2026-01-07 11:38:59.81	330.94	4.79	-45.0	-57.6	3.8	1.49e+00	0	57	104	1411383296	60	16400
2026-01-07 11:39:00.82	331.03	4.73	-45.0	-57.6	3.8	1.49e+00	0	57	104	1411383296	60	16389
2026-01-07 11:39:01.83	331.11	4.67	-45.0	-57.6	3.8	1.49e+00	0	57	104	1411383296	60	16389
2026-01-07 11:39:02.84	331.20	4.61	-45.0	-57.6	3.8	1.49e+00	0	57	104	1411383296	60	16355
2026-01-07 11:39:03.85	331.28	4.56	-45.0	-57.6	3.8	1.49e+00	0	57	104	1411383296	60	16370
2026-01-07 11:39:04.86	331.37	4.50	-45.0	-57.6	3.8	1.49e+00	0	57	104	1411383296	60	16389
2026-01-07 11:39:05.87	331.45	4.44	-45.0	-57.6	3.8	1.49e+00	0	57	104	1411383296	60	16366
2026-01-07 11:39:06.88	331.53	4.38	-45.0	-57.6	3.8	1.49e+00	0	57	104	1411383296	60	16328
2026-01-07 11:39:07.90	331.62	4.32	-45.0	-57.6	3.8	1.49e+00	0	57	104	1411383296	60	16347
2026-01-07 11:39:08.91	331.70	4.27	-45.0	-57.6	3.8	1.49e+00	0	57	104	1411383296	60	16372
2026-01-07 11:39:09.92	331.78	4.21	-45.0	-57.6	3.8	1.49e+00	0	57	104	1411383296	60	16354
2026-01-07 11:39:10.93	331.87	4.15	-45.0	-57.6	3.8	1.49e+00	0	57	104	1411383296	60	16384
2026-01-07 11:39:11.94	331.95	4.09	-45.0	-57.5	3.8	1.49e+00	0	57	104	1411383296	60	16307
2026-01-07 11:39:12.95	332.03	4.03	-45.0	-57.6	3.8	1.49e+00	0	57	104	1411383296	60	16328
2026-01-07 11:39:13.96	332.11	3.98	-45.0	-57.6	3.8	1.49e+00	0	57	104	1411383296	60	16356
2026-01-07 11:39:14.97	332.19	3.92	-45.0	-57.6	3.8	1.49e+00	0	57	104	1411383296	60	16349
2026-01-07 11:39:15.98	332.27	3.86	-45.0	-57.6	3.8	1.49e+00	0	57	104	1411383296	60	16350
2026-01-07 11:39:16.99	332.35	3.80	-44.9	-57.6	3.8	1.49e+00	0	57	104	1411383296	60	16353
2026-01-07 11:39:18.00	332.43	3.75	-45.0	-57.6	3.8	1.49e+00	0	57	104	1411383296	60	16399
2026-01-07 11:39:19.01	332.51	3.69	-45.0	-57.6	3.8	1.49e+00	0	57	104	1411383296	60	16351
2026-01-07 11:39:20.03	332.59	3.63	-45.0	-57.6	3.8	1.49e+00	0	57	104	1411383296	60	16348
2026-01-07 11:39:21.04	332.67	3.58	-45.0	-57.6	3.8	1.49e+00	0	57	104	1411383296	60	16333
2026-01-07 11:39:22.05	332.75	3.52	-44.9	-57.6	3.8	1.49e+00	0	57	104	1411383296	60	16321
2026-01-07 11:39:23.06	332.83	3.46	-45.0	-57.5	3.8	1.49e+00	0	57	104	1411383296	60	16291
2026-01-07 11:39:24.07	332.91	3.40	-45.0	-57.6	3.8	1.49e+00	0	57	104	1411383296	60	16322
2026-01-07 11:39:25.08	332.99	3.35	-45.0	-57.6	3.8	1.49e+00	0	57	104	1411383296	60	16388
2026-01-07 11:39:26.09	333.07	3.29	-45.0	-57.6	3.8	1.49e+00	0	57	104	1411383296	60	16375
2026-01-07 11:39:27.10	333.14	3.23	-45.0	-57.6	3.8	1.49e+00	0	57	104	1411383296	60	16362
2026-01-07 11:39:28.11	333.22	3.18	-45.0	-57.6	3.8	1.49e+00	0	57	104	1411383296	60	16373
2026-01-07 11:39:29.12	333.30	3.12	-45.0	-57.6	3.8	1.49e+00	0	57	104	1411383296	60	16378
2026-01-07 11:39:30.14	333.38	3.06	-44.9	-57.6	3.8	1.49e+00	0	57	104	1411383296	60	16336
2026-01-07 11:39:31.15	333.45	3.01	-45.0	-57.6	3.8	1.49e+00	0	57	104	1411383296	60	16363
2026-01-07 11:39:32.16	333.53	2.95	-45.0	-57.5	3.8	1.49e+00	0	57	104	1411383296	60	16303
2026-01-07 11:39:33.17	333.60	2.90	-45.0	-57.6	3.8	1.49e+00	0	57	104	1411383296	60	16352
2026-01-07 11:39:34.18	333.68	2.84	-45.0	-57.6	3.8	1.49e+00	0	57	104	1411383296	60	16345
2026-01-07 11:39:35.19	333.76	2.78	-45.0	-57.6	3.8	1.49e+00	0	57	104	1411383296	60	16392
2026-01-07 11:39:36.20	333.83	2.73	-45.0	-57.6	3.8	1.49e+00	0	57	104	1411383296	60	16388
2026-01-07 11:39:37.21	333.91	2.67	-45.0	-57.6	3.8	1.49e+00	0	57	104	1411383296	60	16350
2026-01-07 11:39:38.22	333.98	2.62	-45.0	-57.6	3.8	1.49e+00	0	57	104	1411383296	60	16336
2026-01-07 11:39:39.23	334.05	2.56	-45.0	-57.6	3.8	1.49e+00	0	57	104	1411383296	60	16350
2026-01-07 11:39:40.24	334.13	2.51	-45.0	-57.6	3.8	1.49e+00	0	57	104	1411383296	60	16368
2026-01-07 11:39:41.26	334.20	2.45	-45.0	-57.6	3.8	1.49e+00	0	57	104	1411383296	60	16352
2026-01-07 11:39:42.27	334.28	2.39	-45.0	-57.6	3.8	1.49e+00	0	57	104	1411383296	60	16356
2026-01-07 11:39:43.28	334.35	2.34	-45.0	-57.6	3.8	1.49e+00	0	57	104	1411383296	60	16321
2026-01-07 11:39:44.29	334.42	2.28	-45.0	-57.6	3.8	1.49e+00	0	57	104	1411383296	60	16372
2026-01-07 11:39:45.30	334.50	2.23	-44.9	-57.5	3.8	1.49e+00	0	57	104	1411383296	60	16284
2026-01-07 11:39:46.31	334.57	2.17	-45.0	-57.6	3.8	1.49e+00	0	57	104	1411383296	60	16341
2026-01-07 11:39:47.32	334.64	2.12	-45.0	-57.6	3.8	1.49e+00	0	57	104	1411383296	60	16345
2026-01-07 11:39:48.33	334.71	2.06	-45.0	-57.5	3.8	1.49e+00	0	57	104	1411383296	60	16314
2026-01-07 11:39:49.34	334.79	2.01	-45.0	-57.6	3.8	1.49e+00	0	57	104	1411383296	60	16319
2026-01-07 11:39:50.35	334.86	1.95	-45.0	-57.6	3.8	1.49e+00	0	57	104	1411383296	60	16328

#Closed at: 2026-01-07 11:39:51
#Recorded file [1411 MB]: D:/lorett/data/31039_260107_142949.dat