passes_logs/2026/01/07/R2.0S_Moscow/R2.0S_Moscow__20260107_033706_FENGYUN_3G_rec.log

#Pass ID: 20260107_033706_FENGYUN 3G
#Satellite: FENGYUN 3G
#Configuration: FENGYUN 3G
#almurnet v.1.7.20251203
#Start time: 2026-01-07 03:37:07

#Version: 2.2.20231116
#Station: R2.0S_Moscow
#Location: 37.707566 lon 55.798166 lat
#TLE: 1 56232U 23055A   26005.65670112  .00041871  00000+0  66206-3 0  9997
#TLE: 2 56232  49.9942 104.1198 0004242 344.1257  15.9577 15.52986726154745

#Time	Az	El	Level	Level2	SNR	BER	BlckErr	Temp	State	Recorded	gain1	gain2
2026-01-07 03:37:07.34	260.04	2.08	-44.0	-62.4	3.8	8.46e-01	0	48	0	0	60	28419
2026-01-07 03:37:08.34	259.97	2.14	-44.0	-62.3	3.8	8.44e-01	0	48	104	0	60	28037
2026-01-07 03:37:09.35	259.90	2.21	-44.0	-62.2	3.8	8.46e-01	0	48	104	0	60	27963
2026-01-07 03:37:10.36	259.83	2.27	-44.0	-62.2	3.8	8.47e-01	0	48	104	0	60	27884
2026-01-07 03:37:11.37	259.76	2.34	-44.1	-62.1	3.8	8.47e-01	0	48	104	0	59	29291
2026-01-07 03:37:12.38	259.69	2.41	-44.1	-62.1	3.8	8.46e-01	0	48	104	0	59	29078
2026-01-07 03:37:13.39	259.62	2.47	-44.1	-62.1	3.8	8.45e-01	0	48	104	0	59	29136
2026-01-07 03:37:14.40	259.55	2.54	-44.1	-62.0	3.8	8.45e-01	0	48	104	0	59	28809
2026-01-07 03:37:15.41	259.48	2.61	-44.1	-62.0	3.8	8.46e-01	0	48	104	0	59	28787
2026-01-07 03:37:16.42	259.40	2.67	-44.1	-62.1	3.8	8.47e-01	0	49	104	0	59	29145
2026-01-07 03:37:17.44	259.33	2.74	-44.1	-62.1	3.8	8.47e-01	0	48	104	0	59	29228
2026-01-07 03:37:18.45	259.26	2.81	-44.1	-62.2	3.8	8.46e-01	0	48	104	0	59	29373
2026-01-07 03:37:19.46	259.18	2.88	-44.1	-62.3	3.8	8.46e-01	0	49	104	0	59	29699
2026-01-07 03:37:20.47	259.11	2.94	-44.1	-62.3	3.8	8.46e-01	0	48	104	0	59	29879
2026-01-07 03:37:21.48	259.03	3.01	-44.1	-62.3	3.8	8.46e-01	0	49	104	0	59	29909
2026-01-07 03:37:22.49	258.96	3.08	-44.1	-62.3	3.8	8.46e-01	0	49	104	0	59	29943
2026-01-07 03:37:23.50	258.88	3.15	-44.1	-62.3	3.8	8.46e-01	0	49	104	0	59	30002
2026-01-07 03:37:24.51	258.80	3.22	-44.1	-62.3	3.8	8.46e-01	0	49	104	0	59	29987
2026-01-07 03:37:25.52	258.73	3.29	-44.1	-62.3	3.8	8.46e-01	0	49	104	0	59	30025
2026-01-07 03:37:26.54	258.65	3.36	-44.1	-62.4	3.8	8.46e-01	0	49	104	0	59	30089
2026-01-07 03:37:27.55	258.57	3.43	-44.1	-62.4	3.8	8.46e-01	0	49	104	0	59	30139
2026-01-07 03:37:28.56	258.49	3.50	-44.1	-62.4	3.8	8.46e-01	0	49	104	0	59	30103
2026-01-07 03:37:29.57	258.41	3.57	-44.1	-62.4	3.8	8.47e-01	0	49	104	0	59	30216
2026-01-07 03:37:30.58	258.33	3.64	-44.1	-62.4	3.8	8.47e-01	0	49	104	0	59	30258
2026-01-07 03:37:31.59	258.25	3.71	-44.1	-62.4	3.8	8.46e-01	0	49	104	0	59	30205
2026-01-07 03:37:32.60	258.17	3.78	-44.1	-62.4	3.8	8.47e-01	0	49	104	0	59	30157
2026-01-07 03:37:33.61	258.09	3.85	-44.1	-62.4	3.8	8.46e-01	0	49	104	0	59	30261
2026-01-07 03:37:34.62	258.01	3.92	-44.1	-62.4	3.8	8.46e-01	0	49	104	0	59	30163
2026-01-07 03:37:35.63	257.93	3.99	-44.1	-62.4	3.8	8.46e-01	0	50	104	0	59	30033
2026-01-07 03:37:36.64	257.84	4.06	-44.1	-62.4	3.8	8.46e-01	0	50	104	0	59	30084
2026-01-07 03:37:37.65	257.76	4.13	-44.1	-62.4	3.8	8.46e-01	0	50	104	0	59	30097
2026-01-07 03:37:38.66	257.67	4.21	-44.1	-62.4	3.8	8.46e-01	0	50	104	0	59	30147
2026-01-07 03:37:39.67	257.59	4.28	-44.1	-62.4	3.8	8.45e-01	0	50	104	0	59	30115
2026-01-07 03:37:40.68	257.50	4.35	-44.1	-62.4	3.8	8.45e-01	0	50	104	0	59	30177
2026-01-07 03:37:41.70	257.42	4.42	-44.1	-62.4	3.8	8.46e-01	0	50	104	0	59	30065
2026-01-07 03:37:42.71	257.33	4.50	-44.1	-62.3	3.8	8.47e-01	0	50	104	0	59	29960
2026-01-07 03:37:43.72	257.24	4.57	-44.1	-62.2	3.8	8.47e-01	0	50	104	0	59	29611
2026-01-07 03:37:44.73	257.15	4.64	-44.1	-62.2	3.8	8.46e-01	0	50	104	0	59	29430
2026-01-07 03:37:45.74	257.07	4.72	-44.0	-62.1	3.8	8.46e-01	0	50	104	0	59	29089
2026-01-07 03:37:46.75	256.98	4.79	-44.0	-62.0	3.8	8.47e-01	0	50	104	0	59	28975
2026-01-07 03:37:47.76	256.89	4.87	-44.0	-62.0	3.8	8.47e-01	0	50	104	0	59	28769
2026-01-07 03:37:48.77	256.80	4.94	-44.0	-62.0	3.8	8.46e-01	0	51	104	0	59	28852
2026-01-07 03:37:49.78	256.70	5.02	-44.1	-61.9	3.8	8.45e-01	0	50	104	0	59	28496
2026-01-07 03:37:50.79	256.61	5.09	-44.0	-61.8	3.8	8.45e-01	0	50	104	0	59	28145
2026-01-07 03:37:51.80	256.52	5.17	-44.0	-61.6	3.8	8.46e-01	0	50	104	0	59	27558
2026-01-07 03:37:52.81	256.43	5.24	-44.0	-61.5	3.8	8.47e-01	0	51	104	0	59	27197
2026-01-07 03:37:53.82	256.33	5.32	-44.0	-61.3	3.8	8.47e-01	0	51	104	0	59	26597
2026-01-07 03:37:54.83	256.24	5.39	-44.0	-60.8	3.8	8.46e-01	0	51	104	0	59	25054
2026-01-07 03:37:55.84	256.14	5.47	-44.0	-60.3	3.8	8.45e-01	0	51	104	0	59	23665
2026-01-07 03:37:56.85	256.04	5.55	-44.0	-59.6	4.0	8.45e-01	0	51	104	0	59	21890
2026-01-07 03:37:57.86	255.95	5.62	-44.0	-59.2	4.1	8.44e-01	0	51	0	0	59	20950
2026-01-07 03:37:58.87	255.85	5.70	-43.9	-58.9	4.2	8.41e-01	0	51	0	0	59	20232
2026-01-07 03:37:59.88	255.75	5.78	-43.9	-59.0	4.1	8.39e-01	0	51	0	0	59	20439
2026-01-07 03:38:00.90	255.65	5.86	-43.9	-58.8	4.2	8.39e-01	0	51	0	0	59	20014
2026-01-07 03:38:01.91	255.55	5.94	-43.9	-59.0	4.1	8.37e-01	0	51	0	0	59	20527
2026-01-07 03:38:02.92	255.45	6.02	-43.9	-59.0	4.2	8.39e-01	0	51	0	0	59	20498
2026-01-07 03:38:03.93	255.35	6.09	-43.9	-59.0	4.1	8.39e-01	0	51	0	0	59	20478
2026-01-07 03:38:04.94	255.24	6.17	-43.9	-59.1	4.1	8.39e-01	0	51	0	0	59	20564
2026-01-07 03:38:05.95	255.14	6.25	-43.9	-58.9	4.2	8.38e-01	0	51	0	0	59	20140
2026-01-07 03:38:06.96	255.04	6.33	-43.9	-58.9	4.2	8.38e-01	0	51	0	0	59	20109
2026-01-07 03:38:07.97	254.93	6.41	-43.9	-58.6	4.2	8.38e-01	0	51	0	0	59	19576
2026-01-07 03:38:08.99	254.83	6.49	-43.9	-57.8	4.5	8.35e-01	0	52	0	0	59	17699
2026-01-07 03:38:10.00	254.72	6.57	-43.9	-57.2	4.8	8.35e-01	0	51	0	0	59	16523
2026-01-07 03:38:11.01	254.61	6.65	-43.8	-56.5	5.1	8.13e-01	0	51	0	0	59	15243
2026-01-07 03:38:12.02	254.50	6.74	-43.8	-56.1	5.4	7.62e-01	0	51	0	0	59	14604
2026-01-07 03:38:13.03	254.39	6.82	-43.7	-55.6	5.7	6.55e-01	0	51	0	524288	59	13805
2026-01-07 03:38:14.04	254.28	6.90	-43.7	-55.5	5.9	6.55e-01	0	52	0	1572864	59	13631
2026-01-07 03:38:15.05	254.17	6.98	-43.8	-56.2	5.4	4.07e-01	0	51	0	2097152	59	14810
2026-01-07 03:38:16.06	254.06	7.06	-43.8	-57.2	4.8	6.66e-01	0	52	0	2621440	59	16512
2026-01-07 03:38:17.07	253.95	7.15	-43.9	-59.2	4.1	6.66e-01	0	52	0	2621440	59	20889
2026-01-07 03:38:18.09	253.83	7.23	-44.0	-60.6	3.8	8.21e-01	0	52	104	2621440	59	24693
2026-01-07 03:38:19.10	253.72	7.31	-43.9	-58.5	4.2	8.45e-01	0	52	0	2621440	59	19263
2026-01-07 03:38:20.11	253.60	7.40	-43.6	-54.7	6.3	8.45e-01	0	52	0	2621440	59	12505
2026-01-07 03:38:21.12	253.49	7.48	-43.2	-51.3	9.7	6.62e-01	0	52	0	3670016	58	8936
2026-01-07 03:38:22.13	253.37	7.57	-42.5	-48.7	12.4	4.97e-02	0	52	0	4718592	57	6973
2026-01-07 03:38:23.14	253.25	7.65	-41.6	-46.4	14.7	1.67e-04	0	52	0	6291456	55	6008
2026-01-07 03:38:24.15	253.13	7.74	-40.9	-44.9	16.2	1.67e-04	0	52	0	7340032	53	5720
2026-01-07 03:38:25.16	253.01	7.82	-40.4	-43.9	17.2	0.00e+00	0	52	0	8388608	52	5385
2026-01-07 03:38:26.17	252.89	7.91	-39.8	-42.8	18.4	0.00e+00	0	52	0	9437184	51	5037
2026-01-07 03:38:27.18	252.77	7.99	-39.4	-42.3	18.9	0.00e+00	0	52	0	10485760	50	5038
2026-01-07 03:38:28.19	252.65	8.08	-39.5	-42.4	18.9	0.00e+00	0	52	0	11534336	50	5074
2026-01-07 03:38:29.20	252.52	8.17	-40.2	-43.5	17.6	0.00e+00	0	52	0	13107200	51	5451
2026-01-07 03:38:30.21	252.40	8.25	-40.0	-43.3	17.8	0.00e+00	0	52	0	14155776	52	4995
2026-01-07 03:38:31.22	252.27	8.34	-43.3	-52.3	8.5	0.00e+00	0	52	0	15204352	57	10549
2026-01-07 03:38:32.23	252.14	8.43	-40.9	-44.7	15.9	3.26e-02	0	52	0	16252928	53	5574
2026-01-07 03:38:33.24	252.01	8.52	-40.5	-44.2	16.8	3.26e-02	0	52	0	17301504	52	5544
2026-01-07 03:38:34.25	251.89	8.61	-38.7	-41.2	19.9	0.00e+00	0	52	0	18350080	49	4701
2026-01-07 03:38:35.26	251.75	8.70	-38.5	-41.0	20.3	0.00e+00	0	52	0	19922944	49	4580
2026-01-07 03:38:36.27	251.62	8.78	-38.7	-41.3	20.0	0.00e+00	0	52	0	20971520	49	4734
2026-01-07 03:38:37.28	251.49	8.87	-38.7	-41.2	20.1	0.00e+00	0	52	0	22020096	49	4696
2026-01-07 03:38:38.29	251.36	8.96	-38.8	-41.4	20.0	0.00e+00	0	53	0	23068672	49	4764
2026-01-07 03:38:39.30	251.22	9.06	-38.6	-41.1	20.2	0.00e+00	0	53	0	24117248	49	4634
2026-01-07 03:38:40.31	251.08	9.15	-38.7	-41.3	20.0	0.00e+00	0	52	0	25165824	49	4739
2026-01-07 03:38:41.32	250.95	9.24	-38.3	-40.7	20.6	0.00e+00	0	53	0	26738688	48	4692
2026-01-07 03:38:42.33	250.81	9.33	-38.7	-41.2	20.2	0.00e+00	0	53	0	27787264	48	4932
2026-01-07 03:38:43.34	250.67	9.42	-38.5	-40.9	20.4	0.00e+00	0	53	0	28835840	48	4808
2026-01-07 03:38:44.35	250.53	9.51	-38.4	-40.8	20.6	0.00e+00	0	53	0	29884416	48	4727
2026-01-07 03:38:45.36	250.39	9.61	-38.5	-40.9	20.5	0.00e+00	0	53	0	30932992	48	4792
2026-01-07 03:38:46.37	250.24	9.70	-38.3	-40.7	20.7	0.00e+00	0	53	0	31981568	48	4682
2026-01-07 03:38:47.38	250.10	9.79	-38.5	-40.9	20.5	0.00e+00	0	53	0	33554432	48	4782
2026-01-07 03:38:48.39	249.95	9.89	-38.4	-40.8	20.6	0.00e+00	0	53	0	34603008	48	4734
2026-01-07 03:38:49.40	249.80	9.98	-38.4	-40.8	20.6	0.00e+00	0	53	0	35651584	48	4738
2026-01-07 03:38:50.41	249.65	10.08	-38.3	-40.7	20.7	0.00e+00	0	53	0	36700160	48	4693
2026-01-07 03:38:51.41	249.51	10.17	-38.2	-40.5	21.0	0.00e+00	0	53	0	37748736	48	4565
2026-01-07 03:38:52.42	249.35	10.26	-37.9	-40.2	21.2	0.00e+00	0	53	0	38797312	47	4669
2026-01-07 03:38:53.43	249.20	10.36	-37.8	-40.0	21.4	0.00e+00	0	53	0	40370176	47	4546
2026-01-07 03:38:54.44	249.05	10.46	-37.5	-39.6	21.8	0.00e+00	0	53	0	41418752	47	4389
2026-01-07 03:38:55.45	248.89	10.55	-37.6	-39.8	21.7	0.00e+00	0	53	0	42467328	46	4723
2026-01-07 03:38:56.46	248.74	10.65	-37.5	-39.7	21.8	0.00e+00	0	53	0	43515904	46	4666
2026-01-07 03:38:57.47	248.58	10.75	-37.6	-39.8	21.7	0.00e+00	0	53	0	44564480	46	4716
2026-01-07 03:38:58.48	248.42	10.85	-37.7	-39.9	21.5	0.00e+00	0	53	0	45613056	46	4797
2026-01-07 03:38:59.49	248.26	10.94	-37.9	-40.1	21.4	0.00e+00	0	53	0	47185920	46	4902
2026-01-07 03:39:00.50	248.09	11.04	-37.8	-40.1	21.4	0.00e+00	0	53	0	48234496	46	4884
2026-01-07 03:39:01.51	247.93	11.14	-37.8	-40.0	21.5	0.00e+00	0	53	0	49283072	46	4839
2026-01-07 03:39:02.52	247.77	11.24	-37.8	-40.0	21.5	0.00e+00	0	53	0	50331648	46	4862
2026-01-07 03:39:03.53	247.60	11.34	-37.6	-39.7	21.8	0.00e+00	0	53	0	51380224	46	4684
2026-01-07 03:39:04.54	247.43	11.44	-37.4	-39.4	22.0	0.00e+00	0	53	0	52428800	46	4541
2026-01-07 03:39:05.55	247.26	11.54	-37.3	-39.4	22.1	0.00e+00	0	53	0	54001664	46	4507
2026-01-07 03:39:06.56	247.09	11.64	-37.0	-39.0	22.5	0.00e+00	0	53	0	55050240	46	4313
2026-01-07 03:39:07.57	246.91	11.75	-37.1	-39.0	22.5	0.00e+00	0	53	0	56098816	46	4339
2026-01-07 03:39:08.58	246.74	11.85	-37.2	-39.3	22.3	0.00e+00	0	53	0	57147392	46	4449
2026-01-07 03:39:09.59	246.56	11.95	-37.2	-39.2	22.3	0.00e+00	0	53	0	58195968	46	4436
2026-01-07 03:39:10.59	246.39	12.05	-37.1	-39.0	22.4	0.00e+00	0	53	0	59244544	46	4338
2026-01-07 03:39:11.60	246.21	12.16	-37.4	-39.5	22.0	0.00e+00	0	53	0	60817408	46	4563
2026-01-07 03:39:12.62	246.02	12.26	-37.4	-39.4	22.1	0.00e+00	0	53	0	61865984	46	4538
2026-01-07 03:39:13.62	245.84	12.36	-37.3	-39.3	22.2	0.00e+00	0	53	0	62914560	46	4490
2026-01-07 03:39:14.63	245.66	12.47	-37.2	-39.2	22.3	0.00e+00	0	54	0	63963136	46	4427
2026-01-07 03:39:15.64	245.47	12.57	-37.2	-39.2	22.3	0.00e+00	0	53	0	65011712	46	4438
2026-01-07 03:39:16.66	245.28	12.68	-37.1	-39.1	22.4	0.00e+00	0	53	0	66060288	46	4383
2026-01-07 03:39:17.67	245.09	12.79	-36.9	-38.8	22.7	0.00e+00	0	53	0	67633152	45	4486
2026-01-07 03:39:18.68	244.90	12.89	-37.1	-39.1	22.5	0.00e+00	0	53	0	68681728	45	4620
2026-01-07 03:39:19.69	244.70	13.00	-37.3	-39.3	22.2	0.00e+00	0	53	0	69730304	45	4739
2026-01-07 03:39:20.70	244.51	13.11	-37.4	-39.4	22.2	0.00e+00	0	53	0	70778880	45	4809
2026-01-07 03:39:21.71	244.31	13.21	-37.5	-39.7	22.0	0.00e+00	0	53	0	71827456	45	4930
2026-01-07 03:39:22.72	244.11	13.32	-37.4	-39.5	22.1	0.00e+00	0	54	0	72876032	45	4829
2026-01-07 03:39:23.73	243.91	13.43	-37.4	-39.5	22.1	0.00e+00	0	54	0	74448896	45	4818
2026-01-07 03:39:24.74	243.71	13.54	-37.2	-39.1	22.4	0.00e+00	0	54	0	75497472	45	4649
2026-01-07 03:39:25.74	243.50	13.65	-37.1	-39.1	22.6	0.00e+00	0	54	0	76546048	45	4602
2026-01-07 03:39:26.76	243.30	13.76	-36.8	-38.7	22.9	0.00e+00	0	54	0	77594624	45	4433
2026-01-07 03:39:27.77	243.09	13.87	-36.8	-38.8	22.8	0.00e+00	0	54	0	78643200	45	4446
2026-01-07 03:39:28.78	242.88	13.98	-36.7	-38.5	23.0	0.00e+00	0	54	0	79691776	45	4339
2026-01-07 03:39:29.79	242.66	14.09	-36.5	-38.4	23.3	0.00e+00	0	54	0	81264640	45	4245
2026-01-07 03:39:30.80	242.45	14.20	-36.8	-38.7	22.9	0.00e+00	0	54	0	82313216	45	4430
2026-01-07 03:39:31.81	242.23	14.31	-36.4	-38.2	23.4	0.00e+00	0	54	0	83361792	44	4424
2026-01-07 03:39:32.82	242.01	14.43	-36.7	-38.6	23.0	0.00e+00	0	54	0	84410368	44	4634
2026-01-07 03:39:33.83	241.79	14.54	-36.4	-38.2	23.5	0.00e+00	0	54	0	85458944	44	4399
2026-01-07 03:39:34.84	241.56	14.65	-36.2	-37.9	23.7	0.00e+00	0	54	0	86507520	44	4289
2026-01-07 03:39:35.85	241.34	14.76	-36.2	-38.0	23.6	0.00e+00	0	54	0	88080384	44	4316
2026-01-07 03:39:36.86	241.11	14.88	-36.3	-38.1	23.6	0.00e+00	0	54	0	89128960	44	4341
2026-01-07 03:39:37.86	240.88	14.99	-36.5	-38.3	23.3	0.00e+00	0	54	0	90177536	44	4486
2026-01-07 03:39:38.87	240.65	15.11	-36.5	-38.4	23.3	0.00e+00	0	54	0	91226112	44	4514
2026-01-07 03:39:39.88	240.41	15.22	-36.8	-38.7	23.0	0.00e+00	0	54	0	92274688	44	4691
2026-01-07 03:39:40.89	240.18	15.34	-36.5	-38.3	23.4	0.00e+00	0	54	0	93323264	44	4482
2026-01-07 03:39:41.90	239.94	15.45	-36.5	-38.3	23.3	0.00e+00	0	54	0	94896128	44	4488
2026-01-07 03:39:42.91	239.69	15.57	-36.2	-38.0	23.7	0.00e+00	0	54	0	95944704	44	4292
2026-01-07 03:39:43.92	239.45	15.68	-36.2	-38.0	23.7	0.00e+00	0	54	0	96993280	44	4305
2026-01-07 03:39:44.93	239.20	15.80	-36.1	-37.9	23.8	0.00e+00	0	54	0	98041856	44	4272
2026-01-07 03:39:45.94	238.95	15.92	-36.1	-37.9	23.8	0.00e+00	0	54	0	99090432	44	4260
2026-01-07 03:39:46.95	238.70	16.04	-36.1	-37.8	23.9	0.00e+00	0	54	0	100139008	44	4226
2026-01-07 03:39:47.96	238.45	16.15	-35.7	-37.4	23.9	0.00e+00	0	54	0	101711872	43	4278
2026-01-07 03:39:48.97	238.19	16.27	-35.5	-37.2	24.2	0.00e+00	0	54	0	102760448	43	4163
2026-01-07 03:39:49.98	237.93	16.39	-35.4	-37.1	24.4	0.00e+00	0	54	0	103809024	42	4344
2026-01-07 03:39:50.99	237.67	16.51	-35.4	-37.0	24.5	0.00e+00	0	54	0	104857600	42	4336
2026-01-07 03:39:52.00	237.40	16.63	-35.5	-37.1	24.4	0.00e+00	0	54	0	105906176	42	4374
2026-01-07 03:39:53.01	237.14	16.75	-35.6	-37.3	24.3	0.00e+00	0	54	0	106954752	42	4449
2026-01-07 03:39:54.02	236.87	16.87	-35.6	-37.3	24.2	0.00e+00	0	54	0	108527616	42	4481
2026-01-07 03:39:55.03	236.59	16.99	-35.7	-37.4	24.2	0.00e+00	0	54	0	109576192	42	4523
2026-01-07 03:39:56.04	236.32	17.11	-35.8	-37.5	24.1	0.00e+00	0	54	0	110624768	42	4585
2026-01-07 03:39:57.05	236.04	17.23	-35.5	-37.2	24.4	0.00e+00	0	54	0	111673344	42	4400
2026-01-07 03:39:58.06	235.76	17.35	-35.6	-37.3	24.3	0.00e+00	0	54	0	112721920	42	4444
2026-01-07 03:39:59.07	235.47	17.47	-35.2	-36.8	24.7	0.00e+00	0	54	0	113770496	42	4222
2026-01-07 03:40:00.08	235.19	17.59	-35.1	-36.7	24.8	0.00e+00	0	54	0	115343360	42	4157
2026-01-07 03:40:01.09	234.90	17.71	-35.1	-36.7	24.9	0.00e+00	0	54	0	116391936	42	4164
2026-01-07 03:40:02.10	234.61	17.84	-35.1	-36.8	24.8	0.00e+00	0	54	0	117440512	42	4196
2026-01-07 03:40:03.10	234.31	17.96	-34.9	-36.4	25.1	0.00e+00	0	54	0	118489088	41	4291
2026-01-07 03:40:04.11	234.02	18.08	-34.9	-36.5	25.1	0.00e+00	0	54	0	119537664	41	4306
2026-01-07 03:40:05.12	233.71	18.20	-34.9	-36.5	25.1	0.00e+00	0	54	0	120586240	41	4298
2026-01-07 03:40:06.13	233.41	18.32	-35.0	-36.6	24.9	0.00e+00	0	54	0	122159104	41	4373
2026-01-07 03:40:07.14	233.10	18.45	-34.9	-36.5	25.0	0.00e+00	0	54	0	123207680	41	4329
2026-01-07 03:40:08.15	232.79	18.57	-34.9	-36.5	25.0	0.00e+00	0	55	0	124256256	41	4330
2026-01-07 03:40:09.16	232.48	18.69	-34.8	-36.4	25.1	0.00e+00	0	55	0	125304832	41	4268
2026-01-07 03:40:10.17	232.16	18.81	-34.7	-36.3	25.3	0.00e+00	0	54	0	126353408	41	4200
2026-01-07 03:40:11.18	231.84	18.94	-34.8	-36.3	25.2	0.00e+00	0	54	0	127401984	41	4238
2026-01-07 03:40:12.19	231.52	19.06	-34.8	-36.3	25.3	0.00e+00	0	54	0	128974848	41	4221
2026-01-07 03:40:13.20	231.19	19.18	-35.0	-36.6	24.9	0.00e+00	0	55	0	130023424	41	4376
2026-01-07 03:40:14.21	230.86	19.31	-34.8	-36.3	25.2	0.00e+00	0	55	0	131072000	41	4242
2026-01-07 03:40:15.22	230.53	19.43	-34.7	-36.2	25.3	0.00e+00	0	55	0	132120576	41	4193
2026-01-07 03:40:16.23	230.19	19.55	-34.5	-36.0	25.5	0.00e+00	0	55	0	133169152	40	4293
2026-01-07 03:40:17.24	229.86	19.68	-34.7	-36.3	25.3	0.00e+00	0	54	0	134217728	40	4453
2026-01-07 03:40:18.25	229.51	19.80	-34.9	-36.5	25.2	0.00e+00	0	55	0	135790592	40	4557
2026-01-07 03:40:19.26	229.17	19.92	-35.0	-36.6	25.0	0.00e+00	0	55	0	136839168	40	4603
2026-01-07 03:40:20.27	228.82	20.04	-34.8	-36.3	25.3	0.00e+00	0	55	0	137887744	40	4469
2026-01-07 03:40:21.28	228.47	20.17	-34.6	-36.1	25.4	0.00e+00	0	55	0	138936320	40	4381
2026-01-07 03:40:22.29	228.11	20.29	-34.5	-36.0	25.6	0.00e+00	0	54	0	139984896	40	4333
2026-01-07 03:40:23.30	227.75	20.41	-34.6	-36.1	25.5	0.00e+00	0	55	0	141033472	40	4367
2026-01-07 03:40:24.31	227.39	20.53	-34.7	-36.2	25.4	0.00e+00	0	54	0	142606336	40	4423
2026-01-07 03:40:25.32	227.02	20.66	-34.8	-36.3	25.3	0.00e+00	0	55	0	143654912	40	4468
2026-01-07 03:40:26.33	226.65	20.78	-34.8	-36.4	25.2	0.00e+00	0	55	0	144703488	40	4506
2026-01-07 03:40:27.34	226.28	20.90	-34.8	-36.4	25.2	0.00e+00	0	54	0	145752064	40	4528
2026-01-07 03:40:28.35	225.90	21.02	-34.6	-36.2	25.4	0.00e+00	0	55	0	146800640	40	4401
2026-01-07 03:40:29.36	225.52	21.14	-34.6	-36.1	25.5	0.00e+00	0	55	0	147849216	40	4371
2026-01-07 03:40:30.37	225.14	21.26	-34.6	-36.1	25.5	0.00e+00	0	55	0	149422080	40	4359
2026-01-07 03:40:31.38	224.75	21.38	-34.6	-36.1	25.5	0.00e+00	0	55	0	150470656	40	4351
2026-01-07 03:40:32.38	224.36	21.50	-34.3	-35.8	25.8	0.00e+00	0	55	0	151519232	40	4215
2026-01-07 03:40:33.39	223.96	21.62	-34.1	-35.6	25.9	0.00e+00	0	55	0	152567808	40	4128
2026-01-07 03:40:34.40	223.57	21.74	-34.3	-35.8	25.8	0.00e+00	0	55	0	153616384	40	4200
2026-01-07 03:40:35.42	223.16	21.86	-34.4	-35.9	25.7	0.00e+00	0	54	0	154664960	40	4283
2026-01-07 03:40:36.43	222.75	21.97	-34.5	-36.1	25.6	0.00e+00	0	55	0	156237824	40	4348
2026-01-07 03:40:37.44	222.34	22.09	-34.5	-36.1	25.6	0.00e+00	0	55	0	157286400	40	4352
2026-01-07 03:40:38.45	221.93	22.21	-34.6	-36.2	25.5	0.00e+00	0	55	0	158334976	40	4394
2026-01-07 03:40:39.46	221.51	22.32	-34.5	-36.1	25.6	0.00e+00	0	55	0	159383552	40	4343
2026-01-07 03:40:40.47	221.09	22.44	-34.4	-35.9	25.7	0.00e+00	0	55	0	160432128	40	4270
2026-01-07 03:40:41.48	220.67	22.55	-34.5	-36.0	25.6	0.00e+00	0	55	0	161480704	40	4314
2026-01-07 03:40:42.49	220.24	22.67	-34.3	-35.8	25.8	0.00e+00	0	55	0	163053568	40	4213
2026-01-07 03:40:43.50	219.81	22.78	-34.3	-35.8	25.8	0.00e+00	0	55	0	164102144	40	4242
2026-01-07 03:40:44.51	219.38	22.89	-34.3	-35.8	25.9	0.00e+00	0	55	0	165150720	40	4202
2026-01-07 03:40:45.52	218.94	23.00	-34.1	-35.6	26.0	0.00e+00	0	55	0	166199296	40	4102
2026-01-07 03:40:46.53	218.49	23.11	-34.0	-35.4	26.3	0.00e+00	0	55	0	167247872	39	4291
2026-01-07 03:40:47.54	218.05	23.22	-34.0	-35.4	26.3	0.00e+00	0	55	0	168820736	39	4278
2026-01-07 03:40:48.55	217.60	23.33	-34.0	-35.5	26.2	0.00e+00	0	55	0	169869312	39	4292
2026-01-07 03:40:49.56	217.14	23.43	-34.0	-35.5	26.1	0.00e+00	0	55	0	170917888	39	4292
2026-01-07 03:40:50.57	216.69	23.54	-34.0	-35.4	26.3	0.00e+00	0	55	0	171966464	39	4270
2026-01-07 03:40:51.58	216.23	23.64	-34.0	-35.5	26.2	0.00e+00	0	55	0	173015040	39	4305
2026-01-07 03:40:52.59	215.76	23.75	-34.2	-35.7	26.0	0.00e+00	0	55	0	174063616	39	4406
2026-01-07 03:40:53.60	215.30	23.85	-34.0	-35.5	26.2	0.00e+00	0	55	0	175112192	39	4303
2026-01-07 03:40:54.61	214.82	23.95	-34.0	-35.4	26.3	0.00e+00	0	55	0	176685056	39	4277
2026-01-07 03:40:55.62	214.35	24.05	-34.1	-35.6	26.1	0.00e+00	0	55	0	177733632	39	4348
2026-01-07 03:40:56.63	213.87	24.15	-33.9	-35.4	26.3	0.00e+00	0	55	0	178782208	39	4252
2026-01-07 03:40:57.64	213.39	24.24	-33.7	-35.1	26.5	0.00e+00	0	55	0	179830784	39	4133
2026-01-07 03:40:58.65	212.90	24.34	-34.0	-35.5	26.2	0.00e+00	0	55	0	180879360	39	4317
2026-01-07 03:40:59.66	212.41	24.43	-33.9	-35.3	26.3	0.00e+00	0	55	0	181927936	39	4228
2026-01-07 03:41:00.67	211.92	24.52	-33.7	-35.1	26.6	0.00e+00	0	55	0	183500800	39	4109
2026-01-07 03:41:01.68	211.43	24.61	-33.6	-35.1	26.6	0.00e+00	0	55	0	184549376	39	4100
2026-01-07 03:41:02.69	210.93	24.70	-33.7	-35.1	26.5	0.00e+00	0	55	0	185597952	39	4143
2026-01-07 03:41:03.70	210.43	24.79	-33.3	-34.7	26.9	0.00e+00	0	55	0	186646528	38	4171
2026-01-07 03:41:04.71	209.92	24.87	-33.3	-34.7	27.0	0.00e+00	0	55	0	187695104	38	4152
2026-01-07 03:41:05.72	209.41	24.96	-33.7	-35.1	26.6	0.00e+00	0	55	0	188743680	38	4383
2026-01-07 03:41:06.73	208.90	25.04	-33.8	-35.3	26.3	0.00e+00	0	55	0	190316544	38	4448
2026-01-07 03:41:07.73	208.39	25.12	-33.7	-35.1	26.6	0.00e+00	0	55	0	191365120	38	4347
2026-01-07 03:41:08.74	207.88	25.19	-33.7	-35.1	26.6	0.00e+00	0	55	0	192413696	38	4372
2026-01-07 03:41:09.75	207.36	25.27	-33.8	-35.3	26.4	0.00e+00	0	55	0	193462272	38	4459
2026-01-07 03:41:10.76	206.83	25.34	-33.5	-34.9	26.7	0.00e+00	0	55	0	194510848	38	4283
2026-01-07 03:41:11.77	206.31	25.42	-33.3	-34.6	26.9	0.00e+00	0	55	0	195559424	38	4136
2026-01-07 03:41:12.78	205.78	25.49	-33.6	-35.0	26.7	0.00e+00	0	55	0	197132288	38	4309
2026-01-07 03:41:13.79	205.25	25.55	-33.7	-35.1	26.6	0.00e+00	0	55	0	198180864	38	4367
2026-01-07 03:41:14.80	204.71	25.62	-33.5	-34.9	26.6	0.00e+00	0	55	0	199229440	38	4246
2026-01-07 03:41:15.81	204.18	25.68	-33.6	-34.9	26.6	0.00e+00	0	55	0	200278016	38	4286
2026-01-07 03:41:16.82	203.64	25.74	-33.3	-34.6	26.9	0.00e+00	0	55	0	201326592	38	4140
2026-01-07 03:41:17.83	203.10	25.80	-33.3	-34.7	26.9	0.00e+00	0	55	0	202375168	38	4164
2026-01-07 03:41:18.84	202.56	25.86	-33.4	-34.8	26.8	0.00e+00	0	55	0	203948032	38	4226
2026-01-07 03:41:19.85	202.01	25.91	-33.6	-35.0	26.6	0.00e+00	0	55	0	204996608	38	4298
2026-01-07 03:41:20.85	201.47	25.96	-33.6	-35.0	26.7	0.00e+00	0	55	0	206045184	38	4318
2026-01-07 03:41:21.86	200.92	26.01	-33.6	-35.0	26.7	0.00e+00	0	55	0	207093760	38	4310
2026-01-07 03:41:22.87	200.37	26.06	-33.3	-34.7	26.9	0.00e+00	0	55	0	208142336	38	4175
2026-01-07 03:41:23.88	199.81	26.10	-33.2	-34.6	27.1	0.00e+00	0	55	0	209190912	38	4122
2026-01-07 03:41:24.89	199.26	26.15	-33.2	-34.6	27.1	0.00e+00	0	55	0	210763776	38	4105
2026-01-07 03:41:25.90	198.70	26.18	-33.1	-34.5	27.1	0.00e+00	0	55	0	211812352	38	4069
2026-01-07 03:41:26.91	198.14	26.22	-33.2	-34.6	27.1	0.00e+00	0	55	0	212860928	38	4108
2026-01-07 03:41:27.92	197.59	26.26	-33.3	-34.6	27.0	0.00e+00	0	55	0	213909504	38	4145
2026-01-07 03:41:28.93	197.02	26.29	-33.1	-34.5	27.1	0.00e+00	0	55	0	214958080	38	4061
2026-01-07 03:41:29.94	196.46	26.32	-32.9	-34.2	27.3	0.00e+00	0	55	0	216006656	37	4178
2026-01-07 03:41:30.95	195.90	26.34	-33.3	-34.6	27.0	0.00e+00	0	55	0	217579520	37	4390
2026-01-07 03:41:31.96	195.34	26.37	-33.2	-34.6	27.0	0.00e+00	0	55	0	218628096	37	4363
2026-01-07 03:41:32.97	194.77	26.39	-33.5	-34.9	26.8	0.00e+00	0	55	0	219676672	37	4496
2026-01-07 03:41:33.98	194.20	26.40	-34.0	-35.4	26.3	0.00e+00	0	55	0	220725248	38	4541
2026-01-07 03:41:34.99	193.64	26.42	-33.8	-35.3	26.4	0.00e+00	0	55	0	221773824	38	4453
2026-01-07 03:41:36.00	193.07	26.43	-33.4	-34.8	26.8	0.00e+00	0	55	0	222822400	38	4242
2026-01-07 03:41:37.01	192.50	26.44	-33.6	-35.1	26.6	0.00e+00	0	55	0	224395264	38	4351
2026-01-07 03:41:38.02	191.94	26.45	-33.5	-34.9	26.7	0.00e+00	0	55	0	225443840	38	4272
2026-01-07 03:41:39.02	191.37	26.45	-33.6	-35.0	26.7	0.00e+00	0	55	0	226492416	38	4306
2026-01-07 03:41:40.03	190.80	26.46	-34.0	-35.5	26.2	0.00e+00	0	55	0	227540992	38	4563
2026-01-07 03:41:41.04	190.24	26.46	-33.6	-35.0	26.6	0.00e+00	0	55	0	228589568	38	4310
2026-01-07 03:41:42.05	189.67	26.45	-33.4	-34.8	26.8	0.00e+00	0	55	0	229638144	38	4215
2026-01-07 03:41:43.06	189.10	26.44	-33.3	-34.7	27.0	0.00e+00	0	56	0	231211008	38	4150
2026-01-07 03:41:44.07	188.53	26.44	-33.1	-34.5	27.1	0.00e+00	0	55	0	232259584	38	4063
2026-01-07 03:41:45.08	187.97	26.42	-33.3	-34.7	26.9	0.00e+00	0	55	0	233308160	38	4160
2026-01-07 03:41:46.09	187.40	26.41	-33.6	-35.0	26.7	0.00e+00	0	56	0	234356736	38	4318
2026-01-07 03:41:47.10	186.83	26.39	-33.4	-34.7	26.9	0.00e+00	0	55	0	235405312	38	4188
2026-01-07 03:41:48.11	186.27	26.37	-33.7	-35.1	26.5	0.00e+00	0	56	0	236453888	38	4365
2026-01-07 03:41:49.11	185.71	26.35	-33.8	-35.2	26.4	0.00e+00	0	55	0	238026752	38	4427
2026-01-07 03:41:50.12	185.15	26.32	-33.6	-35.0	26.6	0.00e+00	0	55	0	239075328	38	4302
2026-01-07 03:41:51.13	184.58	26.30	-33.9	-35.3	26.3	0.00e+00	0	55	0	240123904	38	4473
2026-01-07 03:41:52.14	184.02	26.27	-33.9	-35.4	26.3	0.00e+00	0	55	0	241172480	38	4505
2026-01-07 03:41:53.15	183.46	26.23	-33.9	-35.4	26.2	0.00e+00	0	55	0	242221056	38	4516
2026-01-07 03:41:54.16	182.90	26.20	-34.0	-35.5	26.2	0.00e+00	0	55	0	243269632	38	4573
2026-01-07 03:41:55.17	182.35	26.16	-33.9	-35.4	26.2	0.00e+00	0	55	0	244842496	38	4514
2026-01-07 03:41:56.18	181.79	26.12	-33.7	-35.1	26.5	0.00e+00	0	56	0	245891072	38	4386
2026-01-07 03:41:57.19	181.24	26.07	-33.8	-35.2	26.4	0.00e+00	0	55	0	246939648	38	4414
2026-01-07 03:41:58.20	180.69	26.03	-33.6	-35.0	26.6	0.00e+00	0	55	0	247988224	38	4329
2026-01-07 03:41:59.21	180.14	25.98	-33.4	-34.8	26.8	0.00e+00	0	56	0	249036800	38	4233
2026-01-07 03:42:00.22	179.59	25.93	-33.6	-35.0	26.5	0.00e+00	0	55	0	250085376	38	4313
2026-01-07 03:42:01.23	179.04	25.87	-33.5	-34.9	26.7	0.00e+00	0	55	0	251658240	38	4271
2026-01-07 03:42:02.24	178.50	25.82	-33.5	-34.9	26.8	0.00e+00	0	55	0	252706816	38	4248
2026-01-07 03:42:03.25	177.96	25.76	-33.6	-35.1	26.6	0.00e+00	0	55	0	253755392	38	4341
2026-01-07 03:42:04.26	177.42	25.70	-33.8	-35.2	26.4	0.00e+00	0	55	0	254803968	38	4432
2026-01-07 03:42:05.27	176.88	25.64	-33.7	-35.1	26.6	0.00e+00	0	56	0	255852544	38	4363
2026-01-07 03:42:06.28	176.35	25.57	-34.1	-35.6	26.3	0.00e+00	0	55	0	256901120	39	4346
2026-01-07 03:42:07.29	175.81	25.51	-33.8	-35.2	26.4	0.00e+00	0	55	0	258473984	39	4192
2026-01-07 03:42:08.30	175.29	25.44	-33.5	-35.0	26.7	0.00e+00	0	56	0	259522560	39	4059
2026-01-07 03:42:09.31	174.76	25.37	-33.4	-34.9	26.8	0.00e+00	0	56	0	260571136	38	4243
2026-01-07 03:42:10.32	174.24	25.29	-33.6	-35.1	26.5	0.00e+00	0	56	0	261619712	37	4627
2026-01-07 03:42:11.33	173.71	25.22	-33.6	-35.0	26.7	0.00e+00	0	55	0	262668288	37	4568
2026-01-07 03:42:12.34	173.20	25.14	-33.8	-35.2	26.4	0.00e+00	0	55	0	263716864	38	4410
2026-01-07 03:42:13.35	172.68	25.06	-33.8	-35.3	26.5	0.00e+00	0	56	0	265289728	38	4444
2026-01-07 03:42:14.35	172.17	24.98	-33.8	-35.3	26.4	0.00e+00	0	56	0	266338304	38	4453
2026-01-07 03:42:15.36	171.67	24.90	-34.0	-35.5	26.2	0.00e+00	0	56	0	267386880	38	4554
2026-01-07 03:42:16.37	171.16	24.81	-34.0	-35.4	26.3	0.00e+00	0	56	0	268435456	38	4537
2026-01-07 03:42:17.38	170.66	24.73	-34.0	-35.5	26.2	0.00e+00	0	55	0	269484032	38	4555
2026-01-07 03:42:18.39	170.16	24.64	-33.8	-35.3	26.4	0.00e+00	0	56	0	270532608	38	4445
2026-01-07 03:42:19.40	169.66	24.55	-33.6	-35.0	26.7	0.00e+00	0	55	0	272105472	38	4321
2026-01-07 03:42:20.41	169.17	24.46	-33.7	-35.1	26.6	0.00e+00	0	56	0	273154048	38	4382
2026-01-07 03:42:21.42	168.68	24.36	-33.8	-35.3	26.4	0.00e+00	0	55	0	274202624	38	4462
2026-01-07 03:42:22.43	168.19	24.27	-34.0	-35.5	26.3	0.00e+00	0	55	0	275251200	38	4572
2026-01-07 03:42:23.44	167.71	24.17	-33.9	-35.4	26.4	0.00e+00	0	56	0	276299776	38	4494
2026-01-07 03:42:24.45	167.23	24.08	-34.0	-35.4	26.4	0.00e+00	0	56	0	277348352	38	4523
2026-01-07 03:42:25.46	166.75	23.98	-34.0	-35.5	26.2	0.00e+00	0	56	0	278921216	38	4561
2026-01-07 03:42:26.47	166.28	23.88	-33.8	-35.3	26.5	0.00e+00	0	56	0	279969792	38	4443
2026-01-07 03:42:27.48	165.81	23.78	-33.8	-35.3	26.5	0.00e+00	0	56	0	281018368	38	4455
2026-01-07 03:42:28.49	165.35	23.67	-33.7	-35.1	26.7	0.00e+00	0	56	0	282066944	38	4362
2026-01-07 03:42:29.50	164.89	23.57	-33.9	-35.3	26.4	0.00e+00	0	55	0	283115520	38	4485
2026-01-07 03:42:30.51	164.43	23.46	-34.0	-35.5	26.3	0.00e+00	0	56	0	284164096	38	4562
2026-01-07 03:42:31.52	163.97	23.36	-34.0	-35.5	26.3	0.00e+00	0	56	0	285736960	38	4568
2026-01-07 03:42:32.52	163.53	23.25	-34.1	-35.6	26.2	0.00e+00	0	56	0	286785536	38	4612
2026-01-07 03:42:33.53	163.08	23.14	-34.2	-35.7	26.1	0.00e+00	0	56	0	287834112	39	4422
2026-01-07 03:42:34.54	162.64	23.03	-34.0	-35.5	26.2	0.00e+00	0	56	0	288882688	39	4321
2026-01-07 03:42:35.55	162.20	22.92	-34.1	-35.6	26.2	0.00e+00	0	56	0	289931264	39	4356
2026-01-07 03:42:36.56	161.76	22.81	-34.2	-35.7	26.1	0.00e+00	0	56	0	290979840	39	4397
2026-01-07 03:42:37.57	161.33	22.70	-34.3	-35.8	26.0	0.00e+00	0	56	0	292552704	39	4480
2026-01-07 03:42:38.58	160.90	22.59	-34.1	-35.5	26.2	0.00e+00	0	56	0	293601280	39	4330
2026-01-07 03:42:39.59	160.47	22.47	-33.8	-35.3	26.4	0.00e+00	0	56	0	294649856	39	4218
2026-01-07 03:42:40.60	160.05	22.36	-34.0	-35.4	26.3	0.00e+00	0	56	0	295698432	39	4272
2026-01-07 03:42:41.62	159.63	22.24	-34.3	-35.8	26.0	0.00e+00	0	56	0	296747008	39	4460
2026-01-07 03:42:42.63	159.22	22.13	-34.3	-35.8	26.0	0.00e+00	0	56	0	297795584	39	4469
2026-01-07 03:42:43.63	158.81	22.01	-34.4	-35.9	25.8	0.00e+00	0	56	0	299368448	39	4524
2026-01-07 03:42:44.65	158.40	21.89	-34.1	-35.6	26.1	0.00e+00	0	56	0	300417024	39	4375
2026-01-07 03:42:45.66	158.00	21.77	-34.3	-35.8	25.9	0.00e+00	0	56	0	301465600	39	4476
2026-01-07 03:42:46.67	157.60	21.66	-34.6	-36.1	25.7	0.00e+00	0	56	0	302514176	39	4624
2026-01-07 03:42:47.68	157.20	21.54	-34.6	-36.2	25.5	0.00e+00	0	56	0	303562752	39	4669
2026-01-07 03:42:48.68	156.81	21.42	-34.8	-36.4	25.2	0.00e+00	0	56	0	304611328	40	4517
2026-01-07 03:42:49.69	156.42	21.30	-34.4	-35.9	25.7	0.00e+00	0	56	0	306184192	40	4270
2026-01-07 03:42:50.70	156.04	21.18	-34.4	-35.9	25.7	0.00e+00	0	56	0	307232768	40	4285
2026-01-07 03:42:51.72	155.65	21.06	-34.4	-35.9	25.6	0.00e+00	0	56	0	308281344	40	4289
2026-01-07 03:42:52.73	155.28	20.94	-34.5	-36.0	25.6	0.00e+00	0	56	0	309329920	40	4324
2026-01-07 03:42:53.74	154.90	20.81	-34.6	-36.1	25.5	0.00e+00	0	56	0	310378496	40	4371
2026-01-07 03:42:54.74	154.53	20.69	-34.6	-36.2	25.5	0.00e+00	0	56	0	311427072	40	4394
2026-01-07 03:42:55.75	154.17	20.57	-34.6	-36.1	25.5	0.00e+00	0	56	0	312999936	40	4363
2026-01-07 03:42:56.76	153.80	20.45	-34.5	-36.0	25.5	0.00e+00	0	56	0	314048512	40	4322
2026-01-07 03:42:57.77	153.44	20.33	-34.8	-36.4	25.2	0.00e+00	0	56	0	315097088	40	4507
2026-01-07 03:42:58.78	153.09	20.21	-34.9	-36.4	25.2	0.00e+00	0	56	0	316145664	40	4531
2026-01-07 03:42:59.79	152.73	20.08	-35.2	-36.8	24.8	0.00e+00	0	56	0	317194240	40	4747
2026-01-07 03:43:00.80	152.38	19.96	-35.0	-36.6	24.9	0.00e+00	0	56	0	318242816	41	4378
2026-01-07 03:43:01.81	152.03	19.84	-34.7	-36.2	25.3	0.00e+00	0	56	0	319815680	41	4183
2026-01-07 03:43:02.82	151.69	19.71	-34.5	-36.1	25.5	0.00e+00	0	56	0	320864256	41	4115
2026-01-07 03:43:03.83	151.35	19.59	-34.7	-36.3	25.3	0.00e+00	0	56	0	321912832	41	4221
2026-01-07 03:43:04.84	151.01	19.47	-34.9	-36.4	25.1	0.00e+00	0	56	0	322961408	41	4283
2026-01-07 03:43:05.85	150.68	19.35	-35.0	-36.6	25.0	0.00e+00	0	56	0	324009984	41	4366
2026-01-07 03:43:06.86	150.35	19.22	-34.8	-36.4	25.1	0.00e+00	0	56	0	325058560	41	4275
2026-01-07 03:43:07.87	150.02	19.10	-34.8	-36.4	25.1	0.00e+00	0	56	0	326631424	41	4276
2026-01-07 03:43:08.88	149.70	18.98	-34.9	-36.5	25.0	0.00e+00	0	56	0	327680000	41	4312
2026-01-07 03:43:09.89	149.38	18.85	-35.0	-36.6	24.9	0.00e+00	0	56	0	328728576	41	4388
2026-01-07 03:43:10.90	149.06	18.73	-35.2	-36.8	24.7	0.00e+00	0	56	0	329777152	41	4466
2026-01-07 03:43:11.91	148.75	18.61	-35.1	-36.7	24.8	0.00e+00	0	56	0	330825728	41	4411
2026-01-07 03:43:12.92	148.44	18.48	-34.8	-36.3	25.1	0.00e+00	0	56	0	331874304	41	4236
2026-01-07 03:43:13.93	148.13	18.36	-34.6	-36.2	25.3	0.00e+00	0	56	0	333447168	41	4153
2026-01-07 03:43:14.94	147.82	18.24	-34.7	-36.2	25.2	0.00e+00	0	56	0	334495744	41	4170
2026-01-07 03:43:15.95	147.52	18.12	-34.9	-36.5	24.9	0.00e+00	0	56	0	335544320	41	4319
2026-01-07 03:43:16.96	147.22	17.99	-35.2	-36.8	24.7	0.00e+00	0	56	0	336592896	41	4463
2026-01-07 03:43:17.97	146.92	17.87	-35.7	-37.4	24.1	0.00e+00	0	56	0	337641472	41	4768
2026-01-07 03:43:18.98	146.63	17.75	-35.8	-37.5	23.9	0.00e+00	0	56	0	338690048	42	4579
2026-01-07 03:43:19.99	146.34	17.63	-35.7	-37.4	24.0	0.00e+00	0	56	0	340262912	42	4541
2026-01-07 03:43:21.00	146.05	17.51	-35.5	-37.2	24.3	0.00e+00	0	56	0	341311488	42	4401
2026-01-07 03:43:22.01	145.77	17.39	-35.3	-37.0	24.4	0.00e+00	0	56	0	342360064	42	4317
2026-01-07 03:43:23.02	145.49	17.27	-35.2	-36.8	24.6	0.00e+00	0	56	0	343408640	42	4231
2026-01-07 03:43:24.03	145.21	17.15	-35.2	-36.9	24.5	0.00e+00	0	56	0	344457216	42	4250
2026-01-07 03:43:25.04	144.93	17.02	-35.3	-37.0	24.5	0.00e+00	0	56	0	345505792	42	4296
2026-01-07 03:43:26.05	144.66	16.90	-35.4	-37.1	24.4	0.00e+00	0	56	0	347078656	42	4341
2026-01-07 03:43:27.06	144.39	16.79	-35.3	-37.0	24.4	0.00e+00	0	56	0	348127232	42	4305
2026-01-07 03:43:28.07	144.12	16.67	-35.3	-37.0	24.4	0.00e+00	0	56	0	349175808	42	4302
2026-01-07 03:43:29.08	143.85	16.55	-35.3	-36.9	24.5	0.00e+00	0	56	0	350224384	42	4272
2026-01-07 03:43:30.08	143.59	16.43	-35.4	-37.1	24.4	0.00e+00	0	56	0	351272960	42	4350
2026-01-07 03:43:31.10	143.33	16.31	-35.5	-37.2	24.2	0.00e+00	0	56	0	352321536	42	4402
2026-01-07 03:43:32.10	143.08	16.19	-35.6	-37.4	24.0	0.00e+00	0	56	0	353894400	42	4497
2026-01-07 03:43:33.11	142.82	16.07	-36.0	-37.7	23.7	0.00e+00	0	56	0	354942976	42	4694
2026-01-07 03:43:34.12	142.57	15.96	-36.1	-37.9	23.5	0.00e+00	0	56	0	355991552	42	4788
2026-01-07 03:43:35.14	142.31	15.84	-36.1	-37.9	23.4	0.00e+00	0	56	0	357040128	42	4812
2026-01-07 03:43:36.14	142.07	15.72	-35.9	-37.6	23.7	0.00e+00	0	56	0	358088704	42	4647
2026-01-07 03:43:37.15	141.82	15.61	-35.9	-37.7	23.7	0.00e+00	0	56	0	359137280	42	4662
2026-01-07 03:43:38.16	141.58	15.49	-35.9	-37.6	23.7	0.00e+00	0	56	0	360710144	42	4644
2026-01-07 03:43:39.17	141.34	15.37	-36.0	-37.8	23.6	0.00e+00	0	56	0	361758720	42	4713
2026-01-07 03:43:40.18	141.10	15.26	-36.0	-37.8	23.5	0.00e+00	0	56	0	362807296	42	4748
2026-01-07 03:43:41.19	140.87	15.14	-36.1	-37.9	23.4	0.00e+00	0	56	0	363855872	42	4773
2026-01-07 03:43:42.20	140.63	15.03	-36.1	-37.9	23.5	0.00e+00	0	56	0	364904448	42	4768
2026-01-07 03:43:43.21	140.40	14.91	-35.9	-37.7	23.6	0.00e+00	0	56	0	365953024	42	4676
2026-01-07 03:43:44.22	140.17	14.80	-36.0	-37.8	23.5	0.00e+00	0	56	0	367525888	42	4724
2026-01-07 03:43:45.23	139.95	14.69	-36.1	-37.9	23.4	0.00e+00	0	56	0	368574464	42	4803
2026-01-07 03:43:46.24	139.72	14.57	-36.3	-38.2	23.1	0.00e+00	0	56	0	369623040	43	4671
2026-01-07 03:43:47.25	139.50	14.46	-36.5	-38.4	22.8	0.00e+00	0	56	0	370671616	43	4779
2026-01-07 03:43:48.26	139.28	14.35	-36.5	-38.4	22.9	0.00e+00	0	56	0	371720192	43	4804
2026-01-07 03:43:49.27	139.06	14.24	-36.2	-38.2	23.0	0.00e+00	0	56	0	372768768	43	4663
2026-01-07 03:43:50.28	138.85	14.13	-36.3	-38.2	23.0	0.00e+00	0	56	0	374341632	43	4679
2026-01-07 03:43:51.29	138.63	14.01	-36.0	-38.3	22.9	0.00e+00	0	56	0	375390208	42	5036
2026-01-07 03:43:52.30	138.42	13.90	-36.3	-38.3	22.8	0.00e+00	0	56	0	376438784	43	4720
2026-01-07 03:43:53.31	138.21	13.79	-35.9	-38.3	22.7	0.00e+00	0	56	0	377487360	42	5011
2026-01-07 03:43:54.31	138.00	13.69	-35.2	-38.5	22.5	1.10e-06	0	56	0	378535936	42	5120
2026-01-07 03:43:55.32	137.80	13.58	-36.5	-38.5	22.4	0.00e+00	0	56	0	379584512	43	4849
2026-01-07 03:43:56.33	137.59	13.47	-37.0	-39.0	22.3	0.00e+00	0	56	0	381157376	44	4838
2026-01-07 03:43:57.34	137.39	13.36	-37.1	-39.3	21.9	0.00e+00	0	56	0	382205952	44	5011
2026-01-07 03:43:58.35	137.19	13.25	-37.4	-39.6	21.5	2.05e-05	0	56	0	383254528	45	4911
2026-01-07 03:43:59.36	136.99	13.14	-37.3	-39.6	21.4	2.05e-05	0	56	0	384303104	45	4880
2026-01-07 03:44:00.38	136.80	13.03	-37.3	-39.6	21.2	2.86e-05	0	56	0	385351680	45	4897
2026-01-07 03:44:01.39	136.60	12.93	-37.0	-39.5	21.1	7.66e-05	0	56	0	386400256	45	4834
2026-01-07 03:44:02.40	136.41	12.82	-37.2	-39.4	21.0	7.66e-05	0	56	0	387973120	44	5050
2026-01-07 03:44:03.41	136.22	12.72	-37.0	-39.2	21.2	1.94e-04	0	56	0	389021696	44	4981
2026-01-07 03:44:04.42	136.03	12.61	-37.0	-39.3	21.0	3.27e-04	0	56	0	390070272	44	4995
2026-01-07 03:44:05.43	135.84	12.50	-36.7	-38.8	21.2	7.51e-04	0	56	0	391118848	43	5036
2026-01-07 03:44:06.44	135.66	12.40	-33.0	-38.8	17.4	7.51e-04	0	56	0	392167424	38	6682
2026-01-07 03:44:07.45	135.47	12.30	-36.8	-39.4	20.1	1.51e-02	0	56	0	393216000	44	5049
2026-01-07 03:44:08.46	135.29	12.19	-35.1	-39.2	15.5	1.56e-02	0	56	0	394788864	40	6250
2026-01-07 03:44:09.47	135.11	12.09	-36.8	-39.7	16.5	1.56e-02	0	56	0	395837440	44	5233
2026-01-07 03:44:10.48	134.93	11.99	-37.2	-39.8	17.1	2.29e-02	0	56	0	396886016	44	5325
2026-01-07 03:44:11.49	134.76	11.88	-36.8	-40.1	15.2	1.32e-02	0	56	0	397934592	44	5505
2026-01-07 03:44:12.50	134.58	11.78	-36.9	-39.9	18.0	1.32e-02	0	56	0	398983168	44	5386
2026-01-07 03:44:13.51	134.41	11.68	-36.3	-39.8	17.4	8.57e-03	0	56	0	400031744	42	5957
2026-01-07 03:44:14.52	134.23	11.58	-33.6	-39.9	15.3	1.13e-02	0	56	0	401604608	40	6797
2026-01-07 03:44:15.53	134.06	11.48	-30.9	-39.2	13.8	1.13e-02	0	56	0	402653184	35	8291
2026-01-07 03:44:16.53	133.90	11.38	-32.7	-39.4	10.7	5.13e-02	0	56	0	403177472	40	6406
2026-01-07 03:44:17.54	133.73	11.28	-32.2	-39.3	14.2	2.04e-01	0	56	0	404226048	35	8454
2026-01-07 03:44:18.55	133.56	11.18	-31.6	-39.4	12.4	3.99e-02	0	56	0	405798912	34	9063
2026-01-07 03:44:19.56	133.40	11.08	-30.2	-38.2	10.0	3.99e-02	0	56	0	406847488	24	13935
2026-01-07 03:44:20.57	133.24	10.98	-29.6	-37.8	12.1	7.77e-02	0	56	0	407896064	27	11285
2026-01-07 03:44:21.58	133.07	10.88	-27.8	-38.3	13.5	8.82e-02	0	56	0	408944640	31	9409
2026-01-07 03:44:22.59	132.91	10.78	-29.8	-40.4	11.2	8.82e-02	0	56	0	409993216	33	10763
2026-01-07 03:44:23.60	132.75	10.69	-28.8	-41.6	9.0	1.32e-01	0	56	0	411041792	30	14696
2026-01-07 03:44:24.61	132.60	10.59	-28.4	-42.8	8.0	3.57e-01	0	56	0	411566080	29	17836
2026-01-07 03:44:25.62	132.44	10.49	-28.3	-45.5	6.5	3.57e-01	0	56	0	412090368	29	24164
2026-01-07 03:44:26.63	132.29	10.39	-28.2	-47.3	4.8	5.50e-01	0	56	104	412090368	29	29791
2026-01-07 03:44:27.64	132.13	10.30	-27.3	-48.1	4.4	7.85e-01	0	56	104	412090368	30	30934
2026-01-07 03:44:28.65	131.98	10.20	-26.5	-48.8	4.3	7.85e-01	0	56	104	412090368	27	39718
2026-01-07 03:44:29.66	131.83	10.11	-25.6	-51.0	4.1	8.31e-01	0	56	104	412090368	29	45586
2026-01-07 03:44:30.67	131.68	10.01	-24.9	-50.5	4.3	8.30e-01	0	56	0	412090368	28	45522
2026-01-07 03:44:31.68	131.54	9.92	-26.7	-47.9	4.4	8.33e-01	0	56	104	412090368	25	40473
2026-01-07 03:44:32.69	131.39	9.83	-29.1	-50.8	4.3	8.33e-01	0	56	104	412090368	30	42056
2026-01-07 03:44:33.70	131.24	9.73	-26.1	-50.0	4.0	8.34e-01	0	56	104	412090368	27	45723
2026-01-07 03:44:34.71	131.10	9.64	-26.9	-48.6	3.9	8.27e-01	0	56	104	412090368	25	43624
2026-01-07 03:44:35.72	130.96	9.55	-26.4	-47.7	3.9	8.27e-01	0	56	104	412090368	24	41664
2026-01-07 03:44:36.73	130.82	9.45	-28.4	-50.3	4.0	8.23e-01	0	56	104	412090368	27	47572
2026-01-07 03:44:37.74	130.67	9.36	-28.4	-50.6	4.0	8.19e-01	0	56	0	412090368	29	43433
2026-01-07 03:44:38.75	130.54	9.27	-25.8	-47.7	3.8	8.19e-01	0	56	104	412090368	25	39192
2026-01-07 03:44:39.76	130.40	9.18	-26.4	-48.9	3.7	8.15e-01	0	56	104	412090368	27	40367
2026-01-07 03:44:40.77	130.26	9.09	-27.0	-48.7	3.8	8.13e-01	0	56	104	412090368	24	46855
2026-01-07 03:44:41.78	130.13	9.00	-27.7	-45.5	3.6	8.13e-01	0	56	104	412090368	19	42932
2026-01-07 03:44:42.79	129.99	8.91	-25.3	-45.8	3.7	8.08e-01	0	56	104	412090368	23	35449
2026-01-07 03:44:43.79	129.86	8.82	-23.9	-45.5	3.5	8.03e-01	0	56	104	412090368	21	38264
2026-01-07 03:44:44.80	129.73	8.73	-26.7	-47.4	3.9	8.00e-01	0	56	0	412090368	25	38045
2026-01-07 03:44:45.81	129.60	8.64	-24.4	-43.0	3.6	8.00e-01	0	57	104	412090368	16	38603
2026-01-07 03:44:46.82	129.47	8.55	-20.1	-42.7	3.8	8.02e-01	0	56	104	412090368	11	49519
2026-01-07 03:44:47.83	129.34	8.46	-20.4	-43.6	3.6	8.06e-01	0	56	104	412090368	13	49197
2026-01-07 03:44:48.84	129.21	8.37	-16.6	-37.5	3.3	8.06e-01	0	56	104	412090368	7	34157
2026-01-07 03:44:49.85	129.08	8.29	-17.2	-41.0	3.5	8.06e-01	0	56	104	412090368	10	43046
2026-01-07 03:44:50.86	128.96	8.20	-15.4	-39.0	3.8	8.10e-01	0	56	104	412090368	3	51478
2026-01-07 03:44:51.87	128.83	8.11	-15.4	-37.1	3.8	8.10e-01	0	56	104	412090368	4	38831
2026-01-07 03:44:52.88	128.71	8.03	-14.2	-41.3	3.1	8.09e-01	0	56	104	412090368	7	52936
2026-01-07 03:44:53.89	128.59	7.94	-28.5	-53.7	4.0	8.13e-01	0	56	104	412090368	30	58931
2026-01-07 03:44:54.90	128.46	7.85	-43.6	-62.3	3.8	8.31e-01	0	56	104	412090368	57	33559
2026-01-07 03:44:55.91	128.34	7.77	-44.7	-63.0	3.8	8.31e-01	0	56	104	412090368	60	30512
2026-01-07 03:44:56.92	128.22	7.68	-44.9	-63.2	3.8	8.47e-01	0	56	104	412090368	60	31438
2026-01-07 03:44:57.93	128.11	7.60	-45.1	-63.4	3.8	8.46e-01	0	57	104	412090368	60	31983
2026-01-07 03:44:58.94	127.99	7.51	-45.2	-63.5	3.8	8.46e-01	0	56	104	412090368	60	32329
2026-01-07 03:44:59.95	127.87	7.43	-45.3	-63.6	3.8	8.46e-01	0	56	104	412090368	61	30874
2026-01-07 03:45:00.96	127.76	7.35	-45.4	-63.7	3.8	8.48e-01	0	56	104	412090368	61	31264
2026-01-07 03:45:01.98	127.64	7.26	-45.5	-63.8	3.8	8.48e-01	0	56	104	412090368	61	31447
2026-01-07 03:45:02.99	127.53	7.18	-45.5	-63.8	3.8	8.46e-01	0	56	104	412090368	61	31447
2026-01-07 03:45:04.00	127.41	7.09	-45.4	-63.7	3.8	8.46e-01	0	56	104	412090368	61	31210
2026-01-07 03:45:05.01	127.30	7.01	-45.3	-63.7	3.8	8.46e-01	0	57	104	412090368	61	31149
2026-01-07 03:45:06.02	127.19	6.93	-45.2	-63.6	3.8	8.46e-01	0	56	104	412090368	61	30873
2026-01-07 03:45:07.03	127.08	6.85	-45.2	-63.6	3.8	8.45e-01	0	56	104	412090368	61	30904
2026-01-07 03:45:08.04	126.97	6.77	-45.2	-63.6	3.8	8.46e-01	0	56	104	412090368	61	30899
2026-01-07 03:45:09.05	126.86	6.69	-45.2	-63.6	3.8	8.46e-01	0	56	104	412090368	61	30994
2026-01-07 03:45:10.06	126.75	6.60	-45.1	-63.6	3.8	8.46e-01	0	57	104	412090368	61	30858
2026-01-07 03:45:11.07	126.65	6.52	-45.1	-63.6	3.8	8.46e-01	0	56	104	412090368	61	30886
2026-01-07 03:45:12.09	126.54	6.44	-45.1	-63.6	3.8	8.46e-01	0	57	104	412090368	61	30852
2026-01-07 03:45:13.09	126.43	6.36	-45.1	-63.6	3.8	8.47e-01	0	56	104	412090368	61	30847
2026-01-07 03:45:14.10	126.33	6.28	-45.1	-63.6	3.8	8.46e-01	0	56	104	412090368	61	30845
2026-01-07 03:45:15.11	126.23	6.20	-45.1	-63.6	3.8	8.46e-01	0	56	104	412090368	61	30788
2026-01-07 03:45:16.13	126.12	6.12	-45.1	-63.6	3.8	8.47e-01	0	56	104	412090368	61	30780
2026-01-07 03:45:17.13	126.02	6.05	-45.1	-63.6	3.8	8.46e-01	0	56	104	412090368	61	30764
2026-01-07 03:45:18.15	125.92	5.97	-45.1	-63.5	3.8	8.46e-01	0	56	104	412090368	61	30719
2026-01-07 03:45:19.16	125.82	5.89	-45.1	-63.6	3.8	8.46e-01	0	56	104	412090368	61	30778
2026-01-07 03:45:20.17	125.72	5.81	-45.1	-63.5	3.8	8.46e-01	0	56	104	412090368	61	30724
2026-01-07 03:45:21.18	125.62	5.73	-45.1	-63.5	3.8	8.47e-01	0	56	104	412090368	61	30728
2026-01-07 03:45:22.19	125.52	5.66	-45.1	-63.5	3.8	8.47e-01	0	56	104	412090368	61	30666
2026-01-07 03:45:23.20	125.42	5.58	-45.1	-63.6	3.8	8.46e-01	0	56	104	412090368	61	30731
2026-01-07 03:45:24.21	125.33	5.50	-45.1	-63.5	3.8	8.46e-01	0	56	104	412090368	61	30689
2026-01-07 03:45:25.22	125.23	5.43	-45.1	-63.5	3.8	8.46e-01	0	56	104	412090368	61	30677
2026-01-07 03:45:26.23	125.14	5.35	-45.1	-63.5	3.8	8.46e-01	0	56	104	412090368	61	30677
2026-01-07 03:45:27.24	125.04	5.27	-45.1	-63.5	3.8	8.47e-01	0	56	104	412090368	61	30693
2026-01-07 03:45:28.25	124.95	5.20	-45.1	-63.5	3.8	8.47e-01	0	56	104	412090368	61	30694
2026-01-07 03:45:29.26	124.85	5.12	-45.1	-63.6	3.8	8.46e-01	0	57	104	412090368	61	30787
2026-01-07 03:45:30.27	124.76	5.05	-45.1	-63.5	3.8	8.45e-01	0	56	104	412090368	61	30611
2026-01-07 03:45:31.28	124.67	4.97	-45.1	-63.5	3.8	8.45e-01	0	56	104	412090368	61	30489
2026-01-07 03:45:32.29	124.58	4.90	-45.1	-63.5	3.8	8.46e-01	0	57	104	412090368	61	30665
2026-01-07 03:45:33.30	124.49	4.82	-45.1	-63.5	3.8	8.46e-01	0	56	104	412090368	61	30599
2026-01-07 03:45:34.32	124.40	4.75	-45.1	-63.5	3.8	8.46e-01	0	57	104	412090368	61	30594
2026-01-07 03:45:35.33	124.31	4.67	-45.0	-63.5	3.8	8.46e-01	0	57	104	412090368	61	30469
2026-01-07 03:45:36.34	124.22	4.60	-45.0	-63.5	3.8	8.47e-01	0	57	104	412090368	61	30554
2026-01-07 03:45:37.35	124.13	4.53	-45.0	-63.5	3.8	8.47e-01	0	56	104	412090368	61	30445
2026-01-07 03:45:38.36	124.05	4.45	-45.1	-63.5	3.8	8.47e-01	0	57	104	412090368	60	32287
2026-01-07 03:45:39.37	123.96	4.38	-45.0	-63.5	3.8	8.46e-01	0	57	104	412090368	60	32322
2026-01-07 03:45:40.38	123.87	4.31	-45.0	-63.5	3.8	8.47e-01	0	56	104	412090368	60	32262
2026-01-07 03:45:41.39	123.79	4.24	-45.0	-63.5	3.8	8.47e-01	0	57	104	412090368	60	32345
2026-01-07 03:45:42.40	123.70	4.16	-45.0	-63.5	3.8	8.46e-01	0	57	104	412090368	60	32430
2026-01-07 03:45:43.41	123.62	4.09	-45.0	-63.5	3.8	8.45e-01	0	57	104	412090368	60	32334
2026-01-07 03:45:44.43	123.53	4.02	-45.1	-63.5	3.8	8.45e-01	0	57	104	412090368	60	32322
2026-01-07 03:45:45.44	123.45	3.95	-45.0	-63.5	3.8	8.46e-01	0	57	104	412090368	60	32203
2026-01-07 03:45:46.45	123.37	3.88	-45.0	-63.5	3.8	8.46e-01	0	56	104	412090368	60	32307
2026-01-07 03:45:47.46	123.29	3.81	-45.0	-63.5	3.8	8.46e-01	0	57	104	412090368	60	32250
2026-01-07 03:45:48.47	123.21	3.74	-45.0	-63.5	3.8	8.46e-01	0	56	104	412090368	60	32368
2026-01-07 03:45:49.48	123.12	3.67	-45.0	-63.5	3.8	8.45e-01	0	57	104	412090368	60	32347
2026-01-07 03:45:50.49	123.04	3.60	-45.0	-63.5	3.8	8.46e-01	0	56	104	412090368	60	32358
2026-01-07 03:45:51.50	122.97	3.53	-45.0	-63.5	3.8	8.46e-01	0	57	104	412090368	60	32366
2026-01-07 03:45:52.51	122.89	3.46	-45.0	-63.5	3.8	8.46e-01	0	57	104	412090368	60	32394
2026-01-07 03:45:53.52	122.81	3.39	-45.0	-63.5	3.8	8.46e-01	0	57	104	412090368	60	32296
2026-01-07 03:45:54.54	122.73	3.32	-45.0	-63.5	3.8	8.46e-01	0	57	104	412090368	60	32312
2026-01-07 03:45:55.55	122.65	3.25	-45.0	-63.5	3.8	8.46e-01	0	56	104	412090368	60	32246
2026-01-07 03:45:56.56	122.58	3.18	-45.0	-63.5	3.8	8.46e-01	0	57	104	412090368	60	32318
2026-01-07 03:45:57.57	122.50	3.11	-45.0	-63.5	3.8	8.46e-01	0	57	104	412090368	60	32271
2026-01-07 03:45:58.58	122.42	3.04	-45.0	-63.5	3.8	8.46e-01	0	57	104	412090368	60	32264
2026-01-07 03:45:59.59	122.35	2.97	-45.0	-63.5	3.8	8.44e-01	0	57	104	412090368	60	32260
2026-01-07 03:46:00.60	122.27	2.90	-45.0	-63.5	3.8	8.46e-01	0	57	104	412090368	60	32259
2026-01-07 03:46:01.61	122.20	2.84	-45.0	-63.5	3.8	8.46e-01	0	57	104	412090368	60	32192
2026-01-07 03:46:02.62	122.13	2.77	-45.0	-63.5	3.8	8.46e-01	0	57	104	412090368	60	32222
2026-01-07 03:46:03.64	122.05	2.70	-45.0	-63.5	3.8	8.45e-01	0	57	104	412090368	60	32185
2026-01-07 03:46:04.65	121.98	2.63	-45.0	-63.5	3.8	8.45e-01	0	57	104	412090368	60	32246
2026-01-07 03:46:05.66	121.91	2.57	-45.0	-63.4	3.8	8.47e-01	0	57	104	412090368	60	32161
2026-01-07 03:46:06.67	121.83	2.50	-45.0	-63.5	3.8	8.46e-01	0	57	104	412090368	60	32275
2026-01-07 03:46:07.68	121.76	2.43	-45.0	-63.4	3.8	8.46e-01	0	57	104	412090368	60	32131
2026-01-07 03:46:08.69	121.69	2.37	-45.0	-63.5	3.8	8.45e-01	0	57	104	412090368	60	32269
2026-01-07 03:46:09.70	121.62	2.30	-45.0	-63.4	3.8	8.46e-01	0	57	104	412090368	60	32144
2026-01-07 03:46:10.71	121.55	2.24	-45.0	-63.4	3.8	8.47e-01	0	57	104	412090368	60	32143
2026-01-07 03:46:11.72	121.48	2.17	-45.0	-63.4	3.8	8.47e-01	0	57	104	412090368	60	32144
2026-01-07 03:46:12.73	121.41	2.10	-45.0	-63.5	3.8	8.46e-01	0	57	104	412090368	60	32199
2026-01-07 03:46:13.74	121.35	2.04	-45.0	-63.4	3.8	8.46e-01	0	57	104	412090368	60	32146
2026-01-07 03:46:14.75	121.28	1.97	-45.0	-63.4	3.8	8.46e-01	0	57	104	412090368	60	32167

#Closed at: 2026-01-07 03:46:14
#Recorded file [412 MB]: D:/lorett/data/31039_260107_063707.dat