passes_logs/2026/01/07/R2.0S_Moscow/R2.0S_Moscow__20260107_103551_NOAA_20_JPSS-1_rec.log

#Pass ID: 20260107_103551_NOAA 20 (JPSS-1)
#Satellite: NOAA 20 (JPSS-1)
#Configuration: NOAA 20
#almurnet v.1.7.20251203
#Start time: 2026-01-07 10:35:53

#Version: 2.2.20231116
#Station: R2.0S_Moscow
#Location: 37.707566 lon 55.798166 lat
#TLE: 1 43013U 17073A   26006.30790171  .00000126  00000+0  80695-4 0  9991
#TLE: 2 43013  98.7629 307.3394 0001808  51.8724 308.2615 14.19533762421505

#Time	Az	El	Level	Level2	SNR	BER	BlckErr	Temp	State	Recorded	gain1	gain2
2026-01-07 10:35:53.10	180.62	2.09	-43.9	-58.4	3.8	1.49e+00	0	48	0	0	59	19129
2026-01-07 10:35:54.11	180.66	2.15	-43.9	-58.4	3.8	1.49e+00	0	48	104	0	59	19138
2026-01-07 10:35:55.12	180.69	2.22	-43.9	-58.4	3.8	1.49e+00	0	48	104	0	59	19165
2026-01-07 10:35:56.13	180.72	2.28	-43.9	-58.4	3.8	1.49e+00	0	48	104	0	59	19139
2026-01-07 10:35:57.15	180.76	2.35	-43.9	-58.5	3.8	1.49e+00	0	48	104	0	59	19174
2026-01-07 10:35:58.16	180.79	2.41	-43.9	-58.4	3.8	1.49e+00	0	48	104	0	59	19097
2026-01-07 10:35:59.17	180.83	2.47	-43.9	-58.4	3.8	1.49e+00	0	48	104	0	59	19135
2026-01-07 10:36:00.18	180.86	2.54	-43.9	-58.5	3.8	1.49e+00	0	48	104	0	59	19175
2026-01-07 10:36:01.19	180.90	2.60	-43.9	-58.4	3.8	1.49e+00	0	48	104	0	59	19136
2026-01-07 10:36:02.20	180.93	2.67	-43.9	-58.4	3.8	1.49e+00	0	49	104	0	59	19112
2026-01-07 10:36:03.21	180.97	2.73	-43.9	-58.4	3.8	1.49e+00	0	49	104	0	59	19130
2026-01-07 10:36:04.22	181.00	2.80	-43.9	-58.4	3.8	1.49e+00	0	49	104	0	59	19108
2026-01-07 10:36:05.23	181.04	2.86	-43.9	-58.4	3.8	1.49e+00	0	49	104	0	59	19160
2026-01-07 10:36:06.24	181.07	2.93	-43.9	-58.4	3.8	1.49e+00	0	49	104	0	59	19157
2026-01-07 10:36:07.26	181.11	2.99	-43.9	-58.4	3.8	1.49e+00	0	49	104	0	59	19142
2026-01-07 10:36:08.27	181.14	3.06	-43.9	-58.4	3.8	1.49e+00	0	49	104	0	59	19088
2026-01-07 10:36:09.28	181.18	3.12	-43.9	-58.4	3.8	1.49e+00	0	49	104	0	59	19133
2026-01-07 10:36:10.29	181.21	3.19	-43.9	-58.4	3.8	1.49e+00	0	49	104	0	59	19140
2026-01-07 10:36:11.30	181.25	3.26	-43.9	-58.4	3.8	1.49e+00	0	49	104	0	59	19119
2026-01-07 10:36:12.31	181.29	3.32	-43.9	-58.5	3.8	1.49e+00	0	49	104	0	59	19179
2026-01-07 10:36:13.32	181.32	3.39	-43.9	-58.4	3.8	1.49e+00	0	49	104	0	59	19084
2026-01-07 10:36:14.33	181.36	3.45	-43.9	-58.4	3.8	1.49e+00	0	49	104	0	59	19088
2026-01-07 10:36:15.34	181.40	3.52	-43.9	-58.4	3.8	1.49e+00	0	49	104	0	59	19097
2026-01-07 10:36:16.36	181.43	3.59	-43.9	-58.4	3.8	1.49e+00	0	49	104	0	59	19099
2026-01-07 10:36:17.37	181.47	3.65	-43.9	-58.4	3.8	1.49e+00	0	50	104	0	59	19152
2026-01-07 10:36:18.38	181.51	3.72	-43.9	-58.4	3.8	1.49e+00	0	49	104	0	59	19142
2026-01-07 10:36:19.39	181.54	3.79	-43.9	-58.4	3.8	1.49e+00	0	50	104	0	59	19123
2026-01-07 10:36:20.40	181.58	3.86	-43.9	-58.4	3.8	1.49e+00	0	49	104	0	59	19101
2026-01-07 10:36:21.41	181.62	3.92	-43.9	-58.4	3.8	1.49e+00	0	50	104	0	59	19083
2026-01-07 10:36:22.42	181.66	3.99	-43.9	-58.4	3.8	1.49e+00	0	50	104	0	59	19047
2026-01-07 10:36:23.43	181.69	4.06	-43.9	-58.3	3.8	1.49e+00	0	50	104	0	59	18854
2026-01-07 10:36:24.44	181.73	4.13	-43.9	-58.3	3.8	1.49e+00	0	50	104	0	59	18826
2026-01-07 10:36:25.45	181.77	4.19	-43.9	-58.3	3.8	1.49e+00	0	50	104	0	59	18855
2026-01-07 10:36:26.47	181.81	4.26	-43.9	-58.3	3.8	1.49e+00	0	50	104	0	59	18812
2026-01-07 10:36:27.48	181.85	4.33	-43.9	-58.3	3.8	1.49e+00	0	50	104	0	59	18770
2026-01-07 10:36:28.49	181.89	4.40	-43.9	-58.1	3.8	1.49e+00	0	50	104	0	59	18508
2026-01-07 10:36:29.50	181.93	4.47	-43.9	-57.7	3.8	1.49e+00	0	50	104	0	59	17578
2026-01-07 10:36:30.51	181.97	4.54	-43.9	-57.4	3.8	1.49e+00	0	50	104	0	59	16990
2026-01-07 10:36:31.52	182.00	4.61	-43.9	-57.2	3.8	1.49e+00	0	50	104	0	59	16572
2026-01-07 10:36:32.53	182.04	4.67	-43.9	-57.2	3.8	1.49e+00	0	50	104	0	59	16693
2026-01-07 10:36:33.54	182.08	4.74	-43.9	-57.1	3.8	1.49e+00	0	50	104	0	59	16437
2026-01-07 10:36:34.55	182.12	4.81	-43.9	-57.3	3.8	1.49e+00	0	50	104	0	59	16699
2026-01-07 10:36:35.57	182.16	4.88	-43.9	-57.3	3.8	1.49e+00	0	50	104	0	59	16772
2026-01-07 10:36:36.58	182.20	4.95	-43.9	-57.4	3.8	1.49e+00	0	50	104	0	59	17053
2026-01-07 10:36:37.59	182.24	5.02	-43.9	-57.5	3.8	1.49e+00	0	51	104	0	59	17219
2026-01-07 10:36:38.60	182.28	5.09	-43.9	-57.5	3.8	1.49e+00	0	51	104	0	59	17267
2026-01-07 10:36:39.61	182.33	5.16	-43.9	-57.6	3.8	1.49e+00	0	51	104	0	59	17369
2026-01-07 10:36:40.62	182.37	5.23	-43.9	-57.7	3.8	1.49e+00	0	51	104	0	59	17494
2026-01-07 10:36:41.63	182.41	5.31	-43.9	-57.8	3.8	1.49e+00	0	51	104	0	59	17686
2026-01-07 10:36:42.64	182.45	5.38	-43.9	-58.0	3.8	1.49e+00	0	51	104	0	59	18138
2026-01-07 10:36:43.65	182.49	5.45	-43.9	-58.1	3.8	1.49e+00	0	51	104	0	59	18403
2026-01-07 10:36:44.66	182.53	5.52	-43.9	-58.2	3.8	1.49e+00	0	51	104	0	59	18521
2026-01-07 10:36:45.68	182.57	5.59	-43.9	-58.1	3.8	1.49e+00	0	51	104	0	59	18508
2026-01-07 10:36:46.69	182.62	5.66	-43.9	-58.0	3.8	1.49e+00	0	51	104	0	59	18147
2026-01-07 10:36:47.70	182.66	5.73	-43.9	-57.9	3.8	1.49e+00	0	51	104	0	59	18007
2026-01-07 10:36:48.71	182.70	5.81	-43.9	-57.8	3.8	1.49e+00	0	51	104	0	59	17872
2026-01-07 10:36:49.72	182.74	5.88	-43.9	-57.9	3.8	1.49e+00	0	51	104	0	59	17959
2026-01-07 10:36:50.73	182.79	5.95	-43.9	-57.7	3.8	1.49e+00	0	51	104	0	59	17651
2026-01-07 10:36:51.74	182.83	6.02	-43.9	-57.6	3.8	1.49e+00	0	51	104	0	59	17431
2026-01-07 10:36:52.76	182.87	6.10	-43.9	-57.6	3.8	1.49e+00	0	51	104	0	59	17364
2026-01-07 10:36:53.77	182.92	6.17	-43.9	-57.4	3.8	1.49e+00	0	51	104	0	59	17064
2026-01-07 10:36:54.77	182.96	6.24	-43.9	-57.2	3.8	1.49e+00	0	51	104	0	59	16600
2026-01-07 10:36:55.79	183.00	6.32	-43.8	-56.9	3.8	1.49e+00	0	52	104	0	59	16048
2026-01-07 10:36:56.80	183.05	6.39	-43.8	-56.6	3.8	1.49e+00	0	52	104	0	59	15543
2026-01-07 10:36:57.81	183.09	6.46	-43.8	-56.1	3.8	1.49e+00	0	52	104	0	59	14638
2026-01-07 10:36:58.82	183.14	6.54	-43.7	-55.2	4.1	1.45e+00	0	51	0	0	59	13124
2026-01-07 10:36:59.83	183.18	6.61	-43.6	-54.4	4.3	1.37e+00	40	52	0	0	59	12045
2026-01-07 10:37:00.84	183.22	6.69	-43.6	-53.7	4.6	1.13e+00	0	52	0	1048576	59	11065
2026-01-07 10:37:01.85	183.27	6.76	-43.5	-52.7	5.1	7.33e-01	0	52	0	3145728	58	10519
2026-01-07 10:37:02.86	183.31	6.84	-43.3	-51.8	5.7	4.64e-01	0	52	0	5242880	58	9488
2026-01-07 10:37:03.88	183.36	6.91	-43.2	-50.9	6.3	3.39e-01	0	52	0	7340032	58	8518
2026-01-07 10:37:04.88	183.41	6.99	-43.0	-50.1	7.0	2.25e-01	0	52	0	8388608	58	7791
2026-01-07 10:37:05.90	183.45	7.06	-42.8	-49.3	7.8	8.97e-02	0	52	0	10485760	57	7494
2026-01-07 10:37:06.91	183.50	7.14	-42.6	-48.5	8.5	6.19e-02	0	52	0	12582912	57	6859
2026-01-07 10:37:07.91	183.54	7.21	-42.4	-47.9	9.2	2.75e-02	0	52	0	14680064	56	6797
2026-01-07 10:37:08.92	183.59	7.29	-42.1	-47.2	9.9	1.20e-02	0	52	0	16777216	56	6267
2026-01-07 10:37:09.93	183.64	7.36	-41.8	-46.6	10.4	6.81e-03	0	52	0	17825792	55	6185
2026-01-07 10:37:10.94	183.68	7.44	-41.7	-46.3	10.7	3.52e-03	0	52	0	19922944	55	5946
2026-01-07 10:37:11.95	183.73	7.52	-41.4	-45.7	11.3	1.18e-03	0	52	0	22020096	54	5905
2026-01-07 10:37:12.96	183.78	7.59	-41.3	-45.4	11.7	9.89e-04	0	52	0	24117248	54	5672
2026-01-07 10:37:13.97	183.83	7.67	-41.2	-45.1	12.0	5.29e-04	0	52	0	26214400	54	5517
2026-01-07 10:37:14.98	183.88	7.75	-41.1	-45.1	12.0	3.97e-04	0	52	0	27262976	54	5474
2026-01-07 10:37:15.99	183.92	7.83	-41.1	-45.0	12.1	2.39e-04	0	52	0	29360128	54	5419
2026-01-07 10:37:17.00	183.97	7.90	-41.2	-45.2	11.9	1.86e-04	0	52	0	31457280	53	5869
2026-01-07 10:37:18.01	184.02	7.98	-41.1	-45.0	12.0	3.11e-04	0	52	0	33554432	53	5779
2026-01-07 10:37:19.02	184.07	8.06	-41.1	-45.1	12.0	2.72e-04	0	53	0	35651584	53	5822
2026-01-07 10:37:20.03	184.12	8.14	-43.5	-52.0	5.6	1.35e-02	0	53	0	36700160	57	10227
2026-01-07 10:37:21.04	184.17	8.22	-43.5	-54.1	4.4	4.03e-01	43	52	0	38797312	57	13095
2026-01-07 10:37:22.05	184.22	8.30	-42.1	-47.2	10.0	7.97e-04	0	52	0	40894464	54	7002
2026-01-07 10:37:23.06	184.27	8.38	-42.4	-48.1	9.0	7.23e-03	0	52	0	42991616	55	7370
2026-01-07 10:37:24.07	184.32	8.45	-43.1	-50.5	6.7	9.70e-04	0	53	0	45088768	56	9161
2026-01-07 10:37:25.08	184.37	8.53	-41.2	-45.3	11.8	2.49e-03	0	52	0	46137344	54	5594
2026-01-07 10:37:26.09	184.42	8.61	-41.2	-45.1	12.1	3.85e-04	0	53	0	48234496	54	5491
2026-01-07 10:37:27.10	184.47	8.69	-41.1	-45.0	12.2	2.89e-04	0	53	0	50331648	54	5422
2026-01-07 10:37:28.11	184.52	8.77	-41.0	-44.7	12.5	1.24e-04	0	53	0	52428800	53	5590
2026-01-07 10:37:29.12	184.57	8.85	-41.1	-44.9	12.3	1.25e-04	0	53	0	54525952	53	5666
2026-01-07 10:37:30.13	184.62	8.94	-41.0	-44.8	12.4	1.25e-04	0	53	0	55574528	53	5617
2026-01-07 10:37:31.14	184.68	9.02	-41.0	-44.7	12.5	1.23e-04	0	53	0	57671680	53	5555
2026-01-07 10:37:32.15	184.73	9.10	-40.7	-44.2	13.0	6.10e-05	0	53	0	59768832	53	5267
2026-01-07 10:37:33.16	184.78	9.18	-40.8	-44.3	13.0	2.82e-05	0	53	0	61865984	53	5312
2026-01-07 10:37:34.17	184.83	9.26	-40.7	-44.2	13.0	3.96e-05	0	53	0	63963136	53	5276
2026-01-07 10:37:35.18	184.89	9.34	-40.6	-44.0	13.2	2.51e-05	0	53	0	66060288	53	5139
2026-01-07 10:37:36.19	184.94	9.42	-40.7	-44.2	13.0	2.67e-05	0	53	0	67108864	53	5270
2026-01-07 10:37:37.20	185.00	9.51	-40.7	-44.2	13.1	1.98e-05	0	53	0	69206016	53	5231
2026-01-07 10:37:38.21	185.05	9.59	-40.6	-44.1	13.2	2.28e-05	0	53	0	71303168	53	5161
2026-01-07 10:37:39.22	185.10	9.67	-40.7	-44.1	13.2	1.83e-05	0	53	0	73400320	53	5168
2026-01-07 10:37:40.23	185.16	9.76	-40.7	-44.1	13.2	2.74e-05	0	53	0	75497472	53	5160
2026-01-07 10:37:41.24	185.21	9.84	-40.6	-44.0	13.2	1.98e-05	0	53	0	76546048	53	5153
2026-01-07 10:37:42.25	185.27	9.92	-40.7	-44.1	13.2	1.67e-05	0	53	0	78643200	53	5168
2026-01-07 10:37:43.26	185.32	10.01	-40.7	-44.1	13.1	1.98e-05	0	53	0	80740352	53	5194
2026-01-07 10:37:44.27	185.38	10.09	-40.5	-43.9	13.4	1.60e-05	0	53	0	82837504	53	5043
2026-01-07 10:37:45.28	185.44	10.18	-40.5	-43.8	13.5	7.60e-06	0	53	0	84934656	53	4994
2026-01-07 10:37:46.29	185.49	10.26	-40.6	-43.8	13.4	9.10e-06	0	53	0	85983232	52	5328
2026-01-07 10:37:47.30	185.55	10.35	-40.5	-43.8	13.5	1.14e-05	0	53	0	88080384	52	5291
2026-01-07 10:37:48.31	185.61	10.43	-40.6	-43.8	13.5	1.06e-05	0	53	0	90177536	52	5331
2026-01-07 10:37:49.32	185.66	10.52	-40.6	-43.9	13.4	9.90e-06	0	53	0	92274688	52	5346
2026-01-07 10:37:50.33	185.72	10.60	-40.5	-43.8	13.5	1.29e-05	0	53	0	94371840	52	5306
2026-01-07 10:37:51.34	185.78	10.69	-40.5	-43.7	13.7	6.10e-06	0	53	0	95420416	52	5228
2026-01-07 10:37:52.35	185.84	10.78	-40.4	-43.6	13.8	3.80e-06	0	53	0	97517568	52	5174
2026-01-07 10:37:53.36	185.90	10.86	-40.4	-43.6	13.8	6.10e-06	0	53	0	99614720	52	5160
2026-01-07 10:37:54.36	185.95	10.95	-40.4	-43.6	13.8	5.30e-06	0	53	0	101711872	52	5160
2026-01-07 10:37:55.38	186.01	11.04	-40.3	-43.4	14.1	3.00e-06	0	54	0	103809024	52	5062
2026-01-07 10:37:56.38	186.07	11.12	-40.4	-43.4	14.0	1.50e-06	0	54	0	104857600	52	5092
2026-01-07 10:37:57.39	186.13	11.21	-40.4	-43.5	14.0	4.50e-06	0	54	0	106954752	52	5121
2026-01-07 10:37:58.40	186.19	11.30	-40.3	-43.3	14.1	5.30e-06	0	53	0	109051904	52	5002
2026-01-07 10:37:59.41	186.25	11.39	-40.3	-43.3	14.2	5.30e-06	0	53	0	111149056	52	4995
2026-01-07 10:38:00.42	186.32	11.48	-40.3	-43.3	14.1	7.00e-07	0	54	0	113246208	52	5026
2026-01-07 10:38:01.43	186.38	11.57	-40.2	-43.2	14.3	3.00e-06	0	54	0	114294784	52	4961
2026-01-07 10:38:02.44	186.44	11.66	-40.3	-43.3	14.2	0.00e+00	0	54	0	116391936	52	5016
2026-01-07 10:38:03.45	186.50	11.75	-40.3	-43.3	14.1	7.00e-07	0	54	0	118489088	52	5036
2026-01-07 10:38:04.46	186.56	11.84	-40.3	-43.3	14.2	3.00e-06	0	54	0	120586240	52	4996
2026-01-07 10:38:05.47	186.63	11.93	-40.3	-43.2	14.3	2.20e-06	0	54	0	122683392	52	4972
2026-01-07 10:38:06.48	186.69	12.02	-40.2	-43.1	14.4	2.20e-06	0	54	0	123731968	52	4918
2026-01-07 10:38:07.49	186.75	12.11	-40.2	-43.1	14.4	7.00e-07	0	54	0	125829120	52	4906
2026-01-07 10:38:08.50	186.82	12.20	-40.2	-43.1	14.4	7.00e-07	0	54	0	127926272	52	4891
2026-01-07 10:38:09.51	186.88	12.29	-40.2	-43.1	14.4	7.00e-07	0	54	0	130023424	52	4920
2026-01-07 10:38:10.52	186.95	12.38	-40.3	-43.2	14.3	7.00e-07	0	54	0	132120576	52	4966
2026-01-07 10:38:11.53	187.01	12.47	-40.3	-43.2	14.4	1.50e-06	0	54	0	134217728	52	4946
2026-01-07 10:38:12.54	187.08	12.57	-40.2	-43.1	14.4	0.00e+00	0	54	0	135266304	52	4913
2026-01-07 10:38:13.55	187.14	12.66	-40.2	-43.1	14.4	0.00e+00	0	54	0	137363456	52	4908
2026-01-07 10:38:14.56	187.21	12.75	-40.1	-43.0	14.6	0.00e+00	0	54	0	139460608	52	4842
2026-01-07 10:38:15.57	187.27	12.85	-40.1	-42.9	14.6	0.00e+00	0	54	0	141557760	52	4812
2026-01-07 10:38:16.58	187.34	12.94	-40.1	-43.0	14.6	7.00e-07	0	54	0	143654912	52	4831
2026-01-07 10:38:17.59	187.41	13.03	-40.1	-43.0	14.6	0.00e+00	0	54	0	144703488	52	4816
2026-01-07 10:38:18.60	187.48	13.13	-40.1	-42.9	14.7	0.00e+00	0	54	0	146800640	52	4781
2026-01-07 10:38:19.61	187.55	13.22	-40.1	-42.9	14.7	0.00e+00	0	54	0	148897792	52	4780
2026-01-07 10:38:20.62	187.61	13.32	-40.0	-42.8	14.8	0.00e+00	0	54	0	150994944	52	4728
2026-01-07 10:38:21.63	187.68	13.41	-40.0	-42.8	14.8	0.00e+00	0	54	0	153092096	52	4718
2026-01-07 10:38:22.63	187.75	13.51	-40.0	-42.7	14.9	0.00e+00	0	54	0	154140672	52	4682
2026-01-07 10:38:23.64	187.82	13.61	-40.1	-42.8	14.9	0.00e+00	0	54	0	156237824	51	5005
2026-01-07 10:38:24.65	187.89	13.70	-40.1	-42.8	15.0	0.00e+00	0	54	0	158334976	51	4987
2026-01-07 10:38:25.66	187.96	13.80	-40.1	-42.8	14.9	0.00e+00	0	54	0	160432128	51	5006
2026-01-07 10:38:26.67	188.03	13.90	-40.1	-42.8	14.9	0.00e+00	0	54	0	162529280	51	5011
2026-01-07 10:38:27.68	188.11	13.99	-40.0	-42.8	15.0	0.00e+00	0	54	0	163577856	51	4984
2026-01-07 10:38:28.69	188.18	14.09	-40.0	-42.7	15.0	0.00e+00	0	54	0	165675008	51	4953
2026-01-07 10:38:29.70	188.25	14.19	-40.0	-42.7	15.1	7.00e-07	0	54	0	167772160	51	4936
2026-01-07 10:38:30.71	188.32	14.29	-40.0	-42.6	15.1	0.00e+00	0	54	0	169869312	51	4922
2026-01-07 10:38:31.72	188.40	14.39	-39.9	-42.6	15.1	0.00e+00	0	54	0	171966464	51	4898
2026-01-07 10:38:32.73	188.47	14.49	-39.9	-42.6	15.1	0.00e+00	0	54	0	173015040	51	4890
2026-01-07 10:38:33.74	188.55	14.59	-39.9	-42.5	15.2	0.00e+00	0	54	0	175112192	51	4853
2026-01-07 10:38:34.75	188.62	14.69	-39.8	-42.4	15.3	0.00e+00	0	54	0	177209344	51	4788
2026-01-07 10:38:35.76	188.70	14.79	-39.8	-42.4	15.3	0.00e+00	0	54	0	179306496	51	4804
2026-01-07 10:38:36.77	188.77	14.89	-39.8	-42.3	15.4	0.00e+00	0	54	0	181403648	51	4738
2026-01-07 10:38:37.78	188.85	14.99	-39.8	-42.3	15.4	0.00e+00	0	54	0	182452224	51	4752
2026-01-07 10:38:38.79	188.93	15.09	-39.8	-42.4	15.4	0.00e+00	0	54	0	184549376	51	4780
2026-01-07 10:38:39.79	189.00	15.19	-39.8	-42.3	15.5	0.00e+00	0	54	0	186646528	51	4726
2026-01-07 10:38:40.80	189.08	15.29	-39.7	-42.2	15.5	0.00e+00	0	54	0	188743680	51	4687
2026-01-07 10:38:41.81	189.16	15.40	-39.7	-42.2	15.6	7.00e-07	0	54	0	190840832	51	4681
2026-01-07 10:38:42.82	189.24	15.50	-39.7	-42.1	15.6	0.00e+00	0	54	0	191889408	51	4639
2026-01-07 10:38:43.83	189.32	15.60	-39.7	-42.1	15.6	0.00e+00	0	55	0	193986560	51	4649
2026-01-07 10:38:44.84	189.40	15.71	-39.6	-42.1	15.7	0.00e+00	0	54	0	196083712	51	4615
2026-01-07 10:38:45.85	189.48	15.81	-39.6	-42.0	15.7	0.00e+00	0	55	0	198180864	51	4598
2026-01-07 10:38:46.86	189.56	15.91	-39.6	-42.1	15.7	0.00e+00	0	54	0	200278016	51	4599
2026-01-07 10:38:47.87	189.64	16.02	-39.6	-42.0	15.8	0.00e+00	0	54	0	202375168	51	4570
2026-01-07 10:38:48.88	189.72	16.13	-39.5	-41.9	15.9	0.00e+00	0	54	0	203423744	51	4524
2026-01-07 10:38:49.89	189.81	16.23	-39.5	-41.9	16.0	0.00e+00	0	55	0	205520896	51	4503
2026-01-07 10:38:50.91	189.89	16.34	-39.6	-41.9	15.9	0.00e+00	0	54	0	207618048	50	4814
2026-01-07 10:38:51.91	189.97	16.44	-39.5	-41.8	16.0	0.00e+00	0	55	0	209715200	50	4759
2026-01-07 10:38:52.92	190.06	16.55	-39.5	-41.8	16.0	0.00e+00	0	55	0	211812352	50	4745
2026-01-07 10:38:53.93	190.14	16.66	-39.4	-41.8	16.1	0.00e+00	0	54	0	212860928	50	4718
2026-01-07 10:38:54.94	190.23	16.77	-39.4	-41.7	16.1	0.00e+00	0	55	0	214958080	50	4684
2026-01-07 10:38:55.95	190.32	16.87	-39.4	-41.7	16.1	0.00e+00	0	54	0	217055232	50	4680
2026-01-07 10:38:56.96	190.40	16.98	-39.4	-41.7	16.1	0.00e+00	0	55	0	219152384	50	4689
2026-01-07 10:38:57.97	190.49	17.09	-39.4	-41.7	16.2	0.00e+00	0	55	0	221249536	50	4679
2026-01-07 10:38:58.98	190.58	17.20	-39.3	-41.6	16.3	0.00e+00	0	55	0	222298112	50	4601
2026-01-07 10:38:59.99	190.67	17.31	-39.3	-41.6	16.3	0.00e+00	0	54	0	224395264	50	4607
2026-01-07 10:39:00.99	190.75	17.42	-39.3	-41.5	16.3	0.00e+00	0	55	0	226492416	50	4596
2026-01-07 10:39:02.01	190.85	17.53	-39.3	-41.6	16.3	0.00e+00	0	55	0	228589568	50	4603
2026-01-07 10:39:03.02	190.94	17.65	-39.3	-41.5	16.3	0.00e+00	0	55	0	230686720	50	4585
2026-01-07 10:39:04.03	191.03	17.76	-39.3	-41.5	16.3	0.00e+00	0	55	0	231735296	50	4590
2026-01-07 10:39:05.03	191.12	17.87	-39.3	-41.5	16.4	0.00e+00	0	55	0	233832448	50	4581
2026-01-07 10:39:06.04	191.21	17.98	-39.2	-41.5	16.4	0.00e+00	0	55	0	235929600	50	4561
2026-01-07 10:39:07.05	191.30	18.09	-39.2	-41.4	16.4	0.00e+00	0	55	0	238026752	50	4543
2026-01-07 10:39:08.06	191.40	18.21	-39.3	-41.5	16.4	0.00e+00	0	55	0	240123904	50	4582
2026-01-07 10:39:09.07	191.49	18.32	-39.2	-41.5	16.4	0.00e+00	0	55	0	241172480	50	4558
2026-01-07 10:39:10.08	191.59	18.44	-39.2	-41.5	16.4	0.00e+00	0	55	0	243269632	50	4557
2026-01-07 10:39:11.09	191.68	18.55	-39.3	-41.5	16.4	0.00e+00	0	55	0	245366784	50	4573
2026-01-07 10:39:12.10	191.78	18.67	-39.3	-41.6	16.3	0.00e+00	0	55	0	247463936	50	4613
2026-01-07 10:39:13.11	191.88	18.78	-39.3	-41.6	16.3	0.00e+00	0	55	0	249561088	50	4608
2026-01-07 10:39:14.12	191.98	18.90	-39.3	-41.6	16.3	0.00e+00	0	55	0	250609664	50	4602
2026-01-07 10:39:15.13	192.07	19.02	-39.3	-41.5	16.3	0.00e+00	0	55	0	252706816	50	4597
2026-01-07 10:39:16.14	192.17	19.13	-39.3	-41.6	16.4	0.00e+00	0	55	0	254803968	50	4607
2026-01-07 10:39:17.15	192.27	19.25	-39.3	-41.6	16.4	0.00e+00	0	55	0	256901120	50	4603
2026-01-07 10:39:18.16	192.38	19.37	-39.3	-41.6	16.4	0.00e+00	0	55	0	258998272	50	4611
2026-01-07 10:39:19.17	192.48	19.49	-39.4	-41.7	16.3	0.00e+00	0	55	0	260046848	50	4658
2026-01-07 10:39:20.18	192.58	19.61	-39.4	-41.7	16.3	0.00e+00	0	55	0	262144000	50	4673
2026-01-07 10:39:21.19	192.68	19.73	-39.4	-41.7	16.2	0.00e+00	0	55	0	264241152	50	4685
2026-01-07 10:39:22.20	192.79	19.85	-39.4	-41.7	16.2	0.00e+00	0	55	0	266338304	50	4694
2026-01-07 10:39:23.21	192.89	19.97	-39.4	-41.7	16.2	0.00e+00	0	55	0	268435456	50	4690
2026-01-07 10:39:24.22	193.00	20.09	-39.4	-41.7	16.3	0.00e+00	0	55	0	270532608	50	4668
2026-01-07 10:39:25.23	193.10	20.21	-39.3	-41.6	16.4	0.00e+00	0	55	0	271581184	50	4626
2026-01-07 10:39:26.24	193.21	20.33	-39.4	-41.7	16.3	0.00e+00	0	55	0	273678336	50	4672
2026-01-07 10:39:27.25	193.32	20.46	-39.4	-41.7	16.3	0.00e+00	0	55	0	275775488	50	4666
2026-01-07 10:39:28.26	193.43	20.58	-39.3	-41.6	16.4	0.00e+00	0	55	0	277872640	50	4604
2026-01-07 10:39:29.27	193.54	20.70	-39.3	-41.6	16.4	0.00e+00	0	55	0	279969792	50	4612
2026-01-07 10:39:30.28	193.65	20.83	-39.3	-41.6	16.4	0.00e+00	0	55	0	281018368	50	4611
2026-01-07 10:39:31.28	193.76	20.95	-39.4	-41.6	16.4	0.00e+00	0	55	0	283115520	50	4640
2026-01-07 10:39:32.29	193.87	21.07	-39.3	-41.5	16.4	0.00e+00	0	55	0	285212672	50	4596
2026-01-07 10:39:33.30	193.98	21.20	-39.3	-41.5	16.5	0.00e+00	0	55	0	287309824	50	4566
2026-01-07 10:39:34.32	194.10	21.33	-39.2	-41.4	16.6	0.00e+00	0	55	0	289406976	50	4535
2026-01-07 10:39:35.32	194.21	21.45	-39.2	-41.4	16.6	0.00e+00	0	55	0	290455552	50	4542
2026-01-07 10:39:36.33	194.33	21.58	-39.2	-41.4	16.6	0.00e+00	0	55	0	292552704	50	4510
2026-01-07 10:39:37.35	194.45	21.71	-39.1	-41.3	16.7	0.00e+00	0	55	0	294649856	50	4461
2026-01-07 10:39:38.35	194.56	21.84	-39.1	-41.3	16.8	0.00e+00	0	55	0	296747008	50	4444
2026-01-07 10:39:39.36	194.68	21.97	-39.1	-41.2	16.8	0.00e+00	0	55	0	298844160	50	4437
2026-01-07 10:39:40.37	194.80	22.10	-39.1	-41.3	16.8	0.00e+00	0	55	0	299892736	50	4442
2026-01-07 10:39:41.38	194.92	22.23	-39.1	-41.2	16.8	0.00e+00	0	55	0	301989888	50	4425
2026-01-07 10:39:42.39	195.05	22.36	-39.1	-41.3	16.7	0.00e+00	0	55	0	304087040	50	4475
2026-01-07 10:39:43.40	195.17	22.49	-39.1	-41.3	16.7	0.00e+00	0	55	0	306184192	50	4475
2026-01-07 10:39:44.41	195.29	22.62	-39.1	-41.3	16.7	0.00e+00	0	55	0	308281344	50	4477
2026-01-07 10:39:45.42	195.42	22.75	-39.1	-41.3	16.7	0.00e+00	0	55	0	309329920	50	4461
2026-01-07 10:39:46.43	195.54	22.88	-39.1	-41.3	16.7	0.00e+00	0	55	0	311427072	50	4468
2026-01-07 10:39:47.44	195.67	23.02	-39.1	-41.3	16.7	0.00e+00	0	55	0	313524224	50	4456
2026-01-07 10:39:48.45	195.80	23.15	-39.1	-41.3	16.8	0.00e+00	0	55	0	315621376	50	4445
2026-01-07 10:39:49.46	195.93	23.28	-39.1	-41.2	16.8	0.00e+00	0	55	0	317718528	50	4440
2026-01-07 10:39:50.47	196.06	23.42	-39.1	-41.3	16.7	0.00e+00	0	55	0	318767104	50	4464
2026-01-07 10:39:51.48	196.19	23.56	-39.2	-41.3	16.7	0.00e+00	0	55	0	320864256	50	4487
2026-01-07 10:39:52.48	196.32	23.69	-39.2	-41.4	16.6	0.00e+00	0	55	0	322961408	50	4526
2026-01-07 10:39:53.49	196.45	23.83	-39.3	-41.5	16.5	0.00e+00	0	55	0	325058560	50	4584
2026-01-07 10:39:54.51	196.59	23.96	-39.4	-41.6	16.5	0.00e+00	0	55	0	327155712	50	4625
2026-01-07 10:39:55.52	196.72	24.10	-39.4	-41.6	16.5	0.00e+00	0	55	0	328204288	50	4636
2026-01-07 10:39:56.53	196.86	24.24	-39.5	-41.8	16.3	0.00e+00	0	55	0	330301440	50	4716
2026-01-07 10:39:57.54	197.00	24.38	-39.5	-41.8	16.3	0.00e+00	0	55	0	332398592	50	4743
2026-01-07 10:39:58.55	197.14	24.52	-39.6	-41.9	16.2	0.00e+00	0	55	0	334495744	50	4760
2026-01-07 10:39:59.55	197.28	24.66	-39.5	-41.8	16.3	0.00e+00	0	55	0	336592896	50	4745
2026-01-07 10:40:00.56	197.42	24.80	-39.6	-41.8	16.3	0.00e+00	0	55	0	338690048	50	4757
2026-01-07 10:40:01.57	197.56	24.94	-39.6	-41.9	16.2	0.00e+00	0	55	0	339738624	50	4788
2026-01-07 10:40:02.59	197.71	25.08	-39.5	-41.8	16.2	0.00e+00	0	55	0	341835776	50	4749
2026-01-07 10:40:03.59	197.85	25.22	-39.6	-41.9	16.2	0.00e+00	0	55	0	343932928	50	4770
2026-01-07 10:40:04.60	198.00	25.37	-39.6	-41.9	16.2	0.00e+00	0	56	0	346030080	50	4785
2026-01-07 10:40:05.61	198.14	25.51	-39.6	-42.0	16.2	0.00e+00	0	55	0	348127232	50	4817
2026-01-07 10:40:06.63	198.30	25.66	-39.6	-41.9	16.2	0.00e+00	0	55	0	349175808	50	4811
2026-01-07 10:40:07.64	198.45	25.80	-39.6	-42.0	16.1	0.00e+00	0	55	0	351272960	50	4824
2026-01-07 10:40:08.65	198.60	25.94	-39.7	-42.0	16.1	0.00e+00	0	55	0	353370112	50	4842
2026-01-07 10:40:09.66	198.75	26.09	-39.7	-42.1	16.0	0.00e+00	0	55	0	355467264	50	4897
2026-01-07 10:40:10.67	198.91	26.24	-39.8	-42.2	16.0	0.00e+00	0	55	0	357564416	50	4933
2026-01-07 10:40:11.68	199.06	26.38	-39.8	-42.2	16.0	0.00e+00	0	55	0	358612992	50	4930
2026-01-07 10:40:12.69	199.22	26.53	-39.8	-42.1	16.0	0.00e+00	0	55	0	360710144	50	4917
2026-01-07 10:40:13.70	199.38	26.68	-39.8	-42.2	15.9	0.00e+00	0	55	0	362807296	50	4947
2026-01-07 10:40:14.71	199.54	26.83	-39.8	-42.2	15.9	0.00e+00	0	55	0	364904448	50	4957
2026-01-07 10:40:15.71	199.70	26.98	-39.8	-42.1	16.0	0.00e+00	0	55	0	367001600	50	4919
2026-01-07 10:40:16.72	199.86	27.13	-39.9	-42.3	15.9	0.00e+00	0	55	0	368050176	50	5001
2026-01-07 10:40:17.74	200.03	27.28	-39.9	-42.4	15.7	0.00e+00	0	55	0	370147328	50	5074
2026-01-07 10:40:18.75	200.19	27.43	-40.1	-42.6	15.6	0.00e+00	0	56	0	372244480	50	5179
2026-01-07 10:40:19.76	200.36	27.58	-40.2	-42.8	15.3	0.00e+00	0	55	0	374341632	51	5016
2026-01-07 10:40:20.76	200.53	27.73	-40.3	-42.8	15.3	0.00e+00	0	56	0	376438784	51	5040
2026-01-07 10:40:21.77	200.70	27.88	-40.3	-43.0	15.2	0.00e+00	0	55	0	377487360	51	5117
2026-01-07 10:40:22.78	200.87	28.04	-40.4	-43.1	15.0	0.00e+00	0	55	0	379584512	51	5205
2026-01-07 10:40:23.80	201.05	28.19	-40.5	-43.2	14.9	0.00e+00	0	55	0	381681664	51	5279
2026-01-07 10:40:24.81	201.23	28.35	-40.6	-43.4	14.7	0.00e+00	0	55	0	383778816	51	5379
2026-01-07 10:40:25.82	201.40	28.50	-40.6	-43.3	14.8	0.00e+00	0	55	0	385875968	51	5320
2026-01-07 10:40:26.82	201.58	28.66	-40.6	-43.4	14.8	0.00e+00	0	56	0	386924544	51	5384
2026-01-07 10:40:27.83	201.76	28.81	-40.7	-43.5	14.7	0.00e+00	0	55	0	389021696	51	5445
2026-01-07 10:40:28.84	201.94	28.97	-40.7	-43.6	14.4	0.00e+00	0	56	0	391118848	52	5195
2026-01-07 10:40:29.85	202.13	29.13	-40.8	-43.7	14.4	0.00e+00	0	55	0	393216000	52	5261
2026-01-07 10:40:30.86	202.31	29.28	-40.9	-43.9	14.2	2.20e-06	0	55	0	395313152	52	5359
2026-01-07 10:40:31.87	202.50	29.44	-41.0	-44.0	14.0	0.00e+00	0	56	0	397410304	52	5449
2026-01-07 10:40:32.88	202.69	29.60	-41.0	-44.0	14.1	7.00e-07	0	56	0	398458880	52	5453
2026-01-07 10:40:33.89	202.88	29.76	-41.0	-44.1	14.0	3.80e-06	0	55	0	400556032	52	5494
2026-01-07 10:40:34.90	203.08	29.92	-41.2	-44.4	13.7	3.80e-06	0	55	0	402653184	52	5664
2026-01-07 10:40:35.91	203.27	30.08	-41.3	-44.6	13.5	1.29e-05	0	55	0	404750336	53	5489
2026-01-07 10:40:36.92	203.47	30.24	-41.4	-44.9	13.2	2.28e-05	0	56	0	406847488	53	5673
2026-01-07 10:40:37.93	203.67	30.41	-41.5	-44.9	13.2	2.21e-05	0	56	0	407896064	53	5707
2026-01-07 10:40:38.94	203.87	30.57	-41.5	-45.0	13.1	3.20e-05	0	56	0	409993216	53	5741
2026-01-07 10:40:39.95	204.07	30.73	-41.4	-44.8	13.3	1.90e-05	0	56	0	412090368	53	5629
2026-01-07 10:40:40.96	204.28	30.89	-41.4	-44.7	13.3	1.83e-05	0	55	0	414187520	53	5589
2026-01-07 10:40:41.97	204.49	31.06	-41.4	-44.7	13.4	1.83e-05	0	56	0	416284672	53	5570
2026-01-07 10:40:42.98	204.70	31.22	-41.5	-44.9	13.2	1.52e-05	0	56	0	417333248	53	5665
2026-01-07 10:40:43.98	204.90	31.39	-41.4	-44.8	13.3	1.44e-05	0	56	0	419430400	53	5617
2026-01-07 10:40:44.99	205.12	31.55	-41.5	-45.0	13.1	2.05e-05	0	56	0	421527552	53	5739
2026-01-07 10:40:46.00	205.33	31.72	-41.5	-44.9	13.2	2.44e-05	0	56	0	423624704	53	5698
2026-01-07 10:40:47.01	205.55	31.88	-41.5	-45.0	13.1	3.73e-05	0	55	0	425721856	53	5750
2026-01-07 10:40:48.02	205.77	32.05	-41.4	-44.8	13.3	2.89e-05	0	56	0	426770432	53	5613
2026-01-07 10:40:49.03	205.99	32.22	-41.5	-44.9	13.2	2.82e-05	0	56	0	428867584	53	5722
2026-01-07 10:40:50.04	206.22	32.39	-41.4	-44.7	13.4	1.75e-05	0	56	0	430964736	53	5553
2026-01-07 10:40:51.05	206.45	32.55	-41.3	-44.5	13.6	9.90e-06	0	56	0	433061888	53	5454
2026-01-07 10:40:52.06	206.67	32.72	-41.1	-44.2	14.0	6.80e-06	0	56	0	435159040	53	5254
2026-01-07 10:40:53.07	206.91	32.89	-41.0	-44.0	14.2	7.00e-07	0	56	0	436207616	53	5116
2026-01-07 10:40:54.08	207.14	33.06	-40.9	-43.8	14.4	3.80e-06	0	56	0	438304768	53	5015
2026-01-07 10:40:55.09	207.38	33.23	-40.9	-43.9	14.3	2.20e-06	0	56	0	440401920	53	5075
2026-01-07 10:40:56.10	207.61	33.40	-41.0	-44.0	14.3	0.00e+00	0	56	0	442499072	53	5111
2026-01-07 10:40:57.11	207.86	33.57	-41.0	-44.0	14.2	0.00e+00	0	56	0	444596224	53	5102
2026-01-07 10:40:58.12	208.10	33.75	-41.0	-44.0	14.2	7.00e-07	0	56	0	445644800	53	5123
2026-01-07 10:40:59.13	208.35	33.92	-40.8	-43.6	14.5	7.00e-07	0	56	0	447741952	53	4923
2026-01-07 10:41:00.14	208.59	34.09	-40.6	-43.3	14.9	7.00e-07	0	56	0	449839104	53	4759
2026-01-07 10:41:01.15	208.85	34.26	-40.4	-43.1	15.1	7.00e-07	0	56	0	451936256	52	4883
2026-01-07 10:41:02.16	209.10	34.43	-40.4	-43.0	15.2	0.00e+00	0	56	0	454033408	52	4832
2026-01-07 10:41:03.17	209.36	34.61	-40.4	-43.0	15.2	0.00e+00	0	56	0	455081984	52	4865
2026-01-07 10:41:04.18	209.62	34.78	-40.4	-43.1	15.2	0.00e+00	0	56	0	457179136	52	4879
2026-01-07 10:41:05.19	209.88	34.96	-40.4	-43.1	15.1	0.00e+00	0	56	0	459276288	52	4910
2026-01-07 10:41:06.20	210.14	35.13	-40.5	-43.2	15.0	7.00e-07	0	56	0	461373440	52	4946
2026-01-07 10:41:07.21	210.41	35.30	-40.3	-42.8	15.4	0.00e+00	0	56	0	463470592	52	4755
2026-01-07 10:41:08.22	210.68	35.48	-40.1	-42.6	15.6	0.00e+00	0	56	0	464519168	52	4650
2026-01-07 10:41:09.23	210.95	35.65	-39.9	-42.2	16.1	0.00e+00	0	56	0	466616320	51	4689
2026-01-07 10:41:10.23	211.23	35.83	-39.8	-42.2	16.1	0.00e+00	0	56	0	468713472	51	4658
2026-01-07 10:41:11.24	211.51	36.00	-39.9	-42.2	16.1	0.00e+00	0	56	0	470810624	51	4680
2026-01-07 10:41:12.25	211.79	36.18	-40.0	-42.4	16.0	0.00e+00	0	56	0	472907776	51	4773
2026-01-07 10:41:13.26	212.07	36.35	-40.1	-42.6	15.8	0.00e+00	0	56	0	475004928	51	4875
2026-01-07 10:41:14.27	212.36	36.53	-40.1	-42.5	15.8	0.00e+00	0	56	0	476053504	51	4848
2026-01-07 10:41:15.28	212.65	36.71	-40.1	-42.6	15.7	0.00e+00	0	56	0	478150656	51	4882
2026-01-07 10:41:16.29	212.95	36.88	-40.1	-42.5	15.8	0.00e+00	0	56	0	480247808	51	4833
2026-01-07 10:41:17.30	213.24	37.06	-39.9	-42.3	16.0	0.00e+00	0	56	0	482344960	51	4719
2026-01-07 10:41:18.32	213.55	37.24	-39.7	-42.0	16.3	0.00e+00	0	56	0	484442112	51	4584
2026-01-07 10:41:19.33	213.85	37.41	-39.6	-41.8	16.6	0.00e+00	0	56	0	485490688	51	4453
2026-01-07 10:41:20.34	214.16	37.59	-39.5	-41.6	16.7	0.00e+00	0	56	0	487587840	50	4649
2026-01-07 10:41:21.34	214.47	37.76	-39.3	-41.4	16.9	0.00e+00	0	56	0	489684992	50	4533
2026-01-07 10:41:22.36	214.78	37.94	-39.2	-41.2	17.1	0.00e+00	0	56	0	491782144	50	4438
2026-01-07 10:41:23.37	215.10	38.12	-39.2	-41.2	17.1	0.00e+00	0	56	0	493879296	50	4436
2026-01-07 10:41:24.38	215.42	38.30	-39.3	-41.4	16.9	0.00e+00	0	56	0	494927872	50	4526
2026-01-07 10:41:25.38	215.74	38.47	-39.5	-41.6	16.7	0.00e+00	0	56	0	497025024	50	4641
2026-01-07 10:41:26.39	216.07	38.65	-39.8	-42.0	16.3	0.00e+00	0	56	0	499122176	50	4869
2026-01-07 10:41:27.40	216.40	38.82	-39.9	-42.2	16.1	0.00e+00	0	56	0	501219328	50	4976
2026-01-07 10:41:28.41	216.73	39.00	-40.1	-42.5	15.9	0.00e+00	0	56	0	503316480	50	5134
2026-01-07 10:41:29.42	217.07	39.17	-40.0	-42.4	15.9	0.00e+00	0	56	0	504365056	50	5072
2026-01-07 10:41:30.43	217.41	39.35	-40.0	-42.4	16.0	0.00e+00	0	56	0	506462208	50	5055
2026-01-07 10:41:31.44	217.76	39.53	-39.7	-41.9	16.4	0.00e+00	0	56	0	508559360	50	4812
2026-01-07 10:41:32.46	218.11	39.70	-39.7	-41.9	16.4	0.00e+00	0	56	0	510656512	50	4798
2026-01-07 10:41:33.46	218.46	39.88	-39.7	-42.0	16.3	0.00e+00	0	56	0	512753664	50	4852
2026-01-07 10:41:34.47	218.82	40.05	-39.8	-42.2	16.2	0.00e+00	0	56	0	513802240	50	4935
2026-01-07 10:41:35.48	219.18	40.22	-40.0	-42.4	16.0	0.00e+00	0	56	0	515899392	50	5062
2026-01-07 10:41:36.49	219.54	40.40	-40.2	-42.7	15.6	0.00e+00	0	56	0	517996544	51	4981
2026-01-07 10:41:37.50	219.91	40.57	-40.3	-42.8	15.6	0.00e+00	0	56	0	520093696	51	5005
2026-01-07 10:41:38.52	220.28	40.75	-40.2	-42.7	15.6	0.00e+00	0	56	0	522190848	51	4965
2026-01-07 10:41:39.53	220.66	40.92	-40.2	-42.7	15.7	0.00e+00	0	56	0	523239424	51	4933
2026-01-07 10:41:40.54	221.04	41.09	-40.3	-42.8	15.5	0.00e+00	0	56	0	525336576	51	5023
2026-01-07 10:41:41.55	221.42	41.26	-40.4	-42.9	15.4	0.00e+00	0	56	0	527433728	51	5087
2026-01-07 10:41:42.56	221.81	41.43	-40.5	-43.2	15.1	0.00e+00	0	56	0	529530880	51	5258
2026-01-07 10:41:43.57	222.20	41.60	-40.5	-43.1	15.2	0.00e+00	0	56	0	531628032	51	5217
2026-01-07 10:41:44.58	222.60	41.77	-40.5	-43.2	15.1	0.00e+00	0	56	0	533725184	51	5248
2026-01-07 10:41:45.59	223.00	41.94	-40.5	-43.2	15.1	0.00e+00	0	56	0	534773760	51	5249
2026-01-07 10:41:46.60	223.40	42.11	-40.7	-43.4	15.0	0.00e+00	0	56	0	536870912	51	5360
2026-01-07 10:41:47.61	223.81	42.27	-40.6	-43.3	15.0	0.00e+00	0	56	0	538968064	51	5329
2026-01-07 10:41:48.62	224.22	42.44	-40.6	-43.4	14.9	7.00e-07	0	56	0	541065216	52	5071
2026-01-07 10:41:49.62	224.64	42.60	-40.6	-43.3	14.9	0.00e+00	0	56	0	543162368	52	5036
2026-01-07 10:41:50.63	225.06	42.77	-40.5	-43.2	15.0	0.00e+00	0	56	0	544210944	52	4962
2026-01-07 10:41:51.64	225.48	42.93	-40.5	-43.1	15.2	0.00e+00	0	56	0	546308096	52	4906
2026-01-07 10:41:52.65	225.91	43.09	-40.6	-43.3	14.9	0.00e+00	0	56	0	548405248	52	5041
2026-01-07 10:41:53.66	226.35	43.25	-40.6	-43.4	14.9	0.00e+00	0	56	0	550502400	52	5048
2026-01-07 10:41:54.67	226.78	43.41	-40.4	-43.1	15.2	0.00e+00	0	56	0	552599552	52	4872
2026-01-07 10:41:55.68	227.23	43.57	-40.4	-43.0	15.4	0.00e+00	0	56	0	553648128	52	4818
2026-01-07 10:41:56.69	227.67	43.73	-40.3	-42.8	15.5	0.00e+00	0	56	0	555745280	52	4757
2026-01-07 10:41:57.70	228.12	43.89	-40.4	-43.0	15.3	0.00e+00	0	56	0	557842432	52	4825
2026-01-07 10:41:58.71	228.58	44.04	-40.4	-43.0	15.3	0.00e+00	0	56	0	559939584	52	4856
2026-01-07 10:41:59.72	229.04	44.19	-40.5	-43.1	15.2	0.00e+00	0	56	0	562036736	52	4908
2026-01-07 10:42:00.73	229.50	44.35	-40.6	-43.2	15.1	0.00e+00	0	56	0	563085312	52	4977
2026-01-07 10:42:01.74	229.97	44.50	-40.6	-43.4	14.9	7.00e-07	0	56	0	565182464	52	5051
2026-01-07 10:42:02.75	230.44	44.65	-40.5	-43.1	15.2	0.00e+00	0	56	0	567279616	52	4888
2026-01-07 10:42:03.76	230.92	44.79	-40.3	-42.8	15.5	0.00e+00	0	56	0	569376768	52	4733
2026-01-07 10:42:04.77	231.40	44.94	-40.1	-42.6	15.8	0.00e+00	0	56	0	571473920	52	4626
2026-01-07 10:42:05.78	231.89	45.08	-40.2	-42.7	15.7	0.00e+00	0	56	0	572522496	52	4660
2026-01-07 10:42:06.78	232.37	45.22	-40.3	-42.8	15.4	0.00e+00	0	56	0	574619648	52	4754
2026-01-07 10:42:07.79	232.87	45.36	-40.6	-43.3	15.1	0.00e+00	0	56	0	576716800	52	4986
2026-01-07 10:42:08.80	233.37	45.50	-40.7	-43.5	14.8	7.00e-07	0	56	0	578813952	52	5129
2026-01-07 10:42:09.81	233.87	45.64	-40.8	-43.6	14.7	0.00e+00	0	56	0	580911104	52	5201
2026-01-07 10:42:10.82	234.38	45.78	-40.8	-43.6	14.8	7.00e-07	0	56	0	581959680	52	5161
2026-01-07 10:42:11.83	234.89	45.91	-40.5	-43.2	15.2	0.00e+00	0	56	0	584056832	52	4956
2026-01-07 10:42:12.84	235.41	46.04	-40.3	-42.9	15.4	0.00e+00	0	56	0	586153984	52	4766
2026-01-07 10:42:13.85	235.93	46.17	-40.3	-42.9	15.5	0.00e+00	0	56	0	588251136	52	4775
2026-01-07 10:42:14.86	236.45	46.29	-40.5	-43.1	15.2	0.00e+00	0	56	0	590348288	52	4910
2026-01-07 10:42:15.87	236.98	46.42	-40.7	-43.4	15.0	7.00e-07	0	56	0	591396864	52	5058
2026-01-07 10:42:16.88	237.51	46.54	-41.0	-44.0	14.4	1.50e-06	0	56	0	593494016	52	5410
2026-01-07 10:42:17.89	238.05	46.66	-41.2	-44.4	13.9	2.20e-06	0	56	0	595591168	53	5343
2026-01-07 10:42:18.90	238.59	46.78	-41.5	-44.8	13.5	6.80e-06	0	56	0	597688320	53	5621
2026-01-07 10:42:19.91	239.13	46.89	-41.4	-44.7	13.5	1.52e-05	0	56	0	599785472	53	5580
2026-01-07 10:42:20.92	239.68	47.01	-41.5	-44.8	13.5	1.52e-05	0	56	0	601882624	53	5640
2026-01-07 10:42:21.93	240.23	47.12	-41.5	-44.8	13.4	9.90e-06	0	56	0	602931200	53	5622
2026-01-07 10:42:22.94	240.79	47.22	-41.5	-44.8	13.5	9.90e-06	0	56	0	605028352	53	5621
2026-01-07 10:42:23.95	241.35	47.33	-41.3	-44.5	13.7	8.30e-06	0	56	0	607125504	53	5460
2026-01-07 10:42:24.96	241.91	47.43	-41.2	-44.3	14.0	5.30e-06	0	56	0	609222656	53	5328
2026-01-07 10:42:25.97	242.48	47.53	-41.3	-44.5	13.8	6.80e-06	0	56	0	611319808	53	5447
2026-01-07 10:42:26.98	243.05	47.63	-41.4	-44.7	13.6	9.10e-06	0	56	0	612368384	53	5586
2026-01-07 10:42:27.99	243.63	47.72	-41.6	-45.1	13.2	1.44e-05	0	56	0	614465536	53	5799
2026-01-07 10:42:29.00	244.20	47.81	-41.8	-45.4	12.9	2.51e-05	0	56	0	616562688	54	5669
2026-01-07 10:42:30.01	244.79	47.90	-41.8	-45.3	13.0	3.43e-05	0	56	0	618659840	54	5604
2026-01-07 10:42:31.02	245.37	47.98	-41.7	-45.1	13.2	4.11e-05	0	56	0	620756992	54	5527
2026-01-07 10:42:32.02	245.95	48.06	-41.5	-44.7	13.6	9.90e-06	0	56	0	621805568	54	5262
2026-01-07 10:42:33.03	246.54	48.14	-41.4	-44.6	13.7	6.80e-06	0	56	0	623902720	54	5201
2026-01-07 10:42:34.04	247.13	48.22	-41.5	-44.8	13.5	8.30e-06	0	56	0	625999872	54	5298
2026-01-07 10:42:35.06	247.74	48.29	-41.7	-45.2	13.2	1.22e-05	0	56	0	628097024	54	5581
2026-01-07 10:42:36.07	248.34	48.36	-41.8	-45.4	12.9	6.71e-05	0	56	0	630194176	54	5702
2026-01-07 10:42:37.07	248.93	48.43	-41.8	-45.3	13.0	4.80e-05	0	56	0	631242752	54	5635
2026-01-07 10:42:38.09	249.54	48.49	-41.4	-44.7	13.6	2.21e-05	0	56	0	633339904	54	5236
2026-01-07 10:42:39.10	250.15	48.55	-41.2	-44.3	14.0	3.00e-06	0	56	0	635437056	54	5017
2026-01-07 10:42:40.10	250.75	48.61	-41.0	-44.0	14.3	0.00e+00	0	56	0	637534208	54	4853
2026-01-07 10:42:41.11	251.36	48.66	-41.1	-44.2	14.1	7.00e-07	0	56	0	639631360	54	4928
2026-01-07 10:42:42.12	251.97	48.71	-41.2	-44.3	14.0	7.00e-07	0	56	0	640679936	54	5013
2026-01-07 10:42:43.13	252.59	48.76	-41.4	-44.7	13.6	7.60e-06	0	56	0	642777088	54	5233
2026-01-07 10:42:44.14	253.20	48.80	-41.5	-44.9	13.4	1.75e-05	0	56	0	644874240	54	5364
2026-01-07 10:42:45.15	253.82	48.84	-41.3	-44.4	13.8	9.90e-06	0	56	0	646971392	54	5100
2026-01-07 10:42:46.16	254.44	48.87	-41.2	-44.2	14.0	2.20e-06	0	56	0	649068544	54	4963
2026-01-07 10:42:47.17	255.06	48.91	-41.2	-44.3	14.0	3.00e-06	0	56	0	650117120	54	5037
2026-01-07 10:42:48.18	255.68	48.93	-41.3	-44.5	13.8	3.80e-06	0	56	0	652214272	54	5129
2026-01-07 10:42:49.19	256.31	48.96	-41.4	-44.6	13.7	6.80e-06	0	56	0	654311424	54	5177
2026-01-07 10:42:50.20	256.93	48.98	-41.1	-44.2	14.2	1.50e-06	0	56	0	656408576	54	4945
2026-01-07 10:42:51.21	257.55	49.00	-41.0	-43.9	14.4	1.50e-06	0	56	0	658505728	53	5088
2026-01-07 10:42:52.22	258.18	49.01	-40.9	-43.8	14.5	7.00e-07	0	56	0	659554304	53	5008
2026-01-07 10:42:53.23	258.81	49.02	-40.7	-43.5	14.9	0.00e+00	0	56	0	661651456	53	4823
2026-01-07 10:42:54.24	259.43	49.03	-40.9	-43.8	14.5	1.50e-06	0	56	0	663748608	53	4989
2026-01-07 10:42:55.25	260.06	49.04	-41.0	-44.0	14.3	7.00e-07	0	56	0	665845760	53	5136
2026-01-07 10:42:56.26	260.68	49.04	-40.8	-43.7	14.7	0.00e+00	0	56	0	667942912	53	4931
2026-01-07 10:42:57.27	261.31	49.03	-40.5	-43.1	15.2	0.00e+00	0	56	0	668991488	53	4650
2026-01-07 10:42:58.28	261.94	49.03	-40.5	-43.2	15.1	0.00e+00	0	56	0	671088640	52	4968
2026-01-07 10:42:59.29	262.56	49.02	-40.8	-43.6	14.7	0.00e+00	0	56	0	673185792	52	5201
2026-01-07 10:43:00.30	263.19	49.00	-40.7	-43.5	14.8	0.00e+00	0	56	0	675282944	52	5106
2026-01-07 10:43:01.31	263.81	48.98	-40.4	-43.0	15.4	0.00e+00	0	56	0	677380096	52	4831
2026-01-07 10:43:02.32	264.43	48.96	-40.3	-42.8	15.6	0.00e+00	0	56	0	679477248	52	4723
2026-01-07 10:43:03.33	265.06	48.94	-40.4	-43.1	15.4	0.00e+00	0	56	0	680525824	52	4887
2026-01-07 10:43:04.34	265.68	48.91	-40.5	-43.2	15.2	0.00e+00	0	56	0	682622976	52	4939
2026-01-07 10:43:05.35	266.30	48.88	-40.8	-43.6	14.7	0.00e+00	0	56	0	684720128	52	5200
2026-01-07 10:43:06.36	266.92	48.84	-41.0	-44.0	14.2	0.00e+00	0	56	0	686817280	52	5431
2026-01-07 10:43:07.37	267.54	48.80	-41.0	-44.0	14.4	2.20e-06	0	56	0	688914432	52	5453
2026-01-07 10:43:08.38	268.15	48.76	-40.6	-43.3	15.0	1.50e-06	0	56	0	689963008	52	5006
2026-01-07 10:43:09.39	268.77	48.71	-40.6	-43.3	15.0	0.00e+00	0	56	0	692060160	52	5033
2026-01-07 10:43:10.40	269.38	48.66	-40.8	-43.7	14.7	0.00e+00	0	56	0	694157312	52	5223
2026-01-07 10:43:11.41	269.99	48.61	-41.2	-44.3	14.1	7.00e-07	0	56	0	696254464	52	5608
2026-01-07 10:43:12.42	270.60	48.56	-41.2	-44.3	14.0	3.00e-06	0	57	0	698351616	53	5297
2026-01-07 10:43:13.42	271.20	48.50	-41.1	-44.1	14.2	3.00e-06	0	56	0	699400192	53	5167
2026-01-07 10:43:14.43	271.80	48.43	-41.1	-44.1	14.2	7.00e-07	0	56	0	701497344	53	5170
2026-01-07 10:43:15.44	272.40	48.37	-41.0	-43.9	14.4	7.00e-07	0	56	0	703594496	53	5100
2026-01-07 10:43:16.45	273.00	48.30	-41.3	-44.5	13.8	2.20e-06	0	56	0	705691648	53	5446
2026-01-07 10:43:17.46	273.59	48.23	-41.5	-44.8	13.5	6.10e-06	0	56	0	707788800	53	5631
2026-01-07 10:43:18.47	274.19	48.15	-41.3	-44.5	13.8	5.30e-06	0	56	0	708837376	53	5426
2026-01-07 10:43:19.48	274.78	48.07	-41.0	-43.9	14.4	0.00e+00	0	56	0	710934528	53	5081
2026-01-07 10:43:20.49	275.36	47.99	-40.9	-43.7	14.6	0.00e+00	0	56	0	713031680	53	4958
2026-01-07 10:43:21.50	275.95	47.91	-41.2	-44.3	14.0	1.50e-06	0	56	0	715128832	53	5320
2026-01-07 10:43:22.51	276.53	47.82	-41.9	-45.5	12.8	2.44e-05	0	56	0	717225984	54	5747
2026-01-07 10:43:23.52	277.10	47.73	-42.2	-46.1	12.2	1.36e-04	0	56	0	718274560	54	6136
2026-01-07 10:43:24.53	277.68	47.64	-42.0	-45.8	12.5	2.84e-04	0	56	0	720371712	54	5977
2026-01-07 10:43:25.54	278.25	47.54	-41.7	-45.2	13.1	4.27e-05	0	56	0	722468864	54	5554
2026-01-07 10:43:26.55	278.81	47.44	-41.9	-45.6	12.8	3.43e-05	0	56	0	724566016	54	5812
2026-01-07 10:43:27.56	279.38	47.34	-42.5	-46.8	11.5	2.87e-04	0	56	0	726663168	55	6281
2026-01-07 10:43:28.57	279.94	47.24	-42.6	-47.0	11.1	1.56e-03	0	56	0	727711744	55	6473
2026-01-07 10:43:29.58	280.49	47.13	-42.3	-46.5	11.7	1.07e-03	0	56	0	729808896	55	6075
2026-01-07 10:43:30.59	281.04	47.02	-41.9	-45.6	12.6	1.55e-04	0	56	0	731906048	55	5518
2026-01-07 10:43:31.59	281.59	46.91	-42.3	-46.3	11.9	2.75e-04	0	56	0	734003200	55	5980
2026-01-07 10:43:32.61	282.14	46.79	-42.7	-47.3	10.9	9.92e-04	0	56	0	736100352	55	6668
2026-01-07 10:43:33.61	282.67	46.68	-43.2	-48.2	10.0	4.96e-03	0	56	0	737148928	56	7030
2026-01-07 10:43:34.63	283.21	46.56	-42.8	-47.4	10.9	2.57e-03	0	57	0	739246080	56	6348
2026-01-07 10:43:35.64	283.74	46.44	-42.4	-46.4	12.0	6.05e-04	0	56	0	741343232	56	5718
2026-01-07 10:43:36.65	284.27	46.31	-42.2	-46.1	12.4	1.75e-04	0	56	0	743440384	56	5466
2026-01-07 10:43:37.65	284.79	46.19	-42.4	-46.5	11.9	2.80e-04	0	56	0	745537536	56	5759
2026-01-07 10:43:38.67	285.32	46.06	-42.9	-47.7	10.6	1.57e-03	0	56	0	747634688	56	6609
2026-01-07 10:43:39.67	285.83	45.93	-43.1	-48.0	10.3	6.10e-03	0	56	0	748683264	56	6879
2026-01-07 10:43:40.69	286.34	45.79	-42.4	-46.5	11.8	2.53e-03	0	56	0	750780416	56	5772
2026-01-07 10:43:41.70	286.85	45.66	-41.6	-45.0	13.2	3.66e-05	0	56	0	752877568	55	5131
2026-01-07 10:43:42.71	287.35	45.52	-41.4	-44.7	13.6	1.29e-05	0	56	0	754974720	54	5252
2026-01-07 10:43:43.72	287.85	45.39	-41.7	-45.1	13.2	1.52e-05	0	56	0	757071872	54	5481
2026-01-07 10:43:44.73	288.34	45.25	-41.6	-45.0	13.3	1.60e-05	0	56	0	758120448	54	5443
2026-01-07 10:43:45.74	288.83	45.10	-41.4	-44.6	13.7	1.44e-05	0	56	0	760217600	54	5201
2026-01-07 10:43:46.75	289.32	44.96	-41.2	-44.2	14.1	3.80e-06	0	56	0	762314752	54	4952
2026-01-07 10:43:47.76	289.80	44.82	-40.9	-43.9	14.4	1.50e-06	0	56	0	764411904	53	5049
2026-01-07 10:43:48.77	290.27	44.67	-41.1	-44.1	14.2	0.00e+00	0	56	0	766509056	53	5202
2026-01-07 10:43:49.78	290.75	44.52	-41.4	-44.7	13.6	3.80e-06	0	56	0	767557632	53	5544
2026-01-07 10:43:50.79	291.21	44.37	-41.6	-45.0	13.3	1.83e-05	0	56	0	769654784	53	5728
2026-01-07 10:43:51.80	291.68	44.22	-41.1	-44.2	14.0	7.60e-06	0	56	0	771751936	53	5238
2026-01-07 10:43:52.81	292.14	44.07	-40.6	-43.4	14.9	1.50e-06	0	56	0	773849088	53	4775
2026-01-07 10:43:53.81	292.59	43.91	-40.7	-43.4	14.9	7.00e-07	0	56	0	775946240	53	4798
2026-01-07 10:43:54.82	293.04	43.76	-40.7	-43.5	14.8	0.00e+00	0	56	0	776994816	53	4840
2026-01-07 10:43:55.83	293.48	43.60	-40.3	-42.9	15.4	0.00e+00	0	56	0	779091968	52	4784
2026-01-07 10:43:56.84	293.92	43.45	-39.9	-42.3	16.1	0.00e+00	0	56	0	781189120	51	4718
2026-01-07 10:43:57.85	294.36	43.29	-39.9	-42.2	16.3	0.00e+00	0	56	0	783286272	51	4660
2026-01-07 10:43:58.86	294.79	43.13	-40.0	-42.3	16.1	0.00e+00	0	56	0	785383424	51	4754
2026-01-07 10:43:59.87	295.22	42.96	-40.2	-42.7	15.7	0.00e+00	0	56	0	786432000	51	4950
2026-01-07 10:44:00.88	295.65	42.80	-40.2	-42.7	15.7	0.00e+00	0	56	0	788529152	51	4945
2026-01-07 10:44:01.89	296.07	42.64	-39.6	-41.8	16.7	0.00e+00	0	56	0	790626304	51	4446
2026-01-07 10:44:02.90	296.48	42.48	-39.3	-41.4	17.0	0.00e+00	0	56	0	792723456	50	4534
2026-01-07 10:44:03.91	296.89	42.31	-39.6	-41.8	16.7	0.00e+00	0	56	0	794820608	50	4713
2026-01-07 10:44:04.92	297.30	42.14	-39.9	-42.3	16.1	0.00e+00	0	56	0	795869184	50	5014
2026-01-07 10:44:05.93	297.70	41.98	-40.2	-42.8	15.7	0.00e+00	0	56	0	797966336	51	4991
2026-01-07 10:44:06.94	298.10	41.81	-40.3	-42.9	15.5	0.00e+00	0	56	0	800063488	51	5082
2026-01-07 10:44:07.95	298.50	41.64	-40.1	-42.6	15.8	0.00e+00	0	56	0	802160640	51	4889
2026-01-07 10:44:08.96	298.89	41.47	-40.0	-42.3	16.1	0.00e+00	0	56	0	804257792	51	4754
2026-01-07 10:44:09.97	299.28	41.30	-40.3	-42.9	15.5	0.00e+00	0	56	0	805306368	51	5053
2026-01-07 10:44:10.98	299.66	41.13	-40.9	-43.8	14.6	0.00e+00	0	56	0	807403520	52	5303
2026-01-07 10:44:11.99	300.04	40.96	-41.2	-44.3	14.0	1.50e-06	0	56	0	809500672	52	5642
2026-01-07 10:44:13.00	300.41	40.79	-40.8	-43.7	14.6	0.00e+00	0	56	0	811597824	52	5227
2026-01-07 10:44:14.01	300.79	40.62	-40.1	-42.5	15.8	0.00e+00	0	56	0	813694976	52	4576
2026-01-07 10:44:15.02	301.15	40.45	-40.0	-42.5	15.9	0.00e+00	0	56	0	815792128	51	4819
2026-01-07 10:44:16.03	301.52	40.27	-40.4	-43.0	15.4	0.00e+00	0	57	0	816840704	51	5148
2026-01-07 10:44:17.04	301.88	40.10	-41.0	-44.0	14.3	1.50e-06	0	56	0	818937856	52	5456
2026-01-07 10:44:18.05	302.23	39.93	-41.4	-44.7	13.5	3.00e-06	0	56	0	821035008	53	5589
2026-01-07 10:44:19.06	302.58	39.75	-41.3	-44.5	13.8	9.90e-06	0	56	0	823132160	53	5411
2026-01-07 10:44:20.07	302.93	39.58	-40.8	-43.7	14.6	7.00e-07	0	57	0	825229312	53	4950
2026-01-07 10:44:21.07	303.27	39.41	-40.5	-43.2	15.1	1.50e-06	0	56	0	826277888	52	4936
2026-01-07 10:44:22.08	303.61	39.23	-40.5	-43.2	15.1	7.00e-07	0	56	0	828375040	52	4946
2026-01-07 10:44:23.09	303.95	39.06	-41.0	-44.1	14.2	0.00e+00	0	56	0	830472192	52	5502
2026-01-07 10:44:24.10	304.29	38.88	-41.7	-45.3	13.0	1.44e-05	0	56	0	832569344	53	5931
2026-01-07 10:44:25.11	304.62	38.71	-41.6	-45.1	13.1	6.25e-05	0	56	0	834666496	54	5486
2026-01-07 10:44:26.12	304.94	38.53	-40.9	-43.9	14.3	1.22e-05	0	56	0	835715072	53	5084
2026-01-07 10:44:27.13	305.27	38.36	-40.1	-42.7	15.6	0.00e+00	0	57	0	837812224	52	4668
2026-01-07 10:44:28.14	305.59	38.18	-40.0	-42.5	15.9	0.00e+00	0	56	0	839909376	51	4818
2026-01-07 10:44:29.15	305.90	38.01	-40.4	-43.0	15.4	0.00e+00	0	56	0	842006528	51	5127
2026-01-07 10:44:30.16	306.22	37.83	-41.4	-44.7	13.6	3.00e-06	0	56	0	844103680	53	5585
2026-01-07 10:44:31.17	306.53	37.65	-42.1	-46.1	12.1	1.27e-04	0	56	0	845152256	54	6183
2026-01-07 10:44:32.18	306.83	37.48	-41.8	-45.4	12.8	2.23e-04	0	56	0	847249408	54	5713
2026-01-07 10:44:33.19	307.14	37.30	-41.0	-44.0	14.2	6.80e-06	0	56	0	849346560	54	4859
2026-01-07 10:44:34.20	307.44	37.13	-40.5	-43.3	15.0	0.00e+00	0	56	0	851443712	53	4722
2026-01-07 10:44:35.21	307.73	36.95	-40.5	-43.2	15.1	0.00e+00	0	56	0	853540864	52	4935
2026-01-07 10:44:36.22	308.03	36.78	-40.9	-43.9	14.4	2.20e-06	0	56	0	854589440	52	5368
2026-01-07 10:44:37.23	308.32	36.60	-41.6	-45.1	13.1	1.06e-05	0	57	0	856686592	53	5841
2026-01-07 10:44:38.24	308.61	36.43	-42.2	-46.4	11.8	1.24e-04	0	56	0	858783744	55	6014
2026-01-07 10:44:39.25	308.89	36.25	-42.4	-46.7	11.6	7.72e-04	0	56	0	860880896	55	6203
2026-01-07 10:44:40.26	309.17	36.08	-41.5	-44.9	13.2	1.16e-04	0	56	0	862978048	55	5086
2026-01-07 10:44:41.27	309.45	35.90	-40.6	-43.4	14.9	2.20e-06	0	56	0	864026624	53	4791
2026-01-07 10:44:42.28	309.73	35.73	-40.1	-42.6	15.6	0.00e+00	0	56	0	866123776	52	4631
2026-01-07 10:44:43.29	310.00	35.56	-40.0	-42.4	15.9	0.00e+00	0	56	0	868220928	52	4524
2026-01-07 10:44:44.30	310.27	35.38	-40.5	-43.2	15.1	0.00e+00	0	56	0	870318080	52	4928
2026-01-07 10:44:45.31	310.54	35.21	-41.2	-44.4	13.7	7.00e-07	0	56	0	872415232	53	5393
2026-01-07 10:44:46.32	310.80	35.04	-41.9	-45.7	12.6	5.72e-05	0	56	0	873463808	54	5868
2026-01-07 10:44:47.33	311.07	34.86	-41.9	-45.6	12.6	1.30e-04	0	56	0	875560960	54	5816
2026-01-07 10:44:48.34	311.32	34.69	-41.4	-44.7	13.5	3.81e-05	0	56	0	877658112	54	5271
2026-01-07 10:44:49.35	311.58	34.52	-41.1	-44.2	14.1	2.20e-06	0	56	0	879755264	54	4935
2026-01-07 10:44:50.36	311.83	34.35	-40.9	-43.8	14.4	4.50e-06	0	57	0	881852416	53	5016
2026-01-07 10:44:51.37	312.09	34.18	-40.8	-43.7	14.5	0.00e+00	0	56	0	883949568	53	4948
2026-01-07 10:44:52.38	312.33	34.00	-41.2	-44.3	13.9	7.00e-07	0	57	0	884998144	53	5336
2026-01-07 10:44:53.39	312.58	33.83	-41.8	-45.4	12.8	3.35e-05	0	56	0	887095296	54	5708
2026-01-07 10:44:54.40	312.82	33.66	-42.3	-46.6	11.6	2.44e-04	0	56	0	889192448	55	6141
2026-01-07 10:44:55.41	313.06	33.49	-42.9	-47.7	10.5	1.87e-03	0	56	0	891289600	56	6592
2026-01-07 10:44:56.42	313.30	33.32	-42.8	-47.5	10.8	3.89e-03	0	56	0	893386752	56	6455
2026-01-07 10:44:57.43	313.54	33.15	-42.3	-46.3	12.0	1.05e-03	0	57	0	894435328	56	5632
2026-01-07 10:44:58.44	313.77	32.99	-41.6	-45.1	13.1	1.30e-04	0	56	0	896532480	55	5185
2026-01-07 10:44:59.45	314.00	32.82	-41.3	-44.4	13.8	8.30e-06	0	56	0	898629632	54	5087
2026-01-07 10:45:00.46	314.23	32.65	-41.2	-44.3	13.9	3.80e-06	0	56	0	900726784	54	5036
2026-01-07 10:45:01.47	314.46	32.48	-41.2	-44.3	13.9	4.50e-06	0	57	0	902823936	54	5022
2026-01-07 10:45:02.48	314.68	32.32	-41.7	-45.2	13.0	2.36e-05	0	57	0	903872512	54	5556
2026-01-07 10:45:03.49	314.91	32.15	-42.3	-46.5	11.6	2.22e-04	0	56	0	905969664	55	6073
2026-01-07 10:45:04.50	315.13	31.98	-43.1	-48.4	9.8	2.61e-03	0	57	0	908066816	56	7172
2026-01-07 10:45:05.51	315.34	31.82	-43.5	-49.5	8.6	2.97e-02	0	56	0	910163968	57	7657
2026-01-07 10:45:06.52	315.56	31.65	-43.2	-48.6	9.5	2.44e-02	0	56	0	912261120	57	6928
2026-01-07 10:45:07.53	315.77	31.49	-42.6	-47.0	11.2	6.08e-03	0	56	0	913309696	57	5730
2026-01-07 10:45:08.54	315.98	31.32	-41.5	-45.0	13.1	7.09e-05	0	56	0	915406848	55	5124
2026-01-07 10:45:09.55	316.19	31.16	-40.9	-43.8	14.3	1.50e-06	0	56	0	917504000	53	5030
2026-01-07 10:45:10.56	316.40	31.00	-40.5	-43.2	15.0	0.00e+00	0	56	0	919601152	53	4681
2026-01-07 10:45:11.57	316.61	30.84	-40.4	-43.0	15.2	0.00e+00	0	56	0	921698304	52	4848
2026-01-07 10:45:12.58	316.81	30.67	-40.5	-43.3	14.9	0.00e+00	0	56	0	922746880	52	4993
2026-01-07 10:45:13.59	317.01	30.51	-40.9	-43.9	14.3	7.00e-07	0	56	0	924844032	52	5370
2026-01-07 10:45:14.60	317.21	30.35	-41.5	-44.9	13.3	1.50e-06	0	57	0	926941184	53	5663
2026-01-07 10:45:15.61	317.41	30.19	-41.8	-45.5	12.6	6.63e-05	0	56	0	929038336	54	5771
2026-01-07 10:45:16.61	317.60	30.03	-42.1	-46.1	12.0	2.11e-04	0	57	0	931135488	54	6182
2026-01-07 10:45:17.62	317.79	29.87	-42.0	-45.9	12.1	3.89e-04	0	56	0	932184064	54	6058
2026-01-07 10:45:18.63	317.99	29.72	-41.8	-45.5	12.6	1.05e-04	0	56	0	934281216	54	5758
2026-01-07 10:45:19.65	318.18	29.56	-41.6	-45.1	13.0	5.18e-05	0	56	0	936378368	54	5497
2026-01-07 10:45:20.66	318.37	29.40	-41.5	-44.9	13.3	2.89e-05	0	56	0	938475520	54	5363
2026-01-07 10:45:21.66	318.55	29.24	-41.3	-44.5	13.6	6.10e-06	0	56	0	940572672	54	5150
2026-01-07 10:45:22.67	318.73	29.09	-41.0	-44.1	14.0	2.20e-06	0	57	0	941621248	54	4904
2026-01-07 10:45:23.68	318.92	28.93	-41.1	-44.2	13.9	1.50e-06	0	56	0	943718400	54	4969
2026-01-07 10:45:24.69	319.10	28.77	-41.2	-44.5	13.6	6.80e-06	0	56	0	945815552	54	5119
2026-01-07 10:45:25.70	319.28	28.62	-41.5	-45.0	13.2	1.22e-05	0	56	0	947912704	54	5409
2026-01-07 10:45:26.71	319.46	28.47	-41.6	-45.1	13.0	3.73e-05	0	56	0	950009856	54	5518
2026-01-07 10:45:27.72	319.63	28.31	-41.4	-44.9	13.3	3.12e-05	0	57	0	952107008	54	5346
2026-01-07 10:45:28.73	319.81	28.16	-41.2	-44.5	13.6	9.10e-06	0	56	0	953155584	54	5120
2026-01-07 10:45:29.74	319.98	28.01	-40.8	-43.8	14.4	1.50e-06	0	56	0	955252736	53	4992
2026-01-07 10:45:30.75	320.15	27.85	-40.4	-43.1	15.1	0.00e+00	0	56	0	957349888	52	4871
2026-01-07 10:45:31.76	320.32	27.70	-40.2	-42.8	15.3	0.00e+00	0	56	0	959447040	52	4744
2026-01-07 10:45:32.77	320.49	27.55	-39.9	-42.3	15.9	0.00e+00	0	56	0	961544192	51	4744
2026-01-07 10:45:33.78	320.65	27.40	-39.7	-42.0	16.2	0.00e+00	0	56	0	962592768	51	4592
2026-01-07 10:45:34.79	320.82	27.25	-39.7	-42.1	16.2	0.00e+00	0	56	0	964689920	51	4617
2026-01-07 10:45:35.80	320.98	27.10	-39.8	-42.2	16.0	0.00e+00	0	56	0	966787072	51	4677
2026-01-07 10:45:36.81	321.14	26.96	-40.0	-42.5	15.7	0.00e+00	0	56	0	968884224	51	4845
2026-01-07 10:45:37.82	321.30	26.81	-40.3	-42.9	15.3	0.00e+00	0	56	0	970981376	51	5065
2026-01-07 10:45:38.83	321.46	26.66	-40.5	-43.3	14.9	0.00e+00	0	56	0	972029952	51	5312
2026-01-07 10:45:39.84	321.62	26.51	-40.6	-43.5	14.6	0.00e+00	0	56	0	974127104	51	5454
2026-01-07 10:45:40.85	321.78	26.37	-40.7	-43.6	14.5	0.00e+00	0	56	0	976224256	52	5203
2026-01-07 10:45:41.86	321.93	26.22	-40.5	-43.4	14.6	0.00e+00	0	56	0	978321408	52	5089
2026-01-07 10:45:42.87	322.09	26.08	-40.5	-43.3	14.8	7.00e-07	0	56	0	980418560	52	5021
2026-01-07 10:45:43.88	322.24	25.93	-40.4	-43.3	14.8	0.00e+00	0	56	0	981467136	52	5002
2026-01-07 10:45:44.89	322.39	25.79	-40.3	-43.0	15.1	0.00e+00	0	56	0	983564288	52	4855
2026-01-07 10:45:45.89	322.54	25.65	-40.2	-42.9	15.1	0.00e+00	0	56	0	985661440	52	4811
2026-01-07 10:45:46.90	322.68	25.51	-40.2	-42.9	15.2	0.00e+00	0	56	0	987758592	52	4760
2026-01-07 10:45:47.91	322.83	25.36	-40.1	-42.7	15.3	0.00e+00	0	56	0	989855744	52	4687
2026-01-07 10:45:48.92	322.98	25.22	-40.2	-42.8	15.2	0.00e+00	0	56	0	990904320	52	4749
2026-01-07 10:45:49.94	323.12	25.08	-40.0	-42.6	15.5	0.00e+00	0	56	0	993001472	52	4645
2026-01-07 10:45:50.95	323.27	24.94	-40.1	-42.7	15.4	0.00e+00	0	56	0	995098624	51	4952
2026-01-07 10:45:51.96	323.41	24.80	-40.1	-42.7	15.4	0.00e+00	0	56	0	997195776	51	4970
2026-01-07 10:45:52.96	323.55	24.66	-40.0	-42.6	15.5	0.00e+00	0	56	0	999292928	51	4908
2026-01-07 10:45:53.97	323.69	24.52	-40.1	-42.8	15.4	0.00e+00	0	56	0	1000341504	51	5004
2026-01-07 10:45:54.99	323.83	24.38	-40.3	-43.1	15.0	0.00e+00	0	56	0	1002438656	51	5176
2026-01-07 10:45:56.00	323.96	24.25	-40.5	-43.3	14.8	0.00e+00	0	56	0	1004535808	51	5312
2026-01-07 10:45:57.00	324.10	24.11	-40.7	-43.6	14.5	7.00e-07	0	56	0	1006632960	51	5494
2026-01-07 10:45:58.01	324.23	23.97	-40.8	-43.9	14.2	7.00e-07	0	56	0	1008730112	52	5366
2026-01-07 10:45:59.02	324.37	23.84	-40.9	-44.2	13.8	1.50e-06	0	57	0	1009778688	52	5547
2026-01-07 10:46:00.03	324.50	23.70	-41.0	-44.3	13.8	6.10e-06	0	56	0	1011875840	52	5615
2026-01-07 10:46:01.04	324.63	23.57	-41.0	-44.3	13.7	7.60e-06	0	56	0	1013972992	52	5641
2026-01-07 10:46:02.05	324.76	23.43	-40.8	-44.0	14.0	3.00e-06	0	56	0	1016070144	52	5417
2026-01-07 10:46:03.06	324.89	23.30	-40.7	-43.8	14.2	1.50e-06	0	56	0	1018167296	52	5329
2026-01-07 10:46:04.07	325.02	23.17	-40.6	-43.6	14.4	2.20e-06	0	56	0	1020264448	52	5183
2026-01-07 10:46:05.08	325.15	23.03	-40.4	-43.2	14.8	7.00e-07	0	56	0	1021313024	52	4962
2026-01-07 10:46:06.09	325.27	22.90	-40.3	-43.1	14.9	0.00e+00	0	56	0	1023410176	52	4872
2026-01-07 10:46:07.10	325.40	22.77	-40.2	-42.9	15.1	0.00e+00	0	56	0	1025507328	52	4802
2026-01-07 10:46:08.11	325.52	22.64	-40.2	-42.9	15.1	0.00e+00	0	56	0	1027604480	52	4773
2026-01-07 10:46:09.12	325.64	22.51	-40.3	-43.0	15.0	0.00e+00	0	57	0	1029701632	52	4868
2026-01-07 10:46:10.13	325.77	22.38	-40.3	-43.1	14.9	0.00e+00	0	56	0	1030750208	52	4917
2026-01-07 10:46:11.14	325.89	22.25	-40.5	-43.4	14.6	0.00e+00	0	56	0	1032847360	52	5054
2026-01-07 10:46:12.15	326.01	22.12	-40.5	-43.5	14.5	0.00e+00	0	56	0	1034944512	52	5142
2026-01-07 10:46:13.16	326.13	21.99	-40.6	-43.5	14.4	0.00e+00	0	56	0	1037041664	52	5146
2026-01-07 10:46:14.17	326.25	21.87	-40.6	-43.6	14.3	0.00e+00	0	56	0	1039138816	52	5208
2026-01-07 10:46:15.18	326.36	21.74	-40.5	-43.5	14.5	1.50e-06	0	56	0	1040187392	52	5128
2026-01-07 10:46:16.19	326.48	21.61	-40.4	-43.3	14.6	0.00e+00	0	56	0	1042284544	52	5023
2026-01-07 10:46:17.20	326.60	21.49	-40.4	-43.3	14.7	0.00e+00	0	56	0	1044381696	52	5016
2026-01-07 10:46:18.21	326.71	21.36	-40.3	-43.1	14.9	0.00e+00	0	56	0	1046478848	52	4884
2026-01-07 10:46:19.22	326.82	21.24	-40.3	-43.0	14.9	0.00e+00	0	57	0	1048576000	52	4859
2026-01-07 10:46:20.23	326.94	21.11	-40.2	-43.0	15.0	0.00e+00	0	56	0	1049624576	52	4829
2026-01-07 10:46:21.24	327.05	20.99	-40.1	-42.8	15.1	0.00e+00	0	57	0	1051721728	52	4743
2026-01-07 10:46:22.25	327.16	20.86	-40.2	-42.9	15.0	0.00e+00	0	56	0	1053818880	52	4788
2026-01-07 10:46:23.25	327.27	20.74	-40.2	-42.9	15.0	0.00e+00	0	56	0	1055916032	52	4809
2026-01-07 10:46:24.26	327.38	20.62	-40.2	-42.9	15.0	7.00e-07	0	57	0	1058013184	52	4814
2026-01-07 10:46:25.27	327.49	20.50	-40.3	-43.2	14.8	0.00e+00	0	56	0	1059061760	52	4932
2026-01-07 10:46:26.28	327.59	20.38	-40.3	-43.1	14.8	0.00e+00	0	56	0	1061158912	52	4893
2026-01-07 10:46:27.29	327.70	20.25	-40.3	-43.2	14.8	0.00e+00	0	56	0	1063256064	52	4953
2026-01-07 10:46:28.30	327.81	20.13	-40.4	-43.2	14.7	0.00e+00	0	57	0	1065353216	52	4966
2026-01-07 10:46:29.31	327.91	20.01	-40.4	-43.3	14.6	7.00e-07	0	56	0	1067450368	52	4997
2026-01-07 10:46:30.32	328.02	19.89	-40.4	-43.3	14.6	0.00e+00	0	56	0	1068498944	52	4997
2026-01-07 10:46:31.33	328.12	19.78	-40.4	-43.3	14.6	7.00e-07	0	57	0	1070596096	52	4998
2026-01-07 10:46:32.34	328.22	19.66	-40.4	-43.2	14.6	7.00e-07	0	57	0	1072693248	52	4981
2026-01-07 10:46:33.35	328.33	19.54	-40.4	-43.3	14.6	1.50e-06	0	57	0	1074790400	52	5011
2026-01-07 10:46:34.36	328.43	19.42	-40.5	-43.4	14.5	0.00e+00	0	57	0	1076887552	52	5065
2026-01-07 10:46:35.37	328.53	19.30	-40.5	-43.4	14.5	0.00e+00	0	56	0	1077936128	52	5066
2026-01-07 10:46:36.38	328.63	19.19	-40.5	-43.5	14.4	0.00e+00	0	56	0	1080033280	52	5125
2026-01-07 10:46:37.39	328.73	19.07	-40.6	-43.7	14.2	7.00e-07	0	57	0	1082130432	52	5220
2026-01-07 10:46:38.40	328.83	18.96	-40.6	-43.6	14.2	7.00e-07	0	56	0	1084227584	52	5215
2026-01-07 10:46:39.41	328.93	18.84	-40.6	-43.7	14.2	2.20e-06	0	56	0	1086324736	52	5254
2026-01-07 10:46:40.42	329.02	18.73	-40.6	-43.7	14.1	3.80e-06	0	56	0	1088421888	52	5256
2026-01-07 10:46:41.43	329.12	18.61	-40.7	-43.8	14.1	3.80e-06	0	56	0	1089470464	52	5291
2026-01-07 10:46:42.44	329.21	18.50	-40.7	-43.8	14.0	1.50e-06	0	56	0	1091567616	52	5333
2026-01-07 10:46:43.45	329.31	18.38	-40.7	-43.9	14.0	2.20e-06	0	56	0	1093664768	52	5348
2026-01-07 10:46:44.46	329.40	18.27	-40.7	-43.8	14.1	7.00e-07	0	57	0	1095761920	52	5283
2026-01-07 10:46:45.47	329.50	18.16	-40.6	-43.7	14.1	3.80e-06	0	56	0	1097859072	52	5267
2026-01-07 10:46:46.48	329.59	18.05	-40.6	-43.7	14.1	3.00e-06	0	56	0	1098907648	52	5239
2026-01-07 10:46:47.49	329.68	17.93	-40.7	-43.8	14.0	7.00e-07	0	57	0	1101004800	52	5307
2026-01-07 10:46:48.50	329.78	17.82	-40.5	-43.5	14.3	1.50e-06	0	56	0	1103101952	52	5147
2026-01-07 10:46:49.51	329.87	17.71	-40.5	-43.6	14.2	0.00e+00	0	57	0	1105199104	52	5180
2026-01-07 10:46:50.51	329.96	17.60	-40.6	-43.7	14.1	3.80e-06	0	56	0	1107296256	52	5266
2026-01-07 10:46:51.52	330.05	17.49	-40.6	-43.8	14.1	1.50e-06	0	57	0	1108344832	52	5282
2026-01-07 10:46:52.53	330.14	17.38	-40.6	-43.7	14.1	0.00e+00	0	57	0	1110441984	52	5268
2026-01-07 10:46:53.54	330.22	17.27	-40.6	-43.7	14.0	2.20e-06	0	56	0	1112539136	52	5272
2026-01-07 10:46:54.55	330.31	17.17	-40.6	-43.7	14.1	0.00e+00	0	57	0	1114636288	52	5239
2026-01-07 10:46:55.56	330.40	17.06	-40.6	-43.7	14.1	2.20e-06	0	56	0	1116733440	52	5244
2026-01-07 10:46:56.57	330.49	16.95	-40.6	-43.6	14.1	3.80e-06	0	56	0	1117782016	52	5209
2026-01-07 10:46:57.58	330.57	16.84	-40.6	-43.7	14.0	7.00e-07	0	56	0	1119879168	52	5268
2026-01-07 10:46:58.59	330.66	16.74	-40.6	-43.7	14.0	4.50e-06	0	57	0	1121976320	52	5274
2026-01-07 10:46:59.60	330.74	16.63	-40.6	-43.7	14.0	0.00e+00	0	56	0	1124073472	52	5261
2026-01-07 10:47:00.61	330.83	16.52	-40.5	-43.6	14.1	1.50e-06	0	57	0	1126170624	52	5175
2026-01-07 10:47:01.62	330.91	16.42	-40.5	-43.6	14.1	1.50e-06	0	56	0	1127219200	52	5177
2026-01-07 10:47:02.63	331.00	16.31	-40.5	-43.5	14.2	7.00e-07	0	57	0	1129316352	52	5133
2026-01-07 10:47:03.64	331.08	16.21	-40.5	-43.5	14.2	7.00e-07	0	57	0	1131413504	52	5123
2026-01-07 10:47:04.65	331.16	16.10	-40.5	-43.4	14.3	2.20e-06	0	56	0	1133510656	52	5095
2026-01-07 10:47:05.66	331.24	16.00	-40.5	-43.4	14.3	1.50e-06	0	57	0	1135607808	52	5099
2026-01-07 10:47:06.67	331.32	15.89	-40.3	-43.3	14.4	2.20e-06	0	57	0	1136656384	52	5005
2026-01-07 10:47:07.68	331.41	15.79	-40.4	-43.3	14.4	2.20e-06	0	56	0	1138753536	52	5027
2026-01-07 10:47:08.69	331.49	15.69	-40.4	-43.3	14.4	7.00e-07	0	56	0	1140850688	52	5016
2026-01-07 10:47:09.70	331.57	15.59	-40.4	-43.3	14.4	0.00e+00	0	56	0	1142947840	52	5019
2026-01-07 10:47:10.70	331.64	15.48	-40.4	-43.4	14.3	0.00e+00	0	56	0	1145044992	52	5082
2026-01-07 10:47:11.71	331.72	15.38	-40.4	-43.4	14.2	1.50e-06	0	56	0	1146093568	52	5096
2026-01-07 10:47:12.72	331.80	15.28	-40.4	-43.4	14.2	7.00e-07	0	56	0	1148190720	52	5068
2026-01-07 10:47:13.74	331.88	15.18	-40.5	-43.5	14.2	7.00e-07	0	57	0	1150287872	52	5124
2026-01-07 10:47:14.75	331.96	15.08	-40.5	-43.5	14.1	2.20e-06	0	57	0	1152385024	52	5151
2026-01-07 10:47:15.76	332.03	14.98	-40.4	-43.4	14.2	3.00e-06	0	57	0	1154482176	52	5082
2026-01-07 10:47:16.77	332.11	14.88	-40.6	-43.7	13.9	2.20e-06	0	57	0	1156579328	52	5245
2026-01-07 10:47:17.78	332.19	14.78	-40.6	-43.7	13.9	4.50e-06	0	57	0	1157627904	52	5247
2026-01-07 10:47:18.79	332.26	14.68	-40.6	-43.8	13.8	3.00e-06	0	56	0	1159725056	52	5321
2026-01-07 10:47:19.80	332.34	14.58	-40.7	-43.9	13.7	5.30e-06	0	57	0	1161822208	52	5347
2026-01-07 10:47:20.81	332.41	14.48	-40.7	-44.0	13.5	2.20e-06	0	56	0	1163919360	52	5451
2026-01-07 10:47:21.82	332.48	14.38	-40.8	-44.1	13.5	9.90e-06	0	56	0	1166016512	52	5488
2026-01-07 10:47:22.83	332.56	14.29	-40.8	-44.2	13.3	1.37e-05	0	56	0	1167065088	52	5579
2026-01-07 10:47:23.84	332.63	14.19	-40.9	-44.4	13.2	1.83e-05	0	56	0	1169162240	52	5659
2026-01-07 10:47:24.85	332.70	14.09	-40.9	-44.4	13.1	2.89e-05	0	56	0	1171259392	52	5681
2026-01-07 10:47:25.86	332.77	13.99	-41.0	-44.5	13.0	3.58e-05	0	56	0	1173356544	52	5776
2026-01-07 10:47:26.86	332.85	13.90	-41.0	-44.6	12.9	3.35e-05	0	56	0	1175453696	52	5839
2026-01-07 10:47:27.87	332.92	13.80	-41.0	-44.7	12.8	3.73e-05	0	56	0	1176502272	52	5858
