passes_logs/2026/01/07/R2.0S_Moscow/R2.0S_Moscow__20260107_020055_FENGYUN_3G_rec.log

#Pass ID: 20260107_020055_FENGYUN 3G
#Satellite: FENGYUN 3G
#Configuration: FENGYUN 3G
#almurnet v.1.7.20251203
#Start time: 2026-01-07 02:00:55

#Version: 2.2.20231116
#Station: R2.0S_Moscow
#Location: 37.707566 lon 55.798166 lat
#TLE: 1 56232U 23055A   26005.65670112  .00041871  00000+0  66206-3 0  9997
#TLE: 2 56232  49.9942 104.1198 0004242 344.1257  15.9577 15.52986726154745

#Time	Az	El	Level	Level2	SNR	BER	BlckErr	Temp	State	Recorded	gain1	gain2
2026-01-07 02:00:55.25	241.31	2.01	-43.8	-62.0	3.8	8.46e-01	0	47	0	0	59	28964
2026-01-07 02:00:56.25	241.24	2.08	-43.8	-62.1	3.8	8.44e-01	0	47	104	0	59	29050
2026-01-07 02:00:57.26	241.17	2.14	-43.8	-62.0	3.8	8.48e-01	0	47	104	0	59	28951
2026-01-07 02:00:58.27	241.11	2.21	-43.8	-62.0	3.8	8.46e-01	0	47	104	0	59	28765
2026-01-07 02:00:59.28	241.04	2.28	-43.8	-62.1	3.8	8.46e-01	0	47	104	0	59	29067
2026-01-07 02:01:00.29	240.97	2.34	-43.8	-62.1	3.8	8.47e-01	0	47	104	0	59	29024
2026-01-07 02:01:01.30	240.90	2.41	-43.8	-62.1	3.8	8.47e-01	0	47	104	0	59	29100
2026-01-07 02:01:02.31	240.83	2.48	-43.8	-62.0	3.8	8.47e-01	0	47	104	0	59	29002
2026-01-07 02:01:03.33	240.76	2.54	-43.8	-62.0	3.8	8.46e-01	0	47	104	0	59	29003
2026-01-07 02:01:04.34	240.69	2.61	-43.8	-62.0	3.8	8.46e-01	0	47	104	0	59	28937
2026-01-07 02:01:05.35	240.62	2.68	-43.8	-62.0	3.8	8.46e-01	0	47	104	0	59	28855
2026-01-07 02:01:06.36	240.55	2.75	-43.8	-62.0	3.8	8.46e-01	0	47	104	0	59	28825
2026-01-07 02:01:07.37	240.48	2.82	-43.8	-61.9	3.8	8.46e-01	0	48	104	0	59	28563
2026-01-07 02:01:08.38	240.41	2.88	-43.8	-61.9	3.8	8.46e-01	0	48	104	0	59	28533
2026-01-07 02:01:09.39	240.34	2.95	-43.8	-61.9	3.8	8.46e-01	0	48	104	0	59	28634
2026-01-07 02:01:10.40	240.27	3.02	-43.8	-62.0	3.8	8.46e-01	0	48	104	0	59	28713
2026-01-07 02:01:11.42	240.19	3.09	-43.8	-62.0	3.8	8.47e-01	0	48	104	0	59	28738
2026-01-07 02:01:12.42	240.12	3.16	-43.8	-62.0	3.8	8.47e-01	0	48	104	0	59	28884
2026-01-07 02:01:13.43	240.04	3.23	-43.8	-62.0	3.8	8.46e-01	0	48	104	0	59	28748
2026-01-07 02:01:14.45	239.97	3.30	-43.8	-62.0	3.8	8.46e-01	0	48	104	0	59	28872
2026-01-07 02:01:15.46	239.89	3.37	-43.8	-62.0	3.8	8.46e-01	0	48	104	0	59	28910
2026-01-07 02:01:16.47	239.82	3.44	-43.8	-62.1	3.8	8.46e-01	0	48	104	0	59	29027
2026-01-07 02:01:17.48	239.74	3.51	-43.8	-62.1	3.8	8.46e-01	0	48	104	0	59	29123
2026-01-07 02:01:18.49	239.66	3.58	-43.7	-62.1	3.8	8.46e-01	0	48	104	0	59	29139
2026-01-07 02:01:19.50	239.59	3.65	-43.8	-62.1	3.8	8.46e-01	0	48	104	0	59	29056
2026-01-07 02:01:20.51	239.51	3.72	-43.7	-62.1	3.8	8.47e-01	0	48	104	0	59	29101
2026-01-07 02:01:21.52	239.43	3.79	-43.8	-62.1	3.8	8.46e-01	0	49	104	0	59	29106
2026-01-07 02:01:22.53	239.35	3.86	-43.8	-62.1	3.8	8.46e-01	0	49	104	0	59	29078
2026-01-07 02:01:23.55	239.27	3.94	-43.8	-62.1	3.8	8.46e-01	0	49	104	0	59	29145
2026-01-07 02:01:24.56	239.19	4.01	-43.8	-62.1	3.8	8.46e-01	0	49	104	0	59	29063
2026-01-07 02:01:25.57	239.11	4.08	-43.8	-62.1	3.8	8.46e-01	0	49	104	0	59	29136
2026-01-07 02:01:26.58	239.03	4.15	-43.8	-62.1	3.8	8.46e-01	0	49	104	0	59	29047
2026-01-07 02:01:27.59	238.95	4.23	-43.8	-62.1	3.8	8.46e-01	0	49	104	0	59	29069
2026-01-07 02:01:28.60	238.86	4.30	-43.8	-62.0	3.8	8.46e-01	0	49	104	0	59	28883
2026-01-07 02:01:29.61	238.78	4.37	-43.7	-61.9	3.8	8.46e-01	0	49	104	0	59	28622
2026-01-07 02:01:30.62	238.70	4.45	-43.7	-61.9	3.8	8.46e-01	0	49	104	0	59	28493
2026-01-07 02:01:31.63	238.61	4.52	-43.7	-61.8	3.8	8.46e-01	0	49	104	0	59	28085
2026-01-07 02:01:32.65	238.53	4.59	-43.7	-61.8	3.8	8.47e-01	0	49	104	0	59	28052
2026-01-07 02:01:33.66	238.44	4.67	-43.7	-61.5	3.8	8.46e-01	0	49	104	0	59	27333
2026-01-07 02:01:34.67	238.35	4.74	-43.7	-61.6	3.8	8.47e-01	0	49	104	0	59	27462
2026-01-07 02:01:35.68	238.27	4.82	-43.7	-61.6	3.8	8.47e-01	0	49	104	0	59	27484
2026-01-07 02:01:36.69	238.18	4.89	-43.7	-61.6	3.8	8.46e-01	0	49	104	0	59	27689
2026-01-07 02:01:37.70	238.09	4.97	-43.7	-61.6	3.8	8.45e-01	0	50	104	0	59	27700
2026-01-07 02:01:38.71	238.00	5.04	-43.7	-61.6	3.8	8.45e-01	0	50	104	0	59	27526
2026-01-07 02:01:39.73	237.91	5.12	-43.7	-61.5	3.8	8.46e-01	0	50	104	0	59	27154
2026-01-07 02:01:40.74	237.82	5.20	-43.7	-61.0	3.8	8.46e-01	0	50	104	0	59	25802
2026-01-07 02:01:41.75	237.73	5.27	-43.7	-60.6	3.8	8.46e-01	0	50	104	0	59	24635
2026-01-07 02:01:42.76	237.64	5.35	-43.7	-60.3	3.9	8.46e-01	0	50	104	0	59	23620
2026-01-07 02:01:43.77	237.55	5.43	-43.7	-59.8	3.8	8.45e-01	0	50	104	0	59	22325
2026-01-07 02:01:44.78	237.45	5.50	-43.7	-59.5	4.0	8.45e-01	0	50	104	0	59	21630
2026-01-07 02:01:45.79	237.36	5.58	-43.7	-59.2	4.1	8.45e-01	0	50	104	0	59	20884
2026-01-07 02:01:46.80	237.27	5.66	-43.7	-59.3	3.8	8.44e-01	0	50	104	0	59	21236
2026-01-07 02:01:47.81	237.17	5.74	-43.7	-59.4	3.9	8.43e-01	0	50	104	0	59	21407
2026-01-07 02:01:48.82	237.07	5.82	-43.7	-59.2	3.9	8.43e-01	0	50	104	0	59	20946
2026-01-07 02:01:49.83	236.98	5.90	-43.7	-59.0	4.0	8.44e-01	0	50	104	0	59	20410
2026-01-07 02:01:50.85	236.88	5.97	-43.7	-59.6	3.8	8.42e-01	0	50	104	0	59	21774
2026-01-07 02:01:51.86	236.78	6.05	-43.7	-59.8	3.8	8.42e-01	0	50	104	0	59	22350
2026-01-07 02:01:52.87	236.68	6.13	-43.7	-59.7	3.8	8.44e-01	0	50	104	0	59	22111
2026-01-07 02:01:53.88	236.58	6.21	-43.7	-59.2	3.9	8.43e-01	0	50	104	0	59	21017
2026-01-07 02:01:54.89	236.48	6.29	-43.7	-59.0	4.1	8.43e-01	0	50	104	0	59	20422
2026-01-07 02:01:55.90	236.38	6.38	-43.6	-58.4	4.2	8.42e-01	0	50	0	0	59	19046
2026-01-07 02:01:56.91	236.28	6.46	-43.6	-57.7	4.4	8.35e-01	0	51	0	0	59	17650
2026-01-07 02:01:57.92	236.18	6.54	-43.6	-56.9	4.8	8.19e-01	0	50	0	0	59	15976
2026-01-07 02:01:58.93	236.07	6.62	-43.6	-56.7	4.9	8.19e-01	0	50	0	0	59	15757
2026-01-07 02:01:59.95	235.97	6.70	-43.5	-56.2	5.1	7.88e-01	0	51	0	0	59	14714
2026-01-07 02:02:00.96	235.86	6.78	-43.5	-55.9	5.3	7.48e-01	0	51	0	0	59	14318
2026-01-07 02:02:01.97	235.75	6.87	-43.5	-56.3	5.1	7.48e-01	0	51	0	0	59	14979
2026-01-07 02:02:02.98	235.65	6.95	-43.6	-56.9	4.8	7.45e-01	0	51	0	0	59	16023
2026-01-07 02:02:03.99	235.54	7.03	-43.6	-58.2	4.3	7.96e-01	0	51	0	0	59	18615
2026-01-07 02:02:05.00	235.43	7.12	-43.7	-59.8	3.8	7.96e-01	0	51	104	0	59	22469
2026-01-07 02:02:06.01	235.32	7.20	-43.7	-60.2	3.8	8.37e-01	0	51	104	0	59	23317
2026-01-07 02:02:07.02	235.21	7.28	-43.6	-57.7	4.4	8.44e-01	0	51	0	0	59	17509
2026-01-07 02:02:08.03	235.10	7.37	-43.3	-53.8	6.8	8.44e-01	0	51	0	0	58	11939
2026-01-07 02:02:09.04	234.99	7.45	-42.8	-50.7	9.9	5.99e-01	0	51	0	1572864	57	8851
2026-01-07 02:02:10.05	234.87	7.54	-42.2	-48.1	12.8	3.12e-02	0	51	0	2621440	56	6934
2026-01-07 02:02:11.06	234.76	7.62	-41.4	-46.5	14.4	9.84e-05	0	51	0	3670016	54	6423
2026-01-07 02:02:12.07	234.64	7.71	-40.8	-45.1	15.7	9.84e-05	0	51	0	4718592	53	5807
2026-01-07 02:02:13.08	234.53	7.80	-40.1	-43.6	17.2	0.00e+00	0	51	0	5767168	52	5186
2026-01-07 02:02:14.09	234.41	7.88	-39.6	-42.8	18.2	0.00e+00	0	51	0	6815744	51	5017
2026-01-07 02:02:15.10	234.29	7.97	-39.4	-42.5	18.5	0.00e+00	0	51	0	8388608	50	5136
2026-01-07 02:02:16.11	234.17	8.06	-39.4	-42.5	18.5	0.00e+00	0	51	0	9437184	50	5125
2026-01-07 02:02:17.12	234.05	8.15	-41.3	-46.0	15.0	0.00e+00	0	51	0	10485760	53	6428
2026-01-07 02:02:18.13	233.93	8.23	-41.5	-46.5	14.0	0.00e+00	0	51	0	11534336	54	6450
2026-01-07 02:02:19.14	233.81	8.32	-41.3	-46.2	14.2	1.10e-06	0	51	0	12582912	53	6585
2026-01-07 02:02:20.15	233.69	8.41	-39.8	-43.0	18.1	0.00e+00	0	51	0	14155776	50	5419
2026-01-07 02:02:21.16	233.56	8.50	-43.4	-55.1	5.0	0.00e+00	0	51	0	14680064	57	14699
2026-01-07 02:02:22.17	233.44	8.59	-39.0	-41.8	19.2	1.40e-01	0	51	0	15728640	50	4734
2026-01-07 02:02:23.18	233.31	8.68	-39.0	-41.8	19.3	1.11e-02	0	52	0	17301504	50	4735
2026-01-07 02:02:24.19	233.18	8.77	-38.9	-41.7	19.3	0.00e+00	0	52	0	18350080	49	4957
2026-01-07 02:02:25.20	233.05	8.86	-38.5	-41.1	19.9	0.00e+00	0	52	0	19398656	49	4623
2026-01-07 02:02:26.21	232.92	8.95	-38.4	-40.8	20.2	0.00e+00	0	52	0	20447232	48	4751
2026-01-07 02:02:27.22	232.79	9.05	-38.1	-40.5	20.5	0.00e+00	0	52	0	21495808	48	4598
2026-01-07 02:02:28.23	232.66	9.14	-38.3	-40.7	20.4	0.00e+00	0	51	0	22544384	48	4702
2026-01-07 02:02:29.23	232.53	9.23	-38.4	-40.9	20.3	0.00e+00	0	52	0	24117248	48	4762
2026-01-07 02:02:30.24	232.40	9.32	-38.2	-40.7	20.5	0.00e+00	0	52	0	25165824	48	4661
2026-01-07 02:02:31.25	232.26	9.41	-38.5	-41.1	20.1	0.00e+00	0	52	0	26214400	48	4896
2026-01-07 02:02:32.27	232.12	9.51	-38.4	-40.8	20.3	0.00e+00	0	52	0	27262976	48	4748
2026-01-07 02:02:33.28	231.98	9.60	-38.2	-40.6	20.5	0.00e+00	0	52	0	28311552	48	4649
2026-01-07 02:02:34.28	231.85	9.70	-38.3	-40.7	20.5	0.00e+00	0	52	0	29360128	48	4677
2026-01-07 02:02:35.29	231.71	9.79	-38.1	-40.5	20.7	0.00e+00	0	52	0	30932992	48	4576
2026-01-07 02:02:36.30	231.56	9.89	-38.3	-40.7	20.6	0.00e+00	0	52	0	31981568	48	4686
2026-01-07 02:02:37.31	231.42	9.98	-38.3	-40.7	20.5	0.00e+00	0	52	0	33030144	48	4684
2026-01-07 02:02:38.32	231.28	10.08	-38.3	-40.7	20.5	0.00e+00	0	52	0	34078720	48	4704
2026-01-07 02:02:39.33	231.13	10.18	-38.2	-40.6	20.6	0.00e+00	0	52	0	35127296	48	4636
2026-01-07 02:02:40.34	230.99	10.27	-37.9	-40.3	21.0	0.00e+00	0	52	0	36175872	47	4712
2026-01-07 02:02:41.35	230.84	10.37	-38.1	-40.5	20.8	0.00e+00	0	52	0	37748736	47	4816
2026-01-07 02:02:42.36	230.69	10.47	-37.8	-40.0	21.2	0.00e+00	0	52	0	38797312	47	4595
2026-01-07 02:02:43.37	230.54	10.57	-38.0	-40.4	20.9	0.00e+00	0	52	0	39845888	47	4772
2026-01-07 02:02:44.38	230.39	10.66	-37.7	-40.0	21.3	0.00e+00	0	52	0	40894464	47	4564
2026-01-07 02:02:45.39	230.23	10.76	-37.6	-39.8	21.5	0.00e+00	0	52	0	41943040	47	4459
2026-01-07 02:02:46.40	230.08	10.86	-37.4	-39.5	21.8	0.00e+00	0	52	0	42991616	46	4595
2026-01-07 02:02:47.41	229.92	10.96	-37.3	-39.4	21.8	0.00e+00	0	52	0	44564480	46	4543
2026-01-07 02:02:48.42	229.76	11.06	-37.4	-39.6	21.7	0.00e+00	0	52	0	45613056	46	4610
2026-01-07 02:02:49.43	229.60	11.16	-37.6	-39.8	21.5	0.00e+00	0	52	0	46661632	46	4751
2026-01-07 02:02:50.44	229.44	11.27	-37.7	-39.9	21.4	0.00e+00	0	52	0	47710208	46	4796
2026-01-07 02:02:51.45	229.28	11.37	-37.6	-39.8	21.5	0.00e+00	0	52	0	48758784	46	4723
2026-01-07 02:02:52.46	229.12	11.47	-37.6	-39.8	21.5	0.00e+00	0	52	0	49807360	46	4730
2026-01-07 02:02:53.47	228.95	11.57	-37.6	-39.8	21.6	0.00e+00	0	52	0	51380224	46	4718
2026-01-07 02:02:54.48	228.79	11.68	-37.6	-39.9	21.5	0.00e+00	0	52	0	52428800	46	4767
2026-01-07 02:02:55.49	228.62	11.78	-37.3	-39.4	21.9	0.00e+00	0	52	0	53477376	46	4542
2026-01-07 02:02:56.50	228.45	11.88	-37.1	-39.1	22.1	0.00e+00	0	53	0	54525952	46	4388
2026-01-07 02:02:57.51	228.28	11.99	-37.2	-39.3	22.1	0.00e+00	0	53	0	55574528	46	4450
2026-01-07 02:02:58.52	228.10	12.09	-37.1	-39.1	22.2	0.00e+00	0	53	0	56623104	46	4372
2026-01-07 02:02:59.53	227.93	12.20	-37.0	-39.0	22.3	0.00e+00	0	53	0	58195968	46	4332
2026-01-07 02:03:00.54	227.75	12.30	-37.1	-39.1	22.3	0.00e+00	0	53	0	59244544	46	4363
2026-01-07 02:03:01.55	227.57	12.41	-37.3	-39.4	21.9	0.00e+00	0	53	0	60293120	46	4539
2026-01-07 02:03:02.56	227.39	12.52	-37.4	-39.5	21.9	0.00e+00	0	52	0	61341696	46	4546
2026-01-07 02:03:03.57	227.21	12.62	-37.4	-39.5	21.9	0.00e+00	0	53	0	62390272	46	4551
2026-01-07 02:03:04.58	227.03	12.73	-37.2	-39.3	22.1	0.00e+00	0	53	0	63438848	46	4445
2026-01-07 02:03:05.59	226.84	12.84	-37.2	-39.3	22.1	0.00e+00	0	53	0	65011712	46	4452
2026-01-07 02:03:06.60	226.66	12.95	-37.2	-39.2	22.1	0.00e+00	0	53	0	66060288	46	4413
2026-01-07 02:03:07.61	226.47	13.06	-37.1	-39.1	22.2	0.00e+00	0	53	0	67108864	46	4377
2026-01-07 02:03:08.62	226.28	13.17	-36.9	-38.9	22.5	0.00e+00	0	53	0	68157440	45	4529
2026-01-07 02:03:09.63	226.08	13.28	-37.0	-39.0	22.5	0.00e+00	0	52	0	69206016	45	4548
2026-01-07 02:03:10.64	225.89	13.39	-37.1	-39.2	22.2	0.00e+00	0	53	0	70254592	45	4670
2026-01-07 02:03:11.64	225.70	13.50	-37.3	-39.4	22.1	0.00e+00	0	53	0	71827456	45	4762
2026-01-07 02:03:12.65	225.50	13.61	-37.2	-39.2	22.2	0.00e+00	0	53	0	72876032	45	4689
2026-01-07 02:03:13.67	225.30	13.72	-37.1	-39.1	22.3	0.00e+00	0	53	0	73924608	45	4638
2026-01-07 02:03:14.67	225.10	13.83	-37.1	-39.2	22.3	0.00e+00	0	53	0	74973184	45	4653
2026-01-07 02:03:15.68	224.89	13.95	-37.0	-39.0	22.5	0.00e+00	0	53	0	76021760	45	4569
2026-01-07 02:03:16.70	224.68	14.06	-36.9	-38.8	22.6	0.00e+00	0	53	0	77070336	45	4477
2026-01-07 02:03:17.71	224.48	14.18	-36.6	-38.4	23.0	0.00e+00	0	53	0	78643200	45	4266
2026-01-07 02:03:18.72	224.27	14.29	-36.4	-38.1	23.3	0.00e+00	0	53	0	79691776	44	4391
2026-01-07 02:03:19.73	224.05	14.40	-36.4	-38.2	23.2	0.00e+00	0	53	0	80740352	44	4432
2026-01-07 02:03:20.74	223.84	14.52	-36.1	-37.9	23.6	0.00e+00	0	53	0	81788928	44	4254
2026-01-07 02:03:21.75	223.62	14.64	-36.3	-38.0	23.5	0.00e+00	0	53	0	82837504	44	4340
2026-01-07 02:03:22.76	223.40	14.75	-36.4	-38.2	23.3	0.00e+00	0	53	0	84410368	44	4436
2026-01-07 02:03:23.77	223.18	14.87	-36.4	-38.2	23.3	0.00e+00	0	53	0	85458944	44	4419
2026-01-07 02:03:24.78	222.96	14.99	-36.4	-38.2	23.3	0.00e+00	0	53	0	86507520	44	4413
2026-01-07 02:03:25.79	222.73	15.10	-36.2	-37.9	23.5	0.00e+00	0	53	0	87556096	44	4288
2026-01-07 02:03:26.80	222.51	15.22	-36.0	-37.7	23.8	0.00e+00	0	53	0	88604672	44	4190
2026-01-07 02:03:27.81	222.28	15.34	-36.1	-37.8	23.7	0.00e+00	0	53	0	89653248	44	4235
2026-01-07 02:03:28.82	222.04	15.46	-36.1	-37.8	23.7	0.00e+00	0	53	0	90701824	44	4238
2026-01-07 02:03:29.83	221.81	15.58	-36.3	-38.1	23.5	0.00e+00	0	53	0	92274688	44	4356
2026-01-07 02:03:30.84	221.57	15.70	-36.6	-38.5	23.2	0.00e+00	0	53	0	93323264	44	4546
2026-01-07 02:03:31.85	221.33	15.82	-36.5	-38.4	23.2	0.00e+00	0	53	0	94371840	44	4513
2026-01-07 02:03:32.86	221.09	15.94	-36.4	-38.3	23.3	0.00e+00	0	53	0	95420416	44	4445
2026-01-07 02:03:33.87	220.85	16.06	-36.4	-38.2	23.3	0.00e+00	0	53	0	96468992	44	4421
2026-01-07 02:03:34.87	220.60	16.18	-36.2	-38.0	23.6	0.00e+00	0	53	0	97517568	44	4308
2026-01-07 02:03:35.88	220.35	16.30	-36.1	-37.9	23.7	0.00e+00	0	53	0	99090432	44	4244
2026-01-07 02:03:36.89	220.10	16.42	-36.2	-38.0	23.6	0.00e+00	0	53	0	100139008	44	4301
2026-01-07 02:03:37.90	219.85	16.55	-35.7	-37.4	23.9	0.00e+00	0	53	0	101187584	43	4285
2026-01-07 02:03:38.91	219.59	16.67	-35.7	-37.4	24.0	0.00e+00	0	53	0	102236160	43	4266
2026-01-07 02:03:39.92	219.33	16.79	-35.6	-37.3	24.1	0.00e+00	0	53	0	103284736	43	4194
2026-01-07 02:03:40.93	219.07	16.92	-35.5	-37.1	24.1	0.00e+00	0	53	0	104333312	42	4386
2026-01-07 02:03:41.94	218.80	17.04	-35.5	-37.2	24.2	0.00e+00	0	53	0	105906176	42	4416
2026-01-07 02:03:42.95	218.53	17.17	-35.5	-37.2	24.2	0.00e+00	0	53	0	106954752	42	4434
2026-01-07 02:03:43.96	218.26	17.29	-35.7	-37.5	23.9	0.00e+00	0	53	0	108003328	42	4562
2026-01-07 02:03:44.97	217.99	17.42	-35.5	-37.2	24.2	0.00e+00	0	53	0	109051904	42	4433
2026-01-07 02:03:45.98	217.71	17.54	-35.6	-37.3	24.1	0.00e+00	0	53	0	110100480	42	4482
2026-01-07 02:03:46.99	217.43	17.67	-35.4	-37.0	24.4	0.00e+00	0	53	0	111149056	42	4325
2026-01-07 02:03:48.00	217.15	17.79	-35.2	-36.8	24.6	0.00e+00	0	53	0	112721920	42	4211
2026-01-07 02:03:49.01	216.87	17.92	-35.0	-36.6	24.8	0.00e+00	0	53	0	113770496	42	4105
2026-01-07 02:03:50.02	216.58	18.05	-34.8	-36.4	25.0	0.00e+00	0	53	0	114819072	41	4252
2026-01-07 02:03:51.03	216.29	18.18	-34.9	-36.4	25.0	0.00e+00	0	53	0	115867648	41	4284
2026-01-07 02:03:52.03	215.99	18.30	-35.0	-36.5	24.9	0.00e+00	0	53	0	116916224	41	4337
2026-01-07 02:03:53.04	215.70	18.43	-35.1	-36.8	24.6	0.00e+00	0	53	0	117964800	41	4454
2026-01-07 02:03:54.05	215.40	18.56	-35.1	-36.7	24.7	0.00e+00	0	53	0	119537664	41	4425
2026-01-07 02:03:55.07	215.09	18.69	-35.1	-36.8	24.7	0.00e+00	0	53	0	120586240	41	4453
2026-01-07 02:03:56.07	214.79	18.81	-34.9	-36.5	24.9	0.00e+00	0	53	0	121634816	41	4337
2026-01-07 02:03:57.08	214.48	18.94	-34.8	-36.3	25.1	0.00e+00	0	54	0	122683392	41	4230
2026-01-07 02:03:58.09	214.17	19.07	-34.7	-36.2	25.2	0.00e+00	0	53	0	123731968	41	4180
2026-01-07 02:03:59.10	213.85	19.20	-34.8	-36.4	25.1	0.00e+00	0	54	0	125304832	41	4255
2026-01-07 02:04:00.11	213.53	19.33	-34.9	-36.5	25.0	0.00e+00	0	53	0	126353408	41	4297
2026-01-07 02:04:01.12	213.21	19.46	-35.0	-36.7	24.8	0.00e+00	0	53	0	127401984	41	4394
2026-01-07 02:04:02.13	212.88	19.59	-34.8	-36.3	25.1	0.00e+00	0	54	0	128450560	41	4225
2026-01-07 02:04:03.14	212.55	19.72	-34.9	-36.4	25.1	0.00e+00	0	54	0	129499136	41	4272
2026-01-07 02:04:04.15	212.22	19.85	-35.0	-36.6	24.9	0.00e+00	0	54	0	130547712	41	4362
2026-01-07 02:04:05.16	211.88	19.98	-35.2	-36.9	24.6	0.00e+00	0	54	0	131596288	41	4500
2026-01-07 02:04:06.17	211.54	20.11	-34.8	-36.4	25.0	0.00e+00	0	54	0	133169152	41	4276
2026-01-07 02:04:07.18	211.20	20.24	-34.7	-36.3	25.1	0.00e+00	0	53	0	134217728	41	4211
2026-01-07 02:04:08.19	210.85	20.37	-34.6	-36.1	25.4	0.00e+00	0	54	0	135266304	41	4124
2026-01-07 02:04:09.20	210.50	20.50	-35.0	-36.6	24.9	0.00e+00	0	54	0	136314880	41	4347
2026-01-07 02:04:10.21	210.15	20.63	-35.1	-36.7	24.8	0.00e+00	0	54	0	137363456	41	4416
2026-01-07 02:04:11.22	209.79	20.75	-34.7	-36.2	25.2	0.00e+00	0	54	0	138412032	41	4188
2026-01-07 02:04:12.23	209.43	20.88	-34.7	-36.2	25.3	0.00e+00	0	54	0	139984896	41	4171
2026-01-07 02:04:13.24	209.07	21.01	-34.7	-36.3	25.2	0.00e+00	0	54	0	141033472	41	4231
2026-01-07 02:04:14.25	208.70	21.14	-34.8	-36.4	25.1	0.00e+00	0	54	0	142082048	41	4253
2026-01-07 02:04:15.26	208.33	21.27	-34.6	-36.2	25.3	0.00e+00	0	54	0	143130624	41	4156
2026-01-07 02:04:16.27	207.95	21.40	-34.9	-36.4	25.1	0.00e+00	0	54	0	144179200	41	4282
2026-01-07 02:04:17.28	207.57	21.53	-34.8	-36.4	25.2	0.00e+00	0	54	0	145227776	41	4261
2026-01-07 02:04:18.29	207.19	21.66	-34.6	-36.1	25.3	0.00e+00	0	54	0	146800640	41	4141
2026-01-07 02:04:19.30	206.80	21.78	-34.5	-36.0	25.6	0.00e+00	0	54	0	147849216	40	4301
2026-01-07 02:04:20.31	206.41	21.91	-34.5	-36.1	25.4	0.00e+00	0	54	0	148897792	40	4351
2026-01-07 02:04:21.32	206.01	22.04	-34.6	-36.2	25.4	0.00e+00	0	54	0	149946368	40	4392
2026-01-07 02:04:22.33	205.62	22.17	-34.2	-35.7	25.8	0.00e+00	0	54	0	150994944	40	4149
2026-01-07 02:04:23.34	205.21	22.29	-34.3	-35.7	25.7	0.00e+00	0	54	0	152043520	40	4189
2026-01-07 02:04:24.35	204.81	22.42	-34.1	-35.6	25.9	0.00e+00	0	54	0	153616384	40	4129
2026-01-07 02:04:25.36	204.40	22.54	-34.2	-35.7	25.8	0.00e+00	0	54	0	154664960	40	4159
2026-01-07 02:04:26.37	203.98	22.67	-34.4	-35.9	25.6	0.00e+00	0	54	0	155713536	40	4255
2026-01-07 02:04:27.38	203.57	22.79	-34.3	-35.8	25.7	0.00e+00	0	54	0	156762112	40	4198
2026-01-07 02:04:28.39	203.14	22.92	-34.3	-35.8	25.7	0.00e+00	0	54	0	157810688	40	4237
2026-01-07 02:04:29.40	202.72	23.04	-34.4	-36.0	25.6	0.00e+00	0	54	0	159383552	40	4297
2026-01-07 02:04:30.41	202.29	23.16	-34.2	-35.7	25.8	0.00e+00	0	54	0	160432128	40	4187
2026-01-07 02:04:31.42	201.85	23.28	-34.5	-36.0	25.5	0.00e+00	0	54	0	161480704	40	4325
2026-01-07 02:04:32.42	201.42	23.40	-34.3	-35.8	25.7	0.00e+00	0	54	0	162529280	40	4234
2026-01-07 02:04:33.43	200.98	23.52	-34.4	-35.9	25.6	0.00e+00	0	54	0	163577856	40	4280
2026-01-07 02:04:34.44	200.53	23.64	-34.5	-36.0	25.6	0.00e+00	0	54	0	164626432	40	4318
2026-01-07 02:04:35.45	200.08	23.76	-34.3	-35.8	25.7	0.00e+00	0	54	0	166199296	40	4213
2026-01-07 02:04:36.46	199.63	23.87	-34.2	-35.7	25.8	0.00e+00	0	54	0	167247872	40	4162
2026-01-07 02:04:37.47	199.17	23.99	-34.0	-35.5	26.0	0.00e+00	0	54	0	168296448	40	4081
2026-01-07 02:04:38.48	198.71	24.11	-34.1	-35.5	26.1	0.00e+00	0	54	0	169345024	39	4329
2026-01-07 02:04:39.49	198.25	24.22	-33.9	-35.4	26.1	0.00e+00	0	54	0	170393600	39	4270
2026-01-07 02:04:40.50	197.78	24.33	-33.7	-35.2	26.3	0.00e+00	0	54	0	171442176	39	4152
2026-01-07 02:04:41.51	197.31	24.44	-34.0	-35.5	26.1	0.00e+00	0	54	0	172490752	39	4315
2026-01-07 02:04:42.52	196.83	24.55	-34.0	-35.4	26.1	0.00e+00	0	54	0	174063616	39	4279
2026-01-07 02:04:43.53	196.35	24.66	-33.7	-35.2	26.4	0.00e+00	0	54	0	175112192	39	4153
2026-01-07 02:04:44.54	195.86	24.77	-33.8	-35.3	26.3	0.00e+00	0	54	0	176160768	39	4197
2026-01-07 02:04:45.55	195.38	24.88	-33.8	-35.2	26.4	0.00e+00	0	54	0	177209344	39	4189
2026-01-07 02:04:46.56	194.88	24.98	-33.5	-35.0	26.6	0.00e+00	0	54	0	178257920	39	4052
2026-01-07 02:04:47.57	194.39	25.08	-33.7	-35.1	26.4	0.00e+00	0	54	0	179306496	39	4138
2026-01-07 02:04:48.58	193.89	25.19	-33.9	-35.3	26.3	0.00e+00	0	54	0	180879360	39	4241
2026-01-07 02:04:49.59	193.38	25.29	-33.9	-35.4	26.2	0.00e+00	0	54	0	181927936	39	4247
2026-01-07 02:04:50.60	192.88	25.38	-33.7	-35.2	26.4	0.00e+00	0	54	0	182976512	39	4163
2026-01-07 02:04:51.61	192.37	25.48	-33.8	-35.3	26.4	0.00e+00	0	54	0	184025088	39	4208
2026-01-07 02:04:52.62	191.85	25.58	-33.6	-35.0	26.6	0.00e+00	0	54	0	185073664	39	4053
2026-01-07 02:04:53.63	191.34	25.67	-33.2	-34.6	26.9	0.00e+00	0	54	0	186122240	38	4106
2026-01-07 02:04:54.64	190.81	25.76	-33.3	-34.7	26.8	0.00e+00	0	54	0	187695104	38	4182
2026-01-07 02:04:55.65	190.29	25.85	-33.7	-35.2	26.4	0.00e+00	0	54	0	188743680	38	4392
2026-01-07 02:04:56.66	189.76	25.94	-33.6	-35.0	26.5	0.00e+00	0	54	0	189792256	38	4332
2026-01-07 02:04:57.67	189.23	26.02	-33.3	-34.7	26.8	0.00e+00	0	54	0	190840832	38	4168
2026-01-07 02:04:58.68	188.70	26.10	-33.7	-35.1	26.5	0.00e+00	0	54	0	191889408	38	4351
2026-01-07 02:04:59.69	188.16	26.19	-33.5	-34.9	26.7	0.00e+00	0	54	0	192937984	38	4250
2026-01-07 02:05:00.70	187.62	26.26	-32.9	-34.3	27.1	0.00e+00	0	54	0	194510848	37	4203
2026-01-07 02:05:01.71	187.07	26.34	-33.0	-34.4	27.1	0.00e+00	0	55	0	195559424	37	4265
2026-01-07 02:05:02.72	186.53	26.42	-33.4	-34.8	26.7	0.00e+00	0	54	0	196608000	37	4478
2026-01-07 02:05:03.73	185.98	26.49	-33.3	-34.7	26.8	0.00e+00	0	54	0	197656576	37	4400
2026-01-07 02:05:04.74	185.43	26.56	-33.3	-34.6	26.8	0.00e+00	0	54	0	198705152	37	4382
2026-01-07 02:05:05.75	184.87	26.63	-33.4	-34.8	26.4	0.00e+00	0	54	0	200278016	37	4492
2026-01-07 02:05:06.76	184.31	26.69	-33.4	-34.8	26.8	0.00e+00	0	54	0	201326592	37	4445
2026-01-07 02:05:07.77	183.75	26.75	-33.6	-35.0	26.5	0.00e+00	0	54	0	202375168	37	4555
2026-01-07 02:05:08.78	183.19	26.81	-33.8	-35.3	26.3	0.00e+00	0	54	0	203423744	38	4443
2026-01-07 02:05:09.79	182.63	26.87	-33.8	-35.2	26.4	0.00e+00	0	55	0	204472320	38	4428
2026-01-07 02:05:10.80	182.06	26.93	-33.9	-35.3	26.2	0.00e+00	0	54	0	205520896	38	4480
2026-01-07 02:05:11.81	181.49	26.98	-33.7	-35.1	26.5	0.00e+00	0	54	0	207093760	38	4360
2026-01-07 02:05:12.82	180.92	27.03	-33.5	-34.9	26.7	0.00e+00	0	54	0	208142336	38	4260
2026-01-07 02:05:13.82	180.35	27.07	-33.6	-35.0	26.5	0.00e+00	0	54	0	209190912	38	4323
2026-01-07 02:05:14.83	179.77	27.12	-33.6	-35.0	26.6	0.00e+00	0	54	0	210239488	38	4312
2026-01-07 02:05:15.84	179.20	27.16	-33.7	-35.1	26.5	0.00e+00	0	54	0	211288064	38	4349
2026-01-07 02:05:16.85	178.62	27.20	-34.0	-35.4	26.2	0.00e+00	0	55	0	212336640	38	4542
2026-01-07 02:05:17.86	178.04	27.23	-33.7	-35.1	26.4	0.00e+00	0	55	0	213385216	38	4385
2026-01-07 02:05:18.87	177.46	27.27	-33.2	-34.5	27.1	0.00e+00	0	54	0	214958080	38	4089
2026-01-07 02:05:19.88	176.87	27.30	-33.6	-35.0	26.8	0.00e+00	0	55	0	216006656	38	4323
2026-01-07 02:05:20.89	176.29	27.33	-33.6	-35.0	26.6	0.00e+00	0	54	0	217055232	38	4312
2026-01-07 02:05:21.90	175.70	27.35	-33.8	-35.2	26.4	0.00e+00	0	55	0	218103808	38	4433
2026-01-07 02:05:22.91	175.12	27.37	-34.3	-35.8	25.9	0.00e+00	0	54	0	219152384	39	4456
2026-01-07 02:05:23.92	174.53	27.39	-33.8	-35.3	26.3	0.00e+00	0	55	0	220200960	39	4204
2026-01-07 02:05:24.93	173.94	27.41	-33.4	-34.8	26.8	0.00e+00	0	55	0	221773824	38	4218
2026-01-07 02:05:25.94	173.35	27.42	-33.5	-34.9	26.7	0.00e+00	0	54	0	222822400	38	4288
2026-01-07 02:05:26.95	172.77	27.43	-33.5	-34.9	26.7	0.00e+00	0	55	0	223870976	38	4278
2026-01-07 02:05:27.96	172.18	27.43	-33.6	-35.0	26.6	0.00e+00	0	55	0	224919552	38	4310
2026-01-07 02:05:28.97	171.59	27.44	-33.7	-35.1	26.5	0.00e+00	0	55	0	225968128	38	4364
2026-01-07 02:05:29.98	171.00	27.44	-33.3	-34.7	26.9	0.00e+00	0	55	0	227016704	38	4173
2026-01-07 02:05:30.99	170.41	27.44	-33.3	-34.7	26.9	0.00e+00	0	55	0	228589568	38	4180
2026-01-07 02:05:32.00	169.82	27.43	-33.4	-34.8	26.8	0.00e+00	0	55	0	229638144	38	4232
2026-01-07 02:05:33.01	169.23	27.42	-33.3	-34.7	26.9	0.00e+00	0	55	0	230686720	38	4174
2026-01-07 02:05:34.02	168.64	27.41	-33.6	-35.0	26.7	0.00e+00	0	55	0	231735296	38	4321
2026-01-07 02:05:35.03	168.05	27.40	-33.6	-35.0	26.7	0.00e+00	0	55	0	232783872	38	4330
2026-01-07 02:05:36.04	167.47	27.38	-33.6	-35.0	26.7	0.00e+00	0	55	0	233832448	38	4304
2026-01-07 02:05:37.05	166.88	27.36	-33.8	-35.2	26.6	0.00e+00	0	55	0	235405312	38	4432
2026-01-07 02:05:38.06	166.30	27.34	-33.7	-35.1	26.6	0.00e+00	0	55	0	236453888	38	4386
2026-01-07 02:05:39.07	165.71	27.31	-33.8	-35.3	26.4	0.00e+00	0	55	0	237502464	38	4484
2026-01-07 02:05:40.07	165.13	27.28	-33.8	-35.3	26.4	0.00e+00	0	55	0	238551040	38	4465
2026-01-07 02:05:41.08	164.55	27.25	-33.6	-35.0	26.7	0.00e+00	0	55	0	239599616	38	4329
2026-01-07 02:05:42.09	163.97	27.22	-33.8	-35.2	26.6	0.00e+00	0	55	0	240648192	38	4423
2026-01-07 02:05:43.10	163.39	27.18	-33.7	-35.1	26.6	0.00e+00	0	54	0	242221056	38	4377
2026-01-07 02:05:44.11	162.81	27.14	-33.6	-35.0	26.7	0.00e+00	0	55	0	243269632	38	4338
2026-01-07 02:05:45.12	162.24	27.10	-33.6	-35.1	26.7	0.00e+00	0	55	0	244318208	38	4350
2026-01-07 02:05:46.13	161.66	27.05	-33.6	-35.1	26.7	0.00e+00	0	55	0	245366784	38	4350
2026-01-07 02:05:47.14	161.09	27.00	-33.3	-34.7	27.0	0.00e+00	0	55	0	246415360	38	4155
2026-01-07 02:05:48.15	160.52	26.95	-33.6	-35.1	26.7	0.00e+00	0	55	0	247988224	38	4349
2026-01-07 02:05:49.16	159.95	26.90	-33.9	-35.3	26.4	0.00e+00	0	55	0	249036800	38	4483
2026-01-07 02:05:50.17	159.39	26.84	-33.9	-35.4	26.4	0.00e+00	0	55	0	250085376	38	4517
2026-01-07 02:05:51.18	158.83	26.78	-33.9	-35.4	26.4	0.00e+00	0	55	0	251133952	38	4515
2026-01-07 02:05:52.19	158.27	26.72	-33.7	-35.2	26.5	0.00e+00	0	55	0	252182528	38	4392
2026-01-07 02:05:53.20	157.71	26.66	-33.5	-34.9	26.8	0.00e+00	0	55	0	253231104	38	4261
2026-01-07 02:05:54.21	157.15	26.59	-33.6	-35.0	26.8	0.00e+00	0	55	0	254279680	38	4314
2026-01-07 02:05:55.22	156.60	26.52	-33.5	-34.9	26.8	0.00e+00	0	55	0	255852544	38	4287
2026-01-07 02:05:56.23	156.05	26.45	-33.6	-35.0	26.7	0.00e+00	0	55	0	256901120	38	4314
2026-01-07 02:05:57.24	155.50	26.38	-33.7	-35.2	26.5	0.00e+00	0	55	0	257949696	38	4414
2026-01-07 02:05:58.25	154.96	26.30	-33.5	-34.9	26.7	0.00e+00	0	55	0	258998272	38	4279
2026-01-07 02:05:59.26	154.42	26.22	-33.6	-35.0	26.7	0.00e+00	0	55	0	260046848	38	4319
2026-01-07 02:06:00.27	153.88	26.14	-33.8	-35.2	26.4	0.00e+00	0	55	0	261095424	38	4441
2026-01-07 02:06:01.28	153.34	26.06	-33.6	-35.1	26.6	0.00e+00	0	55	0	262668288	38	4347
2026-01-07 02:06:02.29	152.81	25.98	-33.5	-34.9	26.7	0.00e+00	0	55	0	263716864	38	4285
2026-01-07 02:06:03.30	152.28	25.89	-33.7	-35.1	26.5	0.00e+00	0	55	0	264765440	38	4364
2026-01-07 02:06:04.31	151.76	25.80	-33.6	-35.0	26.7	0.00e+00	0	55	0	265814016	38	4306
2026-01-07 02:06:05.32	151.23	25.71	-33.3	-34.7	26.9	0.00e+00	0	55	0	266862592	38	4161
2026-01-07 02:06:06.33	150.72	25.62	-33.5	-34.9	26.7	0.00e+00	0	55	0	267911168	38	4290
2026-01-07 02:06:07.34	150.20	25.53	-33.8	-35.2	26.4	0.00e+00	0	55	0	269484032	38	4419
2026-01-07 02:06:08.35	149.69	25.43	-34.0	-35.5	26.2	0.00e+00	0	55	0	270532608	38	4555
2026-01-07 02:06:09.36	149.18	25.33	-34.2	-35.8	25.9	0.00e+00	0	55	0	271581184	39	4443
2026-01-07 02:06:10.37	148.68	25.23	-34.1	-35.6	26.0	0.00e+00	0	55	0	272629760	39	4380
2026-01-07 02:06:11.38	148.18	25.13	-33.9	-35.3	26.3	0.00e+00	0	55	0	273678336	39	4225
2026-01-07 02:06:12.39	147.68	25.03	-33.7	-35.2	26.5	0.00e+00	0	55	0	274726912	39	4158
2026-01-07 02:06:13.40	147.19	24.93	-33.8	-35.2	26.4	0.00e+00	0	55	0	276299776	39	4163
2026-01-07 02:06:14.41	146.70	24.82	-33.5	-34.9	26.6	0.00e+00	0	55	0	277348352	39	4036
2026-01-07 02:06:15.42	146.21	24.72	-33.6	-35.0	26.6	0.00e+00	0	55	0	278396928	38	4320
2026-01-07 02:06:16.43	145.73	24.61	-33.8	-35.2	26.4	0.00e+00	0	55	0	279445504	38	4415
2026-01-07 02:06:17.44	145.25	24.50	-33.7	-35.2	26.4	0.00e+00	0	55	0	280494080	38	4415
2026-01-07 02:06:18.45	144.78	24.39	-33.8	-35.2	26.4	0.00e+00	0	55	0	282066944	38	4432
2026-01-07 02:06:19.46	144.31	24.28	-34.0	-35.5	26.1	0.00e+00	0	55	0	283115520	38	4552
2026-01-07 02:06:20.46	143.85	24.16	-34.1	-35.5	26.1	0.00e+00	0	55	0	284164096	38	4591
2026-01-07 02:06:21.47	143.39	24.05	-33.9	-35.3	26.3	0.00e+00	0	55	0	285212672	38	4473
2026-01-07 02:06:22.48	142.93	23.93	-33.8	-35.3	26.3	0.00e+00	0	55	0	286261248	38	4455
2026-01-07 02:06:23.49	142.47	23.82	-34.1	-35.6	26.0	0.00e+00	0	55	0	287309824	38	4606
2026-01-07 02:06:24.50	142.02	23.70	-33.8	-35.3	26.2	0.00e+00	0	55	0	288882688	38	4472
2026-01-07 02:06:25.51	141.58	23.58	-33.6	-35.0	26.4	0.00e+00	0	55	0	289931264	38	4332
2026-01-07 02:06:26.52	141.14	23.46	-33.4	-34.8	26.6	0.00e+00	0	55	0	290979840	38	4230
2026-01-07 02:06:27.53	140.70	23.34	-33.7	-35.2	26.3	0.00e+00	0	55	0	292028416	38	4410
2026-01-07 02:06:28.54	140.26	23.22	-34.0	-35.5	26.0	0.00e+00	0	55	0	293076992	38	4555
2026-01-07 02:06:29.55	139.83	23.10	-34.1	-35.6	26.0	0.00e+00	0	55	0	294125568	38	4599
2026-01-07 02:06:30.56	139.41	22.98	-33.8	-35.3	26.2	0.00e+00	0	55	0	295174144	38	4469
2026-01-07 02:06:31.57	138.98	22.86	-33.9	-35.3	26.2	0.00e+00	0	55	0	296747008	38	4487
2026-01-07 02:06:32.58	138.56	22.73	-33.9	-35.4	26.1	0.00e+00	0	55	0	297795584	38	4502
2026-01-07 02:06:33.59	138.15	22.61	-34.1	-35.5	26.0	0.00e+00	0	55	0	298844160	38	4592
2026-01-07 02:06:34.60	137.74	22.49	-34.2	-35.7	25.8	0.00e+00	0	55	0	299892736	38	4688
2026-01-07 02:06:35.61	137.33	22.36	-34.3	-35.8	25.7	0.00e+00	0	55	0	300941312	39	4442
2026-01-07 02:06:36.62	136.93	22.23	-34.4	-35.9	25.6	0.00e+00	0	55	0	301989888	39	4532
2026-01-07 02:06:37.63	136.53	22.11	-34.4	-35.9	25.5	0.00e+00	0	55	0	303562752	39	4540
2026-01-07 02:06:38.64	136.13	21.98	-34.3	-35.8	25.6	0.00e+00	0	55	0	304611328	39	4486
2026-01-07 02:06:39.65	135.74	21.85	-34.2	-35.8	25.7	0.00e+00	0	55	0	305659904	39	4443
2026-01-07 02:06:40.66	135.35	21.73	-34.3	-35.8	25.7	0.00e+00	0	55	0	306708480	39	4471
2026-01-07 02:06:41.67	134.97	21.60	-34.5	-36.0	25.5	0.00e+00	0	55	0	307757056	39	4572
2026-01-07 02:06:42.68	134.59	21.47	-34.5	-36.1	25.4	0.00e+00	0	55	0	308805632	39	4599
2026-01-07 02:06:43.69	134.21	21.34	-34.8	-36.3	25.0	0.00e+00	0	55	0	310378496	40	4481
2026-01-07 02:06:44.70	133.84	21.22	-35.0	-36.6	24.7	0.00e+00	0	55	0	311427072	40	4605
2026-01-07 02:06:45.71	133.47	21.09	-35.2	-36.8	24.6	0.00e+00	0	55	0	312475648	40	4727
2026-01-07 02:06:46.71	133.11	20.96	-35.0	-36.6	24.8	0.00e+00	0	55	0	313524224	41	4356
2026-01-07 02:06:47.73	132.74	20.83	-34.8	-36.3	25.0	0.00e+00	0	55	0	314572800	41	4226
2026-01-07 02:06:48.74	132.39	20.70	-34.5	-36.0	25.4	0.00e+00	0	55	0	315621376	41	4083
2026-01-07 02:06:49.75	132.03	20.57	-34.5	-36.0	25.3	0.00e+00	0	55	0	317194240	40	4325
2026-01-07 02:06:50.76	131.68	20.44	-34.5	-36.1	25.3	0.00e+00	0	55	0	318242816	40	4364
2026-01-07 02:06:51.77	131.33	20.31	-34.7	-36.2	25.1	0.00e+00	0	55	0	319291392	40	4439
2026-01-07 02:06:52.78	130.99	20.18	-34.8	-36.4	25.0	0.00e+00	0	55	0	320339968	40	4499
2026-01-07 02:06:53.79	130.65	20.05	-35.1	-36.7	24.7	0.00e+00	0	55	0	321388544	40	4676
2026-01-07 02:06:54.80	130.31	19.92	-35.0	-36.6	24.8	0.00e+00	0	55	0	322961408	40	4619
2026-01-07 02:06:55.81	129.98	19.80	-34.8	-36.4	25.0	0.00e+00	0	55	0	324009984	40	4540
2026-01-07 02:06:56.82	129.65	19.67	-34.8	-36.4	25.0	0.00e+00	0	55	0	325058560	40	4538
2026-01-07 02:06:57.82	129.32	19.54	-34.7	-36.3	25.0	0.00e+00	0	55	0	326107136	40	4477
2026-01-07 02:06:58.83	129.00	19.41	-34.7	-36.3	25.1	0.00e+00	0	55	0	327155712	40	4466
2026-01-07 02:06:59.83	128.68	19.28	-34.7	-36.3	25.0	0.00e+00	0	55	0	328204288	40	4466
2026-01-07 02:07:00.84	128.37	19.15	-34.7	-36.3	25.1	0.00e+00	0	55	0	329252864	40	4450
2026-01-07 02:07:01.85	128.05	19.02	-34.8	-36.4	24.9	0.00e+00	0	55	0	330825728	40	4520
2026-01-07 02:07:02.86	127.74	18.90	-35.1	-36.7	24.6	0.00e+00	0	55	0	331874304	40	4681
2026-01-07 02:07:03.87	127.44	18.77	-35.3	-37.0	24.4	0.00e+00	0	55	0	332922880	41	4550
2026-01-07 02:07:04.88	127.13	18.64	-35.3	-37.0	24.3	0.00e+00	0	55	0	333971456	41	4566
2026-01-07 02:07:05.89	126.83	18.51	-35.2	-36.8	24.5	0.00e+00	0	55	0	335020032	41	4481
2026-01-07 02:07:06.90	126.53	18.39	-35.0	-36.6	24.7	0.00e+00	0	55	0	336068608	41	4387
2026-01-07 02:07:07.91	126.24	18.26	-34.9	-36.5	24.8	0.00e+00	0	55	0	337641472	41	4308
2026-01-07 02:07:08.92	125.95	18.13	-35.0	-36.6	24.7	0.00e+00	0	55	0	338690048	41	4362
2026-01-07 02:07:09.93	125.66	18.00	-35.2	-36.9	24.5	0.00e+00	0	55	0	339738624	41	4500
2026-01-07 02:07:10.94	125.37	17.88	-35.5	-37.2	24.1	0.00e+00	0	55	0	340787200	41	4682
2026-01-07 02:07:11.95	125.09	17.75	-35.6	-37.3	24.0	0.00e+00	0	55	0	341835776	41	4729
2026-01-07 02:07:12.96	124.81	17.63	-35.5	-37.2	24.1	0.00e+00	0	55	0	342884352	41	4674
2026-01-07 02:07:13.97	124.53	17.50	-35.2	-36.8	24.4	0.00e+00	0	55	0	344457216	41	4483
2026-01-07 02:07:14.98	124.26	17.38	-35.2	-36.9	24.4	0.00e+00	0	55	0	345505792	41	4495
2026-01-07 02:07:15.99	123.99	17.25	-35.3	-36.9	24.3	0.00e+00	0	55	0	346554368	41	4530
2026-01-07 02:07:17.00	123.72	17.13	-35.4	-37.1	24.2	0.00e+00	0	55	0	347602944	41	4607
2026-01-07 02:07:18.00	123.46	17.00	-35.6	-37.3	23.9	0.00e+00	0	55	0	348651520	41	4738
2026-01-07 02:07:19.01	123.19	16.88	-35.6	-37.3	23.9	0.00e+00	0	56	0	349700096	41	4743
2026-01-07 02:07:20.02	122.93	16.76	-35.6	-37.3	23.9	0.00e+00	0	55	0	351272960	41	4742
2026-01-07 02:07:21.03	122.67	16.63	-35.5	-37.3	23.9	0.00e+00	0	55	0	352321536	41	4719
2026-01-07 02:07:22.04	122.42	16.51	-35.6	-37.3	23.9	0.00e+00	0	55	0	353370112	41	4751
2026-01-07 02:07:23.05	122.17	16.39	-35.8	-37.6	23.7	0.00e+00	0	55	0	354418688	42	4604
2026-01-07 02:07:24.06	121.92	16.27	-35.8	-37.6	23.7	0.00e+00	0	55	0	355467264	42	4612
2026-01-07 02:07:25.07	121.67	16.15	-36.0	-37.8	23.4	0.00e+00	0	55	0	356515840	42	4725
2026-01-07 02:07:26.08	121.42	16.03	-35.9	-37.7	23.5	0.00e+00	0	55	0	358088704	42	4683
2026-01-07 02:07:27.09	121.18	15.91	-35.7	-37.6	23.6	0.00e+00	0	55	0	359137280	42	4615
2026-01-07 02:07:28.10	120.94	15.78	-35.5	-37.3	23.9	0.00e+00	0	55	0	360185856	41	4728
2026-01-07 02:07:29.11	120.70	15.67	-35.6	-37.4	23.7	0.00e+00	0	55	0	361234432	41	4814
2026-01-07 02:07:30.12	120.47	15.55	-36.0	-37.8	23.4	0.00e+00	0	55	0	362283008	42	4758
2026-01-07 02:07:31.13	120.24	15.43	-36.3	-38.3	22.9	0.00e+00	0	55	0	363331584	43	4713
2026-01-07 02:07:32.14	120.01	15.31	-36.5	-38.4	22.8	0.00e+00	0	55	0	364904448	43	4789
2026-01-07 02:07:33.15	119.78	15.19	-36.5	-38.5	22.7	0.00e+00	0	55	0	365953024	43	4828
2026-01-07 02:07:34.16	119.55	15.07	-36.6	-38.5	22.6	0.00e+00	0	55	0	367001600	43	4856
2026-01-07 02:07:35.16	119.33	14.96	-36.3	-38.2	23.0	0.00e+00	0	55	0	368050176	43	4661
2026-01-07 02:07:36.17	119.11	14.84	-36.3	-38.3	22.9	0.00e+00	0	55	0	369098752	43	4711
2026-01-07 02:07:37.18	118.89	14.73	-36.3	-38.2	23.0	0.00e+00	0	55	0	370147328	43	4663
2026-01-07 02:07:38.19	118.67	14.61	-36.2	-38.1	23.1	0.00e+00	0	55	0	371720192	43	4637
2026-01-07 02:07:39.20	118.46	14.49	-36.2	-38.1	23.1	0.00e+00	0	55	0	372768768	43	4624
2026-01-07 02:07:40.21	118.24	14.38	-36.3	-38.2	23.0	0.00e+00	0	55	0	373817344	43	4683
2026-01-07 02:07:41.22	118.03	14.27	-36.2	-38.2	23.0	0.00e+00	0	55	0	374865920	43	4659
2026-01-07 02:07:42.23	117.83	14.15	-36.5	-38.5	22.7	0.00e+00	0	55	0	375914496	43	4831
2026-01-07 02:07:43.24	117.62	14.04	-36.8	-39.0	22.3	0.00e+00	0	55	0	376963072	44	4849
2026-01-07 02:07:44.25	117.41	13.93	-36.8	-39.2	22.1	0.00e+00	0	55	0	378535936	44	4934
2026-01-07 02:07:45.26	117.21	13.81	-36.7	-38.9	22.0	0.00e+00	0	55	0	379584512	43	5098
2026-01-07 02:07:46.27	117.01	13.70	-36.7	-38.9	22.0	1.10e-06	0	55	0	380633088	43	5087
2026-01-07 02:07:47.28	116.81	13.59	-36.7	-39.2	22.0	1.10e-06	0	56	0	381681664	44	4948
2026-01-07 02:07:48.29	116.62	13.48	-36.5	-39.1	21.9	6.80e-06	0	55	0	382730240	43	5201
2026-01-07 02:07:49.30	116.42	13.37	-36.3	-38.8	21.6	5.03e-05	0	55	0	383778816	43	5038
2026-01-07 02:07:50.31	116.23	13.26	-36.3	-38.8	21.7	5.03e-05	0	56	0	385351680	43	4995
2026-01-07 02:07:51.32	116.04	13.15	-36.2	-38.8	22.0	3.40e-06	0	55	0	386400256	43	5014
2026-01-07 02:07:52.33	115.85	13.04	-36.1	-38.8	21.9	2.74e-05	0	56	0	387448832	42	5297
2026-01-07 02:07:53.33	115.66	12.93	-36.4	-38.9	21.7	3.40e-06	0	56	0	388497408	43	5080
2026-01-07 02:07:54.35	115.48	12.82	-36.1	-39.2	21.5	3.40e-06	0	55	0	389545984	43	5264
2026-01-07 02:07:55.36	115.29	12.72	-36.7	-39.4	21.2	1.94e-05	0	55	0	390594560	42	5686
2026-01-07 02:07:56.37	115.11	12.61	-36.7	-39.6	21.1	0.00e+00	0	55	0	392167424	44	5163
2026-01-07 02:07:57.37	114.93	12.50	-37.0	-39.9	20.9	0.00e+00	0	55	0	393216000	44	5346
2026-01-07 02:07:58.38	114.75	12.40	-37.0	-39.8	21.1	2.20e-06	0	56	0	394264576	45	5031
2026-01-07 02:07:59.40	114.58	12.29	-37.1	-39.8	21.2	9.10e-06	0	55	0	395313152	44	5281
2026-01-07 02:08:00.40	114.40	12.19	-37.1	-39.7	21.3	9.10e-06	0	56	0	396361728	44	5237
2026-01-07 02:08:01.41	114.23	12.08	-30.9	-39.5	17.4	1.10e-06	0	56	0	397410304	33	9684
2026-01-07 02:08:02.43	114.05	11.98	-37.2	-39.9	21.1	1.48e-03	0	56	0	398983168	45	5081
2026-01-07 02:08:03.44	113.88	11.87	-37.2	-39.7	21.1	1.94e-05	0	55	0	400031744	45	4937
2026-01-07 02:08:04.45	113.72	11.77	-37.2	-39.9	21.0	1.94e-05	0	56	0	401080320	44	5367
2026-01-07 02:08:05.45	113.55	11.67	-37.4	-39.8	21.1	0.00e+00	0	55	0	402128896	45	5004
2026-01-07 02:08:06.46	113.39	11.56	-36.2	-39.6	21.0	0.00e+00	0	56	0	403177472	44	5188
2026-01-07 02:08:07.47	113.22	11.46	-37.4	-40.1	20.9	0.00e+00	0	55	0	404226048	45	5176
2026-01-07 02:08:08.49	113.06	11.36	-37.8	-40.5	20.3	2.20e-06	0	55	0	405798912	46	5117
2026-01-07 02:08:09.50	112.90	11.26	-38.0	-40.7	20.1	0.00e+00	0	55	0	406847488	46	5262
2026-01-07 02:08:10.51	112.74	11.16	-37.9	-40.7	20.3	0.00e+00	0	56	0	407896064	46	5226
2026-01-07 02:08:11.52	112.58	11.06	-37.9	-40.7	20.1	2.20e-06	0	56	0	408944640	45	5551
2026-01-07 02:08:12.53	112.42	10.96	-34.2	-40.0	19.9	5.37e-05	0	55	0	409993216	41	6485
2026-01-07 02:08:13.54	112.27	10.86	-37.7	-40.5	20.2	5.37e-05	0	55	0	411041792	46	5103
2026-01-07 02:08:14.55	112.11	10.76	-37.5	-40.7	19.9	2.00e-04	0	56	0	412614656	45	5541
2026-01-07 02:08:15.56	111.96	10.66	-36.1	-39.5	20.6	6.17e-05	0	55	0	413663232	43	5447
2026-01-07 02:08:16.56	111.81	10.56	-35.9	-38.9	21.0	6.17e-05	0	55	0	414711808	43	5093
2026-01-07 02:08:17.57	111.66	10.46	-36.5	-39.1	21.1	1.01e-04	0	56	0	415760384	43	5208
2026-01-07 02:08:18.58	111.51	10.37	-37.1	-40.6	19.8	1.83e-05	0	56	0	416808960	45	5521
2026-01-07 02:08:19.59	111.37	10.27	-39.4	-44.8	15.7	7.80e-04	0	55	0	417857536	49	7067
2026-01-07 02:08:20.60	111.22	10.17	-39.6	-45.4	14.6	7.80e-04	0	56	0	419430400	50	7180
2026-01-07 02:08:21.61	111.08	10.08	-34.8	-42.7	16.4	3.13e-04	0	56	0	420478976	37	11090
2026-01-07 02:08:22.62	110.93	9.98	-37.4	-42.6	17.4	2.09e-03	0	56	0	421527552	47	6154
2026-01-07 02:08:23.63	110.79	9.89	-38.8	-42.9	17.3	2.09e-03	0	56	0	422576128	48	6021
2026-01-07 02:08:24.64	110.65	9.79	-37.3	-42.0	17.8	5.83e-05	0	56	0	423624704	46	6092
2026-01-07 02:08:25.64	110.51	9.70	-37.4	-40.9	19.3	1.94e-05	0	55	0	424673280	45	5691
2026-01-07 02:08:26.66	110.37	9.60	-36.6	-41.2	18.2	1.94e-05	0	55	0	426246144	43	6586
2026-01-07 02:08:27.67	110.24	9.51	-36.7	-41.4	18.3	5.70e-06	0	56	0	427294720	44	6401
2026-01-07 02:08:28.68	110.10	9.42	-37.4	-41.8	17.4	6.80e-06	0	56	0	428343296	43	7041
2026-01-07 02:08:29.69	109.97	9.32	-35.9	-41.5	17.8	1.21e-03	0	56	0	429391872	42	7249
2026-01-07 02:08:30.69	109.83	9.23	-37.9	-41.7	18.2	1.21e-03	0	56	0	430440448	45	6220
2026-01-07 02:08:31.70	109.70	9.14	-37.9	-41.8	18.3	1.83e-05	0	55	0	431489024	46	5937
2026-01-07 02:08:32.71	109.57	9.05	-37.9	-41.7	18.5	1.37e-04	0	56	0	433061888	46	5890
2026-01-07 02:08:33.72	109.44	8.96	-37.7	-42.3	17.6	1.37e-04	0	56	0	434110464	44	7068
2026-01-07 02:08:34.73	109.31	8.87	-36.7	-41.5	17.2	1.05e-04	0	55	0	435159040	41	7661
2026-01-07 02:08:35.74	109.19	8.78	-29.1	-40.3	16.1	6.82e-04	0	56	0	436207616	33	10535
2026-01-07 02:08:36.75	109.06	8.69	-36.1	-40.9	18.4	6.82e-04	0	56	0	437256192	43	6410
2026-01-07 02:08:37.76	108.93	8.60	-36.6	-41.0	18.8	4.15e-03	0	56	0	438304768	44	6110
2026-01-07 02:08:38.77	108.81	8.51	-31.9	-40.4	17.9	3.84e-04	0	56	0	439877632	39	7620
2026-01-07 02:08:39.78	108.69	8.42	-32.2	-41.1	18.5	3.84e-04	0	56	0	440926208	44	6159
2026-01-07 02:08:40.79	108.56	8.33	-35.2	-40.9	17.1	2.05e-04	0	56	0	441974784	39	8040
2026-01-07 02:08:41.80	108.44	8.24	-35.5	-40.7	18.1	6.06e-05	0	55	0	443023360	43	6272
2026-01-07 02:08:42.81	108.32	8.15	-36.5	-41.3	18.1	1.06e-03	0	56	0	444071936	44	6285
2026-01-07 02:08:43.82	108.20	8.07	-35.6	-41.0	15.3	1.06e-03	0	56	0	445120512	34	10902
2026-01-07 02:08:44.83	108.08	7.98	-43.4	-61.8	3.6	2.07e-03	0	56	104	446169088	57	31488
2026-01-07 02:08:45.84	107.97	7.89	-44.2	-62.5	3.8	6.17e-01	0	56	104	446169088	59	30722
2026-01-07 02:08:46.85	107.85	7.81	-44.7	-62.9	3.8	6.17e-01	0	56	104	446169088	59	31937
2026-01-07 02:08:47.86	107.73	7.72	-44.8	-63.0	3.8	8.46e-01	0	56	104	446169088	60	30681
2026-01-07 02:08:48.87	107.62	7.64	-45.1	-63.3	3.8	8.45e-01	0	56	104	446169088	60	31749
2026-01-07 02:08:49.88	107.51	7.55	-45.2	-63.5	3.8	8.45e-01	0	56	104	446169088	60	32196
2026-01-07 02:08:50.89	107.39	7.46	-45.4	-63.7	3.8	8.45e-01	0	56	104	446169088	61	31090
2026-01-07 02:08:51.90	107.28	7.38	-45.4	-63.7	3.8	8.45e-01	0	56	104	446169088	61	31220
2026-01-07 02:08:52.92	107.17	7.30	-45.5	-63.8	3.8	8.45e-01	0	56	104	446169088	61	31472
2026-01-07 02:08:53.93	107.06	7.21	-45.5	-63.8	3.8	8.47e-01	0	56	104	446169088	61	31642
2026-01-07 02:08:54.94	106.95	7.13	-45.5	-63.8	3.8	8.46e-01	0	56	104	446169088	61	31522
2026-01-07 02:08:55.95	106.84	7.04	-45.4	-63.7	3.8	8.47e-01	0	56	104	446169088	61	31317
2026-01-07 02:08:56.96	106.74	6.96	-45.3	-63.7	3.8	8.47e-01	0	56	104	446169088	61	31200
2026-01-07 02:08:57.97	106.63	6.88	-45.2	-63.6	3.8	8.46e-01	0	56	104	446169088	61	30904
2026-01-07 02:08:58.98	106.52	6.80	-45.2	-63.6	3.8	8.46e-01	0	56	104	446169088	61	30895
2026-01-07 02:08:59.99	106.42	6.71	-45.2	-63.7	3.8	8.46e-01	0	56	104	446169088	61	31112
2026-01-07 02:09:01.00	106.32	6.63	-45.1	-63.6	3.8	8.47e-01	0	56	104	446169088	61	30817
2026-01-07 02:09:02.01	106.21	6.55	-45.1	-63.6	3.8	8.47e-01	0	56	104	446169088	61	30890
2026-01-07 02:09:03.02	106.11	6.47	-45.1	-63.6	3.8	8.47e-01	0	56	104	446169088	61	30766
2026-01-07 02:09:04.03	106.01	6.39	-45.1	-63.6	3.8	8.46e-01	0	56	104	446169088	61	30834
2026-01-07 02:09:05.04	105.91	6.31	-45.1	-63.5	3.8	8.46e-01	0	56	104	446169088	61	30698
2026-01-07 02:09:06.06	105.81	6.23	-45.1	-63.5	3.8	8.46e-01	0	56	104	446169088	61	30610
2026-01-07 02:09:07.07	105.71	6.15	-45.1	-63.5	3.8	8.46e-01	0	56	104	446169088	61	30704
2026-01-07 02:09:08.08	105.61	6.07	-45.1	-63.5	3.8	8.47e-01	0	56	104	446169088	61	30662
2026-01-07 02:09:09.09	105.51	5.99	-45.0	-63.5	3.8	8.46e-01	0	56	104	446169088	61	30601
2026-01-07 02:09:10.10	105.42	5.91	-45.1	-63.5	3.8	8.46e-01	0	56	104	446169088	61	30652
2026-01-07 02:09:11.11	105.32	5.83	-45.1	-63.5	3.8	8.46e-01	0	56	104	446169088	61	30495
2026-01-07 02:09:12.12	105.23	5.76	-45.0	-63.5	3.8	8.47e-01	0	56	104	446169088	61	30545
2026-01-07 02:09:13.13	105.13	5.68	-45.0	-63.5	3.8	8.47e-01	0	56	104	446169088	61	30437
2026-01-07 02:09:14.14	105.04	5.60	-45.0	-63.5	3.8	8.47e-01	0	56	104	446169088	61	30445
2026-01-07 02:09:15.15	104.94	5.52	-45.0	-63.4	3.8	8.46e-01	0	56	104	446169088	61	30362
2026-01-07 02:09:16.16	104.85	5.45	-45.0	-63.5	3.8	8.46e-01	0	56	104	446169088	61	30493
2026-01-07 02:09:17.17	104.76	5.37	-45.0	-63.5	3.8	8.45e-01	0	56	104	446169088	61	30395
2026-01-07 02:09:18.19	104.67	5.29	-45.0	-63.5	3.8	8.45e-01	0	56	104	446169088	61	30471
2026-01-07 02:09:19.20	104.58	5.22	-45.0	-63.5	3.8	8.46e-01	0	56	104	446169088	61	30520
2026-01-07 02:09:20.21	104.49	5.14	-45.0	-63.5	3.8	8.46e-01	0	56	104	446169088	61	30481
2026-01-07 02:09:21.22	104.40	5.06	-45.0	-63.5	3.8	8.47e-01	0	56	104	446169088	61	30520
2026-01-07 02:09:22.23	104.31	4.99	-45.0	-63.5	3.8	8.46e-01	0	56	104	446169088	61	30421
2026-01-07 02:09:23.24	104.22	4.91	-45.0	-63.5	3.8	8.46e-01	0	56	104	446169088	60	32238
2026-01-07 02:09:24.25	104.14	4.84	-45.0	-63.5	3.8	8.47e-01	0	56	104	446169088	60	32203
2026-01-07 02:09:25.26	104.05	4.76	-45.0	-63.5	3.8	8.46e-01	0	56	104	446169088	60	32211
2026-01-07 02:09:26.27	103.96	4.69	-45.0	-63.4	3.8	8.46e-01	0	56	104	446169088	60	32151
2026-01-07 02:09:27.28	103.88	4.62	-45.0	-63.5	3.8	8.47e-01	0	56	104	446169088	60	32189
2026-01-07 02:09:28.30	103.79	4.54	-45.0	-63.5	3.8	8.46e-01	0	56	104	446169088	60	32260
2026-01-07 02:09:29.30	103.71	4.47	-45.0	-63.5	3.8	8.46e-01	0	56	104	446169088	60	32258
2026-01-07 02:09:30.31	103.63	4.40	-45.0	-63.5	3.8	8.45e-01	0	56	104	446169088	60	32210
2026-01-07 02:09:31.32	103.54	4.32	-45.0	-63.5	3.8	8.45e-01	0	56	104	446169088	60	32213
2026-01-07 02:09:32.33	103.46	4.25	-45.0	-63.5	3.8	8.46e-01	0	56	104	446169088	60	32215
2026-01-07 02:09:33.34	103.38	4.18	-45.0	-63.4	3.8	8.46e-01	0	56	104	446169088	60	32152
2026-01-07 02:09:34.36	103.30	4.10	-45.0	-63.5	3.8	8.46e-01	0	56	104	446169088	60	32188
2026-01-07 02:09:35.37	103.22	4.03	-45.0	-63.5	3.8	8.46e-01	0	56	104	446169088	60	32195
2026-01-07 02:09:36.38	103.14	3.96	-45.0	-63.4	3.8	8.46e-01	0	56	104	446169088	60	32120
2026-01-07 02:09:37.39	103.06	3.89	-45.0	-63.5	3.8	8.46e-01	0	56	104	446169088	60	32231
2026-01-07 02:09:38.40	102.98	3.82	-45.0	-63.5	3.8	8.46e-01	0	56	104	446169088	60	32230
2026-01-07 02:09:39.41	102.90	3.75	-45.0	-63.5	3.8	8.46e-01	0	56	104	446169088	60	32257
2026-01-07 02:09:40.42	102.83	3.68	-45.0	-63.4	3.8	8.45e-01	0	56	104	446169088	60	32173
2026-01-07 02:09:41.43	102.75	3.61	-45.0	-63.4	3.8	8.47e-01	0	56	104	446169088	60	32156
2026-01-07 02:09:42.44	102.67	3.54	-45.0	-63.4	3.8	8.47e-01	0	56	104	446169088	60	32137
2026-01-07 02:09:43.45	102.60	3.47	-45.0	-63.4	3.8	8.47e-01	0	56	104	446169088	60	32140
2026-01-07 02:09:44.46	102.52	3.40	-45.0	-63.4	3.8	8.47e-01	0	56	104	446169088	60	32179
2026-01-07 02:09:45.47	102.45	3.33	-45.0	-63.4	3.8	8.46e-01	0	56	104	446169088	60	32125
2026-01-07 02:09:46.49	102.37	3.26	-45.0	-63.4	3.8	8.46e-01	0	56	104	446169088	60	32165
2026-01-07 02:09:47.50	102.30	3.19	-45.0	-63.5	3.8	8.46e-01	0	56	104	446169088	60	32267
2026-01-07 02:09:48.51	102.23	3.12	-45.0	-63.4	3.8	8.47e-01	0	56	104	446169088	60	32133
2026-01-07 02:09:49.52	102.15	3.05	-45.0	-63.5	3.8	8.47e-01	0	56	104	446169088	60	32188
2026-01-07 02:09:50.53	102.08	2.98	-45.0	-63.5	3.8	8.47e-01	0	56	104	446169088	60	32218
2026-01-07 02:09:51.54	102.01	2.91	-45.0	-63.4	3.8	8.45e-01	0	56	104	446169088	60	32172
2026-01-07 02:09:52.55	101.94	2.85	-45.0	-63.4	3.8	8.45e-01	0	56	104	446169088	60	32174
2026-01-07 02:09:53.56	101.87	2.78	-45.0	-63.4	3.8	8.46e-01	0	56	104	446169088	60	32106
2026-01-07 02:09:54.57	101.80	2.71	-45.0	-63.5	3.8	8.48e-01	0	56	104	446169088	60	32249
2026-01-07 02:09:55.59	101.73	2.64	-45.0	-63.5	3.8	8.46e-01	0	56	104	446169088	60	32248
2026-01-07 02:09:56.60	101.66	2.57	-45.0	-63.5	3.8	8.46e-01	0	56	104	446169088	60	32199
2026-01-07 02:09:57.61	101.59	2.51	-45.0	-63.4	3.8	8.45e-01	0	56	104	446169088	60	32142
2026-01-07 02:09:58.62	101.52	2.44	-45.0	-63.5	3.8	8.45e-01	0	56	104	446169088	60	32227
2026-01-07 02:09:59.63	101.45	2.37	-45.0	-63.5	3.8	8.45e-01	0	56	104	446169088	60	32242
2026-01-07 02:10:00.64	101.38	2.31	-45.0	-63.4	3.8	8.46e-01	0	56	104	446169088	60	32149
2026-01-07 02:10:01.65	101.32	2.24	-45.0	-63.5	3.8	8.46e-01	0	56	104	446169088	60	32251
2026-01-07 02:10:02.66	101.25	2.18	-45.0	-63.5	3.8	8.46e-01	0	56	104	446169088	60	32222
2026-01-07 02:10:03.67	101.18	2.11	-45.0	-63.5	3.8	8.46e-01	0	56	104	446169088	60	32232
2026-01-07 02:10:04.69	101.12	2.04	-45.0	-63.4	3.8	8.47e-01	0	56	104	446169088	60	32167
2026-01-07 02:10:05.70	101.05	1.98	-45.0	-63.5	3.8	8.47e-01	0	56	104	446169088	60	32195

#Closed at: 2026-01-07 02:10:05
#Recorded file [446 MB]: D:/lorett/data/31039_260107_050055.dat