passes_logs/2026/01/07/R2.0S_Moscow/R2.0S_Moscow__20260107_222523_SUOMI_NPP_rec.log

#Pass ID: 20260107_222523_SUOMI NPP
#Satellite: SUOMI NPP
#Configuration: NPP
#almurnet v.1.7.20251203
#Start time: 2026-01-07 22:25:25

#Version: 2.2.20231116
#Station: R2.0S_Moscow
#Location: 37.707566 lon 55.798166 lat
#TLE: 1 37849U 11061A   26005.94084933  .00000134  00000+0  84554-4 0  9990
#TLE: 2 37849  98.7803 308.0679 0002567  79.1029 281.0436 14.19522657735426

#Time	Az	El	Level	Level2	SNR	BER	BlckErr	Temp	State	Recorded	gain1	gain2
2026-01-07 22:25:25.97	24.02	2.15	-42.3	-57.4	3.8	1.49e+00	0	47	0	0	56	20260
2026-01-07 22:25:26.98	24.08	2.21	-42.1	-57.3	3.8	1.49e+00	0	48	104	0	54	22310
2026-01-07 22:25:27.99	24.15	2.27	-42.0	-57.3	3.8	1.49e+00	0	48	104	0	54	22338
2026-01-07 22:25:28.99	24.21	2.32	-42.1	-57.3	3.8	1.49e+00	0	48	104	0	54	22315
2026-01-07 22:25:30.00	24.27	2.38	-42.1	-57.3	3.8	1.49e+00	0	48	104	0	54	22267
2026-01-07 22:25:31.01	24.34	2.44	-42.0	-57.3	3.8	1.49e+00	0	48	104	0	54	22272
2026-01-07 22:25:32.02	24.41	2.50	-42.1	-57.2	3.8	1.49e+00	0	48	104	0	54	22238
2026-01-07 22:25:33.02	24.47	2.55	-42.0	-57.3	3.8	1.49e+00	0	48	104	0	54	22293
2026-01-07 22:25:34.03	24.54	2.61	-42.1	-57.3	3.8	1.49e+00	0	48	104	0	54	22339
2026-01-07 22:25:35.04	24.60	2.67	-42.1	-57.3	3.8	1.49e+00	0	48	104	0	54	22280
2026-01-07 22:25:36.05	24.67	2.73	-42.1	-57.3	3.8	1.49e+00	0	48	104	0	54	22297
2026-01-07 22:25:37.06	24.74	2.79	-42.1	-57.2	3.8	1.49e+00	0	48	104	0	54	22254
2026-01-07 22:25:38.07	24.80	2.85	-42.0	-57.3	3.8	1.49e+00	0	49	104	0	54	22297
2026-01-07 22:25:39.08	24.87	2.90	-42.1	-57.3	3.8	1.49e+00	0	48	104	0	54	22295
2026-01-07 22:25:40.08	24.94	2.96	-42.1	-57.3	3.8	1.49e+00	0	49	104	0	54	22266
2026-01-07 22:25:41.09	25.01	3.02	-42.1	-57.3	3.8	1.49e+00	0	49	104	0	54	22298
2026-01-07 22:25:42.10	25.07	3.08	-42.0	-57.3	3.8	1.49e+00	0	49	104	0	54	22272
2026-01-07 22:25:43.11	25.14	3.14	-42.1	-57.2	3.8	1.49e+00	0	49	104	0	54	22239
2026-01-07 22:25:44.12	25.21	3.20	-42.1	-57.3	3.8	1.49e+00	0	49	104	0	54	22286
2026-01-07 22:25:45.13	25.28	3.26	-42.1	-57.3	3.8	1.49e+00	0	49	104	0	54	22282
2026-01-07 22:25:46.14	25.35	3.32	-42.1	-57.3	3.8	1.49e+00	0	49	104	0	54	22302
2026-01-07 22:25:47.15	25.42	3.37	-42.1	-57.3	3.8	1.49e+00	0	49	104	0	54	22270
2026-01-07 22:25:48.16	25.49	3.43	-42.1	-57.3	3.8	1.49e+00	0	49	104	0	54	22286
2026-01-07 22:25:49.17	25.56	3.49	-42.1	-57.3	3.8	1.49e+00	0	49	104	0	54	22295
2026-01-07 22:25:50.18	25.63	3.55	-42.0	-57.2	3.8	1.49e+00	0	49	104	0	54	22238
2026-01-07 22:25:51.18	25.70	3.61	-42.1	-57.2	3.8	1.49e+00	0	49	104	0	54	22249
2026-01-07 22:25:52.19	25.77	3.67	-42.0	-57.3	3.8	1.49e+00	0	49	104	0	54	22300
2026-01-07 22:25:53.20	25.84	3.73	-42.1	-57.3	3.8	1.49e+00	0	49	104	0	54	22264
2026-01-07 22:25:54.21	25.91	3.79	-42.1	-57.3	3.8	1.49e+00	0	49	104	0	54	22267
2026-01-07 22:25:55.22	25.98	3.85	-42.1	-57.3	3.8	1.49e+00	0	50	104	0	54	22271
2026-01-07 22:25:56.23	26.05	3.91	-42.0	-57.2	3.8	1.49e+00	0	50	104	0	54	22257
2026-01-07 22:25:57.24	26.13	3.97	-42.1	-57.3	3.8	1.49e+00	0	50	104	0	54	22276
2026-01-07 22:25:58.24	26.20	4.03	-42.0	-57.3	3.8	1.49e+00	0	50	104	0	54	22316
2026-01-07 22:25:59.25	26.27	4.09	-42.1	-57.2	3.8	1.49e+00	0	50	104	0	54	22254
2026-01-07 22:26:00.25	26.34	4.15	-42.1	-57.3	3.8	1.49e+00	0	50	104	0	54	22298
2026-01-07 22:26:01.26	26.42	4.21	-42.0	-57.2	3.8	1.49e+00	0	50	104	0	54	22224
2026-01-07 22:26:02.26	26.49	4.27	-42.0	-57.2	3.8	1.49e+00	0	50	104	0	54	22245
2026-01-07 22:26:03.27	26.56	4.33	-42.1	-57.2	3.8	1.49e+00	0	50	104	0	54	22241
2026-01-07 22:26:04.28	26.64	4.39	-42.1	-57.2	3.8	1.49e+00	0	50	104	0	54	22247
2026-01-07 22:26:05.29	26.71	4.45	-42.0	-57.2	3.8	1.49e+00	0	50	104	0	54	22236
2026-01-07 22:26:06.30	26.79	4.52	-42.0	-57.2	3.8	1.49e+00	0	50	104	0	54	22238
2026-01-07 22:26:07.31	26.86	4.58	-42.0	-57.3	3.8	1.49e+00	0	50	104	0	54	22277
2026-01-07 22:26:08.32	26.94	4.64	-42.0	-57.3	3.8	1.49e+00	0	50	104	0	54	22276
2026-01-07 22:26:09.33	27.01	4.70	-42.1	-57.3	3.8	1.49e+00	0	50	104	0	54	22267
2026-01-07 22:26:10.34	27.09	4.76	-42.1	-57.3	3.8	1.49e+00	0	50	104	0	54	22289
2026-01-07 22:26:11.35	27.16	4.82	-42.0	-57.3	3.8	1.49e+00	0	50	104	0	54	22280
2026-01-07 22:26:12.36	27.24	4.88	-42.0	-57.3	3.8	1.49e+00	0	50	104	0	54	22291
2026-01-07 22:26:13.36	27.32	4.95	-42.0	-57.2	3.8	1.49e+00	0	50	104	0	54	22258
2026-01-07 22:26:14.37	27.39	5.01	-42.1	-57.2	3.8	1.49e+00	0	51	104	0	54	22243
2026-01-07 22:26:15.38	27.47	5.07	-42.0	-57.2	3.8	1.49e+00	0	51	104	0	54	22234
2026-01-07 22:26:16.39	27.55	5.13	-42.0	-57.2	3.8	1.49e+00	0	51	104	0	54	22260
2026-01-07 22:26:17.40	27.63	5.19	-42.1	-57.2	3.8	1.49e+00	0	51	104	0	54	22233
2026-01-07 22:26:18.41	27.70	5.26	-42.0	-57.2	3.8	1.49e+00	0	51	104	0	54	22241
2026-01-07 22:26:19.42	27.78	5.32	-42.0	-57.2	3.8	1.49e+00	0	51	104	0	54	22262
2026-01-07 22:26:20.43	27.86	5.38	-42.1	-57.2	3.8	1.49e+00	0	51	104	0	54	22195
2026-01-07 22:26:21.44	27.94	5.44	-42.1	-57.2	3.8	1.49e+00	0	51	104	0	54	22208
2026-01-07 22:26:22.44	28.02	5.51	-42.0	-57.2	3.8	1.49e+00	0	51	104	0	54	22216
2026-01-07 22:26:23.45	28.10	5.57	-42.0	-57.2	3.8	1.49e+00	0	51	104	0	54	22258
2026-01-07 22:26:24.46	28.18	5.63	-42.0	-57.2	3.8	1.49e+00	0	51	104	0	54	22215
2026-01-07 22:26:25.47	28.26	5.69	-42.0	-57.2	3.8	1.49e+00	0	51	104	0	54	22239
2026-01-07 22:26:26.48	28.34	5.76	-42.0	-57.2	3.8	1.49e+00	0	51	104	0	54	22256
2026-01-07 22:26:27.49	28.42	5.82	-42.0	-57.2	3.8	1.49e+00	0	51	104	0	54	22239
2026-01-07 22:26:28.50	28.50	5.88	-42.0	-57.2	3.8	1.49e+00	0	51	104	0	54	22224
2026-01-07 22:26:29.51	28.59	5.95	-42.1	-57.3	3.8	1.49e+00	0	51	104	0	54	22273
2026-01-07 22:26:30.51	28.67	6.01	-42.0	-57.3	3.8	1.49e+00	0	51	104	0	54	22265
2026-01-07 22:26:31.52	28.75	6.07	-42.0	-57.2	3.8	1.49e+00	0	51	104	0	54	22230
2026-01-07 22:26:32.53	28.83	6.14	-42.0	-57.3	3.8	1.49e+00	0	51	104	0	54	22279
2026-01-07 22:26:33.54	28.91	6.20	-42.0	-57.2	3.8	1.49e+00	0	51	104	0	54	22117
2026-01-07 22:26:34.55	29.00	6.27	-42.0	-57.2	3.8	1.49e+00	0	51	104	0	54	22096
2026-01-07 22:26:35.56	29.08	6.33	-42.0	-57.2	3.8	1.49e+00	0	52	104	0	54	22049
2026-01-07 22:26:36.57	29.17	6.40	-42.1	-57.1	3.8	1.49e+00	0	51	104	0	54	21829
2026-01-07 22:26:37.59	29.25	6.46	-42.0	-57.1	3.8	1.49e+00	0	52	104	0	54	21970
2026-01-07 22:26:38.59	29.34	6.52	-42.1	-57.2	3.8	1.49e+00	0	52	104	0	54	22097
2026-01-07 22:26:39.60	29.42	6.59	-42.0	-57.1	3.8	1.49e+00	0	52	104	0	54	21825
2026-01-07 22:26:40.61	29.51	6.65	-42.0	-57.0	3.8	1.49e+00	0	52	104	0	54	21730
2026-01-07 22:26:41.62	29.59	6.72	-42.0	-57.2	3.8	1.49e+00	0	52	104	0	54	22020
2026-01-07 22:26:42.62	29.68	6.78	-42.0	-57.0	3.8	1.49e+00	0	52	104	0	54	21545
2026-01-07 22:26:43.63	29.77	6.85	-42.0	-56.7	3.8	1.49e+00	0	52	104	0	54	20995
2026-01-07 22:26:44.63	29.85	6.91	-42.0	-56.5	3.8	1.49e+00	0	52	104	0	54	20525
2026-01-07 22:26:45.64	29.94	6.98	-42.0	-56.8	3.8	1.49e+00	0	52	104	0	54	21206
2026-01-07 22:26:46.65	30.03	7.04	-42.0	-56.0	3.8	1.49e+00	0	52	104	0	54	19295
2026-01-07 22:26:47.66	30.11	7.11	-42.0	-56.9	3.8	1.49e+00	0	52	104	0	54	21496
2026-01-07 22:26:48.67	30.20	7.17	-42.0	-55.1	3.8	1.49e+00	0	52	104	0	54	17398
2026-01-07 22:26:49.68	30.29	7.24	-41.9	-54.6	4.0	1.49e+00	0	52	104	0	54	16360
2026-01-07 22:26:50.69	30.38	7.31	-41.6	-51.1	5.3	1.19e+00	0	52	0	1048576	54	10943
2026-01-07 22:26:51.70	30.47	7.37	-41.2	-48.9	7.0	1.86e-01	0	52	0	2097152	54	8469
2026-01-07 22:26:52.70	30.56	7.44	-41.1	-48.4	7.5	1.14e-01	0	52	0	4194304	54	8009
2026-01-07 22:26:53.71	30.65	7.50	-41.0	-48.1	7.8	1.07e-01	0	52	0	6291456	54	7737
2026-01-07 22:26:54.72	30.74	7.57	-40.9	-47.5	8.3	6.80e-02	0	52	0	8388608	53	7695
2026-01-07 22:26:55.73	30.83	7.64	-40.6	-46.5	9.3	2.32e-02	0	52	0	10485760	53	6877
2026-01-07 22:26:56.74	30.92	7.70	-40.2	-45.4	10.5	9.28e-03	0	53	0	11534336	52	6389
2026-01-07 22:26:57.75	31.02	7.77	-40.0	-44.7	11.4	2.35e-03	0	53	0	13631488	51	6218
2026-01-07 22:26:58.75	31.11	7.84	-39.8	-44.3	11.7	5.27e-04	0	53	0	15728640	51	5966
2026-01-07 22:26:59.76	31.20	7.90	-39.6	-43.9	12.2	2.43e-04	0	53	0	17825792	51	5660
2026-01-07 22:27:00.77	31.29	7.97	-39.7	-44.2	11.9	3.15e-04	0	53	0	19922944	51	5867
2026-01-07 22:27:01.78	31.39	8.04	-40.1	-45.1	11.0	1.28e-03	0	53	0	20971520	51	6503
2026-01-07 22:27:02.78	31.48	8.10	-41.3	-48.1	8.5	1.86e-03	0	53	0	23068672	53	8235
2026-01-07 22:27:03.79	31.58	8.17	-40.7	-54.1	3.8	8.81e-02	0	53	104	25165824	53	16441
2026-01-07 22:27:04.80	31.67	8.24	-40.7	-45.5	11.2	4.74e-01	0	53	0	25165824	52	6428
2026-01-07 22:27:05.81	31.77	8.31	-41.8	-47.7	9.1	1.01e-02	0	53	0	26214400	54	7394
2026-01-07 22:27:06.82	31.86	8.37	-40.7	-45.9	10.8	7.01e-03	0	53	0	28311552	52	6734
2026-01-07 22:27:07.83	31.96	8.44	-40.5	-45.4	11.2	4.71e-03	0	53	0	30408704	52	6362
2026-01-07 22:27:08.84	32.05	8.51	-40.5	-45.0	11.7	7.84e-04	0	53	0	32505856	52	6107
2026-01-07 22:27:09.85	32.15	8.58	-40.5	-44.9	11.8	5.55e-04	0	53	0	34603008	52	6033
2026-01-07 22:27:10.86	32.25	8.64	-40.4	-44.7	12.0	4.53e-04	0	53	0	35651584	52	5856
2026-01-07 22:27:11.87	32.35	8.71	-40.4	-44.6	12.2	2.59e-04	0	53	0	37748736	52	5801
2026-01-07 22:27:12.88	32.45	8.78	-40.5	-44.7	12.0	2.80e-04	0	53	0	39845888	52	5900
2026-01-07 22:27:13.88	32.54	8.85	-40.4	-44.6	12.1	3.21e-04	0	53	0	41943040	52	5811
2026-01-07 22:27:14.89	32.64	8.92	-40.4	-44.5	12.3	2.01e-04	0	53	0	44040192	52	5729
2026-01-07 22:27:15.90	32.74	8.99	-40.4	-44.5	12.2	1.81e-04	0	53	0	45088768	52	5761
2026-01-07 22:27:16.91	32.84	9.06	-40.4	-44.3	12.5	1.62e-04	0	53	0	47185920	52	5643
2026-01-07 22:27:17.92	32.94	9.12	-40.2	-43.9	12.9	6.33e-05	0	53	0	49283072	52	5367
2026-01-07 22:27:18.93	33.04	9.19	-40.3	-44.0	12.8	6.02e-05	0	53	0	51380224	52	5463
2026-01-07 22:27:19.94	33.15	9.26	-40.3	-44.0	12.9	7.55e-05	0	53	0	53477376	52	5423
2026-01-07 22:27:20.95	33.25	9.33	-40.4	-44.1	12.8	4.42e-05	0	53	0	54525952	52	5487
2026-01-07 22:27:21.96	33.35	9.40	-40.3	-43.9	13.0	3.35e-05	0	53	0	56623104	52	5366
2026-01-07 22:27:22.97	33.45	9.47	-40.1	-43.6	13.3	4.65e-05	0	53	0	58720256	52	5208
2026-01-07 22:27:23.97	33.56	9.54	-40.2	-43.6	13.3	1.98e-05	0	53	0	60817408	52	5217
2026-01-07 22:27:24.99	33.66	9.61	-40.2	-43.7	13.2	1.60e-05	0	53	0	62914560	52	5266
2026-01-07 22:27:25.99	33.76	9.68	-40.2	-43.7	13.3	1.90e-05	0	53	0	63963136	52	5235
2026-01-07 22:27:27.00	33.87	9.75	-40.2	-43.6	13.3	1.44e-05	0	54	0	66060288	52	5217
2026-01-07 22:27:28.01	33.97	9.82	-40.3	-43.8	13.2	2.21e-05	0	54	0	68157440	52	5329
2026-01-07 22:27:29.02	34.08	9.89	-40.4	-43.9	13.2	2.51e-05	0	53	0	70254592	52	5355
2026-01-07 22:27:30.03	34.19	9.96	-40.2	-43.6	13.5	1.52e-05	0	54	0	72351744	52	5175
2026-01-07 22:27:31.04	34.29	10.03	-40.4	-43.8	13.2	1.90e-05	0	54	0	74448896	52	5312
2026-01-07 22:27:32.05	34.40	10.10	-40.3	-43.7	13.4	2.28e-05	0	53	0	75497472	52	5274
2026-01-07 22:27:33.05	34.51	10.17	-40.3	-43.6	13.5	1.37e-05	0	54	0	77594624	52	5200
2026-01-07 22:27:34.06	34.61	10.24	-40.3	-43.7	13.4	1.22e-05	0	54	0	79691776	52	5255
2026-01-07 22:27:35.07	34.72	10.31	-40.4	-43.7	13.4	1.06e-05	0	54	0	81788928	52	5277
2026-01-07 22:27:36.08	34.83	10.39	-40.4	-43.9	13.3	1.14e-05	0	54	0	83886080	52	5363
2026-01-07 22:27:37.09	34.94	10.46	-40.4	-43.8	13.3	1.22e-05	0	54	0	84934656	52	5323
2026-01-07 22:27:38.10	35.05	10.53	-40.6	-44.1	13.1	1.75e-05	0	54	0	87031808	52	5465
2026-01-07 22:27:39.11	35.16	10.60	-40.3	-43.6	13.6	1.67e-05	0	54	0	89128960	52	5182
2026-01-07 22:27:40.12	35.27	10.67	-40.4	-43.7	13.5	1.37e-05	0	54	0	91226112	52	5253
2026-01-07 22:27:41.12	35.39	10.74	-40.3	-43.6	13.6	9.10e-06	0	54	0	92274688	52	5188
2026-01-07 22:27:42.13	35.50	10.81	-40.3	-43.5	13.7	8.30e-06	0	54	0	94371840	52	5123
2026-01-07 22:27:43.14	35.61	10.89	-40.3	-43.6	13.7	1.06e-05	0	54	0	96468992	52	5194
2026-01-07 22:27:44.15	35.72	10.96	-40.2	-43.3	13.9	4.50e-06	0	54	0	98566144	52	5038
2026-01-07 22:27:45.16	35.84	11.03	-40.3	-43.5	13.8	6.80e-06	0	54	0	100663296	52	5109
2026-01-07 22:27:46.17	35.95	11.10	-40.3	-43.6	13.7	3.80e-06	0	54	0	102760448	52	5175
2026-01-07 22:27:47.18	36.07	11.17	-40.3	-43.5	13.7	5.30e-06	0	54	0	103809024	52	5156
2026-01-07 22:27:48.19	36.18	11.25	-40.3	-43.4	13.8	4.50e-06	0	54	0	105906176	52	5093
2026-01-07 22:27:49.20	36.30	11.32	-40.4	-43.6	13.7	1.50e-06	0	54	0	108003328	52	5206
2026-01-07 22:27:50.21	36.42	11.39	-40.4	-43.6	13.7	6.80e-06	0	54	0	110100480	52	5206
2026-01-07 22:27:51.22	36.53	11.47	-40.4	-43.7	13.6	5.30e-06	0	54	0	112197632	52	5231
2026-01-07 22:27:52.23	36.65	11.54	-40.5	-43.9	13.4	1.37e-05	0	54	0	113246208	52	5389
2026-01-07 22:27:53.23	36.77	11.61	-40.5	-43.9	13.4	1.52e-05	0	54	0	115343360	52	5376
2026-01-07 22:27:54.24	36.89	11.68	-40.5	-43.8	13.5	1.44e-05	0	54	0	117440512	52	5311
2026-01-07 22:27:55.25	37.01	11.76	-40.5	-43.9	13.4	1.22e-05	0	54	0	119537664	52	5387
2026-01-07 22:27:56.26	37.13	11.83	-40.5	-43.8	13.5	1.06e-05	0	54	0	121634816	52	5340
2026-01-07 22:27:57.27	37.25	11.90	-40.4	-43.7	13.6	8.30e-06	0	54	0	122683392	52	5276
2026-01-07 22:27:58.28	37.37	11.98	-40.5	-43.8	13.5	4.50e-06	0	54	0	124780544	52	5318
2026-01-07 22:27:59.29	37.49	12.05	-40.4	-43.7	13.7	6.80e-06	0	55	0	126877696	52	5257
2026-01-07 22:28:00.30	37.61	12.13	-40.4	-43.7	13.7	9.10e-06	0	54	0	128974848	52	5222
2026-01-07 22:28:01.31	37.74	12.20	-40.4	-43.7	13.7	4.50e-06	0	54	0	131072000	52	5224
2026-01-07 22:28:02.31	37.86	12.27	-40.4	-43.7	13.8	1.50e-06	0	54	0	132120576	52	5237
2026-01-07 22:28:03.32	37.98	12.35	-40.4	-43.5	13.9	0.00e+00	0	54	0	134217728	52	5135
2026-01-07 22:28:04.33	38.11	12.42	-40.3	-43.5	13.9	2.20e-06	0	54	0	136314880	52	5127
2026-01-07 22:28:05.34	38.23	12.50	-40.3	-43.5	14.0	1.50e-06	0	54	0	138412032	52	5110
2026-01-07 22:28:06.35	38.36	12.57	-40.2	-43.2	14.2	1.50e-06	0	54	0	140509184	52	4975
2026-01-07 22:28:07.36	38.48	12.65	-40.2	-43.2	14.3	0.00e+00	0	54	0	141557760	52	4933
2026-01-07 22:28:08.37	38.61	12.72	-40.1	-43.1	14.4	7.00e-07	0	54	0	143654912	52	4910
2026-01-07 22:28:09.37	38.74	12.79	-40.1	-43.0	14.5	7.00e-07	0	54	0	145752064	52	4853
2026-01-07 22:28:10.38	38.87	12.87	-40.1	-43.0	14.5	0.00e+00	0	54	0	147849216	51	5149
2026-01-07 22:28:11.39	39.00	12.94	-40.0	-42.8	14.8	7.00e-07	0	55	0	149946368	51	5002
2026-01-07 22:28:12.40	39.13	13.02	-40.0	-42.8	14.8	7.00e-07	0	54	0	150994944	51	5008
2026-01-07 22:28:13.41	39.26	13.09	-39.9	-42.6	14.9	0.00e+00	0	54	0	153092096	51	4905
2026-01-07 22:28:14.41	39.39	13.17	-39.9	-42.6	14.9	7.00e-07	0	54	0	155189248	51	4918
2026-01-07 22:28:15.42	39.52	13.24	-39.9	-42.7	14.9	0.00e+00	0	54	0	157286400	51	4951
2026-01-07 22:28:16.43	39.65	13.32	-39.9	-42.6	15.0	0.00e+00	0	55	0	159383552	51	4912
2026-01-07 22:28:17.44	39.78	13.40	-39.9	-42.6	15.0	0.00e+00	0	55	0	160432128	51	4909
2026-01-07 22:28:18.44	39.92	13.47	-39.9	-42.6	15.0	0.00e+00	0	54	0	162529280	51	4897
2026-01-07 22:28:19.45	40.05	13.55	-39.9	-42.6	15.0	0.00e+00	0	55	0	164626432	51	4915
2026-01-07 22:28:20.46	40.18	13.62	-39.9	-42.7	15.0	0.00e+00	0	54	0	166723584	51	4930
2026-01-07 22:28:21.47	40.32	13.70	-39.9	-42.6	15.0	0.00e+00	0	55	0	168820736	51	4903
2026-01-07 22:28:22.48	40.46	13.78	-39.9	-42.6	15.1	7.00e-07	0	55	0	170917888	51	4911
2026-01-07 22:28:23.48	40.59	13.85	-39.9	-42.6	15.0	0.00e+00	0	55	0	171966464	51	4908
2026-01-07 22:28:24.49	40.73	13.93	-39.9	-42.5	15.1	0.00e+00	0	55	0	174063616	51	4866
2026-01-07 22:28:25.50	40.87	14.00	-39.9	-42.7	15.0	0.00e+00	0	55	0	176160768	51	4945
2026-01-07 22:28:26.51	41.01	14.08	-39.9	-42.7	15.0	0.00e+00	0	55	0	178257920	51	4946
2026-01-07 22:28:27.52	41.15	14.16	-40.0	-42.7	14.9	0.00e+00	0	55	0	180355072	51	4979
2026-01-07 22:28:28.53	41.29	14.23	-40.0	-42.8	14.9	7.00e-07	0	55	0	181403648	51	5033
2026-01-07 22:28:29.54	41.43	14.31	-40.1	-42.9	14.8	7.00e-07	0	55	0	183500800	51	5095
2026-01-07 22:28:30.55	41.57	14.39	-40.2	-43.0	14.7	0.00e+00	0	54	0	185597952	51	5155
2026-01-07 22:28:31.56	41.71	14.46	-40.2	-43.1	14.6	0.00e+00	0	55	0	187695104	51	5196
2026-01-07 22:28:32.57	41.86	14.54	-40.5	-43.6	14.1	0.00e+00	0	55	0	188743680	51	5474
2026-01-07 22:28:33.57	42.00	14.62	-40.4	-43.4	14.4	7.00e-07	0	55	0	190840832	51	5341
2026-01-07 22:28:34.58	42.14	14.69	-40.3	-43.3	14.4	0.00e+00	0	55	0	192937984	51	5309
2026-01-07 22:28:35.59	42.29	14.77	-40.5	-43.5	14.2	7.00e-07	0	55	0	195035136	51	5424
2026-01-07 22:28:36.60	42.44	14.85	-40.4	-43.4	14.3	7.00e-07	0	55	0	197132288	51	5371
2026-01-07 22:28:37.61	42.58	14.93	-40.4	-43.4	14.4	3.00e-06	0	55	0	199229440	51	5344
2026-01-07 22:28:38.62	42.73	15.00	-40.4	-43.4	14.3	0.00e+00	0	55	0	200278016	51	5402
2026-01-07 22:28:39.63	42.88	15.08	-40.3	-43.2	14.5	1.50e-06	0	55	0	202375168	51	5253
2026-01-07 22:28:40.63	43.03	15.16	-40.1	-42.8	14.8	0.00e+00	0	55	0	204472320	51	5040
2026-01-07 22:28:41.64	43.18	15.24	-40.2	-43.0	14.7	0.00e+00	0	55	0	206569472	51	5135
2026-01-07 22:28:42.65	43.33	15.31	-40.0	-42.7	15.0	0.00e+00	0	55	0	208666624	51	4958
2026-01-07 22:28:43.66	43.48	15.39	-39.9	-42.6	15.2	0.00e+00	0	55	0	209715200	51	4872
2026-01-07 22:28:44.67	43.63	15.47	-39.9	-42.5	15.2	0.00e+00	0	55	0	211812352	51	4860
2026-01-07 22:28:45.68	43.78	15.55	-39.6	-42.2	15.6	0.00e+00	0	55	0	213909504	51	4673
2026-01-07 22:28:46.68	43.94	15.62	-39.5	-42.1	15.7	0.00e+00	0	55	0	216006656	51	4605
2026-01-07 22:28:47.70	44.09	15.70	-39.5	-42.0	15.7	0.00e+00	0	55	0	218103808	51	4591
2026-01-07 22:28:48.70	44.25	15.78	-39.6	-42.1	15.6	0.00e+00	0	55	0	219152384	50	4904
2026-01-07 22:28:49.71	44.40	15.86	-39.5	-42.0	15.8	0.00e+00	0	55	0	221249536	50	4822
2026-01-07 22:28:50.72	44.56	15.94	-39.4	-41.9	15.8	0.00e+00	0	55	0	223346688	50	4798
2026-01-07 22:28:51.73	44.72	16.02	-39.4	-41.9	15.8	0.00e+00	0	55	0	225443840	50	4794
2026-01-07 22:28:52.73	44.87	16.09	-39.5	-42.0	15.8	0.00e+00	0	55	0	227540992	50	4848
2026-01-07 22:28:53.74	45.03	16.17	-39.4	-41.8	15.9	0.00e+00	0	55	0	228589568	50	4744
2026-01-07 22:28:54.75	45.19	16.25	-39.4	-41.8	15.9	0.00e+00	0	55	0	230686720	50	4744
2026-01-07 22:28:55.76	45.35	16.33	-39.4	-41.8	15.9	0.00e+00	0	55	0	232783872	50	4753
2026-01-07 22:28:56.77	45.52	16.41	-39.3	-41.7	16.1	0.00e+00	0	55	0	234881024	50	4676
2026-01-07 22:28:57.78	45.68	16.49	-39.3	-41.7	16.0	0.00e+00	0	55	0	236978176	50	4691
2026-01-07 22:28:58.78	45.84	16.56	-39.5	-41.9	15.9	0.00e+00	0	55	0	238026752	50	4795
2026-01-07 22:28:59.79	46.01	16.64	-39.5	-42.0	15.8	0.00e+00	0	55	0	240123904	50	4841
2026-01-07 22:29:00.80	46.17	16.72	-39.6	-42.1	15.7	0.00e+00	0	55	0	242221056	50	4884
2026-01-07 22:29:01.81	46.34	16.80	-39.8	-42.4	15.4	0.00e+00	0	55	0	244318208	50	5086
2026-01-07 22:29:02.81	46.50	16.88	-39.8	-42.5	15.3	0.00e+00	0	55	0	246415360	50	5138
2026-01-07 22:29:03.82	46.67	16.96	-39.8	-42.4	15.5	0.00e+00	0	56	0	247463936	50	5073
2026-01-07 22:29:04.82	46.84	17.04	-40.0	-42.7	15.1	0.00e+00	0	55	0	249561088	50	5238
2026-01-07 22:29:05.83	47.01	17.11	-39.9	-42.5	15.3	0.00e+00	0	55	0	251658240	50	5149
2026-01-07 22:29:06.83	47.17	17.19	-39.8	-42.4	15.4	0.00e+00	0	55	0	253755392	50	5084
2026-01-07 22:29:07.84	47.34	17.27	-39.8	-42.4	15.5	0.00e+00	0	55	0	255852544	50	5056
2026-01-07 22:29:08.85	47.52	17.35	-39.7	-42.3	15.4	0.00e+00	0	55	0	256901120	50	5025
2026-01-07 22:29:09.86	47.69	17.43	-39.7	-42.3	15.5	0.00e+00	0	55	0	258998272	50	5026
2026-01-07 22:29:10.86	47.86	17.51	-39.8	-42.5	15.3	0.00e+00	0	55	0	261095424	50	5107
2026-01-07 22:29:11.88	48.04	17.59	-39.9	-42.5	15.3	0.00e+00	0	55	0	263192576	50	5157
2026-01-07 22:29:12.88	48.21	17.66	-39.8	-42.5	15.3	0.00e+00	0	55	0	265289728	50	5124
2026-01-07 22:29:13.89	48.39	17.74	-40.0	-42.7	15.1	0.00e+00	0	55	0	266338304	50	5271
2026-01-07 22:29:14.90	48.57	17.82	-39.8	-42.5	15.4	7.00e-07	0	55	0	268435456	50	5107
2026-01-07 22:29:15.91	48.74	17.90	-39.7	-42.4	15.5	0.00e+00	0	55	0	270532608	50	5044
2026-01-07 22:29:16.92	48.92	17.98	-39.6	-42.2	15.7	0.00e+00	0	56	0	272629760	50	4962
2026-01-07 22:29:17.93	49.10	18.06	-39.5	-42.0	15.8	0.00e+00	0	55	0	274726912	50	4851
2026-01-07 22:29:18.93	49.28	18.14	-39.3	-41.8	16.1	0.00e+00	0	55	0	275775488	50	4712
2026-01-07 22:29:19.94	49.46	18.22	-39.4	-41.8	16.1	0.00e+00	0	56	0	277872640	50	4717
2026-01-07 22:29:20.95	49.65	18.30	-39.3	-41.7	16.1	0.00e+00	0	56	0	279969792	50	4665
2026-01-07 22:29:21.96	49.83	18.37	-39.2	-41.6	16.2	0.00e+00	0	55	0	282066944	50	4640
2026-01-07 22:29:22.97	50.01	18.45	-39.2	-41.6	16.2	0.00e+00	0	56	0	284164096	50	4621
2026-01-07 22:29:23.98	50.20	18.53	-39.1	-41.5	16.3	0.00e+00	0	56	0	285212672	50	4550
2026-01-07 22:29:24.99	50.39	18.61	-39.0	-41.3	16.5	0.00e+00	0	55	0	287309824	49	4723
2026-01-07 22:29:26.00	50.57	18.69	-38.9	-41.1	16.7	0.00e+00	0	56	0	289406976	49	4636
2026-01-07 22:29:27.00	50.76	18.77	-38.8	-41.0	16.7	0.00e+00	0	56	0	291504128	49	4598
2026-01-07 22:29:28.01	50.95	18.85	-38.8	-41.0	16.9	0.00e+00	0	55	0	293601280	49	4557
2026-01-07 22:29:29.02	51.14	18.92	-38.7	-40.9	16.9	0.00e+00	0	55	0	294649856	49	4543
2026-01-07 22:29:30.03	51.33	19.00	-38.6	-40.8	17.0	0.00e+00	0	56	0	296747008	49	4474
2026-01-07 22:29:31.04	51.52	19.08	-38.7	-40.8	17.0	0.00e+00	0	56	0	298844160	49	4485
2026-01-07 22:29:32.05	51.72	19.16	-38.7	-40.9	16.9	0.00e+00	0	56	0	300941312	49	4501
2026-01-07 22:29:33.06	51.91	19.24	-38.7	-40.9	16.9	0.00e+00	0	56	0	303038464	49	4519
2026-01-07 22:29:34.06	52.10	19.31	-38.7	-40.8	17.0	0.00e+00	0	56	0	304087040	49	4478
2026-01-07 22:29:35.07	52.30	19.39	-38.5	-40.6	17.2	0.00e+00	0	56	0	306184192	49	4356
2026-01-07 22:29:36.08	52.50	19.47	-38.4	-40.5	17.3	0.00e+00	0	56	0	308281344	48	4564
2026-01-07 22:29:37.09	52.70	19.55	-38.4	-40.4	17.3	0.00e+00	0	56	0	310378496	48	4542
2026-01-07 22:29:38.10	52.89	19.63	-38.3	-40.4	17.4	0.00e+00	0	55	0	312475648	48	4522
2026-01-07 22:29:39.11	53.09	19.70	-38.3	-40.4	17.4	0.00e+00	0	56	0	313524224	48	4515
2026-01-07 22:29:40.11	53.29	19.78	-38.4	-40.5	17.3	0.00e+00	0	56	0	315621376	48	4577
2026-01-07 22:29:41.12	53.50	19.86	-38.5	-40.6	17.2	0.00e+00	0	56	0	317718528	48	4615
2026-01-07 22:29:42.13	53.70	19.94	-38.5	-40.5	17.3	0.00e+00	0	56	0	319815680	48	4596
2026-01-07 22:29:43.13	53.90	20.01	-38.5	-40.7	17.1	0.00e+00	0	56	0	321912832	48	4670
2026-01-07 22:29:44.14	54.11	20.09	-38.5	-40.6	17.1	0.00e+00	0	56	0	324009984	48	4649
2026-01-07 22:29:45.15	54.31	20.17	-38.6	-40.8	17.0	0.00e+00	0	56	0	325058560	48	4737
2026-01-07 22:29:46.16	54.52	20.24	-38.6	-40.7	17.1	0.00e+00	0	56	0	327155712	48	4693
2026-01-07 22:29:47.17	54.73	20.32	-38.6	-40.8	17.0	0.00e+00	0	56	0	329252864	48	4714
2026-01-07 22:29:48.17	54.93	20.40	-38.6	-40.8	17.0	0.00e+00	0	56	0	331350016	48	4739
2026-01-07 22:29:49.18	55.14	20.47	-38.8	-41.0	16.8	0.00e+00	0	56	0	333447168	48	4851
2026-01-07 22:29:50.19	55.36	20.55	-38.7	-40.9	17.0	0.00e+00	0	56	0	334495744	48	4762
2026-01-07 22:29:51.20	55.57	20.63	-38.6	-40.8	17.0	0.00e+00	0	56	0	336592896	48	4716
2026-01-07 22:29:52.21	55.78	20.70	-38.5	-40.7	17.1	0.00e+00	0	56	0	338690048	48	4659
2026-01-07 22:29:53.21	55.99	20.78	-38.4	-40.5	17.2	0.00e+00	0	56	0	340787200	48	4588
2026-01-07 22:29:54.22	56.21	20.85	-38.3	-40.4	17.3	0.00e+00	0	56	0	341835776	48	4532
2026-01-07 22:29:55.23	56.43	20.93	-38.2	-40.3	17.5	0.00e+00	0	56	0	343932928	48	4458
2026-01-07 22:29:56.24	56.64	21.01	-38.4	-40.4	17.3	0.00e+00	0	56	0	346030080	48	4539
2026-01-07 22:29:57.25	56.86	21.08	-38.4	-40.5	17.3	0.00e+00	0	56	0	348127232	48	4571
2026-01-07 22:29:58.26	57.08	21.16	-38.5	-40.7	17.1	0.00e+00	0	56	0	350224384	48	4666
2026-01-07 22:29:59.27	57.30	21.23	-38.7	-40.9	16.9	0.00e+00	0	56	0	352321536	48	4787
2026-01-07 22:30:00.27	57.52	21.30	-38.9	-41.2	16.6	0.00e+00	0	56	0	353370112	48	4937
2026-01-07 22:30:01.28	57.74	21.38	-38.8	-41.1	16.7	0.00e+00	0	56	0	355467264	48	4881
2026-01-07 22:30:02.29	57.97	21.45	-38.8	-41.0	16.8	0.00e+00	0	56	0	357564416	48	4841
2026-01-07 22:30:03.30	58.19	21.53	-38.7	-40.9	16.9	0.00e+00	0	56	0	359661568	48	4770
2026-01-07 22:30:04.30	58.41	21.60	-38.7	-40.9	16.9	0.00e+00	0	56	0	361758720	48	4765
2026-01-07 22:30:05.31	58.64	21.67	-38.7	-40.9	16.9	0.00e+00	0	56	0	362807296	48	4793
2026-01-07 22:30:06.32	58.87	21.75	-38.7	-40.9	16.8	0.00e+00	0	56	0	364904448	48	4805
2026-01-07 22:30:07.33	59.10	21.82	-38.9	-41.2	16.6	0.00e+00	0	56	0	367001600	48	4975
2026-01-07 22:30:08.34	59.33	21.89	-39.1	-41.4	16.4	0.00e+00	0	56	0	369098752	48	5089
2026-01-07 22:30:09.35	59.56	21.97	-39.0	-41.4	16.4	0.00e+00	0	56	0	371195904	48	5054
2026-01-07 22:30:10.35	59.79	22.04	-39.0	-41.3	16.5	0.00e+00	0	56	0	372244480	48	4989
2026-01-07 22:30:11.36	60.02	22.11	-38.8	-41.0	16.8	0.00e+00	0	56	0	374341632	48	4864
2026-01-07 22:30:12.37	60.26	22.18	-38.7	-40.9	16.9	0.00e+00	0	56	0	376438784	48	4770
2026-01-07 22:30:13.37	60.49	22.25	-38.8	-40.9	16.9	0.00e+00	0	56	0	378535936	48	4814
2026-01-07 22:30:14.38	60.73	22.32	-39.0	-41.3	16.5	0.00e+00	0	56	0	380633088	48	5024
2026-01-07 22:30:15.39	60.96	22.40	-39.3	-41.7	16.1	0.00e+00	0	56	0	381681664	49	4981
2026-01-07 22:30:16.40	61.20	22.47	-39.7	-42.3	15.5	0.00e+00	0	56	0	383778816	50	5041
2026-01-07 22:30:17.41	61.44	22.54	-39.9	-42.6	15.3	0.00e+00	0	56	0	385875968	50	5185
2026-01-07 22:30:18.42	61.68	22.61	-39.6	-42.2	15.7	0.00e+00	0	56	0	387973120	50	4930
2026-01-07 22:30:19.43	61.92	22.68	-39.2	-41.5	16.3	0.00e+00	0	56	0	390070272	50	4589
2026-01-07 22:30:20.44	62.17	22.75	-38.9	-41.1	16.7	0.00e+00	0	56	0	391118848	49	4639
2026-01-07 22:30:21.44	62.41	22.81	-38.8	-41.0	16.8	0.00e+00	0	56	0	393216000	49	4561
2026-01-07 22:30:22.45	62.65	22.88	-39.0	-41.2	16.6	0.00e+00	0	56	0	395313152	49	4685
2026-01-07 22:30:23.46	62.90	22.95	-39.1	-41.3	16.5	0.00e+00	0	56	0	397410304	49	4741
2026-01-07 22:30:24.47	63.15	23.02	-39.5	-41.9	16.0	0.00e+00	0	56	0	399507456	49	5078
2026-01-07 22:30:25.48	63.39	23.09	-39.6	-42.1	15.8	0.00e+00	0	56	0	400556032	49	5166
2026-01-07 22:30:26.49	63.64	23.15	-39.6	-42.0	15.8	0.00e+00	0	56	0	402653184	49	5152
2026-01-07 22:30:27.50	63.89	23.22	-39.5	-41.9	16.0	0.00e+00	0	56	0	404750336	49	5097
2026-01-07 22:30:28.51	64.15	23.29	-39.5	-41.9	16.0	0.00e+00	0	56	0	406847488	49	5084
2026-01-07 22:30:29.52	64.40	23.35	-39.8	-42.3	15.6	0.00e+00	0	56	0	408944640	50	5002
2026-01-07 22:30:30.52	64.65	23.42	-40.1	-42.9	15.1	0.00e+00	0	56	0	409993216	50	5341
2026-01-07 22:30:31.53	64.90	23.48	-40.2	-42.9	15.0	0.00e+00	0	56	0	412090368	50	5369
2026-01-07 22:30:32.54	65.16	23.55	-40.4	-43.3	14.7	0.00e+00	0	56	0	414187520	51	5291
2026-01-07 22:30:33.55	65.41	23.61	-40.2	-43.0	14.9	0.00e+00	0	56	0	416284672	51	5124
2026-01-07 22:30:34.56	65.67	23.68	-40.2	-42.9	15.1	0.00e+00	0	56	0	418381824	51	5054
2026-01-07 22:30:35.57	65.93	23.74	-40.1	-42.8	15.1	0.00e+00	0	56	0	419430400	51	5005
2026-01-07 22:30:36.58	66.19	23.81	-40.0	-42.6	15.3	7.00e-07	0	56	0	421527552	51	4888
2026-01-07 22:30:37.59	66.45	23.87	-40.3	-43.0	14.9	0.00e+00	0	56	0	423624704	51	5143
2026-01-07 22:30:38.60	66.71	23.93	-40.5	-43.4	14.6	0.00e+00	0	56	0	425721856	51	5376
2026-01-07 22:30:39.61	66.98	23.99	-40.7	-43.7	14.2	0.00e+00	0	56	0	427819008	51	5553
2026-01-07 22:30:40.61	67.24	24.05	-40.8	-44.0	13.9	3.00e-06	0	56	0	428867584	52	5415
2026-01-07 22:30:41.62	67.50	24.11	-41.1	-44.4	13.4	5.30e-06	0	56	0	430964736	52	5719
2026-01-07 22:30:42.63	67.77	24.17	-41.3	-44.8	13.1	1.29e-05	0	56	0	433061888	53	5620
2026-01-07 22:30:43.64	68.03	24.23	-41.3	-44.9	13.0	3.43e-05	0	56	0	435159040	53	5721
2026-01-07 22:30:44.64	68.30	24.29	-41.2	-44.8	13.1	2.44e-05	0	56	0	437256192	53	5593
2026-01-07 22:30:45.66	68.57	24.35	-41.3	-44.9	12.9	2.51e-05	0	56	0	438304768	53	5667
2026-01-07 22:30:46.66	68.84	24.41	-40.9	-44.1	13.7	1.52e-05	0	56	0	440401920	53	5201
2026-01-07 22:30:47.67	69.11	24.47	-40.7	-43.7	14.1	2.20e-06	0	56	0	442499072	53	4977
2026-01-07 22:30:48.68	69.38	24.53	-40.3	-43.1	14.7	7.00e-07	0	56	0	444596224	52	4907
2026-01-07 22:30:49.69	69.65	24.58	-40.1	-42.9	14.9	0.00e+00	0	56	0	446693376	52	4781
2026-01-07 22:30:50.70	69.93	24.64	-40.4	-43.4	14.5	0.00e+00	0	56	0	448790528	52	5061
2026-01-07 22:30:51.71	70.20	24.69	-41.0	-44.3	13.5	3.00e-06	0	56	0	449839104	52	5641
2026-01-07 22:30:52.72	70.48	24.75	-41.3	-45.0	12.8	2.51e-05	0	56	0	451936256	53	5784
2026-01-07 22:30:53.72	70.75	24.80	-41.7	-45.9	12.0	2.20e-04	0	56	0	454033408	53	6351
2026-01-07 22:30:54.73	71.03	24.86	-41.9	-46.1	11.7	5.20e-04	0	56	0	456130560	54	6188
2026-01-07 22:30:55.74	71.31	24.91	-41.8	-46.0	11.7	5.10e-04	0	56	0	458227712	54	6127
2026-01-07 22:30:56.75	71.58	24.96	-41.8	-45.9	11.8	5.18e-04	0	56	0	459276288	54	6037
2026-01-07 22:30:57.76	71.87	25.02	-41.6	-45.6	12.0	3.46e-04	0	56	0	461373440	54	5850
2026-01-07 22:30:58.77	72.15	25.07	-41.7	-45.8	12.0	3.20e-04	0	56	0	463470592	54	5989
2026-01-07 22:30:59.78	72.43	25.12	-41.6	-45.7	12.0	4.35e-04	0	56	0	465567744	54	5856
2026-01-07 22:31:00.79	72.71	25.17	-41.5	-45.4	12.4	1.90e-04	0	56	0	467664896	54	5666
2026-01-07 22:31:01.79	72.99	25.22	-41.2	-44.7	13.1	8.01e-05	0	56	0	468713472	54	5247
2026-01-07 22:31:02.80	73.28	25.27	-40.9	-44.3	13.4	2.21e-05	0	57	0	470810624	53	5327
2026-01-07 22:31:03.81	73.56	25.32	-40.8	-44.2	13.5	9.90e-06	0	56	0	472907776	53	5219
2026-01-07 22:31:04.82	73.85	25.36	-41.0	-44.5	13.3	9.10e-06	0	56	0	475004928	53	5426
2026-01-07 22:31:05.83	74.14	25.41	-41.3	-45.0	12.7	4.04e-05	0	56	0	477102080	53	5787
2026-01-07 22:31:06.84	74.42	25.46	-41.6	-45.5	12.3	1.26e-04	0	56	0	478150656	53	6119
2026-01-07 22:31:07.85	74.71	25.50	-41.7	-45.8	11.9	4.47e-04	0	56	0	480247808	54	5951
2026-01-07 22:31:08.86	75.00	25.55	-41.6	-45.5	12.2	3.24e-04	0	56	0	482344960	54	5787
2026-01-07 22:31:09.87	75.29	25.59	-41.5	-45.4	12.4	1.88e-04	0	56	0	484442112	54	5706
2026-01-07 22:31:10.88	75.59	25.64	-41.5	-45.2	12.6	1.11e-04	0	56	0	486539264	54	5571
2026-01-07 22:31:11.88	75.87	25.68	-41.6	-45.6	12.3	1.54e-04	0	56	0	487587840	54	5799
2026-01-07 22:31:12.89	76.17	25.72	-41.9	-46.2	11.6	4.50e-04	0	57	0	489684992	54	6247
2026-01-07 22:31:13.90	76.46	25.76	-42.1	-46.6	11.2	1.40e-03	0	56	0	491782144	54	6542
2026-01-07 22:31:14.91	76.76	25.81	-42.1	-46.7	11.1	1.21e-03	0	56	0	493879296	54	6584
2026-01-07 22:31:15.91	77.05	25.84	-41.9	-46.0	11.7	1.33e-03	0	56	0	495976448	54	6126
2026-01-07 22:31:16.93	77.35	25.88	-41.6	-45.4	12.4	1.72e-04	0	56	0	497025024	54	5666
2026-01-07 22:31:17.93	77.64	25.92	-41.4	-45.0	12.9	4.27e-05	0	56	0	499122176	54	5423
2026-01-07 22:31:18.94	77.94	25.96	-41.2	-44.7	13.2	3.50e-05	0	56	0	501219328	54	5231
2026-01-07 22:31:19.95	78.24	26.00	-41.2	-44.6	13.3	1.37e-05	0	56	0	503316480	54	5181
2026-01-07 22:31:20.96	78.54	26.03	-40.8	-44.0	13.8	1.06e-05	0	56	0	505413632	53	5149
2026-01-07 22:31:21.97	78.83	26.07	-40.8	-44.0	13.8	9.90e-06	0	56	0	506462208	53	5126
2026-01-07 22:31:22.98	79.13	26.11	-41.0	-44.4	13.5	7.60e-06	0	56	0	508559360	53	5385
2026-01-07 22:31:23.98	79.43	26.14	-41.2	-44.7	13.2	1.60e-05	0	57	0	510656512	53	5551
2026-01-07 22:31:24.99	79.73	26.17	-41.2	-44.7	13.2	4.11e-05	0	57	0	512753664	53	5592
2026-01-07 22:31:26.00	80.04	26.21	-41.5	-45.2	12.6	4.42e-05	0	57	0	514850816	53	5921
2026-01-07 22:31:27.01	80.34	26.24	-41.4	-45.1	12.7	8.31e-05	0	57	0	515899392	53	5835
2026-01-07 22:31:28.02	80.64	26.27	-41.5	-45.3	12.6	1.07e-04	0	56	0	517996544	53	5967
2026-01-07 22:31:29.03	80.95	26.30	-41.7	-45.6	12.3	1.35e-04	0	56	0	520093696	53	6147
2026-01-07 22:31:30.03	81.25	26.33	-41.6	-45.4	12.4	9.46e-05	0	56	0	522190848	54	5701
2026-01-07 22:31:31.04	81.55	26.36	-41.2	-44.7	13.2	5.34e-05	0	56	0	524288000	54	5233
2026-01-07 22:31:32.05	81.86	26.38	-40.8	-43.9	14.0	8.30e-06	0	56	0	525336576	53	5054
2026-01-07 22:31:33.06	82.16	26.41	-40.9	-44.0	13.9	4.50e-06	0	57	0	527433728	53	5136
2026-01-07 22:31:34.06	82.47	26.44	-40.9	-44.2	13.7	5.30e-06	0	57	0	529530880	53	5231
2026-01-07 22:31:35.07	82.77	26.46	-41.2	-44.7	13.2	1.06e-05	0	57	0	531628032	53	5551
2026-01-07 22:31:36.08	83.08	26.49	-41.5	-45.2	12.7	5.72e-05	0	57	0	533725184	53	5898
2026-01-07 22:31:37.09	83.39	26.51	-41.6	-45.5	12.4	1.40e-04	0	56	0	534773760	53	6080
2026-01-07 22:31:38.10	83.70	26.53	-41.3	-44.8	13.0	9.68e-05	0	57	0	536870912	53	5626
2026-01-07 22:31:39.11	84.01	26.55	-41.0	-44.3	13.5	2.44e-05	0	57	0	538968064	53	5329
2026-01-07 22:31:40.12	84.32	26.58	-40.8	-43.9	14.0	3.00e-06	0	56	0	541065216	53	5048
2026-01-07 22:31:41.13	84.63	26.60	-40.5	-43.5	14.4	7.00e-07	0	57	0	543162368	53	4849
2026-01-07 22:31:42.13	84.93	26.61	-40.6	-43.6	14.3	2.20e-06	0	56	0	545259520	53	4899
2026-01-07 22:31:43.14	85.24	26.63	-40.9	-44.1	13.9	1.50e-06	0	56	0	546308096	53	5193
2026-01-07 22:31:44.15	85.55	26.65	-41.2	-44.6	13.4	3.80e-06	0	56	0	548405248	53	5485
2026-01-07 22:31:45.16	85.87	26.67	-41.1	-44.2	13.8	9.90e-06	0	57	0	550502400	53	5264
2026-01-07 22:31:46.17	86.18	26.68	-41.2	-44.4	13.6	6.10e-06	0	56	0	552599552	53	5363
2026-01-07 22:31:47.18	86.49	26.70	-41.0	-44.0	13.9	3.00e-06	0	57	0	554696704	53	5155
2026-01-07 22:31:48.19	86.80	26.71	-40.9	-43.9	14.2	1.50e-06	0	57	0	555745280	53	5063
2026-01-07 22:31:49.19	87.11	26.73	-41.1	-44.2	13.8	2.20e-06	0	57	0	557842432	53	5250
2026-01-07 22:31:50.20	87.42	26.74	-41.3	-44.6	13.4	8.30e-06	0	57	0	559939584	53	5468
2026-01-07 22:31:51.21	87.74	26.75	-41.4	-44.7	13.4	1.29e-05	0	57	0	562036736	53	5554
2026-01-07 22:31:52.22	88.05	26.76	-41.1	-44.3	13.8	1.75e-05	0	56	0	563085312	53	5294
2026-01-07 22:31:53.23	88.36	26.77	-41.0	-44.1	14.0	3.80e-06	0	56	0	565182464	53	5168
2026-01-07 22:31:54.24	88.68	26.78	-40.8	-43.7	14.3	7.00e-07	0	57	0	567279616	53	4983
2026-01-07 22:31:55.25	88.99	26.79	-41.0	-44.1	14.0	7.00e-07	0	57	0	569376768	53	5196
2026-01-07 22:31:56.26	89.30	26.79	-41.3	-44.6	13.4	9.10e-06	0	57	0	571473920	53	5515
2026-01-07 22:31:57.27	89.62	26.80	-41.5	-44.8	13.3	1.37e-05	0	57	0	573571072	53	5646
2026-01-07 22:31:58.28	89.93	26.80	-41.4	-44.8	13.2	2.74e-05	0	57	0	574619648	53	5600
2026-01-07 22:31:59.29	90.24	26.81	-41.3	-44.5	13.5	2.44e-05	0	56	0	576716800	53	5455
2026-01-07 22:32:00.30	90.56	26.81	-41.1	-44.2	13.8	3.80e-06	0	57	0	578813952	53	5270
2026-01-07 22:32:01.31	90.87	26.81	-41.1	-44.2	13.8	2.20e-06	0	57	0	580911104	53	5261
2026-01-07 22:32:02.32	91.19	26.81	-41.2	-44.5	13.6	5.30e-06	0	57	0	583008256	53	5413
2026-01-07 22:32:03.33	91.50	26.82	-41.2	-44.4	13.6	6.80e-06	0	57	0	584056832	53	5392
2026-01-07 22:32:04.33	91.81	26.81	-41.0	-44.1	14.0	6.80e-06	0	57	0	586153984	53	5177
2026-01-07 22:32:05.34	92.13	26.81	-40.8	-43.7	14.4	7.00e-07	0	57	0	588251136	53	4950
2026-01-07 22:32:06.35	92.44	26.81	-40.8	-43.7	14.3	7.00e-07	0	56	0	590348288	53	4945
2026-01-07 22:32:07.36	92.76	26.81	-40.9	-43.9	14.2	1.50e-06	0	57	0	592445440	53	5063
2026-01-07 22:32:08.37	93.07	26.80	-41.0	-44.1	14.0	7.00e-07	0	56	0	593494016	53	5172
2026-01-07 22:32:09.38	93.38	26.80	-41.3	-44.6	13.4	8.30e-06	0	57	0	595591168	53	5485
2026-01-07 22:32:10.39	93.70	26.79	-41.6	-45.0	13.0	3.20e-05	0	57	0	597688320	53	5776
2026-01-07 22:32:11.40	94.01	26.79	-41.8	-45.5	12.5	5.49e-05	0	57	0	599785472	54	5749
2026-01-07 22:32:12.41	94.33	26.78	-41.8	-45.4	12.7	7.62e-05	0	57	0	601882624	54	5660
2026-01-07 22:32:13.41	94.64	26.77	-41.5	-45.0	13.1	3.73e-05	0	56	0	602931200	54	5403
2026-01-07 22:32:14.42	94.95	26.76	-41.2	-44.4	13.7	2.05e-05	0	57	0	605028352	54	5050
2026-01-07 22:32:15.43	95.26	26.75	-41.0	-44.1	14.0	5.30e-06	0	57	0	607125504	53	5162
2026-01-07 22:32:16.44	95.58	26.74	-40.8	-43.7	14.3	3.80e-06	0	57	0	609222656	53	4945
2026-01-07 22:32:17.45	95.89	26.73	-40.7	-43.5	14.6	0.00e+00	0	57	0	611319808	53	4821
2026-01-07 22:32:18.46	96.20	26.72	-40.6	-43.4	14.7	1.50e-06	0	57	0	612368384	53	4789
2026-01-07 22:32:19.47	96.51	26.70	-40.7	-43.6	14.5	7.00e-07	0	57	0	614465536	53	4887
2026-01-07 22:32:20.47	96.82	26.69	-40.8	-43.6	14.4	7.00e-07	0	57	0	616562688	53	4924
2026-01-07 22:32:21.49	97.14	26.67	-40.6	-43.4	14.7	2.20e-06	0	57	0	618659840	53	4801
2026-01-07 22:32:22.50	97.45	26.65	-40.5	-43.2	14.9	0.00e+00	0	57	0	620756992	52	4929
2026-01-07 22:32:23.50	97.76	26.64	-40.3	-42.9	15.2	7.00e-07	0	57	0	621805568	52	4768
2026-01-07 22:32:24.51	98.07	26.62	-40.5	-43.2	14.9	0.00e+00	0	57	0	623902720	52	4970
2026-01-07 22:32:25.52	98.38	26.60	-40.6	-43.3	14.8	0.00e+00	0	57	0	625999872	52	5027
2026-01-07 22:32:26.53	98.69	26.58	-40.6	-43.3	14.8	0.00e+00	0	57	0	628097024	52	4997
2026-01-07 22:32:27.54	99.00	26.56	-40.5	-43.1	14.9	7.00e-07	0	57	0	630194176	52	4926
2026-01-07 22:32:28.55	99.31	26.54	-40.3	-43.0	15.1	0.00e+00	0	57	0	631242752	52	4816
2026-01-07 22:32:29.56	99.62	26.51	-40.2	-42.7	15.4	0.00e+00	0	57	0	633339904	52	4679
2026-01-07 22:32:30.57	99.93	26.49	-40.0	-42.4	15.6	0.00e+00	0	57	0	635437056	52	4540
2026-01-07 22:32:31.58	100.23	26.47	-39.9	-42.3	15.8	0.00e+00	0	57	0	637534208	51	4743
2026-01-07 22:32:32.59	100.54	26.44	-40.0	-42.4	15.8	0.00e+00	0	57	0	639631360	51	4776
2026-01-07 22:32:33.59	100.85	26.42	-40.5	-43.1	15.1	0.00e+00	0	57	0	641728512	51	5208
2026-01-07 22:32:34.60	101.15	26.39	-40.8	-43.6	14.5	0.00e+00	0	57	0	642777088	52	5181
2026-01-07 22:32:35.61	101.46	26.36	-41.1	-44.3	13.9	7.00e-07	0	57	0	644874240	52	5598
2026-01-07 22:32:36.62	101.76	26.33	-41.2	-44.3	13.8	6.10e-06	0	57	0	646971392	53	5299
2026-01-07 22:32:37.63	102.07	26.30	-41.1	-44.3	13.8	5.30e-06	0	57	0	649068544	53	5282
2026-01-07 22:32:38.64	102.37	26.27	-41.0	-44.0	14.1	4.50e-06	0	57	0	651165696	53	5154
2026-01-07 22:32:39.64	102.67	26.24	-40.8	-43.7	14.4	2.20e-06	0	57	0	652214272	53	4938
2026-01-07 22:32:40.65	102.98	26.21	-40.5	-43.2	14.8	0.00e+00	0	57	0	654311424	53	4682
2026-01-07 22:32:41.65	103.28	26.18	-40.1	-42.5	15.6	0.00e+00	0	57	0	656408576	52	4592
2026-01-07 22:32:42.66	103.58	26.15	-39.9	-42.3	15.9	0.00e+00	0	57	0	658505728	51	4717
2026-01-07 22:32:43.66	103.88	26.11	-39.7	-41.9	16.2	0.00e+00	0	56	0	659554304	51	4539
2026-01-07 22:32:44.67	104.18	26.08	-39.3	-41.4	16.7	0.00e+00	0	57	0	661651456	50	4544
2026-01-07 22:32:45.68	104.48	26.04	-39.1	-41.1	17.1	0.00e+00	0	57	0	663748608	50	4363
2026-01-07 22:32:46.68	104.78	26.01	-38.9	-40.9	17.2	0.00e+00	0	57	0	665845760	49	4508
2026-01-07 22:32:47.69	105.07	25.97	-39.0	-41.0	17.2	0.00e+00	0	57	0	667942912	49	4557
2026-01-07 22:32:48.70	105.37	25.93	-39.5	-41.7	16.5	0.00e+00	0	57	0	670040064	49	4945
2026-01-07 22:32:49.70	105.67	25.89	-39.9	-42.3	15.9	0.00e+00	0	57	0	671088640	50	4998
2026-01-07 22:32:50.71	105.96	25.85	-40.2	-42.6	15.5	0.00e+00	0	57	0	673185792	51	4914
2026-01-07 22:32:51.72	106.26	25.81	-40.2	-42.8	15.4	0.00e+00	0	57	0	675282944	51	4992
2026-01-07 22:32:52.73	106.56	25.77	-39.9	-42.2	15.9	0.00e+00	0	57	0	677380096	51	4699
2026-01-07 22:32:53.73	106.85	25.73	-39.4	-41.6	16.6	0.00e+00	0	56	0	679477248	50	4600
2026-01-07 22:32:54.75	107.14	25.69	-39.1	-41.1	17.1	0.00e+00	0	57	0	680525824	50	4356
2026-01-07 22:32:55.76	107.44	25.64	-39.0	-41.1	17.1	0.00e+00	0	57	0	682622976	49	4616
2026-01-07 22:32:56.77	107.73	25.60	-39.1	-41.1	17.0	0.00e+00	0	57	0	684720128	49	4650
2026-01-07 22:32:57.78	108.02	25.56	-39.1	-41.2	17.0	0.00e+00	0	57	0	686817280	49	4685
2026-01-07 22:32:58.78	108.31	25.51	-39.2	-41.3	16.9	0.00e+00	0	57	0	688914432	49	4744
2026-01-07 22:32:59.79	108.60	25.47	-38.9	-40.9	17.2	0.00e+00	0	57	0	689963008	49	4532
2026-01-07 22:33:00.80	108.89	25.42	-38.4	-40.3	17.8	0.00e+00	0	57	0	692060160	48	4466
2026-01-07 22:33:01.81	109.18	25.37	-38.3	-40.1	18.0	0.00e+00	0	57	0	694157312	48	4363
2026-01-07 22:33:02.82	109.46	25.32	-38.3	-40.2	17.9	0.00e+00	0	56	0	696254464	48	4398
2026-01-07 22:33:03.83	109.75	25.28	-38.5	-40.4	17.7	0.00e+00	0	57	0	698351616	48	4518
2026-01-07 22:33:04.83	110.03	25.23	-38.9	-40.9	17.2	0.00e+00	0	57	0	699400192	48	4791
2026-01-07 22:33:05.84	110.32	25.18	-39.4	-41.5	16.6	0.00e+00	0	57	0	701497344	49	4853
2026-01-07 22:33:06.85	110.60	25.13	-39.6	-41.8	16.3	0.00e+00	0	57	0	703594496	49	5037
2026-01-07 22:33:07.86	110.89	25.08	-39.5	-41.6	16.5	0.00e+00	0	57	0	705691648	49	4917
2026-01-07 22:33:08.87	111.17	25.02	-39.3	-41.4	16.6	0.00e+00	0	57	0	707788800	49	4814
2026-01-07 22:33:09.88	111.45	24.97	-38.9	-40.9	17.2	0.00e+00	0	57	0	708837376	49	4514
2026-01-07 22:33:10.89	111.73	24.92	-38.5	-40.4	17.6	0.00e+00	0	57	0	710934528	49	4287
2026-01-07 22:33:11.90	112.01	24.86	-38.5	-40.3	17.7	0.00e+00	0	57	0	713031680	48	4493
2026-01-07 22:33:12.91	112.29	24.81	-38.5	-40.4	17.7	0.00e+00	0	57	0	715128832	48	4499
2026-01-07 22:33:13.91	112.56	24.76	-38.7	-40.6	17.5	0.00e+00	0	57	0	717225984	48	4628
2026-01-07 22:33:14.92	112.84	24.70	-38.6	-40.5	17.6	0.00e+00	0	57	0	718274560	48	4585
2026-01-07 22:33:15.93	113.11	24.65	-38.7	-40.6	17.4	0.00e+00	0	57	0	720371712	48	4650
2026-01-07 22:33:16.94	113.39	24.59	-38.9	-40.9	17.2	0.00e+00	0	57	0	722468864	48	4771
2026-01-07 22:33:17.95	113.66	24.53	-38.9	-40.9	17.2	0.00e+00	0	57	0	724566016	48	4788
2026-01-07 22:33:18.96	113.94	24.47	-39.1	-41.2	16.9	0.00e+00	0	57	0	726663168	49	4673
2026-01-07 22:33:19.97	114.21	24.42	-39.4	-41.6	16.5	0.00e+00	0	57	0	727711744	49	4879
2026-01-07 22:33:20.98	114.48	24.36	-39.2	-41.3	16.8	0.00e+00	0	57	0	729808896	49	4715
2026-01-07 22:33:21.99	114.75	24.30	-39.0	-41.1	17.0	0.00e+00	0	57	0	731906048	49	4612
2026-01-07 22:33:23.00	115.02	24.24	-38.9	-40.8	17.2	0.00e+00	0	57	0	734003200	49	4484
2026-01-07 22:33:24.00	115.28	24.18	-38.7	-40.6	17.4	0.00e+00	0	57	0	736100352	49	4387
2026-01-07 22:33:25.01	115.55	24.12	-38.7	-40.6	17.5	0.00e+00	0	57	0	737148928	49	4367
2026-01-07 22:33:26.02	115.81	24.06	-39.0	-41.0	17.1	0.00e+00	0	57	0	739246080	49	4557
2026-01-07 22:33:27.03	116.08	24.00	-39.1	-41.2	16.9	0.00e+00	0	57	0	741343232	49	4675
2026-01-07 22:33:28.04	116.34	23.93	-39.3	-41.4	16.7	0.00e+00	0	57	0	743440384	49	4814
2026-01-07 22:33:29.05	116.61	23.87	-39.1	-41.2	16.9	0.00e+00	0	57	0	745537536	49	4657
2026-01-07 22:33:30.06	116.87	23.81	-39.0	-41.1	17.0	0.00e+00	0	57	0	746586112	49	4614
2026-01-07 22:33:31.07	117.13	23.74	-39.2	-41.2	16.9	0.00e+00	0	57	0	748683264	49	4693
2026-01-07 22:33:32.08	117.39	23.68	-39.2	-41.2	16.9	0.00e+00	0	57	0	750780416	49	4698
2026-01-07 22:33:33.09	117.65	23.62	-39.6	-41.8	16.3	0.00e+00	0	57	0	752877568	49	5006
2026-01-07 22:33:34.10	117.90	23.55	-39.9	-42.2	15.9	0.00e+00	0	57	0	754974720	50	4963
2026-01-07 22:33:35.11	118.16	23.49	-40.2	-42.7	15.4	0.00e+00	0	57	0	756023296	51	4943
2026-01-07 22:33:36.12	118.42	23.42	-40.2	-42.8	15.4	0.00e+00	0	57	0	758120448	51	4985
2026-01-07 22:33:37.13	118.67	23.35	-40.1	-42.6	15.5	0.00e+00	0	57	0	760217600	51	4921
2026-01-07 22:33:38.14	118.92	23.29	-39.8	-42.1	15.9	0.00e+00	0	57	0	762314752	51	4633
2026-01-07 22:33:39.15	119.18	23.22	-39.6	-41.8	16.3	0.00e+00	0	57	0	764411904	51	4472
2026-01-07 22:33:40.16	119.43	23.15	-39.5	-41.7	16.4	0.00e+00	0	57	0	766509056	50	4695
2026-01-07 22:33:41.17	119.68	23.09	-39.3	-41.5	16.6	0.00e+00	0	57	0	767557632	50	4564
2026-01-07 22:33:42.18	119.93	23.02	-39.4	-41.6	16.5	0.00e+00	0	57	0	769654784	50	4643
2026-01-07 22:33:43.19	120.18	22.95	-39.4	-41.5	16.6	0.00e+00	0	57	0	771751936	50	4577
2026-01-07 22:33:44.19	120.42	22.88	-39.4	-41.6	16.4	0.00e+00	0	57	0	773849088	50	4633
2026-01-07 22:33:45.20	120.67	22.81	-39.4	-41.6	16.5	0.00e+00	0	57	0	775946240	50	4639
2026-01-07 22:33:46.21	120.91	22.74	-39.2	-41.4	16.7	0.00e+00	0	57	0	776994816	50	4507
2026-01-07 22:33:47.22	121.15	22.67	-39.4	-41.6	16.5	0.00e+00	0	57	0	779091968	50	4613
2026-01-07 22:33:48.23	121.40	22.60	-39.6	-41.9	16.2	0.00e+00	0	57	0	781189120	50	4770
2026-01-07 22:33:49.24	121.64	22.53	-39.7	-42.0	16.1	0.00e+00	0	57	0	783286272	50	4864
2026-01-07 22:33:50.25	121.88	22.46	-39.9	-42.3	15.8	0.00e+00	0	57	0	785383424	50	5016
2026-01-07 22:33:51.26	122.12	22.39	-39.8	-42.1	16.0	0.00e+00	0	57	0	786432000	50	4894
2026-01-07 22:33:52.27	122.36	22.32	-39.7	-42.0	16.0	0.00e+00	0	57	0	788529152	50	4864
2026-01-07 22:33:53.28	122.60	22.25	-39.6	-41.8	16.2	0.00e+00	0	57	0	790626304	50	4753
2026-01-07 22:33:54.28	122.83	22.17	-39.6	-41.9	16.2	0.00e+00	0	57	0	792723456	50	4760
2026-01-07 22:33:55.29	123.07	22.10	-39.9	-42.3	15.8	0.00e+00	0	57	0	794820608	50	4993
2026-01-07 22:33:56.30	123.30	22.03	-39.9	-42.3	15.8	0.00e+00	0	57	0	795869184	50	5012
2026-01-07 22:33:57.31	123.53	21.96	-40.0	-42.4	15.7	0.00e+00	0	57	0	797966336	50	5051
2026-01-07 22:33:58.32	123.76	21.88	-39.8	-42.1	15.9	0.00e+00	0	57	0	800063488	50	4920
2026-01-07 22:33:59.33	124.00	21.81	-39.6	-41.9	16.2	0.00e+00	0	57	0	802160640	50	4768
2026-01-07 22:34:00.34	124.23	21.74	-39.6	-41.9	16.2	0.00e+00	0	57	0	804257792	50	4760
2026-01-07 22:34:01.35	124.45	21.66	-39.5	-41.7	16.4	0.00e+00	0	57	0	805306368	50	4680
2026-01-07 22:34:02.36	124.68	21.59	-39.7	-42.0	16.1	0.00e+00	0	57	0	807403520	50	4861
2026-01-07 22:34:03.37	124.91	21.51	-40.1	-42.6	15.5	0.00e+00	0	57	0	809500672	50	5161
2026-01-07 22:34:04.37	125.13	21.44	-40.5	-43.1	14.9	0.00e+00	0	57	0	811597824	51	5207
2026-01-07 22:34:05.38	125.36	21.37	-40.5	-43.2	14.8	0.00e+00	0	57	0	813694976	51	5279
2026-01-07 22:34:06.39	125.58	21.29	-40.5	-43.3	14.8	0.00e+00	0	57	0	814743552	51	5290
2026-01-07 22:34:07.39	125.80	21.22	-40.3	-42.9	15.2	0.00e+00	0	57	0	816840704	51	5057
2026-01-07 22:34:08.40	126.02	21.14	-39.6	-42.0	16.1	0.00e+00	0	57	0	818937856	51	4546
2026-01-07 22:34:09.41	126.24	21.07	-39.4	-41.6	16.4	0.00e+00	0	57	0	821035008	50	4609
2026-01-07 22:34:10.42	126.46	20.99	-39.3	-41.4	16.6	0.00e+00	0	57	0	823132160	50	4512
2026-01-07 22:34:11.43	126.68	20.91	-39.3	-41.4	16.6	0.00e+00	0	57	0	824180736	50	4541
2026-01-07 22:34:12.44	126.90	20.84	-39.5	-41.7	16.3	0.00e+00	0	57	0	826277888	50	4693
2026-01-07 22:34:13.45	127.11	20.76	-39.5	-41.7	16.3	0.00e+00	0	57	0	828375040	50	4702
2026-01-07 22:34:14.45	127.33	20.68	-40.0	-42.5	15.5	0.00e+00	0	57	0	830472192	50	5118
2026-01-07 22:34:15.46	127.54	20.61	-40.3	-42.9	15.1	0.00e+00	0	57	0	832569344	51	5062
2026-01-07 22:34:16.47	127.76	20.53	-40.1	-42.6	15.4	0.00e+00	0	57	0	834666496	51	4889
2026-01-07 22:34:17.48	127.97	20.45	-40.2	-42.7	15.3	0.00e+00	0	57	0	835715072	51	4971
2026-01-07 22:34:18.49	128.18	20.38	-40.4	-43.0	15.0	0.00e+00	0	57	0	837812224	51	5145
2026-01-07 22:34:19.50	128.39	20.30	-40.6	-43.3	14.7	0.00e+00	0	57	0	839909376	51	5324
2026-01-07 22:34:20.51	128.60	20.22	-40.6	-43.4	14.5	4.50e-06	0	57	0	842006528	51	5385
2026-01-07 22:34:21.52	128.81	20.14	-40.6	-43.4	14.6	0.00e+00	0	57	0	843055104	52	5046
2026-01-07 22:34:22.53	129.01	20.07	-40.2	-42.8	15.1	0.00e+00	0	57	0	845152256	52	4744
2026-01-07 22:34:23.54	129.22	19.99	-39.9	-42.2	15.7	3.00e-06	0	57	0	847249408	51	4698
2026-01-07 22:34:24.55	129.42	19.91	-39.6	-41.9	16.1	7.00e-07	0	57	0	849346560	51	4496
2026-01-07 22:34:25.56	129.63	19.83	-39.1	-41.1	16.8	0.00e+00	0	57	0	851443712	50	4382
2026-01-07 22:34:26.57	129.83	19.75	-39.0	-41.0	17.0	7.00e-07	0	57	0	852492288	49	4592
2026-01-07 22:34:27.58	130.03	19.68	-39.0	-41.1	16.9	0.00e+00	0	57	0	854589440	49	4620
2026-01-07 22:34:28.59	130.23	19.60	-39.2	-41.3	16.7	1.08e-04	0	57	0	856686592	48	4997
2026-01-07 22:34:29.60	130.43	19.52	-39.7	-42.0	16.0	0.00e+00	0	57	0	858783744	49	5115
2026-01-07 22:34:30.61	130.63	19.44	-40.1	-42.6	15.4	3.26e-04	0	57	0	860880896	50	5212
2026-01-07 22:34:31.62	130.83	19.36	-40.3	-42.9	15.0	3.00e-06	0	57	0	862978048	51	5092
2026-01-07 22:34:32.63	131.03	19.28	-40.5	-43.3	14.7	3.50e-05	0	57	0	864026624	51	5294
2026-01-07 22:34:33.63	131.22	19.21	-40.3	-42.9	15.0	5.97e-04	0	57	0	866123776	51	5099
2026-01-07 22:34:34.64	131.42	19.13	-40.1	-42.6	15.4	4.50e-06	0	57	0	868220928	51	4876
2026-01-07 22:34:35.65	131.61	19.05	-39.8	-42.3	15.7	2.09e-04	0	57	0	870318080	50	4984
2026-01-07 22:34:36.66	131.80	18.97	-39.7	-42.0	16.0	3.00e-06	0	57	0	872415232	50	4839
2026-01-07 22:34:37.67	131.99	18.89	-39.7	-42.1	15.9	5.30e-06	0	57	0	873463808	50	4886
2026-01-07 22:34:38.68	132.19	18.81	-39.6	-41.9	16.0	4.03e-04	0	57	0	875560960	49	5094
2026-01-07 22:34:39.69	132.38	18.73	-39.7	-42.0	15.7	1.08e-03	0	57	0	877658112	49	5119
2026-01-07 22:34:40.70	132.56	18.65	-39.8	-42.3	15.7	4.34e-03	0	57	0	879755264	50	4996
2026-01-07 22:34:41.71	132.75	18.57	-39.8	-42.2	15.8	5.30e-06	0	57	0	881852416	50	4948
2026-01-07 22:34:42.72	132.94	18.49	-39.5	-41.9	15.9	7.62e-05	0	57	0	882900992	50	4796
2026-01-07 22:34:43.73	133.13	18.41	-39.5	-41.8	16.1	4.36e-04	0	57	0	884998144	49	5021
2026-01-07 22:34:44.74	133.31	18.33	-39.6	-41.9	16.1	3.00e-06	0	57	0	887095296	49	5054
2026-01-07 22:34:45.75	133.50	18.25	-39.6	-41.9	16.0	3.68e-04	0	57	0	889192448	49	5060
2026-01-07 22:34:46.76	133.68	18.18	-39.8	-42.2	15.7	6.10e-06	0	57	0	891289600	50	4976
2026-01-07 22:34:47.77	133.86	18.10	-40.0	-42.5	15.5	1.94e-03	0	57	0	892338176	50	5111
2026-01-07 22:34:48.77	134.04	18.02	-40.1	-42.7	15.3	2.13e-05	0	57	0	894435328	50	5228
2026-01-07 22:34:49.78	134.22	17.94	-37.5	-42.6	12.6	1.81e-03	0	57	0	896532480	46	6511
2026-01-07 22:34:50.79	134.40	17.86	-40.2	-42.8	15.1	7.01e-05	0	57	0	898629632	51	5027
2026-01-07 22:34:51.80	134.58	17.78	-40.2	-42.8	15.1	3.80e-06	0	57	0	900726784	51	4997
2026-01-07 22:34:52.81	134.76	17.70	-40.0	-42.6	15.3	8.22e-03	0	57	0	901775360	50	5193
2026-01-07 22:34:53.82	134.94	17.62	-39.9	-42.4	15.5	4.27e-03	0	57	0	903872512	50	5049
2026-01-07 22:34:54.83	135.11	17.54	-40.0	-42.4	15.5	1.22e-05	0	57	0	905969664	50	5092
2026-01-07 22:34:55.84	135.29	17.46	-37.4	-42.5	12.6	3.27e-03	0	57	0	908066816	46	6453
2026-01-07 22:34:56.85	135.46	17.38	-40.3	-42.9	14.9	1.98e-05	0	57	0	910163968	51	5093
2026-01-07 22:34:57.86	135.63	17.30	-40.5	-43.2	14.6	4.57e-05	0	57	0	911212544	51	5275
2026-01-07 22:34:58.86	135.81	17.22	-40.6	-43.6	13.9	3.14e-03	0	57	0	913309696	51	5475
2026-01-07 22:34:59.87	135.98	17.14	-40.7	-43.8	14.0	6.90e-03	0	57	0	915406848	52	5283
2026-01-07 22:35:00.88	136.15	17.06	-40.3	-43.6	14.1	1.22e-05	0	57	0	917504000	51	5516
2026-01-07 22:35:01.90	136.32	16.98	-40.6	-43.6	14.2	5.24e-04	0	57	0	919601152	52	5171
2026-01-07 22:35:02.91	136.49	16.90	-40.1	-42.7	15.1	2.05e-05	0	57	0	920649728	52	4692
2026-01-07 22:35:03.91	136.66	16.82	-39.9	-42.4	15.1	3.65e-03	0	57	0	922746880	50	5087
2026-01-07 22:35:04.91	136.82	16.75	-39.8	-42.3	15.6	1.07e-04	0	57	0	924844032	50	4994
2026-01-07 22:35:05.92	136.99	16.67	-39.8	-42.2	15.6	1.06e-05	0	57	0	926941184	50	4973
2026-01-07 22:35:06.93	137.15	16.59	-39.7	-42.1	15.8	3.00e-06	0	57	0	929038336	50	4893
2026-01-07 22:35:07.94	137.32	16.51	-39.7	-42.1	15.7	3.80e-06	0	57	0	931135488	50	4910
2026-01-07 22:35:08.95	137.48	16.43	-39.8	-42.2	15.6	3.73e-04	0	57	0	932184064	50	4951
2026-01-07 22:35:09.96	137.64	16.35	-39.6	-42.0	15.8	7.17e-05	0	57	0	934281216	50	4858
2026-01-07 22:35:10.97	137.81	16.27	-39.5	-41.8	16.1	8.30e-06	0	57	0	936378368	50	4713
2026-01-07 22:35:11.98	137.97	16.19	-39.5	-41.9	16.0	7.00e-07	0	57	0	938475520	50	4770
2026-01-07 22:35:12.99	138.13	16.11	-39.4	-41.7	16.1	5.30e-06	0	57	0	940572672	50	4686
2026-01-07 22:35:14.00	138.29	16.03	-39.3	-41.5	16.2	9.84e-05	0	57	0	941621248	49	4856
2026-01-07 22:35:15.01	138.45	15.95	-39.2	-41.4	16.4	7.00e-07	0	57	0	943718400	49	4804
2026-01-07 22:35:16.02	138.61	15.87	-39.4	-41.7	16.1	7.00e-07	0	57	0	945815552	49	4938
2026-01-07 22:35:17.03	138.76	15.79	-39.5	-41.9	15.9	7.00e-07	0	57	0	947912704	49	5055
2026-01-07 22:35:18.04	138.92	15.72	-39.6	-41.9	15.9	0.00e+00	0	57	0	950009856	49	5088
2026-01-07 22:35:19.05	139.07	15.64	-39.6	-42.0	15.8	0.00e+00	0	57	0	951058432	49	5113
2026-01-07 22:35:20.06	139.23	15.56	-39.9	-42.4	15.4	0.00e+00	0	57	0	953155584	50	5069
2026-01-07 22:35:21.07	139.38	15.48	-40.1	-42.7	15.1	7.00e-07	0	57	0	955252736	50	5246
2026-01-07 22:35:22.08	139.54	15.40	-40.2	-42.8	14.9	0.00e+00	0	57	0	957349888	50	5332
2026-01-07 22:35:23.09	139.69	15.32	-40.3	-43.1	14.6	0.00e+00	0	57	0	959447040	51	5189
2026-01-07 22:35:24.10	139.84	15.24	-40.4	-43.2	14.6	0.00e+00	0	57	0	960495616	51	5277
2026-01-07 22:35:25.10	139.99	15.17	-40.3	-43.1	14.7	0.00e+00	0	57	0	962592768	51	5161
2026-01-07 22:35:26.11	140.14	15.09	-40.4	-43.3	14.4	0.00e+00	0	57	0	964689920	51	5315
2026-01-07 22:35:27.13	140.29	15.01	-40.4	-43.3	14.5	7.00e-07	0	57	0	966787072	51	5292
2026-01-07 22:35:28.13	140.44	14.93	-40.5	-43.3	14.4	0.00e+00	0	57	0	968884224	51	5335
2026-01-07 22:35:29.14	140.59	14.85	-40.4	-43.2	14.5	7.00e-07	0	57	0	969932800	51	5274
2026-01-07 22:35:30.15	140.73	14.77	-40.2	-42.9	14.8	0.00e+00	0	57	0	972029952	51	5062
2026-01-07 22:35:31.16	140.88	14.70	-40.1	-42.7	15.1	0.00e+00	0	57	0	974127104	51	4949
2026-01-07 22:35:32.17	141.03	14.62	-40.0	-42.7	15.1	0.00e+00	0	57	0	976224256	51	4927
2026-01-07 22:35:33.18	141.17	14.54	-39.9	-42.4	15.2	0.00e+00	0	57	0	978321408	51	4808
2026-01-07 22:35:34.19	141.32	14.46	-40.0	-42.6	15.2	0.00e+00	0	57	0	979369984	51	4879
2026-01-07 22:35:35.20	141.46	14.38	-40.0	-42.6	15.1	0.00e+00	0	57	0	981467136	51	4907
2026-01-07 22:35:36.21	141.60	14.31	-39.9	-42.4	15.3	0.00e+00	0	57	0	983564288	51	4786
2026-01-07 22:35:37.22	141.74	14.23	-39.9	-42.4	15.3	0.00e+00	0	57	0	985661440	51	4780
2026-01-07 22:35:38.23	141.89	14.15	-39.9	-42.5	15.3	0.00e+00	0	57	0	987758592	51	4816
2026-01-07 22:35:39.23	142.03	14.08	-39.8	-42.4	15.3	0.00e+00	0	57	0	988807168	51	4777
2026-01-07 22:35:40.25	142.17	14.00	-39.7	-42.2	15.5	0.00e+00	0	57	0	990904320	51	4665
2026-01-07 22:35:41.26	142.31	13.92	-39.5	-41.9	15.8	0.00e+00	0	57	0	993001472	51	4495
2026-01-07 22:35:42.27	142.44	13.84	-39.4	-41.7	16.0	0.00e+00	0	57	0	995098624	50	4668
2026-01-07 22:35:43.27	142.58	13.77	-39.3	-41.6	16.1	0.00e+00	0	57	0	997195776	50	4629
2026-01-07 22:35:44.28	142.72	13.69	-39.5	-41.8	15.9	0.00e+00	0	57	0	999292928	50	4730
2026-01-07 22:35:45.29	142.85	13.61	-39.5	-41.9	15.8	0.00e+00	0	57	0	1000341504	50	4797
2026-01-07 22:35:46.30	142.99	13.54	-39.7	-42.2	15.5	0.00e+00	0	57	0	1002438656	50	4946
2026-01-07 22:35:47.31	143.12	13.46	-39.9	-42.5	15.2	0.00e+00	0	57	0	1004535808	50	5103
2026-01-07 22:35:48.32	143.26	13.38	-40.1	-42.7	15.0	0.00e+00	0	57	0	1006632960	50	5261
2026-01-07 22:35:49.33	143.39	13.31	-40.2	-42.9	14.8	0.00e+00	0	57	0	1008730112	50	5358
2026-01-07 22:35:50.34	143.53	13.23	-40.3	-43.0	14.6	7.00e-07	0	57	0	1009778688	51	5132
2026-01-07 22:35:51.35	143.66	13.15	-40.5	-43.3	14.4	0.00e+00	0	57	0	1011875840	51	5340
2026-01-07 22:35:52.36	143.79	13.08	-40.5	-43.5	14.2	1.50e-06	0	57	0	1013972992	51	5416
2026-01-07 22:35:53.37	143.92	13.00	-40.6	-43.6	14.1	0.00e+00	0	57	0	1016070144	51	5497
2026-01-07 22:35:54.38	144.05	12.93	-40.6	-43.6	14.0	1.50e-06	0	57	0	1018167296	51	5524
2026-01-07 22:35:55.39	144.18	12.85	-40.4	-43.3	14.4	0.00e+00	0	57	0	1019215872	51	5291
2026-01-07 22:35:56.40	144.31	12.77	-40.3	-43.1	14.5	0.00e+00	0	57	0	1021313024	51	5206
2026-01-07 22:35:57.41	144.44	12.70	-40.2	-42.9	14.8	0.00e+00	0	57	0	1023410176	51	5052
2026-01-07 22:35:58.42	144.57	12.62	-40.1	-42.8	14.9	7.00e-07	0	57	0	1025507328	51	5032
2026-01-07 22:35:59.43	144.69	12.55	-40.2	-42.9	14.7	0.00e+00	0	57	0	1027604480	51	5096
2026-01-07 22:36:00.44	144.82	12.47	-40.1	-42.9	14.8	0.00e+00	0	57	0	1028653056	51	5045
2026-01-07 22:36:01.45	144.95	12.40	-40.3	-43.0	14.6	0.00e+00	0	57	0	1030750208	51	5157
2026-01-07 22:36:02.45	145.07	12.32	-40.3	-43.1	14.5	7.00e-07	0	57	0	1032847360	51	5205
2026-01-07 22:36:03.46	145.20	12.25	-40.3	-43.2	14.4	0.00e+00	0	57	0	1034944512	51	5238
2026-01-07 22:36:04.47	145.32	12.17	-40.6	-43.6	14.0	3.00e-06	0	57	0	1037041664	51	5511
2026-01-07 22:36:05.48	145.44	12.10	-40.6	-43.7	13.9	5.30e-06	0	57	0	1038090240	51	5568
2026-01-07 22:36:06.48	145.57	12.03	-40.7	-43.9	13.6	3.00e-06	0	57	0	1040187392	52	5384
2026-01-07 22:36:07.49	145.69	11.95	-40.8	-44.1	13.4	1.14e-05	0	57	0	1042284544	52	5465
2026-01-07 22:36:08.50	145.81	11.88	-40.7	-43.9	13.5	7.60e-06	0	57	0	1044381696	52	5393
2026-01-07 22:36:09.51	145.93	11.80	-40.9	-44.1	13.4	9.90e-06	0	57	0	1046478848	52	5517
2026-01-07 22:36:10.52	146.05	11.73	-40.7	-43.9	13.5	8.30e-06	0	57	0	1047527424	52	5384
2026-01-07 22:36:11.53	146.17	11.65	-40.6	-43.7	13.8	8.30e-06	0	57	0	1049624576	52	5252
2026-01-07 22:36:12.54	146.29	11.58	-40.7	-43.8	13.6	7.60e-06	0	57	0	1051721728	52	5326
2026-01-07 22:36:13.55	146.41	11.51	-40.5	-43.5	13.9	2.20e-06	0	57	0	1053818880	52	5158
2026-01-07 22:36:14.56	146.53	11.43	-40.5	-43.5	13.9	1.50e-06	0	57	0	1055916032	52	5148
2026-01-07 22:36:15.57	146.64	11.36	-40.6	-43.7	13.8	3.80e-06	0	57	0	1056964608	52	5241
2026-01-07 22:36:16.58	146.76	11.28	-40.4	-43.4	14.1	3.00e-06	0	57	0	1059061760	52	5070
2026-01-07 22:36:17.59	146.88	11.21	-40.7	-43.8	13.6	1.50e-06	0	57	0	1061158912	52	5337
2026-01-07 22:36:18.60	146.99	11.14	-40.6	-43.7	13.7	9.10e-06	0	57	0	1063256064	52	5270
2026-01-07 22:36:19.60	147.11	11.07	-40.6	-43.8	13.6	6.80e-06	0	57	0	1065353216	52	5311
2026-01-07 22:36:20.62	147.22	10.99	-40.8	-44.0	13.4	1.06e-05	0	57	0	1066401792	52	5444
2026-01-07 22:36:21.62	147.34	10.92	-40.7	-44.0	13.3	3.80e-06	0	57	0	1068498944	52	5433
2026-01-07 22:36:22.63	147.45	10.85	-40.8	-44.2	13.2	7.60e-06	0	57	0	1070596096	52	5543
2026-01-07 22:36:23.64	147.56	10.77	-40.8	-44.1	13.3	3.05e-05	0	57	0	1072693248	52	5485
2026-01-07 22:36:24.65	147.68	10.70	-40.8	-44.1	13.3	2.89e-05	0	57	0	1074790400	52	5471
2026-01-07 22:36:25.66	147.79	10.63	-40.8	-44.2	13.1	1.60e-05	0	57	0	1075838976	52	5568
2026-01-07 22:36:26.67	147.90	10.56	-40.6	-43.7	13.6	1.29e-05	0	57	0	1077936128	52	5257
2026-01-07 22:36:27.68	148.01	10.48	-40.5	-43.6	13.8	6.80e-06	0	57	0	1080033280	52	5168
2026-01-07 22:36:28.69	148.12	10.41	-40.4	-43.4	13.9	3.00e-06	0	57	0	1082130432	52	5078
2026-01-07 22:36:29.70	148.23	10.34	-40.3	-43.3	14.0	3.00e-06	0	57	0	1084227584	52	5016
2026-01-07 22:36:30.71	148.34	10.27	-40.3	-43.2	14.1	0.00e+00	0	57	0	1085276160	52	4981
2026-01-07 22:36:31.72	148.45	10.20	-40.3	-43.2	14.1	7.00e-07	0	57	0	1087373312	52	4972
2026-01-07 22:36:32.73	148.56	10.13	-40.3	-43.3	13.9	2.20e-06	0	57	0	1089470464	52	5037
2026-01-07 22:36:33.74	148.67	10.05	-40.5	-43.7	13.6	7.60e-06	0	57	0	1091567616	52	5228
2026-01-07 22:36:34.75	148.77	9.98	-40.6	-43.8	13.5	1.06e-05	0	57	0	1093664768	52	5286
2026-01-07 22:36:35.76	148.88	9.91	-40.6	-43.9	13.4	1.37e-05	0	57	0	1095761920	52	5348
2026-01-07 22:36:36.76	148.99	9.84	-40.8	-44.2	13.0	2.44e-05	0	57	0	1096810496	52	5551
2026-01-07 22:36:37.77	149.09	9.77	-40.7	-44.1	13.1	2.05e-05	0	57	0	1098907648	52	5497
2026-01-07 22:36:38.78	149.20	9.70	-41.0	-44.5	12.7	3.20e-05	0	57	0	1101004800	52	5788
2026-01-07 22:36:39.79	149.30	9.63	-41.0	-44.7	12.5	8.92e-05	0	57	0	1103101952	52	5877
2026-01-07 22:36:40.80	149.41	9.56	-41.1	-44.8	12.4	1.44e-04	0	57	0	1105199104	52	5960
2026-01-07 22:36:41.81	149.51	9.49	-41.3	-45.2	12.0	2.68e-04	0	57	0	1106247680	53	5857
2026-01-07 22:36:42.82	149.62	9.42	-41.2	-45.1	12.1	4.51e-04	0	57	0	1108344832	53	5789
2026-01-07 22:36:43.83	149.72	9.35	-41.2	-45.0	12.2	2.43e-04	0	57	0	1110441984	53	5744
2026-01-07 22:36:44.84	149.82	9.28	-41.2	-45.0	12.2	2.42e-04	0	57	0	1112539136	53	5735
2026-01-07 22:36:45.84	149.92	9.21	-41.1	-44.8	12.3	1.66e-04	0	57	0	1114636288	53	5608
2026-01-07 22:36:46.85	150.02	9.14	-41.0	-44.8	12.3	1.61e-04	0	57	0	1115684864	53	5594
2026-01-07 22:36:47.85	150.12	9.07	-41.0	-44.6	12.4	1.92e-04	0	57	0	1117782016	53	5526
2026-01-07 22:36:48.85	150.22	9.00	-41.0	-44.7	12.3	1.50e-04	0	57	0	1119879168	53	5580
2026-01-07 22:36:49.86	150.32	8.93	-40.9	-44.5	12.6	1.14e-04	0	57	0	1121976320	53	5437
2026-01-07 22:36:50.87	150.42	8.86	-40.7	-44.2	12.9	5.34e-05	0	57	0	1124073472	53	5220
2026-01-07 22:36:51.87	150.52	8.79	-40.8	-44.3	12.8	4.34e-05	0	57	0	1125122048	53	5301
2026-01-07 22:36:52.88	150.62	8.72	-40.6	-44.0	13.0	2.44e-05	0	57	0	1127219200	53	5156
2026-01-07 22:36:53.88	150.72	8.65	-40.5	-43.8	13.3	2.36e-05	0	57	0	1129316352	53	5014
2026-01-07 22:36:54.89	150.82	8.58	-40.5	-43.8	13.2	2.28e-05	0	57	0	1131413504	53	5016
2026-01-07 22:36:55.89	150.91	8.52	-40.5	-43.8	13.2	2.28e-05	0	57	0	1133510656	52	5324
2026-01-07 22:36:56.90	151.01	8.45	-40.4	-43.7	13.4	2.44e-05	0	57	0	1134559232	52	5225
2026-01-07 22:36:57.91	151.11	8.38	-40.4	-43.6	13.4	1.44e-05	0	57	0	1136656384	52	5197
2026-01-07 22:36:58.92	151.20	8.31	-40.3	-43.6	13.4	1.44e-05	0	57	0	1138753536	52	5173
2026-01-07 22:36:59.92	151.30	8.24	-40.3	-43.5	13.4	9.90e-06	0	57	0	1140850688	52	5149
2026-01-07 22:37:00.93	151.39	8.17	-40.3	-43.5	13.4	1.52e-05	0	57	0	1142947840	52	5117
2026-01-07 22:37:01.95	151.49	8.10	-40.3	-43.6	13.3	1.90e-05	0	57	0	1143996416	52	5213
2026-01-07 22:37:02.95	151.58	8.04	-40.3	-43.6	13.3	1.83e-05	0	57	0	1146093568	52	5194
2026-01-07 22:37:03.96	151.68	7.97	-44.2	-58.3	3.8	3.42e-01	0	57	104	1148190720	58	19974
2026-01-07 22:37:04.97	151.77	7.90	-44.6	-59.0	3.8	1.49e+00	0	57	104	1148190720	59	20432
2026-01-07 22:37:05.98	151.86	7.83	-44.9	-59.4	3.8	1.49e+00	0	57	104	1148190720	60	20270
2026-01-07 22:37:06.99	151.96	7.77	-45.1	-59.7	3.8	1.49e+00	0	57	104	1148190720	60	20863
