passes_logs/2026/01/07/R2.0S_Moscow/R2.0S_Moscow__20260107_012447_FENGYUN_3D_rec.log

#Pass ID: 20260107_012447_FENGYUN 3D
#Satellite: FENGYUN 3D
#Configuration: FENGYUN 3D
#almurnet v.1.7.20251203
#Start time: 2026-01-07 01:24:49

#Version: 2.2.20231116
#Station: R2.0S_Moscow
#Location: 37.707566 lon 55.798166 lat
#TLE: 1 43010U 17072A   26006.26440730  .00000376  00000+0  19957-3 0  9994
#TLE: 2 43010  98.9925 337.9455 0002045 123.9195 236.2175 14.19693586422016

#Time	Az	El	Level	Level2	SNR	BER	BlckErr	Temp	State	Recorded	gain1	gain2
2026-01-07 01:24:49.13	18.13	2.10	-40.6	-52.7	3.8	8.46e-01	0	47	0	0	53	13914
2026-01-07 01:24:50.14	18.15	2.16	-40.6	-52.6	3.8	8.46e-01	0	47	104	0	53	13870
2026-01-07 01:24:51.15	18.17	2.23	-40.6	-52.6	3.8	8.46e-01	0	47	104	0	53	13876
2026-01-07 01:24:52.16	18.19	2.29	-40.6	-52.7	3.8	8.45e-01	0	47	104	0	53	13908
2026-01-07 01:24:53.17	18.21	2.36	-40.6	-52.6	3.8	8.45e-01	0	47	104	0	53	13837
2026-01-07 01:24:54.18	18.22	2.42	-40.6	-52.6	3.8	8.46e-01	0	48	104	0	53	13831
2026-01-07 01:24:55.19	18.24	2.49	-40.6	-52.7	3.8	8.45e-01	0	48	104	0	53	13893
2026-01-07 01:24:56.20	18.26	2.55	-40.6	-52.7	3.8	8.47e-01	0	48	104	0	53	13889
2026-01-07 01:24:57.22	18.28	2.62	-40.6	-52.7	3.8	8.48e-01	0	48	104	0	53	13887
2026-01-07 01:24:58.22	18.30	2.68	-40.6	-52.6	3.8	8.48e-01	0	48	104	0	53	13855
2026-01-07 01:24:59.24	18.32	2.75	-40.6	-52.6	3.8	8.46e-01	0	48	104	0	53	13848
2026-01-07 01:25:00.25	18.34	2.81	-40.6	-52.6	3.8	8.46e-01	0	48	104	0	53	13850
2026-01-07 01:25:01.26	18.36	2.88	-40.6	-52.6	3.8	8.47e-01	0	48	104	0	53	13855
2026-01-07 01:25:02.27	18.38	2.94	-40.6	-52.6	3.8	8.46e-01	0	48	104	0	53	13797
2026-01-07 01:25:03.28	18.40	3.01	-40.6	-52.6	3.8	8.46e-01	0	48	104	0	53	13866
2026-01-07 01:25:04.29	18.42	3.08	-40.6	-52.6	3.8	8.46e-01	0	48	104	0	53	13841
2026-01-07 01:25:05.30	18.44	3.14	-40.6	-52.6	3.8	8.47e-01	0	48	104	0	53	13860
2026-01-07 01:25:06.31	18.46	3.21	-40.6	-52.6	3.8	8.47e-01	0	48	104	0	53	13831
2026-01-07 01:25:07.32	18.48	3.28	-40.6	-52.6	3.8	8.47e-01	0	49	104	0	53	13838
2026-01-07 01:25:08.33	18.50	3.34	-40.6	-52.6	3.8	8.47e-01	0	48	104	0	53	13829
2026-01-07 01:25:09.34	18.52	3.41	-40.6	-52.6	3.8	8.46e-01	0	49	104	0	53	13853
2026-01-07 01:25:10.35	18.54	3.48	-40.6	-52.6	3.8	8.46e-01	0	49	104	0	53	13824
2026-01-07 01:25:11.36	18.56	3.54	-40.6	-52.6	3.8	8.45e-01	0	49	104	0	53	13851
2026-01-07 01:25:12.37	18.58	3.61	-40.6	-52.6	3.8	8.46e-01	0	49	104	0	53	13778
2026-01-07 01:25:13.38	18.60	3.68	-40.6	-52.6	3.8	8.46e-01	0	49	104	0	53	13842
2026-01-07 01:25:14.39	18.62	3.75	-40.6	-52.6	3.8	8.46e-01	0	49	104	0	53	13867
2026-01-07 01:25:15.40	18.64	3.82	-40.6	-52.6	3.8	8.45e-01	0	49	104	0	53	13852
2026-01-07 01:25:16.41	18.66	3.88	-40.6	-52.6	3.8	8.46e-01	0	49	104	0	53	13798
2026-01-07 01:25:17.42	18.68	3.95	-40.6	-52.6	3.8	8.46e-01	0	49	104	0	53	13851
2026-01-07 01:25:18.44	18.70	4.02	-40.6	-52.6	3.8	8.47e-01	0	49	104	0	53	13864
2026-01-07 01:25:19.44	18.72	4.09	-40.6	-52.6	3.8	8.46e-01	0	49	104	0	53	13832
2026-01-07 01:25:20.46	18.74	4.16	-40.6	-52.6	3.8	8.46e-01	0	49	104	0	53	13876
2026-01-07 01:25:21.47	18.76	4.23	-40.6	-52.6	3.8	8.47e-01	0	50	104	0	53	13867
2026-01-07 01:25:22.48	18.78	4.30	-40.6	-52.6	3.8	8.45e-01	0	50	104	0	53	13788
2026-01-07 01:25:23.49	18.80	4.37	-40.6	-52.6	3.8	8.45e-01	0	49	104	0	53	13832
2026-01-07 01:25:24.50	18.82	4.44	-40.6	-52.6	3.8	8.45e-01	0	49	104	0	53	13808
2026-01-07 01:25:25.51	18.84	4.51	-40.6	-52.6	3.8	8.46e-01	0	49	104	0	53	13832
2026-01-07 01:25:26.52	18.86	4.58	-40.6	-52.6	3.8	8.46e-01	0	50	104	0	53	13823
2026-01-07 01:25:27.53	18.89	4.65	-40.6	-52.6	3.8	8.46e-01	0	50	104	0	53	13817
2026-01-07 01:25:28.55	18.91	4.72	-40.6	-52.6	3.8	8.45e-01	0	50	104	0	53	13862
2026-01-07 01:25:29.56	18.93	4.79	-40.6	-52.6	3.8	8.46e-01	0	50	104	0	53	13789
2026-01-07 01:25:30.57	18.95	4.86	-40.6	-52.6	3.8	8.47e-01	0	50	104	0	53	13785
2026-01-07 01:25:31.58	18.97	4.93	-40.6	-52.6	3.8	8.46e-01	0	50	104	0	53	13809
2026-01-07 01:25:32.59	18.99	5.00	-40.6	-52.6	3.8	8.46e-01	0	50	104	0	53	13811
2026-01-07 01:25:33.60	19.02	5.07	-40.6	-52.6	3.8	8.46e-01	0	50	104	0	53	13816
2026-01-07 01:25:34.61	19.04	5.14	-40.6	-52.6	3.8	8.46e-01	0	50	104	0	53	13849
2026-01-07 01:25:35.62	19.06	5.21	-40.6	-52.6	3.8	8.47e-01	0	50	104	0	53	13854
2026-01-07 01:25:36.63	19.08	5.29	-40.6	-52.6	3.8	8.46e-01	0	50	104	0	53	13829
2026-01-07 01:25:37.64	19.10	5.36	-40.6	-52.6	3.8	8.46e-01	0	50	104	0	53	13816
2026-01-07 01:25:38.65	19.13	5.43	-40.6	-52.6	3.8	8.46e-01	0	50	104	0	53	13869
2026-01-07 01:25:39.66	19.15	5.50	-40.6	-52.6	3.8	8.47e-01	0	50	104	0	53	13798
2026-01-07 01:25:40.67	19.17	5.57	-40.6	-52.6	3.8	8.47e-01	0	50	104	0	53	13782
2026-01-07 01:25:41.68	19.19	5.65	-40.6	-52.6	3.8	8.46e-01	0	51	104	0	53	13794
2026-01-07 01:25:42.69	19.21	5.72	-40.6	-52.6	3.8	8.46e-01	0	51	104	0	53	13828
2026-01-07 01:25:43.70	19.24	5.79	-40.6	-52.6	3.8	8.46e-01	0	51	104	0	53	13815
2026-01-07 01:25:44.71	19.26	5.87	-40.6	-52.6	3.8	8.47e-01	0	51	104	0	53	13791
2026-01-07 01:25:45.72	19.28	5.94	-40.5	-52.6	3.8	8.46e-01	0	51	104	0	53	13768
2026-01-07 01:25:46.73	19.31	6.01	-40.6	-52.6	3.8	8.46e-01	0	51	104	0	53	13800
2026-01-07 01:25:47.74	19.33	6.09	-40.6	-52.6	3.8	8.46e-01	0	51	104	0	53	13808
2026-01-07 01:25:48.75	19.35	6.16	-40.6	-52.6	3.8	8.46e-01	0	51	104	0	53	13787
2026-01-07 01:25:49.76	19.37	6.24	-40.6	-52.6	3.8	8.46e-01	0	51	104	0	53	13866
2026-01-07 01:25:50.77	19.40	6.31	-40.6	-52.6	3.8	8.46e-01	0	51	104	0	53	13818
2026-01-07 01:25:51.78	19.42	6.39	-40.6	-52.6	3.8	8.46e-01	0	51	104	0	53	13797
2026-01-07 01:25:52.79	19.44	6.46	-40.6	-52.6	3.8	8.47e-01	0	51	104	0	53	13799
2026-01-07 01:25:53.81	19.47	6.54	-40.6	-52.6	3.8	8.45e-01	0	51	104	0	53	13833
2026-01-07 01:25:54.82	19.49	6.61	-40.6	-52.6	3.8	8.46e-01	0	51	104	0	53	13787
2026-01-07 01:25:55.83	19.52	6.69	-40.6	-52.6	3.8	8.46e-01	0	51	104	0	53	13768
2026-01-07 01:25:56.84	19.54	6.76	-40.6	-52.6	3.8	8.46e-01	0	51	104	0	53	13759
2026-01-07 01:25:57.85	19.56	6.84	-40.6	-52.5	3.8	8.47e-01	0	51	104	0	53	13643
2026-01-07 01:25:58.86	19.59	6.92	-40.6	-52.5	3.8	8.46e-01	0	51	104	0	53	13597
2026-01-07 01:25:59.87	19.61	6.99	-40.6	-52.4	3.8	8.47e-01	0	51	104	0	53	13562
2026-01-07 01:26:00.88	19.64	7.07	-40.6	-52.3	3.8	8.46e-01	0	51	104	0	53	13377
2026-01-07 01:26:01.89	19.66	7.15	-40.6	-52.2	3.8	8.47e-01	0	52	104	0	53	13249
2026-01-07 01:26:02.90	19.68	7.22	-40.5	-52.0	3.8	8.46e-01	0	52	104	0	53	12853
2026-01-07 01:26:03.92	19.71	7.30	-40.5	-51.9	3.8	8.45e-01	0	52	104	0	53	12804
2026-01-07 01:26:04.93	19.73	7.38	-40.5	-51.7	3.8	8.46e-01	0	52	104	0	53	12455
2026-01-07 01:26:05.94	19.76	7.46	-40.5	-51.7	3.8	8.46e-01	0	52	104	0	52	13132
2026-01-07 01:26:06.95	19.78	7.54	-40.5	-51.3	3.8	8.47e-01	0	52	104	0	52	12654
2026-01-07 01:26:07.96	19.81	7.61	-40.4	-51.1	3.8	8.46e-01	0	52	104	0	52	12306
2026-01-07 01:26:08.97	19.83	7.69	-40.4	-50.8	3.8	8.45e-01	0	52	104	0	52	11901
2026-01-07 01:26:09.98	19.86	7.77	-40.4	-50.4	3.9	8.44e-01	0	52	104	0	52	11329
2026-01-07 01:26:10.99	19.88	7.85	-40.3	-50.2	3.9	8.45e-01	0	52	104	0	52	11045
2026-01-07 01:26:12.00	19.91	7.93	-40.3	-49.8	4.0	8.42e-01	0	52	104	0	52	10628
2026-01-07 01:26:13.01	19.94	8.01	-40.2	-49.1	4.2	8.39e-01	0	52	0	0	52	9828
2026-01-07 01:26:14.02	19.96	8.09	-41.8	-48.2	5.4	4.77e-01	0	52	0	2097152	54	7894
2026-01-07 01:26:15.03	19.99	8.17	-40.8	-45.7	7.3	1.93e-01	0	52	0	7340032	53	6247
2026-01-07 01:26:16.04	20.01	8.25	-40.4	-51.1	3.8	8.44e-01	0	52	104	10485760	51	13090
2026-01-07 01:26:17.05	20.04	8.33	-40.4	-47.3	5.3	7.56e-01	0	52	0	10485760	51	8407
2026-01-07 01:26:18.06	20.06	8.41	-39.3	-42.4	11.0	1.06e-03	0	52	0	15728640	49	5356
2026-01-07 01:26:19.07	20.09	8.49	-37.1	-39.3	13.8	3.89e-05	0	52	0	20971520	46	4467
2026-01-07 01:26:20.08	20.12	8.58	-36.3	-38.2	15.0	2.20e-06	0	52	0	27262976	44	4426
2026-01-07 01:26:21.09	20.14	8.66	-36.2	-38.0	15.2	1.10e-06	0	52	0	32505856	44	4323
2026-01-07 01:26:22.10	20.17	8.74	-36.1	-37.9	15.4	0.00e+00	0	52	0	37748736	44	4269
2026-01-07 01:26:23.10	20.20	8.82	-36.5	-38.4	14.9	0.00e+00	0	52	0	44040192	44	4530
2026-01-07 01:26:24.11	20.22	8.90	-36.8	-38.8	14.6	1.10e-06	0	52	0	49283072	44	4750
2026-01-07 01:26:25.12	20.25	8.99	-37.0	-39.0	14.4	0.00e+00	0	52	0	54525952	44	4856
2026-01-07 01:26:26.13	20.28	9.07	-36.7	-38.6	14.8	2.20e-06	0	52	0	60817408	44	4642
2026-01-07 01:26:27.15	20.31	9.15	-36.5	-38.4	15.1	0.00e+00	0	52	0	66060288	44	4515
2026-01-07 01:26:28.16	20.33	9.24	-36.5	-38.3	15.1	0.00e+00	0	52	0	72351744	44	4481
2026-01-07 01:26:29.17	20.36	9.32	-36.8	-38.7	14.8	0.00e+00	0	52	0	77594624	44	4682
2026-01-07 01:26:30.18	20.39	9.41	-36.6	-38.5	15.0	0.00e+00	0	52	0	83886080	44	4558
2026-01-07 01:26:31.19	20.42	9.49	-36.6	-38.4	15.1	0.00e+00	0	53	0	89128960	44	4541
2026-01-07 01:26:32.20	20.44	9.57	-36.6	-38.4	15.1	0.00e+00	0	53	0	94371840	44	4535
2026-01-07 01:26:33.21	20.47	9.66	-36.7	-38.5	15.0	0.00e+00	0	52	0	100663296	44	4577
2026-01-07 01:26:34.22	20.50	9.74	-36.6	-38.5	15.1	0.00e+00	0	53	0	105906176	44	4558
2026-01-07 01:26:35.23	20.53	9.83	-36.5	-38.3	15.3	0.00e+00	0	53	0	112197632	44	4464
2026-01-07 01:26:36.24	20.56	9.92	-36.7	-38.5	15.1	1.10e-06	0	53	0	117440512	44	4572
2026-01-07 01:26:37.25	20.59	10.00	-36.7	-38.5	15.1	0.00e+00	0	53	0	123731968	44	4583
2026-01-07 01:26:38.25	20.61	10.09	-36.6	-38.3	15.4	0.00e+00	0	53	0	128974848	44	4485
2026-01-07 01:26:39.26	20.64	10.17	-36.7	-38.5	15.2	0.00e+00	0	53	0	134217728	44	4580
2026-01-07 01:26:40.28	20.67	10.26	-36.4	-38.2	15.6	0.00e+00	0	53	0	140509184	44	4401
2026-01-07 01:26:41.29	20.70	10.35	-36.8	-38.6	15.2	0.00e+00	0	53	0	145752064	44	4627
2026-01-07 01:26:42.30	20.73	10.44	-36.6	-38.3	15.5	0.00e+00	0	53	0	152043520	44	4480
2026-01-07 01:26:43.31	20.76	10.53	-36.8	-38.6	15.3	0.00e+00	0	53	0	157286400	44	4605
2026-01-07 01:26:44.32	20.79	10.61	-36.6	-38.3	15.6	0.00e+00	0	53	0	162529280	44	4465
2026-01-07 01:26:45.33	20.82	10.70	-36.7	-38.4	15.5	0.00e+00	0	53	0	168820736	44	4513
2026-01-07 01:26:46.34	20.85	10.79	-36.7	-38.5	15.4	0.00e+00	0	53	0	174063616	44	4560
2026-01-07 01:26:47.35	20.88	10.88	-36.5	-38.2	15.7	0.00e+00	0	53	0	180355072	44	4432
2026-01-07 01:26:48.36	20.91	10.97	-36.7	-38.4	15.6	0.00e+00	0	53	0	185597952	44	4509
2026-01-07 01:26:49.37	20.94	11.06	-36.5	-38.2	15.8	0.00e+00	0	53	0	190840832	44	4395
2026-01-07 01:26:50.38	20.97	11.15	-36.5	-38.1	15.8	0.00e+00	0	53	0	197132288	44	4384
2026-01-07 01:26:51.40	21.00	11.24	-36.5	-38.2	15.9	0.00e+00	0	53	0	202375168	44	4398
2026-01-07 01:26:52.40	21.03	11.33	-36.5	-38.2	15.8	0.00e+00	0	53	0	208666624	44	4420
2026-01-07 01:26:53.42	21.06	11.42	-36.5	-38.2	15.9	0.00e+00	0	53	0	213909504	44	4405
2026-01-07 01:26:54.43	21.10	11.52	-36.5	-38.2	15.9	0.00e+00	0	53	0	220200960	44	4405
2026-01-07 01:26:55.44	21.13	11.61	-36.4	-38.1	16.0	0.00e+00	0	53	0	225443840	44	4348
2026-01-07 01:26:56.45	21.16	11.70	-36.4	-38.1	16.0	0.00e+00	0	53	0	231735296	44	4343
2026-01-07 01:26:57.46	21.19	11.79	-36.3	-37.9	16.2	0.00e+00	0	53	0	236978176	44	4255
2026-01-07 01:26:58.47	21.22	11.89	-36.3	-38.0	16.2	0.00e+00	0	53	0	242221056	44	4295
2026-01-07 01:26:59.48	21.25	11.98	-36.3	-37.9	16.2	0.00e+00	0	53	0	248512512	44	4287
2026-01-07 01:27:00.48	21.29	12.07	-36.3	-37.9	16.2	0.00e+00	0	53	0	253755392	44	4287
2026-01-07 01:27:01.49	21.32	12.17	-36.3	-37.9	16.3	0.00e+00	0	53	0	260046848	44	4274
2026-01-07 01:27:02.51	21.35	12.26	-36.3	-37.9	16.3	0.00e+00	0	53	0	265289728	44	4256
2026-01-07 01:27:03.52	21.39	12.36	-36.3	-37.9	16.3	0.00e+00	0	53	0	270532608	44	4267
2026-01-07 01:27:04.53	21.42	12.45	-36.3	-37.9	16.3	0.00e+00	0	54	0	276824064	44	4268
2026-01-07 01:27:05.54	21.45	12.55	-36.4	-38.0	16.3	0.00e+00	0	53	0	282066944	44	4292
2026-01-07 01:27:06.55	21.48	12.64	-36.3	-37.8	16.4	0.00e+00	0	53	0	288358400	44	4241
2026-01-07 01:27:07.56	21.52	12.74	-36.3	-37.9	16.3	0.00e+00	0	53	0	293601280	44	4274
2026-01-07 01:27:08.57	21.55	12.84	-36.4	-37.9	16.4	0.00e+00	0	54	0	298844160	44	4286
2026-01-07 01:27:09.58	21.59	12.93	-36.4	-38.0	16.3	0.00e+00	0	54	0	305135616	44	4308
2026-01-07 01:27:10.59	21.62	13.03	-36.3	-37.9	16.4	0.00e+00	0	53	0	310378496	44	4244
2026-01-07 01:27:11.60	21.65	13.13	-36.3	-37.9	16.4	0.00e+00	0	54	0	316669952	44	4269
2026-01-07 01:27:12.61	21.69	13.23	-36.3	-37.8	16.4	0.00e+00	0	54	0	321912832	44	4241
2026-01-07 01:27:13.62	21.72	13.32	-36.3	-37.8	16.5	0.00e+00	0	54	0	328204288	44	4223
2026-01-07 01:27:14.63	21.76	13.42	-36.3	-37.9	16.5	0.00e+00	0	54	0	333447168	44	4259
2026-01-07 01:27:15.63	21.79	13.52	-36.3	-37.9	16.5	0.00e+00	0	53	0	339738624	44	4251
2026-01-07 01:27:16.64	21.83	13.62	-36.3	-37.8	16.5	0.00e+00	0	54	0	344981504	44	4241
2026-01-07 01:27:17.65	21.87	13.72	-36.3	-37.9	16.5	0.00e+00	0	54	0	350224384	44	4244
2026-01-07 01:27:18.66	21.90	13.82	-36.3	-37.9	16.5	0.00e+00	0	54	0	356515840	44	4246
2026-01-07 01:27:19.67	21.94	13.92	-36.4	-38.0	16.4	0.00e+00	0	54	0	361758720	44	4297
2026-01-07 01:27:20.68	21.97	14.02	-36.2	-37.8	16.6	0.00e+00	0	54	0	368050176	44	4205
2026-01-07 01:27:21.69	22.01	14.13	-36.3	-37.9	16.5	0.00e+00	0	54	0	373293056	44	4274
2026-01-07 01:27:22.70	22.05	14.23	-36.1	-37.7	16.7	0.00e+00	0	54	0	378535936	44	4146
2026-01-07 01:27:23.71	22.08	14.33	-36.0	-37.5	16.9	0.00e+00	0	54	0	384827392	44	4098
2026-01-07 01:27:24.72	22.12	14.43	-36.2	-37.7	16.7	0.00e+00	0	54	0	390070272	44	4181
2026-01-07 01:27:25.73	22.16	14.54	-36.1	-37.6	16.8	0.00e+00	0	54	0	396361728	44	4112
2026-01-07 01:27:26.74	22.20	14.64	-36.1	-37.6	16.8	0.00e+00	0	54	0	401604608	44	4110
2026-01-07 01:27:27.75	22.23	14.75	-36.0	-37.5	16.9	0.00e+00	0	54	0	406847488	44	4086
2026-01-07 01:27:28.76	22.27	14.85	-35.8	-37.3	16.9	0.00e+00	0	54	0	413138944	43	4226
2026-01-07 01:27:29.77	22.31	14.96	-35.7	-37.1	17.1	0.00e+00	0	54	0	418381824	43	4133
2026-01-07 01:27:30.78	22.35	15.06	-35.7	-37.1	17.1	0.00e+00	0	54	0	424673280	43	4133
2026-01-07 01:27:31.79	22.39	15.17	-35.6	-37.1	17.2	0.00e+00	0	54	0	429916160	43	4111
2026-01-07 01:27:32.79	22.43	15.27	-35.6	-37.0	17.3	0.00e+00	0	54	0	436207616	43	4090
2026-01-07 01:27:33.80	22.47	15.38	-35.6	-37.1	17.2	0.00e+00	0	54	0	441450496	43	4118
2026-01-07 01:27:34.81	22.50	15.49	-35.5	-36.9	17.4	0.00e+00	0	54	0	446693376	43	4051
2026-01-07 01:27:35.83	22.55	15.60	-35.5	-36.9	17.5	0.00e+00	0	54	0	452984832	42	4263
2026-01-07 01:27:36.84	22.59	15.70	-35.5	-36.9	17.5	0.00e+00	0	54	0	458227712	42	4268
2026-01-07 01:27:37.85	22.63	15.81	-35.4	-36.8	17.6	0.00e+00	0	54	0	464519168	42	4208
2026-01-07 01:27:38.86	22.67	15.92	-35.3	-36.7	17.7	0.00e+00	0	54	0	469762048	42	4158
2026-01-07 01:27:39.87	22.71	16.03	-35.2	-36.6	17.8	0.00e+00	0	54	0	475004928	42	4106
2026-01-07 01:27:40.88	22.75	16.14	-35.2	-36.6	17.8	0.00e+00	0	54	0	481296384	42	4108
2026-01-07 01:27:41.89	22.79	16.25	-35.2	-36.6	17.8	0.00e+00	0	54	0	486539264	42	4124
2026-01-07 01:27:42.90	22.83	16.37	-35.2	-36.6	17.9	0.00e+00	0	54	0	492830720	42	4113
2026-01-07 01:27:43.91	22.87	16.48	-35.1	-36.5	18.0	0.00e+00	0	54	0	498073600	42	4056
2026-01-07 01:27:44.92	22.92	16.59	-35.1	-36.4	18.1	0.00e+00	0	54	0	503316480	42	4016
2026-01-07 01:27:45.93	22.96	16.70	-35.1	-36.4	18.0	0.00e+00	0	54	0	509607936	42	4035
2026-01-07 01:27:46.94	23.00	16.82	-35.1	-36.4	18.0	0.00e+00	0	54	0	514850816	42	4044
2026-01-07 01:27:47.95	23.04	16.93	-35.0	-36.3	18.1	0.00e+00	0	54	0	521142272	42	3992
2026-01-07 01:27:48.96	23.09	17.04	-35.0	-36.4	18.1	0.00e+00	0	54	0	526385152	42	4013
2026-01-07 01:27:49.97	23.13	17.16	-35.0	-36.3	18.1	0.00e+00	0	54	0	532676608	41	4212
2026-01-07 01:27:50.98	23.18	17.28	-35.0	-36.3	18.1	0.00e+00	0	54	0	537919488	41	4230
2026-01-07 01:27:51.99	23.22	17.39	-34.9	-36.2	18.2	0.00e+00	0	54	0	544210944	41	4163
2026-01-07 01:27:53.01	23.26	17.51	-34.9	-36.2	18.2	0.00e+00	0	54	0	549453824	41	4177
2026-01-07 01:27:54.02	23.31	17.63	-34.8	-36.1	18.4	0.00e+00	0	54	0	554696704	41	4116
2026-01-07 01:27:55.02	23.35	17.74	-34.7	-36.0	18.5	0.00e+00	0	54	0	560988160	41	4070
2026-01-07 01:27:56.03	23.40	17.86	-34.7	-36.0	18.5	0.00e+00	0	55	0	566231040	41	4076
2026-01-07 01:27:57.05	23.45	17.98	-34.7	-36.0	18.5	0.00e+00	0	54	0	572522496	41	4075
2026-01-07 01:27:58.06	23.49	18.10	-34.6	-35.9	18.6	0.00e+00	0	54	0	577765376	41	4030
2026-01-07 01:27:59.07	23.54	18.22	-34.6	-35.9	18.5	0.00e+00	0	54	0	583008256	41	4034
2026-01-07 01:28:00.08	23.59	18.34	-34.7	-36.0	18.5	0.00e+00	0	55	0	589299712	41	4055
2026-01-07 01:28:01.09	23.63	18.46	-34.7	-36.0	18.5	0.00e+00	0	55	0	594542592	41	4053
2026-01-07 01:28:02.10	23.68	18.58	-34.6	-35.9	18.6	0.00e+00	0	55	0	600834048	41	4018
2026-01-07 01:28:03.11	23.73	18.71	-34.6	-35.9	18.6	0.00e+00	0	55	0	606076928	41	4036
2026-01-07 01:28:04.12	23.78	18.83	-34.6	-35.8	18.7	0.00e+00	0	54	0	611319808	41	3997
2026-01-07 01:28:05.13	23.83	18.95	-34.6	-35.8	18.7	0.00e+00	0	55	0	617611264	41	3995
2026-01-07 01:28:06.14	23.87	19.08	-34.5	-35.8	18.7	0.00e+00	0	55	0	622854144	41	3978
2026-01-07 01:28:07.15	23.92	19.20	-34.5	-35.7	18.8	0.00e+00	0	54	0	629145600	40	4171
2026-01-07 01:28:08.16	23.97	19.33	-34.4	-35.6	18.9	0.00e+00	0	55	0	634388480	40	4120
2026-01-07 01:28:09.17	24.02	19.45	-34.3	-35.5	19.1	0.00e+00	0	55	0	640679936	40	4076
2026-01-07 01:28:10.18	24.07	19.58	-34.3	-35.5	19.0	0.00e+00	0	55	0	645922816	40	4077
2026-01-07 01:28:11.19	24.13	19.71	-34.3	-35.5	19.1	0.00e+00	0	55	0	652214272	40	4074
2026-01-07 01:28:12.20	24.18	19.83	-34.2	-35.4	19.2	0.00e+00	0	55	0	657457152	40	4041
2026-01-07 01:28:13.21	24.23	19.96	-34.2	-35.5	19.1	0.00e+00	0	55	0	662700032	40	4057
2026-01-07 01:28:14.22	24.28	20.09	-34.2	-35.4	19.2	0.00e+00	0	55	0	668991488	40	4049
2026-01-07 01:28:15.23	24.33	20.22	-34.2	-35.4	19.1	0.00e+00	0	55	0	674234368	40	4046
2026-01-07 01:28:16.24	24.39	20.35	-34.1	-35.3	19.3	0.00e+00	0	55	0	680525824	40	4001
2026-01-07 01:28:17.25	24.44	20.48	-34.2	-35.4	19.1	0.00e+00	0	55	0	685768704	40	4049
2026-01-07 01:28:18.26	24.49	20.61	-34.2	-35.4	19.2	0.00e+00	0	55	0	691011584	40	4034
2026-01-07 01:28:19.27	24.55	20.75	-34.1	-35.3	19.3	0.00e+00	0	55	0	697303040	40	3997
2026-01-07 01:28:20.28	24.60	20.88	-34.1	-35.3	19.3	0.00e+00	0	55	0	702545920	40	3997
2026-01-07 01:28:21.29	24.66	21.01	-34.0	-35.2	19.4	0.00e+00	0	55	0	708837376	40	3950
2026-01-07 01:28:22.30	24.71	21.15	-34.1	-35.3	19.4	0.00e+00	0	55	0	714080256	40	3966
2026-01-07 01:28:23.31	24.77	21.28	-34.0	-35.2	19.4	0.00e+00	0	55	0	719323136	40	3949
2026-01-07 01:28:24.33	24.83	21.42	-34.1	-35.3	19.4	0.00e+00	0	55	0	725614592	39	4214
2026-01-07 01:28:25.34	24.88	21.56	-34.0	-35.2	19.5	0.00e+00	0	55	0	730857472	39	4182
2026-01-07 01:28:26.35	24.94	21.69	-34.1	-35.2	19.5	0.00e+00	0	55	0	737148928	39	4192
2026-01-07 01:28:27.36	25.00	21.83	-34.1	-35.3	19.5	0.00e+00	0	55	0	742391808	39	4205
2026-01-07 01:28:28.37	25.06	21.97	-34.1	-35.3	19.5	0.00e+00	0	55	0	748683264	39	4210
2026-01-07 01:28:29.38	25.11	22.11	-34.1	-35.3	19.4	0.00e+00	0	55	0	753926144	39	4229
2026-01-07 01:28:30.39	25.17	22.25	-34.1	-35.3	19.5	0.00e+00	0	55	0	760217600	39	4211
2026-01-07 01:28:31.39	25.23	22.39	-34.0	-35.2	19.5	0.00e+00	0	55	0	765460480	39	4173
2026-01-07 01:28:32.40	25.29	22.53	-34.0	-35.2	19.6	0.00e+00	0	55	0	770703360	39	4156
2026-01-07 01:28:33.41	25.35	22.68	-33.9	-35.1	19.7	0.00e+00	0	55	0	776994816	39	4107
2026-01-07 01:28:34.42	25.42	22.82	-33.9	-35.0	19.7	0.00e+00	0	55	0	782237696	39	4095
2026-01-07 01:28:35.43	25.48	22.96	-33.8	-34.9	19.8	0.00e+00	0	55	0	788529152	39	4043
2026-01-07 01:28:36.44	25.54	23.11	-33.7	-34.9	19.9	0.00e+00	0	55	0	793772032	39	4023
2026-01-07 01:28:37.45	25.60	23.25	-33.7	-34.9	19.9	0.00e+00	0	55	0	799014912	39	4008
2026-01-07 01:28:38.46	25.67	23.40	-33.6	-34.8	20.0	0.00e+00	0	55	0	805306368	39	3964
2026-01-07 01:28:39.47	25.73	23.55	-33.6	-34.8	20.0	0.00e+00	0	55	0	810549248	39	3967
2026-01-07 01:28:40.48	25.79	23.69	-33.7	-34.8	20.0	0.00e+00	0	55	0	816840704	39	3996
2026-01-07 01:28:41.49	25.86	23.84	-33.6	-34.8	20.0	0.00e+00	0	55	0	822083584	39	3980
2026-01-07 01:28:42.50	25.93	23.99	-33.7	-34.9	19.9	0.00e+00	0	55	0	827326464	39	4006
2026-01-07 01:28:43.51	25.99	24.14	-33.7	-34.8	19.9	0.00e+00	0	55	0	833617920	39	4001
2026-01-07 01:28:44.52	26.06	24.30	-33.8	-34.9	19.9	0.00e+00	0	55	0	838860800	39	4033
2026-01-07 01:28:45.53	26.13	24.45	-33.8	-34.9	19.9	0.00e+00	0	55	0	845152256	39	4050
2026-01-07 01:28:46.54	26.19	24.60	-33.8	-34.9	19.9	0.00e+00	0	55	0	850395136	39	4037
2026-01-07 01:28:47.55	26.26	24.76	-33.7	-34.9	19.9	0.00e+00	0	55	0	856686592	39	4007
2026-01-07 01:28:48.56	26.33	24.91	-33.7	-34.8	20.0	0.00e+00	0	55	0	861929472	39	3990
2026-01-07 01:28:49.57	26.40	25.07	-33.6	-34.7	20.1	0.00e+00	0	55	0	867172352	39	3953
2026-01-07 01:28:50.58	26.47	25.22	-33.7	-34.9	19.9	0.00e+00	0	55	0	873463808	39	4017
2026-01-07 01:28:51.59	26.55	25.38	-33.7	-34.9	20.0	0.00e+00	0	55	0	878706688	39	4017
2026-01-07 01:28:52.60	26.62	25.54	-33.7	-34.8	20.0	0.00e+00	0	55	0	884998144	39	3999
2026-01-07 01:28:53.61	26.69	25.70	-33.8	-34.9	19.9	0.00e+00	0	55	0	890241024	39	4033
2026-01-07 01:28:54.62	26.76	25.86	-33.7	-34.8	20.0	0.00e+00	0	55	0	895483904	39	3998
2026-01-07 01:28:55.63	26.84	26.02	-33.6	-34.7	20.1	0.00e+00	0	55	0	901775360	39	3938
2026-01-07 01:28:56.64	26.91	26.18	-33.6	-34.7	20.2	0.00e+00	0	55	0	907018240	39	3928
2026-01-07 01:28:57.65	26.99	26.34	-33.5	-34.6	20.2	0.00e+00	0	55	0	913309696	38	4130
2026-01-07 01:28:58.66	27.06	26.51	-33.4	-34.5	20.3	0.00e+00	0	55	0	918552576	38	4098
2026-01-07 01:28:59.67	27.14	26.67	-33.5	-34.6	20.3	0.00e+00	0	55	0	923795456	38	4108
2026-01-07 01:29:00.68	27.22	26.84	-33.4	-34.6	20.3	0.00e+00	0	55	0	930086912	38	4104
2026-01-07 01:29:01.69	27.30	27.01	-33.5	-34.6	20.3	0.00e+00	0	55	0	935329792	38	4131
2026-01-07 01:29:02.70	27.38	27.17	-33.5	-34.6	20.3	0.00e+00	0	55	0	941621248	38	4116
2026-01-07 01:29:03.71	27.46	27.34	-33.5	-34.7	20.2	0.00e+00	0	55	0	946864128	38	4148
2026-01-07 01:29:04.72	27.54	27.51	-33.5	-34.6	20.3	0.00e+00	0	55	0	953155584	38	4119
2026-01-07 01:29:05.73	27.62	27.68	-33.4	-34.5	20.4	0.00e+00	0	55	0	958398464	38	4067
2026-01-07 01:29:06.74	27.70	27.86	-33.4	-34.5	20.4	0.00e+00	0	55	0	964689920	38	4063
2026-01-07 01:29:07.75	27.79	28.03	-33.2	-34.3	20.6	0.00e+00	0	55	0	969932800	38	4001
2026-01-07 01:29:08.76	27.87	28.20	-33.2	-34.2	20.6	0.00e+00	0	55	0	975175680	38	3957
2026-01-07 01:29:09.77	27.96	28.38	-33.2	-34.3	20.6	0.00e+00	0	55	0	981467136	38	3972
2026-01-07 01:29:10.78	28.04	28.55	-33.1	-34.2	20.7	0.00e+00	0	55	0	986710016	38	3956
2026-01-07 01:29:11.79	28.13	28.73	-33.2	-34.3	20.6	0.00e+00	0	55	0	993001472	38	3992
2026-01-07 01:29:12.80	28.22	28.91	-33.2	-34.4	20.6	0.00e+00	0	55	0	998244352	38	4010
2026-01-07 01:29:13.81	28.31	29.09	-33.3	-34.4	20.5	0.00e+00	0	55	0	1003487232	38	4015
2026-01-07 01:29:14.82	28.40	29.27	-33.3	-34.4	20.5	0.00e+00	0	55	0	1009778688	38	4046
2026-01-07 01:29:15.83	28.49	29.45	-33.4	-34.5	20.4	0.00e+00	0	55	0	1015021568	38	4056
2026-01-07 01:29:16.84	28.58	29.63	-33.4	-34.6	20.4	0.00e+00	0	55	0	1021313024	38	4109
2026-01-07 01:29:17.85	28.67	29.82	-33.5	-34.6	20.3	0.00e+00	0	55	0	1026555904	38	4139
2026-01-07 01:29:18.86	28.77	30.00	-33.5	-34.7	20.3	0.00e+00	0	55	0	1031798784	38	4157
2026-01-07 01:29:19.87	28.86	30.19	-33.6	-34.7	20.2	0.00e+00	0	56	0	1038090240	38	4168
2026-01-07 01:29:20.88	28.96	30.37	-33.4	-34.6	20.4	0.00e+00	0	55	0	1043333120	38	4105
2026-01-07 01:29:21.89	29.06	30.56	-33.3	-34.4	20.6	0.00e+00	0	55	0	1049624576	38	4022
2026-01-07 01:29:22.90	29.15	30.75	-33.2	-34.3	20.6	0.00e+00	0	55	0	1054867456	38	3978
2026-01-07 01:29:23.91	29.25	30.94	-33.1	-34.2	20.8	0.00e+00	0	55	0	1061158912	38	3915
2026-01-07 01:29:24.92	29.35	31.13	-33.0	-34.1	20.9	0.00e+00	0	56	0	1066401792	38	3889
2026-01-07 01:29:25.93	29.46	31.33	-33.0	-34.1	20.9	0.00e+00	0	55	0	1072693248	38	3883
2026-01-07 01:29:26.94	29.56	31.52	-33.1	-34.1	20.8	0.00e+00	0	55	0	1077936128	38	3912
2026-01-07 01:29:27.95	29.66	31.72	-33.2	-34.3	20.7	0.00e+00	0	55	0	1083179008	38	3986
2026-01-07 01:29:28.97	29.77	31.91	-33.2	-34.3	20.6	0.00e+00	0	56	0	1089470464	38	4000
2026-01-07 01:29:29.98	29.87	32.11	-33.3	-34.4	20.6	0.00e+00	0	55	0	1094713344	38	4014
2026-01-07 01:29:30.99	29.98	32.31	-33.2	-34.3	20.7	0.00e+00	0	56	0	1101004800	38	3992
2026-01-07 01:29:32.00	30.09	32.51	-33.1	-34.2	20.7	0.00e+00	0	55	0	1106247680	38	3944
2026-01-07 01:29:33.01	30.20	32.71	-33.1	-34.2	20.8	0.00e+00	0	55	0	1111490560	38	3922
2026-01-07 01:29:34.02	30.31	32.92	-33.0	-34.1	20.8	0.00e+00	0	55	0	1117782016	38	3900
2026-01-07 01:29:35.03	30.43	33.12	-33.0	-34.1	20.9	0.00e+00	0	55	0	1123024896	38	3880
2026-01-07 01:29:36.04	30.54	33.33	-32.9	-34.0	21.0	0.00e+00	0	56	0	1129316352	37	4062
2026-01-07 01:29:37.05	30.66	33.53	-32.8	-33.9	21.0	0.00e+00	0	56	0	1134559232	37	4031
2026-01-07 01:29:38.06	30.77	33.74	-32.8	-33.8	21.1	0.00e+00	0	56	0	1139802112	37	3990
2026-01-07 01:29:39.07	30.89	33.95	-32.8	-33.8	21.1	0.00e+00	0	56	0	1146093568	37	3984
2026-01-07 01:29:40.08	31.01	34.16	-32.8	-33.8	21.1	0.00e+00	0	56	0	1151336448	37	3997
2026-01-07 01:29:41.09	31.13	34.37	-32.7	-33.8	21.2	0.00e+00	0	56	0	1157627904	37	3973
2026-01-07 01:29:42.10	31.26	34.58	-32.8	-33.8	21.1	0.00e+00	0	56	0	1162870784	37	3994
2026-01-07 01:29:43.11	31.38	34.80	-32.8	-33.9	21.1	0.00e+00	0	56	0	1169162240	37	4019
2026-01-07 01:29:44.12	31.51	35.01	-32.9	-34.0	21.0	0.00e+00	0	56	0	1174405120	37	4062
2026-01-07 01:29:45.13	31.64	35.23	-33.0	-34.1	20.9	0.00e+00	0	56	0	1180696576	37	4131
2026-01-07 01:29:46.14	31.77	35.45	-33.0	-34.1	20.8	0.00e+00	0	55	0	1185939456	37	4137
2026-01-07 01:29:47.15	31.90	35.67	-33.1	-34.2	20.8	0.00e+00	0	56	0	1191182336	37	4148
2026-01-07 01:29:48.16	32.03	35.89	-32.9	-34.0	21.0	0.00e+00	0	56	0	1197473792	37	4077
2026-01-07 01:29:49.17	32.17	36.11	-32.8	-33.8	21.2	0.00e+00	0	56	0	1202716672	37	3995
2026-01-07 01:29:50.18	32.30	36.34	-32.6	-33.6	21.3	0.00e+00	0	55	0	1209008128	37	3913
2026-01-07 01:29:51.19	32.44	36.56	-32.5	-33.6	21.4	0.00e+00	0	55	0	1214251008	37	3879
2026-01-07 01:29:52.20	32.58	36.79	-32.5	-33.5	21.5	0.00e+00	0	56	0	1219493888	37	3857
2026-01-07 01:29:53.21	32.72	37.02	-32.5	-33.6	21.4	0.00e+00	0	55	0	1225785344	37	3889
2026-01-07 01:29:54.22	32.87	37.25	-32.5	-33.6	21.4	0.00e+00	0	55	0	1231028224	37	3872
2026-01-07 01:29:55.23	33.01	37.48	-32.5	-33.6	21.4	0.00e+00	0	55	0	1237319680	37	3873
2026-01-07 01:29:56.24	33.16	37.71	-32.5	-33.6	21.4	0.00e+00	0	56	0	1242562560	37	3882
2026-01-07 01:29:57.25	33.31	37.94	-32.5	-33.6	21.4	0.00e+00	0	56	0	1247805440	37	3880
2026-01-07 01:29:58.26	33.46	38.18	-32.6	-33.6	21.4	0.00e+00	0	56	0	1254096896	37	3895
2026-01-07 01:29:59.27	33.62	38.41	-32.6	-33.7	21.3	0.00e+00	0	56	0	1259339776	37	3928
2026-01-07 01:30:00.28	33.78	38.65	-32.6	-33.8	20.7	0.00e+00	0	56	0	1265631232	37	3968
2026-01-07 01:30:01.29	33.94	38.89	-32.8	-34.0	20.5	0.00e+00	0	56	0	1270874112	37	4053
2026-01-07 01:30:02.30	34.10	39.13	-33.0	-34.2	20.2	0.00e+00	0	56	0	1277165568	37	4193
2026-01-07 01:30:03.31	34.26	39.38	-33.1	-34.4	20.1	0.00e+00	0	56	0	1282408448	37	4256
2026-01-07 01:30:04.32	34.43	39.62	-33.0	-34.2	20.3	0.00e+00	0	56	0	1287651328	37	4180
2026-01-07 01:30:05.33	34.60	39.87	-32.8	-33.9	20.6	0.00e+00	0	56	0	1293942784	37	4051
2026-01-07 01:30:06.35	34.77	40.11	-32.8	-34.0	20.6	0.00e+00	0	56	0	1299185664	37	4053
2026-01-07 01:30:07.36	34.94	40.36	-32.9	-34.1	20.5	0.00e+00	0	56	0	1305477120	37	4107
2026-01-07 01:30:08.37	35.12	40.61	-32.9	-34.1	20.5	0.00e+00	0	56	0	1310720000	37	4119
2026-01-07 01:30:09.38	35.30	40.86	-32.9	-34.1	20.5	0.00e+00	0	56	0	1317011456	37	4113
2026-01-07 01:30:10.39	35.48	41.12	-33.0	-34.2	20.4	0.00e+00	0	56	0	1322254336	37	4172
2026-01-07 01:30:11.40	35.66	41.37	-33.0	-34.2	20.4	0.00e+00	0	56	0	1327497216	37	4181
2026-01-07 01:30:12.40	35.85	41.62	-33.0	-34.2	20.4	0.00e+00	0	56	0	1333788672	37	4189
2026-01-07 01:30:13.41	36.04	41.88	-33.1	-34.3	20.3	0.00e+00	0	56	0	1339031552	37	4234
2026-01-07 01:30:14.42	36.23	42.14	-33.1	-34.3	20.3	0.00e+00	0	56	0	1344274432	37	4234
2026-01-07 01:30:15.43	36.43	42.40	-33.1	-34.3	20.3	0.00e+00	0	56	0	1350565888	37	4207
2026-01-07 01:30:16.45	36.63	42.66	-33.0	-34.2	20.3	0.00e+00	0	56	0	1355808768	37	4190
2026-01-07 01:30:17.46	36.84	42.93	-33.0	-34.2	20.4	0.00e+00	0	56	0	1362100224	37	4181
2026-01-07 01:30:18.47	37.04	43.19	-32.9	-34.1	20.5	0.00e+00	0	56	0	1367343104	37	4132
2026-01-07 01:30:19.47	37.25	43.45	-32.9	-34.1	20.5	0.00e+00	0	56	0	1373634560	37	4133
2026-01-07 01:30:20.49	37.46	43.72	-33.0	-34.2	20.4	0.00e+00	0	56	0	1378877440	37	4150
2026-01-07 01:30:21.50	37.68	43.99	-33.1	-34.3	20.3	0.00e+00	0	56	0	1385168896	37	4214
2026-01-07 01:30:22.51	37.90	44.26	-33.3	-34.6	20.0	0.00e+00	0	56	0	1390411776	37	4348
2026-01-07 01:30:23.52	38.12	44.54	-33.6	-34.9	19.7	0.00e+00	0	56	0	1395654656	37	4536
2026-01-07 01:30:24.53	38.35	44.81	-33.8	-35.2	19.5	0.00e+00	0	56	0	1401946112	38	4393
2026-01-07 01:30:25.54	38.58	45.08	-33.8	-35.0	19.6	0.00e+00	0	56	0	1407188992	38	4340
2026-01-07 01:30:26.55	38.82	45.36	-33.5	-34.8	19.9	0.00e+00	0	56	0	1413480448	38	4220
2026-01-07 01:30:27.56	39.06	45.64	-33.3	-34.5	20.1	0.00e+00	0	56	0	1418723328	38	4090
2026-01-07 01:30:28.57	39.30	45.92	-33.2	-34.4	20.3	0.00e+00	0	56	0	1423966208	38	4011
2026-01-07 01:30:29.58	39.55	46.20	-33.3	-34.5	20.2	0.00e+00	0	56	0	1430257664	38	4062
2026-01-07 01:30:30.59	39.80	46.48	-33.4	-34.6	20.2	0.00e+00	0	56	0	1435500544	38	4111
2026-01-07 01:30:31.60	40.06	46.76	-33.2	-34.4	20.3	0.00e+00	0	56	0	1441792000	38	4050
2026-01-07 01:30:32.61	40.32	47.04	-33.3	-34.5	20.3	0.00e+00	0	56	0	1447034880	38	4056
2026-01-07 01:30:33.62	40.59	47.33	-33.3	-34.5	20.3	0.00e+00	0	56	0	1452277760	38	4070
2026-01-07 01:30:34.63	40.86	47.62	-33.3	-34.5	20.3	0.00e+00	0	56	0	1458569216	38	4082
2026-01-07 01:30:35.64	41.14	47.90	-33.3	-34.5	20.3	0.00e+00	0	56	0	1463812096	38	4077
2026-01-07 01:30:36.65	41.42	48.19	-33.3	-34.5	20.3	0.00e+00	0	56	0	1470103552	38	4080
2026-01-07 01:30:37.66	41.70	48.48	-33.3	-34.5	20.3	0.00e+00	0	56	0	1475346432	38	4073
2026-01-07 01:30:38.66	41.99	48.77	-33.5	-34.7	20.1	0.00e+00	0	56	0	1481637888	38	4182
2026-01-07 01:30:39.67	42.29	49.07	-33.7	-35.0	19.8	0.00e+00	0	56	0	1486880768	38	4298
2026-01-07 01:30:40.68	42.59	49.36	-33.6	-34.9	19.9	0.00e+00	0	56	0	1493172224	38	4249
2026-01-07 01:30:41.69	42.90	49.65	-33.4	-34.6	20.1	0.00e+00	0	56	0	1498415104	38	4140
2026-01-07 01:30:42.70	43.22	49.95	-33.4	-34.5	20.2	0.00e+00	0	56	0	1503657984	38	4095
2026-01-07 01:30:43.71	43.54	50.25	-33.5	-34.7	20.1	0.00e+00	0	56	0	1509949440	38	4154
2026-01-07 01:30:44.72	43.87	50.55	-33.8	-35.0	19.7	0.00e+00	0	56	0	1515192320	38	4340
2026-01-07 01:30:45.73	44.20	50.84	-33.9	-35.2	19.6	0.00e+00	0	56	0	1521483776	38	4427
2026-01-07 01:30:46.74	44.54	51.14	-33.8	-35.0	19.8	0.00e+00	0	56	0	1526726656	38	4329
2026-01-07 01:30:47.75	44.89	51.45	-33.7	-35.0	19.8	0.00e+00	0	56	0	1531969536	38	4295
2026-01-07 01:30:48.76	45.24	51.75	-33.8	-35.0	19.8	0.00e+00	0	56	0	1538260992	38	4331
2026-01-07 01:30:49.77	45.61	52.05	-33.9	-35.2	19.7	0.00e+00	0	56	0	1543503872	38	4406
2026-01-07 01:30:50.78	45.97	52.35	-33.8	-35.1	19.9	0.00e+00	0	56	0	1549795328	38	4346
2026-01-07 01:30:51.79	46.35	52.66	-34.0	-35.2	19.7	0.00e+00	0	56	0	1555038208	38	4424
2026-01-07 01:30:52.80	46.74	52.96	-34.2	-35.4	19.5	0.00e+00	0	56	0	1560281088	38	4534
2026-01-07 01:30:53.81	47.13	53.27	-34.1	-35.3	19.6	0.00e+00	0	56	0	1566572544	38	4490
2026-01-07 01:30:54.82	47.53	53.57	-33.9	-35.2	19.7	0.00e+00	0	56	0	1571815424	38	4403
2026-01-07 01:30:55.84	47.94	53.88	-34.1	-35.4	19.5	0.00e+00	0	56	0	1578106880	38	4539
2026-01-07 01:30:56.85	48.36	54.19	-34.3	-35.6	19.3	0.00e+00	0	56	0	1583349760	39	4356
2026-01-07 01:30:57.86	48.79	54.49	-34.0	-35.3	19.6	0.00e+00	0	56	0	1589641216	39	4210
2026-01-07 01:30:58.86	49.22	54.80	-33.8	-35.0	19.8	0.00e+00	0	56	0	1594884096	39	4086
2026-01-07 01:30:59.87	49.66	55.11	-33.7	-35.0	19.8	0.00e+00	0	56	0	1600126976	39	4052
2026-01-07 01:31:00.88	50.12	55.41	-34.1	-35.3	19.5	0.00e+00	0	56	0	1606418432	39	4242
2026-01-07 01:31:01.89	50.58	55.72	-34.3	-35.6	19.2	0.00e+00	0	56	0	1611661312	39	4381
2026-01-07 01:31:02.90	51.06	56.03	-34.0	-35.3	19.5	0.00e+00	0	56	0	1617952768	39	4218
2026-01-07 01:31:03.92	51.55	56.34	-33.8	-35.1	19.8	0.00e+00	0	56	0	1623195648	39	4104
2026-01-07 01:31:04.93	52.04	56.64	-33.7	-34.9	19.9	0.00e+00	0	56	0	1629487104	39	4022
2026-01-07 01:31:05.94	52.55	56.95	-33.7	-34.9	19.8	0.00e+00	0	56	0	1634729984	39	4049
2026-01-07 01:31:06.95	53.07	57.26	-33.7	-35.0	19.8	0.00e+00	0	56	0	1639972864	39	4066
2026-01-07 01:31:07.96	53.60	57.56	-34.0	-35.2	19.6	0.00e+00	0	56	0	1646264320	39	4191
2026-01-07 01:31:08.97	54.14	57.87	-33.9	-35.2	19.6	0.00e+00	0	56	0	1651507200	39	4167
2026-01-07 01:31:09.98	54.70	58.17	-33.8	-35.1	19.8	0.00e+00	0	56	0	1657798656	39	4106
2026-01-07 01:31:10.99	55.27	58.47	-33.6	-34.8	20.0	0.00e+00	0	56	0	1663041536	39	4000
2026-01-07 01:31:12.00	55.85	58.77	-33.6	-34.8	20.0	0.00e+00	0	56	0	1668284416	39	3991
2026-01-07 01:31:13.01	56.44	59.07	-33.5	-34.7	20.1	0.00e+00	0	56	0	1674575872	39	3953
2026-01-07 01:31:14.02	57.05	59.37	-33.4	-34.6	20.2	0.00e+00	0	56	0	1679818752	38	4138
2026-01-07 01:31:15.03	57.67	59.67	-33.2	-34.3	20.5	0.00e+00	0	56	0	1686110208	38	3990
2026-01-07 01:31:16.04	58.31	59.97	-33.2	-34.3	20.5	0.00e+00	0	56	0	1691353088	38	3998
2026-01-07 01:31:17.05	58.96	60.26	-33.0	-34.2	20.6	0.00e+00	0	56	0	1697644544	38	3938
2026-01-07 01:31:18.06	59.62	60.55	-32.8	-33.9	20.9	0.00e+00	0	56	0	1702887424	37	4017
2026-01-07 01:31:19.07	60.30	60.84	-32.9	-34.1	20.7	0.00e+00	0	56	0	1708130304	37	4110
2026-01-07 01:31:20.08	61.00	61.13	-33.1	-34.3	20.5	0.00e+00	0	56	0	1714421760	37	4195
2026-01-07 01:31:21.09	61.71	61.42	-32.8	-34.0	20.7	0.00e+00	0	56	0	1719664640	37	4075
2026-01-07 01:31:22.10	62.44	61.70	-32.7	-33.8	20.8	0.00e+00	0	56	0	1725956096	37	4002
2026-01-07 01:31:23.11	63.19	61.98	-32.6	-33.7	20.9	0.00e+00	0	56	0	1731198976	37	3940
2026-01-07 01:31:24.12	63.95	62.25	-32.6	-33.8	20.9	0.00e+00	0	56	0	1736441856	37	3971
2026-01-07 01:31:25.13	64.73	62.53	-32.9	-34.0	20.6	0.00e+00	0	56	0	1742733312	37	4097
2026-01-07 01:31:26.14	65.53	62.80	-32.9	-34.1	20.6	0.00e+00	0	56	0	1747976192	37	4117
2026-01-07 01:31:27.15	66.34	63.06	-32.7	-33.9	20.8	0.00e+00	0	56	0	1754267648	37	4008
2026-01-07 01:31:28.16	67.18	63.33	-32.5	-33.6	21.0	0.00e+00	0	56	0	1759510528	37	3913
2026-01-07 01:31:29.17	68.03	63.58	-32.7	-33.8	20.8	0.00e+00	0	56	0	1764753408	37	3998
2026-01-07 01:31:30.18	68.90	63.84	-32.9	-34.1	20.6	0.00e+00	0	56	0	1771044864	37	4134
2026-01-07 01:31:31.20	69.80	64.09	-32.8	-34.0	20.7	0.00e+00	0	56	0	1776287744	37	4052
2026-01-07 01:31:32.21	70.71	64.34	-32.6	-33.8	20.8	0.00e+00	0	56	0	1782579200	37	3984
2026-01-07 01:31:33.22	71.64	64.57	-32.5	-33.6	21.0	0.00e+00	0	56	0	1787822080	37	3913
2026-01-07 01:31:34.23	72.59	64.81	-32.5	-33.7	21.0	0.00e+00	0	56	0	1794113536	36	4155
2026-01-07 01:31:35.24	73.56	65.04	-32.6	-33.8	20.8	0.00e+00	0	56	0	1799356416	36	4234
2026-01-07 01:31:36.25	74.54	65.26	-32.5	-33.6	21.1	0.00e+00	0	56	0	1805647872	36	4123
2026-01-07 01:31:37.26	75.55	65.48	-32.6	-33.7	20.9	0.00e+00	0	56	0	1810890752	36	4179
2026-01-07 01:31:38.27	76.58	65.69	-32.8	-34.0	20.7	0.00e+00	0	56	0	1816133632	36	4307
2026-01-07 01:31:39.28	77.62	65.89	-32.6	-33.8	20.9	0.00e+00	0	56	0	1822425088	36	4198
2026-01-07 01:31:40.29	78.69	66.09	-32.5	-33.6	21.0	0.00e+00	0	56	0	1827667968	36	4130
2026-01-07 01:31:41.31	79.79	66.28	-32.8	-34.1	20.6	0.00e+00	0	56	0	1833959424	36	4345
2026-01-07 01:31:42.31	80.88	66.46	-32.7	-33.9	20.7	0.00e+00	0	56	0	1839202304	36	4253
2026-01-07 01:31:43.32	82.00	66.64	-32.1	-33.2	21.4	0.00e+00	0	56	0	1844445184	36	3928
2026-01-07 01:31:44.33	83.14	66.80	-32.3	-33.5	21.1	0.00e+00	0	56	0	1850736640	36	4058
2026-01-07 01:31:45.34	84.30	66.96	-32.3	-33.4	21.1	0.00e+00	0	56	0	1855979520	36	4051
2026-01-07 01:31:46.35	85.48	67.11	-32.0	-33.2	21.4	0.00e+00	0	56	0	1862270976	36	3917
2026-01-07 01:31:47.36	86.67	67.26	-32.2	-33.3	21.3	0.00e+00	0	56	0	1867513856	36	3974
2026-01-07 01:31:48.38	87.89	67.39	-32.3	-33.4	21.2	0.00e+00	0	56	0	1873805312	36	4042
2026-01-07 01:31:49.38	89.10	67.51	-32.1	-33.3	21.4	0.00e+00	0	56	0	1879048192	36	3965
2026-01-07 01:31:50.39	90.33	67.63	-32.1	-33.2	21.5	0.00e+00	0	56	0	1884291072	36	3952
2026-01-07 01:31:51.40	91.58	67.73	-32.2	-33.3	21.3	0.00e+00	0	56	0	1890582528	36	3990
2026-01-07 01:31:52.41	92.85	67.83	-32.5	-33.6	21.1	0.00e+00	0	56	0	1895825408	36	4127
2026-01-07 01:31:53.42	94.12	67.91	-32.4	-33.6	21.0	0.00e+00	0	56	0	1902116864	36	4119
2026-01-07 01:31:54.43	95.41	67.99	-32.1	-33.2	21.3	0.00e+00	0	56	0	1907359744	36	3932
2026-01-07 01:31:55.44	96.70	68.06	-32.1	-33.2	21.4	0.00e+00	0	56	0	1913651200	36	3928
2026-01-07 01:31:56.45	98.00	68.11	-32.0	-33.1	21.4	0.00e+00	0	56	0	1918894080	36	3896
2026-01-07 01:31:57.46	99.31	68.16	-31.2	-32.4	21.4	0.00e+00	0	56	0	1924136960	34	4006
2026-01-07 01:31:58.47	100.62	68.19	-31.3	-32.4	21.3	0.00e+00	0	56	0	1930428416	34	4051
2026-01-07 01:31:59.47	101.92	68.22	-31.4	-32.5	21.2	0.00e+00	0	56	0	1935671296	34	4084
2026-01-07 01:32:00.48	103.24	68.23	-31.7	-32.9	20.9	0.00e+00	0	56	0	1941962752	34	4284
2026-01-07 01:32:01.49	104.56	68.23	-31.9	-33.1	20.7	0.00e+00	0	56	0	1947205632	34	4360
2026-01-07 01:32:02.50	105.88	68.23	-31.6	-32.7	21.0	0.00e+00	0	56	0	1952448512	34	4188
2026-01-07 01:32:03.51	107.20	68.21	-31.6	-32.7	21.1	0.00e+00	0	56	0	1958739968	34	4191
2026-01-07 01:32:04.52	108.52	68.18	-31.6	-32.7	21.1	0.00e+00	0	56	0	1963982848	34	4188
2026-01-07 01:32:05.53	109.83	68.14	-31.6	-32.7	21.0	0.00e+00	0	56	0	1970274304	34	4186
2026-01-07 01:32:06.55	111.15	68.09	-31.8	-33.0	20.8	0.00e+00	0	56	0	1975517184	34	4314
2026-01-07 01:32:07.56	112.44	68.03	-31.8	-33.0	20.8	0.00e+00	0	56	0	1980760064	34	4299
2026-01-07 01:32:08.57	113.73	67.96	-31.5	-32.7	21.1	0.00e+00	0	56	0	1987051520	34	4147
2026-01-07 01:32:09.58	115.01	67.88	-31.6	-32.8	21.0	0.00e+00	0	56	0	1992294400	34	4209
2026-01-07 01:32:10.59	116.28	67.79	-31.7	-32.9	20.9	0.00e+00	0	56	0	1998585856	34	4252
2026-01-07 01:32:11.60	117.54	67.69	-31.6	-32.7	21.0	0.00e+00	0	56	0	2003828736	34	4184
2026-01-07 01:32:12.61	118.79	67.58	-31.6	-32.7	21.0	0.00e+00	0	56	0	2010120192	34	4175
2026-01-07 01:32:13.62	120.02	67.46	-31.8	-33.0	20.8	0.00e+00	0	56	0	2015363072	34	4302
2026-01-07 01:32:14.63	121.24	67.33	-31.8	-33.0	20.7	0.00e+00	0	56	0	2021654528	34	4340
2026-01-07 01:32:15.64	122.44	67.20	-31.6	-32.7	21.0	0.00e+00	0	56	0	2026897408	34	4193
2026-01-07 01:32:16.65	123.63	67.05	-31.6	-32.7	21.0	0.00e+00	0	56	0	2032140288	34	4191
2026-01-07 01:32:17.66	124.80	66.90	-31.7	-32.9	20.9	0.00e+00	0	56	0	2038431744	34	4265
2026-01-07 01:32:18.67	125.95	66.73	-31.8	-32.9	20.9	0.00e+00	0	56	0	2043674624	34	4289
2026-01-07 01:32:19.68	127.08	66.56	-31.9	-33.1	20.7	0.00e+00	0	56	0	2049966080	34	4351
2026-01-07 01:32:20.69	128.20	66.39	-31.9	-33.1	20.7	0.00e+00	0	56	0	2055208960	34	4384
2026-01-07 01:32:21.70	129.30	66.20	-31.6	-32.8	21.0	0.00e+00	0	56	0	2060451840	34	4199
2026-01-07 01:32:22.71	130.37	66.01	-31.6	-32.8	21.0	0.00e+00	0	56	0	2066743296	34	4195
2026-01-07 01:32:23.72	131.43	65.81	-31.8	-33.0	20.7	0.00e+00	0	56	0	2071986176	34	4329
2026-01-07 01:32:24.73	132.47	65.60	-31.8	-33.0	20.8	0.00e+00	0	56	0	2078277632	34	4331
2026-01-07 01:32:25.74	133.49	65.39	-31.8	-33.0	20.7	0.00e+00	0	56	0	2083520512	34	4335
2026-01-07 01:32:26.75	134.49	65.17	-32.0	-33.2	20.5	0.00e+00	0	56	0	2088763392	34	4429
2026-01-07 01:32:27.76	135.47	64.94	-32.0	-33.2	20.6	0.00e+00	0	56	0	2095054848	34	4408
2026-01-07 01:32:28.77	136.44	64.71	-31.9	-33.1	20.7	0.00e+00	0	56	0	2100297728	34	4347
2026-01-07 01:32:29.78	137.38	64.47	-31.9	-33.1	20.7	0.00e+00	0	56	0	2106589184	34	4345
2026-01-07 01:32:30.79	138.30	64.23	-31.7	-32.9	20.9	0.00e+00	0	56	0	2111832064	34	4273
2026-01-07 01:32:31.80	139.20	63.98	-31.7	-32.9	20.9	0.00e+00	0	56	0	2118123520	34	4267
2026-01-07 01:32:32.81	140.09	63.73	-31.8	-33.0	20.8	0.00e+00	0	56	0	2123366400	34	4309
2026-01-07 01:32:33.82	140.95	63.47	-31.9	-33.0	20.8	0.00e+00	0	56	0	2128609280	34	4328
2026-01-07 01:32:34.83	141.80	63.21	-32.1	-33.3	20.6	0.00e+00	0	56	0	2134900736	34	4477
2026-01-07 01:32:35.84	142.62	62.95	-32.1	-33.3	20.5	0.00e+00	0	56	0	2140143616	34	4478
2026-01-07 01:32:36.85	143.43	62.68	-31.9	-33.1	20.7	0.00e+00	0	56	0	2146435072	34	4372
2026-01-07 01:32:37.85	144.22	62.41	-32.0	-33.2	20.7	0.00e+00	0	56	0	2151677952	34	4425
2026-01-07 01:32:38.86	144.99	62.13	-32.3	-33.6	20.4	0.00e+00	0	56	0	2156920832	35	4347
2026-01-07 01:32:39.88	145.76	61.85	-32.3	-33.6	20.4	0.00e+00	0	56	0	2163212288	35	4351
2026-01-07 01:32:40.89	146.50	61.57	-32.4	-33.6	20.4	0.00e+00	0	56	0	2168455168	35	4360
2026-01-07 01:32:41.90	147.22	61.29	-32.4	-33.6	20.3	0.00e+00	0	56	0	2174746624	35	4381
2026-01-07 01:32:42.90	147.92	61.00	-32.3	-33.5	20.4	0.00e+00	0	56	0	2179989504	35	4312
2026-01-07 01:32:43.91	148.61	60.71	-32.2	-33.3	20.6	0.00e+00	0	56	0	2185232384	35	4240
2026-01-07 01:32:44.92	149.29	60.42	-32.3	-33.6	20.4	0.00e+00	0	56	0	2191523840	35	4344
2026-01-07 01:32:45.93	149.95	60.13	-32.5	-33.7	20.2	0.00e+00	0	56	0	2196766720	35	4441
2026-01-07 01:32:46.94	150.59	59.83	-32.4	-33.6	20.3	0.00e+00	0	56	0	2203058176	35	4376
2026-01-07 01:32:47.95	151.22	59.53	-32.4	-33.7	20.3	0.00e+00	0	56	0	2208301056	35	4392
2026-01-07 01:32:48.96	151.84	59.24	-32.7	-33.9	20.1	0.00e+00	0	56	0	2214592512	35	4527
2026-01-07 01:32:49.97	152.44	58.93	-33.4	-34.6	20.1	0.00e+00	0	56	0	2219835392	37	4389
2026-01-07 01:32:50.98	153.03	58.63	-33.4	-34.6	20.1	0.00e+00	0	56	0	2226126848	37	4375
2026-01-07 01:32:51.99	153.61	58.33	-33.4	-34.6	20.2	0.00e+00	0	56	0	2231369728	37	4354
2026-01-07 01:32:53.00	154.17	58.03	-33.5	-34.7	20.1	0.00e+00	0	56	0	2236612608	37	4419
2026-01-07 01:32:54.01	154.72	57.72	-33.8	-35.0	19.8	0.00e+00	0	56	0	2242904064	38	4337
2026-01-07 01:32:55.02	155.26	57.41	-34.0	-35.3	19.5	0.00e+00	0	56	0	2248146944	38	4480
2026-01-07 01:32:56.02	155.78	57.11	-34.0	-35.3	19.5	0.00e+00	0	56	0	2253389824	38	4446
2026-01-07 01:32:57.03	156.30	56.80	-33.7	-35.0	19.8	0.00e+00	0	56	0	2259681280	38	4305
2026-01-07 01:32:58.04	156.80	56.50	-33.7	-35.0	19.8	0.00e+00	0	56	0	2264924160	38	4304
2026-01-07 01:32:59.05	157.30	56.19	-33.8	-35.0	19.8	0.00e+00	0	56	0	2271215616	38	4314
2026-01-07 01:33:00.06	157.78	55.88	-33.8	-35.1	19.7	0.00e+00	0	56	0	2276458496	38	4356
2026-01-07 01:33:01.07	158.25	55.57	-33.9	-35.2	19.6	0.00e+00	0	56	0	2281701376	38	4392
2026-01-07 01:33:02.08	158.71	55.26	-33.9	-35.2	19.6	0.00e+00	0	56	0	2287992832	38	4423
2026-01-07 01:33:03.09	159.16	54.96	-34.1	-35.4	19.5	0.00e+00	0	56	0	2293235712	38	4500
2026-01-07 01:33:04.10	159.61	54.65	-34.0	-35.3	19.5	0.00e+00	0	56	0	2299527168	38	4488
2026-01-07 01:33:05.11	160.04	54.34	-34.1	-35.3	19.5	0.00e+00	0	56	0	2304770048	38	4479
2026-01-07 01:33:06.12	160.46	54.03	-34.0	-35.3	19.6	0.00e+00	0	56	0	2311061504	38	4459
2026-01-07 01:33:07.13	160.88	53.72	-34.1	-35.4	19.4	0.00e+00	0	56	0	2316304384	38	4528
2026-01-07 01:33:08.14	161.28	53.42	-34.2	-35.5	19.3	0.00e+00	0	56	0	2322595840	38	4595
2026-01-07 01:33:09.15	161.68	53.11	-34.2	-35.5	19.2	0.00e+00	0	56	0	2327838720	39	4340
2026-01-07 01:33:10.16	162.07	52.80	-34.1	-35.5	19.3	0.00e+00	0	56	0	2333081600	39	4301
2026-01-07 01:33:11.17	162.45	52.50	-34.0	-35.3	19.5	0.00e+00	0	56	0	2339373056	39	4223
2026-01-07 01:33:12.18	162.83	52.19	-33.7	-35.0	19.7	0.00e+00	0	56	0	2344615936	39	4063
2026-01-07 01:33:13.19	163.19	51.89	-33.5	-34.8	20.0	0.00e+00	0	56	0	2350907392	39	3961
2026-01-07 01:33:14.20	163.55	51.59	-33.4	-34.6	20.1	0.00e+00	0	56	0	2356150272	38	4135
2026-01-07 01:33:15.21	163.90	51.28	-33.4	-34.5	20.2	0.00e+00	0	56	0	2361393152	38	4094
2026-01-07 01:33:16.22	164.25	50.98	-33.4	-34.6	20.1	0.00e+00	0	56	0	2367684608	38	4109
2026-01-07 01:33:17.23	164.59	50.68	-33.5	-34.7	20.0	0.00e+00	0	56	0	2372927488	38	4190
2026-01-07 01:33:18.24	164.92	50.38	-33.5	-34.7	20.0	0.00e+00	0	56	0	2379218944	38	4186
2026-01-07 01:33:19.25	165.24	50.08	-33.5	-34.8	20.0	0.00e+00	0	56	0	2384461824	38	4203
2026-01-07 01:33:20.26	165.56	49.78	-33.4	-34.7	20.1	0.00e+00	0	56	0	2389704704	38	4161
2026-01-07 01:33:21.26	165.87	49.49	-33.4	-34.7	20.1	0.00e+00	0	56	0	2395996160	38	4155
2026-01-07 01:33:22.27	166.18	49.19	-33.4	-34.6	20.2	0.00e+00	0	56	0	2401239040	38	4130
2026-01-07 01:33:23.29	166.48	48.90	-33.2	-34.4	20.4	0.00e+00	0	56	0	2407530496	38	4022
2026-01-07 01:33:24.30	166.78	48.60	-33.1	-34.3	20.4	0.00e+00	0	56	0	2412773376	38	3993
2026-01-07 01:33:25.31	167.07	48.31	-33.2	-34.4	20.4	0.00e+00	0	56	0	2419064832	38	4029
2026-01-07 01:33:26.32	167.35	48.02	-33.5	-34.7	20.0	0.00e+00	0	56	0	2424307712	38	4181
2026-01-07 01:33:27.33	167.63	47.73	-33.6	-34.9	19.8	0.00e+00	0	56	0	2430599168	38	4276
2026-01-07 01:33:28.34	167.91	47.44	-33.7	-35.0	19.7	0.00e+00	0	56	0	2435842048	38	4300
2026-01-07 01:33:29.34	168.18	47.15	-33.5	-34.7	20.0	0.00e+00	0	56	0	2441084928	38	4182
2026-01-07 01:33:30.36	168.44	46.87	-33.3	-34.6	20.1	0.00e+00	0	56	0	2447376384	38	4102
2026-01-07 01:33:31.37	168.70	46.58	-33.2	-34.4	20.2	0.00e+00	0	56	0	2452619264	38	4024
2026-01-07 01:33:32.38	168.96	46.30	-33.1	-34.3	20.3	0.00e+00	0	56	0	2458910720	38	3980
2026-01-07 01:33:33.39	169.21	46.02	-33.1	-34.3	20.3	0.00e+00	0	56	0	2464153600	38	3988
2026-01-07 01:33:34.40	169.46	45.73	-33.2	-34.4	20.2	0.00e+00	0	56	0	2469396480	38	4029
2026-01-07 01:33:35.41	169.70	45.45	-33.1	-34.4	20.2	0.00e+00	0	56	0	2475687936	38	4006
2026-01-07 01:33:36.42	169.94	45.18	-33.1	-34.3	20.3	0.00e+00	0	56	0	2480930816	38	3989
2026-01-07 01:33:37.43	170.17	44.90	-33.1	-34.3	20.3	0.00e+00	0	56	0	2487222272	38	3979
2026-01-07 01:33:38.44	170.40	44.62	-33.0	-34.2	20.4	0.00e+00	0	56	0	2492465152	38	3935
2026-01-07 01:33:39.45	170.63	44.35	-33.0	-34.2	20.3	0.00e+00	0	56	0	2497708032	37	4169
2026-01-07 01:33:40.46	170.85	44.08	-33.0	-34.2	20.3	0.00e+00	0	56	0	2503999488	37	4191
2026-01-07 01:33:41.47	171.07	43.81	-33.1	-34.3	20.3	0.00e+00	0	56	0	2509242368	37	4214
2026-01-07 01:33:42.48	171.28	43.54	-33.0	-34.2	20.3	0.00e+00	0	56	0	2515533824	37	4192
2026-01-07 01:33:43.49	171.49	43.27	-32.9	-34.1	20.4	0.00e+00	0	56	0	2520776704	37	4140
2026-01-07 01:33:44.50	171.70	43.00	-32.9	-34.0	20.5	0.00e+00	0	56	0	2527068160	37	4098
2026-01-07 01:33:45.51	171.91	42.74	-32.7	-33.9	20.6	0.00e+00	0	56	0	2532311040	37	4005
2026-01-07 01:33:46.52	172.11	42.47	-32.6	-33.8	20.7	0.00e+00	0	56	0	2537553920	37	3986
2026-01-07 01:33:47.53	172.31	42.21	-32.7	-33.9	20.6	0.00e+00	0	56	0	2543845376	37	4025
2026-01-07 01:33:48.54	172.50	41.95	-32.8	-34.0	20.5	0.00e+00	0	56	0	2549088256	37	4061
2026-01-07 01:33:49.55	172.69	41.69	-32.9	-34.1	20.4	0.00e+00	0	56	0	2555379712	37	4127
2026-01-07 01:33:50.56	172.88	41.43	-32.9	-34.1	20.3	0.00e+00	0	56	0	2560622592	37	4129
2026-01-07 01:33:51.57	173.07	41.18	-32.9	-34.1	20.3	0.00e+00	0	56	0	2565865472	37	4131
2026-01-07 01:33:52.58	173.25	40.92	-32.8	-34.0	20.4	0.00e+00	0	56	0	2572156928	37	4086
2026-01-07 01:33:53.59	173.43	40.67	-32.7	-33.9	20.5	0.00e+00	0	56	0	2577399808	37	4041
2026-01-07 01:33:54.61	173.61	40.42	-32.7	-33.9	20.5	0.00e+00	0	56	0	2583691264	37	4035
2026-01-07 01:33:55.62	173.79	40.17	-32.7	-33.9	20.5	0.00e+00	0	56	0	2588934144	37	4016
2026-01-07 01:33:56.63	173.96	39.92	-32.7	-33.9	20.5	0.00e+00	0	56	0	2595225600	37	4031
2026-01-07 01:33:57.64	174.13	39.67	-32.8	-34.0	20.5	0.00e+00	0	56	0	2600468480	37	4068
2026-01-07 01:33:58.65	174.30	39.42	-32.8	-34.0	20.4	0.00e+00	0	56	0	2605711360	37	4095
2026-01-07 01:33:59.66	174.46	39.18	-32.8	-34.1	20.3	0.00e+00	0	56	0	2612002816	37	4107
2026-01-07 01:34:00.67	174.63	38.94	-32.8	-34.1	20.3	0.00e+00	0	56	0	2617245696	37	4107
2026-01-07 01:34:01.68	174.79	38.70	-32.8	-34.1	20.3	0.00e+00	0	56	0	2623537152	37	4101
2026-01-07 01:34:02.69	174.95	38.46	-32.8	-34.0	20.4	0.00e+00	0	56	0	2628780032	37	4072
2026-01-07 01:34:03.70	175.10	38.22	-32.7	-33.9	20.4	0.00e+00	0	56	0	2635071488	37	4040
2026-01-07 01:34:04.71	175.25	37.98	-32.7	-33.9	20.5	0.00e+00	0	56	0	2640314368	37	4012
2026-01-07 01:34:05.72	175.41	37.74	-32.6	-33.8	20.6	0.00e+00	0	56	0	2645557248	37	3987
2026-01-07 01:34:06.73	175.56	37.51	-32.6	-33.8	20.5	0.00e+00	0	56	0	2651848704	37	3987
2026-01-07 01:34:07.74	175.70	37.28	-32.7	-33.9	20.5	0.00e+00	0	56	0	2657091584	37	4028
2026-01-07 01:34:08.75	175.85	37.05	-32.7	-33.9	20.4	0.00e+00	0	56	0	2663383040	37	4048
2026-01-07 01:34:09.76	175.99	36.82	-32.8	-34.0	20.4	0.00e+00	0	56	0	2668625920	37	4076
2026-01-07 01:34:10.77	176.13	36.59	-32.8	-34.0	20.3	0.00e+00	0	56	0	2673868800	37	4090
2026-01-07 01:34:11.79	176.27	36.36	-32.7	-34.0	20.4	0.00e+00	0	56	0	2680160256	37	4062
2026-01-07 01:34:12.79	176.41	36.13	-32.8	-34.0	20.3	0.00e+00	0	56	0	2685403136	37	4067
2026-01-07 01:34:13.80	176.54	35.91	-32.6	-33.8	20.5	0.00e+00	0	56	0	2691694592	37	3997
2026-01-07 01:34:14.81	176.68	35.69	-32.6	-33.8	20.5	0.00e+00	0	57	0	2696937472	37	3973
2026-01-07 01:34:15.82	176.81	35.47	-32.6	-33.7	20.5	0.00e+00	0	56	0	2702180352	37	3953
2026-01-07 01:34:16.83	176.94	35.24	-32.6	-33.7	20.5	0.00e+00	0	56	0	2708471808	37	3956
2026-01-07 01:34:17.84	177.07	35.03	-32.6	-33.8	20.5	0.00e+00	0	56	0	2713714688	37	3991
2026-01-07 01:34:18.85	177.20	34.81	-32.6	-33.9	20.4	0.00e+00	0	56	0	2720006144	37	4009
2026-01-07 01:34:19.86	177.32	34.59	-32.7	-34.0	20.3	0.00e+00	0	56	0	2725249024	37	4066
2026-01-07 01:34:20.87	177.45	34.38	-32.8	-34.1	20.2	0.00e+00	0	56	0	2731540480	37	4106
2026-01-07 01:34:21.88	177.57	34.16	-32.8	-34.1	20.2	0.00e+00	0	56	0	2736783360	37	4120
2026-01-07 01:34:22.89	177.69	33.95	-32.9	-34.1	20.2	0.00e+00	0	56	0	2743074816	37	4126
2026-01-07 01:34:23.90	177.81	33.74	-32.9	-34.1	20.2	0.00e+00	0	56	0	2748317696	37	4124
2026-01-07 01:34:24.91	177.93	33.53	-32.8	-34.1	20.2	0.00e+00	0	56	0	2753560576	37	4107
2026-01-07 01:34:25.92	178.04	33.32	-32.9	-34.1	20.2	0.00e+00	0	56	0	2759852032	37	4129
2026-01-07 01:34:26.93	178.16	33.12	-32.9	-34.1	20.2	0.00e+00	0	56	0	2765094912	37	4118
2026-01-07 01:34:27.94	178.27	32.91	-32.9	-34.2	20.1	0.00e+00	0	56	0	2771386368	37	4160
2026-01-07 01:34:28.95	178.38	32.71	-32.9	-34.2	20.1	0.00e+00	0	56	0	2776629248	37	4159
2026-01-07 01:34:29.96	178.49	32.50	-32.9	-34.2	20.0	0.00e+00	0	56	0	2781872128	37	4168
2026-01-07 01:34:30.98	178.60	32.30	-33.0	-34.3	19.9	0.00e+00	0	56	0	2788163584	37	4216
2026-01-07 01:34:31.99	178.71	32.10	-33.0	-34.3	19.9	0.00e+00	0	56	0	2793406464	37	4198
2026-01-07 01:34:33.00	178.82	31.90	-33.1	-34.4	19.9	0.00e+00	0	56	0	2799697920	37	4248
2026-01-07 01:34:34.01	178.92	31.70	-33.1	-34.4	19.8	0.00e+00	0	56	0	2804940800	37	4265
2026-01-07 01:34:35.02	179.03	31.51	-33.1	-34.4	19.8	0.00e+00	0	56	0	2810183680	37	4275
2026-01-07 01:34:36.03	179.13	31.31	-33.2	-34.5	19.7	0.00e+00	0	56	0	2816475136	37	4309
2026-01-07 01:34:37.04	179.23	31.12	-33.2	-34.5	19.7	0.00e+00	0	56	0	2821718016	37	4312
2026-01-07 01:34:38.05	179.33	30.92	-33.2	-34.5	19.7	0.00e+00	0	56	0	2828009472	37	4311
2026-01-07 01:34:39.06	179.43	30.73	-33.2	-34.5	19.8	0.00e+00	0	56	0	2833252352	37	4305
2026-01-07 01:34:40.07	179.53	30.54	-33.1	-34.4	19.8	0.00e+00	0	56	0	2839543808	37	4276
2026-01-07 01:34:41.08	179.63	30.35	-33.1	-34.4	19.9	0.00e+00	0	56	0	2844786688	37	4245
2026-01-07 01:34:42.09	179.73	30.16	-33.0	-34.2	20.0	0.00e+00	0	57	0	2851078144	37	4193
2026-01-07 01:34:43.10	179.82	29.97	-33.0	-34.2	20.0	0.00e+00	0	56	0	2856321024	37	4166
2026-01-07 01:34:44.11	179.92	29.79	-32.9	-34.2	20.1	0.00e+00	0	56	0	2861563904	37	4157
2026-01-07 01:34:45.12	180.01	29.60	-32.9	-34.1	20.1	0.00e+00	0	56	0	2867855360	37	4133
2026-01-07 01:34:46.13	180.10	29.42	-32.9	-34.1	20.1	0.00e+00	0	56	0	2873098240	37	4133
2026-01-07 01:34:47.14	180.19	29.23	-32.9	-34.2	20.1	0.00e+00	0	56	0	2879389696	37	4150
2026-01-07 01:34:48.15	180.28	29.05	-32.9	-34.2	20.1	0.00e+00	0	56	0	2884632576	37	4151
2026-01-07 01:34:49.16	180.37	28.87	-32.9	-34.2	20.0	0.00e+00	0	56	0	2889875456	37	4154
2026-01-07 01:34:50.17	180.46	28.69	-33.0	-34.2	20.0	0.00e+00	0	57	0	2896166912	37	4169
2026-01-07 01:34:51.18	180.55	28.51	-33.0	-34.2	20.0	0.00e+00	0	56	0	2901409792	37	4180
2026-01-07 01:34:52.19	180.63	28.34	-33.0	-34.3	20.0	0.00e+00	0	56	0	2907701248	37	4201
2026-01-07 01:34:53.20	180.72	28.16	-33.0	-34.3	19.9	0.00e+00	0	57	0	2912944128	37	4208
2026-01-07 01:34:54.21	180.80	27.99	-33.0	-34.3	19.9	0.00e+00	0	56	0	2918187008	37	4204
2026-01-07 01:34:55.22	180.89	27.81	-33.0	-34.3	19.9	0.00e+00	0	56	0	2924478464	37	4219
2026-01-07 01:34:56.23	180.97	27.64	-33.1	-34.3	19.9	0.00e+00	0	57	0	2929721344	37	4225
2026-01-07 01:34:57.24	181.05	27.47	-33.0	-34.2	20.0	0.00e+00	0	56	0	2936012800	37	4188
2026-01-07 01:34:58.25	181.13	27.29	-33.0	-34.2	20.0	0.00e+00	0	56	0	2941255680	37	4182
2026-01-07 01:34:59.25	181.21	27.13	-33.0	-34.2	20.0	0.00e+00	0	56	0	2947547136	37	4180
2026-01-07 01:35:00.27	181.29	26.95	-33.0	-34.2	20.0	0.00e+00	0	56	0	2952790016	37	4173
2026-01-07 01:35:01.28	181.37	26.79	-33.0	-34.2	20.0	0.00e+00	0	57	0	2959081472	37	4170
2026-01-07 01:35:02.29	181.45	26.62	-33.0	-34.3	19.9	0.00e+00	0	57	0	2964324352	37	4206
2026-01-07 01:35:03.29	181.52	26.45	-33.0	-34.2	19.9	0.00e+00	0	57	0	2969567232	37	4176
2026-01-07 01:35:04.30	181.60	26.29	-33.0	-34.3	19.9	0.00e+00	0	56	0	2975858688	37	4212
2026-01-07 01:35:05.31	181.68	26.13	-33.1	-34.4	19.8	0.00e+00	0	57	0	2981101568	37	4260
2026-01-07 01:35:06.32	181.75	25.96	-33.2	-34.4	19.8	0.00e+00	0	57	0	2986344448	37	4282
2026-01-07 01:35:07.33	181.83	25.80	-33.2	-34.5	19.7	0.00e+00	0	57	0	2992635904	37	4317
2026-01-07 01:35:08.34	181.90	25.64	-33.3	-34.6	19.6	0.00e+00	0	56	0	2997878784	37	4353
2026-01-07 01:35:09.35	181.97	25.48	-33.4	-34.7	19.5	0.00e+00	0	56	0	3004170240	37	4400
2026-01-07 01:35:10.36	182.04	25.32	-33.4	-34.7	19.5	0.00e+00	0	57	0	3009413120	37	4437
2026-01-07 01:35:11.37	182.11	25.16	-33.5	-34.8	19.4	0.00e+00	0	56	0	3014656000	37	4454
2026-01-07 01:35:12.38	182.19	25.00	-33.5	-34.8	19.4	0.00e+00	0	56	0	3020947456	37	4487
2026-01-07 01:35:13.39	182.26	24.84	-33.6	-34.9	19.3	0.00e+00	0	56	0	3026190336	37	4532
2026-01-07 01:35:14.40	182.32	24.69	-33.6	-34.9	19.3	0.00e+00	0	56	0	3032481792	37	4524
2026-01-07 01:35:15.41	182.39	24.53	-33.6	-34.9	19.3	0.00e+00	0	56	0	3037724672	37	4541
2026-01-07 01:35:16.42	182.46	24.38	-33.6	-35.0	19.3	0.00e+00	0	56	0	3044016128	37	4546
2026-01-07 01:35:17.43	182.53	24.23	-33.7	-35.0	19.2	0.00e+00	0	57	0	3049259008	37	4566
2026-01-07 01:35:18.44	182.60	24.07	-33.7	-35.0	19.2	0.00e+00	0	57	0	3055550464	37	4578
2026-01-07 01:35:19.45	182.66	23.92	-33.8	-35.1	19.1	0.00e+00	0	56	0	3060793344	38	4352
2026-01-07 01:35:20.45	182.73	23.77	-33.7	-35.0	19.2	0.00e+00	0	57	0	3066036224	38	4309
2026-01-07 01:35:21.46	182.79	23.62	-33.7	-35.0	19.2	0.00e+00	0	56	0	3072327680	38	4327
2026-01-07 01:35:22.47	182.86	23.47	-33.7	-35.0	19.2	0.00e+00	0	57	0	3077570560	38	4307
2026-01-07 01:35:23.48	182.92	23.32	-33.7	-35.0	19.2	0.00e+00	0	57	0	3083862016	38	4302
2026-01-07 01:35:24.49	182.98	23.18	-33.7	-34.9	19.2	0.00e+00	0	56	0	3089104896	38	4291
2026-01-07 01:35:25.50	183.05	23.03	-33.7	-35.0	19.2	0.00e+00	0	57	0	3094347776	38	4300
2026-01-07 01:35:26.51	183.11	22.88	-33.7	-35.0	19.2	0.00e+00	0	56	0	3100639232	38	4299
2026-01-07 01:35:27.52	183.17	22.74	-33.6	-34.9	19.3	0.00e+00	0	56	0	3105882112	38	4272
2026-01-07 01:35:28.53	183.23	22.59	-33.6	-34.9	19.3	0.00e+00	0	56	0	3112173568	38	4290
2026-01-07 01:35:29.54	183.29	22.45	-33.6	-34.9	19.3	0.00e+00	0	56	0	3117416448	38	4272
2026-01-07 01:35:30.55	183.35	22.31	-33.6	-34.9	19.3	0.00e+00	0	56	0	3122659328	38	4282
2026-01-07 01:35:31.56	183.41	22.17	-33.7	-34.9	19.3	0.00e+00	0	57	0	3128950784	38	4289
2026-01-07 01:35:32.57	183.47	22.02	-33.7	-35.0	19.2	0.00e+00	0	56	0	3134193664	38	4305
2026-01-07 01:35:33.58	183.53	21.88	-33.7	-35.0	19.3	0.00e+00	0	57	0	3140485120	38	4296
2026-01-07 01:35:34.60	183.59	21.74	-33.7	-35.0	19.2	0.00e+00	0	56	0	3145728000	38	4312
2026-01-07 01:35:35.61	183.64	21.60	-33.7	-35.0	19.2	0.00e+00	0	57	0	3152019456	38	4310
2026-01-07 01:35:36.62	183.70	21.47	-33.7	-35.0	19.2	0.00e+00	0	56	0	3157262336	38	4325
2026-01-07 01:35:37.63	183.76	21.33	-33.7	-35.0	19.2	0.00e+00	0	56	0	3163553792	38	4329
2026-01-07 01:35:38.64	183.81	21.19	-33.8	-35.1	19.1	0.00e+00	0	57	0	3168796672	38	4372
2026-01-07 01:35:39.65	183.87	21.06	-33.8	-35.1	19.0	0.00e+00	0	56	0	3174039552	38	4378
2026-01-07 01:35:40.65	183.92	20.92	-33.8	-35.2	19.0	0.00e+00	0	56	0	3180331008	38	4402
2026-01-07 01:35:41.66	183.98	20.79	-33.9	-35.2	19.0	0.00e+00	0	56	0	3185573888	38	4422
2026-01-07 01:35:42.68	184.03	20.65	-33.9	-35.3	18.9	0.00e+00	0	57	0	3191865344	38	4450
2026-01-07 01:35:43.69	184.09	20.52	-34.0	-35.3	18.9	0.00e+00	0	57	0	3197108224	38	4484
2026-01-07 01:35:44.70	184.14	20.38	-34.1	-35.4	18.8	0.00e+00	0	56	0	3202351104	38	4526
2026-01-07 01:35:45.71	184.19	20.25	-34.1	-35.5	18.8	0.00e+00	0	57	0	3208642560	38	4556
2026-01-07 01:35:46.72	184.25	20.12	-34.1	-35.5	18.7	0.00e+00	0	57	0	3213885440	38	4579
2026-01-07 01:35:47.72	184.30	19.99	-34.2	-35.5	18.7	0.00e+00	0	56	0	3219128320	38	4595
2026-01-07 01:35:48.73	184.35	19.86	-34.2	-35.6	18.6	0.00e+00	0	57	0	3225419776	38	4630
2026-01-07 01:35:49.74	184.40	19.73	-34.3	-35.6	18.6	0.00e+00	0	56	0	3230662656	39	4387
2026-01-07 01:35:50.75	184.45	19.60	-34.3	-35.7	18.5	0.00e+00	0	56	0	3236954112	39	4427
2026-01-07 01:35:51.76	184.50	19.48	-34.3	-35.7	18.5	0.00e+00	0	57	0	3242196992	39	4424
2026-01-07 01:35:52.77	184.55	19.35	-34.4	-35.8	18.4	0.00e+00	0	57	0	3248488448	39	4464
2026-01-07 01:35:53.78	184.60	19.22	-34.4	-35.8	18.4	0.00e+00	0	56	0	3253731328	39	4485
2026-01-07 01:35:54.79	184.65	19.10	-34.4	-35.9	18.4	0.00e+00	0	57	0	3260022784	39	4504
2026-01-07 01:35:55.80	184.70	18.97	-34.4	-35.8	18.4	0.00e+00	0	56	0	3265265664	39	4478
2026-01-07 01:35:56.81	184.75	18.85	-34.5	-35.9	18.3	0.00e+00	0	57	0	3270508544	39	4537
2026-01-07 01:35:57.82	184.80	18.72	-34.4	-35.9	18.3	0.00e+00	0	57	0	3276800000	39	4500
2026-01-07 01:35:58.83	184.84	18.60	-34.5	-35.9	18.3	0.00e+00	0	57	0	3282042880	39	4527
2026-01-07 01:35:59.84	184.89	18.47	-34.5	-36.0	18.3	0.00e+00	0	57	0	3288334336	39	4554
2026-01-07 01:36:00.85	184.94	18.35	-34.6	-36.0	18.2	0.00e+00	0	57	0	3293577216	39	4576
2026-01-07 01:36:01.86	184.98	18.23	-34.6	-36.0	18.2	0.00e+00	0	57	0	3298820096	39	4563
2026-01-07 01:36:02.87	185.03	18.11	-34.6	-36.0	18.2	0.00e+00	0	57	0	3305111552	39	4568
2026-01-07 01:36:03.88	185.08	17.99	-34.6	-36.0	18.2	0.00e+00	0	57	0	3310354432	39	4569
2026-01-07 01:36:04.89	185.12	17.87	-34.6	-36.0	18.2	0.00e+00	0	57	0	3316645888	39	4580
2026-01-07 01:36:05.90	185.17	17.75	-34.6	-36.0	18.2	0.00e+00	0	56	0	3321888768	39	4569
2026-01-07 01:36:06.91	185.21	17.63	-34.6	-36.0	18.2	0.00e+00	0	56	0	3327131648	39	4583
2026-01-07 01:36:07.92	185.26	17.51	-34.6	-36.1	18.1	0.00e+00	0	57	0	3333423104	39	4599
2026-01-07 01:36:08.93	185.30	17.39	-34.6	-36.0	18.1	0.00e+00	0	56	0	3338665984	39	4595
2026-01-07 01:36:09.94	185.35	17.28	-34.7	-36.1	18.1	0.00e+00	0	57	0	3344957440	39	4606
2026-01-07 01:36:10.95	185.39	17.16	-34.7	-36.1	18.1	0.00e+00	0	57	0	3350200320	39	4608
2026-01-07 01:36:11.96	185.43	17.04	-34.7	-36.1	18.1	0.00e+00	0	57	0	3356491776	39	4621
2026-01-07 01:36:12.97	185.48	16.93	-34.7	-36.1	18.0	0.00e+00	0	57	0	3361734656	40	4363
2026-01-07 01:36:13.98	185.52	16.81	-34.7	-36.1	18.0	0.00e+00	0	56	0	3368026112	40	4359
2026-01-07 01:36:14.99	185.56	16.70	-34.7	-36.1	18.1	0.00e+00	0	57	0	3373268992	40	4355
2026-01-07 01:36:16.00	185.60	16.58	-34.7	-36.1	18.0	0.00e+00	0	56	0	3378511872	40	4372
2026-01-07 01:36:17.01	185.65	16.47	-34.7	-36.1	18.0	0.00e+00	0	56	0	3384803328	40	4388
2026-01-07 01:36:18.02	185.69	16.36	-34.9	-36.3	17.9	0.00e+00	0	56	0	3390046208	40	4457
2026-01-07 01:36:19.03	185.73	16.24	-34.9	-36.3	17.8	0.00e+00	0	56	0	3396337664	40	4490
2026-01-07 01:36:20.04	185.77	16.13	-35.0	-36.4	17.8	0.00e+00	0	57	0	3401580544	40	4513
2026-01-07 01:36:21.05	185.81	16.02	-35.0	-36.4	17.8	0.00e+00	0	56	0	3406823424	40	4515
2026-01-07 01:36:22.06	185.85	15.91	-35.1	-36.5	17.7	0.00e+00	0	56	0	3413114880	40	4570
2026-01-07 01:36:23.07	185.89	15.80	-35.0	-36.4	17.7	0.00e+00	0	56	0	3418357760	40	4537
2026-01-07 01:36:24.08	185.93	15.69	-35.1	-36.5	17.6	0.00e+00	0	56	0	3424649216	40	4581
2026-01-07 01:36:25.09	185.97	15.58	-35.1	-36.5	17.6	0.00e+00	0	57	0	3429892096	40	4578
2026-01-07 01:36:26.10	186.01	15.47	-35.1	-36.6	17.6	0.00e+00	0	57	0	3435134976	40	4615
