passes_logs/2026/01/07/R2.0S_Moscow/R2.0S_Moscow__20260107_144158_FENGYUN_3E_rec.log

#Pass ID: 20260107_144158_FENGYUN 3E
#Satellite: FENGYUN 3E
#Configuration: FENGYUN 3E
#almurnet v.1.7.20251203
#Start time: 2026-01-07 14:42:00

#Version: 2.2.20231116
#Station: R2.0S_Moscow
#Location: 37.707566 lon 55.798166 lat
#TLE: 1 49008U 21062A   26006.26767912  .00000427  00000+0  22170-3 0  9993
#TLE: 2 49008  98.7475  11.4982 0001602 156.1158 204.0093 14.19885456233607

#Time	Az	El	Level	Level2	SNR	BER	BlckErr	Temp	State	Recorded	gain1	gain2
2026-01-07 14:42:00.68	175.31	2.14	-44.1	-54.8	3.8	8.46e-01	0	47	0	0	59	11879
2026-01-07 14:42:01.68	175.34	2.20	-44.1	-54.8	3.8	8.46e-01	0	47	104	0	59	11912
2026-01-07 14:42:02.69	175.36	2.27	-44.1	-54.8	3.8	8.46e-01	0	47	104	0	59	11846
2026-01-07 14:42:03.71	175.39	2.33	-44.0	-54.8	3.8	8.45e-01	0	47	104	0	59	11848
2026-01-07 14:42:04.72	175.42	2.40	-44.0	-54.8	3.8	8.48e-01	0	48	104	0	59	11915
2026-01-07 14:42:05.73	175.44	2.46	-44.0	-54.8	3.8	8.45e-01	0	48	104	0	59	11875
2026-01-07 14:42:06.74	175.47	2.53	-44.0	-54.8	3.8	8.46e-01	0	48	104	0	59	11899
2026-01-07 14:42:07.75	175.49	2.59	-44.0	-54.8	3.8	8.45e-01	0	48	104	0	59	11911
2026-01-07 14:42:08.76	175.52	2.66	-44.0	-54.8	3.8	8.46e-01	0	48	104	0	59	11896
2026-01-07 14:42:09.77	175.55	2.72	-44.1	-54.8	3.8	8.46e-01	0	48	104	0	59	11912
2026-01-07 14:42:10.78	175.57	2.79	-44.0	-54.8	3.8	8.46e-01	0	48	104	0	59	11889
2026-01-07 14:42:11.79	175.60	2.86	-44.0	-54.8	3.8	8.46e-01	0	48	104	0	59	11863
2026-01-07 14:42:12.81	175.63	2.92	-44.1	-54.8	3.8	8.45e-01	0	48	104	0	59	11870
2026-01-07 14:42:13.82	175.65	2.99	-44.0	-54.8	3.8	8.46e-01	0	48	104	0	59	11824
2026-01-07 14:42:14.83	175.68	3.05	-44.1	-54.8	3.8	8.46e-01	0	48	104	0	59	11878
2026-01-07 14:42:15.84	175.71	3.12	-44.1	-54.8	3.8	8.46e-01	0	49	104	0	59	11864
2026-01-07 14:42:16.85	175.73	3.19	-44.0	-54.8	3.8	8.46e-01	0	48	104	0	59	11873
2026-01-07 14:42:17.86	175.76	3.25	-44.0	-54.8	3.8	8.46e-01	0	48	104	0	59	11882
2026-01-07 14:42:18.87	175.79	3.32	-44.0	-54.8	3.8	8.46e-01	0	48	104	0	59	11906
2026-01-07 14:42:19.88	175.81	3.39	-44.1	-54.8	3.8	8.47e-01	0	49	104	0	59	11867
2026-01-07 14:42:20.89	175.84	3.46	-44.0	-54.8	3.8	8.45e-01	0	49	104	0	59	11849
2026-01-07 14:42:21.90	175.87	3.52	-44.1	-54.8	3.8	8.46e-01	0	49	104	0	59	11874
2026-01-07 14:42:22.92	175.90	3.59	-44.0	-54.8	3.8	8.46e-01	0	49	104	0	59	11829
2026-01-07 14:42:23.93	175.92	3.66	-44.0	-54.8	3.8	8.46e-01	0	49	104	0	59	11911
2026-01-07 14:42:24.94	175.95	3.73	-44.0	-54.8	3.8	8.46e-01	0	49	104	0	59	11852
2026-01-07 14:42:25.95	175.98	3.79	-44.0	-54.8	3.8	8.47e-01	0	49	104	0	59	11829
2026-01-07 14:42:26.96	176.01	3.86	-44.0	-54.8	3.8	8.47e-01	0	49	104	0	59	11863
2026-01-07 14:42:27.97	176.04	3.93	-44.0	-54.8	3.8	8.46e-01	0	49	104	0	59	11848
2026-01-07 14:42:28.98	176.07	4.00	-44.1	-54.8	3.8	8.46e-01	0	49	104	0	59	11909
2026-01-07 14:42:29.99	176.09	4.07	-44.0	-54.8	3.8	8.46e-01	0	49	104	0	59	11889
2026-01-07 14:42:31.00	176.12	4.14	-44.1	-54.8	3.8	8.47e-01	0	49	104	0	59	11867
2026-01-07 14:42:32.01	176.15	4.21	-44.0	-54.8	3.8	8.45e-01	0	49	104	0	59	11915
2026-01-07 14:42:33.03	176.18	4.28	-44.1	-54.8	3.8	8.46e-01	0	50	104	0	59	11846
2026-01-07 14:42:34.04	176.21	4.35	-44.1	-54.8	3.8	8.46e-01	0	49	104	0	59	11867
2026-01-07 14:42:35.05	176.24	4.41	-44.1	-54.8	3.8	8.46e-01	0	50	104	0	59	11829
2026-01-07 14:42:36.06	176.27	4.48	-44.0	-54.8	3.8	8.48e-01	0	50	104	0	59	11865
2026-01-07 14:42:37.07	176.30	4.55	-44.0	-54.8	3.8	8.46e-01	0	50	104	0	59	11847
2026-01-07 14:42:38.08	176.33	4.62	-44.0	-54.8	3.8	8.46e-01	0	50	104	0	59	11895
2026-01-07 14:42:39.09	176.36	4.69	-44.0	-54.7	3.8	8.46e-01	0	50	104	0	59	11798
2026-01-07 14:42:40.10	176.39	4.77	-44.0	-54.7	3.8	8.46e-01	0	50	104	0	59	11814
2026-01-07 14:42:41.11	176.42	4.84	-44.0	-54.7	3.8	8.46e-01	0	50	104	0	59	11773
2026-01-07 14:42:42.13	176.45	4.91	-44.0	-54.7	3.8	8.46e-01	0	50	104	0	59	11796
2026-01-07 14:42:43.14	176.48	4.98	-44.0	-54.7	3.8	8.46e-01	0	50	104	0	59	11741
2026-01-07 14:42:44.15	176.51	5.05	-44.0	-54.7	3.8	8.45e-01	0	50	104	0	59	11761
2026-01-07 14:42:45.16	176.54	5.12	-44.0	-54.7	3.8	8.46e-01	0	50	104	0	59	11738
2026-01-07 14:42:46.17	176.57	5.19	-44.0	-54.7	3.8	8.47e-01	0	50	104	0	59	11753
2026-01-07 14:42:47.18	176.60	5.26	-44.0	-54.7	3.8	8.46e-01	0	50	104	0	59	11723
2026-01-07 14:42:48.19	176.63	5.34	-44.0	-54.6	3.8	8.46e-01	0	51	104	0	59	11680
2026-01-07 14:42:49.20	176.66	5.41	-44.0	-54.6	3.8	8.46e-01	0	51	104	0	59	11559
2026-01-07 14:42:50.21	176.69	5.48	-44.0	-54.5	3.8	8.45e-01	0	50	104	0	59	11434
2026-01-07 14:42:51.22	176.72	5.55	-44.0	-54.4	3.8	8.47e-01	0	51	104	0	59	11308
2026-01-07 14:42:52.24	176.75	5.63	-44.0	-54.2	3.8	8.46e-01	0	51	104	0	58	11796
2026-01-07 14:42:53.25	176.79	5.70	-44.0	-54.1	3.8	8.45e-01	0	51	104	0	58	11682
2026-01-07 14:42:54.26	176.82	5.77	-44.0	-54.1	3.8	8.46e-01	0	51	104	0	58	11599
2026-01-07 14:42:55.27	176.85	5.85	-43.9	-53.7	3.8	8.46e-01	0	51	104	0	58	11113
2026-01-07 14:42:56.28	176.88	5.92	-43.8	-53.2	3.8	8.45e-01	0	51	104	0	58	10489
2026-01-07 14:42:57.29	176.91	5.99	-43.8	-53.0	3.8	8.46e-01	0	51	104	0	58	10260
2026-01-07 14:42:58.30	176.95	6.07	-43.7	-52.8	3.8	8.45e-01	0	51	104	0	58	10021
2026-01-07 14:42:59.31	176.98	6.14	-43.7	-52.5	3.9	8.44e-01	0	51	104	0	58	9656
2026-01-07 14:43:00.32	177.01	6.21	-43.6	-51.9	4.0	8.43e-01	0	51	104	0	58	8978
2026-01-07 14:43:01.33	177.04	6.29	-43.6	-51.8	4.1	8.39e-01	0	51	0	0	58	8952
2026-01-07 14:43:02.35	177.08	6.36	-43.4	-51.2	4.2	8.39e-01	0	51	0	0	57	8796
2026-01-07 14:43:03.36	177.11	6.44	-43.3	-50.5	4.4	8.29e-01	0	51	0	0	57	8097
2026-01-07 14:43:04.37	177.14	6.51	-43.0	-49.5	4.8	8.01e-01	0	51	0	0	57	7267
2026-01-07 14:43:05.38	177.18	6.59	-42.9	-49.0	5.1	7.62e-01	0	51	0	0	56	7255
2026-01-07 14:43:06.39	177.21	6.67	-42.5	-47.9	5.8	5.22e-01	0	51	0	2097152	56	6420
2026-01-07 14:43:07.40	177.24	6.74	-42.0	-46.9	6.5	2.46e-01	0	51	0	8388608	55	6017
2026-01-07 14:43:08.41	177.28	6.82	-41.7	-46.1	7.2	1.65e-01	0	51	0	15728640	54	5833
2026-01-07 14:43:09.42	177.31	6.89	-41.3	-45.4	7.9	1.01e-01	0	52	0	23068672	53	5716
2026-01-07 14:43:10.43	177.34	6.97	-40.8	-44.5	8.8	4.36e-02	0	52	0	30408704	52	5432
2026-01-07 14:43:11.44	177.38	7.05	-40.5	-44.1	9.3	2.43e-02	0	52	0	37748736	52	5169
2026-01-07 14:43:12.45	177.41	7.12	-40.1	-43.2	10.2	8.62e-03	0	52	0	45088768	51	4972
2026-01-07 14:43:13.47	177.45	7.20	-39.7	-42.7	10.8	3.49e-03	0	51	0	52428800	50	4945
2026-01-07 14:43:14.48	177.48	7.28	-39.2	-42.0	11.4	9.23e-04	0	52	0	59768832	49	4854
2026-01-07 14:43:15.49	177.52	7.36	-38.9	-41.6	11.8	4.98e-04	0	52	0	67108864	48	4924
2026-01-07 14:43:16.50	177.55	7.43	-38.6	-41.2	12.3	2.38e-04	0	52	0	74448896	48	4667
2026-01-07 14:43:17.51	177.59	7.51	-38.0	-40.4	12.9	9.72e-05	0	52	0	81788928	47	4541
2026-01-07 14:43:18.52	177.62	7.59	-37.7	-40.0	13.3	2.74e-05	0	52	0	89128960	46	4591
2026-01-07 14:43:19.53	177.66	7.67	-37.4	-39.7	13.6	1.37e-05	0	52	0	96468992	45	4685
2026-01-07 14:43:20.54	177.70	7.75	-37.1	-39.4	13.9	6.80e-06	0	52	0	103809024	45	4511
2026-01-07 14:43:21.55	177.73	7.83	-37.2	-39.4	13.9	3.40e-06	0	52	0	111149056	45	4533
2026-01-07 14:43:22.57	177.77	7.91	-37.2	-39.5	13.8	4.50e-06	0	52	0	118489088	45	4580
2026-01-07 14:43:23.58	177.80	7.99	-37.1	-39.3	14.0	6.80e-06	0	52	0	125829120	45	4462
2026-01-07 14:43:24.59	177.84	8.07	-38.4	-40.9	12.9	1.10e-06	0	52	0	133169152	46	5081
2026-01-07 14:43:25.60	177.88	8.15	-39.7	-42.6	11.1	8.06e-04	0	52	0	140509184	49	5168
2026-01-07 14:43:26.61	177.91	8.23	-36.6	-38.7	14.8	7.92e-03	0	52	0	147849216	44	4431
2026-01-07 14:43:27.62	177.95	8.31	-38.7	-41.3	12.4	4.92e-05	0	52	0	154140672	47	5040
2026-01-07 14:43:28.63	177.99	8.39	-37.0	-39.1	14.4	2.05e-05	0	52	0	161480704	44	4640
2026-01-07 14:43:29.64	178.03	8.47	-37.9	-40.3	13.1	4.78e-04	0	52	0	169869312	46	4714
2026-01-07 14:43:30.65	178.06	8.55	-37.1	-39.3	14.2	2.20e-06	0	52	0	176160768	44	4734
2026-01-07 14:43:31.66	178.10	8.63	-37.1	-39.3	14.3	0.00e+00	0	52	0	183500800	44	4742
2026-01-07 14:43:32.67	178.14	8.71	-37.1	-39.2	14.3	2.20e-06	0	52	0	190840832	44	4697
2026-01-07 14:43:33.68	178.18	8.79	-37.0	-39.2	14.4	0.00e+00	0	53	0	198180864	44	4675
2026-01-07 14:43:34.69	178.22	8.88	-37.0	-39.2	14.5	0.00e+00	0	53	0	205520896	44	4673
2026-01-07 14:43:35.70	178.26	8.96	-36.9	-39.1	14.6	0.00e+00	0	52	0	212860928	44	4604
2026-01-07 14:43:36.71	178.30	9.04	-37.0	-39.2	14.4	1.10e-06	0	53	0	220200960	44	4680
2026-01-07 14:43:37.72	178.33	9.12	-36.9	-39.1	14.6	0.00e+00	0	53	0	227540992	44	4610
2026-01-07 14:43:38.73	178.37	9.21	-36.9	-39.1	14.6	0.00e+00	0	53	0	234881024	44	4604
2026-01-07 14:43:39.74	178.41	9.29	-36.9	-39.1	14.6	0.00e+00	0	53	0	242221056	44	4608
2026-01-07 14:43:40.75	178.45	9.37	-36.9	-39.1	14.6	1.10e-06	0	53	0	249561088	44	4624
2026-01-07 14:43:41.76	178.49	9.46	-36.8	-39.0	14.8	0.00e+00	0	53	0	256901120	44	4568
2026-01-07 14:43:42.77	178.53	9.54	-36.7	-38.9	14.8	0.00e+00	0	53	0	264241152	44	4513
2026-01-07 14:43:43.78	178.57	9.63	-36.6	-38.8	15.0	0.00e+00	0	53	0	271581184	44	4453
2026-01-07 14:43:44.79	178.61	9.71	-36.6	-38.7	15.1	0.00e+00	0	53	0	278921216	44	4415
2026-01-07 14:43:45.80	178.65	9.80	-36.7	-38.8	15.0	0.00e+00	0	53	0	286261248	44	4476
2026-01-07 14:43:46.81	178.70	9.88	-36.8	-38.9	14.9	0.00e+00	0	53	0	293601280	44	4544
2026-01-07 14:43:47.82	178.74	9.97	-36.8	-38.9	14.9	0.00e+00	0	53	0	300941312	44	4527
2026-01-07 14:43:48.83	178.78	10.05	-36.7	-38.9	14.9	0.00e+00	0	53	0	307232768	44	4511
2026-01-07 14:43:49.84	178.82	10.14	-36.8	-38.9	14.9	0.00e+00	0	53	0	315621376	44	4543
2026-01-07 14:43:50.85	178.86	10.23	-36.6	-38.7	15.1	0.00e+00	0	53	0	322961408	44	4414
2026-01-07 14:43:51.86	178.90	10.31	-36.5	-38.6	15.1	0.00e+00	0	53	0	329252864	43	4634
2026-01-07 14:43:52.87	178.95	10.40	-36.5	-38.7	15.0	0.00e+00	0	53	0	336592896	43	4662
2026-01-07 14:43:53.88	178.99	10.49	-36.4	-38.5	15.2	0.00e+00	0	53	0	344981504	43	4582
2026-01-07 14:43:54.89	179.03	10.58	-36.4	-38.5	15.2	1.10e-06	0	53	0	351272960	43	4576
2026-01-07 14:43:55.90	179.08	10.67	-36.3	-38.4	15.3	0.00e+00	0	53	0	358612992	43	4526
2026-01-07 14:43:56.92	179.12	10.75	-36.4	-38.5	15.2	0.00e+00	0	53	0	365953024	43	4578
2026-01-07 14:43:57.93	179.16	10.84	-36.2	-38.3	15.5	0.00e+00	0	53	0	373293056	43	4442
2026-01-07 14:43:58.94	179.21	10.93	-36.2	-38.2	15.5	0.00e+00	0	53	0	380633088	43	4431
2026-01-07 14:43:59.95	179.25	11.02	-36.3	-38.4	15.4	0.00e+00	0	53	0	387973120	43	4515
2026-01-07 14:44:00.96	179.30	11.11	-36.1	-38.1	15.6	0.00e+00	0	53	0	395313152	43	4367
2026-01-07 14:44:01.96	179.34	11.20	-36.3	-38.4	15.4	0.00e+00	0	53	0	402653184	43	4523
2026-01-07 14:44:02.97	179.38	11.29	-36.1	-38.1	15.6	0.00e+00	0	54	0	409993216	43	4376
2026-01-07 14:44:03.98	179.43	11.38	-36.0	-38.0	15.8	0.00e+00	0	53	0	417333248	42	4568
2026-01-07 14:44:04.99	179.47	11.47	-36.0	-38.0	15.8	0.00e+00	0	53	0	424673280	42	4586
2026-01-07 14:44:06.00	179.52	11.56	-36.0	-38.0	15.8	0.00e+00	0	53	0	432013312	42	4576
2026-01-07 14:44:07.01	179.57	11.66	-35.9	-37.9	15.9	0.00e+00	0	53	0	439353344	42	4516
2026-01-07 14:44:08.02	179.61	11.75	-35.7	-37.7	16.1	0.00e+00	0	53	0	446693376	42	4408
2026-01-07 14:44:09.03	179.66	11.84	-35.8	-37.7	16.0	0.00e+00	0	53	0	452984832	42	4440
2026-01-07 14:44:10.04	179.71	11.93	-35.8	-37.7	16.1	0.00e+00	0	53	0	461373440	42	4421
2026-01-07 14:44:11.05	179.75	12.02	-35.7	-37.6	16.2	0.00e+00	0	54	0	468713472	42	4376
2026-01-07 14:44:12.06	179.80	12.12	-35.8	-37.7	16.1	0.00e+00	0	54	0	475004928	42	4433
2026-01-07 14:44:13.07	179.85	12.21	-35.6	-37.6	16.2	0.00e+00	0	54	0	482344960	42	4357
2026-01-07 14:44:14.08	179.90	12.31	-35.7	-37.7	16.2	0.00e+00	0	54	0	489684992	42	4407
2026-01-07 14:44:15.09	179.94	12.40	-35.6	-37.5	16.3	0.00e+00	0	54	0	497025024	42	4325
2026-01-07 14:44:16.10	179.99	12.49	-35.5	-37.5	16.3	0.00e+00	0	54	0	504365056	42	4304
2026-01-07 14:44:17.11	180.04	12.59	-35.5	-37.4	16.4	0.00e+00	0	54	0	511705088	41	4540
2026-01-07 14:44:18.12	180.09	12.68	-35.4	-37.3	16.5	0.00e+00	0	54	0	519045120	41	4478
2026-01-07 14:44:19.13	180.14	12.78	-35.5	-37.4	16.4	0.00e+00	0	54	0	526385152	41	4528
2026-01-07 14:44:20.14	180.19	12.88	-35.4	-37.3	16.5	0.00e+00	0	54	0	533725184	41	4450
2026-01-07 14:44:21.15	180.24	12.97	-35.4	-37.3	16.5	0.00e+00	0	54	0	541065216	41	4450
2026-01-07 14:44:22.16	180.29	13.07	-35.3	-37.2	16.6	0.00e+00	0	54	0	548405248	41	4416
2026-01-07 14:44:23.17	180.34	13.17	-35.4	-37.3	16.5	0.00e+00	0	54	0	555745280	41	4483
2026-01-07 14:44:24.18	180.39	13.26	-35.2	-37.1	16.7	0.00e+00	0	54	0	563085312	41	4346
2026-01-07 14:44:25.19	180.44	13.36	-35.2	-37.1	16.7	0.00e+00	0	54	0	570425344	41	4383
2026-01-07 14:44:26.20	180.49	13.46	-35.2	-37.0	16.7	0.00e+00	0	54	0	577765376	41	4336
2026-01-07 14:44:27.21	180.55	13.56	-35.2	-37.1	16.7	0.00e+00	0	54	0	585105408	41	4369
2026-01-07 14:44:28.22	180.60	13.66	-34.9	-36.7	17.1	0.00e+00	0	54	0	592445440	40	4421
2026-01-07 14:44:29.23	180.65	13.76	-35.1	-37.0	16.9	0.00e+00	0	54	0	599785472	40	4559
2026-01-07 14:44:30.24	180.70	13.86	-35.1	-36.9	16.9	0.00e+00	0	54	0	607125504	40	4534
2026-01-07 14:44:31.24	180.76	13.96	-35.0	-36.9	17.0	0.00e+00	0	54	0	614465536	40	4496
2026-01-07 14:44:32.26	180.81	14.06	-35.0	-36.8	17.0	0.00e+00	0	54	0	621805568	40	4492
2026-01-07 14:44:33.26	180.86	14.16	-35.0	-36.9	16.9	0.00e+00	0	54	0	628097024	40	4537
2026-01-07 14:44:34.27	180.92	14.26	-34.9	-36.8	17.0	0.00e+00	0	54	0	635437056	40	4462
2026-01-07 14:44:35.28	180.97	14.36	-34.9	-36.8	17.0	0.00e+00	0	54	0	643825664	40	4463
2026-01-07 14:44:36.30	181.03	14.46	-34.8	-36.7	17.1	0.00e+00	0	54	0	650117120	40	4407
2026-01-07 14:44:37.31	181.08	14.57	-34.9	-36.8	17.0	0.00e+00	0	54	0	657457152	40	4466
2026-01-07 14:44:38.32	181.14	14.67	-34.9	-36.7	17.1	0.00e+00	0	54	0	664797184	40	4439
2026-01-07 14:44:39.33	181.19	14.77	-34.9	-36.8	17.1	0.00e+00	0	54	0	672137216	40	4445
2026-01-07 14:44:40.34	181.25	14.88	-34.9	-36.8	17.0	0.00e+00	0	54	0	679477248	40	4466
2026-01-07 14:44:41.35	181.31	14.98	-34.8	-36.7	17.1	0.00e+00	0	54	0	686817280	40	4420
2026-01-07 14:44:42.36	181.36	15.09	-34.9	-36.8	17.0	0.00e+00	0	54	0	694157312	40	4454
2026-01-07 14:44:43.37	181.42	15.19	-34.8	-36.8	17.0	0.00e+00	0	54	0	701497344	40	4443
2026-01-07 14:44:44.38	181.48	15.30	-34.9	-36.8	17.0	0.00e+00	0	54	0	708837376	40	4460
2026-01-07 14:44:45.39	181.54	15.40	-34.8	-36.8	17.0	0.00e+00	0	54	0	716177408	40	4446
2026-01-07 14:44:46.40	181.60	15.51	-34.8	-36.8	17.0	0.00e+00	0	54	0	723517440	40	4454
2026-01-07 14:44:47.40	181.65	15.62	-34.7	-36.7	17.1	0.00e+00	0	54	0	730857472	40	4392
2026-01-07 14:44:48.41	181.71	15.72	-34.8	-36.7	17.1	0.00e+00	0	54	0	738197504	40	4424
2026-01-07 14:44:49.42	181.77	15.83	-34.9	-36.8	17.0	0.00e+00	0	54	0	745537536	40	4465
2026-01-07 14:44:50.43	181.83	15.94	-34.7	-36.7	17.1	0.00e+00	0	54	0	751828992	40	4400
2026-01-07 14:44:51.44	181.89	16.05	-34.8	-36.7	17.1	0.00e+00	0	54	0	760217600	40	4403
2026-01-07 14:44:52.45	181.96	16.16	-34.7	-36.6	17.2	0.00e+00	0	54	0	767557632	40	4358
2026-01-07 14:44:53.46	182.02	16.27	-34.6	-36.6	17.2	0.00e+00	0	55	0	773849088	40	4356
2026-01-07 14:44:54.47	182.08	16.38	-34.8	-36.7	17.1	0.00e+00	0	55	0	781189120	39	4679
2026-01-07 14:44:55.48	182.14	16.49	-34.7	-36.5	17.3	0.00e+00	0	54	0	788529152	39	4597
2026-01-07 14:44:56.49	182.20	16.60	-34.6	-36.5	17.3	0.00e+00	0	55	0	795869184	39	4590
2026-01-07 14:44:57.50	182.27	16.71	-34.6	-36.4	17.4	0.00e+00	0	54	0	803209216	39	4545
2026-01-07 14:44:58.51	182.33	16.82	-34.5	-36.4	17.4	0.00e+00	0	55	0	810549248	39	4500
2026-01-07 14:44:59.52	182.39	16.93	-34.6	-36.5	17.3	0.00e+00	0	54	0	817889280	39	4572
2026-01-07 14:45:00.53	182.46	17.05	-34.5	-36.4	17.5	0.00e+00	0	55	0	825229312	39	4494
2026-01-07 14:45:01.54	182.52	17.16	-34.4	-36.3	17.5	0.00e+00	0	55	0	832569344	39	4469
2026-01-07 14:45:02.56	182.59	17.28	-34.4	-36.3	17.6	0.00e+00	0	55	0	839909376	39	4446
2026-01-07 14:45:03.57	182.66	17.39	-34.4	-36.2	17.6	0.00e+00	0	55	0	847249408	39	4439
2026-01-07 14:45:04.57	182.72	17.50	-34.4	-36.2	17.6	0.00e+00	0	55	0	854589440	39	4415
2026-01-07 14:45:05.58	182.79	17.62	-34.4	-36.3	17.5	0.00e+00	0	55	0	861929472	39	4459
2026-01-07 14:45:06.59	182.86	17.74	-34.3	-36.2	17.7	0.00e+00	0	55	0	869269504	39	4400
2026-01-07 14:45:07.60	182.92	17.85	-34.3	-36.2	17.7	0.00e+00	0	55	0	876609536	39	4409
2026-01-07 14:45:08.61	182.99	17.97	-34.3	-36.1	17.7	0.00e+00	0	55	0	883949568	39	4369
2026-01-07 14:45:09.62	183.06	18.09	-34.2	-36.1	17.8	0.00e+00	0	55	0	891289600	39	4341
2026-01-07 14:45:10.63	183.13	18.20	-34.2	-36.1	17.7	0.00e+00	0	55	0	898629632	39	4365
2026-01-07 14:45:11.64	183.20	18.32	-34.2	-36.1	17.7	0.00e+00	0	55	0	905969664	39	4358
2026-01-07 14:45:12.65	183.27	18.44	-34.2	-36.0	17.8	0.00e+00	0	55	0	913309696	39	4332
2026-01-07 14:45:13.66	183.34	18.56	-34.1	-36.0	17.8	0.00e+00	0	55	0	920649728	39	4304
2026-01-07 14:45:14.67	183.41	18.68	-34.2	-36.0	17.9	0.00e+00	0	55	0	926941184	39	4302
2026-01-07 14:45:15.68	183.49	18.80	-34.2	-36.0	17.8	0.00e+00	0	55	0	934281216	39	4334
2026-01-07 14:45:16.69	183.56	18.92	-34.1	-35.9	17.9	0.00e+00	0	55	0	942669824	39	4261
2026-01-07 14:45:17.70	183.63	19.05	-34.1	-35.9	17.9	0.00e+00	0	55	0	948961280	39	4269
2026-01-07 14:45:18.71	183.71	19.17	-34.1	-35.9	17.9	0.00e+00	0	55	0	956301312	39	4278
2026-01-07 14:45:19.72	183.78	19.29	-34.1	-35.9	17.9	0.00e+00	0	55	0	963641344	39	4289
2026-01-07 14:45:20.73	183.86	19.41	-34.2	-36.0	17.8	0.00e+00	0	55	0	970981376	39	4333
2026-01-07 14:45:21.75	183.93	19.54	-34.2	-36.0	17.9	0.00e+00	0	55	0	978321408	39	4304
2026-01-07 14:45:22.76	184.01	19.66	-34.1	-35.9	17.9	0.00e+00	0	55	0	985661440	39	4291
2026-01-07 14:45:23.76	184.08	19.79	-34.1	-35.9	18.0	0.00e+00	0	55	0	993001472	39	4266
2026-01-07 14:45:24.78	184.16	19.92	-34.1	-35.9	17.9	0.00e+00	0	55	0	1000341504	39	4272
2026-01-07 14:45:25.79	184.24	20.04	-34.5	-36.4	17.5	0.00e+00	0	55	0	1007681536	39	4509
2026-01-07 14:45:26.80	184.32	20.17	-34.2	-36.0	17.9	0.00e+00	0	55	0	1015021568	39	4296
2026-01-07 14:45:27.81	184.40	20.30	-34.2	-36.0	17.9	0.00e+00	0	55	0	1022361600	39	4335
2026-01-07 14:45:28.82	184.48	20.42	-34.2	-36.0	17.9	0.00e+00	0	55	0	1029701632	39	4312
2026-01-07 14:45:29.83	184.56	20.55	-34.2	-36.0	17.9	0.00e+00	0	55	0	1037041664	39	4319
2026-01-07 14:45:30.84	184.64	20.68	-34.1	-35.9	18.0	0.00e+00	0	55	0	1044381696	39	4274
2026-01-07 14:45:31.85	184.72	20.81	-34.2	-35.9	18.0	0.00e+00	0	55	0	1051721728	39	4281
2026-01-07 14:45:32.86	184.80	20.94	-34.3	-36.0	17.9	0.00e+00	0	55	0	1059061760	39	4337
2026-01-07 14:45:33.87	184.88	21.08	-34.2	-36.0	18.0	0.00e+00	0	55	0	1066401792	39	4318
2026-01-07 14:45:34.88	184.97	21.21	-34.2	-36.0	18.0	0.00e+00	0	55	0	1072693248	39	4309
2026-01-07 14:45:35.89	185.05	21.34	-34.3	-36.1	17.9	0.00e+00	0	55	0	1081081856	39	4342
2026-01-07 14:45:36.90	185.14	21.47	-34.2	-35.9	18.0	0.00e+00	0	55	0	1088421888	39	4287
2026-01-07 14:45:37.91	185.22	21.61	-34.2	-35.9	18.0	0.00e+00	0	55	0	1094713344	39	4287
2026-01-07 14:45:38.92	185.31	21.74	-34.2	-35.9	18.1	0.00e+00	0	55	0	1102053376	39	4266
2026-01-07 14:45:39.93	185.40	21.88	-34.1	-35.8	18.1	0.00e+00	0	55	0	1109393408	39	4234
2026-01-07 14:45:40.94	185.49	22.01	-34.1	-35.9	18.1	0.00e+00	0	55	0	1116733440	39	4246
2026-01-07 14:45:41.95	185.57	22.15	-34.1	-35.8	18.2	0.00e+00	0	55	0	1124073472	38	4471
2026-01-07 14:45:42.96	185.66	22.29	-34.0	-35.8	18.2	0.00e+00	0	55	0	1131413504	38	4452
2026-01-07 14:45:43.97	185.75	22.42	-34.0	-35.7	18.2	0.00e+00	0	55	0	1138753536	38	4435
2026-01-07 14:45:44.98	185.84	22.56	-34.0	-35.8	18.2	0.00e+00	0	55	0	1146093568	38	4446
2026-01-07 14:45:45.99	185.94	22.70	-34.1	-35.8	18.2	0.00e+00	0	55	0	1153433600	38	4458
2026-01-07 14:45:47.00	186.03	22.84	-33.9	-35.6	18.4	0.00e+00	0	55	0	1160773632	38	4356
2026-01-07 14:45:48.01	186.12	22.98	-34.0	-35.7	18.3	0.00e+00	0	55	0	1168113664	38	4404
2026-01-07 14:45:49.02	186.22	23.12	-34.0	-35.7	18.3	0.00e+00	0	55	0	1175453696	38	4395
2026-01-07 14:45:50.02	186.31	23.26	-33.8	-35.5	18.4	0.00e+00	0	55	0	1182793728	38	4338
2026-01-07 14:45:51.03	186.41	23.41	-33.8	-35.5	18.4	0.00e+00	0	55	0	1190133760	38	4328
2026-01-07 14:45:52.04	186.50	23.55	-34.1	-35.8	18.2	0.00e+00	0	55	0	1197473792	38	4485
2026-01-07 14:45:53.05	186.60	23.69	-33.7	-35.4	18.6	0.00e+00	0	56	0	1204813824	38	4253
2026-01-07 14:45:54.06	186.70	23.84	-33.7	-35.4	18.5	0.00e+00	0	55	0	1212153856	38	4267
2026-01-07 14:45:55.07	186.80	23.98	-33.6	-35.3	18.6	0.00e+00	0	55	0	1219493888	38	4232
2026-01-07 14:45:56.08	186.90	24.13	-33.7	-35.4	18.6	0.00e+00	0	55	0	1225785344	38	4257
2026-01-07 14:45:57.09	187.00	24.28	-33.7	-35.4	18.6	0.00e+00	0	55	0	1234173952	38	4248
2026-01-07 14:45:58.10	187.10	24.43	-33.6	-35.4	18.5	0.00e+00	0	55	0	1241513984	37	4497
2026-01-07 14:45:59.11	187.21	24.57	-33.6	-35.3	18.5	0.00e+00	0	55	0	1247805440	37	4471
2026-01-07 14:46:00.12	187.31	24.72	-33.6	-35.4	18.5	0.00e+00	0	55	0	1255145472	37	4500
2026-01-07 14:46:01.13	187.41	24.87	-33.6	-35.3	18.5	0.00e+00	0	55	0	1262485504	37	4482
2026-01-07 14:46:02.14	187.52	25.02	-33.5	-35.3	18.6	0.00e+00	0	55	0	1269825536	37	4449
2026-01-07 14:46:03.15	187.63	25.18	-33.5	-35.2	18.6	0.00e+00	0	56	0	1277165568	37	4430
2026-01-07 14:46:04.16	187.73	25.33	-33.4	-35.2	18.7	0.00e+00	0	55	0	1284505600	37	4407
2026-01-07 14:46:05.17	187.84	25.48	-33.4	-35.1	18.7	0.00e+00	0	55	0	1291845632	37	4386
2026-01-07 14:46:06.18	187.95	25.64	-33.4	-35.2	18.6	0.00e+00	0	56	0	1299185664	37	4402
2026-01-07 14:46:07.19	188.06	25.79	-33.3	-35.1	18.7	0.00e+00	0	55	0	1306525696	37	4359
2026-01-07 14:46:08.20	188.18	25.95	-33.2	-34.9	18.9	0.00e+00	0	56	0	1313865728	37	4278
2026-01-07 14:46:09.21	188.29	26.10	-33.3	-35.1	18.7	0.00e+00	0	56	0	1321205760	37	4354
2026-01-07 14:46:10.22	188.40	26.26	-33.3	-35.1	18.8	0.00e+00	0	56	0	1328545792	37	4345
2026-01-07 14:46:11.23	188.52	26.42	-33.2	-35.0	18.9	0.00e+00	0	56	0	1335885824	37	4302
2026-01-07 14:46:12.24	188.63	26.58	-33.2	-35.0	18.9	0.00e+00	0	56	0	1343225856	37	4301
2026-01-07 14:46:13.25	188.75	26.74	-33.5	-35.3	18.5	0.00e+00	0	56	0	1350565888	37	4476
2026-01-07 14:46:14.26	188.87	26.90	-33.1	-34.9	18.9	0.00e+00	0	55	0	1357905920	37	4263
2026-01-07 14:46:15.27	188.99	27.06	-33.1	-34.8	19.0	0.00e+00	0	56	0	1365245952	37	4234
2026-01-07 14:46:16.28	189.11	27.22	-33.1	-34.8	19.0	0.00e+00	0	56	0	1371537408	37	4234
2026-01-07 14:46:17.29	189.23	27.38	-33.1	-34.8	19.1	0.00e+00	0	56	0	1379926016	37	4194
2026-01-07 14:46:18.30	189.36	27.55	-32.8	-34.4	19.4	0.00e+00	0	56	0	1387266048	36	4290
2026-01-07 14:46:19.31	189.48	27.71	-33.1	-34.8	19.1	0.00e+00	0	56	0	1393557504	36	4458
2026-01-07 14:46:20.31	189.61	27.87	-33.1	-34.7	19.2	0.00e+00	0	56	0	1400897536	36	4434
2026-01-07 14:46:21.32	189.73	28.04	-33.0	-34.6	19.3	0.00e+00	0	56	0	1408237568	36	4373
2026-01-07 14:46:22.33	189.86	28.21	-32.9	-34.5	19.4	0.00e+00	0	56	0	1415577600	36	4303
2026-01-07 14:46:23.34	189.99	28.37	-32.8	-34.4	19.5	0.00e+00	0	56	0	1422917632	36	4270
2026-01-07 14:46:24.35	190.12	28.54	-32.1	-33.7	19.3	0.00e+00	0	56	0	1430257664	34	4418
2026-01-07 14:46:25.36	190.25	28.71	-32.1	-33.8	19.3	0.00e+00	0	56	0	1437597696	34	4446
2026-01-07 14:46:26.38	190.39	28.89	-32.2	-33.9	19.2	0.00e+00	0	55	0	1444937728	34	4494
2026-01-07 14:46:27.39	190.52	29.06	-32.2	-33.8	19.3	0.00e+00	0	56	0	1452277760	34	4472
2026-01-07 14:46:28.40	190.66	29.23	-32.3	-34.0	19.2	0.00e+00	0	56	0	1459617792	34	4554
2026-01-07 14:46:29.41	190.80	29.40	-32.4	-34.0	19.1	0.00e+00	0	56	0	1466957824	34	4594
2026-01-07 14:46:30.41	190.94	29.57	-32.3	-33.9	19.2	0.00e+00	0	56	0	1474297856	34	4533
2026-01-07 14:46:31.43	191.08	29.75	-32.3	-34.0	19.2	0.00e+00	0	56	0	1481637888	34	4557
2026-01-07 14:46:32.44	191.22	29.93	-32.4	-34.1	19.0	0.00e+00	0	56	0	1488977920	34	4625
2026-01-07 14:46:33.45	191.36	30.10	-32.4	-34.1	19.0	0.00e+00	0	56	0	1496317952	34	4613
2026-01-07 14:46:34.46	191.51	30.28	-32.4	-34.2	18.9	0.00e+00	0	56	0	1503657984	34	4664
2026-01-07 14:46:35.47	191.66	30.46	-32.4	-34.2	18.9	0.00e+00	0	56	0	1510998016	34	4679
2026-01-07 14:46:36.48	191.81	30.64	-32.4	-34.2	18.9	0.00e+00	0	56	0	1518338048	34	4674
2026-01-07 14:46:37.49	191.96	30.82	-32.4	-34.2	18.9	0.00e+00	0	56	0	1525678080	34	4669
2026-01-07 14:46:38.50	192.11	31.00	-32.4	-34.2	18.8	0.00e+00	0	56	0	1533018112	34	4684
2026-01-07 14:46:39.51	192.26	31.18	-32.4	-34.2	18.9	0.00e+00	0	56	0	1540358144	34	4694
2026-01-07 14:46:40.52	192.42	31.37	-32.4	-34.2	18.9	0.00e+00	0	56	0	1546649600	35	4421
2026-01-07 14:46:41.53	192.57	31.55	-32.4	-34.2	18.9	0.00e+00	0	56	0	1553989632	35	4433
2026-01-07 14:46:42.54	192.73	31.74	-32.3	-34.1	18.9	0.00e+00	0	56	0	1562378240	35	4385
2026-01-07 14:46:43.55	192.89	31.92	-32.3	-34.1	18.9	0.00e+00	0	56	0	1568669696	35	4385
2026-01-07 14:46:44.56	193.05	32.11	-32.4	-34.3	18.8	0.00e+00	0	56	0	1576009728	35	4482
2026-01-07 14:46:45.57	193.22	32.30	-32.3	-34.1	19.0	0.00e+00	0	56	0	1583349760	34	4624
2026-01-07 14:46:46.58	193.39	32.49	-32.3	-34.2	18.9	0.00e+00	0	56	0	1590689792	34	4658
2026-01-07 14:46:47.60	193.55	32.68	-32.3	-34.1	18.9	0.00e+00	0	56	0	1598029824	34	4650
2026-01-07 14:46:48.61	193.72	32.87	-32.3	-34.2	18.8	0.00e+00	0	56	0	1605369856	34	4665
2026-01-07 14:46:49.62	193.90	33.06	-32.3	-34.1	18.9	0.00e+00	0	56	0	1612709888	34	4631
2026-01-07 14:46:50.63	194.07	33.25	-32.4	-34.3	18.8	0.00e+00	0	56	0	1620049920	34	4708
2026-01-07 14:46:51.64	194.25	33.44	-32.3	-34.1	18.9	0.00e+00	0	56	0	1627389952	34	4642
2026-01-07 14:46:52.65	194.42	33.64	-32.3	-34.1	19.0	0.00e+00	0	56	0	1634729984	34	4613
2026-01-07 14:46:53.65	194.60	33.83	-32.3	-34.1	18.9	0.00e+00	0	56	0	1642070016	34	4631
2026-01-07 14:46:54.66	194.78	34.03	-32.3	-34.2	18.9	0.00e+00	0	56	0	1649410048	34	4654
2026-01-07 14:46:55.68	194.97	34.23	-32.5	-34.4	18.7	0.00e+00	0	56	0	1656750080	34	4768
2026-01-07 14:46:56.69	195.16	34.43	-32.5	-34.3	18.8	0.00e+00	0	56	0	1664090112	34	4707
2026-01-07 14:46:57.70	195.35	34.63	-32.5	-34.3	18.7	0.00e+00	0	56	0	1671430144	34	4757
2026-01-07 14:46:58.71	195.54	34.83	-32.5	-34.2	18.9	0.00e+00	0	56	0	1678770176	34	4692
2026-01-07 14:46:59.72	195.73	35.03	-32.4	-34.2	18.9	0.00e+00	0	56	0	1686110208	34	4663
2026-01-07 14:47:00.73	195.92	35.23	-32.1	-33.8	19.2	0.00e+00	0	56	0	1693450240	34	4479
2026-01-07 14:47:01.74	196.12	35.43	-32.3	-34.0	19.0	0.00e+00	0	56	0	1700790272	34	4577
2026-01-07 14:47:02.75	196.32	35.63	-32.3	-33.9	19.1	0.00e+00	0	56	0	1708130304	34	4538
2026-01-07 14:47:03.76	196.53	35.84	-32.3	-34.0	19.0	0.00e+00	0	56	0	1715470336	34	4559
2026-01-07 14:47:04.77	196.73	36.04	-32.2	-34.0	19.0	0.00e+00	0	56	0	1721761792	34	4554
2026-01-07 14:47:05.78	196.94	36.25	-32.5	-34.3	18.7	0.00e+00	0	56	0	1729101824	34	4725
2026-01-07 14:47:06.79	197.15	36.46	-32.5	-34.3	18.7	0.00e+00	0	56	0	1736441856	35	4472
2026-01-07 14:47:07.80	197.36	36.67	-32.5	-34.4	18.7	0.00e+00	0	56	0	1743781888	35	4500
2026-01-07 14:47:08.80	197.58	36.87	-32.5	-34.3	18.8	0.00e+00	0	56	0	1751121920	35	4473
2026-01-07 14:47:09.81	197.80	37.08	-32.5	-34.3	18.9	0.00e+00	0	56	0	1758461952	35	4458
2026-01-07 14:47:10.82	198.02	37.29	-32.5	-34.4	18.8	0.00e+00	0	56	0	1765801984	35	4498
2026-01-07 14:47:11.83	198.24	37.51	-32.4	-34.2	19.0	0.00e+00	0	56	0	1773142016	35	4401
2026-01-07 14:47:12.84	198.47	37.72	-32.5	-34.2	19.0	0.00e+00	0	56	0	1780482048	35	4435
2026-01-07 14:47:13.85	198.70	37.93	-32.5	-34.3	18.9	0.00e+00	0	56	0	1787822080	35	4464
2026-01-07 14:47:14.86	198.93	38.15	-32.6	-34.3	18.9	0.00e+00	0	56	0	1795162112	35	4492
2026-01-07 14:47:15.87	199.17	38.36	-32.6	-34.4	18.9	0.00e+00	0	56	0	1802502144	35	4499
2026-01-07 14:47:16.88	199.41	38.58	-33.4	-35.1	19.0	0.00e+00	0	56	0	1809842176	36	4633
2026-01-07 14:47:17.89	199.65	38.80	-33.5	-35.2	18.9	0.00e+00	0	56	0	1817182208	36	4687
2026-01-07 14:47:18.90	199.89	39.01	-33.5	-35.3	18.9	0.00e+00	0	56	0	1824522240	36	4723
2026-01-07 14:47:19.91	200.14	39.23	-33.6	-35.3	18.7	0.00e+00	0	56	0	1831862272	36	4754
2026-01-07 14:47:20.92	200.40	39.45	-33.6	-35.3	18.7	0.00e+00	0	56	0	1839202304	36	4752
2026-01-07 14:47:21.93	200.65	39.67	-33.7	-35.4	18.6	0.00e+00	0	56	0	1845493760	37	4545
2026-01-07 14:47:22.94	200.91	39.89	-33.4	-35.1	18.9	0.00e+00	0	56	0	1853882368	37	4383
2026-01-07 14:47:23.95	201.17	40.11	-33.3	-35.0	19.0	0.00e+00	0	56	0	1861222400	37	4332
2026-01-07 14:47:24.96	201.44	40.34	-33.3	-35.0	19.1	0.00e+00	0	56	0	1867513856	37	4292
2026-01-07 14:47:25.97	201.71	40.56	-33.2	-34.9	19.2	0.00e+00	0	56	0	1874853888	37	4275
2026-01-07 14:47:26.98	201.98	40.78	-34.0	-35.9	18.1	0.00e+00	0	56	0	1882193920	37	4787
2026-01-07 14:47:27.99	202.26	41.01	-33.2	-34.9	19.3	0.00e+00	0	56	0	1889533952	36	4504
2026-01-07 14:47:29.00	202.54	41.23	-33.3	-35.0	19.2	0.00e+00	0	56	0	1896873984	36	4547
2026-01-07 14:47:30.01	202.82	41.46	-33.3	-35.1	19.1	0.00e+00	0	56	0	1904214016	36	4605
2026-01-07 14:47:31.02	203.11	41.68	-33.3	-35.0	19.1	0.00e+00	0	56	0	1911554048	36	4591
2026-01-07 14:47:32.03	203.40	41.91	-33.5	-35.2	18.9	2.20e-06	0	56	0	1918894080	36	4685
2026-01-07 14:47:33.04	203.70	42.14	-33.5	-35.2	19.0	0.00e+00	0	56	0	1926234112	36	4659
2026-01-07 14:47:34.04	204.00	42.36	-33.5	-35.2	18.9	0.00e+00	0	56	0	1933574144	36	4691
2026-01-07 14:47:35.05	204.30	42.59	-33.6	-35.3	18.8	0.00e+00	0	56	0	1940914176	36	4736
2026-01-07 14:47:36.06	204.61	42.82	-33.6	-35.3	18.9	0.00e+00	0	56	0	1948254208	36	4745
2026-01-07 14:47:37.07	204.93	43.05	-33.5	-35.1	19.0	0.00e+00	0	56	0	1955594240	36	4645
2026-01-07 14:47:38.09	205.25	43.28	-33.5	-35.2	18.9	0.00e+00	0	56	0	1962934272	37	4427
2026-01-07 14:47:39.10	205.57	43.51	-33.6	-35.3	18.8	0.00e+00	0	56	0	1970274304	37	4445
2026-01-07 14:47:40.11	205.90	43.74	-33.7	-35.4	18.7	0.00e+00	0	56	0	1977614336	37	4513
2026-01-07 14:47:41.12	206.23	43.97	-33.6	-35.3	18.8	0.00e+00	0	56	0	1984954368	37	4479
2026-01-07 14:47:42.13	206.57	44.21	-33.7	-35.3	18.8	0.00e+00	0	56	0	1992294400	37	4486
2026-01-07 14:47:43.14	206.91	44.44	-33.5	-35.1	19.1	0.00e+00	0	56	0	1999634432	37	4385
2026-01-07 14:47:44.15	207.25	44.67	-33.5	-35.1	19.2	0.00e+00	0	56	0	2006974464	37	4342
2026-01-07 14:47:45.16	207.61	44.90	-33.5	-35.0	19.3	0.00e+00	0	56	0	2014314496	37	4328
2026-01-07 14:47:46.17	207.96	45.13	-33.7	-35.2	19.1	0.00e+00	0	56	0	2020605952	37	4413
2026-01-07 14:47:47.18	208.33	45.37	-33.7	-35.2	19.1	0.00e+00	0	56	0	2027945984	37	4408
2026-01-07 14:47:48.18	208.69	45.60	-34.0	-35.7	18.7	0.00e+00	0	56	0	2036334592	37	4692
2026-01-07 14:47:49.20	209.06	45.83	-33.9	-35.6	18.7	0.00e+00	0	56	0	2042626048	37	4609
2026-01-07 14:47:50.20	209.44	46.06	-34.5	-35.6	19.3	0.00e+00	0	56	0	2049966080	38	4356
2026-01-07 14:47:51.21	209.82	46.30	-34.5	-35.6	19.3	0.00e+00	0	56	0	2057306112	38	4351
2026-01-07 14:47:52.22	210.21	46.53	-34.6	-35.7	19.2	0.00e+00	0	56	0	2064646144	39	4164
2026-01-07 14:47:53.23	210.61	46.76	-34.8	-36.0	19.0	0.00e+00	0	56	0	2071986176	39	4296
2026-01-07 14:47:54.24	211.01	46.99	-35.0	-36.1	18.8	0.00e+00	0	56	0	2079326208	39	4385
2026-01-07 14:47:55.25	211.41	47.22	-34.9	-36.0	18.9	0.00e+00	0	56	0	2086666240	39	4326
2026-01-07 14:47:56.26	211.83	47.46	-34.8	-35.9	19.0	0.00e+00	0	56	0	2094006272	39	4279
2026-01-07 14:47:57.27	212.25	47.69	-34.7	-35.8	19.0	0.00e+00	0	56	0	2101346304	39	4230
2026-01-07 14:47:58.28	212.67	47.92	-34.4	-35.5	19.3	0.00e+00	0	56	0	2108686336	39	4058
2026-01-07 14:47:59.29	213.10	48.15	-34.9	-36.0	18.8	0.00e+00	0	56	0	2116026368	40	4072
2026-01-07 14:48:00.31	213.54	48.38	-34.8	-35.9	18.9	0.00e+00	0	56	0	2123366400	40	4040
2026-01-07 14:48:01.32	213.99	48.61	-34.9	-36.0	18.8	0.00e+00	0	56	0	2130706432	40	4086
2026-01-07 14:48:02.33	214.44	48.84	-35.0	-36.1	18.6	0.00e+00	0	56	0	2138046464	40	4139
2026-01-07 14:48:03.34	214.90	49.07	-34.9	-36.0	18.8	0.00e+00	0	56	0	2145386496	40	4072
2026-01-07 14:48:04.35	215.36	49.30	-34.8	-35.9	18.8	0.00e+00	0	56	0	2152726528	40	4049
2026-01-07 14:48:05.36	215.83	49.52	-35.0	-36.1	18.7	0.00e+00	0	56	0	2160066560	40	4118
2026-01-07 14:48:06.37	216.31	49.75	-35.2	-36.4	18.5	0.00e+00	0	56	0	2166358016	40	4254
2026-01-07 14:48:07.38	216.80	49.97	-35.4	-36.6	18.2	0.00e+00	0	56	0	2173698048	40	4386
2026-01-07 14:48:08.39	217.29	50.19	-35.5	-36.7	18.1	0.00e+00	0	56	0	2182086656	40	4413
2026-01-07 14:48:09.40	217.79	50.42	-35.2	-36.3	18.5	0.00e+00	0	56	0	2188378112	40	4219
2026-01-07 14:48:10.41	218.29	50.64	-35.3	-36.5	18.3	0.00e+00	0	56	0	2195718144	40	4335
2026-01-07 14:48:11.42	218.81	50.86	-35.1	-36.3	18.5	0.00e+00	0	56	0	2203058176	40	4209
2026-01-07 14:48:12.43	219.33	51.08	-35.1	-36.3	18.5	0.00e+00	0	56	0	2210398208	40	4201
2026-01-07 14:48:13.44	219.86	51.29	-35.2	-36.4	18.5	0.00e+00	0	56	0	2217738240	40	4249
2026-01-07 14:48:14.45	220.40	51.51	-35.5	-36.7	18.2	0.00e+00	0	57	0	2225078272	40	4396
2026-01-07 14:48:15.46	220.94	51.72	-35.4	-36.6	18.2	0.00e+00	0	57	0	2232418304	40	4383
2026-01-07 14:48:16.47	221.49	51.93	-35.5	-36.7	18.2	2.20e-06	0	56	0	2239758336	40	4403
2026-01-07 14:48:17.48	222.05	52.14	-35.4	-36.6	18.3	0.00e+00	0	57	0	2247098368	40	4357
2026-01-07 14:48:18.49	222.62	52.35	-35.2	-36.3	18.4	0.00e+00	0	56	0	2254438400	40	4238
2026-01-07 14:48:19.50	223.20	52.56	-35.2	-36.4	18.5	0.00e+00	0	57	0	2261778432	40	4256
2026-01-07 14:48:20.51	223.78	52.76	-35.0	-36.1	18.7	0.00e+00	0	56	0	2269118464	40	4107
2026-01-07 14:48:21.52	224.37	52.97	-35.1	-36.3	18.5	0.00e+00	0	56	0	2276458496	40	4202
2026-01-07 14:48:22.53	224.97	53.16	-35.3	-36.5	18.4	0.00e+00	0	56	0	2283798528	40	4292
2026-01-07 14:48:23.54	225.58	53.36	-35.5	-36.8	18.1	1.10e-06	0	56	0	2291138560	40	4444
2026-01-07 14:48:24.55	226.20	53.56	-35.3	-36.5	18.3	0.00e+00	0	57	0	2298478592	40	4323
2026-01-07 14:48:25.56	226.82	53.75	-35.1	-36.2	18.6	0.00e+00	0	56	0	2305818624	40	4191
2026-01-07 14:48:26.57	227.45	53.94	-34.7	-35.8	19.0	0.00e+00	0	56	0	2313158656	40	3976
2026-01-07 14:48:27.58	228.10	54.12	-34.7	-35.8	19.0	0.00e+00	0	56	0	2320498688	40	3977
2026-01-07 14:48:28.59	228.74	54.31	-35.0	-36.1	18.7	0.00e+00	0	56	0	2327838720	40	4127
2026-01-07 14:48:29.61	229.41	54.49	-35.1	-36.2	18.5	0.00e+00	0	56	0	2335178752	40	4191
2026-01-07 14:48:30.62	230.07	54.67	-35.1	-36.3	18.6	0.00e+00	0	57	0	2341470208	40	4205
2026-01-07 14:48:31.63	230.75	54.84	-35.1	-36.3	18.6	0.00e+00	0	56	0	2348810240	40	4210
2026-01-07 14:48:32.64	231.43	55.01	-35.1	-36.3	18.6	0.00e+00	0	56	0	2357198848	40	4199
2026-01-07 14:48:33.65	232.12	55.18	-35.4	-36.6	18.2	0.00e+00	0	56	0	2363490304	40	4367
2026-01-07 14:48:34.66	232.82	55.34	-35.3	-36.5	18.4	0.00e+00	0	57	0	2370830336	40	4309
2026-01-07 14:48:35.67	233.53	55.50	-35.1	-36.3	18.5	0.00e+00	0	56	0	2378170368	40	4198
2026-01-07 14:48:36.68	234.24	55.66	-35.2	-36.3	18.5	0.00e+00	0	56	0	2385510400	40	4239
2026-01-07 14:48:37.69	234.96	55.81	-35.4	-36.6	18.2	0.00e+00	0	57	0	2392850432	40	4350
2026-01-07 14:48:38.70	235.69	55.96	-35.7	-36.9	17.9	0.00e+00	0	57	0	2400190464	41	4283
2026-01-07 14:48:39.72	236.44	56.11	-35.5	-36.7	18.1	1.10e-06	0	57	0	2407530496	41	4171
2026-01-07 14:48:40.73	237.18	56.25	-35.2	-36.4	18.4	0.00e+00	0	56	0	2414870528	41	4030
2026-01-07 14:48:41.73	237.93	56.38	-35.0	-36.1	18.7	0.00e+00	0	57	0	2422210560	41	3903
2026-01-07 14:48:42.75	238.69	56.51	-34.9	-36.1	18.8	2.20e-06	0	57	0	2429550592	40	4109
2026-01-07 14:48:43.76	239.46	56.64	-35.0	-36.1	18.7	0.00e+00	0	57	0	2436890624	40	4121
2026-01-07 14:48:44.77	240.23	56.76	-35.2	-36.4	18.4	0.00e+00	0	56	0	2444230656	40	4258
2026-01-07 14:48:45.78	241.01	56.88	-35.7	-36.9	17.9	0.00e+00	0	56	0	2451570688	40	4527
2026-01-07 14:48:46.79	241.80	56.99	-35.6	-36.8	18.0	0.00e+00	0	56	0	2458910720	41	4228
2026-01-07 14:48:47.80	242.59	57.10	-35.5	-36.7	18.1	0.00e+00	0	56	0	2466250752	41	4179
2026-01-07 14:48:48.80	243.38	57.20	-35.2	-36.4	18.4	0.00e+00	0	56	0	2473590784	41	4013
2026-01-07 14:48:49.81	244.19	57.30	-35.0	-36.1	18.8	0.00e+00	0	57	0	2480930816	40	4119
2026-01-07 14:48:50.82	245.00	57.39	-34.8	-35.9	18.8	0.00e+00	0	56	0	2487222272	40	4040
2026-01-07 14:48:51.84	245.82	57.48	-34.9	-36.0	18.8	0.00e+00	0	56	0	2495610880	40	4098
2026-01-07 14:48:52.85	246.64	57.56	-34.9	-36.0	18.8	0.00e+00	0	56	0	2502950912	40	4071
2026-01-07 14:48:53.86	247.47	57.63	-34.8	-35.9	18.8	0.00e+00	0	57	0	2509242368	40	4025
2026-01-07 14:48:54.87	248.30	57.70	-34.6	-35.7	19.1	0.00e+00	0	56	0	2516582400	39	4176
2026-01-07 14:48:55.88	249.13	57.77	-34.7	-35.8	19.1	0.00e+00	0	56	0	2523922432	39	4215
2026-01-07 14:48:56.89	249.97	57.83	-34.8	-35.9	18.9	0.00e+00	0	56	0	2531262464	39	4274
2026-01-07 14:48:57.90	250.81	57.88	-34.9	-36.0	18.9	0.00e+00	0	56	0	2538602496	39	4307
2026-01-07 14:48:58.91	251.65	57.93	-35.0	-36.2	18.7	0.00e+00	0	56	0	2545942528	39	4395
2026-01-07 14:48:59.92	252.50	57.97	-35.3	-36.5	18.3	0.00e+00	0	56	0	2553282560	40	4314
2026-01-07 14:49:00.93	253.35	58.01	-35.3	-36.5	18.3	0.00e+00	0	56	0	2560622592	40	4332
2026-01-07 14:49:01.94	254.20	58.04	-35.2	-36.4	18.4	0.00e+00	0	56	0	2567962624	40	4253
2026-01-07 14:49:02.95	255.06	58.07	-35.2	-36.4	18.4	0.00e+00	0	56	0	2575302656	40	4266
2026-01-07 14:49:03.96	255.91	58.08	-35.3	-36.5	18.3	0.00e+00	0	57	0	2582642688	40	4326
2026-01-07 14:49:04.97	256.77	58.10	-35.5	-36.7	18.1	0.00e+00	0	57	0	2589982720	40	4436
2026-01-07 14:49:05.98	257.62	58.10	-35.2	-36.3	18.5	0.00e+00	0	56	0	2597322752	40	4223
2026-01-07 14:49:06.99	258.48	58.11	-35.2	-36.3	18.5	0.00e+00	0	57	0	2604662784	40	4223
2026-01-07 14:49:08.00	259.34	58.10	-35.1	-36.2	18.6	0.00e+00	0	56	0	2612002816	40	4179
2026-01-07 14:49:09.01	260.19	58.09	-35.0	-36.1	18.6	0.00e+00	0	56	0	2619342848	40	4140
2026-01-07 14:49:10.02	261.05	58.07	-34.9	-36.0	18.8	0.00e+00	0	56	0	2626682880	40	4067
2026-01-07 14:49:11.03	261.90	58.05	-34.8	-35.9	18.9	0.00e+00	0	56	0	2634022912	40	4023
2026-01-07 14:49:12.04	262.75	58.02	-34.9	-36.0	18.7	0.00e+00	0	57	0	2641362944	40	4062
2026-01-07 14:49:13.04	263.60	57.99	-35.0	-36.2	18.6	0.00e+00	0	57	0	2648702976	40	4155
2026-01-07 14:49:14.05	264.44	57.95	-35.2	-36.4	18.4	0.00e+00	0	57	0	2656043008	40	4268
2026-01-07 14:49:15.06	265.29	57.90	-35.1	-36.3	18.5	0.00e+00	0	57	0	2662334464	40	4196
2026-01-07 14:49:16.07	266.13	57.85	-35.0	-36.1	18.7	0.00e+00	0	57	0	2669674496	40	4132
2026-01-07 14:49:17.08	266.97	57.79	-34.9	-36.0	18.7	0.00e+00	0	57	0	2677014528	40	4087
2026-01-07 14:49:18.09	267.80	57.73	-34.8	-35.9	18.9	0.00e+00	0	56	0	2684354560	40	4037
2026-01-07 14:49:19.10	268.64	57.66	-35.0	-36.1	18.6	0.00e+00	0	56	0	2691694592	40	4140
2026-01-07 14:49:20.11	269.46	57.59	-35.3	-36.5	18.3	0.00e+00	0	57	0	2699034624	40	4318
2026-01-07 14:49:21.12	270.28	57.51	-35.4	-36.6	18.3	0.00e+00	0	56	0	2706374656	40	4347
2026-01-07 14:49:22.14	271.11	57.43	-35.2	-36.4	18.4	0.00e+00	0	56	0	2713714688	40	4244
2026-01-07 14:49:23.15	271.92	57.34	-34.9	-36.0	18.8	0.00e+00	0	57	0	2721054720	40	4091
2026-01-07 14:49:24.16	272.73	57.24	-34.8	-35.9	18.9	0.00e+00	0	57	0	2728394752	40	4028
2026-01-07 14:49:25.17	273.53	57.14	-34.9	-36.1	18.7	0.00e+00	0	56	0	2735734784	40	4105
2026-01-07 14:49:26.18	274.32	57.04	-35.1	-36.3	18.6	0.00e+00	0	57	0	2743074816	40	4203
2026-01-07 14:49:27.19	275.11	56.93	-35.1	-36.2	18.6	0.00e+00	0	57	0	2750414848	40	4189
2026-01-07 14:49:28.20	275.89	56.81	-35.1	-36.3	18.5	0.00e+00	0	56	0	2757754880	40	4203
2026-01-07 14:49:29.21	276.67	56.69	-35.2	-36.3	18.5	0.00e+00	0	57	0	2765094912	40	4222
2026-01-07 14:49:30.22	277.44	56.57	-35.0	-36.1	18.7	0.00e+00	0	56	0	2772434944	40	4128
2026-01-07 14:49:31.23	278.20	56.44	-35.0	-36.1	18.7	0.00e+00	0	56	0	2779774976	40	4109
2026-01-07 14:49:32.24	278.95	56.30	-35.0	-36.1	18.7	0.00e+00	0	57	0	2787115008	40	4118
2026-01-07 14:49:33.25	279.70	56.17	-35.4	-36.5	18.3	0.00e+00	0	57	0	2794455040	40	4336
2026-01-07 14:49:34.26	280.44	56.02	-35.6	-36.8	18.0	0.00e+00	0	57	0	2801795072	40	4486
2026-01-07 14:49:35.27	281.17	55.88	-35.7	-36.9	17.9	0.00e+00	0	57	0	2808086528	41	4257
2026-01-07 14:49:36.28	281.89	55.73	-35.3	-36.5	18.2	0.00e+00	0	56	0	2815426560	41	4075
2026-01-07 14:49:37.29	282.61	55.57	-35.2	-36.4	18.5	0.00e+00	0	57	0	2823815168	41	4008
2026-01-07 14:49:38.30	283.32	55.41	-35.0	-36.1	18.7	0.00e+00	0	57	0	2830106624	41	3909
2026-01-07 14:49:39.31	284.02	55.25	-35.0	-36.1	18.7	0.00e+00	0	57	0	2837446656	40	4138
2026-01-07 14:49:40.32	284.71	55.09	-35.0	-36.1	18.6	0.00e+00	0	56	0	2844786688	40	4134
2026-01-07 14:49:41.34	285.40	54.92	-35.2	-36.4	18.3	0.00e+00	0	56	0	2852126720	40	4254
2026-01-07 14:49:42.34	286.07	54.75	-35.5	-36.7	18.1	0.00e+00	0	57	0	2859466752	40	4437
2026-01-07 14:49:43.35	286.74	54.57	-35.8	-37.0	17.8	0.00e+00	0	57	0	2866806784	41	4324
2026-01-07 14:49:44.36	287.40	54.39	-35.6	-36.8	18.0	0.00e+00	0	56	0	2874146816	41	4210
2026-01-07 14:49:45.37	288.05	54.21	-35.4	-36.5	18.1	0.00e+00	0	56	0	2881486848	41	4094
2026-01-07 14:49:46.38	288.70	54.03	-35.2	-36.4	18.4	0.00e+00	0	57	0	2888826880	41	4017
2026-01-07 14:49:47.39	289.33	53.84	-35.2	-36.3	18.4	0.00e+00	0	57	0	2896166912	41	3997
2026-01-07 14:49:48.40	289.96	53.65	-35.3	-36.4	18.4	0.00e+00	0	57	0	2903506944	41	4049
2026-01-07 14:49:49.41	290.58	53.45	-35.4	-36.6	18.3	0.00e+00	0	57	0	2910846976	41	4100
2026-01-07 14:49:50.42	291.19	53.26	-35.3	-36.4	18.4	0.00e+00	0	57	0	2918187008	41	4049
2026-01-07 14:49:51.43	291.79	53.06	-35.0	-36.1	18.7	0.00e+00	0	57	0	2925527040	40	4103
2026-01-07 14:49:52.44	292.38	52.86	-35.0	-36.1	18.7	0.00e+00	0	56	0	2932867072	40	4138
2026-01-07 14:49:53.45	292.97	52.66	-35.0	-36.1	18.7	0.00e+00	0	57	0	2940207104	40	4130
2026-01-07 14:49:54.46	293.55	52.45	-35.1	-36.2	18.6	0.00e+00	0	57	0	2947547136	40	4176
2026-01-07 14:49:55.47	294.12	52.25	-35.2	-36.3	18.5	0.00e+00	0	57	0	2954887168	40	4231
2026-01-07 14:49:56.48	294.68	52.04	-35.3	-36.5	18.3	0.00e+00	0	57	0	2961178624	40	4319
2026-01-07 14:49:57.49	295.24	51.83	-35.3	-36.5	18.3	0.00e+00	0	57	0	2969567232	40	4304
2026-01-07 14:49:58.50	295.78	51.62	-35.1	-36.3	18.6	0.00e+00	0	57	0	2976907264	40	4212
2026-01-07 14:49:59.51	296.32	51.40	-35.0	-36.1	18.6	0.00e+00	0	57	0	2983198720	40	4109
2026-01-07 14:50:00.52	296.85	51.19	-35.1	-36.3	18.5	0.00e+00	0	57	0	2990538752	40	4194
2026-01-07 14:50:01.53	297.38	50.97	-35.4	-36.6	18.2	0.00e+00	0	56	0	2997878784	40	4377
2026-01-07 14:50:02.54	297.89	50.75	-35.7	-37.0	17.8	0.00e+00	0	57	0	3005218816	41	4305
2026-01-07 14:50:03.55	298.40	50.53	-35.6	-36.8	18.0	0.00e+00	0	57	0	3012558848	41	4226
2026-01-07 14:50:04.56	298.91	50.31	-35.3	-36.5	18.3	0.00e+00	0	57	0	3019898880	41	4082
2026-01-07 14:50:05.58	299.40	50.09	-35.1	-36.3	18.5	0.00e+00	0	57	0	3027238912	41	3970
2026-01-07 14:50:06.59	299.89	49.86	-35.2	-36.3	18.3	0.00e+00	0	57	0	3034578944	41	3982
2026-01-07 14:50:07.60	300.37	49.64	-35.3	-36.5	18.3	0.00e+00	0	57	0	3041918976	41	4066
2026-01-07 14:50:08.61	300.85	49.41	-35.4	-36.6	18.3	0.00e+00	0	57	0	3049259008	41	4101
2026-01-07 14:50:09.62	301.31	49.19	-35.2	-36.3	18.5	0.00e+00	0	57	0	3056599040	41	3985
2026-01-07 14:50:10.63	301.77	48.96	-34.9	-36.0	18.7	0.00e+00	0	57	0	3063939072	40	4090
2026-01-07 14:50:11.64	302.22	48.73	-34.7	-35.8	19.0	0.00e+00	0	57	0	3071279104	40	3962
2026-01-07 14:50:12.64	302.67	48.51	-34.6	-35.6	19.1	0.00e+00	0	57	0	3078619136	40	3906
2026-01-07 14:50:13.65	303.11	48.28	-34.6	-35.7	19.2	0.00e+00	0	57	0	3085959168	40	3914
2026-01-07 14:50:14.66	303.54	48.05	-34.7	-35.8	19.0	0.00e+00	0	57	0	3093299200	40	3970
2026-01-07 14:50:15.67	303.97	47.82	-34.7	-35.9	19.0	0.00e+00	0	57	0	3100639232	40	4012
2026-01-07 14:50:16.68	304.39	47.59	-34.9	-36.0	18.8	0.00e+00	0	57	0	3107979264	40	4071
2026-01-07 14:50:17.69	304.80	47.36	-35.0	-36.1	18.6	0.00e+00	0	57	0	3115319296	40	4142
2026-01-07 14:50:18.70	305.21	47.13	-35.1	-36.3	18.5	0.00e+00	0	57	0	3122659328	40	4209
2026-01-07 14:50:19.71	305.61	46.90	-34.9	-36.0	18.8	0.00e+00	0	57	0	3128950784	40	4087
2026-01-07 14:50:20.72	306.01	46.67	-34.6	-35.7	19.1	0.00e+00	0	57	0	3136290816	40	3921
2026-01-07 14:50:21.73	306.40	46.43	-34.4	-35.5	19.4	0.00e+00	0	57	0	3143630848	39	4060
2026-01-07 14:50:22.74	306.79	46.20	-34.2	-35.3	19.6	0.00e+00	0	57	0	3150970880	39	3959
2026-01-07 14:50:23.75	307.17	45.97	-34.1	-35.2	19.7	0.00e+00	0	57	0	3158310912	39	3920
2026-01-07 14:50:24.76	307.54	45.74	-34.0	-35.1	19.8	0.00e+00	0	57	0	3165650944	39	3878
2026-01-07 14:50:25.77	307.91	45.51	-33.9	-34.9	19.6	0.00e+00	0	56	0	3172990976	38	4026
2026-01-07 14:50:26.78	308.27	45.28	-33.8	-34.8	20.1	0.00e+00	0	57	0	3180331008	38	3975
2026-01-07 14:50:27.79	308.63	45.05	-33.8	-34.8	20.1	0.00e+00	0	57	0	3187671040	38	3968
2026-01-07 14:50:28.80	308.99	44.81	-33.8	-34.8	20.0	0.00e+00	0	57	0	3195011072	38	3996
2026-01-07 14:50:29.81	309.33	44.58	-34.0	-35.1	19.8	0.00e+00	0	57	0	3202351104	38	4111
2026-01-07 14:50:30.82	309.68	44.35	-34.2	-35.3	19.3	0.00e+00	0	57	0	3209691136	38	4195
2026-01-07 14:50:31.83	310.02	44.12	-34.4	-35.5	19.3	0.00e+00	0	57	0	3217031168	38	4330
2026-01-07 14:50:32.84	310.35	43.89	-34.4	-35.5	19.4	0.00e+00	0	57	0	3224371200	38	4297
2026-01-07 14:50:33.85	310.68	43.66	-34.3	-35.4	19.4	0.00e+00	0	57	0	3231711232	38	4274
2026-01-07 14:50:34.86	311.00	43.43	-34.2	-35.2	19.6	0.00e+00	0	57	0	3239051264	38	4193
2026-01-07 14:50:35.87	311.32	43.20	-34.2	-35.2	19.6	0.00e+00	0	57	0	3246391296	38	4175
2026-01-07 14:50:36.88	311.64	42.97	-34.1	-35.1	19.7	0.00e+00	0	57	0	3253731328	38	4125
2026-01-07 14:50:37.89	311.95	42.75	-33.9	-34.9	19.9	0.00e+00	0	57	0	3261071360	38	4051
2026-01-07 14:50:38.90	312.25	42.52	-34.0	-35.0	19.8	0.00e+00	0	57	0	3268411392	38	4082
2026-01-07 14:50:39.91	312.56	42.29	-34.0	-35.0	19.8	0.00e+00	0	57	0	3275751424	38	4067
2026-01-07 14:50:40.92	312.85	42.06	-34.1	-35.2	19.6	0.00e+00	0	57	0	3282042880	38	4146
2026-01-07 14:50:41.93	313.15	41.84	-34.3	-35.3	19.4	0.00e+00	0	57	0	3289382912	38	4230
2026-01-07 14:50:42.94	313.44	41.61	-34.4	-35.4	19.4	0.00e+00	0	57	0	3297771520	38	4284
2026-01-07 14:50:43.95	313.72	41.39	-34.4	-35.5	19.3	0.00e+00	0	57	0	3304062976	38	4298
2026-01-07 14:50:44.96	314.01	41.16	-34.3	-35.3	19.5	0.00e+00	0	57	0	3311403008	38	4232
2026-01-07 14:50:45.97	314.29	40.94	-34.2	-35.2	19.6	0.00e+00	0	57	0	3318743040	38	4182
2026-01-07 14:50:46.98	314.56	40.72	-34.1	-35.2	19.7	0.00e+00	0	57	0	3326083072	38	4146
2026-01-07 14:50:47.99	314.83	40.50	-34.0	-35.1	19.8	0.00e+00	0	57	0	3333423104	38	4099
2026-01-07 14:50:49.00	315.10	40.27	-34.0	-35.0	19.8	0.00e+00	0	57	0	3340763136	38	4075
2026-01-07 14:50:50.01	315.36	40.05	-33.9	-35.0	19.8	0.00e+00	0	57	0	3348103168	38	4069
2026-01-07 14:50:51.02	315.62	39.83	-34.0	-35.0	19.8	0.00e+00	0	57	0	3355443200	38	4079
2026-01-07 14:50:52.03	315.88	39.61	-33.9	-35.0	19.7	0.00e+00	0	57	0	3362783232	38	4066
2026-01-07 14:50:53.04	316.13	39.39	-33.9	-34.9	19.9	0.00e+00	0	57	0	3370123264	38	4048
2026-01-07 14:50:54.05	316.38	39.18	-33.9	-34.9	19.9	0.00e+00	0	57	0	3377463296	38	4026
2026-01-07 14:50:55.06	316.63	38.96	-33.9	-34.9	19.9	0.00e+00	0	57	0	3384803328	38	4017
2026-01-07 14:50:56.07	316.87	38.74	-33.9	-35.0	19.8	0.00e+00	0	57	0	3392143360	38	4061
2026-01-07 14:50:57.08	317.11	38.53	-34.1	-35.2	19.6	0.00e+00	0	57	0	3399483392	38	4148
2026-01-07 14:50:58.09	317.35	38.31	-34.1	-35.2	19.6	0.00e+00	0	57	0	3406823424	38	4151
2026-01-07 14:50:59.10	317.58	38.10	-34.1	-35.2	19.6	0.00e+00	0	57	0	3414163456	38	4157
2026-01-07 14:51:00.11	317.82	37.89	-34.1	-35.2	19.6	0.00e+00	0	57	0	3421503488	38	4172
2026-01-07 14:51:01.12	318.04	37.68	-34.1	-35.1	19.7	0.00e+00	0	57	0	3427794944	38	4131
2026-01-07 14:51:02.13	318.27	37.46	-34.1	-35.1	19.6	0.00e+00	0	57	0	3435134976	38	4120
2026-01-07 14:51:03.14	318.49	37.25	-33.9	-35.0	19.8	0.00e+00	0	57	0	3443523584	38	4058
2026-01-07 14:51:04.15	318.71	37.04	-33.8	-34.9	19.9	0.00e+00	0	57	0	3449815040	38	4010
2026-01-07 14:51:05.16	318.93	36.84	-33.8	-34.9	19.9	0.00e+00	0	57	0	3457155072	38	4005
2026-01-07 14:51:06.17	319.14	36.63	-33.7	-34.7	20.1	0.00e+00	0	57	0	3464495104	38	3944
2026-01-07 14:51:07.18	319.35	36.42	-33.6	-34.6	20.2	0.00e+00	0	57	0	3471835136	38	3881
2026-01-07 14:51:08.20	319.57	36.21	-33.5	-34.5	20.3	0.00e+00	0	57	0	3479175168	38	3842
2026-01-07 14:51:09.21	319.77	36.01	-33.4	-34.4	20.4	0.00e+00	0	57	0	3486515200	37	4013
2026-01-07 14:51:10.22	319.98	35.81	-33.3	-34.3	20.4	0.00e+00	0	57	0	3493855232	37	3981
2026-01-07 14:51:11.23	320.18	35.60	-33.4	-34.4	20.4	0.00e+00	0	57	0	3501195264	37	4005
2026-01-07 14:51:12.24	320.38	35.40	-33.4	-34.4	20.4	0.00e+00	0	57	0	3508535296	37	4010
2026-01-07 14:51:13.25	320.57	35.20	-33.4	-34.4	20.4	0.00e+00	0	57	0	3515875328	37	4025
2026-01-07 14:51:14.26	320.77	35.00	-33.4	-34.5	20.3	0.00e+00	0	57	0	3523215360	37	4053
2026-01-07 14:51:15.27	320.96	34.80	-33.5	-34.6	20.2	0.00e+00	0	57	0	3530555392	37	4102
2026-01-07 14:51:16.28	321.15	34.60	-33.6	-34.6	20.1	0.00e+00	0	57	0	3537895424	37	4119
2026-01-07 14:51:17.29	321.34	34.40	-33.7	-34.7	20.0	0.00e+00	0	57	0	3545235456	37	4185
2026-01-07 14:51:18.30	321.52	34.21	-33.8	-34.9	19.9	0.00e+00	0	57	0	3552575488	37	4258
2026-01-07 14:51:19.31	321.70	34.01	-33.9	-35.0	19.8	0.00e+00	0	57	0	3559915520	37	4321
2026-01-07 14:51:20.32	321.89	33.82	-34.1	-35.1	19.6	0.00e+00	0	57	0	3567255552	37	4377
2026-01-07 14:51:21.33	322.06	33.62	-34.1	-35.2	19.6	0.00e+00	0	57	0	3574595584	37	4399
2026-01-07 14:51:22.34	322.24	33.43	-34.1	-35.1	19.6	0.00e+00	0	57	0	3581935616	37	4376
2026-01-07 14:51:23.35	322.42	33.24	-34.0	-35.1	19.6	0.00e+00	0	57	0	3589275648	37	4349
2026-01-07 14:51:24.36	322.59	33.05	-34.0	-35.0	19.7	0.00e+00	0	57	0	3596615680	37	4316
2026-01-07 14:51:25.37	322.76	32.86	-33.9	-34.9	19.8	0.00e+00	0	57	0	3602907136	37	4274
2026-01-07 14:51:26.38	322.93	32.67	-33.7	-34.7	19.9	0.00e+00	0	57	0	3610247168	37	4189
2026-01-07 14:51:27.39	323.10	32.48	-33.6	-34.6	20.1	0.00e+00	0	57	0	3618635776	37	4126
2026-01-07 14:51:28.40	323.26	32.29	-33.5	-34.5	20.2	0.00e+00	0	57	0	3624927232	37	4080
2026-01-07 14:51:29.41	323.42	32.11	-33.4	-34.4	20.3	0.00e+00	0	57	0	3632267264	37	4028
2026-01-07 14:51:30.42	323.58	31.92	-33.4	-34.4	20.3	0.00e+00	0	57	0	3639607296	37	4045
2026-01-07 14:51:31.43	323.74	31.74	-33.4	-34.4	20.3	0.00e+00	0	57	0	3646947328	37	4035
2026-01-07 14:51:32.44	323.90	31.55	-33.4	-34.4	20.3	0.00e+00	0	57	0	3654287360	37	4043
2026-01-07 14:51:33.45	324.06	31.37	-33.4	-34.4	20.2	0.00e+00	0	57	0	3661627392	37	4036
2026-01-07 14:51:34.46	324.21	31.19	-33.5	-34.6	20.1	0.00e+00	0	57	0	3668967424	37	4099
2026-01-07 14:51:35.47	324.37	31.01	-33.6	-34.6	20.1	0.00e+00	0	57	0	3676307456	37	4139
2026-01-07 14:51:36.48	324.52	30.83	-33.6	-34.6	20.0	0.00e+00	0	57	0	3683647488	37	4117
2026-01-07 14:51:37.49	324.67	30.65	-33.6	-34.7	20.0	0.00e+00	0	57	0	3690987520	37	4149
2026-01-07 14:51:38.50	324.81	30.47	-33.6	-34.7	20.0	0.00e+00	0	57	0	3698327552	37	4157
2026-01-07 14:51:39.51	324.96	30.29	-33.7	-34.7	19.9	0.00e+00	0	56	0	3705667584	37	4188
2026-01-07 14:51:40.53	325.11	30.11	-33.8	-34.8	19.9	0.00e+00	0	57	0	3713007616	37	4218
2026-01-07 14:51:41.54	325.25	29.94	-33.8	-34.8	19.8	0.00e+00	0	57	0	3720347648	37	4224
2026-01-07 14:51:42.55	325.39	29.76	-33.9	-34.9	19.8	0.00e+00	0	57	0	3727687680	37	4287
2026-01-07 14:51:43.56	325.53	29.59	-34.0	-35.0	19.6	0.00e+00	0	57	0	3735027712	37	4323
2026-01-07 14:51:44.57	325.67	29.42	-34.0	-35.1	19.6	0.00e+00	0	57	0	3742367744	37	4364
2026-01-07 14:51:45.57	325.81	29.25	-34.0	-35.1	19.5	0.00e+00	0	57	0	3748659200	37	4369
2026-01-07 14:51:46.58	325.94	29.08	-34.1	-35.2	19.5	0.00e+00	0	57	0	3755999232	37	4420
2026-01-07 14:51:47.59	326.08	28.91	-34.2	-35.3	19.4	0.00e+00	0	57	0	3764387840	37	4446
2026-01-07 14:51:48.61	326.21	28.74	-34.2	-35.2	19.5	0.00e+00	0	57	0	3770679296	37	4439
2026-01-07 14:51:49.62	326.34	28.57	-34.2	-35.3	19.4	0.00e+00	0	57	0	3778019328	37	4449
2026-01-07 14:51:50.63	326.47	28.40	-34.2	-35.2	19.5	0.00e+00	0	57	0	3785359360	37	4435
2026-01-07 14:51:51.64	326.60	28.23	-34.1	-35.2	19.5	0.00e+00	0	57	0	3792699392	37	4403
2026-01-07 14:51:52.65	326.73	28.07	-34.1	-35.2	19.5	0.00e+00	0	57	0	3800039424	37	4401
2026-01-07 14:51:53.65	326.86	27.90	-34.1	-35.2	19.4	0.00e+00	0	57	0	3807379456	37	4423
2026-01-07 14:51:54.66	326.98	27.74	-34.0	-35.1	19.5	0.00e+00	0	57	0	3814719488	37	4368
2026-01-07 14:51:55.67	327.11	27.58	-34.0	-35.1	19.6	0.00e+00	0	57	0	3822059520	37	4352
2026-01-07 14:51:56.69	327.23	27.41	-34.0	-35.1	19.6	0.00e+00	0	57	0	3829399552	37	4344
2026-01-07 14:51:57.69	327.35	27.25	-34.0	-35.1	19.6	0.00e+00	0	57	0	3836739584	37	4348
2026-01-07 14:51:58.71	327.47	27.09	-34.0	-35.0	19.6	0.00e+00	0	57	0	3844079616	37	4323
2026-01-07 14:51:59.72	327.59	26.93	-33.9	-35.0	19.7	0.00e+00	0	57	0	3851419648	37	4311
2026-01-07 14:52:00.73	327.71	26.77	-33.9	-35.0	19.7	0.00e+00	0	57	0	3858759680	37	4292
2026-01-07 14:52:01.74	327.83	26.61	-33.9	-34.9	19.7	0.00e+00	0	57	0	3866099712	37	4289
2026-01-07 14:52:02.75	327.94	26.46	-33.9	-35.0	19.7	0.00e+00	0	57	0	3873439744	37	4298
2026-01-07 14:52:03.76	328.06	26.30	-33.9	-34.9	19.7	0.00e+00	0	57	0	3880779776	37	4271
2026-01-07 14:52:04.77	328.17	26.14	-33.9	-34.9	19.7	0.00e+00	0	57	0	3888119808	37	4267
2026-01-07 14:52:05.78	328.29	25.99	-33.9	-34.9	19.7	0.00e+00	0	57	0	3895459840	37	4278
2026-01-07 14:52:06.79	328.40	25.83	-33.8	-34.9	19.8	0.00e+00	0	57	0	3902799872	37	4243
2026-01-07 14:52:07.80	328.51	25.68	-33.9	-34.9	19.7	0.00e+00	0	57	0	3910139904	37	4287
2026-01-07 14:52:08.81	328.62	25.53	-33.9	-34.9	19.7	0.00e+00	0	57	0	3917479936	37	4261
2026-01-07 14:52:09.82	328.73	25.37	-33.9	-34.9	19.7	0.00e+00	0	57	0	3923771392	37	4280
2026-01-07 14:52:10.83	328.83	25.22	-34.0	-35.0	19.6	0.00e+00	0	57	0	3931111424	37	4326
2026-01-07 14:52:11.84	328.94	25.07	-33.9	-35.0	19.6	0.00e+00	0	57	0	3939500032	37	4310
2026-01-07 14:52:12.85	329.05	24.92	-34.0	-35.0	19.6	0.00e+00	0	57	0	3945791488	37	4328
2026-01-07 14:52:13.86	329.15	24.77	-34.0	-35.1	19.6	0.00e+00	0	57	0	3953131520	37	4346
2026-01-07 14:52:14.87	329.25	24.63	-34.0	-35.1	19.4	0.00e+00	0	57	0	3960471552	37	4369
2026-01-07 14:52:15.88	329.36	24.48	-34.0	-35.0	19.5	0.00e+00	0	57	0	3967811584	37	4336
2026-01-07 14:52:16.89	329.46	24.33	-34.0	-35.1	19.4	0.00e+00	0	57	0	3975151616	37	4368
2026-01-07 14:52:17.90	329.56	24.19	-34.1	-35.1	19.5	0.00e+00	0	57	0	3982491648	37	4378
2026-01-07 14:52:18.91	329.66	24.04	-34.1	-35.2	19.4	0.00e+00	0	57	0	3989831680	37	4400
2026-01-07 14:52:19.92	329.76	23.90	-34.1	-35.2	19.3	0.00e+00	0	57	0	3997171712	37	4409
2026-01-07 14:52:20.93	329.86	23.75	-34.2	-35.2	19.3	0.00e+00	0	57	0	4004511744	37	4440
2026-01-07 14:52:21.95	329.96	23.61	-34.2	-35.3	19.3	0.00e+00	0	57	0	4011851776	38	4221
2026-01-07 14:52:22.95	330.05	23.47	-34.3	-35.4	19.3	0.00e+00	0	57	0	4019191808	38	4244
2026-01-07 14:52:23.96	330.15	23.33	-34.3	-35.4	19.1	0.00e+00	0	57	0	4026531840	38	4288
2026-01-07 14:52:24.97	330.24	23.18	-34.3	-35.4	19.1	0.00e+00	0	57	0	4033871872	38	4274
2026-01-07 14:52:25.98	330.34	23.04	-34.4	-35.5	19.1	0.00e+00	0	57	0	4041211904	38	4304
2026-01-07 14:52:26.99	330.43	22.90	-34.4	-35.6	19.0	0.00e+00	0	57	0	4048551936	38	4345
2026-01-07 14:52:28.00	330.52	22.77	-34.5	-35.6	19.0	0.00e+00	0	57	0	4055891968	38	4341
2026-01-07 14:52:29.01	330.62	22.63	-34.5	-35.6	18.9	0.00e+00	0	57	0	4063232000	38	4361
2026-01-07 14:52:30.02	330.71	22.49	-34.5	-35.6	19.0	0.00e+00	0	57	0	4069523456	38	4352
2026-01-07 14:52:31.03	330.80	22.35	-34.5	-35.6	19.0	0.00e+00	0	57	0	4076863488	38	4369
2026-01-07 14:52:32.04	330.89	22.22	-34.5	-35.6	19.0	0.00e+00	0	57	0	4085252096	38	4346
2026-01-07 14:52:33.05	330.98	22.08	-34.4	-35.6	19.0	0.00e+00	0	57	0	4091543552	38	4341
2026-01-07 14:52:34.06	331.06	21.95	-34.4	-35.5	19.0	0.00e+00	0	57	0	4098883584	38	4333
2026-01-07 14:52:35.07	331.15	21.81	-34.4	-35.5	19.0	0.00e+00	0	57	0	4106223616	38	4331
2026-01-07 14:52:36.08	331.24	21.68	-34.4	-35.5	19.0	0.00e+00	0	57	0	4113563648	38	4314
2026-01-07 14:52:37.09	331.32	21.55	-34.4	-35.5	19.0	0.00e+00	0	57	0	4120903680	38	4334
2026-01-07 14:52:38.10	331.41	21.41	-34.4	-35.5	19.0	0.00e+00	0	57	0	4128243712	38	4335
2026-01-07 14:52:39.11	331.49	21.28	-34.5	-35.6	19.0	0.00e+00	0	57	0	4135583744	38	4343
2026-01-07 14:52:40.12	331.58	21.15	-34.5	-35.5	19.0	0.00e+00	0	57	0	4142923776	38	4338
2026-01-07 14:52:41.13	331.66	21.02	-34.5	-35.6	18.9	0.00e+00	0	57	0	4150263808	38	4379
2026-01-07 14:52:42.14	331.74	20.89	-34.5	-35.6	18.9	0.00e+00	0	57	0	4157603840	38	4378
2026-01-07 14:52:43.15	331.83	20.76	-34.6	-35.7	18.8	0.00e+00	0	57	0	4164943872	38	4406
2026-01-07 14:52:44.16	331.91	20.63	-34.6	-35.7	18.8	0.00e+00	0	57	0	4172283904	38	4414
2026-01-07 14:52:45.17	331.99	20.50	-34.6	-35.8	18.7	0.00e+00	0	57	0	4179623936	38	4455
2026-01-07 14:52:46.18	332.07	20.38	-34.6	-35.8	18.7	0.00e+00	0	57	0	4186963968	38	4454
2026-01-07 14:52:47.19	332.15	20.25	-34.7	-35.8	18.6	0.00e+00	0	57	0	4194304000	38	4483
2026-01-07 14:52:48.20	332.22	20.12	-34.7	-35.9	18.6	0.00e+00	0	57	0	4201644032	39	4251
2026-01-07 14:52:49.21	332.30	20.00	-34.7	-35.9	18.6	0.00e+00	0	57	0	4208984064	39	4252
2026-01-07 14:52:50.22	332.38	19.87	-34.8	-36.0	18.5	0.00e+00	0	57	0	4216324096	39	4294
2026-01-07 14:52:51.23	332.46	19.75	-34.8	-36.0	18.5	0.00e+00	0	57	0	4222615552	39	4304
2026-01-07 14:52:52.24	332.53	19.63	-34.8	-36.0	18.5	0.00e+00	0	57	0	4231004160	39	4300
2026-01-07 14:52:53.25	332.61	19.50	-34.8	-36.0	18.4	0.00e+00	0	57	0	4238344192	39	4310
2026-01-07 14:52:54.26	332.68	19.38	-35.0	-36.1	18.3	0.00e+00	0	57	0	4244635648	39	4384
2026-01-07 14:52:55.27	332.76	19.26	-34.9	-36.1	18.3	0.00e+00	0	57	0	4251975680	39	4346
2026-01-07 14:52:56.28	332.83	19.14	-35.0	-36.1	18.3	0.00e+00	0	57	0	4260364288	39	4375
2026-01-07 14:52:57.30	332.91	19.01	-35.1	-36.2	18.2	0.00e+00	0	57	0	4266655744	39	4437
2026-01-07 14:52:58.31	332.98	18.89	-35.0	-36.2	18.2	0.00e+00	0	57	0	4273995776	39	4427
2026-01-07 14:52:59.32	333.05	18.77	-35.1	-36.2	18.2	0.00e+00	0	57	0	4281335808	39	4435
2026-01-07 14:53:00.33	333.13	18.65	-35.2	-36.4	17.9	0.00e+00	0	57	0	4288675840	39	4498
2026-01-07 14:53:01.34	333.20	18.54	-35.1	-36.3	18.1	0.00e+00	0	57	0	4296015872	39	4442
2026-01-07 14:53:02.35	333.27	18.42	-35.1	-36.3	18.1	0.00e+00	0	57	0	4303355904	39	4479
2026-01-07 14:53:03.36	333.34	18.30	-35.2	-36.3	18.0	0.00e+00	0	57	0	4310695936	39	4490
2026-01-07 14:53:04.37	333.41	18.18	-35.1	-36.3	18.0	0.00e+00	0	57	0	4318035968	39	4485
2026-01-07 14:53:05.38	333.48	18.07	-35.2	-36.4	18.0	0.00e+00	0	57	0	4325376000	39	4513
2026-01-07 14:53:06.39	333.55	17.95	-35.1	-36.3	18.0	0.00e+00	0	57	0	4332716032	39	4464
2026-01-07 14:53:07.40	333.61	17.83	-35.1	-36.3	17.9	0.00e+00	0	57	0	4340056064	40	4229
2026-01-07 14:53:08.41	333.68	17.72	-35.1	-36.4	17.9	0.00e+00	0	57	0	4347396096	40	4244
2026-01-07 14:53:09.42	333.75	17.60	-35.1	-36.3	17.9	0.00e+00	0	57	0	4354736128	40	4242
2026-01-07 14:53:10.43	333.82	17.49	-35.2	-36.4	17.8	0.00e+00	0	57	0	4362076160	40	4275
2026-01-07 14:53:11.44	333.88	17.38	-35.2	-36.4	17.8	0.00e+00	0	57	0	4369416192	40	4270
2026-01-07 14:53:12.45	333.95	17.26	-35.2	-36.4	17.9	0.00e+00	0	57	0	4376756224	40	4252
2026-01-07 14:53:13.46	334.01	17.15	-35.2	-36.5	17.7	0.00e+00	0	57	0	4384096256	40	4302
2026-01-07 14:53:14.47	334.08	17.04	-35.2	-36.4	17.8	0.00e+00	0	57	0	4390387712	40	4254
2026-01-07 14:53:15.48	334.14	16.93	-35.2	-36.4	17.8	0.00e+00	0	57	0	4397727744	40	4266
2026-01-07 14:53:16.49	334.21	16.81	-35.2	-36.4	17.7	0.00e+00	0	57	0	4406116352	40	4286
2026-01-07 14:53:17.50	334.27	16.70	-35.2	-36.5	17.7	0.00e+00	0	57	0	4412407808	40	4302
2026-01-07 14:53:18.51	334.33	16.59	-35.2	-36.4	17.7	0.00e+00	0	57	0	4419747840	40	4289
2026-01-07 14:53:19.52	334.40	16.48	-35.3	-36.5	17.6	0.00e+00	0	57	0	4427087872	40	4323
2026-01-07 14:53:20.53	334.46	16.37	-35.2	-36.5	17.6	0.00e+00	0	57	0	4434427904	40	4307
2026-01-07 14:53:21.55	334.52	16.26	-35.4	-36.6	17.5	0.00e+00	0	57	0	4441767936	40	4370
2026-01-07 14:53:22.55	334.58	16.16	-35.4	-36.6	17.5	0.00e+00	0	57	0	4449107968	40	4389
2026-01-07 14:53:23.56	334.64	16.05	-35.4	-36.7	17.4	0.00e+00	0	57	0	4456448000	40	4425
2026-01-07 14:53:24.58	334.71	15.94	-35.5	-36.7	17.4	0.00e+00	0	57	0	4463788032	40	4428
2026-01-07 14:53:25.59	334.77	15.83	-35.5	-36.8	17.3	0.00e+00	0	57	0	4471128064	40	4464
2026-01-07 14:53:26.60	334.83	15.73	-35.5	-36.8	17.3	0.00e+00	0	57	0	4478468096	40	4456
2026-01-07 14:53:27.61	334.89	15.62	-35.6	-36.9	17.2	0.00e+00	0	57	0	4485808128	40	4507
2026-01-07 14:53:28.62	334.94	15.51	-35.6	-36.9	17.2	0.00e+00	0	57	0	4493148160	40	4509
2026-01-07 14:53:29.63	335.00	15.41	-35.7	-37.0	17.1	0.00e+00	0	57	0	4500488192	40	4565
2026-01-07 14:53:30.63	335.06	15.31	-35.6	-36.8	17.2	0.00e+00	0	57	0	4507828224	40	4492
2026-01-07 14:53:31.64	335.12	15.20	-35.7	-37.0	17.1	0.00e+00	0	57	0	4515168256	40	4548
