passes_logs/2026/01/07/R2.0S_Moscow/R2.0S_Moscow__20260107_003346_AQUA_rec.log

#Pass ID: 20260107_003346_AQUA
#Satellite: AQUA
#Configuration: AQUA
#almurnet v.1.7.20251203
#Start time: 2026-01-07 00:38:37

#Version: 2.2.20231116
#Station: R2.0S_Moscow
#Location: 37.707566 lon 55.798166 lat
#TLE: 1 27424U 02022A   26004.96787593  .00001598  00000+0  32997-3 0  9996
#TLE: 2 27424  98.4069 331.2279 0002002  90.2377   0.6092 14.61798176259425

#Time	Az	El	Level	Level2	SNR	BER	BlckErr	Temp	State	Recorded	gain1	gain2
2026-01-07 00:38:37.24	58.21	31.73	-44.9	-59.7	3.8	1.49e+00	0	56	0	0	60	20791
2026-01-07 00:38:38.24	58.55	31.87	-46.3	-65.1	3.8	7.46e-01	0	57	104	0	63	32694
2026-01-07 00:38:39.25	58.90	32.02	-46.3	-65.0	3.8	7.46e-01	0	56	104	0	63	32548
2026-01-07 00:38:40.26	59.24	32.17	-46.3	-65.1	3.8	7.42e-01	0	57	104	0	63	32774
2026-01-07 00:38:41.27	59.60	32.32	-46.2	-65.0	3.8	7.44e-01	0	56	104	0	63	32523
2026-01-07 00:38:42.28	59.95	32.46	-46.2	-65.0	3.8	7.46e-01	0	57	104	0	63	32368
2026-01-07 00:38:43.29	60.31	32.61	-46.1	-64.9	3.8	7.48e-01	0	56	104	0	63	31861
2026-01-07 00:38:44.30	60.67	32.75	-46.1	-64.9	3.8	7.43e-01	0	57	104	0	63	31971
2026-01-07 00:38:45.32	61.04	32.90	-46.0	-64.9	3.8	7.45e-01	0	57	104	0	63	31929
2026-01-07 00:38:46.33	61.40	33.05	-46.0	-64.9	3.8	7.43e-01	0	56	104	0	63	31894
2026-01-07 00:38:47.34	61.77	33.19	-46.1	-64.9	3.8	7.48e-01	0	56	104	0	63	31950
2026-01-07 00:38:48.35	62.15	33.33	-46.0	-64.9	3.8	7.44e-01	0	56	104	0	63	31929
2026-01-07 00:38:49.36	62.53	33.48	-46.0	-64.9	3.8	7.45e-01	0	56	104	0	63	31994
2026-01-07 00:38:50.37	62.91	33.62	-46.0	-64.9	3.8	7.50e-01	0	56	104	0	63	31903
2026-01-07 00:38:51.38	63.29	33.76	-46.0	-64.9	3.8	7.44e-01	0	56	104	0	63	31850
2026-01-07 00:38:52.39	63.68	33.90	-46.0	-64.8	3.8	7.41e-01	0	56	104	0	63	31802
2026-01-07 00:38:53.40	64.07	34.04	-46.0	-64.8	3.8	7.49e-01	0	57	104	0	63	31782
2026-01-07 00:38:54.41	64.47	34.18	-46.0	-64.8	3.8	7.47e-01	0	57	104	0	63	31810
2026-01-07 00:38:55.42	64.86	34.32	-46.0	-64.8	3.8	7.42e-01	0	56	104	0	63	31785
2026-01-07 00:38:56.43	65.27	34.46	-46.0	-64.8	3.8	7.45e-01	0	56	104	0	63	31719
2026-01-07 00:38:57.45	65.67	34.60	-46.0	-64.8	3.8	7.45e-01	0	56	104	0	63	31648
2026-01-07 00:38:58.46	66.08	34.73	-46.0	-64.8	3.8	7.48e-01	0	56	104	0	63	31763
2026-01-07 00:38:59.47	66.49	34.87	-46.0	-64.9	3.8	7.49e-01	0	57	104	0	63	31932
2026-01-07 00:39:00.48	66.91	35.00	-46.0	-64.8	3.8	7.49e-01	0	57	104	0	63	31692
2026-01-07 00:39:01.49	67.33	35.14	-46.0	-64.8	3.8	7.45e-01	0	56	104	0	63	31578
2026-01-07 00:39:02.50	67.75	35.27	-46.0	-64.9	3.8	7.41e-01	0	57	104	0	63	31839
2026-01-07 00:39:03.51	68.18	35.40	-46.0	-64.8	3.8	7.46e-01	0	56	104	0	63	31692
2026-01-07 00:39:04.52	68.61	35.53	-46.0	-64.7	3.8	7.42e-01	0	56	104	0	63	31202
2026-01-07 00:39:05.53	69.04	35.66	-46.0	-64.6	3.8	7.47e-01	0	56	104	0	63	30940
2026-01-07 00:39:06.54	69.48	35.79	-46.0	-64.6	3.8	7.45e-01	0	57	104	0	63	31010
2026-01-07 00:39:07.55	69.92	35.91	-46.0	-64.7	3.8	7.48e-01	0	56	104	0	63	31427
2026-01-07 00:39:08.56	70.36	36.04	-46.0	-64.8	3.8	7.45e-01	0	57	104	0	63	31751
2026-01-07 00:39:09.57	70.81	36.16	-46.0	-64.6	3.8	7.44e-01	0	56	104	0	63	30734
2026-01-07 00:39:10.58	71.26	36.28	-46.0	-64.1	3.8	7.43e-01	0	56	104	0	63	29090
2026-01-07 00:39:11.59	71.71	36.40	-46.0	-64.3	3.8	7.44e-01	0	56	104	0	63	29701
2026-01-07 00:39:12.60	72.17	36.52	-45.9	-64.7	3.8	7.45e-01	0	57	104	0	63	31184
2026-01-07 00:39:13.61	72.63	36.64	-46.0	-64.7	3.8	7.45e-01	0	57	104	0	63	31349
2026-01-07 00:39:14.62	73.09	36.76	-45.9	-64.1	3.8	7.45e-01	0	56	104	0	63	29067
2026-01-07 00:39:15.63	73.56	36.87	-45.9	-63.1	3.8	7.45e-01	0	57	104	0	63	26142
2026-01-07 00:39:16.64	74.03	36.99	-45.9	-62.7	3.8	7.45e-01	0	57	104	0	63	24822
2026-01-07 00:39:17.65	74.50	37.10	-45.9	-63.9	3.8	7.43e-01	0	56	104	0	63	28497
2026-01-07 00:39:18.66	74.98	37.21	-45.9	-64.6	3.8	7.45e-01	0	57	104	0	63	30960
2026-01-07 00:39:19.67	75.46	37.31	-45.9	-62.0	3.9	7.44e-01	0	57	104	0	63	23041
2026-01-07 00:39:20.68	75.94	37.42	-45.8	-60.5	4.4	7.26e-01	0	57	104	0	63	19343
2026-01-07 00:39:21.69	76.43	37.52	-45.9	-63.4	3.8	7.49e-01	0	56	104	0	63	27011
2026-01-07 00:39:22.70	76.92	37.63	-45.9	-64.2	3.8	7.42e-01	0	57	104	0	63	29384
2026-01-07 00:39:23.71	77.41	37.73	-45.6	-57.2	6.2	6.76e-01	92	57	0	0	63	13186
2026-01-07 00:39:24.72	77.91	37.82	-44.9	-52.5	10.8	6.12e-01	0	57	0	1572864	61	8660
2026-01-07 00:39:25.74	78.41	37.92	-44.6	-51.3	12.4	6.07e-01	0	57	0	3670016	61	7493
2026-01-07 00:39:26.75	78.91	38.01	-45.4	-55.0	8.8	6.33e-01	5	56	0	5767168	61	11450
2026-01-07 00:39:27.76	79.42	38.11	-45.3	-54.5	8.7	6.34e-01	2	56	0	7340032	61	10797
2026-01-07 00:39:28.77	79.93	38.20	-42.9	-46.6	17.3	6.01e-01	0	57	0	9437184	57	5511
2026-01-07 00:39:29.78	80.44	38.28	-40.2	-42.5	21.4	6.00e-01	0	57	0	11010048	52	4575
2026-01-07 00:39:30.79	80.95	38.37	-39.8	-41.9	22.0	6.02e-01	0	56	0	13107200	51	4533
2026-01-07 00:39:31.80	81.47	38.45	-41.7	-44.6	19.7	6.04e-01	0	57	0	15204352	53	5472
2026-01-07 00:39:32.81	81.99	38.53	-42.5	-46.0	18.3	6.02e-01	0	56	0	16777216	55	5748
2026-01-07 00:39:33.82	82.51	38.61	-41.4	-44.2	20.2	6.01e-01	0	57	0	18874368	53	5241
2026-01-07 00:39:34.83	83.03	38.69	-43.0	-46.8	17.7	6.04e-01	0	57	0	20447232	56	5925
2026-01-07 00:39:35.84	83.56	38.76	-44.6	-50.2	15.0	6.02e-01	0	57	0	22544384	59	7433
2026-01-07 00:39:36.85	84.09	38.83	-42.1	-45.3	18.8	6.02e-01	0	56	0	24641536	56	4986
2026-01-07 00:39:37.86	84.62	38.90	-40.4	-42.8	21.1	5.99e-01	0	57	0	26214400	52	4743
2026-01-07 00:39:38.87	85.15	38.96	-40.2	-42.4	21.6	5.99e-01	0	57	0	28311552	52	4527
2026-01-07 00:39:39.88	85.69	39.03	-40.2	-42.5	21.6	6.01e-01	0	56	0	30408704	52	4564
2026-01-07 00:39:40.89	86.22	39.09	-40.1	-42.4	21.6	6.02e-01	0	56	0	31981568	52	4511
2026-01-07 00:39:41.90	86.76	39.15	-40.0	-42.2	21.8	6.02e-01	0	57	0	34078720	52	4425
2026-01-07 00:39:42.91	87.30	39.20	-40.1	-42.3	21.8	6.01e-01	0	57	0	35651584	51	4727
2026-01-07 00:39:43.92	87.85	39.25	-39.9	-42.1	22.0	6.02e-01	0	57	0	37748736	51	4617
2026-01-07 00:39:44.93	88.39	39.30	-40.0	-42.2	21.9	6.00e-01	0	57	0	39845888	51	4690
2026-01-07 00:39:45.94	88.94	39.35	-39.8	-42.0	22.1	6.02e-01	0	57	0	41418752	51	4550
2026-01-07 00:39:46.95	89.49	39.40	-39.7	-41.8	22.2	6.03e-01	0	57	0	43515904	51	4442
2026-01-07 00:39:47.96	90.04	39.44	-39.6	-41.7	22.4	6.00e-01	0	57	0	45613056	51	4404
2026-01-07 00:39:48.97	90.59	39.48	-39.7	-41.8	22.3	6.00e-01	0	56	0	47185920	51	4444
2026-01-07 00:39:49.98	91.14	39.51	-39.7	-41.8	22.3	6.02e-01	0	57	0	49283072	51	4444
2026-01-07 00:39:50.99	91.69	39.55	-39.5	-41.5	22.6	6.01e-01	0	57	0	50855936	51	4315
2026-01-07 00:39:51.99	92.24	39.58	-39.6	-41.6	22.5	6.02e-01	0	56	0	52953088	51	4373
2026-01-07 00:39:53.00	92.80	39.60	-39.7	-41.7	22.3	6.02e-01	0	57	0	55050240	51	4428
2026-01-07 00:39:54.01	93.35	39.63	-39.8	-41.9	22.2	6.01e-01	0	56	0	56623104	51	4523
2026-01-07 00:39:55.02	93.91	39.65	-39.6	-41.7	22.4	6.00e-01	0	57	0	58720256	51	4411
2026-01-07 00:39:56.03	94.47	39.67	-39.5	-41.6	22.5	6.00e-01	0	56	0	60293120	50	4599
2026-01-07 00:39:57.04	95.03	39.68	-39.7	-41.7	22.3	6.02e-01	0	56	0	62390272	50	4701
2026-01-07 00:39:58.05	95.59	39.69	-39.8	-42.0	22.0	5.98e-01	0	57	0	64487424	50	4833
2026-01-07 00:39:59.06	96.15	39.70	-39.4	-41.4	22.7	6.01e-01	0	57	0	66060288	50	4517
2026-01-07 00:40:00.07	96.71	39.71	-39.5	-41.5	22.6	6.00e-01	0	57	0	68157440	50	4583
2026-01-07 00:40:01.08	97.27	39.71	-39.8	-41.9	22.2	6.01e-01	0	57	0	69730304	50	4779
2026-01-07 00:40:02.09	97.83	39.72	-39.6	-41.6	22.5	6.02e-01	0	57	0	71827456	50	4647
2026-01-07 00:40:03.10	98.39	39.71	-39.6	-41.7	22.4	6.01e-01	0	57	0	73924608	50	4694
2026-01-07 00:40:04.11	98.95	39.71	-39.7	-41.8	22.3	6.00e-01	0	56	0	75497472	50	4726
2026-01-07 00:40:05.12	99.51	39.70	-39.6	-41.7	22.4	6.01e-01	0	56	0	77594624	50	4676
2026-01-07 00:40:06.13	100.07	39.69	-39.7	-41.8	22.3	6.01e-01	0	57	0	79167488	50	4731
2026-01-07 00:40:07.14	100.63	39.67	-39.7	-41.8	22.2	6.03e-01	0	56	0	81264640	50	4741
2026-01-07 00:40:08.15	101.18	39.66	-39.8	-41.9	22.2	6.02e-01	0	56	0	83361792	50	4766
2026-01-07 00:40:09.16	101.74	39.64	-39.9	-42.0	22.1	6.02e-01	0	56	0	84934656	50	4834
2026-01-07 00:40:10.17	102.30	39.61	-39.8	-41.9	22.2	6.00e-01	0	57	0	87031808	50	4786
2026-01-07 00:40:11.18	102.86	39.59	-39.9	-42.0	22.1	5.97e-01	0	56	0	88604672	50	4839
2026-01-07 00:40:12.19	103.41	39.56	-40.1	-42.3	21.8	6.03e-01	0	57	0	90701824	50	4992
2026-01-07 00:40:13.20	103.97	39.53	-39.8	-41.9	22.1	6.04e-01	0	56	0	92798976	50	4810
2026-01-07 00:40:14.20	104.51	39.49	-39.8	-42.0	22.1	6.01e-01	0	56	0	94371840	50	4826
2026-01-07 00:40:15.21	105.07	39.46	-39.8	-42.0	22.2	6.02e-01	0	56	0	96468992	50	4816
2026-01-07 00:40:16.22	105.62	39.42	-39.9	-42.1	22.0	6.02e-01	0	57	0	98566144	50	4882
2026-01-07 00:40:17.23	106.17	39.37	-39.8	-41.9	22.1	5.99e-01	0	56	0	100139008	50	4813
2026-01-07 00:40:18.24	106.71	39.33	-39.8	-41.9	22.1	6.01e-01	0	57	0	102236160	50	4791
2026-01-07 00:40:19.25	107.26	39.28	-39.8	-41.9	22.2	6.03e-01	0	57	0	103809024	50	4792
2026-01-07 00:40:20.26	107.81	39.23	-39.8	-42.0	22.1	6.03e-01	0	56	0	105906176	50	4825
2026-01-07 00:40:21.27	108.35	39.17	-39.7	-41.9	22.2	6.02e-01	0	56	0	108003328	50	4765
2026-01-07 00:40:22.28	108.89	39.12	-39.7	-41.8	22.3	6.02e-01	0	57	0	109576192	50	4722
2026-01-07 00:40:23.29	109.43	39.06	-39.7	-41.7	22.3	6.01e-01	0	56	0	111673344	50	4700
2026-01-07 00:40:24.30	109.97	38.99	-39.8	-41.9	22.2	6.02e-01	0	56	0	113770496	50	4784
2026-01-07 00:40:25.31	110.50	38.93	-39.8	-42.0	22.0	6.02e-01	0	57	0	115343360	50	4846
2026-01-07 00:40:26.32	111.03	38.86	-39.8	-42.0	22.1	6.00e-01	0	56	0	117440512	50	4833
2026-01-07 00:40:27.33	111.56	38.79	-39.9	-42.1	22.0	6.00e-01	0	56	0	119013376	50	4885
2026-01-07 00:40:28.34	112.09	38.72	-39.8	-42.0	22.1	6.03e-01	0	56	0	121110528	50	4841
2026-01-07 00:40:29.35	112.62	38.64	-39.7	-41.9	22.2	6.00e-01	0	56	0	123207680	50	4762
2026-01-07 00:40:30.36	113.14	38.57	-39.8	-41.9	22.1	6.00e-01	0	57	0	124780544	50	4791
2026-01-07 00:40:31.37	113.66	38.49	-39.8	-41.9	22.1	6.01e-01	0	56	0	126877696	50	4778
2026-01-07 00:40:32.38	114.18	38.41	-39.7	-41.8	22.2	6.00e-01	0	56	0	128450560	50	4740
2026-01-07 00:40:33.39	114.70	38.32	-39.9	-42.1	22.0	5.99e-01	0	56	0	130547712	50	4875
2026-01-07 00:40:34.40	115.21	38.23	-39.6	-41.7	22.3	6.03e-01	0	56	0	132644864	50	4677
2026-01-07 00:40:35.41	115.72	38.15	-39.7	-41.8	22.3	6.03e-01	0	56	0	134217728	50	4709
2026-01-07 00:40:36.42	116.23	38.05	-39.9	-42.1	22.0	6.00e-01	0	56	0	136314880	50	4880
2026-01-07 00:40:37.43	116.73	37.96	-39.8	-41.9	22.1	6.01e-01	0	56	0	137887744	50	4765
2026-01-07 00:40:38.44	117.23	37.87	-39.6	-41.6	22.4	5.99e-01	0	56	0	139984896	50	4637
2026-01-07 00:40:39.45	117.73	37.77	-39.7	-41.8	22.2	6.00e-01	0	56	0	142082048	50	4727
2026-01-07 00:40:40.46	118.23	37.67	-39.8	-42.0	22.1	6.02e-01	0	57	0	143654912	50	4816
2026-01-07 00:40:41.47	118.72	37.57	-39.8	-41.9	22.2	6.01e-01	0	56	0	145752064	50	4776
2026-01-07 00:40:42.48	119.21	37.46	-39.7	-41.9	22.1	6.01e-01	0	56	0	147324928	50	4767
2026-01-07 00:40:43.49	119.69	37.36	-39.5	-41.6	22.4	6.02e-01	0	56	0	149422080	50	4615
2026-01-07 00:40:44.50	120.18	37.25	-39.8	-41.9	22.2	6.00e-01	0	56	0	151519232	50	4780
2026-01-07 00:40:45.51	120.66	37.14	-39.9	-42.0	22.0	6.01e-01	0	57	0	153092096	50	4863
2026-01-07 00:40:46.52	121.13	37.03	-39.7	-41.8	22.2	6.01e-01	0	57	0	155189248	50	4735
2026-01-07 00:40:47.53	121.61	36.92	-39.3	-41.3	22.7	6.01e-01	0	56	0	156762112	50	4481
2026-01-07 00:40:48.54	122.08	36.80	-39.5	-41.5	22.5	6.01e-01	0	56	0	158859264	50	4583
2026-01-07 00:40:49.55	122.54	36.69	-39.6	-41.7	22.3	6.03e-01	0	56	0	160956416	50	4668
2026-01-07 00:40:50.56	123.01	36.57	-39.5	-41.6	22.5	6.02e-01	0	56	0	162529280	50	4622
2026-01-07 00:40:51.57	123.47	36.45	-39.6	-41.7	22.4	6.00e-01	0	56	0	164626432	50	4677
2026-01-07 00:40:52.58	123.92	36.33	-39.6	-41.7	22.3	6.01e-01	0	56	0	166723584	50	4694
2026-01-07 00:40:53.59	124.38	36.21	-39.6	-41.6	22.4	6.01e-01	0	56	0	168296448	50	4642
2026-01-07 00:40:54.60	124.83	36.09	-39.5	-41.5	22.5	6.00e-01	0	56	0	170393600	50	4573
2026-01-07 00:40:55.61	125.27	35.96	-39.5	-41.5	22.5	5.98e-01	0	56	0	171966464	50	4594
2026-01-07 00:40:56.62	125.71	35.83	-39.4	-41.5	22.6	6.00e-01	0	56	0	174063616	50	4553
2026-01-07 00:40:57.63	126.15	35.71	-39.5	-41.5	22.5	6.01e-01	0	56	0	176160768	50	4594
2026-01-07 00:40:58.64	126.59	35.58	-39.5	-41.5	22.6	5.99e-01	0	57	0	177733632	50	4556
2026-01-07 00:40:59.65	127.02	35.45	-39.5	-41.5	22.5	6.03e-01	0	56	0	179830784	50	4573
2026-01-07 00:41:00.66	127.45	35.32	-39.3	-41.3	22.7	6.01e-01	0	56	0	181927936	50	4482
2026-01-07 00:41:01.67	127.88	35.18	-39.5	-41.5	22.5	6.00e-01	0	56	0	183500800	50	4578
2026-01-07 00:41:02.68	128.30	35.05	-39.4	-41.4	22.5	6.02e-01	0	57	0	185597952	50	4539
2026-01-07 00:41:03.69	128.72	34.92	-39.2	-41.2	22.7	6.02e-01	0	57	0	187170816	50	4425
2026-01-07 00:41:04.70	129.13	34.78	-39.1	-41.0	23.0	6.01e-01	0	56	0	189267968	50	4321
2026-01-07 00:41:05.71	129.54	34.64	-39.1	-41.1	23.0	6.02e-01	0	56	0	191365120	50	4352
2026-01-07 00:41:06.72	129.95	34.51	-39.1	-41.1	23.0	6.02e-01	0	56	0	192937984	50	4345
2026-01-07 00:41:07.73	130.36	34.37	-39.1	-41.0	23.0	5.99e-01	0	56	0	195035136	50	4323
2026-01-07 00:41:08.74	130.76	34.23	-39.2	-41.2	22.8	6.02e-01	0	56	0	196608000	50	4407
2026-01-07 00:41:09.75	131.15	34.09	-39.1	-41.0	22.6	5.99e-01	0	56	0	198705152	50	4334
2026-01-07 00:41:10.76	131.55	33.95	-39.1	-41.0	23.0	5.98e-01	0	56	0	200802304	50	4302
2026-01-07 00:41:11.77	131.94	33.81	-39.0	-40.9	23.0	6.03e-01	0	56	0	202375168	50	4289
2026-01-07 00:41:12.78	132.33	33.66	-39.2	-41.1	22.8	6.02e-01	0	56	0	204472320	50	4389
2026-01-07 00:41:13.79	132.71	33.52	-39.2	-41.2	22.8	5.99e-01	0	56	0	206045184	50	4403
2026-01-07 00:41:14.80	133.09	33.38	-39.3	-41.3	22.7	6.03e-01	0	56	0	208142336	50	4467
2026-01-07 00:41:15.81	133.47	33.23	-39.2	-41.1	22.8	6.01e-01	0	56	0	210239488	50	4382
2026-01-07 00:41:16.82	133.84	33.09	-39.1	-41.1	22.9	6.02e-01	0	56	0	211812352	50	4357
2026-01-07 00:41:17.83	134.21	32.94	-39.0	-40.9	23.0	6.02e-01	0	56	0	213909504	50	4269
2026-01-07 00:41:18.84	134.58	32.80	-38.7	-40.6	23.4	6.03e-01	0	56	0	216006656	49	4356
2026-01-07 00:41:19.85	134.94	32.65	-38.8	-40.6	23.3	6.02e-01	0	56	0	217579520	49	4383
2026-01-07 00:41:20.86	135.30	32.50	-38.8	-40.7	23.3	5.98e-01	0	56	0	219676672	49	4400
2026-01-07 00:41:21.87	135.66	32.36	-38.8	-40.6	23.3	5.99e-01	0	56	0	221249536	49	4376
2026-01-07 00:41:22.88	136.01	32.21	-38.8	-40.6	23.3	6.03e-01	0	56	0	223346688	49	4386
2026-01-07 00:41:23.89	136.36	32.06	-38.7	-40.6	23.3	5.98e-01	0	56	0	224919552	49	4361
2026-01-07 00:41:24.90	136.71	31.91	-38.8	-40.6	23.2	6.00e-01	0	56	0	227016704	49	4379
2026-01-07 00:41:25.91	137.06	31.76	-38.8	-40.7	23.2	6.03e-01	0	56	0	229113856	49	4401
2026-01-07 00:41:26.92	137.40	31.61	-38.9	-40.8	23.2	6.01e-01	0	56	0	230686720	49	4442
2026-01-07 00:41:27.93	137.73	31.47	-38.9	-40.8	23.1	6.00e-01	0	56	0	232783872	49	4465
2026-01-07 00:41:28.94	138.07	31.32	-39.0	-40.9	23.0	6.02e-01	0	56	0	234881024	49	4529
2026-01-07 00:41:29.95	138.40	31.17	-38.9	-40.9	23.0	6.00e-01	0	56	0	236453888	49	4496
2026-01-07 00:41:30.96	138.73	31.02	-38.7	-40.6	23.3	6.02e-01	0	56	0	238551040	49	4364
2026-01-07 00:41:31.97	139.05	30.87	-38.6	-40.4	23.5	6.02e-01	0	56	0	240123904	49	4263
2026-01-07 00:41:32.98	139.38	30.72	-38.6	-40.4	23.5	6.03e-01	0	57	0	242221056	49	4279
2026-01-07 00:41:33.99	139.70	30.57	-38.8	-40.6	23.2	6.01e-01	0	57	0	244318208	49	4389
2026-01-07 00:41:35.00	140.01	30.41	-38.8	-40.6	23.2	6.01e-01	0	56	0	245891072	49	4385
2026-01-07 00:41:36.01	140.32	30.26	-38.8	-40.6	23.2	6.00e-01	0	56	0	247988224	49	4389
2026-01-07 00:41:37.02	140.63	30.11	-38.7	-40.6	23.3	6.00e-01	0	56	0	249561088	49	4372
2026-01-07 00:41:38.03	140.94	29.96	-38.8	-40.7	23.2	5.98e-01	0	56	0	251658240	49	4425
2026-01-07 00:41:39.04	141.25	29.81	-38.9	-40.9	23.0	6.02e-01	0	56	0	253755392	49	4509
2026-01-07 00:41:40.05	141.55	29.66	-39.0	-41.0	22.9	6.00e-01	0	56	0	255328256	49	4565
2026-01-07 00:41:41.06	141.85	29.51	-39.0	-41.0	22.9	6.00e-01	0	56	0	257425408	49	4562
2026-01-07 00:41:42.07	142.14	29.36	-39.1	-41.1	22.8	6.03e-01	0	56	0	259522560	49	4600
2026-01-07 00:41:43.08	142.44	29.21	-38.8	-40.7	23.1	6.01e-01	0	56	0	261095424	49	4429
2026-01-07 00:41:44.09	142.73	29.06	-38.8	-40.7	23.2	6.02e-01	0	56	0	263192576	49	4402
2026-01-07 00:41:45.10	143.01	28.91	-38.9	-40.8	23.0	6.00e-01	0	56	0	264765440	49	4471
2026-01-07 00:41:46.11	143.30	28.76	-39.0	-40.9	22.9	5.99e-01	0	56	0	266862592	49	4524
2026-01-07 00:41:47.13	143.58	28.61	-39.2	-41.1	22.7	6.01e-01	0	56	0	268959744	49	4645
2026-01-07 00:41:48.13	143.86	28.46	-39.2	-41.3	22.6	6.00e-01	0	56	0	270532608	49	4711
2026-01-07 00:41:49.14	144.14	28.31	-39.1	-41.1	22.8	6.00e-01	0	56	0	272629760	49	4637
2026-01-07 00:41:50.15	144.41	28.16	-39.0	-40.9	22.9	6.01e-01	0	56	0	274726912	49	4533
2026-01-07 00:41:51.16	144.68	28.01	-39.0	-40.9	22.9	6.02e-01	0	56	0	276299776	49	4544
2026-01-07 00:41:52.17	144.95	27.86	-39.1	-41.0	22.8	6.01e-01	0	56	0	278396928	49	4582
2026-01-07 00:41:53.18	145.22	27.71	-39.1	-41.1	22.8	6.02e-01	0	56	0	279969792	49	4627
2026-01-07 00:41:54.19	145.48	27.57	-39.2	-41.2	22.6	6.00e-01	0	56	0	282066944	49	4698
2026-01-07 00:41:55.20	145.75	27.42	-39.3	-41.3	22.5	6.01e-01	0	56	0	284164096	49	4759
2026-01-07 00:41:56.21	146.00	27.27	-39.4	-41.5	22.4	6.03e-01	0	56	0	285736960	49	4817
2026-01-07 00:41:57.22	146.26	27.12	-39.4	-41.5	22.3	6.03e-01	0	56	0	287834112	49	4851
2026-01-07 00:41:58.23	146.52	26.97	-39.4	-41.4	22.4	5.98e-01	0	56	0	289406976	49	4806
2026-01-07 00:41:59.24	146.77	26.83	-39.3	-41.4	22.5	6.01e-01	0	57	0	291504128	49	4764
2026-01-07 00:42:00.25	147.02	26.68	-39.3	-41.3	22.5	6.00e-01	0	56	0	293601280	49	4757
2026-01-07 00:42:01.26	147.26	26.53	-39.4	-41.4	22.4	6.00e-01	0	56	0	295174144	49	4809
2026-01-07 00:42:02.27	147.51	26.39	-39.4	-41.4	22.4	6.02e-01	0	56	0	297271296	49	4787
2026-01-07 00:42:03.28	147.75	26.24	-39.4	-41.5	22.4	5.99e-01	0	56	0	298844160	49	4833
2026-01-07 00:42:04.29	147.99	26.09	-39.4	-41.5	22.4	6.01e-01	0	56	0	300941312	49	4821
2026-01-07 00:42:05.29	148.23	25.95	-39.5	-41.6	22.3	6.01e-01	0	56	0	303038464	49	4886
2026-01-07 00:42:06.31	148.47	25.80	-39.4	-41.5	22.3	6.01e-01	0	57	0	304611328	49	4830
2026-01-07 00:42:07.32	148.70	25.66	-39.5	-41.6	22.3	6.00e-01	0	56	0	306708480	49	4881
2026-01-07 00:42:08.33	148.93	25.52	-39.4	-41.5	22.3	6.01e-01	0	56	0	308281344	49	4835
2026-01-07 00:42:09.34	149.16	25.37	-39.5	-41.5	22.3	5.98e-01	0	56	0	310378496	49	4864
2026-01-07 00:42:10.35	149.39	25.23	-39.4	-41.4	22.4	6.01e-01	0	56	0	312475648	49	4796
2026-01-07 00:42:11.36	149.61	25.09	-39.4	-41.4	22.4	6.02e-01	0	56	0	314048512	49	4812
2026-01-07 00:42:12.36	149.83	24.94	-39.3	-41.4	22.4	6.02e-01	0	56	0	316145664	49	4774
2026-01-07 00:42:13.37	150.06	24.80	-39.3	-41.4	22.4	6.02e-01	0	56	0	317718528	49	4768
2026-01-07 00:42:14.38	150.28	24.66	-39.4	-41.5	22.4	6.02e-01	0	56	0	319815680	49	4818
2026-01-07 00:42:15.39	150.49	24.52	-39.5	-41.7	22.1	5.99e-01	0	56	0	321912832	49	4931
2026-01-07 00:42:16.40	150.71	24.38	-39.5	-41.6	22.2	6.02e-01	0	56	0	323485696	49	4872
2026-01-07 00:42:17.41	150.92	24.24	-39.5	-41.6	22.2	6.00e-01	0	56	0	325582848	49	4902
2026-01-07 00:42:18.42	151.13	24.10	-39.5	-41.6	22.1	6.02e-01	0	56	0	327680000	49	4902
2026-01-07 00:42:19.43	151.34	23.96	-39.5	-41.6	22.2	6.00e-01	0	56	0	329252864	49	4899
2026-01-07 00:42:20.44	151.55	23.82	-39.5	-41.6	22.2	6.00e-01	0	56	0	331350016	49	4897
2026-01-07 00:42:21.45	151.75	23.68	-39.5	-41.7	22.1	5.98e-01	0	56	0	332922880	49	4929
2026-01-07 00:42:22.46	151.96	23.54	-39.6	-41.7	22.0	6.00e-01	0	56	0	335020032	49	4970
2026-01-07 00:42:23.47	152.16	23.40	-39.5	-41.6	22.1	6.00e-01	0	56	0	337117184	49	4911
2026-01-07 00:42:24.48	152.36	23.26	-39.5	-41.6	22.1	6.02e-01	0	56	0	338690048	49	4914
2026-01-07 00:42:25.49	152.56	23.13	-39.5	-41.6	22.2	6.00e-01	0	56	0	340787200	49	4898
2026-01-07 00:42:26.50	152.75	22.99	-39.5	-41.7	22.1	6.01e-01	0	56	0	342884352	49	4934
2026-01-07 00:42:27.51	152.95	22.85	-39.4	-41.5	22.2	5.99e-01	0	56	0	344457216	49	4844
2026-01-07 00:42:28.52	153.14	22.72	-39.3	-41.4	22.3	6.01e-01	0	56	0	346554368	49	4778
2026-01-07 00:42:29.53	153.33	22.58	-39.3	-41.4	22.4	6.02e-01	0	56	0	348127232	49	4770
2026-01-07 00:42:30.54	153.52	22.45	-39.3	-41.4	22.3	6.01e-01	0	56	0	350224384	49	4782
2026-01-07 00:42:31.55	153.71	22.31	-39.4	-41.5	22.2	6.03e-01	0	56	0	352321536	49	4866
2026-01-07 00:42:32.56	153.90	22.18	-39.5	-41.6	22.0	6.01e-01	0	57	0	353894400	49	4921
2026-01-07 00:42:33.57	154.08	22.05	-39.4	-41.5	22.2	6.00e-01	0	56	0	355991552	49	4840
2026-01-07 00:42:34.58	154.27	21.91	-39.4	-41.6	22.1	6.01e-01	0	56	0	357564416	49	4871
2026-01-07 00:42:35.59	154.45	21.78	-39.4	-41.5	22.1	6.00e-01	0	56	0	359661568	49	4864
2026-01-07 00:42:36.60	154.63	21.65	-39.4	-41.5	22.2	6.00e-01	0	56	0	361758720	49	4841
2026-01-07 00:42:37.61	154.81	21.52	-39.5	-41.6	22.1	5.99e-01	0	56	0	363331584	49	4911
2026-01-07 00:42:38.62	154.98	21.39	-39.4	-41.6	22.2	6.00e-01	0	56	0	365428736	49	4872
2026-01-07 00:42:39.63	155.16	21.26	-39.4	-41.5	22.2	6.03e-01	0	56	0	367001600	49	4816
2026-01-07 00:42:40.64	155.33	21.13	-39.3	-41.4	22.3	6.00e-01	0	56	0	369098752	49	4769
2026-01-07 00:42:41.65	155.50	21.00	-39.2	-41.3	22.4	6.01e-01	0	56	0	371195904	49	4707
2026-01-07 00:42:42.66	155.67	20.87	-39.3	-41.4	22.3	6.01e-01	0	56	0	372768768	49	4780
2026-01-07 00:42:43.67	155.84	20.74	-39.3	-41.4	22.3	6.02e-01	0	56	0	374865920	49	4765
2026-01-07 00:42:44.67	156.01	20.61	-39.3	-41.3	22.3	6.00e-01	0	56	0	376438784	49	4753
2026-01-07 00:42:45.68	156.18	20.49	-39.3	-41.4	22.3	6.01e-01	0	56	0	378535936	49	4789
2026-01-07 00:42:46.69	156.34	20.36	-39.3	-41.4	22.3	6.00e-01	0	56	0	380633088	49	4778
2026-01-07 00:42:47.70	156.51	20.23	-39.3	-41.4	22.3	6.03e-01	0	56	0	382205952	49	4782
2026-01-07 00:42:48.72	156.67	20.10	-39.4	-41.5	22.1	6.01e-01	0	56	0	384303104	49	4837
2026-01-07 00:42:49.73	156.83	19.98	-39.5	-41.6	22.0	6.00e-01	0	56	0	385875968	49	4903
2026-01-07 00:42:50.73	156.99	19.85	-39.5	-41.6	22.0	6.01e-01	0	56	0	387973120	49	4917
2026-01-07 00:42:51.74	157.15	19.73	-39.3	-41.4	22.2	6.00e-01	0	56	0	390070272	49	4777
2026-01-07 00:42:52.75	157.30	19.61	-39.2	-41.2	22.4	6.01e-01	0	56	0	391643136	49	4701
2026-01-07 00:42:53.76	157.46	19.48	-39.2	-41.3	22.3	6.00e-01	0	56	0	393740288	49	4746
2026-01-07 00:42:54.77	157.61	19.36	-39.3	-41.3	22.2	5.99e-01	0	56	0	395837440	49	4752
2026-01-07 00:42:55.78	157.77	19.24	-39.2	-41.3	22.3	6.00e-01	0	56	0	397410304	49	4743
2026-01-07 00:42:56.79	157.92	19.11	-39.2	-41.2	22.3	6.04e-01	0	56	0	399507456	49	4703
2026-01-07 00:42:57.80	158.07	18.99	-39.1	-41.2	22.4	6.02e-01	0	56	0	401080320	49	4665
2026-01-07 00:42:58.81	158.22	18.87	-39.1	-41.1	22.5	6.01e-01	0	56	0	403177472	49	4625
2026-01-07 00:42:59.82	158.37	18.75	-39.1	-41.1	22.4	6.00e-01	0	56	0	405274624	49	4632
2026-01-07 00:43:00.83	158.51	18.63	-39.1	-41.2	22.4	6.00e-01	0	56	0	406847488	49	4668
2026-01-07 00:43:01.84	158.66	18.51	-39.1	-41.1	22.4	5.99e-01	0	56	0	408944640	49	4650
2026-01-07 00:43:02.85	158.80	18.39	-39.1	-41.2	22.3	6.02e-01	0	56	0	411041792	49	4675
2026-01-07 00:43:03.86	158.95	18.27	-39.2	-41.3	22.3	6.01e-01	0	56	0	412614656	49	4712
2026-01-07 00:43:04.87	159.09	18.15	-39.3	-41.4	22.2	5.99e-01	0	56	0	414711808	49	4769
2026-01-07 00:43:05.88	159.23	18.03	-39.2	-41.3	22.2	6.01e-01	0	56	0	416284672	49	4755
2026-01-07 00:43:06.89	159.37	17.92	-39.3	-41.4	22.1	6.01e-01	0	56	0	418381824	49	4808
2026-01-07 00:43:07.90	159.51	17.80	-39.4	-41.6	22.0	6.01e-01	0	56	0	420478976	49	4874
2026-01-07 00:43:08.91	159.65	17.68	-39.2	-41.3	22.2	6.01e-01	0	56	0	422051840	49	4755
2026-01-07 00:43:09.92	159.78	17.57	-39.1	-41.1	22.3	6.01e-01	0	56	0	424148992	49	4649
2026-01-07 00:43:10.93	159.92	17.45	-39.0	-41.1	22.4	6.00e-01	0	57	0	425721856	49	4605
2026-01-07 00:43:11.94	160.05	17.33	-39.0	-41.1	22.4	6.02e-01	0	56	0	427819008	49	4600
2026-01-07 00:43:12.95	160.19	17.22	-39.1	-41.2	22.3	6.00e-01	0	56	0	429916160	49	4661
2026-01-07 00:43:13.96	160.32	17.11	-39.0	-41.1	22.4	5.98e-01	0	56	0	431489024	49	4622
2026-01-07 00:43:14.97	160.45	16.99	-39.0	-41.1	22.4	5.99e-01	0	56	0	433586176	49	4600
2026-01-07 00:43:15.98	160.58	16.88	-39.0	-41.1	22.4	5.99e-01	0	56	0	435159040	49	4622
2026-01-07 00:43:16.99	160.71	16.76	-39.0	-41.1	22.4	6.00e-01	0	56	0	437256192	49	4618
2026-01-07 00:43:18.00	160.84	16.65	-39.1	-41.1	22.3	5.99e-01	0	56	0	439353344	49	4635
2026-01-07 00:43:19.01	160.97	16.54	-39.0	-41.1	22.3	6.02e-01	0	56	0	440926208	49	4608
2026-01-07 00:43:20.01	161.09	16.43	-39.1	-41.1	22.3	6.00e-01	0	56	0	443023360	49	4644
2026-01-07 00:43:21.02	161.22	16.32	-39.0	-41.0	22.4	6.00e-01	0	56	0	444596224	49	4589
2026-01-07 00:43:22.03	161.34	16.21	-38.9	-41.0	22.4	6.06e-01	0	56	0	446693376	49	4558
2026-01-07 00:43:23.04	161.47	16.10	-39.0	-41.0	22.4	6.04e-01	0	56	0	448790528	49	4571
2026-01-07 00:43:24.05	161.59	15.99	-38.9	-41.0	22.5	6.00e-01	0	56	0	450363392	49	4550
2026-01-07 00:43:25.06	161.71	15.88	-38.9	-41.0	22.4	6.03e-01	0	56	0	452460544	49	4567
2026-01-07 00:43:26.07	161.83	15.77	-39.1	-41.1	22.2	5.99e-01	0	56	0	454033408	49	4641
2026-01-07 00:43:27.08	161.95	15.66	-39.2	-41.3	22.1	6.00e-01	0	56	0	456130560	49	4727
2026-01-07 00:43:28.09	162.07	15.55	-39.2	-41.3	22.1	6.03e-01	0	56	0	458227712	49	4759
2026-01-07 00:43:29.11	162.19	15.44	-39.3	-41.4	22.0	6.01e-01	0	56	0	459800576	49	4786
2026-01-07 00:43:30.12	162.31	15.33	-39.2	-41.4	22.0	6.00e-01	0	56	0	461897728	49	4766
2026-01-07 00:43:31.13	162.42	15.23	-39.2	-41.3	22.1	6.03e-01	0	57	0	463994880	49	4726
2026-01-07 00:43:32.14	162.54	15.12	-39.1	-41.2	22.1	6.00e-01	0	56	0	465567744	49	4688
2026-01-07 00:43:33.15	162.65	15.01	-39.1	-41.2	22.2	6.03e-01	0	56	0	467664896	49	4683
2026-01-07 00:43:34.16	162.77	14.91	-39.1	-41.2	22.2	5.99e-01	0	56	0	469237760	49	4657
2026-01-07 00:43:35.17	162.88	14.80	-39.2	-41.3	22.0	6.01e-01	0	56	0	471334912	49	4747
2026-01-07 00:43:36.18	162.99	14.70	-39.2	-41.4	22.0	6.01e-01	0	56	0	473432064	49	4776
2026-01-07 00:43:37.19	163.10	14.59	-39.2	-41.4	22.0	5.98e-01	0	56	0	475004928	49	4785
2026-01-07 00:43:38.20	163.22	14.49	-39.1	-41.2	22.1	6.02e-01	0	56	0	477102080	49	4698
2026-01-07 00:43:39.21	163.33	14.39	-39.1	-41.2	22.1	6.02e-01	0	56	0	479199232	49	4671
2026-01-07 00:43:40.22	163.43	14.28	-39.1	-41.2	22.2	6.01e-01	0	56	0	480772096	49	4662
2026-01-07 00:43:41.23	163.54	14.18	-39.1	-41.2	22.1	6.01e-01	0	56	0	482869248	49	4698
2026-01-07 00:43:42.24	163.65	14.08	-39.0	-41.1	22.2	6.03e-01	0	56	0	484442112	49	4651
2026-01-07 00:43:43.25	163.76	13.97	-39.1	-41.2	22.1	6.01e-01	0	56	0	486539264	49	4672
2026-01-07 00:43:44.26	163.86	13.87	-39.1	-41.2	22.1	6.03e-01	0	56	0	488636416	49	4659
2026-01-07 00:43:45.27	163.97	13.77	-39.2	-41.3	22.0	5.99e-01	0	56	0	490209280	49	4735
2026-01-07 00:43:46.28	164.07	13.67	-39.1	-41.2	22.0	6.01e-01	0	56	0	492306432	49	4705
2026-01-07 00:43:47.29	164.18	13.57	-39.1	-41.3	22.0	6.00e-01	0	56	0	493879296	49	4714
2026-01-07 00:43:48.30	164.28	13.47	-39.1	-41.3	22.0	6.02e-01	0	56	0	495976448	49	4712
2026-01-07 00:43:49.31	164.38	13.37	-39.2	-41.3	21.8	6.00e-01	0	56	0	498073600	49	4758
2026-01-07 00:43:50.32	164.48	13.27	-39.1	-41.3	21.9	6.01e-01	0	56	0	499646464	49	4738
2026-01-07 00:43:51.33	164.58	13.17	-39.2	-41.3	21.9	6.01e-01	0	56	0	501743616	49	4759
2026-01-07 00:43:52.34	164.68	13.07	-39.2	-41.4	21.8	6.01e-01	0	56	0	503316480	49	4791
2026-01-07 00:43:53.35	164.78	12.97	-39.2	-41.4	21.7	5.99e-01	0	56	0	505413632	49	4814
2026-01-07 00:43:54.36	164.88	12.88	-39.2	-41.4	21.8	6.03e-01	0	56	0	507510784	49	4800
2026-01-07 00:43:55.37	164.98	12.78	-39.2	-41.4	21.8	6.02e-01	0	56	0	509083648	49	4807
2026-01-07 00:43:56.38	165.08	12.68	-39.3	-41.5	21.7	6.01e-01	0	56	0	511180800	49	4848
2026-01-07 00:43:57.39	165.17	12.58	-39.2	-41.5	21.7	6.03e-01	0	56	0	512753664	49	4819
2026-01-07 00:43:58.40	165.27	12.49	-39.3	-41.6	21.6	5.98e-01	0	56	0	514850816	49	4889
2026-01-07 00:43:59.41	165.37	12.39	-39.4	-41.6	21.5	6.03e-01	0	56	0	516947968	49	4922
2026-01-07 00:44:00.42	165.46	12.30	-39.4	-41.7	21.5	6.03e-01	0	56	0	518520832	49	4931
2026-01-07 00:44:01.43	165.56	12.20	-39.4	-41.7	21.5	6.01e-01	0	56	0	520617984	49	4946
2026-01-07 00:44:02.44	165.65	12.10	-39.4	-41.7	21.4	6.00e-01	0	56	0	522190848	49	4942
2026-01-07 00:44:03.45	165.74	12.01	-39.4	-41.7	21.4	6.02e-01	0	56	0	524288000	49	4960
2026-01-07 00:44:04.46	165.83	11.92	-39.5	-41.8	21.3	6.01e-01	0	56	0	526385152	49	5015
2026-01-07 00:44:05.47	165.93	11.82	-39.4	-41.7	21.4	6.03e-01	0	56	0	527958016	49	4935
2026-01-07 00:44:06.48	166.02	11.73	-39.4	-41.7	21.4	6.00e-01	0	56	0	530055168	49	4931
2026-01-07 00:44:07.49	166.11	11.63	-39.4	-41.7	21.4	6.01e-01	0	56	0	532152320	49	4930
2026-01-07 00:44:08.50	166.20	11.54	-39.3	-41.6	21.5	5.99e-01	0	56	0	533725184	49	4904
2026-01-07 00:44:09.51	166.29	11.45	-39.4	-41.7	21.4	6.01e-01	0	56	0	535822336	49	4952
2026-01-07 00:44:10.52	166.38	11.36	-39.4	-41.7	21.4	6.01e-01	0	56	0	537395200	49	4953
2026-01-07 00:44:11.53	166.46	11.26	-39.4	-41.8	21.3	5.98e-01	0	56	0	539492352	49	4988
2026-01-07 00:44:12.54	166.55	11.17	-39.4	-41.8	21.2	6.00e-01	0	56	0	541589504	49	4999
2026-01-07 00:44:13.55	166.64	11.08	-39.5	-41.8	21.2	5.99e-01	0	56	0	543162368	49	5018
2026-01-07 00:44:14.56	166.73	10.99	-39.5	-41.9	21.1	6.02e-01	0	56	0	545259520	49	5054
2026-01-07 00:44:15.57	166.81	10.90	-39.5	-41.9	21.1	5.98e-01	0	56	0	547356672	49	5046
2026-01-07 00:44:16.58	166.90	10.81	-39.6	-42.0	21.0	6.01e-01	0	56	0	548929536	49	5121
2026-01-07 00:44:17.59	166.98	10.72	-39.6	-42.0	21.0	6.01e-01	0	56	0	551026688	49	5110
2026-01-07 00:44:18.60	167.07	10.63	-39.5	-41.8	21.1	6.02e-01	0	56	0	552599552	49	5036
2026-01-07 00:44:19.61	167.15	10.54	-39.6	-42.0	21.0	6.04e-01	0	56	0	554696704	49	5113
2026-01-07 00:44:20.62	167.23	10.45	-39.6	-42.0	21.0	6.02e-01	0	56	0	556793856	49	5132
2026-01-07 00:44:21.62	167.31	10.36	-39.5	-41.9	21.0	5.99e-01	0	56	0	558366720	49	5090
2026-01-07 00:44:22.63	167.40	10.27	-39.6	-42.0	21.0	6.01e-01	0	56	0	560463872	49	5117
2026-01-07 00:44:23.64	167.48	10.18	-39.6	-42.1	20.8	6.01e-01	0	56	0	562036736	49	5188
2026-01-07 00:44:24.65	167.56	10.10	-39.7	-42.2	20.7	6.00e-01	0	56	0	564133888	50	4947
2026-01-07 00:44:25.66	167.64	10.01	-39.8	-42.3	20.6	6.01e-01	0	56	0	566231040	50	5003
2026-01-07 00:44:26.67	167.72	9.92	-39.7	-42.2	20.7	6.01e-01	0	56	0	567803904	50	4942
2026-01-07 00:44:27.68	167.80	9.83	-39.6	-42.1	20.7	6.01e-01	0	56	0	569901056	50	4908
2026-01-07 00:44:28.69	167.88	9.75	-39.7	-42.2	20.6	6.01e-01	0	56	0	571473920	50	4961
2026-01-07 00:44:29.70	167.96	9.66	-39.7	-42.2	20.6	6.01e-01	0	56	0	573571072	50	4975
2026-01-07 00:44:30.71	168.04	9.57	-39.7	-42.2	20.6	5.99e-01	0	56	0	575668224	50	4958
2026-01-07 00:44:31.72	168.11	9.49	-39.7	-42.2	20.6	6.01e-01	0	56	0	577241088	50	4937
2026-01-07 00:44:32.73	168.19	9.40	-39.7	-42.3	20.4	6.00e-01	0	56	0	579338240	50	5012
2026-01-07 00:44:33.74	168.27	9.32	-39.7	-42.2	20.5	6.03e-01	0	56	0	580911104	50	4964
2026-01-07 00:44:34.75	168.35	9.23	-39.6	-42.2	20.5	6.02e-01	0	56	0	583008256	50	4937
2026-01-07 00:44:35.76	168.42	9.15	-39.7	-42.3	20.4	6.00e-01	0	56	0	585105408	50	5000
2026-01-07 00:44:36.77	168.50	9.06	-39.7	-42.3	20.4	6.00e-01	0	56	0	586678272	50	5005
2026-01-07 00:44:37.78	168.57	8.98	-39.8	-42.4	20.3	6.01e-01	0	56	0	588775424	50	5085
2026-01-07 00:44:38.79	168.65	8.90	-39.7	-42.3	20.3	6.02e-01	0	56	0	590348288	50	5022
2026-01-07 00:44:39.80	168.72	8.81	-39.8	-42.4	20.2	6.01e-01	0	56	0	592445440	50	5082
2026-01-07 00:44:40.81	168.79	8.73	-39.8	-42.4	20.3	5.98e-01	0	56	0	594542592	50	5084
2026-01-07 00:44:41.82	168.87	8.65	-39.8	-42.5	20.2	6.01e-01	0	56	0	596115456	50	5112
2026-01-07 00:44:42.83	168.94	8.56	-39.8	-42.5	20.2	6.03e-01	0	56	0	598212608	50	5108
2026-01-07 00:44:43.84	169.01	8.48	-39.9	-42.5	20.1	6.02e-01	0	56	0	600309760	50	5136
2026-01-07 00:44:44.85	169.08	8.40	-39.8	-42.5	20.2	6.02e-01	0	56	0	601882624	50	5120
2026-01-07 00:44:45.86	169.16	8.32	-39.9	-42.6	20.0	6.01e-01	0	56	0	603979776	50	5213
2026-01-07 00:44:46.86	169.23	8.23	-39.9	-42.6	20.0	6.00e-01	0	56	0	605552640	50	5172
2026-01-07 00:44:47.87	169.30	8.15	-40.1	-42.9	19.7	5.99e-01	0	56	0	607649792	50	5372
2026-01-07 00:44:48.88	169.37	8.07	-40.1	-42.9	19.7	5.99e-01	0	56	0	609746944	50	5366
2026-01-07 00:44:49.90	169.44	7.99	-44.9	-62.3	3.8	7.48e-01	0	56	104	611319808	60	28307
2026-01-07 00:44:50.91	169.51	7.91	-45.3	-64.0	3.8	7.45e-01	0	56	104	611319808	61	32420
2026-01-07 00:44:51.92	169.58	7.83	-45.5	-64.4	3.8	7.42e-01	0	56	104	611319808	61	33797
2026-01-07 00:44:52.93	169.65	7.75	-45.7	-64.5	3.8	7.44e-01	0	56	104	611319808	61	34464
2026-01-07 00:44:53.94	169.71	7.67	-45.8	-64.7	3.8	7.46e-01	0	56	104	611319808	62	32952
2026-01-07 00:44:54.95	169.78	7.59	-45.9	-64.8	3.8	7.43e-01	0	56	104	611319808	62	33324
2026-01-07 00:44:55.96	169.85	7.51	-45.9	-64.8	3.8	7.45e-01	0	56	104	611319808	62	33586
2026-01-07 00:44:56.97	169.92	7.43	-46.0	-64.9	3.8	7.42e-01	0	56	104	611319808	62	33861
2026-01-07 00:44:57.98	169.98	7.35	-46.0	-64.9	3.8	7.49e-01	0	56	104	611319808	62	33899
2026-01-07 00:44:58.99	170.05	7.27	-46.0	-64.9	3.8	7.46e-01	0	56	104	611319808	62	34075
2026-01-07 00:45:00.00	170.12	7.19	-46.0	-64.9	3.8	7.43e-01	0	56	104	611319808	62	34042
2026-01-07 00:45:01.01	170.18	7.12	-46.0	-64.9	3.8	7.46e-01	0	57	104	611319808	62	33974
2026-01-07 00:45:02.02	170.25	7.04	-46.0	-64.9	3.8	7.48e-01	0	56	104	611319808	62	33810
2026-01-07 00:45:03.03	170.31	6.96	-46.0	-64.9	3.8	7.48e-01	0	56	104	611319808	62	33707
2026-01-07 00:45:04.04	170.38	6.88	-45.9	-64.9	3.8	7.47e-01	0	57	104	611319808	62	33735
2026-01-07 00:45:05.05	170.44	6.80	-46.0	-64.8	3.8	7.46e-01	0	56	104	611319808	62	33690
2026-01-07 00:45:06.06	170.50	6.73	-46.0	-64.8	3.8	7.44e-01	0	56	104	611319808	62	33643
2026-01-07 00:45:07.07	170.57	6.65	-45.9	-64.8	3.8	7.44e-01	0	57	104	611319808	62	33578
2026-01-07 00:45:08.08	170.63	6.57	-45.9	-64.8	3.8	7.48e-01	0	57	104	611319808	62	33540
2026-01-07 00:45:09.09	170.69	6.50	-45.9	-64.8	3.8	7.44e-01	0	56	104	611319808	62	33571
2026-01-07 00:45:10.10	170.76	6.42	-45.9	-64.8	3.8	7.44e-01	0	57	104	611319808	62	33483
2026-01-07 00:45:11.11	170.82	6.35	-45.9	-64.8	3.8	7.47e-01	0	56	104	611319808	62	33546
2026-01-07 00:45:12.12	170.88	6.27	-45.9	-64.8	3.8	7.48e-01	0	56	104	611319808	62	33462
2026-01-07 00:45:13.13	170.94	6.19	-45.9	-64.8	3.8	7.47e-01	0	57	104	611319808	62	33441
2026-01-07 00:45:14.14	171.00	6.12	-45.9	-64.8	3.8	7.48e-01	0	57	104	611319808	62	33501
2026-01-07 00:45:15.15	171.06	6.04	-45.9	-64.8	3.8	7.45e-01	0	57	104	611319808	62	33437
2026-01-07 00:45:16.17	171.13	5.97	-45.9	-64.8	3.8	7.48e-01	0	56	104	611319808	62	33424
2026-01-07 00:45:17.18	171.19	5.89	-45.9	-64.8	3.8	7.43e-01	0	57	104	611319808	62	33372
2026-01-07 00:45:18.19	171.25	5.82	-45.9	-64.8	3.8	7.47e-01	0	57	104	611319808	62	33455
2026-01-07 00:45:19.19	171.30	5.75	-45.9	-64.8	3.8	7.48e-01	0	57	104	611319808	62	33383
2026-01-07 00:45:20.21	171.36	5.67	-45.9	-64.8	3.8	7.48e-01	0	56	104	611319808	62	33395
2026-01-07 00:45:21.22	171.42	5.60	-45.9	-64.8	3.8	7.48e-01	0	57	104	611319808	62	33404
2026-01-07 00:45:22.23	171.48	5.52	-45.9	-64.8	3.8	7.48e-01	0	56	104	611319808	62	33360
2026-01-07 00:45:23.24	171.54	5.45	-45.9	-64.8	3.8	7.47e-01	0	56	104	611319808	62	33430
2026-01-07 00:45:24.25	171.60	5.38	-45.9	-64.8	3.8	7.43e-01	0	56	104	611319808	62	33361
2026-01-07 00:45:25.26	171.66	5.30	-45.9	-64.8	3.8	7.47e-01	0	56	104	611319808	62	33380
2026-01-07 00:45:26.27	171.71	5.23	-45.9	-64.8	3.8	7.44e-01	0	57	104	611319808	62	33337
2026-01-07 00:45:27.28	171.77	5.16	-45.9	-64.8	3.8	7.45e-01	0	57	104	611319808	62	33373
2026-01-07 00:45:28.29	171.83	5.09	-45.9	-64.8	3.8	7.43e-01	0	56	104	611319808	62	33364
2026-01-07 00:45:29.30	171.88	5.01	-45.9	-64.8	3.8	7.45e-01	0	57	104	611319808	62	33374
2026-01-07 00:45:30.31	171.94	4.94	-45.9	-64.8	3.8	7.47e-01	0	56	104	611319808	62	33319
2026-01-07 00:45:31.32	172.00	4.87	-45.9	-64.8	3.8	7.46e-01	0	57	104	611319808	62	33326
2026-01-07 00:45:32.33	172.05	4.80	-45.9	-64.8	3.8	7.45e-01	0	57	104	611319808	62	33401
2026-01-07 00:45:33.34	172.11	4.73	-45.9	-64.8	3.8	7.46e-01	0	57	104	611319808	62	33362
2026-01-07 00:45:34.35	172.16	4.66	-45.9	-64.8	3.8	7.45e-01	0	57	104	611319808	62	33361
2026-01-07 00:45:35.36	172.22	4.59	-45.9	-64.8	3.8	7.45e-01	0	57	104	611319808	62	33333
2026-01-07 00:45:36.38	172.27	4.51	-45.9	-64.8	3.8	7.45e-01	0	57	104	611319808	62	33319
2026-01-07 00:45:37.39	172.33	4.44	-45.9	-64.8	3.8	7.45e-01	0	57	104	611319808	62	33347
2026-01-07 00:45:38.40	172.38	4.37	-45.9	-64.8	3.8	7.48e-01	0	57	104	611319808	62	33347
2026-01-07 00:45:39.41	172.43	4.30	-45.9	-64.8	3.8	7.45e-01	0	57	104	611319808	62	33342
2026-01-07 00:45:40.42	172.49	4.23	-45.9	-64.8	3.8	7.44e-01	0	56	104	611319808	62	33409
2026-01-07 00:45:41.43	172.54	4.16	-45.9	-64.8	3.8	7.47e-01	0	57	104	611319808	62	33379
2026-01-07 00:45:42.44	172.59	4.09	-45.9	-64.8	3.8	7.44e-01	0	57	104	611319808	62	33365
2026-01-07 00:45:43.45	172.65	4.02	-45.9	-64.8	3.8	7.47e-01	0	57	104	611319808	62	33353
2026-01-07 00:45:44.46	172.70	3.95	-45.9	-64.8	3.8	7.47e-01	0	57	104	611319808	62	33406
2026-01-07 00:45:45.47	172.75	3.89	-45.9	-64.8	3.8	7.47e-01	0	56	104	611319808	62	33334
2026-01-07 00:45:46.48	172.80	3.82	-45.9	-64.8	3.8	7.40e-01	0	56	104	611319808	62	33315
2026-01-07 00:45:47.49	172.86	3.75	-45.9	-64.8	3.8	7.45e-01	0	57	104	611319808	62	33364
2026-01-07 00:45:48.50	172.91	3.68	-45.9	-64.8	3.8	7.43e-01	0	56	104	611319808	62	33372
2026-01-07 00:45:49.51	172.96	3.61	-45.9	-64.8	3.8	7.45e-01	0	56	104	611319808	62	33362
2026-01-07 00:45:50.52	173.01	3.54	-45.9	-64.8	3.8	7.41e-01	0	56	104	611319808	62	33371
2026-01-07 00:45:51.54	173.06	3.47	-45.9	-64.8	3.8	7.46e-01	0	57	104	611319808	62	33381
2026-01-07 00:45:52.55	173.11	3.41	-45.9	-64.8	3.8	7.42e-01	0	56	104	611319808	62	33363
2026-01-07 00:45:53.56	173.16	3.34	-45.9	-64.8	3.8	7.45e-01	0	57	104	611319808	62	33319
2026-01-07 00:45:54.57	173.21	3.27	-45.9	-64.8	3.8	7.44e-01	0	57	104	611319808	62	33317
2026-01-07 00:45:55.58	173.26	3.20	-45.9	-64.8	3.8	7.43e-01	0	57	104	611319808	62	33338
2026-01-07 00:45:56.59	173.31	3.14	-45.9	-64.8	3.8	7.44e-01	0	57	104	611319808	62	33364
2026-01-07 00:45:57.60	173.36	3.07	-45.9	-64.8	3.8	7.48e-01	0	57	104	611319808	62	33367
2026-01-07 00:45:58.61	173.41	3.00	-45.9	-64.8	3.8	7.45e-01	0	57	104	611319808	62	33367
2026-01-07 00:45:59.62	173.46	2.94	-45.9	-64.8	3.8	7.45e-01	0	56	104	611319808	62	33344
2026-01-07 00:46:00.63	173.51	2.87	-45.9	-64.8	3.8	7.47e-01	0	56	104	611319808	62	33368
2026-01-07 00:46:01.64	173.55	2.80	-45.9	-64.8	3.8	7.48e-01	0	56	104	611319808	62	33383
2026-01-07 00:46:02.65	173.60	2.74	-45.9	-64.8	3.8	7.44e-01	0	57	104	611319808	62	33360
2026-01-07 00:46:03.67	173.65	2.67	-45.9	-64.8	3.8	7.47e-01	0	56	104	611319808	62	33311
2026-01-07 00:46:04.68	173.70	2.60	-45.9	-64.7	3.8	7.45e-01	0	56	104	611319808	62	33304
2026-01-07 00:46:05.69	173.75	2.54	-45.9	-64.8	3.8	7.45e-01	0	57	104	611319808	62	33313
2026-01-07 00:46:06.70	173.79	2.47	-45.8	-64.7	3.8	7.45e-01	0	57	104	611319808	62	33308
2026-01-07 00:46:07.71	173.84	2.41	-45.9	-64.7	3.8	7.43e-01	0	57	104	611319808	62	33307
2026-01-07 00:46:08.72	173.89	2.34	-45.8	-64.7	3.8	7.41e-01	0	57	104	611319808	62	33273
2026-01-07 00:46:09.73	173.93	2.28	-45.8	-64.8	3.8	7.44e-01	0	57	104	611319808	62	33354
2026-01-07 00:46:10.74	173.98	2.21	-45.8	-64.7	3.8	7.45e-01	0	57	104	611319808	62	33253
2026-01-07 00:46:11.75	174.03	2.15	-45.8	-64.8	3.8	7.46e-01	0	57	104	611319808	62	33342
2026-01-07 00:46:12.76	174.07	2.08	-45.8	-64.7	3.8	7.43e-01	0	57	104	611319808	62	33246
2026-01-07 00:46:13.77	174.12	2.02	-45.8	-64.7	3.8	7.43e-01	0	57	104	611319808	62	33291
2026-01-07 00:46:14.78	174.16	1.95	-45.8	-64.7	3.8	7.43e-01	0	57	104	611319808	62	33256

#Closed at: 2026-01-07 00:46:14
#Recorded file [611 MB]: D:/lorett/data/31039_260107_033837.dat