passes_logs/2026/01/07/R2.0S_Moscow/R2.0S_Moscow__20260107_094520_NOAA_21_JPSS-2_rec.log

#Pass ID: 20260107_094520_NOAA 21 (JPSS-2)
#Satellite: NOAA 21 (JPSS-2)
#Configuration: NOAA-21
#almurnet v.1.7.20251203
#Start time: 2026-01-07 09:45:20

#Version: 2.2.20231116
#Station: R2.0S_Moscow
#Location: 37.707566 lon 55.798166 lat
#TLE: 1 54234U 22150A   26005.56767909  .00000152  00000+0  92756-4 0  9990
#TLE: 2 54234  98.7490 306.5820 0001036 340.2747  19.8389 14.19532370163472

#Time	Az	El	Level	Level2	SNR	BER	BlckErr	Temp	State	Recorded	gain1	gain2
2026-01-07 09:45:20.82	155.86	2.05	-44.0	-56.2	3.8	1.49e+00	0	47	0	0	59	14781
2026-01-07 09:45:21.82	155.86	2.11	-44.0	-56.2	3.8	1.49e+00	0	47	104	0	59	14773
2026-01-07 09:45:22.83	155.85	2.18	-44.0	-56.2	3.8	1.49e+00	0	47	104	0	59	14765
2026-01-07 09:45:23.84	155.85	2.24	-44.0	-56.2	3.8	1.49e+00	0	48	104	0	59	14788
2026-01-07 09:45:24.85	155.84	2.31	-44.0	-56.2	3.8	1.49e+00	0	47	104	0	59	14780
2026-01-07 09:45:25.86	155.84	2.38	-44.0	-56.2	3.8	1.49e+00	0	48	104	0	59	14795
2026-01-07 09:45:26.88	155.83	2.44	-44.0	-56.2	3.8	1.49e+00	0	48	104	0	59	14791
2026-01-07 09:45:27.89	155.83	2.51	-44.0	-56.2	3.8	1.49e+00	0	48	104	0	59	14780
2026-01-07 09:45:28.90	155.82	2.57	-44.0	-56.2	3.8	1.49e+00	0	48	104	0	59	14761
2026-01-07 09:45:29.91	155.82	2.64	-44.0	-56.2	3.8	1.49e+00	0	48	104	0	59	14788
2026-01-07 09:45:30.92	155.81	2.71	-44.0	-56.2	3.8	1.49e+00	0	48	104	0	59	14754
2026-01-07 09:45:31.93	155.81	2.77	-44.0	-56.2	3.8	1.49e+00	0	48	104	0	59	14760
2026-01-07 09:45:32.94	155.80	2.84	-44.0	-56.2	3.8	1.49e+00	0	48	104	0	59	14817
2026-01-07 09:45:33.95	155.80	2.91	-44.0	-56.2	3.8	1.49e+00	0	48	104	0	59	14808
2026-01-07 09:45:34.96	155.79	2.97	-44.0	-56.2	3.8	1.49e+00	0	48	104	0	59	14791
2026-01-07 09:45:35.97	155.79	3.04	-44.0	-56.2	3.8	1.49e+00	0	48	104	0	59	14773
2026-01-07 09:45:36.98	155.78	3.11	-44.0	-56.2	3.8	1.49e+00	0	48	104	0	59	14743
2026-01-07 09:45:38.00	155.78	3.18	-44.0	-56.2	3.8	1.49e+00	0	49	104	0	59	14758
2026-01-07 09:45:39.01	155.77	3.25	-44.0	-56.1	3.8	1.49e+00	0	49	104	0	59	14699
2026-01-07 09:45:40.02	155.76	3.31	-44.0	-56.2	3.8	1.49e+00	0	49	104	0	59	14740
2026-01-07 09:45:41.03	155.76	3.38	-44.0	-56.2	3.8	1.49e+00	0	49	104	0	59	14756
2026-01-07 09:45:42.04	155.75	3.45	-44.0	-56.1	3.8	1.49e+00	0	49	104	0	59	14688
2026-01-07 09:45:43.05	155.75	3.52	-44.0	-56.2	3.8	1.49e+00	0	49	104	0	59	14769
2026-01-07 09:45:44.06	155.74	3.59	-44.0	-56.2	3.8	1.49e+00	0	49	104	0	59	14761
2026-01-07 09:45:45.07	155.74	3.66	-44.0	-56.2	3.8	1.49e+00	0	49	104	0	59	14713
2026-01-07 09:45:46.08	155.73	3.73	-44.0	-56.2	3.8	1.49e+00	0	49	104	0	59	14805
2026-01-07 09:45:47.10	155.72	3.80	-44.0	-56.2	3.8	1.49e+00	0	49	104	0	59	14732
2026-01-07 09:45:48.11	155.72	3.86	-44.0	-56.1	3.8	1.49e+00	0	49	104	0	59	14707
2026-01-07 09:45:49.12	155.71	3.93	-44.0	-56.2	3.8	1.49e+00	0	49	104	0	59	14785
2026-01-07 09:45:50.13	155.71	4.00	-44.0	-56.2	3.8	1.49e+00	0	49	104	0	59	14748
2026-01-07 09:45:51.14	155.70	4.07	-44.0	-56.2	3.8	1.49e+00	0	49	104	0	59	14755
2026-01-07 09:45:52.15	155.69	4.14	-44.0	-56.2	3.8	1.49e+00	0	49	104	0	59	14742
2026-01-07 09:45:53.16	155.69	4.21	-44.0	-56.2	3.8	1.49e+00	0	50	104	0	59	14748
2026-01-07 09:45:54.17	155.68	4.29	-44.0	-56.2	3.8	1.49e+00	0	50	104	0	59	14715
2026-01-07 09:45:55.18	155.68	4.36	-44.0	-56.2	3.8	1.49e+00	0	49	104	0	59	14757
2026-01-07 09:45:56.20	155.67	4.43	-44.0	-56.2	3.8	1.49e+00	0	49	104	0	59	14774
2026-01-07 09:45:57.21	155.66	4.50	-44.0	-56.2	3.8	1.49e+00	0	50	104	0	59	14756
2026-01-07 09:45:58.22	155.66	4.57	-44.0	-56.2	3.8	1.49e+00	0	50	104	0	59	14719
2026-01-07 09:45:59.23	155.65	4.64	-44.0	-56.2	3.8	1.49e+00	0	50	104	0	59	14763
2026-01-07 09:46:00.24	155.64	4.71	-44.0	-56.2	3.8	1.49e+00	0	50	104	0	59	14744
2026-01-07 09:46:01.25	155.64	4.78	-44.0	-56.2	3.8	1.49e+00	0	50	104	0	59	14743
2026-01-07 09:46:02.26	155.63	4.86	-44.0	-56.2	3.8	1.49e+00	0	50	104	0	59	14733
2026-01-07 09:46:03.27	155.63	4.93	-44.0	-56.1	3.8	1.49e+00	0	50	104	0	59	14705
2026-01-07 09:46:04.28	155.62	5.00	-44.0	-56.1	3.8	1.49e+00	0	50	104	0	59	14697
2026-01-07 09:46:05.29	155.61	5.07	-44.0	-56.1	3.8	1.49e+00	0	50	104	0	59	14669
2026-01-07 09:46:06.31	155.61	5.15	-44.0	-56.1	3.8	1.49e+00	0	50	104	0	59	14650
2026-01-07 09:46:07.32	155.60	5.22	-44.0	-56.1	3.8	1.49e+00	0	50	104	0	59	14682
2026-01-07 09:46:08.33	155.59	5.29	-44.0	-56.1	3.8	1.49e+00	0	50	104	0	59	14704
2026-01-07 09:46:09.34	155.59	5.37	-44.0	-56.1	3.8	1.49e+00	0	50	104	0	59	14659
2026-01-07 09:46:10.35	155.58	5.44	-44.0	-56.1	3.8	1.49e+00	0	50	104	0	59	14695
2026-01-07 09:46:11.36	155.57	5.51	-44.0	-56.1	3.8	1.49e+00	0	50	104	0	59	14659
2026-01-07 09:46:12.37	155.56	5.59	-44.0	-56.1	3.8	1.49e+00	0	51	104	0	59	14684
2026-01-07 09:46:13.38	155.56	5.66	-43.9	-56.1	3.8	1.49e+00	0	50	104	0	59	14650
2026-01-07 09:46:14.39	155.55	5.74	-44.0	-56.1	3.8	1.49e+00	0	50	104	0	59	14556
2026-01-07 09:46:15.40	155.54	5.81	-43.9	-56.0	3.8	1.49e+00	0	51	104	0	59	14513
2026-01-07 09:46:16.42	155.54	5.89	-43.9	-56.0	3.8	1.49e+00	0	51	104	0	59	14427
2026-01-07 09:46:17.43	155.53	5.96	-43.9	-55.9	3.8	1.49e+00	0	51	104	0	59	14353
2026-01-07 09:46:18.44	155.52	6.04	-43.9	-55.8	3.8	1.49e+00	0	51	104	0	59	14067
2026-01-07 09:46:19.45	155.52	6.11	-43.9	-55.7	3.8	1.49e+00	0	51	104	0	59	13916
2026-01-07 09:46:20.46	155.51	6.19	-43.9	-55.5	3.8	1.49e+00	0	51	104	0	59	13696
2026-01-07 09:46:21.47	155.50	6.26	-43.9	-55.4	3.8	1.49e+00	0	51	104	0	59	13541
2026-01-07 09:46:22.48	155.49	6.34	-43.9	-55.4	3.8	1.49e+00	0	51	104	0	59	13483
2026-01-07 09:46:23.49	155.49	6.42	-43.9	-55.4	3.8	1.49e+00	0	51	104	0	59	13544
2026-01-07 09:46:24.50	155.48	6.49	-43.9	-55.5	3.8	1.49e+00	0	51	104	0	59	13679
2026-01-07 09:46:25.51	155.47	6.57	-43.9	-55.7	3.8	1.49e+00	0	51	104	0	59	13941
2026-01-07 09:46:26.53	155.46	6.65	-43.9	-55.8	3.8	1.49e+00	0	51	104	0	59	14085
2026-01-07 09:46:27.54	155.46	6.73	-43.9	-55.8	3.8	1.49e+00	0	51	104	0	59	14112
2026-01-07 09:46:28.55	155.45	6.80	-43.9	-55.6	3.8	1.49e+00	0	51	104	0	59	13738
2026-01-07 09:46:29.56	155.44	6.88	-43.8	-55.0	3.8	1.49e+00	0	51	104	0	59	12914
2026-01-07 09:46:30.57	155.43	6.96	-43.7	-54.1	3.9	1.49e+00	0	51	104	0	59	11648
2026-01-07 09:46:31.58	155.42	7.04	-43.6	-52.4	4.2	1.47e+00	0	51	104	0	59	9589
2026-01-07 09:46:32.59	155.42	7.12	-43.3	-51.7	4.0	1.04e+00	0	51	104	0	58	9361
2026-01-07 09:46:33.60	155.41	7.19	-43.0	-49.8	5.5	5.34e-01	0	51	0	2097152	58	7509
2026-01-07 09:46:34.62	155.40	7.27	-42.8	-48.8	6.2	3.18e-01	0	51	0	5242880	57	7065
2026-01-07 09:46:35.62	155.39	7.35	-42.4	-47.6	7.3	1.42e-01	0	52	0	8388608	56	6527
2026-01-07 09:46:36.64	155.38	7.43	-42.0	-46.6	8.2	7.44e-02	0	51	0	11534336	56	5845
2026-01-07 09:46:37.65	155.38	7.51	-41.4	-45.4	9.3	2.61e-02	0	52	0	14680064	54	5703
2026-01-07 09:46:38.66	155.37	7.59	-41.1	-44.7	10.0	9.77e-03	0	51	0	17825792	54	5262
2026-01-07 09:46:39.67	155.36	7.67	-40.7	-44.0	10.7	4.79e-03	0	52	0	20971520	53	5133
2026-01-07 09:46:40.68	155.35	7.75	-40.2	-43.2	11.6	9.01e-04	0	52	0	24117248	52	4969
2026-01-07 09:46:41.69	155.34	7.83	-40.0	-42.9	11.9	5.31e-04	0	52	0	27262976	52	4793
2026-01-07 09:46:42.70	155.33	7.91	-39.6	-42.2	12.8	7.70e-05	0	52	0	30408704	51	4664
2026-01-07 09:46:43.71	155.32	8.00	-39.5	-42.0	12.9	7.09e-05	0	52	0	33554432	51	4548
2026-01-07 09:46:44.72	155.32	8.08	-44.2	-55.1	3.8	1.51e-01	0	52	104	35651584	59	13031
2026-01-07 09:46:45.73	155.31	8.16	-44.2	-55.8	3.8	1.49e+00	0	52	104	35651584	59	14070
2026-01-07 09:46:46.74	155.30	8.24	-39.9	-42.7	12.4	2.38e-03	0	52	0	36700160	50	5230
2026-01-07 09:46:47.75	155.29	8.32	-41.3	-45.3	9.7	3.41e-03	0	52	0	39845888	53	5928
2026-01-07 09:46:48.76	155.28	8.41	-39.1	-41.5	13.5	4.65e-05	0	52	0	42991616	50	4551
2026-01-07 09:46:49.78	155.27	8.49	-39.2	-41.6	13.4	1.52e-05	0	52	0	46137344	50	4633
2026-01-07 09:46:50.79	155.26	8.57	-39.1	-41.5	13.5	1.29e-05	0	52	0	49283072	50	4547
2026-01-07 09:46:51.80	155.25	8.66	-39.0	-41.2	13.8	6.80e-06	0	52	0	52428800	50	4433
2026-01-07 09:46:52.81	155.24	8.74	-39.0	-41.2	13.8	3.00e-06	0	52	0	55574528	49	4691
2026-01-07 09:46:53.82	155.23	8.82	-39.0	-41.2	13.8	3.00e-06	0	52	0	58720256	49	4683
2026-01-07 09:46:54.83	155.23	8.91	-39.0	-41.2	13.9	2.20e-06	0	52	0	61865984	49	4675
2026-01-07 09:46:55.84	155.22	8.99	-39.0	-41.3	13.8	4.50e-06	0	52	0	65011712	49	4732
2026-01-07 09:46:56.85	155.21	9.08	-39.0	-41.2	13.9	2.20e-06	0	52	0	68157440	49	4690
2026-01-07 09:46:57.86	155.20	9.16	-38.8	-40.9	14.2	1.50e-06	0	52	0	71303168	49	4517
2026-01-07 09:46:58.87	155.19	9.25	-38.9	-41.0	14.1	0.00e+00	0	52	0	74448896	49	4584
2026-01-07 09:46:59.88	155.18	9.33	-38.8	-40.9	14.2	0.00e+00	0	52	0	77594624	49	4534
2026-01-07 09:47:00.89	155.17	9.42	-38.6	-40.7	14.4	0.00e+00	0	52	0	80740352	49	4428
2026-01-07 09:47:01.90	155.16	9.51	-38.6	-40.7	14.4	7.00e-07	0	52	0	83886080	49	4422
2026-01-07 09:47:02.91	155.15	9.59	-38.6	-40.7	14.4	0.00e+00	0	52	0	87031808	49	4419
2026-01-07 09:47:03.92	155.14	9.68	-38.6	-40.7	14.5	7.00e-07	0	52	0	90177536	49	4402
2026-01-07 09:47:04.93	155.13	9.77	-38.6	-40.7	14.5	1.50e-06	0	52	0	93323264	49	4402
2026-01-07 09:47:05.94	155.12	9.85	-38.6	-40.7	14.5	0.00e+00	0	52	0	96468992	49	4410
2026-01-07 09:47:06.95	155.11	9.94	-38.6	-40.7	14.6	0.00e+00	0	53	0	99614720	49	4408
2026-01-07 09:47:07.96	155.10	10.03	-38.4	-40.4	14.8	0.00e+00	0	53	0	102760448	48	4543
2026-01-07 09:47:08.97	155.09	10.12	-38.5	-40.5	14.8	0.00e+00	0	53	0	105906176	48	4560
2026-01-07 09:47:09.98	155.08	10.21	-38.5	-40.5	14.8	0.00e+00	0	53	0	109051904	48	4557
2026-01-07 09:47:10.99	155.07	10.30	-38.5	-40.5	14.8	7.00e-07	0	53	0	112197632	48	4574
2026-01-07 09:47:12.00	155.06	10.39	-38.5	-40.5	14.8	7.00e-07	0	53	0	115343360	48	4568
2026-01-07 09:47:13.01	155.05	10.48	-38.4	-40.4	14.9	0.00e+00	0	53	0	118489088	48	4520
2026-01-07 09:47:14.02	155.03	10.57	-38.4	-40.4	14.9	0.00e+00	0	53	0	121634816	48	4519
2026-01-07 09:47:15.03	155.02	10.66	-38.4	-40.4	14.9	0.00e+00	0	53	0	124780544	48	4527
2026-01-07 09:47:16.04	155.01	10.75	-38.4	-40.3	15.0	0.00e+00	0	53	0	127926272	48	4470
2026-01-07 09:47:17.06	155.00	10.84	-38.5	-40.4	14.9	7.00e-07	0	53	0	131072000	48	4530
2026-01-07 09:47:18.07	154.99	10.93	-38.4	-40.3	15.1	7.00e-07	0	53	0	134217728	48	4453
2026-01-07 09:47:19.07	154.98	11.02	-38.3	-40.2	15.2	0.00e+00	0	53	0	137363456	48	4396
2026-01-07 09:47:20.09	154.97	11.11	-38.4	-40.3	15.1	0.00e+00	0	53	0	140509184	48	4461
2026-01-07 09:47:21.10	154.96	11.21	-38.2	-40.0	15.3	0.00e+00	0	53	0	143654912	48	4339
2026-01-07 09:47:22.11	154.95	11.30	-38.3	-40.1	15.2	0.00e+00	0	53	0	146800640	48	4383
2026-01-07 09:47:23.12	154.93	11.39	-38.2	-40.1	15.3	0.00e+00	0	53	0	149946368	48	4346
2026-01-07 09:47:24.13	154.92	11.49	-38.3	-40.2	15.2	0.00e+00	0	53	0	153092096	48	4399
2026-01-07 09:47:25.14	154.91	11.58	-38.1	-39.9	15.5	0.00e+00	0	53	0	156237824	48	4285
2026-01-07 09:47:26.15	154.90	11.67	-38.1	-40.0	15.5	0.00e+00	0	53	0	159383552	48	4295
2026-01-07 09:47:27.16	154.89	11.77	-38.2	-40.0	15.4	0.00e+00	0	53	0	162529280	48	4324
2026-01-07 09:47:28.17	154.87	11.86	-38.2	-40.0	15.4	0.00e+00	0	53	0	165675008	48	4326
2026-01-07 09:47:29.18	154.86	11.96	-38.1	-39.9	15.5	0.00e+00	0	53	0	168820736	48	4265
2026-01-07 09:47:30.19	154.85	12.05	-38.1	-39.9	15.6	0.00e+00	0	53	0	171966464	48	4268
2026-01-07 09:47:31.19	154.84	12.15	-38.0	-39.8	15.7	0.00e+00	0	53	0	175112192	48	4233
2026-01-07 09:47:32.20	154.83	12.24	-38.1	-39.9	15.5	0.00e+00	0	53	0	178257920	48	4281
2026-01-07 09:47:33.21	154.81	12.34	-38.0	-39.8	15.7	0.00e+00	0	53	0	181403648	48	4200
2026-01-07 09:47:34.22	154.80	12.44	-38.0	-39.8	15.7	0.00e+00	0	53	0	184549376	48	4233
2026-01-07 09:47:35.23	154.79	12.54	-38.1	-39.9	15.7	0.00e+00	0	53	0	187695104	48	4243
2026-01-07 09:47:36.24	154.78	12.63	-37.8	-39.6	15.9	0.00e+00	0	53	0	190840832	47	4356
2026-01-07 09:47:37.25	154.76	12.73	-37.8	-39.5	15.9	0.00e+00	0	53	0	193986560	47	4335
2026-01-07 09:47:38.26	154.75	12.83	-37.9	-39.7	15.7	0.00e+00	0	53	0	197132288	47	4417
2026-01-07 09:47:39.27	154.74	12.93	-37.8	-39.6	15.8	0.00e+00	0	54	0	200278016	47	4352
2026-01-07 09:47:40.28	154.72	13.03	-37.8	-39.6	15.9	0.00e+00	0	53	0	203423744	47	4352
2026-01-07 09:47:41.29	154.71	13.13	-37.8	-39.5	15.9	0.00e+00	0	53	0	206569472	47	4323
2026-01-07 09:47:42.30	154.70	13.23	-37.8	-39.5	15.9	0.00e+00	0	54	0	209715200	47	4337
2026-01-07 09:47:43.31	154.68	13.33	-37.7	-39.5	16.0	0.00e+00	0	53	0	212860928	47	4294
2026-01-07 09:47:44.32	154.67	13.43	-37.8	-39.5	15.9	0.00e+00	0	53	0	216006656	47	4338
2026-01-07 09:47:45.33	154.66	13.53	-37.8	-39.5	16.0	0.00e+00	0	53	0	219152384	47	4304
2026-01-07 09:47:46.34	154.64	13.64	-37.7	-39.5	16.0	0.00e+00	0	53	0	222298112	47	4294
2026-01-07 09:47:47.35	154.63	13.74	-37.8	-39.5	16.0	0.00e+00	0	53	0	225443840	47	4333
2026-01-07 09:47:48.36	154.61	13.84	-37.8	-39.5	16.0	0.00e+00	0	54	0	228589568	47	4300
2026-01-07 09:47:49.37	154.60	13.94	-37.7	-39.4	16.1	0.00e+00	0	54	0	231735296	47	4271
2026-01-07 09:47:50.38	154.59	14.05	-37.8	-39.5	16.0	0.00e+00	0	54	0	234881024	47	4313
2026-01-07 09:47:51.39	154.57	14.15	-37.7	-39.5	16.0	0.00e+00	0	54	0	238026752	47	4294
2026-01-07 09:47:52.40	154.56	14.26	-37.8	-39.6	15.9	0.00e+00	0	54	0	241172480	47	4346
2026-01-07 09:47:53.41	154.54	14.36	-37.8	-39.5	16.1	0.00e+00	0	54	0	244318208	47	4295
2026-01-07 09:47:54.42	154.53	14.47	-37.8	-39.5	16.0	0.00e+00	0	54	0	247463936	47	4309
2026-01-07 09:47:55.43	154.51	14.57	-37.8	-39.6	16.0	0.00e+00	0	54	0	250609664	47	4354
2026-01-07 09:47:56.43	154.50	14.68	-37.8	-39.5	16.1	0.00e+00	0	54	0	253755392	47	4316
2026-01-07 09:47:57.44	154.48	14.79	-37.7	-39.4	16.2	0.00e+00	0	54	0	256901120	47	4277
2026-01-07 09:47:58.46	154.47	14.89	-37.7	-39.4	16.2	0.00e+00	0	54	0	260046848	47	4262
2026-01-07 09:47:59.46	154.45	15.00	-37.8	-39.5	16.1	0.00e+00	0	54	0	263192576	47	4298
2026-01-07 09:48:00.48	154.44	15.11	-37.7	-39.4	16.2	0.00e+00	0	54	0	266338304	47	4279
2026-01-07 09:48:01.49	154.42	15.22	-37.8	-39.5	16.1	0.00e+00	0	54	0	269484032	47	4293
2026-01-07 09:48:02.50	154.40	15.33	-37.8	-39.5	16.2	0.00e+00	0	54	0	272629760	47	4295
2026-01-07 09:48:03.50	154.39	15.44	-37.8	-39.5	16.1	0.00e+00	0	54	0	275775488	47	4299
2026-01-07 09:48:04.51	154.37	15.55	-37.8	-39.5	16.1	0.00e+00	0	54	0	278921216	47	4301
2026-01-07 09:48:05.53	154.36	15.66	-37.8	-39.5	16.1	0.00e+00	0	54	0	283115520	47	4302
2026-01-07 09:48:06.54	154.34	15.77	-37.8	-39.5	16.1	0.00e+00	0	54	0	285212672	47	4308
2026-01-07 09:48:07.55	154.32	15.88	-37.9	-39.6	16.1	0.00e+00	0	54	0	288358400	47	4345
2026-01-07 09:48:08.56	154.31	16.00	-37.8	-39.5	16.1	0.00e+00	0	54	0	291504128	47	4326
2026-01-07 09:48:09.57	154.29	16.11	-37.9	-39.6	16.1	0.00e+00	0	54	0	294649856	47	4359
2026-01-07 09:48:10.58	154.27	16.22	-37.8	-39.5	16.1	0.00e+00	0	54	0	298844160	47	4325
2026-01-07 09:48:11.59	154.25	16.34	-37.9	-39.6	16.0	0.00e+00	0	54	0	301989888	47	4373
2026-01-07 09:48:12.59	154.24	16.45	-37.8	-39.5	16.1	0.00e+00	0	54	0	305135616	47	4331
2026-01-07 09:48:13.60	154.22	16.56	-37.9	-39.6	16.0	0.00e+00	0	54	0	308281344	47	4379
2026-01-07 09:48:14.61	154.20	16.68	-37.9	-39.6	16.0	0.00e+00	0	54	0	310378496	47	4370
2026-01-07 09:48:15.62	154.18	16.80	-38.1	-39.8	15.9	0.00e+00	0	54	0	314572800	47	4469
2026-01-07 09:48:16.63	154.17	16.91	-38.0	-39.7	15.9	0.00e+00	0	54	0	317718528	47	4429
2026-01-07 09:48:17.64	154.15	17.03	-38.0	-39.8	15.9	0.00e+00	0	54	0	320864256	47	4444
2026-01-07 09:48:18.65	154.13	17.15	-38.0	-39.7	16.0	0.00e+00	0	54	0	324009984	47	4427
2026-01-07 09:48:19.66	154.11	17.27	-38.0	-39.8	15.9	0.00e+00	0	54	0	327155712	47	4458
2026-01-07 09:48:20.68	154.09	17.39	-38.0	-39.7	15.9	0.00e+00	0	54	0	330301440	47	4437
2026-01-07 09:48:21.69	154.07	17.50	-38.0	-39.8	15.9	0.00e+00	0	54	0	333447168	47	4470
2026-01-07 09:48:22.70	154.06	17.63	-38.0	-39.7	16.0	0.00e+00	0	54	0	336592896	47	4441
2026-01-07 09:48:23.71	154.04	17.75	-38.1	-39.9	15.9	0.00e+00	0	54	0	339738624	47	4499
2026-01-07 09:48:24.72	154.02	17.87	-38.0	-39.8	16.0	0.00e+00	0	54	0	342884352	47	4447
2026-01-07 09:48:25.73	154.00	17.99	-38.0	-39.8	16.0	0.00e+00	0	54	0	346030080	47	4449
2026-01-07 09:48:26.74	153.98	18.11	-38.1	-39.8	15.9	0.00e+00	0	54	0	349175808	47	4464
2026-01-07 09:48:27.75	153.96	18.23	-38.1	-39.9	15.8	0.00e+00	0	54	0	352321536	47	4513
2026-01-07 09:48:28.76	153.94	18.36	-38.1	-39.9	15.9	0.00e+00	0	54	0	355467264	47	4506
2026-01-07 09:48:29.77	153.92	18.48	-38.1	-39.9	15.8	0.00e+00	0	54	0	358612992	47	4518
2026-01-07 09:48:30.78	153.90	18.61	-38.1	-39.9	15.8	0.00e+00	0	54	0	361758720	47	4524
2026-01-07 09:48:31.79	153.88	18.73	-38.2	-39.9	15.8	0.00e+00	0	54	0	364904448	47	4534
2026-01-07 09:48:32.81	153.86	18.86	-38.1	-39.9	15.8	0.00e+00	0	54	0	368050176	47	4519
2026-01-07 09:48:33.81	153.84	18.99	-38.1	-39.9	15.9	0.00e+00	0	54	0	371195904	47	4519
2026-01-07 09:48:34.82	153.81	19.11	-38.1	-39.9	15.9	0.00e+00	0	54	0	374341632	47	4506
2026-01-07 09:48:35.83	153.79	19.24	-38.1	-39.9	15.9	0.00e+00	0	54	0	377487360	47	4515
2026-01-07 09:48:36.84	153.77	19.37	-38.1	-39.9	15.9	0.00e+00	0	54	0	380633088	47	4509
2026-01-07 09:48:37.85	153.75	19.50	-38.1	-39.8	15.9	0.00e+00	0	54	0	383778816	47	4462
2026-01-07 09:48:38.86	153.73	19.63	-38.1	-39.8	16.0	0.00e+00	0	54	0	386924544	47	4462
2026-01-07 09:48:39.87	153.71	19.76	-38.0	-39.7	16.0	0.00e+00	0	54	0	390070272	47	4433
2026-01-07 09:48:40.88	153.68	19.89	-38.0	-39.7	16.1	0.00e+00	0	54	0	393216000	47	4409
2026-01-07 09:48:41.89	153.66	20.02	-37.9	-39.6	16.2	0.00e+00	0	55	0	396361728	47	4361
2026-01-07 09:48:42.90	153.64	20.16	-37.9	-39.6	16.2	0.00e+00	0	54	0	399507456	47	4346
2026-01-07 09:48:43.91	153.62	20.29	-37.9	-39.6	16.2	0.00e+00	0	54	0	402653184	47	4353
2026-01-07 09:48:44.92	153.59	20.42	-37.9	-39.5	16.2	0.00e+00	0	54	0	405798912	47	4340
2026-01-07 09:48:45.93	153.57	20.56	-37.8	-39.4	16.4	0.00e+00	0	54	0	408944640	47	4277
2026-01-07 09:48:46.94	153.54	20.69	-37.7	-39.3	16.5	0.00e+00	0	55	0	412090368	47	4232
2026-01-07 09:48:47.95	153.52	20.83	-37.6	-39.2	16.6	0.00e+00	0	55	0	415236096	47	4173
2026-01-07 09:48:48.97	153.50	20.97	-37.6	-39.2	16.6	0.00e+00	0	55	0	418381824	47	4159
2026-01-07 09:48:49.98	153.47	21.11	-37.5	-39.1	16.7	0.00e+00	0	55	0	421527552	47	4140
2026-01-07 09:48:50.99	153.45	21.25	-37.4	-39.0	16.8	0.00e+00	0	55	0	424673280	46	4325
2026-01-07 09:48:52.00	153.42	21.39	-37.4	-38.9	16.8	0.00e+00	0	55	0	427819008	46	4289
2026-01-07 09:48:53.01	153.40	21.53	-37.3	-38.8	17.0	0.00e+00	0	55	0	430964736	46	4218
2026-01-07 09:48:54.02	153.37	21.67	-37.3	-38.8	17.0	0.00e+00	0	55	0	434110464	46	4212
2026-01-07 09:48:55.03	153.35	21.81	-37.1	-38.6	17.2	0.00e+00	0	55	0	437256192	46	4117
2026-01-07 09:48:56.04	153.32	21.95	-37.1	-38.6	17.2	0.00e+00	0	54	0	440401920	46	4112
2026-01-07 09:48:57.04	153.29	22.09	-37.0	-38.5	17.3	0.00e+00	0	55	0	443547648	46	4080
2026-01-07 09:48:58.06	153.27	22.24	-37.0	-38.5	17.3	0.00e+00	0	55	0	446693376	45	4292
2026-01-07 09:48:59.07	153.24	22.38	-36.9	-38.4	17.4	0.00e+00	0	55	0	449839104	45	4252
2026-01-07 09:49:00.08	153.21	22.53	-36.8	-38.3	17.5	0.00e+00	0	55	0	452984832	45	4216
2026-01-07 09:49:01.09	153.19	22.68	-36.8	-38.3	17.5	0.00e+00	0	54	0	456130560	45	4195
2026-01-07 09:49:02.10	153.16	22.82	-36.8	-38.2	17.6	0.00e+00	0	55	0	459276288	45	4168
2026-01-07 09:49:03.11	153.13	22.97	-36.8	-38.2	17.6	0.00e+00	0	55	0	462422016	45	4166
2026-01-07 09:49:04.12	153.10	23.12	-36.7	-38.1	17.6	0.00e+00	0	55	0	465567744	45	4141
2026-01-07 09:49:05.13	153.07	23.27	-36.6	-38.0	17.8	0.00e+00	0	55	0	468713472	45	4083
2026-01-07 09:49:06.14	153.05	23.42	-36.6	-38.0	17.8	0.00e+00	0	55	0	471859200	45	4090
2026-01-07 09:49:07.15	153.02	23.57	-36.7	-38.1	17.7	0.00e+00	0	55	0	475004928	45	4104
2026-01-07 09:49:08.16	152.99	23.73	-36.6	-38.0	17.8	0.00e+00	0	55	0	478150656	45	4074
2026-01-07 09:49:09.17	152.96	23.88	-36.7	-38.1	17.7	0.00e+00	0	55	0	481296384	45	4107
2026-01-07 09:49:10.18	152.93	24.03	-36.6	-38.0	17.8	0.00e+00	0	55	0	484442112	45	4079
2026-01-07 09:49:11.19	152.90	24.19	-36.6	-38.1	17.8	0.00e+00	0	55	0	487587840	45	4100
2026-01-07 09:49:12.20	152.87	24.35	-36.6	-38.0	17.8	0.00e+00	0	55	0	490733568	45	4082
2026-01-07 09:49:13.20	152.84	24.50	-36.6	-38.1	17.7	0.00e+00	0	55	0	493879296	45	4102
2026-01-07 09:49:14.21	152.80	24.66	-36.7	-38.2	17.7	0.00e+00	0	55	0	497025024	45	4148
2026-01-07 09:49:15.23	152.77	24.82	-36.8	-38.2	17.6	0.00e+00	0	55	0	500170752	45	4179
2026-01-07 09:49:16.24	152.74	24.98	-36.8	-38.3	17.6	0.00e+00	0	55	0	503316480	45	4197
2026-01-07 09:49:17.24	152.71	25.14	-36.9	-38.4	17.5	0.00e+00	0	55	0	506462208	45	4266
2026-01-07 09:49:18.25	152.68	25.30	-37.0	-38.5	17.4	0.00e+00	0	55	0	509607936	45	4316
2026-01-07 09:49:19.26	152.64	25.47	-37.1	-38.6	17.3	0.00e+00	0	55	0	512753664	45	4355
2026-01-07 09:49:20.27	152.61	25.63	-37.1	-38.6	17.2	0.00e+00	0	55	0	515899392	45	4380
2026-01-07 09:49:21.28	152.57	25.79	-37.2	-38.8	17.1	0.00e+00	0	55	0	519045120	45	4447
2026-01-07 09:49:22.29	152.54	25.96	-37.3	-38.8	17.1	0.00e+00	0	55	0	522190848	45	4471
2026-01-07 09:49:23.30	152.51	26.13	-37.4	-39.0	16.9	0.00e+00	0	55	0	525336576	45	4546
2026-01-07 09:49:24.31	152.47	26.29	-37.4	-39.0	16.9	0.00e+00	0	55	0	528482304	45	4553
2026-01-07 09:49:25.32	152.43	26.46	-37.5	-39.1	16.8	0.00e+00	0	55	0	531628032	45	4636
2026-01-07 09:49:26.34	152.40	26.64	-37.6	-39.3	16.6	0.00e+00	0	55	0	534773760	45	4706
2026-01-07 09:49:27.35	152.36	26.81	-37.7	-39.3	16.6	0.00e+00	0	55	0	537919488	45	4727
2026-01-07 09:49:28.35	152.33	26.98	-37.8	-39.4	16.5	0.00e+00	0	55	0	541065216	46	4510
2026-01-07 09:49:29.37	152.29	27.15	-37.8	-39.5	16.4	0.00e+00	0	55	0	544210944	46	4551
2026-01-07 09:49:30.38	152.25	27.33	-37.9	-39.5	16.4	0.00e+00	0	55	0	547356672	46	4594
2026-01-07 09:49:31.39	152.21	27.50	-38.0	-39.7	16.3	0.00e+00	0	55	0	550502400	46	4663
2026-01-07 09:49:32.40	152.17	27.68	-38.0	-39.6	16.3	0.00e+00	0	55	0	553648128	46	4641
2026-01-07 09:49:33.41	152.14	27.86	-38.1	-39.8	16.2	0.00e+00	0	55	0	556793856	46	4722
2026-01-07 09:49:34.42	152.10	28.04	-38.1	-39.8	16.1	0.00e+00	0	55	0	559939584	46	4752
2026-01-07 09:49:35.43	152.06	28.22	-38.2	-39.9	16.0	0.00e+00	0	55	0	563085312	46	4788
2026-01-07 09:49:36.43	152.02	28.40	-38.3	-40.0	15.9	0.00e+00	0	55	0	566231040	47	4576
2026-01-07 09:49:37.45	151.97	28.58	-38.4	-40.1	15.8	0.00e+00	0	55	0	569376768	47	4641
2026-01-07 09:49:38.46	151.93	28.76	-38.4	-40.2	15.8	0.00e+00	0	55	0	572522496	47	4668
2026-01-07 09:49:39.47	151.89	28.95	-38.3	-40.1	15.9	0.00e+00	0	55	0	575668224	47	4603
2026-01-07 09:49:40.48	151.85	29.13	-38.2	-39.9	16.1	0.00e+00	0	55	0	578813952	47	4516
2026-01-07 09:49:41.49	151.81	29.32	-38.2	-39.9	16.1	0.00e+00	0	55	0	581959680	47	4526
2026-01-07 09:49:42.50	151.76	29.51	-38.2	-39.9	16.1	0.00e+00	0	55	0	585105408	47	4495
2026-01-07 09:49:43.51	151.72	29.70	-37.9	-39.6	16.4	0.00e+00	0	55	0	588251136	47	4357
2026-01-07 09:49:44.52	151.67	29.89	-37.9	-39.5	16.5	0.00e+00	0	55	0	591396864	47	4307
2026-01-07 09:49:45.53	151.63	30.08	-37.8	-39.4	16.6	0.00e+00	0	55	0	595591168	47	4262
2026-01-07 09:49:46.54	151.58	30.28	-37.6	-39.2	16.8	0.00e+00	0	55	0	598736896	47	4146
2026-01-07 09:49:47.55	151.54	30.47	-37.5	-39.1	16.8	0.00e+00	0	55	0	601882624	47	4127
2026-01-07 09:49:48.56	151.49	30.67	-37.4	-39.0	17.0	0.00e+00	0	55	0	603979776	46	4313
2026-01-07 09:49:49.57	151.44	30.86	-37.3	-38.9	17.1	0.00e+00	0	55	0	608174080	46	4255
2026-01-07 09:49:50.58	151.39	31.06	-37.3	-38.8	17.2	0.00e+00	0	55	0	611319808	46	4224
2026-01-07 09:49:51.59	151.35	31.26	-37.3	-38.8	17.2	0.00e+00	0	55	0	614465536	46	4222
2026-01-07 09:49:52.60	151.30	31.46	-37.2	-38.8	17.2	0.00e+00	0	55	0	617611264	46	4194
2026-01-07 09:49:53.61	151.25	31.67	-37.3	-38.8	17.2	0.00e+00	0	55	0	620756992	46	4206
2026-01-07 09:49:54.62	151.20	31.87	-37.3	-38.8	17.1	0.00e+00	0	55	0	623902720	46	4234
2026-01-07 09:49:55.64	151.14	32.08	-37.3	-38.8	17.1	0.00e+00	0	55	0	627048448	46	4240
2026-01-07 09:49:56.65	151.09	32.28	-37.4	-38.9	17.1	0.00e+00	0	55	0	630194176	46	4269
2026-01-07 09:49:57.65	151.04	32.49	-37.4	-39.0	17.0	0.00e+00	0	55	0	633339904	46	4292
2026-01-07 09:49:58.66	150.99	32.70	-37.4	-39.0	17.0	0.00e+00	0	55	0	636485632	46	4296
2026-01-07 09:49:59.68	150.93	32.91	-37.5	-39.0	17.0	0.00e+00	0	55	0	639631360	46	4314
2026-01-07 09:50:00.69	150.88	33.13	-37.5	-39.1	16.9	0.00e+00	0	55	0	642777088	46	4351
2026-01-07 09:50:01.70	150.82	33.34	-37.7	-39.3	16.8	0.00e+00	0	55	0	645922816	46	4451
2026-01-07 09:50:02.71	150.76	33.56	-37.7	-39.3	16.7	0.00e+00	0	55	0	649068544	46	4474
2026-01-07 09:50:03.72	150.71	33.77	-37.8	-39.5	16.6	0.00e+00	0	55	0	652214272	46	4550
2026-01-07 09:50:04.73	150.65	33.99	-37.9	-39.6	16.4	0.00e+00	0	55	0	655360000	46	4606
2026-01-07 09:50:05.74	150.59	34.21	-38.1	-39.8	16.3	0.00e+00	0	55	0	658505728	46	4736
2026-01-07 09:50:06.75	150.53	34.43	-38.3	-40.0	16.0	0.00e+00	0	56	0	661651456	47	4574
2026-01-07 09:50:07.76	150.47	34.66	-38.4	-40.2	15.9	0.00e+00	0	56	0	664797184	47	4664
2026-01-07 09:50:08.77	150.41	34.88	-38.5	-40.3	15.7	0.00e+00	0	55	0	667942912	47	4743
2026-01-07 09:50:09.78	150.34	35.11	-38.8	-40.7	15.5	0.00e+00	0	55	0	671088640	48	4666
2026-01-07 09:50:10.79	150.28	35.33	-39.0	-40.9	15.2	0.00e+00	0	55	0	674234368	48	4786
2026-01-07 09:50:11.80	150.22	35.56	-39.1	-41.0	15.2	7.00e-07	0	55	0	677380096	48	4828
2026-01-07 09:50:12.81	150.15	35.80	-39.1	-41.0	15.2	0.00e+00	0	55	0	680525824	48	4853
2026-01-07 09:50:13.82	150.08	36.03	-39.2	-41.1	15.1	0.00e+00	0	56	0	683671552	49	4617
2026-01-07 09:50:14.83	150.02	36.26	-39.2	-41.1	15.0	0.00e+00	0	55	0	686817280	49	4616
2026-01-07 09:50:15.84	149.95	36.50	-39.1	-41.0	15.1	0.00e+00	0	56	0	689963008	49	4574
2026-01-07 09:50:16.85	149.88	36.74	-39.2	-41.1	15.0	0.00e+00	0	55	0	693108736	49	4641
2026-01-07 09:50:17.86	149.81	36.98	-39.2	-41.2	15.0	0.00e+00	0	56	0	696254464	49	4656
2026-01-07 09:50:18.87	149.74	37.22	-39.2	-41.1	15.0	0.00e+00	0	55	0	699400192	49	4636
2026-01-07 09:50:19.88	149.67	37.46	-39.3	-41.2	14.9	0.00e+00	0	56	0	702545920	49	4683
2026-01-07 09:50:20.89	149.59	37.70	-39.3	-41.3	14.9	0.00e+00	0	55	0	705691648	49	4708
2026-01-07 09:50:21.90	149.52	37.95	-39.4	-41.3	14.8	7.00e-07	0	55	0	708837376	49	4753
2026-01-07 09:50:22.91	149.44	38.20	-39.3	-41.3	14.9	0.00e+00	0	55	0	711983104	49	4738
2026-01-07 09:50:23.92	149.36	38.45	-39.3	-41.3	14.9	0.00e+00	0	55	0	715128832	49	4739
2026-01-07 09:50:24.93	149.29	38.70	-39.3	-41.2	14.9	0.00e+00	0	55	0	718274560	49	4703
2026-01-07 09:50:25.94	149.21	38.95	-39.3	-41.2	14.9	7.00e-07	0	55	0	721420288	49	4681
2026-01-07 09:50:26.95	149.12	39.21	-39.0	-40.9	15.3	7.00e-07	0	55	0	724566016	49	4499
2026-01-07 09:50:27.96	149.04	39.47	-38.9	-40.8	15.4	0.00e+00	0	55	0	727711744	49	4444
2026-01-07 09:50:28.97	148.96	39.72	-38.8	-40.6	15.6	0.00e+00	0	56	0	730857472	49	4365
2026-01-07 09:50:29.98	148.87	39.98	-38.8	-40.6	15.6	0.00e+00	0	55	0	734003200	49	4360
2026-01-07 09:50:30.99	148.79	40.25	-38.7	-40.4	15.7	0.00e+00	0	56	0	737148928	49	4285
2026-01-07 09:50:32.00	148.70	40.51	-38.6	-40.4	15.8	0.00e+00	0	56	0	740294656	49	4246
2026-01-07 09:50:33.01	148.61	40.78	-38.7	-40.5	15.7	0.00e+00	0	56	0	743440384	49	4312
2026-01-07 09:50:34.02	148.52	41.05	-38.8	-40.6	15.6	0.00e+00	0	56	0	746586112	49	4389
2026-01-07 09:50:35.03	148.43	41.32	-39.1	-41.0	15.2	0.00e+00	0	55	0	749731840	49	4588
2026-01-07 09:50:36.04	148.33	41.59	-39.2	-41.0	15.2	0.00e+00	0	56	0	752877568	49	4595
2026-01-07 09:50:37.05	148.23	41.86	-39.4	-41.4	14.8	0.00e+00	0	55	0	756023296	49	4785
2026-01-07 09:50:38.06	148.14	42.14	-39.5	-41.6	14.6	0.00e+00	0	56	0	759169024	49	4882
2026-01-07 09:50:39.07	148.04	42.42	-39.6	-41.7	14.6	7.00e-07	0	56	0	762314752	49	4954
2026-01-07 09:50:40.08	147.94	42.70	-39.6	-41.7	14.6	7.00e-07	0	56	0	765460480	49	4928
2026-01-07 09:50:41.09	147.83	42.98	-39.7	-41.7	14.5	0.00e+00	0	56	0	768606208	49	4958
2026-01-07 09:50:42.10	147.73	43.26	-39.8	-41.9	14.4	7.00e-07	0	56	0	771751936	50	4769
2026-01-07 09:50:43.11	147.62	43.55	-40.0	-42.2	14.0	4.50e-06	0	56	0	774897664	50	4952
2026-01-07 09:50:44.12	147.51	43.84	-40.0	-42.3	14.0	3.80e-06	0	56	0	778043392	50	4985
2026-01-07 09:50:45.13	147.40	44.13	-40.1	-42.4	13.9	3.00e-06	0	56	0	781189120	50	5065
2026-01-07 09:50:46.14	147.29	44.42	-40.2	-42.5	13.8	3.00e-06	0	56	0	784334848	50	5102
2026-01-07 09:50:47.15	147.17	44.71	-40.1	-42.3	13.9	7.00e-07	0	55	0	787480576	50	5032
2026-01-07 09:50:48.16	147.06	45.01	-40.1	-42.4	13.9	3.00e-06	0	56	0	790626304	50	5053
2026-01-07 09:50:49.17	146.94	45.31	-40.2	-42.5	13.8	5.30e-06	0	56	0	793772032	51	4822
2026-01-07 09:50:50.18	146.82	45.61	-40.3	-42.6	13.7	4.50e-06	0	56	0	796917760	51	4900
2026-01-07 09:50:51.19	146.69	45.91	-40.4	-42.7	13.5	2.05e-05	0	55	0	800063488	51	4978
2026-01-07 09:50:52.21	146.56	46.22	-40.3	-42.5	13.7	4.50e-06	0	56	0	803209216	51	4868
2026-01-07 09:50:53.22	146.43	46.52	-40.1	-42.3	14.0	5.30e-06	0	56	0	806354944	51	4747
2026-01-07 09:50:54.23	146.30	46.83	-39.8	-41.9	14.4	2.20e-06	0	56	0	809500672	51	4497
2026-01-07 09:50:55.24	146.17	47.14	-39.5	-41.5	14.8	1.50e-06	0	56	0	812646400	51	4304
2026-01-07 09:50:56.25	146.03	47.46	-39.3	-41.3	15.0	0.00e+00	0	56	0	815792128	50	4450
2026-01-07 09:50:57.26	145.89	47.77	-39.2	-41.1	15.2	0.00e+00	0	56	0	818937856	50	4375
2026-01-07 09:50:58.27	145.75	48.09	-39.3	-41.2	15.1	0.00e+00	0	56	0	822083584	50	4431
2026-01-07 09:50:59.28	145.60	48.41	-39.4	-41.4	14.9	0.00e+00	0	56	0	825229312	50	4523
2026-01-07 09:51:00.29	145.45	48.73	-39.4	-41.4	14.9	0.00e+00	0	56	0	828375040	50	4540
2026-01-07 09:51:01.29	145.30	49.05	-39.6	-41.6	14.7	0.00e+00	0	56	0	831520768	50	4622
2026-01-07 09:51:02.30	145.14	49.38	-39.6	-41.6	14.7	7.00e-07	0	56	0	834666496	50	4621
2026-01-07 09:51:03.31	144.99	49.70	-39.3	-41.2	15.1	0.00e+00	0	56	0	837812224	50	4413
2026-01-07 09:51:04.33	144.82	50.04	-39.2	-41.1	15.2	0.00e+00	0	56	0	840957952	50	4375
2026-01-07 09:51:05.34	144.65	50.37	-39.0	-40.9	15.4	0.00e+00	0	55	0	844103680	50	4250
2026-01-07 09:51:06.35	144.48	50.70	-39.0	-40.8	15.4	7.00e-07	0	56	0	847249408	49	4483
2026-01-07 09:51:07.36	144.31	51.04	-39.1	-41.0	15.3	0.00e+00	0	56	0	850395136	49	4561
2026-01-07 09:51:08.37	144.13	51.38	-39.3	-41.3	15.1	0.00e+00	0	56	0	853540864	49	4712
2026-01-07 09:51:09.38	143.95	51.72	-39.4	-41.3	15.0	0.00e+00	0	56	0	856686592	49	4756
2026-01-07 09:51:10.39	143.76	52.06	-39.3	-41.2	15.1	0.00e+00	0	56	0	859832320	49	4688
2026-01-07 09:51:11.40	143.57	52.41	-39.1	-40.9	15.3	0.00e+00	0	56	0	862978048	49	4536
2026-01-07 09:51:12.41	143.38	52.75	-39.0	-40.8	15.4	0.00e+00	0	56	0	866123776	49	4472
2026-01-07 09:51:13.42	143.18	53.10	-38.9	-40.8	15.5	0.00e+00	0	56	0	869269504	49	4448
2026-01-07 09:51:14.42	142.97	53.45	-38.8	-40.6	15.8	0.00e+00	0	56	0	872415232	49	4342
2026-01-07 09:51:15.44	142.76	53.81	-38.6	-40.4	15.9	0.00e+00	0	56	0	875560960	49	4255
2026-01-07 09:51:16.45	142.54	54.16	-38.4	-40.1	16.2	0.00e+00	0	55	0	878706688	48	4374
2026-01-07 09:51:17.46	142.32	54.52	-38.4	-40.1	16.2	0.00e+00	0	55	0	881852416	48	4361
2026-01-07 09:51:18.47	142.10	54.88	-38.4	-40.1	16.2	0.00e+00	0	56	0	884998144	48	4345
2026-01-07 09:51:19.48	141.86	55.24	-38.4	-40.1	16.2	0.00e+00	0	56	0	889192448	48	4375
2026-01-07 09:51:20.48	141.63	55.60	-38.5	-40.2	16.1	0.00e+00	0	56	0	892338176	48	4416
2026-01-07 09:51:21.49	141.38	55.97	-38.3	-40.0	16.3	0.00e+00	0	56	0	895483904	48	4338
2026-01-07 09:51:22.50	141.13	56.33	-38.0	-39.6	16.7	0.00e+00	0	56	0	897581056	48	4110
2026-01-07 09:51:23.51	140.87	56.70	-37.6	-39.2	17.0	0.00e+00	0	56	0	900726784	47	4155
2026-01-07 09:51:24.52	140.60	57.07	-37.5	-39.0	17.2	0.00e+00	0	56	0	904921088	46	4316
2026-01-07 09:51:25.54	140.33	57.45	-37.1	-38.5	17.6	0.00e+00	0	56	0	908066816	46	4097
2026-01-07 09:51:26.55	140.05	57.82	-37.1	-38.5	17.7	0.00e+00	0	56	0	911212544	46	4064
2026-01-07 09:51:27.56	139.76	58.20	-37.2	-38.7	17.5	0.00e+00	0	56	0	914358272	46	4149
2026-01-07 09:51:28.57	139.46	58.58	-37.4	-38.9	17.3	0.00e+00	0	56	0	917504000	46	4273
2026-01-07 09:51:29.57	139.16	58.95	-37.5	-39.0	17.2	0.00e+00	0	56	0	920649728	46	4313
2026-01-07 09:51:30.58	138.84	59.33	-37.4	-38.9	17.3	0.00e+00	0	56	0	923795456	46	4260
2026-01-07 09:51:31.59	138.52	59.72	-37.2	-38.7	17.4	0.00e+00	0	56	0	926941184	46	4176
2026-01-07 09:51:32.60	138.19	60.10	-37.2	-38.7	17.4	0.00e+00	0	56	0	930086912	46	4173
2026-01-07 09:51:33.61	137.84	60.49	-37.1	-38.5	17.7	0.00e+00	0	56	0	933232640	46	4075
2026-01-07 09:51:34.62	137.49	60.87	-37.1	-38.5	17.7	0.00e+00	0	56	0	936378368	46	4071
2026-01-07 09:51:35.63	137.12	61.26	-36.9	-38.3	17.9	0.00e+00	0	56	0	939524096	45	4207
2026-01-07 09:51:36.64	136.74	61.65	-36.9	-38.3	17.8	0.00e+00	0	56	0	942669824	45	4204
2026-01-07 09:51:37.65	136.35	62.04	-36.9	-38.3	17.8	0.00e+00	0	56	0	945815552	45	4227
2026-01-07 09:51:38.66	135.95	62.43	-36.8	-38.2	17.9	0.00e+00	0	56	0	948961280	45	4168
2026-01-07 09:51:39.67	135.53	62.83	-36.6	-38.0	18.1	0.00e+00	0	56	0	952107008	45	4087
2026-01-07 09:51:40.68	135.10	63.22	-36.6	-38.0	18.1	0.00e+00	0	56	0	955252736	45	4097
2026-01-07 09:51:41.69	134.66	63.61	-36.5	-37.9	18.1	0.00e+00	0	56	0	958398464	45	4031
2026-01-07 09:51:42.70	134.20	64.01	-36.3	-37.6	18.5	0.00e+00	0	56	0	961544192	44	4102
2026-01-07 09:51:43.71	133.72	64.40	-36.2	-37.5	18.5	0.00e+00	0	56	0	964689920	44	4095
2026-01-07 09:51:44.72	133.23	64.80	-36.4	-37.7	18.4	0.00e+00	0	56	0	967835648	44	4174
2026-01-07 09:51:45.73	132.72	65.20	-36.5	-37.9	18.2	0.00e+00	0	56	0	970981376	44	4263
2026-01-07 09:51:46.74	132.19	65.59	-36.6	-38.0	18.1	0.00e+00	0	56	0	974127104	44	4307
2026-01-07 09:51:47.75	131.64	65.99	-36.3	-37.7	18.4	0.00e+00	0	56	0	977272832	44	4152
2026-01-07 09:51:48.76	131.07	66.39	-36.5	-37.8	18.2	0.00e+00	0	56	0	980418560	44	4231
2026-01-07 09:51:49.77	130.48	66.78	-36.5	-37.9	18.2	0.00e+00	0	56	0	983564288	44	4278
2026-01-07 09:51:50.78	129.86	67.18	-36.6	-38.0	18.1	0.00e+00	0	56	0	986710016	44	4298
2026-01-07 09:51:51.79	129.23	67.57	-36.8	-38.2	17.8	0.00e+00	0	56	0	989855744	44	4428
2026-01-07 09:51:52.80	128.57	67.97	-36.7	-38.2	17.9	0.00e+00	0	56	0	993001472	44	4404
2026-01-07 09:51:53.81	127.88	68.36	-36.7	-38.1	18.0	0.00e+00	0	56	0	996147200	44	4342
2026-01-07 09:51:54.82	127.16	68.75	-36.4	-37.8	18.3	0.00e+00	0	56	0	999292928	44	4202
2026-01-07 09:51:55.82	126.42	69.14	-36.4	-37.7	18.2	0.00e+00	0	56	0	1002438656	44	4178
2026-01-07 09:51:56.83	125.65	69.52	-36.1	-37.4	18.5	0.00e+00	0	56	0	1005584384	44	4042
2026-01-07 09:51:57.84	124.84	69.91	-35.7	-37.0	18.8	0.00e+00	0	56	0	1008730112	43	4064
2026-01-07 09:51:58.85	124.00	70.29	-36.0	-37.3	18.5	0.00e+00	0	56	0	1011875840	43	4220
2026-01-07 09:51:59.86	123.12	70.67	-35.9	-37.2	18.7	0.00e+00	0	56	0	1015021568	43	4151
2026-01-07 09:52:00.87	122.21	71.05	-35.6	-36.9	18.9	0.00e+00	0	56	0	1018167296	43	4025
2026-01-07 09:52:01.88	121.25	71.43	-35.8	-37.1	18.7	0.00e+00	0	56	0	1021313024	43	4113
2026-01-07 09:52:02.89	120.26	71.80	-35.9	-37.2	18.6	0.00e+00	0	56	0	1024458752	43	4191
2026-01-07 09:52:03.90	119.22	72.17	-36.0	-37.3	18.3	0.00e+00	0	56	0	1027604480	43	4218
2026-01-07 09:52:04.91	118.13	72.53	-36.0	-37.3	18.5	0.00e+00	0	56	0	1030750208	43	4198
2026-01-07 09:52:05.92	117.00	72.88	-35.6	-36.9	18.9	0.00e+00	0	56	0	1033895936	43	4017
2026-01-07 09:52:06.93	115.81	73.24	-35.6	-36.8	19.0	0.00e+00	0	56	0	1037041664	43	3995
2026-01-07 09:52:07.94	114.57	73.58	-35.7	-37.0	18.8	0.00e+00	0	56	0	1040187392	43	4069
2026-01-07 09:52:08.95	113.28	73.92	-36.1	-37.4	18.4	0.00e+00	0	56	0	1043333120	43	4270
2026-01-07 09:52:09.97	111.92	74.25	-35.8	-37.0	18.7	0.00e+00	0	56	0	1046478848	43	4094
2026-01-07 09:52:10.97	110.52	74.57	-35.8	-37.0	18.8	0.00e+00	0	56	0	1049624576	43	4087
2026-01-07 09:52:11.98	109.05	74.89	-35.9	-37.2	18.6	0.00e+00	0	56	0	1052770304	43	4187
2026-01-07 09:52:12.99	107.51	75.19	-36.2	-37.5	18.4	0.00e+00	0	56	0	1055916032	43	4328
2026-01-07 09:52:14.00	105.91	75.49	-36.4	-37.8	18.1	0.00e+00	0	56	0	1059061760	43	4470
2026-01-07 09:52:15.01	104.24	75.77	-36.3	-37.7	18.1	0.00e+00	0	56	0	1062207488	43	4426
2026-01-07 09:52:16.02	102.50	76.05	-36.5	-37.8	18.0	0.00e+00	0	56	0	1065353216	43	4491
2026-01-07 09:52:17.03	100.69	76.31	-36.6	-38.0	17.9	0.00e+00	0	56	0	1068498944	43	4580
2026-01-07 09:52:18.04	98.81	76.55	-36.6	-38.0	17.8	0.00e+00	0	56	0	1071644672	43	4583
2026-01-07 09:52:19.05	96.86	76.78	-36.2	-37.5	18.3	0.00e+00	0	56	0	1074790400	43	4322
2026-01-07 09:52:20.05	94.86	77.00	-36.1	-37.4	18.4	0.00e+00	0	56	0	1077936128	43	4278
2026-01-07 09:52:21.06	92.77	77.20	-36.3	-37.6	18.3	0.00e+00	0	56	0	1081081856	43	4369
2026-01-07 09:52:22.07	90.62	77.39	-36.4	-37.8	18.1	0.00e+00	0	56	0	1084227584	43	4457
2026-01-07 09:52:23.08	88.40	77.55	-36.1	-37.4	18.4	0.00e+00	0	56	0	1087373312	43	4281
2026-01-07 09:52:24.10	86.11	77.70	-36.0	-37.2	18.6	0.00e+00	0	56	0	1090519040	43	4193
2026-01-07 09:52:25.10	83.80	77.83	-36.2	-37.5	18.4	0.00e+00	0	56	0	1093664768	43	4320
2026-01-07 09:52:26.12	81.40	77.94	-36.5	-37.9	18.0	0.00e+00	0	56	0	1096810496	43	4519
2026-01-07 09:52:27.13	78.99	78.03	-36.8	-38.3	17.8	0.00e+00	0	56	0	1099956224	44	4461
2026-01-07 09:52:28.14	76.54	78.10	-36.2	-37.5	18.5	0.00e+00	0	56	0	1103101952	44	4057
2026-01-07 09:52:29.15	74.07	78.14	-36.1	-37.4	18.5	0.00e+00	0	56	0	1106247680	44	4012
2026-01-07 09:52:30.16	71.58	78.17	-36.4	-37.7	18.3	0.00e+00	0	56	0	1109393408	44	4172
2026-01-07 09:52:31.17	69.09	78.17	-36.6	-37.9	18.1	0.00e+00	0	56	0	1112539136	44	4285
2026-01-07 09:52:32.18	66.60	78.15	-36.7	-38.1	18.0	0.00e+00	0	56	0	1115684864	44	4356
2026-01-07 09:52:33.19	64.12	78.11	-36.9	-38.4	17.7	0.00e+00	0	56	0	1118830592	44	4529
2026-01-07 09:52:34.20	61.67	78.05	-36.4	-37.7	18.3	0.00e+00	0	56	0	1121976320	44	4174
2026-01-07 09:52:35.20	59.27	77.96	-36.4	-37.8	18.1	0.00e+00	0	56	0	1125122048	44	4219
2026-01-07 09:52:36.21	56.89	77.86	-37.0	-38.5	17.5	0.00e+00	0	56	0	1128267776	44	4575
2026-01-07 09:52:37.22	54.55	77.73	-37.3	-38.8	17.3	0.00e+00	0	56	0	1131413504	45	4491
2026-01-07 09:52:38.23	52.26	77.59	-37.0	-38.4	17.7	0.00e+00	0	56	0	1134559232	45	4284
2026-01-07 09:52:39.24	50.03	77.43	-36.4	-37.8	18.3	0.00e+00	0	56	0	1137704960	44	4211
2026-01-07 09:52:40.25	47.86	77.25	-36.4	-37.8	18.3	0.00e+00	0	56	0	1140850688	44	4203
2026-01-07 09:52:41.26	45.76	77.05	-36.4	-37.8	18.3	0.00e+00	0	56	0	1143996416	44	4217
2026-01-07 09:52:42.27	43.73	76.84	-36.4	-37.7	18.3	0.00e+00	0	56	0	1147142144	44	4168
2026-01-07 09:52:43.28	41.76	76.61	-36.6	-38.0	18.1	0.00e+00	0	56	0	1150287872	44	4293
2026-01-07 09:52:44.29	39.87	76.36	-37.0	-38.4	17.6	0.00e+00	0	56	0	1153433600	44	4542
2026-01-07 09:52:45.30	38.04	76.11	-36.8	-38.2	17.8	0.00e+00	0	56	0	1156579328	44	4419
2026-01-07 09:52:46.31	36.29	75.84	-36.5	-37.9	18.1	0.00e+00	0	56	0	1159725056	44	4276
2026-01-07 09:52:47.32	34.61	75.56	-36.8	-38.2	17.9	0.00e+00	0	56	0	1162870784	44	4434
2026-01-07 09:52:48.34	32.97	75.26	-36.9	-38.4	17.7	0.00e+00	0	56	0	1166016512	44	4521
2026-01-07 09:52:49.35	31.42	74.96	-36.7	-38.2	17.9	0.00e+00	0	56	0	1169162240	44	4406
2026-01-07 09:52:50.36	29.94	74.65	-36.1	-37.3	18.7	0.00e+00	0	56	0	1172307968	44	4003
2026-01-07 09:52:51.37	28.52	74.32	-35.6	-36.9	19.0	0.00e+00	0	56	0	1175453696	43	4007
2026-01-07 09:52:52.37	27.17	74.00	-35.5	-36.7	19.0	0.00e+00	0	56	0	1178599424	43	3940
2026-01-07 09:52:53.38	25.86	73.66	-35.5	-36.8	19.1	0.00e+00	0	56	0	1181745152	42	4194
2026-01-07 09:52:54.40	24.60	73.32	-36.0	-37.3	18.6	0.00e+00	0	56	0	1184890880	42	4465
2026-01-07 09:52:55.41	23.41	72.97	-36.7	-38.1	17.8	0.00e+00	0	56	0	1188036608	43	4638
2026-01-07 09:52:56.42	22.27	72.61	-36.7	-38.1	17.9	0.00e+00	0	56	0	1191182336	44	4341
2026-01-07 09:52:57.43	21.17	72.25	-36.3	-37.6	18.3	0.00e+00	0	56	0	1194328064	44	4144
2026-01-07 09:52:58.44	20.12	71.89	-36.3	-37.6	18.4	0.00e+00	0	56	0	1197473792	44	4138
2026-01-07 09:52:59.45	19.12	71.52	-36.7	-38.1	18.0	0.00e+00	0	56	0	1200619520	44	4371
2026-01-07 09:53:00.46	18.16	71.14	-36.7	-38.1	18.0	0.00e+00	0	56	0	1203765248	44	4345
2026-01-07 09:53:01.47	17.23	70.77	-36.4	-37.8	18.3	0.00e+00	0	56	0	1206910976	44	4209
2026-01-07 09:53:02.48	16.35	70.39	-36.2	-37.5	18.5	0.00e+00	0	56	0	1211105280	44	4095
2026-01-07 09:53:03.49	15.50	70.01	-35.7	-37.0	18.6	0.00e+00	0	56	0	1213202432	43	4079
2026-01-07 09:53:04.50	14.69	69.62	-35.5	-36.7	19.0	0.00e+00	0	56	0	1216348160	43	3939
2026-01-07 09:53:05.51	13.90	69.23	-35.8	-37.1	18.8	0.00e+00	0	56	0	1219493888	42	4344
2026-01-07 09:53:06.52	13.15	68.85	-36.4	-37.8	17.9	0.00e+00	0	56	0	1223688192	43	4471
2026-01-07 09:53:07.53	12.43	68.46	-37.3	-38.8	17.3	0.00e+00	0	56	0	1226833920	45	4461
2026-01-07 09:53:08.54	11.74	68.06	-37.4	-38.9	17.2	0.00e+00	0	56	0	1229979648	45	4519
2026-01-07 09:53:09.56	11.06	67.67	-36.8	-38.2	17.9	0.00e+00	0	56	0	1233125376	45	4159
2026-01-07 09:53:10.57	10.42	67.27	-36.3	-37.7	18.3	0.00e+00	0	56	0	1235222528	44	4153
2026-01-07 09:53:11.58	9.81	66.88	-36.3	-37.6	18.5	0.00e+00	0	56	0	1239416832	44	4118
2026-01-07 09:53:12.59	9.21	66.48	-36.5	-37.9	18.2	0.00e+00	0	56	0	1242562560	44	4266
2026-01-07 09:53:13.59	8.64	66.09	-37.1	-38.6	17.6	0.00e+00	0	56	0	1245708288	44	4605
2026-01-07 09:53:14.60	8.09	65.70	-37.8	-39.4	16.9	0.00e+00	0	56	0	1248854016	46	4514
2026-01-07 09:53:15.61	7.56	65.30	-37.8	-39.5	16.7	0.00e+00	0	56	0	1251999744	46	4564
2026-01-07 09:53:16.62	7.04	64.91	-37.2	-38.7	17.5	0.00e+00	0	56	0	1255145472	46	4173
2026-01-07 09:53:17.63	6.55	64.51	-36.3	-37.6	18.5	0.00e+00	0	56	0	1258291200	44	4130
2026-01-07 09:53:18.64	6.07	64.12	-35.7	-36.9	19.0	0.00e+00	0	56	0	1261436928	43	4029
2026-01-07 09:53:19.65	5.61	63.72	-35.9	-37.2	18.7	0.00e+00	0	56	0	1264582656	43	4168
2026-01-07 09:53:20.66	5.16	63.33	-36.7	-38.1	18.0	0.00e+00	0	56	0	1267728384	43	4601
2026-01-07 09:53:21.67	4.73	62.94	-37.5	-39.0	17.2	0.00e+00	0	56	0	1270874112	45	4586
2026-01-07 09:53:22.67	4.31	62.55	-38.0	-39.7	16.5	0.00e+00	0	56	0	1274019840	46	4685
2026-01-07 09:53:23.68	3.91	62.16	-37.9	-39.6	16.5	0.00e+00	0	56	0	1277165568	46	4625
2026-01-07 09:53:24.69	3.51	61.77	-37.1	-38.6	17.6	0.00e+00	0	56	0	1280311296	46	4115
2026-01-07 09:53:25.70	3.13	61.38	-36.4	-37.8	18.4	0.00e+00	0	56	0	1283457024	44	4205
2026-01-07 09:53:26.71	2.76	61.00	-36.5	-37.8	18.3	0.00e+00	0	56	0	1286602752	44	4223
2026-01-07 09:53:27.73	2.40	60.61	-37.0	-38.5	17.7	0.00e+00	0	56	0	1289748480	44	4557
2026-01-07 09:53:28.74	2.06	60.22	-37.6	-39.1	17.1	0.00e+00	0	56	0	1292894208	45	4613
2026-01-07 09:53:29.75	1.72	59.84	-38.0	-39.6	16.6	0.00e+00	0	56	0	1296039936	46	4641
2026-01-07 09:53:30.75	1.40	59.46	-38.1	-39.8	16.2	0.00e+00	0	56	0	1299185664	46	4758
2026-01-07 09:53:31.76	1.08	59.08	-38.2	-39.9	16.0	0.00e+00	0	56	0	1302331392	47	4527
2026-01-07 09:53:32.77	0.77	58.70	-37.9	-39.6	16.2	0.00e+00	0	56	0	1305477120	47	4360
2026-01-07 09:53:33.78	0.48	58.32	-37.6	-39.2	16.9	0.00e+00	0	56	0	1308622848	47	4160
2026-01-07 09:53:34.79	0.19	57.95	-37.3	-38.8	17.3	0.00e+00	0	56	0	1311768576	46	4201
2026-01-07 09:53:35.80	359.90	57.58	-37.3	-38.8	17.2	0.00e+00	0	56	0	1314914304	46	4199
2026-01-07 09:53:36.81	359.63	57.20	-37.8	-39.3	16.5	0.00e+00	0	56	0	1318060032	46	4483
2026-01-07 09:53:37.82	359.36	56.83	-38.7	-40.5	15.6	0.00e+00	0	56	0	1321205760	47	4867
2026-01-07 09:53:38.83	359.10	56.47	-39.7	-41.8	14.5	0.00e+00	0	56	0	1324351488	49	5003
2026-01-07 09:53:39.84	358.85	56.10	-39.8	-42.0	14.2	0.00e+00	0	56	0	1327497216	50	4847
2026-01-07 09:53:40.85	358.60	55.73	-38.9	-40.7	15.4	2.20e-06	0	56	0	1330642944	49	4439
2026-01-07 09:53:41.85	358.37	55.38	-38.2	-39.9	16.3	0.00e+00	0	56	0	1333788672	48	4264
2026-01-07 09:53:42.86	358.13	55.02	-37.8	-39.3	16.8	0.00e+00	0	56	0	1336934400	47	4228
2026-01-07 09:53:43.87	357.90	54.66	-37.4	-39.0	17.2	0.00e+00	0	56	0	1340080128	46	4303
2026-01-07 09:53:44.88	357.68	54.30	-37.1	-38.6	17.6	0.00e+00	0	56	0	1343225856	46	4102
2026-01-07 09:53:45.89	357.46	53.95	-37.1	-38.5	17.6	0.00e+00	0	56	0	1346371584	46	4091
2026-01-07 09:53:46.90	357.25	53.59	-37.8	-39.3	16.9	0.00e+00	0	56	0	1349517312	46	4483
2026-01-07 09:53:47.92	357.05	53.24	-38.6	-40.4	15.8	0.00e+00	0	56	0	1352663040	47	4805
2026-01-07 09:53:48.92	356.85	52.89	-39.4	-41.4	14.9	0.00e+00	0	56	0	1355808768	49	4790
2026-01-07 09:53:49.93	356.65	52.55	-39.8	-42.0	14.3	7.00e-07	0	56	0	1358954496	50	4849
2026-01-07 09:53:50.95	356.46	52.20	-39.4	-41.4	14.8	0.00e+00	0	56	0	1362100224	50	4505
2026-01-07 09:53:51.96	356.27	51.86	-38.8	-40.7	15.5	0.00e+00	0	56	0	1365245952	49	4419
2026-01-07 09:53:52.97	356.09	51.52	-38.7	-40.4	15.8	0.00e+00	0	56	0	1368391680	49	4280
2026-01-07 09:53:53.98	355.91	51.18	-38.4	-40.1	16.2	6.10e-06	0	56	0	1371537408	48	4356
2026-01-07 09:53:54.99	355.73	50.85	-38.4	-40.1	16.2	7.00e-07	0	56	0	1374683136	48	4370
2026-01-07 09:53:56.00	355.56	50.51	-38.6	-40.4	15.9	0.00e+00	0	56	0	1377828864	48	4520
2026-01-07 09:53:57.01	355.40	50.18	-39.0	-40.9	15.4	0.00e+00	0	56	0	1380974592	48	4760
2026-01-07 09:53:58.02	355.23	49.85	-39.2	-41.1	15.2	0.00e+00	0	56	0	1384120320	48	4876
2026-01-07 09:53:59.03	355.07	49.52	-39.4	-41.4	14.9	0.00e+00	0	56	0	1387266048	49	4799
2026-01-07 09:54:00.04	354.92	49.20	-39.9	-42.0	14.3	0.00e+00	0	57	0	1390411776	50	4854
2026-01-07 09:54:01.05	354.76	48.88	-40.2	-42.6	13.7	4.50e-06	0	56	0	1393557504	51	4888
2026-01-07 09:54:02.06	354.61	48.56	-40.4	-42.9	13.4	2.36e-05	0	56	0	1396703232	51	5055
2026-01-07 09:54:03.07	354.47	48.24	-40.3	-42.7	13.6	1.44e-05	0	56	0	1399848960	51	4943
2026-01-07 09:54:04.08	354.32	47.92	-40.0	-42.2	14.1	1.50e-06	0	56	0	1402994688	51	4680
2026-01-07 09:54:05.09	354.18	47.61	-39.4	-41.4	14.9	0.00e+00	0	56	0	1406140416	50	4527
2026-01-07 09:54:06.10	354.05	47.29	-39.2	-41.1	15.1	0.00e+00	0	56	0	1409286144	50	4386
2026-01-07 09:54:07.11	353.91	46.98	-39.3	-41.2	15.1	7.00e-07	0	56	0	1412431872	50	4401
2026-01-07 09:54:08.12	353.78	46.68	-39.6	-41.7	14.6	0.00e+00	0	56	0	1415577600	50	4682
2026-01-07 09:54:09.13	353.65	46.37	-40.0	-42.2	14.1	3.00e-06	0	56	0	1418723328	50	4962
2026-01-07 09:54:10.14	353.52	46.07	-40.4	-42.8	13.5	9.10e-06	0	56	0	1421869056	51	5022
2026-01-07 09:54:11.15	353.40	45.76	-40.6	-43.1	13.2	1.90e-05	0	57	0	1425014784	51	5183
2026-01-07 09:54:12.16	353.28	45.46	-40.6	-43.1	13.2	1.75e-05	0	56	0	1428160512	51	5170
2026-01-07 09:54:13.17	353.16	45.17	-40.3	-42.6	13.6	1.60e-05	0	56	0	1431306240	51	4923
2026-01-07 09:54:14.18	353.04	44.87	-40.1	-42.4	13.9	3.80e-06	0	56	0	1434451968	51	4788
2026-01-07 09:54:15.19	352.92	44.58	-40.3	-42.7	13.6	7.00e-07	0	57	0	1437597696	51	4952
2026-01-07 09:54:16.20	352.81	44.29	-40.6	-43.0	13.3	1.29e-05	0	56	0	1440743424	51	5128
2026-01-07 09:54:17.21	352.70	44.00	-40.8	-43.4	12.8	3.81e-05	0	56	0	1443889152	52	5056
2026-01-07 09:54:18.22	352.59	43.71	-41.0	-43.9	12.3	1.06e-04	0	56	0	1447034880	52	5343
2026-01-07 09:54:19.23	352.48	43.42	-41.3	-44.2	11.9	3.80e-04	0	56	0	1450180608	53	5265
2026-01-07 09:54:20.24	352.38	43.14	-41.4	-44.5	11.6	7.39e-04	0	56	0	1453326336	53	5430
2026-01-07 09:54:21.25	352.28	42.86	-41.1	-43.9	12.3	2.97e-04	0	56	0	1456472064	53	5056
2026-01-07 09:54:22.27	352.17	42.58	-40.4	-42.8	13.3	2.05e-05	0	56	0	1459617792	52	4733
2026-01-07 09:54:23.28	352.07	42.30	-39.9	-42.0	14.3	2.20e-06	0	56	0	1462763520	51	4566
2026-01-07 09:54:24.29	351.98	42.03	-39.6	-41.6	14.6	7.00e-07	0	56	0	1465909248	51	4384
2026-01-07 09:54:25.30	351.88	41.75	-39.2	-41.1	15.1	0.00e+00	0	56	0	1469054976	50	4377
2026-01-07 09:54:26.31	351.79	41.48	-39.0	-40.9	15.4	7.00e-07	0	56	0	1472200704	50	4254
2026-01-07 09:54:27.32	351.69	41.21	-39.2	-41.1	15.2	0.00e+00	0	56	0	1475346432	50	4359
2026-01-07 09:54:28.33	351.60	40.94	-39.4	-41.3	14.9	0.00e+00	0	57	0	1478492160	50	4486
2026-01-07 09:54:29.34	351.51	40.68	-39.7	-41.8	14.5	7.00e-07	0	56	0	1481637888	50	4717
2026-01-07 09:54:30.35	351.43	40.41	-39.9	-42.0	14.2	0.00e+00	0	56	0	1484783616	50	4864
2026-01-07 09:54:31.36	351.34	40.15	-40.1	-42.3	14.0	1.50e-06	0	56	0	1487929344	50	5007
2026-01-07 09:54:32.37	351.25	39.89	-39.8	-42.0	14.3	2.20e-06	0	56	0	1491075072	50	4824
2026-01-07 09:54:33.38	351.17	39.63	-39.6	-41.7	14.5	7.00e-07	0	56	0	1494220800	50	4683
2026-01-07 09:54:34.39	351.09	39.38	-39.6	-41.6	14.6	0.00e+00	0	56	0	1497366528	50	4614
2026-01-07 09:54:35.40	351.01	39.12	-39.6	-41.6	14.6	0.00e+00	0	56	0	1500512256	50	4645
2026-01-07 09:54:36.41	350.93	38.87	-39.8	-41.9	14.3	0.00e+00	0	56	0	1503657984	50	4813
2026-01-07 09:54:37.42	350.85	38.62	-39.9	-42.1	14.0	4.50e-06	0	56	0	1506803712	50	4899
2026-01-07 09:54:38.43	350.77	38.37	-39.8	-42.0	14.2	4.50e-06	0	56	0	1509949440	50	4832
2026-01-07 09:54:39.44	350.70	38.12	-39.5	-41.6	14.6	1.50e-06	0	56	0	1513095168	50	4619
2026-01-07 09:54:40.45	350.62	37.88	-39.3	-41.3	14.9	0.00e+00	0	56	0	1516240896	50	4470
2026-01-07 09:54:41.46	350.55	37.63	-39.3	-41.2	14.9	0.00e+00	0	56	0	1519386624	50	4422
2026-01-07 09:54:42.47	350.48	37.39	-39.1	-41.0	15.2	0.00e+00	0	57	0	1523580928	50	4310
2026-01-07 09:54:43.48	350.40	37.15	-38.9	-40.7	15.5	0.00e+00	0	56	0	1526726656	49	4415
2026-01-07 09:54:44.49	350.33	36.91	-38.7	-40.5	15.6	0.00e+00	0	56	0	1528823808	49	4330
2026-01-07 09:54:45.50	350.26	36.67	-38.7	-40.5	15.7	0.00e+00	0	56	0	1531969536	49	4305
2026-01-07 09:54:46.51	350.20	36.44	-38.7	-40.4	15.7	0.00e+00	0	56	0	1535115264	49	4283
2026-01-07 09:54:47.52	350.13	36.20	-38.5	-40.3	15.9	0.00e+00	0	56	0	1539309568	49	4213
2026-01-07 09:54:48.53	350.06	35.97	-38.5	-40.2	16.0	0.00e+00	0	56	0	1542455296	48	4416
2026-01-07 09:54:49.54	350.00	35.74	-38.4	-40.1	16.0	0.00e+00	0	56	0	1545601024	48	4383
2026-01-07 09:54:50.55	349.93	35.51	-38.4	-40.1	16.1	0.00e+00	0	56	0	1548746752	48	4367
2026-01-07 09:54:51.56	349.87	35.29	-38.5	-40.2	16.0	0.00e+00	0	56	0	1550843904	48	4408
2026-01-07 09:54:52.57	349.81	35.06	-38.4	-40.1	16.0	0.00e+00	0	56	0	1555038208	48	4371
2026-01-07 09:54:53.58	349.75	34.84	-38.4	-40.1	16.0	0.00e+00	0	56	0	1558183936	48	4391
2026-01-07 09:54:54.59	349.69	34.61	-38.4	-40.1	16.0	0.00e+00	0	56	0	1561329664	48	4387
2026-01-07 09:54:55.60	349.63	34.39	-38.4	-40.1	16.0	0.00e+00	0	56	0	1564475392	48	4369
2026-01-07 09:54:56.61	349.57	34.17	-38.4	-40.1	16.0	0.00e+00	0	56	0	1567621120	48	4366
2026-01-07 09:54:57.62	349.51	33.95	-38.2	-39.8	16.3	0.00e+00	0	56	0	1570766848	48	4222
2026-01-07 09:54:58.63	349.45	33.74	-37.8	-39.4	16.6	0.00e+00	0	56	0	1573912576	47	4288
2026-01-07 09:54:59.64	349.40	33.52	-37.7	-39.3	16.7	0.00e+00	0	56	0	1577058304	47	4218
2026-01-07 09:55:00.65	349.34	33.31	-37.7	-39.3	16.7	0.00e+00	0	56	0	1580204032	47	4205
2026-01-07 09:55:01.66	349.29	33.10	-37.8	-39.4	16.6	0.00e+00	0	56	0	1583349760	47	4250
2026-01-07 09:55:02.67	349.23	32.89	-37.8	-39.4	16.6	0.00e+00	0	56	0	1586495488	47	4276
2026-01-07 09:55:03.68	349.18	32.68	-37.7	-39.3	16.6	0.00e+00	0	56	0	1589641216	47	4228
2026-01-07 09:55:04.69	349.13	32.47	-37.8	-39.4	16.6	0.00e+00	0	56	0	1592786944	47	4284
2026-01-07 09:55:05.70	349.08	32.26	-38.0	-39.6	16.3	0.00e+00	0	57	0	1595932672	47	4385
2026-01-07 09:55:06.71	349.03	32.06	-38.0	-39.7	16.3	0.00e+00	0	56	0	1599078400	47	4409
2026-01-07 09:55:07.72	348.98	31.85	-37.9	-39.6	16.3	0.00e+00	0	56	0	1602224128	47	4375
2026-01-07 09:55:08.73	348.93	31.65	-38.0	-39.7	16.3	0.00e+00	0	57	0	1605369856	47	4400
2026-01-07 09:55:09.74	348.88	31.45	-37.9	-39.6	16.3	0.00e+00	0	57	0	1608515584	47	4359
2026-01-07 09:55:10.75	348.83	31.25	-37.9	-39.5	16.4	0.00e+00	0	56	0	1611661312	47	4338
2026-01-07 09:55:11.76	348.78	31.05	-37.9	-39.5	16.4	0.00e+00	0	56	0	1614807040	47	4314
2026-01-07 09:55:12.77	348.73	30.86	-37.9	-39.5	16.4	0.00e+00	0	56	0	1617952768	47	4322
2026-01-07 09:55:13.78	348.69	30.66	-37.9	-39.5	16.4	0.00e+00	0	56	0	1621098496	47	4320
2026-01-07 09:55:14.79	348.64	30.47	-37.7	-39.4	16.5	0.00e+00	0	56	0	1624244224	47	4253
2026-01-07 09:55:15.80	348.60	30.27	-37.7	-39.3	16.6	0.00e+00	0	56	0	1627389952	47	4202
2026-01-07 09:55:16.81	348.55	30.08	-37.5	-39.1	16.8	0.00e+00	0	57	0	1630535680	47	4114
2026-01-07 09:55:17.82	348.51	29.89	-37.5	-39.1	16.7	0.00e+00	0	57	0	1633681408	47	4136
2026-01-07 09:55:18.83	348.46	29.70	-37.6	-39.2	16.7	0.00e+00	0	56	0	1636827136	47	4187
2026-01-07 09:55:19.84	348.42	29.51	-37.7	-39.4	16.5	0.00e+00	0	56	0	1639972864	47	4245
2026-01-07 09:55:20.84	348.38	29.33	-37.6	-39.3	16.6	0.00e+00	0	56	0	1643118592	47	4201
2026-01-07 09:55:21.86	348.34	29.14	-37.6	-39.2	16.7	0.00e+00	0	57	0	1646264320	47	4170
2026-01-07 09:55:22.87	348.29	28.96	-37.6	-39.2	16.6	0.00e+00	0	56	0	1649410048	47	4168
2026-01-07 09:55:23.87	348.25	28.78	-37.6	-39.2	16.6	0.00e+00	0	56	0	1652555776	47	4181
2026-01-07 09:55:24.89	348.21	28.59	-37.6	-39.2	16.6	0.00e+00	0	56	0	1655701504	47	4174
2026-01-07 09:55:25.90	348.17	28.41	-37.6	-39.2	16.6	0.00e+00	0	56	0	1658847232	47	4184
2026-01-07 09:55:26.91	348.13	28.23	-37.6	-39.2	16.6	0.00e+00	0	56	0	1661992960	47	4166
2026-01-07 09:55:27.92	348.09	28.05	-37.5	-39.1	16.7	0.00e+00	0	56	0	1665138688	47	4141
2026-01-07 09:55:28.93	348.06	27.88	-37.6	-39.3	16.6	0.00e+00	0	57	0	1668284416	47	4196
2026-01-07 09:55:29.94	348.02	27.70	-37.6	-39.2	16.6	0.00e+00	0	56	0	1671430144	47	4183
2026-01-07 09:55:30.95	347.98	27.52	-37.5	-39.1	16.7	0.00e+00	0	56	0	1674575872	47	4115
2026-01-07 09:55:31.96	347.94	27.35	-37.4	-39.0	16.8	0.00e+00	0	56	0	1677721600	46	4313
2026-01-07 09:55:32.97	347.91	27.18	-37.4	-39.0	16.8	0.00e+00	0	57	0	1680867328	46	4321
2026-01-07 09:55:33.98	347.87	27.00	-37.4	-38.9	16.8	0.00e+00	0	56	0	1684013056	46	4280
2026-01-07 09:55:34.99	347.83	26.83	-37.3	-38.9	16.9	0.00e+00	0	57	0	1687158784	46	4263
2026-01-07 09:55:36.00	347.80	26.66	-37.2	-38.8	17.0	0.00e+00	0	56	0	1690304512	46	4199
2026-01-07 09:55:37.00	347.76	26.50	-37.2	-38.8	17.0	0.00e+00	0	56	0	1693450240	46	4195
2026-01-07 09:55:38.01	347.73	26.33	-37.2	-38.8	17.0	0.00e+00	0	56	0	1696595968	46	4203
2026-01-07 09:55:39.02	347.70	26.16	-37.1	-38.7	17.0	0.00e+00	0	56	0	1699741696	46	4160
2026-01-07 09:55:40.03	347.66	26.00	-37.2	-38.7	17.0	0.00e+00	0	56	0	1702887424	46	4181
2026-01-07 09:55:41.04	347.63	25.83	-37.2	-38.7	17.0	0.00e+00	0	56	0	1706033152	46	4176
2026-01-07 09:55:42.05	347.59	25.67	-37.2	-38.7	17.0	0.00e+00	0	57	0	1709178880	46	4179
2026-01-07 09:55:43.06	347.56	25.51	-37.1	-38.6	17.1	0.00e+00	0	56	0	1712324608	46	4136
2026-01-07 09:55:44.07	347.53	25.34	-37.2	-38.7	17.0	0.00e+00	0	56	0	1715470336	46	4173
2026-01-07 09:55:45.08	347.50	25.18	-37.1	-38.7	17.0	0.00e+00	0	56	0	1718616064	46	4167
2026-01-07 09:55:46.09	347.47	25.02	-37.2	-38.8	16.9	0.00e+00	0	56	0	1721761792	46	4210
2026-01-07 09:55:47.10	347.44	24.87	-37.3	-38.9	16.8	0.00e+00	0	56	0	1724907520	46	4246
2026-01-07 09:55:48.11	347.40	24.71	-37.2	-38.7	16.9	0.00e+00	0	57	0	1728053248	46	4187
2026-01-07 09:55:49.12	347.37	24.55	-37.1	-38.7	16.9	0.00e+00	0	56	0	1731198976	46	4159
2026-01-07 09:55:50.13	347.34	24.39	-37.1	-38.6	16.9	0.00e+00	0	56	0	1734344704	46	4133
2026-01-07 09:55:51.14	347.31	24.24	-37.1	-38.7	16.7	0.00e+00	0	56	0	1737490432	46	4188
2026-01-07 09:55:52.15	347.28	24.09	-37.1	-38.7	16.8	0.00e+00	0	56	0	1740636160	46	4159
2026-01-07 09:55:53.16	347.26	23.93	-37.2	-38.8	16.6	0.00e+00	0	57	0	1743781888	46	4212
2026-01-07 09:55:54.17	347.23	23.78	-37.2	-38.9	16.5	0.00e+00	0	56	0	1746927616	46	4243
2026-01-07 09:55:55.18	347.20	23.63	-37.1	-38.7	16.6	0.00e+00	0	57	0	1750073344	46	4174
2026-01-07 09:55:56.19	347.17	23.48	-37.0	-38.7	16.5	0.00e+00	0	57	0	1753219072	46	4154
2026-01-07 09:55:57.20	347.14	23.33	-37.1	-38.7	16.5	0.00e+00	0	56	0	1756364800	46	4185
2026-01-07 09:55:58.21	347.11	23.18	-37.0	-38.7	16.5	0.00e+00	0	57	0	1759510528	46	4157
2026-01-07 09:55:59.22	347.09	23.03	-36.9	-38.5	16.5	0.00e+00	0	56	0	1762656256	45	4312
2026-01-07 09:56:00.23	347.06	22.88	-36.9	-38.5	16.3	0.00e+00	0	57	0	1765801984	45	4338
2026-01-07 09:56:01.24	347.03	22.74	-36.9	-38.6	16.2	0.00e+00	0	57	0	1768947712	45	4371
2026-01-07 09:56:02.26	347.01	22.59	-36.8	-38.5	16.1	0.00e+00	0	56	0	1772093440	45	4319
2026-01-07 09:56:03.27	346.98	22.45	-36.4	-38.1	16.6	0.00e+00	0	56	0	1775239168	44	4353
2026-01-07 09:56:04.28	346.95	22.30	-36.3	-38.0	16.6	0.00e+00	0	56	0	1778384896	44	4296
2026-01-07 09:56:05.29	346.93	22.16	-36.4	-38.1	16.3	0.00e+00	0	56	0	1781530624	44	4381
2026-01-07 09:56:06.30	346.90	22.02	-36.6	-38.4	15.9	0.00e+00	0	56	0	1784676352	44	4518
2026-01-07 09:56:07.31	346.88	21.88	-37.0	-39.0	15.2	0.00e+00	0	56	0	1787822080	44	4823
2026-01-07 09:56:08.32	346.85	21.73	-37.5	-39.6	14.3	0.00e+00	0	56	0	1790967808	45	4922
2026-01-07 09:56:09.33	346.83	21.59	-38.0	-40.6	13.1	1.29e-05	0	56	0	1794113536	46	5183
2026-01-07 09:56:10.34	346.80	21.46	-38.6	-41.6	11.8	3.14e-04	0	56	0	1797259264	47	5511
2026-01-07 09:56:11.35	346.78	21.32	-39.2	-42.7	10.4	2.98e-03	0	56	0	1800404992	48	5893
2026-01-07 09:56:12.36	346.76	21.18	-39.6	-43.9	8.9	2.44e-02	0	56	0	1803550720	49	6383
2026-01-07 09:56:13.37	346.73	21.04	-40.0	-45.3	7.2	1.09e-01	0	56	0	1806696448	50	7105
2026-01-07 09:56:14.38	346.71	20.91	-40.3	-46.6	6.0	2.59e-01	0	57	0	1809842176	51	7760
2026-01-07 09:56:15.39	346.69	20.77	-40.5	-48.1	4.9	6.10e-01	0	56	0	1812987904	51	9208
2026-01-07 09:56:16.40	346.66	20.64	-40.6	-49.3	4.3	1.35e+00	0	56	104	1814036480	51	10584
2026-01-07 09:56:17.41	346.64	20.50	-40.6	-50.6	3.9	1.47e+00	0	57	104	1814036480	51	12337
2026-01-07 09:56:18.42	346.62	20.37	-40.6	-51.6	3.8	1.49e+00	0	57	104	1814036480	51	13885
2026-01-07 09:56:19.43	346.60	20.24	-40.7	-52.2	3.8	1.49e+00	0	57	104	1814036480	51	14850
2026-01-07 09:56:20.44	346.58	20.10	-40.6	-52.7	3.8	1.49e+00	0	57	104	1814036480	51	15589
2026-01-07 09:56:21.45	346.55	19.97	-40.7	-53.1	3.8	1.49e+00	0	56	104	1814036480	52	15468
2026-01-07 09:56:22.46	346.53	19.84	-40.7	-53.0	3.8	1.49e+00	0	56	104	1814036480	52	15352
2026-01-07 09:56:23.46	346.51	19.71	-40.6	-52.8	3.8	1.49e+00	0	57	104	1814036480	52	15014
2026-01-07 09:56:24.48	346.49	19.58	-40.7	-53.0	3.8	1.49e+00	0	57	104	1814036480	52	15401
2026-01-07 09:56:25.49	346.47	19.45	-40.6	-52.8	3.8	1.49e+00	0	56	104	1814036480	52	15044
2026-01-07 09:56:26.50	346.45	19.33	-40.7	-53.1	3.8	1.49e+00	0	57	104	1814036480	52	15440
2026-01-07 09:56:27.50	346.43	19.20	-40.7	-53.0	3.8	1.49e+00	0	57	104	1814036480	52	15377
2026-01-07 09:56:28.51	346.41	19.07	-40.7	-53.0	3.8	1.49e+00	0	57	104	1814036480	52	15361
2026-01-07 09:56:29.52	346.39	18.95	-40.8	-53.2	3.8	1.49e+00	0	56	104	1814036480	52	15628
2026-01-07 09:56:30.54	346.37	18.82	-40.7	-53.0	3.8	1.49e+00	0	57	104	1814036480	52	15386
2026-01-07 09:56:31.55	346.35	18.70	-40.7	-53.0	3.8	1.49e+00	0	57	104	1814036480	52	15325
2026-01-07 09:56:32.56	346.33	18.57	-40.7	-53.0	3.8	1.49e+00	0	57	104	1814036480	53	14507
2026-01-07 09:56:33.57	346.31	18.45	-40.6	-53.0	3.8	1.49e+00	0	57	104	1814036480	53	14400
2026-01-07 09:56:34.58	346.29	18.33	-40.7	-53.0	3.8	1.49e+00	0	57	104	1814036480	53	14537
2026-01-07 09:56:35.59	346.27	18.20	-40.7	-53.0	3.8	1.49e+00	0	57	104	1814036480	53	14530
2026-01-07 09:56:36.60	346.25	18.08	-40.7	-53.0	3.8	1.49e+00	0	57	104	1814036480	53	14413
2026-01-07 09:56:37.61	346.23	17.96	-40.6	-53.0	3.8	1.49e+00	0	57	104	1814036480	53	14387
2026-01-07 09:56:38.62	346.22	17.84	-40.6	-53.0	3.8	1.49e+00	0	56	104	1814036480	53	14431
2026-01-07 09:56:39.62	346.20	17.72	-40.6	-53.0	3.8	1.49e+00	0	57	104	1814036480	53	14437
2026-01-07 09:56:40.63	346.18	17.60	-41.3	-53.7	3.8	1.49e+00	0	57	104	1814036480	53	15725
2026-01-07 09:56:41.64	346.16	17.48	-40.9	-53.3	3.8	1.49e+00	0	57	104	1814036480	53	14989
2026-01-07 09:56:42.65	346.14	17.37	-41.0	-53.3	3.8	1.49e+00	0	57	104	1814036480	53	15021
2026-01-07 09:56:43.66	346.13	17.25	-40.9	-53.3	3.8	1.49e+00	0	57	104	1814036480	53	15029
2026-01-07 09:56:44.67	346.11	17.13	-41.0	-53.4	3.8	1.49e+00	0	57	104	1814036480	53	15127
2026-01-07 09:56:45.68	346.09	17.02	-41.1	-53.4	3.8	1.49e+00	0	57	104	1814036480	53	15212
2026-01-07 09:56:46.69	346.08	16.90	-41.0	-53.4	3.8	1.49e+00	0	57	104	1814036480	53	15209
2026-01-07 09:56:47.70	346.06	16.78	-40.9	-53.3	3.8	1.49e+00	0	57	104	1814036480	53	15012
2026-01-07 09:56:48.71	346.04	16.67	-41.3	-53.9	3.8	1.49e+00	0	57	104	1814036480	53	16017
2026-01-07 09:56:49.72	346.03	16.56	-40.9	-53.2	3.8	1.49e+00	0	57	104	1814036480	53	14709
2026-01-07 09:56:50.73	346.01	16.44	-40.9	-53.4	3.8	1.49e+00	0	57	104	1814036480	53	15064
2026-01-07 09:56:51.74	345.99	16.33	-40.7	-53.2	3.8	1.49e+00	0	57	104	1814036480	53	14802
2026-01-07 09:56:52.75	345.98	16.22	-40.6	-53.1	3.8	1.49e+00	0	56	104	1814036480	53	14597
2026-01-07 09:56:53.76	345.96	16.10	-40.6	-53.1	3.8	1.49e+00	0	57	104	1814036480	53	14553
