passes_logs/2026/01/07/R2.0S_Moscow/R2.0S_Moscow__20260107_111536_FENGYUN_3D_rec.log

#Pass ID: 20260107_111536_FENGYUN 3D
#Satellite: FENGYUN 3D
#Configuration: FENGYUN 3D
#almurnet v.1.7.20251203
#Start time: 2026-01-07 11:15:37

#Version: 2.2.20231116
#Station: R2.0S_Moscow
#Location: 37.707566 lon 55.798166 lat
#TLE: 1 43010U 17072A   26006.26440730  .00000376  00000+0  19957-3 0  9994
#TLE: 2 43010  98.9925 337.9455 0002045 123.9195 236.2175 14.19693586422016

#Time	Az	El	Level	Level2	SNR	BER	BlckErr	Temp	State	Recorded	gain1	gain2
2026-01-07 11:15:37.21	140.40	2.02	-41.2	-53.2	3.8	8.45e-01	0	47	0	0	53	14733
2026-01-07 11:15:38.22	140.37	2.09	-36.7	-52.9	4.0	8.46e-01	0	47	104	0	53	14293
2026-01-07 11:15:39.23	140.34	2.15	-32.7	-52.5	4.0	8.46e-01	0	47	104	0	51	15263
2026-01-07 11:15:40.24	140.32	2.22	-35.4	-52.3	4.1	8.46e-01	0	47	104	0	44	22299
2026-01-07 11:15:41.25	140.29	2.28	-41.5	-53.4	3.7	8.48e-01	0	47	104	0	53	15144
2026-01-07 11:15:42.26	140.26	2.34	-41.5	-53.4	3.9	8.46e-01	0	47	104	0	54	14243
2026-01-07 11:15:43.27	140.23	2.41	-42.0	-53.5	3.9	8.47e-01	0	47	104	0	54	14457
2026-01-07 11:15:44.28	140.20	2.47	-41.5	-53.4	3.8	8.47e-01	0	48	104	0	44	25382
2026-01-07 11:15:45.29	140.17	2.54	-42.0	-53.5	3.8	8.44e-01	0	48	104	0	54	14467
2026-01-07 11:15:46.30	140.15	2.60	-30.6	-52.0	4.0	8.46e-01	0	48	104	0	42	24357
2026-01-07 11:15:47.31	140.12	2.67	-41.2	-53.4	4.0	8.46e-01	0	48	104	0	42	28653
2026-01-07 11:15:48.33	140.09	2.73	-42.4	-54.1	3.8	8.46e-01	0	48	104	0	51	18453
2026-01-07 11:15:49.34	140.06	2.80	-41.9	-53.4	3.8	8.45e-01	0	48	104	0	54	14350
2026-01-07 11:15:50.35	140.03	2.86	-41.3	-53.7	3.7	8.46e-01	0	48	104	0	49	19655
2026-01-07 11:15:51.36	140.00	2.93	-41.9	-53.4	3.8	8.47e-01	0	48	104	0	54	14335
2026-01-07 11:15:52.37	139.97	3.00	-35.3	-52.5	3.9	8.45e-01	0	48	104	0	41	27381
2026-01-07 11:15:53.38	139.94	3.06	-41.9	-53.8	3.8	8.48e-01	0	48	104	0	50	18759
2026-01-07 11:15:54.39	139.91	3.13	-42.0	-53.5	3.8	8.46e-01	0	48	104	0	54	14435
2026-01-07 11:15:55.40	139.88	3.19	-41.9	-53.4	3.8	8.45e-01	0	48	104	0	53	15104
2026-01-07 11:15:56.41	139.85	3.26	-42.0	-53.5	3.8	8.46e-01	0	48	104	0	54	14490
2026-01-07 11:15:57.43	139.82	3.33	-42.0	-53.5	3.7	8.47e-01	0	49	104	0	51	17261
2026-01-07 11:15:58.44	139.79	3.39	-41.1	-53.4	3.8	8.46e-01	0	49	104	0	54	14340
2026-01-07 11:15:59.45	139.76	3.46	-42.0	-53.7	3.8	8.46e-01	0	49	104	0	53	15711
2026-01-07 11:16:00.46	139.73	3.53	-42.2	-53.5	3.7	8.46e-01	0	49	104	0	44	25852
2026-01-07 11:16:01.47	139.70	3.60	-40.2	-53.5	3.9	8.48e-01	0	49	104	0	54	14472
2026-01-07 11:16:02.48	139.67	3.66	-42.0	-53.5	3.8	8.48e-01	0	49	104	0	54	14452
2026-01-07 11:16:03.49	139.63	3.73	-42.0	-53.5	3.9	8.45e-01	0	49	104	0	54	14488
2026-01-07 11:16:04.50	139.60	3.80	-40.2	-52.9	3.8	8.46e-01	0	49	104	0	54	13460
2026-01-07 11:16:05.51	139.57	3.87	-41.9	-53.5	3.8	8.46e-01	0	49	104	0	54	14457
2026-01-07 11:16:06.53	139.54	3.93	-42.4	-53.9	3.8	8.47e-01	0	49	104	0	54	15071
2026-01-07 11:16:07.54	139.51	4.00	-40.4	-53.0	3.6	8.45e-01	0	49	104	0	48	19221
2026-01-07 11:16:08.55	139.48	4.07	-41.9	-53.4	3.8	8.46e-01	0	49	104	0	54	14368
2026-01-07 11:16:09.56	139.44	4.14	-42.0	-53.4	3.8	8.46e-01	0	49	104	0	54	14249
2026-01-07 11:16:10.57	139.41	4.21	-41.9	-53.4	3.8	8.45e-01	0	49	104	0	54	14323
2026-01-07 11:16:11.58	139.38	4.28	-42.0	-53.3	3.8	8.46e-01	0	49	104	0	53	14963
2026-01-07 11:16:12.59	139.35	4.35	-42.0	-53.4	3.8	8.47e-01	0	50	104	0	54	14267
2026-01-07 11:16:13.60	139.31	4.42	-41.8	-53.4	3.8	8.46e-01	0	50	104	0	54	14319
2026-01-07 11:16:14.61	139.28	4.48	-42.0	-53.4	3.8	8.46e-01	0	50	104	0	54	14253
2026-01-07 11:16:15.63	139.25	4.55	-42.0	-53.5	3.8	8.46e-01	0	50	104	0	54	14430
2026-01-07 11:16:16.64	139.21	4.62	-41.9	-53.4	3.8	8.46e-01	0	50	104	0	54	14233
2026-01-07 11:16:17.65	139.18	4.69	-40.9	-53.4	3.8	8.46e-01	0	50	104	0	54	14337
2026-01-07 11:16:18.66	139.15	4.76	-36.7	-52.5	3.8	8.45e-01	0	50	104	0	46	20448
2026-01-07 11:16:19.67	139.11	4.83	-42.0	-53.4	3.8	8.46e-01	0	50	104	0	54	14287
2026-01-07 11:16:20.68	139.08	4.90	-41.9	-53.4	3.8	8.46e-01	0	50	104	0	54	14339
2026-01-07 11:16:21.69	139.04	4.98	-42.0	-53.4	3.8	8.46e-01	0	50	104	0	54	14297
2026-01-07 11:16:22.70	139.01	5.05	-38.5	-53.5	3.8	8.46e-01	0	50	104	0	54	14536
2026-01-07 11:16:23.71	138.98	5.12	-41.7	-53.5	3.8	8.45e-01	0	50	104	0	54	14428
2026-01-07 11:16:24.72	138.94	5.19	-37.3	-53.1	3.8	8.46e-01	0	50	104	0	46	21817
2026-01-07 11:16:25.73	138.91	5.26	-42.0	-53.5	3.8	8.46e-01	0	50	104	0	54	14404
2026-01-07 11:16:26.75	138.87	5.33	-42.0	-53.5	3.8	8.46e-01	0	51	104	0	54	14441
2026-01-07 11:16:27.76	138.84	5.40	-42.0	-53.5	3.8	8.46e-01	0	50	104	0	54	14455
2026-01-07 11:16:28.77	138.80	5.47	-40.7	-53.2	3.8	8.45e-01	0	50	104	0	54	13901
2026-01-07 11:16:29.78	138.76	5.55	-41.9	-53.5	3.8	8.46e-01	0	50	104	0	54	14420
2026-01-07 11:16:30.79	138.73	5.62	-41.8	-53.3	3.8	8.46e-01	0	51	104	0	53	14997
2026-01-07 11:16:31.80	138.69	5.69	-42.0	-53.4	3.8	8.46e-01	0	51	104	0	54	14346
2026-01-07 11:16:32.81	138.66	5.76	-35.9	-52.5	3.8	8.46e-01	0	51	104	0	48	18283
2026-01-07 11:16:33.82	138.62	5.84	-42.1	-53.7	3.8	8.45e-01	0	51	104	0	50	18690
2026-01-07 11:16:34.83	138.58	5.91	-35.8	-53.1	3.7	8.47e-01	0	51	104	0	44	24432
2026-01-07 11:16:35.85	138.55	5.98	-35.6	-52.7	3.6	8.45e-01	0	51	104	0	43	24923
2026-01-07 11:16:36.86	138.51	6.06	-41.5	-53.6	3.8	8.46e-01	0	51	104	0	51	17310
2026-01-07 11:16:37.87	138.47	6.13	-40.2	-52.6	3.8	8.45e-01	0	51	104	0	49	17432
2026-01-07 11:16:38.88	138.43	6.20	-39.6	-53.4	3.8	8.46e-01	0	51	104	0	53	15120
2026-01-07 11:16:39.89	138.40	6.28	-42.0	-53.4	3.8	8.45e-01	0	51	104	0	54	14298
2026-01-07 11:16:40.90	138.36	6.35	-41.9	-53.5	3.9	8.45e-01	0	51	104	0	54	14398
2026-01-07 11:16:41.91	138.32	6.43	-41.6	-53.4	3.8	8.46e-01	0	51	104	0	54	14360
2026-01-07 11:16:42.92	138.28	6.50	-41.9	-53.5	3.8	8.46e-01	0	51	104	0	54	14495
2026-01-07 11:16:43.93	138.24	6.57	-38.0	-52.4	4.0	8.46e-01	0	51	104	0	44	22651
2026-01-07 11:16:44.95	138.20	6.65	-41.9	-53.5	3.8	8.46e-01	0	51	104	0	54	14446
2026-01-07 11:16:45.96	138.17	6.73	-41.3	-53.3	3.8	8.46e-01	0	51	104	0	54	14146
2026-01-07 11:16:46.97	138.13	6.80	-41.9	-53.5	3.8	8.46e-01	0	52	104	0	54	14401
2026-01-07 11:16:47.98	138.09	6.88	-40.8	-53.3	3.8	8.46e-01	0	51	104	0	54	14065
2026-01-07 11:16:48.99	138.05	6.95	-41.9	-53.4	3.9	8.47e-01	0	52	104	0	54	14272
2026-01-07 11:16:50.00	138.01	7.03	-42.0	-53.4	3.8	8.45e-01	0	51	104	0	54	14343
2026-01-07 11:16:51.01	137.97	7.10	-41.9	-53.4	3.8	8.47e-01	0	51	104	0	54	14273
2026-01-07 11:16:52.02	137.93	7.18	-41.9	-53.5	3.9	8.46e-01	0	51	104	0	54	14380
2026-01-07 11:16:53.03	137.89	7.26	-41.8	-53.5	3.8	8.46e-01	0	52	104	0	54	14425
2026-01-07 11:16:54.04	137.85	7.33	-41.7	-54.0	3.3	8.46e-01	0	52	104	0	50	19383
2026-01-07 11:16:55.06	137.81	7.41	-41.8	-53.5	3.8	8.46e-01	0	52	104	0	54	14415
2026-01-07 11:16:56.07	137.76	7.49	-41.0	-52.9	3.8	8.45e-01	0	52	104	0	52	15138
2026-01-07 11:16:57.08	137.72	7.57	-41.8	-53.4	3.8	8.44e-01	0	52	104	0	54	14353
2026-01-07 11:16:58.09	137.68	7.64	-41.9	-53.4	3.8	8.47e-01	0	52	104	0	53	15093
2026-01-07 11:16:59.10	137.64	7.72	-41.9	-53.5	3.8	8.47e-01	0	52	104	0	54	14410
2026-01-07 11:17:00.11	137.60	7.80	-41.9	-53.3	3.9	8.45e-01	0	52	104	0	53	15042
2026-01-07 11:17:01.12	137.56	7.88	-42.0	-53.3	3.8	8.46e-01	0	52	104	0	53	14974
2026-01-07 11:17:02.13	137.51	7.96	-41.9	-53.5	3.9	8.46e-01	0	52	104	0	54	14410
2026-01-07 11:17:03.15	137.47	8.04	-35.2	-52.6	4.0	8.45e-01	0	52	104	0	48	18378
2026-01-07 11:17:04.16	137.43	8.12	-41.0	-53.4	3.9	8.47e-01	0	52	104	0	54	14341
2026-01-07 11:17:05.17	137.38	8.20	-41.6	-53.4	3.8	8.46e-01	0	52	104	0	54	14280
2026-01-07 11:17:06.18	137.34	8.27	-41.7	-53.3	3.8	8.46e-01	0	52	104	0	54	14162
2026-01-07 11:17:07.19	137.30	8.35	-40.1	-52.3	3.9	8.45e-01	0	52	104	0	53	13279
2026-01-07 11:17:08.20	137.25	8.43	-41.9	-53.5	3.8	8.46e-01	0	52	104	0	50	18302
2026-01-07 11:17:09.21	137.21	8.51	-41.8	-53.5	3.9	8.46e-01	0	52	104	0	52	16232
2026-01-07 11:17:10.22	137.16	8.60	-42.3	-53.7	3.8	8.46e-01	0	52	104	0	54	14786
2026-01-07 11:17:11.23	137.12	8.68	-41.9	-53.3	3.8	8.46e-01	0	52	104	0	54	14060
2026-01-07 11:17:12.23	137.07	8.76	-41.9	-53.4	3.8	8.45e-01	0	52	104	0	54	14309
2026-01-07 11:17:13.24	137.03	8.84	-41.9	-53.5	3.8	8.45e-01	0	52	104	0	54	14477
2026-01-07 11:17:14.25	136.98	8.92	-32.9	-46.7	3.4	8.45e-01	0	52	104	0	42	13243
2026-01-07 11:17:15.26	136.94	9.00	-40.6	-52.7	3.9	8.46e-01	0	53	104	0	50	16678
2026-01-07 11:17:16.27	136.89	9.08	-37.1	-53.1	3.8	8.46e-01	0	53	104	0	47	20596
2026-01-07 11:17:17.28	136.85	9.16	-40.4	-52.7	3.9	8.46e-01	0	53	104	0	49	17523
2026-01-07 11:17:18.29	136.80	9.25	-41.8	-53.1	3.8	8.47e-01	0	53	104	0	54	13802
2026-01-07 11:17:19.30	136.75	9.33	-41.8	-53.3	3.9	8.47e-01	0	52	104	0	54	14048
2026-01-07 11:17:20.31	136.70	9.41	-42.2	-53.9	3.9	8.45e-01	0	52	104	0	54	15197
2026-01-07 11:17:21.32	136.66	9.50	-41.9	-53.2	3.9	8.46e-01	0	53	104	0	53	14804
2026-01-07 11:17:22.34	136.61	9.58	-41.8	-53.1	3.8	8.46e-01	0	53	104	0	54	13835
2026-01-07 11:17:23.34	136.56	9.66	-41.8	-53.1	3.8	8.45e-01	0	53	104	0	54	13802
2026-01-07 11:17:24.36	136.51	9.75	-41.3	-52.4	4.0	8.44e-01	0	53	104	0	49	16947
2026-01-07 11:17:25.37	136.46	9.83	-40.1	-52.3	3.8	8.45e-01	0	53	104	0	52	14111
2026-01-07 11:17:26.38	136.41	9.92	-40.4	-52.3	3.8	8.46e-01	0	53	104	0	51	15009
2026-01-07 11:17:27.39	136.37	10.00	-36.2	-50.0	4.1	8.45e-01	0	53	104	0	45	16136
2026-01-07 11:17:28.40	136.32	10.09	-35.9	-48.1	3.9	8.44e-01	0	53	104	0	42	15456
2026-01-07 11:17:29.41	136.27	10.17	-36.8	-48.2	4.1	8.44e-01	0	53	104	0	44	13892
2026-01-07 11:17:30.42	136.22	10.26	-27.3	-44.9	4.3	8.41e-01	0	53	104	0	30	21344
2026-01-07 11:17:31.43	136.17	10.34	-35.3	-45.7	4.3	8.26e-01	0	53	104	0	34	18685
2026-01-07 11:17:32.44	136.11	10.43	-30.3	-43.7	4.6	6.40e-01	0	53	104	0	37	12418
2026-01-07 11:17:33.45	136.06	10.52	-38.6	-43.2	8.3	2.91e-01	0	53	0	1048576	47	6586
2026-01-07 11:17:34.46	136.01	10.60	-37.0	-40.7	10.1	9.27e-02	0	53	0	6291456	43	6215
2026-01-07 11:17:35.47	135.96	10.69	-35.0	-38.6	10.3	3.03e-01	0	53	0	11534336	37	6917
2026-01-07 11:17:36.48	135.91	10.78	-35.3	-38.3	13.0	4.42e-02	0	53	0	16777216	42	5032
2026-01-07 11:17:37.49	135.86	10.86	-35.4	-38.3	13.2	3.22e-02	0	53	0	22020096	42	5006
2026-01-07 11:17:38.50	135.80	10.95	-35.9	-39.0	11.9	5.83e-02	0	53	0	27262976	41	5747
2026-01-07 11:17:39.51	135.75	11.04	-36.0	-39.6	11.7	8.11e-02	0	53	0	32505856	41	6193
2026-01-07 11:17:40.52	135.70	11.13	-36.5	-39.5	11.8	1.73e-01	0	53	0	37748736	42	5751
2026-01-07 11:17:41.53	135.64	11.22	-32.5	-37.5	12.3	1.38e-01	0	53	0	42991616	42	4576
2026-01-07 11:17:42.54	135.59	11.31	-35.0	-39.6	11.2	7.44e-02	0	53	0	47185920	42	5824
2026-01-07 11:17:43.55	135.53	11.40	-36.0	-39.5	11.4	1.08e-01	0	53	0	52428800	42	5785
2026-01-07 11:17:44.56	135.48	11.49	-33.8	-39.0	12.0	1.50e-01	0	53	0	57671680	41	5780
2026-01-07 11:17:45.57	135.42	11.58	-33.7	-39.0	10.6	7.58e-02	0	53	0	61865984	40	6071
2026-01-07 11:17:46.58	135.37	11.67	-34.6	-39.3	11.8	9.37e-02	0	53	0	67108864	40	6341
2026-01-07 11:17:47.60	135.31	11.76	-35.1	-39.2	10.3	7.50e-02	0	54	0	72351744	36	7810
2026-01-07 11:17:48.61	135.26	11.85	-35.5	-39.3	12.0	1.16e-01	0	53	0	77594624	43	5334
2026-01-07 11:17:49.62	135.20	11.94	-36.2	-38.9	10.1	1.69e-01	0	54	0	82837504	41	5714
2026-01-07 11:17:50.63	135.14	12.03	-36.2	-39.1	11.2	1.77e-01	0	54	0	87031808	40	6134
2026-01-07 11:17:51.64	135.09	12.12	-34.6	-38.9	10.6	1.40e-01	0	54	0	92274688	39	6358
2026-01-07 11:17:52.65	135.03	12.22	-33.9	-38.4	11.1	1.41e-01	0	53	0	97517568	40	5676
2026-01-07 11:17:53.66	134.97	12.31	-29.4	-37.8	10.2	1.78e-01	0	54	0	101711872	39	5633
2026-01-07 11:17:54.67	134.91	12.40	-31.6	-37.5	8.7	9.77e-02	0	54	0	106954752	33	7689
2026-01-07 11:17:55.67	134.85	12.49	-32.8	-38.5	12.3	1.33e-01	0	54	0	112197632	41	5445
2026-01-07 11:17:56.68	134.79	12.59	-35.0	-38.8	9.8	1.48e-01	0	53	0	116391936	37	7086
2026-01-07 11:17:57.70	134.73	12.68	-34.7	-38.6	12.5	1.63e-01	0	54	0	121634816	42	5218
2026-01-07 11:17:58.71	134.67	12.78	-35.5	-38.6	12.1	1.01e-01	0	54	0	126877696	40	5807
2026-01-07 11:17:59.72	134.61	12.87	-36.1	-38.5	13.1	1.51e-01	0	54	0	132120576	42	5113
2026-01-07 11:18:00.73	134.55	12.96	-35.8	-38.3	13.6	9.49e-02	0	54	0	137363456	41	5318
2026-01-07 11:18:01.74	134.49	13.06	-35.1	-38.2	12.8	1.05e-01	0	54	0	142606336	41	5246
2026-01-07 11:18:02.75	134.43	13.16	-34.8	-38.2	11.5	9.01e-02	0	54	0	147849216	39	5902
2026-01-07 11:18:03.76	134.37	13.25	-35.6	-38.2	14.0	8.45e-02	0	54	0	153092096	42	4956
2026-01-07 11:18:04.77	134.31	13.35	-35.1	-38.1	12.0	8.84e-02	0	54	0	158334976	41	5213
2026-01-07 11:18:05.78	134.24	13.44	-34.7	-38.1	14.2	3.90e-02	0	54	0	163577856	42	4906
2026-01-07 11:18:06.79	134.18	13.54	-36.0	-38.1	12.1	5.84e-02	0	54	0	168820736	39	5848
2026-01-07 11:18:07.80	134.12	13.64	-35.6	-38.1	14.0	3.99e-02	0	54	0	175112192	41	5169
2026-01-07 11:18:08.81	134.05	13.74	-34.6	-37.8	14.2	6.61e-02	0	54	0	180355072	41	5019
2026-01-07 11:18:09.82	133.99	13.83	-35.6	-37.9	13.8	2.01e-02	0	54	0	185597952	41	5047
2026-01-07 11:18:10.83	133.92	13.93	-36.0	-38.0	14.2	1.10e-02	0	54	0	191889408	42	4822
2026-01-07 11:18:11.84	133.86	14.03	-35.5	-37.8	13.8	1.88e-02	0	54	0	197132288	42	4744
2026-01-07 11:18:12.84	133.79	14.13	-35.8	-37.7	15.1	1.11e-02	0	54	0	202375168	42	4679
2026-01-07 11:18:13.85	133.72	14.23	-35.3	-37.7	13.9	8.31e-03	0	54	0	207618048	39	5546
2026-01-07 11:18:14.86	133.66	14.33	-35.4	-37.5	15.2	7.45e-03	0	54	0	213909504	41	4867
2026-01-07 11:18:15.87	133.59	14.43	-35.0	-37.5	15.3	2.41e-01	0	54	0	218103808	41	4823
2026-01-07 11:18:16.88	133.52	14.53	-33.1	-37.5	14.9	1.37e-02	0	54	0	224395264	42	4558
2026-01-07 11:18:17.89	133.45	14.63	-35.6	-37.4	15.7	5.05e-03	0	54	0	229638144	41	4798
2026-01-07 11:18:18.90	133.39	14.73	-35.5	-37.4	15.6	7.45e-02	0	54	0	234881024	41	4787
2026-01-07 11:18:19.91	133.32	14.83	-35.7	-37.4	15.8	1.86e-03	0	54	0	240123904	41	4792
2026-01-07 11:18:20.92	133.25	14.93	-33.3	-37.5	9.6	2.95e-03	0	54	0	246415360	37	6107
2026-01-07 11:18:21.93	133.18	15.04	-35.6	-37.3	16.3	4.04e-03	0	54	0	251658240	41	4711
2026-01-07 11:18:22.94	133.11	15.14	-35.5	-37.3	16.2	1.44e-03	0	54	0	257949696	41	4754
2026-01-07 11:18:23.95	133.03	15.24	-35.2	-37.2	15.8	4.17e-03	0	54	0	263192576	41	4662
2026-01-07 11:18:24.96	132.96	15.34	-35.4	-37.1	16.5	2.60e-02	0	54	0	268435456	41	4621
2026-01-07 11:18:25.97	132.89	15.45	-35.0	-37.0	16.3	2.14e-03	0	54	0	274726912	41	4578
2026-01-07 11:18:26.98	132.82	15.55	-35.1	-36.9	16.2	1.20e-03	0	54	0	279969792	41	4530
2026-01-07 11:18:27.99	132.74	15.66	-34.5	-36.9	16.6	4.50e-04	0	55	0	286261248	40	4808
2026-01-07 11:18:29.00	132.67	15.76	-35.3	-37.0	16.1	3.33e-03	0	55	0	291504128	40	4826
2026-01-07 11:18:30.01	132.60	15.87	-35.1	-36.9	16.7	8.99e-03	0	54	0	297795584	41	4494
2026-01-07 11:18:31.02	132.52	15.97	-34.8	-36.8	16.2	9.81e-03	0	54	0	303038464	41	4477
2026-01-07 11:18:32.03	132.45	16.08	-35.2	-36.8	16.5	4.57e-04	0	55	0	308281344	41	4482
2026-01-07 11:18:33.04	132.37	16.19	-34.9	-36.9	17.0	2.70e-04	0	54	0	314572800	41	4515
2026-01-07 11:18:34.05	132.29	16.29	-35.2	-36.9	16.0	9.55e-04	0	54	0	319815680	41	4496
2026-01-07 11:18:35.06	132.22	16.40	-35.1	-36.9	16.5	1.47e-03	0	55	0	326107136	41	4509
2026-01-07 11:18:36.07	132.14	16.51	-34.8	-36.9	16.7	1.80e-04	0	54	0	331350016	41	4501
2026-01-07 11:18:37.08	132.06	16.62	-35.3	-36.9	16.1	1.35e-03	0	55	0	337641472	41	4534
2026-01-07 11:18:38.09	131.98	16.73	-35.2	-36.8	17.2	8.67e-04	0	54	0	342884352	41	4448
2026-01-07 11:18:39.10	131.90	16.84	-35.1	-36.7	17.4	1.60e-04	0	54	0	348127232	40	4653
2026-01-07 11:18:40.11	131.82	16.95	-35.0	-36.6	16.7	2.54e-04	0	54	0	354418688	40	4622
2026-01-07 11:18:41.12	131.74	17.06	-35.0	-36.6	17.4	4.28e-03	0	54	0	359661568	40	4613
2026-01-07 11:18:42.13	131.66	17.17	-35.0	-36.6	17.3	6.98e-05	0	54	0	365953024	40	4601
2026-01-07 11:18:43.14	131.58	17.28	-35.0	-36.5	17.7	5.03e-05	0	54	0	371195904	40	4547
2026-01-07 11:18:44.15	131.49	17.39	-35.0	-36.5	17.6	6.06e-05	0	54	0	376438784	40	4581
2026-01-07 11:18:45.16	131.41	17.50	-34.9	-36.4	17.8	6.17e-05	0	54	0	382730240	40	4511
2026-01-07 11:18:46.17	131.33	17.61	-34.8	-36.4	17.8	6.29e-05	0	55	0	387973120	40	4508
2026-01-07 11:18:47.18	131.24	17.73	-34.8	-36.4	17.7	1.25e-05	0	54	0	394264576	40	4513
2026-01-07 11:18:48.19	131.16	17.84	-34.7	-36.3	17.8	9.84e-05	0	54	0	399507456	40	4477
2026-01-07 11:18:49.20	131.07	17.95	-34.9	-36.4	17.8	2.28e-05	0	55	0	404750336	40	4500
2026-01-07 11:18:50.21	130.99	18.07	-34.8	-36.3	17.9	6.57e-04	0	55	0	411041792	40	4472
2026-01-07 11:18:51.22	130.90	18.18	-34.9	-36.3	17.8	7.55e-05	0	55	0	416284672	40	4489
2026-01-07 11:18:52.23	130.81	18.30	-34.9	-36.3	17.9	1.02e-05	0	55	0	422576128	40	4488
2026-01-07 11:18:53.24	130.72	18.41	-34.9	-36.4	17.8	1.60e-05	0	55	0	427819008	40	4497
2026-01-07 11:18:54.25	130.63	18.53	-34.9	-36.4	17.8	3.94e-03	0	55	0	434110464	40	4505
2026-01-07 11:18:55.26	130.54	18.65	-34.9	-36.3	17.9	8.00e-06	0	55	0	439353344	40	4483
2026-01-07 11:18:56.27	130.45	18.76	-34.9	-36.4	17.8	9.67e-04	0	55	0	445644800	40	4517
2026-01-07 11:18:57.28	130.36	18.88	-34.8	-36.4	17.9	0.00e+00	0	55	0	450887680	40	4497
2026-01-07 11:18:58.29	130.27	19.00	-34.8	-36.3	18.0	1.04e-04	0	55	0	456130560	40	4449
2026-01-07 11:18:59.30	130.18	19.12	-34.8	-36.2	18.0	1.10e-06	0	55	0	462422016	40	4437
2026-01-07 11:19:00.31	130.08	19.24	-34.8	-36.2	18.0	1.14e-05	0	55	0	467664896	40	4430
2026-01-07 11:19:01.32	129.99	19.36	-34.6	-36.0	18.2	1.10e-06	0	55	0	473956352	40	4335
2026-01-07 11:19:02.33	129.89	19.48	-34.6	-35.9	18.2	0.00e+00	0	55	0	479199232	40	4288
2026-01-07 11:19:03.34	129.80	19.60	-34.5	-35.9	18.4	1.10e-06	0	55	0	484442112	40	4256
2026-01-07 11:19:04.35	129.70	19.72	-34.5	-35.8	18.5	3.08e-05	0	55	0	490733568	40	4232
2026-01-07 11:19:05.36	129.60	19.84	-34.4	-35.8	18.5	0.00e+00	0	55	0	495976448	40	4214
2026-01-07 11:19:06.37	129.51	19.96	-34.4	-35.8	18.5	0.00e+00	0	55	0	502267904	40	4195
2026-01-07 11:19:07.38	129.41	20.08	-34.4	-35.7	18.5	0.00e+00	0	55	0	507510784	40	4186
2026-01-07 11:19:08.39	129.31	20.21	-34.4	-35.8	18.5	0.00e+00	0	55	0	512753664	40	4200
2026-01-07 11:19:09.39	129.21	20.33	-34.3	-35.7	18.6	0.00e+00	0	55	0	519045120	40	4159
2026-01-07 11:19:10.40	129.11	20.45	-34.3	-35.6	18.6	0.00e+00	0	55	0	524288000	40	4144
2026-01-07 11:19:11.41	129.00	20.58	-34.4	-35.7	18.6	0.00e+00	0	55	0	530579456	40	4189
2026-01-07 11:19:12.42	128.90	20.70	-34.4	-35.8	18.5	0.00e+00	0	55	0	535822336	40	4207
2026-01-07 11:19:13.43	128.80	20.83	-34.3	-35.7	18.6	0.00e+00	0	55	0	542113792	40	4165
2026-01-07 11:19:14.44	128.69	20.95	-34.3	-35.7	18.6	0.00e+00	0	55	0	547356672	40	4175
2026-01-07 11:19:15.45	128.59	21.08	-34.3	-35.7	18.6	0.00e+00	0	55	0	552599552	40	4163
2026-01-07 11:19:16.47	128.48	21.21	-34.4	-35.7	18.6	0.00e+00	0	55	0	558891008	40	4180
2026-01-07 11:19:17.48	128.37	21.34	-34.3	-35.7	18.7	0.00e+00	0	55	0	564133888	40	4150
2026-01-07 11:19:18.49	128.26	21.46	-34.3	-35.7	18.7	0.00e+00	0	55	0	570425344	40	4155
2026-01-07 11:19:19.50	128.15	21.59	-34.3	-35.6	18.7	0.00e+00	0	55	0	575668224	40	4128
2026-01-07 11:19:20.51	128.04	21.72	-34.2	-35.5	18.8	0.00e+00	0	55	0	580911104	40	4088
2026-01-07 11:19:21.52	127.93	21.85	-34.1	-35.4	18.9	0.00e+00	0	55	0	587202560	40	4031
2026-01-07 11:19:22.53	127.82	21.98	-34.0	-35.3	19.0	0.00e+00	0	55	0	592445440	40	3991
2026-01-07 11:19:23.54	127.71	22.11	-34.0	-35.3	19.0	0.00e+00	0	55	0	598736896	40	3992
2026-01-07 11:19:24.55	127.59	22.25	-34.1	-35.4	19.1	0.00e+00	0	55	0	603979776	39	4265
2026-01-07 11:19:25.56	127.48	22.38	-34.1	-35.4	19.1	0.00e+00	0	55	0	609222656	39	4257
2026-01-07 11:19:26.57	127.36	22.51	-34.0	-35.3	19.1	0.00e+00	0	55	0	615514112	39	4220
2026-01-07 11:19:27.58	127.24	22.64	-33.9	-35.2	19.3	0.00e+00	0	55	0	620756992	39	4151
2026-01-07 11:19:28.59	127.12	22.78	-33.9	-35.2	19.2	0.00e+00	0	55	0	627048448	39	4172
2026-01-07 11:19:29.60	127.01	22.91	-33.9	-35.2	19.3	0.00e+00	0	55	0	632291328	39	4157
2026-01-07 11:19:30.61	126.89	23.05	-33.9	-35.2	19.3	0.00e+00	0	55	0	638582784	39	4146
2026-01-07 11:19:31.62	126.76	23.18	-33.9	-35.2	19.3	0.00e+00	0	55	0	643825664	39	4156
2026-01-07 11:19:32.62	126.64	23.32	-33.9	-35.2	19.3	0.00e+00	0	55	0	650117120	39	4155
2026-01-07 11:19:33.63	126.52	23.45	-33.8	-35.1	19.3	0.00e+00	0	55	0	655360000	39	4139
2026-01-07 11:19:34.65	126.39	23.59	-33.9	-35.2	19.2	0.00e+00	0	55	0	660602880	39	4178
2026-01-07 11:19:35.66	126.27	23.73	-33.9	-35.2	19.2	0.00e+00	0	55	0	666894336	39	4164
2026-01-07 11:19:36.67	126.14	23.87	-33.9	-35.2	19.2	0.00e+00	0	55	0	672137216	39	4163
2026-01-07 11:19:37.68	126.01	24.01	-33.9	-35.2	19.3	0.00e+00	0	55	0	678428672	39	4150
2026-01-07 11:19:38.69	125.88	24.15	-33.8	-35.1	19.3	0.00e+00	0	55	0	683671552	39	4118
2026-01-07 11:19:39.70	125.75	24.29	-33.7	-35.0	19.4	0.00e+00	0	55	0	688914432	39	4085
2026-01-07 11:19:40.71	125.62	24.43	-33.7	-35.0	19.4	0.00e+00	0	55	0	695205888	39	4052
2026-01-07 11:19:41.72	125.49	24.57	-33.7	-34.9	19.5	0.00e+00	0	55	0	700448768	39	4048
2026-01-07 11:19:42.73	125.35	24.71	-33.6	-34.9	19.5	0.00e+00	0	55	0	706740224	39	4017
2026-01-07 11:19:43.74	125.22	24.85	-33.5	-34.8	19.6	0.00e+00	0	55	0	711983104	39	3963
2026-01-07 11:19:44.75	125.08	25.00	-33.5	-34.7	19.7	0.00e+00	0	55	0	717225984	39	3946
2026-01-07 11:19:45.76	124.95	25.14	-33.5	-34.8	19.6	0.00e+00	0	55	0	723517440	39	3973
2026-01-07 11:19:46.77	124.81	25.28	-33.5	-34.8	19.6	0.00e+00	0	55	0	728760320	39	3984
2026-01-07 11:19:47.78	124.67	25.43	-33.6	-34.8	19.6	0.00e+00	0	56	0	735051776	39	3997
2026-01-07 11:19:48.79	124.52	25.57	-33.5	-34.8	19.6	0.00e+00	0	55	0	740294656	39	3968
2026-01-07 11:19:49.80	124.38	25.72	-33.5	-34.8	19.6	0.00e+00	0	55	0	746586112	39	3970
2026-01-07 11:19:50.81	124.24	25.87	-33.5	-34.7	19.6	0.00e+00	0	55	0	751828992	38	4193
2026-01-07 11:19:51.83	124.09	26.02	-33.4	-34.7	19.7	0.00e+00	0	55	0	758120448	38	4168
2026-01-07 11:19:52.84	123.94	26.16	-33.4	-34.7	19.7	0.00e+00	0	55	0	763363328	38	4150
2026-01-07 11:19:53.84	123.80	26.31	-33.4	-34.6	19.8	0.00e+00	0	55	0	768606208	38	4138
2026-01-07 11:19:54.86	123.64	26.46	-33.3	-34.6	19.8	0.00e+00	0	55	0	774897664	38	4104
2026-01-07 11:19:55.87	123.49	26.61	-33.3	-34.6	19.8	0.00e+00	0	56	0	780140544	38	4103
2026-01-07 11:19:56.88	123.34	26.76	-33.4	-34.7	19.7	0.00e+00	0	55	0	786432000	38	4156
2026-01-07 11:19:57.89	123.19	26.91	-33.5	-34.8	19.7	0.00e+00	0	55	0	791674880	38	4196
2026-01-07 11:19:58.90	123.03	27.06	-33.5	-34.7	19.7	0.00e+00	0	55	0	796917760	38	4182
2026-01-07 11:19:59.91	122.87	27.22	-33.5	-34.8	19.7	0.00e+00	0	55	0	803209216	38	4205
2026-01-07 11:20:00.92	122.71	27.37	-33.5	-34.7	19.7	0.00e+00	0	56	0	808452096	38	4185
2026-01-07 11:20:01.93	122.55	27.52	-33.5	-34.7	19.7	0.00e+00	0	55	0	814743552	38	4186
2026-01-07 11:20:02.94	122.39	27.68	-33.4	-34.7	19.7	0.00e+00	0	55	0	819986432	38	4172
2026-01-07 11:20:03.95	122.23	27.83	-33.4	-34.6	19.8	0.00e+00	0	55	0	825229312	38	4126
2026-01-07 11:20:04.96	122.06	27.98	-33.3	-34.5	19.9	0.00e+00	0	55	0	831520768	38	4087
2026-01-07 11:20:05.97	121.90	28.14	-33.2	-34.4	20.0	0.00e+00	0	55	0	836763648	38	4050
2026-01-07 11:20:06.98	121.73	28.30	-33.1	-34.4	20.0	0.00e+00	0	55	0	843055104	38	4011
2026-01-07 11:20:07.99	121.56	28.45	-33.1	-34.4	20.0	0.00e+00	0	56	0	848297984	38	4011
2026-01-07 11:20:09.00	121.39	28.61	-33.1	-34.3	20.1	0.00e+00	0	55	0	854589440	38	3980
2026-01-07 11:20:10.00	121.22	28.77	-33.0	-34.2	20.2	0.00e+00	0	56	0	859832320	38	3943
2026-01-07 11:20:11.01	121.04	28.93	-33.0	-34.2	20.2	0.00e+00	0	55	0	865075200	37	4178
2026-01-07 11:20:12.02	120.86	29.09	-33.1	-34.3	20.1	0.00e+00	0	56	0	871366656	37	4213
2026-01-07 11:20:13.03	120.68	29.25	-33.1	-34.4	20.0	0.00e+00	0	56	0	876609536	37	4261
2026-01-07 11:20:14.04	120.50	29.41	-33.1	-34.4	20.0	0.00e+00	0	55	0	882900992	37	4257
2026-01-07 11:20:15.05	120.32	29.57	-33.2	-34.4	20.0	0.00e+00	0	55	0	888143872	37	4262
2026-01-07 11:20:16.06	120.14	29.73	-33.2	-34.5	20.0	0.00e+00	0	55	0	893386752	37	4301
2026-01-07 11:20:17.07	119.95	29.89	-33.2	-34.5	20.0	0.00e+00	0	56	0	899678208	37	4295
2026-01-07 11:20:18.08	119.76	30.05	-33.2	-34.5	19.9	0.00e+00	0	56	0	904921088	37	4310
2026-01-07 11:20:19.09	119.57	30.22	-33.2	-34.5	20.0	0.00e+00	0	55	0	911212544	37	4310
2026-01-07 11:20:20.10	119.38	30.38	-33.3	-34.5	20.0	0.00e+00	0	56	0	916455424	37	4315
2026-01-07 11:20:21.11	119.19	30.55	-33.2	-34.4	20.1	0.00e+00	0	56	0	921698304	37	4269
2026-01-07 11:20:22.12	118.99	30.71	-33.1	-34.4	20.1	0.00e+00	0	56	0	927989760	37	4247
2026-01-07 11:20:23.13	118.79	30.88	-33.1	-34.4	20.1	0.00e+00	0	55	0	933232640	37	4245
2026-01-07 11:20:24.14	118.59	31.04	-33.2	-34.4	20.1	0.00e+00	0	55	0	939524096	37	4284
2026-01-07 11:20:25.15	118.39	31.21	-33.2	-34.4	20.1	0.00e+00	0	56	0	944766976	37	4284
2026-01-07 11:20:26.16	118.19	31.38	-33.2	-34.4	20.1	0.00e+00	0	55	0	951058432	37	4271
2026-01-07 11:20:27.17	117.98	31.55	-33.2	-34.4	20.0	0.00e+00	0	55	0	956301312	37	4291
2026-01-07 11:20:28.18	117.77	31.71	-33.2	-34.4	20.1	0.00e+00	0	56	0	962592768	37	4268
2026-01-07 11:20:29.19	117.56	31.88	-33.2	-34.4	20.1	0.00e+00	0	56	0	967835648	37	4284
2026-01-07 11:20:30.20	117.35	32.05	-33.3	-34.5	20.0	0.00e+00	0	56	0	973078528	37	4318
2026-01-07 11:20:31.21	117.13	32.22	-33.4	-34.6	19.9	0.00e+00	0	56	0	979369984	37	4377
2026-01-07 11:20:32.22	116.92	32.39	-33.3	-34.6	19.9	0.00e+00	0	56	0	984612864	37	4369
2026-01-07 11:20:33.23	116.70	32.56	-33.2	-34.5	20.0	0.00e+00	0	55	0	990904320	37	4303
2026-01-07 11:20:34.24	116.47	32.74	-33.1	-34.3	20.2	0.00e+00	0	56	0	996147200	37	4231
2026-01-07 11:20:35.25	116.25	32.91	-33.0	-34.2	20.3	0.00e+00	0	55	0	1001390080	37	4165
2026-01-07 11:20:36.26	116.02	33.08	-32.9	-34.1	20.4	0.00e+00	0	56	0	1007681536	37	4115
2026-01-07 11:20:37.27	115.79	33.25	-32.9	-34.1	20.4	0.00e+00	0	56	0	1012924416	37	4123
2026-01-07 11:20:38.28	115.56	33.43	-32.9	-34.1	20.3	0.00e+00	0	56	0	1019215872	37	4139
2026-01-07 11:20:39.29	115.33	33.60	-33.0	-34.2	20.3	0.00e+00	0	56	0	1024458752	37	4162
2026-01-07 11:20:40.30	115.09	33.77	-33.1	-34.3	20.2	0.00e+00	0	56	0	1029701632	37	4217
2026-01-07 11:20:41.31	114.85	33.95	-33.1	-34.3	20.1	0.00e+00	0	56	0	1035993088	37	4229
2026-01-07 11:20:42.32	114.61	34.12	-33.1	-34.3	20.2	0.00e+00	0	56	0	1041235968	37	4211
2026-01-07 11:20:43.33	114.36	34.30	-33.0	-34.2	20.3	0.00e+00	0	56	0	1047527424	37	4177
2026-01-07 11:20:44.34	114.12	34.47	-32.9	-34.2	20.3	0.00e+00	0	56	0	1052770304	37	4147
2026-01-07 11:20:45.35	113.87	34.65	-32.9	-34.1	20.4	0.00e+00	0	56	0	1059061760	37	4109
2026-01-07 11:20:46.36	113.61	34.83	-32.9	-34.1	20.3	0.00e+00	0	55	0	1064304640	37	4112
2026-01-07 11:20:47.37	113.36	35.00	-33.0	-34.2	20.3	0.00e+00	0	56	0	1070596096	37	4158
2026-01-07 11:20:48.38	113.10	35.18	-32.9	-34.2	20.3	0.00e+00	0	56	0	1075838976	37	4156
2026-01-07 11:20:49.39	112.84	35.36	-33.0	-34.2	20.2	0.00e+00	0	56	0	1081081856	37	4182
2026-01-07 11:20:50.40	112.58	35.54	-33.0	-34.2	20.3	0.00e+00	0	56	0	1087373312	37	4157
2026-01-07 11:20:51.41	112.31	35.72	-33.0	-34.2	20.3	0.00e+00	0	56	0	1092616192	37	4184
2026-01-07 11:20:52.42	112.04	35.89	-33.0	-34.2	20.3	0.00e+00	0	56	0	1098907648	37	4173
2026-01-07 11:20:53.43	111.77	36.07	-33.0	-34.2	20.3	0.00e+00	0	56	0	1104150528	37	4176
2026-01-07 11:20:54.44	111.49	36.25	-33.0	-34.2	20.3	0.00e+00	0	56	0	1109393408	37	4191
2026-01-07 11:20:55.45	111.21	36.43	-33.1	-34.4	20.2	0.00e+00	0	56	0	1115684864	37	4250
2026-01-07 11:20:56.46	110.93	36.61	-33.1	-34.3	20.2	0.00e+00	0	56	0	1120927744	37	4229
2026-01-07 11:20:57.47	110.64	36.79	-33.0	-34.2	20.3	0.00e+00	0	56	0	1127219200	37	4162
2026-01-07 11:20:58.48	110.35	36.97	-32.9	-34.1	20.4	0.00e+00	0	56	0	1132462080	37	4122
2026-01-07 11:20:59.49	110.06	37.15	-32.9	-34.1	20.4	0.00e+00	0	56	0	1137704960	37	4108
2026-01-07 11:21:00.50	109.77	37.33	-32.9	-34.1	20.4	0.00e+00	0	56	0	1143996416	37	4117
2026-01-07 11:21:01.52	109.47	37.51	-32.9	-34.1	20.4	0.00e+00	0	56	0	1149239296	37	4128
2026-01-07 11:21:02.53	109.16	37.69	-32.9	-34.1	20.4	0.00e+00	0	56	0	1155530752	37	4133
2026-01-07 11:21:03.54	108.86	37.87	-32.9	-34.2	20.4	0.00e+00	0	56	0	1160773632	37	4147
2026-01-07 11:21:04.55	108.55	38.05	-32.9	-34.1	20.4	0.00e+00	0	56	0	1167065088	37	4137
2026-01-07 11:21:05.56	108.24	38.23	-32.9	-34.1	20.5	0.00e+00	0	56	0	1172307968	37	4105
2026-01-07 11:21:06.57	107.92	38.41	-32.9	-34.1	20.4	0.00e+00	0	56	0	1178599424	37	4106
2026-01-07 11:21:07.58	107.60	38.59	-33.0	-34.2	20.3	0.00e+00	0	56	0	1183842304	37	4155
2026-01-07 11:21:08.59	107.28	38.77	-33.1	-34.3	20.3	0.00e+00	0	56	0	1189085184	37	4204
2026-01-07 11:21:09.60	106.96	38.95	-33.2	-34.4	20.1	0.00e+00	0	56	0	1195376640	37	4283
2026-01-07 11:21:10.61	106.63	39.13	-33.2	-34.4	20.2	0.00e+00	0	56	0	1200619520	37	4275
2026-01-07 11:21:11.62	106.29	39.31	-33.1	-34.3	20.3	0.00e+00	0	56	0	1206910976	37	4227
2026-01-07 11:21:12.62	105.96	39.49	-33.1	-34.4	20.2	0.00e+00	0	56	0	1212153856	37	4243
2026-01-07 11:21:13.63	105.62	39.67	-33.2	-34.4	20.2	0.00e+00	0	56	0	1217396736	37	4249
2026-01-07 11:21:14.64	105.27	39.85	-33.1	-34.3	20.3	0.00e+00	0	56	0	1223688192	37	4234
2026-01-07 11:21:15.65	104.93	40.03	-33.1	-34.3	20.4	0.00e+00	0	56	0	1228931072	37	4195
2026-01-07 11:21:16.66	104.57	40.20	-33.0	-34.1	20.5	0.00e+00	0	56	0	1234173952	37	4143
2026-01-07 11:21:17.67	104.22	40.38	-32.9	-34.1	20.5	0.00e+00	0	56	0	1240465408	37	4105
2026-01-07 11:21:18.68	103.86	40.56	-32.9	-34.1	20.5	0.00e+00	0	56	0	1245708288	37	4133
2026-01-07 11:21:19.69	103.49	40.74	-33.1	-34.2	20.4	0.00e+00	0	56	0	1251999744	37	4192
2026-01-07 11:21:20.70	103.12	40.91	-33.2	-34.4	20.2	0.00e+00	0	56	0	1257242624	37	4291
2026-01-07 11:21:21.71	102.75	41.09	-33.3	-34.5	20.1	0.00e+00	0	56	0	1263534080	37	4324
2026-01-07 11:21:22.72	102.38	41.27	-33.2	-34.4	20.2	0.00e+00	0	56	0	1268776960	37	4278
2026-01-07 11:21:23.73	101.99	41.44	-33.1	-34.3	20.4	0.00e+00	0	56	0	1275068416	37	4215
2026-01-07 11:21:24.74	101.61	41.62	-33.1	-34.2	20.4	0.00e+00	0	56	0	1280311296	37	4189
2026-01-07 11:21:25.75	101.22	41.79	-33.0	-34.2	20.5	0.00e+00	0	56	0	1285554176	37	4150
2026-01-07 11:21:26.76	100.83	41.96	-32.9	-34.1	20.5	0.00e+00	0	56	0	1291845632	37	4107
2026-01-07 11:21:27.77	100.43	42.14	-32.9	-34.1	20.5	0.00e+00	0	56	0	1297088512	37	4131
2026-01-07 11:21:28.78	100.03	42.31	-33.0	-34.2	20.4	0.00e+00	0	56	0	1303379968	37	4166
2026-01-07 11:21:29.79	99.62	42.48	-33.0	-34.2	20.4	0.00e+00	0	56	0	1308622848	37	4176
2026-01-07 11:21:30.80	99.21	42.65	-33.0	-34.2	20.5	0.00e+00	0	56	0	1313865728	37	4149
2026-01-07 11:21:31.81	98.80	42.82	-33.1	-34.3	20.4	0.00e+00	0	56	0	1320157184	37	4211
2026-01-07 11:21:32.82	98.38	42.99	-33.2	-34.4	20.3	0.00e+00	0	56	0	1325400064	37	4261
2026-01-07 11:21:33.83	97.96	43.15	-33.1	-34.3	20.4	0.00e+00	0	56	0	1331691520	37	4235
2026-01-07 11:21:34.84	97.53	43.32	-33.1	-34.3	20.4	0.00e+00	0	56	0	1336934400	37	4232
2026-01-07 11:21:35.85	97.10	43.48	-33.1	-34.3	20.4	0.00e+00	0	56	0	1342177280	37	4227
2026-01-07 11:21:36.86	96.66	43.65	-33.1	-34.3	20.5	0.00e+00	0	56	0	1348468736	37	4198
2026-01-07 11:21:37.87	96.22	43.81	-33.0	-34.2	20.5	0.00e+00	0	56	0	1353711616	37	4180
2026-01-07 11:21:38.88	95.77	43.97	-33.1	-34.3	20.4	0.00e+00	0	56	0	1360003072	37	4228
2026-01-07 11:21:39.89	95.32	44.13	-33.1	-34.3	20.5	0.00e+00	0	56	0	1365245952	37	4199
2026-01-07 11:21:40.90	94.87	44.29	-32.8	-34.0	20.7	0.00e+00	0	56	0	1371537408	37	4069
2026-01-07 11:21:41.91	94.41	44.45	-32.8	-34.0	20.7	0.00e+00	0	56	0	1376780288	37	4065
2026-01-07 11:21:42.92	93.94	44.60	-32.9	-34.1	20.6	0.00e+00	0	56	0	1383071744	37	4112
2026-01-07 11:21:43.93	93.48	44.76	-32.9	-34.1	20.6	0.00e+00	0	56	0	1388314624	37	4135
2026-01-07 11:21:44.94	93.00	44.91	-32.9	-34.1	20.6	0.00e+00	0	56	0	1393557504	37	4119
2026-01-07 11:21:45.95	92.52	45.06	-32.9	-34.1	20.6	0.00e+00	0	56	0	1399848960	37	4123
2026-01-07 11:21:46.96	92.04	45.21	-33.0	-34.2	20.5	0.00e+00	0	56	0	1405091840	37	4157
2026-01-07 11:21:47.97	91.56	45.36	-33.1	-34.3	20.3	0.00e+00	0	56	0	1411383296	37	4228
2026-01-07 11:21:48.98	91.06	45.51	-33.4	-34.6	20.0	0.00e+00	0	56	0	1416626176	37	4389
2026-01-07 11:21:49.99	90.57	45.65	-33.6	-34.9	19.8	0.00e+00	0	56	0	1421869056	37	4518
2026-01-07 11:21:51.00	90.07	45.79	-33.6	-34.8	19.9	0.00e+00	0	56	0	1428160512	37	4479
2026-01-07 11:21:52.01	89.56	45.93	-33.3	-34.5	20.2	0.00e+00	0	56	0	1433403392	37	4324
2026-01-07 11:21:53.01	89.06	46.07	-33.1	-34.3	20.5	0.00e+00	0	56	0	1439694848	37	4215
2026-01-07 11:21:54.02	88.55	46.21	-33.5	-34.8	20.0	0.00e+00	0	56	0	1444937728	37	4444
2026-01-07 11:21:55.03	88.03	46.34	-33.9	-35.1	19.7	0.00e+00	0	56	0	1450180608	38	4389
2026-01-07 11:21:56.05	87.50	46.47	-33.8	-35.0	19.8	0.00e+00	0	56	0	1456472064	38	4322
2026-01-07 11:21:57.05	86.98	46.60	-33.6	-34.9	20.0	0.00e+00	0	56	0	1461714944	38	4243
2026-01-07 11:21:58.07	86.44	46.73	-33.7	-34.9	19.9	0.00e+00	0	56	0	1468006400	38	4291
2026-01-07 11:21:59.08	85.91	46.86	-33.7	-35.0	19.8	0.00e+00	0	56	0	1473249280	38	4315
2026-01-07 11:22:00.09	85.37	46.98	-33.8	-35.1	19.7	0.00e+00	0	56	0	1479540736	38	4353
2026-01-07 11:22:01.10	84.82	47.10	-33.7	-34.9	19.9	0.00e+00	0	56	0	1484783616	38	4287
2026-01-07 11:22:02.11	84.27	47.22	-33.5	-34.7	20.1	0.00e+00	0	56	0	1490026496	38	4159
2026-01-07 11:22:03.12	83.72	47.33	-33.4	-34.6	20.2	0.00e+00	0	56	0	1496317952	38	4119
2026-01-07 11:22:04.13	83.16	47.44	-33.6	-34.8	20.0	0.00e+00	0	56	0	1501560832	38	4230
2026-01-07 11:22:05.14	82.60	47.55	-33.8	-35.1	19.7	0.00e+00	0	56	0	1507852288	38	4368
2026-01-07 11:22:06.15	82.04	47.66	-34.0	-35.3	19.6	0.00e+00	0	56	0	1513095168	38	4442
2026-01-07 11:22:07.16	81.47	47.77	-34.0	-35.2	19.6	0.00e+00	0	56	0	1518338048	38	4430
2026-01-07 11:22:08.17	80.90	47.87	-33.9	-35.1	19.7	0.00e+00	0	56	0	1524629504	38	4380
2026-01-07 11:22:09.18	80.32	47.97	-33.8	-35.0	19.8	0.00e+00	0	56	0	1529872384	38	4329
2026-01-07 11:22:10.19	79.74	48.06	-33.8	-35.1	19.8	0.00e+00	0	56	0	1536163840	38	4367
2026-01-07 11:22:11.20	79.16	48.15	-33.9	-35.2	19.7	0.00e+00	0	56	0	1541406720	38	4393
2026-01-07 11:22:12.21	78.57	48.24	-33.8	-35.1	19.7	0.00e+00	0	56	0	1546649600	38	4369
2026-01-07 11:22:13.23	77.98	48.33	-33.8	-35.1	19.8	0.00e+00	0	56	0	1552941056	38	4358
2026-01-07 11:22:14.23	77.39	48.41	-33.8	-35.0	19.8	0.00e+00	0	56	0	1558183936	38	4322
2026-01-07 11:22:15.24	76.80	48.49	-33.8	-35.1	19.8	0.00e+00	0	56	0	1564475392	38	4365
2026-01-07 11:22:16.25	76.20	48.57	-33.7	-34.9	19.9	0.00e+00	0	56	0	1569718272	38	4281
2026-01-07 11:22:17.26	75.60	48.64	-33.6	-34.8	20.1	0.00e+00	0	56	0	1576009728	38	4216
2026-01-07 11:22:18.27	74.99	48.71	-33.6	-34.8	20.1	0.00e+00	0	56	0	1581252608	38	4235
2026-01-07 11:22:19.28	74.38	48.78	-33.5	-34.7	20.2	0.00e+00	0	56	0	1587544064	38	4182
2026-01-07 11:22:20.29	73.77	48.85	-33.4	-34.6	20.3	0.00e+00	0	56	0	1592786944	38	4129
2026-01-07 11:22:21.30	73.16	48.91	-33.5	-34.7	20.3	0.00e+00	0	56	0	1598029824	38	4153
2026-01-07 11:22:22.31	72.55	48.96	-33.7	-34.9	20.0	0.00e+00	0	56	0	1604321280	38	4279
2026-01-07 11:22:23.32	71.93	49.02	-33.9	-35.1	19.8	0.00e+00	0	56	0	1609564160	38	4379
2026-01-07 11:22:24.33	71.31	49.07	-33.7	-34.9	20.1	0.00e+00	0	56	0	1615855616	38	4251
2026-01-07 11:22:25.34	70.69	49.11	-33.5	-34.7	20.2	0.00e+00	0	56	0	1621098496	38	4179
2026-01-07 11:22:26.35	70.06	49.15	-33.7	-35.0	19.9	0.00e+00	0	56	0	1626341376	38	4302
2026-01-07 11:22:27.36	69.44	49.19	-33.9	-35.1	19.8	0.00e+00	0	56	0	1632632832	38	4373
2026-01-07 11:22:28.37	68.81	49.23	-33.8	-35.1	19.8	0.00e+00	0	56	0	1637875712	38	4364
2026-01-07 11:22:29.38	68.19	49.26	-33.7	-34.9	20.0	0.00e+00	0	56	0	1644167168	38	4255
2026-01-07 11:22:30.39	67.56	49.29	-33.7	-34.9	20.1	0.00e+00	0	56	0	1649410048	38	4246
2026-01-07 11:22:31.40	66.93	49.31	-33.9	-35.1	19.8	0.00e+00	0	56	0	1654652928	38	4389
2026-01-07 11:22:32.41	66.30	49.33	-33.9	-35.2	19.8	0.00e+00	0	56	0	1660944384	38	4397
2026-01-07 11:22:33.42	65.67	49.35	-33.5	-34.7	20.2	0.00e+00	0	56	0	1666187264	38	4181
2026-01-07 11:22:34.43	65.03	49.36	-33.4	-34.6	20.4	0.00e+00	0	56	0	1672478720	38	4105
2026-01-07 11:22:35.44	64.40	49.37	-33.5	-34.7	20.2	0.00e+00	0	56	0	1677721600	38	4185
2026-01-07 11:22:36.45	63.77	49.38	-33.7	-35.0	19.9	0.00e+00	0	56	0	1684013056	38	4303
2026-01-07 11:22:37.46	63.14	49.38	-33.9	-35.1	19.8	0.00e+00	0	56	0	1689255936	38	4370
2026-01-07 11:22:38.47	62.50	49.38	-33.9	-35.1	19.8	0.00e+00	0	56	0	1695547392	38	4362
2026-01-07 11:22:39.48	61.87	49.37	-33.9	-35.2	19.8	0.00e+00	0	56	0	1700790272	38	4392
2026-01-07 11:22:40.49	61.24	49.36	-33.7	-34.9	20.0	0.00e+00	0	56	0	1706033152	38	4289
2026-01-07 11:22:41.50	60.61	49.35	-33.6	-34.8	20.1	0.00e+00	0	56	0	1712324608	38	4221
2026-01-07 11:22:42.51	59.98	49.33	-33.8	-35.0	19.9	0.00e+00	0	56	0	1717567488	38	4315
2026-01-07 11:22:43.51	59.35	49.31	-34.0	-35.3	19.7	0.00e+00	0	56	0	1723858944	38	4458
2026-01-07 11:22:44.52	58.72	49.29	-34.0	-35.3	19.7	0.00e+00	0	57	0	1729101824	38	4451
2026-01-07 11:22:45.53	58.09	49.26	-33.9	-35.1	19.8	0.00e+00	0	56	0	1734344704	38	4380
2026-01-07 11:22:46.55	57.46	49.23	-33.7	-35.0	20.0	0.00e+00	0	56	0	1740636160	38	4300
2026-01-07 11:22:47.56	56.83	49.19	-33.8	-35.1	19.9	0.00e+00	0	56	0	1745879040	38	4342
2026-01-07 11:22:48.56	56.22	49.16	-33.8	-35.0	19.9	0.00e+00	0	56	0	1752170496	38	4333
2026-01-07 11:22:49.57	55.59	49.11	-33.9	-35.2	19.8	0.00e+00	0	56	0	1757413376	38	4410
2026-01-07 11:22:50.58	54.97	49.07	-34.0	-35.2	19.7	0.00e+00	0	56	0	1762656256	38	4440
2026-01-07 11:22:51.59	54.35	49.02	-33.9	-35.2	19.8	0.00e+00	0	56	0	1768947712	38	4406
2026-01-07 11:22:52.60	53.74	48.96	-33.8	-35.0	19.9	0.00e+00	0	56	0	1774190592	38	4339
2026-01-07 11:22:53.61	53.12	48.91	-33.6	-34.8	20.1	0.00e+00	0	56	0	1780482048	38	4241
2026-01-07 11:22:54.62	52.51	48.85	-33.5	-34.7	20.3	0.00e+00	0	56	0	1785724928	38	4174
2026-01-07 11:22:55.63	51.90	48.78	-33.6	-34.8	20.1	0.00e+00	0	56	0	1792016384	38	4205
2026-01-07 11:22:56.64	51.29	48.72	-33.8	-35.0	19.9	0.00e+00	0	56	0	1797259264	38	4318
2026-01-07 11:22:57.65	50.69	48.65	-33.8	-35.1	19.9	0.00e+00	0	56	0	1802502144	38	4354
2026-01-07 11:22:58.66	50.09	48.57	-33.6	-34.8	20.1	0.00e+00	0	56	0	1808793600	38	4216
2026-01-07 11:22:59.67	49.49	48.50	-33.5	-34.7	20.1	0.00e+00	0	56	0	1814036480	38	4193
2026-01-07 11:23:00.68	48.89	48.42	-33.7	-35.0	19.9	0.00e+00	0	56	0	1820327936	38	4294
2026-01-07 11:23:01.69	48.30	48.33	-33.9	-35.1	19.7	0.00e+00	0	56	0	1825570816	38	4390
2026-01-07 11:23:02.70	47.71	48.25	-33.9	-35.2	19.8	0.00e+00	0	56	0	1830813696	38	4392
2026-01-07 11:23:03.71	47.13	48.16	-33.9	-35.2	19.7	0.00e+00	0	56	0	1837105152	38	4402
2026-01-07 11:23:04.72	46.54	48.07	-33.9	-35.2	19.7	0.00e+00	0	56	0	1842348032	38	4408
2026-01-07 11:23:05.73	45.97	47.97	-34.0	-35.2	19.7	0.00e+00	0	56	0	1848639488	38	4434
2026-01-07 11:23:06.74	45.39	47.87	-33.8	-35.0	19.9	0.00e+00	0	56	0	1853882368	38	4331
2026-01-07 11:23:07.74	44.83	47.77	-33.7	-34.9	20.0	0.00e+00	0	56	0	1859125248	38	4277
2026-01-07 11:23:08.75	44.26	47.67	-33.7	-34.9	20.0	0.00e+00	0	56	0	1865416704	38	4267
2026-01-07 11:23:09.76	43.69	47.56	-33.7	-34.9	20.0	0.00e+00	0	56	0	1870659584	38	4280
2026-01-07 11:23:10.77	43.13	47.45	-33.8	-35.0	19.9	0.00e+00	0	57	0	1876951040	38	4331
2026-01-07 11:23:11.78	42.58	47.34	-33.7	-35.0	20.0	0.00e+00	0	56	0	1882193920	38	4307
2026-01-07 11:23:12.79	42.03	47.22	-33.6	-34.9	20.0	0.00e+00	0	56	0	1888485376	38	4246
2026-01-07 11:23:13.80	41.48	47.11	-33.6	-34.8	20.0	0.00e+00	0	56	0	1893728256	38	4228
2026-01-07 11:23:14.81	40.94	46.99	-33.6	-34.9	20.0	0.00e+00	0	56	0	1898971136	38	4255
2026-01-07 11:23:15.82	40.40	46.86	-33.7	-35.0	19.9	0.00e+00	0	56	0	1905262592	38	4297
2026-01-07 11:23:16.83	39.86	46.74	-33.7	-35.0	19.9	0.00e+00	0	56	0	1910505472	38	4303
2026-01-07 11:23:17.84	39.33	46.61	-33.6	-34.8	20.1	0.00e+00	0	56	0	1916796928	38	4214
2026-01-07 11:23:18.85	38.80	46.48	-33.4	-34.5	20.4	0.00e+00	0	57	0	1922039808	38	4096
2026-01-07 11:23:19.86	38.28	46.35	-33.1	-34.3	20.6	0.00e+00	0	56	0	1927282688	38	3962
2026-01-07 11:23:20.87	37.77	46.22	-33.0	-34.2	20.7	0.00e+00	0	56	0	1933574144	38	3940
2026-01-07 11:23:21.88	37.25	46.08	-33.1	-34.3	20.7	0.00e+00	0	56	0	1938817024	38	3965
2026-01-07 11:23:22.89	36.74	45.94	-33.1	-34.3	20.6	0.00e+00	0	56	0	1945108480	38	3971
2026-01-07 11:23:23.90	36.24	45.80	-33.1	-34.3	20.6	0.00e+00	0	57	0	1950351360	38	3966
2026-01-07 11:23:24.91	35.74	45.66	-33.1	-34.3	20.6	0.00e+00	0	56	0	1955594240	38	3969
2026-01-07 11:23:25.92	35.25	45.52	-33.1	-34.3	20.7	0.00e+00	0	56	0	1961885696	38	3963
2026-01-07 11:23:26.93	34.76	45.37	-33.0	-34.2	20.7	0.00e+00	0	56	0	1967128576	38	3926
2026-01-07 11:23:27.94	34.27	45.23	-33.1	-34.3	20.6	0.00e+00	0	57	0	1973420032	38	3989
2026-01-07 11:23:28.95	33.79	45.08	-33.1	-34.3	20.6	0.00e+00	0	56	0	1978662912	38	3972
2026-01-07 11:23:29.96	33.31	44.93	-33.0	-34.2	20.7	0.00e+00	0	56	0	1984954368	38	3926
2026-01-07 11:23:30.97	32.84	44.77	-33.0	-34.2	20.7	0.00e+00	0	56	0	1990197248	38	3925
2026-01-07 11:23:31.98	32.37	44.62	-33.1	-34.3	20.6	0.00e+00	0	56	0	1996488704	38	3962
2026-01-07 11:23:32.99	31.91	44.46	-33.1	-34.3	20.5	0.00e+00	0	56	0	2001731584	38	3985
2026-01-07 11:23:34.00	31.45	44.31	-33.0	-34.2	20.6	0.00e+00	0	57	0	2006974464	38	3934
2026-01-07 11:23:35.01	31.00	44.15	-33.0	-34.2	20.7	0.00e+00	0	56	0	2013265920	38	3949
2026-01-07 11:23:36.03	30.54	43.99	-33.1	-34.3	20.6	0.00e+00	0	56	0	2018508800	38	3971
2026-01-07 11:23:37.03	30.10	43.83	-33.1	-34.3	20.6	0.00e+00	0	56	0	2024800256	38	3997
2026-01-07 11:23:38.04	29.66	43.67	-33.1	-34.3	20.7	0.00e+00	0	56	0	2030043136	38	3963
2026-01-07 11:23:39.05	29.23	43.50	-32.9	-34.1	20.8	0.00e+00	0	56	0	2035286016	37	4116
2026-01-07 11:23:40.06	28.79	43.34	-32.8	-34.0	20.9	0.00e+00	0	56	0	2041577472	37	4057
2026-01-07 11:23:41.07	28.37	43.17	-32.7	-33.9	21.1	0.00e+00	0	56	0	2046820352	37	4005
2026-01-07 11:23:42.08	27.94	43.01	-32.7	-33.8	21.1	0.00e+00	0	56	0	2053111808	37	3983
2026-01-07 11:23:43.09	27.53	42.84	-32.7	-33.8	21.1	0.00e+00	0	56	0	2058354688	37	3989
2026-01-07 11:23:44.10	27.11	42.67	-32.9	-34.0	20.9	0.00e+00	0	57	0	2063597568	37	4090
2026-01-07 11:23:45.11	26.70	42.50	-33.1	-34.2	20.7	0.00e+00	0	56	0	2069889024	37	4193
2026-01-07 11:23:46.12	26.30	42.33	-33.2	-34.4	20.5	0.00e+00	0	56	0	2075131904	37	4271
2026-01-07 11:23:47.13	25.90	42.16	-33.4	-34.6	20.3	0.00e+00	0	56	0	2081423360	37	4359
2026-01-07 11:23:48.14	25.50	41.99	-33.4	-34.6	20.3	0.00e+00	0	56	0	2086666240	37	4382
2026-01-07 11:23:49.15	25.11	41.82	-33.3	-34.5	20.3	0.00e+00	0	56	0	2092957696	37	4336
2026-01-07 11:23:50.16	24.72	41.64	-33.3	-34.3	21.0	0.00e+00	0	56	0	2098200576	37	4241
2026-01-07 11:23:51.17	24.34	41.47	-33.2	-34.3	21.1	0.00e+00	0	57	0	2104492032	37	4196
2026-01-07 11:23:52.18	23.96	41.29	-33.1	-34.2	21.1	0.00e+00	0	56	0	2109734912	37	4164
2026-01-07 11:23:53.19	23.58	41.12	-33.1	-34.1	21.2	0.00e+00	0	56	0	2114977792	37	4137
2026-01-07 11:23:54.20	23.21	40.94	-33.2	-34.2	21.1	0.00e+00	0	56	0	2121269248	37	4181
2026-01-07 11:23:55.21	22.84	40.77	-33.3	-34.4	20.9	0.00e+00	0	56	0	2126512128	37	4279
2026-01-07 11:23:56.23	22.48	40.59	-33.4	-34.5	20.9	0.00e+00	0	56	0	2132803584	37	4299
2026-01-07 11:23:57.24	22.12	40.41	-33.3	-34.4	21.0	0.00e+00	0	57	0	2138046464	37	4261
2026-01-07 11:23:58.25	21.76	40.23	-33.3	-34.3	21.0	0.00e+00	0	56	0	2143289344	37	4228
2026-01-07 11:23:59.26	21.41	40.06	-33.2	-34.3	21.0	0.00e+00	0	56	0	2149580800	37	4205
2026-01-07 11:24:00.27	21.06	39.88	-33.2	-34.3	21.0	0.00e+00	0	56	0	2154823680	37	4210
2026-01-07 11:24:01.28	20.72	39.70	-33.2	-34.3	21.0	0.00e+00	0	56	0	2161115136	37	4230
2026-01-07 11:24:02.29	20.38	39.52	-33.1	-34.2	21.1	0.00e+00	0	56	0	2166358016	37	4176
2026-01-07 11:24:03.30	20.04	39.34	-33.0	-34.0	21.3	0.00e+00	0	57	0	2171600896	37	4091
2026-01-07 11:24:04.31	19.71	39.16	-32.9	-33.9	21.4	0.00e+00	0	56	0	2177892352	37	4023
2026-01-07 11:24:05.32	19.38	38.98	-32.8	-33.8	21.5	0.00e+00	0	56	0	2183135232	37	3993
2026-01-07 11:24:06.33	19.06	38.81	-32.8	-33.8	21.5	0.00e+00	0	56	0	2189426688	37	3981
2026-01-07 11:24:07.34	18.73	38.63	-32.7	-33.8	21.5	0.00e+00	0	56	0	2194669568	37	3969
2026-01-07 11:24:08.35	18.42	38.45	-32.8	-33.8	21.4	0.00e+00	0	57	0	2200961024	37	3991
2026-01-07 11:24:09.36	18.10	38.27	-32.9	-33.9	21.4	0.00e+00	0	56	0	2206203904	37	4023
2026-01-07 11:24:10.37	17.79	38.09	-32.9	-33.9	21.3	0.00e+00	0	57	0	2212495360	37	4048
2026-01-07 11:24:11.38	17.48	37.91	-33.0	-34.1	21.2	0.00e+00	0	57	0	2217738240	37	4104
2026-01-07 11:24:12.39	17.18	37.73	-33.1	-34.2	21.1	0.00e+00	0	57	0	2222981120	37	4149
2026-01-07 11:24:13.40	16.88	37.55	-33.1	-34.2	21.1	0.00e+00	0	56	0	2229272576	37	4162
2026-01-07 11:24:14.41	16.58	37.37	-33.2	-34.3	21.0	0.00e+00	0	56	0	2234515456	37	4206
2026-01-07 11:24:15.42	16.29	37.19	-33.3	-34.4	20.9	0.00e+00	0	56	0	2240806912	37	4260
2026-01-07 11:24:16.42	16.00	37.01	-33.2	-34.3	21.0	0.00e+00	0	57	0	2246049792	37	4205
2026-01-07 11:24:17.43	15.71	36.83	-32.9	-34.0	21.2	0.00e+00	0	56	0	2251292672	37	4075
2026-01-07 11:24:18.44	15.43	36.66	-32.9	-33.9	21.3	0.00e+00	0	56	0	2257584128	37	4026
2026-01-07 11:24:19.45	15.14	36.48	-32.9	-33.9	21.3	0.00e+00	0	56	0	2262827008	37	4033
2026-01-07 11:24:20.46	14.87	36.30	-32.9	-33.9	21.3	0.00e+00	0	56	0	2268069888	37	4035
2026-01-07 11:24:21.47	14.59	36.12	-33.0	-34.0	21.2	0.00e+00	0	56	0	2274361344	37	4083
2026-01-07 11:24:22.48	14.32	35.94	-33.0	-34.0	21.2	0.00e+00	0	57	0	2279604224	37	4098
2026-01-07 11:24:23.49	14.05	35.76	-32.9	-34.0	21.3	0.00e+00	0	56	0	2285895680	37	4060
2026-01-07 11:24:24.50	13.78	35.59	-32.9	-33.9	21.3	0.00e+00	0	56	0	2291138560	37	4026
2026-01-07 11:24:25.52	13.52	35.41	-32.8	-33.9	21.3	0.00e+00	0	56	0	2297430016	37	4009
2026-01-07 11:24:26.53	13.26	35.23	-32.9	-33.9	21.3	0.00e+00	0	56	0	2302672896	37	4047
2026-01-07 11:24:27.53	13.00	35.06	-32.9	-33.9	21.3	0.00e+00	0	57	0	2308964352	37	4047
2026-01-07 11:24:28.54	12.75	34.88	-32.8	-33.8	21.4	0.00e+00	0	57	0	2314207232	37	3999
2026-01-07 11:24:29.55	12.49	34.70	-32.7	-33.7	21.5	0.00e+00	0	57	0	2319450112	37	3955
2026-01-07 11:24:30.56	12.25	34.53	-32.6	-33.6	21.6	0.00e+00	0	56	0	2325741568	37	3911
2026-01-07 11:24:31.57	12.00	34.35	-32.6	-33.6	21.5	0.00e+00	0	57	0	2330984448	37	3908
2026-01-07 11:24:32.58	11.75	34.18	-32.7	-33.7	21.4	0.00e+00	0	56	0	2337275904	37	3954
2026-01-07 11:24:33.59	11.51	34.00	-32.8	-33.8	21.3	0.00e+00	0	56	0	2342518784	37	4004
2026-01-07 11:24:34.60	11.27	33.83	-32.9	-33.9	21.3	0.00e+00	0	57	0	2347761664	37	4023
2026-01-07 11:24:35.61	11.04	33.66	-32.9	-33.9	21.2	0.00e+00	0	56	0	2354053120	37	4051
2026-01-07 11:24:36.62	10.80	33.48	-32.9	-34.0	21.2	0.00e+00	0	56	0	2359296000	37	4074
2026-01-07 11:24:37.63	10.57	33.31	-33.0	-34.1	21.1	0.00e+00	0	56	0	2365587456	37	4113
2026-01-07 11:24:38.64	10.34	33.14	-33.2	-34.3	21.0	0.00e+00	0	56	0	2370830336	37	4196
2026-01-07 11:24:39.65	10.12	32.97	-33.2	-34.3	20.9	0.00e+00	0	56	0	2376073216	37	4229
2026-01-07 11:24:40.66	9.89	32.80	-33.2	-34.3	20.9	0.00e+00	0	56	0	2382364672	37	4210
2026-01-07 11:24:41.67	9.67	32.62	-33.0	-34.1	21.1	0.00e+00	0	57	0	2387607552	37	4106
2026-01-07 11:24:42.68	9.45	32.45	-32.9	-33.9	21.2	0.00e+00	0	56	0	2393899008	37	4035
2026-01-07 11:24:43.69	9.24	32.28	-32.8	-33.9	21.3	0.00e+00	0	57	0	2399141888	37	4005
2026-01-07 11:24:44.70	9.02	32.12	-32.9	-33.9	21.2	0.00e+00	0	56	0	2405433344	37	4032
2026-01-07 11:24:45.71	8.81	31.95	-33.0	-34.1	21.1	0.00e+00	0	56	0	2410676224	37	4107
2026-01-07 11:24:46.72	8.60	31.78	-33.2	-34.3	20.9	0.00e+00	0	57	0	2416967680	37	4194
2026-01-07 11:24:47.73	8.39	31.61	-33.3	-34.4	20.8	0.00e+00	0	56	0	2422210560	37	4276
2026-01-07 11:24:48.74	8.19	31.44	-33.4	-34.5	20.7	0.00e+00	0	56	0	2427453440	37	4315
2026-01-07 11:24:49.75	7.98	31.28	-33.4	-34.5	20.7	0.00e+00	0	57	0	2433744896	37	4302
2026-01-07 11:24:50.76	7.78	31.11	-33.4	-34.5	20.7	0.00e+00	0	56	0	2438987776	37	4311
2026-01-07 11:24:51.77	7.58	30.94	-33.4	-34.5	20.7	0.00e+00	0	56	0	2445279232	37	4315
2026-01-07 11:24:52.78	7.39	30.78	-33.4	-34.5	20.6	0.00e+00	0	56	0	2450522112	37	4336
2026-01-07 11:24:53.79	7.19	30.62	-33.5	-34.5	20.6	0.00e+00	0	56	0	2455764992	37	4339
2026-01-07 11:24:54.80	7.00	30.45	-33.5	-34.6	20.5	0.00e+00	0	57	0	2462056448	37	4378
2026-01-07 11:24:55.81	6.81	30.29	-33.5	-34.6	20.5	0.00e+00	0	56	0	2467299328	37	4383
2026-01-07 11:24:56.82	6.62	30.13	-33.5	-34.6	20.5	0.00e+00	0	56	0	2473590784	37	4365
2026-01-07 11:24:57.83	6.43	29.96	-33.5	-34.6	20.6	0.00e+00	0	56	0	2478833664	37	4354
2026-01-07 11:24:58.84	6.24	29.80	-33.5	-34.6	20.5	0.00e+00	0	57	0	2484076544	37	4387
2026-01-07 11:24:59.85	6.06	29.64	-33.6	-34.7	20.5	0.00e+00	0	57	0	2490368000	37	4408
2026-01-07 11:25:00.86	5.88	29.48	-33.6	-34.7	20.4	0.00e+00	0	57	0	2495610880	37	4410
2026-01-07 11:25:01.87	5.70	29.32	-33.6	-34.7	20.5	0.00e+00	0	56	0	2501902336	37	4411
2026-01-07 11:25:02.88	5.52	29.16	-33.6	-34.7	20.4	0.00e+00	0	56	0	2507145216	37	4427
2026-01-07 11:25:03.89	5.35	29.00	-33.6	-34.7	20.4	0.00e+00	0	57	0	2513436672	37	4423
2026-01-07 11:25:04.90	5.17	28.84	-33.6	-34.7	20.5	0.00e+00	0	56	0	2518679552	37	4411
2026-01-07 11:25:05.91	5.00	28.69	-33.6	-34.7	20.4	0.00e+00	0	56	0	2523922432	37	4425
2026-01-07 11:25:06.92	4.83	28.53	-33.6	-34.7	20.4	0.00e+00	0	56	0	2530213888	37	4429
2026-01-07 11:25:07.93	4.66	28.37	-33.7	-34.8	20.3	0.00e+00	0	56	0	2535456768	37	4470
2026-01-07 11:25:08.94	4.49	28.22	-33.7	-34.8	20.3	0.00e+00	0	56	0	2541748224	37	4474
2026-01-07 11:25:09.95	4.32	28.06	-33.7	-34.9	20.3	0.00e+00	0	56	0	2546991104	38	4245
2026-01-07 11:25:10.96	4.16	27.91	-33.7	-34.9	20.3	0.00e+00	0	56	0	2552233984	38	4244
2026-01-07 11:25:11.97	4.00	27.75	-33.7	-34.8	20.4	0.00e+00	0	56	0	2558525440	38	4211
2026-01-07 11:25:12.99	3.83	27.60	-33.6	-34.8	20.3	0.00e+00	0	56	0	2563768320	38	4194
2026-01-07 11:25:14.00	3.67	27.45	-33.6	-34.7	20.4	0.00e+00	0	56	0	2570059776	38	4189
2026-01-07 11:25:15.01	3.52	27.29	-33.6	-34.7	20.4	0.00e+00	0	56	0	2575302656	38	4179
2026-01-07 11:25:16.02	3.36	27.14	-33.6	-34.7	20.4	0.00e+00	0	56	0	2581594112	38	4181
2026-01-07 11:25:17.03	3.21	26.99	-33.7	-34.8	20.3	0.00e+00	0	56	0	2586836992	38	4213
2026-01-07 11:25:18.03	3.05	26.84	-33.7	-34.8	20.2	0.00e+00	0	56	0	2592079872	38	4236
2026-01-07 11:25:19.04	2.90	26.69	-33.7	-34.8	20.3	0.00e+00	0	57	0	2598371328	38	4227
2026-01-07 11:25:20.05	2.75	26.54	-33.7	-34.8	20.2	0.00e+00	0	56	0	2603614208	38	4242
2026-01-07 11:25:21.06	2.60	26.39	-33.7	-34.9	20.2	0.00e+00	0	56	0	2609905664	38	4243
2026-01-07 11:25:22.07	2.45	26.25	-33.7	-34.8	20.2	0.00e+00	0	56	0	2615148544	38	4232
2026-01-07 11:25:23.08	2.31	26.10	-33.7	-34.8	20.2	0.00e+00	0	56	0	2621440000	38	4220
2026-01-07 11:25:24.09	2.16	25.95	-33.7	-34.9	20.2	0.00e+00	0	56	0	2626682880	38	4248
2026-01-07 11:25:25.10	2.02	25.81	-33.7	-34.9	20.2	0.00e+00	0	56	0	2631925760	38	4252
2026-01-07 11:25:26.11	1.88	25.66	-33.7	-34.9	20.2	0.00e+00	0	56	0	2638217216	38	4259
2026-01-07 11:25:27.12	1.74	25.52	-33.8	-34.9	20.1	0.00e+00	0	57	0	2643460096	38	4268
2026-01-07 11:25:28.13	1.60	25.37	-33.8	-34.9	20.1	0.00e+00	0	57	0	2649751552	38	4263
2026-01-07 11:25:29.14	1.46	25.23	-33.8	-34.9	20.1	0.00e+00	0	56	0	2654994432	38	4267
2026-01-07 11:25:30.15	1.32	25.08	-33.7	-34.9	20.2	0.00e+00	0	56	0	2660237312	38	4256
2026-01-07 11:25:31.16	1.19	24.94	-33.7	-34.9	20.2	0.00e+00	0	56	0	2666528768	38	4244
2026-01-07 11:25:32.17	1.05	24.80	-33.7	-34.9	20.1	0.00e+00	0	56	0	2671771648	38	4247
2026-01-07 11:25:33.18	0.92	24.66	-33.7	-34.9	20.1	0.00e+00	0	56	0	2678063104	38	4245
2026-01-07 11:25:34.19	0.79	24.52	-33.8	-34.9	20.1	0.00e+00	0	56	0	2683305984	38	4274
2026-01-07 11:25:35.20	0.65	24.38	-33.8	-34.9	20.1	0.00e+00	0	56	0	2688548864	38	4285
2026-01-07 11:25:36.20	0.53	24.24	-33.8	-35.0	20.0	0.00e+00	0	56	0	2694840320	38	4301
2026-01-07 11:25:37.21	0.40	24.10	-33.9	-35.0	20.0	0.00e+00	0	57	0	2700083200	38	4319
2026-01-07 11:25:38.23	0.27	23.96	-33.9	-35.0	19.9	0.00e+00	0	56	0	2706374656	38	4324
2026-01-07 11:25:39.24	0.14	23.82	-33.9	-35.0	19.9	0.00e+00	0	57	0	2711617536	38	4327
2026-01-07 11:25:40.25	0.02	23.69	-33.8	-34.9	20.0	0.00e+00	0	56	0	2717908992	38	4278
2026-01-07 11:25:41.26	359.89	23.55	-33.7	-34.9	20.1	0.00e+00	0	56	0	2723151872	38	4251
2026-01-07 11:25:42.27	359.77	23.41	-33.7	-34.8	20.1	0.00e+00	0	56	0	2729443328	38	4226
2026-01-07 11:25:43.28	359.65	23.28	-33.7	-34.8	20.1	0.00e+00	0	56	0	2734686208	38	4229
2026-01-07 11:25:44.29	359.53	23.14	-33.7	-34.8	20.1	0.00e+00	0	57	0	2739929088	38	4229
2026-01-07 11:25:45.30	359.41	23.01	-33.7	-34.8	20.1	0.00e+00	0	57	0	2746220544	38	4224
2026-01-07 11:25:46.31	359.29	22.87	-33.8	-34.9	20.0	0.00e+00	0	56	0	2751463424	38	4266
2026-01-07 11:25:47.32	359.17	22.74	-33.8	-35.0	20.0	0.00e+00	0	56	0	2757754880	38	4299
2026-01-07 11:25:48.33	359.06	22.61	-33.9	-35.1	19.8	0.00e+00	0	57	0	2762997760	38	4356
2026-01-07 11:25:49.34	358.94	22.48	-34.0	-35.2	19.7	0.00e+00	0	56	0	2768240640	38	4407
2026-01-07 11:25:50.35	358.83	22.34	-34.1	-35.3	19.6	0.00e+00	0	56	0	2774532096	38	4445
2026-01-07 11:25:51.36	358.71	22.21	-34.2	-35.4	19.5	0.00e+00	0	56	0	2779774976	38	4503
2026-01-07 11:25:52.37	358.60	22.08	-34.2	-35.4	19.4	0.00e+00	0	57	0	2786066432	39	4285
2026-01-07 11:25:53.38	358.49	21.95	-34.3	-35.5	19.3	0.00e+00	0	57	0	2791309312	39	4307
2026-01-07 11:25:54.39	358.38	21.82	-34.3	-35.5	19.4	0.00e+00	0	56	0	2796552192	39	4303
2026-01-07 11:25:55.40	358.27	21.69	-34.3	-35.5	19.3	0.00e+00	0	57	0	2802843648	39	4313
2026-01-07 11:25:56.41	358.16	21.57	-34.2	-35.4	19.3	0.00e+00	0	57	0	2808086528	39	4287
2026-01-07 11:25:57.42	358.05	21.44	-34.3	-35.5	19.3	0.00e+00	0	56	0	2814377984	39	4314
2026-01-07 11:25:58.43	357.95	21.31	-34.3	-35.5	19.3	0.00e+00	0	56	0	2819620864	39	4301
2026-01-07 11:25:59.43	357.84	21.18	-34.3	-35.5	19.3	0.00e+00	0	56	0	2825912320	39	4294
2026-01-07 11:26:00.44	357.74	21.06	-34.3	-35.5	19.2	0.00e+00	0	57	0	2831155200	39	4303
2026-01-07 11:26:01.45	357.63	20.93	-34.3	-35.5	19.2	0.00e+00	0	56	0	2836398080	39	4298
2026-01-07 11:26:02.46	357.53	20.81	-34.3	-35.5	19.1	0.00e+00	0	56	0	2842689536	39	4323
2026-01-07 11:26:03.48	357.43	20.68	-34.3	-35.5	19.1	0.00e+00	0	56	0	2847932416	39	4312
2026-01-07 11:26:04.49	357.32	20.56	-34.3	-35.5	19.0	0.00e+00	0	56	0	2854223872	39	4326
2026-01-07 11:26:05.50	357.22	20.43	-34.2	-35.4	19.1	0.00e+00	0	56	0	2859466752	39	4285
2026-01-07 11:26:06.51	357.12	20.31	-34.2	-35.4	19.1	0.00e+00	0	57	0	2864709632	39	4283
2026-01-07 11:26:07.52	357.02	20.19	-34.2	-35.4	19.1	0.00e+00	0	57	0	2871001088	39	4254
2026-01-07 11:26:08.53	356.93	20.07	-34.1	-35.4	19.0	0.00e+00	0	56	0	2876243968	39	4252
2026-01-07 11:26:09.54	356.83	19.94	-34.3	-35.5	18.8	0.00e+00	0	56	0	2882535424	39	4317
2026-01-07 11:26:10.55	356.73	19.82	-34.5	-35.8	18.5	0.00e+00	0	56	0	2887778304	39	4448
2026-01-07 11:26:11.56	356.64	19.70	-34.8	-36.1	17.9	0.00e+00	0	56	0	2893021184	40	4377
2026-01-07 11:26:12.57	356.54	19.58	-35.2	-36.6	17.3	0.00e+00	0	57	0	2899312640	40	4646
2026-01-07 11:26:13.58	356.45	19.46	-35.7	-37.2	16.5	0.00e+00	0	57	0	2904555520	41	4690
2026-01-07 11:26:14.59	356.35	19.34	-36.3	-38.0	15.5	0.00e+00	0	57	0	2910846976	43	4580
2026-01-07 11:26:15.60	356.26	19.23	-37.1	-39.0	14.5	0.00e+00	0	56	0	2916089856	44	4839
2026-01-07 11:26:16.61	356.17	19.11	-37.6	-39.9	13.4	2.20e-06	0	57	0	2922381312	45	5046
2026-01-07 11:26:17.62	356.08	18.99	-38.1	-40.7	12.3	6.06e-05	0	57	0	2927624192	46	5219
2026-01-07 11:26:18.63	355.99	18.87	-38.5	-41.4	11.3	4.35e-04	0	57	0	2933915648	47	5379
2026-01-07 11:26:19.64	355.90	18.76	-39.0	-42.2	10.3	3.06e-03	0	56	0	2939158528	48	5574
2026-01-07 11:26:20.65	355.81	18.64	-39.3	-43.0	9.3	9.91e-03	0	56	0	2944401408	49	5732
2026-01-07 11:26:21.66	355.72	18.52	-39.6	-43.9	8.1	4.07e-02	0	57	0	2950692864	49	6412
2026-01-07 11:26:22.67	355.63	18.41	-40.0	-45.1	6.9	1.06e-01	0	56	0	2955935744	50	6896
2026-01-07 11:26:23.68	355.54	18.29	-40.3	-46.3	5.8	3.46e-01	0	57	0	2962227200	51	7521
2026-01-07 11:26:24.69	355.46	18.18	-40.5	-47.4	5.0	7.45e-01	0	57	0	2963275776	51	8512
2026-01-07 11:26:25.70	355.37	18.07	-40.6	-48.3	4.5	8.15e-01	0	57	0	2963275776	51	9420
2026-01-07 11:26:26.71	355.29	17.95	-40.6	-48.9	4.2	8.32e-01	0	57	0	2963275776	51	10169
2026-01-07 11:26:27.72	355.20	17.84	-40.6	-49.7	4.0	8.41e-01	0	57	0	2963275776	51	11122
2026-01-07 11:26:28.73	355.12	17.73	-40.7	-50.4	3.8	8.44e-01	0	57	104	2963275776	51	12061
2026-01-07 11:26:29.74	355.04	17.62	-40.7	-51.1	3.8	8.45e-01	0	56	104	2963275776	51	12982
2026-01-07 11:26:30.76	354.95	17.50	-40.7	-51.4	3.8	8.44e-01	0	57	104	2963275776	51	13494
2026-01-07 11:26:31.77	354.87	17.39	-40.7	-51.5	3.8	8.46e-01	0	56	104	2963275776	51	13571
2026-01-07 11:26:32.78	354.79	17.28	-40.6	-51.5	3.8	8.45e-01	0	57	104	2963275776	51	13602
2026-01-07 11:26:33.78	354.71	17.17	-40.6	-51.6	3.8	8.45e-01	0	57	104	2963275776	51	13836
2026-01-07 11:26:34.80	354.63	17.06	-40.6	-52.0	3.8	8.48e-01	0	57	104	2963275776	51	14380
2026-01-07 11:26:35.81	354.55	16.95	-40.6	-52.1	3.8	8.45e-01	0	57	104	2963275776	51	14572
2026-01-07 11:26:36.81	354.47	16.84	-40.5	-51.9	3.8	8.46e-01	0	57	104	2963275776	51	14288
2026-01-07 11:26:37.82	354.39	16.73	-40.5	-52.1	3.8	8.46e-01	0	57	104	2963275776	51	14670
2026-01-07 11:26:38.83	354.32	16.63	-40.7	-52.1	3.8	8.45e-01	0	57	104	2963275776	51	14613
2026-01-07 11:26:39.84	354.24	16.52	-40.4	-52.1	3.8	8.47e-01	0	56	104	2963275776	52	13781
2026-01-07 11:26:40.85	354.16	16.41	-40.5	-52.1	3.8	8.46e-01	0	57	104	2963275776	52	13776
2026-01-07 11:26:41.86	354.09	16.30	-40.3	-52.1	3.8	8.47e-01	0	57	104	2963275776	52	13776
2026-01-07 11:26:42.87	354.01	16.20	-40.5	-52.0	3.8	8.47e-01	0	57	104	2963275776	52	13683
2026-01-07 11:26:43.88	353.94	16.09	-40.1	-52.1	3.8	8.46e-01	0	57	104	2963275776	52	13864
2026-01-07 11:26:44.89	353.86	15.99	-40.5	-52.0	3.8	8.45e-01	0	57	104	2963275776	52	13631
2026-01-07 11:26:45.90	353.79	15.88	-40.0	-52.2	3.8	8.45e-01	0	57	104	2963275776	51	14858
2026-01-07 11:26:46.91	353.72	15.78	-40.5	-52.1	3.8	8.45e-01	0	57	104	2963275776	51	14542
2026-01-07 11:26:47.92	353.64	15.67	-40.5	-52.2	3.8	8.47e-01	0	57	104	2963275776	51	14808
2026-01-07 11:26:48.93	353.57	15.57	-40.5	-52.2	3.8	8.46e-01	0	57	104	2963275776	51	14728
2026-01-07 11:26:49.94	353.50	15.46	-40.6	-52.2	3.8	8.47e-01	0	57	104	2963275776	51	14801
2026-01-07 11:26:50.95	353.43	15.36	-40.5	-52.2	3.8	8.47e-01	0	57	104	2963275776	51	14717
2026-01-07 11:26:51.96	353.36	15.26	-39.9	-52.4	3.8	8.46e-01	0	57	104	2963275776	51	15083
2026-01-07 11:26:52.97	353.29	15.16	-40.4	-52.1	3.8	8.47e-01	0	57	104	2963275776	51	14607
2026-01-07 11:26:53.98	353.22	15.05	-40.2	-52.4	3.8	8.46e-01	0	57	104	2963275776	51	15164
2026-01-07 11:26:54.99	353.15	14.95	-40.4	-52.1	3.8	8.46e-01	0	57	104	2963275776	51	14644
2026-01-07 11:26:56.00	353.08	14.85	-40.7	-52.4	3.8	8.46e-01	0	57	104	2963275776	51	15099
2026-01-07 11:26:57.01	353.01	14.75	-40.4	-52.1	3.8	8.46e-01	0	57	104	2963275776	51	14612
2026-01-07 11:26:58.02	352.95	14.65	-40.6	-52.3	3.8	8.46e-01	0	57	104	2963275776	52	14178
2026-01-07 11:26:59.03	352.88	14.55	-40.3	-52.0	3.8	8.46e-01	0	57	104	2963275776	52	13718
2026-01-07 11:27:00.05	352.81	14.45	-40.6	-52.3	3.8	8.46e-01	0	57	104	2963275776	52	14138
2026-01-07 11:27:01.05	352.75	14.35	-40.4	-52.0	3.8	8.45e-01	0	57	104	2963275776	52	13713
2026-01-07 11:27:02.06	352.68	14.25	-40.6	-52.2	3.8	8.45e-01	0	57	104	2963275776	52	14043
2026-01-07 11:27:03.08	352.62	14.15	-40.4	-52.1	3.8	8.47e-01	0	57	104	2963275776	52	13759
2026-01-07 11:27:04.09	352.55	14.05	-40.6	-52.2	3.8	8.46e-01	0	57	104	2963275776	52	13963
2026-01-07 11:27:05.10	352.49	13.95	-40.5	-52.1	3.8	8.45e-01	0	57	104	2963275776	52	13883
2026-01-07 11:27:06.11	352.42	13.86	-40.6	-52.2	3.8	8.47e-01	0	57	104	2963275776	52	13919
2026-01-07 11:27:07.12	352.36	13.76	-40.5	-52.2	3.8	8.47e-01	0	57	104	2963275776	52	13954
2026-01-07 11:27:08.13	352.30	13.66	-40.6	-52.2	3.8	8.46e-01	0	57	104	2963275776	52	13943
2026-01-07 11:27:09.14	352.24	13.57	-40.4	-52.1	3.8	8.47e-01	0	56	104	2963275776	52	13854
2026-01-07 11:27:10.15	352.17	13.47	-40.6	-52.2	3.8	8.45e-01	0	57	104	2963275776	52	13958
2026-01-07 11:27:11.16	352.11	13.37	-40.3	-52.1	3.8	8.46e-01	0	57	104	2963275776	52	13809
2026-01-07 11:27:12.17	352.05	13.28	-40.5	-52.1	3.8	8.46e-01	0	57	104	2963275776	52	13826
2026-01-07 11:27:13.18	351.99	13.18	-40.7	-52.3	3.8	8.45e-01	0	57	104	2963275776	52	14169
2026-01-07 11:27:14.19	351.93	13.09	-40.5	-52.1	3.8	8.47e-01	0	57	104	2963275776	52	13801
