passes_logs/2026/01/07/R2.0S_Moscow/R2.0S_Moscow__20260107_045132_FENGYUN_3E_rec.log

#Pass ID: 20260107_045132_FENGYUN 3E
#Satellite: FENGYUN 3E
#Configuration: FENGYUN 3E
#almurnet v.1.7.20251203
#Start time: 2026-01-07 04:51:33

#Version: 2.2.20231116
#Station: R2.0S_Moscow
#Location: 37.707566 lon 55.798166 lat
#TLE: 1 49008U 21062A   26006.26767912  .00000427  00000+0  22170-3 0  9993
#TLE: 2 49008  98.7475  11.4982 0001602 156.1158 204.0093 14.19885456233607

#Time	Az	El	Level	Level2	SNR	BER	BlckErr	Temp	State	Recorded	gain1	gain2
2026-01-07 04:51:33.75	12.55	2.05	-40.3	-51.3	3.8	8.46e-01	0	47	0	0	51	12630
2026-01-07 04:51:34.75	12.51	2.11	-40.2	-51.3	3.8	8.45e-01	0	47	104	0	51	12614
2026-01-07 04:51:35.77	12.48	2.18	-40.2	-51.3	3.8	8.46e-01	0	47	104	0	51	12573
2026-01-07 04:51:36.78	12.44	2.24	-40.2	-51.3	3.8	8.45e-01	0	48	104	0	51	12559
2026-01-07 04:51:37.79	12.40	2.30	-40.2	-51.3	3.8	8.46e-01	0	47	104	0	51	12617
2026-01-07 04:51:38.80	12.37	2.37	-40.2	-51.3	3.8	8.46e-01	0	47	104	0	51	12582
2026-01-07 04:51:39.81	12.33	2.43	-40.2	-51.3	3.8	8.46e-01	0	48	104	0	51	12633
2026-01-07 04:51:40.82	12.29	2.49	-40.2	-51.3	3.8	8.47e-01	0	48	104	0	51	12631
2026-01-07 04:51:41.83	12.26	2.56	-40.2	-51.3	3.8	8.46e-01	0	48	104	0	51	12624
2026-01-07 04:51:42.84	12.22	2.62	-40.3	-51.3	3.8	8.46e-01	0	48	104	0	51	12624
2026-01-07 04:51:43.85	12.18	2.68	-40.2	-51.3	3.8	8.45e-01	0	48	104	0	51	12599
2026-01-07 04:51:44.86	12.15	2.75	-40.2	-51.3	3.8	8.47e-01	0	48	104	0	51	12616
2026-01-07 04:51:45.87	12.11	2.81	-40.2	-51.3	3.8	8.46e-01	0	48	104	0	51	12611
2026-01-07 04:51:46.89	12.07	2.87	-40.3	-51.3	3.8	8.46e-01	0	48	104	0	51	12601
2026-01-07 04:51:47.90	12.03	2.94	-40.2	-51.3	3.8	8.47e-01	0	48	104	0	51	12569
2026-01-07 04:51:48.91	12.00	3.00	-40.2	-51.3	3.8	8.47e-01	0	48	104	0	51	12568
2026-01-07 04:51:49.92	11.96	3.07	-40.2	-51.3	3.8	8.45e-01	0	48	104	0	51	12616
2026-01-07 04:51:50.93	11.92	3.13	-40.2	-51.3	3.8	8.47e-01	0	48	104	0	51	12576
2026-01-07 04:51:51.94	11.88	3.20	-40.2	-51.3	3.8	8.47e-01	0	48	104	0	51	12597
2026-01-07 04:51:52.96	11.84	3.26	-40.2	-51.3	3.8	8.46e-01	0	49	104	0	51	12556
2026-01-07 04:51:53.97	11.80	3.33	-40.2	-51.3	3.8	8.46e-01	0	49	104	0	51	12571
2026-01-07 04:51:54.98	11.76	3.39	-40.2	-51.3	3.8	8.45e-01	0	49	104	0	51	12578
2026-01-07 04:51:55.99	11.72	3.46	-40.2	-51.3	3.8	8.45e-01	0	49	104	0	51	12534
2026-01-07 04:51:57.00	11.68	3.52	-40.2	-51.2	3.8	8.46e-01	0	49	104	0	51	12492
2026-01-07 04:51:58.01	11.64	3.59	-40.2	-51.2	3.8	8.46e-01	0	49	104	0	51	12462
2026-01-07 04:51:59.02	11.60	3.65	-40.2	-51.2	3.8	8.46e-01	0	49	104	0	51	12455
2026-01-07 04:52:00.03	11.56	3.72	-40.2	-51.1	3.8	8.46e-01	0	49	104	0	51	12345
2026-01-07 04:52:01.04	11.52	3.78	-40.2	-51.1	3.8	8.46e-01	0	49	104	0	51	12317
2026-01-07 04:52:02.05	11.48	3.85	-40.2	-51.1	3.8	8.46e-01	0	49	104	0	51	12318
2026-01-07 04:52:03.07	11.44	3.92	-40.2	-51.1	3.8	8.46e-01	0	49	104	0	51	12310
2026-01-07 04:52:04.08	11.40	3.98	-40.2	-51.1	3.8	8.45e-01	0	49	104	0	51	12352
2026-01-07 04:52:05.09	11.36	4.05	-40.2	-51.2	3.8	8.46e-01	0	50	104	0	51	12408
2026-01-07 04:52:06.10	11.32	4.12	-40.2	-51.2	3.8	8.46e-01	0	50	104	0	51	12441
2026-01-07 04:52:07.11	11.28	4.18	-40.2	-51.2	3.8	8.47e-01	0	50	104	0	51	12436
2026-01-07 04:52:08.12	11.24	4.25	-40.2	-51.2	3.8	8.45e-01	0	50	104	0	51	12406
2026-01-07 04:52:09.13	11.19	4.32	-40.2	-51.2	3.8	8.46e-01	0	50	104	0	51	12484
2026-01-07 04:52:10.14	11.15	4.39	-40.2	-51.2	3.8	8.47e-01	0	50	104	0	51	12455
2026-01-07 04:52:11.15	11.11	4.45	-40.2	-51.3	3.8	8.46e-01	0	50	104	0	51	12533
2026-01-07 04:52:12.16	11.07	4.52	-40.2	-51.3	3.8	8.45e-01	0	50	104	0	51	12539
2026-01-07 04:52:13.17	11.02	4.59	-40.2	-51.3	3.8	8.46e-01	0	50	104	0	51	12551
2026-01-07 04:52:14.18	10.98	4.66	-40.2	-51.3	3.8	8.46e-01	0	50	104	0	51	12582
2026-01-07 04:52:15.19	10.94	4.72	-40.2	-51.3	3.8	8.46e-01	0	50	104	0	51	12590
2026-01-07 04:52:16.20	10.90	4.79	-40.2	-51.3	3.8	8.45e-01	0	50	104	0	51	12615
2026-01-07 04:52:17.22	10.85	4.86	-40.2	-51.3	3.8	8.46e-01	0	50	104	0	51	12603
2026-01-07 04:52:18.23	10.81	4.93	-40.2	-51.3	3.8	8.46e-01	0	50	104	0	51	12569
2026-01-07 04:52:19.24	10.76	5.00	-40.2	-51.3	3.8	8.46e-01	0	50	104	0	51	12615
2026-01-07 04:52:20.25	10.72	5.07	-40.2	-51.3	3.8	8.47e-01	0	50	104	0	51	12594
2026-01-07 04:52:21.26	10.67	5.14	-40.2	-51.3	3.8	8.45e-01	0	50	104	0	51	12597
2026-01-07 04:52:22.27	10.63	5.20	-40.2	-51.3	3.8	8.47e-01	0	50	104	0	51	12599
2026-01-07 04:52:23.28	10.58	5.27	-40.2	-51.3	3.8	8.47e-01	0	50	104	0	51	12595
2026-01-07 04:52:24.29	10.54	5.34	-40.2	-51.3	3.8	8.47e-01	0	51	104	0	51	12614
2026-01-07 04:52:25.30	10.49	5.41	-40.2	-51.3	3.8	8.46e-01	0	50	104	0	51	12538
2026-01-07 04:52:26.31	10.45	5.48	-40.2	-51.2	3.8	8.46e-01	0	50	104	0	51	12509
2026-01-07 04:52:27.32	10.40	5.55	-40.2	-51.3	3.8	8.47e-01	0	50	104	0	51	12591
2026-01-07 04:52:28.33	10.36	5.62	-40.2	-51.3	3.8	8.47e-01	0	51	104	0	51	12554
2026-01-07 04:52:29.34	10.31	5.69	-40.2	-51.3	3.8	8.45e-01	0	51	104	0	51	12589
2026-01-07 04:52:30.35	10.26	5.76	-40.2	-51.3	3.8	8.45e-01	0	51	104	0	51	12525
2026-01-07 04:52:31.37	10.21	5.84	-40.2	-51.3	3.8	8.47e-01	0	51	104	0	51	12562
2026-01-07 04:52:32.38	10.17	5.91	-40.2	-51.3	3.8	8.46e-01	0	51	104	0	51	12550
2026-01-07 04:52:33.39	10.12	5.98	-40.2	-51.3	3.8	8.47e-01	0	51	104	0	51	12566
2026-01-07 04:52:34.40	10.07	6.05	-40.2	-51.2	3.8	8.45e-01	0	51	104	0	51	12483
2026-01-07 04:52:35.41	10.02	6.12	-40.2	-51.3	3.8	8.46e-01	0	51	104	0	51	12570
2026-01-07 04:52:36.42	9.98	6.19	-40.2	-51.3	3.8	8.47e-01	0	51	104	0	51	12560
2026-01-07 04:52:37.43	9.93	6.26	-40.2	-51.3	3.8	8.47e-01	0	51	104	0	51	12581
2026-01-07 04:52:38.44	9.88	6.33	-40.2	-51.2	3.8	8.47e-01	0	51	104	0	51	12497
2026-01-07 04:52:39.45	9.83	6.41	-40.2	-51.3	3.8	8.45e-01	0	51	104	0	51	12527
2026-01-07 04:52:40.46	9.78	6.48	-40.2	-51.3	3.8	8.46e-01	0	51	104	0	51	12558
2026-01-07 04:52:41.47	9.73	6.55	-40.2	-51.3	3.8	8.45e-01	0	51	104	0	51	12552
2026-01-07 04:52:42.48	9.68	6.62	-40.2	-51.3	3.8	8.46e-01	0	51	104	0	51	12540
2026-01-07 04:52:43.50	9.63	6.70	-40.2	-51.3	3.8	8.46e-01	0	52	104	0	51	12602
2026-01-07 04:52:44.51	9.58	6.77	-40.2	-51.3	3.8	8.46e-01	0	52	104	0	51	12572
2026-01-07 04:52:45.52	9.53	6.84	-40.2	-51.3	3.8	8.47e-01	0	51	104	0	51	12594
2026-01-07 04:52:46.53	9.48	6.92	-40.2	-51.3	3.8	8.47e-01	0	52	104	0	51	12613
2026-01-07 04:52:47.54	9.43	6.99	-40.2	-51.3	3.8	8.46e-01	0	52	104	0	51	12605
2026-01-07 04:52:48.55	9.38	7.06	-40.2	-51.3	3.8	8.46e-01	0	52	104	0	51	12553
2026-01-07 04:52:49.56	9.32	7.14	-40.2	-51.3	3.8	8.46e-01	0	52	104	0	51	12620
2026-01-07 04:52:50.57	9.27	7.21	-40.2	-51.3	3.8	8.47e-01	0	52	104	0	51	12616
2026-01-07 04:52:51.58	9.22	7.29	-40.2	-51.3	3.8	8.45e-01	0	52	104	0	51	12603
2026-01-07 04:52:52.59	9.17	7.36	-40.2	-51.3	3.8	8.47e-01	0	52	104	0	51	12578
2026-01-07 04:52:53.60	9.11	7.43	-40.2	-51.3	3.8	8.47e-01	0	52	104	0	51	12559
2026-01-07 04:52:54.61	9.06	7.51	-40.2	-51.3	3.8	8.46e-01	0	52	104	0	51	12556
2026-01-07 04:52:55.62	9.01	7.58	-40.2	-51.3	3.8	8.45e-01	0	52	104	0	51	12579
2026-01-07 04:52:56.63	8.95	7.66	-40.2	-51.3	3.8	8.45e-01	0	52	104	0	51	12557
2026-01-07 04:52:57.65	8.90	7.74	-40.2	-51.3	3.8	8.45e-01	0	52	104	0	51	12546
2026-01-07 04:52:58.66	8.85	7.81	-40.2	-51.3	3.8	8.46e-01	0	52	104	0	51	12602
2026-01-07 04:52:59.67	8.79	7.89	-40.2	-51.3	3.8	8.47e-01	0	52	104	0	51	12559
2026-01-07 04:53:00.68	8.74	7.96	-40.2	-51.3	3.8	8.45e-01	0	52	104	0	51	12600
2026-01-07 04:53:01.69	8.68	8.04	-40.2	-51.3	3.8	8.46e-01	0	52	104	0	51	12590
2026-01-07 04:53:02.70	8.62	8.12	-40.2	-51.2	3.8	8.47e-01	0	52	104	0	51	12466
2026-01-07 04:53:03.71	8.57	8.19	-40.3	-51.3	3.8	8.46e-01	0	52	104	0	51	12662
2026-01-07 04:53:04.72	8.51	8.27	-40.2	-51.2	3.8	8.45e-01	0	52	104	0	51	12501
2026-01-07 04:53:05.73	8.46	8.35	-40.3	-51.3	3.8	8.45e-01	0	52	104	0	51	12577
2026-01-07 04:53:06.74	8.40	8.42	-40.3	-51.3	3.8	8.46e-01	0	53	104	0	51	12610
2026-01-07 04:53:07.75	8.34	8.50	-40.3	-51.3	3.8	8.46e-01	0	53	104	0	51	12597
2026-01-07 04:53:08.76	8.28	8.58	-40.3	-51.4	3.8	8.47e-01	0	52	104	0	51	12677
2026-01-07 04:53:09.77	8.23	8.66	-40.3	-51.4	3.8	8.45e-01	0	53	104	0	51	12672
2026-01-07 04:53:10.78	8.17	8.73	-40.2	-51.2	3.8	8.47e-01	0	53	104	0	51	12471
2026-01-07 04:53:11.79	8.11	8.81	-40.3	-51.3	3.8	8.47e-01	0	53	104	0	51	12644
2026-01-07 04:53:12.80	8.05	8.89	-40.2	-51.2	3.8	8.46e-01	0	53	104	0	51	12430
2026-01-07 04:53:13.81	7.99	8.97	-40.3	-51.3	3.8	8.46e-01	0	53	104	0	51	12588
2026-01-07 04:53:14.82	7.93	9.05	-40.3	-51.3	3.8	8.46e-01	0	53	104	0	51	12573
2026-01-07 04:53:15.83	7.87	9.13	-40.3	-51.4	3.8	8.46e-01	0	53	104	0	51	12672
2026-01-07 04:53:16.84	7.81	9.21	-40.3	-51.2	3.8	8.46e-01	0	53	104	0	51	12505
2026-01-07 04:53:17.85	7.75	9.29	-40.3	-51.4	3.8	8.46e-01	0	53	104	0	51	12694
2026-01-07 04:53:18.86	7.69	9.37	-40.2	-51.1	3.8	8.47e-01	0	53	104	0	51	12370
2026-01-07 04:53:19.87	7.63	9.45	-40.3	-51.4	3.8	8.46e-01	0	53	104	0	51	12738
2026-01-07 04:53:20.88	7.57	9.53	-40.2	-51.2	3.8	8.46e-01	0	53	104	0	51	12469
2026-01-07 04:53:21.89	7.51	9.61	-40.4	-51.4	3.8	8.46e-01	0	53	104	0	51	12765
2026-01-07 04:53:22.90	7.44	9.69	-40.2	-51.3	3.8	8.47e-01	0	53	104	0	51	12522
2026-01-07 04:53:23.91	7.38	9.77	-40.5	-51.5	3.8	8.46e-01	0	53	104	0	51	12873
2026-01-07 04:53:24.92	7.32	9.85	-40.2	-51.3	3.8	8.45e-01	0	53	104	0	51	12538
2026-01-07 04:53:25.93	7.25	9.93	-40.5	-51.5	3.8	8.46e-01	0	53	104	0	51	12871
2026-01-07 04:53:26.95	7.19	10.02	-40.1	-51.2	3.8	8.45e-01	0	53	104	0	51	12433
2026-01-07 04:53:27.96	7.12	10.10	-40.6	-51.6	3.8	8.46e-01	0	53	104	0	51	13006
2026-01-07 04:53:28.96	7.06	10.18	-40.2	-51.2	3.8	8.47e-01	0	53	104	0	51	12425
2026-01-07 04:53:29.97	7.00	10.26	-40.6	-51.7	3.8	8.46e-01	0	53	104	0	51	13139
2026-01-07 04:53:30.99	6.93	10.34	-40.3	-51.3	3.8	8.46e-01	0	53	104	0	51	12563
2026-01-07 04:53:32.00	6.86	10.43	-40.7	-51.8	3.8	8.46e-01	0	53	104	0	51	13315
2026-01-07 04:53:33.00	6.80	10.51	-40.3	-51.3	3.8	8.46e-01	0	53	104	0	51	12629
2026-01-07 04:53:34.01	6.73	10.59	-41.0	-51.7	3.8	8.45e-01	0	53	104	0	51	13191
2026-01-07 04:53:35.02	6.66	10.68	-40.3	-51.3	3.8	8.45e-01	0	53	104	0	51	12563
2026-01-07 04:53:36.03	6.60	10.76	-41.1	-51.1	3.8	8.45e-01	0	53	104	0	51	12330
2026-01-07 04:53:37.04	6.53	10.84	-40.3	-51.4	3.8	8.46e-01	0	53	104	0	51	12709
2026-01-07 04:53:38.06	6.46	10.93	-40.8	-50.5	3.8	8.45e-01	0	53	104	0	51	11471
2026-01-07 04:53:39.07	6.39	11.01	-40.4	-51.4	3.8	8.47e-01	0	53	104	0	51	12763
2026-01-07 04:53:40.08	6.32	11.10	-40.6	-49.8	3.9	8.46e-01	0	54	104	0	51	10641
2026-01-07 04:53:41.09	6.25	11.18	-40.6	-49.7	3.8	8.44e-01	0	54	104	0	51	10470
2026-01-07 04:53:42.10	6.18	11.27	-40.7	-49.4	3.9	8.44e-01	0	53	104	0	51	10175
2026-01-07 04:53:43.11	6.11	11.35	-40.6	-49.2	4.0	8.41e-01	0	54	0	0	51	9868
2026-01-07 04:53:44.12	6.04	11.44	-40.6	-48.4	4.2	8.37e-01	0	53	0	0	51	9012
2026-01-07 04:53:45.12	5.97	11.53	-40.6	-47.3	4.8	8.13e-01	0	54	0	0	51	7914
2026-01-07 04:53:46.13	5.90	11.61	-40.5	-46.4	5.4	7.30e-01	0	54	0	0	51	7174
2026-01-07 04:53:47.14	5.83	11.70	-40.4	-45.5	6.2	3.45e-01	0	54	0	4194304	51	6492
2026-01-07 04:53:48.16	5.75	11.79	-40.4	-45.2	6.7	2.26e-01	0	54	0	11534336	51	6240
2026-01-07 04:53:49.17	5.68	11.87	-40.2	-44.5	7.4	1.51e-01	0	54	0	18874368	51	5784
2026-01-07 04:53:50.18	5.61	11.96	-39.8	-43.6	8.3	6.07e-02	0	54	0	26214400	50	5513
2026-01-07 04:53:51.19	5.53	12.05	-39.3	-42.5	9.5	2.26e-02	0	54	0	33554432	49	5144
2026-01-07 04:53:52.20	5.46	12.14	-38.3	-41.0	10.9	4.83e-03	0	54	0	40894464	47	4859
2026-01-07 04:53:53.21	5.38	12.22	-37.0	-39.2	12.9	1.50e-04	0	54	0	48234496	45	4392
2026-01-07 04:53:54.22	5.31	12.31	-36.0	-37.9	14.2	2.20e-06	0	54	0	55574528	43	4245
2026-01-07 04:53:55.23	5.23	12.40	-35.4	-37.1	14.9	0.00e+00	0	54	0	62914560	41	4359
2026-01-07 04:53:56.23	5.16	12.49	-35.2	-36.8	15.3	0.00e+00	0	54	0	70254592	41	4203
2026-01-07 04:53:57.24	5.08	12.58	-35.1	-36.7	15.4	0.00e+00	0	54	0	77594624	41	4171
2026-01-07 04:53:58.25	5.00	12.67	-35.1	-36.7	15.5	0.00e+00	0	54	0	84934656	41	4152
2026-01-07 04:53:59.26	4.93	12.76	-35.6	-37.2	15.0	0.00e+00	0	54	0	92274688	41	4434
2026-01-07 04:54:00.27	4.85	12.85	-36.1	-37.9	14.3	0.00e+00	0	54	0	99614720	41	4781
2026-01-07 04:54:01.28	4.77	12.94	-36.6	-38.6	13.6	8.00e-06	0	54	0	105906176	42	4886
2026-01-07 04:54:02.29	4.69	13.03	-36.7	-38.7	13.6	1.37e-05	0	54	0	113246208	43	4675
2026-01-07 04:54:03.30	4.61	13.12	-36.7	-38.7	13.6	1.25e-05	0	54	0	120586240	43	4669
2026-01-07 04:54:04.31	4.53	13.21	-36.7	-38.6	13.7	4.50e-06	0	54	0	127926272	43	4637
2026-01-07 04:54:05.32	4.45	13.30	-36.3	-38.1	14.3	0.00e+00	0	54	0	135266304	43	4363
2026-01-07 04:54:06.33	4.37	13.40	-36.0	-37.7	14.9	1.10e-06	0	54	0	142606336	43	4167
2026-01-07 04:54:07.34	4.28	13.49	-35.9	-37.6	15.2	0.00e+00	0	54	0	149946368	42	4354
2026-01-07 04:54:08.35	4.20	13.58	-35.4	-36.8	15.9	0.00e+00	0	54	0	157286400	41	4241
2026-01-07 04:54:09.36	4.12	13.67	-35.1	-36.5	16.3	0.00e+00	0	54	0	164626432	40	4316
2026-01-07 04:54:10.37	4.04	13.77	-35.1	-36.5	16.3	0.00e+00	0	54	0	171966464	40	4318
2026-01-07 04:54:11.39	3.95	13.86	-35.0	-36.4	16.4	0.00e+00	0	54	0	179306496	40	4276
2026-01-07 04:54:12.39	3.87	13.95	-35.3	-36.8	16.1	0.00e+00	0	54	0	186646528	40	4471
2026-01-07 04:54:13.40	3.78	14.05	-36.1	-37.7	15.3	0.00e+00	0	54	0	193986560	41	4677
2026-01-07 04:54:14.41	3.70	14.14	-36.7	-38.4	14.6	1.10e-06	0	54	0	201326592	42	4777
2026-01-07 04:54:15.42	3.61	14.23	-36.4	-38.1	15.0	0.00e+00	0	54	0	208666624	42	4603
2026-01-07 04:54:16.43	3.52	14.33	-36.0	-37.5	15.7	0.00e+00	0	54	0	216006656	42	4321
2026-01-07 04:54:17.44	3.43	14.42	-35.9	-37.4	15.8	0.00e+00	0	54	0	223346688	42	4253
2026-01-07 04:54:18.45	3.35	14.52	-35.7	-37.1	16.1	0.00e+00	0	54	0	230686720	42	4124
2026-01-07 04:54:19.46	3.26	14.62	-35.6	-37.0	16.3	0.00e+00	0	54	0	238026752	41	4325
2026-01-07 04:54:20.47	3.17	14.71	-35.5	-36.9	16.4	0.00e+00	0	54	0	245366784	41	4291
2026-01-07 04:54:21.48	3.08	14.81	-35.6	-37.0	16.4	0.00e+00	0	54	0	252706816	41	4301
2026-01-07 04:54:22.49	2.99	14.90	-35.8	-37.2	16.2	0.00e+00	0	54	0	258998272	41	4434
2026-01-07 04:54:23.50	2.90	15.00	-35.9	-37.3	16.1	0.00e+00	0	54	0	266338304	41	4483
2026-01-07 04:54:24.51	2.81	15.10	-35.7	-37.1	16.5	0.00e+00	0	54	0	274726912	41	4352
2026-01-07 04:54:25.52	2.71	15.20	-35.5	-36.9	16.7	0.00e+00	0	55	0	281018368	41	4252
2026-01-07 04:54:26.53	2.62	15.29	-35.8	-37.2	16.4	0.00e+00	0	55	0	288358400	41	4434
2026-01-07 04:54:27.54	2.53	15.39	-36.0	-37.4	16.3	0.00e+00	0	54	0	295698432	41	4507
2026-01-07 04:54:28.55	2.43	15.49	-35.5	-36.8	16.9	0.00e+00	0	55	0	303038464	41	4212
2026-01-07 04:54:29.56	2.34	15.59	-35.4	-36.7	17.0	0.00e+00	0	55	0	310378496	41	4190
2026-01-07 04:54:30.57	2.24	15.69	-35.6	-36.9	16.8	0.00e+00	0	55	0	317718528	41	4278
2026-01-07 04:54:31.58	2.15	15.79	-35.5	-36.8	17.0	0.00e+00	0	55	0	325058560	41	4217
2026-01-07 04:54:32.59	2.05	15.89	-35.3	-36.6	17.2	0.00e+00	0	55	0	332398592	41	4135
2026-01-07 04:54:33.60	1.95	15.99	-35.5	-36.8	17.0	0.00e+00	0	55	0	339738624	41	4220
2026-01-07 04:54:34.61	1.85	16.09	-35.3	-36.5	17.3	0.00e+00	0	55	0	347078656	41	4088
2026-01-07 04:54:35.62	1.75	16.19	-35.2	-36.5	17.4	0.00e+00	0	55	0	354418688	40	4309
2026-01-07 04:54:36.63	1.65	16.29	-35.3	-36.6	17.3	0.00e+00	0	55	0	361758720	40	4344
2026-01-07 04:54:37.63	1.55	16.39	-35.1	-36.4	17.5	0.00e+00	0	55	0	369098752	40	4247
2026-01-07 04:54:38.64	1.45	16.49	-35.3	-36.5	17.4	0.00e+00	0	55	0	376438784	40	4334
2026-01-07 04:54:39.65	1.35	16.59	-35.3	-36.5	17.4	0.00e+00	0	55	0	382730240	40	4337
2026-01-07 04:54:40.66	1.25	16.70	-35.2	-36.5	17.4	0.00e+00	0	55	0	391118848	40	4307
2026-01-07 04:54:41.67	1.15	16.80	-35.4	-36.6	17.3	0.00e+00	0	55	0	398458880	40	4382
2026-01-07 04:54:42.68	1.04	16.90	-35.2	-36.5	17.4	0.00e+00	0	55	0	404750336	40	4324
2026-01-07 04:54:43.70	0.94	17.01	-35.3	-36.6	17.4	0.00e+00	0	55	0	412090368	40	4361
2026-01-07 04:54:44.70	0.83	17.11	-35.4	-36.7	17.3	0.00e+00	0	55	0	420478976	40	4402
2026-01-07 04:54:45.71	0.73	17.21	-34.9	-36.1	17.8	0.00e+00	0	55	0	426770432	40	4139
2026-01-07 04:54:46.73	0.62	17.32	-35.3	-36.6	17.4	0.00e+00	0	55	0	434110464	40	4364
2026-01-07 04:54:47.74	0.51	17.42	-35.3	-36.6	17.4	0.00e+00	0	55	0	441450496	40	4341
2026-01-07 04:54:48.74	0.40	17.53	-35.3	-36.6	17.4	0.00e+00	0	55	0	448790528	40	4365
2026-01-07 04:54:49.76	0.29	17.63	-35.2	-36.4	17.6	0.00e+00	0	55	0	456130560	40	4263
2026-01-07 04:54:50.77	0.18	17.74	-35.1	-36.4	17.6	0.00e+00	0	55	0	463470592	40	4249
2026-01-07 04:54:51.78	0.07	17.85	-35.1	-36.4	17.7	0.00e+00	0	55	0	470810624	40	4253
2026-01-07 04:54:52.79	359.96	17.95	-35.1	-36.3	17.7	0.00e+00	0	55	0	478150656	40	4240
2026-01-07 04:54:53.79	359.85	18.06	-35.1	-36.3	17.8	0.00e+00	0	55	0	485490688	40	4230
2026-01-07 04:54:54.80	359.73	18.17	-35.0	-36.3	17.9	0.00e+00	0	55	0	492830720	40	4194
2026-01-07 04:54:55.81	359.62	18.27	-34.9	-36.1	18.0	0.00e+00	0	55	0	500170752	40	4129
2026-01-07 04:54:56.82	359.51	18.38	-35.0	-36.2	17.9	0.00e+00	0	55	0	507510784	40	4154
2026-01-07 04:54:57.83	359.39	18.49	-35.0	-36.2	17.9	0.00e+00	0	55	0	514850816	40	4154
2026-01-07 04:54:58.84	359.27	18.60	-34.8	-36.0	18.1	0.00e+00	0	55	0	522190848	40	4085
2026-01-07 04:54:59.85	359.16	18.71	-34.9	-36.1	18.0	0.00e+00	0	55	0	529530880	40	4107
2026-01-07 04:55:00.86	359.04	18.82	-34.9	-36.1	18.0	0.00e+00	0	55	0	536870912	40	4131
2026-01-07 04:55:01.87	358.92	18.93	-34.9	-36.0	18.1	0.00e+00	0	55	0	544210944	40	4097
2026-01-07 04:55:02.88	358.80	19.04	-34.7	-35.9	18.3	0.00e+00	0	55	0	551550976	40	4008
2026-01-07 04:55:03.89	358.68	19.15	-34.8	-36.0	18.2	0.00e+00	0	55	0	557842432	40	4056
2026-01-07 04:55:04.90	358.55	19.26	-35.0	-36.2	17.9	0.00e+00	0	55	0	566231040	40	4178
2026-01-07 04:55:05.91	358.43	19.37	-34.9	-36.1	18.0	0.00e+00	0	55	0	573571072	40	4141
2026-01-07 04:55:06.92	358.31	19.48	-35.0	-36.2	18.0	0.00e+00	0	55	0	579862528	39	4413
2026-01-07 04:55:07.93	358.18	19.59	-34.9	-36.1	18.0	0.00e+00	0	55	0	587202560	39	4370
2026-01-07 04:55:08.94	358.06	19.70	-35.0	-36.2	18.0	0.00e+00	0	55	0	594542592	39	4427
2026-01-07 04:55:09.95	357.93	19.82	-35.1	-36.4	17.8	0.00e+00	0	55	0	601882624	39	4511
2026-01-07 04:55:10.96	357.80	19.93	-35.1	-36.3	17.9	0.00e+00	0	55	0	609222656	39	4477
2026-01-07 04:55:11.97	357.67	20.04	-35.0	-36.2	17.9	0.00e+00	0	55	0	616562688	40	4175
2026-01-07 04:55:12.98	357.54	20.16	-34.9	-36.2	17.9	0.00e+00	0	55	0	623902720	40	4155
2026-01-07 04:55:13.99	357.41	20.27	-34.8	-36.0	18.1	0.00e+00	0	55	0	631242752	40	4066
2026-01-07 04:55:15.00	357.28	20.38	-34.8	-36.0	18.1	0.00e+00	0	55	0	638582784	40	4055
2026-01-07 04:55:16.01	357.15	20.50	-34.8	-36.0	18.0	0.00e+00	0	55	0	645922816	40	4096
2026-01-07 04:55:17.02	357.02	20.61	-34.8	-36.0	18.0	0.00e+00	0	55	0	653262848	40	4070
2026-01-07 04:55:18.04	356.88	20.73	-34.6	-35.8	18.3	0.00e+00	0	55	0	660602880	39	4227
2026-01-07 04:55:19.05	356.74	20.85	-34.6	-35.7	18.3	0.00e+00	0	55	0	667942912	39	4187
2026-01-07 04:55:20.05	356.61	20.96	-34.4	-35.6	18.5	0.00e+00	0	55	0	675282944	39	4104
2026-01-07 04:55:21.06	356.47	21.08	-34.3	-35.4	18.7	0.00e+00	0	55	0	682622976	39	4030
2026-01-07 04:55:22.08	356.33	21.19	-34.3	-35.4	18.6	0.00e+00	0	55	0	689963008	39	4047
2026-01-07 04:55:23.09	356.19	21.31	-34.1	-35.3	18.7	0.00e+00	0	55	0	697303040	38	4203
2026-01-07 04:55:24.10	356.05	21.43	-34.1	-35.2	18.8	0.00e+00	0	55	0	703594496	38	4192
2026-01-07 04:55:25.10	355.91	21.55	-34.1	-35.2	18.8	0.00e+00	0	55	0	711983104	38	4182
2026-01-07 04:55:26.12	355.76	21.67	-34.2	-35.4	18.6	0.00e+00	0	55	0	719323136	38	4252
2026-01-07 04:55:27.13	355.62	21.78	-34.4	-35.6	18.4	0.00e+00	0	55	0	725614592	38	4373
2026-01-07 04:55:28.14	355.47	21.90	-34.6	-35.7	18.2	0.00e+00	0	55	0	732954624	39	4192
2026-01-07 04:55:29.15	355.33	22.02	-34.6	-35.7	18.2	0.00e+00	0	55	0	740294656	39	4189
2026-01-07 04:55:30.16	355.18	22.14	-34.3	-35.5	18.4	0.00e+00	0	55	0	747634688	39	4078
2026-01-07 04:55:31.17	355.03	22.26	-34.3	-35.4	18.5	0.00e+00	0	55	0	754974720	39	4040
2026-01-07 04:55:32.18	354.88	22.38	-34.3	-35.5	18.4	0.00e+00	0	56	0	762314752	39	4080
2026-01-07 04:55:33.19	354.73	22.50	-34.6	-35.8	18.2	0.00e+00	0	55	0	769654784	39	4204
2026-01-07 04:55:34.20	354.58	22.63	-34.6	-35.8	18.2	0.00e+00	0	55	0	776994816	39	4222
2026-01-07 04:55:35.21	354.42	22.75	-34.6	-35.8	18.2	0.00e+00	0	55	0	784334848	39	4235
2026-01-07 04:55:36.22	354.27	22.87	-34.4	-35.6	18.5	0.00e+00	0	55	0	791674880	39	4121
2026-01-07 04:55:37.23	354.11	22.99	-34.3	-35.5	18.6	0.00e+00	0	55	0	799014912	39	4069
2026-01-07 04:55:38.24	353.95	23.11	-34.5	-35.7	18.5	0.00e+00	0	55	0	806354944	38	4408
2026-01-07 04:55:39.25	353.80	23.24	-34.5	-35.7	18.6	0.00e+00	0	56	0	813694976	38	4399
2026-01-07 04:55:40.26	353.64	23.36	-34.4	-35.5	18.7	0.00e+00	0	56	0	821035008	38	4327
2026-01-07 04:55:41.27	353.47	23.48	-34.2	-35.3	18.9	0.00e+00	0	56	0	828375040	38	4239
2026-01-07 04:55:42.28	353.31	23.61	-34.0	-35.1	19.2	0.00e+00	0	55	0	835715072	38	4132
2026-01-07 04:55:43.29	353.15	23.73	-34.2	-35.3	19.0	0.00e+00	0	55	0	843055104	38	4199
2026-01-07 04:55:44.30	352.98	23.86	-34.2	-35.3	19.0	0.00e+00	0	56	0	850395136	38	4229
2026-01-07 04:55:45.31	352.81	23.98	-34.1	-35.2	19.1	0.00e+00	0	56	0	857735168	38	4177
2026-01-07 04:55:46.32	352.65	24.11	-34.0	-35.1	19.3	0.00e+00	0	56	0	865075200	38	4105
2026-01-07 04:55:47.33	352.48	24.23	-34.0	-35.1	19.2	0.00e+00	0	56	0	872415232	38	4134
2026-01-07 04:55:48.34	352.31	24.36	-34.5	-35.7	18.7	0.00e+00	0	55	0	878706688	38	4404
2026-01-07 04:55:49.35	352.13	24.48	-34.1	-35.1	19.2	0.00e+00	0	55	0	886046720	38	4145
2026-01-07 04:55:50.36	351.96	24.61	-34.0	-35.1	19.3	0.00e+00	0	55	0	894435328	38	4135
2026-01-07 04:55:51.37	351.79	24.74	-34.1	-35.2	19.3	0.00e+00	0	56	0	900726784	38	4146
2026-01-07 04:55:52.38	351.61	24.86	-34.2	-35.3	19.2	0.00e+00	0	56	0	908066816	38	4201
2026-01-07 04:55:53.39	351.43	24.99	-34.1	-35.2	19.2	0.00e+00	0	55	0	915406848	38	4159
2026-01-07 04:55:54.40	351.25	25.12	-34.1	-35.2	19.2	0.00e+00	0	56	0	922746880	38	4182
2026-01-07 04:55:55.41	351.07	25.25	-34.2	-35.3	19.2	0.00e+00	0	56	0	930086912	38	4194
2026-01-07 04:55:56.41	350.89	25.38	-34.1	-35.2	19.3	0.00e+00	0	56	0	937426944	38	4159
2026-01-07 04:55:57.42	350.71	25.50	-34.2	-35.3	19.1	0.00e+00	0	56	0	944766976	38	4232
2026-01-07 04:55:58.43	350.52	25.63	-34.4	-35.5	19.0	0.00e+00	0	56	0	952107008	38	4298
2026-01-07 04:55:59.44	350.33	25.76	-34.4	-35.5	19.0	0.00e+00	0	56	0	959447040	38	4294
2026-01-07 04:56:00.45	350.14	25.89	-34.5	-35.6	18.9	0.00e+00	0	56	0	966787072	38	4381
2026-01-07 04:56:01.46	349.95	26.02	-34.5	-35.6	18.9	0.00e+00	0	56	0	974127104	38	4354
2026-01-07 04:56:02.47	349.76	26.15	-34.5	-35.6	18.9	0.00e+00	0	56	0	981467136	38	4351
2026-01-07 04:56:03.48	349.57	26.28	-34.4	-35.5	19.0	0.00e+00	0	56	0	988807168	38	4332
2026-01-07 04:56:04.49	349.37	26.41	-34.3	-35.4	19.1	0.00e+00	0	56	0	996147200	38	4263
2026-01-07 04:56:05.50	349.18	26.55	-34.2	-35.3	19.2	0.00e+00	0	56	0	1003487232	38	4206
2026-01-07 04:56:06.51	348.98	26.68	-34.2	-35.2	19.3	0.00e+00	0	56	0	1010827264	38	4192
2026-01-07 04:56:07.52	348.78	26.81	-34.1	-35.2	19.3	0.00e+00	0	56	0	1018167296	38	4166
2026-01-07 04:56:08.53	348.58	26.94	-34.0	-35.1	19.5	0.00e+00	0	56	0	1025507328	38	4104
2026-01-07 04:56:09.54	348.37	27.07	-34.0	-35.1	19.5	0.00e+00	0	56	0	1031798784	38	4099
2026-01-07 04:56:10.55	348.17	27.20	-34.1	-35.1	19.4	0.00e+00	0	56	0	1039138816	38	4139
2026-01-07 04:56:11.56	347.96	27.34	-34.0	-35.1	19.4	0.00e+00	0	56	0	1047527424	38	4118
2026-01-07 04:56:12.57	347.75	27.47	-34.0	-35.1	19.4	0.00e+00	0	56	0	1053818880	38	4127
2026-01-07 04:56:13.58	347.54	27.60	-34.1	-35.2	19.3	0.00e+00	0	56	0	1061158912	38	4177
2026-01-07 04:56:14.59	347.33	27.74	-34.3	-35.4	19.2	0.00e+00	0	56	0	1068498944	38	4272
2026-01-07 04:56:15.60	347.12	27.87	-34.3	-35.4	19.2	0.00e+00	0	56	0	1075838976	38	4259
2026-01-07 04:56:16.61	346.90	28.00	-34.3	-35.4	19.2	0.00e+00	0	56	0	1083179008	38	4268
2026-01-07 04:56:17.62	346.68	28.14	-34.3	-35.3	19.2	0.00e+00	0	56	0	1090519040	38	4240
2026-01-07 04:56:18.63	346.46	28.27	-34.2	-35.3	19.3	0.00e+00	0	56	0	1097859072	38	4210
2026-01-07 04:56:19.64	346.24	28.40	-34.4	-35.5	19.1	0.00e+00	0	56	0	1105199104	38	4314
2026-01-07 04:56:20.65	346.02	28.54	-34.2	-35.2	19.3	0.00e+00	0	56	0	1112539136	38	4186
2026-01-07 04:56:21.66	345.79	28.67	-34.1	-35.1	19.5	0.00e+00	0	56	0	1119879168	38	4143
2026-01-07 04:56:22.67	345.57	28.81	-34.0	-35.0	19.6	0.00e+00	0	56	0	1127219200	38	4091
2026-01-07 04:56:23.68	345.34	28.94	-34.0	-35.1	19.6	0.00e+00	0	56	0	1134559232	38	4107
2026-01-07 04:56:24.69	345.11	29.08	-33.9	-35.0	19.7	0.00e+00	0	56	0	1141899264	38	4054
2026-01-07 04:56:25.70	344.87	29.21	-34.0	-35.0	19.6	0.00e+00	0	56	0	1149239296	38	4082
2026-01-07 04:56:26.71	344.64	29.35	-33.9	-35.0	19.6	0.00e+00	0	56	0	1156579328	38	4075
2026-01-07 04:56:27.72	344.40	29.48	-33.9	-34.9	19.7	0.00e+00	0	56	0	1163919360	38	4042
2026-01-07 04:56:28.73	344.16	29.62	-33.8	-34.9	19.8	0.00e+00	0	56	0	1171259392	38	4013
2026-01-07 04:56:29.74	343.92	29.75	-33.9	-35.0	19.7	0.00e+00	0	56	0	1177550848	38	4052
2026-01-07 04:56:30.75	343.68	29.89	-33.8	-34.8	19.8	0.00e+00	0	56	0	1185939456	38	3998
2026-01-07 04:56:31.77	343.43	30.03	-33.7	-34.7	19.9	0.00e+00	0	56	0	1193279488	38	3957
2026-01-07 04:56:32.78	343.18	30.16	-33.7	-34.7	19.9	0.00e+00	0	56	0	1199570944	38	3934
2026-01-07 04:56:33.78	342.94	30.30	-33.7	-34.7	19.9	0.00e+00	0	56	0	1206910976	38	3947
2026-01-07 04:56:34.79	342.68	30.43	-33.6	-34.6	20.0	0.00e+00	0	56	0	1214251008	38	3913
2026-01-07 04:56:35.79	342.43	30.57	-33.7	-34.7	19.9	0.00e+00	0	56	0	1221591040	38	3958
2026-01-07 04:56:36.80	342.18	30.70	-33.8	-34.9	19.8	0.00e+00	0	56	0	1228931072	38	4006
2026-01-07 04:56:37.81	341.92	30.84	-33.8	-34.8	19.9	0.00e+00	0	56	0	1236271104	38	3989
2026-01-07 04:56:38.82	341.66	30.97	-33.8	-34.8	19.9	0.00e+00	0	56	0	1243611136	38	3985
2026-01-07 04:56:39.83	341.40	31.11	-33.6	-34.7	20.1	0.00e+00	0	56	0	1250951168	38	3917
2026-01-07 04:56:40.84	341.13	31.24	-33.7	-34.8	20.0	0.00e+00	0	56	0	1258291200	38	3963
2026-01-07 04:56:41.85	340.86	31.38	-33.9	-34.9	19.8	0.00e+00	0	56	0	1265631232	38	4043
2026-01-07 04:56:42.86	340.59	31.51	-33.9	-34.9	19.8	0.00e+00	0	56	0	1272971264	38	4036
2026-01-07 04:56:43.87	340.32	31.65	-33.9	-34.9	19.8	0.00e+00	0	56	0	1280311296	38	4025
2026-01-07 04:56:44.88	340.05	31.78	-33.7	-34.8	19.9	0.00e+00	0	56	0	1287651328	38	3969
2026-01-07 04:56:45.89	339.77	31.92	-34.0	-35.1	19.6	0.00e+00	0	56	0	1294991360	38	4100
2026-01-07 04:56:46.90	339.49	32.05	-33.9	-35.0	19.8	0.00e+00	0	56	0	1302331392	38	4071
2026-01-07 04:56:47.91	339.21	32.19	-33.9	-34.9	19.8	0.00e+00	0	56	0	1309671424	38	4028
2026-01-07 04:56:48.92	338.93	32.32	-34.0	-35.0	19.7	0.00e+00	0	56	0	1317011456	38	4067
2026-01-07 04:56:49.93	338.65	32.46	-33.9	-34.9	19.8	0.00e+00	0	56	0	1324351488	38	4044
2026-01-07 04:56:50.94	338.36	32.59	-33.7	-34.7	20.0	0.00e+00	0	56	0	1330642944	38	3953
2026-01-07 04:56:51.95	338.07	32.73	-33.9	-34.9	19.8	0.00e+00	0	56	0	1337982976	38	4046
2026-01-07 04:56:52.96	337.77	32.86	-34.0	-35.1	19.6	0.00e+00	0	56	0	1346371584	38	4125
2026-01-07 04:56:53.97	337.48	32.99	-34.0	-35.1	19.7	0.00e+00	0	56	0	1352663040	38	4115
2026-01-07 04:56:54.98	337.18	33.13	-34.0	-35.0	19.7	0.00e+00	0	56	0	1360003072	38	4093
2026-01-07 04:56:55.99	336.88	33.26	-34.1	-35.2	19.6	0.00e+00	0	56	0	1367343104	38	4155
2026-01-07 04:56:57.00	336.58	33.39	-33.8	-34.8	19.9	0.00e+00	0	56	0	1374683136	38	3994
2026-01-07 04:56:58.01	336.27	33.52	-33.6	-34.6	20.1	0.00e+00	0	56	0	1382023168	38	3894
2026-01-07 04:56:59.02	335.97	33.65	-33.4	-34.4	20.3	0.00e+00	0	56	0	1389363200	37	4044
2026-01-07 04:57:00.03	335.65	33.79	-33.5	-34.5	20.3	0.00e+00	0	56	0	1396703232	37	4073
2026-01-07 04:57:01.04	335.34	33.92	-33.4	-34.4	20.3	0.00e+00	0	56	0	1404043264	37	4037
2026-01-07 04:57:02.05	335.03	34.05	-33.3	-34.3	20.4	0.00e+00	0	56	0	1411383296	37	3994
2026-01-07 04:57:03.06	334.71	34.18	-33.5	-34.5	20.2	0.00e+00	0	56	0	1418723328	37	4085
2026-01-07 04:57:04.07	334.39	34.31	-33.5	-34.5	20.2	0.00e+00	0	56	0	1426063360	37	4097
2026-01-07 04:57:05.08	334.07	34.44	-33.5	-34.6	20.2	0.00e+00	0	56	0	1433403392	37	4103
2026-01-07 04:57:06.09	333.74	34.56	-33.7	-34.8	20.0	0.00e+00	0	56	0	1440743424	37	4197
2026-01-07 04:57:07.10	333.41	34.69	-33.7	-34.7	20.0	0.00e+00	0	56	0	1448083456	37	4187
2026-01-07 04:57:08.11	333.08	34.82	-33.7	-34.7	20.0	0.00e+00	0	56	0	1455423488	37	4188
2026-01-07 04:57:09.12	332.75	34.95	-33.6	-34.6	20.1	0.00e+00	0	56	0	1462763520	37	4119
2026-01-07 04:57:10.13	332.41	35.07	-33.5	-34.5	20.3	0.00e+00	0	56	0	1470103552	37	4061
2026-01-07 04:57:11.14	332.07	35.20	-33.5	-34.5	20.3	0.00e+00	0	56	0	1476395008	37	4059
2026-01-07 04:57:12.15	331.73	35.32	-33.4	-34.4	20.3	0.00e+00	0	56	0	1483735040	37	4041
2026-01-07 04:57:13.16	331.39	35.45	-33.5	-34.5	20.2	0.00e+00	0	56	0	1492123648	37	4081
2026-01-07 04:57:14.17	331.04	35.57	-33.6	-34.6	20.1	0.00e+00	0	56	0	1498415104	37	4139
2026-01-07 04:57:15.18	330.69	35.70	-33.7	-34.7	20.1	0.00e+00	0	56	0	1505755136	37	4167
2026-01-07 04:57:16.19	330.34	35.82	-33.7	-34.7	20.0	0.00e+00	0	56	0	1513095168	37	4191
2026-01-07 04:57:17.20	329.98	35.94	-33.6	-34.6	20.2	0.00e+00	0	56	0	1520435200	37	4123
2026-01-07 04:57:18.21	329.63	36.06	-33.7	-34.7	20.1	0.00e+00	0	56	0	1527775232	37	4157
2026-01-07 04:57:19.22	329.27	36.18	-33.7	-34.8	20.0	0.00e+00	0	56	0	1535115264	37	4198
2026-01-07 04:57:20.23	328.90	36.30	-33.7	-34.7	20.0	0.00e+00	0	56	0	1542455296	37	4180
2026-01-07 04:57:21.24	328.54	36.42	-33.8	-34.8	20.0	0.00e+00	0	56	0	1549795328	37	4220
2026-01-07 04:57:22.25	328.17	36.53	-33.8	-34.8	19.9	0.00e+00	0	56	0	1557135360	37	4238
2026-01-07 04:57:23.26	327.80	36.65	-33.7	-34.7	20.0	0.00e+00	0	56	0	1564475392	37	4191
2026-01-07 04:57:24.27	327.43	36.77	-33.6	-34.6	20.1	0.00e+00	0	56	0	1571815424	37	4145
2026-01-07 04:57:25.28	327.05	36.88	-33.7	-34.7	20.1	0.00e+00	0	56	0	1579155456	37	4178
2026-01-07 04:57:26.29	326.67	36.99	-33.6	-34.6	20.2	0.00e+00	0	56	0	1586495488	37	4110
2026-01-07 04:57:27.30	326.29	37.11	-33.4	-34.4	20.3	0.00e+00	0	56	0	1593835520	37	4025
2026-01-07 04:57:28.31	325.91	37.22	-33.5	-34.5	20.2	0.00e+00	0	56	0	1601175552	37	4062
2026-01-07 04:57:29.32	325.52	37.33	-33.4	-34.4	20.3	0.00e+00	0	56	0	1608515584	37	4046
2026-01-07 04:57:30.33	325.13	37.43	-33.5	-34.6	20.2	0.00e+00	0	56	0	1615855616	37	4106
2026-01-07 04:57:31.34	324.74	37.54	-33.8	-34.8	19.9	0.00e+00	0	56	0	1623195648	37	4238
2026-01-07 04:57:32.35	324.34	37.65	-33.9	-34.9	19.8	0.00e+00	0	56	0	1629487104	37	4286
2026-01-07 04:57:33.36	323.95	37.75	-34.1	-35.1	19.6	0.00e+00	0	56	0	1637875712	37	4377
2026-01-07 04:57:34.37	323.55	37.86	-34.2	-35.2	19.5	0.00e+00	0	56	0	1645215744	38	4192
2026-01-07 04:57:35.38	323.14	37.96	-34.2	-35.3	19.4	0.00e+00	0	56	0	1651507200	38	4222
2026-01-07 04:57:36.39	322.74	38.06	-34.1	-35.2	19.6	0.00e+00	0	56	0	1658847232	38	4147
2026-01-07 04:57:37.40	322.33	38.16	-34.0	-35.1	19.7	0.00e+00	0	56	0	1666187264	38	4116
2026-01-07 04:57:38.41	321.92	38.26	-33.9	-34.9	19.8	0.00e+00	0	56	0	1673527296	38	4045
2026-01-07 04:57:39.42	321.51	38.36	-33.8	-34.8	19.9	0.00e+00	0	56	0	1680867328	38	3981
2026-01-07 04:57:40.43	321.10	38.45	-33.7	-34.7	20.0	0.00e+00	0	56	0	1688207360	38	3958
2026-01-07 04:57:41.44	320.68	38.55	-33.8	-34.8	19.9	0.00e+00	0	56	0	1695547392	38	3981
2026-01-07 04:57:42.45	320.26	38.64	-33.7	-34.8	20.0	0.00e+00	0	56	0	1702887424	38	3968
2026-01-07 04:57:43.46	319.84	38.73	-33.7	-34.7	20.0	0.00e+00	0	56	0	1710227456	38	3946
2026-01-07 04:57:44.48	319.41	38.82	-33.7	-34.7	20.0	0.00e+00	0	56	0	1717567488	38	3956
2026-01-07 04:57:45.49	318.98	38.91	-33.8	-34.9	19.9	0.00e+00	0	56	0	1724907520	38	4006
2026-01-07 04:57:46.50	318.55	39.00	-33.9	-34.9	19.8	0.00e+00	0	56	0	1732247552	38	4049
2026-01-07 04:57:47.51	318.12	39.08	-34.0	-35.0	19.7	0.00e+00	0	56	0	1739587584	38	4087
2026-01-07 04:57:48.52	317.69	39.17	-34.1	-35.1	19.6	0.00e+00	0	57	0	1746927616	38	4143
2026-01-07 04:57:49.53	317.25	39.25	-34.1	-35.2	19.6	0.00e+00	0	56	0	1754267648	38	4164
2026-01-07 04:57:50.54	316.81	39.33	-34.2	-35.3	19.5	0.00e+00	0	56	0	1761607680	38	4213
2026-01-07 04:57:51.55	316.37	39.41	-34.2	-35.3	19.5	0.00e+00	0	56	0	1768947712	38	4218
2026-01-07 04:57:52.56	315.93	39.49	-34.1	-35.1	19.7	0.00e+00	0	56	0	1776287744	38	4119
2026-01-07 04:57:53.57	315.48	39.56	-34.0	-35.0	19.8	0.00e+00	0	56	0	1783627776	38	4077
2026-01-07 04:57:54.58	315.04	39.63	-33.8	-34.8	19.9	0.00e+00	0	57	0	1790967808	38	3988
2026-01-07 04:57:55.59	314.59	39.70	-33.7	-34.7	20.0	0.00e+00	0	56	0	1797259264	38	3928
2026-01-07 04:57:56.60	314.14	39.77	-33.6	-34.6	20.1	0.00e+00	0	56	0	1804599296	38	3913
2026-01-07 04:57:57.61	313.69	39.84	-33.6	-34.7	20.1	0.00e+00	0	56	0	1812987904	38	3916
2026-01-07 04:57:58.62	313.23	39.91	-33.8	-34.8	19.9	0.00e+00	0	57	0	1819279360	38	3995
2026-01-07 04:57:59.63	312.77	39.97	-33.8	-34.8	19.9	0.00e+00	0	57	0	1826619392	38	3987
2026-01-07 04:58:00.64	312.32	40.03	-33.8	-34.9	19.8	0.00e+00	0	56	0	1833959424	38	4031
2026-01-07 04:58:01.65	311.86	40.09	-33.8	-34.9	19.9	0.00e+00	0	56	0	1841299456	38	4014
2026-01-07 04:58:02.66	311.39	40.15	-33.8	-34.9	19.9	0.00e+00	0	56	0	1848639488	38	4005
2026-01-07 04:58:03.67	310.93	40.20	-33.9	-34.9	19.8	0.00e+00	0	56	0	1855979520	38	4041
2026-01-07 04:58:04.69	310.46	40.26	-34.0	-35.0	19.7	0.00e+00	0	56	0	1863319552	38	4091
2026-01-07 04:58:05.69	310.00	40.31	-34.0	-35.1	19.6	0.00e+00	0	57	0	1870659584	38	4127
2026-01-07 04:58:06.71	309.53	40.36	-33.9	-35.0	19.8	0.00e+00	0	57	0	1877999616	38	4063
2026-01-07 04:58:07.72	309.06	40.41	-34.0	-35.0	19.7	0.00e+00	0	56	0	1885339648	38	4074
2026-01-07 04:58:08.73	308.59	40.45	-34.0	-35.1	19.7	0.00e+00	0	56	0	1892679680	38	4099
2026-01-07 04:58:09.74	308.12	40.50	-33.9	-35.0	19.8	0.00e+00	0	57	0	1900019712	38	4064
2026-01-07 04:58:10.75	307.64	40.54	-33.8	-34.9	19.8	0.00e+00	0	57	0	1907359744	38	4010
2026-01-07 04:58:11.76	307.17	40.57	-33.7	-34.7	20.0	0.00e+00	0	57	0	1914699776	38	3952
2026-01-07 04:58:12.76	306.70	40.61	-33.4	-34.4	20.2	0.00e+00	0	56	0	1922039808	37	4039
2026-01-07 04:58:13.77	306.22	40.65	-33.6	-34.6	20.1	0.00e+00	0	56	0	1929379840	37	4106
2026-01-07 04:58:14.79	305.74	40.68	-33.6	-34.7	20.0	0.00e+00	0	56	0	1936719872	37	4151
2026-01-07 04:58:15.80	305.26	40.71	-33.6	-34.6	20.1	0.00e+00	0	57	0	1944059904	37	4130
2026-01-07 04:58:16.81	304.78	40.74	-33.6	-34.7	20.1	0.00e+00	0	56	0	1951399936	37	4151
2026-01-07 04:58:17.82	304.30	40.76	-33.5	-34.5	20.1	0.00e+00	0	57	0	1958739968	37	4098
2026-01-07 04:58:18.83	303.82	40.78	-33.6	-34.6	20.1	0.00e+00	0	57	0	1966080000	37	4118
2026-01-07 04:58:19.84	303.34	40.80	-33.6	-34.6	20.1	0.00e+00	0	57	0	1972371456	37	4109
2026-01-07 04:58:20.85	302.86	40.82	-33.7	-34.7	20.0	0.00e+00	0	56	0	1979711488	37	4166
2026-01-07 04:58:21.86	302.38	40.84	-33.8	-34.8	19.9	0.00e+00	0	57	0	1988100096	37	4211
2026-01-07 04:58:22.87	301.89	40.85	-33.8	-34.8	19.9	0.00e+00	0	57	0	1994391552	37	4209
2026-01-07 04:58:23.88	301.41	40.86	-33.7	-34.7	20.0	0.00e+00	0	56	0	2001731584	37	4191
2026-01-07 04:58:24.89	300.93	40.87	-33.8	-34.8	19.9	0.00e+00	0	56	0	2009071616	37	4211
2026-01-07 04:58:25.90	300.44	40.88	-33.7	-34.8	19.9	0.00e+00	0	56	0	2016411648	37	4210
2026-01-07 04:58:26.91	299.96	40.89	-33.7	-34.7	20.0	0.00e+00	0	56	0	2023751680	37	4182
2026-01-07 04:58:27.92	299.47	40.89	-33.5	-34.5	20.2	0.00e+00	0	56	0	2031091712	37	4089
2026-01-07 04:58:28.94	298.98	40.89	-33.5	-34.6	20.1	0.00e+00	0	57	0	2038431744	37	4105
2026-01-07 04:58:29.94	298.50	40.89	-33.3	-34.3	20.4	0.00e+00	0	56	0	2045771776	37	3984
2026-01-07 04:58:30.96	298.02	40.88	-33.3	-34.2	20.5	0.00e+00	0	56	0	2053111808	37	3954
2026-01-07 04:58:31.97	297.53	40.87	-33.3	-34.3	20.4	0.00e+00	0	56	0	2060451840	37	3976
2026-01-07 04:58:32.98	297.05	40.87	-33.3	-34.3	20.4	0.00e+00	0	56	0	2067791872	37	3973
2026-01-07 04:58:33.99	296.56	40.85	-33.4	-34.4	20.3	0.00e+00	0	57	0	2075131904	37	4013
2026-01-07 04:58:35.00	296.08	40.84	-33.5	-34.6	20.1	0.00e+00	0	57	0	2082471936	37	4102
2026-01-07 04:58:36.01	295.60	40.82	-33.5	-34.5	20.2	0.00e+00	0	56	0	2089811968	37	4089
2026-01-07 04:58:37.02	295.12	40.81	-33.4	-34.4	20.3	0.00e+00	0	56	0	2097152000	37	4005
2026-01-07 04:58:38.02	294.64	40.78	-33.4	-34.4	20.3	0.00e+00	0	57	0	2104492032	37	4013
2026-01-07 04:58:39.03	294.16	40.76	-33.4	-34.4	20.2	0.00e+00	0	57	0	2111832064	37	4048
2026-01-07 04:58:40.04	293.68	40.74	-33.6	-34.6	20.1	0.00e+00	0	57	0	2118123520	37	4118
2026-01-07 04:58:41.05	293.20	40.71	-33.6	-34.6	20.1	0.00e+00	0	56	0	2126512128	37	4132
2026-01-07 04:58:42.06	292.72	40.68	-33.6	-34.7	20.0	0.00e+00	0	56	0	2133852160	37	4149
2026-01-07 04:58:43.07	292.24	40.65	-33.7	-34.7	20.0	0.00e+00	0	56	0	2140143616	37	4188
2026-01-07 04:58:44.08	291.76	40.61	-33.8	-34.8	19.9	0.00e+00	0	57	0	2147483648	37	4220
2026-01-07 04:58:45.09	291.29	40.58	-33.6	-34.6	20.0	0.00e+00	0	56	0	2154823680	37	4144
2026-01-07 04:58:46.10	290.81	40.54	-33.5	-34.5	20.2	0.00e+00	0	57	0	2162163712	37	4059
2026-01-07 04:58:47.11	290.34	40.50	-33.3	-34.4	20.3	0.00e+00	0	56	0	2169503744	37	4005
2026-01-07 04:58:48.12	289.87	40.45	-33.3	-34.3	20.4	0.00e+00	0	57	0	2176843776	37	3993
2026-01-07 04:58:49.13	289.40	40.41	-33.3	-34.3	20.4	0.00e+00	0	57	0	2184183808	37	3986
2026-01-07 04:58:50.14	288.93	40.36	-33.3	-34.3	20.4	0.00e+00	0	57	0	2191523840	37	3967
2026-01-07 04:58:51.15	288.46	40.31	-33.4	-34.4	20.3	0.00e+00	0	57	0	2198863872	37	4038
2026-01-07 04:58:52.16	287.99	40.26	-33.4	-34.4	20.3	0.00e+00	0	57	0	2206203904	37	4032
2026-01-07 04:58:53.18	287.52	40.21	-33.4	-34.4	20.3	0.00e+00	0	57	0	2213543936	37	4030
2026-01-07 04:58:54.19	287.06	40.15	-33.3	-34.3	20.4	0.00e+00	0	56	0	2220883968	37	3992
2026-01-07 04:58:55.20	286.59	40.09	-33.2	-34.2	20.4	0.00e+00	0	56	0	2228224000	37	3946
2026-01-07 04:58:56.21	286.13	40.03	-33.2	-34.2	20.5	0.00e+00	0	56	0	2235564032	37	3914
2026-01-07 04:58:57.22	285.67	39.97	-33.3	-34.3	20.4	0.00e+00	0	57	0	2242904064	37	3969
2026-01-07 04:58:58.23	285.22	39.91	-33.2	-34.2	20.4	0.00e+00	0	56	0	2250244096	37	3952
2026-01-07 04:58:59.24	284.76	39.84	-33.3	-34.3	20.3	0.00e+00	0	56	0	2257584128	37	3995
2026-01-07 04:59:00.25	284.31	39.78	-33.3	-34.2	20.4	0.00e+00	0	57	0	2264924160	37	3957
2026-01-07 04:59:01.26	283.86	39.71	-33.1	-34.1	20.5	0.00e+00	0	57	0	2272264192	37	3888
2026-01-07 04:59:02.27	283.41	39.63	-33.0	-34.0	20.7	0.00e+00	0	56	0	2279604224	37	3845
2026-01-07 04:59:03.28	282.96	39.56	-33.1	-34.0	20.6	0.00e+00	0	57	0	2286944256	37	3864
2026-01-07 04:59:04.29	282.51	39.49	-33.0	-34.0	20.7	0.00e+00	0	57	0	2293235712	37	3854
2026-01-07 04:59:05.29	282.08	39.41	-33.2	-34.1	20.5	0.00e+00	0	57	0	2300575744	37	3913
2026-01-07 04:59:06.30	281.63	39.33	-33.3	-34.3	20.4	0.00e+00	0	56	0	2307915776	37	3977
2026-01-07 04:59:07.31	281.19	39.25	-33.4	-34.4	20.2	0.00e+00	0	57	0	2315255808	37	4047
2026-01-07 04:59:08.33	280.75	39.17	-33.6	-34.6	20.1	0.00e+00	0	57	0	2322595840	37	4119
2026-01-07 04:59:09.33	280.32	39.09	-33.7	-34.7	20.0	0.00e+00	0	57	0	2329935872	37	4159
2026-01-07 04:59:10.34	279.89	39.00	-33.5	-34.6	20.1	0.00e+00	0	57	0	2337275904	37	4101
2026-01-07 04:59:11.35	279.46	38.91	-33.5	-34.5	20.2	0.00e+00	0	57	0	2344615936	37	4059
2026-01-07 04:59:12.36	279.03	38.83	-33.3	-34.3	20.4	0.00e+00	0	57	0	2351955968	37	3960
2026-01-07 04:59:13.37	278.61	38.74	-33.2	-34.2	20.5	0.00e+00	0	57	0	2359296000	37	3925
2026-01-07 04:59:14.38	278.18	38.64	-33.1	-34.1	20.5	0.00e+00	0	57	0	2366636032	37	3893
2026-01-07 04:59:15.39	277.76	38.55	-33.2	-34.2	20.5	0.00e+00	0	57	0	2373976064	37	3925
2026-01-07 04:59:16.40	277.34	38.46	-33.3	-34.3	20.4	0.00e+00	0	57	0	2381316096	37	3972
2026-01-07 04:59:17.41	276.93	38.36	-33.4	-34.4	20.3	0.00e+00	0	57	0	2388656128	37	4030
2026-01-07 04:59:18.42	276.51	38.26	-33.4	-34.5	20.2	0.00e+00	0	56	0	2395996160	37	4053
2026-01-07 04:59:19.43	276.10	38.16	-33.4	-34.4	20.3	0.00e+00	0	57	0	2403336192	37	4037
2026-01-07 04:59:20.44	275.69	38.06	-33.4	-34.4	20.2	0.00e+00	0	57	0	2410676224	37	4042
2026-01-07 04:59:21.45	275.29	37.96	-33.5	-34.5	20.2	0.00e+00	0	57	0	2416967680	37	4075
2026-01-07 04:59:22.46	274.88	37.86	-33.5	-34.5	20.1	0.00e+00	0	57	0	2425356288	37	4094
2026-01-07 04:59:23.47	274.48	37.75	-33.5	-34.5	20.2	0.00e+00	0	57	0	2432696320	37	4077
2026-01-07 04:59:24.48	274.08	37.65	-33.5	-34.5	20.2	0.00e+00	0	57	0	2438987776	37	4066
2026-01-07 04:59:25.49	273.69	37.54	-33.4	-34.4	20.3	0.00e+00	0	57	0	2446327808	37	4029
2026-01-07 04:59:26.50	273.30	37.43	-33.4	-34.4	20.3	0.00e+00	0	57	0	2453667840	37	4016
2026-01-07 04:59:27.51	272.91	37.32	-33.3	-34.3	20.3	0.00e+00	0	57	0	2461007872	37	4002
2026-01-07 04:59:28.52	272.52	37.21	-33.4	-34.4	20.3	0.00e+00	0	57	0	2468347904	37	4008
2026-01-07 04:59:29.53	272.13	37.10	-33.4	-34.5	20.2	0.00e+00	0	57	0	2475687936	37	4052
2026-01-07 04:59:30.54	271.75	36.99	-33.5	-34.5	20.2	0.00e+00	0	57	0	2483027968	37	4061
2026-01-07 04:59:31.55	271.37	36.88	-33.5	-34.6	20.1	0.00e+00	0	57	0	2490368000	37	4099
2026-01-07 04:59:32.56	270.99	36.76	-33.6	-34.6	20.1	0.00e+00	0	57	0	2497708032	37	4110
2026-01-07 04:59:33.57	270.62	36.65	-33.6	-34.6	20.1	0.00e+00	0	57	0	2505048064	37	4110
2026-01-07 04:59:34.58	270.25	36.53	-33.5	-34.5	20.1	0.00e+00	0	57	0	2512388096	37	4097
2026-01-07 04:59:35.59	269.88	36.41	-33.5	-34.5	20.1	0.00e+00	0	57	0	2519728128	37	4084
2026-01-07 04:59:36.60	269.51	36.29	-33.4	-34.5	20.2	0.00e+00	0	57	0	2527068160	37	4054
2026-01-07 04:59:37.62	269.14	36.17	-33.5	-34.5	20.2	0.00e+00	0	57	0	2534408192	37	4069
2026-01-07 04:59:38.63	268.78	36.05	-33.4	-34.4	20.2	0.00e+00	0	57	0	2541748224	37	4041
2026-01-07 04:59:39.64	268.42	35.93	-33.5	-34.5	20.2	0.00e+00	0	57	0	2549088256	37	4088
2026-01-07 04:59:40.65	268.07	35.81	-33.4	-34.5	20.2	0.00e+00	0	57	0	2556428288	37	4052
2026-01-07 04:59:41.66	267.71	35.69	-33.4	-34.4	20.2	0.00e+00	0	57	0	2563768320	37	4046
2026-01-07 04:59:42.67	267.36	35.56	-33.4	-34.5	20.2	0.00e+00	0	57	0	2571108352	37	4055
2026-01-07 04:59:43.68	267.01	35.44	-33.4	-34.4	20.3	0.00e+00	0	57	0	2578448384	37	4037
2026-01-07 04:59:44.69	266.67	35.31	-33.5	-34.5	20.2	0.00e+00	0	57	0	2585788416	37	4090
2026-01-07 04:59:45.70	266.33	35.19	-33.6	-34.6	20.1	0.00e+00	0	57	0	2592079872	37	4126
2026-01-07 04:59:46.71	265.99	35.06	-33.5	-34.5	20.2	0.00e+00	0	57	0	2600468480	37	4082
2026-01-07 04:59:47.72	265.65	34.94	-33.4	-34.4	20.3	0.00e+00	0	57	0	2607808512	37	4030
2026-01-07 04:59:48.73	265.31	34.81	-33.4	-34.4	20.2	0.00e+00	0	57	0	2614099968	37	4037
2026-01-07 04:59:49.74	264.98	34.68	-33.2	-34.2	20.4	0.00e+00	0	57	0	2621440000	37	3942
2026-01-07 04:59:50.75	264.65	34.55	-33.2	-34.2	20.4	0.00e+00	0	57	0	2628780032	37	3942
2026-01-07 04:59:51.76	264.32	34.42	-33.2	-34.2	20.4	0.00e+00	0	57	0	2636120064	37	3949
2026-01-07 04:59:52.77	264.00	34.29	-33.2	-34.2	20.5	0.00e+00	0	57	0	2643460096	37	3945
2026-01-07 04:59:53.78	263.68	34.16	-33.1	-34.1	20.5	0.00e+00	0	57	0	2650800128	37	3901
2026-01-07 04:59:54.79	263.36	34.03	-33.2	-34.1	20.5	0.00e+00	0	57	0	2658140160	37	3911
2026-01-07 04:59:55.80	263.04	33.90	-33.2	-34.2	20.4	0.00e+00	0	57	0	2665480192	37	3957
2026-01-07 04:59:56.81	262.73	33.77	-33.3	-34.3	20.3	0.00e+00	0	57	0	2672820224	37	3999
2026-01-07 04:59:57.82	262.42	33.64	-33.5	-34.5	20.2	0.00e+00	0	57	0	2680160256	37	4056
2026-01-07 04:59:58.83	262.11	33.51	-33.5	-34.6	20.0	0.00e+00	0	57	0	2687500288	37	4101
2026-01-07 04:59:59.84	261.80	33.37	-33.4	-34.5	20.2	0.00e+00	0	57	0	2694840320	37	4053
2026-01-07 05:00:00.85	261.50	33.24	-33.4	-34.4	20.3	0.00e+00	0	57	0	2702180352	37	4013
2026-01-07 05:00:01.86	261.20	33.11	-33.2	-34.2	20.5	0.00e+00	0	57	0	2709520384	37	3921
2026-01-07 05:00:02.87	260.90	32.97	-33.1	-34.1	20.5	0.00e+00	0	57	0	2716860416	37	3899
2026-01-07 05:00:03.88	260.60	32.84	-33.1	-34.0	20.6	0.00e+00	0	57	0	2724200448	37	3867
2026-01-07 05:00:04.89	260.31	32.70	-33.1	-34.1	20.6	0.00e+00	0	57	0	2731540480	37	3880
2026-01-07 05:00:05.90	260.01	32.57	-33.1	-34.1	20.6	0.00e+00	0	57	0	2737831936	37	3889
2026-01-07 05:00:06.91	259.72	32.44	-33.1	-34.1	20.6	0.00e+00	0	57	0	2746220544	37	3896
2026-01-07 05:00:07.92	259.44	32.30	-33.1	-34.1	20.5	0.00e+00	0	57	0	2753560576	37	3901
2026-01-07 05:00:08.93	259.15	32.17	-33.2	-34.2	20.4	0.00e+00	0	57	0	2759852032	37	3954
2026-01-07 05:00:09.94	258.87	32.03	-33.3	-34.3	20.4	0.00e+00	0	57	0	2767192064	37	3985
2026-01-07 05:00:10.95	258.59	31.89	-33.3	-34.3	20.3	0.00e+00	0	57	0	2775580672	37	3992
2026-01-07 05:00:11.96	258.31	31.76	-33.2	-34.2	20.5	0.00e+00	0	57	0	2781872128	37	3926
2026-01-07 05:00:12.97	258.04	31.62	-33.2	-34.2	20.4	0.00e+00	0	57	0	2789212160	37	3928
2026-01-07 05:00:13.98	257.77	31.49	-33.3	-34.3	20.3	0.00e+00	0	57	0	2796552192	37	4004
2026-01-07 05:00:14.99	257.50	31.35	-33.4	-34.4	20.3	0.00e+00	0	57	0	2803892224	37	4013
2026-01-07 05:00:16.00	257.23	31.21	-33.5	-34.5	20.2	0.00e+00	0	57	0	2811232256	37	4073
2026-01-07 05:00:17.01	256.96	31.08	-33.5	-34.5	20.2	0.00e+00	0	57	0	2818572288	37	4068
2026-01-07 05:00:18.02	256.70	30.94	-33.4	-34.4	20.2	0.00e+00	0	57	0	2825912320	37	4049
2026-01-07 05:00:19.02	256.44	30.81	-33.4	-34.4	20.2	0.00e+00	0	57	0	2833252352	37	4036
2026-01-07 05:00:20.03	256.18	30.67	-33.3	-34.3	20.3	0.00e+00	0	57	0	2840592384	37	3993
2026-01-07 05:00:21.04	255.92	30.54	-33.4	-34.4	20.3	0.00e+00	0	57	0	2847932416	37	4031
2026-01-07 05:00:22.05	255.67	30.40	-33.5	-34.5	20.2	0.00e+00	0	57	0	2855272448	37	4057
2026-01-07 05:00:23.06	255.41	30.26	-33.5	-34.5	20.2	0.00e+00	0	57	0	2862612480	37	4065
2026-01-07 05:00:24.07	255.16	30.13	-33.5	-34.5	20.1	0.00e+00	0	57	0	2869952512	37	4092
2026-01-07 05:00:25.08	254.92	29.99	-33.5	-34.5	20.1	0.00e+00	0	57	0	2877292544	37	4089
2026-01-07 05:00:26.09	254.67	29.85	-33.5	-34.5	20.2	0.00e+00	0	57	0	2884632576	37	4075
2026-01-07 05:00:27.10	254.42	29.72	-33.4	-34.4	20.2	0.00e+00	0	57	0	2891972608	37	4048
2026-01-07 05:00:28.11	254.18	29.58	-33.4	-34.5	20.2	0.00e+00	0	57	0	2899312640	37	4054
2026-01-07 05:00:29.12	253.94	29.45	-33.6	-34.6	20.1	0.00e+00	0	57	0	2906652672	37	4106
2026-01-07 05:00:30.14	253.70	29.31	-33.6	-34.6	20.0	0.00e+00	0	57	0	2912944128	37	4136
2026-01-07 05:00:31.15	253.47	29.17	-33.7	-34.8	19.8	0.00e+00	0	57	0	2920284160	37	4203
2026-01-07 05:00:32.15	253.23	29.04	-33.7	-34.8	19.9	0.00e+00	0	57	0	2928672768	37	4194
2026-01-07 05:00:33.17	253.00	28.90	-33.6	-34.6	20.0	0.00e+00	0	57	0	2934964224	37	4136
2026-01-07 05:00:34.18	252.77	28.77	-33.5	-34.5	20.1	0.00e+00	0	57	0	2942304256	37	4073
2026-01-07 05:00:35.18	252.54	28.63	-33.4	-34.4	20.2	0.00e+00	0	57	0	2949644288	37	4018
2026-01-07 05:00:36.19	252.32	28.50	-33.4	-34.4	20.2	0.00e+00	0	57	0	2956984320	37	4025
2026-01-07 05:00:37.21	252.09	28.36	-33.4	-34.4	20.2	0.00e+00	0	57	0	2964324352	37	4014
2026-01-07 05:00:38.22	251.87	28.23	-33.5	-34.6	20.0	0.00e+00	0	57	0	2971664384	37	4107
2026-01-07 05:00:39.23	251.65	28.09	-33.6	-34.7	19.9	0.00e+00	0	57	0	2979004416	37	4156
2026-01-07 05:00:40.24	251.43	27.96	-33.8	-34.8	19.8	0.00e+00	0	57	0	2986344448	37	4221
2026-01-07 05:00:41.25	251.21	27.82	-33.8	-34.9	19.7	0.00e+00	0	57	0	2993684480	37	4245
2026-01-07 05:00:42.26	251.00	27.69	-33.7	-34.8	19.8	0.00e+00	0	57	0	3001024512	37	4210
2026-01-07 05:00:43.27	250.78	27.55	-33.8	-34.8	19.8	0.00e+00	0	57	0	3008364544	37	4215
2026-01-07 05:00:44.28	250.57	27.42	-33.6	-34.7	20.0	0.00e+00	0	57	0	3015704576	37	4150
2026-01-07 05:00:45.29	250.36	27.29	-33.6	-34.6	20.0	0.00e+00	0	57	0	3023044608	37	4120
2026-01-07 05:00:46.30	250.15	27.15	-33.6	-34.6	20.0	0.00e+00	0	57	0	3030384640	37	4108
2026-01-07 05:00:47.30	249.95	27.02	-33.6	-34.6	20.0	0.00e+00	0	57	0	3037724672	37	4139
2026-01-07 05:00:48.31	249.74	26.89	-33.6	-34.7	19.9	0.00e+00	0	57	0	3045064704	37	4148
2026-01-07 05:00:49.33	249.54	26.76	-33.6	-34.7	19.9	0.00e+00	0	57	0	3052404736	37	4155
2026-01-07 05:00:50.34	249.34	26.62	-33.7	-34.7	19.9	0.00e+00	0	57	0	3058696192	37	4188
2026-01-07 05:00:51.34	249.14	26.49	-33.7	-34.8	19.8	0.00e+00	0	57	0	3066036224	37	4206
2026-01-07 05:00:52.36	248.94	26.36	-33.7	-34.7	19.8	0.00e+00	0	57	0	3074424832	37	4188
2026-01-07 05:00:53.37	248.74	26.23	-33.7	-34.7	19.9	0.00e+00	0	57	0	3080716288	37	4189
2026-01-07 05:00:54.38	248.55	26.10	-33.7	-34.7	19.9	0.00e+00	0	57	0	3088056320	37	4159
2026-01-07 05:00:55.39	248.36	25.97	-33.6	-34.6	20.0	0.00e+00	0	57	0	3095396352	37	4114
2026-01-07 05:00:56.40	248.17	25.84	-33.5	-34.6	20.0	0.00e+00	0	57	0	3102736384	37	4104
2026-01-07 05:00:57.41	247.98	25.71	-33.5	-34.6	20.0	0.00e+00	0	57	0	3110076416	37	4103
2026-01-07 05:00:58.42	247.79	25.58	-33.6	-34.6	20.0	0.00e+00	0	57	0	3117416448	37	4124
2026-01-07 05:00:59.43	247.60	25.45	-33.7	-34.7	19.9	0.00e+00	0	57	0	3124756480	37	4167
2026-01-07 05:01:00.44	247.42	25.32	-33.7	-34.8	19.8	0.00e+00	0	57	0	3132096512	37	4209
2026-01-07 05:01:01.45	247.23	25.19	-33.8	-34.9	19.7	0.00e+00	0	57	0	3139436544	37	4264
2026-01-07 05:01:02.46	247.05	25.06	-33.9	-34.9	19.6	0.00e+00	0	57	0	3146776576	37	4286
2026-01-07 05:01:03.47	246.87	24.93	-33.9	-34.9	19.6	0.00e+00	0	57	0	3154116608	37	4286
2026-01-07 05:01:04.47	246.69	24.80	-33.7	-34.8	19.8	0.00e+00	0	57	0	3161456640	37	4203
2026-01-07 05:01:05.48	246.52	24.68	-33.8	-34.8	19.7	0.00e+00	0	57	0	3168796672	37	4227
2026-01-07 05:01:06.49	246.34	24.55	-33.6	-34.6	19.9	0.00e+00	0	57	0	3176136704	37	4130
2026-01-07 05:01:07.50	246.16	24.42	-33.5	-34.6	20.0	0.00e+00	0	57	0	3183476736	37	4108
2026-01-07 05:01:08.51	245.99	24.29	-33.5	-34.6	20.0	0.00e+00	0	57	0	3190816768	37	4105
2026-01-07 05:01:09.52	245.82	24.17	-33.5	-34.6	20.0	0.00e+00	0	57	0	3198156800	37	4099
2026-01-07 05:01:10.53	245.65	24.04	-33.6	-34.7	19.9	0.00e+00	0	57	0	3205496832	37	4154
2026-01-07 05:01:11.54	245.48	23.91	-33.8	-34.8	19.7	0.00e+00	0	57	0	3211788288	37	4219
2026-01-07 05:01:12.55	245.31	23.79	-33.9	-34.9	19.6	0.00e+00	0	57	0	3219128320	37	4278
2026-01-07 05:01:13.56	245.15	23.66	-34.0	-35.1	19.5	0.00e+00	0	57	0	3227516928	37	4344
2026-01-07 05:01:14.57	244.98	23.54	-34.1	-35.1	19.4	0.00e+00	0	57	0	3233808384	37	4385
2026-01-07 05:01:15.58	244.82	23.41	-34.1	-35.1	19.4	0.00e+00	0	57	0	3241148416	37	4383
2026-01-07 05:01:16.59	244.65	23.29	-34.1	-35.2	19.4	0.00e+00	0	57	0	3248488448	37	4396
2026-01-07 05:01:17.60	244.49	23.17	-34.0	-35.1	19.5	0.00e+00	0	57	0	3255828480	37	4361
2026-01-07 05:01:18.61	244.33	23.04	-33.9	-35.0	19.6	0.00e+00	0	57	0	3263168512	37	4308
2026-01-07 05:01:19.62	244.17	22.92	-33.8	-34.9	19.7	0.00e+00	0	57	0	3270508544	37	4260
2026-01-07 05:01:20.63	244.02	22.80	-33.8	-34.8	19.7	0.00e+00	0	57	0	3277848576	37	4230
2026-01-07 05:01:21.65	243.86	22.67	-33.7	-34.8	19.7	0.00e+00	0	57	0	3285188608	37	4202
2026-01-07 05:01:22.65	243.71	22.55	-33.7	-34.8	19.7	0.00e+00	0	57	0	3292528640	37	4208
2026-01-07 05:01:23.66	243.55	22.43	-33.8	-34.8	19.7	0.00e+00	0	57	0	3299868672	37	4224
2026-01-07 05:01:24.68	243.40	22.31	-33.8	-34.8	19.7	0.00e+00	0	57	0	3307208704	37	4221
2026-01-07 05:01:25.69	243.25	22.19	-33.8	-34.8	19.7	0.00e+00	0	57	0	3314548736	37	4227
2026-01-07 05:01:26.70	243.10	22.07	-33.8	-34.9	19.6	0.00e+00	0	57	0	3321888768	37	4263
2026-01-07 05:01:27.71	242.95	21.95	-33.9	-34.9	19.6	0.00e+00	0	57	0	3329228800	37	4264
2026-01-07 05:01:28.72	242.80	21.83	-33.9	-35.0	19.6	0.00e+00	0	57	0	3336568832	37	4293
2026-01-07 05:01:29.73	242.65	21.71	-33.9	-35.0	19.5	0.00e+00	0	57	0	3343908864	37	4305
2026-01-07 05:01:30.74	242.51	21.59	-34.1	-35.2	19.4	0.00e+00	0	57	0	3351248896	37	4405
2026-01-07 05:01:31.75	242.36	21.47	-34.2	-35.2	19.3	0.00e+00	0	57	0	3357540352	37	4441
2026-01-07 05:01:32.76	242.22	21.35	-34.2	-35.3	19.2	0.00e+00	0	57	0	3365928960	37	4462
2026-01-07 05:01:33.77	242.08	21.23	-34.3	-35.4	19.2	0.00e+00	0	57	0	3373268992	38	4258
2026-01-07 05:01:34.78	241.94	21.11	-34.2	-35.3	19.3	0.00e+00	0	57	0	3379560448	38	4196
2026-01-07 05:01:35.79	241.80	21.00	-34.1	-35.1	19.4	0.00e+00	0	57	0	3386900480	38	4134
2026-01-07 05:01:36.80	241.66	20.88	-34.1	-35.1	19.4	0.00e+00	0	57	0	3394240512	38	4143
2026-01-07 05:01:37.80	241.52	20.76	-34.1	-35.1	19.4	0.00e+00	0	57	0	3401580544	38	4137
2026-01-07 05:01:38.81	241.39	20.65	-33.9	-35.0	19.5	0.00e+00	0	57	0	3408920576	38	4070
2026-01-07 05:01:39.82	241.25	20.53	-33.9	-34.9	19.6	0.00e+00	0	57	0	3416260608	38	4024
2026-01-07 05:01:40.83	241.12	20.42	-34.0	-35.1	19.4	0.00e+00	0	57	0	3423600640	38	4101
2026-01-07 05:01:41.84	240.98	20.30	-34.0	-35.1	19.4	0.00e+00	0	57	0	3430940672	38	4103
2026-01-07 05:01:42.85	240.85	20.19	-34.2	-35.3	19.2	0.00e+00	0	57	0	3438280704	38	4224
2026-01-07 05:01:43.86	240.72	20.07	-34.4	-35.5	19.1	0.00e+00	0	57	0	3445620736	38	4295
2026-01-07 05:01:44.87	240.59	19.96	-34.6	-35.7	18.8	0.00e+00	0	57	0	3452960768	38	4408
2026-01-07 05:01:45.88	240.46	19.84	-34.7	-35.8	18.7	0.00e+00	0	57	0	3460300800	39	4233
2026-01-07 05:01:46.89	240.33	19.73	-34.8	-35.9	18.6	0.00e+00	0	57	0	3467640832	39	4287
2026-01-07 05:01:47.90	240.20	19.62	-34.8	-36.0	18.5	0.00e+00	0	57	0	3474980864	39	4306
2026-01-07 05:01:48.91	240.08	19.50	-34.9	-36.0	18.5	0.00e+00	0	57	0	3482320896	39	4321
2026-01-07 05:01:49.92	239.95	19.39	-34.8	-36.0	18.5	0.00e+00	0	57	0	3489660928	39	4305
2026-01-07 05:01:50.93	239.83	19.28	-34.9	-36.0	18.5	0.00e+00	0	57	0	3497000960	39	4327
2026-01-07 05:01:51.94	239.70	19.17	-34.9	-36.1	18.4	0.00e+00	0	57	0	3504340992	39	4367
2026-01-07 05:01:52.95	239.58	19.06	-34.9	-36.1	18.4	0.00e+00	0	57	0	3510632448	39	4351
2026-01-07 05:01:53.96	239.46	18.95	-34.9	-36.0	18.5	0.00e+00	0	57	0	3519021056	39	4321
2026-01-07 05:01:54.97	239.34	18.84	-35.0	-36.1	18.3	0.00e+00	0	57	0	3526361088	39	4388
2026-01-07 05:01:55.98	239.22	18.73	-35.0	-36.2	18.3	0.00e+00	0	57	0	3532652544	39	4398
2026-01-07 05:01:56.99	239.10	18.62	-35.0	-36.2	18.3	0.00e+00	0	57	0	3539992576	39	4415
2026-01-07 05:01:58.00	238.98	18.51	-35.1	-36.3	18.2	0.00e+00	0	57	0	3547332608	39	4450
2026-01-07 05:01:59.01	238.86	18.40	-35.1	-36.3	18.2	0.00e+00	0	57	0	3554672640	39	4468
2026-01-07 05:02:00.02	238.74	18.29	-35.2	-36.4	18.1	0.00e+00	0	57	0	3562012672	39	4512
2026-01-07 05:02:01.03	238.63	18.18	-35.2	-36.4	18.0	0.00e+00	0	57	0	3569352704	40	4282
2026-01-07 05:02:02.04	238.51	18.07	-35.2	-36.4	18.0	0.00e+00	0	57	0	3576692736	40	4272
2026-01-07 05:02:03.05	238.40	17.96	-35.2	-36.4	17.9	0.00e+00	0	57	0	3584032768	40	4279
2026-01-07 05:02:04.05	238.29	17.86	-35.1	-36.3	18.0	0.00e+00	0	57	0	3591372800	40	4227
2026-01-07 05:02:05.07	238.17	17.75	-35.1	-36.3	18.0	0.00e+00	0	57	0	3598712832	40	4222
2026-01-07 05:02:06.08	238.06	17.64	-35.1	-36.3	18.1	0.00e+00	0	57	0	3606052864	40	4207
2026-01-07 05:02:07.09	237.95	17.54	-35.1	-36.3	18.1	0.00e+00	0	57	0	3613392896	40	4200
2026-01-07 05:02:08.10	237.84	17.43	-35.0	-36.2	18.1	0.00e+00	0	57	0	3620732928	40	4177
2026-01-07 05:02:09.11	237.73	17.33	-34.9	-36.1	18.2	0.00e+00	0	57	0	3628072960	40	4128
2026-01-07 05:02:10.12	237.62	17.22	-35.0	-36.1	18.2	0.00e+00	0	57	0	3635412992	40	4143
2026-01-07 05:02:11.13	237.51	17.12	-35.0	-36.2	18.2	0.00e+00	0	57	0	3642753024	40	4154
2026-01-07 05:02:12.14	237.41	17.01	-35.0	-36.2	18.1	0.00e+00	0	57	0	3650093056	40	4178
2026-01-07 05:02:13.15	237.30	16.91	-35.0	-36.2	18.1	0.00e+00	0	57	0	3656384512	40	4170
2026-01-07 05:02:14.16	237.19	16.80	-35.1	-36.3	18.1	0.00e+00	0	57	0	3664773120	40	4209
2026-01-07 05:02:15.17	237.09	16.70	-35.2	-36.4	17.9	0.00e+00	0	57	0	3672113152	40	4273
2026-01-07 05:02:16.18	236.98	16.60	-35.2	-36.4	17.9	0.00e+00	0	57	0	3678404608	40	4286
2026-01-07 05:02:17.19	236.88	16.49	-35.2	-36.4	17.9	0.00e+00	0	57	0	3685744640	40	4278
2026-01-07 05:02:18.20	236.78	16.39	-35.3	-36.5	17.8	0.00e+00	0	57	0	3693084672	40	4328
2026-01-07 05:02:19.21	236.68	16.29	-35.3	-36.5	17.8	0.00e+00	0	57	0	3700424704	40	4328
2026-01-07 05:02:20.21	236.58	16.19	-35.3	-36.5	17.7	0.00e+00	0	57	0	3707764736	40	4331
2026-01-07 05:02:21.23	236.47	16.09	-35.4	-36.6	17.7	0.00e+00	0	57	0	3715104768	40	4366
2026-01-07 05:02:22.24	236.37	15.98	-35.4	-36.6	17.7	0.00e+00	0	57	0	3722444800	40	4383
2026-01-07 05:02:23.25	236.27	15.88	-35.5	-36.7	17.6	0.00e+00	0	57	0	3729784832	40	4413
2026-01-07 05:02:24.26	236.18	15.78	-35.5	-36.8	17.5	0.00e+00	0	57	0	3737124864	40	4458
2026-01-07 05:02:25.27	236.08	15.68	-35.5	-36.8	17.6	0.00e+00	0	57	0	3744464896	40	4446
2026-01-07 05:02:26.27	235.98	15.58	-35.6	-36.9	17.4	0.00e+00	0	57	0	3751804928	40	4509
2026-01-07 05:02:27.28	235.89	15.48	-35.7	-36.9	17.3	0.00e+00	0	57	0	3759144960	40	4540
2026-01-07 05:02:28.29	235.79	15.39	-35.8	-37.0	17.2	0.00e+00	0	57	0	3766484992	41	4331
2026-01-07 05:02:29.30	235.69	15.29	-35.7	-37.0	17.3	0.00e+00	0	57	0	3773825024	41	4294
2026-01-07 05:02:30.31	235.60	15.19	-35.8	-37.0	17.2	0.00e+00	0	57	0	3781165056	41	4338
2026-01-07 05:02:31.32	235.51	15.09	-35.8	-37.1	17.1	0.00e+00	0	57	0	3788505088	41	4378
2026-01-07 05:02:32.33	235.41	14.99	-35.8	-37.1	17.1	0.00e+00	0	57	0	3795845120	41	4385
2026-01-07 05:02:33.34	235.32	14.89	-35.8	-37.1	17.1	0.00e+00	0	57	0	3803185152	41	4391
2026-01-07 05:02:34.35	235.23	14.80	-35.8	-37.1	17.1	0.00e+00	0	57	0	3809476608	41	4369
2026-01-07 05:02:35.36	235.14	14.70	-35.8	-37.1	17.2	0.00e+00	0	57	0	3817865216	41	4350
2026-01-07 05:02:36.37	235.05	14.60	-35.9	-37.1	17.1	0.00e+00	0	57	0	3825205248	41	4389
2026-01-07 05:02:37.37	234.96	14.51	-35.9	-37.2	17.1	0.00e+00	0	57	0	3831496704	41	4397
2026-01-07 05:02:38.38	234.87	14.41	-35.8	-37.1	17.1	0.00e+00	0	57	0	3838836736	41	4366
2026-01-07 05:02:39.39	234.78	14.32	-35.9	-37.2	17.0	0.00e+00	0	57	0	3846176768	41	4431
2026-01-07 05:02:40.40	234.69	14.22	-36.0	-37.3	16.9	0.00e+00	0	57	0	3853516800	41	4474
2026-01-07 05:02:41.41	234.60	14.13	-35.9	-37.2	17.0	0.00e+00	0	57	0	3860856832	41	4413
2026-01-07 05:02:42.42	234.51	14.03	-35.9	-37.2	17.0	0.00e+00	0	57	0	3868196864	41	4432
2026-01-07 05:02:43.43	234.43	13.94	-36.0	-37.3	17.0	0.00e+00	0	57	0	3875536896	41	4452
2026-01-07 05:02:44.44	234.34	13.84	-36.0	-37.3	16.9	0.00e+00	0	57	0	3882876928	41	4479
2026-01-07 05:02:45.45	234.25	13.75	-36.1	-37.5	16.7	0.00e+00	0	57	0	3890216960	41	4552
2026-01-07 05:02:46.46	234.17	13.65	-36.1	-37.5	16.7	0.00e+00	0	57	0	3897556992	41	4569
2026-01-07 05:02:47.48	234.08	13.56	-36.2	-37.5	16.7	0.00e+00	0	57	0	3904897024	42	4337
2026-01-07 05:02:48.48	234.00	13.47	-36.2	-37.5	16.7	0.00e+00	0	57	0	3912237056	42	4330
2026-01-07 05:02:49.50	233.92	13.37	-36.2	-37.6	16.6	0.00e+00	0	57	0	3919577088	42	4373
2026-01-07 05:02:50.51	233.83	13.28	-36.3	-37.7	16.5	0.00e+00	0	57	0	3926917120	42	4416
2026-01-07 05:02:51.52	233.75	13.19	-36.4	-37.8	16.4	0.00e+00	0	57	0	3934257152	42	4491
2026-01-07 05:02:52.53	233.67	13.10	-36.5	-37.9	16.3	0.00e+00	0	57	0	3941597184	42	4521
2026-01-07 05:02:53.54	233.59	13.01	-36.6	-38.0	16.2	0.00e+00	0	57	0	3948937216	42	4582
2026-01-07 05:02:54.55	233.51	12.91	-36.6	-38.1	16.1	0.00e+00	0	57	0	3955228672	42	4605
2026-01-07 05:02:55.56	233.43	12.82	-36.6	-38.0	16.1	0.00e+00	0	57	0	3963617280	42	4582
2026-01-07 05:02:56.57	233.35	12.73	-36.6	-38.1	16.1	0.00e+00	0	57	0	3970957312	43	4341
2026-01-07 05:02:57.58	233.27	12.64	-36.6	-38.1	16.1	0.00e+00	0	57	0	3977248768	43	4357
2026-01-07 05:02:58.59	233.19	12.55	-36.7	-38.1	16.1	0.00e+00	0	57	0	3984588800	43	4376
2026-01-07 05:02:59.59	233.11	12.46	-36.7	-38.1	16.0	0.00e+00	0	57	0	3991928832	43	4380
2026-01-07 05:03:00.60	233.03	12.37	-36.7	-38.1	16.0	0.00e+00	0	57	0	3999268864	43	4382
2026-01-07 05:03:01.61	232.96	12.28	-36.7	-38.1	16.1	0.00e+00	0	57	0	4006608896	43	4374
2026-01-07 05:03:02.62	232.88	12.20	-36.5	-37.9	16.3	0.00e+00	0	57	0	4013948928	43	4251
2026-01-07 05:03:03.63	232.80	12.11	-36.4	-37.8	16.4	0.00e+00	0	57	0	4021288960	43	4212
2026-01-07 05:03:04.64	232.73	12.02	-36.3	-37.7	16.4	0.00e+00	0	57	0	4028628992	43	4191
2026-01-07 05:03:05.65	232.65	11.93	-36.2	-37.6	16.5	0.00e+00	0	57	0	4035969024	43	4121
2026-01-07 05:03:06.66	232.58	11.84	-36.3	-37.6	16.5	0.00e+00	0	57	0	4043309056	43	4143
2026-01-07 05:03:07.67	232.50	11.75	-36.3	-37.7	16.5	0.00e+00	0	57	0	4050649088	43	4150
2026-01-07 05:03:08.68	232.43	11.67	-36.3	-37.7	16.4	0.00e+00	0	57	0	4057989120	43	4152
2026-01-07 05:03:09.69	232.35	11.58	-36.1	-37.5	16.6	0.00e+00	0	57	0	4065329152	43	4077
2026-01-07 05:03:10.70	232.28	11.49	-36.2	-37.6	16.5	0.00e+00	0	57	0	4072669184	43	4126
2026-01-07 05:03:11.71	232.21	11.41	-36.2	-37.6	16.5	0.00e+00	0	57	0	4080009216	43	4124
2026-01-07 05:03:12.72	232.14	11.32	-36.3	-37.7	16.4	0.00e+00	0	57	0	4087349248	43	4177
2026-01-07 05:03:13.73	232.06	11.23	-36.2	-37.5	16.5	0.00e+00	0	57	0	4094689280	43	4082
