passes_logs/2026/01/07/R2.0S_Moscow/R2.0S_Moscow__20260107_215600_NOAA_21_JPSS-2_rec.log

#Pass ID: 20260107_215600_NOAA 21 (JPSS-2)
#Satellite: NOAA 21 (JPSS-2)
#Configuration: NOAA-21
#almurnet v.1.7.20251203
#Start time: 2026-01-07 21:56:00

#Version: 2.2.20231116
#Station: R2.0S_Moscow
#Location: 37.707566 lon 55.798166 lat
#TLE: 1 54234U 22150A   26005.56767909  .00000152  00000+0  92756-4 0  9990
#TLE: 2 54234  98.7490 306.5820 0001036 340.2747  19.8389 14.19532370163472

#Time	Az	El	Level	Level2	SNR	BER	BlckErr	Temp	State	Recorded	gain1	gain2
2026-01-07 21:56:00.29	27.31	2.01	-42.3	-55.1	3.8	1.49e+00	0	46	0	0	56	15402
2026-01-07 21:56:01.29	27.39	2.06	-42.2	-54.9	3.8	1.49e+00	0	47	104	0	55	16021
2026-01-07 21:56:02.30	27.48	2.11	-42.2	-54.9	3.8	1.49e+00	0	47	104	0	55	16020
2026-01-07 21:56:03.31	27.56	2.16	-42.2	-54.9	3.8	1.49e+00	0	47	104	0	55	16018
2026-01-07 21:56:04.32	27.64	2.21	-42.2	-54.9	3.8	1.49e+00	0	47	104	0	55	16030
2026-01-07 21:56:05.32	27.72	2.26	-42.2	-54.9	3.8	1.49e+00	0	47	104	0	55	15974
2026-01-07 21:56:06.34	27.81	2.32	-42.2	-54.9	3.8	1.49e+00	0	47	104	0	55	15997
2026-01-07 21:56:07.34	27.89	2.37	-42.2	-54.9	3.8	1.49e+00	0	47	104	0	55	15968
2026-01-07 21:56:08.36	27.98	2.42	-42.2	-54.9	3.8	1.49e+00	0	47	104	0	55	15951
2026-01-07 21:56:09.37	28.06	2.47	-42.2	-54.9	3.8	1.49e+00	0	47	104	0	55	16000
2026-01-07 21:56:10.38	28.15	2.52	-42.2	-54.9	3.8	1.49e+00	0	47	104	0	55	15975
2026-01-07 21:56:11.39	28.23	2.58	-42.2	-54.9	3.8	1.49e+00	0	47	104	0	55	15975
2026-01-07 21:56:12.40	28.32	2.63	-42.2	-54.9	3.8	1.49e+00	0	48	104	0	55	16006
2026-01-07 21:56:13.41	28.40	2.68	-42.2	-54.9	3.8	1.49e+00	0	48	104	0	55	15956
2026-01-07 21:56:14.41	28.49	2.73	-42.2	-54.9	3.8	1.49e+00	0	48	104	0	55	15956
2026-01-07 21:56:15.43	28.57	2.79	-42.2	-54.9	3.8	1.49e+00	0	48	104	0	55	15988
2026-01-07 21:56:16.44	28.66	2.84	-42.2	-54.9	3.8	1.49e+00	0	48	104	0	55	16007
2026-01-07 21:56:17.45	28.75	2.89	-42.2	-54.9	3.8	1.49e+00	0	48	104	0	55	15962
2026-01-07 21:56:18.46	28.83	2.94	-42.2	-54.9	3.8	1.49e+00	0	48	104	0	55	16006
2026-01-07 21:56:19.47	28.92	3.00	-42.2	-54.8	3.8	1.49e+00	0	48	104	0	55	15933
2026-01-07 21:56:20.48	29.01	3.05	-42.2	-54.9	3.8	1.49e+00	0	48	104	0	55	16010
2026-01-07 21:56:21.48	29.09	3.10	-42.2	-54.9	3.8	1.49e+00	0	48	104	0	55	16003
2026-01-07 21:56:22.49	29.18	3.15	-42.2	-54.8	3.8	1.49e+00	0	48	104	0	55	15935
2026-01-07 21:56:23.50	29.27	3.21	-42.2	-54.9	3.8	1.49e+00	0	49	104	0	55	15962
2026-01-07 21:56:24.51	29.36	3.26	-42.2	-54.8	3.8	1.49e+00	0	49	104	0	55	15937
2026-01-07 21:56:25.53	29.45	3.31	-42.2	-54.9	3.8	1.49e+00	0	49	104	0	55	15975
2026-01-07 21:56:26.54	29.54	3.37	-42.2	-54.9	3.8	1.49e+00	0	49	104	0	55	16025
2026-01-07 21:56:27.55	29.63	3.42	-42.2	-54.9	3.8	1.49e+00	0	49	104	0	55	15977
2026-01-07 21:56:28.56	29.72	3.47	-42.2	-54.8	3.8	1.49e+00	0	49	104	0	55	15941
2026-01-07 21:56:29.57	29.81	3.52	-42.2	-54.9	3.8	1.49e+00	0	49	104	0	55	15957
2026-01-07 21:56:30.58	29.90	3.58	-42.2	-54.9	3.8	1.49e+00	0	49	104	0	55	15967
2026-01-07 21:56:31.59	29.99	3.63	-42.2	-54.9	3.8	1.49e+00	0	49	104	0	55	15959
2026-01-07 21:56:32.60	30.08	3.68	-42.2	-54.8	3.8	1.49e+00	0	49	104	0	55	15892
2026-01-07 21:56:33.61	30.17	3.74	-42.2	-54.9	3.8	1.49e+00	0	49	104	0	55	15959
2026-01-07 21:56:34.62	30.26	3.79	-42.2	-54.8	3.8	1.49e+00	0	49	104	0	55	15911
2026-01-07 21:56:35.63	30.36	3.84	-42.2	-54.9	3.8	1.49e+00	0	49	104	0	55	15962
2026-01-07 21:56:36.64	30.45	3.90	-42.2	-54.8	3.8	1.49e+00	0	49	104	0	55	15897
2026-01-07 21:56:37.65	30.54	3.95	-42.2	-54.9	3.8	1.49e+00	0	49	104	0	55	15956
2026-01-07 21:56:38.66	30.63	4.00	-42.2	-54.9	3.8	1.49e+00	0	50	104	0	55	15964
2026-01-07 21:56:39.67	30.73	4.06	-42.2	-54.9	3.8	1.49e+00	0	49	104	0	55	15969
2026-01-07 21:56:40.68	30.82	4.11	-42.2	-54.9	3.8	1.49e+00	0	50	104	0	55	15953
2026-01-07 21:56:41.68	30.91	4.16	-42.2	-54.8	3.8	1.49e+00	0	50	104	0	55	15937
2026-01-07 21:56:42.69	31.01	4.22	-42.2	-54.9	3.8	1.49e+00	0	50	104	0	55	15945
2026-01-07 21:56:43.70	31.10	4.27	-42.2	-54.9	3.8	1.49e+00	0	50	104	0	55	15974
2026-01-07 21:56:44.71	31.20	4.32	-42.2	-54.8	3.8	1.49e+00	0	50	104	0	55	15899
2026-01-07 21:56:45.72	31.29	4.38	-42.2	-54.9	3.8	1.49e+00	0	50	104	0	55	15986
2026-01-07 21:56:46.73	31.39	4.43	-42.2	-54.9	3.8	1.49e+00	0	50	104	0	55	15965
2026-01-07 21:56:47.74	31.48	4.49	-42.2	-54.9	3.8	1.49e+00	0	50	104	0	55	15945
2026-01-07 21:56:48.75	31.58	4.54	-42.2	-54.9	3.8	1.49e+00	0	50	104	0	55	15979
2026-01-07 21:56:49.76	31.68	4.59	-42.2	-54.9	3.8	1.49e+00	0	50	104	0	55	15971
2026-01-07 21:56:50.77	31.77	4.65	-42.2	-54.9	3.8	1.49e+00	0	50	104	0	55	15965
2026-01-07 21:56:51.78	31.87	4.70	-42.2	-54.8	3.8	1.49e+00	0	50	104	0	55	15919
2026-01-07 21:56:52.79	31.97	4.76	-42.2	-54.9	3.8	1.49e+00	0	50	104	0	55	15958
2026-01-07 21:56:53.80	32.07	4.81	-42.2	-54.9	3.8	1.49e+00	0	50	104	0	55	15964
2026-01-07 21:56:54.81	32.17	4.86	-42.2	-54.9	3.8	1.49e+00	0	50	104	0	55	15954
2026-01-07 21:56:55.82	32.26	4.92	-42.2	-54.8	3.8	1.49e+00	0	51	104	0	55	15939
2026-01-07 21:56:56.83	32.36	4.97	-42.2	-54.8	3.8	1.49e+00	0	51	104	0	55	15909
2026-01-07 21:56:57.84	32.46	5.03	-42.2	-54.9	3.8	1.49e+00	0	51	104	0	55	15985
2026-01-07 21:56:58.85	32.56	5.08	-42.2	-54.9	3.8	1.49e+00	0	51	104	0	55	15950
2026-01-07 21:56:59.86	32.66	5.14	-42.2	-54.9	3.8	1.49e+00	0	51	104	0	55	15956
2026-01-07 21:57:00.87	32.76	5.19	-42.2	-54.9	3.8	1.49e+00	0	51	104	0	55	15958
2026-01-07 21:57:01.88	32.86	5.25	-42.2	-54.8	3.8	1.49e+00	0	51	104	0	55	15928
2026-01-07 21:57:02.89	32.97	5.30	-42.2	-54.9	3.8	1.49e+00	0	51	104	0	55	15994
2026-01-07 21:57:03.90	33.07	5.35	-42.2	-54.9	3.8	1.49e+00	0	51	104	0	55	15954
2026-01-07 21:57:04.91	33.17	5.41	-42.2	-54.9	3.8	1.49e+00	0	51	104	0	55	15953
2026-01-07 21:57:05.92	33.27	5.46	-42.2	-54.9	3.8	1.49e+00	0	51	104	0	55	15977
2026-01-07 21:57:06.93	33.37	5.52	-42.2	-54.9	3.8	1.49e+00	0	51	104	0	55	15980
2026-01-07 21:57:07.94	33.48	5.57	-42.2	-54.8	3.8	1.49e+00	0	51	104	0	55	15913
2026-01-07 21:57:08.95	33.58	5.63	-42.2	-54.8	3.8	1.49e+00	0	51	104	0	55	15933
2026-01-07 21:57:09.96	33.68	5.68	-42.2	-54.9	3.8	1.49e+00	0	51	104	0	55	15950
2026-01-07 21:57:10.96	33.79	5.74	-42.2	-54.9	3.8	1.49e+00	0	51	104	0	55	15996
2026-01-07 21:57:11.97	33.89	5.79	-42.2	-54.8	3.8	1.49e+00	0	51	104	0	55	15901
2026-01-07 21:57:12.98	34.00	5.85	-42.2	-54.9	3.8	1.49e+00	0	51	104	0	55	15947
2026-01-07 21:57:13.99	34.10	5.90	-42.2	-54.8	3.8	1.49e+00	0	51	104	0	55	15930
2026-01-07 21:57:15.00	34.21	5.96	-42.2	-54.9	3.8	1.49e+00	0	51	104	0	55	15962
2026-01-07 21:57:16.01	34.31	6.01	-42.2	-54.8	3.8	1.49e+00	0	51	104	0	55	15917
2026-01-07 21:57:17.02	34.42	6.07	-42.2	-54.9	3.8	1.49e+00	0	51	104	0	55	15968
2026-01-07 21:57:18.03	34.53	6.12	-42.2	-54.9	3.8	1.49e+00	0	51	104	0	55	15987
2026-01-07 21:57:19.04	34.63	6.18	-42.2	-54.9	3.8	1.49e+00	0	52	104	0	55	16000
2026-01-07 21:57:20.05	34.74	6.23	-42.2	-54.9	3.8	1.49e+00	0	52	104	0	55	15973
2026-01-07 21:57:21.06	34.85	6.29	-42.2	-54.9	3.8	1.49e+00	0	52	104	0	55	15970
2026-01-07 21:57:22.07	34.96	6.34	-42.2	-54.8	3.8	1.49e+00	0	52	104	0	55	15907
2026-01-07 21:57:23.08	35.07	6.40	-42.2	-54.8	3.8	1.49e+00	0	52	104	0	55	15917
2026-01-07 21:57:24.09	35.18	6.45	-42.2	-54.9	3.8	1.49e+00	0	52	104	0	55	15971
2026-01-07 21:57:25.10	35.28	6.51	-42.2	-54.9	3.8	1.49e+00	0	52	104	0	55	15949
2026-01-07 21:57:26.10	35.39	6.56	-42.2	-54.9	3.8	1.49e+00	0	52	104	0	55	15956
2026-01-07 21:57:27.11	35.50	6.62	-42.2	-54.9	3.8	1.49e+00	0	52	104	0	55	15966
2026-01-07 21:57:28.12	35.61	6.67	-42.2	-54.9	3.8	1.49e+00	0	52	104	0	55	15949
2026-01-07 21:57:29.13	35.73	6.73	-42.2	-54.9	3.8	1.49e+00	0	52	104	0	55	15963
2026-01-07 21:57:30.14	35.84	6.79	-42.2	-54.9	3.8	1.49e+00	0	52	104	0	55	15972
2026-01-07 21:57:31.16	35.95	6.84	-42.2	-54.9	3.8	1.49e+00	0	52	104	0	55	15957
2026-01-07 21:57:32.16	36.06	6.90	-42.2	-54.8	3.8	1.49e+00	0	52	104	0	55	15865
2026-01-07 21:57:33.17	36.17	6.95	-42.2	-54.8	3.8	1.49e+00	0	52	104	0	55	15770
2026-01-07 21:57:34.18	36.29	7.01	-42.2	-54.8	3.8	1.49e+00	0	52	104	0	55	15776
2026-01-07 21:57:35.19	36.40	7.06	-42.2	-54.8	3.8	1.49e+00	0	52	104	0	55	15934
2026-01-07 21:57:36.21	36.52	7.12	-42.2	-54.9	3.8	1.49e+00	0	52	104	0	55	15957
2026-01-07 21:57:37.21	36.63	7.17	-42.2	-54.9	3.8	1.49e+00	0	52	104	0	55	15982
2026-01-07 21:57:38.22	36.74	7.23	-42.2	-54.9	3.8	1.49e+00	0	52	104	0	55	15979
2026-01-07 21:57:39.23	36.86	7.29	-42.2	-54.8	3.8	1.49e+00	0	52	104	0	55	15933
2026-01-07 21:57:40.25	36.98	7.34	-42.2	-54.8	3.8	1.49e+00	0	52	104	0	55	15925
2026-01-07 21:57:41.25	37.09	7.40	-42.2	-54.8	3.8	1.49e+00	0	52	104	0	55	15852
2026-01-07 21:57:42.26	37.21	7.45	-42.1	-54.5	3.8	1.49e+00	0	52	104	0	55	15318
2026-01-07 21:57:43.27	37.32	7.51	-42.1	-53.8	3.8	1.49e+00	0	52	104	0	55	14095
2026-01-07 21:57:44.28	37.44	7.57	-41.9	-52.1	4.0	1.48e+00	0	53	104	0	55	11568
2026-01-07 21:57:45.29	37.56	7.62	-41.7	-50.2	4.6	1.42e+00	1	52	104	0	55	9349
2026-01-07 21:57:46.30	37.68	7.68	-41.3	-48.1	5.8	4.74e-01	0	53	0	1048576	54	7737
2026-01-07 21:57:47.31	37.80	7.73	-40.6	-45.7	7.8	1.66e-01	0	52	0	4194304	53	6264
2026-01-07 21:57:48.32	37.92	7.79	-39.8	-43.7	9.9	1.65e-02	0	53	0	7340032	51	5584
2026-01-07 21:57:49.33	38.04	7.85	-39.1	-42.3	11.4	1.80e-03	0	53	0	10485760	50	5026
2026-01-07 21:57:50.34	38.16	7.90	-38.4	-41.3	12.5	1.71e-04	0	53	0	13631488	48	4988
2026-01-07 21:57:51.35	38.28	7.96	-38.0	-40.7	13.1	2.74e-05	0	52	0	16777216	48	4653
2026-01-07 21:57:52.36	38.40	8.01	-38.2	-40.8	12.9	3.89e-05	0	52	0	19922944	48	4751
2026-01-07 21:57:53.37	38.52	8.07	-38.6	-41.3	12.7	1.21e-04	0	52	0	23068672	48	5022
2026-01-07 21:57:54.37	38.64	8.12	-39.2	-42.1	12.3	8.14e-04	0	53	0	26214400	50	4893
2026-01-07 21:57:55.38	38.76	8.18	-40.5	-46.6	6.5	1.48e+00	0	53	104	27262976	53	6893
2026-01-07 21:57:56.40	38.89	8.24	-40.4	-44.0	10.5	1.10e-02	0	53	0	29360128	52	5403
2026-01-07 21:57:57.40	39.01	8.29	-39.3	-42.0	12.6	7.38e-03	0	53	0	32505856	50	4840
2026-01-07 21:57:58.42	39.13	8.35	-40.0	-43.5	10.8	5.85e-03	0	53	0	35651584	51	5421
2026-01-07 21:57:59.43	39.26	8.41	-39.1	-41.8	12.7	8.92e-05	0	53	0	38797312	50	4744
2026-01-07 21:58:00.43	39.38	8.46	-39.1	-41.7	12.9	5.26e-05	0	53	0	41943040	50	4662
2026-01-07 21:58:01.44	39.50	8.52	-39.1	-41.6	13.0	4.80e-05	0	53	0	46137344	50	4644
2026-01-07 21:58:02.45	39.63	8.57	-39.1	-41.6	13.0	4.19e-05	0	53	0	48234496	50	4632
2026-01-07 21:58:03.46	39.76	8.63	-39.1	-41.6	13.1	3.12e-05	0	53	0	51380224	50	4629
2026-01-07 21:58:04.47	39.88	8.69	-38.9	-41.4	13.3	3.05e-05	0	53	0	54525952	49	4767
2026-01-07 21:58:05.48	40.01	8.74	-38.7	-41.1	13.6	9.90e-06	0	53	0	57671680	49	4635
2026-01-07 21:58:06.49	40.14	8.80	-38.8	-41.1	13.5	1.06e-05	0	53	0	61865984	49	4636
2026-01-07 21:58:07.50	40.26	8.86	-38.7	-41.1	13.6	1.14e-05	0	53	0	65011712	49	4623
2026-01-07 21:58:08.51	40.39	8.91	-38.8	-41.2	13.5	1.22e-05	0	53	0	68157440	49	4685
2026-01-07 21:58:09.52	40.52	8.97	-38.8	-41.2	13.5	1.22e-05	0	53	0	70254592	49	4678
2026-01-07 21:58:10.53	40.65	9.02	-38.9	-41.2	13.5	1.14e-05	0	53	0	73400320	49	4693
2026-01-07 21:58:11.53	40.78	9.08	-38.8	-41.2	13.5	1.22e-05	0	53	0	76546048	49	4677
2026-01-07 21:58:12.54	40.91	9.14	-38.8	-41.1	13.6	9.90e-06	0	53	0	80740352	49	4639
2026-01-07 21:58:13.55	41.04	9.19	-38.9	-41.3	13.5	1.29e-05	0	53	0	83886080	49	4713
2026-01-07 21:58:14.56	41.17	9.25	-38.8	-41.2	13.6	8.30e-06	0	53	0	87031808	49	4661
2026-01-07 21:58:15.57	41.30	9.31	-38.9	-41.2	13.6	9.10e-06	0	53	0	90177536	49	4667
2026-01-07 21:58:16.58	41.44	9.36	-38.9	-41.2	13.6	6.10e-06	0	53	0	93323264	49	4662
2026-01-07 21:58:17.59	41.57	9.42	-38.9	-41.2	13.6	4.50e-06	0	53	0	96468992	49	4702
2026-01-07 21:58:18.60	41.70	9.47	-38.9	-41.2	13.6	8.30e-06	0	53	0	99614720	49	4672
2026-01-07 21:58:19.61	41.83	9.53	-38.9	-41.2	13.6	8.30e-06	0	53	0	102760448	49	4701
2026-01-07 21:58:20.62	41.97	9.59	-38.9	-41.3	13.6	9.10e-06	0	53	0	105906176	49	4711
2026-01-07 21:58:21.63	42.10	9.64	-38.9	-41.3	13.6	7.60e-06	0	53	0	109051904	49	4716
2026-01-07 21:58:22.65	42.24	9.70	-39.0	-41.3	13.5	9.90e-06	0	53	0	112197632	49	4754
2026-01-07 21:58:23.66	42.38	9.76	-38.9	-41.2	13.7	1.06e-05	0	53	0	115343360	49	4686
2026-01-07 21:58:24.66	42.51	9.81	-38.9	-41.2	13.8	3.00e-06	0	53	0	118489088	49	4660
2026-01-07 21:58:25.67	42.65	9.87	-38.7	-40.9	14.1	2.20e-06	0	54	0	121634816	49	4538
2026-01-07 21:58:26.68	42.78	9.92	-38.7	-40.9	14.2	3.80e-06	0	53	0	124780544	49	4502
2026-01-07 21:58:27.69	42.92	9.98	-38.6	-40.7	14.3	1.50e-06	0	54	0	127926272	49	4440
2026-01-07 21:58:28.70	43.06	10.04	-38.6	-40.6	14.4	7.00e-07	0	53	0	131072000	49	4383
2026-01-07 21:58:29.71	43.20	10.09	-38.5	-40.6	14.5	0.00e+00	0	54	0	134217728	49	4378
2026-01-07 21:58:30.72	43.34	10.15	-38.6	-40.7	14.4	0.00e+00	0	54	0	137363456	49	4399
2026-01-07 21:58:31.73	43.48	10.20	-38.6	-40.6	14.5	1.50e-06	0	54	0	140509184	49	4382
2026-01-07 21:58:32.74	43.62	10.26	-38.5	-40.6	14.5	2.20e-06	0	54	0	143654912	49	4374
2026-01-07 21:58:33.75	43.76	10.32	-38.5	-40.6	14.6	7.00e-07	0	53	0	146800640	49	4355
2026-01-07 21:58:34.76	43.90	10.37	-38.5	-40.5	14.6	0.00e+00	0	54	0	149946368	49	4324
2026-01-07 21:58:35.77	44.04	10.43	-38.5	-40.5	14.6	7.00e-07	0	54	0	153092096	48	4592
2026-01-07 21:58:36.78	44.18	10.48	-38.3	-40.3	14.9	0.00e+00	0	54	0	156237824	48	4472
2026-01-07 21:58:37.79	44.33	10.54	-38.3	-40.3	14.9	0.00e+00	0	54	0	159383552	48	4456
2026-01-07 21:58:38.80	44.47	10.60	-38.3	-40.2	15.0	0.00e+00	0	54	0	162529280	48	4441
2026-01-07 21:58:39.81	44.61	10.65	-38.2	-40.2	15.0	0.00e+00	0	54	0	165675008	48	4405
2026-01-07 21:58:40.82	44.76	10.71	-38.1	-40.0	15.2	0.00e+00	0	54	0	168820736	48	4338
2026-01-07 21:58:41.83	44.90	10.76	-38.2	-40.1	15.1	7.00e-07	0	54	0	171966464	48	4344
2026-01-07 21:58:42.84	45.05	10.82	-38.2	-40.1	15.1	0.00e+00	0	54	0	175112192	48	4374
2026-01-07 21:58:43.85	45.20	10.88	-38.2	-40.1	15.1	0.00e+00	0	54	0	178257920	48	4383
2026-01-07 21:58:44.86	45.34	10.93	-38.1	-40.0	15.2	0.00e+00	0	54	0	181403648	48	4325
2026-01-07 21:58:45.87	45.49	10.99	-38.2	-40.1	15.1	0.00e+00	0	54	0	184549376	48	4377
2026-01-07 21:58:46.88	45.64	11.04	-38.2	-40.1	15.2	0.00e+00	0	54	0	187695104	48	4353
2026-01-07 21:58:47.89	45.79	11.10	-38.2	-40.1	15.2	0.00e+00	0	54	0	190840832	48	4357
2026-01-07 21:58:48.90	45.93	11.15	-38.2	-40.1	15.2	0.00e+00	0	54	0	193986560	48	4357
2026-01-07 21:58:49.91	46.08	11.21	-38.2	-40.1	15.2	0.00e+00	0	54	0	197132288	48	4357
2026-01-07 21:58:50.92	46.23	11.27	-38.2	-40.1	15.2	0.00e+00	0	54	0	200278016	48	4359
2026-01-07 21:58:51.93	46.38	11.32	-38.2	-40.1	15.2	0.00e+00	0	54	0	203423744	48	4356
2026-01-07 21:58:52.93	46.53	11.38	-38.3	-40.2	15.1	0.00e+00	0	54	0	206569472	48	4413
2026-01-07 21:58:53.94	46.69	11.43	-38.3	-40.1	15.2	0.00e+00	0	54	0	209715200	48	4385
2026-01-07 21:58:54.95	46.84	11.49	-38.3	-40.1	15.1	0.00e+00	0	54	0	212860928	48	4391
2026-01-07 21:58:55.96	46.99	11.54	-38.2	-40.1	15.2	0.00e+00	0	54	0	216006656	48	4349
2026-01-07 21:58:56.97	47.14	11.60	-38.2	-40.1	15.2	0.00e+00	0	54	0	219152384	48	4363
2026-01-07 21:58:57.98	47.30	11.65	-38.2	-40.1	15.3	0.00e+00	0	54	0	222298112	48	4347
2026-01-07 21:58:58.99	47.45	11.71	-38.2	-40.1	15.2	0.00e+00	0	54	0	225443840	48	4353
2026-01-07 21:59:00.00	47.61	11.76	-38.1	-39.9	15.4	0.00e+00	0	54	0	228589568	48	4291
2026-01-07 21:59:01.01	47.76	11.82	-38.1	-40.0	15.4	0.00e+00	0	54	0	231735296	48	4299
2026-01-07 21:59:02.02	47.92	11.87	-38.1	-40.0	15.3	0.00e+00	0	54	0	234881024	48	4314
2026-01-07 21:59:03.03	48.07	11.93	-38.1	-40.0	15.4	0.00e+00	0	54	0	238026752	48	4312
2026-01-07 21:59:04.04	48.23	11.98	-38.1	-39.9	15.4	0.00e+00	0	54	0	241172480	48	4274
2026-01-07 21:59:05.05	48.39	12.04	-38.1	-39.9	15.5	0.00e+00	0	54	0	244318208	48	4265
2026-01-07 21:59:06.06	48.55	12.09	-38.0	-39.8	15.5	7.00e-07	0	54	0	247463936	48	4225
2026-01-07 21:59:07.06	48.71	12.15	-38.0	-39.8	15.5	0.00e+00	0	54	0	250609664	48	4220
2026-01-07 21:59:08.07	48.87	12.20	-37.9	-39.7	15.6	0.00e+00	0	54	0	253755392	47	4414
2026-01-07 21:59:09.09	49.03	12.25	-37.9	-39.6	15.6	0.00e+00	0	54	0	256901120	47	4390
2026-01-07 21:59:10.10	49.19	12.31	-37.9	-39.7	15.5	0.00e+00	0	54	0	260046848	47	4432
2026-01-07 21:59:11.11	49.35	12.36	-37.9	-39.7	15.6	0.00e+00	0	54	0	263192576	47	4423
2026-01-07 21:59:12.11	49.51	12.42	-37.9	-39.7	15.6	0.00e+00	0	54	0	266338304	47	4408
2026-01-07 21:59:13.12	49.67	12.47	-37.9	-39.7	15.6	0.00e+00	0	54	0	269484032	47	4416
2026-01-07 21:59:14.13	49.83	12.52	-37.9	-39.7	15.5	0.00e+00	0	54	0	272629760	47	4441
2026-01-07 21:59:15.14	50.00	12.58	-37.9	-39.8	15.5	0.00e+00	0	54	0	275775488	47	4443
2026-01-07 21:59:16.14	50.16	12.63	-38.0	-39.8	15.5	0.00e+00	0	54	0	278921216	47	4468
2026-01-07 21:59:17.15	50.32	12.69	-38.0	-39.8	15.5	0.00e+00	0	55	0	282066944	47	4464
2026-01-07 21:59:18.16	50.49	12.74	-37.9	-39.8	15.5	0.00e+00	0	55	0	285212672	47	4455
2026-01-07 21:59:19.17	50.66	12.79	-37.9	-39.7	15.6	0.00e+00	0	54	0	288358400	47	4425
2026-01-07 21:59:20.18	50.82	12.85	-38.0	-39.8	15.5	0.00e+00	0	54	0	291504128	47	4474
2026-01-07 21:59:21.19	50.99	12.90	-38.1	-39.9	15.4	0.00e+00	0	54	0	294649856	47	4529
2026-01-07 21:59:22.20	51.16	12.95	-38.1	-40.0	15.3	0.00e+00	0	54	0	297795584	47	4557
2026-01-07 21:59:23.21	51.33	13.01	-38.1	-39.9	15.4	0.00e+00	0	54	0	300941312	47	4538
2026-01-07 21:59:24.22	51.49	13.06	-38.0	-39.9	15.4	7.00e-07	0	55	0	304087040	47	4501
2026-01-07 21:59:25.23	51.66	13.11	-38.1	-39.9	15.4	0.00e+00	0	55	0	307232768	47	4533
2026-01-07 21:59:26.24	51.83	13.16	-38.0	-39.9	15.5	0.00e+00	0	55	0	310378496	47	4494
2026-01-07 21:59:27.25	52.00	13.22	-38.0	-39.8	15.5	0.00e+00	0	55	0	313524224	47	4458
2026-01-07 21:59:28.26	52.18	13.27	-38.0	-39.8	15.5	0.00e+00	0	55	0	316669952	47	4470
2026-01-07 21:59:29.27	52.35	13.32	-38.0	-39.8	15.5	0.00e+00	0	55	0	319815680	47	4467
2026-01-07 21:59:30.28	52.52	13.37	-38.0	-39.8	15.5	0.00e+00	0	55	0	322961408	47	4484
2026-01-07 21:59:31.29	52.69	13.43	-38.0	-39.9	15.5	0.00e+00	0	55	0	326107136	47	4497
2026-01-07 21:59:32.30	52.87	13.48	-38.1	-39.9	15.4	0.00e+00	0	55	0	329252864	47	4520
2026-01-07 21:59:33.31	53.04	13.53	-38.1	-40.0	15.4	0.00e+00	0	55	0	332398592	47	4547
2026-01-07 21:59:34.32	53.21	13.58	-38.2	-40.1	15.3	0.00e+00	0	55	0	335544320	47	4633
2026-01-07 21:59:35.33	53.39	13.63	-38.2	-40.1	15.2	0.00e+00	0	55	0	338690048	47	4629
2026-01-07 21:59:36.34	53.57	13.69	-38.2	-40.1	15.2	0.00e+00	0	55	0	341835776	47	4620
2026-01-07 21:59:37.35	53.74	13.74	-38.3	-40.2	15.2	0.00e+00	0	55	0	344981504	47	4672
2026-01-07 21:59:38.36	53.92	13.79	-38.3	-40.2	15.2	0.00e+00	0	55	0	348127232	47	4695
2026-01-07 21:59:39.37	54.10	13.84	-38.3	-40.2	15.2	0.00e+00	0	54	0	351272960	47	4678
2026-01-07 21:59:40.38	54.28	13.89	-38.3	-40.2	15.2	0.00e+00	0	54	0	354418688	47	4658
2026-01-07 21:59:41.38	54.45	13.94	-38.2	-40.0	15.4	0.00e+00	0	55	0	357564416	47	4578
2026-01-07 21:59:42.39	54.63	13.99	-38.1	-40.0	15.4	0.00e+00	0	55	0	360710144	47	4555
2026-01-07 21:59:43.41	54.81	14.04	-38.1	-40.0	15.4	0.00e+00	0	55	0	363855872	47	4551
2026-01-07 21:59:44.41	54.99	14.09	-38.1	-39.9	15.5	0.00e+00	0	55	0	367001600	47	4511
2026-01-07 21:59:45.43	55.18	14.14	-38.0	-39.9	15.5	0.00e+00	0	55	0	370147328	47	4494
2026-01-07 21:59:46.44	55.36	14.19	-38.0	-39.8	15.5	0.00e+00	0	55	0	373293056	47	4493
2026-01-07 21:59:47.45	55.54	14.24	-38.0	-39.8	15.6	0.00e+00	0	55	0	376438784	47	4458
2026-01-07 21:59:48.45	55.72	14.29	-38.0	-39.9	15.5	0.00e+00	0	55	0	379584512	47	4499
2026-01-07 21:59:49.46	55.91	14.34	-38.1	-39.9	15.5	0.00e+00	0	55	0	382730240	47	4516
2026-01-07 21:59:50.47	56.09	14.39	-38.1	-40.0	15.4	0.00e+00	0	55	0	385875968	47	4552
2026-01-07 21:59:51.48	56.27	14.44	-38.1	-40.0	15.4	0.00e+00	0	55	0	389021696	47	4573
2026-01-07 21:59:52.49	56.46	14.49	-38.2	-40.0	15.4	0.00e+00	0	55	0	392167424	47	4583
2026-01-07 21:59:53.50	56.65	14.54	-38.2	-40.0	15.4	0.00e+00	0	55	0	395313152	47	4578
2026-01-07 21:59:54.51	56.83	14.59	-38.1	-40.0	15.4	0.00e+00	0	55	0	398458880	47	4551
2026-01-07 21:59:55.52	57.02	14.64	-38.1	-39.9	15.5	0.00e+00	0	55	0	401604608	47	4514
2026-01-07 21:59:56.53	57.21	14.69	-38.0	-39.8	15.6	0.00e+00	0	55	0	404750336	47	4459
2026-01-07 21:59:57.54	57.40	14.73	-37.9	-39.7	15.7	0.00e+00	0	55	0	407896064	47	4414
2026-01-07 21:59:58.55	57.59	14.78	-38.0	-39.8	15.6	0.00e+00	0	55	0	411041792	47	4446
2026-01-07 21:59:59.56	57.78	14.83	-38.0	-39.8	15.6	0.00e+00	0	55	0	414187520	47	4448
2026-01-07 22:00:00.56	57.96	14.88	-37.9	-39.7	15.7	0.00e+00	0	55	0	417333248	47	4424
2026-01-07 22:00:01.57	58.16	14.92	-37.9	-39.7	15.7	0.00e+00	0	55	0	420478976	47	4414
2026-01-07 22:00:02.59	58.35	14.97	-37.9	-39.6	15.7	0.00e+00	0	55	0	423624704	47	4383
2026-01-07 22:00:03.59	58.54	15.02	-37.9	-39.7	15.7	0.00e+00	0	55	0	427819008	47	4402
2026-01-07 22:00:04.60	58.73	15.06	-37.9	-39.7	15.7	0.00e+00	0	55	0	430964736	47	4432
2026-01-07 22:00:05.61	58.92	15.11	-38.0	-39.8	15.6	0.00e+00	0	55	0	434110464	47	4452
2026-01-07 22:00:06.62	59.12	15.16	-38.0	-39.8	15.6	0.00e+00	0	55	0	436207616	47	4452
2026-01-07 22:00:07.63	59.31	15.20	-37.9	-39.7	15.6	0.00e+00	0	55	0	439353344	47	4440
2026-01-07 22:00:08.64	59.51	15.25	-38.0	-39.8	15.6	0.00e+00	0	55	0	443547648	47	4470
2026-01-07 22:00:09.66	59.71	15.30	-38.0	-39.9	15.5	0.00e+00	0	55	0	446693376	47	4496
2026-01-07 22:00:10.67	59.90	15.34	-38.0	-39.8	15.6	0.00e+00	0	55	0	449839104	47	4449
2026-01-07 22:00:11.68	60.10	15.39	-37.8	-39.6	15.8	0.00e+00	0	55	0	452984832	47	4370
2026-01-07 22:00:12.69	60.30	15.43	-37.8	-39.6	15.8	0.00e+00	0	55	0	456130560	47	4367
2026-01-07 22:00:13.70	60.49	15.48	-37.8	-39.5	15.8	0.00e+00	0	55	0	459276288	47	4328
2026-01-07 22:00:14.71	60.69	15.52	-37.7	-39.4	15.9	0.00e+00	0	55	0	462422016	47	4290
2026-01-07 22:00:15.72	60.89	15.56	-37.7	-39.5	15.9	0.00e+00	0	55	0	465567744	47	4298
2026-01-07 22:00:16.73	61.09	15.61	-37.8	-39.6	15.8	0.00e+00	0	55	0	468713472	47	4355
2026-01-07 22:00:17.74	61.29	15.65	-37.9	-39.7	15.7	0.00e+00	0	55	0	471859200	47	4398
2026-01-07 22:00:18.75	61.49	15.70	-37.8	-39.6	15.8	0.00e+00	0	55	0	475004928	47	4341
2026-01-07 22:00:19.76	61.69	15.74	-37.8	-39.5	15.9	0.00e+00	0	55	0	478150656	47	4326
2026-01-07 22:00:20.77	61.90	15.78	-37.7	-39.5	15.9	0.00e+00	0	55	0	481296384	47	4308
2026-01-07 22:00:21.78	62.10	15.82	-37.7	-39.4	15.9	0.00e+00	0	55	0	484442112	47	4290
2026-01-07 22:00:22.79	62.30	15.87	-37.7	-39.5	15.9	0.00e+00	0	55	0	487587840	47	4317
2026-01-07 22:00:23.80	62.51	15.91	-37.7	-39.5	15.9	0.00e+00	0	55	0	490733568	47	4300
2026-01-07 22:00:24.81	62.71	15.95	-37.5	-39.3	16.1	0.00e+00	0	55	0	493879296	47	4196
2026-01-07 22:00:25.82	62.91	15.99	-37.4	-39.1	16.2	0.00e+00	0	55	0	497025024	46	4368
2026-01-07 22:00:26.83	63.12	16.03	-37.5	-39.1	16.2	0.00e+00	0	55	0	500170752	46	4389
2026-01-07 22:00:27.84	63.33	16.08	-37.5	-39.2	16.1	0.00e+00	0	55	0	503316480	46	4424
2026-01-07 22:00:28.84	63.53	16.12	-37.5	-39.1	16.1	0.00e+00	0	55	0	506462208	46	4390
2026-01-07 22:00:29.85	63.74	16.16	-37.5	-39.2	16.1	0.00e+00	0	55	0	509607936	46	4395
2026-01-07 22:00:30.86	63.94	16.20	-37.7	-39.5	15.8	0.00e+00	0	55	0	512753664	46	4574
2026-01-07 22:00:31.87	64.15	16.24	-37.7	-39.5	15.8	0.00e+00	0	55	0	515899392	46	4557
2026-01-07 22:00:32.87	64.36	16.28	-37.7	-39.5	15.8	0.00e+00	0	55	0	519045120	46	4560
2026-01-07 22:00:33.88	64.57	16.32	-37.6	-39.4	15.9	0.00e+00	0	55	0	522190848	46	4495
2026-01-07 22:00:34.89	64.78	16.36	-37.6	-39.4	15.8	0.00e+00	0	55	0	525336576	46	4526
2026-01-07 22:00:35.89	64.99	16.39	-37.7	-39.5	15.7	0.00e+00	0	55	0	528482304	46	4560
2026-01-07 22:00:36.89	65.20	16.43	-37.6	-39.4	15.7	0.00e+00	0	55	0	531628032	46	4528
2026-01-07 22:00:37.90	65.41	16.47	-37.6	-39.3	15.8	0.00e+00	0	55	0	534773760	46	4475
2026-01-07 22:00:38.90	65.62	16.51	-37.5	-39.3	15.8	0.00e+00	0	55	0	537919488	46	4448
2026-01-07 22:00:39.91	65.83	16.55	-37.5	-39.3	15.8	0.00e+00	0	55	0	541065216	46	4453
2026-01-07 22:00:40.91	66.04	16.58	-37.6	-39.5	15.5	0.00e+00	0	55	0	544210944	46	4553
2026-01-07 22:00:41.91	66.25	16.62	-37.6	-39.4	15.6	0.00e+00	0	55	0	547356672	46	4535
2026-01-07 22:00:42.91	66.46	16.66	-37.7	-39.6	15.3	0.00e+00	0	55	0	550502400	46	4625
2026-01-07 22:00:43.91	66.68	16.69	-37.6	-39.5	15.5	0.00e+00	0	55	0	553648128	46	4546
2026-01-07 22:00:44.91	66.89	16.73	-37.6	-39.4	15.4	0.00e+00	0	55	0	556793856	46	4532
2026-01-07 22:00:45.91	67.10	16.76	-37.6	-39.4	15.4	0.00e+00	0	55	0	559939584	46	4535
2026-01-07 22:00:46.91	67.32	16.80	-37.7	-39.6	15.2	0.00e+00	0	55	0	563085312	46	4601
2026-01-07 22:00:47.92	67.53	16.83	-37.7	-39.7	15.1	0.00e+00	0	55	0	566231040	46	4653
2026-01-07 22:00:48.93	67.75	16.87	-37.8	-39.8	14.9	7.00e-07	0	55	0	569376768	46	4706
2026-01-07 22:00:49.93	67.96	16.90	-37.9	-39.9	14.6	7.00e-07	0	56	0	572522496	46	4772
2026-01-07 22:00:50.94	68.18	16.93	-37.9	-40.0	14.4	0.00e+00	0	55	0	575668224	46	4848
2026-01-07 22:00:51.95	68.40	16.97	-38.0	-40.2	14.1	0.00e+00	0	55	0	578813952	46	4931
2026-01-07 22:00:52.95	68.62	17.00	-38.0	-40.2	14.0	3.00e-06	0	56	0	581959680	46	4963
2026-01-07 22:00:53.94	68.83	17.03	-38.0	-40.3	13.8	5.30e-06	0	55	0	585105408	46	4999
2026-01-07 22:00:54.94	69.05	17.07	-38.0	-40.4	13.5	8.30e-06	0	55	0	588251136	46	5071
2026-01-07 22:00:55.94	69.27	17.10	-38.1	-40.6	13.1	2.36e-05	0	55	0	591396864	46	5181
2026-01-07 22:00:56.95	69.49	17.13	-38.2	-40.8	12.8	4.73e-05	0	55	0	594542592	47	5019
2026-01-07 22:00:57.95	69.71	17.16	-38.3	-41.0	12.4	1.15e-04	0	55	0	597688320	47	5154
2026-01-07 22:00:58.95	69.93	17.19	-38.4	-41.2	12.1	2.30e-04	0	55	0	600834048	47	5279
2026-01-07 22:00:59.95	70.15	17.22	-38.5	-41.5	11.7	4.75e-04	0	55	0	602931200	47	5423
2026-01-07 22:01:00.95	70.37	17.25	-38.6	-41.7	11.5	6.67e-04	0	56	0	606076928	47	5529
2026-01-07 22:01:01.96	70.59	17.28	-38.6	-41.8	11.3	1.02e-03	0	55	0	609222656	47	5607
2026-01-07 22:01:02.96	70.81	17.31	-38.6	-41.9	11.1	1.65e-03	0	56	0	612368384	47	5683
2026-01-07 22:01:03.97	71.03	17.34	-38.7	-42.1	10.8	2.29e-03	0	56	0	615514112	47	5822
2026-01-07 22:01:04.97	71.26	17.37	-38.8	-42.2	10.7	3.05e-03	0	56	0	618659840	48	5560
2026-01-07 22:01:05.98	71.48	17.40	-38.8	-42.3	10.5	3.26e-03	0	56	0	621805568	48	5614
2026-01-07 22:01:06.99	71.71	17.43	-38.9	-42.4	10.3	4.82e-03	0	56	0	624951296	48	5714
2026-01-07 22:01:07.99	71.93	17.45	-38.9	-42.6	10.1	6.42e-03	0	56	0	628097024	48	5827
2026-01-07 22:01:09.00	72.16	17.48	-38.9	-42.5	10.2	6.80e-03	0	56	0	631242752	48	5777
2026-01-07 22:01:10.01	72.38	17.51	-39.0	-42.7	10.0	7.95e-03	0	56	0	634388480	48	5884
2026-01-07 22:01:11.02	72.61	17.54	-39.0	-42.8	9.9	9.03e-03	0	55	0	637534208	48	5953
2026-01-07 22:01:12.02	72.83	17.56	-39.0	-42.8	9.9	9.39e-03	0	56	0	640679936	48	5947
2026-01-07 22:01:13.03	73.06	17.59	-38.9	-42.5	10.3	5.82e-03	0	56	0	643825664	48	5728
2026-01-07 22:01:14.04	73.29	17.61	-38.8	-42.2	10.5	4.34e-03	0	56	0	646971392	48	5581
2026-01-07 22:01:15.05	73.52	17.64	-38.8	-42.2	10.5	3.98e-03	0	56	0	650117120	48	5580
2026-01-07 22:01:16.05	73.74	17.66	-38.8	-42.3	10.4	4.34e-03	0	56	0	653262848	48	5635
2026-01-07 22:01:17.07	73.98	17.69	-38.9	-42.4	10.4	4.28e-03	0	56	0	656408576	48	5660
2026-01-07 22:01:18.07	74.20	17.71	-38.9	-42.5	10.4	4.71e-03	0	56	0	659554304	48	5724
2026-01-07 22:01:19.08	74.43	17.73	-39.0	-42.6	10.3	5.06e-03	0	56	0	662700032	48	5819
2026-01-07 22:01:20.09	74.66	17.76	-39.0	-42.5	10.4	5.35e-03	0	56	0	666894336	48	5754
2026-01-07 22:01:21.10	74.89	17.78	-39.0	-42.4	10.5	4.21e-03	0	56	0	670040064	48	5705
2026-01-07 22:01:22.11	75.12	17.80	-39.0	-42.4	10.6	3.27e-03	0	56	0	672137216	48	5697
2026-01-07 22:01:23.11	75.35	17.82	-38.9	-42.2	10.8	2.50e-03	0	56	0	675282944	48	5561
2026-01-07 22:01:24.12	75.58	17.84	-38.8	-42.0	11.0	1.81e-03	0	56	0	678428672	48	5415
2026-01-07 22:01:25.13	75.81	17.86	-38.8	-42.0	11.0	1.60e-03	0	55	0	681574400	48	5441
2026-01-07 22:01:26.13	76.04	17.88	-38.8	-42.0	11.0	1.71e-03	0	56	0	684720128	48	5451
2026-01-07 22:01:27.14	76.28	17.90	-38.9	-42.1	11.0	1.75e-03	0	56	0	688914432	48	5519
2026-01-07 22:01:28.15	76.51	17.92	-38.9	-42.1	11.1	1.74e-03	0	56	0	692060160	48	5520
2026-01-07 22:01:29.16	76.74	17.94	-38.9	-42.1	11.1	1.65e-03	0	56	0	695205888	48	5519
2026-01-07 22:01:30.17	76.98	17.96	-38.8	-42.0	11.3	1.29e-03	0	56	0	697303040	48	5420
2026-01-07 22:01:31.18	77.21	17.98	-38.7	-41.7	11.4	9.43e-04	0	56	0	700448768	48	5274
2026-01-07 22:01:32.18	77.44	18.00	-38.6	-41.7	11.4	8.80e-04	0	56	0	703594496	48	5250
2026-01-07 22:01:33.18	77.67	18.01	-38.6	-41.7	11.4	9.99e-04	0	56	0	706740224	48	5269
2026-01-07 22:01:34.18	77.90	18.03	-38.7	-41.8	11.3	1.11e-03	0	56	0	709885952	48	5319
2026-01-07 22:01:35.19	78.14	18.05	-38.7	-41.9	11.2	1.50e-03	0	56	0	713031680	48	5370
2026-01-07 22:01:36.19	78.37	18.06	-38.6	-41.8	11.3	1.25e-03	0	56	0	717225984	48	5306
2026-01-07 22:01:37.20	78.61	18.08	-38.6	-41.7	11.3	1.22e-03	0	56	0	719323136	48	5266
2026-01-07 22:01:38.20	78.84	18.09	-38.7	-41.8	11.2	1.29e-03	0	56	0	722468864	48	5334
2026-01-07 22:01:39.20	79.07	18.11	-38.7	-41.8	11.1	1.48e-03	0	56	0	725614592	48	5337
2026-01-07 22:01:40.20	79.31	18.12	-38.7	-41.9	11.1	1.64e-03	0	56	0	728760320	48	5356
2026-01-07 22:01:41.20	79.54	18.13	-38.6	-41.7	11.3	1.23e-03	0	56	0	731906048	48	5250
2026-01-07 22:01:42.21	79.78	18.15	-38.6	-41.8	11.3	1.18e-03	0	56	0	735051776	48	5284
2026-01-07 22:01:43.21	80.01	18.16	-38.5	-41.4	11.7	7.96e-04	0	56	0	738197504	48	5091
2026-01-07 22:01:44.21	80.24	18.17	-38.4	-41.2	12.1	3.75e-04	0	56	0	741343232	48	4980
2026-01-07 22:01:45.21	80.48	18.18	-38.4	-41.1	12.4	1.70e-04	0	56	0	744488960	48	4921
2026-01-07 22:01:46.22	80.71	18.19	-38.4	-41.1	12.7	9.30e-05	0	56	0	747634688	48	4875
2026-01-07 22:01:47.21	80.95	18.20	-38.5	-41.1	12.8	5.72e-05	0	56	0	750780416	48	4898
2026-01-07 22:01:48.22	81.18	18.21	-38.5	-41.0	13.0	4.50e-05	0	56	0	753926144	48	4866
2026-01-07 22:01:49.23	81.42	18.22	-38.4	-40.7	13.5	1.37e-05	0	56	0	757071872	48	4687
2026-01-07 22:01:50.23	81.66	18.23	-38.2	-40.5	13.9	1.50e-06	0	56	0	760217600	48	4550
2026-01-07 22:01:51.24	81.89	18.24	-38.3	-40.5	14.0	2.20e-06	0	56	0	763363328	48	4565
2026-01-07 22:01:52.25	82.13	18.25	-38.3	-40.5	14.0	7.00e-07	0	56	0	766509056	48	4579
2026-01-07 22:01:53.26	82.37	18.26	-38.3	-40.5	13.9	2.20e-06	0	56	0	769654784	48	4588
2026-01-07 22:01:54.26	82.61	18.27	-38.4	-40.6	13.8	5.30e-06	0	56	0	772800512	48	4648
2026-01-07 22:01:55.28	82.85	18.27	-38.4	-40.7	13.8	6.10e-06	0	56	0	775946240	48	4658
2026-01-07 22:01:56.28	83.08	18.28	-38.5	-40.8	13.5	1.14e-05	0	56	0	779091968	48	4755
2026-01-07 22:01:57.29	83.32	18.29	-38.5	-40.8	13.6	8.30e-06	0	56	0	782237696	48	4736
2026-01-07 22:01:58.30	83.56	18.29	-38.4	-40.7	13.6	5.30e-06	0	56	0	785383424	48	4685
2026-01-07 22:01:59.31	83.80	18.30	-38.3	-40.6	13.7	6.80e-06	0	56	0	788529152	48	4637
2026-01-07 22:02:00.32	84.04	18.30	-38.1	-40.3	13.9	2.20e-06	0	56	0	791674880	48	4482
2026-01-07 22:02:01.33	84.28	18.31	-37.9	-40.1	13.9	4.50e-06	0	56	0	794820608	47	4627
2026-01-07 22:02:02.34	84.51	18.31	-37.9	-40.2	13.7	4.50e-06	0	56	0	797966336	47	4655
2026-01-07 22:02:03.35	84.75	18.31	-37.9	-40.3	13.5	9.10e-06	0	56	0	801112064	47	4733
2026-01-07 22:02:04.36	84.99	18.32	-38.0	-40.5	13.2	1.75e-05	0	56	0	804257792	47	4857
2026-01-07 22:02:05.37	85.23	18.32	-38.1	-40.6	13.0	3.05e-05	0	56	0	807403520	47	4922
2026-01-07 22:02:06.38	85.47	18.32	-38.2	-40.8	12.9	5.26e-05	0	56	0	810549248	47	4995
2026-01-07 22:02:07.39	85.71	18.32	-38.4	-41.0	12.6	8.31e-05	0	56	0	813694976	47	5152
2026-01-07 22:02:08.40	85.95	18.32	-38.5	-41.2	12.4	1.40e-04	0	56	0	816840704	47	5263
2026-01-07 22:02:09.41	86.19	18.32	-38.5	-41.2	12.4	1.74e-04	0	56	0	819986432	47	5275
2026-01-07 22:02:10.41	86.42	18.32	-38.5	-41.3	12.4	1.58e-04	0	56	0	823132160	47	5286
2026-01-07 22:02:11.42	86.66	18.32	-38.3	-41.0	12.7	9.30e-05	0	56	0	826277888	47	5105
2026-01-07 22:02:12.43	86.90	18.32	-38.3	-40.9	12.7	8.01e-05	0	56	0	829423616	47	5094
2026-01-07 22:02:13.44	87.14	18.32	-38.3	-40.9	12.8	6.94e-05	0	56	0	832569344	47	5063
2026-01-07 22:02:14.45	87.38	18.32	-38.4	-40.9	12.8	5.41e-05	0	56	0	836763648	47	5098
2026-01-07 22:02:15.46	87.62	18.31	-38.5	-41.1	12.7	6.25e-05	0	56	0	838860800	47	5180
2026-01-07 22:02:16.47	87.86	18.31	-38.4	-40.9	13.0	5.41e-05	0	56	0	842006528	47	5067
2026-01-07 22:02:17.48	88.10	18.31	-38.4	-40.8	13.2	1.75e-05	0	56	0	845152256	47	5010
2026-01-07 22:02:18.49	88.34	18.30	-38.3	-40.6	13.6	9.10e-06	0	56	0	848297984	47	4887
2026-01-07 22:02:19.50	88.57	18.30	-38.2	-40.4	14.0	8.30e-06	0	56	0	852492288	47	4782
2026-01-07 22:02:20.50	88.81	18.29	-38.2	-40.4	14.1	1.50e-06	0	56	0	855638016	47	4777
2026-01-07 22:02:21.51	89.05	18.29	-38.2	-40.3	14.3	0.00e+00	0	56	0	858783744	47	4713
2026-01-07 22:02:22.52	89.29	18.28	-38.2	-40.3	14.3	1.50e-06	0	56	0	861929472	47	4716
2026-01-07 22:02:23.53	89.53	18.27	-38.2	-40.3	14.4	1.50e-06	0	56	0	864026624	47	4730
2026-01-07 22:02:24.54	89.76	18.27	-38.0	-40.0	14.7	0.00e+00	0	56	0	868220928	47	4590
2026-01-07 22:02:25.55	90.00	18.26	-37.8	-39.7	15.0	0.00e+00	0	56	0	871366656	47	4435
2026-01-07 22:02:26.56	90.24	18.25	-37.6	-39.5	15.3	0.00e+00	0	56	0	874512384	47	4325
2026-01-07 22:02:27.57	90.48	18.24	-37.5	-39.3	15.5	0.00e+00	0	56	0	877658112	47	4233
2026-01-07 22:02:28.58	90.72	18.24	-37.5	-39.3	15.7	0.00e+00	0	56	0	880803840	46	4444
2026-01-07 22:02:29.58	90.95	18.23	-37.4	-39.2	15.8	0.00e+00	0	56	0	883949568	46	4408
2026-01-07 22:02:30.60	91.19	18.22	-37.5	-39.3	15.8	0.00e+00	0	56	0	887095296	46	4444
2026-01-07 22:02:31.61	91.43	18.21	-37.5	-39.3	15.9	0.00e+00	0	56	0	890241024	46	4447
2026-01-07 22:02:32.61	91.66	18.20	-37.6	-39.3	15.9	0.00e+00	0	56	0	893386752	46	4468
2026-01-07 22:02:33.61	91.90	18.18	-37.5	-39.2	16.0	0.00e+00	0	56	0	896532480	46	4431
2026-01-07 22:02:34.62	92.14	18.17	-37.4	-39.0	16.2	0.00e+00	0	56	0	899678208	46	4336
2026-01-07 22:02:35.63	92.37	18.16	-37.4	-39.1	16.2	0.00e+00	0	56	0	902823936	46	4350
2026-01-07 22:02:36.64	92.61	18.15	-37.3	-39.0	16.3	0.00e+00	0	56	0	905969664	46	4308
2026-01-07 22:02:37.64	92.84	18.13	-37.3	-38.9	16.4	0.00e+00	0	56	0	909115392	46	4291
2026-01-07 22:02:38.65	93.08	18.12	-37.2	-38.8	16.6	0.00e+00	0	56	0	912261120	46	4201
2026-01-07 22:02:39.66	93.32	18.11	-37.1	-38.7	16.7	0.00e+00	0	56	0	915406848	46	4165
2026-01-07 22:02:40.66	93.55	18.09	-37.1	-38.6	16.8	0.00e+00	0	56	0	918552576	46	4139
2026-01-07 22:02:41.67	93.79	18.08	-37.1	-38.7	16.7	0.00e+00	0	56	0	921698304	46	4182
2026-01-07 22:02:42.68	94.02	18.06	-37.1	-38.7	16.8	0.00e+00	0	56	0	924844032	46	4162
2026-01-07 22:02:43.68	94.25	18.05	-37.1	-38.7	16.7	0.00e+00	0	56	0	927989760	46	4172
2026-01-07 22:02:44.68	94.49	18.03	-37.2	-38.8	16.6	0.00e+00	0	56	0	931135488	46	4220
2026-01-07 22:02:45.69	94.72	18.01	-37.3	-38.9	16.5	0.00e+00	0	56	0	933232640	46	4252
2026-01-07 22:02:46.69	94.95	18.00	-37.2	-38.8	16.6	0.00e+00	0	56	0	936378368	46	4211
2026-01-07 22:02:47.69	95.19	17.98	-37.2	-38.8	16.6	0.00e+00	0	56	0	940572672	46	4237
2026-01-07 22:02:48.69	95.42	17.96	-37.1	-38.7	16.7	0.00e+00	0	56	0	943718400	46	4183
2026-01-07 22:02:49.69	95.65	17.94	-37.1	-38.7	16.7	0.00e+00	0	56	0	946864128	46	4179
2026-01-07 22:02:50.70	95.88	17.92	-37.2	-38.8	16.7	0.00e+00	0	56	0	950009856	46	4195
2026-01-07 22:02:51.71	96.12	17.90	-37.1	-38.6	16.8	0.00e+00	0	56	0	953155584	46	4135
2026-01-07 22:02:52.71	96.35	17.89	-37.1	-38.6	16.8	0.00e+00	0	56	0	956301312	46	4138
2026-01-07 22:02:53.72	96.58	17.86	-37.1	-38.6	16.8	0.00e+00	0	56	0	958398464	46	4130
2026-01-07 22:02:54.73	96.81	17.84	-37.1	-38.6	16.8	0.00e+00	0	56	0	961544192	46	4145
2026-01-07 22:02:55.73	97.04	17.82	-37.1	-38.6	16.8	0.00e+00	0	56	0	964689920	46	4121
2026-01-07 22:02:56.74	97.27	17.80	-37.1	-38.7	16.8	0.00e+00	0	56	0	968884224	46	4174
2026-01-07 22:02:57.75	97.50	17.78	-37.2	-38.8	16.7	0.00e+00	0	56	0	972029952	46	4209
2026-01-07 22:02:58.75	97.73	17.76	-37.2	-38.8	16.7	0.00e+00	0	56	0	975175680	46	4194
2026-01-07 22:02:59.76	97.96	17.73	-37.2	-38.8	16.7	0.00e+00	0	56	0	978321408	46	4215
2026-01-07 22:03:00.77	98.19	17.71	-37.3	-38.9	16.5	0.00e+00	0	56	0	980418560	46	4277
2026-01-07 22:03:01.77	98.42	17.69	-37.4	-39.0	16.5	0.00e+00	0	56	0	983564288	46	4301
2026-01-07 22:03:02.78	98.65	17.66	-37.5	-39.1	16.4	0.00e+00	0	56	0	986710016	46	4371
2026-01-07 22:03:03.79	98.88	17.64	-37.4	-39.0	16.5	0.00e+00	0	56	0	989855744	46	4334
2026-01-07 22:03:04.79	99.11	17.61	-37.3	-38.9	16.5	0.00e+00	0	56	0	994050048	46	4274
2026-01-07 22:03:05.80	99.33	17.59	-37.3	-38.9	16.6	0.00e+00	0	56	0	997195776	46	4263
2026-01-07 22:03:06.81	99.56	17.56	-37.2	-38.8	16.7	0.00e+00	0	56	0	1000341504	46	4232
2026-01-07 22:03:07.81	99.79	17.54	-37.3	-38.9	16.6	0.00e+00	0	56	0	1003487232	46	4260
2026-01-07 22:03:08.81	100.01	17.51	-37.3	-38.9	16.6	0.00e+00	0	56	0	1005584384	46	4251
2026-01-07 22:03:09.82	100.24	17.48	-37.3	-38.9	16.6	0.00e+00	0	56	0	1008730112	46	4266
2026-01-07 22:03:10.82	100.46	17.46	-37.3	-38.8	16.6	0.00e+00	0	56	0	1011875840	46	4239
2026-01-07 22:03:11.83	100.69	17.43	-37.2	-38.8	16.7	0.00e+00	0	56	0	1015021568	46	4217
2026-01-07 22:03:12.83	100.91	17.40	-37.1	-38.7	16.8	0.00e+00	0	56	0	1018167296	46	4149
2026-01-07 22:03:13.83	101.14	17.37	-37.0	-38.6	16.8	0.00e+00	0	56	0	1021313024	46	4117
2026-01-07 22:03:14.83	101.36	17.34	-37.1	-38.7	16.8	0.00e+00	0	56	0	1024458752	46	4154
2026-01-07 22:03:15.83	101.58	17.31	-37.1	-38.6	16.9	0.00e+00	0	56	0	1027604480	46	4124
2026-01-07 22:03:16.84	101.81	17.28	-37.1	-38.6	16.8	0.00e+00	0	56	0	1030750208	45	4372
2026-01-07 22:03:17.84	102.03	17.26	-37.1	-38.7	16.7	0.00e+00	0	56	0	1033895936	45	4420
2026-01-07 22:03:18.85	102.25	17.22	-37.2	-38.8	16.7	0.00e+00	0	56	0	1037041664	45	4446
2026-01-07 22:03:19.86	102.47	17.19	-37.2	-38.8	16.7	0.00e+00	0	56	0	1040187392	45	4458
2026-01-07 22:03:20.87	102.70	17.16	-37.2	-38.8	16.6	0.00e+00	0	56	0	1043333120	45	4485
2026-01-07 22:03:21.88	102.92	17.13	-37.3	-38.9	16.6	0.00e+00	0	56	0	1046478848	45	4511
2026-01-07 22:03:22.88	103.14	17.10	-37.3	-39.0	16.5	0.00e+00	0	56	0	1049624576	45	4555
2026-01-07 22:03:23.89	103.36	17.07	-37.4	-39.0	16.4	0.00e+00	0	56	0	1052770304	45	4591
2026-01-07 22:03:24.89	103.58	17.03	-37.3	-39.0	16.5	0.00e+00	0	56	0	1055916032	45	4553
2026-01-07 22:03:25.90	103.80	17.00	-37.2	-38.8	16.7	0.00e+00	0	56	0	1059061760	45	4472
2026-01-07 22:03:26.90	104.02	16.97	-37.3	-38.9	16.6	0.00e+00	0	56	0	1062207488	45	4500
2026-01-07 22:03:27.91	104.23	16.93	-37.3	-38.9	16.5	0.00e+00	0	56	0	1065353216	45	4524
2026-01-07 22:03:28.91	104.45	16.90	-37.2	-38.8	16.6	0.00e+00	0	56	0	1068498944	45	4484
2026-01-07 22:03:29.92	104.67	16.87	-37.2	-38.7	16.7	0.00e+00	0	56	0	1071644672	45	4434
2026-01-07 22:03:30.93	104.89	16.83	-37.2	-38.8	16.6	0.00e+00	0	56	0	1074790400	45	4475
2026-01-07 22:03:31.94	105.10	16.80	-37.2	-38.8	16.6	0.00e+00	0	56	0	1077936128	45	4480
2026-01-07 22:03:32.95	105.32	16.76	-37.3	-38.9	16.6	0.00e+00	0	56	0	1081081856	45	4507
2026-01-07 22:03:33.96	105.54	16.72	-37.2	-38.9	16.6	0.00e+00	0	56	0	1084227584	45	4495
2026-01-07 22:03:34.96	105.75	16.69	-37.2	-38.8	16.7	0.00e+00	0	56	0	1087373312	45	4479
2026-01-07 22:03:35.97	105.97	16.65	-37.2	-38.8	16.6	0.00e+00	0	56	0	1090519040	45	4493
2026-01-07 22:03:36.98	106.18	16.62	-37.3	-38.9	16.5	0.00e+00	0	56	0	1093664768	45	4535
2026-01-07 22:03:37.98	106.39	16.58	-37.2	-38.9	16.6	0.00e+00	0	56	0	1096810496	45	4496
2026-01-07 22:03:38.99	106.61	16.54	-37.3	-38.9	16.5	0.00e+00	0	56	0	1099956224	45	4527
2026-01-07 22:03:40.00	106.82	16.50	-37.3	-39.0	16.5	0.00e+00	0	56	0	1103101952	45	4549
2026-01-07 22:03:41.01	107.03	16.46	-37.4	-39.0	16.5	0.00e+00	0	56	0	1106247680	45	4558
2026-01-07 22:03:42.02	107.25	16.43	-37.4	-39.0	16.4	0.00e+00	0	56	0	1109393408	45	4594
2026-01-07 22:03:43.02	107.46	16.39	-37.5	-39.2	16.3	0.00e+00	0	56	0	1112539136	45	4664
2026-01-07 22:03:44.03	107.67	16.35	-37.6	-39.3	16.2	0.00e+00	0	56	0	1115684864	45	4712
2026-01-07 22:03:45.03	107.87	16.31	-37.7	-39.4	16.1	0.00e+00	0	56	0	1118830592	45	4774
2026-01-07 22:03:46.03	108.08	16.27	-37.7	-39.4	16.1	0.00e+00	0	56	0	1121976320	45	4764
2026-01-07 22:03:47.04	108.29	16.23	-37.8	-39.5	16.0	0.00e+00	0	56	0	1125122048	46	4579
2026-01-07 22:03:48.05	108.50	16.19	-37.8	-39.5	16.0	0.00e+00	0	56	0	1128267776	46	4580
2026-01-07 22:03:49.05	108.71	16.15	-37.8	-39.5	16.0	0.00e+00	0	56	0	1131413504	46	4590
2026-01-07 22:03:50.06	108.92	16.11	-37.7	-39.5	16.0	0.00e+00	0	56	0	1134559232	46	4551
2026-01-07 22:03:51.06	109.12	16.07	-37.7	-39.4	16.0	0.00e+00	0	56	0	1137704960	46	4542
2026-01-07 22:03:52.06	109.33	16.03	-37.6	-39.3	16.2	0.00e+00	0	56	0	1140850688	46	4470
2026-01-07 22:03:53.07	109.53	15.99	-37.5	-39.2	16.3	0.00e+00	0	56	0	1143996416	46	4415
2026-01-07 22:03:54.08	109.74	15.94	-37.5	-39.2	16.3	0.00e+00	0	56	0	1147142144	46	4405
2026-01-07 22:03:55.08	109.94	15.90	-37.6	-39.3	16.2	0.00e+00	0	57	0	1150287872	46	4466
2026-01-07 22:03:56.09	110.15	15.86	-37.6	-39.3	16.1	0.00e+00	0	56	0	1153433600	46	4477
2026-01-07 22:03:57.09	110.35	15.82	-37.7	-39.4	16.1	0.00e+00	0	56	0	1156579328	46	4529
2026-01-07 22:03:58.10	110.55	15.77	-37.8	-39.5	15.9	0.00e+00	0	56	0	1159725056	46	4579
2026-01-07 22:03:59.10	110.75	15.73	-37.9	-39.7	15.8	0.00e+00	0	56	0	1162870784	46	4666
2026-01-07 22:04:00.11	110.95	15.69	-37.9	-39.7	15.8	0.00e+00	0	56	0	1166016512	46	4652
2026-01-07 22:04:01.11	111.15	15.64	-37.7	-39.6	15.8	1.50e-06	0	56	0	1169162240	46	4644
2026-01-07 22:04:02.12	111.36	15.60	-37.8	-39.6	15.9	3.80e-06	0	56	0	1172307968	46	4606
2026-01-07 22:04:03.12	111.55	15.56	-37.9	-39.7	15.8	0.00e+00	0	56	0	1175453696	46	4673
2026-01-07 22:04:04.13	111.75	15.51	-37.7	-39.4	16.0	0.00e+00	0	56	0	1178599424	46	4531
2026-01-07 22:04:05.14	111.95	15.47	-37.7	-39.4	16.0	0.00e+00	0	56	0	1181745152	46	4542
2026-01-07 22:04:06.14	112.15	15.42	-37.7	-39.4	16.1	0.00e+00	0	56	0	1184890880	46	4504
2026-01-07 22:04:07.13	112.34	15.38	-37.7	-39.4	16.0	0.00e+00	0	56	0	1188036608	46	4542
2026-01-07 22:04:08.14	112.54	15.33	-37.6	-39.3	16.1	7.00e-07	0	56	0	1191182336	46	4447
2026-01-07 22:04:09.14	112.74	15.29	-37.5	-39.3	16.1	5.30e-06	0	56	0	1194328064	45	4722
2026-01-07 22:04:10.15	112.93	15.24	-37.7	-39.4	16.0	0.00e+00	0	56	0	1197473792	45	4788
2026-01-07 22:04:11.16	113.13	15.19	-37.7	-39.5	16.0	4.50e-06	0	56	0	1200619520	45	4822
2026-01-07 22:04:12.17	113.33	15.15	-37.9	-39.7	15.7	0.00e+00	0	56	0	1203765248	46	4656
2026-01-07 22:04:13.18	113.52	15.10	-37.9	-39.7	15.7	0.00e+00	0	56	0	1206910976	46	4679
2026-01-07 22:04:14.19	113.71	15.05	-38.0	-39.8	15.7	0.00e+00	0	56	0	1210056704	46	4713
2026-01-07 22:04:15.19	113.91	15.01	-38.0	-39.9	15.6	0.00e+00	0	56	0	1213202432	46	4776
2026-01-07 22:04:16.20	114.10	14.96	-38.0	-39.8	15.6	0.00e+00	0	56	0	1216348160	46	4756
2026-01-07 22:04:17.21	114.29	14.91	-37.9	-39.7	15.7	0.00e+00	0	56	0	1219493888	46	4689
2026-01-07 22:04:18.22	114.48	14.86	-37.9	-39.7	15.8	0.00e+00	0	56	0	1222639616	46	4662
2026-01-07 22:04:19.22	114.67	14.82	-37.9	-39.7	15.7	0.00e+00	0	56	0	1225785344	46	4691
2026-01-07 22:04:20.23	114.86	14.77	-37.8	-39.6	15.9	0.00e+00	0	56	0	1228931072	46	4609
2026-01-07 22:04:21.24	115.05	14.72	-37.7	-39.5	16.0	0.00e+00	0	56	0	1232076800	46	4546
2026-01-07 22:04:22.25	115.24	14.67	-37.6	-39.3	16.1	0.00e+00	0	56	0	1235222528	46	4486
2026-01-07 22:04:23.26	115.43	14.62	-37.5	-39.2	16.2	0.00e+00	0	57	0	1238368256	46	4402
2026-01-07 22:04:24.27	115.62	14.57	-37.6	-39.3	16.1	0.00e+00	0	56	0	1241513984	46	4467
2026-01-07 22:04:25.28	115.81	14.53	-37.7	-39.4	16.0	0.00e+00	0	56	0	1244659712	46	4536
2026-01-07 22:04:26.29	115.99	14.48	-37.7	-39.4	16.0	0.00e+00	0	57	0	1247805440	46	4518
2026-01-07 22:04:27.29	116.18	14.43	-37.8	-39.5	15.8	0.00e+00	0	56	0	1250951168	46	4589
2026-01-07 22:04:28.29	116.36	14.38	-37.8	-39.6	15.8	0.00e+00	0	56	0	1254096896	46	4633
2026-01-07 22:04:29.30	116.55	14.33	-37.9	-39.7	15.6	7.00e-07	0	56	0	1257242624	46	4696
2026-01-07 22:04:30.30	116.73	14.28	-38.0	-39.7	15.6	5.37e-03	0	56	0	1260388352	46	4705
2026-01-07 22:04:31.31	116.92	14.23	-37.9	-39.8	15.5	8.46e-05	0	56	0	1263534080	46	4742
2026-01-07 22:04:32.32	117.10	14.18	-37.8	-39.8	15.5	1.43e-04	0	56	0	1266679808	46	4725
2026-01-07 22:04:33.33	117.28	14.13	-37.9	-39.7	15.6	1.40e-04	0	56	0	1269825536	46	4696
2026-01-07 22:04:34.34	117.46	14.08	-37.9	-39.7	15.6	5.03e-05	0	56	0	1272971264	46	4701
2026-01-07 22:04:35.35	117.65	14.03	-37.6	-39.6	15.7	1.08e-04	0	56	0	1276116992	46	4625
2026-01-07 22:04:36.36	117.83	13.97	-37.6	-39.4	15.8	1.84e-04	0	57	0	1279262720	45	4780
2026-01-07 22:04:37.37	118.01	13.92	-35.9	-39.2	15.0	4.47e-03	0	56	0	1282408448	43	5247
2026-01-07 22:04:38.37	118.19	13.87	-37.6	-39.5	15.4	1.04e-03	0	56	0	1285554176	45	4834
2026-01-07 22:04:39.38	118.36	13.82	-37.5	-39.4	15.4	2.51e-04	0	56	0	1288699904	45	4810
2026-01-07 22:04:40.38	118.54	13.77	-37.7	-39.5	15.7	2.69e-03	0	56	0	1291845632	45	4861
2026-01-07 22:04:41.39	118.72	13.72	-37.6	-39.5	15.4	3.79e-03	0	57	0	1294991360	45	4856
2026-01-07 22:04:42.40	118.90	13.67	-37.5	-39.6	14.5	4.33e-03	0	56	0	1298137088	45	4905
2026-01-07 22:04:43.41	119.07	13.61	-37.8	-39.7	15.4	3.87e-04	0	57	0	1301282816	46	4683
2026-01-07 22:04:44.42	119.25	13.56	-37.8	-39.7	15.3	4.02e-04	0	56	0	1304428544	46	4658
2026-01-07 22:04:45.43	119.43	13.51	-37.8	-39.7	15.3	4.97e-04	0	56	0	1307574272	46	4705
2026-01-07 22:04:46.44	119.60	13.46	-37.8	-39.7	15.3	9.08e-04	0	56	0	1310720000	46	4677
2026-01-07 22:04:47.45	119.78	13.40	-36.5	-39.8	14.8	1.22e-03	0	56	0	1313865728	44	5280
2026-01-07 22:04:48.46	119.95	13.35	-35.1	-39.5	14.0	7.77e-03	0	56	0	1317011456	43	5450
2026-01-07 22:04:49.46	120.12	13.30	-38.0	-39.9	15.0	1.06e-03	0	56	0	1320157184	46	4814
2026-01-07 22:04:50.46	120.29	13.25	-37.9	-39.8	14.9	5.19e-03	0	56	0	1323302912	46	4755
2026-01-07 22:04:51.47	120.46	13.19	-37.8	-39.8	14.8	1.05e-03	0	56	0	1326448640	46	4744
2026-01-07 22:04:52.48	120.64	13.14	-37.2	-39.6	15.0	6.36e-03	0	56	0	1329594368	45	4926
2026-01-07 22:04:53.49	120.81	13.09	-37.6	-39.6	15.1	8.12e-04	0	56	0	1332740096	45	4885
2026-01-07 22:04:54.49	120.97	13.04	-37.3	-39.6	14.7	4.83e-03	0	57	0	1335885824	45	4879
2026-01-07 22:04:55.50	121.14	12.98	-36.7	-39.5	15.0	2.37e-03	0	57	0	1339031552	45	4817
2026-01-07 22:04:56.51	121.31	12.93	-37.3	-39.5	15.2	1.86e-03	0	57	0	1342177280	45	4839
2026-01-07 22:04:57.52	121.48	12.87	-36.1	-39.3	13.6	2.10e-02	0	56	0	1345323008	43	5302
2026-01-07 22:04:58.52	121.65	12.82	-35.9	-39.2	14.1	7.60e-03	0	57	0	1348468736	42	5556
2026-01-07 22:04:59.53	121.82	12.77	-37.1	-39.6	14.2	1.52e-03	0	57	0	1351614464	45	4888
2026-01-07 22:05:00.53	121.98	12.71	-36.6	-39.5	12.6	4.04e-03	0	57	0	1354760192	42	5733
2026-01-07 22:05:01.54	122.15	12.66	-37.5	-39.6	15.0	7.59e-03	0	56	0	1357905920	45	4885
2026-01-07 22:05:02.55	122.31	12.60	-36.9	-39.7	14.9	8.88e-04	0	56	0	1361051648	46	4670
2026-01-07 22:05:03.56	122.48	12.55	-36.2	-39.4	13.4	1.04e-02	0	56	0	1364197376	43	5379
2026-01-07 22:05:04.57	122.64	12.50	-35.1	-39.4	12.8	4.87e-03	0	57	0	1367343104	43	5392
2026-01-07 22:05:05.57	122.80	12.44	-37.8	-39.7	15.2	1.87e-03	0	56	0	1370488832	46	4704
2026-01-07 22:05:06.58	122.97	12.39	-37.8	-39.8	14.9	2.94e-03	0	57	0	1373634560	46	4753
2026-01-07 22:05:07.60	123.13	12.33	-37.9	-39.9	15.0	6.17e-04	0	57	0	1377828864	46	4772
2026-01-07 22:05:08.60	123.29	12.28	-37.6	-39.9	15.0	1.06e-03	0	57	0	1380974592	46	4795
2026-01-07 22:05:09.61	123.45	12.22	-37.3	-39.9	14.3	7.34e-04	0	56	0	1383071744	46	4808
2026-01-07 22:05:10.61	123.61	12.17	-35.7	-39.7	13.2	2.45e-02	0	56	0	1386217472	43	5558
2026-01-07 22:05:11.62	123.77	12.11	-37.8	-40.0	14.7	2.30e-02	0	57	0	1389363200	46	4819
2026-01-07 22:05:12.63	123.93	12.06	-37.8	-39.9	14.6	3.68e-03	0	56	0	1392508928	46	4798
2026-01-07 22:05:13.64	124.09	12.00	-37.8	-39.8	15.1	3.85e-04	0	57	0	1395654656	46	4755
2026-01-07 22:05:14.65	124.25	11.95	-37.6	-39.6	15.1	1.41e-04	0	57	0	1399848960	45	4923
2026-01-07 22:05:15.66	124.41	11.89	-37.4	-39.6	15.1	3.49e-04	0	56	0	1402994688	46	4651
2026-01-07 22:05:16.66	124.56	11.84	-37.6	-39.7	14.6	9.16e-04	0	56	0	1406140416	46	4688
2026-01-07 22:05:17.67	124.72	11.78	-37.3	-39.6	14.4	3.55e-03	0	57	0	1408237568	45	4903
2026-01-07 22:05:18.68	124.88	11.73	-37.7	-39.7	14.9	4.07e-03	0	57	0	1411383296	46	4678
2026-01-07 22:05:19.69	125.03	11.67	-37.3	-39.6	14.3	9.74e-03	0	56	0	1414529024	45	4913
2026-01-07 22:05:20.69	125.19	11.62	-35.9	-39.3	10.8	4.66e-02	0	57	0	1418723328	40	6342
2026-01-07 22:05:21.70	125.34	11.56	-37.0	-39.5	12.6	1.71e-01	4	57	0	1421869056	44	5124
2026-01-07 22:05:22.71	125.49	11.50	-36.7	-39.5	11.3	1.24e-01	7	57	0	1423966208	43	5453
2026-01-07 22:05:23.72	125.65	11.45	-35.5	-39.0	11.9	1.51e-01	5	57	0	1426063360	41	5769
2026-01-07 22:05:24.73	125.80	11.39	-35.2	-39.3	9.5	4.29e-01	7	57	0	1428160512	40	6292
2026-01-07 22:05:25.73	125.95	11.34	-34.6	-39.4	9.5	2.01e-01	49	57	0	1429209088	39	6761
2026-01-07 22:05:26.75	126.10	11.28	-35.5	-39.6	10.1	5.53e-01	15	57	0	1430257664	38	7348
2026-01-07 22:05:27.75	126.25	11.23	-33.4	-39.4	8.5	2.85e-01	40	57	0	1432354816	36	8011
2026-01-07 22:05:28.76	126.40	11.17	-32.9	-39.3	4.9	1.16e+00	0	57	104	1433403392	31	10582
2026-01-07 22:05:29.76	126.55	11.11	-33.4	-38.9	8.8	8.27e-01	0	57	0	1433403392	33	9000
2026-01-07 22:05:30.77	126.70	11.06	-33.0	-38.9	8.4	1.42e+00	16	57	104	1433403392	33	8991
2026-01-07 22:05:31.78	126.85	11.00	-30.8	-39.1	4.6	1.09e+00	0	57	104	1433403392	25	14591
2026-01-07 22:05:32.79	127.00	10.95	-25.0	-37.0	4.5	1.46e+00	0	57	104	1433403392	20	15255
2026-01-07 22:05:33.79	127.15	10.89	-27.7	-37.4	5.1	1.45e+00	0	57	104	1433403392	26	11349
2026-01-07 22:05:34.80	127.29	10.83	-25.9	-37.6	4.9	1.43e+00	0	57	104	1433403392	25	12365
2026-01-07 22:05:35.81	127.44	10.78	-23.5	-36.1	4.4	1.47e+00	0	57	104	1433403392	16	17304
2026-01-07 22:05:36.82	127.59	10.72	-26.4	-42.5	4.8	1.46e+00	0	57	104	1433403392	28	18298
2026-01-07 22:05:37.83	127.73	10.66	-26.2	-38.1	4.8	1.48e+00	0	57	104	1433403392	22	15480
2026-01-07 22:05:38.84	127.88	10.61	-30.0	-40.3	4.9	1.44e+00	0	57	104	1433403392	27	14903
2026-01-07 22:05:39.84	128.02	10.55	-27.9	-37.5	4.7	1.44e+00	0	57	104	1433403392	17	19255
2026-01-07 22:05:40.84	128.16	10.50	-25.5	-37.7	4.1	1.50e+00	0	57	104	1433403392	19	17561
2026-01-07 22:05:41.85	128.31	10.44	-22.9	-37.3	4.3	1.50e+00	0	57	104	1433403392	17	18861
2026-01-07 22:05:42.86	128.45	10.38	-20.9	-32.6	3.9	1.51e+00	0	57	104	1433403392	12	14682
2026-01-07 22:05:43.87	128.59	10.33	-25.1	-40.3	4.1	1.50e+00	0	57	104	1433403392	18	25255
2026-01-07 22:05:44.87	128.73	10.27	-17.1	-31.1	4.1	1.48e+00	0	57	104	1433403392	22	6959
2026-01-07 22:05:45.88	128.87	10.21	-26.7	-41.3	4.0	1.50e+00	0	57	104	1433403392	18	28098
2026-01-07 22:05:46.89	129.01	10.16	-27.8	-43.6	4.2	1.50e+00	0	57	104	1433403392	24	25955
2026-01-07 22:05:47.90	129.15	10.10	-28.3	-39.1	3.4	1.50e+00	0	57	104	1433403392	21	18427
2026-01-07 22:05:48.91	129.29	10.04	-17.5	-28.8	4.1	1.50e+00	0	57	104	1433403392	19	6281
2026-01-07 22:05:49.91	129.43	9.99	-23.4	-38.8	3.7	1.50e+00	0	57	104	1433403392	20	18909
2026-01-07 22:05:50.92	129.57	9.93	-24.7	-37.4	3.7	1.50e+00	0	57	104	1433403392	11	27031
2026-01-07 22:05:51.93	129.71	9.87	-18.7	-31.9	4.2	1.50e+00	0	57	104	1433403392	16	10675
2026-01-07 22:05:52.94	129.85	9.82	-26.5	-40.7	3.6	1.51e+00	0	57	104	1433403392	17	27946
2026-01-07 22:05:53.95	129.98	9.76	-25.1	-40.2	3.6	1.50e+00	0	57	104	1433403392	21	20874
2026-01-07 22:05:54.95	130.12	9.70	-26.6	-41.2	3.5	1.50e+00	0	57	104	1433403392	17	29672
2026-01-07 22:05:55.96	130.26	9.65	-23.8	-38.1	3.5	1.51e+00	0	57	104	1433403392	18	19491
2026-01-07 22:05:56.97	130.39	9.59	-22.1	-37.3	3.6	1.51e+00	0	57	104	1433403392	15	21247
2026-01-07 22:05:57.98	130.53	9.53	-20.4	-37.0	3.8	1.51e+00	0	57	104	1433403392	12	24285
2026-01-07 22:05:58.99	130.66	9.48	-24.4	-38.5	4.0	1.51e+00	0	57	104	1433403392	16	22892
2026-01-07 22:05:59.99	130.79	9.42	-21.4	-37.4	3.7	1.51e+00	0	57	104	1433403392	13	24063
2026-01-07 22:06:01.00	130.93	9.36	-26.9	-38.6	3.9	1.51e+00	0	57	104	1433403392	19	19444
2026-01-07 22:06:02.01	131.06	9.31	-25.1	-40.6	3.7	1.51e+00	0	57	104	1433403392	19	24433
2026-01-07 22:06:03.02	131.19	9.25	-20.1	-36.1	3.7	1.51e+00	0	57	104	1433403392	12	21875
2026-01-07 22:06:04.03	131.33	9.19	-20.3	-33.5	3.7	1.51e+00	0	57	104	1433403392	19	10815
2026-01-07 22:06:05.03	131.46	9.13	-23.6	-36.8	3.6	1.51e+00	0	57	104	1433403392	16	18835
2026-01-07 22:06:06.04	131.59	9.08	-17.1	-28.8	3.9	1.51e+00	0	57	104	1433403392	11	9969
2026-01-07 22:06:07.05	131.72	9.02	-24.3	-40.2	4.0	1.51e+00	0	57	104	1433403392	20	22259
2026-01-07 22:06:08.06	131.85	8.96	-22.8	-38.9	3.3	1.50e+00	0	57	104	1433403392	17	22529
2026-01-07 22:06:09.07	131.98	8.91	-23.2	-39.2	3.8	1.51e+00	0	57	104	1433403392	19	20904
2026-01-07 22:06:10.07	132.11	8.85	-24.9	-40.6	3.7	1.51e+00	0	57	104	1433403392	18	25980
2026-01-07 22:06:11.08	132.23	8.79	-19.6	-33.8	3.9	1.51e+00	0	57	104	1433403392	22	9445
2026-01-07 22:06:12.09	132.36	8.74	-28.1	-42.9	3.9	1.50e+00	0	57	104	1433403392	22	27002
2026-01-07 22:06:13.10	132.49	8.68	-19.4	-34.7	3.8	1.51e+00	0	57	104	1433403392	21	11156
2026-01-07 22:06:14.11	132.62	8.62	-26.1	-40.6	3.7	1.51e+00	0	57	104	1433403392	20	23184
2026-01-07 22:06:15.11	132.74	8.57	-19.8	-33.1	4.2	1.50e+00	0	57	104	1433403392	19	10404
2026-01-07 22:06:16.12	132.87	8.51	-23.4	-34.9	4.0	1.51e+00	0	57	104	1433403392	16	15154
2026-01-07 22:06:17.13	133.00	8.45	-26.7	-42.7	3.9	1.51e+00	0	57	104	1433403392	21	27782
2026-01-07 22:06:18.14	133.12	8.40	-27.2	-45.8	4.0	1.51e+00	0	57	104	1433403392	22	37380
2026-01-07 22:06:19.15	133.25	8.34	-20.7	-38.0	4.1	1.52e+00	0	57	104	1433403392	11	28806
2026-01-07 22:06:20.15	133.37	8.28	-30.4	-47.6	4.4	1.51e+00	0	57	104	1433403392	28	32661
2026-01-07 22:06:21.16	133.49	8.23	-27.0	-41.9	3.6	1.51e+00	0	57	104	1433403392	24	21273
2026-01-07 22:06:22.17	133.62	8.17	-32.5	-47.8	4.0	1.52e+00	0	57	104	1433403392	29	31681
2026-01-07 22:06:23.17	133.74	8.11	-34.4	-50.8	4.4	1.51e+00	0	57	104	1433403392	40	23655
2026-01-07 22:06:24.18	133.86	8.06	-30.2	-47.6	3.9	1.52e+00	0	57	104	1433403392	28	32928
2026-01-07 22:06:25.19	133.98	8.00	-28.0	-42.8	3.9	1.51e+00	0	57	104	1433403392	20	29729
2026-01-07 22:06:26.20	134.10	7.94	-25.5	-39.3	3.6	1.51e+00	0	57	104	1433403392	21	18743
2026-01-07 22:06:27.21	134.23	7.89	-44.6	-56.8	3.8	1.49e+00	0	57	104	1433403392	59	15910
2026-01-07 22:06:28.22	134.35	7.83	-44.9	-57.3	3.8	1.49e+00	0	57	104	1433403392	60	15826
2026-01-07 22:06:29.23	134.47	7.77	-45.1	-57.5	3.8	1.49e+00	0	57	104	1433403392	60	16192
2026-01-07 22:06:30.23	134.59	7.72	-45.2	-57.6	3.9	1.49e+00	0	57	104	1433403392	61	15520
2026-01-07 22:06:31.24	134.70	7.66	-45.3	-57.7	3.8	1.49e+00	0	57	104	1433403392	61	15638
2026-01-07 22:06:32.25	134.82	7.60	-45.4	-57.8	3.8	1.49e+00	0	57	104	1433403392	61	15816
2026-01-07 22:06:33.26	134.94	7.55	-45.4	-57.8	3.8	1.49e+00	0	57	104	1433403392	61	15936
2026-01-07 22:06:34.27	135.06	7.49	-45.5	-57.8	3.8	1.49e+00	0	57	104	1433403392	61	15931
2026-01-07 22:06:35.28	135.18	7.43	-45.4	-57.9	3.8	1.49e+00	0	57	104	1433403392	61	15953
2026-01-07 22:06:36.29	135.30	7.38	-45.3	-57.8	3.8	1.49e+00	0	57	104	1433403392	61	15883
2026-01-07 22:06:37.30	135.41	7.32	-45.3	-57.8	3.8	1.49e+00	0	57	104	1433403392	61	15817
2026-01-07 22:06:38.30	135.53	7.27	-45.2	-57.7	3.8	1.49e+00	0	57	104	1433403392	61	15735
2026-01-07 22:06:39.31	135.64	7.21	-45.2	-57.7	3.8	1.49e+00	0	57	104	1433403392	61	15706
2026-01-07 22:06:40.32	135.76	7.15	-45.2	-57.7	3.8	1.49e+00	0	57	104	1433403392	61	15591
2026-01-07 22:06:41.32	135.87	7.10	-45.1	-57.6	3.8	1.49e+00	0	57	104	1433403392	61	15548
2026-01-07 22:06:42.33	135.99	7.04	-45.1	-57.6	3.8	1.49e+00	0	57	104	1433403392	61	15459
2026-01-07 22:06:43.34	136.10	6.98	-45.1	-57.6	3.8	1.49e+00	0	57	104	1433403392	61	15469
2026-01-07 22:06:44.35	136.21	6.93	-45.1	-57.6	3.8	1.49e+00	0	57	104	1433403392	61	15486
2026-01-07 22:06:45.36	136.33	6.87	-45.1	-57.6	3.8	1.49e+00	0	57	104	1433403392	61	15448
2026-01-07 22:06:46.36	136.44	6.82	-45.1	-57.6	3.8	1.49e+00	0	57	104	1433403392	61	15491
2026-01-07 22:06:47.38	136.55	6.76	-45.1	-57.6	3.8	1.49e+00	0	57	104	1433403392	61	15453
2026-01-07 22:06:48.38	136.66	6.70	-45.1	-57.6	3.8	1.49e+00	0	57	104	1433403392	61	15430
2026-01-07 22:06:49.39	136.78	6.65	-45.1	-57.6	3.8	1.49e+00	0	57	104	1433403392	61	15462
2026-01-07 22:06:50.39	136.89	6.59	-45.1	-57.6	3.8	1.49e+00	0	57	104	1433403392	61	15427
2026-01-07 22:06:51.40	137.00	6.54	-45.0	-57.6	3.8	1.49e+00	0	57	104	1433403392	61	15479
2026-01-07 22:06:52.41	137.11	6.48	-45.0	-57.5	3.8	1.49e+00	0	57	104	1433403392	61	15394
2026-01-07 22:06:53.42	137.22	6.42	-45.0	-57.6	3.8	1.49e+00	0	57	104	1433403392	61	15445
2026-01-07 22:06:54.43	137.33	6.37	-45.0	-57.6	3.8	1.49e+00	0	57	104	1433403392	61	15458
2026-01-07 22:06:55.43	137.44	6.31	-45.1	-57.6	3.8	1.49e+00	0	57	104	1433403392	61	15445
2026-01-07 22:06:56.44	137.54	6.26	-45.0	-57.6	3.8	1.49e+00	0	57	104	1433403392	61	15460
2026-01-07 22:06:57.45	137.65	6.20	-45.0	-57.6	3.8	1.49e+00	0	57	104	1433403392	61	15444
2026-01-07 22:06:58.46	137.76	6.14	-45.0	-57.6	3.8	1.49e+00	0	57	104	1433403392	61	15430
2026-01-07 22:06:59.47	137.87	6.09	-45.0	-57.6	3.8	1.49e+00	0	57	104	1433403392	61	15405
2026-01-07 22:07:00.47	137.97	6.03	-45.0	-57.6	3.8	1.49e+00	0	57	104	1433403392	61	15496
2026-01-07 22:07:01.48	138.08	5.98	-45.0	-57.5	3.8	1.49e+00	0	57	104	1433403392	61	15385
2026-01-07 22:07:02.49	138.19	5.92	-45.1	-57.6	3.8	1.49e+00	0	57	104	1433403392	61	15477
2026-01-07 22:07:03.50	138.29	5.87	-45.0	-57.6	3.8	1.49e+00	0	57	104	1433403392	61	15419
2026-01-07 22:07:04.50	138.40	5.81	-45.0	-57.5	3.8	1.49e+00	0	57	104	1433403392	61	15363
2026-01-07 22:07:05.51	138.50	5.76	-45.1	-57.6	3.8	1.49e+00	0	57	104	1433403392	61	15407
2026-01-07 22:07:06.52	138.61	5.70	-45.0	-57.6	3.8	1.49e+00	0	57	104	1433403392	61	15419
2026-01-07 22:07:07.53	138.71	5.64	-45.0	-57.6	3.8	1.49e+00	0	57	104	1433403392	61	15408
2026-01-07 22:07:08.54	138.82	5.59	-45.0	-57.5	3.8	1.49e+00	0	57	104	1433403392	61	15390
2026-01-07 22:07:09.55	138.92	5.53	-45.0	-57.5	3.8	1.49e+00	0	57	104	1433403392	61	15400
2026-01-07 22:07:10.55	139.02	5.48	-45.0	-57.6	3.8	1.49e+00	0	57	104	1433403392	61	15416
2026-01-07 22:07:11.56	139.13	5.42	-45.0	-57.5	3.8	1.49e+00	0	57	104	1433403392	61	15395
2026-01-07 22:07:12.57	139.23	5.37	-45.0	-57.5	3.8	1.49e+00	0	57	104	1433403392	61	15389
2026-01-07 22:07:13.57	139.33	5.31	-45.0	-57.5	3.8	1.49e+00	0	57	104	1433403392	61	15390
2026-01-07 22:07:14.58	139.43	5.26	-45.0	-57.6	3.8	1.49e+00	0	57	104	1433403392	61	15428
2026-01-07 22:07:15.58	139.53	5.20	-45.0	-57.6	3.8	1.49e+00	0	57	104	1433403392	61	15455
2026-01-07 22:07:16.59	139.63	5.15	-45.0	-57.5	3.8	1.49e+00	0	57	104	1433403392	61	15379
2026-01-07 22:07:17.60	139.73	5.09	-45.0	-57.5	3.8	1.49e+00	0	57	104	1433403392	61	15391
2026-01-07 22:07:18.61	139.83	5.04	-45.0	-57.6	3.8	1.49e+00	0	57	104	1433403392	61	15422
2026-01-07 22:07:19.62	139.93	4.98	-45.0	-57.5	3.8	1.49e+00	0	57	104	1433403392	61	15355
2026-01-07 22:07:20.63	140.03	4.93	-45.0	-57.5	3.8	1.49e+00	0	57	104	1433403392	61	15384
2026-01-07 22:07:21.63	140.13	4.87	-45.0	-57.5	3.8	1.49e+00	0	57	104	1433403392	61	15395
2026-01-07 22:07:22.64	140.23	4.82	-45.0	-57.6	3.8	1.49e+00	0	57	104	1433403392	61	15416
2026-01-07 22:07:23.65	140.33	4.76	-45.0	-57.6	3.8	1.49e+00	0	57	104	1433403392	61	15402
2026-01-07 22:07:24.66	140.43	4.71	-45.0	-57.6	3.8	1.49e+00	0	57	104	1433403392	61	15411
2026-01-07 22:07:25.67	140.53	4.65	-45.0	-57.5	3.8	1.49e+00	0	57	104	1433403392	61	15400
2026-01-07 22:07:26.68	140.62	4.60	-45.0	-57.5	3.8	1.49e+00	0	57	104	1433403392	61	15362
2026-01-07 22:07:27.69	140.72	4.54	-45.0	-57.5	3.8	1.49e+00	0	57	104	1433403392	61	15344
2026-01-07 22:07:28.70	140.82	4.49	-45.0	-57.6	3.8	1.49e+00	0	57	104	1433403392	61	15421
2026-01-07 22:07:29.71	140.91	4.44	-45.0	-57.5	3.8	1.49e+00	0	57	104	1433403392	61	15356
2026-01-07 22:07:30.71	141.01	4.38	-45.0	-57.6	3.8	1.49e+00	0	57	104	1433403392	61	15424
2026-01-07 22:07:31.71	141.10	4.33	-45.0	-57.5	3.8	1.49e+00	0	57	104	1433403392	61	15371
2026-01-07 22:07:32.73	141.20	4.27	-45.0	-57.5	3.8	1.49e+00	0	57	104	1433403392	61	15393
2026-01-07 22:07:33.74	141.30	4.22	-45.0	-57.5	3.8	1.49e+00	0	57	104	1433403392	61	15368
2026-01-07 22:07:34.74	141.39	4.16	-45.0	-57.6	3.8	1.49e+00	0	57	104	1433403392	61	15404
2026-01-07 22:07:35.75	141.48	4.11	-45.0	-57.5	3.8	1.49e+00	0	57	104	1433403392	61	15390
2026-01-07 22:07:36.76	141.58	4.06	-45.0	-57.5	3.8	1.49e+00	0	57	104	1433403392	61	15379
2026-01-07 22:07:37.77	141.67	4.00	-45.0	-57.5	3.8	1.49e+00	0	57	104	1433403392	61	15375
