passes_logs/2026/01/07/R2.0S_Moscow/R2.0S_Moscow__20260107_115731_SUOMI_NPP_rec.log

#Pass ID: 20260107_115731_SUOMI NPP
#Satellite: SUOMI NPP
#Configuration: NPP
#almurnet v.1.7.20251203
#Start time: 2026-01-07 11:57:51

#Version: 2.2.20231116
#Station: R2.0S_Moscow
#Location: 37.707566 lon 55.798166 lat
#TLE: 1 37849U 11061A   26005.94084933  .00000134  00000+0  84554-4 0  9990
#TLE: 2 37849  98.7803 308.0679 0002567  79.1029 281.0436 14.19522657735426

#Time	Az	El	Level	Level2	SNR	BER	BlckErr	Temp	State	Recorded	gain1	gain2
2026-01-07 11:57:51.16	223.66	2.99	-45.9	-64.8	3.8	7.44e-01	0	56	0	0	62	33666
2026-01-07 11:57:52.16	223.76	3.04	-45.1	-59.8	3.8	1.49e+00	0	57	104	0	62	18895
2026-01-07 11:57:53.17	223.85	3.09	-45.1	-59.8	3.8	1.49e+00	0	56	104	0	62	18891
2026-01-07 11:57:54.18	223.95	3.14	-45.1	-59.8	3.8	1.49e+00	0	57	104	0	62	18841
2026-01-07 11:57:55.19	224.05	3.19	-45.1	-59.8	3.8	1.49e+00	0	57	104	0	62	18819
2026-01-07 11:57:56.20	224.15	3.24	-45.1	-59.8	3.8	1.49e+00	0	57	104	0	62	18819
2026-01-07 11:57:57.21	224.25	3.29	-45.0	-59.7	3.8	1.49e+00	0	57	104	0	61	19768
2026-01-07 11:57:58.22	224.34	3.33	-45.0	-59.7	3.8	1.49e+00	0	57	104	0	61	19788
2026-01-07 11:57:59.23	224.44	3.38	-44.9	-59.6	3.8	1.49e+00	0	57	104	0	61	19592
2026-01-07 11:58:00.24	224.54	3.43	-44.8	-59.5	3.8	1.49e+00	0	57	104	0	61	19385
2026-01-07 11:58:01.25	224.64	3.48	-44.7	-59.4	3.8	1.49e+00	0	57	104	0	61	19044
2026-01-07 11:58:02.26	224.74	3.53	-44.4	-59.2	3.7	1.49e+00	0	57	104	0	60	19686
2026-01-07 11:58:03.28	224.84	3.59	-44.0	-58.7	3.8	1.49e+00	0	57	104	0	60	18694
2026-01-07 11:58:04.29	224.95	3.64	-44.0	-58.5	3.8	1.49e+00	0	57	104	0	59	19206
2026-01-07 11:58:05.30	225.05	3.69	-44.0	-58.5	3.8	1.49e+00	0	57	104	0	59	19225
2026-01-07 11:58:06.31	225.15	3.74	-44.0	-58.5	3.8	1.49e+00	0	57	104	0	59	19203
2026-01-07 11:58:07.32	225.25	3.79	-44.0	-58.5	3.8	1.49e+00	0	57	104	0	59	19178
2026-01-07 11:58:08.33	225.35	3.84	-44.0	-58.5	3.8	1.49e+00	0	57	104	0	59	19246
2026-01-07 11:58:09.34	225.45	3.89	-44.0	-58.5	3.8	1.49e+00	0	57	104	0	59	19190
2026-01-07 11:58:10.35	225.56	3.94	-44.0	-58.4	3.8	1.49e+00	0	57	104	0	59	19163
2026-01-07 11:58:11.36	225.66	3.99	-43.9	-58.4	3.8	1.49e+00	0	57	104	0	59	19150
2026-01-07 11:58:12.38	225.76	4.04	-43.9	-58.5	3.8	1.49e+00	0	57	104	0	59	19185
2026-01-07 11:58:13.39	225.87	4.09	-43.9	-58.5	3.8	1.49e+00	0	57	104	0	59	19174
2026-01-07 11:58:14.40	225.97	4.14	-43.9	-58.5	3.8	1.49e+00	0	57	104	0	59	19169
2026-01-07 11:58:15.41	226.08	4.19	-43.9	-58.5	3.8	1.49e+00	0	57	104	0	59	19196
2026-01-07 11:58:16.42	226.18	4.24	-43.9	-58.4	3.8	1.49e+00	0	57	104	0	59	19125
2026-01-07 11:58:17.43	226.29	4.29	-44.0	-58.5	3.8	1.49e+00	0	57	104	0	59	19194
2026-01-07 11:58:18.44	226.39	4.34	-44.0	-58.4	3.8	1.49e+00	0	57	104	0	59	19161
2026-01-07 11:58:19.45	226.50	4.39	-43.9	-58.4	3.8	1.49e+00	0	57	104	0	59	19136
2026-01-07 11:58:20.46	226.61	4.44	-43.9	-58.5	3.8	1.49e+00	0	57	104	0	59	19177
2026-01-07 11:58:21.47	226.71	4.49	-43.9	-58.4	3.8	1.49e+00	0	57	104	0	59	19131
2026-01-07 11:58:22.49	226.82	4.54	-43.9	-58.4	3.8	1.49e+00	0	57	104	0	59	19104
2026-01-07 11:58:23.50	226.93	4.59	-43.9	-58.4	3.8	1.49e+00	0	57	104	0	59	19166
2026-01-07 11:58:24.51	227.03	4.64	-43.9	-58.5	3.8	1.49e+00	0	57	104	0	59	19179
2026-01-07 11:58:25.52	227.14	4.69	-43.9	-58.4	3.8	1.49e+00	0	57	104	0	59	19130
2026-01-07 11:58:26.53	227.25	4.74	-43.9	-58.5	3.8	1.49e+00	0	57	104	0	59	19198
2026-01-07 11:58:27.54	227.36	4.79	-43.9	-58.4	3.8	1.49e+00	0	57	104	0	59	19147
2026-01-07 11:58:28.55	227.47	4.84	-43.9	-58.4	3.8	1.49e+00	0	57	104	0	59	19145
2026-01-07 11:58:29.56	227.58	4.89	-43.9	-58.5	3.8	1.49e+00	0	57	104	0	59	19186
2026-01-07 11:58:30.57	227.69	4.94	-43.9	-58.4	3.8	1.49e+00	0	57	104	0	59	19119
2026-01-07 11:58:31.58	227.80	4.99	-43.9	-58.4	3.8	1.49e+00	0	57	104	0	59	19109
2026-01-07 11:58:32.60	227.91	5.05	-43.9	-58.4	3.8	1.49e+00	0	57	104	0	59	19113
2026-01-07 11:58:33.61	228.02	5.10	-43.9	-58.4	3.8	1.49e+00	0	57	104	0	59	19077
2026-01-07 11:58:34.62	228.13	5.15	-43.9	-58.4	3.8	1.49e+00	0	57	104	0	59	19068
2026-01-07 11:58:35.63	228.24	5.20	-43.9	-58.4	3.8	1.49e+00	0	57	104	0	59	19042
2026-01-07 11:58:36.64	228.36	5.25	-43.9	-58.4	3.8	1.49e+00	0	57	104	0	59	19043
2026-01-07 11:58:37.65	228.47	5.30	-43.9	-58.4	3.8	1.49e+00	0	57	104	0	59	19111
2026-01-07 11:58:38.66	228.58	5.35	-43.9	-58.4	3.8	1.49e+00	0	57	104	0	59	19105
2026-01-07 11:58:39.67	228.69	5.40	-43.9	-58.4	3.8	1.49e+00	0	57	104	0	59	19132
2026-01-07 11:58:40.68	228.81	5.45	-43.9	-58.4	3.8	1.49e+00	0	57	104	0	59	19135
2026-01-07 11:58:41.70	228.92	5.50	-43.9	-58.4	3.8	1.49e+00	0	57	104	0	59	19083
2026-01-07 11:58:42.71	229.04	5.55	-43.9	-58.4	3.8	1.49e+00	0	57	104	0	59	19101
2026-01-07 11:58:43.72	229.15	5.60	-43.9	-58.4	3.8	1.49e+00	0	57	104	0	59	19056
2026-01-07 11:58:44.73	229.27	5.65	-43.9	-58.3	3.8	1.49e+00	0	57	104	0	59	18912
2026-01-07 11:58:45.74	229.38	5.70	-43.9	-58.3	3.8	1.49e+00	0	57	104	0	59	18844
2026-01-07 11:58:46.75	229.50	5.75	-43.9	-58.3	3.8	1.49e+00	0	57	104	0	59	18785
2026-01-07 11:58:47.76	229.62	5.80	-43.9	-58.3	3.8	1.49e+00	0	57	104	0	59	18737
2026-01-07 11:58:48.77	229.73	5.85	-43.9	-58.2	3.8	1.49e+00	0	57	104	0	59	18661
2026-01-07 11:58:49.78	229.85	5.90	-43.9	-58.2	3.8	1.49e+00	0	57	104	0	59	18729
2026-01-07 11:58:50.79	229.97	5.96	-43.9	-58.3	3.8	1.49e+00	0	57	104	0	59	18770
2026-01-07 11:58:51.80	230.08	6.01	-43.9	-58.3	3.8	1.49e+00	0	57	104	0	59	18794
2026-01-07 11:58:52.82	230.20	6.06	-43.9	-58.3	3.8	1.49e+00	0	57	104	0	59	18915
2026-01-07 11:58:53.83	230.32	6.11	-43.9	-58.3	3.8	1.49e+00	0	57	104	0	59	18929
2026-01-07 11:58:54.84	230.44	6.16	-43.9	-58.4	3.8	1.49e+00	0	57	104	0	59	19090
2026-01-07 11:58:55.85	230.56	6.21	-43.9	-58.4	3.8	1.49e+00	0	57	104	0	59	19120
2026-01-07 11:58:56.86	230.68	6.26	-43.9	-58.4	3.8	1.49e+00	0	57	104	0	59	19104
2026-01-07 11:58:57.87	230.80	6.31	-43.9	-58.4	3.8	1.49e+00	0	57	104	0	59	18984
2026-01-07 11:58:58.88	230.92	6.36	-43.9	-58.3	3.8	1.49e+00	0	57	104	0	59	18897
2026-01-07 11:58:59.89	231.04	6.41	-43.9	-58.2	3.8	1.49e+00	0	57	104	0	59	18530
2026-01-07 11:59:00.90	231.16	6.46	-43.9	-58.0	3.8	1.49e+00	0	57	104	0	59	18218
2026-01-07 11:59:01.92	231.29	6.51	-43.9	-57.8	3.8	1.49e+00	0	57	104	0	59	17814
2026-01-07 11:59:02.93	231.41	6.56	-43.9	-57.5	3.8	1.49e+00	0	57	104	0	59	17210
2026-01-07 11:59:03.94	231.53	6.61	-43.9	-57.4	3.8	1.49e+00	0	57	104	0	59	16889
2026-01-07 11:59:04.95	231.66	6.66	-43.9	-57.2	3.8	1.49e+00	0	57	104	0	59	16605
2026-01-07 11:59:05.96	231.78	6.71	-43.8	-57.2	3.8	1.49e+00	0	57	104	0	59	16519
2026-01-07 11:59:06.97	231.90	6.76	-43.8	-57.2	3.8	1.49e+00	0	57	104	0	59	16690
2026-01-07 11:59:07.98	232.03	6.81	-43.9	-57.4	3.8	1.49e+00	0	57	104	0	59	16941
2026-01-07 11:59:08.99	232.15	6.86	-43.9	-57.5	3.8	1.49e+00	0	57	104	0	59	17166
2026-01-07 11:59:10.00	232.28	6.91	-43.9	-57.8	3.8	1.49e+00	0	57	104	0	59	17688
2026-01-07 11:59:11.01	232.40	6.97	-43.9	-57.9	3.8	1.49e+00	0	57	104	0	59	17994
2026-01-07 11:59:12.03	232.53	7.02	-43.9	-57.9	3.8	1.49e+00	0	57	104	0	59	17897
2026-01-07 11:59:13.04	232.66	7.07	-43.9	-57.7	3.8	1.49e+00	0	57	104	0	59	17643
2026-01-07 11:59:14.05	232.78	7.12	-43.9	-57.6	3.8	1.49e+00	0	57	104	0	59	17310
2026-01-07 11:59:15.06	232.91	7.17	-43.9	-57.4	3.8	1.49e+00	0	57	104	0	59	17031
2026-01-07 11:59:16.07	233.04	7.22	-43.8	-57.2	3.8	1.49e+00	0	57	104	0	59	16607
2026-01-07 11:59:17.08	233.17	7.27	-43.8	-56.9	3.8	1.49e+00	0	57	104	0	59	16009
2026-01-07 11:59:18.09	233.29	7.32	-43.8	-56.5	3.8	1.49e+00	0	57	104	0	59	15245
2026-01-07 11:59:19.10	233.42	7.37	-43.7	-55.7	3.8	1.48e+00	0	57	104	0	59	13970
2026-01-07 11:59:20.11	233.55	7.42	-43.6	-54.3	4.4	1.37e+00	0	57	0	0	59	11866
2026-01-07 11:59:21.12	233.68	7.47	-43.5	-53.2	4.8	9.85e-01	0	57	0	2097152	59	10527
2026-01-07 11:59:22.13	233.81	7.52	-43.3	-51.9	5.6	6.43e-01	0	57	0	3145728	58	9592
2026-01-07 11:59:23.14	233.94	7.57	-43.1	-50.5	6.7	2.64e-01	0	57	0	5242880	58	8098
2026-01-07 11:59:24.15	234.07	7.62	-42.8	-49.4	7.6	1.35e-01	0	57	0	7340032	57	7629
2026-01-07 11:59:25.17	234.21	7.67	-42.5	-48.3	8.7	5.37e-02	0	57	0	9437184	57	6711
2026-01-07 11:59:26.17	234.34	7.72	-42.2	-47.4	9.7	1.30e-02	0	57	0	11534336	56	6382
2026-01-07 11:59:27.19	234.47	7.77	-41.8	-46.6	10.3	6.33e-03	0	57	0	12582912	55	6189
2026-01-07 11:59:28.20	234.60	7.82	-41.6	-46.3	10.7	3.51e-03	0	57	0	14680064	55	5926
2026-01-07 11:59:29.21	234.74	7.87	-41.3	-45.4	11.7	9.02e-04	0	57	0	16777216	54	5668
2026-01-07 11:59:30.22	234.87	7.92	-41.2	-45.2	11.8	5.54e-04	0	57	0	18874368	54	5582
2026-01-07 11:59:31.23	235.01	7.97	-41.1	-45.1	12.0	4.60e-04	0	57	0	20971520	54	5495
2026-01-07 11:59:32.24	235.14	8.02	-41.0	-44.7	12.3	3.98e-04	0	57	0	22020096	54	5267
2026-01-07 11:59:33.25	235.28	8.07	-44.2	-57.3	3.8	1.49e+00	0	57	104	23068672	59	16752
2026-01-07 11:59:34.26	235.41	8.12	-43.6	-54.7	4.0	3.96e-01	0	57	104	23068672	58	13196
2026-01-07 11:59:35.27	235.55	8.17	-41.8	-46.5	10.6	6.80e-03	0	57	0	24117248	54	6461
2026-01-07 11:59:36.28	235.68	8.22	-41.4	-45.6	11.5	3.74e-03	0	57	0	26214400	54	5804
2026-01-07 11:59:37.29	235.82	8.27	-42.2	-47.5	9.4	9.58e-03	0	57	0	27262976	55	6857
2026-01-07 11:59:38.30	235.96	8.32	-40.9	-44.6	12.6	3.84e-04	0	57	0	29360128	53	5496
2026-01-07 11:59:39.31	236.10	8.37	-41.0	-44.7	12.4	1.07e-04	0	57	0	31457280	53	5579
2026-01-07 11:59:40.32	236.23	8.41	-41.0	-44.7	12.5	1.27e-04	0	57	0	33554432	53	5560
2026-01-07 11:59:41.33	236.37	8.46	-40.9	-44.5	12.6	1.40e-04	0	57	0	35651584	53	5441
2026-01-07 11:59:42.34	236.51	8.51	-40.9	-44.6	12.6	9.91e-05	0	57	0	36700160	53	5479
2026-01-07 11:59:43.35	236.65	8.56	-40.8	-44.3	12.8	6.94e-05	0	57	0	38797312	53	5339
2026-01-07 11:59:44.36	236.79	8.61	-40.9	-44.6	12.7	5.03e-05	0	57	0	40894464	53	5484
2026-01-07 11:59:45.37	236.93	8.66	-41.0	-44.7	12.4	8.77e-05	0	57	0	42991616	53	5591
2026-01-07 11:59:46.38	237.07	8.71	-41.0	-44.7	12.5	1.14e-04	0	57	0	45088768	53	5566
2026-01-07 11:59:47.38	237.21	8.76	-40.8	-44.4	12.9	1.02e-04	0	57	0	46137344	53	5341
2026-01-07 11:59:48.39	237.36	8.81	-40.9	-44.6	12.6	5.18e-05	0	57	0	48234496	53	5511
2026-01-07 11:59:49.40	237.50	8.86	-40.9	-44.4	12.8	7.09e-05	0	57	0	50331648	53	5387
2026-01-07 11:59:50.41	237.64	8.91	-40.8	-44.2	13.0	4.11e-05	0	57	0	52428800	53	5255
2026-01-07 11:59:51.42	237.78	8.95	-40.7	-44.0	13.2	2.05e-05	0	57	0	54525952	53	5158
2026-01-07 11:59:52.43	237.93	9.00	-40.5	-43.8	13.5	9.90e-06	0	57	0	55574528	53	5008
2026-01-07 11:59:53.44	238.07	9.05	-40.4	-43.6	13.6	6.80e-06	0	57	0	57671680	52	5210
2026-01-07 11:59:54.45	238.22	9.10	-40.4	-43.6	13.6	1.22e-05	0	57	0	59768832	52	5212
2026-01-07 11:59:55.46	238.36	9.15	-40.4	-43.5	13.7	3.00e-06	0	57	0	61865984	52	5147
2026-01-07 11:59:56.47	238.51	9.20	-40.3	-43.5	13.8	3.00e-06	0	57	0	63963136	52	5108
2026-01-07 11:59:57.48	238.65	9.25	-40.2	-43.2	14.1	5.30e-06	0	57	0	66060288	52	4955
2026-01-07 11:59:58.48	238.80	9.29	-40.2	-43.3	14.0	3.00e-06	0	57	0	67108864	52	5020
2026-01-07 11:59:59.49	238.95	9.34	-40.2	-43.2	14.1	1.50e-06	0	57	0	69206016	52	4980
2026-01-07 12:00:00.50	239.09	9.39	-40.3	-43.4	13.9	3.80e-06	0	57	0	71303168	52	5045
2026-01-07 12:00:01.51	239.24	9.44	-40.0	-42.9	14.3	0.00e+00	0	57	0	73400320	52	4791
2026-01-07 12:00:02.52	239.39	9.49	-40.0	-43.0	14.4	1.50e-06	0	57	0	75497472	52	4833
2026-01-07 12:00:03.53	239.54	9.54	-39.9	-42.8	14.6	2.20e-06	0	57	0	76546048	51	4984
2026-01-07 12:00:04.54	239.69	9.58	-39.9	-42.8	14.6	7.00e-07	0	57	0	78643200	51	4995
2026-01-07 12:00:05.55	239.84	9.63	-39.8	-42.6	14.9	7.00e-07	0	57	0	80740352	51	4890
2026-01-07 12:00:06.56	239.99	9.68	-39.8	-42.5	15.0	0.00e+00	0	57	0	82837504	51	4817
2026-01-07 12:00:07.57	240.14	9.73	-39.8	-42.5	14.9	7.00e-07	0	57	0	84934656	51	4835
2026-01-07 12:00:08.58	240.29	9.78	-39.8	-42.5	15.0	0.00e+00	0	57	0	85983232	51	4821
2026-01-07 12:00:09.59	240.44	9.82	-39.8	-42.6	14.9	7.00e-07	0	57	0	88080384	51	4871
2026-01-07 12:00:10.60	240.59	9.87	-39.9	-42.7	14.7	0.00e+00	0	57	0	90177536	51	4967
2026-01-07 12:00:11.61	240.75	9.92	-40.1	-42.9	14.5	0.00e+00	0	57	0	92274688	51	5084
2026-01-07 12:00:12.62	240.90	9.96	-40.2	-43.1	14.3	0.00e+00	0	57	0	94371840	51	5212
2026-01-07 12:00:13.63	241.05	10.01	-40.1	-43.0	14.4	0.00e+00	0	57	0	95420416	51	5159
2026-01-07 12:00:14.63	241.21	10.06	-40.2	-43.2	14.3	7.00e-07	0	57	0	97517568	51	5248
2026-01-07 12:00:15.64	241.36	10.11	-40.3	-43.3	14.2	7.00e-07	0	57	0	99614720	51	5320
2026-01-07 12:00:16.65	241.52	10.15	-40.1	-43.0	14.5	0.00e+00	0	57	0	101711872	51	5119
2026-01-07 12:00:17.66	241.67	10.20	-40.1	-42.9	14.6	0.00e+00	0	57	0	103809024	51	5086
2026-01-07 12:00:18.67	241.83	10.25	-40.0	-42.9	14.6	7.00e-07	0	57	0	104857600	51	5046
2026-01-07 12:00:19.68	241.99	10.29	-40.0	-42.8	14.6	0.00e+00	0	57	0	106954752	51	5040
2026-01-07 12:00:20.69	242.14	10.34	-40.0	-42.8	14.7	0.00e+00	0	57	0	109051904	51	5031
2026-01-07 12:00:21.70	242.30	10.39	-40.0	-42.8	14.7	0.00e+00	0	57	0	111149056	51	5012
2026-01-07 12:00:22.71	242.46	10.43	-40.2	-43.1	14.4	0.00e+00	0	57	0	113246208	51	5185
2026-01-07 12:00:23.72	242.62	10.48	-40.2	-43.0	14.5	0.00e+00	0	57	0	114294784	51	5156
2026-01-07 12:00:24.73	242.78	10.52	-40.2	-43.0	14.5	7.00e-07	0	57	0	116391936	51	5141
2026-01-07 12:00:25.74	242.94	10.57	-40.1	-42.9	14.5	0.00e+00	0	57	0	118489088	51	5098
2026-01-07 12:00:26.75	243.10	10.62	-40.2	-43.1	14.4	0.00e+00	0	57	0	120586240	51	5202
2026-01-07 12:00:27.76	243.26	10.66	-40.1	-43.0	14.5	0.00e+00	0	57	0	122683392	51	5106
2026-01-07 12:00:28.77	243.42	10.71	-40.1	-42.9	14.5	0.00e+00	0	57	0	123731968	51	5083
2026-01-07 12:00:29.78	243.58	10.75	-40.2	-43.0	14.5	7.00e-07	0	57	0	125829120	51	5144
2026-01-07 12:00:30.79	243.74	10.80	-40.1	-43.0	14.5	0.00e+00	0	57	0	127926272	51	5111
2026-01-07 12:00:31.80	243.90	10.84	-40.2	-43.0	14.5	0.00e+00	0	57	0	130023424	51	5144
2026-01-07 12:00:32.80	244.06	10.89	-40.1	-43.0	14.5	0.00e+00	0	57	0	132120576	51	5117
2026-01-07 12:00:33.81	244.23	10.93	-40.2	-43.1	14.5	0.00e+00	0	57	0	134217728	51	5176
2026-01-07 12:00:34.83	244.39	10.98	-40.2	-43.1	14.4	0.00e+00	0	57	0	135266304	51	5215
2026-01-07 12:00:35.83	244.56	11.02	-40.2	-43.1	14.4	1.50e-06	0	57	0	137363456	51	5213
2026-01-07 12:00:36.84	244.72	11.07	-40.1	-43.0	14.5	0.00e+00	0	57	0	139460608	51	5115
2026-01-07 12:00:37.86	244.89	11.11	-40.2	-43.0	14.6	7.00e-07	0	57	0	141557760	51	5123
2026-01-07 12:00:38.87	245.05	11.16	-40.2	-43.0	14.5	0.00e+00	0	57	0	143654912	51	5140
2026-01-07 12:00:39.88	245.22	11.20	-40.1	-43.0	14.6	0.00e+00	0	57	0	144703488	51	5109
2026-01-07 12:00:40.89	245.39	11.25	-40.1	-42.9	14.6	0.00e+00	0	57	0	146800640	51	5072
2026-01-07 12:00:41.90	245.55	11.29	-40.0	-42.8	14.7	0.00e+00	0	57	0	148897792	51	5007
2026-01-07 12:00:42.91	245.72	11.34	-40.0	-42.8	14.7	0.00e+00	0	57	0	150994944	51	5003
2026-01-07 12:00:43.92	245.89	11.38	-40.1	-43.0	14.6	0.00e+00	0	57	0	153092096	51	5101
2026-01-07 12:00:44.93	246.06	11.42	-40.2	-43.1	14.4	2.20e-06	0	57	0	154140672	51	5198
2026-01-07 12:00:45.94	246.23	11.47	-40.5	-43.5	14.1	7.00e-07	0	57	0	156237824	51	5438
2026-01-07 12:00:46.95	246.40	11.51	-40.3	-43.3	14.2	0.00e+00	0	57	0	158334976	51	5318
2026-01-07 12:00:47.96	246.57	11.55	-40.4	-43.4	14.1	7.00e-07	0	57	0	160432128	51	5368
2026-01-07 12:00:48.96	246.74	11.60	-40.5	-43.5	14.0	3.00e-06	0	57	0	162529280	51	5456
2026-01-07 12:00:49.97	246.91	11.64	-40.4	-43.4	14.2	3.80e-06	0	57	0	163577856	51	5395
2026-01-07 12:00:50.98	247.08	11.68	-40.4	-43.3	14.3	1.50e-06	0	57	0	165675008	51	5316
2026-01-07 12:00:52.00	247.25	11.72	-40.2	-43.1	14.5	2.20e-06	0	57	0	167772160	51	5181
2026-01-07 12:00:53.00	247.42	11.77	-40.3	-43.2	14.4	0.00e+00	0	57	0	169869312	51	5247
2026-01-07 12:00:54.01	247.60	11.81	-40.2	-43.0	14.6	1.50e-06	0	57	0	171966464	51	5128
2026-01-07 12:00:55.02	247.77	11.85	-40.3	-43.2	14.4	2.20e-06	0	57	0	173015040	51	5257
2026-01-07 12:00:56.03	247.95	11.89	-40.4	-43.4	14.2	2.20e-06	0	57	0	175112192	51	5380
2026-01-07 12:00:57.04	248.12	11.93	-40.4	-43.4	14.2	2.20e-06	0	57	0	177209344	51	5385
2026-01-07 12:00:58.05	248.29	11.98	-40.5	-43.6	14.0	3.80e-06	0	57	0	179306496	51	5505
2026-01-07 12:00:59.06	248.47	12.02	-40.6	-43.7	13.9	4.50e-06	0	57	0	181403648	51	5547
2026-01-07 12:01:00.07	248.65	12.06	-40.6	-43.6	14.0	7.60e-06	0	57	0	182452224	51	5513
2026-01-07 12:01:01.08	248.82	12.10	-40.5	-43.6	14.0	2.20e-06	0	57	0	184549376	51	5485
2026-01-07 12:01:02.09	249.00	12.14	-40.5	-43.6	14.0	7.00e-07	0	57	0	186646528	51	5485
2026-01-07 12:01:03.10	249.18	12.18	-40.4	-43.4	14.1	7.00e-07	0	57	0	188743680	51	5378
2026-01-07 12:01:04.11	249.36	12.22	-40.4	-43.4	14.2	3.00e-06	0	57	0	190840832	51	5397
2026-01-07 12:01:05.11	249.53	12.26	-40.4	-43.4	14.2	7.00e-07	0	57	0	191889408	51	5358
2026-01-07 12:01:06.12	249.71	12.30	-40.5	-43.5	14.1	2.20e-06	0	57	0	193986560	51	5448
2026-01-07 12:01:07.13	249.89	12.34	-40.5	-43.5	14.1	1.50e-06	0	57	0	196083712	51	5451
2026-01-07 12:01:08.15	250.07	12.38	-40.5	-43.5	14.1	3.80e-06	0	57	0	198180864	51	5440
2026-01-07 12:01:09.16	250.25	12.42	-40.5	-43.6	14.0	1.50e-06	0	57	0	200278016	51	5486
2026-01-07 12:01:10.17	250.43	12.46	-40.6	-43.6	14.0	3.80e-06	0	57	0	202375168	51	5498
2026-01-07 12:01:11.18	250.61	12.50	-40.6	-43.6	14.0	0.00e+00	0	57	0	203423744	51	5518
2026-01-07 12:01:12.19	250.80	12.54	-40.5	-43.6	14.1	2.20e-06	0	57	0	205520896	51	5476
2026-01-07 12:01:13.20	250.98	12.58	-40.7	-43.9	13.6	5.30e-06	0	57	0	207618048	52	5398
2026-01-07 12:01:14.20	251.16	12.62	-40.7	-43.9	13.7	1.06e-05	0	57	0	209715200	52	5344
2026-01-07 12:01:15.21	251.34	12.65	-40.8	-44.1	13.5	9.90e-06	0	57	0	211812352	52	5480
2026-01-07 12:01:16.22	251.52	12.69	-40.8	-44.0	13.5	8.30e-06	0	57	0	212860928	52	5440
2026-01-07 12:01:17.23	251.71	12.73	-40.8	-44.1	13.4	1.22e-05	0	57	0	214958080	52	5510
2026-01-07 12:01:18.24	251.89	12.77	-40.9	-44.2	13.4	1.06e-05	0	57	0	217055232	52	5547
2026-01-07 12:01:19.25	252.08	12.81	-40.8	-44.0	13.5	1.14e-05	0	57	0	219152384	52	5429
2026-01-07 12:01:20.26	252.26	12.84	-40.8	-44.1	13.4	1.06e-05	0	57	0	221249536	52	5500
2026-01-07 12:01:21.27	252.45	12.88	-40.8	-44.2	13.5	1.52e-05	0	57	0	222298112	52	5531
2026-01-07 12:01:22.28	252.64	12.92	-40.9	-44.3	13.3	2.05e-05	0	57	0	224395264	52	5605
2026-01-07 12:01:23.29	252.82	12.95	-40.9	-44.3	13.2	2.67e-05	0	57	0	226492416	52	5629
2026-01-07 12:01:24.30	253.01	12.99	-41.1	-44.7	12.9	3.50e-05	0	57	0	228589568	52	5886
2026-01-07 12:01:25.31	253.20	13.03	-41.3	-45.0	12.6	5.26e-05	0	57	0	230686720	53	5727
2026-01-07 12:01:26.32	253.39	13.06	-41.1	-44.7	12.9	5.41e-05	0	57	0	231735296	53	5538
2026-01-07 12:01:27.33	253.57	13.10	-41.2	-44.8	12.7	5.64e-05	0	57	0	233832448	53	5631
2026-01-07 12:01:28.34	253.76	13.13	-41.2	-44.7	12.8	7.32e-05	0	57	0	235929600	53	5585
2026-01-07 12:01:29.35	253.95	13.17	-41.1	-44.7	12.9	6.17e-05	0	57	0	238026752	53	5556
2026-01-07 12:01:30.36	254.14	13.20	-41.2	-44.8	12.7	5.56e-05	0	57	0	240123904	53	5652
2026-01-07 12:01:31.37	254.33	13.24	-41.2	-44.8	12.8	5.72e-05	0	57	0	241172480	53	5600
2026-01-07 12:01:32.38	254.52	13.27	-41.3	-45.1	12.5	8.39e-05	0	57	0	243269632	53	5797
2026-01-07 12:01:33.39	254.71	13.31	-41.4	-45.2	12.4	1.11e-04	0	57	0	245366784	53	5860
2026-01-07 12:01:34.40	254.91	13.34	-41.4	-45.1	12.5	7.32e-05	0	57	0	247463936	53	5800
2026-01-07 12:01:35.41	255.10	13.38	-41.3	-45.0	12.5	1.08e-04	0	57	0	249561088	53	5763
2026-01-07 12:01:36.42	255.29	13.41	-41.3	-44.9	12.6	1.15e-04	0	57	0	250609664	53	5722
2026-01-07 12:01:37.43	255.48	13.44	-41.3	-44.9	12.6	8.85e-05	0	57	0	252706816	53	5683
2026-01-07 12:01:38.44	255.68	13.48	-41.2	-44.8	12.8	8.69e-05	0	57	0	254803968	53	5635
2026-01-07 12:01:39.44	255.87	13.51	-41.2	-44.7	12.8	4.42e-05	0	57	0	256901120	53	5567
2026-01-07 12:01:40.45	256.06	13.54	-41.2	-44.8	12.8	4.57e-05	0	57	0	258998272	53	5625
2026-01-07 12:01:41.46	256.26	13.57	-41.1	-44.6	12.9	4.88e-05	0	57	0	260046848	53	5515
2026-01-07 12:01:42.47	256.45	13.61	-41.1	-44.7	12.9	4.65e-05	0	57	0	262144000	53	5529
2026-01-07 12:01:43.48	256.65	13.64	-41.2	-44.8	12.8	4.88e-05	0	57	0	264241152	53	5655
2026-01-07 12:01:44.49	256.84	13.67	-41.3	-44.9	12.6	7.09e-05	0	57	0	266338304	53	5720
2026-01-07 12:01:45.50	257.04	13.70	-41.3	-45.0	12.6	8.31e-05	0	57	0	268435456	53	5739
2026-01-07 12:01:46.51	257.23	13.73	-41.3	-45.0	12.6	8.46e-05	0	57	0	270532608	53	5738
2026-01-07 12:01:47.52	257.43	13.76	-41.3	-45.0	12.5	1.27e-04	0	57	0	271581184	53	5756
2026-01-07 12:01:48.53	257.63	13.79	-41.4	-45.1	12.4	8.85e-05	0	57	0	273678336	53	5818
2026-01-07 12:01:49.54	257.83	13.82	-41.2	-44.8	12.7	6.79e-05	0	57	0	275775488	53	5640
2026-01-07 12:01:50.55	258.02	13.85	-41.2	-44.7	12.8	8.08e-05	0	57	0	277872640	53	5562
2026-01-07 12:01:51.56	258.22	13.88	-41.1	-44.5	13.0	5.87e-05	0	57	0	279969792	53	5451
2026-01-07 12:01:52.57	258.42	13.91	-41.1	-44.5	13.0	3.43e-05	0	57	0	281018368	53	5457
2026-01-07 12:01:53.58	258.62	13.94	-40.9	-44.3	13.3	2.89e-05	0	57	0	283115520	53	5306
2026-01-07 12:01:54.59	258.82	13.97	-40.8	-44.1	13.5	1.14e-05	0	57	0	285212672	53	5183
2026-01-07 12:01:55.60	259.02	14.00	-40.6	-43.7	13.9	9.90e-06	0	57	0	287309824	53	4974
2026-01-07 12:01:56.61	259.22	14.03	-40.4	-43.4	14.2	1.50e-06	0	57	0	289406976	52	5091
2026-01-07 12:01:57.62	259.42	14.06	-40.4	-43.3	14.3	0.00e+00	0	57	0	290455552	52	5026
2026-01-07 12:01:58.63	259.62	14.08	-40.1	-42.9	14.7	7.00e-07	0	57	0	292552704	52	4786
2026-01-07 12:01:59.64	259.82	14.11	-40.1	-42.9	14.8	0.00e+00	0	57	0	294649856	52	4768
2026-01-07 12:02:00.65	260.03	14.14	-40.1	-42.8	14.9	7.00e-07	0	57	0	296747008	51	5031
2026-01-07 12:02:01.66	260.23	14.16	-40.1	-42.9	14.8	0.00e+00	0	57	0	298844160	51	5066
2026-01-07 12:02:02.67	260.43	14.19	-40.0	-42.7	15.0	0.00e+00	0	57	0	299892736	51	4974
2026-01-07 12:02:03.67	260.63	14.22	-40.2	-43.0	14.7	0.00e+00	0	57	0	301989888	51	5112
2026-01-07 12:02:04.68	260.83	14.24	-40.1	-42.8	14.9	7.00e-07	0	57	0	304087040	51	5020
2026-01-07 12:02:05.70	261.04	14.27	-40.0	-42.7	15.0	7.00e-07	0	57	0	306184192	51	4945
2026-01-07 12:02:06.71	261.24	14.29	-40.2	-43.0	14.7	0.00e+00	0	57	0	308281344	51	5159
2026-01-07 12:02:07.71	261.45	14.32	-40.2	-43.0	14.7	0.00e+00	0	57	0	309329920	51	5156
2026-01-07 12:02:08.73	261.65	14.34	-40.4	-43.3	14.4	7.00e-07	0	57	0	311427072	51	5319
2026-01-07 12:02:09.74	261.86	14.37	-40.4	-43.3	14.4	1.50e-06	0	57	0	313524224	51	5340
2026-01-07 12:02:10.75	262.06	14.39	-40.3	-43.2	14.5	0.00e+00	0	57	0	315621376	51	5241
2026-01-07 12:02:11.76	262.27	14.42	-40.2	-43.0	14.7	0.00e+00	0	57	0	317718528	51	5111
2026-01-07 12:02:12.77	262.47	14.44	-40.0	-42.7	15.0	7.00e-07	0	57	0	318767104	51	4963
2026-01-07 12:02:13.78	262.68	14.46	-39.8	-42.4	15.3	0.00e+00	0	57	0	320864256	51	4799
2026-01-07 12:02:14.79	262.89	14.48	-39.8	-42.4	15.3	0.00e+00	0	57	0	322961408	51	4779
2026-01-07 12:02:15.80	263.09	14.51	-40.0	-42.7	15.0	0.00e+00	0	57	0	325058560	51	4950
2026-01-07 12:02:16.81	263.30	14.53	-40.1	-42.8	14.9	0.00e+00	0	57	0	327155712	51	5011
2026-01-07 12:02:17.82	263.51	14.55	-40.4	-43.3	14.5	7.00e-07	0	57	0	328204288	51	5288
2026-01-07 12:02:18.83	263.71	14.57	-40.4	-43.3	14.4	7.00e-07	0	57	0	330301440	51	5294
2026-01-07 12:02:19.83	263.92	14.59	-40.4	-43.2	14.5	0.00e+00	0	57	0	332398592	51	5264
2026-01-07 12:02:20.84	264.13	14.61	-40.3	-43.1	14.6	0.00e+00	0	57	0	334495744	51	5173
2026-01-07 12:02:21.85	264.34	14.63	-40.2	-43.0	14.8	0.00e+00	0	57	0	336592896	51	5103
2026-01-07 12:02:22.86	264.54	14.65	-40.1	-42.9	14.8	0.00e+00	0	57	0	338690048	51	5044
2026-01-07 12:02:23.87	264.75	14.67	-40.1	-42.9	14.8	0.00e+00	0	57	0	339738624	51	5050
2026-01-07 12:02:24.88	264.96	14.69	-40.4	-43.3	14.5	7.00e-07	0	57	0	341835776	51	5293
2026-01-07 12:02:25.89	265.17	14.71	-40.4	-43.3	14.4	3.00e-06	0	57	0	343932928	51	5327
2026-01-07 12:02:26.90	265.38	14.73	-40.6	-43.7	14.0	1.50e-06	0	57	0	346030080	51	5541
2026-01-07 12:02:27.91	265.59	14.75	-40.6	-43.7	13.9	3.00e-06	0	57	0	347078656	52	5243
2026-01-07 12:02:28.92	265.80	14.77	-40.6	-43.7	13.9	4.50e-06	0	57	0	349175808	52	5257
2026-01-07 12:02:29.93	266.01	14.79	-40.4	-43.4	14.2	3.80e-06	0	57	0	351272960	52	5062
2026-01-07 12:02:30.94	266.22	14.80	-40.3	-43.3	14.4	0.00e+00	0	57	0	353370112	52	4985
2026-01-07 12:02:31.95	266.43	14.82	-40.5	-43.5	14.2	7.00e-07	0	57	0	355467264	52	5105
2026-01-07 12:02:32.96	266.65	14.84	-40.5	-43.5	14.1	2.20e-06	0	57	0	356515840	52	5155
2026-01-07 12:02:33.97	266.86	14.85	-40.9	-44.3	13.4	4.50e-06	0	57	0	358612992	52	5599
2026-01-07 12:02:34.98	267.07	14.87	-41.2	-44.8	12.8	2.82e-05	0	57	0	360710144	52	5963
2026-01-07 12:02:35.99	267.28	14.88	-41.4	-45.2	12.5	1.17e-04	0	57	0	362807296	53	5859
2026-01-07 12:02:37.00	267.49	14.90	-41.3	-45.0	12.6	1.40e-04	0	57	0	364904448	53	5748
2026-01-07 12:02:38.01	267.70	14.91	-41.2	-44.8	12.8	7.55e-05	0	57	0	367001600	53	5650
2026-01-07 12:02:39.02	267.92	14.93	-40.8	-44.1	13.5	2.44e-05	0	57	0	368050176	53	5181
2026-01-07 12:02:40.03	268.13	14.94	-40.6	-43.7	13.9	6.80e-06	0	57	0	370147328	53	4930
2026-01-07 12:02:41.04	268.34	14.96	-40.2	-43.0	14.5	0.00e+00	0	57	0	372244480	52	4865
2026-01-07 12:02:42.05	268.56	14.97	-40.2	-43.0	14.7	0.00e+00	0	57	0	374341632	52	4831
2026-01-07 12:02:43.06	268.77	14.98	-40.3	-43.2	14.4	7.00e-07	0	57	0	376438784	52	4940
2026-01-07 12:02:44.07	268.98	15.00	-40.5	-43.6	14.1	2.20e-06	0	57	0	377487360	52	5185
2026-01-07 12:02:45.08	269.20	15.01	-40.7	-44.0	13.7	5.30e-06	0	57	0	379584512	52	5411
2026-01-07 12:02:46.09	269.41	15.02	-40.7	-43.9	13.7	7.60e-06	0	57	0	381681664	52	5377
2026-01-07 12:02:47.10	269.62	15.03	-40.6	-43.7	13.9	1.50e-06	0	57	0	383778816	52	5278
2026-01-07 12:02:48.11	269.84	15.04	-40.3	-43.3	14.3	2.20e-06	0	57	0	385875968	52	5003
2026-01-07 12:02:49.12	270.05	15.05	-40.2	-43.0	14.7	0.00e+00	0	57	0	386924544	52	4832
2026-01-07 12:02:50.13	270.27	15.06	-40.2	-43.0	14.6	7.00e-07	0	57	0	389021696	52	4853
2026-01-07 12:02:51.14	270.48	15.07	-40.1	-42.8	14.9	0.00e+00	0	57	0	391118848	51	5001
2026-01-07 12:02:52.15	270.69	15.08	-40.1	-42.9	14.8	7.00e-07	0	57	0	393216000	51	5056
2026-01-07 12:02:53.16	270.91	15.09	-40.3	-43.1	14.6	1.50e-06	0	57	0	395313152	51	5203
2026-01-07 12:02:54.17	271.12	15.10	-40.3	-43.1	14.6	2.20e-06	0	57	0	396361728	51	5177
2026-01-07 12:02:55.18	271.34	15.11	-40.2	-43.0	14.6	1.50e-06	0	57	0	398458880	51	5123
2026-01-07 12:02:56.19	271.55	15.12	-40.1	-42.9	14.8	7.00e-07	0	57	0	400556032	51	5076
2026-01-07 12:02:57.20	271.77	15.13	-40.0	-42.7	15.0	0.00e+00	0	57	0	402653184	51	4960
2026-01-07 12:02:58.21	271.98	15.13	-39.9	-42.6	15.0	0.00e+00	0	57	0	404750336	51	4899
2026-01-07 12:02:59.22	272.20	15.14	-40.0	-42.8	14.9	0.00e+00	0	57	0	406847488	51	4985
2026-01-07 12:03:00.23	272.42	15.15	-40.2	-43.0	14.6	0.00e+00	0	57	0	407896064	51	5132
2026-01-07 12:03:01.24	272.63	15.15	-40.4	-43.4	14.3	0.00e+00	0	57	0	409993216	51	5355
2026-01-07 12:03:02.25	272.85	15.16	-40.6	-43.6	14.1	1.50e-06	0	57	0	412090368	51	5502
2026-01-07 12:03:03.26	273.06	15.17	-40.6	-43.7	14.0	2.20e-06	0	57	0	414187520	51	5539
2026-01-07 12:03:04.27	273.28	15.17	-40.5	-43.5	14.2	7.00e-07	0	57	0	416284672	51	5424
2026-01-07 12:03:05.27	273.49	15.18	-40.5	-43.4	14.2	2.20e-06	0	57	0	417333248	51	5392
2026-01-07 12:03:06.28	273.71	15.18	-40.2	-43.0	14.6	1.50e-06	0	57	0	419430400	51	5147
2026-01-07 12:03:07.29	273.92	15.19	-40.3	-43.2	14.5	1.50e-06	0	57	0	421527552	51	5223
2026-01-07 12:03:08.30	274.14	15.19	-40.4	-43.3	14.4	0.00e+00	0	57	0	423624704	51	5280
2026-01-07 12:03:09.31	274.36	15.19	-40.5	-43.6	14.1	7.00e-07	0	57	0	425721856	51	5469
2026-01-07 12:03:10.32	274.57	15.20	-40.7	-43.8	13.7	3.80e-06	0	57	0	426770432	52	5335
2026-01-07 12:03:11.33	274.79	15.20	-40.7	-43.9	13.7	7.60e-06	0	57	0	428867584	52	5389
2026-01-07 12:03:12.34	275.00	15.20	-40.8	-44.0	13.5	6.10e-06	0	57	0	430964736	52	5424
2026-01-07 12:03:13.35	275.22	15.20	-40.6	-43.8	13.8	3.00e-06	0	57	0	433061888	52	5298
2026-01-07 12:03:14.36	275.44	15.20	-40.7	-43.9	13.7	5.30e-06	0	57	0	435159040	52	5348
2026-01-07 12:03:15.37	275.65	15.20	-40.6	-43.7	13.9	9.10e-06	0	57	0	436207616	52	5273
2026-01-07 12:03:16.38	275.87	15.21	-40.6	-43.7	13.9	5.30e-06	0	57	0	438304768	52	5244
2026-01-07 12:03:17.39	276.09	15.21	-40.6	-43.7	13.9	3.80e-06	0	57	0	440401920	52	5230
2026-01-07 12:03:18.39	276.30	15.21	-40.5	-43.5	14.0	5.30e-06	0	57	0	442499072	52	5158
2026-01-07 12:03:19.40	276.52	15.20	-40.5	-43.6	14.0	1.50e-06	0	57	0	444596224	52	5194
2026-01-07 12:03:20.41	276.73	15.20	-40.5	-43.5	14.0	1.50e-06	0	57	0	445644800	52	5157
2026-01-07 12:03:21.42	276.95	15.20	-40.3	-43.2	14.3	7.00e-07	0	57	0	447741952	52	4963
2026-01-07 12:03:22.43	277.16	15.20	-40.3	-43.2	14.3	1.50e-06	0	57	0	449839104	52	4967
2026-01-07 12:03:23.44	277.38	15.20	-40.3	-43.2	14.3	0.00e+00	0	57	0	451936256	52	4983
2026-01-07 12:03:24.45	277.60	15.20	-40.4	-43.4	14.1	7.00e-07	0	57	0	454033408	52	5091
2026-01-07 12:03:25.46	277.81	15.19	-40.6	-43.7	13.9	2.20e-06	0	57	0	455081984	52	5238
2026-01-07 12:03:26.47	278.03	15.19	-40.6	-43.7	13.8	3.80e-06	0	57	0	457179136	52	5248
2026-01-07 12:03:27.48	278.24	15.19	-40.5	-43.6	14.0	5.30e-06	0	57	0	459276288	52	5172
2026-01-07 12:03:28.49	278.46	15.18	-40.4	-43.4	14.2	3.00e-06	0	57	0	461373440	52	5046
2026-01-07 12:03:29.50	278.68	15.18	-40.2	-43.1	14.5	7.00e-07	0	57	0	463470592	52	4873
2026-01-07 12:03:30.51	278.89	15.17	-40.1	-42.9	14.6	0.00e+00	0	57	0	464519168	52	4789
2026-01-07 12:03:31.52	279.11	15.17	-40.1	-42.8	14.7	0.00e+00	0	57	0	466616320	52	4753
2026-01-07 12:03:32.53	279.32	15.16	-40.0	-42.8	14.7	0.00e+00	0	57	0	468713472	52	4735
2026-01-07 12:03:33.54	279.54	15.16	-40.1	-43.0	14.6	0.00e+00	0	57	0	470810624	52	4839
2026-01-07 12:03:34.55	279.75	15.15	-40.3	-43.3	14.3	2.20e-06	0	57	0	472907776	52	4992
2026-01-07 12:03:35.56	279.97	15.15	-40.2	-43.2	14.4	0.00e+00	0	57	0	475004928	52	4927
2026-01-07 12:03:36.57	280.18	15.14	-40.2	-43.1	14.4	2.20e-06	0	57	0	476053504	52	4924
2026-01-07 12:03:37.58	280.40	15.13	-40.1	-42.9	14.7	0.00e+00	0	57	0	478150656	52	4766
2026-01-07 12:03:38.59	280.61	15.12	-40.0	-42.7	14.9	7.00e-07	0	57	0	480247808	51	4954
2026-01-07 12:03:39.60	280.83	15.12	-40.0	-42.7	14.9	0.00e+00	0	57	0	482344960	51	4948
2026-01-07 12:03:40.61	281.04	15.11	-40.0	-42.7	14.9	0.00e+00	0	57	0	483393536	51	4974
2026-01-07 12:03:41.62	281.26	15.10	-40.1	-42.8	14.8	0.00e+00	0	57	0	485490688	51	5018
2026-01-07 12:03:42.63	281.47	15.09	-40.2	-43.0	14.6	0.00e+00	0	57	0	487587840	51	5158
2026-01-07 12:03:43.63	281.69	15.08	-40.2	-43.1	14.5	1.50e-06	0	57	0	489684992	51	5204
2026-01-07 12:03:44.64	281.90	15.07	-40.3	-43.2	14.4	0.00e+00	0	57	0	491782144	51	5255
2026-01-07 12:03:45.65	282.11	15.06	-40.2	-43.0	14.6	7.00e-07	0	57	0	492830720	51	5115
2026-01-07 12:03:46.66	282.33	15.05	-39.9	-42.5	15.1	0.00e+00	0	57	0	494927872	51	4868
2026-01-07 12:03:47.67	282.54	15.04	-39.7	-42.3	15.3	0.00e+00	0	57	0	497025024	51	4746
2026-01-07 12:03:48.68	282.76	15.03	-39.6	-42.1	15.5	0.00e+00	0	57	0	499122176	51	4626
2026-01-07 12:03:49.69	282.97	15.02	-39.6	-42.0	15.6	0.00e+00	0	57	0	501219328	51	4597
2026-01-07 12:03:50.70	283.18	15.00	-39.6	-42.1	15.6	0.00e+00	0	57	0	503316480	50	4875
2026-01-07 12:03:51.71	283.40	14.99	-39.6	-42.1	15.5	0.00e+00	0	57	0	504365056	50	4915
2026-01-07 12:03:52.72	283.61	14.98	-39.7	-42.3	15.4	7.00e-07	0	57	0	506462208	50	5008
2026-01-07 12:03:53.73	283.82	14.96	-39.9	-42.5	15.1	0.00e+00	0	57	0	508559360	50	5149
2026-01-07 12:03:54.74	284.03	14.95	-40.0	-42.7	15.0	7.00e-07	0	57	0	510656512	50	5248
2026-01-07 12:03:55.75	284.25	14.94	-40.0	-42.8	14.9	7.00e-07	0	57	0	512753664	50	5281
2026-01-07 12:03:56.75	284.46	14.92	-40.0	-42.7	14.9	0.00e+00	0	57	0	513802240	50	5274
2026-01-07 12:03:57.76	284.67	14.91	-40.0	-42.8	14.8	0.00e+00	0	57	0	515899392	50	5291
2026-01-07 12:03:58.78	284.88	14.89	-40.0	-42.8	14.9	0.00e+00	0	57	0	517996544	50	5285
2026-01-07 12:03:59.79	285.09	14.88	-40.1	-42.8	14.8	0.00e+00	0	57	0	520093696	50	5324
2026-01-07 12:04:00.80	285.31	14.86	-40.0	-42.8	14.8	0.00e+00	0	57	0	522190848	50	5287
2026-01-07 12:04:01.80	285.51	14.85	-40.1	-42.9	14.7	0.00e+00	0	57	0	523239424	50	5388
2026-01-07 12:04:02.81	285.73	14.83	-40.1	-42.9	14.6	0.00e+00	0	57	0	525336576	51	5089
2026-01-07 12:04:03.82	285.94	14.81	-40.2	-43.1	14.5	1.50e-06	0	57	0	527433728	51	5176
2026-01-07 12:04:04.83	286.15	14.80	-40.3	-43.2	14.4	0.00e+00	0	57	0	529530880	51	5235
2026-01-07 12:04:05.84	286.36	14.78	-40.2	-43.1	14.5	1.50e-06	0	57	0	531628032	51	5161
2026-01-07 12:04:06.85	286.57	14.76	-40.2	-43.1	14.4	0.00e+00	0	57	0	532676608	51	5207
2026-01-07 12:04:07.86	286.78	14.74	-40.3	-43.3	14.3	2.20e-06	0	57	0	534773760	51	5302
2026-01-07 12:04:08.87	286.99	14.73	-40.4	-43.4	14.2	7.00e-07	0	57	0	536870912	51	5342
2026-01-07 12:04:09.88	287.19	14.71	-40.4	-43.4	14.2	0.00e+00	0	57	0	538968064	51	5360
2026-01-07 12:04:10.88	287.40	14.69	-40.4	-43.5	14.0	1.50e-06	0	57	0	541065216	51	5430
2026-01-07 12:04:11.89	287.61	14.67	-40.4	-43.4	14.1	3.80e-06	0	57	0	542113792	51	5395
2026-01-07 12:04:12.90	287.82	14.65	-40.5	-43.5	14.0	2.20e-06	0	57	0	544210944	51	5452
2026-01-07 12:04:13.91	288.03	14.63	-40.5	-43.6	13.9	3.80e-06	0	57	0	546308096	51	5478
2026-01-07 12:04:14.92	288.23	14.61	-40.3	-43.3	14.2	2.20e-06	0	57	0	548405248	51	5322
2026-01-07 12:04:15.93	288.44	14.59	-40.2	-43.2	14.3	7.00e-07	0	57	0	550502400	51	5239
2026-01-07 12:04:16.95	288.65	14.57	-40.2	-43.2	14.3	3.00e-06	0	57	0	551550976	51	5245
2026-01-07 12:04:17.96	288.86	14.54	-40.1	-42.9	14.6	0.00e+00	0	57	0	553648128	51	5096
2026-01-07 12:04:18.97	289.06	14.52	-40.0	-42.8	14.7	0.00e+00	0	57	0	555745280	51	5008
2026-01-07 12:04:19.97	289.27	14.50	-39.9	-42.6	14.8	0.00e+00	0	57	0	557842432	51	4917
2026-01-07 12:04:20.98	289.47	14.48	-39.7	-42.3	15.1	0.00e+00	0	57	0	559939584	51	4749
2026-01-07 12:04:21.99	289.68	14.46	-39.8	-42.4	15.0	0.00e+00	0	57	0	560988160	51	4807
2026-01-07 12:04:23.00	289.89	14.43	-39.7	-42.3	15.1	0.00e+00	0	57	0	563085312	51	4742
2026-01-07 12:04:24.01	290.09	14.41	-39.7	-42.3	15.1	0.00e+00	0	57	0	565182464	51	4757
2026-01-07 12:04:25.02	290.30	14.39	-39.6	-42.2	15.2	0.00e+00	0	57	0	567279616	51	4694
2026-01-07 12:04:26.03	290.50	14.36	-39.6	-42.2	15.3	0.00e+00	0	57	0	569376768	51	4663
2026-01-07 12:04:27.04	290.70	14.34	-39.6	-42.2	15.3	0.00e+00	0	57	0	571473920	51	4692
2026-01-07 12:04:28.05	290.91	14.31	-39.6	-42.2	15.3	0.00e+00	0	57	0	572522496	51	4701
2026-01-07 12:04:29.05	291.11	14.29	-39.4	-41.9	15.6	0.00e+00	0	57	0	574619648	50	4801
2026-01-07 12:04:30.06	291.31	14.26	-39.3	-41.8	15.7	0.00e+00	0	57	0	576716800	50	4727
2026-01-07 12:04:31.07	291.51	14.24	-39.3	-41.7	15.8	0.00e+00	0	57	0	578813952	50	4672
2026-01-07 12:04:32.08	291.72	14.21	-39.4	-42.0	15.5	0.00e+00	0	57	0	580911104	50	4819
2026-01-07 12:04:33.09	291.92	14.19	-39.5	-42.1	15.3	0.00e+00	0	57	0	581959680	50	4881
2026-01-07 12:04:34.10	292.12	14.16	-39.7	-42.3	15.1	0.00e+00	0	57	0	584056832	50	5027
2026-01-07 12:04:35.11	292.32	14.13	-39.6	-42.3	15.1	0.00e+00	0	57	0	586153984	50	5001
2026-01-07 12:04:36.12	292.52	14.10	-39.6	-42.3	15.2	0.00e+00	0	57	0	588251136	50	4986
2026-01-07 12:04:37.13	292.72	14.08	-39.7	-42.4	15.1	0.00e+00	0	57	0	590348288	50	5054
2026-01-07 12:04:38.14	292.92	14.05	-39.6	-42.3	15.1	0.00e+00	0	57	0	591396864	50	5016
2026-01-07 12:04:39.16	293.13	14.02	-39.7	-42.4	15.0	0.00e+00	0	57	0	593494016	50	5062
2026-01-07 12:04:40.17	293.33	13.99	-39.8	-42.5	14.9	0.00e+00	0	57	0	595591168	50	5141
2026-01-07 12:04:41.18	293.52	13.97	-39.7	-42.5	14.9	0.00e+00	0	57	0	597688320	50	5108
2026-01-07 12:04:42.19	293.72	13.94	-39.8	-42.5	14.9	0.00e+00	0	57	0	599785472	50	5140
2026-01-07 12:04:43.20	293.92	13.91	-39.7	-42.5	14.9	7.00e-07	0	57	0	600834048	50	5108
2026-01-07 12:04:44.20	294.12	13.88	-39.7	-42.4	14.9	0.00e+00	0	57	0	602931200	50	5077
2026-01-07 12:04:45.21	294.32	13.85	-39.5	-42.2	15.1	0.00e+00	0	57	0	605028352	50	4942
2026-01-07 12:04:46.22	294.51	13.82	-39.4	-41.9	15.4	0.00e+00	0	57	0	607125504	50	4785
2026-01-07 12:04:47.23	294.71	13.79	-39.3	-41.8	15.6	0.00e+00	0	56	0	609222656	50	4725
2026-01-07 12:04:48.24	294.91	13.76	-39.2	-41.7	15.6	0.00e+00	0	57	0	610271232	50	4679
2026-01-07 12:04:49.25	295.10	13.73	-39.1	-41.6	15.8	0.00e+00	0	57	0	612368384	50	4616
2026-01-07 12:04:50.26	295.30	13.70	-39.1	-41.6	15.8	0.00e+00	0	57	0	614465536	50	4616
2026-01-07 12:04:51.27	295.49	13.67	-39.2	-41.6	15.6	0.00e+00	0	57	0	616562688	50	4646
2026-01-07 12:04:52.28	295.69	13.63	-39.1	-41.4	15.9	0.00e+00	0	57	0	618659840	50	4539
2026-01-07 12:04:53.29	295.88	13.60	-38.9	-41.3	16.1	0.00e+00	0	57	0	619708416	49	4709
2026-01-07 12:04:54.30	296.08	13.57	-39.0	-41.3	16.0	0.00e+00	0	57	0	621805568	49	4740
2026-01-07 12:04:55.31	296.27	13.54	-39.0	-41.4	15.9	0.00e+00	0	57	0	623902720	49	4792
2026-01-07 12:04:56.32	296.46	13.51	-39.1	-41.6	15.7	0.00e+00	0	57	0	625999872	49	4888
2026-01-07 12:04:57.33	296.66	13.47	-39.2	-41.6	15.7	0.00e+00	0	57	0	628097024	49	4925
2026-01-07 12:04:58.34	296.85	13.44	-39.2	-41.7	15.6	0.00e+00	0	56	0	629145600	49	4961
2026-01-07 12:04:59.35	297.04	13.41	-39.3	-41.8	15.5	0.00e+00	0	57	0	631242752	49	5020
2026-01-07 12:05:00.36	297.23	13.37	-39.3	-41.8	15.5	0.00e+00	0	57	0	633339904	49	5007
2026-01-07 12:05:01.37	297.42	13.34	-39.4	-42.0	15.4	0.00e+00	0	57	0	635437056	49	5117
2026-01-07 12:05:02.38	297.61	13.31	-39.5	-42.1	15.3	0.00e+00	0	57	0	637534208	49	5195
2026-01-07 12:05:03.39	297.80	13.27	-39.5	-42.1	15.3	0.00e+00	0	57	0	639631360	49	5211
2026-01-07 12:05:04.40	297.99	13.24	-39.7	-42.4	15.0	0.00e+00	0	57	0	640679936	50	5064
2026-01-07 12:05:05.41	298.18	13.20	-39.8	-42.5	14.9	0.00e+00	0	57	0	642777088	50	5120
2026-01-07 12:05:06.42	298.37	13.17	-39.8	-42.5	15.0	7.00e-07	0	57	0	644874240	50	5123
2026-01-07 12:05:07.43	298.56	13.13	-39.8	-42.5	15.0	0.00e+00	0	57	0	646971392	50	5124
2026-01-07 12:05:08.44	298.75	13.10	-39.6	-42.1	15.3	0.00e+00	0	57	0	649068544	50	4904
2026-01-07 12:05:09.44	298.93	13.06	-39.5	-42.0	15.4	0.00e+00	0	57	0	650117120	50	4862
2026-01-07 12:05:10.45	299.12	13.03	-39.4	-41.9	15.6	0.00e+00	0	57	0	652214272	50	4771
2026-01-07 12:05:11.46	299.31	12.99	-39.4	-41.8	15.6	0.00e+00	0	57	0	654311424	50	4738
2026-01-07 12:05:12.47	299.49	12.95	-39.4	-41.8	15.7	0.00e+00	0	57	0	656408576	50	4752
2026-01-07 12:05:13.48	299.68	12.92	-39.5	-42.0	15.5	0.00e+00	0	57	0	658505728	50	4869
2026-01-07 12:05:14.49	299.86	12.88	-39.6	-42.2	15.3	0.00e+00	0	57	0	659554304	50	4946
2026-01-07 12:05:15.50	300.05	12.84	-39.8	-42.4	15.1	0.00e+00	0	57	0	661651456	50	5070
2026-01-07 12:05:16.51	300.23	12.81	-39.7	-42.3	15.2	0.00e+00	0	57	0	663748608	50	5010
2026-01-07 12:05:17.52	300.42	12.77	-39.6	-42.1	15.4	0.00e+00	0	57	0	665845760	50	4918
2026-01-07 12:05:18.53	300.60	12.73	-39.5	-42.1	15.4	0.00e+00	0	57	0	667942912	50	4872
2026-01-07 12:05:19.54	300.78	12.69	-39.5	-41.9	15.6	0.00e+00	0	57	0	668991488	50	4810
2026-01-07 12:05:20.55	300.97	12.66	-39.6	-42.1	15.5	0.00e+00	0	57	0	671088640	50	4882
2026-01-07 12:05:21.56	301.15	12.62	-39.6	-42.2	15.3	0.00e+00	0	57	0	673185792	50	4942
2026-01-07 12:05:22.57	301.33	12.58	-39.7	-42.3	15.3	0.00e+00	0	57	0	675282944	50	4987
2026-01-07 12:05:23.58	301.51	12.54	-39.8	-42.5	15.0	0.00e+00	0	57	0	677380096	50	5137
2026-01-07 12:05:24.59	301.69	12.50	-40.0	-42.8	14.8	0.00e+00	0	57	0	678428672	50	5286
2026-01-07 12:05:25.60	301.87	12.46	-40.1	-42.9	14.6	0.00e+00	0	57	0	680525824	50	5379
2026-01-07 12:05:26.61	302.05	12.42	-40.1	-42.9	14.6	7.00e-07	0	57	0	682622976	51	5071
2026-01-07 12:05:27.61	302.23	12.38	-40.1	-43.0	14.5	0.00e+00	0	57	0	684720128	51	5135
2026-01-07 12:05:28.62	302.41	12.35	-40.1	-42.9	14.5	0.00e+00	0	57	0	686817280	51	5088
2026-01-07 12:05:29.64	302.59	12.30	-40.2	-43.1	14.5	0.00e+00	0	57	0	687865856	51	5171
2026-01-07 12:05:30.65	302.77	12.27	-40.2	-43.1	14.4	7.00e-07	0	57	0	689963008	51	5170
2026-01-07 12:05:31.66	302.94	12.23	-40.2	-43.0	14.5	7.00e-07	0	57	0	692060160	51	5146
2026-01-07 12:05:32.67	303.12	12.18	-40.1	-43.0	14.5	0.00e+00	0	57	0	694157312	51	5107
2026-01-07 12:05:33.68	303.30	12.14	-40.1	-43.0	14.5	1.50e-06	0	57	0	696254464	51	5111
2026-01-07 12:05:34.69	303.47	12.10	-40.1	-43.0	14.5	0.00e+00	0	57	0	697303040	51	5127
2026-01-07 12:05:35.70	303.65	12.06	-40.3	-43.3	14.2	2.20e-06	0	57	0	699400192	51	5329
2026-01-07 12:05:36.71	303.82	12.02	-40.5	-43.5	14.0	3.80e-06	0	57	0	701497344	51	5454
2026-01-07 12:05:37.72	304.00	11.98	-40.7	-43.9	13.6	5.30e-06	0	57	0	703594496	51	5668
2026-01-07 12:05:38.72	304.17	11.94	-40.7	-44.0	13.4	1.44e-05	0	57	0	705691648	52	5452
2026-01-07 12:05:39.74	304.35	11.90	-40.9	-44.4	13.0	2.44e-05	0	57	0	707788800	52	5672
2026-01-07 12:05:40.75	304.52	11.86	-41.1	-44.7	12.7	6.17e-05	0	57	0	708837376	52	5876
2026-01-07 12:05:41.76	304.69	11.81	-41.0	-44.5	12.8	6.17e-05	0	57	0	710934528	52	5755
2026-01-07 12:05:42.77	304.86	11.77	-40.9	-44.4	13.0	4.34e-05	0	57	0	713031680	52	5680
2026-01-07 12:05:43.78	305.04	11.73	-40.8	-44.2	13.1	2.44e-05	0	57	0	715128832	52	5586
2026-01-07 12:05:44.79	305.21	11.69	-40.9	-44.3	13.1	2.74e-05	0	57	0	717225984	52	5624
2026-01-07 12:05:45.80	305.38	11.65	-40.9	-44.4	13.0	2.67e-05	0	57	0	718274560	52	5663
2026-01-07 12:05:46.81	305.55	11.60	-40.9	-44.5	12.9	4.34e-05	0	57	0	720371712	52	5726
2026-01-07 12:05:47.82	305.72	11.56	-41.1	-44.8	12.5	6.63e-05	0	57	0	722468864	52	5977
2026-01-07 12:05:48.83	305.89	11.52	-41.2	-45.0	12.4	1.33e-04	0	57	0	724566016	52	6070
2026-01-07 12:05:49.84	306.06	11.48	-41.1	-44.8	12.6	9.61e-05	0	57	0	726663168	52	5936
2026-01-07 12:05:50.85	306.22	11.43	-41.0	-44.7	12.7	8.92e-05	0	57	0	727711744	52	5858
2026-01-07 12:05:51.86	306.39	11.39	-40.9	-44.4	12.9	4.27e-05	0	57	0	729808896	52	5702
2026-01-07 12:05:52.87	306.56	11.35	-40.6	-43.8	13.5	1.67e-05	0	57	0	731906048	52	5323
2026-01-07 12:05:53.88	306.73	11.30	-40.3	-43.4	14.0	3.80e-06	0	57	0	734003200	52	5068
2026-01-07 12:05:54.89	306.89	11.26	-40.4	-43.6	13.8	3.00e-06	0	57	0	736100352	52	5168
2026-01-07 12:05:55.90	307.06	11.21	-40.4	-43.5	13.8	6.10e-06	0	57	0	737148928	52	5135
2026-01-07 12:05:56.91	307.22	11.17	-40.4	-43.8	13.5	3.00e-06	0	56	0	739246080	52	5311
2026-01-07 12:05:57.92	307.39	11.13	-40.5	-44.0	13.2	1.52e-05	0	57	0	741343232	52	5458
2026-01-07 12:05:58.93	307.55	11.08	-40.7	-44.3	12.9	3.28e-05	0	57	0	743440384	52	5616
2026-01-07 12:05:59.94	307.72	11.04	-40.9	-44.8	12.5	8.23e-05	0	57	0	745537536	52	5936
2026-01-07 12:06:00.95	307.88	10.99	-41.0	-44.9	12.4	1.39e-04	0	57	0	746586112	52	6008
2026-01-07 12:06:01.96	308.04	10.95	-40.9	-44.7	12.5	1.80e-04	0	57	0	748683264	52	5886
2026-01-07 12:06:02.97	308.21	10.90	-41.0	-45.0	12.2	2.97e-04	0	57	0	750780416	52	6102
2026-01-07 12:06:03.98	308.37	10.86	-41.1	-45.1	12.1	2.43e-04	0	57	0	752877568	52	6179
2026-01-07 12:06:04.99	308.53	10.81	-41.1	-45.1	12.1	3.31e-04	0	57	0	754974720	52	6159
2026-01-07 12:06:06.00	308.69	10.77	-41.0	-45.0	12.2	2.43e-04	0	57	0	756023296	52	6118
2026-01-07 12:06:07.01	308.85	10.72	-41.1	-45.2	12.0	2.99e-04	0	57	0	758120448	52	6258
2026-01-07 12:06:08.02	309.01	10.68	-41.1	-45.1	12.0	4.16e-04	0	57	0	760217600	52	6198
2026-01-07 12:06:09.03	309.17	10.63	-41.0	-45.1	12.1	1.86e-04	0	57	0	762314752	52	6157
2026-01-07 12:06:10.04	309.33	10.59	-40.9	-44.8	12.4	2.24e-04	0	57	0	764411904	52	5978
2026-01-07 12:06:11.04	309.49	10.54	-40.8	-44.7	12.4	1.27e-04	0	57	0	765460480	52	5896
2026-01-07 12:06:12.05	309.65	10.50	-40.7	-44.4	12.8	6.40e-05	0	57	0	767557632	52	5695
2026-01-07 12:06:13.06	309.80	10.45	-40.7	-44.5	12.7	1.23e-04	0	57	0	769654784	52	5748
2026-01-07 12:06:14.07	309.96	10.41	-40.7	-44.4	12.8	7.55e-05	0	57	0	771751936	52	5713
2026-01-07 12:06:15.08	310.12	10.36	-40.9	-44.7	12.4	1.01e-04	0	57	0	773849088	52	5893
2026-01-07 12:06:16.09	310.27	10.31	-40.9	-44.8	12.4	1.14e-04	0	57	0	775946240	52	5951
2026-01-07 12:06:17.10	310.43	10.27	-40.9	-44.8	12.3	1.26e-04	0	57	0	776994816	52	5979
2026-01-07 12:06:18.11	310.59	10.22	-41.0	-45.0	12.1	2.04e-04	0	57	0	779091968	52	6092
2026-01-07 12:06:19.12	310.74	10.17	-41.0	-45.1	12.0	2.07e-04	0	57	0	781189120	52	6188
2026-01-07 12:06:20.13	310.89	10.13	-40.9	-44.8	12.3	2.17e-04	0	57	0	783286272	52	5961
2026-01-07 12:06:21.14	311.05	10.08	-40.8	-44.6	12.5	1.15e-04	0	57	0	785383424	52	5849
2026-01-07 12:06:22.15	311.20	10.03	-40.7	-44.4	12.8	1.14e-04	0	57	0	786432000	52	5672
2026-01-07 12:06:23.16	311.36	9.99	-40.5	-44.1	13.1	3.73e-05	0	57	0	788529152	52	5467
2026-01-07 12:06:24.17	311.51	9.94	-40.4	-43.9	13.3	2.74e-05	0	57	0	790626304	52	5353
2026-01-07 12:06:25.18	311.66	9.89	-40.3	-43.7	13.5	1.90e-05	0	57	0	792723456	52	5235
2026-01-07 12:06:26.19	311.81	9.85	-40.2	-43.5	13.6	7.60e-06	0	57	0	794820608	52	5144
2026-01-07 12:06:27.20	311.96	9.80	-40.3	-43.7	13.4	1.14e-05	0	57	0	795869184	52	5255
2026-01-07 12:06:28.21	312.11	9.75	-40.4	-43.9	13.2	2.36e-05	0	57	0	797966336	52	5351
2026-01-07 12:06:29.22	312.26	9.71	-40.5	-44.1	12.9	4.42e-05	0	57	0	800063488	52	5522
2026-01-07 12:06:30.23	312.41	9.66	-40.7	-44.5	12.5	8.85e-05	0	57	0	802160640	52	5786
2026-01-07 12:06:31.24	312.56	9.61	-40.9	-44.9	12.2	1.80e-04	0	57	0	804257792	52	6032
2026-01-07 12:06:32.24	312.71	9.56	-41.0	-45.0	12.0	2.91e-04	0	57	0	805306368	52	6125
2026-01-07 12:06:33.25	312.86	9.52	-41.1	-45.2	11.9	4.68e-04	0	57	0	807403520	52	6230
2026-01-07 12:06:34.26	313.00	9.47	-41.0	-45.0	12.1	3.43e-04	0	57	0	809500672	52	6087
2026-01-07 12:06:35.27	313.15	9.42	-41.2	-45.4	11.6	3.93e-04	0	57	0	811597824	52	6417
2026-01-07 12:06:36.28	313.30	9.37	-41.0	-45.1	12.0	3.96e-04	0	57	0	813694976	52	6140
2026-01-07 12:06:37.29	313.45	9.33	-41.0	-45.0	12.1	2.97e-04	0	57	0	814743552	52	6099
2026-01-07 12:06:38.30	313.59	9.28	-40.8	-44.7	12.4	1.89e-04	0	57	0	816840704	52	5881
2026-01-07 12:06:39.31	313.74	9.23	-40.7	-44.5	12.5	1.36e-04	0	57	0	818937856	52	5759
2026-01-07 12:06:40.32	313.88	9.18	-40.7	-44.5	12.5	1.11e-04	0	57	0	821035008	52	5772
2026-01-07 12:06:41.33	314.03	9.13	-40.7	-44.5	12.6	8.01e-05	0	57	0	823132160	52	5745
2026-01-07 12:06:42.34	314.17	9.09	-40.5	-44.2	12.8	5.11e-05	0	57	0	824180736	52	5574
2026-01-07 12:06:43.35	314.31	9.04	-40.7	-44.4	12.6	8.54e-05	0	57	0	826277888	52	5719
2026-01-07 12:06:44.36	314.46	8.99	-40.6	-44.3	12.8	8.31e-05	0	57	0	828375040	52	5605
2026-01-07 12:06:45.37	314.60	8.94	-40.6	-44.4	12.6	1.09e-04	0	57	0	830472192	52	5679
2026-01-07 12:06:46.38	314.74	8.89	-40.3	-43.8	13.2	4.80e-05	0	57	0	832569344	52	5297
2026-01-07 12:06:47.39	314.88	8.84	-40.3	-43.8	13.2	1.52e-05	0	57	0	833617920	52	5297
2026-01-07 12:06:48.40	315.02	8.80	-40.2	-43.7	13.4	2.13e-05	0	57	0	835715072	52	5230
2026-01-07 12:06:49.41	315.17	8.75	-40.3	-43.7	13.3	1.83e-05	0	57	0	837812224	52	5245
2026-01-07 12:06:50.42	315.31	8.70	-40.3	-43.8	13.2	1.67e-05	0	57	0	839909376	52	5336
2026-01-07 12:06:51.43	315.45	8.65	-40.3	-43.8	13.2	2.21e-05	0	57	0	842006528	52	5321
2026-01-07 12:06:52.44	315.58	8.60	-40.3	-43.7	13.2	1.37e-05	0	57	0	844103680	52	5275
2026-01-07 12:06:53.45	315.72	8.55	-40.2	-43.6	13.5	2.21e-05	0	57	0	845152256	52	5163
2026-01-07 12:06:54.46	315.86	8.50	-40.3	-43.8	13.2	1.06e-05	0	57	0	847249408	52	5318
2026-01-07 12:06:55.47	316.00	8.45	-40.3	-43.8	13.3	2.36e-05	0	57	0	849346560	52	5294
2026-01-07 12:06:56.48	316.14	8.41	-40.4	-43.9	13.1	2.74e-05	0	57	0	851443712	52	5374
2026-01-07 12:06:57.49	316.28	8.36	-40.5	-44.2	12.9	4.80e-05	0	57	0	853540864	52	5561
2026-01-07 12:06:58.50	316.41	8.31	-40.5	-44.2	12.8	6.86e-05	0	56	0	854589440	52	5541
2026-01-07 12:06:59.51	316.55	8.26	-40.3	-43.8	13.2	2.13e-05	0	57	0	856686592	52	5302
2026-01-07 12:07:00.52	316.68	8.21	-40.3	-43.8	13.2	4.19e-05	0	57	0	858783744	52	5319
2026-01-07 12:07:01.53	316.82	8.16	-40.3	-43.8	13.2	1.75e-05	0	57	0	860880896	52	5319
2026-01-07 12:07:02.54	316.95	8.11	-40.3	-43.7	13.4	1.14e-05	0	57	0	862978048	52	5221
2026-01-07 12:07:03.55	317.09	8.06	-40.3	-43.7	13.3	2.59e-05	0	57	0	864026624	52	5239
2026-01-07 12:07:04.56	317.22	8.01	-42.6	-49.2	8.9	6.10e-06	0	57	0	866123776	55	8283
2026-01-07 12:07:05.57	317.36	7.96	-44.4	-58.8	3.8	1.49e+00	0	57	104	866123776	59	19856
2026-01-07 12:07:06.58	317.49	7.91	-44.7	-59.2	3.8	1.49e+00	0	57	104	866123776	59	20778
2026-01-07 12:07:07.59	317.62	7.86	-44.8	-59.4	3.8	1.49e+00	0	57	104	866123776	60	20121
2026-01-07 12:07:08.59	317.75	7.82	-44.9	-59.6	3.8	1.49e+00	0	57	104	866123776	60	20612
2026-01-07 12:07:09.60	317.89	7.77	-45.0	-59.7	3.8	1.49e+00	0	57	104	866123776	60	20917
2026-01-07 12:07:10.61	318.02	7.72	-45.0	-59.7	3.8	1.49e+00	0	57	104	866123776	60	21013
2026-01-07 12:07:11.63	318.15	7.67	-45.1	-59.8	3.8	1.49e+00	0	57	104	866123776	60	21156
2026-01-07 12:07:12.64	318.28	7.62	-45.1	-59.8	3.8	1.49e+00	0	57	104	866123776	60	21176
2026-01-07 12:07:13.65	318.41	7.57	-45.1	-59.8	3.8	1.49e+00	0	57	104	866123776	60	21209
2026-01-07 12:07:14.66	318.54	7.52	-45.1	-59.8	3.8	1.49e+00	0	57	104	866123776	60	21203
2026-01-07 12:07:15.67	318.67	7.47	-45.0	-59.8	3.8	1.49e+00	0	57	104	866123776	60	21117
2026-01-07 12:07:16.68	318.80	7.42	-45.0	-59.8	3.8	1.49e+00	0	57	104	866123776	60	21135
2026-01-07 12:07:17.69	318.93	7.37	-45.0	-59.8	3.8	1.49e+00	0	57	104	866123776	60	21122
2026-01-07 12:07:18.70	319.06	7.32	-45.0	-59.8	3.8	1.49e+00	0	57	104	866123776	60	21103
2026-01-07 12:07:19.71	319.18	7.27	-45.0	-59.8	3.8	1.49e+00	0	57	104	866123776	60	21143
2026-01-07 12:07:20.72	319.31	7.22	-45.0	-59.8	3.8	1.49e+00	0	57	104	866123776	60	21081
2026-01-07 12:07:21.73	319.44	7.17	-45.0	-59.8	3.8	1.49e+00	0	57	104	866123776	60	21052
2026-01-07 12:07:22.74	319.56	7.12	-45.0	-59.8	3.8	1.49e+00	0	57	104	866123776	60	21065
2026-01-07 12:07:23.75	319.69	7.07	-45.0	-59.8	3.8	1.49e+00	0	57	104	866123776	60	21043
2026-01-07 12:07:24.76	319.82	7.02	-45.0	-59.8	3.8	1.49e+00	0	57	104	866123776	60	21038
2026-01-07 12:07:25.78	319.94	6.97	-45.0	-59.7	3.8	1.49e+00	0	57	104	866123776	60	21010
2026-01-07 12:07:26.79	320.07	6.92	-45.0	-59.8	3.8	1.49e+00	0	57	104	866123776	60	21051
2026-01-07 12:07:27.80	320.19	6.87	-45.0	-59.8	3.8	1.49e+00	0	57	104	866123776	60	21023
2026-01-07 12:07:28.81	320.31	6.82	-45.0	-59.7	3.8	1.49e+00	0	57	104	866123776	60	21017
2026-01-07 12:07:29.82	320.44	6.77	-45.0	-59.8	3.8	1.49e+00	0	57	104	866123776	60	21031
2026-01-07 12:07:30.83	320.56	6.72	-45.0	-59.8	3.8	1.49e+00	0	57	104	866123776	60	21075
2026-01-07 12:07:31.84	320.68	6.67	-45.0	-59.8	3.8	1.49e+00	0	57	104	866123776	60	21065
2026-01-07 12:07:32.85	320.81	6.62	-45.0	-59.8	3.8	1.49e+00	0	57	104	866123776	60	21056
2026-01-07 12:07:33.86	320.93	6.57	-45.0	-59.7	3.8	1.49e+00	0	57	104	866123776	60	20992
2026-01-07 12:07:34.87	321.05	6.52	-45.0	-59.7	3.8	1.49e+00	0	57	104	866123776	60	20966
2026-01-07 12:07:35.89	321.17	6.47	-45.0	-59.7	3.8	1.49e+00	0	57	104	866123776	60	20972
2026-01-07 12:07:36.90	321.29	6.42	-45.0	-59.7	3.8	1.49e+00	0	57	104	866123776	60	20999
2026-01-07 12:07:37.91	321.41	6.37	-45.0	-59.8	3.8	1.49e+00	0	57	104	866123776	60	21022
2026-01-07 12:07:38.92	321.53	6.32	-45.0	-59.7	3.8	1.49e+00	0	57	104	866123776	60	20928
2026-01-07 12:07:39.93	321.65	6.27	-45.0	-59.7	3.8	1.49e+00	0	57	104	866123776	60	20923
2026-01-07 12:07:40.94	321.77	6.22	-45.0	-59.7	3.8	1.49e+00	0	57	104	866123776	60	21004
2026-01-07 12:07:41.95	321.89	6.17	-45.0	-59.8	3.8	1.49e+00	0	57	104	866123776	60	21022
2026-01-07 12:07:42.97	322.01	6.12	-45.0	-59.7	3.8	1.49e+00	0	57	104	866123776	60	20947
2026-01-07 12:07:43.98	322.13	6.07	-45.0	-59.7	3.8	1.49e+00	0	57	104	866123776	60	20937
2026-01-07 12:07:44.99	322.25	6.02	-45.0	-59.7	3.8	1.49e+00	0	57	104	866123776	60	20983
2026-01-07 12:07:46.00	322.36	5.97	-45.0	-59.7	3.8	1.49e+00	0	57	104	866123776	60	20922
2026-01-07 12:07:47.01	322.48	5.92	-45.0	-59.7	3.8	1.49e+00	0	57	104	866123776	60	20942
2026-01-07 12:07:48.02	322.60	5.87	-45.0	-59.7	3.8	1.49e+00	0	57	104	866123776	60	20966
2026-01-07 12:07:49.03	322.71	5.82	-45.0	-59.7	3.8	1.49e+00	0	57	104	866123776	60	20889
2026-01-07 12:07:50.05	322.83	5.77	-45.0	-59.7	3.8	1.49e+00	0	57	104	866123776	60	20971
2026-01-07 12:07:51.06	322.94	5.72	-45.0	-59.7	3.8	1.49e+00	0	57	104	866123776	60	20898
2026-01-07 12:07:52.07	323.06	5.67	-44.9	-59.7	3.8	1.49e+00	0	57	104	866123776	60	20974
2026-01-07 12:07:53.08	323.17	5.62	-45.0	-59.7	3.8	1.49e+00	0	57	104	866123776	60	20960
2026-01-07 12:07:54.09	323.29	5.57	-44.9	-59.7	3.8	1.49e+00	0	57	104	866123776	60	20894
2026-01-07 12:07:55.10	323.40	5.52	-45.0	-59.7	3.8	1.49e+00	0	57	104	866123776	60	20949
2026-01-07 12:07:56.11	323.52	5.47	-44.9	-59.7	3.8	1.49e+00	0	57	104	866123776	60	20933
2026-01-07 12:07:57.12	323.63	5.42	-44.9	-59.7	3.8	1.49e+00	0	57	104	866123776	60	20968
2026-01-07 12:07:58.13	323.74	5.37	-44.9	-59.7	3.8	1.49e+00	0	57	104	866123776	60	20896
2026-01-07 12:07:59.14	323.85	5.32	-45.0	-59.7	3.8	1.49e+00	0	57	104	866123776	60	20961
2026-01-07 12:08:00.15	323.97	5.27	-44.9	-59.7	3.8	1.49e+00	0	57	104	866123776	60	20890
2026-01-07 12:08:01.17	324.08	5.22	-44.9	-59.7	3.8	1.49e+00	0	57	104	866123776	60	20921
2026-01-07 12:08:02.18	324.19	5.17	-45.0	-59.7	3.8	1.49e+00	0	57	104	866123776	60	20948
2026-01-07 12:08:03.19	324.30	5.12	-44.9	-59.7	3.8	1.49e+00	0	57	104	866123776	60	20940
2026-01-07 12:08:04.20	324.41	5.07	-44.9	-59.7	3.8	1.49e+00	0	57	104	866123776	60	20906
2026-01-07 12:08:05.21	324.52	5.02	-45.0	-59.7	3.8	1.49e+00	0	57	104	866123776	60	20890
2026-01-07 12:08:06.22	324.63	4.97	-45.0	-59.7	3.8	1.49e+00	0	57	104	866123776	60	20906
2026-01-07 12:08:07.23	324.74	4.92	-44.9	-59.7	3.8	1.49e+00	0	57	104	866123776	60	20881
2026-01-07 12:08:08.24	324.85	4.87	-44.9	-59.7	3.8	1.49e+00	0	57	104	866123776	60	20942
2026-01-07 12:08:09.26	324.96	4.82	-44.9	-59.7	3.8	1.49e+00	0	57	104	866123776	60	20905
2026-01-07 12:08:10.27	325.07	4.77	-44.9	-59.7	3.8	1.49e+00	0	57	104	866123776	60	20904
2026-01-07 12:08:11.28	325.17	4.72	-44.9	-59.7	3.8	1.49e+00	0	57	104	866123776	60	20910
2026-01-07 12:08:12.29	325.28	4.68	-44.9	-59.7	3.8	1.49e+00	0	57	104	866123776	60	20982
2026-01-07 12:08:13.30	325.39	4.63	-44.9	-59.7	3.8	1.49e+00	0	57	104	866123776	60	20922
2026-01-07 12:08:14.31	325.50	4.58	-44.9	-59.7	3.8	1.49e+00	0	57	104	866123776	60	20904
2026-01-07 12:08:15.32	325.60	4.53	-44.9	-59.7	3.8	1.49e+00	0	57	104	866123776	60	20949
2026-01-07 12:08:16.33	325.71	4.48	-44.9	-59.7	3.8	1.49e+00	0	57	104	866123776	60	20988
2026-01-07 12:08:17.34	325.81	4.43	-44.9	-59.7	3.8	1.49e+00	0	57	104	866123776	60	20926
2026-01-07 12:08:18.35	325.92	4.38	-44.9	-59.7	3.8	1.49e+00	0	57	104	866123776	60	20956
2026-01-07 12:08:19.37	326.03	4.33	-44.9	-59.7	3.8	1.49e+00	0	57	104	866123776	60	20914
2026-01-07 12:08:20.38	326.13	4.28	-44.9	-59.7	3.8	1.49e+00	0	57	104	866123776	60	20888
2026-01-07 12:08:21.39	326.24	4.23	-44.9	-59.7	3.8	1.49e+00	0	57	104	866123776	60	20916
2026-01-07 12:08:22.40	326.34	4.18	-44.9	-59.7	3.8	1.49e+00	0	57	104	866123776	60	20936
2026-01-07 12:08:23.41	326.44	4.13	-44.9	-59.7	3.8	1.49e+00	0	57	104	866123776	60	20880
2026-01-07 12:08:24.42	326.55	4.08	-44.9	-59.7	3.8	1.49e+00	0	57	104	866123776	60	20970
2026-01-07 12:08:25.43	326.65	4.03	-44.9	-59.7	3.8	1.49e+00	0	57	104	866123776	60	20937
2026-01-07 12:08:26.44	326.75	3.98	-44.9	-59.7	3.8	1.49e+00	0	57	104	866123776	60	20932
2026-01-07 12:08:27.45	326.86	3.93	-44.9	-59.7	3.8	1.49e+00	0	57	104	866123776	60	20885
2026-01-07 12:08:28.46	326.96	3.88	-44.9	-59.7	3.8	1.49e+00	0	57	104	866123776	60	20921
2026-01-07 12:08:29.47	327.06	3.83	-44.9	-59.7	3.8	1.49e+00	0	57	104	866123776	60	20868
2026-01-07 12:08:30.48	327.16	3.78	-44.9	-59.7	3.8	1.49e+00	0	57	104	866123776	60	20900
2026-01-07 12:08:31.49	327.26	3.73	-44.9	-59.7	3.8	1.49e+00	0	57	104	866123776	60	20935
2026-01-07 12:08:32.50	327.36	3.68	-44.9	-59.7	3.8	1.49e+00	0	57	104	866123776	60	20912
2026-01-07 12:08:33.52	327.47	3.63	-44.9	-59.7	3.8	1.49e+00	0	57	104	866123776	60	20892
2026-01-07 12:08:34.53	327.57	3.58	-44.9	-59.7	3.8	1.49e+00	0	57	104	866123776	60	20912
2026-01-07 12:08:35.54	327.67	3.53	-44.9	-59.7	3.8	1.49e+00	0	57	104	866123776	60	20906
2026-01-07 12:08:36.55	327.76	3.48	-44.9	-59.7	3.8	1.49e+00	0	57	104	866123776	60	20969
2026-01-07 12:08:37.56	327.86	3.44	-44.9	-59.7	3.8	1.49e+00	0	57	104	866123776	60	20956
2026-01-07 12:08:38.57	327.96	3.39	-44.9	-59.7	3.8	1.49e+00	0	57	104	866123776	60	20898
2026-01-07 12:08:39.58	328.06	3.34	-44.9	-59.7	3.8	1.49e+00	0	57	104	866123776	60	20917
2026-01-07 12:08:40.59	328.16	3.29	-44.9	-59.7	3.8	1.49e+00	0	57	104	866123776	60	20941
2026-01-07 12:08:41.60	328.26	3.24	-44.9	-59.7	3.8	1.49e+00	0	57	104	866123776	60	20832
2026-01-07 12:08:42.61	328.36	3.19	-44.9	-59.7	3.8	1.49e+00	0	57	104	866123776	60	20881
2026-01-07 12:08:43.63	328.45	3.14	-44.9	-59.7	3.8	1.49e+00	0	57	104	866123776	60	20964
2026-01-07 12:08:44.64	328.55	3.09	-44.9	-59.7	3.8	1.49e+00	0	57	104	866123776	60	20921
2026-01-07 12:08:45.65	328.65	3.04	-44.9	-59.7	3.8	1.49e+00	0	57	104	866123776	60	20884
2026-01-07 12:08:46.66	328.74	2.99	-44.9	-59.7	3.8	1.49e+00	0	57	104	866123776	60	20900
2026-01-07 12:08:47.67	328.84	2.94	-44.9	-59.7	3.8	1.49e+00	0	57	104	866123776	60	20880
2026-01-07 12:08:48.68	328.94	2.89	-44.9	-59.7	3.8	1.49e+00	0	57	104	866123776	60	20934
2026-01-07 12:08:49.69	329.03	2.84	-44.9	-59.7	3.8	1.49e+00	0	57	104	866123776	60	20881
2026-01-07 12:08:50.70	329.13	2.80	-44.9	-59.7	3.8	1.49e+00	0	57	104	866123776	60	20876
2026-01-07 12:08:51.71	329.22	2.75	-44.9	-59.7	3.8	1.49e+00	0	57	104	866123776	60	20897
2026-01-07 12:08:52.72	329.32	2.70	-44.9	-59.7	3.8	1.49e+00	0	57	104	866123776	60	20911
2026-01-07 12:08:53.73	329.41	2.65	-44.9	-59.7	3.8	1.49e+00	0	57	104	866123776	60	20871
2026-01-07 12:08:54.75	329.51	2.60	-44.9	-59.7	3.8	1.49e+00	0	57	104	866123776	60	20894
2026-01-07 12:08:55.76	329.60	2.55	-44.9	-59.7	3.8	1.49e+00	0	57	104	866123776	60	20884
2026-01-07 12:08:56.77	329.69	2.50	-44.9	-59.7	3.8	1.49e+00	0	57	104	866123776	60	20875
2026-01-07 12:08:57.78	329.79	2.45	-44.9	-59.7	3.8	1.49e+00	0	57	104	866123776	60	20894
2026-01-07 12:08:58.79	329.88	2.40	-44.9	-59.7	3.8	1.49e+00	0	57	104	866123776	60	20852
2026-01-07 12:08:59.80	329.97	2.35	-44.9	-59.7	3.8	1.49e+00	0	57	104	866123776	60	20928
2026-01-07 12:09:00.81	330.06	2.31	-44.9	-59.7	3.8	1.49e+00	0	57	104	866123776	60	20902
2026-01-07 12:09:01.82	330.16	2.26	-44.9	-59.7	3.8	1.49e+00	0	57	104	866123776	60	20879
2026-01-07 12:09:02.83	330.25	2.21	-44.9	-59.7	3.8	1.49e+00	0	57	104	866123776	60	20845
2026-01-07 12:09:03.84	330.34	2.16	-44.9	-59.7	3.8	1.49e+00	0	57	104	866123776	60	20852
2026-01-07 12:09:04.85	330.43	2.11	-44.9	-59.7	3.8	1.49e+00	0	57	104	866123776	60	20878
2026-01-07 12:09:05.86	330.52	2.06	-44.9	-59.7	3.8	1.49e+00	0	57	104	866123776	60	20877
2026-01-07 12:09:06.88	330.61	2.01	-44.9	-59.7	3.8	1.49e+00	0	57	104	866123776	60	20873
2026-01-07 12:09:07.89	330.70	1.97	-44.9	-59.7	3.8	1.49e+00	0	57	104	866123776	60	20874
2026-01-07 12:09:08.90	330.79	1.92	-44.9	-59.7	3.8	1.49e+00	0	57	104	866123776	60	20866

#Closed at: 2026-01-07 12:09:09
#Recorded file [866 MB]: D:/lorett/data/31039_260107_145750.dat