passes_logs/2026/01/07/R2.0S_Moscow/R2.0S_Moscow__20260107_013521_NOAA_21_JPSS-2_rec.log

#Pass ID: 20260107_013521_NOAA 21 (JPSS-2)
#Satellite: NOAA 21 (JPSS-2)
#Configuration: NOAA-21
#almurnet v.1.7.20251203
#Start time: 2026-01-07 01:39:19

#Version: 2.2.20231116
#Station: R2.0S_Moscow
#Location: 37.707566 lon 55.798166 lat
#TLE: 1 54234U 22150A   26005.56767909  .00000152  00000+0  92756-4 0  9990
#TLE: 2 54234  98.7490 306.5820 0001036 340.2747  19.8389 14.19532370163472

#Time	Az	El	Level	Level2	SNR	BER	BlckErr	Temp	State	Recorded	gain1	gain2
2026-01-07 01:39:19.45	340.28	15.67	-44.8	-56.7	3.8	8.46e-01	0	56	0	0	60	14810
2026-01-07 01:39:20.46	340.08	15.72	-45.1	-57.6	3.8	1.49e+00	0	57	104	0	61	15544
2026-01-07 01:39:21.47	339.89	15.77	-45.1	-57.6	3.8	1.49e+00	0	57	104	0	61	15506
2026-01-07 01:39:22.48	339.70	15.82	-45.0	-57.6	3.8	1.49e+00	0	57	104	0	61	15427
2026-01-07 01:39:23.49	339.50	15.87	-44.9	-57.5	3.8	1.49e+00	0	57	104	0	61	15254
2026-01-07 01:39:24.50	339.31	15.93	-44.8	-57.4	3.8	1.49e+00	0	57	104	0	61	15069
2026-01-07 01:39:25.51	339.11	15.98	-44.7	-57.2	3.8	1.49e+00	0	57	104	0	61	14818
2026-01-07 01:39:26.53	338.91	16.03	-44.6	-57.1	3.8	1.49e+00	0	57	104	0	61	14684
2026-01-07 01:39:27.53	338.72	16.08	-44.5	-57.0	3.8	1.49e+00	0	57	104	0	61	14480
2026-01-07 01:39:28.54	338.52	16.13	-44.4	-56.8	3.8	1.49e+00	0	57	104	0	60	15032
2026-01-07 01:39:29.55	338.32	16.18	-44.4	-56.8	3.8	1.49e+00	0	57	104	0	60	14935
2026-01-07 01:39:30.57	338.12	16.23	-44.4	-56.8	3.8	1.49e+00	0	57	104	0	60	15005
2026-01-07 01:39:31.58	337.92	16.28	-44.4	-56.9	3.8	1.49e+00	0	57	104	0	60	15157
2026-01-07 01:39:32.59	337.72	16.32	-44.4	-56.9	3.8	1.49e+00	0	57	104	0	60	15148
2026-01-07 01:39:33.60	337.51	16.37	-44.4	-56.9	3.8	1.49e+00	0	57	104	0	60	15171
2026-01-07 01:39:34.61	337.31	16.42	-44.4	-56.9	3.8	1.49e+00	0	57	104	0	60	15082
2026-01-07 01:39:35.62	337.11	16.47	-44.4	-56.9	3.8	1.49e+00	0	57	104	0	60	15076
2026-01-07 01:39:36.63	336.91	16.52	-44.4	-56.9	3.8	1.49e+00	0	57	104	0	60	15069
2026-01-07 01:39:37.64	336.70	16.57	-44.4	-56.9	3.8	1.49e+00	0	57	104	0	60	15139
2026-01-07 01:39:38.65	336.50	16.61	-44.4	-56.9	3.8	1.49e+00	0	57	104	0	60	15128
2026-01-07 01:39:39.66	336.29	16.66	-44.4	-56.9	3.8	1.49e+00	0	57	104	0	60	15168
2026-01-07 01:39:40.67	336.08	16.71	-44.4	-56.9	3.8	1.49e+00	0	57	104	0	60	15197
2026-01-07 01:39:41.68	335.88	16.75	-44.4	-56.9	3.8	1.49e+00	0	57	104	0	60	15100
2026-01-07 01:39:42.69	335.67	16.80	-44.4	-56.8	3.8	1.49e+00	0	57	104	0	60	15005
2026-01-07 01:39:43.70	335.46	16.85	-44.4	-56.8	3.8	1.49e+00	0	57	104	0	60	14977
2026-01-07 01:39:44.71	335.25	16.89	-44.4	-56.8	3.8	1.49e+00	0	57	104	0	60	14923
2026-01-07 01:39:45.72	335.04	16.94	-44.4	-56.8	3.8	1.49e+00	0	57	104	0	60	14986
2026-01-07 01:39:46.73	334.83	16.98	-44.4	-56.9	3.8	1.49e+00	0	57	104	0	60	15166
2026-01-07 01:39:47.74	334.62	17.03	-44.4	-56.9	3.8	1.49e+00	0	57	104	0	60	15128
2026-01-07 01:39:48.75	334.41	17.07	-44.3	-56.7	3.8	1.49e+00	0	57	104	0	60	14740
2026-01-07 01:39:49.76	334.20	17.11	-44.3	-56.3	3.8	1.49e+00	0	57	104	0	60	14078
2026-01-07 01:39:50.77	333.99	17.16	-44.3	-55.9	3.8	1.49e+00	0	57	104	0	60	13442
2026-01-07 01:39:51.78	333.77	17.20	-44.2	-55.6	3.8	1.49e+00	0	57	104	0	60	13042
2026-01-07 01:39:52.79	333.56	17.24	-44.2	-55.7	3.8	1.49e+00	0	57	104	0	60	13189
2026-01-07 01:39:53.80	333.35	17.29	-44.3	-56.1	3.8	1.49e+00	0	57	104	0	60	13796
2026-01-07 01:39:54.81	333.13	17.33	-44.3	-56.5	3.8	1.49e+00	0	57	104	0	60	14517
2026-01-07 01:39:55.82	332.91	17.37	-44.4	-56.9	3.8	1.49e+00	0	57	104	0	60	15071
2026-01-07 01:39:56.83	332.70	17.41	-44.3	-56.7	3.8	1.49e+00	0	57	104	0	60	14805
2026-01-07 01:39:57.84	332.48	17.45	-44.3	-55.9	3.8	1.49e+00	0	57	104	0	60	13549
2026-01-07 01:39:58.85	332.26	17.50	-44.1	-54.4	3.9	1.49e+00	0	57	104	0	60	11393
2026-01-07 01:39:59.87	332.04	17.54	-43.9	-51.9	4.7	1.44e+00	0	57	104	0	59	9060
2026-01-07 01:40:00.88	331.82	17.58	-43.6	-50.4	5.5	5.78e-01	0	57	0	1048576	59	7558
2026-01-07 01:40:01.89	331.61	17.62	-43.3	-49.4	6.2	3.07e-01	0	57	0	4194304	58	7196
2026-01-07 01:40:02.90	331.39	17.66	-43.2	-49.1	6.5	2.34e-01	0	57	0	7340032	58	6952
2026-01-07 01:40:03.91	331.17	17.70	-43.5	-50.2	5.7	3.63e-01	0	57	0	10485760	58	7819
2026-01-07 01:40:04.92	330.94	17.73	-44.0	-53.1	3.9	1.47e+00	0	57	104	12582912	58	11001
2026-01-07 01:40:05.93	330.72	17.77	-44.3	-55.0	3.9	1.48e+00	0	57	104	12582912	59	12920
2026-01-07 01:40:06.94	330.50	17.81	-43.8	-51.3	4.4	1.44e+00	0	57	104	12582912	59	8459
2026-01-07 01:40:07.95	330.28	17.85	-42.2	-46.4	9.1	9.23e-02	0	57	0	14680064	56	5663
2026-01-07 01:40:08.96	330.05	17.89	-40.3	-43.0	12.4	7.68e-04	0	57	0	17825792	52	4847
2026-01-07 01:40:09.97	329.83	17.92	-38.9	-40.9	14.6	1.50e-06	0	57	0	20971520	49	4533
2026-01-07 01:40:10.98	329.61	17.96	-37.8	-39.6	15.9	0.00e+00	0	57	0	24117248	47	4343
2026-01-07 01:40:11.99	329.38	17.99	-37.4	-39.1	16.4	0.00e+00	0	57	0	27262976	46	4366
2026-01-07 01:40:13.00	329.16	18.03	-37.3	-38.9	16.6	0.00e+00	0	57	0	30408704	46	4256
2026-01-07 01:40:14.01	328.93	18.07	-37.4	-39.0	16.5	0.00e+00	0	57	0	33554432	46	4323
2026-01-07 01:40:15.02	328.70	18.10	-39.7	-42.1	13.5	1.50e-06	0	57	0	36700160	50	4880
2026-01-07 01:40:16.03	328.48	18.13	-39.9	-42.3	13.2	7.00e-07	0	57	0	39845888	50	5033
2026-01-07 01:40:17.04	328.25	18.17	-41.7	-45.5	10.0	9.76e-04	0	57	0	42991616	53	6129
2026-01-07 01:40:18.05	328.02	18.20	-43.0	-48.5	6.9	2.12e-02	0	57	0	46137344	56	7279
2026-01-07 01:40:19.06	327.79	18.24	-38.7	-40.7	14.8	0.00e+00	0	57	0	49283072	49	4409
2026-01-07 01:40:20.07	327.56	18.27	-38.0	-39.8	15.8	0.00e+00	0	57	0	52428800	48	4224
2026-01-07 01:40:21.08	327.33	18.30	-37.7	-39.4	16.0	0.00e+00	0	57	0	55574528	47	4285
2026-01-07 01:40:22.09	327.10	18.33	-37.6	-39.4	16.1	0.00e+00	0	57	0	58720256	47	4247
2026-01-07 01:40:23.10	326.87	18.36	-37.5	-39.2	16.2	0.00e+00	0	57	0	61865984	47	4184
2026-01-07 01:40:24.11	326.64	18.39	-37.4	-39.0	16.5	0.00e+00	0	57	0	65011712	46	4328
2026-01-07 01:40:25.12	326.41	18.42	-37.2	-38.8	16.7	0.00e+00	0	57	0	68157440	46	4220
2026-01-07 01:40:26.14	326.17	18.46	-37.2	-38.8	16.7	0.00e+00	0	57	0	71303168	46	4197
2026-01-07 01:40:27.15	325.94	18.48	-37.0	-38.6	16.9	0.00e+00	0	57	0	74448896	46	4120
2026-01-07 01:40:28.16	325.71	18.51	-37.1	-38.6	16.8	0.00e+00	0	57	0	77594624	46	4136
2026-01-07 01:40:29.17	325.48	18.54	-37.0	-38.6	16.9	0.00e+00	0	57	0	80740352	46	4116
2026-01-07 01:40:30.18	325.24	18.57	-36.9	-38.5	16.9	0.00e+00	0	57	0	83886080	45	4316
2026-01-07 01:40:31.19	325.01	18.60	-37.1	-38.6	16.8	0.00e+00	0	57	0	87031808	45	4386
2026-01-07 01:40:32.20	324.77	18.63	-37.1	-38.7	16.8	0.00e+00	0	57	0	90177536	45	4397
2026-01-07 01:40:33.21	324.54	18.65	-37.1	-38.7	16.8	0.00e+00	0	57	0	93323264	45	4394
2026-01-07 01:40:34.22	324.30	18.68	-37.0	-38.6	16.8	0.00e+00	0	57	0	96468992	45	4374
2026-01-07 01:40:35.23	324.07	18.70	-37.1	-38.7	16.8	0.00e+00	0	57	0	99614720	45	4392
2026-01-07 01:40:36.24	323.83	18.73	-37.1	-38.7	16.8	0.00e+00	0	57	0	102760448	45	4393
2026-01-07 01:40:37.25	323.59	18.76	-37.0	-38.6	16.8	0.00e+00	0	57	0	105906176	45	4381
2026-01-07 01:40:38.27	323.35	18.78	-37.0	-38.6	16.9	0.00e+00	0	57	0	109051904	45	4365
2026-01-07 01:40:39.27	323.12	18.80	-37.0	-38.5	16.9	0.00e+00	0	57	0	112197632	45	4327
2026-01-07 01:40:40.28	322.88	18.83	-37.0	-38.6	16.9	0.00e+00	0	57	0	115343360	45	4353
2026-01-07 01:40:41.30	322.64	18.85	-37.0	-38.6	16.8	0.00e+00	0	57	0	118489088	45	4365
2026-01-07 01:40:42.31	322.40	18.87	-37.1	-38.7	16.7	0.00e+00	0	57	0	121634816	45	4421
2026-01-07 01:40:43.32	322.16	18.89	-37.2	-38.8	16.6	0.00e+00	0	57	0	124780544	45	4478
2026-01-07 01:40:44.33	321.92	18.92	-37.2	-38.9	16.6	0.00e+00	0	56	0	127926272	45	4506
2026-01-07 01:40:45.34	321.68	18.94	-37.3	-38.9	16.5	0.00e+00	0	57	0	131072000	45	4533
2026-01-07 01:40:46.35	321.44	18.96	-37.3	-38.9	16.5	0.00e+00	0	57	0	134217728	45	4545
2026-01-07 01:40:47.35	321.20	18.98	-37.4	-39.0	16.5	0.00e+00	0	57	0	137363456	45	4582
2026-01-07 01:40:48.36	320.96	19.00	-37.3	-39.0	16.5	0.00e+00	0	57	0	140509184	45	4564
2026-01-07 01:40:49.37	320.72	19.02	-37.4	-39.0	16.5	0.00e+00	0	57	0	143654912	45	4595
2026-01-07 01:40:50.38	320.48	19.03	-37.4	-39.1	16.4	0.00e+00	0	57	0	146800640	45	4641
2026-01-07 01:40:51.39	320.24	19.05	-37.5	-39.2	16.2	0.00e+00	0	56	0	149946368	45	4694
2026-01-07 01:40:52.40	320.00	19.07	-37.6	-39.3	16.2	0.00e+00	0	57	0	153092096	45	4716
2026-01-07 01:40:53.41	319.76	19.09	-37.4	-39.1	16.4	0.00e+00	0	57	0	156237824	45	4610
2026-01-07 01:40:54.42	319.51	19.10	-37.3	-38.9	16.6	0.00e+00	0	57	0	159383552	45	4513
2026-01-07 01:40:55.43	319.27	19.12	-37.4	-39.0	16.4	0.00e+00	0	57	0	162529280	45	4585
2026-01-07 01:40:56.44	319.03	19.13	-37.4	-39.0	16.5	0.00e+00	0	57	0	165675008	45	4572
2026-01-07 01:40:57.45	318.78	19.15	-37.3	-38.9	16.5	0.00e+00	0	57	0	168820736	45	4545
2026-01-07 01:40:58.46	318.54	19.16	-37.4	-39.0	16.4	0.00e+00	0	57	0	171966464	45	4592
2026-01-07 01:40:59.47	318.30	19.18	-37.5	-39.2	16.3	0.00e+00	0	57	0	175112192	45	4670
2026-01-07 01:41:00.48	318.05	19.19	-37.6	-39.3	16.2	0.00e+00	0	57	0	178257920	45	4745
2026-01-07 01:41:01.49	317.81	19.20	-37.6	-39.3	16.2	0.00e+00	0	57	0	181403648	45	4758
2026-01-07 01:41:02.50	317.56	19.21	-37.6	-39.3	16.2	0.00e+00	0	57	0	184549376	45	4728
2026-01-07 01:41:03.51	317.32	19.23	-37.4	-39.1	16.4	0.00e+00	0	57	0	187695104	45	4614
2026-01-07 01:41:04.52	317.07	19.24	-37.5	-39.1	16.4	0.00e+00	0	57	0	190840832	45	4636
2026-01-07 01:41:05.53	316.83	19.25	-37.5	-39.1	16.3	0.00e+00	0	57	0	193986560	45	4643
2026-01-07 01:41:06.54	316.58	19.26	-37.4	-39.1	16.4	0.00e+00	0	57	0	197132288	45	4612
2026-01-07 01:41:07.55	316.34	19.27	-37.4	-39.1	16.4	0.00e+00	0	57	0	200278016	45	4615
2026-01-07 01:41:08.56	316.09	19.28	-37.4	-39.1	16.4	0.00e+00	0	57	0	203423744	45	4619
2026-01-07 01:41:09.58	315.85	19.28	-37.5	-39.1	16.4	0.00e+00	0	56	0	206569472	45	4646
2026-01-07 01:41:10.58	315.60	19.29	-37.4	-39.1	16.4	0.00e+00	0	57	0	209715200	45	4616
2026-01-07 01:41:11.59	315.36	19.30	-37.5	-39.1	16.4	0.00e+00	0	57	0	212860928	45	4641
2026-01-07 01:41:12.60	315.11	19.31	-37.4	-39.0	16.5	0.00e+00	0	57	0	217055232	45	4578
2026-01-07 01:41:13.61	314.87	19.31	-37.4	-39.0	16.5	0.00e+00	0	56	0	220200960	45	4572
2026-01-07 01:41:14.63	314.62	19.32	-37.3	-39.0	16.5	0.00e+00	0	57	0	222298112	45	4565
2026-01-07 01:41:15.64	314.37	19.32	-37.3	-39.0	16.5	0.00e+00	0	56	0	225443840	45	4550
2026-01-07 01:41:16.65	314.12	19.33	-37.4	-39.0	16.5	0.00e+00	0	56	0	228589568	45	4589
2026-01-07 01:41:17.66	313.88	19.33	-37.5	-39.2	16.4	0.00e+00	0	57	0	232783872	45	4661
2026-01-07 01:41:18.66	313.63	19.33	-37.6	-39.3	16.3	0.00e+00	0	57	0	235929600	45	4710
2026-01-07 01:41:19.67	313.39	19.34	-37.6	-39.4	16.1	0.00e+00	0	57	0	239075328	45	4768
2026-01-07 01:41:20.68	313.14	19.34	-37.5	-39.1	16.3	0.00e+00	0	57	0	242221056	45	4645
2026-01-07 01:41:21.69	312.89	19.34	-37.5	-39.1	16.4	0.00e+00	0	57	0	245366784	45	4639
2026-01-07 01:41:22.70	312.65	19.34	-37.5	-39.1	16.4	0.00e+00	0	57	0	248512512	45	4645
2026-01-07 01:41:23.71	312.40	19.34	-37.5	-39.2	16.3	0.00e+00	0	57	0	251658240	45	4686
2026-01-07 01:41:24.73	312.15	19.34	-37.6	-39.3	16.2	0.00e+00	0	57	0	254803968	45	4720
2026-01-07 01:41:25.74	311.91	19.34	-37.6	-39.4	16.1	0.00e+00	0	56	0	257949696	45	4765
2026-01-07 01:41:26.75	311.66	19.34	-37.4	-39.1	16.4	0.00e+00	0	57	0	261095424	45	4636
2026-01-07 01:41:27.76	311.41	19.34	-37.3	-39.0	16.5	0.00e+00	0	57	0	264241152	45	4561
2026-01-07 01:41:28.77	311.17	19.34	-37.4	-39.1	16.4	0.00e+00	0	56	0	267386880	45	4602
2026-01-07 01:41:29.78	310.92	19.33	-37.5	-39.1	16.4	0.00e+00	0	57	0	270532608	45	4635
2026-01-07 01:41:30.79	310.67	19.33	-37.4	-39.1	16.4	0.00e+00	0	57	0	273678336	45	4616
2026-01-07 01:41:31.80	310.43	19.33	-37.3	-38.9	16.6	0.00e+00	0	57	0	276824064	45	4535
2026-01-07 01:41:32.81	310.18	19.32	-37.2	-38.8	16.7	0.00e+00	0	57	0	279969792	45	4472
2026-01-07 01:41:33.81	309.94	19.32	-37.2	-38.8	16.7	0.00e+00	0	57	0	283115520	45	4461
2026-01-07 01:41:34.82	309.69	19.31	-37.2	-38.8	16.7	0.00e+00	0	57	0	286261248	45	4485
2026-01-07 01:41:35.83	309.44	19.31	-37.4	-39.0	16.5	0.00e+00	0	57	0	289406976	45	4583
2026-01-07 01:41:36.84	309.20	19.30	-37.4	-39.1	16.4	0.00e+00	0	57	0	292552704	45	4603
2026-01-07 01:41:37.85	308.95	19.29	-37.5	-39.2	16.3	0.00e+00	0	57	0	295698432	45	4683
2026-01-07 01:41:38.86	308.71	19.29	-37.6	-39.3	16.2	0.00e+00	0	57	0	298844160	45	4720
2026-01-07 01:41:39.87	308.46	19.28	-37.8	-39.5	16.0	0.00e+00	0	57	0	301989888	46	4565
2026-01-07 01:41:40.88	308.21	19.27	-37.6	-39.3	16.3	0.00e+00	0	56	0	305135616	46	4445
2026-01-07 01:41:41.89	307.97	19.26	-37.3	-39.0	16.5	0.00e+00	0	57	0	308281344	46	4312
2026-01-07 01:41:42.90	307.72	19.25	-37.2	-38.8	16.7	0.00e+00	0	57	0	311427072	46	4205
2026-01-07 01:41:43.91	307.48	19.24	-37.3	-38.9	16.6	0.00e+00	0	56	0	314572800	46	4255
2026-01-07 01:41:44.92	307.23	19.23	-37.3	-39.0	16.5	0.00e+00	0	57	0	317718528	46	4299
2026-01-07 01:41:45.93	306.99	19.22	-37.3	-38.9	16.5	0.00e+00	0	57	0	320864256	46	4286
2026-01-07 01:41:46.94	306.74	19.21	-37.3	-39.0	16.5	0.00e+00	0	57	0	324009984	46	4298
2026-01-07 01:41:47.95	306.50	19.19	-37.4	-39.0	16.5	0.00e+00	0	57	0	327155712	46	4320
2026-01-07 01:41:48.96	306.25	19.18	-37.4	-39.1	16.4	0.00e+00	0	57	0	330301440	46	4362
2026-01-07 01:41:49.97	306.01	19.17	-37.4	-39.1	16.4	0.00e+00	0	57	0	333447168	46	4356
2026-01-07 01:41:50.98	305.77	19.15	-37.4	-39.1	16.4	0.00e+00	0	57	0	336592896	46	4352
2026-01-07 01:41:51.99	305.52	19.14	-37.4	-39.1	16.3	0.00e+00	0	57	0	339738624	46	4374
2026-01-07 01:41:53.00	305.28	19.12	-37.2	-38.8	16.6	0.00e+00	0	56	0	342884352	46	4242
2026-01-07 01:41:54.01	305.04	19.11	-37.2	-38.8	16.7	0.00e+00	0	57	0	346030080	46	4218
2026-01-07 01:41:55.02	304.79	19.09	-37.1	-38.7	16.7	0.00e+00	0	57	0	349175808	46	4181
2026-01-07 01:41:56.03	304.55	19.07	-37.1	-38.7	16.8	0.00e+00	0	57	0	352321536	46	4162
2026-01-07 01:41:57.04	304.31	19.06	-37.1	-38.7	16.7	0.00e+00	0	57	0	355467264	46	4176
2026-01-07 01:41:58.05	304.07	19.04	-37.2	-38.9	16.6	0.00e+00	0	57	0	358612992	46	4246
2026-01-07 01:41:59.06	303.83	19.02	-37.3	-38.9	16.6	0.00e+00	0	57	0	361758720	46	4281
2026-01-07 01:42:00.07	303.58	19.00	-37.3	-39.0	16.5	0.00e+00	0	57	0	364904448	46	4296
2026-01-07 01:42:01.08	303.34	18.98	-37.3	-39.0	16.5	0.00e+00	0	57	0	368050176	46	4292
2026-01-07 01:42:02.09	303.10	18.96	-37.4	-39.1	16.4	0.00e+00	0	57	0	371195904	46	4357
2026-01-07 01:42:03.10	302.86	18.94	-37.4	-39.1	16.4	0.00e+00	0	57	0	374341632	46	4366
2026-01-07 01:42:04.10	302.62	18.92	-37.5	-39.2	16.2	0.00e+00	0	57	0	377487360	46	4431
2026-01-07 01:42:05.11	302.38	18.90	-37.4	-39.1	16.3	0.00e+00	0	57	0	380633088	46	4377
2026-01-07 01:42:06.12	302.14	18.88	-37.4	-39.1	16.4	0.00e+00	0	57	0	383778816	46	4350
2026-01-07 01:42:07.13	301.91	18.85	-37.3	-39.0	16.5	0.00e+00	0	57	0	386924544	46	4313
2026-01-07 01:42:08.14	301.67	18.83	-37.2	-38.8	16.6	0.00e+00	0	57	0	390070272	46	4217
2026-01-07 01:42:09.15	301.43	18.81	-37.2	-38.8	16.6	0.00e+00	0	57	0	393216000	46	4235
2026-01-07 01:42:10.17	301.19	18.78	-37.2	-38.8	16.6	0.00e+00	0	57	0	396361728	46	4236
2026-01-07 01:42:11.18	300.95	18.76	-37.0	-38.6	16.8	0.00e+00	0	57	0	399507456	46	4131
2026-01-07 01:42:12.19	300.71	18.74	-37.0	-38.6	16.8	0.00e+00	0	57	0	402653184	46	4121
2026-01-07 01:42:13.20	300.48	18.71	-37.1	-38.6	16.8	0.00e+00	0	57	0	405798912	46	4144
2026-01-07 01:42:14.21	300.24	18.68	-37.2	-38.8	16.6	0.00e+00	0	57	0	408944640	46	4228
2026-01-07 01:42:15.22	300.00	18.66	-37.4	-39.1	16.3	0.00e+00	0	57	0	412090368	46	4348
2026-01-07 01:42:16.23	299.77	18.63	-37.3	-39.0	16.5	0.00e+00	0	57	0	415236096	46	4304
2026-01-07 01:42:17.24	299.53	18.60	-37.2	-38.8	16.6	0.00e+00	0	56	0	418381824	46	4231
2026-01-07 01:42:18.25	299.30	18.58	-37.1	-38.7	16.7	0.00e+00	0	57	0	421527552	46	4193
2026-01-07 01:42:19.26	299.06	18.55	-37.1	-38.7	16.7	0.00e+00	0	56	0	424673280	46	4175
2026-01-07 01:42:20.27	298.83	18.52	-37.0	-38.5	16.9	0.00e+00	0	57	0	427819008	46	4092
2026-01-07 01:42:21.28	298.59	18.49	-36.9	-38.4	16.9	0.00e+00	0	57	0	430964736	45	4291
2026-01-07 01:42:22.29	298.36	18.46	-37.0	-38.5	16.9	0.00e+00	0	57	0	434110464	45	4321
2026-01-07 01:42:23.30	298.13	18.43	-37.1	-38.7	16.7	0.00e+00	0	57	0	437256192	45	4403
2026-01-07 01:42:24.31	297.90	18.40	-37.2	-38.8	16.6	0.00e+00	0	56	0	440401920	45	4461
2026-01-07 01:42:25.33	297.66	18.37	-37.2	-38.8	16.6	0.00e+00	0	57	0	443547648	45	4473
2026-01-07 01:42:26.34	297.43	18.34	-37.2	-38.9	16.5	0.00e+00	0	57	0	446693376	45	4510
2026-01-07 01:42:27.35	297.20	18.31	-37.4	-39.1	16.4	0.00e+00	0	57	0	449839104	45	4601
2026-01-07 01:42:28.36	296.97	18.27	-37.3	-39.0	16.4	0.00e+00	0	57	0	452984832	45	4565
2026-01-07 01:42:29.37	296.74	18.24	-37.3	-39.0	16.4	0.00e+00	0	57	0	456130560	45	4579
2026-01-07 01:42:30.38	296.51	18.21	-37.3	-39.0	16.4	0.00e+00	0	56	0	459276288	45	4562
2026-01-07 01:42:31.39	296.28	18.17	-37.2	-38.8	16.5	0.00e+00	0	57	0	462422016	45	4478
2026-01-07 01:42:32.40	296.05	18.14	-37.2	-38.8	16.5	0.00e+00	0	57	0	465567744	45	4477
2026-01-07 01:42:33.41	295.83	18.11	-37.3	-39.0	16.4	0.00e+00	0	57	0	468713472	45	4574
2026-01-07 01:42:34.43	295.60	18.07	-37.5	-39.2	16.1	0.00e+00	0	56	0	471859200	45	4698
2026-01-07 01:42:35.43	295.37	18.04	-37.5	-39.3	16.1	0.00e+00	0	56	0	475004928	45	4707
2026-01-07 01:42:36.44	295.15	18.00	-37.6	-39.3	16.0	0.00e+00	0	57	0	478150656	45	4746
2026-01-07 01:42:37.45	294.92	17.96	-37.4	-39.1	16.2	0.00e+00	0	57	0	481296384	45	4632
2026-01-07 01:42:38.46	294.70	17.93	-37.3	-38.9	16.4	0.00e+00	0	57	0	484442112	45	4542
2026-01-07 01:42:39.47	294.47	17.89	-37.3	-39.0	16.4	0.00e+00	0	57	0	487587840	45	4557
2026-01-07 01:42:40.48	294.25	17.85	-37.2	-38.8	16.5	0.00e+00	0	57	0	490733568	45	4472
2026-01-07 01:42:41.49	294.02	17.82	-37.2	-38.8	16.5	0.00e+00	0	57	0	493879296	45	4477
2026-01-07 01:42:42.50	293.80	17.78	-37.3	-38.9	16.4	0.00e+00	0	57	0	497025024	45	4524
2026-01-07 01:42:43.51	293.58	17.74	-37.3	-38.9	16.4	0.00e+00	0	57	0	500170752	45	4534
2026-01-07 01:42:44.52	293.36	17.70	-37.4	-39.1	16.3	0.00e+00	0	56	0	503316480	45	4600
2026-01-07 01:42:45.54	293.13	17.66	-37.5	-39.2	16.2	0.00e+00	0	56	0	506462208	45	4676
2026-01-07 01:42:46.55	292.91	17.62	-37.5	-39.2	16.2	0.00e+00	0	57	0	509607936	45	4665
2026-01-07 01:42:47.56	292.69	17.58	-37.4	-39.1	16.3	0.00e+00	0	57	0	513802240	45	4615
2026-01-07 01:42:48.57	292.47	17.54	-37.4	-39.1	16.2	0.00e+00	0	57	0	515899392	45	4620
2026-01-07 01:42:49.58	292.25	17.50	-37.4	-39.2	16.2	0.00e+00	0	56	0	519045120	45	4653
2026-01-07 01:42:50.58	292.04	17.46	-37.3	-39.0	16.3	0.00e+00	0	56	0	522190848	45	4561
2026-01-07 01:42:51.59	291.82	17.42	-37.2	-38.9	16.4	0.00e+00	0	56	0	525336576	45	4512
2026-01-07 01:42:52.60	291.60	17.38	-37.3	-38.9	16.4	0.00e+00	0	57	0	529530880	45	4541
2026-01-07 01:42:53.61	291.39	17.34	-37.3	-38.9	16.4	0.00e+00	0	57	0	532676608	45	4528
2026-01-07 01:42:54.62	291.17	17.29	-37.4	-39.1	16.2	0.00e+00	0	57	0	535822336	45	4613
2026-01-07 01:42:55.63	290.95	17.25	-37.5	-39.3	16.0	0.00e+00	0	57	0	537919488	45	4717
2026-01-07 01:42:56.64	290.74	17.21	-37.6	-39.4	15.9	0.00e+00	0	56	0	541065216	45	4774
2026-01-07 01:42:57.65	290.53	17.16	-37.8	-39.6	15.7	0.00e+00	0	56	0	545259520	46	4632
2026-01-07 01:42:58.66	290.31	17.12	-37.8	-39.6	15.8	0.00e+00	0	57	0	548405248	46	4603
2026-01-07 01:42:59.67	290.10	17.08	-37.7	-39.5	15.8	0.00e+00	0	56	0	551550976	46	4590
2026-01-07 01:43:00.68	289.89	17.03	-37.7	-39.5	15.8	0.00e+00	0	56	0	554696704	46	4592
2026-01-07 01:43:01.69	289.68	16.99	-37.7	-39.5	15.8	0.00e+00	0	57	0	557842432	46	4547
2026-01-07 01:43:02.70	289.46	16.94	-37.5	-39.2	16.1	0.00e+00	0	57	0	560988160	46	4425
2026-01-07 01:43:03.71	289.25	16.90	-37.4	-39.1	16.2	0.00e+00	0	57	0	564133888	46	4345
2026-01-07 01:43:04.72	289.04	16.85	-37.4	-39.1	16.2	0.00e+00	0	57	0	567279616	46	4346
2026-01-07 01:43:05.73	288.84	16.81	-37.3	-39.0	16.3	0.00e+00	0	57	0	570425344	46	4318
2026-01-07 01:43:06.74	288.63	16.76	-37.3	-38.9	16.3	0.00e+00	0	57	0	573571072	46	4287
2026-01-07 01:43:07.75	288.42	16.71	-37.3	-38.9	16.3	0.00e+00	0	57	0	576716800	46	4282
2026-01-07 01:43:08.76	288.21	16.67	-37.3	-39.0	16.3	0.00e+00	0	57	0	579862528	46	4297
2026-01-07 01:43:09.77	288.01	16.62	-37.2	-38.8	16.4	0.00e+00	0	57	0	583008256	46	4226
2026-01-07 01:43:10.78	287.80	16.57	-37.1	-38.7	16.5	0.00e+00	0	57	0	586153984	46	4164
2026-01-07 01:43:11.79	287.60	16.52	-37.2	-38.8	16.4	0.00e+00	0	57	0	589299712	46	4214
2026-01-07 01:43:12.80	287.39	16.48	-37.2	-38.8	16.4	0.00e+00	0	57	0	592445440	46	4217
2026-01-07 01:43:13.81	287.19	16.43	-37.0	-38.7	16.6	0.00e+00	0	57	0	595591168	46	4148
2026-01-07 01:43:14.81	286.99	16.38	-37.0	-38.7	16.6	0.00e+00	0	57	0	598736896	46	4148
2026-01-07 01:43:15.82	286.78	16.33	-37.0	-38.6	16.6	0.00e+00	0	57	0	601882624	46	4133
2026-01-07 01:43:16.83	286.58	16.28	-37.0	-38.6	16.6	0.00e+00	0	57	0	605028352	46	4125
2026-01-07 01:43:17.84	286.38	16.23	-37.1	-38.7	16.6	0.00e+00	0	57	0	608174080	46	4154
2026-01-07 01:43:18.85	286.18	16.18	-36.9	-38.5	16.7	0.00e+00	0	57	0	611319808	45	4324
2026-01-07 01:43:19.86	285.98	16.13	-36.9	-38.5	16.8	0.00e+00	0	57	0	614465536	45	4294
2026-01-07 01:43:20.87	285.78	16.08	-37.0	-38.6	16.6	0.00e+00	0	57	0	617611264	45	4358
2026-01-07 01:43:21.88	285.58	16.03	-37.1	-38.7	16.5	0.00e+00	0	57	0	620756992	45	4438
2026-01-07 01:43:22.89	285.38	15.98	-37.2	-38.8	16.4	0.00e+00	0	57	0	623902720	45	4488
2026-01-07 01:43:23.90	285.19	15.93	-37.4	-39.2	16.1	0.00e+00	0	57	0	627048448	45	4659
2026-01-07 01:43:24.91	284.99	15.88	-37.5	-39.3	15.9	0.00e+00	0	57	0	630194176	45	4722
2026-01-07 01:43:25.92	284.79	15.83	-37.7	-39.5	15.7	0.00e+00	0	57	0	633339904	45	4847
2026-01-07 01:43:26.93	284.60	15.78	-37.8	-39.6	15.6	0.00e+00	0	57	0	636485632	46	4630
2026-01-07 01:43:27.94	284.40	15.73	-37.8	-39.7	15.5	0.00e+00	0	57	0	639631360	46	4653
2026-01-07 01:43:28.95	284.21	15.67	-37.8	-39.7	15.5	0.00e+00	0	57	0	642777088	46	4675
2026-01-07 01:43:29.96	284.02	15.62	-37.9	-39.8	15.4	0.00e+00	0	57	0	645922816	46	4729
2026-01-07 01:43:30.97	283.83	15.57	-37.9	-39.8	15.4	0.00e+00	0	57	0	649068544	46	4739
2026-01-07 01:43:31.98	283.63	15.52	-38.0	-39.9	15.3	0.00e+00	0	57	0	652214272	46	4769
2026-01-07 01:43:32.99	283.44	15.46	-38.0	-39.9	15.3	0.00e+00	0	57	0	655360000	46	4767
2026-01-07 01:43:34.00	283.25	15.41	-38.1	-40.0	15.1	0.00e+00	0	57	0	658505728	46	4865
2026-01-07 01:43:35.01	283.06	15.36	-38.2	-40.2	15.0	0.00e+00	0	57	0	661651456	46	4950
2026-01-07 01:43:36.02	282.87	15.30	-38.3	-40.3	14.9	0.00e+00	0	56	0	664797184	47	4712
2026-01-07 01:43:37.03	282.68	15.25	-38.2	-40.2	15.0	0.00e+00	0	57	0	667942912	47	4681
2026-01-07 01:43:38.04	282.50	15.20	-38.2	-40.2	15.0	0.00e+00	0	57	0	671088640	47	4664
2026-01-07 01:43:39.05	282.31	15.14	-38.0	-39.9	15.3	0.00e+00	0	57	0	674234368	47	4500
2026-01-07 01:43:40.06	282.12	15.09	-37.7	-39.5	15.6	0.00e+00	0	57	0	677380096	47	4338
2026-01-07 01:43:41.07	281.94	15.03	-37.6	-39.4	15.8	0.00e+00	0	57	0	680525824	47	4249
2026-01-07 01:43:42.08	281.75	14.98	-37.6	-39.4	15.7	0.00e+00	0	57	0	683671552	47	4271
2026-01-07 01:43:43.09	281.57	14.93	-37.7	-39.5	15.6	0.00e+00	0	57	0	686817280	47	4333
2026-01-07 01:43:44.10	281.39	14.87	-37.8	-39.7	15.4	0.00e+00	0	57	0	689963008	47	4408
2026-01-07 01:43:45.11	281.20	14.82	-38.0	-39.9	15.3	0.00e+00	0	56	0	693108736	47	4516
2026-01-07 01:43:46.13	281.02	14.76	-38.1	-40.0	15.1	0.00e+00	0	57	0	696254464	47	4580
2026-01-07 01:43:47.14	280.84	14.70	-38.2	-40.2	15.0	7.00e-07	0	57	0	699400192	47	4664
2026-01-07 01:43:48.15	280.66	14.65	-38.2	-40.2	14.9	0.00e+00	0	57	0	702545920	47	4672
2026-01-07 01:43:49.16	280.48	14.59	-38.1	-40.1	15.0	1.50e-06	0	57	0	705691648	47	4600
2026-01-07 01:43:50.17	280.30	14.54	-37.9	-39.7	15.3	0.00e+00	0	57	0	708837376	47	4430
2026-01-07 01:43:51.18	280.12	14.48	-37.7	-39.5	15.6	0.00e+00	0	56	0	711983104	47	4313
2026-01-07 01:43:52.19	279.94	14.42	-37.7	-39.5	15.5	0.00e+00	0	57	0	715128832	47	4329
2026-01-07 01:43:53.20	279.76	14.37	-37.6	-39.4	15.7	0.00e+00	0	56	0	718274560	47	4248
2026-01-07 01:43:54.21	279.58	14.31	-37.6	-39.4	15.6	0.00e+00	0	57	0	721420288	47	4288
2026-01-07 01:43:55.22	279.41	14.26	-37.7	-39.6	15.5	0.00e+00	0	57	0	724566016	47	4356
2026-01-07 01:43:56.23	279.23	14.20	-37.9	-39.8	15.3	0.00e+00	0	56	0	727711744	47	4460
2026-01-07 01:43:57.24	279.06	14.14	-38.0	-40.0	15.1	7.00e-07	0	57	0	730857472	47	4566
2026-01-07 01:43:58.25	278.88	14.09	-38.1	-40.1	15.0	7.00e-07	0	57	0	734003200	47	4613
2026-01-07 01:43:59.26	278.71	14.03	-38.2	-40.2	14.8	0.00e+00	0	56	0	737148928	47	4701
2026-01-07 01:44:00.27	278.54	13.97	-38.2	-40.2	14.9	0.00e+00	0	57	0	740294656	47	4689
2026-01-07 01:44:01.28	278.37	13.91	-38.1	-40.1	15.0	0.00e+00	0	56	0	743440384	47	4617
2026-01-07 01:44:02.29	278.19	13.86	-38.0	-39.9	15.2	0.00e+00	0	56	0	746586112	47	4497
2026-01-07 01:44:03.30	278.02	13.80	-38.0	-40.0	15.1	0.00e+00	0	56	0	749731840	47	4565
2026-01-07 01:44:04.31	277.85	13.74	-37.8	-39.6	15.4	0.00e+00	0	56	0	752877568	47	4385
2026-01-07 01:44:05.32	277.68	13.68	-37.7	-39.5	15.5	0.00e+00	0	56	0	756023296	47	4328
2026-01-07 01:44:06.33	277.52	13.62	-37.6	-39.4	15.6	0.00e+00	0	56	0	759169024	47	4280
2026-01-07 01:44:07.34	277.35	13.57	-37.5	-39.3	15.7	0.00e+00	0	57	0	762314752	47	4234
2026-01-07 01:44:08.35	277.18	13.51	-37.4	-39.1	15.9	0.00e+00	0	57	0	765460480	46	4381
2026-01-07 01:44:09.36	277.01	13.45	-37.3	-39.1	16.0	0.00e+00	0	56	0	768606208	46	4355
2026-01-07 01:44:10.37	276.85	13.39	-37.3	-39.0	16.0	0.00e+00	0	56	0	771751936	46	4324
2026-01-07 01:44:11.38	276.68	13.33	-37.3	-39.0	16.0	0.00e+00	0	57	0	774897664	46	4320
2026-01-07 01:44:12.39	276.52	13.27	-37.1	-38.8	16.2	0.00e+00	0	56	0	778043392	46	4228
2026-01-07 01:44:13.40	276.35	13.22	-37.2	-38.9	16.1	0.00e+00	0	57	0	781189120	46	4254
2026-01-07 01:44:14.41	276.19	13.16	-37.3	-39.1	15.9	0.00e+00	0	57	0	784334848	46	4348
2026-01-07 01:44:15.42	276.03	13.10	-37.5	-39.3	15.7	0.00e+00	0	57	0	787480576	46	4442
2026-01-07 01:44:16.43	275.86	13.04	-37.6	-39.4	15.6	0.00e+00	0	57	0	790626304	46	4507
2026-01-07 01:44:17.44	275.70	12.98	-37.7	-39.5	15.4	0.00e+00	0	56	0	793772032	46	4583
2026-01-07 01:44:18.44	275.54	12.92	-37.7	-39.6	15.3	0.00e+00	0	57	0	796917760	46	4614
2026-01-07 01:44:19.45	275.38	12.86	-38.0	-39.9	15.0	0.00e+00	0	57	0	800063488	46	4800
2026-01-07 01:44:20.46	275.22	12.80	-38.2	-40.2	14.7	0.00e+00	0	57	0	803209216	46	4972
2026-01-07 01:44:21.47	275.06	12.74	-38.4	-40.5	14.4	0.00e+00	0	57	0	806354944	47	4855
2026-01-07 01:44:22.48	274.91	12.69	-38.6	-40.9	14.0	1.50e-06	0	57	0	809500672	47	5063
2026-01-07 01:44:23.49	274.75	12.63	-38.8	-41.1	13.9	2.20e-06	0	57	0	812646400	48	4895
2026-01-07 01:44:24.50	274.59	12.57	-38.9	-41.2	13.8	7.00e-07	0	57	0	815792128	48	4943
2026-01-07 01:44:25.51	274.44	12.51	-38.8	-41.1	13.9	1.50e-06	0	57	0	818937856	48	4887
2026-01-07 01:44:26.52	274.28	12.45	-38.6	-40.7	14.3	2.20e-06	0	57	0	822083584	48	4688
2026-01-07 01:44:27.54	274.12	12.39	-38.4	-40.4	14.5	7.00e-07	0	57	0	825229312	48	4539
2026-01-07 01:44:28.55	273.97	12.33	-38.3	-40.3	14.7	0.00e+00	0	57	0	828375040	48	4469
2026-01-07 01:44:29.56	273.81	12.27	-38.1	-40.0	14.9	0.00e+00	0	57	0	831520768	48	4333
2026-01-07 01:44:30.56	273.66	12.21	-37.9	-39.8	15.1	0.00e+00	0	57	0	834666496	47	4476
2026-01-07 01:44:31.58	273.51	12.15	-37.9	-39.8	15.1	0.00e+00	0	57	0	837812224	47	4469
2026-01-07 01:44:32.59	273.36	12.09	-37.8	-39.8	15.1	0.00e+00	0	57	0	840957952	47	4464
2026-01-07 01:44:33.60	273.21	12.03	-37.9	-39.9	15.0	0.00e+00	0	57	0	844103680	47	4503
2026-01-07 01:44:34.60	273.06	11.97	-37.9	-39.9	14.9	0.00e+00	0	57	0	848297984	47	4500
2026-01-07 01:44:35.61	272.91	11.91	-37.9	-39.9	14.8	0.00e+00	0	57	0	851443712	47	4539
2026-01-07 01:44:36.62	272.76	11.85	-38.0	-40.0	14.8	0.00e+00	0	57	0	853540864	47	4579
2026-01-07 01:44:37.63	272.61	11.79	-38.0	-40.0	14.8	0.00e+00	0	56	0	856686592	47	4574
2026-01-07 01:44:38.64	272.46	11.73	-38.1	-40.2	14.6	0.00e+00	0	57	0	859832320	47	4665
2026-01-07 01:44:39.65	272.31	11.67	-38.2	-40.3	14.5	0.00e+00	0	56	0	864026624	47	4719
2026-01-07 01:44:40.66	272.17	11.61	-38.2	-40.3	14.5	0.00e+00	0	57	0	867172352	47	4718
2026-01-07 01:44:41.67	272.02	11.55	-38.2	-40.4	14.4	1.50e-06	0	56	0	870318080	47	4763
2026-01-07 01:44:42.68	271.87	11.49	-38.3	-40.4	14.3	1.50e-06	0	57	0	873463808	47	4809
2026-01-07 01:44:43.69	271.73	11.43	-38.2	-40.3	14.4	0.00e+00	0	56	0	876609536	47	4751
2026-01-07 01:44:44.70	271.58	11.37	-38.2	-40.3	14.4	0.00e+00	0	57	0	879755264	47	4735
2026-01-07 01:44:45.71	271.44	11.30	-38.1	-40.2	14.5	7.00e-07	0	57	0	882900992	47	4679
2026-01-07 01:44:46.72	271.30	11.24	-38.0	-40.0	14.6	2.20e-06	0	57	0	886046720	47	4598
2026-01-07 01:44:47.73	271.15	11.18	-38.0	-40.0	14.6	0.00e+00	0	57	0	889192448	47	4585
2026-01-07 01:44:48.74	271.01	11.12	-37.9	-39.9	14.8	7.00e-07	0	56	0	892338176	47	4516
2026-01-07 01:44:49.75	270.87	11.06	-37.8	-39.8	14.8	0.00e+00	0	56	0	895483904	47	4484
2026-01-07 01:44:50.76	270.73	11.00	-37.7	-39.7	14.9	0.00e+00	0	57	0	898629632	47	4437
2026-01-07 01:44:51.77	270.59	10.94	-37.7	-39.7	14.9	0.00e+00	0	57	0	901775360	47	4440
2026-01-07 01:44:52.78	270.45	10.88	-37.8	-39.8	14.8	7.00e-07	0	57	0	904921088	47	4456
2026-01-07 01:44:53.79	270.31	10.82	-37.8	-39.8	14.7	0.00e+00	0	56	0	908066816	47	4479
2026-01-07 01:44:54.80	270.17	10.76	-37.8	-39.8	14.7	7.00e-07	0	56	0	911212544	47	4489
2026-01-07 01:44:55.81	270.03	10.70	-37.8	-39.9	14.6	7.00e-07	0	57	0	914358272	47	4507
2026-01-07 01:44:56.82	269.90	10.64	-37.9	-39.9	14.6	7.00e-07	0	56	0	917504000	47	4532
2026-01-07 01:44:57.83	269.76	10.58	-37.9	-40.0	14.6	0.00e+00	0	57	0	920649728	47	4548
2026-01-07 01:44:58.84	269.62	10.52	-38.0	-40.1	14.5	0.00e+00	0	57	0	923795456	47	4622
2026-01-07 01:44:59.85	269.49	10.46	-38.1	-40.2	14.3	0.00e+00	0	56	0	926941184	47	4692
2026-01-07 01:45:00.86	269.35	10.40	-38.0	-40.2	14.3	0.00e+00	0	57	0	930086912	47	4652
2026-01-07 01:45:01.87	269.22	10.33	-38.1	-40.2	14.2	0.00e+00	0	57	0	933232640	47	4698
2026-01-07 01:45:02.88	269.08	10.27	-38.1	-40.3	14.2	1.50e-06	0	57	0	936378368	47	4709
2026-01-07 01:45:03.89	268.95	10.21	-38.0	-40.2	14.3	0.00e+00	0	57	0	939524096	47	4655
2026-01-07 01:45:04.90	268.82	10.15	-38.0	-40.2	14.2	1.50e-06	0	57	0	942669824	47	4659
2026-01-07 01:45:05.91	268.68	10.09	-38.0	-40.2	14.2	7.00e-07	0	56	0	945815552	47	4673
2026-01-07 01:45:06.92	268.55	10.03	-38.0	-40.2	14.2	0.00e+00	0	57	0	948961280	47	4656
2026-01-07 01:45:07.93	268.42	9.97	-38.0	-40.2	14.1	3.80e-06	0	57	0	952107008	47	4692
2026-01-07 01:45:08.94	268.29	9.91	-38.1	-40.3	13.9	2.20e-06	0	57	0	955252736	47	4757
2026-01-07 01:45:09.95	268.16	9.85	-38.1	-40.3	13.9	5.30e-06	0	56	0	958398464	47	4759
2026-01-07 01:45:10.96	268.03	9.79	-38.3	-40.6	13.6	5.30e-06	0	57	0	961544192	47	4913
2026-01-07 01:45:11.97	267.90	9.73	-38.3	-40.8	13.4	9.90e-06	0	56	0	964689920	47	4989
2026-01-07 01:45:12.98	267.77	9.67	-38.5	-41.0	13.2	2.13e-05	0	57	0	967835648	47	5129
2026-01-07 01:45:13.99	267.65	9.61	-38.6	-41.2	13.0	3.66e-05	0	56	0	970981376	47	5225
2026-01-07 01:45:15.00	267.52	9.55	-38.9	-41.6	12.6	8.16e-05	0	57	0	974127104	48	5185
2026-01-07 01:45:16.01	267.39	9.49	-39.0	-41.7	12.4	1.04e-04	0	56	0	977272832	48	5250
2026-01-07 01:45:17.03	267.26	9.42	-39.1	-42.0	12.1	1.98e-04	0	57	0	980418560	48	5419
2026-01-07 01:45:18.03	267.14	9.36	-39.2	-42.1	12.0	3.06e-04	0	57	0	983564288	49	5174
2026-01-07 01:45:19.04	267.01	9.30	-39.2	-42.2	11.9	3.71e-04	0	57	0	986710016	49	5233
2026-01-07 01:45:20.05	266.89	9.24	-39.3	-42.3	11.7	6.36e-04	0	57	0	989855744	49	5326
2026-01-07 01:45:21.06	266.76	9.18	-39.5	-42.6	11.4	8.40e-04	0	56	0	993001472	49	5474
2026-01-07 01:45:22.07	266.64	9.12	-39.4	-42.4	11.6	9.59e-04	0	57	0	996147200	49	5370
2026-01-07 01:45:23.08	266.52	9.06	-39.4	-42.4	11.5	6.90e-04	0	56	0	999292928	49	5381
2026-01-07 01:45:24.09	266.39	9.00	-39.3	-42.3	11.6	8.68e-04	0	57	0	1002438656	49	5322
2026-01-07 01:45:25.11	266.27	8.94	-39.3	-42.4	11.5	7.30e-04	0	57	0	1005584384	49	5349
2026-01-07 01:45:26.11	266.15	8.88	-39.3	-42.5	11.3	9.24e-04	0	57	0	1008730112	49	5420
2026-01-07 01:45:27.13	266.03	8.82	-39.4	-42.6	11.2	1.26e-03	0	56	0	1011875840	49	5484
2026-01-07 01:45:28.14	265.91	8.76	-39.4	-42.6	11.1	1.44e-03	0	57	0	1015021568	49	5517
2026-01-07 01:45:29.15	265.79	8.70	-39.6	-43.0	10.7	2.79e-03	0	57	0	1018167296	49	5731
2026-01-07 01:45:30.16	265.67	8.64	-39.7	-43.2	10.4	2.99e-03	0	57	0	1021313024	49	5879
2026-01-07 01:45:31.17	265.55	8.58	-39.7	-43.2	10.3	5.02e-03	0	56	0	1024458752	49	5919
2026-01-07 01:45:32.18	265.43	8.52	-39.8	-43.5	10.0	6.81e-03	0	56	0	1027604480	50	5751
2026-01-07 01:45:33.19	265.31	8.46	-39.9	-43.8	9.7	1.10e-02	0	57	0	1030750208	50	5937
2026-01-07 01:45:34.20	265.19	8.40	-40.1	-44.1	9.2	1.60e-02	0	57	0	1033895936	50	6193
2026-01-07 01:45:35.21	265.08	8.34	-40.1	-44.3	9.0	2.36e-02	0	57	0	1037041664	50	6326
2026-01-07 01:45:36.22	264.96	8.28	-40.1	-44.4	8.9	2.68e-02	0	57	0	1040187392	50	6365
2026-01-07 01:45:37.23	264.84	8.22	-40.3	-44.7	8.5	3.74e-02	0	57	0	1043333120	51	6249
2026-01-07 01:45:38.24	264.73	8.16	-40.3	-44.9	8.4	4.47e-02	0	57	0	1046478848	51	6384
2026-01-07 01:45:39.25	264.61	8.10	-40.3	-44.7	8.7	3.81e-02	0	57	0	1049624576	51	6241
2026-01-07 01:45:40.26	264.50	8.04	-40.3	-44.4	9.3	2.22e-02	0	57	0	1052770304	51	6021
2026-01-07 01:45:41.27	264.38	7.98	-44.1	-56.3	3.8	1.49e+00	0	57	104	1053818880	58	15890
2026-01-07 01:45:42.28	264.27	7.92	-44.5	-56.8	3.8	1.49e+00	0	57	104	1053818880	59	15775
2026-01-07 01:45:43.29	264.16	7.86	-44.7	-57.0	3.8	1.49e+00	0	57	104	1053818880	59	16196
2026-01-07 01:45:44.30	264.04	7.80	-44.7	-57.3	3.8	1.49e+00	0	57	104	1053818880	60	15813
2026-01-07 01:45:45.31	263.93	7.74	-44.8	-57.3	3.8	1.49e+00	0	57	104	1053818880	60	15935
2026-01-07 01:45:46.32	263.82	7.68	-44.9	-57.4	3.8	1.49e+00	0	57	104	1053818880	60	16069
2026-01-07 01:45:47.33	263.71	7.62	-44.9	-57.5	3.8	1.49e+00	0	57	104	1053818880	60	16169
2026-01-07 01:45:48.34	263.60	7.56	-45.0	-57.5	3.8	1.49e+00	0	57	104	1053818880	60	16252
2026-01-07 01:45:49.35	263.49	7.50	-45.0	-57.5	3.8	1.49e+00	0	57	104	1053818880	60	16148
2026-01-07 01:45:50.36	263.38	7.44	-44.9	-57.5	3.8	1.49e+00	0	57	104	1053818880	60	16159
2026-01-07 01:45:51.37	263.27	7.38	-44.9	-57.5	3.8	1.49e+00	0	57	104	1053818880	60	16193
2026-01-07 01:45:52.38	263.16	7.32	-44.9	-57.5	3.8	1.49e+00	0	57	104	1053818880	60	16223
2026-01-07 01:45:53.39	263.05	7.26	-44.9	-57.5	3.8	1.49e+00	0	57	104	1053818880	60	16156
2026-01-07 01:45:54.40	262.94	7.20	-44.9	-57.5	3.8	1.49e+00	0	57	104	1053818880	60	16183
2026-01-07 01:45:55.41	262.83	7.14	-45.0	-57.5	3.8	1.49e+00	0	57	104	1053818880	60	16192
2026-01-07 01:45:56.42	262.73	7.08	-45.0	-57.5	3.8	1.49e+00	0	57	104	1053818880	60	16241
2026-01-07 01:45:57.43	262.62	7.02	-45.0	-57.6	3.8	1.49e+00	0	57	104	1053818880	60	16322
2026-01-07 01:45:58.44	262.51	6.96	-44.9	-57.5	3.8	1.49e+00	0	57	104	1053818880	60	16259
2026-01-07 01:45:59.45	262.41	6.90	-44.9	-57.5	3.8	1.49e+00	0	57	104	1053818880	60	16234
2026-01-07 01:46:00.46	262.30	6.84	-44.9	-57.5	3.8	1.49e+00	0	57	104	1053818880	60	16192
2026-01-07 01:46:01.47	262.20	6.78	-45.0	-57.5	3.8	1.49e+00	0	57	104	1053818880	60	16210
2026-01-07 01:46:02.48	262.09	6.72	-45.0	-57.5	3.8	1.49e+00	0	57	104	1053818880	60	16245
2026-01-07 01:46:03.49	261.99	6.66	-44.9	-57.5	3.8	1.49e+00	0	57	104	1053818880	60	16272
2026-01-07 01:46:04.50	261.89	6.61	-44.9	-57.5	3.8	1.49e+00	0	57	104	1053818880	60	16243
2026-01-07 01:46:05.52	261.78	6.55	-44.9	-57.5	3.8	1.49e+00	0	57	104	1053818880	60	16212
2026-01-07 01:46:06.53	261.68	6.49	-44.9	-57.5	3.8	1.49e+00	0	57	104	1053818880	60	16207
2026-01-07 01:46:07.54	261.58	6.43	-44.9	-57.5	3.8	1.49e+00	0	57	104	1053818880	60	16221
2026-01-07 01:46:08.55	261.47	6.37	-44.9	-57.5	3.8	1.49e+00	0	57	104	1053818880	60	16165
2026-01-07 01:46:09.56	261.37	6.31	-44.9	-57.5	3.8	1.49e+00	0	57	104	1053818880	60	16179
2026-01-07 01:46:10.57	261.27	6.25	-44.9	-57.5	3.8	1.49e+00	0	57	104	1053818880	60	16287
2026-01-07 01:46:11.58	261.17	6.19	-44.9	-57.5	3.8	1.49e+00	0	57	104	1053818880	60	16217
2026-01-07 01:46:12.59	261.07	6.13	-44.9	-57.5	3.8	1.49e+00	0	57	104	1053818880	60	16206
2026-01-07 01:46:13.60	260.97	6.08	-44.9	-57.5	3.8	1.49e+00	0	57	104	1053818880	60	16172
2026-01-07 01:46:14.61	260.87	6.02	-44.9	-57.5	3.8	1.49e+00	0	57	104	1053818880	60	16157
2026-01-07 01:46:15.62	260.77	5.96	-44.9	-57.5	3.8	1.49e+00	0	56	104	1053818880	60	16194
2026-01-07 01:46:16.63	260.67	5.90	-44.9	-57.5	3.8	1.49e+00	0	57	104	1053818880	60	16189
2026-01-07 01:46:17.64	260.57	5.84	-44.9	-57.5	3.8	1.49e+00	0	57	104	1053818880	60	16161
2026-01-07 01:46:18.65	260.48	5.78	-44.9	-57.4	3.8	1.49e+00	0	57	104	1053818880	60	16127
2026-01-07 01:46:19.66	260.38	5.73	-44.9	-57.5	3.8	1.49e+00	0	57	104	1053818880	60	16154
2026-01-07 01:46:20.67	260.28	5.67	-44.9	-57.5	3.8	1.49e+00	0	57	104	1053818880	60	16149
2026-01-07 01:46:21.68	260.18	5.61	-44.9	-57.5	3.8	1.49e+00	0	57	104	1053818880	60	16149
2026-01-07 01:46:22.69	260.09	5.55	-44.9	-57.5	3.8	1.49e+00	0	57	104	1053818880	60	16184
2026-01-07 01:46:23.70	259.99	5.49	-44.9	-57.5	3.8	1.49e+00	0	57	104	1053818880	60	16172
2026-01-07 01:46:24.71	259.90	5.43	-44.9	-57.5	3.8	1.49e+00	0	57	104	1053818880	60	16130
2026-01-07 01:46:25.72	259.80	5.38	-44.9	-57.5	3.8	1.49e+00	0	57	104	1053818880	60	16136
2026-01-07 01:46:26.73	259.71	5.32	-44.9	-57.5	3.8	1.49e+00	0	57	104	1053818880	60	16142
2026-01-07 01:46:27.74	259.61	5.26	-44.9	-57.5	3.8	1.49e+00	0	57	104	1053818880	60	16148
2026-01-07 01:46:28.76	259.52	5.20	-44.9	-57.5	3.8	1.49e+00	0	57	104	1053818880	60	16128
2026-01-07 01:46:29.77	259.42	5.14	-44.9	-57.5	3.8	1.49e+00	0	57	104	1053818880	60	16166
2026-01-07 01:46:30.78	259.33	5.09	-44.9	-57.5	3.8	1.49e+00	0	57	104	1053818880	60	16178
2026-01-07 01:46:31.79	259.24	5.03	-44.9	-57.5	3.8	1.49e+00	0	57	104	1053818880	60	16175
2026-01-07 01:46:32.80	259.14	4.97	-44.9	-57.4	3.8	1.49e+00	0	57	104	1053818880	60	16120
2026-01-07 01:46:33.81	259.05	4.91	-44.9	-57.5	3.8	1.49e+00	0	57	104	1053818880	60	16156
2026-01-07 01:46:34.82	258.96	4.86	-44.9	-57.4	3.8	1.49e+00	0	57	104	1053818880	60	16082
2026-01-07 01:46:35.83	258.87	4.80	-44.9	-57.4	3.8	1.49e+00	0	57	104	1053818880	60	16117
2026-01-07 01:46:36.84	258.78	4.74	-44.9	-57.4	3.8	1.49e+00	0	57	104	1053818880	60	16109
2026-01-07 01:46:37.85	258.69	4.68	-44.9	-57.4	3.8	1.49e+00	0	57	104	1053818880	60	16125
2026-01-07 01:46:38.86	258.60	4.63	-44.9	-57.4	3.8	1.49e+00	0	57	104	1053818880	60	16126
2026-01-07 01:46:39.87	258.51	4.57	-44.9	-57.4	3.8	1.49e+00	0	57	104	1053818880	60	16103
2026-01-07 01:46:40.88	258.42	4.51	-44.9	-57.5	3.8	1.49e+00	0	57	104	1053818880	60	16128
2026-01-07 01:46:41.89	258.33	4.45	-44.9	-57.4	3.8	1.49e+00	0	57	104	1053818880	60	16053
2026-01-07 01:46:42.90	258.24	4.40	-44.9	-57.5	3.8	1.49e+00	0	57	104	1053818880	60	16138
2026-01-07 01:46:43.92	258.15	4.34	-44.9	-57.4	3.8	1.49e+00	0	57	104	1053818880	60	16102
2026-01-07 01:46:44.93	258.06	4.28	-44.9	-57.5	3.8	1.49e+00	0	57	104	1053818880	60	16131
2026-01-07 01:46:45.94	257.97	4.23	-44.9	-57.4	3.8	1.49e+00	0	57	104	1053818880	60	16099
2026-01-07 01:46:46.95	257.89	4.17	-44.9	-57.4	3.8	1.49e+00	0	57	104	1053818880	60	16083
2026-01-07 01:46:47.96	257.80	4.11	-44.9	-57.4	3.8	1.49e+00	0	57	104	1053818880	60	16082
2026-01-07 01:46:48.97	257.71	4.06	-44.9	-57.4	3.8	1.49e+00	0	57	104	1053818880	60	16114
2026-01-07 01:46:49.98	257.63	4.00	-44.9	-57.4	3.8	1.49e+00	0	57	104	1053818880	60	16087
2026-01-07 01:46:50.99	257.54	3.94	-44.9	-57.4	3.8	1.49e+00	0	57	104	1053818880	60	16072
2026-01-07 01:46:52.00	257.45	3.89	-44.9	-57.4	3.8	1.49e+00	0	57	104	1053818880	60	16095
2026-01-07 01:46:53.01	257.37	3.83	-44.9	-57.4	3.8	1.49e+00	0	57	104	1053818880	60	16103
2026-01-07 01:46:54.02	257.28	3.77	-44.9	-57.4	3.8	1.49e+00	0	57	104	1053818880	60	16109
2026-01-07 01:46:55.03	257.20	3.72	-44.8	-57.4	3.8	1.49e+00	0	57	104	1053818880	60	16103
2026-01-07 01:46:56.04	257.11	3.66	-44.8	-57.4	3.8	1.49e+00	0	57	104	1053818880	60	16081
2026-01-07 01:46:57.05	257.03	3.60	-44.9	-57.4	3.8	1.49e+00	0	57	104	1053818880	60	16082
2026-01-07 01:46:58.06	256.95	3.55	-44.9	-57.4	3.8	1.49e+00	0	57	104	1053818880	60	16092
2026-01-07 01:46:59.07	256.86	3.49	-44.9	-57.4	3.8	1.49e+00	0	57	104	1053818880	60	16076
2026-01-07 01:47:00.08	256.78	3.44	-44.9	-57.4	3.8	1.49e+00	0	57	104	1053818880	60	16076
2026-01-07 01:47:01.09	256.70	3.38	-44.9	-57.4	3.8	1.49e+00	0	57	104	1053818880	60	16110
2026-01-07 01:47:02.11	256.61	3.32	-44.8	-57.4	3.8	1.49e+00	0	57	104	1053818880	60	16116
2026-01-07 01:47:03.11	256.53	3.27	-44.9	-57.4	3.8	1.49e+00	0	57	104	1053818880	60	16096
2026-01-07 01:47:04.13	256.45	3.21	-44.9	-57.4	3.8	1.49e+00	0	57	104	1053818880	60	16113
2026-01-07 01:47:05.14	256.37	3.16	-44.9	-57.4	3.8	1.49e+00	0	57	104	1053818880	60	16069
2026-01-07 01:47:06.15	256.29	3.10	-44.9	-57.4	3.8	1.49e+00	0	57	104	1053818880	60	16060
2026-01-07 01:47:07.16	256.21	3.04	-44.9	-57.4	3.8	1.49e+00	0	57	104	1053818880	60	16052
2026-01-07 01:47:08.17	256.13	2.99	-44.9	-57.4	3.8	1.49e+00	0	57	104	1053818880	60	16109
2026-01-07 01:47:09.18	256.05	2.93	-44.9	-57.4	3.8	1.49e+00	0	57	104	1053818880	60	16062
2026-01-07 01:47:10.19	255.97	2.88	-44.8	-57.4	3.8	1.49e+00	0	57	104	1053818880	60	16059
2026-01-07 01:47:11.20	255.89	2.82	-44.8	-57.4	3.8	1.49e+00	0	57	104	1053818880	60	16123
2026-01-07 01:47:12.21	255.81	2.77	-44.8	-57.4	3.8	1.49e+00	0	57	104	1053818880	60	16062
2026-01-07 01:47:13.22	255.73	2.71	-44.9	-57.4	3.8	1.49e+00	0	57	104	1053818880	60	16106
2026-01-07 01:47:14.23	255.65	2.66	-44.8	-57.4	3.8	1.49e+00	0	57	104	1053818880	60	16066
2026-01-07 01:47:15.24	255.57	2.60	-44.9	-57.4	3.8	1.49e+00	0	57	104	1053818880	60	16121
2026-01-07 01:47:16.25	255.49	2.55	-44.8	-57.4	3.8	1.49e+00	0	57	104	1053818880	60	16082
2026-01-07 01:47:17.27	255.41	2.49	-44.9	-57.4	3.8	1.49e+00	0	57	104	1053818880	60	16071
2026-01-07 01:47:18.28	255.34	2.44	-44.8	-57.4	3.8	1.49e+00	0	57	104	1053818880	60	16075
2026-01-07 01:47:19.29	255.26	2.38	-44.8	-57.4	3.8	1.49e+00	0	57	104	1053818880	60	16114
2026-01-07 01:47:20.30	255.18	2.33	-44.8	-57.4	3.8	1.49e+00	0	57	104	1053818880	60	16039
2026-01-07 01:47:21.31	255.11	2.27	-44.8	-57.4	3.8	1.49e+00	0	57	104	1053818880	60	16041
2026-01-07 01:47:22.32	255.03	2.22	-44.8	-57.4	3.8	1.49e+00	0	57	104	1053818880	60	16081
2026-01-07 01:47:23.33	254.95	2.16	-44.8	-57.4	3.8	1.49e+00	0	57	104	1053818880	60	16079
2026-01-07 01:47:24.34	254.88	2.11	-44.8	-57.4	3.8	1.49e+00	0	57	104	1053818880	60	16064
2026-01-07 01:47:25.35	254.80	2.05	-44.8	-57.4	3.8	1.49e+00	0	57	104	1053818880	60	16078
2026-01-07 01:47:26.36	254.73	2.00	-44.8	-57.4	3.8	1.49e+00	0	57	104	1053818880	60	16018

#Closed at: 2026-01-07 01:47:27
#Recorded file [1053 MB]: D:/lorett/data/31039_260107_043919.dat