passes_logs/2026/01/07/R2.0S_Moscow/R2.0S_Moscow__20260107_080654_NOAA_21_JPSS-2_rec.log

#Pass ID: 20260107_080654_NOAA 21 (JPSS-2)
#Satellite: NOAA 21 (JPSS-2)
#Configuration: NOAA-21
#almurnet v.1.7.20251203
#Start time: 2026-01-07 08:06:53

#Version: 2.2.20231116
#Station: R2.0S_Moscow
#Location: 37.707566 lon 55.798166 lat
#TLE: 1 54234U 22150A   26005.56767909  .00000152  00000+0  92756-4 0  9990
#TLE: 2 54234  98.7490 306.5820 0001036 340.2747  19.8389 14.19532370163472

#Time	Az	El	Level	Level2	SNR	BER	BlckErr	Temp	State	Recorded	gain1	gain2
2026-01-07 08:06:53.70	107.60	1.98	-37.4	-51.6	3.9	1.50e+00	0	47	0	0	45	19597
2026-01-07 08:06:54.71	107.53	2.04	-34.8	-50.9	4.1	1.50e+00	0	47	104	0	42	21432
2026-01-07 08:06:55.72	107.46	2.09	-25.0	-41.5	-1.7	1.50e+00	0	47	104	0	26	18129
2026-01-07 08:06:56.73	107.38	2.15	-36.3	-51.3	3.9	1.50e+00	0	47	104	0	40	25007
2026-01-07 08:06:57.74	107.31	2.20	-36.4	-50.5	4.1	1.50e+00	0	47	104	0	43	19285
2026-01-07 08:06:58.75	107.24	2.26	-34.2	-50.2	4.0	1.50e+00	0	47	104	0	42	19619
2026-01-07 08:06:59.76	107.16	2.31	-35.9	-51.2	4.0	1.50e+00	0	47	104	0	40	24787
2026-01-07 08:07:00.77	107.09	2.37	-35.7	-51.7	4.0	1.50e+00	0	47	104	0	44	20852
2026-01-07 08:07:01.78	107.02	2.43	-34.4	-51.0	4.0	1.50e+00	0	47	104	0	44	19252
2026-01-07 08:07:02.78	106.94	2.48	-35.1	-51.2	4.1	1.50e+00	0	47	104	0	45	18542
2026-01-07 08:07:03.79	106.87	2.54	-36.1	-51.0	4.4	1.50e+00	0	48	104	0	44	19232
2026-01-07 08:07:04.80	106.79	2.59	-35.3	-50.1	4.1	1.50e+00	0	48	104	0	42	19591
2026-01-07 08:07:05.81	106.72	2.65	-28.6	-49.3	3.9	1.50e+00	0	48	104	0	40	20013
2026-01-07 08:07:06.82	106.64	2.71	-32.0	-49.2	4.1	1.50e+00	0	48	104	0	35	26157
2026-01-07 08:07:07.83	106.56	2.76	-30.0	-50.1	4.1	1.50e+00	0	48	104	0	43	18311
2026-01-07 08:07:08.84	106.49	2.82	-31.3	-48.8	4.0	1.50e+00	0	48	104	0	39	19852
2026-01-07 08:07:09.85	106.41	2.87	-34.0	-50.7	4.0	1.50e+00	0	48	104	0	41	22151
2026-01-07 08:07:10.86	106.33	2.93	-28.1	-46.7	3.8	1.50e+00	0	48	104	0	27	31122
2026-01-07 08:07:11.87	106.26	2.99	-36.4	-51.6	4.1	1.50e+00	0	48	104	0	45	19434
2026-01-07 08:07:12.88	106.18	3.04	-33.8	-51.4	3.9	1.50e+00	0	48	104	0	41	24036
2026-01-07 08:07:13.89	106.10	3.10	-34.2	-50.7	4.1	1.50e+00	0	48	104	0	39	24748
2026-01-07 08:07:14.90	106.02	3.16	-31.5	-50.0	4.1	1.50e+00	0	48	104	0	37	25563
2026-01-07 08:07:15.92	105.94	3.21	-29.5	-44.1	3.9	1.50e+00	0	48	104	0	28	21932
2026-01-07 08:07:16.93	105.86	3.27	-26.6	-44.0	3.9	1.50e+00	0	49	104	0	28	21591
2026-01-07 08:07:17.94	105.78	3.33	-26.1	-41.9	3.8	1.50e+00	0	49	104	0	24	21370
2026-01-07 08:07:18.95	105.70	3.39	-24.8	-43.2	3.7	1.51e+00	0	49	104	0	19	32955
2026-01-07 08:07:19.95	105.63	3.44	-35.6	-51.5	4.2	1.50e+00	0	49	104	0	38	28864
2026-01-07 08:07:20.97	105.54	3.50	-35.2	-51.1	4.0	1.50e+00	0	49	104	0	43	20644
2026-01-07 08:07:21.98	105.46	3.56	-25.9	-42.4	3.8	1.50e+00	0	49	104	0	27	19040
2026-01-07 08:07:22.99	105.38	3.61	-26.6	-42.7	3.7	1.50e+00	0	49	104	0	25	22163
2026-01-07 08:07:24.00	105.30	3.67	-28.1	-42.6	3.8	1.51e+00	0	49	104	0	26	20695
2026-01-07 08:07:25.01	105.22	3.73	-27.1	-41.9	3.8	1.50e+00	0	49	104	0	26	19088
2026-01-07 08:07:26.02	105.14	3.79	-28.2	-43.2	3.9	1.50e+00	0	49	104	0	25	23324
2026-01-07 08:07:27.03	105.06	3.84	-30.0	-43.4	4.0	1.50e+00	0	49	104	0	27	21292
2026-01-07 08:07:28.04	104.97	3.90	-24.7	-42.3	3.7	1.50e+00	0	49	104	0	22	25230
2026-01-07 08:07:29.06	104.89	3.96	-29.8	-45.4	3.8	1.50e+00	0	49	104	0	27	26990
2026-01-07 08:07:30.07	104.81	4.02	-35.4	-49.4	3.8	1.50e+00	0	49	104	0	27	42657
2026-01-07 08:07:31.08	104.72	4.07	-32.7	-46.1	3.8	1.51e+00	0	49	104	0	27	29077
2026-01-07 08:07:32.09	104.64	4.13	-26.7	-43.2	3.7	1.50e+00	0	49	104	0	25	23487
2026-01-07 08:07:33.10	104.56	4.19	-33.1	-49.9	4.0	1.50e+00	0	50	104	0	41	20165
2026-01-07 08:07:34.11	104.47	4.25	-34.3	-50.5	4.2	1.50e+00	0	49	104	0	43	19376
2026-01-07 08:07:35.12	104.39	4.31	-34.5	-50.2	4.1	1.50e+00	0	50	104	0	39	23381
2026-01-07 08:07:36.13	104.30	4.36	-36.2	-51.3	4.1	1.50e+00	0	50	104	0	45	18856
2026-01-07 08:07:37.14	104.22	4.42	-36.8	-51.1	4.0	1.50e+00	0	50	104	0	44	19591
2026-01-07 08:07:38.15	104.13	4.48	-37.2	-51.6	4.2	1.50e+00	0	50	104	0	46	18513
2026-01-07 08:07:39.16	104.04	4.54	-36.2	-51.4	4.1	1.50e+00	0	50	104	0	44	20301
2026-01-07 08:07:40.17	103.96	4.60	-36.5	-51.4	3.9	1.50e+00	0	50	104	0	45	18967
2026-01-07 08:07:41.18	103.87	4.66	-35.0	-51.1	4.4	1.50e+00	0	50	104	0	40	24442
2026-01-07 08:07:42.19	103.78	4.71	-29.6	-46.8	4.2	1.50e+00	0	50	104	0	44	11842
2026-01-07 08:07:43.20	103.69	4.77	-36.1	-51.0	4.0	1.50e+00	0	50	104	0	41	22819
2026-01-07 08:07:44.21	103.61	4.83	-27.6	-45.5	4.0	1.50e+00	0	50	104	0	27	27138
2026-01-07 08:07:45.22	103.52	4.89	-32.1	-48.6	3.9	1.50e+00	0	50	104	0	43	15563
2026-01-07 08:07:46.23	103.43	4.95	-30.3	-49.6	4.1	1.50e+00	0	50	104	0	43	17432
2026-01-07 08:07:47.24	103.34	5.01	-32.4	-48.6	4.3	1.50e+00	0	50	104	0	43	15551
2026-01-07 08:07:48.25	103.25	5.07	-31.4	-48.1	4.0	1.50e+00	0	50	104	0	43	14589
2026-01-07 08:07:49.26	103.16	5.13	-36.0	-50.7	3.9	1.50e+00	0	50	104	0	42	20853
2026-01-07 08:07:50.27	103.07	5.18	-36.2	-50.2	4.2	1.50e+00	0	51	104	0	44	17543
2026-01-07 08:07:51.27	102.98	5.24	-35.4	-50.5	4.0	1.50e+00	0	50	104	0	42	20428
2026-01-07 08:07:52.29	102.89	5.30	-36.4	-50.1	4.1	1.50e+00	0	51	104	0	45	16411
2026-01-07 08:07:53.29	102.80	5.36	-34.8	-50.9	3.9	1.50e+00	0	50	104	0	40	24019
2026-01-07 08:07:54.31	102.71	5.42	-35.1	-51.2	3.9	1.50e+00	0	51	104	0	43	20985
2026-01-07 08:07:55.32	102.61	5.48	-34.6	-50.4	4.0	1.50e+00	0	51	104	0	41	21388
2026-01-07 08:07:56.33	102.52	5.54	-27.1	-46.7	3.9	1.51e+00	0	51	104	0	25	34999
2026-01-07 08:07:57.34	102.43	5.60	-33.7	-50.2	4.1	1.50e+00	0	51	104	0	42	19788
2026-01-07 08:07:58.35	102.33	5.66	-36.2	-50.4	4.2	1.50e+00	0	51	104	0	45	16940
2026-01-07 08:07:59.36	102.24	5.72	-36.0	-50.2	4.0	1.50e+00	0	51	104	0	41	21006
2026-01-07 08:08:00.37	102.15	5.78	-34.1	-50.6	4.0	1.50e+00	0	51	104	0	43	19498
2026-01-07 08:08:01.38	102.05	5.84	-35.9	-50.6	4.1	1.50e+00	0	51	104	0	43	19405
2026-01-07 08:08:02.39	101.96	5.90	-34.9	-50.3	3.9	1.50e+00	0	51	104	0	42	19877
2026-01-07 08:08:03.40	101.86	5.96	-35.4	-51.2	4.1	1.50e+00	0	51	104	0	45	18524
2026-01-07 08:08:04.42	101.77	6.02	-31.1	-50.6	4.0	1.50e+00	0	51	104	0	45	17365
2026-01-07 08:08:05.43	101.67	6.08	-28.7	-47.4	3.8	1.50e+00	0	51	104	0	38	18036
2026-01-07 08:08:06.44	101.57	6.14	-37.5	-50.4	4.1	1.50e+00	0	51	104	0	43	18991
2026-01-07 08:08:07.45	101.48	6.20	-35.2	-49.6	4.1	1.50e+00	0	51	104	0	41	19454
2026-01-07 08:08:08.46	101.38	6.26	-36.0	-50.6	3.9	1.50e+00	0	51	104	0	39	24446
2026-01-07 08:08:09.47	101.28	6.32	-31.4	-49.5	4.0	1.50e+00	0	51	104	0	42	18160
2026-01-07 08:08:10.48	101.18	6.38	-32.4	-46.7	4.1	1.50e+00	0	51	104	0	41	13963
2026-01-07 08:08:11.49	101.08	6.44	-33.8	-49.7	3.9	1.50e+00	0	51	104	0	38	23380
2026-01-07 08:08:12.50	100.98	6.50	-32.0	-49.8	3.5	1.50e+00	0	51	104	0	37	25202
2026-01-07 08:08:13.51	100.89	6.56	-34.7	-48.7	3.9	1.50e+00	0	51	104	0	28	37249
2026-01-07 08:08:14.52	100.79	6.62	-34.8	-51.0	4.3	1.50e+00	0	51	104	0	37	28925
2026-01-07 08:08:15.53	100.69	6.68	-28.2	-43.2	3.8	1.50e+00	0	52	104	0	26	22237
2026-01-07 08:08:16.54	100.58	6.74	-28.8	-42.9	3.9	1.50e+00	0	51	104	0	31	16070
2026-01-07 08:08:17.55	100.48	6.80	-33.5	-45.3	5.1	1.50e+00	0	52	104	0	23	33618
2026-01-07 08:08:18.56	100.38	6.86	-27.2	-43.4	3.6	1.50e+00	0	52	104	0	26	22582
2026-01-07 08:08:19.57	100.28	6.92	-28.9	-44.5	3.9	1.50e+00	0	52	104	0	28	22787
2026-01-07 08:08:20.58	100.18	6.99	-31.0	-46.3	3.8	1.50e+00	0	52	104	0	39	14980
2026-01-07 08:08:21.59	100.07	7.05	-35.0	-49.9	4.1	1.50e+00	0	52	104	0	40	21411
2026-01-07 08:08:22.60	99.97	7.11	-35.7	-50.2	4.1	1.50e+00	0	52	104	0	41	20928
2026-01-07 08:08:23.61	99.87	7.17	-32.1	-49.6	3.8	1.50e+00	0	52	104	0	40	20590
2026-01-07 08:08:24.62	99.76	7.23	-30.6	-49.9	4.0	1.50e+00	0	52	104	0	43	18018
2026-01-07 08:08:25.63	99.66	7.29	-29.8	-48.6	4.3	1.50e+00	0	52	104	0	40	18320
2026-01-07 08:08:26.64	99.55	7.35	-37.4	-50.5	4.1	1.50e+00	0	52	104	0	43	19351
2026-01-07 08:08:27.65	99.45	7.41	-35.2	-48.9	4.0	1.50e+00	0	52	104	0	41	17945
2026-01-07 08:08:28.66	99.34	7.47	-34.9	-50.5	3.8	1.50e+00	0	52	104	0	45	17206
2026-01-07 08:08:29.67	99.24	7.54	-35.9	-49.8	3.8	1.50e+00	0	52	104	0	29	39989
2026-01-07 08:08:30.69	99.13	7.60	-36.3	-48.7	3.9	1.50e+00	0	52	104	0	29	35239
2026-01-07 08:08:31.70	99.02	7.66	-28.0	-43.4	4.5	1.50e+00	0	52	104	0	31	16996
2026-01-07 08:08:32.70	98.91	7.72	-28.6	-41.8	3.8	1.50e+00	0	52	104	0	22	23785
2026-01-07 08:08:33.71	98.81	7.78	-34.5	-47.7	3.4	1.49e+00	0	52	104	0	28	33175
2026-01-07 08:08:34.73	98.70	7.84	-34.7	-46.5	4.8	1.49e+00	0	52	104	0	38	16197
2026-01-07 08:08:35.74	98.59	7.91	-35.4	-46.2	4.2	1.38e+00	0	52	104	0	43	11780
2026-01-07 08:08:36.75	98.48	7.97	-34.0	-44.7	5.9	9.28e-01	1	52	0	0	43	9842
2026-01-07 08:08:37.76	98.37	8.03	-31.7	-43.6	5.8	9.28e-01	0	52	0	0	38	11662
2026-01-07 08:08:38.77	98.26	8.09	-38.3	-51.8	4.1	1.40e+00	0	52	104	0	45	19887
2026-01-07 08:08:39.78	98.14	8.15	-36.9	-51.7	3.8	1.50e+00	0	52	104	0	44	20873
2026-01-07 08:08:40.79	98.03	8.21	-30.8	-44.1	6.6	2.94e-01	9	53	0	0	45	8189
2026-01-07 08:08:41.80	97.92	8.28	-37.6	-44.0	6.8	8.75e-01	0	53	104	0	45	8118
2026-01-07 08:08:42.81	97.81	8.34	-34.3	-44.0	6.4	4.70e-01	20	53	0	0	44	8583
2026-01-07 08:08:43.82	97.70	8.40	-33.2	-41.5	8.6	3.73e-01	1	53	0	0	42	7287
2026-01-07 08:08:44.83	97.58	8.46	-32.3	-40.2	9.9	5.21e-02	0	53	0	3145728	40	7029
2026-01-07 08:08:45.84	97.47	8.53	-35.4	-40.1	10.4	2.54e-02	0	53	0	6291456	43	5821
2026-01-07 08:08:46.85	97.35	8.59	-35.4	-40.8	9.7	3.17e-02	0	53	0	9437184	43	6345
2026-01-07 08:08:47.86	97.24	8.65	-37.0	-42.3	7.7	6.48e-02	0	53	0	12582912	46	6295
2026-01-07 08:08:48.88	97.12	8.71	-37.8	-43.8	7.4	1.34e-01	0	53	0	15728640	45	7922
2026-01-07 08:08:49.88	97.01	8.77	-37.6	-44.9	6.1	2.39e-01	1	53	0	18874368	44	9513
2026-01-07 08:08:50.89	96.89	8.84	-38.5	-45.6	6.0	5.84e-01	0	53	0	22020096	48	8205
2026-01-07 08:08:51.90	96.77	8.90	-37.8	-46.2	5.1	5.30e-01	17	53	0	24117248	45	10526
2026-01-07 08:08:52.91	96.65	8.96	-37.7	-48.0	4.1	9.96e-01	0	53	104	25165824	48	10885
2026-01-07 08:08:53.92	96.54	9.02	-38.7	-49.9	3.9	1.47e+00	0	53	104	25165824	49	12761
2026-01-07 08:08:54.94	96.42	9.09	-38.4	-51.4	3.6	1.49e+00	0	53	104	25165824	48	15979
2026-01-07 08:08:55.95	96.30	9.15	-39.5	-51.9	3.9	1.49e+00	0	53	104	25165824	50	15150
2026-01-07 08:08:56.96	96.18	9.21	-38.4	-52.1	3.7	1.49e+00	0	53	104	25165824	49	16330
2026-01-07 08:08:57.96	96.06	9.28	-40.8	-53.2	3.8	1.49e+00	0	53	104	25165824	53	14864
2026-01-07 08:08:58.97	95.94	9.34	-39.8	-52.1	3.9	1.49e+00	0	53	104	25165824	50	15504
2026-01-07 08:08:59.98	95.82	9.40	-39.2	-52.0	3.8	1.49e+00	0	53	104	25165824	49	16291
2026-01-07 08:09:00.99	95.70	9.46	-39.7	-52.1	3.8	1.49e+00	0	53	104	25165824	50	15539
2026-01-07 08:09:02.00	95.57	9.53	-39.1	-51.8	3.8	1.49e+00	0	53	104	25165824	49	15876
2026-01-07 08:09:03.01	95.45	9.59	-39.6	-52.0	3.8	1.49e+00	0	53	104	25165824	50	15241
2026-01-07 08:09:04.02	95.33	9.65	-39.8	-51.6	3.8	1.49e+00	0	53	104	25165824	50	14621
2026-01-07 08:09:05.03	95.20	9.71	-39.8	-51.6	3.8	1.49e+00	0	53	104	25165824	50	14697
2026-01-07 08:09:06.04	95.08	9.78	-40.7	-49.0	4.5	1.15e+00	2	53	104	25165824	52	9689
2026-01-07 08:09:07.05	94.95	9.84	-42.5	-54.0	3.8	1.49e+00	0	53	104	25165824	55	14533
2026-01-07 08:09:08.06	94.83	9.90	-39.9	-49.6	4.0	1.44e+00	0	53	104	25165824	51	11008
2026-01-07 08:09:09.07	94.70	9.97	-40.3	-47.9	4.9	7.01e-01	0	53	0	25165824	51	9061
2026-01-07 08:09:10.08	94.58	10.03	-40.1	-46.6	5.8	7.00e-01	0	53	0	26214400	51	7792
2026-01-07 08:09:11.09	94.45	10.09	-39.7	-44.8	7.7	9.37e-02	0	53	0	29360128	50	6664
2026-01-07 08:09:12.10	94.32	10.16	-40.0	-45.7	6.9	9.65e-02	0	53	0	32505856	50	7387
2026-01-07 08:09:13.11	94.19	10.22	-40.3	-46.4	6.3	2.31e-01	0	53	0	35651584	51	7588
2026-01-07 08:09:14.12	94.06	10.28	-40.2	-46.2	6.4	2.32e-01	0	53	0	38797312	51	7435
2026-01-07 08:09:15.12	93.93	10.35	-40.1	-45.7	6.9	1.67e-01	0	53	0	41943040	51	6963
2026-01-07 08:09:16.13	93.80	10.41	-39.8	-44.7	7.8	1.10e-01	0	54	0	45088768	51	6265
2026-01-07 08:09:17.14	93.67	10.47	-39.5	-43.9	8.7	3.96e-02	0	54	0	48234496	51	5689
2026-01-07 08:09:18.15	93.54	10.53	-39.6	-44.1	8.5	3.81e-02	0	53	0	51380224	50	6164
2026-01-07 08:09:19.16	93.41	10.60	-39.2	-43.1	9.6	1.95e-02	0	53	0	54525952	50	5511
2026-01-07 08:09:20.17	93.28	10.66	-38.0	-40.9	12.0	1.11e-03	0	54	0	57671680	48	4764
2026-01-07 08:09:21.18	93.15	10.72	-37.3	-39.8	13.0	5.95e-05	0	54	0	60817408	46	4739
2026-01-07 08:09:22.19	93.01	10.79	-37.1	-39.5	13.4	1.29e-05	0	54	0	63963136	45	4831
2026-01-07 08:09:23.20	92.88	10.85	-37.6	-40.3	12.6	1.19e-04	0	53	0	67108864	45	5326
2026-01-07 08:09:24.21	92.74	10.91	-37.6	-40.2	12.9	5.87e-05	0	53	0	70254592	45	5220
2026-01-07 08:09:25.22	92.61	10.98	-37.8	-40.5	12.5	1.37e-04	0	54	0	73400320	46	5126
2026-01-07 08:09:26.23	92.47	11.04	-38.3	-41.3	11.8	2.33e-04	0	54	0	76546048	47	5297
2026-01-07 08:09:27.24	92.34	11.10	-38.4	-41.4	11.7	7.84e-04	0	54	0	79691776	47	5387
2026-01-07 08:09:28.25	92.20	11.17	-38.3	-41.3	11.8	4.42e-04	0	54	0	82837504	47	5318
2026-01-07 08:09:29.26	92.06	11.23	-38.5	-41.7	11.5	9.63e-04	0	54	0	85983232	47	5538
2026-01-07 08:09:30.27	91.92	11.29	-38.2	-41.0	12.1	4.82e-04	0	54	0	89128960	47	5147
2026-01-07 08:09:31.28	91.78	11.36	-37.8	-40.4	12.9	1.03e-04	0	54	0	92274688	47	4777
2026-01-07 08:09:32.29	91.64	11.42	-37.8	-40.3	12.9	2.74e-05	0	54	0	95420416	47	4753
2026-01-07 08:09:33.30	91.50	11.48	-38.1	-40.9	12.3	1.01e-04	0	54	0	98566144	47	5066
2026-01-07 08:09:34.31	91.36	11.55	-37.9	-40.7	12.5	1.60e-04	0	54	0	101711872	47	4936
2026-01-07 08:09:35.32	91.22	11.61	-37.3	-39.7	13.3	2.36e-05	0	54	0	104857600	46	4694
2026-01-07 08:09:36.33	91.08	11.67	-37.2	-39.7	13.2	2.13e-05	0	54	0	108003328	46	4664
2026-01-07 08:09:37.34	90.94	11.74	-37.4	-40.0	12.8	5.26e-05	0	54	0	111149056	46	4844
2026-01-07 08:09:38.36	90.79	11.80	-38.3	-41.7	10.9	5.90e-04	0	54	0	114294784	47	5541
2026-01-07 08:09:39.37	90.65	11.87	-39.3	-43.7	8.7	1.64e-02	0	54	0	117440512	49	6260
2026-01-07 08:09:40.38	90.51	11.93	-40.1	-45.9	6.5	1.59e-01	0	54	0	120586240	50	7565
2026-01-07 08:09:41.39	90.36	11.99	-40.5	-48.0	4.9	5.80e-01	0	54	0	123731968	51	9078
2026-01-07 08:09:42.40	90.21	12.06	-40.7	-50.2	4.1	1.47e+00	0	54	104	124780544	52	11054
2026-01-07 08:09:43.41	90.07	12.12	-40.8	-51.5	3.8	1.49e+00	0	54	104	124780544	52	12918
2026-01-07 08:09:44.42	89.92	12.18	-40.8	-52.4	3.8	1.49e+00	0	54	104	124780544	52	14248
2026-01-07 08:09:45.42	89.77	12.24	-40.8	-52.7	3.8	1.49e+00	0	54	104	124780544	52	14730
2026-01-07 08:09:46.43	89.63	12.31	-40.9	-52.8	3.8	1.49e+00	0	54	104	124780544	52	15025
2026-01-07 08:09:47.44	89.48	12.37	-41.1	-53.2	3.8	1.49e+00	0	54	104	124780544	53	14806
2026-01-07 08:09:48.45	89.33	12.43	-40.8	-53.0	3.8	1.49e+00	0	54	104	124780544	53	14422
2026-01-07 08:09:49.46	89.18	12.50	-40.8	-53.1	3.8	1.49e+00	0	54	104	124780544	53	14641
2026-01-07 08:09:50.47	89.03	12.56	-40.8	-53.0	3.8	1.49e+00	0	54	104	124780544	53	14378
2026-01-07 08:09:51.48	88.88	12.62	-40.8	-53.1	3.8	1.49e+00	0	54	104	124780544	53	14603
2026-01-07 08:09:52.49	88.72	12.69	-40.8	-52.9	3.8	1.49e+00	0	54	104	124780544	53	14259
2026-01-07 08:09:53.50	88.57	12.75	-40.7	-53.0	3.8	1.49e+00	0	54	104	124780544	53	14471
2026-01-07 08:09:54.51	88.42	12.81	-40.7	-52.8	3.8	1.49e+00	0	54	104	124780544	53	14200
2026-01-07 08:09:55.52	88.26	12.87	-40.7	-52.8	3.8	1.49e+00	0	55	104	124780544	53	14098
2026-01-07 08:09:56.52	88.11	12.94	-40.8	-52.5	3.8	1.49e+00	0	54	104	124780544	53	13667
2026-01-07 08:09:57.53	87.95	13.00	-40.6	-52.6	3.8	1.49e+00	0	54	104	124780544	53	13795
2026-01-07 08:09:58.54	87.80	13.06	-40.7	-52.5	3.8	1.49e+00	0	55	104	124780544	53	13621
2026-01-07 08:09:59.55	87.64	13.12	-41.7	-53.0	3.8	1.49e+00	0	54	104	124780544	54	13621
2026-01-07 08:10:00.56	87.48	13.19	-41.3	-52.0	3.8	1.49e+00	0	55	104	124780544	54	12137
2026-01-07 08:10:01.57	87.33	13.25	-41.3	-52.6	3.8	1.49e+00	0	55	104	124780544	54	12995
2026-01-07 08:10:02.58	87.17	13.31	-41.3	-51.6	3.9	1.48e+00	0	54	104	124780544	54	11665
2026-01-07 08:10:03.59	87.01	13.38	-41.3	-51.5	4.0	1.49e+00	0	54	104	124780544	54	11481
2026-01-07 08:10:04.60	86.85	13.44	-41.4	-51.8	3.8	1.48e+00	0	54	104	124780544	54	11866
2026-01-07 08:10:05.61	86.69	13.50	-40.9	-50.6	4.0	1.47e+00	0	55	104	124780544	53	11026
2026-01-07 08:10:06.62	86.52	13.56	-40.6	-50.3	3.9	1.48e+00	0	55	104	124780544	53	10604
2026-01-07 08:10:07.63	86.36	13.62	-41.1	-51.1	4.0	1.49e+00	0	55	104	124780544	53	11585
2026-01-07 08:10:08.64	86.20	13.69	-40.3	-50.1	3.9	1.37e+00	0	55	104	124780544	52	10970
2026-01-07 08:10:09.65	86.04	13.75	-40.3	-49.1	4.3	1.48e+00	0	55	104	124780544	52	9796
2026-01-07 08:10:10.66	85.87	13.81	-40.3	-48.8	4.0	1.03e+00	0	55	104	124780544	52	9463
2026-01-07 08:10:11.68	85.70	13.87	-40.2	-47.5	5.1	7.49e-01	0	55	0	125829120	52	8126
2026-01-07 08:10:12.69	85.54	13.93	-40.1	-47.0	5.4	5.42e-01	0	55	0	128974848	52	7641
2026-01-07 08:10:13.70	85.37	14.00	-40.1	-46.7	5.6	4.50e-01	0	55	0	133169152	52	7454
2026-01-07 08:10:14.71	85.21	14.06	-40.0	-46.1	6.2	3.36e-01	0	55	0	136314880	51	7345
2026-01-07 08:10:15.72	85.04	14.12	-39.8	-45.5	6.7	2.19e-01	0	55	0	138412032	51	6812
2026-01-07 08:10:16.73	84.87	14.18	-39.7	-45.0	7.1	1.56e-01	0	55	0	141557760	51	6461
2026-01-07 08:10:17.74	84.70	14.24	-39.5	-44.4	7.7	1.08e-01	0	55	0	144703488	51	6039
2026-01-07 08:10:18.75	84.53	14.30	-39.3	-43.9	8.2	7.08e-02	0	54	0	148897792	50	6049
2026-01-07 08:10:19.76	84.36	14.37	-39.1	-43.5	8.7	4.02e-02	0	54	0	152043520	50	5741
2026-01-07 08:10:20.77	84.19	14.43	-39.0	-43.2	9.0	2.66e-02	0	54	0	155189248	50	5538
2026-01-07 08:10:21.78	84.02	14.49	-38.9	-42.9	9.3	1.85e-02	0	55	0	158334976	49	5709
2026-01-07 08:10:22.79	83.84	14.55	-38.9	-42.9	9.4	1.42e-02	0	55	0	160432128	49	5678
2026-01-07 08:10:23.80	83.67	14.61	-39.0	-43.0	9.4	1.59e-02	0	55	0	164626432	49	5749
2026-01-07 08:10:24.81	83.50	14.67	-39.0	-43.0	9.4	1.73e-02	0	55	0	167772160	49	5769
2026-01-07 08:10:25.82	83.32	14.73	-39.1	-43.1	9.4	1.60e-02	0	55	0	170917888	49	5854
2026-01-07 08:10:26.82	83.15	14.79	-39.2	-43.1	9.4	1.85e-02	0	55	0	174063616	49	5839
2026-01-07 08:10:27.84	82.97	14.85	-38.9	-42.4	10.3	6.63e-03	0	55	0	177209344	49	5394
2026-01-07 08:10:28.85	82.79	14.91	-38.8	-42.3	10.5	4.69e-03	0	55	0	180355072	49	5321
2026-01-07 08:10:29.86	82.61	14.97	-38.8	-42.2	10.6	4.53e-03	0	55	0	183500800	49	5270
2026-01-07 08:10:30.87	82.44	15.03	-38.7	-41.9	11.1	1.55e-03	0	55	0	186646528	49	5081
2026-01-07 08:10:31.88	82.26	15.09	-38.9	-42.2	10.8	2.44e-03	0	55	0	189792256	49	5230
2026-01-07 08:10:32.89	82.08	15.15	-38.9	-42.2	10.8	2.66e-03	0	55	0	192937984	49	5256
2026-01-07 08:10:33.90	81.90	15.21	-38.9	-42.2	10.8	2.36e-03	0	55	0	196083712	49	5264
2026-01-07 08:10:34.91	81.71	15.27	-39.0	-42.4	10.6	3.33e-03	0	55	0	199229440	49	5369
2026-01-07 08:10:35.92	81.53	15.33	-38.9	-42.4	10.5	3.53e-03	0	55	0	202375168	49	5377
2026-01-07 08:10:36.93	81.35	15.39	-38.7	-41.9	10.9	2.54e-03	0	55	0	205520896	49	5078
2026-01-07 08:10:37.94	81.17	15.45	-38.8	-42.2	10.6	3.77e-03	0	55	0	208666624	49	5260
2026-01-07 08:10:38.95	80.98	15.51	-38.8	-42.3	10.4	4.29e-03	0	55	0	211812352	49	5326
2026-01-07 08:10:39.96	80.80	15.56	-39.0	-42.6	10.1	4.18e-03	0	55	0	214958080	49	5521
2026-01-07 08:10:40.97	80.61	15.62	-39.0	-42.7	10.0	7.62e-03	0	55	0	218103808	49	5573
2026-01-07 08:10:41.99	80.42	15.68	-38.9	-42.6	10.0	8.57e-03	0	55	0	221249536	49	5527
2026-01-07 08:10:43.00	80.23	15.74	-39.1	-42.9	9.8	7.99e-03	0	55	0	224395264	49	5677
2026-01-07 08:10:44.01	80.05	15.80	-39.2	-43.1	9.7	9.94e-03	0	55	0	227540992	49	5796
2026-01-07 08:10:45.02	79.86	15.86	-39.1	-42.8	9.9	1.00e-02	0	55	0	230686720	49	5646
2026-01-07 08:10:46.03	79.67	15.91	-39.1	-42.9	9.9	8.04e-03	0	55	0	233832448	49	5680
2026-01-07 08:10:47.04	79.48	15.97	-38.9	-42.4	10.4	6.04e-03	0	55	0	236978176	49	5402
2026-01-07 08:10:48.05	79.29	16.03	-39.1	-42.7	10.2	6.46e-03	0	55	0	240123904	49	5557
2026-01-07 08:10:49.06	79.10	16.08	-39.1	-42.7	10.2	5.28e-03	0	55	0	243269632	49	5552
2026-01-07 08:10:50.07	78.90	16.14	-39.2	-42.9	9.9	8.13e-03	0	55	0	246415360	49	5720
2026-01-07 08:10:51.08	78.71	16.20	-39.2	-42.9	9.9	8.48e-03	0	55	0	249561088	49	5675
2026-01-07 08:10:52.09	78.52	16.25	-39.1	-42.8	10.1	7.27e-03	0	55	0	252706816	49	5605
2026-01-07 08:10:53.10	78.32	16.31	-39.0	-42.7	10.1	6.75e-03	0	55	0	255852544	49	5545
2026-01-07 08:10:54.11	78.13	16.37	-39.0	-42.7	10.1	6.18e-03	0	55	0	258998272	49	5540
2026-01-07 08:10:55.12	77.93	16.42	-39.0	-42.6	10.2	6.85e-03	0	55	0	262144000	49	5510
2026-01-07 08:10:56.14	77.73	16.48	-38.9	-42.4	10.4	5.52e-03	0	55	0	265289728	49	5392
2026-01-07 08:10:57.15	77.53	16.53	-38.8	-42.3	10.5	4.07e-03	0	55	0	268435456	49	5302
2026-01-07 08:10:58.16	77.34	16.59	-38.8	-42.2	10.6	3.47e-03	0	55	0	271581184	49	5223
2026-01-07 08:10:59.17	77.14	16.64	-38.8	-42.2	10.6	3.19e-03	0	55	0	274726912	49	5229
2026-01-07 08:11:00.18	76.94	16.70	-38.8	-42.2	10.7	3.34e-03	0	55	0	277872640	49	5237
2026-01-07 08:11:01.19	76.74	16.75	-38.7	-42.1	10.8	2.93e-03	0	55	0	281018368	49	5160
2026-01-07 08:11:02.20	76.54	16.81	-38.6	-41.8	11.0	1.97e-03	0	55	0	284164096	49	5001
2026-01-07 08:11:03.21	76.33	16.86	-38.5	-41.6	11.2	1.32e-03	0	55	0	287309824	48	5218
2026-01-07 08:11:04.22	76.13	16.91	-38.4	-41.6	11.3	1.29e-03	0	55	0	290455552	48	5171
2026-01-07 08:11:05.23	75.93	16.97	-38.4	-41.6	11.2	1.20e-03	0	55	0	293601280	48	5164
2026-01-07 08:11:06.24	75.72	17.02	-38.5	-41.7	11.1	1.68e-03	0	55	0	296747008	48	5269
2026-01-07 08:11:07.25	75.52	17.07	-38.6	-41.9	10.9	2.19e-03	0	55	0	299892736	48	5344
2026-01-07 08:11:08.26	75.31	17.13	-38.6	-42.0	10.7	2.64e-03	0	55	0	303038464	48	5442
2026-01-07 08:11:09.27	75.11	17.18	-38.8	-42.4	10.2	4.54e-03	0	55	0	306184192	48	5692
2026-01-07 08:11:10.29	74.90	17.23	-38.9	-42.6	10.0	7.41e-03	0	55	0	309329920	48	5810
2026-01-07 08:11:11.30	74.69	17.28	-38.9	-42.7	9.9	8.29e-03	0	55	0	312475648	48	5865
2026-01-07 08:11:12.30	74.48	17.34	-38.9	-42.7	9.8	9.15e-03	0	55	0	315621376	48	5890
2026-01-07 08:11:13.31	74.27	17.39	-38.9	-42.7	9.8	1.03e-02	0	55	0	318767104	48	5914
2026-01-07 08:11:14.32	74.06	17.44	-39.0	-42.8	9.7	1.04e-02	0	55	0	321912832	48	5945
2026-01-07 08:11:15.33	73.85	17.49	-39.0	-42.9	9.6	1.37e-02	0	55	0	325058560	48	6037
2026-01-07 08:11:16.34	73.64	17.54	-39.0	-43.0	9.5	1.40e-02	0	55	0	328204288	48	6073
2026-01-07 08:11:17.35	73.43	17.59	-39.0	-42.9	9.7	1.25e-02	0	55	0	331350016	48	6002
2026-01-07 08:11:18.36	73.22	17.64	-38.9	-42.6	10.0	8.08e-03	0	55	0	334495744	48	5833
2026-01-07 08:11:19.37	73.00	17.69	-38.9	-42.5	10.2	6.28e-03	0	55	0	337641472	48	5757
2026-01-07 08:11:20.38	72.79	17.74	-38.8	-42.4	10.4	5.10e-03	0	55	0	340787200	48	5657
2026-01-07 08:11:21.39	72.58	17.79	-38.8	-42.2	10.6	3.82e-03	0	55	0	343932928	48	5555
2026-01-07 08:11:22.40	72.36	17.84	-38.8	-42.2	10.5	3.46e-03	0	56	0	347078656	48	5550
2026-01-07 08:11:23.41	72.14	17.88	-38.7	-42.1	10.7	3.35e-03	0	55	0	350224384	48	5492
2026-01-07 08:11:24.42	71.93	17.93	-38.6	-41.8	11.0	2.13e-03	0	55	0	353370112	48	5338
2026-01-07 08:11:25.42	71.71	17.98	-38.6	-41.7	11.2	1.65e-03	0	55	0	356515840	48	5275
2026-01-07 08:11:26.43	71.49	18.03	-38.5	-41.6	11.5	8.54e-04	0	55	0	359661568	48	5163
2026-01-07 08:11:27.44	71.27	18.07	-38.5	-41.5	11.6	8.03e-04	0	55	0	362807296	48	5127
2026-01-07 08:11:28.45	71.05	18.12	-38.5	-41.4	11.8	5.58e-04	0	55	0	365953024	48	5066
2026-01-07 08:11:29.46	70.83	18.17	-38.4	-41.3	12.1	3.52e-04	0	55	0	369098752	48	4990
2026-01-07 08:11:30.47	70.61	18.21	-38.3	-41.0	12.4	2.07e-04	0	56	0	372244480	48	4864
2026-01-07 08:11:31.48	70.39	18.26	-38.1	-40.7	12.7	8.16e-05	0	55	0	375390208	48	4699
2026-01-07 08:11:32.49	70.17	18.30	-38.0	-40.4	13.2	3.73e-05	0	55	0	378535936	48	4544
2026-01-07 08:11:33.50	69.95	18.35	-38.0	-40.3	13.5	2.05e-05	0	55	0	381681664	48	4471
2026-01-07 08:11:34.51	69.72	18.39	-37.8	-40.0	13.9	3.80e-06	0	56	0	384827392	47	4597
2026-01-07 08:11:35.52	69.50	18.44	-37.8	-40.0	14.2	2.20e-06	0	55	0	387973120	47	4552
2026-01-07 08:11:36.53	69.27	18.48	-37.8	-39.9	14.4	0.00e+00	0	55	0	391118848	47	4499
2026-01-07 08:11:37.54	69.05	18.52	-37.7	-39.7	14.7	0.00e+00	0	55	0	394264576	47	4427
2026-01-07 08:11:38.55	68.82	18.57	-37.6	-39.6	15.0	0.00e+00	0	55	0	397410304	47	4345
2026-01-07 08:11:39.56	68.60	18.61	-37.5	-39.4	15.2	0.00e+00	0	55	0	400556032	47	4270
2026-01-07 08:11:40.57	68.37	18.65	-37.4	-39.3	15.5	0.00e+00	0	56	0	403701760	46	4458
2026-01-07 08:11:41.58	68.14	18.69	-37.3	-39.1	15.7	0.00e+00	0	56	0	406847488	46	4380
2026-01-07 08:11:42.59	67.91	18.73	-37.2	-38.9	16.0	0.00e+00	0	55	0	409993216	46	4272
2026-01-07 08:11:43.60	67.68	18.77	-37.2	-38.9	16.1	0.00e+00	0	55	0	413138944	46	4282
2026-01-07 08:11:44.61	67.45	18.82	-37.2	-38.8	16.2	0.00e+00	0	55	0	416284672	46	4241
2026-01-07 08:11:45.62	67.22	18.86	-37.1	-38.8	16.3	0.00e+00	0	55	0	419430400	46	4199
2026-01-07 08:11:46.63	66.99	18.90	-37.1	-38.8	16.4	0.00e+00	0	56	0	422576128	46	4214
2026-01-07 08:11:47.64	66.76	18.93	-37.0	-38.6	16.6	0.00e+00	0	55	0	425721856	46	4116
2026-01-07 08:11:48.65	66.53	18.97	-36.9	-38.5	16.7	0.00e+00	0	55	0	428867584	45	4300
2026-01-07 08:11:49.66	66.29	19.01	-36.9	-38.5	16.7	0.00e+00	0	56	0	432013312	45	4314
2026-01-07 08:11:50.68	66.06	19.05	-36.9	-38.5	16.7	0.00e+00	0	56	0	435159040	45	4331
2026-01-07 08:11:51.69	65.82	19.09	-36.9	-38.5	16.7	0.00e+00	0	56	0	438304768	45	4315
2026-01-07 08:11:52.70	65.59	19.12	-36.9	-38.5	16.7	0.00e+00	0	56	0	442499072	45	4332
2026-01-07 08:11:53.70	65.36	19.16	-36.9	-38.5	16.8	0.00e+00	0	55	0	445644800	45	4302
2026-01-07 08:11:54.71	65.12	19.20	-36.8	-38.3	16.9	0.00e+00	0	56	0	448790528	45	4230
2026-01-07 08:11:55.72	64.88	19.23	-36.9	-38.5	16.8	0.00e+00	0	56	0	451936256	45	4295
2026-01-07 08:11:56.73	64.65	19.27	-36.9	-38.5	16.8	0.00e+00	0	56	0	454033408	45	4304
2026-01-07 08:11:57.74	64.41	19.30	-36.9	-38.5	16.8	0.00e+00	0	55	0	458227712	45	4321
2026-01-07 08:11:58.75	64.17	19.34	-36.9	-38.5	16.8	0.00e+00	0	56	0	461373440	45	4306
2026-01-07 08:11:59.76	63.93	19.37	-37.0	-38.5	16.8	0.00e+00	0	55	0	464519168	45	4329
2026-01-07 08:12:00.74	63.70	19.40	-36.9	-38.5	16.9	0.00e+00	0	55	0	466616320	45	4305
2026-01-07 08:12:01.75	63.46	19.44	-36.9	-38.5	16.8	0.00e+00	0	56	0	470810624	45	4300
2026-01-07 08:12:02.76	63.22	19.47	-36.9	-38.5	16.8	0.00e+00	0	56	0	473956352	45	4295
2026-01-07 08:12:03.77	62.98	19.50	-37.0	-38.6	16.7	0.00e+00	0	55	0	476053504	45	4353
2026-01-07 08:12:04.78	62.74	19.53	-37.0	-38.5	16.8	0.00e+00	0	56	0	479199232	45	4329
2026-01-07 08:12:05.79	62.50	19.56	-37.1	-38.7	16.7	0.00e+00	0	55	0	482344960	45	4392
2026-01-07 08:12:06.80	62.26	19.59	-37.1	-38.7	16.6	0.00e+00	0	55	0	486539264	45	4409
2026-01-07 08:12:07.81	62.01	19.62	-37.0	-38.6	16.7	0.00e+00	0	55	0	489684992	45	4374
2026-01-07 08:12:08.82	61.77	19.65	-37.0	-38.6	16.7	0.00e+00	0	56	0	492830720	45	4379
2026-01-07 08:12:09.83	61.53	19.68	-37.1	-38.6	16.7	0.00e+00	0	55	0	495976448	45	4388
2026-01-07 08:12:10.85	61.28	19.71	-37.2	-38.8	16.6	0.00e+00	0	56	0	499122176	45	4449
2026-01-07 08:12:11.86	61.04	19.74	-37.1	-38.7	16.7	0.00e+00	0	56	0	502267904	45	4424
2026-01-07 08:12:12.87	60.79	19.77	-37.1	-38.7	16.7	0.00e+00	0	56	0	505413632	45	4414
2026-01-07 08:12:13.88	60.55	19.79	-37.1	-38.6	16.7	0.00e+00	0	55	0	508559360	45	4385
2026-01-07 08:12:14.89	60.30	19.82	-37.0	-38.6	16.8	0.00e+00	0	56	0	511705088	45	4368
2026-01-07 08:12:15.90	60.05	19.85	-37.1	-38.7	16.7	0.00e+00	0	56	0	514850816	45	4407
2026-01-07 08:12:16.91	59.81	19.87	-37.1	-38.7	16.7	0.00e+00	0	55	0	517996544	45	4403
2026-01-07 08:12:17.92	59.56	19.90	-37.1	-38.7	16.7	0.00e+00	0	55	0	521142272	45	4401
2026-01-07 08:12:18.93	59.31	19.92	-37.2	-38.8	16.6	0.00e+00	0	56	0	524288000	45	4444
2026-01-07 08:12:19.94	59.07	19.95	-37.3	-38.9	16.5	0.00e+00	0	56	0	527433728	45	4539
2026-01-07 08:12:20.95	58.82	19.97	-37.3	-39.0	16.5	0.00e+00	0	56	0	530579456	45	4551
2026-01-07 08:12:21.96	58.57	19.99	-37.4	-39.0	16.4	0.00e+00	0	56	0	533725184	45	4596
2026-01-07 08:12:22.97	58.32	20.01	-37.5	-39.1	16.3	0.00e+00	0	55	0	536870912	45	4648
2026-01-07 08:12:23.98	58.07	20.04	-37.5	-39.2	16.2	0.00e+00	0	56	0	540016640	45	4680
2026-01-07 08:12:24.99	57.82	20.06	-37.5	-39.2	16.2	0.00e+00	0	56	0	543162368	45	4657
2026-01-07 08:12:26.00	57.57	20.08	-37.4	-39.0	16.4	0.00e+00	0	56	0	546308096	45	4577
2026-01-07 08:12:27.01	57.32	20.10	-37.3	-38.9	16.5	0.00e+00	0	56	0	549453824	45	4509
2026-01-07 08:12:28.02	57.07	20.12	-37.3	-39.0	16.4	0.00e+00	0	56	0	552599552	45	4568
2026-01-07 08:12:29.03	56.82	20.14	-37.3	-38.9	16.5	0.00e+00	0	55	0	555745280	45	4513
2026-01-07 08:12:30.04	56.57	20.15	-37.2	-38.9	16.5	0.00e+00	0	56	0	558891008	45	4503
2026-01-07 08:12:31.05	56.32	20.17	-37.1	-38.7	16.6	0.00e+00	0	56	0	562036736	45	4420
2026-01-07 08:12:32.07	56.06	20.19	-37.1	-38.7	16.6	0.00e+00	0	56	0	565182464	45	4422
2026-01-07 08:12:33.08	55.81	20.21	-37.2	-38.8	16.6	0.00e+00	0	56	0	568328192	45	4443
2026-01-07 08:12:34.09	55.56	20.22	-37.2	-38.8	16.6	0.00e+00	0	56	0	571473920	45	4468
2026-01-07 08:12:35.10	55.31	20.24	-37.2	-38.8	16.6	0.00e+00	0	56	0	574619648	45	4481
2026-01-07 08:12:36.11	55.05	20.25	-37.3	-38.9	16.5	0.00e+00	0	56	0	577765376	45	4540
2026-01-07 08:12:37.12	54.80	20.27	-37.3	-38.9	16.5	0.00e+00	0	56	0	580911104	45	4515
2026-01-07 08:12:38.13	54.55	20.28	-37.2	-38.8	16.6	0.00e+00	0	56	0	584056832	45	4473
2026-01-07 08:12:39.14	54.30	20.29	-37.1	-38.7	16.7	0.00e+00	0	56	0	587202560	45	4438
2026-01-07 08:12:40.15	54.04	20.30	-37.2	-38.8	16.6	0.00e+00	0	56	0	590348288	45	4471
2026-01-07 08:12:41.16	53.79	20.32	-37.1	-38.7	16.7	0.00e+00	0	56	0	593494016	45	4418
2026-01-07 08:12:42.17	53.53	20.33	-37.1	-38.7	16.8	0.00e+00	0	56	0	596639744	45	4412
2026-01-07 08:12:43.18	53.28	20.34	-37.1	-38.7	16.7	0.00e+00	0	56	0	599785472	45	4423
2026-01-07 08:12:44.19	53.03	20.35	-37.2	-38.8	16.7	0.00e+00	0	56	0	602931200	45	4471
2026-01-07 08:12:45.20	52.77	20.36	-37.2	-38.8	16.7	0.00e+00	0	56	0	606076928	45	4449
2026-01-07 08:12:46.21	52.52	20.37	-37.3	-38.9	16.5	0.00e+00	0	56	0	609222656	45	4532
2026-01-07 08:12:47.21	52.26	20.38	-37.3	-38.9	16.6	0.00e+00	0	56	0	612368384	45	4520
2026-01-07 08:12:48.22	52.01	20.38	-37.3	-38.9	16.6	0.00e+00	0	56	0	615514112	45	4512
2026-01-07 08:12:49.23	51.75	20.39	-37.2	-38.8	16.7	0.00e+00	0	56	0	618659840	45	4458
2026-01-07 08:12:50.24	51.50	20.40	-37.1	-38.7	16.7	0.00e+00	0	56	0	621805568	45	4429
2026-01-07 08:12:51.26	51.24	20.40	-37.1	-38.7	16.7	0.00e+00	0	56	0	624951296	45	4436
2026-01-07 08:12:52.27	50.99	20.41	-37.2	-38.8	16.7	0.00e+00	0	56	0	628097024	45	4443
2026-01-07 08:12:53.27	50.73	20.41	-37.2	-38.8	16.6	0.00e+00	0	56	0	631242752	45	4491
2026-01-07 08:12:54.28	50.48	20.42	-37.3	-38.9	16.6	0.00e+00	0	56	0	634388480	45	4511
2026-01-07 08:12:55.29	50.22	20.42	-37.2	-38.8	16.7	0.00e+00	0	56	0	637534208	45	4442
2026-01-07 08:12:56.30	49.97	20.43	-37.2	-38.8	16.7	0.00e+00	0	56	0	640679936	45	4474
2026-01-07 08:12:57.31	49.71	20.43	-37.3	-38.9	16.6	0.00e+00	0	56	0	643825664	45	4517
2026-01-07 08:12:58.32	49.46	20.43	-37.3	-38.9	16.6	0.00e+00	0	56	0	646971392	45	4526
2026-01-07 08:12:59.33	49.20	20.43	-37.3	-39.0	16.5	0.00e+00	0	56	0	650117120	45	4554
2026-01-07 08:13:00.34	48.94	20.43	-37.3	-38.9	16.5	0.00e+00	0	56	0	653262848	45	4543
2026-01-07 08:13:01.35	48.69	20.43	-37.4	-39.1	16.4	0.00e+00	0	56	0	656408576	45	4612
2026-01-07 08:13:02.37	48.43	20.43	-37.4	-39.0	16.4	0.00e+00	0	56	0	659554304	45	4594
2026-01-07 08:13:03.37	48.18	20.43	-37.3	-39.0	16.5	0.00e+00	0	56	0	662700032	45	4561
2026-01-07 08:13:04.38	47.92	20.43	-37.2	-38.8	16.6	0.00e+00	0	56	0	665845760	45	4491
2026-01-07 08:13:05.39	47.67	20.43	-37.1	-38.7	16.7	0.00e+00	0	56	0	668991488	45	4431
2026-01-07 08:13:06.40	47.41	20.42	-37.1	-38.6	16.8	0.00e+00	0	56	0	672137216	45	4378
2026-01-07 08:13:07.41	47.15	20.42	-37.0	-38.6	16.9	0.00e+00	0	56	0	675282944	45	4366
2026-01-07 08:13:08.42	46.90	20.42	-36.9	-38.5	17.0	0.00e+00	0	56	0	678428672	45	4301
2026-01-07 08:13:09.43	46.64	20.41	-36.9	-38.4	17.0	0.00e+00	0	56	0	681574400	45	4277
2026-01-07 08:13:10.44	46.39	20.41	-37.0	-38.5	17.0	0.00e+00	0	56	0	684720128	45	4307
2026-01-07 08:13:11.45	46.13	20.40	-37.0	-38.5	16.9	0.00e+00	0	56	0	687865856	45	4336
2026-01-07 08:13:12.46	45.88	20.39	-37.0	-38.6	16.9	0.00e+00	0	56	0	691011584	45	4361
2026-01-07 08:13:13.47	45.62	20.39	-37.1	-38.6	16.8	0.00e+00	0	56	0	694157312	45	4384
2026-01-07 08:13:14.48	45.37	20.38	-37.1	-38.6	16.9	0.00e+00	0	56	0	697303040	45	4378
2026-01-07 08:13:15.49	45.11	20.37	-37.0	-38.6	16.9	0.00e+00	0	56	0	700448768	45	4349
2026-01-07 08:13:16.50	44.86	20.36	-37.1	-38.6	16.9	0.00e+00	0	56	0	703594496	45	4374
2026-01-07 08:13:17.51	44.61	20.35	-37.1	-38.7	16.8	0.00e+00	0	56	0	706740224	45	4401
2026-01-07 08:13:18.52	44.35	20.34	-37.1	-38.7	16.8	0.00e+00	0	56	0	709885952	45	4405
2026-01-07 08:13:19.53	44.10	20.33	-37.3	-38.9	16.6	0.00e+00	0	56	0	713031680	45	4498
2026-01-07 08:13:20.54	43.84	20.32	-37.3	-38.9	16.6	0.00e+00	0	56	0	716177408	45	4517
2026-01-07 08:13:21.55	43.59	20.31	-37.3	-39.0	16.5	0.00e+00	0	56	0	719323136	45	4558
2026-01-07 08:13:22.56	43.34	20.30	-37.3	-38.9	16.6	0.00e+00	0	56	0	722468864	45	4517
2026-01-07 08:13:23.57	43.08	20.28	-37.3	-38.9	16.6	0.00e+00	0	56	0	725614592	45	4519
2026-01-07 08:13:24.58	42.83	20.27	-37.3	-38.9	16.6	0.00e+00	0	56	0	728760320	45	4538
2026-01-07 08:13:25.59	42.58	20.25	-37.4	-39.0	16.5	0.00e+00	0	56	0	731906048	45	4565
2026-01-07 08:13:26.60	42.33	20.24	-37.3	-38.9	16.6	0.00e+00	0	56	0	735051776	45	4521
2026-01-07 08:13:27.61	42.07	20.22	-37.1	-38.6	16.8	0.00e+00	0	56	0	738197504	45	4384
2026-01-07 08:13:28.62	41.82	20.21	-37.0	-38.6	16.9	0.00e+00	0	56	0	741343232	45	4352
2026-01-07 08:13:29.63	41.57	20.19	-37.0	-38.5	17.0	0.00e+00	0	56	0	744488960	45	4316
2026-01-07 08:13:30.64	41.32	20.17	-37.0	-38.6	16.9	0.00e+00	0	56	0	747634688	45	4354
2026-01-07 08:13:31.65	41.07	20.16	-37.0	-38.6	16.9	0.00e+00	0	56	0	750780416	45	4373
2026-01-07 08:13:32.66	40.82	20.14	-37.1	-38.7	16.8	0.00e+00	0	56	0	753926144	45	4419
2026-01-07 08:13:33.67	40.57	20.12	-37.1	-38.7	16.8	0.00e+00	0	56	0	757071872	45	4432
2026-01-07 08:13:34.68	40.32	20.10	-37.1	-38.7	16.8	0.00e+00	0	56	0	760217600	45	4420
2026-01-07 08:13:35.69	40.07	20.08	-37.2	-38.8	16.7	0.00e+00	0	56	0	763363328	45	4454
2026-01-07 08:13:36.70	39.82	20.06	-37.2	-38.8	16.7	0.00e+00	0	56	0	767557632	45	4485
2026-01-07 08:13:37.71	39.57	20.04	-37.4	-39.0	16.5	0.00e+00	0	56	0	769654784	45	4561
2026-01-07 08:13:38.72	39.32	20.02	-37.3	-39.0	16.5	0.00e+00	0	56	0	772800512	45	4552
2026-01-07 08:13:39.73	39.07	20.00	-37.3	-39.0	16.6	0.00e+00	0	56	0	775946240	45	4546
2026-01-07 08:13:40.74	38.82	19.97	-37.3	-39.0	16.6	0.00e+00	0	56	0	779091968	45	4549
2026-01-07 08:13:41.75	38.57	19.95	-37.2	-38.8	16.7	0.00e+00	0	56	0	783286272	45	4468
2026-01-07 08:13:42.76	38.33	19.93	-37.1	-38.7	16.8	0.00e+00	0	56	0	786432000	45	4423
2026-01-07 08:13:43.77	38.08	19.90	-37.1	-38.7	16.8	0.00e+00	0	56	0	789577728	45	4406
2026-01-07 08:13:44.78	37.83	19.88	-37.1	-38.6	16.9	0.00e+00	0	56	0	792723456	45	4388
2026-01-07 08:13:45.79	37.59	19.85	-37.1	-38.6	16.9	0.00e+00	0	56	0	794820608	45	4372
2026-01-07 08:13:46.80	37.34	19.83	-37.1	-38.7	16.8	0.00e+00	0	56	0	799014912	45	4415
2026-01-07 08:13:47.81	37.10	19.80	-37.2	-38.7	16.8	0.00e+00	0	56	0	802160640	45	4441
2026-01-07 08:13:48.82	36.85	19.77	-37.2	-38.8	16.8	0.00e+00	0	56	0	805306368	45	4450
2026-01-07 08:13:49.83	36.61	19.75	-37.3	-38.9	16.7	0.00e+00	0	56	0	808452096	45	4496
2026-01-07 08:13:50.84	36.36	19.72	-37.3	-38.9	16.6	0.00e+00	0	56	0	811597824	45	4533
2026-01-07 08:13:51.85	36.12	19.69	-37.4	-39.0	16.5	0.00e+00	0	56	0	814743552	45	4573
2026-01-07 08:13:52.86	35.88	19.66	-37.5	-39.1	16.4	0.00e+00	0	56	0	817889280	45	4630
2026-01-07 08:13:53.88	35.63	19.63	-37.4	-39.0	16.6	0.00e+00	0	56	0	821035008	45	4564
2026-01-07 08:13:54.89	35.39	19.60	-37.3	-38.9	16.6	0.00e+00	0	56	0	824180736	45	4534
2026-01-07 08:13:55.90	35.15	19.57	-37.3	-38.9	16.7	0.00e+00	0	56	0	827326464	45	4506
2026-01-07 08:13:56.91	34.91	19.54	-37.4	-39.0	16.5	0.00e+00	0	56	0	830472192	45	4559
2026-01-07 08:13:57.92	34.67	19.51	-37.4	-39.0	16.5	0.00e+00	0	56	0	833617920	45	4571
2026-01-07 08:13:58.93	34.43	19.48	-37.4	-39.0	16.5	0.00e+00	0	56	0	836763648	45	4596
2026-01-07 08:13:59.94	34.19	19.45	-37.4	-39.0	16.5	0.00e+00	0	56	0	839909376	45	4575
2026-01-07 08:14:00.95	33.95	19.41	-37.4	-39.0	16.6	0.00e+00	0	56	0	843055104	45	4556
2026-01-07 08:14:01.96	33.71	19.38	-37.3	-38.9	16.6	0.00e+00	0	56	0	846200832	45	4529
2026-01-07 08:14:02.97	33.47	19.35	-37.4	-39.0	16.6	0.00e+00	0	56	0	849346560	45	4552
2026-01-07 08:14:03.98	33.23	19.31	-37.3	-38.9	16.6	0.00e+00	0	56	0	852492288	45	4537
2026-01-07 08:14:04.99	33.00	19.28	-37.4	-39.0	16.5	0.00e+00	0	56	0	855638016	45	4574
2026-01-07 08:14:06.00	32.76	19.24	-37.3	-38.9	16.6	0.00e+00	0	56	0	858783744	45	4521
2026-01-07 08:14:07.01	32.52	19.21	-37.3	-38.9	16.7	0.00e+00	0	56	0	861929472	45	4497
2026-01-07 08:14:08.02	32.29	19.17	-37.2	-38.8	16.8	0.00e+00	0	56	0	865075200	45	4467
2026-01-07 08:14:09.03	32.05	19.13	-37.2	-38.8	16.7	0.00e+00	0	56	0	868220928	45	4461
2026-01-07 08:14:10.04	31.82	19.10	-37.2	-38.8	16.8	0.00e+00	0	56	0	871366656	45	4443
2026-01-07 08:14:11.05	31.59	19.06	-37.3	-38.9	16.7	0.00e+00	0	56	0	874512384	45	4494
2026-01-07 08:14:12.06	31.35	19.02	-37.3	-38.9	16.7	0.00e+00	0	56	0	877658112	45	4504
2026-01-07 08:14:13.07	31.12	18.98	-37.3	-38.9	16.6	0.00e+00	0	56	0	880803840	45	4511
2026-01-07 08:14:14.08	30.89	18.94	-37.3	-39.0	16.6	0.00e+00	0	56	0	883949568	45	4549
2026-01-07 08:14:15.09	30.66	18.91	-37.2	-38.8	16.7	0.00e+00	0	56	0	887095296	45	4482
2026-01-07 08:14:16.10	30.43	18.87	-37.1	-38.7	16.9	0.00e+00	0	56	0	890241024	45	4405
2026-01-07 08:14:17.11	30.20	18.83	-37.1	-38.6	16.9	0.00e+00	0	56	0	893386752	45	4381
2026-01-07 08:14:18.12	29.97	18.79	-37.2	-38.8	16.7	0.00e+00	0	56	0	896532480	45	4468
2026-01-07 08:14:19.13	29.74	18.74	-37.2	-38.9	16.6	0.00e+00	0	56	0	899678208	45	4495
2026-01-07 08:14:20.14	29.51	18.70	-37.4	-39.0	16.5	0.00e+00	0	56	0	902823936	45	4586
2026-01-07 08:14:21.15	29.28	18.66	-37.5	-39.1	16.4	0.00e+00	0	56	0	905969664	45	4637
2026-01-07 08:14:22.16	29.06	18.62	-37.6	-39.2	16.3	0.00e+00	0	56	0	909115392	45	4703
2026-01-07 08:14:23.17	28.83	18.58	-37.6	-39.2	16.3	0.00e+00	0	56	0	912261120	45	4697
2026-01-07 08:14:24.18	28.61	18.53	-37.6	-39.2	16.3	0.00e+00	0	56	0	915406848	45	4701
2026-01-07 08:14:25.19	28.38	18.49	-37.5	-39.2	16.3	0.00e+00	0	56	0	918552576	45	4673
2026-01-07 08:14:26.20	28.16	18.45	-37.5	-39.1	16.4	0.00e+00	0	56	0	921698304	45	4637
2026-01-07 08:14:27.21	27.93	18.40	-37.5	-39.1	16.4	0.00e+00	0	56	0	924844032	45	4623
2026-01-07 08:14:28.22	27.71	18.36	-37.3	-38.9	16.6	0.00e+00	0	56	0	927989760	45	4531
2026-01-07 08:14:29.23	27.49	18.32	-37.4	-39.0	16.5	0.00e+00	0	56	0	931135488	45	4559
2026-01-07 08:14:30.24	27.27	18.27	-37.4	-39.0	16.5	0.00e+00	0	56	0	934281216	45	4569
2026-01-07 08:14:31.25	27.05	18.22	-37.4	-39.1	16.4	0.00e+00	0	56	0	937426944	45	4606
2026-01-07 08:14:32.26	26.83	18.18	-37.5	-39.1	16.4	0.00e+00	0	56	0	940572672	45	4646
2026-01-07 08:14:33.27	26.61	18.13	-37.6	-39.2	16.3	0.00e+00	0	56	0	943718400	45	4688
2026-01-07 08:14:34.28	26.39	18.09	-37.6	-39.3	16.2	0.00e+00	0	56	0	946864128	45	4739
2026-01-07 08:14:35.29	26.17	18.04	-37.7	-39.5	16.1	0.00e+00	0	56	0	950009856	46	4550
2026-01-07 08:14:36.30	25.95	17.99	-37.7	-39.4	15.7	2.59e-05	0	56	0	953155584	46	4533
2026-01-07 08:14:37.31	25.73	17.95	-37.6	-39.3	15.8	3.67e-04	0	56	0	956301312	46	4462
2026-01-07 08:14:38.32	25.52	17.90	-37.5	-39.2	16.0	8.62e-05	0	56	0	959447040	46	4409
2026-01-07 08:14:39.33	25.30	17.85	-37.4	-39.1	16.1	1.98e-05	0	56	0	962592768	46	4364
2026-01-07 08:14:40.34	25.09	17.80	-37.3	-38.9	16.5	2.20e-06	0	56	0	965738496	46	4275
2026-01-07 08:14:41.35	24.87	17.75	-37.3	-38.9	16.5	0.00e+00	0	56	0	968884224	46	4284
2026-01-07 08:14:42.36	24.66	17.70	-37.4	-39.1	16.1	9.90e-06	0	56	0	972029952	46	4353
2026-01-07 08:14:43.37	24.45	17.65	-37.4	-39.1	16.0	5.53e-04	0	56	0	975175680	46	4352
2026-01-07 08:14:44.38	24.24	17.60	-37.5	-39.2	15.6	2.79e-03	0	56	0	978321408	46	4425
2026-01-07 08:14:45.39	24.02	17.55	-37.5	-39.3	15.7	1.32e-03	0	56	0	981467136	46	4461
2026-01-07 08:14:46.39	23.82	17.50	-37.7	-39.4	15.9	1.22e-05	0	56	0	984612864	46	4541
2026-01-07 08:14:47.40	23.61	17.45	-37.7	-39.4	16.0	0.00e+00	0	56	0	987758592	46	4532
2026-01-07 08:14:48.41	23.40	17.40	-37.7	-39.5	15.9	0.00e+00	0	56	0	990904320	46	4554
2026-01-07 08:14:49.42	23.19	17.35	-37.6	-39.4	15.9	7.00e-07	0	56	0	994050048	46	4528
2026-01-07 08:14:50.44	22.98	17.30	-37.6	-39.3	16.0	3.00e-06	0	56	0	997195776	46	4491
2026-01-07 08:14:51.45	22.77	17.25	-37.4	-39.2	16.2	0.00e+00	0	56	0	1000341504	46	4398
2026-01-07 08:14:52.46	22.57	17.20	-37.4	-39.1	16.1	1.67e-05	0	56	0	1003487232	46	4382
2026-01-07 08:14:53.46	22.36	17.15	-37.4	-39.0	16.0	7.47e-05	0	56	0	1006632960	46	4338
2026-01-07 08:14:54.47	22.16	17.09	-37.3	-39.0	15.9	1.26e-03	0	56	0	1009778688	46	4324
2026-01-07 08:14:55.48	21.95	17.04	-37.3	-39.0	16.2	1.92e-04	0	56	0	1012924416	46	4336
2026-01-07 08:14:56.49	21.75	16.99	-37.4	-39.1	16.3	0.00e+00	0	56	0	1016070144	46	4362
2026-01-07 08:14:57.50	21.55	16.93	-37.4	-39.1	16.4	0.00e+00	0	56	0	1019215872	46	4346
2026-01-07 08:14:58.51	21.35	16.88	-37.3	-39.0	16.3	0.00e+00	0	56	0	1022361600	46	4323
2026-01-07 08:14:59.53	21.14	16.83	-37.4	-39.1	16.1	7.60e-06	0	56	0	1025507328	46	4345
2026-01-07 08:15:00.54	20.94	16.77	-37.5	-39.2	16.2	1.50e-06	0	56	0	1028653056	46	4420
2026-01-07 08:15:01.55	20.74	16.72	-37.6	-39.2	16.2	0.00e+00	0	56	0	1031798784	46	4435
2026-01-07 08:15:02.56	20.54	16.66	-37.6	-39.3	16.1	0.00e+00	0	56	0	1034944512	46	4491
2026-01-07 08:15:03.57	20.35	16.61	-37.6	-39.4	16.0	0.00e+00	0	56	0	1038090240	46	4506
2026-01-07 08:15:04.58	20.15	16.55	-37.7	-39.4	16.0	0.00e+00	0	56	0	1041235968	46	4537
2026-01-07 08:15:05.59	19.95	16.50	-37.7	-39.4	16.0	0.00e+00	0	56	0	1044381696	46	4524
2026-01-07 08:15:06.60	19.76	16.44	-37.7	-39.5	15.9	0.00e+00	0	56	0	1047527424	46	4572
2026-01-07 08:15:07.61	19.56	16.39	-37.8	-39.5	15.9	0.00e+00	0	56	0	1050673152	46	4581
2026-01-07 08:15:08.62	19.37	16.33	-37.8	-39.5	15.9	0.00e+00	0	56	0	1053818880	46	4592
2026-01-07 08:15:09.63	19.17	16.28	-37.7	-39.5	15.9	0.00e+00	0	56	0	1056964608	46	4563
2026-01-07 08:15:10.64	18.98	16.22	-37.6	-39.4	16.0	0.00e+00	0	56	0	1060110336	46	4511
2026-01-07 08:15:11.65	18.79	16.16	-37.7	-39.4	15.9	0.00e+00	0	56	0	1063256064	46	4521
2026-01-07 08:15:12.66	18.60	16.11	-37.6	-39.4	16.0	0.00e+00	0	56	0	1066401792	46	4494
2026-01-07 08:15:13.67	18.40	16.05	-37.7	-39.4	16.0	0.00e+00	0	56	0	1069547520	46	4510
2026-01-07 08:15:14.68	18.21	15.99	-37.7	-39.4	15.9	0.00e+00	0	56	0	1072693248	46	4544
2026-01-07 08:15:15.69	18.03	15.94	-37.7	-39.4	15.9	0.00e+00	0	56	0	1075838976	46	4544
2026-01-07 08:15:16.70	17.84	15.88	-37.8	-39.5	15.8	0.00e+00	0	56	0	1080033280	46	4594
2026-01-07 08:15:17.71	17.65	15.82	-37.8	-39.6	15.7	0.00e+00	0	56	0	1083179008	46	4608
2026-01-07 08:15:18.72	17.46	15.76	-37.8	-39.6	15.6	0.00e+00	0	56	0	1085276160	46	4645
2026-01-07 08:15:19.73	17.28	15.71	-37.9	-39.7	15.6	0.00e+00	0	56	0	1088421888	46	4685
2026-01-07 08:15:20.74	17.09	15.65	-37.8	-39.6	15.7	0.00e+00	0	56	0	1091567616	46	4633
2026-01-07 08:15:21.75	16.90	15.59	-37.8	-39.7	15.7	0.00e+00	0	56	0	1095761920	46	4655
2026-01-07 08:15:22.76	16.72	15.53	-37.9	-39.7	15.6	0.00e+00	0	56	0	1098907648	46	4672
2026-01-07 08:15:23.77	16.54	15.47	-37.8	-39.7	15.6	0.00e+00	0	56	0	1102053376	46	4663
2026-01-07 08:15:24.78	16.35	15.41	-37.8	-39.6	15.6	0.00e+00	0	56	0	1105199104	46	4644
2026-01-07 08:15:25.79	16.17	15.36	-37.9	-39.7	15.5	0.00e+00	0	56	0	1108344832	46	4683
2026-01-07 08:15:26.80	15.99	15.30	-37.9	-39.7	15.5	0.00e+00	0	56	0	1111490560	46	4686
2026-01-07 08:15:27.82	15.81	15.24	-37.8	-39.6	15.7	0.00e+00	0	56	0	1114636288	46	4615
2026-01-07 08:15:28.83	15.63	15.18	-37.7	-39.5	15.8	7.00e-07	0	56	0	1117782016	46	4580
2026-01-07 08:15:29.84	15.45	15.12	-37.7	-39.5	15.8	0.00e+00	0	56	0	1120927744	46	4570
2026-01-07 08:15:30.85	15.27	15.06	-37.7	-39.5	15.8	0.00e+00	0	56	0	1124073472	46	4563
2026-01-07 08:15:31.86	15.09	15.00	-37.7	-39.4	15.9	0.00e+00	0	56	0	1127219200	46	4527
2026-01-07 08:15:32.87	14.92	14.94	-37.6	-39.4	15.9	0.00e+00	0	56	0	1130364928	46	4507
2026-01-07 08:15:33.88	14.74	14.88	-37.6	-39.3	15.9	0.00e+00	0	56	0	1133510656	46	4476
2026-01-07 08:15:34.89	14.57	14.82	-37.5	-39.2	16.0	0.00e+00	0	56	0	1136656384	46	4435
2026-01-07 08:15:35.90	14.39	14.76	-37.6	-39.3	16.0	0.00e+00	0	56	0	1139802112	46	4464
2026-01-07 08:15:36.91	14.22	14.70	-37.6	-39.4	15.9	0.00e+00	0	56	0	1142947840	46	4503
2026-01-07 08:15:37.92	14.04	14.64	-37.7	-39.4	15.8	0.00e+00	0	56	0	1146093568	46	4544
2026-01-07 08:15:38.93	13.87	14.58	-37.8	-39.6	15.6	0.00e+00	0	56	0	1149239296	46	4613
2026-01-07 08:15:39.94	13.70	14.52	-37.9	-39.7	15.5	0.00e+00	0	56	0	1152385024	46	4679
2026-01-07 08:15:40.95	13.53	14.46	-38.1	-39.9	15.4	0.00e+00	0	56	0	1155530752	46	4809
2026-01-07 08:15:41.96	13.36	14.40	-38.0	-39.9	15.4	0.00e+00	0	56	0	1158676480	46	4791
2026-01-07 08:15:42.97	13.19	14.33	-38.0	-39.9	15.4	0.00e+00	0	56	0	1161822208	46	4784
2026-01-07 08:15:43.98	13.02	14.27	-37.9	-39.8	15.5	0.00e+00	0	56	0	1164967936	46	4743
2026-01-07 08:15:44.99	12.85	14.21	-37.9	-39.7	15.5	0.00e+00	0	56	0	1168113664	46	4703
2026-01-07 08:15:46.00	12.68	14.15	-37.9	-39.8	15.5	0.00e+00	0	56	0	1171259392	46	4726
2026-01-07 08:15:47.01	12.52	14.09	-37.8	-39.6	15.7	0.00e+00	0	56	0	1174405120	46	4628
2026-01-07 08:15:48.02	12.35	14.03	-37.7	-39.5	15.7	0.00e+00	0	56	0	1177550848	46	4589
2026-01-07 08:15:49.03	12.18	13.97	-37.6	-39.4	15.8	0.00e+00	0	56	0	1180696576	46	4522
2026-01-07 08:15:50.04	12.02	13.91	-37.6	-39.3	15.9	0.00e+00	0	56	0	1183842304	46	4486
2026-01-07 08:15:51.05	11.85	13.84	-37.7	-39.5	15.7	0.00e+00	0	56	0	1186988032	46	4565
2026-01-07 08:15:52.06	11.69	13.78	-37.8	-39.6	15.6	0.00e+00	0	56	0	1190133760	46	4628
2026-01-07 08:15:53.07	11.53	13.72	-37.9	-39.8	15.4	0.00e+00	0	56	0	1193279488	46	4718
2026-01-07 08:15:54.08	11.37	13.66	-38.0	-39.9	15.2	0.00e+00	0	56	0	1196425216	46	4798
2026-01-07 08:15:55.09	11.20	13.60	-38.0	-39.9	15.2	0.00e+00	0	56	0	1199570944	46	4779
2026-01-07 08:15:56.10	11.04	13.53	-38.0	-40.0	15.1	0.00e+00	0	56	0	1202716672	46	4821
2026-01-07 08:15:57.11	10.88	13.47	-37.9	-39.9	15.1	7.00e-07	0	56	0	1205862400	46	4777
2026-01-07 08:15:58.12	10.73	13.41	-37.9	-39.9	15.1	0.00e+00	0	56	0	1209008128	46	4761
2026-01-07 08:15:59.13	10.57	13.35	-37.8	-39.7	15.2	0.00e+00	0	56	0	1212153856	46	4700
2026-01-07 08:16:00.14	10.41	13.29	-37.6	-39.5	15.3	0.00e+00	0	56	0	1215299584	46	4573
2026-01-07 08:16:01.15	10.25	13.22	-37.5	-39.4	15.4	0.00e+00	0	56	0	1218445312	46	4529
2026-01-07 08:16:02.16	10.09	13.16	-37.5	-39.4	15.4	0.00e+00	0	56	0	1221591040	46	4498
2026-01-07 08:16:03.17	9.94	13.10	-37.6	-39.5	15.1	0.00e+00	0	56	0	1224736768	46	4568
2026-01-07 08:16:04.18	9.78	13.04	-37.7	-39.7	14.9	0.00e+00	0	56	0	1227882496	46	4705
2026-01-07 08:16:05.19	9.63	12.97	-37.7	-39.7	14.8	7.00e-07	0	56	0	1231028224	46	4702
2026-01-07 08:16:06.20	9.48	12.91	-37.8	-39.9	14.7	0.00e+00	0	56	0	1234173952	46	4760
2026-01-07 08:16:07.21	9.32	12.85	-37.8	-39.8	14.6	2.20e-06	0	56	0	1237319680	46	4744
2026-01-07 08:16:08.22	9.17	12.79	-37.8	-40.0	14.4	1.50e-06	0	56	0	1240465408	46	4819
2026-01-07 08:16:09.23	9.02	12.72	-37.7	-39.8	14.5	7.00e-07	0	56	0	1243611136	46	4711
2026-01-07 08:16:10.23	8.87	12.66	-37.7	-39.8	14.4	0.00e+00	0	56	0	1246756864	46	4731
2026-01-07 08:16:11.24	8.72	12.60	-37.8	-40.0	14.2	7.00e-07	0	56	0	1249902592	46	4830
2026-01-07 08:16:12.25	8.57	12.54	-37.7	-39.8	14.3	0.00e+00	0	56	0	1253048320	46	4757
2026-01-07 08:16:13.26	8.42	12.47	-37.7	-39.9	14.2	7.00e-07	0	56	0	1256194048	46	4774
2026-01-07 08:16:14.27	8.27	12.41	-37.6	-39.7	14.3	1.50e-06	0	56	0	1259339776	46	4696
2026-01-07 08:16:15.28	8.12	12.35	-37.6	-39.7	14.3	3.80e-06	0	56	0	1262485504	46	4694
2026-01-07 08:16:16.30	7.97	12.28	-37.6	-39.8	14.2	1.50e-06	0	56	0	1265631232	46	4708
2026-01-07 08:16:17.30	7.83	12.22	-37.4	-39.6	14.3	1.50e-06	0	56	0	1268776960	46	4617
2026-01-07 08:16:18.31	7.68	12.16	-37.4	-39.5	14.3	0.00e+00	0	56	0	1271922688	46	4582
2026-01-07 08:16:19.33	7.53	12.09	-37.7	-40.0	13.8	4.50e-06	0	56	0	1275068416	46	4841
2026-01-07 08:16:20.34	7.39	12.03	-38.0	-40.5	13.2	1.67e-05	0	56	0	1278214144	46	5131
2026-01-07 08:16:21.34	7.25	11.97	-38.4	-41.2	12.2	1.50e-04	0	56	0	1281359872	47	5255
2026-01-07 08:16:22.36	7.10	11.91	-38.8	-42.0	11.4	8.01e-04	0	56	0	1284505600	48	5414
2026-01-07 08:16:23.37	6.96	11.84	-39.2	-42.8	10.3	3.39e-03	0	56	0	1287651328	49	5640
2026-01-07 08:16:24.38	6.82	11.78	-39.6	-43.7	9.2	1.55e-02	0	56	0	1290797056	49	6254
2026-01-07 08:16:25.39	6.68	11.72	-39.9	-44.6	8.1	4.69e-02	0	56	0	1293942784	50	6552
2026-01-07 08:16:26.39	6.54	11.65	-40.1	-45.5	7.1	1.30e-01	0	56	0	1297088512	50	7227
2026-01-07 08:16:27.40	6.40	11.59	-40.4	-46.9	5.8	3.36e-01	0	56	0	1300234240	51	7992
2026-01-07 08:16:28.41	6.26	11.53	-40.6	-48.2	4.9	7.16e-01	0	56	0	1303379968	51	9372
2026-01-07 08:16:29.42	6.12	11.47	-40.6	-49.5	4.3	1.23e+00	0	56	104	1304428544	51	10798
2026-01-07 08:16:30.43	5.98	11.40	-40.6	-50.6	3.9	1.47e+00	0	56	104	1304428544	51	12259
2026-01-07 08:16:31.44	5.84	11.34	-40.6	-50.5	4.0	1.48e+00	0	56	104	1304428544	51	12175
2026-01-07 08:16:32.45	5.70	11.28	-40.3	-51.6	3.8	1.48e+00	0	56	104	1304428544	51	13811
2026-01-07 08:16:33.46	5.57	11.21	-40.2	-52.1	3.8	1.49e+00	0	56	104	1304428544	51	14704
2026-01-07 08:16:34.47	5.43	11.15	-40.7	-52.2	3.8	1.49e+00	0	56	104	1304428544	51	14770
2026-01-07 08:16:35.48	5.29	11.09	-40.2	-52.2	3.8	1.49e+00	0	56	104	1304428544	52	13934
2026-01-07 08:16:36.49	5.16	11.02	-40.2	-52.4	3.8	1.49e+00	0	56	104	1304428544	51	15156
2026-01-07 08:16:37.49	5.03	10.96	-40.1	-52.3	3.8	1.49e+00	0	56	104	1304428544	52	14185
2026-01-07 08:16:38.50	4.89	10.90	-40.0	-52.3	3.8	1.49e+00	0	56	104	1304428544	51	14988
2026-01-07 08:16:39.52	4.76	10.83	-40.1	-52.3	3.8	1.49e+00	0	57	104	1304428544	51	15036
2026-01-07 08:16:40.53	4.63	10.77	-40.0	-52.3	3.8	1.49e+00	0	56	104	1304428544	51	15023
2026-01-07 08:16:41.54	4.49	10.71	-40.0	-52.3	3.8	1.49e+00	0	56	104	1304428544	51	14941
2026-01-07 08:16:42.55	4.36	10.65	-40.2	-52.5	3.8	1.49e+00	0	56	104	1304428544	51	15260
2026-01-07 08:16:43.56	4.23	10.58	-40.1	-52.4	3.8	1.49e+00	0	56	104	1304428544	51	15068
2026-01-07 08:16:44.57	4.10	10.52	-40.1	-52.4	3.8	1.49e+00	0	56	104	1304428544	51	15059
2026-01-07 08:16:45.58	3.97	10.46	-40.1	-52.4	3.8	1.49e+00	0	56	104	1304428544	51	15072
2026-01-07 08:16:46.59	3.84	10.39	-40.0	-52.3	3.8	1.49e+00	0	57	104	1304428544	51	14960
2026-01-07 08:16:47.60	3.71	10.33	-40.1	-52.3	3.8	1.49e+00	0	56	104	1304428544	51	14971
2026-01-07 08:16:48.61	3.59	10.27	-40.0	-52.3	3.8	1.49e+00	0	56	104	1304428544	51	14962
2026-01-07 08:16:49.61	3.46	10.21	-40.0	-52.3	3.8	1.49e+00	0	57	104	1304428544	51	14964
2026-01-07 08:16:50.62	3.33	10.14	-40.1	-52.3	3.8	1.49e+00	0	57	104	1304428544	51	15026
2026-01-07 08:16:51.63	3.21	10.08	-40.0	-52.3	3.8	1.49e+00	0	56	104	1304428544	51	14952
2026-01-07 08:16:52.64	3.08	10.02	-40.0	-52.3	3.8	1.49e+00	0	57	104	1304428544	51	14970
2026-01-07 08:16:53.65	2.96	9.95	-39.9	-52.2	3.8	1.49e+00	0	56	104	1304428544	51	14849
2026-01-07 08:16:54.66	2.83	9.89	-39.9	-52.2	3.8	1.49e+00	0	57	104	1304428544	51	14815
2026-01-07 08:16:55.67	2.71	9.83	-39.9	-52.2	3.8	1.49e+00	0	56	104	1304428544	51	14855
2026-01-07 08:16:56.68	2.58	9.77	-39.9	-52.2	3.8	1.49e+00	0	56	104	1304428544	51	14747
2026-01-07 08:16:57.69	2.46	9.70	-39.8	-52.2	3.8	1.49e+00	0	56	104	1304428544	51	14788
2026-01-07 08:16:58.70	2.34	9.64	-39.9	-52.2	3.8	1.49e+00	0	56	104	1304428544	51	14860
2026-01-07 08:16:59.71	2.22	9.58	-39.9	-52.2	3.8	1.49e+00	0	56	104	1304428544	51	14742
2026-01-07 08:17:00.72	2.10	9.52	-39.9	-52.2	3.8	1.49e+00	0	57	104	1304428544	51	14767
2026-01-07 08:17:01.73	1.97	9.45	-39.9	-52.3	3.8	1.49e+00	0	57	104	1304428544	51	14908
2026-01-07 08:17:02.74	1.85	9.39	-39.7	-52.2	3.8	1.49e+00	0	57	104	1304428544	51	14765
2026-01-07 08:17:03.76	1.73	9.33	-39.9	-52.2	3.8	1.49e+00	0	56	104	1304428544	51	14763
2026-01-07 08:17:04.77	1.61	9.26	-39.7	-52.1	3.8	1.49e+00	0	56	104	1304428544	51	14667
2026-01-07 08:17:05.78	1.50	9.20	-39.9	-52.2	3.8	1.49e+00	0	56	104	1304428544	51	14740
2026-01-07 08:17:06.78	1.38	9.14	-39.8	-52.1	3.8	1.49e+00	0	56	104	1304428544	51	14699
2026-01-07 08:17:07.79	1.26	9.08	-39.6	-52.2	3.8	1.49e+00	0	56	104	1304428544	51	14764
2026-01-07 08:17:08.80	1.14	9.02	-39.8	-52.2	3.8	1.49e+00	0	56	104	1304428544	51	14740
2026-01-07 08:17:09.81	1.03	8.95	-39.6	-52.1	3.8	1.49e+00	0	57	104	1304428544	51	14668
2026-01-07 08:17:10.82	0.91	8.89	-39.6	-52.2	3.8	1.49e+00	0	57	104	1304428544	51	14726
2026-01-07 08:17:11.83	0.80	8.83	-39.7	-52.1	3.8	1.49e+00	0	57	104	1304428544	51	14652
2026-01-07 08:17:12.84	0.68	8.77	-39.6	-52.2	3.8	1.49e+00	0	57	104	1304428544	51	14709
2026-01-07 08:17:13.85	0.57	8.70	-39.6	-52.1	3.8	1.49e+00	0	57	104	1304428544	51	14661
2026-01-07 08:17:14.86	0.45	8.64	-39.7	-52.2	3.8	1.49e+00	0	57	104	1304428544	51	14790
2026-01-07 08:17:15.87	0.34	8.58	-39.6	-52.1	3.8	1.49e+00	0	56	104	1304428544	51	14602
2026-01-07 08:17:16.88	0.22	8.52	-39.6	-52.2	3.8	1.49e+00	0	57	104	1304428544	51	14818
2026-01-07 08:17:17.89	0.11	8.46	-39.6	-52.1	3.8	1.49e+00	0	57	104	1304428544	51	14625
2026-01-07 08:17:18.90	0.00	8.39	-39.5	-52.1	3.8	1.49e+00	0	56	104	1304428544	50	15579
2026-01-07 08:17:19.91	359.89	8.33	-39.6	-52.1	3.8	1.49e+00	0	57	104	1304428544	50	15559
2026-01-07 08:17:20.92	359.78	8.27	-39.4	-52.1	3.8	1.49e+00	0	57	104	1304428544	50	15496
2026-01-07 08:17:21.93	359.67	8.21	-39.6	-52.2	3.8	1.49e+00	0	56	104	1304428544	50	15587
2026-01-07 08:17:22.94	359.56	8.15	-39.5	-52.2	3.8	1.49e+00	0	57	104	1304428544	50	15646
2026-01-07 08:17:23.95	359.45	8.09	-39.5	-52.1	3.8	1.49e+00	0	57	104	1304428544	50	15463
2026-01-07 08:17:24.95	359.34	8.03	-39.4	-52.2	3.8	1.49e+00	0	57	104	1304428544	50	15698
2026-01-07 08:17:25.97	359.23	7.96	-40.1	-52.4	3.8	1.49e+00	0	57	104	1304428544	50	16099
2026-01-07 08:17:26.98	359.12	7.90	-44.2	-56.5	3.8	1.49e+00	0	57	104	1304428544	58	16205
2026-01-07 08:17:27.99	359.01	7.84	-44.7	-57.2	3.8	1.49e+00	0	57	104	1304428544	60	15685
2026-01-07 08:17:29.00	358.91	7.78	-44.9	-57.4	3.8	1.49e+00	0	57	104	1304428544	60	16051
2026-01-07 08:17:30.01	358.80	7.72	-45.0	-57.5	3.8	1.49e+00	0	57	104	1304428544	60	16274
2026-01-07 08:17:31.02	358.69	7.66	-45.1	-57.6	3.8	1.49e+00	0	57	104	1304428544	60	16501
2026-01-07 08:17:32.03	358.59	7.59	-45.2	-57.7	3.8	1.49e+00	0	56	104	1304428544	61	15708
2026-01-07 08:17:33.04	358.48	7.53	-45.2	-57.7	3.8	1.49e+00	0	57	104	1304428544	61	15721
2026-01-07 08:17:34.05	358.38	7.47	-45.2	-57.8	3.8	1.49e+00	0	56	104	1304428544	61	15775
2026-01-07 08:17:35.06	358.27	7.41	-45.2	-57.8	3.8	1.49e+00	0	57	104	1304428544	61	15773
2026-01-07 08:17:36.07	358.17	7.35	-45.2	-57.7	3.8	1.49e+00	0	57	104	1304428544	60	16661
2026-01-07 08:17:37.09	358.06	7.29	-45.1	-57.5	3.8	1.49e+00	0	57	104	1304428544	58	18233
2026-01-07 08:17:38.10	357.96	7.23	-45.1	-57.7	3.8	1.49e+00	0	57	104	1304428544	60	16513
2026-01-07 08:17:39.11	357.86	7.17	-45.1	-57.6	3.8	1.49e+00	0	57	104	1304428544	60	16482
2026-01-07 08:17:40.12	357.75	7.11	-45.0	-57.6	3.8	1.49e+00	0	57	104	1304428544	60	16478
2026-01-07 08:17:41.13	357.65	7.05	-43.8	-57.6	3.8	1.49e+00	0	56	104	1304428544	60	16488
2026-01-07 08:17:42.14	357.55	6.98	-45.0	-57.6	3.8	1.49e+00	0	57	104	1304428544	60	16390
2026-01-07 08:17:43.15	357.45	6.92	-45.0	-57.8	3.8	1.49e+00	0	57	104	1304428544	60	16754
2026-01-07 08:17:44.16	357.35	6.86	-45.0	-57.6	3.8	1.49e+00	0	57	104	1304428544	60	16420
2026-01-07 08:17:45.17	357.25	6.80	-45.0	-57.6	3.8	1.49e+00	0	57	104	1304428544	60	16400
2026-01-07 08:17:46.18	357.15	6.74	-45.0	-57.6	3.8	1.49e+00	0	56	104	1304428544	60	16420
2026-01-07 08:17:47.19	357.05	6.68	-45.0	-57.6	3.8	1.49e+00	0	57	104	1304428544	60	16372
2026-01-07 08:17:48.21	356.95	6.62	-45.0	-57.6	3.8	1.49e+00	0	57	104	1304428544	60	16427
2026-01-07 08:17:49.22	356.85	6.56	-45.0	-57.6	3.8	1.49e+00	0	57	104	1304428544	60	16403
2026-01-07 08:17:50.23	356.75	6.50	-45.0	-57.6	3.8	1.49e+00	0	57	104	1304428544	60	16338
2026-01-07 08:17:51.24	356.66	6.44	-45.0	-57.6	3.8	1.49e+00	0	57	104	1304428544	60	16320
2026-01-07 08:17:52.25	356.56	6.38	-45.0	-57.6	3.8	1.49e+00	0	57	104	1304428544	60	16373
2026-01-07 08:17:53.26	356.46	6.32	-45.0	-57.6	3.8	1.49e+00	0	57	104	1304428544	60	16409
2026-01-07 08:17:54.27	356.37	6.26	-45.0	-57.6	3.8	1.49e+00	0	57	104	1304428544	60	16388
2026-01-07 08:17:55.28	356.27	6.20	-45.0	-57.6	3.8	1.49e+00	0	57	104	1304428544	60	16373
2026-01-07 08:17:56.29	356.18	6.14	-45.0	-57.6	3.8	1.49e+00	0	57	104	1304428544	60	16340
2026-01-07 08:17:57.31	356.08	6.08	-45.0	-57.6	3.8	1.49e+00	0	57	104	1304428544	60	16364
2026-01-07 08:17:58.31	355.99	6.02	-45.0	-57.6	3.8	1.49e+00	0	57	104	1304428544	60	16400
2026-01-07 08:17:59.33	355.89	5.96	-45.0	-57.6	3.8	1.49e+00	0	57	104	1304428544	60	16336
2026-01-07 08:18:00.34	355.80	5.90	-45.0	-57.6	3.8	1.49e+00	0	57	104	1304428544	60	16362
2026-01-07 08:18:01.34	355.70	5.84	-45.0	-57.6	3.8	1.49e+00	0	57	104	1304428544	60	16394
2026-01-07 08:18:02.36	355.61	5.78	-45.0	-57.6	3.8	1.49e+00	0	57	104	1304428544	60	16367
2026-01-07 08:18:03.36	355.52	5.72	-45.0	-57.6	3.8	1.49e+00	0	57	104	1304428544	60	16390
2026-01-07 08:18:04.38	355.43	5.66	-45.0	-57.6	3.8	1.49e+00	0	57	104	1304428544	60	16351
2026-01-07 08:18:05.39	355.33	5.60	-45.0	-57.6	3.8	1.49e+00	0	57	104	1304428544	60	16386
2026-01-07 08:18:06.40	355.24	5.55	-45.0	-57.6	3.8	1.49e+00	0	57	104	1304428544	60	16319
2026-01-07 08:18:07.41	355.15	5.49	-45.0	-57.6	3.8	1.49e+00	0	57	104	1304428544	60	16365
2026-01-07 08:18:08.42	355.06	5.43	-45.0	-57.6	3.8	1.49e+00	0	57	104	1304428544	60	16320
2026-01-07 08:18:09.43	354.97	5.37	-45.0	-57.5	3.8	1.49e+00	0	57	104	1304428544	60	16286
2026-01-07 08:18:10.44	354.88	5.31	-44.8	-57.6	3.8	1.49e+00	0	57	104	1304428544	60	16402
2026-01-07 08:18:11.45	354.79	5.25	-45.0	-57.5	3.8	1.49e+00	0	57	104	1304428544	60	16291
2026-01-07 08:18:12.46	354.70	5.19	-45.0	-57.6	3.8	1.49e+00	0	57	104	1304428544	60	16349
2026-01-07 08:18:13.47	354.61	5.13	-45.0	-57.6	3.8	1.49e+00	0	57	104	1304428544	60	16344
2026-01-07 08:18:14.48	354.52	5.07	-44.9	-57.6	3.8	1.49e+00	0	57	104	1304428544	60	16336
2026-01-07 08:18:15.49	354.44	5.02	-44.9	-57.6	3.8	1.49e+00	0	57	104	1304428544	60	16361
2026-01-07 08:18:16.50	354.35	4.96	-44.9	-57.6	3.8	1.49e+00	0	57	104	1304428544	60	16343
2026-01-07 08:18:17.51	354.26	4.90	-45.0	-57.6	3.8	1.49e+00	0	57	104	1304428544	60	16323
2026-01-07 08:18:18.52	354.17	4.84	-44.9	-57.5	3.8	1.49e+00	0	57	104	1304428544	60	16314
2026-01-07 08:18:19.54	354.09	4.78	-45.0	-57.5	3.8	1.49e+00	0	57	104	1304428544	60	16276
2026-01-07 08:18:20.55	354.00	4.72	-44.9	-57.6	3.8	1.49e+00	0	57	104	1304428544	60	16386
2026-01-07 08:18:21.56	353.91	4.66	-44.9	-57.5	3.8	1.49e+00	0	57	104	1304428544	60	16308
2026-01-07 08:18:22.57	353.83	4.61	-44.9	-57.6	3.8	1.49e+00	0	57	104	1304428544	60	16330
2026-01-07 08:18:23.58	353.74	4.55	-44.9	-57.5	3.8	1.49e+00	0	57	104	1304428544	60	16291
2026-01-07 08:18:24.59	353.66	4.49	-45.0	-57.5	3.8	1.49e+00	0	57	104	1304428544	60	16307
2026-01-07 08:18:25.60	353.57	4.43	-44.9	-57.6	3.8	1.49e+00	0	57	104	1304428544	60	16338
2026-01-07 08:18:26.61	353.49	4.37	-44.9	-57.5	3.8	1.49e+00	0	57	104	1304428544	60	16312
2026-01-07 08:18:27.62	353.41	4.32	-44.9	-57.6	3.8	1.49e+00	0	57	104	1304428544	60	16328
2026-01-07 08:18:28.63	353.32	4.26	-44.9	-57.5	3.8	1.49e+00	0	57	104	1304428544	60	16287
2026-01-07 08:18:29.64	353.24	4.20	-44.8	-57.6	3.8	1.49e+00	0	57	104	1304428544	60	16394
2026-01-07 08:18:30.65	353.16	4.14	-44.9	-57.5	3.8	1.49e+00	0	57	104	1304428544	60	16290
2026-01-07 08:18:31.67	353.07	4.08	-44.9	-57.5	3.8	1.49e+00	0	57	104	1304428544	60	16307
2026-01-07 08:18:32.68	352.99	4.03	-44.9	-57.6	3.8	1.49e+00	0	57	104	1304428544	60	16325
2026-01-07 08:18:33.69	352.91	3.97	-44.9	-57.5	3.8	1.49e+00	0	57	104	1304428544	60	16283
2026-01-07 08:18:34.70	352.83	3.91	-44.9	-57.5	3.8	1.49e+00	0	57	104	1304428544	60	16282
2026-01-07 08:18:35.71	352.75	3.85	-44.9	-57.5	3.8	1.49e+00	0	57	104	1304428544	60	16291
