passes_logs/2026/01/07/R2.0S_Moscow/R2.0S_Moscow__20260107_083545_SUOMI_NPP_rec.log

#Pass ID: 20260107_083545_SUOMI NPP
#Satellite: SUOMI NPP
#Configuration: NPP
#almurnet v.1.7.20251203
#Start time: 2026-01-07 08:35:47

#Version: 2.2.20231116
#Station: R2.0S_Moscow
#Location: 37.707566 lon 55.798166 lat
#TLE: 1 37849U 11061A   26005.94084933  .00000134  00000+0  84554-4 0  9990
#TLE: 2 37849  98.7803 308.0679 0002567  79.1029 281.0436 14.19522657735426

#Time	Az	El	Level	Level2	SNR	BER	BlckErr	Temp	State	Recorded	gain1	gain2
2026-01-07 08:35:47.95	119.64	2.14	-24.5	-45.2	4.0	1.50e+00	0	46	0	0	19	41464
2026-01-07 08:35:48.95	119.59	2.20	-20.8	-41.2	3.8	1.50e+00	0	47	104	0	16	31265
2026-01-07 08:35:49.96	119.53	2.26	-22.5	-42.6	4.5	1.50e+00	0	47	0	0	17	34490
2026-01-07 08:35:50.97	119.47	2.32	-23.0	-44.8	4.1	1.50e+00	0	47	104	0	19	39795
2026-01-07 08:35:51.99	119.41	2.38	-20.7	-37.7	3.6	1.50e+00	0	47	104	0	3	44317
2026-01-07 08:35:53.00	119.35	2.44	-20.1	-37.0	3.3	1.50e+00	0	47	104	0	8	30448
2026-01-07 08:35:54.01	119.29	2.50	-23.4	-44.5	4.0	1.49e+00	0	47	104	0	18	40891
2026-01-07 08:35:55.02	119.24	2.56	-19.9	-43.5	4.2	1.50e+00	0	47	104	0	18	36478
2026-01-07 08:35:56.03	119.18	2.62	-19.9	-41.6	3.7	1.50e+00	0	47	0	0	16	32594
2026-01-07 08:35:57.04	119.12	2.68	-24.4	-45.8	4.0	1.50e+00	0	48	104	0	19	44758
2026-01-07 08:35:58.05	119.06	2.74	-15.7	-33.9	3.6	1.50e+00	0	48	0	0	3	28544
2026-01-07 08:35:59.06	119.00	2.80	-22.8	-44.8	3.8	1.50e+00	0	48	104	0	18	42221
2026-01-07 08:36:00.07	118.94	2.86	-21.3	-38.5	3.9	1.50e+00	0	48	104	0	9	34124
2026-01-07 08:36:01.08	118.87	2.92	-21.0	-35.8	3.6	1.49e+00	0	48	104	0	0	42382
2026-01-07 08:36:02.10	118.81	2.98	-20.3	-40.6	4.2	1.49e+00	0	48	104	0	16	29180
2026-01-07 08:36:03.11	118.75	3.05	-23.6	-44.8	4.3	1.50e+00	0	48	104	0	18	42409
2026-01-07 08:36:04.12	118.69	3.11	-21.3	-43.3	3.9	1.50e+00	0	48	104	0	17	37737
2026-01-07 08:36:05.13	118.63	3.17	-23.0	-41.6	4.1	1.50e+00	0	48	104	0	16	32734
2026-01-07 08:36:06.14	118.57	3.23	-23.2	-45.7	4.2	1.50e+00	0	48	104	0	19	44250
2026-01-07 08:36:07.15	118.50	3.29	-23.6	-44.1	4.1	1.50e+00	0	48	104	0	19	36795
2026-01-07 08:36:08.16	118.44	3.35	-15.5	-34.8	3.7	1.50e+00	0	48	104	0	6	26501
2026-01-07 08:36:09.17	118.38	3.41	-23.9	-43.7	3.6	1.50e+00	0	48	0	0	18	37268
2026-01-07 08:36:10.18	118.31	3.47	-20.2	-37.0	3.9	1.50e+00	0	49	104	0	6	34321
2026-01-07 08:36:11.19	118.25	3.54	-24.0	-45.3	4.1	1.50e+00	0	49	0	0	19	42346
2026-01-07 08:36:12.20	118.19	3.60	-22.3	-38.3	3.8	1.50e+00	0	49	0	0	9	33552
2026-01-07 08:36:13.21	118.12	3.66	-22.2	-46.0	4.3	1.50e+00	0	48	104	0	18	48255
2026-01-07 08:36:14.22	118.06	3.72	-20.3	-44.8	4.1	1.50e+00	0	49	0	0	19	39880
2026-01-07 08:36:15.23	117.99	3.78	-19.7	-41.0	3.5	1.50e+00	0	49	104	0	16	30419
2026-01-07 08:36:16.24	117.93	3.85	-23.5	-41.9	2.8	1.49e+00	0	49	104	0	8	53627
2026-01-07 08:36:17.26	117.86	3.91	-20.7	-40.7	4.0	1.49e+00	0	49	0	0	14	33130
2026-01-07 08:36:18.27	117.80	3.97	-23.3	-38.6	3.5	1.49e+00	0	49	104	0	13	27644
2026-01-07 08:36:19.28	117.73	4.04	-19.2	-37.3	3.7	1.50e+00	0	49	104	0	11	26664
2026-01-07 08:36:20.29	117.67	4.10	-22.9	-43.0	3.1	1.50e+00	0	49	104	0	12	48380
2026-01-07 08:36:21.30	117.60	4.16	-21.4	-40.8	3.8	1.50e+00	0	49	104	0	16	29866
2026-01-07 08:36:22.31	117.53	4.22	-23.5	-44.0	4.0	1.50e+00	0	49	104	0	18	38381
2026-01-07 08:36:23.32	117.47	4.29	-23.7	-44.1	4.0	1.50e+00	0	49	104	0	17	41342
2026-01-07 08:36:24.33	117.40	4.35	-18.9	-40.2	4.2	1.50e+00	0	49	104	0	11	37357
2026-01-07 08:36:25.34	117.33	4.41	-23.3	-42.6	4.0	1.50e+00	0	49	104	0	17	34790
2026-01-07 08:36:26.35	117.26	4.48	-22.1	-43.3	4.4	1.50e+00	0	50	104	0	18	35600
2026-01-07 08:36:27.37	117.20	4.54	-20.7	-39.5	3.8	1.50e+00	0	50	104	0	17	24347
2026-01-07 08:36:28.38	117.13	4.60	-17.5	-38.1	3.7	1.50e+00	0	50	104	0	9	32749
2026-01-07 08:36:29.39	117.06	4.67	-24.0	-43.1	4.4	1.50e+00	0	50	104	0	17	36795
2026-01-07 08:36:30.40	116.99	4.73	-23.2	-41.3	3.8	1.50e+00	0	50	104	0	15	33644
2026-01-07 08:36:31.41	116.92	4.80	-23.1	-44.2	4.1	1.49e+00	0	50	104	0	18	39562
2026-01-07 08:36:32.42	116.85	4.86	-15.8	-35.2	4.1	1.50e+00	0	50	104	0	7	26348
2026-01-07 08:36:33.43	116.78	4.92	-17.6	-37.7	4.2	1.50e+00	0	50	104	0	17	19825
2026-01-07 08:36:34.44	116.71	4.99	-16.1	-35.7	3.8	1.50e+00	0	50	104	0	4	32948
2026-01-07 08:36:35.45	116.64	5.05	-22.9	-43.2	3.8	1.50e+00	0	50	104	0	17	37140
2026-01-07 08:36:36.46	116.57	5.12	-21.3	-42.7	3.9	1.49e+00	0	50	104	0	18	33057
2026-01-07 08:36:37.47	116.50	5.18	-19.7	-38.8	3.6	1.49e+00	0	50	104	0	12	29897
2026-01-07 08:36:38.48	116.43	5.25	-23.2	-45.7	4.3	1.50e+00	0	50	104	0	20	41849
2026-01-07 08:36:39.49	116.35	5.31	-24.2	-44.6	4.1	1.49e+00	0	50	104	0	18	41170
2026-01-07 08:36:40.50	116.28	5.38	-24.6	-45.7	4.3	1.50e+00	0	50	104	0	18	46564
2026-01-07 08:36:41.52	116.21	5.44	-24.0	-45.8	4.2	1.50e+00	0	50	104	0	18	47481
2026-01-07 08:36:42.53	116.14	5.51	-24.5	-45.5	4.4	1.50e+00	0	50	104	0	20	40975
2026-01-07 08:36:43.54	116.06	5.57	-22.4	-41.9	4.1	1.50e+00	0	50	104	0	17	32061
2026-01-07 08:36:44.55	115.99	5.64	-23.2	-44.4	3.8	1.50e+00	0	50	104	0	18	40374
2026-01-07 08:36:45.56	115.91	5.70	-16.3	-37.3	4.1	1.49e+00	0	50	104	0	12	25210
2026-01-07 08:36:46.57	115.84	5.77	-18.8	-37.6	4.0	1.50e+00	0	50	104	0	14	23234
2026-01-07 08:36:47.58	115.77	5.83	-21.7	-43.0	3.7	1.50e+00	0	51	104	0	15	40857
2026-01-07 08:36:48.59	115.69	5.90	-19.7	-40.9	4.9	1.50e+00	0	51	0	0	18	26876
2026-01-07 08:36:49.60	115.62	5.97	-23.5	-45.1	3.5	1.50e+00	0	51	104	0	18	43619
2026-01-07 08:36:50.61	115.54	6.03	-19.8	-45.2	4.0	1.50e+00	0	51	104	0	16	49492
2026-01-07 08:36:51.62	115.46	6.10	-23.8	-45.4	4.3	1.50e+00	0	51	104	0	18	45294
2026-01-07 08:36:52.64	115.39	6.17	-20.9	-42.5	4.0	1.50e+00	0	51	104	0	17	34342
2026-01-07 08:36:53.65	115.31	6.23	-19.2	-40.2	3.7	1.50e+00	0	51	104	0	14	31347
2026-01-07 08:36:54.66	115.23	6.30	-23.1	-44.3	4.1	1.50e+00	0	51	104	0	19	37747
2026-01-07 08:36:55.67	115.16	6.37	-21.6	-42.3	4.1	1.49e+00	0	51	104	0	17	33519
2026-01-07 08:36:56.68	115.08	6.43	-23.1	-43.7	3.8	1.49e+00	0	51	104	0	16	41710
2026-01-07 08:36:57.69	115.00	6.50	-16.7	-30.6	4.8	1.49e+00	0	51	104	0	15	9757
2026-01-07 08:36:58.70	114.92	6.57	-23.6	-44.6	3.9	1.50e+00	0	51	0	0	18	41080
2026-01-07 08:36:59.71	114.84	6.63	-22.9	-44.4	3.6	1.50e+00	0	51	104	0	18	40111
2026-01-07 08:37:00.72	114.76	6.70	-22.2	-44.1	3.9	1.50e+00	0	51	104	0	16	43813
2026-01-07 08:37:01.73	114.68	6.77	-24.3	-45.4	4.1	1.50e+00	0	51	104	0	19	42856
2026-01-07 08:37:02.73	114.60	6.84	-18.0	-40.9	3.4	1.49e+00	0	51	104	0	12	38024
2026-01-07 08:37:03.74	114.52	6.90	-13.6	-34.4	4.8	1.49e+00	0	51	104	0	18	12707
2026-01-07 08:37:04.75	114.44	6.97	-23.1	-44.5	4.1	1.50e+00	0	51	104	0	20	36395
2026-01-07 08:37:05.76	114.36	7.04	-21.4	-39.3	3.7	1.50e+00	0	51	104	0	16	25059
2026-01-07 08:37:06.77	114.28	7.11	-23.0	-43.0	4.8	1.49e+00	0	51	104	0	16	38610
2026-01-07 08:37:07.79	114.20	7.18	-21.1	-41.1	4.2	1.50e+00	0	51	104	0	16	30774
2026-01-07 08:37:08.80	114.11	7.25	-23.1	-45.2	3.8	1.50e+00	0	51	104	0	18	44135
2026-01-07 08:37:09.81	114.03	7.31	-23.5	-44.4	4.0	1.50e+00	0	52	104	0	16	45303
2026-01-07 08:37:10.82	113.95	7.38	-23.6	-44.0	3.6	1.50e+00	0	52	104	0	17	40738
2026-01-07 08:37:11.83	113.86	7.45	-22.2	-43.4	4.1	1.50e+00	0	52	104	0	15	42533
2026-01-07 08:37:12.84	113.78	7.52	-19.6	-40.8	3.8	1.50e+00	0	52	104	0	16	29952
2026-01-07 08:37:13.85	113.70	7.59	-22.1	-42.7	4.5	1.49e+00	0	52	104	0	18	33222
2026-01-07 08:37:14.86	113.61	7.66	-19.0	-39.2	4.0	1.49e+00	0	52	104	0	12	31191
2026-01-07 08:37:15.87	113.52	7.73	-23.5	-43.5	4.7	1.49e+00	0	52	104	0	19	34433
2026-01-07 08:37:16.88	113.44	7.80	-24.1	-43.9	4.8	1.47e+00	0	52	0	0	21	32029
2026-01-07 08:37:17.89	113.35	7.87	-13.9	-34.8	3.9	1.46e+00	0	52	104	0	9	22405
2026-01-07 08:37:18.90	113.27	7.94	-22.5	-41.1	4.2	1.47e+00	0	52	104	0	13	36666
2026-01-07 08:37:19.91	113.18	8.01	-23.0	-41.6	4.5	1.43e+00	0	52	104	0	14	36569
2026-01-07 08:37:20.92	113.09	8.08	-43.3	-58.4	3.8	1.49e+00	0	52	104	0	57	21445
2026-01-07 08:37:21.93	113.00	8.15	-25.8	-44.4	4.3	1.49e+00	0	52	104	0	22	32102
2026-01-07 08:37:22.94	112.92	8.22	-17.0	-34.4	3.9	1.46e+00	0	52	104	0	2	32034
2026-01-07 08:37:23.95	112.83	8.29	-24.7	-43.8	4.4	1.48e+00	0	52	104	0	20	33386
2026-01-07 08:37:24.96	112.74	8.36	-20.2	-40.0	4.2	1.45e+00	0	52	104	0	15	28900
2026-01-07 08:37:25.97	112.65	8.43	-24.1	-42.7	4.1	1.50e+00	0	52	0	0	18	33302
2026-01-07 08:37:26.98	112.56	8.50	-25.0	-43.4	4.5	1.49e+00	0	52	104	0	20	31903
2026-01-07 08:37:27.99	112.47	8.57	-22.8	-44.2	4.1	1.48e+00	0	52	0	0	20	35127
2026-01-07 08:37:28.99	112.38	8.64	-20.1	-39.0	3.8	1.50e+00	0	52	104	0	11	32427
2026-01-07 08:37:30.00	112.29	8.71	-27.4	-46.0	4.6	1.49e+00	0	52	104	0	25	32377
2026-01-07 08:37:31.01	112.19	8.78	-22.4	-44.3	4.2	1.49e+00	0	52	104	0	23	29851
2026-01-07 08:37:32.02	112.10	8.85	-27.4	-43.7	4.3	1.49e+00	0	52	104	0	25	24938
2026-01-07 08:37:33.03	112.01	8.93	-28.1	-45.8	3.9	1.47e+00	0	52	104	0	22	37454
2026-01-07 08:37:34.04	111.92	9.00	-28.3	-43.6	4.7	1.47e+00	0	53	104	0	27	21817
2026-01-07 08:37:35.05	111.82	9.07	-29.9	-46.7	4.5	1.45e+00	0	52	104	0	30	26388
2026-01-07 08:37:36.06	111.73	9.14	-28.9	-46.5	4.7	1.44e+00	0	53	104	0	32	22949
2026-01-07 08:37:37.07	111.63	9.21	-30.4	-46.0	4.4	1.47e+00	0	53	104	0	31	22791
2026-01-07 08:37:38.08	111.54	9.29	-25.8	-42.7	3.6	1.45e+00	0	53	104	0	22	26276
2026-01-07 08:37:39.09	111.44	9.36	-34.1	-49.7	4.5	1.44e+00	0	53	104	0	37	24755
2026-01-07 08:37:40.10	111.35	9.43	-32.9	-49.8	4.7	1.47e+00	0	53	104	0	40	21175
2026-01-07 08:37:41.11	111.25	9.50	-37.4	-50.2	4.5	1.46e+00	0	52	104	0	41	21003
2026-01-07 08:37:42.12	111.15	9.58	-37.7	-50.9	4.2	1.45e+00	0	53	104	0	46	16942
2026-01-07 08:37:43.13	111.05	9.65	-38.0	-50.4	5.3	1.09e+00	0	52	0	0	48	14293
2026-01-07 08:37:44.14	110.96	9.72	-36.1	-48.8	5.7	8.77e-01	0	53	0	1048576	46	13395
2026-01-07 08:37:45.15	110.86	9.79	-39.7	-49.2	6.4	4.18e-01	0	53	0	3145728	50	11056
2026-01-07 08:37:46.16	110.76	9.87	-40.0	-48.8	6.9	2.75e-01	0	53	0	5242880	50	10629
2026-01-07 08:37:47.17	110.66	9.94	-39.9	-48.9	6.8	4.61e-01	0	53	0	7340032	50	10753
2026-01-07 08:37:48.18	110.56	10.01	-40.1	-49.5	6.2	2.78e-01	0	53	0	8388608	51	10870
2026-01-07 08:37:49.19	110.46	10.09	-35.7	-48.1	5.9	4.94e-01	0	53	0	10485760	48	10946
2026-01-07 08:37:50.20	110.36	10.16	-36.8	-48.5	6.9	2.11e-01	0	53	0	12582912	49	10851
2026-01-07 08:37:51.21	110.26	10.24	-40.5	-48.4	7.0	2.92e-01	0	53	0	14680064	50	10076
2026-01-07 08:37:52.22	110.15	10.31	-40.5	-49.4	6.8	3.52e-01	0	53	0	16777216	52	10102
2026-01-07 08:37:53.22	110.05	10.38	-39.5	-49.2	6.6	2.97e-01	0	53	0	17825792	50	11129
2026-01-07 08:37:54.23	109.95	10.46	-38.6	-49.1	6.2	2.52e-01	0	53	0	19922944	49	11620
2026-01-07 08:37:55.24	109.84	10.53	-35.2	-47.0	7.1	2.02e-01	0	53	0	22020096	41	14469
2026-01-07 08:37:56.25	109.74	10.61	-40.5	-47.2	9.0	2.11e-01	0	53	0	24117248	51	8331
2026-01-07 08:37:57.26	109.63	10.68	-38.8	-46.6	9.6	4.60e-02	0	53	0	26214400	50	8208
2026-01-07 08:37:58.27	109.53	10.76	-36.5	-45.4	8.7	6.92e-02	0	53	0	27262976	41	12048
2026-01-07 08:37:59.28	109.42	10.83	-40.0	-46.0	10.3	1.97e-02	0	53	0	29360128	51	7248
2026-01-07 08:38:00.29	109.32	10.91	-40.7	-47.0	9.2	2.96e-02	0	53	0	31457280	51	8100
2026-01-07 08:38:01.30	109.21	10.98	-40.8	-46.5	10.0	2.11e-02	0	53	0	33554432	52	7215
2026-01-07 08:38:02.31	109.10	11.06	-40.4	-46.3	10.0	2.26e-02	0	53	0	35651584	51	7512
2026-01-07 08:38:03.32	108.99	11.13	-39.7	-46.2	10.3	1.58e-02	0	53	0	36700160	52	7027
2026-01-07 08:38:04.33	108.88	11.21	-39.9	-46.1	10.4	1.53e-02	0	53	0	38797312	51	7334
2026-01-07 08:38:05.34	108.78	11.28	-40.9	-46.1	10.5	9.86e-03	0	53	0	40894464	52	6930
2026-01-07 08:38:06.35	108.67	11.36	-40.4	-44.6	12.3	2.09e-03	0	53	0	42991616	51	6155
2026-01-07 08:38:07.36	108.55	11.44	-40.2	-44.4	12.3	5.23e-03	0	53	0	45088768	51	5997
2026-01-07 08:38:08.37	108.44	11.51	-38.1	-44.5	11.3	1.04e-02	0	53	0	46137344	49	6849
2026-01-07 08:38:09.38	108.33	11.59	-39.7	-44.4	12.3	1.22e-03	0	53	0	48234496	52	5677
2026-01-07 08:38:10.39	108.22	11.67	-39.7	-44.5	12.2	5.07e-04	0	53	0	50331648	51	6129
2026-01-07 08:38:11.40	108.11	11.74	-40.7	-45.1	11.6	9.62e-04	0	53	0	52428800	51	6499
2026-01-07 08:38:12.41	107.99	11.82	-40.4	-45.3	11.7	7.21e-04	0	53	0	54525952	52	6303
2026-01-07 08:38:13.42	107.88	11.90	-40.6	-45.2	11.8	1.26e-03	0	54	0	55574528	52	6228
2026-01-07 08:38:14.43	107.76	11.97	-40.8	-44.7	12.3	1.02e-03	0	53	0	57671680	52	5885
2026-01-07 08:38:15.44	107.65	12.05	-40.8	-44.6	12.4	6.47e-04	0	54	0	59768832	52	5813
2026-01-07 08:38:16.45	107.53	12.13	-40.6	-44.5	12.5	2.05e-04	0	54	0	61865984	52	5787
2026-01-07 08:38:17.46	107.42	12.20	-40.0	-44.4	12.2	9.91e-05	0	54	0	63963136	51	6007
2026-01-07 08:38:18.47	107.30	12.28	-39.8	-44.7	11.8	3.82e-03	0	54	0	65011712	51	6270
2026-01-07 08:38:19.48	107.18	12.36	-40.1	-45.0	11.5	3.45e-03	0	54	0	67108864	50	6809
2026-01-07 08:38:20.49	107.06	12.44	-39.3	-44.9	11.8	9.23e-04	0	54	0	69206016	51	6378
2026-01-07 08:38:21.50	106.94	12.51	-41.0	-45.3	11.6	1.45e-03	0	54	0	71303168	52	6285
2026-01-07 08:38:22.51	106.82	12.59	-40.5	-45.4	11.4	2.05e-03	0	54	0	73400320	53	6026
2026-01-07 08:38:23.51	106.70	12.67	-40.5	-45.3	11.6	1.25e-03	0	54	0	74448896	52	6279
2026-01-07 08:38:24.52	106.58	12.75	-41.2	-45.4	11.7	1.17e-03	0	54	0	76546048	53	6004
2026-01-07 08:38:25.53	106.46	12.83	-41.1	-45.5	11.5	2.95e-03	0	54	0	78643200	53	6107
2026-01-07 08:38:26.54	106.34	12.91	-40.3	-45.0	11.9	4.02e-03	0	54	0	80740352	51	6422
2026-01-07 08:38:27.55	106.22	12.98	-39.6	-45.2	11.5	3.46e-03	0	54	0	82837504	52	6274
2026-01-07 08:38:28.56	106.09	13.06	-38.7	-45.2	11.5	2.51e-02	0	54	0	84934656	51	6571
2026-01-07 08:38:29.57	105.97	13.14	-37.2	-44.3	11.7	7.56e-03	0	54	0	85983232	50	6331
2026-01-07 08:38:30.58	105.84	13.22	-39.4	-44.8	12.0	1.42e-02	0	54	0	88080384	51	6284
2026-01-07 08:38:31.59	105.72	13.30	-40.1	-44.4	11.7	1.44e-02	0	54	0	90177536	48	7170
2026-01-07 08:38:32.60	105.59	13.38	-40.3	-44.3	12.7	1.62e-04	0	54	0	92274688	52	5623
2026-01-07 08:38:33.61	105.46	13.46	-39.3	-44.4	12.6	2.82e-04	0	54	0	94371840	51	6001
2026-01-07 08:38:34.62	105.33	13.54	-40.5	-44.2	13.0	5.07e-04	0	54	0	95420416	51	5870
2026-01-07 08:38:35.63	105.21	13.62	-40.5	-43.7	13.5	3.36e-04	0	54	0	97517568	51	5584
2026-01-07 08:38:36.64	105.08	13.70	-40.2	-43.3	14.0	2.97e-05	0	54	0	99614720	50	5600
2026-01-07 08:38:37.65	104.95	13.78	-40.0	-43.3	14.0	2.05e-05	0	54	0	101711872	51	5284
2026-01-07 08:38:38.66	104.82	13.86	-40.2	-43.3	13.9	7.70e-05	0	54	0	103809024	51	5340
2026-01-07 08:38:39.67	104.68	13.94	-40.1	-43.2	14.1	4.27e-05	0	54	0	104857600	50	5566
2026-01-07 08:38:40.68	104.55	14.02	-40.2	-43.4	13.9	5.03e-05	0	54	0	106954752	51	5349
2026-01-07 08:38:41.69	104.42	14.10	-39.4	-43.5	13.4	4.23e-04	0	54	0	109051904	51	5437
2026-01-07 08:38:42.70	104.29	14.18	-40.3	-43.5	13.8	3.96e-05	0	54	0	111149056	51	5424
2026-01-07 08:38:43.71	104.15	14.26	-40.3	-43.4	13.9	6.10e-06	0	54	0	113246208	51	5376
2026-01-07 08:38:44.72	104.02	14.34	-40.1	-43.0	14.1	1.98e-05	0	54	0	114294784	50	5455
2026-01-07 08:38:45.73	103.88	14.42	-40.1	-43.0	14.3	3.05e-05	0	54	0	116391936	50	5446
2026-01-07 08:38:46.74	103.74	14.50	-40.3	-43.4	14.0	6.80e-06	0	54	0	118489088	51	5341
2026-01-07 08:38:47.75	103.61	14.58	-40.2	-43.1	14.2	4.34e-05	0	54	0	120586240	51	5195
2026-01-07 08:38:48.76	103.47	14.66	-40.5	-43.7	13.6	2.67e-05	0	54	0	122683392	51	5570
2026-01-07 08:38:49.77	103.33	14.74	-40.6	-43.9	13.4	1.75e-05	0	54	0	123731968	51	5684
2026-01-07 08:38:50.78	103.19	14.82	-40.3	-43.4	14.0	1.04e-04	0	54	0	125829120	51	5341
2026-01-07 08:38:51.79	103.05	14.91	-40.2	-43.1	14.3	4.34e-05	0	54	0	127926272	51	5192
2026-01-07 08:38:52.79	102.91	14.99	-40.2	-43.2	14.2	2.20e-06	0	54	0	130023424	51	5247
2026-01-07 08:38:53.80	102.77	15.07	-40.1	-43.0	14.4	2.20e-06	0	54	0	132120576	51	5142
2026-01-07 08:38:54.81	102.63	15.15	-40.2	-43.1	14.2	7.00e-07	0	54	0	133169152	51	5211
2026-01-07 08:38:55.82	102.48	15.23	-40.3	-43.4	14.0	4.50e-06	0	54	0	135266304	51	5370
2026-01-07 08:38:56.83	102.34	15.31	-40.2	-43.1	14.2	4.50e-06	0	54	0	137363456	51	5200
2026-01-07 08:38:57.84	102.19	15.39	-40.3	-43.3	14.2	0.00e+00	0	54	0	139460608	51	5283
2026-01-07 08:38:58.85	102.05	15.48	-40.0	-42.8	14.6	7.00e-07	0	54	0	141557760	51	5038
2026-01-07 08:38:59.86	101.90	15.56	-40.0	-42.8	14.6	7.00e-07	0	54	0	142606336	51	5029
2026-01-07 08:39:00.87	101.75	15.64	-39.9	-42.6	14.9	0.00e+00	0	54	0	144703488	51	4888
2026-01-07 08:39:01.87	101.61	15.72	-40.0	-42.8	14.6	1.50e-06	0	54	0	146800640	51	5032
2026-01-07 08:39:02.88	101.46	15.80	-40.1	-43.0	14.5	0.00e+00	0	54	0	148897792	51	5108
2026-01-07 08:39:03.89	101.31	15.89	-40.2	-43.2	14.2	1.50e-06	0	54	0	150994944	51	5268
2026-01-07 08:39:04.90	101.16	15.97	-40.5	-43.5	14.0	3.80e-06	0	54	0	153092096	51	5462
2026-01-07 08:39:05.91	101.00	16.05	-40.4	-43.7	13.8	6.10e-06	0	54	0	154140672	51	5537
2026-01-07 08:39:06.92	100.85	16.13	-40.2	-43.0	14.5	0.00e+00	0	54	0	156237824	51	5148
2026-01-07 08:39:07.93	100.70	16.22	-40.1	-42.9	14.6	0.00e+00	0	54	0	158334976	51	5066
2026-01-07 08:39:08.94	100.54	16.30	-40.2	-43.0	14.5	0.00e+00	0	54	0	160432128	51	5114
2026-01-07 08:39:09.95	100.39	16.38	-40.3	-43.3	14.3	7.00e-07	0	54	0	162529280	51	5296
2026-01-07 08:39:10.96	100.23	16.47	-41.2	-44.1	13.6	4.50e-06	0	55	0	163577856	52	5524
2026-01-07 08:39:11.97	100.08	16.55	-40.8	-44.2	13.2	2.44e-05	0	55	0	165675008	52	5575
2026-01-07 08:39:12.98	99.92	16.63	-41.0	-44.4	13.0	1.60e-05	0	55	0	167772160	52	5704
2026-01-07 08:39:13.99	99.76	16.71	-40.8	-44.1	13.4	2.28e-05	0	54	0	169869312	52	5482
2026-01-07 08:39:15.00	99.60	16.80	-40.6	-43.7	13.7	6.10e-06	0	55	0	171966464	52	5276
2026-01-07 08:39:16.01	99.44	16.88	-40.5	-43.5	14.0	1.50e-06	0	54	0	173015040	51	5419
2026-01-07 08:39:17.02	99.28	16.96	-40.5	-43.7	13.8	3.00e-06	0	55	0	175112192	52	5220
2026-01-07 08:39:18.03	99.12	17.05	-41.0	-44.5	13.0	3.96e-05	0	55	0	177209344	52	5738
2026-01-07 08:39:19.04	98.95	17.13	-41.2	-45.0	12.4	5.72e-05	0	55	0	179306496	53	5773
2026-01-07 08:39:20.05	98.79	17.21	-41.2	-44.9	12.6	1.06e-04	0	55	0	181403648	53	5684
2026-01-07 08:39:21.06	98.62	17.30	-40.9	-44.3	13.2	4.27e-05	0	55	0	182452224	53	5295
2026-01-07 08:39:22.07	98.46	17.38	-40.8	-44.2	13.3	1.75e-05	0	55	0	184549376	52	5539
2026-01-07 08:39:23.08	98.29	17.46	-40.9	-44.3	13.3	1.52e-05	0	55	0	186646528	52	5604
2026-01-07 08:39:24.09	98.12	17.55	-40.8	-44.2	13.4	9.10e-06	0	55	0	188743680	52	5529
2026-01-07 08:39:25.10	97.95	17.63	-41.1	-44.7	12.8	6.10e-05	0	55	0	190840832	52	5897
2026-01-07 08:39:26.11	97.78	17.71	-41.0	-44.5	13.0	3.05e-05	0	55	0	191889408	52	5776
2026-01-07 08:39:27.12	97.61	17.80	-40.7	-44.2	13.3	3.28e-05	0	55	0	193986560	52	5550
2026-01-07 08:39:28.13	97.44	17.88	-40.7	-44.0	13.5	1.44e-05	0	55	0	196083712	52	5426
2026-01-07 08:39:29.14	97.27	17.97	-40.6	-43.7	13.8	3.00e-06	0	55	0	198180864	52	5259
2026-01-07 08:39:30.15	97.10	18.05	-40.7	-43.9	13.7	1.50e-06	0	55	0	200278016	52	5355
2026-01-07 08:39:31.16	96.92	18.13	-40.7	-43.8	13.7	5.30e-06	0	55	0	201326592	52	5307
2026-01-07 08:39:32.17	96.75	18.22	-40.9	-44.2	13.4	1.98e-05	0	54	0	203423744	52	5540
2026-01-07 08:39:33.18	96.57	18.30	-40.7	-43.8	13.8	2.20e-06	0	55	0	205520896	52	5321
2026-01-07 08:39:34.19	96.39	18.38	-40.5	-43.6	14.0	3.00e-06	0	55	0	207618048	52	5179
2026-01-07 08:39:35.20	96.21	18.47	-40.4	-43.3	14.3	3.00e-06	0	55	0	209715200	52	5031
2026-01-07 08:39:36.21	96.03	18.55	-40.3	-43.3	14.3	7.00e-07	0	55	0	210763776	52	4993
2026-01-07 08:39:37.22	95.85	18.63	-40.5	-43.6	14.0	0.00e+00	0	55	0	212860928	52	5176
2026-01-07 08:39:38.23	95.67	18.72	-40.2	-43.1	14.4	1.50e-06	0	55	0	214958080	52	4900
2026-01-07 08:39:39.24	95.49	18.80	-40.4	-43.3	14.2	3.00e-06	0	55	0	217055232	52	5032
2026-01-07 08:39:40.25	95.31	18.89	-40.7	-43.9	13.7	4.50e-06	0	55	0	219152384	52	5362
2026-01-07 08:39:41.26	95.12	18.97	-40.9	-44.3	13.3	1.06e-05	0	55	0	221249536	52	5615
2026-01-07 08:39:42.27	94.94	19.05	-41.1	-44.5	13.0	1.60e-05	0	55	0	222298112	52	5775
2026-01-07 08:39:43.28	94.75	19.14	-41.0	-44.4	13.1	3.58e-05	0	55	0	224395264	52	5683
2026-01-07 08:39:44.29	94.56	19.22	-41.0	-44.4	13.1	2.05e-05	0	55	0	226492416	52	5715
2026-01-07 08:39:45.30	94.37	19.30	-40.8	-44.0	13.6	1.60e-05	0	55	0	228589568	52	5436
2026-01-07 08:39:46.31	94.18	19.39	-40.6	-43.8	13.8	3.00e-06	0	55	0	230686720	52	5291
2026-01-07 08:39:47.32	93.99	19.47	-40.7	-44.0	13.6	1.44e-05	0	55	0	231735296	52	5412
2026-01-07 08:39:48.33	93.80	19.55	-40.7	-43.9	13.6	1.44e-05	0	55	0	233832448	52	5395
2026-01-07 08:39:49.34	93.61	19.64	-40.8	-44.0	13.5	1.67e-05	0	55	0	235929600	52	5451
2026-01-07 08:39:50.35	93.42	19.72	-40.3	-43.2	14.3	5.30e-06	0	55	0	238026752	52	4954
2026-01-07 08:39:51.36	93.22	19.80	-40.2	-43.0	14.5	7.00e-07	0	55	0	240123904	52	4867
2026-01-07 08:39:52.37	93.03	19.89	-40.1	-42.9	14.6	7.00e-07	0	55	0	241172480	52	4781
2026-01-07 08:39:53.38	92.83	19.97	-40.2	-43.1	14.4	0.00e+00	0	55	0	243269632	52	4918
2026-01-07 08:39:54.39	92.63	20.05	-40.5	-43.7	13.7	1.50e-06	0	55	0	245366784	52	5236
2026-01-07 08:39:55.40	92.43	20.13	-40.7	-44.0	13.5	1.14e-05	0	55	0	247463936	52	5422
2026-01-07 08:39:56.41	92.23	20.22	-40.7	-44.0	13.4	8.30e-06	0	55	0	249561088	52	5443
2026-01-07 08:39:57.42	92.03	20.30	-40.6	-43.8	13.6	1.75e-05	0	55	0	250609664	52	5304
2026-01-07 08:39:58.43	91.83	20.38	-40.6	-43.8	13.5	8.30e-06	0	55	0	252706816	52	5335
2026-01-07 08:39:59.44	91.62	20.46	-40.6	-43.8	13.5	1.06e-05	0	55	0	254803968	52	5325
2026-01-07 08:40:00.45	91.42	20.55	-40.6	-43.8	13.5	1.37e-05	0	55	0	256901120	52	5315
2026-01-07 08:40:01.46	91.21	20.63	-40.4	-43.5	13.9	6.10e-06	0	55	0	258998272	52	5105
2026-01-07 08:40:02.47	91.01	20.71	-40.2	-43.3	14.0	3.00e-06	0	55	0	260046848	52	5002
2026-01-07 08:40:03.48	90.80	20.79	-40.3	-43.3	13.9	3.80e-06	0	55	0	262144000	52	5020
2026-01-07 08:40:04.49	90.59	20.87	-40.2	-43.2	14.0	2.20e-06	0	55	0	264241152	52	4960
2026-01-07 08:40:05.50	90.38	20.96	-40.0	-42.9	14.3	0.00e+00	0	55	0	266338304	51	5089
2026-01-07 08:40:06.51	90.17	21.04	-39.9	-42.8	14.5	0.00e+00	0	55	0	268435456	51	4992
2026-01-07 08:40:07.52	89.96	21.12	-39.7	-42.4	14.7	0.00e+00	0	55	0	269484032	51	4768
2026-01-07 08:40:08.53	89.74	21.20	-39.8	-42.7	14.5	7.00e-07	0	55	0	271581184	51	4932
2026-01-07 08:40:09.54	89.53	21.28	-40.0	-42.9	14.2	0.00e+00	0	55	0	273678336	51	5083
2026-01-07 08:40:10.55	89.31	21.36	-39.9	-42.9	14.3	1.50e-06	0	55	0	275775488	51	5067
2026-01-07 08:40:11.56	89.09	21.44	-40.0	-43.0	14.2	3.00e-06	0	55	0	277872640	51	5101
2026-01-07 08:40:12.57	88.88	21.52	-39.9	-42.9	14.3	7.00e-07	0	55	0	278921216	51	5043
2026-01-07 08:40:13.58	88.66	21.60	-39.9	-42.8	14.3	0.00e+00	0	55	0	281018368	51	5017
2026-01-07 08:40:14.59	88.44	21.68	-39.9	-42.8	14.3	0.00e+00	0	55	0	283115520	51	5018
2026-01-07 08:40:15.60	88.21	21.76	-40.0	-43.1	13.9	1.50e-06	0	55	0	285212672	51	5185
2026-01-07 08:40:16.61	87.99	21.84	-40.0	-43.0	14.1	4.50e-06	0	55	0	287309824	51	5126
2026-01-07 08:40:17.62	87.77	21.92	-39.9	-42.8	14.3	3.00e-06	0	55	0	289406976	51	5023
2026-01-07 08:40:18.63	87.54	22.00	-39.6	-42.3	14.7	7.00e-07	0	55	0	290455552	51	4745
2026-01-07 08:40:19.64	87.32	22.08	-39.5	-42.1	15.0	0.00e+00	0	55	0	292552704	50	4904
2026-01-07 08:40:20.65	87.09	22.16	-39.6	-42.3	14.9	0.00e+00	0	55	0	294649856	50	4984
2026-01-07 08:40:21.65	86.86	22.24	-39.8	-42.7	14.5	1.50e-06	0	55	0	296747008	50	5236
2026-01-07 08:40:22.66	86.63	22.32	-39.7	-42.4	14.7	0.00e+00	0	55	0	298844160	50	5090
2026-01-07 08:40:23.67	86.40	22.39	-39.7	-42.4	14.7	0.00e+00	0	55	0	299892736	50	5094
2026-01-07 08:40:24.68	86.17	22.47	-39.6	-42.3	15.0	0.00e+00	0	55	0	301989888	50	4997
2026-01-07 08:40:25.69	85.94	22.55	-39.7	-42.4	14.9	0.00e+00	0	55	0	304087040	50	5078
2026-01-07 08:40:26.70	85.70	22.63	-39.7	-42.4	14.9	0.00e+00	0	55	0	306184192	50	5054
2026-01-07 08:40:27.71	85.47	22.70	-39.5	-42.0	15.3	0.00e+00	0	55	0	308281344	50	4866
2026-01-07 08:40:28.72	85.23	22.78	-39.4	-41.8	15.6	0.00e+00	0	55	0	309329920	50	4746
2026-01-07 08:40:29.73	84.99	22.86	-39.2	-41.7	15.8	0.00e+00	0	55	0	311427072	50	4653
2026-01-07 08:40:30.74	84.76	22.93	-39.1	-41.5	15.9	0.00e+00	0	55	0	313524224	50	4573
2026-01-07 08:40:31.75	84.52	23.01	-39.2	-41.6	15.8	0.00e+00	0	55	0	315621376	50	4638
2026-01-07 08:40:32.76	84.27	23.08	-39.1	-41.5	16.0	0.00e+00	0	55	0	317718528	50	4556
2026-01-07 08:40:33.77	84.03	23.16	-39.0	-41.3	16.2	0.00e+00	0	55	0	318767104	50	4470
2026-01-07 08:40:34.78	83.79	23.23	-39.3	-41.6	15.9	0.00e+00	0	55	0	320864256	50	4650
2026-01-07 08:40:35.79	83.54	23.31	-39.4	-41.8	15.8	0.00e+00	0	55	0	322961408	50	4731
2026-01-07 08:40:36.80	83.30	23.38	-39.3	-41.9	15.6	0.00e+00	0	55	0	325058560	50	4779
2026-01-07 08:40:37.81	83.05	23.46	-39.3	-41.8	15.7	0.00e+00	0	55	0	327155712	50	4735
2026-01-07 08:40:38.82	82.80	23.53	-39.2	-41.6	15.9	0.00e+00	0	55	0	328204288	50	4650
2026-01-07 08:40:39.83	82.55	23.60	-39.1	-41.4	16.1	0.00e+00	0	55	0	330301440	49	4811
2026-01-07 08:40:40.83	82.30	23.67	-39.1	-41.5	16.0	0.00e+00	0	55	0	332398592	49	4869
2026-01-07 08:40:41.84	82.05	23.75	-39.3	-41.8	15.8	0.00e+00	0	55	0	334495744	49	5027
2026-01-07 08:40:42.85	81.80	23.82	-39.1	-41.5	16.1	0.00e+00	0	55	0	336592896	49	4856
2026-01-07 08:40:43.86	81.55	23.89	-39.2	-41.6	15.9	0.00e+00	0	55	0	337641472	49	4926
2026-01-07 08:40:44.87	81.29	23.96	-39.6	-42.3	15.4	0.00e+00	0	55	0	339738624	50	4996
2026-01-07 08:40:45.88	81.03	24.03	-40.0	-42.8	14.9	0.00e+00	0	55	0	341835776	50	5319
2026-01-07 08:40:46.89	80.78	24.10	-40.0	-42.8	14.8	0.00e+00	0	55	0	343932928	50	5340
2026-01-07 08:40:47.90	80.52	24.17	-39.8	-42.6	15.1	0.00e+00	0	55	0	346030080	50	5180
2026-01-07 08:40:48.91	80.26	24.24	-39.8	-42.6	15.1	0.00e+00	0	55	0	347078656	50	5183
2026-01-07 08:40:49.92	80.00	24.31	-39.8	-42.6	15.1	0.00e+00	0	55	0	349175808	50	5166
2026-01-07 08:40:50.93	79.73	24.38	-39.8	-42.5	15.2	7.00e-07	0	55	0	351272960	50	5131
2026-01-07 08:40:51.94	79.47	24.44	-39.7	-42.3	15.4	0.00e+00	0	55	0	353370112	50	5027
2026-01-07 08:40:52.95	79.21	24.51	-39.6	-42.2	15.5	0.00e+00	0	55	0	355467264	50	4964
2026-01-07 08:40:53.96	78.94	24.58	-39.5	-42.0	15.7	0.00e+00	0	55	0	357564416	50	4855
2026-01-07 08:40:54.97	78.67	24.64	-39.4	-42.0	15.7	0.00e+00	0	56	0	358612992	50	4817
2026-01-07 08:40:55.98	78.41	24.71	-39.3	-41.8	15.9	0.00e+00	0	55	0	360710144	50	4729
2026-01-07 08:40:56.99	78.14	24.77	-39.4	-41.9	15.8	0.00e+00	0	55	0	362807296	50	4802
2026-01-07 08:40:58.00	77.87	24.84	-39.4	-42.0	15.8	0.00e+00	0	55	0	364904448	50	4821
2026-01-07 08:40:59.01	77.60	24.90	-39.3	-41.8	15.9	0.00e+00	0	55	0	367001600	50	4718
2026-01-07 08:41:00.02	77.32	24.97	-39.4	-41.8	15.9	0.00e+00	0	55	0	368050176	50	4747
2026-01-07 08:41:01.03	77.05	25.03	-39.3	-41.7	16.1	0.00e+00	0	55	0	370147328	50	4674
2026-01-07 08:41:02.04	76.78	25.09	-39.0	-41.3	16.4	0.00e+00	0	56	0	372244480	50	4470
2026-01-07 08:41:03.05	76.50	25.15	-39.0	-41.3	16.4	0.00e+00	0	56	0	374341632	50	4472
2026-01-07 08:41:04.06	76.22	25.22	-39.1	-41.4	16.3	0.00e+00	0	55	0	376438784	49	4800
2026-01-07 08:41:05.06	75.95	25.28	-39.1	-41.3	16.4	0.00e+00	0	56	0	377487360	49	4743
2026-01-07 08:41:06.07	75.67	25.34	-38.9	-41.1	16.6	0.00e+00	0	55	0	379584512	49	4612
2026-01-07 08:41:07.08	75.39	25.40	-38.8	-41.0	16.8	0.00e+00	0	55	0	381681664	49	4548
2026-01-07 08:41:08.09	75.11	25.45	-39.0	-41.2	16.5	0.00e+00	0	56	0	383778816	49	4698
2026-01-07 08:41:09.10	74.83	25.51	-38.9	-41.2	16.6	0.00e+00	0	55	0	385875968	49	4677
2026-01-07 08:41:10.11	74.54	25.57	-39.3	-41.7	16.1	0.00e+00	0	55	0	386924544	49	4936
2026-01-07 08:41:11.12	74.26	25.63	-39.3	-41.8	15.9	0.00e+00	0	56	0	389021696	49	5003
2026-01-07 08:41:12.13	73.98	25.68	-39.3	-41.7	16.1	0.00e+00	0	56	0	391118848	49	4960
2026-01-07 08:41:13.14	73.69	25.74	-39.4	-41.9	15.8	0.00e+00	0	56	0	393216000	49	5055
2026-01-07 08:41:14.15	73.40	25.79	-39.4	-42.0	15.8	0.00e+00	0	55	0	395313152	49	5117
2026-01-07 08:41:15.16	73.11	25.85	-39.6	-42.2	15.6	0.00e+00	0	55	0	396361728	49	5264
2026-01-07 08:41:16.17	72.83	25.90	-39.6	-42.2	15.6	0.00e+00	0	55	0	398458880	49	5262
2026-01-07 08:41:17.18	72.54	25.96	-39.5	-42.0	15.8	0.00e+00	0	55	0	400556032	49	5119
2026-01-07 08:41:18.19	72.24	26.01	-39.3	-41.8	16.0	0.00e+00	0	55	0	402653184	49	5008
2026-01-07 08:41:19.20	71.95	26.06	-39.5	-42.1	15.7	0.00e+00	0	55	0	404750336	49	5181
2026-01-07 08:41:20.21	71.66	26.11	-39.6	-42.1	15.7	0.00e+00	0	55	0	405798912	49	5197
2026-01-07 08:41:21.22	71.37	26.16	-39.8	-42.4	15.4	0.00e+00	0	55	0	407896064	50	5074
2026-01-07 08:41:22.23	71.07	26.21	-39.9	-42.5	15.3	0.00e+00	0	55	0	409993216	50	5157
2026-01-07 08:41:23.23	70.78	26.26	-39.9	-42.5	15.3	0.00e+00	0	56	0	412090368	50	5151
2026-01-07 08:41:24.24	70.48	26.31	-40.2	-43.1	14.8	0.00e+00	0	56	0	414187520	51	5167
2026-01-07 08:41:25.25	70.18	26.35	-40.3	-43.2	14.6	0.00e+00	0	56	0	415236096	51	5244
2026-01-07 08:41:26.27	69.88	26.40	-40.3	-43.2	14.7	0.00e+00	0	56	0	417333248	51	5255
2026-01-07 08:41:27.27	69.59	26.44	-40.5	-43.5	14.4	0.00e+00	0	55	0	419430400	51	5422
2026-01-07 08:41:28.28	69.29	26.49	-40.6	-43.7	14.2	1.50e-06	0	56	0	421527552	51	5554
2026-01-07 08:41:29.29	68.99	26.53	-40.5	-43.5	14.4	7.00e-07	0	56	0	423624704	51	5441
2026-01-07 08:41:30.30	68.68	26.58	-40.4	-43.3	14.6	2.20e-06	0	55	0	425721856	51	5313
2026-01-07 08:41:31.31	68.38	26.62	-40.3	-43.2	14.7	7.00e-07	0	56	0	426770432	51	5242
2026-01-07 08:41:32.32	68.08	26.66	-40.3	-43.1	14.8	0.00e+00	0	56	0	428867584	51	5207
2026-01-07 08:41:33.33	67.78	26.70	-40.3	-43.1	14.8	0.00e+00	0	55	0	430964736	51	5214
2026-01-07 08:41:34.34	67.47	26.74	-40.3	-43.1	14.7	0.00e+00	0	56	0	433061888	51	5218
2026-01-07 08:41:35.35	67.16	26.78	-40.4	-43.4	14.5	0.00e+00	0	56	0	435159040	51	5368
2026-01-07 08:41:36.36	66.86	26.82	-40.7	-43.8	14.1	7.00e-07	0	56	0	436207616	51	5628
2026-01-07 08:41:37.37	66.55	26.86	-40.7	-44.0	13.7	4.50e-06	0	56	0	438304768	52	5429
2026-01-07 08:41:38.38	66.24	26.89	-40.9	-44.3	13.5	7.60e-06	0	56	0	440401920	52	5654
2026-01-07 08:41:39.39	65.94	26.93	-40.9	-44.4	13.4	9.90e-06	0	56	0	442499072	52	5661
2026-01-07 08:41:40.40	65.63	26.96	-40.9	-44.4	13.4	1.44e-05	0	56	0	444596224	52	5694
2026-01-07 08:41:41.41	65.32	27.00	-40.9	-44.3	13.6	1.60e-05	0	56	0	445644800	52	5603
2026-01-07 08:41:42.42	65.01	27.03	-40.8	-44.2	13.6	9.90e-06	0	56	0	447741952	52	5531
2026-01-07 08:41:43.43	64.70	27.06	-40.6	-43.8	14.0	1.50e-06	0	56	0	449839104	52	5315
2026-01-07 08:41:44.44	64.38	27.09	-40.3	-43.4	14.4	0.00e+00	0	56	0	451936256	52	5054
2026-01-07 08:41:45.45	64.07	27.12	-40.4	-43.4	14.4	0.00e+00	0	55	0	454033408	52	5099
2026-01-07 08:41:46.46	63.76	27.15	-40.5	-43.7	14.1	3.00e-06	0	56	0	455081984	52	5241
2026-01-07 08:41:47.47	63.45	27.18	-40.7	-44.0	13.9	7.00e-07	0	56	0	457179136	52	5412
2026-01-07 08:41:48.48	63.13	27.21	-40.6	-43.8	14.0	1.50e-06	0	55	0	459276288	52	5301
2026-01-07 08:41:49.49	62.82	27.24	-40.5	-43.7	14.1	2.20e-06	0	56	0	461373440	52	5258
2026-01-07 08:41:50.50	62.50	27.26	-40.3	-43.3	14.5	0.00e+00	0	56	0	463470592	52	5028
2026-01-07 08:41:51.50	62.19	27.29	-40.2	-43.3	14.6	7.00e-07	0	56	0	464519168	52	4985
2026-01-07 08:41:52.51	61.87	27.31	-40.2	-43.1	14.7	0.00e+00	0	56	0	466616320	52	4901
2026-01-07 08:41:53.52	61.56	27.33	-40.0	-42.9	14.9	0.00e+00	0	56	0	468713472	52	4776
2026-01-07 08:41:54.53	61.24	27.35	-40.1	-42.9	14.9	0.00e+00	0	56	0	470810624	51	5090
2026-01-07 08:41:55.54	60.92	27.38	-40.3	-43.3	14.6	0.00e+00	0	56	0	472907776	51	5301
2026-01-07 08:41:56.55	60.61	27.40	-40.4	-43.6	14.3	7.00e-07	0	56	0	473956352	51	5483
2026-01-07 08:41:57.56	60.29	27.41	-40.5	-43.7	14.0	7.00e-07	0	56	0	476053504	52	5276
2026-01-07 08:41:58.57	59.97	27.43	-40.8	-44.2	13.6	6.10e-06	0	56	0	478150656	52	5567
2026-01-07 08:41:59.58	59.65	27.45	-41.0	-44.5	13.3	2.44e-05	0	56	0	480247808	52	5771
2026-01-07 08:42:00.59	59.33	27.47	-41.2	-44.9	12.8	5.64e-05	0	56	0	482344960	53	5720
2026-01-07 08:42:01.60	59.01	27.48	-41.2	-45.0	12.8	5.56e-05	0	56	0	483393536	53	5777
2026-01-07 08:42:02.61	58.69	27.50	-41.0	-44.6	13.2	4.42e-05	0	56	0	485490688	53	5500
2026-01-07 08:42:03.62	58.37	27.51	-40.8	-44.2	13.6	9.90e-06	0	56	0	487587840	53	5255
2026-01-07 08:42:04.63	58.05	27.52	-40.6	-43.7	14.2	5.30e-06	0	56	0	489684992	53	4941
2026-01-07 08:42:05.64	57.73	27.53	-40.5	-43.5	14.3	0.00e+00	0	56	0	491782144	52	5153
2026-01-07 08:42:06.65	57.41	27.54	-40.2	-43.0	14.8	7.00e-07	0	56	0	493879296	52	4855
2026-01-07 08:42:07.66	57.09	27.55	-39.9	-42.6	15.4	0.00e+00	0	56	0	494927872	51	4886
2026-01-07 08:42:08.67	56.77	27.56	-40.0	-42.7	15.2	0.00e+00	0	56	0	497025024	51	4945
2026-01-07 08:42:09.68	56.45	27.57	-40.1	-42.8	15.1	0.00e+00	0	56	0	499122176	51	5009
2026-01-07 08:42:10.69	56.13	27.57	-40.3	-43.3	14.7	0.00e+00	0	56	0	501219328	51	5283
2026-01-07 08:42:11.70	55.80	27.58	-40.4	-43.4	14.6	7.00e-07	0	56	0	503316480	51	5365
2026-01-07 08:42:12.71	55.48	27.58	-40.6	-43.6	14.4	0.00e+00	0	56	0	504365056	51	5473
2026-01-07 08:42:13.71	55.16	27.59	-40.4	-43.3	14.7	0.00e+00	0	56	0	506462208	51	5316
2026-01-07 08:42:14.73	54.84	27.59	-40.3	-43.1	14.8	0.00e+00	0	56	0	508559360	51	5199
2026-01-07 08:42:15.74	54.52	27.59	-40.2	-43.0	14.9	0.00e+00	0	56	0	510656512	51	5141
2026-01-07 08:42:16.75	54.20	27.59	-40.2	-43.0	15.0	7.00e-07	0	56	0	512753664	51	5121
2026-01-07 08:42:17.76	53.87	27.59	-40.0	-42.7	15.3	0.00e+00	0	56	0	513802240	51	4947
2026-01-07 08:42:18.77	53.55	27.59	-40.0	-42.7	15.3	0.00e+00	0	56	0	515899392	51	4943
2026-01-07 08:42:19.78	53.23	27.59	-39.9	-42.5	15.5	0.00e+00	0	56	0	517996544	51	4833
2026-01-07 08:42:20.79	52.91	27.58	-40.0	-42.7	15.3	0.00e+00	0	56	0	520093696	51	4930
2026-01-07 08:42:21.80	52.59	27.58	-40.3	-43.1	14.9	0.00e+00	0	56	0	522190848	51	5175
2026-01-07 08:42:22.81	52.27	27.57	-40.4	-43.3	14.7	7.00e-07	0	56	0	523239424	51	5330
2026-01-07 08:42:23.82	51.95	27.57	-40.4	-43.3	14.7	0.00e+00	0	56	0	525336576	51	5285
2026-01-07 08:42:24.83	51.63	27.56	-40.6	-43.7	14.3	7.00e-07	0	56	0	527433728	51	5538
2026-01-07 08:42:25.84	51.30	27.55	-40.6	-43.8	14.2	1.50e-06	0	56	0	529530880	52	5298
2026-01-07 08:42:26.85	50.98	27.54	-40.8	-44.1	13.9	0.00e+00	0	56	0	531628032	52	5465
2026-01-07 08:42:27.86	50.66	27.53	-40.4	-43.4	14.6	1.50e-06	0	56	0	532676608	52	5043
2026-01-07 08:42:28.87	50.34	27.52	-40.1	-42.8	15.1	0.00e+00	0	56	0	534773760	52	4743
2026-01-07 08:42:29.88	50.02	27.50	-39.6	-42.0	15.9	0.00e+00	0	56	0	536870912	51	4583
2026-01-07 08:42:30.89	49.70	27.49	-39.2	-41.5	16.5	0.00e+00	0	56	0	538968064	50	4580
2026-01-07 08:42:31.90	49.38	27.48	-39.2	-41.4	16.6	0.00e+00	0	56	0	541065216	50	4516
2026-01-07 08:42:32.91	49.06	27.46	-39.3	-41.6	16.5	0.00e+00	0	56	0	542113792	50	4615
2026-01-07 08:42:33.92	48.75	27.44	-39.6	-42.0	16.1	0.00e+00	0	56	0	544210944	50	4849
2026-01-07 08:42:34.93	48.43	27.43	-39.7	-42.2	15.8	0.00e+00	0	56	0	546308096	50	4960
2026-01-07 08:42:35.94	48.11	27.41	-39.8	-42.4	15.6	0.00e+00	0	56	0	548405248	50	5082
2026-01-07 08:42:36.95	47.79	27.39	-39.5	-42.0	16.0	0.00e+00	0	56	0	550502400	50	4832
2026-01-07 08:42:37.96	47.47	27.37	-39.5	-41.9	16.1	0.00e+00	0	56	0	551550976	50	4771
2026-01-07 08:42:38.97	47.16	27.35	-39.4	-41.8	16.2	0.00e+00	0	56	0	553648128	50	4751
2026-01-07 08:42:39.98	46.84	27.33	-39.5	-41.9	16.1	0.00e+00	0	56	0	555745280	50	4787
2026-01-07 08:42:40.99	46.53	27.30	-39.5	-42.0	16.1	0.00e+00	0	56	0	557842432	50	4815
2026-01-07 08:42:41.99	46.21	27.28	-39.8	-42.3	15.7	0.00e+00	0	56	0	559939584	50	5002
2026-01-07 08:42:43.00	45.90	27.25	-40.0	-42.6	15.5	0.00e+00	0	56	0	562036736	50	5190
2026-01-07 08:42:44.02	45.58	27.23	-40.1	-42.7	15.3	0.00e+00	0	56	0	563085312	50	5278
2026-01-07 08:42:45.02	45.27	27.20	-39.9	-42.4	15.6	0.00e+00	0	56	0	565182464	50	5091
2026-01-07 08:42:46.03	44.96	27.17	-40.2	-42.9	15.2	0.00e+00	0	56	0	567279616	50	5344
2026-01-07 08:42:47.04	44.64	27.14	-40.0	-42.6	15.5	0.00e+00	0	56	0	569376768	50	5185
2026-01-07 08:42:48.05	44.33	27.11	-39.9	-42.4	15.7	0.00e+00	0	56	0	571473920	50	5078
2026-01-07 08:42:49.06	44.02	27.08	-40.1	-42.7	15.4	0.00e+00	0	56	0	572522496	50	5258
2026-01-07 08:42:50.07	43.71	27.05	-40.4	-43.2	14.9	0.00e+00	0	56	0	574619648	51	5245
2026-01-07 08:42:51.08	43.40	27.02	-40.7	-43.7	14.2	0.00e+00	0	56	0	576716800	52	5259
2026-01-07 08:42:52.09	43.09	26.99	-40.5	-43.4	14.6	0.00e+00	0	56	0	578813952	52	5096
2026-01-07 08:42:53.10	42.78	26.95	-40.4	-43.2	14.8	0.00e+00	0	56	0	580911104	52	4959
2026-01-07 08:42:54.11	42.47	26.92	-40.3	-43.1	14.9	0.00e+00	0	56	0	581959680	52	4882
2026-01-07 08:42:55.12	42.16	26.88	-40.3	-43.0	15.0	0.00e+00	0	56	0	584056832	52	4854
2026-01-07 08:42:56.13	41.86	26.84	-40.1	-42.6	15.4	7.00e-07	0	56	0	586153984	52	4639
2026-01-07 08:42:57.14	41.55	26.81	-40.1	-42.6	15.5	0.00e+00	0	56	0	588251136	51	4891
2026-01-07 08:42:58.15	41.25	26.77	-39.8	-42.2	15.9	0.00e+00	0	56	0	590348288	51	4685
2026-01-07 08:42:59.16	40.94	26.73	-39.9	-42.4	15.7	0.00e+00	0	56	0	591396864	51	4783
2026-01-07 08:43:00.17	40.64	26.69	-40.0	-42.5	15.5	0.00e+00	0	56	0	593494016	51	4867
2026-01-07 08:43:01.18	40.33	26.65	-40.1	-42.7	15.5	0.00e+00	0	56	0	595591168	51	4934
2026-01-07 08:43:02.19	40.03	26.61	-40.1	-42.7	15.4	0.00e+00	0	56	0	597688320	51	4965
2026-01-07 08:43:03.19	39.73	26.56	-40.1	-42.7	15.4	0.00e+00	0	56	0	599785472	51	4946
2026-01-07 08:43:04.20	39.43	26.52	-39.9	-42.4	15.7	0.00e+00	0	56	0	600834048	51	4763
2026-01-07 08:43:05.21	39.13	26.48	-40.2	-42.9	15.2	0.00e+00	0	56	0	602931200	51	5062
2026-01-07 08:43:06.22	38.83	26.43	-40.2	-42.9	15.4	0.00e+00	0	56	0	605028352	51	5059
2026-01-07 08:43:07.23	38.53	26.39	-40.4	-43.2	15.0	0.00e+00	0	56	0	607125504	51	5231
2026-01-07 08:43:08.24	38.24	26.34	-40.6	-43.4	14.7	0.00e+00	0	56	0	609222656	51	5389
2026-01-07 08:43:09.25	37.94	26.29	-40.7	-43.6	14.5	7.00e-07	0	56	0	610271232	51	5511
2026-01-07 08:43:10.26	37.65	26.24	-40.8	-43.9	14.2	7.00e-07	0	56	0	612368384	52	5349
2026-01-07 08:43:11.27	37.35	26.20	-40.9	-44.0	14.0	2.20e-06	0	56	0	614465536	52	5437
2026-01-07 08:43:12.28	37.06	26.15	-40.9	-44.1	14.0	7.60e-06	0	56	0	616562688	52	5474
2026-01-07 08:43:13.29	36.76	26.10	-40.9	-44.2	13.8	4.50e-06	0	56	0	618659840	52	5539
2026-01-07 08:43:14.30	36.47	26.05	-41.0	-44.3	13.8	6.10e-06	0	56	0	619708416	52	5595
2026-01-07 08:43:15.31	36.18	25.99	-41.2	-44.6	13.5	1.06e-05	0	56	0	621805568	52	5794
2026-01-07 08:43:16.32	35.89	25.94	-41.1	-44.5	13.5	9.10e-06	0	56	0	623902720	53	5433
2026-01-07 08:43:17.33	35.60	25.89	-40.9	-44.1	13.9	5.30e-06	0	56	0	625999872	53	5197
2026-01-07 08:43:18.34	35.32	25.83	-41.1	-44.5	13.5	9.10e-06	0	56	0	628097024	53	5416
2026-01-07 08:43:19.35	35.03	25.78	-41.1	-44.5	13.5	6.80e-06	0	56	0	630194176	53	5430
2026-01-07 08:43:20.36	34.74	25.72	-41.1	-44.5	13.4	1.22e-05	0	56	0	631242752	53	5460
2026-01-07 08:43:21.37	34.46	25.67	-40.9	-44.3	13.7	9.10e-06	0	56	0	633339904	53	5285
2026-01-07 08:43:22.38	34.17	25.61	-40.9	-44.1	13.8	3.80e-06	0	56	0	635437056	53	5199
2026-01-07 08:43:23.39	33.89	25.56	-40.7	-43.8	14.2	7.00e-07	0	56	0	637534208	53	4993
2026-01-07 08:43:24.39	33.61	25.50	-40.7	-43.9	14.1	3.00e-06	0	56	0	639631360	53	5046
2026-01-07 08:43:25.40	33.33	25.44	-40.6	-43.6	14.3	2.20e-06	0	56	0	640679936	53	4919
2026-01-07 08:43:26.41	33.05	25.38	-40.5	-43.6	14.3	7.00e-07	0	56	0	642777088	53	4897
2026-01-07 08:43:27.42	32.77	25.32	-40.5	-43.5	14.6	0.00e+00	0	56	0	644874240	52	5106
2026-01-07 08:43:28.43	32.49	25.26	-40.4	-43.4	14.5	0.00e+00	0	56	0	646971392	52	5065
2026-01-07 08:43:29.44	32.22	25.20	-40.4	-43.4	14.6	0.00e+00	0	56	0	649068544	52	5095
2026-01-07 08:43:30.45	31.94	25.14	-40.4	-43.5	14.4	0.00e+00	0	56	0	650117120	52	5113
2026-01-07 08:43:31.46	31.67	25.08	-40.3	-43.2	14.7	7.00e-07	0	56	0	652214272	52	4953
2026-01-07 08:43:32.47	31.40	25.01	-40.1	-42.8	15.2	0.00e+00	0	56	0	654311424	51	5022
2026-01-07 08:43:33.48	31.12	24.95	-39.9	-42.6	15.3	0.00e+00	0	56	0	656408576	51	4903
2026-01-07 08:43:34.50	30.85	24.89	-39.9	-42.5	15.4	0.00e+00	0	56	0	658505728	51	4854
2026-01-07 08:43:35.51	30.58	24.82	-40.1	-42.9	15.1	0.00e+00	0	56	0	659554304	51	5086
2026-01-07 08:43:36.51	30.31	24.76	-40.4	-43.5	14.6	7.00e-07	0	56	0	661651456	51	5405
2026-01-07 08:43:37.52	30.05	24.69	-40.8	-44.2	13.8	3.00e-06	0	56	0	663748608	52	5550
2026-01-07 08:43:38.53	29.78	24.63	-40.8	-44.2	13.7	4.50e-06	0	56	0	665845760	52	5561
2026-01-07 08:43:39.54	29.51	24.56	-40.8	-44.1	13.8	5.30e-06	0	56	0	667942912	52	5516
2026-01-07 08:43:40.55	29.25	24.50	-40.7	-44.0	13.9	1.50e-06	0	56	0	668991488	52	5427
2026-01-07 08:43:41.56	28.99	24.43	-40.9	-44.4	13.5	8.30e-06	0	56	0	671088640	52	5697
2026-01-07 08:43:42.57	28.72	24.36	-40.7	-44.1	13.8	1.52e-05	0	56	0	673185792	52	5500
2026-01-07 08:43:43.58	28.46	24.29	-40.9	-44.4	13.6	4.50e-06	0	56	0	675282944	52	5673
2026-01-07 08:43:44.59	28.20	24.22	-40.8	-44.2	13.8	1.14e-05	0	56	0	677380096	52	5537
2026-01-07 08:43:45.59	27.95	24.16	-40.7	-44.0	13.9	2.20e-06	0	56	0	678428672	52	5414
2026-01-07 08:43:46.60	27.69	24.09	-40.5	-43.6	14.3	7.00e-07	0	56	0	680525824	52	5208
2026-01-07 08:43:47.61	27.43	24.02	-40.5	-43.6	14.3	0.00e+00	0	56	0	682622976	52	5200
2026-01-07 08:43:48.62	27.18	23.95	-40.4	-43.5	14.4	0.00e+00	0	56	0	684720128	52	5147
2026-01-07 08:43:49.63	26.92	23.87	-40.4	-43.5	14.4	2.20e-06	0	56	0	686817280	52	5136
2026-01-07 08:43:50.64	26.67	23.80	-40.4	-43.4	14.5	0.00e+00	0	56	0	687865856	52	5077
2026-01-07 08:43:51.65	26.42	23.73	-40.7	-44.0	13.9	1.50e-06	0	56	0	689963008	52	5453
2026-01-07 08:43:52.66	26.17	23.66	-40.6	-43.7	14.2	2.20e-06	0	56	0	692060160	52	5266
2026-01-07 08:43:53.67	25.92	23.59	-40.6	-43.7	14.3	1.50e-06	0	56	0	694157312	52	5220
2026-01-07 08:43:54.68	25.67	23.51	-40.3	-43.3	14.6	7.00e-07	0	56	0	696254464	52	5016
2026-01-07 08:43:55.69	25.43	23.44	-40.1	-42.8	15.1	0.00e+00	0	56	0	697303040	52	4758
2026-01-07 08:43:56.70	25.18	23.37	-40.0	-42.6	15.3	0.00e+00	0	56	0	699400192	51	4924
2026-01-07 08:43:57.71	24.93	23.29	-39.7	-42.3	15.7	0.00e+00	0	56	0	701497344	51	4744
2026-01-07 08:43:58.72	24.69	23.22	-39.7	-42.2	15.8	0.00e+00	0	56	0	703594496	51	4681
2026-01-07 08:43:59.73	24.45	23.15	-39.7	-42.3	15.7	0.00e+00	0	56	0	705691648	51	4716
2026-01-07 08:44:00.74	24.21	23.07	-39.7	-42.3	15.7	0.00e+00	0	56	0	707788800	51	4737
2026-01-07 08:44:01.75	23.97	23.00	-39.7	-42.2	15.7	0.00e+00	0	56	0	708837376	51	4689
2026-01-07 08:44:02.76	23.73	22.92	-39.8	-42.4	15.5	0.00e+00	0	56	0	710934528	51	4812
2026-01-07 08:44:03.77	23.49	22.84	-39.7	-42.2	15.7	0.00e+00	0	56	0	713031680	51	4693
2026-01-07 08:44:04.78	23.26	22.77	-39.6	-42.2	15.8	0.00e+00	0	56	0	715128832	51	4669
2026-01-07 08:44:05.79	23.02	22.69	-39.6	-42.1	15.9	0.00e+00	0	56	0	717225984	51	4627
2026-01-07 08:44:06.80	22.79	22.61	-39.5	-42.0	15.9	0.00e+00	0	56	0	718274560	51	4585
2026-01-07 08:44:07.81	22.55	22.54	-39.5	-42.0	15.9	0.00e+00	0	56	0	720371712	50	4854
2026-01-07 08:44:08.82	22.32	22.46	-39.4	-41.8	16.1	0.00e+00	0	56	0	722468864	50	4753
2026-01-07 08:44:09.83	22.09	22.38	-39.2	-41.5	16.5	0.00e+00	0	56	0	724566016	50	4556
2026-01-07 08:44:10.84	21.86	22.31	-38.9	-41.1	16.8	0.00e+00	0	56	0	725614592	49	4638
2026-01-07 08:44:11.84	21.64	22.23	-38.8	-40.9	16.9	0.00e+00	0	56	0	727711744	49	4526
2026-01-07 08:44:12.85	21.41	22.15	-38.7	-40.9	17.0	0.00e+00	0	56	0	729808896	49	4512
2026-01-07 08:44:13.86	21.18	22.07	-39.0	-41.2	16.6	0.00e+00	0	56	0	731906048	49	4689
2026-01-07 08:44:14.87	20.96	21.99	-39.2	-41.5	16.4	0.00e+00	0	56	0	734003200	49	4863
2026-01-07 08:44:15.88	20.73	21.91	-39.3	-41.7	16.2	0.00e+00	0	56	0	736100352	49	4938
2026-01-07 08:44:16.89	20.51	21.83	-39.5	-42.0	15.9	0.00e+00	0	56	0	737148928	49	5149
2026-01-07 08:44:17.90	20.29	21.75	-39.6	-42.2	15.7	0.00e+00	0	56	0	739246080	49	5255
2026-01-07 08:44:18.91	20.07	21.67	-39.8	-42.6	15.4	0.00e+00	0	56	0	741343232	50	5161
2026-01-07 08:44:19.92	19.85	21.60	-40.1	-42.9	15.0	0.00e+00	0	56	0	743440384	50	5369
2026-01-07 08:44:20.93	19.63	21.52	-40.0	-42.7	15.2	0.00e+00	0	56	0	745537536	50	5273
2026-01-07 08:44:21.94	19.42	21.43	-39.9	-42.6	15.3	0.00e+00	0	56	0	746586112	50	5199
2026-01-07 08:44:22.95	19.20	21.35	-39.8	-42.5	15.4	0.00e+00	0	56	0	748683264	50	5108
2026-01-07 08:44:23.96	18.99	21.27	-39.8	-42.5	15.5	0.00e+00	0	56	0	750780416	50	5118
2026-01-07 08:44:24.97	18.77	21.19	-39.7	-42.3	15.6	0.00e+00	0	56	0	752877568	50	4986
2026-01-07 08:44:25.98	18.56	21.11	-39.9	-42.5	15.5	0.00e+00	0	56	0	754974720	50	5133
2026-01-07 08:44:26.99	18.35	21.03	-39.9	-42.6	15.4	0.00e+00	0	56	0	756023296	50	5201
2026-01-07 08:44:28.00	18.14	20.95	-39.8	-42.4	15.6	0.00e+00	0	56	0	758120448	50	5088
2026-01-07 08:44:29.01	17.93	20.87	-39.6	-42.2	15.8	0.00e+00	0	56	0	760217600	50	4931
2026-01-07 08:44:30.02	17.72	20.79	-39.2	-41.5	16.4	0.00e+00	0	56	0	762314752	50	4590
2026-01-07 08:44:31.03	17.52	20.71	-38.9	-41.0	16.9	0.00e+00	0	56	0	764411904	49	4596
2026-01-07 08:44:32.03	17.31	20.62	-38.6	-40.7	17.3	0.00e+00	0	56	0	765460480	49	4395
2026-01-07 08:44:33.04	17.11	20.54	-38.6	-40.7	17.2	0.00e+00	0	56	0	767557632	49	4424
2026-01-07 08:44:34.05	16.91	20.46	-38.6	-40.7	17.2	0.00e+00	0	56	0	769654784	49	4417
2026-01-07 08:44:35.06	16.70	20.38	-38.6	-40.6	17.3	0.00e+00	0	56	0	771751936	48	4650
2026-01-07 08:44:36.07	16.50	20.30	-38.8	-40.9	17.1	0.00e+00	0	56	0	773849088	48	4800
2026-01-07 08:44:37.08	16.30	20.21	-38.8	-40.9	17.0	0.00e+00	0	56	0	774897664	48	4814
2026-01-07 08:44:38.09	16.10	20.13	-38.9	-41.0	16.9	0.00e+00	0	56	0	776994816	48	4854
2026-01-07 08:44:39.10	15.91	20.05	-38.9	-41.1	16.8	0.00e+00	0	56	0	779091968	48	4888
2026-01-07 08:44:40.11	15.71	19.97	-38.9	-41.1	16.8	0.00e+00	0	56	0	781189120	48	4916
2026-01-07 08:44:41.12	15.51	19.88	-38.9	-41.2	16.8	0.00e+00	0	56	0	783286272	48	4927
2026-01-07 08:44:42.13	15.32	19.80	-38.9	-41.1	16.8	0.00e+00	0	56	0	784334848	48	4920
2026-01-07 08:44:43.13	15.13	19.72	-39.1	-41.4	16.5	0.00e+00	0	56	0	786432000	48	5066
2026-01-07 08:44:44.15	14.93	19.64	-39.1	-41.4	16.6	0.00e+00	0	56	0	788529152	48	5046
2026-01-07 08:44:45.16	14.74	19.55	-39.0	-41.3	16.6	0.00e+00	0	56	0	790626304	48	5006
2026-01-07 08:44:46.17	14.55	19.47	-39.1	-41.3	16.6	0.00e+00	0	56	0	792723456	48	5022
2026-01-07 08:44:47.18	14.36	19.39	-39.1	-41.3	16.6	0.00e+00	0	56	0	793772032	48	5033
2026-01-07 08:44:48.19	14.17	19.30	-39.1	-41.4	16.5	0.00e+00	0	56	0	795869184	48	5073
2026-01-07 08:44:49.20	13.99	19.22	-39.2	-41.5	16.4	0.00e+00	0	56	0	797966336	49	4842
2026-01-07 08:44:50.21	13.80	19.14	-39.3	-41.7	16.2	0.00e+00	0	56	0	800063488	49	4951
2026-01-07 08:44:51.22	13.62	19.06	-39.4	-41.8	16.1	0.00e+00	0	56	0	802160640	49	5006
2026-01-07 08:44:52.23	13.43	18.97	-39.3	-41.6	16.3	0.00e+00	0	56	0	804257792	49	4897
2026-01-07 08:44:53.24	13.25	18.89	-39.5	-42.0	16.0	0.00e+00	0	56	0	805306368	49	5107
2026-01-07 08:44:54.24	13.07	18.81	-39.4	-41.7	16.2	0.00e+00	0	56	0	807403520	49	4962
2026-01-07 08:44:55.25	12.89	18.72	-39.4	-41.7	16.2	0.00e+00	0	56	0	809500672	49	4967
2026-01-07 08:44:56.26	12.71	18.64	-39.2	-41.4	16.4	0.00e+00	0	56	0	811597824	49	4812
2026-01-07 08:44:57.28	12.53	18.56	-39.1	-41.4	16.5	0.00e+00	0	56	0	813694976	49	4791
2026-01-07 08:44:58.29	12.35	18.47	-39.0	-41.2	16.7	0.00e+00	0	56	0	814743552	49	4659
2026-01-07 08:44:59.29	12.17	18.39	-39.0	-41.2	16.7	0.00e+00	0	56	0	816840704	49	4662
2026-01-07 08:45:00.31	12.00	18.31	-38.9	-41.0	16.8	0.00e+00	0	56	0	818937856	49	4591
2026-01-07 08:45:01.32	11.82	18.22	-38.9	-41.1	16.7	0.00e+00	0	56	0	821035008	49	4615
2026-01-07 08:45:02.33	11.65	18.14	-39.2	-41.5	16.3	0.00e+00	0	56	0	823132160	49	4846
2026-01-07 08:45:03.34	11.47	18.06	-39.4	-41.8	16.0	0.00e+00	0	56	0	824180736	49	5033
2026-01-07 08:45:04.35	11.30	17.97	-39.6	-42.1	15.7	0.00e+00	0	56	0	826277888	49	5184
2026-01-07 08:45:05.35	11.13	17.89	-39.8	-42.5	15.4	0.00e+00	0	56	0	828375040	50	5110
2026-01-07 08:45:06.37	10.96	17.81	-40.0	-42.7	15.2	0.00e+00	0	56	0	830472192	50	5237
2026-01-07 08:45:07.38	10.79	17.72	-40.0	-42.7	15.2	0.00e+00	0	56	0	832569344	50	5234
2026-01-07 08:45:08.39	10.62	17.64	-39.9	-42.6	15.3	0.00e+00	0	56	0	833617920	50	5177
2026-01-07 08:45:09.39	10.46	17.56	-39.8	-42.5	15.4	0.00e+00	0	57	0	835715072	50	5112
2026-01-07 08:45:10.40	10.29	17.47	-39.8	-42.4	15.4	0.00e+00	0	56	0	837812224	50	5069
2026-01-07 08:45:11.41	10.12	17.39	-39.5	-42.0	15.8	0.00e+00	0	56	0	839909376	50	4851
2026-01-07 08:45:12.42	9.96	17.31	-39.5	-42.1	15.8	0.00e+00	0	56	0	842006528	50	4875
2026-01-07 08:45:13.43	9.80	17.22	-39.6	-42.1	15.7	0.00e+00	0	56	0	843055104	50	4893
2026-01-07 08:45:14.44	9.63	17.14	-39.4	-41.8	15.9	0.00e+00	0	56	0	845152256	50	4744
2026-01-07 08:45:15.45	9.47	17.06	-39.6	-42.1	15.7	0.00e+00	0	56	0	847249408	50	4889
2026-01-07 08:45:16.46	9.31	16.98	-39.6	-42.2	15.5	0.00e+00	0	56	0	849346560	50	4970
2026-01-07 08:45:17.47	9.15	16.89	-39.7	-42.4	15.4	0.00e+00	0	56	0	851443712	50	5044
2026-01-07 08:45:18.48	8.99	16.81	-39.8	-42.4	15.4	0.00e+00	0	56	0	852492288	50	5064
2026-01-07 08:45:19.49	8.83	16.73	-40.0	-42.8	15.0	0.00e+00	0	56	0	854589440	50	5285
2026-01-07 08:45:20.50	8.68	16.64	-40.1	-43.0	14.7	0.00e+00	0	56	0	856686592	50	5423
2026-01-07 08:45:21.51	8.52	16.56	-40.3	-43.3	14.4	0.00e+00	0	56	0	858783744	51	5300
2026-01-07 08:45:22.52	8.36	16.48	-40.5	-43.7	13.9	0.00e+00	0	56	0	860880896	51	5576
2026-01-07 08:45:23.53	8.21	16.40	-40.4	-43.6	14.1	2.20e-06	0	56	0	861929472	51	5469
2026-01-07 08:45:24.54	8.06	16.31	-40.4	-43.4	14.2	3.00e-06	0	56	0	864026624	51	5397
2026-01-07 08:45:25.55	7.90	16.23	-40.2	-43.1	14.6	3.00e-06	0	56	0	866123776	51	5176
2026-01-07 08:45:26.56	7.75	16.15	-40.0	-42.9	14.8	7.00e-07	0	57	0	868220928	51	5046
2026-01-07 08:45:27.57	7.60	16.07	-39.6	-42.2	15.4	0.00e+00	0	56	0	870318080	51	4655
2026-01-07 08:45:28.58	7.45	15.99	-39.7	-42.3	15.3	0.00e+00	0	56	0	872415232	50	4992
2026-01-07 08:45:29.59	7.30	15.90	-39.6	-42.2	15.4	0.00e+00	0	56	0	873463808	50	4959
2026-01-07 08:45:30.60	7.15	15.82	-39.6	-42.2	15.4	0.00e+00	0	56	0	875560960	50	4940
2026-01-07 08:45:31.61	7.00	15.74	-39.8	-42.5	15.0	7.00e-07	0	56	0	877658112	50	5157
2026-01-07 08:45:32.62	6.85	15.66	-39.9	-42.7	14.8	0.00e+00	0	56	0	879755264	50	5240
2026-01-07 08:45:33.63	6.71	15.58	-40.1	-43.1	14.4	0.00e+00	0	56	0	881852416	50	5478
2026-01-07 08:45:34.64	6.56	15.49	-40.0	-42.9	14.6	2.20e-06	0	56	0	882900992	50	5374
2026-01-07 08:45:35.65	6.42	15.41	-40.1	-43.2	14.3	7.00e-07	0	56	0	884998144	50	5539
2026-01-07 08:45:36.66	6.27	15.33	-40.1	-43.1	14.4	1.50e-06	0	56	0	887095296	51	5171
2026-01-07 08:45:37.67	6.13	15.25	-40.0	-42.9	14.5	0.00e+00	0	56	0	889192448	51	5100
2026-01-07 08:45:38.68	5.99	15.17	-39.9	-42.8	14.6	7.00e-07	0	56	0	891289600	51	4997
2026-01-07 08:45:39.69	5.85	15.09	-39.9	-42.8	14.6	1.50e-06	0	56	0	892338176	51	4984
2026-01-07 08:45:40.70	5.71	15.01	-39.7	-42.6	14.7	0.00e+00	0	56	0	894435328	51	4907
2026-01-07 08:45:41.71	5.57	14.92	-39.6	-42.4	14.9	0.00e+00	0	56	0	896532480	50	5049
2026-01-07 08:45:42.72	5.43	14.84	-39.7	-42.6	14.6	1.50e-06	0	56	0	898629632	50	5163
2026-01-07 08:45:43.73	5.29	14.76	-39.4	-42.1	15.0	0.00e+00	0	56	0	900726784	50	4905
2026-01-07 08:45:44.74	5.15	14.68	-39.4	-42.1	15.0	0.00e+00	0	56	0	901775360	50	4907
2026-01-07 08:45:45.75	5.02	14.60	-39.4	-42.2	14.7	0.00e+00	0	56	0	903872512	50	4980
2026-01-07 08:45:46.76	4.88	14.52	-39.3	-42.2	14.7	7.00e-07	0	56	0	905969664	50	4942
2026-01-07 08:45:47.76	4.75	14.44	-39.1	-41.9	14.9	0.00e+00	0	57	0	908066816	50	4801
2026-01-07 08:45:48.77	4.61	14.36	-39.2	-42.1	14.7	0.00e+00	0	56	0	910163968	50	4891
2026-01-07 08:45:49.78	4.48	14.28	-39.4	-42.5	14.2	7.00e-07	0	56	0	911212544	50	5148
2026-01-07 08:45:50.79	4.34	14.20	-39.5	-42.7	13.9	7.00e-07	0	57	0	913309696	50	5243
2026-01-07 08:45:51.80	4.21	14.12	-39.7	-43.2	13.4	5.30e-06	0	56	0	915406848	50	5530
2026-01-07 08:45:52.81	4.08	14.04	-39.6	-42.9	13.6	7.60e-06	0	56	0	917504000	50	5389
2026-01-07 08:45:53.82	3.95	13.96	-39.4	-42.6	13.8	9.10e-06	0	56	0	919601152	50	5210
2026-01-07 08:45:54.83	3.82	13.88	-39.0	-42.0	14.4	7.00e-07	0	56	0	920649728	50	4831
2026-01-07 08:45:55.84	3.69	13.80	-39.0	-42.0	14.4	7.00e-07	0	56	0	922746880	50	4828
2026-01-07 08:45:56.85	3.56	13.72	-38.8	-41.8	14.3	0.00e+00	0	56	0	924844032	49	4991
2026-01-07 08:45:57.86	3.43	13.64	-38.9	-42.0	14.1	3.00e-06	0	56	0	926941184	49	5111
2026-01-07 08:45:58.87	3.31	13.56	-39.1	-42.4	13.5	2.20e-06	0	56	0	929038336	49	5374
2026-01-07 08:45:59.88	3.18	13.48	-39.1	-42.6	13.1	1.67e-05	0	56	0	930086912	49	5521
2026-01-07 08:46:00.89	3.05	13.41	-39.6	-43.6	12.0	1.21e-04	0	56	0	932184064	49	6182
2026-01-07 08:46:01.90	2.93	13.33	-40.0	-44.7	10.6	9.47e-04	0	56	0	934281216	50	6640
2026-01-07 08:46:02.91	2.80	13.25	-40.3	-45.9	9.3	1.10e-02	0	56	0	936378368	51	7164
2026-01-07 08:46:03.92	2.68	13.17	-40.5	-47.0	7.9	4.41e-02	0	56	0	938475520	51	8146
2026-01-07 08:46:04.92	2.56	13.09	-40.7	-48.4	6.4	1.37e-01	0	56	0	940572672	52	9044
2026-01-07 08:46:05.94	2.43	13.01	-40.8	-49.7	5.4	4.48e-01	0	56	0	941621248	52	10448
2026-01-07 08:46:06.95	2.31	12.93	-40.9	-51.1	4.5	7.72e-01	0	57	0	943718400	52	12362
2026-01-07 08:46:07.96	2.19	12.86	-40.9	-52.6	4.1	1.32e+00	0	57	0	944766976	52	14604
2026-01-07 08:46:08.97	2.07	12.78	-40.8	-53.3	3.8	1.48e+00	0	56	104	944766976	52	15919
2026-01-07 08:46:09.98	1.95	12.70	-40.7	-53.9	3.8	1.49e+00	0	56	104	944766976	52	16987
2026-01-07 08:46:10.99	1.83	12.62	-40.6	-54.2	3.8	1.49e+00	0	56	104	944766976	52	17642
2026-01-07 08:46:12.00	1.71	12.54	-40.5	-54.3	3.8	1.49e+00	0	56	104	944766976	52	17828
2026-01-07 08:46:13.01	1.59	12.47	-41.2	-54.6	3.8	1.49e+00	0	56	104	944766976	52	18348
2026-01-07 08:46:14.02	1.48	12.39	-40.1	-54.6	3.8	1.49e+00	0	56	104	944766976	52	18402
2026-01-07 08:46:15.03	1.36	12.31	-40.1	-54.6	3.8	1.49e+00	0	56	104	944766976	52	18434
2026-01-07 08:46:16.04	1.24	12.24	-40.5	-54.9	3.8	1.49e+00	0	56	104	944766976	52	19079
2026-01-07 08:46:17.05	1.13	12.16	-40.1	-54.6	3.8	1.49e+00	0	56	104	944766976	52	18442
2026-01-07 08:46:18.06	1.01	12.08	-40.4	-54.9	3.8	1.49e+00	0	56	104	944766976	52	18969
2026-01-07 08:46:19.07	0.90	12.00	-40.6	-54.8	3.8	1.49e+00	0	56	104	944766976	52	18768
2026-01-07 08:46:20.08	0.79	11.93	-40.0	-54.5	3.8	1.49e+00	0	56	104	944766976	52	18184
2026-01-07 08:46:21.09	0.67	11.85	-40.4	-54.7	3.8	1.49e+00	0	56	104	944766976	52	18663
2026-01-07 08:46:22.10	0.56	11.78	-40.0	-54.5	3.8	1.49e+00	0	56	104	944766976	52	18257
2026-01-07 08:46:23.11	0.45	11.70	-39.9	-54.6	3.8	1.49e+00	0	56	104	944766976	51	19510
2026-01-07 08:46:24.12	0.34	11.62	-40.2	-54.7	3.8	1.49e+00	0	56	104	944766976	51	19774
2026-01-07 08:46:25.13	0.23	11.55	-39.7	-54.6	3.8	1.49e+00	0	56	104	944766976	51	19406
2026-01-07 08:46:26.14	0.12	11.47	-40.1	-54.7	3.8	1.49e+00	0	56	104	944766976	51	19693
2026-01-07 08:46:27.15	0.01	11.40	-40.1	-54.7	3.8	1.49e+00	0	56	104	944766976	51	19708
2026-01-07 08:46:28.16	359.90	11.32	-39.9	-54.5	3.8	1.49e+00	0	56	104	944766976	51	19358
2026-01-07 08:46:29.17	359.79	11.24	-40.0	-54.6	3.8	1.49e+00	0	56	104	944766976	51	19570
2026-01-07 08:46:30.18	359.68	11.17	-39.8	-54.5	3.8	1.49e+00	0	57	104	944766976	51	19243
2026-01-07 08:46:31.19	359.58	11.09	-39.6	-54.4	3.8	1.49e+00	0	56	104	944766976	51	18965
2026-01-07 08:46:32.19	359.47	11.02	-40.0	-54.6	3.8	1.49e+00	0	56	104	944766976	51	19425
2026-01-07 08:46:33.20	359.36	10.94	-39.6	-54.2	3.8	1.49e+00	0	56	104	944766976	51	18727
2026-01-07 08:46:34.21	359.26	10.87	-39.8	-54.5	3.8	1.49e+00	0	56	104	944766976	51	19260
2026-01-07 08:46:35.22	359.15	10.79	-39.6	-54.2	3.8	1.49e+00	0	56	104	944766976	51	18645
2026-01-07 08:46:36.23	359.05	10.72	-39.5	-54.3	3.8	1.49e+00	0	56	104	944766976	51	18864
2026-01-07 08:46:37.24	358.95	10.65	-39.6	-54.0	3.8	1.49e+00	0	56	104	944766976	51	18281
2026-01-07 08:46:38.25	358.84	10.57	-39.5	-54.3	3.8	1.49e+00	0	56	104	944766976	51	18761
2026-01-07 08:46:39.26	358.74	10.50	-39.6	-54.0	3.8	1.49e+00	0	56	104	944766976	51	18251
2026-01-07 08:46:40.27	358.64	10.42	-39.5	-54.3	3.8	1.49e+00	0	56	104	944766976	51	18926
2026-01-07 08:46:41.28	358.54	10.35	-39.5	-54.3	3.8	1.49e+00	0	56	104	944766976	50	19865
2026-01-07 08:46:42.29	358.44	10.28	-39.5	-54.4	3.8	1.49e+00	0	56	104	944766976	50	20183
2026-01-07 08:46:43.30	358.34	10.20	-39.8	-54.4	3.8	1.49e+00	0	57	104	944766976	50	20148
2026-01-07 08:46:44.31	358.24	10.13	-39.6	-54.4	3.8	1.49e+00	0	56	104	944766976	50	20116
2026-01-07 08:46:45.32	358.14	10.06	-39.8	-54.5	3.8	1.49e+00	0	56	104	944766976	50	20310
2026-01-07 08:46:46.33	358.04	9.98	-39.3	-54.4	3.8	1.49e+00	0	56	104	944766976	50	20111
2026-01-07 08:46:47.34	357.94	9.91	-39.1	-54.4	3.8	1.49e+00	0	56	104	944766976	50	20118
2026-01-07 08:46:48.35	357.84	9.84	-39.6	-54.4	3.8	1.49e+00	0	57	104	944766976	50	20158
2026-01-07 08:46:49.36	357.74	9.76	-39.0	-54.4	3.8	1.49e+00	0	56	104	944766976	50	20090
2026-01-07 08:46:50.37	357.65	9.69	-39.6	-54.4	3.8	1.49e+00	0	57	104	944766976	50	20251
2026-01-07 08:46:51.38	357.55	9.62	-39.1	-54.4	3.8	1.49e+00	0	56	104	944766976	50	20192
2026-01-07 08:46:52.39	357.45	9.55	-39.0	-54.4	3.8	1.49e+00	0	56	104	944766976	49	21365
2026-01-07 08:46:53.40	357.36	9.47	-39.0	-54.4	3.8	1.49e+00	0	56	104	944766976	49	21313
2026-01-07 08:46:54.41	357.26	9.40	-39.0	-54.3	3.8	1.49e+00	0	57	104	944766976	49	21177
2026-01-07 08:46:55.42	357.17	9.33	-39.4	-54.3	3.8	1.49e+00	0	56	104	944766976	49	21119
2026-01-07 08:46:56.43	357.08	9.26	-39.0	-54.3	3.8	1.49e+00	0	57	104	944766976	49	21182
2026-01-07 08:46:57.44	356.98	9.19	-39.4	-54.3	3.8	1.49e+00	0	56	104	944766976	49	21069
2026-01-07 08:46:58.45	356.89	9.11	-39.0	-54.3	3.8	1.49e+00	0	57	104	944766976	49	21177
2026-01-07 08:46:59.46	356.80	9.04	-39.4	-54.3	3.8	1.49e+00	0	57	104	944766976	49	21168
2026-01-07 08:47:00.47	356.70	8.97	-39.6	-54.3	3.8	1.49e+00	0	56	104	944766976	49	21103
2026-01-07 08:47:01.48	356.61	8.90	-39.6	-54.3	3.8	1.49e+00	0	57	104	944766976	49	21166
2026-01-07 08:47:02.49	356.52	8.83	-39.6	-54.3	3.8	1.49e+00	0	56	104	944766976	49	21116
2026-01-07 08:47:03.50	356.43	8.76	-39.7	-54.5	3.8	1.49e+00	0	56	104	944766976	50	20310
2026-01-07 08:47:04.51	356.34	8.69	-39.7	-54.3	3.8	1.49e+00	0	57	104	944766976	50	19923
2026-01-07 08:47:05.51	356.25	8.62	-39.7	-54.3	3.8	1.49e+00	0	56	104	944766976	50	20032
2026-01-07 08:47:06.53	356.16	8.55	-39.5	-54.3	3.8	1.49e+00	0	56	104	944766976	50	20000
2026-01-07 08:47:07.54	356.07	8.47	-39.7	-54.4	3.8	1.49e+00	0	57	104	944766976	50	20225
2026-01-07 08:47:08.55	355.98	8.40	-39.7	-54.4	3.8	1.49e+00	0	57	104	944766976	50	20255
2026-01-07 08:47:09.56	355.90	8.33	-39.7	-54.5	3.8	1.49e+00	0	57	104	944766976	50	20371
2026-01-07 08:47:10.57	355.81	8.26	-39.8	-54.5	3.8	1.49e+00	0	57	104	944766976	50	20378
2026-01-07 08:47:11.58	355.72	8.19	-39.7	-54.5	3.8	1.49e+00	0	57	104	944766976	50	20348
2026-01-07 08:47:12.59	355.63	8.12	-39.7	-54.5	3.8	1.49e+00	0	56	104	944766976	50	20445
2026-01-07 08:47:13.59	355.55	8.06	-39.7	-54.5	3.8	1.49e+00	0	56	104	944766976	50	20374
2026-01-07 08:47:14.61	355.46	7.99	-39.3	-54.3	3.8	1.49e+00	0	56	104	944766976	50	19971
2026-01-07 08:47:15.62	355.38	7.92	-42.6	-57.2	3.8	1.49e+00	0	56	104	944766976	55	20943
2026-01-07 08:47:16.63	355.29	7.85	-44.5	-59.1	3.8	1.49e+00	0	56	104	944766976	59	20553
2026-01-07 08:47:17.64	355.21	7.78	-44.8	-59.5	3.8	1.49e+00	0	57	104	944766976	60	20437
2026-01-07 08:47:18.65	355.12	7.71	-45.0	-59.7	3.8	1.49e+00	0	56	104	944766976	60	21006
2026-01-07 08:47:19.66	355.04	7.64	-45.1	-59.9	3.8	1.49e+00	0	56	104	944766976	60	21294
2026-01-07 08:47:20.67	354.96	7.57	-45.2	-59.9	3.8	1.49e+00	0	57	104	944766976	60	21447
2026-01-07 08:47:21.68	354.87	7.50	-45.2	-60.0	3.8	1.49e+00	0	57	104	944766976	61	20350
2026-01-07 08:47:22.70	354.79	7.43	-45.2	-60.0	3.8	1.49e+00	0	57	104	944766976	61	20370
2026-01-07 08:47:23.70	354.71	7.36	-45.2	-60.0	3.8	1.49e+00	0	56	104	944766976	61	20427
2026-01-07 08:47:24.72	354.63	7.30	-45.2	-60.0	3.8	1.49e+00	0	56	104	944766976	61	20372
2026-01-07 08:47:25.73	354.55	7.23	-45.2	-60.0	3.8	1.49e+00	0	56	104	944766976	60	21662
2026-01-07 08:47:26.74	354.46	7.16	-44.8	-59.9	3.8	1.49e+00	0	56	104	944766976	60	21396
2026-01-07 08:47:27.75	354.38	7.09	-45.1	-59.9	3.8	1.49e+00	0	56	104	944766976	60	21433
2026-01-07 08:47:28.76	354.30	7.02	-45.1	-59.9	3.8	1.49e+00	0	57	104	944766976	60	21401
2026-01-07 08:47:29.77	354.22	6.96	-45.1	-59.9	3.8	1.49e+00	0	57	104	944766976	60	21409
2026-01-07 08:47:30.78	354.15	6.89	-45.1	-59.9	3.8	1.49e+00	0	57	104	944766976	60	21359
2026-01-07 08:47:31.79	354.07	6.82	-45.1	-59.9	3.8	1.49e+00	0	57	104	944766976	60	21322
2026-01-07 08:47:32.80	353.99	6.75	-45.1	-59.9	3.8	1.49e+00	0	57	104	944766976	60	21383
