passes_logs/2026/01/07/R2.0S_Moscow/R2.0S_Moscow__20260107_002422_SUOMI_NPP_rec.log

#Pass ID: 20260107_002422_SUOMI NPP
#Satellite: SUOMI NPP
#Configuration: NPP
#almurnet v.1.7.20251203
#Start time: 2026-01-07 00:24:24

#Version: 2.2.20231116
#Station: R2.0S_Moscow
#Location: 37.707566 lon 55.798166 lat
#TLE: 1 37849U 11061A   26005.94084933  .00000134  00000+0  84554-4 0  9990
#TLE: 2 37849  98.7803 308.0679 0002567  79.1029 281.0436 14.19522657735426

#Time	Az	El	Level	Level2	SNR	BER	BlckErr	Temp	State	Recorded	gain1	gain2
2026-01-07 00:24:24.42	13.48	2.12	-40.8	-55.2	3.8	1.49e+00	0	47	0	0	53	18706
2026-01-07 00:24:25.42	13.46	2.18	-40.8	-55.2	3.8	1.49e+00	0	47	104	0	53	18696
2026-01-07 00:24:26.43	13.43	2.25	-40.8	-55.2	3.8	1.49e+00	0	47	104	0	53	18693
2026-01-07 00:24:27.44	13.40	2.31	-40.8	-55.2	3.8	1.49e+00	0	48	104	0	53	18680
2026-01-07 00:24:28.46	13.38	2.37	-40.8	-55.2	3.8	1.49e+00	0	48	104	0	53	18641
2026-01-07 00:24:29.47	13.35	2.44	-40.8	-55.2	3.8	1.49e+00	0	48	104	0	53	18651
2026-01-07 00:24:30.48	13.33	2.50	-40.8	-55.2	3.8	1.49e+00	0	48	104	0	53	18611
2026-01-07 00:24:31.49	13.30	2.57	-40.8	-55.2	3.8	1.49e+00	0	48	104	0	53	18632
2026-01-07 00:24:32.50	13.28	2.63	-40.8	-55.2	3.8	1.49e+00	0	48	104	0	53	18647
2026-01-07 00:24:33.51	13.25	2.70	-40.8	-55.2	3.8	1.49e+00	0	48	104	0	53	18688
2026-01-07 00:24:34.52	13.22	2.76	-40.8	-55.2	3.8	1.49e+00	0	48	104	0	53	18690
2026-01-07 00:24:35.53	13.20	2.83	-40.8	-55.2	3.8	1.49e+00	0	48	104	0	53	18648
2026-01-07 00:24:36.54	13.17	2.89	-40.8	-55.2	3.8	1.49e+00	0	48	104	0	53	18679
2026-01-07 00:24:37.55	13.14	2.96	-40.8	-55.2	3.8	1.49e+00	0	48	104	0	53	18700
2026-01-07 00:24:38.56	13.12	3.02	-40.8	-55.2	3.8	1.49e+00	0	48	104	0	53	18644
2026-01-07 00:24:39.57	13.09	3.09	-40.8	-55.2	3.8	1.49e+00	0	48	104	0	53	18678
2026-01-07 00:24:40.58	13.06	3.15	-40.8	-55.2	3.8	1.49e+00	0	48	104	0	53	18627
2026-01-07 00:24:41.60	13.03	3.22	-40.8	-55.2	3.8	1.49e+00	0	49	104	0	53	18564
2026-01-07 00:24:42.61	13.01	3.29	-40.8	-55.2	3.8	1.49e+00	0	48	104	0	53	18572
2026-01-07 00:24:43.61	12.98	3.35	-40.8	-55.1	3.8	1.49e+00	0	49	104	0	53	18501
2026-01-07 00:24:44.63	12.95	3.42	-40.8	-55.1	3.8	1.49e+00	0	49	104	0	53	18480
2026-01-07 00:24:45.64	12.92	3.49	-40.8	-55.1	3.8	1.49e+00	0	49	104	0	53	18433
2026-01-07 00:24:46.65	12.90	3.55	-40.8	-55.1	3.8	1.49e+00	0	49	104	0	53	18398
2026-01-07 00:24:47.65	12.87	3.62	-40.8	-55.1	3.8	1.49e+00	0	49	104	0	53	18402
2026-01-07 00:24:48.66	12.84	3.69	-40.8	-55.0	3.8	1.49e+00	0	49	104	0	53	18265
2026-01-07 00:24:49.67	12.81	3.75	-40.8	-55.0	3.8	1.49e+00	0	49	104	0	53	18231
2026-01-07 00:24:50.68	12.78	3.82	-40.8	-55.0	3.8	1.49e+00	0	49	104	0	53	18227
2026-01-07 00:24:51.69	12.75	3.89	-40.8	-55.0	3.8	1.49e+00	0	49	104	0	53	18100
2026-01-07 00:24:52.70	12.72	3.96	-40.7	-55.0	3.8	1.49e+00	0	49	104	0	53	18108
2026-01-07 00:24:53.71	12.70	4.02	-40.7	-55.0	3.8	1.49e+00	0	49	104	0	53	18188
2026-01-07 00:24:54.72	12.67	4.09	-40.8	-55.0	3.8	1.49e+00	0	49	104	0	53	18136
2026-01-07 00:24:55.73	12.64	4.16	-40.8	-54.9	3.8	1.49e+00	0	49	104	0	53	18030
2026-01-07 00:24:56.74	12.61	4.23	-40.7	-54.9	3.8	1.49e+00	0	49	104	0	53	17992
2026-01-07 00:24:57.75	12.58	4.30	-40.8	-54.9	3.8	1.49e+00	0	49	104	0	53	17997
2026-01-07 00:24:58.76	12.55	4.37	-40.7	-54.9	3.8	1.49e+00	0	49	104	0	53	17945
2026-01-07 00:24:59.77	12.52	4.43	-40.7	-54.8	3.8	1.49e+00	0	49	104	0	53	17807
2026-01-07 00:25:00.78	12.49	4.50	-40.7	-54.8	3.8	1.49e+00	0	50	104	0	53	17809
2026-01-07 00:25:01.79	12.46	4.57	-40.7	-54.8	3.8	1.49e+00	0	50	104	0	53	17783
2026-01-07 00:25:02.80	12.43	4.64	-40.7	-54.8	3.8	1.49e+00	0	50	104	0	53	17772
2026-01-07 00:25:03.81	12.40	4.71	-40.7	-54.8	3.8	1.49e+00	0	50	104	0	53	17716
2026-01-07 00:25:04.82	12.36	4.78	-40.7	-54.7	3.8	1.49e+00	0	50	104	0	53	17678
2026-01-07 00:25:05.83	12.33	4.85	-40.7	-54.7	3.8	1.49e+00	0	50	104	0	53	17654
2026-01-07 00:25:06.84	12.30	4.92	-40.7	-54.7	3.8	1.49e+00	0	50	104	0	53	17496
2026-01-07 00:25:07.85	12.27	4.99	-40.7	-54.6	3.8	1.49e+00	0	50	104	0	53	17293
2026-01-07 00:25:08.87	12.24	5.06	-40.7	-54.4	3.8	1.49e+00	0	50	104	0	53	17014
2026-01-07 00:25:09.88	12.21	5.13	-40.7	-54.3	3.8	1.49e+00	0	50	104	0	53	16724
2026-01-07 00:25:10.89	12.18	5.20	-40.7	-54.0	3.8	1.49e+00	0	50	104	0	53	16302
2026-01-07 00:25:11.90	12.14	5.27	-40.7	-53.8	3.8	1.49e+00	0	50	104	0	53	15924
2026-01-07 00:25:12.91	12.11	5.34	-40.7	-53.7	3.8	1.49e+00	0	50	104	0	53	15693
2026-01-07 00:25:13.92	12.08	5.42	-40.7	-53.5	3.8	1.49e+00	0	50	104	0	53	15339
2026-01-07 00:25:14.93	12.05	5.49	-40.6	-53.3	3.8	1.49e+00	0	50	104	0	53	14981
2026-01-07 00:25:15.94	12.01	5.56	-40.6	-53.1	3.8	1.49e+00	0	50	104	0	53	14707
2026-01-07 00:25:16.95	11.98	5.63	-40.6	-53.1	3.8	1.48e+00	0	51	104	0	53	14670
2026-01-07 00:25:17.96	11.95	5.70	-40.6	-53.1	3.8	1.48e+00	0	51	104	0	53	14624
2026-01-07 00:25:18.97	11.91	5.78	-40.6	-53.2	3.8	1.49e+00	0	50	104	0	53	14838
2026-01-07 00:25:19.97	11.88	5.85	-40.6	-53.3	3.8	1.49e+00	0	50	104	0	53	14928
2026-01-07 00:25:20.98	11.85	5.92	-40.7	-53.6	3.8	1.49e+00	0	51	104	0	53	15497
2026-01-07 00:25:21.99	11.81	5.99	-40.7	-54.0	3.8	1.49e+00	0	51	104	0	53	16235
2026-01-07 00:25:23.01	11.78	6.07	-40.7	-54.4	3.8	1.49e+00	0	51	104	0	53	17018
2026-01-07 00:25:24.02	11.74	6.14	-40.7	-54.7	3.8	1.49e+00	0	51	104	0	53	17668
2026-01-07 00:25:25.03	11.71	6.21	-40.8	-55.0	3.8	1.49e+00	0	51	104	0	53	18272
2026-01-07 00:25:26.04	11.68	6.29	-40.8	-55.1	3.8	1.49e+00	0	51	104	0	53	18419
2026-01-07 00:25:27.05	11.64	6.36	-40.8	-54.9	3.8	1.49e+00	0	51	104	0	53	17974
2026-01-07 00:25:28.06	11.61	6.43	-40.7	-54.4	3.8	1.49e+00	0	51	104	0	53	16983
2026-01-07 00:25:29.07	11.57	6.51	-40.7	-53.8	3.8	1.49e+00	0	51	104	0	53	15839
2026-01-07 00:25:30.08	11.53	6.58	-40.6	-53.0	3.8	1.49e+00	0	51	104	0	53	14432
2026-01-07 00:25:31.09	11.50	6.66	-40.6	-52.0	4.1	1.47e+00	0	51	104	0	53	12918
2026-01-07 00:25:32.10	11.46	6.73	-40.5	-51.1	4.4	1.36e+00	0	51	0	0	52	12283
2026-01-07 00:25:33.11	11.43	6.81	-40.4	-50.3	4.7	1.11e+00	0	51	0	2097152	52	11217
2026-01-07 00:25:34.12	11.39	6.88	-40.3	-49.7	5.0	7.53e-01	0	51	0	3145728	52	10420
2026-01-07 00:25:35.13	11.35	6.96	-40.2	-49.0	5.4	5.97e-01	0	51	0	5242880	52	9654
2026-01-07 00:25:36.14	11.32	7.03	-40.2	-48.9	5.4	5.21e-01	0	51	0	7340032	52	9578
2026-01-07 00:25:37.15	11.28	7.11	-40.1	-48.5	5.7	4.43e-01	0	51	0	9437184	52	9159
2026-01-07 00:25:38.16	11.24	7.18	-40.1	-48.5	5.7	4.30e-01	0	51	0	11534336	52	9151
2026-01-07 00:25:39.17	11.21	7.26	-40.1	-48.3	5.9	3.65e-01	0	51	0	13631488	52	8868
2026-01-07 00:25:40.18	11.17	7.34	-40.1	-48.2	6.0	3.50e-01	0	52	0	14680064	52	8785
2026-01-07 00:25:41.19	11.13	7.41	-40.1	-48.1	6.0	3.59e-01	0	52	0	16777216	52	8753
2026-01-07 00:25:42.20	11.09	7.49	-40.1	-48.4	5.8	3.36e-01	0	52	0	18874368	52	9062
2026-01-07 00:25:43.21	11.05	7.57	-40.1	-48.7	5.6	4.22e-01	0	51	0	20971520	52	9305
2026-01-07 00:25:44.22	11.02	7.64	-40.2	-49.0	5.4	4.90e-01	0	52	0	23068672	52	9646
2026-01-07 00:25:45.23	10.98	7.72	-40.3	-49.4	5.2	5.62e-01	0	52	0	24117248	52	10098
2026-01-07 00:25:46.24	10.94	7.80	-40.3	-49.7	5.0	6.63e-01	0	52	0	26214400	52	10473
2026-01-07 00:25:47.26	10.90	7.88	-40.3	-50.1	4.8	7.95e-01	0	52	0	28311552	52	10962
2026-01-07 00:25:48.27	10.86	7.96	-40.4	-50.6	4.5	9.34e-01	0	52	0	30408704	52	11672
2026-01-07 00:25:49.28	10.82	8.04	-40.4	-51.2	4.3	1.22e+00	0	52	0	31457280	52	12457
2026-01-07 00:25:50.28	10.78	8.11	-40.2	-52.0	3.9	1.48e+00	0	52	104	31457280	52	13681
2026-01-07 00:25:51.30	10.74	8.19	-41.1	-51.2	4.6	9.36e-01	0	52	0	32505856	53	11697
2026-01-07 00:25:52.30	10.70	8.27	-40.1	-53.9	3.8	1.47e+00	0	52	104	32505856	51	17928
2026-01-07 00:25:53.31	10.66	8.35	-40.6	-53.4	3.8	1.49e+00	0	52	104	32505856	51	16913
2026-01-07 00:25:54.32	10.62	8.43	-41.3	-54.4	3.8	1.48e+00	0	52	104	32505856	53	16924
2026-01-07 00:25:55.33	10.58	8.51	-40.6	-52.0	4.1	1.44e+00	0	52	0	32505856	53	12883
2026-01-07 00:25:56.34	10.54	8.59	-40.6	-52.1	4.1	1.43e+00	0	52	0	32505856	53	12984
2026-01-07 00:25:57.35	10.50	8.67	-40.5	-52.3	3.9	1.44e+00	0	52	104	32505856	53	13289
2026-01-07 00:25:58.36	10.45	8.75	-40.4	-52.3	3.9	1.46e+00	0	52	104	32505856	52	14169
2026-01-07 00:25:59.37	10.41	8.83	-40.4	-52.5	3.8	1.48e+00	0	52	104	32505856	52	14413
2026-01-07 00:26:00.38	10.37	8.91	-40.4	-52.6	3.8	1.48e+00	0	52	104	32505856	52	14651
2026-01-07 00:26:01.39	10.33	8.99	-40.3	-52.8	3.8	1.48e+00	0	52	104	32505856	52	14917
2026-01-07 00:26:02.40	10.28	9.08	-40.3	-53.1	3.8	1.48e+00	0	52	104	32505856	52	15577
2026-01-07 00:26:03.41	10.24	9.16	-40.3	-53.4	3.8	1.49e+00	0	52	104	32505856	52	16021
2026-01-07 00:26:04.42	10.20	9.24	-40.3	-53.7	3.8	1.49e+00	0	52	104	32505856	52	16635
2026-01-07 00:26:05.43	10.15	9.32	-40.3	-54.0	3.8	1.49e+00	0	53	104	32505856	52	17139
2026-01-07 00:26:06.43	10.11	9.40	-40.3	-54.1	3.8	1.49e+00	0	53	104	32505856	52	17467
2026-01-07 00:26:07.44	10.07	9.49	-40.3	-54.3	3.8	1.49e+00	0	53	104	32505856	52	17818
2026-01-07 00:26:08.45	10.02	9.57	-40.3	-54.4	3.8	1.49e+00	0	53	104	32505856	52	18009
2026-01-07 00:26:09.46	9.98	9.65	-40.3	-54.4	3.8	1.49e+00	0	53	104	32505856	52	18080
2026-01-07 00:26:10.47	9.93	9.74	-40.5	-54.6	3.8	1.49e+00	0	53	104	32505856	52	18332
2026-01-07 00:26:11.48	9.89	9.82	-40.2	-54.4	3.8	1.49e+00	0	53	104	32505856	52	17894
2026-01-07 00:26:12.49	9.84	9.90	-40.0	-54.4	3.8	1.49e+00	0	53	104	32505856	51	19067
2026-01-07 00:26:13.50	9.79	9.99	-40.2	-54.2	3.8	1.49e+00	0	53	104	32505856	51	18647
2026-01-07 00:26:14.51	9.75	10.07	-40.2	-54.0	3.8	1.49e+00	0	53	104	32505856	51	18196
2026-01-07 00:26:15.52	9.70	10.16	-40.2	-53.6	3.8	1.49e+00	0	53	104	32505856	51	17432
2026-01-07 00:26:16.53	9.66	10.24	-40.5	-53.7	3.8	1.49e+00	0	53	104	32505856	51	17641
2026-01-07 00:26:17.54	9.61	10.33	-40.0	-53.9	3.8	1.48e+00	0	53	104	32505856	52	17023
2026-01-07 00:26:18.55	9.56	10.42	-40.1	-54.4	3.8	1.49e+00	0	53	104	32505856	51	19032
2026-01-07 00:26:19.56	9.51	10.50	-40.7	-54.9	3.8	1.49e+00	0	53	104	32505856	52	18983
2026-01-07 00:26:20.57	9.47	10.59	-40.7	-54.9	3.8	1.49e+00	0	53	104	32505856	52	19159
2026-01-07 00:26:21.58	9.42	10.67	-40.4	-53.2	3.8	1.49e+00	0	53	104	32505856	52	15619
2026-01-07 00:26:22.59	9.37	10.76	-40.0	-53.9	3.8	1.49e+00	0	53	104	32505856	52	16896
2026-01-07 00:26:23.60	9.32	10.85	-40.2	-51.8	3.9	1.49e+00	0	53	104	32505856	52	13368
2026-01-07 00:26:24.61	9.27	10.94	-41.7	-50.7	5.3	8.02e-01	0	53	0	32505856	53	11149
2026-01-07 00:26:25.62	9.22	11.02	-40.9	-50.4	5.1	5.74e-01	0	53	0	34603008	53	10686
2026-01-07 00:26:26.63	9.17	11.11	-40.8	-49.7	5.3	1.43e+00	0	53	0	34603008	52	10507
2026-01-07 00:26:27.64	9.12	11.20	-41.2	-48.7	6.5	3.03e-01	0	53	0	36700160	53	8858
2026-01-07 00:26:28.65	9.07	11.29	-41.2	-48.2	7.2	1.47e-01	0	53	0	37748736	53	8351
2026-01-07 00:26:29.66	9.02	11.38	-41.2	-47.9	7.6	1.08e-01	0	53	0	39845888	53	8035
2026-01-07 00:26:30.67	8.97	11.47	-41.0	-47.3	8.3	7.76e-02	0	53	0	41943040	53	7476
2026-01-07 00:26:31.68	8.92	11.56	-40.9	-46.6	8.9	3.06e-02	0	53	0	44040192	53	6956
2026-01-07 00:26:32.69	8.87	11.65	-40.5	-45.6	10.0	1.45e-02	0	53	0	46137344	53	6158
2026-01-07 00:26:33.70	8.81	11.74	-40.0	-44.5	11.2	3.63e-03	0	54	0	47185920	52	5747
2026-01-07 00:26:34.71	8.76	11.83	-39.6	-43.4	12.4	5.51e-04	0	53	0	49283072	51	5353
2026-01-07 00:26:35.72	8.71	11.92	-39.1	-42.5	13.4	3.12e-05	0	53	0	51380224	50	5118
2026-01-07 00:26:36.73	8.65	12.01	-38.8	-42.0	13.8	6.80e-06	0	54	0	53477376	49	5158
2026-01-07 00:26:37.74	8.60	12.10	-38.5	-41.5	14.4	3.80e-06	0	53	0	55574528	49	4820
2026-01-07 00:26:38.75	8.55	12.19	-38.5	-41.6	14.4	7.00e-07	0	54	0	56623104	48	5161
2026-01-07 00:26:39.76	8.49	12.28	-38.5	-41.4	14.5	0.00e+00	0	53	0	58720256	48	5094
2026-01-07 00:26:40.77	8.44	12.38	-38.8	-41.9	14.1	1.50e-06	0	54	0	60817408	48	5360
2026-01-07 00:26:41.78	8.38	12.47	-38.8	-41.9	14.2	3.00e-06	0	54	0	62914560	48	5354
2026-01-07 00:26:42.79	8.33	12.56	-38.9	-42.1	14.1	1.50e-06	0	53	0	65011712	48	5465
2026-01-07 00:26:43.80	8.27	12.65	-39.1	-42.3	13.9	4.50e-06	0	54	0	66060288	48	5605
2026-01-07 00:26:44.81	8.22	12.75	-39.1	-42.2	13.9	3.80e-06	0	53	0	68157440	48	5568
2026-01-07 00:26:45.82	8.16	12.84	-39.0	-42.1	14.2	3.80e-06	0	54	0	70254592	48	5477
2026-01-07 00:26:46.83	8.10	12.94	-38.9	-41.9	14.4	7.00e-07	0	54	0	72351744	48	5360
2026-01-07 00:26:47.83	8.05	13.03	-38.9	-41.8	14.6	0.00e+00	0	54	0	74448896	48	5314
2026-01-07 00:26:48.84	7.99	13.13	-38.9	-41.8	14.6	0.00e+00	0	54	0	75497472	48	5286
2026-01-07 00:26:49.85	7.93	13.22	-38.9	-41.7	14.8	0.00e+00	0	54	0	77594624	48	5279
2026-01-07 00:26:50.86	7.87	13.32	-38.7	-41.4	15.1	0.00e+00	0	54	0	79691776	48	5095
2026-01-07 00:26:51.87	7.81	13.41	-38.8	-41.6	15.1	0.00e+00	0	54	0	81788928	48	5169
2026-01-07 00:26:52.88	7.75	13.51	-38.8	-41.6	15.1	0.00e+00	0	54	0	83886080	48	5167
2026-01-07 00:26:53.89	7.69	13.61	-39.0	-41.8	14.9	0.00e+00	0	54	0	84934656	48	5310
2026-01-07 00:26:54.90	7.63	13.70	-39.0	-41.7	15.1	0.00e+00	0	54	0	87031808	48	5253
2026-01-07 00:26:55.91	7.57	13.80	-39.0	-41.7	15.2	0.00e+00	0	54	0	89128960	48	5263
2026-01-07 00:26:56.92	7.51	13.90	-38.8	-41.4	15.6	0.00e+00	0	54	0	91226112	48	5049
2026-01-07 00:26:57.93	7.45	14.00	-39.8	-42.8	14.3	7.00e-07	0	54	0	93323264	50	5304
2026-01-07 00:26:58.94	7.39	14.09	-39.3	-42.0	15.1	0.00e+00	0	54	0	95420416	50	4869
2026-01-07 00:26:59.95	7.33	14.19	-39.3	-42.1	15.1	0.00e+00	0	54	0	96468992	50	4880
2026-01-07 00:27:00.96	7.26	14.29	-39.0	-41.5	15.6	0.00e+00	0	54	0	98566144	50	4565
2026-01-07 00:27:01.97	7.20	14.39	-39.0	-41.6	15.6	0.00e+00	0	54	0	100663296	49	4874
2026-01-07 00:27:02.98	7.14	14.49	-39.0	-41.5	15.6	0.00e+00	0	54	0	102760448	49	4839
2026-01-07 00:27:03.99	7.07	14.59	-38.8	-41.3	15.8	0.00e+00	0	54	0	104857600	49	4716
2026-01-07 00:27:05.00	7.01	14.69	-39.1	-41.6	15.6	0.00e+00	0	54	0	105906176	49	4904
2026-01-07 00:27:06.01	6.94	14.79	-38.9	-41.5	15.7	0.00e+00	0	54	0	108003328	49	4823
2026-01-07 00:27:07.02	6.88	14.90	-39.0	-41.5	15.7	0.00e+00	0	54	0	110100480	49	4830
2026-01-07 00:27:08.03	6.81	15.00	-39.1	-41.7	15.5	0.00e+00	0	54	0	112197632	49	4968
2026-01-07 00:27:09.04	6.75	15.10	-39.0	-41.6	15.7	0.00e+00	0	54	0	114294784	49	4874
2026-01-07 00:27:10.05	6.68	15.20	-39.1	-41.7	15.5	0.00e+00	0	54	0	115343360	49	4974
2026-01-07 00:27:11.06	6.61	15.31	-39.0	-41.5	15.7	0.00e+00	0	54	0	117440512	49	4857
2026-01-07 00:27:12.06	6.54	15.41	-39.0	-41.4	15.9	0.00e+00	0	54	0	119537664	49	4798
2026-01-07 00:27:13.07	6.48	15.51	-39.0	-41.5	15.8	0.00e+00	0	54	0	121634816	49	4816
2026-01-07 00:27:14.08	6.41	15.62	-38.9	-41.4	15.9	0.00e+00	0	54	0	123731968	49	4765
2026-01-07 00:27:15.10	6.34	15.72	-39.0	-41.5	15.8	0.00e+00	0	54	0	124780544	49	4841
2026-01-07 00:27:16.10	6.27	15.83	-38.9	-41.4	15.9	0.00e+00	0	54	0	126877696	49	4792
2026-01-07 00:27:17.11	6.20	15.93	-39.0	-41.4	15.9	0.00e+00	0	54	0	128974848	49	4792
2026-01-07 00:27:18.12	6.13	16.04	-39.0	-41.5	15.8	0.00e+00	0	54	0	131072000	49	4865
2026-01-07 00:27:19.13	6.05	16.14	-38.9	-41.3	16.0	0.00e+00	0	54	0	133169152	49	4749
2026-01-07 00:27:20.14	5.98	16.25	-39.0	-41.4	16.0	0.00e+00	0	54	0	134217728	49	4776
2026-01-07 00:27:21.15	5.91	16.36	-38.9	-41.3	16.0	0.00e+00	0	54	0	136314880	49	4748
2026-01-07 00:27:22.16	5.84	16.47	-38.9	-41.3	16.1	0.00e+00	0	54	0	138412032	49	4716
2026-01-07 00:27:23.17	5.76	16.57	-39.0	-41.4	16.0	0.00e+00	0	54	0	140509184	49	4795
2026-01-07 00:27:24.18	5.69	16.68	-39.0	-41.5	15.9	0.00e+00	0	54	0	142606336	49	4820
2026-01-07 00:27:25.19	5.61	16.79	-39.0	-41.4	16.0	0.00e+00	0	54	0	143654912	49	4809
2026-01-07 00:27:26.20	5.54	16.90	-39.0	-41.4	16.0	0.00e+00	0	54	0	145752064	49	4783
2026-01-07 00:27:27.21	5.46	17.01	-39.0	-41.5	16.0	0.00e+00	0	54	0	147849216	49	4817
2026-01-07 00:27:28.22	5.39	17.12	-39.0	-41.4	16.0	0.00e+00	0	55	0	149946368	49	4780
2026-01-07 00:27:29.23	5.31	17.23	-39.0	-41.5	15.9	0.00e+00	0	54	0	152043520	49	4839
2026-01-07 00:27:30.23	5.23	17.34	-39.2	-41.7	15.8	0.00e+00	0	54	0	153092096	49	4937
2026-01-07 00:27:31.24	5.15	17.45	-39.1	-41.5	15.9	0.00e+00	0	54	0	155189248	49	4852
2026-01-07 00:27:32.25	5.07	17.56	-39.1	-41.6	15.8	0.00e+00	0	54	0	157286400	49	4886
2026-01-07 00:27:33.26	4.99	17.68	-39.2	-41.7	15.7	0.00e+00	0	54	0	159383552	49	4981
2026-01-07 00:27:34.27	4.91	17.79	-39.2	-41.8	15.7	0.00e+00	0	55	0	161480704	49	5003
2026-01-07 00:27:35.28	4.83	17.90	-39.3	-41.9	15.6	0.00e+00	0	55	0	163577856	49	5087
2026-01-07 00:27:36.29	4.75	18.02	-39.3	-41.8	15.7	0.00e+00	0	54	0	164626432	49	5039
2026-01-07 00:27:37.30	4.67	18.13	-39.4	-42.0	15.6	0.00e+00	0	54	0	166723584	49	5109
2026-01-07 00:27:38.31	4.59	18.25	-39.5	-42.1	15.4	0.00e+00	0	55	0	168820736	49	5192
2026-01-07 00:27:39.32	4.50	18.36	-39.4	-42.0	15.6	0.00e+00	0	55	0	170917888	49	5106
2026-01-07 00:27:40.33	4.42	18.48	-39.3	-41.9	15.6	0.00e+00	0	55	0	173015040	49	5080
2026-01-07 00:27:41.34	4.34	18.59	-39.5	-42.2	15.3	0.00e+00	0	55	0	174063616	49	5264
2026-01-07 00:27:42.35	4.25	18.71	-39.3	-41.8	15.7	0.00e+00	0	55	0	176160768	49	5033
2026-01-07 00:27:43.36	4.16	18.83	-39.3	-41.9	15.7	0.00e+00	0	54	0	178257920	49	5044
2026-01-07 00:27:44.37	4.08	18.94	-39.3	-41.8	15.7	0.00e+00	0	55	0	180355072	49	5017
2026-01-07 00:27:45.38	3.99	19.06	-39.4	-42.0	15.6	0.00e+00	0	55	0	182452224	49	5108
2026-01-07 00:27:46.39	3.90	19.18	-39.5	-42.1	15.5	0.00e+00	0	55	0	183500800	49	5190
2026-01-07 00:27:47.40	3.81	19.30	-39.2	-41.6	15.9	0.00e+00	0	55	0	185597952	49	4924
2026-01-07 00:27:48.41	3.72	19.42	-39.1	-41.5	16.0	0.00e+00	0	55	0	187695104	49	4858
2026-01-07 00:27:49.42	3.63	19.54	-39.2	-41.7	15.9	0.00e+00	0	55	0	189792256	49	4931
2026-01-07 00:27:50.43	3.54	19.66	-39.3	-41.7	15.9	0.00e+00	0	55	0	191889408	49	4972
2026-01-07 00:27:51.44	3.45	19.78	-39.3	-41.8	15.9	0.00e+00	0	55	0	192937984	49	4985
2026-01-07 00:27:52.45	3.36	19.90	-39.3	-41.8	15.8	0.00e+00	0	55	0	195035136	49	5011
2026-01-07 00:27:53.46	3.26	20.03	-39.5	-42.0	15.6	0.00e+00	0	55	0	197132288	49	5136
2026-01-07 00:27:54.46	3.17	20.15	-39.8	-42.4	15.2	0.00e+00	0	55	0	199229440	50	5085
2026-01-07 00:27:55.48	3.07	20.27	-39.6	-42.2	15.4	0.00e+00	0	54	0	201326592	50	4971
2026-01-07 00:27:56.49	2.98	20.40	-39.8	-42.6	15.1	0.00e+00	0	55	0	202375168	50	5176
2026-01-07 00:27:57.50	2.88	20.52	-39.9	-42.7	14.9	7.00e-07	0	55	0	204472320	50	5264
2026-01-07 00:27:58.51	2.78	20.64	-39.9	-42.6	15.0	0.00e+00	0	55	0	206569472	50	5216
2026-01-07 00:27:59.52	2.69	20.77	-40.0	-42.9	14.9	0.00e+00	0	55	0	208666624	50	5342
2026-01-07 00:28:00.53	2.59	20.90	-40.0	-42.9	14.8	0.00e+00	0	55	0	210763776	51	5073
2026-01-07 00:28:01.54	2.49	21.02	-40.0	-42.9	14.8	0.00e+00	0	55	0	211812352	51	5043
2026-01-07 00:28:02.55	2.39	21.15	-40.1	-43.0	14.7	0.00e+00	0	55	0	213909504	51	5106
2026-01-07 00:28:03.56	2.28	21.28	-40.1	-43.0	14.7	0.00e+00	0	54	0	216006656	51	5131
2026-01-07 00:28:04.57	2.18	21.40	-39.9	-42.7	15.0	0.00e+00	0	55	0	218103808	51	4928
2026-01-07 00:28:05.58	2.08	21.53	-40.0	-42.8	14.9	0.00e+00	0	55	0	220200960	51	5021
2026-01-07 00:28:06.59	1.97	21.66	-40.2	-43.2	14.5	1.50e-06	0	55	0	221249536	51	5234
2026-01-07 00:28:07.60	1.87	21.79	-40.1	-42.9	14.8	0.00e+00	0	55	0	223346688	51	5097
2026-01-07 00:28:08.61	1.76	21.92	-40.0	-42.8	14.9	0.00e+00	0	55	0	225443840	51	5019
2026-01-07 00:28:09.62	1.66	22.05	-40.1	-42.9	14.8	7.00e-07	0	55	0	227540992	51	5092
2026-01-07 00:28:10.63	1.55	22.18	-40.2	-43.1	14.6	0.00e+00	0	55	0	229638144	51	5187
2026-01-07 00:28:11.64	1.44	22.32	-39.9	-42.7	15.0	7.00e-07	0	55	0	231735296	51	4980
2026-01-07 00:28:12.65	1.33	22.45	-39.9	-42.7	15.0	0.00e+00	0	55	0	232783872	51	4963
2026-01-07 00:28:13.66	1.22	22.58	-40.0	-42.8	15.0	0.00e+00	0	55	0	234881024	51	4987
2026-01-07 00:28:14.67	1.11	22.72	-40.0	-42.8	15.0	0.00e+00	0	55	0	236978176	51	5016
2026-01-07 00:28:15.68	0.99	22.85	-40.1	-43.0	14.8	0.00e+00	0	55	0	239075328	51	5150
2026-01-07 00:28:16.69	0.88	22.98	-39.9	-42.7	15.0	7.00e-07	0	55	0	241172480	51	4981
2026-01-07 00:28:17.70	0.77	23.12	-40.1	-43.0	14.7	0.00e+00	0	55	0	242221056	51	5157
2026-01-07 00:28:18.71	0.65	23.26	-40.2	-43.1	14.6	0.00e+00	0	55	0	244318208	51	5188
2026-01-07 00:28:19.72	0.53	23.39	-40.2	-43.1	14.6	0.00e+00	0	55	0	246415360	51	5217
2026-01-07 00:28:20.73	0.41	23.53	-40.2	-43.1	14.7	7.00e-07	0	55	0	248512512	51	5214
2026-01-07 00:28:21.74	0.30	23.67	-40.5	-43.5	14.3	3.00e-06	0	55	0	250609664	51	5455
2026-01-07 00:28:22.75	0.18	23.81	-40.5	-43.5	14.3	1.50e-06	0	55	0	251658240	51	5446
2026-01-07 00:28:23.76	0.05	23.95	-40.7	-44.0	13.8	7.00e-07	0	55	0	253755392	52	5414
2026-01-07 00:28:24.77	359.93	24.08	-40.6	-43.8	14.0	3.00e-06	0	55	0	255852544	52	5303
2026-01-07 00:28:25.78	359.81	24.22	-40.6	-43.7	14.1	2.20e-06	0	55	0	257949696	52	5263
2026-01-07 00:28:26.79	359.68	24.37	-40.3	-43.3	14.5	7.00e-07	0	55	0	260046848	52	5005
2026-01-07 00:28:27.80	359.56	24.51	-40.4	-43.4	14.4	7.00e-07	0	55	0	261095424	52	5056
2026-01-07 00:28:28.81	359.43	24.65	-40.4	-43.4	14.4	0.00e+00	0	55	0	263192576	52	5068
2026-01-07 00:28:29.81	359.30	24.79	-40.2	-43.0	14.8	0.00e+00	0	55	0	265289728	52	4851
2026-01-07 00:28:30.82	359.17	24.93	-40.3	-43.1	14.7	7.00e-07	0	55	0	267386880	52	4925
2026-01-07 00:28:31.83	359.04	25.08	-40.3	-43.3	14.5	7.00e-07	0	55	0	269484032	52	5011
2026-01-07 00:28:32.84	358.91	25.22	-40.1	-43.0	14.9	0.00e+00	0	55	0	270532608	52	4825
2026-01-07 00:28:33.85	358.78	25.37	-40.1	-43.0	14.9	0.00e+00	0	55	0	272629760	52	4819
2026-01-07 00:28:34.86	358.64	25.51	-40.2	-43.0	14.8	0.00e+00	0	55	0	274726912	52	4845
2026-01-07 00:28:35.88	358.51	25.66	-40.3	-43.3	14.6	0.00e+00	0	55	0	276824064	52	5007
2026-01-07 00:28:36.89	358.37	25.81	-40.6	-43.7	14.0	7.00e-07	0	55	0	278921216	52	5251
2026-01-07 00:28:37.90	358.23	25.96	-40.5	-43.7	14.1	2.20e-06	0	55	0	279969792	52	5234
2026-01-07 00:28:38.91	358.09	26.10	-40.7	-44.0	13.8	6.80e-06	0	55	0	282066944	52	5439
2026-01-07 00:28:39.92	357.95	26.25	-41.0	-44.5	13.3	1.37e-05	0	55	0	284164096	52	5731
2026-01-07 00:28:40.93	357.81	26.40	-40.7	-44.1	13.7	3.00e-06	0	55	0	286261248	52	5480
2026-01-07 00:28:41.94	357.67	26.55	-40.8	-44.1	13.7	2.20e-06	0	55	0	288358400	52	5514
2026-01-07 00:28:42.95	357.52	26.70	-40.7	-43.9	13.9	1.29e-05	0	55	0	289406976	52	5392
2026-01-07 00:28:43.96	357.38	26.85	-40.5	-43.6	14.2	7.60e-06	0	55	0	291504128	52	5191
2026-01-07 00:28:44.97	357.23	27.01	-40.5	-43.6	14.3	7.00e-07	0	55	0	293601280	52	5181
2026-01-07 00:28:45.98	357.08	27.16	-40.3	-43.4	14.4	7.00e-07	0	55	0	295698432	52	5059
2026-01-07 00:28:46.99	356.93	27.31	-40.3	-43.2	14.6	0.00e+00	0	55	0	297795584	52	4964
2026-01-07 00:28:48.00	356.78	27.47	-40.1	-42.9	14.9	0.00e+00	0	55	0	299892736	52	4792
2026-01-07 00:28:49.01	356.62	27.62	-40.2	-43.1	14.7	0.00e+00	0	55	0	300941312	52	4920
2026-01-07 00:28:50.02	356.47	27.78	-40.1	-42.8	15.0	7.00e-07	0	55	0	303038464	52	4745
2026-01-07 00:28:51.03	356.31	27.93	-40.2	-43.1	14.8	0.00e+00	0	55	0	305135616	52	4890
2026-01-07 00:28:52.04	356.15	28.09	-40.2	-43.0	14.9	0.00e+00	0	55	0	307232768	52	4820
2026-01-07 00:28:53.05	355.99	28.25	-40.5	-43.5	14.4	0.00e+00	0	55	0	309329920	52	5144
2026-01-07 00:28:54.06	355.83	28.40	-40.4	-43.3	14.6	7.00e-07	0	55	0	310378496	52	5017
2026-01-07 00:28:55.07	355.67	28.56	-40.5	-43.4	14.4	0.00e+00	0	55	0	312475648	52	5098
2026-01-07 00:28:56.08	355.50	28.72	-40.5	-43.5	14.4	3.80e-06	0	55	0	314572800	52	5103
2026-01-07 00:28:57.09	355.33	28.88	-40.7	-43.8	14.2	1.50e-06	0	55	0	316669952	52	5288
2026-01-07 00:28:58.10	355.17	29.04	-40.6	-43.7	14.2	7.00e-07	0	55	0	318767104	52	5268
2026-01-07 00:28:59.11	355.00	29.20	-40.6	-43.7	14.2	2.20e-06	0	55	0	319815680	52	5237
2026-01-07 00:29:00.12	354.82	29.37	-40.5	-43.5	14.4	2.20e-06	0	55	0	321912832	52	5155
2026-01-07 00:29:01.13	354.65	29.53	-40.7	-43.9	14.0	7.00e-07	0	55	0	324009984	52	5367
2026-01-07 00:29:02.14	354.48	29.69	-40.7	-43.9	14.0	3.00e-06	0	55	0	326107136	52	5345
2026-01-07 00:29:03.15	354.30	29.85	-40.7	-43.9	14.1	1.50e-06	0	55	0	328204288	52	5348
2026-01-07 00:29:04.16	354.12	30.02	-40.9	-44.2	13.7	3.80e-06	0	56	0	329252864	52	5566
2026-01-07 00:29:05.17	353.94	30.18	-41.1	-44.6	13.3	9.90e-06	0	55	0	331350016	52	5818
2026-01-07 00:29:06.18	353.76	30.35	-40.9	-44.3	13.5	1.14e-05	0	55	0	333447168	52	5620
2026-01-07 00:29:07.19	353.57	30.51	-41.3	-45.1	12.8	4.27e-05	0	55	0	335544320	53	5807
2026-01-07 00:29:08.20	353.38	30.68	-41.4	-45.1	12.9	7.17e-05	0	56	0	337641472	53	5800
2026-01-07 00:29:09.21	353.20	30.85	-41.5	-45.4	12.5	2.74e-05	0	55	0	338690048	53	6049
2026-01-07 00:29:10.22	353.00	31.02	-41.4	-45.0	12.9	3.28e-05	0	56	0	340787200	53	5751
2026-01-07 00:29:11.23	352.81	31.19	-41.5	-45.2	12.8	7.55e-05	0	55	0	342884352	53	5863
2026-01-07 00:29:12.24	352.62	31.35	-41.7	-45.6	12.3	1.75e-04	0	55	0	344981504	54	5838
2026-01-07 00:29:13.25	352.42	31.52	-41.9	-45.9	12.1	1.91e-04	0	55	0	347078656	54	6011
2026-01-07 00:29:14.26	352.22	31.69	-41.9	-46.0	12.0	4.76e-04	0	55	0	348127232	54	6072
2026-01-07 00:29:15.27	352.02	31.87	-42.0	-46.2	11.8	6.63e-04	0	56	0	350224384	54	6230
2026-01-07 00:29:16.28	351.82	32.04	-42.3	-46.8	11.1	1.08e-03	0	56	0	352321536	55	6333
2026-01-07 00:29:17.28	351.61	32.21	-42.2	-46.6	11.3	9.03e-04	0	55	0	354418688	55	6189
2026-01-07 00:29:18.30	351.40	32.38	-41.9	-46.0	11.9	3.20e-04	0	55	0	356515840	55	5780
2026-01-07 00:29:19.31	351.19	32.56	-41.8	-45.8	12.1	2.98e-04	0	55	0	357564416	55	5634
2026-01-07 00:29:20.32	350.98	32.73	-41.8	-45.8	12.2	3.97e-04	0	55	0	359661568	55	5631
2026-01-07 00:29:21.33	350.77	32.90	-41.9	-46.2	11.8	3.30e-04	0	55	0	361758720	55	5869
2026-01-07 00:29:22.33	350.55	33.08	-42.1	-46.6	11.3	7.54e-04	0	56	0	363855872	55	6182
2026-01-07 00:29:23.34	350.33	33.25	-42.1	-46.6	11.4	1.59e-03	0	55	0	365953024	55	6163
2026-01-07 00:29:24.35	350.11	33.43	-42.2	-46.8	11.2	1.42e-03	0	55	0	368050176	55	6280
2026-01-07 00:29:25.36	349.89	33.60	-42.2	-46.8	11.1	1.70e-03	0	56	0	369098752	55	6293
2026-01-07 00:29:26.37	349.66	33.78	-42.0	-46.3	11.6	1.28e-03	0	56	0	371195904	55	5986
2026-01-07 00:29:27.38	349.43	33.96	-41.7	-45.7	12.2	2.70e-04	0	56	0	373293056	55	5557
2026-01-07 00:29:28.39	349.20	34.14	-41.8	-45.8	12.1	2.37e-04	0	56	0	375390208	55	5656
2026-01-07 00:29:29.40	348.97	34.32	-41.3	-45.0	13.0	8.92e-05	0	55	0	377487360	54	5439
2026-01-07 00:29:30.41	348.73	34.50	-41.5	-45.4	12.6	6.86e-05	0	56	0	378535936	54	5678
2026-01-07 00:29:31.43	348.49	34.68	-41.3	-45.0	13.0	5.72e-05	0	56	0	380633088	54	5428
2026-01-07 00:29:32.44	348.25	34.86	-41.2	-44.8	13.2	3.89e-05	0	55	0	382730240	54	5336
2026-01-07 00:29:33.44	348.00	35.03	-41.2	-44.9	13.1	7.70e-05	0	56	0	384827392	54	5373
2026-01-07 00:29:34.46	347.75	35.22	-41.2	-44.8	13.2	3.66e-05	0	56	0	386924544	54	5336
2026-01-07 00:29:35.47	347.50	35.40	-41.2	-44.8	13.1	1.67e-05	0	56	0	387973120	54	5324
2026-01-07 00:29:36.48	347.25	35.58	-41.4	-45.1	12.9	7.47e-05	0	56	0	390070272	54	5494
2026-01-07 00:29:37.48	346.99	35.76	-41.4	-45.2	12.9	3.81e-05	0	56	0	392167424	54	5530
2026-01-07 00:29:38.49	346.74	35.94	-41.7	-45.8	12.2	5.34e-05	0	56	0	394264576	54	5984
2026-01-07 00:29:39.50	346.47	36.13	-41.5	-45.3	12.7	4.80e-05	0	56	0	396361728	54	5628
2026-01-07 00:29:40.51	346.21	36.31	-41.5	-45.2	12.8	7.17e-05	0	56	0	397410304	54	5568
2026-01-07 00:29:41.52	345.94	36.49	-41.2	-44.7	13.3	4.73e-05	0	56	0	399507456	54	5260
2026-01-07 00:29:42.53	345.67	36.68	-41.5	-45.3	12.7	1.52e-05	0	56	0	401604608	54	5623
2026-01-07 00:29:43.54	345.39	36.86	-41.4	-45.0	13.0	3.43e-05	0	56	0	403701760	54	5438
2026-01-07 00:29:44.55	345.12	37.04	-41.4	-45.1	12.8	2.97e-05	0	56	0	405798912	54	5528
2026-01-07 00:29:45.56	344.84	37.23	-41.8	-46.1	11.9	1.61e-04	0	56	0	406847488	54	6142
2026-01-07 00:29:46.57	344.55	37.41	-41.5	-45.6	12.5	4.36e-04	0	56	0	408944640	54	5794
2026-01-07 00:29:47.58	344.27	37.60	-41.8	-46.0	12.0	1.95e-04	0	56	0	411041792	54	6103
2026-01-07 00:29:48.59	343.97	37.78	-41.6	-45.6	12.5	2.00e-04	0	56	0	413138944	54	5791
2026-01-07 00:29:49.60	343.68	37.97	-41.3	-44.9	13.1	8.62e-05	0	56	0	415236096	54	5393
2026-01-07 00:29:50.61	343.38	38.15	-41.4	-45.2	12.8	2.82e-05	0	56	0	416284672	54	5567
2026-01-07 00:29:51.62	343.08	38.34	-41.4	-45.3	12.8	4.57e-05	0	56	0	418381824	54	5638
2026-01-07 00:29:52.63	342.78	38.53	-41.5	-45.4	12.6	5.34e-05	0	56	0	420478976	54	5692
2026-01-07 00:29:53.64	342.47	38.71	-41.7	-45.9	12.1	3.44e-04	0	56	0	422576128	54	6029
2026-01-07 00:29:54.65	342.16	38.90	-41.6	-45.7	12.4	1.95e-04	0	56	0	424673280	54	5879
2026-01-07 00:29:55.66	341.84	39.08	-41.2	-44.9	13.1	7.85e-05	0	56	0	425721856	54	5378
2026-01-07 00:29:56.67	341.53	39.27	-41.0	-44.4	13.7	6.80e-06	0	56	0	427819008	53	5350
2026-01-07 00:29:57.68	341.20	39.46	-40.9	-44.2	13.9	3.00e-06	0	56	0	429916160	53	5237
2026-01-07 00:29:58.69	340.88	39.64	-40.9	-44.2	13.8	3.80e-06	0	56	0	432013312	53	5269
2026-01-07 00:29:59.70	340.55	39.83	-41.0	-44.3	13.8	4.50e-06	0	56	0	434110464	53	5328
2026-01-07 00:30:00.71	340.21	40.01	-41.0	-44.4	13.7	1.29e-05	0	56	0	436207616	53	5377
2026-01-07 00:30:01.72	339.88	40.20	-41.0	-44.4	13.7	4.50e-06	0	56	0	437256192	53	5347
2026-01-07 00:30:02.73	339.54	40.38	-41.1	-44.6	13.5	6.80e-06	0	56	0	439353344	53	5499
2026-01-07 00:30:03.74	339.19	40.57	-41.3	-45.1	13.0	2.59e-05	0	56	0	441450496	53	5809
2026-01-07 00:30:04.75	338.84	40.75	-41.4	-45.2	12.8	4.34e-05	0	56	0	443547648	53	5895
2026-01-07 00:30:05.76	338.49	40.94	-41.6	-45.7	12.3	9.07e-05	0	56	0	445644800	53	6247
2026-01-07 00:30:06.77	338.13	41.12	-41.8	-46.0	12.0	2.92e-04	0	56	0	446693376	54	6110
2026-01-07 00:30:07.78	337.77	41.31	-41.7	-45.9	12.2	3.78e-04	0	56	0	448790528	54	6031
2026-01-07 00:30:08.79	337.40	41.49	-41.4	-45.3	12.8	1.01e-04	0	56	0	450887680	54	5609
2026-01-07 00:30:09.80	337.03	41.67	-41.1	-44.6	13.4	1.67e-05	0	56	0	452984832	54	5216
2026-01-07 00:30:10.81	336.66	41.86	-40.9	-44.2	13.9	5.30e-06	0	56	0	455081984	53	5241
2026-01-07 00:30:11.82	336.28	42.04	-40.9	-44.3	13.8	6.80e-06	0	56	0	456130560	53	5294
2026-01-07 00:30:12.83	335.90	42.22	-41.2	-44.8	13.3	1.14e-05	0	56	0	458227712	53	5608
2026-01-07 00:30:13.84	335.51	42.40	-41.6	-45.5	12.6	5.64e-05	0	56	0	460324864	53	6070
2026-01-07 00:30:14.85	335.12	42.58	-42.0	-46.4	11.6	1.99e-04	0	56	0	462422016	54	6420
2026-01-07 00:30:15.86	334.72	42.76	-42.3	-47.2	10.9	2.23e-03	0	56	0	464519168	55	6572
2026-01-07 00:30:16.87	334.32	42.94	-42.6	-47.9	10.1	4.33e-03	0	56	0	465567744	55	7142
2026-01-07 00:30:17.88	333.91	43.12	-42.3	-47.3	10.6	7.00e-03	0	56	0	467664896	55	6700
2026-01-07 00:30:18.88	333.51	43.30	-42.3	-47.2	10.8	2.81e-03	0	56	0	469762048	55	6618
2026-01-07 00:30:19.89	333.09	43.47	-42.3	-47.1	11.0	2.01e-03	0	56	0	471859200	55	6521
2026-01-07 00:30:20.90	332.67	43.65	-42.4	-47.4	10.6	1.95e-03	0	56	0	473956352	55	6743
2026-01-07 00:30:21.91	332.25	43.82	-42.4	-47.2	10.7	2.05e-03	0	56	0	475004928	55	6635
2026-01-07 00:30:22.92	331.82	44.00	-42.1	-46.6	11.4	1.26e-03	0	56	0	477102080	55	6173
2026-01-07 00:30:23.93	331.39	44.17	-42.0	-46.5	11.6	6.85e-04	0	56	0	479199232	55	6089
2026-01-07 00:30:24.94	330.95	44.34	-42.0	-46.4	11.6	9.57e-04	0	56	0	481296384	55	6040
2026-01-07 00:30:25.95	330.51	44.51	-42.4	-47.5	10.6	1.95e-03	0	56	0	483393536	55	6806
2026-01-07 00:30:26.96	330.06	44.68	-42.4	-47.5	10.5	5.05e-03	0	56	0	484442112	55	6837
2026-01-07 00:30:27.97	329.61	44.85	-42.0	-46.4	11.7	2.06e-03	0	56	0	486539264	55	6003
2026-01-07 00:30:28.98	329.15	45.02	-41.3	-45.0	13.2	1.05e-04	0	56	0	488636416	54	5417
2026-01-07 00:30:29.99	328.69	45.19	-40.8	-44.0	14.1	7.60e-06	0	56	0	490733568	53	5148
2026-01-07 00:30:31.00	328.22	45.35	-40.2	-43.0	15.0	1.50e-06	0	56	0	492830720	52	4843
2026-01-07 00:30:32.01	327.75	45.51	-40.0	-42.7	15.5	7.00e-07	0	56	0	493879296	51	4944
2026-01-07 00:30:33.02	327.28	45.67	-40.2	-43.0	15.2	0.00e+00	0	56	0	495976448	51	5116
2026-01-07 00:30:34.02	326.80	45.83	-40.6	-43.6	14.7	7.00e-07	0	56	0	498073600	51	5490
2026-01-07 00:30:35.04	326.31	45.99	-41.1	-44.6	13.7	1.50e-06	0	56	0	500170752	52	5818
2026-01-07 00:30:36.04	325.82	46.15	-41.3	-45.0	13.1	2.05e-05	0	56	0	502267904	53	5757
2026-01-07 00:30:37.05	325.32	46.30	-40.4	-43.4	14.6	6.10e-06	0	56	0	504365056	53	4789
2026-01-07 00:30:38.06	324.82	46.45	-39.8	-42.3	15.9	0.00e+00	0	56	0	505413632	51	4742
2026-01-07 00:30:39.07	324.32	46.60	-39.7	-42.2	16.0	0.00e+00	0	56	0	507510784	51	4660
2026-01-07 00:30:40.08	323.81	46.75	-39.7	-42.2	16.0	0.00e+00	0	56	0	509607936	50	4946
2026-01-07 00:30:41.09	323.29	46.90	-40.0	-42.6	15.7	0.00e+00	0	56	0	511705088	50	5204
2026-01-07 00:30:42.10	322.77	47.05	-40.5	-43.5	14.7	0.00e+00	0	56	0	513802240	51	5429
2026-01-07 00:30:43.11	322.24	47.19	-41.0	-44.5	13.7	4.50e-06	0	56	0	514850816	52	5751
2026-01-07 00:30:44.12	321.71	47.33	-41.2	-44.8	13.3	1.22e-05	0	56	0	516947968	53	5603
2026-01-07 00:30:45.13	321.18	47.47	-41.0	-44.3	13.8	9.10e-06	0	56	0	519045120	53	5339
2026-01-07 00:30:46.15	320.63	47.60	-41.1	-44.6	13.4	7.60e-06	0	56	0	521142272	53	5513
2026-01-07 00:30:47.16	320.09	47.74	-41.5	-45.4	12.7	3.81e-05	0	56	0	523239424	53	6016
2026-01-07 00:30:48.16	319.55	47.87	-41.9	-46.5	11.8	3.25e-04	0	56	0	524288000	54	6423
2026-01-07 00:30:49.17	318.99	48.00	-42.4	-47.8	10.3	3.69e-03	0	56	0	526385152	55	7060
2026-01-07 00:30:50.18	318.43	48.12	-41.8	-46.2	11.9	4.31e-03	0	56	0	528482304	55	5861
2026-01-07 00:30:51.19	317.87	48.25	-41.2	-44.9	13.4	3.44e-04	0	56	0	530579456	54	5370
2026-01-07 00:30:52.20	317.30	48.37	-40.6	-43.8	14.3	3.80e-06	0	56	0	532676608	53	5025
2026-01-07 00:30:53.21	316.73	48.49	-40.3	-43.3	14.8	0.00e+00	0	56	0	533725184	52	4985
2026-01-07 00:30:54.22	316.15	48.60	-40.2	-43.1	15.1	0.00e+00	0	56	0	535822336	51	5192
2026-01-07 00:30:55.23	315.57	48.71	-40.4	-43.5	14.6	0.00e+00	0	56	0	537919488	51	5447
2026-01-07 00:30:56.24	314.99	48.82	-40.6	-44.0	14.0	7.00e-07	0	56	0	540016640	52	5409
2026-01-07 00:30:57.25	314.40	48.93	-41.4	-45.5	12.5	9.10e-06	0	56	0	542113792	53	6083
2026-01-07 00:30:58.26	313.80	49.03	-41.9	-46.5	11.4	7.48e-04	0	56	0	543162368	54	6459
2026-01-07 00:30:59.27	313.21	49.13	-42.3	-47.8	10.2	3.46e-03	0	56	0	545259520	55	7062
2026-01-07 00:31:00.28	312.61	49.23	-42.3	-47.9	10.0	6.81e-03	0	56	0	547356672	55	7188
2026-01-07 00:31:01.29	312.00	49.33	-42.1	-47.1	10.9	2.07e-03	0	56	0	549453824	55	6549
2026-01-07 00:31:02.30	311.39	49.42	-41.7	-46.1	11.8	4.30e-04	0	56	0	551550976	55	5840
2026-01-07 00:31:03.31	310.78	49.50	-41.3	-45.4	12.7	9.68e-05	0	56	0	552599552	54	5678
2026-01-07 00:31:04.32	310.16	49.59	-41.0	-44.8	13.1	8.23e-05	0	56	0	554696704	54	5317
2026-01-07 00:31:05.33	309.54	49.67	-40.6	-44.1	13.9	4.50e-06	0	56	0	556793856	53	5181
2026-01-07 00:31:06.34	308.92	49.75	-40.9	-44.6	13.4	2.20e-06	0	56	0	558891008	53	5526
2026-01-07 00:31:07.35	308.30	49.82	-41.4	-45.5	12.5	1.75e-05	0	56	0	560988160	53	6119
2026-01-07 00:31:08.36	307.67	49.89	-41.5	-45.9	12.2	2.99e-04	0	56	0	562036736	53	6395
2026-01-07 00:31:09.36	307.04	49.96	-41.6	-46.4	11.6	1.65e-03	0	56	0	564133888	54	6362
2026-01-07 00:31:10.37	306.41	50.02	-41.2	-45.5	12.5	1.03e-03	0	56	0	566231040	54	5736
2026-01-07 00:31:11.38	305.77	50.08	-40.7	-44.5	13.3	1.67e-05	0	56	0	568328192	53	5462
2026-01-07 00:31:12.39	305.13	50.14	-40.6	-44.3	13.7	3.80e-06	0	56	0	570425344	53	5309
2026-01-07 00:31:13.40	304.49	50.19	-40.7	-44.3	13.6	1.83e-05	0	56	0	572522496	53	5328
2026-01-07 00:31:14.41	303.85	50.24	-40.3	-43.6	14.4	3.80e-06	0	56	0	573571072	52	5201
2026-01-07 00:31:15.42	303.20	50.28	-39.7	-42.6	15.5	0.00e+00	0	56	0	575668224	51	4874
2026-01-07 00:31:16.43	302.56	50.32	-39.4	-42.1	15.9	0.00e+00	0	56	0	577765376	50	4880
2026-01-07 00:31:17.44	301.91	50.36	-39.0	-41.4	16.6	0.00e+00	0	56	0	579862528	49	4795
2026-01-07 00:31:18.45	301.26	50.39	-38.9	-41.4	16.7	0.00e+00	0	56	0	581959680	49	4760
2026-01-07 00:31:19.46	300.60	50.42	-39.0	-41.6	16.4	0.00e+00	0	56	0	583008256	49	4882
2026-01-07 00:31:20.47	299.95	50.44	-39.0	-41.5	16.4	0.00e+00	0	56	0	585105408	49	4864
2026-01-07 00:31:21.48	299.30	50.47	-38.4	-40.8	17.1	0.00e+00	0	56	0	587202560	48	4708
2026-01-07 00:31:22.49	298.64	50.48	-37.9	-40.1	17.7	0.00e+00	0	56	0	589299712	47	4600
2026-01-07 00:31:23.50	297.99	50.50	-38.1	-40.4	17.4	0.00e+00	0	56	0	591396864	47	4810
2026-01-07 00:31:24.51	297.33	50.50	-39.0	-41.6	16.4	0.00e+00	0	56	0	592445440	48	5160
2026-01-07 00:31:25.52	296.67	50.51	-39.3	-42.0	15.9	0.00e+00	0	56	0	594542592	49	5130
2026-01-07 00:31:26.53	296.02	50.51	-39.2	-41.8	16.2	0.00e+00	0	56	0	596639744	49	5021
2026-01-07 00:31:27.53	295.37	50.51	-39.5	-42.4	15.7	0.00e+00	0	56	0	598736896	49	5372
2026-01-07 00:31:28.55	294.70	50.50	-39.9	-43.0	14.9	0.00e+00	0	57	0	600834048	50	5437
2026-01-07 00:31:29.56	294.05	50.49	-40.1	-43.5	14.5	0.00e+00	0	56	0	601882624	50	5762
2026-01-07 00:31:30.57	293.39	50.48	-39.8	-42.9	15.1	0.00e+00	0	56	0	603979776	50	5356
2026-01-07 00:31:31.58	292.74	50.46	-39.5	-42.2	15.8	0.00e+00	0	56	0	606076928	50	4978
2026-01-07 00:31:32.59	292.08	50.44	-39.6	-42.5	15.5	0.00e+00	0	56	0	608174080	50	5107
2026-01-07 00:31:33.59	291.44	50.41	-40.0	-43.2	14.9	0.00e+00	0	56	0	610271232	50	5542
2026-01-07 00:31:34.60	290.78	50.38	-39.8	-42.7	15.2	0.00e+00	0	56	0	611319808	51	4979
2026-01-07 00:31:35.61	290.13	50.34	-39.4	-42.1	15.9	0.00e+00	0	56	0	613416960	50	4902
2026-01-07 00:31:36.62	289.48	50.31	-38.8	-41.1	16.8	0.00e+00	0	56	0	615514112	49	4647
2026-01-07 00:31:37.63	288.84	50.26	-38.9	-41.2	16.8	0.00e+00	0	56	0	617611264	49	4697
2026-01-07 00:31:38.64	288.19	50.22	-39.1	-41.6	16.4	0.00e+00	0	56	0	619708416	49	4881
2026-01-07 00:31:39.65	287.55	50.17	-39.2	-41.8	16.2	0.00e+00	0	56	0	620756992	49	4986
2026-01-07 00:31:40.66	286.91	50.12	-39.1	-41.6	16.4	0.00e+00	0	56	0	622854144	49	4899
2026-01-07 00:31:41.67	286.27	50.06	-39.1	-41.6	16.4	0.00e+00	0	56	0	624951296	49	4917
2026-01-07 00:31:42.68	285.63	50.00	-38.9	-41.3	16.7	0.00e+00	0	56	0	627048448	49	4749
2026-01-07 00:31:43.68	285.01	49.93	-39.7	-42.6	15.4	0.00e+00	0	56	0	629145600	49	5490
2026-01-07 00:31:44.69	284.37	49.87	-39.8	-42.7	15.3	0.00e+00	0	56	0	630194176	50	5268
2026-01-07 00:31:45.70	283.75	49.79	-39.7	-42.6	15.5	0.00e+00	0	56	0	632291328	50	5174
2026-01-07 00:31:46.71	283.12	49.72	-39.5	-42.3	15.6	0.00e+00	0	56	0	634388480	50	5018
2026-01-07 00:31:47.72	282.50	49.64	-39.9	-43.0	15.3	0.00e+00	0	56	0	636485632	50	5405
2026-01-07 00:31:48.73	281.88	49.56	-39.8	-42.8	15.2	0.00e+00	0	56	0	638582784	50	5320
2026-01-07 00:31:49.74	281.27	49.47	-39.8	-42.8	15.3	0.00e+00	0	56	0	640679936	50	5308
2026-01-07 00:31:50.75	280.65	49.38	-40.2	-43.3	14.7	0.00e+00	0	56	0	641728512	50	5656
2026-01-07 00:31:51.76	280.05	49.29	-40.5	-44.0	14.1	0.00e+00	0	56	0	643825664	51	5726
2026-01-07 00:31:52.77	279.44	49.20	-40.4	-43.8	14.2	0.00e+00	0	56	0	645922816	51	5618
2026-01-07 00:31:53.78	278.84	49.10	-40.5	-43.9	14.2	7.00e-07	0	56	0	648019968	51	5678
2026-01-07 00:31:54.79	278.24	48.99	-40.3	-43.5	14.4	0.00e+00	0	56	0	650117120	51	5416
2026-01-07 00:31:55.80	277.65	48.89	-40.4	-43.7	14.4	0.00e+00	0	56	0	651165696	51	5539
2026-01-07 00:31:56.81	277.06	48.78	-40.0	-43.0	15.1	0.00e+00	0	56	0	653262848	51	5101
2026-01-07 00:31:57.82	276.48	48.67	-40.0	-42.9	15.1	0.00e+00	0	56	0	655360000	51	5090
2026-01-07 00:31:58.83	275.90	48.56	-40.5	-43.8	14.3	7.00e-07	0	56	0	657457152	51	5606
2026-01-07 00:31:59.84	275.32	48.44	-41.0	-44.8	13.2	2.21e-05	0	56	0	659554304	52	5966
2026-01-07 00:32:00.85	274.75	48.32	-41.8	-46.6	11.4	3.52e-04	0	56	0	660602880	54	6551
2026-01-07 00:32:01.86	274.18	48.20	-41.2	-45.1	12.8	2.77e-04	0	56	0	662700032	54	5523
2026-01-07 00:32:02.86	273.63	48.08	-40.8	-44.4	13.6	2.28e-05	0	56	0	664797184	53	5358
2026-01-07 00:32:03.87	273.07	47.95	-40.4	-43.6	14.3	0.00e+00	0	56	0	666894336	52	5202
2026-01-07 00:32:04.88	272.52	47.82	-40.9	-44.5	13.6	0.00e+00	0	56	0	668991488	52	5787
2026-01-07 00:32:05.89	271.97	47.69	-41.4	-45.5	12.6	4.42e-05	0	56	0	670040064	53	6092
2026-01-07 00:32:06.90	271.42	47.55	-41.5	-45.9	12.1	1.46e-04	0	56	0	672137216	53	6349
2026-01-07 00:32:07.91	270.88	47.41	-40.9	-44.6	13.3	8.01e-05	0	56	0	674234368	53	5524
2026-01-07 00:32:08.92	270.35	47.27	-40.9	-44.5	13.5	1.06e-05	0	56	0	676331520	53	5442
2026-01-07 00:32:09.93	269.82	47.13	-40.9	-44.5	13.5	5.30e-06	0	56	0	678428672	53	5427
2026-01-07 00:32:10.94	269.30	46.99	-41.0	-44.7	13.3	2.51e-05	0	56	0	679477248	53	5583
2026-01-07 00:32:11.95	268.78	46.84	-40.9	-44.6	13.5	1.22e-05	0	56	0	681574400	53	5482
2026-01-07 00:32:12.97	268.26	46.69	-40.9	-44.4	13.4	1.75e-05	0	56	0	683671552	53	5392
2026-01-07 00:32:13.97	267.75	46.54	-40.9	-44.6	13.5	1.29e-05	0	56	0	685768704	53	5465
2026-01-07 00:32:14.98	267.24	46.39	-41.0	-44.8	13.2	1.52e-05	0	56	0	687865856	53	5602
2026-01-07 00:32:16.00	266.74	46.24	-41.1	-45.1	12.8	4.34e-05	0	56	0	688914432	53	5802
2026-01-07 00:32:17.01	266.24	46.08	-40.8	-44.4	13.6	9.10e-06	0	56	0	691011584	53	5355
2026-01-07 00:32:18.01	265.76	45.92	-40.4	-43.7	14.3	0.00e+00	0	56	0	693108736	52	5227
2026-01-07 00:32:19.02	265.27	45.77	-40.1	-43.0	15.0	0.00e+00	0	56	0	695205888	52	4835
2026-01-07 00:32:20.04	264.79	45.60	-40.3	-43.3	14.7	0.00e+00	0	56	0	697303040	52	5018
2026-01-07 00:32:21.04	264.32	45.44	-40.4	-43.5	14.6	0.00e+00	0	56	0	698351616	52	5110
2026-01-07 00:32:22.05	263.85	45.28	-40.4	-43.4	14.7	0.00e+00	0	56	0	700448768	52	5086
2026-01-07 00:32:23.06	263.38	45.11	-40.4	-43.4	14.7	0.00e+00	0	56	0	702545920	52	5093
2026-01-07 00:32:24.08	262.91	44.95	-40.6	-43.7	14.3	2.20e-06	0	56	0	704643072	52	5269
2026-01-07 00:32:25.08	262.46	44.78	-41.1	-44.7	13.4	3.00e-06	0	56	0	706740224	52	5864
2026-01-07 00:32:26.09	262.01	44.61	-41.2	-44.4	13.7	2.13e-05	0	56	0	707788800	53	5355
2026-01-07 00:32:27.10	261.56	44.44	-40.7	-43.5	14.7	3.00e-06	0	56	0	709885952	53	4850
2026-01-07 00:32:28.12	261.12	44.27	-40.4	-42.9	15.2	7.00e-07	0	56	0	711983104	52	4804
2026-01-07 00:32:29.13	260.68	44.09	-40.8	-43.7	14.6	0.00e+00	0	56	0	714080256	52	5219
2026-01-07 00:32:30.13	260.25	43.92	-41.5	-44.9	13.3	7.60e-06	0	56	0	716177408	53	5662
2026-01-07 00:32:31.14	259.82	43.75	-41.8	-45.5	12.7	4.27e-05	0	56	0	718274560	54	5761
2026-01-07 00:32:32.15	259.40	43.57	-40.9	-43.9	14.2	3.00e-06	0	56	0	719323136	53	5049
2026-01-07 00:32:33.16	258.98	43.39	-40.6	-43.3	14.9	0.00e+00	0	56	0	721420288	53	4750
2026-01-07 00:32:34.17	258.57	43.21	-40.5	-43.2	15.1	0.00e+00	0	56	0	723517440	52	4940
2026-01-07 00:32:35.18	258.16	43.04	-40.7	-43.6	14.6	0.00e+00	0	56	0	725614592	52	5166
2026-01-07 00:32:36.19	257.75	42.86	-40.4	-43.1	15.0	0.00e+00	0	56	0	727711744	52	4895
2026-01-07 00:32:37.20	257.35	42.68	-40.0	-42.4	15.8	0.00e+00	0	56	0	728760320	51	4801
2026-01-07 00:32:38.21	256.96	42.50	-39.4	-41.6	16.6	0.00e+00	0	56	0	730857472	50	4613
2026-01-07 00:32:39.22	256.57	42.31	-39.4	-41.6	16.7	0.00e+00	0	56	0	732954624	50	4620
2026-01-07 00:32:40.23	256.18	42.13	-39.5	-41.6	16.6	0.00e+00	0	57	0	735051776	50	4650
2026-01-07 00:32:41.24	255.80	41.95	-39.9	-42.3	15.9	0.00e+00	0	56	0	737148928	50	5015
2026-01-07 00:32:42.25	255.42	41.77	-40.1	-42.6	15.7	0.00e+00	0	56	0	738197504	50	5189
2026-01-07 00:32:43.26	255.05	41.58	-39.9	-42.3	15.9	0.00e+00	0	56	0	740294656	50	5034
2026-01-07 00:32:44.27	254.68	41.40	-40.0	-42.4	15.8	0.00e+00	0	56	0	742391808	50	5089
2026-01-07 00:32:45.28	254.31	41.21	-40.2	-42.8	15.5	0.00e+00	0	56	0	744488960	51	5012
2026-01-07 00:32:46.29	253.95	41.03	-40.4	-43.1	15.2	0.00e+00	0	56	0	746586112	51	5175
2026-01-07 00:32:47.30	253.59	40.84	-40.7	-43.5	14.7	1.50e-06	0	56	0	747634688	52	5120
2026-01-07 00:32:48.31	253.24	40.66	-41.3	-44.5	13.6	1.50e-06	0	56	0	749731840	53	5446
2026-01-07 00:32:49.32	252.89	40.47	-41.9	-45.7	12.5	7.24e-05	0	56	0	751828992	54	5915
2026-01-07 00:32:50.33	252.55	40.29	-41.7	-45.3	12.8	2.39e-04	0	56	0	753926144	54	5619
2026-01-07 00:32:51.33	252.21	40.10	-41.6	-45.0	13.1	5.56e-05	0	56	0	756023296	54	5462
2026-01-07 00:32:52.34	251.87	39.92	-41.2	-44.4	13.8	3.00e-06	0	56	0	757071872	54	5083
2026-01-07 00:32:53.35	251.54	39.73	-41.1	-44.2	13.9	3.00e-06	0	56	0	759169024	53	5274
2026-01-07 00:32:54.36	251.21	39.54	-40.9	-43.8	14.3	1.50e-06	0	56	0	761266176	53	5022
2026-01-07 00:32:55.37	250.88	39.36	-40.8	-43.7	14.4	7.00e-07	0	56	0	763363328	53	4963
2026-01-07 00:32:56.38	250.56	39.17	-40.7	-43.5	14.7	7.00e-07	0	56	0	765460480	53	4848
2026-01-07 00:32:57.39	250.24	38.98	-41.2	-44.4	13.8	2.20e-06	0	56	0	766509056	53	5375
2026-01-07 00:32:58.40	249.93	38.80	-41.5	-44.9	13.3	8.30e-06	0	56	0	768606208	53	5710
2026-01-07 00:32:59.41	249.62	38.61	-41.6	-45.1	13.1	3.12e-05	0	56	0	770703360	53	5827
2026-01-07 00:33:00.42	249.31	38.42	-41.6	-45.1	13.1	7.09e-05	0	56	0	772800512	54	5498
2026-01-07 00:33:01.43	249.01	38.24	-41.7	-45.4	12.8	2.44e-05	0	56	0	774897664	54	5662
2026-01-07 00:33:02.44	248.71	38.05	-41.3	-44.6	13.5	1.22e-05	0	56	0	775946240	54	5201
2026-01-07 00:33:03.45	248.41	37.86	-40.9	-43.9	14.2	7.60e-06	0	56	0	778043392	53	5076
2026-01-07 00:33:04.46	248.12	37.68	-40.7	-43.5	14.6	1.50e-06	0	56	0	780140544	53	4851
2026-01-07 00:33:05.47	247.83	37.49	-40.8	-43.7	14.4	0.00e+00	0	56	0	782237696	53	4943
2026-01-07 00:33:06.48	247.54	37.31	-41.6	-45.0	13.0	4.50e-06	0	56	0	784334848	53	5769
2026-01-07 00:33:07.49	247.26	37.12	-42.3	-46.5	11.6	9.30e-05	0	56	0	786432000	55	6100
2026-01-07 00:33:08.50	246.98	36.94	-42.4	-46.7	11.4	8.74e-04	0	56	0	787480576	55	6247
2026-01-07 00:33:09.51	246.70	36.75	-42.0	-45.8	12.2	3.57e-04	0	56	0	789577728	55	5646
2026-01-07 00:33:10.52	246.42	36.57	-41.9	-45.8	12.3	2.03e-04	0	56	0	791674880	55	5601
2026-01-07 00:33:11.52	246.16	36.38	-42.4	-46.8	11.9	2.34e-04	0	57	0	793772032	55	6297
2026-01-07 00:33:12.53	245.89	36.20	-43.1	-48.2	10.0	4.10e-03	0	57	0	795869184	57	6595
2026-01-07 00:33:13.54	245.62	36.02	-43.7	-50.2	8.0	4.02e-02	0	56	0	796917760	57	8356
2026-01-07 00:33:14.55	245.36	35.83	-43.7	-50.4	7.6	1.22e-01	0	56	0	799014912	58	8014
2026-01-07 00:33:15.56	245.10	35.65	-43.2	-48.5	9.6	1.61e-02	0	57	0	801112064	58	6426
2026-01-07 00:33:16.57	244.85	35.47	-42.5	-46.7	11.5	3.60e-03	0	56	0	803209216	57	5571
2026-01-07 00:33:17.58	244.59	35.29	-42.2	-46.2	12.0	2.90e-04	0	56	0	805306368	56	5556
2026-01-07 00:33:18.59	244.34	35.10	-42.2	-46.1	12.1	4.39e-04	0	56	0	806354944	56	5483
2026-01-07 00:33:19.60	244.10	34.92	-41.9	-45.6	12.4	2.21e-04	0	56	0	808452096	55	5490
2026-01-07 00:33:20.61	243.85	34.74	-42.1	-46.0	12.1	3.07e-04	0	57	0	810549248	55	5767
2026-01-07 00:33:21.62	243.61	34.56	-42.0	-45.9	12.1	1.36e-04	0	56	0	812646400	55	5696
2026-01-07 00:33:22.63	243.37	34.38	-41.9	-45.7	12.4	2.23e-04	0	56	0	814743552	55	5529
2026-01-07 00:33:23.64	243.13	34.20	-41.8	-45.5	12.6	9.53e-05	0	56	0	815792128	55	5434
2026-01-07 00:33:24.65	242.90	34.02	-41.4	-44.6	13.5	2.44e-05	0	56	0	817889280	54	5209
2026-01-07 00:33:25.66	242.67	33.84	-40.8	-43.7	14.4	2.20e-06	0	56	0	819986432	53	4929
2026-01-07 00:33:26.67	242.44	33.67	-40.4	-43.1	15.0	0.00e+00	0	56	0	822083584	52	4904
2026-01-07 00:33:27.68	242.21	33.49	-40.5	-43.2	14.9	0.00e+00	0	56	0	824180736	52	4961
2026-01-07 00:33:28.69	241.99	33.31	-41.2	-44.4	13.6	1.50e-06	0	56	0	825229312	53	5379
2026-01-07 00:33:29.70	241.77	33.13	-41.8	-45.4	12.7	3.66e-05	0	57	0	827326464	54	5671
2026-01-07 00:33:30.71	241.55	32.96	-42.2	-46.3	11.8	3.08e-04	0	56	0	829423616	54	6287
2026-01-07 00:33:31.72	241.33	32.78	-42.0	-45.9	12.2	4.87e-04	0	56	0	831520768	55	5695
2026-01-07 00:33:32.73	241.12	32.61	-41.7	-45.4	12.7	1.28e-04	0	56	0	833617920	55	5347
2026-01-07 00:33:33.74	240.90	32.43	-41.7	-45.3	12.8	2.54e-04	0	56	0	834666496	55	5304
2026-01-07 00:33:34.75	240.69	32.26	-41.9	-45.7	12.4	6.86e-05	0	56	0	836763648	55	5535
2026-01-07 00:33:35.76	240.49	32.09	-41.7	-45.4	12.7	1.78e-04	0	56	0	838860800	55	5359
2026-01-07 00:33:36.77	240.28	31.91	-41.9	-45.8	12.2	8.23e-05	0	56	0	840957952	55	5626
2026-01-07 00:33:37.77	240.08	31.74	-41.5	-44.8	13.3	7.47e-05	0	56	0	843055104	54	5340
2026-01-07 00:33:38.78	239.88	31.57	-41.1	-44.2	13.9	4.50e-06	0	56	0	844103680	53	5235
2026-01-07 00:33:39.80	239.68	31.40	-40.8	-43.7	14.4	7.00e-07	0	57	0	846200832	53	4965
2026-01-07 00:33:40.81	239.48	31.23	-40.9	-43.8	14.2	1.50e-06	0	56	0	848297984	53	5041
2026-01-07 00:33:41.81	239.29	31.06	-41.3	-44.7	13.4	1.22e-05	0	56	0	850395136	53	5548
2026-01-07 00:33:42.82	239.09	30.89	-41.8	-45.6	12.4	2.82e-05	0	56	0	852492288	54	5834
2026-01-07 00:33:43.83	238.90	30.72	-42.5	-47.1	10.9	1.29e-03	0	57	0	854589440	55	6551
2026-01-07 00:33:44.84	238.72	30.56	-42.6	-47.5	10.4	2.69e-03	0	56	0	855638016	55	6834
2026-01-07 00:33:45.85	238.53	30.39	-42.8	-47.7	10.5	3.75e-03	0	57	0	857735168	56	6576
2026-01-07 00:33:46.86	238.34	30.22	-42.1	-46.1	12.0	2.82e-03	0	57	0	859832320	56	5517
2026-01-07 00:33:47.87	238.16	30.06	-41.8	-45.5	12.5	2.81e-04	0	57	0	861929472	55	5463
2026-01-07 00:33:48.88	237.98	29.89	-41.0	-44.2	13.8	3.12e-05	0	56	0	864026624	54	4950
2026-01-07 00:33:49.89	237.80	29.73	-40.7	-43.6	14.4	7.00e-07	0	56	0	865075200	53	4891
2026-01-07 00:33:50.90	237.62	29.56	-40.2	-42.8	15.3	0.00e+00	0	56	0	867172352	52	4728
2026-01-07 00:33:51.91	237.45	29.40	-40.2	-42.8	15.2	0.00e+00	0	56	0	869269504	52	4746
2026-01-07 00:33:52.92	237.27	29.24	-40.1	-42.6	15.4	0.00e+00	0	56	0	871366656	52	4628
2026-01-07 00:33:53.93	237.10	29.07	-40.3	-42.9	15.1	0.00e+00	0	56	0	873463808	52	4793
2026-01-07 00:33:54.94	236.93	28.91	-41.0	-44.1	13.9	1.50e-06	0	56	0	874512384	52	5502
2026-01-07 00:33:55.95	236.76	28.75	-41.4	-44.9	13.2	0.00e+00	0	56	0	876609536	53	5672
2026-01-07 00:33:56.96	236.60	28.59	-41.9	-45.8	12.2	1.98e-04	0	57	0	878706688	54	5984
2026-01-07 00:33:57.97	236.43	28.43	-42.0	-46.0	12.0	1.88e-04	0	56	0	880803840	54	6065
2026-01-07 00:33:58.98	236.27	28.27	-41.9	-45.7	12.3	4.13e-04	0	56	0	882900992	54	5915
2026-01-07 00:33:59.99	236.11	28.12	-41.1	-44.3	13.7	8.30e-06	0	57	0	883949568	54	5024
2026-01-07 00:34:01.00	235.95	27.96	-40.9	-43.9	14.1	1.50e-06	0	56	0	886046720	53	5076
2026-01-07 00:34:02.01	235.79	27.80	-40.5	-43.3	14.7	0.00e+00	0	56	0	888143872	53	4740
2026-01-07 00:34:03.02	235.63	27.64	-40.4	-43.1	14.9	7.00e-07	0	56	0	890241024	52	4918
2026-01-07 00:34:04.03	235.48	27.49	-40.3	-43.0	15.0	0.00e+00	0	57	0	892338176	52	4858
2026-01-07 00:34:05.04	235.32	27.33	-40.5	-43.4	14.6	0.00e+00	0	57	0	893386752	52	5060
2026-01-07 00:34:06.05	235.17	27.18	-40.5	-43.3	14.7	0.00e+00	0	57	0	895483904	52	5022
2026-01-07 00:34:07.05	235.02	27.03	-40.7	-43.6	14.4	7.00e-07	0	57	0	897581056	52	5200
2026-01-07 00:34:08.06	234.87	26.87	-40.9	-44.0	14.1	0.00e+00	0	56	0	899678208	52	5404
2026-01-07 00:34:09.08	234.72	26.72	-40.8	-43.8	14.2	1.50e-06	0	56	0	901775360	52	5300
2026-01-07 00:34:10.09	234.57	26.57	-40.6	-43.4	14.5	0.00e+00	0	57	0	902823936	52	5076
2026-01-07 00:34:11.10	234.43	26.42	-40.4	-43.2	14.8	0.00e+00	0	56	0	904921088	52	4927
2026-01-07 00:34:12.11	234.28	26.27	-40.2	-42.9	15.1	7.00e-07	0	56	0	907018240	52	4779
2026-01-07 00:34:13.12	234.14	26.12	-40.1	-42.6	15.5	0.00e+00	0	57	0	909115392	51	4894
2026-01-07 00:34:14.13	234.00	25.97	-40.3	-43.0	15.1	0.00e+00	0	57	0	911212544	51	5132
2026-01-07 00:34:15.14	233.86	25.82	-40.5	-43.2	14.8	0.00e+00	0	57	0	912261120	51	5272
2026-01-07 00:34:16.15	233.72	25.67	-40.8	-43.7	14.2	0.00e+00	0	56	0	914358272	52	5270
2026-01-07 00:34:17.16	233.59	25.52	-40.9	-44.0	14.0	3.00e-06	0	57	0	916455424	52	5434
2026-01-07 00:34:18.17	233.45	25.38	-41.3	-44.6	13.3	4.50e-06	0	56	0	918552576	53	5521
2026-01-07 00:34:19.18	233.32	25.23	-41.4	-44.8	13.1	3.28e-05	0	57	0	920649728	53	5635
2026-01-07 00:34:20.19	233.18	25.09	-41.4	-44.8	13.1	4.11e-05	0	57	0	922746880	53	5624
2026-01-07 00:34:21.20	233.05	24.94	-41.3	-44.7	13.2	1.98e-05	0	57	0	923795456	53	5548
2026-01-07 00:34:22.20	232.92	24.80	-41.2	-44.6	13.4	1.60e-05	0	56	0	925892608	53	5467
2026-01-07 00:34:23.22	232.79	24.65	-41.1	-44.4	13.6	7.60e-06	0	56	0	927989760	53	5382
2026-01-07 00:34:24.23	232.66	24.51	-40.9	-44.0	13.9	5.30e-06	0	57	0	930086912	53	5137
2026-01-07 00:34:25.24	232.53	24.37	-41.0	-44.3	13.7	3.80e-06	0	57	0	932184064	53	5281
2026-01-07 00:34:26.25	232.41	24.23	-40.9	-44.1	13.8	2.20e-06	0	56	0	933232640	53	5173
2026-01-07 00:34:27.26	232.28	24.08	-40.8	-43.9	14.0	5.30e-06	0	56	0	935329792	53	5082
2026-01-07 00:34:28.27	232.16	23.94	-40.8	-43.8	14.1	3.00e-06	0	57	0	937426944	53	5038
2026-01-07 00:34:29.28	232.04	23.80	-40.7	-43.6	14.3	7.00e-07	0	56	0	939524096	53	4920
2026-01-07 00:34:30.29	231.91	23.67	-40.6	-43.4	14.5	0.00e+00	0	56	0	941621248	53	4808
2026-01-07 00:34:31.30	231.79	23.53	-40.3	-43.1	14.9	7.00e-07	0	56	0	942669824	52	4876
2026-01-07 00:34:32.31	231.67	23.39	-40.4	-43.3	14.6	0.00e+00	0	56	0	944766976	52	4992
2026-01-07 00:34:33.32	231.56	23.25	-40.4	-43.3	14.6	0.00e+00	0	56	0	946864128	52	5010
2026-01-07 00:34:34.33	231.44	23.11	-40.6	-43.6	14.4	0.00e+00	0	57	0	948961280	52	5195
2026-01-07 00:34:35.34	231.32	22.98	-40.6	-43.6	14.4	7.00e-07	0	56	0	951058432	52	5184
2026-01-07 00:34:36.35	231.21	22.84	-40.6	-43.7	14.3	7.00e-07	0	57	0	952107008	52	5225
2026-01-07 00:34:37.36	231.09	22.71	-40.8	-43.9	14.0	0.00e+00	0	56	0	954204160	52	5396
2026-01-07 00:34:38.37	230.98	22.57	-40.7	-43.8	14.1	2.20e-06	0	56	0	956301312	52	5304
2026-01-07 00:34:39.38	230.87	22.44	-40.4	-43.3	14.6	7.00e-07	0	56	0	958398464	52	5026
2026-01-07 00:34:40.39	230.76	22.31	-40.4	-43.3	14.6	2.20e-06	0	56	0	960495616	52	5008
2026-01-07 00:34:41.40	230.65	22.17	-40.3	-43.1	14.8	0.00e+00	0	57	0	961544192	52	4887
2026-01-07 00:34:42.41	230.54	22.04	-40.1	-42.8	15.1	0.00e+00	0	57	0	963641344	52	4728
2026-01-07 00:34:43.42	230.43	21.91	-40.2	-43.0	15.0	0.00e+00	0	56	0	965738496	52	4827
2026-01-07 00:34:44.43	230.32	21.78	-40.5	-43.3	14.7	0.00e+00	0	57	0	967835648	52	5001
2026-01-07 00:34:45.44	230.21	21.65	-40.6	-43.5	14.5	7.00e-07	0	56	0	969932800	52	5107
2026-01-07 00:34:46.44	230.11	21.52	-40.8	-43.9	14.0	1.50e-06	0	56	0	970981376	52	5386
2026-01-07 00:34:47.45	230.01	21.39	-41.2	-44.6	13.3	3.80e-06	0	57	0	973078528	52	5821
2026-01-07 00:34:48.47	229.90	21.26	-41.5	-45.1	12.8	3.73e-05	0	56	0	975175680	53	5844
2026-01-07 00:34:49.48	229.80	21.13	-41.7	-45.5	12.3	1.40e-04	0	57	0	977272832	53	6131
2026-01-07 00:34:50.49	229.70	21.00	-41.8	-45.7	12.2	2.08e-04	0	56	0	979369984	54	5865
2026-01-07 00:34:51.49	229.60	20.88	-41.7	-45.4	12.4	1.91e-04	0	56	0	980418560	54	5705
2026-01-07 00:34:52.50	229.49	20.75	-41.5	-45.2	12.6	1.09e-04	0	56	0	982515712	54	5585
2026-01-07 00:34:53.51	229.40	20.62	-41.3	-44.8	13.1	7.47e-05	0	57	0	984612864	54	5301
2026-01-07 00:34:54.53	229.30	20.50	-41.2	-44.7	13.1	3.73e-05	0	56	0	986710016	54	5241
2026-01-07 00:34:55.54	229.20	20.37	-41.2	-44.6	13.3	2.21e-05	0	57	0	988807168	54	5206
2026-01-07 00:34:56.55	229.10	20.25	-41.2	-44.6	13.2	1.75e-05	0	56	0	990904320	54	5213
2026-01-07 00:34:57.56	229.00	20.12	-41.1	-44.4	13.5	1.67e-05	0	57	0	991952896	54	5068
2026-01-07 00:34:58.57	228.91	20.00	-41.0	-44.3	13.5	1.14e-05	0	56	0	994050048	53	5336
2026-01-07 00:34:59.57	228.82	19.88	-41.0	-44.3	13.5	1.60e-05	0	57	0	996147200	53	5340
2026-01-07 00:35:00.58	228.72	19.76	-41.1	-44.4	13.4	6.10e-06	0	56	0	998244352	53	5371
2026-01-07 00:35:01.59	228.63	19.63	-41.1	-44.5	13.3	1.37e-05	0	57	0	1000341504	53	5416
2026-01-07 00:35:02.60	228.54	19.51	-41.1	-44.4	13.4	1.44e-05	0	57	0	1001390080	53	5365
2026-01-07 00:35:03.61	228.44	19.39	-40.9	-44.1	13.7	4.50e-06	0	57	0	1003487232	53	5196
2026-01-07 00:35:04.62	228.35	19.27	-41.0	-44.2	13.6	1.14e-05	0	56	0	1005584384	53	5277
2026-01-07 00:35:05.63	228.26	19.15	-41.1	-44.4	13.4	6.80e-06	0	57	0	1007681536	53	5363
2026-01-07 00:35:06.64	228.17	19.03	-40.9	-44.2	13.7	9.10e-06	0	57	0	1009778688	53	5219
2026-01-07 00:35:07.65	228.08	18.91	-40.9	-44.2	13.7	6.10e-06	0	57	0	1010827264	53	5249
2026-01-07 00:35:08.66	228.00	18.80	-41.1	-44.4	13.3	9.90e-06	0	57	0	1012924416	53	5381
2026-01-07 00:35:09.67	227.91	18.68	-41.1	-44.4	13.4	9.90e-06	0	56	0	1015021568	53	5367
2026-01-07 00:35:10.68	227.82	18.56	-41.1	-44.5	13.3	1.29e-05	0	56	0	1017118720	53	5418
2026-01-07 00:35:11.69	227.74	18.44	-41.1	-44.5	13.3	1.75e-05	0	57	0	1019215872	53	5434
2026-01-07 00:35:12.70	227.65	18.33	-40.8	-44.0	13.8	1.06e-05	0	57	0	1020264448	53	5135
2026-01-07 00:35:13.71	227.57	18.21	-40.9	-44.2	13.6	9.10e-06	0	56	0	1022361600	53	5246
2026-01-07 00:35:14.72	227.48	18.10	-40.9	-44.1	13.7	5.30e-06	0	56	0	1024458752	53	5176
2026-01-07 00:35:15.72	227.40	17.98	-40.7	-43.9	13.9	3.80e-06	0	56	0	1026555904	53	5069
2026-01-07 00:35:16.74	227.32	17.87	-40.8	-43.9	13.8	3.80e-06	0	57	0	1028653056	53	5094
2026-01-07 00:35:17.75	227.23	17.75	-40.9	-44.1	13.7	4.50e-06	0	57	0	1029701632	53	5190
2026-01-07 00:35:18.76	227.15	17.64	-40.8	-44.1	13.7	4.50e-06	0	57	0	1031798784	53	5189
2026-01-07 00:35:19.77	227.07	17.53	-40.9	-44.2	13.6	4.50e-06	0	57	0	1033895936	53	5252
2026-01-07 00:35:20.78	226.99	17.41	-41.0	-44.3	13.5	9.90e-06	0	57	0	1035993088	53	5290
2026-01-07 00:35:21.79	226.91	17.30	-40.9	-44.2	13.6	5.30e-06	0	57	0	1038090240	53	5220
2026-01-07 00:35:22.80	226.83	17.19	-40.9	-44.2	13.5	9.90e-06	0	57	0	1039138816	53	5270
2026-01-07 00:35:23.81	226.76	17.08	-41.0	-44.4	13.3	2.13e-05	0	56	0	1041235968	53	5396
2026-01-07 00:35:24.82	226.68	16.97	-41.1	-44.5	13.2	1.83e-05	0	56	0	1043333120	53	5454
2026-01-07 00:35:25.83	226.60	16.86	-41.0	-44.5	13.3	2.36e-05	0	57	0	1045430272	53	5405
2026-01-07 00:35:26.84	226.52	16.75	-41.1	-44.5	13.1	2.67e-05	0	57	0	1047527424	53	5463
2026-01-07 00:35:27.84	226.45	16.64	-41.1	-44.5	13.2	2.74e-05	0	56	0	1048576000	53	5461
2026-01-07 00:35:28.85	226.37	16.53	-41.2	-44.7	13.1	2.13e-05	0	57	0	1050673152	53	5529
2026-01-07 00:35:29.86	226.30	16.42	-41.1	-44.5	13.2	3.35e-05	0	57	0	1052770304	53	5450
2026-01-07 00:35:30.87	226.22	16.31	-41.0	-44.4	13.3	1.29e-05	0	56	0	1054867456	53	5373
2026-01-07 00:35:31.88	226.15	16.21	-41.0	-44.3	13.4	1.14e-05	0	56	0	1056964608	53	5292
2026-01-07 00:35:32.89	226.08	16.10	-40.6	-43.7	13.9	7.60e-06	0	56	0	1059061760	53	4979
2026-01-07 00:35:33.90	226.00	15.99	-40.7	-43.8	13.9	2.20e-06	0	57	0	1060110336	53	4996
2026-01-07 00:35:34.91	225.93	15.88	-40.6	-43.6	14.1	3.80e-06	0	57	0	1062207488	53	4907
2026-01-07 00:35:35.92	225.86	15.78	-40.4	-43.3	14.4	1.50e-06	0	56	0	1064304640	52	5007
2026-01-07 00:35:36.93	225.79	15.67	-40.3	-43.2	14.5	7.00e-07	0	57	0	1066401792	52	4979
2026-01-07 00:35:37.94	225.72	15.57	-40.3	-43.2	14.4	0.00e+00	0	57	0	1068498944	52	4974
2026-01-07 00:35:38.95	225.65	15.46	-40.3	-43.2	14.5	7.00e-07	0	57	0	1069547520	52	4973
2026-01-07 00:35:39.96	225.58	15.36	-40.3	-43.2	14.5	1.50e-06	0	57	0	1071644672	52	4959
2026-01-07 00:35:40.97	225.51	15.25	-40.5	-43.5	14.1	7.00e-07	0	56	0	1073741824	52	5146
2026-01-07 00:35:41.98	225.44	15.15	-40.4	-43.3	14.4	7.00e-07	0	56	0	1075838976	52	5006
2026-01-07 00:35:42.99	225.37	15.05	-40.4	-43.4	14.3	2.20e-06	0	57	0	1077936128	52	5060
2026-01-07 00:35:44.00	225.31	14.94	-40.5	-43.6	14.1	1.50e-06	0	56	0	1078984704	52	5181
2026-01-07 00:35:45.00	225.24	14.84	-40.5	-43.5	14.2	7.00e-07	0	56	0	1081081856	52	5123
2026-01-07 00:35:46.01	225.17	14.74	-40.5	-43.4	14.2	1.50e-06	0	57	0	1083179008	52	5089
2026-01-07 00:35:47.02	225.11	14.64	-40.6	-43.7	13.9	2.20e-06	0	56	0	1085276160	52	5243
2026-01-07 00:35:48.03	225.04	14.54	-40.5	-43.6	14.1	0.00e+00	0	56	0	1087373312	52	5167
2026-01-07 00:35:49.04	224.98	14.44	-40.6	-43.7	13.9	4.50e-06	0	56	0	1088421888	52	5264
2026-01-07 00:35:50.05	224.91	14.34	-40.7	-43.8	13.9	3.00e-06	0	56	0	1090519040	52	5310
2026-01-07 00:35:51.06	224.85	14.24	-40.7	-43.8	13.8	4.50e-06	0	56	0	1092616192	52	5324
2026-01-07 00:35:52.07	224.78	14.14	-40.8	-44.0	13.5	5.30e-06	0	56	0	1094713344	52	5464
2026-01-07 00:35:53.08	224.72	14.04	-40.7	-43.9	13.7	5.30e-06	0	57	0	1096810496	52	5396
2026-01-07 00:35:54.09	224.66	13.94	-40.8	-44.0	13.6	2.20e-06	0	57	0	1097859072	52	5438
2026-01-07 00:35:55.10	224.59	13.84	-40.7	-43.9	13.7	1.50e-06	0	57	0	1099956224	52	5366
2026-01-07 00:35:56.11	224.53	13.74	-40.8	-44.1	13.5	6.80e-06	0	57	0	1102053376	52	5506
2026-01-07 00:35:57.12	224.47	13.64	-40.7	-43.9	13.7	6.80e-06	0	56	0	1104150528	52	5341
2026-01-07 00:35:58.13	224.41	13.55	-40.8	-44.1	13.4	6.80e-06	0	56	0	1106247680	52	5502
2026-01-07 00:35:59.14	224.35	13.45	-40.8	-44.1	13.4	1.06e-05	0	57	0	1107296256	52	5520
2026-01-07 00:36:00.15	224.29	13.35	-40.7	-43.9	13.6	5.30e-06	0	57	0	1109393408	52	5366
2026-01-07 00:36:01.16	224.23	13.26	-40.8	-44.1	13.4	9.10e-06	0	56	0	1111490560	52	5478
2026-01-07 00:36:02.17	224.17	13.16	-40.9	-44.2	13.3	1.29e-05	0	56	0	1113587712	52	5592
2026-01-07 00:36:03.18	224.11	13.06	-40.9	-44.2	13.3	1.52e-05	0	57	0	1115684864	52	5586
2026-01-07 00:36:04.19	224.05	12.97	-41.0	-44.4	13.1	1.52e-05	0	57	0	1116733440	52	5717
