passes_logs/2026/01/09/R3.2S_Murmansk/R3.2S_Murmansk__20260109_000413_NOAA_20_JPSS-1_rec.log

#Pass ID: 20260109_000413_NOAA 20 (JPSS-1)
#Satellite: NOAA 20 (JPSS-1)
#Configuration: NOAA 20
#almurnet v.1.7.20251203
#Start time: 2026-01-09 00:04:16

#Version: 2.2.20231116
#Station: R3.2S_Murmansk
#Location: 33.079688 lon 68.888172 lat
#TLE: 1 43013U 17073A   26008.56343035  .00000133  00000+0  84205-4 0  9993
#TLE: 2 43013  98.7630 309.5710 0001731  48.5146 311.6178 14.19534569421822

#Time	Az	El	Level	Level2	SNR	BER	BlckErr	Temp	State	Recorded	gain1	gain2
2026-01-09 00:04:16.03	22.46	2.15	-57.4	-72.8	3.8	1.49e+00	0	22	0	0	81	20597
2026-01-09 00:04:17.03	22.48	2.21	-57.3	-73.0	3.8	1.49e+00	0	22	104	0	79	23648
2026-01-09 00:04:18.02	22.50	2.27	-57.3	-73.0	3.8	1.49e+00	0	22	104	0	79	23648
2026-01-09 00:04:19.01	22.52	2.34	-57.4	-73.1	3.8	1.49e+00	0	22	104	0	79	24012
2026-01-09 00:04:19.99	22.55	2.40	-57.3	-73.0	3.8	1.49e+00	0	22	104	0	79	23635
2026-01-09 00:04:20.98	22.57	2.46	-57.3	-72.9	3.8	1.49e+00	0	22	104	0	79	23466
2026-01-09 00:04:21.98	22.59	2.53	-57.3	-72.8	3.8	1.49e+00	0	22	104	0	79	23143
2026-01-09 00:04:22.96	22.61	2.59	-57.3	-72.3	3.8	1.49e+00	0	22	104	0	79	21821
2026-01-09 00:04:23.95	22.63	2.65	-57.3	-72.2	3.8	1.49e+00	0	22	104	0	79	21696
2026-01-09 00:04:24.93	22.65	2.72	-57.3	-71.8	3.8	1.49e+00	0	22	104	0	79	20656
2026-01-09 00:04:25.92	22.67	2.78	-57.3	-71.5	3.8	1.49e+00	0	22	104	0	79	19974
2026-01-09 00:04:26.91	22.69	2.84	-57.3	-71.0	3.9	1.49e+00	0	22	104	0	79	18869
2026-01-09 00:04:27.90	22.71	2.91	-57.3	-71.0	4.0	1.48e+00	0	22	104	0	79	18769
2026-01-09 00:04:28.90	22.74	2.97	-57.3	-70.9	3.9	1.48e+00	0	22	104	0	79	18564
2026-01-09 00:04:29.89	22.76	3.04	-57.2	-70.4	4.1	1.47e+00	0	23	0	0	79	17605
2026-01-09 00:04:30.89	22.78	3.10	-57.2	-70.0	4.1	1.47e+00	0	23	0	0	79	16834
2026-01-09 00:04:31.89	22.80	3.17	-57.2	-70.3	4.1	1.41e+00	0	22	0	0	79	17344
2026-01-09 00:04:32.88	22.82	3.23	-57.2	-70.0	4.2	1.42e+00	0	23	0	0	79	16795
2026-01-09 00:04:33.87	22.84	3.30	-57.2	-69.4	4.3	1.37e+00	0	23	0	0	79	15751
2026-01-09 00:04:34.86	22.87	3.36	-57.1	-68.8	4.5	1.16e+00	4	23	0	1048576	79	14584
2026-01-09 00:04:35.85	22.89	3.43	-57.1	-67.8	4.9	8.22e-01	0	23	0	3145728	79	13098
2026-01-09 00:04:36.84	22.91	3.50	-57.0	-66.8	5.5	4.47e-01	0	23	0	5242880	79	11618
2026-01-09 00:04:37.84	22.93	3.56	-56.8	-65.6	6.3	3.69e-01	0	23	0	6291456	79	10068
2026-01-09 00:04:38.83	22.95	3.63	-56.7	-64.6	7.1	1.85e-01	0	23	0	8388608	79	9030
2026-01-09 00:04:39.82	22.98	3.70	-56.5	-63.9	7.7	6.35e-02	0	23	0	10485760	79	8330
2026-01-09 00:04:40.81	23.00	3.76	-56.4	-63.2	8.4	4.97e-02	0	23	0	12582912	79	7656
2026-01-09 00:04:41.81	23.02	3.83	-56.1	-62.0	9.4	1.15e-02	0	23	0	14680064	78	7099
2026-01-09 00:04:42.80	23.04	3.90	-55.7	-60.8	10.5	4.12e-03	0	23	0	15728640	78	6200
2026-01-09 00:04:43.80	23.07	3.96	-55.5	-60.5	10.6	1.13e-03	0	23	0	17825792	77	6304
2026-01-09 00:04:44.79	23.09	4.03	-55.4	-60.1	11.0	3.88e-04	0	23	0	19922944	77	6035
2026-01-09 00:04:45.78	23.11	4.10	-55.3	-59.8	11.2	1.92e-04	0	23	0	22020096	77	5835
2026-01-09 00:04:46.78	23.13	4.17	-55.3	-59.9	11.2	1.58e-04	0	23	0	23068672	77	5880
2026-01-09 00:04:47.78	23.16	4.23	-55.0	-59.3	11.6	5.49e-05	0	23	0	25165824	76	5806
2026-01-09 00:04:48.77	23.18	4.30	-55.0	-59.3	11.5	1.06e-04	0	23	0	27262976	76	5854
2026-01-09 00:04:49.77	23.20	4.37	-55.2	-59.8	11.2	7.01e-05	0	23	0	29360128	76	6172
2026-01-09 00:04:50.76	23.23	4.44	-55.3	-60.1	11.0	2.40e-04	0	23	0	31457280	76	6370
2026-01-09 00:04:51.76	23.25	4.51	-55.4	-60.3	10.7	3.67e-04	0	23	0	32505856	76	6528
2026-01-09 00:04:52.75	23.27	4.57	-55.7	-61.1	10.0	1.22e-03	0	23	0	34603008	76	7157
2026-01-09 00:04:53.74	23.30	4.64	-55.8	-61.6	9.7	2.08e-03	0	23	0	36700160	76	7554
2026-01-09 00:04:54.74	23.32	4.71	-55.8	-61.4	9.8	3.43e-03	0	23	0	38797312	76	7386
2026-01-09 00:04:55.73	23.34	4.78	-56.1	-62.6	8.7	9.44e-03	0	23	0	39845888	77	8062
2026-01-09 00:04:56.72	23.37	4.85	-56.2	-63.2	8.3	2.49e-02	0	23	0	41943040	77	8581
2026-01-09 00:04:57.72	23.39	4.92	-56.4	-63.7	7.8	4.54e-02	0	23	0	44040192	77	9115
2026-01-09 00:04:58.72	23.42	4.99	-56.5	-64.2	7.4	8.02e-02	0	23	0	46137344	78	9166
2026-01-09 00:04:59.71	23.44	5.06	-54.7	-58.3	12.4	5.97e-02	0	23	0	48234496	76	5188
2026-01-09 00:05:00.71	23.46	5.13	-56.2	-62.8	8.7	0.00e+00	0	23	0	49283072	77	8245
2026-01-09 00:05:01.71	23.49	5.20	-56.9	-65.9	6.2	9.33e-02	0	23	0	51380224	78	11046
2026-01-09 00:05:02.70	23.51	5.27	-56.0	-61.6	9.7	3.88e-01	0	23	0	53477376	78	6758
2026-01-09 00:05:03.70	23.54	5.34	-56.9	-67.1	5.4	6.62e-04	0	23	0	55574528	78	12772
2026-01-09 00:05:04.68	23.56	5.41	-56.1	-61.8	9.5	3.66e-01	0	23	0	55574528	78	6950
2026-01-09 00:05:05.68	23.59	5.48	-55.1	-59.3	11.7	6.48e-05	0	23	0	56623104	76	5824
2026-01-09 00:05:06.67	23.61	5.55	-55.0	-59.0	11.9	9.90e-06	0	23	0	58720256	76	5654
2026-01-09 00:05:07.66	23.64	5.63	-54.4	-57.9	12.7	5.30e-06	0	23	0	60817408	75	5238
2026-01-09 00:05:08.65	23.66	5.70	-54.5	-58.1	12.5	0.00e+00	0	23	0	62914560	75	5380
2026-01-09 00:05:09.64	23.68	5.77	-54.1	-57.3	13.0	0.00e+00	0	23	0	65011712	74	5177
2026-01-09 00:05:10.64	23.71	5.84	-53.6	-56.4	13.4	0.00e+00	0	23	0	66060288	73	4971
2026-01-09 00:05:11.64	23.74	5.91	-53.6	-56.4	13.5	0.00e+00	0	23	0	68157440	73	4966
2026-01-09 00:05:12.63	23.76	5.99	-53.6	-56.5	13.4	0.00e+00	0	23	0	70254592	73	5017
2026-01-09 00:05:13.62	23.79	6.06	-53.3	-56.0	13.8	0.00e+00	0	23	0	72351744	73	4750
2026-01-09 00:05:14.62	23.81	6.13	-53.2	-55.9	13.9	0.00e+00	0	23	0	73400320	73	4677
2026-01-09 00:05:15.61	23.84	6.20	-52.9	-55.4	14.0	0.00e+00	0	23	0	75497472	72	4700
2026-01-09 00:05:16.61	23.86	6.28	-52.9	-55.3	14.1	0.00e+00	0	23	0	77594624	72	4645
2026-01-09 00:05:17.59	23.89	6.35	-52.8	-55.2	14.2	0.00e+00	0	23	0	79691776	72	4566
2026-01-09 00:05:18.59	23.91	6.42	-52.8	-55.2	14.2	0.00e+00	0	23	0	81788928	72	4592
2026-01-09 00:05:19.58	23.94	6.50	-52.8	-55.3	14.2	0.00e+00	0	23	0	82837504	72	4608
2026-01-09 00:05:20.58	23.97	6.57	-52.8	-55.2	14.2	0.00e+00	0	23	0	84934656	72	4588
2026-01-09 00:05:21.57	23.99	6.64	-52.9	-55.3	14.1	0.00e+00	0	23	0	87031808	72	4650
2026-01-09 00:05:22.56	24.02	6.72	-52.8	-55.2	14.2	0.00e+00	0	23	0	89128960	72	4578
2026-01-09 00:05:23.57	24.05	6.79	-52.9	-55.3	14.1	0.00e+00	0	23	0	90177536	72	4646
2026-01-09 00:05:24.56	24.07	6.87	-53.0	-55.4	14.1	0.00e+00	0	24	0	92274688	72	4687
2026-01-09 00:05:25.55	24.10	6.94	-52.6	-54.9	14.3	0.00e+00	0	23	0	94371840	71	4688
2026-01-09 00:05:26.54	24.13	7.02	-52.7	-55.1	14.1	0.00e+00	0	23	0	96468992	71	4787
2026-01-09 00:05:27.53	24.15	7.09	-52.5	-54.8	14.3	0.00e+00	0	23	0	98566144	71	4638
2026-01-09 00:05:28.52	24.18	7.17	-52.5	-54.8	14.3	0.00e+00	0	24	0	99614720	71	4622
2026-01-09 00:05:29.52	24.21	7.25	-52.6	-55.0	14.2	0.00e+00	0	24	0	101711872	71	4718
2026-01-09 00:05:30.51	24.23	7.32	-52.7	-55.0	14.2	0.00e+00	0	23	0	103809024	71	4722
2026-01-09 00:05:31.50	24.26	7.40	-52.6	-55.0	14.2	0.00e+00	0	23	0	105906176	71	4710
2026-01-09 00:05:32.49	24.29	7.47	-52.6	-55.0	14.2	0.00e+00	0	24	0	106954752	71	4707
2026-01-09 00:05:33.49	24.32	7.55	-52.7	-55.0	14.2	0.00e+00	0	23	0	109051904	71	4737
2026-01-09 00:05:34.48	24.34	7.63	-52.6	-54.9	14.3	0.00e+00	0	23	0	111149056	71	4667
2026-01-09 00:05:35.47	24.37	7.70	-52.6	-54.9	14.3	0.00e+00	0	24	0	113246208	71	4683
2026-01-09 00:05:36.46	24.40	7.78	-52.6	-54.9	14.3	0.00e+00	0	23	0	115343360	71	4667
2026-01-09 00:05:37.45	24.43	7.86	-52.6	-54.8	14.3	0.00e+00	0	24	0	116391936	71	4643
2026-01-09 00:05:38.45	24.46	7.94	-52.5	-54.8	14.3	0.00e+00	0	23	0	118489088	71	4619
2026-01-09 00:05:39.44	24.48	8.02	-52.5	-54.7	14.5	0.00e+00	0	24	0	120586240	71	4547
2026-01-09 00:05:40.44	24.51	8.09	-52.5	-54.8	14.4	0.00e+00	0	24	0	122683392	71	4605
2026-01-09 00:05:41.44	24.54	8.17	-52.5	-54.8	14.4	0.00e+00	0	23	0	123731968	71	4607
2026-01-09 00:05:42.44	24.57	8.25	-52.5	-54.7	14.4	0.00e+00	0	23	0	125829120	71	4555
2026-01-09 00:05:43.44	24.60	8.33	-52.5	-54.7	14.4	0.00e+00	0	24	0	127926272	71	4588
2026-01-09 00:05:44.44	24.63	8.41	-52.4	-54.6	14.5	0.00e+00	0	24	0	130023424	71	4523
2026-01-09 00:05:45.43	24.66	8.49	-52.5	-54.7	14.4	0.00e+00	0	24	0	132120576	71	4591
2026-01-09 00:05:46.42	24.69	8.57	-52.4	-54.6	14.5	0.00e+00	0	23	0	133169152	71	4519
2026-01-09 00:05:47.42	24.72	8.65	-52.4	-54.5	14.5	0.00e+00	0	24	0	135266304	71	4478
2026-01-09 00:05:48.42	24.75	8.73	-52.4	-54.5	14.5	0.00e+00	0	24	0	137363456	71	4487
2026-01-09 00:05:49.41	24.78	8.81	-52.4	-54.6	14.5	0.00e+00	0	24	0	139460608	71	4511
2026-01-09 00:05:50.41	24.81	8.89	-52.4	-54.5	14.5	0.00e+00	0	24	0	140509184	71	4485
2026-01-09 00:05:51.40	24.84	8.98	-52.4	-54.5	14.6	0.00e+00	0	24	0	142606336	71	4479
2026-01-09 00:05:52.40	24.87	9.06	-52.4	-54.6	14.5	0.00e+00	0	24	0	144703488	71	4525
2026-01-09 00:05:53.40	24.90	9.14	-52.4	-54.5	14.6	0.00e+00	0	24	0	146800640	71	4468
2026-01-09 00:05:54.39	24.93	9.22	-52.3	-54.4	14.6	0.00e+00	0	24	0	148897792	71	4395
2026-01-09 00:05:55.38	24.96	9.30	-52.3	-54.5	14.6	0.00e+00	0	24	0	149946368	71	4445
2026-01-09 00:05:56.37	24.99	9.38	-52.3	-54.4	14.6	0.00e+00	0	24	0	152043520	71	4422
2026-01-09 00:05:57.36	25.02	9.47	-52.3	-54.4	14.6	0.00e+00	0	24	0	154140672	71	4417
2026-01-09 00:05:58.36	25.05	9.55	-52.4	-54.6	14.5	0.00e+00	0	24	0	156237824	71	4506
2026-01-09 00:05:59.35	25.08	9.63	-52.2	-54.2	14.7	0.00e+00	0	24	0	157286400	71	4336
2026-01-09 00:06:00.34	25.11	9.72	-52.3	-54.4	14.6	0.00e+00	0	24	0	159383552	71	4416
2026-01-09 00:06:01.34	25.14	9.80	-52.3	-54.4	14.6	0.00e+00	0	24	0	161480704	71	4411
2026-01-09 00:06:02.33	25.18	9.88	-52.3	-54.5	14.6	0.00e+00	0	24	0	163577856	71	4452
2026-01-09 00:06:03.32	25.21	9.97	-52.3	-54.4	14.6	0.00e+00	0	24	0	165675008	71	4420
2026-01-09 00:06:04.31	25.24	10.05	-52.1	-54.1	14.6	0.00e+00	0	23	0	166723584	70	4538
2026-01-09 00:06:05.30	25.27	10.14	-52.1	-54.2	14.6	0.00e+00	0	24	0	168820736	70	4563
2026-01-09 00:06:06.29	25.30	10.22	-52.0	-54.0	14.7	0.00e+00	0	24	0	170917888	70	4476
2026-01-09 00:06:07.29	25.34	10.31	-52.1	-54.1	14.6	0.00e+00	0	24	0	173015040	70	4513
2026-01-09 00:06:08.28	25.37	10.39	-52.0	-54.0	14.7	0.00e+00	0	24	0	174063616	70	4485
2026-01-09 00:06:09.27	25.40	10.48	-52.1	-54.1	14.6	0.00e+00	0	24	0	176160768	70	4536
2026-01-09 00:06:10.26	25.43	10.57	-52.1	-54.1	14.6	0.00e+00	0	24	0	178257920	70	4544
2026-01-09 00:06:11.26	25.47	10.65	-52.0	-54.0	14.7	0.00e+00	0	23	0	180355072	70	4483
2026-01-09 00:06:12.25	25.50	10.74	-52.0	-54.0	14.7	0.00e+00	0	24	0	182452224	70	4445
2026-01-09 00:06:13.24	25.53	10.83	-52.0	-54.0	14.7	0.00e+00	0	24	0	183500800	70	4447
2026-01-09 00:06:14.23	25.57	10.91	-52.0	-54.0	14.7	0.00e+00	0	24	0	185597952	70	4454
2026-01-09 00:06:15.21	25.60	11.00	-51.9	-53.8	14.8	0.00e+00	0	24	0	187695104	70	4381
2026-01-09 00:06:16.21	25.63	11.09	-52.0	-53.9	14.7	0.00e+00	0	23	0	189792256	70	4427
2026-01-09 00:06:17.19	25.67	11.18	-52.0	-53.9	14.7	0.00e+00	0	24	0	190840832	70	4431
2026-01-09 00:06:18.18	25.70	11.27	-52.0	-54.0	14.7	0.00e+00	0	24	0	192937984	70	4463
2026-01-09 00:06:19.17	25.74	11.35	-51.8	-53.7	14.9	0.00e+00	0	24	0	195035136	70	4333
2026-01-09 00:06:20.16	25.77	11.44	-51.9	-53.8	14.8	0.00e+00	0	24	0	197132288	70	4352
2026-01-09 00:06:21.16	25.81	11.53	-51.9	-53.8	14.8	0.00e+00	0	24	0	198180864	70	4391
2026-01-09 00:06:22.15	25.84	11.62	-51.9	-53.8	14.8	0.00e+00	0	24	0	200278016	70	4358
2026-01-09 00:06:23.15	25.88	11.71	-51.8	-53.8	14.8	0.00e+00	0	24	0	202375168	70	4342
2026-01-09 00:06:24.14	25.91	11.80	-51.9	-53.8	14.8	0.00e+00	0	24	0	204472320	70	4368
2026-01-09 00:06:25.14	25.95	11.90	-51.8	-53.8	14.9	0.00e+00	0	24	0	206569472	70	4344
2026-01-09 00:06:26.14	25.98	11.99	-51.9	-53.8	14.8	0.00e+00	0	24	0	207618048	70	4386
2026-01-09 00:06:27.13	26.02	12.08	-51.9	-53.8	14.8	0.00e+00	0	24	0	209715200	70	4375
2026-01-09 00:06:28.12	26.06	12.17	-51.9	-53.8	14.8	0.00e+00	0	24	0	211812352	70	4371
2026-01-09 00:06:29.12	26.09	12.26	-52.0	-53.9	14.8	0.00e+00	0	24	0	213909504	70	4409
2026-01-09 00:06:30.11	26.13	12.36	-51.9	-53.8	14.9	0.00e+00	0	24	0	214958080	70	4361
2026-01-09 00:06:31.10	26.17	12.45	-51.8	-53.7	14.9	0.00e+00	0	24	0	217055232	70	4293
2026-01-09 00:06:32.08	26.20	12.54	-51.9	-53.8	14.9	0.00e+00	0	24	0	219152384	70	4345
2026-01-09 00:06:33.08	26.24	12.64	-51.8	-53.6	14.9	0.00e+00	0	24	0	221249536	70	4288
2026-01-09 00:06:34.07	26.28	12.73	-51.8	-53.7	14.9	0.00e+00	0	24	0	223346688	70	4336
2026-01-09 00:06:35.07	26.31	12.83	-51.8	-53.7	14.9	0.00e+00	0	24	0	224395264	70	4327
2026-01-09 00:06:36.06	26.35	12.92	-51.8	-53.7	14.9	0.00e+00	0	24	0	226492416	70	4315
2026-01-09 00:06:37.06	26.39	13.02	-51.8	-53.7	14.9	0.00e+00	0	24	0	228589568	70	4326
2026-01-09 00:06:38.05	26.43	13.11	-51.8	-53.6	14.9	0.00e+00	0	24	0	230686720	70	4282
2026-01-09 00:06:39.04	26.47	13.21	-51.8	-53.7	14.9	0.00e+00	0	24	0	231735296	70	4292
2026-01-09 00:06:40.04	26.51	13.30	-51.8	-53.6	15.0	0.00e+00	0	24	0	233832448	70	4270
2026-01-09 00:06:41.03	26.54	13.40	-51.8	-53.6	14.9	0.00e+00	0	24	0	235929600	70	4286
2026-01-09 00:06:42.03	26.58	13.50	-51.8	-53.6	15.0	0.00e+00	0	24	0	238026752	70	4283
2026-01-09 00:06:43.02	26.62	13.59	-51.8	-53.7	14.9	0.00e+00	0	24	0	240123904	70	4324
2026-01-09 00:06:44.01	26.66	13.69	-51.8	-53.6	14.9	0.00e+00	0	24	0	241172480	70	4285
2026-01-09 00:06:45.01	26.70	13.79	-51.8	-53.7	14.9	0.00e+00	0	24	0	243269632	70	4311
2026-01-09 00:06:46.01	26.74	13.89	-51.8	-53.7	14.9	0.00e+00	0	24	0	245366784	70	4336
2026-01-09 00:06:47.00	26.78	13.99	-51.8	-53.7	15.0	0.00e+00	0	24	0	247463936	70	4295
2026-01-09 00:06:48.00	26.82	14.09	-51.7	-53.5	15.0	0.00e+00	0	24	0	248512512	70	4241
2026-01-09 00:06:49.00	26.87	14.19	-51.8	-53.6	15.0	0.00e+00	0	24	0	250609664	70	4272
2026-01-09 00:06:50.00	26.91	14.29	-51.8	-53.6	15.0	0.00e+00	0	24	0	252706816	70	4275
2026-01-09 00:06:50.98	26.95	14.39	-51.8	-53.6	15.0	0.00e+00	0	24	0	254803968	70	4272
2026-01-09 00:06:51.99	26.99	14.49	-51.9	-53.8	14.9	0.00e+00	0	24	0	256901120	70	4347
2026-01-09 00:06:52.98	27.03	14.59	-51.9	-53.8	14.9	0.00e+00	0	24	0	257949696	70	4358
2026-01-09 00:06:53.98	27.07	14.70	-51.9	-53.8	14.9	0.00e+00	0	24	0	260046848	70	4360
2026-01-09 00:06:54.97	27.12	14.80	-51.9	-53.8	14.8	0.00e+00	0	24	0	262144000	70	4376
2026-01-09 00:06:55.96	27.16	14.90	-51.9	-53.7	14.9	0.00e+00	0	24	0	264241152	70	4330
2026-01-09 00:06:56.95	27.20	15.00	-51.8	-53.7	15.0	0.00e+00	0	24	0	265289728	70	4299
2026-01-09 00:06:57.95	27.24	15.11	-51.8	-53.7	14.9	0.00e+00	0	24	0	267386880	70	4319
2026-01-09 00:06:58.95	27.29	15.21	-51.8	-53.6	15.0	0.00e+00	0	24	0	269484032	70	4265
2026-01-09 00:06:59.95	27.33	15.32	-51.8	-53.7	14.9	0.00e+00	0	24	0	271581184	70	4319
2026-01-09 00:07:00.94	27.38	15.42	-51.8	-53.7	14.9	0.00e+00	0	24	0	273678336	70	4298
2026-01-09 00:07:01.94	27.42	15.53	-51.8	-53.6	15.0	0.00e+00	0	24	0	274726912	70	4288
2026-01-09 00:07:02.93	27.46	15.63	-51.8	-53.6	15.0	0.00e+00	0	23	0	276824064	70	4286
2026-01-09 00:07:03.93	27.51	15.74	-51.8	-53.7	14.9	0.00e+00	0	24	0	278921216	70	4294
2026-01-09 00:07:04.92	27.55	15.85	-51.8	-53.7	14.9	0.00e+00	0	24	0	281018368	70	4309
2026-01-09 00:07:05.92	27.60	15.95	-51.8	-53.7	14.9	0.00e+00	0	24	0	282066944	70	4305
2026-01-09 00:07:06.92	27.65	16.06	-51.9	-53.8	14.9	0.00e+00	0	24	0	284164096	70	4346
2026-01-09 00:07:07.91	27.69	16.17	-51.8	-53.7	14.9	0.00e+00	0	24	0	286261248	70	4306
2026-01-09 00:07:08.91	27.74	16.28	-51.9	-53.7	14.9	0.00e+00	0	24	0	288358400	70	4333
2026-01-09 00:07:09.90	27.78	16.39	-51.8	-53.7	14.9	0.00e+00	0	24	0	290455552	70	4306
2026-01-09 00:07:10.90	27.83	16.50	-51.9	-53.7	14.9	0.00e+00	0	24	0	291504128	70	4328
2026-01-09 00:07:11.89	27.88	16.61	-51.9	-53.8	14.9	0.00e+00	0	24	0	293601280	70	4345
2026-01-09 00:07:12.87	27.93	16.72	-51.8	-53.7	14.9	0.00e+00	0	24	0	295698432	70	4313
2026-01-09 00:07:13.88	27.97	16.83	-51.9	-53.7	14.9	0.00e+00	0	24	0	297795584	70	4322
2026-01-09 00:07:14.87	28.02	16.94	-51.9	-53.8	14.9	0.00e+00	0	24	0	298844160	70	4347
2026-01-09 00:07:15.86	28.07	17.05	-51.8	-53.7	15.0	0.00e+00	0	24	0	300941312	70	4297
2026-01-09 00:07:16.86	28.12	17.16	-51.9	-53.7	14.9	0.00e+00	0	24	0	303038464	70	4340
2026-01-09 00:07:17.85	28.17	17.28	-51.8	-53.7	14.9	0.00e+00	0	24	0	305135616	70	4320
2026-01-09 00:07:18.84	28.22	17.39	-51.9	-53.8	14.9	0.00e+00	0	24	0	307232768	70	4348
2026-01-09 00:07:19.84	28.27	17.50	-51.9	-53.7	14.9	0.00e+00	0	24	0	308281344	70	4326
2026-01-09 00:07:20.83	28.32	17.62	-52.0	-53.8	14.9	0.00e+00	0	24	0	310378496	70	4384
2026-01-09 00:07:21.83	28.37	17.73	-52.0	-53.8	14.9	0.00e+00	0	24	0	312475648	70	4391
2026-01-09 00:07:22.83	28.42	17.85	-51.9	-53.8	14.8	0.00e+00	0	24	0	314572800	70	4375
2026-01-09 00:07:23.82	28.47	17.97	-51.8	-53.7	15.0	0.00e+00	0	24	0	315621376	70	4300
2026-01-09 00:07:24.81	28.52	18.08	-51.9	-53.8	14.9	0.00e+00	0	24	0	317718528	70	4368
2026-01-09 00:07:25.80	28.57	18.20	-51.9	-53.7	14.9	0.00e+00	0	24	0	319815680	70	4321
2026-01-09 00:07:26.79	28.63	18.32	-51.9	-53.8	14.9	0.00e+00	0	24	0	321912832	70	4361
2026-01-09 00:07:27.78	28.68	18.43	-51.9	-53.7	14.9	0.00e+00	0	24	0	324009984	70	4322
2026-01-09 00:07:28.78	28.73	18.55	-51.9	-53.8	14.9	0.00e+00	0	24	0	325058560	70	4357
2026-01-09 00:07:29.77	28.78	18.67	-52.0	-53.9	14.9	0.00e+00	0	24	0	327155712	70	4393
2026-01-09 00:07:30.75	28.84	18.79	-51.9	-53.7	14.9	0.00e+00	0	24	0	329252864	70	4338
2026-01-09 00:07:31.75	28.89	18.91	-51.9	-53.7	14.9	0.00e+00	0	24	0	331350016	70	4338
2026-01-09 00:07:32.75	28.95	19.03	-51.9	-53.8	14.9	0.00e+00	0	24	0	332398592	70	4370
2026-01-09 00:07:33.74	29.00	19.15	-52.0	-54.0	14.8	0.00e+00	0	24	0	334495744	70	4448
2026-01-09 00:07:34.74	29.06	19.28	-52.0	-53.9	14.8	0.00e+00	0	24	0	336592896	70	4422
2026-01-09 00:07:35.74	29.11	19.40	-52.0	-53.8	14.9	0.00e+00	0	24	0	338690048	70	4390
2026-01-09 00:07:36.73	29.17	19.52	-52.0	-53.9	14.8	0.00e+00	0	24	0	340787200	70	4406
2026-01-09 00:07:37.73	29.23	19.65	-52.1	-54.0	14.8	0.00e+00	0	24	0	341835776	70	4450
2026-01-09 00:07:38.72	29.28	19.77	-52.0	-53.8	14.9	0.00e+00	0	24	0	343932928	70	4389
2026-01-09 00:07:39.72	29.34	19.90	-52.1	-54.0	14.8	0.00e+00	0	24	0	346030080	70	4458
2026-01-09 00:07:40.71	29.40	20.02	-52.1	-54.0	14.8	0.00e+00	0	24	0	348127232	70	4457
2026-01-09 00:07:41.70	29.46	20.15	-52.1	-54.0	14.8	0.00e+00	0	24	0	349175808	70	4457
2026-01-09 00:07:42.70	29.52	20.28	-52.0	-53.8	14.9	0.00e+00	0	24	0	351272960	70	4384
2026-01-09 00:07:43.69	29.58	20.40	-51.9	-53.8	14.9	0.00e+00	0	24	0	353370112	70	4352
2026-01-09 00:07:44.69	29.64	20.53	-51.9	-53.8	14.9	0.00e+00	0	24	0	355467264	70	4363
2026-01-09 00:07:45.70	29.70	20.66	-52.0	-53.9	14.9	0.00e+00	0	24	0	357564416	70	4392
2026-01-09 00:07:46.69	29.76	20.79	-51.9	-53.7	14.9	0.00e+00	0	24	0	358612992	70	4314
2026-01-09 00:07:47.69	29.82	20.92	-51.9	-53.7	14.9	0.00e+00	0	24	0	360710144	70	4332
2026-01-09 00:07:48.69	29.88	21.05	-51.9	-53.7	15.0	0.00e+00	0	24	0	362807296	70	4324
2026-01-09 00:07:49.68	29.94	21.18	-51.8	-53.6	15.0	0.00e+00	0	24	0	364904448	70	4275
2026-01-09 00:07:50.68	30.01	21.32	-51.8	-53.6	15.0	0.00e+00	0	24	0	367001600	70	4290
2026-01-09 00:07:51.68	30.07	21.45	-51.7	-53.6	15.0	0.00e+00	0	24	0	368050176	70	4243
2026-01-09 00:07:52.68	30.13	21.58	-51.8	-53.6	15.0	0.00e+00	0	24	0	370147328	70	4290
2026-01-09 00:07:53.68	30.20	21.72	-51.8	-53.7	15.0	0.00e+00	0	24	0	372244480	70	4295
2026-01-09 00:07:54.69	30.26	21.86	-51.9	-53.7	15.0	0.00e+00	0	24	0	374341632	70	4307
2026-01-09 00:07:55.68	30.33	21.99	-51.7	-53.5	15.1	0.00e+00	0	24	0	376438784	70	4206
2026-01-09 00:07:56.68	30.39	22.13	-51.5	-53.3	15.0	0.00e+00	0	24	0	377487360	69	4355
2026-01-09 00:07:57.69	30.46	22.27	-51.6	-53.3	15.0	0.00e+00	0	24	0	379584512	69	4383
2026-01-09 00:07:58.67	30.53	22.40	-51.5	-53.3	15.0	0.00e+00	0	24	0	381681664	69	4358
2026-01-09 00:07:59.68	30.60	22.54	-51.5	-53.2	15.1	0.00e+00	0	24	0	383778816	69	4308
2026-01-09 00:08:00.68	30.66	22.68	-51.4	-53.1	15.1	0.00e+00	0	24	0	384827392	69	4247
2026-01-09 00:08:01.68	30.73	22.82	-51.4	-53.1	15.1	0.00e+00	0	24	0	386924544	69	4270
2026-01-09 00:08:02.68	30.80	22.97	-51.4	-53.1	15.1	0.00e+00	0	24	0	389021696	69	4268
2026-01-09 00:08:03.68	30.87	23.11	-51.3	-53.0	15.1	0.00e+00	0	24	0	391118848	69	4230
2026-01-09 00:08:04.67	30.94	23.25	-51.3	-53.0	15.2	0.00e+00	0	24	0	393216000	69	4242
2026-01-09 00:08:05.67	31.01	23.39	-51.4	-53.1	15.1	0.00e+00	0	24	0	394264576	69	4243
2026-01-09 00:08:06.66	31.09	23.54	-51.3	-53.0	15.2	0.00e+00	0	24	0	396361728	69	4226
2026-01-09 00:08:07.66	31.16	23.68	-51.3	-53.0	15.2	0.00e+00	0	24	0	398458880	69	4231
2026-01-09 00:08:08.65	31.23	23.82	-51.3	-53.0	15.2	0.00e+00	0	24	0	400556032	69	4206
2026-01-09 00:08:09.65	31.30	23.97	-51.3	-53.0	15.2	0.00e+00	0	24	0	401604608	69	4205
2026-01-09 00:08:10.64	31.38	24.12	-51.4	-53.0	15.1	0.00e+00	0	24	0	403701760	69	4242
2026-01-09 00:08:11.64	31.45	24.27	-51.3	-53.0	15.2	0.00e+00	0	24	0	405798912	69	4203
2026-01-09 00:08:12.64	31.53	24.41	-51.1	-52.7	15.1	0.00e+00	0	24	0	407896064	68	4327
2026-01-09 00:08:13.64	31.61	24.56	-51.1	-52.8	15.1	0.00e+00	0	24	0	409993216	68	4343
2026-01-09 00:08:14.64	31.68	24.71	-51.0	-52.6	15.2	0.00e+00	0	24	0	411041792	68	4288
2026-01-09 00:08:15.64	31.76	24.87	-51.1	-52.7	15.1	0.00e+00	0	24	0	413138944	68	4321
2026-01-09 00:08:16.64	31.84	25.02	-51.0	-52.6	15.2	0.00e+00	0	24	0	415236096	68	4253
2026-01-09 00:08:17.63	31.92	25.17	-50.8	-52.4	15.3	0.00e+00	0	24	0	417333248	68	4155
2026-01-09 00:08:18.62	32.00	25.32	-50.8	-52.4	15.3	0.00e+00	0	24	0	418381824	68	4177
2026-01-09 00:08:19.62	32.08	25.48	-50.9	-52.5	15.3	0.00e+00	0	24	0	420478976	68	4195
2026-01-09 00:08:20.61	32.16	25.63	-50.7	-52.3	15.3	0.00e+00	0	24	0	422576128	68	4135
2026-01-09 00:08:21.60	32.24	25.79	-50.8	-52.4	15.2	0.00e+00	0	24	0	424673280	68	4158
2026-01-09 00:08:22.59	32.32	25.94	-50.8	-52.4	15.2	0.00e+00	0	24	0	426770432	68	4165
2026-01-09 00:08:23.59	32.41	26.10	-50.7	-52.3	15.3	0.00e+00	0	24	0	427819008	68	4130
2026-01-09 00:08:24.60	32.49	26.26	-50.8	-52.4	15.3	0.00e+00	0	24	0	429916160	68	4169
2026-01-09 00:08:25.59	32.58	26.42	-50.8	-52.4	15.3	0.00e+00	0	24	0	432013312	68	4171
2026-01-09 00:08:26.60	32.66	26.58	-50.9	-52.5	15.2	0.00e+00	0	24	0	434110464	68	4201
2026-01-09 00:08:27.60	32.75	26.74	-50.9	-52.5	15.2	0.00e+00	0	24	0	436207616	68	4217
2026-01-09 00:08:28.60	32.84	26.91	-50.8	-52.4	15.3	0.00e+00	0	24	0	437256192	68	4185
2026-01-09 00:08:29.60	32.93	27.07	-51.0	-52.6	15.2	0.00e+00	0	24	0	439353344	68	4254
2026-01-09 00:08:30.60	33.02	27.23	-51.1	-52.7	15.1	0.00e+00	0	24	0	441450496	68	4333
2026-01-09 00:08:31.59	33.11	27.40	-51.3	-52.9	15.0	0.00e+00	0	24	0	443547648	68	4432
2026-01-09 00:08:32.58	33.20	27.56	-51.3	-53.0	15.0	0.00e+00	0	24	0	445644800	68	4451
2026-01-09 00:08:33.58	33.29	27.73	-51.4	-53.1	14.9	0.00e+00	0	24	0	446693376	68	4538
2026-01-09 00:08:34.58	33.38	27.90	-51.5	-53.2	14.9	0.00e+00	0	24	0	448790528	68	4598
2026-01-09 00:08:35.58	33.48	28.07	-51.5	-53.3	14.9	0.00e+00	0	24	0	450887680	68	4627
2026-01-09 00:08:36.57	33.57	28.24	-51.6	-53.4	14.8	0.00e+00	0	24	0	452984832	68	4656
2026-01-09 00:08:37.56	33.67	28.40	-51.7	-53.4	14.8	0.00e+00	0	24	0	454033408	68	4688
2026-01-09 00:08:38.55	33.76	28.57	-51.8	-53.5	14.7	0.00e+00	0	24	0	456130560	68	4757
2026-01-09 00:08:39.56	33.86	28.75	-51.8	-53.6	14.7	0.00e+00	0	24	0	458227712	68	4789
2026-01-09 00:08:40.56	33.96	28.92	-52.0	-53.8	14.8	0.00e+00	0	24	0	460324864	69	4633
2026-01-09 00:08:41.56	34.06	29.10	-52.0	-53.9	14.7	0.00e+00	0	24	0	462422016	69	4659
2026-01-09 00:08:42.56	34.16	29.27	-52.1	-54.0	14.7	0.00e+00	0	24	0	463470592	69	4712
2026-01-09 00:08:43.55	34.26	29.45	-52.2	-54.1	14.6	0.00e+00	0	24	0	465567744	69	4761
2026-01-09 00:08:44.55	34.37	29.63	-52.2	-54.1	14.6	0.00e+00	0	24	0	467664896	69	4769
2026-01-09 00:08:45.55	34.47	29.81	-52.3	-54.2	14.5	0.00e+00	0	24	0	469762048	69	4857
2026-01-09 00:08:46.55	34.58	29.99	-52.5	-54.5	14.6	0.00e+00	0	24	0	470810624	70	4727
2026-01-09 00:08:47.55	34.68	30.17	-52.7	-54.8	14.4	0.00e+00	0	24	0	472907776	70	4894
2026-01-09 00:08:48.56	34.79	30.35	-52.9	-55.0	14.3	0.00e+00	0	24	0	475004928	70	4989
2026-01-09 00:08:49.55	34.90	30.53	-53.0	-55.1	14.4	0.00e+00	0	24	0	477102080	71	4813
2026-01-09 00:08:50.55	35.01	30.72	-53.1	-55.3	14.3	0.00e+00	0	24	0	479199232	71	4899
2026-01-09 00:08:51.55	35.12	30.90	-53.2	-55.4	14.2	0.00e+00	0	24	0	480247808	71	4975
2026-01-09 00:08:52.55	35.23	31.09	-53.1	-55.3	14.3	0.00e+00	0	24	0	482344960	71	4889
2026-01-09 00:08:53.56	35.35	31.28	-53.2	-55.4	14.2	0.00e+00	0	24	0	484442112	71	4956
2026-01-09 00:08:54.56	35.46	31.47	-53.2	-55.4	14.2	0.00e+00	0	24	0	486539264	71	4965
2026-01-09 00:08:55.55	35.58	31.66	-53.2	-55.3	14.2	0.00e+00	0	24	0	488636416	71	4926
2026-01-09 00:08:56.56	35.70	31.85	-53.2	-55.4	14.2	0.00e+00	0	24	0	489684992	71	4973
2026-01-09 00:08:57.55	35.82	32.04	-53.3	-55.6	14.1	0.00e+00	0	24	0	491782144	71	5060
2026-01-09 00:08:58.55	35.94	32.23	-53.5	-55.8	14.1	0.00e+00	0	24	0	493879296	72	4874
2026-01-09 00:08:59.55	36.06	32.43	-53.4	-55.7	14.2	0.00e+00	0	24	0	495976448	72	4851
2026-01-09 00:09:00.55	36.18	32.62	-53.6	-55.9	14.1	0.00e+00	0	24	0	497025024	72	4936
2026-01-09 00:09:01.53	36.30	32.82	-53.6	-55.9	14.1	0.00e+00	0	24	0	499122176	72	4950
2026-01-09 00:09:02.53	36.43	33.01	-53.7	-56.1	14.0	0.00e+00	0	24	0	501219328	72	5078
2026-01-09 00:09:03.54	36.56	33.21	-53.8	-56.2	13.9	0.00e+00	0	24	0	503316480	72	5110
2026-01-09 00:09:04.53	36.69	33.41	-54.0	-56.4	13.8	0.00e+00	0	24	0	505413632	73	4977
2026-01-09 00:09:05.53	36.82	33.61	-54.0	-56.6	13.8	0.00e+00	0	24	0	506462208	73	5046
2026-01-09 00:09:06.53	36.95	33.82	-54.0	-56.5	13.9	0.00e+00	0	24	0	508559360	73	5006
2026-01-09 00:09:07.53	37.08	34.02	-54.1	-56.6	13.8	0.00e+00	0	24	0	510656512	73	5070
2026-01-09 00:09:08.53	37.22	34.22	-54.1	-56.6	13.8	0.00e+00	0	24	0	512753664	73	5079
2026-01-09 00:09:09.54	37.36	34.43	-53.9	-56.4	13.9	0.00e+00	0	24	0	514850816	73	4949
2026-01-09 00:09:10.54	37.50	34.64	-54.0	-56.5	13.9	0.00e+00	0	24	0	515899392	73	5002
2026-01-09 00:09:11.54	37.64	34.85	-53.8	-56.1	14.1	0.00e+00	0	24	0	517996544	73	4811
2026-01-09 00:09:12.54	37.78	35.06	-53.9	-56.3	14.0	0.00e+00	0	24	0	520093696	73	4898
2026-01-09 00:09:13.54	37.92	35.27	-53.9	-56.3	14.0	0.00e+00	0	24	0	522190848	73	4888
2026-01-09 00:09:14.54	38.07	35.48	-53.9	-56.3	14.0	0.00e+00	0	24	0	524288000	73	4912
2026-01-09 00:09:15.54	38.22	35.69	-53.8	-56.2	14.1	0.00e+00	0	24	0	525336576	73	4830
2026-01-09 00:09:16.54	38.37	35.91	-53.9	-56.3	13.9	0.00e+00	0	24	0	527433728	73	4922
2026-01-09 00:09:17.53	38.52	36.12	-53.9	-56.3	14.0	0.00e+00	0	24	0	529530880	73	4879
2026-01-09 00:09:18.53	38.67	36.34	-53.9	-56.3	14.0	0.00e+00	0	24	0	531628032	73	4919
2026-01-09 00:09:19.53	38.83	36.56	-54.0	-56.5	13.9	0.00e+00	0	24	0	532676608	73	5012
2026-01-09 00:09:20.52	38.98	36.77	-53.9	-56.4	13.9	0.00e+00	0	24	0	534773760	73	4956
2026-01-09 00:09:21.52	39.14	37.00	-54.0	-56.5	13.9	0.00e+00	0	24	0	536870912	73	5022
2026-01-09 00:09:22.51	39.30	37.21	-54.0	-56.4	13.9	0.00e+00	0	24	0	538968064	73	4980
2026-01-09 00:09:23.50	39.47	37.44	-54.1	-56.6	13.8	0.00e+00	0	24	0	541065216	73	5073
2026-01-09 00:09:24.50	39.63	37.66	-54.1	-56.6	13.8	0.00e+00	0	24	0	542113792	73	5090
2026-01-09 00:09:25.49	39.80	37.88	-54.2	-56.7	13.8	0.00e+00	0	24	0	544210944	73	5137
2026-01-09 00:09:26.49	39.97	38.11	-54.0	-56.5	13.9	0.00e+00	0	24	0	546308096	73	5003
2026-01-09 00:09:27.48	40.14	38.34	-54.0	-56.5	13.9	0.00e+00	0	24	0	548405248	73	4992
2026-01-09 00:09:28.47	40.32	38.56	-54.0	-56.5	13.9	0.00e+00	0	24	0	549453824	73	5033
2026-01-09 00:09:29.48	40.50	38.80	-54.1	-56.6	13.8	0.00e+00	0	24	0	551550976	73	5082
2026-01-09 00:09:30.48	40.68	39.03	-54.1	-56.7	13.8	0.00e+00	0	24	0	553648128	73	5111
2026-01-09 00:09:31.47	40.86	39.26	-54.0	-56.5	13.9	0.00e+00	0	24	0	555745280	73	4995
2026-01-09 00:09:32.47	41.04	39.49	-53.9	-56.3	14.0	0.00e+00	0	24	0	557842432	73	4885
2026-01-09 00:09:33.47	41.23	39.73	-53.9	-56.3	14.0	0.00e+00	0	24	0	558891008	73	4900
2026-01-09 00:09:34.47	41.42	39.97	-53.9	-56.3	14.0	0.00e+00	0	24	0	560988160	73	4875
2026-01-09 00:09:35.47	41.62	40.21	-53.6	-55.8	14.3	0.00e+00	0	24	0	563085312	73	4627
2026-01-09 00:09:36.47	41.81	40.45	-53.5	-55.7	14.3	0.00e+00	0	24	0	565182464	73	4570
2026-01-09 00:09:37.46	42.01	40.68	-53.4	-55.6	14.4	0.00e+00	0	24	0	566231040	73	4501
2026-01-09 00:09:38.46	42.21	40.93	-53.2	-55.3	14.6	0.00e+00	0	24	0	568328192	73	4356
2026-01-09 00:09:39.46	42.42	41.17	-53.1	-55.1	14.5	0.00e+00	0	24	0	570425344	72	4536
2026-01-09 00:09:40.47	42.63	41.42	-52.9	-55.0	14.6	0.00e+00	0	24	0	572522496	72	4461
2026-01-09 00:09:41.46	42.84	41.66	-53.0	-55.0	14.6	0.00e+00	0	24	0	574619648	72	4460
2026-01-09 00:09:42.46	43.05	41.91	-52.7	-54.7	14.8	0.00e+00	0	24	0	575668224	72	4320
2026-01-09 00:09:43.46	43.27	42.15	-52.7	-54.7	14.8	0.00e+00	0	24	0	577765376	72	4321
2026-01-09 00:09:44.45	43.49	42.40	-52.8	-54.8	14.8	0.00e+00	0	24	0	579862528	72	4350
2026-01-09 00:09:45.46	43.71	42.66	-52.6	-54.6	14.7	0.00e+00	0	24	0	581959680	71	4514
2026-01-09 00:09:46.46	43.94	42.91	-52.5	-54.4	14.8	0.00e+00	0	24	0	584056832	71	4421
2026-01-09 00:09:47.46	44.17	43.16	-52.5	-54.3	14.8	0.00e+00	0	24	0	585105408	71	4388
2026-01-09 00:09:48.46	44.41	43.41	-52.6	-54.5	14.7	0.00e+00	0	24	0	587202560	71	4477
2026-01-09 00:09:49.46	44.65	43.67	-52.8	-54.9	14.6	0.00e+00	0	24	0	589299712	71	4653
2026-01-09 00:09:50.46	44.89	43.93	-53.0	-55.0	14.5	0.00e+00	0	24	0	591396864	71	4727
2026-01-09 00:09:51.45	45.13	44.18	-53.0	-55.1	14.4	0.00e+00	0	24	0	593494016	71	4796
2026-01-09 00:09:52.45	45.38	44.44	-52.9	-54.9	14.5	0.00e+00	0	24	0	594542592	71	4696
2026-01-09 00:09:53.45	45.64	44.70	-53.1	-55.2	14.4	0.00e+00	0	24	0	596639744	71	4831
2026-01-09 00:09:54.45	45.90	44.96	-53.1	-55.2	14.4	0.00e+00	0	24	0	598736896	71	4865
2026-01-09 00:09:55.45	46.16	45.23	-53.2	-55.3	14.3	0.00e+00	0	24	0	600834048	71	4908
2026-01-09 00:09:56.45	46.43	45.49	-53.4	-55.6	14.2	0.00e+00	0	24	0	601882624	71	5051
2026-01-09 00:09:57.45	46.70	45.75	-53.4	-55.7	14.2	0.00e+00	0	24	0	603979776	72	4824
2026-01-09 00:09:58.45	46.97	46.02	-53.6	-55.8	14.2	0.00e+00	0	24	0	606076928	72	4923
2026-01-09 00:09:59.44	47.25	46.28	-53.7	-56.1	14.0	0.00e+00	0	24	0	608174080	72	5058
2026-01-09 00:10:00.45	47.54	46.55	-53.9	-56.3	13.9	0.00e+00	0	24	0	610271232	72	5181
2026-01-09 00:10:01.45	47.83	46.82	-54.2	-56.7	13.8	0.00e+00	0	24	0	611319808	73	5117
2026-01-09 00:10:02.45	48.12	47.09	-54.5	-57.1	13.7	0.00e+00	0	24	0	613416960	74	5060
2026-01-09 00:10:03.44	48.42	47.36	-54.4	-57.1	13.7	0.00e+00	0	24	0	615514112	74	5046
2026-01-09 00:10:04.44	48.73	47.63	-54.0	-56.4	14.1	0.00e+00	0	24	0	617611264	74	4679
2026-01-09 00:10:05.44	49.04	47.90	-53.5	-55.7	14.4	0.00e+00	0	24	0	619708416	73	4570
2026-01-09 00:10:06.44	49.35	48.18	-53.2	-55.3	14.7	0.00e+00	0	24	0	620756992	73	4342
2026-01-09 00:10:07.44	49.68	48.45	-53.2	-55.3	14.5	0.00e+00	0	24	0	622854144	72	4629
2026-01-09 00:10:08.43	50.00	48.72	-53.2	-55.3	14.5	0.00e+00	0	24	0	624951296	72	4608
2026-01-09 00:10:09.43	50.33	49.00	-53.2	-55.4	14.4	0.00e+00	0	24	0	627048448	72	4669
2026-01-09 00:10:10.43	50.67	49.27	-53.1	-55.2	14.5	0.00e+00	0	24	0	628097024	72	4568
2026-01-09 00:10:11.43	51.02	49.55	-52.8	-54.8	14.8	0.00e+00	0	24	0	630194176	72	4376
2026-01-09 00:10:12.43	51.37	49.83	-52.3	-54.2	14.9	0.00e+00	0	24	0	632291328	71	4313
2026-01-09 00:10:13.43	51.73	50.10	-51.9	-53.7	15.0	0.00e+00	0	24	0	634388480	70	4304
2026-01-09 00:10:14.42	52.09	50.38	-51.5	-53.2	15.1	0.00e+00	0	24	0	636485632	69	4308
2026-01-09 00:10:15.42	52.46	50.66	-51.3	-52.9	15.3	0.00e+00	0	24	0	637534208	69	4163
2026-01-09 00:10:16.41	52.83	50.94	-51.0	-52.5	15.2	0.00e+00	0	24	0	639631360	68	4238
2026-01-09 00:10:17.40	53.21	51.21	-50.5	-52.0	15.3	0.00e+00	0	24	0	641728512	67	4221
2026-01-09 00:10:18.41	53.61	51.50	-49.6	-51.3	15.5	0.00e+00	0	24	0	643825664	66	4109
2026-01-09 00:10:19.40	54.00	51.77	-49.7	-51.1	15.5	0.00e+00	0	24	0	644874240	66	4044
2026-01-09 00:10:20.40	54.41	52.05	-49.6	-51.0	15.4	0.00e+00	0	24	0	646971392	65	4202
2026-01-09 00:10:21.40	54.82	52.33	-49.3	-50.7	15.6	0.00e+00	0	24	0	649068544	65	4068
2026-01-09 00:10:22.39	55.24	52.61	-49.2	-50.6	15.6	0.00e+00	0	24	0	651165696	65	4011
2026-01-09 00:10:23.38	55.67	52.89	-49.3	-50.7	15.4	0.00e+00	0	24	0	653262848	64	4299
2026-01-09 00:10:24.38	56.11	53.17	-49.7	-51.1	15.2	0.00e+00	0	24	0	654311424	64	4535
2026-01-09 00:10:25.37	56.55	53.45	-49.7	-51.1	15.2	0.00e+00	0	24	0	656408576	64	4528
2026-01-09 00:10:26.38	57.01	53.73	-49.4	-50.7	15.4	0.00e+00	0	24	0	658505728	64	4324
2026-01-09 00:10:27.37	57.47	54.01	-49.3	-50.6	15.4	0.00e+00	0	24	0	660602880	64	4280
2026-01-09 00:10:28.37	57.94	54.29	-49.3	-50.6	15.4	0.00e+00	0	24	0	661651456	64	4269
2026-01-09 00:10:29.37	58.42	54.57	-49.6	-51.0	15.3	0.00e+00	0	24	0	663748608	64	4490
2026-01-09 00:10:30.37	58.92	54.85	-50.2	-51.7	15.1	0.00e+00	0	24	0	665845760	65	4557
2026-01-09 00:10:31.37	59.42	55.13	-50.8	-52.4	15.0	0.00e+00	0	24	0	667942912	66	4696
2026-01-09 00:10:32.37	59.93	55.40	-51.3	-53.0	14.9	0.00e+00	0	24	0	670040064	67	4706
2026-01-09 00:10:33.36	60.45	55.68	-51.5	-53.2	15.0	0.00e+00	0	24	0	671088640	68	4551
2026-01-09 00:10:34.36	60.98	55.95	-51.5	-53.2	15.0	0.00e+00	0	24	0	673185792	68	4563
2026-01-09 00:10:35.36	61.52	56.23	-51.3	-52.9	15.1	0.00e+00	0	24	0	675282944	68	4401
2026-01-09 00:10:36.35	62.07	56.50	-51.5	-53.2	15.0	0.00e+00	0	24	0	677380096	68	4547
2026-01-09 00:10:37.35	62.63	56.77	-52.1	-53.9	14.8	0.00e+00	0	24	0	679477248	69	4700
2026-01-09 00:10:38.36	63.21	57.04	-52.7	-54.7	14.5	0.00e+00	0	24	0	680525824	70	4815
2026-01-09 00:10:39.36	63.80	57.31	-53.0	-55.1	14.4	0.00e+00	0	24	0	682622976	71	4783
2026-01-09 00:10:40.36	64.40	57.58	-52.9	-55.0	14.6	0.00e+00	0	24	0	684720128	71	4713
2026-01-09 00:10:41.36	65.01	57.85	-52.7	-54.7	14.7	0.00e+00	0	24	0	686817280	71	4575
2026-01-09 00:10:42.35	65.62	58.11	-52.7	-54.7	14.7	0.00e+00	0	24	0	688914432	71	4547
2026-01-09 00:10:43.35	66.26	58.37	-52.9	-54.9	14.6	0.00e+00	0	24	0	689963008	71	4684
2026-01-09 00:10:44.34	66.89	58.63	-53.0	-55.0	14.5	0.00e+00	0	24	0	692060160	71	4753
2026-01-09 00:10:45.34	67.55	58.89	-52.8	-54.7	14.7	0.00e+00	0	24	0	694157312	71	4594
2026-01-09 00:10:46.34	68.23	59.14	-52.4	-54.2	14.9	0.00e+00	0	24	0	696254464	71	4334
2026-01-09 00:10:47.33	68.90	59.39	-51.9	-53.6	15.1	0.00e+00	0	24	0	697303040	70	4271
2026-01-09 00:10:48.33	69.60	59.65	-51.5	-53.2	15.1	0.00e+00	0	24	0	699400192	69	4317
2026-01-09 00:10:49.32	70.31	59.89	-51.6	-53.2	15.1	0.00e+00	0	24	0	701497344	69	4329
2026-01-09 00:10:50.32	71.03	60.13	-51.5	-53.2	15.1	0.00e+00	0	24	0	703594496	69	4307
2026-01-09 00:10:51.32	71.77	60.38	-51.0	-52.6	15.3	0.00e+00	0	24	0	705691648	68	4250
2026-01-09 00:10:52.32	72.52	60.61	-50.4	-51.8	15.4	0.00e+00	0	24	0	706740224	67	4142
2026-01-09 00:10:53.32	73.29	60.85	-50.2	-51.6	15.3	0.00e+00	0	24	0	708837376	66	4291
2026-01-09 00:10:54.32	74.07	61.08	-50.5	-52.0	15.2	0.00e+00	0	24	0	710934528	66	4480
2026-01-09 00:10:55.31	74.86	61.30	-50.7	-52.3	15.1	0.00e+00	0	24	0	713031680	66	4605
2026-01-09 00:10:56.31	75.67	61.53	-50.8	-52.4	15.0	0.00e+00	0	24	0	714080256	66	4660
2026-01-09 00:10:57.31	76.49	61.75	-50.3	-51.8	15.3	0.00e+00	0	24	0	716177408	66	4349
2026-01-09 00:10:58.31	77.33	61.96	-50.3	-51.8	15.3	0.00e+00	0	24	0	718274560	66	4354
2026-01-09 00:10:59.31	78.19	62.17	-50.5	-52.0	15.1	0.00e+00	0	24	0	720371712	66	4455
2026-01-09 00:11:00.31	79.05	62.38	-50.7	-52.3	15.1	0.00e+00	0	24	0	722468864	66	4616
2026-01-09 00:11:01.30	79.93	62.57	-50.6	-52.2	15.1	0.00e+00	0	24	0	723517440	66	4553
2026-01-09 00:11:02.30	80.82	62.77	-50.5	-52.0	15.1	0.00e+00	0	24	0	725614592	66	4489
2026-01-09 00:11:03.30	81.74	62.96	-50.5	-52.0	15.2	0.00e+00	0	24	0	727711744	66	4465
2026-01-09 00:11:04.30	82.66	63.14	-50.3	-51.8	15.3	0.00e+00	0	24	0	729808896	66	4355
2026-01-09 00:11:05.30	83.60	63.32	-50.7	-52.2	15.1	0.00e+00	0	24	0	731906048	66	4583
2026-01-09 00:11:06.29	84.54	63.49	-50.9	-52.5	15.1	0.00e+00	0	24	0	732954624	67	4453
2026-01-09 00:11:07.30	85.52	63.66	-50.7	-52.3	15.2	0.00e+00	0	24	0	735051776	67	4348
2026-01-09 00:11:08.30	86.50	63.82	-50.6	-52.2	15.2	0.00e+00	0	24	0	737148928	67	4300
2026-01-09 00:11:09.30	87.50	63.97	-50.9	-52.5	15.1	0.00e+00	0	24	0	739246080	67	4467
2026-01-09 00:11:10.30	88.50	64.12	-51.2	-52.8	14.9	0.00e+00	0	24	0	741343232	67	4630
2026-01-09 00:11:11.31	89.53	64.26	-51.5	-53.2	15.0	0.00e+00	0	24	0	742391808	68	4587
2026-01-09 00:11:12.31	90.57	64.39	-52.0	-53.8	14.7	0.00e+00	0	24	0	744488960	69	4603
2026-01-09 00:11:13.30	91.60	64.51	-52.2	-54.0	14.7	0.00e+00	0	24	0	746586112	69	4748
2026-01-09 00:11:14.30	92.65	64.63	-52.2	-54.0	14.7	0.00e+00	0	24	0	748683264	69	4731
2026-01-09 00:11:15.30	93.72	64.74	-51.9	-53.7	14.9	0.00e+00	0	24	0	749731840	69	4549
2026-01-09 00:11:16.30	94.79	64.85	-52.0	-53.8	14.8	0.00e+00	0	24	0	751828992	69	4620
2026-01-09 00:11:17.30	95.88	64.94	-52.2	-54.0	14.7	0.00e+00	0	24	0	753926144	69	4740
2026-01-09 00:11:18.30	96.97	65.03	-52.6	-54.6	14.6	0.00e+00	0	24	0	756023296	70	4760
2026-01-09 00:11:19.29	98.06	65.11	-53.2	-55.2	14.4	0.00e+00	0	24	0	758120448	71	4867
2026-01-09 00:11:20.28	99.16	65.18	-53.2	-55.3	14.4	0.00e+00	0	24	0	759169024	71	4893
2026-01-09 00:11:21.27	100.26	65.24	-52.7	-54.6	14.8	0.00e+00	0	24	0	761266176	71	4513
2026-01-09 00:11:22.27	101.38	65.29	-52.3	-54.1	15.0	0.00e+00	0	24	0	763363328	71	4253
2026-01-09 00:11:23.26	102.50	65.34	-52.0	-53.7	15.1	0.00e+00	0	24	0	765460480	70	4306
2026-01-09 00:11:24.26	103.63	65.37	-51.9	-53.6	15.1	0.00e+00	0	24	0	766509056	70	4272
2026-01-09 00:11:25.26	104.76	65.40	-51.6	-53.3	15.1	0.00e+00	0	24	0	768606208	69	4361
2026-01-09 00:11:26.26	105.90	65.42	-51.4	-53.0	15.2	0.00e+00	0	24	0	770703360	69	4197
2026-01-09 00:11:27.26	107.04	65.43	-51.6	-53.4	15.1	0.00e+00	0	24	0	772800512	69	4399
2026-01-09 00:11:28.25	108.17	65.44	-51.6	-53.4	15.1	0.00e+00	0	24	0	774897664	69	4399
2026-01-09 00:11:29.24	109.29	65.43	-51.6	-53.4	15.1	0.00e+00	0	24	0	775946240	69	4401
2026-01-09 00:11:30.24	110.43	65.42	-51.6	-53.2	15.1	0.00e+00	0	24	0	778043392	69	4338
2026-01-09 00:11:31.24	111.57	65.39	-51.7	-53.4	15.0	0.00e+00	0	24	0	780140544	69	4421
2026-01-09 00:11:32.24	112.70	65.36	-51.6	-53.3	15.1	0.00e+00	0	24	0	782237696	69	4342
2026-01-09 00:11:33.24	113.83	65.32	-51.7	-53.4	15.1	0.00e+00	0	24	0	784334848	69	4430
2026-01-09 00:11:34.24	114.95	65.27	-52.2	-54.0	14.7	0.00e+00	0	24	0	785383424	69	4733
2026-01-09 00:11:35.24	116.07	65.22	-52.1	-53.9	14.8	0.00e+00	0	24	0	787480576	69	4684
2026-01-09 00:11:36.24	117.19	65.15	-51.8	-53.5	15.0	0.00e+00	0	24	0	789577728	69	4484
2026-01-09 00:11:37.24	118.29	65.08	-51.4	-53.0	15.2	0.00e+00	0	24	0	791674880	69	4229
2026-01-09 00:11:38.24	119.39	65.00	-51.3	-52.9	15.3	0.00e+00	0	24	0	792723456	69	4159
2026-01-09 00:11:39.24	120.48	64.91	-51.2	-52.7	15.2	0.00e+00	0	24	0	794820608	68	4335
2026-01-09 00:11:40.23	121.55	64.81	-51.8	-53.5	14.8	0.00e+00	0	24	0	796917760	68	4737
2026-01-09 00:11:41.22	122.61	64.71	-51.7	-53.4	14.9	0.00e+00	0	24	0	799014912	68	4654
2026-01-09 00:11:42.22	123.68	64.59	-51.3	-52.9	15.1	0.00e+00	0	24	0	801112064	68	4405
2026-01-09 00:11:43.22	124.73	64.47	-51.0	-52.6	15.3	0.00e+00	0	24	0	802160640	68	4257
2026-01-09 00:11:44.22	125.77	64.34	-51.1	-52.6	15.2	0.00e+00	0	24	0	804257792	68	4286
2026-01-09 00:11:45.22	126.80	64.21	-50.9	-52.4	15.3	0.00e+00	0	24	0	806354944	68	4167
2026-01-09 00:11:46.22	127.81	64.07	-50.2	-51.6	15.5	0.00e+00	0	24	0	808452096	67	4048
2026-01-09 00:11:47.22	128.82	63.92	-50.3	-51.8	15.3	0.00e+00	0	24	0	809500672	66	4366
2026-01-09 00:11:48.22	129.81	63.76	-50.4	-51.9	15.2	0.00e+00	0	24	0	811597824	66	4420
2026-01-09 00:11:49.22	130.78	63.60	-50.3	-51.8	15.2	0.00e+00	0	24	0	813694976	66	4386
2026-01-09 00:11:50.22	131.75	63.43	-50.0	-51.4	15.4	0.00e+00	0	24	0	815792128	66	4193
2026-01-09 00:11:51.22	132.70	63.26	-49.3	-50.7	15.6	0.00e+00	0	24	0	817889280	65	4061
2026-01-09 00:11:52.22	133.63	63.08	-49.1	-50.4	15.5	0.00e+00	0	24	0	818937856	64	4170
2026-01-09 00:11:53.21	134.54	62.89	-49.3	-50.7	15.4	0.00e+00	0	24	0	821035008	64	4328
2026-01-09 00:11:54.21	135.45	62.70	-48.9	-50.2	15.6	0.00e+00	0	24	0	823132160	64	4057
2026-01-09 00:11:55.21	136.34	62.50	-48.4	-49.6	15.7	0.00e+00	0	24	0	825229312	63	4033
2026-01-09 00:11:56.21	137.22	62.30	-48.3	-49.6	15.7	0.00e+00	0	24	0	827326464	63	4021
2026-01-09 00:11:57.20	138.08	62.10	-48.7	-50.0	15.5	0.00e+00	0	24	0	828375040	63	4196
2026-01-09 00:11:58.20	138.93	61.89	-48.7	-50.0	15.5	0.00e+00	0	24	0	830472192	63	4225
2026-01-09 00:11:59.20	139.76	61.67	-48.9	-50.2	15.4	0.00e+00	0	24	0	832569344	63	4306
2026-01-09 00:12:00.20	140.58	61.45	-49.0	-50.4	15.4	0.00e+00	0	24	0	834666496	63	4397
2026-01-09 00:12:01.20	141.39	61.22	-48.9	-50.2	15.4	0.00e+00	0	24	0	836763648	63	4307
2026-01-09 00:12:02.20	142.18	61.00	-49.2	-50.5	15.3	0.00e+00	0	24	0	837812224	63	4480
2026-01-09 00:12:03.20	142.96	60.76	-50.1	-51.6	15.2	0.00e+00	0	24	0	839909376	65	4508
2026-01-09 00:12:04.19	143.71	60.53	-50.3	-51.8	15.3	0.00e+00	0	24	0	842006528	66	4348
2026-01-09 00:12:05.20	144.47	60.29	-49.9	-51.4	15.4	0.00e+00	0	24	0	844103680	66	4154
2026-01-09 00:12:06.20	145.20	60.04	-50.3	-51.7	15.3	0.00e+00	0	24	0	845152256	66	4324
2026-01-09 00:12:07.20	145.92	59.80	-51.3	-52.9	14.9	0.00e+00	0	24	0	847249408	67	4692
2026-01-09 00:12:08.19	146.62	59.55	-51.6	-53.3	14.9	0.00e+00	0	24	0	849346560	68	4601
2026-01-09 00:12:09.19	147.32	59.30	-51.4	-53.1	15.0	0.00e+00	0	24	0	851443712	68	4495
2026-01-09 00:12:10.20	148.01	59.04	-51.3	-52.9	15.1	0.00e+00	0	24	0	853540864	68	4430
2026-01-09 00:12:11.20	148.67	58.79	-51.6	-53.3	14.9	0.00e+00	0	24	0	854589440	68	4624
2026-01-09 00:12:12.21	149.34	58.52	-51.5	-53.1	15.0	0.00e+00	0	24	0	856686592	68	4532
2026-01-09 00:12:13.21	149.98	58.26	-51.4	-53.1	15.0	0.00e+00	0	24	0	858783744	68	4495
2026-01-09 00:12:14.20	150.60	58.00	-51.1	-52.7	15.2	0.00e+00	0	24	0	860880896	68	4307
2026-01-09 00:12:15.20	151.22	57.73	-50.4	-51.9	15.4	0.00e+00	0	24	0	862978048	67	4159
2026-01-09 00:12:16.20	151.83	57.47	-50.1	-51.5	15.3	0.00e+00	0	24	0	864026624	66	4240
2026-01-09 00:12:17.20	152.42	57.20	-50.1	-51.5	15.4	0.00e+00	0	24	0	866123776	66	4218
2026-01-09 00:12:18.20	153.00	56.93	-49.5	-50.9	15.5	0.00e+00	0	24	0	868220928	65	4173
2026-01-09 00:12:19.20	153.57	56.65	-49.1	-50.4	15.5	0.00e+00	0	24	0	870318080	64	4174
2026-01-09 00:12:20.20	154.13	56.38	-48.9	-50.2	15.6	0.00e+00	0	24	0	871366656	64	4062
2026-01-09 00:12:21.19	154.68	56.11	-48.9	-50.2	15.6	0.00e+00	0	24	0	873463808	64	4074
2026-01-09 00:12:22.19	155.22	55.83	-48.9	-50.2	15.6	0.00e+00	0	24	0	875560960	64	4079
2026-01-09 00:12:23.19	155.74	55.56	-48.8	-50.1	15.6	0.00e+00	0	24	0	877658112	64	4033
2026-01-09 00:12:24.19	156.26	55.28	-49.1	-50.4	15.5	0.00e+00	0	24	0	879755264	64	4167
2026-01-09 00:12:25.19	156.77	55.00	-49.2	-50.6	15.4	0.00e+00	0	24	0	880803840	64	4258
2026-01-09 00:12:26.18	157.26	54.72	-48.8	-50.1	15.7	0.00e+00	0	24	0	882900992	64	4017
2026-01-09 00:12:27.18	157.75	54.44	-48.8	-50.1	15.7	0.00e+00	0	24	0	884998144	64	4014
2026-01-09 00:12:28.17	158.23	54.17	-48.9	-50.2	15.6	0.00e+00	0	24	0	887095296	64	4080
2026-01-09 00:12:29.17	158.70	53.89	-48.9	-50.2	15.6	0.00e+00	0	24	0	889192448	64	4062
2026-01-09 00:12:30.17	159.16	53.61	-48.7	-50.0	15.5	0.00e+00	0	24	0	890241024	63	4216
2026-01-09 00:12:31.16	159.61	53.33	-49.3	-50.6	15.3	0.00e+00	0	24	0	892338176	63	4518
2026-01-09 00:12:32.16	160.05	53.05	-50.1	-51.6	15.2	0.00e+00	0	24	0	894435328	65	4498
2026-01-09 00:12:33.16	160.49	52.76	-50.7	-52.3	15.1	0.00e+00	0	24	0	896532480	66	4606
2026-01-09 00:12:34.15	160.91	52.49	-50.2	-51.7	15.3	0.00e+00	0	24	0	897581056	66	4297
2026-01-09 00:12:35.15	161.33	52.20	-49.9	-51.4	15.4	0.00e+00	0	24	0	899678208	66	4149
2026-01-09 00:12:36.15	161.74	51.92	-50.3	-51.8	15.3	0.00e+00	0	24	0	901775360	66	4353
2026-01-09 00:12:37.14	162.14	51.64	-50.7	-52.2	15.0	0.00e+00	0	24	0	903872512	66	4591
2026-01-09 00:12:38.14	162.54	51.36	-50.9	-52.5	15.1	0.00e+00	0	24	0	905969664	67	4476
2026-01-09 00:12:39.13	162.92	51.09	-51.7	-53.4	14.9	0.00e+00	0	24	0	907018240	68	4666
2026-01-09 00:12:40.14	163.31	50.80	-52.5	-54.5	14.6	0.00e+00	0	24	0	909115392	70	4735
2026-01-09 00:12:41.14	163.69	50.52	-53.2	-55.4	14.3	0.00e+00	0	24	0	911212544	71	4956
2026-01-09 00:12:42.15	164.06	50.24	-52.9	-54.9	14.5	0.00e+00	0	24	0	913309696	71	4705
2026-01-09 00:12:43.15	164.42	49.96	-52.7	-54.6	14.7	0.00e+00	0	24	0	915406848	71	4530
2026-01-09 00:12:44.15	164.78	49.68	-52.7	-54.7	14.7	0.00e+00	0	24	0	916455424	71	4572
2026-01-09 00:12:45.16	165.13	49.40	-53.7	-56.0	14.1	0.00e+00	0	24	0	918552576	72	4994
2026-01-09 00:12:46.15	165.47	49.13	-54.4	-57.0	13.6	0.00e+00	0	24	0	920649728	73	5322
2026-01-09 00:12:47.15	165.80	48.85	-54.6	-57.3	13.5	0.00e+00	0	24	0	922746880	74	5199
2026-01-09 00:12:48.15	166.14	48.57	-54.6	-57.3	13.5	0.00e+00	0	24	0	923795456	74	5189
2026-01-09 00:12:49.15	166.46	48.30	-55.0	-58.1	13.2	0.00e+00	0	24	0	925892608	75	5341
2026-01-09 00:12:50.15	166.78	48.03	-54.9	-57.7	13.4	0.00e+00	0	24	0	927989760	75	5153
2026-01-09 00:12:51.15	167.09	47.75	-53.9	-56.2	14.3	0.00e+00	0	24	0	930086912	74	4559
2026-01-09 00:12:52.15	167.40	47.48	-53.1	-55.1	14.5	0.00e+00	0	24	0	932184064	72	4534
2026-01-09 00:12:53.15	167.71	47.21	-53.2	-55.2	14.5	0.00e+00	0	24	0	933232640	72	4576
2026-01-09 00:12:54.15	168.00	46.94	-54.2	-56.7	13.9	0.00e+00	0	24	0	935329792	73	5140
2026-01-09 00:12:55.14	168.29	46.67	-55.6	-59.0	12.7	0.00e+00	0	24	0	937426944	76	5610
2026-01-09 00:12:56.14	168.58	46.40	-55.7	-59.2	12.5	7.00e-07	0	24	0	939524096	76	5737
2026-01-09 00:12:57.14	168.87	46.13	-54.1	-56.6	14.0	0.00e+00	0	24	0	941621248	74	4806
2026-01-09 00:12:58.13	169.14	45.87	-53.0	-55.0	14.6	0.00e+00	0	24	0	942669824	72	4468
2026-01-09 00:12:59.12	169.41	45.60	-52.7	-54.6	14.7	0.00e+00	0	24	0	944766976	71	4500
2026-01-09 00:13:00.11	169.68	45.34	-51.9	-53.6	15.1	0.00e+00	0	24	0	946864128	70	4260
2026-01-09 00:13:01.11	169.95	45.08	-51.7	-53.4	15.2	0.00e+00	0	24	0	948961280	70	4147
2026-01-09 00:13:02.10	170.21	44.82	-52.0	-53.8	14.8	0.00e+00	0	24	0	950009856	69	4647
2026-01-09 00:13:03.10	170.46	44.56	-52.8	-54.8	14.5	0.00e+00	0	24	0	952107008	70	4896
2026-01-09 00:13:04.10	170.72	44.30	-53.7	-56.1	14.0	0.00e+00	0	24	0	954204160	72	5062
2026-01-09 00:13:05.10	170.96	44.04	-53.8	-56.2	14.1	0.00e+00	0	24	0	956301312	73	4830
2026-01-09 00:13:06.10	171.21	43.78	-52.5	-54.4	14.8	0.00e+00	0	24	0	958398464	71	4421
2026-01-09 00:13:07.09	171.45	43.52	-51.0	-52.5	15.2	0.00e+00	0	24	0	959447040	68	4239
2026-01-09 00:13:08.09	171.69	43.27	-49.9	-51.3	15.4	0.00e+00	0	24	0	961544192	66	4108
2026-01-09 00:13:09.09	171.92	43.01	-49.8	-51.2	15.5	0.00e+00	0	24	0	963641344	66	4060
2026-01-09 00:13:10.09	172.15	42.76	-50.0	-51.5	15.4	0.00e+00	0	24	0	965738496	66	4199
2026-01-09 00:13:11.08	172.37	42.51	-51.0	-52.6	14.9	0.00e+00	0	24	0	967835648	67	4498
2026-01-09 00:13:12.08	172.60	42.26	-52.3	-54.2	14.6	0.00e+00	0	24	0	968884224	69	4834
2026-01-09 00:13:13.08	172.82	42.01	-52.7	-54.7	14.5	0.00e+00	0	24	0	970981376	70	4857
2026-01-09 00:13:14.08	173.03	41.76	-52.2	-54.1	14.8	0.00e+00	0	24	0	973078528	70	4526
2026-01-09 00:13:15.07	173.24	41.52	-51.6	-53.3	15.1	0.00e+00	0	24	0	975175680	69	4354
2026-01-09 00:13:16.08	173.46	41.27	-51.2	-52.8	15.3	0.00e+00	0	24	0	976224256	69	4099
2026-01-09 00:13:17.07	173.66	41.02	-50.8	-52.3	15.4	0.00e+00	0	24	0	978321408	68	4107
2026-01-09 00:13:18.07	173.87	40.78	-50.6	-52.2	15.2	0.00e+00	0	24	0	980418560	67	4292
2026-01-09 00:13:19.07	174.07	40.54	-50.7	-52.3	15.2	0.00e+00	0	24	0	982515712	67	4357
2026-01-09 00:13:20.07	174.26	40.30	-51.2	-52.9	14.9	0.00e+00	0	24	0	984612864	67	4661
2026-01-09 00:13:21.06	174.46	40.06	-52.1	-53.9	14.7	0.00e+00	0	24	0	985661440	69	4703
2026-01-09 00:13:22.06	174.65	39.82	-52.5	-54.4	14.6	0.00e+00	0	24	0	987758592	70	4698
2026-01-09 00:13:23.06	174.84	39.58	-52.6	-54.6	14.6	0.00e+00	0	24	0	989855744	70	4784
2026-01-09 00:13:24.05	175.03	39.35	-52.2	-54.1	14.8	0.00e+00	0	24	0	991952896	70	4507
2026-01-09 00:13:25.04	175.21	39.12	-51.4	-53.1	15.1	0.00e+00	0	24	0	993001472	69	4275
2026-01-09 00:13:26.04	175.39	38.88	-50.8	-52.4	15.3	0.00e+00	0	24	0	995098624	68	4161
2026-01-09 00:13:27.04	175.57	38.65	-50.7	-52.3	15.4	0.00e+00	0	24	0	997195776	68	4103
2026-01-09 00:13:28.04	175.75	38.42	-50.3	-51.8	15.4	0.00e+00	0	24	0	999292928	67	4110
2026-01-09 00:13:29.04	175.92	38.19	-50.2	-51.6	15.5	0.00e+00	0	24	0	1001390080	67	4045
2026-01-09 00:13:30.04	176.09	37.96	-50.4	-51.9	15.2	0.00e+00	0	24	0	1002438656	66	4401
2026-01-09 00:13:31.04	176.26	37.74	-50.8	-52.4	15.0	0.00e+00	0	24	0	1004535808	66	4662
2026-01-09 00:13:32.03	176.43	37.51	-51.3	-53.0	14.8	0.00e+00	0	24	0	1006632960	67	4717
2026-01-09 00:13:33.02	176.59	37.29	-52.2	-54.1	14.7	0.00e+00	0	24	0	1008730112	69	4764
2026-01-09 00:13:34.02	176.76	37.07	-52.6	-54.6	14.5	0.00e+00	0	24	0	1009778688	70	4769
2026-01-09 00:13:35.02	176.92	36.84	-52.6	-54.5	14.6	0.00e+00	0	24	0	1011875840	70	4755
2026-01-09 00:13:36.01	177.07	36.63	-52.3	-54.2	14.7	0.00e+00	0	24	0	1013972992	70	4549
2026-01-09 00:13:37.02	177.23	36.40	-51.6	-53.3	15.0	0.00e+00	0	24	0	1016070144	69	4366
2026-01-09 00:13:38.01	177.39	36.19	-51.0	-52.6	15.2	0.00e+00	0	24	0	1018167296	68	4259
2026-01-09 00:13:39.02	177.54	35.97	-50.9	-52.5	15.2	0.00e+00	0	24	0	1019215872	68	4201
2026-01-09 00:13:40.01	177.69	35.75	-50.7	-52.2	15.4	0.00e+00	0	24	0	1021313024	68	4086
2026-01-09 00:13:41.01	177.84	35.54	-50.4	-51.9	15.4	0.00e+00	0	24	0	1023410176	67	4157
2026-01-09 00:13:42.01	177.99	35.33	-50.5	-52.0	15.3	0.00e+00	0	24	0	1025507328	67	4233
2026-01-09 00:13:43.01	178.13	35.11	-50.8	-52.3	15.1	0.00e+00	0	24	0	1027604480	67	4387
2026-01-09 00:13:44.02	178.28	34.90	-51.1	-52.7	15.0	0.00e+00	0	24	0	1028653056	67	4598
2026-01-09 00:13:45.02	178.42	34.69	-51.8	-53.5	14.8	0.00e+00	0	24	0	1030750208	68	4757
2026-01-09 00:13:46.01	178.56	34.49	-52.1	-54.0	14.7	0.00e+00	0	24	0	1032847360	69	4734
2026-01-09 00:13:47.01	178.69	34.28	-52.1	-53.9	14.7	0.00e+00	0	24	0	1034944512	69	4676
2026-01-09 00:13:48.01	178.83	34.07	-52.4	-54.3	14.5	0.00e+00	0	24	0	1035993088	69	4915
2026-01-09 00:13:49.01	178.97	33.87	-52.5	-54.5	14.6	0.00e+00	0	24	0	1038090240	70	4737
2026-01-09 00:13:50.02	179.10	33.66	-52.6	-54.5	14.5	0.00e+00	0	24	0	1040187392	70	4758
2026-01-09 00:13:51.02	179.23	33.46	-52.7	-54.7	14.5	0.00e+00	0	24	0	1042284544	70	4837
2026-01-09 00:13:52.02	179.36	33.26	-52.7	-54.7	14.5	0.00e+00	0	24	0	1044381696	70	4849
2026-01-09 00:13:53.02	179.49	33.06	-52.6	-54.6	14.6	0.00e+00	0	24	0	1045430272	70	4791
2026-01-09 00:13:54.02	179.62	32.86	-52.7	-54.7	14.5	0.00e+00	0	24	0	1047527424	70	4868
2026-01-09 00:13:55.02	179.74	32.66	-52.7	-54.7	14.5	0.00e+00	0	24	0	1049624576	70	4831
2026-01-09 00:13:56.01	179.87	32.46	-52.7	-54.7	14.5	0.00e+00	0	24	0	1051721728	70	4830
2026-01-09 00:13:57.01	179.99	32.27	-52.3	-54.1	14.7	0.00e+00	0	24	0	1053818880	70	4543
2026-01-09 00:13:58.01	180.11	32.07	-52.3	-54.2	14.7	0.00e+00	0	24	0	1054867456	70	4594
2026-01-09 00:13:59.01	180.23	31.88	-52.3	-54.1	14.7	0.00e+00	0	24	0	1056964608	70	4545
2026-01-09 00:14:00.01	180.35	31.69	-52.3	-54.1	14.8	0.00e+00	0	24	0	1059061760	70	4525
2026-01-09 00:14:01.01	180.46	31.50	-52.4	-54.3	14.7	0.00e+00	0	24	0	1061158912	70	4606
2026-01-09 00:14:02.02	180.58	31.31	-52.4	-54.3	14.6	0.00e+00	0	24	0	1063256064	70	4651
2026-01-09 00:14:03.02	180.70	31.12	-52.6	-54.6	14.5	0.00e+00	0	24	0	1064304640	70	4802
2026-01-09 00:14:04.02	180.81	30.93	-52.8	-54.8	14.4	0.00e+00	0	24	0	1066401792	70	4887
2026-01-09 00:14:05.02	180.92	30.74	-52.9	-55.0	14.3	0.00e+00	0	24	0	1068498944	70	4987
2026-01-09 00:14:06.02	181.03	30.56	-53.1	-55.2	14.3	0.00e+00	0	24	0	1070596096	71	4840
2026-01-09 00:14:07.02	181.14	30.37	-53.2	-55.4	14.2	0.00e+00	0	24	0	1071644672	71	4929
2026-01-09 00:14:08.02	181.25	30.19	-53.1	-55.3	14.3	0.00e+00	0	24	0	1073741824	71	4877
2026-01-09 00:14:09.01	181.36	30.01	-53.1	-55.3	14.2	0.00e+00	0	24	0	1075838976	71	4903
2026-01-09 00:14:10.01	181.46	29.83	-52.9	-55.0	14.4	0.00e+00	0	24	0	1077936128	71	4741
2026-01-09 00:14:11.01	181.57	29.65	-52.6	-54.6	14.6	0.00e+00	0	24	0	1080033280	71	4522
2026-01-09 00:14:12.00	181.67	29.47	-52.5	-54.4	14.8	0.00e+00	0	24	0	1081081856	71	4418
2026-01-09 00:14:13.00	181.77	29.29	-52.5	-54.5	14.8	0.00e+00	0	24	0	1083179008	71	4444
2026-01-09 00:14:14.00	181.87	29.11	-52.2	-54.0	15.0	0.00e+00	0	24	0	1085276160	71	4238
2026-01-09 00:14:15.00	181.97	28.94	-51.9	-53.6	15.0	0.00e+00	0	24	0	1087373312	70	4269
2026-01-09 00:14:16.00	182.07	28.76	-51.7	-53.4	15.0	0.00e+00	0	24	0	1089470464	70	4170
2026-01-09 00:14:17.00	182.17	28.59	-51.6	-53.3	15.0	0.00e+00	0	24	0	1090519040	69	4359
2026-01-09 00:14:17.99	182.27	28.42	-51.5	-53.1	15.1	0.00e+00	0	24	0	1092616192	69	4289
2026-01-09 00:14:18.99	182.36	28.25	-51.4	-53.1	15.1	0.00e+00	0	24	0	1094713344	69	4258
2026-01-09 00:14:19.99	182.46	28.07	-51.6	-53.3	15.0	0.00e+00	0	24	0	1096810496	69	4341
2026-01-09 00:14:21.00	182.56	27.90	-51.6	-53.3	15.0	0.00e+00	0	24	0	1098907648	69	4363
2026-01-09 00:14:21.99	182.65	27.73	-51.7	-53.4	14.9	0.00e+00	0	24	0	1099956224	69	4433
2026-01-09 00:14:22.99	182.74	27.57	-51.8	-53.6	14.9	0.00e+00	0	24	0	1102053376	69	4512
2026-01-09 00:14:23.99	182.83	27.40	-52.0	-53.8	14.8	0.00e+00	0	24	0	1104150528	69	4616
2026-01-09 00:14:24.98	182.92	27.23	-52.0	-53.9	14.7	0.00e+00	0	24	0	1106247680	69	4657
2026-01-09 00:14:25.98	183.01	27.07	-52.1	-54.0	14.6	0.00e+00	0	24	0	1107296256	69	4750
2026-01-09 00:14:26.98	183.10	26.90	-52.2	-54.2	14.6	0.00e+00	0	24	0	1109393408	69	4816
2026-01-09 00:14:27.97	183.19	26.74	-52.3	-54.3	14.5	0.00e+00	0	24	0	1111490560	69	4893
2026-01-09 00:14:28.98	183.28	26.58	-52.2	-54.2	14.6	0.00e+00	0	24	0	1113587712	69	4821
2026-01-09 00:14:29.97	183.36	26.42	-52.0	-53.9	14.7	0.00e+00	0	24	0	1115684864	69	4681
2026-01-09 00:14:30.98	183.45	26.25	-51.9	-53.7	14.8	0.00e+00	0	24	0	1116733440	69	4589
2026-01-09 00:14:31.97	183.53	26.10	-51.8	-53.6	14.9	0.00e+00	0	24	0	1118830592	69	4495
2026-01-09 00:14:32.97	183.62	25.94	-51.7	-53.4	14.9	0.00e+00	0	24	0	1120927744	69	4433
2026-01-09 00:14:33.97	183.70	25.78	-51.2	-52.9	15.2	0.00e+00	0	24	0	1123024896	69	4166
2026-01-09 00:14:34.97	183.78	25.62	-51.0	-52.6	15.2	0.00e+00	0	24	0	1124073472	68	4269
2026-01-09 00:14:35.97	183.86	25.47	-50.9	-52.5	15.2	0.00e+00	0	24	0	1126170624	68	4217
2026-01-09 00:14:36.96	183.94	25.31	-50.8	-52.4	15.3	0.00e+00	0	24	0	1128267776	68	4179
2026-01-09 00:14:37.97	184.02	25.15	-50.7	-52.2	15.4	0.00e+00	0	24	0	1130364928	68	4077
2026-01-09 00:14:38.97	184.10	25.00	-50.5	-52.1	15.3	0.00e+00	0	24	0	1132462080	67	4251
2026-01-09 00:14:39.97	184.18	24.85	-50.5	-52.1	15.2	0.00e+00	0	24	0	1133510656	67	4278
2026-01-09 00:14:40.97	184.26	24.70	-50.5	-52.1	15.2	0.00e+00	0	24	0	1135607808	67	4278
2026-01-09 00:14:41.97	184.34	24.54	-50.6	-52.1	15.2	0.00e+00	0	24	0	1137704960	67	4290
2026-01-09 00:14:42.96	184.41	24.39	-50.6	-52.2	15.1	0.00e+00	0	24	0	1139802112	67	4337
2026-01-09 00:14:43.96	184.49	24.24	-50.6	-52.2	15.2	0.00e+00	0	24	0	1141899264	67	4314
2026-01-09 00:14:44.96	184.56	24.10	-50.7	-52.3	15.1	0.00e+00	0	24	0	1142947840	67	4375
2026-01-09 00:14:45.96	184.64	23.95	-50.7	-52.4	15.1	0.00e+00	0	24	0	1145044992	67	4407
2026-01-09 00:14:46.96	184.71	23.80	-50.8	-52.4	15.1	0.00e+00	0	24	0	1147142144	67	4435
2026-01-09 00:14:47.96	184.79	23.65	-50.7	-52.4	15.1	0.00e+00	0	24	0	1149239296	67	4408
2026-01-09 00:14:48.96	184.86	23.51	-50.7	-52.3	15.1	0.00e+00	0	24	0	1150287872	67	4354
2026-01-09 00:14:49.96	184.93	23.36	-50.6	-52.2	15.2	0.00e+00	0	24	0	1152385024	67	4331
2026-01-09 00:14:50.95	185.00	23.22	-50.6	-52.2	15.2	0.00e+00	0	24	0	1154482176	67	4326
2026-01-09 00:14:51.95	185.07	23.08	-50.4	-52.0	15.3	0.00e+00	0	24	0	1156579328	67	4215
2026-01-09 00:14:52.95	185.14	22.93	-50.5	-52.1	15.2	0.00e+00	0	24	0	1158676480	67	4255
2026-01-09 00:14:53.95	185.21	22.79	-50.4	-52.0	15.3	0.00e+00	0	24	0	1159725056	67	4213
2026-01-09 00:14:54.95	185.28	22.65	-50.4	-51.9	15.3	0.00e+00	0	24	0	1161822208	67	4175
2026-01-09 00:14:55.94	185.35	22.51	-50.4	-51.9	15.3	0.00e+00	0	24	0	1163919360	67	4173
2026-01-09 00:14:56.94	185.41	22.37	-50.3	-51.8	15.4	0.00e+00	0	24	0	1166016512	67	4110
2026-01-09 00:14:57.93	185.48	22.23	-50.4	-51.9	15.3	0.00e+00	0	24	0	1168113664	67	4171
2026-01-09 00:14:58.93	185.55	22.09	-50.2	-51.7	15.4	0.00e+00	0	24	0	1169162240	67	4096
2026-01-09 00:14:59.93	185.61	21.96	-50.3	-51.9	15.3	0.00e+00	0	24	0	1171259392	67	4164
2026-01-09 00:15:00.93	185.68	21.82	-50.3	-51.8	15.3	0.00e+00	0	24	0	1173356544	67	4143
2026-01-09 00:15:01.93	185.74	21.68	-50.5	-52.0	15.3	0.00e+00	0	24	0	1175453696	67	4223
2026-01-09 00:15:02.92	185.81	21.55	-50.2	-51.7	15.4	0.00e+00	0	24	0	1176502272	67	4094
2026-01-09 00:15:03.92	185.87	21.41	-50.2	-51.7	15.4	0.00e+00	0	24	0	1178599424	67	4082
2026-01-09 00:15:04.92	185.94	21.28	-50.3	-51.8	15.3	0.00e+00	0	24	0	1180696576	67	4131
2026-01-09 00:15:05.92	186.00	21.15	-50.3	-51.8	15.3	0.00e+00	0	24	0	1182793728	67	4126
2026-01-09 00:15:06.93	186.06	21.01	-50.3	-51.8	15.3	0.00e+00	0	24	0	1184890880	67	4134
2026-01-09 00:15:07.92	186.12	20.88	-50.3	-51.9	15.3	0.00e+00	0	24	0	1185939456	67	4146
2026-01-09 00:15:08.92	186.18	20.75	-50.4	-52.0	15.3	0.00e+00	0	24	0	1188036608	67	4204
2026-01-09 00:15:09.91	186.24	20.62	-50.4	-52.0	15.3	0.00e+00	0	24	0	1190133760	67	4194
2026-01-09 00:15:10.91	186.30	20.49	-50.4	-52.0	15.2	0.00e+00	0	24	0	1192230912	67	4225
2026-01-09 00:15:11.91	186.36	20.36	-50.4	-52.0	15.2	0.00e+00	0	24	0	1194328064	67	4207
2026-01-09 00:15:12.90	186.42	20.23	-50.5	-52.0	15.2	0.00e+00	0	24	0	1195376640	67	4241
2026-01-09 00:15:13.90	186.48	20.10	-50.6	-52.2	15.2	0.00e+00	0	24	0	1197473792	67	4302
2026-01-09 00:15:14.91	186.54	19.98	-50.6	-52.3	15.1	0.00e+00	0	24	0	1199570944	67	4344
2026-01-09 00:15:15.90	186.60	19.85	-50.6	-52.2	15.2	0.00e+00	0	24	0	1201668096	67	4317
2026-01-09 00:15:16.90	186.66	19.72	-50.6	-52.2	15.2	0.00e+00	0	24	0	1202716672	67	4312
2026-01-09 00:15:17.90	186.71	19.60	-50.7	-52.4	15.1	0.00e+00	0	24	0	1204813824	67	4401
2026-01-09 00:15:18.90	186.77	19.47	-50.6	-52.2	15.1	0.00e+00	0	24	0	1206910976	67	4335
2026-01-09 00:15:19.91	186.83	19.35	-50.7	-52.3	15.1	0.00e+00	0	24	0	1209008128	67	4360
2026-01-09 00:15:20.90	186.88	19.22	-50.5	-52.1	15.2	0.00e+00	0	24	0	1211105280	67	4286
2026-01-09 00:15:21.90	186.94	19.10	-50.5	-52.1	15.2	0.00e+00	0	24	0	1212153856	67	4275
2026-01-09 00:15:22.90	186.99	18.98	-50.5	-52.1	15.2	0.00e+00	0	24	0	1214251008	67	4285
2026-01-09 00:15:23.90	187.05	18.85	-50.6	-52.2	15.1	0.00e+00	0	24	0	1216348160	67	4312
2026-01-09 00:15:24.90	187.10	18.73	-50.5	-52.1	15.2	0.00e+00	0	24	0	1218445312	67	4275
2026-01-09 00:15:25.90	187.16	18.61	-50.6	-52.1	15.2	0.00e+00	0	24	0	1220542464	67	4290
2026-01-09 00:15:26.90	187.21	18.49	-50.5	-52.1	15.2	0.00e+00	0	24	0	1221591040	67	4256
2026-01-09 00:15:27.89	187.26	18.37	-50.5	-52.0	15.2	0.00e+00	0	24	0	1223688192	67	4240
2026-01-09 00:15:28.89	187.32	18.25	-50.5	-52.0	15.2	0.00e+00	0	24	0	1225785344	67	4241
2026-01-09 00:15:29.88	187.37	18.14	-50.6	-52.2	15.2	0.00e+00	0	24	0	1227882496	67	4302
2026-01-09 00:15:30.88	187.42	18.02	-50.6	-52.2	15.1	0.00e+00	0	24	0	1228931072	67	4319
2026-01-09 00:15:31.87	187.47	17.90	-50.5	-52.1	15.2	0.00e+00	0	24	0	1231028224	67	4276
2026-01-09 00:15:32.88	187.52	17.78	-50.6	-52.2	15.1	0.00e+00	0	24	0	1233125376	67	4332
2026-01-09 00:15:33.87	187.57	17.67	-50.7	-52.3	15.1	0.00e+00	0	24	0	1235222528	67	4388
2026-01-09 00:15:34.88	187.62	17.55	-50.8	-52.4	15.0	0.00e+00	0	24	0	1237319680	67	4434
2026-01-09 00:15:35.87	187.67	17.43	-50.8	-52.5	15.0	0.00e+00	0	24	0	1238368256	67	4448
2026-01-09 00:15:36.86	187.72	17.32	-51.0	-52.7	14.9	0.00e+00	0	24	0	1240465408	67	4559
2026-01-09 00:15:37.86	187.77	17.21	-51.0	-52.8	14.9	0.00e+00	0	24	0	1242562560	67	4599
2026-01-09 00:15:38.86	187.82	17.09	-51.1	-52.8	14.9	0.00e+00	0	24	0	1244659712	67	4624
2026-01-09 00:15:39.86	187.87	16.98	-51.2	-52.9	14.8	0.00e+00	0	24	0	1245708288	67	4682
2026-01-09 00:15:40.86	187.92	16.87	-51.3	-53.0	14.7	0.00e+00	0	24	0	1247805440	67	4752
2026-01-09 00:15:41.86	187.97	16.75	-51.3	-53.1	14.7	0.00e+00	0	24	0	1249902592	67	4794
2026-01-09 00:15:42.86	188.01	16.64	-51.3	-53.1	14.7	0.00e+00	0	24	0	1251999744	67	4775
2026-01-09 00:15:43.86	188.06	16.53	-51.4	-53.2	14.7	0.00e+00	0	24	0	1254096896	67	4824
