passes_logs/2026/01/09/R3.2S_Murmansk/R3.2S_Murmansk__20260109_080113_SUOMI_NPP_rec.log

#Pass ID: 20260109_080113_SUOMI NPP
#Satellite: SUOMI NPP
#Configuration: NPP
#almurnet v.1.7.20251203
#Start time: 2026-01-09 08:01:13

#Version: 2.2.20231116
#Station: R3.2S_Murmansk
#Location: 33.079688 lon 68.888172 lat
#TLE: 1 37849U 11061A   26008.05542337  .00000108  00000+0  71976-4 0  9997
#TLE: 2 37849  98.7805 310.1641 0002540  75.6410 284.5048 14.19523335735721

#Time	Az	El	Level	Level2	SNR	BER	BlckErr	Temp	State	Recorded	gain1	gain2
2026-01-09 08:01:13.45	115.22	1.99	-57.4	-73.4	3.8	1.49e+00	0	21	0	0	81	22182
2026-01-09 08:01:14.45	115.19	2.06	-57.4	-73.3	3.8	1.49e+00	0	22	104	0	79	24673
2026-01-09 08:01:15.46	115.15	2.12	-57.4	-73.3	3.8	1.49e+00	0	22	104	0	79	24659
2026-01-09 08:01:16.46	115.12	2.18	-57.4	-73.4	3.8	1.49e+00	0	22	104	0	79	24730
2026-01-09 08:01:17.47	115.08	2.25	-57.4	-73.4	3.8	1.49e+00	0	22	104	0	79	24735
2026-01-09 08:01:18.48	115.05	2.31	-57.4	-73.3	3.8	1.49e+00	0	22	104	0	79	24674
2026-01-09 08:01:19.49	115.01	2.37	-57.4	-73.4	3.8	1.49e+00	0	22	104	0	79	24712
2026-01-09 08:01:20.50	114.98	2.44	-57.4	-73.3	3.8	1.49e+00	0	22	104	0	79	24662
2026-01-09 08:01:21.51	114.94	2.50	-57.4	-73.3	3.8	1.49e+00	0	22	104	0	79	24693
2026-01-09 08:01:22.52	114.90	2.56	-57.4	-73.3	3.8	1.49e+00	0	22	104	0	79	24645
2026-01-09 08:01:23.53	114.87	2.63	-57.4	-73.3	3.8	1.49e+00	0	22	104	0	79	24635
2026-01-09 08:01:24.53	114.83	2.69	-57.4	-73.3	3.8	1.49e+00	0	22	104	0	79	24498
2026-01-09 08:01:25.54	114.79	2.75	-57.4	-73.3	3.8	1.49e+00	0	22	104	0	79	24431
2026-01-09 08:01:26.55	114.76	2.82	-57.3	-73.1	3.8	1.49e+00	0	22	104	0	79	24121
2026-01-09 08:01:27.56	114.72	2.88	-57.4	-73.1	3.8	1.49e+00	0	22	104	0	79	24029
2026-01-09 08:01:28.57	114.68	2.95	-57.4	-73.1	3.8	1.49e+00	0	22	104	0	79	24095
2026-01-09 08:01:29.58	114.65	3.01	-57.4	-73.1	3.8	1.49e+00	0	22	104	0	79	24123
2026-01-09 08:01:30.59	114.61	3.08	-57.4	-73.1	3.8	1.49e+00	0	22	104	0	79	23947
2026-01-09 08:01:31.59	114.57	3.14	-57.4	-73.0	3.8	1.49e+00	0	22	104	0	79	23843
2026-01-09 08:01:32.60	114.53	3.21	-57.4	-72.9	3.8	1.49e+00	0	22	104	0	79	23472
2026-01-09 08:01:33.61	114.49	3.27	-57.4	-72.9	3.8	1.49e+00	0	22	104	0	79	23515
2026-01-09 08:01:34.62	114.46	3.34	-57.4	-72.9	3.8	1.49e+00	0	22	104	0	79	23382
2026-01-09 08:01:35.62	114.42	3.40	-57.3	-72.7	3.8	1.49e+00	0	22	104	0	79	22995
2026-01-09 08:01:36.63	114.38	3.47	-57.3	-72.7	3.8	1.49e+00	0	22	104	0	79	22911
2026-01-09 08:01:37.64	114.34	3.54	-57.4	-72.8	3.8	1.49e+00	0	22	104	0	79	23233
2026-01-09 08:01:38.65	114.30	3.60	-57.4	-72.8	3.8	1.49e+00	0	22	104	0	79	23241
2026-01-09 08:01:39.65	114.26	3.67	-57.4	-73.0	3.8	1.49e+00	0	22	104	0	79	23604
2026-01-09 08:01:40.66	114.22	3.73	-57.4	-73.3	3.8	1.49e+00	0	22	104	0	79	24493
2026-01-09 08:01:41.67	114.18	3.80	-57.4	-73.4	3.8	1.49e+00	0	22	104	0	79	24817
2026-01-09 08:01:42.68	114.14	3.87	-57.4	-73.2	3.8	1.49e+00	0	22	104	0	79	24221
2026-01-09 08:01:43.69	114.10	3.93	-57.4	-72.5	3.8	1.49e+00	0	22	104	0	79	22482
2026-01-09 08:01:44.69	114.06	4.00	-57.3	-71.5	3.8	1.49e+00	0	22	104	0	79	19966
2026-01-09 08:01:45.70	114.02	4.07	-57.3	-70.3	3.9	1.48e+00	0	23	104	0	79	17415
2026-01-09 08:01:46.71	113.98	4.13	-57.2	-68.9	4.5	1.38e+00	9	22	0	0	79	14785
2026-01-09 08:01:47.72	113.94	4.20	-57.1	-67.9	4.9	8.02e-01	0	23	0	2097152	79	13131
2026-01-09 08:01:48.73	113.90	4.27	-57.0	-67.0	5.4	5.49e-01	0	23	0	4194304	79	11930
2026-01-09 08:01:49.74	113.86	4.34	-56.9	-66.0	6.1	3.61e-01	0	23	0	5242880	79	10553
2026-01-09 08:01:50.75	113.82	4.40	-56.8	-65.3	6.5	1.97e-01	0	23	0	7340032	79	9823
2026-01-09 08:01:51.75	113.78	4.47	-56.7	-64.7	7.0	1.46e-01	0	23	0	9437184	79	9120
2026-01-09 08:01:52.76	113.74	4.54	-56.5	-63.7	7.9	8.42e-02	0	23	0	11534336	79	8135
2026-01-09 08:01:53.77	113.69	4.61	-56.3	-62.7	8.8	3.16e-02	0	23	0	13631488	79	7231
2026-01-09 08:01:54.78	113.65	4.68	-56.0	-61.7	9.7	7.11e-03	0	23	0	14680064	78	6810
2026-01-09 08:01:55.79	113.61	4.75	-55.6	-60.6	10.6	2.08e-03	0	23	0	16777216	77	6367
2026-01-09 08:01:56.80	113.57	4.81	-55.3	-59.7	11.3	4.42e-04	0	23	0	18874368	77	5785
2026-01-09 08:01:57.81	113.52	4.88	-54.9	-58.9	11.9	3.43e-05	0	23	0	20971520	76	5547
2026-01-09 08:01:58.81	113.48	4.95	-54.3	-57.9	12.5	5.30e-06	0	23	0	23068672	75	5279
2026-01-09 08:01:59.82	113.44	5.02	-53.9	-57.2	13.0	0.00e+00	0	23	0	24117248	74	5106
2026-01-09 08:02:00.83	113.39	5.09	-56.4	-62.7	9.0	1.45e-03	0	23	0	26214400	77	8174
2026-01-09 08:02:01.84	113.35	5.16	-56.3	-62.2	9.5	3.44e-03	0	23	0	28311552	78	7236
2026-01-09 08:02:02.85	113.31	5.23	-55.4	-60.2	10.9	9.91e-04	0	23	0	30408704	75	6813
2026-01-09 08:02:03.86	113.26	5.30	-56.6	-63.2	8.6	3.62e-03	0	23	0	32505856	78	8171
2026-01-09 08:02:04.87	113.22	5.37	-56.1	-61.8	9.7	4.61e-04	0	23	0	33554432	77	7306
2026-01-09 08:02:05.87	113.17	5.44	-57.4	-67.8	5.3	2.26e-02	0	23	0	35651584	79	12972
2026-01-09 08:02:06.88	113.13	5.51	-57.4	-67.6	5.2	6.14e-01	0	23	0	37748736	80	12021
2026-01-09 08:02:07.89	113.08	5.58	-57.4	-67.6	5.2	5.62e-01	0	23	0	39845888	80	12054
2026-01-09 08:02:08.90	113.04	5.65	-57.4	-67.8	5.1	6.07e-01	0	23	0	41943040	80	12326
2026-01-09 08:02:09.91	112.99	5.72	-57.4	-67.7	5.2	5.88e-01	0	23	0	42991616	80	12127
2026-01-09 08:02:10.92	112.95	5.79	-57.4	-68.0	5.0	6.20e-01	0	23	0	45088768	80	12624
2026-01-09 08:02:11.93	112.90	5.86	-55.9	-60.8	10.7	1.78e-01	0	23	0	47185920	78	6194
2026-01-09 08:02:12.94	112.85	5.94	-57.9	-72.3	3.8	5.84e-02	0	23	104	49283072	80	20693
2026-01-09 08:02:13.94	112.81	6.01	-56.0	-61.1	10.5	1.09e-01	0	23	0	49283072	78	6355
2026-01-09 08:02:14.95	112.76	6.08	-55.5	-59.8	11.5	2.51e-05	0	23	0	51380224	77	5837
2026-01-09 08:02:15.96	112.71	6.15	-57.6	-71.1	4.0	2.11e-03	0	23	0	53477376	80	18020
2026-01-09 08:02:16.96	112.67	6.22	-55.2	-59.2	11.9	1.59e-03	0	23	0	53477376	77	5446
2026-01-09 08:02:17.97	112.62	6.30	-55.0	-58.9	12.1	8.30e-06	0	23	0	55574528	76	5572
2026-01-09 08:02:18.98	112.57	6.37	-55.1	-59.1	11.9	3.00e-06	0	23	0	57671680	76	5662
2026-01-09 08:02:19.98	112.52	6.44	-55.0	-58.8	12.2	1.14e-05	0	23	0	59768832	76	5484
2026-01-09 08:02:20.99	112.48	6.51	-54.4	-57.8	12.8	2.20e-06	0	23	0	60817408	75	5169
2026-01-09 08:02:22.00	112.43	6.59	-54.5	-57.9	12.7	7.00e-07	0	23	0	62914560	75	5245
2026-01-09 08:02:23.01	112.38	6.66	-54.7	-58.4	12.4	0.00e+00	0	23	0	65011712	75	5557
2026-01-09 08:02:24.02	112.33	6.73	-54.8	-58.6	12.3	2.20e-06	0	23	0	67108864	75	5702
2026-01-09 08:02:25.03	112.28	6.81	-55.1	-59.2	11.7	9.90e-06	0	23	0	69206016	75	6127
2026-01-09 08:02:26.04	112.23	6.88	-54.7	-58.3	12.4	7.60e-06	0	23	0	70254592	75	5523
2026-01-09 08:02:27.05	112.18	6.95	-54.6	-58.1	12.6	7.00e-07	0	23	0	72351744	75	5367
2026-01-09 08:02:28.06	112.13	7.03	-54.6	-58.0	12.7	1.50e-06	0	23	0	74448896	75	5309
2026-01-09 08:02:29.07	112.08	7.10	-54.7	-58.3	12.4	0.00e+00	0	23	0	76546048	75	5492
2026-01-09 08:02:30.08	112.03	7.18	-54.7	-58.2	12.3	1.50e-06	0	23	0	78643200	75	5460
2026-01-09 08:02:31.08	111.98	7.25	-54.7	-58.2	12.5	6.10e-06	0	23	0	79691776	75	5458
2026-01-09 08:02:32.09	111.93	7.33	-54.6	-58.0	12.7	0.00e+00	0	23	0	81788928	75	5300
2026-01-09 08:02:33.10	111.88	7.40	-54.3	-57.6	13.0	0.00e+00	0	23	0	83886080	75	5045
2026-01-09 08:02:34.10	111.82	7.48	-54.4	-57.6	13.0	0.00e+00	0	23	0	85983232	75	5082
2026-01-09 08:02:35.11	111.77	7.55	-54.5	-57.9	12.8	7.00e-07	0	23	0	88080384	75	5228
2026-01-09 08:02:36.12	111.72	7.63	-54.3	-57.5	12.9	0.00e+00	0	23	0	89128960	75	5036
2026-01-09 08:02:37.13	111.67	7.70	-54.1	-57.2	13.1	0.00e+00	0	23	0	91226112	74	5142
2026-01-09 08:02:38.14	111.61	7.78	-54.1	-57.3	13.1	7.00e-07	0	23	0	93323264	74	5165
2026-01-09 08:02:39.15	111.56	7.86	-53.8	-56.7	13.5	0.00e+00	0	23	0	95420416	74	4837
2026-01-09 08:02:40.16	111.51	7.93	-53.6	-56.4	13.5	0.00e+00	0	23	0	97517568	73	4977
2026-01-09 08:02:41.17	111.45	8.01	-53.5	-56.2	13.7	0.00e+00	0	23	0	98566144	73	4821
2026-01-09 08:02:42.18	111.40	8.09	-53.5	-56.3	13.7	0.00e+00	0	23	0	100663296	73	4892
2026-01-09 08:02:43.19	111.34	8.17	-53.6	-56.4	13.6	0.00e+00	0	23	0	102760448	73	4955
2026-01-09 08:02:44.20	111.29	8.24	-53.7	-56.5	13.5	0.00e+00	0	23	0	104857600	73	5019
2026-01-09 08:02:45.21	111.23	8.32	-53.5	-56.2	13.7	0.00e+00	0	23	0	106954752	73	4818
2026-01-09 08:02:46.21	111.18	8.40	-53.6	-56.4	13.6	0.00e+00	0	23	0	109051904	73	4927
2026-01-09 08:02:47.22	111.12	8.48	-53.2	-55.7	14.0	0.00e+00	0	23	0	110100480	73	4590
2026-01-09 08:02:48.23	111.07	8.55	-53.2	-55.7	13.9	0.00e+00	0	23	0	112197632	72	4869
2026-01-09 08:02:49.24	111.01	8.63	-53.1	-55.7	14.0	0.00e+00	0	23	0	114294784	72	4822
2026-01-09 08:02:50.25	110.95	8.71	-53.1	-55.6	14.0	0.00e+00	0	23	0	116391936	72	4797
2026-01-09 08:02:51.26	110.90	8.79	-53.2	-55.7	13.9	0.00e+00	0	23	0	118489088	72	4863
2026-01-09 08:02:52.27	110.84	8.87	-53.2	-55.8	13.9	0.00e+00	0	23	0	119537664	72	4885
2026-01-09 08:02:53.27	110.78	8.95	-53.4	-56.0	13.7	0.00e+00	0	23	0	121634816	72	5010
2026-01-09 08:02:54.28	110.72	9.03	-53.1	-55.6	14.0	0.00e+00	0	23	0	123731968	72	4782
2026-01-09 08:02:55.29	110.67	9.11	-53.2	-55.8	13.9	0.00e+00	0	23	0	125829120	72	4906
2026-01-09 08:02:56.30	110.61	9.19	-53.3	-55.8	13.8	0.00e+00	0	23	0	127926272	72	4913
2026-01-09 08:02:57.30	110.55	9.27	-53.2	-55.7	13.9	0.00e+00	0	24	0	128974848	72	4837
2026-01-09 08:02:58.31	110.49	9.35	-53.1	-55.6	14.0	0.00e+00	0	23	0	131072000	72	4801
2026-01-09 08:02:59.32	110.43	9.43	-53.0	-55.4	14.2	0.00e+00	0	23	0	133169152	72	4655
2026-01-09 08:03:00.33	110.37	9.51	-52.9	-55.2	14.2	0.00e+00	0	23	0	135266304	72	4596
2026-01-09 08:03:01.34	110.31	9.59	-53.0	-55.3	14.2	0.00e+00	0	23	0	137363456	72	4642
2026-01-09 08:03:02.34	110.25	9.67	-52.8	-55.2	14.3	0.00e+00	0	23	0	138412032	72	4561
2026-01-09 08:03:03.35	110.19	9.75	-52.7	-54.9	14.4	0.00e+00	0	23	0	140509184	72	4430
2026-01-09 08:03:04.35	110.13	9.84	-52.9	-55.3	14.2	0.00e+00	0	23	0	142606336	72	4621
2026-01-09 08:03:05.36	110.07	9.92	-53.0	-55.4	14.2	0.00e+00	0	23	0	144703488	72	4656
2026-01-09 08:03:06.36	110.00	10.00	-53.4	-56.0	13.8	0.00e+00	0	23	0	146800640	72	5006
2026-01-09 08:03:07.37	109.94	10.08	-52.8	-55.5	14.1	0.00e+00	0	23	0	147849216	72	4719
2026-01-09 08:03:08.37	109.88	10.16	-53.0	-55.9	13.9	0.00e+00	0	23	0	149946368	72	4928
2026-01-09 08:03:09.38	109.82	10.25	-52.9	-55.6	14.1	0.00e+00	0	23	0	152043520	72	4774
2026-01-09 08:03:10.39	109.75	10.33	-52.8	-55.4	14.1	0.00e+00	0	23	0	154140672	72	4696
2026-01-09 08:03:11.39	109.69	10.41	-52.4	-55.0	14.3	0.00e+00	0	23	0	156237824	71	4738
2026-01-09 08:03:12.40	109.62	10.50	-52.5	-55.1	14.2	0.00e+00	0	23	0	157286400	71	4800
2026-01-09 08:03:13.41	109.56	10.58	-52.3	-54.8	14.4	0.00e+00	0	23	0	159383552	71	4630
2026-01-09 08:03:14.42	109.49	10.67	-52.5	-55.0	14.3	0.00e+00	0	23	0	161480704	71	4731
2026-01-09 08:03:15.43	109.43	10.75	-52.5	-55.0	14.3	0.00e+00	0	24	0	163577856	71	4727
2026-01-09 08:03:16.44	109.36	10.84	-52.3	-54.8	14.4	0.00e+00	0	23	0	165675008	71	4641
2026-01-09 08:03:17.45	109.30	10.92	-52.3	-54.8	14.4	0.00e+00	0	23	0	166723584	71	4613
2026-01-09 08:03:18.46	109.23	11.01	-52.5	-55.1	14.2	0.00e+00	0	23	0	168820736	71	4783
2026-01-09 08:03:19.46	109.16	11.09	-52.8	-55.4	14.0	0.00e+00	0	23	0	170917888	71	4965
2026-01-09 08:03:20.47	109.09	11.18	-52.7	-55.3	14.1	0.00e+00	0	23	0	173015040	71	4918
2026-01-09 08:03:21.48	109.03	11.26	-52.6	-55.2	14.2	0.00e+00	0	23	0	175112192	71	4820
2026-01-09 08:03:22.49	108.96	11.35	-52.6	-55.2	14.2	0.00e+00	0	23	0	176160768	71	4849
2026-01-09 08:03:23.50	108.89	11.44	-52.5	-55.0	14.3	0.00e+00	0	23	0	178257920	71	4744
2026-01-09 08:03:24.51	108.82	11.52	-52.5	-55.0	14.3	0.00e+00	0	23	0	180355072	71	4757
2026-01-09 08:03:25.52	108.75	11.61	-52.6	-55.1	14.2	0.00e+00	0	23	0	182452224	71	4802
2026-01-09 08:03:26.53	108.68	11.70	-52.4	-54.9	14.4	0.00e+00	0	23	0	184549376	71	4677
2026-01-09 08:03:27.54	108.61	11.79	-52.4	-54.8	14.4	0.00e+00	0	24	0	185597952	71	4615
2026-01-09 08:03:28.55	108.54	11.87	-52.5	-55.0	14.3	0.00e+00	0	23	0	187695104	71	4751
2026-01-09 08:03:29.55	108.47	11.96	-52.5	-55.1	14.2	0.00e+00	0	23	0	189792256	71	4766
2026-01-09 08:03:30.56	108.39	12.05	-52.8	-55.4	14.1	0.00e+00	0	23	0	191889408	71	4934
2026-01-09 08:03:31.57	108.32	12.14	-52.9	-55.6	13.9	0.00e+00	0	23	0	193986560	71	5050
2026-01-09 08:03:32.58	108.25	12.23	-53.0	-55.7	13.9	0.00e+00	0	24	0	195035136	71	5117
2026-01-09 08:03:33.59	108.18	12.32	-53.2	-56.0	13.7	0.00e+00	0	24	0	197132288	71	5290
2026-01-09 08:03:34.60	108.10	12.41	-52.9	-55.6	14.0	0.00e+00	0	23	0	199229440	71	5046
2026-01-09 08:03:35.61	108.03	12.50	-53.0	-55.7	13.9	0.00e+00	0	23	0	201326592	71	5107
2026-01-09 08:03:36.62	107.95	12.59	-52.9	-55.5	14.0	0.00e+00	0	23	0	203423744	71	4996
2026-01-09 08:03:37.63	107.88	12.68	-53.0	-55.7	13.9	0.00e+00	0	24	0	204472320	71	5127
2026-01-09 08:03:38.64	107.80	12.77	-52.8	-55.4	14.1	0.00e+00	0	24	0	206569472	71	4929
2026-01-09 08:03:39.65	107.72	12.86	-52.7	-55.1	14.2	0.00e+00	0	24	0	208666624	71	4814
2026-01-09 08:03:40.65	107.65	12.95	-52.6	-55.1	14.3	0.00e+00	0	24	0	210763776	71	4771
2026-01-09 08:03:41.67	107.57	13.04	-52.5	-55.0	14.3	0.00e+00	0	24	0	212860928	71	4729
2026-01-09 08:03:42.67	107.49	13.14	-52.6	-55.1	14.3	0.00e+00	0	23	0	213909504	71	4768
2026-01-09 08:03:43.68	107.42	13.23	-52.9	-55.5	14.0	0.00e+00	0	24	0	216006656	71	5026
2026-01-09 08:03:44.69	107.34	13.32	-52.7	-55.3	14.2	0.00e+00	0	23	0	218103808	71	4878
2026-01-09 08:03:45.70	107.26	13.41	-52.9	-55.6	14.0	0.00e+00	0	24	0	220200960	71	5052
2026-01-09 08:03:46.71	107.18	13.51	-53.0	-55.7	13.9	0.00e+00	0	23	0	222298112	71	5113
2026-01-09 08:03:47.71	107.10	13.60	-52.7	-55.3	14.1	0.00e+00	0	23	0	223346688	71	4903
2026-01-09 08:03:48.72	107.02	13.69	-52.9	-55.6	13.9	0.00e+00	0	24	0	225443840	71	5074
2026-01-09 08:03:49.73	106.94	13.79	-53.0	-55.8	13.8	0.00e+00	0	24	0	227540992	71	5167
2026-01-09 08:03:50.74	106.85	13.88	-53.2	-56.1	13.6	0.00e+00	0	24	0	229638144	71	5376
2026-01-09 08:03:51.75	106.77	13.98	-53.2	-56.0	13.7	0.00e+00	0	24	0	231735296	71	5324
2026-01-09 08:03:52.76	106.69	14.07	-53.5	-56.5	13.5	0.00e+00	0	24	0	233832448	72	5284
2026-01-09 08:03:53.76	106.61	14.17	-53.4	-56.4	13.6	0.00e+00	0	24	0	234881024	72	5259
2026-01-09 08:03:54.77	106.52	14.26	-53.7	-56.8	13.4	0.00e+00	0	24	0	236978176	72	5481
2026-01-09 08:03:55.78	106.44	14.36	-53.9	-57.1	13.1	0.00e+00	0	23	0	239075328	72	5690
2026-01-09 08:03:56.79	106.35	14.45	-53.6	-56.6	13.4	0.00e+00	0	24	0	241172480	72	5398
2026-01-09 08:03:57.80	106.27	14.55	-53.7	-56.8	13.3	0.00e+00	0	23	0	243269632	72	5500
2026-01-09 08:03:58.81	106.18	14.65	-53.8	-57.0	13.2	0.00e+00	0	24	0	244318208	72	5636
2026-01-09 08:03:59.82	106.09	14.74	-54.0	-57.3	13.1	0.00e+00	0	24	0	246415360	73	5477
2026-01-09 08:04:00.83	106.00	14.84	-54.0	-57.2	13.1	0.00e+00	0	23	0	248512512	73	5443
2026-01-09 08:04:01.84	105.92	14.94	-54.2	-57.6	12.9	0.00e+00	0	24	0	250609664	73	5678
2026-01-09 08:04:02.84	105.83	15.04	-54.6	-58.3	12.5	0.00e+00	0	24	0	252706816	74	5800
2026-01-09 08:04:03.85	105.74	15.14	-54.5	-57.9	12.8	0.00e+00	0	24	0	253755392	74	5578
2026-01-09 08:04:04.86	105.65	15.23	-54.5	-57.9	12.8	1.50e-06	0	24	0	255852544	74	5590
2026-01-09 08:04:05.87	105.56	15.33	-54.7	-58.4	12.4	1.50e-06	0	24	0	257949696	74	5918
2026-01-09 08:04:06.87	105.47	15.43	-54.3	-57.7	13.0	0.00e+00	0	24	0	260046848	74	5415
2026-01-09 08:04:07.88	105.38	15.53	-54.3	-57.5	13.1	0.00e+00	0	24	0	262144000	74	5335
2026-01-09 08:04:08.89	105.28	15.63	-54.6	-58.1	12.7	0.00e+00	0	24	0	263192576	74	5680
2026-01-09 08:04:09.90	105.19	15.73	-54.3	-57.7	13.0	0.00e+00	0	23	0	265289728	74	5408
2026-01-09 08:04:10.91	105.10	15.83	-54.4	-57.8	12.9	0.00e+00	0	23	0	267386880	74	5471
2026-01-09 08:04:11.92	105.00	15.94	-54.5	-57.9	12.9	0.00e+00	0	24	0	269484032	74	5545
2026-01-09 08:04:12.93	104.91	16.04	-54.6	-58.0	12.7	0.00e+00	0	24	0	271581184	74	5648
2026-01-09 08:04:13.94	104.81	16.14	-54.9	-58.6	12.5	1.50e-06	0	24	0	272629760	75	5689
2026-01-09 08:04:14.95	104.71	16.24	-55.1	-59.0	12.2	3.80e-06	0	24	0	274726912	75	5944
2026-01-09 08:04:15.96	104.62	16.34	-55.3	-59.3	11.9	7.00e-07	0	24	0	276824064	75	6154
2026-01-09 08:04:16.97	104.52	16.45	-55.6	-59.8	11.7	9.10e-06	0	24	0	278921216	76	6163
2026-01-09 08:04:17.98	104.42	16.55	-55.6	-59.8	11.7	1.37e-05	0	24	0	281018368	76	6147
2026-01-09 08:04:18.99	104.32	16.65	-55.8	-60.2	11.5	2.59e-05	0	24	0	282066944	76	6436
2026-01-09 08:04:19.99	104.22	16.76	-55.6	-59.7	11.8	1.98e-05	0	24	0	284164096	76	6097
2026-01-09 08:04:21.00	104.12	16.86	-55.9	-60.4	11.2	5.79e-05	0	24	0	286261248	76	6592
2026-01-09 08:04:22.02	104.02	16.97	-56.0	-60.6	11.1	1.57e-04	0	24	0	288358400	77	6419
2026-01-09 08:04:23.02	103.92	17.07	-56.0	-60.7	11.1	7.01e-05	0	23	0	290455552	77	6463
2026-01-09 08:04:24.03	103.82	17.18	-56.1	-60.8	11.1	1.03e-04	0	24	0	291504128	77	6515
2026-01-09 08:04:25.04	103.71	17.28	-56.3	-61.4	10.5	3.32e-04	0	24	0	293601280	77	6988
2026-01-09 08:04:26.04	103.61	17.39	-56.5	-61.9	10.2	7.52e-04	0	24	0	295698432	78	6986
2026-01-09 08:04:27.04	103.51	17.49	-56.6	-62.0	10.1	6.85e-04	0	24	0	297795584	78	7100
2026-01-09 08:04:28.05	103.40	17.60	-56.4	-61.7	10.3	1.33e-03	0	24	0	299892736	78	6818
2026-01-09 08:04:29.06	103.29	17.71	-56.5	-61.7	10.3	1.72e-03	0	24	0	300941312	78	6863
2026-01-09 08:04:30.07	103.19	17.81	-56.6	-62.0	10.1	2.48e-03	0	24	0	303038464	78	7069
2026-01-09 08:04:31.07	103.08	17.92	-56.7	-62.3	9.9	3.23e-03	0	24	0	305135616	78	7327
2026-01-09 08:04:32.09	102.97	18.03	-56.9	-62.9	9.3	3.30e-03	0	24	0	307232768	78	7815
2026-01-09 08:04:33.09	102.86	18.14	-56.9	-63.0	9.3	6.07e-03	0	24	0	309329920	79	7474
2026-01-09 08:04:34.10	102.75	18.25	-57.0	-63.4	9.0	1.03e-02	0	24	0	310378496	79	7845
2026-01-09 08:04:35.11	102.64	18.36	-57.0	-63.4	8.8	1.57e-02	0	24	0	312475648	79	7899
2026-01-09 08:04:36.12	102.53	18.46	-57.1	-63.5	8.8	1.45e-02	0	24	0	314572800	79	7951
2026-01-09 08:04:37.13	102.41	18.58	-57.1	-63.8	8.6	1.90e-02	0	24	0	316669952	79	8197
2026-01-09 08:04:38.14	102.30	18.69	-57.2	-64.0	8.4	3.60e-02	0	24	0	318767104	79	8405
2026-01-09 08:04:39.15	102.18	18.80	-57.3	-64.4	8.0	3.48e-02	0	24	0	319815680	79	8846
2026-01-09 08:04:40.15	102.07	18.91	-57.4	-64.8	7.7	4.64e-02	0	23	0	321912832	79	9216
2026-01-09 08:04:41.16	101.95	19.02	-57.3	-64.6	7.8	4.85e-02	0	24	0	324009984	79	9039
2026-01-09 08:04:42.17	101.84	19.13	-57.4	-64.8	7.7	5.14e-02	0	24	0	326107136	79	9237
2026-01-09 08:04:43.18	101.72	19.24	-57.5	-65.1	7.4	6.31e-02	0	24	0	328204288	80	8981
2026-01-09 08:04:44.19	101.60	19.36	-57.4	-64.9	7.6	6.73e-02	0	24	0	329252864	80	8850
2026-01-09 08:04:45.20	101.48	19.47	-57.7	-66.1	6.8	4.74e-02	0	24	0	331350016	80	10159
2026-01-09 08:04:46.20	101.36	19.58	-58.4	-73.5	3.8	1.49e+00	0	24	104	332398592	81	22347
2026-01-09 08:04:47.21	101.24	19.69	-58.4	-74.0	3.8	1.49e+00	0	24	104	332398592	81	23704
2026-01-09 08:04:48.22	101.11	19.81	-58.4	-73.7	3.8	1.49e+00	0	24	104	332398592	81	22879
2026-01-09 08:04:49.23	100.99	19.92	-58.4	-73.6	3.8	1.49e+00	0	24	104	332398592	81	22739
2026-01-09 08:04:50.23	100.87	20.04	-58.3	-73.1	3.8	1.49e+00	0	24	104	332398592	81	21355
2026-01-09 08:04:51.24	100.74	20.15	-58.3	-72.9	3.8	1.49e+00	0	24	104	332398592	81	21000
2026-01-09 08:04:52.25	100.61	20.27	-58.3	-72.9	3.8	1.49e+00	0	24	104	332398592	81	20838
2026-01-09 08:04:53.26	100.49	20.38	-58.3	-73.1	3.8	1.49e+00	0	24	104	332398592	81	21428
2026-01-09 08:04:54.27	100.36	20.50	-58.3	-73.5	3.8	1.49e+00	0	24	104	332398592	81	22474
2026-01-09 08:04:55.28	100.23	20.62	-58.4	-73.7	3.8	1.49e+00	0	24	104	332398592	82	21710
2026-01-09 08:04:56.29	100.10	20.74	-58.4	-73.5	3.8	1.49e+00	0	24	104	332398592	82	21179
2026-01-09 08:04:57.30	99.97	20.85	-58.5	-74.3	3.8	1.49e+00	0	24	104	332398592	82	23240
2026-01-09 08:04:58.30	99.83	20.97	-58.4	-73.2	3.8	1.49e+00	0	24	104	332398592	82	20479
2026-01-09 08:04:59.31	99.70	21.09	-58.4	-73.2	3.8	1.49e+00	0	24	104	332398592	82	20387
2026-01-09 08:05:00.32	99.57	21.21	-58.4	-73.2	3.8	1.49e+00	0	24	104	332398592	82	20480
2026-01-09 08:05:01.33	99.43	21.33	-58.4	-73.2	3.8	1.49e+00	0	24	104	332398592	82	20368
2026-01-09 08:05:02.34	99.29	21.45	-58.4	-73.2	3.8	1.49e+00	0	24	104	332398592	82	20472
2026-01-09 08:05:03.34	99.16	21.57	-58.5	-74.5	3.8	1.49e+00	0	24	104	332398592	82	23633
2026-01-09 08:05:04.35	99.02	21.69	-58.5	-73.8	3.8	1.49e+00	0	24	104	332398592	82	21807
2026-01-09 08:05:05.36	98.88	21.81	-58.5	-73.6	3.8	1.49e+00	0	24	104	332398592	82	21475
2026-01-09 08:05:06.37	98.74	21.93	-58.4	-73.2	3.8	1.49e+00	0	24	104	332398592	82	20323
2026-01-09 08:05:07.37	98.60	22.05	-58.4	-73.4	3.8	1.49e+00	0	24	104	332398592	82	20801
2026-01-09 08:05:08.38	98.45	22.17	-58.4	-73.2	3.8	1.49e+00	0	24	104	332398592	82	20370
2026-01-09 08:05:09.38	98.31	22.29	-58.4	-73.2	3.8	1.49e+00	0	24	104	332398592	82	20355
2026-01-09 08:05:10.39	98.16	22.41	-58.5	-73.6	3.8	1.49e+00	0	24	104	332398592	82	21316
2026-01-09 08:05:11.40	98.02	22.54	-58.5	-74.1	3.8	1.49e+00	0	24	104	332398592	82	22543
2026-01-09 08:05:12.41	97.87	22.66	-58.5	-73.5	3.8	1.49e+00	0	24	104	332398592	82	21034
2026-01-09 08:05:13.42	97.72	22.78	-58.5	-74.5	3.8	1.49e+00	0	24	104	332398592	82	23665
2026-01-09 08:05:14.43	97.57	22.91	-58.5	-73.4	3.8	1.49e+00	0	24	104	332398592	82	20876
2026-01-09 08:05:15.43	97.42	23.03	-58.5	-73.5	3.8	1.49e+00	0	24	104	332398592	82	21109
2026-01-09 08:05:16.45	97.26	23.16	-58.5	-74.1	3.8	1.49e+00	0	24	104	332398592	82	22755
2026-01-09 08:05:17.46	97.11	23.28	-58.5	-74.1	3.8	1.49e+00	0	24	104	332398592	82	22730
2026-01-09 08:05:18.46	96.95	23.41	-58.5	-74.1	3.8	1.49e+00	0	24	104	332398592	82	22653
2026-01-09 08:05:19.47	96.80	23.53	-58.5	-74.5	3.8	1.49e+00	0	24	104	332398592	82	23798
2026-01-09 08:05:20.48	96.64	23.66	-58.5	-73.3	3.8	1.49e+00	0	24	104	332398592	82	20570
2026-01-09 08:05:21.49	96.48	23.79	-58.5	-73.4	3.8	1.49e+00	0	24	104	332398592	82	20964
2026-01-09 08:05:22.50	96.32	23.92	-58.5	-73.0	3.8	1.49e+00	0	24	104	332398592	82	20051
2026-01-09 08:05:23.50	96.16	24.04	-58.5	-73.1	3.8	1.49e+00	0	24	104	332398592	82	20076
2026-01-09 08:05:24.51	95.99	24.17	-58.5	-73.7	3.8	1.49e+00	0	24	104	332398592	82	21524
2026-01-09 08:05:25.52	95.83	24.30	-58.5	-73.7	3.8	1.49e+00	0	24	104	332398592	82	21570
2026-01-09 08:05:26.53	95.66	24.43	-58.5	-74.5	3.8	1.49e+00	0	24	104	332398592	82	23805
2026-01-09 08:05:27.53	95.50	24.55	-58.5	-74.5	3.8	1.49e+00	0	24	104	332398592	82	23817
2026-01-09 08:05:28.54	95.33	24.68	-58.5	-73.4	3.8	1.49e+00	0	24	104	332398592	82	20936
2026-01-09 08:05:29.55	95.16	24.81	-58.5	-73.5	3.8	1.49e+00	0	24	104	332398592	82	21079
2026-01-09 08:05:30.56	94.99	24.94	-58.5	-73.4	3.8	1.49e+00	0	24	104	332398592	82	20997
2026-01-09 08:05:31.57	94.81	25.08	-58.5	-73.4	3.8	1.49e+00	0	24	104	332398592	82	20819
2026-01-09 08:05:32.58	94.64	25.21	-58.5	-73.3	3.8	1.49e+00	0	24	104	332398592	82	20756
2026-01-09 08:05:33.59	94.46	25.34	-58.5	-73.4	3.8	1.49e+00	0	24	104	332398592	82	20831
2026-01-09 08:05:34.60	94.28	25.47	-58.6	-74.4	3.8	1.49e+00	0	24	104	332398592	82	23454
2026-01-09 08:05:35.61	94.11	25.60	-58.6	-74.5	3.8	1.49e+00	0	24	104	332398592	82	23844
2026-01-09 08:05:36.62	93.92	25.73	-58.5	-73.2	3.8	1.49e+00	0	24	104	332398592	82	20517
2026-01-09 08:05:37.63	93.74	25.87	-58.5	-73.3	3.8	1.49e+00	0	24	104	332398592	82	20619
2026-01-09 08:05:38.64	93.56	26.00	-58.5	-73.4	3.8	1.49e+00	0	24	104	332398592	82	20780
2026-01-09 08:05:39.65	93.37	26.13	-58.5	-73.2	3.8	1.49e+00	0	24	104	332398592	82	20485
2026-01-09 08:05:40.66	93.19	26.27	-58.5	-73.6	3.8	1.49e+00	0	24	104	332398592	82	21395
2026-01-09 08:05:41.67	93.00	26.40	-58.5	-74.0	3.8	1.49e+00	0	24	104	332398592	82	22442
2026-01-09 08:05:42.68	92.81	26.53	-58.6	-74.2	3.8	1.49e+00	0	24	104	332398592	82	22922
2026-01-09 08:05:43.68	92.62	26.67	-58.6	-73.9	3.8	1.49e+00	0	24	104	332398592	82	22179
2026-01-09 08:05:44.69	92.42	26.80	-58.6	-73.9	3.8	1.49e+00	0	24	104	332398592	82	22116
2026-01-09 08:05:45.70	92.23	26.94	-58.5	-73.9	3.8	1.49e+00	0	24	104	332398592	82	22152
2026-01-09 08:05:46.71	92.03	27.07	-58.6	-74.0	3.8	1.49e+00	0	24	104	332398592	82	22369
2026-01-09 08:05:47.72	91.83	27.21	-58.6	-74.0	3.8	1.49e+00	0	24	104	332398592	82	22456
2026-01-09 08:05:48.72	91.63	27.34	-58.6	-74.0	3.8	1.49e+00	0	24	104	332398592	82	22479
2026-01-09 08:05:49.73	91.43	27.48	-58.6	-74.0	3.8	1.49e+00	0	24	104	332398592	82	22457
2026-01-09 08:05:50.74	91.23	27.62	-58.6	-74.7	3.8	1.49e+00	0	24	104	332398592	82	24221
2026-01-09 08:05:51.75	91.02	27.75	-58.6	-74.1	3.8	1.49e+00	0	24	104	332398592	82	22601
2026-01-09 08:05:52.76	90.82	27.89	-58.6	-74.0	3.8	1.49e+00	0	24	104	332398592	82	22434
2026-01-09 08:05:53.76	90.61	28.03	-58.6	-74.1	3.8	1.49e+00	0	24	104	332398592	82	22712
2026-01-09 08:05:54.77	90.40	28.16	-58.6	-74.2	3.8	1.49e+00	0	24	104	332398592	82	22862
2026-01-09 08:05:55.78	90.19	28.30	-58.6	-74.3	3.8	1.49e+00	0	24	104	332398592	82	23125
2026-01-09 08:05:56.79	89.97	28.44	-58.6	-74.5	3.8	1.49e+00	0	24	104	332398592	82	23643
2026-01-09 08:05:57.80	89.75	28.58	-58.6	-74.3	3.8	1.49e+00	0	24	104	332398592	82	23251
2026-01-09 08:05:58.81	89.54	28.72	-58.7	-74.7	3.8	1.49e+00	0	24	104	332398592	82	24217
2026-01-09 08:05:59.81	89.32	28.86	-58.6	-74.4	3.8	1.49e+00	0	24	104	332398592	82	23333
2026-01-09 08:06:00.82	89.10	28.99	-58.6	-74.4	3.8	1.49e+00	0	24	104	332398592	82	23495
2026-01-09 08:06:01.83	88.87	29.13	-58.6	-74.7	3.8	1.49e+00	0	24	104	332398592	82	24133
2026-01-09 08:06:02.84	88.65	29.27	-58.6	-74.5	3.8	1.49e+00	0	24	104	332398592	82	23620
2026-01-09 08:06:03.84	88.42	29.41	-58.6	-74.4	3.8	1.49e+00	0	24	104	332398592	82	23314
2026-01-09 08:06:04.85	88.19	29.55	-58.6	-74.4	3.8	1.49e+00	0	24	104	332398592	82	23354
2026-01-09 08:06:05.86	87.96	29.69	-58.6	-74.6	3.8	1.49e+00	0	24	104	332398592	82	24116
2026-01-09 08:06:06.87	87.72	29.83	-58.6	-74.6	3.8	1.49e+00	0	24	104	332398592	82	23930
2026-01-09 08:06:07.87	87.49	29.97	-58.6	-74.5	3.8	1.49e+00	0	24	104	332398592	82	23645
2026-01-09 08:06:08.88	87.25	30.11	-58.6	-74.4	3.8	1.49e+00	0	24	104	332398592	82	23406
2026-01-09 08:06:09.89	87.01	30.25	-58.6	-74.6	3.8	1.49e+00	0	24	104	332398592	82	24120
2026-01-09 08:06:10.90	86.77	30.39	-58.7	-74.6	3.8	1.49e+00	0	24	104	332398592	82	24036
2026-01-09 08:06:11.90	86.53	30.53	-58.6	-74.4	3.8	1.49e+00	0	24	104	332398592	82	23533
2026-01-09 08:06:12.91	86.28	30.67	-58.6	-74.1	3.8	1.49e+00	0	24	104	332398592	82	22745
2026-01-09 08:06:13.91	86.03	30.81	-58.7	-74.6	3.8	1.49e+00	0	24	104	332398592	82	24012
2026-01-09 08:06:14.92	85.78	30.95	-58.7	-74.7	3.8	1.49e+00	0	24	104	332398592	82	24133
2026-01-09 08:06:15.93	85.53	31.09	-58.7	-74.6	3.8	1.49e+00	0	24	104	332398592	82	24014
2026-01-09 08:06:16.94	85.27	31.23	-58.6	-74.0	3.8	1.49e+00	0	24	104	332398592	82	22432
2026-01-09 08:06:17.95	85.01	31.37	-58.6	-74.0	3.8	1.49e+00	0	24	104	332398592	82	22452
2026-01-09 08:06:18.95	84.76	31.51	-58.6	-73.9	3.8	1.49e+00	0	24	104	332398592	82	22161
2026-01-09 08:06:19.96	84.49	31.66	-58.6	-73.9	3.8	1.49e+00	0	24	104	332398592	82	22247
2026-01-09 08:06:20.97	84.23	31.80	-58.6	-74.1	3.8	1.49e+00	0	24	104	332398592	82	22532
2026-01-09 08:06:21.97	83.96	31.94	-58.6	-74.1	3.8	1.49e+00	0	24	104	332398592	82	22627
2026-01-09 08:06:22.99	83.69	32.08	-58.7	-74.6	3.8	1.49e+00	0	24	104	332398592	82	24119
2026-01-09 08:06:23.99	83.42	32.22	-58.7	-74.5	3.8	1.49e+00	0	24	104	332398592	82	23633
2026-01-09 08:06:25.00	83.15	32.36	-58.7	-74.6	3.8	1.49e+00	0	24	104	332398592	82	24082
2026-01-09 08:06:26.01	82.87	32.50	-58.7	-74.2	3.8	1.49e+00	0	24	104	332398592	82	22954
2026-01-09 08:06:27.01	82.60	32.64	-58.7	-74.2	3.8	1.49e+00	0	24	104	332398592	82	22867
2026-01-09 08:06:28.02	82.31	32.78	-58.7	-74.2	3.8	1.49e+00	0	24	104	332398592	82	22903
2026-01-09 08:06:29.03	82.03	32.92	-58.7	-74.3	3.8	1.49e+00	0	24	104	332398592	82	23116
2026-01-09 08:06:30.03	81.75	33.06	-58.7	-74.4	3.8	1.49e+00	0	24	104	332398592	82	23377
2026-01-09 08:06:31.04	81.46	33.20	-58.7	-74.6	3.8	1.49e+00	0	24	104	332398592	82	24095
2026-01-09 08:06:32.05	81.17	33.34	-58.7	-74.7	3.8	1.49e+00	0	24	104	332398592	82	24238
2026-01-09 08:06:33.07	80.87	33.48	-58.7	-74.2	3.8	1.49e+00	0	24	104	332398592	82	22875
2026-01-09 08:06:34.07	80.58	33.62	-58.7	-74.1	3.8	1.49e+00	0	24	104	332398592	82	22635
2026-01-09 08:06:35.08	80.28	33.76	-58.7	-74.6	3.8	1.49e+00	0	24	104	332398592	82	24011
2026-01-09 08:06:36.09	79.98	33.89	-58.7	-74.7	3.8	1.49e+00	0	24	104	332398592	82	24168
2026-01-09 08:06:37.09	79.67	34.03	-58.7	-74.1	3.8	1.49e+00	0	24	104	332398592	82	22716
2026-01-09 08:06:38.11	79.36	34.17	-58.7	-74.1	3.8	1.49e+00	0	24	104	332398592	82	22556
2026-01-09 08:06:39.11	79.06	34.31	-58.6	-74.2	3.8	1.49e+00	0	24	104	332398592	82	22817
2026-01-09 08:06:40.12	78.75	34.45	-58.7	-74.2	3.8	1.49e+00	0	24	104	332398592	82	22912
2026-01-09 08:06:41.13	78.43	34.58	-58.7	-74.4	3.8	1.49e+00	0	24	104	332398592	82	23466
2026-01-09 08:06:42.14	78.11	34.72	-58.7	-74.6	3.8	1.49e+00	0	24	104	332398592	82	23963
2026-01-09 08:06:43.15	77.79	34.86	-58.7	-74.6	3.8	1.49e+00	0	24	104	332398592	82	24017
2026-01-09 08:06:44.16	77.47	34.99	-58.7	-74.2	3.8	1.49e+00	0	24	104	332398592	82	23001
2026-01-09 08:06:45.17	77.15	35.13	-58.7	-74.6	3.8	1.49e+00	0	24	104	332398592	82	24042
2026-01-09 08:06:46.18	76.82	35.26	-58.7	-74.6	3.8	1.49e+00	0	24	104	332398592	82	23862
2026-01-09 08:06:47.19	76.49	35.40	-58.7	-74.6	3.8	1.49e+00	0	24	104	332398592	82	24013
2026-01-09 08:06:48.19	76.16	35.53	-58.7	-74.5	3.8	1.49e+00	0	24	104	332398592	82	23640
2026-01-09 08:06:49.20	75.82	35.66	-58.7	-74.7	3.8	1.49e+00	0	24	104	332398592	82	24188
2026-01-09 08:06:50.21	75.48	35.79	-58.7	-74.7	3.8	1.49e+00	0	24	104	332398592	82	24131
2026-01-09 08:06:51.21	75.14	35.93	-58.7	-74.7	3.8	1.49e+00	0	24	104	332398592	82	24267
2026-01-09 08:06:52.22	74.80	36.06	-58.7	-74.6	3.8	1.49e+00	0	24	104	332398592	82	23924
2026-01-09 08:06:53.23	74.45	36.19	-58.8	-74.7	3.8	1.49e+00	0	24	104	332398592	82	24341
2026-01-09 08:06:54.24	74.10	36.32	-58.7	-74.6	3.8	1.49e+00	0	24	104	332398592	82	24028
2026-01-09 08:06:55.25	73.75	36.45	-58.7	-74.7	3.8	1.49e+00	0	24	104	332398592	82	24375
2026-01-09 08:06:56.26	73.39	36.58	-58.7	-74.7	3.8	1.49e+00	0	24	104	332398592	82	24379
2026-01-09 08:06:57.27	73.03	36.70	-58.7	-74.7	3.8	1.49e+00	0	24	104	332398592	82	24293
2026-01-09 08:06:58.28	72.67	36.83	-58.8	-74.5	3.8	1.49e+00	0	24	104	332398592	82	23845
2026-01-09 08:06:59.29	72.31	36.96	-58.7	-74.7	3.8	1.49e+00	0	24	104	332398592	82	24404
2026-01-09 08:07:00.29	71.94	37.08	-58.8	-74.8	3.8	1.49e+00	0	24	104	332398592	82	24440
2026-01-09 08:07:01.30	71.57	37.21	-58.8	-74.7	3.8	1.49e+00	0	24	104	332398592	82	24349
2026-01-09 08:07:02.31	71.20	37.33	-58.8	-74.6	3.8	1.49e+00	0	24	104	332398592	82	23956
2026-01-09 08:07:03.32	70.82	37.45	-58.8	-74.8	3.8	1.49e+00	0	24	104	332398592	82	24536
2026-01-09 08:07:04.32	70.45	37.57	-58.7	-74.7	3.8	1.49e+00	0	24	104	332398592	82	24376
2026-01-09 08:07:05.33	70.07	37.69	-58.8	-74.7	3.8	1.49e+00	0	24	104	332398592	82	24291
2026-01-09 08:07:06.34	69.68	37.81	-58.8	-74.5	3.8	1.49e+00	0	24	104	332398592	82	23739
2026-01-09 08:07:07.35	69.29	37.93	-58.8	-74.8	3.8	1.49e+00	0	24	104	332398592	82	24412
2026-01-09 08:07:08.36	68.90	38.05	-58.8	-74.6	3.8	1.49e+00	0	24	104	332398592	82	23967
2026-01-09 08:07:09.36	68.52	38.16	-58.8	-74.8	3.8	1.49e+00	0	24	104	332398592	82	24416
2026-01-09 08:07:10.37	68.12	38.28	-58.8	-74.6	3.8	1.49e+00	0	24	104	332398592	82	24099
2026-01-09 08:07:11.38	67.72	38.39	-58.8	-74.7	3.8	1.49e+00	0	24	104	332398592	82	24397
2026-01-09 08:07:12.39	67.32	38.51	-58.8	-74.5	3.8	1.49e+00	0	24	104	332398592	82	23803
2026-01-09 08:07:13.40	66.92	38.62	-58.8	-74.8	3.8	1.49e+00	0	24	104	332398592	82	24435
2026-01-09 08:07:14.41	66.51	38.73	-58.8	-74.6	3.8	1.49e+00	0	24	104	332398592	82	23934
2026-01-09 08:07:15.42	66.10	38.84	-58.8	-74.7	3.8	1.49e+00	0	24	104	332398592	82	24170
2026-01-09 08:07:16.43	65.69	38.95	-58.8	-74.5	3.8	1.49e+00	0	24	104	332398592	82	23744
2026-01-09 08:07:17.44	65.27	39.05	-58.8	-74.8	3.8	1.49e+00	0	24	104	332398592	82	24489
2026-01-09 08:07:18.45	64.86	39.16	-58.8	-74.6	3.8	1.49e+00	0	24	104	332398592	82	23971
2026-01-09 08:07:19.45	64.44	39.26	-58.8	-74.6	3.8	1.49e+00	0	24	104	332398592	82	23930
2026-01-09 08:07:20.46	64.02	39.36	-58.8	-74.6	3.8	1.49e+00	0	24	104	332398592	82	23927
2026-01-09 08:07:21.47	63.59	39.46	-58.8	-74.8	3.8	1.49e+00	0	24	104	332398592	82	24551
2026-01-09 08:07:22.48	63.16	39.56	-58.8	-74.6	3.8	1.49e+00	0	24	104	332398592	82	24069
2026-01-09 08:07:23.49	62.73	39.66	-58.8	-74.5	3.8	1.49e+00	0	24	104	332398592	82	23678
2026-01-09 08:07:24.50	62.30	39.75	-58.8	-74.8	3.8	1.49e+00	0	24	104	332398592	82	24432
2026-01-09 08:07:25.50	61.87	39.85	-58.8	-74.8	3.8	1.49e+00	0	24	104	332398592	82	24531
2026-01-09 08:07:26.52	61.42	39.94	-58.8	-74.7	3.8	1.49e+00	0	24	104	332398592	82	24179
2026-01-09 08:07:27.52	60.99	40.03	-58.8	-74.5	3.8	1.49e+00	0	24	104	332398592	82	23626
2026-01-09 08:07:28.53	60.54	40.12	-58.8	-74.8	3.8	1.49e+00	0	24	104	332398592	82	24424
2026-01-09 08:07:29.54	60.10	40.21	-58.8	-74.8	3.8	1.49e+00	0	24	104	332398592	82	24574
2026-01-09 08:07:30.55	59.65	40.29	-58.8	-74.7	3.8	1.49e+00	0	24	104	332398592	82	24321
2026-01-09 08:07:31.56	59.20	40.38	-58.8	-74.5	3.8	1.49e+00	0	24	104	332398592	82	23595
2026-01-09 08:07:32.57	58.75	40.46	-58.8	-74.8	3.8	1.49e+00	0	24	104	332398592	82	24673
2026-01-09 08:07:33.58	58.29	40.54	-58.8	-74.8	3.8	1.49e+00	0	24	104	332398592	82	24592
2026-01-09 08:07:34.58	57.84	40.62	-58.8	-74.7	3.8	1.49e+00	0	24	104	332398592	82	24378
2026-01-09 08:07:35.59	57.38	40.69	-58.8	-74.4	3.8	1.49e+00	0	24	104	332398592	82	23568
2026-01-09 08:07:36.60	56.92	40.77	-58.8	-74.9	3.8	1.49e+00	0	24	104	332398592	82	24714
2026-01-09 08:07:37.61	56.45	40.84	-58.8	-74.8	3.8	1.49e+00	0	24	104	332398592	82	24558
2026-01-09 08:07:38.62	55.99	40.91	-58.8	-74.8	3.8	1.49e+00	0	24	104	332398592	82	24576
2026-01-09 08:07:39.63	55.52	40.98	-58.8	-74.6	3.8	1.49e+00	0	24	104	332398592	82	24040
2026-01-09 08:07:40.64	55.05	41.05	-58.9	-74.8	3.8	1.49e+00	0	24	104	332398592	82	24658
2026-01-09 08:07:41.65	54.58	41.11	-58.8	-74.8	3.8	1.49e+00	0	24	104	332398592	82	24476
2026-01-09 08:07:42.66	54.10	41.17	-58.8	-74.8	3.8	1.49e+00	0	24	104	332398592	82	24679
2026-01-09 08:07:43.67	53.63	41.23	-58.8	-74.7	3.8	1.49e+00	0	24	104	332398592	82	24206
2026-01-09 08:07:44.68	53.15	41.29	-58.9	-74.8	3.8	1.49e+00	0	24	104	332398592	82	24486
2026-01-09 08:07:45.69	52.67	41.35	-58.8	-74.8	3.8	1.49e+00	0	24	104	332398592	82	24431
2026-01-09 08:07:46.69	52.19	41.40	-58.8	-74.9	3.8	1.49e+00	0	24	104	332398592	82	24694
2026-01-09 08:07:47.71	51.71	41.45	-58.8	-74.6	3.8	1.49e+00	0	24	104	332398592	82	23887
2026-01-09 08:07:48.71	51.23	41.50	-58.9	-74.7	3.8	1.49e+00	0	24	104	332398592	82	24285
2026-01-09 08:07:49.72	50.74	41.55	-58.8	-74.8	3.8	1.49e+00	0	24	104	332398592	82	24481
2026-01-09 08:07:50.73	50.26	41.59	-58.8	-74.9	3.8	1.49e+00	0	24	104	332398592	82	24701
2026-01-09 08:07:51.74	49.77	41.63	-58.8	-74.7	3.8	1.49e+00	0	24	104	332398592	82	24208
2026-01-09 08:07:52.74	49.29	41.67	-58.9	-74.6	3.8	1.49e+00	0	24	104	332398592	82	24082
2026-01-09 08:07:53.75	48.80	41.71	-58.8	-74.7	3.8	1.49e+00	0	24	104	332398592	82	24368
2026-01-09 08:07:54.76	48.30	41.75	-58.8	-74.8	3.8	1.49e+00	0	24	104	332398592	82	24669
2026-01-09 08:07:55.77	47.81	41.78	-58.8	-74.7	3.8	1.49e+00	0	24	104	332398592	82	24170
2026-01-09 08:07:56.78	47.32	41.81	-58.8	-74.6	3.8	1.49e+00	0	24	104	332398592	82	23924
2026-01-09 08:07:57.79	46.82	41.84	-58.9	-74.7	3.8	1.49e+00	0	24	104	332398592	82	24333
2026-01-09 08:07:58.80	46.33	41.86	-58.8	-74.9	3.8	1.49e+00	0	24	104	332398592	82	24748
2026-01-09 08:07:59.80	45.84	41.89	-58.9	-74.8	3.8	1.49e+00	0	24	104	332398592	82	24476
2026-01-09 08:08:00.81	45.34	41.91	-58.9	-74.7	3.8	1.49e+00	0	24	104	332398592	82	24247
2026-01-09 08:08:01.82	44.84	41.93	-58.9	-74.8	3.8	1.49e+00	0	24	104	332398592	82	24418
2026-01-09 08:08:02.83	44.35	41.94	-58.8	-74.8	3.8	1.49e+00	0	24	104	332398592	82	24689
2026-01-09 08:08:03.84	43.85	41.96	-58.8	-74.7	3.8	1.49e+00	0	24	104	332398592	82	24316
2026-01-09 08:08:04.84	43.36	41.97	-58.9	-74.7	3.8	1.49e+00	0	24	104	332398592	82	24255
2026-01-09 08:08:05.85	42.86	41.98	-58.8	-74.8	3.8	1.49e+00	0	24	104	332398592	82	24462
2026-01-09 08:08:06.86	42.36	41.98	-58.8	-74.9	3.8	1.49e+00	0	24	104	332398592	82	24707
2026-01-09 08:08:07.87	41.86	41.99	-58.9	-74.8	3.8	1.49e+00	0	24	104	332398592	82	24656
2026-01-09 08:08:08.88	41.36	41.99	-58.9	-74.7	3.8	1.49e+00	0	24	104	332398592	82	24375
2026-01-09 08:08:09.89	40.86	41.99	-58.9	-74.8	3.8	1.49e+00	0	24	104	332398592	82	24501
2026-01-09 08:08:10.90	40.36	41.98	-58.9	-74.9	3.8	1.49e+00	0	24	104	332398592	82	24707
2026-01-09 08:08:11.91	39.86	41.98	-58.9	-74.8	3.8	1.49e+00	0	24	104	332398592	82	24596
2026-01-09 08:08:12.92	39.36	41.97	-58.9	-74.8	3.8	1.49e+00	0	24	104	332398592	82	24498
2026-01-09 08:08:13.92	38.87	41.96	-58.9	-74.8	3.8	1.49e+00	0	24	104	332398592	82	24569
2026-01-09 08:08:14.93	38.37	41.95	-58.8	-74.9	3.8	1.49e+00	0	24	104	332398592	82	24727
2026-01-09 08:08:15.93	37.88	41.93	-58.9	-74.9	3.8	1.49e+00	0	24	104	332398592	82	24750
2026-01-09 08:08:16.94	37.38	41.91	-58.9	-74.9	3.8	1.49e+00	0	24	104	332398592	82	24752
2026-01-09 08:08:17.95	36.89	41.89	-58.9	-74.8	3.8	1.49e+00	0	24	104	332398592	82	24599
2026-01-09 08:08:18.95	36.40	41.87	-58.8	-74.9	3.8	1.49e+00	0	24	104	332398592	82	24752
2026-01-09 08:08:19.96	35.90	41.84	-58.9	-74.9	3.8	1.49e+00	0	24	104	332398592	82	24756
2026-01-09 08:08:20.97	35.41	41.82	-58.9	-74.9	3.8	1.49e+00	0	24	104	332398592	82	24718
2026-01-09 08:08:21.98	34.91	41.79	-58.9	-74.8	3.8	1.49e+00	0	24	104	332398592	82	24692
2026-01-09 08:08:22.99	34.42	41.75	-58.8	-74.9	3.8	1.49e+00	0	24	104	332398592	82	24802
2026-01-09 08:08:23.99	33.93	41.72	-58.9	-74.9	3.8	1.49e+00	0	24	104	332398592	82	24800
2026-01-09 08:08:25.00	33.44	41.68	-58.9	-74.9	3.8	1.49e+00	0	24	104	332398592	82	24747
2026-01-09 08:08:26.01	32.96	41.64	-58.9	-74.8	3.8	1.49e+00	0	24	104	332398592	82	24673
2026-01-09 08:08:27.02	32.47	41.60	-58.8	-74.9	3.8	1.49e+00	0	24	104	332398592	82	24757
2026-01-09 08:08:28.03	31.98	41.56	-58.8	-74.9	3.8	1.49e+00	0	24	104	332398592	82	24765
2026-01-09 08:08:29.03	31.50	41.51	-58.9	-74.9	3.8	1.49e+00	0	24	104	332398592	82	24761
2026-01-09 08:08:30.04	31.02	41.46	-58.8	-74.8	3.8	1.49e+00	0	24	104	332398592	82	24688
2026-01-09 08:08:31.04	30.54	41.41	-58.8	-74.9	3.8	1.49e+00	0	24	104	332398592	82	24730
2026-01-09 08:08:32.05	30.06	41.36	-58.9	-74.9	3.8	1.49e+00	0	24	104	332398592	82	24729
2026-01-09 08:08:33.06	29.58	41.30	-58.9	-74.9	3.8	1.49e+00	0	24	104	332398592	82	24770
2026-01-09 08:08:34.07	29.10	41.25	-58.9	-74.8	3.8	1.49e+00	0	24	104	332398592	82	24652
2026-01-09 08:08:35.08	28.63	41.19	-58.9	-74.9	3.8	1.49e+00	0	24	104	332398592	82	24730
2026-01-09 08:08:36.08	28.16	41.13	-58.9	-74.9	3.8	1.49e+00	0	24	104	332398592	82	24717
2026-01-09 08:08:37.10	27.68	41.06	-58.9	-74.9	3.8	1.49e+00	0	24	104	332398592	82	24734
2026-01-09 08:08:38.10	27.22	41.00	-58.9	-74.9	3.8	1.49e+00	0	24	104	332398592	82	24704
2026-01-09 08:08:39.12	26.74	40.93	-58.8	-74.9	3.8	1.49e+00	0	24	104	332398592	82	24760
2026-01-09 08:08:40.12	26.28	40.86	-58.9	-74.8	3.8	1.49e+00	0	24	104	332398592	82	24691
2026-01-09 08:08:41.13	25.82	40.79	-58.9	-74.8	3.8	1.49e+00	0	24	104	332398592	82	24688
2026-01-09 08:08:42.14	25.36	40.71	-58.9	-74.8	3.8	1.49e+00	0	24	104	332398592	82	24465
2026-01-09 08:08:43.15	24.90	40.64	-58.8	-74.9	3.8	1.49e+00	0	24	104	332398592	82	24718
2026-01-09 08:08:44.16	24.44	40.56	-58.9	-74.9	3.8	1.49e+00	0	24	104	332398592	82	24702
2026-01-09 08:08:45.17	23.98	40.48	-58.9	-74.9	3.8	1.49e+00	0	24	104	332398592	82	24716
2026-01-09 08:08:46.18	23.53	40.40	-58.9	-74.7	3.8	1.49e+00	0	24	104	332398592	82	24364
2026-01-09 08:08:47.18	23.08	40.32	-58.8	-74.8	3.8	1.49e+00	0	24	104	332398592	82	24631
2026-01-09 08:08:48.19	22.64	40.23	-58.9	-74.8	3.8	1.49e+00	0	24	104	332398592	82	24652
2026-01-09 08:08:49.20	22.19	40.14	-58.9	-74.8	3.8	1.49e+00	0	24	104	332398592	82	24538
2026-01-09 08:08:50.21	21.75	40.06	-58.9	-74.7	3.8	1.49e+00	0	24	104	332398592	82	24165
2026-01-09 08:08:51.22	21.30	39.97	-58.9	-74.8	3.8	1.49e+00	0	24	104	332398592	82	24641
2026-01-09 08:08:52.23	20.87	39.87	-58.9	-74.9	3.8	1.49e+00	0	24	104	332398592	82	24726
2026-01-09 08:08:53.24	20.43	39.78	-58.9	-74.8	3.8	1.49e+00	0	24	104	332398592	82	24608
2026-01-09 08:08:54.25	20.00	39.68	-58.9	-74.7	3.8	1.49e+00	0	24	104	332398592	82	24258
2026-01-09 08:08:55.25	19.57	39.59	-58.8	-74.8	3.8	1.49e+00	0	24	104	332398592	82	24641
2026-01-09 08:08:56.26	19.14	39.49	-58.9	-74.9	3.8	1.49e+00	0	24	104	332398592	82	24719
2026-01-09 08:08:57.27	18.72	39.39	-58.9	-74.8	3.8	1.49e+00	0	24	104	332398592	82	24427
2026-01-09 08:08:58.28	18.29	39.29	-58.8	-74.6	3.8	1.49e+00	0	24	104	332398592	82	23971
2026-01-09 08:08:59.29	17.87	39.19	-58.8	-74.8	3.8	1.49e+00	0	24	104	332398592	82	24557
2026-01-09 08:09:00.30	17.45	39.08	-58.9	-74.8	3.8	1.49e+00	0	24	104	332398592	82	24599
2026-01-09 08:09:01.31	17.04	38.98	-58.9	-74.7	3.8	1.49e+00	0	24	104	332398592	82	24251
2026-01-09 08:09:02.32	16.63	38.87	-58.8	-74.7	3.8	1.49e+00	0	24	104	332398592	82	24221
2026-01-09 08:09:03.32	16.22	38.76	-58.8	-74.8	3.8	1.49e+00	0	24	104	332398592	82	24555
2026-01-09 08:09:04.33	15.81	38.65	-58.8	-74.8	3.8	1.49e+00	0	24	104	332398592	82	24649
2026-01-09 08:09:05.34	15.41	38.54	-58.8	-74.8	3.8	1.49e+00	0	24	104	332398592	82	24449
2026-01-09 08:09:06.34	15.01	38.43	-58.8	-74.8	3.8	1.49e+00	0	24	104	332398592	82	24480
2026-01-09 08:09:07.36	14.61	38.31	-58.8	-74.8	3.8	1.49e+00	0	24	104	332398592	82	24614
2026-01-09 08:09:08.36	14.22	38.20	-58.8	-74.9	3.8	1.49e+00	0	24	104	332398592	82	24723
2026-01-09 08:09:09.37	13.83	38.08	-58.8	-74.7	3.8	1.49e+00	0	24	104	332398592	82	24302
2026-01-09 08:09:10.37	13.44	37.97	-58.8	-74.7	3.8	1.49e+00	0	24	104	332398592	82	24247
2026-01-09 08:09:11.38	13.05	37.85	-58.8	-74.8	3.8	1.49e+00	0	24	104	332398592	82	24503
2026-01-09 08:09:12.39	12.67	37.73	-58.8	-74.8	3.8	1.49e+00	0	24	104	332398592	82	24608
2026-01-09 08:09:13.40	12.29	37.61	-58.8	-74.7	3.8	1.49e+00	0	24	104	332398592	82	24386
2026-01-09 08:09:14.41	11.91	37.49	-58.8	-74.7	3.8	1.49e+00	0	24	104	332398592	82	24394
2026-01-09 08:09:15.42	11.53	37.37	-58.8	-74.7	3.8	1.49e+00	0	24	104	332398592	82	24392
2026-01-09 08:09:16.43	11.16	37.24	-58.8	-74.8	3.8	1.49e+00	0	24	104	332398592	82	24546
2026-01-09 08:09:17.43	10.79	37.12	-58.8	-74.7	3.8	1.49e+00	0	24	104	332398592	82	24227
2026-01-09 08:09:18.44	10.42	37.00	-58.8	-74.8	3.8	1.49e+00	0	24	104	332398592	82	24539
2026-01-09 08:09:19.45	10.06	36.87	-58.8	-74.8	3.8	1.49e+00	0	24	104	332398592	82	24483
2026-01-09 08:09:20.46	9.70	36.74	-58.8	-74.8	3.8	1.49e+00	0	24	104	332398592	82	24568
2026-01-09 08:09:21.47	9.34	36.62	-58.8	-74.8	3.8	1.49e+00	0	24	104	332398592	82	24516
2026-01-09 08:09:22.47	8.99	36.49	-58.8	-74.8	3.8	1.49e+00	0	24	104	332398592	82	24582
2026-01-09 08:09:23.48	8.63	36.36	-58.8	-74.8	3.8	1.49e+00	0	24	104	332398592	82	24462
2026-01-09 08:09:24.48	8.29	36.23	-58.8	-74.8	3.8	1.49e+00	0	24	104	332398592	82	24563
2026-01-09 08:09:25.49	7.94	36.10	-58.8	-74.8	3.8	1.49e+00	0	24	104	332398592	82	24436
2026-01-09 08:09:26.50	7.59	35.97	-58.8	-74.8	3.8	1.49e+00	0	24	104	332398592	82	24651
2026-01-09 08:09:27.51	7.25	35.84	-58.8	-74.8	3.8	1.49e+00	0	24	104	332398592	82	24455
2026-01-09 08:09:28.52	6.91	35.71	-58.8	-74.7	3.8	1.49e+00	0	24	104	332398592	82	24390
2026-01-09 08:09:29.53	6.58	35.57	-58.8	-74.7	3.8	1.49e+00	0	24	104	332398592	82	24347
2026-01-09 08:09:30.54	6.24	35.44	-58.8	-74.8	3.8	1.49e+00	0	24	104	332398592	82	24643
2026-01-09 08:09:31.55	5.91	35.31	-58.8	-74.8	3.8	1.49e+00	0	24	104	332398592	82	24478
2026-01-09 08:09:32.56	5.58	35.17	-58.8	-74.8	3.8	1.49e+00	0	24	104	332398592	82	24433
2026-01-09 08:09:33.57	5.26	35.04	-58.8	-74.7	3.8	1.49e+00	0	24	104	332398592	82	24407
2026-01-09 08:09:34.58	4.93	34.90	-58.8	-74.8	3.8	1.49e+00	0	24	104	332398592	82	24606
2026-01-09 08:09:35.58	4.62	34.77	-58.8	-74.8	3.8	1.49e+00	0	24	104	332398592	82	24531
2026-01-09 08:09:36.58	4.30	34.63	-58.8	-74.7	3.8	1.49e+00	0	24	104	332398592	82	24404
2026-01-09 08:09:37.59	3.99	34.50	-58.8	-74.8	3.8	1.49e+00	0	24	104	332398592	82	24445
2026-01-09 08:09:38.60	3.68	34.36	-58.8	-74.8	3.8	1.49e+00	0	24	104	332398592	82	24493
2026-01-09 08:09:39.60	3.37	34.22	-58.8	-74.8	3.8	1.49e+00	0	24	104	332398592	82	24429
2026-01-09 08:09:40.61	3.06	34.09	-58.8	-74.7	3.8	1.49e+00	0	24	104	332398592	82	24243
2026-01-09 08:09:41.62	2.76	33.95	-58.8	-74.7	3.8	1.49e+00	0	24	104	332398592	82	24332
2026-01-09 08:09:42.64	2.45	33.81	-58.8	-74.8	3.8	1.49e+00	0	24	104	332398592	82	24455
2026-01-09 08:09:43.64	2.16	33.67	-58.8	-74.7	3.8	1.49e+00	0	24	104	332398592	82	24230
2026-01-09 08:09:44.65	1.86	33.53	-58.8	-74.7	3.8	1.49e+00	0	24	104	332398592	82	24399
2026-01-09 08:09:45.66	1.57	33.39	-58.8	-74.8	3.8	1.49e+00	0	24	104	332398592	82	24502
2026-01-09 08:09:46.66	1.28	33.25	-58.8	-74.8	3.8	1.49e+00	0	24	104	332398592	82	24492
2026-01-09 08:09:47.68	0.99	33.11	-58.8	-74.7	3.8	1.49e+00	0	24	104	332398592	82	24303
2026-01-09 08:09:48.68	0.70	32.97	-58.8	-74.7	3.8	1.49e+00	0	24	104	332398592	82	24205
2026-01-09 08:09:49.69	0.42	32.83	-58.8	-74.7	3.8	1.49e+00	0	24	104	332398592	82	24315
2026-01-09 08:09:50.70	0.14	32.69	-58.8	-74.8	3.8	1.49e+00	0	24	104	332398592	82	24444
2026-01-09 08:09:51.71	359.86	32.55	-58.8	-74.8	3.8	1.49e+00	0	24	104	332398592	82	24450
2026-01-09 08:09:52.72	359.58	32.41	-58.8	-74.8	3.8	1.49e+00	0	24	104	332398592	82	24460
2026-01-09 08:09:53.73	359.31	32.27	-58.8	-74.8	3.8	1.49e+00	0	24	104	332398592	82	24468
2026-01-09 08:09:54.74	359.04	32.13	-58.7	-74.7	3.8	1.49e+00	0	24	104	332398592	82	24375
2026-01-09 08:09:55.75	358.77	31.99	-58.8	-74.8	3.8	1.49e+00	0	24	104	332398592	82	24420
2026-01-09 08:09:56.76	358.50	31.85	-58.7	-74.7	3.8	1.49e+00	0	24	104	332398592	82	24373
2026-01-09 08:09:57.76	358.24	31.71	-58.7	-74.7	3.8	1.49e+00	0	24	104	332398592	82	24344
2026-01-09 08:09:58.77	357.98	31.57	-58.7	-74.7	3.8	1.49e+00	0	24	104	332398592	82	24276
2026-01-09 08:09:59.78	357.72	31.43	-58.7	-74.7	3.8	1.49e+00	0	24	104	332398592	82	24229
2026-01-09 08:10:00.79	357.46	31.29	-58.7	-74.7	3.8	1.49e+00	0	24	104	332398592	82	24180
2026-01-09 08:10:01.80	357.20	31.15	-58.7	-74.7	3.8	1.49e+00	0	24	104	332398592	82	24242
2026-01-09 08:10:02.81	356.95	31.01	-58.7	-74.7	3.8	1.49e+00	0	24	104	332398592	82	24221
2026-01-09 08:10:03.82	356.70	30.87	-58.7	-74.6	3.8	1.49e+00	0	24	104	332398592	82	24065
2026-01-09 08:10:04.83	356.45	30.73	-58.7	-74.6	3.8	1.49e+00	0	24	104	332398592	82	24041
2026-01-09 08:10:05.84	356.20	30.59	-58.7	-74.6	3.8	1.49e+00	0	24	104	332398592	82	24114
2026-01-09 08:10:06.85	355.96	30.45	-58.7	-74.7	3.8	1.49e+00	0	24	104	332398592	82	24205
2026-01-09 08:10:07.85	355.72	30.31	-58.7	-74.6	3.8	1.49e+00	0	24	104	332398592	82	23986
2026-01-09 08:10:08.86	355.48	30.17	-58.7	-74.7	3.8	1.49e+00	0	24	104	332398592	82	24147
2026-01-09 08:10:09.87	355.24	30.03	-58.7	-74.7	3.8	1.49e+00	0	24	104	332398592	82	24211
2026-01-09 08:10:10.87	355.00	29.89	-58.7	-74.7	3.8	1.49e+00	0	24	104	332398592	82	24206
2026-01-09 08:10:11.88	354.77	29.75	-58.7	-74.6	3.8	1.49e+00	0	24	104	332398592	82	24005
2026-01-09 08:10:12.89	354.54	29.61	-58.7	-74.6	3.8	1.49e+00	0	24	104	332398592	82	24077
2026-01-09 08:10:13.90	354.31	29.47	-58.7	-74.7	3.8	1.49e+00	0	24	104	332398592	82	24176
2026-01-09 08:10:14.91	354.08	29.33	-58.7	-74.7	3.8	1.49e+00	0	24	104	332398592	82	24220
2026-01-09 08:10:15.92	353.85	29.19	-58.7	-74.5	3.8	1.49e+00	0	24	104	332398592	82	23794
2026-01-09 08:10:16.92	353.63	29.06	-58.7	-74.6	3.8	1.49e+00	0	24	104	332398592	82	23994
2026-01-09 08:10:17.94	353.41	28.92	-58.7	-74.7	3.8	1.49e+00	0	24	104	332398592	82	24176
2026-01-09 08:10:18.95	353.19	28.78	-58.7	-74.7	3.8	1.49e+00	0	24	104	332398592	82	24196
2026-01-09 08:10:19.95	352.97	28.64	-58.7	-74.5	3.8	1.49e+00	0	24	104	332398592	82	23727
2026-01-09 08:10:20.96	352.75	28.50	-58.7	-74.6	3.8	1.49e+00	0	24	104	332398592	82	24018
2026-01-09 08:10:21.96	352.54	28.37	-58.7	-74.7	3.8	1.49e+00	0	24	104	332398592	82	24164
2026-01-09 08:10:22.98	352.33	28.23	-58.6	-74.6	3.8	1.49e+00	0	24	104	332398592	82	24119
2026-01-09 08:10:23.98	352.12	28.09	-58.7	-74.4	3.8	1.49e+00	0	24	104	332398592	82	23333
2026-01-09 08:10:24.99	351.91	27.95	-58.6	-74.6	3.8	1.49e+00	0	24	104	332398592	82	23898
2026-01-09 08:10:26.00	351.70	27.82	-58.6	-74.6	3.8	1.49e+00	0	24	104	332398592	82	24023
2026-01-09 08:10:27.00	351.50	27.68	-58.6	-74.6	3.8	1.49e+00	0	24	104	332398592	82	24093
2026-01-09 08:10:28.01	351.29	27.55	-58.6	-74.4	3.8	1.49e+00	0	24	104	332398592	82	23440
2026-01-09 08:10:29.02	351.09	27.41	-58.6	-74.6	3.8	1.49e+00	0	24	104	332398592	82	23975
2026-01-09 08:10:30.02	350.89	27.28	-58.6	-74.6	3.8	1.49e+00	0	24	104	332398592	82	24065
2026-01-09 08:10:31.03	350.70	27.14	-58.6	-74.6	3.8	1.49e+00	0	24	104	332398592	82	23994
2026-01-09 08:10:32.04	350.50	27.00	-58.6	-74.4	3.8	1.49e+00	0	24	104	332398592	82	23508
2026-01-09 08:10:33.05	350.30	26.87	-58.6	-74.6	3.8	1.49e+00	0	24	104	332398592	82	23964
2026-01-09 08:10:34.06	350.11	26.74	-58.6	-74.6	3.8	1.49e+00	0	24	104	332398592	82	24064
2026-01-09 08:10:35.07	349.92	26.60	-58.6	-74.6	3.8	1.49e+00	0	24	104	332398592	82	23964
2026-01-09 08:10:36.08	349.73	26.47	-58.6	-74.4	3.8	1.49e+00	0	24	104	332398592	82	23483
2026-01-09 08:10:37.09	349.54	26.33	-58.6	-74.6	3.8	1.49e+00	0	24	104	332398592	82	23990
2026-01-09 08:10:38.10	349.35	26.20	-58.6	-74.6	3.8	1.49e+00	0	24	104	332398592	82	23990
2026-01-09 08:10:39.11	349.17	26.07	-58.6	-74.6	3.8	1.49e+00	0	24	104	332398592	82	23907
2026-01-09 08:10:40.12	348.99	25.93	-58.6	-74.4	3.8	1.49e+00	0	24	104	332398592	82	23392
2026-01-09 08:10:41.12	348.80	25.80	-58.6	-74.5	3.8	1.49e+00	0	24	104	332398592	82	23852
2026-01-09 08:10:42.13	348.62	25.67	-58.6	-74.6	3.8	1.49e+00	0	24	104	332398592	82	23905
2026-01-09 08:10:43.14	348.45	25.54	-58.6	-74.5	3.8	1.49e+00	0	24	104	332398592	82	23784
2026-01-09 08:10:44.15	348.27	25.41	-58.6	-74.3	3.8	1.49e+00	0	24	104	332398592	82	23163
2026-01-09 08:10:45.16	348.09	25.28	-58.6	-74.6	3.8	1.49e+00	0	24	104	332398592	82	23873
2026-01-09 08:10:46.17	347.92	25.15	-58.6	-74.6	3.8	1.49e+00	0	24	104	332398592	82	23885
2026-01-09 08:10:47.18	347.74	25.02	-58.6	-74.5	3.8	1.49e+00	0	24	104	332398592	82	23827
2026-01-09 08:10:48.19	347.57	24.89	-58.5	-74.3	3.8	1.49e+00	0	24	104	332398592	82	23226
2026-01-09 08:10:49.20	347.40	24.76	-58.5	-74.5	3.8	1.49e+00	0	24	104	332398592	82	23799
2026-01-09 08:10:50.21	347.23	24.63	-58.5	-74.5	3.8	1.49e+00	0	24	104	332398592	82	23811
2026-01-09 08:10:51.21	347.07	24.50	-58.5	-74.5	3.8	1.49e+00	0	24	104	332398592	82	23756
2026-01-09 08:10:52.22	346.90	24.37	-58.5	-74.3	3.8	1.49e+00	0	24	104	332398592	82	23172
2026-01-09 08:10:53.23	346.74	24.24	-58.5	-74.5	3.8	1.49e+00	0	24	104	332398592	82	23764
2026-01-09 08:10:54.23	346.57	24.12	-58.5	-74.5	3.8	1.49e+00	0	24	104	332398592	82	23593
2026-01-09 08:10:55.24	346.41	23.99	-58.5	-74.5	3.8	1.49e+00	0	24	104	332398592	82	23741
2026-01-09 08:10:56.25	346.25	23.86	-58.5	-74.3	3.8	1.49e+00	0	24	104	332398592	82	23081
2026-01-09 08:10:57.26	346.09	23.73	-58.5	-74.6	3.8	1.49e+00	0	24	104	332398592	82	23873
2026-01-09 08:10:58.27	345.93	23.61	-58.5	-74.4	3.8	1.49e+00	0	24	104	332398592	82	23470
2026-01-09 08:10:59.28	345.78	23.48	-58.5	-74.5	3.8	1.49e+00	0	24	104	332398592	82	23787
2026-01-09 08:11:00.29	345.62	23.36	-58.5	-74.4	3.8	1.49e+00	0	24	104	332398592	82	23330
2026-01-09 08:11:01.29	345.47	23.23	-58.5	-74.5	3.8	1.49e+00	0	24	104	332398592	82	23735
2026-01-09 08:11:02.30	345.32	23.11	-58.5	-74.4	3.8	1.49e+00	0	24	104	332398592	82	23526
2026-01-09 08:11:03.31	345.17	22.98	-58.5	-74.5	3.8	1.49e+00	0	24	104	332398592	82	23651
2026-01-09 08:11:04.32	345.01	22.86	-58.5	-74.3	3.8	1.49e+00	0	24	104	332398592	82	23249
2026-01-09 08:11:05.33	344.87	22.74	-58.5	-74.5	3.8	1.49e+00	0	24	104	332398592	82	23646
2026-01-09 08:11:06.34	344.72	22.61	-58.5	-74.4	3.8	1.49e+00	0	24	104	332398592	82	23370
2026-01-09 08:11:07.35	344.57	22.49	-58.5	-74.5	3.8	1.49e+00	0	24	104	332398592	82	23688
2026-01-09 08:11:08.36	344.43	22.37	-58.5	-74.3	3.8	1.49e+00	0	24	104	332398592	82	23202
2026-01-09 08:11:09.36	344.28	22.25	-58.5	-74.5	3.8	1.49e+00	0	24	104	332398592	82	23643
2026-01-09 08:11:10.37	344.14	22.12	-58.4	-74.3	3.8	1.49e+00	0	24	104	332398592	82	23271
2026-01-09 08:11:11.38	344.00	22.00	-58.5	-74.5	3.8	1.49e+00	0	24	104	332398592	82	23654
2026-01-09 08:11:12.39	343.86	21.88	-58.5	-74.3	3.8	1.49e+00	0	24	104	332398592	82	23286
2026-01-09 08:11:13.40	343.72	21.76	-58.4	-74.4	3.8	1.49e+00	0	24	104	332398592	82	23536
2026-01-09 08:11:14.41	343.58	21.64	-58.4	-74.3	3.8	1.49e+00	0	24	104	332398592	82	23203
2026-01-09 08:11:15.41	343.44	21.52	-58.5	-74.5	3.8	1.49e+00	0	24	104	332398592	82	23637
2026-01-09 08:11:16.42	343.30	21.40	-58.4	-74.3	3.8	1.49e+00	0	24	104	332398592	82	23245
2026-01-09 08:11:17.43	343.17	21.28	-58.4	-74.4	3.8	1.49e+00	0	24	104	332398592	82	23570
2026-01-09 08:11:18.44	343.03	21.17	-58.4	-74.3	3.8	1.49e+00	0	24	104	332398592	82	23279
2026-01-09 08:11:19.45	342.90	21.05	-58.4	-74.4	3.8	1.49e+00	0	24	104	332398592	82	23451
2026-01-09 08:11:20.46	342.77	20.93	-58.4	-74.3	3.8	1.49e+00	0	24	104	332398592	82	23067
2026-01-09 08:11:21.46	342.64	20.81	-58.4	-74.4	3.8	1.49e+00	0	24	104	332398592	82	23360
2026-01-09 08:11:22.47	342.51	20.70	-58.4	-74.3	3.8	1.49e+00	0	24	104	332398592	82	23091
2026-01-09 08:11:23.48	342.38	20.58	-58.4	-74.4	3.8	1.49e+00	0	24	104	332398592	82	23508
2026-01-09 08:11:24.49	342.25	20.46	-58.4	-74.3	3.8	1.49e+00	0	24	104	332398592	82	23190
2026-01-09 08:11:25.50	342.12	20.35	-58.4	-74.3	3.8	1.49e+00	0	24	104	332398592	82	23211
2026-01-09 08:11:26.51	342.00	20.23	-58.4	-74.3	3.8	1.49e+00	0	24	104	332398592	82	23198
2026-01-09 08:11:27.52	341.87	20.12	-58.4	-74.4	3.8	1.49e+00	0	24	104	332398592	82	23321
2026-01-09 08:11:28.53	341.75	20.00	-58.4	-74.3	3.8	1.49e+00	0	24	104	332398592	82	23103
2026-01-09 08:11:29.54	341.62	19.89	-58.4	-74.3	3.8	1.49e+00	0	24	104	332398592	82	23237
2026-01-09 08:11:30.54	341.50	19.77	-58.4	-74.4	3.8	1.49e+00	0	24	104	332398592	82	23326
2026-01-09 08:11:31.55	341.38	19.66	-58.4	-74.3	3.8	1.49e+00	0	24	104	332398592	82	23297
2026-01-09 08:11:32.56	341.26	19.55	-58.4	-74.3	3.8	1.49e+00	0	24	104	332398592	82	23121
2026-01-09 08:11:33.57	341.14	19.43	-58.3	-74.3	3.8	1.49e+00	0	24	104	332398592	82	23078
2026-01-09 08:11:34.57	341.02	19.32	-58.4	-74.4	3.8	1.49e+00	0	24	104	332398592	82	23346
2026-01-09 08:11:35.59	340.90	19.21	-58.4	-74.3	3.8	1.49e+00	0	24	104	332398592	82	23138
2026-01-09 08:11:36.59	340.79	19.10	-58.3	-74.3	3.8	1.49e+00	0	24	104	332398592	82	23052
2026-01-09 08:11:37.59	340.67	18.99	-58.4	-74.2	3.8	1.49e+00	0	24	104	332398592	82	23035
2026-01-09 08:11:38.60	340.56	18.88	-58.4	-74.4	3.8	1.49e+00	0	24	104	332398592	82	23366
2026-01-09 08:11:39.61	340.44	18.77	-58.4	-74.3	3.8	1.49e+00	0	24	104	332398592	82	23096
2026-01-09 08:11:40.62	340.33	18.66	-58.3	-74.2	3.8	1.49e+00	0	24	104	332398592	82	23012
2026-01-09 08:11:41.63	340.21	18.55	-58.3	-74.2	3.8	1.49e+00	0	24	104	332398592	82	22878
2026-01-09 08:11:42.64	340.10	18.44	-58.3	-74.3	3.8	1.49e+00	0	24	104	332398592	82	23294
2026-01-09 08:11:43.64	339.99	18.33	-58.3	-74.2	3.8	1.49e+00	0	24	104	332398592	82	23004
2026-01-09 08:11:44.65	339.88	18.22	-58.3	-74.2	3.8	1.49e+00	0	24	104	332398592	82	22988
2026-01-09 08:11:45.66	339.77	18.11	-58.3	-74.2	3.8	1.49e+00	0	24	104	332398592	82	22848
2026-01-09 08:11:46.67	339.66	18.00	-58.3	-74.3	3.8	1.49e+00	0	24	104	332398592	82	23167
2026-01-09 08:11:47.68	339.56	17.90	-58.3	-74.2	3.8	1.49e+00	0	24	104	332398592	82	22890
2026-01-09 08:11:48.68	339.45	17.79	-58.3	-74.2	3.8	1.49e+00	0	24	104	332398592	82	23001
2026-01-09 08:11:49.70	339.34	17.68	-58.3	-74.1	3.8	1.49e+00	0	24	104	332398592	82	22749
2026-01-09 08:11:50.70	339.24	17.58	-58.3	-74.2	3.8	1.49e+00	0	24	104	332398592	82	23015
2026-01-09 08:11:51.70	339.13	17.47	-58.3	-74.1	3.8	1.49e+00	0	24	104	332398592	82	22690
2026-01-09 08:11:52.71	339.03	17.37	-58.3	-74.2	3.8	1.49e+00	0	24	104	332398592	82	22921
2026-01-09 08:11:53.72	338.93	17.26	-58.3	-74.1	3.8	1.49e+00	0	24	104	332398592	82	22565
2026-01-09 08:11:54.73	338.82	17.15	-58.3	-74.2	3.8	1.49e+00	0	24	104	332398592	82	22910
2026-01-09 08:11:55.73	338.72	17.05	-58.3	-74.0	3.8	1.49e+00	0	24	104	332398592	82	22392
2026-01-09 08:11:56.74	338.62	16.95	-58.3	-74.2	3.8	1.49e+00	0	24	104	332398592	82	22884
2026-01-09 08:11:57.75	338.52	16.84	-58.2	-74.0	3.8	1.49e+00	0	24	104	332398592	82	22455
2026-01-09 08:11:58.76	338.42	16.74	-58.3	-74.0	3.8	1.49e+00	0	24	104	332398592	82	22469
2026-01-09 08:11:59.78	338.32	16.63	-58.2	-73.7	3.8	1.49e+00	0	24	104	332398592	82	21701
2026-01-09 08:12:00.78	338.23	16.53	-58.2	-74.1	3.8	1.49e+00	0	24	104	332398592	82	22759
2026-01-09 08:12:01.80	338.13	16.43	-58.2	-73.9	3.8	1.49e+00	0	24	104	332398592	82	22230
2026-01-09 08:12:02.81	338.03	16.33	-58.2	-73.9	3.8	1.49e+00	0	24	104	332398592	82	22069
2026-01-09 08:12:03.82	337.93	16.22	-58.2	-73.6	3.8	1.49e+00	0	24	104	332398592	82	21429
2026-01-09 08:12:04.82	337.84	16.12	-58.2	-74.1	3.8	1.49e+00	0	24	104	332398592	82	22760
2026-01-09 08:12:05.83	337.74	16.02	-58.2	-73.8	3.8	1.49e+00	0	24	104	332398592	82	21884
2026-01-09 08:12:06.84	337.65	15.92	-58.2	-73.6	3.8	1.49e+00	0	24	104	332398592	82	21263
2026-01-09 08:12:07.85	337.56	15.82	-58.2	-73.5	3.8	1.49e+00	0	24	104	332398592	82	21102
2026-01-09 08:12:08.86	337.46	15.72	-58.2	-74.1	3.8	1.49e+00	0	24	104	332398592	82	22635
2026-01-09 08:12:09.87	337.37	15.62	-58.2	-73.6	3.8	1.49e+00	0	24	104	332398592	82	21490
2026-01-09 08:12:10.87	337.28	15.52	-58.2	-74.1	3.8	1.49e+00	0	24	104	332398592	82	22629
2026-01-09 08:12:11.88	337.19	15.42	-58.1	-73.9	3.8	1.49e+00	0	24	104	332398592	82	22024
2026-01-09 08:12:12.89	337.10	15.32	-58.2	-73.5	3.8	1.49e+00	0	24	104	332398592	82	21144
2026-01-09 08:12:13.90	337.01	15.22	-58.1	-73.5	3.8	1.49e+00	0	24	104	332398592	82	21072
2026-01-09 08:12:14.91	336.92	15.12	-58.1	-73.3	3.8	1.49e+00	0	24	104	332398592	82	20705
2026-01-09 08:12:15.92	336.83	15.03	-58.1	-73.1	3.8	1.49e+00	0	24	104	332398592	82	20256
2026-01-09 08:12:16.93	336.74	14.93	-58.1	-73.2	3.8	1.49e+00	0	24	104	332398592	82	20365
2026-01-09 08:12:17.93	336.66	14.83	-58.1	-73.4	3.8	1.49e+00	0	24	104	332398592	82	20881
2026-01-09 08:12:18.95	336.57	14.73	-58.1	-73.8	3.8	1.49e+00	0	24	104	332398592	82	21889
2026-01-09 08:12:19.96	336.48	14.64	-58.1	-73.4	3.8	1.49e+00	0	24	104	332398592	82	20929
2026-01-09 08:12:20.96	336.40	14.54	-58.1	-74.1	3.8	1.49e+00	0	24	104	332398592	82	22600
2026-01-09 08:12:21.97	336.32	14.45	-58.1	-73.2	3.8	1.49e+00	0	24	104	332398592	82	20477
2026-01-09 08:12:22.98	336.23	14.35	-58.1	-73.2	3.8	1.49e+00	0	24	104	332398592	82	20444
2026-01-09 08:12:23.99	336.15	14.25	-58.1	-73.3	3.8	1.49e+00	0	24	104	332398592	82	20698
2026-01-09 08:12:25.00	336.06	14.16	-58.1	-73.4	3.8	1.49e+00	0	24	104	332398592	82	20848
2026-01-09 08:12:26.00	335.98	14.06	-58.1	-73.5	3.8	1.49e+00	0	24	104	332398592	82	21120
2026-01-09 08:12:27.01	335.90	13.97	-58.1	-73.9	3.8	1.49e+00	0	24	104	332398592	82	22121
2026-01-09 08:12:28.02	335.82	13.88	-58.1	-73.6	3.8	1.49e+00	0	24	104	332398592	82	21462
2026-01-09 08:12:29.03	335.74	13.78	-58.1	-74.1	3.8	1.49e+00	0	24	104	332398592	82	22530
2026-01-09 08:12:30.04	335.66	13.69	-58.1	-73.5	3.8	1.49e+00	0	24	104	332398592	82	21035
2026-01-09 08:12:31.05	335.58	13.59	-58.0	-73.4	3.8	1.49e+00	0	24	104	332398592	82	20939
2026-01-09 08:12:32.06	335.50	13.50	-58.1	-73.4	3.8	1.49e+00	0	24	104	332398592	82	20928
2026-01-09 08:12:33.07	335.42	13.41	-58.0	-73.7	3.8	1.49e+00	0	24	104	332398592	82	21601
2026-01-09 08:12:34.08	335.34	13.32	-58.0	-73.5	3.8	1.49e+00	0	24	104	332398592	82	21040
2026-01-09 08:12:35.09	335.26	13.22	-58.0	-73.8	3.8	1.49e+00	0	24	104	332398592	82	21893
2026-01-09 08:12:36.09	335.19	13.13	-58.1	-73.5	3.8	1.49e+00	0	24	104	332398592	82	21245
2026-01-09 08:12:37.10	335.11	13.04	-58.0	-73.9	3.8	1.49e+00	0	24	104	332398592	82	22240
2026-01-09 08:12:38.11	335.03	12.95	-58.0	-73.3	3.8	1.49e+00	0	24	104	332398592	82	20774
2026-01-09 08:12:39.12	334.96	12.86	-58.0	-73.2	3.8	1.49e+00	0	24	104	332398592	82	20437
