passes_logs/2026/01/09/R3.2S_Murmansk/R3.2S_Murmansk__20260109_005417_NOAA_21_JPSS-2_rec.log

#Pass ID: 20260109_005417_NOAA 21 (JPSS-2)
#Satellite: NOAA 21 (JPSS-2)
#Configuration: NOAA-21
#almurnet v.1.7.20251203
#Start time: 2026-01-09 00:54:17

#Version: 2.2.20231116
#Station: R3.2S_Murmansk
#Location: 33.079688 lon 68.888172 lat
#TLE: 1 54234U 22150A   26008.59854928  .00000127  00000+0  81204-4 0  9992
#TLE: 2 54234  98.7494 309.5759 0000887 327.7487  32.3634 14.19533414163905

#Time	Az	El	Level	Level2	SNR	BER	BlckErr	Temp	State	Recorded	gain1	gain2
2026-01-09 00:54:17.48	25.35	2.03	-57.3	-71.1	3.8	1.49e+00	0	22	0	0	81	16945
2026-01-09 00:54:18.47	25.34	2.09	-57.2	-71.0	3.8	1.49e+00	0	22	104	0	79	18793
2026-01-09 00:54:19.48	25.34	2.15	-57.2	-71.0	3.8	1.49e+00	0	22	104	0	79	18834
2026-01-09 00:54:20.48	25.34	2.22	-57.2	-71.0	3.8	1.49e+00	0	22	104	0	79	18911
2026-01-09 00:54:21.48	25.34	2.28	-57.2	-71.0	3.8	1.49e+00	0	22	104	0	79	18874
2026-01-09 00:54:22.48	25.33	2.35	-57.2	-71.0	3.8	1.49e+00	0	22	104	0	79	18827
2026-01-09 00:54:23.48	25.33	2.41	-57.2	-71.0	3.8	1.49e+00	0	22	104	0	79	18843
2026-01-09 00:54:24.48	25.33	2.48	-57.3	-71.0	3.8	1.49e+00	0	22	104	0	79	18908
2026-01-09 00:54:25.49	25.33	2.54	-57.2	-71.0	3.8	1.49e+00	0	22	104	0	79	18926
2026-01-09 00:54:26.49	25.33	2.61	-57.2	-71.0	3.8	1.49e+00	0	22	104	0	79	18860
2026-01-09 00:54:27.49	25.32	2.67	-57.2	-71.0	3.8	1.49e+00	0	22	104	0	79	18861
2026-01-09 00:54:28.49	25.32	2.74	-57.2	-71.0	3.8	1.49e+00	0	22	104	0	79	18801
2026-01-09 00:54:29.49	25.32	2.80	-57.2	-70.9	3.8	1.49e+00	0	22	104	0	79	18676
2026-01-09 00:54:30.49	25.32	2.87	-57.2	-70.8	3.8	1.49e+00	0	22	104	0	79	18476
2026-01-09 00:54:31.48	25.31	2.93	-57.2	-70.7	3.8	1.49e+00	0	22	104	0	79	18164
2026-01-09 00:54:32.48	25.31	3.00	-57.2	-70.5	3.8	1.49e+00	0	22	104	0	79	17816
2026-01-09 00:54:33.48	25.31	3.07	-57.2	-70.4	3.8	1.49e+00	0	22	104	0	79	17640
2026-01-09 00:54:34.47	25.31	3.13	-57.2	-70.3	3.8	1.49e+00	0	22	104	0	79	17479
2026-01-09 00:54:35.48	25.30	3.20	-57.2	-70.3	3.8	1.49e+00	0	22	104	0	79	17351
2026-01-09 00:54:36.48	25.30	3.27	-57.2	-70.4	3.8	1.49e+00	0	22	104	0	79	17497
2026-01-09 00:54:37.41	25.30	3.33	-57.2	-70.4	3.8	1.49e+00	0	22	104	0	79	17594
2026-01-09 00:54:38.41	25.29	3.39	-57.2	-70.5	3.8	1.49e+00	0	22	104	0	79	17845
2026-01-09 00:54:39.41	25.29	3.46	-57.2	-70.8	3.8	1.49e+00	0	22	104	0	79	18316
2026-01-09 00:54:40.42	25.29	3.53	-57.2	-70.9	3.8	1.49e+00	0	22	104	0	79	18583
2026-01-09 00:54:41.42	25.29	3.60	-57.2	-71.0	3.8	1.49e+00	0	23	104	0	79	18798
2026-01-09 00:54:42.43	25.28	3.67	-57.3	-71.0	3.8	1.49e+00	0	22	104	0	79	18932
2026-01-09 00:54:43.43	25.28	3.73	-57.3	-71.0	3.8	1.49e+00	0	22	104	0	79	18841
2026-01-09 00:54:44.43	25.28	3.80	-57.2	-70.7	3.8	1.49e+00	0	22	104	0	79	18224
2026-01-09 00:54:45.42	25.27	3.87	-57.2	-70.1	3.8	1.49e+00	0	22	104	0	79	16947
2026-01-09 00:54:46.42	25.27	3.94	-57.1	-69.2	3.9	1.49e+00	0	22	104	0	79	15294
2026-01-09 00:54:47.43	25.27	4.01	-57.0	-67.6	3.9	1.47e+00	0	23	104	0	79	12682
2026-01-09 00:54:48.43	25.26	4.07	-56.8	-66.4	4.0	1.47e+00	0	23	104	0	79	11033
2026-01-09 00:54:49.44	25.26	4.14	-56.7	-64.7	5.4	5.65e-01	0	23	0	2097152	79	9115
2026-01-09 00:54:50.44	25.26	4.21	-56.5	-63.9	5.9	3.80e-01	0	23	0	5242880	79	8304
2026-01-09 00:54:51.44	25.26	4.28	-56.3	-63.0	6.5	2.05e-01	0	22	0	8388608	79	7536
2026-01-09 00:54:52.44	25.25	4.35	-56.3	-62.8	6.7	1.57e-01	0	23	0	11534336	79	7344
2026-01-09 00:54:53.45	25.25	4.42	-56.1	-62.2	7.1	1.14e-01	0	23	0	13631488	78	7278
2026-01-09 00:54:54.44	25.25	4.49	-56.0	-62.0	7.3	8.89e-02	0	23	0	16777216	78	7074
2026-01-09 00:54:55.44	25.24	4.56	-55.9	-61.5	7.8	6.08e-02	0	23	0	19922944	78	6674
2026-01-09 00:54:56.45	25.24	4.63	-55.8	-61.2	8.1	4.10e-02	0	23	0	23068672	78	6467
2026-01-09 00:54:57.45	25.24	4.70	-55.8	-61.2	8.1	4.28e-02	0	23	0	26214400	78	6469
2026-01-09 00:54:58.44	25.23	4.77	-55.9	-61.4	7.9	4.65e-02	0	23	0	29360128	78	6610
2026-01-09 00:54:59.45	25.23	4.84	-55.9	-61.5	7.8	5.36e-02	0	23	0	32505856	78	6669
2026-01-09 00:55:00.45	25.22	4.91	-55.9	-61.5	7.8	5.51e-02	0	23	0	35651584	78	6716
2026-01-09 00:55:01.45	25.22	4.98	-56.0	-61.7	7.7	6.32e-02	0	23	0	38797312	78	6807
2026-01-09 00:55:02.45	25.22	5.06	-56.4	-62.9	6.8	7.24e-02	0	23	0	41943040	78	7838
2026-01-09 00:55:03.45	25.21	5.13	-55.4	-59.8	9.3	4.36e-01	0	23	0	42991616	77	5789
2026-01-09 00:55:04.44	25.21	5.20	-56.0	-61.8	7.7	1.66e-02	0	23	0	46137344	77	7344
2026-01-09 00:55:05.44	25.21	5.27	-56.0	-61.3	7.9	1.46e+00	0	23	104	47185920	78	6504
2026-01-09 00:55:06.44	25.20	5.34	-54.4	-58.1	10.8	0.00e+00	0	23	0	49283072	73	6004
2026-01-09 00:55:07.44	25.20	5.41	-54.9	-58.8	10.0	3.69e-01	0	23	0	52428800	76	5519
2026-01-09 00:55:08.43	25.20	5.48	-52.7	-55.0	12.9	0.00e+00	0	23	0	55574528	71	4706
2026-01-09 00:55:09.43	25.19	5.56	-52.5	-54.8	13.1	7.00e-07	0	23	0	58720256	71	4612
2026-01-09 00:55:10.43	25.19	5.63	-52.5	-54.8	13.1	0.00e+00	0	23	0	61865984	71	4605
2026-01-09 00:55:11.43	25.18	5.70	-52.6	-55.0	12.9	0.00e+00	0	23	0	65011712	71	4717
2026-01-09 00:55:12.44	25.18	5.78	-52.3	-54.5	13.3	0.00e+00	0	23	0	68157440	71	4457
2026-01-09 00:55:13.43	25.18	5.85	-52.0	-54.0	13.5	0.00e+00	0	23	0	71303168	70	4460
2026-01-09 00:55:14.43	25.17	5.92	-51.5	-53.5	13.8	0.00e+00	0	23	0	74448896	69	4442
2026-01-09 00:55:15.43	25.17	6.00	-51.4	-53.2	13.9	0.00e+00	0	23	0	77594624	69	4329
2026-01-09 00:55:16.43	25.16	6.07	-51.3	-53.1	14.0	0.00e+00	0	23	0	80740352	69	4270
2026-01-09 00:55:17.43	25.16	6.14	-51.0	-52.8	14.0	0.00e+00	0	23	0	83886080	68	4373
2026-01-09 00:55:18.42	25.15	6.22	-51.1	-52.9	14.0	0.00e+00	0	23	0	87031808	68	4417
2026-01-09 00:55:19.42	25.15	6.29	-51.0	-52.8	14.1	0.00e+00	0	23	0	90177536	68	4344
2026-01-09 00:55:20.43	25.15	6.37	-51.1	-52.9	14.0	0.00e+00	0	23	0	93323264	68	4415
2026-01-09 00:55:21.43	25.14	6.44	-51.1	-52.9	14.0	0.00e+00	0	23	0	96468992	68	4401
2026-01-09 00:55:22.42	25.14	6.52	-51.1	-52.9	14.1	0.00e+00	0	23	0	99614720	68	4392
2026-01-09 00:55:23.41	25.13	6.59	-50.9	-52.6	14.2	0.00e+00	0	23	0	102760448	68	4259
2026-01-09 00:55:24.41	25.13	6.67	-50.9	-52.6	14.2	0.00e+00	0	23	0	105906176	68	4267
2026-01-09 00:55:25.41	25.12	6.74	-50.9	-52.7	14.2	0.00e+00	0	23	0	109051904	68	4296
2026-01-09 00:55:26.41	25.12	6.82	-50.7	-52.4	14.3	0.00e+00	0	23	0	112197632	68	4179
2026-01-09 00:55:27.41	25.11	6.90	-50.8	-52.5	14.3	0.00e+00	0	23	0	115343360	68	4230
2026-01-09 00:55:28.41	25.11	6.97	-50.8	-52.5	14.3	0.00e+00	0	23	0	118489088	68	4233
2026-01-09 00:55:29.42	25.10	7.05	-50.8	-52.4	14.3	0.00e+00	0	23	0	121634816	68	4192
2026-01-09 00:55:30.42	25.10	7.13	-50.5	-52.1	14.3	0.00e+00	0	23	0	124780544	67	4280
2026-01-09 00:55:31.42	25.09	7.21	-50.6	-52.2	14.2	0.00e+00	0	23	0	127926272	67	4330
2026-01-09 00:55:32.42	25.09	7.28	-50.5	-52.1	14.3	0.00e+00	0	23	0	131072000	67	4273
2026-01-09 00:55:33.41	25.08	7.36	-50.4	-52.1	14.4	0.00e+00	0	23	0	134217728	67	4249
2026-01-09 00:55:34.41	25.08	7.44	-50.4	-52.0	14.4	0.00e+00	0	23	0	137363456	67	4223
2026-01-09 00:55:35.41	25.07	7.52	-50.5	-52.2	14.3	0.00e+00	0	23	0	140509184	67	4297
2026-01-09 00:55:36.41	25.07	7.59	-50.5	-52.1	14.3	0.00e+00	0	23	0	143654912	67	4257
2026-01-09 00:55:37.41	25.06	7.67	-50.3	-51.8	14.5	0.00e+00	0	23	0	146800640	67	4138
2026-01-09 00:55:38.41	25.06	7.75	-50.3	-51.9	14.5	0.00e+00	0	23	0	149946368	67	4159
2026-01-09 00:55:39.41	25.05	7.83	-50.3	-51.9	14.4	0.00e+00	0	23	0	153092096	67	4189
2026-01-09 00:55:40.41	25.05	7.91	-50.4	-51.9	14.4	0.00e+00	0	23	0	156237824	67	4193
2026-01-09 00:55:41.42	25.04	7.99	-50.3	-51.9	14.5	0.00e+00	0	23	0	159383552	67	4172
2026-01-09 00:55:42.42	25.04	8.07	-50.3	-51.9	14.5	0.00e+00	0	23	0	162529280	67	4178
2026-01-09 00:55:43.41	25.03	8.15	-50.3	-51.9	14.5	0.00e+00	0	23	0	165675008	67	4161
2026-01-09 00:55:44.41	25.03	8.23	-50.3	-51.8	14.5	0.00e+00	0	23	0	167772160	67	4133
2026-01-09 00:55:45.40	25.02	8.31	-50.1	-51.7	14.4	0.00e+00	0	23	0	170917888	66	4307
2026-01-09 00:55:46.40	25.02	8.39	-50.1	-51.7	14.4	0.00e+00	0	23	0	174063616	66	4303
2026-01-09 00:55:47.40	25.01	8.47	-50.2	-51.8	14.4	0.00e+00	0	23	0	177209344	66	4362
2026-01-09 00:55:48.39	25.00	8.55	-50.1	-51.7	14.5	0.00e+00	0	23	0	180355072	66	4303
2026-01-09 00:55:49.39	25.00	8.63	-50.1	-51.6	14.5	0.00e+00	0	23	0	183500800	66	4269
2026-01-09 00:55:50.39	24.99	8.72	-50.0	-51.5	14.5	0.00e+00	0	23	0	186646528	66	4239
2026-01-09 00:55:51.38	24.99	8.80	-50.1	-51.6	14.5	0.00e+00	0	23	0	189792256	66	4271
2026-01-09 00:55:52.38	24.98	8.88	-50.0	-51.6	14.5	0.00e+00	0	23	0	192937984	66	4246
2026-01-09 00:55:53.39	24.97	8.96	-50.0	-51.6	14.5	0.00e+00	0	23	0	196083712	66	4253
2026-01-09 00:55:54.39	24.97	9.05	-50.0	-51.5	14.6	0.00e+00	0	23	0	199229440	66	4222
2026-01-09 00:55:55.39	24.96	9.13	-50.0	-51.5	14.6	0.00e+00	0	23	0	202375168	66	4197
2026-01-09 00:55:56.39	24.96	9.21	-49.9	-51.4	14.6	0.00e+00	0	23	0	205520896	66	4177
2026-01-09 00:55:57.39	24.95	9.30	-49.8	-51.3	14.7	0.00e+00	0	23	0	208666624	66	4136
2026-01-09 00:55:58.39	24.94	9.38	-49.9	-51.4	14.7	0.00e+00	0	23	0	211812352	66	4167
2026-01-09 00:55:59.39	24.94	9.47	-49.9	-51.3	14.7	0.00e+00	0	23	0	214958080	66	4145
2026-01-09 00:56:00.38	24.93	9.55	-49.9	-51.4	14.6	0.00e+00	0	23	0	218103808	66	4161
2026-01-09 00:56:01.38	24.92	9.64	-49.7	-51.2	14.8	0.00e+00	0	23	0	221249536	66	4081
2026-01-09 00:56:02.38	24.92	9.72	-49.8	-51.3	14.7	0.00e+00	0	23	0	224395264	66	4110
2026-01-09 00:56:03.37	24.91	9.81	-49.8	-51.3	14.7	0.00e+00	0	23	0	227540992	66	4134
2026-01-09 00:56:04.37	24.90	9.89	-49.8	-51.3	14.7	0.00e+00	0	23	0	230686720	66	4135
2026-01-09 00:56:05.37	24.90	9.98	-49.7	-51.2	14.8	0.00e+00	0	23	0	233832448	66	4072
2026-01-09 00:56:06.38	24.89	10.07	-49.7	-51.1	14.6	0.00e+00	0	23	0	236978176	65	4275
2026-01-09 00:56:07.38	24.88	10.15	-49.7	-51.1	14.6	0.00e+00	0	23	0	240123904	65	4284
2026-01-09 00:56:08.38	24.88	10.24	-49.6	-51.0	14.7	0.00e+00	0	23	0	243269632	65	4242
2026-01-09 00:56:09.38	24.87	10.33	-49.5	-50.9	14.7	0.00e+00	0	23	0	246415360	65	4189
2026-01-09 00:56:10.38	24.86	10.41	-49.5	-50.9	14.8	0.00e+00	0	23	0	249561088	65	4160
2026-01-09 00:56:11.38	24.85	10.50	-49.6	-51.0	14.7	0.00e+00	0	23	0	252706816	65	4227
2026-01-09 00:56:12.38	24.85	10.59	-49.5	-50.9	14.8	0.00e+00	0	23	0	255852544	65	4163
2026-01-09 00:56:13.38	24.84	10.68	-49.5	-50.9	14.8	0.00e+00	0	23	0	258998272	65	4176
2026-01-09 00:56:14.38	24.83	10.77	-49.4	-50.8	14.8	0.00e+00	0	23	0	262144000	65	4134
2026-01-09 00:56:15.39	24.82	10.86	-49.5	-50.9	14.7	0.00e+00	0	23	0	265289728	65	4193
2026-01-09 00:56:16.39	24.82	10.95	-49.4	-50.9	14.8	0.00e+00	0	23	0	268435456	65	4147
2026-01-09 00:56:17.39	24.81	11.04	-49.6	-51.0	14.7	0.00e+00	0	23	0	271581184	65	4218
2026-01-09 00:56:18.40	24.80	11.13	-49.3	-50.6	14.9	0.00e+00	0	23	0	274726912	65	4042
2026-01-09 00:56:19.40	24.79	11.22	-49.2	-50.6	14.9	0.00e+00	0	23	0	277872640	65	4031
2026-01-09 00:56:20.40	24.79	11.31	-49.2	-50.6	15.0	0.00e+00	0	23	0	281018368	65	4025
2026-01-09 00:56:21.40	24.78	11.40	-49.3	-50.7	14.9	0.00e+00	0	23	0	284164096	65	4054
2026-01-09 00:56:22.40	24.77	11.49	-49.1	-50.5	14.9	0.00e+00	0	23	0	287309824	64	4199
2026-01-09 00:56:23.40	24.76	11.59	-49.1	-50.5	14.9	0.00e+00	0	23	0	290455552	64	4200
2026-01-09 00:56:24.40	24.75	11.68	-49.2	-50.5	14.8	0.00e+00	0	23	0	293601280	64	4240
2026-01-09 00:56:25.39	24.75	11.77	-49.1	-50.5	14.9	0.00e+00	0	23	0	296747008	64	4200
2026-01-09 00:56:26.40	24.74	11.86	-49.0	-50.3	14.9	0.00e+00	0	23	0	299892736	64	4138
2026-01-09 00:56:27.40	24.73	11.96	-49.0	-50.4	14.9	0.00e+00	0	23	0	303038464	64	4150
2026-01-09 00:56:28.39	24.72	12.05	-49.1	-50.5	14.9	0.00e+00	0	23	0	306184192	64	4195
2026-01-09 00:56:29.39	24.71	12.14	-49.0	-50.3	14.9	0.00e+00	0	23	0	309329920	64	4133
2026-01-09 00:56:30.39	24.70	12.24	-48.9	-50.2	15.0	0.00e+00	0	24	0	312475648	64	4096
2026-01-09 00:56:31.38	24.69	12.33	-48.9	-50.2	15.0	0.00e+00	0	23	0	314572800	64	4083
2026-01-09 00:56:32.37	24.69	12.43	-48.9	-50.3	14.9	0.00e+00	0	23	0	317718528	64	4108
2026-01-09 00:56:33.38	24.68	12.52	-48.9	-50.2	15.0	0.00e+00	0	23	0	320864256	64	4072
2026-01-09 00:56:34.38	24.67	12.62	-48.8	-50.1	15.0	0.00e+00	0	23	0	324009984	64	4016
2026-01-09 00:56:35.38	24.66	12.72	-48.8	-50.1	15.0	0.00e+00	0	23	0	327155712	64	4030
2026-01-09 00:56:36.37	24.65	12.81	-48.8	-50.1	15.0	0.00e+00	0	24	0	330301440	64	4045
2026-01-09 00:56:37.37	24.64	12.91	-48.8	-50.1	15.0	0.00e+00	0	23	0	333447168	64	4026
2026-01-09 00:56:38.37	24.63	13.01	-48.8	-50.1	15.1	0.00e+00	0	23	0	336592896	64	4011
2026-01-09 00:56:39.36	24.62	13.10	-48.8	-50.1	15.1	0.00e+00	0	23	0	339738624	64	4039
2026-01-09 00:56:40.36	24.61	13.20	-48.7	-50.0	15.1	0.00e+00	0	23	0	342884352	64	3996
2026-01-09 00:56:41.36	24.60	13.30	-48.7	-50.0	15.1	0.00e+00	0	23	0	346030080	64	3982
2026-01-09 00:56:42.36	24.59	13.40	-48.6	-49.9	15.0	0.00e+00	0	24	0	349175808	63	4175
2026-01-09 00:56:43.36	24.58	13.50	-48.7	-50.0	14.9	0.00e+00	0	23	0	352321536	63	4215
2026-01-09 00:56:44.36	24.57	13.60	-48.7	-50.0	14.9	0.00e+00	0	24	0	355467264	63	4225
2026-01-09 00:56:45.35	24.56	13.70	-48.7	-50.0	15.0	0.00e+00	0	23	0	358612992	63	4201
2026-01-09 00:56:46.35	24.55	13.80	-48.7	-50.0	15.0	0.00e+00	0	23	0	361758720	63	4195
2026-01-09 00:56:47.35	24.54	13.90	-48.6	-49.9	15.0	0.00e+00	0	24	0	364904448	63	4185
2026-01-09 00:56:48.35	24.53	14.00	-48.7	-49.9	15.0	0.00e+00	0	24	0	368050176	63	4192
2026-01-09 00:56:49.35	24.52	14.10	-48.6	-49.9	15.0	0.00e+00	0	23	0	371195904	63	4185
2026-01-09 00:56:50.35	24.51	14.21	-48.6	-49.9	15.0	0.00e+00	0	23	0	374341632	63	4158
2026-01-09 00:56:51.36	24.50	14.31	-48.6	-49.9	15.0	0.00e+00	0	24	0	377487360	63	4167
2026-01-09 00:56:52.36	24.49	14.41	-48.6	-49.9	15.0	0.00e+00	0	23	0	380633088	63	4180
2026-01-09 00:56:53.36	24.48	14.52	-48.5	-49.7	15.1	0.00e+00	0	23	0	383778816	63	4096
2026-01-09 00:56:54.36	24.47	14.62	-48.5	-49.8	15.1	0.00e+00	0	23	0	386924544	63	4123
2026-01-09 00:56:55.35	24.46	14.72	-48.7	-50.0	15.0	0.00e+00	0	23	0	390070272	63	4202
2026-01-09 00:56:56.35	24.45	14.83	-48.6	-49.8	15.0	0.00e+00	0	23	0	393216000	63	4136
2026-01-09 00:56:57.35	24.44	14.93	-48.7	-50.0	15.0	0.00e+00	0	24	0	396361728	63	4206
2026-01-09 00:56:58.35	24.42	15.04	-48.7	-50.0	15.0	0.00e+00	0	23	0	399507456	63	4228
2026-01-09 00:56:59.35	24.41	15.15	-48.7	-50.0	15.0	0.00e+00	0	23	0	402653184	63	4214
2026-01-09 00:57:00.35	24.40	15.25	-48.7	-49.9	15.0	0.00e+00	0	24	0	405798912	63	4190
2026-01-09 00:57:01.34	24.39	15.36	-48.7	-50.0	15.0	0.00e+00	0	24	0	408944640	63	4197
2026-01-09 00:57:02.35	24.38	15.47	-48.7	-50.0	15.0	0.00e+00	0	24	0	412090368	63	4204
2026-01-09 00:57:03.35	24.37	15.58	-48.7	-50.0	14.9	0.00e+00	0	23	0	415236096	63	4233
2026-01-09 00:57:04.35	24.35	15.69	-48.7	-50.0	15.0	0.00e+00	0	24	0	418381824	63	4222
2026-01-09 00:57:05.35	24.34	15.80	-48.8	-50.1	14.9	0.00e+00	0	24	0	421527552	63	4249
2026-01-09 00:57:06.34	24.33	15.90	-48.7	-50.0	15.0	0.00e+00	0	24	0	424673280	63	4223
2026-01-09 00:57:07.34	24.32	16.01	-48.8	-50.1	14.9	0.00e+00	0	23	0	427819008	63	4279
2026-01-09 00:57:08.34	24.30	16.13	-48.8	-50.1	14.9	0.00e+00	0	24	0	430964736	63	4274
2026-01-09 00:57:09.34	24.29	16.24	-48.8	-50.1	14.9	0.00e+00	0	23	0	434110464	63	4252
2026-01-09 00:57:10.34	24.28	16.35	-48.7	-50.0	15.0	0.00e+00	0	24	0	437256192	63	4235
2026-01-09 00:57:11.34	24.27	16.46	-48.8	-50.1	14.9	0.00e+00	0	24	0	440401920	63	4279
2026-01-09 00:57:12.34	24.25	16.57	-48.9	-50.2	14.9	0.00e+00	0	24	0	443547648	63	4333
2026-01-09 00:57:13.35	24.24	16.69	-48.8	-50.1	14.9	0.00e+00	0	24	0	446693376	63	4274
2026-01-09 00:57:14.35	24.23	16.80	-48.8	-50.1	14.9	0.00e+00	0	24	0	448790528	63	4264
2026-01-09 00:57:15.35	24.21	16.92	-48.9	-50.2	14.9	0.00e+00	0	24	0	451936256	63	4307
2026-01-09 00:57:16.35	24.20	17.03	-49.0	-50.3	14.8	0.00e+00	0	24	0	455081984	63	4352
2026-01-09 00:57:17.35	24.19	17.15	-48.9	-50.3	14.9	0.00e+00	0	24	0	458227712	63	4344
2026-01-09 00:57:18.35	24.17	17.26	-48.9	-50.2	14.9	0.00e+00	0	24	0	461373440	63	4297
2026-01-09 00:57:19.36	24.16	17.38	-48.8	-50.1	14.9	0.00e+00	0	24	0	464519168	63	4284
2026-01-09 00:57:20.35	24.14	17.50	-49.0	-50.3	14.8	0.00e+00	0	24	0	467664896	63	4368
2026-01-09 00:57:21.36	24.13	17.61	-48.8	-50.1	14.9	0.00e+00	0	23	0	470810624	63	4268
2026-01-09 00:57:22.36	24.12	17.73	-48.8	-50.1	14.9	0.00e+00	0	24	0	473956352	63	4290
2026-01-09 00:57:23.36	24.10	17.85	-48.8	-50.1	14.9	0.00e+00	0	24	0	477102080	63	4284
2026-01-09 00:57:24.35	24.09	17.97	-48.9	-50.2	14.9	0.00e+00	0	24	0	480247808	63	4299
2026-01-09 00:57:25.35	24.07	18.09	-48.8	-50.1	14.9	0.00e+00	0	24	0	483393536	63	4271
2026-01-09 00:57:26.35	24.06	18.21	-48.8	-50.1	14.9	0.00e+00	0	24	0	486539264	63	4258
2026-01-09 00:57:27.35	24.04	18.33	-48.8	-50.1	14.9	0.00e+00	0	24	0	489684992	63	4253
2026-01-09 00:57:28.34	24.03	18.45	-48.9	-50.2	14.9	0.00e+00	0	24	0	492830720	63	4294
2026-01-09 00:57:29.34	24.01	18.57	-48.7	-50.0	15.0	0.00e+00	0	24	0	495976448	63	4208
2026-01-09 00:57:30.33	24.00	18.70	-48.7	-50.0	14.9	0.00e+00	0	24	0	499122176	63	4226
2026-01-09 00:57:31.34	23.98	18.82	-48.8	-50.1	14.9	0.00e+00	0	24	0	502267904	63	4247
2026-01-09 00:57:32.33	23.96	18.94	-48.7	-50.0	14.9	0.00e+00	0	24	0	505413632	63	4211
2026-01-09 00:57:33.34	23.95	19.07	-48.7	-49.9	15.0	0.00e+00	0	24	0	508559360	63	4193
2026-01-09 00:57:34.33	23.93	19.19	-48.6	-49.9	15.0	0.00e+00	0	24	0	511705088	63	4154
2026-01-09 00:57:35.33	23.92	19.32	-48.7	-49.9	15.0	0.00e+00	0	24	0	514850816	63	4186
2026-01-09 00:57:36.33	23.90	19.45	-48.6	-49.9	15.0	0.00e+00	0	24	0	517996544	63	4171
2026-01-09 00:57:37.33	23.88	19.57	-48.5	-49.8	15.0	0.00e+00	0	24	0	521142272	63	4124
2026-01-09 00:57:38.33	23.87	19.70	-48.5	-49.8	15.1	0.00e+00	0	24	0	524288000	63	4104
2026-01-09 00:57:39.32	23.85	19.83	-48.6	-49.9	15.0	0.00e+00	0	24	0	527433728	63	4153
2026-01-09 00:57:40.32	23.83	19.96	-48.6	-49.9	15.0	0.00e+00	0	24	0	530579456	63	4164
2026-01-09 00:57:41.32	23.81	20.09	-48.7	-49.9	15.0	0.00e+00	0	23	0	533725184	63	4183
2026-01-09 00:57:42.33	23.80	20.22	-48.6	-49.9	15.0	0.00e+00	0	24	0	536870912	63	4153
2026-01-09 00:57:43.32	23.78	20.35	-48.5	-49.7	15.1	0.00e+00	0	24	0	540016640	63	4078
2026-01-09 00:57:44.32	23.76	20.48	-48.4	-49.6	15.1	0.00e+00	0	24	0	543162368	63	4034
2026-01-09 00:57:45.32	23.74	20.61	-48.4	-49.6	15.1	0.00e+00	0	24	0	546308096	63	4040
2026-01-09 00:57:46.32	23.72	20.75	-48.3	-49.6	15.2	0.00e+00	0	24	0	549453824	63	4005
2026-01-09 00:57:47.31	23.71	20.88	-48.3	-49.5	15.2	0.00e+00	0	24	0	552599552	63	3996
2026-01-09 00:57:48.32	23.69	21.02	-48.3	-49.5	15.2	0.00e+00	0	24	0	555745280	63	3986
2026-01-09 00:57:49.32	23.67	21.15	-48.3	-49.6	15.2	0.00e+00	0	24	0	558891008	63	4009
2026-01-09 00:57:50.32	23.65	21.29	-48.1	-49.3	15.1	0.00e+00	0	24	0	562036736	62	4120
2026-01-09 00:57:51.33	23.63	21.43	-48.0	-49.2	15.2	0.00e+00	0	24	0	565182464	62	4079
2026-01-09 00:57:52.34	23.61	21.57	-48.0	-49.2	15.2	0.00e+00	0	24	0	568328192	62	4082
2026-01-09 00:57:53.34	23.59	21.70	-47.9	-49.1	15.2	0.00e+00	0	24	0	571473920	62	4022
2026-01-09 00:57:54.34	23.57	21.84	-48.0	-49.2	15.2	0.00e+00	0	24	0	574619648	62	4054
2026-01-09 00:57:55.33	23.55	21.98	-47.9	-49.1	15.2	0.00e+00	0	24	0	577765376	62	4032
2026-01-09 00:57:56.34	23.53	22.12	-47.7	-48.9	15.3	0.00e+00	0	24	0	580911104	62	3914
2026-01-09 00:57:57.33	23.51	22.26	-47.6	-48.8	15.2	0.00e+00	0	24	0	584056832	61	4106
2026-01-09 00:57:58.32	23.49	22.41	-47.5	-48.6	15.2	0.00e+00	0	24	0	587202560	61	4051
2026-01-09 00:57:59.32	23.47	22.55	-47.5	-48.6	15.3	0.00e+00	0	24	0	590348288	61	4043
2026-01-09 00:58:00.32	23.44	22.69	-47.5	-48.7	15.2	0.00e+00	0	24	0	593494016	61	4064
2026-01-09 00:58:01.31	23.42	22.84	-47.4	-48.5	15.3	0.00e+00	0	24	0	596639744	61	3999
2026-01-09 00:58:02.31	23.40	22.98	-47.3	-48.4	15.3	0.00e+00	0	24	0	599785472	61	3950
2026-01-09 00:58:03.31	23.38	23.13	-47.3	-48.5	15.3	0.00e+00	0	24	0	602931200	61	3964
2026-01-09 00:58:04.31	23.36	23.28	-47.4	-48.5	15.3	0.00e+00	0	24	0	605028352	61	3982
2026-01-09 00:58:05.30	23.33	23.42	-47.3	-48.5	15.3	0.00e+00	0	24	0	608174080	61	3964
2026-01-09 00:58:06.30	23.31	23.57	-47.3	-48.4	15.3	0.00e+00	0	24	0	611319808	61	3956
2026-01-09 00:58:07.29	23.29	23.72	-47.2	-48.3	15.4	0.00e+00	0	24	0	614465536	61	3908
2026-01-09 00:58:08.30	23.27	23.87	-47.3	-48.5	15.3	0.00e+00	0	24	0	617611264	61	3967
2026-01-09 00:58:09.31	23.24	24.02	-47.2	-48.4	15.4	0.00e+00	0	24	0	620756992	61	3918
2026-01-09 00:58:10.30	23.22	24.18	-47.3	-48.4	15.4	0.00e+00	0	24	0	623902720	61	3934
2026-01-09 00:58:11.29	23.19	24.33	-47.2	-48.4	15.4	0.00e+00	0	24	0	627048448	61	3929
2026-01-09 00:58:12.29	23.17	24.48	-47.4	-48.6	15.3	0.00e+00	0	24	0	630194176	61	4014
2026-01-09 00:58:13.28	23.15	24.63	-47.4	-48.5	15.3	0.00e+00	0	24	0	633339904	61	3990
2026-01-09 00:58:14.28	23.12	24.79	-47.4	-48.6	15.3	0.00e+00	0	24	0	636485632	61	4008
2026-01-09 00:58:15.28	23.09	24.95	-47.5	-48.6	15.3	0.00e+00	0	24	0	639631360	61	4030
2026-01-09 00:58:16.28	23.07	25.10	-47.4	-48.6	15.3	0.00e+00	0	24	0	642777088	61	4018
2026-01-09 00:58:17.28	23.04	25.26	-47.5	-48.7	15.3	0.00e+00	0	24	0	645922816	61	4060
2026-01-09 00:58:18.28	23.02	25.42	-47.6	-48.8	15.2	0.00e+00	0	24	0	649068544	61	4099
2026-01-09 00:58:19.28	22.99	25.58	-47.6	-48.7	15.2	0.00e+00	0	24	0	652214272	61	4088
2026-01-09 00:58:20.28	22.96	25.75	-47.8	-48.9	15.1	0.00e+00	0	24	0	655360000	61	4191
2026-01-09 00:58:21.28	22.94	25.91	-47.7	-48.8	15.2	0.00e+00	0	24	0	658505728	61	4143
2026-01-09 00:58:22.27	22.91	26.07	-47.8	-48.9	15.2	0.00e+00	0	24	0	661651456	61	4188
2026-01-09 00:58:23.27	22.88	26.23	-47.9	-49.1	15.1	0.00e+00	0	24	0	664797184	61	4259
2026-01-09 00:58:24.28	22.85	26.40	-47.9	-49.1	15.1	0.00e+00	0	24	0	667942912	61	4271
2026-01-09 00:58:25.27	22.83	26.57	-48.0	-49.2	15.1	0.00e+00	0	24	0	671088640	61	4308
2026-01-09 00:58:26.28	22.80	26.74	-48.0	-49.2	15.1	0.00e+00	0	24	0	674234368	61	4333
2026-01-09 00:58:27.28	22.77	26.90	-48.2	-49.4	15.0	0.00e+00	0	24	0	677380096	61	4426
2026-01-09 00:58:28.27	22.74	27.07	-48.3	-49.5	15.0	0.00e+00	0	24	0	680525824	61	4465
2026-01-09 00:58:29.27	22.71	27.24	-48.4	-49.6	15.0	0.00e+00	0	24	0	683671552	61	4509
2026-01-09 00:58:30.27	22.68	27.42	-48.4	-49.7	15.0	0.00e+00	0	24	0	686817280	62	4298
2026-01-09 00:58:31.26	22.65	27.59	-48.5	-49.7	15.0	0.00e+00	0	24	0	689963008	62	4337
2026-01-09 00:58:32.26	22.62	27.76	-48.6	-49.8	14.9	0.00e+00	0	24	0	693108736	62	4376
2026-01-09 00:58:33.26	22.59	27.94	-48.6	-49.8	14.9	0.00e+00	0	24	0	696254464	62	4372
2026-01-09 00:58:34.26	22.55	28.11	-48.7	-49.9	14.9	0.00e+00	0	24	0	699400192	62	4436
2026-01-09 00:58:35.26	22.52	28.29	-48.7	-49.9	14.9	0.00e+00	0	24	0	702545920	62	4421
2026-01-09 00:58:36.26	22.49	28.47	-48.6	-49.8	14.9	0.00e+00	0	24	0	705691648	62	4388
2026-01-09 00:58:37.26	22.46	28.65	-48.6	-49.9	14.9	0.00e+00	0	24	0	708837376	62	4406
2026-01-09 00:58:38.26	22.42	28.83	-48.6	-49.9	14.9	0.00e+00	0	24	0	711983104	62	4413
2026-01-09 00:58:39.25	22.39	29.01	-48.7	-49.9	14.9	0.00e+00	0	24	0	715128832	62	4424
2026-01-09 00:58:40.25	22.35	29.19	-48.6	-49.9	14.9	0.00e+00	0	24	0	717225984	62	4410
2026-01-09 00:58:41.25	22.32	29.37	-48.7	-49.9	14.9	0.00e+00	0	24	0	720371712	62	4435
2026-01-09 00:58:42.25	22.29	29.56	-48.6	-49.8	14.9	0.00e+00	0	24	0	723517440	62	4380
2026-01-09 00:58:43.24	22.25	29.75	-48.5	-49.8	15.0	0.00e+00	0	24	0	726663168	62	4358
2026-01-09 00:58:44.24	22.21	29.93	-48.4	-49.6	15.0	0.00e+00	0	24	0	729808896	62	4266
2026-01-09 00:58:45.24	22.18	30.12	-48.4	-49.6	15.0	0.00e+00	0	24	0	732954624	62	4286
2026-01-09 00:58:46.23	22.14	30.31	-48.3	-49.5	15.1	0.00e+00	0	24	0	736100352	62	4220
2026-01-09 00:58:47.23	22.10	30.50	-48.3	-49.5	15.1	0.00e+00	0	24	0	739246080	62	4206
2026-01-09 00:58:48.23	22.07	30.69	-48.3	-49.5	15.1	0.00e+00	0	24	0	742391808	62	4220
2026-01-09 00:58:49.23	22.03	30.89	-48.3	-49.5	15.1	0.00e+00	0	24	0	745537536	62	4236
2026-01-09 00:58:50.23	21.99	31.08	-48.2	-49.4	15.1	0.00e+00	0	24	0	748683264	62	4166
2026-01-09 00:58:51.23	21.95	31.28	-48.3	-49.5	15.1	0.00e+00	0	24	0	751828992	62	4236
2026-01-09 00:58:52.23	21.91	31.48	-48.3	-49.5	15.1	0.00e+00	0	24	0	754974720	62	4196
2026-01-09 00:58:53.22	21.87	31.68	-48.4	-49.6	15.1	0.00e+00	0	24	0	758120448	62	4286
2026-01-09 00:58:54.23	21.83	31.88	-48.3	-49.6	15.1	0.00e+00	0	24	0	761266176	62	4252
2026-01-09 00:58:55.23	21.79	32.08	-48.4	-49.6	15.1	0.00e+00	0	24	0	764411904	62	4263
2026-01-09 00:58:56.24	21.74	32.29	-48.4	-49.7	15.1	0.00e+00	0	24	0	767557632	62	4297
2026-01-09 00:58:57.24	21.70	32.49	-48.6	-49.8	15.0	0.00e+00	0	24	0	770703360	62	4377
2026-01-09 00:58:58.25	21.66	32.70	-48.7	-49.9	15.0	0.00e+00	0	24	0	773849088	62	4422
2026-01-09 00:58:59.24	21.61	32.90	-48.8	-50.0	14.9	0.00e+00	0	24	0	776994816	62	4485
2026-01-09 00:59:00.24	21.57	33.11	-48.8	-50.1	14.9	0.00e+00	0	24	0	780140544	62	4511
2026-01-09 00:59:01.24	21.52	33.32	-49.0	-50.3	14.9	0.00e+00	0	24	0	783286272	63	4363
2026-01-09 00:59:02.24	21.48	33.54	-49.1	-50.4	14.9	0.00e+00	0	24	0	786432000	63	4429
2026-01-09 00:59:03.24	21.43	33.75	-49.1	-50.4	14.9	0.00e+00	0	24	0	789577728	63	4403
2026-01-09 00:59:04.24	21.38	33.96	-49.3	-50.6	14.8	0.00e+00	0	24	0	792723456	63	4520
2026-01-09 00:59:05.24	21.34	34.18	-49.4	-50.7	14.8	0.00e+00	0	24	0	795869184	64	4301
2026-01-09 00:59:06.23	21.29	34.40	-49.5	-50.9	14.8	0.00e+00	0	24	0	799014912	64	4408
2026-01-09 00:59:07.23	21.24	34.61	-49.8	-51.2	14.6	0.00e+00	0	24	0	802160640	64	4560
2026-01-09 00:59:08.23	21.19	34.84	-49.9	-51.3	14.6	0.00e+00	0	24	0	805306368	64	4606
2026-01-09 00:59:09.23	21.14	35.06	-50.1	-51.6	14.6	0.00e+00	0	24	0	808452096	65	4514
2026-01-09 00:59:10.22	21.09	35.28	-50.3	-51.8	14.5	0.00e+00	0	24	0	811597824	65	4625
2026-01-09 00:59:11.22	21.03	35.50	-50.2	-51.6	14.6	0.00e+00	0	24	0	814743552	65	4528
2026-01-09 00:59:12.21	20.98	35.73	-50.4	-51.8	14.5	0.00e+00	0	24	0	817889280	65	4646
2026-01-09 00:59:13.22	20.93	35.96	-50.4	-51.9	14.5	0.00e+00	0	24	0	821035008	66	4423
2026-01-09 00:59:14.22	20.87	36.19	-50.3	-51.8	14.6	0.00e+00	0	24	0	824180736	66	4363
2026-01-09 00:59:15.21	20.82	36.42	-50.3	-51.7	14.7	0.00e+00	0	24	0	827326464	66	4332
2026-01-09 00:59:16.20	20.76	36.65	-50.2	-51.7	14.7	0.00e+00	0	24	0	830472192	66	4299
2026-01-09 00:59:17.21	20.70	36.89	-50.4	-51.8	14.6	0.00e+00	0	24	0	833617920	66	4380
2026-01-09 00:59:18.21	20.65	37.13	-50.2	-51.6	14.6	0.00e+00	0	24	0	836763648	66	4285
2026-01-09 00:59:19.20	20.59	37.36	-50.1	-51.5	14.8	0.00e+00	0	24	0	839909376	66	4222
2026-01-09 00:59:20.20	20.53	37.60	-50.0	-51.4	14.8	0.00e+00	0	24	0	843055104	66	4174
2026-01-09 00:59:21.19	20.47	37.84	-49.9	-51.2	14.9	0.00e+00	0	24	0	846200832	66	4085
2026-01-09 00:59:22.19	20.40	38.08	-49.9	-51.2	14.9	0.00e+00	0	24	0	849346560	66	4080
2026-01-09 00:59:23.19	20.34	38.33	-50.0	-51.3	14.8	0.00e+00	0	24	0	851443712	66	4126
2026-01-09 00:59:24.19	20.28	38.58	-50.0	-51.4	14.8	0.00e+00	0	24	0	854589440	66	4162
2026-01-09 00:59:25.19	20.21	38.83	-50.1	-51.5	14.8	0.00e+00	0	24	0	857735168	66	4219
2026-01-09 00:59:26.18	20.15	39.07	-50.3	-51.7	14.6	0.00e+00	0	24	0	860880896	66	4304
2026-01-09 00:59:27.18	20.08	39.33	-50.2	-51.6	14.7	0.00e+00	0	24	0	864026624	66	4279
2026-01-09 00:59:28.18	20.01	39.58	-49.9	-51.3	14.8	0.00e+00	0	24	0	867172352	66	4127
2026-01-09 00:59:29.17	19.94	39.83	-50.0	-51.4	14.8	0.00e+00	0	23	0	870318080	66	4160
2026-01-09 00:59:30.17	19.87	40.09	-50.0	-51.3	14.9	0.00e+00	0	24	0	873463808	66	4141
2026-01-09 00:59:31.16	19.80	40.35	-50.1	-51.4	14.8	0.00e+00	0	24	0	876609536	66	4193
2026-01-09 00:59:32.16	19.73	40.61	-50.0	-51.3	14.9	0.00e+00	0	24	0	879755264	66	4140
2026-01-09 00:59:33.17	19.65	40.87	-50.1	-51.5	14.8	0.00e+00	0	24	0	882900992	66	4222
2026-01-09 00:59:34.16	19.58	41.14	-50.2	-51.6	14.7	0.00e+00	0	24	0	886046720	66	4284
2026-01-09 00:59:35.15	19.50	41.40	-50.3	-51.7	14.7	0.00e+00	0	24	0	889192448	66	4300
2026-01-09 00:59:36.15	19.43	41.67	-50.4	-51.8	14.6	0.00e+00	0	23	0	892338176	66	4388
2026-01-09 00:59:37.14	19.35	41.94	-50.4	-51.9	14.5	0.00e+00	0	24	0	895483904	66	4401
2026-01-09 00:59:38.14	19.27	42.21	-50.6	-52.1	14.4	0.00e+00	0	24	0	898629632	66	4519
2026-01-09 00:59:39.14	19.18	42.49	-50.8	-52.3	14.3	0.00e+00	0	24	0	901775360	66	4624
2026-01-09 00:59:40.12	19.10	42.76	-50.9	-52.4	14.3	0.00e+00	0	24	0	904921088	66	4668
2026-01-09 00:59:41.12	19.02	43.04	-50.8	-52.3	14.3	0.00e+00	0	24	0	908066816	66	4648
2026-01-09 00:59:42.12	18.93	43.32	-50.9	-52.4	14.3	0.00e+00	0	24	0	911212544	66	4668
2026-01-09 00:59:43.12	18.84	43.60	-50.9	-52.4	14.4	0.00e+00	0	24	0	914358272	67	4418
2026-01-09 00:59:44.12	18.75	43.88	-51.1	-52.7	14.3	0.00e+00	0	24	0	917504000	67	4572
2026-01-09 00:59:45.12	18.66	44.17	-51.2	-52.8	14.2	0.00e+00	0	24	0	920649728	67	4619
2026-01-09 00:59:46.11	18.57	44.46	-51.4	-53.0	14.1	0.00e+00	0	24	0	923795456	67	4740
2026-01-09 00:59:47.11	18.47	44.75	-51.8	-53.5	14.0	0.00e+00	0	24	0	926941184	68	4720
2026-01-09 00:59:48.11	18.37	45.04	-51.6	-53.3	14.1	0.00e+00	0	24	0	930086912	68	4618
2026-01-09 00:59:49.11	18.28	45.34	-51.7	-53.3	14.1	0.00e+00	0	24	0	933232640	68	4641
2026-01-09 00:59:50.11	18.17	45.63	-51.7	-53.3	14.1	0.00e+00	0	24	0	936378368	68	4646
2026-01-09 00:59:51.11	18.07	45.93	-51.5	-53.1	14.2	0.00e+00	0	24	0	939524096	68	4506
2026-01-09 00:59:52.11	17.97	46.23	-51.5	-53.1	14.2	0.00e+00	0	24	0	942669824	68	4503
2026-01-09 00:59:53.11	17.86	46.54	-51.4	-53.0	14.3	0.00e+00	0	24	0	945815552	68	4488
2026-01-09 00:59:54.11	17.75	46.84	-51.3	-52.8	14.4	0.00e+00	0	24	0	948961280	68	4377
2026-01-09 00:59:55.12	17.64	47.15	-51.3	-52.8	14.4	0.00e+00	0	24	0	952107008	68	4388
2026-01-09 00:59:56.12	17.52	47.46	-51.1	-52.7	14.5	0.00e+00	0	24	0	955252736	68	4300
2026-01-09 00:59:57.12	17.41	47.77	-51.1	-52.6	14.5	0.00e+00	0	24	0	958398464	68	4266
2026-01-09 00:59:58.11	17.29	48.08	-51.1	-52.6	14.5	0.00e+00	0	24	0	961544192	68	4271
2026-01-09 00:59:59.11	17.17	48.40	-50.8	-52.3	14.7	0.00e+00	0	24	0	963641344	68	4105
2026-01-09 01:00:00.10	17.05	48.72	-50.5	-52.0	14.7	0.00e+00	0	24	0	966787072	67	4217
2026-01-09 01:00:01.10	16.92	49.04	-50.7	-52.2	14.6	0.00e+00	0	24	0	969932800	67	4296
2026-01-09 01:00:02.09	16.79	49.36	-50.8	-52.3	14.5	0.00e+00	0	24	0	973078528	67	4353
2026-01-09 01:00:03.10	16.66	49.68	-51.2	-52.8	14.3	0.00e+00	0	24	0	976224256	67	4607
2026-01-09 01:00:04.10	16.52	50.01	-51.1	-52.7	14.3	0.00e+00	0	24	0	979369984	67	4569
2026-01-09 01:00:05.11	16.38	50.34	-51.2	-52.8	14.2	0.00e+00	0	24	0	983564288	67	4637
2026-01-09 01:00:06.10	16.24	50.67	-51.1	-52.6	14.3	0.00e+00	0	24	0	985661440	67	4527
2026-01-09 01:00:07.11	16.10	51.01	-50.9	-52.4	14.4	0.00e+00	0	24	0	988807168	67	4437
2026-01-09 01:00:08.11	15.95	51.34	-50.7	-52.1	14.5	0.00e+00	0	24	0	991952896	67	4280
2026-01-09 01:00:09.11	15.80	51.68	-50.7	-52.2	14.6	0.00e+00	0	24	0	995098624	67	4292
2026-01-09 01:00:10.11	15.64	52.02	-50.4	-51.8	14.8	0.00e+00	0	24	0	998244352	67	4110
2026-01-09 01:00:11.11	15.49	52.37	-50.2	-51.6	14.9	0.00e+00	0	24	0	1001390080	67	4045
2026-01-09 01:00:12.12	15.32	52.71	-49.9	-51.3	14.9	0.00e+00	0	24	0	1004535808	66	4111
2026-01-09 01:00:13.11	15.16	53.06	-49.6	-50.9	15.1	0.00e+00	0	24	0	1007681536	65	4185
2026-01-09 01:00:14.11	14.99	53.41	-49.4	-50.7	15.0	0.00e+00	0	24	0	1010827264	65	4086
2026-01-09 01:00:15.12	14.81	53.76	-49.4	-50.7	15.1	0.00e+00	0	24	0	1013972992	65	4060
2026-01-09 01:00:16.12	14.63	54.11	-49.4	-50.6	15.1	0.00e+00	0	24	0	1017118720	65	4042
2026-01-09 01:00:17.11	14.45	54.47	-49.4	-50.7	15.0	0.00e+00	0	24	0	1020264448	65	4076
2026-01-09 01:00:18.12	14.26	54.83	-49.5	-50.8	15.0	0.00e+00	0	24	0	1023410176	65	4103
2026-01-09 01:00:19.13	14.06	55.19	-49.4	-50.7	15.0	0.00e+00	0	24	0	1026555904	65	4062
2026-01-09 01:00:20.12	13.87	55.55	-49.4	-50.7	15.0	0.00e+00	0	24	0	1029701632	65	4088
2026-01-09 01:00:21.12	13.66	55.91	-49.1	-50.3	15.0	0.00e+00	0	24	0	1032847360	64	4142
2026-01-09 01:00:22.13	13.45	56.28	-49.1	-50.4	15.0	0.00e+00	0	24	0	1035993088	64	4166
2026-01-09 01:00:23.12	13.24	56.65	-49.1	-50.3	15.1	0.00e+00	0	24	0	1039138816	64	4131
2026-01-09 01:00:24.12	13.02	57.02	-49.1	-50.3	15.1	0.00e+00	0	24	0	1042284544	64	4125
2026-01-09 01:00:25.12	12.79	57.39	-48.8	-50.1	15.2	0.00e+00	0	24	0	1045430272	64	4006
2026-01-09 01:00:26.12	12.56	57.76	-48.7	-49.9	15.1	0.00e+00	0	24	0	1048576000	63	4165
2026-01-09 01:00:27.12	12.32	58.14	-48.5	-49.8	15.2	0.00e+00	0	24	0	1051721728	63	4100
2026-01-09 01:00:28.12	12.07	58.51	-48.4	-49.6	15.2	0.00e+00	0	24	0	1054867456	63	4033
2026-01-09 01:00:29.11	11.82	58.89	-48.5	-49.7	15.2	0.00e+00	0	24	0	1058013184	63	4082
2026-01-09 01:00:30.10	11.56	59.27	-48.6	-49.9	15.1	0.00e+00	0	24	0	1061158912	63	4150
2026-01-09 01:00:31.10	11.29	59.65	-48.4	-49.6	15.2	0.00e+00	0	24	0	1064304640	63	4024
2026-01-09 01:00:32.10	11.01	60.04	-48.3	-49.5	15.3	0.00e+00	0	24	0	1067450368	63	3985
2026-01-09 01:00:33.10	10.73	60.42	-48.2	-49.4	15.2	0.00e+00	0	24	0	1070596096	62	4150
2026-01-09 01:00:34.09	10.44	60.81	-48.0	-49.1	15.3	0.00e+00	0	24	0	1073741824	62	4030
2026-01-09 01:00:35.08	10.13	61.20	-47.9	-49.0	15.3	0.00e+00	0	24	0	1076887552	62	4000
2026-01-09 01:00:36.08	9.82	61.59	-47.6	-48.7	15.3	0.00e+00	0	24	0	1080033280	61	4084
2026-01-09 01:00:37.08	9.50	61.98	-47.4	-48.5	15.4	0.00e+00	0	24	0	1083179008	61	3971
2026-01-09 01:00:38.07	9.16	62.37	-47.5	-48.6	15.3	0.00e+00	0	24	0	1086324736	61	4027
2026-01-09 01:00:39.07	8.82	62.77	-47.5	-48.7	15.3	0.00e+00	0	24	0	1089470464	61	4056
2026-01-09 01:00:40.06	8.46	63.16	-47.7	-48.8	15.3	0.00e+00	0	24	0	1092616192	61	4144
2026-01-09 01:00:41.06	8.09	63.56	-47.9	-49.0	15.2	0.00e+00	0	24	0	1095761920	61	4242
2026-01-09 01:00:42.05	7.71	63.96	-48.0	-49.1	15.2	0.00e+00	0	24	0	1097859072	61	4290
2026-01-09 01:00:43.05	7.32	64.36	-48.2	-49.4	15.1	0.00e+00	0	24	0	1101004800	61	4403
2026-01-09 01:00:44.05	6.91	64.76	-48.1	-49.3	15.1	0.00e+00	0	24	0	1104150528	61	4354
2026-01-09 01:00:45.05	6.48	65.16	-47.7	-48.9	15.3	0.00e+00	0	24	0	1107296256	61	4157
2026-01-09 01:00:46.04	6.04	65.56	-47.6	-48.8	15.3	0.00e+00	0	24	0	1110441984	61	4115
2026-01-09 01:00:47.03	5.59	65.96	-47.6	-48.8	15.3	0.00e+00	0	24	0	1113587712	61	4111
2026-01-09 01:00:48.03	5.11	66.37	-47.5	-48.7	15.3	0.00e+00	0	24	0	1116733440	61	4055
2026-01-09 01:00:49.03	4.62	66.77	-47.2	-48.4	15.3	0.00e+00	0	24	0	1119879168	60	4149
2026-01-09 01:00:50.03	4.11	67.18	-47.1	-48.2	15.3	0.00e+00	0	24	0	1123024896	60	4083
2026-01-09 01:00:51.03	3.57	67.59	-47.0	-48.1	15.4	0.00e+00	0	24	0	1126170624	60	4030
2026-01-09 01:00:52.03	3.02	67.99	-46.9	-48.0	15.4	0.00e+00	0	24	0	1129316352	60	3994
2026-01-09 01:00:53.03	2.44	68.40	-47.3	-48.4	15.3	0.00e+00	0	24	0	1132462080	60	4162
2026-01-09 01:00:54.02	1.84	68.80	-47.4	-48.6	15.2	0.00e+00	0	24	0	1135607808	60	4246
2026-01-09 01:00:55.02	1.21	69.20	-47.5	-48.6	15.2	0.00e+00	0	24	0	1138753536	60	4282
2026-01-09 01:00:56.02	0.56	69.61	-47.4	-48.5	15.2	0.00e+00	0	24	0	1141899264	60	4234
2026-01-09 01:00:57.02	359.87	70.01	-47.4	-48.6	15.2	0.00e+00	0	24	0	1145044992	60	4260
2026-01-09 01:00:58.02	359.16	70.42	-47.3	-48.4	15.2	0.00e+00	0	24	0	1148190720	60	4191
2026-01-09 01:00:59.02	358.41	70.82	-47.1	-48.2	15.3	0.00e+00	0	24	0	1151336448	60	4092
2026-01-09 01:01:00.01	357.64	71.21	-47.1	-48.2	15.3	0.00e+00	0	24	0	1154482176	60	4065
2026-01-09 01:01:01.01	356.82	71.61	-47.0	-48.1	15.4	0.00e+00	0	24	0	1157627904	60	4024
2026-01-09 01:01:02.02	355.96	72.01	-47.3	-48.4	15.3	0.00e+00	0	24	0	1160773632	60	4164
2026-01-09 01:01:03.01	355.07	72.40	-47.3	-48.5	15.3	0.00e+00	0	24	0	1163919360	60	4202
2026-01-09 01:01:04.01	354.13	72.79	-47.2	-48.3	15.3	0.00e+00	0	24	0	1167065088	60	4111
2026-01-09 01:01:05.02	353.14	73.18	-47.0	-48.0	15.4	0.00e+00	0	24	0	1170210816	60	3994
2026-01-09 01:01:06.01	352.12	73.56	-46.8	-47.8	15.5	0.00e+00	0	24	0	1173356544	60	3913
2026-01-09 01:01:07.01	351.03	73.94	-46.9	-47.9	15.5	0.00e+00	0	24	0	1176502272	60	3945
2026-01-09 01:01:08.00	349.91	74.31	-46.8	-47.9	15.5	0.00e+00	0	24	0	1179648000	60	3936
2026-01-09 01:01:09.00	348.71	74.68	-46.7	-47.8	15.5	0.00e+00	0	24	0	1182793728	60	3884
2026-01-09 01:01:10.00	347.45	75.04	-46.7	-47.8	15.5	0.00e+00	0	24	0	1185939456	60	3889
2026-01-09 01:01:11.00	346.13	75.40	-46.8	-47.9	15.4	0.00e+00	0	24	0	1189085184	59	4168
2026-01-09 01:01:12.00	344.74	75.75	-47.2	-48.3	15.3	0.00e+00	0	24	0	1192230912	59	4381
2026-01-09 01:01:12.99	343.29	76.09	-47.4	-48.5	15.3	0.00e+00	0	24	0	1195376640	60	4208
2026-01-09 01:01:13.99	341.75	76.42	-47.6	-48.7	15.2	0.00e+00	0	24	0	1198522368	60	4312
2026-01-09 01:01:14.99	340.14	76.75	-47.5	-48.5	15.3	0.00e+00	0	24	0	1201668096	60	4239
2026-01-09 01:01:15.99	338.44	77.06	-47.5	-48.6	15.3	0.00e+00	0	24	0	1204813824	60	4258
2026-01-09 01:01:16.99	336.65	77.36	-47.6	-48.7	15.2	0.00e+00	0	24	0	1207959552	60	4309
2026-01-09 01:01:18.00	334.76	77.66	-47.8	-48.9	15.2	0.00e+00	0	24	0	1211105280	60	4417
2026-01-09 01:01:19.00	332.79	77.94	-47.5	-48.6	15.3	0.00e+00	0	24	0	1214251008	60	4266
2026-01-09 01:01:20.00	330.73	78.20	-47.2	-48.3	15.3	0.00e+00	0	24	0	1217396736	60	4128
2026-01-09 01:01:21.00	328.58	78.45	-47.2	-48.3	15.4	0.00e+00	0	24	0	1220542464	60	4099
2026-01-09 01:01:22.00	326.33	78.68	-47.3	-48.4	15.3	0.00e+00	0	24	0	1223688192	60	4173
2026-01-09 01:01:23.00	323.99	78.90	-47.9	-49.1	15.2	0.00e+00	0	24	0	1226833920	61	4256
2026-01-09 01:01:24.00	321.56	79.10	-48.0	-49.2	15.2	0.00e+00	0	24	0	1229979648	61	4312
2026-01-09 01:01:25.00	319.04	79.27	-48.2	-49.4	15.1	0.00e+00	0	24	0	1232076800	61	4413
2026-01-09 01:01:25.99	316.47	79.43	-48.3	-49.5	15.1	0.00e+00	0	24	0	1235222528	61	4444
2026-01-09 01:01:26.99	313.80	79.56	-48.3	-49.5	15.1	0.00e+00	0	24	0	1238368256	61	4484
2026-01-09 01:01:27.98	311.09	79.67	-48.4	-49.6	15.1	0.00e+00	0	24	0	1241513984	62	4285
2026-01-09 01:01:28.99	308.27	79.76	-48.2	-49.4	15.2	0.00e+00	0	24	0	1244659712	62	4184
2026-01-09 01:01:29.99	305.44	79.82	-47.9	-49.1	15.3	0.00e+00	0	24	0	1247805440	62	4026
2026-01-09 01:01:30.98	302.61	79.86	-48.1	-49.3	15.2	0.00e+00	0	24	0	1250951168	62	4118
2026-01-09 01:01:31.98	299.73	79.88	-48.4	-49.6	15.1	0.00e+00	0	24	0	1254096896	62	4288
2026-01-09 01:01:32.97	296.88	79.87	-47.8	-49.0	15.3	0.00e+00	0	24	0	1257242624	62	3971
2026-01-09 01:01:33.97	294.01	79.83	-47.5	-48.6	15.3	0.00e+00	0	24	0	1260388352	61	4050
2026-01-09 01:01:34.97	291.18	79.77	-47.4	-48.5	15.4	0.00e+00	0	24	0	1263534080	61	3977
2026-01-09 01:01:35.97	288.38	79.68	-47.9	-49.0	15.2	0.00e+00	0	24	0	1266679808	61	4215
2026-01-09 01:01:36.97	285.64	79.57	-47.8	-49.0	15.2	0.00e+00	0	24	0	1269825536	61	4202
2026-01-09 01:01:37.96	282.98	79.44	-47.5	-48.6	15.3	0.00e+00	0	24	0	1272971264	61	4041
2026-01-09 01:01:38.95	280.40	79.29	-47.2	-48.3	15.4	0.00e+00	0	24	0	1276116992	60	4113
2026-01-09 01:01:39.94	277.90	79.12	-47.2	-48.3	15.3	0.00e+00	0	24	0	1279262720	60	4109
2026-01-09 01:01:40.94	275.46	78.92	-47.0	-48.1	15.4	0.00e+00	0	24	0	1282408448	60	4039
2026-01-09 01:01:41.94	273.10	78.71	-47.3	-48.4	15.3	0.00e+00	0	24	0	1285554176	60	4169
2026-01-09 01:01:42.94	270.84	78.48	-47.4	-48.5	15.3	0.00e+00	0	24	0	1288699904	60	4204
2026-01-09 01:01:43.94	268.68	78.23	-47.5	-48.6	15.3	0.00e+00	0	24	0	1291845632	60	4279
2026-01-09 01:01:44.93	266.63	77.97	-47.9	-49.1	15.2	0.00e+00	0	24	0	1294991360	61	4273
2026-01-09 01:01:45.93	264.65	77.70	-47.8	-49.0	15.2	0.00e+00	0	24	0	1298137088	61	4202
2026-01-09 01:01:46.92	262.78	77.41	-47.6	-48.7	15.3	0.00e+00	0	24	0	1301282816	61	4066
2026-01-09 01:01:47.91	261.00	77.11	-47.4	-48.5	15.4	0.00e+00	0	24	0	1304428544	61	3967
2026-01-09 01:01:48.91	259.28	76.80	-47.4	-48.5	15.4	0.00e+00	0	24	0	1307574272	61	3970
2026-01-09 01:01:49.90	257.67	76.48	-47.4	-48.5	15.4	0.00e+00	0	24	0	1310720000	61	3966
2026-01-09 01:01:50.91	256.10	76.14	-47.2	-48.3	15.2	0.00e+00	0	24	0	1313865728	60	4104
2026-01-09 01:01:51.91	254.63	75.80	-47.5	-48.6	15.1	0.00e+00	0	24	0	1317011456	60	4267
2026-01-09 01:01:52.91	253.22	75.45	-47.6	-48.7	15.2	0.00e+00	0	24	0	1320157184	60	4315
2026-01-09 01:01:53.91	251.89	75.09	-47.1	-48.2	15.4	0.00e+00	0	24	0	1323302912	60	4080
2026-01-09 01:01:54.91	250.62	74.73	-47.0	-48.1	15.4	0.00e+00	0	24	0	1326448640	60	4029
2026-01-09 01:01:55.91	249.41	74.36	-47.3	-48.4	15.3	0.00e+00	0	24	0	1329594368	60	4149
2026-01-09 01:01:56.90	248.28	73.99	-47.6	-48.8	15.2	0.00e+00	0	24	0	1332740096	60	4343
2026-01-09 01:01:57.91	247.17	73.61	-47.7	-48.8	15.2	0.00e+00	0	24	0	1335885824	60	4368
2026-01-09 01:01:58.90	246.14	73.23	-47.2	-48.3	15.3	0.00e+00	0	24	0	1339031552	60	4116
2026-01-09 01:01:59.91	245.14	72.84	-47.2	-48.2	15.4	0.00e+00	0	24	0	1342177280	60	4096
2026-01-09 01:02:00.91	244.20	72.45	-47.3	-48.4	15.3	0.00e+00	0	24	0	1345323008	60	4172
2026-01-09 01:02:01.90	243.30	72.06	-47.9	-49.0	15.1	0.00e+00	0	24	0	1347420160	60	4482
2026-01-09 01:02:02.90	242.44	71.66	-47.7	-48.8	15.3	0.00e+00	0	24	0	1350565888	61	4124
2026-01-09 01:02:03.90	241.62	71.27	-47.4	-48.5	15.4	0.00e+00	0	24	0	1353711616	61	3960
2026-01-09 01:02:04.90	240.83	70.87	-46.9	-47.9	15.4	0.00e+00	0	24	0	1356857344	60	3937
2026-01-09 01:02:05.90	240.08	70.47	-46.9	-48.0	15.3	0.00e+00	0	24	0	1360003072	59	4228
2026-01-09 01:02:06.90	239.36	70.06	-46.7	-47.7	15.4	0.00e+00	0	24	0	1363148800	59	4084
2026-01-09 01:02:07.90	238.67	69.66	-47.4	-48.5	15.2	0.00e+00	0	24	0	1366294528	59	4454
2026-01-09 01:02:08.89	238.02	69.26	-48.1	-49.3	15.1	0.00e+00	0	24	0	1369440256	61	4365
2026-01-09 01:02:09.89	237.39	68.85	-48.6	-49.8	15.0	0.00e+00	0	24	0	1372585984	62	4377
2026-01-09 01:02:10.89	236.78	68.44	-48.3	-49.5	15.2	0.00e+00	0	24	0	1375731712	62	4210
2026-01-09 01:02:11.89	236.20	68.04	-48.0	-49.2	15.3	0.00e+00	0	24	0	1378877440	62	4057
2026-01-09 01:02:12.89	235.64	67.63	-48.0	-49.1	15.3	0.00e+00	0	24	0	1382023168	62	4023
2026-01-09 01:02:13.90	235.10	67.22	-48.0	-49.2	15.3	0.00e+00	0	24	0	1385168896	62	4064
2026-01-09 01:02:14.90	234.58	66.81	-48.3	-49.5	15.2	0.00e+00	0	24	0	1388314624	62	4234
2026-01-09 01:02:15.90	234.08	66.41	-48.6	-49.8	15.1	0.00e+00	0	24	0	1391460352	62	4357
2026-01-09 01:02:16.91	233.60	66.00	-48.7	-49.9	15.0	0.00e+00	0	24	0	1394606080	62	4439
2026-01-09 01:02:17.90	233.15	65.60	-48.5	-49.8	15.1	0.00e+00	0	24	0	1397751808	62	4350
2026-01-09 01:02:18.89	232.71	65.20	-48.4	-49.6	15.1	0.00e+00	0	24	0	1400897536	62	4283
2026-01-09 01:02:19.89	232.28	64.79	-48.1	-49.2	15.2	0.00e+00	0	24	0	1404043264	62	4094
2026-01-09 01:02:20.89	231.86	64.39	-47.6	-48.7	15.3	0.00e+00	0	24	0	1407188992	61	4075
2026-01-09 01:02:21.90	231.46	63.98	-47.5	-48.6	15.4	0.00e+00	0	24	0	1410334720	61	4013
2026-01-09 01:02:22.90	231.08	63.58	-48.1	-49.3	15.2	0.00e+00	0	24	0	1413480448	61	4349
2026-01-09 01:02:23.90	230.70	63.18	-48.8	-50.0	15.0	0.00e+00	0	24	0	1416626176	62	4467
2026-01-09 01:02:24.90	230.35	62.78	-49.1	-50.3	15.0	0.00e+00	0	24	0	1419771904	63	4389
2026-01-09 01:02:25.90	230.00	62.39	-49.1	-50.5	14.9	0.00e+00	0	24	0	1422917632	63	4443
2026-01-09 01:02:26.90	229.66	61.99	-48.3	-49.5	15.2	0.00e+00	0	24	0	1426063360	63	3974
2026-01-09 01:02:27.91	229.33	61.59	-47.8	-48.9	15.4	0.00e+00	0	24	0	1429209088	62	3944
2026-01-09 01:02:28.91	229.02	61.20	-47.9	-49.0	15.3	0.00e+00	0	24	0	1432354816	62	3969
2026-01-09 01:02:29.91	228.71	60.81	-48.3	-49.4	15.2	0.00e+00	0	24	0	1435500544	62	4193
2026-01-09 01:02:30.91	228.42	60.42	-48.7	-49.9	15.0	0.00e+00	0	24	0	1438646272	62	4431
2026-01-09 01:02:31.91	228.13	60.03	-49.0	-50.2	15.0	0.00e+00	0	24	0	1441792000	63	4329
2026-01-09 01:02:32.92	227.85	59.64	-49.2	-50.5	14.8	0.00e+00	0	24	0	1444937728	63	4445
2026-01-09 01:02:33.92	227.58	59.26	-49.4	-50.7	14.7	0.00e+00	0	24	0	1448083456	64	4322
2026-01-09 01:02:34.91	227.32	58.88	-49.4	-50.7	14.7	0.00e+00	0	24	0	1451229184	64	4330
2026-01-09 01:02:35.91	227.06	58.50	-49.0	-50.3	15.0	0.00e+00	0	24	0	1454374912	64	4121
2026-01-09 01:02:36.90	226.82	58.12	-48.5	-49.7	15.1	0.00e+00	0	24	0	1457520640	63	4068
2026-01-09 01:02:37.90	226.58	57.75	-48.0	-49.1	15.2	0.00e+00	0	24	0	1460666368	62	4034
2026-01-09 01:02:38.90	226.34	57.37	-48.1	-49.2	15.1	0.00e+00	0	24	0	1463812096	62	4094
2026-01-09 01:02:39.91	226.11	56.99	-49.1	-50.4	14.8	0.00e+00	0	24	0	1466957824	63	4413
2026-01-09 01:02:40.90	225.90	56.63	-50.5	-52.0	14.6	0.00e+00	0	24	0	1470103552	66	4450
2026-01-09 01:02:41.90	225.68	56.26	-50.9	-52.5	14.5	0.00e+00	0	24	0	1473249280	67	4453
2026-01-09 01:02:42.89	225.47	55.90	-50.4	-51.8	14.8	0.00e+00	0	24	0	1476395008	67	4123
2026-01-09 01:02:43.88	225.27	55.53	-49.6	-50.8	14.9	0.00e+00	0	24	0	1479540736	65	4143
2026-01-09 01:02:44.88	225.07	55.17	-49.3	-50.5	15.1	0.00e+00	0	24	0	1482686464	65	3983
2026-01-09 01:02:45.88	224.88	54.81	-49.0	-50.2	15.1	0.00e+00	0	24	0	1485832192	64	4097
2026-01-09 01:02:46.88	224.69	54.45	-48.5	-49.7	15.2	0.00e+00	0	24	0	1488977920	63	4063
2026-01-09 01:02:47.88	224.51	54.10	-48.4	-49.5	15.3	0.00e+00	0	24	0	1492123648	63	3989
2026-01-09 01:02:48.86	224.33	53.75	-48.7	-49.9	15.1	0.00e+00	0	24	0	1495269376	63	4170
2026-01-09 01:02:49.86	224.15	53.40	-49.4	-50.6	14.9	0.00e+00	0	24	0	1498415104	64	4284
2026-01-09 01:02:50.87	223.98	53.04	-50.4	-51.8	14.6	0.00e+00	0	24	0	1500512256	65	4632
2026-01-09 01:02:51.86	223.82	52.70	-51.6	-53.2	14.2	0.00e+00	0	24	0	1503657984	68	4596
2026-01-09 01:02:52.86	223.65	52.35	-51.7	-53.4	14.2	0.00e+00	0	24	0	1506803712	68	4668
2026-01-09 01:02:53.86	223.50	52.01	-51.3	-52.9	14.3	0.00e+00	0	24	0	1509949440	68	4421
2026-01-09 01:02:54.85	223.34	51.67	-50.9	-52.4	14.6	0.00e+00	0	24	0	1513095168	68	4161
2026-01-09 01:02:55.86	223.19	51.33	-50.3	-51.6	14.9	0.00e+00	0	24	0	1516240896	67	4040
2026-01-09 01:02:56.85	223.04	51.00	-50.1	-51.4	14.8	0.00e+00	0	24	0	1519386624	66	4192
2026-01-09 01:02:57.85	222.90	50.66	-50.2	-51.6	14.7	0.00e+00	0	24	0	1522532352	66	4272
2026-01-09 01:02:58.84	222.76	50.33	-50.6	-52.0	14.5	0.00e+00	0	24	0	1525678080	66	4462
2026-01-09 01:02:59.84	222.62	50.00	-50.9	-52.4	14.5	0.00e+00	0	24	0	1528823808	67	4418
2026-01-09 01:03:00.83	222.48	49.68	-50.9	-52.3	14.5	0.00e+00	0	24	0	1531969536	67	4379
2026-01-09 01:03:01.83	222.35	49.35	-50.9	-52.4	14.5	0.00e+00	0	24	0	1535115264	67	4427
2026-01-09 01:03:02.83	222.22	49.03	-50.9	-52.5	14.4	0.00e+00	0	24	0	1538260992	67	4442
2026-01-09 01:03:03.83	222.09	48.71	-51.0	-52.6	14.4	0.00e+00	0	24	0	1541406720	67	4504
2026-01-09 01:03:04.83	221.97	48.39	-51.1	-52.7	14.3	0.00e+00	0	24	0	1544552448	67	4549
2026-01-09 01:03:05.84	221.85	48.07	-51.2	-52.8	14.3	0.00e+00	0	24	0	1547698176	67	4618
2026-01-09 01:03:06.85	221.73	47.75	-50.9	-52.5	14.4	0.00e+00	0	24	0	1550843904	67	4445
2026-01-09 01:03:07.84	221.61	47.44	-50.6	-52.0	14.6	0.00e+00	0	24	0	1553989632	67	4220
2026-01-09 01:03:08.84	221.50	47.13	-50.2	-51.6	14.8	0.00e+00	0	24	0	1557135360	67	4020
2026-01-09 01:03:09.84	221.38	46.82	-50.2	-51.6	14.9	0.00e+00	0	24	0	1560281088	67	4020
2026-01-09 01:03:10.84	221.27	46.51	-50.0	-51.3	14.9	0.00e+00	0	24	0	1563426816	66	4128
2026-01-09 01:03:11.84	221.17	46.21	-49.9	-51.2	14.9	0.00e+00	0	24	0	1566572544	66	4077
2026-01-09 01:03:12.83	221.06	45.91	-50.0	-51.3	14.8	0.00e+00	0	24	0	1569718272	66	4134
2026-01-09 01:03:13.83	220.96	45.61	-50.2	-51.6	14.7	0.00e+00	0	24	0	1572864000	66	4269
2026-01-09 01:03:14.84	220.86	45.31	-50.5	-51.9	14.6	0.00e+00	0	24	0	1576009728	66	4409
2026-01-09 01:03:15.83	220.76	45.02	-51.0	-52.5	14.5	0.00e+00	0	24	0	1579155456	67	4454
2026-01-09 01:03:16.83	220.66	44.72	-51.7	-53.4	14.1	0.00e+00	0	24	0	1582301184	68	4661
2026-01-09 01:03:17.83	220.56	44.43	-52.4	-54.3	13.8	0.00e+00	0	24	0	1585446912	69	4873
2026-01-09 01:03:18.82	220.47	44.14	-53.1	-55.1	13.5	0.00e+00	0	24	0	1588592640	71	4769
2026-01-09 01:03:19.82	220.38	43.86	-53.2	-55.3	13.3	0.00e+00	0	24	0	1591738368	71	4875
2026-01-09 01:03:20.82	220.29	43.57	-53.1	-55.1	13.5	0.00e+00	0	24	0	1594884096	71	4780
2026-01-09 01:03:21.82	220.20	43.29	-52.7	-54.6	13.8	0.00e+00	0	24	0	1598029824	71	4518
2026-01-09 01:03:22.82	220.11	43.01	-52.6	-54.4	13.9	0.00e+00	0	24	0	1601175552	71	4421
2026-01-09 01:03:23.83	220.03	42.72	-52.2	-54.0	14.2	0.00e+00	0	24	0	1604321280	71	4201
2026-01-09 01:03:24.83	219.94	42.45	-51.4	-53.0	14.4	0.00e+00	0	24	0	1607467008	69	4223
2026-01-09 01:03:25.83	219.86	42.17	-50.8	-52.3	14.7	0.00e+00	0	24	0	1610612736	68	4114
2026-01-09 01:03:26.83	219.78	41.90	-50.4	-51.8	14.7	0.00e+00	0	24	0	1613758464	67	4105
2026-01-09 01:03:27.83	219.70	41.63	-50.2	-51.6	14.9	0.00e+00	0	24	0	1616904192	67	4010
2026-01-09 01:03:28.84	219.62	41.35	-50.1	-51.4	14.8	0.00e+00	0	24	0	1620049920	66	4177
2026-01-09 01:03:29.83	219.54	41.09	-49.7	-51.0	15.0	0.00e+00	0	24	0	1623195648	66	3994
2026-01-09 01:03:30.83	219.47	40.82	-49.8	-51.1	14.8	0.00e+00	0	24	0	1626341376	65	4288
2026-01-09 01:03:31.84	219.39	40.55	-50.3	-51.7	14.5	0.00e+00	0	24	0	1629487104	65	4588
2026-01-09 01:03:32.84	219.32	40.29	-50.9	-52.4	14.3	0.00e+00	0	24	0	1632632832	66	4683
2026-01-09 01:03:33.84	219.25	40.03	-51.2	-52.7	14.3	0.00e+00	0	24	0	1634729984	67	4582
2026-01-09 01:03:34.84	219.18	39.77	-51.2	-52.8	14.3	0.00e+00	0	24	0	1637875712	67	4629
2026-01-09 01:03:35.83	219.11	39.52	-51.3	-52.9	14.2	0.00e+00	0	24	0	1641021440	67	4703
2026-01-09 01:03:36.83	219.04	39.27	-51.1	-52.7	14.3	0.00e+00	0	24	0	1644167168	67	4560
2026-01-09 01:03:37.83	218.97	39.01	-51.0	-52.5	14.4	0.00e+00	0	24	0	1647312896	67	4483
2026-01-09 01:03:38.82	218.91	38.76	-50.8	-52.3	14.5	0.00e+00	0	24	0	1650458624	67	4363
2026-01-09 01:03:39.82	218.84	38.51	-50.9	-52.5	14.4	0.00e+00	0	24	0	1653604352	67	4450
2026-01-09 01:03:40.83	218.78	38.26	-51.0	-52.6	14.4	0.00e+00	0	24	0	1656750080	67	4496
2026-01-09 01:03:41.82	218.71	38.02	-50.8	-52.3	14.5	0.00e+00	0	24	0	1659895808	67	4376
2026-01-09 01:03:42.82	218.65	37.78	-50.9	-52.5	14.4	0.00e+00	0	24	0	1663041536	67	4444
2026-01-09 01:03:43.82	218.59	37.53	-50.9	-52.4	14.5	0.00e+00	0	24	0	1666187264	67	4432
2026-01-09 01:03:44.82	218.53	37.29	-51.1	-52.6	14.4	0.00e+00	0	24	0	1669332992	67	4536
2026-01-09 01:03:45.81	218.47	37.06	-51.1	-52.7	14.3	0.00e+00	0	24	0	1672478720	67	4555
2026-01-09 01:03:46.81	218.41	36.82	-50.9	-52.5	14.4	0.00e+00	0	24	0	1675624448	67	4453
2026-01-09 01:03:47.80	218.36	36.59	-50.9	-52.4	14.5	0.00e+00	0	24	0	1678770176	67	4434
2026-01-09 01:03:48.80	218.30	36.35	-50.9	-52.4	14.4	0.00e+00	0	24	0	1681915904	67	4439
2026-01-09 01:03:49.79	218.24	36.12	-50.6	-52.0	14.7	0.00e+00	0	24	0	1685061632	67	4234
2026-01-09 01:03:50.80	218.19	35.89	-50.4	-51.8	14.8	0.00e+00	0	24	0	1688207360	67	4118
2026-01-09 01:03:51.79	218.13	35.66	-50.3	-51.7	14.9	0.00e+00	0	24	0	1691353088	67	4068
2026-01-09 01:03:52.79	218.08	35.43	-50.2	-51.6	14.9	0.00e+00	0	24	0	1694498816	67	4048
2026-01-09 01:03:53.79	218.03	35.21	-50.1	-51.4	14.8	0.00e+00	0	24	0	1697644544	66	4193
2026-01-09 01:03:54.79	217.98	34.98	-49.9	-51.3	14.9	0.00e+00	0	24	0	1700790272	66	4111
2026-01-09 01:03:55.78	217.93	34.76	-49.9	-51.3	14.9	0.00e+00	0	24	0	1703936000	66	4125
2026-01-09 01:03:56.78	217.88	34.54	-50.0	-51.4	14.9	0.00e+00	0	24	0	1707081728	66	4150
2026-01-09 01:03:57.77	217.83	34.32	-50.1	-51.5	14.8	0.00e+00	0	24	0	1710227456	66	4217
2026-01-09 01:03:58.76	217.78	34.11	-50.2	-51.6	14.7	0.00e+00	0	24	0	1713373184	66	4290
2026-01-09 01:03:59.76	217.73	33.89	-50.2	-51.7	14.7	0.00e+00	0	24	0	1716518912	66	4292
2026-01-09 01:04:00.76	217.68	33.68	-50.2	-51.6	14.7	0.00e+00	0	24	0	1719664640	66	4267
2026-01-09 01:04:01.76	217.64	33.46	-50.0	-51.4	14.8	0.00e+00	0	24	0	1722810368	66	4147
2026-01-09 01:04:02.76	217.59	33.25	-49.9	-51.3	14.9	0.00e+00	0	24	0	1725956096	66	4102
2026-01-09 01:04:03.76	217.54	33.04	-49.5	-50.8	15.0	0.00e+00	0	24	0	1729101824	65	4126
2026-01-09 01:04:04.76	217.50	32.83	-49.4	-50.7	15.0	0.00e+00	0	24	0	1732247552	65	4061
2026-01-09 01:04:05.76	217.45	32.62	-49.4	-50.7	15.0	0.00e+00	0	24	0	1735393280	65	4069
2026-01-09 01:04:06.76	217.41	32.41	-49.0	-50.3	15.0	0.00e+00	0	24	0	1738539008	64	4113
2026-01-09 01:04:07.76	217.37	32.21	-48.7	-49.9	15.2	0.00e+00	0	24	0	1741684736	64	3922
2026-01-09 01:04:08.76	217.33	32.01	-48.6	-49.8	15.1	0.00e+00	0	24	0	1744830464	63	4106
2026-01-09 01:04:09.76	217.28	31.80	-48.6	-49.7	15.2	0.00e+00	0	24	0	1747976192	63	4097
2026-01-09 01:04:10.76	217.24	31.60	-48.5	-49.7	15.2	0.00e+00	0	24	0	1751121920	63	4054
2026-01-09 01:04:11.75	217.20	31.40	-48.3	-49.5	15.2	0.00e+00	0	24	0	1753219072	63	3967
2026-01-09 01:04:12.74	217.16	31.21	-48.4	-49.5	15.2	0.00e+00	0	24	0	1756364800	63	3999
2026-01-09 01:04:13.74	217.12	31.01	-48.3	-49.5	15.3	0.00e+00	0	24	0	1759510528	63	3971
2026-01-09 01:04:14.74	217.08	30.81	-48.4	-49.5	15.2	0.00e+00	0	24	0	1762656256	63	4004
2026-01-09 01:04:15.73	217.04	30.62	-48.5	-49.7	15.2	0.00e+00	0	24	0	1765801984	63	4062
2026-01-09 01:04:16.72	217.01	30.43	-48.5	-49.7	15.2	0.00e+00	0	24	0	1768947712	63	4082
2026-01-09 01:04:17.72	216.97	30.24	-48.6	-49.8	15.1	0.00e+00	0	24	0	1772093440	63	4115
2026-01-09 01:04:18.72	216.93	30.05	-48.5	-49.7	15.2	0.00e+00	0	24	0	1775239168	63	4066
2026-01-09 01:04:19.71	216.89	29.86	-48.6	-49.8	15.1	0.00e+00	0	24	0	1778384896	63	4130
2026-01-09 01:04:20.72	216.86	29.67	-48.5	-49.7	15.2	0.00e+00	0	24	0	1781530624	63	4092
2026-01-09 01:04:21.72	216.82	29.48	-48.6	-49.8	15.1	0.00e+00	0	24	0	1784676352	63	4119
2026-01-09 01:04:22.72	216.79	29.30	-48.6	-49.8	15.1	0.00e+00	0	24	0	1787822080	63	4124
2026-01-09 01:04:23.71	216.75	29.11	-48.7	-49.9	15.1	0.00e+00	0	24	0	1790967808	63	4160
2026-01-09 01:04:24.71	216.72	28.93	-48.8	-50.0	15.0	0.00e+00	0	24	0	1794113536	63	4208
2026-01-09 01:04:25.71	216.68	28.75	-48.6	-49.9	15.1	0.00e+00	0	24	0	1797259264	63	4150
2026-01-09 01:04:26.71	216.65	28.57	-48.6	-49.8	15.1	0.00e+00	0	24	0	1800404992	63	4129
2026-01-09 01:04:27.71	216.62	28.39	-48.5	-49.7	15.1	0.00e+00	0	24	0	1803550720	63	4097
2026-01-09 01:04:28.71	216.58	28.21	-48.3	-49.5	15.2	0.00e+00	0	24	0	1806696448	63	3999
2026-01-09 01:04:29.71	216.55	28.03	-48.2	-49.4	15.3	0.00e+00	0	24	0	1809842176	63	3943
2026-01-09 01:04:30.71	216.52	27.85	-48.3	-49.5	15.3	0.00e+00	0	24	0	1812987904	63	3961
2026-01-09 01:04:31.71	216.49	27.68	-48.3	-49.5	15.3	0.00e+00	0	24	0	1816133632	63	3976
2026-01-09 01:04:32.71	216.46	27.50	-48.2	-49.3	15.1	0.00e+00	0	24	0	1819279360	62	4135
2026-01-09 01:04:33.71	216.42	27.33	-48.0	-49.2	15.2	0.00e+00	0	24	0	1822425088	62	4068
2026-01-09 01:04:34.71	216.39	27.16	-48.1	-49.2	15.2	0.00e+00	0	24	0	1825570816	62	4086
2026-01-09 01:04:35.70	216.36	26.99	-48.1	-49.3	15.1	0.00e+00	0	24	0	1828716544	62	4137
2026-01-09 01:04:36.70	216.33	26.82	-48.2	-49.4	15.1	0.00e+00	0	24	0	1831862272	62	4147
2026-01-09 01:04:37.70	216.30	26.65	-48.2	-49.4	15.1	0.00e+00	0	24	0	1835008000	62	4180
2026-01-09 01:04:38.69	216.28	26.48	-48.2	-49.4	15.1	0.00e+00	0	24	0	1838153728	62	4188
2026-01-09 01:04:39.69	216.25	26.31	-48.3	-49.5	15.1	0.00e+00	0	24	0	1841299456	62	4210
2026-01-09 01:04:40.70	216.22	26.15	-48.3	-49.6	15.1	0.00e+00	0	24	0	1844445184	62	4249
2026-01-09 01:04:41.69	216.19	25.98	-48.4	-49.6	15.0	0.00e+00	0	24	0	1847590912	62	4274
2026-01-09 01:04:42.69	216.16	25.82	-48.4	-49.6	15.0	0.00e+00	0	24	0	1850736640	62	4258
2026-01-09 01:04:43.69	216.14	25.66	-48.3	-49.5	15.1	0.00e+00	0	24	0	1853882368	62	4220
2026-01-09 01:04:44.67	216.11	25.50	-48.4	-49.6	15.0	0.00e+00	0	24	0	1857028096	62	4253
2026-01-09 01:04:45.67	216.08	25.34	-48.4	-49.6	15.0	0.00e+00	0	24	0	1860173824	62	4269
2026-01-09 01:04:46.66	216.06	25.18	-48.4	-49.6	15.0	0.00e+00	0	24	0	1863319552	62	4281
2026-01-09 01:04:47.66	216.03	25.02	-48.3	-49.5	15.1	0.00e+00	0	24	0	1866465280	62	4223
2026-01-09 01:04:48.65	216.00	24.86	-48.3	-49.5	15.0	0.00e+00	0	24	0	1868562432	62	4227
2026-01-09 01:04:49.64	215.98	24.71	-48.3	-49.5	15.1	0.00e+00	0	24	0	1871708160	62	4198
2026-01-09 01:04:50.63	215.95	24.55	-48.4	-49.6	15.0	0.00e+00	0	24	0	1874853888	62	4274
2026-01-09 01:04:51.63	215.93	24.40	-48.3	-49.5	15.0	0.00e+00	0	24	0	1877999616	62	4236
2026-01-09 01:04:52.63	215.90	24.24	-48.4	-49.7	15.0	0.00e+00	0	24	0	1881145344	62	4295
2026-01-09 01:04:53.63	215.88	24.09	-48.3	-49.5	15.0	0.00e+00	0	24	0	1884291072	62	4233
2026-01-09 01:04:54.62	215.85	23.94	-48.4	-49.6	15.0	0.00e+00	0	24	0	1887436800	62	4252
2026-01-09 01:04:55.63	215.83	23.78	-48.4	-49.6	15.0	0.00e+00	0	24	0	1890582528	62	4282
2026-01-09 01:04:56.63	215.81	23.63	-48.4	-49.6	15.0	0.00e+00	0	24	0	1893728256	62	4278
2026-01-09 01:04:57.63	215.78	23.48	-48.5	-49.7	15.0	0.00e+00	0	24	0	1896873984	62	4319
2026-01-09 01:04:58.63	215.76	23.33	-48.5	-49.7	14.9	0.00e+00	0	24	0	1900019712	62	4316
2026-01-09 01:04:59.62	215.74	23.19	-48.5	-49.7	14.9	0.00e+00	0	24	0	1903165440	62	4331
2026-01-09 01:05:00.63	215.71	23.04	-48.4	-49.7	15.0	0.00e+00	0	24	0	1906311168	62	4309
2026-01-09 01:05:01.63	215.69	22.89	-48.5	-49.7	15.0	0.00e+00	0	24	0	1909456896	62	4309
2026-01-09 01:05:02.63	215.67	22.74	-48.3	-49.5	15.1	0.00e+00	0	24	0	1912602624	62	4226
2026-01-09 01:05:03.62	215.65	22.60	-48.3	-49.5	15.0	0.00e+00	0	24	0	1915748352	62	4228
2026-01-09 01:05:04.62	215.63	22.46	-48.3	-49.5	15.1	0.00e+00	0	24	0	1918894080	62	4230
2026-01-09 01:05:05.63	215.60	22.31	-48.1	-49.3	15.1	0.00e+00	0	24	0	1922039808	62	4136
2026-01-09 01:05:06.62	215.58	22.17	-48.2	-49.4	15.1	0.00e+00	0	24	0	1925185536	62	4151
2026-01-09 01:05:07.62	215.56	22.03	-48.2	-49.4	15.1	0.00e+00	0	24	0	1928331264	62	4169
2026-01-09 01:05:08.62	215.54	21.89	-48.2	-49.4	15.1	0.00e+00	0	24	0	1931476992	62	4168
2026-01-09 01:05:09.62	215.52	21.75	-48.2	-49.4	15.1	0.00e+00	0	24	0	1934622720	62	4175
2026-01-09 01:05:10.61	215.50	21.61	-48.1	-49.4	15.1	0.00e+00	0	24	0	1937768448	62	4147
2026-01-09 01:05:11.61	215.48	21.47	-48.0	-49.2	15.2	0.00e+00	0	24	0	1940914176	62	4073
2026-01-09 01:05:12.61	215.46	21.33	-47.9	-49.1	15.3	0.00e+00	0	24	0	1944059904	62	4020
2026-01-09 01:05:13.61	215.44	21.19	-47.9	-49.1	15.3	0.00e+00	0	24	0	1947205632	62	4028
2026-01-09 01:05:14.60	215.42	21.06	-48.0	-49.1	15.2	0.00e+00	0	24	0	1950351360	62	4039
2026-01-09 01:05:15.60	215.40	20.92	-47.8	-49.0	15.3	0.00e+00	0	24	0	1953497088	62	3985
2026-01-09 01:05:16.60	215.38	20.79	-48.0	-49.2	15.2	0.00e+00	0	24	0	1956642816	62	4060
2026-01-09 01:05:17.60	215.36	20.65	-48.0	-49.2	15.2	0.00e+00	0	24	0	1959788544	62	4063
2026-01-09 01:05:18.61	215.34	20.52	-48.1	-49.3	15.2	0.00e+00	0	24	0	1962934272	62	4113
2026-01-09 01:05:19.60	215.32	20.39	-48.0	-49.1	15.2	0.00e+00	0	24	0	1966080000	62	4047
2026-01-09 01:05:20.60	215.31	20.25	-47.9	-49.1	15.2	0.00e+00	0	24	0	1969225728	62	4033
2026-01-09 01:05:21.59	215.29	20.12	-48.0	-49.2	15.2	0.00e+00	0	24	0	1972371456	62	4064
2026-01-09 01:05:22.59	215.27	19.99	-48.0	-49.2	15.2	0.00e+00	0	24	0	1975517184	62	4096
2026-01-09 01:05:23.59	215.25	19.86	-48.1	-49.3	15.2	0.00e+00	0	24	0	1978662912	62	4100
2026-01-09 01:05:24.60	215.23	19.73	-48.1	-49.3	15.1	0.00e+00	0	24	0	1981808640	62	4144
2026-01-09 01:05:25.59	215.22	19.60	-48.2	-49.4	15.1	0.00e+00	0	24	0	1984954368	62	4163
2026-01-09 01:05:26.59	215.20	19.48	-48.2	-49.4	15.1	0.00e+00	0	24	0	1987051520	62	4160
2026-01-09 01:05:27.60	215.18	19.35	-48.2	-49.4	15.1	0.00e+00	0	24	0	1990197248	62	4172
2026-01-09 01:05:28.59	215.17	19.22	-48.2	-49.4	15.1	0.00e+00	0	24	0	1993342976	62	4193
2026-01-09 01:05:29.59	215.15	19.09	-48.2	-49.5	15.1	0.00e+00	0	24	0	1996488704	62	4199
2026-01-09 01:05:30.59	215.13	18.97	-48.3	-49.6	15.0	0.00e+00	0	24	0	1999634432	62	4259
2026-01-09 01:05:31.59	215.12	18.84	-48.3	-49.5	15.0	0.00e+00	0	24	0	2002780160	62	4230
2026-01-09 01:05:32.59	215.10	18.72	-48.3	-49.6	15.0	0.00e+00	0	24	0	2005925888	62	4246
2026-01-09 01:05:33.59	215.08	18.60	-48.3	-49.5	15.0	0.00e+00	0	24	0	2009071616	62	4230
2026-01-09 01:05:34.59	215.07	18.47	-48.4	-49.6	15.0	0.00e+00	0	24	0	2012217344	62	4265
2026-01-09 01:05:35.58	215.05	18.35	-48.5	-49.7	15.0	0.00e+00	0	24	0	2015363072	62	4330
2026-01-09 01:05:36.58	215.04	18.23	-48.5	-49.8	14.9	0.00e+00	0	24	0	2018508800	62	4341
2026-01-09 01:05:37.57	215.02	18.11	-48.5	-49.8	14.9	0.00e+00	0	24	0	2021654528	62	4350
2026-01-09 01:05:38.57	215.00	17.99	-48.5	-49.7	15.0	0.00e+00	0	24	0	2024800256	62	4334
2026-01-09 01:05:39.57	214.99	17.87	-48.4	-49.7	15.0	0.00e+00	0	24	0	2027945984	62	4312
2026-01-09 01:05:40.57	214.97	17.75	-48.6	-49.8	14.9	0.00e+00	0	24	0	2031091712	62	4381
2026-01-09 01:05:41.57	214.96	17.63	-48.5	-49.8	15.0	0.00e+00	0	24	0	2034237440	62	4349
2026-01-09 01:05:42.56	214.94	17.51	-48.4	-49.7	15.0	0.00e+00	0	24	0	2037383168	62	4302
2026-01-09 01:05:43.56	214.93	17.39	-48.5	-49.8	15.0	0.00e+00	0	24	0	2040528896	62	4352
2026-01-09 01:05:44.56	214.92	17.28	-48.5	-49.7	15.0	0.00e+00	0	24	0	2043674624	62	4336
