passes_logs/2026/01/09/R3.2S_Murmansk/R3.2S_Murmansk__20260109_044330_SUOMI_NPP_rec.log

#Pass ID: 20260109_044330_SUOMI NPP
#Satellite: SUOMI NPP
#Configuration: NPP
#almurnet v.1.7.20251203
#Start time: 2026-01-09 04:43:32

#Version: 2.2.20231116
#Station: R3.2S_Murmansk
#Location: 33.079688 lon 68.888172 lat
#TLE: 1 37849U 11061A   26008.05542337  .00000108  00000+0  71976-4 0  9997
#TLE: 2 37849  98.7805 310.1641 0002540  75.6410 284.5048 14.19523335735721

#Time	Az	El	Level	Level2	SNR	BER	BlckErr	Temp	State	Recorded	gain1	gain2
2026-01-09 04:43:32.00	54.90	2.09	-57.3	-73.3	3.8	1.49e+00	0	22	0	0	81	21792
2026-01-09 04:43:33.01	54.84	2.15	-57.2	-73.2	3.8	1.49e+00	0	22	104	0	79	24359
2026-01-09 04:43:34.01	54.78	2.20	-57.2	-73.2	3.8	1.49e+00	0	22	104	0	79	24332
2026-01-09 04:43:35.01	54.71	2.26	-57.2	-73.2	3.8	1.49e+00	0	22	104	0	79	24300
2026-01-09 04:43:36.01	54.65	2.32	-57.2	-73.2	3.8	1.49e+00	0	22	104	0	79	24323
2026-01-09 04:43:37.00	54.59	2.37	-57.2	-73.2	3.8	1.49e+00	0	22	104	0	79	24306
2026-01-09 04:43:38.00	54.52	2.43	-57.2	-73.2	3.8	1.49e+00	0	22	104	0	79	24270
2026-01-09 04:43:39.01	54.46	2.49	-57.2	-73.2	3.8	1.49e+00	0	22	104	0	79	24334
2026-01-09 04:43:40.01	54.39	2.55	-57.2	-73.2	3.8	1.49e+00	0	22	104	0	79	24223
2026-01-09 04:43:41.01	54.32	2.61	-57.2	-73.2	3.8	1.49e+00	0	22	104	0	79	24290
2026-01-09 04:43:42.01	54.26	2.66	-57.2	-73.2	3.8	1.49e+00	0	22	104	0	79	24189
2026-01-09 04:43:43.01	54.19	2.72	-57.2	-73.2	3.8	1.49e+00	0	22	104	0	79	24217
2026-01-09 04:43:44.01	54.13	2.78	-57.2	-73.2	3.8	1.49e+00	0	22	104	0	79	24251
2026-01-09 04:43:45.00	54.06	2.84	-57.2	-73.2	3.8	1.49e+00	0	22	104	0	79	24201
2026-01-09 04:43:46.00	53.99	2.89	-57.2	-73.2	3.8	1.49e+00	0	22	104	0	79	24341
2026-01-09 04:43:47.00	53.93	2.95	-57.2	-73.2	3.8	1.49e+00	0	22	104	0	79	24269
2026-01-09 04:43:48.00	53.86	3.01	-57.2	-73.2	3.8	1.49e+00	0	22	104	0	79	24249
2026-01-09 04:43:49.01	53.79	3.07	-57.2	-73.2	3.8	1.49e+00	0	22	104	0	79	24324
2026-01-09 04:43:50.00	53.72	3.13	-57.2	-73.2	3.8	1.49e+00	0	22	104	0	79	24346
2026-01-09 04:43:51.00	53.66	3.19	-57.2	-73.2	3.8	1.49e+00	0	22	104	0	79	24277
2026-01-09 04:43:52.01	53.59	3.24	-57.2	-73.2	3.8	1.49e+00	0	22	104	0	79	24364
2026-01-09 04:43:53.00	53.52	3.30	-57.2	-73.3	3.8	1.49e+00	0	22	104	0	79	24451
2026-01-09 04:43:54.00	53.45	3.36	-57.2	-73.2	3.8	1.49e+00	0	22	104	0	79	24395
2026-01-09 04:43:55.00	53.38	3.42	-57.2	-73.2	3.8	1.49e+00	0	22	104	0	79	24325
2026-01-09 04:43:56.00	53.31	3.48	-57.2	-73.2	3.8	1.49e+00	0	22	104	0	79	24319
2026-01-09 04:43:56.99	53.24	3.54	-57.3	-73.2	3.8	1.49e+00	0	22	104	0	79	24266
2026-01-09 04:43:57.99	53.17	3.60	-57.2	-73.2	3.8	1.49e+00	0	22	104	0	79	24254
2026-01-09 04:43:58.98	53.10	3.65	-57.2	-73.2	3.8	1.49e+00	0	22	104	0	79	24296
2026-01-09 04:43:59.99	53.03	3.71	-57.2	-73.2	3.8	1.49e+00	0	22	104	0	79	24332
2026-01-09 04:44:00.99	52.96	3.77	-57.2	-73.2	3.8	1.49e+00	0	22	104	0	79	24408
2026-01-09 04:44:01.98	52.89	3.83	-57.2	-73.2	3.8	1.49e+00	0	22	104	0	79	24358
2026-01-09 04:44:02.99	52.81	3.89	-57.2	-73.2	3.8	1.49e+00	0	22	104	0	79	24222
2026-01-09 04:44:03.99	52.74	3.95	-57.2	-73.1	3.8	1.49e+00	0	22	104	0	79	24062
2026-01-09 04:44:04.98	52.67	4.01	-57.2	-73.1	3.8	1.49e+00	0	22	104	0	79	23951
2026-01-09 04:44:05.98	52.60	4.07	-57.2	-73.1	3.8	1.49e+00	0	22	104	0	79	23986
2026-01-09 04:44:06.98	52.52	4.13	-57.2	-73.1	3.8	1.49e+00	0	22	104	0	79	24053
2026-01-09 04:44:07.98	52.45	4.19	-57.2	-73.2	3.8	1.49e+00	0	23	104	0	79	24332
2026-01-09 04:44:08.99	52.38	4.25	-57.3	-73.2	3.8	1.49e+00	0	22	104	0	79	24359
2026-01-09 04:44:09.99	52.30	4.31	-57.2	-73.1	3.8	1.49e+00	0	23	104	0	79	24067
2026-01-09 04:44:10.99	52.23	4.37	-57.2	-72.9	3.8	1.49e+00	0	23	104	0	79	23424
2026-01-09 04:44:11.98	52.15	4.43	-57.2	-72.4	3.8	1.49e+00	0	22	104	0	79	22047
2026-01-09 04:44:12.98	52.08	4.49	-57.2	-71.9	3.8	1.49e+00	0	22	104	0	79	20854
2026-01-09 04:44:13.97	52.01	4.55	-57.1	-71.2	3.8	1.49e+00	0	23	104	0	79	19290
2026-01-09 04:44:14.98	51.93	4.61	-57.1	-70.5	3.9	1.48e+00	0	23	104	0	79	17888
2026-01-09 04:44:15.98	51.85	4.67	-57.1	-69.8	4.2	1.42e+00	0	23	0	0	79	16333
2026-01-09 04:44:16.98	51.78	4.73	-57.0	-68.6	4.5	1.11e+00	0	23	0	1048576	79	14286
2026-01-09 04:44:17.98	51.70	4.79	-56.9	-67.6	4.9	8.42e-01	0	23	0	2097152	79	12798
2026-01-09 04:44:18.98	51.62	4.85	-56.9	-67.2	5.1	5.87e-01	0	23	0	4194304	79	12195
2026-01-09 04:44:19.97	51.55	4.92	-56.8	-66.6	5.5	4.34e-01	0	23	0	6291456	79	11416
2026-01-09 04:44:20.98	51.47	4.98	-56.7	-66.0	5.9	3.84e-01	0	23	0	8388608	79	10592
2026-01-09 04:44:21.98	51.39	5.04	-56.7	-65.8	6.1	2.73e-01	0	23	0	10485760	79	10297
2026-01-09 04:44:22.97	51.31	5.10	-57.1	-68.2	4.8	5.61e-01	0	23	0	11534336	79	13606
2026-01-09 04:44:23.97	51.23	5.16	-57.0	-68.2	4.7	7.77e-01	0	23	0	13631488	79	13707
2026-01-09 04:44:24.97	51.16	5.22	-56.8	-67.0	5.3	4.60e-01	0	23	0	15728640	79	11950
2026-01-09 04:44:25.97	51.08	5.28	-55.0	-59.6	11.3	7.02e-03	0	23	0	17825792	76	6019
2026-01-09 04:44:26.98	51.00	5.34	-57.2	-72.4	3.8	5.65e-01	0	23	104	18874368	79	22058
2026-01-09 04:44:27.98	50.92	5.41	-55.4	-60.5	10.6	1.07e+00	0	23	0	18874368	77	6333
2026-01-09 04:44:28.97	50.84	5.47	-55.2	-60.0	11.0	2.61e-04	0	23	0	20971520	76	6313
2026-01-09 04:44:29.97	50.76	5.53	-55.0	-59.6	11.3	2.11e-04	0	23	0	22020096	76	6039
2026-01-09 04:44:30.97	50.67	5.59	-54.9	-59.2	11.6	6.40e-05	0	23	0	24117248	76	5763
2026-01-09 04:44:31.97	50.59	5.65	-54.8	-59.1	11.8	2.21e-05	0	23	0	26214400	76	5711
2026-01-09 04:44:32.98	50.51	5.72	-54.3	-58.1	12.5	4.50e-06	0	23	0	28311552	75	5375
2026-01-09 04:44:33.98	50.43	5.78	-54.0	-57.6	12.7	7.00e-07	0	23	0	30408704	74	5402
2026-01-09 04:44:34.98	50.35	5.84	-53.5	-56.8	13.2	0.00e+00	0	23	0	31457280	73	5178
2026-01-09 04:44:35.98	50.26	5.90	-53.5	-56.8	13.2	0.00e+00	0	23	0	33554432	73	5176
2026-01-09 04:44:36.98	50.18	5.97	-53.7	-57.1	12.9	0.00e+00	0	23	0	35651584	73	5342
2026-01-09 04:44:37.98	50.10	6.03	-53.7	-57.2	12.9	0.00e+00	0	23	0	37748736	73	5416
2026-01-09 04:44:38.97	50.01	6.09	-53.7	-57.0	13.0	0.00e+00	0	23	0	39845888	73	5337
2026-01-09 04:44:39.98	49.93	6.15	-53.9	-57.4	12.8	7.00e-07	0	23	0	40894464	73	5544
2026-01-09 04:44:40.97	49.84	6.22	-53.7	-57.1	12.9	0.00e+00	0	23	0	42991616	73	5376
2026-01-09 04:44:41.97	49.76	6.28	-53.7	-57.1	13.0	0.00e+00	0	23	0	45088768	73	5356
2026-01-09 04:44:42.97	49.67	6.34	-53.7	-57.0	13.0	7.00e-07	0	23	0	47185920	73	5325
2026-01-09 04:44:43.97	49.59	6.40	-53.6	-56.9	13.1	0.00e+00	0	23	0	48234496	73	5259
2026-01-09 04:44:44.97	49.50	6.47	-53.5	-56.8	13.3	0.00e+00	0	23	0	50331648	73	5173
2026-01-09 04:44:45.96	49.41	6.53	-53.6	-56.9	13.1	0.00e+00	0	23	0	52428800	73	5250
2026-01-09 04:44:46.96	49.33	6.59	-53.5	-56.7	13.3	0.00e+00	0	23	0	54525952	73	5118
2026-01-09 04:44:47.96	49.24	6.66	-53.8	-57.2	13.0	0.00e+00	0	23	0	56623104	73	5409
2026-01-09 04:44:48.97	49.15	6.72	-53.5	-56.8	13.3	0.00e+00	0	23	0	57671680	73	5163
2026-01-09 04:44:49.97	49.06	6.79	-53.7	-57.1	13.1	0.00e+00	0	23	0	59768832	73	5342
2026-01-09 04:44:50.97	48.97	6.85	-53.7	-57.2	13.0	0.00e+00	0	23	0	61865984	73	5408
2026-01-09 04:44:51.97	48.89	6.91	-53.7	-57.1	13.0	0.00e+00	0	23	0	63963136	73	5362
2026-01-09 04:44:52.96	48.80	6.98	-53.7	-57.1	12.9	0.00e+00	0	23	0	66060288	73	5394
2026-01-09 04:44:53.96	48.71	7.04	-53.9	-57.4	12.8	0.00e+00	0	23	0	67108864	73	5589
2026-01-09 04:44:54.96	48.62	7.10	-53.8	-57.3	12.9	0.00e+00	0	23	0	69206016	73	5481
2026-01-09 04:44:55.96	48.53	7.17	-53.8	-57.2	12.9	0.00e+00	0	23	0	71303168	73	5462
2026-01-09 04:44:56.96	48.43	7.23	-53.7	-57.2	13.0	0.00e+00	0	23	0	73400320	73	5419
2026-01-09 04:44:57.96	48.34	7.30	-53.7	-57.1	13.1	0.00e+00	0	23	0	74448896	73	5385
2026-01-09 04:44:58.96	48.25	7.36	-53.8	-57.4	12.8	0.00e+00	0	23	0	76546048	73	5578
2026-01-09 04:44:59.96	48.16	7.43	-53.8	-57.4	12.9	0.00e+00	0	23	0	78643200	73	5532
2026-01-09 04:45:00.96	48.07	7.49	-53.7	-57.2	13.0	0.00e+00	0	23	0	80740352	73	5452
2026-01-09 04:45:01.95	47.97	7.55	-53.6	-57.1	13.1	0.00e+00	0	23	0	82837504	73	5348
2026-01-09 04:45:02.95	47.88	7.62	-53.7	-57.1	13.0	0.00e+00	0	23	0	83886080	73	5398
2026-01-09 04:45:03.94	47.79	7.68	-53.5	-56.9	13.3	0.00e+00	0	23	0	85983232	73	5222
2026-01-09 04:45:04.94	47.69	7.75	-53.5	-56.8	13.3	0.00e+00	0	23	0	88080384	73	5202
2026-01-09 04:45:05.94	47.60	7.81	-53.5	-56.8	13.3	0.00e+00	0	23	0	90177536	73	5163
2026-01-09 04:45:06.93	47.50	7.88	-53.5	-56.8	13.3	0.00e+00	0	23	0	91226112	73	5175
2026-01-09 04:45:07.93	47.41	7.94	-53.5	-56.8	13.4	0.00e+00	0	23	0	93323264	73	5183
2026-01-09 04:45:08.94	47.31	8.01	-53.4	-56.7	13.4	0.00e+00	0	23	0	95420416	73	5124
2026-01-09 04:45:09.94	47.21	8.08	-53.3	-56.6	13.5	0.00e+00	0	23	0	97517568	73	5042
2026-01-09 04:45:10.93	47.12	8.14	-53.1	-56.2	13.7	0.00e+00	0	23	0	99614720	72	5123
2026-01-09 04:45:11.93	47.02	8.21	-53.2	-56.3	13.5	0.00e+00	0	23	0	100663296	72	5203
2026-01-09 04:45:12.92	46.92	8.27	-53.0	-56.1	13.7	0.00e+00	0	23	0	102760448	72	5063
2026-01-09 04:45:13.92	46.82	8.34	-53.0	-56.0	13.7	0.00e+00	0	23	0	104857600	72	4986
2026-01-09 04:45:14.91	46.73	8.40	-53.0	-56.1	13.7	0.00e+00	0	23	0	106954752	72	5052
2026-01-09 04:45:15.91	46.63	8.47	-53.0	-55.9	13.8	0.00e+00	0	23	0	109051904	72	4946
2026-01-09 04:45:16.91	46.53	8.53	-53.0	-55.9	13.8	0.00e+00	0	23	0	110100480	72	4963
2026-01-09 04:45:17.90	46.43	8.60	-52.9	-55.7	13.9	0.00e+00	0	23	0	112197632	72	4861
2026-01-09 04:45:18.90	46.33	8.67	-52.9	-55.8	13.9	0.00e+00	0	23	0	114294784	72	4892
2026-01-09 04:45:19.90	46.22	8.73	-53.1	-56.1	13.7	0.00e+00	0	23	0	116391936	72	5071
2026-01-09 04:45:20.90	46.12	8.80	-52.9	-55.7	13.9	0.00e+00	0	23	0	117440512	72	4849
2026-01-09 04:45:21.90	46.02	8.87	-52.9	-55.8	13.9	0.00e+00	0	23	0	119537664	72	4881
2026-01-09 04:45:22.90	45.92	8.93	-52.9	-55.8	13.9	0.00e+00	0	23	0	121634816	72	4899
2026-01-09 04:45:23.89	45.81	9.00	-52.9	-55.7	13.9	0.00e+00	0	23	0	123731968	72	4821
2026-01-09 04:45:24.90	45.71	9.07	-52.9	-55.7	14.0	0.00e+00	0	23	0	125829120	72	4837
2026-01-09 04:45:25.89	45.61	9.13	-52.9	-55.7	14.0	0.00e+00	0	23	0	126877696	72	4832
2026-01-09 04:45:26.90	45.50	9.20	-52.8	-55.5	14.1	0.00e+00	0	23	0	128974848	72	4718
2026-01-09 04:45:27.90	45.40	9.27	-52.8	-55.6	14.0	0.00e+00	0	23	0	131072000	72	4793
2026-01-09 04:45:28.90	45.29	9.33	-52.8	-55.5	14.1	0.00e+00	0	23	0	133169152	72	4738
2026-01-09 04:45:29.90	45.18	9.40	-52.9	-55.7	14.0	0.00e+00	0	23	0	135266304	72	4836
2026-01-09 04:45:30.89	45.08	9.47	-53.1	-56.0	13.8	0.00e+00	0	23	0	136314880	72	4984
2026-01-09 04:45:31.89	44.97	9.53	-52.9	-55.7	14.0	0.00e+00	0	23	0	138412032	72	4828
2026-01-09 04:45:32.89	44.86	9.60	-53.0	-55.8	13.9	0.00e+00	0	23	0	140509184	72	4902
2026-01-09 04:45:33.89	44.75	9.67	-53.1	-56.0	13.7	0.00e+00	0	23	0	142606336	72	5004
2026-01-09 04:45:34.89	44.65	9.74	-53.0	-55.8	13.9	0.00e+00	0	23	0	143654912	72	4909
2026-01-09 04:45:35.89	44.54	9.81	-53.0	-55.8	13.9	0.00e+00	0	23	0	145752064	72	4912
2026-01-09 04:45:36.88	44.43	9.87	-53.1	-56.1	13.7	0.00e+00	0	23	0	147849216	72	5044
2026-01-09 04:45:37.88	44.32	9.94	-53.1	-56.0	13.7	0.00e+00	0	23	0	149946368	72	5023
2026-01-09 04:45:38.87	44.21	10.01	-53.1	-55.9	13.9	0.00e+00	0	23	0	152043520	72	4942
2026-01-09 04:45:39.88	44.09	10.08	-53.0	-55.8	13.9	0.00e+00	0	23	0	153092096	72	4910
2026-01-09 04:45:40.88	43.98	10.14	-53.1	-56.0	13.7	0.00e+00	0	23	0	155189248	72	5012
2026-01-09 04:45:41.88	43.87	10.21	-53.1	-56.0	13.8	0.00e+00	0	23	0	157286400	72	5008
2026-01-09 04:45:42.88	43.76	10.28	-53.2	-56.0	13.8	0.00e+00	0	23	0	159383552	72	5037
2026-01-09 04:45:43.88	43.64	10.35	-53.2	-56.1	13.7	0.00e+00	0	23	0	161480704	72	5078
2026-01-09 04:45:44.88	43.53	10.42	-53.2	-56.0	13.8	0.00e+00	0	23	0	162529280	72	5004
2026-01-09 04:45:45.87	43.42	10.49	-53.2	-56.0	13.8	0.00e+00	0	23	0	164626432	72	5011
2026-01-09 04:45:46.87	43.30	10.55	-53.2	-56.1	13.7	0.00e+00	0	23	0	166723584	72	5089
2026-01-09 04:45:47.87	43.18	10.62	-53.2	-56.1	13.7	0.00e+00	0	23	0	168820736	72	5045
2026-01-09 04:45:48.87	43.07	10.69	-53.3	-56.3	13.6	0.00e+00	0	23	0	170917888	72	5169
2026-01-09 04:45:49.87	42.95	10.76	-53.3	-56.2	13.6	0.00e+00	0	23	0	171966464	72	5128
2026-01-09 04:45:50.87	42.83	10.83	-53.3	-56.2	13.6	0.00e+00	0	23	0	174063616	72	5120
2026-01-09 04:45:51.87	42.72	10.90	-53.3	-56.3	13.6	0.00e+00	0	23	0	176160768	72	5169
2026-01-09 04:45:52.88	42.60	10.97	-53.1	-56.0	13.8	0.00e+00	0	24	0	178257920	72	5018
2026-01-09 04:45:53.88	42.48	11.04	-53.0	-55.8	13.9	0.00e+00	0	23	0	179306496	72	4922
2026-01-09 04:45:54.87	42.36	11.11	-53.0	-55.9	13.9	0.00e+00	0	23	0	181403648	72	4930
2026-01-09 04:45:55.87	42.24	11.17	-53.1	-55.9	13.9	0.00e+00	0	23	0	183500800	72	4953
2026-01-09 04:45:56.87	42.12	11.24	-53.1	-55.8	13.9	0.00e+00	0	23	0	185597952	72	4920
2026-01-09 04:45:57.87	41.99	11.31	-53.1	-55.8	13.9	0.00e+00	0	23	0	187695104	72	4921
2026-01-09 04:45:58.88	41.87	11.38	-53.0	-55.8	13.9	0.00e+00	0	23	0	188743680	72	4879
2026-01-09 04:45:59.87	41.75	11.45	-52.9	-55.6	14.1	0.00e+00	0	23	0	190840832	72	4774
2026-01-09 04:46:00.87	41.63	11.52	-52.8	-55.5	14.1	0.00e+00	0	23	0	192937984	72	4756
2026-01-09 04:46:01.86	41.50	11.59	-52.9	-55.6	14.0	0.00e+00	0	23	0	195035136	72	4805
2026-01-09 04:46:02.86	41.38	11.66	-52.9	-55.5	14.1	0.00e+00	0	24	0	196083712	72	4755
2026-01-09 04:46:03.85	41.26	11.73	-52.8	-55.4	14.2	0.00e+00	0	23	0	198180864	72	4677
2026-01-09 04:46:04.85	41.13	11.80	-52.7	-55.3	14.2	0.00e+00	0	23	0	200278016	72	4622
2026-01-09 04:46:05.85	41.00	11.87	-52.7	-55.2	14.3	0.00e+00	0	23	0	202375168	72	4597
2026-01-09 04:46:06.85	40.88	11.94	-52.3	-54.8	14.4	0.00e+00	0	23	0	204472320	71	4636
2026-01-09 04:46:07.85	40.75	12.01	-52.5	-55.0	14.3	0.00e+00	0	23	0	205520896	71	4736
2026-01-09 04:46:08.85	40.62	12.08	-52.3	-54.8	14.4	0.00e+00	0	24	0	207618048	71	4615
2026-01-09 04:46:09.85	40.49	12.15	-52.5	-55.0	14.3	0.00e+00	0	23	0	209715200	71	4745
2026-01-09 04:46:10.84	40.36	12.22	-52.6	-55.3	14.1	0.00e+00	0	23	0	211812352	71	4879
2026-01-09 04:46:11.85	40.23	12.29	-52.6	-55.2	14.2	0.00e+00	0	23	0	213909504	71	4847
2026-01-09 04:46:12.84	40.10	12.36	-52.5	-55.0	14.2	0.00e+00	0	23	0	214958080	71	4750
2026-01-09 04:46:13.85	39.97	12.43	-52.4	-54.8	14.4	0.00e+00	0	23	0	217055232	71	4640
2026-01-09 04:46:14.85	39.84	12.50	-52.3	-54.7	14.5	0.00e+00	0	23	0	219152384	71	4578
2026-01-09 04:46:15.85	39.70	12.57	-52.3	-54.7	14.5	0.00e+00	0	23	0	221249536	71	4587
2026-01-09 04:46:16.84	39.57	12.64	-52.4	-54.9	14.4	0.00e+00	0	23	0	222298112	71	4666
2026-01-09 04:46:17.84	39.44	12.71	-52.5	-55.0	14.3	0.00e+00	0	23	0	224395264	71	4711
2026-01-09 04:46:18.84	39.30	12.78	-52.5	-55.0	14.3	0.00e+00	0	24	0	226492416	71	4747
2026-01-09 04:46:19.84	39.17	12.85	-52.5	-54.9	14.4	0.00e+00	0	23	0	228589568	71	4686
2026-01-09 04:46:20.84	39.03	12.92	-52.4	-54.9	14.4	0.00e+00	0	23	0	230686720	71	4665
2026-01-09 04:46:21.84	38.90	13.00	-52.4	-54.8	14.4	0.00e+00	0	23	0	231735296	71	4645
2026-01-09 04:46:22.84	38.76	13.07	-52.5	-55.0	14.3	0.00e+00	0	23	0	233832448	71	4740
2026-01-09 04:46:23.84	38.62	13.14	-52.3	-54.7	14.5	0.00e+00	0	23	0	235929600	71	4584
2026-01-09 04:46:24.84	38.48	13.21	-52.2	-54.5	14.4	0.00e+00	0	23	0	238026752	70	4744
2026-01-09 04:46:25.84	38.34	13.28	-52.1	-54.4	14.5	0.00e+00	0	23	0	240123904	70	4691
2026-01-09 04:46:26.83	38.20	13.35	-52.1	-54.4	14.5	0.00e+00	0	24	0	241172480	70	4699
2026-01-09 04:46:27.83	38.06	13.42	-52.2	-54.6	14.4	0.00e+00	0	23	0	243269632	70	4786
2026-01-09 04:46:28.83	37.92	13.49	-52.2	-54.6	14.4	0.00e+00	0	23	0	245366784	70	4798
2026-01-09 04:46:29.82	37.78	13.56	-52.2	-54.7	14.4	0.00e+00	0	24	0	247463936	70	4824
2026-01-09 04:46:30.83	37.64	13.63	-52.3	-54.7	14.2	0.00e+00	0	23	0	249561088	70	4852
2026-01-09 04:46:31.82	37.50	13.70	-52.2	-54.6	14.3	0.00e+00	0	23	0	250609664	70	4802
2026-01-09 04:46:32.82	37.35	13.77	-52.1	-54.5	14.4	0.00e+00	0	23	0	252706816	70	4741
2026-01-09 04:46:33.81	37.21	13.84	-52.1	-54.6	14.3	0.00e+00	0	23	0	254803968	70	4776
2026-01-09 04:46:34.80	37.06	13.92	-52.2	-54.7	14.3	0.00e+00	0	23	0	256901120	70	4857
2026-01-09 04:46:35.80	36.92	13.99	-52.2	-54.7	14.2	0.00e+00	0	23	0	257949696	70	4842
2026-01-09 04:46:36.80	36.77	14.06	-52.2	-54.7	14.2	0.00e+00	0	24	0	260046848	70	4831
2026-01-09 04:46:37.80	36.62	14.13	-52.4	-55.0	14.1	0.00e+00	0	23	0	262144000	70	5003
2026-01-09 04:46:38.81	36.47	14.20	-52.5	-55.2	14.0	0.00e+00	0	23	0	264241152	70	5145
2026-01-09 04:46:39.80	36.32	14.27	-52.6	-55.3	13.9	0.00e+00	0	23	0	266338304	70	5186
2026-01-09 04:46:40.80	36.17	14.34	-52.6	-55.4	13.8	0.00e+00	0	23	0	267386880	70	5257
2026-01-09 04:46:41.80	36.02	14.41	-52.5	-55.3	13.9	0.00e+00	0	23	0	269484032	70	5162
2026-01-09 04:46:42.79	35.87	14.48	-52.5	-55.2	14.0	0.00e+00	0	23	0	271581184	70	5134
2026-01-09 04:46:43.79	35.72	14.56	-52.6	-55.3	14.0	0.00e+00	0	23	0	273678336	70	5176
2026-01-09 04:46:44.79	35.57	14.63	-52.5	-55.1	14.0	0.00e+00	0	23	0	274726912	70	5082
2026-01-09 04:46:45.79	35.41	14.70	-52.6	-55.3	13.9	0.00e+00	0	23	0	276824064	70	5206
2026-01-09 04:46:46.79	35.26	14.77	-52.6	-55.2	14.0	0.00e+00	0	24	0	278921216	70	5139
2026-01-09 04:46:47.79	35.11	14.84	-52.5	-55.1	14.0	0.00e+00	0	23	0	281018368	70	5075
2026-01-09 04:46:48.78	34.95	14.91	-52.6	-55.2	14.0	0.00e+00	0	23	0	283115520	70	5136
2026-01-09 04:46:49.79	34.79	14.98	-52.5	-55.1	14.1	0.00e+00	0	23	0	284164096	70	5075
2026-01-09 04:46:50.79	34.64	15.05	-52.3	-54.9	14.2	0.00e+00	0	23	0	286261248	70	4944
2026-01-09 04:46:51.78	34.48	15.12	-52.3	-54.8	14.2	0.00e+00	0	23	0	288358400	70	4895
2026-01-09 04:46:52.79	34.32	15.20	-52.3	-54.8	14.2	0.00e+00	0	24	0	290455552	70	4924
2026-01-09 04:46:53.79	34.16	15.27	-52.3	-54.8	14.2	0.00e+00	0	23	0	292552704	70	4925
2026-01-09 04:46:54.79	34.00	15.34	-52.6	-55.2	14.0	0.00e+00	0	24	0	293601280	70	5126
2026-01-09 04:46:55.79	33.84	15.41	-52.7	-55.5	13.8	0.00e+00	0	23	0	295698432	70	5293
2026-01-09 04:46:56.78	33.68	15.48	-52.8	-55.7	13.7	0.00e+00	0	23	0	297795584	70	5410
2026-01-09 04:46:57.78	33.51	15.55	-52.8	-55.6	13.7	0.00e+00	0	24	0	299892736	70	5397
2026-01-09 04:46:58.79	33.35	15.62	-52.8	-55.6	13.9	0.00e+00	0	24	0	300941312	71	5089
2026-01-09 04:46:59.79	33.18	15.69	-52.8	-55.6	13.9	0.00e+00	0	24	0	303038464	71	5088
2026-01-09 04:47:00.79	33.02	15.77	-52.9	-55.7	13.9	0.00e+00	0	23	0	305135616	71	5121
2026-01-09 04:47:01.78	32.85	15.84	-52.9	-55.6	13.9	0.00e+00	0	23	0	307232768	71	5100
2026-01-09 04:47:02.78	32.69	15.91	-52.6	-55.2	14.1	0.00e+00	0	24	0	309329920	71	4858
2026-01-09 04:47:03.78	32.52	15.98	-52.5	-55.1	14.2	0.00e+00	0	23	0	310378496	71	4761
2026-01-09 04:47:04.78	32.35	16.05	-52.6	-55.2	14.1	0.00e+00	0	24	0	312475648	71	4849
2026-01-09 04:47:05.78	32.18	16.12	-52.5	-55.1	14.3	0.00e+00	0	24	0	314572800	71	4761
2026-01-09 04:47:06.77	32.01	16.19	-52.5	-55.1	14.2	0.00e+00	0	23	0	316669952	71	4788
2026-01-09 04:47:07.77	31.84	16.26	-52.7	-55.4	14.1	0.00e+00	0	23	0	318767104	71	4929
2026-01-09 04:47:08.77	31.67	16.33	-52.6	-55.3	14.1	0.00e+00	0	23	0	319815680	71	4906
2026-01-09 04:47:09.77	31.50	16.40	-52.5	-55.1	14.2	0.00e+00	0	24	0	321912832	71	4805
2026-01-09 04:47:10.76	31.33	16.47	-52.6	-55.3	14.1	0.00e+00	0	24	0	324009984	71	4883
2026-01-09 04:47:11.76	31.15	16.54	-52.5	-55.1	14.2	0.00e+00	0	24	0	326107136	71	4810
2026-01-09 04:47:12.76	30.98	16.61	-52.6	-55.2	14.2	0.00e+00	0	23	0	328204288	71	4838
2026-01-09 04:47:13.76	30.80	16.68	-52.5	-55.1	14.2	0.00e+00	0	23	0	329252864	71	4795
2026-01-09 04:47:14.75	30.63	16.75	-52.5	-55.1	14.2	0.00e+00	0	24	0	331350016	71	4764
2026-01-09 04:47:15.76	30.45	16.82	-52.5	-55.2	14.2	0.00e+00	0	24	0	333447168	71	4824
2026-01-09 04:47:16.75	30.27	16.89	-52.6	-55.3	14.1	0.00e+00	0	24	0	335544320	71	4909
2026-01-09 04:47:17.75	30.09	16.96	-52.5	-55.1	14.2	0.00e+00	0	23	0	336592896	71	4783
2026-01-09 04:47:18.75	29.91	17.03	-52.5	-55.0	14.3	0.00e+00	0	24	0	338690048	71	4755
2026-01-09 04:47:19.75	29.73	17.10	-52.4	-54.9	14.4	0.00e+00	0	24	0	340787200	71	4675
2026-01-09 04:47:20.75	29.55	17.17	-52.6	-55.2	14.2	0.00e+00	0	23	0	342884352	71	4869
2026-01-09 04:47:21.75	29.36	17.24	-52.6	-55.2	14.2	0.00e+00	0	24	0	344981504	71	4821
2026-01-09 04:47:22.75	29.18	17.31	-52.8	-55.6	13.9	0.00e+00	0	24	0	346030080	71	5092
2026-01-09 04:47:23.75	29.00	17.38	-52.8	-55.6	13.9	0.00e+00	0	24	0	348127232	71	5086
2026-01-09 04:47:24.75	28.81	17.45	-52.9	-55.7	13.8	0.00e+00	0	24	0	350224384	71	5143
2026-01-09 04:47:25.75	28.63	17.52	-52.8	-55.6	13.9	0.00e+00	0	24	0	352321536	71	5078
2026-01-09 04:47:26.74	28.44	17.59	-52.7	-55.4	14.0	0.00e+00	0	24	0	353370112	71	4983
2026-01-09 04:47:27.73	28.25	17.65	-52.6	-55.2	14.2	0.00e+00	0	24	0	355467264	71	4859
2026-01-09 04:47:28.73	28.07	17.72	-52.5	-55.0	14.3	0.00e+00	0	24	0	357564416	71	4745
2026-01-09 04:47:29.73	27.88	17.79	-52.1	-54.5	14.4	0.00e+00	0	24	0	359661568	70	4740
2026-01-09 04:47:30.74	27.68	17.86	-52.1	-54.5	14.5	0.00e+00	0	23	0	361758720	70	4711
2026-01-09 04:47:31.73	27.49	17.93	-52.0	-54.3	14.6	0.00e+00	0	23	0	362807296	70	4630
2026-01-09 04:47:32.74	27.30	18.00	-52.0	-54.3	14.6	0.00e+00	0	24	0	364904448	70	4637
2026-01-09 04:47:33.74	27.11	18.07	-52.0	-54.4	14.5	0.00e+00	0	23	0	367001600	70	4664
2026-01-09 04:47:34.74	26.91	18.13	-52.0	-54.4	14.5	0.00e+00	0	24	0	369098752	70	4661
2026-01-09 04:47:35.74	26.72	18.20	-51.9	-54.3	14.5	0.00e+00	0	24	0	371195904	70	4627
2026-01-09 04:47:36.75	26.52	18.27	-51.9	-54.3	14.6	0.00e+00	0	24	0	372244480	70	4608
2026-01-09 04:47:37.75	26.32	18.34	-51.7	-54.0	14.7	0.00e+00	0	23	0	374341632	70	4471
2026-01-09 04:47:38.75	26.13	18.40	-51.7	-54.1	14.5	0.00e+00	0	23	0	376438784	69	4773
2026-01-09 04:47:39.74	25.93	18.47	-51.8	-54.2	14.4	0.00e+00	0	23	0	378535936	69	4870
2026-01-09 04:47:40.74	25.73	18.54	-51.7	-54.1	14.5	0.00e+00	0	24	0	380633088	69	4798
2026-01-09 04:47:41.73	25.53	18.60	-51.5	-53.8	14.6	0.00e+00	0	24	0	381681664	69	4647
2026-01-09 04:47:42.74	25.33	18.67	-51.3	-53.6	14.8	0.00e+00	0	24	0	383778816	69	4533
2026-01-09 04:47:43.74	25.13	18.74	-51.1	-53.3	14.8	0.00e+00	0	23	0	385875968	68	4641
2026-01-09 04:47:44.74	24.93	18.80	-51.0	-53.1	14.9	0.00e+00	0	23	0	387973120	68	4521
2026-01-09 04:47:45.73	24.72	18.87	-50.9	-52.9	14.9	0.00e+00	0	23	0	389021696	68	4433
2026-01-09 04:47:46.73	24.52	18.93	-51.0	-53.1	14.8	0.00e+00	0	24	0	391118848	68	4539
2026-01-09 04:47:47.73	24.31	19.00	-51.2	-53.3	14.8	0.00e+00	0	24	0	393216000	68	4641
2026-01-09 04:47:48.72	24.11	19.06	-51.0	-53.2	14.8	0.00e+00	0	23	0	395313152	68	4557
2026-01-09 04:47:49.73	23.90	19.13	-51.1	-53.3	14.7	0.00e+00	0	23	0	397410304	68	4615
2026-01-09 04:47:50.73	23.69	19.20	-51.1	-53.2	14.8	0.00e+00	0	24	0	398458880	68	4576
2026-01-09 04:47:51.73	23.48	19.26	-51.1	-53.3	14.8	0.00e+00	0	24	0	400556032	68	4612
2026-01-09 04:47:52.73	23.27	19.32	-51.1	-53.2	14.8	0.00e+00	0	23	0	402653184	68	4591
2026-01-09 04:47:53.73	23.06	19.39	-51.1	-53.1	14.9	0.00e+00	0	24	0	404750336	68	4545
2026-01-09 04:47:54.73	22.85	19.45	-51.2	-53.4	14.7	0.00e+00	0	24	0	406847488	68	4672
2026-01-09 04:47:55.73	22.64	19.52	-51.2	-53.3	14.7	0.00e+00	0	23	0	407896064	68	4631
2026-01-09 04:47:56.73	22.42	19.58	-51.0	-53.0	14.9	0.00e+00	0	24	0	409993216	68	4489
2026-01-09 04:47:57.73	22.21	19.64	-51.0	-53.0	15.0	0.00e+00	0	24	0	412090368	68	4449
2026-01-09 04:47:58.73	21.99	19.71	-50.9	-53.0	15.0	0.00e+00	0	23	0	414187520	68	4445
2026-01-09 04:47:59.73	21.78	19.77	-51.1	-53.3	14.8	0.00e+00	0	24	0	415236096	68	4599
2026-01-09 04:48:00.72	21.56	19.83	-51.4	-53.6	14.6	0.00e+00	0	23	0	417333248	68	4760
2026-01-09 04:48:01.72	21.35	19.89	-51.3	-53.5	14.7	0.00e+00	0	23	0	419430400	68	4716
2026-01-09 04:48:02.72	21.13	19.95	-51.1	-53.2	14.8	0.00e+00	0	23	0	421527552	68	4589
2026-01-09 04:48:03.71	20.91	20.01	-51.0	-53.1	14.9	0.00e+00	0	23	0	423624704	68	4545
2026-01-09 04:48:04.71	20.69	20.08	-51.0	-53.0	14.9	0.00e+00	0	24	0	424673280	68	4478
2026-01-09 04:48:05.71	20.47	20.14	-51.0	-53.0	14.9	0.00e+00	0	24	0	426770432	68	4487
2026-01-09 04:48:06.71	20.24	20.20	-51.0	-53.1	14.9	0.00e+00	0	24	0	428867584	68	4512
2026-01-09 04:48:07.71	20.02	20.26	-50.9	-53.0	14.9	0.00e+00	0	23	0	430964736	68	4478
2026-01-09 04:48:08.70	19.80	20.32	-50.9	-52.9	15.0	0.00e+00	0	23	0	432013312	68	4434
2026-01-09 04:48:09.71	19.57	20.38	-50.4	-52.4	15.1	0.00e+00	0	23	0	434110464	67	4414
2026-01-09 04:48:10.72	19.34	20.44	-50.3	-52.2	15.2	0.00e+00	0	24	0	436207616	67	4301
2026-01-09 04:48:11.71	19.12	20.50	-50.2	-52.1	15.2	0.00e+00	0	23	0	438304768	67	4253
2026-01-09 04:48:12.71	18.89	20.55	-50.4	-52.2	15.1	0.00e+00	0	23	0	440401920	67	4334
2026-01-09 04:48:13.71	18.66	20.61	-50.5	-52.5	15.0	0.00e+00	0	24	0	442499072	67	4450
2026-01-09 04:48:14.70	18.44	20.67	-50.5	-52.4	15.1	0.00e+00	0	24	0	443547648	67	4402
2026-01-09 04:48:15.71	18.20	20.73	-50.5	-52.4	15.1	0.00e+00	0	24	0	445644800	67	4406
2026-01-09 04:48:16.70	17.97	20.79	-50.3	-52.1	15.3	0.00e+00	0	23	0	447741952	67	4253
2026-01-09 04:48:17.69	17.74	20.84	-50.4	-52.3	15.2	0.00e+00	0	23	0	449839104	67	4360
2026-01-09 04:48:18.68	17.51	20.90	-50.3	-52.1	15.2	0.00e+00	0	24	0	450887680	67	4264
2026-01-09 04:48:19.69	17.28	20.95	-50.5	-52.3	15.1	0.00e+00	0	24	0	452984832	67	4378
2026-01-09 04:48:20.68	17.04	21.01	-50.5	-52.4	15.0	0.00e+00	0	24	0	455081984	67	4435
2026-01-09 04:48:21.68	16.81	21.06	-50.4	-52.2	15.2	0.00e+00	0	24	0	457179136	67	4329
2026-01-09 04:48:22.68	16.57	21.12	-50.3	-52.1	15.2	0.00e+00	0	23	0	459276288	67	4272
2026-01-09 04:48:23.67	16.34	21.17	-50.3	-52.1	15.3	0.00e+00	0	24	0	460324864	67	4243
2026-01-09 04:48:24.68	16.10	21.23	-50.4	-52.2	15.2	0.00e+00	0	24	0	462422016	67	4330
2026-01-09 04:48:25.68	15.86	21.28	-50.3	-52.1	15.2	0.00e+00	0	24	0	464519168	67	4285
2026-01-09 04:48:26.68	15.62	21.34	-50.4	-52.2	15.2	0.00e+00	0	24	0	466616320	67	4315
2026-01-09 04:48:27.67	15.38	21.39	-50.3	-52.1	15.2	0.00e+00	0	24	0	467664896	67	4267
2026-01-09 04:48:28.67	15.14	21.44	-50.2	-52.0	15.3	0.00e+00	0	23	0	469762048	67	4231
2026-01-09 04:48:29.67	14.90	21.49	-50.1	-51.8	15.2	0.00e+00	0	23	0	471859200	66	4376
2026-01-09 04:48:30.68	14.65	21.54	-50.0	-51.7	15.2	0.00e+00	0	24	0	473956352	66	4329
2026-01-09 04:48:31.67	14.41	21.59	-50.1	-51.9	15.2	0.00e+00	0	23	0	476053504	66	4404
2026-01-09 04:48:32.67	14.17	21.65	-50.3	-52.1	15.0	0.00e+00	0	24	0	477102080	66	4540
2026-01-09 04:48:33.67	13.92	21.70	-50.3	-52.1	15.0	0.00e+00	0	24	0	479199232	66	4533
2026-01-09 04:48:34.67	13.67	21.75	-50.2	-51.9	15.2	0.00e+00	0	24	0	481296384	66	4412
2026-01-09 04:48:35.67	13.43	21.79	-50.2	-51.9	15.2	0.00e+00	0	24	0	483393536	66	4410
2026-01-09 04:48:36.68	13.18	21.84	-50.2	-51.9	15.1	0.00e+00	0	23	0	485490688	66	4404
2026-01-09 04:48:37.67	12.93	21.89	-50.2	-51.9	15.1	0.00e+00	0	24	0	486539264	66	4402
2026-01-09 04:48:38.68	12.68	21.94	-50.1	-51.8	15.2	0.00e+00	0	24	0	488636416	66	4382
2026-01-09 04:48:39.68	12.43	21.99	-50.2	-52.0	15.1	0.00e+00	0	23	0	490733568	66	4442
2026-01-09 04:48:40.68	12.18	22.03	-50.2	-52.0	15.1	0.00e+00	0	24	0	492830720	66	4453
2026-01-09 04:48:41.68	11.92	22.08	-50.4	-52.2	15.0	0.00e+00	0	24	0	493879296	66	4547
2026-01-09 04:48:42.68	11.67	22.13	-50.4	-52.2	15.0	0.00e+00	0	24	0	495976448	66	4579
2026-01-09 04:48:43.68	11.42	22.17	-50.3	-52.1	15.1	0.00e+00	0	24	0	498073600	66	4510
2026-01-09 04:48:44.68	11.17	22.22	-50.4	-52.1	15.0	0.00e+00	0	24	0	500170752	66	4543
2026-01-09 04:48:45.68	10.91	22.26	-50.4	-52.2	15.0	0.00e+00	0	24	0	502267904	66	4556
2026-01-09 04:48:46.68	10.65	22.30	-50.4	-52.2	15.0	0.00e+00	0	24	0	503316480	66	4546
2026-01-09 04:48:47.67	10.40	22.35	-50.3	-52.1	15.1	0.00e+00	0	24	0	505413632	66	4522
2026-01-09 04:48:48.67	10.14	22.39	-50.4	-52.2	15.0	0.00e+00	0	24	0	507510784	66	4563
2026-01-09 04:48:49.67	9.89	22.43	-50.4	-52.2	15.0	0.00e+00	0	24	0	509607936	66	4549
2026-01-09 04:48:50.67	9.63	22.47	-50.2	-51.9	15.1	0.00e+00	0	24	0	511705088	66	4416
2026-01-09 04:48:51.67	9.37	22.51	-50.2	-51.8	15.2	0.00e+00	0	23	0	512753664	66	4391
2026-01-09 04:48:52.66	9.11	22.55	-50.1	-51.8	15.2	0.00e+00	0	23	0	514850816	66	4352
2026-01-09 04:48:53.67	8.85	22.59	-50.1	-51.8	15.2	0.00e+00	0	24	0	516947968	66	4358
2026-01-09 04:48:54.66	8.59	22.63	-50.1	-51.7	15.2	0.00e+00	0	24	0	519045120	66	4335
2026-01-09 04:48:55.66	8.33	22.67	-50.2	-51.9	15.2	0.00e+00	0	23	0	521142272	66	4399
2026-01-09 04:48:56.66	8.07	22.71	-50.0	-51.6	15.3	0.00e+00	0	24	0	522190848	66	4280
2026-01-09 04:48:57.66	7.80	22.75	-50.1	-51.8	15.2	0.00e+00	0	24	0	524288000	66	4365
2026-01-09 04:48:58.66	7.54	22.78	-50.3	-52.0	15.1	0.00e+00	0	24	0	526385152	66	4481
2026-01-09 04:48:59.65	7.28	22.82	-50.7	-52.5	14.9	0.00e+00	0	24	0	528482304	66	4723
2026-01-09 04:49:00.65	7.01	22.86	-50.9	-52.8	14.7	0.00e+00	0	24	0	529530880	66	4883
2026-01-09 04:49:01.65	6.75	22.89	-51.1	-53.0	14.7	0.00e+00	0	24	0	531628032	67	4739
2026-01-09 04:49:02.65	6.48	22.93	-51.2	-53.1	14.7	0.00e+00	0	24	0	533725184	67	4812
2026-01-09 04:49:03.65	6.22	22.96	-51.2	-53.2	14.7	0.00e+00	0	23	0	535822336	67	4853
2026-01-09 04:49:04.64	5.95	22.99	-51.8	-54.0	14.5	0.00e+00	0	24	0	537919488	68	4996
2026-01-09 04:49:05.64	5.68	23.03	-52.2	-54.5	14.3	0.00e+00	0	24	0	538968064	69	5010
2026-01-09 04:49:06.64	5.41	23.06	-52.6	-55.0	14.2	0.00e+00	0	24	0	541065216	70	5015
2026-01-09 04:49:07.64	5.15	23.09	-52.5	-54.9	14.3	0.00e+00	0	24	0	543162368	70	4966
2026-01-09 04:49:08.64	4.88	23.12	-52.2	-54.5	14.5	0.00e+00	0	23	0	545259520	70	4716
2026-01-09 04:49:09.63	4.61	23.15	-52.0	-54.2	14.7	0.00e+00	0	23	0	546308096	70	4557
2026-01-09 04:49:10.64	4.34	23.18	-51.9	-54.0	14.7	0.00e+00	0	24	0	548405248	70	4467
2026-01-09 04:49:11.62	4.07	23.21	-51.9	-54.1	14.7	0.00e+00	0	24	0	550502400	70	4529
2026-01-09 04:49:12.63	3.80	23.24	-52.0	-54.1	14.7	0.00e+00	0	24	0	552599552	70	4540
2026-01-09 04:49:13.62	3.53	23.26	-52.0	-54.3	14.6	0.00e+00	0	24	0	554696704	70	4603
2026-01-09 04:49:14.61	3.26	23.29	-52.0	-54.3	14.7	0.00e+00	0	24	0	555745280	70	4606
2026-01-09 04:49:15.60	2.99	23.31	-51.7	-53.8	14.9	0.00e+00	0	23	0	557842432	70	4388
2026-01-09 04:49:16.58	2.72	23.34	-51.4	-53.4	14.9	0.00e+00	0	24	0	559939584	69	4421
2026-01-09 04:49:17.59	2.44	23.36	-51.2	-53.1	15.1	0.00e+00	0	23	0	562036736	69	4291
2026-01-09 04:49:18.59	2.17	23.39	-51.2	-53.2	15.0	0.00e+00	0	24	0	563085312	69	4320
2026-01-09 04:49:19.59	1.89	23.41	-51.4	-53.4	14.9	0.00e+00	0	23	0	565182464	69	4434
2026-01-09 04:49:20.58	1.62	23.43	-51.6	-53.8	14.7	0.00e+00	0	24	0	567279616	69	4611
2026-01-09 04:49:21.59	1.34	23.46	-51.8	-54.1	14.6	0.00e+00	0	24	0	569376768	69	4763
2026-01-09 04:49:22.58	1.07	23.48	-51.9	-54.2	14.5	0.00e+00	0	24	0	571473920	69	4825
2026-01-09 04:49:23.58	0.79	23.50	-51.6	-53.8	14.7	0.00e+00	0	24	0	572522496	69	4646
2026-01-09 04:49:24.58	0.52	23.52	-51.5	-53.6	14.8	0.00e+00	0	23	0	574619648	69	4532
2026-01-09 04:49:25.58	0.24	23.54	-51.6	-53.7	14.8	0.00e+00	0	24	0	576716800	69	4567
2026-01-09 04:49:26.58	359.96	23.56	-51.8	-54.1	14.6	0.00e+00	0	24	0	578813952	69	4770
2026-01-09 04:49:27.58	359.69	23.57	-52.2	-54.6	14.3	0.00e+00	0	24	0	580911104	69	5090
2026-01-09 04:49:28.58	359.41	23.59	-52.3	-54.7	14.2	0.00e+00	0	24	0	581959680	69	5159
2026-01-09 04:49:29.57	359.13	23.61	-52.4	-54.9	14.1	0.00e+00	0	24	0	584056832	69	5242
2026-01-09 04:49:30.57	358.85	23.62	-52.3	-54.8	14.3	0.00e+00	0	24	0	586153984	70	4918
2026-01-09 04:49:31.57	358.58	23.64	-52.2	-54.6	14.4	0.00e+00	0	24	0	588251136	70	4804
2026-01-09 04:49:32.57	358.30	23.65	-52.1	-54.4	14.5	0.00e+00	0	24	0	590348288	70	4690
2026-01-09 04:49:33.57	358.02	23.66	-51.9	-54.2	14.6	0.00e+00	0	23	0	591396864	70	4577
2026-01-09 04:49:34.56	357.74	23.68	-52.0	-54.3	14.6	0.00e+00	0	24	0	593494016	70	4641
2026-01-09 04:49:35.56	357.46	23.69	-52.4	-54.9	14.3	0.00e+00	0	24	0	595591168	70	4932
2026-01-09 04:49:36.56	357.18	23.70	-52.6	-55.2	14.1	0.00e+00	0	24	0	597688320	70	5143
2026-01-09 04:49:37.56	356.90	23.71	-52.7	-55.3	14.0	0.00e+00	0	24	0	598736896	70	5211
2026-01-09 04:49:38.56	356.62	23.72	-52.6	-55.2	14.0	0.00e+00	0	24	0	600834048	70	5150
2026-01-09 04:49:39.56	356.34	23.73	-52.6	-55.2	14.0	0.00e+00	0	24	0	602931200	70	5149
2026-01-09 04:49:40.55	356.06	23.74	-52.6	-55.2	14.0	0.00e+00	0	23	0	605028352	70	5157
2026-01-09 04:49:41.55	355.78	23.74	-52.7	-55.3	14.0	0.00e+00	0	24	0	607125504	70	5186
2026-01-09 04:49:42.55	355.50	23.75	-52.7	-55.4	14.0	0.00e+00	0	24	0	608174080	70	5279
2026-01-09 04:49:43.54	355.22	23.76	-52.8	-55.5	13.9	0.00e+00	0	24	0	610271232	70	5284
2026-01-09 04:49:44.54	354.94	23.76	-52.5	-55.1	14.1	0.00e+00	0	24	0	612368384	70	5077
2026-01-09 04:49:45.54	354.66	23.77	-52.1	-54.6	14.4	0.00e+00	0	24	0	614465536	70	4768
2026-01-09 04:49:46.54	354.38	23.77	-51.8	-54.1	14.7	0.00e+00	0	24	0	615514112	70	4496
2026-01-09 04:49:47.54	354.10	23.77	-51.4	-53.6	14.8	0.00e+00	0	24	0	617611264	69	4501
2026-01-09 04:49:48.54	353.82	23.78	-51.4	-53.6	14.8	0.00e+00	0	24	0	619708416	69	4505
2026-01-09 04:49:49.54	353.53	23.78	-51.4	-53.5	14.8	0.00e+00	0	24	0	621805568	69	4488
2026-01-09 04:49:50.54	353.25	23.78	-51.7	-54.0	14.6	0.00e+00	0	24	0	623902720	69	4728
2026-01-09 04:49:51.54	352.97	23.78	-51.9	-54.2	14.6	0.00e+00	0	24	0	624951296	69	4866
2026-01-09 04:49:52.54	352.69	23.78	-52.2	-54.7	14.2	0.00e+00	0	24	0	627048448	69	5151
2026-01-09 04:49:53.53	352.41	23.78	-52.1	-54.6	14.2	0.00e+00	0	24	0	629145600	69	5096
2026-01-09 04:49:54.53	352.13	23.77	-51.9	-54.3	14.4	0.00e+00	0	24	0	631242752	69	4892
2026-01-09 04:49:55.53	351.85	23.77	-51.6	-53.9	14.6	0.00e+00	0	24	0	633339904	69	4655
2026-01-09 04:49:56.53	351.57	23.77	-51.4	-53.6	14.8	0.00e+00	0	24	0	634388480	69	4515
2026-01-09 04:49:57.52	351.29	23.76	-51.4	-53.5	14.8	0.00e+00	0	24	0	636485632	69	4462
2026-01-09 04:49:58.53	351.01	23.76	-51.4	-53.5	14.8	0.00e+00	0	24	0	638582784	69	4473
2026-01-09 04:49:59.53	350.72	23.75	-51.5	-53.7	14.8	0.00e+00	0	24	0	640679936	69	4569
2026-01-09 04:50:00.51	350.45	23.75	-51.5	-53.7	14.8	0.00e+00	0	24	0	641728512	69	4565
2026-01-09 04:50:01.50	350.17	23.74	-51.5	-53.7	14.8	0.00e+00	0	24	0	643825664	69	4548
2026-01-09 04:50:02.50	349.89	23.73	-51.5	-53.7	14.7	0.00e+00	0	24	0	645922816	69	4573
2026-01-09 04:50:03.49	349.61	23.72	-51.5	-53.7	14.8	0.00e+00	0	24	0	648019968	69	4557
2026-01-09 04:50:04.49	349.33	23.71	-51.3	-53.4	14.9	0.00e+00	0	24	0	650117120	69	4413
2026-01-09 04:50:05.50	349.05	23.70	-51.0	-53.0	15.0	0.00e+00	0	24	0	651165696	68	4463
2026-01-09 04:50:06.49	348.77	23.69	-50.8	-52.7	15.1	0.00e+00	0	24	0	653262848	68	4311
2026-01-09 04:50:07.49	348.49	23.68	-50.7	-52.6	15.1	0.00e+00	0	24	0	655360000	68	4258
2026-01-09 04:50:08.49	348.21	23.67	-50.9	-52.7	15.1	0.00e+00	0	24	0	657457152	68	4330
2026-01-09 04:50:09.50	347.93	23.65	-51.3	-53.3	14.8	0.00e+00	0	24	0	658505728	68	4609
2026-01-09 04:50:10.49	347.65	23.64	-51.3	-53.3	14.9	0.00e+00	0	24	0	660602880	68	4603
2026-01-09 04:50:11.48	347.38	23.62	-51.5	-53.6	14.6	0.00e+00	0	24	0	662700032	68	4804
2026-01-09 04:50:12.48	347.10	23.61	-51.3	-53.2	14.8	0.00e+00	0	24	0	664797184	68	4590
2026-01-09 04:50:13.47	346.82	23.59	-50.9	-52.8	15.1	0.00e+00	0	24	0	666894336	68	4357
2026-01-09 04:50:14.47	346.55	23.58	-50.5	-52.3	15.2	0.00e+00	0	24	0	667942912	67	4341
2026-01-09 04:50:15.47	346.27	23.56	-50.5	-52.2	15.2	0.00e+00	0	24	0	670040064	67	4320
2026-01-09 04:50:16.46	345.99	23.54	-50.6	-52.4	15.1	0.00e+00	0	24	0	672137216	67	4412
2026-01-09 04:50:17.46	345.72	23.52	-50.4	-52.2	15.3	0.00e+00	0	24	0	674234368	67	4296
2026-01-09 04:50:18.45	345.44	23.50	-50.5	-52.2	15.1	0.00e+00	0	24	0	675282944	67	4332
2026-01-09 04:50:19.45	345.17	23.48	-50.3	-52.0	15.3	0.00e+00	0	24	0	677380096	67	4217
2026-01-09 04:50:20.45	344.89	23.46	-50.3	-51.9	15.3	0.00e+00	0	24	0	679477248	67	4193
2026-01-09 04:50:21.46	344.61	23.44	-50.1	-51.8	15.2	0.00e+00	0	24	0	681574400	66	4369
2026-01-09 04:50:22.45	344.34	23.42	-50.2	-51.8	15.2	0.00e+00	0	24	0	683671552	66	4382
2026-01-09 04:50:23.45	344.07	23.39	-50.1	-51.7	15.3	0.00e+00	0	24	0	684720128	66	4316
2026-01-09 04:50:24.45	343.79	23.37	-49.9	-51.5	15.3	0.00e+00	0	24	0	686817280	66	4218
2026-01-09 04:50:25.45	343.52	23.34	-50.0	-51.7	15.2	0.00e+00	0	24	0	688914432	66	4294
2026-01-09 04:50:26.44	343.25	23.32	-50.2	-51.9	15.0	0.00e+00	0	24	0	691011584	66	4399
2026-01-09 04:50:27.43	342.98	23.29	-50.0	-51.7	15.3	0.00e+00	0	24	0	693108736	66	4296
2026-01-09 04:50:28.42	342.71	23.27	-50.1	-51.8	15.2	0.00e+00	0	24	0	694157312	66	4367
2026-01-09 04:50:29.42	342.44	23.24	-50.3	-52.0	15.1	0.00e+00	0	24	0	696254464	66	4460
2026-01-09 04:50:30.42	342.16	23.21	-50.5	-52.2	15.0	0.00e+00	0	24	0	698351616	66	4583
2026-01-09 04:50:31.42	341.89	23.18	-50.6	-52.4	14.9	0.00e+00	0	24	0	700448768	66	4652
2026-01-09 04:50:32.42	341.62	23.15	-50.7	-52.4	14.9	0.00e+00	0	24	0	702545920	66	4693
2026-01-09 04:50:33.42	341.35	23.12	-50.9	-52.7	14.8	0.00e+00	0	24	0	703594496	66	4842
2026-01-09 04:50:34.42	341.08	23.09	-50.8	-52.6	15.0	0.00e+00	0	24	0	705691648	67	4531
2026-01-09 04:50:35.42	340.81	23.06	-50.7	-52.5	15.0	0.00e+00	0	24	0	707788800	67	4471
2026-01-09 04:50:36.41	340.55	23.03	-50.6	-52.3	15.1	0.00e+00	0	24	0	709885952	67	4348
2026-01-09 04:50:37.40	340.28	23.00	-50.5	-52.2	15.2	0.00e+00	0	24	0	710934528	67	4320
2026-01-09 04:50:38.39	340.02	22.97	-50.2	-51.9	15.3	0.00e+00	0	24	0	713031680	67	4159
2026-01-09 04:50:39.39	339.75	22.93	-50.5	-52.2	15.1	0.00e+00	0	23	0	715128832	67	4325
2026-01-09 04:50:40.39	339.48	22.90	-50.9	-52.7	14.9	0.00e+00	0	24	0	717225984	67	4594
2026-01-09 04:50:41.40	339.22	22.86	-50.9	-52.7	14.9	0.00e+00	0	24	0	719323136	67	4588
2026-01-09 04:50:42.39	338.95	22.83	-51.0	-52.8	14.9	0.00e+00	0	24	0	720371712	67	4621
2026-01-09 04:50:43.40	338.69	22.79	-50.8	-52.6	14.9	0.00e+00	0	24	0	722468864	67	4536
2026-01-09 04:50:44.39	338.43	22.75	-50.6	-52.4	15.1	0.00e+00	0	23	0	724566016	67	4392
2026-01-09 04:50:45.38	338.17	22.72	-50.6	-52.4	15.1	0.00e+00	0	24	0	726663168	67	4406
2026-01-09 04:50:46.38	337.90	22.68	-50.7	-52.4	15.1	0.00e+00	0	24	0	727711744	67	4434
2026-01-09 04:50:47.38	337.64	22.64	-50.8	-52.6	15.0	0.00e+00	0	24	0	729808896	67	4514
2026-01-09 04:50:48.37	337.38	22.60	-50.9	-52.8	14.9	0.00e+00	0	24	0	731906048	67	4610
2026-01-09 04:50:49.37	337.12	22.56	-50.9	-52.8	14.9	0.00e+00	0	24	0	734003200	67	4599
2026-01-09 04:50:50.37	336.86	22.52	-51.2	-53.1	14.7	0.00e+00	0	24	0	736100352	67	4796
2026-01-09 04:50:51.36	336.61	22.48	-51.1	-53.0	14.8	0.00e+00	0	24	0	737148928	67	4722
2026-01-09 04:50:52.36	336.35	22.44	-51.2	-53.1	14.7	0.00e+00	0	24	0	739246080	67	4792
2026-01-09 04:50:53.36	336.09	22.40	-51.1	-53.0	14.8	0.00e+00	0	24	0	741343232	67	4732
2026-01-09 04:50:54.35	335.83	22.36	-51.2	-53.2	14.6	0.00e+00	0	23	0	743440384	67	4854
2026-01-09 04:50:55.35	335.58	22.31	-51.7	-53.8	14.5	0.00e+00	0	24	0	744488960	68	4926
2026-01-09 04:50:56.34	335.33	22.27	-51.9	-54.1	14.4	0.00e+00	0	24	0	746586112	68	5062
2026-01-09 04:50:57.34	335.07	22.22	-52.0	-54.3	14.4	0.00e+00	0	24	0	748683264	69	4888
2026-01-09 04:50:58.34	334.82	22.18	-52.1	-54.4	14.4	0.00e+00	0	24	0	750780416	69	4954
2026-01-09 04:50:59.33	334.57	22.14	-51.9	-54.2	14.5	0.00e+00	0	24	0	752877568	69	4829
2026-01-09 04:51:00.33	334.31	22.09	-51.9	-54.2	14.5	0.00e+00	0	24	0	753926144	69	4818
2026-01-09 04:51:01.34	334.06	22.04	-52.0	-54.3	14.5	0.00e+00	0	24	0	756023296	69	4875
2026-01-09 04:51:02.34	333.81	22.00	-51.8	-54.0	14.6	0.00e+00	0	24	0	758120448	69	4733
2026-01-09 04:51:03.34	333.56	21.95	-51.9	-54.2	14.5	0.00e+00	0	24	0	760217600	69	4828
2026-01-09 04:51:04.34	333.31	21.90	-52.0	-54.4	14.4	0.00e+00	0	24	0	762314752	69	4931
2026-01-09 04:51:05.33	333.06	21.85	-52.0	-54.4	14.4	0.00e+00	0	24	0	763363328	69	4945
2026-01-09 04:51:06.33	332.81	21.80	-52.1	-54.4	14.4	0.00e+00	0	24	0	765460480	69	4952
2026-01-09 04:51:07.34	332.56	21.75	-52.1	-54.4	14.4	0.00e+00	0	24	0	767557632	69	4975
2026-01-09 04:51:08.33	332.32	21.71	-52.0	-54.2	14.5	0.00e+00	0	24	0	769654784	69	4868
2026-01-09 04:51:09.33	332.07	21.66	-51.4	-53.5	14.9	0.00e+00	0	24	0	771751936	69	4453
2026-01-09 04:51:10.33	331.83	21.61	-51.2	-53.2	15.0	0.00e+00	0	24	0	772800512	69	4336
2026-01-09 04:51:11.33	331.58	21.55	-51.2	-53.3	14.8	0.00e+00	0	24	0	774897664	68	4599
2026-01-09 04:51:12.33	331.34	21.50	-51.1	-53.2	14.9	0.00e+00	0	24	0	776994816	68	4547
2026-01-09 04:51:13.33	331.10	21.45	-51.2	-53.2	14.9	0.00e+00	0	24	0	779091968	68	4590
2026-01-09 04:51:14.33	330.86	21.40	-51.2	-53.2	14.9	0.00e+00	0	24	0	780140544	68	4566
2026-01-09 04:51:15.33	330.62	21.35	-51.3	-53.4	14.8	0.00e+00	0	24	0	782237696	68	4664
2026-01-09 04:51:16.33	330.38	21.29	-51.3	-53.4	14.8	0.00e+00	0	24	0	784334848	68	4656
2026-01-09 04:51:17.32	330.14	21.24	-51.5	-53.6	14.7	0.00e+00	0	24	0	786432000	68	4769
2026-01-09 04:51:18.31	329.90	21.19	-51.7	-53.9	14.5	0.00e+00	0	24	0	788529152	68	4978
2026-01-09 04:51:19.31	329.67	21.13	-52.1	-54.5	14.4	0.00e+00	0	24	0	789577728	69	4984
2026-01-09 04:51:20.30	329.43	21.08	-52.3	-54.8	14.2	0.00e+00	0	24	0	791674880	69	5189
2026-01-09 04:51:21.30	329.20	21.02	-52.5	-55.0	14.2	0.00e+00	0	24	0	793772032	70	5017
2026-01-09 04:51:22.30	328.96	20.97	-52.3	-54.8	14.3	0.00e+00	0	24	0	795869184	70	4875
2026-01-09 04:51:23.29	328.73	20.91	-52.7	-55.3	14.0	0.00e+00	0	24	0	796917760	70	5171
2026-01-09 04:51:24.29	328.50	20.85	-52.5	-55.0	14.2	0.00e+00	0	24	0	799014912	70	5000
2026-01-09 04:51:25.28	328.27	20.80	-52.4	-55.0	14.3	0.00e+00	0	24	0	801112064	70	4988
2026-01-09 04:51:26.28	328.03	20.74	-52.2	-54.6	14.4	0.00e+00	0	24	0	803209216	70	4763
2026-01-09 04:51:27.28	327.80	20.68	-52.2	-54.6	14.4	0.00e+00	0	24	0	805306368	70	4791
2026-01-09 04:51:28.28	327.57	20.63	-52.4	-55.0	14.2	0.00e+00	0	24	0	806354944	70	5009
2026-01-09 04:51:29.28	327.35	20.57	-52.8	-55.6	13.8	0.00e+00	0	24	0	808452096	70	5368
2026-01-09 04:51:30.27	327.12	20.51	-53.0	-56.0	13.7	0.00e+00	0	24	0	810549248	71	5302
2026-01-09 04:51:31.27	326.89	20.45	-53.4	-56.7	13.3	0.00e+00	0	24	0	812646400	71	5727
2026-01-09 04:51:32.27	326.67	20.39	-53.3	-56.5	13.4	0.00e+00	0	24	0	814743552	71	5603
2026-01-09 04:51:33.26	326.44	20.33	-52.9	-55.9	13.8	0.00e+00	0	24	0	815792128	71	5221
2026-01-09 04:51:34.27	326.22	20.27	-52.6	-55.4	14.1	0.00e+00	0	24	0	817889280	71	4950
2026-01-09 04:51:35.27	325.99	20.21	-52.2	-54.6	14.6	0.00e+00	0	24	0	819986432	71	4538
2026-01-09 04:51:36.27	325.77	20.15	-51.9	-54.2	14.7	0.00e+00	0	24	0	822083584	70	4585
2026-01-09 04:51:37.27	325.55	20.09	-51.7	-54.0	14.8	0.00e+00	0	24	0	823132160	70	4443
2026-01-09 04:51:38.27	325.33	20.03	-51.7	-53.9	14.7	0.00e+00	0	24	0	825229312	69	4684
2026-01-09 04:51:39.27	325.11	19.97	-51.4	-53.6	14.8	0.00e+00	0	24	0	827326464	69	4498
2026-01-09 04:51:40.27	324.89	19.91	-51.4	-53.5	14.9	0.00e+00	0	23	0	829423616	69	4481
2026-01-09 04:51:41.28	324.67	19.84	-51.3	-53.4	14.9	0.00e+00	0	24	0	831520768	69	4419
2026-01-09 04:51:42.27	324.45	19.78	-51.0	-53.1	14.9	0.00e+00	0	24	0	832569344	68	4500
2026-01-09 04:51:43.27	324.24	19.72	-51.0	-53.1	14.9	0.00e+00	0	24	0	834666496	68	4508
2026-01-09 04:51:44.26	324.02	19.66	-50.9	-52.9	15.0	0.00e+00	0	24	0	836763648	68	4429
2026-01-09 04:51:45.26	323.81	19.59	-51.0	-53.0	15.0	0.00e+00	0	24	0	838860800	68	4449
2026-01-09 04:51:46.26	323.59	19.53	-50.8	-52.8	15.1	0.00e+00	0	24	0	840957952	68	4341
2026-01-09 04:51:47.26	323.38	19.47	-50.8	-52.7	15.1	0.00e+00	0	24	0	842006528	68	4322
2026-01-09 04:51:48.26	323.17	19.40	-50.5	-52.4	15.1	0.00e+00	0	24	0	844103680	67	4404
2026-01-09 04:51:49.26	322.96	19.34	-50.6	-52.5	15.0	0.00e+00	0	24	0	846200832	67	4484
2026-01-09 04:51:50.26	322.75	19.27	-50.5	-52.4	15.0	0.00e+00	0	24	0	848297984	67	4433
2026-01-09 04:51:51.26	322.54	19.21	-50.2	-52.0	15.2	0.00e+00	0	24	0	850395136	67	4234
2026-01-09 04:51:52.26	322.33	19.14	-50.3	-52.1	15.2	0.00e+00	0	23	0	851443712	67	4261
2026-01-09 04:51:53.26	322.12	19.08	-50.3	-52.1	15.2	0.00e+00	0	24	0	853540864	67	4287
2026-01-09 04:51:54.26	321.92	19.01	-50.5	-52.5	15.0	0.00e+00	0	24	0	855638016	67	4444
2026-01-09 04:51:55.25	321.71	18.95	-50.9	-52.9	14.7	0.00e+00	0	24	0	857735168	67	4699
2026-01-09 04:51:56.25	321.51	18.88	-51.3	-53.5	14.5	0.00e+00	0	24	0	858783744	67	4988
2026-01-09 04:51:57.26	321.30	18.82	-51.6	-53.9	14.5	0.00e+00	0	24	0	860880896	68	4975
2026-01-09 04:51:58.25	321.10	18.75	-52.0	-54.4	14.3	0.00e+00	0	24	0	862978048	69	4979
2026-01-09 04:51:59.25	320.90	18.68	-52.2	-54.7	14.2	0.00e+00	0	24	0	865075200	69	5155
2026-01-09 04:52:00.25	320.70	18.62	-52.2	-54.8	14.1	0.00e+00	0	24	0	867172352	69	5213
2026-01-09 04:52:01.25	320.50	18.55	-52.3	-54.9	14.1	0.00e+00	0	24	0	868220928	69	5235
2026-01-09 04:52:02.24	320.30	18.49	-52.3	-54.9	14.1	0.00e+00	0	24	0	870318080	69	5242
2026-01-09 04:52:03.24	320.10	18.42	-52.0	-54.5	14.3	0.00e+00	0	24	0	872415232	69	5002
2026-01-09 04:52:04.24	319.90	18.35	-51.7	-54.1	14.5	0.00e+00	0	24	0	874512384	69	4774
2026-01-09 04:52:05.25	319.70	18.28	-51.4	-53.7	14.7	0.00e+00	0	24	0	875560960	69	4552
2026-01-09 04:52:06.25	319.51	18.22	-51.4	-53.6	14.7	0.00e+00	0	24	0	877658112	69	4538
2026-01-09 04:52:07.24	319.31	18.15	-51.3	-53.4	14.9	0.00e+00	0	24	0	879755264	69	4432
2026-01-09 04:52:08.24	319.12	18.08	-51.2	-53.3	14.8	0.00e+00	0	24	0	881852416	68	4623
2026-01-09 04:52:09.24	318.93	18.01	-50.9	-53.0	14.9	0.00e+00	0	24	0	883949568	68	4444
2026-01-09 04:52:10.23	318.74	17.94	-50.5	-52.4	15.0	0.00e+00	0	24	0	884998144	67	4420
2026-01-09 04:52:11.22	318.55	17.88	-50.4	-52.4	15.1	0.00e+00	0	24	0	887095296	67	4403
2026-01-09 04:52:12.22	318.36	17.81	-50.3	-52.1	15.2	0.00e+00	0	24	0	889192448	67	4289
2026-01-09 04:52:13.22	318.17	17.74	-50.5	-52.5	15.1	0.00e+00	0	24	0	891289600	67	4442
2026-01-09 04:52:14.21	317.98	17.67	-50.6	-52.6	15.0	0.00e+00	0	24	0	893386752	67	4522
2026-01-09 04:52:15.21	317.79	17.60	-50.8	-52.9	14.8	0.00e+00	0	24	0	894435328	67	4668
2026-01-09 04:52:16.21	317.60	17.53	-51.2	-53.4	14.6	0.00e+00	0	24	0	896532480	67	4945
2026-01-09 04:52:17.21	317.42	17.47	-51.4	-53.6	14.4	0.00e+00	0	24	0	898629632	67	5091
2026-01-09 04:52:18.21	317.23	17.40	-51.5	-53.7	14.4	0.00e+00	0	24	0	900726784	68	4866
2026-01-09 04:52:19.20	317.05	17.33	-51.6	-53.8	14.5	0.00e+00	0	24	0	901775360	68	4917
2026-01-09 04:52:20.20	316.87	17.26	-51.6	-53.9	14.5	0.00e+00	0	24	0	903872512	68	4942
2026-01-09 04:52:21.20	316.68	17.19	-51.5	-53.7	14.6	0.00e+00	0	24	0	905969664	68	4856
2026-01-09 04:52:22.21	316.50	17.12	-51.4	-53.6	14.6	0.00e+00	0	24	0	908066816	68	4792
2026-01-09 04:52:23.21	316.32	17.05	-51.5	-53.7	14.6	0.00e+00	0	24	0	910163968	68	4841
2026-01-09 04:52:24.21	316.14	16.98	-51.7	-53.9	14.5	0.00e+00	0	24	0	911212544	68	4971
2026-01-09 04:52:25.21	315.96	16.91	-51.8	-54.2	14.3	0.00e+00	0	24	0	913309696	68	5124
2026-01-09 04:52:26.22	315.78	16.84	-51.8	-54.2	14.3	0.00e+00	0	24	0	915406848	68	5143
2026-01-09 04:52:27.22	315.60	16.77	-51.9	-54.2	14.3	0.00e+00	0	24	0	917504000	68	5157
2026-01-09 04:52:28.22	315.42	16.70	-52.0	-54.4	14.4	0.00e+00	0	23	0	919601152	69	4931
2026-01-09 04:52:29.22	315.25	16.63	-51.8	-54.1	14.6	0.00e+00	0	24	0	920649728	69	4775
2026-01-09 04:52:30.23	315.07	16.56	-51.7	-54.0	14.6	0.00e+00	0	24	0	922746880	69	4706
2026-01-09 04:52:31.22	314.90	16.49	-51.7	-53.9	14.6	0.00e+00	0	24	0	924844032	69	4679
2026-01-09 04:52:32.23	314.72	16.41	-51.6	-53.7	14.7	0.00e+00	0	24	0	926941184	69	4585
2026-01-09 04:52:33.23	314.55	16.34	-51.3	-53.4	14.9	0.00e+00	0	24	0	929038336	69	4425
2026-01-09 04:52:34.24	314.37	16.27	-51.2	-53.2	14.9	0.00e+00	0	24	0	930086912	68	4578
2026-01-09 04:52:35.24	314.20	16.20	-51.1	-53.1	14.9	0.00e+00	0	23	0	932184064	68	4504
2026-01-09 04:52:36.24	314.03	16.13	-51.0	-53.0	14.9	0.00e+00	0	24	0	934281216	68	4473
2026-01-09 04:52:37.24	313.86	16.06	-50.9	-52.8	15.0	0.00e+00	0	24	0	936378368	68	4381
2026-01-09 04:52:38.24	313.70	15.99	-51.2	-53.1	14.9	0.00e+00	0	24	0	937426944	68	4543
2026-01-09 04:52:39.23	313.53	15.92	-51.3	-53.4	14.7	0.00e+00	0	24	0	939524096	68	4656
2026-01-09 04:52:40.24	313.36	15.85	-51.5	-53.6	14.6	0.00e+00	0	24	0	941621248	68	4760
2026-01-09 04:52:41.24	313.19	15.78	-51.4	-53.4	14.7	0.00e+00	0	24	0	943718400	68	4691
2026-01-09 04:52:42.25	313.03	15.71	-51.2	-53.2	14.8	0.00e+00	0	24	0	945815552	68	4549
2026-01-09 04:52:43.25	312.86	15.63	-51.1	-52.9	15.0	0.00e+00	0	24	0	946864128	68	4436
2026-01-09 04:52:44.25	312.70	15.56	-50.7	-52.5	15.2	0.00e+00	0	24	0	948961280	68	4196
2026-01-09 04:52:45.25	312.54	15.49	-50.5	-52.3	15.0	0.00e+00	0	24	0	951058432	67	4383
2026-01-09 04:52:46.25	312.37	15.42	-50.1	-51.8	15.1	0.00e+00	0	24	0	953155584	66	4376
2026-01-09 04:52:47.25	312.21	15.35	-50.2	-51.9	15.1	0.00e+00	0	24	0	955252736	66	4439
2026-01-09 04:52:48.25	312.05	15.28	-50.2	-51.9	15.1	0.00e+00	0	24	0	956301312	66	4415
2026-01-09 04:52:49.25	311.89	15.21	-50.4	-52.1	15.0	0.00e+00	0	24	0	958398464	66	4524
2026-01-09 04:52:50.25	311.73	15.14	-50.4	-52.2	15.0	0.00e+00	0	24	0	960495616	66	4563
2026-01-09 04:52:51.25	311.57	15.06	-50.6	-52.3	14.9	0.00e+00	0	24	0	962592768	66	4649
2026-01-09 04:52:52.25	311.42	14.99	-50.6	-52.4	14.9	0.00e+00	0	24	0	964689920	66	4656
2026-01-09 04:52:53.26	311.26	14.92	-50.5	-52.3	14.9	0.00e+00	0	24	0	965738496	66	4602
2026-01-09 04:52:54.26	311.10	14.85	-50.8	-52.6	14.7	0.00e+00	0	24	0	967835648	66	4798
2026-01-09 04:52:55.26	310.95	14.78	-50.8	-52.7	14.7	0.00e+00	0	24	0	969932800	66	4836
2026-01-09 04:52:56.27	310.79	14.71	-51.0	-52.9	14.8	0.00e+00	0	24	0	972029952	67	4697
2026-01-09 04:52:57.27	310.64	14.64	-50.8	-52.7	14.9	0.00e+00	0	24	0	974127104	67	4569
2026-01-09 04:52:58.27	310.48	14.56	-50.9	-52.8	14.8	0.00e+00	0	24	0	975175680	67	4604
2026-01-09 04:52:59.27	310.33	14.49	-50.7	-52.5	14.9	0.00e+00	0	24	0	977272832	67	4491
2026-01-09 04:53:00.27	310.18	14.42	-50.7	-52.5	14.9	0.00e+00	0	24	0	979369984	67	4470
2026-01-09 04:53:01.27	310.03	14.35	-50.6	-52.3	15.0	0.00e+00	0	24	0	981467136	67	4383
2026-01-09 04:53:02.28	309.88	14.28	-50.5	-52.2	15.1	0.00e+00	0	24	0	982515712	67	4309
2026-01-09 04:53:03.28	309.73	14.21	-50.3	-52.0	15.2	0.00e+00	0	24	0	984612864	67	4197
2026-01-09 04:53:04.28	309.58	14.14	-50.4	-52.1	15.2	0.00e+00	0	24	0	986710016	67	4276
2026-01-09 04:53:05.28	309.43	14.06	-50.7	-52.5	15.0	0.00e+00	0	24	0	988807168	67	4470
2026-01-09 04:53:06.28	309.28	13.99	-50.8	-52.7	14.9	0.00e+00	0	24	0	990904320	67	4562
2026-01-09 04:53:07.28	309.14	13.92	-51.1	-53.0	14.7	0.00e+00	0	24	0	991952896	67	4736
2026-01-09 04:53:08.28	308.99	13.85	-51.3	-53.3	14.5	0.00e+00	0	24	0	994050048	67	4918
2026-01-09 04:53:09.28	308.85	13.78	-51.5	-53.6	14.6	0.00e+00	0	24	0	996147200	68	4764
2026-01-09 04:53:10.28	308.70	13.71	-51.6	-53.6	14.6	0.00e+00	0	24	0	998244352	68	4801
2026-01-09 04:53:11.28	308.56	13.64	-51.6	-53.6	14.6	0.00e+00	0	24	0	1000341504	68	4809
2026-01-09 04:53:12.29	308.41	13.57	-51.6	-53.6	14.6	0.00e+00	0	24	0	1001390080	68	4806
2026-01-09 04:53:13.30	308.27	13.49	-51.5	-53.6	14.6	0.00e+00	0	24	0	1003487232	68	4782
2026-01-09 04:53:14.30	308.13	13.42	-51.5	-53.6	14.6	0.00e+00	0	24	0	1005584384	68	4766
2026-01-09 04:53:15.29	307.99	13.35	-51.5	-53.5	14.6	0.00e+00	0	24	0	1007681536	68	4727
2026-01-09 04:53:16.29	307.85	13.28	-51.4	-53.4	14.7	0.00e+00	0	24	0	1009778688	68	4678
2026-01-09 04:53:17.29	307.71	13.21	-51.4	-53.4	14.7	0.00e+00	0	24	0	1010827264	68	4657
2026-01-09 04:53:18.30	307.57	13.14	-51.4	-53.3	14.7	0.00e+00	0	24	0	1012924416	68	4647
2026-01-09 04:53:19.30	307.43	13.07	-51.2	-53.2	14.8	0.00e+00	0	24	0	1015021568	68	4549
2026-01-09 04:53:20.29	307.29	13.00	-51.0	-52.9	14.9	0.00e+00	0	24	0	1017118720	68	4424
2026-01-09 04:53:21.29	307.16	12.93	-51.1	-53.0	14.9	0.00e+00	0	24	0	1018167296	68	4466
2026-01-09 04:53:22.29	307.02	12.86	-51.0	-52.8	15.0	0.00e+00	0	24	0	1020264448	68	4390
2026-01-09 04:53:23.29	306.89	12.79	-51.1	-52.9	14.9	0.00e+00	0	24	0	1022361600	68	4421
2026-01-09 04:53:24.29	306.75	12.72	-51.3	-53.2	14.7	0.00e+00	0	23	0	1024458752	68	4583
2026-01-09 04:53:25.29	306.62	12.65	-51.0	-52.8	15.0	0.00e+00	0	24	0	1026555904	68	4369
2026-01-09 04:53:26.29	306.48	12.57	-51.4	-53.4	14.7	0.00e+00	0	24	0	1027604480	68	4670
2026-01-09 04:53:27.29	306.35	12.50	-51.8	-53.9	14.4	0.00e+00	0	24	0	1029701632	68	4954
2026-01-09 04:53:28.29	306.22	12.43	-52.0	-54.1	14.4	0.00e+00	0	23	0	1031798784	69	4800
2026-01-09 04:53:29.29	306.09	12.36	-52.1	-54.3	14.4	0.00e+00	0	24	0	1033895936	69	4880
2026-01-09 04:53:30.29	305.96	12.29	-52.3	-54.6	14.2	0.00e+00	0	23	0	1035993088	69	5052
2026-01-09 04:53:31.28	305.83	12.22	-52.3	-54.6	14.4	0.00e+00	0	24	0	1037041664	70	4763
2026-01-09 04:53:32.28	305.70	12.15	-52.1	-54.3	14.5	0.00e+00	0	24	0	1039138816	70	4633
2026-01-09 04:53:33.28	305.57	12.08	-52.1	-54.4	14.5	0.00e+00	0	24	0	1041235968	70	4655
2026-01-09 04:53:34.28	305.44	12.01	-51.9	-54.0	14.7	0.00e+00	0	24	0	1043333120	70	4446
2026-01-09 04:53:35.29	305.31	11.94	-51.5	-53.5	14.8	0.00e+00	0	24	0	1044381696	69	4463
2026-01-09 04:53:36.29	305.18	11.87	-51.4	-53.3	14.9	0.00e+00	0	24	0	1046478848	69	4383
2026-01-09 04:53:37.29	305.06	11.80	-51.4	-53.3	14.9	0.00e+00	0	24	0	1048576000	69	4380
2026-01-09 04:53:38.29	304.93	11.73	-51.4	-53.3	14.9	0.00e+00	0	24	0	1050673152	69	4390
2026-01-09 04:53:39.30	304.80	11.66	-51.4	-53.4	14.8	0.00e+00	0	24	0	1052770304	69	4423
2026-01-09 04:53:40.30	304.68	11.59	-51.4	-53.4	14.8	0.00e+00	0	24	0	1053818880	69	4419
2026-01-09 04:53:41.30	304.56	11.52	-51.3	-53.3	14.9	0.00e+00	0	24	0	1055916032	69	4353
2026-01-09 04:53:42.30	304.43	11.45	-51.5	-53.6	14.7	0.00e+00	0	24	0	1058013184	69	4503
2026-01-09 04:53:43.30	304.31	11.38	-51.6	-53.6	14.7	0.00e+00	0	24	0	1060110336	69	4526
2026-01-09 04:53:44.30	304.19	11.31	-51.6	-53.6	14.7	0.00e+00	0	24	0	1062207488	69	4508
2026-01-09 04:53:45.30	304.07	11.24	-51.5	-53.5	14.8	0.00e+00	0	24	0	1063256064	69	4490
2026-01-09 04:53:46.30	303.94	11.18	-51.6	-53.7	14.7	0.00e+00	0	24	0	1065353216	69	4559
2026-01-09 04:53:47.30	303.82	11.11	-51.6	-53.6	14.7	0.00e+00	0	24	0	1067450368	69	4513
2026-01-09 04:53:48.30	303.70	11.04	-51.6	-53.6	14.7	0.00e+00	0	24	0	1069547520	69	4528
2026-01-09 04:53:49.30	303.59	10.97	-51.8	-53.9	14.5	0.00e+00	0	24	0	1071644672	69	4664
2026-01-09 04:53:50.30	303.47	10.90	-51.9	-54.0	14.5	0.00e+00	0	24	0	1072693248	69	4750
2026-01-09 04:53:51.30	303.35	10.83	-51.9	-54.1	14.5	0.00e+00	0	24	0	1074790400	69	4764
2026-01-09 04:53:52.31	303.23	10.76	-52.0	-54.3	14.4	0.00e+00	0	24	0	1076887552	69	4873
2026-01-09 04:53:53.31	303.11	10.69	-52.1	-54.4	14.3	0.00e+00	0	24	0	1078984704	69	4947
2026-01-09 04:53:54.31	303.00	10.62	-52.2	-54.6	14.2	0.00e+00	0	24	0	1081081856	69	5053
2026-01-09 04:53:55.31	302.88	10.55	-52.3	-54.7	14.1	0.00e+00	0	24	0	1082130432	69	5124
2026-01-09 04:53:56.31	302.76	10.49	-52.4	-54.8	14.0	0.00e+00	0	24	0	1084227584	69	5185
2026-01-09 04:53:57.32	302.65	10.42	-52.2	-54.5	14.2	0.00e+00	0	23	0	1086324736	69	5021
2026-01-09 04:53:58.32	302.53	10.35	-52.3	-54.7	14.1	0.00e+00	0	24	0	1088421888	69	5106
2026-01-09 04:53:59.31	302.42	10.28	-52.2	-54.6	14.2	0.00e+00	0	24	0	1089470464	69	5069
2026-01-09 04:54:00.31	302.31	10.21	-52.3	-54.7	14.1	0.00e+00	0	24	0	1091567616	69	5108
2026-01-09 04:54:01.31	302.20	10.14	-52.3	-54.8	14.1	0.00e+00	0	24	0	1093664768	69	5169
2026-01-09 04:54:02.31	302.08	10.08	-52.4	-54.8	14.2	0.00e+00	0	24	0	1095761920	70	4893
2026-01-09 04:54:03.32	301.97	10.01	-52.5	-55.0	14.0	0.00e+00	0	24	0	1097859072	70	5014
2026-01-09 04:54:04.32	301.86	9.94	-52.7	-55.2	13.9	0.00e+00	0	24	0	1098907648	70	5142
2026-01-09 04:54:05.33	301.75	9.87	-52.9	-55.6	13.7	0.00e+00	0	24	0	1101004800	70	5351
2026-01-09 04:54:06.33	301.64	9.80	-52.8	-55.5	13.9	0.00e+00	0	24	0	1103101952	71	4991
2026-01-09 04:54:07.33	301.53	9.73	-52.8	-55.5	13.9	0.00e+00	0	24	0	1105199104	71	5014
2026-01-09 04:54:08.34	301.42	9.67	-53.0	-55.8	13.7	0.00e+00	0	24	0	1107296256	71	5189
2026-01-09 04:54:09.33	301.31	9.60	-52.9	-55.5	13.9	0.00e+00	0	24	0	1108344832	71	5034
2026-01-09 04:54:10.33	301.20	9.53	-52.8	-55.5	13.9	0.00e+00	0	24	0	1110441984	71	4993
2026-01-09 04:54:11.33	301.10	9.46	-52.8	-55.3	14.0	0.00e+00	0	24	0	1112539136	71	4923
2026-01-09 04:54:12.33	300.99	9.40	-52.7	-55.2	14.1	0.00e+00	0	24	0	1114636288	71	4850
2026-01-09 04:54:13.33	300.88	9.33	-52.7	-55.2	14.1	0.00e+00	0	24	0	1116733440	71	4825
2026-01-09 04:54:14.34	300.78	9.26	-52.4	-54.8	14.3	0.00e+00	0	24	0	1117782016	71	4626
2026-01-09 04:54:15.33	300.67	9.20	-52.2	-54.5	14.5	0.00e+00	0	24	0	1119879168	71	4469
2026-01-09 04:54:16.34	300.57	9.13	-52.0	-54.2	14.5	0.00e+00	0	24	0	1121976320	70	4561
2026-01-09 04:54:17.34	300.46	9.06	-52.0	-54.2	14.5	0.00e+00	0	24	0	1124073472	70	4594
2026-01-09 04:54:18.33	300.36	9.00	-52.1	-54.2	14.5	0.00e+00	0	24	0	1125122048	70	4590
2026-01-09 04:54:19.33	300.26	8.93	-52.0	-54.2	14.4	0.00e+00	0	24	0	1127219200	70	4595
2026-01-09 04:54:20.34	300.15	8.86	-51.9	-54.1	14.5	0.00e+00	0	24	0	1129316352	70	4532
2026-01-09 04:54:21.34	300.05	8.79	-52.1	-54.3	14.4	0.00e+00	0	24	0	1131413504	70	4642
2026-01-09 04:54:22.34	299.95	8.73	-52.3	-54.7	14.2	0.00e+00	0	24	0	1133510656	70	4817
2026-01-09 04:54:23.33	299.85	8.66	-52.3	-54.7	14.2	0.00e+00	0	24	0	1134559232	70	4821
2026-01-09 04:54:24.33	299.75	8.60	-52.6	-55.0	14.0	0.00e+00	0	24	0	1136656384	70	5024
2026-01-09 04:54:25.33	299.65	8.53	-52.4	-54.8	14.1	0.00e+00	0	24	0	1138753536	70	4926
2026-01-09 04:54:26.32	299.55	8.46	-52.6	-55.0	14.0	0.00e+00	0	24	0	1140850688	70	5033
2026-01-09 04:54:27.33	299.45	8.40	-52.5	-54.9	14.1	0.00e+00	0	24	0	1142947840	70	4977
2026-01-09 04:54:28.33	299.35	8.33	-52.7	-55.1	13.9	0.00e+00	0	24	0	1143996416	70	5094
2026-01-09 04:54:29.33	299.25	8.27	-52.6	-55.1	14.0	0.00e+00	0	24	0	1146093568	70	5071
2026-01-09 04:54:30.33	299.15	8.20	-52.6	-55.0	14.0	0.00e+00	0	24	0	1148190720	70	5023
2026-01-09 04:54:31.32	299.05	8.14	-52.5	-54.9	14.1	0.00e+00	0	24	0	1150287872	70	4975
2026-01-09 04:54:32.33	298.96	8.07	-52.4	-54.7	14.2	0.00e+00	0	24	0	1151336448	70	4865
2026-01-09 04:54:33.33	298.86	8.00	-52.5	-54.9	14.1	0.00e+00	0	24	0	1153433600	70	4935
2026-01-09 04:54:34.34	298.76	7.94	-52.4	-54.8	14.1	0.00e+00	0	24	0	1155530752	70	4913
2026-01-09 04:54:35.34	298.67	7.87	-52.3	-54.7	14.2	0.00e+00	0	24	0	1157627904	70	4825
2026-01-09 04:54:36.33	298.57	7.81	-52.3	-54.7	14.2	0.00e+00	0	24	0	1159725056	70	4844
2026-01-09 04:54:37.34	298.47	7.74	-52.4	-54.7	14.1	0.00e+00	0	24	0	1160773632	70	4861
2026-01-09 04:54:38.33	298.38	7.68	-52.2	-54.6	14.3	0.00e+00	0	24	0	1162870784	70	4765
2026-01-09 04:54:39.33	298.29	7.61	-52.3	-54.7	14.1	0.00e+00	0	24	0	1164967936	70	4856
2026-01-09 04:54:40.33	298.19	7.55	-52.3	-54.7	14.2	0.00e+00	0	24	0	1167065088	70	4834
2026-01-09 04:54:41.33	298.10	7.48	-52.5	-54.9	14.0	0.00e+00	0	24	0	1169162240	70	4973
2026-01-09 04:54:42.33	298.01	7.42	-52.5	-54.9	14.0	0.00e+00	0	24	0	1170210816	70	4963
2026-01-09 04:54:43.34	297.91	7.35	-52.6	-55.2	13.9	0.00e+00	0	24	0	1172307968	70	5123
2026-01-09 04:54:44.34	297.82	7.29	-52.6	-55.2	13.9	0.00e+00	0	24	0	1174405120	70	5103
2026-01-09 04:54:45.35	297.73	7.22	-52.7	-55.2	13.8	0.00e+00	0	24	0	1176502272	70	5158
2026-01-09 04:54:46.35	297.64	7.16	-52.9	-55.7	13.6	0.00e+00	0	24	0	1178599424	70	5410
2026-01-09 04:54:47.33	297.55	7.10	-52.9	-55.6	13.7	0.00e+00	0	24	0	1179648000	71	5071
2026-01-09 04:54:48.33	297.46	7.03	-53.1	-55.9	13.5	0.00e+00	0	24	0	1181745152	71	5235
2026-01-09 04:54:49.33	297.37	6.97	-53.1	-56.0	13.5	0.00e+00	0	24	0	1183842304	71	5321
2026-01-09 04:54:50.33	297.28	6.90	-53.3	-56.3	13.3	0.00e+00	0	24	0	1185939456	71	5480
2026-01-09 04:54:51.33	297.19	6.84	-53.3	-56.3	13.3	0.00e+00	0	24	0	1186988032	71	5492
2026-01-09 04:54:52.34	297.10	6.78	-53.5	-56.5	13.2	0.00e+00	0	24	0	1189085184	72	5340
2026-01-09 04:54:53.34	297.01	6.71	-53.6	-56.8	13.1	0.00e+00	0	24	0	1191182336	72	5501
2026-01-09 04:54:54.34	296.92	6.65	-53.6	-56.8	13.0	0.00e+00	0	24	0	1193279488	72	5514
2026-01-09 04:54:55.34	296.84	6.59	-53.6	-56.9	13.0	0.00e+00	0	24	0	1195376640	72	5548
2026-01-09 04:54:56.34	296.75	6.52	-53.8	-57.1	12.8	0.00e+00	0	24	0	1196425216	72	5721
2026-01-09 04:54:57.34	296.66	6.46	-53.9	-57.3	12.8	0.00e+00	0	24	0	1198522368	73	5511
2026-01-09 04:54:58.33	296.58	6.40	-53.8	-57.2	12.8	0.00e+00	0	24	0	1200619520	73	5439
2026-01-09 04:54:59.33	296.49	6.33	-53.8	-57.2	12.8	0.00e+00	0	24	0	1202716672	73	5445
2026-01-09 04:55:00.32	296.41	6.27	-53.8	-57.2	12.8	0.00e+00	0	24	0	1204813824	73	5461
2026-01-09 04:55:01.31	296.32	6.21	-53.9	-57.3	12.8	0.00e+00	0	24	0	1205862400	73	5507
2026-01-09 04:55:02.31	296.24	6.15	-53.9	-57.4	12.7	0.00e+00	0	24	0	1207959552	73	5568
2026-01-09 04:55:03.32	296.15	6.08	-53.9	-57.3	12.8	0.00e+00	0	24	0	1210056704	73	5509
