passes_logs/2026/01/09/R3.2S_Murmansk/R3.2S_Murmansk__20260109_082141_NOAA_20_JPSS-1_rec.log

#Pass ID: 20260109_082141_NOAA 20 (JPSS-1)
#Satellite: NOAA 20 (JPSS-1)
#Configuration: NOAA 20
#almurnet v.1.7.20251203
#Start time: 2026-01-09 08:21:41

#Version: 2.2.20231116
#Station: R3.2S_Murmansk
#Location: 33.079688 lon 68.888172 lat
#TLE: 1 43013U 17073A   26008.56343035  .00000133  00000+0  84205-4 0  9993
#TLE: 2 43013  98.7630 309.5710 0001731  48.5146 311.6178 14.19534569421822

#Time	Az	El	Level	Level2	SNR	BER	BlckErr	Temp	State	Recorded	gain1	gain2
2026-01-09 08:21:41.45	124.48	2.02	-54.7	-70.6	3.8	1.49e+00	0	22	0	0	74	23981
2026-01-09 08:21:42.46	124.46	2.09	-54.7	-70.6	3.8	1.49e+00	0	22	104	0	74	24020
2026-01-09 08:21:43.47	124.43	2.15	-54.7	-70.6	3.8	1.49e+00	0	22	104	0	74	24098
2026-01-09 08:21:44.48	124.40	2.22	-54.7	-70.6	3.8	1.49e+00	0	22	104	0	74	23995
2026-01-09 08:21:45.49	124.38	2.28	-54.7	-70.6	3.8	1.49e+00	0	22	104	0	74	24037
2026-01-09 08:21:46.49	124.35	2.34	-54.7	-70.6	3.8	1.49e+00	0	22	104	0	74	24041
2026-01-09 08:21:47.49	124.33	2.41	-54.7	-70.6	3.8	1.49e+00	0	22	104	0	74	24033
2026-01-09 08:21:48.49	124.30	2.47	-54.7	-70.6	3.8	1.49e+00	0	22	104	0	74	24044
2026-01-09 08:21:49.49	124.27	2.54	-54.7	-70.6	3.8	1.49e+00	0	22	104	0	74	24108
2026-01-09 08:21:50.49	124.25	2.60	-54.7	-70.6	3.8	1.49e+00	0	22	104	0	74	24084
2026-01-09 08:21:51.49	124.22	2.66	-54.7	-70.6	3.8	1.49e+00	0	22	104	0	74	24085
2026-01-09 08:21:52.49	124.19	2.73	-54.7	-70.6	3.8	1.49e+00	0	22	104	0	74	24049
2026-01-09 08:21:53.50	124.16	2.79	-54.7	-70.6	3.8	1.49e+00	0	22	104	0	74	24059
2026-01-09 08:21:54.50	124.14	2.86	-54.7	-70.6	3.8	1.49e+00	0	22	104	0	74	24056
2026-01-09 08:21:55.50	124.11	2.92	-54.7	-70.6	3.8	1.49e+00	0	22	104	0	74	24104
2026-01-09 08:21:56.51	124.08	2.99	-54.7	-70.6	3.8	1.49e+00	0	22	104	0	74	24097
2026-01-09 08:21:57.51	124.05	3.06	-54.7	-70.6	3.8	1.49e+00	0	22	104	0	74	24108
2026-01-09 08:21:58.51	124.02	3.12	-54.7	-70.7	3.8	1.49e+00	0	22	104	0	74	24150
2026-01-09 08:21:59.52	124.00	3.19	-54.7	-70.6	3.8	1.49e+00	0	22	104	0	74	24118
2026-01-09 08:22:00.52	123.97	3.25	-54.7	-70.7	3.8	1.49e+00	0	22	104	0	74	24136
2026-01-09 08:22:01.53	123.94	3.32	-54.7	-70.6	3.8	1.49e+00	0	22	104	0	74	24111
2026-01-09 08:22:02.53	123.91	3.39	-54.7	-70.6	3.8	1.49e+00	0	22	104	0	74	24086
2026-01-09 08:22:03.54	123.88	3.45	-54.7	-70.7	3.8	1.49e+00	0	22	104	0	74	24155
2026-01-09 08:22:04.55	123.85	3.52	-54.4	-70.7	3.8	1.49e+00	0	22	104	0	74	24186
2026-01-09 08:22:05.56	123.82	3.59	-54.7	-70.6	3.8	1.49e+00	0	22	104	0	74	24119
2026-01-09 08:22:06.57	123.79	3.65	-54.7	-70.6	3.8	1.49e+00	0	22	104	0	74	24125
2026-01-09 08:22:07.58	123.76	3.72	-54.7	-70.6	3.8	1.49e+00	0	22	104	0	74	24111
2026-01-09 08:22:08.59	123.73	3.79	-54.7	-70.7	3.8	1.49e+00	0	22	104	0	74	24172
2026-01-09 08:22:09.59	123.70	3.86	-54.7	-70.6	3.8	1.49e+00	0	22	104	0	74	24129
2026-01-09 08:22:10.60	123.67	3.92	-54.7	-70.7	3.8	1.49e+00	0	22	104	0	74	24175
2026-01-09 08:22:11.61	123.64	3.99	-54.7	-70.7	3.8	1.49e+00	0	22	104	0	74	24167
2026-01-09 08:22:12.60	123.61	4.06	-54.7	-70.6	3.8	1.49e+00	0	22	104	0	74	24115
2026-01-09 08:22:13.61	123.58	4.13	-54.7	-70.6	3.8	1.49e+00	0	22	104	0	74	24102
2026-01-09 08:22:14.62	123.55	4.20	-54.7	-70.6	3.8	1.49e+00	0	22	104	0	74	24102
2026-01-09 08:22:15.62	123.52	4.26	-54.7	-70.6	3.8	1.49e+00	0	23	104	0	74	24119
2026-01-09 08:22:16.62	123.49	4.33	-54.7	-70.6	3.8	1.49e+00	0	23	104	0	74	24097
2026-01-09 08:22:17.62	123.46	4.40	-54.7	-70.7	3.8	1.49e+00	0	23	104	0	74	24135
2026-01-09 08:22:18.61	123.43	4.47	-54.7	-70.6	3.8	1.49e+00	0	23	104	0	74	24048
2026-01-09 08:22:19.60	123.40	4.54	-54.7	-70.7	3.8	1.49e+00	0	23	104	0	74	24138
2026-01-09 08:22:20.61	123.37	4.61	-54.7	-70.6	3.8	1.49e+00	0	22	104	0	74	24112
2026-01-09 08:22:21.61	123.34	4.68	-54.7	-70.6	3.8	1.49e+00	0	23	104	0	74	24106
2026-01-09 08:22:22.60	123.31	4.74	-54.7	-70.6	3.8	1.49e+00	0	23	104	0	74	24093
2026-01-09 08:22:23.59	123.27	4.81	-54.7	-70.6	3.8	1.49e+00	0	23	104	0	74	24102
2026-01-09 08:22:24.55	123.24	4.88	-54.7	-70.6	3.8	1.49e+00	0	23	104	0	74	24114
2026-01-09 08:22:25.52	123.21	4.95	-54.7	-70.7	3.8	1.49e+00	0	23	104	0	74	24154
2026-01-09 08:22:26.52	123.18	5.02	-54.7	-70.7	3.8	1.49e+00	0	23	104	0	74	24141
2026-01-09 08:22:27.51	123.15	5.09	-54.7	-70.7	3.8	1.49e+00	0	23	104	0	74	24183
2026-01-09 08:22:28.51	123.12	5.16	-54.7	-70.7	3.8	1.49e+00	0	23	104	0	74	24161
2026-01-09 08:22:29.51	123.08	5.23	-54.7	-70.7	3.8	1.49e+00	0	23	104	0	74	24138
2026-01-09 08:22:30.51	123.05	5.30	-54.6	-70.7	3.8	1.49e+00	0	23	104	0	74	24246
2026-01-09 08:22:31.51	123.02	5.37	-54.7	-70.7	3.8	1.49e+00	0	23	104	0	74	24238
2026-01-09 08:22:32.52	122.98	5.44	-54.7	-70.7	3.8	1.49e+00	0	23	104	0	74	24136
2026-01-09 08:22:33.53	122.95	5.51	-54.7	-70.7	3.8	1.49e+00	0	23	104	0	74	24205
2026-01-09 08:22:34.52	122.92	5.58	-54.7	-70.7	3.8	1.49e+00	0	23	104	0	74	24155
2026-01-09 08:22:35.51	122.88	5.65	-54.7	-70.7	3.8	1.49e+00	0	23	104	0	74	24191
2026-01-09 08:22:36.50	122.85	5.72	-54.7	-70.6	3.8	1.49e+00	0	23	104	0	74	24101
2026-01-09 08:22:37.50	122.81	5.80	-54.7	-70.7	3.8	1.49e+00	0	23	104	0	74	24186
2026-01-09 08:22:38.49	122.78	5.87	-54.7	-70.7	3.8	1.49e+00	0	23	104	0	74	24239
2026-01-09 08:22:39.48	122.75	5.94	-54.7	-70.7	3.8	1.49e+00	0	23	104	0	74	24222
2026-01-09 08:22:40.48	122.71	6.01	-54.7	-70.7	3.8	1.49e+00	0	23	104	0	74	24174
2026-01-09 08:22:41.48	122.68	6.08	-54.7	-70.7	3.8	1.49e+00	0	23	104	0	74	24220
2026-01-09 08:22:42.48	122.64	6.16	-54.7	-70.7	3.8	1.49e+00	0	23	104	0	74	24168
2026-01-09 08:22:43.49	122.61	6.23	-54.7	-70.7	3.8	1.49e+00	0	23	104	0	74	24158
2026-01-09 08:22:44.50	122.57	6.30	-54.7	-70.7	3.8	1.49e+00	0	23	104	0	74	24154
2026-01-09 08:22:45.49	122.53	6.38	-54.7	-70.7	3.8	1.49e+00	0	23	104	0	74	24212
2026-01-09 08:22:46.48	122.50	6.45	-54.8	-70.7	3.8	1.49e+00	0	23	104	0	74	24218
2026-01-09 08:22:47.47	122.46	6.52	-54.8	-70.7	3.8	1.49e+00	0	23	104	0	74	24278
2026-01-09 08:22:48.46	122.43	6.60	-54.7	-70.7	3.8	1.49e+00	0	23	104	0	74	24157
2026-01-09 08:22:49.47	122.39	6.67	-54.7	-70.7	3.8	1.49e+00	0	23	104	0	74	24178
2026-01-09 08:22:50.47	122.35	6.75	-54.7	-70.7	3.8	1.49e+00	0	23	104	0	74	24191
2026-01-09 08:22:51.46	122.32	6.82	-54.7	-70.7	3.8	1.49e+00	0	23	104	0	74	24160
2026-01-09 08:22:52.47	122.28	6.90	-54.7	-70.7	3.8	1.49e+00	0	23	104	0	74	24143
2026-01-09 08:22:53.47	122.24	6.97	-54.7	-70.7	3.8	1.49e+00	0	23	104	0	74	24201
2026-01-09 08:22:54.48	122.20	7.05	-54.7	-70.7	3.8	1.49e+00	0	23	104	0	74	24177
2026-01-09 08:22:55.48	122.17	7.12	-54.7	-70.7	3.8	1.49e+00	0	23	104	0	74	24196
2026-01-09 08:22:56.47	122.13	7.20	-54.7	-70.7	3.8	1.49e+00	0	23	104	0	74	24131
2026-01-09 08:22:57.47	122.09	7.27	-54.7	-70.7	3.8	1.49e+00	0	23	104	0	74	24173
2026-01-09 08:22:58.47	122.05	7.35	-54.7	-70.7	3.8	1.49e+00	0	23	104	0	74	24135
2026-01-09 08:22:59.47	122.01	7.43	-54.7	-70.6	3.8	1.49e+00	0	23	104	0	74	24111
2026-01-09 08:23:00.46	121.97	7.50	-54.7	-70.6	3.8	1.49e+00	0	23	104	0	74	24128
2026-01-09 08:23:01.47	121.93	7.58	-54.7	-70.7	3.8	1.49e+00	0	23	104	0	74	24188
2026-01-09 08:23:02.47	121.90	7.66	-54.8	-70.7	3.8	1.49e+00	0	23	104	0	74	24188
2026-01-09 08:23:03.47	121.86	7.73	-54.8	-70.7	3.8	1.49e+00	0	23	104	0	74	24256
2026-01-09 08:23:04.48	121.82	7.81	-54.8	-70.7	3.8	1.49e+00	0	23	104	0	74	24249
2026-01-09 08:23:05.49	121.78	7.89	-54.8	-70.7	3.8	1.49e+00	0	23	104	0	74	24220
2026-01-09 08:23:06.49	121.74	7.97	-54.8	-70.7	3.8	1.49e+00	0	23	104	0	74	24228
2026-01-09 08:23:07.50	121.69	8.05	-54.8	-70.7	3.8	1.49e+00	0	23	104	0	74	24268
2026-01-09 08:23:08.50	121.65	8.12	-54.8	-70.7	3.8	1.49e+00	0	23	104	0	74	24275
2026-01-09 08:23:09.50	121.61	8.20	-54.8	-70.7	3.8	1.49e+00	0	23	104	0	74	24219
2026-01-09 08:23:10.50	121.57	8.28	-54.8	-70.7	3.8	1.49e+00	0	23	104	0	74	24203
2026-01-09 08:23:11.50	121.53	8.36	-54.8	-70.7	3.8	1.49e+00	0	23	104	0	74	24259
2026-01-09 08:23:12.51	121.49	8.44	-54.8	-70.7	3.8	1.49e+00	0	23	104	0	74	24238
2026-01-09 08:23:13.51	121.45	8.52	-54.8	-70.7	3.8	1.49e+00	0	23	104	0	74	24288
2026-01-09 08:23:14.52	121.40	8.60	-54.7	-70.7	3.8	1.49e+00	0	23	104	0	74	24207
2026-01-09 08:23:15.53	121.36	8.68	-54.7	-70.7	3.8	1.49e+00	0	23	104	0	74	24184
2026-01-09 08:23:16.53	121.32	8.76	-54.8	-70.7	3.8	1.49e+00	0	23	104	0	74	24213
2026-01-09 08:23:17.54	121.27	8.84	-54.7	-70.7	3.8	1.49e+00	0	23	104	0	74	24152
2026-01-09 08:23:18.55	121.23	8.92	-54.7	-70.7	3.8	1.49e+00	0	23	104	0	74	24159
2026-01-09 08:23:19.56	121.19	9.01	-54.8	-70.7	3.8	1.49e+00	0	23	104	0	74	24217
2026-01-09 08:23:20.57	121.14	9.09	-54.7	-70.7	3.8	1.49e+00	0	23	104	0	74	24167
2026-01-09 08:23:21.57	121.10	9.17	-54.7	-70.7	3.8	1.49e+00	0	23	104	0	74	24220
2026-01-09 08:23:22.58	121.05	9.25	-54.8	-70.7	3.8	1.49e+00	0	23	104	0	74	24186
2026-01-09 08:23:23.59	121.01	9.33	-54.8	-70.7	3.8	1.49e+00	0	23	104	0	74	24281
2026-01-09 08:23:24.60	120.96	9.42	-54.7	-70.7	3.8	1.49e+00	0	23	104	0	74	24195
2026-01-09 08:23:25.61	120.92	9.50	-54.8	-70.7	3.8	1.49e+00	0	23	104	0	74	24166
2026-01-09 08:23:26.62	120.87	9.58	-54.8	-70.7	3.8	1.49e+00	0	23	104	0	74	24219
2026-01-09 08:23:27.62	120.83	9.67	-54.8	-70.7	3.8	1.49e+00	0	23	104	0	74	24234
2026-01-09 08:23:28.62	120.78	9.75	-54.8	-70.7	3.8	1.49e+00	0	23	104	0	74	24224
2026-01-09 08:23:29.62	120.74	9.83	-54.8	-70.7	3.8	1.49e+00	0	23	104	0	74	24251
2026-01-09 08:23:30.63	120.69	9.92	-54.8	-70.7	3.8	1.49e+00	0	23	104	0	74	24229
2026-01-09 08:23:31.64	120.64	10.00	-54.8	-70.7	3.8	1.49e+00	0	23	104	0	74	24235
2026-01-09 08:23:32.65	120.59	10.09	-54.8	-70.7	3.8	1.49e+00	0	23	104	0	74	24249
2026-01-09 08:23:33.66	120.55	10.17	-54.8	-70.7	3.8	1.49e+00	0	23	104	0	74	24202
2026-01-09 08:23:34.67	120.50	10.26	-54.8	-70.7	3.8	1.49e+00	0	23	104	0	74	24228
2026-01-09 08:23:35.68	120.45	10.35	-54.8	-70.7	3.8	1.49e+00	0	23	104	0	74	24247
2026-01-09 08:23:36.68	120.40	10.43	-54.8	-70.7	3.8	1.49e+00	0	23	104	0	74	24217
2026-01-09 08:23:37.70	120.35	10.52	-54.7	-70.7	3.8	1.49e+00	0	23	104	0	74	24209
2026-01-09 08:23:38.70	120.30	10.60	-54.7	-70.7	3.8	1.49e+00	0	23	104	0	74	24213
2026-01-09 08:23:39.71	120.25	10.69	-54.8	-70.7	3.8	1.49e+00	0	24	104	0	74	24204
2026-01-09 08:23:40.72	120.20	10.78	-54.7	-70.7	3.8	1.49e+00	0	23	104	0	74	24186
2026-01-09 08:23:41.73	120.15	10.87	-54.8	-70.7	3.8	1.49e+00	0	23	104	0	74	24225
2026-01-09 08:23:42.74	120.10	10.95	-54.8	-70.7	3.8	1.49e+00	0	23	104	0	74	24273
2026-01-09 08:23:43.74	120.05	11.04	-54.8	-70.7	3.8	1.49e+00	0	24	104	0	74	24249
2026-01-09 08:23:44.75	120.00	11.13	-54.8	-70.7	3.8	1.49e+00	0	23	104	0	74	24290
2026-01-09 08:23:45.76	119.95	11.22	-54.8	-70.7	3.8	1.49e+00	0	24	104	0	74	24283
2026-01-09 08:23:46.77	119.90	11.31	-54.8	-70.7	3.8	1.49e+00	0	24	104	0	74	24306
2026-01-09 08:23:47.77	119.85	11.40	-54.8	-70.7	3.8	1.49e+00	0	24	104	0	74	24294
2026-01-09 08:23:48.78	119.79	11.49	-54.8	-70.7	3.8	1.49e+00	0	23	104	0	74	24180
2026-01-09 08:23:49.78	119.74	11.57	-54.8	-70.7	3.8	1.49e+00	0	23	104	0	74	24231
2026-01-09 08:23:50.79	119.69	11.66	-54.8	-70.7	3.8	1.49e+00	0	24	104	0	74	24256
2026-01-09 08:23:51.79	119.64	11.75	-54.8	-70.7	3.8	1.49e+00	0	23	104	0	74	24217
2026-01-09 08:23:52.80	119.58	11.85	-54.8	-70.7	3.8	1.49e+00	0	23	104	0	74	24227
2026-01-09 08:23:53.80	119.53	11.94	-54.8	-70.7	3.8	1.49e+00	0	23	104	0	74	24171
2026-01-09 08:23:54.80	119.47	12.03	-54.8	-70.7	3.8	1.49e+00	0	24	104	0	74	24262
2026-01-09 08:23:55.80	119.42	12.12	-54.8	-70.7	3.8	1.49e+00	0	23	104	0	74	24260
2026-01-09 08:23:56.80	119.36	12.21	-54.7	-70.7	3.8	1.49e+00	0	23	104	0	74	24193
2026-01-09 08:23:57.81	119.31	12.30	-54.8	-70.7	3.8	1.49e+00	0	24	104	0	74	24261
2026-01-09 08:23:58.81	119.25	12.39	-54.7	-70.7	3.8	1.49e+00	0	23	104	0	74	24211
2026-01-09 08:23:59.81	119.20	12.49	-54.7	-70.7	3.8	1.49e+00	0	24	104	0	74	24177
2026-01-09 08:24:00.81	119.14	12.58	-54.7	-70.7	3.8	1.49e+00	0	24	104	0	74	24151
2026-01-09 08:24:01.82	119.08	12.67	-54.8	-70.7	3.8	1.49e+00	0	24	104	0	74	24191
2026-01-09 08:24:02.83	119.03	12.77	-54.8	-70.7	3.8	1.49e+00	0	24	104	0	74	24237
2026-01-09 08:24:03.84	118.97	12.86	-54.8	-70.7	3.8	1.49e+00	0	23	104	0	74	24277
2026-01-09 08:24:04.85	118.91	12.95	-54.8	-70.7	3.8	1.49e+00	0	23	104	0	74	24162
2026-01-09 08:24:05.86	118.85	13.05	-54.8	-70.7	3.8	1.49e+00	0	24	104	0	74	24191
2026-01-09 08:24:06.87	118.79	13.15	-54.7	-70.7	3.8	1.49e+00	0	23	104	0	74	24209
2026-01-09 08:24:07.87	118.73	13.24	-54.7	-70.7	3.8	1.49e+00	0	23	104	0	74	24278
2026-01-09 08:24:08.87	118.67	13.34	-54.8	-70.7	3.8	1.49e+00	0	24	104	0	74	24250
2026-01-09 08:24:09.88	118.61	13.43	-54.8	-70.7	3.8	1.49e+00	0	24	104	0	74	24261
2026-01-09 08:24:10.89	118.55	13.53	-54.8	-70.7	3.8	1.49e+00	0	24	104	0	74	24265
2026-01-09 08:24:11.90	118.49	13.63	-54.8	-70.7	3.8	1.49e+00	0	23	104	0	74	24328
2026-01-09 08:24:12.91	118.43	13.72	-54.8	-70.7	3.8	1.49e+00	0	24	104	0	74	24311
2026-01-09 08:24:13.91	118.37	13.82	-54.8	-70.7	3.8	1.49e+00	0	24	104	0	74	24268
2026-01-09 08:24:14.92	118.31	13.92	-54.8	-70.7	3.8	1.49e+00	0	24	104	0	74	24287
2026-01-09 08:24:15.93	118.24	14.02	-54.8	-70.7	3.8	1.49e+00	0	24	104	0	74	24311
2026-01-09 08:24:16.93	118.18	14.12	-54.8	-70.7	3.8	1.49e+00	0	23	104	0	74	24286
2026-01-09 08:24:17.93	118.12	14.21	-54.8	-70.7	3.8	1.49e+00	0	23	104	0	74	24287
2026-01-09 08:24:18.94	118.05	14.31	-54.8	-70.7	3.8	1.49e+00	0	24	104	0	74	24266
2026-01-09 08:24:19.94	117.99	14.41	-54.8	-70.7	3.8	1.49e+00	0	24	104	0	74	24306
2026-01-09 08:24:20.95	117.92	14.51	-54.8	-70.7	3.8	1.49e+00	0	24	104	0	74	24283
2026-01-09 08:24:21.96	117.86	14.61	-54.8	-70.7	3.8	1.49e+00	0	23	104	0	74	24335
2026-01-09 08:24:22.97	117.79	14.71	-54.8	-70.7	3.8	1.49e+00	0	24	104	0	74	24196
2026-01-09 08:24:23.98	117.72	14.82	-54.8	-70.7	3.8	1.49e+00	0	24	104	0	74	24291
2026-01-09 08:24:24.99	117.66	14.92	-54.8	-70.7	3.8	1.49e+00	0	24	104	0	74	24238
2026-01-09 08:24:26.00	117.59	15.02	-54.8	-70.7	3.8	1.49e+00	0	24	104	0	74	24245
2026-01-09 08:24:27.01	117.52	15.12	-54.8	-70.7	3.8	1.49e+00	0	24	104	0	74	24225
2026-01-09 08:24:28.01	117.45	15.23	-54.8	-70.7	3.8	1.49e+00	0	24	104	0	74	24271
2026-01-09 08:24:29.02	117.39	15.33	-54.8	-70.7	3.8	1.49e+00	0	24	104	0	74	24291
2026-01-09 08:24:30.03	117.32	15.43	-54.8	-70.7	3.8	1.49e+00	0	24	104	0	74	24278
2026-01-09 08:24:31.04	117.25	15.54	-54.8	-70.7	3.8	1.49e+00	0	24	104	0	74	24337
2026-01-09 08:24:32.04	117.18	15.64	-54.8	-70.7	3.8	1.49e+00	0	24	104	0	74	24271
2026-01-09 08:24:33.04	117.11	15.75	-54.8	-70.7	3.8	1.49e+00	0	24	104	0	74	24321
2026-01-09 08:24:34.04	117.03	15.85	-54.8	-70.7	3.8	1.49e+00	0	24	104	0	74	24283
2026-01-09 08:24:35.05	116.96	15.96	-54.8	-70.7	3.8	1.49e+00	0	24	104	0	74	24299
2026-01-09 08:24:36.06	116.89	16.06	-54.8	-70.7	3.8	1.49e+00	0	24	104	0	74	24359
2026-01-09 08:24:37.07	116.82	16.17	-54.8	-70.7	3.8	1.49e+00	0	24	104	0	74	24269
2026-01-09 08:24:38.07	116.74	16.27	-54.8	-70.7	3.8	1.49e+00	0	23	104	0	74	24248
2026-01-09 08:24:39.08	116.67	16.38	-54.8	-70.7	3.8	1.49e+00	0	24	104	0	74	24271
2026-01-09 08:24:40.09	116.59	16.49	-54.8	-70.7	3.8	1.49e+00	0	24	104	0	74	24257
2026-01-09 08:24:41.09	116.52	16.60	-54.8	-70.7	3.8	1.49e+00	0	24	104	0	74	24392
2026-01-09 08:24:42.10	116.44	16.71	-54.8	-70.7	3.8	1.49e+00	0	24	104	0	74	24277
2026-01-09 08:24:43.11	116.37	16.82	-54.8	-70.7	3.8	1.49e+00	0	24	104	0	74	24265
2026-01-09 08:24:44.11	116.29	16.92	-54.8	-70.7	3.8	1.49e+00	0	24	104	0	74	24307
2026-01-09 08:24:45.12	116.21	17.04	-54.8	-70.7	3.8	1.49e+00	0	24	104	0	74	24233
2026-01-09 08:24:46.13	116.14	17.15	-54.8	-70.7	3.8	1.49e+00	0	24	104	0	74	24342
2026-01-09 08:24:47.14	116.06	17.26	-54.8	-70.7	3.8	1.49e+00	0	23	104	0	74	24312
2026-01-09 08:24:48.14	115.98	17.37	-54.8	-70.7	3.8	1.49e+00	0	24	104	0	74	24347
2026-01-09 08:24:49.15	115.90	17.48	-54.8	-70.7	3.8	1.49e+00	0	24	104	0	74	24283
2026-01-09 08:24:50.16	115.82	17.59	-54.8	-70.7	3.8	1.49e+00	0	24	104	0	74	24257
2026-01-09 08:24:51.17	115.74	17.70	-54.8	-70.7	3.8	1.49e+00	0	24	104	0	74	24305
2026-01-09 08:24:52.18	115.65	17.82	-54.8	-70.7	3.8	1.49e+00	0	24	104	0	74	24327
2026-01-09 08:24:53.19	115.57	17.93	-54.8	-70.7	3.8	1.49e+00	0	24	104	0	74	24317
2026-01-09 08:24:54.20	115.49	18.05	-54.8	-70.7	3.8	1.49e+00	0	24	104	0	74	24209
2026-01-09 08:24:55.21	115.40	18.16	-54.8	-70.7	3.8	1.49e+00	0	24	104	0	74	24281
2026-01-09 08:24:56.22	115.32	18.28	-54.8	-70.7	3.8	1.49e+00	0	24	104	0	74	24259
2026-01-09 08:24:57.23	115.23	18.39	-54.8	-70.7	3.8	1.49e+00	0	24	104	0	74	24331
2026-01-09 08:24:58.23	115.15	18.51	-54.8	-70.7	3.8	1.49e+00	0	24	104	0	74	24317
2026-01-09 08:24:59.24	115.06	18.62	-54.8	-70.7	3.8	1.49e+00	0	24	104	0	74	24320
2026-01-09 08:25:00.25	114.98	18.74	-54.8	-70.7	3.8	1.49e+00	0	24	104	0	74	24354
2026-01-09 08:25:01.26	114.89	18.86	-54.8	-70.7	3.8	1.49e+00	0	24	104	0	74	24255
2026-01-09 08:25:02.27	114.80	18.98	-54.8	-70.7	3.8	1.49e+00	0	24	104	0	74	24275
2026-01-09 08:25:03.27	114.71	19.09	-54.8	-70.7	3.8	1.49e+00	0	24	104	0	74	24295
2026-01-09 08:25:04.27	114.62	19.21	-54.8	-70.7	3.8	1.49e+00	0	24	104	0	74	24349
2026-01-09 08:25:05.27	114.53	19.33	-54.8	-70.7	3.8	1.49e+00	0	24	104	0	74	24319
2026-01-09 08:25:06.28	114.44	19.45	-54.8	-70.7	3.8	1.49e+00	0	24	104	0	74	24277
2026-01-09 08:25:07.29	114.35	19.57	-54.8	-70.7	3.8	1.49e+00	0	24	104	0	74	24295
2026-01-09 08:25:08.30	114.25	19.69	-54.8	-70.7	3.8	1.49e+00	0	24	104	0	74	24259
2026-01-09 08:25:09.31	114.16	19.81	-54.8	-70.7	3.8	1.49e+00	0	24	104	0	74	24305
2026-01-09 08:25:10.31	114.07	19.93	-54.8	-70.7	3.8	1.49e+00	0	24	104	0	74	24315
2026-01-09 08:25:11.33	113.97	20.06	-54.8	-70.7	3.8	1.49e+00	0	24	104	0	74	24297
2026-01-09 08:25:12.34	113.87	20.18	-54.8	-70.7	3.8	1.49e+00	0	24	104	0	74	24301
2026-01-09 08:25:13.35	113.78	20.30	-54.8	-70.7	3.8	1.49e+00	0	24	104	0	74	24300
2026-01-09 08:25:14.35	113.68	20.43	-54.8	-70.7	3.8	1.49e+00	0	24	104	0	74	24305
2026-01-09 08:25:15.36	113.58	20.55	-54.8	-70.7	3.8	1.49e+00	0	24	104	0	74	24321
2026-01-09 08:25:16.37	113.48	20.68	-54.8	-70.7	3.8	1.49e+00	0	24	104	0	74	24365
2026-01-09 08:25:17.37	113.38	20.80	-54.8	-70.7	3.8	1.49e+00	0	24	104	0	74	24333
2026-01-09 08:25:18.38	113.28	20.93	-54.8	-70.7	3.8	1.49e+00	0	24	104	0	74	24366
2026-01-09 08:25:19.38	113.18	21.05	-54.8	-70.7	3.8	1.49e+00	0	24	104	0	74	24369
2026-01-09 08:25:20.39	113.08	21.18	-54.8	-70.7	3.8	1.49e+00	0	24	104	0	74	24353
2026-01-09 08:25:21.40	112.97	21.31	-54.8	-70.7	3.8	1.49e+00	0	24	104	0	74	24381
2026-01-09 08:25:22.41	112.87	21.44	-54.8	-70.7	3.8	1.49e+00	0	24	104	0	74	24358
2026-01-09 08:25:23.42	112.76	21.57	-54.8	-70.8	3.8	1.49e+00	0	24	104	0	74	24418
2026-01-09 08:25:24.42	112.66	21.69	-54.8	-70.7	3.8	1.49e+00	0	23	104	0	74	24370
2026-01-09 08:25:25.42	112.55	21.82	-54.8	-70.7	3.8	1.49e+00	0	24	104	0	74	24389
2026-01-09 08:25:26.43	112.44	21.95	-54.8	-70.7	3.8	1.49e+00	0	24	104	0	74	24373
2026-01-09 08:25:27.44	112.34	22.08	-54.8	-70.7	3.8	1.49e+00	0	24	104	0	74	24346
2026-01-09 08:25:28.45	112.23	22.22	-54.8	-70.7	3.8	1.49e+00	0	24	104	0	74	24347
2026-01-09 08:25:29.46	112.11	22.35	-54.8	-70.7	3.8	1.49e+00	0	24	104	0	74	24368
2026-01-09 08:25:30.47	112.00	22.48	-54.8	-70.7	3.8	1.49e+00	0	24	104	0	74	24351
2026-01-09 08:25:31.48	111.89	22.61	-54.8	-70.7	3.8	1.49e+00	0	24	104	0	74	24369
2026-01-09 08:25:32.49	111.77	22.75	-54.8	-70.7	3.8	1.49e+00	0	24	104	0	74	24278
2026-01-09 08:25:33.50	111.66	22.88	-54.8	-70.7	3.8	1.49e+00	0	24	104	0	74	24332
2026-01-09 08:25:34.51	111.54	23.02	-54.8	-70.7	3.8	1.49e+00	0	24	104	0	74	24334
2026-01-09 08:25:35.50	111.43	23.15	-54.8	-70.7	3.9	1.49e+00	0	24	104	0	74	24310
2026-01-09 08:25:36.50	111.31	23.29	-54.8	-70.7	3.8	1.49e+00	0	24	104	0	74	24382
2026-01-09 08:25:37.51	111.19	23.42	-54.8	-70.8	3.8	1.49e+00	0	24	104	0	74	24422
2026-01-09 08:25:38.52	111.07	23.56	-54.8	-70.7	3.8	1.49e+00	0	24	104	0	74	24376
2026-01-09 08:25:39.53	110.95	23.70	-54.8	-70.7	3.8	1.49e+00	0	24	104	0	74	24356
2026-01-09 08:25:40.54	110.83	23.84	-54.8	-70.7	3.8	1.49e+00	0	24	104	0	74	24346
2026-01-09 08:25:41.55	110.71	23.98	-54.8	-70.7	3.8	1.49e+00	0	24	104	0	74	24365
2026-01-09 08:25:42.56	110.58	24.12	-54.8	-70.7	3.8	1.49e+00	0	24	104	0	74	24335
2026-01-09 08:25:43.57	110.45	24.26	-54.8	-70.7	3.8	1.49e+00	0	24	104	0	74	24298
2026-01-09 08:25:44.57	110.33	24.40	-54.8	-70.7	3.8	1.49e+00	0	24	104	0	74	24344
2026-01-09 08:25:45.58	110.20	24.54	-54.8	-70.7	3.8	1.49e+00	0	24	104	0	74	24327
2026-01-09 08:25:46.59	110.07	24.68	-54.8	-70.7	3.8	1.49e+00	0	24	104	0	74	24384
2026-01-09 08:25:47.60	109.94	24.82	-54.8	-70.7	3.8	1.49e+00	0	23	104	0	74	24393
2026-01-09 08:25:48.61	109.81	24.97	-54.8	-70.7	3.8	1.49e+00	0	24	104	0	74	24363
2026-01-09 08:25:49.62	109.68	25.11	-54.8	-70.7	3.8	1.49e+00	0	24	104	0	74	24313
2026-01-09 08:25:50.63	109.54	25.25	-54.8	-70.7	3.8	1.49e+00	0	24	104	0	74	24387
2026-01-09 08:25:51.64	109.41	25.40	-54.8	-70.7	3.8	1.49e+00	0	24	104	0	74	24341
2026-01-09 08:25:52.65	109.27	25.55	-54.8	-70.7	3.8	1.49e+00	0	24	104	0	74	24378
2026-01-09 08:25:53.66	109.13	25.69	-54.8	-70.8	3.8	1.49e+00	0	24	104	0	74	24431
2026-01-09 08:25:54.66	108.99	25.84	-54.8	-70.7	3.8	1.49e+00	0	24	104	0	74	24364
2026-01-09 08:25:55.67	108.85	25.99	-54.8	-70.7	3.8	1.49e+00	0	24	104	0	74	24327
2026-01-09 08:25:56.68	108.71	26.13	-54.8	-70.7	3.8	1.49e+00	0	24	104	0	74	24376
2026-01-09 08:25:57.69	108.57	26.28	-54.8	-70.7	3.8	1.49e+00	0	24	104	0	74	24390
2026-01-09 08:25:58.70	108.42	26.43	-54.8	-70.7	3.8	1.49e+00	0	24	104	0	74	24404
2026-01-09 08:25:59.71	108.28	26.58	-54.8	-70.7	3.9	1.49e+00	0	24	104	0	74	24338
2026-01-09 08:26:00.72	108.13	26.73	-54.8	-70.7	3.8	1.49e+00	0	24	104	0	74	24364
2026-01-09 08:26:01.73	107.98	26.89	-54.8	-70.7	3.8	1.49e+00	0	24	104	0	74	24352
2026-01-09 08:26:02.73	107.83	27.04	-54.8	-70.7	3.8	1.49e+00	0	24	104	0	74	24309
2026-01-09 08:26:03.74	107.68	27.19	-54.8	-70.7	3.8	1.49e+00	0	24	104	0	74	24369
2026-01-09 08:26:04.74	107.53	27.34	-54.8	-70.7	3.8	1.49e+00	0	24	104	0	74	24293
2026-01-09 08:26:05.75	107.37	27.49	-54.8	-70.7	3.8	1.49e+00	0	24	104	0	74	24391
2026-01-09 08:26:06.76	107.22	27.65	-54.8	-70.7	3.8	1.49e+00	0	24	104	0	74	24366
2026-01-09 08:26:07.76	107.06	27.80	-54.8	-70.7	3.8	1.49e+00	0	24	104	0	74	24359
2026-01-09 08:26:08.76	106.90	27.96	-54.8	-70.7	3.8	1.49e+00	0	24	104	0	74	24404
2026-01-09 08:26:09.76	106.74	28.11	-54.8	-70.7	3.8	1.49e+00	0	24	104	0	74	24374
2026-01-09 08:26:10.76	106.58	28.27	-54.8	-70.7	3.8	1.49e+00	0	24	104	0	74	24274
2026-01-09 08:26:11.77	106.42	28.43	-54.8	-70.7	3.8	1.49e+00	0	24	104	0	74	24356
2026-01-09 08:26:12.78	106.25	28.58	-54.8	-70.7	3.8	1.49e+00	0	24	104	0	74	24339
2026-01-09 08:26:13.79	106.08	28.74	-54.8	-70.8	3.8	1.49e+00	0	24	104	0	74	24423
2026-01-09 08:26:14.80	105.91	28.90	-54.8	-70.7	3.8	1.49e+00	0	24	104	0	74	24348
2026-01-09 08:26:15.81	105.74	29.06	-54.7	-70.7	3.8	1.49e+00	0	24	104	0	74	24365
2026-01-09 08:26:16.82	105.57	29.22	-54.8	-70.7	3.8	1.49e+00	0	24	104	0	74	24332
2026-01-09 08:26:17.83	105.40	29.38	-54.8	-70.7	3.8	1.49e+00	0	24	104	0	74	24334
2026-01-09 08:26:18.83	105.22	29.55	-54.8	-70.7	3.8	1.49e+00	0	24	104	0	74	24325
2026-01-09 08:26:19.84	105.04	29.71	-54.8	-70.7	3.8	1.49e+00	0	24	104	0	74	24362
2026-01-09 08:26:20.84	104.86	29.87	-54.8	-70.7	3.8	1.49e+00	0	24	104	0	74	24355
2026-01-09 08:26:21.85	104.68	30.03	-54.8	-70.7	3.8	1.49e+00	0	24	104	0	74	24378
2026-01-09 08:26:22.86	104.50	30.20	-54.8	-70.7	3.8	1.49e+00	0	24	104	0	74	24339
2026-01-09 08:26:23.87	104.31	30.36	-54.8	-70.7	3.8	1.49e+00	0	24	104	0	74	24320
2026-01-09 08:26:24.87	104.13	30.53	-54.8	-70.7	3.8	1.49e+00	0	24	104	0	74	24397
2026-01-09 08:26:25.88	103.94	30.69	-54.8	-70.7	3.8	1.49e+00	0	24	104	0	74	24408
2026-01-09 08:26:26.89	103.75	30.86	-54.8	-70.7	3.8	1.49e+00	0	24	104	0	74	24368
2026-01-09 08:26:27.90	103.55	31.03	-54.8	-70.8	3.8	1.49e+00	0	24	104	0	74	24436
2026-01-09 08:26:28.91	103.36	31.20	-54.8	-70.8	3.8	1.49e+00	0	24	104	0	74	24468
2026-01-09 08:26:29.91	103.16	31.36	-54.8	-70.7	3.8	1.49e+00	0	24	104	0	74	24403
2026-01-09 08:26:30.92	102.96	31.53	-54.8	-70.7	3.8	1.49e+00	0	24	104	0	74	24343
2026-01-09 08:26:31.93	102.76	31.70	-54.8	-70.7	3.8	1.49e+00	0	24	104	0	74	24385
2026-01-09 08:26:32.94	102.56	31.87	-54.8	-70.7	3.8	1.49e+00	0	24	104	0	74	24370
2026-01-09 08:26:33.94	102.35	32.04	-54.8	-70.7	3.8	1.49e+00	0	24	104	0	74	24403
2026-01-09 08:26:34.95	102.14	32.21	-54.8	-70.7	3.8	1.49e+00	0	24	104	0	74	24407
2026-01-09 08:26:35.96	101.93	32.39	-54.8	-70.7	3.8	1.49e+00	0	24	104	0	74	24388
2026-01-09 08:26:36.97	101.72	32.56	-54.8	-70.8	3.8	1.49e+00	0	24	104	0	74	24445
2026-01-09 08:26:37.97	101.51	32.73	-54.8	-70.8	3.8	1.49e+00	0	24	104	0	74	24416
2026-01-09 08:26:38.97	101.29	32.90	-54.8	-70.8	3.8	1.49e+00	0	24	104	0	74	24422
2026-01-09 08:26:39.98	101.07	33.08	-54.8	-70.7	3.8	1.49e+00	0	24	104	0	74	24348
2026-01-09 08:26:40.98	100.85	33.25	-54.8	-70.7	3.8	1.49e+00	0	24	104	0	74	24406
2026-01-09 08:26:41.99	100.63	33.42	-54.8	-70.8	3.8	1.49e+00	0	24	104	0	74	24449
2026-01-09 08:26:43.00	100.40	33.60	-54.8	-70.8	3.8	1.49e+00	0	24	104	0	74	24436
2026-01-09 08:26:44.01	100.17	33.78	-54.8	-70.8	3.8	1.49e+00	0	24	104	0	74	24433
2026-01-09 08:26:45.01	99.94	33.95	-54.8	-70.7	3.8	1.49e+00	0	24	104	0	74	24377
2026-01-09 08:26:46.02	99.71	34.13	-54.8	-70.7	3.8	1.49e+00	0	24	104	0	74	24410
2026-01-09 08:26:47.03	99.47	34.30	-54.8	-70.7	3.8	1.49e+00	0	24	104	0	74	24379
2026-01-09 08:26:48.04	99.23	34.48	-54.8	-70.7	3.8	1.49e+00	0	24	104	0	74	24382
2026-01-09 08:26:49.04	98.99	34.66	-54.8	-70.7	3.8	1.49e+00	0	24	104	0	74	24335
2026-01-09 08:26:50.05	98.74	34.84	-54.8	-70.7	3.8	1.49e+00	0	24	104	0	74	24406
2026-01-09 08:26:51.06	98.49	35.02	-54.8	-70.8	3.8	1.49e+00	0	24	104	0	74	24415
2026-01-09 08:26:52.06	98.25	35.20	-54.8	-70.7	3.8	1.49e+00	0	24	104	0	74	24355
2026-01-09 08:26:53.07	97.99	35.38	-54.8	-70.7	3.8	1.49e+00	0	24	104	0	74	24408
2026-01-09 08:26:54.08	97.74	35.56	-54.8	-70.7	3.8	1.49e+00	0	24	104	0	74	24364
2026-01-09 08:26:55.08	97.48	35.73	-54.8	-70.7	3.8	1.49e+00	0	24	104	0	74	24315
2026-01-09 08:26:56.09	97.22	35.92	-54.8	-70.7	3.8	1.49e+00	0	24	104	0	74	24384
2026-01-09 08:26:57.10	96.95	36.10	-54.8	-70.8	3.8	1.49e+00	0	24	104	0	74	24412
2026-01-09 08:26:58.01	96.71	36.26	-54.8	-70.7	3.8	1.49e+00	0	24	104	0	74	24395
2026-01-09 08:26:59.02	96.44	36.44	-54.8	-70.7	3.8	1.49e+00	0	24	104	0	74	24395
2026-01-09 08:27:00.03	96.17	36.62	-54.8	-70.7	3.8	1.49e+00	0	24	104	0	74	24386
2026-01-09 08:27:01.04	95.89	36.81	-54.8	-70.7	3.8	1.49e+00	0	24	104	0	74	24328
2026-01-09 08:27:02.05	95.61	36.99	-54.8	-70.8	3.8	1.49e+00	0	24	104	0	74	24428
2026-01-09 08:27:03.06	95.33	37.17	-54.8	-70.7	3.8	1.49e+00	0	24	104	0	74	24408
2026-01-09 08:27:04.07	95.04	37.36	-54.8	-70.7	3.8	1.49e+00	0	24	104	0	74	24376
2026-01-09 08:27:05.07	94.75	37.54	-54.8	-70.7	3.8	1.49e+00	0	24	104	0	74	24364
2026-01-09 08:27:06.08	94.46	37.72	-54.8	-70.7	3.8	1.49e+00	0	24	104	0	74	24391
2026-01-09 08:27:07.09	94.16	37.90	-54.8	-70.7	3.8	1.49e+00	0	24	104	0	74	24361
2026-01-09 08:27:08.10	93.86	38.09	-54.8	-70.7	3.8	1.49e+00	0	24	104	0	74	24329
2026-01-09 08:27:09.11	93.56	38.27	-54.8	-70.8	3.8	1.49e+00	0	24	104	0	74	24434
2026-01-09 08:27:10.12	93.25	38.46	-54.8	-70.7	3.8	1.49e+00	0	24	104	0	74	24395
2026-01-09 08:27:11.12	92.95	38.64	-54.8	-70.7	3.8	1.49e+00	0	24	104	0	74	24361
2026-01-09 08:27:12.13	92.63	38.82	-54.8	-70.8	3.8	1.49e+00	0	24	104	0	74	24425
2026-01-09 08:27:13.13	92.32	39.00	-54.8	-70.7	3.8	1.49e+00	0	24	104	0	74	24376
2026-01-09 08:27:14.15	91.99	39.19	-54.8	-70.7	3.8	1.49e+00	0	24	104	0	74	24355
2026-01-09 08:27:15.15	91.67	39.37	-54.8	-70.7	3.8	1.49e+00	0	24	104	0	74	24407
2026-01-09 08:27:16.16	91.34	39.56	-54.8	-70.7	3.8	1.49e+00	0	24	104	0	74	24408
2026-01-09 08:27:17.17	91.01	39.74	-54.8	-70.8	3.8	1.49e+00	0	24	104	0	74	24423
2026-01-09 08:27:18.18	90.68	39.92	-54.8	-70.8	3.8	1.49e+00	0	24	104	0	74	24452
2026-01-09 08:27:19.19	90.34	40.11	-54.8	-70.8	3.8	1.49e+00	0	24	104	0	74	24476
2026-01-09 08:27:20.20	89.99	40.29	-54.8	-70.7	3.8	1.49e+00	0	24	104	0	74	24364
2026-01-09 08:27:21.21	89.64	40.47	-54.8	-70.7	3.8	1.49e+00	0	24	104	0	74	24388
2026-01-09 08:27:22.21	89.30	40.65	-54.4	-70.8	3.8	1.49e+00	0	24	104	0	74	24424
2026-01-09 08:27:23.22	88.94	40.83	-54.8	-70.8	3.8	1.49e+00	0	24	104	0	74	24425
2026-01-09 08:27:24.23	88.58	41.02	-54.8	-70.7	3.8	1.49e+00	0	24	104	0	74	24392
2026-01-09 08:27:25.24	88.22	41.20	-54.8	-70.8	3.8	1.49e+00	0	24	104	0	74	24433
2026-01-09 08:27:26.25	87.85	41.38	-54.8	-70.8	3.8	1.49e+00	0	24	104	0	74	24462
2026-01-09 08:27:27.26	87.48	41.56	-54.8	-70.8	3.8	1.49e+00	0	24	104	0	74	24454
2026-01-09 08:27:28.27	87.10	41.74	-54.8	-70.8	3.8	1.49e+00	0	24	104	0	74	24474
2026-01-09 08:27:29.27	86.73	41.92	-54.8	-70.8	3.8	1.49e+00	0	24	104	0	74	24483
2026-01-09 08:27:30.28	86.34	42.10	-54.8	-70.8	3.8	1.49e+00	0	24	104	0	74	24472
2026-01-09 08:27:31.29	85.95	42.27	-54.8	-70.8	3.8	1.49e+00	0	24	104	0	74	24425
2026-01-09 08:27:32.30	85.56	42.45	-54.8	-70.8	3.8	1.49e+00	0	24	104	0	74	24418
2026-01-09 08:27:33.30	85.17	42.63	-54.8	-70.8	3.8	1.49e+00	0	24	104	0	74	24417
2026-01-09 08:27:34.32	84.76	42.80	-54.8	-70.8	3.8	1.49e+00	0	24	104	0	74	24450
2026-01-09 08:27:35.32	84.36	42.98	-54.8	-70.8	3.8	1.49e+00	0	24	104	0	74	24415
2026-01-09 08:27:36.33	83.95	43.15	-54.8	-70.8	3.8	1.49e+00	0	24	104	0	74	24492
2026-01-09 08:27:37.34	83.53	43.33	-54.8	-70.8	3.8	1.49e+00	0	24	104	0	74	24462
2026-01-09 08:27:38.34	83.12	43.50	-54.8	-70.8	3.8	1.49e+00	0	24	104	0	74	24442
2026-01-09 08:27:39.35	82.69	43.67	-54.8	-70.7	3.8	1.49e+00	0	24	104	0	74	24409
2026-01-09 08:27:40.35	82.27	43.84	-54.8	-70.7	3.8	1.49e+00	0	24	104	0	74	24352
2026-01-09 08:27:41.36	81.83	44.01	-54.8	-70.7	3.8	1.49e+00	0	24	104	0	74	24410
2026-01-09 08:27:42.36	81.40	44.18	-54.8	-70.8	3.8	1.49e+00	0	24	104	0	74	24442
2026-01-09 08:27:43.36	80.96	44.34	-54.8	-70.8	3.8	1.49e+00	0	24	104	0	74	24427
2026-01-09 08:27:44.37	80.51	44.51	-54.8	-70.7	3.8	1.49e+00	0	24	104	0	74	24352
2026-01-09 08:27:45.38	80.06	44.67	-54.8	-70.8	3.8	1.49e+00	0	24	104	0	74	24414
2026-01-09 08:27:46.39	79.60	44.84	-54.8	-70.7	3.8	1.49e+00	0	24	104	0	74	24346
2026-01-09 08:27:47.40	79.14	45.00	-54.8	-70.8	3.8	1.49e+00	0	24	104	0	74	24416
2026-01-09 08:27:48.40	78.68	45.16	-54.8	-70.8	3.8	1.49e+00	0	24	104	0	74	24507
2026-01-09 08:27:49.42	78.20	45.32	-54.8	-70.8	3.8	1.49e+00	0	24	104	0	74	24477
2026-01-09 08:27:50.43	77.73	45.48	-54.8	-70.8	3.8	1.49e+00	0	24	104	0	74	24452
2026-01-09 08:27:51.43	77.25	45.63	-54.8	-70.7	3.8	1.49e+00	0	24	104	0	74	24365
2026-01-09 08:27:52.44	76.77	45.78	-54.8	-70.8	3.8	1.49e+00	0	24	104	0	74	24425
2026-01-09 08:27:53.44	76.28	45.94	-54.8	-70.8	3.8	1.49e+00	0	24	104	0	74	24467
2026-01-09 08:27:54.45	75.79	46.09	-54.8	-70.8	3.8	1.49e+00	0	24	104	0	74	24478
2026-01-09 08:27:55.46	75.29	46.24	-54.8	-70.8	3.8	1.49e+00	0	24	104	0	74	24419
2026-01-09 08:27:56.47	74.78	46.38	-54.8	-70.7	3.8	1.49e+00	0	24	104	0	74	24379
2026-01-09 08:27:57.48	74.27	46.53	-54.8	-70.8	3.8	1.49e+00	0	24	104	0	74	24415
2026-01-09 08:27:58.49	73.76	46.67	-54.8	-70.7	3.8	1.49e+00	0	24	104	0	74	24382
2026-01-09 08:27:59.50	73.24	46.81	-54.8	-70.7	3.8	1.49e+00	0	24	104	0	74	24366
2026-01-09 08:28:00.50	72.72	46.95	-54.8	-70.8	3.8	1.49e+00	0	24	104	0	74	24433
2026-01-09 08:28:01.51	72.20	47.09	-54.8	-70.8	3.8	1.49e+00	0	24	104	0	74	24430
2026-01-09 08:28:02.52	71.66	47.22	-54.8	-70.8	3.8	1.49e+00	0	24	104	0	74	24450
2026-01-09 08:28:03.53	71.13	47.35	-54.8	-70.7	3.8	1.49e+00	0	24	104	0	74	24373
2026-01-09 08:28:04.54	70.59	47.48	-54.8	-70.7	3.8	1.49e+00	0	24	104	0	74	24398
2026-01-09 08:28:05.55	70.04	47.61	-54.8	-70.7	3.8	1.49e+00	0	24	104	0	74	24379
2026-01-09 08:28:06.56	69.49	47.74	-54.8	-70.7	3.8	1.49e+00	0	24	104	0	74	24377
2026-01-09 08:28:07.57	68.93	47.86	-54.8	-70.7	3.8	1.49e+00	0	24	104	0	74	24391
2026-01-09 08:28:08.58	68.38	47.98	-54.8	-70.7	3.8	1.49e+00	0	24	104	0	74	24408
2026-01-09 08:28:09.58	67.82	48.09	-54.8	-70.7	3.8	1.49e+00	0	24	104	0	74	24368
2026-01-09 08:28:10.59	67.25	48.21	-54.8	-70.8	3.8	1.49e+00	0	24	104	0	74	24432
2026-01-09 08:28:11.60	66.68	48.32	-54.8	-70.8	3.8	1.49e+00	0	24	104	0	74	24433
2026-01-09 08:28:12.61	66.10	48.43	-54.8	-70.8	3.8	1.49e+00	0	24	104	0	74	24420
2026-01-09 08:28:13.62	65.52	48.53	-54.8	-70.7	3.8	1.49e+00	0	24	104	0	74	24386
2026-01-09 08:28:14.62	64.94	48.64	-54.8	-70.8	3.8	1.49e+00	0	24	104	0	74	24417
2026-01-09 08:28:15.62	64.36	48.74	-54.8	-70.8	3.8	1.49e+00	0	24	104	0	74	24458
2026-01-09 08:28:16.63	63.77	48.83	-54.8	-70.8	3.8	1.49e+00	0	24	104	0	74	24479
2026-01-09 08:28:17.64	63.18	48.93	-54.8	-70.7	3.8	1.49e+00	0	24	104	0	74	24361
2026-01-09 08:28:18.64	62.58	49.02	-54.8	-70.8	3.8	1.49e+00	0	24	104	0	74	24413
2026-01-09 08:28:19.65	61.98	49.10	-54.8	-70.7	3.8	1.49e+00	0	24	104	0	74	24385
2026-01-09 08:28:20.66	61.37	49.19	-54.8	-70.8	3.8	1.49e+00	0	24	104	0	74	24467
2026-01-09 08:28:21.67	60.77	49.27	-54.8	-70.7	3.8	1.49e+00	0	24	104	0	74	24333
2026-01-09 08:28:22.68	60.15	49.35	-54.8	-70.8	3.8	1.49e+00	0	24	104	0	74	24424
2026-01-09 08:28:23.69	59.54	49.42	-54.8	-70.7	3.8	1.49e+00	0	24	104	0	74	24372
2026-01-09 08:28:24.70	58.92	49.49	-54.8	-70.7	3.8	1.49e+00	0	24	104	0	74	24345
2026-01-09 08:28:25.70	58.31	49.56	-54.8	-70.7	3.8	1.49e+00	0	24	104	0	74	24357
2026-01-09 08:28:26.70	57.69	49.62	-54.8	-70.8	3.8	1.49e+00	0	24	104	0	74	24420
2026-01-09 08:28:27.71	57.06	49.68	-54.8	-70.8	3.8	1.49e+00	0	24	104	0	74	24419
2026-01-09 08:28:28.72	56.43	49.74	-54.8	-70.8	3.8	1.49e+00	0	24	104	0	74	24441
2026-01-09 08:28:29.73	55.80	49.79	-54.8	-70.8	3.8	1.49e+00	0	24	104	0	74	24468
2026-01-09 08:28:30.73	55.18	49.84	-54.8	-70.8	3.8	1.49e+00	0	24	104	0	74	24433
2026-01-09 08:28:31.74	54.54	49.88	-54.8	-70.7	3.8	1.49e+00	0	24	104	0	74	24410
2026-01-09 08:28:32.75	53.91	49.93	-54.8	-70.8	3.8	1.49e+00	0	24	104	0	74	24424
2026-01-09 08:28:33.76	53.27	49.96	-54.8	-70.7	3.8	1.49e+00	0	24	104	0	74	24379
2026-01-09 08:28:34.77	52.63	50.00	-54.8	-70.8	3.8	1.49e+00	0	24	104	0	74	24467
2026-01-09 08:28:35.78	51.99	50.03	-54.8	-70.8	3.8	1.49e+00	0	24	104	0	74	24412
2026-01-09 08:28:36.78	51.35	50.06	-54.8	-70.7	3.8	1.49e+00	0	24	104	0	74	24400
2026-01-09 08:28:37.79	50.71	50.08	-54.8	-70.7	3.8	1.49e+00	0	24	104	0	74	24387
2026-01-09 08:28:38.79	50.07	50.10	-54.8	-70.8	3.8	1.49e+00	0	24	104	0	74	24423
2026-01-09 08:28:39.80	49.43	50.11	-54.8	-70.8	3.8	1.49e+00	0	24	104	0	74	24475
2026-01-09 08:28:40.81	48.78	50.12	-54.8	-70.8	3.8	1.49e+00	0	24	104	0	74	24447
2026-01-09 08:28:41.81	48.14	50.13	-54.8	-70.8	3.8	1.49e+00	0	24	104	0	74	24444
2026-01-09 08:28:42.82	47.49	50.14	-54.8	-70.8	3.8	1.49e+00	0	24	104	0	74	24470
2026-01-09 08:28:43.83	46.85	50.14	-54.8	-70.8	3.8	1.49e+00	0	24	104	0	74	24496
2026-01-09 08:28:44.84	46.20	50.13	-54.9	-70.8	3.8	1.49e+00	0	24	104	0	74	24539
2026-01-09 08:28:45.84	45.56	50.12	-54.8	-70.8	3.8	1.49e+00	0	24	104	0	74	24502
2026-01-09 08:28:46.84	44.92	50.11	-54.9	-70.8	3.8	1.49e+00	0	24	104	0	74	24482
2026-01-09 08:28:47.85	44.28	50.10	-54.8	-70.8	3.8	1.49e+00	0	24	104	0	74	24443
2026-01-09 08:28:48.86	43.64	50.08	-54.8	-70.8	3.8	1.49e+00	0	24	104	0	74	24549
2026-01-09 08:28:49.87	42.99	50.05	-54.8	-70.8	3.8	1.49e+00	0	24	104	0	74	24448
2026-01-09 08:28:50.87	42.36	50.03	-54.8	-70.8	3.8	1.49e+00	0	24	104	0	74	24495
2026-01-09 08:28:51.88	41.72	50.00	-54.8	-70.8	3.8	1.49e+00	0	24	104	0	74	24485
2026-01-09 08:28:52.89	41.08	49.96	-54.8	-70.8	3.8	1.49e+00	0	24	104	0	74	24499
2026-01-09 08:28:53.90	40.44	49.92	-54.8	-70.8	3.8	1.49e+00	0	24	104	0	74	24539
2026-01-09 08:28:54.91	39.80	49.88	-54.8	-70.8	3.8	1.49e+00	0	24	104	0	74	24508
2026-01-09 08:28:55.92	39.17	49.84	-54.8	-70.8	3.8	1.49e+00	0	24	104	0	74	24460
2026-01-09 08:28:56.92	38.54	49.79	-54.8	-70.8	3.8	1.49e+00	0	24	104	0	74	24430
2026-01-09 08:28:57.93	37.91	49.73	-54.8	-70.8	3.8	1.49e+00	0	24	104	0	74	24488
2026-01-09 08:28:58.94	37.29	49.68	-54.8	-70.8	3.8	1.49e+00	0	24	104	0	74	24504
2026-01-09 08:28:59.95	36.66	49.62	-54.8	-70.8	3.8	1.49e+00	0	24	104	0	74	24469
2026-01-09 08:29:00.95	36.04	49.55	-54.8	-70.8	3.8	1.49e+00	0	24	104	0	74	24490
2026-01-09 08:29:01.96	35.42	49.48	-54.8	-70.8	3.8	1.49e+00	0	24	104	0	74	24468
2026-01-09 08:29:02.97	34.81	49.41	-54.8	-70.8	3.8	1.49e+00	0	24	104	0	74	24509
2026-01-09 08:29:03.98	34.19	49.34	-54.8	-70.8	3.8	1.49e+00	0	24	104	0	74	24437
2026-01-09 08:29:04.99	33.58	49.26	-54.9	-70.8	3.8	1.49e+00	0	24	104	0	74	24497
2026-01-09 08:29:05.99	32.98	49.18	-54.8	-70.8	3.8	1.49e+00	0	24	104	0	74	24513
2026-01-09 08:29:07.01	32.37	49.10	-54.8	-70.8	3.8	1.49e+00	0	24	104	0	74	24534
2026-01-09 08:29:08.02	31.77	49.01	-54.8	-70.8	3.8	1.49e+00	0	24	104	0	74	24498
2026-01-09 08:29:09.03	31.17	48.92	-54.8	-70.8	3.8	1.49e+00	0	24	104	0	74	24538
2026-01-09 08:29:10.03	30.58	48.82	-54.8	-70.8	3.8	1.49e+00	0	24	104	0	74	24496
2026-01-09 08:29:11.03	29.99	48.73	-54.9	-70.8	3.8	1.49e+00	0	24	104	0	74	24488
2026-01-09 08:29:12.04	29.41	48.63	-54.5	-70.6	3.8	1.49e+00	0	24	104	0	73	25535
2026-01-09 08:29:13.04	28.83	48.53	-54.9	-70.8	3.8	1.49e+00	0	24	104	0	74	24562
2026-01-09 08:29:14.06	28.25	48.42	-54.9	-70.8	3.8	1.49e+00	0	24	104	0	74	24572
2026-01-09 08:29:15.06	27.68	48.31	-54.9	-70.8	3.8	1.49e+00	0	24	104	0	74	24549
2026-01-09 08:29:16.07	27.11	48.20	-54.9	-70.8	3.8	1.49e+00	0	24	104	0	74	24480
2026-01-09 08:29:17.08	26.54	48.09	-54.8	-70.8	3.8	1.49e+00	0	24	104	0	74	24469
2026-01-09 08:29:18.07	25.99	47.97	-54.8	-70.8	3.8	1.49e+00	0	24	104	0	74	24441
2026-01-09 08:29:19.07	25.44	47.85	-54.8	-70.8	3.8	1.49e+00	0	24	104	0	74	24451
2026-01-09 08:29:20.07	24.89	47.73	-54.9	-70.8	3.8	1.49e+00	0	24	104	0	74	24560
2026-01-09 08:29:21.08	24.34	47.61	-54.8	-70.8	3.8	1.49e+00	0	24	104	0	74	24529
2026-01-09 08:29:22.09	23.79	47.48	-54.9	-70.8	3.8	1.49e+00	0	24	104	0	74	24488
2026-01-09 08:29:23.09	23.26	47.35	-54.9	-70.8	3.8	1.49e+00	0	24	104	0	74	24514
2026-01-09 08:29:24.10	22.72	47.22	-54.9	-70.8	3.8	1.49e+00	0	24	104	0	74	24561
2026-01-09 08:29:25.11	22.19	47.08	-54.9	-70.8	3.8	1.49e+00	0	24	104	0	74	24592
2026-01-09 08:29:26.12	21.66	46.95	-54.9	-70.8	3.8	1.49e+00	0	24	104	0	74	24596
2026-01-09 08:29:27.13	21.14	46.81	-54.8	-70.8	3.8	1.49e+00	0	24	104	0	74	24500
2026-01-09 08:29:28.14	20.62	46.67	-54.8	-70.8	3.8	1.49e+00	0	24	104	0	74	24504
2026-01-09 08:29:29.15	20.11	46.52	-54.8	-70.8	3.8	1.49e+00	0	24	104	0	74	24503
2026-01-09 08:29:30.16	19.60	46.38	-54.8	-70.8	3.8	1.49e+00	0	24	104	0	74	24482
2026-01-09 08:29:31.17	19.10	46.23	-54.8	-70.8	3.8	1.49e+00	0	24	104	0	74	24515
2026-01-09 08:29:32.17	18.61	46.08	-54.8	-70.8	3.8	1.49e+00	0	24	104	0	74	24487
2026-01-09 08:29:33.18	18.11	45.93	-54.8	-70.8	3.8	1.49e+00	0	24	104	0	74	24584
2026-01-09 08:29:34.19	17.62	45.78	-54.8	-70.8	3.8	1.49e+00	0	24	104	0	74	24510
2026-01-09 08:29:35.20	17.14	45.63	-54.8	-70.9	3.8	1.49e+00	0	24	104	0	74	24865
2026-01-09 08:29:36.21	16.66	45.47	-54.8	-70.8	3.8	1.49e+00	0	24	104	0	74	24490
2026-01-09 08:29:37.22	16.18	45.31	-54.8	-70.8	3.8	1.49e+00	0	24	104	0	74	24494
2026-01-09 08:29:38.22	15.72	45.16	-54.8	-70.8	3.8	1.49e+00	0	24	104	0	74	24512
2026-01-09 08:29:39.23	15.25	45.00	-54.8	-70.8	3.8	1.49e+00	0	24	104	0	74	24517
2026-01-09 08:29:40.23	14.80	44.84	-54.8	-70.8	3.8	1.49e+00	0	24	104	0	74	24510
2026-01-09 08:29:41.24	14.34	44.67	-54.9	-70.8	3.8	1.49e+00	0	24	104	0	74	24564
2026-01-09 08:29:42.26	13.89	44.51	-54.8	-70.8	3.8	1.49e+00	0	24	104	0	74	24569
2026-01-09 08:29:43.26	13.44	44.34	-54.8	-70.8	3.8	1.49e+00	0	24	104	0	74	24513
2026-01-09 08:29:44.27	13.00	44.18	-54.8	-70.8	3.8	1.49e+00	0	24	104	0	74	24548
2026-01-09 08:29:45.28	12.57	44.01	-54.8	-70.8	3.8	1.49e+00	0	24	104	0	74	24540
2026-01-09 08:29:46.28	12.14	43.84	-54.9	-70.8	3.8	1.49e+00	0	24	104	0	74	24553
2026-01-09 08:29:47.28	11.71	43.67	-54.8	-70.8	3.8	1.49e+00	0	24	104	0	74	24505
2026-01-09 08:29:48.29	11.29	43.50	-54.8	-70.8	3.8	1.49e+00	0	24	104	0	74	24521
2026-01-09 08:29:49.30	10.87	43.33	-54.8	-70.8	3.8	1.49e+00	0	24	104	0	74	24499
2026-01-09 08:29:50.30	10.46	43.16	-54.9	-70.8	3.8	1.49e+00	0	24	104	0	74	24582
2026-01-09 08:29:51.30	10.05	42.98	-54.8	-70.8	3.8	1.49e+00	0	24	104	0	74	24522
2026-01-09 08:29:52.31	9.65	42.81	-54.9	-70.8	3.8	1.49e+00	0	24	104	0	74	24579
2026-01-09 08:29:53.32	9.25	42.63	-54.9	-70.8	3.8	1.49e+00	0	24	104	0	74	24509
2026-01-09 08:29:54.33	8.85	42.46	-54.9	-70.8	3.8	1.49e+00	0	24	104	0	74	24574
2026-01-09 08:29:55.33	8.46	42.28	-54.9	-70.8	3.8	1.49e+00	0	24	104	0	74	24502
2026-01-09 08:29:56.34	8.08	42.10	-54.9	-70.8	3.8	1.49e+00	0	24	104	0	74	24610
2026-01-09 08:29:57.35	7.69	41.92	-54.9	-70.8	3.8	1.49e+00	0	24	104	0	74	24478
2026-01-09 08:29:58.35	7.32	41.75	-54.8	-70.8	3.8	1.49e+00	0	24	104	0	74	24543
2026-01-09 08:29:59.36	6.94	41.57	-54.9	-70.8	3.8	1.49e+00	0	24	104	0	74	24554
2026-01-09 08:30:00.37	6.57	41.39	-54.9	-70.8	3.8	1.49e+00	0	24	104	0	74	24595
2026-01-09 08:30:01.38	6.20	41.21	-54.8	-70.8	3.8	1.49e+00	0	24	104	0	74	24526
2026-01-09 08:30:02.39	5.84	41.03	-54.9	-70.8	3.8	1.49e+00	0	24	104	0	74	24592
2026-01-09 08:30:03.40	5.48	40.84	-54.9	-70.8	3.8	1.49e+00	0	24	104	0	74	24619
2026-01-09 08:30:04.41	5.13	40.66	-54.9	-70.8	3.8	1.49e+00	0	24	104	0	74	24540
2026-01-09 08:30:05.42	4.78	40.48	-54.9	-70.8	3.8	1.49e+00	0	24	104	0	74	24567
2026-01-09 08:30:06.43	4.43	40.30	-54.9	-70.8	3.8	1.49e+00	0	24	104	0	74	24557
2026-01-09 08:30:07.43	4.09	40.12	-54.9	-70.8	3.8	1.49e+00	0	24	104	0	74	24565
2026-01-09 08:30:08.45	3.75	39.93	-54.9	-70.8	3.8	1.49e+00	0	24	104	0	74	24549
2026-01-09 08:30:09.46	3.41	39.75	-54.9	-70.8	3.8	1.49e+00	0	24	104	0	74	24524
2026-01-09 08:30:10.46	3.09	39.57	-54.9	-70.8	3.8	1.49e+00	0	24	104	0	74	24531
2026-01-09 08:30:11.47	2.76	39.39	-54.9	-70.8	3.8	1.49e+00	0	24	104	0	74	24565
2026-01-09 08:30:12.48	2.43	39.20	-54.9	-70.8	3.8	1.49e+00	0	24	104	0	74	24563
2026-01-09 08:30:13.49	2.11	39.02	-54.8	-70.8	3.8	1.49e+00	0	24	104	0	74	24554
2026-01-09 08:30:14.50	1.80	38.84	-54.9	-70.8	3.8	1.49e+00	0	24	104	0	74	24541
2026-01-09 08:30:15.51	1.49	38.65	-54.8	-70.8	3.8	1.49e+00	0	24	104	0	74	24463
2026-01-09 08:30:16.52	1.18	38.47	-54.9	-70.8	3.8	1.49e+00	0	24	104	0	74	24453
2026-01-09 08:30:17.53	0.87	38.29	-54.9	-70.8	3.8	1.49e+00	0	24	104	0	74	24551
2026-01-09 08:30:18.53	0.57	38.10	-54.8	-70.8	3.8	1.49e+00	0	24	104	0	74	24535
2026-01-09 08:30:19.54	0.27	37.92	-54.8	-70.8	3.8	1.49e+00	0	24	104	0	74	24495
2026-01-09 08:30:20.55	359.98	37.74	-54.8	-70.8	3.8	1.49e+00	0	24	104	0	74	24518
2026-01-09 08:30:21.55	359.69	37.56	-54.8	-70.8	3.8	1.49e+00	0	24	104	0	74	24469
2026-01-09 08:30:22.55	359.40	37.38	-54.8	-70.8	3.8	1.49e+00	0	24	104	0	74	24457
2026-01-09 08:30:23.55	359.12	37.19	-54.8	-70.8	3.8	1.49e+00	0	24	104	0	74	24459
2026-01-09 08:30:24.56	358.83	37.01	-54.9	-70.8	3.8	1.49e+00	0	24	104	0	74	24577
2026-01-09 08:30:25.57	358.56	36.83	-54.9	-70.8	3.8	1.49e+00	0	24	104	0	74	24515
2026-01-09 08:30:26.58	358.28	36.65	-54.9	-70.8	3.8	1.49e+00	0	24	104	0	74	24572
2026-01-09 08:30:27.58	358.01	36.47	-54.8	-70.8	3.8	1.49e+00	0	24	104	0	74	24544
2026-01-09 08:30:28.59	357.74	36.29	-54.8	-70.8	3.8	1.49e+00	0	24	104	0	74	24471
2026-01-09 08:30:29.60	357.47	36.11	-54.9	-70.8	3.8	1.49e+00	0	24	104	0	74	24525
2026-01-09 08:30:30.61	357.21	35.93	-54.9	-70.8	3.8	1.49e+00	0	24	104	0	74	24518
2026-01-09 08:30:31.62	356.95	35.74	-54.9	-70.8	3.8	1.49e+00	0	24	104	0	74	24537
2026-01-09 08:30:32.62	356.69	35.57	-54.9	-70.8	3.8	1.49e+00	0	24	104	0	74	24562
2026-01-09 08:30:33.63	356.43	35.39	-54.9	-70.8	3.8	1.49e+00	0	24	104	0	74	24535
2026-01-09 08:30:34.64	356.18	35.21	-54.9	-70.8	3.8	1.49e+00	0	24	104	0	74	24543
2026-01-09 08:30:35.65	355.93	35.03	-54.9	-70.8	3.8	1.49e+00	0	24	104	0	74	24530
2026-01-09 08:30:36.66	355.69	34.85	-54.8	-70.8	3.8	1.49e+00	0	24	104	0	74	24509
2026-01-09 08:30:37.67	355.44	34.67	-54.8	-70.8	3.8	1.49e+00	0	24	104	0	74	24562
2026-01-09 08:30:38.68	355.20	34.49	-54.8	-70.8	3.8	1.49e+00	0	24	104	0	74	24520
2026-01-09 08:30:39.69	354.96	34.32	-54.8	-70.8	3.8	1.49e+00	0	24	104	0	74	24498
2026-01-09 08:30:40.69	354.73	34.14	-54.8	-70.8	3.8	1.49e+00	0	24	104	0	74	24439
2026-01-09 08:30:41.70	354.49	33.96	-54.9	-70.8	3.8	1.49e+00	0	24	104	0	74	24551
2026-01-09 08:30:42.70	354.26	33.79	-54.9	-70.8	3.8	1.49e+00	0	24	104	0	74	24557
2026-01-09 08:30:43.71	354.03	33.61	-54.8	-70.8	3.8	1.49e+00	0	24	104	0	74	24531
2026-01-09 08:30:44.72	353.81	33.44	-54.8	-70.8	3.8	1.49e+00	0	24	104	0	74	24573
2026-01-09 08:30:45.73	353.58	33.27	-54.9	-70.8	3.8	1.49e+00	0	24	104	0	74	24519
2026-01-09 08:30:46.74	353.36	33.09	-54.9	-70.8	3.8	1.49e+00	0	24	104	0	74	24488
2026-01-09 08:30:47.74	353.15	32.92	-54.8	-70.8	3.8	1.49e+00	0	24	104	0	74	24559
2026-01-09 08:30:48.75	352.93	32.75	-54.9	-70.8	3.8	1.49e+00	0	24	104	0	74	24550
2026-01-09 08:30:49.76	352.72	32.57	-54.8	-70.8	3.8	1.49e+00	0	24	104	0	74	24498
2026-01-09 08:30:50.77	352.50	32.40	-54.9	-70.8	3.8	1.49e+00	0	24	104	0	74	24535
2026-01-09 08:30:51.78	352.29	32.23	-54.8	-70.8	3.8	1.49e+00	0	24	104	0	74	24505
2026-01-09 08:30:52.78	352.09	32.06	-54.9	-70.8	3.8	1.49e+00	0	24	104	0	74	24551
2026-01-09 08:30:53.78	351.88	31.89	-54.9	-70.8	3.8	1.49e+00	0	24	104	0	74	24563
2026-01-09 08:30:54.79	351.68	31.72	-54.8	-70.8	3.8	1.49e+00	0	24	104	0	74	24557
2026-01-09 08:30:55.80	351.48	31.55	-54.8	-70.8	3.8	1.49e+00	0	24	104	0	74	24515
2026-01-09 08:30:56.81	351.28	31.38	-54.8	-70.8	3.8	1.49e+00	0	24	104	0	74	24515
2026-01-09 08:30:57.82	351.08	31.22	-54.8	-70.8	3.8	1.49e+00	0	24	104	0	74	24488
2026-01-09 08:30:58.83	350.89	31.05	-54.8	-70.8	3.8	1.49e+00	0	24	104	0	74	24530
2026-01-09 08:30:59.83	350.70	30.88	-54.9	-70.8	3.8	1.49e+00	0	24	104	0	74	24526
2026-01-09 08:31:00.84	350.51	30.72	-54.8	-70.8	3.8	1.49e+00	0	24	104	0	74	24501
2026-01-09 08:31:01.85	350.32	30.55	-54.8	-70.8	3.8	1.49e+00	0	24	104	0	74	24466
2026-01-09 08:31:02.85	350.13	30.39	-54.9	-70.8	3.8	1.49e+00	0	24	104	0	74	24504
2026-01-09 08:31:03.86	349.95	30.22	-54.9	-70.8	3.8	1.49e+00	0	24	104	0	74	24577
2026-01-09 08:31:04.87	349.77	30.06	-54.9	-70.8	3.8	1.49e+00	0	24	104	0	74	24585
2026-01-09 08:31:05.87	349.59	29.90	-54.9	-70.8	3.8	1.49e+00	0	24	104	0	74	24554
2026-01-09 08:31:06.88	349.41	29.74	-54.8	-70.8	3.8	1.49e+00	0	24	104	0	74	24522
2026-01-09 08:31:07.90	349.23	29.57	-54.8	-70.8	3.8	1.49e+00	0	24	104	0	74	24559
2026-01-09 08:31:08.90	349.06	29.41	-54.8	-70.8	3.8	1.49e+00	0	24	104	0	74	24475
2026-01-09 08:31:09.91	348.88	29.25	-54.8	-70.8	3.8	1.49e+00	0	24	104	0	74	24540
2026-01-09 08:31:10.92	348.71	29.09	-54.8	-70.8	3.8	1.49e+00	0	24	104	0	74	24558
2026-01-09 08:31:11.92	348.54	28.93	-54.9	-70.8	3.8	1.49e+00	0	24	104	0	74	24439
2026-01-09 08:31:12.93	348.37	28.77	-54.9	-70.8	3.8	1.49e+00	0	24	104	0	74	24577
2026-01-09 08:31:13.94	348.21	28.62	-54.9	-70.8	3.8	1.49e+00	0	24	104	0	74	24554
2026-01-09 08:31:14.95	348.04	28.46	-54.9	-70.8	3.8	1.49e+00	0	24	104	0	74	24554
2026-01-09 08:31:15.96	347.88	28.30	-54.8	-70.8	3.8	1.49e+00	0	24	104	0	74	24519
2026-01-09 08:31:16.96	347.72	28.15	-54.8	-70.8	3.8	1.49e+00	0	24	104	0	74	24523
2026-01-09 08:31:17.97	347.56	27.99	-54.9	-70.8	3.8	1.49e+00	0	24	104	0	74	24508
2026-01-09 08:31:18.98	347.40	27.83	-54.9	-70.8	3.8	1.49e+00	0	24	104	0	74	24522
2026-01-09 08:31:19.98	347.24	27.68	-54.8	-70.8	3.8	1.49e+00	0	24	104	0	74	24501
2026-01-09 08:31:20.99	347.09	27.53	-54.9	-70.8	3.8	1.49e+00	0	24	104	0	74	24542
2026-01-09 08:31:22.00	346.93	27.37	-54.8	-70.8	3.8	1.49e+00	0	24	104	0	74	24588
2026-01-09 08:31:23.01	346.78	27.22	-54.9	-70.8	3.8	1.49e+00	0	24	104	0	74	24555
2026-01-09 08:31:24.02	346.63	27.07	-54.8	-70.8	3.8	1.49e+00	0	24	104	0	74	24587
2026-01-09 08:31:25.02	346.48	26.92	-54.9	-70.8	3.8	1.49e+00	0	24	104	0	74	24548
2026-01-09 08:31:26.01	346.33	26.77	-54.9	-70.8	3.8	1.49e+00	0	24	104	0	74	24545
2026-01-09 08:31:27.02	346.19	26.62	-54.9	-70.8	3.8	1.49e+00	0	24	104	0	74	24564
2026-01-09 08:31:28.03	346.04	26.47	-54.8	-70.8	3.8	1.49e+00	0	24	104	0	74	24510
2026-01-09 08:31:29.03	345.90	26.32	-54.9	-70.8	3.8	1.49e+00	0	24	104	0	74	24547
2026-01-09 08:31:30.04	345.76	26.17	-54.8	-70.8	3.8	1.49e+00	0	24	104	0	74	24540
2026-01-09 08:31:31.05	345.61	26.03	-54.9	-70.8	3.8	1.49e+00	0	24	104	0	74	24504
2026-01-09 08:31:32.06	345.47	25.88	-54.9	-70.8	3.8	1.49e+00	0	24	104	0	74	24548
2026-01-09 08:31:33.06	345.34	25.73	-54.9	-70.8	3.8	1.49e+00	0	24	104	0	74	24526
2026-01-09 08:31:34.07	345.20	25.59	-54.9	-70.8	3.8	1.49e+00	0	24	104	0	74	24591
2026-01-09 08:31:35.08	345.06	25.44	-54.9	-70.8	3.8	1.49e+00	0	24	104	0	74	24598
2026-01-09 08:31:36.09	344.93	25.30	-54.9	-70.8	3.8	1.49e+00	0	24	104	0	74	24539
2026-01-09 08:31:37.10	344.80	25.15	-54.9	-70.8	3.8	1.49e+00	0	24	104	0	74	24494
2026-01-09 08:31:38.11	344.66	25.01	-54.9	-70.8	3.8	1.49e+00	0	24	104	0	74	24513
2026-01-09 08:31:39.12	344.53	24.87	-54.9	-70.8	3.8	1.49e+00	0	24	104	0	74	24606
2026-01-09 08:31:40.13	344.40	24.72	-54.9	-70.8	3.8	1.49e+00	0	24	104	0	74	24568
2026-01-09 08:31:41.14	344.27	24.58	-54.9	-70.8	3.8	1.49e+00	0	24	104	0	74	24580
2026-01-09 08:31:42.14	344.15	24.44	-54.9	-70.8	3.8	1.49e+00	0	24	104	0	74	24551
2026-01-09 08:31:43.15	344.02	24.30	-54.9	-70.8	3.8	1.49e+00	0	24	104	0	74	24484
2026-01-09 08:31:44.16	343.90	24.16	-54.9	-70.8	3.8	1.49e+00	0	24	104	0	74	24604
2026-01-09 08:31:45.17	343.77	24.02	-54.9	-70.8	3.8	1.49e+00	0	24	104	0	74	24548
2026-01-09 08:31:46.17	343.65	23.89	-54.9	-70.8	3.8	1.49e+00	0	24	104	0	74	24538
2026-01-09 08:31:47.18	343.53	23.75	-54.9	-70.8	3.8	1.49e+00	0	24	104	0	74	24589
2026-01-09 08:31:48.18	343.41	23.61	-54.8	-70.8	3.8	1.49e+00	0	24	104	0	74	24484
2026-01-09 08:31:49.19	343.29	23.47	-54.9	-70.8	3.8	1.49e+00	0	24	104	0	74	24561
2026-01-09 08:31:50.20	343.17	23.34	-54.9	-70.8	3.8	1.49e+00	0	24	104	0	74	24479
2026-01-09 08:31:51.21	343.05	23.20	-54.9	-70.8	3.8	1.49e+00	0	24	104	0	74	24505
2026-01-09 08:31:52.22	342.94	23.07	-54.9	-70.8	3.8	1.49e+00	0	24	104	0	74	24469
2026-01-09 08:31:53.22	342.82	22.93	-54.8	-70.8	3.8	1.49e+00	0	24	104	0	74	24497
2026-01-09 08:31:54.23	342.71	22.80	-54.9	-70.8	3.8	1.49e+00	0	24	104	0	74	24552
2026-01-09 08:31:55.24	342.59	22.67	-54.9	-70.8	3.8	1.49e+00	0	24	104	0	74	24461
2026-01-09 08:31:56.25	342.48	22.53	-54.9	-70.8	3.8	1.49e+00	0	24	104	0	74	24507
2026-01-09 08:31:57.24	342.37	22.40	-54.9	-70.8	3.8	1.49e+00	0	24	104	0	74	24519
2026-01-09 08:31:58.24	342.26	22.27	-54.9	-70.8	3.8	1.49e+00	0	24	104	0	74	24523
2026-01-09 08:31:59.25	342.15	22.14	-54.9	-70.8	3.8	1.49e+00	0	24	104	0	74	24622
2026-01-09 08:32:00.26	342.04	22.01	-54.9	-70.8	3.8	1.49e+00	0	24	104	0	74	24557
2026-01-09 08:32:01.27	341.94	21.88	-54.9	-70.8	3.8	1.49e+00	0	24	104	0	74	24604
2026-01-09 08:32:02.28	341.83	21.75	-54.9	-70.8	3.8	1.49e+00	0	24	104	0	74	24558
2026-01-09 08:32:03.29	341.72	21.62	-54.9	-70.8	3.8	1.49e+00	0	24	104	0	74	24507
2026-01-09 08:32:04.30	341.62	21.49	-54.9	-70.8	3.8	1.49e+00	0	24	104	0	74	24462
2026-01-09 08:32:05.31	341.52	21.37	-54.9	-70.8	3.8	1.49e+00	0	24	104	0	74	24490
2026-01-09 08:32:06.31	341.41	21.24	-54.9	-70.8	3.8	1.49e+00	0	24	104	0	74	24550
2026-01-09 08:32:07.32	341.31	21.11	-54.8	-70.8	3.8	1.49e+00	0	24	104	0	74	24551
2026-01-09 08:32:08.33	341.21	20.99	-54.8	-70.8	3.8	1.49e+00	0	24	104	0	74	24494
2026-01-09 08:32:09.34	341.11	20.86	-54.9	-70.8	3.8	1.49e+00	0	24	104	0	74	24540
2026-01-09 08:32:10.35	341.01	20.74	-54.9	-70.8	3.8	1.49e+00	0	24	104	0	74	24637
2026-01-09 08:32:11.35	340.91	20.61	-54.9	-70.8	3.8	1.49e+00	0	24	104	0	74	24518
2026-01-09 08:32:12.36	340.81	20.49	-54.9	-70.8	3.8	1.49e+00	0	24	104	0	74	24568
2026-01-09 08:32:13.37	340.72	20.36	-54.9	-70.8	3.8	1.49e+00	0	24	104	0	74	24509
2026-01-09 08:32:14.38	340.62	20.24	-54.8	-70.8	3.8	1.49e+00	0	24	104	0	74	24509
2026-01-09 08:32:15.39	340.52	20.12	-54.9	-70.8	3.8	1.49e+00	0	24	104	0	74	24569
2026-01-09 08:32:16.40	340.43	20.00	-54.9	-70.8	3.8	1.49e+00	0	24	104	0	74	24483
2026-01-09 08:32:17.41	340.34	19.87	-54.9	-70.8	3.8	1.49e+00	0	24	104	0	74	24535
2026-01-09 08:32:18.41	340.24	19.75	-54.9	-70.8	3.8	1.49e+00	0	24	104	0	74	24513
2026-01-09 08:32:19.42	340.15	19.63	-54.9	-70.8	3.8	1.49e+00	0	24	104	0	74	24558
2026-01-09 08:32:20.43	340.06	19.51	-54.9	-70.8	3.8	1.49e+00	0	24	104	0	74	24507
2026-01-09 08:32:21.44	339.97	19.39	-54.9	-70.8	3.8	1.49e+00	0	24	104	0	74	24511
2026-01-09 08:32:22.45	339.88	19.27	-54.9	-70.8	3.8	1.49e+00	0	24	104	0	74	24572
2026-01-09 08:32:23.46	339.79	19.16	-54.9	-70.8	3.8	1.49e+00	0	24	104	0	74	24637
2026-01-09 08:32:24.47	339.70	19.04	-54.9	-70.8	3.8	1.49e+00	0	24	104	0	74	24564
2026-01-09 08:32:25.48	339.61	18.92	-54.9	-70.8	3.8	1.49e+00	0	24	104	0	74	24591
2026-01-09 08:32:26.49	339.52	18.80	-54.9	-70.8	3.8	1.49e+00	0	24	104	0	74	24555
2026-01-09 08:32:27.49	339.44	18.69	-54.9	-70.8	3.8	1.49e+00	0	24	104	0	74	24599
2026-01-09 08:32:28.49	339.35	18.57	-54.9	-70.8	3.8	1.49e+00	0	24	104	0	74	24539
2026-01-09 08:32:29.49	339.27	18.46	-54.9	-70.8	3.8	1.49e+00	0	24	104	0	74	24507
2026-01-09 08:32:30.50	339.18	18.34	-54.9	-70.8	3.8	1.49e+00	0	24	104	0	74	24587
2026-01-09 08:32:31.51	339.10	18.23	-54.9	-70.8	3.8	1.49e+00	0	24	104	0	74	24551
2026-01-09 08:32:32.51	339.02	18.11	-54.9	-70.8	3.8	1.49e+00	0	24	104	0	74	24530
2026-01-09 08:32:33.52	338.93	18.00	-54.9	-70.8	3.8	1.49e+00	0	24	104	0	74	24566
2026-01-09 08:32:34.53	338.85	17.89	-54.9	-70.8	3.8	1.49e+00	0	24	104	0	74	24555
2026-01-09 08:32:35.54	338.77	17.77	-54.9	-70.8	3.8	1.49e+00	0	24	104	0	74	24542
2026-01-09 08:32:36.55	338.69	17.66	-54.9	-70.8	3.8	1.49e+00	0	24	104	0	74	24570
2026-01-09 08:32:37.56	338.61	17.55	-54.9	-70.8	3.8	1.49e+00	0	24	104	0	74	24540
2026-01-09 08:32:38.57	338.53	17.44	-54.9	-70.8	3.8	1.49e+00	0	24	104	0	74	24578
2026-01-09 08:32:39.58	338.45	17.33	-54.9	-70.8	3.8	1.49e+00	0	24	104	0	74	24534
2026-01-09 08:32:40.58	338.37	17.22	-54.9	-70.8	3.8	1.49e+00	0	24	104	0	74	24616
2026-01-09 08:32:41.59	338.30	17.11	-54.9	-70.8	3.8	1.49e+00	0	24	104	0	74	24565
2026-01-09 08:32:42.60	338.22	17.00	-54.9	-70.8	3.8	1.49e+00	0	24	104	0	74	24637
2026-01-09 08:32:43.61	338.14	16.89	-54.9	-70.8	3.8	1.49e+00	0	24	104	0	74	24519
2026-01-09 08:32:44.62	338.07	16.78	-54.9	-70.8	3.8	1.49e+00	0	24	104	0	74	24541
2026-01-09 08:32:45.63	337.99	16.67	-54.9	-70.8	3.8	1.49e+00	0	24	104	0	74	24600
2026-01-09 08:32:46.63	337.92	16.56	-54.9	-70.8	3.8	1.49e+00	0	24	104	0	74	24545
2026-01-09 08:32:47.65	337.84	16.45	-54.9	-70.8	3.8	1.49e+00	0	24	104	0	74	24577
2026-01-09 08:32:48.65	337.77	16.35	-54.9	-70.8	3.8	1.49e+00	0	24	104	0	74	24551
2026-01-09 08:32:49.66	337.70	16.24	-54.9	-70.8	3.8	1.49e+00	0	24	104	0	74	24547
2026-01-09 08:32:50.67	337.62	16.13	-54.9	-70.8	3.8	1.49e+00	0	24	104	0	74	24546
2026-01-09 08:32:51.67	337.55	16.03	-54.9	-70.8	3.8	1.49e+00	0	24	104	0	74	24568
2026-01-09 08:32:52.68	337.48	15.92	-54.9	-70.8	3.8	1.49e+00	0	24	104	0	74	24586
2026-01-09 08:32:53.69	337.41	15.82	-54.9	-70.8	3.8	1.49e+00	0	24	104	0	74	24630
2026-01-09 08:32:54.70	337.34	15.71	-54.9	-70.8	3.8	1.49e+00	0	24	104	0	74	24508
2026-01-09 08:32:55.71	337.27	15.61	-54.9	-70.8	3.8	1.49e+00	0	24	104	0	74	24475
2026-01-09 08:32:56.71	337.20	15.51	-54.9	-70.8	3.8	1.49e+00	0	24	104	0	74	24539
2026-01-09 08:32:57.72	337.13	15.40	-54.9	-70.8	3.8	1.49e+00	0	24	104	0	74	24653
2026-01-09 08:32:58.73	337.06	15.30	-54.9	-70.8	3.8	1.49e+00	0	24	104	0	74	24563
2026-01-09 08:32:59.74	336.99	15.20	-54.9	-70.8	3.8	1.49e+00	0	24	104	0	74	24565
2026-01-09 08:33:00.73	336.93	15.10	-54.9	-70.8	3.8	1.49e+00	0	24	104	0	74	24597
2026-01-09 08:33:01.74	336.86	14.99	-54.9	-70.8	3.8	1.49e+00	0	24	104	0	74	24576
2026-01-09 08:33:02.75	336.79	14.89	-54.9	-70.8	3.8	1.49e+00	0	24	104	0	74	24557
2026-01-09 08:33:03.75	336.73	14.79	-54.9	-70.8	3.8	1.49e+00	0	24	104	0	74	24456
2026-01-09 08:33:04.76	336.66	14.69	-54.9	-70.8	3.8	1.49e+00	0	24	104	0	74	24549
2026-01-09 08:33:05.77	336.60	14.59	-54.9	-70.8	3.8	1.49e+00	0	24	104	0	74	24525
2026-01-09 08:33:06.78	336.53	14.49	-54.9	-70.8	3.8	1.49e+00	0	24	104	0	74	24566
2026-01-09 08:33:07.79	336.47	14.39	-54.9	-70.8	3.8	1.49e+00	0	24	104	0	74	24612
2026-01-09 08:33:08.80	336.41	14.29	-54.9	-70.8	3.8	1.49e+00	0	24	104	0	74	24547
2026-01-09 08:33:09.81	336.34	14.19	-54.9	-70.8	3.8	1.49e+00	0	24	104	0	74	24550
2026-01-09 08:33:10.82	336.28	14.09	-54.9	-70.8	3.8	1.49e+00	0	24	104	0	74	24524
2026-01-09 08:33:11.83	336.22	13.99	-54.9	-70.8	3.8	1.49e+00	0	24	104	0	74	24542
2026-01-09 08:33:12.84	336.16	13.90	-54.9	-70.8	3.8	1.49e+00	0	24	104	0	74	24556
2026-01-09 08:33:13.84	336.09	13.80	-54.9	-70.8	3.8	1.49e+00	0	24	104	0	74	24573
2026-01-09 08:33:14.85	336.03	13.70	-54.8	-70.8	3.8	1.49e+00	0	24	104	0	74	24569
2026-01-09 08:33:15.86	335.97	13.61	-54.9	-70.8	3.8	1.49e+00	0	24	104	0	74	24517
2026-01-09 08:33:16.87	335.91	13.51	-54.9	-70.8	3.8	1.49e+00	0	24	104	0	74	24549
2026-01-09 08:33:17.87	335.85	13.41	-54.9	-70.8	3.8	1.49e+00	0	24	104	0	74	24582
2026-01-09 08:33:18.88	335.79	13.32	-54.9	-70.8	3.8	1.49e+00	0	24	104	0	74	24577
2026-01-09 08:33:19.89	335.73	13.22	-54.9	-70.8	3.8	1.49e+00	0	24	104	0	74	24639
2026-01-09 08:33:20.90	335.68	13.13	-54.9	-70.8	3.8	1.49e+00	0	24	104	0	74	24500
2026-01-09 08:33:21.91	335.62	13.03	-54.8	-70.8	3.8	1.49e+00	0	24	104	0	74	24494
2026-01-09 08:33:22.92	335.56	12.94	-54.9	-70.8	3.8	1.49e+00	0	24	104	0	74	24608
2026-01-09 08:33:23.93	335.50	12.84	-54.9	-70.8	3.8	1.49e+00	0	24	104	0	74	24550
2026-01-09 08:33:24.93	335.45	12.75	-54.9	-70.8	3.8	1.49e+00	0	24	104	0	74	24570
2026-01-09 08:33:25.94	335.39	12.66	-54.9	-70.8	3.8	1.49e+00	0	24	104	0	74	24542
2026-01-09 08:33:26.95	335.33	12.56	-54.9	-70.8	3.8	1.49e+00	0	24	104	0	74	24560
2026-01-09 08:33:27.96	335.28	12.47	-54.9	-70.8	3.8	1.49e+00	0	24	104	0	74	24633
2026-01-09 08:33:28.97	335.22	12.38	-54.9	-70.8	3.8	1.49e+00	0	24	104	0	74	24603
2026-01-09 08:33:29.98	335.17	12.29	-54.9	-70.8	3.8	1.49e+00	0	24	104	0	74	24590
2026-01-09 08:33:30.99	335.11	12.19	-54.9	-70.8	3.8	1.49e+00	0	24	104	0	74	24577
2026-01-09 08:33:31.99	335.06	12.10	-54.9	-70.8	3.8	1.49e+00	0	24	104	0	74	24586
2026-01-09 08:33:32.99	335.00	12.01	-54.9	-70.8	3.8	1.49e+00	0	24	104	0	74	24485
2026-01-09 08:33:34.00	334.95	11.92	-54.9	-70.8	3.8	1.49e+00	0	24	104	0	74	24540
2026-01-09 08:33:35.00	334.90	11.83	-54.9	-70.8	3.8	1.49e+00	0	24	104	0	74	24625
2026-01-09 08:33:36.01	334.85	11.74	-54.9	-70.8	3.8	1.49e+00	0	24	104	0	74	24533
2026-01-09 08:33:37.02	334.79	11.65	-54.9	-70.8	3.8	1.49e+00	0	24	104	0	74	24512
2026-01-09 08:33:38.03	334.74	11.56	-54.9	-70.8	3.8	1.49e+00	0	24	104	0	74	24647
2026-01-09 08:33:39.04	334.69	11.47	-54.9	-70.8	3.8	1.49e+00	0	24	104	0	74	24563
2026-01-09 08:33:40.05	334.64	11.38	-54.9	-70.8	3.8	1.49e+00	0	24	104	0	74	24562
2026-01-09 08:33:41.05	334.59	11.30	-54.9	-70.8	3.8	1.49e+00	0	24	104	0	74	24547
2026-01-09 08:33:42.06	334.53	11.21	-54.9	-70.8	3.8	1.49e+00	0	24	104	0	74	24538
2026-01-09 08:33:43.07	334.48	11.12	-54.9	-70.8	3.8	1.49e+00	0	24	104	0	74	24509
2026-01-09 08:33:44.08	334.43	11.03	-54.9	-70.8	3.8	1.49e+00	0	24	104	0	74	24579
2026-01-09 08:33:45.09	334.38	10.94	-54.9	-70.8	3.8	1.49e+00	0	24	104	0	74	24557
2026-01-09 08:33:46.10	334.33	10.86	-54.9	-70.8	3.8	1.49e+00	0	24	104	0	74	24586
2026-01-09 08:33:47.11	334.29	10.77	-54.9	-70.8	3.8	1.49e+00	0	24	104	0	74	24630
2026-01-09 08:33:48.12	334.24	10.68	-54.9	-70.8	3.8	1.49e+00	0	24	104	0	74	24542
2026-01-09 08:33:49.12	334.19	10.60	-54.9	-70.8	3.8	1.49e+00	0	24	104	0	74	24607
2026-01-09 08:33:50.13	334.14	10.51	-54.9	-70.8	3.8	1.49e+00	0	24	104	0	74	24632
2026-01-09 08:33:51.14	334.09	10.42	-54.9	-70.8	3.8	1.49e+00	0	24	104	0	74	24584
2026-01-09 08:33:52.15	334.04	10.34	-54.9	-70.8	3.8	1.49e+00	0	24	104	0	74	24607
2026-01-09 08:33:53.16	334.00	10.25	-54.9	-70.8	3.8	1.49e+00	0	24	104	0	74	24582
2026-01-09 08:33:54.17	333.95	10.17	-54.9	-70.8	3.8	1.49e+00	0	24	104	0	74	24646
2026-01-09 08:33:55.18	333.90	10.08	-54.9	-70.8	3.8	1.49e+00	0	24	104	0	74	24567
2026-01-09 08:33:56.19	333.86	10.00	-54.9	-70.8	3.8	1.49e+00	0	24	104	0	74	24603
2026-01-09 08:33:57.20	333.81	9.91	-54.9	-70.8	3.8	1.49e+00	0	24	104	0	74	24600
2026-01-09 08:33:58.21	333.76	9.83	-54.9	-70.8	3.8	1.49e+00	0	24	104	0	74	24640
2026-01-09 08:33:59.22	333.72	9.75	-54.9	-70.8	3.8	1.49e+00	0	24	104	0	74	24663
2026-01-09 08:34:00.23	333.67	9.66	-54.9	-70.8	3.8	1.49e+00	0	24	104	0	74	24616
2026-01-09 08:34:01.24	333.63	9.58	-54.9	-70.8	3.8	1.49e+00	0	24	104	0	74	24554
2026-01-09 08:34:02.25	333.58	9.50	-54.9	-70.8	3.8	1.49e+00	0	24	104	0	74	24628
2026-01-09 08:34:03.26	333.54	9.41	-54.9	-70.8	3.8	1.49e+00	0	24	104	0	74	24612
2026-01-09 08:34:04.24	333.49	9.33	-54.9	-70.8	3.8	1.49e+00	0	24	104	0	74	24559
