passes_logs/2026/01/09/R3.2S_Murmansk/R3.2S_Murmansk__20260109_032415_AQUA_rec.log

#Pass ID: 20260109_032415_AQUA
#Satellite: AQUA
#Configuration: AQUA
#almurnet v.1.7.20251203
#Start time: 2026-01-09 03:24:17

#Version: 2.2.20231116
#Station: R3.2S_Murmansk
#Location: 33.079688 lon 68.888172 lat
#TLE: 1 27424U 02022A   26004.96787593  .00001598  00000+0  32997-3 0  9996
#TLE: 2 27424  98.4069 331.2279 0002002  90.2377   0.6092 14.61798176259425

#Time	Az	El	Level	Level2	SNR	BER	BlckErr	Temp	State	Recorded	gain1	gain2
2026-01-09 03:24:17.72	27.25	2.15	-56.7	-76.0	3.8	7.45e-01	0	22	0	0	82	32862
2026-01-09 03:24:18.72	27.22	2.22	-56.6	-75.9	3.8	7.45e-01	0	22	104	0	80	36514
2026-01-09 03:24:19.72	27.19	2.28	-56.6	-76.0	3.8	7.52e-01	0	22	104	0	80	36590
2026-01-09 03:24:20.71	27.16	2.35	-56.6	-76.0	3.8	7.48e-01	0	22	104	0	80	36583
2026-01-09 03:24:21.71	27.13	2.41	-56.6	-76.0	3.8	7.48e-01	0	22	104	0	81	34657
2026-01-09 03:24:22.70	27.10	2.48	-56.6	-76.0	3.8	7.47e-01	0	22	104	0	81	34528
2026-01-09 03:24:23.71	27.07	2.54	-56.7	-76.0	3.8	7.45e-01	0	22	104	0	81	34589
2026-01-09 03:24:24.71	27.04	2.61	-56.7	-76.0	3.8	7.44e-01	0	22	104	0	81	34642
2026-01-09 03:24:25.71	27.01	2.68	-56.7	-76.0	3.8	7.50e-01	0	22	104	0	81	34569
2026-01-09 03:24:26.70	26.97	2.74	-56.6	-76.0	3.8	7.46e-01	0	22	104	0	81	34693
2026-01-09 03:24:27.70	26.94	2.81	-56.7	-76.0	3.8	7.45e-01	0	22	104	0	81	34582
2026-01-09 03:24:28.70	26.91	2.88	-56.6	-76.0	3.8	7.49e-01	0	22	104	0	81	34621
2026-01-09 03:24:29.70	26.88	2.94	-56.7	-76.0	3.8	7.49e-01	0	22	104	0	81	34646
2026-01-09 03:24:30.70	26.85	3.01	-56.6	-76.0	3.8	7.45e-01	0	22	104	0	81	34585
2026-01-09 03:24:31.70	26.82	3.08	-56.7	-76.0	3.8	7.45e-01	0	22	104	0	81	34554
2026-01-09 03:24:32.71	26.78	3.15	-56.7	-76.0	3.8	7.47e-01	0	22	104	0	81	34661
2026-01-09 03:24:33.71	26.75	3.22	-56.7	-76.0	3.8	7.46e-01	0	22	104	0	81	34574
2026-01-09 03:24:34.71	26.72	3.28	-56.7	-76.0	3.8	7.45e-01	0	22	104	0	81	34633
2026-01-09 03:24:35.71	26.69	3.35	-56.7	-76.0	3.8	7.46e-01	0	22	104	0	81	34661
2026-01-09 03:24:36.72	26.65	3.42	-56.7	-76.0	3.8	7.48e-01	0	22	104	0	81	34702
2026-01-09 03:24:37.71	26.62	3.49	-56.6	-76.0	3.8	7.45e-01	0	22	104	0	81	34771
2026-01-09 03:24:38.71	26.59	3.56	-56.7	-76.0	3.8	7.49e-01	0	22	104	0	81	34560
2026-01-09 03:24:39.71	26.55	3.63	-56.6	-75.9	3.8	7.46e-01	0	22	104	0	81	34324
2026-01-09 03:24:40.72	26.52	3.70	-56.6	-75.9	3.8	7.45e-01	0	22	104	0	81	34133
2026-01-09 03:24:41.72	26.49	3.77	-56.6	-75.7	3.8	7.45e-01	0	22	104	0	81	33667
2026-01-09 03:24:42.72	26.45	3.83	-56.6	-75.6	3.8	7.45e-01	0	22	104	0	81	33010
2026-01-09 03:24:43.73	26.42	3.90	-56.6	-75.4	3.8	7.42e-01	0	23	104	0	81	32390
2026-01-09 03:24:44.73	26.38	3.97	-56.6	-75.2	3.8	7.45e-01	0	22	104	0	81	31682
2026-01-09 03:24:45.73	26.35	4.04	-56.5	-75.1	3.8	7.45e-01	0	22	104	0	81	31253
2026-01-09 03:24:46.73	26.31	4.11	-56.5	-74.9	3.8	7.45e-01	0	23	104	0	81	30681
2026-01-09 03:24:47.73	26.28	4.19	-56.5	-74.9	3.8	7.47e-01	0	22	104	0	81	30483
2026-01-09 03:24:48.73	26.24	4.26	-56.5	-74.8	3.8	7.47e-01	0	23	104	0	81	30066
2026-01-09 03:24:49.74	26.21	4.33	-56.4	-74.4	3.8	7.46e-01	0	23	104	0	81	28943
2026-01-09 03:24:50.75	26.17	4.40	-56.4	-74.2	3.8	7.47e-01	0	23	104	0	81	28035
2026-01-09 03:24:51.75	26.13	4.47	-56.3	-73.4	3.8	7.47e-01	0	22	104	0	81	25665
2026-01-09 03:24:52.74	26.10	4.54	-56.1	-72.6	3.8	7.46e-01	0	23	104	0	81	23578
2026-01-09 03:24:53.74	26.06	4.61	-56.0	-72.1	3.8	7.45e-01	0	23	104	0	81	22174
2026-01-09 03:24:54.75	26.02	4.69	-55.8	-71.5	3.8	7.48e-01	0	22	104	0	80	21764
2026-01-09 03:24:55.76	25.99	4.76	-55.7	-71.4	3.8	7.46e-01	0	23	104	0	80	21569
2026-01-09 03:24:56.76	25.95	4.83	-55.6	-71.0	3.8	7.46e-01	0	23	104	0	80	20759
2026-01-09 03:24:57.76	25.91	4.90	-55.4	-70.5	3.8	7.43e-01	0	23	104	0	80	19393
2026-01-09 03:24:58.76	25.88	4.98	-55.4	-70.4	3.8	7.46e-01	0	23	104	0	80	19342
2026-01-09 03:24:59.76	25.84	5.05	-55.5	-70.6	3.8	7.43e-01	0	23	104	0	80	19715
2026-01-09 03:25:00.76	25.80	5.12	-55.7	-71.1	3.8	7.49e-01	0	23	104	0	80	21015
2026-01-09 03:25:01.75	25.76	5.19	-54.0	-67.2	3.8	7.48e-01	0	22	104	0	77	15793
2026-01-09 03:25:02.75	25.72	5.27	-56.3	-73.6	3.8	7.49e-01	0	23	104	0	80	27805
2026-01-09 03:25:03.75	25.68	5.34	-55.7	-70.6	3.8	7.42e-01	0	23	104	0	80	19677
2026-01-09 03:25:04.76	25.65	5.42	-54.3	-67.8	3.8	7.51e-01	0	23	104	0	76	17900
2026-01-09 03:25:05.73	25.61	5.49	-53.9	-66.9	3.8	7.42e-01	0	23	104	0	77	15263
2026-01-09 03:25:06.72	25.57	5.56	-53.5	-66.3	3.8	7.44e-01	0	23	104	0	76	15113
2026-01-09 03:25:07.71	25.53	5.63	-52.8	-65.2	3.8	7.47e-01	0	23	104	0	74	14974
2026-01-09 03:25:08.72	25.49	5.71	-51.1	-62.9	3.8	7.46e-01	0	23	104	0	71	13689
2026-01-09 03:25:09.72	25.45	5.78	-52.3	-64.6	3.8	7.49e-01	0	23	104	0	72	15630
2026-01-09 03:25:10.72	25.41	5.86	-56.5	-73.7	3.8	7.49e-01	0	23	104	0	80	28099
2026-01-09 03:25:11.71	25.37	5.93	-55.6	-70.3	3.8	7.46e-01	0	23	104	0	80	18989
2026-01-09 03:25:12.70	25.33	6.01	-54.0	-67.1	3.8	7.48e-01	0	23	104	0	75	17576
2026-01-09 03:25:13.69	25.29	6.08	-53.6	-66.4	3.8	7.44e-01	0	23	104	0	76	15368
2026-01-09 03:25:14.69	25.25	6.16	-53.0	-65.6	3.8	7.43e-01	0	23	104	0	75	14769
2026-01-09 03:25:15.68	25.20	6.24	-52.5	-64.8	3.8	7.43e-01	0	23	104	0	74	14339
2026-01-09 03:25:16.69	25.16	6.31	-50.7	-62.5	3.8	7.45e-01	0	23	104	0	70	13757
2026-01-09 03:25:17.68	25.12	6.39	-51.9	-64.0	3.8	7.47e-01	0	23	104	0	71	15457
2026-01-09 03:25:18.69	25.08	6.47	-56.4	-72.7	3.7	7.49e-01	0	23	104	0	80	25209
2026-01-09 03:25:19.68	25.03	6.54	-55.7	-70.4	3.8	7.47e-01	0	23	104	0	80	19289
2026-01-09 03:25:20.68	24.99	6.62	-53.5	-66.3	3.8	7.47e-01	0	23	104	0	74	16956
2026-01-09 03:25:21.68	24.95	6.70	-53.4	-66.0	3.8	7.45e-01	0	23	104	0	76	14551
2026-01-09 03:25:22.68	24.91	6.78	-52.8	-65.2	3.8	7.43e-01	0	23	104	0	74	14904
2026-01-09 03:25:23.68	24.86	6.86	-52.0	-64.1	3.8	7.48e-01	0	23	104	0	73	13932
2026-01-09 03:25:24.67	24.82	6.93	-50.4	-62.0	3.9	7.49e-01	0	23	104	0	70	12972
2026-01-09 03:25:25.67	24.77	7.01	-51.6	-63.5	3.8	7.46e-01	0	23	104	0	70	15510
2026-01-09 03:25:26.67	24.73	7.09	-56.4	-72.6	3.7	7.45e-01	0	23	104	0	80	24777
2026-01-09 03:25:27.67	24.68	7.17	-55.7	-70.2	3.8	7.42e-01	0	23	104	0	80	18912
2026-01-09 03:25:28.67	24.64	7.25	-53.4	-66.0	3.8	7.47e-01	0	23	104	0	74	16450
2026-01-09 03:25:29.67	24.59	7.33	-53.1	-65.6	3.8	7.44e-01	0	23	104	0	75	14745
2026-01-09 03:25:30.67	24.55	7.41	-52.7	-64.9	3.9	7.44e-01	0	23	104	0	74	14489
2026-01-09 03:25:31.67	24.50	7.49	-52.1	-64.1	3.8	7.48e-01	0	23	104	0	73	14006
2026-01-09 03:25:32.68	24.45	7.57	-52.6	-64.8	3.8	7.49e-01	0	23	104	0	73	15066
2026-01-09 03:25:33.68	24.41	7.65	-52.4	-64.6	3.9	7.43e-01	0	23	104	0	73	14732
2026-01-09 03:25:34.69	24.36	7.73	-56.4	-72.5	3.8	7.49e-01	0	23	104	0	80	24563
2026-01-09 03:25:35.69	24.31	7.82	-55.6	-70.0	3.8	7.44e-01	0	23	104	0	80	18378
2026-01-09 03:25:36.69	24.26	7.90	-53.3	-65.8	3.8	7.46e-01	0	23	104	0	74	16116
2026-01-09 03:25:37.69	24.22	7.98	-53.0	-65.4	3.8	7.45e-01	0	23	104	0	75	14536
2026-01-09 03:25:38.69	24.17	8.06	-52.5	-64.7	3.8	7.45e-01	0	23	104	0	74	14086
2026-01-09 03:25:39.69	24.12	8.14	-52.0	-64.0	3.8	7.42e-01	0	23	104	0	73	13865
2026-01-09 03:25:40.69	24.07	8.23	-52.0	-64.0	3.8	7.44e-01	0	23	104	0	72	14636
2026-01-09 03:25:41.69	24.02	8.31	-52.0	-64.1	3.9	7.44e-01	0	23	104	0	72	14784
2026-01-09 03:25:42.68	23.97	8.39	-56.4	-72.4	3.7	7.48e-01	0	23	104	0	80	24169
2026-01-09 03:25:43.69	23.92	8.48	-55.8	-70.2	3.8	7.45e-01	0	23	104	0	80	18790
2026-01-09 03:25:44.70	23.87	8.56	-53.1	-65.5	3.8	7.44e-01	0	23	104	0	74	15480
2026-01-09 03:25:45.69	23.82	8.65	-52.8	-65.0	3.9	7.47e-01	0	23	104	0	74	14668
2026-01-09 03:25:46.70	23.77	8.73	-52.6	-64.8	3.8	7.47e-01	0	23	104	0	74	14276
2026-01-09 03:25:47.70	23.72	8.82	-52.6	-64.7	3.9	7.46e-01	0	23	104	0	74	14187
2026-01-09 03:25:48.70	23.67	8.90	-54.8	-68.2	3.8	7.48e-01	0	23	104	0	77	17822
2026-01-09 03:25:49.70	23.61	8.99	-52.6	-64.8	3.9	7.45e-01	0	23	104	0	74	14302
2026-01-09 03:25:50.70	23.56	9.07	-56.7	-73.4	3.8	7.49e-01	0	23	104	0	81	25618
2026-01-09 03:25:51.69	23.51	9.16	-55.8	-70.1	3.8	7.47e-01	0	23	104	0	80	18663
2026-01-09 03:25:52.69	23.46	9.24	-53.0	-65.2	3.8	7.46e-01	0	23	104	0	74	15036
2026-01-09 03:25:53.69	23.40	9.33	-52.7	-65.0	3.9	7.46e-01	0	23	104	0	74	14550
2026-01-09 03:25:54.69	23.35	9.42	-52.2	-64.2	3.9	7.47e-01	0	23	104	0	73	14197
2026-01-09 03:25:55.68	23.30	9.50	-52.2	-64.2	3.9	7.44e-01	0	23	104	0	73	14133
2026-01-09 03:25:56.68	23.24	9.59	-51.7	-63.6	3.8	7.46e-01	0	23	104	0	72	13907
2026-01-09 03:25:57.68	23.19	9.68	-51.8	-63.7	3.8	7.43e-01	0	23	104	0	72	14085
2026-01-09 03:25:58.69	23.13	9.77	-56.5	-72.2	3.8	7.51e-01	0	23	104	0	80	23586
2026-01-09 03:25:59.69	23.07	9.86	-55.8	-70.2	3.8	7.43e-01	0	23	104	0	80	18912
2026-01-09 03:26:00.69	23.02	9.95	-52.7	-64.8	3.8	7.48e-01	0	23	104	0	73	15211
2026-01-09 03:26:01.69	22.96	10.04	-52.5	-64.6	3.9	7.46e-01	0	23	104	0	74	13950
2026-01-09 03:26:02.69	22.91	10.12	-52.0	-63.9	3.9	7.48e-01	0	23	104	0	73	13608
2026-01-09 03:26:03.70	22.85	10.22	-51.2	-62.9	3.9	7.47e-01	0	23	104	0	71	13700
2026-01-09 03:26:04.70	22.79	10.31	-51.2	-63.0	3.8	7.45e-01	0	23	104	0	70	14577
2026-01-09 03:26:05.70	22.73	10.40	-51.6	-63.4	3.8	7.47e-01	0	23	104	0	70	15357
2026-01-09 03:26:06.70	22.67	10.49	-56.5	-72.1	3.8	7.52e-01	0	23	104	0	80	23316
2026-01-09 03:26:07.70	22.61	10.58	-55.8	-70.0	3.8	7.46e-01	0	23	104	0	80	18332
2026-01-09 03:26:08.70	22.55	10.67	-52.9	-65.1	3.8	7.44e-01	0	23	104	0	73	15611
2026-01-09 03:26:09.70	22.49	10.76	-52.1	-64.0	3.8	7.47e-01	0	23	104	0	73	13827
2026-01-09 03:26:10.70	22.43	10.85	-51.6	-63.4	3.9	7.44e-01	0	23	104	0	72	13709
2026-01-09 03:26:11.69	22.37	10.95	-51.0	-62.6	3.8	7.49e-01	0	23	104	0	71	13218
2026-01-09 03:26:12.69	22.31	11.04	-50.9	-62.5	3.8	7.46e-01	0	23	104	0	70	13811
2026-01-09 03:26:13.69	22.25	11.13	-51.3	-63.0	3.8	7.46e-01	0	23	104	0	70	14580
2026-01-09 03:26:14.69	22.19	11.23	-56.5	-71.9	3.8	7.50e-01	0	23	104	0	80	22796
2026-01-09 03:26:15.68	22.13	11.32	-55.8	-69.9	3.8	7.45e-01	0	23	104	0	80	18132
2026-01-09 03:26:16.68	22.06	11.41	-52.2	-64.2	3.8	7.48e-01	0	23	104	0	72	14951
2026-01-09 03:26:17.68	22.00	11.51	-51.9	-63.8	3.9	7.44e-01	0	23	104	0	73	13422
2026-01-09 03:26:18.68	21.94	11.60	-51.6	-63.4	3.8	7.45e-01	0	23	104	0	72	13594
2026-01-09 03:26:19.67	21.87	11.70	-51.3	-63.0	3.9	7.42e-01	0	23	104	0	71	13832
2026-01-09 03:26:20.67	21.81	11.79	-51.6	-63.3	3.8	7.47e-01	0	23	104	0	71	14321
2026-01-09 03:26:21.67	21.74	11.89	-51.4	-63.1	3.9	7.44e-01	0	23	104	0	71	13974
2026-01-09 03:26:22.67	21.68	11.99	-56.4	-71.7	3.8	7.47e-01	0	23	104	0	80	22397
2026-01-09 03:26:23.67	21.61	12.08	-55.8	-69.8	3.8	7.46e-01	0	23	104	0	80	17988
2026-01-09 03:26:24.66	21.54	12.18	-52.0	-63.8	3.8	7.46e-01	0	23	104	0	72	14330
2026-01-09 03:26:25.65	21.48	12.28	-51.7	-63.5	3.9	7.43e-01	0	23	104	0	72	13746
2026-01-09 03:26:26.65	21.41	12.38	-51.2	-62.9	3.9	7.44e-01	0	23	104	0	71	13612
2026-01-09 03:26:27.65	21.34	12.48	-51.2	-62.9	3.9	7.46e-01	0	23	104	0	71	13591
2026-01-09 03:26:28.65	21.27	12.57	-51.0	-62.6	3.8	7.46e-01	0	23	104	0	70	14036
2026-01-09 03:26:29.65	21.20	12.67	-51.2	-62.8	3.9	7.45e-01	0	23	104	0	70	14372
2026-01-09 03:26:30.65	21.13	12.77	-56.4	-71.5	3.8	7.48e-01	0	23	104	0	80	21911
2026-01-09 03:26:31.65	21.06	12.87	-55.9	-69.9	3.8	7.43e-01	0	23	104	0	80	18194
2026-01-09 03:26:32.66	20.99	12.98	-51.9	-63.7	3.8	7.45e-01	0	23	104	0	72	14156
2026-01-09 03:26:33.66	20.92	13.08	-51.6	-63.4	3.9	7.43e-01	0	23	104	0	72	13664
2026-01-09 03:26:34.66	20.85	13.18	-51.4	-63.1	3.8	7.42e-01	0	23	104	0	72	13209
2026-01-09 03:26:35.66	20.77	13.28	-51.4	-63.1	3.8	7.46e-01	0	23	104	0	71	14025
2026-01-09 03:26:36.66	20.70	13.38	-52.8	-65.0	3.8	7.46e-01	0	23	104	0	73	15444
2026-01-09 03:26:37.66	20.63	13.49	-51.5	-63.2	3.9	7.43e-01	0	23	104	0	72	13413
2026-01-09 03:26:38.65	20.55	13.59	-56.5	-71.7	3.8	7.45e-01	0	23	104	0	80	22315
2026-01-09 03:26:39.65	20.48	13.69	-56.0	-70.3	3.8	7.47e-01	0	23	104	0	80	19005
2026-01-09 03:26:40.65	20.40	13.80	-51.8	-63.6	3.9	7.45e-01	0	23	104	0	72	13945
2026-01-09 03:26:41.66	20.33	13.90	-51.5	-63.2	3.9	7.45e-01	0	23	104	0	72	13345
2026-01-09 03:26:42.65	20.25	14.01	-51.0	-62.6	3.9	7.44e-01	0	23	104	0	71	13170
2026-01-09 03:26:43.65	20.17	14.11	-50.2	-61.7	3.9	7.45e-01	0	23	104	0	69	13392
2026-01-09 03:26:44.65	20.09	14.22	-53.0	-65.2	3.9	7.44e-01	0	23	104	0	73	15782
2026-01-09 03:26:45.66	20.02	14.33	-51.6	-63.4	3.8	7.44e-01	0	23	104	0	72	13615
2026-01-09 03:26:46.66	19.94	14.43	-56.5	-71.5	3.8	7.50e-01	0	24	104	0	80	21968
2026-01-09 03:26:47.66	19.86	14.54	-55.9	-70.0	3.8	7.47e-01	0	23	104	0	80	18412
2026-01-09 03:26:48.65	19.78	14.65	-51.5	-63.2	3.8	7.45e-01	0	23	104	0	71	14067
2026-01-09 03:26:49.65	19.69	14.75	-51.2	-62.9	3.9	7.43e-01	0	24	104	0	71	13595
2026-01-09 03:26:50.65	19.61	14.86	-50.6	-62.1	3.8	7.45e-01	0	23	104	0	70	13256
2026-01-09 03:26:51.65	19.53	14.97	-50.3	-61.8	3.9	7.46e-01	0	23	104	0	69	13482
2026-01-09 03:26:52.65	19.45	15.08	-51.1	-62.7	3.8	7.46e-01	0	23	104	0	69	14919
2026-01-09 03:26:53.65	19.36	15.19	-51.0	-62.6	3.9	7.41e-01	0	23	104	0	71	13251
2026-01-09 03:26:54.65	19.28	15.30	-56.3	-71.0	3.8	7.51e-01	0	23	104	0	80	20727
2026-01-09 03:26:55.66	19.19	15.42	-55.9	-69.8	3.8	7.47e-01	0	23	104	0	80	17976
2026-01-09 03:26:56.66	19.11	15.53	-51.4	-63.0	3.8	7.45e-01	0	23	104	0	71	13811
2026-01-09 03:26:57.65	19.02	15.64	-51.1	-62.7	3.9	7.44e-01	0	24	104	0	71	13412
2026-01-09 03:26:58.65	18.93	15.75	-50.9	-62.5	3.9	7.45e-01	0	23	104	0	71	13082
2026-01-09 03:26:59.65	18.84	15.87	-50.7	-62.2	3.9	7.44e-01	0	23	104	0	70	13313
2026-01-09 03:27:00.64	18.76	15.98	-51.8	-63.6	3.9	7.44e-01	0	23	104	0	71	14790
2026-01-09 03:27:01.65	18.67	16.09	-51.1	-62.7	3.9	7.43e-01	0	24	104	0	71	13307
2026-01-09 03:27:02.65	18.57	16.21	-56.1	-70.4	3.8	7.48e-01	0	23	104	0	79	20537
2026-01-09 03:27:03.65	18.48	16.32	-56.1	-70.3	3.8	7.46e-01	0	23	104	0	80	19050
2026-01-09 03:27:04.65	18.39	16.44	-51.2	-62.8	3.9	7.44e-01	0	23	104	0	71	13475
2026-01-09 03:27:05.65	18.30	16.56	-51.6	-63.4	3.8	7.44e-01	0	23	104	0	72	13644
2026-01-09 03:27:06.65	18.20	16.67	-51.1	-62.7	3.9	7.44e-01	0	23	104	0	71	13388
2026-01-09 03:27:07.65	18.11	16.79	-50.5	-62.0	3.9	7.44e-01	0	24	104	0	70	13068
2026-01-09 03:27:08.64	18.02	16.91	-49.5	-60.9	3.8	7.49e-01	0	23	104	0	68	12848
2026-01-09 03:27:09.64	17.92	17.03	-50.5	-62.0	3.8	7.47e-01	0	23	104	0	68	14596
2026-01-09 03:27:10.64	17.82	17.15	-56.2	-70.9	3.8	7.49e-01	0	23	104	0	80	20470
2026-01-09 03:27:11.64	17.72	17.26	-56.1	-70.2	3.8	7.44e-01	0	23	104	0	80	18744
2026-01-09 03:27:12.63	17.63	17.38	-51.0	-62.5	3.8	7.47e-01	0	23	104	0	71	13098
2026-01-09 03:27:13.63	17.53	17.50	-51.5	-63.2	3.9	7.43e-01	0	23	104	0	72	13355
2026-01-09 03:27:14.64	17.43	17.63	-51.0	-62.5	3.9	7.44e-01	0	23	104	0	71	13082
2026-01-09 03:27:15.63	17.33	17.75	-50.4	-61.8	3.9	7.47e-01	0	24	104	0	70	12753
2026-01-09 03:27:16.63	17.22	17.87	-49.9	-61.3	3.8	7.45e-01	0	24	104	0	68	13499
2026-01-09 03:27:17.61	17.12	17.99	-51.1	-62.6	3.8	7.45e-01	0	23	104	0	69	14824
2026-01-09 03:27:18.62	17.02	18.12	-56.2	-70.8	3.8	7.48e-01	0	23	104	0	80	20212
2026-01-09 03:27:19.62	16.91	18.24	-56.1	-70.1	3.8	7.47e-01	0	23	104	0	80	18656
2026-01-09 03:27:20.61	16.81	18.36	-51.0	-62.4	3.8	7.45e-01	0	23	104	0	71	12954
2026-01-09 03:27:21.61	16.70	18.49	-51.4	-63.1	3.8	7.45e-01	0	24	104	0	72	13211
2026-01-09 03:27:22.61	16.59	18.62	-50.9	-62.4	3.8	7.46e-01	0	24	104	0	71	12951
2026-01-09 03:27:23.60	16.48	18.74	-50.2	-61.6	3.9	7.47e-01	0	23	104	0	69	13220
2026-01-09 03:27:24.60	16.38	18.87	-49.4	-60.7	3.9	7.47e-01	0	23	104	0	67	13304
2026-01-09 03:27:25.60	16.26	19.00	-50.5	-62.0	3.9	7.47e-01	0	23	104	0	68	14559
2026-01-09 03:27:26.60	16.15	19.13	-56.1	-70.3	3.8	7.48e-01	0	23	104	0	79	20145
2026-01-09 03:27:27.59	16.04	19.25	-56.0	-69.8	3.8	7.46e-01	0	24	104	0	80	17999
2026-01-09 03:27:28.58	15.93	19.38	-50.8	-62.3	3.9	7.45e-01	0	23	104	0	70	13498
2026-01-09 03:27:29.58	15.81	19.51	-50.9	-62.5	3.9	7.46e-01	0	23	104	0	71	12994
2026-01-09 03:27:30.59	15.70	19.64	-50.6	-62.1	3.9	7.47e-01	0	23	104	0	70	13194
2026-01-09 03:27:31.58	15.58	19.77	-50.0	-61.3	3.9	7.43e-01	0	23	104	0	69	12791
2026-01-09 03:27:32.58	15.46	19.91	-51.3	-63.1	3.9	7.47e-01	0	23	104	0	70	14728
2026-01-09 03:27:33.58	15.34	20.04	-51.3	-62.9	3.9	7.48e-01	0	23	104	0	71	13687
2026-01-09 03:27:34.59	15.22	20.18	-55.8	-69.6	3.8	7.43e-01	0	24	104	0	79	18615
2026-01-09 03:27:35.59	15.10	20.31	-56.1	-70.1	3.8	7.46e-01	0	23	104	0	81	17591
2026-01-09 03:27:36.59	14.98	20.44	-51.0	-62.5	3.8	7.47e-01	0	24	104	0	71	13106
2026-01-09 03:27:37.59	14.85	20.58	-51.6	-63.3	3.8	7.41e-01	0	23	104	0	72	13442
2026-01-09 03:27:38.58	14.73	20.71	-51.0	-62.6	3.8	7.45e-01	0	23	104	0	71	13162
2026-01-09 03:27:39.58	14.60	20.85	-50.4	-61.8	3.9	7.46e-01	0	23	104	0	70	12763
2026-01-09 03:27:40.58	14.47	20.99	-49.7	-61.0	3.8	7.43e-01	0	23	104	0	68	13060
2026-01-09 03:27:41.58	14.34	21.13	-50.7	-62.4	3.8	7.48e-01	0	23	104	0	69	14391
2026-01-09 03:27:42.58	14.21	21.27	-55.9	-69.7	3.8	7.46e-01	0	23	104	0	79	18740
2026-01-09 03:27:43.58	14.08	21.41	-56.3	-70.5	3.8	7.45e-01	0	23	104	0	81	18337
2026-01-09 03:27:44.57	13.95	21.55	-51.1	-62.7	3.8	7.42e-01	0	23	104	0	71	13380
2026-01-09 03:27:45.58	13.82	21.69	-51.6	-63.3	3.8	7.41e-01	0	23	104	0	72	13523
2026-01-09 03:27:46.57	13.68	21.83	-51.0	-62.7	3.8	7.45e-01	0	23	104	0	71	13276
2026-01-09 03:27:47.58	13.54	21.97	-51.0	-62.5	3.8	7.44e-01	0	24	104	0	71	13049
2026-01-09 03:27:48.57	13.41	22.11	-51.2	-62.9	3.8	7.43e-01	0	23	104	0	70	14374
2026-01-09 03:27:49.57	13.27	22.26	-51.3	-63.0	3.8	7.45e-01	0	23	104	0	71	13798
2026-01-09 03:27:50.57	13.13	22.40	-55.9	-69.6	3.8	7.44e-01	0	23	104	0	79	18689
2026-01-09 03:27:51.57	12.99	22.55	-56.3	-70.4	3.8	7.50e-01	0	23	104	0	81	18251
2026-01-09 03:27:52.56	12.84	22.69	-51.0	-62.5	3.9	7.48e-01	0	23	104	0	71	12962
2026-01-09 03:27:53.56	12.70	22.84	-51.4	-63.1	3.9	7.45e-01	0	23	104	0	72	13143
2026-01-09 03:27:54.56	12.55	22.99	-50.9	-62.5	3.8	7.47e-01	0	23	104	0	71	12970
2026-01-09 03:27:55.56	12.40	23.13	-50.9	-62.4	3.8	7.43e-01	0	23	104	0	71	12870
2026-01-09 03:27:56.56	12.25	23.28	-50.4	-61.8	3.8	7.45e-01	0	23	104	0	70	12773
2026-01-09 03:27:57.55	12.10	23.43	-50.8	-62.3	3.8	7.47e-01	0	23	104	0	69	14329
2026-01-09 03:27:58.55	11.95	23.58	-55.5	-68.8	3.8	7.41e-01	0	23	104	0	78	17941
2026-01-09 03:27:59.55	11.80	23.73	-56.4	-70.5	3.8	7.45e-01	0	23	104	0	81	18422
2026-01-09 03:28:00.56	11.64	23.88	-50.4	-61.9	3.9	7.43e-01	0	23	104	0	70	12879
2026-01-09 03:28:01.56	11.48	24.04	-51.4	-62.9	3.9	7.45e-01	0	23	104	0	72	12951
2026-01-09 03:28:02.55	11.33	24.19	-51.0	-62.5	3.8	7.47e-01	0	24	104	0	71	13029
2026-01-09 03:28:03.55	11.17	24.34	-50.5	-61.9	3.8	7.45e-01	0	24	104	0	70	12947
2026-01-09 03:28:04.55	11.00	24.50	-50.1	-61.4	3.8	7.45e-01	0	24	104	0	69	12957
2026-01-09 03:28:05.56	10.84	24.65	-50.9	-62.5	3.8	7.43e-01	0	23	104	0	69	14566
2026-01-09 03:28:06.56	10.67	24.81	-56.1	-69.9	3.8	7.47e-01	0	23	104	0	79	19295
2026-01-09 03:28:07.57	10.50	24.97	-56.4	-70.5	3.8	7.48e-01	0	24	104	0	81	18471
2026-01-09 03:28:08.56	10.33	25.13	-50.6	-62.1	3.9	7.45e-01	0	23	104	0	70	13176
2026-01-09 03:28:09.57	10.16	25.29	-50.7	-62.1	3.8	7.45e-01	0	23	104	0	70	13252
2026-01-09 03:28:10.57	9.99	25.44	-50.6	-62.1	3.8	7.46e-01	0	24	104	0	70	13245
2026-01-09 03:28:11.57	9.81	25.60	-50.0	-61.4	3.9	7.46e-01	0	23	104	0	69	12908
2026-01-09 03:28:12.56	9.64	25.76	-51.7	-63.7	3.8	7.47e-01	0	23	104	0	71	14921
2026-01-09 03:28:13.56	9.46	25.93	-51.6	-63.2	3.9	7.43e-01	0	24	104	0	72	13403
2026-01-09 03:28:14.56	9.28	26.09	-56.0	-69.7	3.8	7.46e-01	0	23	104	0	79	18845
2026-01-09 03:28:15.56	9.10	26.25	-56.4	-70.4	3.8	7.44e-01	0	23	104	0	81	18240
2026-01-09 03:28:16.55	8.91	26.41	-50.7	-62.2	3.8	7.46e-01	0	23	104	0	70	13323
2026-01-09 03:28:17.55	8.73	26.58	-51.1	-62.6	3.8	7.43e-01	0	24	104	0	71	13152
2026-01-09 03:28:18.54	8.54	26.74	-50.6	-62.0	3.8	7.45e-01	0	24	104	0	70	13093
2026-01-09 03:28:19.53	8.35	26.90	-50.0	-61.4	3.8	7.44e-01	0	23	104	0	69	12813
2026-01-09 03:28:20.54	8.16	27.07	-49.5	-60.8	3.8	7.47e-01	0	24	104	0	68	12767
2026-01-09 03:28:21.53	7.96	27.24	-50.5	-61.9	3.8	7.44e-01	0	24	104	0	68	14437
2026-01-09 03:28:22.53	7.77	27.41	-55.4	-68.5	3.8	7.46e-01	0	24	104	0	78	17467
2026-01-09 03:28:23.53	7.57	27.58	-56.2	-70.0	3.8	7.47e-01	0	24	104	0	81	17422
2026-01-09 03:28:24.53	7.36	27.75	-50.5	-62.0	3.8	7.44e-01	0	23	104	0	70	12962
2026-01-09 03:28:25.53	7.16	27.92	-50.9	-62.4	3.8	7.45e-01	0	24	104	0	71	12867
2026-01-09 03:28:26.53	6.95	28.09	-50.2	-61.6	3.8	7.43e-01	0	23	104	0	69	13234
2026-01-09 03:28:27.52	6.75	28.26	-49.6	-60.9	3.8	7.46e-01	0	23	104	0	68	12950
2026-01-09 03:28:28.52	6.54	28.43	-49.4	-60.6	3.9	7.43e-01	0	23	104	0	67	13235
2026-01-09 03:28:29.52	6.32	28.60	-50.1	-61.5	3.8	7.45e-01	0	23	104	0	67	14611
2026-01-09 03:28:30.53	6.10	28.78	-55.4	-68.4	3.8	7.48e-01	0	23	104	0	78	17225
2026-01-09 03:28:31.52	5.89	28.95	-56.2	-69.8	3.9	7.45e-01	0	23	104	0	81	16987
2026-01-09 03:28:32.52	5.67	29.13	-49.8	-61.3	3.8	7.45e-01	0	23	104	0	69	12684
2026-01-09 03:28:33.52	5.44	29.30	-50.1	-61.5	3.9	7.44e-01	0	24	104	0	69	13063
2026-01-09 03:28:34.51	5.22	29.48	-50.0	-61.3	3.8	7.46e-01	0	23	104	0	69	12769
2026-01-09 03:28:35.51	4.99	29.66	-49.5	-60.8	3.8	7.48e-01	0	24	104	0	68	12675
2026-01-09 03:28:36.51	4.76	29.83	-50.5	-61.9	3.8	7.47e-01	0	24	104	0	68	14375
2026-01-09 03:28:37.50	4.53	30.01	-51.2	-62.7	3.8	7.44e-01	0	23	104	0	71	13376
2026-01-09 03:28:38.50	4.29	30.19	-54.9	-67.6	3.8	7.45e-01	0	24	104	0	77	16673
2026-01-09 03:28:39.50	4.05	30.37	-56.1	-69.8	3.9	7.43e-01	0	24	104	0	81	16892
2026-01-09 03:28:40.49	3.81	30.55	-50.2	-61.4	3.8	7.46e-01	0	23	104	0	69	12928
2026-01-09 03:28:41.50	3.57	30.73	-50.3	-61.4	3.9	7.45e-01	0	23	104	0	69	12921
2026-01-09 03:28:42.50	3.32	30.92	-49.7	-61.0	3.9	7.44e-01	0	24	104	0	68	13048
2026-01-09 03:28:43.50	3.07	31.10	-49.3	-60.4	3.8	7.47e-01	0	23	104	0	67	12877
2026-01-09 03:28:44.50	2.81	31.28	-50.0	-61.4	3.9	7.47e-01	0	24	104	0	67	14457
2026-01-09 03:28:45.49	2.56	31.46	-51.0	-62.5	3.9	7.46e-01	0	23	104	0	70	13788
2026-01-09 03:28:46.49	2.30	31.65	-55.0	-67.8	3.8	7.48e-01	0	23	104	0	77	16901
2026-01-09 03:28:47.48	2.04	31.83	-56.2	-69.7	3.9	7.44e-01	0	23	104	0	81	16846
2026-01-09 03:28:48.47	1.78	32.02	-50.5	-62.0	3.9	7.47e-01	0	24	104	0	70	13010
2026-01-09 03:28:49.47	1.51	32.20	-50.5	-61.9	3.9	7.43e-01	0	23	104	0	70	12822
2026-01-09 03:28:50.47	1.23	32.39	-49.7	-61.0	3.9	7.47e-01	0	24	104	0	68	13093
2026-01-09 03:28:51.46	0.96	32.58	-49.2	-60.4	3.8	7.44e-01	0	23	104	0	67	12934
2026-01-09 03:28:52.47	0.68	32.77	-49.2	-60.5	3.9	7.48e-01	0	23	104	0	67	12967
2026-01-09 03:28:53.46	0.40	32.95	-50.2	-61.7	3.8	7.45e-01	0	23	104	0	68	14091
2026-01-09 03:28:54.47	0.11	33.14	-55.3	-68.4	3.8	7.49e-01	0	23	104	0	78	17112
2026-01-09 03:28:55.46	359.82	33.33	-56.5	-70.4	3.9	7.46e-01	0	23	104	0	82	17138
2026-01-09 03:28:56.46	359.53	33.52	-50.9	-62.4	3.9	7.46e-01	0	23	104	0	71	12954
2026-01-09 03:28:57.47	359.23	33.71	-50.9	-62.4	3.9	7.43e-01	0	23	104	0	71	12887
2026-01-09 03:28:58.46	358.93	33.90	-50.2	-61.5	3.9	7.44e-01	0	23	104	0	69	13044
2026-01-09 03:28:59.46	358.63	34.09	-49.6	-60.9	3.9	7.47e-01	0	24	104	0	68	12870
2026-01-09 03:29:00.47	358.32	34.28	-49.9	-61.2	3.9	7.45e-01	0	24	104	0	68	13302
2026-01-09 03:29:01.47	358.01	34.48	-51.4	-63.0	3.8	7.45e-01	0	24	104	0	71	13733
2026-01-09 03:29:02.48	357.69	34.67	-55.5	-68.5	3.8	7.47e-01	0	24	104	0	78	17367
2026-01-09 03:29:03.48	357.37	34.86	-56.7	-70.8	3.9	7.45e-01	0	24	104	0	82	18062
2026-01-09 03:29:04.48	357.05	35.05	-51.2	-62.6	3.8	7.42e-01	0	24	104	0	71	13250
2026-01-09 03:29:05.48	356.72	35.25	-51.2	-62.7	3.9	7.50e-01	0	23	104	0	71	13350
2026-01-09 03:29:06.47	356.39	35.44	-50.7	-62.1	3.8	7.45e-01	0	24	104	0	70	13233
2026-01-09 03:29:07.47	356.06	35.63	-50.2	-61.6	3.9	7.48e-01	0	24	104	0	69	13120
2026-01-09 03:29:08.46	355.72	35.82	-50.2	-61.5	3.8	7.46e-01	0	24	104	0	68	13734
2026-01-09 03:29:09.45	355.38	36.01	-51.3	-62.9	3.8	7.43e-01	0	24	104	0	71	13582
2026-01-09 03:29:10.45	355.03	36.21	-55.7	-68.4	3.8	7.45e-01	0	23	104	0	78	17230
2026-01-09 03:29:11.45	354.68	36.40	-57.0	-71.4	3.9	7.42e-01	0	24	104	0	83	18137
2026-01-09 03:29:12.44	354.33	36.59	-52.5	-64.4	3.9	7.46e-01	0	24	104	0	74	13571
2026-01-09 03:29:13.44	353.97	36.78	-52.0	-63.8	3.9	7.42e-01	0	24	104	0	73	13420
2026-01-09 03:29:14.43	353.61	36.97	-51.3	-62.8	3.8	7.47e-01	0	24	104	0	71	13429
2026-01-09 03:29:15.43	353.24	37.17	-50.7	-62.2	3.8	7.43e-01	0	24	104	0	70	13290
2026-01-09 03:29:16.43	352.86	37.36	-51.3	-62.8	3.8	7.45e-01	0	24	104	0	70	14351
2026-01-09 03:29:17.43	352.49	37.55	-53.1	-65.1	3.9	7.48e-01	0	23	104	0	75	13945
2026-01-09 03:29:18.42	352.11	37.74	-55.8	-69.1	3.8	7.47e-01	0	24	104	0	79	17672
2026-01-09 03:29:19.42	351.72	37.93	-57.4	-72.1	3.9	7.44e-01	0	24	104	0	84	18715
2026-01-09 03:29:20.42	351.33	38.13	-52.4	-64.2	3.9	7.49e-01	0	24	104	0	74	13307
2026-01-09 03:29:21.42	350.93	38.32	-52.0	-63.6	3.9	7.44e-01	0	23	104	0	73	13193
2026-01-09 03:29:22.42	350.53	38.51	-51.3	-62.8	3.8	7.45e-01	0	24	104	0	71	13451
2026-01-09 03:29:23.42	350.12	38.70	-51.6	-63.2	3.8	7.49e-01	0	24	104	0	71	14177
2026-01-09 03:29:24.41	349.71	38.89	-52.4	-64.2	3.8	7.42e-01	0	24	104	0	72	15016
2026-01-09 03:29:25.41	349.30	39.08	-53.0	-65.0	3.9	7.45e-01	0	23	104	0	75	13806
2026-01-09 03:29:26.41	348.87	39.27	-55.5	-68.3	3.8	7.47e-01	0	24	104	0	78	17083
2026-01-09 03:29:27.40	348.45	39.45	-57.4	-72.0	3.8	7.45e-01	0	24	104	0	84	18383
2026-01-09 03:29:28.40	348.02	39.64	-52.5	-64.4	3.8	7.45e-01	0	24	104	0	74	13668
2026-01-09 03:29:29.40	347.58	39.83	-52.5	-64.4	3.9	7.47e-01	0	24	104	0	74	13612
2026-01-09 03:29:30.39	347.14	40.01	-51.6	-63.2	3.8	7.48e-01	0	24	104	0	72	13351
2026-01-09 03:29:31.39	346.70	40.19	-51.4	-62.9	3.8	7.44e-01	0	24	104	0	71	13680
2026-01-09 03:29:32.39	346.24	40.38	-51.5	-63.0	3.8	7.42e-01	0	24	104	0	71	13808
2026-01-09 03:29:33.39	345.79	40.56	-53.0	-64.9	3.8	7.43e-01	0	24	104	0	75	13586
2026-01-09 03:29:34.40	345.32	40.74	-54.9	-67.5	3.8	7.44e-01	0	24	104	0	77	16473
2026-01-09 03:29:35.39	344.85	40.92	-57.5	-72.3	3.9	7.45e-01	0	24	104	0	84	19090
2026-01-09 03:29:36.39	344.38	41.10	-52.8	-65.0	3.9	7.46e-01	0	24	104	0	75	13788
2026-01-09 03:29:37.39	343.90	41.28	-52.2	-63.7	3.8	7.42e-01	0	24	104	0	73	13392
2026-01-09 03:29:38.39	343.42	41.46	-50.9	-62.3	3.8	7.43e-01	0	24	104	0	71	12733
2026-01-09 03:29:39.39	342.93	41.63	-51.0	-62.6	3.8	7.44e-01	0	24	104	0	70	13888
2026-01-09 03:29:40.39	342.43	41.81	-51.3	-62.8	3.8	7.47e-01	0	24	104	0	70	14340
2026-01-09 03:29:41.40	341.92	41.98	-52.0	-63.7	3.8	7.44e-01	0	24	104	0	73	13340
2026-01-09 03:29:42.40	341.42	42.15	-54.8	-67.4	3.8	7.43e-01	0	24	104	0	77	16292
2026-01-09 03:29:43.40	340.91	42.32	-57.4	-72.0	3.9	7.47e-01	0	24	104	0	84	18338
2026-01-09 03:29:44.40	340.39	42.49	-51.3	-63.0	3.8	7.46e-01	0	24	104	0	72	12987
2026-01-09 03:29:45.40	339.86	42.65	-51.9	-63.6	3.9	7.44e-01	0	24	104	0	73	13234
2026-01-09 03:29:46.40	339.34	42.82	-51.3	-62.7	3.8	7.45e-01	0	24	104	0	71	13389
2026-01-09 03:29:47.40	338.80	42.98	-51.0	-62.5	3.8	7.45e-01	0	24	104	0	71	12997
2026-01-09 03:29:48.40	338.26	43.14	-50.3	-61.7	3.9	7.48e-01	0	24	104	0	69	13392
2026-01-09 03:29:49.40	337.72	43.29	-51.0	-62.4	3.8	7.43e-01	0	24	104	0	71	12877
2026-01-09 03:29:50.40	337.17	43.45	-54.7	-67.0	3.8	7.43e-01	0	24	104	0	76	16471
2026-01-09 03:29:51.39	336.62	43.60	-57.4	-72.1	3.9	7.47e-01	0	24	104	0	84	18606
2026-01-09 03:29:52.39	336.05	43.75	-52.3	-64.2	3.9	7.48e-01	0	24	104	0	74	13294
2026-01-09 03:29:53.39	335.49	43.90	-52.1	-63.8	3.9	7.43e-01	0	24	104	0	73	13447
2026-01-09 03:29:54.39	334.92	44.04	-50.9	-62.4	3.8	7.42e-01	0	24	104	0	71	12818
2026-01-09 03:29:55.39	334.34	44.19	-50.8	-62.3	3.8	7.46e-01	0	24	104	0	70	13488
2026-01-09 03:29:56.39	333.75	44.33	-51.2	-62.6	3.8	7.42e-01	0	24	104	0	70	14001
2026-01-09 03:29:57.39	333.17	44.46	-52.5	-64.4	3.8	7.45e-01	0	24	104	0	74	13646
2026-01-09 03:29:58.40	332.57	44.60	-54.5	-66.8	3.8	7.47e-01	0	24	104	0	76	16087
2026-01-09 03:29:59.40	331.97	44.73	-57.4	-72.0	3.9	7.47e-01	0	24	104	0	84	18431
2026-01-09 03:30:00.39	331.37	44.86	-52.1	-63.7	3.9	7.46e-01	0	24	104	0	73	13317
2026-01-09 03:30:01.40	330.76	44.98	-52.0	-63.7	3.9	7.45e-01	0	24	104	0	73	13379
2026-01-09 03:30:02.39	330.15	45.10	-51.2	-62.8	3.8	7.45e-01	0	24	104	0	71	13557
2026-01-09 03:30:03.39	329.53	45.22	-50.8	-62.1	3.8	7.47e-01	0	24	104	0	70	13173
2026-01-09 03:30:04.39	328.91	45.34	-50.4	-61.9	3.8	7.45e-01	0	24	104	0	70	12944
2026-01-09 03:30:05.39	328.28	45.45	-51.1	-62.6	3.8	7.43e-01	0	24	104	0	70	13995
2026-01-09 03:30:06.39	327.65	45.56	-54.7	-66.9	3.8	7.46e-01	0	24	104	0	76	16227
2026-01-09 03:30:07.39	327.02	45.66	-57.5	-72.0	3.9	7.46e-01	0	24	104	0	84	18378
2026-01-09 03:30:08.39	326.38	45.77	-51.9	-63.7	3.8	7.48e-01	0	24	104	0	73	13337
2026-01-09 03:30:09.40	325.73	45.86	-52.4	-64.1	3.9	7.46e-01	0	24	104	0	74	13177
2026-01-09 03:30:10.39	325.09	45.96	-51.4	-63.0	3.8	7.47e-01	0	23	104	0	71	13734
2026-01-09 03:30:11.39	324.43	46.05	-51.3	-62.7	3.8	7.44e-01	0	24	104	0	71	13383
2026-01-09 03:30:12.39	323.78	46.13	-50.9	-52.7	12.2	6.02e-01	1	24	104	0	70	4457
2026-01-09 03:30:13.38	323.12	46.21	-52.0	-54.0	15.6	6.04e-01	0	24	0	1048576	73	4380
2026-01-09 03:30:14.37	322.47	46.29	-54.1	-56.8	15.0	6.03e-01	0	24	0	3145728	75	5399
2026-01-09 03:30:15.36	321.81	46.37	-57.1	-62.7	12.3	6.07e-01	0	24	0	4718592	83	6718
2026-01-09 03:30:16.36	321.14	46.44	-51.5	-53.4	15.8	6.05e-01	0	24	0	6815744	72	4312
2026-01-09 03:30:17.36	320.47	46.50	-52.0	-54.0	15.7	6.03e-01	0	24	0	8912896	73	4384
2026-01-09 03:30:18.35	319.80	46.56	-51.0	-52.8	15.7	6.04e-01	0	24	0	10485760	70	4519
2026-01-09 03:30:19.34	319.13	46.62	-50.8	-52.6	15.7	6.03e-01	0	24	0	12582912	70	4426
2026-01-09 03:30:20.34	318.45	46.68	-50.2	-51.9	15.8	6.06e-01	0	24	0	14155776	69	4337
2026-01-09 03:30:21.33	317.77	46.72	-50.1	-51.8	15.9	6.04e-01	0	24	0	16252928	69	4272
2026-01-09 03:30:22.33	317.09	46.77	-50.0	-51.7	15.9	6.04e-01	0	24	0	17825792	69	4216
2026-01-09 03:30:23.33	316.40	46.81	-49.9	-51.6	15.8	6.05e-01	0	24	0	19922944	68	4400
2026-01-09 03:30:24.33	315.71	46.85	-50.1	-51.8	15.8	6.01e-01	0	23	0	21495808	68	4515
2026-01-09 03:30:25.32	315.03	46.88	-50.0	-51.7	15.8	6.02e-01	0	24	0	23592960	68	4459
2026-01-09 03:30:26.32	314.34	46.90	-49.8	-51.4	15.9	6.04e-01	0	24	0	25690112	68	4316
2026-01-09 03:30:27.31	313.66	46.93	-50.0	-51.7	15.8	6.03e-01	0	24	0	27262976	68	4458
2026-01-09 03:30:28.31	312.96	46.94	-50.0	-51.7	15.8	6.04e-01	0	24	0	29360128	68	4472
2026-01-09 03:30:29.31	312.27	46.96	-49.9	-51.6	15.7	6.02e-01	0	24	0	30932992	68	4429
2026-01-09 03:30:30.30	311.58	46.97	-49.8	-51.5	15.8	6.04e-01	0	24	0	33030144	68	4363
2026-01-09 03:30:31.30	310.89	46.97	-50.1	-51.9	15.7	6.04e-01	0	24	0	34603008	68	4555
2026-01-09 03:30:32.30	310.19	46.97	-50.2	-51.9	15.7	6.03e-01	0	24	0	36700160	68	4559
2026-01-09 03:30:33.29	309.51	46.97	-49.6	-51.3	15.9	6.03e-01	0	24	0	38273024	68	4245
2026-01-09 03:30:34.29	308.81	46.96	-50.0	-51.7	15.8	6.03e-01	0	24	0	40370176	68	4456
2026-01-09 03:30:35.29	308.12	46.94	-50.0	-51.7	15.8	6.05e-01	0	24	0	42467328	68	4480
2026-01-09 03:30:36.29	307.42	46.93	-49.8	-51.5	15.9	6.06e-01	0	24	0	44040192	68	4350
2026-01-09 03:30:37.30	306.73	46.90	-49.9	-51.6	15.8	6.03e-01	0	24	0	46137344	68	4434
2026-01-09 03:30:38.31	306.03	46.88	-49.6	-51.2	15.9	6.06e-01	0	24	0	48234496	68	4237
2026-01-09 03:30:39.30	305.34	46.84	-49.7	-51.4	15.9	6.05e-01	0	24	0	49807360	68	4295
2026-01-09 03:30:40.31	304.65	46.81	-49.7	-51.4	15.9	6.05e-01	0	24	0	51904512	68	4294
2026-01-09 03:30:41.30	303.97	46.77	-49.2	-50.8	15.9	6.04e-01	0	24	0	53477376	67	4250
2026-01-09 03:30:42.30	303.29	46.72	-49.5	-51.1	15.8	6.05e-01	0	24	0	55574528	67	4441
2026-01-09 03:30:43.29	302.61	46.67	-50.2	-51.9	15.6	6.02e-01	0	24	0	57147392	68	4585
2026-01-09 03:30:44.29	301.93	46.62	-49.8	-51.4	15.9	6.04e-01	0	24	0	59244544	68	4337
2026-01-09 03:30:45.29	301.25	46.56	-49.8	-51.5	15.9	6.05e-01	0	24	0	60817408	68	4361
2026-01-09 03:30:46.28	300.58	46.50	-49.8	-51.5	15.7	6.04e-01	0	24	0	62914560	67	4624
2026-01-09 03:30:47.28	299.91	46.43	-49.9	-51.6	15.6	6.04e-01	0	24	0	65011712	67	4698
2026-01-09 03:30:48.27	299.25	46.36	-49.7	-51.4	15.7	6.06e-01	0	24	0	66584576	67	4585
2026-01-09 03:30:49.27	298.58	46.29	-49.1	-50.7	16.0	6.01e-01	0	24	0	68681728	67	4210
2026-01-09 03:30:50.27	297.92	46.21	-49.3	-50.9	15.9	6.03e-01	0	24	0	70254592	67	4303
2026-01-09 03:30:51.28	297.25	46.13	-49.8	-51.4	15.9	6.06e-01	0	24	0	72351744	68	4330
2026-01-09 03:30:52.27	296.60	46.04	-49.5	-51.1	15.8	6.04e-01	0	24	0	73924608	67	4422
2026-01-09 03:30:53.27	295.95	45.95	-49.9	-51.6	15.7	6.03e-01	0	24	0	76021760	67	4673
2026-01-09 03:30:54.27	295.30	45.86	-50.1	-51.9	15.6	6.05e-01	0	24	0	78118912	68	4573
2026-01-09 03:30:55.27	294.66	45.76	-49.9	-51.6	15.7	6.03e-01	0	24	0	79691776	68	4410
2026-01-09 03:30:56.27	294.02	45.66	-49.5	-51.1	15.9	6.04e-01	0	24	0	81788928	68	4164
2026-01-09 03:30:57.27	293.38	45.55	-49.3	-50.9	15.8	6.04e-01	0	24	0	83361792	67	4306
2026-01-09 03:30:58.27	292.75	45.44	-49.2	-50.8	15.8	6.05e-01	0	24	0	85458944	67	4256
2026-01-09 03:30:59.27	292.12	45.33	-49.5	-51.1	15.8	6.02e-01	0	24	0	87031808	67	4397
2026-01-09 03:31:00.26	291.51	45.21	-49.3	-50.8	15.9	6.04e-01	0	24	0	89128960	67	4273
2026-01-09 03:31:01.27	290.88	45.09	-49.4	-50.9	15.9	6.03e-01	0	24	0	91226112	67	4334
2026-01-09 03:31:02.26	290.27	44.97	-49.4	-51.0	15.8	6.03e-01	0	24	0	92798976	67	4383
2026-01-09 03:31:03.26	289.67	44.85	-49.2	-50.7	15.9	6.04e-01	0	24	0	94896128	67	4224
2026-01-09 03:31:04.26	289.06	44.72	-48.9	-50.4	16.1	6.03e-01	0	24	0	96468992	67	4080
2026-01-09 03:31:05.26	288.46	44.59	-48.3	-49.7	15.9	6.02e-01	0	24	0	98566144	65	4209
2026-01-09 03:31:06.26	287.87	44.45	-48.3	-49.7	16.1	6.04e-01	0	24	0	100663296	65	4227
2026-01-09 03:31:07.25	287.29	44.32	-48.6	-50.1	15.9	6.03e-01	0	24	0	102236160	66	4147
2026-01-09 03:31:08.25	286.70	44.18	-48.5	-49.9	15.8	6.03e-01	0	24	0	104333312	66	4082
2026-01-09 03:31:09.26	286.12	44.03	-49.1	-50.7	15.7	6.02e-01	0	24	0	105906176	67	4225
2026-01-09 03:31:10.25	285.55	43.89	-49.8	-51.5	15.7	6.05e-01	0	24	0	108003328	68	4348
2026-01-09 03:31:11.24	284.99	43.74	-50.7	-52.7	15.6	6.04e-01	0	24	0	109576192	69	4728
2026-01-09 03:31:12.24	284.43	43.59	-50.5	-52.4	15.6	6.03e-01	0	24	0	111673344	68	4841
2026-01-09 03:31:13.24	283.87	43.44	-49.3	-50.8	15.7	6.03e-01	0	24	0	113246208	66	4542
2026-01-09 03:31:14.24	283.32	43.28	-48.5	-49.9	15.9	6.04e-01	0	24	0	115343360	65	4319
2026-01-09 03:31:15.24	282.78	43.12	-48.9	-50.4	16.0	6.03e-01	0	24	0	116916224	67	4078
2026-01-09 03:31:16.23	282.24	42.97	-49.2	-50.8	15.9	6.05e-01	0	24	0	119013376	67	4270
2026-01-09 03:31:17.23	281.71	42.80	-50.0	-51.8	15.6	6.05e-01	0	24	0	121110528	67	4778
2026-01-09 03:31:18.23	281.18	42.64	-50.1	-51.9	15.5	6.05e-01	0	24	0	122683392	67	4864
2026-01-09 03:31:19.23	280.65	42.48	-49.7	-51.3	15.7	6.03e-01	0	24	0	124780544	67	4525
2026-01-09 03:31:20.22	280.14	42.31	-49.4	-51.0	16.0	6.06e-01	0	24	0	126353408	68	4106
2026-01-09 03:31:21.22	279.63	42.14	-49.7	-51.3	15.7	6.05e-01	0	24	0	128450560	68	4289
2026-01-09 03:31:22.22	279.12	41.97	-50.1	-51.7	15.6	6.03e-01	0	24	0	130547712	67	4740
2026-01-09 03:31:23.21	278.62	41.80	-49.8	-51.5	15.7	6.04e-01	0	23	0	132120576	67	4611
2026-01-09 03:31:24.21	278.13	41.62	-50.1	-51.8	15.9	6.04e-01	0	24	0	134217728	69	4250
2026-01-09 03:31:25.20	277.64	41.45	-50.0	-51.8	15.9	6.04e-01	0	24	0	135790592	69	4244
2026-01-09 03:31:26.19	277.16	41.27	-49.9	-51.6	15.7	6.03e-01	0	24	0	137887744	67	4658
2026-01-09 03:31:27.19	276.68	41.10	-49.5	-51.0	15.8	6.03e-01	0	24	0	139460608	67	4389
2026-01-09 03:31:28.19	276.20	40.92	-50.3	-52.1	15.6	6.05e-01	0	24	0	141557760	68	4696
2026-01-09 03:31:29.18	275.74	40.74	-51.1	-53.1	15.5	6.02e-01	0	24	0	143130624	69	4948
2026-01-09 03:31:30.18	275.28	40.55	-49.9	-51.5	16.0	6.04e-01	0	24	0	145227776	69	4143
2026-01-09 03:31:31.18	274.82	40.37	-50.2	-51.9	15.8	6.04e-01	0	24	0	147324928	69	4332
2026-01-09 03:31:32.18	274.36	40.19	-50.3	-52.0	15.8	6.03e-01	0	24	0	148897792	69	4376
2026-01-09 03:31:33.18	273.92	40.00	-50.5	-52.3	15.7	6.04e-01	0	24	0	150994944	69	4518
2026-01-09 03:31:34.18	273.47	39.82	-51.0	-52.9	15.5	6.02e-01	0	24	0	152567808	69	4842
2026-01-09 03:31:35.17	273.04	39.63	-50.9	-52.7	15.6	6.01e-01	0	23	0	154664960	69	4741
2026-01-09 03:31:36.17	272.61	39.44	-50.9	-52.7	15.7	6.05e-01	0	24	0	156237824	70	4492
2026-01-09 03:31:37.17	272.18	39.25	-50.5	-52.3	15.7	6.04e-01	0	24	0	158334976	69	4511
2026-01-09 03:31:38.16	271.76	39.07	-51.0	-52.8	15.7	6.04e-01	0	24	0	160432128	70	4536
2026-01-09 03:31:39.16	271.34	38.88	-51.2	-53.1	15.6	6.03e-01	0	24	0	162004992	70	4686
2026-01-09 03:31:40.16	270.93	38.69	-50.5	-52.2	15.9	6.03e-01	0	24	0	164102144	70	4235
2026-01-09 03:31:41.15	270.53	38.50	-50.5	-52.4	15.7	6.02e-01	0	24	0	165675008	69	4549
2026-01-09 03:31:42.15	270.12	38.31	-50.5	-52.3	15.7	6.02e-01	0	24	0	167772160	69	4530
2026-01-09 03:31:43.15	269.72	38.11	-50.5	-52.3	15.7	6.04e-01	0	24	0	169345024	69	4515
2026-01-09 03:31:44.15	269.33	37.92	-50.7	-52.5	15.6	6.03e-01	0	24	0	171442176	69	4642
2026-01-09 03:31:45.15	268.94	37.73	-50.9	-52.8	15.5	6.02e-01	0	24	0	173539328	69	4800
2026-01-09 03:31:46.16	268.55	37.53	-50.9	-52.8	15.5	6.04e-01	0	23	0	175112192	69	4788
2026-01-09 03:31:47.16	268.18	37.34	-50.7	-52.5	15.6	6.04e-01	0	24	0	177209344	69	4608
2026-01-09 03:31:48.15	267.80	37.15	-50.8	-52.6	15.6	6.03e-01	0	24	0	178782208	69	4697
2026-01-09 03:31:49.16	267.43	36.95	-50.7	-52.5	15.6	6.04e-01	0	24	0	180879360	69	4636
2026-01-09 03:31:50.16	267.07	36.76	-50.9	-52.8	15.5	6.03e-01	0	24	0	182976512	69	4799
2026-01-09 03:31:51.16	266.70	36.57	-50.7	-52.6	15.6	6.05e-01	0	23	0	184549376	69	4656
2026-01-09 03:31:52.15	266.35	36.38	-50.6	-52.4	15.7	6.03e-01	0	24	0	186122240	69	4589
2026-01-09 03:31:53.15	266.00	36.18	-50.5	-52.4	15.7	6.03e-01	0	24	0	188219392	69	4555
2026-01-09 03:31:54.15	265.65	35.99	-50.5	-52.2	15.7	6.04e-01	0	24	0	190316544	69	4491
2026-01-09 03:31:55.14	265.31	35.80	-50.6	-52.4	15.7	6.03e-01	0	24	0	191889408	69	4561
2026-01-09 03:31:56.13	264.97	35.61	-50.5	-52.4	15.7	6.06e-01	0	24	0	193986560	69	4554
2026-01-09 03:31:57.13	264.64	35.41	-50.6	-52.4	15.7	6.06e-01	0	24	0	195559424	69	4576
2026-01-09 03:31:58.12	264.31	35.22	-50.4	-52.2	15.8	6.04e-01	0	24	0	197656576	69	4479
2026-01-09 03:31:59.12	263.98	35.03	-50.3	-52.1	15.8	6.05e-01	0	24	0	199753728	69	4394
2026-01-09 03:32:00.12	263.66	34.83	-50.2	-52.0	15.8	6.04e-01	0	24	0	201326592	69	4354
2026-01-09 03:32:01.11	263.34	34.64	-50.0	-51.6	15.9	6.04e-01	0	24	0	203423744	69	4187
2026-01-09 03:32:02.12	263.02	34.45	-50.0	-51.7	15.8	6.04e-01	0	24	0	204996608	68	4446
2026-01-09 03:32:03.12	262.71	34.26	-50.0	-51.8	15.8	6.01e-01	0	24	0	207093760	68	4499
2026-01-09 03:32:04.12	262.40	34.07	-50.2	-52.0	15.7	6.06e-01	0	24	0	208666624	68	4608
2026-01-09 03:32:05.12	262.10	33.87	-49.8	-51.5	15.8	6.01e-01	0	24	0	210763776	68	4371
2026-01-09 03:32:06.12	261.80	33.68	-49.7	-51.3	15.9	6.04e-01	0	24	0	212860928	68	4280
2026-01-09 03:32:07.11	261.50	33.49	-49.7	-51.3	15.9	6.03e-01	0	24	0	214433792	68	4280
2026-01-09 03:32:08.11	261.21	33.30	-50.0	-51.7	15.8	6.04e-01	0	24	0	216530944	68	4475
2026-01-09 03:32:09.11	260.92	33.11	-49.8	-51.5	15.8	6.06e-01	0	24	0	218103808	68	4382
2026-01-09 03:32:10.10	260.63	32.93	-49.6	-51.2	15.9	6.05e-01	0	24	0	220200960	68	4237
2026-01-09 03:32:11.10	260.35	32.74	-49.7	-51.4	15.9	6.05e-01	0	24	0	221773824	68	4310
2026-01-09 03:32:12.10	260.07	32.55	-49.9	-51.7	15.8	6.04e-01	0	24	0	223870976	68	4456
2026-01-09 03:32:13.11	259.79	32.36	-49.7	-51.4	15.9	6.05e-01	0	24	0	225968128	68	4315
2026-01-09 03:32:14.10	259.52	32.17	-49.7	-51.4	15.9	6.02e-01	0	24	0	227540992	68	4302
2026-01-09 03:32:15.10	259.25	31.99	-49.8	-51.5	15.8	6.03e-01	0	24	0	229638144	68	4343
2026-01-09 03:32:16.09	258.99	31.80	-50.0	-51.8	15.7	6.06e-01	0	24	0	231211008	68	4527
2026-01-09 03:32:17.09	258.72	31.62	-49.7	-51.4	15.8	6.05e-01	0	24	0	233308160	68	4323
2026-01-09 03:32:18.08	258.47	31.43	-49.3	-50.9	15.9	6.03e-01	0	24	0	234881024	67	4299
2026-01-09 03:32:19.08	258.21	31.25	-49.3	-50.8	15.9	6.04e-01	0	24	0	236978176	67	4287
2026-01-09 03:32:20.09	257.95	31.06	-49.7	-51.4	15.7	6.01e-01	0	24	0	238551040	67	4574
2026-01-09 03:32:21.08	257.70	30.88	-49.7	-51.5	15.7	6.02e-01	0	23	0	240648192	67	4606
2026-01-09 03:32:22.08	257.45	30.70	-49.4	-51.1	15.8	6.04e-01	0	24	0	242745344	67	4406
2026-01-09 03:32:23.08	257.21	30.52	-49.2	-50.8	15.9	6.02e-01	0	24	0	244318208	67	4260
2026-01-09 03:32:24.08	256.97	30.34	-49.4	-51.0	15.8	6.02e-01	0	24	0	246415360	67	4375
2026-01-09 03:32:25.08	256.73	30.16	-49.3	-51.0	15.9	6.03e-01	0	24	0	247988224	67	4359
2026-01-09 03:32:26.08	256.49	29.97	-49.3	-50.9	15.9	6.02e-01	0	24	0	250085376	67	4314
2026-01-09 03:32:27.07	256.26	29.80	-49.4	-51.0	15.8	6.03e-01	0	24	0	251658240	67	4383
2026-01-09 03:32:28.06	256.03	29.62	-49.3	-50.9	15.9	6.04e-01	0	24	0	253755392	67	4322
2026-01-09 03:32:29.06	255.80	29.44	-49.4	-51.0	15.8	6.02e-01	0	24	0	255852544	67	4366
2026-01-09 03:32:30.05	255.57	29.27	-49.5	-51.2	15.8	6.06e-01	0	24	0	257425408	67	4481
2026-01-09 03:32:31.05	255.35	29.09	-49.4	-51.1	15.8	6.03e-01	0	24	0	259522560	67	4420
2026-01-09 03:32:32.04	255.13	28.92	-49.1	-50.7	15.9	6.05e-01	0	24	0	261095424	67	4218
2026-01-09 03:32:33.04	254.91	28.74	-49.1	-50.7	15.9	6.02e-01	0	24	0	263192576	67	4217
2026-01-09 03:32:34.04	254.69	28.57	-49.3	-51.0	15.9	6.04e-01	0	24	0	264765440	67	4342
2026-01-09 03:32:35.03	254.48	28.39	-49.5	-51.2	15.8	6.01e-01	0	24	0	266862592	67	4454
2026-01-09 03:32:36.03	254.27	28.22	-49.5	-51.1	15.8	6.03e-01	0	23	0	268435456	67	4440
2026-01-09 03:32:37.03	254.06	28.05	-49.2	-50.9	15.9	6.04e-01	0	24	0	270532608	67	4293
2026-01-09 03:32:38.03	253.86	27.88	-49.2	-50.9	15.9	6.02e-01	0	24	0	272629760	67	4295
2026-01-09 03:32:39.03	253.65	27.71	-49.2	-50.9	15.9	6.03e-01	0	24	0	274202624	67	4292
2026-01-09 03:32:40.03	253.45	27.54	-49.3	-50.9	15.9	6.03e-01	0	24	0	276299776	67	4336
2026-01-09 03:32:41.03	253.25	27.37	-49.4	-51.1	15.8	6.04e-01	0	24	0	277872640	67	4417
2026-01-09 03:32:42.03	253.05	27.20	-49.5	-51.1	15.8	6.03e-01	0	23	0	279969792	67	4429
2026-01-09 03:32:43.03	252.85	27.03	-49.5	-51.1	15.8	6.04e-01	0	24	0	282066944	67	4440
2026-01-09 03:32:44.03	252.66	26.86	-49.4	-51.1	15.8	6.02e-01	0	24	0	283639808	67	4427
2026-01-09 03:32:45.02	252.47	26.70	-49.5	-51.2	15.8	6.05e-01	0	24	0	285736960	67	4445
2026-01-09 03:32:46.02	252.28	26.53	-49.6	-51.3	15.7	6.03e-01	0	24	0	287309824	67	4496
2026-01-09 03:32:47.02	252.10	26.37	-49.6	-51.3	15.7	6.05e-01	0	24	0	289406976	67	4514
2026-01-09 03:32:48.03	251.91	26.20	-49.5	-51.2	15.7	6.02e-01	0	24	0	290979840	67	4463
2026-01-09 03:32:49.03	251.73	26.04	-49.2	-50.8	15.9	6.04e-01	0	24	0	293076992	67	4287
2026-01-09 03:32:50.03	251.54	25.88	-49.2	-50.8	15.9	6.04e-01	0	24	0	295174144	67	4290
2026-01-09 03:32:51.03	251.36	25.71	-49.2	-50.8	15.9	6.03e-01	0	24	0	296747008	67	4281
2026-01-09 03:32:52.03	251.19	25.55	-49.5	-51.2	15.8	6.05e-01	0	24	0	298844160	67	4443
2026-01-09 03:32:53.02	251.01	25.39	-49.6	-51.3	15.7	6.04e-01	0	24	0	300417024	67	4526
2026-01-09 03:32:54.02	250.84	25.23	-49.7	-51.5	15.7	6.04e-01	0	24	0	302514176	67	4599
2026-01-09 03:32:55.02	250.67	25.07	-49.5	-51.2	15.8	6.03e-01	0	24	0	304087040	67	4476
2026-01-09 03:32:56.02	250.50	24.92	-49.6	-51.2	15.8	6.03e-01	0	24	0	306184192	67	4480
2026-01-09 03:32:57.02	250.33	24.76	-49.5	-51.1	15.8	6.04e-01	0	24	0	308281344	67	4439
2026-01-09 03:32:58.02	250.16	24.60	-49.3	-50.9	15.9	6.04e-01	0	24	0	309854208	67	4308
2026-01-09 03:32:59.02	250.00	24.45	-49.4	-51.0	15.8	6.05e-01	0	24	0	311951360	67	4370
2026-01-09 03:33:00.02	249.84	24.29	-49.5	-51.2	15.7	6.04e-01	0	24	0	313524224	67	4485
2026-01-09 03:33:01.01	249.68	24.14	-49.7	-51.4	15.7	6.02e-01	0	24	0	315621376	67	4581
2026-01-09 03:33:02.02	249.52	23.98	-49.7	-51.5	15.6	6.03e-01	0	24	0	317194240	67	4602
2026-01-09 03:33:03.02	249.36	23.83	-49.6	-51.3	15.7	6.04e-01	0	23	0	319291392	67	4516
2026-01-09 03:33:04.02	249.20	23.68	-49.6	-51.3	15.7	6.05e-01	0	23	0	321388544	67	4545
2026-01-09 03:33:05.02	249.05	23.53	-49.6	-51.3	15.7	6.01e-01	0	23	0	322961408	67	4523
2026-01-09 03:33:06.01	248.90	23.38	-49.6	-51.3	15.7	6.05e-01	0	24	0	325058560	67	4505
2026-01-09 03:33:07.01	248.74	23.23	-49.5	-51.2	15.8	6.03e-01	0	24	0	326631424	67	4446
2026-01-09 03:33:08.01	248.59	23.08	-49.6	-51.3	15.7	6.02e-01	0	24	0	328728576	67	4525
2026-01-09 03:33:09.01	248.44	22.93	-49.6	-51.3	15.7	6.03e-01	0	24	0	330301440	67	4545
2026-01-09 03:33:10.01	248.30	22.78	-49.6	-51.3	15.7	6.04e-01	0	24	0	332398592	67	4527
2026-01-09 03:33:11.00	248.15	22.64	-49.6	-51.3	15.7	6.05e-01	0	24	0	334495744	67	4529
2026-01-09 03:33:12.00	248.01	22.49	-49.6	-51.4	15.7	6.05e-01	0	24	0	336068608	67	4549
2026-01-09 03:33:13.00	247.87	22.35	-49.6	-51.3	15.7	6.06e-01	0	24	0	338165760	67	4496
2026-01-09 03:33:13.99	247.73	22.20	-49.5	-51.2	15.8	6.04e-01	0	24	0	339738624	67	4460
2026-01-09 03:33:14.99	247.59	22.06	-49.7	-51.4	15.7	6.01e-01	0	24	0	341835776	67	4563
2026-01-09 03:33:15.99	247.45	21.91	-49.5	-51.2	15.8	6.03e-01	0	24	0	343408640	67	4450
2026-01-09 03:33:16.99	247.31	21.77	-49.3	-51.0	15.8	6.05e-01	0	24	0	345505792	67	4360
2026-01-09 03:33:17.98	247.18	21.63	-49.4	-51.1	15.8	6.04e-01	0	23	0	347078656	67	4397
2026-01-09 03:33:18.98	247.04	21.49	-49.3	-50.9	15.9	6.03e-01	0	24	0	349175808	67	4334
2026-01-09 03:33:19.98	246.91	21.35	-49.3	-51.0	15.8	6.04e-01	0	24	0	351272960	67	4366
2026-01-09 03:33:20.98	246.78	21.21	-49.3	-51.0	15.8	6.04e-01	0	23	0	352845824	67	4368
2026-01-09 03:33:21.97	246.65	21.07	-49.4	-51.1	15.8	6.03e-01	0	24	0	354942976	67	4392
2026-01-09 03:33:22.97	246.52	20.93	-49.4	-51.0	15.8	6.06e-01	0	24	0	356515840	67	4391
2026-01-09 03:33:23.96	246.39	20.80	-49.4	-51.1	15.8	6.06e-01	0	24	0	358612992	67	4414
2026-01-09 03:33:24.96	246.27	20.66	-49.4	-51.1	15.8	6.04e-01	0	24	0	360710144	67	4435
2026-01-09 03:33:25.96	246.14	20.52	-49.4	-51.1	15.8	6.02e-01	0	24	0	362283008	67	4410
2026-01-09 03:33:26.95	246.02	20.39	-49.5	-51.2	15.8	6.03e-01	0	24	0	364380160	67	4492
2026-01-09 03:33:27.95	245.89	20.25	-49.6	-51.3	15.7	6.05e-01	0	24	0	365953024	67	4509
2026-01-09 03:33:28.95	245.77	20.12	-49.7	-51.4	15.7	6.05e-01	0	24	0	368050176	67	4575
2026-01-09 03:33:29.94	245.65	19.98	-49.6	-51.4	15.7	6.06e-01	0	24	0	369623040	67	4559
2026-01-09 03:33:30.94	245.53	19.85	-49.7	-51.4	15.7	6.02e-01	0	24	0	371720192	67	4584
2026-01-09 03:33:31.94	245.41	19.72	-49.7	-51.4	15.7	6.05e-01	0	24	0	373293056	67	4585
2026-01-09 03:33:32.94	245.29	19.59	-49.4	-51.1	15.8	6.03e-01	0	24	0	375390208	67	4438
2026-01-09 03:33:33.95	245.18	19.45	-49.4	-51.1	15.7	6.05e-01	0	24	0	377487360	67	4431
2026-01-09 03:33:34.94	245.06	19.32	-49.2	-50.8	15.9	6.05e-01	0	24	0	379060224	67	4278
2026-01-09 03:33:35.95	244.95	19.19	-49.2	-50.9	15.9	6.05e-01	0	24	0	381157376	67	4295
2026-01-09 03:33:36.95	244.83	19.06	-49.2	-50.9	15.9	6.05e-01	0	24	0	382730240	67	4292
2026-01-09 03:33:37.93	244.72	18.94	-49.3	-50.9	15.9	6.02e-01	0	24	0	384827392	67	4338
2026-01-09 03:33:38.92	244.61	18.81	-49.3	-51.0	15.8	6.02e-01	0	24	0	386400256	67	4356
2026-01-09 03:33:39.92	244.50	18.68	-49.4	-51.1	15.8	6.03e-01	0	24	0	388497408	67	4409
2026-01-09 03:33:40.92	244.39	18.55	-49.5	-51.2	15.7	6.04e-01	0	24	0	390594560	67	4467
2026-01-09 03:33:41.92	244.29	18.43	-49.5	-51.3	15.6	6.05e-01	0	24	0	392167424	67	4502
2026-01-09 03:33:42.91	244.18	18.30	-49.5	-51.2	15.7	6.05e-01	0	24	0	394264576	67	4492
2026-01-09 03:33:43.91	244.07	18.18	-49.5	-51.2	15.7	6.03e-01	0	23	0	395837440	67	4477
2026-01-09 03:33:44.91	243.97	18.05	-49.4	-51.0	15.8	6.04e-01	0	24	0	397934592	67	4391
2026-01-09 03:33:45.92	243.86	17.93	-49.3	-51.0	15.8	6.03e-01	0	24	0	399507456	67	4373
2026-01-09 03:33:46.92	243.76	17.80	-49.4	-51.1	15.8	6.05e-01	0	24	0	401604608	67	4402
2026-01-09 03:33:47.91	243.66	17.68	-49.4	-51.1	15.7	6.04e-01	0	24	0	403701760	67	4411
2026-01-09 03:33:48.90	243.56	17.56	-49.4	-51.1	15.7	6.04e-01	0	24	0	405274624	67	4417
2026-01-09 03:33:49.90	243.45	17.44	-49.4	-51.1	15.8	6.02e-01	0	24	0	407371776	67	4429
2026-01-09 03:33:50.88	243.36	17.32	-49.3	-51.0	15.8	6.04e-01	0	24	0	408944640	67	4364
2026-01-09 03:33:51.88	243.26	17.20	-49.3	-51.0	15.8	6.03e-01	0	24	0	411041792	67	4362
2026-01-09 03:33:52.88	243.16	17.08	-49.4	-51.1	15.7	6.05e-01	0	24	0	412614656	67	4418
2026-01-09 03:33:53.89	243.06	16.96	-49.4	-51.1	15.8	6.06e-01	0	24	0	414711808	67	4398
2026-01-09 03:33:54.87	242.97	16.84	-49.4	-51.1	15.8	6.04e-01	0	24	0	416284672	67	4437
2026-01-09 03:33:55.87	242.87	16.73	-49.4	-51.1	15.8	6.04e-01	0	24	0	418381824	67	4407
2026-01-09 03:33:56.88	242.77	16.61	-49.4	-51.1	15.8	6.03e-01	0	24	0	420478976	67	4411
2026-01-09 03:33:57.87	242.68	16.49	-49.3	-51.0	15.8	6.04e-01	0	24	0	422051840	67	4377
2026-01-09 03:33:58.87	242.59	16.37	-49.3	-51.1	15.8	6.05e-01	0	24	0	424148992	67	4393
2026-01-09 03:33:59.86	242.50	16.26	-49.4	-51.1	15.8	6.05e-01	0	24	0	425721856	67	4436
2026-01-09 03:34:00.87	242.40	16.14	-49.4	-51.1	15.8	6.02e-01	0	24	0	427819008	67	4403
2026-01-09 03:34:01.87	242.31	16.03	-49.3	-51.0	15.8	6.04e-01	0	24	0	429391872	67	4361
2026-01-09 03:34:02.87	242.22	15.91	-49.4	-51.1	15.8	6.02e-01	0	24	0	431489024	67	4403
2026-01-09 03:34:03.87	242.13	15.80	-49.4	-51.1	15.8	6.04e-01	0	24	0	433586176	67	4406
2026-01-09 03:34:04.88	242.04	15.68	-49.3	-51.0	15.8	6.05e-01	0	24	0	435159040	67	4354
2026-01-09 03:34:05.88	241.95	15.57	-49.3	-51.0	15.8	6.06e-01	0	24	0	437256192	67	4380
2026-01-09 03:34:06.87	241.87	15.46	-49.3	-51.0	15.8	6.04e-01	0	24	0	438829056	67	4349
2026-01-09 03:34:07.87	241.78	15.35	-49.4	-51.1	15.8	6.03e-01	0	24	0	440926208	67	4431
2026-01-09 03:34:08.87	241.69	15.24	-49.4	-51.2	15.8	6.04e-01	0	24	0	443023360	67	4442
2026-01-09 03:34:09.87	241.61	15.12	-49.5	-51.2	15.8	6.04e-01	0	24	0	444596224	67	4463
2026-01-09 03:34:10.87	241.53	15.01	-49.4	-51.2	15.8	6.04e-01	0	24	0	446693376	67	4448
2026-01-09 03:34:11.88	241.44	14.90	-49.4	-51.1	15.8	6.05e-01	0	24	0	448266240	67	4397
2026-01-09 03:34:12.88	241.36	14.79	-49.4	-51.2	15.8	6.04e-01	0	24	0	450363392	67	4442
2026-01-09 03:34:13.88	241.28	14.68	-49.4	-51.1	15.8	6.02e-01	0	24	0	451936256	67	4435
2026-01-09 03:34:14.88	241.19	14.58	-49.4	-51.1	15.8	6.03e-01	0	24	0	454033408	67	4433
2026-01-09 03:34:15.88	241.11	14.47	-49.3	-51.0	15.8	6.02e-01	0	24	0	456130560	67	4390
2026-01-09 03:34:16.87	241.03	14.36	-49.3	-51.0	15.8	6.05e-01	0	24	0	457703424	67	4378
2026-01-09 03:34:17.88	240.95	14.25	-49.5	-51.2	15.8	6.05e-01	0	24	0	459800576	67	4477
2026-01-09 03:34:18.87	240.87	14.15	-49.4	-51.1	15.8	6.03e-01	0	24	0	461373440	67	4420
2026-01-09 03:34:19.87	240.79	14.04	-49.4	-51.2	15.7	6.03e-01	0	24	0	463470592	67	4449
2026-01-09 03:34:20.87	240.72	13.93	-49.3	-51.0	15.8	6.05e-01	0	24	0	465043456	67	4378
2026-01-09 03:34:21.87	240.64	13.83	-49.3	-51.0	15.8	6.06e-01	0	24	0	467140608	67	4358
2026-01-09 03:34:22.87	240.56	13.72	-49.4	-51.1	15.8	6.02e-01	0	24	0	469237760	67	4403
2026-01-09 03:34:23.86	240.49	13.62	-49.3	-51.0	15.8	6.04e-01	0	24	0	470810624	67	4391
2026-01-09 03:34:24.85	240.41	13.52	-49.4	-51.1	15.8	6.04e-01	0	24	0	472907776	67	4402
2026-01-09 03:34:25.85	240.34	13.41	-49.4	-51.1	15.8	6.04e-01	0	24	0	474480640	67	4401
2026-01-09 03:34:26.85	240.26	13.31	-49.5	-51.2	15.8	6.04e-01	0	23	0	476577792	67	4457
2026-01-09 03:34:27.84	240.19	13.21	-49.5	-51.2	15.7	6.04e-01	0	24	0	478150656	67	4472
2026-01-09 03:34:28.84	240.12	13.11	-49.5	-51.2	15.7	6.06e-01	0	24	0	480247808	67	4479
2026-01-09 03:34:29.83	240.05	13.01	-49.5	-51.2	15.7	6.05e-01	0	24	0	481820672	67	4491
2026-01-09 03:34:30.83	239.97	12.90	-49.4	-51.2	15.7	6.02e-01	0	24	0	483917824	67	4448
2026-01-09 03:34:31.82	239.90	12.80	-49.4	-51.2	15.8	6.04e-01	0	24	0	486014976	67	4454
2026-01-09 03:34:32.81	239.83	12.71	-49.5	-51.2	15.7	6.03e-01	0	24	0	487587840	67	4483
2026-01-09 03:34:33.82	239.76	12.60	-49.5	-51.2	15.7	6.04e-01	0	24	0	489684992	67	4467
2026-01-09 03:34:34.82	239.69	12.50	-49.5	-51.2	15.7	6.03e-01	0	24	0	491257856	67	4462
2026-01-09 03:34:35.81	239.62	12.41	-49.5	-51.3	15.7	6.04e-01	0	24	0	493355008	67	4528
2026-01-09 03:34:36.81	239.55	12.31	-49.5	-51.2	15.7	6.02e-01	0	24	0	494927872	67	4480
2026-01-09 03:34:37.80	239.49	12.21	-49.6	-51.3	15.7	6.04e-01	0	24	0	497025024	67	4525
2026-01-09 03:34:38.81	239.42	12.11	-49.6	-51.3	15.7	6.05e-01	0	24	0	499122176	67	4524
2026-01-09 03:34:39.81	239.35	12.01	-49.6	-51.4	15.7	6.04e-01	0	24	0	500695040	67	4582
2026-01-09 03:34:40.81	239.28	11.92	-49.6	-51.4	15.7	6.04e-01	0	24	0	502792192	67	4574
2026-01-09 03:34:41.80	239.22	11.82	-49.8	-51.6	15.6	6.03e-01	0	24	0	504365056	67	4652
2026-01-09 03:34:42.81	239.15	11.72	-49.6	-51.4	15.6	6.03e-01	0	24	0	506462208	67	4592
2026-01-09 03:34:43.80	239.09	11.63	-49.7	-51.5	15.7	6.05e-01	0	24	0	508559360	67	4606
2026-01-09 03:34:44.80	239.02	11.53	-49.7	-51.6	15.6	6.04e-01	0	24	0	510132224	67	4655
2026-01-09 03:34:45.80	238.96	11.44	-49.7	-51.5	15.6	6.03e-01	0	24	0	512229376	67	4634
2026-01-09 03:34:46.80	238.89	11.34	-49.6	-51.4	15.7	6.04e-01	0	24	0	513802240	67	4574
2026-01-09 03:34:47.80	238.83	11.25	-49.8	-51.6	15.6	6.06e-01	0	24	0	515899392	67	4666
2026-01-09 03:34:48.80	238.77	11.15	-49.7	-51.5	15.6	6.01e-01	0	24	0	517472256	67	4640
2026-01-09 03:34:49.80	238.70	11.06	-49.7	-51.6	15.6	6.04e-01	0	24	0	519569408	67	4653
2026-01-09 03:34:50.80	238.64	10.96	-49.7	-51.5	15.6	6.06e-01	0	24	0	521666560	67	4641
2026-01-09 03:34:51.81	238.58	10.87	-49.7	-51.6	15.6	6.04e-01	0	24	0	523239424	67	4656
2026-01-09 03:34:52.81	238.52	10.78	-49.7	-51.6	15.6	6.04e-01	0	24	0	525336576	67	4659
2026-01-09 03:34:53.80	238.46	10.69	-49.7	-51.6	15.6	6.03e-01	0	24	0	526909440	67	4670
2026-01-09 03:34:54.79	238.40	10.59	-49.8	-51.6	15.6	6.04e-01	0	24	0	529006592	67	4690
2026-01-09 03:34:55.79	238.34	10.50	-49.8	-51.7	15.6	6.03e-01	0	24	0	530579456	67	4720
2026-01-09 03:34:56.79	238.28	10.41	-49.8	-51.7	15.6	6.03e-01	0	24	0	532676608	67	4727
2026-01-09 03:34:57.79	238.22	10.32	-49.9	-51.8	15.6	6.06e-01	0	23	0	534249472	67	4780
2026-01-09 03:34:58.79	238.16	10.23	-49.8	-51.7	15.5	6.04e-01	0	24	0	536346624	67	4723
2026-01-09 03:34:59.79	238.10	10.14	-49.9	-51.8	15.5	6.03e-01	0	24	0	538443776	67	4779
2026-01-09 03:35:00.79	238.04	10.05	-49.9	-51.7	15.5	6.06e-01	0	24	0	540016640	67	4745
2026-01-09 03:35:01.79	237.99	9.96	-49.9	-51.8	15.5	6.04e-01	0	24	0	542113792	67	4774
2026-01-09 03:35:02.79	237.93	9.87	-49.8	-51.6	15.6	6.04e-01	0	24	0	543686656	67	4705
2026-01-09 03:35:03.79	237.87	9.78	-49.8	-51.6	15.6	6.01e-01	0	24	0	545783808	67	4684
2026-01-09 03:35:04.79	237.82	9.69	-49.8	-51.6	15.6	6.02e-01	0	24	0	547356672	67	4701
2026-01-09 03:35:05.79	237.76	9.60	-49.8	-51.7	15.6	5.98e-01	0	24	0	549453824	67	4717
2026-01-09 03:35:06.79	237.71	9.51	-49.8	-51.7	15.6	6.05e-01	0	24	0	551550976	67	4724
2026-01-09 03:35:07.79	237.65	9.43	-49.9	-51.8	15.5	6.05e-01	0	24	0	553123840	67	4772
2026-01-09 03:35:08.78	237.60	9.34	-49.9	-51.8	15.5	6.03e-01	0	24	0	555220992	67	4780
2026-01-09 03:35:09.78	237.54	9.25	-49.9	-51.7	15.5	6.05e-01	0	24	0	556793856	67	4759
2026-01-09 03:35:10.78	237.49	9.17	-49.8	-51.6	15.6	6.03e-01	0	24	0	558891008	67	4681
2026-01-09 03:35:11.77	237.43	9.08	-49.9	-51.7	15.5	6.04e-01	0	24	0	560463872	67	4751
2026-01-09 03:35:12.77	237.38	8.99	-49.9	-51.8	15.5	6.04e-01	0	24	0	562561024	67	4782
2026-01-09 03:35:13.77	237.33	8.91	-49.9	-51.8	15.5	6.06e-01	0	24	0	564658176	67	4809
2026-01-09 03:35:14.77	237.28	8.82	-50.0	-51.9	15.5	6.05e-01	0	24	0	566231040	67	4853
2026-01-09 03:35:15.77	237.22	8.74	-50.0	-51.9	15.5	6.04e-01	0	24	0	568328192	67	4838
2026-01-09 03:35:16.77	237.17	8.65	-49.9	-51.8	15.5	6.04e-01	0	24	0	569901056	67	4812
2026-01-09 03:35:17.76	237.12	8.57	-50.0	-51.9	15.5	6.04e-01	0	24	0	571998208	67	4816
2026-01-09 03:35:18.75	237.07	8.49	-50.0	-51.9	15.5	6.05e-01	0	24	0	573571072	67	4848
2026-01-09 03:35:19.75	237.02	8.40	-50.1	-52.0	15.5	6.03e-01	0	24	0	575668224	67	4907
2026-01-09 03:35:20.74	236.97	8.32	-50.3	-52.2	15.5	6.03e-01	0	24	0	577241088	68	4747
2026-01-09 03:35:21.74	236.92	8.23	-50.3	-52.2	15.5	6.04e-01	0	24	0	579338240	68	4738
2026-01-09 03:35:22.73	236.87	8.15	-50.3	-52.2	15.5	6.06e-01	0	24	0	581435392	68	4741
2026-01-09 03:35:23.74	236.82	8.07	-50.2	-52.1	15.6	6.04e-01	0	24	0	583008256	68	4697
2026-01-09 03:35:24.74	236.77	7.99	-50.3	-52.2	15.5	6.05e-01	0	24	0	585105408	68	4758
2026-01-09 03:35:25.73	236.72	7.90	-50.2	-52.2	15.5	6.04e-01	0	24	0	586678272	68	4720
2026-01-09 03:35:26.72	236.67	7.82	-50.3	-52.2	15.5	6.02e-01	0	24	0	588775424	68	4740
2026-01-09 03:35:27.72	236.63	7.74	-50.2	-52.1	15.5	6.03e-01	0	24	0	590872576	68	4696
2026-01-09 03:35:28.72	236.58	7.66	-50.2	-52.2	15.5	6.04e-01	0	24	0	592445440	68	4711
2026-01-09 03:35:29.73	236.53	7.58	-50.2	-52.2	15.5	6.02e-01	0	24	0	594542592	68	4732
2026-01-09 03:35:30.73	236.48	7.50	-50.2	-52.2	15.5	6.03e-01	0	24	0	596115456	68	4739
2026-01-09 03:35:31.72	236.44	7.42	-50.3	-52.2	15.5	6.02e-01	0	24	0	598212608	68	4750
2026-01-09 03:35:32.71	236.39	7.34	-50.3	-52.2	15.5	6.04e-01	0	24	0	599785472	68	4749
2026-01-09 03:35:33.71	236.34	7.26	-50.5	-52.5	15.4	6.03e-01	0	24	0	601882624	68	4914
2026-01-09 03:35:34.71	236.30	7.18	-50.2	-52.2	15.5	6.04e-01	0	24	0	603979776	68	4732
2026-01-09 03:35:35.71	236.25	7.10	-50.3	-52.3	15.5	6.05e-01	0	24	0	605552640	68	4810
2026-01-09 03:35:36.71	236.21	7.02	-50.4	-52.4	15.4	6.04e-01	0	24	0	607649792	68	4862
2026-01-09 03:35:37.71	236.16	6.94	-50.4	-52.5	15.4	6.04e-01	0	23	0	609222656	68	4881
2026-01-09 03:35:38.71	236.11	6.86	-50.5	-52.5	15.4	6.02e-01	0	24	0	611319808	68	4909
2026-01-09 03:35:39.70	236.07	6.78	-50.3	-52.4	15.4	6.01e-01	0	24	0	612892672	68	4815
2026-01-09 03:35:40.71	236.03	6.70	-50.5	-52.6	15.4	6.05e-01	0	24	0	614989824	68	4934
2026-01-09 03:35:41.71	235.98	6.62	-50.4	-52.5	15.4	6.04e-01	0	24	0	617086976	68	4890
2026-01-09 03:35:42.71	235.94	6.55	-50.5	-52.5	15.5	6.03e-01	0	24	0	618659840	69	4638
2026-01-09 03:35:43.71	235.89	6.47	-50.4	-52.5	15.6	6.02e-01	0	24	0	620756992	69	4614
2026-01-09 03:35:44.72	235.85	6.39	-50.6	-52.7	15.5	6.04e-01	0	24	0	622329856	69	4728
2026-01-09 03:35:45.72	235.81	6.31	-50.7	-52.8	15.5	6.04e-01	0	24	0	624427008	69	4762
2026-01-09 03:35:46.72	235.76	6.24	-50.7	-52.8	15.4	6.03e-01	0	24	0	625999872	69	4800
2026-01-09 03:35:47.71	235.72	6.16	-50.6	-52.7	15.5	6.02e-01	0	24	0	628097024	69	4757
2026-01-09 03:35:48.71	235.68	6.08	-50.7	-52.8	15.5	6.04e-01	0	24	0	630194176	69	4765
2026-01-09 03:35:49.71	235.64	6.01	-50.6	-52.7	15.5	6.02e-01	0	24	0	631767040	69	4751
2026-01-09 03:35:50.71	235.60	5.93	-50.8	-53.0	15.4	6.03e-01	0	24	0	633864192	69	4893
2026-01-09 03:35:51.72	235.55	5.85	-50.7	-52.8	15.4	6.04e-01	0	23	0	635437056	69	4800
2026-01-09 03:35:52.72	235.51	5.78	-50.6	-52.7	15.5	6.03e-01	0	24	0	637534208	69	4741
2026-01-09 03:35:53.72	235.47	5.70	-50.8	-52.9	15.4	6.02e-01	0	24	0	639107072	69	4857
2026-01-09 03:35:54.72	235.43	5.63	-50.8	-53.0	15.3	6.03e-01	0	24	0	641204224	69	4887
2026-01-09 03:35:55.71	235.39	5.55	-50.8	-53.1	15.3	6.04e-01	0	24	0	643301376	69	4930
2026-01-09 03:35:56.71	235.35	5.48	-50.9	-53.1	15.3	6.04e-01	0	24	0	644874240	69	4981
2026-01-09 03:35:57.71	235.31	5.40	-50.9	-53.0	15.3	6.02e-01	0	24	0	646971392	69	4924
2026-01-09 03:35:58.70	235.27	5.33	-50.9	-53.1	15.3	6.03e-01	0	24	0	648544256	69	4977
2026-01-09 03:35:59.69	235.23	5.26	-51.0	-53.2	15.2	6.03e-01	0	23	0	650641408	69	5027
2026-01-09 03:36:00.70	235.19	5.18	-51.0	-53.2	15.3	6.05e-01	0	24	0	652214272	69	5027
2026-01-09 03:36:01.69	235.15	5.11	-51.1	-53.4	15.2	6.04e-01	0	24	0	654311424	69	5149
2026-01-09 03:36:02.69	235.12	5.04	-51.0	-53.3	15.4	6.05e-01	0	24	0	655884288	70	4773
2026-01-09 03:36:03.69	235.08	4.96	-56.9	-67.7	8.6	6.45e-01	40	24	0	657981440	81	13293
2026-01-09 03:36:04.69	235.04	4.89	-57.8	-77.1	3.8	7.44e-01	0	24	104	658505728	83	34998
2026-01-09 03:36:05.68	235.00	4.82	-58.1	-77.4	3.8	7.47e-01	0	24	104	658505728	83	36216
2026-01-09 03:36:06.68	234.96	4.75	-58.5	-77.8	3.8	7.47e-01	0	24	104	658505728	84	36076
2026-01-09 03:36:07.68	234.93	4.67	-58.6	-77.9	3.8	7.45e-01	0	24	104	658505728	84	36352
2026-01-09 03:36:08.68	234.89	4.60	-58.7	-78.1	3.8	7.45e-01	0	24	104	658505728	85	34919
2026-01-09 03:36:09.67	234.85	4.53	-58.8	-78.2	3.8	7.48e-01	0	24	104	658505728	85	35304
2026-01-09 03:36:10.68	234.81	4.46	-58.9	-78.2	3.8	7.48e-01	0	24	104	658505728	85	35518
