passes_logs/2026/01/09/R3.2S_Murmansk/R3.2S_Murmansk__20260109_195730_TY-39_rec.log

#Pass ID: 20260109_195730_TY-39
#Satellite: TY-39
#Configuration: TY-39
#almurnet v.1.7.20251203
#Start time: 2026-01-09 19:57:30

#Version: 2.2.20231116
#Station: R3.2S_Murmansk
#Location: 33.079688 lon 68.888172 lat
#TLE: 1 51832U 22019J   26009.29565763  .00001022  00000-0  51098-4 0  9995
#TLE: 2 51832  97.3651  76.1242 0010332  69.7194 290.5151 15.19609297213669

#Time	Az	El	Level	Level2	SNR	BER	BlckErr	Temp	State	Recorded	gain1	gain2
2026-01-09 19:57:30.93	206.73	2.01	-57.1	-60.2	3.7	0.00e+00	0	25	0	0	81	20073
2026-01-09 19:57:31.93	206.82	2.07	-57.1	-60.2	3.7	0.00e+00	0	25	104	0	81	20147
2026-01-09 19:57:32.93	206.91	2.13	-57.1	-60.3	3.6	0.00e+00	0	25	104	0	81	20299
2026-01-09 19:57:33.92	207.00	2.19	-57.1	-60.3	3.7	0.00e+00	0	26	104	0	81	20262
2026-01-09 19:57:34.92	207.09	2.25	-57.1	-60.4	3.6	0.00e+00	0	26	104	0	81	20449
2026-01-09 19:57:35.91	207.18	2.32	-57.1	-60.2	3.7	0.00e+00	0	26	104	0	81	20148
2026-01-09 19:57:36.91	207.27	2.38	-57.1	-60.4	3.6	0.00e+00	0	26	104	0	81	20543
2026-01-09 19:57:37.91	207.36	2.44	-57.1	-60.3	3.7	0.00e+00	0	26	104	0	81	20217
2026-01-09 19:57:38.91	207.45	2.50	-57.1	-60.2	3.7	0.00e+00	0	26	104	0	81	20151
2026-01-09 19:57:39.90	207.54	2.57	-57.1	-60.3	3.7	0.00e+00	0	26	104	0	81	20296
2026-01-09 19:57:40.90	207.63	2.63	-57.1	-60.2	3.7	0.00e+00	0	26	104	0	81	20160
2026-01-09 19:57:41.90	207.72	2.69	-57.1	-60.3	3.7	0.00e+00	0	26	104	0	81	20181
2026-01-09 19:57:42.89	207.82	2.76	-57.1	-60.3	3.7	0.00e+00	0	26	104	0	81	20178
2026-01-09 19:57:43.89	207.91	2.82	-57.1	-60.3	3.6	0.00e+00	0	26	104	0	81	20306
2026-01-09 19:57:44.89	208.00	2.88	-57.1	-60.3	3.7	0.00e+00	0	26	104	0	81	20183
2026-01-09 19:57:45.89	208.10	2.95	-57.1	-60.3	3.7	0.00e+00	0	26	104	0	81	20210
2026-01-09 19:57:46.89	208.19	3.01	-57.1	-60.3	3.6	0.00e+00	0	26	104	0	81	20350
2026-01-09 19:57:47.88	208.29	3.07	-57.1	-60.4	3.6	0.00e+00	0	26	104	0	81	20478
2026-01-09 19:57:48.89	208.39	3.14	-57.2	-60.3	3.7	0.00e+00	0	26	104	0	81	20246
2026-01-09 19:57:49.88	208.48	3.20	-57.1	-60.4	3.6	0.00e+00	0	26	104	0	81	20552
2026-01-09 19:57:50.88	208.58	3.27	-57.1	-60.3	3.7	0.00e+00	0	27	104	0	81	20335
2026-01-09 19:57:51.88	208.68	3.33	-57.2	-60.4	3.7	0.00e+00	0	26	104	0	81	20518
2026-01-09 19:57:52.88	208.78	3.40	-57.1	-60.3	3.7	0.00e+00	0	26	104	0	81	20262
2026-01-09 19:57:53.87	208.87	3.46	-57.2	-60.4	3.6	0.00e+00	0	26	104	0	81	20536
2026-01-09 19:57:54.87	208.97	3.53	-57.2	-60.3	3.7	0.00e+00	0	27	104	0	81	20293
2026-01-09 19:57:55.87	209.07	3.59	-57.2	-60.4	3.6	0.00e+00	0	27	104	0	81	20546
2026-01-09 19:57:56.87	209.17	3.66	-57.2	-60.3	3.7	0.00e+00	0	27	104	0	81	20334
2026-01-09 19:57:57.87	209.27	3.72	-57.2	-60.4	3.6	0.00e+00	0	27	104	0	81	20567
2026-01-09 19:57:58.87	209.38	3.79	-57.2	-60.3	3.7	0.00e+00	0	27	104	0	81	20301
2026-01-09 19:57:59.86	209.48	3.85	-57.2	-60.4	3.6	0.00e+00	0	27	104	0	81	20458
2026-01-09 19:58:00.86	209.58	3.92	-57.2	-60.3	3.7	0.00e+00	0	27	104	0	81	20396
2026-01-09 19:58:01.86	209.68	3.99	-57.2	-60.4	3.6	0.00e+00	0	27	104	0	81	20406
2026-01-09 19:58:02.85	209.79	4.05	-57.2	-60.3	3.7	0.00e+00	0	27	104	0	81	20353
2026-01-09 19:58:03.84	209.89	4.12	-57.2	-60.3	3.7	0.00e+00	0	27	104	0	81	20298
2026-01-09 19:58:04.85	210.00	4.18	-57.2	-60.3	3.7	0.00e+00	0	27	104	0	81	20306
2026-01-09 19:58:05.85	210.10	4.25	-57.2	-60.3	3.7	0.00e+00	0	27	104	0	81	20388
2026-01-09 19:58:06.85	210.21	4.32	-57.2	-60.3	3.7	0.00e+00	0	27	104	0	81	20376
2026-01-09 19:58:07.85	210.31	4.38	-57.2	-60.4	3.7	0.00e+00	0	27	104	0	81	20487
2026-01-09 19:58:08.84	210.42	4.45	-57.2	-60.3	3.7	0.00e+00	0	27	104	0	81	20301
2026-01-09 19:58:09.84	210.53	4.52	-57.2	-60.4	3.6	0.00e+00	0	27	104	0	81	20505
2026-01-09 19:58:10.84	210.64	4.59	-57.2	-60.3	3.7	0.00e+00	0	27	104	0	81	20369
2026-01-09 19:58:11.84	210.75	4.65	-57.2	-60.3	3.7	0.00e+00	0	27	104	0	81	20332
2026-01-09 19:58:12.84	210.86	4.72	-57.2	-60.4	3.7	0.00e+00	0	27	104	0	81	20622
2026-01-09 19:58:13.84	210.97	4.79	-57.2	-60.4	3.7	0.00e+00	0	27	104	0	81	20405
2026-01-09 19:58:14.83	211.08	4.86	-57.2	-60.4	3.6	0.00e+00	0	27	104	0	81	20582
2026-01-09 19:58:15.83	211.19	4.93	-57.2	-60.3	3.7	0.00e+00	0	27	104	0	81	20323
2026-01-09 19:58:16.83	211.30	4.99	-57.2	-60.4	3.7	0.00e+00	0	27	104	0	81	20405
2026-01-09 19:58:17.83	211.41	5.06	-57.3	-60.4	3.7	0.00e+00	0	27	104	0	81	20587
2026-01-09 19:58:18.82	211.52	5.13	-57.2	-60.3	3.7	0.00e+00	0	27	104	0	81	20346
2026-01-09 19:58:19.80	211.64	5.20	-57.3	-60.5	3.7	0.00e+00	0	27	104	0	81	20763
2026-01-09 19:58:20.80	211.75	5.27	-57.3	-60.4	3.7	0.00e+00	0	27	104	0	81	20530
2026-01-09 19:58:21.79	211.87	5.34	-57.2	-60.5	3.6	0.00e+00	0	27	104	0	81	20685
2026-01-09 19:58:22.78	211.98	5.40	-57.2	-60.3	3.7	0.00e+00	0	28	104	0	81	20362
2026-01-09 19:58:23.79	212.10	5.48	-57.3	-60.6	3.6	0.00e+00	0	27	104	0	81	21069
2026-01-09 19:58:24.78	212.22	5.54	-57.3	-60.5	3.7	0.00e+00	0	27	104	0	81	20678
2026-01-09 19:58:25.77	212.33	5.61	-57.3	-60.5	3.6	0.00e+00	0	28	104	0	81	20747
2026-01-09 19:58:26.77	212.45	5.68	-57.2	-60.4	3.7	0.00e+00	0	27	104	0	81	20447
2026-01-09 19:58:27.76	212.57	5.75	-57.3	-60.6	3.6	0.00e+00	0	28	104	0	81	21047
2026-01-09 19:58:28.75	212.69	5.82	-57.3	-60.5	3.7	0.00e+00	0	28	104	0	81	20794
2026-01-09 19:58:29.74	212.81	5.89	-57.3	-60.5	3.6	0.00e+00	0	28	104	0	81	20771
2026-01-09 19:58:30.73	212.93	5.96	-57.2	-60.4	3.7	0.00e+00	0	28	104	0	81	20527
2026-01-09 19:58:31.73	213.05	6.03	-57.4	-60.6	3.6	0.00e+00	0	28	104	0	81	20911
2026-01-09 19:58:32.73	213.18	6.10	-57.4	-60.5	3.7	0.00e+00	0	28	104	0	81	20863
2026-01-09 19:58:33.73	213.30	6.18	-57.3	-60.5	3.7	0.00e+00	0	28	104	0	81	20750
2026-01-09 19:58:34.73	213.42	6.25	-57.3	-60.4	3.7	0.00e+00	0	28	104	0	81	20543
2026-01-09 19:58:35.72	213.55	6.32	-57.4	-60.7	3.6	0.00e+00	0	28	104	0	81	21204
2026-01-09 19:58:36.71	213.67	6.39	-57.4	-60.6	3.7	0.00e+00	0	28	104	0	81	20949
2026-01-09 19:58:37.70	213.80	6.46	-57.4	-60.6	3.6	0.00e+00	0	28	104	0	81	21045
2026-01-09 19:58:38.70	213.93	6.53	-53.0	-54.1	5.1	0.00e+00	3484	29	104	0	71	17591
2026-01-09 19:58:39.71	214.06	6.61	-44.9	-45.3	11.0	4.12e-02	0	28	0	8388608	57	14322
2026-01-09 19:58:40.70	214.18	6.68	-48.9	-49.5	8.5	5.20e-04	0	28	0	83886080	63	16398
2026-01-09 19:58:41.70	214.31	6.75	-43.7	-44.0	11.5	1.61e-02	0	28	0	159383552	54	14757
2026-01-09 19:58:42.69	214.44	6.82	-43.8	-44.1	11.4	6.90e-06	0	28	0	234881024	54	14884
2026-01-09 19:58:43.69	214.57	6.89	-43.7	-44.1	11.4	1.38e-05	0	29	0	310378496	54	14782
2026-01-09 19:58:44.68	214.71	6.97	-43.7	-44.0	11.5	0.00e+00	0	28	0	377487360	54	14686
2026-01-09 19:58:45.66	214.84	7.04	-43.6	-43.9	11.6	0.00e+00	0	28	0	452984832	54	14584
2026-01-09 19:58:46.65	214.97	7.11	-43.7	-44.1	11.5	0.00e+00	0	29	0	528482304	54	14787
2026-01-09 19:58:47.65	215.10	7.19	-43.6	-43.9	11.6	6.90e-06	0	29	0	603979776	54	14524
2026-01-09 19:58:48.64	215.24	7.26	-43.7	-44.0	11.5	6.90e-06	0	29	0	679477248	54	14722
2026-01-09 19:58:49.63	215.37	7.33	-43.6	-43.9	11.6	1.38e-05	0	29	0	754974720	54	14562
2026-01-09 19:58:50.63	215.51	7.41	-43.6	-43.9	11.6	6.90e-06	0	29	0	830472192	54	14559
2026-01-09 19:58:51.62	215.65	7.48	-43.5	-43.9	11.6	0.00e+00	0	29	0	905969664	54	14470
2026-01-09 19:58:52.62	215.79	7.55	-43.5	-43.9	11.6	0.00e+00	0	29	0	981467136	54	14475
2026-01-09 19:58:53.62	215.93	7.63	-43.5	-43.9	11.6	0.00e+00	0	29	0	1048576000	54	14467
2026-01-09 19:58:54.62	216.07	7.70	-43.6	-43.9	11.6	0.00e+00	0	29	0	1124073472	54	14494
2026-01-09 19:58:55.61	216.21	7.78	-43.5	-43.8	11.7	0.00e+00	0	29	0	1199570944	54	14291
2026-01-09 19:58:56.61	216.35	7.85	-43.4	-43.7	11.8	0.00e+00	0	29	0	1275068416	54	14224
2026-01-09 19:58:57.60	216.49	7.93	-43.3	-43.6	11.7	0.00e+00	0	29	0	1350565888	53	14877
2026-01-09 19:58:58.60	216.63	8.00	-43.3	-43.7	11.6	0.00e+00	0	29	0	1426063360	53	15001
2026-01-09 19:58:59.59	216.78	8.08	-43.3	-43.6	11.7	0.00e+00	0	29	0	1501560832	53	14846
2026-01-09 19:59:00.58	216.92	8.15	-43.2	-43.5	11.7	6.90e-06	0	29	0	1577058304	53	14732
2026-01-09 19:59:01.55	217.06	8.23	-43.3	-43.6	11.7	0.00e+00	0	29	0	1652555776	53	14886
2026-01-09 19:59:02.56	217.21	8.30	-43.3	-43.7	11.6	0.00e+00	0	29	0	1719664640	53	14983
2026-01-09 19:59:03.55	217.36	8.38	-43.2	-43.5	11.8	0.00e+00	0	29	0	1795162112	53	14679
2026-01-09 19:59:04.54	217.51	8.45	-43.2	-43.5	11.7	0.00e+00	0	29	0	1870659584	53	14738
2026-01-09 19:59:05.53	217.66	8.53	-43.2	-43.5	11.8	0.00e+00	0	29	0	1946157056	53	14664
2026-01-09 19:59:06.53	217.81	8.61	-43.2	-43.5	11.8	0.00e+00	0	29	0	2021654528	53	14639
2026-01-09 19:59:07.52	217.96	8.68	-43.1	-43.4	11.8	0.00e+00	0	29	0	2097152000	53	14586
2026-01-09 19:59:08.51	218.11	8.76	-43.1	-43.4	11.8	0.00e+00	0	29	0	2172649472	53	14548
2026-01-09 19:59:09.51	218.27	8.84	-43.2	-43.5	11.8	0.00e+00	0	29	0	2248146944	53	14658
2026-01-09 19:59:10.50	218.42	8.91	-43.1	-43.4	11.8	0.00e+00	0	29	0	2323644416	53	14493
2026-01-09 19:59:11.49	218.58	8.99	-43.1	-43.4	11.8	0.00e+00	0	29	0	2399141888	53	14469
2026-01-09 19:59:12.49	218.73	9.07	-43.0	-43.3	11.9	0.00e+00	0	29	0	2466250752	53	14430
2026-01-09 19:59:13.50	218.89	9.15	-43.0	-43.3	11.9	0.00e+00	0	29	0	2541748224	53	14430
2026-01-09 19:59:14.49	219.05	9.22	-43.0	-43.3	11.9	0.00e+00	0	30	0	2617245696	53	14295
2026-01-09 19:59:15.49	219.21	9.30	-43.0	-43.3	11.9	6.90e-06	0	29	0	2692743168	53	14383
2026-01-09 19:59:16.49	219.37	9.38	-43.0	-43.4	11.9	1.38e-05	0	29	0	2768240640	53	14447
2026-01-09 19:59:17.48	219.53	9.46	-42.8	-43.2	11.9	0.00e+00	0	29	0	2843738112	52	14954
2026-01-09 19:59:18.47	219.70	9.54	-42.8	-43.1	11.9	0.00e+00	0	29	0	2919235584	52	14824
2026-01-09 19:59:19.47	219.86	9.62	-42.9	-43.2	11.8	0.00e+00	0	29	0	2994733056	52	14988
2026-01-09 19:59:20.47	220.03	9.69	-42.8	-43.1	11.9	6.90e-06	0	30	0	3070230528	52	14876
2026-01-09 19:59:21.47	220.19	9.77	-42.7	-43.0	11.9	0.00e+00	0	29	0	3137339392	52	14740
2026-01-09 19:59:22.47	220.36	9.85	-42.8	-43.1	11.9	0.00e+00	0	30	0	3212836864	52	14801
2026-01-09 19:59:23.46	220.53	9.93	-42.7	-43.0	11.9	0.00e+00	0	30	0	3288334336	52	14746
2026-01-09 19:59:24.46	220.70	10.01	-42.7	-43.0	12.0	0.00e+00	0	29	0	3363831808	52	14716
2026-01-09 19:59:25.45	220.87	10.09	-42.7	-43.0	11.9	0.00e+00	0	30	0	3439329280	52	14712
2026-01-09 19:59:26.44	221.04	10.17	-42.7	-43.0	12.0	0.00e+00	0	30	0	3514826752	52	14679
2026-01-09 19:59:27.42	221.21	10.25	-42.6	-42.9	12.0	0.00e+00	0	30	0	3590324224	52	14464
2026-01-09 19:59:28.42	221.38	10.33	-42.6	-42.9	12.0	0.00e+00	0	30	0	3665821696	52	14450
2026-01-09 19:59:29.41	221.56	10.41	-42.5	-42.8	12.0	0.00e+00	0	30	0	3741319168	52	14433
2026-01-09 19:59:30.40	221.73	10.49	-42.5	-42.9	12.0	0.00e+00	0	30	0	3816816640	52	14442
2026-01-09 19:59:31.39	221.91	10.57	-42.5	-42.8	12.1	0.00e+00	0	30	0	3883925504	52	14354
2026-01-09 19:59:32.38	222.09	10.65	-42.5	-42.8	12.1	0.00e+00	0	30	0	3959422976	52	14358
2026-01-09 19:59:33.38	222.27	10.73	-42.4	-42.7	12.1	0.00e+00	0	29	0	4034920448	52	14227
2026-01-09 19:59:34.38	222.45	10.81	-42.4	-42.7	12.1	0.00e+00	0	30	0	4110417920	52	14244
2026-01-09 19:59:35.37	222.63	10.89	-42.4	-42.7	12.1	0.00e+00	0	29	0	4185915392	52	14176
2026-01-09 19:59:36.37	222.81	10.97	-42.4	-42.7	12.0	0.00e+00	0	30	0	4261412864	51	15108
2026-01-09 19:59:37.36	222.99	11.05	-42.3	-42.7	12.0	0.00e+00	0	30	0	4336910336	51	14972
2026-01-09 19:59:38.36	223.18	11.13	-42.4	-42.7	12.0	0.00e+00	0	30	0	4412407808	51	15085
2026-01-09 19:59:39.36	223.37	11.22	-42.3	-42.6	12.1	0.00e+00	0	30	0	4487905280	51	14786
2026-01-09 19:59:40.35	223.56	11.30	-42.4	-42.7	12.0	0.00e+00	0	30	0	4555014144	51	15053
2026-01-09 19:59:41.35	223.75	11.38	-42.3	-42.6	12.1	0.00e+00	0	30	0	4630511616	51	14795
2026-01-09 19:59:42.36	223.94	11.46	-42.3	-42.6	12.1	0.00e+00	0	30	0	4706009088	51	14873
2026-01-09 19:59:43.35	224.13	11.54	-42.3	-42.6	12.0	0.00e+00	0	30	0	4781506560	51	14917
2026-01-09 19:59:44.35	224.32	11.63	-42.3	-42.6	12.0	0.00e+00	0	30	0	4857004032	51	14875
2026-01-09 19:59:45.34	224.52	11.71	-42.2	-42.4	12.1	0.00e+00	0	30	0	4932501504	51	14601
2026-01-09 19:59:46.34	224.71	11.79	-42.1	-42.4	12.2	0.00e+00	0	30	0	5007998976	51	14489
2026-01-09 19:59:47.35	224.91	11.87	-42.1	-42.4	12.2	0.00e+00	0	30	0	5083496448	51	14598
2026-01-09 19:59:48.35	225.11	11.96	-42.1	-42.5	12.2	0.00e+00	0	30	0	5158993920	51	14612
2026-01-09 19:59:49.35	225.31	12.04	-42.0	-42.3	12.2	0.00e+00	0	30	0	5234491392	51	14380
2026-01-09 19:59:50.35	225.51	12.12	-42.1	-42.4	12.2	6.90e-06	0	30	0	5309988864	51	14575
2026-01-09 19:59:51.34	225.71	12.20	-42.0	-42.3	12.2	0.00e+00	0	30	0	5377097728	51	14394
2026-01-09 19:59:52.33	225.92	12.29	-42.0	-42.3	12.3	0.00e+00	0	30	0	5452595200	51	14279
2026-01-09 19:59:53.33	226.12	12.37	-42.1	-42.4	12.2	0.00e+00	0	30	0	5528092672	51	14447
2026-01-09 19:59:54.33	226.33	12.45	-42.0	-42.3	12.2	0.00e+00	0	30	0	5603590144	51	14375
2026-01-09 19:59:55.32	226.54	12.54	-41.9	-42.2	12.3	0.00e+00	0	30	0	5679087616	51	14266
2026-01-09 19:59:56.32	226.74	12.62	-41.8	-42.1	12.2	0.00e+00	0	30	0	5754585088	50	14882
2026-01-09 19:59:57.31	226.95	12.70	-41.9	-42.2	12.2	0.00e+00	0	30	0	5830082560	50	14966
2026-01-09 19:59:58.31	227.17	12.79	-41.9	-42.2	12.2	0.00e+00	0	30	0	5905580032	50	14967
2026-01-09 19:59:59.30	227.38	12.87	-41.9	-42.1	12.2	0.00e+00	0	30	0	5981077504	50	14936
2026-01-09 20:00:00.29	227.59	12.95	-41.8	-42.1	12.2	0.00e+00	0	30	0	6048186368	50	14881
2026-01-09 20:00:01.29	227.81	13.04	-41.9	-42.2	12.2	0.00e+00	0	30	0	6123683840	50	14952
2026-01-09 20:00:02.28	228.02	13.12	-41.6	-41.9	12.3	0.00e+00	0	30	0	6199181312	50	14565
2026-01-09 20:00:03.28	228.24	13.20	-41.8	-42.0	12.3	0.00e+00	0	30	0	6274678784	50	14740
2026-01-09 20:00:04.27	228.46	13.29	-41.7	-42.0	12.3	0.00e+00	0	30	0	6350176256	50	14638
2026-01-09 20:00:05.27	228.69	13.37	-41.6	-41.9	12.3	0.00e+00	0	30	0	6425673728	50	14500
2026-01-09 20:00:06.27	228.91	13.45	-41.7	-42.0	12.3	0.00e+00	0	30	0	6501171200	50	14637
2026-01-09 20:00:07.26	229.13	13.54	-41.7	-42.0	12.3	0.00e+00	0	30	0	6576668672	50	14733
2026-01-09 20:00:08.27	229.36	13.62	-41.6	-41.9	12.3	0.00e+00	0	30	0	6652166144	50	14455
2026-01-09 20:00:09.27	229.59	13.71	-41.5	-41.8	12.4	0.00e+00	0	30	0	6727663616	50	14389
2026-01-09 20:00:10.26	229.82	13.79	-41.6	-41.9	12.3	0.00e+00	0	30	0	6803161088	50	14530
2026-01-09 20:00:11.25	230.05	13.87	-41.6	-41.9	12.4	0.00e+00	0	30	0	6878658560	50	14446
2026-01-09 20:00:12.25	230.28	13.96	-41.5	-41.7	12.4	0.00e+00	0	30	0	6954156032	50	14245
2026-01-09 20:00:13.25	230.52	14.04	-41.4	-41.7	12.4	0.00e+00	0	30	0	7029653504	50	14243
2026-01-09 20:00:14.25	230.75	14.13	-41.5	-41.8	12.4	0.00e+00	0	30	0	7105150976	50	14326
2026-01-09 20:00:15.24	230.99	14.21	-41.4	-41.7	12.4	0.00e+00	0	30	0	7172259840	50	14207
2026-01-09 20:00:16.23	231.23	14.29	-41.4	-41.7	12.5	0.00e+00	0	30	0	7247757312	50	14213
2026-01-09 20:00:17.23	231.47	14.38	-41.5	-41.8	12.4	0.00e+00	0	31	0	7323254784	50	14286
2026-01-09 20:00:18.22	231.71	14.46	-41.3	-41.6	12.3	0.00e+00	0	30	0	7398752256	49	14818
2026-01-09 20:00:19.22	231.95	14.54	-41.3	-41.6	12.3	0.00e+00	0	30	0	7474249728	49	14841
2026-01-09 20:00:20.21	232.19	14.63	-41.3	-41.6	12.3	0.00e+00	0	30	0	7549747200	49	14804
2026-01-09 20:00:21.20	232.44	14.71	-41.2	-41.5	12.4	0.00e+00	0	30	0	7625244672	49	14716
2026-01-09 20:00:22.20	232.69	14.79	-41.3	-41.5	12.4	0.00e+00	0	30	0	7700742144	49	14771
2026-01-09 20:00:23.19	232.94	14.88	-41.2	-41.4	12.4	0.00e+00	0	30	0	7767851008	49	14596
2026-01-09 20:00:24.18	233.19	14.96	-41.1	-41.4	12.4	0.00e+00	0	31	0	7843348480	49	14474
2026-01-09 20:00:25.18	233.44	15.04	-41.1	-41.4	12.4	0.00e+00	0	31	0	7918845952	49	14580
2026-01-09 20:00:26.17	233.69	15.13	-41.2	-41.4	12.4	0.00e+00	0	30	0	7994343424	49	14606
2026-01-09 20:00:27.16	233.95	15.21	-41.1	-41.3	12.5	0.00e+00	0	30	0	8069840896	49	14436
2026-01-09 20:00:28.16	234.21	15.29	-41.0	-41.3	12.5	0.00e+00	0	31	0	8145338368	49	14305
2026-01-09 20:00:29.15	234.46	15.37	-41.1	-41.4	12.4	0.00e+00	0	31	0	8220835840	49	14487
2026-01-09 20:00:30.15	234.73	15.46	-41.0	-41.3	12.5	0.00e+00	0	31	0	8296333312	49	14357
2026-01-09 20:00:31.14	234.99	15.54	-41.0	-41.2	12.5	0.00e+00	0	31	0	8371830784	49	14262
2026-01-09 20:00:32.14	235.25	15.62	-41.0	-41.3	12.5	0.00e+00	0	30	0	8438939648	49	14399
2026-01-09 20:00:33.14	235.52	15.70	-41.0	-41.3	12.5	0.00e+00	0	31	0	8514437120	49	14294
2026-01-09 20:00:34.14	235.79	15.79	-41.0	-41.2	12.5	0.00e+00	0	30	0	8589934592	49	14240
2026-01-09 20:00:35.14	236.06	15.87	-40.9	-41.2	12.5	0.00e+00	0	30	0	8665432064	49	14219
2026-01-09 20:00:36.13	236.33	15.95	-41.0	-41.3	12.5	0.00e+00	0	31	0	8740929536	49	14360
2026-01-09 20:00:37.13	236.60	16.03	-40.8	-41.1	12.5	0.00e+00	0	30	0	8816427008	48	14849
2026-01-09 20:00:38.12	236.88	16.11	-40.9	-41.1	12.4	0.00e+00	0	31	0	8891924480	48	14932
2026-01-09 20:00:39.12	237.15	16.19	-40.9	-41.2	12.4	0.00e+00	0	30	0	8967421952	48	15059
2026-01-09 20:00:40.11	237.43	16.27	-40.8	-41.1	12.5	0.00e+00	0	31	0	9042919424	48	14854
2026-01-09 20:00:41.12	237.71	16.36	-40.7	-41.0	12.5	0.00e+00	0	31	0	9118416896	48	14703
2026-01-09 20:00:42.11	237.99	16.44	-40.8	-41.1	12.5	0.00e+00	0	30	0	9193914368	48	14816
2026-01-09 20:00:43.11	238.28	16.52	-40.8	-41.1	12.5	0.00e+00	0	31	0	9261023232	48	14883
2026-01-09 20:00:44.10	238.56	16.60	-40.8	-41.1	12.5	0.00e+00	0	31	0	9336520704	48	14778
2026-01-09 20:00:45.10	238.85	16.68	-40.6	-40.9	12.5	0.00e+00	0	31	0	9412018176	48	14466
2026-01-09 20:00:46.10	239.14	16.76	-40.6	-40.9	12.6	0.00e+00	0	31	0	9487515648	48	14528
2026-01-09 20:00:47.10	239.43	16.84	-40.6	-40.9	12.6	0.00e+00	0	31	0	9563013120	48	14575
2026-01-09 20:00:48.11	239.73	16.92	-40.7	-40.9	12.6	0.00e+00	0	31	0	9638510592	48	14593
2026-01-09 20:00:49.10	240.02	16.99	-40.6	-40.9	12.5	0.00e+00	0	30	0	9714008064	48	14553
2026-01-09 20:00:50.10	240.31	17.07	-40.6	-40.8	12.6	0.00e+00	0	31	0	9789505536	48	14439
2026-01-09 20:00:51.10	240.61	17.15	-40.6	-40.8	12.6	0.00e+00	0	31	0	9865003008	48	14435
2026-01-09 20:00:52.10	240.91	17.23	-40.5	-40.8	12.6	0.00e+00	0	30	0	9940500480	48	14369
2026-01-09 20:00:53.09	241.21	17.30	-40.5	-40.8	12.6	0.00e+00	0	31	0	10007609344	48	14315
2026-01-09 20:00:54.09	241.52	17.38	-40.5	-40.8	12.6	0.00e+00	0	31	0	10083106816	48	14307
2026-01-09 20:00:55.09	241.82	17.46	-40.6	-40.9	12.6	0.00e+00	0	31	0	10158604288	48	14485
2026-01-09 20:00:56.09	242.13	17.53	-40.5	-40.8	12.6	0.00e+00	0	31	0	10234101760	48	14292
2026-01-09 20:00:57.09	242.44	17.61	-40.5	-40.8	12.6	0.00e+00	0	31	0	10309599232	48	14335
2026-01-09 20:00:58.08	242.74	17.69	-40.5	-40.8	12.6	0.00e+00	0	31	0	10385096704	48	14354
2026-01-09 20:00:59.07	243.05	17.76	-40.4	-40.7	12.7	0.00e+00	0	31	0	10460594176	48	14141
2026-01-09 20:01:00.06	243.36	17.83	-40.5	-40.7	12.6	0.00e+00	0	31	0	10536091648	48	14270
2026-01-09 20:01:01.06	243.68	17.91	-40.4	-40.7	12.7	0.00e+00	0	31	0	10611589120	48	14214
2026-01-09 20:01:02.05	244.00	17.98	-40.4	-40.7	12.7	0.00e+00	0	31	0	10687086592	48	14232
2026-01-09 20:01:03.04	244.31	18.05	-39.6	-39.9	12.5	0.00e+00	0	31	0	10754195456	46	14527
2026-01-09 20:01:04.03	244.63	18.12	-39.6	-39.9	12.5	0.00e+00	0	31	0	10829692928	46	14459
2026-01-09 20:01:05.03	244.95	18.20	-39.5	-39.8	12.5	0.00e+00	0	31	0	10905190400	46	14342
2026-01-09 20:01:06.02	245.27	18.27	-39.5	-39.8	12.5	0.00e+00	0	31	0	10980687872	46	14358
2026-01-09 20:01:07.02	245.60	18.34	-39.5	-39.8	12.5	0.00e+00	0	31	0	11056185344	46	14402
2026-01-09 20:01:08.01	245.93	18.41	-39.5	-39.8	12.5	0.00e+00	0	31	0	11131682816	46	14341
2026-01-09 20:01:09.02	246.26	18.48	-39.5	-39.8	12.5	0.00e+00	0	31	0	11207180288	46	14328
2026-01-09 20:01:10.01	246.59	18.55	-39.5	-39.8	12.5	0.00e+00	0	31	0	11282677760	46	14414
2026-01-09 20:01:11.01	246.92	18.62	-39.4	-39.7	12.6	0.00e+00	0	31	0	11358175232	46	14250
2026-01-09 20:01:12.01	247.25	18.69	-39.3	-39.6	12.5	0.00e+00	0	31	0	11433672704	45	14886
2026-01-09 20:01:13.01	247.59	18.75	-39.5	-39.8	12.4	0.00e+00	0	31	0	11509170176	45	15133
2026-01-09 20:01:14.00	247.93	18.82	-39.3	-39.6	12.5	0.00e+00	0	31	0	11584667648	45	14821
2026-01-09 20:01:15.00	248.27	18.89	-39.4	-39.7	12.5	0.00e+00	0	31	0	11660165120	45	14958
2026-01-09 20:01:15.99	248.60	18.95	-39.3	-39.6	12.5	0.00e+00	0	31	0	11727273984	45	14907
2026-01-09 20:01:16.99	248.95	19.02	-39.3	-39.5	12.5	0.00e+00	0	31	0	11802771456	45	14761
2026-01-09 20:01:17.98	249.29	19.08	-39.2	-39.5	12.5	0.00e+00	0	31	0	11878268928	45	14669
2026-01-09 20:01:18.98	249.63	19.14	-39.3	-39.5	12.5	0.00e+00	0	31	0	11953766400	45	14771
2026-01-09 20:01:19.99	249.99	19.21	-39.2	-39.5	12.5	0.00e+00	0	31	0	12029263872	45	14616
2026-01-09 20:01:20.97	250.33	19.27	-39.2	-39.5	12.6	0.00e+00	0	31	0	12104761344	45	14639
2026-01-09 20:01:21.97	250.68	19.33	-39.2	-39.4	12.6	0.00e+00	0	31	0	12180258816	45	14574
2026-01-09 20:01:22.97	251.03	19.39	-39.1	-39.4	12.6	0.00e+00	0	31	0	12255756288	45	14586
2026-01-09 20:01:23.97	251.39	19.45	-39.2	-39.5	12.5	0.00e+00	0	31	0	12331253760	45	14609
2026-01-09 20:01:24.97	251.74	19.51	-39.2	-39.5	12.5	0.00e+00	0	31	0	12406751232	45	14631
2026-01-09 20:01:25.97	252.10	19.57	-39.3	-39.6	12.5	0.00e+00	0	31	0	12482248704	45	14843
2026-01-09 20:01:26.97	252.46	19.62	-39.2	-39.5	12.5	0.00e+00	0	31	0	12557746176	45	14697
2026-01-09 20:01:27.97	252.82	19.68	-39.1	-39.4	12.6	0.00e+00	0	31	0	12624855040	45	14484
2026-01-09 20:01:28.96	253.18	19.73	-39.2	-39.4	12.6	0.00e+00	0	31	0	12700352512	45	14572
2026-01-09 20:01:29.96	253.54	19.79	-39.1	-39.4	12.6	0.00e+00	0	31	0	12775849984	45	14451
2026-01-09 20:01:30.96	253.91	19.84	-39.2	-39.5	12.5	0.00e+00	0	31	0	12851347456	45	14632
2026-01-09 20:01:31.95	254.27	19.90	-39.0	-39.3	12.6	0.00e+00	0	31	0	12926844928	45	14385
2026-01-09 20:01:32.94	254.63	19.95	-39.0	-39.3	12.6	0.00e+00	0	31	0	13002342400	45	14337
2026-01-09 20:01:33.93	255.00	20.00	-39.0	-39.3	12.6	0.00e+00	0	31	0	13077839872	45	14384
2026-01-09 20:01:34.92	255.37	20.05	-39.0	-39.3	12.7	0.00e+00	0	31	0	13153337344	45	14309
2026-01-09 20:01:35.91	255.73	20.10	-39.0	-39.3	12.7	0.00e+00	0	31	0	13228834816	45	14288
2026-01-09 20:01:36.91	256.11	20.14	-39.0	-39.2	12.7	0.00e+00	0	31	0	13304332288	45	14263
2026-01-09 20:01:37.91	256.48	20.19	-39.0	-39.2	12.7	0.00e+00	0	31	0	13371441152	45	14266
2026-01-09 20:01:38.91	256.86	20.24	-39.0	-39.2	12.7	0.00e+00	0	31	0	13446938624	45	14266
2026-01-09 20:01:39.91	257.23	20.28	-38.9	-39.2	12.7	0.00e+00	0	31	0	13522436096	45	14226
2026-01-09 20:01:40.90	257.61	20.33	-39.0	-39.3	12.6	0.00e+00	0	31	0	13597933568	45	14279
2026-01-09 20:01:41.90	257.99	20.37	-39.0	-39.2	12.7	0.00e+00	0	31	0	13673431040	45	14271
2026-01-09 20:01:42.90	258.37	20.41	-38.9	-39.2	12.7	0.00e+00	0	31	0	13748928512	45	14193
2026-01-09 20:01:43.89	258.75	20.45	-39.0	-39.3	12.6	0.00e+00	0	31	0	13824425984	45	14301
2026-01-09 20:01:44.88	259.12	20.49	-39.0	-39.3	12.6	0.00e+00	0	31	0	13899923456	45	14328
2026-01-09 20:01:45.87	259.50	20.53	-39.0	-39.2	12.7	0.00e+00	0	31	0	13975420928	45	14259
2026-01-09 20:01:46.87	259.89	20.57	-38.9	-39.2	12.7	0.00e+00	0	31	0	14042529792	45	14197
2026-01-09 20:01:47.86	260.27	20.61	-39.0	-39.2	12.7	0.00e+00	0	31	0	14118027264	45	14257
2026-01-09 20:01:48.85	260.65	20.64	-38.9	-39.2	12.7	0.00e+00	0	31	0	14193524736	45	14211
2026-01-09 20:01:49.86	261.05	20.68	-38.8	-39.1	12.6	0.00e+00	0	31	0	14269022208	44	14793
2026-01-09 20:01:50.86	261.44	20.71	-38.9	-39.1	12.6	0.00e+00	0	31	0	14344519680	44	14945
2026-01-09 20:01:51.84	261.82	20.74	-38.8	-39.1	12.6	0.00e+00	0	31	0	14420017152	44	14861
2026-01-09 20:01:52.84	262.21	20.77	-38.9	-39.1	12.6	0.00e+00	0	31	0	14495514624	44	14940
2026-01-09 20:01:53.84	262.60	20.80	-38.8	-39.1	12.6	0.00e+00	0	31	0	14571012096	44	14823
2026-01-09 20:01:54.83	262.99	20.83	-38.8	-39.1	12.6	0.00e+00	0	31	0	14646509568	44	14917
2026-01-09 20:01:55.83	263.38	20.86	-39.0	-39.2	12.5	0.00e+00	0	31	0	14713618432	44	15081
2026-01-09 20:01:56.83	263.77	20.89	-38.8	-39.1	12.6	0.00e+00	0	31	0	14789115904	44	14862
2026-01-09 20:01:57.83	264.17	20.91	-38.8	-39.0	12.6	0.00e+00	0	31	0	14864613376	44	14757
2026-01-09 20:01:58.83	264.56	20.94	-38.9	-39.2	12.5	0.00e+00	0	31	0	14940110848	44	14964
2026-01-09 20:01:59.82	264.96	20.96	-38.8	-39.1	12.6	0.00e+00	0	31	0	15015608320	44	14859
2026-01-09 20:02:00.80	265.35	20.98	-38.9	-39.2	12.6	0.00e+00	0	31	0	15091105792	44	14978
2026-01-09 20:02:01.79	265.74	21.00	-38.8	-39.0	12.6	0.00e+00	0	31	0	15166603264	44	14774
2026-01-09 20:02:02.79	266.14	21.02	-38.8	-39.1	12.6	0.00e+00	0	31	0	15242100736	44	14858
2026-01-09 20:02:03.79	266.53	21.04	-38.8	-39.1	12.6	0.00e+00	0	31	0	15317598208	44	14889
2026-01-09 20:02:04.79	266.93	21.06	-38.8	-39.1	12.6	0.00e+00	0	31	0	15384707072	44	14812
2026-01-09 20:02:05.78	267.33	21.07	-38.9	-39.1	12.6	0.00e+00	0	31	0	15460204544	44	14934
2026-01-09 20:02:06.78	267.73	21.09	-38.8	-39.1	12.6	0.00e+00	0	31	0	15535702016	44	14840
2026-01-09 20:02:07.78	268.13	21.10	-38.8	-39.0	12.6	0.00e+00	0	31	0	15611199488	44	14757
2026-01-09 20:02:08.77	268.52	21.11	-38.8	-39.1	12.6	0.00e+00	0	31	0	15686696960	44	14886
2026-01-09 20:02:09.77	268.93	21.12	-38.8	-39.0	12.6	0.00e+00	0	31	0	15762194432	44	14770
2026-01-09 20:02:10.76	269.32	21.13	-38.7	-39.0	12.6	0.00e+00	0	31	0	15837691904	44	14730
2026-01-09 20:02:11.76	269.72	21.14	-38.7	-39.0	12.6	0.00e+00	0	31	0	15913189376	44	14744
2026-01-09 20:02:12.75	270.12	21.14	-38.8	-39.0	12.6	0.00e+00	0	31	0	15988686848	44	14767
2026-01-09 20:02:13.74	270.52	21.15	-38.8	-39.1	12.6	0.00e+00	0	31	0	16064184320	44	14828
2026-01-09 20:02:14.73	270.92	21.15	-38.9	-39.1	12.5	0.00e+00	0	31	0	16131293184	44	14926
2026-01-09 20:02:15.73	271.32	21.16	-38.8	-39.1	12.6	0.00e+00	0	31	0	16206790656	44	14825
2026-01-09 20:02:16.72	271.72	21.16	-38.8	-39.1	12.6	0.00e+00	0	31	0	16282288128	44	14852
2026-01-09 20:02:17.72	272.12	21.16	-38.8	-39.1	12.6	0.00e+00	0	31	0	16357785600	44	14849
2026-01-09 20:02:18.72	272.52	21.16	-38.9	-39.2	12.6	0.00e+00	0	31	0	16433283072	44	14950
2026-01-09 20:02:19.71	272.92	21.16	-38.8	-39.1	12.6	0.00e+00	0	31	0	16508780544	44	14853
2026-01-09 20:02:20.72	273.32	21.15	-38.8	-39.1	12.6	0.00e+00	0	31	0	16584278016	44	14900
2026-01-09 20:02:21.72	273.72	21.15	-38.8	-39.1	12.6	0.00e+00	0	31	0	16659775488	44	14842
2026-01-09 20:02:22.70	274.12	21.14	-38.8	-39.1	12.6	0.00e+00	0	31	0	16735272960	44	14864
2026-01-09 20:02:23.69	274.51	21.13	-38.9	-39.1	12.6	0.00e+00	0	31	0	16802381824	44	14917
2026-01-09 20:02:24.69	274.92	21.13	-38.9	-39.2	12.5	0.00e+00	0	31	0	16877879296	44	15076
2026-01-09 20:02:25.69	275.32	21.12	-38.9	-39.2	12.6	0.00e+00	0	31	0	16953376768	44	14999
2026-01-09 20:02:26.68	275.71	21.11	-39.0	-39.3	12.5	0.00e+00	0	31	0	17028874240	44	15176
2026-01-09 20:02:27.67	276.11	21.09	-38.9	-39.2	12.6	0.00e+00	0	31	0	17104371712	44	15025
2026-01-09 20:02:28.67	276.51	21.08	-39.0	-39.2	12.5	0.00e+00	0	31	0	17179869184	44	15089
2026-01-09 20:02:29.66	276.90	21.07	-39.0	-39.3	12.5	0.00e+00	0	31	0	17255366656	44	15205
2026-01-09 20:02:30.66	277.30	21.05	-39.0	-39.3	12.5	0.00e+00	0	31	0	17330864128	44	15127
2026-01-09 20:02:31.65	277.70	21.03	-38.9	-39.2	12.5	0.00e+00	0	31	0	17406361600	44	15080
2026-01-09 20:02:32.64	278.09	21.01	-39.0	-39.3	12.5	0.00e+00	0	31	0	17473470464	44	15169
2026-01-09 20:02:33.64	278.49	20.99	-39.0	-39.3	12.5	0.00e+00	0	31	0	17548967936	44	15238
2026-01-09 20:02:34.64	278.88	20.97	-39.0	-39.3	12.5	0.00e+00	0	31	0	17624465408	44	15221
2026-01-09 20:02:35.63	279.27	20.95	-39.0	-39.3	12.5	0.00e+00	0	31	0	17699962880	44	15162
2026-01-09 20:02:36.63	279.67	20.93	-39.0	-39.3	12.5	0.00e+00	0	31	0	17775460352	44	15251
2026-01-09 20:02:37.62	280.06	20.90	-39.0	-39.3	12.5	0.00e+00	0	31	0	17850957824	44	15239
2026-01-09 20:02:38.61	280.45	20.88	-39.0	-39.3	12.5	0.00e+00	0	31	0	17926455296	44	15149
2026-01-09 20:02:39.59	280.84	20.85	-39.1	-39.4	12.5	0.00e+00	0	31	0	18001952768	44	15342
2026-01-09 20:02:40.59	281.23	20.82	-39.1	-39.4	12.5	0.00e+00	0	31	0	18077450240	44	15443
2026-01-09 20:02:41.58	281.62	20.79	-39.1	-39.4	12.5	0.00e+00	0	31	0	18152947712	44	15299
2026-01-09 20:02:42.59	282.01	20.76	-39.2	-39.5	12.4	0.00e+00	0	31	0	18220056576	44	15572
2026-01-09 20:02:43.59	282.40	20.73	-39.2	-39.5	12.4	0.00e+00	0	31	0	18295554048	44	15485
2026-01-09 20:02:44.59	282.79	20.70	-39.1	-39.4	12.5	0.00e+00	0	31	0	18371051520	44	15402
2026-01-09 20:02:45.58	283.17	20.67	-39.0	-39.3	12.5	0.00e+00	0	31	0	18446548992	44	15189
2026-01-09 20:02:46.58	283.56	20.63	-39.1	-39.4	12.5	0.00e+00	0	31	0	18522046464	44	15317
2026-01-09 20:02:47.57	283.94	20.59	-39.1	-39.4	12.5	0.00e+00	0	31	0	18597543936	44	15350
2026-01-09 20:02:48.57	284.33	20.56	-39.0	-39.3	12.5	0.00e+00	0	31	0	18673041408	44	15287
2026-01-09 20:02:49.57	284.71	20.52	-39.1	-39.4	12.5	0.00e+00	0	31	0	18748538880	44	15383
2026-01-09 20:02:50.57	285.09	20.48	-39.1	-39.4	12.5	0.00e+00	0	31	0	18824036352	44	15353
2026-01-09 20:02:51.57	285.47	20.44	-39.1	-39.4	12.5	0.00e+00	0	31	0	18899533824	44	15391
2026-01-09 20:02:52.57	285.85	20.40	-39.1	-39.4	12.5	0.00e+00	0	31	0	18975031296	44	15391
2026-01-09 20:02:53.57	286.23	20.36	-39.1	-39.4	12.5	0.00e+00	0	31	0	19050528768	44	15444
2026-01-09 20:02:54.57	286.61	20.31	-39.1	-39.4	12.5	0.00e+00	0	31	0	19126026240	44	15346
2026-01-09 20:02:55.57	286.99	20.27	-39.2	-39.5	12.5	0.00e+00	0	31	0	19201523712	44	15490
2026-01-09 20:02:56.56	287.36	20.22	-39.1	-39.4	12.5	0.00e+00	0	31	0	19277021184	44	15379
2026-01-09 20:02:57.56	287.73	20.18	-39.2	-39.5	12.5	0.00e+00	0	31	0	19352518656	44	15538
2026-01-09 20:02:58.57	288.11	20.13	-39.2	-39.5	12.5	0.00e+00	0	31	0	19428016128	44	15519
2026-01-09 20:02:59.57	288.48	20.08	-39.2	-39.5	12.4	0.00e+00	0	31	0	19495124992	44	15613
2026-01-09 20:03:00.57	288.85	20.03	-39.2	-39.5	12.5	0.00e+00	0	31	0	19570622464	44	15601
2026-01-09 20:03:01.58	289.22	19.98	-39.3	-39.6	12.4	0.00e+00	0	31	0	19646119936	44	15772
2026-01-09 20:03:02.58	289.59	19.93	-39.3	-39.6	12.4	0.00e+00	0	31	0	19721617408	44	15811
2026-01-09 20:03:03.58	289.96	19.87	-39.4	-39.6	12.4	0.00e+00	0	31	0	19797114880	44	15821
2026-01-09 20:03:04.59	290.32	19.82	-39.4	-39.6	12.4	0.00e+00	0	31	0	19872612352	44	15827
2026-01-09 20:03:05.59	290.69	19.77	-39.3	-39.6	12.4	0.00e+00	0	31	0	19948109824	44	15712
2026-01-09 20:03:06.59	291.05	19.71	-39.2	-39.5	12.4	0.00e+00	0	31	0	20023607296	44	15629
2026-01-09 20:03:07.59	291.41	19.66	-39.3	-39.6	12.4	0.00e+00	0	31	0	20099104768	44	15730
2026-01-09 20:03:08.57	291.76	19.60	-39.4	-39.7	12.4	0.00e+00	0	31	0	20174602240	44	15905
2026-01-09 20:03:09.57	292.12	19.54	-39.3	-39.6	12.4	0.00e+00	0	31	0	20250099712	44	15833
2026-01-09 20:03:10.57	292.47	19.48	-39.4	-39.7	12.4	0.00e+00	0	31	0	20325597184	44	15910
2026-01-09 20:03:11.57	292.83	19.43	-39.4	-39.7	12.4	0.00e+00	0	31	0	20401094656	44	15882
2026-01-09 20:03:12.57	293.18	19.37	-39.4	-39.7	12.4	0.00e+00	0	31	0	20476592128	44	15936
2026-01-09 20:03:13.57	293.53	19.31	-39.5	-39.8	12.4	0.00e+00	0	31	0	20552089600	44	16146
2026-01-09 20:03:14.57	293.88	19.24	-39.4	-39.7	12.4	0.00e+00	0	31	0	20627587072	44	15961
2026-01-09 20:03:15.56	294.22	19.18	-39.6	-39.9	12.4	0.00e+00	0	31	0	20694695936	44	16222
2026-01-09 20:03:16.57	294.57	19.12	-39.5	-39.8	12.4	0.00e+00	0	31	0	20770193408	44	16128
2026-01-09 20:03:17.56	294.91	19.06	-39.5	-39.8	12.4	0.00e+00	0	31	0	20845690880	44	16117
2026-01-09 20:03:18.55	295.25	18.99	-39.6	-39.9	12.4	0.00e+00	0	31	0	20921188352	44	16205
2026-01-09 20:03:19.54	295.59	18.93	-39.5	-39.8	12.4	0.00e+00	0	31	0	20996685824	44	16159
2026-01-09 20:03:20.54	295.93	18.86	-39.6	-39.9	12.4	0.00e+00	0	31	0	21072183296	44	16205
2026-01-09 20:03:21.54	296.27	18.80	-39.5	-39.8	12.4	0.00e+00	0	31	0	21147680768	44	16113
2026-01-09 20:03:22.55	296.61	18.73	-39.6	-39.9	12.4	0.00e+00	0	31	0	21223178240	45	15441
2026-01-09 20:03:23.55	296.94	18.66	-39.8	-40.1	12.3	0.00e+00	0	31	0	21298675712	45	15738
2026-01-09 20:03:24.54	297.27	18.59	-39.6	-39.9	12.4	0.00e+00	0	31	0	21374173184	45	15412
2026-01-09 20:03:25.53	297.60	18.53	-39.6	-39.9	12.4	0.00e+00	0	31	0	21441282048	45	15376
2026-01-09 20:03:26.53	297.93	18.46	-39.7	-40.0	12.4	0.00e+00	0	31	0	21516779520	45	15485
2026-01-09 20:03:27.53	298.26	18.39	-39.7	-40.0	12.4	0.00e+00	0	31	0	21592276992	45	15511
2026-01-09 20:03:28.53	298.58	18.32	-39.7	-40.0	12.4	0.00e+00	0	31	0	21667774464	45	15577
2026-01-09 20:03:29.53	298.91	18.25	-39.7	-40.0	12.4	0.00e+00	0	31	0	21743271936	45	15595
2026-01-09 20:03:30.53	299.23	18.17	-39.8	-40.0	12.4	0.00e+00	0	31	0	21818769408	45	15632
2026-01-09 20:03:31.52	299.55	18.10	-39.9	-40.1	12.3	0.00e+00	0	31	0	21894266880	45	15828
2026-01-09 20:03:32.53	299.87	18.03	-39.8	-40.1	12.3	0.00e+00	0	31	0	21969764352	45	15678
2026-01-09 20:03:33.51	300.18	17.96	-39.9	-40.2	12.3	0.00e+00	0	31	0	22045261824	45	15882
2026-01-09 20:03:34.50	300.49	17.89	-39.9	-40.2	12.3	0.00e+00	0	31	0	22120759296	45	15909
2026-01-09 20:03:35.50	300.81	17.81	-39.8	-40.1	12.3	0.00e+00	0	31	0	22196256768	45	15796
2026-01-09 20:03:36.49	301.12	17.74	-40.0	-40.2	12.3	0.00e+00	0	31	0	22263365632	45	16016
2026-01-09 20:03:37.49	301.43	17.66	-39.8	-40.1	12.3	0.00e+00	0	31	0	22338863104	45	15815
2026-01-09 20:03:38.49	301.73	17.59	-40.0	-40.3	12.3	0.00e+00	0	31	0	22414360576	45	16112
2026-01-09 20:03:39.48	302.04	17.51	-40.0	-40.3	12.3	0.00e+00	0	31	0	22489858048	45	16056
2026-01-09 20:03:40.48	302.34	17.44	-39.9	-40.2	12.3	0.00e+00	0	31	0	22565355520	45	15962
2026-01-09 20:03:41.47	302.64	17.36	-40.0	-40.3	12.3	0.00e+00	0	31	0	22640852992	45	16063
2026-01-09 20:03:42.45	302.94	17.29	-40.0	-40.3	12.2	0.00e+00	0	31	0	22716350464	45	16186
2026-01-09 20:03:43.45	303.24	17.21	-40.0	-40.3	12.3	0.00e+00	0	31	0	22791847936	45	16053
2026-01-09 20:03:44.44	303.53	17.13	-40.0	-40.3	12.2	0.00e+00	0	31	0	22858956800	45	16164
2026-01-09 20:03:45.44	303.83	17.05	-40.0	-40.3	12.2	0.00e+00	0	31	0	22942842880	45	16136
2026-01-09 20:03:46.44	304.12	16.98	-40.1	-40.4	12.2	0.00e+00	0	31	0	23009951744	45	16294
2026-01-09 20:03:47.44	304.42	16.90	-40.2	-40.5	12.2	0.00e+00	0	31	0	23085449216	46	15548
2026-01-09 20:03:48.44	304.71	16.82	-40.3	-40.6	12.2	0.00e+00	0	31	0	23160946688	46	15695
2026-01-09 20:03:49.44	305.00	16.74	-40.2	-40.4	12.3	0.00e+00	0	31	0	23244832768	46	15449
2026-01-09 20:03:50.44	305.28	16.66	-40.2	-40.5	12.2	0.00e+00	0	31	0	23311941632	46	15576
2026-01-09 20:03:51.44	305.57	16.58	-40.2	-40.5	12.2	0.00e+00	0	31	0	23387439104	46	15615
2026-01-09 20:03:52.43	305.85	16.50	-40.2	-40.5	12.2	0.00e+00	0	31	0	23462936576	46	15643
2026-01-09 20:03:53.43	306.13	16.42	-40.3	-40.5	12.2	0.00e+00	0	31	0	23538434048	46	15641
2026-01-09 20:03:54.42	306.41	16.34	-40.3	-40.6	12.2	0.00e+00	0	31	0	23613931520	46	15664
2026-01-09 20:03:55.41	306.69	16.26	-40.2	-40.5	12.2	0.00e+00	0	31	0	23689428992	46	15611
2026-01-09 20:03:56.40	306.96	16.18	-40.4	-40.7	12.2	0.00e+00	0	31	0	23764926464	46	15861
2026-01-09 20:03:57.39	307.23	16.10	-40.3	-40.6	12.2	0.00e+00	0	31	0	23832035328	46	15759
2026-01-09 20:03:58.39	307.51	16.02	-40.4	-40.7	12.2	0.00e+00	0	31	0	23907532800	46	15864
2026-01-09 20:03:59.39	307.78	15.94	-40.5	-40.8	12.1	0.00e+00	0	31	0	23983030272	46	16033
2026-01-09 20:04:00.38	308.05	15.86	-40.4	-40.7	12.2	0.00e+00	0	31	0	24058527744	46	15938
2026-01-09 20:04:01.37	308.31	15.78	-40.5	-40.8	12.1	0.00e+00	0	31	0	24134025216	46	16170
2026-01-09 20:04:02.36	308.58	15.70	-40.5	-40.8	12.1	0.00e+00	0	31	0	24209522688	46	16124
2026-01-09 20:04:03.36	308.84	15.62	-40.6	-40.9	12.1	0.00e+00	0	31	0	24285020160	46	16251
2026-01-09 20:04:04.35	309.10	15.53	-40.5	-40.8	12.1	0.00e+00	0	31	0	24360517632	46	16191
2026-01-09 20:04:05.34	309.36	15.45	-40.6	-40.9	12.1	0.00e+00	0	31	0	24436015104	46	16223
2026-01-09 20:04:06.34	309.62	15.37	-40.5	-40.9	12.1	0.00e+00	0	31	0	24503123968	46	16224
2026-01-09 20:04:07.33	309.88	15.29	-40.6	-40.9	12.1	0.00e+00	0	31	0	24578621440	46	16256
2026-01-09 20:04:08.34	310.14	15.20	-40.7	-41.0	12.1	0.00e+00	0	31	0	24654118912	47	15490
2026-01-09 20:04:09.32	310.39	15.12	-40.7	-41.1	12.1	0.00e+00	0	31	0	24729616384	47	15658
2026-01-09 20:04:10.32	310.64	15.04	-40.7	-41.0	12.1	0.00e+00	0	31	0	24805113856	47	15619
2026-01-09 20:04:11.32	310.90	14.96	-40.8	-41.1	12.1	0.00e+00	0	31	0	24880611328	47	15825
2026-01-09 20:04:12.31	311.14	14.88	-40.7	-41.0	12.1	0.00e+00	0	31	0	24956108800	47	15532
2026-01-09 20:04:13.32	311.39	14.79	-40.7	-41.0	12.1	0.00e+00	0	31	0	25031606272	47	15481
2026-01-09 20:04:14.31	311.64	14.71	-40.7	-41.0	12.1	0.00e+00	0	31	0	25107103744	47	15574
2026-01-09 20:04:15.31	311.88	14.63	-40.7	-41.0	12.1	0.00e+00	0	31	0	25182601216	47	15635
2026-01-09 20:04:16.31	312.13	14.54	-40.9	-41.2	12.0	0.00e+00	0	31	0	25258098688	47	15911
2026-01-09 20:04:17.31	312.37	14.46	-40.9	-41.2	12.0	0.00e+00	0	31	0	25333596160	47	15908
2026-01-09 20:04:18.31	312.61	14.38	-40.9	-41.2	12.0	0.00e+00	0	31	0	25409093632	47	15984
2026-01-09 20:04:19.30	312.85	14.29	-40.9	-41.2	12.0	0.00e+00	0	31	0	25476202496	47	15975
2026-01-09 20:04:20.30	313.09	14.21	-40.9	-41.2	12.0	0.00e+00	0	31	0	25551699968	47	15902
2026-01-09 20:04:21.29	313.32	14.13	-41.0	-41.3	12.0	0.00e+00	0	31	0	25627197440	47	16038
2026-01-09 20:04:22.28	313.55	14.04	-41.0	-41.3	12.0	0.00e+00	0	31	0	25702694912	47	16194
2026-01-09 20:04:23.28	313.79	13.96	-41.0	-41.3	12.0	0.00e+00	0	31	0	25778192384	47	16156
2026-01-09 20:04:24.27	314.01	13.88	-41.0	-41.3	12.0	0.00e+00	0	31	0	25853689856	47	16157
2026-01-09 20:04:25.27	314.24	13.79	-41.0	-41.3	12.0	0.00e+00	0	31	0	25929187328	47	16161
2026-01-09 20:04:26.28	314.48	13.71	-41.0	-41.3	12.0	0.00e+00	0	31	0	26004684800	47	16155
2026-01-09 20:04:27.27	314.70	13.63	-41.0	-41.3	11.9	0.00e+00	0	31	0	26080182272	47	16184
2026-01-09 20:04:28.27	314.93	13.54	-41.1	-41.4	11.9	0.00e+00	0	31	0	26147291136	47	16303
2026-01-09 20:04:29.26	315.15	13.46	-41.9	-42.2	12.1	0.00e+00	0	31	0	26222788608	49	15908
2026-01-09 20:04:30.25	315.37	13.38	-41.9	-42.2	12.1	0.00e+00	0	31	0	26298286080	49	15917
2026-01-09 20:04:31.24	315.59	13.30	-41.9	-42.2	12.1	0.00e+00	0	31	0	26373783552	49	15966
2026-01-09 20:04:32.24	315.81	13.21	-41.9	-42.2	12.1	0.00e+00	0	31	0	26449281024	49	15995
2026-01-09 20:04:33.23	316.02	13.13	-42.0	-42.3	12.1	0.00e+00	0	31	0	26524778496	49	16030
2026-01-09 20:04:34.22	316.24	13.05	-42.1	-42.4	12.0	0.00e+00	0	31	0	26600275968	49	16329
2026-01-09 20:04:35.21	316.45	12.97	-42.1	-42.4	12.0	0.00e+00	0	31	0	26675773440	49	16349
2026-01-09 20:04:36.20	316.66	12.88	-42.2	-42.5	12.1	0.00e+00	0	31	0	26751270912	50	15482
2026-01-09 20:04:37.19	316.87	12.80	-42.2	-42.5	12.1	0.00e+00	0	31	0	26818379776	50	15561
2026-01-09 20:04:38.19	317.08	12.72	-42.2	-42.5	12.0	0.00e+00	0	31	0	26893877248	50	15586
2026-01-09 20:04:39.17	317.29	12.64	-42.3	-42.6	12.0	0.00e+00	0	31	0	26969374720	50	15732
2026-01-09 20:04:40.16	317.49	12.55	-42.3	-42.6	12.0	0.00e+00	0	31	0	27044872192	50	15761
2026-01-09 20:04:41.15	317.70	12.47	-42.3	-42.6	12.0	0.00e+00	0	31	0	27120369664	50	15737
2026-01-09 20:04:42.15	317.91	12.39	-42.3	-42.6	12.0	0.00e+00	0	31	0	27195867136	50	15681
2026-01-09 20:04:43.15	318.11	12.31	-42.3	-42.6	12.0	0.00e+00	0	31	0	27271364608	50	15801
2026-01-09 20:04:44.14	318.31	12.23	-42.3	-42.6	12.0	0.00e+00	0	31	0	27338473472	50	15758
2026-01-09 20:04:45.14	318.51	12.14	-42.3	-42.6	12.0	0.00e+00	0	31	0	27413970944	50	15714
2026-01-09 20:04:46.14	318.71	12.06	-42.3	-42.7	12.0	0.00e+00	0	31	0	27489468416	50	15849
2026-01-09 20:04:47.13	318.91	11.98	-42.5	-42.8	11.9	0.00e+00	0	31	0	27564965888	50	16037
2026-01-09 20:04:48.13	319.11	11.90	-42.5	-42.8	12.0	0.00e+00	0	31	0	27640463360	51	15184
2026-01-09 20:04:49.13	319.30	11.82	-42.4	-42.7	12.1	0.00e+00	0	31	0	27715960832	51	15090
2026-01-09 20:04:50.13	319.50	11.73	-42.5	-42.8	12.0	0.00e+00	0	31	0	27791458304	51	15263
2026-01-09 20:04:51.12	319.69	11.65	-42.5	-42.8	12.0	0.00e+00	0	31	0	27866955776	51	15204
2026-01-09 20:04:52.11	319.88	11.57	-42.6	-42.9	12.0	0.00e+00	0	31	0	27942453248	51	15373
2026-01-09 20:04:53.11	320.07	11.49	-42.6	-42.9	12.0	0.00e+00	0	31	0	28017950720	51	15335
2026-01-09 20:04:54.10	320.26	11.41	-42.6	-42.9	12.0	0.00e+00	0	31	0	28093448192	51	15358
2026-01-09 20:04:55.09	320.45	11.33	-42.7	-43.0	11.9	0.00e+00	0	31	0	28168945664	51	15481
2026-01-09 20:04:56.09	320.64	11.25	-42.6	-42.9	11.9	0.00e+00	0	31	0	28236054528	51	15466
2026-01-09 20:04:57.09	320.82	11.17	-42.7	-43.0	11.9	0.00e+00	0	31	0	28311552000	51	15516
2026-01-09 20:04:58.08	321.00	11.09	-42.7	-43.0	11.9	0.00e+00	0	31	0	28387049472	51	15544
2026-01-09 20:04:59.08	321.19	11.01	-42.8	-43.1	11.9	0.00e+00	0	31	0	28462546944	51	15760
2026-01-09 20:05:00.07	321.37	10.93	-42.8	-43.1	11.9	0.00e+00	0	31	0	28538044416	51	15710
2026-01-09 20:05:01.07	321.55	10.84	-42.7	-43.0	11.9	0.00e+00	0	31	0	28613541888	51	15650
2026-01-09 20:05:02.07	321.73	10.76	-42.8	-43.1	11.8	0.00e+00	0	31	0	28689039360	51	15797
2026-01-09 20:05:03.06	321.91	10.68	-42.8	-43.1	11.9	0.00e+00	0	31	0	28764536832	51	15660
2026-01-09 20:05:04.05	322.08	10.61	-42.9	-43.2	11.8	0.00e+00	0	31	0	28840034304	51	15902
2026-01-09 20:05:05.04	322.26	10.53	-42.8	-43.1	11.8	0.00e+00	0	31	0	28907143168	51	15810
2026-01-09 20:05:06.04	322.44	10.45	-42.8	-43.1	11.8	6.90e-06	0	31	0	28982640640	51	15768
2026-01-09 20:05:07.03	322.61	10.37	-43.0	-43.3	11.8	0.00e+00	0	31	0	29058138112	51	16118
2026-01-09 20:05:08.04	322.78	10.29	-42.9	-43.2	11.8	0.00e+00	0	31	0	29133635584	51	15906
2026-01-09 20:05:09.03	322.95	10.21	-42.9	-43.2	11.8	0.00e+00	0	31	0	29209133056	51	16011
2026-01-09 20:05:10.03	323.13	10.13	-42.9	-43.2	11.8	0.00e+00	0	31	0	29284630528	51	15977
2026-01-09 20:05:11.03	323.30	10.05	-43.0	-43.3	11.7	0.00e+00	0	31	0	29360128000	51	16118
2026-01-09 20:05:12.03	323.46	9.97	-43.0	-43.4	11.7	0.00e+00	0	31	0	29435625472	51	16225
2026-01-09 20:05:13.03	323.63	9.89	-43.1	-43.4	11.7	0.00e+00	0	31	0	29511122944	52	15382
2026-01-09 20:05:14.03	323.80	9.81	-43.0	-43.3	11.8	6.90e-06	0	31	0	29578231808	52	15218
2026-01-09 20:05:15.02	323.96	9.73	-43.1	-43.4	11.7	0.00e+00	0	31	0	29653729280	52	15399
2026-01-09 20:05:16.01	324.13	9.66	-43.1	-43.4	11.8	0.00e+00	0	31	0	29729226752	52	15367
2026-01-09 20:05:17.02	324.29	9.58	-43.0	-43.3	11.8	0.00e+00	0	31	0	29804724224	52	15270
2026-01-09 20:05:18.01	324.45	9.50	-43.2	-43.5	11.7	0.00e+00	0	31	0	29880221696	52	15524
2026-01-09 20:05:19.01	324.61	9.42	-43.2	-43.5	11.7	0.00e+00	0	31	0	29955719168	52	15600
2026-01-09 20:05:20.01	324.78	9.35	-43.2	-43.6	11.6	0.00e+00	0	31	0	30031216640	52	15668
2026-01-09 20:05:21.01	324.94	9.27	-43.3	-43.6	11.6	0.00e+00	0	31	0	30106714112	52	15768
2026-01-09 20:05:22.00	325.09	9.19	-43.2	-43.5	11.7	6.90e-06	0	31	0	30182211584	52	15540
2026-01-09 20:05:23.00	325.25	9.11	-43.2	-43.5	11.7	0.00e+00	0	31	0	30257709056	52	15596
2026-01-09 20:05:23.99	325.40	9.04	-43.2	-43.6	11.7	0.00e+00	0	31	0	30324817920	52	15693
2026-01-09 20:05:24.98	325.56	8.96	-43.4	-43.7	11.5	0.00e+00	0	31	0	30400315392	52	16013
2026-01-09 20:05:25.98	325.71	8.88	-43.5	-43.9	11.5	0.00e+00	0	31	0	30475812864	52	16209
2026-01-09 20:05:26.98	325.87	8.81	-43.3	-43.6	11.6	0.00e+00	0	31	0	30551310336	52	15807
2026-01-09 20:05:27.98	326.02	8.73	-43.3	-43.6	11.6	0.00e+00	0	31	0	30626807808	52	15814
2026-01-09 20:05:28.97	326.17	8.66	-43.4	-43.8	11.5	6.90e-06	0	31	0	30702305280	52	16048
2026-01-09 20:05:29.98	326.32	8.58	-43.4	-43.7	11.5	0.00e+00	0	31	0	30777802752	52	16007
2026-01-09 20:05:30.97	326.47	8.50	-43.4	-43.7	11.5	0.00e+00	0	31	0	30853300224	52	15986
2026-01-09 20:05:31.96	326.62	8.43	-43.5	-43.9	11.5	0.00e+00	0	31	0	30928797696	52	16217
2026-01-09 20:05:32.95	326.76	8.35	-43.5	-43.8	11.5	0.00e+00	0	31	0	31004295168	52	16159
2026-01-09 20:05:33.95	326.91	8.28	-43.6	-43.9	11.5	0.00e+00	0	31	0	31079792640	52	16293
2026-01-09 20:05:34.95	327.06	8.20	-43.6	-44.0	11.5	0.00e+00	0	31	0	31155290112	53	15487
2026-01-09 20:05:35.94	327.20	8.13	-43.5	-43.9	11.6	0.00e+00	0	31	0	31222398976	53	15297
2026-01-09 20:05:36.93	327.34	8.05	-43.7	-44.0	11.5	0.00e+00	0	31	0	31297896448	53	15524
2026-01-09 20:05:37.92	327.49	7.98	-43.6	-43.9	11.5	0.00e+00	0	31	0	31373393920	53	15357
2026-01-09 20:05:38.92	327.63	7.90	-43.8	-44.1	11.4	0.00e+00	0	31	0	31448891392	53	15715
2026-01-09 20:05:39.91	327.77	7.83	-43.7	-44.0	11.5	6.90e-06	0	31	0	31524388864	53	15638
2026-01-09 20:05:40.90	327.91	7.76	-43.7	-44.0	11.5	0.00e+00	0	31	0	31599886336	53	15585
2026-01-09 20:05:41.90	328.05	7.68	-43.8	-44.1	11.4	1.38e-05	0	31	0	31675383808	53	15739
2026-01-09 20:05:42.89	328.19	7.61	-43.8	-44.2	11.4	0.00e+00	0	31	0	31742492672	53	15892
2026-01-09 20:05:43.87	328.32	7.54	-43.8	-44.1	11.4	0.00e+00	0	31	0	31817990144	53	15822
2026-01-09 20:05:44.86	328.46	7.46	-43.7	-44.1	11.4	0.00e+00	0	31	0	31893487616	53	15705
2026-01-09 20:05:45.86	328.59	7.39	-43.9	-44.2	11.3	0.00e+00	0	31	0	31968985088	53	15997
2026-01-09 20:05:46.86	328.73	7.32	-43.9	-44.2	11.3	6.90e-06	0	31	0	32044482560	53	15975
2026-01-09 20:05:47.85	328.86	7.24	-43.9	-44.3	11.3	0.00e+00	0	31	0	32119980032	53	16031
2026-01-09 20:05:48.85	329.00	7.17	-43.9	-44.2	11.3	0.00e+00	0	31	0	32195477504	53	16012
2026-01-09 20:05:49.85	329.13	7.10	-44.0	-44.3	11.3	2.08e-05	0	31	0	32270974976	53	16138
2026-01-09 20:05:50.85	329.26	7.03	-44.0	-44.3	11.3	0.00e+00	0	31	0	32346472448	53	16133
2026-01-09 20:05:51.84	329.39	6.95	-44.0	-44.4	11.2	6.90e-06	0	31	0	32421969920	53	16258
2026-01-09 20:05:52.84	329.53	6.88	-44.1	-44.5	11.3	0.00e+00	0	31	0	32497467392	54	15499
2026-01-09 20:05:53.84	329.66	6.81	-44.1	-44.4	11.3	0.00e+00	0	31	0	32564576256	54	15466
2026-01-09 20:05:54.84	329.78	6.74	-44.2	-44.6	11.2	6.90e-06	0	31	0	32640073728	54	15677
2026-01-09 20:05:55.83	329.91	6.67	-44.1	-44.4	11.3	0.00e+00	0	31	0	32715571200	54	15419
2026-01-09 20:05:56.82	330.04	6.60	-44.0	-44.4	11.3	1.38e-05	0	31	0	32791068672	54	15375
2026-01-09 20:05:57.82	330.17	6.52	-44.2	-44.6	11.2	0.00e+00	0	31	0	32866566144	54	15695
2026-01-09 20:05:58.82	330.29	6.45	-44.2	-44.6	11.2	1.38e-05	0	31	0	32942063616	54	15654
2026-01-09 20:05:59.82	330.42	6.38	-44.2	-44.5	11.2	6.90e-06	0	31	0	33017561088	54	15637
2026-01-09 20:06:00.82	330.54	6.31	-44.1	-44.5	11.3	6.90e-06	0	31	0	33093058560	54	15535
2026-01-09 20:06:01.82	330.67	6.24	-44.4	-44.7	11.1	2.08e-05	0	31	0	33168556032	54	15944
2026-01-09 20:06:02.82	330.79	6.17	-44.2	-44.6	11.2	2.08e-05	0	31	0	33244053504	54	15677
2026-01-09 20:06:03.81	330.91	6.10	-44.3	-44.6	11.2	1.38e-05	0	31	0	33319550976	54	15805
2026-01-09 20:06:04.81	331.03	6.03	-44.4	-44.7	11.1	2.08e-05	0	31	0	33395048448	54	15974
2026-01-09 20:06:05.81	331.16	5.96	-44.5	-44.8	11.0	1.38e-05	0	31	0	33470545920	54	16190
2026-01-09 20:06:06.82	331.28	5.89	-57.5	-60.8	3.7	3.46e-05	0	31	104	33504100352	80	22727
2026-01-09 20:06:07.81	331.40	5.82	-57.5	-60.8	3.6	3.46e-05	0	31	104	33504100352	80	22743
2026-01-09 20:06:08.81	331.52	5.75	-57.5	-60.8	3.6	3.46e-05	0	31	104	33504100352	80	22636
2026-01-09 20:06:09.80	331.63	5.68	-57.5	-60.7	3.7	3.46e-05	0	31	104	33504100352	80	22580
2026-01-09 20:06:10.80	331.75	5.61	-57.4	-60.6	3.7	3.46e-05	0	31	104	33504100352	80	22129
2026-01-09 20:06:11.79	331.87	5.54	-57.4	-60.6	3.6	3.46e-05	0	31	104	33504100352	80	22297
2026-01-09 20:06:12.79	331.98	5.47	-57.5	-60.7	3.7	3.46e-05	0	31	104	33504100352	80	22408
2026-01-09 20:06:13.79	332.10	5.40	-57.3	-60.6	3.7	3.46e-05	0	31	104	33504100352	80	22110
2026-01-09 20:06:14.77	332.21	5.34	-57.5	-60.7	3.6	3.46e-05	0	31	104	33504100352	80	22596
2026-01-09 20:06:15.77	332.33	5.27	-57.3	-60.6	3.7	3.46e-05	0	31	104	33504100352	80	22185
2026-01-09 20:06:16.77	332.44	5.20	-57.4	-60.6	3.7	3.46e-05	0	31	104	33504100352	80	22170
2026-01-09 20:06:17.76	332.55	5.13	-57.3	-60.5	3.6	3.46e-05	0	31	104	33504100352	80	21943
2026-01-09 20:06:18.75	332.66	5.06	-57.4	-60.6	3.7	3.46e-05	0	31	104	33504100352	80	22307
2026-01-09 20:06:19.74	332.77	5.00	-57.5	-60.8	3.7	3.46e-05	0	31	104	33504100352	80	22648
2026-01-09 20:06:20.74	332.89	4.93	-58.0	-61.2	3.7	3.46e-05	0	31	104	33504100352	81	22397
2026-01-09 20:06:21.74	333.00	4.86	-58.4	-61.6	3.6	3.46e-05	0	31	104	33504100352	82	22149
2026-01-09 20:06:22.74	333.11	4.79	-58.7	-61.9	3.7	3.46e-05	0	31	104	33504100352	83	21686
2026-01-09 20:06:23.73	333.22	4.73	-58.8	-62.0	3.7	3.46e-05	0	31	104	33504100352	83	21978
2026-01-09 20:06:24.73	333.32	4.66	-59.0	-62.3	3.6	3.46e-05	0	31	104	33504100352	83	22638
2026-01-09 20:06:25.73	333.43	4.59	-59.1	-62.3	3.6	3.46e-05	0	31	104	33504100352	83	22777
2026-01-09 20:06:26.72	333.54	4.53	-59.3	-62.6	3.6	3.46e-05	0	31	104	33504100352	84	22146
2026-01-09 20:06:27.72	333.65	4.46	-59.4	-62.6	3.7	3.46e-05	0	31	104	33504100352	84	22364
2026-01-09 20:06:28.72	333.75	4.39	-59.5	-62.7	3.7	3.46e-05	0	31	104	33504100352	84	22401
2026-01-09 20:06:29.71	333.86	4.33	-59.5	-62.8	3.6	3.46e-05	0	31	104	33504100352	84	22640
2026-01-09 20:06:30.70	333.96	4.26	-59.5	-62.8	3.7	3.46e-05	0	31	104	33504100352	84	22633
2026-01-09 20:06:31.69	334.07	4.20	-59.6	-62.7	3.7	3.46e-05	0	31	104	33504100352	84	22590
2026-01-09 20:06:32.67	334.17	4.13	-59.6	-62.7	3.6	3.46e-05	0	31	104	33504100352	84	22605
2026-01-09 20:06:33.67	334.27	4.07	-59.6	-62.8	3.7	3.46e-05	0	31	104	33504100352	84	22698
2026-01-09 20:06:34.67	334.37	4.00	-59.6	-62.8	3.7	3.46e-05	0	31	104	33504100352	84	22774
2026-01-09 20:06:35.66	334.48	3.94	-59.6	-62.9	3.6	3.46e-05	0	31	104	33504100352	84	22934
2026-01-09 20:06:36.66	334.58	3.87	-59.6	-62.8	3.6	3.46e-05	0	31	104	33504100352	84	22750
2026-01-09 20:06:37.65	334.68	3.81	-59.6	-62.8	3.7	3.46e-05	0	31	104	33504100352	84	22727
2026-01-09 20:06:38.65	334.78	3.74	-59.5	-62.7	3.7	3.46e-05	0	30	104	33504100352	84	22587
2026-01-09 20:06:39.65	334.88	3.68	-59.5	-62.7	3.7	3.46e-05	0	31	104	33504100352	84	22458
2026-01-09 20:06:40.65	334.98	3.61	-59.5	-62.8	3.6	3.46e-05	0	31	104	33504100352	84	22687
2026-01-09 20:06:41.65	335.08	3.55	-59.5	-62.7	3.6	3.46e-05	0	30	104	33504100352	84	22610
2026-01-09 20:06:42.64	335.18	3.48	-59.4	-62.6	3.7	3.46e-05	0	31	104	33504100352	84	22337
2026-01-09 20:06:43.63	335.27	3.42	-59.4	-62.6	3.7	3.46e-05	0	30	104	33504100352	84	22269
2026-01-09 20:06:44.64	335.37	3.36	-59.4	-62.6	3.7	3.46e-05	0	31	104	33504100352	84	22172
2026-01-09 20:06:45.63	335.47	3.29	-59.4	-62.6	3.7	3.46e-05	0	30	104	33504100352	84	22245
2026-01-09 20:06:46.63	335.56	3.23	-59.4	-62.6	3.7	3.46e-05	0	30	104	33504100352	84	22113
2026-01-09 20:06:47.63	335.66	3.16	-59.4	-62.7	3.7	3.46e-05	0	31	104	33504100352	84	22389
2026-01-09 20:06:48.62	335.76	3.10	-59.4	-62.6	3.7	3.46e-05	0	30	104	33504100352	84	22211
2026-01-09 20:06:49.62	335.85	3.04	-59.4	-62.6	3.6	3.46e-05	0	30	104	33504100352	84	22255
2026-01-09 20:06:50.62	335.95	2.97	-59.3	-62.5	3.7	3.46e-05	0	30	104	33504100352	84	22061
2026-01-09 20:06:51.62	336.04	2.91	-59.3	-62.5	3.7	3.46e-05	0	30	104	33504100352	84	21998
2026-01-09 20:06:52.62	336.13	2.85	-59.3	-62.6	3.6	3.46e-05	0	31	104	33504100352	84	22211
2026-01-09 20:06:53.62	336.23	2.78	-59.3	-62.5	3.7	3.46e-05	0	30	104	33504100352	84	21954
2026-01-09 20:06:54.63	336.32	2.72	-59.3	-62.6	3.6	3.46e-05	0	30	104	33504100352	84	22121
2026-01-09 20:06:55.62	336.41	2.66	-59.3	-62.5	3.7	3.46e-05	0	30	104	33504100352	84	21977
2026-01-09 20:06:56.62	336.50	2.60	-59.3	-62.5	3.7	3.46e-05	0	30	104	33504100352	84	21928
2026-01-09 20:06:57.62	336.59	2.53	-59.3	-62.5	3.7	3.46e-05	0	31	104	33504100352	84	21889
2026-01-09 20:06:58.61	336.68	2.47	-59.3	-62.5	3.7	3.46e-05	0	30	104	33504100352	84	22044
2026-01-09 20:06:59.61	336.77	2.41	-59.3	-62.5	3.6	3.46e-05	0	30	104	33504100352	84	21973
2026-01-09 20:07:00.60	336.86	2.35	-59.3	-62.5	3.7	3.46e-05	0	30	104	33504100352	84	21992
2026-01-09 20:07:01.61	336.95	2.29	-59.3	-62.5	3.6	3.46e-05	0	30	104	33504100352	84	22040
2026-01-09 20:07:02.61	337.04	2.23	-59.3	-62.5	3.7	3.46e-05	0	30	104	33504100352	84	21948
2026-01-09 20:07:03.61	337.13	2.16	-59.2	-62.5	3.6	3.46e-05	0	30	104	33504100352	84	21960
2026-01-09 20:07:04.61	337.22	2.10	-59.2	-62.4	3.7	3.46e-05	0	30	104	33504100352	84	21761
2026-01-09 20:07:05.62	337.31	2.04	-59.3	-62.5	3.7	3.46e-05	0	30	104	33504100352	84	21857
2026-01-09 20:07:06.62	337.40	1.98	-59.2	-62.5	3.6	3.46e-05	0	30	104	33504100352	84	21916
2026-01-09 20:07:07.63	337.48	1.92	-59.2	-62.4	3.6	3.46e-05	0	30	104	33504100352	84	21831

#Closed at: 2026-01-09 20:07:08
#Recorded file [33504 MB]: D:/lorett/data/31004_260109_225730.dat