passes_logs/2026/01/09/R3.2S_Murmansk/R3.2S_Murmansk__20260109_012354_SUOMI_NPP_rec.log

#Pass ID: 20260109_012354_SUOMI NPP
#Satellite: SUOMI NPP
#Configuration: NPP
#almurnet v.1.7.20251203
#Start time: 2026-01-09 01:23:54

#Version: 2.2.20231116
#Station: R3.2S_Murmansk
#Location: 33.079688 lon 68.888172 lat
#TLE: 1 37849U 11061A   26008.05542337  .00000108  00000+0  71976-4 0  9997
#TLE: 2 37849  98.7805 310.1641 0002540  75.6410 284.5048 14.19523335735721

#Time	Az	El	Level	Level2	SNR	BER	BlckErr	Temp	State	Recorded	gain1	gain2
2026-01-09 01:23:54.32	27.24	2.02	-57.1	-73.0	3.8	1.49e+00	0	22	0	0	80	22440
2026-01-09 01:23:55.32	27.23	2.08	-57.0	-73.0	3.8	1.49e+00	0	22	104	0	79	23706
2026-01-09 01:23:56.31	27.22	2.15	-57.0	-73.0	3.8	1.49e+00	0	22	104	0	79	23774
2026-01-09 01:23:57.30	27.20	2.21	-57.0	-73.0	3.8	1.49e+00	0	22	104	0	79	23706
2026-01-09 01:23:58.30	27.19	2.27	-57.0	-73.0	3.8	1.49e+00	0	22	104	0	79	23764
2026-01-09 01:23:59.30	27.18	2.34	-57.0	-73.0	3.8	1.49e+00	0	22	104	0	79	23748
2026-01-09 01:24:00.30	27.16	2.40	-57.0	-73.0	3.8	1.49e+00	0	22	104	0	79	23794
2026-01-09 01:24:01.30	27.15	2.47	-57.0	-73.0	3.8	1.49e+00	0	22	104	0	79	23758
2026-01-09 01:24:02.30	27.14	2.53	-57.0	-73.0	3.8	1.49e+00	0	22	104	0	79	23774
2026-01-09 01:24:03.30	27.13	2.60	-57.1	-73.0	3.8	1.49e+00	0	22	104	0	79	23800
2026-01-09 01:24:04.30	27.11	2.66	-57.0	-73.0	3.8	1.49e+00	0	22	104	0	79	23741
2026-01-09 01:24:05.30	27.10	2.73	-57.0	-73.0	3.8	1.49e+00	0	22	104	0	79	23600
2026-01-09 01:24:06.31	27.09	2.79	-57.1	-73.0	3.8	1.49e+00	0	22	104	0	79	23676
2026-01-09 01:24:07.30	27.07	2.86	-57.0	-72.9	3.8	1.49e+00	0	22	104	0	79	23400
2026-01-09 01:24:08.30	27.06	2.92	-57.0	-72.8	3.8	1.49e+00	0	22	104	0	79	23266
2026-01-09 01:24:09.31	27.04	2.99	-57.0	-72.8	3.8	1.49e+00	0	22	104	0	79	23049
2026-01-09 01:24:10.30	27.03	3.06	-57.0	-72.7	3.8	1.49e+00	0	22	104	0	79	22963
2026-01-09 01:24:11.30	27.02	3.12	-57.0	-72.6	3.8	1.49e+00	0	22	104	0	79	22697
2026-01-09 01:24:12.31	27.00	3.19	-57.0	-72.5	3.8	1.49e+00	0	22	104	0	79	22400
2026-01-09 01:24:13.31	26.99	3.25	-57.0	-72.3	3.8	1.49e+00	0	22	104	0	79	21835
2026-01-09 01:24:14.31	26.98	3.32	-57.0	-72.1	3.8	1.49e+00	0	22	104	0	79	21477
2026-01-09 01:24:15.30	26.96	3.39	-57.0	-71.8	3.8	1.49e+00	0	22	104	0	79	20574
2026-01-09 01:24:16.31	26.95	3.45	-57.0	-71.8	3.8	1.49e+00	0	22	104	0	79	20766
2026-01-09 01:24:17.30	26.93	3.52	-57.0	-71.7	3.8	1.49e+00	0	22	104	0	79	20472
2026-01-09 01:24:18.29	26.92	3.59	-57.0	-71.9	3.8	1.49e+00	0	22	104	0	79	20880
2026-01-09 01:24:19.29	26.90	3.65	-57.0	-71.9	3.8	1.49e+00	0	22	104	0	79	20906
2026-01-09 01:24:20.28	26.89	3.72	-57.0	-71.9	3.8	1.49e+00	0	22	104	0	79	20865
2026-01-09 01:24:21.28	26.87	3.79	-57.0	-72.1	3.8	1.49e+00	0	23	104	0	79	21497
2026-01-09 01:24:22.28	26.86	3.86	-57.0	-72.3	3.8	1.49e+00	0	22	104	0	79	21770
2026-01-09 01:24:23.29	26.85	3.93	-57.0	-72.2	3.8	1.49e+00	0	23	104	0	79	21687
2026-01-09 01:24:24.29	26.83	3.99	-57.0	-72.0	3.8	1.49e+00	0	23	104	0	79	21219
2026-01-09 01:24:25.29	26.82	4.06	-57.0	-71.7	3.8	1.49e+00	0	23	104	0	79	20391
2026-01-09 01:24:26.29	26.80	4.13	-57.0	-71.1	3.8	1.49e+00	0	23	104	0	79	19080
2026-01-09 01:24:27.29	26.78	4.20	-56.9	-70.2	4.0	1.48e+00	0	23	104	0	79	17085
2026-01-09 01:24:28.29	26.77	4.27	-56.8	-69.0	4.3	1.40e+00	90	23	0	0	79	15022
2026-01-09 01:24:29.29	26.75	4.34	-56.8	-68.3	4.6	1.22e+00	0	23	0	1048576	79	13760
2026-01-09 01:24:30.29	26.74	4.41	-56.7	-67.4	5.0	8.57e-01	0	23	0	3145728	79	12401
2026-01-09 01:24:31.30	26.72	4.48	-56.6	-66.3	5.5	5.29e-01	0	23	0	5242880	79	10994
2026-01-09 01:24:32.29	26.71	4.54	-56.5	-65.6	6.1	3.28e-01	0	23	0	7340032	79	10167
2026-01-09 01:24:33.30	26.69	4.61	-56.5	-65.5	6.1	2.61e-01	0	23	0	8388608	79	10001
2026-01-09 01:24:34.30	26.68	4.68	-56.4	-65.0	6.5	2.18e-01	0	23	0	10485760	79	9439
2026-01-09 01:24:35.30	26.66	4.75	-56.3	-64.4	7.0	1.55e-01	0	23	0	12582912	79	8836
2026-01-09 01:24:36.29	26.64	4.82	-56.4	-64.6	6.8	1.38e-01	0	23	0	14680064	79	9062
2026-01-09 01:24:37.29	26.63	4.89	-56.3	-64.4	7.0	1.23e-01	0	23	0	16777216	79	8856
2026-01-09 01:24:38.30	26.61	4.97	-56.3	-64.4	7.0	1.24e-01	0	23	0	17825792	79	8783
2026-01-09 01:24:39.30	26.60	5.04	-56.3	-64.4	7.0	1.41e-01	0	23	0	19922944	79	8762
2026-01-09 01:24:40.30	26.58	5.11	-57.0	-66.6	5.7	1.78e-01	0	23	0	22020096	79	11352
2026-01-09 01:24:41.30	26.56	5.18	-56.7	-65.2	6.5	3.80e-01	0	23	0	24117248	79	9682
2026-01-09 01:24:42.30	26.55	5.25	-56.5	-67.3	4.8	9.90e-01	0	23	0	25165824	79	12331
2026-01-09 01:24:43.29	26.53	5.32	-55.6	-61.1	10.1	1.07e-02	0	23	0	27262976	76	7193
2026-01-09 01:24:44.29	26.51	5.39	-56.9	-67.4	4.9	1.14e+00	0	23	0	28311552	79	12511
2026-01-09 01:24:45.29	26.50	5.46	-55.0	-59.5	11.3	1.65e-03	0	23	0	30408704	76	5987
2026-01-09 01:24:46.28	26.48	5.54	-54.7	-58.8	12.0	3.96e-05	0	23	0	32505856	76	5493
2026-01-09 01:24:47.28	26.46	5.61	-54.6	-58.8	11.8	1.44e-05	0	23	0	34603008	75	5834
2026-01-09 01:24:48.28	26.44	5.68	-54.5	-58.5	12.1	1.83e-05	0	23	0	35651584	75	5625
2026-01-09 01:24:49.28	26.43	5.75	-54.2	-58.0	12.5	2.20e-06	0	23	0	37748736	75	5290
2026-01-09 01:24:50.28	26.41	5.83	-53.7	-57.1	13.1	0.00e+00	0	23	0	39845888	74	5047
2026-01-09 01:24:51.49	26.39	5.91	-53.8	-57.2	13.0	0.00e+00	0	23	0	41943040	74	5154
2026-01-09 01:24:52.35	26.37	5.98	-53.8	-57.2	13.0	0.00e+00	0	23	0	42991616	74	5117
2026-01-09 01:24:53.48	26.35	6.06	-53.7	-57.0	13.1	0.00e+00	0	23	0	45088768	74	5039
2026-01-09 01:24:54.34	26.34	6.12	-53.5	-56.7	13.3	0.00e+00	0	23	0	47185920	73	5120
2026-01-09 01:24:55.48	26.32	6.21	-53.1	-56.2	13.5	0.00e+00	0	23	0	49283072	72	5105
2026-01-09 01:24:56.34	26.30	6.27	-53.0	-55.9	13.7	0.00e+00	0	23	0	51380224	72	4953
2026-01-09 01:24:57.48	26.28	6.36	-53.0	-55.9	13.7	0.00e+00	0	23	0	53477376	72	4964
2026-01-09 01:24:58.34	26.26	6.42	-52.9	-55.7	13.8	0.00e+00	0	23	0	54525952	72	4856
2026-01-09 01:24:59.49	26.24	6.51	-52.6	-55.3	14.0	0.00e+00	0	23	0	56623104	71	4892
2026-01-09 01:25:00.34	26.23	6.57	-52.5	-55.1	14.1	0.00e+00	0	23	0	58720256	71	4808
2026-01-09 01:25:01.48	26.21	6.66	-52.5	-55.2	14.0	0.00e+00	0	23	0	60817408	71	4855
2026-01-09 01:25:02.34	26.19	6.72	-52.7	-55.4	13.9	0.00e+00	0	23	0	61865984	71	4956
2026-01-09 01:25:03.48	26.17	6.81	-52.6	-55.3	13.9	0.00e+00	0	23	0	63963136	71	4925
2026-01-09 01:25:04.34	26.15	6.87	-52.6	-55.2	14.0	0.00e+00	0	23	0	66060288	71	4860
2026-01-09 01:25:05.48	26.13	6.96	-52.5	-55.1	14.1	0.00e+00	0	23	0	68157440	71	4767
2026-01-09 01:25:06.33	26.11	7.02	-52.6	-55.2	14.0	0.00e+00	0	23	0	69206016	71	4862
2026-01-09 01:25:07.47	26.09	7.11	-52.6	-55.3	14.0	0.00e+00	0	23	0	71303168	71	4912
2026-01-09 01:25:08.33	26.07	7.18	-52.5	-55.2	14.1	0.00e+00	0	23	0	73400320	71	4819
2026-01-09 01:25:09.47	26.05	7.27	-52.5	-55.0	14.1	0.00e+00	0	23	0	75497472	71	4759
2026-01-09 01:25:10.32	26.03	7.33	-52.5	-55.1	14.1	0.00e+00	0	23	0	76546048	71	4781
2026-01-09 01:25:11.46	26.01	7.42	-52.4	-54.9	14.2	0.00e+00	0	23	0	79691776	71	4675
2026-01-09 01:25:12.32	25.99	7.49	-52.2	-54.7	14.4	0.00e+00	0	23	0	80740352	71	4564
2026-01-09 01:25:13.46	25.97	7.58	-52.3	-54.9	14.3	0.00e+00	0	23	0	82837504	71	4661
2026-01-09 01:25:14.31	25.95	7.64	-52.4	-55.0	14.2	0.00e+00	0	23	0	84934656	71	4713
2026-01-09 01:25:15.44	25.93	7.73	-52.2	-54.7	14.4	0.00e+00	0	23	0	87031808	71	4580
2026-01-09 01:25:16.30	25.91	7.80	-52.3	-54.8	14.3	0.00e+00	0	23	0	88080384	71	4649
2026-01-09 01:25:17.44	25.89	7.89	-52.2	-54.6	14.4	0.00e+00	0	23	0	90177536	71	4529
2026-01-09 01:25:18.29	25.87	7.95	-52.3	-54.8	14.3	0.00e+00	0	23	0	92274688	71	4604
2026-01-09 01:25:19.43	25.85	8.05	-52.4	-54.8	14.3	0.00e+00	0	23	0	94371840	71	4648
2026-01-09 01:25:20.29	25.83	8.11	-52.2	-54.7	14.4	0.00e+00	0	23	0	95420416	71	4553
2026-01-09 01:25:21.43	25.81	8.20	-52.4	-54.8	14.3	0.00e+00	0	23	0	97517568	71	4651
2026-01-09 01:25:22.29	25.79	8.27	-52.4	-55.0	14.2	0.00e+00	0	23	0	99614720	71	4719
2026-01-09 01:25:23.43	25.76	8.36	-52.3	-54.8	14.4	0.00e+00	0	23	0	101711872	71	4602
2026-01-09 01:25:24.29	25.74	8.43	-52.1	-54.5	14.3	0.00e+00	0	23	0	102760448	70	4746
2026-01-09 01:25:25.43	25.72	8.53	-52.1	-54.5	14.4	0.00e+00	0	23	0	104857600	70	4733
2026-01-09 01:25:26.28	25.70	8.60	-52.5	-54.9	14.1	0.00e+00	0	23	0	106954752	70	4972
2026-01-09 01:25:27.43	25.67	8.69	-52.2	-54.7	14.2	0.00e+00	0	23	0	109051904	70	4815
2026-01-09 01:25:28.28	25.66	8.76	-52.3	-54.7	14.2	0.00e+00	0	23	0	111149056	70	4864
2026-01-09 01:25:29.42	25.63	8.85	-52.1	-54.5	14.3	0.00e+00	0	23	0	113246208	70	4741
2026-01-09 01:25:30.28	25.61	8.92	-52.2	-54.6	14.3	0.00e+00	0	23	0	114294784	70	4791
2026-01-09 01:25:31.42	25.58	9.02	-52.1	-54.4	14.4	0.00e+00	0	23	0	116391936	70	4684
2026-01-09 01:25:32.27	25.57	9.09	-52.1	-54.4	14.4	0.00e+00	0	23	0	118489088	70	4683
2026-01-09 01:25:33.41	25.54	9.18	-51.9	-54.1	14.6	0.00e+00	0	23	0	120586240	70	4511
2026-01-09 01:25:34.26	25.52	9.25	-52.0	-54.3	14.5	0.00e+00	0	23	0	121634816	70	4606
2026-01-09 01:25:35.41	25.49	9.35	-52.0	-54.3	14.4	0.00e+00	0	23	0	123731968	70	4633
2026-01-09 01:25:36.26	25.47	9.42	-51.9	-54.1	14.6	0.00e+00	0	23	0	125829120	70	4517
2026-01-09 01:25:37.42	25.44	9.52	-51.9	-54.1	14.6	0.00e+00	0	23	0	127926272	70	4529
2026-01-09 01:25:38.27	25.42	9.59	-51.9	-54.1	14.6	0.00e+00	0	23	0	128974848	70	4524
2026-01-09 01:25:39.42	25.40	9.68	-51.9	-54.1	14.6	0.00e+00	0	23	0	131072000	70	4508
2026-01-09 01:25:40.27	25.38	9.76	-52.0	-54.3	14.5	0.00e+00	0	23	0	133169152	70	4609
2026-01-09 01:25:41.41	25.35	9.85	-51.8	-54.0	14.6	0.00e+00	0	23	0	135266304	70	4482
2026-01-09 01:25:42.27	25.33	9.93	-51.8	-54.1	14.6	0.00e+00	0	23	0	137363456	70	4501
2026-01-09 01:25:43.40	25.30	10.02	-51.8	-54.0	14.6	0.00e+00	0	23	0	139460608	70	4488
2026-01-09 01:25:44.26	25.28	10.10	-51.6	-53.7	14.6	0.00e+00	0	23	0	140509184	69	4587
2026-01-09 01:25:45.40	25.25	10.20	-51.6	-53.8	14.6	0.00e+00	0	23	0	142606336	69	4627
2026-01-09 01:25:46.26	25.23	10.27	-51.7	-53.9	14.5	0.00e+00	0	23	0	144703488	69	4681
2026-01-09 01:25:47.39	25.20	10.37	-51.7	-53.9	14.5	0.00e+00	0	23	0	146800640	69	4670
2026-01-09 01:25:48.25	25.18	10.44	-51.5	-53.6	14.7	0.00e+00	0	24	0	147849216	69	4522
2026-01-09 01:25:49.39	25.15	10.54	-51.4	-53.5	14.8	0.00e+00	0	23	0	149946368	69	4459
2026-01-09 01:25:50.25	25.13	10.62	-51.4	-53.5	14.7	0.00e+00	0	24	0	152043520	69	4479
2026-01-09 01:25:51.38	25.10	10.72	-51.4	-53.4	14.8	0.00e+00	0	23	0	154140672	69	4439
2026-01-09 01:25:52.24	25.07	10.79	-51.3	-53.3	14.9	0.00e+00	0	23	0	155189248	69	4359
2026-01-09 01:25:53.38	25.04	10.90	-51.3	-53.3	14.8	0.00e+00	0	23	0	158334976	69	4389
2026-01-09 01:25:54.24	25.02	10.97	-51.2	-53.2	14.9	0.00e+00	0	23	0	159383552	69	4339
2026-01-09 01:25:55.38	24.99	11.07	-51.1	-53.1	14.8	0.00e+00	0	23	0	161480704	68	4503
2026-01-09 01:25:56.24	24.97	11.15	-51.1	-53.1	14.8	0.00e+00	0	23	0	163577856	68	4517
2026-01-09 01:25:57.38	24.94	11.25	-51.0	-52.9	14.9	0.00e+00	0	23	0	165675008	68	4412
2026-01-09 01:25:58.24	24.91	11.33	-51.0	-53.0	14.9	0.00e+00	0	24	0	166723584	68	4452
2026-01-09 01:25:59.39	24.88	11.44	-50.9	-52.9	14.9	0.00e+00	0	24	0	168820736	68	4395
2026-01-09 01:26:00.25	24.86	11.51	-50.8	-52.7	15.0	0.00e+00	0	23	0	170917888	68	4339
2026-01-09 01:26:01.38	24.82	11.62	-50.8	-52.8	15.0	0.00e+00	0	23	0	173015040	68	4350
2026-01-09 01:26:02.24	24.80	11.70	-50.9	-52.8	15.0	0.00e+00	0	24	0	174063616	68	4384
2026-01-09 01:26:03.38	24.77	11.80	-50.8	-52.7	15.1	0.00e+00	0	23	0	176160768	68	4303
2026-01-09 01:26:04.24	24.74	11.88	-50.6	-52.4	15.0	0.00e+00	0	23	0	178257920	67	4426
2026-01-09 01:26:05.37	24.71	11.98	-50.5	-52.3	15.0	0.00e+00	0	23	0	180355072	67	4383
2026-01-09 01:26:06.22	24.69	12.06	-50.5	-52.4	15.0	0.00e+00	0	23	0	181403648	67	4419
2026-01-09 01:26:07.36	24.65	12.17	-50.5	-52.3	15.0	0.00e+00	0	23	0	183500800	67	4386
2026-01-09 01:26:08.21	24.63	12.25	-50.4	-52.3	15.1	0.00e+00	0	23	0	185597952	67	4346
2026-01-09 01:26:09.35	24.59	12.36	-50.4	-52.2	15.1	0.00e+00	0	23	0	187695104	67	4323
2026-01-09 01:26:10.21	24.57	12.44	-50.4	-52.2	15.1	0.00e+00	0	24	0	189792256	67	4338
2026-01-09 01:26:11.34	24.53	12.55	-50.4	-52.2	15.1	0.00e+00	0	23	0	191889408	67	4338
2026-01-09 01:26:12.20	24.51	12.63	-50.4	-52.2	15.1	0.00e+00	0	23	0	192937984	67	4316
2026-01-09 01:26:13.34	24.47	12.74	-50.3	-52.1	15.1	0.00e+00	0	24	0	195035136	67	4271
2026-01-09 01:26:14.19	24.45	12.82	-50.4	-52.2	15.1	0.00e+00	0	23	0	197132288	67	4309
2026-01-09 01:26:15.33	24.41	12.93	-50.4	-52.2	15.1	0.00e+00	0	23	0	199229440	67	4325
2026-01-09 01:26:16.19	24.39	13.01	-50.3	-52.1	15.1	0.00e+00	0	23	0	200278016	67	4275
2026-01-09 01:26:17.33	24.35	13.12	-50.3	-52.1	15.1	0.00e+00	0	24	0	202375168	67	4284
2026-01-09 01:26:18.18	24.32	13.20	-50.3	-52.1	15.1	0.00e+00	0	23	0	204472320	67	4273
2026-01-09 01:26:19.32	24.29	13.31	-50.3	-52.1	15.2	0.00e+00	0	24	0	206569472	67	4263
2026-01-09 01:26:20.17	24.26	13.40	-50.2	-52.0	15.2	0.00e+00	0	23	0	207618048	67	4221
2026-01-09 01:26:21.32	24.22	13.51	-50.3	-52.1	15.2	0.00e+00	0	24	0	209715200	67	4245
2026-01-09 01:26:22.17	24.19	13.60	-50.4	-52.2	15.1	0.00e+00	0	23	0	211812352	67	4330
2026-01-09 01:26:23.31	24.16	13.71	-50.3	-52.0	15.2	0.00e+00	0	24	0	213909504	67	4242
2026-01-09 01:26:24.17	24.13	13.79	-50.2	-52.0	15.2	0.00e+00	0	24	0	216006656	67	4211
2026-01-09 01:26:25.31	24.09	13.91	-50.3	-52.1	15.1	0.00e+00	0	23	0	218103808	67	4285
2026-01-09 01:26:26.16	24.06	13.99	-50.3	-52.0	15.2	0.00e+00	0	24	0	219152384	67	4236
2026-01-09 01:26:27.30	24.02	14.11	-50.3	-52.1	15.2	0.00e+00	0	24	0	221249536	67	4248
2026-01-09 01:26:28.16	23.99	14.20	-50.3	-52.1	15.2	0.00e+00	0	23	0	223346688	67	4269
2026-01-09 01:26:29.29	23.95	14.31	-50.4	-52.2	15.1	0.00e+00	0	24	0	225443840	67	4331
2026-01-09 01:26:30.14	23.93	14.40	-50.3	-52.1	15.1	0.00e+00	0	24	0	226492416	67	4283
2026-01-09 01:26:31.28	23.89	14.51	-50.4	-52.2	15.1	0.00e+00	0	24	0	228589568	67	4312
2026-01-09 01:26:32.13	23.86	14.60	-50.3	-52.1	15.1	0.00e+00	0	24	0	230686720	67	4274
2026-01-09 01:26:33.27	23.81	14.72	-50.3	-52.1	15.1	0.00e+00	0	24	0	232783872	67	4271
2026-01-09 01:26:34.12	23.78	14.81	-50.4	-52.2	15.1	0.00e+00	0	24	0	233832448	67	4319
2026-01-09 01:26:35.26	23.74	14.93	-50.4	-52.3	15.0	0.00e+00	0	24	0	235929600	67	4342
2026-01-09 01:26:36.12	23.71	15.02	-50.5	-52.4	15.0	0.00e+00	0	24	0	238026752	67	4392
2026-01-09 01:26:37.26	23.67	15.14	-50.4	-52.2	15.1	0.00e+00	0	24	0	240123904	67	4329
2026-01-09 01:26:38.12	23.64	15.23	-50.4	-52.3	15.1	0.00e+00	0	24	0	241172480	67	4358
2026-01-09 01:26:39.27	23.60	15.35	-50.4	-52.2	15.1	0.00e+00	0	24	0	244318208	67	4319
2026-01-09 01:26:40.12	23.56	15.44	-50.4	-52.3	15.1	0.00e+00	0	24	0	245366784	67	4349
2026-01-09 01:26:41.26	23.52	15.56	-50.4	-52.3	15.1	0.00e+00	0	24	0	247463936	67	4353
2026-01-09 01:26:42.12	23.49	15.65	-50.4	-52.2	15.1	0.00e+00	0	24	0	249561088	67	4329
2026-01-09 01:26:43.26	23.44	15.78	-50.3	-52.1	15.2	0.00e+00	0	24	0	251658240	67	4261
2026-01-09 01:26:44.12	23.41	15.87	-50.4	-52.2	15.1	0.00e+00	0	24	0	252706816	67	4329
2026-01-09 01:26:45.26	23.37	15.99	-50.5	-52.3	15.0	0.00e+00	0	23	0	254803968	67	4384
2026-01-09 01:26:46.11	23.33	16.09	-50.4	-52.3	15.1	0.00e+00	0	24	0	256901120	67	4351
2026-01-09 01:26:47.25	23.29	16.21	-50.5	-52.3	15.0	0.00e+00	0	24	0	258998272	67	4361
2026-01-09 01:26:48.11	23.25	16.30	-50.5	-52.3	15.1	0.00e+00	0	24	0	260046848	67	4364
2026-01-09 01:26:49.25	23.21	16.43	-50.5	-52.3	15.0	0.00e+00	0	24	0	262144000	67	4384
2026-01-09 01:26:50.11	23.17	16.53	-50.4	-52.3	15.1	0.00e+00	0	24	0	264241152	67	4344
2026-01-09 01:26:51.25	23.13	16.65	-50.4	-52.2	15.1	0.00e+00	0	24	0	266338304	67	4325
2026-01-09 01:26:52.11	23.09	16.75	-50.4	-52.2	15.1	0.00e+00	0	24	0	267386880	67	4325
2026-01-09 01:26:53.25	23.04	16.88	-50.6	-52.5	14.9	0.00e+00	0	24	0	270532608	67	4479
2026-01-09 01:26:54.11	23.01	16.98	-50.5	-52.4	15.0	0.00e+00	0	24	0	271581184	67	4392
2026-01-09 01:26:55.26	22.96	17.11	-50.5	-52.4	15.0	0.00e+00	0	24	0	273678336	67	4406
2026-01-09 01:26:56.12	22.92	17.20	-50.5	-52.4	15.0	0.00e+00	0	24	0	275775488	67	4402
2026-01-09 01:26:57.26	22.87	17.34	-50.6	-52.5	15.0	0.00e+00	0	24	0	277872640	67	4454
2026-01-09 01:26:58.12	22.84	17.43	-50.5	-52.4	15.0	0.00e+00	0	24	0	278921216	67	4406
2026-01-09 01:26:59.26	22.79	17.57	-50.5	-52.3	15.1	0.00e+00	0	24	0	281018368	67	4383
2026-01-09 01:27:00.12	22.75	17.67	-50.5	-52.3	15.1	0.00e+00	0	24	0	283115520	67	4356
2026-01-09 01:27:01.25	22.70	17.80	-50.7	-52.5	15.0	0.00e+00	0	23	0	285212672	67	4483
2026-01-09 01:27:02.10	22.66	17.90	-50.7	-52.5	15.0	0.00e+00	0	24	0	286261248	67	4489
2026-01-09 01:27:03.24	22.61	18.03	-50.6	-52.4	15.0	0.00e+00	0	24	0	288358400	67	4412
2026-01-09 01:27:04.10	22.57	18.13	-50.6	-52.4	15.0	0.00e+00	0	24	0	290455552	67	4435
2026-01-09 01:27:05.23	22.52	18.27	-50.5	-52.3	15.1	0.00e+00	0	24	0	292552704	67	4373
2026-01-09 01:27:06.09	22.48	18.37	-50.4	-52.2	15.1	0.00e+00	0	24	0	294649856	67	4307
2026-01-09 01:27:07.24	22.42	18.51	-50.3	-52.1	15.2	0.00e+00	0	24	0	296747008	67	4246
2026-01-09 01:27:08.10	22.38	18.61	-50.3	-52.0	15.2	0.00e+00	0	24	0	297795584	67	4222
2026-01-09 01:27:09.24	22.33	18.75	-50.4	-52.2	15.1	0.00e+00	0	24	0	299892736	67	4322
2026-01-09 01:27:10.10	22.29	18.86	-50.3	-52.1	15.2	0.00e+00	0	24	0	301989888	67	4265
2026-01-09 01:27:11.24	22.23	18.99	-50.3	-52.0	15.2	0.00e+00	0	24	0	304087040	67	4226
2026-01-09 01:27:12.08	22.19	19.10	-50.5	-52.3	15.1	0.00e+00	0	24	0	305135616	67	4349
2026-01-09 01:27:13.22	22.14	19.24	-50.3	-52.1	15.2	0.00e+00	0	24	0	307232768	67	4243
2026-01-09 01:27:14.07	22.09	19.34	-50.3	-52.1	15.2	0.00e+00	0	24	0	309329920	67	4259
2026-01-09 01:27:15.21	22.04	19.49	-50.3	-52.0	15.2	0.00e+00	0	24	0	311427072	67	4234
2026-01-09 01:27:16.07	21.99	19.59	-50.3	-52.0	15.3	0.00e+00	0	24	0	312475648	67	4205
2026-01-09 01:27:17.21	21.93	19.74	-50.2	-51.9	15.1	0.00e+00	0	24	0	314572800	66	4431
2026-01-09 01:27:18.07	21.89	19.85	-50.3	-52.0	15.1	0.00e+00	0	24	0	316669952	66	4472
2026-01-09 01:27:19.21	21.83	19.99	-50.3	-52.1	15.0	0.00e+00	0	24	0	318767104	66	4519
2026-01-09 01:27:20.06	21.79	20.10	-50.6	-52.4	14.9	0.00e+00	0	24	0	319815680	66	4681
2026-01-09 01:27:21.19	21.73	20.24	-50.4	-52.2	15.0	0.00e+00	0	24	0	322961408	66	4580
2026-01-09 01:27:22.05	21.68	20.36	-50.2	-52.0	15.1	0.00e+00	0	24	0	324009984	66	4447
2026-01-09 01:27:23.19	21.62	20.50	-50.1	-51.8	15.2	0.00e+00	0	24	0	326107136	66	4380
2026-01-09 01:27:24.04	21.57	20.61	-50.0	-51.6	15.2	0.00e+00	0	24	0	328204288	66	4288
2026-01-09 01:27:25.18	21.51	20.76	-50.2	-52.0	15.1	0.00e+00	0	24	0	330301440	66	4443
2026-01-09 01:27:26.03	21.46	20.87	-50.1	-51.8	15.2	0.00e+00	0	24	0	331350016	66	4347
2026-01-09 01:27:27.18	21.40	21.03	-50.0	-51.7	15.2	0.00e+00	0	24	0	333447168	66	4292
2026-01-09 01:27:28.03	21.35	21.14	-50.1	-51.8	15.1	0.00e+00	0	24	0	335544320	66	4391
2026-01-09 01:27:29.17	21.29	21.29	-50.1	-51.8	15.1	0.00e+00	0	24	0	337641472	66	4369
2026-01-09 01:27:30.03	21.24	21.41	-50.2	-51.9	15.1	0.00e+00	0	24	0	338690048	66	4421
2026-01-09 01:27:31.17	21.17	21.56	-50.1	-51.8	15.2	0.00e+00	0	24	0	340787200	66	4348
2026-01-09 01:27:32.02	21.12	21.68	-50.2	-51.9	15.1	0.00e+00	0	24	0	342884352	66	4430
2026-01-09 01:27:33.17	21.06	21.83	-50.5	-52.3	14.9	0.00e+00	0	24	0	344981504	66	4626
2026-01-09 01:27:34.03	21.00	21.95	-50.5	-52.3	14.9	0.00e+00	0	24	0	346030080	66	4610
2026-01-09 01:27:35.17	20.94	22.11	-50.5	-52.3	14.9	0.00e+00	0	24	0	348127232	66	4612
2026-01-09 01:27:36.02	20.88	22.23	-50.7	-52.6	14.8	0.00e+00	0	24	0	350224384	66	4760
2026-01-09 01:27:37.16	20.81	22.38	-50.5	-52.3	14.9	0.00e+00	0	24	0	352321536	66	4617
2026-01-09 01:27:38.01	20.76	22.50	-50.6	-52.4	14.9	0.00e+00	0	24	0	354418688	66	4693
2026-01-09 01:27:39.16	20.69	22.66	-50.7	-52.5	15.0	0.00e+00	0	24	0	356515840	67	4460
2026-01-09 01:27:40.01	20.64	22.78	-50.5	-52.2	15.1	0.00e+00	0	24	0	357564416	67	4324
2026-01-09 01:27:41.15	20.56	22.95	-50.6	-52.4	15.1	0.00e+00	0	24	0	359661568	67	4402
2026-01-09 01:27:42.01	20.51	23.07	-50.5	-52.2	15.1	0.00e+00	0	24	0	361758720	67	4320
2026-01-09 01:27:43.15	20.43	23.23	-50.5	-52.2	15.1	0.00e+00	0	24	0	363855872	67	4310
2026-01-09 01:27:44.00	20.38	23.36	-50.5	-52.3	15.1	0.00e+00	0	24	0	364904448	67	4366
2026-01-09 01:27:45.14	20.30	23.52	-50.4	-52.2	15.1	0.00e+00	0	24	0	367001600	67	4306
2026-01-09 01:27:45.99	20.25	23.65	-50.5	-52.2	15.2	0.00e+00	0	24	0	369098752	67	4313
2026-01-09 01:27:47.12	20.17	23.81	-50.5	-52.3	15.1	0.00e+00	0	24	0	371195904	67	4364
2026-01-09 01:27:47.98	20.11	23.94	-50.6	-52.4	15.1	0.00e+00	0	24	0	372244480	67	4392
2026-01-09 01:27:49.13	20.03	24.11	-50.8	-52.6	14.9	0.00e+00	0	24	0	374341632	67	4536
2026-01-09 01:27:49.99	19.97	24.24	-50.9	-52.8	14.9	0.00e+00	0	24	0	376438784	67	4605
2026-01-09 01:27:51.13	19.89	24.41	-51.0	-52.9	14.8	0.00e+00	0	24	0	378535936	67	4696
2026-01-09 01:27:51.98	19.83	24.53	-51.3	-53.4	14.6	0.00e+00	0	24	0	380633088	67	4937
2026-01-09 01:27:53.13	19.75	24.71	-51.3	-53.4	14.6	0.00e+00	0	24	0	382730240	67	4946
2026-01-09 01:27:53.98	19.69	24.84	-51.7	-53.8	14.5	0.00e+00	0	24	0	383778816	68	4915
2026-01-09 01:27:55.12	19.61	25.01	-52.2	-54.4	14.4	0.00e+00	0	24	0	385875968	69	4978
2026-01-09 01:27:55.97	19.54	25.14	-52.0	-54.2	14.5	0.00e+00	0	24	0	387973120	69	4818
2026-01-09 01:27:57.11	19.46	25.32	-52.3	-54.6	14.3	0.00e+00	0	24	0	390070272	69	5051
2026-01-09 01:27:57.96	19.39	25.45	-52.1	-54.3	14.6	0.00e+00	0	24	0	391118848	70	4635
2026-01-09 01:27:59.11	19.31	25.63	-52.2	-54.4	14.5	0.00e+00	0	24	0	393216000	70	4698
2026-01-09 01:27:59.97	19.24	25.77	-52.4	-54.8	14.3	0.00e+00	0	24	0	395313152	70	4871
2026-01-09 01:28:01.11	19.15	25.95	-52.2	-54.5	14.5	0.00e+00	0	24	0	397410304	70	4713
2026-01-09 01:28:01.97	19.08	26.08	-52.0	-54.2	14.6	0.00e+00	0	24	0	398458880	70	4553
2026-01-09 01:28:03.11	18.99	26.27	-52.0	-54.1	14.6	0.00e+00	0	24	0	400556032	70	4543
2026-01-09 01:28:03.97	18.92	26.41	-52.1	-54.2	14.6	0.00e+00	0	24	0	402653184	70	4589
2026-01-09 01:28:05.11	18.83	26.59	-52.1	-54.3	14.6	0.00e+00	0	24	0	404750336	70	4625
2026-01-09 01:28:05.97	18.76	26.73	-52.1	-54.2	14.6	0.00e+00	0	24	0	406847488	70	4598
2026-01-09 01:28:07.12	18.67	26.92	-52.2	-54.4	14.5	0.00e+00	0	24	0	408944640	70	4687
2026-01-09 01:28:07.98	18.59	27.06	-52.4	-54.7	14.4	0.00e+00	0	24	0	409993216	70	4857
2026-01-09 01:28:09.11	18.50	27.25	-52.4	-54.6	14.4	0.00e+00	0	24	0	412090368	70	4804
2026-01-09 01:28:09.96	18.43	27.39	-52.3	-54.5	14.5	0.00e+00	0	24	0	414187520	70	4746
2026-01-09 01:28:11.11	18.33	27.58	-52.2	-54.4	14.5	0.00e+00	0	24	0	416284672	70	4673
2026-01-09 01:28:11.96	18.25	27.72	-52.1	-54.3	14.6	0.00e+00	0	24	0	417333248	70	4620
2026-01-09 01:28:13.10	18.15	27.92	-52.2	-54.4	14.6	0.00e+00	0	24	0	419430400	70	4670
2026-01-09 01:28:13.95	18.08	28.06	-52.2	-54.4	14.5	0.00e+00	0	24	0	421527552	70	4659
2026-01-09 01:28:15.10	17.97	28.26	-52.1	-54.3	14.6	0.00e+00	0	24	0	423624704	70	4601
2026-01-09 01:28:15.95	17.89	28.40	-52.2	-54.4	14.6	0.00e+00	0	24	0	424673280	70	4663
2026-01-09 01:28:17.09	17.79	28.60	-52.1	-54.2	14.7	0.00e+00	0	24	0	426770432	70	4560
2026-01-09 01:28:17.94	17.71	28.75	-52.1	-54.1	14.7	0.00e+00	0	24	0	428867584	70	4534
2026-01-09 01:28:19.09	17.60	28.95	-52.1	-54.2	14.6	0.00e+00	0	24	0	430964736	70	4597
2026-01-09 01:28:19.94	17.52	29.10	-52.2	-54.4	14.5	0.00e+00	0	24	0	433061888	70	4686
2026-01-09 01:28:21.08	17.41	29.30	-52.4	-54.7	14.4	0.00e+00	0	24	0	435159040	70	4815
2026-01-09 01:28:21.93	17.33	29.45	-52.6	-55.0	14.2	0.00e+00	0	24	0	436207616	70	5002
2026-01-09 01:28:23.07	17.21	29.66	-52.6	-55.0	14.2	0.00e+00	0	24	0	438304768	70	4990
2026-01-09 01:28:23.92	17.13	29.81	-52.7	-55.2	14.2	0.00e+00	0	24	0	440401920	70	5111
2026-01-09 01:28:25.07	17.01	30.02	-53.0	-55.6	14.0	0.00e+00	0	24	0	442499072	71	5100
2026-01-09 01:28:25.92	16.92	30.17	-53.1	-55.8	13.9	0.00e+00	0	24	0	443547648	71	5162
2026-01-09 01:28:27.06	16.81	30.38	-53.0	-55.6	14.0	0.00e+00	0	24	0	445644800	71	5078
2026-01-09 01:28:27.93	16.71	30.54	-53.1	-55.7	13.9	0.00e+00	0	24	0	447741952	71	5137
2026-01-09 01:28:29.07	16.59	30.76	-53.0	-55.6	14.1	0.00e+00	0	24	0	449839104	71	5043
2026-01-09 01:28:29.93	16.50	30.92	-53.1	-55.7	14.0	0.00e+00	0	24	0	450887680	71	5114
2026-01-09 01:28:31.07	16.38	31.13	-53.0	-55.7	14.0	0.00e+00	0	24	0	452984832	71	5106
2026-01-09 01:28:31.93	16.28	31.29	-52.9	-55.6	14.1	0.00e+00	0	24	0	455081984	71	5048
2026-01-09 01:28:33.07	16.16	31.51	-53.3	-56.2	13.7	0.00e+00	0	24	0	457179136	71	5410
2026-01-09 01:28:33.91	16.06	31.67	-53.3	-56.2	13.6	0.00e+00	0	24	0	459276288	71	5417
2026-01-09 01:28:35.05	15.93	31.89	-53.4	-56.5	13.6	0.00e+00	0	24	0	461373440	72	5318
2026-01-09 01:28:35.90	15.83	32.05	-53.8	-57.1	13.2	0.00e+00	0	24	0	462422016	72	5704
2026-01-09 01:28:37.05	15.70	32.28	-53.8	-57.2	13.3	0.00e+00	0	24	0	464519168	72	5752
2026-01-09 01:28:37.90	15.60	32.44	-53.9	-57.5	13.1	0.00e+00	0	24	0	466616320	73	5632
2026-01-09 01:28:39.04	15.46	32.67	-54.1	-57.7	12.9	0.00e+00	0	24	0	468713472	73	5758
2026-01-09 01:28:39.91	15.36	32.84	-54.1	-57.7	13.1	0.00e+00	0	24	0	469762048	73	5727
2026-01-09 01:28:41.05	15.21	33.06	-54.1	-57.6	13.0	7.00e-07	0	24	0	471859200	73	5687
2026-01-09 01:28:41.91	15.11	33.24	-54.3	-57.9	12.9	0.00e+00	0	24	0	473956352	73	5890
2026-01-09 01:28:43.05	14.96	33.47	-54.6	-58.2	12.8	7.00e-07	0	24	0	476053504	74	5787
2026-01-09 01:28:43.90	14.86	33.64	-55.0	-59.1	12.4	0.00e+00	0	24	0	477102080	75	6006
2026-01-09 01:28:45.04	14.71	33.87	-55.3	-59.4	12.1	2.20e-06	0	24	0	479199232	75	6249
2026-01-09 01:28:45.89	14.60	34.04	-55.7	-60.3	11.7	2.28e-05	0	24	0	481296384	76	6496
2026-01-09 01:28:47.03	14.45	34.28	-55.9	-60.8	11.2	1.05e-04	0	24	0	483393536	77	6511
2026-01-09 01:28:47.89	14.33	34.46	-55.9	-60.9	11.2	9.84e-05	0	24	0	485490688	77	6597
2026-01-09 01:28:49.03	14.17	34.69	-55.8	-60.9	11.1	1.31e-04	0	24	0	487587840	77	6628
2026-01-09 01:28:49.89	14.06	34.87	-55.7	-60.7	11.2	1.16e-04	0	24	0	488636416	77	6470
2026-01-09 01:28:51.03	13.90	35.11	-55.4	-60.2	11.7	9.61e-05	0	24	0	490733568	77	6062
2026-01-09 01:28:51.89	13.77	35.30	-55.2	-59.7	12.1	1.90e-05	0	24	0	492830720	77	5725
2026-01-09 01:28:53.03	13.61	35.54	-55.3	-59.9	11.8	1.22e-05	0	24	0	494927872	76	6241
2026-01-09 01:28:53.87	13.49	35.72	-55.3	-60.0	11.7	1.40e-04	0	24	0	495976448	76	6326
2026-01-09 01:28:55.01	13.32	35.97	-55.1	-59.5	12.1	7.60e-06	0	24	0	498073600	76	5992
2026-01-09 01:28:55.86	13.19	36.15	-55.2	-60.3	11.5	1.14e-05	0	24	0	500170752	76	6544
2026-01-09 01:28:57.01	13.02	36.40	-54.9	-59.4	12.1	3.81e-05	0	24	0	502267904	76	5887
2026-01-09 01:28:57.86	12.89	36.59	-54.4	-58.6	12.5	3.80e-06	0	24	0	503316480	75	5709
2026-01-09 01:28:59.01	12.71	36.84	-54.2	-58.2	12.8	7.00e-07	0	24	0	505413632	75	5426
2026-01-09 01:28:59.87	12.57	37.03	-54.0	-57.8	12.9	0.00e+00	0	24	0	507510784	74	5474
2026-01-09 01:29:01.01	12.39	37.28	-53.6	-57.0	13.4	0.00e+00	0	24	0	509607936	73	5282
2026-01-09 01:29:01.86	12.25	37.48	-53.1	-56.2	13.8	0.00e+00	0	24	0	510656512	72	5127
2026-01-09 01:29:03.01	12.06	37.73	-52.8	-55.6	14.1	0.00e+00	0	24	0	513802240	72	4805
2026-01-09 01:29:03.86	11.92	37.93	-53.1	-55.9	14.0	0.00e+00	0	24	0	514850816	72	4977
2026-01-09 01:29:05.00	11.73	38.19	-53.1	-56.0	14.0	0.00e+00	0	24	0	516947968	72	4993
2026-01-09 01:29:05.86	11.58	38.38	-53.1	-55.9	14.0	0.00e+00	0	24	0	519045120	72	4970
2026-01-09 01:29:07.00	11.38	38.65	-53.2	-56.0	13.9	0.00e+00	0	24	0	521142272	72	5029
2026-01-09 01:29:07.85	11.23	38.84	-53.1	-56.0	13.9	0.00e+00	0	24	0	522190848	72	5021
2026-01-09 01:29:08.99	11.03	39.11	-52.9	-55.6	14.1	0.00e+00	0	24	0	524288000	72	4805
2026-01-09 01:29:09.85	10.87	39.31	-53.1	-55.9	14.0	0.00e+00	0	24	0	526385152	72	4954
2026-01-09 01:29:10.99	10.66	39.58	-53.4	-56.4	13.8	0.00e+00	0	24	0	528482304	72	5230
2026-01-09 01:29:11.85	10.50	39.78	-53.7	-56.8	13.5	0.00e+00	0	24	0	529530880	72	5507
2026-01-09 01:29:12.99	10.28	40.05	-53.7	-56.9	13.3	0.00e+00	0	24	0	531628032	72	5590
2026-01-09 01:29:13.84	10.12	40.26	-53.8	-57.1	13.4	0.00e+00	0	24	0	533725184	72	5684
2026-01-09 01:29:14.99	9.89	40.53	-53.5	-56.6	13.6	0.00e+00	0	24	0	535822336	72	5341
2026-01-09 01:29:15.84	9.72	40.74	-53.1	-55.9	14.0	0.00e+00	0	24	0	537919488	72	4953
2026-01-09 01:29:16.98	9.49	41.02	-52.9	-55.5	14.2	0.00e+00	0	24	0	540016640	72	4750
2026-01-09 01:29:17.83	9.32	41.22	-52.8	-55.3	14.4	0.00e+00	0	24	0	541065216	72	4631
2026-01-09 01:29:18.97	9.08	41.50	-52.7	-55.1	14.4	0.00e+00	0	24	0	543162368	71	4789
2026-01-09 01:29:19.82	8.90	41.71	-52.8	-55.3	14.3	0.00e+00	0	24	0	545259520	71	4897
2026-01-09 01:29:20.96	8.65	42.00	-52.3	-54.5	14.7	0.00e+00	0	24	0	547356672	71	4473
2026-01-09 01:29:21.80	8.47	42.20	-52.1	-54.2	14.6	0.00e+00	0	24	0	548405248	70	4590
2026-01-09 01:29:22.94	8.22	42.49	-51.5	-53.5	14.9	0.00e+00	0	24	0	550502400	69	4456
2026-01-09 01:29:23.80	8.02	42.71	-51.6	-53.6	14.8	0.00e+00	0	24	0	552599552	69	4504
2026-01-09 01:29:24.94	7.76	42.99	-51.8	-53.9	14.7	0.00e+00	0	24	0	554696704	69	4687
2026-01-09 01:29:25.80	7.56	43.21	-52.1	-54.3	14.5	0.00e+00	0	24	0	555745280	69	4875
2026-01-09 01:29:26.93	7.29	43.50	-52.4	-54.7	14.3	0.00e+00	0	24	0	557842432	69	5153
2026-01-09 01:29:27.79	7.09	43.72	-52.4	-54.6	14.4	0.00e+00	0	24	0	559939584	70	4804
2026-01-09 01:29:28.93	6.81	44.01	-52.3	-54.5	14.5	0.00e+00	0	24	0	562036736	70	4752
2026-01-09 01:29:29.78	6.60	44.23	-52.5	-54.8	14.4	0.00e+00	0	24	0	563085312	70	4908
2026-01-09 01:29:30.92	6.31	44.53	-52.2	-54.4	14.6	0.00e+00	0	24	0	565182464	70	4671
2026-01-09 01:29:31.78	6.09	44.75	-52.2	-54.4	14.6	0.00e+00	0	24	0	567279616	70	4675
2026-01-09 01:29:32.93	5.79	45.05	-52.3	-54.5	14.5	0.00e+00	0	24	0	569376768	70	4743
2026-01-09 01:29:33.79	5.56	45.28	-52.3	-54.6	14.4	0.00e+00	0	24	0	571473920	70	4800
2026-01-09 01:29:34.93	5.25	45.58	-52.1	-54.3	14.6	0.00e+00	0	24	0	573571072	70	4642
2026-01-09 01:29:35.79	5.02	45.81	-51.7	-53.9	14.8	0.00e+00	0	24	0	574619648	70	4432
2026-01-09 01:29:36.93	4.70	46.11	-51.1	-53.2	14.9	0.00e+00	0	24	0	576716800	68	4583
2026-01-09 01:29:37.79	4.45	46.34	-50.7	-52.8	15.1	0.00e+00	0	24	0	578813952	68	4341
2026-01-09 01:29:38.93	4.12	46.64	-50.9	-52.9	15.0	0.00e+00	0	24	0	580911104	68	4437
2026-01-09 01:29:39.78	3.87	46.87	-51.3	-53.5	14.7	0.00e+00	0	24	0	581959680	68	4750
2026-01-09 01:29:40.92	3.53	47.18	-52.1	-54.7	14.3	0.00e+00	0	24	0	584056832	69	5111
2026-01-09 01:29:41.78	3.27	47.41	-52.3	-54.9	14.2	0.00e+00	0	24	0	586153984	69	5256
2026-01-09 01:29:42.92	2.92	47.72	-52.4	-55.1	14.2	0.00e+00	0	24	0	588251136	70	5088
2026-01-09 01:29:43.78	2.65	47.95	-52.0	-54.5	14.6	0.00e+00	0	24	0	589299712	70	4720
2026-01-09 01:29:44.92	2.28	48.26	-51.6	-53.9	14.7	0.00e+00	0	24	0	591396864	69	4664
2026-01-09 01:29:45.77	2.00	48.50	-51.5	-53.8	14.8	0.00e+00	0	24	0	593494016	69	4619
2026-01-09 01:29:46.92	1.62	48.81	-51.5	-53.8	14.6	0.00e+00	0	24	0	595591168	68	4892
2026-01-09 01:29:47.77	1.33	49.04	-51.5	-53.7	14.7	0.00e+00	0	24	0	597688320	68	4836
2026-01-09 01:29:48.91	0.94	49.36	-51.4	-53.5	14.8	0.00e+00	0	24	0	599785472	68	4721
2026-01-09 01:29:49.76	0.64	49.59	-50.9	-52.9	15.0	0.00e+00	0	24	0	600834048	68	4395
2026-01-09 01:29:50.91	0.23	49.91	-50.2	-52.0	15.2	0.00e+00	0	24	0	602931200	67	4234
2026-01-09 01:29:51.77	359.92	50.15	-50.2	-52.0	15.1	0.00e+00	0	24	0	605028352	66	4491
2026-01-09 01:29:52.91	359.49	50.46	-50.4	-52.4	14.9	0.00e+00	0	24	0	607125504	66	4653
2026-01-09 01:29:53.77	359.17	50.70	-50.5	-52.6	14.8	0.00e+00	0	24	0	608174080	66	4790
2026-01-09 01:29:54.91	358.73	51.02	-50.2	-52.2	15.0	0.00e+00	0	24	0	610271232	66	4571
2026-01-09 01:29:55.77	358.39	51.26	-50.0	-51.9	15.2	0.00e+00	0	24	0	612368384	66	4399
2026-01-09 01:29:56.91	357.94	51.57	-49.7	-51.5	15.4	0.00e+00	0	24	0	614465536	66	4221
2026-01-09 01:29:57.77	357.59	51.81	-49.9	-51.7	15.3	0.00e+00	0	24	0	615514112	66	4293
2026-01-09 01:29:58.91	357.11	52.13	-50.3	-52.1	14.9	0.00e+00	0	24	0	618659840	66	4545
2026-01-09 01:29:59.76	356.75	52.37	-50.6	-52.5	14.8	0.00e+00	0	24	0	619708416	66	4752
2026-01-09 01:30:00.91	356.26	52.69	-50.7	-52.6	14.8	0.00e+00	0	24	0	621805568	66	4813
2026-01-09 01:30:01.76	355.89	52.92	-51.0	-53.1	14.8	0.00e+00	0	24	0	623902720	67	4774
2026-01-09 01:30:02.90	355.38	53.24	-51.1	-53.2	14.8	0.00e+00	0	24	0	625999872	67	4825
2026-01-09 01:30:03.75	354.99	53.48	-51.1	-53.2	14.7	0.00e+00	0	24	0	627048448	67	4842
2026-01-09 01:30:04.90	354.45	53.79	-51.0	-53.0	14.8	0.00e+00	0	24	0	629145600	67	4742
2026-01-09 01:30:05.76	354.04	54.03	-50.9	-52.8	14.9	0.00e+00	0	24	0	631242752	67	4634
2026-01-09 01:30:06.89	353.50	54.34	-51.2	-53.3	14.7	0.00e+00	0	24	0	633339904	67	4907
2026-01-09 01:30:07.75	353.07	54.58	-51.2	-53.4	14.7	0.00e+00	0	24	0	634388480	67	4931
2026-01-09 01:30:08.90	352.50	54.90	-51.8	-54.1	14.6	0.00e+00	0	24	0	636485632	69	4781
2026-01-09 01:30:09.75	352.06	55.13	-52.0	-54.3	14.5	0.00e+00	0	24	0	638582784	69	4914
2026-01-09 01:30:10.88	351.47	55.44	-52.0	-54.3	14.5	0.00e+00	0	24	0	640679936	69	4913
2026-01-09 01:30:11.74	351.01	55.67	-51.8	-54.1	14.6	0.00e+00	0	24	0	641728512	69	4797
2026-01-09 01:30:12.89	350.39	55.98	-51.6	-53.7	14.8	0.00e+00	0	24	0	644874240	69	4587
2026-01-09 01:30:13.74	349.91	56.21	-51.2	-53.3	14.9	0.00e+00	0	24	0	645922816	68	4616
2026-01-09 01:30:14.88	349.27	56.52	-51.0	-53.0	15.0	0.00e+00	0	24	0	648019968	68	4479
2026-01-09 01:30:15.74	348.78	56.75	-51.4	-53.6	14.7	0.00e+00	0	24	0	650117120	68	4805
2026-01-09 01:30:16.87	348.11	57.05	-51.5	-53.7	14.7	0.00e+00	0	24	0	652214272	68	4837
2026-01-09 01:30:17.72	347.60	57.27	-51.6	-53.7	14.7	0.00e+00	0	24	0	653262848	68	4851
2026-01-09 01:30:18.86	346.91	57.57	-50.8	-52.7	15.2	0.00e+00	0	24	0	655360000	68	4297
2026-01-09 01:30:19.72	346.37	57.79	-50.8	-52.6	15.2	0.00e+00	0	24	0	657457152	68	4244
2026-01-09 01:30:20.86	345.65	58.09	-50.8	-52.7	15.0	0.00e+00	0	24	0	659554304	67	4559
2026-01-09 01:30:21.72	345.09	58.31	-50.8	-52.7	14.9	0.00e+00	0	24	0	660602880	67	4571
2026-01-09 01:30:22.84	344.35	58.59	-51.1	-53.1	14.8	0.00e+00	0	24	0	662700032	67	4774
2026-01-09 01:30:23.70	343.78	58.80	-51.2	-53.1	14.8	0.00e+00	0	24	0	664797184	67	4795
2026-01-09 01:30:24.84	343.00	59.09	-51.0	-52.8	14.8	0.00e+00	0	24	0	666894336	67	4625
2026-01-09 01:30:25.69	342.40	59.30	-50.8	-52.6	15.0	0.00e+00	0	24	0	667942912	67	4494
2026-01-09 01:30:26.83	341.59	59.57	-51.1	-53.0	14.8	0.00e+00	0	24	0	670040064	67	4742
2026-01-09 01:30:27.69	340.97	59.78	-51.2	-53.2	14.8	0.00e+00	0	24	0	672137216	67	4835
2026-01-09 01:30:28.84	340.12	60.05	-51.0	-52.9	14.9	0.00e+00	0	24	0	674234368	67	4678
2026-01-09 01:30:29.69	339.48	60.24	-51.2	-53.2	14.8	0.00e+00	0	24	0	676331520	67	4821
2026-01-09 01:30:30.83	338.61	60.50	-51.2	-53.1	14.8	0.00e+00	0	24	0	678428672	67	4811
2026-01-09 01:30:31.68	337.95	60.70	-51.6	-53.7	14.6	0.00e+00	0	24	0	679477248	68	4828
2026-01-09 01:30:32.82	337.05	60.95	-52.0	-54.3	14.5	0.00e+00	0	24	0	681574400	69	4896
2026-01-09 01:30:33.67	336.36	61.13	-52.2	-54.6	14.4	0.00e+00	0	24	0	683671552	69	5073
2026-01-09 01:30:34.81	335.43	61.37	-51.5	-53.6	14.9	0.00e+00	0	24	0	685768704	69	4516
2026-01-09 01:30:35.66	334.72	61.55	-50.8	-52.7	15.2	0.00e+00	0	24	0	686817280	68	4307
2026-01-09 01:30:36.81	333.74	61.78	-50.2	-51.9	15.4	0.00e+00	0	24	0	688914432	67	4185
2026-01-09 01:30:37.66	333.01	61.95	-50.3	-52.0	15.1	0.00e+00	0	24	0	691011584	66	4470
2026-01-09 01:30:38.80	332.01	62.17	-50.1	-51.8	15.2	0.00e+00	0	24	0	693108736	66	4390
2026-01-09 01:30:39.66	331.25	62.33	-50.0	-51.7	15.3	0.00e+00	0	24	0	694157312	66	4339
2026-01-09 01:30:40.79	330.22	62.54	-49.9	-51.6	15.3	0.00e+00	0	24	0	696254464	66	4272
2026-01-09 01:30:41.65	329.44	62.69	-49.9	-51.7	15.3	0.00e+00	0	24	0	698351616	66	4294
2026-01-09 01:30:42.79	328.38	62.88	-49.8	-51.6	15.3	0.00e+00	0	24	0	700448768	66	4257
2026-01-09 01:30:43.64	327.57	63.02	-49.6	-51.4	15.3	0.00e+00	0	24	0	702545920	65	4400
2026-01-09 01:30:44.79	326.47	63.20	-49.1	-50.7	15.5	0.00e+00	0	24	0	704643072	64	4331
2026-01-09 01:30:45.65	325.64	63.33	-49.4	-51.0	15.3	0.00e+00	0	24	0	705691648	64	4479
2026-01-09 01:30:46.79	324.52	63.50	-49.6	-51.4	15.1	0.00e+00	0	24	0	707788800	64	4652
2026-01-09 01:30:47.65	323.67	63.62	-49.6	-51.4	15.1	0.00e+00	0	24	0	709885952	64	4654
2026-01-09 01:30:48.80	322.51	63.77	-49.1	-50.7	15.4	0.00e+00	0	24	0	711983104	64	4304
2026-01-09 01:30:49.65	321.65	63.87	-49.0	-50.6	15.4	0.00e+00	0	24	0	713031680	64	4259
2026-01-09 01:30:50.79	320.48	64.01	-48.7	-50.2	15.5	0.00e+00	0	24	0	715128832	64	4095
2026-01-09 01:30:51.65	319.59	64.10	-48.8	-50.3	15.4	0.00e+00	0	24	0	717225984	63	4375
2026-01-09 01:30:52.79	318.40	64.22	-49.7	-51.4	15.1	0.00e+00	0	24	0	719323136	64	4664
2026-01-09 01:30:53.64	317.50	64.30	-50.3	-52.1	14.9	0.00e+00	0	24	0	720371712	65	4789
2026-01-09 01:30:54.78	316.29	64.40	-50.8	-52.8	14.8	0.00e+00	0	24	0	722468864	66	4876
2026-01-09 01:30:55.64	315.36	64.47	-50.6	-52.6	14.9	0.00e+00	0	24	0	724566016	66	4789
2026-01-09 01:30:56.78	314.14	64.55	-50.0	-51.9	15.2	0.00e+00	0	24	0	726663168	66	4395
2026-01-09 01:30:57.64	313.20	64.60	-49.6	-51.3	15.3	0.00e+00	0	24	0	728760320	65	4378
2026-01-09 01:30:58.78	311.96	64.66	-49.2	-50.9	15.3	0.00e+00	0	24	0	730857472	64	4406
2026-01-09 01:30:59.63	311.03	64.70	-49.0	-50.6	15.5	0.00e+00	0	24	0	731906048	64	4249
2026-01-09 01:31:00.78	309.76	64.75	-48.4	-49.9	15.6	0.00e+00	0	24	0	734003200	63	4170
2026-01-09 01:31:01.63	308.83	64.77	-48.4	-49.9	15.6	0.00e+00	0	24	0	736100352	63	4153
2026-01-09 01:31:02.77	307.57	64.80	-48.5	-49.9	15.5	0.00e+00	0	24	0	738197504	63	4174
2026-01-09 01:31:03.62	306.62	64.81	-48.4	-49.8	15.6	0.00e+00	0	24	0	739246080	63	4128
2026-01-09 01:31:04.76	305.36	64.81	-48.4	-49.9	15.6	0.00e+00	0	24	0	741343232	63	4155
2026-01-09 01:31:05.62	304.41	64.81	-48.7	-50.2	15.4	0.00e+00	0	24	0	743440384	63	4331
2026-01-09 01:31:06.76	303.15	64.80	-49.0	-50.6	15.2	0.00e+00	0	24	0	745537536	63	4541
2026-01-09 01:31:07.62	302.20	64.78	-49.4	-51.1	15.1	0.00e+00	0	24	0	746586112	63	4775
2026-01-09 01:31:08.76	300.94	64.75	-49.7	-51.4	15.1	0.00e+00	0	24	0	748683264	64	4704
2026-01-09 01:31:09.62	299.99	64.71	-49.6	-51.3	15.1	0.00e+00	0	24	0	750780416	64	4603
2026-01-09 01:31:10.77	298.73	64.66	-49.5	-51.1	15.2	0.00e+00	0	24	0	752877568	64	4514
2026-01-09 01:31:11.62	297.80	64.61	-49.1	-50.6	15.5	0.00e+00	0	24	0	754974720	64	4279
2026-01-09 01:31:12.76	296.57	64.54	-48.2	-49.6	15.7	0.00e+00	0	24	0	757071872	63	4025
2026-01-09 01:31:13.62	295.64	64.48	-48.1	-49.4	15.6	0.00e+00	0	24	0	758120448	62	4175
2026-01-09 01:31:14.77	294.41	64.39	-48.9	-50.4	15.2	0.00e+00	0	24	0	760217600	62	4688
2026-01-09 01:31:15.62	293.50	64.32	-49.2	-50.7	15.2	0.00e+00	0	24	0	762314752	63	4585
2026-01-09 01:31:16.76	292.30	64.21	-49.3	-50.9	15.3	0.00e+00	0	24	0	764411904	64	4399
2026-01-09 01:31:17.62	291.40	64.12	-49.7	-51.3	15.1	0.00e+00	0	24	0	765460480	64	4642
2026-01-09 01:31:18.76	290.21	64.00	-50.1	-51.8	15.0	0.00e+00	0	24	0	767557632	65	4614
2026-01-09 01:31:19.62	289.33	63.90	-50.0	-51.7	15.1	0.00e+00	0	24	0	769654784	65	4590
2026-01-09 01:31:20.76	288.17	63.75	-49.9	-51.5	15.2	0.00e+00	0	24	0	771751936	65	4487
2026-01-09 01:31:21.60	287.33	63.64	-49.8	-51.4	15.3	0.00e+00	0	24	0	772800512	65	4423
2026-01-09 01:31:22.74	286.19	63.49	-49.2	-50.7	15.5	0.00e+00	0	24	0	774897664	65	4088
2026-01-09 01:31:23.59	285.36	63.36	-49.5	-51.1	15.4	0.00e+00	0	24	0	776994816	65	4279
2026-01-09 01:31:24.74	284.24	63.19	-49.7	-51.4	15.3	0.00e+00	0	24	0	779091968	65	4393
2026-01-09 01:31:25.59	283.43	63.06	-49.5	-51.1	15.4	0.00e+00	0	24	0	781189120	65	4262
2026-01-09 01:31:26.73	282.35	62.87	-48.9	-50.4	15.5	0.00e+00	0	24	0	783286272	64	4191
2026-01-09 01:31:27.58	281.56	62.72	-49.3	-50.9	15.3	0.00e+00	0	24	0	784334848	64	4401
2026-01-09 01:31:28.72	280.51	62.52	-49.0	-50.5	15.5	0.00e+00	0	24	0	786432000	64	4204
2026-01-09 01:31:29.58	279.73	62.37	-48.7	-50.1	15.6	0.00e+00	0	24	0	788529152	64	4027
2026-01-09 01:31:30.72	278.72	62.15	-49.6	-51.1	15.2	0.00e+00	0	24	0	790626304	64	4545
2026-01-09 01:31:31.58	277.96	61.99	-50.2	-51.9	15.0	0.00e+00	0	24	0	791674880	65	4666
2026-01-09 01:31:32.72	276.98	61.76	-50.2	-52.0	15.0	0.00e+00	0	24	0	793772032	65	4725
2026-01-09 01:31:33.58	276.25	61.59	-49.9	-51.6	15.2	0.00e+00	0	24	0	795869184	65	4499
2026-01-09 01:31:34.72	275.30	61.35	-50.2	-52.0	15.0	0.00e+00	0	24	0	797966336	65	4744
2026-01-09 01:31:35.57	274.60	61.17	-51.1	-53.2	14.7	0.00e+00	0	24	0	799014912	67	4843
2026-01-09 01:31:36.71	273.68	60.93	-53.1	-56.0	14.0	0.00e+00	0	24	0	801112064	71	5334
2026-01-09 01:31:37.57	272.99	60.74	-53.2	-56.1	13.8	0.00e+00	0	24	0	803209216	71	5397
2026-01-09 01:31:38.71	272.10	60.48	-53.1	-55.9	14.1	0.00e+00	0	24	0	805306368	72	4981
2026-01-09 01:31:39.56	271.45	60.29	-53.3	-56.0	14.1	0.00e+00	0	24	0	806354944	72	4996
2026-01-09 01:31:40.70	270.60	60.02	-52.8	-55.2	14.5	0.00e+00	0	24	0	809500672	72	4558
2026-01-09 01:31:41.56	269.96	59.82	-52.8	-55.2	14.4	0.00e+00	0	24	0	810549248	71	4831
2026-01-09 01:31:42.70	269.13	59.55	-53.0	-55.4	14.3	0.00e+00	0	24	0	812646400	71	4969
2026-01-09 01:31:43.55	268.53	59.34	-53.5	-56.0	14.0	0.00e+00	0	24	0	814743552	72	5031
2026-01-09 01:31:44.69	267.73	59.06	-54.3	-57.1	13.6	0.00e+00	0	24	0	816840704	73	5371
2026-01-09 01:31:45.55	267.14	58.85	-54.3	-57.1	13.7	0.00e+00	0	24	0	817889280	74	5084
2026-01-09 01:31:46.70	266.37	58.56	-54.2	-56.9	13.9	0.00e+00	0	24	0	819986432	74	4929
2026-01-09 01:31:47.55	265.81	58.34	-53.8	-56.3	14.1	0.00e+00	0	24	0	822083584	74	4651
2026-01-09 01:31:48.69	265.07	58.05	-52.7	-54.7	14.8	0.00e+00	0	24	0	824180736	72	4328
2026-01-09 01:31:49.56	264.51	57.83	-51.7	-53.5	15.1	0.00e+00	0	24	0	825229312	70	4195
2026-01-09 01:31:50.70	263.80	57.53	-51.8	-53.7	15.0	0.00e+00	0	24	0	827326464	70	4310
2026-01-09 01:31:51.56	263.28	57.31	-52.5	-54.7	14.5	0.00e+00	0	24	0	829423616	70	4870
2026-01-09 01:31:52.70	262.59	57.01	-52.6	-54.9	14.5	0.00e+00	0	24	0	831520768	71	4682
2026-01-09 01:31:53.55	262.09	56.78	-52.0	-54.2	14.8	0.00e+00	0	24	0	833617920	70	4556
2026-01-09 01:31:54.69	261.44	56.48	-52.2	-54.4	14.7	0.00e+00	0	24	0	835715072	70	4674
2026-01-09 01:31:55.54	260.96	56.25	-52.7	-55.2	14.3	0.00e+00	0	24	0	836763648	70	5145
2026-01-09 01:31:56.68	260.32	55.94	-53.7	-56.9	13.6	0.00e+00	0	24	0	838860800	72	5571
2026-01-09 01:31:57.54	259.85	55.71	-53.7	-56.9	13.5	0.00e+00	0	24	0	840957952	72	5591
2026-01-09 01:31:58.68	259.25	55.40	-53.5	-56.7	13.8	0.00e+00	0	24	0	843055104	72	5408
2026-01-09 01:31:59.54	258.80	55.16	-53.0	-55.7	14.2	0.00e+00	0	24	0	844103680	72	4833
2026-01-09 01:32:00.67	258.22	54.85	-52.5	-54.9	14.5	0.00e+00	0	24	0	846200832	71	4658
2026-01-09 01:32:01.53	257.78	54.61	-52.8	-55.4	14.2	0.00e+00	0	24	0	848297984	71	4949
2026-01-09 01:32:02.67	257.22	54.30	-53.2	-56.2	13.7	0.00e+00	0	24	0	850395136	71	5450
2026-01-09 01:32:03.53	256.80	54.06	-53.6	-56.8	13.6	0.00e+00	0	24	0	851443712	73	5178
2026-01-09 01:32:04.66	256.27	53.75	-53.1	-55.8	14.1	0.00e+00	0	24	0	853540864	72	4891
2026-01-09 01:32:05.52	255.87	53.51	-53.0	-55.7	14.1	0.00e+00	0	24	0	855638016	71	5133
2026-01-09 01:32:06.66	255.34	53.19	-52.5	-54.9	14.5	0.00e+00	0	24	0	857735168	71	4691
2026-01-09 01:32:07.52	254.96	52.95	-52.2	-54.6	14.7	0.00e+00	0	24	0	858783744	71	4504
2026-01-09 01:32:08.65	254.46	52.64	-52.0	-54.3	14.7	0.00e+00	0	24	0	861929472	70	4633
2026-01-09 01:32:09.51	254.09	52.40	-52.2	-54.6	14.5	0.00e+00	0	24	0	862978048	70	4767
2026-01-09 01:32:10.65	253.61	52.08	-52.1	-54.4	14.7	0.00e+00	0	24	0	865075200	70	4652
2026-01-09 01:32:11.51	253.25	51.84	-52.4	-54.7	14.5	0.00e+00	0	24	0	867172352	70	4835
2026-01-09 01:32:12.65	252.78	51.52	-51.7	-53.8	14.8	0.00e+00	0	24	0	869269504	69	4615
2026-01-09 01:32:13.51	252.44	51.28	-51.9	-54.1	14.6	0.00e+00	0	24	0	870318080	69	4778
2026-01-09 01:32:14.65	251.99	50.97	-52.3	-54.5	14.4	0.00e+00	0	24	0	872415232	69	5017
2026-01-09 01:32:15.51	251.66	50.73	-52.1	-54.2	14.6	0.00e+00	0	24	0	874512384	69	4859
2026-01-09 01:32:16.65	251.23	50.41	-50.9	-52.6	15.2	0.00e+00	0	24	0	876609536	68	4262
2026-01-09 01:32:17.51	250.91	50.17	-50.9	-52.6	15.2	0.00e+00	0	24	0	877658112	68	4286
2026-01-09 01:32:18.65	250.49	49.85	-51.4	-53.3	14.9	0.00e+00	0	24	0	879755264	68	4636
2026-01-09 01:32:19.51	250.18	49.62	-51.8	-53.8	14.6	0.00e+00	0	24	0	881852416	68	4888
2026-01-09 01:32:20.65	249.78	49.30	-52.3	-54.6	14.4	0.00e+00	0	24	0	883949568	69	5051
2026-01-09 01:32:21.50	249.49	49.07	-53.2	-55.8	14.0	0.00e+00	0	24	0	884998144	71	5198
2026-01-09 01:32:22.64	249.10	48.75	-53.4	-56.2	13.8	0.00e+00	0	24	0	888143872	71	5425
2026-01-09 01:32:23.49	248.82	48.52	-53.4	-56.2	13.9	0.00e+00	0	24	0	889192448	72	5120
2026-01-09 01:32:24.63	248.45	48.21	-53.6	-56.4	13.8	0.00e+00	0	24	0	891289600	72	5244
2026-01-09 01:32:25.48	248.17	47.98	-54.3	-57.5	13.3	0.00e+00	0	24	0	893386752	73	5620
2026-01-09 01:32:26.62	247.81	47.67	-53.8	-56.5	14.1	0.00e+00	0	24	0	895483904	74	4724
2026-01-09 01:32:27.47	247.55	47.44	-52.9	-55.3	14.4	0.00e+00	0	24	0	896532480	72	4603
2026-01-09 01:32:28.62	247.20	47.12	-53.3	-55.9	14.1	0.00e+00	0	24	0	898629632	72	4983
2026-01-09 01:32:29.47	246.94	46.90	-53.8	-56.8	13.6	0.00e+00	0	24	0	900726784	72	5488
2026-01-09 01:32:30.61	246.61	46.59	-53.3	-56.0	14.0	0.00e+00	0	24	0	902823936	72	5010
2026-01-09 01:32:31.46	246.36	46.36	-52.7	-55.2	14.3	0.00e+00	0	24	0	903872512	71	4831
2026-01-09 01:32:32.60	246.04	46.06	-52.6	-54.9	14.5	0.00e+00	0	24	0	905969664	71	4686
2026-01-09 01:32:33.45	245.80	45.83	-53.0	-55.7	14.0	0.00e+00	0	24	0	908066816	71	5134
2026-01-09 01:32:34.60	245.48	45.52	-53.5	-56.7	13.6	0.00e+00	0	24	0	910163968	72	5406
2026-01-09 01:32:35.45	245.25	45.30	-53.4	-56.5	13.6	0.00e+00	0	24	0	911212544	72	5290
2026-01-09 01:32:36.59	244.95	45.00	-53.8	-57.1	13.3	0.00e+00	0	24	0	913309696	72	5709
2026-01-09 01:32:37.45	244.72	44.77	-53.7	-57.0	13.4	7.00e-07	0	24	0	915406848	72	5626
2026-01-09 01:32:38.60	244.43	44.47	-53.4	-56.3	13.7	1.44e-05	0	24	0	917504000	72	5216
2026-01-09 01:32:39.45	244.21	44.25	-53.1	-55.7	14.1	8.30e-06	0	24	0	919601152	72	4845
2026-01-09 01:32:40.59	243.93	43.96	-53.0	-55.6	14.2	0.00e+00	0	24	0	921698304	72	4800
2026-01-09 01:32:41.44	243.72	43.74	-53.6	-56.5	13.7	0.00e+00	0	24	0	922746880	72	5294
2026-01-09 01:32:42.59	243.44	43.44	-53.5	-56.2	14.0	0.00e+00	0	24	0	924844032	72	5102
2026-01-09 01:32:43.45	243.24	43.22	-53.2	-55.8	14.1	0.00e+00	0	24	0	926941184	72	4886
2026-01-09 01:32:44.59	242.97	42.93	-52.5	-54.8	14.4	1.50e-06	0	24	0	929038336	71	4616
2026-01-09 01:32:45.44	242.78	42.72	-52.6	-55.0	14.4	1.50e-06	0	24	0	930086912	71	4728
2026-01-09 01:32:46.58	242.52	42.43	-52.6	-55.0	14.4	0.00e+00	0	24	0	932184064	71	4758
2026-01-09 01:32:47.44	242.33	42.22	-53.0	-55.6	14.1	0.00e+00	0	24	0	934281216	71	5079
2026-01-09 01:32:48.58	242.08	41.93	-53.7	-56.6	13.7	0.00e+00	0	24	0	936378368	72	5384
2026-01-09 01:32:49.44	241.89	41.72	-53.9	-57.0	13.5	0.00e+00	0	24	0	937426944	73	5328
2026-01-09 01:32:50.58	241.65	41.44	-53.8	-56.9	13.7	0.00e+00	0	24	0	940572672	73	5240
2026-01-09 01:32:51.44	241.47	41.22	-54.4	-57.8	13.1	0.00e+00	0	24	0	941621248	73	5792
2026-01-09 01:32:52.58	241.24	40.95	-54.9	-58.7	12.7	7.00e-07	0	24	0	943718400	75	5782
2026-01-09 01:32:53.44	241.06	40.74	-55.1	-59.1	12.5	0.00e+00	0	24	0	945815552	75	5996
2026-01-09 01:32:54.58	240.84	40.46	-55.4	-59.7	12.0	5.30e-06	0	24	0	947912704	75	6436
2026-01-09 01:32:55.43	240.67	40.26	-55.6	-59.9	12.0	8.30e-06	0	24	0	948961280	76	6208
2026-01-09 01:32:56.57	240.45	39.98	-55.6	-59.7	12.2	9.46e-05	0	24	0	951058432	77	5747
2026-01-09 01:32:57.42	240.29	39.78	-54.8	-58.1	13.3	0.00e+00	0	24	0	953155584	76	5089
2026-01-09 01:32:58.56	240.07	39.51	-53.7	-56.3	14.1	0.00e+00	0	24	0	955252736	74	4645
2026-01-09 01:32:59.41	239.91	39.31	-53.6	-56.1	14.2	0.00e+00	0	24	0	956301312	73	4775
2026-01-09 01:33:00.55	239.71	39.04	-53.7	-56.3	14.0	0.00e+00	0	24	0	958398464	73	4924
2026-01-09 01:33:01.41	239.55	38.84	-53.6	-56.2	14.1	0.00e+00	0	24	0	960495616	73	4854
2026-01-09 01:33:02.55	239.35	38.57	-54.2	-57.2	13.5	0.00e+00	0	24	0	962592768	73	5451
2026-01-09 01:33:03.41	239.20	38.38	-54.4	-57.4	13.4	0.00e+00	0	24	0	963641344	74	5266
2026-01-09 01:33:04.55	239.00	38.11	-54.3	-57.4	13.4	0.00e+00	0	24	0	965738496	74	5255
2026-01-09 01:33:05.40	238.86	37.92	-54.3	-57.3	13.5	0.00e+00	0	24	0	967835648	74	5187
2026-01-09 01:33:06.54	238.67	37.66	-54.8	-58.2	12.9	0.00e+00	0	24	0	969932800	74	5765
2026-01-09 01:33:07.40	238.52	37.47	-54.9	-58.4	12.7	0.00e+00	0	24	0	972029952	74	5903
2026-01-09 01:33:08.55	238.34	37.21	-55.1	-58.9	12.6	0.00e+00	0	24	0	974127104	75	5857
2026-01-09 01:33:09.40	238.20	37.02	-55.4	-59.4	12.3	0.00e+00	0	24	0	975175680	75	6234
2026-01-09 01:33:10.53	238.02	36.77	-55.7	-59.9	11.9	9.10e-06	0	24	0	977272832	76	6248
2026-01-09 01:33:11.39	237.89	36.58	-55.6	-59.8	12.0	4.50e-06	0	24	0	979369984	76	6152
2026-01-09 01:33:12.53	237.71	36.33	-55.2	-58.7	12.8	1.50e-06	0	24	0	981467136	76	5456
2026-01-09 01:33:13.39	237.58	36.14	-55.4	-59.3	12.4	1.50e-06	0	24	0	982515712	76	5845
2026-01-09 01:33:14.53	237.41	35.89	-55.4	-59.2	12.5	0.00e+00	0	24	0	984612864	76	5770
2026-01-09 01:33:15.40	237.28	35.70	-55.2	-58.9	12.7	0.00e+00	0	24	0	986710016	76	5545
2026-01-09 01:33:16.53	237.12	35.46	-54.8	-58.0	13.4	0.00e+00	0	24	0	988807168	76	4994
2026-01-09 01:33:17.39	236.99	35.28	-54.6	-57.8	13.3	0.00e+00	0	24	0	989855744	75	5181
2026-01-09 01:33:18.53	236.83	35.03	-54.1	-57.0	13.6	0.00e+00	0	24	0	991952896	74	5033
2026-01-09 01:33:19.39	236.71	34.85	-54.2	-57.3	13.4	0.00e+00	0	24	0	994050048	74	5188
2026-01-09 01:33:20.53	236.55	34.61	-54.0	-57.0	13.7	0.00e+00	0	24	0	996147200	74	5014
2026-01-09 01:33:21.38	236.44	34.43	-54.1	-57.0	13.6	0.00e+00	0	24	0	998244352	74	5029
2026-01-09 01:33:22.52	236.28	34.20	-53.0	-55.4	14.3	0.00e+00	0	24	0	1000341504	72	4658
2026-01-09 01:33:23.38	236.17	34.02	-52.6	-54.8	14.5	0.00e+00	0	24	0	1001390080	71	4649
2026-01-09 01:33:24.53	236.02	33.78	-52.5	-54.6	14.6	0.00e+00	0	24	0	1003487232	71	4545
2026-01-09 01:33:25.38	235.91	33.61	-52.1	-54.1	14.7	0.00e+00	0	24	0	1005584384	70	4535
2026-01-09 01:33:26.52	235.76	33.38	-53.4	-55.5	14.1	0.00e+00	0	24	0	1007681536	71	5031
2026-01-09 01:33:27.38	235.65	33.21	-53.6	-56.3	13.8	0.00e+00	0	24	0	1008730112	72	5181
2026-01-09 01:33:28.51	235.51	32.98	-54.1	-57.1	13.4	0.00e+00	0	24	0	1010827264	73	5396
2026-01-09 01:33:29.36	235.41	32.81	-53.9	-56.8	13.6	0.00e+00	0	24	0	1012924416	73	5204
2026-01-09 01:33:30.51	235.27	32.58	-53.7	-56.6	13.7	0.00e+00	0	24	0	1015021568	73	5053
2026-01-09 01:33:31.36	235.16	32.42	-53.3	-55.8	14.2	0.00e+00	0	24	0	1016070144	73	4634
2026-01-09 01:33:32.51	235.03	32.19	-53.3	-56.0	14.2	0.00e+00	0	24	0	1018167296	73	4716
2026-01-09 01:33:33.36	234.93	32.02	-53.6	-56.4	13.9	0.00e+00	0	24	0	1020264448	73	4938
2026-01-09 01:33:34.49	234.80	31.81	-54.1	-57.2	13.4	0.00e+00	0	24	0	1022361600	73	5405
2026-01-09 01:33:35.34	234.70	31.64	-54.4	-57.8	13.0	0.00e+00	0	24	0	1024458752	73	5825
2026-01-09 01:33:36.48	234.57	31.42	-53.7	-56.5	13.8	0.00e+00	0	24	0	1026555904	73	4992
2026-01-09 01:33:37.33	234.48	31.26	-53.4	-56.1	14.1	0.00e+00	0	24	0	1027604480	73	4760
2026-01-09 01:33:38.47	234.35	31.05	-52.7	-54.9	14.6	0.00e+00	0	24	0	1029701632	72	4411
2026-01-09 01:33:39.32	234.26	30.89	-52.5	-54.6	14.6	0.00e+00	0	24	0	1031798784	71	4529
2026-01-09 01:33:40.46	234.13	30.67	-52.0	-54.0	14.8	0.00e+00	0	24	0	1033895936	70	4475
2026-01-09 01:33:41.32	234.04	30.51	-52.0	-53.9	14.9	0.00e+00	0	24	0	1034944512	70	4433
2026-01-09 01:33:42.46	233.92	30.30	-52.1	-54.1	14.8	0.00e+00	0	24	0	1037041664	70	4526
2026-01-09 01:33:43.33	233.83	30.14	-52.3	-54.3	14.7	0.00e+00	0	24	0	1039138816	70	4629
2026-01-09 01:33:44.47	233.71	29.93	-52.6	-54.8	14.4	0.00e+00	0	24	0	1041235968	70	4874
2026-01-09 01:33:45.33	233.63	29.78	-52.7	-54.9	14.4	0.00e+00	0	24	0	1042284544	70	4935
2026-01-09 01:33:46.47	233.51	29.57	-52.8	-55.0	14.4	0.00e+00	0	24	0	1044381696	71	4759
2026-01-09 01:33:47.33	233.43	29.42	-52.8	-55.0	14.4	0.00e+00	0	24	0	1046478848	71	4741
2026-01-09 01:33:48.47	233.32	29.21	-52.7	-55.0	14.4	0.00e+00	0	24	0	1048576000	71	4712
2026-01-09 01:33:49.34	233.23	29.06	-53.1	-55.5	14.1	0.00e+00	0	24	0	1050673152	71	5037
2026-01-09 01:33:50.48	233.12	28.86	-53.8	-56.6	13.6	0.00e+00	0	24	0	1052770304	72	5392
2026-01-09 01:33:51.34	233.04	28.71	-54.3	-57.4	13.2	0.00e+00	0	24	0	1053818880	73	5568
2026-01-09 01:33:52.48	232.93	28.51	-54.9	-58.5	12.7	7.00e-07	0	24	0	1055916032	74	5963
2026-01-09 01:33:53.34	232.85	28.36	-54.9	-58.6	12.6	0.00e+00	0	24	0	1058013184	75	5696
2026-01-09 01:33:54.48	232.75	28.16	-54.8	-58.4	12.8	7.00e-07	0	24	0	1060110336	75	5563
2026-01-09 01:33:55.34	232.67	28.02	-54.7	-58.1	13.0	0.00e+00	0	24	0	1061158912	75	5361
2026-01-09 01:33:56.48	232.57	27.82	-54.4	-57.6	13.4	0.00e+00	0	24	0	1063256064	75	5059
2026-01-09 01:33:57.33	232.49	27.68	-54.2	-57.1	13.5	0.00e+00	0	24	0	1065353216	74	5080
2026-01-09 01:33:58.47	232.39	27.48	-54.1	-57.0	13.6	0.00e+00	0	24	0	1067450368	74	5027
2026-01-09 01:33:59.33	232.32	27.34	-53.8	-56.5	13.9	0.00e+00	0	24	0	1068498944	74	4738
2026-01-09 01:34:00.47	232.22	27.15	-53.5	-56.0	14.1	0.00e+00	0	24	0	1070596096	73	4720
2026-01-09 01:34:01.33	232.15	27.01	-53.4	-55.9	14.2	0.00e+00	0	24	0	1072693248	73	4664
2026-01-09 01:34:02.46	232.05	26.82	-53.2	-55.7	14.2	0.00e+00	0	24	0	1074790400	72	4830
2026-01-09 01:34:03.32	231.98	26.68	-53.0	-55.4	14.4	0.00e+00	0	24	0	1076887552	72	4663
2026-01-09 01:34:04.45	231.89	26.50	-52.6	-54.7	14.5	0.00e+00	0	24	0	1078984704	71	4595
2026-01-09 01:34:05.30	231.82	26.36	-52.5	-54.6	14.6	0.00e+00	0	24	0	1080033280	71	4520
2026-01-09 01:34:06.45	231.73	26.17	-52.2	-54.2	14.9	0.00e+00	0	24	0	1082130432	71	4308
2026-01-09 01:34:07.30	231.66	26.04	-52.1	-54.0	14.8	0.00e+00	0	24	0	1084227584	70	4493
2026-01-09 01:34:08.44	231.57	25.86	-52.1	-54.2	14.7	0.00e+00	0	24	0	1086324736	70	4561
2026-01-09 01:34:09.29	231.50	25.72	-52.2	-54.2	14.7	0.00e+00	0	24	0	1087373312	70	4580
2026-01-09 01:34:10.44	231.41	25.54	-52.2	-54.3	14.6	0.00e+00	0	24	0	1089470464	70	4606
2026-01-09 01:34:11.29	231.35	25.41	-52.6	-54.8	14.4	0.00e+00	0	24	0	1091567616	70	4902
2026-01-09 01:34:12.44	231.26	25.23	-52.7	-55.0	14.3	0.00e+00	0	24	0	1093664768	70	5005
2026-01-09 01:34:13.29	231.20	25.09	-52.8	-55.2	14.1	0.00e+00	0	24	0	1094713344	70	5152
2026-01-09 01:34:14.43	231.11	24.92	-52.9	-55.3	14.1	0.00e+00	0	24	0	1096810496	71	4899
2026-01-09 01:34:15.29	231.05	24.79	-52.9	-55.3	14.2	0.00e+00	0	24	0	1098907648	71	4888
2026-01-09 01:34:16.43	230.97	24.61	-52.8	-55.3	14.2	0.00e+00	0	24	0	1101004800	71	4879
2026-01-09 01:34:17.29	230.90	24.48	-52.9	-55.3	14.2	0.00e+00	0	24	0	1103101952	71	4888
2026-01-09 01:34:18.44	230.82	24.31	-52.6	-55.0	14.4	0.00e+00	0	24	0	1105199104	71	4729
2026-01-09 01:34:19.29	230.76	24.18	-52.6	-55.0	14.4	0.00e+00	0	24	0	1106247680	71	4721
2026-01-09 01:34:20.43	230.68	24.01	-52.9	-55.3	14.2	0.00e+00	0	24	0	1108344832	71	4899
2026-01-09 01:34:21.28	230.62	23.88	-52.9	-55.3	14.2	0.00e+00	0	24	0	1110441984	71	4910
2026-01-09 01:34:22.42	230.55	23.72	-53.1	-55.7	14.0	0.00e+00	0	24	0	1112539136	71	5143
2026-01-09 01:34:23.28	230.49	23.59	-53.4	-56.1	13.9	0.00e+00	0	24	0	1113587712	72	5065
2026-01-09 01:34:24.42	230.41	23.42	-53.7	-56.6	13.6	0.00e+00	0	24	0	1115684864	72	5381
2026-01-09 01:34:25.27	230.35	23.30	-53.9	-57.0	13.5	0.00e+00	0	24	0	1117782016	73	5295
2026-01-09 01:34:26.41	230.28	23.13	-54.3	-57.6	13.0	0.00e+00	0	24	0	1119879168	73	5693
2026-01-09 01:34:27.26	230.22	23.01	-54.3	-57.7	13.0	0.00e+00	0	24	0	1120927744	73	5750
2026-01-09 01:34:28.40	230.15	22.85	-54.2	-57.5	13.2	0.00e+00	0	24	0	1123024896	73	5621
2026-01-09 01:34:29.26	230.09	22.73	-54.0	-57.1	13.4	0.00e+00	0	24	0	1125122048	73	5382
2026-01-09 01:34:30.41	230.02	22.56	-53.8	-56.7	13.6	0.00e+00	0	24	0	1127219200	73	5139
2026-01-09 01:34:31.25	229.97	22.45	-53.4	-56.0	14.1	0.00e+00	0	24	0	1128267776	73	4744
2026-01-09 01:34:32.39	229.90	22.29	-53.0	-55.5	14.2	0.00e+00	0	24	0	1131413504	72	4734
2026-01-09 01:34:33.25	229.84	22.17	-52.7	-55.1	14.5	0.00e+00	0	24	0	1132462080	72	4499
2026-01-09 01:34:34.38	229.78	22.01	-52.4	-54.6	14.7	0.00e+00	0	24	0	1134559232	71	4501
2026-01-09 01:34:35.23	229.72	21.89	-52.2	-54.4	14.7	0.00e+00	0	24	0	1136656384	71	4409
2026-01-09 01:34:36.38	229.66	21.73	-52.1	-54.3	14.6	0.00e+00	0	24	0	1138753536	70	4606
2026-01-09 01:34:37.24	229.60	21.62	-51.9	-53.9	14.8	0.00e+00	0	24	0	1139802112	70	4414
2026-01-09 01:34:38.38	229.54	21.46	-51.9	-54.0	14.8	0.00e+00	0	24	0	1141899264	70	4456
2026-01-09 01:34:39.23	229.49	21.35	-51.8	-53.8	14.8	0.00e+00	0	24	0	1143996416	70	4378
2026-01-09 01:34:40.37	229.42	21.19	-51.8	-53.8	14.9	0.00e+00	0	24	0	1146093568	70	4344
2026-01-09 01:34:41.23	229.37	21.08	-51.9	-53.9	14.8	0.00e+00	0	24	0	1147142144	70	4441
2026-01-09 01:34:42.37	229.31	20.93	-51.9	-53.9	14.8	0.00e+00	0	24	0	1149239296	70	4412
2026-01-09 01:34:43.23	229.26	20.81	-51.8	-53.9	14.8	0.00e+00	0	24	0	1151336448	70	4406
2026-01-09 01:34:44.37	229.20	20.66	-51.9	-54.0	14.7	0.00e+00	0	24	0	1153433600	70	4455
2026-01-09 01:34:45.23	229.15	20.55	-51.8	-53.9	14.8	0.00e+00	0	24	0	1155530752	70	4411
2026-01-09 01:34:46.37	229.09	20.40	-52.0	-54.0	14.7	0.00e+00	0	24	0	1156579328	70	4483
2026-01-09 01:34:47.23	229.04	20.29	-52.0	-54.0	14.7	0.00e+00	0	24	0	1158676480	70	4493
2026-01-09 01:34:48.37	228.98	20.14	-52.0	-54.1	14.7	0.00e+00	0	24	0	1160773632	70	4523
2026-01-09 01:34:49.22	228.93	20.03	-52.0	-54.1	14.7	0.00e+00	0	24	0	1162870784	70	4514
2026-01-09 01:34:50.37	228.87	19.89	-52.2	-54.3	14.6	0.00e+00	0	24	0	1164967936	70	4641
2026-01-09 01:34:51.23	228.83	19.78	-52.4	-54.6	14.4	0.00e+00	0	24	0	1166016512	70	4808
2026-01-09 01:34:52.38	228.77	19.63	-52.5	-54.8	14.3	0.00e+00	0	24	0	1168113664	70	4877
2026-01-09 01:34:53.23	228.72	19.52	-52.6	-55.0	14.2	0.00e+00	0	24	0	1170210816	70	4991
2026-01-09 01:34:54.37	228.67	19.38	-52.6	-55.0	14.2	0.00e+00	0	24	0	1172307968	70	4987
2026-01-09 01:34:55.23	228.62	19.27	-52.5	-54.8	14.3	0.00e+00	0	24	0	1173356544	70	4924
2026-01-09 01:34:56.37	228.57	19.13	-52.8	-55.2	14.1	0.00e+00	0	24	0	1175453696	70	5143
2026-01-09 01:34:57.22	228.52	19.03	-52.7	-55.0	14.2	0.00e+00	0	24	0	1177550848	70	5024
2026-01-09 01:34:58.37	228.47	18.88	-52.7	-55.1	14.1	0.00e+00	0	24	0	1179648000	70	5077
2026-01-09 01:34:59.22	228.43	18.78	-52.7	-55.1	14.1	0.00e+00	0	24	0	1180696576	70	5087
2026-01-09 01:35:00.36	228.37	18.64	-52.8	-55.2	14.1	0.00e+00	0	24	0	1183842304	70	5119
2026-01-09 01:35:01.22	228.33	18.54	-52.6	-55.0	14.2	0.00e+00	0	24	0	1184890880	70	5011
2026-01-09 01:35:02.36	228.27	18.40	-52.9	-55.4	14.0	0.00e+00	0	24	0	1186988032	70	5222
2026-01-09 01:35:03.22	228.23	18.30	-52.9	-55.4	14.1	0.00e+00	0	24	0	1189085184	71	4945
2026-01-09 01:35:04.37	228.18	18.16	-53.0	-55.5	14.0	0.00e+00	0	24	0	1191182336	71	5030
2026-01-09 01:35:05.23	228.14	18.06	-53.0	-55.6	14.0	0.00e+00	0	24	0	1192230912	71	5061
2026-01-09 01:35:06.36	228.09	17.92	-53.2	-55.8	13.8	0.00e+00	0	24	0	1194328064	71	5166
2026-01-09 01:35:07.22	228.05	17.82	-53.1	-55.6	13.9	0.00e+00	0	24	0	1196425216	71	5076
2026-01-09 01:35:08.36	228.00	17.69	-53.4	-56.2	13.7	0.00e+00	0	24	0	1198522368	72	5102
2026-01-09 01:35:09.21	227.96	17.59	-53.6	-56.4	13.6	0.00e+00	0	24	0	1199570944	72	5277
2026-01-09 01:35:10.36	227.91	17.45	-53.6	-56.5	13.5	0.00e+00	0	24	0	1201668096	72	5332
2026-01-09 01:35:11.21	227.87	17.36	-53.6	-56.5	13.5	0.00e+00	0	24	0	1203765248	72	5316
2026-01-09 01:35:12.35	227.82	17.22	-53.7	-56.6	13.4	0.00e+00	0	24	0	1205862400	72	5379
2026-01-09 01:35:13.21	227.78	17.13	-53.7	-56.6	13.5	0.00e+00	0	24	0	1207959552	72	5382
2026-01-09 01:35:14.36	227.73	16.99	-53.6	-56.5	13.6	0.00e+00	0	24	0	1210056704	72	5307
2026-01-09 01:35:15.21	227.70	16.90	-53.6	-56.5	13.6	0.00e+00	0	24	0	1211105280	72	5297
2026-01-09 01:35:16.36	227.65	16.77	-53.2	-55.8	14.0	0.00e+00	0	24	0	1213202432	72	4916
2026-01-09 01:35:17.21	227.61	16.67	-53.2	-55.8	13.9	0.00e+00	0	24	0	1215299584	72	4898
2026-01-09 01:35:18.35	227.57	16.54	-53.0	-55.5	14.2	0.00e+00	0	24	0	1217396736	72	4707
2026-01-09 01:35:19.20	227.53	16.45	-52.7	-55.1	14.4	0.00e+00	0	24	0	1218445312	72	4509
2026-01-09 01:35:20.34	227.48	16.32	-52.8	-55.2	14.2	0.00e+00	0	24	0	1220542464	71	4852
2026-01-09 01:35:21.20	227.45	16.23	-52.6	-54.8	14.4	0.00e+00	0	24	0	1222639616	71	4644
2026-01-09 01:35:22.33	227.40	16.10	-52.3	-54.5	14.6	0.00e+00	0	24	0	1224736768	71	4474
2026-01-09 01:35:23.19	227.37	16.01	-52.2	-54.3	14.5	0.00e+00	0	24	0	1225785344	70	4649
2026-01-09 01:35:24.32	227.32	15.88	-52.1	-54.2	14.6	0.00e+00	0	24	0	1227882496	70	4571
