passes_logs/2026/01/09/R3.2S_Murmansk/R3.2S_Murmansk__20260109_211426_NOAA_21_JPSS-2_rec.log

#Pass ID: 20260109_211426_NOAA 21 (JPSS-2)
#Satellite: NOAA 21 (JPSS-2)
#Configuration: NOAA-21
#almurnet v.1.7.20251203
#Start time: 2026-01-09 21:14:28

#Version: 2.2.20231116
#Station: R3.2S_Murmansk
#Location: 33.079688 lon 68.888172 lat
#TLE: 1 54234U 22150A   26009.23291724  .00000115  00000+0  75298-4 0  9996
#TLE: 2 54234  98.7494 310.2026 0000856 324.9272  35.1848 14.19533567163994

#Time	Az	El	Level	Level2	SNR	BER	BlckErr	Temp	State	Recorded	gain1	gain2
2026-01-09 21:14:28.42	18.54	2.07	-57.0	-70.7	3.8	1.49e+00	0	21	0	0	80	17180
2026-01-09 21:14:29.42	18.64	2.12	-57.0	-70.6	3.8	1.49e+00	0	21	104	0	79	18051
2026-01-09 21:14:30.42	18.74	2.16	-57.0	-70.5	3.8	1.49e+00	0	21	104	0	79	17863
2026-01-09 21:14:31.42	18.84	2.21	-56.9	-70.6	3.8	1.49e+00	0	21	104	0	79	17908
2026-01-09 21:14:32.42	18.94	2.25	-56.9	-70.6	3.8	1.49e+00	0	21	104	0	79	17918
2026-01-09 21:14:33.41	19.04	2.29	-57.0	-70.5	3.8	1.49e+00	0	21	104	0	79	17804
2026-01-09 21:14:34.41	19.14	2.34	-57.0	-70.5	3.8	1.49e+00	0	21	104	0	79	17780
2026-01-09 21:14:35.41	19.24	2.38	-56.9	-70.5	3.8	1.49e+00	0	22	104	0	79	17686
2026-01-09 21:14:36.41	19.34	2.43	-56.9	-70.5	3.8	1.49e+00	0	21	104	0	79	17739
2026-01-09 21:14:37.41	19.45	2.47	-57.0	-70.5	3.8	1.49e+00	0	22	104	0	79	17851
2026-01-09 21:14:38.41	19.55	2.51	-57.0	-70.6	3.8	1.49e+00	0	22	104	0	79	17896
2026-01-09 21:14:39.41	19.65	2.56	-56.9	-70.5	3.8	1.49e+00	0	21	104	0	79	17812
2026-01-09 21:14:40.41	19.75	2.60	-57.0	-70.5	3.8	1.49e+00	0	22	104	0	79	17871
2026-01-09 21:14:41.41	19.85	2.64	-57.0	-70.6	3.8	1.49e+00	0	22	104	0	79	17959
2026-01-09 21:14:42.42	19.96	2.69	-57.0	-70.5	3.8	1.49e+00	0	22	104	0	79	17821
2026-01-09 21:14:43.41	20.06	2.73	-57.0	-70.6	3.8	1.49e+00	0	22	104	0	79	17944
2026-01-09 21:14:44.40	20.16	2.78	-57.0	-70.6	3.8	1.49e+00	0	22	104	0	79	17957
2026-01-09 21:14:45.40	20.27	2.82	-57.0	-70.6	3.8	1.49e+00	0	22	104	0	79	17922
2026-01-09 21:14:46.40	20.37	2.86	-57.0	-70.6	3.8	1.49e+00	0	22	104	0	79	18009
2026-01-09 21:14:47.40	20.48	2.91	-57.0	-70.6	3.8	1.49e+00	0	22	104	0	79	18030
2026-01-09 21:14:48.40	20.58	2.95	-57.0	-70.6	3.8	1.49e+00	0	22	104	0	79	18069
2026-01-09 21:14:49.40	20.69	2.99	-57.0	-70.7	3.8	1.49e+00	0	22	104	0	79	18264
2026-01-09 21:14:50.40	20.79	3.04	-57.0	-70.7	3.8	1.49e+00	0	22	104	0	79	18218
2026-01-09 21:14:51.40	20.90	3.08	-57.0	-70.7	3.8	1.49e+00	0	22	104	0	79	18249
2026-01-09 21:14:52.40	21.00	3.13	-57.0	-70.7	3.8	1.49e+00	0	22	104	0	79	18190
2026-01-09 21:14:53.40	21.11	3.17	-57.0	-70.7	3.8	1.49e+00	0	22	104	0	79	18167
2026-01-09 21:14:54.39	21.21	3.21	-57.0	-70.7	3.8	1.49e+00	0	22	104	0	79	18206
2026-01-09 21:14:55.40	21.32	3.26	-57.0	-70.7	3.8	1.49e+00	0	22	104	0	79	18141
2026-01-09 21:14:56.40	21.43	3.30	-57.0	-70.7	3.8	1.49e+00	0	22	104	0	79	18195
2026-01-09 21:14:57.40	21.54	3.34	-57.0	-70.7	3.8	1.49e+00	0	22	104	0	79	18144
2026-01-09 21:14:58.40	21.64	3.39	-57.0	-70.5	3.8	1.49e+00	0	22	104	0	79	17842
2026-01-09 21:14:59.41	21.75	3.43	-57.0	-70.5	3.8	1.49e+00	0	22	104	0	79	17745
2026-01-09 21:15:00.41	21.86	3.48	-57.0	-70.7	3.8	1.49e+00	0	22	104	0	79	18123
2026-01-09 21:15:01.40	21.97	3.52	-57.0	-70.7	3.8	1.49e+00	0	22	104	0	79	18189
2026-01-09 21:15:02.40	22.08	3.56	-57.0	-70.7	3.8	1.49e+00	0	22	104	0	79	18177
2026-01-09 21:15:03.40	22.19	3.61	-57.0	-70.7	3.8	1.49e+00	0	22	104	0	79	18198
2026-01-09 21:15:04.41	22.30	3.65	-57.0	-70.7	3.8	1.49e+00	0	22	104	0	79	18282
2026-01-09 21:15:05.41	22.41	3.69	-57.0	-70.7	3.8	1.49e+00	0	22	104	0	79	18138
2026-01-09 21:15:06.41	22.52	3.74	-57.0	-70.6	3.8	1.49e+00	0	22	104	0	79	18082
2026-01-09 21:15:07.41	22.63	3.78	-57.0	-70.7	3.8	1.49e+00	0	22	104	0	79	18246
2026-01-09 21:15:08.40	22.74	3.83	-57.0	-70.7	3.8	1.49e+00	0	22	104	0	79	18213
2026-01-09 21:15:09.40	22.85	3.87	-57.0	-70.7	3.8	1.49e+00	0	22	104	0	79	18285
2026-01-09 21:15:10.40	22.96	3.91	-57.0	-70.7	3.8	1.49e+00	0	22	104	0	79	18274
2026-01-09 21:15:11.40	23.07	3.96	-57.0	-70.7	3.8	1.49e+00	0	22	104	0	79	18166
2026-01-09 21:15:12.39	23.18	4.00	-57.0	-70.7	3.8	1.49e+00	0	22	104	0	79	18193
2026-01-09 21:15:13.39	23.30	4.04	-57.0	-70.6	3.8	1.49e+00	0	22	104	0	79	17979
2026-01-09 21:15:14.38	23.41	4.09	-57.0	-70.6	3.8	1.49e+00	0	22	104	0	79	18004
2026-01-09 21:15:15.38	23.52	4.13	-57.0	-70.7	3.8	1.49e+00	0	22	104	0	79	18182
2026-01-09 21:15:16.38	23.63	4.17	-57.0	-70.7	3.8	1.49e+00	0	22	104	0	79	18251
2026-01-09 21:15:17.38	23.75	4.22	-57.0	-70.6	3.8	1.49e+00	0	22	104	0	79	18074
2026-01-09 21:15:18.37	23.86	4.26	-57.0	-70.4	3.8	1.49e+00	0	22	104	0	79	17508
2026-01-09 21:15:19.36	23.97	4.30	-56.9	-69.9	3.8	1.49e+00	0	22	104	0	79	16543
2026-01-09 21:15:20.36	24.09	4.35	-56.9	-69.4	3.8	1.49e+00	0	22	104	0	79	15740
2026-01-09 21:15:21.36	24.20	4.39	-56.9	-69.4	3.8	1.49e+00	0	23	104	0	79	15611
2026-01-09 21:15:22.36	24.32	4.43	-56.9	-69.6	3.8	1.49e+00	0	22	104	0	79	16005
2026-01-09 21:15:23.35	24.43	4.48	-56.9	-69.7	3.8	1.49e+00	0	22	104	0	79	16217
2026-01-09 21:15:24.35	24.55	4.52	-56.9	-69.2	3.9	1.49e+00	0	22	104	0	79	15310
2026-01-09 21:15:25.35	24.67	4.56	-56.7	-66.7	4.4	1.48e+00	0	22	104	0	79	11453
2026-01-09 21:15:26.35	24.78	4.60	-56.3	-64.1	5.6	6.19e-01	0	23	0	0	79	8482
2026-01-09 21:15:27.35	24.90	4.65	-55.8	-61.8	7.3	1.46e-01	0	23	0	3145728	78	6916
2026-01-09 21:15:28.35	25.02	4.69	-55.3	-60.2	8.7	2.77e-02	0	22	0	6291456	77	6082
2026-01-09 21:15:29.35	25.13	4.73	-54.8	-58.9	9.8	4.85e-03	0	23	0	9437184	76	5590
2026-01-09 21:15:30.35	25.25	4.78	-54.6	-58.7	9.9	1.85e-03	0	23	0	12582912	75	5731
2026-01-09 21:15:31.34	25.37	4.82	-54.1	-57.7	10.7	9.25e-04	0	23	0	15728640	74	5433
2026-01-09 21:15:32.33	25.49	4.86	-54.2	-57.9	10.5	6.35e-04	0	22	0	18874368	74	5569
2026-01-09 21:15:33.33	25.60	4.91	-54.5	-58.6	9.9	2.01e-03	0	23	0	22020096	74	6053
2026-01-09 21:15:34.32	25.72	4.95	-54.6	-58.8	9.8	3.02e-03	0	22	0	25165824	74	6133
2026-01-09 21:15:35.32	25.84	4.99	-55.1	-59.9	8.8	1.24e-02	0	23	0	28311552	75	6618
2026-01-09 21:15:36.33	25.96	5.04	-54.6	-58.5	10.0	3.14e-02	0	22	0	31457280	75	5638
2026-01-09 21:15:37.32	26.08	5.08	-51.9	-54.1	13.3	0.00e+00	0	23	0	34603008	69	4792
2026-01-09 21:15:38.32	26.20	5.12	-56.0	-63.7	5.5	1.40e+00	0	22	104	35651584	77	9115
2026-01-09 21:15:39.32	26.32	5.16	-53.9	-57.0	11.5	4.43e-04	0	23	0	37748736	74	5027
2026-01-09 21:15:40.32	26.45	5.21	-52.8	-55.3	12.6	0.00e+00	0	23	0	40894464	70	5187
2026-01-09 21:15:41.32	26.57	5.25	-56.0	-61.9	7.4	2.71e-01	0	22	0	44040192	78	6998
2026-01-09 21:15:42.33	26.69	5.29	-51.4	-53.4	13.8	0.00e+00	0	23	0	47185920	69	4395
2026-01-09 21:15:43.33	26.81	5.33	-51.5	-53.5	13.7	0.00e+00	0	23	0	50331648	69	4451
2026-01-09 21:15:44.33	26.94	5.38	-51.3	-53.2	13.9	0.00e+00	0	23	0	53477376	69	4313
2026-01-09 21:15:45.33	27.06	5.42	-51.2	-53.1	14.0	0.00e+00	0	23	0	56623104	69	4264
2026-01-09 21:15:46.34	27.18	5.46	-51.3	-53.2	13.9	0.00e+00	0	23	0	59768832	69	4306
2026-01-09 21:15:47.33	27.31	5.51	-51.2	-53.1	13.8	0.00e+00	0	23	0	62914560	68	4513
2026-01-09 21:15:48.33	27.43	5.55	-51.2	-53.1	13.8	0.00e+00	0	23	0	66060288	68	4503
2026-01-09 21:15:49.33	27.55	5.59	-51.3	-53.2	13.8	0.00e+00	0	23	0	69206016	68	4563
2026-01-09 21:15:50.33	27.68	5.63	-51.3	-53.2	13.8	0.00e+00	0	23	0	72351744	68	4549
2026-01-09 21:15:51.33	27.80	5.68	-51.1	-53.0	13.9	0.00e+00	0	23	0	75497472	68	4469
2026-01-09 21:15:52.33	27.93	5.72	-51.2	-53.1	13.8	0.00e+00	0	23	0	78643200	68	4513
2026-01-09 21:15:53.33	28.05	5.76	-51.0	-52.8	14.0	0.00e+00	0	23	0	81788928	68	4370
2026-01-09 21:15:54.34	28.18	5.80	-50.8	-52.5	14.2	0.00e+00	0	23	0	84934656	68	4240
2026-01-09 21:15:55.34	28.31	5.85	-51.0	-52.7	14.1	0.00e+00	0	23	0	88080384	68	4331
2026-01-09 21:15:56.34	28.44	5.89	-50.9	-52.7	14.1	0.00e+00	0	23	0	91226112	68	4328
2026-01-09 21:15:57.33	28.56	5.93	-50.9	-52.7	14.1	0.00e+00	0	23	0	94371840	68	4297
2026-01-09 21:15:58.33	28.69	5.97	-51.0	-52.8	14.1	0.00e+00	0	23	0	97517568	68	4353
2026-01-09 21:15:59.32	28.82	6.01	-50.9	-52.7	14.1	0.00e+00	0	23	0	100663296	68	4322
2026-01-09 21:16:00.32	28.94	6.05	-50.7	-52.5	14.3	0.00e+00	0	23	0	103809024	68	4194
2026-01-09 21:16:01.32	29.07	6.10	-50.8	-52.5	14.3	0.00e+00	0	23	0	106954752	68	4205
2026-01-09 21:16:02.33	29.20	6.14	-50.9	-52.6	14.2	0.00e+00	0	23	0	110100480	68	4272
2026-01-09 21:16:03.33	29.33	6.18	-50.8	-52.5	14.3	0.00e+00	0	23	0	113246208	68	4212
2026-01-09 21:16:04.33	29.46	6.22	-51.0	-52.8	14.0	0.00e+00	0	23	0	116391936	68	4385
2026-01-09 21:16:05.33	29.59	6.26	-50.8	-52.6	14.2	0.00e+00	0	23	0	119537664	68	4264
2026-01-09 21:16:06.33	29.72	6.31	-50.8	-52.5	14.3	0.00e+00	0	23	0	122683392	68	4228
2026-01-09 21:16:07.34	29.85	6.35	-50.9	-52.7	14.2	0.00e+00	0	23	0	125829120	68	4300
2026-01-09 21:16:08.33	29.98	6.39	-50.9	-52.6	14.2	0.00e+00	0	23	0	128974848	68	4278
2026-01-09 21:16:09.33	30.11	6.43	-50.8	-52.5	14.3	0.00e+00	0	23	0	132120576	68	4218
2026-01-09 21:16:10.33	30.25	6.47	-50.8	-52.5	14.3	0.00e+00	0	23	0	135266304	68	4218
2026-01-09 21:16:11.33	30.38	6.51	-50.7	-52.4	14.3	0.00e+00	0	23	0	138412032	68	4177
2026-01-09 21:16:12.34	30.51	6.56	-50.5	-52.2	14.2	0.00e+00	0	23	0	141557760	67	4333
2026-01-09 21:16:13.33	30.64	6.60	-50.7	-52.4	14.1	0.00e+00	0	23	0	143654912	67	4416
2026-01-09 21:16:14.32	30.78	6.64	-50.6	-52.3	14.2	0.00e+00	0	23	0	146800640	67	4371
2026-01-09 21:16:15.32	30.91	6.68	-50.4	-52.1	14.3	0.00e+00	0	23	0	149946368	67	4262
2026-01-09 21:16:16.32	31.04	6.72	-50.5	-52.2	14.2	0.00e+00	0	23	0	153092096	67	4319
2026-01-09 21:16:17.31	31.18	6.76	-50.6	-52.2	14.3	0.00e+00	0	23	0	156237824	67	4340
2026-01-09 21:16:18.31	31.31	6.80	-50.5	-52.2	14.3	0.00e+00	0	23	0	159383552	67	4304
2026-01-09 21:16:19.30	31.44	6.84	-50.4	-52.0	14.4	0.00e+00	0	23	0	162529280	67	4227
2026-01-09 21:16:20.29	31.58	6.88	-50.4	-52.0	14.4	0.00e+00	0	23	0	165675008	67	4238
2026-01-09 21:16:21.29	31.71	6.92	-50.6	-52.3	14.2	0.00e+00	0	23	0	168820736	67	4357
2026-01-09 21:16:22.29	31.85	6.96	-50.6	-52.3	14.2	0.00e+00	0	23	0	171966464	67	4390
2026-01-09 21:16:23.28	31.99	7.00	-50.4	-52.1	14.3	0.00e+00	0	23	0	175112192	67	4261
2026-01-09 21:16:24.28	32.12	7.04	-50.5	-52.2	14.3	0.00e+00	0	23	0	178257920	67	4313
2026-01-09 21:16:25.27	32.26	7.08	-50.6	-52.2	14.2	0.00e+00	0	23	0	181403648	67	4333
2026-01-09 21:16:26.27	32.40	7.12	-50.6	-52.4	14.2	0.00e+00	0	23	0	184549376	67	4397
2026-01-09 21:16:27.27	32.53	7.17	-50.5	-52.1	14.3	0.00e+00	0	23	0	187695104	67	4278
2026-01-09 21:16:28.27	32.67	7.21	-50.5	-52.1	14.3	0.00e+00	0	23	0	190840832	67	4288
2026-01-09 21:16:29.27	32.81	7.25	-50.4	-52.0	14.4	0.00e+00	0	23	0	193986560	67	4232
2026-01-09 21:16:30.27	32.95	7.29	-50.4	-52.1	14.3	0.00e+00	0	23	0	197132288	67	4256
2026-01-09 21:16:31.28	33.09	7.33	-50.4	-52.0	14.4	0.00e+00	0	23	0	200278016	67	4222
2026-01-09 21:16:32.28	33.23	7.37	-50.4	-52.0	14.4	0.00e+00	0	23	0	203423744	67	4213
2026-01-09 21:16:33.28	33.37	7.41	-50.4	-52.1	14.4	0.00e+00	0	23	0	206569472	67	4248
2026-01-09 21:16:34.28	33.51	7.45	-50.3	-51.9	14.4	0.00e+00	0	23	0	209715200	67	4191
2026-01-09 21:16:35.28	33.65	7.49	-50.4	-52.0	14.4	0.00e+00	0	23	0	212860928	67	4222
2026-01-09 21:16:36.27	33.79	7.52	-50.4	-52.0	14.4	0.00e+00	0	23	0	216006656	67	4231
2026-01-09 21:16:37.27	33.93	7.56	-50.3	-51.9	14.5	0.00e+00	0	23	0	219152384	67	4156
2026-01-09 21:16:38.27	34.08	7.60	-50.2	-51.8	14.5	0.00e+00	0	23	0	222298112	67	4136
2026-01-09 21:16:39.27	34.22	7.64	-50.2	-51.8	14.5	0.00e+00	0	23	0	225443840	67	4141
2026-01-09 21:16:40.27	34.36	7.68	-50.3	-52.0	14.4	0.00e+00	0	23	0	228589568	67	4212
2026-01-09 21:16:41.28	34.51	7.72	-50.3	-52.0	14.5	0.00e+00	0	23	0	231735296	67	4197
2026-01-09 21:16:42.28	34.65	7.76	-50.4	-52.1	14.4	0.00e+00	0	23	0	234881024	67	4268
2026-01-09 21:16:43.28	34.79	7.80	-50.3	-52.0	14.5	0.00e+00	0	23	0	238026752	67	4195
2026-01-09 21:16:44.28	34.94	7.84	-50.3	-52.0	14.5	0.00e+00	0	23	0	241172480	67	4203
2026-01-09 21:16:45.28	35.08	7.88	-50.2	-51.8	14.5	0.00e+00	0	23	0	244318208	67	4142
2026-01-09 21:16:46.28	35.23	7.92	-50.2	-51.8	14.5	0.00e+00	0	23	0	247463936	67	4137
2026-01-09 21:16:47.28	35.37	7.96	-50.1	-51.7	14.5	0.00e+00	0	23	0	250609664	66	4299
2026-01-09 21:16:48.27	35.52	7.99	-50.0	-51.5	14.6	0.00e+00	0	23	0	253755392	66	4232
2026-01-09 21:16:49.26	35.66	8.03	-50.1	-51.7	14.5	0.00e+00	0	23	0	255852544	66	4292
2026-01-09 21:16:50.25	35.81	8.07	-50.1	-51.7	14.5	0.00e+00	0	23	0	258998272	66	4312
2026-01-09 21:16:51.25	35.95	8.11	-50.0	-51.6	14.5	0.00e+00	0	23	0	262144000	66	4257
2026-01-09 21:16:52.25	36.10	8.15	-50.1	-51.6	14.5	0.00e+00	0	23	0	265289728	66	4278
2026-01-09 21:16:53.26	36.25	8.18	-50.1	-51.7	14.5	0.00e+00	0	23	0	268435456	66	4311
2026-01-09 21:16:54.25	36.40	8.22	-50.2	-51.7	14.4	0.00e+00	0	23	0	271581184	66	4335
2026-01-09 21:16:55.25	36.54	8.26	-50.0	-51.6	14.5	0.00e+00	0	23	0	274726912	66	4263
2026-01-09 21:16:56.24	36.69	8.30	-50.0	-51.5	14.5	0.00e+00	0	23	0	277872640	66	4240
2026-01-09 21:16:57.24	36.84	8.33	-50.0	-51.5	14.6	0.00e+00	0	23	0	281018368	66	4223
2026-01-09 21:16:58.25	36.99	8.37	-49.9	-51.4	14.6	0.00e+00	0	23	0	284164096	66	4177
2026-01-09 21:16:59.24	37.14	8.41	-50.0	-51.6	14.5	0.00e+00	0	23	0	287309824	66	4262
2026-01-09 21:17:00.24	37.29	8.45	-50.0	-51.5	14.6	0.00e+00	0	23	0	290455552	66	4215
2026-01-09 21:17:01.24	37.44	8.48	-49.8	-51.3	14.7	0.00e+00	0	23	0	293601280	66	4131
2026-01-09 21:17:02.24	37.59	8.52	-49.8	-51.3	14.7	0.00e+00	0	23	0	296747008	66	4144
2026-01-09 21:17:03.24	37.74	8.56	-49.9	-51.4	14.6	0.00e+00	0	23	0	299892736	66	4169
2026-01-09 21:17:04.24	37.89	8.59	-49.9	-51.4	14.6	0.00e+00	0	23	0	303038464	66	4191
2026-01-09 21:17:05.25	38.05	8.63	-49.8	-51.3	14.7	0.00e+00	0	23	0	306184192	66	4130
2026-01-09 21:17:06.25	38.20	8.67	-49.8	-51.4	14.7	0.00e+00	0	23	0	309329920	66	4147
2026-01-09 21:17:07.25	38.35	8.70	-49.9	-51.5	14.6	0.00e+00	0	23	0	312475648	66	4195
2026-01-09 21:17:08.25	38.51	8.74	-49.9	-51.4	14.7	0.00e+00	0	23	0	315621376	66	4166
2026-01-09 21:17:09.25	38.66	8.78	-49.9	-51.5	14.6	0.00e+00	0	23	0	318767104	66	4200
2026-01-09 21:17:10.25	38.81	8.81	-50.0	-51.5	14.6	0.00e+00	0	23	0	321912832	66	4230
2026-01-09 21:17:11.25	38.97	8.85	-50.1	-51.6	14.5	0.00e+00	0	23	0	325058560	66	4265
2026-01-09 21:17:12.24	39.12	8.88	-50.0	-51.5	14.6	0.00e+00	0	23	0	328204288	66	4229
2026-01-09 21:17:13.23	39.27	8.92	-50.1	-51.7	14.5	0.00e+00	0	23	0	331350016	66	4324
2026-01-09 21:17:14.23	39.43	8.96	-50.1	-51.7	14.5	0.00e+00	0	23	0	334495744	66	4294
2026-01-09 21:17:15.22	39.58	8.99	-50.0	-51.6	14.5	0.00e+00	0	23	0	337641472	66	4256
2026-01-09 21:17:16.22	39.74	9.03	-50.0	-51.6	14.6	0.00e+00	0	23	0	340787200	66	4246
2026-01-09 21:17:17.22	39.90	9.06	-50.0	-51.5	14.6	0.00e+00	0	23	0	343932928	66	4217
2026-01-09 21:17:18.21	40.05	9.10	-50.1	-51.6	14.5	0.00e+00	0	23	0	347078656	66	4284
2026-01-09 21:17:19.21	40.21	9.13	-50.1	-51.7	14.5	0.00e+00	0	23	0	350224384	66	4303
2026-01-09 21:17:20.20	40.36	9.17	-49.9	-51.5	14.6	0.00e+00	0	23	0	353370112	66	4196
2026-01-09 21:17:21.20	40.52	9.20	-50.0	-51.5	14.6	0.00e+00	0	23	0	356515840	66	4234
2026-01-09 21:17:22.19	40.68	9.23	-50.0	-51.5	14.6	0.00e+00	0	23	0	359661568	66	4212
2026-01-09 21:17:23.19	40.84	9.27	-49.9	-51.4	14.6	0.00e+00	0	23	0	362807296	66	4190
2026-01-09 21:17:24.19	41.00	9.30	-49.9	-51.4	14.7	0.00e+00	0	23	0	365953024	66	4165
2026-01-09 21:17:25.19	41.16	9.34	-50.0	-51.5	14.6	0.00e+00	0	23	0	369098752	66	4212
2026-01-09 21:17:26.18	41.31	9.37	-50.0	-51.5	14.6	0.00e+00	0	23	0	372244480	66	4221
2026-01-09 21:17:27.17	41.47	9.40	-49.9	-51.5	14.6	0.00e+00	0	23	0	375390208	66	4208
2026-01-09 21:17:28.18	41.63	9.44	-50.0	-51.5	14.6	0.00e+00	0	23	0	378535936	66	4229
2026-01-09 21:17:29.18	41.80	9.47	-50.0	-51.5	14.6	0.00e+00	0	23	0	381681664	66	4212
2026-01-09 21:17:30.18	41.96	9.51	-50.0	-51.5	14.6	0.00e+00	0	23	0	384827392	66	4240
2026-01-09 21:17:31.18	42.12	9.54	-50.0	-51.6	14.5	0.00e+00	0	23	0	386924544	66	4270
2026-01-09 21:17:32.18	42.28	9.57	-50.2	-51.7	14.5	0.00e+00	0	23	0	390070272	66	4329
2026-01-09 21:17:33.17	42.44	9.60	-50.0	-51.5	14.6	0.00e+00	0	23	0	393216000	66	4238
2026-01-09 21:17:34.16	42.60	9.64	-49.8	-51.3	14.7	0.00e+00	0	23	0	396361728	66	4143
2026-01-09 21:17:35.16	42.76	9.67	-49.8	-51.3	14.7	0.00e+00	0	23	0	399507456	66	4133
2026-01-09 21:17:36.15	42.93	9.70	-49.8	-51.3	14.7	0.00e+00	0	23	0	402653184	66	4118
2026-01-09 21:17:37.15	43.09	9.73	-49.9	-51.4	14.7	0.00e+00	0	23	0	405798912	66	4159
2026-01-09 21:17:38.14	43.25	9.77	-49.8	-51.3	14.7	0.00e+00	0	23	0	408944640	66	4109
2026-01-09 21:17:39.14	43.42	9.80	-49.9	-51.4	14.7	0.00e+00	0	23	0	412090368	66	4172
2026-01-09 21:17:40.13	43.58	9.83	-50.0	-51.5	14.6	0.00e+00	0	23	0	415236096	66	4203
2026-01-09 21:17:41.13	43.74	9.86	-50.0	-51.5	14.6	0.00e+00	0	23	0	418381824	66	4226
2026-01-09 21:17:42.14	43.91	9.89	-50.1	-51.6	14.5	0.00e+00	0	23	0	421527552	66	4288
2026-01-09 21:17:43.14	44.08	9.92	-50.1	-51.7	14.5	0.00e+00	0	23	0	424673280	66	4309
2026-01-09 21:17:44.15	44.24	9.96	-50.2	-51.8	14.4	0.00e+00	0	23	0	427819008	66	4365
2026-01-09 21:17:45.14	44.41	9.99	-50.2	-51.8	14.4	0.00e+00	0	23	0	430964736	66	4369
2026-01-09 21:17:46.14	44.58	10.02	-50.3	-51.9	14.4	0.00e+00	0	23	0	434110464	66	4412
2026-01-09 21:17:47.15	44.74	10.05	-50.1	-51.7	14.5	0.00e+00	0	23	0	437256192	66	4296
2026-01-09 21:17:48.15	44.91	10.08	-49.9	-51.5	14.6	0.00e+00	0	23	0	440401920	66	4197
2026-01-09 21:17:49.15	45.08	10.11	-50.0	-51.5	14.6	0.00e+00	0	23	0	443547648	66	4214
2026-01-09 21:17:50.15	45.25	10.14	-49.9	-51.4	14.7	0.00e+00	0	23	0	446693376	66	4171
2026-01-09 21:17:51.15	45.42	10.17	-49.9	-51.3	14.7	0.00e+00	0	23	0	449839104	66	4145
2026-01-09 21:17:52.14	45.58	10.20	-49.8	-51.3	14.7	0.00e+00	0	23	0	452984832	66	4140
2026-01-09 21:17:53.14	45.75	10.23	-49.8	-51.3	14.7	0.00e+00	0	23	0	456130560	66	4120
2026-01-09 21:17:54.15	45.92	10.26	-49.8	-51.3	14.7	0.00e+00	0	23	0	459276288	66	4124
2026-01-09 21:17:55.15	46.09	10.29	-49.9	-51.4	14.6	0.00e+00	0	23	0	462422016	66	4193
2026-01-09 21:17:56.15	46.26	10.32	-50.0	-51.5	14.6	0.00e+00	0	23	0	465567744	66	4209
2026-01-09 21:17:57.15	46.43	10.34	-49.9	-51.4	14.7	0.00e+00	0	23	0	468713472	66	4179
2026-01-09 21:17:58.14	46.60	10.37	-49.9	-51.4	14.7	0.00e+00	0	23	0	471859200	66	4159
2026-01-09 21:17:59.14	46.77	10.40	-49.8	-51.3	14.7	0.00e+00	0	23	0	475004928	66	4137
2026-01-09 21:18:00.14	46.95	10.43	-49.8	-51.3	14.7	0.00e+00	0	23	0	478150656	66	4114
2026-01-09 21:18:01.13	47.12	10.46	-49.9	-51.4	14.7	0.00e+00	0	23	0	481296384	66	4176
2026-01-09 21:18:02.13	47.29	10.48	-49.9	-51.4	14.7	0.00e+00	0	23	0	484442112	66	4171
2026-01-09 21:18:03.13	47.46	10.51	-49.9	-51.4	14.7	0.00e+00	0	23	0	487587840	66	4172
2026-01-09 21:18:04.12	47.63	10.54	-49.8	-51.3	14.7	0.00e+00	0	23	0	490733568	66	4113
2026-01-09 21:18:05.13	47.81	10.57	-49.8	-51.3	14.7	0.00e+00	0	23	0	493879296	66	4120
2026-01-09 21:18:06.13	47.98	10.59	-49.8	-51.3	14.7	0.00e+00	0	23	0	497025024	66	4119
2026-01-09 21:18:07.13	48.15	10.62	-49.9	-51.3	14.7	0.00e+00	0	23	0	500170752	66	4143
2026-01-09 21:18:08.13	48.33	10.65	-49.7	-51.1	14.8	0.00e+00	0	23	0	503316480	66	4050
2026-01-09 21:18:09.13	48.50	10.67	-49.7	-51.1	14.6	0.00e+00	0	23	0	506462208	65	4290
2026-01-09 21:18:10.13	48.67	10.70	-49.7	-51.1	14.7	0.00e+00	0	23	0	509607936	65	4284
2026-01-09 21:18:11.13	48.85	10.73	-49.7	-51.2	14.6	0.00e+00	0	23	0	512753664	65	4312
2026-01-09 21:18:12.13	49.02	10.75	-49.7	-51.2	14.6	0.00e+00	0	23	0	515899392	65	4338
2026-01-09 21:18:13.13	49.20	10.78	-49.7	-51.2	14.6	0.00e+00	0	23	0	519045120	65	4323
2026-01-09 21:18:14.13	49.38	10.80	-49.8	-51.3	14.6	0.00e+00	0	23	0	522190848	65	4342
2026-01-09 21:18:15.14	49.55	10.83	-49.7	-51.2	14.6	0.00e+00	0	23	0	524288000	65	4296
2026-01-09 21:18:16.13	49.73	10.85	-49.7	-51.2	14.6	0.00e+00	0	23	0	527433728	65	4314
2026-01-09 21:18:17.12	49.90	10.88	-49.7	-51.2	14.6	0.00e+00	0	23	0	530579456	65	4320
2026-01-09 21:18:18.12	50.08	10.90	-49.8	-51.3	14.6	0.00e+00	0	23	0	533725184	65	4352
2026-01-09 21:18:19.12	50.26	10.93	-49.8	-51.3	14.6	0.00e+00	0	23	0	536870912	65	4344
2026-01-09 21:18:20.12	50.43	10.95	-49.7	-51.2	14.6	0.00e+00	0	23	0	540016640	65	4330
2026-01-09 21:18:21.11	50.61	10.97	-49.9	-51.4	14.5	0.00e+00	0	23	0	543162368	65	4421
2026-01-09 21:18:22.11	50.79	11.00	-50.0	-51.5	14.4	0.00e+00	0	23	0	546308096	65	4488
2026-01-09 21:18:23.10	50.96	11.02	-49.9	-51.4	14.5	0.00e+00	0	23	0	549453824	65	4420
2026-01-09 21:18:24.10	51.14	11.05	-49.8	-51.3	14.6	0.00e+00	0	23	0	552599552	65	4349
2026-01-09 21:18:25.09	51.32	11.07	-49.8	-51.3	14.6	0.00e+00	0	23	0	555745280	65	4371
2026-01-09 21:18:26.10	51.50	11.09	-49.6	-51.0	14.7	0.00e+00	0	23	0	558891008	65	4237
2026-01-09 21:18:27.09	51.68	11.11	-49.6	-51.0	14.7	0.00e+00	0	23	0	562036736	65	4224
2026-01-09 21:18:28.09	51.86	11.14	-49.7	-51.2	14.7	0.00e+00	0	23	0	565182464	65	4292
2026-01-09 21:18:29.09	52.04	11.16	-49.5	-51.0	14.8	0.00e+00	0	23	0	568328192	65	4198
2026-01-09 21:18:30.09	52.22	11.18	-49.5	-51.0	14.7	0.00e+00	0	23	0	571473920	65	4215
2026-01-09 21:18:31.09	52.40	11.20	-49.7	-51.2	14.6	0.00e+00	0	23	0	574619648	65	4301
2026-01-09 21:18:32.09	52.58	11.22	-49.8	-51.3	14.6	0.00e+00	0	23	0	577765376	65	4367
2026-01-09 21:18:33.09	52.76	11.24	-49.9	-51.4	14.5	0.00e+00	0	23	0	580911104	65	4398
2026-01-09 21:18:34.08	52.94	11.26	-49.9	-51.4	14.5	0.00e+00	0	23	0	584056832	65	4439
2026-01-09 21:18:35.09	53.12	11.29	-49.8	-51.3	14.6	0.00e+00	0	23	0	587202560	65	4374
2026-01-09 21:18:36.08	53.30	11.31	-49.8	-51.4	14.6	0.00e+00	0	23	0	590348288	65	4395
2026-01-09 21:18:37.08	53.48	11.33	-49.8	-51.3	14.6	0.00e+00	0	23	0	593494016	65	4382
2026-01-09 21:18:38.08	53.67	11.35	-49.7	-51.2	14.6	0.00e+00	0	23	0	596639744	65	4324
2026-01-09 21:18:39.07	53.85	11.37	-49.6	-51.1	14.7	0.00e+00	0	23	0	599785472	65	4257
2026-01-09 21:18:40.07	54.03	11.39	-49.7	-51.1	14.7	0.00e+00	0	23	0	602931200	65	4282
2026-01-09 21:18:41.07	54.21	11.40	-49.6	-51.0	14.7	0.00e+00	0	23	0	606076928	65	4221
2026-01-09 21:18:42.07	54.40	11.42	-49.6	-51.1	14.7	0.00e+00	0	23	0	609222656	65	4255
2026-01-09 21:18:43.07	54.58	11.44	-49.6	-51.1	14.7	0.00e+00	0	23	0	612368384	65	4259
2026-01-09 21:18:44.07	54.76	11.46	-49.7	-51.2	14.6	0.00e+00	0	23	0	615514112	65	4308
2026-01-09 21:18:45.07	54.95	11.48	-49.7	-51.2	14.6	0.00e+00	0	23	0	618659840	65	4335
2026-01-09 21:18:46.07	55.13	11.50	-49.8	-51.3	14.5	0.00e+00	0	23	0	621805568	65	4382
2026-01-09 21:18:47.08	55.32	11.52	-49.7	-51.3	14.6	0.00e+00	0	23	0	624951296	65	4341
2026-01-09 21:18:48.08	55.50	11.53	-49.8	-51.3	14.6	0.00e+00	0	23	0	628097024	65	4363
2026-01-09 21:18:49.09	55.69	11.55	-49.6	-51.1	14.7	0.00e+00	0	24	0	631242752	65	4261
2026-01-09 21:18:50.08	55.87	11.57	-49.5	-51.0	14.7	0.00e+00	0	23	0	634388480	65	4216
2026-01-09 21:18:51.09	56.06	11.58	-49.6	-51.0	14.7	0.00e+00	0	23	0	637534208	65	4236
2026-01-09 21:18:52.09	56.24	11.60	-49.5	-51.0	14.7	0.00e+00	0	23	0	640679936	65	4206
2026-01-09 21:18:53.09	56.43	11.62	-49.4	-50.8	14.8	0.00e+00	0	23	0	643825664	65	4119
2026-01-09 21:18:54.09	56.62	11.63	-49.4	-50.8	14.8	0.00e+00	0	23	0	646971392	65	4116
2026-01-09 21:18:55.09	56.80	11.65	-49.4	-50.9	14.8	0.00e+00	0	23	0	650117120	65	4147
2026-01-09 21:18:56.10	56.99	11.67	-49.4	-50.9	14.8	0.00e+00	0	23	0	653262848	65	4149
2026-01-09 21:18:57.10	57.18	11.68	-49.5	-51.0	14.7	0.00e+00	0	23	0	656408576	65	4203
2026-01-09 21:18:58.10	57.36	11.70	-49.5	-51.0	14.8	0.00e+00	0	23	0	658505728	65	4195
2026-01-09 21:18:59.10	57.55	11.71	-49.6	-51.1	14.7	0.00e+00	0	23	0	661651456	65	4243
2026-01-09 21:19:00.10	57.74	11.72	-49.6	-51.1	14.7	0.00e+00	0	23	0	664797184	65	4259
2026-01-09 21:19:01.09	57.92	11.74	-49.5	-51.0	14.7	0.00e+00	0	23	0	667942912	65	4196
2026-01-09 21:19:02.09	58.11	11.75	-49.6	-51.0	14.7	0.00e+00	0	23	0	671088640	65	4232
2026-01-09 21:19:03.09	58.30	11.77	-49.6	-51.0	14.7	0.00e+00	0	23	0	674234368	65	4221
2026-01-09 21:19:04.10	58.49	11.78	-49.7	-51.2	14.6	0.00e+00	0	23	0	677380096	65	4301
2026-01-09 21:19:05.10	58.67	11.79	-49.6	-51.1	14.7	0.00e+00	0	23	0	680525824	65	4266
2026-01-09 21:19:06.11	58.86	11.81	-49.6	-51.1	14.7	0.00e+00	0	23	0	683671552	65	4253
2026-01-09 21:19:07.11	59.05	11.82	-49.7	-51.1	14.7	0.00e+00	0	23	0	686817280	65	4290
2026-01-09 21:19:08.11	59.24	11.83	-49.7	-51.1	14.6	0.00e+00	0	23	0	689963008	65	4289
2026-01-09 21:19:09.11	59.43	11.84	-49.7	-51.2	14.6	0.00e+00	0	23	0	693108736	65	4306
2026-01-09 21:19:10.11	59.62	11.85	-49.7	-51.2	14.6	0.00e+00	0	23	0	696254464	65	4324
2026-01-09 21:19:11.12	59.81	11.87	-49.7	-51.1	14.6	0.00e+00	0	23	0	699400192	65	4286
2026-01-09 21:19:12.12	60.00	11.88	-49.7	-51.2	14.6	0.00e+00	0	23	0	702545920	65	4305
2026-01-09 21:19:13.12	60.18	11.89	-49.7	-51.2	14.6	0.00e+00	0	23	0	705691648	65	4294
2026-01-09 21:19:14.11	60.37	11.90	-49.6	-51.1	14.6	0.00e+00	0	23	0	708837376	65	4275
2026-01-09 21:19:15.11	60.56	11.91	-49.5	-51.0	14.8	0.00e+00	0	23	0	711983104	65	4200
2026-01-09 21:19:16.11	60.75	11.92	-49.4	-50.8	14.8	0.00e+00	0	23	0	715128832	65	4135
2026-01-09 21:19:17.10	60.94	11.93	-49.3	-50.7	14.9	0.00e+00	0	23	0	718274560	65	4086
2026-01-09 21:19:18.11	61.13	11.94	-49.3	-50.7	14.9	0.00e+00	0	23	0	721420288	65	4073
2026-01-09 21:19:19.10	61.32	11.95	-49.3	-50.7	14.9	0.00e+00	0	23	0	724566016	65	4098
2026-01-09 21:19:20.10	61.51	11.96	-49.3	-50.7	14.9	0.00e+00	0	23	0	727711744	65	4069
2026-01-09 21:19:21.10	61.70	11.97	-49.3	-50.7	14.9	0.00e+00	0	23	0	730857472	65	4064
2026-01-09 21:19:22.10	61.89	11.97	-49.3	-50.7	14.9	0.00e+00	0	23	0	734003200	65	4080
2026-01-09 21:19:23.10	62.08	11.98	-49.4	-50.8	14.8	0.00e+00	0	23	0	737148928	65	4134
2026-01-09 21:19:24.10	62.27	11.99	-49.4	-50.8	14.9	0.00e+00	0	23	0	740294656	65	4105
2026-01-09 21:19:25.11	62.46	12.00	-49.2	-50.6	14.9	0.00e+00	0	23	0	743440384	65	4043
2026-01-09 21:19:26.11	62.65	12.01	-49.2	-50.5	14.8	0.00e+00	0	23	0	746586112	64	4236
2026-01-09 21:19:27.10	62.84	12.01	-49.2	-50.5	14.8	0.00e+00	0	23	0	749731840	64	4240
2026-01-09 21:19:28.10	63.03	12.02	-49.1	-50.5	14.8	0.00e+00	0	23	0	752877568	64	4216
2026-01-09 21:19:29.10	63.22	12.03	-49.2	-50.6	14.8	0.00e+00	0	23	0	756023296	64	4259
2026-01-09 21:19:30.11	63.41	12.03	-49.3	-50.7	14.7	0.00e+00	0	23	0	759169024	64	4320
2026-01-09 21:19:31.11	63.60	12.04	-49.3	-50.7	14.8	0.00e+00	0	23	0	762314752	64	4293
2026-01-09 21:19:32.11	63.80	12.04	-49.2	-50.6	14.8	0.00e+00	0	23	0	765460480	64	4265
2026-01-09 21:19:33.11	63.99	12.05	-49.2	-50.7	14.8	0.00e+00	0	23	0	768606208	64	4292
2026-01-09 21:19:34.11	64.18	12.06	-49.3	-50.7	14.8	0.00e+00	0	24	0	771751936	64	4309
2026-01-09 21:19:35.11	64.37	12.06	-49.3	-50.7	14.7	0.00e+00	0	23	0	774897664	64	4310
2026-01-09 21:19:36.11	64.56	12.06	-49.2	-50.6	14.8	0.00e+00	0	23	0	778043392	64	4288
2026-01-09 21:19:37.11	64.75	12.07	-49.3	-50.7	14.7	0.00e+00	0	23	0	781189120	64	4326
2026-01-09 21:19:38.12	64.95	12.07	-49.3	-50.7	14.7	0.00e+00	0	23	0	784334848	64	4326
2026-01-09 21:19:39.11	65.13	12.08	-49.3	-50.7	14.8	0.00e+00	0	23	0	787480576	64	4302
2026-01-09 21:19:40.11	65.33	12.08	-49.3	-50.7	14.7	0.00e+00	0	23	0	790626304	64	4338
2026-01-09 21:19:41.11	65.52	12.08	-49.3	-50.7	14.7	0.00e+00	0	23	0	793772032	64	4312
2026-01-09 21:19:42.11	65.71	12.09	-49.3	-50.7	14.8	0.00e+00	0	23	0	796917760	64	4313
2026-01-09 21:19:43.11	65.90	12.09	-49.3	-50.7	14.7	0.00e+00	0	23	0	800063488	64	4316
2026-01-09 21:19:44.10	66.09	12.09	-49.3	-50.7	14.7	0.00e+00	0	23	0	803209216	64	4314
2026-01-09 21:19:45.10	66.28	12.09	-49.3	-50.7	14.7	0.00e+00	0	23	0	806354944	64	4331
2026-01-09 21:19:46.10	66.47	12.09	-49.3	-50.7	14.7	0.00e+00	0	23	0	809500672	64	4337
2026-01-09 21:19:47.10	66.67	12.10	-49.4	-50.8	14.7	0.00e+00	0	23	0	812646400	64	4358
2026-01-09 21:19:48.09	66.86	12.10	-49.4	-50.8	14.7	0.00e+00	0	23	0	814743552	64	4369
2026-01-09 21:19:49.09	67.05	12.10	-49.5	-50.9	14.6	0.00e+00	0	23	0	817889280	64	4427
2026-01-09 21:19:50.09	67.24	12.10	-49.4	-50.8	14.7	0.00e+00	0	23	0	821035008	64	4373
2026-01-09 21:19:51.10	67.43	12.10	-49.5	-51.0	14.6	0.00e+00	0	23	0	824180736	64	4442
2026-01-09 21:19:52.10	67.62	12.10	-49.3	-50.7	14.7	0.00e+00	0	23	0	827326464	64	4332
2026-01-09 21:19:53.10	67.82	12.10	-49.2	-50.6	14.8	0.00e+00	0	24	0	830472192	64	4253
2026-01-09 21:19:54.10	68.01	12.10	-49.2	-50.6	14.8	0.00e+00	0	23	0	833617920	64	4280
2026-01-09 21:19:55.10	68.20	12.10	-49.2	-50.6	14.8	0.00e+00	0	23	0	836763648	64	4259
2026-01-09 21:19:56.10	68.39	12.10	-49.2	-50.6	14.8	0.00e+00	0	23	0	839909376	64	4266
2026-01-09 21:19:57.10	68.58	12.09	-49.3	-50.7	14.7	0.00e+00	0	23	0	843055104	64	4297
2026-01-09 21:19:58.09	68.77	12.09	-49.2	-50.6	14.8	0.00e+00	0	23	0	846200832	64	4257
2026-01-09 21:19:59.09	68.97	12.09	-49.2	-50.6	14.8	0.00e+00	0	23	0	849346560	64	4286
2026-01-09 21:20:00.09	69.16	12.09	-49.2	-50.6	14.8	0.00e+00	0	23	0	852492288	64	4265
2026-01-09 21:20:01.09	69.35	12.08	-49.2	-50.6	14.8	0.00e+00	0	23	0	855638016	64	4276
2026-01-09 21:20:02.09	69.54	12.08	-49.3	-50.7	14.8	0.00e+00	0	23	0	858783744	64	4310
2026-01-09 21:20:03.09	69.73	12.08	-49.3	-50.7	14.8	0.00e+00	0	23	0	861929472	64	4296
2026-01-09 21:20:04.08	69.92	12.08	-49.3	-50.8	14.7	0.00e+00	0	23	0	865075200	64	4350
2026-01-09 21:20:05.09	70.12	12.07	-49.4	-50.8	14.7	0.00e+00	0	23	0	868220928	64	4368
2026-01-09 21:20:06.09	70.31	12.07	-49.5	-50.9	14.6	0.00e+00	0	24	0	871366656	64	4410
2026-01-09 21:20:07.09	70.50	12.06	-49.5	-50.9	14.6	0.00e+00	0	23	0	874512384	64	4441
2026-01-09 21:20:08.09	70.69	12.06	-49.6	-51.0	14.6	0.00e+00	0	23	0	877658112	64	4475
2026-01-09 21:20:09.08	70.88	12.05	-49.6	-51.1	14.5	0.00e+00	0	23	0	880803840	64	4509
2026-01-09 21:20:10.08	71.07	12.05	-49.5	-50.9	14.6	0.00e+00	0	23	0	883949568	64	4428
2026-01-09 21:20:11.08	71.26	12.04	-49.5	-50.9	14.6	0.00e+00	0	23	0	887095296	64	4439
2026-01-09 21:20:12.08	71.45	12.04	-49.5	-50.9	14.6	0.00e+00	0	23	0	890241024	64	4423
2026-01-09 21:20:13.08	71.64	12.03	-49.5	-50.9	14.6	0.00e+00	0	23	0	893386752	64	4419
2026-01-09 21:20:14.08	71.83	12.02	-49.5	-50.9	14.6	0.00e+00	0	23	0	896532480	64	4423
2026-01-09 21:20:15.07	72.02	12.02	-49.5	-50.9	14.6	0.00e+00	0	23	0	899678208	64	4430
2026-01-09 21:20:16.07	72.21	12.01	-49.5	-50.9	14.6	0.00e+00	0	23	0	902823936	64	4429
2026-01-09 21:20:17.07	72.40	12.00	-49.5	-50.9	14.6	0.00e+00	0	23	0	905969664	64	4434
2026-01-09 21:20:18.07	72.60	12.00	-49.5	-50.9	14.6	0.00e+00	0	23	0	909115392	64	4420
2026-01-09 21:20:19.07	72.79	11.99	-49.5	-50.9	14.6	0.00e+00	0	23	0	912261120	64	4419
2026-01-09 21:20:20.07	72.98	11.98	-49.5	-50.9	14.6	0.00e+00	0	23	0	915406848	64	4417
2026-01-09 21:20:21.06	73.17	11.97	-49.4	-50.9	14.6	0.00e+00	0	23	0	918552576	64	4400
2026-01-09 21:20:22.06	73.36	11.96	-49.4	-50.9	14.7	0.00e+00	0	23	0	921698304	64	4396
2026-01-09 21:20:23.05	73.54	11.95	-49.4	-50.8	14.7	0.00e+00	0	23	0	924844032	64	4383
2026-01-09 21:20:24.05	73.73	11.95	-49.4	-50.8	14.7	0.00e+00	0	23	0	927989760	64	4385
2026-01-09 21:20:25.04	73.92	11.94	-49.5	-50.9	14.6	0.00e+00	0	24	0	931135488	64	4437
2026-01-09 21:20:26.04	74.11	11.93	-49.6	-51.0	14.6	0.00e+00	0	23	0	934281216	64	4476
2026-01-09 21:20:27.04	74.30	11.92	-49.5	-50.9	14.6	0.00e+00	0	23	0	937426944	64	4429
2026-01-09 21:20:28.03	74.49	11.91	-49.4	-50.9	14.6	0.00e+00	0	23	0	940572672	64	4399
2026-01-09 21:20:29.04	74.68	11.90	-49.3	-50.7	14.7	0.00e+00	0	23	0	943718400	64	4303
2026-01-09 21:20:30.04	74.87	11.89	-49.3	-50.7	14.7	0.00e+00	0	23	0	946864128	64	4334
2026-01-09 21:20:31.03	75.06	11.87	-49.2	-50.6	14.8	0.00e+00	0	23	0	948961280	64	4281
2026-01-09 21:20:32.03	75.25	11.86	-49.3	-50.7	14.7	0.00e+00	0	23	0	952107008	64	4296
2026-01-09 21:20:33.02	75.43	11.85	-49.4	-50.8	14.7	0.00e+00	0	23	0	955252736	64	4378
2026-01-09 21:20:34.01	75.62	11.84	-49.5	-50.9	14.6	0.00e+00	0	23	0	958398464	64	4441
2026-01-09 21:20:35.01	75.81	11.83	-49.5	-51.0	14.6	0.00e+00	0	23	0	961544192	64	4459
2026-01-09 21:20:36.01	76.00	11.81	-49.6	-51.1	14.5	0.00e+00	0	23	0	964689920	64	4507
2026-01-09 21:20:37.01	76.18	11.80	-49.5	-51.0	14.6	0.00e+00	0	23	0	967835648	64	4452
2026-01-09 21:20:38.01	76.37	11.79	-49.4	-50.8	14.7	0.00e+00	0	23	0	970981376	64	4375
2026-01-09 21:20:39.01	76.56	11.78	-49.5	-50.9	14.6	0.00e+00	0	23	0	974127104	64	4418
2026-01-09 21:20:40.01	76.75	11.76	-49.6	-51.0	14.5	0.00e+00	0	23	0	977272832	64	4490
2026-01-09 21:20:41.01	76.94	11.75	-49.4	-50.8	14.6	0.00e+00	0	23	0	980418560	64	4387
2026-01-09 21:20:42.00	77.12	11.73	-49.3	-50.7	14.7	0.00e+00	0	23	0	983564288	64	4324
2026-01-09 21:20:43.00	77.31	11.72	-49.4	-50.8	14.7	0.00e+00	0	23	0	986710016	64	4369
2026-01-09 21:20:44.00	77.50	11.71	-49.5	-51.0	14.6	0.00e+00	0	23	0	989855744	64	4472
2026-01-09 21:20:45.00	77.68	11.69	-49.6	-51.0	14.6	0.00e+00	0	23	0	993001472	64	4481
2026-01-09 21:20:46.00	77.87	11.68	-49.4	-50.9	14.6	0.00e+00	0	23	0	996147200	64	4403
2026-01-09 21:20:47.01	78.06	11.66	-49.3	-50.7	14.7	0.00e+00	0	23	0	999292928	64	4332
2026-01-09 21:20:48.01	78.25	11.64	-49.3	-50.8	14.7	0.00e+00	0	24	0	1002438656	64	4349
2026-01-09 21:20:49.01	78.43	11.63	-49.3	-50.7	14.7	0.00e+00	0	23	0	1005584384	64	4336
2026-01-09 21:20:50.00	78.62	11.61	-49.3	-50.7	14.7	0.00e+00	0	24	0	1008730112	64	4334
2026-01-09 21:20:51.00	78.80	11.60	-49.2	-50.6	14.7	0.00e+00	0	23	0	1011875840	64	4271
2026-01-09 21:20:52.00	78.99	11.58	-49.3	-50.7	14.7	0.00e+00	0	23	0	1015021568	64	4297
2026-01-09 21:20:53.00	79.17	11.56	-49.4	-50.8	14.6	0.00e+00	0	23	0	1018167296	64	4372
2026-01-09 21:20:54.00	79.36	11.55	-49.4	-50.8	14.7	0.00e+00	0	23	0	1021313024	64	4375
2026-01-09 21:20:55.00	79.54	11.53	-49.3	-50.7	14.7	0.00e+00	0	23	0	1024458752	64	4336
2026-01-09 21:20:56.01	79.73	11.51	-49.2	-50.6	14.7	0.00e+00	0	23	0	1027604480	64	4279
2026-01-09 21:20:57.01	79.91	11.49	-49.3	-50.7	14.7	0.00e+00	0	24	0	1030750208	64	4311
2026-01-09 21:20:58.00	80.10	11.47	-49.4	-50.8	14.6	0.00e+00	0	24	0	1033895936	64	4390
2026-01-09 21:20:59.00	80.28	11.46	-49.3	-50.8	14.7	0.00e+00	0	24	0	1037041664	64	4346
2026-01-09 21:21:00.00	80.46	11.44	-49.5	-51.0	14.6	0.00e+00	0	24	0	1040187392	64	4443
2026-01-09 21:21:00.99	80.65	11.42	-49.5	-51.0	14.6	0.00e+00	0	24	0	1043333120	64	4446
2026-01-09 21:21:01.99	80.83	11.40	-49.5	-51.0	14.6	0.00e+00	0	23	0	1046478848	64	4456
2026-01-09 21:21:02.99	81.01	11.38	-49.4	-50.9	14.6	0.00e+00	0	23	0	1049624576	64	4413
2026-01-09 21:21:03.99	81.20	11.36	-49.5	-50.9	14.6	0.00e+00	0	23	0	1052770304	64	4423
2026-01-09 21:21:05.00	81.38	11.34	-49.5	-50.9	14.6	0.00e+00	0	23	0	1055916032	64	4416
2026-01-09 21:21:05.99	81.56	11.32	-49.4	-50.8	14.6	0.00e+00	0	23	0	1059061760	64	4387
2026-01-09 21:21:06.99	81.74	11.30	-49.4	-50.8	14.7	0.00e+00	0	23	0	1062207488	64	4368
2026-01-09 21:21:07.99	81.93	11.28	-49.3	-50.7	14.7	0.00e+00	0	24	0	1065353216	64	4333
2026-01-09 21:21:08.99	82.11	11.26	-49.3	-50.7	14.7	0.00e+00	0	23	0	1068498944	64	4320
2026-01-09 21:21:09.99	82.29	11.24	-49.3	-50.7	14.7	0.00e+00	0	23	0	1071644672	64	4322
2026-01-09 21:21:11.00	82.47	11.22	-49.4	-50.9	14.6	0.00e+00	0	23	0	1074790400	64	4402
2026-01-09 21:21:12.00	82.65	11.19	-49.3	-50.7	14.7	0.00e+00	0	23	0	1077936128	64	4331
2026-01-09 21:21:12.99	82.83	11.17	-49.3	-50.8	14.7	0.00e+00	0	24	0	1081081856	64	4341
2026-01-09 21:21:14.00	83.01	11.15	-49.3	-50.7	14.7	0.00e+00	0	23	0	1083179008	64	4328
2026-01-09 21:21:15.00	83.20	11.13	-49.4	-50.9	14.7	0.00e+00	0	24	0	1086324736	64	4414
2026-01-09 21:21:16.00	83.38	11.11	-49.6	-51.1	14.5	0.00e+00	0	23	0	1089470464	64	4496
2026-01-09 21:21:17.00	83.55	11.08	-49.4	-50.9	14.6	0.00e+00	0	23	0	1092616192	64	4401
2026-01-09 21:21:18.00	83.73	11.06	-49.6	-51.0	14.6	0.00e+00	0	24	0	1095761920	64	4487
2026-01-09 21:21:18.99	83.91	11.04	-49.5	-51.0	14.6	0.00e+00	0	23	0	1098907648	64	4464
2026-01-09 21:21:19.99	84.09	11.01	-49.6	-51.1	14.5	0.00e+00	0	23	0	1102053376	64	4508
2026-01-09 21:21:20.99	84.27	10.99	-49.5	-51.0	14.6	0.00e+00	0	24	0	1105199104	64	4451
2026-01-09 21:21:21.98	84.45	10.97	-49.4	-50.9	14.6	0.00e+00	0	23	0	1108344832	64	4410
2026-01-09 21:21:22.98	84.62	10.94	-49.5	-50.9	14.6	0.00e+00	0	23	0	1111490560	64	4426
2026-01-09 21:21:23.97	84.80	10.92	-49.6	-51.1	14.5	0.00e+00	0	23	0	1114636288	64	4503
2026-01-09 21:21:24.97	84.98	10.89	-49.4	-50.9	14.6	0.00e+00	0	24	0	1117782016	64	4410
2026-01-09 21:21:25.97	85.15	10.87	-49.4	-50.9	14.6	0.00e+00	0	24	0	1120927744	64	4406
2026-01-09 21:21:26.96	85.33	10.84	-49.3	-50.7	14.7	0.00e+00	0	23	0	1124073472	64	4322
2026-01-09 21:21:27.95	85.50	10.82	-49.4	-50.8	14.6	0.00e+00	0	23	0	1127219200	64	4368
2026-01-09 21:21:28.94	85.68	10.79	-49.4	-50.8	14.6	0.00e+00	0	24	0	1130364928	64	4381
2026-01-09 21:21:29.94	85.86	10.77	-49.4	-50.9	14.6	0.00e+00	0	24	0	1133510656	64	4406
2026-01-09 21:21:30.93	86.03	10.74	-49.6	-51.1	14.5	0.00e+00	0	23	0	1136656384	64	4504
2026-01-09 21:21:31.92	86.20	10.72	-49.5	-51.0	14.6	0.00e+00	0	23	0	1139802112	64	4464
2026-01-09 21:21:32.92	86.38	10.69	-49.5	-51.0	14.5	0.00e+00	0	23	0	1142947840	64	4460
2026-01-09 21:21:33.93	86.56	10.66	-49.6	-51.0	14.5	0.00e+00	0	23	0	1146093568	64	4485
2026-01-09 21:21:34.92	86.73	10.64	-49.6	-51.0	14.5	0.00e+00	0	24	0	1149239296	64	4483
2026-01-09 21:21:35.92	86.90	10.61	-49.4	-50.9	14.6	0.00e+00	0	23	0	1152385024	64	4393
2026-01-09 21:21:36.92	87.08	10.58	-49.4	-50.9	14.6	0.00e+00	0	23	0	1155530752	64	4401
2026-01-09 21:21:37.92	87.25	10.56	-49.4	-50.8	14.6	0.00e+00	0	23	0	1158676480	64	4391
2026-01-09 21:21:38.92	87.42	10.53	-49.6	-51.0	14.5	0.00e+00	0	23	0	1161822208	64	4491
2026-01-09 21:21:39.91	87.59	10.50	-49.6	-51.1	14.5	0.00e+00	0	23	0	1164967936	64	4521
2026-01-09 21:21:40.92	87.77	10.47	-49.5	-51.0	14.5	0.00e+00	0	24	0	1168113664	64	4445
2026-01-09 21:21:41.92	87.94	10.45	-49.5	-51.0	14.5	0.00e+00	0	24	0	1171259392	64	4458
2026-01-09 21:21:42.92	88.11	10.42	-49.6	-51.1	14.5	0.00e+00	0	23	0	1174405120	64	4543
2026-01-09 21:21:43.92	88.29	10.39	-49.7	-51.2	14.4	0.00e+00	0	23	0	1177550848	64	4547
2026-01-09 21:21:44.93	88.46	10.36	-49.5	-51.0	14.5	0.00e+00	0	23	0	1180696576	64	4455
2026-01-09 21:21:45.92	88.63	10.33	-49.5	-51.0	14.5	0.00e+00	0	23	0	1183842304	64	4453
2026-01-09 21:21:46.93	88.80	10.30	-49.5	-51.0	14.5	0.00e+00	0	24	0	1186988032	64	4472
2026-01-09 21:21:47.92	88.97	10.27	-49.6	-51.1	14.5	0.00e+00	0	23	0	1190133760	64	4503
2026-01-09 21:21:48.92	89.14	10.24	-49.7	-51.2	14.4	0.00e+00	0	24	0	1193279488	64	4587
2026-01-09 21:21:49.92	89.31	10.21	-49.7	-51.2	14.4	0.00e+00	0	23	0	1196425216	64	4571
2026-01-09 21:21:50.91	89.48	10.18	-49.7	-51.2	14.4	0.00e+00	0	24	0	1198522368	64	4586
2026-01-09 21:21:51.91	89.65	10.15	-49.5	-51.0	14.5	0.00e+00	0	23	0	1201668096	64	4465
2026-01-09 21:21:52.90	89.81	10.12	-49.5	-51.0	14.5	0.00e+00	0	23	0	1204813824	64	4462
2026-01-09 21:21:53.90	89.98	10.09	-49.4	-50.9	14.6	0.00e+00	0	24	0	1207959552	64	4398
2026-01-09 21:21:54.91	90.15	10.06	-49.5	-51.0	14.5	0.00e+00	0	23	0	1211105280	64	4451
2026-01-09 21:21:55.91	90.32	10.03	-49.5	-51.0	14.5	0.00e+00	0	24	0	1214251008	64	4460
2026-01-09 21:21:56.91	90.49	10.00	-49.5	-51.0	14.5	0.00e+00	0	24	0	1217396736	64	4457
2026-01-09 21:21:57.91	90.65	9.97	-49.4	-50.9	14.6	0.00e+00	0	23	0	1220542464	64	4416
2026-01-09 21:21:58.91	90.82	9.94	-49.4	-50.8	14.6	0.00e+00	0	23	0	1223688192	64	4384
2026-01-09 21:21:59.90	90.99	9.91	-49.4	-50.8	14.6	0.00e+00	0	24	0	1226833920	64	4376
2026-01-09 21:22:00.90	91.15	9.88	-49.4	-50.9	14.6	0.00e+00	0	23	0	1229979648	64	4406
2026-01-09 21:22:01.90	91.32	9.85	-49.5	-51.0	14.5	0.00e+00	0	23	0	1233125376	64	4480
2026-01-09 21:22:02.90	91.48	9.81	-49.5	-51.0	14.5	0.00e+00	0	23	0	1236271104	64	4483
2026-01-09 21:22:03.89	91.65	9.78	-49.6	-51.1	14.5	0.00e+00	0	23	0	1239416832	64	4531
2026-01-09 21:22:04.89	91.81	9.75	-49.7	-51.3	14.4	0.00e+00	0	24	0	1242562560	64	4601
2026-01-09 21:22:05.88	91.97	9.72	-49.8	-51.3	14.4	0.00e+00	0	23	0	1245708288	64	4626
2026-01-09 21:22:06.88	92.14	9.69	-49.8	-51.3	14.4	0.00e+00	0	24	0	1248854016	64	4617
2026-01-09 21:22:07.89	92.30	9.65	-49.8	-51.4	14.3	0.00e+00	0	23	0	1251999744	64	4663
2026-01-09 21:22:08.89	92.47	9.62	-49.9	-51.5	14.4	0.00e+00	0	23	0	1255145472	65	4451
2026-01-09 21:22:09.89	92.63	9.59	-49.8	-51.4	14.5	0.00e+00	0	23	0	1258291200	65	4396
2026-01-09 21:22:10.90	92.79	9.55	-49.7	-51.2	14.6	0.00e+00	0	24	0	1261436928	65	4337
2026-01-09 21:22:11.89	92.95	9.52	-49.7	-51.2	14.6	0.00e+00	0	24	0	1264582656	65	4315
2026-01-09 21:22:12.89	93.12	9.49	-49.7	-51.2	14.6	0.00e+00	0	24	0	1267728384	65	4301
2026-01-09 21:22:13.90	93.28	9.45	-49.6	-51.1	14.6	0.00e+00	0	24	0	1270874112	65	4268
2026-01-09 21:22:14.90	93.44	9.42	-49.7	-51.2	14.6	0.00e+00	0	24	0	1274019840	65	4306
2026-01-09 21:22:15.90	93.60	9.38	-49.7	-51.3	14.5	0.00e+00	0	24	0	1277165568	65	4352
2026-01-09 21:22:16.90	93.76	9.35	-49.8	-51.3	14.5	0.00e+00	0	23	0	1280311296	65	4371
2026-01-09 21:22:17.90	93.92	9.32	-49.8	-51.3	14.5	0.00e+00	0	24	0	1283457024	65	4356
2026-01-09 21:22:18.90	94.08	9.28	-49.9	-51.4	14.4	0.00e+00	0	23	0	1286602752	65	4441
2026-01-09 21:22:19.89	94.24	9.25	-49.9	-51.5	14.4	0.00e+00	0	23	0	1289748480	65	4449
2026-01-09 21:22:20.89	94.40	9.21	-49.8	-51.4	14.4	0.00e+00	0	24	0	1292894208	65	4405
2026-01-09 21:22:21.89	94.56	9.18	-49.8	-51.4	14.4	0.00e+00	0	23	0	1296039936	65	4404
2026-01-09 21:22:22.89	94.72	9.14	-49.9	-51.4	14.4	0.00e+00	0	23	0	1299185664	65	4429
2026-01-09 21:22:23.89	94.87	9.11	-50.0	-51.5	14.4	0.00e+00	0	24	0	1302331392	65	4487
2026-01-09 21:22:24.88	95.03	9.07	-50.1	-51.7	14.3	0.00e+00	0	24	0	1305477120	65	4568
2026-01-09 21:22:25.87	95.19	9.04	-50.1	-51.7	14.2	0.00e+00	0	23	0	1308622848	65	4590
2026-01-09 21:22:26.87	95.34	9.00	-50.1	-51.8	14.2	0.00e+00	0	23	0	1311768576	65	4606
2026-01-09 21:22:27.86	95.50	8.97	-50.1	-51.7	14.2	0.00e+00	0	24	0	1314914304	65	4560
2026-01-09 21:22:28.86	95.65	8.93	-50.0	-51.6	14.3	0.00e+00	0	23	0	1318060032	65	4542
2026-01-09 21:22:29.85	95.81	8.90	-50.1	-51.7	14.2	0.00e+00	0	23	0	1321205760	65	4595
2026-01-09 21:22:30.85	95.96	8.86	-50.1	-51.7	14.3	0.00e+00	0	24	0	1324351488	65	4551
2026-01-09 21:22:31.83	96.11	8.83	-50.0	-51.6	14.3	0.00e+00	0	23	0	1327497216	65	4526
2026-01-09 21:22:32.83	96.27	8.79	-49.9	-51.4	14.4	0.00e+00	0	23	0	1329594368	65	4417
2026-01-09 21:22:33.83	96.42	8.75	-50.0	-51.5	14.4	0.00e+00	0	24	0	1332740096	65	4483
2026-01-09 21:22:34.83	96.58	8.72	-50.0	-51.6	14.3	0.00e+00	0	23	0	1335885824	65	4494
2026-01-09 21:22:35.82	96.73	8.68	-50.0	-51.6	14.3	0.00e+00	0	23	0	1339031552	65	4519
2026-01-09 21:22:36.82	96.88	8.64	-50.0	-51.6	14.3	0.00e+00	0	24	0	1342177280	65	4526
2026-01-09 21:22:37.82	97.04	8.61	-49.9	-51.5	14.3	0.00e+00	0	24	0	1345323008	65	4455
2026-01-09 21:22:38.82	97.19	8.57	-50.1	-51.7	14.3	0.00e+00	0	23	0	1348468736	65	4554
2026-01-09 21:22:39.82	97.34	8.53	-50.1	-51.7	14.2	0.00e+00	0	23	0	1351614464	65	4572
2026-01-09 21:22:40.83	97.49	8.49	-50.1	-51.7	14.2	0.00e+00	0	23	0	1354760192	65	4594
2026-01-09 21:22:41.83	97.64	8.46	-50.2	-51.8	14.1	0.00e+00	0	23	0	1357905920	65	4643
2026-01-09 21:22:42.83	97.80	8.42	-50.3	-51.9	14.1	0.00e+00	0	23	0	1361051648	65	4679
2026-01-09 21:22:43.82	97.94	8.38	-50.3	-51.9	14.1	0.00e+00	0	23	0	1364197376	65	4697
2026-01-09 21:22:44.82	98.10	8.34	-50.3	-52.0	14.1	0.00e+00	0	23	0	1367343104	65	4711
2026-01-09 21:22:45.81	98.24	8.31	-50.5	-52.2	14.1	0.00e+00	0	23	0	1370488832	66	4552
2026-01-09 21:22:46.81	98.39	8.27	-50.4	-52.0	14.2	0.00e+00	0	23	0	1373634560	66	4473
2026-01-09 21:22:47.82	98.54	8.23	-50.4	-52.0	14.2	0.00e+00	0	23	0	1376780288	66	4493
2026-01-09 21:22:48.81	98.69	8.19	-50.2	-51.8	14.3	0.00e+00	0	24	0	1379926016	66	4390
2026-01-09 21:22:49.81	98.84	8.16	-50.3	-52.0	14.2	0.00e+00	0	23	0	1383071744	66	4444
2026-01-09 21:22:50.81	98.99	8.12	-50.3	-52.0	14.2	0.00e+00	0	24	0	1386217472	66	4447
2026-01-09 21:22:51.81	99.13	8.08	-50.3	-52.0	14.2	0.00e+00	0	24	0	1389363200	66	4462
2026-01-09 21:22:52.82	99.28	8.04	-50.4	-52.1	14.2	0.00e+00	0	24	0	1392508928	66	4499
2026-01-09 21:22:53.81	99.43	8.00	-50.3	-52.0	14.2	0.00e+00	0	23	0	1395654656	66	4453
2026-01-09 21:22:54.81	99.58	7.96	-50.2	-51.8	14.3	0.00e+00	0	24	0	1398800384	66	4364
2026-01-09 21:22:55.81	99.72	7.92	-50.2	-51.8	14.3	0.00e+00	0	23	0	1401946112	66	4353
2026-01-09 21:22:56.81	99.87	7.88	-50.3	-51.9	14.2	0.00e+00	0	24	0	1405091840	66	4421
2026-01-09 21:22:57.82	100.01	7.85	-50.2	-51.8	14.3	0.00e+00	0	24	0	1408237568	66	4379
2026-01-09 21:22:58.81	100.16	7.81	-50.3	-52.0	14.2	0.00e+00	0	24	0	1411383296	66	4452
2026-01-09 21:22:59.81	100.30	7.77	-50.3	-52.0	14.2	0.00e+00	0	23	0	1414529024	66	4444
2026-01-09 21:23:00.81	100.45	7.73	-50.2	-51.9	14.3	0.00e+00	0	24	0	1417674752	66	4397
2026-01-09 21:23:01.81	100.59	7.69	-50.4	-52.1	14.2	0.00e+00	0	23	0	1420820480	66	4505
2026-01-09 21:23:02.81	100.73	7.65	-50.4	-52.0	14.2	0.00e+00	0	23	0	1423966208	66	4477
2026-01-09 21:23:03.81	100.88	7.61	-50.4	-52.0	14.2	0.00e+00	0	23	0	1427111936	66	4475
2026-01-09 21:23:04.81	101.02	7.57	-50.3	-52.0	14.2	0.00e+00	0	23	0	1430257664	66	4453
2026-01-09 21:23:05.81	101.16	7.53	-50.3	-52.0	14.2	0.00e+00	0	24	0	1433403392	66	4464
2026-01-09 21:23:06.81	101.30	7.49	-50.5	-52.2	14.1	0.00e+00	0	24	0	1436549120	66	4556
2026-01-09 21:23:07.82	101.45	7.45	-50.4	-52.0	14.2	0.00e+00	0	24	0	1439694848	66	4474
2026-01-09 21:23:08.81	101.59	7.41	-50.4	-52.1	14.1	0.00e+00	0	24	0	1442840576	66	4504
2026-01-09 21:23:09.80	101.73	7.37	-50.5	-52.2	14.1	0.00e+00	0	24	0	1445986304	66	4549
2026-01-09 21:23:10.81	101.87	7.33	-50.6	-52.3	14.0	0.00e+00	0	23	0	1449132032	66	4627
2026-01-09 21:23:11.81	102.01	7.29	-50.4	-52.1	14.1	0.00e+00	0	24	0	1452277760	66	4516
2026-01-09 21:23:12.81	102.15	7.25	-50.3	-52.0	14.2	0.00e+00	0	24	0	1455423488	66	4468
2026-01-09 21:23:13.81	102.29	7.21	-50.4	-52.0	14.2	0.00e+00	0	24	0	1458569216	66	4491
2026-01-09 21:23:14.81	102.43	7.17	-50.4	-52.1	14.1	0.00e+00	0	24	0	1460666368	66	4519
2026-01-09 21:23:15.81	102.57	7.13	-50.4	-52.0	14.2	0.00e+00	0	23	0	1463812096	66	4483
2026-01-09 21:23:16.81	102.70	7.09	-50.4	-52.1	14.1	0.00e+00	0	24	0	1466957824	66	4521
2026-01-09 21:23:17.80	102.84	7.05	-50.5	-52.2	14.1	0.00e+00	0	24	0	1470103552	66	4553
2026-01-09 21:23:18.80	102.98	7.01	-50.5	-52.2	14.1	0.00e+00	0	24	0	1473249280	66	4550
2026-01-09 21:23:19.80	103.11	6.96	-50.6	-52.3	14.0	0.00e+00	0	23	0	1476395008	66	4617
2026-01-09 21:23:20.80	103.25	6.92	-50.6	-52.3	14.0	0.00e+00	0	24	0	1479540736	66	4627
2026-01-09 21:23:21.80	103.39	6.88	-50.6	-52.4	14.0	0.00e+00	0	24	0	1482686464	66	4665
2026-01-09 21:23:22.79	103.52	6.84	-50.6	-52.4	13.9	0.00e+00	0	24	0	1485832192	66	4676
2026-01-09 21:23:23.79	103.66	6.80	-50.6	-52.4	13.9	0.00e+00	0	24	0	1488977920	66	4678
2026-01-09 21:23:24.79	103.79	6.76	-50.7	-52.5	13.9	0.00e+00	0	24	0	1492123648	66	4715
2026-01-09 21:23:25.78	103.93	6.72	-50.7	-52.4	13.9	0.00e+00	0	24	0	1495269376	66	4688
2026-01-09 21:23:26.77	104.06	6.68	-50.7	-52.5	13.9	0.00e+00	0	24	0	1498415104	66	4742
2026-01-09 21:23:27.76	104.19	6.64	-50.6	-52.4	13.9	0.00e+00	0	24	0	1501560832	66	4681
2026-01-09 21:23:28.76	104.33	6.60	-50.7	-52.5	13.9	0.00e+00	0	23	0	1504706560	66	4720
2026-01-09 21:23:29.76	104.46	6.55	-50.8	-52.6	13.8	0.00e+00	0	24	0	1507852288	66	4770
2026-01-09 21:23:30.76	104.59	6.51	-50.8	-52.6	13.8	0.00e+00	0	23	0	1510998016	66	4764
2026-01-09 21:23:31.75	104.73	6.47	-50.7	-52.5	13.8	0.00e+00	0	24	0	1514143744	66	4750
2026-01-09 21:23:32.75	104.86	6.43	-50.8	-52.6	13.8	0.00e+00	0	24	0	1517289472	66	4809
2026-01-09 21:23:33.75	104.99	6.39	-50.9	-52.7	13.8	0.00e+00	0	24	0	1520435200	66	4852
2026-01-09 21:23:34.75	105.12	6.35	-50.9	-52.7	13.9	0.00e+00	0	24	0	1523580928	67	4553
2026-01-09 21:23:35.75	105.25	6.30	-50.8	-52.6	13.9	0.00e+00	0	24	0	1526726656	67	4513
2026-01-09 21:23:36.75	105.38	6.26	-51.0	-52.8	13.8	0.00e+00	0	24	0	1529872384	67	4645
2026-01-09 21:23:37.75	105.51	6.22	-51.0	-52.9	13.8	0.00e+00	0	24	0	1533018112	67	4668
2026-01-09 21:23:38.75	105.64	6.18	-50.9	-52.8	13.8	0.00e+00	0	24	0	1536163840	67	4608
2026-01-09 21:23:39.75	105.77	6.13	-51.0	-52.8	13.8	0.00e+00	0	24	0	1539309568	67	4640
2026-01-09 21:23:40.74	105.90	6.09	-51.0	-52.8	13.8	0.00e+00	0	23	0	1542455296	67	4616
2026-01-09 21:23:41.74	106.03	6.05	-51.1	-53.0	13.7	0.00e+00	0	24	0	1545601024	67	4714
2026-01-09 21:23:42.73	106.16	6.01	-50.9	-52.7	13.8	0.00e+00	0	24	0	1548746752	67	4587
2026-01-09 21:23:43.73	106.29	5.97	-50.8	-52.6	13.9	0.00e+00	0	24	0	1551892480	67	4539
2026-01-09 21:23:44.73	106.42	5.92	-51.0	-52.8	13.8	0.00e+00	0	23	0	1555038208	67	4650
2026-01-09 21:23:45.72	106.54	5.88	-50.9	-52.7	13.8	0.00e+00	0	24	0	1558183936	67	4576
2026-01-09 21:23:46.72	106.67	5.84	-51.0	-52.8	13.8	0.00e+00	0	24	0	1561329664	67	4617
2026-01-09 21:23:47.73	106.80	5.80	-50.9	-52.8	13.8	0.00e+00	0	23	0	1564475392	67	4624
2026-01-09 21:23:48.73	106.93	5.75	-50.9	-52.8	13.8	0.00e+00	0	24	0	1567621120	67	4600
2026-01-09 21:23:49.73	107.05	5.71	-50.8	-52.7	13.9	0.00e+00	0	24	0	1570766848	67	4551
2026-01-09 21:23:50.73	107.18	5.67	-50.9	-52.7	13.9	0.00e+00	0	23	0	1573912576	67	4581
2026-01-09 21:23:51.72	107.30	5.63	-50.9	-52.7	13.8	0.00e+00	0	23	0	1577058304	67	4576
2026-01-09 21:23:52.72	107.43	5.58	-50.9	-52.7	13.8	0.00e+00	0	23	0	1580204032	67	4559
2026-01-09 21:23:53.72	107.55	5.54	-50.9	-52.7	13.9	0.00e+00	0	23	0	1582301184	67	4561
2026-01-09 21:23:54.72	107.68	5.50	-50.8	-52.6	13.9	0.00e+00	0	24	0	1586495488	67	4544
2026-01-09 21:23:55.72	107.80	5.46	-50.9	-52.7	13.9	0.00e+00	0	24	0	1589641216	67	4554
2026-01-09 21:23:56.71	107.92	5.41	-50.8	-52.7	13.9	0.00e+00	0	24	0	1591738368	67	4546
2026-01-09 21:23:57.71	108.05	5.37	-50.8	-52.6	13.9	0.00e+00	0	24	0	1594884096	67	4541
2026-01-09 21:23:58.70	108.17	5.33	-50.9	-52.7	13.8	0.00e+00	0	23	0	1598029824	67	4566
2026-01-09 21:23:59.71	108.29	5.28	-50.8	-52.6	13.9	0.00e+00	0	23	0	1601175552	67	4530
2026-01-09 21:24:00.71	108.42	5.24	-50.9	-52.8	13.8	0.00e+00	0	24	0	1604321280	67	4617
2026-01-09 21:24:01.71	108.54	5.20	-51.0	-52.8	13.8	0.00e+00	0	24	0	1607467008	67	4637
2026-01-09 21:24:02.71	108.66	5.15	-50.9	-52.8	13.8	0.00e+00	0	24	0	1610612736	67	4605
2026-01-09 21:24:03.71	108.78	5.11	-51.1	-53.0	13.7	0.00e+00	0	23	0	1613758464	67	4719
2026-01-09 21:24:04.71	108.90	5.07	-50.9	-52.8	13.8	0.00e+00	0	23	0	1616904192	67	4610
2026-01-09 21:24:05.71	109.02	5.02	-50.9	-52.7	13.8	0.00e+00	0	24	0	1620049920	67	4592
2026-01-09 21:24:06.71	109.14	4.98	-55.2	-59.4	9.9	0.00e+00	0	24	0	1623195648	75	6243
2026-01-09 21:24:07.72	109.26	4.94	-57.9	-71.6	3.8	1.49e+00	0	24	104	1624244224	80	19157
2026-01-09 21:24:08.72	109.38	4.89	-58.2	-71.8	3.8	1.49e+00	0	24	104	1624244224	81	18413
2026-01-09 21:24:09.73	109.51	4.85	-58.3	-72.1	3.8	1.49e+00	0	24	104	1624244224	81	19033
2026-01-09 21:24:10.73	109.62	4.81	-58.5	-72.3	3.8	1.49e+00	0	24	104	1624244224	82	18447
2026-01-09 21:24:11.73	109.74	4.76	-58.6	-72.4	3.8	1.49e+00	0	24	104	1624244224	82	18637
2026-01-09 21:24:12.73	109.86	4.72	-58.7	-72.5	3.8	1.49e+00	0	24	104	1624244224	82	18751
2026-01-09 21:24:13.74	109.98	4.68	-58.7	-72.6	3.8	1.49e+00	0	24	104	1624244224	82	18980
2026-01-09 21:24:14.74	110.10	4.63	-58.8	-72.6	3.8	1.49e+00	0	24	104	1624244224	82	19051
2026-01-09 21:24:15.75	110.22	4.59	-58.9	-72.7	3.8	1.49e+00	0	24	104	1624244224	82	19214
2026-01-09 21:24:16.74	110.33	4.54	-58.9	-72.7	3.8	1.49e+00	0	24	104	1624244224	82	19254
2026-01-09 21:24:17.75	110.45	4.50	-59.0	-72.8	3.8	1.49e+00	0	24	104	1624244224	83	18418
2026-01-09 21:24:18.75	110.57	4.46	-59.0	-72.8	3.8	1.49e+00	0	24	104	1624244224	83	18473
2026-01-09 21:24:19.75	110.68	4.41	-59.0	-72.9	3.8	1.49e+00	0	24	104	1624244224	83	18519
2026-01-09 21:24:20.74	110.80	4.37	-59.1	-72.9	3.8	1.49e+00	0	24	104	1624244224	83	18625
2026-01-09 21:24:21.74	110.91	4.33	-59.1	-72.9	3.8	1.49e+00	0	24	104	1624244224	83	18545
2026-01-09 21:24:22.75	111.03	4.28	-59.1	-72.9	3.8	1.49e+00	0	24	104	1624244224	83	18686
2026-01-09 21:24:23.75	111.14	4.24	-59.1	-73.0	3.8	1.49e+00	0	24	104	1624244224	83	18777
2026-01-09 21:24:24.75	111.26	4.19	-59.2	-73.0	3.8	1.49e+00	0	24	104	1624244224	83	18842
2026-01-09 21:24:25.75	111.37	4.15	-59.2	-73.0	3.9	1.49e+00	0	24	104	1624244224	83	18877
2026-01-09 21:24:26.74	111.48	4.11	-59.2	-73.1	3.8	1.49e+00	0	24	104	1624244224	83	18967
2026-01-09 21:24:27.74	111.60	4.06	-59.3	-73.1	3.8	1.49e+00	0	24	104	1624244224	83	19035
2026-01-09 21:24:28.73	111.71	4.02	-59.3	-73.1	3.8	1.49e+00	0	24	104	1624244224	83	19097
2026-01-09 21:24:29.73	111.82	3.98	-59.3	-73.1	3.8	1.49e+00	0	24	104	1624244224	83	19139
2026-01-09 21:24:30.73	111.94	3.93	-59.3	-73.1	3.8	1.49e+00	0	24	104	1624244224	83	19143
2026-01-09 21:24:31.72	112.05	3.89	-59.3	-73.2	3.8	1.49e+00	0	24	104	1624244224	83	19213
2026-01-09 21:24:32.72	112.16	3.84	-59.4	-73.2	3.8	1.49e+00	0	24	104	1624244224	83	19332
2026-01-09 21:24:33.72	112.27	3.80	-59.4	-73.2	3.8	1.49e+00	0	24	104	1624244224	83	19386
2026-01-09 21:24:34.72	112.38	3.76	-59.6	-73.4	3.8	1.49e+00	0	24	104	1624244224	84	18726
2026-01-09 21:24:35.71	112.49	3.71	-59.6	-73.5	3.8	1.49e+00	0	24	104	1624244224	84	18741
2026-01-09 21:24:36.71	112.60	3.67	-59.6	-73.5	3.8	1.49e+00	0	24	104	1624244224	84	18747
2026-01-09 21:24:37.71	112.71	3.63	-59.6	-73.4	3.8	1.49e+00	0	24	104	1624244224	84	18701
2026-01-09 21:24:38.71	112.82	3.58	-59.6	-73.4	3.8	1.49e+00	0	24	104	1624244224	84	18703
2026-01-09 21:24:39.70	112.93	3.54	-59.6	-73.4	3.8	1.49e+00	0	24	104	1624244224	84	18696
2026-01-09 21:24:40.70	113.04	3.49	-59.6	-73.4	3.8	1.49e+00	0	24	104	1624244224	84	18642
2026-01-09 21:24:41.70	113.15	3.45	-59.6	-73.4	3.8	1.49e+00	0	24	104	1624244224	84	18568
2026-01-09 21:24:42.70	113.26	3.41	-59.6	-73.4	3.8	1.49e+00	0	24	104	1624244224	84	18614
2026-01-09 21:24:43.70	113.37	3.36	-59.6	-73.4	3.8	1.49e+00	0	24	104	1624244224	84	18627
2026-01-09 21:24:44.70	113.47	3.32	-59.5	-73.4	3.8	1.49e+00	0	24	104	1624244224	84	18531
2026-01-09 21:24:45.70	113.58	3.27	-59.6	-73.4	3.8	1.49e+00	0	24	104	1624244224	84	18568
2026-01-09 21:24:46.70	113.69	3.23	-59.6	-73.4	3.8	1.49e+00	0	24	104	1624244224	84	18519
2026-01-09 21:24:47.70	113.80	3.18	-59.5	-73.4	3.8	1.49e+00	0	24	104	1624244224	84	18539
2026-01-09 21:24:48.71	113.90	3.14	-59.5	-73.4	3.8	1.49e+00	0	24	104	1624244224	84	18554
2026-01-09 21:24:49.71	114.01	3.10	-59.5	-73.4	3.8	1.49e+00	0	24	104	1624244224	84	18579
2026-01-09 21:24:50.71	114.12	3.05	-59.5	-73.4	3.8	1.49e+00	0	24	104	1624244224	84	18518
2026-01-09 21:24:51.72	114.22	3.01	-59.5	-73.3	3.8	1.49e+00	0	24	104	1624244224	84	18512
2026-01-09 21:24:52.72	114.33	2.96	-59.5	-73.3	3.8	1.49e+00	0	24	104	1624244224	84	18469
2026-01-09 21:24:53.71	114.43	2.92	-59.5	-73.3	3.8	1.49e+00	0	24	104	1624244224	84	18483
2026-01-09 21:24:54.71	114.54	2.88	-59.5	-73.3	3.8	1.49e+00	0	24	104	1624244224	84	18487
2026-01-09 21:24:55.71	114.64	2.83	-59.5	-73.3	3.8	1.49e+00	0	24	104	1624244224	84	18444
2026-01-09 21:24:56.71	114.75	2.79	-59.5	-73.3	3.8	1.49e+00	0	24	104	1624244224	84	18460
2026-01-09 21:24:57.71	114.85	2.74	-59.5	-73.3	3.8	1.49e+00	0	24	104	1624244224	84	18458
2026-01-09 21:24:58.70	114.95	2.70	-59.5	-73.3	3.8	1.49e+00	0	24	104	1624244224	84	18427
2026-01-09 21:24:59.70	115.06	2.65	-59.5	-73.3	3.8	1.49e+00	0	24	104	1624244224	84	18442
2026-01-09 21:25:00.70	115.16	2.61	-59.5	-73.3	3.8	1.49e+00	0	24	104	1624244224	84	18402
2026-01-09 21:25:01.70	115.26	2.57	-59.5	-73.3	3.8	1.49e+00	0	24	104	1624244224	84	18463
2026-01-09 21:25:02.71	115.37	2.52	-59.5	-73.3	3.8	1.49e+00	0	24	104	1624244224	84	18460
2026-01-09 21:25:03.71	115.47	2.48	-59.5	-73.3	3.8	1.49e+00	0	24	104	1624244224	84	18455
2026-01-09 21:25:04.71	115.57	2.43	-59.5	-73.3	3.8	1.49e+00	0	24	104	1624244224	84	18449
2026-01-09 21:25:05.71	115.67	2.39	-59.5	-73.3	3.8	1.49e+00	0	24	104	1624244224	84	18512
2026-01-09 21:25:06.71	115.78	2.34	-59.5	-73.3	3.8	1.49e+00	0	24	104	1624244224	84	18398
2026-01-09 21:25:07.71	115.88	2.30	-59.5	-73.3	3.8	1.49e+00	0	24	104	1624244224	84	18419
2026-01-09 21:25:08.71	115.98	2.26	-59.5	-73.3	3.8	1.49e+00	0	24	104	1624244224	84	18384
2026-01-09 21:25:09.72	116.08	2.21	-59.5	-73.3	3.8	1.49e+00	0	24	104	1624244224	84	18390
2026-01-09 21:25:10.71	116.18	2.17	-59.5	-73.3	3.8	1.49e+00	0	24	104	1624244224	84	18386
2026-01-09 21:25:11.72	116.28	2.12	-59.5	-73.3	3.8	1.49e+00	0	24	104	1624244224	84	18353
2026-01-09 21:25:12.72	116.38	2.08	-59.5	-73.3	3.8	1.49e+00	0	24	104	1624244224	84	18360
2026-01-09 21:25:13.71	116.48	2.03	-59.5	-73.3	3.8	1.49e+00	0	24	104	1624244224	84	18307
2026-01-09 21:25:14.71	116.58	1.99	-59.5	-73.3	3.8	1.49e+00	0	24	104	1624244224	84	18375
2026-01-09 21:25:15.71	116.68	1.95	-59.5	-73.3	3.8	1.49e+00	0	24	104	1624244224	84	18369

#Closed at: 2026-01-09 21:25:16
#Recorded file [1624 MB]: D:/lorett/data/31004_260110_001428.dat