passes_logs/2026/01/09/R3.2S_Murmansk/R3.2S_Murmansk__20260109_022358_FENGYUN_3D_rec.log

#Pass ID: 20260109_022358_FENGYUN 3D
#Satellite: FENGYUN 3D
#Configuration: FENGYUN 3D
#almurnet v.1.7.20251203
#Start time: 2026-01-09 02:23:59

#Version: 2.2.20231116
#Station: R3.2S_Murmansk
#Location: 33.079688 lon 68.888172 lat
#TLE: 1 43010U 17072A   26008.59015185 -.00000067  00000+0 -98204-5 0  9997
#TLE: 2 43010  98.9935 340.3069 0002117 119.1923 240.9464 14.19693468422340

#Time	Az	El	Level	Level2	SNR	BER	BlckErr	Temp	State	Recorded	gain1	gain2
2026-01-09 02:23:59.30	23.86	2.07	-57.3	-70.3	3.8	8.45e-01	0	22	0	0	81	15474
2026-01-09 02:24:00.30	23.87	2.14	-57.2	-70.1	3.8	8.45e-01	0	22	104	0	79	16997
2026-01-09 02:24:01.30	23.88	2.20	-57.2	-70.0	3.8	8.45e-01	0	22	104	0	79	16724
2026-01-09 02:24:02.29	23.90	2.27	-57.2	-69.9	3.8	8.44e-01	0	22	104	0	79	16691
2026-01-09 02:24:03.30	23.91	2.33	-57.2	-69.9	3.8	8.46e-01	0	22	104	0	79	16567
2026-01-09 02:24:04.29	23.93	2.39	-57.2	-69.9	3.8	8.46e-01	0	22	104	0	79	16621
2026-01-09 02:24:05.29	23.94	2.46	-57.2	-69.9	3.8	8.45e-01	0	22	104	0	79	16533
2026-01-09 02:24:06.29	23.96	2.52	-57.2	-69.9	3.8	8.46e-01	0	22	104	0	79	16518
2026-01-09 02:24:07.30	23.97	2.59	-57.2	-69.8	3.8	8.45e-01	0	22	104	0	79	16340
2026-01-09 02:24:08.29	23.98	2.65	-57.2	-69.4	3.8	8.44e-01	0	22	104	0	79	15722
2026-01-09 02:24:09.28	24.00	2.72	-57.2	-69.3	3.8	8.46e-01	0	22	104	0	79	15510
2026-01-09 02:24:10.29	24.01	2.78	-57.1	-68.6	3.8	8.44e-01	0	22	104	0	79	14235
2026-01-09 02:24:11.28	24.03	2.85	-57.1	-68.5	3.8	8.45e-01	0	22	104	0	79	14086
2026-01-09 02:24:12.27	24.04	2.91	-57.1	-68.1	3.8	8.45e-01	0	22	104	0	79	13569
2026-01-09 02:24:13.28	24.06	2.98	-57.1	-68.1	3.8	8.46e-01	0	22	104	0	79	13517
2026-01-09 02:24:14.27	24.07	3.04	-57.1	-68.0	3.8	8.45e-01	0	22	104	0	79	13356
2026-01-09 02:24:15.27	24.09	3.11	-57.1	-68.0	3.9	8.46e-01	0	22	104	0	79	13352
2026-01-09 02:24:16.26	24.10	3.18	-57.0	-67.8	3.8	8.43e-01	0	22	104	0	79	13009
2026-01-09 02:24:17.26	24.11	3.24	-57.1	-67.8	4.0	8.44e-01	0	23	104	0	79	13069
2026-01-09 02:24:18.26	24.13	3.31	-57.0	-67.3	4.1	8.44e-01	0	22	0	0	79	12317
2026-01-09 02:24:19.26	24.14	3.37	-56.9	-66.3	4.3	8.33e-01	0	22	0	0	79	11020
2026-01-09 02:24:20.26	24.16	3.44	-56.8	-65.3	4.6	8.20e-01	0	23	0	0	79	9800
2026-01-09 02:24:21.26	24.17	3.51	-56.4	-63.4	5.7	6.85e-01	0	23	0	0	79	7899
2026-01-09 02:24:22.26	24.19	3.58	-56.0	-61.9	6.8	2.17e-01	0	22	0	5242880	78	7021
2026-01-09 02:24:23.26	24.20	3.64	-55.8	-61.3	7.4	1.13e-01	0	23	0	11534336	78	6520
2026-01-09 02:24:24.26	24.22	3.71	-55.6	-60.6	7.9	6.88e-02	0	23	0	16777216	77	6356
2026-01-09 02:24:25.26	24.23	3.78	-55.1	-59.4	9.0	2.73e-02	0	23	0	22020096	76	5863
2026-01-09 02:24:26.26	24.25	3.85	-54.8	-58.8	9.5	8.25e-03	0	23	0	28311552	76	5505
2026-01-09 02:24:27.26	24.26	3.91	-54.3	-57.9	10.2	3.38e-03	0	23	0	33554432	75	5262
2026-01-09 02:24:28.26	24.28	3.98	-53.9	-57.1	10.8	7.87e-04	0	23	0	39845888	74	5095
2026-01-09 02:24:29.26	24.30	4.05	-53.3	-56.1	11.7	1.02e-04	0	23	0	45088768	73	4772
2026-01-09 02:24:30.27	24.31	4.12	-53.3	-56.1	11.6	6.52e-05	0	23	0	50331648	73	4808
2026-01-09 02:24:31.27	24.33	4.19	-53.3	-56.2	11.6	4.34e-05	0	23	0	56623104	73	4825
2026-01-09 02:24:32.27	24.34	4.26	-53.2	-56.0	11.8	5.37e-05	0	23	0	61865984	73	4710
2026-01-09 02:24:33.27	24.36	4.32	-52.9	-55.5	12.0	2.51e-05	0	23	0	67108864	72	4741
2026-01-09 02:24:34.28	24.37	4.39	-53.2	-56.0	11.6	1.71e-05	0	23	0	73400320	72	5005
2026-01-09 02:24:35.27	24.39	4.46	-53.3	-56.2	11.4	7.66e-05	0	23	0	78643200	72	5112
2026-01-09 02:24:36.27	24.40	4.53	-53.5	-56.5	11.1	1.74e-04	0	23	0	84934656	72	5321
2026-01-09 02:24:37.27	24.42	4.60	-53.7	-56.8	10.9	3.28e-04	0	23	0	90177536	72	5501
2026-01-09 02:24:38.26	24.44	4.67	-53.8	-57.1	10.7	3.72e-04	0	23	0	95420416	72	5671
2026-01-09 02:24:39.26	24.45	4.74	-54.3	-58.0	10.0	1.79e-03	0	23	0	101711872	73	5926
2026-01-09 02:24:40.26	24.47	4.81	-54.4	-58.0	9.9	3.36e-03	0	23	0	106954752	73	5979
2026-01-09 02:24:41.27	24.48	4.88	-54.7	-58.6	9.4	6.04e-03	0	23	0	112197632	74	6059
2026-01-09 02:24:42.26	24.50	4.95	-54.8	-58.9	9.1	1.26e-02	0	23	0	118489088	74	6273
2026-01-09 02:24:43.26	24.52	5.02	-54.9	-59.1	9.0	2.55e-02	0	23	0	123731968	75	6053
2026-01-09 02:24:44.24	24.53	5.09	-51.5	-53.5	13.3	0.00e+00	0	23	0	128974848	69	4475
2026-01-09 02:24:45.24	24.55	5.16	-53.5	-56.4	11.4	4.23e-05	0	23	0	135266304	72	5225
2026-01-09 02:24:46.23	24.56	5.23	-56.6	-65.1	4.6	6.69e-01	0	23	0	137363456	78	10102
2026-01-09 02:24:47.23	24.58	5.31	-50.5	-52.2	13.9	0.00e+00	0	23	0	142606336	67	4315
2026-01-09 02:24:48.22	24.60	5.38	-56.6	-63.2	6.0	4.46e-01	0	23	0	147849216	79	7655
2026-01-09 02:24:49.22	24.61	5.45	-50.4	-52.1	13.9	0.00e+00	0	23	0	153092096	67	4276
2026-01-09 02:24:50.21	24.63	5.52	-49.5	-51.1	14.3	0.00e+00	0	23	0	158334976	65	4252
2026-01-09 02:24:51.21	24.64	5.59	-49.3	-50.8	14.6	0.00e+00	0	23	0	164626432	65	4129
2026-01-09 02:24:52.10	24.66	5.66	-48.6	-50.0	14.7	0.00e+00	0	23	0	169869312	63	4209
2026-01-09 02:24:53.21	24.68	5.74	-48.7	-50.1	14.7	0.00e+00	0	23	0	176160768	63	4264
2026-01-09 02:24:54.07	24.69	5.80	-48.6	-50.1	14.7	0.00e+00	0	23	0	181403648	63	4251
2026-01-09 02:24:55.20	24.71	5.88	-48.7	-50.1	14.7	0.00e+00	0	23	0	187695104	63	4255
2026-01-09 02:24:56.06	24.73	5.95	-48.4	-49.8	14.9	0.00e+00	0	23	0	191889408	63	4105
2026-01-09 02:24:57.20	24.74	6.03	-48.4	-49.8	14.9	0.00e+00	0	23	0	198180864	63	4110
2026-01-09 02:24:58.05	24.76	6.09	-48.4	-49.8	14.9	0.00e+00	0	23	0	203423744	63	4126
2026-01-09 02:24:59.19	24.78	6.18	-48.4	-49.8	14.9	0.00e+00	0	23	0	209715200	63	4119
2026-01-09 02:25:00.05	24.79	6.24	-48.5	-49.9	14.8	0.00e+00	0	23	0	214958080	63	4159
2026-01-09 02:25:01.19	24.81	6.32	-48.5	-49.9	14.8	0.00e+00	0	23	0	221249536	63	4160
2026-01-09 02:25:02.04	24.83	6.39	-48.5	-49.8	14.8	0.00e+00	0	23	0	225443840	63	4144
2026-01-09 02:25:03.19	24.85	6.47	-48.4	-49.7	14.9	0.00e+00	0	23	0	231735296	63	4083
2026-01-09 02:25:04.04	24.86	6.54	-48.4	-49.8	14.9	0.00e+00	0	23	0	236978176	63	4108
2026-01-09 02:25:05.18	24.88	6.62	-48.1	-49.4	14.9	0.00e+00	0	23	0	243269632	62	4186
2026-01-09 02:25:06.04	24.90	6.69	-48.2	-49.5	14.9	0.00e+00	0	23	0	248512512	62	4226
2026-01-09 02:25:07.19	24.92	6.77	-48.2	-49.5	14.9	0.00e+00	0	23	0	254803968	62	4202
2026-01-09 02:25:08.04	24.93	6.84	-48.2	-49.6	14.8	0.00e+00	0	23	0	258998272	62	4250
2026-01-09 02:25:09.19	24.95	6.93	-48.3	-49.6	14.8	0.00e+00	0	23	0	266338304	62	4268
2026-01-09 02:25:10.05	24.97	6.99	-48.2	-49.5	14.9	0.00e+00	0	23	0	270532608	62	4237
2026-01-09 02:25:11.20	24.99	7.08	-48.2	-49.5	14.8	0.00e+00	0	23	0	277872640	62	4235
2026-01-09 02:25:12.06	25.00	7.15	-48.2	-49.5	14.9	0.00e+00	0	23	0	282066944	62	4224
2026-01-09 02:25:13.20	25.02	7.23	-48.3	-49.6	14.8	0.00e+00	0	23	0	288358400	62	4281
2026-01-09 02:25:14.05	25.04	7.30	-48.2	-49.6	14.8	0.00e+00	0	23	0	293601280	62	4259
2026-01-09 02:25:15.19	25.06	7.39	-48.2	-49.6	14.8	0.00e+00	0	23	0	299892736	62	4244
2026-01-09 02:25:16.04	25.08	7.45	-48.1	-49.4	14.9	0.00e+00	0	23	0	304087040	62	4178
2026-01-09 02:25:17.19	25.10	7.54	-48.1	-49.4	14.9	0.00e+00	0	23	0	310378496	62	4178
2026-01-09 02:25:18.04	25.11	7.61	-48.1	-49.4	14.9	0.00e+00	0	23	0	315621376	62	4160
2026-01-09 02:25:19.19	25.13	7.70	-48.1	-49.4	15.0	0.00e+00	0	23	0	321912832	62	4154
2026-01-09 02:25:20.04	25.15	7.77	-47.9	-49.2	15.1	0.00e+00	0	23	0	327155712	62	4078
2026-01-09 02:25:21.18	25.17	7.86	-48.0	-49.2	15.0	0.00e+00	0	23	0	333447168	62	4097
2026-01-09 02:25:22.04	25.19	7.92	-47.8	-49.1	15.1	0.00e+00	0	24	0	337641472	62	4037
2026-01-09 02:25:23.19	25.21	8.02	-47.8	-49.1	15.1	0.00e+00	0	23	0	344981504	62	4009
2026-01-09 02:25:24.04	25.22	8.08	-47.8	-49.1	15.2	0.00e+00	0	23	0	349175808	62	4016
2026-01-09 02:25:25.18	25.24	8.17	-47.9	-49.1	15.1	0.00e+00	0	23	0	355467264	62	4048
2026-01-09 02:25:26.04	25.26	8.24	-47.9	-49.2	15.1	0.00e+00	0	23	0	360710144	62	4070
2026-01-09 02:25:27.18	25.28	8.33	-47.8	-49.0	15.1	0.00e+00	0	23	0	367001600	62	4001
2026-01-09 02:25:28.03	25.30	8.40	-47.8	-49.0	15.2	0.00e+00	0	23	0	372244480	62	4001
2026-01-09 02:25:29.17	25.32	8.50	-47.8	-49.1	15.1	0.00e+00	0	23	0	378535936	62	4025
2026-01-09 02:25:30.03	25.34	8.56	-47.7	-48.9	15.2	0.00e+00	0	23	0	382730240	62	3949
2026-01-09 02:25:31.17	25.36	8.66	-47.8	-49.1	15.2	0.00e+00	0	23	0	390070272	62	4006
2026-01-09 02:25:32.02	25.38	8.73	-47.7	-48.9	15.2	0.00e+00	0	23	0	394264576	62	3949
2026-01-09 02:25:33.16	25.40	8.82	-47.6	-48.9	15.1	0.00e+00	0	23	0	400556032	61	4154
2026-01-09 02:25:34.02	25.41	8.89	-47.6	-48.9	15.1	0.00e+00	0	23	0	405798912	61	4162
2026-01-09 02:25:35.15	25.44	8.98	-47.7	-48.9	15.1	0.00e+00	0	23	0	412090368	61	4183
2026-01-09 02:25:36.01	25.45	9.06	-47.6	-48.8	15.1	0.00e+00	0	23	0	417333248	61	4126
2026-01-09 02:25:37.15	25.48	9.15	-47.6	-48.8	15.1	0.00e+00	0	23	0	423624704	61	4124
2026-01-09 02:25:38.01	25.49	9.22	-47.6	-48.9	15.1	0.00e+00	0	23	0	427819008	61	4151
2026-01-09 02:25:39.16	25.52	9.32	-47.4	-48.7	15.2	0.00e+00	0	23	0	434110464	61	4059
2026-01-09 02:25:40.01	25.53	9.39	-47.5	-48.7	15.2	0.00e+00	0	23	0	439353344	61	4075
2026-01-09 02:25:41.16	25.56	9.49	-47.5	-48.8	15.1	0.00e+00	0	23	0	445644800	61	4118
2026-01-09 02:25:42.01	25.57	9.56	-47.5	-48.8	15.1	0.00e+00	0	23	0	450887680	61	4117
2026-01-09 02:25:43.15	25.60	9.65	-47.5	-48.8	15.1	0.00e+00	0	23	0	457179136	61	4102
2026-01-09 02:25:44.01	25.61	9.73	-47.5	-48.8	15.1	0.00e+00	0	23	0	461373440	61	4111
2026-01-09 02:25:45.15	25.64	9.82	-47.3	-48.5	15.3	0.00e+00	0	23	0	468713472	61	3993
2026-01-09 02:25:46.00	25.66	9.90	-47.3	-48.6	15.2	0.00e+00	0	23	0	472907776	61	4015
2026-01-09 02:25:47.15	25.68	10.00	-47.5	-48.7	15.2	0.00e+00	0	23	0	479199232	61	4071
2026-01-09 02:25:48.00	25.70	10.07	-47.4	-48.6	15.2	0.00e+00	0	23	0	484442112	61	4025
2026-01-09 02:25:49.13	25.72	10.17	-47.5	-48.8	15.2	0.00e+00	0	23	0	490733568	61	4099
2026-01-09 02:25:49.98	25.74	10.24	-47.3	-48.6	15.3	0.00e+00	0	23	0	494927872	61	4006
2026-01-09 02:25:51.12	25.76	10.34	-47.2	-48.4	15.3	0.00e+00	0	23	0	502267904	61	3954
2026-01-09 02:25:51.97	25.78	10.41	-47.3	-48.5	15.3	0.00e+00	0	24	0	506462208	61	4004
2026-01-09 02:25:53.11	25.80	10.51	-47.2	-48.5	15.3	0.00e+00	0	24	0	512753664	61	3961
2026-01-09 02:25:53.96	25.82	10.59	-47.2	-48.4	15.4	0.00e+00	0	23	0	517996544	61	3932
2026-01-09 02:25:55.10	25.85	10.69	-47.2	-48.5	15.3	0.00e+00	0	23	0	524288000	61	3961
2026-01-09 02:25:55.96	25.87	10.76	-47.3	-48.5	15.3	0.00e+00	0	23	0	529530880	61	3992
2026-01-09 02:25:57.10	25.89	10.87	-47.3	-48.5	15.3	0.00e+00	0	24	0	535822336	61	3996
2026-01-09 02:25:57.95	25.91	10.94	-47.3	-48.5	15.3	0.00e+00	0	23	0	540016640	61	3972
2026-01-09 02:25:59.09	25.93	11.04	-47.2	-48.4	15.3	0.00e+00	0	23	0	546308096	61	3953
2026-01-09 02:25:59.94	25.95	11.12	-47.3	-48.5	15.3	0.00e+00	0	24	0	551550976	61	3981
2026-01-09 02:26:01.08	25.98	11.22	-47.3	-48.6	15.3	0.00e+00	0	24	0	557842432	61	4009
2026-01-09 02:26:01.93	26.00	11.30	-47.3	-48.5	15.3	0.00e+00	0	23	0	563085312	61	3993
2026-01-09 02:26:03.08	26.02	11.40	-47.3	-48.5	15.3	0.00e+00	0	23	0	569376768	61	3966
2026-01-09 02:26:03.94	26.04	11.48	-47.2	-48.5	15.3	0.00e+00	0	23	0	573571072	61	3962
2026-01-09 02:26:05.09	26.07	11.59	-47.4	-48.6	15.2	0.00e+00	0	24	0	579862528	61	4028
2026-01-09 02:26:05.95	26.09	11.67	-47.4	-48.6	15.2	0.00e+00	0	24	0	585105408	61	4050
2026-01-09 02:26:07.09	26.11	11.77	-47.3	-48.5	15.3	0.00e+00	0	24	0	591396864	61	3991
2026-01-09 02:26:07.95	26.13	11.85	-47.4	-48.6	15.3	0.00e+00	0	24	0	596639744	61	4021
2026-01-09 02:26:09.09	26.16	11.96	-47.4	-48.7	15.2	0.00e+00	0	24	0	602931200	61	4056
2026-01-09 02:26:09.95	26.18	12.04	-47.3	-48.6	15.3	0.00e+00	0	24	0	608174080	61	4013
2026-01-09 02:26:11.09	26.21	12.14	-47.4	-48.7	15.2	0.00e+00	0	23	0	614465536	61	4069
2026-01-09 02:26:11.94	26.23	12.22	-47.5	-48.7	15.2	0.00e+00	0	24	0	618659840	61	4094
2026-01-09 02:26:13.08	26.25	12.33	-47.4	-48.7	15.2	0.00e+00	0	24	0	624951296	61	4056
2026-01-09 02:26:13.93	26.27	12.41	-47.5	-48.7	15.2	0.00e+00	0	24	0	630194176	61	4071
2026-01-09 02:26:15.08	26.30	12.52	-47.4	-48.7	15.2	0.00e+00	0	24	0	636485632	61	4069
2026-01-09 02:26:15.94	26.32	12.60	-47.4	-48.7	15.2	0.00e+00	0	24	0	641728512	61	4066
2026-01-09 02:26:17.08	26.35	12.71	-47.5	-48.8	15.2	0.00e+00	0	24	0	648019968	61	4126
2026-01-09 02:26:17.94	26.37	12.80	-47.4	-48.7	15.2	0.00e+00	0	23	0	652214272	61	4056
2026-01-09 02:26:19.09	26.40	12.91	-47.4	-48.6	15.3	0.00e+00	0	24	0	659554304	61	4035
2026-01-09 02:26:19.94	26.42	12.99	-47.4	-48.6	15.3	0.00e+00	0	24	0	663748608	61	4031
2026-01-09 02:26:21.09	26.45	13.10	-47.4	-48.7	15.2	0.00e+00	0	24	0	670040064	61	4066
2026-01-09 02:26:21.94	26.47	13.18	-47.4	-48.6	15.2	0.00e+00	0	24	0	675282944	61	4050
2026-01-09 02:26:23.08	26.50	13.30	-47.2	-48.5	15.3	0.00e+00	0	24	0	681574400	61	3963
2026-01-09 02:26:23.93	26.52	13.38	-47.2	-48.4	15.4	0.00e+00	0	24	0	686817280	61	3943
2026-01-09 02:26:25.08	26.55	13.49	-47.1	-48.3	15.3	0.00e+00	0	24	0	693108736	60	4129
2026-01-09 02:26:25.94	26.57	13.58	-47.1	-48.4	15.2	0.00e+00	0	24	0	697303040	60	4153
2026-01-09 02:26:27.08	26.60	13.69	-47.1	-48.3	15.3	0.00e+00	0	24	0	703594496	60	4123
2026-01-09 02:26:27.94	26.62	13.78	-47.1	-48.3	15.2	0.00e+00	0	24	0	708837376	60	4130
2026-01-09 02:26:29.07	26.65	13.89	-47.1	-48.3	15.2	0.00e+00	0	24	0	715128832	60	4137
2026-01-09 02:26:29.92	26.67	13.98	-47.1	-48.3	15.2	0.00e+00	0	24	0	720371712	60	4118
2026-01-09 02:26:31.05	26.70	14.09	-47.0	-48.3	15.3	0.00e+00	0	24	0	726663168	60	4104
2026-01-09 02:26:31.91	26.72	14.18	-46.9	-48.1	15.4	0.00e+00	0	24	0	730857472	60	4017
2026-01-09 02:26:33.06	26.75	14.30	-46.9	-48.1	15.3	0.00e+00	0	24	0	738197504	60	4047
2026-01-09 02:26:33.91	26.77	14.38	-46.9	-48.1	15.4	0.00e+00	0	24	0	742391808	60	4017
2026-01-09 02:26:35.04	26.80	14.50	-46.9	-48.1	15.3	0.00e+00	0	24	0	748683264	60	4040
2026-01-09 02:26:35.90	26.83	14.59	-46.7	-47.9	15.5	0.00e+00	0	24	0	753926144	60	3945
2026-01-09 02:26:37.03	26.86	14.71	-47.0	-48.2	15.1	0.00e+00	0	23	0	760217600	59	4332
2026-01-09 02:26:37.89	26.88	14.80	-46.9	-48.1	15.2	0.00e+00	0	24	0	764411904	59	4290
2026-01-09 02:26:39.03	26.91	14.92	-46.9	-48.1	15.3	0.00e+00	0	24	0	771751936	59	4249
2026-01-09 02:26:39.89	26.93	15.01	-46.9	-48.1	15.3	0.00e+00	0	24	0	775946240	59	4255
2026-01-09 02:26:41.03	26.97	15.13	-46.8	-48.0	15.3	0.00e+00	0	24	0	782237696	59	4225
2026-01-09 02:26:41.89	26.99	15.22	-46.9	-48.1	15.3	0.00e+00	0	24	0	787480576	59	4251
2026-01-09 02:26:43.03	27.02	15.34	-46.6	-47.8	15.4	0.00e+00	0	24	0	793772032	59	4125
2026-01-09 02:26:43.88	27.04	15.43	-46.5	-47.7	15.4	0.00e+00	0	24	0	799014912	59	4086
2026-01-09 02:26:45.02	27.08	15.55	-46.5	-47.7	15.4	0.00e+00	0	24	0	805306368	59	4061
2026-01-09 02:26:45.88	27.10	15.65	-46.5	-47.6	15.5	0.00e+00	0	24	0	809500672	59	4034
2026-01-09 02:26:47.01	27.13	15.77	-46.5	-47.7	15.4	0.00e+00	0	24	0	815792128	59	4069
2026-01-09 02:26:47.86	27.16	15.86	-46.6	-47.7	15.4	0.00e+00	0	24	0	821035008	59	4086
2026-01-09 02:26:48.99	27.19	15.99	-46.5	-47.6	15.4	0.00e+00	0	24	0	827326464	59	4028
2026-01-09 02:26:49.84	27.22	16.08	-46.5	-47.6	15.5	0.00e+00	0	24	0	831520768	59	4035
2026-01-09 02:26:50.98	27.25	16.21	-46.3	-47.4	15.5	0.00e+00	0	24	0	838860800	59	3931
2026-01-09 02:26:51.83	27.27	16.30	-46.3	-47.4	15.5	0.00e+00	0	24	0	843055104	59	3950
2026-01-09 02:26:52.98	27.31	16.43	-46.3	-47.4	15.5	0.00e+00	0	24	0	849346560	59	3937
2026-01-09 02:26:53.83	27.33	16.52	-46.2	-47.4	15.6	0.00e+00	0	24	0	854589440	59	3929
2026-01-09 02:26:54.97	27.37	16.65	-46.3	-47.5	15.5	0.00e+00	0	24	0	860880896	59	3963
2026-01-09 02:26:55.83	27.39	16.75	-46.3	-47.4	15.5	0.00e+00	0	24	0	866123776	59	3942
2026-01-09 02:26:56.97	27.43	16.88	-46.1	-47.2	15.5	0.00e+00	0	24	0	872415232	58	4076
2026-01-09 02:26:57.83	27.45	16.98	-46.2	-47.3	15.4	0.00e+00	0	24	0	876609536	58	4120
2026-01-09 02:26:58.98	27.49	17.11	-46.1	-47.3	15.4	0.00e+00	0	24	0	883949568	58	4104
2026-01-09 02:26:59.83	27.52	17.21	-46.1	-47.3	15.4	0.00e+00	0	24	0	888143872	58	4100
2026-01-09 02:27:00.97	27.55	17.34	-46.1	-47.3	15.4	0.00e+00	0	24	0	894435328	58	4112
2026-01-09 02:27:01.82	27.58	17.44	-46.1	-47.2	15.4	0.00e+00	0	24	0	899678208	58	4085
2026-01-09 02:27:02.96	27.61	17.57	-46.1	-47.2	15.5	0.00e+00	0	24	0	905969664	58	4079
2026-01-09 02:27:03.82	27.64	17.67	-46.1	-47.2	15.4	0.00e+00	0	24	0	911212544	58	4096
2026-01-09 02:27:04.97	27.68	17.81	-46.1	-47.2	15.5	0.00e+00	0	24	0	917504000	58	4075
2026-01-09 02:27:05.82	27.70	17.91	-46.0	-47.2	15.5	0.00e+00	0	24	0	921698304	58	4062
2026-01-09 02:27:06.96	27.74	18.04	-46.1	-47.3	15.4	0.00e+00	0	24	0	927989760	58	4100
2026-01-09 02:27:07.81	27.77	18.14	-46.0	-47.1	15.5	0.00e+00	0	24	0	933232640	58	4049
2026-01-09 02:27:08.95	27.81	18.28	-45.9	-47.0	15.5	0.00e+00	0	24	0	939524096	58	4003
2026-01-09 02:27:09.80	27.84	18.38	-45.9	-47.0	15.5	0.00e+00	0	24	0	944766976	58	3983
2026-01-09 02:27:10.94	27.87	18.52	-45.9	-47.0	15.6	0.00e+00	0	24	0	951058432	58	3981
2026-01-09 02:27:11.79	27.90	18.62	-45.9	-47.0	15.5	0.00e+00	0	24	0	955252736	58	3967
2026-01-09 02:27:12.93	27.94	18.76	-46.0	-47.1	15.5	0.00e+00	0	24	0	961544192	58	4024
2026-01-09 02:27:13.78	27.97	18.87	-45.8	-46.9	15.6	0.00e+00	0	24	0	966787072	58	3936
2026-01-09 02:27:14.93	28.01	19.01	-45.8	-46.9	15.6	0.00e+00	0	24	0	973078528	58	3946
2026-01-09 02:27:15.78	28.04	19.12	-45.8	-46.9	15.6	0.00e+00	0	24	0	978321408	58	3934
2026-01-09 02:27:16.92	28.08	19.26	-45.8	-46.9	15.6	0.00e+00	0	24	0	984612864	58	3941
2026-01-09 02:27:17.78	28.11	19.37	-45.8	-46.9	15.6	0.00e+00	0	24	0	988807168	58	3932
2026-01-09 02:27:18.92	28.15	19.51	-45.8	-46.9	15.6	0.00e+00	0	24	0	996147200	58	3943
2026-01-09 02:27:19.78	28.18	19.62	-45.7	-46.8	15.6	0.00e+00	0	24	0	1000341504	58	3909
2026-01-09 02:27:20.94	28.22	19.77	-45.8	-46.9	15.6	0.00e+00	0	24	0	1006632960	58	3915
2026-01-09 02:27:21.79	28.25	19.88	-45.7	-46.8	15.6	0.00e+00	0	24	0	1011875840	58	3873
2026-01-09 02:27:22.93	28.29	20.02	-45.6	-46.7	15.5	0.00e+00	0	24	0	1018167296	57	4076
2026-01-09 02:27:23.80	28.32	20.14	-45.6	-46.6	15.5	0.00e+00	0	24	0	1023410176	57	4050
2026-01-09 02:27:24.94	28.37	20.28	-45.4	-46.5	15.6	0.00e+00	0	24	0	1029701632	57	3966
2026-01-09 02:27:25.80	28.40	20.40	-45.3	-46.4	15.6	0.00e+00	0	24	0	1034944512	57	3938
2026-01-09 02:27:26.93	28.44	20.54	-45.2	-46.3	15.7	0.00e+00	0	24	0	1040187392	57	3880
2026-01-09 02:27:27.79	28.47	20.66	-45.1	-46.2	15.5	0.00e+00	0	24	0	1045430272	56	4060
2026-01-09 02:27:28.93	28.52	20.81	-45.2	-46.3	15.5	0.00e+00	0	24	0	1051721728	56	4113
2026-01-09 02:27:29.79	28.55	20.92	-45.0	-46.1	15.6	0.00e+00	0	24	0	1056964608	56	4011
2026-01-09 02:27:30.93	28.59	21.08	-45.0	-46.0	15.6	0.00e+00	0	24	0	1063256064	56	3996
2026-01-09 02:27:31.79	28.63	21.19	-44.9	-46.0	15.6	0.00e+00	0	24	0	1068498944	56	3984
2026-01-09 02:27:32.93	28.67	21.35	-45.0	-46.0	15.6	0.00e+00	0	24	0	1074790400	56	3999
2026-01-09 02:27:33.78	28.70	21.46	-45.0	-46.0	15.6	0.00e+00	0	24	0	1078984704	56	3998
2026-01-09 02:27:34.92	28.75	21.62	-44.9	-46.0	15.6	0.00e+00	0	24	0	1085276160	56	3976
2026-01-09 02:27:35.78	28.78	21.74	-44.9	-46.0	15.6	0.00e+00	0	24	0	1090519040	56	3975
2026-01-09 02:27:36.91	28.83	21.90	-45.1	-46.1	15.5	0.00e+00	0	24	0	1096810496	56	4031
2026-01-09 02:27:37.77	28.86	22.02	-45.1	-46.2	15.5	0.00e+00	0	24	0	1102053376	56	4061
2026-01-09 02:27:38.91	28.91	22.17	-45.1	-46.1	15.5	0.00e+00	0	24	0	1108344832	56	4048
2026-01-09 02:27:39.76	28.95	22.29	-45.2	-46.3	15.5	0.00e+00	0	24	0	1112539136	56	4103
2026-01-09 02:27:40.91	28.99	22.46	-45.2	-46.3	15.5	0.00e+00	0	24	0	1119879168	56	4129
2026-01-09 02:27:41.76	29.03	22.58	-45.3	-46.3	15.5	0.00e+00	0	24	0	1124073472	56	4140
2026-01-09 02:27:42.91	29.08	22.74	-45.2	-46.3	15.5	0.00e+00	0	24	0	1130364928	56	4100
2026-01-09 02:27:43.76	29.11	22.87	-45.2	-46.3	15.5	0.00e+00	0	24	0	1135607808	56	4135
2026-01-09 02:27:44.90	29.16	23.03	-45.2	-46.3	15.5	0.00e+00	0	24	0	1141899264	56	4121
2026-01-09 02:27:45.76	29.20	23.16	-45.2	-46.3	15.5	0.00e+00	0	24	0	1147142144	56	4110
2026-01-09 02:27:46.90	29.25	23.32	-45.3	-46.4	15.5	0.00e+00	0	24	0	1153433600	56	4152
2026-01-09 02:27:47.76	29.29	23.45	-45.0	-46.1	15.6	0.00e+00	0	24	0	1157627904	56	4033
2026-01-09 02:27:48.90	29.34	23.62	-45.1	-46.2	15.6	0.00e+00	0	24	0	1164967936	56	4052
2026-01-09 02:27:49.76	29.38	23.75	-44.9	-46.0	15.6	0.00e+00	0	24	0	1169162240	56	3960
2026-01-09 02:27:50.91	29.43	23.92	-44.8	-45.9	15.6	0.00e+00	0	24	0	1175453696	56	3937
2026-01-09 02:27:51.76	29.47	24.05	-44.8	-45.9	15.7	0.00e+00	0	24	0	1180696576	56	3931
2026-01-09 02:27:52.89	29.52	24.22	-44.8	-45.9	15.7	0.00e+00	0	24	0	1186988032	56	3917
2026-01-09 02:27:53.74	29.56	24.35	-44.7	-45.7	15.7	0.00e+00	0	24	0	1191182336	56	3864
2026-01-09 02:27:54.89	29.62	24.52	-44.5	-45.6	15.6	0.00e+00	0	24	0	1197473792	55	4010
2026-01-09 02:27:55.74	29.66	24.65	-44.5	-45.5	15.6	0.00e+00	0	24	0	1202716672	55	3997
2026-01-09 02:27:56.89	29.71	24.83	-44.4	-45.4	15.6	0.00e+00	0	24	0	1209008128	55	3953
2026-01-09 02:27:57.74	29.75	24.96	-44.4	-45.4	15.7	0.00e+00	0	24	0	1214251008	55	3939
2026-01-09 02:27:58.89	29.81	25.14	-44.4	-45.5	15.7	0.00e+00	0	24	0	1220542464	55	3961
2026-01-09 02:27:59.75	29.85	25.28	-44.4	-45.5	15.6	0.00e+00	0	24	0	1225785344	55	3961
2026-01-09 02:28:00.89	29.91	25.46	-44.3	-45.3	15.7	0.00e+00	0	24	0	1232076800	55	3906
2026-01-09 02:28:01.75	29.95	25.60	-44.3	-45.4	15.7	0.00e+00	0	24	0	1236271104	55	3914
2026-01-09 02:28:02.89	30.01	25.78	-44.3	-45.3	15.7	0.00e+00	0	24	0	1242562560	55	3912
2026-01-09 02:28:03.75	30.05	25.92	-44.3	-45.3	15.7	0.00e+00	0	24	0	1247805440	55	3893
2026-01-09 02:28:04.89	30.11	26.10	-44.4	-45.5	15.6	0.00e+00	0	24	0	1254096896	55	3970
2026-01-09 02:28:05.75	30.15	26.24	-44.4	-45.5	15.6	0.00e+00	0	24	0	1259339776	55	3976
2026-01-09 02:28:06.89	30.21	26.43	-44.4	-45.5	15.7	0.00e+00	0	24	0	1265631232	55	3964
2026-01-09 02:28:07.75	30.26	26.57	-44.4	-45.4	15.7	0.00e+00	0	24	0	1270874112	55	3951
2026-01-09 02:28:08.89	30.32	26.76	-44.4	-45.5	15.7	0.00e+00	0	24	0	1277165568	55	3976
2026-01-09 02:28:09.74	30.37	26.91	-44.5	-45.5	15.6	0.00e+00	0	24	0	1281359872	55	3988
2026-01-09 02:28:10.88	30.43	27.10	-44.5	-45.6	15.6	0.00e+00	0	24	0	1287651328	55	4008
2026-01-09 02:28:11.73	30.48	27.24	-44.4	-45.4	15.7	0.00e+00	0	24	0	1292894208	55	3945
2026-01-09 02:28:12.87	30.54	27.44	-44.5	-45.5	15.6	0.00e+00	0	24	0	1299185664	55	3996
2026-01-09 02:28:13.73	30.59	27.58	-44.6	-45.6	15.6	0.00e+00	0	24	0	1304428544	55	4043
2026-01-09 02:28:14.87	30.65	27.78	-44.6	-45.7	15.6	0.00e+00	0	24	0	1310720000	55	4058
2026-01-09 02:28:15.73	30.70	27.93	-44.6	-45.7	15.6	0.00e+00	0	24	0	1314914304	55	4067
2026-01-09 02:28:16.88	30.77	28.13	-44.7	-45.7	15.6	0.00e+00	0	24	0	1321205760	55	4093
2026-01-09 02:28:17.73	30.82	28.28	-44.6	-45.6	15.6	0.00e+00	0	24	0	1326448640	55	4040
2026-01-09 02:28:18.87	30.88	28.48	-44.6	-45.6	15.6	0.00e+00	0	24	0	1332740096	55	4040
2026-01-09 02:28:19.72	30.94	28.63	-44.5	-45.6	15.6	0.00e+00	0	24	0	1337982976	55	4005
2026-01-09 02:28:20.86	31.00	28.84	-44.4	-45.5	15.6	0.00e+00	0	24	0	1344274432	55	3976
2026-01-09 02:28:21.71	31.06	28.99	-44.3	-45.4	15.7	0.00e+00	0	24	0	1348468736	55	3927
2026-01-09 02:28:22.85	31.13	29.20	-44.4	-45.4	15.7	0.00e+00	0	24	0	1355808768	55	3948
2026-01-09 02:28:23.71	31.18	29.35	-44.4	-45.5	15.6	0.00e+00	0	24	0	1360003072	55	3966
2026-01-09 02:28:24.85	31.25	29.56	-44.5	-45.5	15.6	0.00e+00	0	24	0	1366294528	55	4004
2026-01-09 02:28:25.70	31.30	29.72	-44.6	-45.7	15.6	0.00e+00	0	24	0	1371537408	55	4056
2026-01-09 02:28:26.84	31.38	29.93	-44.7	-45.8	15.5	0.00e+00	0	24	0	1377828864	55	4127
2026-01-09 02:28:27.69	31.43	30.09	-44.7	-45.8	15.6	0.00e+00	0	24	0	1383071744	55	4128
2026-01-09 02:28:28.84	31.51	30.31	-44.7	-45.8	15.6	0.00e+00	0	24	0	1389363200	55	4123
2026-01-09 02:28:29.69	31.56	30.47	-44.7	-45.8	15.6	0.00e+00	0	24	0	1393557504	55	4115
2026-01-09 02:28:30.83	31.64	30.69	-44.5	-45.6	15.6	0.00e+00	0	24	0	1399848960	55	4032
2026-01-09 02:28:31.68	31.70	30.85	-44.4	-45.5	15.7	0.00e+00	0	24	0	1405091840	55	3972
2026-01-09 02:28:32.83	31.78	31.07	-44.2	-45.3	15.7	0.00e+00	0	24	0	1411383296	55	3884
2026-01-09 02:28:33.67	31.84	31.23	-44.3	-45.4	15.7	0.00e+00	0	24	0	1416626176	55	3923
2026-01-09 02:28:34.81	31.92	31.46	-44.0	-45.0	15.7	0.00e+00	0	24	0	1422917632	54	3991
2026-01-09 02:28:35.67	31.98	31.63	-43.8	-44.9	15.7	0.00e+00	0	24	0	1427111936	54	3916
2026-01-09 02:28:36.82	32.06	31.85	-43.9	-45.0	15.7	0.00e+00	0	24	0	1433403392	54	3967
2026-01-09 02:28:37.67	32.12	32.02	-44.0	-45.0	15.7	0.00e+00	0	24	0	1438646272	54	3990
2026-01-09 02:28:38.81	32.20	32.25	-44.1	-45.2	15.6	0.00e+00	0	24	0	1444937728	54	4067
2026-01-09 02:28:39.66	32.27	32.42	-44.3	-45.4	15.6	0.00e+00	0	24	0	1450180608	54	4164
2026-01-09 02:28:40.79	32.35	32.65	-44.5	-45.5	15.5	0.00e+00	0	24	0	1456472064	54	4242
2026-01-09 02:28:41.65	32.42	32.83	-44.5	-45.6	15.5	0.00e+00	0	24	0	1460666368	54	4253
2026-01-09 02:28:42.79	32.50	33.07	-44.5	-45.6	15.5	0.00e+00	0	24	0	1466957824	54	4259
2026-01-09 02:28:43.64	32.57	33.24	-44.5	-45.5	15.5	0.00e+00	0	24	0	1472200704	54	4238
2026-01-09 02:28:44.78	32.66	33.48	-44.4	-45.4	15.6	0.00e+00	0	24	0	1478492160	54	4189
2026-01-09 02:28:45.63	32.73	33.66	-44.2	-45.3	15.6	0.00e+00	0	24	0	1483735040	54	4106
2026-01-09 02:28:46.76	32.82	33.90	-44.4	-45.4	15.6	0.00e+00	0	24	0	1490026496	54	4180
2026-01-09 02:28:47.61	32.89	34.08	-44.3	-45.4	15.6	0.00e+00	0	24	0	1494220800	54	4167
2026-01-09 02:28:48.75	32.98	34.32	-44.5	-45.5	15.6	0.00e+00	0	24	0	1501560832	54	4239
2026-01-09 02:28:49.61	33.05	34.51	-44.5	-45.5	15.5	0.00e+00	0	24	0	1505755136	54	4232
2026-01-09 02:28:50.75	33.15	34.76	-44.4	-45.4	15.6	0.00e+00	0	24	0	1512046592	54	4193
2026-01-09 02:28:51.60	33.22	34.94	-44.3	-45.4	15.6	0.00e+00	0	24	0	1517289472	54	4164
2026-01-09 02:28:52.75	33.32	35.20	-44.3	-45.4	15.6	0.00e+00	0	24	0	1523580928	54	4165
2026-01-09 02:28:53.61	33.40	35.39	-44.3	-45.4	15.6	0.00e+00	0	24	0	1528823808	54	4148
2026-01-09 02:28:54.75	33.50	35.64	-44.1	-45.2	15.6	0.00e+00	0	24	0	1535115264	54	4069
2026-01-09 02:28:55.60	33.58	35.83	-44.1	-45.1	15.6	0.00e+00	0	24	0	1539309568	54	4022
2026-01-09 02:28:56.74	33.68	36.09	-44.1	-45.1	15.6	0.00e+00	0	24	0	1545601024	54	4032
2026-01-09 02:28:57.60	33.76	36.29	-44.1	-45.1	15.6	0.00e+00	0	24	0	1550843904	54	4046
2026-01-09 02:28:58.74	33.87	36.55	-44.0	-45.0	15.7	0.00e+00	0	24	0	1557135360	54	4001
2026-01-09 02:28:59.59	33.95	36.74	-43.9	-45.0	15.7	0.00e+00	0	24	0	1562378240	54	3968
2026-01-09 02:29:00.73	34.06	37.01	-43.9	-45.0	15.7	0.00e+00	0	24	0	1568669696	54	3963
2026-01-09 02:29:01.58	34.14	37.21	-43.7	-44.7	15.8	0.00e+00	0	24	0	1572864000	54	3845
2026-01-09 02:29:02.72	34.26	37.48	-43.4	-44.4	15.7	0.00e+00	0	24	0	1579155456	53	3944
2026-01-09 02:29:03.58	34.34	37.68	-43.5	-44.5	15.7	0.00e+00	0	24	0	1584398336	53	4004
2026-01-09 02:29:04.73	34.46	37.95	-43.6	-44.6	15.7	0.00e+00	0	24	0	1590689792	53	4050
2026-01-09 02:29:05.58	34.55	38.16	-43.7	-44.7	15.6	0.00e+00	0	24	0	1595932672	53	4095
2026-01-09 02:29:06.72	34.67	38.43	-43.6	-44.6	15.7	0.00e+00	0	24	0	1602224128	53	4035
2026-01-09 02:29:07.58	34.76	38.64	-43.7	-44.7	15.6	0.00e+00	0	24	0	1606418432	53	4064
2026-01-09 02:29:08.72	34.88	38.92	-43.7	-44.8	15.6	0.00e+00	0	24	0	1613758464	53	4099
2026-01-09 02:29:09.57	34.98	39.13	-43.9	-44.9	15.6	0.00e+00	0	24	0	1617952768	53	4174
2026-01-09 02:29:10.71	35.10	39.42	-44.0	-45.0	15.6	0.00e+00	0	24	0	1624244224	53	4224
2026-01-09 02:29:11.57	35.20	39.63	-44.1	-45.1	15.6	0.00e+00	0	24	0	1629487104	53	4284
2026-01-09 02:29:12.72	35.33	39.92	-44.2	-45.3	15.5	0.00e+00	0	24	0	1635778560	53	4342
2026-01-09 02:29:13.58	35.43	40.14	-44.2	-45.2	15.6	0.00e+00	0	24	0	1641021440	53	4321
2026-01-09 02:29:14.71	35.57	40.43	-44.2	-45.2	15.5	0.00e+00	0	24	0	1647312896	53	4322
2026-01-09 02:29:15.57	35.67	40.65	-44.1	-45.1	15.6	0.00e+00	0	24	0	1651507200	53	4274
2026-01-09 02:29:16.71	35.81	40.95	-44.1	-45.1	15.6	0.00e+00	0	24	0	1658847232	53	4287
2026-01-09 02:29:17.56	35.91	41.17	-44.2	-45.2	15.6	0.00e+00	0	24	0	1663041536	53	4316
2026-01-09 02:29:18.70	36.06	41.47	-43.9	-44.9	15.6	0.00e+00	0	24	0	1669332992	53	4189
2026-01-09 02:29:19.55	36.17	41.69	-44.0	-45.0	15.6	0.00e+00	0	24	0	1674575872	53	4228
2026-01-09 02:29:20.68	36.31	41.99	-44.2	-45.2	15.6	0.00e+00	0	24	0	1680867328	53	4337
2026-01-09 02:29:21.54	36.43	42.22	-44.3	-45.4	15.5	0.00e+00	0	24	0	1685061632	53	4424
2026-01-09 02:29:22.68	36.58	42.53	-44.4	-45.5	15.6	0.00e+00	0	24	0	1691353088	54	4204
2026-01-09 02:29:23.54	36.70	42.76	-44.4	-45.5	15.6	0.00e+00	0	24	0	1696595968	54	4200
2026-01-09 02:29:24.69	36.85	43.08	-44.4	-45.5	15.6	0.00e+00	0	24	0	1702887424	54	4214
2026-01-09 02:29:25.54	36.97	43.31	-44.4	-45.4	15.6	0.00e+00	0	24	0	1708130304	54	4179
2026-01-09 02:29:26.68	37.14	43.63	-44.5	-45.6	15.5	0.00e+00	0	24	0	1714421760	54	4269
2026-01-09 02:29:27.54	37.26	43.86	-44.5	-45.6	15.5	0.00e+00	0	24	0	1718616064	54	4248
2026-01-09 02:29:28.68	37.43	44.18	-44.4	-45.5	15.6	0.00e+00	0	24	0	1725956096	54	4199
2026-01-09 02:29:29.54	37.56	44.43	-44.4	-45.5	15.6	0.00e+00	0	24	0	1730150400	54	4197
2026-01-09 02:29:30.68	37.73	44.75	-44.5	-45.6	15.5	0.00e+00	0	24	0	1736441856	54	4245
2026-01-09 02:29:31.54	37.87	45.00	-44.7	-45.8	15.5	0.00e+00	0	24	0	1741684736	54	4351
2026-01-09 02:29:32.69	38.05	45.33	-44.8	-45.9	15.5	0.00e+00	0	24	0	1747976192	54	4434
2026-01-09 02:29:33.54	38.19	45.57	-44.8	-45.9	15.5	0.00e+00	0	24	0	1753219072	54	4422
2026-01-09 02:29:34.68	38.38	45.91	-44.5	-45.6	15.5	0.00e+00	0	24	0	1759510528	54	4258
2026-01-09 02:29:35.53	38.52	46.16	-44.5	-45.6	15.5	0.00e+00	0	24	0	1763704832	54	4243
2026-01-09 02:29:36.67	38.71	46.49	-44.4	-45.4	15.6	0.00e+00	0	24	0	1771044864	54	4192
2026-01-09 02:29:37.53	38.86	46.75	-44.4	-45.4	15.6	0.00e+00	0	24	0	1775239168	54	4189
2026-01-09 02:29:38.67	39.06	47.09	-44.4	-45.5	15.6	0.00e+00	0	24	0	1781530624	54	4206
2026-01-09 02:29:39.53	39.22	47.35	-44.5	-45.5	15.6	0.00e+00	0	24	0	1786773504	54	4232
2026-01-09 02:29:40.66	39.42	47.69	-44.5	-45.5	15.6	0.00e+00	0	24	0	1793064960	54	4235
2026-01-09 02:29:41.52	39.59	47.95	-44.6	-45.7	15.5	0.00e+00	0	24	0	1798307840	54	4292
2026-01-09 02:29:42.66	39.80	48.30	-44.8	-45.8	15.5	0.00e+00	0	24	0	1804599296	54	4373
2026-01-09 02:29:43.52	39.97	48.56	-44.8	-45.9	15.5	0.00e+00	0	24	0	1808793600	54	4417
2026-01-09 02:29:44.66	40.20	48.92	-44.9	-46.0	15.5	0.00e+00	0	24	0	1815085056	54	4461
2026-01-09 02:29:45.52	40.37	49.19	-45.1	-46.1	15.5	0.00e+00	0	24	0	1820327936	55	4285
2026-01-09 02:29:46.66	40.61	49.54	-45.0	-46.1	15.5	0.00e+00	0	24	0	1826619392	55	4277
2026-01-09 02:29:47.52	40.79	49.81	-45.0	-46.1	15.5	0.00e+00	0	24	0	1831862272	55	4274
2026-01-09 02:29:48.65	41.03	50.17	-45.1	-46.2	15.5	0.00e+00	0	24	0	1838153728	55	4296
2026-01-09 02:29:49.51	41.22	50.45	-44.9	-46.0	15.5	0.00e+00	0	24	0	1842348032	55	4206
2026-01-09 02:29:50.64	41.47	50.81	-44.9	-45.9	15.5	0.00e+00	0	24	0	1848639488	55	4193
2026-01-09 02:29:51.49	41.67	51.08	-45.0	-46.1	15.5	0.00e+00	0	24	0	1853882368	55	4274
2026-01-09 02:29:52.63	41.93	51.45	-45.1	-46.2	15.5	0.00e+00	0	24	0	1860173824	55	4304
2026-01-09 02:29:53.48	42.13	51.73	-45.1	-46.2	15.5	0.00e+00	0	24	0	1865416704	55	4314
2026-01-09 02:29:54.61	42.41	52.10	-45.2	-46.3	15.5	0.00e+00	0	24	0	1871708160	55	4357
2026-01-09 02:29:55.47	42.62	52.39	-45.4	-46.5	15.4	0.00e+00	0	24	0	1875902464	55	4443
2026-01-09 02:29:56.61	42.91	52.76	-45.4	-46.5	15.4	0.00e+00	0	24	0	1883242496	55	4448
2026-01-09 02:29:57.47	43.14	53.05	-45.7	-46.8	15.4	0.00e+00	0	24	0	1887436800	56	4364
2026-01-09 02:29:58.61	43.44	53.43	-45.8	-46.9	15.4	0.00e+00	0	24	0	1893728256	56	4408
2026-01-09 02:29:59.46	43.67	53.72	-45.7	-46.8	15.4	0.00e+00	0	24	0	1898971136	56	4381
2026-01-09 02:30:00.60	43.99	54.10	-45.4	-46.5	15.5	0.00e+00	0	24	0	1905262592	56	4223
2026-01-09 02:30:01.46	44.23	54.39	-45.3	-46.4	15.5	0.00e+00	0	24	0	1910505472	56	4147
2026-01-09 02:30:02.60	44.57	54.78	-45.3	-46.4	15.5	0.00e+00	0	24	0	1916796928	56	4153
2026-01-09 02:30:03.46	44.82	55.08	-45.5	-46.5	15.5	0.00e+00	0	24	0	1920991232	56	4242
2026-01-09 02:30:04.61	45.18	55.47	-45.9	-47.0	15.4	0.00e+00	0	24	0	1927282688	56	4470
2026-01-09 02:30:05.46	45.44	55.77	-46.2	-47.3	15.4	0.00e+00	0	24	0	1932525568	57	4363
2026-01-09 02:30:06.60	45.81	56.16	-46.1	-47.2	15.4	0.00e+00	0	24	0	1938817024	57	4340
2026-01-09 02:30:07.46	46.09	56.46	-45.9	-47.0	15.5	0.00e+00	0	24	0	1944059904	57	4203
2026-01-09 02:30:08.60	46.48	56.86	-45.9	-47.0	15.4	0.00e+00	0	24	0	1950351360	57	4242
2026-01-09 02:30:09.45	46.77	57.16	-45.8	-46.9	15.5	0.00e+00	0	24	0	1954545664	57	4168
2026-01-09 02:30:10.59	47.18	57.56	-45.5	-46.6	15.6	0.00e+00	0	24	0	1961885696	57	4041
2026-01-09 02:30:11.45	47.49	57.86	-45.4	-46.5	15.6	0.00e+00	0	24	0	1966080000	57	3965
2026-01-09 02:30:12.60	47.92	58.27	-45.5	-46.5	15.6	0.00e+00	0	24	0	1972371456	57	4000
2026-01-09 02:30:13.45	48.24	58.57	-45.3	-46.4	15.6	0.00e+00	0	24	0	1977614336	57	3935
2026-01-09 02:30:14.59	48.69	58.97	-45.3	-46.4	15.7	0.00e+00	0	24	0	1983905792	57	3924
2026-01-09 02:30:15.45	49.04	59.28	-45.2	-46.2	15.7	0.00e+00	0	24	0	1989148672	57	3860
2026-01-09 02:30:16.59	49.52	59.69	-44.5	-45.5	15.7	0.00e+00	0	24	0	1995440128	55	3999
2026-01-09 02:30:17.45	49.88	60.00	-44.2	-45.2	15.8	0.00e+00	0	24	0	1999634432	55	3841
2026-01-09 02:30:18.60	50.39	60.41	-44.4	-45.5	15.6	0.00e+00	0	24	0	2006974464	54	4200
2026-01-09 02:30:19.46	50.78	60.72	-44.7	-45.7	15.5	0.00e+00	0	24	0	2011168768	54	4324
2026-01-09 02:30:20.61	51.31	61.13	-44.7	-45.7	15.5	0.00e+00	0	24	0	2017460224	54	4333
2026-01-09 02:30:21.46	51.72	61.44	-44.4	-45.4	15.6	0.00e+00	0	24	0	2022703104	54	4193
2026-01-09 02:30:22.60	52.28	61.85	-44.3	-45.3	15.6	0.00e+00	0	24	0	2028994560	54	4131
2026-01-09 02:30:23.46	52.71	62.16	-44.3	-45.3	15.6	0.00e+00	0	24	0	2034237440	54	4123
2026-01-09 02:30:24.59	53.30	62.56	-44.1	-45.2	15.6	0.00e+00	0	24	0	2040528896	54	4054
2026-01-09 02:30:25.45	53.77	62.87	-43.9	-44.9	15.7	0.00e+00	0	24	0	2044723200	54	3931
2026-01-09 02:30:26.59	54.40	63.28	-44.1	-45.2	15.6	0.00e+00	0	24	0	2051014656	54	4071
2026-01-09 02:30:27.45	54.89	63.59	-44.2	-45.3	15.6	0.00e+00	0	24	0	2056257536	54	4105
2026-01-09 02:30:28.60	55.56	64.01	-43.9	-44.9	15.7	0.00e+00	0	24	0	2062548992	54	3955
2026-01-09 02:30:29.47	56.09	64.32	-43.8	-44.8	15.7	0.00e+00	0	24	0	2067791872	54	3902
2026-01-09 02:30:30.61	56.81	64.72	-43.8	-44.8	15.7	0.00e+00	0	24	0	2074083328	54	3887
2026-01-09 02:30:31.47	57.36	65.03	-43.8	-44.8	15.7	0.00e+00	0	24	0	2079326208	54	3911
2026-01-09 02:30:32.61	58.12	65.44	-43.8	-44.9	15.7	0.00e+00	0	24	0	2085617664	54	3915
2026-01-09 02:30:33.47	58.71	65.74	-44.0	-45.0	15.7	0.00e+00	0	24	0	2089811968	54	3973
2026-01-09 02:30:34.61	59.52	66.14	-44.1	-45.2	15.6	0.00e+00	0	24	0	2096103424	54	4058
2026-01-09 02:30:35.46	60.15	66.44	-44.0	-45.1	15.7	0.00e+00	0	24	0	2101346304	54	4010
2026-01-09 02:30:36.59	61.00	66.83	-44.1	-45.1	15.7	0.00e+00	0	24	0	2107637760	54	4027
2026-01-09 02:30:37.45	61.67	67.13	-43.7	-44.7	15.8	0.00e+00	0	24	0	2112880640	54	3850
2026-01-09 02:30:38.60	62.60	67.52	-43.3	-44.3	15.7	0.00e+00	0	24	0	2119172096	53	3907
2026-01-09 02:30:39.46	63.32	67.82	-43.5	-44.5	15.7	0.00e+00	0	24	0	2123366400	53	3994
2026-01-09 02:30:40.60	64.31	68.20	-43.8	-44.9	15.6	0.00e+00	0	24	0	2130706432	53	4155
2026-01-09 02:30:41.45	65.07	68.48	-43.6	-44.6	15.7	0.00e+00	0	24	0	2134900736	53	4020
2026-01-09 02:30:42.59	66.12	68.86	-43.5	-44.5	15.7	0.00e+00	0	24	0	2141192192	53	3970
2026-01-09 02:30:43.45	66.94	69.14	-43.5	-44.5	15.7	0.00e+00	0	24	0	2146435072	53	3968
2026-01-09 02:30:44.59	68.06	69.51	-43.4	-44.4	15.7	0.00e+00	0	24	0	2152726528	53	3942
2026-01-09 02:30:45.45	68.94	69.78	-43.3	-44.3	15.7	0.00e+00	0	24	0	2157969408	53	3905
2026-01-09 02:30:46.59	70.14	70.14	-43.6	-44.6	15.7	0.00e+00	0	24	0	2164260864	53	4023
2026-01-09 02:30:47.45	71.08	70.40	-43.5	-44.5	15.7	0.00e+00	0	24	0	2168455168	53	3962
2026-01-09 02:30:48.58	72.35	70.74	-43.3	-44.3	15.8	0.00e+00	0	24	0	2174746624	53	3887
2026-01-09 02:30:49.44	73.35	70.99	-43.3	-44.3	15.7	0.00e+00	0	24	0	2179989504	53	3913
2026-01-09 02:30:50.58	74.73	71.32	-43.0	-44.0	15.7	0.00e+00	0	24	0	2186280960	52	3990
2026-01-09 02:30:51.44	75.79	71.56	-43.0	-44.0	15.7	0.00e+00	0	24	0	2191523840	52	3978
2026-01-09 02:30:52.58	77.25	71.87	-43.2	-44.2	15.7	0.00e+00	0	24	0	2197815296	52	4095
2026-01-09 02:30:53.44	78.39	72.10	-43.2	-44.3	15.6	0.00e+00	0	24	0	2202009600	52	4102
2026-01-09 02:30:54.58	79.95	72.39	-43.0	-44.0	15.7	0.00e+00	0	24	0	2208301056	52	3965
2026-01-09 02:30:55.43	81.14	72.60	-43.1	-44.1	15.7	0.00e+00	0	24	0	2213543936	52	4011
2026-01-09 02:30:56.57	82.79	72.87	-43.2	-44.2	15.7	0.00e+00	0	24	0	2219835392	52	4058
2026-01-09 02:30:57.43	84.07	73.07	-43.0	-44.0	15.7	0.00e+00	0	24	0	2225078272	52	3982
2026-01-09 02:30:58.57	85.81	73.32	-43.0	-44.0	15.7	0.00e+00	0	24	0	2231369728	52	4000
2026-01-09 02:30:59.43	87.16	73.49	-43.1	-44.1	15.7	0.00e+00	0	24	0	2235564032	52	4025
2026-01-09 02:31:00.56	88.98	73.71	-43.1	-44.1	15.7	0.00e+00	0	24	0	2242904064	52	4016
2026-01-09 02:31:01.43	90.42	73.87	-42.9	-43.9	15.7	0.00e+00	0	24	0	2247098368	52	3936
2026-01-09 02:31:02.57	92.34	74.06	-42.8	-43.7	15.8	0.00e+00	0	24	0	2253389824	52	3863
2026-01-09 02:31:03.43	93.82	74.20	-42.9	-43.9	15.8	0.00e+00	0	24	0	2258632704	52	3919
2026-01-09 02:31:04.58	95.85	74.36	-43.1	-44.1	15.7	0.00e+00	0	24	0	2264924160	52	4031
2026-01-09 02:31:05.44	97.39	74.47	-43.0	-44.1	15.7	0.00e+00	0	24	0	2270167040	52	4011
2026-01-09 02:31:06.58	99.46	74.60	-42.7	-43.7	15.8	0.00e+00	0	24	0	2276458496	52	3857
2026-01-09 02:31:07.43	101.03	74.68	-42.9	-43.9	15.7	0.00e+00	0	24	0	2280652800	52	3918
2026-01-09 02:31:08.58	103.18	74.78	-43.1	-44.2	15.7	0.00e+00	0	24	0	2287992832	52	4053
2026-01-09 02:31:09.43	104.78	74.83	-43.1	-44.1	15.7	0.00e+00	0	24	0	2292187136	52	4042
2026-01-09 02:31:10.58	106.97	74.89	-43.1	-44.1	15.7	0.00e+00	0	24	0	2298478592	52	4016
2026-01-09 02:31:11.44	108.61	74.92	-42.8	-43.8	15.8	0.00e+00	0	24	0	2303721472	52	3902
2026-01-09 02:31:12.57	110.78	74.94	-42.9	-43.9	15.7	0.00e+00	0	24	0	2310012928	52	3945
2026-01-09 02:31:13.43	112.44	74.95	-43.0	-44.1	15.7	0.00e+00	0	24	0	2315255808	52	4009
2026-01-09 02:31:14.57	114.63	74.93	-43.1	-44.1	15.7	0.00e+00	0	24	0	2321547264	52	4044
2026-01-09 02:31:15.44	116.30	74.90	-42.7	-43.8	15.8	0.00e+00	0	24	0	2325741568	52	3871
2026-01-09 02:31:16.59	118.49	74.85	-42.7	-43.7	15.7	0.00e+00	0	24	0	2332033024	51	4061
2026-01-09 02:31:17.44	120.10	74.80	-42.8	-43.7	15.7	0.00e+00	0	24	0	2337275904	51	4093
2026-01-09 02:31:18.58	122.24	74.71	-42.7	-43.7	15.7	0.00e+00	0	24	0	2343567360	51	4064
2026-01-09 02:31:19.44	123.83	74.63	-42.8	-43.8	15.7	0.00e+00	0	24	0	2348810240	51	4122
2026-01-09 02:31:20.58	125.92	74.51	-43.0	-44.0	15.6	0.00e+00	0	24	0	2355101696	51	4212
2026-01-09 02:31:21.44	127.47	74.40	-43.0	-44.0	15.6	0.00e+00	0	24	0	2359296000	51	4213
2026-01-09 02:31:22.58	129.48	74.25	-43.3	-44.4	15.6	0.00e+00	0	24	0	2366636032	51	4399
2026-01-09 02:31:23.44	130.98	74.12	-43.4	-44.4	15.6	0.00e+00	0	24	0	2370830336	52	4169
2026-01-09 02:31:24.59	132.93	73.93	-42.9	-43.8	15.7	0.00e+00	0	24	0	2377121792	52	3911
2026-01-09 02:31:25.44	134.35	73.78	-42.9	-43.9	15.7	0.00e+00	0	24	0	2382364672	52	3945
2026-01-09 02:31:26.58	136.20	73.56	-43.2	-44.2	15.7	0.00e+00	0	24	0	2388656128	52	4082
2026-01-09 02:31:27.44	137.56	73.39	-43.2	-44.2	15.7	0.00e+00	0	24	0	2393899008	52	4067
2026-01-09 02:31:28.58	139.32	73.14	-43.2	-44.2	15.7	0.00e+00	0	24	0	2400190464	52	4077
2026-01-09 02:31:29.44	140.61	72.95	-43.2	-44.3	15.6	0.00e+00	0	24	0	2404384768	52	4105
2026-01-09 02:31:30.58	142.28	72.68	-43.5	-44.5	15.6	0.00e+00	0	24	0	2411724800	52	4241
2026-01-09 02:31:31.43	143.49	72.47	-43.4	-44.5	15.6	0.00e+00	0	24	0	2415919104	52	4194
2026-01-09 02:31:32.58	145.07	72.18	-43.4	-44.4	15.6	0.00e+00	0	24	0	2422210560	52	4148
2026-01-09 02:31:33.43	146.21	71.96	-43.6	-44.6	15.6	0.00e+00	0	24	0	2427453440	52	4258
2026-01-09 02:31:34.58	147.70	71.65	-43.8	-44.9	15.6	0.00e+00	0	24	0	2433744896	52	4392
2026-01-09 02:31:35.43	148.77	71.41	-43.7	-44.8	15.6	0.00e+00	0	24	0	2438987776	52	4343
2026-01-09 02:31:36.57	150.15	71.09	-43.8	-44.9	15.6	0.00e+00	0	24	0	2445279232	53	4153
2026-01-09 02:31:37.43	151.16	70.84	-44.0	-45.0	15.6	0.00e+00	0	24	0	2449473536	53	4223
2026-01-09 02:31:38.57	152.46	70.49	-43.9	-44.9	15.6	0.00e+00	0	24	0	2455764992	53	4170
2026-01-09 02:31:39.42	153.40	70.23	-43.9	-44.9	15.6	0.00e+00	0	24	0	2461007872	53	4176
2026-01-09 02:31:40.57	154.63	69.88	-43.7	-44.7	15.6	0.00e+00	0	24	0	2467299328	53	4059
2026-01-09 02:31:41.42	155.51	69.61	-43.6	-44.6	15.7	0.00e+00	0	24	0	2472542208	53	4013
2026-01-09 02:31:42.55	156.63	69.25	-43.9	-44.9	15.6	0.00e+00	0	24	0	2478833664	53	4189
2026-01-09 02:31:43.41	157.46	68.97	-43.8	-44.8	15.6	0.00e+00	0	24	0	2483027968	53	4137
2026-01-09 02:31:44.56	158.54	68.59	-43.5	-44.5	15.7	0.00e+00	0	24	0	2490368000	53	3995
2026-01-09 02:31:45.42	159.32	68.30	-43.6	-44.6	15.6	0.00e+00	0	24	0	2494562304	53	4037
2026-01-09 02:31:46.56	160.31	67.92	-44.0	-45.0	15.6	0.00e+00	0	24	0	2500853760	53	4230
2026-01-09 02:31:47.42	161.04	67.63	-44.0	-45.0	15.6	0.00e+00	0	24	0	2506096640	53	4228
2026-01-09 02:31:48.57	161.98	67.23	-43.8	-44.8	15.6	0.00e+00	0	24	0	2512388096	53	4117
2026-01-09 02:31:49.41	162.64	66.94	-43.8	-44.8	15.6	0.00e+00	0	24	0	2517630976	53	4120
2026-01-09 02:31:50.56	163.53	66.54	-43.7	-44.7	15.6	0.00e+00	0	24	0	2523922432	53	4084
2026-01-09 02:31:51.41	164.16	66.24	-43.6	-44.7	15.7	0.00e+00	0	24	0	2528116736	53	4061
2026-01-09 02:31:52.55	164.97	65.84	-43.6	-44.6	15.7	0.00e+00	0	24	0	2535456768	53	4021
2026-01-09 02:31:53.41	165.57	65.54	-43.8	-44.8	15.6	0.00e+00	0	24	0	2539651072	53	4134
2026-01-09 02:31:54.55	166.34	65.13	-44.0	-45.1	15.6	0.00e+00	0	24	0	2545942528	53	4244
2026-01-09 02:31:55.40	166.90	64.83	-43.8	-44.8	15.6	0.00e+00	0	24	0	2551185408	53	4135
2026-01-09 02:31:56.54	167.62	64.42	-43.8	-44.9	15.6	0.00e+00	0	24	0	2557476864	53	4151
2026-01-09 02:31:57.39	168.14	64.12	-44.0	-45.0	15.6	0.00e+00	0	24	0	2561671168	53	4237
2026-01-09 02:31:58.54	168.82	63.70	-43.9	-44.9	15.6	0.00e+00	0	24	0	2567962624	53	4178
2026-01-09 02:31:59.40	169.32	63.39	-44.0	-45.0	15.6	0.00e+00	0	24	0	2573205504	53	4220
2026-01-09 02:32:00.54	169.96	62.98	-44.0	-45.0	15.6	0.00e+00	0	24	0	2579496960	53	4223
2026-01-09 02:32:01.39	170.42	62.68	-44.1	-45.2	15.6	0.00e+00	0	24	0	2584739840	53	4328
2026-01-09 02:32:02.53	171.02	62.26	-44.3	-45.4	15.5	0.00e+00	0	24	0	2591031296	53	4398
2026-01-09 02:32:03.39	171.46	61.95	-44.1	-45.1	15.5	0.00e+00	0	24	0	2595225600	53	4275
2026-01-09 02:32:04.53	172.03	61.54	-44.1	-45.1	15.6	0.00e+00	0	24	0	2602565632	53	4259
2026-01-09 02:32:05.38	172.44	61.24	-44.3	-45.3	15.5	0.00e+00	0	24	0	2606759936	53	4361
2026-01-09 02:32:06.52	172.97	60.82	-44.8	-45.9	15.5	0.00e+00	0	24	0	2613051392	54	4401
2026-01-09 02:32:07.38	173.37	60.51	-44.9	-46.0	15.5	0.00e+00	0	24	0	2618294272	55	4228
2026-01-09 02:32:08.52	173.87	60.10	-44.9	-45.9	15.5	0.00e+00	0	24	0	2624585728	55	4188
2026-01-09 02:32:09.38	174.24	59.80	-44.7	-45.8	15.5	0.00e+00	0	24	0	2629828608	55	4101
2026-01-09 02:32:10.52	174.72	59.39	-44.9	-46.0	15.5	0.00e+00	0	24	0	2636120064	55	4219
2026-01-09 02:32:11.37	175.07	59.08	-45.0	-46.0	15.5	0.00e+00	0	24	0	2640314368	55	4241
2026-01-09 02:32:12.51	175.53	58.68	-44.8	-45.8	15.5	0.00e+00	0	24	0	2647654400	55	4133
2026-01-09 02:32:13.37	175.86	58.37	-44.9	-45.9	15.5	0.00e+00	0	24	0	2651848704	55	4170
2026-01-09 02:32:14.51	176.29	57.97	-45.2	-46.3	15.4	0.00e+00	0	24	0	2658140160	55	4348
2026-01-09 02:32:15.37	176.61	57.66	-45.2	-46.3	15.4	0.00e+00	0	24	0	2663383040	55	4383
2026-01-09 02:32:16.51	177.01	57.26	-45.2	-46.2	15.4	0.00e+00	0	24	0	2669674496	55	4334
2026-01-09 02:32:17.36	177.31	56.96	-45.4	-46.5	15.4	0.00e+00	0	24	0	2674917376	55	4474
2026-01-09 02:32:18.51	177.70	56.56	-45.9	-47.0	15.4	0.00e+00	0	24	0	2681208832	56	4472
2026-01-09 02:32:19.37	177.99	56.26	-45.8	-46.9	15.4	0.00e+00	0	24	0	2685403136	56	4401
2026-01-09 02:32:20.51	178.36	55.86	-45.5	-46.6	15.5	0.00e+00	0	24	0	2691694592	56	4275
2026-01-09 02:32:21.37	178.63	55.56	-45.4	-46.4	15.5	0.00e+00	0	24	0	2696937472	56	4193
2026-01-09 02:32:22.51	178.98	55.17	-45.4	-46.5	15.5	0.00e+00	0	24	0	2703228928	56	4221
2026-01-09 02:32:23.36	179.24	54.88	-45.3	-46.4	15.5	0.00e+00	0	24	0	2708471808	56	4169
2026-01-09 02:32:24.51	179.58	54.48	-45.2	-46.3	15.5	0.00e+00	0	24	0	2714763264	56	4100
2026-01-09 02:32:25.36	179.82	54.19	-45.2	-46.2	15.5	0.00e+00	0	24	0	2720006144	56	4084
2026-01-09 02:32:26.50	180.14	53.80	-45.3	-46.3	15.5	0.00e+00	0	24	0	2726297600	56	4136
2026-01-09 02:32:27.36	180.38	53.51	-45.4	-46.5	15.5	0.00e+00	0	24	0	2730491904	56	4221
2026-01-09 02:32:28.50	180.68	53.13	-45.5	-46.6	15.5	0.00e+00	0	24	0	2736783360	56	4269
2026-01-09 02:32:29.36	180.91	52.84	-45.4	-46.5	15.5	0.00e+00	0	24	0	2742026240	56	4227
2026-01-09 02:32:30.51	181.21	52.46	-45.5	-46.6	15.5	0.00e+00	0	24	0	2748317696	56	4248
2026-01-09 02:32:31.36	181.42	52.18	-45.3	-46.4	15.5	0.00e+00	0	24	0	2753560576	56	4150
2026-01-09 02:32:32.50	181.70	51.80	-45.4	-46.4	15.5	0.00e+00	0	24	0	2759852032	56	4190
2026-01-09 02:32:33.35	181.90	51.53	-45.7	-46.8	15.4	0.00e+00	0	24	0	2764046336	56	4354
2026-01-09 02:32:34.49	182.17	51.15	-46.0	-47.1	15.4	0.00e+00	0	24	0	2770337792	57	4283
2026-01-09 02:32:35.35	182.37	50.88	-45.9	-47.1	15.5	0.00e+00	0	24	0	2775580672	57	4252
2026-01-09 02:32:36.50	182.63	50.50	-45.7	-46.8	15.5	0.00e+00	0	24	0	2781872128	57	4109
2026-01-09 02:32:37.35	182.82	50.23	-45.3	-46.4	15.6	0.00e+00	0	24	0	2787115008	57	3919
2026-01-09 02:32:38.50	183.07	49.87	-44.8	-45.8	15.7	0.00e+00	0	24	0	2793406464	56	3907
2026-01-09 02:32:39.36	183.25	49.59	-44.9	-46.0	15.6	0.00e+00	0	24	0	2798649344	56	3966
2026-01-09 02:32:40.51	183.49	49.23	-44.9	-46.0	15.6	0.00e+00	0	24	0	2804940800	56	3994
2026-01-09 02:32:41.37	183.66	48.96	-44.9	-46.0	15.6	0.00e+00	0	24	0	2809135104	56	3993
2026-01-09 02:32:42.51	183.89	48.61	-45.0	-46.1	15.6	0.00e+00	0	24	0	2816475136	56	4011
2026-01-09 02:32:43.37	184.06	48.34	-44.4	-45.4	15.6	0.00e+00	0	24	0	2820669440	55	3953
2026-01-09 02:32:44.51	184.28	47.99	-44.3	-45.3	15.7	0.00e+00	0	24	0	2826960896	55	3882
2026-01-09 02:32:45.37	184.44	47.73	-44.4	-45.4	15.6	0.00e+00	0	24	0	2832203776	55	3928
2026-01-09 02:32:46.51	184.65	47.38	-44.5	-45.5	15.6	0.00e+00	0	24	0	2838495232	55	3971
2026-01-09 02:32:47.37	184.80	47.12	-44.6	-45.6	15.6	0.00e+00	0	24	0	2843738112	55	4049
2026-01-09 02:32:48.51	185.01	46.78	-44.6	-45.6	15.6	0.00e+00	0	24	0	2850029568	55	4040
2026-01-09 02:32:49.38	185.16	46.52	-44.5	-45.6	15.6	0.00e+00	0	24	0	2854223872	55	4022
2026-01-09 02:32:50.51	185.35	46.18	-44.6	-45.6	15.6	0.00e+00	0	24	0	2860515328	55	4039
2026-01-09 02:32:51.37	185.50	45.93	-44.4	-45.5	15.6	0.00e+00	0	24	0	2865758208	55	3977
2026-01-09 02:32:52.51	185.68	45.59	-44.5	-45.6	15.6	0.00e+00	0	24	0	2872049664	55	4026
2026-01-09 02:32:53.37	185.82	45.34	-44.4	-45.4	15.7	0.00e+00	0	24	0	2877292544	55	3945
2026-01-09 02:32:54.51	186.00	45.01	-44.4	-45.5	15.7	0.00e+00	0	24	0	2883584000	55	3961
2026-01-09 02:32:55.37	186.14	44.77	-44.4	-45.4	15.7	0.00e+00	0	24	0	2887778304	55	3947
2026-01-09 02:32:56.51	186.31	44.44	-44.4	-45.4	15.7	0.00e+00	0	24	0	2895118336	55	3954
2026-01-09 02:32:57.36	186.44	44.20	-44.3	-45.3	15.7	0.00e+00	0	24	0	2899312640	55	3909
2026-01-09 02:32:58.50	186.61	43.88	-44.2	-45.2	15.7	0.00e+00	0	24	0	2905604096	55	3856
2026-01-09 02:32:59.35	186.74	43.64	-44.2	-45.2	15.7	0.00e+00	0	24	0	2910846976	55	3862
2026-01-09 02:33:00.49	186.90	43.33	-44.3	-45.3	15.7	0.00e+00	0	24	0	2917138432	55	3889
2026-01-09 02:33:01.35	187.02	43.09	-44.4	-45.5	15.6	0.00e+00	0	24	0	2922381312	55	3962
2026-01-09 02:33:02.49	187.18	42.77	-44.5	-45.6	15.6	0.00e+00	0	24	0	2928672768	55	4008
2026-01-09 02:33:03.34	187.30	42.54	-44.6	-45.6	15.6	0.00e+00	0	24	0	2932867072	55	4041
2026-01-09 02:33:04.48	187.45	42.23	-44.6	-45.7	15.6	0.00e+00	0	24	0	2939158528	55	4067
2026-01-09 02:33:05.34	187.56	42.00	-44.4	-45.5	15.7	0.00e+00	0	24	0	2944401408	55	3964
2026-01-09 02:33:06.48	187.71	41.70	-44.4	-45.5	15.6	0.00e+00	0	24	0	2950692864	55	3973
2026-01-09 02:33:07.34	187.82	41.47	-44.2	-45.2	15.7	0.00e+00	0	24	0	2955935744	55	3865
2026-01-09 02:33:08.49	187.97	41.17	-44.2	-45.2	15.7	0.00e+00	0	24	0	2962227200	55	3848
2026-01-09 02:33:09.34	188.07	40.94	-44.0	-45.0	15.7	0.00e+00	0	24	0	2966421504	54	3980
2026-01-09 02:33:10.48	188.21	40.65	-43.9	-44.9	15.7	0.00e+00	0	24	0	2972712960	54	3958
2026-01-09 02:33:11.34	188.31	40.42	-43.9	-44.9	15.7	0.00e+00	0	24	0	2977955840	54	3922
2026-01-09 02:33:12.48	188.45	40.13	-43.8	-44.8	15.7	0.00e+00	0	24	0	2984247296	54	3884
2026-01-09 02:33:13.34	188.55	39.91	-43.6	-44.6	15.6	0.00e+00	0	24	0	2989490176	53	4025
2026-01-09 02:33:14.48	188.68	39.62	-43.6	-44.6	15.6	0.00e+00	0	24	0	2995781632	53	4034
2026-01-09 02:33:15.33	188.78	39.41	-43.7	-44.7	15.6	0.00e+00	0	24	0	2999975936	53	4065
2026-01-09 02:33:16.47	188.90	39.13	-43.6	-44.6	15.6	0.00e+00	0	24	0	3007315968	53	4044
2026-01-09 02:33:17.33	189.00	38.91	-43.7	-44.7	15.6	0.00e+00	0	24	0	3011510272	53	4084
2026-01-09 02:33:18.47	189.12	38.63	-43.8	-44.8	15.6	0.00e+00	0	24	0	3017801728	53	4139
2026-01-09 02:33:19.32	189.21	38.42	-43.8	-44.9	15.6	0.00e+00	0	24	0	3023044608	53	4164
2026-01-09 02:33:20.46	189.33	38.15	-44.0	-45.0	15.6	0.00e+00	0	24	0	3029336064	53	4223
2026-01-09 02:33:21.31	189.42	37.94	-43.9	-45.0	15.6	0.00e+00	0	24	0	3034578944	53	4206
2026-01-09 02:33:22.45	189.54	37.67	-44.0	-45.0	15.6	0.00e+00	0	24	0	3040870400	53	4223
2026-01-09 02:33:23.30	189.62	37.46	-43.9	-44.9	15.6	0.00e+00	0	24	0	3045064704	53	4182
2026-01-09 02:33:24.44	189.74	37.19	-43.8	-44.9	15.6	0.00e+00	0	24	0	3051356160	53	4148
2026-01-09 02:33:25.30	189.82	36.99	-43.9	-44.9	15.6	0.00e+00	0	24	0	3056599040	53	4192
2026-01-09 02:33:26.44	189.93	36.73	-43.9	-44.9	15.6	0.00e+00	0	24	0	3062890496	53	4166
2026-01-09 02:33:27.30	190.01	36.53	-44.0	-45.0	15.6	0.00e+00	0	24	0	3068133376	53	4215
2026-01-09 02:33:28.44	190.12	36.26	-44.0	-45.1	15.6	0.00e+00	0	24	0	3074424832	53	4243
2026-01-09 02:33:29.29	190.20	36.07	-44.2	-45.2	15.5	0.00e+00	0	24	0	3078619136	53	4320
2026-01-09 02:33:30.43	190.31	35.81	-44.2	-45.2	15.5	0.00e+00	0	24	0	3084910592	53	4327
2026-01-09 02:33:31.28	190.38	35.62	-44.2	-45.3	15.5	0.00e+00	0	24	0	3090153472	53	4352
2026-01-09 02:33:32.42	190.48	35.36	-44.2	-45.2	15.5	0.00e+00	0	24	0	3096444928	53	4338
2026-01-09 02:33:33.28	190.56	35.17	-44.1	-45.2	15.5	0.00e+00	0	24	0	3101687808	53	4321
2026-01-09 02:33:34.41	190.66	34.92	-44.2	-45.3	15.5	0.00e+00	0	24	0	3107979264	53	4358
2026-01-09 02:33:35.27	190.73	34.73	-44.2	-45.3	15.5	0.00e+00	0	24	0	3112173568	53	4358
2026-01-09 02:33:36.41	190.83	34.48	-44.1	-45.2	15.5	0.00e+00	0	24	0	3119513600	53	4296
2026-01-09 02:33:37.26	190.90	34.30	-44.1	-45.1	15.5	0.00e+00	0	24	0	3123707904	53	4285
2026-01-09 02:33:38.40	190.99	34.05	-44.0	-45.1	15.6	0.00e+00	0	24	0	3129999360	53	4244
2026-01-09 02:33:39.26	191.06	33.87	-44.1	-45.2	15.5	0.00e+00	0	24	0	3135242240	53	4296
2026-01-09 02:33:40.40	191.16	33.62	-44.0	-45.0	15.6	0.00e+00	0	24	0	3141533696	53	4241
2026-01-09 02:33:41.26	191.23	33.44	-44.0	-45.1	15.6	0.00e+00	0	24	0	3146776576	53	4249
2026-01-09 02:33:42.40	191.32	33.20	-44.1	-45.1	15.6	0.00e+00	0	24	0	3153068032	53	4267
2026-01-09 02:33:43.26	191.38	33.02	-44.1	-45.2	15.5	0.00e+00	0	24	0	3157262336	53	4307
2026-01-09 02:33:44.40	191.47	32.79	-44.0	-45.0	15.6	0.00e+00	0	24	0	3164602368	53	4225
2026-01-09 02:33:45.26	191.53	32.61	-44.0	-45.0	15.6	0.00e+00	0	24	0	3168796672	53	4233
2026-01-09 02:33:46.40	191.62	32.38	-43.9	-45.0	15.6	0.00e+00	0	24	0	3175088128	53	4205
2026-01-09 02:33:47.25	191.68	32.21	-44.0	-45.0	15.6	0.00e+00	0	24	0	3180331008	53	4208
2026-01-09 02:33:48.39	191.77	31.98	-44.0	-45.0	15.6	0.00e+00	0	24	0	3186622464	53	4232
2026-01-09 02:33:49.25	191.83	31.80	-44.0	-45.0	15.5	0.00e+00	0	24	0	3191865344	53	4229
2026-01-09 02:33:50.40	191.91	31.57	-44.1	-45.1	15.5	0.00e+00	0	24	0	3198156800	53	4286
2026-01-09 02:33:51.25	191.97	31.41	-44.1	-45.1	15.6	0.00e+00	0	24	0	3202351104	53	4279
2026-01-09 02:33:52.39	192.05	31.18	-44.2	-45.2	15.5	0.00e+00	0	24	0	3208642560	53	4328
2026-01-09 02:33:53.25	192.11	31.01	-44.2	-45.2	15.5	0.00e+00	0	24	0	3213885440	53	4330
2026-01-09 02:33:54.39	192.19	30.79	-44.2	-45.3	15.5	0.00e+00	0	24	0	3220176896	53	4344
2026-01-09 02:33:55.25	192.25	30.63	-44.2	-45.2	15.5	0.00e+00	0	24	0	3225419776	53	4334
2026-01-09 02:33:56.39	192.32	30.41	-44.3	-45.3	15.5	0.00e+00	0	24	0	3231711232	53	4386
2026-01-09 02:33:57.24	192.38	30.25	-44.2	-45.3	15.5	0.00e+00	0	24	0	3235905536	53	4365
2026-01-09 02:33:58.37	192.45	30.03	-44.3	-45.4	15.5	0.00e+00	0	24	0	3242196992	53	4420
2026-01-09 02:33:59.23	192.51	29.87	-44.4	-45.4	15.6	0.00e+00	0	24	0	3247439872	54	4177
2026-01-09 02:34:00.37	192.58	29.66	-44.4	-45.5	15.5	0.00e+00	0	24	0	3253731328	54	4218
2026-01-09 02:34:01.23	192.64	29.50	-44.4	-45.5	15.6	0.00e+00	0	24	0	3258974208	54	4196
2026-01-09 02:34:02.37	192.71	29.29	-44.4	-45.4	15.5	0.00e+00	0	24	0	3265265664	54	4192
2026-01-09 02:34:03.23	192.76	29.13	-44.4	-45.4	15.6	0.00e+00	0	24	0	3269459968	54	4183
2026-01-09 02:34:04.38	192.83	28.92	-44.4	-45.4	15.6	0.00e+00	0	24	0	3276800000	54	4191
2026-01-09 02:34:05.23	192.88	28.77	-44.4	-45.5	15.5	0.00e+00	0	24	0	3280994304	54	4195
2026-01-09 02:34:06.37	192.95	28.56	-44.4	-45.5	15.5	0.00e+00	0	24	0	3287285760	54	4216
2026-01-09 02:34:07.22	193.00	28.41	-44.3	-45.4	15.6	0.00e+00	0	24	0	3292528640	54	4154
2026-01-09 02:34:08.36	193.07	28.21	-44.4	-45.5	15.5	0.00e+00	0	24	0	3298820096	54	4203
2026-01-09 02:34:09.22	193.12	28.06	-44.3	-45.4	15.6	0.00e+00	0	24	0	3304062976	54	4159
2026-01-09 02:34:10.37	193.19	27.86	-44.4	-45.5	15.5	0.00e+00	0	24	0	3310354432	54	4200
2026-01-09 02:34:11.23	193.24	27.71	-44.3	-45.4	15.6	0.00e+00	0	24	0	3314548736	54	4169
2026-01-09 02:34:12.38	193.30	27.51	-44.3	-45.4	15.6	0.00e+00	0	24	0	3320840192	54	4165
2026-01-09 02:34:13.24	193.35	27.36	-44.4	-45.4	15.6	0.00e+00	0	24	0	3326083072	54	4193
2026-01-09 02:34:14.38	193.41	27.16	-44.4	-45.5	15.5	0.00e+00	0	24	0	3332374528	54	4216
2026-01-09 02:34:15.24	193.46	27.02	-44.3	-45.4	15.6	0.00e+00	0	24	0	3337617408	54	4162
2026-01-09 02:34:16.38	193.52	26.83	-44.3	-45.4	15.6	0.00e+00	0	24	0	3343908864	54	4160
2026-01-09 02:34:17.23	193.57	26.68	-44.4	-45.5	15.5	0.00e+00	0	24	0	3349151744	54	4203
2026-01-09 02:34:18.38	193.63	26.49	-44.3	-45.3	15.6	0.00e+00	0	24	0	3355443200	54	4141
2026-01-09 02:34:19.24	193.67	26.35	-44.3	-45.3	15.6	0.00e+00	0	24	0	3359637504	54	4132
2026-01-09 02:34:20.38	193.73	26.16	-44.2	-45.2	15.6	0.00e+00	0	24	0	3365928960	54	4096
2026-01-09 02:34:21.24	193.78	26.02	-44.3	-45.3	15.6	0.00e+00	0	24	0	3371171840	54	4124
2026-01-09 02:34:22.39	193.84	25.83	-44.3	-45.3	15.6	0.00e+00	0	24	0	3377463296	54	4119
2026-01-09 02:34:23.25	193.88	25.69	-44.3	-45.4	15.5	0.00e+00	0	24	0	3382706176	54	4161
2026-01-09 02:34:24.39	193.94	25.51	-44.3	-45.4	15.5	0.00e+00	0	24	0	3388997632	54	4154
2026-01-09 02:34:25.24	193.98	25.37	-44.3	-45.3	15.5	0.00e+00	0	24	0	3393191936	54	4137
2026-01-09 02:34:26.38	194.03	25.19	-44.3	-45.3	15.5	0.00e+00	0	24	0	3400531968	54	4134
2026-01-09 02:34:27.23	194.08	25.06	-44.3	-45.4	15.5	0.00e+00	0	24	0	3404726272	54	4151
2026-01-09 02:34:28.37	194.13	24.88	-44.4	-45.4	15.5	0.00e+00	0	24	0	3411017728	54	4177
2026-01-09 02:34:29.23	194.17	24.74	-44.5	-45.5	15.5	0.00e+00	0	24	0	3416260608	54	4236
2026-01-09 02:34:30.37	194.23	24.56	-44.4	-45.5	15.5	0.00e+00	0	24	0	3422552064	54	4212
2026-01-09 02:34:31.23	194.27	24.43	-44.5	-45.5	15.5	0.00e+00	0	24	0	3427794944	54	4239
2026-01-09 02:34:32.37	194.32	24.26	-44.5	-45.6	15.5	0.00e+00	0	24	0	3434086400	54	4253
2026-01-09 02:34:33.23	194.36	24.13	-44.6	-45.7	15.5	0.00e+00	0	24	0	3438280704	54	4310
2026-01-09 02:34:34.38	194.41	23.95	-44.7	-45.7	15.5	0.00e+00	0	24	0	3445620736	54	4335
2026-01-09 02:34:35.23	194.45	23.82	-44.7	-45.8	15.5	0.00e+00	0	24	0	3449815040	54	4341
2026-01-09 02:34:36.36	194.50	23.65	-44.9	-46.0	15.4	0.00e+00	0	24	0	3456106496	54	4454
2026-01-09 02:34:37.22	194.54	23.52	-44.8	-45.9	15.5	0.00e+00	0	24	0	3461349376	54	4401
2026-01-09 02:34:38.36	194.59	23.35	-44.9	-46.0	15.4	0.00e+00	0	24	0	3467640832	54	4474
2026-01-09 02:34:39.22	194.63	23.23	-45.0	-46.1	15.5	0.00e+00	0	24	0	3472883712	55	4249
2026-01-09 02:34:40.36	194.68	23.06	-44.9	-46.0	15.5	0.00e+00	0	24	0	3479175168	55	4237
2026-01-09 02:34:41.23	194.72	22.93	-45.0	-46.1	15.5	0.00e+00	0	24	0	3483369472	55	4243
2026-01-09 02:34:42.37	194.77	22.77	-45.1	-46.2	15.4	0.00e+00	0	24	0	3489660928	55	4315
2026-01-09 02:34:43.22	194.80	22.64	-45.1	-46.2	15.4	0.00e+00	0	24	0	3494903808	55	4328
2026-01-09 02:34:44.37	194.85	22.48	-45.1	-46.2	15.4	0.00e+00	0	24	0	3501195264	55	4338
2026-01-09 02:34:45.23	194.89	22.36	-45.1	-46.3	15.4	0.00e+00	0	24	0	3506438144	55	4348
2026-01-09 02:34:46.37	194.93	22.19	-45.2	-46.3	15.4	0.00e+00	0	24	0	3512729600	55	4355
2026-01-09 02:34:47.23	194.97	22.07	-45.1	-46.2	15.5	0.00e+00	0	24	0	3516923904	55	4308
2026-01-09 02:34:48.38	195.01	21.91	-45.2	-46.4	15.4	0.00e+00	0	24	0	3524263936	55	4395
2026-01-09 02:34:49.23	195.05	21.79	-45.2	-46.3	15.4	0.00e+00	0	24	0	3528458240	55	4379
2026-01-09 02:34:50.37	195.09	21.63	-45.2	-46.3	15.4	0.00e+00	0	24	0	3534749696	55	4366
2026-01-09 02:34:51.22	195.13	21.52	-45.3	-46.4	15.4	0.00e+00	0	24	0	3539992576	55	4406
2026-01-09 02:34:52.37	195.17	21.36	-45.3	-46.4	15.4	0.00e+00	0	24	0	3546284032	55	4440
2026-01-09 02:34:53.22	195.21	21.24	-45.2	-46.3	15.4	0.00e+00	0	24	0	3551526912	55	4391
2026-01-09 02:34:54.36	195.25	21.09	-45.3	-46.4	15.4	0.00e+00	0	24	0	3557818368	55	4401
2026-01-09 02:34:55.21	195.28	20.97	-45.3	-46.4	15.4	0.00e+00	0	24	0	3562012672	55	4419
2026-01-09 02:34:56.35	195.33	20.82	-45.4	-46.5	15.4	0.00e+00	0	24	0	3569352704	55	4455
2026-01-09 02:34:57.20	195.36	20.70	-45.5	-46.6	15.4	0.00e+00	0	24	0	3573547008	56	4285
2026-01-09 02:34:58.35	195.40	20.55	-45.6	-46.7	15.4	0.00e+00	0	24	0	3579838464	56	4301
2026-01-09 02:34:59.20	195.43	20.44	-45.6	-46.8	15.4	0.00e+00	0	24	0	3585081344	56	4342
2026-01-09 02:35:00.35	195.48	20.29	-45.5	-46.6	15.4	0.00e+00	0	24	0	3591372800	56	4265
2026-01-09 02:35:01.20	195.51	20.18	-45.5	-46.6	15.4	0.00e+00	0	24	0	3596615680	56	4255
2026-01-09 02:35:02.33	195.55	20.03	-45.5	-46.6	15.4	0.00e+00	0	24	0	3601858560	56	4274
2026-01-09 02:35:03.19	195.58	19.92	-45.5	-46.6	15.4	0.00e+00	0	24	0	3607101440	56	4254
2026-01-09 02:35:04.34	195.62	19.77	-45.5	-46.7	15.4	0.00e+00	0	24	0	3613392896	56	4292
2026-01-09 02:35:05.19	195.65	19.66	-45.5	-46.6	15.4	0.00e+00	0	24	0	3618635776	56	4287
2026-01-09 02:35:06.33	195.69	19.51	-45.6	-46.6	15.4	0.00e+00	0	24	0	3624927232	56	4287
2026-01-09 02:35:07.18	195.72	19.40	-45.5	-46.6	15.4	0.00e+00	0	24	0	3629121536	56	4263
2026-01-09 02:35:08.32	195.76	19.26	-45.5	-46.6	15.4	0.00e+00	0	24	0	3636461568	56	4268
2026-01-09 02:35:09.17	195.79	19.15	-45.5	-46.6	15.4	0.00e+00	0	24	0	3640655872	56	4289
2026-01-09 02:35:10.32	195.83	19.01	-45.6	-46.7	15.4	0.00e+00	0	24	0	3646947328	56	4337
2026-01-09 02:35:11.18	195.86	18.90	-45.6	-46.7	15.4	0.00e+00	0	24	0	3652190208	56	4327
2026-01-09 02:35:12.31	195.90	18.76	-45.6	-46.7	15.4	0.00e+00	0	24	0	3658481664	56	4332
2026-01-09 02:35:13.16	195.93	18.66	-45.8	-46.9	15.3	0.00e+00	0	24	0	3663724544	56	4402
2026-01-09 02:35:14.29	195.97	18.52	-45.7	-46.8	15.3	0.00e+00	0	24	0	3670016000	56	4385
2026-01-09 02:35:15.15	195.99	18.41	-45.8	-46.9	15.3	0.00e+00	0	24	0	3674210304	56	4421
2026-01-09 02:35:16.29	196.03	18.27	-45.8	-46.9	15.3	0.00e+00	0	24	0	3680501760	56	4439
2026-01-09 02:35:17.14	196.06	18.17	-45.9	-47.0	15.3	0.00e+00	0	24	0	3685744640	56	4449
2026-01-09 02:35:18.29	196.10	18.03	-46.0	-47.2	15.3	0.00e+00	0	24	0	3692036096	57	4297
2026-01-09 02:35:19.15	196.12	17.93	-46.0	-47.1	15.3	0.00e+00	0	24	0	3697278976	57	4281
2026-01-09 02:35:20.29	196.16	17.79	-46.0	-47.1	15.4	0.00e+00	0	24	0	3703570432	57	4261
2026-01-09 02:35:21.15	196.19	17.69	-46.0	-47.1	15.4	0.00e+00	0	24	0	3708813312	57	4285
2026-01-09 02:35:22.30	196.22	17.56	-46.2	-47.3	15.3	0.00e+00	0	24	0	3715104768	57	4364
2026-01-09 02:35:23.15	196.25	17.46	-46.2	-47.4	15.3	0.00e+00	0	24	0	3719299072	57	4407
2026-01-09 02:35:24.29	196.29	17.32	-46.2	-47.3	15.3	0.00e+00	0	24	0	3725590528	57	4383
