passes_logs/2026/01/09/R3.2S_Murmansk/R3.2S_Murmansk__20260109_234523_NOAA_20_JPSS-1_rec.log

#Pass ID: 20260109_234523_NOAA 20 (JPSS-1)
#Satellite: NOAA 20 (JPSS-1)
#Configuration: NOAA 20
#almurnet v.1.7.20251203
#Start time: 2026-01-09 23:45:23

#Version: 2.2.20231116
#Station: R3.2S_Murmansk
#Location: 33.079688 lon 68.888172 lat
#TLE: 1 43013U 17073A   26009.26828276  .00000112  00000+0  74203-4 0  9990
#TLE: 2 43013  98.7631 310.2683 0001700  47.4387 312.6933 14.19534764421920

#Time	Az	El	Level	Level2	SNR	BER	BlckErr	Temp	State	Recorded	gain1	gain2
2026-01-09 23:45:23.98	21.53	2.02	-57.3	-72.6	3.8	1.49e+00	0	21	0	0	81	20233
2026-01-09 23:45:24.98	21.56	2.09	-57.2	-71.9	3.8	1.49e+00	0	21	104	0	79	20904
2026-01-09 23:45:25.98	21.59	2.15	-57.2	-71.9	3.8	1.49e+00	0	21	104	0	79	20971
2026-01-09 23:45:26.97	21.62	2.21	-57.2	-72.0	3.8	1.49e+00	0	22	104	0	79	21260
2026-01-09 23:45:27.96	21.65	2.27	-57.2	-72.0	3.8	1.49e+00	0	22	104	0	79	21129
2026-01-09 23:45:28.96	21.68	2.34	-57.2	-72.2	3.8	1.49e+00	0	21	104	0	79	21518
2026-01-09 23:45:29.96	21.71	2.40	-57.2	-72.4	3.8	1.49e+00	0	21	104	0	79	22079
2026-01-09 23:45:30.96	21.74	2.46	-57.2	-72.3	3.8	1.49e+00	0	22	104	0	79	21843
2026-01-09 23:45:31.96	21.77	2.53	-57.2	-72.1	3.8	1.49e+00	0	21	104	0	79	21314
2026-01-09 23:45:32.96	21.80	2.59	-57.2	-71.8	3.8	1.49e+00	0	22	104	0	79	20661
2026-01-09 23:45:33.96	21.83	2.65	-57.2	-71.1	3.8	1.49e+00	0	22	104	0	79	19044
2026-01-09 23:45:34.96	21.86	2.72	-57.2	-70.9	4.0	1.49e+00	0	22	104	0	79	18533
2026-01-09 23:45:35.96	21.89	2.78	-57.1	-70.1	4.1	1.47e+00	0	22	104	0	79	17045
2026-01-09 23:45:36.96	21.92	2.84	-57.1	-69.8	4.2	1.38e+00	0	22	0	0	79	16347
2026-01-09 23:45:37.96	21.95	2.91	-57.1	-69.0	4.4	1.35e+00	82	22	0	0	79	14967
2026-01-09 23:45:38.96	21.98	2.97	-57.0	-68.7	4.5	1.09e+00	8	22	0	2097152	79	14503
2026-01-09 23:45:39.96	22.01	3.04	-57.0	-68.1	4.7	9.17e-01	0	22	0	3145728	79	13491
2026-01-09 23:45:40.97	22.04	3.10	-57.0	-67.6	5.0	7.32e-01	0	22	0	5242880	79	12707
2026-01-09 23:45:41.96	22.08	3.17	-57.0	-67.5	5.1	7.29e-01	0	22	0	7340032	79	12520
2026-01-09 23:45:42.96	22.11	3.23	-56.9	-67.4	5.1	6.46e-01	0	22	0	9437184	79	12418
2026-01-09 23:45:43.96	22.14	3.30	-56.9	-67.3	5.1	5.93e-01	0	22	0	10485760	79	12328
2026-01-09 23:45:44.96	22.17	3.36	-56.8	-66.6	5.6	5.18e-01	0	22	0	12582912	79	11351
2026-01-09 23:45:45.96	22.20	3.43	-56.8	-66.1	5.9	4.04e-01	0	22	0	14680064	79	10701
2026-01-09 23:45:46.96	22.23	3.49	-56.6	-65.0	6.7	2.14e-01	0	22	0	16777216	79	9488
2026-01-09 23:45:47.96	22.27	3.56	-56.5	-64.3	7.3	9.93e-02	0	22	0	18874368	79	8678
2026-01-09 23:45:48.96	22.30	3.62	-56.3	-63.1	8.4	7.18e-02	0	22	0	19922944	79	7614
2026-01-09 23:45:49.96	22.33	3.69	-55.9	-61.7	9.6	9.64e-03	0	22	0	22020096	78	6840
2026-01-09 23:45:50.96	22.36	3.76	-55.5	-60.6	10.5	1.80e-03	0	22	0	24117248	77	6381
2026-01-09 23:45:51.96	22.40	3.82	-55.3	-59.9	11.2	6.32e-04	0	22	0	26214400	77	5891
2026-01-09 23:45:52.95	22.43	3.89	-55.0	-59.4	11.5	1.30e-04	0	22	0	28311552	76	5917
2026-01-09 23:45:53.95	22.46	3.95	-54.8	-58.9	11.9	2.67e-05	0	22	0	29360128	76	5543
2026-01-09 23:45:54.93	22.49	4.02	-54.3	-57.9	12.6	4.50e-06	0	22	0	31457280	75	5247
2026-01-09 23:45:55.93	22.53	4.09	-54.0	-57.5	12.8	1.50e-06	0	22	0	33554432	74	5296
2026-01-09 23:45:56.93	22.56	4.15	-54.0	-57.4	12.8	7.00e-07	0	22	0	35651584	74	5249
2026-01-09 23:45:57.92	22.59	4.22	-53.8	-57.1	13.1	0.00e+00	0	22	0	36700160	74	5080
2026-01-09 23:45:58.92	22.63	4.29	-53.9	-57.2	13.0	0.00e+00	0	22	0	38797312	74	5108
2026-01-09 23:45:59.92	22.66	4.36	-53.9	-57.3	12.9	0.00e+00	0	22	0	40894464	74	5186
2026-01-09 23:46:00.92	22.69	4.42	-54.2	-57.7	12.6	0.00e+00	0	22	0	42991616	74	5449
2026-01-09 23:46:01.91	22.73	4.49	-54.4	-58.2	12.2	1.50e-06	0	22	0	45088768	74	5738
2026-01-09 23:46:02.91	22.76	4.56	-54.6	-58.6	11.9	6.10e-06	0	22	0	46137344	74	6025
2026-01-09 23:46:03.91	22.79	4.63	-54.7	-59.0	11.6	3.28e-05	0	22	0	48234496	74	6289
2026-01-09 23:46:04.91	22.83	4.69	-55.2	-60.1	10.7	2.59e-04	0	22	0	50331648	75	6779
2026-01-09 23:46:05.91	22.86	4.76	-55.6	-60.9	10.1	8.25e-04	0	22	0	52428800	76	7032
2026-01-09 23:46:06.91	22.90	4.83	-55.9	-61.8	9.4	2.99e-03	0	23	0	53477376	76	7758
2026-01-09 23:46:07.91	22.93	4.90	-56.2	-62.9	8.5	1.68e-02	0	22	0	55574528	77	8302
2026-01-09 23:46:08.91	22.97	4.97	-56.3	-63.5	7.9	3.42e-02	0	22	0	57671680	77	8896
2026-01-09 23:46:09.92	23.00	5.04	-56.5	-64.5	7.1	7.13e-02	0	22	0	59768832	78	9398
2026-01-09 23:46:10.92	23.04	5.11	-53.7	-57.0	12.9	3.71e-04	0	22	0	61865984	74	5034
2026-01-09 23:46:11.92	23.07	5.18	-56.8	-67.2	5.2	7.91e-02	0	22	0	62914560	78	12872
2026-01-09 23:46:12.92	23.11	5.25	-56.9	-65.7	6.2	2.29e-01	0	22	0	65011712	78	10888
2026-01-09 23:46:13.92	23.14	5.32	-54.9	-58.9	12.0	1.53e-01	0	23	0	67108864	76	5569
2026-01-09 23:46:14.92	23.18	5.39	-57.1	-69.3	4.3	3.02e-01	81	22	0	69206016	79	15555
2026-01-09 23:46:15.92	23.22	5.46	-55.1	-59.2	11.7	2.59e-01	0	22	0	70254592	76	5781
2026-01-09 23:46:16.92	23.25	5.53	-54.4	-57.9	12.7	6.80e-06	0	23	0	72351744	75	5251
2026-01-09 23:46:17.92	23.29	5.60	-54.0	-57.3	13.1	0.00e+00	0	22	0	74448896	74	5162
2026-01-09 23:46:18.92	23.32	5.67	-53.9	-57.1	13.2	0.00e+00	0	22	0	76546048	74	5070
2026-01-09 23:46:19.92	23.36	5.74	-53.8	-56.9	13.4	0.00e+00	0	22	0	77594624	74	4949
2026-01-09 23:46:20.93	23.40	5.81	-53.5	-56.4	13.5	0.00e+00	0	22	0	79691776	73	4968
2026-01-09 23:46:21.93	23.43	5.89	-53.6	-56.6	13.4	0.00e+00	0	22	0	81788928	73	5052
2026-01-09 23:46:22.92	23.47	5.96	-53.6	-56.5	13.5	0.00e+00	0	23	0	83886080	73	5034
2026-01-09 23:46:23.92	23.51	6.03	-53.5	-56.4	13.6	7.00e-07	0	23	0	84934656	73	4958
2026-01-09 23:46:24.92	23.55	6.10	-53.5	-56.3	13.7	0.00e+00	0	22	0	87031808	73	4885
2026-01-09 23:46:25.92	23.58	6.17	-53.4	-56.2	13.7	0.00e+00	0	23	0	89128960	73	4839
2026-01-09 23:46:26.92	23.62	6.24	-53.5	-56.4	13.6	0.00e+00	0	23	0	91226112	73	4940
2026-01-09 23:46:27.92	23.66	6.32	-53.3	-56.1	13.8	0.00e+00	0	23	0	93323264	73	4760
2026-01-09 23:46:28.92	23.70	6.39	-53.5	-56.3	13.6	0.00e+00	0	23	0	94371840	73	4920
2026-01-09 23:46:29.92	23.73	6.46	-53.5	-56.3	13.7	0.00e+00	0	23	0	96468992	73	4899
2026-01-09 23:46:30.92	23.77	6.54	-53.3	-56.0	13.8	0.00e+00	0	23	0	98566144	73	4755
2026-01-09 23:46:31.92	23.81	6.61	-53.4	-56.1	13.8	0.00e+00	0	23	0	100663296	73	4811
2026-01-09 23:46:32.92	23.85	6.68	-53.5	-56.3	13.7	0.00e+00	0	23	0	102760448	73	4881
2026-01-09 23:46:33.91	23.89	6.76	-53.4	-56.1	13.8	0.00e+00	0	23	0	103809024	73	4787
2026-01-09 23:46:34.90	23.93	6.83	-53.4	-56.2	13.7	0.00e+00	0	23	0	105906176	73	4825
2026-01-09 23:46:35.90	23.97	6.90	-53.2	-55.9	14.0	0.00e+00	0	23	0	108003328	73	4658
2026-01-09 23:46:36.90	24.00	6.98	-53.3	-55.9	14.0	0.00e+00	0	23	0	110100480	73	4686
2026-01-09 23:46:37.89	24.04	7.05	-53.2	-55.8	14.0	0.00e+00	0	23	0	111149056	73	4642
2026-01-09 23:46:38.90	24.08	7.13	-53.1	-55.7	14.1	0.00e+00	0	23	0	113246208	72	4834
2026-01-09 23:46:39.89	24.12	7.20	-53.1	-55.7	14.0	0.00e+00	0	23	0	115343360	72	4821
2026-01-09 23:46:40.90	24.16	7.28	-53.2	-55.8	13.9	0.00e+00	0	23	0	117440512	72	4900
2026-01-09 23:46:41.90	24.20	7.35	-53.2	-55.9	13.9	0.00e+00	0	23	0	119537664	72	4932
2026-01-09 23:46:42.90	24.24	7.43	-53.2	-55.7	13.9	0.00e+00	0	23	0	120586240	72	4869
2026-01-09 23:46:43.90	24.28	7.50	-53.1	-55.7	14.0	0.00e+00	0	23	0	122683392	72	4829
2026-01-09 23:46:44.89	24.32	7.58	-53.1	-55.7	14.0	0.00e+00	0	23	0	124780544	72	4853
2026-01-09 23:46:45.89	24.37	7.65	-53.1	-55.6	14.0	0.00e+00	0	23	0	126877696	72	4794
2026-01-09 23:46:46.88	24.41	7.73	-53.0	-55.5	14.1	0.00e+00	0	23	0	128974848	72	4731
2026-01-09 23:46:47.88	24.45	7.81	-53.1	-55.6	14.1	0.00e+00	0	23	0	130023424	72	4762
2026-01-09 23:46:48.88	24.49	7.88	-53.1	-55.6	14.0	0.00e+00	0	23	0	132120576	72	4802
2026-01-09 23:46:49.88	24.53	7.96	-53.1	-55.7	14.0	0.00e+00	0	23	0	134217728	72	4816
2026-01-09 23:46:50.88	24.57	8.04	-53.0	-55.5	14.1	0.00e+00	0	23	0	136314880	72	4710
2026-01-09 23:46:51.88	24.61	8.12	-53.1	-55.5	14.1	0.00e+00	0	23	0	138412032	72	4756
2026-01-09 23:46:52.88	24.66	8.19	-53.1	-55.6	14.1	0.00e+00	0	23	0	139460608	72	4760
2026-01-09 23:46:53.88	24.70	8.27	-53.0	-55.4	14.2	0.00e+00	0	23	0	141557760	72	4678
2026-01-09 23:46:54.87	24.74	8.35	-53.0	-55.4	14.2	0.00e+00	0	23	0	143654912	72	4678
2026-01-09 23:46:55.86	24.78	8.43	-53.0	-55.5	14.1	0.00e+00	0	23	0	145752064	72	4727
2026-01-09 23:46:56.85	24.83	8.50	-53.0	-55.4	14.2	0.00e+00	0	23	0	146800640	72	4681
2026-01-09 23:46:57.86	24.87	8.58	-52.9	-55.3	14.3	0.00e+00	0	23	0	148897792	72	4610
2026-01-09 23:46:58.85	24.91	8.66	-52.9	-55.3	14.3	0.00e+00	0	23	0	150994944	72	4628
2026-01-09 23:46:59.85	24.96	8.74	-52.9	-55.3	14.3	0.00e+00	0	23	0	153092096	72	4613
2026-01-09 23:47:00.84	25.00	8.82	-52.9	-55.3	14.3	0.00e+00	0	23	0	155189248	72	4622
2026-01-09 23:47:01.83	25.04	8.90	-52.8	-55.2	14.3	0.00e+00	0	23	0	156237824	72	4575
2026-01-09 23:47:02.83	25.09	8.98	-52.9	-55.3	14.3	0.00e+00	0	23	0	158334976	72	4628
2026-01-09 23:47:03.82	25.13	9.06	-52.8	-55.2	14.4	0.00e+00	0	23	0	160432128	72	4565
2026-01-09 23:47:04.81	25.18	9.14	-52.8	-55.1	14.4	0.00e+00	0	23	0	162529280	72	4542
2026-01-09 23:47:05.81	25.22	9.22	-52.8	-55.2	14.4	0.00e+00	0	23	0	163577856	72	4556
2026-01-09 23:47:06.82	25.27	9.30	-52.7	-55.0	14.5	0.00e+00	0	23	0	165675008	72	4474
2026-01-09 23:47:07.81	25.31	9.38	-52.8	-55.1	14.4	0.00e+00	0	23	0	167772160	72	4502
2026-01-09 23:47:08.81	25.36	9.46	-52.8	-55.2	14.4	0.00e+00	0	23	0	169869312	72	4563
2026-01-09 23:47:09.81	25.40	9.55	-52.7	-55.0	14.5	0.00e+00	0	23	0	171966464	72	4458
2026-01-09 23:47:10.81	25.45	9.63	-52.7	-55.0	14.5	0.00e+00	0	23	0	173015040	72	4466
2026-01-09 23:47:11.82	25.50	9.71	-52.7	-55.0	14.5	0.00e+00	0	23	0	175112192	72	4467
2026-01-09 23:47:12.82	25.54	9.79	-52.6	-54.8	14.4	0.00e+00	0	23	0	177209344	71	4618
2026-01-09 23:47:13.82	25.59	9.88	-52.6	-54.9	14.4	0.00e+00	0	23	0	179306496	71	4666
2026-01-09 23:47:14.81	25.64	9.96	-52.6	-54.8	14.5	0.00e+00	0	23	0	180355072	71	4616
2026-01-09 23:47:15.81	25.69	10.04	-52.7	-54.9	14.4	0.00e+00	0	23	0	182452224	71	4698
2026-01-09 23:47:16.81	25.73	10.13	-52.6	-54.9	14.4	0.00e+00	0	23	0	184549376	71	4661
2026-01-09 23:47:17.80	25.78	10.21	-52.6	-54.8	14.5	0.00e+00	0	23	0	186646528	71	4622
2026-01-09 23:47:18.80	25.83	10.29	-52.6	-54.8	14.4	0.00e+00	0	23	0	188743680	71	4641
2026-01-09 23:47:19.81	25.88	10.38	-52.5	-54.7	14.5	0.00e+00	0	23	0	189792256	71	4582
2026-01-09 23:47:20.81	25.93	10.46	-52.5	-54.7	14.5	0.00e+00	0	23	0	191889408	71	4575
2026-01-09 23:47:21.81	25.97	10.55	-52.6	-54.7	14.5	0.00e+00	0	23	0	193986560	71	4596
2026-01-09 23:47:22.82	26.02	10.64	-52.5	-54.7	14.5	0.00e+00	0	23	0	196083712	71	4564
2026-01-09 23:47:23.82	26.07	10.72	-52.5	-54.7	14.5	0.00e+00	0	23	0	198180864	71	4589
2026-01-09 23:47:24.82	26.12	10.81	-52.6	-54.8	14.5	0.00e+00	0	23	0	199229440	71	4621
2026-01-09 23:47:25.82	26.17	10.89	-52.5	-54.7	14.5	0.00e+00	0	23	0	201326592	71	4593
2026-01-09 23:47:26.81	26.22	10.98	-52.5	-54.7	14.5	0.00e+00	0	23	0	203423744	71	4560
2026-01-09 23:47:27.81	26.27	11.07	-52.5	-54.6	14.6	0.00e+00	0	23	0	205520896	71	4532
2026-01-09 23:47:28.81	26.32	11.15	-52.4	-54.6	14.6	0.00e+00	0	23	0	207618048	71	4498
2026-01-09 23:47:29.82	26.38	11.24	-52.5	-54.6	14.6	0.00e+00	0	23	0	208666624	71	4524
2026-01-09 23:47:30.82	26.43	11.33	-52.5	-54.7	14.6	0.00e+00	0	23	0	210763776	71	4570
2026-01-09 23:47:31.81	26.48	11.42	-52.4	-54.6	14.6	0.00e+00	0	23	0	212860928	71	4506
2026-01-09 23:47:32.81	26.53	11.50	-52.4	-54.6	14.6	0.00e+00	0	23	0	214958080	71	4506
2026-01-09 23:47:33.80	26.58	11.59	-52.4	-54.5	14.7	0.00e+00	0	23	0	216006656	71	4448
2026-01-09 23:47:34.80	26.63	11.68	-52.3	-54.4	14.7	0.00e+00	0	23	0	218103808	71	4419
2026-01-09 23:47:35.80	26.69	11.77	-52.3	-54.4	14.7	0.00e+00	0	23	0	220200960	71	4417
2026-01-09 23:47:36.80	26.74	11.86	-52.3	-54.4	14.7	0.00e+00	0	23	0	222298112	71	4433
2026-01-09 23:47:37.79	26.79	11.95	-52.3	-54.4	14.7	0.00e+00	0	23	0	224395264	71	4419
2026-01-09 23:47:38.79	26.85	12.04	-52.4	-54.5	14.6	0.00e+00	0	23	0	225443840	71	4479
2026-01-09 23:47:39.79	26.90	12.13	-52.2	-54.2	14.8	0.00e+00	0	23	0	227540992	71	4328
2026-01-09 23:47:40.79	26.95	12.22	-52.2	-54.3	14.8	0.00e+00	0	23	0	229638144	71	4343
2026-01-09 23:47:41.79	27.01	12.31	-52.1	-54.1	14.7	0.00e+00	0	23	0	231735296	70	4513
2026-01-09 23:47:42.78	27.06	12.40	-52.0	-54.0	14.8	0.00e+00	0	23	0	233832448	70	4481
2026-01-09 23:47:43.78	27.12	12.49	-52.1	-54.0	14.8	0.00e+00	0	23	0	234881024	70	4490
2026-01-09 23:47:44.77	27.17	12.58	-52.0	-54.0	14.8	0.00e+00	0	23	0	236978176	70	4479
2026-01-09 23:47:45.77	27.23	12.68	-51.9	-53.9	14.9	0.00e+00	0	23	0	239075328	70	4418
2026-01-09 23:47:46.77	27.28	12.77	-52.0	-54.0	14.8	0.00e+00	0	23	0	241172480	70	4444
2026-01-09 23:47:47.76	27.34	12.86	-52.0	-54.0	14.8	0.00e+00	0	23	0	242221056	70	4449
2026-01-09 23:47:48.75	27.40	12.95	-51.8	-53.8	14.9	0.00e+00	0	23	0	244318208	70	4349
2026-01-09 23:47:49.75	27.45	13.05	-51.9	-53.8	14.9	0.00e+00	0	23	0	246415360	70	4374
2026-01-09 23:47:50.75	27.51	13.14	-51.9	-53.9	14.9	0.00e+00	0	23	0	248512512	70	4394
2026-01-09 23:47:51.73	27.57	13.23	-52.0	-54.0	14.8	0.00e+00	0	23	0	250609664	70	4460
2026-01-09 23:47:52.73	27.62	13.33	-51.9	-53.9	14.9	0.00e+00	0	23	0	251658240	70	4398
2026-01-09 23:47:53.74	27.68	13.42	-52.0	-53.9	14.8	0.00e+00	0	23	0	253755392	70	4433
2026-01-09 23:47:54.74	27.74	13.52	-51.8	-53.7	15.0	0.00e+00	0	23	0	255852544	70	4330
2026-01-09 23:47:55.73	27.80	13.61	-51.7	-53.6	15.0	0.00e+00	0	23	0	257949696	70	4277
2026-01-09 23:47:56.73	27.86	13.71	-51.8	-53.7	15.0	0.00e+00	0	23	0	258998272	70	4307
2026-01-09 23:47:57.71	27.92	13.80	-51.7	-53.6	15.0	0.00e+00	0	23	0	261095424	70	4276
2026-01-09 23:47:58.71	27.98	13.90	-51.7	-53.5	14.9	0.00e+00	0	23	0	263192576	69	4486
2026-01-09 23:47:59.71	28.04	14.00	-51.7	-53.5	14.9	0.00e+00	0	23	0	265289728	69	4491
2026-01-09 23:48:00.70	28.10	14.10	-51.5	-53.4	15.0	0.00e+00	0	23	0	267386880	69	4410
2026-01-09 23:48:01.70	28.16	14.19	-51.6	-53.4	15.0	0.00e+00	0	23	0	268435456	69	4441
2026-01-09 23:48:02.69	28.22	14.29	-51.5	-53.4	15.0	0.00e+00	0	23	0	270532608	69	4400
2026-01-09 23:48:03.69	28.28	14.39	-51.5	-53.3	15.0	0.00e+00	0	23	0	272629760	69	4385
2026-01-09 23:48:04.69	28.35	14.49	-51.4	-53.2	15.1	0.00e+00	0	23	0	274726912	69	4336
2026-01-09 23:48:05.68	28.41	14.59	-51.5	-53.3	15.0	0.00e+00	0	23	0	275775488	69	4369
2026-01-09 23:48:06.68	28.47	14.69	-51.4	-53.2	15.1	0.00e+00	0	23	0	277872640	69	4302
2026-01-09 23:48:07.68	28.54	14.79	-51.3	-53.1	15.1	0.00e+00	0	23	0	279969792	69	4282
2026-01-09 23:48:08.68	28.60	14.89	-51.4	-53.1	15.1	0.00e+00	0	23	0	282066944	69	4290
2026-01-09 23:48:09.68	28.66	14.99	-51.4	-53.2	15.1	0.00e+00	0	23	0	284164096	69	4297
2026-01-09 23:48:10.68	28.73	15.09	-51.3	-53.1	15.1	0.00e+00	0	23	0	285212672	69	4265
2026-01-09 23:48:11.68	28.79	15.19	-51.3	-53.1	15.2	0.00e+00	0	23	0	287309824	69	4265
2026-01-09 23:48:12.68	28.86	15.29	-51.4	-53.1	15.1	0.00e+00	0	23	0	289406976	69	4284
2026-01-09 23:48:13.68	28.92	15.39	-51.3	-53.1	15.2	0.00e+00	0	23	0	291504128	69	4244
2026-01-09 23:48:14.68	28.99	15.50	-51.3	-53.1	15.2	0.00e+00	0	23	0	293601280	69	4248
2026-01-09 23:48:15.68	29.06	15.60	-51.2	-53.0	15.2	0.00e+00	0	23	0	294649856	69	4201
2026-01-09 23:48:16.68	29.13	15.70	-51.2	-53.0	15.2	0.00e+00	0	23	0	296747008	69	4200
2026-01-09 23:48:17.68	29.19	15.81	-51.3	-53.1	15.2	0.00e+00	0	23	0	298844160	69	4252
2026-01-09 23:48:18.68	29.26	15.91	-51.2	-53.0	15.2	0.00e+00	0	23	0	300941312	69	4194
2026-01-09 23:48:19.67	29.33	16.02	-51.3	-53.0	15.2	0.00e+00	0	23	0	303038464	69	4218
2026-01-09 23:48:20.67	29.40	16.12	-51.3	-53.0	15.2	0.00e+00	0	23	0	304087040	69	4230
2026-01-09 23:48:21.67	29.47	16.23	-51.4	-53.1	15.1	0.00e+00	0	23	0	306184192	69	4283
2026-01-09 23:48:22.68	29.54	16.34	-51.2	-53.0	15.2	0.00e+00	0	23	0	308281344	69	4207
2026-01-09 23:48:23.68	29.61	16.44	-51.2	-52.9	15.3	0.00e+00	0	23	0	310378496	69	4167
2026-01-09 23:48:24.69	29.68	16.55	-51.2	-52.9	15.3	0.00e+00	0	23	0	311427072	69	4180
2026-01-09 23:48:25.69	29.75	16.66	-51.2	-52.9	15.2	0.00e+00	0	23	0	313524224	69	4189
2026-01-09 23:48:26.68	29.82	16.76	-51.1	-52.8	15.2	0.00e+00	0	23	0	315621376	68	4358
2026-01-09 23:48:27.69	29.90	16.87	-51.1	-52.8	15.1	0.00e+00	0	23	0	317718528	68	4370
2026-01-09 23:48:28.69	29.97	16.98	-51.1	-52.8	15.2	0.00e+00	0	23	0	319815680	68	4363
2026-01-09 23:48:29.68	30.04	17.09	-51.1	-52.8	15.1	0.00e+00	0	23	0	320864256	68	4385
2026-01-09 23:48:30.68	30.11	17.20	-51.0	-52.6	15.2	0.00e+00	0	24	0	322961408	68	4282
2026-01-09 23:48:31.69	30.19	17.31	-50.8	-52.5	15.3	0.00e+00	0	23	0	325058560	68	4211
2026-01-09 23:48:32.69	30.26	17.42	-50.9	-52.6	15.3	0.00e+00	0	23	0	327155712	68	4253
2026-01-09 23:48:33.69	30.34	17.53	-50.9	-52.5	15.3	0.00e+00	0	23	0	329252864	68	4238
2026-01-09 23:48:34.69	30.42	17.65	-50.8	-52.5	15.3	0.00e+00	0	23	0	330301440	68	4201
2026-01-09 23:48:35.68	30.49	17.76	-50.8	-52.4	15.4	0.00e+00	0	23	0	332398592	68	4173
2026-01-09 23:48:36.67	30.57	17.87	-50.8	-52.4	15.4	0.00e+00	0	23	0	334495744	68	4168
2026-01-09 23:48:37.68	30.65	17.98	-50.7	-52.4	15.4	0.00e+00	0	23	0	336592896	68	4147
2026-01-09 23:48:38.68	30.72	18.10	-50.7	-52.3	15.4	0.00e+00	0	23	0	337641472	68	4123
2026-01-09 23:48:39.68	30.80	18.21	-50.8	-52.4	15.4	0.00e+00	0	23	0	339738624	68	4168
2026-01-09 23:48:40.68	30.88	18.32	-50.7	-52.3	15.4	0.00e+00	0	23	0	341835776	68	4135
2026-01-09 23:48:41.68	30.96	18.44	-50.5	-52.1	15.3	0.00e+00	0	23	0	343932928	67	4274
2026-01-09 23:48:42.68	31.04	18.55	-50.6	-52.2	15.3	0.00e+00	0	23	0	346030080	67	4302
2026-01-09 23:48:43.68	31.12	18.67	-50.5	-52.2	15.3	0.00e+00	0	23	0	347078656	67	4292
2026-01-09 23:48:44.68	31.20	18.79	-50.5	-52.1	15.3	0.00e+00	0	23	0	349175808	67	4244
2026-01-09 23:48:45.68	31.29	18.90	-50.5	-52.1	15.3	0.00e+00	0	23	0	351272960	67	4283
2026-01-09 23:48:46.68	31.37	19.02	-50.5	-52.1	15.3	0.00e+00	0	23	0	353370112	67	4259
2026-01-09 23:48:47.68	31.45	19.14	-50.5	-52.2	15.3	0.00e+00	0	23	0	355467264	67	4294
2026-01-09 23:48:48.68	31.53	19.26	-50.5	-52.1	15.3	0.00e+00	0	23	0	356515840	67	4270
2026-01-09 23:48:49.68	31.62	19.37	-50.6	-52.2	15.2	0.00e+00	0	23	0	358612992	67	4330
2026-01-09 23:48:50.68	31.70	19.49	-50.6	-52.2	15.3	0.00e+00	0	24	0	360710144	67	4325
2026-01-09 23:48:51.68	31.79	19.61	-50.6	-52.3	15.2	0.00e+00	0	23	0	362807296	67	4357
2026-01-09 23:48:52.68	31.88	19.73	-50.7	-52.4	15.2	0.00e+00	0	24	0	364904448	67	4403
2026-01-09 23:48:53.68	31.96	19.86	-50.7	-52.3	15.2	0.00e+00	0	23	0	365953024	67	4359
2026-01-09 23:48:54.68	32.05	19.98	-50.7	-52.4	15.2	0.00e+00	0	23	0	368050176	67	4413
2026-01-09 23:48:55.67	32.14	20.10	-50.7	-52.4	15.2	0.00e+00	0	23	0	370147328	67	4403
2026-01-09 23:48:56.67	32.23	20.22	-50.7	-52.4	15.1	0.00e+00	0	23	0	372244480	67	4419
2026-01-09 23:48:57.67	32.32	20.34	-50.7	-52.4	15.2	0.00e+00	0	23	0	373293056	67	4409
2026-01-09 23:48:58.67	32.41	20.47	-50.7	-52.4	15.2	0.00e+00	0	23	0	375390208	67	4417
2026-01-09 23:48:59.67	32.50	20.59	-50.7	-52.4	15.2	0.00e+00	0	23	0	377487360	67	4401
2026-01-09 23:49:00.66	32.59	20.71	-50.6	-52.2	15.2	0.00e+00	0	23	0	379584512	67	4333
2026-01-09 23:49:01.66	32.68	20.84	-50.6	-52.3	15.2	0.00e+00	0	23	0	381681664	67	4353
2026-01-09 23:49:02.65	32.77	20.96	-50.7	-52.3	15.2	0.00e+00	0	23	0	382730240	67	4373
2026-01-09 23:49:03.65	32.87	21.09	-50.6	-52.2	15.2	0.00e+00	0	23	0	384827392	67	4329
2026-01-09 23:49:04.64	32.96	21.22	-50.5	-52.1	15.3	0.00e+00	0	23	0	386924544	67	4275
2026-01-09 23:49:05.63	33.06	21.34	-50.5	-52.1	15.2	0.00e+00	0	23	0	389021696	67	4291
2026-01-09 23:49:06.64	33.15	21.47	-50.6	-52.2	15.3	0.00e+00	0	23	0	390070272	67	4301
2026-01-09 23:49:07.63	33.25	21.60	-50.5	-52.1	15.3	0.00e+00	0	23	0	392167424	67	4274
2026-01-09 23:49:08.63	33.35	21.73	-50.6	-52.2	15.2	0.00e+00	0	23	0	394264576	67	4302
2026-01-09 23:49:09.62	33.44	21.86	-50.4	-52.0	15.4	0.00e+00	0	23	0	396361728	67	4203
2026-01-09 23:49:10.61	33.54	21.99	-50.4	-51.9	15.4	0.00e+00	0	24	0	398458880	67	4183
2026-01-09 23:49:11.61	33.64	22.12	-50.3	-51.9	15.4	0.00e+00	0	23	0	399507456	67	4146
2026-01-09 23:49:12.61	33.74	22.25	-50.2	-51.7	15.5	0.00e+00	0	23	0	401604608	67	4065
2026-01-09 23:49:13.61	33.84	22.38	-50.2	-51.8	15.3	0.00e+00	0	23	0	403701760	66	4344
2026-01-09 23:49:14.61	33.95	22.51	-50.3	-51.9	15.2	0.00e+00	0	23	0	405798912	66	4405
2026-01-09 23:49:15.60	34.05	22.65	-50.2	-51.8	15.3	0.00e+00	0	23	0	406847488	66	4367
2026-01-09 23:49:16.60	34.15	22.78	-50.3	-51.9	15.2	0.00e+00	0	24	0	408944640	66	4430
2026-01-09 23:49:17.60	34.26	22.91	-50.4	-52.0	15.2	0.00e+00	0	23	0	411041792	66	4464
2026-01-09 23:49:18.61	34.36	23.05	-50.4	-52.0	15.2	0.00e+00	0	23	0	413138944	66	4458
2026-01-09 23:49:19.61	34.47	23.19	-50.5	-52.1	15.2	0.00e+00	0	23	0	415236096	66	4500
2026-01-09 23:49:20.60	34.58	23.32	-50.4	-52.0	15.2	0.00e+00	0	23	0	416284672	66	4472
2026-01-09 23:49:21.59	34.68	23.46	-50.4	-52.0	15.2	0.00e+00	0	23	0	418381824	66	4443
2026-01-09 23:49:22.58	34.79	23.59	-50.3	-51.9	15.3	0.00e+00	0	23	0	420478976	66	4395
2026-01-09 23:49:23.58	34.90	23.73	-50.3	-51.9	15.2	0.00e+00	0	23	0	422576128	66	4406
2026-01-09 23:49:24.59	35.02	23.87	-50.3	-51.8	15.3	0.00e+00	0	23	0	424673280	66	4379
2026-01-09 23:49:25.58	35.13	24.01	-50.3	-51.8	15.3	0.00e+00	0	23	0	425721856	66	4362
2026-01-09 23:49:26.59	35.24	24.15	-50.4	-51.9	15.2	0.00e+00	0	23	0	427819008	66	4434
2026-01-09 23:49:27.59	35.35	24.29	-50.4	-51.9	15.2	0.00e+00	0	23	0	429916160	66	4429
2026-01-09 23:49:28.59	35.47	24.44	-50.5	-52.0	15.2	0.00e+00	0	23	0	432013312	66	4486
2026-01-09 23:49:29.59	35.59	24.58	-50.5	-52.1	15.2	0.00e+00	0	23	0	434110464	66	4528
2026-01-09 23:49:30.59	35.70	24.72	-50.7	-52.3	15.1	0.00e+00	0	23	0	435159040	66	4629
2026-01-09 23:49:31.59	35.82	24.86	-50.8	-52.4	15.0	0.00e+00	0	23	0	437256192	66	4670
2026-01-09 23:49:32.58	35.94	25.01	-51.0	-52.7	15.0	0.00e+00	0	23	0	439353344	67	4560
2026-01-09 23:49:33.58	36.06	25.15	-51.1	-52.8	15.0	0.00e+00	0	24	0	441450496	67	4606
2026-01-09 23:49:34.59	36.18	25.30	-51.1	-52.8	14.9	0.00e+00	0	23	0	442499072	67	4643
2026-01-09 23:49:35.59	36.30	25.45	-51.2	-52.9	14.9	0.00e+00	0	23	0	444596224	67	4705
2026-01-09 23:49:36.59	36.43	25.59	-51.2	-53.0	14.9	0.00e+00	0	23	0	446693376	67	4720
2026-01-09 23:49:37.59	36.55	25.74	-51.4	-53.1	14.8	0.00e+00	0	23	0	448790528	67	4800
2026-01-09 23:49:38.59	36.68	25.89	-51.3	-53.1	14.8	0.00e+00	0	23	0	450887680	67	4768
2026-01-09 23:49:39.59	36.81	26.04	-51.4	-53.2	14.8	0.00e+00	0	24	0	451936256	67	4840
2026-01-09 23:49:40.59	36.93	26.19	-51.5	-53.3	14.9	0.00e+00	0	23	0	454033408	68	4621
2026-01-09 23:49:41.59	37.06	26.34	-51.6	-53.4	14.8	0.00e+00	0	24	0	456130560	68	4700
2026-01-09 23:49:42.58	37.19	26.49	-51.6	-53.4	14.9	0.00e+00	0	24	0	458227712	68	4668
2026-01-09 23:49:43.58	37.32	26.64	-51.7	-53.5	14.8	0.00e+00	0	23	0	460324864	68	4707
2026-01-09 23:49:44.59	37.46	26.79	-51.6	-53.4	14.8	0.00e+00	0	24	0	461373440	68	4696
2026-01-09 23:49:45.58	37.59	26.94	-51.8	-53.6	14.8	0.00e+00	0	23	0	463470592	68	4804
2026-01-09 23:49:46.59	37.73	27.10	-51.8	-53.7	14.7	0.00e+00	0	24	0	465567744	68	4818
2026-01-09 23:49:47.59	37.86	27.25	-51.8	-53.6	14.8	0.00e+00	0	24	0	467664896	68	4784
2026-01-09 23:49:48.59	38.00	27.41	-52.0	-53.9	14.7	0.00e+00	0	23	0	468713472	69	4652
2026-01-09 23:49:49.59	38.14	27.57	-51.9	-53.7	14.9	0.00e+00	0	23	0	470810624	69	4595
2026-01-09 23:49:50.58	38.28	27.72	-51.9	-53.8	14.8	0.00e+00	0	23	0	472907776	69	4614
2026-01-09 23:49:51.59	38.42	27.88	-51.8	-53.7	14.9	0.00e+00	0	23	0	475004928	69	4553
2026-01-09 23:49:52.58	38.56	28.04	-51.8	-53.7	14.9	0.00e+00	0	24	0	477102080	69	4559
2026-01-09 23:49:53.58	38.71	28.20	-51.9	-53.8	14.8	0.00e+00	0	24	0	478150656	69	4613
2026-01-09 23:49:54.58	38.85	28.36	-51.9	-53.7	14.9	0.00e+00	0	23	0	480247808	69	4598
2026-01-09 23:49:55.58	39.00	28.52	-52.0	-53.9	14.8	0.00e+00	0	24	0	482344960	69	4676
2026-01-09 23:49:56.57	39.15	28.68	-52.2	-54.1	14.7	0.00e+00	0	24	0	484442112	69	4782
2026-01-09 23:49:57.58	39.30	28.84	-52.3	-54.3	14.6	0.00e+00	0	24	0	486539264	69	4884
2026-01-09 23:49:58.57	39.45	29.00	-52.5	-54.5	14.6	0.00e+00	0	23	0	487587840	70	4723
2026-01-09 23:49:59.57	39.60	29.16	-52.6	-54.7	14.5	0.00e+00	0	23	0	489684992	70	4832
2026-01-09 23:50:00.56	39.76	29.33	-52.7	-54.8	14.4	0.00e+00	0	23	0	491782144	70	4904
2026-01-09 23:50:01.56	39.91	29.49	-53.0	-55.2	14.4	0.00e+00	0	23	0	493879296	71	4836
2026-01-09 23:50:02.56	40.07	29.66	-53.1	-55.4	14.2	0.00e+00	0	24	0	494927872	71	4947
2026-01-09 23:50:03.57	40.23	29.82	-53.2	-55.5	14.2	0.00e+00	0	23	0	497025024	71	4984
2026-01-09 23:50:04.57	40.39	29.99	-53.3	-55.6	14.1	0.00e+00	0	24	0	499122176	71	5066
2026-01-09 23:50:05.56	40.55	30.16	-53.5	-55.8	14.2	0.00e+00	0	24	0	501219328	72	4905
2026-01-09 23:50:06.55	40.72	30.32	-53.5	-55.9	14.1	0.00e+00	0	23	0	503316480	72	4942
2026-01-09 23:50:07.55	40.88	30.49	-53.6	-56.0	14.1	0.00e+00	0	24	0	504365056	72	5009
2026-01-09 23:50:08.55	41.05	30.66	-53.6	-56.1	14.0	0.00e+00	0	23	0	506462208	72	5048
2026-01-09 23:50:09.55	41.22	30.83	-53.7	-56.2	13.9	0.00e+00	0	24	0	508559360	72	5130
2026-01-09 23:50:10.53	41.39	31.00	-53.6	-56.0	14.0	0.00e+00	0	23	0	510656512	72	5032
2026-01-09 23:50:11.54	41.56	31.18	-53.5	-55.9	14.1	0.00e+00	0	23	0	512753664	72	4941
2026-01-09 23:50:12.54	41.74	31.35	-53.6	-56.0	14.1	0.00e+00	0	23	0	513802240	72	4999
2026-01-09 23:50:13.54	41.91	31.52	-53.4	-55.7	14.2	0.00e+00	0	23	0	515899392	72	4849
2026-01-09 23:50:14.55	42.09	31.70	-53.4	-55.8	14.2	0.00e+00	0	23	0	517996544	72	4877
2026-01-09 23:50:15.55	42.27	31.87	-53.5	-55.8	14.2	0.00e+00	0	23	0	520093696	72	4887
2026-01-09 23:50:16.55	42.46	32.05	-53.6	-55.9	14.1	0.00e+00	0	23	0	521142272	72	4976
2026-01-09 23:50:17.55	42.64	32.23	-53.6	-56.0	14.1	0.00e+00	0	24	0	523239424	72	5019
2026-01-09 23:50:18.55	42.83	32.40	-53.7	-56.2	13.9	0.00e+00	0	23	0	525336576	72	5109
2026-01-09 23:50:19.54	43.01	32.58	-53.8	-56.4	13.8	0.00e+00	0	24	0	527433728	72	5219
2026-01-09 23:50:20.54	43.20	32.76	-53.7	-56.1	14.0	0.00e+00	0	23	0	529530880	72	5098
2026-01-09 23:50:21.54	43.40	32.94	-53.5	-55.9	14.1	0.00e+00	0	23	0	530579456	72	4948
2026-01-09 23:50:22.54	43.59	33.12	-53.5	-55.9	14.1	0.00e+00	0	23	0	532676608	72	4946
2026-01-09 23:50:23.54	43.79	33.30	-53.3	-55.4	14.4	0.00e+00	0	24	0	534773760	72	4703
2026-01-09 23:50:24.54	43.98	33.48	-53.2	-55.3	14.5	0.00e+00	0	23	0	536870912	72	4644
2026-01-09 23:50:25.53	44.18	33.66	-52.9	-55.0	14.7	0.00e+00	0	24	0	538968064	72	4465
2026-01-09 23:50:26.53	44.39	33.85	-52.9	-55.0	14.6	0.00e+00	0	24	0	540016640	72	4484
2026-01-09 23:50:27.52	44.59	34.03	-52.8	-54.9	14.7	0.00e+00	0	24	0	542113792	72	4411
2026-01-09 23:50:28.52	44.80	34.21	-53.0	-55.1	14.6	0.00e+00	0	23	0	544210944	72	4538
2026-01-09 23:50:29.53	45.01	34.40	-52.9	-55.0	14.7	0.00e+00	0	23	0	546308096	72	4454
2026-01-09 23:50:30.54	45.22	34.59	-53.0	-55.1	14.6	0.00e+00	0	23	0	548405248	72	4523
2026-01-09 23:50:31.54	45.44	34.78	-52.8	-54.8	14.8	0.00e+00	0	23	0	549453824	72	4387
2026-01-09 23:50:32.54	45.65	34.96	-52.8	-54.8	14.8	0.00e+00	0	24	0	551550976	72	4389
2026-01-09 23:50:33.55	45.88	35.15	-52.8	-54.8	14.8	0.00e+00	0	24	0	553648128	72	4372
2026-01-09 23:50:34.55	46.10	35.34	-52.4	-54.4	14.9	0.00e+00	0	23	0	555745280	71	4395
2026-01-09 23:50:35.55	46.32	35.53	-52.2	-54.1	15.1	0.00e+00	0	23	0	556793856	71	4244
2026-01-09 23:50:36.55	46.55	35.72	-51.9	-53.8	15.0	0.00e+00	0	23	0	558891008	70	4346
2026-01-09 23:50:37.55	46.78	35.91	-52.0	-53.8	15.0	0.00e+00	0	23	0	560988160	70	4348
2026-01-09 23:50:38.55	47.01	36.10	-51.8	-53.6	15.2	0.00e+00	0	24	0	563085312	70	4251
2026-01-09 23:50:39.55	47.25	36.29	-52.0	-53.8	15.0	0.00e+00	0	24	0	565182464	70	4375
2026-01-09 23:50:40.56	47.49	36.49	-52.0	-53.8	15.0	0.00e+00	0	24	0	566231040	70	4376
2026-01-09 23:50:41.55	47.72	36.68	-52.0	-53.8	15.0	0.00e+00	0	23	0	568328192	70	4378
2026-01-09 23:50:42.56	47.97	36.88	-51.8	-53.6	15.1	0.00e+00	0	24	0	570425344	70	4255
2026-01-09 23:50:43.55	48.21	37.07	-51.7	-53.5	15.2	0.00e+00	0	24	0	572522496	70	4209
2026-01-09 23:50:44.56	48.47	37.27	-51.8	-53.5	15.2	0.00e+00	0	24	0	574619648	70	4230
2026-01-09 23:50:45.55	48.71	37.46	-51.4	-53.1	15.2	0.00e+00	0	23	0	575668224	69	4265
2026-01-09 23:50:46.55	48.97	37.66	-51.3	-53.0	15.3	0.00e+00	0	24	0	577765376	69	4219
2026-01-09 23:50:47.55	49.23	37.85	-51.4	-53.1	15.2	0.00e+00	0	23	0	579862528	69	4268
2026-01-09 23:50:48.55	49.49	38.05	-51.4	-53.1	15.3	0.00e+00	0	23	0	581959680	69	4259
2026-01-09 23:50:49.55	49.75	38.25	-51.3	-53.0	15.3	0.00e+00	0	24	0	583008256	69	4207
2026-01-09 23:50:50.55	50.02	38.45	-51.2	-52.9	15.4	0.00e+00	0	23	0	585105408	69	4167
2026-01-09 23:50:51.55	50.29	38.64	-51.0	-52.7	15.2	0.00e+00	0	24	0	587202560	68	4298
2026-01-09 23:50:52.56	50.57	38.85	-51.0	-52.6	15.3	0.00e+00	0	24	0	589299712	68	4268
2026-01-09 23:50:53.55	50.84	39.04	-50.9	-52.5	15.4	0.00e+00	0	23	0	591396864	68	4218
2026-01-09 23:50:54.55	51.12	39.24	-50.9	-52.5	15.4	0.00e+00	0	24	0	592445440	68	4222
2026-01-09 23:50:55.54	51.40	39.44	-50.9	-52.5	15.4	0.00e+00	0	23	0	594542592	68	4210
2026-01-09 23:50:56.54	51.69	39.64	-50.9	-52.5	15.4	0.00e+00	0	24	0	596639744	68	4227
2026-01-09 23:50:57.54	51.98	39.84	-51.0	-52.6	15.3	0.00e+00	0	24	0	598736896	68	4260
2026-01-09 23:50:58.53	52.27	40.04	-51.1	-52.7	15.3	0.00e+00	0	23	0	600834048	68	4311
2026-01-09 23:50:59.53	52.57	40.24	-51.3	-53.0	15.1	0.00e+00	0	23	0	601882624	68	4489
2026-01-09 23:51:00.53	52.87	40.45	-51.3	-52.9	15.1	0.00e+00	0	23	0	603979776	68	4427
2026-01-09 23:51:01.52	53.18	40.65	-51.2	-52.9	15.2	0.00e+00	0	24	0	606076928	68	4393
2026-01-09 23:51:02.52	53.49	40.85	-51.1	-52.8	15.2	0.00e+00	0	23	0	608174080	68	4342
2026-01-09 23:51:03.52	53.80	41.05	-51.1	-52.7	15.3	0.00e+00	0	23	0	609222656	68	4304
2026-01-09 23:51:04.52	54.12	41.26	-51.0	-52.6	15.3	0.00e+00	0	24	0	611319808	68	4256
2026-01-09 23:51:05.51	54.43	41.46	-51.1	-52.7	15.3	0.00e+00	0	23	0	613416960	68	4296
2026-01-09 23:51:06.51	54.76	41.66	-51.2	-52.9	15.1	0.00e+00	0	24	0	615514112	68	4420
2026-01-09 23:51:07.51	55.09	41.86	-51.4	-53.1	15.0	0.00e+00	0	23	0	617611264	68	4527
2026-01-09 23:51:08.51	55.42	42.07	-51.5	-53.2	15.0	0.00e+00	0	24	0	618659840	68	4579
2026-01-09 23:51:09.51	55.76	42.27	-51.6	-53.4	14.9	0.00e+00	0	23	0	620756992	68	4662
2026-01-09 23:51:10.51	56.10	42.47	-51.6	-53.4	14.9	0.00e+00	0	23	0	622854144	68	4652
2026-01-09 23:51:11.50	56.44	42.68	-51.6	-53.4	14.9	0.00e+00	0	24	0	624951296	68	4663
2026-01-09 23:51:12.51	56.80	42.88	-51.7	-53.5	14.9	0.00e+00	0	24	0	627048448	68	4714
2026-01-09 23:51:13.50	57.15	43.08	-51.7	-53.5	14.9	0.00e+00	0	23	0	628097024	68	4731
2026-01-09 23:51:14.50	57.51	43.29	-51.9	-53.8	14.9	0.00e+00	0	23	0	630194176	69	4610
2026-01-09 23:51:15.49	57.87	43.49	-52.0	-53.9	14.8	0.00e+00	0	23	0	632291328	69	4675
2026-01-09 23:51:16.49	58.23	43.69	-52.2	-54.1	14.7	0.00e+00	0	23	0	634388480	69	4796
2026-01-09 23:51:17.49	58.61	43.89	-52.2	-54.2	14.7	0.00e+00	0	23	0	635437056	69	4815
2026-01-09 23:51:18.49	58.98	44.10	-52.2	-54.1	14.7	0.00e+00	0	23	0	637534208	69	4789
2026-01-09 23:51:19.49	59.37	44.30	-52.2	-54.0	14.7	0.00e+00	0	23	0	639631360	69	4756
2026-01-09 23:51:20.48	59.75	44.50	-52.3	-54.3	14.6	0.00e+00	0	23	0	641728512	69	4886
2026-01-09 23:51:21.48	60.14	44.70	-52.6	-54.6	14.6	0.00e+00	0	23	0	643825664	70	4805
2026-01-09 23:51:22.48	60.54	44.90	-53.1	-55.2	14.4	0.00e+00	0	24	0	644874240	71	4848
2026-01-09 23:51:23.48	60.94	45.10	-53.4	-55.7	14.2	0.00e+00	0	23	0	646971392	71	5120
2026-01-09 23:51:24.48	61.35	45.30	-53.5	-55.9	14.2	0.00e+00	0	23	0	649068544	72	4937
2026-01-09 23:51:25.48	61.76	45.50	-53.5	-55.8	14.2	0.00e+00	0	23	0	651165696	72	4889
2026-01-09 23:51:26.48	62.18	45.70	-53.3	-55.5	14.4	0.00e+00	0	23	0	653262848	72	4758
2026-01-09 23:51:27.47	62.59	45.90	-53.2	-55.4	14.5	0.00e+00	0	24	0	654311424	72	4680
2026-01-09 23:51:28.48	63.03	46.10	-53.5	-55.8	14.2	0.00e+00	0	24	0	656408576	72	4911
2026-01-09 23:51:29.47	63.45	46.29	-53.8	-56.2	13.9	0.00e+00	0	24	0	658505728	72	5159
2026-01-09 23:51:30.47	63.89	46.49	-54.1	-56.7	13.8	0.00e+00	0	24	0	660602880	73	5148
2026-01-09 23:51:31.47	64.34	46.68	-54.0	-56.5	13.9	0.00e+00	0	24	0	661651456	73	5036
2026-01-09 23:51:32.46	64.78	46.88	-53.5	-55.7	14.5	0.00e+00	0	24	0	663748608	73	4571
2026-01-09 23:51:33.46	65.24	47.07	-52.9	-54.9	14.7	0.00e+00	0	24	0	665845760	72	4407
2026-01-09 23:51:34.46	65.70	47.26	-52.5	-54.5	14.8	0.00e+00	0	24	0	667942912	71	4453
2026-01-09 23:51:35.47	66.17	47.46	-52.6	-54.5	14.8	0.00e+00	0	23	0	670040064	71	4463
2026-01-09 23:51:36.46	66.63	47.64	-52.7	-54.7	14.7	0.00e+00	0	24	0	671088640	71	4570
2026-01-09 23:51:37.46	67.11	47.83	-53.0	-55.1	14.6	0.00e+00	0	23	0	673185792	71	4762
2026-01-09 23:51:38.46	67.59	48.02	-53.3	-55.5	14.3	0.00e+00	0	23	0	675282944	71	4994
2026-01-09 23:51:39.45	68.08	48.20	-53.2	-55.4	14.3	0.00e+00	0	23	0	677380096	71	4972
2026-01-09 23:51:40.45	68.57	48.39	-52.9	-54.9	14.5	0.00e+00	0	24	0	678428672	71	4691
2026-01-09 23:51:41.44	69.07	48.57	-52.6	-54.5	14.8	0.00e+00	0	24	0	680525824	71	4486
2026-01-09 23:51:42.44	69.58	48.75	-52.3	-54.2	15.0	0.00e+00	0	24	0	682622976	71	4316
2026-01-09 23:51:43.44	70.09	48.93	-52.2	-54.0	15.1	0.00e+00	0	23	0	684720128	71	4238
2026-01-09 23:51:44.45	70.61	49.11	-52.4	-54.3	14.9	0.00e+00	0	24	0	686817280	71	4366
2026-01-09 23:51:45.44	71.13	49.29	-52.2	-54.0	15.1	0.00e+00	0	24	0	687865856	71	4238
2026-01-09 23:51:46.44	71.66	49.46	-52.3	-54.1	15.0	0.00e+00	0	23	0	689963008	71	4286
2026-01-09 23:51:47.44	72.20	49.63	-52.4	-54.2	15.0	0.00e+00	0	24	0	692060160	71	4335
2026-01-09 23:51:48.43	72.73	49.80	-52.4	-54.3	15.0	0.00e+00	0	23	0	694157312	71	4362
2026-01-09 23:51:49.42	73.28	49.97	-52.3	-54.1	15.0	0.00e+00	0	23	0	696254464	71	4283
2026-01-09 23:51:50.43	73.84	50.14	-52.0	-53.8	15.0	0.00e+00	0	23	0	697303040	70	4382
2026-01-09 23:51:51.42	74.39	50.30	-52.0	-53.8	15.0	0.00e+00	0	24	0	699400192	70	4374
2026-01-09 23:51:52.42	74.96	50.46	-52.0	-53.8	15.0	0.00e+00	0	24	0	701497344	70	4358
2026-01-09 23:51:53.42	75.53	50.62	-51.7	-53.5	15.2	0.00e+00	0	23	0	703594496	70	4197
2026-01-09 23:51:54.42	76.11	50.78	-50.9	-52.4	15.4	0.00e+00	0	23	0	704643072	68	4187
2026-01-09 23:51:55.42	76.69	50.93	-51.0	-52.6	15.3	0.00e+00	0	23	0	706740224	68	4265
2026-01-09 23:51:56.42	77.28	51.09	-51.4	-53.1	15.1	0.00e+00	0	24	0	708837376	68	4514
2026-01-09 23:51:57.42	77.88	51.24	-51.6	-53.4	14.9	0.00e+00	0	23	0	710934528	68	4659
2026-01-09 23:51:58.42	78.48	51.38	-51.7	-53.5	14.9	0.00e+00	0	23	0	713031680	68	4716
2026-01-09 23:51:59.41	79.08	51.52	-51.4	-53.1	15.1	0.00e+00	0	24	0	714080256	68	4502
2026-01-09 23:52:00.42	79.70	51.67	-51.2	-52.8	15.2	0.00e+00	0	24	0	716177408	68	4361
2026-01-09 23:52:01.42	80.32	51.81	-50.7	-52.3	15.5	0.00e+00	0	24	0	718274560	68	4112
2026-01-09 23:52:02.42	80.95	51.94	-50.4	-51.9	15.5	0.00e+00	0	24	0	720371712	67	4179
2026-01-09 23:52:03.41	81.57	52.07	-50.5	-52.0	15.4	0.00e+00	0	23	0	722468864	67	4238
2026-01-09 23:52:04.41	82.21	52.20	-51.1	-52.7	15.1	0.00e+00	0	23	0	723517440	67	4593
2026-01-09 23:52:05.41	82.85	52.32	-51.3	-53.0	14.9	0.00e+00	0	24	0	725614592	67	4749
2026-01-09 23:52:06.42	83.50	52.45	-51.4	-53.1	15.1	0.00e+00	0	24	0	727711744	68	4503
2026-01-09 23:52:07.41	84.15	52.57	-51.1	-52.7	15.3	0.00e+00	0	23	0	729808896	68	4306
2026-01-09 23:52:08.40	84.80	52.68	-50.8	-52.3	15.5	0.00e+00	0	24	0	730857472	68	4122
2026-01-09 23:52:09.41	85.47	52.79	-50.5	-52.0	15.4	0.00e+00	0	24	0	732954624	67	4210
2026-01-09 23:52:10.41	86.14	52.90	-50.4	-51.8	15.5	0.00e+00	0	23	0	735051776	67	4139
2026-01-09 23:52:11.41	86.81	53.00	-50.5	-52.0	15.4	0.00e+00	0	23	0	737148928	67	4213
2026-01-09 23:52:12.40	87.48	53.10	-50.9	-52.5	15.2	0.00e+00	0	24	0	739246080	67	4461
2026-01-09 23:52:13.40	88.16	53.20	-51.1	-52.7	15.1	0.00e+00	0	23	0	740294656	67	4588
2026-01-09 23:52:14.40	88.85	53.29	-51.2	-52.8	15.0	0.00e+00	0	23	0	742391808	67	4644
2026-01-09 23:52:15.40	89.54	53.38	-51.1	-52.7	15.1	0.00e+00	0	23	0	744488960	67	4580
2026-01-09 23:52:16.41	90.24	53.47	-50.9	-52.5	15.2	0.00e+00	0	23	0	746586112	67	4478
2026-01-09 23:52:17.41	90.94	53.55	-50.9	-52.5	15.2	0.00e+00	0	23	0	748683264	67	4442
2026-01-09 23:52:18.40	91.63	53.62	-50.9	-52.5	15.1	0.00e+00	0	23	0	749731840	67	4493
2026-01-09 23:52:19.40	92.34	53.70	-51.3	-53.0	15.0	0.00e+00	0	23	0	751828992	67	4715
2026-01-09 23:52:20.41	93.06	53.77	-51.8	-53.5	14.9	0.00e+00	0	23	0	753926144	68	4740
2026-01-09 23:52:21.41	93.77	53.83	-51.5	-53.3	15.0	0.00e+00	0	23	0	756023296	68	4599
2026-01-09 23:52:22.40	94.48	53.89	-51.3	-52.9	15.2	0.00e+00	0	23	0	758120448	68	4409
2026-01-09 23:52:23.40	95.20	53.94	-51.1	-52.7	15.3	0.00e+00	0	23	0	759169024	68	4334
2026-01-09 23:52:24.40	95.92	53.99	-51.0	-52.6	15.3	0.00e+00	0	23	0	761266176	68	4283
2026-01-09 23:52:25.39	96.63	54.04	-51.1	-52.7	15.3	0.00e+00	0	24	0	763363328	68	4294
2026-01-09 23:52:26.39	97.36	54.08	-50.7	-52.2	15.5	0.00e+00	0	23	0	765460480	68	4094
2026-01-09 23:52:27.39	98.09	54.12	-50.4	-51.9	15.5	0.00e+00	0	23	0	766509056	67	4159
2026-01-09 23:52:28.39	98.82	54.15	-50.6	-52.1	15.4	0.00e+00	0	23	0	768606208	67	4254
2026-01-09 23:52:29.39	99.55	54.18	-50.8	-52.4	15.2	0.00e+00	0	24	0	770703360	67	4417
2026-01-09 23:52:30.39	100.28	54.20	-51.7	-53.5	14.9	0.00e+00	0	24	0	772800512	68	4722
2026-01-09 23:52:31.39	101.01	54.22	-51.8	-53.6	15.0	0.00e+00	0	23	0	774897664	69	4536
2026-01-09 23:52:32.39	101.75	54.24	-51.6	-53.3	15.2	0.00e+00	0	23	0	775946240	69	4349
2026-01-09 23:52:33.39	102.48	54.24	-51.0	-52.6	15.3	0.00e+00	0	23	0	778043392	68	4280
2026-01-09 23:52:34.39	103.22	54.25	-51.1	-52.7	15.3	0.00e+00	0	24	0	780140544	68	4324
2026-01-09 23:52:35.39	103.95	54.25	-51.1	-52.7	15.3	0.00e+00	0	23	0	782237696	68	4321
2026-01-09 23:52:36.39	104.69	54.25	-51.2	-52.9	15.2	0.00e+00	0	24	0	784334848	68	4395
2026-01-09 23:52:37.40	105.43	54.24	-51.1	-52.8	15.2	0.00e+00	0	23	0	785383424	68	4344
2026-01-09 23:52:38.40	106.16	54.22	-51.1	-52.7	15.2	0.00e+00	0	23	0	787480576	68	4328
2026-01-09 23:52:39.40	106.90	54.20	-50.8	-52.4	15.5	0.00e+00	0	23	0	789577728	68	4170
2026-01-09 23:52:40.40	107.63	54.18	-50.8	-52.4	15.5	0.00e+00	0	23	0	791674880	68	4150
2026-01-09 23:52:41.41	108.37	54.15	-50.3	-51.8	15.5	0.00e+00	0	23	0	792723456	67	4138
2026-01-09 23:52:42.41	109.10	54.12	-50.1	-51.5	15.5	0.00e+00	0	24	0	794820608	66	4233
2026-01-09 23:52:43.41	109.83	54.08	-49.8	-51.2	15.6	0.00e+00	0	23	0	796917760	66	4085
2026-01-09 23:52:44.41	110.55	54.04	-49.8	-51.2	15.6	0.00e+00	0	24	0	799014912	66	4086
2026-01-09 23:52:45.41	111.28	54.00	-49.8	-51.2	15.7	0.00e+00	0	24	0	801112064	66	4081
2026-01-09 23:52:46.41	112.00	53.95	-49.5	-50.9	15.6	0.00e+00	0	24	0	802160640	65	4155
2026-01-09 23:52:47.40	112.71	53.89	-49.4	-50.8	15.7	0.00e+00	0	24	0	804257792	65	4109
2026-01-09 23:52:48.40	113.42	53.83	-49.7	-51.1	15.5	0.00e+00	0	23	0	806354944	65	4281
2026-01-09 23:52:49.40	114.14	53.77	-50.1	-51.5	15.3	0.00e+00	0	24	0	808452096	65	4486
2026-01-09 23:52:50.40	114.85	53.70	-50.3	-51.8	15.1	0.00e+00	0	23	0	810549248	65	4633
2026-01-09 23:52:51.40	115.55	53.63	-50.8	-52.4	15.0	0.00e+00	0	23	0	811597824	66	4671
2026-01-09 23:52:52.40	116.26	53.55	-51.2	-52.8	15.0	0.00e+00	0	23	0	813694976	67	4651
2026-01-09 23:52:53.40	116.96	53.47	-51.0	-52.6	15.1	0.00e+00	0	24	0	815792128	67	4532
2026-01-09 23:52:54.40	117.65	53.39	-50.9	-52.5	15.2	0.00e+00	0	24	0	817889280	67	4468
2026-01-09 23:52:55.40	118.34	53.30	-50.9	-52.5	15.2	0.00e+00	0	24	0	819986432	67	4478
2026-01-09 23:52:56.40	119.03	53.21	-50.7	-52.3	15.3	0.00e+00	0	24	0	821035008	67	4352
2026-01-09 23:52:57.40	119.71	53.11	-50.5	-52.0	15.4	0.00e+00	0	23	0	823132160	67	4221
2026-01-09 23:52:58.40	120.39	53.01	-50.1	-51.6	15.4	0.00e+00	0	23	0	825229312	66	4260
2026-01-09 23:52:59.39	121.06	52.91	-50.3	-51.8	15.3	0.00e+00	0	23	0	827326464	66	4384
2026-01-09 23:53:00.39	121.73	52.80	-50.5	-52.0	15.2	0.00e+00	0	24	0	828375040	66	4463
2026-01-09 23:53:01.38	122.38	52.69	-50.8	-52.3	15.1	0.00e+00	0	23	0	830472192	66	4651
2026-01-09 23:53:02.37	123.04	52.58	-50.7	-52.2	15.1	0.00e+00	0	23	0	832569344	66	4593
2026-01-09 23:53:03.36	123.68	52.46	-50.7	-52.2	15.1	0.00e+00	0	23	0	834666496	66	4591
2026-01-09 23:53:04.35	124.32	52.34	-50.5	-52.0	15.3	0.00e+00	0	24	0	836763648	66	4473
2026-01-09 23:53:05.35	124.97	52.21	-50.5	-52.0	15.3	0.00e+00	0	24	0	837812224	66	4475
2026-01-09 23:53:06.34	125.60	52.09	-50.6	-52.1	15.2	0.00e+00	0	23	0	839909376	66	4543
2026-01-09 23:53:07.34	126.23	51.95	-50.6	-52.2	15.2	0.00e+00	0	23	0	842006528	66	4548
2026-01-09 23:53:08.33	126.85	51.82	-50.6	-52.2	15.2	0.00e+00	0	23	0	844103680	66	4569
2026-01-09 23:53:09.32	127.47	51.68	-50.3	-51.8	15.3	0.00e+00	0	23	0	845152256	66	4375
2026-01-09 23:53:10.33	128.09	51.54	-50.0	-51.4	15.5	0.00e+00	0	24	0	847249408	66	4186
2026-01-09 23:53:11.33	128.70	51.40	-50.4	-51.9	15.3	0.00e+00	0	24	0	849346560	66	4404
2026-01-09 23:53:12.32	129.30	51.25	-50.9	-52.5	15.0	0.00e+00	0	23	0	851443712	66	4721
2026-01-09 23:53:13.32	129.89	51.10	-51.2	-52.9	15.0	0.00e+00	0	23	0	853540864	67	4693
2026-01-09 23:53:14.32	130.49	50.95	-51.1	-52.8	15.0	0.00e+00	0	23	0	854589440	67	4619
2026-01-09 23:53:15.32	131.07	50.80	-51.4	-53.1	14.9	0.00e+00	0	23	0	856686592	67	4768
2026-01-09 23:53:16.33	131.66	50.64	-52.5	-54.5	14.7	0.00e+00	0	23	0	858783744	70	4738
2026-01-09 23:53:17.33	132.23	50.48	-53.7	-56.1	14.1	0.00e+00	0	23	0	860880896	72	5062
2026-01-09 23:53:18.33	132.80	50.32	-54.1	-56.7	13.8	0.00e+00	0	23	0	862978048	73	5135
2026-01-09 23:53:19.33	133.36	50.15	-53.8	-56.1	14.2	0.00e+00	0	23	0	864026624	73	4807
2026-01-09 23:53:20.32	133.91	49.99	-53.7	-56.1	14.2	0.00e+00	0	23	0	866123776	73	4794
2026-01-09 23:53:21.32	134.46	49.82	-54.8	-57.7	13.3	0.00e+00	0	23	0	868220928	74	5428
2026-01-09 23:53:22.32	135.00	49.65	-56.6	-61.1	11.3	6.80e-06	0	24	0	870318080	78	6395
2026-01-09 23:53:23.32	135.54	49.47	-56.8	-61.8	10.7	6.37e-04	0	23	0	871366656	79	6497
2026-01-09 23:53:24.31	136.07	49.30	-56.0	-59.7	12.4	1.06e-05	0	23	0	873463808	78	5430
2026-01-09 23:53:25.31	136.59	49.12	-55.5	-58.8	12.9	0.00e+00	0	23	0	875560960	77	5211
2026-01-09 23:53:26.31	137.11	48.94	-55.3	-58.5	13.1	7.00e-07	0	23	0	877658112	77	5002
2026-01-09 23:53:27.31	137.63	48.76	-56.0	-59.7	12.2	0.00e+00	0	23	0	879755264	77	5777
2026-01-09 23:53:28.31	138.14	48.58	-56.8	-61.5	10.9	9.30e-05	0	23	0	880803840	78	6672
2026-01-09 23:53:29.31	138.64	48.40	-56.5	-61.0	11.4	4.35e-04	0	24	0	882900992	78	6283
2026-01-09 23:53:30.31	139.13	48.21	-55.6	-59.0	12.9	1.22e-05	0	24	0	884998144	77	5282
2026-01-09 23:53:31.31	139.62	48.03	-54.1	-56.6	14.0	0.00e+00	0	24	0	887095296	74	4808
2026-01-09 23:53:32.31	140.11	47.84	-53.5	-55.7	14.5	0.00e+00	0	23	0	889192448	73	4563
2026-01-09 23:53:33.31	140.59	47.65	-54.2	-56.7	13.8	0.00e+00	0	23	0	890241024	73	5139
2026-01-09 23:53:34.31	141.06	47.46	-55.3	-58.7	12.8	0.00e+00	0	23	0	892338176	75	5732
2026-01-09 23:53:35.31	141.53	47.27	-55.2	-58.4	13.1	0.00e+00	0	24	0	894435328	76	5227
2026-01-09 23:53:36.31	141.99	47.08	-54.3	-56.8	14.1	0.00e+00	0	23	0	896532480	75	4646
2026-01-09 23:53:37.31	142.45	46.88	-53.8	-56.2	14.3	0.00e+00	0	24	0	897581056	74	4556
2026-01-09 23:53:38.31	142.90	46.69	-53.8	-56.1	14.4	0.00e+00	0	24	0	899678208	74	4505
2026-01-09 23:53:39.32	143.35	46.49	-54.5	-57.3	13.6	0.00e+00	0	24	0	901775360	74	5178
2026-01-09 23:53:40.31	143.78	46.30	-56.0	-59.9	12.2	0.00e+00	0	24	0	903872512	77	5891
2026-01-09 23:53:41.31	144.21	46.10	-55.8	-59.5	12.4	3.00e-06	0	23	0	905969664	77	5620
2026-01-09 23:53:42.30	144.64	45.90	-54.1	-56.6	14.1	0.00e+00	0	24	0	907018240	74	4769
2026-01-09 23:53:43.31	145.07	45.70	-52.4	-54.2	14.9	0.00e+00	0	23	0	909115392	71	4327
2026-01-09 23:53:44.31	145.49	45.50	-52.0	-53.8	15.0	0.00e+00	0	24	0	911212544	70	4345
2026-01-09 23:53:45.30	145.89	45.30	-52.8	-54.8	14.5	0.00e+00	0	24	0	913309696	70	4896
2026-01-09 23:53:46.29	146.30	45.10	-54.1	-56.7	13.8	0.00e+00	0	23	0	915406848	73	5134
2026-01-09 23:53:47.29	146.70	44.90	-54.8	-57.8	13.2	0.00e+00	0	23	0	916455424	74	5513
2026-01-09 23:53:48.30	147.10	44.70	-54.3	-57.0	13.8	0.00e+00	0	23	0	918552576	74	4995
2026-01-09 23:53:49.30	147.50	44.50	-53.4	-55.7	14.4	0.00e+00	0	24	0	920649728	73	4555
2026-01-09 23:53:50.30	147.88	44.29	-52.8	-54.8	14.8	0.00e+00	0	23	0	922746880	72	4386
2026-01-09 23:53:51.29	148.26	44.09	-52.8	-54.7	14.9	0.00e+00	0	23	0	923795456	72	4328
2026-01-09 23:53:52.30	148.65	43.89	-53.1	-55.2	14.6	0.00e+00	0	23	0	925892608	72	4547
2026-01-09 23:53:53.30	149.02	43.68	-54.5	-57.3	13.6	0.00e+00	0	23	0	927989760	74	5213
2026-01-09 23:53:54.30	149.39	43.48	-55.4	-58.9	12.7	0.00e+00	0	23	0	930086912	75	5885
2026-01-09 23:53:55.29	149.75	43.28	-55.3	-58.5	13.0	7.00e-07	0	23	0	932184064	76	5314
2026-01-09 23:53:56.30	150.11	43.07	-54.0	-56.5	14.1	0.00e+00	0	24	0	933232640	74	4714
2026-01-09 23:53:57.29	150.46	42.87	-53.1	-55.2	14.6	0.00e+00	0	24	0	935329792	72	4568
2026-01-09 23:53:58.29	150.81	42.67	-53.4	-55.7	14.3	0.00e+00	0	23	0	937426944	72	4816
2026-01-09 23:53:59.29	151.16	42.46	-55.0	-57.5	13.5	0.00e+00	0	24	0	939524096	74	5284
2026-01-09 23:54:00.29	151.50	42.26	-56.1	-60.0	12.0	7.00e-07	0	24	0	941621248	77	5979
2026-01-09 23:54:01.29	151.84	42.05	-57.0	-62.2	10.4	2.14e-04	0	24	0	942669824	79	6844
2026-01-09 23:54:02.29	152.18	41.85	-56.9	-62.0	10.6	1.19e-03	0	24	0	944766976	79	6659
2026-01-09 23:54:03.28	152.50	41.65	-56.0	-59.8	12.2	4.50e-05	0	23	0	946864128	78	5488
2026-01-09 23:54:04.28	152.83	41.44	-55.1	-58.0	13.3	7.00e-07	0	24	0	948961280	76	5040
2026-01-09 23:54:05.27	153.15	41.24	-54.2	-56.7	14.1	0.00e+00	0	24	0	950009856	75	4582
2026-01-09 23:54:06.27	153.46	41.04	-54.2	-56.8	13.9	0.00e+00	0	24	0	952107008	74	4902
2026-01-09 23:54:07.26	153.77	40.83	-54.8	-57.8	13.2	0.00e+00	0	24	0	954204160	74	5480
2026-01-09 23:54:08.26	154.08	40.63	-56.1	-60.1	12.0	7.00e-07	0	23	0	956301312	77	6002
2026-01-09 23:54:09.26	154.39	40.43	-56.1	-60.2	11.8	1.90e-05	0	23	0	958398464	77	6098
2026-01-09 23:54:10.25	154.69	40.23	-55.3	-58.4	13.2	7.00e-07	0	24	0	959447040	77	4979
2026-01-09 23:54:11.25	154.99	40.02	-54.7	-57.4	13.8	0.00e+00	0	23	0	961544192	76	4704
2026-01-09 23:54:12.25	155.28	39.82	-53.9	-56.4	14.1	0.00e+00	0	23	0	963641344	74	4657
2026-01-09 23:54:13.25	155.58	39.62	-54.1	-56.6	14.0	0.00e+00	0	23	0	965738496	74	4792
2026-01-09 23:54:14.24	155.86	39.42	-54.4	-57.1	13.7	0.00e+00	0	24	0	967835648	74	5064
2026-01-09 23:54:15.24	156.15	39.22	-54.6	-57.4	13.5	0.00e+00	0	23	0	968884224	74	5269
2026-01-09 23:54:16.23	156.42	39.02	-54.6	-57.4	13.5	0.00e+00	0	24	0	970981376	74	5237
2026-01-09 23:54:17.22	156.70	38.82	-54.8	-57.7	13.3	0.00e+00	0	24	0	973078528	74	5416
2026-01-09 23:54:18.22	156.97	38.62	-55.1	-58.3	13.0	0.00e+00	0	24	0	975175680	75	5472
2026-01-09 23:54:19.22	157.25	38.42	-54.9	-57.9	13.3	0.00e+00	0	24	0	976224256	75	5248
2026-01-09 23:54:20.22	157.51	38.22	-54.3	-57.0	13.8	0.00e+00	0	23	0	978321408	75	4737
2026-01-09 23:54:21.23	157.78	38.02	-53.7	-56.0	14.4	0.00e+00	0	24	0	980418560	74	4468
2026-01-09 23:54:22.23	158.04	37.83	-53.5	-55.8	14.3	0.00e+00	0	24	0	982515712	73	4615
2026-01-09 23:54:23.24	158.30	37.63	-53.8	-56.3	14.1	0.00e+00	0	24	0	984612864	73	4877
2026-01-09 23:54:24.23	158.56	37.43	-54.8	-57.8	13.2	0.00e+00	0	24	0	985661440	74	5475
2026-01-09 23:54:25.24	158.81	37.23	-55.2	-58.5	12.8	0.00e+00	0	24	0	987758592	75	5655
2026-01-09 23:54:26.24	159.06	37.04	-55.0	-58.2	13.0	7.00e-07	0	24	0	989855744	75	5412
2026-01-09 23:54:27.23	159.30	36.84	-54.5	-57.2	13.7	0.00e+00	0	23	0	991952896	75	4849
2026-01-09 23:54:28.24	159.55	36.65	-53.9	-56.3	14.2	0.00e+00	0	23	0	994050048	74	4621
2026-01-09 23:54:29.24	159.79	36.45	-53.5	-55.8	14.3	0.00e+00	0	24	0	995098624	73	4626
2026-01-09 23:54:30.25	160.03	36.26	-53.0	-55.1	14.6	0.00e+00	0	24	0	997195776	72	4532
2026-01-09 23:54:31.25	160.27	36.07	-53.1	-55.2	14.6	0.00e+00	0	24	0	999292928	72	4558
2026-01-09 23:54:32.25	160.50	35.87	-53.5	-55.8	14.2	0.00e+00	0	23	0	1001390080	72	4872
2026-01-09 23:54:33.25	160.73	35.68	-54.0	-56.6	13.8	0.00e+00	0	24	0	1002438656	73	5079
2026-01-09 23:54:34.26	160.96	35.49	-54.7	-57.7	13.3	0.00e+00	0	23	0	1004535808	74	5412
2026-01-09 23:54:35.25	161.18	35.30	-54.7	-57.7	13.3	0.00e+00	0	24	0	1006632960	74	5429
2026-01-09 23:54:36.24	161.40	35.11	-53.9	-56.4	14.1	0.00e+00	0	24	0	1008730112	74	4670
2026-01-09 23:54:37.25	161.62	34.92	-52.7	-54.7	14.8	0.00e+00	0	24	0	1010827264	72	4338
2026-01-09 23:54:38.24	161.84	34.74	-51.8	-53.6	15.1	0.00e+00	0	24	0	1011875840	70	4269
2026-01-09 23:54:39.24	162.05	34.55	-51.5	-53.2	15.1	0.00e+00	0	24	0	1013972992	69	4337
2026-01-09 23:54:40.24	162.27	34.36	-51.6	-53.3	15.1	0.00e+00	0	23	0	1016070144	69	4377
2026-01-09 23:54:41.24	162.48	34.18	-52.1	-53.9	14.8	0.00e+00	0	23	0	1018167296	69	4684
2026-01-09 23:54:42.25	162.69	33.99	-52.7	-54.8	14.5	0.00e+00	0	23	0	1020264448	70	4899
2026-01-09 23:54:43.24	162.89	33.81	-53.6	-56.1	14.0	0.00e+00	0	23	0	1021313024	72	5072
2026-01-09 23:54:44.24	163.09	33.62	-54.2	-57.0	13.6	0.00e+00	0	24	0	1023410176	73	5287
2026-01-09 23:54:45.24	163.29	33.44	-54.1	-56.9	13.7	0.00e+00	0	24	0	1025507328	73	5219
2026-01-09 23:54:46.24	163.49	33.26	-53.8	-56.3	14.0	0.00e+00	0	24	0	1027604480	73	4916
2026-01-09 23:54:47.23	163.69	33.08	-53.1	-55.3	14.5	0.00e+00	0	23	0	1029701632	72	4617
2026-01-09 23:54:48.23	163.88	32.89	-53.0	-55.1	14.6	0.00e+00	0	24	0	1030750208	72	4544
2026-01-09 23:54:49.24	164.08	32.71	-52.8	-54.9	14.8	0.00e+00	0	24	0	1032847360	72	4393
2026-01-09 23:54:50.24	164.27	32.53	-52.4	-54.3	14.9	0.00e+00	0	23	0	1034944512	71	4372
2026-01-09 23:54:51.23	164.45	32.36	-52.5	-54.4	14.8	0.00e+00	0	23	0	1037041664	71	4437
2026-01-09 23:54:52.23	164.64	32.18	-52.7	-54.7	14.7	0.00e+00	0	23	0	1038090240	71	4575
2026-01-09 23:54:53.23	164.82	32.00	-53.1	-55.3	14.3	0.00e+00	0	24	0	1040187392	71	4922
2026-01-09 23:54:54.22	165.00	31.82	-53.4	-55.7	14.1	0.00e+00	0	24	0	1042284544	71	5137
2026-01-09 23:54:55.22	165.19	31.65	-53.9	-56.5	13.8	0.00e+00	0	23	0	1044381696	72	5316
2026-01-09 23:54:56.22	165.36	31.47	-54.2	-56.9	13.7	0.00e+00	0	24	0	1046478848	73	5226
2026-01-09 23:54:57.22	165.54	31.30	-54.1	-56.8	13.7	0.00e+00	0	24	0	1047527424	73	5213
2026-01-09 23:54:58.22	165.72	31.13	-54.3	-57.1	13.5	0.00e+00	0	24	0	1049624576	73	5397
2026-01-09 23:54:59.22	165.89	30.95	-54.2	-56.9	13.6	0.00e+00	0	23	0	1051721728	73	5251
2026-01-09 23:55:00.22	166.06	30.78	-54.2	-56.9	13.6	0.00e+00	0	24	0	1053818880	73	5249
2026-01-09 23:55:01.21	166.23	30.61	-54.0	-56.6	13.8	0.00e+00	0	24	0	1054867456	73	5054
2026-01-09 23:55:02.21	166.40	30.44	-53.8	-56.3	14.0	0.00e+00	0	24	0	1056964608	73	4910
2026-01-09 23:55:03.20	166.56	30.27	-53.8	-56.3	14.0	0.00e+00	0	23	0	1059061760	73	4900
2026-01-09 23:55:04.20	166.72	30.10	-53.8	-56.3	14.0	0.00e+00	0	24	0	1061158912	73	4911
2026-01-09 23:55:05.19	166.89	29.94	-53.6	-56.0	14.2	0.00e+00	0	23	0	1063256064	73	4723
2026-01-09 23:55:06.19	167.05	29.77	-53.2	-55.4	14.6	0.00e+00	0	23	0	1064304640	73	4394
2026-01-09 23:55:07.19	167.21	29.60	-53.2	-55.4	14.4	0.00e+00	0	24	0	1066401792	72	4658
2026-01-09 23:55:08.19	167.36	29.43	-53.0	-55.1	14.6	0.00e+00	0	24	0	1068498944	72	4534
2026-01-09 23:55:09.18	167.52	29.27	-52.9	-54.9	14.7	0.00e+00	0	24	0	1070596096	72	4438
2026-01-09 23:55:10.17	167.67	29.11	-53.0	-55.2	14.5	0.00e+00	0	23	0	1071644672	72	4570
2026-01-09 23:55:11.17	167.83	28.94	-53.0	-55.2	14.6	0.00e+00	0	24	0	1073741824	72	4548
2026-01-09 23:55:12.16	167.98	28.78	-53.1	-55.3	14.4	0.00e+00	0	23	0	1075838976	72	4643
2026-01-09 23:55:13.16	168.13	28.62	-53.4	-55.7	14.2	0.00e+00	0	24	0	1077936128	72	4863
2026-01-09 23:55:14.16	168.27	28.46	-53.4	-55.8	14.2	0.00e+00	0	24	0	1080033280	72	4880
2026-01-09 23:55:15.16	168.42	28.30	-53.4	-55.8	14.2	0.00e+00	0	24	0	1081081856	72	4895
2026-01-09 23:55:16.16	168.57	28.14	-53.4	-55.7	14.2	0.00e+00	0	24	0	1083179008	72	4849
2026-01-09 23:55:17.15	168.71	27.98	-53.3	-55.6	14.3	0.00e+00	0	23	0	1085276160	72	4795
2026-01-09 23:55:18.15	168.85	27.82	-53.0	-55.2	14.5	0.00e+00	0	24	0	1087373312	72	4551
2026-01-09 23:55:19.14	169.00	27.66	-52.7	-54.8	14.8	0.00e+00	0	24	0	1089470464	72	4346
2026-01-09 23:55:20.14	169.14	27.51	-52.6	-54.6	14.7	0.00e+00	0	23	0	1090519040	71	4495
2026-01-09 23:55:21.15	169.28	27.35	-52.5	-54.4	14.8	0.00e+00	0	24	0	1092616192	71	4435
2026-01-09 23:55:22.15	169.41	27.19	-52.6	-54.6	14.7	0.00e+00	0	24	0	1094713344	71	4508
2026-01-09 23:55:23.14	169.55	27.04	-52.6	-54.7	14.6	0.00e+00	0	24	0	1096810496	71	4568
2026-01-09 23:55:24.15	169.69	26.88	-53.0	-55.2	14.4	0.00e+00	0	24	0	1098907648	71	4820
2026-01-09 23:55:25.15	169.82	26.73	-53.3	-55.6	14.1	0.00e+00	0	24	0	1099956224	71	5096
2026-01-09 23:55:26.14	169.95	26.58	-53.5	-55.9	14.0	0.00e+00	0	24	0	1102053376	72	4941
2026-01-09 23:55:27.14	170.08	26.42	-53.6	-56.1	14.0	0.00e+00	0	23	0	1104150528	72	5044
2026-01-09 23:55:28.14	170.21	26.27	-53.6	-56.1	13.9	0.00e+00	0	24	0	1106247680	72	5074
2026-01-09 23:55:29.14	170.34	26.12	-53.6	-56.1	14.0	0.00e+00	0	24	0	1107296256	72	5051
2026-01-09 23:55:30.14	170.47	25.97	-53.7	-56.2	13.9	0.00e+00	0	24	0	1109393408	72	5128
2026-01-09 23:55:31.13	170.60	25.82	-53.5	-55.9	14.1	0.00e+00	0	23	0	1111490560	72	4960
2026-01-09 23:55:32.13	170.72	25.67	-53.4	-55.8	14.1	0.00e+00	0	23	0	1113587712	72	4889
2026-01-09 23:55:33.12	170.85	25.53	-53.4	-55.7	14.2	0.00e+00	0	24	0	1115684864	72	4833
2026-01-09 23:55:34.12	170.97	25.38	-53.5	-55.8	14.1	0.00e+00	0	23	0	1116733440	72	4922
2026-01-09 23:55:35.12	171.09	25.23	-53.4	-55.7	14.2	0.00e+00	0	24	0	1118830592	72	4848
2026-01-09 23:55:36.12	171.21	25.09	-53.1	-55.3	14.4	0.00e+00	0	24	0	1120927744	72	4611
2026-01-09 23:55:37.11	171.33	24.94	-52.9	-55.1	14.6	0.00e+00	0	24	0	1123024896	72	4499
2026-01-09 23:55:38.10	171.45	24.80	-52.8	-54.8	14.7	0.00e+00	0	24	0	1124073472	72	4389
2026-01-09 23:55:39.10	171.57	24.65	-52.6	-54.6	14.7	0.00e+00	0	24	0	1126170624	71	4522
2026-01-09 23:55:40.10	171.68	24.51	-52.5	-54.5	14.7	0.00e+00	0	24	0	1128267776	71	4469
2026-01-09 23:55:41.09	171.80	24.37	-52.1	-54.0	14.8	0.00e+00	0	24	0	1130364928	70	4458
2026-01-09 23:55:42.09	171.91	24.23	-52.0	-53.9	14.9	0.00e+00	0	24	0	1132462080	70	4406
2026-01-09 23:55:43.08	172.03	24.09	-52.1	-54.0	14.8	0.00e+00	0	23	0	1133510656	70	4449
2026-01-09 23:55:44.08	172.14	23.95	-52.1	-54.0	14.8	0.00e+00	0	23	0	1135607808	70	4476
2026-01-09 23:55:45.08	172.25	23.81	-52.3	-54.2	14.7	0.00e+00	0	24	0	1137704960	70	4580
2026-01-09 23:55:46.07	172.36	23.67	-52.4	-54.4	14.6	0.00e+00	0	23	0	1139802112	70	4694
2026-01-09 23:55:47.07	172.47	23.53	-52.6	-54.7	14.4	0.00e+00	0	24	0	1140850688	70	4868
2026-01-09 23:55:48.07	172.58	23.39	-52.8	-55.0	14.3	0.00e+00	0	24	0	1142947840	70	5019
2026-01-09 23:55:49.06	172.69	23.25	-53.0	-55.3	14.3	0.00e+00	0	24	0	1145044992	71	4908
2026-01-09 23:55:50.06	172.80	23.12	-53.0	-55.3	14.3	0.00e+00	0	24	0	1147142144	71	4908
2026-01-09 23:55:51.05	172.90	22.98	-53.1	-55.3	14.2	0.00e+00	0	23	0	1149239296	71	4919
2026-01-09 23:55:52.04	173.01	22.85	-53.0	-55.3	14.2	0.00e+00	0	24	0	1150287872	71	4907
2026-01-09 23:55:53.04	173.11	22.71	-52.9	-55.1	14.4	0.00e+00	0	23	0	1152385024	71	4802
2026-01-09 23:55:54.05	173.22	22.58	-52.7	-54.8	14.5	0.00e+00	0	24	0	1154482176	71	4619
2026-01-09 23:55:55.05	173.32	22.44	-52.4	-54.4	14.8	0.00e+00	0	24	0	1156579328	71	4409
2026-01-09 23:55:56.06	173.42	22.31	-52.2	-54.1	14.9	0.00e+00	0	24	0	1158676480	71	4282
2026-01-09 23:55:57.06	173.53	22.17	-52.1	-53.9	14.8	0.00e+00	0	23	0	1159725056	70	4441
2026-01-09 23:55:58.06	173.63	22.04	-51.8	-53.6	15.0	0.00e+00	0	24	0	1161822208	70	4285
2026-01-09 23:55:59.06	173.73	21.91	-51.6	-53.4	15.0	0.00e+00	0	24	0	1163919360	69	4416
2026-01-09 23:56:00.05	173.82	21.78	-51.6	-53.4	15.0	0.00e+00	0	24	0	1166016512	69	4426
2026-01-09 23:56:01.05	173.92	21.65	-51.7	-53.5	15.0	0.00e+00	0	23	0	1167065088	69	4453
2026-01-09 23:56:02.05	174.02	21.52	-51.7	-53.6	14.9	0.00e+00	0	24	0	1169162240	69	4504
2026-01-09 23:56:03.05	174.12	21.39	-51.7	-53.6	14.9	0.00e+00	0	24	0	1171259392	69	4498
2026-01-09 23:56:04.05	174.21	21.26	-51.8	-53.7	14.8	0.00e+00	0	23	0	1173356544	69	4573
2026-01-09 23:56:05.05	174.31	21.14	-51.9	-53.7	14.8	0.00e+00	0	24	0	1175453696	69	4580
2026-01-09 23:56:06.05	174.40	21.01	-51.8	-53.7	14.8	0.00e+00	0	24	0	1176502272	69	4574
2026-01-09 23:56:07.05	174.49	20.88	-51.9	-53.8	14.8	0.00e+00	0	24	0	1178599424	69	4630
2026-01-09 23:56:08.05	174.59	20.75	-51.9	-53.8	14.8	0.00e+00	0	23	0	1180696576	69	4637
2026-01-09 23:56:09.05	174.68	20.63	-51.9	-53.8	14.8	0.00e+00	0	24	0	1182793728	69	4631
2026-01-09 23:56:10.04	174.77	20.50	-51.9	-53.8	14.8	0.00e+00	0	23	0	1184890880	69	4636
2026-01-09 23:56:11.03	174.86	20.38	-51.8	-53.7	14.8	0.00e+00	0	24	0	1185939456	69	4560
2026-01-09 23:56:12.03	174.95	20.26	-51.7	-53.5	14.9	0.00e+00	0	24	0	1188036608	69	4492
2026-01-09 23:56:13.04	175.04	20.13	-51.6	-53.4	14.9	0.00e+00	0	24	0	1190133760	69	4435
2026-01-09 23:56:14.03	175.13	20.01	-51.6	-53.4	15.0	0.00e+00	0	24	0	1192230912	69	4404
2026-01-09 23:56:15.03	175.22	19.89	-51.6	-53.4	15.0	0.00e+00	0	24	0	1194328064	69	4427
2026-01-09 23:56:16.04	175.30	19.76	-51.4	-53.2	15.1	0.00e+00	0	24	0	1195376640	69	4318
2026-01-09 23:56:17.03	175.39	19.64	-51.3	-53.0	15.2	0.00e+00	0	24	0	1197473792	69	4206
2026-01-09 23:56:18.02	175.48	19.53	-51.3	-53.0	15.2	0.00e+00	0	24	0	1199570944	69	4203
2026-01-09 23:56:19.03	175.56	19.40	-51.3	-53.0	15.2	0.00e+00	0	24	0	1201668096	69	4211
2026-01-09 23:56:20.03	175.65	19.28	-51.1	-52.8	15.1	0.00e+00	0	24	0	1202716672	68	4372
2026-01-09 23:56:21.02	175.73	19.17	-51.1	-52.8	15.1	0.00e+00	0	24	0	1204813824	68	4376
2026-01-09 23:56:22.02	175.81	19.05	-51.0	-52.7	15.2	0.00e+00	0	24	0	1206910976	68	4323
2026-01-09 23:56:23.02	175.90	18.93	-51.0	-52.7	15.2	0.00e+00	0	24	0	1209008128	68	4302
2026-01-09 23:56:24.03	175.98	18.81	-51.0	-52.7	15.1	0.00e+00	0	24	0	1211105280	68	4331
2026-01-09 23:56:25.02	176.06	18.69	-51.1	-52.8	15.1	0.00e+00	0	24	0	1212153856	68	4381
2026-01-09 23:56:26.03	176.14	18.58	-51.1	-52.9	15.1	0.00e+00	0	24	0	1214251008	68	4397
2026-01-09 23:56:27.03	176.22	18.46	-51.4	-53.1	15.0	0.00e+00	0	24	0	1216348160	68	4523
2026-01-09 23:56:28.03	176.30	18.34	-51.2	-53.0	15.0	0.00e+00	0	23	0	1218445312	68	4451
2026-01-09 23:56:29.02	176.38	18.23	-51.2	-53.0	15.0	0.00e+00	0	24	0	1219493888	68	4449
2026-01-09 23:56:30.02	176.46	18.11	-51.2	-52.9	15.1	0.00e+00	0	23	0	1221591040	68	4440
2026-01-09 23:56:31.02	176.54	18.00	-51.2	-53.0	15.0	0.00e+00	0	23	0	1223688192	68	4455
2026-01-09 23:56:32.02	176.62	17.89	-51.4	-53.1	14.9	0.00e+00	0	24	0	1225785344	68	4537
2026-01-09 23:56:33.02	176.69	17.77	-51.5	-53.3	14.8	0.00e+00	0	24	0	1227882496	68	4603
2026-01-09 23:56:34.02	176.77	17.66	-51.5	-53.4	14.8	0.00e+00	0	24	0	1228931072	68	4661
2026-01-09 23:56:35.02	176.85	17.55	-51.5	-53.3	14.8	0.00e+00	0	24	0	1231028224	68	4644
2026-01-09 23:56:36.03	176.92	17.43	-51.5	-53.4	14.8	0.00e+00	0	24	0	1233125376	68	4672
2026-01-09 23:56:37.03	177.00	17.32	-51.7	-53.6	14.7	0.00e+00	0	23	0	1235222528	68	4772
2026-01-09 23:56:38.03	177.07	17.21	-51.7	-53.6	14.7	0.00e+00	0	24	0	1237319680	68	4782
2026-01-09 23:56:39.03	177.15	17.10	-51.7	-53.6	14.7	0.00e+00	0	24	0	1238368256	68	4806
2026-01-09 23:56:40.03	177.22	16.99	-51.6	-53.5	14.7	0.00e+00	0	24	0	1240465408	68	4745
2026-01-09 23:56:41.03	177.29	16.88	-51.6	-53.5	14.8	0.00e+00	0	23	0	1242562560	68	4739
2026-01-09 23:56:42.04	177.37	16.77	-51.6	-53.5	14.7	0.00e+00	0	24	0	1244659712	68	4734
2026-01-09 23:56:43.05	177.44	16.66	-51.5	-53.3	14.9	0.00e+00	0	24	0	1246756864	68	4617
2026-01-09 23:56:44.04	177.51	16.55	-51.5	-53.4	14.8	0.00e+00	0	24	0	1247805440	68	4665
2026-01-09 23:56:45.05	177.58	16.45	-51.5	-53.4	14.8	0.00e+00	0	23	0	1249902592	68	4671
2026-01-09 23:56:46.05	177.65	16.34	-51.4	-53.2	14.9	0.00e+00	0	23	0	1251999744	68	4548
2026-01-09 23:56:47.05	177.72	16.23	-51.3	-53.1	15.0	0.00e+00	0	24	0	1254096896	68	4509
2026-01-09 23:56:48.05	177.79	16.12	-51.3	-53.1	15.0	0.00e+00	0	24	0	1256194048	68	4505
2026-01-09 23:56:49.05	177.86	16.02	-51.2	-52.9	15.0	0.00e+00	0	23	0	1257242624	68	4420
2026-01-09 23:56:50.05	177.93	15.91	-51.2	-52.9	15.1	0.00e+00	0	23	0	1259339776	68	4420
2026-01-09 23:56:51.05	178.00	15.81	-51.1	-52.9	15.1	0.00e+00	0	23	0	1261436928	68	4409
2026-01-09 23:56:52.05	178.06	15.70	-51.3	-53.1	14.9	0.00e+00	0	24	0	1263534080	68	4505
