passes_logs/2026/01/09/R3.2S_Murmansk/R3.2S_Murmansk__20260109_050128_AQUA_rec.log

#Pass ID: 20260109_050128_AQUA
#Satellite: AQUA
#Configuration: AQUA
#almurnet v.1.7.20251203
#Start time: 2026-01-09 05:01:28

#Version: 2.2.20231116
#Station: R3.2S_Murmansk
#Location: 33.079688 lon 68.888172 lat
#TLE: 1 27424U 02022A   26004.96787593  .00001598  00000+0  32997-3 0  9996
#TLE: 2 27424  98.4069 331.2279 0002002  90.2377   0.6092 14.61798176259425

#Time	Az	El	Level	Level2	SNR	BER	BlckErr	Temp	State	Recorded	gain1	gain2
2026-01-09 05:01:28.33	37.21	1.98	-56.7	-76.0	3.8	7.48e-01	0	22	0	0	82	32773
2026-01-09 05:01:29.32	37.14	2.04	-56.6	-75.9	3.8	7.46e-01	0	22	104	0	80	36135
2026-01-09 05:01:30.32	37.08	2.10	-56.6	-75.9	3.8	7.47e-01	0	22	104	0	80	36126
2026-01-09 05:01:31.32	37.01	2.16	-56.6	-75.9	3.8	7.48e-01	0	22	104	0	80	36373
2026-01-09 05:01:32.31	36.94	2.22	-56.6	-75.9	3.8	7.47e-01	0	22	104	0	80	36387
2026-01-09 05:01:33.32	36.88	2.28	-56.6	-75.9	3.8	7.44e-01	0	22	104	0	80	36442
2026-01-09 05:01:34.31	36.81	2.34	-56.6	-75.9	3.8	7.48e-01	0	22	104	0	80	36445
2026-01-09 05:01:35.32	36.74	2.40	-56.6	-75.9	3.8	7.47e-01	0	22	104	0	80	36302
2026-01-09 05:01:36.31	36.67	2.46	-56.6	-75.8	3.8	7.46e-01	0	22	104	0	80	36024
2026-01-09 05:01:37.31	36.61	2.52	-56.6	-75.8	3.8	7.45e-01	0	22	104	0	80	36008
2026-01-09 05:01:38.31	36.54	2.58	-56.6	-75.8	3.8	7.46e-01	0	22	104	0	80	35697
2026-01-09 05:01:39.30	36.47	2.64	-56.6	-75.9	3.8	7.47e-01	0	22	104	0	80	36157
2026-01-09 05:01:40.30	36.40	2.70	-56.6	-75.7	3.8	7.48e-01	0	22	104	0	80	35496
2026-01-09 05:01:41.30	36.33	2.76	-56.6	-75.8	3.8	7.46e-01	0	22	104	0	80	35719
2026-01-09 05:01:42.30	36.26	2.82	-56.6	-75.7	3.8	7.46e-01	0	22	104	0	80	35631
2026-01-09 05:01:43.29	36.19	2.88	-56.6	-75.7	3.8	7.44e-01	0	22	104	0	80	35574
2026-01-09 05:01:44.29	36.12	2.95	-56.6	-75.7	3.8	7.47e-01	0	22	104	0	80	35397
2026-01-09 05:01:45.30	36.05	3.01	-56.6	-75.7	3.8	7.46e-01	0	22	104	0	80	35361
2026-01-09 05:01:46.30	35.98	3.07	-56.6	-75.7	3.8	7.45e-01	0	22	104	0	80	35353
2026-01-09 05:01:47.30	35.91	3.13	-56.6	-75.8	3.8	7.45e-01	0	22	104	0	80	36011
2026-01-09 05:01:48.31	35.84	3.19	-56.6	-75.8	3.8	7.49e-01	0	22	104	0	80	35963
2026-01-09 05:01:49.31	35.76	3.26	-56.6	-75.9	3.8	7.47e-01	0	22	104	0	80	36321
2026-01-09 05:01:50.31	35.69	3.32	-56.6	-75.9	3.8	7.47e-01	0	22	104	0	80	36447
2026-01-09 05:01:51.29	35.62	3.38	-56.6	-75.9	3.8	7.49e-01	0	22	104	0	80	36389
2026-01-09 05:01:52.30	35.55	3.44	-56.6	-75.8	3.8	7.47e-01	0	22	104	0	80	35790
2026-01-09 05:01:53.30	35.47	3.50	-56.6	-75.7	3.8	7.48e-01	0	22	104	0	80	35497
2026-01-09 05:01:54.30	35.40	3.57	-56.6	-75.5	3.8	7.43e-01	0	22	104	0	80	34739
2026-01-09 05:01:55.30	35.32	3.63	-56.6	-75.6	3.8	7.46e-01	0	22	104	0	80	34971
2026-01-09 05:01:56.29	35.25	3.69	-56.6	-75.8	3.8	7.43e-01	0	22	104	0	80	35823
2026-01-09 05:01:57.30	35.17	3.75	-56.6	-75.7	3.8	7.47e-01	0	22	104	0	80	35661
2026-01-09 05:01:58.30	35.10	3.82	-56.6	-75.7	3.8	7.44e-01	0	22	104	0	80	35672
2026-01-09 05:01:59.30	35.02	3.88	-56.6	-75.5	3.8	7.47e-01	0	22	104	0	80	34803
2026-01-09 05:02:00.29	34.95	3.94	-56.6	-75.1	3.8	7.45e-01	0	22	104	0	80	32945
2026-01-09 05:02:01.29	34.87	4.01	-56.6	-74.9	3.8	7.45e-01	0	23	104	0	80	32492
2026-01-09 05:02:02.28	34.79	4.07	-56.6	-74.6	3.8	7.44e-01	0	23	104	0	80	31186
2026-01-09 05:02:03.29	34.72	4.13	-56.6	-75.0	3.8	7.43e-01	0	23	104	0	80	32768
2026-01-09 05:02:04.29	34.64	4.20	-56.6	-75.3	3.8	7.46e-01	0	22	104	0	80	33847
2026-01-09 05:02:05.29	34.56	4.26	-56.6	-75.7	3.8	7.47e-01	0	23	104	0	80	35435
2026-01-09 05:02:06.29	34.48	4.32	-56.6	-75.9	3.8	7.47e-01	0	23	104	0	80	36138
2026-01-09 05:02:07.30	34.40	4.39	-56.6	-75.2	3.8	7.47e-01	0	23	104	0	80	33462
2026-01-09 05:02:08.30	34.32	4.45	-56.6	-73.7	3.9	7.48e-01	0	23	104	0	80	28185
2026-01-09 05:02:09.30	34.24	4.52	-56.5	-70.6	4.8	7.15e-01	0	23	104	0	80	19727
2026-01-09 05:02:10.31	34.16	4.58	-56.4	-68.8	5.9	6.84e-01	35	23	0	0	80	16001
2026-01-09 05:02:11.31	34.08	4.65	-56.2	-66.8	7.4	6.53e-01	92	23	0	2097152	80	12692
2026-01-09 05:02:12.30	34.00	4.71	-56.1	-65.3	8.6	6.31e-01	0	23	0	3670016	80	10768
2026-01-09 05:02:13.30	33.92	4.78	-55.9	-64.3	9.6	6.24e-01	0	23	0	5767168	80	9500
2026-01-09 05:02:14.31	33.84	4.84	-55.6	-63.0	10.8	6.12e-01	0	23	0	7340032	80	8184
2026-01-09 05:02:15.31	33.76	4.91	-55.5	-62.3	11.3	6.09e-01	0	23	0	9437184	80	7594
2026-01-09 05:02:16.31	33.67	4.97	-55.4	-61.9	11.7	6.06e-01	0	23	0	11534336	80	7206
2026-01-09 05:02:17.31	33.59	5.04	-55.1	-60.8	12.3	6.05e-01	0	23	0	13107200	79	6790
2026-01-09 05:02:18.31	33.51	5.10	-55.6	-62.1	11.4	6.08e-01	0	23	0	15204352	79	7857
2026-01-09 05:02:19.31	33.42	5.17	-54.0	-58.0	14.2	6.02e-01	0	23	0	16777216	76	5842
2026-01-09 05:02:20.31	33.34	5.23	-56.3	-68.1	5.6	6.86e-01	52	23	104	17825792	80	14874
2026-01-09 05:02:21.31	33.25	5.30	-55.8	-62.5	10.6	6.08e-01	0	23	0	19398656	80	7782
2026-01-09 05:02:22.31	33.17	5.37	-52.9	-56.1	14.8	6.02e-01	0	23	0	20971520	74	5237
2026-01-09 05:02:23.32	33.08	5.43	-52.6	-55.6	15.0	6.02e-01	0	23	0	23068672	74	4964
2026-01-09 05:02:24.32	33.00	5.50	-51.8	-54.4	15.3	6.00e-01	0	23	0	24641536	72	4828
2026-01-09 05:02:25.32	32.91	5.56	-51.3	-53.6	15.5	6.01e-01	0	23	0	26738688	71	4698
2026-01-09 05:02:26.32	32.82	5.63	-50.7	-52.9	15.6	6.02e-01	0	23	0	28835840	70	4583
2026-01-09 05:02:27.32	32.74	5.70	-50.5	-52.6	15.8	6.02e-01	0	23	0	30408704	70	4408
2026-01-09 05:02:28.31	32.65	5.76	-50.6	-52.7	15.8	6.02e-01	0	23	0	32505856	70	4479
2026-01-09 05:02:29.31	32.56	5.83	-50.2	-52.3	15.8	6.01e-01	0	23	0	34078720	69	4498
2026-01-09 05:02:30.30	32.47	5.90	-50.5	-52.6	15.6	5.99e-01	0	23	0	36175872	69	4654
2026-01-09 05:02:31.29	32.38	5.96	-50.4	-52.5	15.7	5.99e-01	0	23	0	37748736	69	4636
2026-01-09 05:02:32.30	32.29	6.03	-50.3	-52.3	15.7	6.02e-01	0	23	0	39845888	69	4519
2026-01-09 05:02:33.29	32.20	6.10	-50.4	-52.5	15.7	5.98e-01	0	23	0	41418752	69	4616
2026-01-09 05:02:34.29	32.11	6.16	-50.4	-52.5	15.6	5.99e-01	0	23	0	43515904	69	4646
2026-01-09 05:02:35.28	32.02	6.23	-50.5	-52.6	15.6	5.99e-01	0	23	0	45613056	69	4685
2026-01-09 05:02:36.27	31.93	6.30	-50.4	-52.5	15.7	6.02e-01	0	23	0	47185920	69	4619
2026-01-09 05:02:37.26	31.84	6.37	-50.3	-52.4	15.7	6.01e-01	0	23	0	49283072	69	4566
2026-01-09 05:02:38.26	31.75	6.43	-50.3	-52.3	15.7	6.01e-01	0	23	0	50855936	69	4523
2026-01-09 05:02:39.26	31.66	6.50	-50.3	-52.3	15.7	6.01e-01	0	23	0	52953088	69	4511
2026-01-09 05:02:40.26	31.56	6.57	-50.3	-52.3	15.7	6.00e-01	0	23	0	54525952	69	4535
2026-01-09 05:02:41.26	31.47	6.64	-50.3	-52.4	15.7	6.01e-01	0	23	0	56623104	69	4551
2026-01-09 05:02:42.25	31.38	6.71	-50.3	-52.3	15.7	6.03e-01	0	23	0	58195968	69	4507
2026-01-09 05:02:43.24	31.28	6.77	-50.4	-52.4	15.7	6.02e-01	0	23	0	60293120	69	4583
2026-01-09 05:02:44.24	31.19	6.84	-50.2	-52.2	15.8	6.00e-01	0	23	0	62390272	69	4445
2026-01-09 05:02:45.23	31.09	6.91	-50.2	-52.2	15.8	6.02e-01	0	23	0	63963136	69	4470
2026-01-09 05:02:46.23	30.99	6.98	-50.0	-52.0	15.9	6.01e-01	0	23	0	66060288	69	4374
2026-01-09 05:02:47.23	30.90	7.05	-50.1	-52.0	15.9	6.04e-01	0	23	0	67633152	69	4384
2026-01-09 05:02:48.22	30.80	7.12	-50.1	-52.1	15.9	6.00e-01	0	23	0	69730304	69	4413
2026-01-09 05:02:49.23	30.70	7.19	-49.9	-51.8	16.0	6.03e-01	0	23	0	71303168	69	4289
2026-01-09 05:02:50.23	30.60	7.26	-50.1	-52.0	15.9	5.99e-01	0	23	0	73400320	69	4381
2026-01-09 05:02:51.23	30.50	7.33	-50.0	-51.9	15.9	6.00e-01	0	23	0	75497472	69	4313
2026-01-09 05:02:52.23	30.40	7.40	-50.1	-52.1	15.9	6.00e-01	0	23	0	77070336	69	4407
2026-01-09 05:02:53.23	30.30	7.47	-50.0	-51.9	16.0	5.99e-01	0	23	0	79167488	69	4329
2026-01-09 05:02:54.23	30.20	7.54	-50.0	-51.9	16.0	6.02e-01	0	23	0	80740352	69	4318
2026-01-09 05:02:55.23	30.10	7.61	-49.8	-51.7	15.8	6.01e-01	0	23	0	82837504	68	4475
2026-01-09 05:02:56.23	30.00	7.68	-49.8	-51.7	15.8	6.03e-01	0	23	0	84934656	68	4455
2026-01-09 05:02:57.23	29.90	7.75	-49.9	-51.8	15.8	6.02e-01	0	23	0	86507520	68	4501
2026-01-09 05:02:58.23	29.80	7.82	-49.9	-51.8	15.8	6.03e-01	0	23	0	88604672	68	4537
2026-01-09 05:02:59.24	29.69	7.89	-49.8	-51.7	15.8	6.02e-01	0	23	0	90177536	68	4451
2026-01-09 05:03:00.23	29.59	7.96	-49.8	-51.7	15.8	6.03e-01	0	23	0	92274688	68	4454
2026-01-09 05:03:01.22	29.48	8.03	-49.8	-51.7	15.8	6.02e-01	0	23	0	93847552	68	4473
2026-01-09 05:03:02.22	29.38	8.10	-49.8	-51.7	15.8	6.05e-01	0	23	0	95944704	68	4461
2026-01-09 05:03:03.22	29.27	8.17	-49.7	-51.6	15.9	6.02e-01	0	23	0	98041856	68	4424
2026-01-09 05:03:04.22	29.17	8.24	-49.6	-51.5	15.9	6.04e-01	0	23	0	99614720	68	4359
2026-01-09 05:03:05.22	29.06	8.31	-49.6	-51.5	15.9	6.00e-01	0	23	0	101711872	68	4342
2026-01-09 05:03:06.22	28.95	8.39	-49.6	-51.4	15.9	6.02e-01	0	23	0	103284736	68	4327
2026-01-09 05:03:07.21	28.84	8.46	-49.6	-51.4	16.0	6.02e-01	0	23	0	105381888	68	4316
2026-01-09 05:03:08.22	28.74	8.53	-49.6	-51.4	16.0	6.03e-01	0	23	0	106954752	68	4326
2026-01-09 05:03:09.22	28.63	8.60	-49.5	-51.3	16.0	6.01e-01	0	23	0	109051904	68	4290
2026-01-09 05:03:10.22	28.52	8.67	-49.5	-51.3	16.0	6.00e-01	0	23	0	110624768	68	4283
2026-01-09 05:03:11.21	28.41	8.75	-49.5	-51.3	16.0	6.03e-01	0	23	0	112721920	68	4251
2026-01-09 05:03:12.21	28.30	8.82	-49.5	-51.3	16.0	6.03e-01	0	23	0	114819072	68	4267
2026-01-09 05:03:13.21	28.18	8.89	-49.3	-51.1	15.9	6.01e-01	0	23	0	116391936	67	4438
2026-01-09 05:03:14.20	28.07	8.96	-49.4	-51.2	15.8	6.03e-01	0	23	0	118489088	67	4489
2026-01-09 05:03:15.20	27.96	9.03	-49.3	-51.1	15.9	6.03e-01	0	23	0	120061952	67	4423
2026-01-09 05:03:16.20	27.85	9.11	-49.3	-51.2	15.9	6.02e-01	0	23	0	122159104	67	4443
2026-01-09 05:03:17.19	27.73	9.18	-49.5	-51.3	15.8	6.04e-01	0	23	0	123731968	67	4508
2026-01-09 05:03:18.20	27.62	9.25	-49.5	-51.3	15.8	6.04e-01	0	23	0	125829120	67	4516
2026-01-09 05:03:19.19	27.50	9.33	-49.5	-51.3	15.8	6.01e-01	0	23	0	127926272	67	4512
2026-01-09 05:03:20.19	27.39	9.40	-49.4	-51.2	15.8	6.01e-01	0	23	0	129499136	67	4484
2026-01-09 05:03:21.19	27.27	9.47	-49.5	-51.3	15.8	6.00e-01	0	23	0	131596288	67	4502
2026-01-09 05:03:22.19	27.15	9.55	-49.7	-59.1	12.1	6.02e-01	2	23	0	133169152	67	11135
2026-01-09 05:03:23.19	27.03	9.62	-49.8	-61.2	3.9	7.45e-01	0	23	104	133169152	67	14115
2026-01-09 05:03:24.18	26.91	9.70	-49.7	-61.2	3.8	7.47e-01	0	23	104	133169152	67	14186
2026-01-09 05:03:25.17	26.80	9.77	-49.8	-61.4	3.8	7.47e-01	0	23	104	133169152	67	14448
2026-01-09 05:03:26.16	26.68	9.84	-53.0	-65.4	3.8	7.46e-01	0	23	104	133169152	73	16251
2026-01-09 05:03:27.16	26.56	9.92	-57.2	-75.4	3.8	7.43e-01	0	24	104	133169152	82	30470
2026-01-09 05:03:28.16	26.44	9.99	-56.6	-72.5	3.9	7.44e-01	0	23	104	133169152	81	23231
2026-01-09 05:03:29.15	26.31	10.07	-52.2	-64.0	3.9	7.46e-01	0	23	104	133169152	73	13884
2026-01-09 05:03:30.14	26.19	10.14	-52.0	-63.9	3.8	7.41e-01	0	23	104	133169152	73	13601
2026-01-09 05:03:31.14	26.07	10.21	-51.8	-63.7	3.8	7.38e-01	0	23	104	133169152	72	14082
2026-01-09 05:03:32.13	25.95	10.29	-51.7	-63.5	3.8	7.47e-01	0	23	104	133169152	72	13730
2026-01-09 05:03:33.12	25.82	10.36	-53.2	-65.6	3.9	7.40e-01	0	23	104	133169152	74	15606
2026-01-09 05:03:34.13	25.69	10.44	-53.2	-65.5	3.7	7.50e-01	0	23	104	133169152	74	15439
2026-01-09 05:03:35.12	25.57	10.51	-57.2	-75.1	3.9	7.44e-01	0	23	104	133169152	82	29624
2026-01-09 05:03:36.12	25.44	10.59	-56.8	-73.1	3.8	7.43e-01	0	23	104	133169152	81	24762
2026-01-09 05:03:37.13	25.31	10.67	-51.2	-62.7	4.0	7.40e-01	0	23	104	133169152	71	13303
2026-01-09 05:03:38.12	25.19	10.74	-51.1	-62.7	3.7	7.49e-01	0	23	104	133169152	71	13356
2026-01-09 05:03:39.12	25.06	10.82	-50.7	-62.2	3.8	7.47e-01	0	23	104	133169152	70	13297
2026-01-09 05:03:40.12	24.93	10.89	-50.4	-61.9	3.7	7.57e-01	0	23	104	133169152	69	13641
2026-01-09 05:03:41.11	24.80	10.97	-51.5	-63.2	3.8	7.48e-01	0	23	104	133169152	70	14904
2026-01-09 05:03:42.11	24.66	11.04	-52.7	-64.9	3.8	7.46e-01	0	23	104	133169152	73	15268
2026-01-09 05:03:43.11	24.53	11.12	-57.3	-75.5	3.8	7.41e-01	0	23	104	133169152	82	30846
2026-01-09 05:03:44.11	24.40	11.20	-56.9	-73.4	3.8	7.46e-01	0	23	104	133169152	81	25847
2026-01-09 05:03:45.11	24.26	11.27	-50.8	-62.4	3.8	7.43e-01	0	23	104	133169152	70	13634
2026-01-09 05:03:46.11	24.13	11.35	-50.8	-62.4	3.8	7.47e-01	0	23	104	133169152	70	13679
2026-01-09 05:03:47.11	23.99	11.43	-50.2	-61.7	3.8	7.46e-01	0	23	104	133169152	69	13356
2026-01-09 05:03:48.11	23.86	11.51	-50.4	-62.0	3.8	7.48e-01	0	23	104	133169152	69	13808
2026-01-09 05:03:49.11	23.72	11.58	-50.3	-61.8	3.8	7.46e-01	0	24	104	133169152	69	13509
2026-01-09 05:03:50.10	23.58	11.66	-55.0	-68.4	3.8	7.45e-01	0	23	104	133169152	77	18204
2026-01-09 05:03:51.10	23.45	11.74	-56.5	-72.1	3.8	7.47e-01	0	23	104	133169152	80	23353
2026-01-09 05:03:52.09	23.31	11.81	-52.5	-64.4	3.8	7.44e-01	0	23	104	133169152	74	13680
2026-01-09 05:03:53.09	23.17	11.89	-57.3	-75.5	3.8	7.46e-01	0	23	104	133169152	82	30911
2026-01-09 05:03:54.09	23.03	11.97	-52.7	-64.8	3.8	7.45e-01	0	23	104	133169152	74	14301
2026-01-09 05:03:55.09	22.88	12.05	-52.5	-64.5	3.8	7.43e-01	0	23	104	133169152	74	13883
2026-01-09 05:03:56.09	22.74	12.12	-51.6	-63.4	3.8	7.44e-01	0	23	104	133169152	72	13621
2026-01-09 05:03:57.09	22.60	12.20	-57.4	-75.2	3.9	7.46e-01	0	23	104	133169152	82	29967
2026-01-09 05:03:58.09	22.45	12.28	-52.7	-64.8	3.8	7.43e-01	0	23	104	133169152	74	14246
2026-01-09 05:03:59.09	22.31	12.36	-57.4	-75.5	3.8	7.45e-01	0	23	104	133169152	82	31043
2026-01-09 05:04:00.08	22.16	12.44	-57.0	-73.6	3.8	7.44e-01	0	24	104	133169152	81	26196
2026-01-09 05:04:01.09	22.02	12.52	-50.7	-62.3	3.8	7.46e-01	0	23	104	133169152	70	13443
2026-01-09 05:04:02.08	21.87	12.59	-50.7	-62.3	3.8	7.45e-01	0	23	104	133169152	70	13509
2026-01-09 05:04:03.07	21.72	12.67	-50.2	-61.7	3.8	7.47e-01	0	23	104	133169152	69	13357
2026-01-09 05:04:04.07	21.57	12.75	-50.1	-61.6	3.8	7.47e-01	0	23	104	133169152	69	13174
2026-01-09 05:04:05.07	21.42	12.83	-49.6	-61.1	3.9	7.44e-01	0	23	104	133169152	68	13141
2026-01-09 05:04:06.07	21.27	12.91	-52.8	-64.9	3.8	7.44e-01	0	24	104	133169152	73	15394
2026-01-09 05:04:07.07	21.12	12.99	-57.4	-75.6	3.8	7.45e-01	0	24	104	133169152	82	31225
2026-01-09 05:04:08.07	20.96	13.07	-57.2	-74.0	3.9	7.45e-01	0	23	104	133169152	82	26072
2026-01-09 05:04:09.07	20.81	13.15	-50.5	-62.0	3.8	7.47e-01	0	23	104	133169152	70	12990
2026-01-09 05:04:10.07	20.66	13.22	-50.5	-62.0	3.8	7.45e-01	0	23	104	133169152	70	12976
2026-01-09 05:04:11.07	20.50	13.30	-50.0	-61.4	3.8	7.45e-01	0	24	104	133169152	69	12900
2026-01-09 05:04:12.05	20.35	13.38	-49.5	-60.9	3.8	7.47e-01	0	24	104	133169152	68	12856
2026-01-09 05:04:13.06	20.19	13.46	-49.5	-60.8	3.8	7.47e-01	0	24	104	133169152	68	12773
2026-01-09 05:04:14.07	20.03	13.54	-52.7	-64.9	3.8	7.42e-01	0	23	104	133169152	73	15260
2026-01-09 05:04:15.06	19.87	13.62	-57.4	-75.5	3.8	7.45e-01	0	23	104	133169152	82	30829
2026-01-09 05:04:16.07	19.71	13.70	-57.2	-73.9	3.8	7.43e-01	0	24	104	133169152	82	25595
2026-01-09 05:04:17.07	19.54	13.78	-50.9	-62.5	3.8	7.45e-01	0	24	104	133169152	70	13755
2026-01-09 05:04:18.07	19.38	13.86	-50.8	-62.4	3.8	7.46e-01	0	24	104	133169152	70	13588
2026-01-09 05:04:19.07	19.22	13.94	-50.4	-61.8	3.8	7.45e-01	0	24	104	133169152	70	12802
2026-01-09 05:04:20.07	19.05	14.02	-49.9	-61.2	3.8	7.48e-01	0	23	104	133169152	68	13406
2026-01-09 05:04:21.07	18.89	14.10	-50.4	-62.0	3.8	7.47e-01	0	24	104	133169152	68	14617
2026-01-09 05:04:22.07	18.72	14.18	-52.6	-64.6	3.8	7.45e-01	0	24	104	133169152	73	14837
2026-01-09 05:04:23.07	18.56	14.26	-57.5	-75.7	3.8	7.42e-01	0	24	104	133169152	82	31578
2026-01-09 05:04:24.05	18.39	14.34	-57.3	-74.1	3.8	7.46e-01	0	24	104	133169152	82	26179
2026-01-09 05:04:25.06	18.22	14.42	-50.2	-61.7	3.8	7.46e-01	0	23	104	133169152	69	13335
2026-01-09 05:04:26.06	18.05	14.50	-50.2	-61.7	3.8	7.46e-01	0	24	104	133169152	69	13410
2026-01-09 05:04:27.05	17.88	14.58	-49.8	-61.2	3.8	7.44e-01	0	24	104	133169152	68	13385
2026-01-09 05:04:28.05	17.71	14.66	-49.4	-60.7	3.8	7.47e-01	0	24	104	133169152	68	12565
2026-01-09 05:04:29.04	17.54	14.74	-49.3	-60.6	3.8	7.45e-01	0	23	104	133169152	67	13171
2026-01-09 05:04:30.05	17.36	14.83	-52.7	-64.8	3.8	7.48e-01	0	24	104	133169152	73	15108
2026-01-09 05:04:31.04	17.19	14.91	-57.5	-75.4	3.8	7.46e-01	0	24	104	133169152	82	30437
2026-01-09 05:04:32.04	17.01	14.99	-57.2	-73.7	3.8	7.44e-01	0	24	104	133169152	82	25006
2026-01-09 05:04:33.03	16.83	15.07	-50.6	-62.1	3.8	7.48e-01	0	24	104	133169152	70	13194
2026-01-09 05:04:34.04	16.65	15.15	-50.6	-62.2	3.8	7.46e-01	0	24	104	133169152	70	13340
2026-01-09 05:04:35.03	16.48	15.23	-50.2	-61.7	3.8	7.45e-01	0	24	104	133169152	69	13393
2026-01-09 05:04:36.02	16.30	15.31	-50.0	-61.5	3.8	7.46e-01	0	23	104	133169152	68	13787
2026-01-09 05:04:37.02	16.12	15.39	-50.5	-62.1	3.8	7.47e-01	0	23	104	133169152	68	14779
2026-01-09 05:04:38.01	15.94	15.47	-54.5	-67.4	3.8	7.47e-01	0	24	104	133169152	76	17212
2026-01-09 05:04:39.01	15.75	15.55	-56.7	-72.0	3.9	7.45e-01	0	24	104	133169152	81	21898
2026-01-09 05:04:40.01	15.57	15.63	-50.9	-62.5	3.8	7.44e-01	0	24	104	133169152	71	12964
2026-01-09 05:04:41.01	15.38	15.71	-57.4	-75.0	3.8	7.47e-01	0	24	104	133169152	82	29055
2026-01-09 05:04:42.01	15.19	15.79	-51.0	-62.6	3.9	7.44e-01	0	24	104	133169152	71	13130
2026-01-09 05:04:43.00	15.01	15.87	-50.5	-62.0	3.8	7.45e-01	0	24	104	133169152	70	13070
2026-01-09 05:04:44.00	14.82	15.95	-50.0	-61.4	3.8	7.45e-01	0	23	104	133169152	69	12912
2026-01-09 05:04:45.00	14.63	16.03	-57.0	-73.1	3.8	7.48e-01	0	24	104	133169152	81	24720
2026-01-09 05:04:46.00	14.44	16.11	-52.8	-64.6	3.8	7.45e-01	0	24	104	133169152	74	13897
2026-01-09 05:04:47.00	14.24	16.20	-57.5	-75.3	3.8	7.45e-01	0	24	104	133169152	82	30376
2026-01-09 05:04:48.00	14.05	16.28	-57.3	-73.8	3.8	7.43e-01	0	24	104	133169152	82	25523
2026-01-09 05:04:49.00	13.86	16.36	-50.5	-61.9	3.8	7.45e-01	0	24	104	133169152	70	12953
2026-01-09 05:04:50.00	13.66	16.44	-50.5	-62.0	3.8	7.47e-01	0	24	104	133169152	70	13012
2026-01-09 05:04:51.00	13.46	16.52	-50.5	-62.0	3.8	7.43e-01	0	24	104	133169152	69	13790
2026-01-09 05:04:52.00	13.26	16.60	-49.9	-61.3	3.8	7.46e-01	0	24	104	133169152	69	12698
2026-01-09 05:04:52.99	13.07	16.68	-49.7	-61.1	3.8	7.44e-01	0	24	104	133169152	68	13140
2026-01-09 05:04:53.99	12.87	16.76	-54.5	-67.4	3.8	7.45e-01	0	24	104	133169152	76	17097
2026-01-09 05:04:54.98	12.67	16.84	-56.8	-72.5	3.8	7.47e-01	0	24	104	133169152	81	23049
2026-01-09 05:04:55.98	12.46	16.92	-51.0	-62.7	3.8	7.45e-01	0	24	104	133169152	71	13293
2026-01-09 05:04:56.99	12.26	17.00	-57.5	-74.8	3.8	7.46e-01	0	24	104	133169152	82	28636
2026-01-09 05:04:57.98	12.05	17.08	-51.0	-62.5	3.8	7.46e-01	0	23	104	133169152	71	13082
2026-01-09 05:04:58.99	11.85	17.16	-50.8	-62.4	3.8	7.43e-01	0	24	104	133169152	70	13643
2026-01-09 05:05:00.00	11.64	17.24	-50.3	-61.7	3.8	7.46e-01	0	24	104	133169152	69	13308
2026-01-09 05:05:01.00	11.43	17.32	-55.4	-69.0	3.8	7.49e-01	0	24	104	133169152	78	18430
2026-01-09 05:05:02.00	11.22	17.40	-52.7	-64.7	3.9	7.50e-01	0	24	104	133169152	74	14182
2026-01-09 05:05:02.99	11.01	17.48	-57.5	-75.1	3.8	7.44e-01	0	24	104	133169152	82	29557
2026-01-09 05:05:03.99	10.80	17.56	-57.3	-73.9	3.8	7.44e-01	0	24	104	133169152	82	25644
2026-01-09 05:05:04.98	10.59	17.64	-50.2	-61.7	3.8	7.45e-01	0	24	104	133169152	69	13262
2026-01-09 05:05:05.98	10.37	17.72	-50.2	-61.7	3.8	7.48e-01	0	24	104	133169152	69	13290
2026-01-09 05:05:06.97	10.16	17.80	-50.2	-61.6	3.8	7.44e-01	0	24	104	133169152	69	13211
2026-01-09 05:05:07.96	9.94	17.88	-49.7	-61.0	3.8	7.45e-01	0	24	104	133169152	68	13102
2026-01-09 05:05:08.96	9.72	17.96	-49.5	-60.9	3.8	7.43e-01	0	24	104	133169152	67	13625
2026-01-09 05:05:09.96	9.50	18.04	-54.4	-67.1	3.8	7.39e-01	0	24	104	133169152	76	16565
2026-01-09 05:05:10.96	9.28	18.12	-57.0	-72.6	3.8	7.45e-01	0	24	104	133169152	81	23508
2026-01-09 05:05:11.95	9.06	18.19	-51.4	-63.0	3.8	7.46e-01	0	24	104	133169152	72	13045
2026-01-09 05:05:12.95	8.84	18.27	-57.4	-74.4	3.8	7.47e-01	0	24	104	133169152	82	27259
2026-01-09 05:05:13.96	8.61	18.35	-51.3	-62.8	3.9	7.47e-01	0	24	104	133169152	71	13519
2026-01-09 05:05:14.96	8.39	18.43	-50.7	-62.2	3.8	7.45e-01	0	24	104	133169152	70	13362
2026-01-09 05:05:15.96	8.16	18.51	-50.7	-62.3	3.8	7.43e-01	0	24	104	133169152	70	13434
2026-01-09 05:05:16.97	7.93	18.59	-57.7	-75.1	3.8	7.49e-01	0	24	104	133169152	83	27975
2026-01-09 05:05:17.96	7.70	18.66	-53.1	-65.3	3.9	7.45e-01	0	24	104	133169152	75	14290
2026-01-09 05:05:18.96	7.47	18.74	-57.5	-74.9	3.8	7.47e-01	0	24	104	133169152	82	28743
2026-01-09 05:05:19.96	7.24	18.82	-57.4	-74.1	3.8	7.50e-01	0	24	104	133169152	82	26261
2026-01-09 05:05:20.96	7.01	18.90	-50.2	-61.6	3.9	7.45e-01	0	24	104	133169152	69	13223
2026-01-09 05:05:21.96	6.77	18.97	-50.3	-61.7	3.8	7.47e-01	0	24	104	133169152	69	13290
2026-01-09 05:05:22.96	6.53	19.05	-50.0	-61.4	3.8	7.46e-01	0	24	104	133169152	69	12917
2026-01-09 05:05:23.96	6.30	19.13	-49.9	-61.3	3.9	7.43e-01	0	24	104	133169152	69	12766
2026-01-09 05:05:24.97	6.06	19.20	-49.6	-60.9	3.8	7.46e-01	0	24	104	133169152	68	12920
2026-01-09 05:05:25.97	5.82	19.28	-54.3	-67.0	3.8	7.44e-01	0	24	104	133169152	76	16368
2026-01-09 05:05:26.97	5.58	19.36	-57.0	-72.8	3.8	7.48e-01	0	24	104	133169152	81	24014
2026-01-09 05:05:27.96	5.34	19.43	-51.2	-62.8	3.9	7.45e-01	0	24	104	133169152	71	13450
2026-01-09 05:05:28.96	5.09	19.51	-57.4	-74.2	3.8	7.49e-01	0	24	104	133169152	82	26676
2026-01-09 05:05:29.96	4.85	19.58	-51.4	-63.1	3.9	7.43e-01	0	24	104	133169152	72	13145
2026-01-09 05:05:30.95	4.60	19.66	-51.0	-62.5	3.9	7.46e-01	0	24	104	133169152	71	13046
2026-01-09 05:05:31.95	4.36	19.73	-50.6	-62.2	3.9	7.47e-01	0	24	104	133169152	70	13271
2026-01-09 05:05:32.94	4.11	19.80	-57.8	-75.4	3.8	7.50e-01	0	24	104	133169152	83	28913
2026-01-09 05:05:33.95	3.86	19.88	-53.5	-65.7	3.9	7.45e-01	0	24	104	133169152	76	14154
2026-01-09 05:05:34.94	3.61	19.95	-57.6	-74.8	3.8	7.47e-01	0	24	104	133169152	82	28485
2026-01-09 05:05:35.93	3.36	20.02	-57.5	-74.4	3.8	7.48e-01	0	24	104	133169152	82	27184
2026-01-09 05:05:36.93	3.11	20.10	-50.1	-61.6	3.8	7.43e-01	0	24	104	133169152	69	13117
2026-01-09 05:05:37.92	2.85	20.17	-50.2	-61.6	3.8	7.46e-01	0	24	104	133169152	69	13129
2026-01-09 05:05:38.92	2.60	20.24	-50.0	-61.4	3.9	7.44e-01	0	24	104	133169152	69	12870
2026-01-09 05:05:39.92	2.34	20.31	-49.8	-61.2	3.8	7.45e-01	0	24	104	133169152	68	13285
2026-01-09 05:05:40.91	2.08	20.38	-50.9	-62.5	3.9	7.44e-01	0	24	104	133169152	69	14548
2026-01-09 05:05:41.90	1.82	20.45	-54.0	-66.4	3.8	7.45e-01	0	24	104	133169152	75	16289
2026-01-09 05:05:42.90	1.56	20.53	-57.1	-72.8	3.8	7.47e-01	0	24	104	133169152	81	24007
2026-01-09 05:05:43.90	1.30	20.60	-50.5	-62.0	3.8	7.48e-01	0	24	104	133169152	70	13024
2026-01-09 05:05:44.90	1.04	20.67	-57.3	-73.6	3.7	7.48e-01	0	24	104	133169152	82	24892
2026-01-09 05:05:45.89	0.77	20.73	-50.7	-62.2	3.9	7.47e-01	0	24	104	133169152	70	13393
2026-01-09 05:05:46.89	0.51	20.80	-50.1	-61.6	3.8	7.46e-01	0	24	104	133169152	69	13124
2026-01-09 05:05:47.89	0.24	20.87	-50.2	-61.6	3.9	7.44e-01	0	24	104	133169152	69	13250
2026-01-09 05:05:48.90	359.97	20.94	-57.0	-72.6	3.8	7.48e-01	0	24	104	133169152	81	23573
2026-01-09 05:05:49.90	359.70	21.01	-53.7	-66.1	3.8	7.46e-01	0	24	104	133169152	76	14755
2026-01-09 05:05:50.90	359.43	21.08	-57.6	-74.5	3.8	7.50e-01	0	24	104	133169152	82	27689
2026-01-09 05:05:51.90	359.15	21.14	-57.6	-74.4	3.8	7.46e-01	0	24	104	133169152	82	27295
2026-01-09 05:05:52.89	358.88	21.21	-50.2	-61.6	3.8	7.45e-01	0	24	104	133169152	69	13163
2026-01-09 05:05:53.89	358.61	21.28	-50.2	-61.6	3.9	7.45e-01	0	24	104	133169152	69	13143
2026-01-09 05:05:54.89	358.33	21.34	-49.9	-61.3	3.9	7.45e-01	0	24	104	133169152	69	12775
2026-01-09 05:05:55.89	358.05	21.41	-49.6	-61.0	3.9	7.46e-01	0	24	104	133169152	68	12975
2026-01-09 05:05:56.89	357.77	21.47	-50.1	-61.6	3.9	7.44e-01	0	24	104	133169152	68	13971
2026-01-09 05:05:57.89	357.49	21.53	-53.3	-65.5	3.9	7.46e-01	0	24	104	133169152	74	15445
2026-01-09 05:05:58.89	357.21	21.60	-57.5	-74.3	3.8	7.45e-01	0	24	104	133169152	82	27027
2026-01-09 05:05:59.89	356.93	21.66	-57.6	-74.5	3.8	7.46e-01	0	24	104	133169152	82	27662
2026-01-09 05:06:00.89	356.64	21.72	-50.2	-61.6	3.8	7.46e-01	0	24	104	133169152	69	13162
2026-01-09 05:06:01.89	356.36	21.78	-50.0	-61.4	3.8	7.47e-01	0	24	104	133169152	69	12954
2026-01-09 05:06:02.89	356.07	21.85	-49.9	-61.3	3.9	7.44e-01	0	24	104	133169152	69	12751
2026-01-09 05:06:03.90	355.78	21.91	-49.6	-61.0	3.9	7.46e-01	0	24	104	133169152	68	13067
2026-01-09 05:06:04.89	355.49	21.97	-50.6	-62.0	3.8	7.44e-01	0	24	104	133169152	68	14697
2026-01-09 05:06:05.90	355.20	22.03	-53.8	-66.2	3.9	7.42e-01	0	24	104	133169152	75	15833
2026-01-09 05:06:06.90	354.91	22.09	-57.3	-73.3	3.9	7.47e-01	0	24	104	133169152	82	23922
2026-01-09 05:06:07.90	354.62	22.14	-50.6	-62.1	3.9	7.46e-01	0	24	104	133169152	70	13250
2026-01-09 05:06:08.90	354.32	22.20	-57.3	-73.3	3.7	7.49e-01	0	24	104	133169152	82	23943
2026-01-09 05:06:09.89	354.03	22.26	-50.6	-62.1	3.8	7.43e-01	0	24	104	133169152	70	13208
2026-01-09 05:06:10.89	353.74	22.31	-50.3	-61.8	3.8	7.45e-01	0	24	104	133169152	69	13421
2026-01-09 05:06:11.88	353.44	22.37	-50.0	-61.4	3.9	7.47e-01	0	24	104	133169152	69	12949
2026-01-09 05:06:12.89	353.14	22.42	-57.5	-73.9	3.8	7.46e-01	0	24	104	133169152	82	25698
2026-01-09 05:06:13.88	352.85	22.48	-53.9	-66.2	3.9	7.48e-01	0	24	104	133169152	77	14174
2026-01-09 05:06:14.88	352.55	22.53	-57.6	-74.4	3.8	7.46e-01	0	24	104	133169152	82	27096
2026-01-09 05:06:15.88	352.24	22.58	-57.7	-74.9	3.9	7.45e-01	0	24	104	133169152	83	27166
2026-01-09 05:06:16.88	351.94	22.64	-50.3	-61.7	3.9	7.47e-01	0	24	104	133169152	69	13398
2026-01-09 05:06:17.89	351.63	22.69	-50.2	-61.5	3.8	7.47e-01	0	24	104	133169152	69	13064
2026-01-09 05:06:18.87	351.34	22.74	-50.0	-61.4	3.9	7.49e-01	0	24	104	133169152	69	12868
2026-01-09 05:06:19.87	351.03	22.79	-49.8	-61.1	3.8	7.43e-01	0	24	104	133169152	68	13251
2026-01-09 05:06:20.87	350.72	22.84	-50.4	-61.8	3.9	7.45e-01	0	24	104	133169152	68	14368
2026-01-09 05:06:21.86	350.42	22.89	-53.7	-66.1	3.8	7.45e-01	0	24	104	133169152	75	15690
2026-01-09 05:06:22.86	350.11	22.93	-57.3	-73.2	3.8	7.45e-01	0	24	104	133169152	82	23771
2026-01-09 05:06:23.87	349.80	22.98	-50.7	-62.2	3.9	7.46e-01	0	24	104	133169152	70	13319
2026-01-09 05:06:24.87	349.49	23.03	-57.1	-72.7	3.8	7.49e-01	0	24	104	133169152	81	23589
2026-01-09 05:06:25.87	349.18	23.07	-50.9	-62.5	3.8	7.43e-01	0	24	104	133169152	71	13027
2026-01-09 05:06:26.88	348.86	23.12	-50.1	-61.4	3.9	7.46e-01	0	24	104	133169152	69	12935
2026-01-09 05:06:27.88	348.55	23.16	-49.9	-61.2	3.8	7.45e-01	0	24	104	133169152	68	13376
2026-01-09 05:06:28.88	348.23	23.21	-56.9	-71.9	3.8	7.48e-01	0	24	104	133169152	81	21711
2026-01-09 05:06:29.87	347.92	23.25	-54.0	-66.4	3.8	7.45e-01	0	24	104	133169152	77	14502
2026-01-09 05:06:30.88	347.60	23.29	-57.6	-74.3	3.8	7.45e-01	0	24	104	133169152	82	26874
2026-01-09 05:06:31.87	347.29	23.33	-57.8	-74.9	3.8	7.45e-01	0	24	104	133169152	83	27336
2026-01-09 05:06:32.88	346.97	23.37	-50.2	-61.6	3.8	7.45e-01	0	24	104	133169152	69	13199
2026-01-09 05:06:33.88	346.65	23.41	-50.1	-61.5	3.8	7.43e-01	0	24	104	133169152	69	13009
2026-01-09 05:06:34.87	346.33	23.45	-50.0	-61.4	3.8	7.49e-01	0	24	104	133169152	69	12884
2026-01-09 05:06:35.87	346.01	23.48	-49.9	-61.3	3.8	7.44e-01	0	24	104	133169152	68	13517
2026-01-09 05:06:36.86	345.69	23.52	-50.0	-61.3	3.8	7.47e-01	0	24	104	133169152	68	13553
2026-01-09 05:06:37.86	345.37	23.55	-53.6	-65.9	3.8	7.44e-01	0	24	104	133169152	74	16203
2026-01-09 05:06:38.87	345.04	23.59	-57.4	-73.5	3.8	7.46e-01	0	24	104	133169152	82	24426
2026-01-09 05:06:39.86	344.72	23.62	-50.9	-62.5	3.9	7.43e-01	0	24	104	133169152	71	13017
2026-01-09 05:06:40.86	344.40	23.66	-57.1	-72.6	3.8	7.47e-01	0	24	104	133169152	81	23527
2026-01-09 05:06:41.85	344.08	23.69	-50.9	-62.4	3.9	7.44e-01	0	24	104	133169152	71	12885
2026-01-09 05:06:42.85	343.75	23.72	-50.2	-61.6	3.8	7.46e-01	0	24	104	133169152	69	13233
2026-01-09 05:06:43.85	343.43	23.75	-50.3	-61.6	3.8	7.47e-01	0	24	104	133169152	69	13258
2026-01-09 05:06:44.84	343.10	23.78	-57.0	-72.1	3.8	7.49e-01	0	24	104	133169152	81	22080
2026-01-09 05:06:45.84	342.77	23.80	-54.1	-66.7	3.8	7.44e-01	0	24	104	133169152	77	14885
2026-01-09 05:06:46.84	342.45	23.83	-57.6	-73.9	3.8	7.49e-01	0	24	104	133169152	82	25807
2026-01-09 05:06:47.83	342.12	23.86	-57.8	-74.9	3.8	7.46e-01	0	24	104	133169152	83	27238
2026-01-09 05:06:48.82	341.79	23.88	-50.4	-61.8	3.9	7.42e-01	0	24	104	133169152	70	12724
2026-01-09 05:06:49.83	341.46	23.91	-50.2	-61.7	3.9	7.43e-01	0	24	104	133169152	69	13317
2026-01-09 05:06:50.83	341.13	23.93	-50.3	-61.7	3.8	7.42e-01	0	24	104	133169152	69	13327
2026-01-09 05:06:51.83	340.80	23.95	-50.0	-61.4	3.9	7.47e-01	0	24	104	133169152	69	12830
2026-01-09 05:06:52.83	340.47	23.97	-50.9	-62.4	3.8	7.49e-01	0	24	104	133169152	69	14434
2026-01-09 05:06:53.83	340.14	23.99	-53.6	-65.8	3.8	7.45e-01	0	24	104	133169152	74	16034
2026-01-09 05:06:54.83	339.80	24.01	-57.5	-73.7	3.8	7.47e-01	0	24	104	133169152	82	25220
2026-01-09 05:06:55.84	339.47	24.03	-50.4	-61.8	3.8	7.43e-01	0	24	104	133169152	70	12736
2026-01-09 05:06:56.84	339.14	24.05	-57.1	-72.4	3.8	7.47e-01	0	24	104	133169152	81	22997
2026-01-09 05:06:57.84	338.80	24.07	-50.3	-61.5	3.8	7.47e-01	0	24	104	133169152	69	13018
2026-01-09 05:06:58.83	338.47	24.08	-50.0	-61.5	3.8	7.47e-01	0	24	104	133169152	69	12961
2026-01-09 05:06:59.83	338.14	24.10	-50.1	-61.5	3.8	7.48e-01	0	24	104	133169152	69	13041
2026-01-09 05:07:00.83	337.80	24.11	-57.6	-73.7	3.8	7.49e-01	0	24	104	133169152	82	25157
2026-01-09 05:07:01.83	337.47	24.12	-54.2	-66.6	3.8	7.50e-01	0	24	104	133169152	77	14879
2026-01-09 05:07:02.84	337.13	24.13	-57.6	-73.9	3.8	7.50e-01	0	24	104	133169152	82	25701
2026-01-09 05:07:03.83	336.80	24.14	-57.9	-75.1	3.8	7.46e-01	0	24	104	133169152	83	27892
2026-01-09 05:07:04.82	336.46	24.15	-49.9	-61.4	3.9	7.47e-01	0	24	104	133169152	69	12834
2026-01-09 05:07:05.83	336.13	24.16	-50.2	-61.6	3.8	7.46e-01	0	24	104	133169152	69	13164
2026-01-09 05:07:06.82	335.79	24.17	-50.1	-61.5	3.9	7.44e-01	0	24	104	133169152	69	13020
2026-01-09 05:07:07.82	335.46	24.17	-49.9	-61.3	3.8	7.45e-01	0	24	104	133169152	69	12704
2026-01-09 05:07:08.83	335.12	24.18	-50.8	-62.3	3.9	7.45e-01	0	24	104	133169152	69	14254
2026-01-09 05:07:09.83	334.78	24.18	-53.6	-65.9	3.8	7.50e-01	0	24	104	133169152	74	16234
2026-01-09 05:07:10.82	334.45	24.19	-57.6	-73.9	3.8	7.45e-01	0	24	104	133169152	82	25835
2026-01-09 05:07:11.82	334.11	24.19	-50.4	-61.8	3.8	7.43e-01	0	24	104	133169152	70	12730
2026-01-09 05:07:12.82	333.77	24.19	-57.1	-72.4	3.8	7.45e-01	0	24	104	133169152	81	22863
2026-01-09 05:07:13.82	333.44	24.19	-50.4	-61.7	3.9	7.46e-01	0	24	104	133169152	70	12636
2026-01-09 05:07:14.82	333.10	24.19	-50.2	-61.5	3.8	7.43e-01	0	24	104	133169152	69	13035
2026-01-09 05:07:15.82	332.77	24.19	-50.2	-61.6	3.8	7.44e-01	0	24	104	133169152	69	13256
2026-01-09 05:07:16.82	332.43	24.18	-57.5	-73.5	3.8	7.44e-01	0	24	104	133169152	82	24558
2026-01-09 05:07:17.82	332.09	24.18	-54.5	-67.1	3.8	7.46e-01	0	24	104	133169152	78	14761
2026-01-09 05:07:18.82	331.76	24.17	-57.6	-74.0	3.7	7.48e-01	0	24	104	133169152	82	26008
2026-01-09 05:07:19.82	331.42	24.17	-57.9	-75.0	3.8	7.52e-01	0	24	104	133169152	83	27536
2026-01-09 05:07:20.81	331.09	24.16	-50.4	-61.7	3.8	7.44e-01	0	24	104	133169152	70	12656
2026-01-09 05:07:21.81	330.75	24.15	-50.2	-61.6	3.8	7.45e-01	0	24	104	133169152	69	13253
2026-01-09 05:07:22.81	330.42	24.14	-50.4	-61.9	3.8	7.46e-01	0	24	104	133169152	69	13595
2026-01-09 05:07:23.81	330.08	24.13	-50.2	-61.6	3.9	7.46e-01	0	24	104	133169152	69	13184
2026-01-09 05:07:24.81	329.75	24.12	-51.3	-62.9	3.9	7.41e-01	0	24	104	133169152	70	14520
2026-01-09 05:07:25.81	329.41	24.11	-53.5	-65.8	3.9	7.47e-01	0	24	104	133169152	74	15992
2026-01-09 05:07:26.81	329.08	24.10	-57.6	-73.7	3.8	7.47e-01	0	24	104	133169152	82	25165
2026-01-09 05:07:27.81	328.74	24.08	-51.2	-62.7	3.8	7.43e-01	0	24	104	133169152	71	13267
2026-01-09 05:07:28.82	328.40	24.07	-57.0	-72.1	3.8	7.48e-01	0	24	104	133169152	81	22115
2026-01-09 05:07:29.82	328.07	24.05	-51.4	-63.0	3.8	7.45e-01	0	24	104	133169152	72	13023
2026-01-09 05:07:30.82	327.74	24.03	-51.0	-62.5	3.8	7.43e-01	0	24	104	133169152	70	13841
2026-01-09 05:07:31.82	327.40	24.01	-51.0	-62.5	3.8	7.47e-01	0	24	104	133169152	70	13730
2026-01-09 05:07:32.82	327.07	23.99	-55.9	-69.5	3.8	7.43e-01	0	24	104	133169152	79	18372
2026-01-09 05:07:33.81	326.74	23.97	-54.2	-66.7	3.8	7.43e-01	0	24	104	133169152	77	14964
2026-01-09 05:07:34.80	326.42	23.95	-57.6	-73.7	3.8	7.45e-01	0	24	104	133169152	82	25079
2026-01-09 05:07:35.80	326.08	23.93	-58.0	-75.2	3.8	7.48e-01	0	24	104	133169152	83	28187
2026-01-09 05:07:36.80	325.75	23.91	-50.6	-62.1	3.8	7.46e-01	0	24	104	133169152	70	13180
2026-01-09 05:07:37.80	325.42	23.88	-50.4	-62.0	3.8	7.45e-01	0	24	104	133169152	70	13021
2026-01-09 05:07:38.79	325.10	23.86	-50.6	-61.8	3.8	7.46e-01	0	24	104	133169152	70	12789
2026-01-09 05:07:39.79	324.77	23.83	-50.5	-61.9	3.8	7.46e-01	0	24	104	133169152	70	12821
2026-01-09 05:07:40.80	324.44	23.80	-50.2	-61.7	3.8	7.44e-01	0	24	104	133169152	69	13353
2026-01-09 05:07:41.79	324.11	23.78	-53.5	-65.7	3.9	7.47e-01	0	24	104	133169152	74	15850
2026-01-09 05:07:42.79	323.78	23.75	-57.7	-74.2	3.8	7.46e-01	0	24	104	133169152	83	25179
2026-01-09 05:07:43.78	323.46	23.72	-50.7	-62.1	3.9	7.45e-01	0	24	104	133169152	70	13197
2026-01-09 05:07:44.78	323.14	23.69	-57.0	-72.0	3.8	7.50e-01	0	24	104	133169152	81	21931
2026-01-09 05:07:45.78	322.81	23.65	-50.6	-62.0	3.9	7.44e-01	0	24	104	133169152	70	13029
2026-01-09 05:07:46.77	322.49	23.62	-50.0	-61.1	3.9	7.45e-01	0	24	104	133169152	69	12485
2026-01-09 05:07:47.77	322.17	23.59	-50.1	-61.7	3.9	7.45e-01	0	24	104	133169152	69	13391
2026-01-09 05:07:48.76	321.85	23.55	-55.3	-68.7	3.8	7.46e-01	0	24	104	133169152	78	17879
2026-01-09 05:07:49.76	321.52	23.52	-52.9	-64.5	3.8	7.45e-01	0	24	104	133169152	73	14660
2026-01-09 05:07:50.75	321.21	23.48	-57.5	-73.4	3.8	7.45e-01	0	24	104	133169152	82	24333
2026-01-09 05:07:51.76	320.88	23.45	-50.6	-62.4	3.9	7.44e-01	0	24	104	133169152	70	13671
2026-01-09 05:07:52.75	320.56	23.41	-56.8	-71.8	3.8	7.44e-01	0	24	104	133169152	81	21483
2026-01-09 05:07:53.74	320.25	23.37	-50.9	-61.9	3.9	7.46e-01	0	24	104	133169152	71	12234
2026-01-09 05:07:54.73	319.93	23.33	-50.3	-61.6	3.9	7.46e-01	0	24	104	133169152	69	13181
2026-01-09 05:07:55.74	319.61	23.29	-50.5	-62.5	3.8	7.47e-01	0	24	104	133169152	69	14707
2026-01-09 05:07:56.74	319.30	23.25	-56.7	-71.1	3.8	7.50e-01	0	24	104	133169152	81	19672
2026-01-09 05:07:57.74	318.98	23.20	-54.1	-66.1	3.9	7.45e-01	0	24	104	133169152	77	13978
2026-01-09 05:07:58.74	318.67	23.16	-57.4	-73.9	3.8	7.46e-01	0	24	104	133169152	82	25757
2026-01-09 05:07:59.75	318.35	23.12	-57.9	-75.0	3.8	7.47e-01	0	24	104	133169152	83	27424
2026-01-09 05:08:00.74	318.04	23.07	-50.6	-61.4	3.9	7.44e-01	0	24	104	133169152	70	12140
2026-01-09 05:08:01.74	317.73	23.03	-50.4	-61.8	3.8	7.43e-01	0	24	104	133169152	70	12687
2026-01-09 05:08:02.74	317.42	22.98	-50.4	-61.8	3.8	7.49e-01	0	24	104	133169152	69	13532
2026-01-09 05:08:03.75	317.10	22.93	-50.3	-61.5	3.9	7.44e-01	0	24	104	133169152	69	13100
2026-01-09 05:08:04.74	316.80	22.89	-50.4	-62.7	3.8	7.46e-01	0	24	104	133169152	69	14940
2026-01-09 05:08:05.75	316.49	22.84	-53.2	-65.9	3.8	7.48e-01	0	24	104	133169152	74	16189
2026-01-09 05:08:06.74	316.18	22.79	-57.5	-73.1	3.8	7.46e-01	0	24	104	133169152	82	23489
2026-01-09 05:08:07.74	315.88	22.74	-52.5	-64.2	3.9	7.47e-01	0	24	104	133169152	74	13277
2026-01-09 05:08:08.74	315.57	22.69	-57.1	-72.3	3.8	7.47e-01	0	24	104	133169152	81	22773
2026-01-09 05:08:09.74	315.27	22.64	-52.1	-63.6	3.8	7.49e-01	0	24	104	133169152	73	13169
2026-01-09 05:08:10.74	314.97	22.58	-51.3	-63.5	3.8	7.46e-01	0	24	104	133169152	71	14643
2026-01-09 05:08:11.74	314.66	22.53	-51.5	-63.6	3.8	7.45e-01	0	24	104	133169152	71	14734
2026-01-09 05:08:12.74	314.36	22.48	-58.4	-76.7	3.8	7.49e-01	0	24	104	133169152	84	31460
2026-01-09 05:08:13.74	314.06	22.42	-54.3	-66.3	3.9	7.42e-01	0	24	104	133169152	77	14322
2026-01-09 05:08:14.73	313.77	22.37	-57.5	-73.2	3.8	7.46e-01	0	24	104	133169152	82	23636
2026-01-09 05:08:15.73	313.47	22.31	-58.0	-75.6	3.8	7.46e-01	0	24	104	133169152	83	29348
2026-01-09 05:08:16.73	313.18	22.26	-50.5	-62.2	3.8	7.47e-01	0	24	104	133169152	70	13269
2026-01-09 05:08:17.73	312.88	22.20	-50.1	-61.1	3.8	7.48e-01	0	24	104	133169152	69	12407
2026-01-09 05:08:18.72	312.59	22.14	-50.0	-61.6	3.9	7.46e-01	0	24	104	133169152	69	13192
2026-01-09 05:08:19.72	312.30	22.08	-49.9	-60.9	3.8	7.49e-01	0	24	104	133169152	69	12123
2026-01-09 05:08:20.72	312.00	22.02	-50.2	-61.6	3.9	7.45e-01	0	24	104	133169152	69	13210
2026-01-09 05:08:21.73	311.71	21.96	-53.1	-65.4	3.8	7.45e-01	0	24	104	133169152	73	16263
2026-01-09 05:08:22.72	311.43	21.90	-57.5	-73.4	3.8	7.46e-01	0	24	104	133169152	82	24371
2026-01-09 05:08:23.72	311.14	21.84	-57.9	-75.2	3.8	7.46e-01	0	24	104	133169152	83	28084
2026-01-09 05:08:24.72	310.85	21.78	-50.8	-62.0	3.8	7.46e-01	0	24	104	133169152	70	13046
2026-01-09 05:08:25.72	310.56	21.72	-50.4	-61.9	3.8	7.45e-01	0	24	104	133169152	70	12926
2026-01-09 05:08:26.73	310.28	21.66	-50.5	-62.1	3.8	7.43e-01	0	24	104	133169152	70	13139
2026-01-09 05:08:27.73	309.99	21.59	-50.4	-61.6	3.9	7.46e-01	0	24	104	133169152	70	12379
2026-01-09 05:08:28.72	309.72	21.53	-50.1	-62.1	3.9	7.46e-01	0	24	104	133169152	69	13959
2026-01-09 05:08:29.73	309.43	21.47	-53.5	-65.2	3.8	7.46e-01	0	24	104	133169152	74	15040
2026-01-09 05:08:30.73	309.15	21.40	-57.6	-73.8	3.8	7.46e-01	0	24	104	133169152	82	25340
2026-01-09 05:08:31.72	308.88	21.34	-50.3	-61.9	3.8	7.45e-01	0	24	104	133169152	70	12950
2026-01-09 05:08:32.72	308.60	21.27	-56.8	-71.4	3.8	7.46e-01	0	24	104	133169152	81	20382
2026-01-09 05:08:33.72	308.32	21.21	-50.7	-62.1	3.8	7.45e-01	0	24	104	133169152	70	13232
2026-01-09 05:08:34.72	308.05	21.14	-50.2	-61.8	3.8	7.46e-01	0	24	104	133169152	69	13544
2026-01-09 05:08:35.72	307.78	21.07	-50.1	-61.0	3.9	7.46e-01	0	24	104	133169152	69	12290
2026-01-09 05:08:36.72	307.50	21.01	-54.7	-68.4	3.8	7.47e-01	0	24	104	133169152	77	18188
2026-01-09 05:08:37.72	307.23	20.94	-52.8	-64.5	3.8	7.47e-01	0	24	104	133169152	74	13795
2026-01-09 05:08:38.73	306.96	20.87	-57.5	-73.5	3.8	7.46e-01	0	24	104	133169152	82	24500
2026-01-09 05:08:39.72	306.69	20.80	-57.9	-74.9	3.8	7.49e-01	0	24	104	133169152	83	27344
2026-01-09 05:08:40.71	306.43	20.73	-50.2	-60.9	3.9	7.45e-01	0	24	104	133169152	69	12119
2026-01-09 05:08:41.71	306.16	20.66	-50.2	-62.4	3.8	7.47e-01	0	24	104	133169152	69	14448
2026-01-09 05:08:42.70	305.90	20.59	-50.8	-61.7	3.8	7.45e-01	0	24	104	133169152	69	13330
2026-01-09 05:08:43.70	305.64	20.52	-50.6	-62.5	3.8	7.49e-01	0	24	104	133169152	69	14542
2026-01-09 05:08:44.70	305.38	20.45	-50.2	-61.6	3.8	7.43e-01	0	24	104	133169152	69	13167
2026-01-09 05:08:45.69	305.12	20.38	-53.4	-65.1	3.8	7.43e-01	0	24	104	133169152	74	14812
2026-01-09 05:08:46.69	304.86	20.31	-57.5	-73.8	3.8	7.50e-01	0	24	104	133169152	82	25329
2026-01-09 05:08:47.69	304.60	20.24	-50.5	-61.5	3.9	7.42e-01	0	24	104	133169152	70	12272
2026-01-09 05:08:48.69	304.35	20.16	-56.6	-71.2	3.8	7.47e-01	0	24	104	133169152	80	21090
2026-01-09 05:08:49.69	304.09	20.09	-51.1	-62.3	3.8	7.49e-01	0	24	104	133169152	71	12729
2026-01-09 05:08:50.69	303.84	20.02	-50.3	-62.1	3.9	7.44e-01	0	24	104	133169152	69	13896
2026-01-09 05:08:51.69	303.58	19.95	-50.2	-61.5	3.8	7.45e-01	0	24	104	133169152	69	13063
2026-01-09 05:08:52.68	303.33	19.87	-54.3	-67.1	3.8	7.47e-01	0	24	104	133169152	76	16536
2026-01-09 05:08:53.68	303.08	19.80	-52.3	-63.9	3.8	7.46e-01	0	24	104	133169152	73	13608
2026-01-09 05:08:54.68	302.83	19.72	-57.4	-73.3	3.7	7.48e-01	0	24	104	133169152	82	23925
2026-01-09 05:08:55.68	302.59	19.65	-57.7	-74.1	3.8	7.49e-01	0	24	104	133169152	83	24952
2026-01-09 05:08:56.67	302.34	19.58	-50.3	-61.7	3.9	7.47e-01	0	24	104	133169152	69	13304
2026-01-09 05:08:57.67	302.10	19.50	-50.3	-61.6	3.9	7.45e-01	0	24	104	133169152	69	13131
2026-01-09 05:08:58.68	301.85	19.42	-50.4	-61.9	3.8	7.48e-01	0	24	104	133169152	69	13629
2026-01-09 05:08:59.67	301.61	19.35	-50.2	-61.6	3.8	7.46e-01	0	24	104	133169152	69	13145
2026-01-09 05:09:00.67	301.37	19.27	-50.4	-61.9	3.9	7.47e-01	0	24	104	133169152	69	13691
2026-01-09 05:09:01.67	301.13	19.20	-51.3	-63.0	3.9	7.44e-01	0	24	104	133169152	70	14681
2026-01-09 05:09:02.67	300.89	19.12	-57.7	-72.8	3.8	7.47e-01	0	24	104	133169152	82	22551
2026-01-09 05:09:03.67	300.65	19.04	-57.6	-73.8	3.8	7.46e-01	0	24	104	133169152	83	23943
2026-01-09 05:09:04.68	300.41	18.97	-50.4	-61.6	3.9	7.43e-01	0	24	104	133169152	70	12495
2026-01-09 05:09:05.67	300.18	18.89	-50.4	-62.3	3.9	7.41e-01	0	24	104	133169152	70	13435
2026-01-09 05:09:06.67	299.95	18.81	-50.6	-61.8	3.9	7.43e-01	0	24	104	133169152	70	12714
2026-01-09 05:09:07.67	299.71	18.73	-50.9	-62.4	3.8	7.48e-01	0	24	104	133169152	70	13687
2026-01-09 05:09:08.68	299.48	18.66	-50.1	-61.8	3.9	7.44e-01	0	24	104	133169152	69	13562
2026-01-09 05:09:09.67	299.25	18.58	-53.3	-64.9	3.8	7.43e-01	0	24	104	133169152	74	14530
2026-01-09 05:09:10.67	299.02	18.50	-57.4	-73.2	3.7	7.46e-01	0	24	104	133169152	82	23847
2026-01-09 05:09:11.67	298.80	18.42	-51.0	-62.5	3.9	7.46e-01	0	24	104	133169152	71	13003
2026-01-09 05:09:12.67	298.57	18.34	-56.5	-70.8	3.8	7.50e-01	0	24	104	133169152	80	20139
2026-01-09 05:09:13.67	298.35	18.26	-52.0	-64.1	3.8	7.45e-01	0	24	104	133169152	73	13932
2026-01-09 05:09:14.67	298.12	18.19	-50.5	-61.8	3.8	7.45e-01	0	24	104	133169152	70	12704
2026-01-09 05:09:15.66	297.90	18.11	-50.5	-61.9	3.8	7.48e-01	0	24	104	133169152	70	12834
2026-01-09 05:09:16.66	297.68	18.03	-53.8	-66.3	3.8	7.48e-01	0	24	104	133169152	75	16010
2026-01-09 05:09:17.66	297.46	17.95	-51.9	-63.4	3.8	7.45e-01	0	24	104	133169152	73	12931
2026-01-09 05:09:18.66	297.24	17.87	-57.3	-72.9	3.8	7.44e-01	0	24	104	133169152	82	22866
2026-01-09 05:09:19.66	297.02	17.79	-57.3	-72.8	3.8	7.46e-01	0	24	104	133169152	83	21319
2026-01-09 05:09:20.66	296.81	17.71	-50.6	-62.1	3.8	7.46e-01	0	24	104	133169152	70	13139
2026-01-09 05:09:21.66	296.59	17.63	-50.5	-62.2	3.8	7.47e-01	0	24	104	133169152	70	13350
2026-01-09 05:09:22.66	296.38	17.55	-50.3	-61.3	3.8	7.45e-01	0	24	104	133169152	69	12799
2026-01-09 05:09:23.67	296.16	17.47	-50.2	-61.3	3.8	7.46e-01	0	24	104	133169152	69	12694
2026-01-09 05:09:24.67	295.95	17.39	-51.6	-63.8	3.8	7.46e-01	0	24	104	133169152	70	15959
2026-01-09 05:09:25.67	295.74	17.31	-51.1	-62.6	3.9	7.44e-01	0	24	104	133169152	71	13225
2026-01-09 05:09:26.67	295.53	17.23	-57.3	-72.9	3.8	7.46e-01	0	24	104	133169152	82	22818
2026-01-09 05:09:27.67	295.32	17.15	-57.1	-72.5	3.8	7.46e-01	0	24	104	133169152	83	20569
2026-01-09 05:09:28.66	295.12	17.07	-50.7	-62.1	3.8	7.44e-01	0	24	104	133169152	70	13175
2026-01-09 05:09:29.67	294.91	16.99	-50.8	-62.0	3.9	7.47e-01	0	24	104	133169152	70	13005
2026-01-09 05:09:30.67	294.71	16.91	-50.7	-62.5	3.8	7.47e-01	0	24	104	133169152	70	13750
2026-01-09 05:09:31.67	294.50	16.83	-50.6	-62.1	3.8	7.43e-01	0	24	104	133169152	70	13155
2026-01-09 05:09:32.66	294.30	16.75	-51.6	-62.9	3.8	7.47e-01	0	24	104	133169152	70	14495
2026-01-09 05:09:33.66	294.10	16.67	-51.0	-62.7	3.8	7.50e-01	0	24	104	133169152	71	13290
2026-01-09 05:09:34.66	293.90	16.58	-57.3	-73.0	3.8	7.49e-01	0	24	104	133169152	82	23268
2026-01-09 05:09:35.66	293.71	16.50	-56.7	-71.1	3.8	7.46e-01	0	24	104	133169152	82	18648
2026-01-09 05:09:36.66	293.51	16.42	-51.0	-62.4	3.8	7.46e-01	0	24	104	133169152	70	13633
2026-01-09 05:09:37.65	293.31	16.34	-50.7	-62.3	3.8	7.47e-01	0	24	104	133169152	70	13523
2026-01-09 05:09:38.65	293.12	16.26	-50.6	-62.0	3.8	7.47e-01	0	24	104	133169152	70	13015
2026-01-09 05:09:39.64	292.93	16.18	-50.7	-61.9	3.8	7.45e-01	0	24	104	133169152	70	12838
2026-01-09 05:09:40.64	292.73	16.10	-52.1	-63.9	3.9	7.43e-01	0	24	104	133169152	71	15301
2026-01-09 05:09:41.64	292.54	16.02	-50.9	-62.7	3.8	7.46e-01	0	24	104	133169152	71	13400
2026-01-09 05:09:42.63	292.35	15.94	-57.3	-73.1	3.8	7.45e-01	0	24	104	133169152	82	23575
2026-01-09 05:09:43.63	292.16	15.86	-56.2	-70.0	3.9	7.44e-01	0	24	104	133169152	81	17364
2026-01-09 05:09:44.62	291.98	15.78	-51.2	-62.9	3.8	7.45e-01	0	24	104	133169152	70	14504
2026-01-09 05:09:45.62	291.79	15.70	-50.9	-62.6	3.9	7.41e-01	0	24	104	133169152	71	13222
2026-01-09 05:09:46.62	291.60	15.62	-50.9	-62.1	3.8	7.44e-01	0	24	104	133169152	70	13168
2026-01-09 05:09:47.62	291.42	15.54	-51.2	-62.5	3.8	7.49e-01	0	24	104	133169152	70	13876
2026-01-09 05:09:48.62	291.23	15.45	-50.6	-62.4	3.8	7.44e-01	0	24	104	133169152	70	13583
2026-01-09 05:09:49.62	291.05	15.37	-50.5	-62.4	3.8	7.42e-01	0	24	104	133169152	70	13666
2026-01-09 05:09:50.62	290.87	15.29	-57.3	-73.2	3.7	7.48e-01	0	24	104	133169152	82	23620
2026-01-09 05:09:51.63	290.69	15.21	-55.7	-68.9	3.8	7.44e-01	0	24	104	133169152	80	16169
2026-01-09 05:09:52.63	290.51	15.13	-51.7	-63.7	3.8	7.46e-01	0	24	104	133169152	71	14924
2026-01-09 05:09:53.63	290.33	15.05	-51.2	-63.2	3.8	7.46e-01	0	24	104	133169152	71	14066
2026-01-09 05:09:54.62	290.15	14.97	-50.9	-62.6	3.8	7.45e-01	0	24	104	133169152	71	13154
2026-01-09 05:09:55.62	289.97	14.89	-50.8	-62.0	3.9	7.46e-01	0	24	104	133169152	70	13068
2026-01-09 05:09:56.62	289.80	14.81	-50.1	-61.3	3.8	7.46e-01	0	24	104	133169152	69	12774
2026-01-09 05:09:57.62	289.62	14.73	-50.1	-51.9	15.6	6.05e-01	0	24	0	133693440	68	4591
2026-01-09 05:09:58.63	289.45	14.64	-57.3	-65.6	10.3	6.15e-01	0	24	0	135790592	82	9890
2026-01-09 05:09:59.62	289.28	14.56	-54.3	-57.9	14.1	6.03e-01	0	24	0	137363456	78	5149
2026-01-09 05:10:00.63	289.10	14.48	-51.4	-53.4	15.4	6.03e-01	0	24	0	138936320	70	4837
2026-01-09 05:10:01.63	288.93	14.40	-50.2	-52.0	15.9	6.02e-01	0	24	0	141033472	69	4386
2026-01-09 05:10:02.62	288.77	14.32	-50.4	-52.3	15.7	6.02e-01	0	24	0	142606336	69	4540
2026-01-09 05:10:03.63	288.60	14.24	-50.7	-52.7	15.5	6.01e-01	0	24	0	144703488	69	4718
2026-01-09 05:10:04.63	288.43	14.16	-50.3	-52.2	15.7	6.04e-01	0	24	0	146276352	69	4453
2026-01-09 05:10:05.63	288.26	14.08	-49.9	-51.6	15.9	6.04e-01	0	24	0	148373504	69	4181
2026-01-09 05:10:06.63	288.10	14.00	-49.7	-51.4	15.9	6.02e-01	0	24	0	150470656	68	4309
2026-01-09 05:10:07.64	287.93	13.92	-49.7	-51.4	15.9	6.03e-01	0	24	0	152043520	68	4322
2026-01-09 05:10:08.63	287.77	13.84	-49.9	-51.7	15.8	6.04e-01	0	24	0	154140672	68	4474
2026-01-09 05:10:09.63	287.60	13.76	-49.9	-51.7	15.8	6.02e-01	0	24	0	155713536	68	4465
2026-01-09 05:10:10.63	287.44	13.68	-49.6	-51.3	15.9	6.02e-01	0	24	0	157810688	68	4262
2026-01-09 05:10:11.63	287.28	13.60	-49.5	-51.1	16.0	6.03e-01	0	24	0	159907840	68	4185
2026-01-09 05:10:12.63	287.12	13.52	-49.5	-51.2	15.9	6.05e-01	0	24	0	161480704	68	4223
2026-01-09 05:10:13.63	286.96	13.44	-49.6	-51.4	15.9	6.02e-01	0	24	0	163577856	68	4301
2026-01-09 05:10:14.63	286.80	13.36	-49.8	-51.6	15.8	6.01e-01	0	24	0	165150720	68	4438
2026-01-09 05:10:15.63	286.65	13.28	-50.0	-51.8	15.8	6.04e-01	0	24	0	167247872	68	4520
2026-01-09 05:10:16.63	286.49	13.20	-50.0	-51.9	15.7	6.03e-01	0	24	0	168820736	68	4548
2026-01-09 05:10:17.63	286.34	13.12	-49.7	-51.5	15.8	6.04e-01	0	24	0	170917888	68	4366
2026-01-09 05:10:18.63	286.18	13.04	-49.6	-51.3	15.9	6.01e-01	0	24	0	173015040	68	4270
2026-01-09 05:10:19.64	286.03	12.96	-49.7	-51.4	15.9	6.02e-01	0	24	0	174587904	68	4318
2026-01-09 05:10:20.64	285.87	12.88	-49.8	-51.5	15.8	6.03e-01	0	24	0	176685056	68	4370
2026-01-09 05:10:21.63	285.72	12.80	-49.9	-51.7	15.7	6.05e-01	0	24	0	178257920	68	4491
2026-01-09 05:10:22.63	285.57	12.73	-50.1	-52.0	15.6	6.04e-01	0	24	0	180355072	68	4604
2026-01-09 05:10:23.63	285.42	12.65	-50.0	-51.8	15.7	6.02e-01	0	24	0	181927936	68	4533
2026-01-09 05:10:24.63	285.27	12.57	-49.9	-51.7	15.8	6.05e-01	0	24	0	184025088	68	4454
2026-01-09 05:10:25.63	285.13	12.49	-49.9	-51.7	15.7	6.04e-01	0	24	0	186122240	68	4480
2026-01-09 05:10:26.63	284.98	12.41	-49.9	-51.7	15.8	6.02e-01	0	24	0	187695104	68	4471
2026-01-09 05:10:27.63	284.83	12.33	-49.8	-51.6	15.8	6.01e-01	0	24	0	189792256	68	4394
2026-01-09 05:10:28.63	284.69	12.25	-49.7	-51.5	15.8	6.03e-01	0	24	0	191365120	68	4352
2026-01-09 05:10:29.63	284.54	12.17	-49.9	-51.7	15.8	6.01e-01	0	24	0	193462272	68	4472
2026-01-09 05:10:30.62	284.40	12.10	-49.9	-51.8	15.8	6.00e-01	0	24	0	195035136	68	4494
2026-01-09 05:10:31.62	284.26	12.02	-50.0	-51.9	15.7	6.04e-01	0	24	0	197132288	68	4559
2026-01-09 05:10:32.63	284.11	11.94	-50.0	-51.8	15.7	6.02e-01	0	24	0	199229440	68	4538
2026-01-09 05:10:33.63	283.97	11.86	-50.1	-52.0	15.7	6.04e-01	0	24	0	200802304	68	4607
2026-01-09 05:10:34.63	283.83	11.78	-49.9	-51.8	15.7	6.03e-01	0	24	0	202899456	68	4499
2026-01-09 05:10:35.63	283.69	11.71	-49.8	-51.6	15.8	6.02e-01	0	24	0	204472320	68	4425
2026-01-09 05:10:36.63	283.55	11.63	-50.0	-51.8	15.7	6.02e-01	0	24	0	206569472	68	4519
2026-01-09 05:10:37.63	283.41	11.55	-50.0	-51.8	15.7	6.03e-01	0	24	0	208142336	68	4514
2026-01-09 05:10:38.63	283.28	11.48	-50.1	-51.9	15.7	6.01e-01	0	24	0	210239488	68	4579
2026-01-09 05:10:39.63	283.14	11.40	-50.1	-52.0	15.7	6.04e-01	0	24	0	212336640	68	4622
2026-01-09 05:10:40.63	283.00	11.32	-50.1	-52.0	15.7	6.06e-01	0	24	0	213909504	68	4609
2026-01-09 05:10:41.63	282.87	11.24	-50.1	-52.0	15.6	6.04e-01	0	24	0	216006656	68	4640
2026-01-09 05:10:42.62	282.73	11.17	-50.1	-52.0	15.6	6.03e-01	0	24	0	217579520	68	4630
2026-01-09 05:10:43.62	282.60	11.09	-50.1	-52.0	15.6	6.03e-01	0	24	0	219676672	68	4634
2026-01-09 05:10:44.62	282.47	11.01	-50.0	-51.9	15.7	6.04e-01	0	24	0	221249536	68	4563
2026-01-09 05:10:45.62	282.34	10.94	-50.1	-51.9	15.7	6.02e-01	0	24	0	223346688	68	4581
2026-01-09 05:10:46.62	282.21	10.86	-50.2	-52.0	15.6	6.00e-01	0	24	0	224919552	68	4649
2026-01-09 05:10:47.62	282.08	10.79	-50.2	-52.1	15.6	6.03e-01	0	24	0	227016704	68	4660
2026-01-09 05:10:48.61	281.95	10.71	-50.2	-52.1	15.6	6.03e-01	0	24	0	229113856	68	4690
2026-01-09 05:10:49.61	281.82	10.63	-50.3	-52.2	15.6	6.03e-01	0	24	0	230686720	68	4719
2026-01-09 05:10:50.61	281.69	10.56	-50.3	-52.3	15.6	6.03e-01	0	24	0	232783872	68	4761
2026-01-09 05:10:51.61	281.56	10.48	-50.2	-52.1	15.6	6.01e-01	0	24	0	234356736	68	4660
2026-01-09 05:10:52.60	281.44	10.41	-50.1	-52.0	15.6	6.02e-01	0	24	0	236453888	68	4641
2026-01-09 05:10:53.60	281.31	10.33	-50.1	-52.0	15.6	6.04e-01	0	24	0	238551040	68	4630
2026-01-09 05:10:54.60	281.18	10.26	-50.1	-51.9	15.7	6.03e-01	0	24	0	240123904	68	4580
2026-01-09 05:10:55.59	281.06	10.18	-50.1	-52.0	15.7	6.01e-01	0	24	0	242221056	68	4604
2026-01-09 05:10:56.58	280.94	10.11	-50.2	-52.1	15.6	6.04e-01	0	24	0	243793920	68	4683
2026-01-09 05:10:57.58	280.82	10.03	-50.2	-52.1	15.6	6.02e-01	0	24	0	245891072	68	4698
2026-01-09 05:10:58.58	280.69	9.96	-50.3	-52.3	15.6	6.03e-01	0	24	0	247463936	68	4782
2026-01-09 05:10:59.58	280.57	9.88	-50.3	-52.2	15.6	6.05e-01	0	24	0	249561088	68	4752
2026-01-09 05:11:00.58	280.45	9.81	-50.2	-52.1	15.6	6.02e-01	0	24	0	251658240	68	4702
2026-01-09 05:11:01.58	280.33	9.74	-50.3	-52.2	15.6	6.01e-01	0	24	0	253231104	68	4742
2026-01-09 05:11:02.58	280.21	9.66	-50.3	-52.2	15.6	6.01e-01	0	24	0	255328256	68	4727
2026-01-09 05:11:03.58	280.09	9.59	-50.2	-52.1	15.6	6.02e-01	0	24	0	256901120	68	4697
2026-01-09 05:11:04.58	279.97	9.51	-50.5	-52.4	15.5	6.03e-01	0	24	0	258998272	68	4866
2026-01-09 05:11:05.58	279.85	9.44	-50.4	-52.4	15.5	6.03e-01	0	24	0	260571136	68	4836
2026-01-09 05:11:06.58	279.74	9.37	-50.4	-52.3	15.5	6.02e-01	0	24	0	262668288	68	4805
2026-01-09 05:11:07.57	279.62	9.29	-50.4	-52.3	15.5	6.03e-01	0	24	0	264765440	68	4809
2026-01-09 05:11:08.58	279.50	9.22	-50.6	-52.6	15.4	6.05e-01	0	24	0	266338304	68	4947
2026-01-09 05:11:09.58	279.39	9.14	-50.4	-52.4	15.5	6.02e-01	0	24	0	268435456	68	4851
2026-01-09 05:11:10.59	279.27	9.07	-50.5	-52.4	15.5	6.03e-01	0	24	0	270008320	68	4853
2026-01-09 05:11:11.58	279.16	9.00	-50.4	-52.4	15.5	6.02e-01	0	24	0	272105472	68	4826
2026-01-09 05:11:12.58	279.05	8.93	-50.4	-52.3	15.5	6.02e-01	0	24	0	273678336	68	4813
2026-01-09 05:11:13.58	278.93	8.85	-50.3	-52.3	15.5	6.04e-01	0	24	0	275775488	68	4783
2026-01-09 05:11:14.59	278.82	8.78	-50.4	-52.4	15.5	6.05e-01	0	24	0	277872640	68	4816
2026-01-09 05:11:15.59	278.71	8.71	-50.7	-52.8	15.5	6.03e-01	0	24	0	279445504	69	4781
2026-01-09 05:11:16.59	278.60	8.63	-50.7	-52.7	15.5	6.03e-01	0	23	0	281542656	69	4756
2026-01-09 05:11:17.59	278.49	8.56	-50.6	-52.7	15.6	6.04e-01	0	24	0	283115520	69	4717
2026-01-09 05:11:18.59	278.38	8.49	-50.6	-52.6	15.6	6.02e-01	0	24	0	285212672	69	4699
2026-01-09 05:11:19.59	278.27	8.42	-50.6	-52.6	15.6	6.03e-01	0	24	0	287309824	69	4705
2026-01-09 05:11:20.58	278.16	8.35	-50.5	-52.4	15.6	6.02e-01	0	24	0	288882688	69	4592
2026-01-09 05:11:21.59	278.05	8.27	-50.5	-52.5	15.7	6.05e-01	0	24	0	290979840	69	4617
2026-01-09 05:11:22.59	277.95	8.20	-50.4	-52.4	15.6	6.02e-01	0	24	0	292552704	69	4581
2026-01-09 05:11:23.58	277.84	8.13	-50.4	-52.4	15.6	6.03e-01	0	24	0	294649856	69	4580
2026-01-09 05:11:24.59	277.73	8.06	-50.6	-52.6	15.6	6.02e-01	0	24	0	296222720	69	4694
2026-01-09 05:11:25.59	277.63	7.99	-50.7	-52.7	15.5	6.04e-01	0	24	0	298319872	69	4747
2026-01-09 05:11:26.59	277.52	7.92	-50.6	-52.7	15.5	6.06e-01	0	24	0	300417024	69	4731
2026-01-09 05:11:27.59	277.42	7.85	-50.6	-52.7	15.6	6.02e-01	0	24	0	301989888	69	4710
2026-01-09 05:11:28.59	277.32	7.78	-50.7	-52.8	15.5	6.04e-01	0	24	0	304087040	69	4789
2026-01-09 05:11:29.59	277.21	7.71	-50.7	-52.8	15.5	6.05e-01	0	24	0	305659904	69	4791
2026-01-09 05:11:30.58	277.11	7.64	-50.8	-53.0	15.4	6.04e-01	0	24	0	307757056	69	4884
2026-01-09 05:11:31.58	277.01	7.57	-50.9	-53.1	15.4	6.05e-01	0	24	0	309329920	69	4954
2026-01-09 05:11:32.58	276.91	7.50	-50.9	-53.1	15.4	6.02e-01	0	23	0	311427072	69	4928
2026-01-09 05:11:33.59	276.80	7.42	-50.8	-52.9	15.4	6.05e-01	0	24	0	313524224	69	4858
2026-01-09 05:11:34.59	276.70	7.35	-50.7	-52.7	15.5	6.02e-01	0	24	0	315097088	69	4740
2026-01-09 05:11:35.58	276.61	7.29	-50.6	-52.7	15.5	6.04e-01	0	24	0	317194240	69	4721
2026-01-09 05:11:36.58	276.51	7.22	-50.7	-52.7	15.5	6.01e-01	0	24	0	318767104	69	4749
2026-01-09 05:11:37.57	276.41	7.15	-50.8	-52.9	15.5	6.02e-01	0	24	0	320864256	69	4841
2026-01-09 05:11:38.57	276.31	7.08	-50.7	-52.8	15.5	6.00e-01	0	24	0	322437120	69	4808
2026-01-09 05:11:39.57	276.21	7.01	-50.9	-53.0	15.4	6.04e-01	0	24	0	324534272	69	4911
2026-01-09 05:11:40.56	276.12	6.94	-50.9	-53.1	15.4	6.03e-01	0	24	0	326107136	69	4965
2026-01-09 05:11:41.56	276.02	6.87	-51.0	-53.2	15.3	6.02e-01	0	24	0	328204288	69	5018
2026-01-09 05:11:42.56	275.92	6.80	-50.8	-53.0	15.4	6.01e-01	0	24	0	330301440	69	4891
2026-01-09 05:11:43.56	275.83	6.73	-50.9	-53.1	15.4	6.02e-01	0	24	0	331874304	69	4941
2026-01-09 05:11:44.56	275.73	6.66	-50.8	-52.9	15.4	6.00e-01	0	24	0	333971456	69	4834
2026-01-09 05:11:45.56	275.64	6.60	-51.0	-53.2	15.3	6.01e-01	0	24	0	335544320	69	4984
2026-01-09 05:11:46.55	275.54	6.53	-50.9	-53.1	15.3	6.02e-01	0	24	0	337641472	69	4955
2026-01-09 05:11:47.55	275.45	6.46	-50.9	-53.0	15.4	6.02e-01	0	24	0	339214336	69	4907
2026-01-09 05:11:48.55	275.36	6.39	-50.9	-53.1	15.4	6.06e-01	0	24	0	341311488	69	4931
2026-01-09 05:11:49.54	275.26	6.32	-51.0	-53.3	15.3	6.02e-01	0	24	0	343408640	69	5051
2026-01-09 05:11:50.55	275.17	6.26	-51.0	-53.1	15.3	6.01e-01	0	24	0	344981504	69	4978
2026-01-09 05:11:51.55	275.08	6.19	-51.2	-53.5	15.4	6.02e-01	0	24	0	347078656	70	4901
2026-01-09 05:11:52.54	274.99	6.12	-51.1	-53.4	15.4	6.04e-01	0	24	0	348651520	70	4826
2026-01-09 05:11:53.53	274.90	6.05	-51.2	-53.5	15.4	6.02e-01	0	24	0	350748672	70	4902
2026-01-09 05:11:54.53	274.81	5.99	-51.3	-53.7	15.3	6.01e-01	0	24	0	352321536	70	4998
2026-01-09 05:11:55.53	274.72	5.92	-51.4	-53.7	15.3	6.01e-01	0	24	0	354418688	70	5038
2026-01-09 05:11:56.53	274.63	5.85	-51.5	-53.8	15.2	6.04e-01	0	24	0	356515840	70	5091
2026-01-09 05:11:57.53	274.54	5.79	-51.3	-53.7	15.3	6.04e-01	0	23	0	358088704	70	5001
2026-01-09 05:11:58.53	274.45	5.72	-51.2	-53.5	15.3	6.04e-01	0	24	0	360185856	70	4908
2026-01-09 05:11:59.52	274.36	5.65	-51.2	-53.4	15.4	6.05e-01	0	24	0	361758720	70	4852
2026-01-09 05:12:00.52	274.28	5.59	-51.2	-53.5	15.4	6.04e-01	0	24	0	363855872	70	4909
2026-01-09 05:12:01.52	274.19	5.52	-51.3	-53.7	15.3	6.03e-01	0	24	0	365953024	70	4989
2026-01-09 05:12:02.51	274.10	5.45	-51.2	-53.5	15.4	6.03e-01	0	24	0	367525888	70	4878
2026-01-09 05:12:03.52	274.02	5.39	-51.1	-53.4	15.4	6.04e-01	0	24	0	369623040	70	4846
2026-01-09 05:12:04.52	273.93	5.32	-51.3	-53.6	15.3	6.01e-01	0	24	0	371195904	70	4945
2026-01-09 05:12:05.52	273.84	5.26	-51.3	-53.7	15.3	6.01e-01	0	24	0	373293056	70	5003
2026-01-09 05:12:06.52	273.76	5.19	-51.4	-53.7	15.3	6.01e-01	0	24	0	374865920	70	5025
2026-01-09 05:12:07.52	273.68	5.12	-51.6	-54.0	15.1	6.03e-01	0	24	0	376963072	70	5212
2026-01-09 05:12:08.52	273.59	5.06	-51.7	-54.2	15.2	6.04e-01	0	24	0	379060224	71	5036
2026-01-09 05:12:09.52	273.51	4.99	-52.2	-55.1	15.0	6.03e-01	0	24	0	380633088	72	5233
2026-01-09 05:12:10.52	273.42	4.93	-57.5	-76.0	3.8	7.47e-01	0	24	104	381157376	82	32906
2026-01-09 05:12:11.52	273.34	4.86	-56.7	-75.9	3.8	7.43e-01	0	24	104	381157376	82	32448
2026-01-09 05:12:12.52	273.26	4.80	-58.0	-77.3	3.8	7.47e-01	0	24	104	381157376	83	35919
2026-01-09 05:12:13.52	273.18	4.73	-58.4	-77.7	3.8	7.48e-01	0	24	104	381157376	84	35512
2026-01-09 05:12:14.51	273.10	4.67	-58.5	-77.8	3.8	7.47e-01	0	24	104	381157376	84	36043
2026-01-09 05:12:15.51	273.01	4.60	-58.6	-77.9	3.8	7.45e-01	0	24	104	381157376	84	36378
2026-01-09 05:12:16.51	272.93	4.54	-58.7	-78.0	3.8	7.46e-01	0	24	104	381157376	85	34793
2026-01-09 05:12:17.50	272.85	4.48	-58.8	-78.1	3.8	7.45e-01	0	24	104	381157376	85	35195
2026-01-09 05:12:18.50	272.77	4.41	-58.9	-78.2	3.8	7.47e-01	0	24	104	381157376	85	35649
2026-01-09 05:12:19.50	272.69	4.35	-59.0	-78.3	3.8	7.49e-01	0	24	104	381157376	85	35912
2026-01-09 05:12:20.50	272.62	4.28	-59.0	-78.3	3.8	7.44e-01	0	24	104	381157376	85	36072
2026-01-09 05:12:21.50	272.54	4.22	-59.1	-78.4	3.8	7.44e-01	0	24	104	381157376	85	36405
2026-01-09 05:12:22.50	272.46	4.15	-59.1	-78.5	3.8	7.47e-01	0	24	104	381157376	85	36575
2026-01-09 05:12:23.50	272.38	4.09	-59.2	-78.6	3.8	7.46e-01	0	24	104	381157376	86	35125
2026-01-09 05:12:24.51	272.30	4.03	-59.3	-78.7	3.8	7.43e-01	0	24	104	381157376	86	35288
2026-01-09 05:12:25.51	272.22	3.96	-59.3	-78.7	3.8	7.46e-01	0	24	104	381157376	86	35337
2026-01-09 05:12:26.51	272.15	3.90	-59.4	-78.8	3.8	7.43e-01	0	24	104	381157376	86	35749
2026-01-09 05:12:27.51	272.07	3.84	-59.4	-78.8	3.8	7.45e-01	0	24	104	381157376	86	35951
2026-01-09 05:12:28.51	272.00	3.77	-59.5	-78.8	3.8	7.46e-01	0	24	104	381157376	86	35994
2026-01-09 05:12:29.52	271.92	3.71	-59.5	-78.8	3.8	7.48e-01	0	24	104	381157376	86	35940
2026-01-09 05:12:30.52	271.84	3.65	-59.4	-78.8	3.8	7.48e-01	0	24	104	381157376	86	35990
2026-01-09 05:12:31.52	271.77	3.58	-59.4	-78.8	3.8	7.46e-01	0	24	104	381157376	86	35970
2026-01-09 05:12:32.52	271.69	3.52	-59.4	-78.8	3.8	7.47e-01	0	24	104	381157376	86	35789
2026-01-09 05:12:33.52	271.62	3.46	-59.4	-78.7	3.8	7.49e-01	0	24	104	381157376	86	35655
2026-01-09 05:12:34.52	271.55	3.40	-59.4	-78.7	3.8	7.49e-01	0	24	104	381157376	86	35632
2026-01-09 05:12:35.52	271.47	3.33	-59.3	-78.7	3.8	7.46e-01	0	24	104	381157376	86	35494
2026-01-09 05:12:36.52	271.40	3.27	-59.3	-78.7	3.8	7.44e-01	0	24	104	381157376	86	35284
2026-01-09 05:12:37.52	271.33	3.21	-59.3	-78.7	3.8	7.49e-01	0	24	104	381157376	86	35300
2026-01-09 05:12:38.51	271.25	3.15	-59.3	-78.6	3.8	7.43e-01	0	24	104	381157376	86	35254
2026-01-09 05:12:39.51	271.18	3.09	-59.3	-78.6	3.8	7.45e-01	0	24	104	381157376	86	35177
2026-01-09 05:12:40.51	271.11	3.02	-59.2	-78.6	3.8	7.48e-01	0	24	104	381157376	86	35128
2026-01-09 05:12:41.51	271.04	2.96	-59.2	-78.6	3.8	7.46e-01	0	24	104	381157376	86	35143
2026-01-09 05:12:42.51	270.97	2.90	-59.2	-78.6	3.8	7.40e-01	0	24	104	381157376	86	35039
2026-01-09 05:12:43.51	270.90	2.84	-59.2	-78.6	3.8	7.46e-01	0	24	104	381157376	86	35033
2026-01-09 05:12:44.51	270.83	2.78	-59.2	-78.6	3.8	7.49e-01	0	24	104	381157376	86	35008
2026-01-09 05:12:45.50	270.76	2.72	-59.2	-78.6	3.8	7.46e-01	0	24	104	381157376	86	34977
2026-01-09 05:12:46.50	270.69	2.66	-59.2	-78.6	3.8	7.46e-01	0	24	104	381157376	86	34921
2026-01-09 05:12:47.50	270.62	2.60	-59.2	-78.5	3.8	7.49e-01	0	24	104	381157376	86	34810
2026-01-09 05:12:48.50	270.55	2.54	-59.2	-78.6	3.8	7.48e-01	0	24	104	381157376	86	34917
2026-01-09 05:12:49.50	270.48	2.47	-59.2	-78.6	3.8	7.47e-01	0	24	104	381157376	86	34880
2026-01-09 05:12:50.51	270.41	2.41	-59.2	-78.5	3.8	7.48e-01	0	24	104	381157376	86	34823
