passes_logs/2026/01/09/R3.2S_Murmansk/R3.2S_Murmansk__20260109_091400_TY-42_rec.log

#Pass ID: 20260109_091400_TY-42
#Satellite: TY-42
#Configuration: TY-42_900M
#almurnet v.1.7.20251203
#Start time: 2026-01-09 09:14:01

#Version: 2.2.20231116
#Station: R3.2S_Murmansk
#Location: 33.079688 lon 68.888172 lat
#TLE: 1 64048U 25103A   26008.64993056  .00008011  00000-0  38191-3 0 09996
#TLE: 2 64048 097.4110 084.1864 0001712 091.7426 302.1052 15.19171442 35856

#Time	Az	El	Level	Level2	SNR	BER	BlckErr	Temp	State	Recorded	gain1	gain2
2026-01-09 09:14:01.38	20.82	2.09	-54.3	-57.5	6.1	0.00e+00	0	29	0	0	74	22102
2026-01-09 09:14:02.37	20.83	2.16	-54.5	-57.7	6.2	0.00e+00	0	29	104	0	76	20111
2026-01-09 09:14:03.36	20.84	2.23	-54.5	-57.7	6.2	0.00e+00	0	29	104	0	76	20118
2026-01-09 09:14:04.35	20.85	2.30	-54.5	-57.7	6.2	0.00e+00	0	28	104	0	76	20150
2026-01-09 09:14:05.34	20.87	2.37	-54.5	-57.7	6.2	0.00e+00	0	29	104	0	76	20100
2026-01-09 09:14:06.33	20.88	2.44	-54.5	-57.7	6.2	0.00e+00	0	29	104	0	76	20131
2026-01-09 09:14:07.33	20.89	2.51	-54.5	-57.7	6.2	0.00e+00	0	29	104	0	76	20087
2026-01-09 09:14:08.31	20.90	2.58	-54.4	-57.6	6.2	0.00e+00	0	29	104	0	75	21020
2026-01-09 09:14:09.30	20.92	2.65	-54.4	-57.6	6.2	0.00e+00	0	29	104	0	75	21010
2026-01-09 09:14:10.29	20.93	2.72	-54.4	-57.6	6.2	0.00e+00	0	29	104	0	75	21103
2026-01-09 09:14:11.28	20.94	2.79	-54.4	-57.6	6.2	0.00e+00	0	29	104	0	75	21027
2026-01-09 09:14:12.27	20.96	2.86	-54.4	-57.6	6.2	0.00e+00	0	29	104	0	75	21063
2026-01-09 09:14:13.26	20.97	2.93	-54.4	-57.6	6.2	0.00e+00	0	29	104	0	75	21052
2026-01-09 09:14:14.25	20.98	3.00	-54.4	-57.7	6.2	0.00e+00	0	29	104	0	75	21154
2026-01-09 09:14:15.24	20.99	3.08	-54.4	-57.6	6.2	0.00e+00	0	29	104	0	75	21077
2026-01-09 09:14:16.23	21.01	3.15	-54.4	-57.7	6.2	0.00e+00	0	29	104	0	75	21117
2026-01-09 09:14:17.22	21.02	3.22	-54.4	-57.6	6.2	0.00e+00	0	30	104	0	75	21091
2026-01-09 09:14:18.21	21.03	3.29	-54.4	-57.6	6.2	0.00e+00	0	29	104	0	75	21028
2026-01-09 09:14:19.21	21.05	3.37	-54.4	-57.7	6.2	0.00e+00	0	29	104	0	75	21118
2026-01-09 09:14:20.19	21.06	3.44	-54.4	-57.7	6.2	0.00e+00	0	29	104	0	75	21138
2026-01-09 09:14:21.19	21.07	3.51	-54.4	-57.6	6.2	0.00e+00	0	30	104	0	75	21107
2026-01-09 09:14:22.18	21.09	3.59	-54.4	-57.7	6.2	0.00e+00	0	30	104	0	75	21119
2026-01-09 09:14:23.16	21.10	3.66	-54.4	-57.7	6.2	0.00e+00	0	30	104	0	75	21132
2026-01-09 09:14:24.14	21.11	3.73	-54.4	-57.7	6.2	0.00e+00	0	30	104	0	75	21231
2026-01-09 09:14:25.13	21.13	3.81	-54.4	-57.6	6.2	0.00e+00	0	30	104	0	75	21048
2026-01-09 09:14:26.11	21.14	3.88	-54.4	-57.7	6.2	0.00e+00	0	30	104	0	75	21197
2026-01-09 09:14:27.10	21.15	3.96	-54.4	-57.7	6.2	0.00e+00	0	30	104	0	75	21226
2026-01-09 09:14:28.10	21.17	4.03	-54.5	-57.7	6.2	0.00e+00	0	30	104	0	75	21216
2026-01-09 09:14:29.08	21.18	4.11	-54.5	-57.7	6.2	0.00e+00	0	30	104	0	75	21194
2026-01-09 09:14:30.06	21.19	4.18	-54.5	-57.7	6.2	0.00e+00	0	30	104	0	75	21175
2026-01-09 09:14:31.05	21.21	4.26	-54.5	-57.7	6.2	0.00e+00	0	30	104	0	75	21263
2026-01-09 09:14:32.03	21.22	4.34	-54.5	-57.7	6.2	0.00e+00	0	30	104	0	75	21173
2026-01-09 09:14:33.01	21.24	4.41	-54.5	-57.7	6.2	0.00e+00	0	30	104	0	75	21127
2026-01-09 09:14:34.00	21.25	4.49	-54.5	-57.7	6.2	0.00e+00	0	30	104	0	75	21211
2026-01-09 09:14:34.99	21.26	4.57	-54.5	-57.7	6.2	0.00e+00	0	30	104	0	75	21229
2026-01-09 09:14:35.98	21.28	4.64	-54.5	-57.7	6.2	0.00e+00	0	30	104	0	75	21270
2026-01-09 09:14:36.97	21.29	4.72	-54.5	-57.7	6.2	0.00e+00	0	30	104	0	75	21250
2026-01-09 09:14:37.96	21.31	4.80	-54.5	-57.7	6.2	0.00e+00	0	30	104	0	75	21269
2026-01-09 09:14:38.94	21.32	4.88	-54.5	-57.7	6.2	0.00e+00	0	30	104	0	75	21327
2026-01-09 09:14:39.93	21.34	4.96	-54.5	-57.7	6.2	0.00e+00	0	31	104	0	75	21225
2026-01-09 09:14:40.91	21.35	5.03	-54.5	-57.7	6.2	0.00e+00	0	30	104	0	75	21299
2026-01-09 09:14:41.89	21.36	5.11	-54.5	-57.7	6.2	0.00e+00	0	31	104	0	75	21296
2026-01-09 09:14:42.88	21.38	5.19	-54.5	-57.7	6.2	0.00e+00	0	30	104	0	75	21278
2026-01-09 09:14:43.87	21.39	5.27	-54.5	-57.7	6.2	0.00e+00	0	31	104	0	75	21318
2026-01-09 09:14:44.87	21.41	5.35	-54.5	-57.7	6.2	0.00e+00	0	31	104	0	75	21287
2026-01-09 09:14:45.85	21.42	5.43	-54.5	-57.7	6.2	0.00e+00	0	31	104	0	75	21301
2026-01-09 09:14:46.83	21.44	5.51	-54.5	-57.7	6.2	0.00e+00	0	31	104	0	75	21208
2026-01-09 09:14:47.82	21.45	5.60	-54.5	-57.7	6.2	0.00e+00	0	31	104	0	75	21249
2026-01-09 09:14:48.81	21.47	5.68	-54.5	-57.7	6.2	0.00e+00	0	31	104	0	75	21293
2026-01-09 09:14:49.80	21.48	5.76	-54.5	-57.7	6.2	0.00e+00	0	31	104	0	75	21343
2026-01-09 09:14:50.79	21.50	5.84	-54.5	-57.7	6.2	0.00e+00	0	31	104	0	75	21289
2026-01-09 09:14:51.79	21.51	5.93	-54.5	-57.7	6.2	0.00e+00	0	31	104	0	75	21329
2026-01-09 09:14:52.78	21.53	6.01	-54.5	-57.7	6.2	0.00e+00	0	31	104	0	75	21267
2026-01-09 09:14:53.77	21.55	6.09	-54.5	-57.7	6.2	0.00e+00	0	31	104	0	75	21249
2026-01-09 09:14:54.76	21.56	6.18	-54.5	-57.7	6.2	0.00e+00	0	31	104	0	75	21329
2026-01-09 09:14:55.75	21.58	6.26	-54.5	-57.8	6.2	0.00e+00	0	31	104	0	75	21402
2026-01-09 09:14:56.74	21.59	6.35	-54.5	-57.7	6.2	0.00e+00	0	31	104	0	75	21294
2026-01-09 09:14:57.72	21.61	6.43	-54.5	-57.7	6.2	0.00e+00	0	31	104	0	75	21286
2026-01-09 09:14:58.72	21.62	6.52	-54.5	-57.7	6.2	0.00e+00	0	31	104	0	75	21296
2026-01-09 09:14:59.71	21.64	6.60	-54.5	-57.8	6.2	0.00e+00	0	31	104	0	75	21366
2026-01-09 09:15:00.70	21.66	6.69	-54.5	-57.8	6.2	0.00e+00	0	31	104	0	75	21361
2026-01-09 09:15:01.68	21.67	6.77	-54.5	-57.8	6.2	0.00e+00	0	31	104	0	75	21370
2026-01-09 09:15:02.66	21.69	6.86	-54.5	-57.8	6.2	0.00e+00	0	31	104	0	75	21361
2026-01-09 09:15:03.65	21.71	6.95	-54.5	-57.7	6.2	0.00e+00	0	31	104	0	75	21293
2026-01-09 09:15:04.64	21.72	7.03	-54.5	-57.7	6.2	0.00e+00	0	31	104	0	75	21334
2026-01-09 09:15:05.63	21.74	7.12	-54.5	-57.7	6.2	0.00e+00	0	31	104	0	75	21340
2026-01-09 09:15:06.62	21.75	7.21	-54.5	-57.7	6.2	0.00e+00	0	31	104	0	75	21314
2026-01-09 09:15:07.60	21.77	7.30	-54.5	-57.8	6.2	0.00e+00	0	31	104	0	75	21376
2026-01-09 09:15:08.59	21.79	7.39	-54.5	-57.8	6.1	0.00e+00	0	31	104	0	75	21390
2026-01-09 09:15:09.58	21.80	7.48	-54.5	-57.8	6.2	0.00e+00	0	31	104	0	75	21435
2026-01-09 09:15:10.57	21.82	7.57	-54.5	-57.8	6.2	0.00e+00	0	31	104	0	75	21375
2026-01-09 09:15:11.55	21.84	7.66	-54.5	-57.8	6.2	0.00e+00	0	31	104	0	75	21411
2026-01-09 09:15:12.54	21.86	7.75	-54.5	-57.8	6.2	0.00e+00	0	31	104	0	75	21428
2026-01-09 09:15:13.53	21.87	7.84	-54.5	-57.8	6.2	0.00e+00	0	31	104	0	75	21457
2026-01-09 09:15:14.53	21.89	7.93	-54.5	-57.8	6.2	0.00e+00	0	31	104	0	75	21444
2026-01-09 09:15:15.52	21.91	8.02	-54.5	-57.8	6.2	0.00e+00	0	31	104	0	75	21373
2026-01-09 09:15:16.51	21.93	8.12	-54.5	-57.8	6.2	0.00e+00	0	31	104	0	75	21448
2026-01-09 09:15:17.50	21.94	8.21	-54.5	-57.8	6.2	0.00e+00	0	31	104	0	75	21501
2026-01-09 09:15:18.50	21.96	8.30	-54.5	-57.8	6.2	0.00e+00	0	31	104	0	75	21407
2026-01-09 09:15:19.49	21.98	8.40	-54.5	-57.8	6.2	0.00e+00	0	31	104	0	75	21425
2026-01-09 09:15:20.48	22.00	8.49	-54.5	-57.8	6.2	0.00e+00	0	31	104	0	75	21372
2026-01-09 09:15:21.47	22.02	8.59	-54.5	-57.8	6.2	0.00e+00	0	31	104	0	75	21415
2026-01-09 09:15:22.47	22.03	8.68	-54.6	-57.8	6.2	0.00e+00	0	31	104	0	75	21455
2026-01-09 09:15:23.46	22.05	8.78	-54.6	-57.8	6.2	0.00e+00	0	31	104	0	75	21481
2026-01-09 09:15:24.45	22.07	8.87	-54.6	-57.8	6.2	0.00e+00	0	31	104	0	75	21418
2026-01-09 09:15:25.45	22.09	8.97	-54.6	-57.8	6.2	0.00e+00	0	31	104	0	75	21449
2026-01-09 09:15:26.43	22.11	9.07	-54.6	-57.8	6.1	0.00e+00	0	31	104	0	75	21416
2026-01-09 09:15:27.41	22.13	9.17	-54.6	-57.8	6.2	0.00e+00	0	31	104	0	75	21521
2026-01-09 09:15:28.40	22.15	9.26	-54.6	-57.8	6.2	0.00e+00	0	31	104	0	75	21496
2026-01-09 09:15:29.38	22.16	9.36	-54.6	-57.8	6.2	0.00e+00	0	31	104	0	75	21532
2026-01-09 09:15:30.36	22.18	9.46	-54.6	-57.8	6.2	0.00e+00	0	31	104	0	75	21489
2026-01-09 09:15:31.34	22.20	9.56	-55.6	-58.8	6.2	0.00e+00	0	31	104	0	76	22794
2026-01-09 09:15:32.33	22.22	9.66	-56.9	-60.2	6.2	0.00e+00	0	31	104	0	79	22433
2026-01-09 09:15:33.32	22.24	9.76	-57.4	-60.7	6.2	0.00e+00	0	31	104	0	80	22413
2026-01-09 09:15:34.30	22.26	9.86	-57.7	-60.9	6.1	0.00e+00	0	31	104	0	81	21788
2026-01-09 09:15:35.28	22.28	9.96	-57.8	-61.0	6.2	0.00e+00	0	31	104	0	81	21948
2026-01-09 09:15:36.27	22.30	10.06	-57.7	-61.0	6.2	0.00e+00	0	31	104	0	81	21902
2026-01-09 09:15:37.25	22.32	10.17	-57.8	-61.0	6.2	0.00e+00	0	31	104	0	81	21880
2026-01-09 09:15:38.23	22.34	10.27	-58.0	-61.2	6.1	0.00e+00	0	31	104	0	81	22527
2026-01-09 09:15:39.22	22.36	10.37	-58.2	-61.5	6.2	0.00e+00	0	31	104	0	82	21860
2026-01-09 09:15:40.21	22.38	10.48	-58.4	-61.6	6.2	0.00e+00	0	31	104	0	82	22204
2026-01-09 09:15:41.19	22.40	10.58	-58.5	-61.7	6.2	0.00e+00	0	31	104	0	82	22428
2026-01-09 09:15:42.17	22.42	10.69	-58.6	-61.8	6.1	0.00e+00	0	31	104	0	82	22755
2026-01-09 09:15:43.16	22.44	10.80	-58.7	-61.9	6.2	0.00e+00	0	31	104	0	83	21736
2026-01-09 09:15:44.14	22.46	10.90	-58.7	-61.9	6.2	0.00e+00	0	31	104	0	83	21836
2026-01-09 09:15:45.13	22.49	11.01	-58.8	-62.0	6.2	0.00e+00	0	31	104	0	83	22026
2026-01-09 09:15:46.13	22.51	11.12	-58.9	-62.1	6.2	0.00e+00	0	31	104	0	83	22238
2026-01-09 09:15:47.11	22.53	11.23	-58.9	-62.1	6.2	0.00e+00	0	31	104	0	83	22263
2026-01-09 09:15:48.10	22.55	11.34	-58.9	-62.1	6.2	0.00e+00	0	31	104	0	83	22351
2026-01-09 09:15:49.09	22.57	11.45	-58.9	-62.1	6.1	0.00e+00	0	31	104	0	83	22347
2026-01-09 09:15:50.08	22.59	11.56	-58.9	-62.1	6.2	0.00e+00	0	31	104	0	83	22356
2026-01-09 09:15:51.07	22.62	11.67	-58.9	-62.1	6.1	0.00e+00	0	31	104	0	83	22308
2026-01-09 09:15:52.05	22.64	11.78	-58.9	-62.1	6.1	0.00e+00	0	32	104	0	83	22219
2026-01-09 09:15:53.04	22.66	11.90	-58.9	-62.2	6.2	0.00e+00	0	31	104	0	83	22386
2026-01-09 09:15:54.03	22.68	12.01	-59.0	-62.3	6.2	0.00e+00	0	31	104	0	83	22654
2026-01-09 09:15:55.01	22.71	12.12	-59.1	-62.3	6.2	0.00e+00	0	31	104	0	83	22875
2026-01-09 09:15:55.99	22.73	12.24	-59.3	-62.6	6.2	0.00e+00	0	31	104	0	84	22128
2026-01-09 09:15:56.97	22.75	12.35	-59.4	-62.6	6.2	0.00e+00	0	31	104	0	84	22206
2026-01-09 09:15:57.96	22.78	12.47	-59.4	-62.7	6.2	0.00e+00	0	31	104	0	84	22370
2026-01-09 09:15:58.94	22.80	12.58	-59.5	-62.7	6.1	0.00e+00	0	32	104	0	84	22445
2026-01-09 09:15:59.92	22.82	12.70	-59.5	-62.7	6.2	0.00e+00	0	32	104	0	84	22574
2026-01-09 09:16:00.91	22.85	12.82	-59.5	-62.7	6.2	0.00e+00	0	32	104	0	84	22596
2026-01-09 09:16:01.90	22.87	12.94	-59.5	-62.8	6.2	0.00e+00	0	32	104	0	84	22688
2026-01-09 09:16:02.89	22.90	13.06	-59.5	-62.8	6.2	0.00e+00	0	32	104	0	84	22715
2026-01-09 09:16:03.88	22.92	13.18	-59.5	-62.8	6.2	0.00e+00	0	31	104	0	84	22645
2026-01-09 09:16:04.87	22.94	13.30	-59.6	-62.8	6.2	0.00e+00	0	32	104	0	84	22753
2026-01-09 09:16:05.86	22.97	13.43	-59.6	-62.8	6.2	0.00e+00	0	32	104	0	84	22762
2026-01-09 09:16:06.86	23.00	13.55	-59.6	-62.9	6.2	0.00e+00	0	32	104	0	84	22933
2026-01-09 09:16:07.84	23.02	13.67	-59.6	-62.8	6.2	0.00e+00	0	32	104	0	84	22762
2026-01-09 09:16:08.83	23.05	13.80	-59.5	-62.8	6.2	0.00e+00	0	32	104	0	84	22644
2026-01-09 09:16:09.82	23.07	13.93	-59.5	-62.7	6.2	0.00e+00	0	32	104	0	84	22603
2026-01-09 09:16:10.81	23.10	14.05	-59.5	-62.7	6.2	0.00e+00	0	32	104	0	84	22618
2026-01-09 09:16:11.79	23.12	14.18	-59.5	-62.7	6.2	0.00e+00	0	32	104	0	84	22546
2026-01-09 09:16:12.78	23.15	14.31	-59.5	-62.7	6.2	0.00e+00	0	32	104	0	84	22560
2026-01-09 09:16:13.76	23.18	14.44	-59.6	-62.8	6.2	0.00e+00	0	32	104	0	84	22813
2026-01-09 09:16:14.74	23.20	14.56	-59.6	-62.8	6.2	0.00e+00	0	32	104	0	84	22714
2026-01-09 09:16:15.73	23.23	14.70	-59.6	-62.8	6.2	0.00e+00	0	32	104	0	84	22707
2026-01-09 09:16:16.72	23.26	14.83	-59.5	-62.8	6.2	0.00e+00	0	32	104	0	84	22633
2026-01-09 09:16:17.71	23.29	14.96	-59.5	-62.7	6.1	0.00e+00	0	32	104	0	84	22501
2026-01-09 09:16:18.70	23.31	15.10	-59.5	-62.7	6.2	0.00e+00	0	32	104	0	84	22494
2026-01-09 09:16:19.69	23.34	15.23	-59.5	-62.7	6.2	0.00e+00	0	32	104	0	84	22469
2026-01-09 09:16:20.68	23.37	15.37	-59.4	-62.7	6.2	0.00e+00	0	32	104	0	84	22405
2026-01-09 09:16:21.67	23.40	15.50	-59.4	-62.6	6.1	0.00e+00	0	32	104	0	84	22344
2026-01-09 09:16:22.65	23.43	15.64	-59.4	-62.6	6.2	0.00e+00	0	32	104	0	84	22316
2026-01-09 09:16:23.63	23.46	15.78	-59.4	-62.6	6.1	0.00e+00	0	32	104	0	84	22260
2026-01-09 09:16:24.62	23.49	15.92	-59.4	-62.6	6.2	0.00e+00	0	32	104	0	84	22263
2026-01-09 09:16:25.60	23.52	16.06	-59.4	-62.6	6.1	0.00e+00	0	32	104	0	84	22306
2026-01-09 09:16:26.59	23.55	16.20	-59.4	-62.6	6.2	0.00e+00	0	32	104	0	84	22282
2026-01-09 09:16:27.57	23.58	16.34	-59.4	-62.6	6.2	0.00e+00	0	32	104	0	84	22208
2026-01-09 09:16:28.55	23.61	16.48	-59.4	-62.6	6.2	0.00e+00	0	32	104	0	84	22206
2026-01-09 09:16:29.55	23.64	16.63	-59.4	-62.6	6.1	0.00e+00	0	32	104	0	84	22194
2026-01-09 09:16:30.53	23.67	16.78	-59.3	-62.6	6.2	0.00e+00	0	32	104	0	84	22117
2026-01-09 09:16:31.52	23.70	16.92	-59.3	-62.6	6.2	0.00e+00	0	32	104	0	84	22151
2026-01-09 09:16:32.51	23.73	17.07	-59.3	-62.6	6.2	0.00e+00	0	32	104	0	84	22122
2026-01-09 09:16:33.50	23.76	17.22	-59.3	-62.6	6.2	0.00e+00	0	32	104	0	84	22123
2026-01-09 09:16:34.49	23.80	17.37	-59.4	-62.6	6.2	0.00e+00	0	32	104	0	84	22263
2026-01-09 09:16:35.47	23.83	17.52	-59.5	-62.7	6.2	0.00e+00	0	32	104	0	84	22558
2026-01-09 09:16:36.46	23.86	17.68	-59.5	-62.7	6.2	0.00e+00	0	32	104	0	84	22611
2026-01-09 09:16:37.44	23.89	17.83	-59.5	-62.8	6.2	0.00e+00	0	32	104	0	84	22663
2026-01-09 09:16:38.42	23.93	17.99	-59.5	-62.7	6.2	0.00e+00	0	32	104	0	84	22515
2026-01-09 09:16:39.41	23.96	18.14	-59.5	-62.7	6.2	0.00e+00	0	32	104	0	84	22502
2026-01-09 09:16:40.39	24.00	18.30	-59.5	-62.7	6.2	0.00e+00	0	32	104	0	84	22465
2026-01-09 09:16:41.38	24.03	18.46	-59.5	-62.7	6.1	0.00e+00	0	32	104	0	84	22478
2026-01-09 09:16:42.37	24.07	18.62	-59.4	-62.7	6.2	0.00e+00	0	32	104	0	84	22393
2026-01-09 09:16:43.35	24.10	18.78	-59.5	-62.7	6.2	0.00e+00	0	32	104	0	84	22492
2026-01-09 09:16:44.34	24.14	18.94	-59.4	-62.6	6.2	0.00e+00	0	32	104	0	84	22301
2026-01-09 09:16:45.33	24.17	19.11	-59.3	-62.6	6.2	0.00e+00	0	32	104	0	84	22112
2026-01-09 09:16:46.31	24.21	19.27	-59.3	-62.5	6.2	0.00e+00	0	32	104	0	84	22042
2026-01-09 09:16:47.30	24.25	19.44	-59.3	-62.5	6.2	0.00e+00	0	32	104	0	84	22019
2026-01-09 09:16:48.28	24.29	19.61	-59.2	-62.5	6.2	0.00e+00	0	32	104	0	84	21882
2026-01-09 09:16:49.28	24.32	19.78	-59.2	-62.4	6.2	0.00e+00	0	32	104	0	84	21706
2026-01-09 09:16:50.27	24.36	19.95	-59.1	-62.3	6.2	0.00e+00	0	32	104	0	84	21475
2026-01-09 09:16:51.26	24.40	20.13	-59.0	-62.1	6.2	0.00e+00	0	32	104	0	84	21044
2026-01-09 09:16:52.25	24.44	20.30	-58.6	-61.6	6.2	0.00e+00	0	32	104	0	83	21089
2026-01-09 09:16:53.23	24.48	20.48	-43.7	-44.1	11.7	0.00e+00	0	33	0	8388608	53	15659
2026-01-09 09:16:54.22	24.52	20.66	-45.9	-46.3	11.0	3.76e-02	0	33	0	117440512	57	16153
2026-01-09 09:16:55.21	24.56	20.84	-46.3	-46.8	10.9	3.76e-02	0	33	0	226492416	58	16054
2026-01-09 09:16:56.21	24.60	21.02	-46.7	-47.1	10.8	3.76e-02	0	33	0	335544320	59	15761
2026-01-09 09:16:57.19	24.65	21.20	-48.6	-49.1	10.1	9.76e-02	5513	34	0	452984832	64	14904
2026-01-09 09:16:58.19	24.69	21.39	-40.9	-41.3	12.4	9.76e-02	0	33	0	562036736	48	15138
2026-01-09 09:16:59.19	24.73	21.58	-53.8	-54.9	7.7	9.20e-02	15	33	104	637534208	75	15329
2026-01-09 09:17:00.18	24.77	21.76	-40.5	-40.8	12.5	2.54e-02	0	33	0	662700032	48	14328
2026-01-09 09:17:01.17	24.82	21.95	-39.2	-39.5	12.4	2.54e-02	0	33	0	780140544	45	14771
2026-01-09 09:17:02.16	24.86	22.15	-39.1	-39.4	12.5	2.54e-02	0	33	0	889192448	45	14448
2026-01-09 09:17:03.16	24.91	22.34	-37.9	-38.2	12.7	6.74e-03	0	34	0	998244352	43	14115
2026-01-09 09:17:04.15	24.95	22.54	-37.0	-37.2	12.8	6.74e-03	0	33	0	1107296256	41	14271
2026-01-09 09:17:05.14	25.00	22.73	-36.4	-36.7	12.9	1.51e-03	0	34	0	1224736768	40	14164
2026-01-09 09:17:06.14	25.05	22.94	-36.2	-36.4	12.8	1.51e-03	0	34	0	1333788672	39	14589
2026-01-09 09:17:07.13	25.10	23.14	-36.1	-36.3	12.9	1.51e-03	0	34	0	1451229184	39	14438
2026-01-09 09:17:08.12	25.14	23.34	-36.0	-36.3	12.9	6.39e-04	0	34	0	1560281088	39	14343
2026-01-09 09:17:09.11	25.19	23.54	-36.0	-36.3	12.9	6.39e-04	0	34	0	1669332992	39	14348
2026-01-09 09:17:10.10	25.24	23.75	-35.7	-36.0	12.9	3.62e-04	0	34	0	1778384896	38	14639
2026-01-09 09:17:11.09	25.29	23.96	-35.7	-36.0	12.9	3.62e-04	0	34	0	1895825408	38	14707
2026-01-09 09:17:12.09	25.34	24.17	-35.5	-35.8	12.9	3.62e-04	0	34	0	2004877312	38	14387
2026-01-09 09:17:13.08	25.39	24.39	-35.4	-35.7	13.0	3.10e-04	0	34	0	2113929216	38	14176
2026-01-09 09:17:14.06	25.45	24.60	-35.3	-35.6	12.9	3.10e-04	0	34	0	2222981120	37	14842
2026-01-09 09:17:15.05	25.50	24.82	-35.3	-35.6	12.9	3.10e-04	0	34	0	2340421632	37	14826
2026-01-09 09:17:16.04	25.55	25.04	-35.1	-35.4	13.0	3.10e-04	0	34	0	2449473536	37	14525
2026-01-09 09:17:17.02	25.61	25.26	-35.1	-35.4	13.0	2.72e-04	0	34	0	2558525440	37	14550
2026-01-09 09:17:18.02	25.66	25.48	-34.9	-35.2	13.0	2.72e-04	0	34	0	2667577344	37	14186
2026-01-09 09:17:19.01	25.72	25.71	-34.6	-34.9	13.0	2.72e-04	0	34	0	2785017856	36	14568
2026-01-09 09:17:20.00	25.78	25.94	-34.7	-35.0	13.0	1.62e-04	0	34	0	2894069760	36	14627
2026-01-09 09:17:20.99	25.83	26.17	-34.5	-34.8	13.0	1.62e-04	0	34	0	3003121664	36	14320
2026-01-09 09:17:21.99	25.89	26.40	-34.5	-34.8	13.0	1.38e-04	0	34	0	3120562176	36	14341
2026-01-09 09:17:22.98	25.95	26.64	-34.5	-34.8	13.0	1.38e-04	0	34	0	3229614080	36	14285
2026-01-09 09:17:23.97	26.01	26.88	-31.7	-32.0	12.9	1.38e-04	0	34	0	3347054592	30	14659
2026-01-09 09:17:24.96	26.07	27.12	-31.8	-32.1	12.9	2.00e-04	0	34	0	3447717888	30	14883
2026-01-09 09:17:25.96	26.14	27.36	-31.7	-32.0	12.9	2.00e-04	0	34	0	3565158400	30	14640
2026-01-09 09:17:26.94	26.20	27.61	-31.5	-31.8	13.0	2.00e-04	0	34	0	3674210304	30	14284
2026-01-09 09:17:27.94	26.27	27.86	-31.6	-31.9	12.9	2.10e-04	0	34	0	3791650816	30	14451
2026-01-09 09:17:28.93	26.33	28.11	-31.4	-31.6	13.0	2.10e-04	0	34	0	3900702720	30	14067
2026-01-09 09:17:29.92	26.40	28.37	-31.2	-31.5	13.0	2.10e-04	0	34	0	4009754624	29	14712
2026-01-09 09:17:30.91	26.46	28.62	-31.2	-31.5	13.0	1.48e-04	0	34	0	4118806528	29	14669
2026-01-09 09:17:31.89	26.53	28.88	-31.2	-31.5	13.0	1.48e-04	0	34	0	4236247040	29	14666
2026-01-09 09:17:32.89	26.60	29.14	-31.0	-31.3	13.0	1.48e-04	0	34	0	4345298944	29	14286
2026-01-09 09:17:33.89	26.68	29.41	-31.0	-31.2	13.0	1.48e-04	0	34	0	4454350848	29	14245
2026-01-09 09:17:34.87	26.75	29.68	-30.9	-31.2	13.0	9.53e-05	0	34	0	4563402752	29	14130
2026-01-09 09:17:35.86	26.82	29.95	-30.7	-31.0	13.0	9.53e-05	0	34	0	4680843264	28	14657
2026-01-09 09:17:36.84	26.89	30.22	-30.7	-31.0	13.0	9.53e-05	0	34	0	4789895168	28	14704
2026-01-09 09:17:37.82	26.97	30.50	-30.7	-30.9	13.0	6.67e-05	0	35	0	4898947072	28	14560
2026-01-09 09:17:38.82	27.05	30.78	-30.5	-30.8	13.0	6.67e-05	0	34	0	5016387584	28	14317
2026-01-09 09:17:39.81	27.13	31.06	-30.5	-30.7	13.0	6.67e-05	0	34	0	5117050880	28	14262
2026-01-09 09:17:40.80	27.21	31.35	-30.3	-30.6	13.0	7.62e-05	0	34	0	5234491392	27	14876
2026-01-09 09:17:41.79	27.29	31.64	-30.3	-30.6	13.0	7.62e-05	0	34	0	5343543296	27	14778
2026-01-09 09:17:42.78	27.37	31.93	-30.3	-30.5	13.0	8.58e-05	0	35	0	5460983808	27	14721
2026-01-09 09:17:43.76	27.46	32.23	-30.2	-30.5	13.0	8.58e-05	0	35	0	5561647104	27	14662
2026-01-09 09:17:44.74	27.54	32.53	-29.9	-30.1	13.1	8.58e-05	0	34	0	5679087616	27	14084
2026-01-09 09:17:45.73	27.63	32.83	-29.8	-30.1	13.1	5.24e-05	0	35	0	5788139520	26	14806
2026-01-09 09:17:46.72	27.72	33.14	-29.9	-30.1	13.1	5.24e-05	0	35	0	5897191424	26	14901
2026-01-09 09:17:47.70	27.81	33.44	-29.6	-29.8	13.1	2.86e-05	0	35	0	6006243328	26	14413
2026-01-09 09:17:48.70	27.90	33.76	-29.4	-29.7	13.1	2.86e-05	0	35	0	6123683840	26	14211
2026-01-09 09:17:49.69	28.00	34.08	-29.3	-29.6	13.1	2.86e-05	0	35	0	6232735744	25	14791
2026-01-09 09:17:50.68	28.10	34.40	-29.3	-29.5	13.1	9.50e-06	0	35	0	6350176256	25	14749
2026-01-09 09:17:51.68	28.20	34.73	-29.1	-29.4	13.1	9.50e-06	0	34	0	6459228160	25	14551
2026-01-09 09:17:52.66	28.30	35.06	-29.0	-29.2	13.1	9.50e-06	0	35	0	6568280064	25	14270
2026-01-09 09:17:53.66	28.40	35.40	-29.0	-29.2	13.1	9.50e-06	0	35	0	6677331968	25	14262
2026-01-09 09:17:54.65	28.51	35.74	-28.8	-29.1	13.1	9.50e-06	0	35	0	6794772480	24	14821
2026-01-09 09:17:55.65	28.61	36.08	-28.8	-29.1	13.1	9.50e-06	0	35	0	6903824384	24	14806
2026-01-09 09:17:56.63	28.72	36.42	-28.5	-28.8	13.2	1.43e-05	0	35	0	7012876288	24	14344
2026-01-09 09:17:57.63	28.84	36.78	-28.6	-28.9	13.2	1.43e-05	0	35	0	7130316800	24	14441
2026-01-09 09:17:58.63	28.95	37.14	-28.4	-28.7	13.2	9.50e-06	0	35	0	7239368704	24	14178
2026-01-09 09:17:59.62	29.07	37.50	-28.4	-28.7	13.2	9.50e-06	0	35	0	7348420608	24	14148
2026-01-09 09:18:00.61	29.19	37.86	-28.1	-28.3	13.2	9.50e-06	0	35	0	7457472512	23	14439
2026-01-09 09:18:01.61	29.32	38.23	-28.1	-28.3	13.2	9.50e-06	0	35	0	7574913024	23	14376
2026-01-09 09:18:02.60	29.44	38.60	-28.1	-28.4	13.2	9.50e-06	0	35	0	7683964928	23	14456
2026-01-09 09:18:03.59	29.57	38.98	-27.8	-28.1	13.2	0.00e+00	0	35	0	7801405440	22	14812
2026-01-09 09:18:04.58	29.70	39.36	-27.7	-27.9	13.2	0.00e+00	0	35	0	7910457344	22	14555
2026-01-09 09:18:05.57	29.84	39.75	-27.6	-27.9	13.2	0.00e+00	0	35	0	8019509248	22	14487
2026-01-09 09:18:06.56	29.98	40.14	-27.4	-27.7	13.3	0.00e+00	0	35	0	8128561152	22	14143
2026-01-09 09:18:07.55	30.12	40.54	-27.2	-27.5	13.2	0.00e+00	0	35	0	8246001664	21	14691
2026-01-09 09:18:08.55	30.27	40.94	-27.1	-27.4	13.2	0.00e+00	0	35	0	8355053568	21	14547
2026-01-09 09:18:09.54	30.41	41.35	-27.1	-27.4	13.3	9.50e-06	0	35	0	8464105472	21	14455
2026-01-09 09:18:10.53	30.57	41.76	-27.0	-27.3	13.3	9.50e-06	0	35	0	8581545984	21	14377
2026-01-09 09:18:11.52	30.73	42.17	-26.8	-27.1	13.3	9.50e-06	0	35	0	8690597888	20	14789
2026-01-09 09:18:12.52	30.89	42.60	-26.7	-27.0	13.3	0.00e+00	0	35	0	8808038400	20	14700
2026-01-09 09:18:13.51	31.05	43.02	-26.8	-27.0	13.3	0.00e+00	0	35	0	8908701696	20	14769
2026-01-09 09:18:14.51	31.23	43.46	-26.6	-26.9	13.3	0.00e+00	0	35	0	9026142208	20	14490
2026-01-09 09:18:15.50	31.40	43.90	-26.4	-26.7	13.4	0.00e+00	0	35	0	9135194112	20	14169
2026-01-09 09:18:16.48	31.58	44.34	-26.3	-26.6	13.3	0.00e+00	0	35	0	9252634624	19	14902
2026-01-09 09:18:17.49	31.77	44.79	-26.2	-26.5	13.3	0.00e+00	0	35	0	9361686528	19	14693
2026-01-09 09:18:18.49	31.96	45.25	-26.2	-26.5	13.3	0.00e+00	0	35	0	9470738432	19	14610
2026-01-09 09:18:19.49	32.16	45.71	-26.1	-26.4	13.4	0.00e+00	0	35	0	9588178944	19	14462
2026-01-09 09:18:20.47	32.36	46.17	-26.0	-26.3	13.4	0.00e+00	0	35	0	9697230848	19	14286
2026-01-09 09:18:21.46	32.57	46.64	-25.9	-26.1	13.4	0.00e+00	0	35	0	9806282752	19	14079
2026-01-09 09:18:22.46	32.79	47.12	-25.8	-26.0	13.4	0.00e+00	0	35	0	9915334656	18	14768
2026-01-09 09:18:23.46	33.01	47.61	-25.7	-26.0	13.4	0.00e+00	0	35	0	10032775168	18	14623
2026-01-09 09:18:24.45	33.24	48.09	-25.7	-25.9	13.4	0.00e+00	0	35	0	10141827072	18	14604
2026-01-09 09:18:25.44	33.48	48.59	-25.6	-25.9	13.4	0.00e+00	0	35	0	10259267584	18	14450
2026-01-09 09:18:26.43	33.72	49.08	-25.4	-25.7	13.4	0.00e+00	0	35	0	10368319488	18	14143
2026-01-09 09:18:27.43	33.98	49.59	-25.5	-25.8	13.4	0.00e+00	0	35	0	10485760000	18	14327
2026-01-09 09:18:28.42	34.24	50.10	-25.5	-25.7	13.5	0.00e+00	0	35	0	10594811904	18	14236
2026-01-09 09:18:29.42	34.51	50.62	-25.2	-25.5	13.4	0.00e+00	0	35	0	10703863808	17	14648
2026-01-09 09:18:30.41	34.79	51.14	-25.0	-25.3	13.4	0.00e+00	0	35	0	10812915712	17	14331
2026-01-09 09:18:31.40	35.08	51.67	-24.9	-25.2	13.5	0.00e+00	0	35	0	10921967616	17	14124
2026-01-09 09:18:32.40	35.39	52.21	-24.9	-25.1	13.5	0.00e+00	0	35	0	11039408128	17	14096
2026-01-09 09:18:33.40	35.70	52.75	-24.6	-24.9	13.5	0.00e+00	0	35	0	11148460032	16	14507
2026-01-09 09:18:34.39	36.02	53.30	-24.6	-24.9	13.5	0.00e+00	0	35	0	11265900544	16	14445
2026-01-09 09:18:35.38	36.36	53.85	-24.6	-24.8	13.5	0.00e+00	0	35	0	11374952448	16	14425
2026-01-09 09:18:36.36	36.71	54.40	-24.5	-24.7	13.5	0.00e+00	0	35	0	11484004352	16	14249
2026-01-09 09:18:37.35	37.07	54.96	-24.4	-24.6	13.5	0.00e+00	0	35	0	11593056256	16	14106
2026-01-09 09:18:38.35	37.45	55.53	-24.0	-24.3	13.5	0.00e+00	0	35	0	11710496768	15	14315
2026-01-09 09:18:39.34	37.85	56.10	-23.8	-24.1	13.5	0.00e+00	0	35	0	11819548672	14	14819
2026-01-09 09:18:40.34	38.26	56.68	-23.8	-24.1	13.5	0.00e+00	0	35	0	11936989184	14	14815
2026-01-09 09:18:41.33	38.69	57.27	-23.8	-24.0	13.5	0.00e+00	0	35	0	12046041088	14	14763
2026-01-09 09:18:42.33	39.14	57.86	-23.7	-23.9	13.5	0.00e+00	0	35	0	12155092992	14	14599
2026-01-09 09:18:43.32	39.61	58.45	-23.6	-23.8	13.5	0.00e+00	0	35	0	12264144896	14	14403
2026-01-09 09:18:44.31	40.10	59.05	-23.6	-23.9	13.5	0.00e+00	0	35	0	12373196800	14	14442
2026-01-09 09:18:45.30	40.61	59.65	-23.4	-23.7	13.5	0.00e+00	0	35	0	12490637312	14	14179
2026-01-09 09:18:46.30	41.16	60.26	-23.4	-23.7	13.5	0.00e+00	0	35	0	12599689216	14	14175
2026-01-09 09:18:47.29	41.72	60.87	-23.4	-23.6	13.5	0.00e+00	0	35	0	12717129728	14	14108
2026-01-09 09:18:48.28	42.31	61.49	-23.2	-23.5	13.5	0.00e+00	0	35	0	12826181632	13	14632
2026-01-09 09:18:49.27	42.93	62.10	-23.2	-23.5	13.5	0.00e+00	0	35	0	12943622144	13	14628
2026-01-09 09:18:50.26	43.59	62.72	-23.2	-23.4	13.5	0.00e+00	0	35	0	13044285440	13	14563
2026-01-09 09:18:51.26	44.28	63.35	-23.1	-23.4	13.5	0.00e+00	0	35	0	13161725952	13	14464
2026-01-09 09:18:52.25	45.01	63.98	-23.0	-23.3	13.5	0.00e+00	0	35	0	13270777856	13	14291
2026-01-09 09:18:53.25	45.79	64.61	-22.9	-23.2	13.5	0.00e+00	0	35	0	13388218368	13	14206
2026-01-09 09:18:54.24	46.60	65.24	-22.9	-23.2	13.5	0.00e+00	0	35	0	13497270272	13	14160
2026-01-09 09:18:55.22	47.45	65.86	-22.9	-23.1	13.5	0.00e+00	0	35	0	13606322176	13	14102
2026-01-09 09:18:56.22	48.37	66.50	-23.0	-23.2	13.5	0.00e+00	0	35	0	13723762688	13	14215
2026-01-09 09:18:57.21	49.34	67.13	-22.8	-23.1	13.5	0.00e+00	0	35	0	13824425984	12	14812
2026-01-09 09:18:58.21	50.37	67.76	-22.9	-23.1	13.5	0.00e+00	0	35	0	13941866496	12	14898
2026-01-09 09:18:59.20	51.47	68.39	-22.9	-23.1	13.5	0.00e+00	0	35	0	14050918400	12	14890
2026-01-09 09:19:00.20	52.64	69.02	-22.8	-23.0	13.5	0.00e+00	0	35	0	14168358912	12	14698
2026-01-09 09:19:01.19	53.88	69.64	-22.8	-23.0	13.5	0.00e+00	0	35	0	14277410816	12	14681
2026-01-09 09:19:02.19	55.22	70.26	-22.7	-23.0	13.5	0.00e+00	0	35	0	14394851328	12	14646
2026-01-09 09:19:03.18	56.64	70.87	-22.7	-23.0	13.5	0.00e+00	0	35	0	14503903232	12	14612
2026-01-09 09:19:04.17	58.15	71.47	-22.7	-22.9	13.5	0.00e+00	0	35	0	14612955136	12	14589
2026-01-09 09:19:05.16	59.77	72.06	-22.6	-22.9	13.5	0.00e+00	0	35	0	14722007040	12	14499
2026-01-09 09:19:06.15	61.51	72.64	-23.0	-23.3	13.5	0.00e+00	0	35	0	14839447552	12	15124
2026-01-09 09:19:07.14	63.38	73.21	-22.8	-23.0	13.5	0.00e+00	0	35	0	14948499456	12	14751
2026-01-09 09:19:08.13	65.38	73.76	-22.8	-23.0	13.5	0.00e+00	0	35	0	15057551360	12	14735
2026-01-09 09:19:09.13	67.54	74.30	-22.7	-23.0	13.5	0.00e+00	0	35	0	15174991872	12	14658
2026-01-09 09:19:10.13	69.87	74.82	-22.7	-23.0	13.5	0.00e+00	0	35	0	15284043776	12	14684
2026-01-09 09:19:11.12	72.34	75.31	-22.7	-22.9	13.6	0.00e+00	0	35	0	15401484288	12	14580
2026-01-09 09:19:12.11	74.98	75.78	-22.7	-22.9	13.6	0.00e+00	0	35	0	15502147584	12	14537
2026-01-09 09:19:13.10	77.80	76.21	-22.7	-23.0	13.6	0.00e+00	0	35	0	15619588096	12	14675
2026-01-09 09:19:14.09	80.80	76.62	-22.7	-23.0	13.5	0.00e+00	0	35	0	15728640000	12	14638
2026-01-09 09:19:15.09	84.02	76.99	-22.6	-22.9	13.6	0.00e+00	0	35	0	15846080512	12	14474
2026-01-09 09:19:16.08	87.39	77.31	-22.8	-23.0	13.5	0.00e+00	0	35	0	15955132416	12	14714
2026-01-09 09:19:17.07	90.93	77.59	-22.6	-22.8	13.6	0.00e+00	0	35	0	16064184320	12	14409
2026-01-09 09:19:18.06	94.62	77.83	-22.6	-22.8	13.6	0.00e+00	0	35	0	16173236224	12	14374
2026-01-09 09:19:19.06	98.48	78.01	-22.5	-22.8	13.6	0.00e+00	0	35	0	16290676736	12	14284
2026-01-09 09:19:20.04	102.37	78.14	-22.5	-22.8	13.6	0.00e+00	0	35	0	16399728640	12	14332
2026-01-09 09:19:21.03	106.37	78.22	-22.5	-22.7	13.6	0.00e+00	0	35	0	16508780544	12	14227
2026-01-09 09:19:22.03	110.44	78.23	-22.5	-22.8	13.6	0.00e+00	0	35	0	16626221056	12	14309
2026-01-09 09:19:23.02	114.46	78.20	-22.6	-22.8	13.6	0.00e+00	0	35	0	16735272960	12	14409
2026-01-09 09:19:24.01	118.44	78.10	-22.5	-22.7	13.6	0.00e+00	0	35	0	16844324864	12	14228
2026-01-09 09:19:25.01	122.38	77.95	-22.4	-22.7	13.6	0.00e+00	0	35	0	16953376768	12	14149
2026-01-09 09:19:26.00	126.16	77.75	-22.5	-22.8	13.6	0.00e+00	0	35	0	17070817280	12	14354
2026-01-09 09:19:27.00	129.83	77.49	-22.5	-22.8	13.6	0.00e+00	0	35	0	17179869184	12	14310
2026-01-09 09:19:27.99	133.31	77.19	-22.6	-22.8	13.6	0.00e+00	0	35	0	17297309696	12	14382
2026-01-09 09:19:28.99	136.64	76.85	-22.5	-22.7	13.6	0.00e+00	0	35	0	17406361600	12	14237
2026-01-09 09:19:29.99	139.79	76.46	-22.5	-22.8	13.5	0.00e+00	0	35	0	17515413504	12	14316
2026-01-09 09:19:30.98	142.72	76.05	-22.6	-22.9	13.5	0.00e+00	0	35	0	17632854016	12	14523
2026-01-09 09:19:31.98	145.50	75.59	-22.5	-22.7	13.5	0.00e+00	0	35	0	17741905920	12	14232
2026-01-09 09:19:32.97	148.07	75.12	-22.6	-22.9	13.5	0.00e+00	0	35	0	17859346432	12	14477
2026-01-09 09:19:33.97	150.50	74.61	-22.5	-22.7	13.5	0.00e+00	0	35	0	17968398336	12	14269
2026-01-09 09:19:34.95	152.71	74.09	-22.6	-22.9	13.5	0.00e+00	0	35	0	18077450240	12	14500
2026-01-09 09:19:35.95	154.82	73.55	-22.6	-22.8	13.5	0.00e+00	0	35	0	18186502144	12	14413
2026-01-09 09:19:36.94	156.77	72.99	-22.5	-22.8	13.5	0.00e+00	0	35	0	18303942656	12	14371
2026-01-09 09:19:37.93	158.59	72.41	-22.6	-22.9	13.5	0.00e+00	0	35	0	18412994560	12	14463
2026-01-09 09:19:38.92	160.28	71.83	-22.6	-22.9	13.5	0.00e+00	0	35	0	18522046464	12	14478
2026-01-09 09:19:39.91	161.86	71.23	-22.7	-23.0	13.5	0.00e+00	0	35	0	18631098368	12	14636
2026-01-09 09:19:40.91	163.35	70.62	-22.6	-22.9	13.5	0.00e+00	0	35	0	18748538880	12	14517
2026-01-09 09:19:41.91	164.74	70.00	-22.6	-22.8	13.5	0.00e+00	0	36	0	18857590784	12	14404
2026-01-09 09:19:42.90	166.03	69.38	-22.6	-22.9	13.5	0.00e+00	0	35	0	18966642688	12	14522
2026-01-09 09:19:43.89	167.24	68.76	-22.7	-22.9	13.5	0.00e+00	0	35	0	19084083200	12	14555
2026-01-09 09:19:44.89	168.39	68.13	-22.8	-23.0	13.5	0.00e+00	0	35	0	19193135104	12	14745
2026-01-09 09:19:45.87	169.45	67.51	-22.8	-23.0	13.5	0.00e+00	0	35	0	19310575616	12	14721
2026-01-09 09:19:46.86	170.45	66.88	-22.8	-23.1	13.5	0.00e+00	0	35	0	19411238912	12	14808
2026-01-09 09:19:47.85	171.39	66.24	-22.9	-23.2	13.5	0.00e+00	0	35	0	19528679424	12	14997
2026-01-09 09:19:48.84	172.29	65.61	-22.9	-23.2	13.5	0.00e+00	0	35	0	19637731328	12	14972
2026-01-09 09:19:49.83	173.13	64.98	-23.0	-23.3	13.5	0.00e+00	0	35	0	19755171840	12	15165
2026-01-09 09:19:50.84	173.94	64.34	-23.0	-23.3	13.5	0.00e+00	0	35	0	19864223744	12	15214
2026-01-09 09:19:51.82	174.68	63.72	-23.0	-23.3	13.5	0.00e+00	0	35	0	19973275648	12	15155
2026-01-09 09:19:52.82	175.40	63.09	-23.1	-23.4	13.5	0.00e+00	0	35	0	20090716160	12	15328
2026-01-09 09:19:53.81	176.08	62.46	-23.3	-23.5	13.5	0.00e+00	0	35	0	20199768064	12	15607
2026-01-09 09:19:54.81	176.73	61.84	-23.2	-23.5	13.5	0.00e+00	0	36	0	20308819968	12	15493
2026-01-09 09:19:55.80	177.34	61.22	-23.4	-23.7	13.5	0.00e+00	0	35	0	20417871872	12	15929
2026-01-09 09:19:56.79	177.92	60.61	-23.4	-23.6	13.5	0.00e+00	0	35	0	20535312384	12	15797
2026-01-09 09:19:57.80	178.48	59.98	-23.5	-23.8	13.5	0.00e+00	0	35	0	20644364288	12	16106
2026-01-09 09:19:58.80	179.02	59.37	-23.5	-23.8	13.5	0.00e+00	0	35	0	20761804800	12	16045
2026-01-09 09:19:59.79	179.52	58.77	-23.6	-23.9	13.5	0.00e+00	0	35	0	20870856704	13	15383
2026-01-09 09:20:00.78	180.00	58.18	-23.7	-23.9	13.5	0.00e+00	0	35	0	20979908608	13	15448
2026-01-09 09:20:01.78	180.46	57.58	-23.8	-24.1	13.5	0.00e+00	0	35	0	21097349120	13	15661
2026-01-09 09:20:02.77	180.90	56.99	-23.9	-24.2	13.5	0.00e+00	0	35	0	21206401024	13	15841
2026-01-09 09:20:03.76	181.32	56.41	-23.9	-24.1	13.4	0.00e+00	0	35	0	21315452928	13	15772
2026-01-09 09:20:04.75	181.73	55.83	-24.0	-24.3	13.4	0.00e+00	0	35	0	21424504832	13	16060
2026-01-09 09:20:05.74	182.12	55.26	-24.1	-24.4	13.4	0.00e+00	0	35	0	21541945344	13	16214
2026-01-09 09:20:06.73	182.49	54.70	-24.2	-24.4	13.4	0.00e+00	0	35	0	21650997248	14	15472
2026-01-09 09:20:07.73	182.85	54.13	-24.2	-24.5	13.4	4.70e-06	0	35	0	21768437760	14	15558
2026-01-09 09:20:08.71	183.19	53.58	-24.3	-24.6	13.4	4.70e-06	0	35	0	21869101056	14	15707
2026-01-09 09:20:09.71	183.53	53.03	-24.4	-24.7	13.4	4.70e-06	0	35	0	21986541568	14	15864
2026-01-09 09:20:10.70	183.84	52.48	-24.5	-24.7	13.4	0.00e+00	0	36	0	22095593472	14	16007
2026-01-09 09:20:11.69	184.15	51.95	-24.5	-24.8	13.4	0.00e+00	0	36	0	22213033984	14	16128
2026-01-09 09:20:12.68	184.45	51.42	-24.7	-25.0	13.4	0.00e+00	0	36	0	22322085888	15	15560
2026-01-09 09:20:13.67	184.73	50.89	-59.3	-62.6	6.2	0.00e+00	0	35	104	22380806144	84	22149
2026-01-09 09:20:14.67	185.01	50.36	-59.3	-62.5	6.2	0.00e+00	0	35	104	22380806144	84	22066
2026-01-09 09:20:15.65	185.28	49.85	-59.3	-62.6	6.2	0.00e+00	0	35	104	22380806144	84	22192
2026-01-09 09:20:16.65	185.54	49.34	-59.3	-62.5	6.2	0.00e+00	0	35	104	22380806144	84	22096
2026-01-09 09:20:17.65	185.79	48.83	-59.3	-62.6	6.2	0.00e+00	0	35	104	22380806144	84	22144
2026-01-09 09:20:18.64	186.03	48.34	-59.3	-62.6	6.2	0.00e+00	0	35	104	22380806144	84	22139
2026-01-09 09:20:19.64	186.27	47.84	-59.3	-62.5	6.2	0.00e+00	0	35	104	22380806144	84	22023
2026-01-09 09:20:20.64	186.49	47.35	-59.3	-62.5	6.2	0.00e+00	0	34	104	22380806144	84	22011
2026-01-09 09:20:21.64	186.72	46.86	-59.3	-62.5	6.2	0.00e+00	0	35	104	22380806144	84	22103
2026-01-09 09:20:22.62	186.93	46.39	-59.3	-62.5	6.1	0.00e+00	0	35	104	22380806144	84	22105
2026-01-09 09:20:23.62	187.13	45.92	-59.2	-62.5	6.1	0.00e+00	0	35	104	22380806144	84	21913
2026-01-09 09:20:24.61	187.33	45.46	-59.2	-62.5	6.2	0.00e+00	0	35	104	22380806144	84	21890
2026-01-09 09:20:25.60	187.53	45.00	-59.3	-62.5	6.2	0.00e+00	0	34	104	22380806144	84	21948
2026-01-09 09:20:26.60	187.72	44.54	-59.3	-62.5	6.2	0.00e+00	0	35	104	22380806144	84	21933
2026-01-09 09:20:27.59	187.90	44.10	-59.2	-62.5	6.2	0.00e+00	0	34	104	22380806144	84	21934
2026-01-09 09:20:28.58	188.08	43.66	-59.2	-62.5	6.1	0.00e+00	0	34	104	22380806144	84	21857
2026-01-09 09:20:29.57	188.25	43.22	-59.2	-62.5	6.2	0.00e+00	0	34	104	22380806144	84	21897
2026-01-09 09:20:30.57	188.42	42.78	-59.3	-62.5	6.1	0.00e+00	0	34	104	22380806144	84	21919
2026-01-09 09:20:31.56	188.59	42.36	-59.2	-62.5	6.1	0.00e+00	0	34	104	22380806144	84	21870
2026-01-09 09:20:32.55	188.75	41.94	-59.2	-62.4	6.1	0.00e+00	0	34	104	22380806144	84	21784
2026-01-09 09:20:33.54	188.90	41.52	-59.2	-62.4	6.2	0.00e+00	0	34	104	22380806144	84	21845
2026-01-09 09:20:34.53	189.06	41.11	-59.2	-62.4	6.2	0.00e+00	0	34	104	22380806144	84	21827
2026-01-09 09:20:35.53	189.20	40.70	-59.2	-62.4	6.1	0.00e+00	0	34	104	22380806144	84	21734
2026-01-09 09:20:36.52	189.35	40.30	-59.2	-62.4	6.2	0.00e+00	0	34	104	22380806144	84	21686
2026-01-09 09:20:37.50	189.49	39.91	-59.2	-62.4	6.2	0.00e+00	0	34	104	22380806144	84	21676
2026-01-09 09:20:38.50	189.63	39.52	-59.2	-62.4	6.2	0.00e+00	0	34	104	22380806144	84	21753
2026-01-09 09:20:39.50	189.76	39.13	-59.2	-62.4	6.1	0.00e+00	0	34	104	22380806144	84	21687
2026-01-09 09:20:40.48	189.89	38.75	-59.1	-62.3	6.1	0.00e+00	0	34	104	22380806144	84	21578
2026-01-09 09:20:41.49	190.02	38.37	-59.2	-62.4	6.2	0.00e+00	0	34	104	22380806144	84	21696
2026-01-09 09:20:42.48	190.15	38.00	-59.2	-62.4	6.2	0.00e+00	0	34	104	22380806144	84	21674
2026-01-09 09:20:43.46	190.27	37.63	-59.1	-62.3	6.2	0.00e+00	0	34	104	22380806144	84	21595
2026-01-09 09:20:44.45	190.39	37.27	-59.1	-62.4	6.1	0.00e+00	0	34	104	22380806144	84	21670
2026-01-09 09:20:45.44	190.50	36.91	-59.1	-62.4	6.1	0.00e+00	0	34	104	22380806144	84	21661
2026-01-09 09:20:46.42	190.62	36.56	-59.1	-62.4	6.2	0.00e+00	0	34	104	22380806144	84	21681
2026-01-09 09:20:47.42	190.73	36.21	-59.1	-62.3	6.1	0.00e+00	0	34	104	22380806144	84	21578
2026-01-09 09:20:48.42	190.84	35.86	-59.1	-62.3	6.2	0.00e+00	0	34	104	22380806144	84	21577
2026-01-09 09:20:49.41	190.94	35.52	-59.1	-62.4	6.2	0.00e+00	0	34	104	22380806144	84	21636
2026-01-09 09:20:50.40	191.05	35.18	-59.1	-62.3	6.2	0.00e+00	0	34	104	22380806144	84	21583
2026-01-09 09:20:51.40	191.15	34.84	-59.1	-62.4	6.2	0.00e+00	0	34	104	22380806144	84	21636
2026-01-09 09:20:52.39	191.25	34.51	-59.1	-62.3	6.1	0.00e+00	0	34	104	22380806144	84	21490
2026-01-09 09:20:53.39	191.35	34.18	-59.1	-62.3	6.2	0.00e+00	0	34	104	22380806144	84	21478
2026-01-09 09:20:54.38	191.45	33.86	-59.1	-62.3	6.2	0.00e+00	0	34	104	22380806144	84	21537
2026-01-09 09:20:55.37	191.54	33.55	-59.1	-62.3	6.2	0.00e+00	0	34	104	22380806144	84	21475
2026-01-09 09:20:56.37	191.64	33.23	-59.0	-62.2	6.2	0.00e+00	0	34	104	22380806144	84	21354
2026-01-09 09:20:57.35	191.73	32.92	-59.0	-62.3	6.1	0.00e+00	0	34	104	22380806144	84	21360
2026-01-09 09:20:58.34	191.81	32.61	-59.0	-62.2	6.2	0.00e+00	0	34	104	22380806144	84	21356
2026-01-09 09:20:59.33	191.90	32.31	-59.0	-62.3	6.1	0.00e+00	0	34	104	22380806144	84	21369
2026-01-09 09:21:00.33	191.99	32.01	-59.0	-62.2	6.2	0.00e+00	0	34	104	22380806144	84	21354
2026-01-09 09:21:01.32	192.07	31.71	-59.0	-62.2	6.1	0.00e+00	0	34	104	22380806144	84	21356
2026-01-09 09:21:02.31	192.15	31.42	-59.0	-62.2	6.2	0.00e+00	0	34	104	22380806144	84	21324
2026-01-09 09:21:03.30	192.24	31.13	-59.0	-62.3	6.2	0.00e+00	0	34	104	22380806144	84	21370
2026-01-09 09:21:04.30	192.32	30.84	-59.0	-62.2	6.2	0.00e+00	0	34	104	22380806144	84	21279
2026-01-09 09:21:05.29	192.39	30.56	-59.0	-62.2	6.2	0.00e+00	0	34	104	22380806144	84	21262
2026-01-09 09:21:06.29	192.47	30.27	-59.0	-62.2	6.1	0.00e+00	0	34	104	22380806144	84	21339
2026-01-09 09:21:07.28	192.55	30.00	-59.0	-62.2	6.2	0.00e+00	0	34	104	22380806144	84	21296
2026-01-09 09:21:08.28	192.62	29.72	-59.0	-62.2	6.2	0.00e+00	0	33	104	22380806144	84	21284
2026-01-09 09:21:09.27	192.69	29.45	-59.0	-62.2	6.2	0.00e+00	0	34	104	22380806144	84	21222
2026-01-09 09:21:10.26	192.76	29.18	-59.0	-62.2	6.1	0.00e+00	0	34	104	22380806144	84	21261
2026-01-09 09:21:11.25	192.84	28.92	-59.0	-62.2	6.2	0.00e+00	0	34	104	22380806144	84	21229
2026-01-09 09:21:12.25	192.90	28.65	-59.0	-62.2	6.2	0.00e+00	0	34	104	22380806144	84	21188
2026-01-09 09:21:13.24	192.97	28.39	-58.9	-62.2	6.2	0.00e+00	0	34	104	22380806144	84	21128
2026-01-09 09:21:14.23	193.04	28.14	-58.9	-62.1	6.2	0.00e+00	0	34	104	22380806144	84	21077
2026-01-09 09:21:15.22	193.11	27.88	-58.9	-62.2	6.2	0.00e+00	0	33	104	22380806144	84	21118
2026-01-09 09:21:16.21	193.17	27.63	-58.9	-62.1	6.2	0.00e+00	0	34	104	22380806144	84	21061
2026-01-09 09:21:17.21	193.23	27.38	-58.9	-62.1	6.2	0.00e+00	0	33	104	22380806144	84	21085
2026-01-09 09:21:18.19	193.30	27.14	-58.9	-62.2	6.2	0.00e+00	0	34	104	22380806144	84	21135
2026-01-09 09:21:19.18	193.36	26.90	-58.9	-62.1	6.2	0.00e+00	0	33	104	22380806144	84	20985
2026-01-09 09:21:20.17	193.42	26.66	-58.9	-62.1	6.1	0.00e+00	0	33	104	22380806144	84	21032
2026-01-09 09:21:21.15	193.48	26.42	-58.9	-62.1	6.2	0.00e+00	0	34	104	22380806144	84	21067
2026-01-09 09:21:22.14	193.54	26.19	-58.9	-62.1	6.2	0.00e+00	0	33	104	22380806144	84	21016
2026-01-09 09:21:23.13	193.60	25.95	-58.9	-62.1	6.2	0.00e+00	0	34	104	22380806144	84	21019
2026-01-09 09:21:24.12	193.65	25.72	-58.9	-62.1	6.2	0.00e+00	0	33	104	22380806144	84	20949
2026-01-09 09:21:25.11	193.71	25.49	-58.9	-62.1	6.2	0.00e+00	0	34	104	22380806144	84	20947
2026-01-09 09:21:26.10	193.76	25.27	-58.9	-62.1	6.2	0.00e+00	0	34	104	22380806144	84	20958
2026-01-09 09:21:27.10	193.82	25.04	-58.9	-62.1	6.1	0.00e+00	0	33	104	22380806144	84	20947
2026-01-09 09:21:28.09	193.87	24.82	-58.8	-62.0	6.1	0.00e+00	0	33	104	22380806144	84	20868
2026-01-09 09:21:29.08	193.93	24.60	-58.8	-62.1	6.2	0.00e+00	0	33	104	22380806144	84	20885
2026-01-09 09:21:30.06	193.98	24.39	-58.8	-62.1	6.2	0.00e+00	0	33	104	22380806144	84	20917
2026-01-09 09:21:31.06	194.03	24.17	-58.8	-62.1	6.2	0.00e+00	0	33	104	22380806144	84	20936
2026-01-09 09:21:32.05	194.08	23.96	-58.8	-62.0	6.2	0.00e+00	0	33	104	22380806144	84	20807
2026-01-09 09:21:33.04	194.13	23.75	-58.8	-62.0	6.2	0.00e+00	0	33	104	22380806144	84	20850
2026-01-09 09:21:34.03	194.18	23.54	-58.8	-62.0	6.2	0.00e+00	0	33	104	22380806144	84	20773
2026-01-09 09:21:35.02	194.23	23.33	-58.8	-62.0	6.2	0.00e+00	0	33	104	22380806144	84	20779
2026-01-09 09:21:36.01	194.28	23.13	-58.8	-62.0	6.2	0.00e+00	0	33	104	22380806144	84	20762
2026-01-09 09:21:37.00	194.33	22.93	-58.8	-62.0	6.2	0.00e+00	0	33	104	22380806144	84	20745
2026-01-09 09:21:37.98	194.37	22.73	-58.8	-62.0	6.2	0.00e+00	0	33	104	22380806144	84	20697
2026-01-09 09:21:38.97	194.42	22.53	-58.8	-62.0	6.1	0.00e+00	0	33	104	22380806144	84	20655
2026-01-09 09:21:39.96	194.46	22.33	-58.7	-62.0	6.2	0.00e+00	0	33	104	22380806144	84	20733
2026-01-09 09:21:40.95	194.51	22.14	-58.7	-62.0	6.2	0.00e+00	0	33	104	22380806144	84	20723
2026-01-09 09:21:41.94	194.55	21.94	-58.7	-62.0	6.2	0.00e+00	0	33	104	22380806144	84	20689
2026-01-09 09:21:42.93	194.60	21.75	-58.7	-62.0	6.2	0.00e+00	0	33	104	22380806144	84	20647
2026-01-09 09:21:43.92	194.64	21.56	-58.7	-62.0	6.2	0.00e+00	0	33	104	22380806144	84	20714
2026-01-09 09:21:44.90	194.68	21.38	-58.7	-61.9	6.1	0.00e+00	0	33	104	22380806144	84	20633
2026-01-09 09:21:45.90	194.73	21.19	-58.7	-61.9	6.2	0.00e+00	0	33	104	22380806144	84	20595
2026-01-09 09:21:46.89	194.77	21.00	-58.7	-62.0	6.2	0.00e+00	0	33	104	22380806144	84	20667
2026-01-09 09:21:47.88	194.81	20.82	-58.7	-61.9	6.2	0.00e+00	0	33	104	22380806144	84	20623
2026-01-09 09:21:48.87	194.85	20.64	-58.7	-61.9	6.2	0.00e+00	0	33	104	22380806144	84	20501
2026-01-09 09:21:49.86	194.89	20.46	-58.7	-61.9	6.2	0.00e+00	0	33	104	22380806144	84	20520
2026-01-09 09:21:50.85	194.93	20.28	-58.7	-61.9	6.2	0.00e+00	0	33	104	22380806144	84	20627
2026-01-09 09:21:51.83	194.97	20.11	-58.7	-61.9	6.2	0.00e+00	0	33	104	22380806144	84	20574
2026-01-09 09:21:52.82	195.01	19.93	-58.7	-61.9	6.1	0.00e+00	0	33	104	22380806144	84	20496
2026-01-09 09:21:53.81	195.05	19.76	-58.7	-61.9	6.2	0.00e+00	0	33	104	22380806144	84	20552
2026-01-09 09:21:54.80	195.09	19.59	-58.7	-61.9	6.2	0.00e+00	0	33	104	22380806144	84	20528
2026-01-09 09:21:55.78	195.12	19.42	-58.7	-61.9	6.1	0.00e+00	0	33	104	22380806144	84	20473
2026-01-09 09:21:56.78	195.16	19.25	-58.7	-61.9	6.2	0.00e+00	0	33	104	22380806144	84	20486
2026-01-09 09:21:57.77	195.20	19.08	-58.7	-61.9	6.2	0.00e+00	0	33	104	22380806144	84	20431
2026-01-09 09:21:58.76	195.23	18.91	-58.7	-61.9	6.2	0.00e+00	0	33	104	22380806144	84	20530
2026-01-09 09:21:59.74	195.27	18.75	-58.7	-61.9	6.2	0.00e+00	0	33	104	22380806144	84	20495
2026-01-09 09:22:00.73	195.31	18.59	-58.7	-61.9	6.2	0.00e+00	0	33	104	22380806144	84	20485
2026-01-09 09:22:01.71	195.34	18.43	-58.6	-61.9	6.2	0.00e+00	0	33	104	22380806144	84	20405
2026-01-09 09:22:02.69	195.37	18.27	-58.6	-61.8	6.1	0.00e+00	0	33	104	22380806144	84	20361
2026-01-09 09:22:03.67	195.41	18.11	-58.6	-61.9	6.1	0.00e+00	0	33	104	22380806144	84	20399
2026-01-09 09:22:04.66	195.44	17.95	-58.6	-61.8	6.2	0.00e+00	0	33	104	22380806144	84	20314
2026-01-09 09:22:05.65	195.48	17.79	-58.6	-61.8	6.2	0.00e+00	0	33	104	22380806144	84	20377
2026-01-09 09:22:06.63	195.51	17.64	-58.6	-61.8	6.2	0.00e+00	0	33	104	22380806144	84	20347
2026-01-09 09:22:07.62	195.54	17.48	-58.6	-61.8	6.2	0.00e+00	0	33	104	22380806144	84	20316
2026-01-09 09:22:08.61	195.58	17.33	-58.6	-61.8	6.2	0.00e+00	0	33	104	22380806144	84	20242
2026-01-09 09:22:09.60	195.61	17.18	-58.6	-61.8	6.2	0.00e+00	0	33	104	22380806144	84	20329
2026-01-09 09:22:10.59	195.64	17.03	-58.6	-61.8	6.2	0.00e+00	0	33	104	22380806144	84	20345
2026-01-09 09:22:11.59	195.67	16.88	-58.6	-61.8	6.2	0.00e+00	0	33	104	22380806144	84	20306
2026-01-09 09:22:12.57	195.70	16.73	-58.6	-61.8	6.2	0.00e+00	0	33	104	22380806144	84	20272
2026-01-09 09:22:13.55	195.73	16.58	-58.6	-61.8	6.2	0.00e+00	0	33	104	22380806144	84	20209
2026-01-09 09:22:14.55	195.76	16.44	-58.5	-61.8	6.2	0.00e+00	0	33	104	22380806144	84	20251
2026-01-09 09:22:15.53	195.79	16.29	-58.6	-61.8	6.2	0.00e+00	0	33	104	22380806144	84	20179
2026-01-09 09:22:16.52	195.82	16.15	-58.5	-61.7	6.2	0.00e+00	0	33	104	22380806144	84	20118
2026-01-09 09:22:17.50	195.85	16.01	-58.5	-61.7	6.2	0.00e+00	0	33	104	22380806144	84	20080
2026-01-09 09:22:18.49	195.88	15.87	-58.5	-61.7	6.2	0.00e+00	0	33	104	22380806144	84	20070
2026-01-09 09:22:19.48	195.91	15.72	-58.5	-61.7	6.1	0.00e+00	0	33	104	22380806144	84	20139
2026-01-09 09:22:20.47	195.94	15.58	-58.5	-61.7	6.2	0.00e+00	0	33	104	22380806144	84	20090
2026-01-09 09:22:21.47	195.97	15.44	-58.5	-61.7	6.2	0.00e+00	0	33	104	22380806144	84	20034
2026-01-09 09:22:22.45	196.00	15.31	-58.5	-61.7	6.2	0.00e+00	0	33	104	22380806144	84	19987
2026-01-09 09:22:23.45	196.03	15.17	-58.5	-61.7	6.2	0.00e+00	0	33	104	22380806144	84	20045
2026-01-09 09:22:24.44	196.06	15.03	-58.5	-61.7	6.2	0.00e+00	0	33	104	22380806144	84	19962
2026-01-09 09:22:25.42	196.08	14.90	-58.5	-61.7	6.2	0.00e+00	0	33	104	22380806144	84	19966
2026-01-09 09:22:26.41	196.11	14.77	-58.5	-61.7	6.2	0.00e+00	0	33	104	22380806144	84	19979
2026-01-09 09:22:27.39	196.14	14.63	-58.4	-61.7	6.2	0.00e+00	0	33	104	22380806144	84	19974
2026-01-09 09:22:28.38	196.16	14.50	-58.4	-61.7	6.2	0.00e+00	0	33	104	22380806144	84	20000
2026-01-09 09:22:29.37	196.19	14.37	-58.4	-61.6	6.2	0.00e+00	0	33	104	22380806144	84	19881
2026-01-09 09:22:30.36	196.22	14.24	-58.4	-61.6	6.2	0.00e+00	0	33	104	22380806144	84	19912
2026-01-09 09:22:31.35	196.24	14.11	-58.4	-61.6	6.2	0.00e+00	0	33	104	22380806144	84	19926
2026-01-09 09:22:32.33	196.27	13.98	-58.4	-61.6	6.1	0.00e+00	0	33	104	22380806144	84	19922
2026-01-09 09:22:33.32	196.29	13.86	-58.4	-61.6	6.2	0.00e+00	0	33	104	22380806144	84	19918
2026-01-09 09:22:34.31	196.32	13.73	-58.4	-61.7	6.2	0.00e+00	0	33	104	22380806144	84	19940
2026-01-09 09:22:35.30	196.35	13.60	-58.4	-61.6	6.2	0.00e+00	0	33	104	22380806144	84	19840
2026-01-09 09:22:36.28	196.37	13.48	-58.4	-61.6	6.2	0.00e+00	0	33	104	22380806144	84	19892
2026-01-09 09:22:37.27	196.40	13.36	-58.2	-61.4	6.2	0.00e+00	0	33	104	22380806144	83	20511
2026-01-09 09:22:38.26	196.42	13.23	-58.2	-61.4	6.2	0.00e+00	0	33	104	22380806144	83	20629
2026-01-09 09:22:39.24	196.44	13.11	-58.2	-61.5	6.2	0.00e+00	0	33	104	22380806144	83	20645
2026-01-09 09:22:40.23	196.47	12.99	-58.2	-61.4	6.2	0.00e+00	0	33	104	22380806144	83	20572
2026-01-09 09:22:41.22	196.49	12.87	-58.2	-61.4	6.2	0.00e+00	0	33	104	22380806144	83	20498
2026-01-09 09:22:42.21	196.52	12.75	-58.2	-61.4	6.2	0.00e+00	0	33	104	22380806144	83	20550
2026-01-09 09:22:43.20	196.54	12.63	-58.2	-61.4	6.2	0.00e+00	0	33	104	22380806144	83	20505
2026-01-09 09:22:44.19	196.56	12.51	-58.2	-61.4	6.2	0.00e+00	0	33	104	22380806144	83	20524
2026-01-09 09:22:45.18	196.59	12.39	-58.2	-61.4	6.2	0.00e+00	0	33	104	22380806144	83	20450
2026-01-09 09:22:46.17	196.61	12.27	-58.2	-61.4	6.1	0.00e+00	0	33	104	22380806144	83	20503
2026-01-09 09:22:47.16	196.63	12.16	-58.1	-61.4	6.2	0.00e+00	0	33	104	22380806144	83	20405
2026-01-09 09:22:48.14	196.66	12.04	-58.2	-61.4	6.2	0.00e+00	0	33	104	22380806144	83	20516
2026-01-09 09:22:49.13	196.68	11.93	-58.1	-61.4	6.2	0.00e+00	0	33	104	22380806144	83	20401
2026-01-09 09:22:50.13	196.70	11.81	-58.1	-61.4	6.2	0.00e+00	0	33	104	22380806144	83	20417
2026-01-09 09:22:51.12	196.72	11.70	-58.1	-61.3	6.2	0.00e+00	0	33	104	22380806144	83	20358
2026-01-09 09:22:52.11	196.74	11.59	-58.1	-61.4	6.2	0.00e+00	0	33	104	22380806144	83	20422
2026-01-09 09:22:53.09	196.77	11.47	-58.1	-61.3	6.2	0.00e+00	0	33	104	22380806144	83	20340
2026-01-09 09:22:54.08	196.79	11.36	-58.1	-61.3	6.2	0.00e+00	0	33	104	22380806144	83	20262
2026-01-09 09:22:55.06	196.81	11.25	-58.1	-61.3	6.2	0.00e+00	0	33	104	22380806144	83	20221
2026-01-09 09:22:56.05	196.83	11.14	-58.1	-61.3	6.2	0.00e+00	0	33	104	22380806144	83	20387
2026-01-09 09:22:57.04	196.85	11.03	-58.1	-61.3	6.2	0.00e+00	0	33	104	22380806144	83	20229
2026-01-09 09:22:58.02	196.87	10.93	-58.1	-61.3	6.2	0.00e+00	0	33	104	22380806144	83	20301
2026-01-09 09:22:59.01	196.89	10.82	-58.1	-61.3	6.2	0.00e+00	0	33	104	22380806144	83	20247
2026-01-09 09:23:00.00	196.91	10.71	-58.1	-61.3	6.1	0.00e+00	0	33	104	22380806144	83	20332
2026-01-09 09:23:00.98	196.93	10.60	-58.0	-61.3	6.2	0.00e+00	0	33	104	22380806144	83	20195
2026-01-09 09:23:01.97	196.96	10.50	-58.1	-61.3	6.2	0.00e+00	0	33	104	22380806144	83	20223
2026-01-09 09:23:02.96	196.98	10.39	-58.0	-61.3	6.2	0.00e+00	0	33	104	22380806144	83	20203
2026-01-09 09:23:03.95	197.00	10.28	-58.1	-61.3	6.2	0.00e+00	0	33	104	22380806144	83	20284
2026-01-09 09:23:04.94	197.02	10.18	-58.0	-61.3	6.2	0.00e+00	0	33	104	22380806144	83	20179
2026-01-09 09:23:05.94	197.04	10.07	-58.0	-61.3	6.2	0.00e+00	0	33	104	22380806144	83	20240
2026-01-09 09:23:06.92	197.06	9.97	-58.0	-61.3	6.2	0.00e+00	0	33	104	22380806144	83	20207
2026-01-09 09:23:07.91	197.07	9.87	-58.1	-61.3	6.2	0.00e+00	0	33	104	22380806144	83	20266
2026-01-09 09:23:08.91	197.09	9.77	-58.0	-61.2	6.2	0.00e+00	0	33	104	22380806144	83	20048
2026-01-09 09:23:09.89	197.11	9.66	-58.0	-61.2	6.2	0.00e+00	0	33	104	22380806144	83	20036
2026-01-09 09:23:10.88	197.13	9.56	-58.0	-61.2	6.2	0.00e+00	0	33	104	22380806144	83	20012
2026-01-09 09:23:11.87	197.15	9.46	-58.0	-61.2	6.2	0.00e+00	0	33	104	22380806144	83	20147
2026-01-09 09:23:12.85	197.17	9.36	-58.0	-61.2	6.2	0.00e+00	0	33	104	22380806144	83	20006
2026-01-09 09:23:13.85	197.19	9.26	-58.0	-61.2	6.2	0.00e+00	0	33	104	22380806144	83	19984
2026-01-09 09:23:14.84	197.21	9.16	-57.9	-61.1	6.2	0.00e+00	0	33	104	22380806144	83	19932
2026-01-09 09:23:15.82	197.23	9.07	-58.0	-61.2	6.2	0.00e+00	0	33	104	22380806144	83	20000
2026-01-09 09:23:16.80	197.24	8.97	-57.9	-61.1	6.2	0.00e+00	0	33	104	22380806144	83	19918
2026-01-09 09:23:17.79	197.26	8.87	-57.9	-61.1	6.2	0.00e+00	0	33	104	22380806144	83	19900
2026-01-09 09:23:18.78	197.28	8.77	-57.9	-61.1	6.1	0.00e+00	0	33	104	22380806144	83	19845
2026-01-09 09:23:19.78	197.30	8.68	-58.0	-61.2	6.2	0.00e+00	0	33	104	22380806144	83	20055
2026-01-09 09:23:20.77	197.32	8.58	-57.9	-61.1	6.2	0.00e+00	0	33	104	22380806144	83	19874
2026-01-09 09:23:21.76	197.33	8.48	-57.9	-61.1	6.2	0.00e+00	0	33	104	22380806144	83	19871
2026-01-09 09:23:22.75	197.35	8.39	-57.8	-61.1	6.2	0.00e+00	0	33	104	22380806144	82	20948
2026-01-09 09:23:23.74	197.37	8.29	-57.9	-61.2	6.2	0.00e+00	0	33	104	22380806144	82	21126
2026-01-09 09:23:24.73	197.39	8.20	-57.9	-61.1	6.2	0.00e+00	0	33	104	22380806144	82	20911
2026-01-09 09:23:25.72	197.41	8.10	-57.9	-61.1	6.2	0.00e+00	0	33	104	22380806144	82	20973
2026-01-09 09:23:26.71	197.42	8.01	-57.8	-61.0	6.2	0.00e+00	0	33	104	22380806144	82	20820
2026-01-09 09:23:27.69	197.44	7.92	-57.9	-61.1	6.2	0.00e+00	0	33	104	22380806144	82	21019
2026-01-09 09:23:28.69	197.46	7.83	-57.8	-61.0	6.1	0.00e+00	0	33	104	22380806144	82	20865
2026-01-09 09:23:29.68	197.47	7.73	-57.8	-61.0	6.1	0.00e+00	0	33	104	22380806144	82	20849
2026-01-09 09:23:30.68	197.49	7.64	-57.8	-61.0	6.2	0.00e+00	0	33	104	22380806144	82	20768
2026-01-09 09:23:31.67	197.51	7.55	-57.8	-61.0	6.2	0.00e+00	0	33	104	22380806144	82	20858
2026-01-09 09:23:32.65	197.52	7.46	-57.8	-61.0	6.2	0.00e+00	0	33	104	22380806144	82	20727
2026-01-09 09:23:33.65	197.54	7.37	-57.8	-61.0	6.2	0.00e+00	0	33	104	22380806144	82	20698
2026-01-09 09:23:34.64	197.56	7.28	-57.7	-60.9	6.2	0.00e+00	0	33	104	22380806144	82	20582
2026-01-09 09:23:35.62	197.57	7.19	-57.8	-61.0	6.2	0.00e+00	0	33	104	22380806144	82	20743
2026-01-09 09:23:36.60	197.59	7.10	-57.7	-61.0	6.2	0.00e+00	0	33	104	22380806144	82	20679
2026-01-09 09:23:37.59	197.61	7.01	-57.7	-61.0	6.2	0.00e+00	0	33	104	22380806144	82	20636
2026-01-09 09:23:38.58	197.62	6.93	-57.7	-60.9	6.2	0.00e+00	0	33	104	22380806144	82	20538
2026-01-09 09:23:39.57	197.64	6.84	-57.7	-60.9	6.2	0.00e+00	0	33	104	22380806144	82	20611
2026-01-09 09:23:40.57	197.65	6.75	-57.7	-60.9	6.2	0.00e+00	0	33	104	22380806144	82	20525
2026-01-09 09:23:41.57	197.67	6.66	-57.7	-60.9	6.1	0.00e+00	0	33	104	22380806144	82	20461
2026-01-09 09:23:42.55	197.68	6.58	-57.6	-60.8	6.2	0.00e+00	0	33	104	22380806144	82	20301
2026-01-09 09:23:43.54	197.70	6.49	-57.7	-60.9	6.2	0.00e+00	0	33	104	22380806144	82	20480
2026-01-09 09:23:44.53	197.72	6.40	-57.6	-60.9	6.1	0.00e+00	0	33	104	22380806144	82	20445
2026-01-09 09:23:45.52	197.73	6.32	-57.6	-60.8	6.2	0.00e+00	0	33	104	22380806144	82	20367
2026-01-09 09:23:46.51	197.75	6.23	-57.6	-60.8	6.2	0.00e+00	0	33	104	22380806144	82	20333
2026-01-09 09:23:47.50	197.76	6.15	-57.6	-60.9	6.2	0.00e+00	0	33	104	22380806144	82	20420
2026-01-09 09:23:48.49	197.78	6.06	-57.6	-60.8	6.2	0.00e+00	0	33	104	22380806144	82	20332
2026-01-09 09:23:49.48	197.79	5.98	-57.6	-60.8	6.2	0.00e+00	0	33	104	22380806144	82	20203
2026-01-09 09:23:50.46	197.81	5.90	-57.5	-60.8	6.2	0.00e+00	0	33	104	22380806144	82	20166
2026-01-09 09:23:51.45	197.82	5.81	-57.5	-60.7	6.2	0.00e+00	0	33	104	22380806144	82	20134
2026-01-09 09:23:52.44	197.84	5.73	-57.5	-60.8	6.2	0.00e+00	0	33	104	22380806144	82	20255
2026-01-09 09:23:53.43	197.85	5.65	-57.5	-60.7	6.2	0.00e+00	0	33	104	22380806144	82	20085
2026-01-09 09:23:54.42	197.87	5.56	-57.5	-60.7	6.2	0.00e+00	0	33	104	22380806144	82	19993
2026-01-09 09:23:55.41	197.88	5.48	-57.5	-60.7	6.1	0.00e+00	0	33	104	22380806144	82	20042
2026-01-09 09:23:56.39	197.89	5.40	-57.5	-60.8	6.2	0.00e+00	0	33	104	22380806144	82	20193
2026-01-09 09:23:57.38	197.91	5.32	-57.4	-60.6	6.2	0.00e+00	0	33	104	22380806144	82	19909
2026-01-09 09:23:58.36	197.92	5.24	-57.4	-60.6	6.2	0.00e+00	0	33	104	22380806144	82	19848
2026-01-09 09:23:59.34	197.94	5.16	-57.3	-60.5	6.2	0.00e+00	0	33	104	22380806144	81	20860
2026-01-09 09:24:00.33	197.95	5.08	-57.4	-60.6	6.1	0.00e+00	0	33	104	22380806144	81	21029
2026-01-09 09:24:01.32	197.97	5.00	-57.3	-60.5	6.1	0.00e+00	0	33	104	22380806144	81	20852
2026-01-09 09:24:02.30	197.98	4.92	-57.7	-61.0	6.2	0.00e+00	0	33	104	22380806144	81	21863
2026-01-09 09:24:03.30	197.99	4.84	-58.0	-61.3	6.2	0.00e+00	0	33	104	22380806144	81	22685
2026-01-09 09:24:04.29	198.01	4.76	-58.3	-61.6	6.2	0.00e+00	0	33	104	22380806144	82	22132
2026-01-09 09:24:05.29	198.02	4.68	-58.5	-61.7	6.2	0.00e+00	0	33	104	22380806144	82	22526
2026-01-09 09:24:06.29	198.04	4.60	-58.6	-61.9	6.2	0.00e+00	0	33	104	22380806144	83	21699
2026-01-09 09:24:07.29	198.05	4.52	-58.7	-62.0	6.1	0.00e+00	0	33	104	22380806144	83	21918
2026-01-09 09:24:08.29	198.06	4.45	-58.8	-62.1	6.2	0.00e+00	0	33	104	22380806144	83	22191
2026-01-09 09:24:09.30	198.08	4.37	-58.9	-62.1	6.1	0.00e+00	0	33	104	22380806144	83	22321
2026-01-09 09:24:10.30	198.09	4.29	-59.0	-62.2	6.2	0.00e+00	0	33	104	22380806144	83	22467
2026-01-09 09:24:11.29	198.10	4.21	-59.0	-62.3	6.1	0.00e+00	0	33	104	22380806144	83	22729
2026-01-09 09:24:12.27	198.12	4.14	-59.1	-62.3	6.2	0.00e+00	0	33	104	22380806144	83	22712
2026-01-09 09:24:13.26	198.13	4.06	-59.1	-62.4	6.2	0.00e+00	0	33	104	22380806144	83	22901
2026-01-09 09:24:14.24	198.14	3.98	-59.3	-62.6	6.2	0.00e+00	0	33	104	22380806144	84	22167
2026-01-09 09:24:15.23	198.16	3.91	-59.4	-62.6	6.1	0.00e+00	0	33	104	22380806144	84	22223
2026-01-09 09:24:16.22	198.17	3.83	-59.4	-62.6	6.2	0.00e+00	0	33	104	22380806144	84	22328
2026-01-09 09:24:17.20	198.18	3.76	-59.4	-62.6	6.2	0.00e+00	0	33	104	22380806144	84	22316
2026-01-09 09:24:18.20	198.20	3.68	-59.4	-62.7	6.1	0.00e+00	0	33	104	22380806144	84	22396
2026-01-09 09:24:19.19	198.21	3.61	-59.5	-62.7	6.2	0.00e+00	0	33	104	22380806144	84	22531
2026-01-09 09:24:20.18	198.22	3.53	-59.5	-62.7	6.2	0.00e+00	0	33	104	22380806144	84	22507
2026-01-09 09:24:21.17	198.23	3.46	-59.5	-62.7	6.2	0.00e+00	0	33	104	22380806144	84	22528
2026-01-09 09:24:22.16	198.25	3.38	-59.6	-62.8	6.2	0.00e+00	0	33	104	22380806144	84	22753
2026-01-09 09:24:23.15	198.26	3.31	-59.6	-62.8	6.2	0.00e+00	0	33	104	22380806144	84	22771
2026-01-09 09:24:24.14	198.27	3.24	-59.6	-62.9	6.1	0.00e+00	0	33	104	22380806144	85	21745
2026-01-09 09:24:25.13	198.28	3.16	-59.6	-62.8	6.2	0.00e+00	0	33	104	22380806144	85	21574
2026-01-09 09:24:26.12	198.30	3.09	-59.6	-62.8	6.2	0.00e+00	0	33	104	22380806144	85	21509
2026-01-09 09:24:27.11	198.31	3.02	-59.6	-62.8	6.1	0.00e+00	0	33	104	22380806144	85	21474
2026-01-09 09:24:28.10	198.32	2.95	-59.6	-62.8	6.2	0.00e+00	0	33	104	22380806144	85	21454
2026-01-09 09:24:29.09	198.33	2.87	-59.6	-62.8	6.2	0.00e+00	0	33	104	22380806144	85	21447
2026-01-09 09:24:30.08	198.35	2.80	-59.5	-62.8	6.2	0.00e+00	0	33	104	22380806144	85	21400
2026-01-09 09:24:31.07	198.36	2.73	-59.5	-62.8	6.2	0.00e+00	0	33	104	22380806144	85	21379
2026-01-09 09:24:32.05	198.37	2.66	-59.5	-62.8	6.2	0.00e+00	0	33	104	22380806144	85	21391
2026-01-09 09:24:33.04	198.38	2.59	-59.5	-62.7	6.2	0.00e+00	0	33	104	22380806144	85	21333
2026-01-09 09:24:34.03	198.40	2.52	-59.5	-62.8	6.1	0.00e+00	0	33	104	22380806144	85	21435
2026-01-09 09:24:35.02	198.41	2.45	-59.5	-62.7	6.2	0.00e+00	0	33	104	22380806144	85	21291
2026-01-09 09:24:36.01	198.42	2.38	-59.5	-62.7	6.2	0.00e+00	0	33	104	22380806144	85	21269
2026-01-09 09:24:36.99	198.43	2.31	-59.5	-62.7	6.2	0.00e+00	0	33	104	22380806144	85	21260
2026-01-09 09:24:37.98	198.44	2.24	-59.5	-62.7	6.2	0.00e+00	0	33	104	22380806144	85	21129
2026-01-09 09:24:38.96	198.45	2.17	-59.5	-62.7	6.2	0.00e+00	0	33	104	22380806144	85	21182
2026-01-09 09:24:39.94	198.47	2.10	-59.4	-62.7	6.2	0.00e+00	0	33	104	22380806144	85	21185
2026-01-09 09:24:40.93	198.48	2.03	-59.4	-62.7	6.1	0.00e+00	0	33	104	22380806144	85	21226
2026-01-09 09:24:41.91	198.49	1.96	-59.4	-62.7	6.2	0.00e+00	0	33	104	22380806144	85	21129
2026-01-09 09:24:42.90	198.50	1.89	-59.4	-62.6	6.2	0.00e+00	0	33	104	22380806144	85	21013

#Closed at: 2026-01-09 09:24:43
#Recorded file [22380 MB]: D:/lorett/data/31004_260109_121401.dat