passes_logs/2026/01/09/R3.2S_Murmansk/R3.2S_Murmansk__20260109_220450_NOAA_20_JPSS-1_rec.log

#Pass ID: 20260109_220450_NOAA 20 (JPSS-1)
#Satellite: NOAA 20 (JPSS-1)
#Configuration: NOAA 20
#almurnet v.1.7.20251203
#Start time: 2026-01-09 22:04:50

#Version: 2.2.20231116
#Station: R3.2S_Murmansk
#Location: 33.079688 lon 68.888172 lat
#TLE: 1 43013U 17073A   26009.26828276  .00000112  00000+0  74203-4 0  9990
#TLE: 2 43013  98.7631 310.2683 0001700  47.4387 312.6933 14.19534764421920

#Time	Az	El	Level	Level2	SNR	BER	BlckErr	Temp	State	Recorded	gain1	gain2
2026-01-09 22:04:50.16	18.53	1.98	-57.3	-73.1	3.8	1.49e+00	0	21	0	0	81	21489
2026-01-09 22:04:51.16	18.61	2.03	-57.2	-73.2	3.8	1.49e+00	0	22	104	0	79	24185
2026-01-09 22:04:52.16	18.69	2.09	-57.2	-73.2	3.8	1.49e+00	0	21	104	0	79	24187
2026-01-09 22:04:53.16	18.77	2.14	-57.2	-73.1	3.8	1.49e+00	0	22	104	0	79	24115
2026-01-09 22:04:54.15	18.84	2.19	-57.2	-73.2	3.8	1.49e+00	0	22	104	0	79	24233
2026-01-09 22:04:55.15	18.92	2.25	-57.2	-73.1	3.8	1.49e+00	0	21	104	0	79	24114
2026-01-09 22:04:56.15	19.00	2.30	-57.2	-73.1	3.8	1.49e+00	0	21	104	0	79	24067
2026-01-09 22:04:57.15	19.08	2.35	-57.2	-73.1	3.8	1.49e+00	0	22	104	0	79	23934
2026-01-09 22:04:58.16	19.16	2.40	-57.2	-73.0	3.8	1.49e+00	0	21	104	0	79	23725
2026-01-09 22:04:59.16	19.24	2.46	-57.2	-73.1	3.8	1.49e+00	0	22	104	0	79	23880
2026-01-09 22:05:00.15	19.31	2.51	-57.2	-73.1	3.8	1.49e+00	0	22	104	0	79	23863
2026-01-09 22:05:01.15	19.39	2.56	-57.2	-73.1	3.8	1.49e+00	0	22	104	0	79	23997
2026-01-09 22:05:02.14	19.47	2.62	-57.2	-73.1	3.8	1.49e+00	0	22	104	0	79	24055
2026-01-09 22:05:03.15	19.55	2.67	-57.2	-73.2	3.8	1.49e+00	0	22	104	0	79	24209
2026-01-09 22:05:04.15	19.63	2.72	-57.2	-73.2	3.8	1.49e+00	0	22	104	0	79	24235
2026-01-09 22:05:05.15	19.71	2.78	-57.2	-73.2	3.8	1.49e+00	0	22	104	0	79	24288
2026-01-09 22:05:06.15	19.80	2.83	-57.2	-73.2	3.8	1.49e+00	0	22	104	0	79	24290
2026-01-09 22:05:07.15	19.88	2.88	-57.2	-73.2	3.8	1.49e+00	0	22	104	0	79	24199
2026-01-09 22:05:08.15	19.96	2.94	-57.2	-73.2	3.8	1.49e+00	0	22	104	0	79	24179
2026-01-09 22:05:09.16	20.04	2.99	-57.2	-73.2	3.8	1.49e+00	0	22	104	0	79	24238
2026-01-09 22:05:10.16	20.12	3.05	-57.2	-73.2	3.8	1.49e+00	0	22	104	0	79	24257
2026-01-09 22:05:11.16	20.21	3.10	-57.2	-73.2	3.8	1.49e+00	0	22	104	0	79	24339
2026-01-09 22:05:12.16	20.29	3.15	-57.2	-73.2	3.8	1.49e+00	0	22	104	0	79	24306
2026-01-09 22:05:13.15	20.37	3.21	-57.2	-73.1	3.8	1.49e+00	0	22	104	0	79	24086
2026-01-09 22:05:14.15	20.45	3.26	-57.2	-73.0	3.8	1.49e+00	0	22	104	0	79	23849
2026-01-09 22:05:15.14	20.54	3.31	-57.2	-72.8	3.8	1.49e+00	0	22	104	0	79	23178
2026-01-09 22:05:16.14	20.62	3.37	-57.2	-72.6	3.8	1.49e+00	0	22	104	0	79	22571
2026-01-09 22:05:17.14	20.70	3.42	-57.2	-72.4	3.8	1.49e+00	0	22	104	0	79	22255
2026-01-09 22:05:18.14	20.79	3.48	-57.2	-72.4	3.8	1.49e+00	0	22	104	0	79	22130
2026-01-09 22:05:19.14	20.87	3.53	-57.2	-72.4	3.8	1.49e+00	0	22	104	0	79	22109
2026-01-09 22:05:20.13	20.96	3.58	-57.2	-72.5	3.8	1.49e+00	0	22	104	0	79	22452
2026-01-09 22:05:21.13	21.04	3.64	-57.2	-72.6	3.8	1.49e+00	0	22	104	0	79	22602
2026-01-09 22:05:22.12	21.13	3.69	-57.2	-72.5	3.8	1.49e+00	0	22	104	0	79	22351
2026-01-09 22:05:23.11	21.21	3.75	-57.2	-72.1	3.8	1.49e+00	0	22	104	0	79	21502
2026-01-09 22:05:24.11	21.30	3.80	-57.2	-71.5	3.8	1.49e+00	0	22	104	0	79	19926
2026-01-09 22:05:25.11	21.38	3.86	-57.1	-71.1	3.8	1.49e+00	0	22	104	0	79	19119
2026-01-09 22:05:26.11	21.47	3.91	-57.1	-70.6	4.0	1.47e+00	0	22	0	0	79	17963
2026-01-09 22:05:27.10	21.56	3.97	-57.1	-70.4	4.1	1.47e+00	0	22	0	0	79	17501
2026-01-09 22:05:28.11	21.64	4.02	-57.2	-70.5	4.0	1.48e+00	0	22	0	0	79	17859
2026-01-09 22:05:29.11	21.73	4.08	-57.1	-70.6	3.9	1.48e+00	0	22	104	0	79	18004
2026-01-09 22:05:30.10	21.82	4.13	-57.1	-69.9	4.1	1.43e+00	0	22	0	0	79	16661
2026-01-09 22:05:31.10	21.91	4.19	-57.0	-68.9	4.4	1.34e+00	62	22	0	0	79	14821
2026-01-09 22:05:32.09	21.99	4.24	-56.9	-67.4	5.1	8.47e-01	0	22	0	2097152	79	12500
2026-01-09 22:05:33.08	22.08	4.29	-56.7	-65.5	6.2	4.65e-01	0	22	0	3145728	79	10051
2026-01-09 22:05:34.08	22.17	4.35	-56.5	-64.0	7.5	1.17e-01	0	22	0	5242880	79	8431
2026-01-09 22:05:35.08	22.26	4.40	-56.0	-62.1	9.2	2.67e-02	0	22	0	7340032	78	7198
2026-01-09 22:05:36.09	22.35	4.46	-55.7	-61.2	10.0	4.89e-03	0	22	0	9437184	78	6473
2026-01-09 22:05:37.09	22.44	4.52	-55.3	-60.1	10.9	6.77e-04	0	22	0	11534336	77	6047
2026-01-09 22:05:38.08	22.53	4.57	-55.2	-59.8	11.2	2.98e-04	0	23	0	12582912	77	5842
2026-01-09 22:05:39.08	22.62	4.63	-55.2	-59.7	11.2	1.55e-04	0	22	0	14680064	76	6111
2026-01-09 22:05:40.08	22.71	4.68	-55.2	-59.9	11.0	2.52e-04	0	23	0	16777216	76	6257
2026-01-09 22:05:41.08	22.80	4.74	-55.3	-60.1	10.8	2.72e-04	0	23	0	18874368	76	6405
2026-01-09 22:05:42.08	22.90	4.79	-55.6	-61.0	10.1	9.19e-04	0	23	0	20971520	76	7067
2026-01-09 22:05:43.07	22.99	4.85	-55.8	-61.5	9.6	2.97e-03	0	22	0	22020096	76	7498
2026-01-09 22:05:44.07	23.08	4.90	-56.1	-62.7	8.6	1.30e-02	0	23	0	24117248	77	8115
2026-01-09 22:05:45.07	23.17	4.96	-56.3	-63.6	7.8	3.47e-02	0	23	0	26214400	77	9000
2026-01-09 22:05:46.07	23.27	5.02	-56.5	-64.7	6.9	8.41e-02	0	23	0	28311552	78	9614
2026-01-09 22:05:47.07	23.36	5.07	-55.4	-60.2	11.0	3.63e-02	0	23	0	30408704	77	6121
2026-01-09 22:05:48.07	23.45	5.13	-57.0	-70.1	4.0	9.26e-01	0	23	0	31457280	79	17077
2026-01-09 22:05:49.07	23.55	5.18	-56.5	-63.4	8.2	8.50e-02	0	23	0	33554432	79	7890
2026-01-09 22:05:50.07	23.64	5.24	-54.4	-58.0	12.6	2.01e-03	0	23	0	34603008	75	5322
2026-01-09 22:05:51.06	23.74	5.30	-57.1	-67.7	5.0	4.20e-01	0	23	0	36700160	79	12836
2026-01-09 22:05:52.06	23.83	5.35	-54.3	-57.8	12.7	8.39e-03	0	23	0	38797312	75	5205
2026-01-09 22:05:53.07	23.93	5.41	-54.4	-58.0	12.6	7.00e-07	0	23	0	40894464	75	5293
2026-01-09 22:05:54.07	24.02	5.46	-54.0	-57.3	13.0	0.00e+00	0	23	0	41943040	74	5174
2026-01-09 22:05:55.06	24.12	5.52	-54.0	-57.2	13.1	0.00e+00	0	23	0	44040192	74	5128
2026-01-09 22:05:56.06	24.21	5.58	-54.0	-57.3	13.0	0.00e+00	0	23	0	46137344	74	5184
2026-01-09 22:05:57.06	24.31	5.63	-53.8	-56.9	13.3	0.00e+00	0	23	0	48234496	74	4955
2026-01-09 22:05:58.05	24.41	5.69	-53.7	-56.8	13.4	0.00e+00	0	22	0	50331648	74	4878
2026-01-09 22:05:59.06	24.51	5.75	-53.9	-57.0	13.3	0.00e+00	0	23	0	51380224	74	5026
2026-01-09 22:06:00.06	24.60	5.80	-53.6	-56.6	13.4	0.00e+00	0	23	0	53477376	73	5066
2026-01-09 22:06:01.06	24.70	5.86	-53.7	-56.7	13.3	0.00e+00	0	23	0	55574528	73	5132
2026-01-09 22:06:02.06	24.80	5.92	-53.7	-56.7	13.4	0.00e+00	0	23	0	57671680	73	5119
2026-01-09 22:06:03.06	24.90	5.97	-53.7	-56.6	13.4	0.00e+00	0	23	0	59768832	73	5079
2026-01-09 22:06:04.06	25.00	6.03	-53.7	-56.8	13.3	0.00e+00	0	23	0	60817408	73	5175
2026-01-09 22:06:05.06	25.10	6.09	-53.6	-56.6	13.4	0.00e+00	0	23	0	62914560	73	5084
2026-01-09 22:06:06.07	25.20	6.14	-53.5	-56.4	13.5	0.00e+00	0	23	0	65011712	73	4979
2026-01-09 22:06:07.07	25.30	6.20	-53.7	-56.6	13.4	0.00e+00	0	23	0	67108864	73	5082
2026-01-09 22:06:08.07	25.40	6.26	-53.6	-56.6	13.4	0.00e+00	0	23	0	69206016	73	5046
2026-01-09 22:06:09.06	25.50	6.32	-53.7	-56.6	13.4	0.00e+00	0	23	0	70254592	73	5086
2026-01-09 22:06:10.05	25.60	6.37	-53.8	-56.8	13.3	0.00e+00	0	23	0	72351744	73	5216
2026-01-09 22:06:11.06	25.71	6.43	-53.7	-56.6	13.4	0.00e+00	0	23	0	74448896	73	5084
2026-01-09 22:06:12.05	25.81	6.49	-53.6	-56.4	13.6	0.00e+00	0	23	0	76546048	73	4959
2026-01-09 22:06:13.05	25.91	6.54	-53.5	-56.3	13.6	0.00e+00	0	23	0	77594624	73	4917
2026-01-09 22:06:14.04	26.01	6.60	-53.5	-56.3	13.7	0.00e+00	0	23	0	79691776	73	4898
2026-01-09 22:06:15.04	26.12	6.66	-53.4	-56.2	13.7	0.00e+00	0	23	0	81788928	73	4838
2026-01-09 22:06:16.04	26.22	6.72	-53.4	-56.2	13.7	0.00e+00	0	23	0	83886080	73	4853
2026-01-09 22:06:17.04	26.32	6.77	-53.3	-56.0	13.9	0.00e+00	0	23	0	85983232	73	4725
2026-01-09 22:06:18.03	26.43	6.83	-53.2	-55.8	14.0	0.00e+00	0	23	0	87031808	73	4625
2026-01-09 22:06:19.03	26.53	6.89	-53.3	-55.9	13.9	0.00e+00	0	23	0	89128960	73	4695
2026-01-09 22:06:20.03	26.64	6.95	-53.3	-56.0	13.9	0.00e+00	0	23	0	91226112	73	4727
2026-01-09 22:06:21.02	26.74	7.00	-53.3	-56.0	13.9	0.00e+00	0	23	0	93323264	73	4725
2026-01-09 22:06:22.02	26.85	7.06	-53.3	-56.0	13.9	0.00e+00	0	23	0	94371840	73	4717
2026-01-09 22:06:23.02	26.96	7.12	-53.3	-56.0	13.9	0.00e+00	0	23	0	96468992	73	4745
2026-01-09 22:06:24.02	27.06	7.18	-53.4	-56.0	13.9	0.00e+00	0	23	0	98566144	73	4752
2026-01-09 22:06:25.02	27.17	7.24	-53.3	-56.0	13.9	0.00e+00	0	23	0	100663296	73	4714
2026-01-09 22:06:26.02	27.28	7.29	-53.3	-56.0	13.9	0.00e+00	0	23	0	102760448	73	4717
2026-01-09 22:06:27.02	27.39	7.35	-53.4	-56.1	13.8	0.00e+00	0	23	0	103809024	73	4792
2026-01-09 22:06:28.01	27.49	7.41	-53.4	-56.1	13.9	0.00e+00	0	23	0	105906176	73	4760
2026-01-09 22:06:29.01	27.60	7.47	-53.4	-56.1	13.8	0.00e+00	0	23	0	108003328	73	4796
2026-01-09 22:06:30.01	27.71	7.53	-53.4	-56.0	13.9	0.00e+00	0	23	0	110100480	73	4757
2026-01-09 22:06:31.00	27.82	7.58	-53.3	-56.0	13.9	0.00e+00	0	23	0	111149056	73	4738
2026-01-09 22:06:31.99	27.93	7.64	-53.3	-56.0	13.9	0.00e+00	0	23	0	113246208	73	4728
2026-01-09 22:06:32.99	28.04	7.70	-53.2	-55.8	14.0	0.00e+00	0	23	0	115343360	73	4632
2026-01-09 22:06:33.98	28.15	7.76	-53.4	-56.0	13.9	0.00e+00	0	23	0	117440512	73	4738
2026-01-09 22:06:34.97	28.26	7.82	-53.1	-55.6	14.0	0.00e+00	0	23	0	119537664	72	4807
2026-01-09 22:06:35.97	28.37	7.87	-53.2	-55.8	13.9	0.00e+00	0	23	0	120586240	72	4872
2026-01-09 22:06:36.97	28.49	7.93	-53.2	-55.7	14.0	0.00e+00	0	23	0	122683392	72	4859
2026-01-09 22:06:37.96	28.60	7.99	-53.1	-55.6	14.0	0.00e+00	0	23	0	124780544	72	4799
2026-01-09 22:06:38.97	28.71	8.05	-53.1	-55.6	14.0	0.00e+00	0	23	0	126877696	72	4794
2026-01-09 22:06:39.96	28.83	8.11	-53.1	-55.7	14.0	0.00e+00	0	23	0	128974848	72	4816
2026-01-09 22:06:40.96	28.94	8.17	-53.1	-55.6	14.0	0.00e+00	0	23	0	130023424	72	4778
2026-01-09 22:06:41.95	29.05	8.22	-53.0	-55.5	14.1	0.00e+00	0	23	0	132120576	72	4728
2026-01-09 22:06:42.95	29.17	8.28	-53.1	-55.6	14.1	0.00e+00	0	23	0	134217728	72	4775
2026-01-09 22:06:43.96	29.29	8.34	-53.1	-55.6	14.1	0.00e+00	0	23	0	136314880	72	4775
2026-01-09 22:06:44.96	29.40	8.40	-52.9	-55.4	14.2	0.00e+00	0	23	0	137363456	72	4663
2026-01-09 22:06:45.95	29.52	8.46	-52.9	-55.3	14.3	0.00e+00	0	23	0	139460608	72	4600
2026-01-09 22:06:46.96	29.64	8.52	-52.8	-55.2	14.3	0.00e+00	0	23	0	141557760	72	4555
2026-01-09 22:06:47.95	29.75	8.58	-52.8	-55.1	14.3	0.00e+00	0	23	0	143654912	72	4537
2026-01-09 22:06:48.95	29.87	8.64	-52.8	-55.1	14.3	0.00e+00	0	23	0	145752064	72	4538
2026-01-09 22:06:49.95	29.99	8.70	-52.7	-55.1	14.4	0.00e+00	0	23	0	146800640	72	4497
2026-01-09 22:06:50.95	30.11	8.76	-52.7	-55.0	14.4	0.00e+00	0	23	0	148897792	72	4482
2026-01-09 22:06:51.95	30.23	8.81	-52.8	-55.1	14.4	0.00e+00	0	23	0	150994944	72	4496
2026-01-09 22:06:52.95	30.35	8.87	-52.6	-54.9	14.3	0.00e+00	0	23	0	153092096	71	4655
2026-01-09 22:06:53.95	30.47	8.93	-52.6	-54.9	14.3	0.00e+00	0	23	0	154140672	71	4697
2026-01-09 22:06:54.95	30.59	8.99	-52.7	-55.0	14.3	0.00e+00	0	23	0	156237824	71	4734
2026-01-09 22:06:55.95	30.71	9.05	-52.7	-55.0	14.3	0.00e+00	0	23	0	158334976	71	4729
2026-01-09 22:06:56.95	30.83	9.11	-52.7	-55.0	14.3	0.00e+00	0	23	0	160432128	71	4732
2026-01-09 22:06:57.95	30.95	9.17	-52.7	-55.1	14.2	0.00e+00	0	23	0	162529280	71	4768
2026-01-09 22:06:58.94	31.07	9.23	-52.6	-54.8	14.4	0.00e+00	0	23	0	163577856	71	4629
2026-01-09 22:06:59.94	31.20	9.29	-52.6	-54.8	14.4	0.00e+00	0	23	0	165675008	71	4638
2026-01-09 22:07:00.94	31.32	9.35	-52.6	-54.8	14.4	0.00e+00	0	23	0	167772160	71	4638
2026-01-09 22:07:01.94	31.44	9.41	-52.7	-54.9	14.3	0.00e+00	0	23	0	169869312	71	4702
2026-01-09 22:07:02.93	31.57	9.47	-52.6	-54.8	14.4	0.00e+00	0	23	0	171966464	71	4624
2026-01-09 22:07:03.93	31.69	9.53	-52.5	-54.8	14.4	0.00e+00	0	23	0	173015040	71	4601
2026-01-09 22:07:04.93	31.82	9.59	-52.6	-54.9	14.4	0.00e+00	0	23	0	175112192	71	4682
2026-01-09 22:07:05.92	31.94	9.64	-52.7	-55.0	14.3	0.00e+00	0	23	0	177209344	71	4706
2026-01-09 22:07:06.93	32.07	9.70	-52.7	-55.0	14.3	0.00e+00	0	23	0	179306496	71	4732
2026-01-09 22:07:07.92	32.19	9.76	-52.8	-55.1	14.2	0.00e+00	0	23	0	181403648	71	4805
2026-01-09 22:07:08.93	32.32	9.82	-52.7	-55.0	14.3	0.00e+00	0	23	0	182452224	71	4754
2026-01-09 22:07:09.92	32.45	9.88	-52.8	-55.2	14.2	0.00e+00	0	23	0	184549376	71	4838
2026-01-09 22:07:10.92	32.58	9.94	-53.0	-55.4	14.1	0.00e+00	0	23	0	186646528	71	4946
2026-01-09 22:07:11.91	32.71	10.00	-52.9	-55.3	14.1	0.00e+00	0	23	0	188743680	71	4888
2026-01-09 22:07:12.90	32.83	10.06	-52.9	-55.2	14.2	0.00e+00	0	23	0	189792256	71	4847
2026-01-09 22:07:13.90	32.96	10.12	-52.9	-55.3	14.1	0.00e+00	0	23	0	191889408	71	4908
2026-01-09 22:07:14.89	33.09	10.18	-52.9	-55.3	14.1	0.00e+00	0	23	0	193986560	71	4926
2026-01-09 22:07:15.90	33.22	10.24	-52.8	-55.1	14.3	0.00e+00	0	23	0	196083712	71	4777
2026-01-09 22:07:16.90	33.36	10.30	-52.8	-55.1	14.2	0.00e+00	0	23	0	198180864	71	4797
2026-01-09 22:07:17.90	33.49	10.36	-52.7	-55.0	14.3	0.00e+00	0	23	0	199229440	71	4733
2026-01-09 22:07:18.89	33.62	10.42	-52.7	-54.9	14.3	0.00e+00	0	23	0	201326592	71	4696
2026-01-09 22:07:19.89	33.75	10.48	-52.7	-55.0	14.3	0.00e+00	0	23	0	203423744	71	4710
2026-01-09 22:07:20.90	33.89	10.54	-52.7	-55.0	14.3	0.00e+00	0	23	0	205520896	71	4720
2026-01-09 22:07:21.90	34.02	10.60	-52.7	-55.0	14.3	0.00e+00	0	23	0	206569472	71	4709
2026-01-09 22:07:22.91	34.16	10.66	-52.6	-54.9	14.4	0.00e+00	0	23	0	208666624	71	4673
2026-01-09 22:07:23.89	34.29	10.72	-52.8	-55.0	14.3	0.00e+00	0	23	0	210763776	71	4758
2026-01-09 22:07:24.89	34.43	10.78	-52.6	-54.9	14.4	0.00e+00	0	23	0	212860928	71	4672
2026-01-09 22:07:25.89	34.56	10.84	-52.8	-55.1	14.2	0.00e+00	0	23	0	214958080	71	4798
2026-01-09 22:07:26.90	34.70	10.90	-52.8	-55.2	14.2	0.00e+00	0	23	0	216006656	71	4831
2026-01-09 22:07:27.90	34.84	10.96	-52.8	-55.1	14.3	0.00e+00	0	23	0	218103808	71	4774
2026-01-09 22:07:28.90	34.97	11.02	-52.8	-55.1	14.3	0.00e+00	0	23	0	220200960	71	4762
2026-01-09 22:07:29.88	35.11	11.08	-52.7	-55.0	14.3	0.00e+00	0	23	0	222298112	71	4741
2026-01-09 22:07:30.88	35.25	11.14	-52.7	-55.0	14.3	0.00e+00	0	23	0	224395264	71	4706
2026-01-09 22:07:31.88	35.39	11.20	-52.6	-54.9	14.4	0.00e+00	0	23	0	225443840	71	4664
2026-01-09 22:07:32.88	35.53	11.26	-52.6	-54.8	14.4	0.00e+00	0	23	0	227540992	71	4650
2026-01-09 22:07:33.87	35.67	11.32	-52.5	-54.7	14.5	0.00e+00	0	23	0	229638144	71	4562
2026-01-09 22:07:34.87	35.81	11.38	-52.4	-54.5	14.6	0.00e+00	0	23	0	231735296	71	4475
2026-01-09 22:07:35.87	35.95	11.44	-52.3	-54.4	14.7	0.00e+00	0	23	0	233832448	71	4440
2026-01-09 22:07:36.86	36.09	11.50	-52.3	-54.3	14.7	0.00e+00	0	23	0	234881024	71	4387
2026-01-09 22:07:37.85	36.23	11.56	-52.3	-54.4	14.7	0.00e+00	0	23	0	236978176	71	4430
2026-01-09 22:07:38.85	36.38	11.62	-52.3	-54.4	14.7	0.00e+00	0	23	0	239075328	71	4433
2026-01-09 22:07:39.86	36.52	11.68	-52.4	-54.5	14.6	0.00e+00	0	23	0	241172480	71	4486
2026-01-09 22:07:40.85	36.66	11.74	-52.4	-54.5	14.6	0.00e+00	0	23	0	242221056	71	4472
2026-01-09 22:07:41.85	36.81	11.80	-52.4	-54.6	14.6	0.00e+00	0	23	0	244318208	71	4494
2026-01-09 22:07:42.84	36.95	11.85	-52.5	-54.7	14.5	0.00e+00	0	23	0	246415360	71	4561
2026-01-09 22:07:43.83	37.10	11.91	-52.5	-54.6	14.5	0.00e+00	0	23	0	248512512	71	4532
2026-01-09 22:07:44.83	37.24	11.97	-52.4	-54.6	14.6	0.00e+00	0	23	0	250609664	71	4494
2026-01-09 22:07:45.82	37.39	12.03	-52.4	-54.5	14.6	0.00e+00	0	23	0	251658240	71	4485
2026-01-09 22:07:46.82	37.54	12.09	-52.3	-54.5	14.7	0.00e+00	0	23	0	253755392	71	4442
2026-01-09 22:07:47.81	37.69	12.15	-52.3	-54.4	14.7	0.00e+00	0	23	0	255852544	71	4409
2026-01-09 22:07:48.81	37.83	12.21	-52.3	-54.4	14.7	0.00e+00	0	23	0	257949696	71	4407
2026-01-09 22:07:49.81	37.98	12.27	-52.3	-54.4	14.7	0.00e+00	0	23	0	258998272	71	4417
2026-01-09 22:07:50.80	38.13	12.33	-52.2	-54.3	14.8	0.00e+00	0	23	0	261095424	71	4368
2026-01-09 22:07:51.80	38.28	12.39	-52.3	-54.4	14.7	0.00e+00	0	23	0	263192576	71	4392
2026-01-09 22:07:52.80	38.43	12.45	-52.3	-54.3	14.8	0.00e+00	0	23	0	265289728	71	4380
2026-01-09 22:07:53.80	38.59	12.51	-52.3	-54.4	14.7	0.00e+00	0	23	0	267386880	71	4430
2026-01-09 22:07:54.79	38.74	12.57	-52.4	-54.5	14.7	0.00e+00	0	23	0	268435456	71	4449
2026-01-09 22:07:55.78	38.89	12.63	-52.4	-54.5	14.6	0.00e+00	0	23	0	270532608	71	4487
2026-01-09 22:07:56.77	39.04	12.69	-52.4	-54.5	14.7	0.00e+00	0	23	0	272629760	71	4469
2026-01-09 22:07:57.77	39.20	12.75	-52.3	-54.4	14.7	0.00e+00	0	23	0	274726912	71	4433
2026-01-09 22:07:58.77	39.35	12.80	-52.3	-54.3	14.8	0.00e+00	0	23	0	275775488	71	4385
2026-01-09 22:07:59.77	39.51	12.86	-52.3	-54.4	14.7	0.00e+00	0	23	0	277872640	71	4431
2026-01-09 22:08:00.77	39.66	12.92	-52.2	-54.2	14.8	0.00e+00	0	23	0	279969792	71	4329
2026-01-09 22:08:01.77	39.82	12.98	-52.1	-54.1	14.7	0.00e+00	0	23	0	282066944	70	4517
2026-01-09 22:08:02.77	39.98	13.04	-52.1	-54.1	14.7	0.00e+00	0	23	0	284164096	70	4511
2026-01-09 22:08:03.76	40.13	13.10	-52.0	-54.0	14.8	0.00e+00	0	23	0	285212672	70	4469
2026-01-09 22:08:04.76	40.29	13.16	-52.0	-54.0	14.8	0.00e+00	0	23	0	287309824	70	4489
2026-01-09 22:08:05.75	40.45	13.22	-52.0	-54.0	14.7	0.00e+00	0	23	0	289406976	70	4491
2026-01-09 22:08:06.75	40.61	13.28	-51.9	-53.8	14.9	0.00e+00	0	23	0	291504128	70	4376
2026-01-09 22:08:07.74	40.77	13.34	-51.9	-53.8	14.9	0.00e+00	0	23	0	292552704	70	4379
2026-01-09 22:08:08.74	40.93	13.39	-51.8	-53.8	14.9	0.00e+00	0	23	0	294649856	70	4346
2026-01-09 22:08:09.74	41.09	13.45	-51.8	-53.7	15.0	0.00e+00	0	23	0	296747008	70	4299
2026-01-09 22:08:10.73	41.25	13.51	-51.7	-53.6	15.0	0.00e+00	0	23	0	298844160	70	4279
2026-01-09 22:08:11.73	41.41	13.57	-51.7	-53.6	15.0	0.00e+00	0	23	0	300941312	70	4250
2026-01-09 22:08:12.73	41.58	13.63	-51.8	-53.7	15.0	0.00e+00	0	23	0	301989888	70	4298
2026-01-09 22:08:13.72	41.74	13.69	-51.7	-53.6	15.0	0.00e+00	0	23	0	304087040	70	4278
2026-01-09 22:08:14.72	41.91	13.75	-51.7	-53.6	15.0	0.00e+00	0	23	0	306184192	70	4261
2026-01-09 22:08:15.72	42.07	13.80	-51.7	-53.6	15.0	0.00e+00	0	23	0	308281344	70	4282
2026-01-09 22:08:16.71	42.23	13.86	-51.6	-53.5	14.9	0.00e+00	0	23	0	310378496	69	4459
2026-01-09 22:08:17.72	42.40	13.92	-51.6	-53.5	14.9	0.00e+00	0	23	0	311427072	69	4460
2026-01-09 22:08:18.72	42.57	13.98	-51.6	-53.4	14.9	0.00e+00	0	23	0	313524224	69	4430
2026-01-09 22:08:19.72	42.74	14.04	-51.5	-53.3	15.0	0.00e+00	0	23	0	315621376	69	4358
2026-01-09 22:08:20.72	42.91	14.10	-51.4	-53.2	15.0	0.00e+00	0	23	0	317718528	69	4318
2026-01-09 22:08:21.72	43.08	14.15	-51.4	-53.2	15.1	0.00e+00	0	23	0	318767104	69	4298
2026-01-09 22:08:22.72	43.25	14.21	-51.3	-53.1	15.1	0.00e+00	0	23	0	320864256	69	4267
2026-01-09 22:08:23.72	43.42	14.27	-51.3	-53.1	15.1	0.00e+00	0	23	0	322961408	69	4281
2026-01-09 22:08:24.71	43.59	14.33	-51.4	-53.2	15.1	0.00e+00	0	23	0	325058560	69	4299
2026-01-09 22:08:25.72	43.76	14.38	-51.3	-53.1	15.1	0.00e+00	0	23	0	327155712	69	4275
2026-01-09 22:08:26.71	43.93	14.44	-51.3	-53.1	15.1	0.00e+00	0	23	0	328204288	69	4278
2026-01-09 22:08:27.71	44.10	14.50	-51.3	-53.1	15.1	0.00e+00	0	23	0	330301440	69	4283
2026-01-09 22:08:28.70	44.28	14.55	-51.4	-53.2	15.1	0.00e+00	0	23	0	332398592	69	4301
2026-01-09 22:08:29.71	44.45	14.61	-51.4	-53.2	15.1	0.00e+00	0	23	0	334495744	69	4329
2026-01-09 22:08:30.70	44.63	14.67	-51.4	-53.3	15.0	0.00e+00	0	23	0	335544320	69	4349
2026-01-09 22:08:31.70	44.80	14.73	-51.4	-53.2	15.1	0.00e+00	0	23	0	337641472	69	4307
2026-01-09 22:08:32.69	44.98	14.78	-51.4	-53.2	15.1	0.00e+00	0	23	0	339738624	69	4313
2026-01-09 22:08:33.68	45.15	14.84	-51.3	-53.1	15.2	0.00e+00	0	23	0	341835776	69	4268
2026-01-09 22:08:34.68	45.33	14.89	-51.3	-53.1	15.1	0.00e+00	0	24	0	343932928	69	4246
2026-01-09 22:08:35.67	45.51	14.95	-51.3	-53.1	15.1	0.00e+00	0	23	0	344981504	69	4249
2026-01-09 22:08:36.67	45.68	15.01	-51.3	-53.0	15.2	0.00e+00	0	23	0	347078656	69	4238
2026-01-09 22:08:37.66	45.86	15.06	-51.3	-53.1	15.1	0.00e+00	0	23	0	349175808	69	4277
2026-01-09 22:08:38.66	46.04	15.12	-51.4	-53.1	15.1	0.00e+00	0	23	0	351272960	69	4289
2026-01-09 22:08:39.66	46.22	15.17	-51.4	-53.2	15.1	0.00e+00	0	23	0	353370112	69	4331
2026-01-09 22:08:40.67	46.41	15.23	-51.5	-53.4	15.0	0.00e+00	0	23	0	354418688	69	4400
2026-01-09 22:08:41.66	46.59	15.29	-51.5	-53.4	15.0	0.00e+00	0	23	0	356515840	69	4396
2026-01-09 22:08:42.66	46.77	15.34	-51.6	-53.4	14.9	0.00e+00	0	23	0	358612992	69	4437
2026-01-09 22:08:43.67	46.96	15.40	-51.6	-53.5	14.9	0.00e+00	0	23	0	360710144	69	4478
2026-01-09 22:08:44.66	47.14	15.45	-51.7	-53.5	14.9	0.00e+00	0	23	0	362807296	69	4493
2026-01-09 22:08:45.67	47.32	15.51	-51.7	-53.6	14.8	0.00e+00	0	23	0	363855872	69	4519
2026-01-09 22:08:46.67	47.51	15.56	-51.6	-53.5	14.9	0.00e+00	0	23	0	365953024	69	4443
2026-01-09 22:08:47.67	47.70	15.62	-51.6	-53.4	15.0	0.00e+00	0	23	0	368050176	69	4407
2026-01-09 22:08:48.66	47.88	15.67	-51.7	-53.5	14.9	0.00e+00	0	23	0	370147328	69	4486
2026-01-09 22:08:49.67	48.07	15.73	-51.6	-53.5	14.9	0.00e+00	0	23	0	371195904	69	4473
2026-01-09 22:08:50.66	48.26	15.78	-51.8	-53.7	14.8	0.00e+00	0	23	0	373293056	69	4576
2026-01-09 22:08:51.66	48.45	15.83	-51.9	-53.9	14.7	0.00e+00	0	23	0	375390208	69	4656
2026-01-09 22:08:52.67	48.64	15.89	-52.0	-53.9	14.7	0.00e+00	0	23	0	377487360	69	4697
2026-01-09 22:08:53.67	48.83	15.94	-52.0	-54.0	14.6	0.00e+00	0	23	0	379584512	69	4743
2026-01-09 22:08:54.67	49.02	16.00	-52.0	-54.0	14.6	0.00e+00	0	23	0	380633088	69	4745
2026-01-09 22:08:55.67	49.21	16.05	-52.1	-54.1	14.6	0.00e+00	0	23	0	382730240	69	4800
2026-01-09 22:08:56.67	49.40	16.10	-52.1	-54.0	14.6	0.00e+00	0	23	0	384827392	69	4755
2026-01-09 22:08:57.67	49.60	16.16	-52.1	-54.1	14.6	0.00e+00	0	23	0	386924544	69	4778
2026-01-09 22:08:58.67	49.79	16.21	-52.1	-54.1	14.6	0.00e+00	0	23	0	389021696	69	4762
2026-01-09 22:08:59.68	49.99	16.26	-52.0	-54.0	14.6	0.00e+00	0	23	0	390070272	69	4717
2026-01-09 22:09:00.68	50.18	16.32	-52.0	-53.9	14.7	0.00e+00	0	23	0	392167424	69	4677
2026-01-09 22:09:01.68	50.38	16.37	-52.0	-54.0	14.6	0.00e+00	0	23	0	394264576	69	4732
2026-01-09 22:09:02.68	50.57	16.42	-52.1	-54.1	14.6	0.00e+00	0	23	0	396361728	69	4798
2026-01-09 22:09:03.69	50.77	16.47	-52.2	-54.2	14.5	0.00e+00	0	23	0	398458880	69	4857
2026-01-09 22:09:04.68	50.97	16.52	-52.3	-54.4	14.4	0.00e+00	0	23	0	399507456	69	4943
2026-01-09 22:09:05.67	51.16	16.57	-52.4	-54.5	14.4	0.00e+00	0	23	0	401604608	69	4984
2026-01-09 22:09:06.68	51.36	16.63	-52.4	-54.5	14.4	0.00e+00	0	23	0	403701760	69	5009
2026-01-09 22:09:07.67	51.56	16.68	-52.4	-54.5	14.5	0.00e+00	0	24	0	405798912	70	4742
2026-01-09 22:09:08.67	51.76	16.73	-52.5	-54.6	14.5	0.00e+00	0	23	0	406847488	70	4760
2026-01-09 22:09:09.68	51.96	16.78	-52.4	-54.5	14.5	0.00e+00	0	23	0	408944640	70	4718
2026-01-09 22:09:10.68	52.17	16.83	-52.5	-54.6	14.4	0.00e+00	0	23	0	411041792	70	4799
2026-01-09 22:09:11.69	52.37	16.88	-52.5	-54.7	14.4	0.00e+00	0	23	0	413138944	70	4822
2026-01-09 22:09:12.68	52.57	16.93	-52.4	-54.4	14.6	0.00e+00	0	23	0	415236096	70	4703
2026-01-09 22:09:13.68	52.77	16.98	-52.5	-54.6	14.5	0.00e+00	0	23	0	416284672	70	4765
2026-01-09 22:09:14.69	52.98	17.03	-52.6	-54.8	14.4	0.00e+00	0	23	0	418381824	70	4871
2026-01-09 22:09:15.69	53.19	17.08	-52.8	-55.1	14.2	0.00e+00	0	24	0	420478976	70	5047
2026-01-09 22:09:16.68	53.39	17.13	-52.9	-55.2	14.1	0.00e+00	0	23	0	422576128	70	5128
2026-01-09 22:09:17.69	53.60	17.17	-53.1	-55.4	14.2	0.00e+00	0	23	0	424673280	71	4945
2026-01-09 22:09:18.68	53.80	17.22	-53.1	-55.4	14.1	0.00e+00	0	23	0	425721856	71	4979
2026-01-09 22:09:19.68	54.01	17.27	-53.2	-55.5	14.1	0.00e+00	0	23	0	427819008	71	5031
2026-01-09 22:09:20.68	54.22	17.32	-53.1	-55.4	14.2	0.00e+00	0	23	0	429916160	71	4944
2026-01-09 22:09:21.69	54.43	17.37	-53.0	-55.3	14.2	0.00e+00	0	23	0	432013312	71	4915
2026-01-09 22:09:22.69	54.64	17.41	-53.0	-55.3	14.2	0.00e+00	0	23	0	433061888	71	4883
2026-01-09 22:09:23.69	54.85	17.46	-52.8	-55.1	14.4	0.00e+00	0	23	0	435159040	71	4769
2026-01-09 22:09:24.69	55.06	17.51	-52.6	-54.8	14.5	0.00e+00	0	23	0	437256192	71	4612
2026-01-09 22:09:25.69	55.27	17.55	-52.6	-54.7	14.6	0.00e+00	0	23	0	439353344	71	4566
2026-01-09 22:09:26.69	55.48	17.60	-52.6	-54.7	14.6	0.00e+00	0	23	0	441450496	71	4579
2026-01-09 22:09:27.70	55.70	17.65	-52.7	-54.8	14.5	0.00e+00	0	23	0	442499072	71	4635
2026-01-09 22:09:28.69	55.91	17.69	-52.7	-54.8	14.5	0.00e+00	0	23	0	444596224	71	4631
2026-01-09 22:09:29.70	56.12	17.74	-52.7	-54.9	14.5	0.00e+00	0	23	0	446693376	71	4676
2026-01-09 22:09:30.69	56.33	17.78	-52.7	-54.9	14.4	0.00e+00	0	23	0	448790528	71	4679
2026-01-09 22:09:31.68	56.55	17.83	-52.6	-54.8	14.5	0.00e+00	0	23	0	450887680	71	4612
2026-01-09 22:09:32.68	56.76	17.87	-52.8	-54.9	14.4	0.00e+00	0	23	0	451936256	71	4694
2026-01-09 22:09:33.68	56.98	17.92	-52.7	-54.9	14.4	0.00e+00	0	23	0	454033408	71	4680
2026-01-09 22:09:34.67	57.19	17.96	-52.7	-54.8	14.5	0.00e+00	0	23	0	456130560	71	4625
2026-01-09 22:09:35.67	57.41	18.00	-52.5	-54.6	14.6	0.00e+00	0	23	0	458227712	71	4518
2026-01-09 22:09:36.67	57.63	18.05	-52.4	-54.5	14.7	0.00e+00	0	23	0	460324864	71	4459
2026-01-09 22:09:37.67	57.85	18.09	-52.3	-54.3	14.8	0.00e+00	0	23	0	461373440	71	4375
2026-01-09 22:09:38.67	58.07	18.13	-52.3	-54.3	14.8	0.00e+00	0	23	0	463470592	71	4351
2026-01-09 22:09:39.67	58.29	18.17	-52.3	-54.3	14.8	0.00e+00	0	23	0	465567744	71	4369
2026-01-09 22:09:40.66	58.51	18.21	-52.4	-54.4	14.7	0.00e+00	0	23	0	467664896	71	4432
2026-01-09 22:09:41.66	58.73	18.26	-52.3	-54.3	14.8	0.00e+00	0	23	0	468713472	71	4367
2026-01-09 22:09:42.66	58.95	18.30	-52.3	-54.3	14.8	0.00e+00	0	23	0	470810624	71	4367
2026-01-09 22:09:43.66	59.17	18.34	-52.3	-54.3	14.8	0.00e+00	0	23	0	472907776	71	4388
2026-01-09 22:09:44.66	59.39	18.38	-52.3	-54.3	14.8	0.00e+00	0	23	0	475004928	71	4365
2026-01-09 22:09:45.66	59.62	18.42	-52.2	-54.2	14.8	0.00e+00	0	23	0	477102080	71	4330
2026-01-09 22:09:46.67	59.84	18.46	-52.1	-54.1	14.8	0.00e+00	0	23	0	478150656	70	4497
2026-01-09 22:09:47.67	60.07	18.50	-52.1	-54.0	14.8	0.00e+00	0	23	0	480247808	70	4492
2026-01-09 22:09:48.66	60.29	18.54	-52.1	-54.0	14.8	0.00e+00	0	23	0	482344960	70	4467
2026-01-09 22:09:49.66	60.52	18.58	-52.1	-54.1	14.8	0.00e+00	0	23	0	484442112	70	4503
2026-01-09 22:09:50.66	60.74	18.61	-52.3	-54.3	14.7	0.00e+00	0	23	0	486539264	70	4601
2026-01-09 22:09:51.66	60.97	18.65	-52.4	-54.5	14.6	0.00e+00	0	23	0	487587840	70	4717
2026-01-09 22:09:52.66	61.20	18.69	-52.5	-54.6	14.5	0.00e+00	0	23	0	489684992	70	4764
2026-01-09 22:09:53.65	61.42	18.73	-52.5	-54.7	14.4	0.00e+00	0	23	0	491782144	70	4820
2026-01-09 22:09:54.65	61.65	18.76	-52.6	-54.7	14.4	0.00e+00	0	23	0	493879296	70	4836
2026-01-09 22:09:55.65	61.88	18.80	-52.5	-54.6	14.5	0.00e+00	0	23	0	494927872	70	4779
2026-01-09 22:09:56.66	62.11	18.84	-52.4	-54.5	14.5	0.00e+00	0	23	0	497025024	70	4732
2026-01-09 22:09:57.65	62.34	18.87	-52.3	-54.3	14.7	0.00e+00	0	23	0	499122176	70	4601
2026-01-09 22:09:58.65	62.57	18.91	-52.1	-54.0	14.8	0.00e+00	0	23	0	501219328	70	4459
2026-01-09 22:09:59.65	62.80	18.94	-52.0	-53.9	14.9	0.00e+00	0	23	0	503316480	70	4406
2026-01-09 22:10:00.66	63.04	18.98	-52.0	-53.9	14.9	0.00e+00	0	23	0	504365056	70	4404
2026-01-09 22:10:01.65	63.27	19.01	-52.1	-54.0	14.8	0.00e+00	0	23	0	506462208	70	4456
2026-01-09 22:10:02.66	63.50	19.04	-52.1	-54.1	14.8	0.00e+00	0	23	0	508559360	70	4512
2026-01-09 22:10:03.66	63.73	19.08	-52.2	-54.2	14.7	0.00e+00	0	23	0	510656512	70	4565
2026-01-09 22:10:04.65	63.96	19.11	-52.3	-54.3	14.6	0.00e+00	0	23	0	511705088	70	4638
2026-01-09 22:10:05.66	64.20	19.14	-52.3	-54.4	14.6	0.00e+00	0	23	0	513802240	70	4664
2026-01-09 22:10:06.65	64.43	19.17	-52.3	-54.3	14.6	0.00e+00	0	23	0	515899392	70	4639
2026-01-09 22:10:07.66	64.67	19.21	-52.3	-54.3	14.6	0.00e+00	0	23	0	517996544	70	4602
2026-01-09 22:10:08.66	64.91	19.24	-52.2	-54.2	14.7	0.00e+00	0	23	0	520093696	70	4561
2026-01-09 22:10:09.66	65.14	19.27	-52.1	-54.0	14.8	0.00e+00	0	24	0	522190848	70	4489
2026-01-09 22:10:10.66	65.38	19.30	-52.0	-53.9	14.8	0.00e+00	0	23	0	523239424	70	4433
2026-01-09 22:10:11.66	65.62	19.33	-52.0	-53.9	14.8	0.00e+00	0	23	0	525336576	70	4431
2026-01-09 22:10:12.66	65.85	19.36	-52.0	-53.9	14.9	0.00e+00	0	23	0	527433728	70	4411
2026-01-09 22:10:13.67	66.09	19.39	-52.0	-53.9	14.9	0.00e+00	0	23	0	529530880	70	4395
2026-01-09 22:10:14.66	66.33	19.41	-52.0	-54.0	14.8	0.00e+00	0	23	0	530579456	70	4454
2026-01-09 22:10:15.66	66.57	19.44	-52.0	-53.9	14.9	0.00e+00	0	23	0	532676608	70	4410
2026-01-09 22:10:16.66	66.81	19.47	-52.1	-54.1	14.8	0.00e+00	0	23	0	534773760	70	4496
2026-01-09 22:10:17.67	67.05	19.50	-52.2	-54.2	14.7	0.00e+00	0	23	0	536870912	70	4558
2026-01-09 22:10:18.66	67.29	19.52	-52.2	-54.1	14.7	0.00e+00	0	23	0	538968064	70	4537
2026-01-09 22:10:19.66	67.53	19.55	-52.1	-54.1	14.8	0.00e+00	0	23	0	540016640	70	4499
2026-01-09 22:10:20.66	67.77	19.57	-52.1	-54.0	14.8	0.00e+00	0	23	0	542113792	70	4459
2026-01-09 22:10:21.67	68.01	19.60	-52.0	-53.9	14.9	0.00e+00	0	23	0	544210944	70	4403
2026-01-09 22:10:22.66	68.25	19.62	-51.9	-53.7	14.9	0.00e+00	0	23	0	546308096	70	4336
2026-01-09 22:10:23.67	68.50	19.65	-51.9	-53.8	15.0	0.00e+00	0	23	0	548405248	70	4341
2026-01-09 22:10:24.67	68.74	19.67	-51.8	-53.6	15.0	0.00e+00	0	23	0	549453824	70	4287
2026-01-09 22:10:25.67	68.98	19.70	-51.7	-53.5	15.1	0.00e+00	0	23	0	551550976	70	4222
2026-01-09 22:10:26.67	69.22	19.72	-51.8	-53.7	15.0	0.00e+00	0	23	0	553648128	70	4292
2026-01-09 22:10:27.66	69.46	19.74	-51.9	-53.8	14.9	0.00e+00	0	23	0	555745280	70	4382
2026-01-09 22:10:28.66	69.71	19.76	-52.1	-54.1	14.8	0.00e+00	0	23	0	556793856	70	4516
2026-01-09 22:10:29.66	69.95	19.78	-52.3	-54.3	14.6	0.00e+00	0	23	0	558891008	70	4638
2026-01-09 22:10:30.66	70.20	19.80	-52.4	-54.5	14.6	0.00e+00	0	23	0	560988160	70	4706
2026-01-09 22:10:31.65	70.44	19.82	-52.6	-54.7	14.5	0.00e+00	0	23	0	563085312	70	4839
2026-01-09 22:10:32.65	70.68	19.84	-52.6	-54.8	14.4	0.00e+00	0	23	0	565182464	70	4887
2026-01-09 22:10:33.64	70.93	19.86	-52.6	-54.8	14.4	0.00e+00	0	23	0	566231040	70	4871
2026-01-09 22:10:34.64	71.17	19.88	-52.6	-54.7	14.4	0.00e+00	0	23	0	568328192	70	4851
2026-01-09 22:10:35.64	71.42	19.90	-52.4	-54.4	14.6	0.00e+00	0	23	0	570425344	70	4690
2026-01-09 22:10:36.64	71.67	19.92	-52.3	-54.3	14.6	0.00e+00	0	23	0	572522496	70	4645
2026-01-09 22:10:37.64	71.91	19.94	-52.2	-54.2	14.7	0.00e+00	0	23	0	574619648	70	4570
2026-01-09 22:10:38.64	72.16	19.95	-52.3	-54.3	14.6	0.00e+00	0	23	0	575668224	70	4623
2026-01-09 22:10:39.63	72.40	19.97	-52.2	-54.2	14.7	0.00e+00	0	23	0	577765376	70	4575
2026-01-09 22:10:40.63	72.65	19.98	-52.3	-54.3	14.7	0.00e+00	0	24	0	579862528	70	4610
2026-01-09 22:10:41.63	72.90	20.00	-52.3	-54.4	14.6	0.00e+00	0	23	0	581959680	70	4663
2026-01-09 22:10:42.63	73.15	20.01	-52.4	-54.4	14.6	0.00e+00	0	23	0	583008256	70	4691
2026-01-09 22:10:43.63	73.39	20.03	-52.5	-54.6	14.5	0.00e+00	0	23	0	585105408	70	4774
2026-01-09 22:10:44.63	73.64	20.04	-52.4	-54.5	14.5	0.00e+00	0	23	0	587202560	70	4733
2026-01-09 22:10:45.63	73.89	20.06	-52.6	-54.7	14.4	0.00e+00	0	23	0	589299712	70	4822
2026-01-09 22:10:46.63	74.14	20.07	-52.3	-54.3	14.6	0.00e+00	0	23	0	591396864	70	4648
2026-01-09 22:10:47.63	74.39	20.08	-52.3	-54.3	14.6	0.00e+00	0	23	0	592445440	70	4605
2026-01-09 22:10:48.62	74.64	20.09	-52.3	-54.3	14.7	0.00e+00	0	23	0	594542592	70	4624
2026-01-09 22:10:49.62	74.88	20.10	-52.3	-54.2	14.7	0.00e+00	0	23	0	596639744	70	4596
2026-01-09 22:10:50.62	75.13	20.11	-52.3	-54.3	14.7	0.00e+00	0	23	0	598736896	70	4615
2026-01-09 22:10:51.63	75.39	20.12	-52.4	-54.5	14.6	0.00e+00	0	23	0	600834048	70	4710
2026-01-09 22:10:52.64	75.64	20.13	-52.6	-54.7	14.4	0.00e+00	0	23	0	601882624	70	4835
2026-01-09 22:10:53.63	75.89	20.14	-52.9	-55.2	14.2	0.00e+00	0	23	0	603979776	70	5104
2026-01-09 22:10:54.63	76.14	20.15	-53.0	-55.3	14.2	0.00e+00	0	23	0	606076928	71	4907
2026-01-09 22:10:55.64	76.39	20.16	-53.2	-55.5	14.1	0.00e+00	0	23	0	608174080	71	5038
2026-01-09 22:10:56.64	76.64	20.17	-53.2	-55.5	14.1	0.00e+00	0	23	0	609222656	71	5012
2026-01-09 22:10:57.63	76.89	20.17	-53.1	-55.4	14.2	0.00e+00	0	23	0	611319808	71	4947
2026-01-09 22:10:58.63	77.14	20.18	-53.0	-55.2	14.3	0.00e+00	0	23	0	613416960	71	4870
2026-01-09 22:10:59.63	77.39	20.18	-52.8	-54.9	14.4	0.00e+00	0	23	0	615514112	71	4685
2026-01-09 22:11:00.63	77.64	20.19	-52.6	-54.7	14.6	0.00e+00	0	23	0	617611264	71	4578
2026-01-09 22:11:01.63	77.89	20.19	-52.6	-54.8	14.5	0.00e+00	0	24	0	618659840	71	4600
2026-01-09 22:11:02.63	78.14	20.20	-52.6	-54.7	14.5	0.00e+00	0	23	0	620756992	71	4590
2026-01-09 22:11:03.64	78.40	20.20	-52.5	-54.5	14.7	0.00e+00	0	23	0	622854144	71	4492
2026-01-09 22:11:04.64	78.65	20.21	-52.4	-54.4	14.7	0.00e+00	0	24	0	624951296	71	4420
2026-01-09 22:11:05.64	78.90	20.21	-52.4	-54.4	14.7	0.00e+00	0	23	0	627048448	71	4433
2026-01-09 22:11:06.63	79.15	20.21	-52.4	-54.4	14.8	0.00e+00	0	23	0	628097024	71	4410
2026-01-09 22:11:07.63	79.40	20.21	-52.3	-54.3	14.8	0.00e+00	0	23	0	630194176	71	4363
2026-01-09 22:11:08.62	79.65	20.21	-52.3	-54.3	14.8	0.00e+00	0	23	0	632291328	71	4382
2026-01-09 22:11:09.62	79.90	20.21	-52.3	-54.3	14.8	0.00e+00	0	23	0	634388480	71	4374
2026-01-09 22:11:10.63	80.15	20.21	-52.3	-54.3	14.8	0.00e+00	0	23	0	636485632	71	4375
2026-01-09 22:11:11.62	80.40	20.21	-52.3	-54.3	14.8	0.00e+00	0	23	0	637534208	71	4384
2026-01-09 22:11:12.62	80.65	20.21	-52.4	-54.5	14.7	0.00e+00	0	23	0	639631360	71	4451
2026-01-09 22:11:13.62	80.90	20.21	-52.4	-54.5	14.7	0.00e+00	0	23	0	641728512	71	4449
2026-01-09 22:11:14.62	81.15	20.21	-52.5	-54.5	14.7	0.00e+00	0	23	0	643825664	71	4469
2026-01-09 22:11:15.62	81.40	20.20	-52.5	-54.5	14.7	0.00e+00	0	23	0	644874240	71	4481
2026-01-09 22:11:16.62	81.66	20.20	-52.5	-54.5	14.7	0.00e+00	0	23	0	646971392	71	4482
2026-01-09 22:11:17.61	81.90	20.20	-52.5	-54.5	14.7	0.00e+00	0	24	0	649068544	71	4471
2026-01-09 22:11:18.61	82.15	20.19	-52.4	-54.4	14.8	0.00e+00	0	23	0	651165696	71	4393
2026-01-09 22:11:19.61	82.41	20.19	-52.2	-54.2	14.9	0.00e+00	0	23	0	653262848	71	4305
2026-01-09 22:11:20.60	82.65	20.18	-52.4	-54.4	14.8	0.00e+00	0	23	0	654311424	71	4398
2026-01-09 22:11:21.60	82.90	20.17	-52.4	-54.5	14.7	0.00e+00	0	23	0	656408576	71	4458
2026-01-09 22:11:22.61	83.16	20.17	-52.5	-54.5	14.7	0.00e+00	0	23	0	658505728	71	4491
2026-01-09 22:11:23.61	83.41	20.16	-52.7	-54.8	14.5	0.00e+00	0	23	0	660602880	71	4650
2026-01-09 22:11:24.60	83.66	20.15	-52.8	-54.9	14.4	0.00e+00	0	23	0	661651456	71	4697
2026-01-09 22:11:25.59	83.90	20.14	-52.8	-54.9	14.4	0.00e+00	0	23	0	663748608	71	4705
2026-01-09 22:11:26.59	84.15	20.14	-52.8	-55.0	14.4	0.00e+00	0	23	0	665845760	71	4723
2026-01-09 22:11:27.60	84.41	20.13	-52.8	-55.0	14.4	0.00e+00	0	23	0	667942912	71	4729
2026-01-09 22:11:28.60	84.66	20.12	-52.8	-55.0	14.4	0.00e+00	0	23	0	670040064	71	4756
2026-01-09 22:11:29.59	84.90	20.11	-52.9	-55.1	14.4	0.00e+00	0	23	0	671088640	71	4773
2026-01-09 22:11:30.58	85.15	20.09	-52.9	-55.1	14.3	0.00e+00	0	23	0	673185792	71	4765
2026-01-09 22:11:31.58	85.40	20.08	-52.8	-55.0	14.4	0.00e+00	0	23	0	675282944	71	4736
2026-01-09 22:11:32.58	85.65	20.07	-52.5	-54.5	14.7	0.00e+00	0	23	0	677380096	71	4462
2026-01-09 22:11:33.58	85.90	20.06	-52.2	-54.1	14.9	0.00e+00	0	23	0	679477248	71	4274
2026-01-09 22:11:34.58	86.15	20.05	-52.1	-54.0	14.8	0.00e+00	0	23	0	680525824	70	4474
2026-01-09 22:11:35.58	86.40	20.03	-52.0	-53.9	14.8	0.00e+00	0	23	0	682622976	70	4429
2026-01-09 22:11:36.57	86.64	20.02	-51.9	-53.8	14.9	0.00e+00	0	23	0	684720128	70	4371
2026-01-09 22:11:37.58	86.89	20.00	-52.0	-53.9	14.9	0.00e+00	0	23	0	686817280	70	4412
2026-01-09 22:11:38.58	87.14	19.99	-52.2	-54.1	14.7	0.00e+00	0	23	0	687865856	70	4531
2026-01-09 22:11:39.57	87.39	19.97	-52.3	-54.3	14.6	0.00e+00	0	23	0	689963008	70	4617
2026-01-09 22:11:40.57	87.63	19.96	-52.3	-54.3	14.6	0.00e+00	0	23	0	692060160	70	4634
2026-01-09 22:11:41.56	87.88	19.94	-52.4	-54.4	14.5	0.00e+00	0	23	0	694157312	70	4683
2026-01-09 22:11:42.56	88.12	19.92	-52.3	-54.4	14.6	0.00e+00	0	23	0	696254464	70	4666
2026-01-09 22:11:43.55	88.37	19.90	-52.3	-54.3	14.6	0.00e+00	0	23	0	697303040	70	4623
2026-01-09 22:11:44.55	88.62	19.89	-52.2	-54.2	14.7	0.00e+00	0	24	0	699400192	70	4564
2026-01-09 22:11:45.54	88.86	19.87	-52.1	-54.1	14.8	0.00e+00	0	23	0	701497344	70	4520
2026-01-09 22:11:46.54	89.10	19.85	-52.1	-54.0	14.8	0.00e+00	0	24	0	703594496	70	4469
2026-01-09 22:11:47.53	89.35	19.83	-52.0	-53.9	14.9	0.00e+00	0	23	0	704643072	70	4412
2026-01-09 22:11:48.53	89.59	19.81	-51.9	-53.7	15.0	0.00e+00	0	23	0	706740224	70	4337
2026-01-09 22:11:49.53	89.84	19.79	-51.7	-53.6	15.1	0.00e+00	0	23	0	708837376	70	4260
2026-01-09 22:11:50.53	90.08	19.77	-51.5	-53.3	15.0	0.00e+00	0	23	0	710934528	69	4345
2026-01-09 22:11:51.53	90.33	19.75	-51.6	-53.4	15.0	0.00e+00	0	23	0	713031680	69	4404
2026-01-09 22:11:52.54	90.57	19.72	-51.5	-53.3	15.0	0.00e+00	0	23	0	714080256	69	4353
2026-01-09 22:11:53.55	90.82	19.70	-51.3	-53.1	15.1	0.00e+00	0	24	0	716177408	69	4262
2026-01-09 22:11:54.55	91.06	19.68	-51.5	-53.3	15.0	0.00e+00	0	24	0	718274560	69	4348
2026-01-09 22:11:55.55	91.30	19.65	-51.6	-53.5	15.0	0.00e+00	0	23	0	720371712	69	4443
2026-01-09 22:11:56.55	91.55	19.63	-51.7	-53.6	14.9	0.00e+00	0	24	0	722468864	69	4519
2026-01-09 22:11:57.55	91.79	19.60	-51.8	-53.7	14.8	0.00e+00	0	24	0	723517440	69	4548
2026-01-09 22:11:58.55	92.03	19.58	-51.7	-53.5	14.9	0.00e+00	0	23	0	725614592	69	4479
2026-01-09 22:11:59.55	92.27	19.55	-51.6	-53.5	14.9	0.00e+00	0	24	0	727711744	69	4455
2026-01-09 22:12:00.55	92.51	19.53	-51.7	-53.6	14.8	0.00e+00	0	24	0	729808896	69	4509
2026-01-09 22:12:01.55	92.75	19.50	-51.7	-53.5	14.9	0.00e+00	0	23	0	731906048	69	4485
2026-01-09 22:12:02.55	92.99	19.47	-51.6	-53.4	14.9	0.00e+00	0	24	0	732954624	69	4416
2026-01-09 22:12:03.54	93.23	19.45	-51.6	-53.4	14.9	0.00e+00	0	23	0	735051776	69	4441
2026-01-09 22:12:04.54	93.47	19.42	-51.6	-53.4	15.0	0.00e+00	0	23	0	737148928	69	4427
2026-01-09 22:12:05.54	93.71	19.39	-51.5	-53.3	15.1	0.00e+00	0	24	0	739246080	69	4351
2026-01-09 22:12:06.53	93.95	19.36	-51.5	-53.2	15.0	0.00e+00	0	23	0	740294656	69	4339
2026-01-09 22:12:07.53	94.18	19.33	-51.3	-53.1	15.1	0.00e+00	0	24	0	742391808	69	4266
2026-01-09 22:12:08.53	94.42	19.30	-51.1	-52.7	15.1	0.00e+00	0	23	0	744488960	68	4339
2026-01-09 22:12:09.52	94.66	19.27	-51.0	-52.6	15.2	0.00e+00	0	23	0	746586112	68	4280
2026-01-09 22:12:10.52	94.89	19.24	-50.9	-52.6	15.2	0.00e+00	0	23	0	748683264	68	4259
2026-01-09 22:12:11.52	95.13	19.21	-50.9	-52.6	15.2	0.00e+00	0	23	0	749731840	68	4256
2026-01-09 22:12:12.52	95.36	19.18	-51.0	-52.7	15.1	0.00e+00	0	24	0	751828992	68	4330
2026-01-09 22:12:13.52	95.60	19.15	-51.2	-52.9	15.1	0.00e+00	0	23	0	753926144	68	4407
2026-01-09 22:12:14.52	95.83	19.12	-51.2	-53.0	15.0	0.00e+00	0	23	0	756023296	68	4467
2026-01-09 22:12:15.52	96.07	19.08	-51.3	-53.1	15.0	0.00e+00	0	23	0	758120448	68	4497
2026-01-09 22:12:16.52	96.30	19.05	-51.3	-53.0	15.0	0.00e+00	0	24	0	759169024	68	4474
2026-01-09 22:12:17.52	96.54	19.02	-51.2	-53.0	15.0	0.00e+00	0	24	0	761266176	68	4459
2026-01-09 22:12:18.52	96.77	18.98	-51.2	-52.9	15.0	0.00e+00	0	24	0	763363328	68	4421
2026-01-09 22:12:19.53	97.00	18.95	-51.2	-52.9	15.1	0.00e+00	0	23	0	765460480	68	4407
2026-01-09 22:12:20.53	97.23	18.91	-51.2	-52.9	15.1	0.00e+00	0	23	0	767557632	68	4403
2026-01-09 22:12:21.53	97.47	18.88	-51.1	-52.7	15.1	0.00e+00	0	23	0	768606208	68	4338
2026-01-09 22:12:22.52	97.69	18.84	-50.8	-52.5	15.3	0.00e+00	0	23	0	770703360	68	4194
2026-01-09 22:12:23.51	97.92	18.81	-50.5	-52.0	15.3	0.00e+00	0	23	0	772800512	67	4240
2026-01-09 22:12:24.52	98.15	18.77	-50.4	-52.0	15.3	0.00e+00	0	24	0	774897664	67	4199
2026-01-09 22:12:25.52	98.38	18.73	-50.3	-51.9	15.4	0.00e+00	0	24	0	775946240	67	4158
2026-01-09 22:12:26.52	98.61	18.69	-50.2	-51.8	15.4	0.00e+00	0	23	0	778043392	67	4120
2026-01-09 22:12:27.53	98.84	18.66	-50.1	-51.6	15.3	0.00e+00	0	23	0	780140544	66	4260
2026-01-09 22:12:28.53	99.07	18.62	-50.1	-51.7	15.3	0.00e+00	0	23	0	782237696	66	4292
2026-01-09 22:12:29.52	99.29	18.58	-50.1	-51.6	15.3	0.00e+00	0	23	0	784334848	66	4287
2026-01-09 22:12:30.52	99.52	18.54	-50.1	-51.6	15.3	0.00e+00	0	23	0	785383424	66	4291
2026-01-09 22:12:31.52	99.75	18.50	-50.1	-51.7	15.3	0.00e+00	0	24	0	787480576	66	4318
2026-01-09 22:12:32.52	99.97	18.46	-50.2	-51.8	15.2	0.00e+00	0	23	0	789577728	66	4349
2026-01-09 22:12:33.52	100.20	18.42	-50.3	-51.9	15.2	0.00e+00	0	23	0	791674880	66	4415
2026-01-09 22:12:34.52	100.42	18.38	-50.4	-52.0	15.1	0.00e+00	0	23	0	793772032	66	4477
2026-01-09 22:12:35.51	100.64	18.34	-50.5	-52.1	15.1	0.00e+00	0	23	0	794820608	66	4540
2026-01-09 22:12:36.51	100.86	18.30	-50.7	-52.4	14.9	0.00e+00	0	23	0	796917760	66	4682
2026-01-09 22:12:37.51	101.09	18.26	-50.9	-52.6	14.9	0.00e+00	0	24	0	799014912	66	4771
2026-01-09 22:12:38.51	101.31	18.22	-51.0	-52.7	14.9	0.00e+00	0	23	0	801112064	67	4588
2026-01-09 22:12:39.51	101.53	18.18	-50.9	-52.6	15.0	0.00e+00	0	23	0	802160640	67	4508
2026-01-09 22:12:40.50	101.75	18.14	-50.9	-52.7	15.0	0.00e+00	0	23	0	804257792	67	4549
2026-01-09 22:12:41.50	101.97	18.09	-50.8	-52.5	15.0	0.00e+00	0	23	0	806354944	67	4463
2026-01-09 22:12:42.50	102.19	18.05	-50.9	-52.6	15.0	0.00e+00	0	23	0	808452096	67	4508
2026-01-09 22:12:43.49	102.40	18.01	-51.0	-52.8	14.9	0.00e+00	0	24	0	810549248	67	4616
2026-01-09 22:12:44.49	102.62	17.96	-51.2	-52.9	14.9	0.00e+00	0	23	0	811597824	67	4701
2026-01-09 22:12:45.49	102.84	17.92	-51.3	-53.2	14.7	0.00e+00	0	23	0	813694976	67	4834
2026-01-09 22:12:46.48	103.05	17.88	-51.5	-53.4	14.8	0.00e+00	0	23	0	815792128	68	4661
2026-01-09 22:12:47.47	103.27	17.83	-51.6	-53.4	14.8	0.00e+00	0	23	0	817889280	68	4681
2026-01-09 22:12:48.46	103.48	17.79	-51.5	-53.4	14.8	0.00e+00	0	23	0	818937856	68	4664
2026-01-09 22:12:49.45	103.70	17.74	-51.6	-53.4	14.8	0.00e+00	0	24	0	821035008	68	4703
2026-01-09 22:12:50.45	103.91	17.70	-51.6	-53.4	14.8	0.00e+00	0	23	0	823132160	68	4672
2026-01-09 22:12:51.44	104.12	17.65	-51.7	-53.6	14.7	0.00e+00	0	23	0	825229312	68	4767
2026-01-09 22:12:52.45	104.34	17.61	-51.8	-53.7	14.6	0.00e+00	0	24	0	827326464	68	4847
2026-01-09 22:12:53.45	104.55	17.56	-52.0	-53.9	14.7	0.00e+00	0	24	0	828375040	69	4683
2026-01-09 22:12:54.45	104.76	17.51	-52.0	-54.0	14.6	0.00e+00	0	23	0	830472192	69	4734
2026-01-09 22:12:55.45	104.97	17.47	-52.0	-54.0	14.6	0.00e+00	0	24	0	832569344	69	4723
2026-01-09 22:12:56.45	105.18	17.42	-52.0	-53.9	14.7	0.00e+00	0	23	0	834666496	69	4671
2026-01-09 22:12:57.46	105.40	17.37	-52.0	-54.0	14.6	0.00e+00	0	24	0	836763648	69	4738
2026-01-09 22:12:58.45	105.60	17.32	-52.0	-54.0	14.6	0.00e+00	0	23	0	837812224	69	4713
2026-01-09 22:12:59.45	105.81	17.27	-51.9	-53.8	14.7	0.00e+00	0	24	0	839909376	69	4626
2026-01-09 22:13:00.44	106.02	17.23	-52.0	-53.9	14.7	0.00e+00	0	24	0	842006528	69	4685
2026-01-09 22:13:01.45	106.23	17.18	-52.0	-54.0	14.6	0.00e+00	0	24	0	844103680	69	4708
2026-01-09 22:13:02.45	106.44	17.13	-52.1	-54.2	14.6	0.00e+00	0	24	0	845152256	69	4816
2026-01-09 22:13:03.44	106.64	17.08	-52.2	-54.3	14.5	0.00e+00	0	23	0	847249408	69	4877
2026-01-09 22:13:04.44	106.85	17.03	-52.3	-54.3	14.5	0.00e+00	0	23	0	849346560	69	4925
2026-01-09 22:13:05.44	107.05	16.98	-52.3	-54.4	14.4	0.00e+00	0	24	0	851443712	69	4928
2026-01-09 22:13:06.44	107.25	16.93	-52.4	-54.4	14.4	0.00e+00	0	23	0	853540864	69	4969
2026-01-09 22:13:07.44	107.46	16.88	-52.2	-54.3	14.5	0.00e+00	0	23	0	854589440	69	4871
2026-01-09 22:13:08.44	107.66	16.83	-52.1	-54.1	14.6	0.00e+00	0	23	0	856686592	69	4775
2026-01-09 22:13:09.44	107.86	16.78	-52.1	-54.0	14.6	0.00e+00	0	23	0	858783744	69	4744
2026-01-09 22:13:10.44	108.06	16.73	-52.0	-54.0	14.6	0.00e+00	0	24	0	860880896	69	4739
2026-01-09 22:13:11.43	108.26	16.68	-52.0	-53.9	14.6	0.00e+00	0	23	0	862978048	69	4696
2026-01-09 22:13:12.43	108.46	16.63	-52.0	-53.9	14.7	0.00e+00	0	23	0	864026624	69	4674
2026-01-09 22:13:13.43	108.66	16.58	-52.0	-54.0	14.6	0.00e+00	0	24	0	866123776	69	4716
2026-01-09 22:13:14.43	108.86	16.52	-52.2	-54.2	14.6	0.00e+00	0	23	0	868220928	69	4816
2026-01-09 22:13:15.43	109.06	16.47	-52.2	-54.2	14.5	0.00e+00	0	23	0	870318080	69	4836
2026-01-09 22:13:16.43	109.26	16.42	-52.2	-54.2	14.5	0.00e+00	0	24	0	871366656	69	4859
2026-01-09 22:13:17.43	109.46	16.37	-52.2	-54.2	14.5	0.00e+00	0	24	0	873463808	69	4860
2026-01-09 22:13:18.42	109.65	16.32	-52.3	-54.3	14.5	0.00e+00	0	23	0	875560960	69	4891
2026-01-09 22:13:19.41	109.84	16.26	-52.2	-54.2	14.5	0.00e+00	0	23	0	877658112	69	4855
2026-01-09 22:13:20.41	110.04	16.21	-52.2	-54.2	14.5	0.00e+00	0	24	0	879755264	69	4857
2026-01-09 22:13:21.41	110.23	16.16	-52.2	-54.2	14.5	0.00e+00	0	23	0	880803840	69	4834
2026-01-09 22:13:22.41	110.43	16.11	-52.0	-53.9	14.6	0.00e+00	0	23	0	882900992	69	4683
2026-01-09 22:13:23.41	110.62	16.05	-51.9	-53.8	14.8	0.00e+00	0	23	0	884998144	69	4608
2026-01-09 22:13:24.41	110.81	16.00	-51.6	-53.5	14.9	0.00e+00	0	23	0	887095296	69	4453
2026-01-09 22:13:25.41	111.00	15.94	-51.5	-53.3	15.0	0.00e+00	0	23	0	889192448	69	4359
2026-01-09 22:13:26.41	111.20	15.89	-51.6	-53.4	15.0	0.00e+00	0	23	0	890241024	69	4413
2026-01-09 22:13:27.41	111.39	15.84	-51.5	-53.2	15.0	0.00e+00	0	23	0	892338176	69	4337
2026-01-09 22:13:28.40	111.57	15.78	-51.5	-53.2	15.0	0.00e+00	0	23	0	894435328	69	4336
2026-01-09 22:13:29.40	111.76	15.73	-51.5	-53.3	15.0	0.00e+00	0	24	0	896532480	69	4386
2026-01-09 22:13:30.39	111.95	15.67	-51.5	-53.3	15.0	0.00e+00	0	23	0	897581056	69	4380
2026-01-09 22:13:31.39	112.14	15.62	-51.5	-53.3	15.0	0.00e+00	0	23	0	899678208	69	4369
2026-01-09 22:13:32.39	112.32	15.56	-51.5	-53.3	15.1	0.00e+00	0	23	0	901775360	69	4341
2026-01-09 22:13:33.40	112.51	15.51	-51.6	-53.4	14.9	0.00e+00	0	23	0	903872512	69	4438
2026-01-09 22:13:34.39	112.70	15.45	-51.7	-53.6	14.8	0.00e+00	0	23	0	905969664	69	4525
2026-01-09 22:13:35.39	112.88	15.40	-52.0	-54.0	14.7	0.00e+00	0	23	0	907018240	69	4712
2026-01-09 22:13:36.39	113.07	15.34	-52.3	-54.3	14.4	0.00e+00	0	24	0	909115392	69	4907
2026-01-09 22:13:37.38	113.25	15.29	-52.5	-54.6	14.4	0.00e+00	0	23	0	911212544	70	4807
2026-01-09 22:13:38.37	113.43	15.23	-52.6	-54.8	14.3	0.00e+00	0	23	0	913309696	70	4918
2026-01-09 22:13:39.36	113.61	15.18	-52.7	-54.9	14.3	0.00e+00	0	23	0	914358272	70	4927
2026-01-09 22:13:40.35	113.79	15.12	-52.6	-54.7	14.4	0.00e+00	0	23	0	916455424	70	4849
2026-01-09 22:13:41.35	113.97	15.06	-52.4	-54.5	14.5	0.00e+00	0	23	0	918552576	70	4735
2026-01-09 22:13:42.35	114.15	15.01	-52.1	-54.1	14.7	0.00e+00	0	23	0	920649728	70	4509
2026-01-09 22:13:43.35	114.33	14.95	-52.0	-54.0	14.8	0.00e+00	0	23	0	922746880	70	4450
2026-01-09 22:13:44.34	114.51	14.89	-51.8	-53.7	15.0	0.00e+00	0	23	0	923795456	70	4309
2026-01-09 22:13:45.34	114.69	14.84	-51.6	-53.5	14.9	0.00e+00	0	23	0	925892608	69	4465
2026-01-09 22:13:46.34	114.86	14.78	-51.8	-53.7	14.8	0.00e+00	0	23	0	927989760	69	4551
2026-01-09 22:13:47.33	115.04	14.72	-51.8	-53.8	14.7	0.00e+00	0	24	0	930086912	69	4608
2026-01-09 22:13:48.33	115.22	14.67	-51.9	-53.8	14.7	0.00e+00	0	23	0	932184064	69	4645
2026-01-09 22:13:49.32	115.39	14.61	-52.1	-54.1	14.6	0.00e+00	0	23	0	933232640	69	4762
2026-01-09 22:13:50.32	115.56	14.55	-51.9	-53.9	14.7	0.00e+00	0	24	0	935329792	69	4652
2026-01-09 22:13:51.32	115.74	14.49	-51.9	-53.9	14.7	0.00e+00	0	23	0	937426944	69	4672
2026-01-09 22:13:52.31	115.91	14.44	-51.7	-53.6	14.8	0.00e+00	0	24	0	939524096	69	4536
2026-01-09 22:13:53.31	116.08	14.38	-51.7	-53.5	14.9	0.00e+00	0	23	0	940572672	69	4490
2026-01-09 22:13:54.31	116.26	14.32	-51.6	-53.5	14.9	0.00e+00	0	23	0	942669824	69	4467
2026-01-09 22:13:55.31	116.43	14.26	-51.7	-53.5	14.8	0.00e+00	0	23	0	944766976	69	4492
2026-01-09 22:13:56.30	116.60	14.21	-51.8	-53.7	14.8	0.00e+00	0	23	0	946864128	69	4561
2026-01-09 22:13:57.30	116.77	14.15	-51.9	-53.8	14.7	0.00e+00	0	23	0	948961280	69	4626
2026-01-09 22:13:58.30	116.94	14.09	-52.0	-54.0	14.6	0.00e+00	0	23	0	950009856	69	4751
2026-01-09 22:13:59.30	117.11	14.03	-52.1	-54.1	14.5	0.00e+00	0	23	0	952107008	69	4811
2026-01-09 22:14:00.30	117.28	13.97	-51.9	-53.9	14.6	0.00e+00	0	23	0	954204160	69	4676
2026-01-09 22:14:01.30	117.45	13.91	-51.9	-53.8	14.7	0.00e+00	0	23	0	956301312	69	4634
2026-01-09 22:14:02.29	117.61	13.86	-51.7	-53.7	14.8	0.00e+00	0	24	0	957349888	69	4549
2026-01-09 22:14:03.29	117.78	13.80	-51.7	-53.6	14.8	0.00e+00	0	23	0	959447040	69	4510
2026-01-09 22:14:04.29	117.94	13.74	-51.6	-53.5	14.9	0.00e+00	0	23	0	961544192	69	4475
2026-01-09 22:14:05.29	118.11	13.68	-51.7	-53.5	14.9	0.00e+00	0	23	0	963641344	69	4482
2026-01-09 22:14:06.28	118.27	13.62	-51.7	-53.6	14.8	0.00e+00	0	23	0	965738496	69	4538
2026-01-09 22:14:07.28	118.44	13.56	-51.9	-53.9	14.7	0.00e+00	0	24	0	966787072	69	4658
2026-01-09 22:14:08.28	118.60	13.50	-52.0	-54.0	14.6	0.00e+00	0	24	0	968884224	69	4758
2026-01-09 22:14:09.28	118.76	13.44	-52.1	-54.2	14.5	0.00e+00	0	23	0	970981376	69	4840
2026-01-09 22:14:10.27	118.92	13.39	-52.1	-54.2	14.5	0.00e+00	0	23	0	973078528	69	4844
2026-01-09 22:14:11.27	119.09	13.33	-52.2	-54.2	14.5	0.00e+00	0	23	0	975175680	69	4865
2026-01-09 22:14:12.27	119.25	13.27	-51.9	-53.9	14.6	0.00e+00	0	24	0	976224256	69	4698
2026-01-09 22:14:13.27	119.41	13.21	-51.8	-53.7	14.8	0.00e+00	0	23	0	978321408	69	4567
2026-01-09 22:14:14.28	119.57	13.15	-51.8	-53.7	14.7	0.00e+00	0	23	0	980418560	69	4572
2026-01-09 22:14:15.28	119.73	13.09	-51.7	-53.6	14.8	0.00e+00	0	23	0	982515712	69	4512
2026-01-09 22:14:16.27	119.88	13.03	-51.6	-53.5	14.8	0.00e+00	0	23	0	983564288	69	4466
2026-01-09 22:14:17.27	120.04	12.97	-51.6	-53.5	14.9	0.00e+00	0	23	0	985661440	69	4464
2026-01-09 22:14:18.26	120.20	12.91	-51.7	-53.6	14.8	0.00e+00	0	23	0	987758592	69	4512
2026-01-09 22:14:19.26	120.36	12.85	-51.9	-53.8	14.7	0.00e+00	0	23	0	989855744	69	4649
2026-01-09 22:14:20.26	120.51	12.79	-52.0	-54.1	14.5	0.00e+00	0	23	0	991952896	69	4769
2026-01-09 22:14:21.26	120.67	12.73	-52.1	-54.2	14.5	0.00e+00	0	23	0	993001472	69	4832
2026-01-09 22:14:22.26	120.82	12.67	-52.2	-54.3	14.4	0.00e+00	0	23	0	995098624	69	4906
2026-01-09 22:14:23.26	120.98	12.61	-52.1	-54.2	14.4	0.00e+00	0	23	0	997195776	69	4863
2026-01-09 22:14:24.26	121.13	12.55	-52.1	-54.2	14.5	0.00e+00	0	24	0	999292928	69	4831
2026-01-09 22:14:25.26	121.28	12.49	-52.0	-54.0	14.6	0.00e+00	0	24	0	1001390080	69	4740
2026-01-09 22:14:26.26	121.44	12.43	-52.0	-54.1	14.5	0.00e+00	0	23	0	1002438656	69	4766
2026-01-09 22:14:27.26	121.59	12.37	-51.9	-53.9	14.6	0.00e+00	0	23	0	1004535808	69	4688
2026-01-09 22:14:28.26	121.74	12.31	-51.8	-53.8	14.7	0.00e+00	0	24	0	1006632960	69	4644
2026-01-09 22:14:29.26	121.89	12.25	-51.9	-53.9	14.6	0.00e+00	0	23	0	1008730112	69	4681
2026-01-09 22:14:30.26	122.04	12.19	-52.0	-54.0	14.5	0.00e+00	0	23	0	1010827264	69	4755
2026-01-09 22:14:31.25	122.19	12.13	-52.1	-54.2	14.5	0.00e+00	0	23	0	1011875840	69	4841
2026-01-09 22:14:32.25	122.34	12.07	-52.2	-54.4	14.4	0.00e+00	0	23	0	1013972992	69	4934
2026-01-09 22:14:33.25	122.49	12.01	-52.3	-54.4	14.3	0.00e+00	0	24	0	1016070144	69	4967
2026-01-09 22:14:34.25	122.63	11.95	-52.2	-54.4	14.3	0.00e+00	0	24	0	1018167296	69	4939
2026-01-09 22:14:35.25	122.78	11.89	-52.1	-54.2	14.4	0.00e+00	0	24	0	1019215872	69	4860
2026-01-09 22:14:36.24	122.93	11.83	-52.0	-54.0	14.5	0.00e+00	0	23	0	1021313024	69	4749
2026-01-09 22:14:37.23	123.07	11.77	-51.9	-53.9	14.6	0.00e+00	0	23	0	1023410176	69	4696
2026-01-09 22:14:38.22	123.21	11.71	-51.8	-53.8	14.7	0.00e+00	0	23	0	1025507328	69	4628
2026-01-09 22:14:39.22	123.36	11.65	-51.9	-53.9	14.6	0.00e+00	0	23	0	1027604480	69	4682
2026-01-09 22:14:40.23	123.51	11.59	-51.9	-53.9	14.6	0.00e+00	0	24	0	1028653056	69	4681
2026-01-09 22:14:41.23	123.65	11.53	-51.9	-53.9	14.6	0.00e+00	0	24	0	1030750208	69	4702
2026-01-09 22:14:42.22	123.79	11.47	-51.9	-54.0	14.6	0.00e+00	0	23	0	1032847360	69	4730
2026-01-09 22:14:43.21	123.93	11.41	-52.1	-54.2	14.4	0.00e+00	0	23	0	1034944512	69	4870
2026-01-09 22:14:44.20	124.07	11.35	-52.2	-54.4	14.3	0.00e+00	0	23	0	1035993088	69	4955
2026-01-09 22:14:45.20	124.21	11.29	-52.5	-54.7	14.3	0.00e+00	0	23	0	1038090240	70	4847
2026-01-09 22:14:46.19	124.35	11.23	-52.5	-54.8	14.3	0.00e+00	0	23	0	1040187392	70	4880
2026-01-09 22:14:47.18	124.49	11.17	-52.5	-54.7	14.3	0.00e+00	0	23	0	1042284544	70	4849
2026-01-09 22:14:48.17	124.63	11.11	-52.5	-54.7	14.3	0.00e+00	0	23	0	1044381696	70	4868
2026-01-09 22:14:49.17	124.77	11.05	-52.4	-54.6	14.3	0.00e+00	0	23	0	1045430272	70	4813
2026-01-09 22:14:50.17	124.91	10.99	-52.4	-54.6	14.3	0.00e+00	0	24	0	1047527424	70	4786
2026-01-09 22:14:51.17	125.05	10.93	-52.4	-54.5	14.4	0.00e+00	0	23	0	1049624576	70	4751
2026-01-09 22:14:52.16	125.18	10.87	-52.2	-54.3	14.5	0.00e+00	0	24	0	1051721728	70	4614
2026-01-09 22:14:53.15	125.32	10.81	-52.3	-54.5	14.4	0.00e+00	0	24	0	1052770304	70	4715
2026-01-09 22:14:54.14	125.45	10.75	-52.3	-54.5	14.4	0.00e+00	0	24	0	1054867456	70	4707
2026-01-09 22:14:55.14	125.59	10.69	-52.4	-54.6	14.3	0.00e+00	0	24	0	1056964608	70	4793
2026-01-09 22:14:56.14	125.73	10.63	-52.4	-54.6	14.3	0.00e+00	0	23	0	1059061760	70	4809
2026-01-09 22:14:57.14	125.86	10.57	-52.5	-54.7	14.2	0.00e+00	0	24	0	1061158912	70	4866
2026-01-09 22:14:58.13	125.99	10.51	-52.5	-54.8	14.2	0.00e+00	0	23	0	1062207488	70	4880
2026-01-09 22:14:59.13	126.13	10.45	-52.6	-54.9	14.2	0.00e+00	0	23	0	1064304640	70	4938
2026-01-09 22:15:00.13	126.26	10.39	-52.6	-54.9	14.1	0.00e+00	0	23	0	1066401792	70	4954
2026-01-09 22:15:01.13	126.39	10.33	-52.6	-54.9	14.2	0.00e+00	0	24	0	1068498944	70	4959
2026-01-09 22:15:02.13	126.53	10.27	-52.6	-54.8	14.2	0.00e+00	0	23	0	1069547520	70	4925
2026-01-09 22:15:03.12	126.66	10.21	-52.5	-54.7	14.2	0.00e+00	0	24	0	1071644672	70	4868
2026-01-09 22:15:04.12	126.79	10.15	-52.5	-54.7	14.2	0.00e+00	0	23	0	1073741824	70	4866
2026-01-09 22:15:05.13	126.92	10.09	-52.5	-54.8	14.2	0.00e+00	0	23	0	1075838976	70	4894
2026-01-09 22:15:06.13	127.05	10.03	-52.6	-54.9	14.1	0.00e+00	0	24	0	1077936128	70	4939
2026-01-09 22:15:07.13	127.18	9.97	-52.6	-54.9	14.1	0.00e+00	0	23	0	1078984704	70	4960
2026-01-09 22:15:08.13	127.31	9.91	-52.8	-55.2	14.0	0.00e+00	0	24	0	1081081856	70	5105
2026-01-09 22:15:09.14	127.44	9.85	-52.8	-55.3	13.9	0.00e+00	0	24	0	1083179008	70	5179
2026-01-09 22:15:10.14	127.57	9.79	-53.0	-55.4	13.9	0.00e+00	0	24	0	1085276160	71	4977
2026-01-09 22:15:11.15	127.70	9.73	-53.1	-55.6	13.8	0.00e+00	0	24	0	1087373312	71	5084
2026-01-09 22:15:12.14	127.82	9.67	-53.1	-55.6	13.8	0.00e+00	0	24	0	1088421888	71	5090
2026-01-09 22:15:13.13	127.95	9.61	-53.1	-55.7	13.7	0.00e+00	0	23	0	1090519040	71	5157
2026-01-09 22:15:14.13	128.07	9.55	-53.1	-55.7	13.8	0.00e+00	0	24	0	1092616192	71	5133
2026-01-09 22:15:15.13	128.20	9.49	-53.1	-55.7	13.8	0.00e+00	0	23	0	1094713344	71	5150
2026-01-09 22:15:16.13	128.33	9.43	-53.1	-55.7	13.8	0.00e+00	0	23	0	1095761920	71	5151
2026-01-09 22:15:17.13	128.45	9.37	-52.9	-55.4	13.9	0.00e+00	0	23	0	1097859072	71	4964
2026-01-09 22:15:18.12	128.57	9.31	-52.8	-55.3	14.1	0.00e+00	0	23	0	1099956224	71	4880
2026-01-09 22:15:19.13	128.70	9.25	-52.7	-55.1	14.1	0.00e+00	0	24	0	1102053376	71	4779
2026-01-09 22:15:20.12	128.82	9.19	-52.7	-55.1	14.1	0.00e+00	0	24	0	1104150528	71	4790
2026-01-09 22:15:21.12	128.94	9.13	-52.7	-55.0	14.2	0.00e+00	0	24	0	1105199104	71	4736
2026-01-09 22:15:22.12	129.07	9.07	-52.6	-54.9	14.3	0.00e+00	0	24	0	1107296256	71	4655
2026-01-09 22:15:23.11	129.19	9.01	-52.7	-55.1	14.1	0.00e+00	0	24	0	1109393408	71	4780
2026-01-09 22:15:24.11	129.31	8.95	-52.7	-55.1	14.1	0.00e+00	0	24	0	1111490560	71	4801
2026-01-09 22:15:25.10	129.43	8.89	-52.7	-55.1	14.1	0.00e+00	0	24	0	1113587712	71	4810
2026-01-09 22:15:26.10	129.55	8.83	-52.9	-55.4	13.9	0.00e+00	0	24	0	1114636288	71	4970
2026-01-09 22:15:27.11	129.67	8.77	-52.9	-55.4	13.9	0.00e+00	0	23	0	1116733440	71	4972
2026-01-09 22:15:28.10	129.79	8.71	-53.0	-55.5	13.9	0.00e+00	0	23	0	1118830592	71	5014
2026-01-09 22:15:29.10	129.91	8.65	-53.1	-55.8	13.7	0.00e+00	0	23	0	1120927744	71	5165
2026-01-09 22:15:30.10	130.02	8.59	-53.1	-55.7	13.8	0.00e+00	0	23	0	1121976320	71	5125
2026-01-09 22:15:31.10	130.14	8.53	-53.1	-55.7	13.7	0.00e+00	0	23	0	1124073472	71	5130
2026-01-09 22:15:32.09	130.26	8.47	-53.1	-55.7	13.7	0.00e+00	0	23	0	1126170624	71	5151
2026-01-09 22:15:33.09	130.38	8.41	-53.1	-55.7	13.7	0.00e+00	0	23	0	1128267776	71	5140
2026-01-09 22:15:34.09	130.49	8.35	-53.1	-55.7	13.7	0.00e+00	0	24	0	1130364928	71	5134
2026-01-09 22:15:35.07	130.61	8.30	-53.1	-55.7	13.8	0.00e+00	0	23	0	1131413504	71	5109
2026-01-09 22:15:36.07	130.72	8.24	-53.1	-55.7	13.7	0.00e+00	0	24	0	1133510656	71	5139
2026-01-09 22:15:37.07	130.84	8.18	-53.2	-55.9	13.6	0.00e+00	0	23	0	1135607808	71	5262
2026-01-09 22:15:38.07	130.95	8.12	-53.3	-56.0	13.5	0.00e+00	0	24	0	1137704960	71	5320
2026-01-09 22:15:39.06	131.07	8.06	-53.4	-56.1	13.4	0.00e+00	0	23	0	1139802112	71	5401
2026-01-09 22:15:40.06	131.18	8.00	-53.5	-56.4	13.4	0.00e+00	0	24	0	1140850688	72	5247
2026-01-09 22:15:41.06	131.29	7.94	-53.5	-56.4	13.4	0.00e+00	0	23	0	1142947840	72	5230
2026-01-09 22:15:42.05	131.41	7.88	-53.5	-56.4	13.4	0.00e+00	0	23	0	1145044992	72	5247
2026-01-09 22:15:43.04	131.52	7.82	-53.5	-56.3	13.4	0.00e+00	0	24	0	1147142144	72	5188
2026-01-09 22:15:44.03	131.63	7.77	-53.5	-56.3	13.5	0.00e+00	0	24	0	1148190720	72	5170
2026-01-09 22:15:45.03	131.74	7.71	-53.4	-56.2	13.5	0.00e+00	0	23	0	1150287872	72	5158
2026-01-09 22:15:46.03	131.85	7.65	-53.3	-56.1	13.6	0.00e+00	0	24	0	1152385024	72	5060
2026-01-09 22:15:47.02	131.96	7.59	-53.2	-55.8	13.8	0.00e+00	0	24	0	1154482176	72	4895
2026-01-09 22:15:48.02	132.07	7.53	-53.3	-56.0	13.6	0.00e+00	0	24	0	1156579328	72	4990
2026-01-09 22:15:49.02	132.18	7.47	-53.2	-55.9	13.7	0.00e+00	0	23	0	1157627904	72	4936
2026-01-09 22:15:50.01	132.29	7.41	-53.4	-56.1	13.5	0.00e+00	0	23	0	1159725056	72	5093
2026-01-09 22:15:51.01	132.40	7.36	-53.2	-55.9	13.7	0.00e+00	0	24	0	1161822208	72	4952
2026-01-09 22:15:52.01	132.51	7.30	-53.2	-56.0	13.6	0.00e+00	0	23	0	1163919360	72	4985
2026-01-09 22:15:52.99	132.61	7.24	-53.3	-56.1	13.5	0.00e+00	0	24	0	1164967936	72	5087
2026-01-09 22:15:54.00	132.72	7.18	-53.4	-56.3	13.4	0.00e+00	0	24	0	1167065088	72	5189
2026-01-09 22:15:54.99	132.83	7.12	-53.5	-56.4	13.4	0.00e+00	0	24	0	1169162240	72	5220
2026-01-09 22:15:55.99	132.94	7.06	-53.6	-56.6	13.2	0.00e+00	0	24	0	1171259392	72	5377
2026-01-09 22:15:56.99	133.04	7.01	-53.6	-56.7	13.2	0.00e+00	0	23	0	1173356544	72	5412
2026-01-09 22:15:57.98	133.15	6.95	-53.6	-56.7	13.1	0.00e+00	0	23	0	1174405120	72	5405
2026-01-09 22:15:58.99	133.26	6.89	-53.7	-56.8	13.0	0.00e+00	0	24	0	1176502272	72	5504
2026-01-09 22:15:59.99	133.36	6.83	-53.8	-56.9	12.9	0.00e+00	0	24	0	1178599424	72	5578
2026-01-09 22:16:00.99	133.47	6.77	-53.8	-57.0	12.9	0.00e+00	0	24	0	1180696576	72	5597
2026-01-09 22:16:01.99	133.57	6.72	-53.8	-57.0	12.9	0.00e+00	0	23	0	1181745152	72	5596
2026-01-09 22:16:02.99	133.68	6.66	-53.7	-56.9	13.0	7.00e-07	0	23	0	1183842304	72	5560
2026-01-09 22:16:03.99	133.78	6.60	-53.9	-57.1	12.8	0.00e+00	0	23	0	1185939456	72	5696
2026-01-09 22:16:04.99	133.88	6.54	-53.9	-57.2	12.7	0.00e+00	0	23	0	1188036608	72	5752
2026-01-09 22:16:05.99	133.99	6.48	-54.0	-57.3	12.8	0.00e+00	0	24	0	1190133760	73	5502
2026-01-09 22:16:06.98	134.09	6.43	-54.0	-57.4	12.7	0.00e+00	0	24	0	1191182336	73	5563
2026-01-09 22:16:07.98	134.19	6.37	-54.0	-57.4	12.7	7.00e-07	0	24	0	1193279488	73	5578
2026-01-09 22:16:08.98	134.29	6.31	-54.1	-57.7	12.5	0.00e+00	0	24	0	1195376640	73	5737
2026-01-09 22:16:09.99	134.40	6.25	-54.1	-57.7	12.5	0.00e+00	0	24	0	1197473792	73	5768
2026-01-09 22:16:10.98	134.50	6.20	-53.9	-57.5	12.6	1.50e-06	0	24	0	1199570944	73	5623
2026-01-09 22:16:11.97	134.60	6.14	-54.0	-57.6	12.5	0.00e+00	0	24	0	1200619520	73	5715
2026-01-09 22:16:12.97	134.70	6.08	-53.9	-57.6	12.6	7.00e-07	0	23	0	1202716672	73	5664
2026-01-09 22:16:13.97	134.80	6.02	-54.0	-57.7	12.5	7.00e-07	0	24	0	1204813824	73	5735
2026-01-09 22:16:14.97	134.90	5.97	-54.0	-57.8	12.5	7.00e-07	0	24	0	1206910976	73	5792
2026-01-09 22:16:15.97	135.00	5.91	-53.9	-57.6	12.5	7.00e-07	0	23	0	1209008128	73	5692
2026-01-09 22:16:16.97	135.10	5.85	-54.0	-57.6	12.6	0.00e+00	0	24	0	1210056704	73	5680
2026-01-09 22:16:17.97	135.19	5.79	-53.9	-57.4	12.7	0.00e+00	0	24	0	1212153856	73	5541
2026-01-09 22:16:18.96	135.29	5.74	-54.1	-57.7	12.4	7.00e-07	0	24	0	1214251008	73	5780
2026-01-09 22:16:19.96	135.39	5.68	-54.2	-57.8	12.4	7.00e-07	0	24	0	1216348160	73	5812
2026-01-09 22:16:20.97	135.49	5.62	-54.0	-57.5	12.5	0.00e+00	0	24	0	1217396736	73	5642
2026-01-09 22:16:21.96	135.58	5.57	-54.2	-58.0	12.2	1.50e-06	0	24	0	1219493888	73	5930
