passes_logs/2026/01/09/R3.2S_Murmansk/R3.2S_Murmansk__20260109_104110_FENGYUN_3D_rec.log

#Pass ID: 20260109_104110_FENGYUN 3D
#Satellite: FENGYUN 3D
#Configuration: FENGYUN 3D
#almurnet v.1.7.20251203
#Start time: 2026-01-09 10:41:12

#Version: 2.2.20231116
#Station: R3.2S_Murmansk
#Location: 33.079688 lon 68.888172 lat
#TLE: 1 43010U 17072A   26008.59015185 -.00000067  00000+0 -98204-5 0  9997
#TLE: 2 43010  98.9935 340.3069 0002117 119.1923 240.9464 14.19693468422340

#Time	Az	El	Level	Level2	SNR	BER	BlckErr	Temp	State	Recorded	gain1	gain2
2026-01-09 10:41:12.49	131.18	2.13	-57.2	-70.2	3.8	8.46e-01	0	22	0	0	80	16219
2026-01-09 10:41:13.47	131.16	2.19	-57.1	-70.1	3.8	8.46e-01	0	22	104	0	79	17035
2026-01-09 10:41:14.45	131.14	2.25	-57.2	-70.2	3.8	8.46e-01	0	22	104	0	79	17088
2026-01-09 10:41:15.44	131.13	2.31	-57.2	-70.1	3.8	8.45e-01	0	22	104	0	79	17073
2026-01-09 10:41:16.42	131.11	2.38	-57.2	-70.2	3.8	8.45e-01	0	22	104	0	79	17124
2026-01-09 10:41:17.41	131.09	2.44	-57.2	-70.2	3.8	8.45e-01	0	22	104	0	79	17148
2026-01-09 10:41:18.39	131.07	2.50	-57.2	-70.2	3.8	8.45e-01	0	22	104	0	79	17111
2026-01-09 10:41:19.38	131.05	2.57	-57.2	-70.1	3.8	8.45e-01	0	22	104	0	79	17070
2026-01-09 10:41:20.36	131.03	2.63	-57.2	-70.2	3.8	8.45e-01	0	22	104	0	79	17084
2026-01-09 10:41:21.35	131.01	2.70	-57.2	-70.2	3.8	8.46e-01	0	22	104	0	79	17122
2026-01-09 10:41:22.33	130.99	2.76	-57.2	-70.1	3.8	8.45e-01	0	22	104	0	79	17067
2026-01-09 10:41:23.31	130.98	2.82	-57.2	-70.2	3.8	8.46e-01	0	22	104	0	79	17093
2026-01-09 10:41:24.30	130.96	2.89	-57.2	-70.1	3.8	8.46e-01	0	22	104	0	79	17061
2026-01-09 10:41:25.28	130.94	2.95	-57.2	-70.1	3.8	8.46e-01	0	22	104	0	79	17049
2026-01-09 10:41:26.27	130.92	3.02	-57.2	-70.1	3.8	8.45e-01	0	22	104	0	79	17002
2026-01-09 10:41:27.26	130.90	3.08	-57.2	-70.1	3.8	8.45e-01	0	22	104	0	79	16992
2026-01-09 10:41:28.24	130.88	3.15	-57.2	-70.1	3.8	8.45e-01	0	22	104	0	79	16964
2026-01-09 10:41:29.23	130.86	3.22	-57.2	-70.1	3.8	8.47e-01	0	22	104	0	79	16930
2026-01-09 10:41:30.22	130.84	3.28	-57.2	-70.1	3.8	8.45e-01	0	22	104	0	79	16962
2026-01-09 10:41:31.21	130.82	3.35	-57.2	-70.0	3.8	8.45e-01	0	22	104	0	79	16824
2026-01-09 10:41:32.19	130.80	3.41	-57.1	-69.8	3.8	8.46e-01	0	22	104	0	79	16385
2026-01-09 10:41:33.17	130.78	3.48	-57.1	-69.4	3.8	8.45e-01	0	22	104	0	79	15733
2026-01-09 10:41:34.16	130.76	3.54	-57.1	-68.7	3.8	8.45e-01	0	22	104	0	79	14536
2026-01-09 10:41:35.14	130.74	3.61	-57.0	-68.0	3.8	8.44e-01	0	22	104	0	79	13310
2026-01-09 10:41:36.13	130.72	3.68	-56.9	-66.6	4.2	8.38e-01	0	22	0	0	79	11413
2026-01-09 10:41:37.11	130.70	3.74	-56.7	-65.4	4.6	8.20e-01	0	22	0	0	79	9924
2026-01-09 10:41:38.10	130.68	3.81	-56.6	-64.4	5.1	7.82e-01	0	22	0	0	79	8811
2026-01-09 10:41:39.08	130.65	3.88	-56.4	-63.7	5.5	6.90e-01	0	22	0	0	79	8166
2026-01-09 10:41:40.06	130.63	3.94	-56.3	-63.3	5.7	4.36e-01	0	22	0	4194304	79	7803
2026-01-09 10:41:41.05	130.61	4.01	-56.2	-62.7	6.2	3.23e-01	0	22	0	9437184	79	7229
2026-01-09 10:41:42.03	130.59	4.08	-56.0	-62.1	6.6	2.25e-01	0	22	0	14680064	78	7169
2026-01-09 10:41:43.01	130.57	4.15	-55.5	-60.7	7.7	1.12e-01	0	23	0	20971520	77	6430
2026-01-09 10:41:44.00	130.55	4.21	-55.3	-60.0	8.4	4.37e-02	0	22	0	26214400	77	5960
2026-01-09 10:41:44.99	130.53	4.28	-54.8	-59.0	9.3	1.47e-02	0	22	0	32505856	76	5605
2026-01-09 10:41:45.97	130.51	4.35	-54.1	-57.7	10.2	4.96e-03	0	23	0	37748736	74	5449
2026-01-09 10:41:46.96	130.48	4.42	-53.4	-56.4	11.3	2.62e-04	0	22	0	42991616	73	4983
2026-01-09 10:41:47.94	130.46	4.49	-52.9	-55.6	11.9	3.43e-05	0	23	0	48234496	72	4813
2026-01-09 10:41:48.92	130.44	4.55	-52.1	-54.5	12.5	6.80e-06	0	23	0	53477376	70	4743
2026-01-09 10:41:49.90	130.42	4.62	-51.5	-53.7	13.0	0.00e+00	0	23	0	59768832	69	4596
2026-01-09 10:41:50.89	130.40	4.69	-51.0	-53.1	13.4	0.00e+00	0	22	0	65011712	68	4539
2026-01-09 10:41:51.87	130.37	4.76	-50.5	-52.5	13.6	0.00e+00	0	23	0	70254592	67	4490
2026-01-09 10:41:52.86	130.35	4.83	-50.1	-52.0	13.9	0.00e+00	0	23	0	76546048	66	4448
2026-01-09 10:41:53.84	130.33	4.90	-49.8	-51.6	14.1	0.00e+00	0	23	0	81788928	66	4286
2026-01-09 10:41:54.82	130.31	4.97	-50.0	-51.8	13.9	0.00e+00	0	23	0	87031808	66	4388
2026-01-09 10:41:55.81	130.28	5.04	-50.1	-52.0	13.8	0.00e+00	0	23	0	92274688	66	4458
2026-01-09 10:41:56.79	130.26	5.11	-49.7	-51.5	14.2	0.00e+00	0	23	0	98566144	66	4216
2026-01-09 10:41:57.78	130.24	5.18	-52.7	-55.5	11.9	2.20e-06	0	22	0	103809024	70	5282
2026-01-09 10:41:58.77	130.21	5.25	-49.7	-51.6	14.0	0.00e+00	0	23	0	109051904	65	4504
2026-01-09 10:41:59.75	130.19	5.32	-51.2	-53.4	13.1	0.00e+00	0	23	0	115343360	67	4972
2026-01-09 10:42:00.74	130.17	5.39	-52.7	-55.4	12.0	0.00e+00	0	23	0	120586240	70	5258
2026-01-09 10:42:01.73	130.14	5.46	-50.0	-51.9	13.9	4.75e-04	0	23	0	125829120	66	4399
2026-01-09 10:42:02.71	130.12	5.53	-49.4	-51.1	14.3	0.00e+00	0	23	0	131072000	65	4291
2026-01-09 10:42:03.69	130.10	5.60	-49.5	-51.2	14.2	0.00e+00	0	23	0	137363456	65	4335
2026-01-09 10:42:04.67	130.07	5.67	-49.5	-51.3	14.2	0.00e+00	0	23	0	142606336	65	4344
2026-01-09 10:42:05.65	130.05	5.74	-49.6	-51.4	14.1	0.00e+00	0	23	0	147849216	65	4403
2026-01-09 10:42:06.64	130.03	5.82	-49.5	-51.3	14.2	0.00e+00	0	23	0	154140672	65	4349
2026-01-09 10:42:07.63	130.00	5.89	-49.7	-51.5	14.1	0.00e+00	0	23	0	159383552	65	4447
2026-01-09 10:42:08.62	129.98	5.96	-49.4	-51.1	14.3	0.00e+00	0	23	0	164626432	65	4277
2026-01-09 10:42:09.61	129.95	6.03	-49.3	-51.0	14.4	0.00e+00	0	23	0	170917888	65	4239
2026-01-09 10:42:10.60	129.93	6.11	-49.3	-51.1	14.4	0.00e+00	0	23	0	176160768	65	4245
2026-01-09 10:42:11.58	129.90	6.18	-49.1	-50.8	14.4	0.00e+00	0	23	0	181403648	64	4363
2026-01-09 10:42:12.57	129.88	6.25	-49.2	-50.8	14.4	0.00e+00	0	23	0	186646528	64	4383
2026-01-09 10:42:13.56	129.85	6.33	-49.2	-50.8	14.4	0.00e+00	0	23	0	192937984	64	4391
2026-01-09 10:42:14.55	129.83	6.40	-49.3	-51.0	14.3	0.00e+00	0	23	0	198180864	64	4463
2026-01-09 10:42:15.53	129.80	6.47	-49.2	-50.8	14.4	0.00e+00	0	23	0	203423744	64	4391
2026-01-09 10:42:16.51	129.77	6.55	-49.2	-50.8	14.4	0.00e+00	0	23	0	209715200	64	4388
2026-01-09 10:42:17.49	129.75	6.62	-49.1	-50.8	14.4	0.00e+00	0	23	0	214958080	64	4365
2026-01-09 10:42:18.47	129.72	6.69	-49.1	-50.8	14.4	0.00e+00	0	23	0	220200960	64	4353
2026-01-09 10:42:19.45	129.70	6.77	-49.1	-50.8	14.4	0.00e+00	0	23	0	225443840	64	4360
2026-01-09 10:42:20.45	129.67	6.84	-49.2	-50.9	14.3	0.00e+00	0	23	0	231735296	64	4419
2026-01-09 10:42:21.43	129.64	6.92	-49.0	-50.6	14.6	0.00e+00	0	23	0	236978176	64	4258
2026-01-09 10:42:22.41	129.62	6.99	-49.0	-50.6	14.5	0.00e+00	0	23	0	242221056	64	4288
2026-01-09 10:42:23.40	129.59	7.07	-49.1	-50.7	14.5	0.00e+00	0	23	0	248512512	64	4308
2026-01-09 10:42:24.39	129.56	7.14	-49.1	-50.7	14.5	0.00e+00	0	23	0	253755392	64	4310
2026-01-09 10:42:25.37	129.54	7.22	-49.1	-50.8	14.4	0.00e+00	0	23	0	258998272	64	4356
2026-01-09 10:42:26.37	129.51	7.30	-49.1	-50.7	14.5	0.00e+00	0	23	0	264241152	64	4309
2026-01-09 10:42:27.34	129.48	7.37	-48.9	-50.5	14.6	0.00e+00	0	23	0	270532608	64	4238
2026-01-09 10:42:28.33	129.46	7.45	-48.8	-50.4	14.7	0.00e+00	0	23	0	275775488	64	4189
2026-01-09 10:42:29.31	129.43	7.52	-48.9	-50.4	14.6	0.00e+00	0	23	0	281018368	64	4193
2026-01-09 10:42:30.30	129.40	7.60	-49.0	-50.6	14.6	0.00e+00	0	23	0	287309824	64	4265
2026-01-09 10:42:31.30	129.37	7.68	-48.9	-50.5	14.6	0.00e+00	0	23	0	292552704	64	4226
2026-01-09 10:42:32.28	129.34	7.76	-48.8	-50.5	14.7	0.00e+00	0	23	0	297795584	64	4194
2026-01-09 10:42:33.27	129.32	7.83	-48.7	-50.3	14.8	0.00e+00	0	23	0	303038464	64	4123
2026-01-09 10:42:34.25	129.29	7.91	-48.8	-50.4	14.7	0.00e+00	0	23	0	309329920	64	4158
2026-01-09 10:42:35.23	129.26	7.99	-48.8	-50.3	14.7	0.00e+00	0	23	0	314572800	64	4144
2026-01-09 10:42:36.21	129.23	8.07	-48.7	-50.2	14.8	0.00e+00	0	23	0	319815680	64	4096
2026-01-09 10:42:37.20	129.20	8.14	-48.7	-50.2	14.8	0.00e+00	0	23	0	326107136	64	4085
2026-01-09 10:42:38.19	129.17	8.22	-48.6	-50.2	14.7	0.00e+00	0	23	0	331350016	63	4299
2026-01-09 10:42:39.17	129.14	8.30	-48.6	-50.2	14.7	0.00e+00	0	23	0	336592896	63	4300
2026-01-09 10:42:40.16	129.11	8.38	-48.6	-50.1	14.7	0.00e+00	0	23	0	341835776	63	4279
2026-01-09 10:42:41.14	129.08	8.46	-48.6	-50.1	14.7	0.00e+00	0	23	0	348127232	63	4279
2026-01-09 10:42:42.13	129.05	8.54	-48.6	-50.2	14.7	0.00e+00	0	23	0	353370112	63	4296
2026-01-09 10:42:43.11	129.02	8.62	-48.5	-50.0	14.8	0.00e+00	0	23	0	358612992	63	4217
2026-01-09 10:42:44.10	128.99	8.70	-48.5	-50.0	14.8	0.00e+00	0	23	0	364904448	63	4241
2026-01-09 10:42:45.08	128.96	8.78	-48.5	-50.0	14.8	0.00e+00	0	23	0	370147328	63	4214
2026-01-09 10:42:46.07	128.93	8.86	-48.5	-50.0	14.8	0.00e+00	0	23	0	375390208	63	4226
2026-01-09 10:42:47.05	128.90	8.94	-48.5	-50.0	14.8	0.00e+00	0	23	0	380633088	63	4212
2026-01-09 10:42:48.03	128.87	9.02	-48.3	-49.8	14.9	0.00e+00	0	23	0	386924544	63	4126
2026-01-09 10:42:49.03	128.84	9.10	-48.3	-49.8	15.0	0.00e+00	0	23	0	392167424	63	4099
2026-01-09 10:42:50.01	128.81	9.19	-48.3	-49.7	15.0	0.00e+00	0	23	0	397410304	63	4090
2026-01-09 10:42:51.00	128.78	9.27	-48.3	-49.8	15.0	0.00e+00	0	23	0	403701760	63	4118
2026-01-09 10:42:51.98	128.75	9.35	-48.3	-49.8	14.9	0.00e+00	0	23	0	408944640	63	4103
2026-01-09 10:42:52.97	128.71	9.43	-48.3	-49.7	15.0	0.00e+00	0	23	0	414187520	63	4089
2026-01-09 10:42:53.95	128.68	9.51	-48.1	-49.6	14.9	0.00e+00	0	23	0	419430400	62	4258
2026-01-09 10:42:54.94	128.65	9.60	-48.1	-49.6	14.9	0.00e+00	0	23	0	425721856	62	4263
2026-01-09 10:42:55.92	128.62	9.68	-48.1	-49.5	14.9	0.00e+00	0	24	0	430964736	62	4234
2026-01-09 10:42:56.90	128.58	9.76	-48.1	-49.5	14.9	0.00e+00	0	23	0	436207616	62	4232
2026-01-09 10:42:57.89	128.55	9.85	-48.1	-49.5	14.9	0.00e+00	0	23	0	442499072	62	4230
2026-01-09 10:42:58.87	128.52	9.93	-48.0	-49.5	15.0	0.00e+00	0	23	0	447741952	62	4195
2026-01-09 10:42:59.86	128.48	10.01	-48.1	-49.5	14.9	0.00e+00	0	23	0	452984832	62	4231
2026-01-09 10:43:00.84	128.45	10.10	-48.0	-49.4	15.0	0.00e+00	0	23	0	458227712	62	4171
2026-01-09 10:43:01.83	128.42	10.18	-48.0	-49.4	15.0	0.00e+00	0	23	0	464519168	62	4177
2026-01-09 10:43:02.82	128.38	10.27	-48.0	-49.4	15.0	0.00e+00	0	23	0	469762048	62	4189
2026-01-09 10:43:03.80	128.35	10.35	-48.0	-49.4	15.0	0.00e+00	0	23	0	475004928	62	4190
2026-01-09 10:43:04.80	128.31	10.44	-48.0	-49.4	15.0	0.00e+00	0	23	0	481296384	62	4187
2026-01-09 10:43:05.78	128.28	10.53	-47.9	-49.4	15.0	0.00e+00	0	23	0	486539264	62	4152
2026-01-09 10:43:06.76	128.24	10.61	-47.9	-49.4	15.0	0.00e+00	0	23	0	491782144	62	4168
2026-01-09 10:43:07.75	128.21	10.70	-47.9	-49.4	15.1	0.00e+00	0	23	0	497025024	62	4147
2026-01-09 10:43:08.73	128.17	10.79	-47.9	-49.4	15.0	0.00e+00	0	23	0	503316480	62	4156
2026-01-09 10:43:09.71	128.14	10.87	-47.9	-49.3	15.0	0.00e+00	0	23	0	508559360	62	4137
2026-01-09 10:43:10.69	128.10	10.96	-47.9	-49.3	15.0	0.00e+00	0	23	0	513802240	62	4145
2026-01-09 10:43:11.68	128.07	11.05	-47.8	-49.3	15.1	0.00e+00	0	23	0	519045120	62	4124
2026-01-09 10:43:12.66	128.03	11.14	-47.9	-49.3	15.1	0.00e+00	0	23	0	525336576	62	4131
2026-01-09 10:43:13.64	128.00	11.22	-47.9	-49.3	15.1	0.00e+00	0	23	0	530579456	62	4119
2026-01-09 10:43:14.62	127.96	11.31	-47.9	-49.4	15.0	0.00e+00	0	23	0	535822336	62	4154
2026-01-09 10:43:15.61	127.92	11.40	-47.9	-49.3	15.1	0.00e+00	0	23	0	542113792	62	4123
2026-01-09 10:43:16.60	127.88	11.49	-47.8	-49.3	15.1	0.00e+00	0	23	0	547356672	62	4106
2026-01-09 10:43:17.57	127.85	11.58	-47.8	-49.3	15.1	0.00e+00	0	23	0	552599552	62	4109
2026-01-09 10:43:18.56	127.81	11.67	-47.8	-49.2	15.1	0.00e+00	0	23	0	557842432	62	4088
2026-01-09 10:43:19.54	127.77	11.76	-47.8	-49.2	15.1	0.00e+00	0	24	0	564133888	62	4090
2026-01-09 10:43:20.52	127.73	11.85	-47.7	-49.2	15.2	0.00e+00	0	23	0	569376768	62	4061
2026-01-09 10:43:21.50	127.70	11.94	-47.8	-49.2	15.1	0.00e+00	0	23	0	574619648	62	4088
2026-01-09 10:43:22.49	127.66	12.03	-47.8	-49.3	15.1	0.00e+00	0	23	0	580911104	62	4106
2026-01-09 10:43:23.47	127.62	12.12	-47.8	-49.2	15.1	0.00e+00	0	23	0	586153984	62	4097
2026-01-09 10:43:24.46	127.58	12.21	-47.7	-49.2	15.2	0.00e+00	0	23	0	591396864	62	4053
2026-01-09 10:43:25.44	127.54	12.30	-47.7	-49.1	15.2	0.00e+00	0	23	0	596639744	62	4042
2026-01-09 10:43:26.43	127.50	12.40	-47.7	-49.1	15.2	0.00e+00	0	23	0	602931200	62	4020
2026-01-09 10:43:27.41	127.46	12.49	-47.6	-49.1	15.0	0.00e+00	0	24	0	608174080	61	4247
2026-01-09 10:43:28.40	127.42	12.58	-47.5	-48.9	15.1	0.00e+00	0	23	0	613416960	61	4188
2026-01-09 10:43:29.39	127.38	12.68	-47.5	-48.9	15.2	0.00e+00	0	23	0	619708416	61	4150
2026-01-09 10:43:30.37	127.34	12.77	-47.5	-49.0	15.1	0.00e+00	0	23	0	624951296	61	4194
2026-01-09 10:43:31.35	127.30	12.86	-47.6	-49.0	15.1	0.00e+00	0	24	0	630194176	61	4209
2026-01-09 10:43:32.34	127.25	12.96	-47.6	-49.0	15.1	0.00e+00	0	23	0	635437056	61	4218
2026-01-09 10:43:33.33	127.21	13.05	-47.5	-48.9	15.1	0.00e+00	0	24	0	641728512	61	4189
2026-01-09 10:43:34.32	127.17	13.15	-47.3	-48.7	15.2	0.00e+00	0	24	0	646971392	61	4084
2026-01-09 10:43:35.29	127.13	13.24	-47.3	-48.7	15.3	0.00e+00	0	23	0	652214272	61	4057
2026-01-09 10:43:36.27	127.09	13.34	-47.4	-48.8	15.2	0.00e+00	0	23	0	657457152	61	4125
2026-01-09 10:43:37.26	127.04	13.44	-47.4	-48.8	15.2	0.00e+00	0	23	0	663748608	61	4142
2026-01-09 10:43:38.24	127.00	13.53	-47.3	-48.7	15.3	0.00e+00	0	24	0	668991488	61	4058
2026-01-09 10:43:39.23	126.96	13.63	-47.3	-48.6	15.3	0.00e+00	0	23	0	674234368	61	4037
2026-01-09 10:43:40.21	126.91	13.73	-47.2	-48.6	15.3	0.00e+00	0	23	0	680525824	61	4022
2026-01-09 10:43:41.20	126.87	13.83	-47.3	-48.6	15.3	0.00e+00	0	23	0	685768704	61	4042
2026-01-09 10:43:42.19	126.82	13.92	-47.1	-48.4	15.2	0.00e+00	0	23	0	691011584	60	4193
2026-01-09 10:43:43.17	126.78	14.02	-47.2	-48.5	15.2	0.00e+00	0	24	0	696254464	60	4231
2026-01-09 10:43:44.16	126.73	14.12	-47.1	-48.4	15.2	0.00e+00	0	24	0	702545920	60	4169
2026-01-09 10:43:45.14	126.69	14.22	-47.1	-48.4	15.2	0.00e+00	0	24	0	707788800	60	4168
2026-01-09 10:43:46.13	126.64	14.32	-47.0	-48.3	15.3	0.00e+00	0	23	0	713031680	60	4136
2026-01-09 10:43:47.11	126.60	14.42	-47.0	-48.3	15.2	0.00e+00	0	24	0	719323136	60	4137
2026-01-09 10:43:48.10	126.55	14.52	-47.0	-48.3	15.3	0.00e+00	0	24	0	724566016	60	4127
2026-01-09 10:43:49.08	126.50	14.62	-46.9	-48.3	15.3	0.00e+00	0	24	0	729808896	60	4115
2026-01-09 10:43:50.06	126.46	14.72	-47.0	-48.4	15.2	0.00e+00	0	24	0	735051776	60	4153
2026-01-09 10:43:51.04	126.41	14.82	-47.0	-48.3	15.3	0.00e+00	0	24	0	741343232	60	4121
2026-01-09 10:43:52.03	126.36	14.93	-47.0	-48.3	15.3	0.00e+00	0	24	0	746586112	60	4131
2026-01-09 10:43:53.02	126.31	15.03	-46.9	-48.3	15.3	0.00e+00	0	24	0	751828992	60	4116
2026-01-09 10:43:54.00	126.27	15.13	-47.0	-48.3	15.3	0.00e+00	0	24	0	758120448	60	4136
2026-01-09 10:43:54.99	126.22	15.23	-46.9	-48.3	15.3	0.00e+00	0	23	0	763363328	60	4100
2026-01-09 10:43:55.98	126.17	15.34	-46.8	-48.1	15.4	0.00e+00	0	24	0	768606208	60	4030
2026-01-09 10:43:56.97	126.12	15.44	-46.8	-48.1	15.4	0.00e+00	0	23	0	773849088	60	4050
2026-01-09 10:43:57.95	126.07	15.55	-46.7	-48.0	15.5	0.00e+00	0	23	0	780140544	60	3987
2026-01-09 10:43:58.94	126.02	15.65	-46.7	-48.0	15.4	0.00e+00	0	23	0	785383424	60	3972
2026-01-09 10:43:59.92	125.97	15.76	-46.7	-48.0	15.4	0.00e+00	0	24	0	790626304	60	3997
2026-01-09 10:44:00.91	125.92	15.86	-46.9	-48.2	15.2	0.00e+00	0	23	0	796917760	59	4327
2026-01-09 10:44:01.89	125.86	15.97	-46.8	-48.1	15.2	0.00e+00	0	24	0	802160640	59	4278
2026-01-09 10:44:02.88	125.81	16.08	-46.8	-48.2	15.2	0.00e+00	0	24	0	807403520	59	4307
2026-01-09 10:44:03.87	125.76	16.18	-46.9	-48.2	15.2	0.00e+00	0	24	0	812646400	59	4315
2026-01-09 10:44:04.86	125.71	16.29	-46.8	-48.1	15.3	0.00e+00	0	23	0	818937856	59	4266
2026-01-09 10:44:05.84	125.65	16.40	-46.6	-47.9	15.3	0.00e+00	0	24	0	824180736	59	4181
2026-01-09 10:44:06.82	125.60	16.51	-46.6	-47.9	15.3	0.00e+00	0	24	0	829423616	59	4171
2026-01-09 10:44:07.81	125.55	16.62	-46.5	-47.8	15.4	0.00e+00	0	24	0	835715072	59	4136
2026-01-09 10:44:08.79	125.49	16.73	-46.5	-47.8	15.4	0.00e+00	0	24	0	840957952	59	4131
2026-01-09 10:44:09.77	125.44	16.84	-46.5	-47.8	15.4	0.00e+00	0	23	0	846200832	59	4140
2026-01-09 10:44:10.75	125.38	16.95	-46.5	-47.8	15.4	0.00e+00	0	24	0	851443712	59	4107
2026-01-09 10:44:11.74	125.33	17.06	-46.5	-47.9	15.4	0.00e+00	0	23	0	857735168	59	4155
2026-01-09 10:44:12.73	125.27	17.17	-46.4	-47.8	15.4	0.00e+00	0	24	0	862978048	59	4103
2026-01-09 10:44:13.71	125.22	17.28	-46.5	-47.8	15.4	0.00e+00	0	24	0	868220928	59	4112
2026-01-09 10:44:14.69	125.16	17.39	-46.5	-47.8	15.4	0.00e+00	0	24	0	874512384	59	4125
2026-01-09 10:44:15.67	125.10	17.50	-46.4	-47.7	15.4	0.00e+00	0	23	0	879755264	59	4083
2026-01-09 10:44:16.65	125.05	17.62	-46.4	-47.7	15.4	0.00e+00	0	23	0	884998144	59	4088
2026-01-09 10:44:17.64	124.99	17.73	-46.4	-47.6	15.5	0.00e+00	0	24	0	890241024	59	4051
2026-01-09 10:44:18.63	124.93	17.84	-46.3	-47.6	15.5	0.00e+00	0	24	0	896532480	59	4033
2026-01-09 10:44:19.62	124.87	17.96	-46.3	-47.6	15.5	0.00e+00	0	24	0	901775360	59	4028
2026-01-09 10:44:20.60	124.81	18.07	-46.3	-47.6	15.5	0.00e+00	0	24	0	907018240	59	4012
2026-01-09 10:44:21.59	124.75	18.19	-46.3	-47.6	15.5	0.00e+00	0	24	0	913309696	59	4048
2026-01-09 10:44:22.57	124.69	18.31	-46.4	-47.7	15.4	0.00e+00	0	24	0	918552576	59	4084
2026-01-09 10:44:23.56	124.63	18.42	-46.2	-47.5	15.5	0.00e+00	0	23	0	923795456	59	3992
2026-01-09 10:44:24.54	124.57	18.54	-46.2	-47.5	15.6	0.00e+00	0	24	0	929038336	59	3987
2026-01-09 10:44:25.53	124.50	18.66	-46.2	-47.5	15.6	0.00e+00	0	24	0	935329792	59	3978
2026-01-09 10:44:26.51	124.44	18.78	-46.2	-47.5	15.5	0.00e+00	0	24	0	940572672	59	4001
2026-01-09 10:44:27.50	124.38	18.90	-46.2	-47.5	15.6	0.00e+00	0	24	0	945815552	59	3970
2026-01-09 10:44:28.48	124.32	19.01	-46.2	-47.5	15.4	0.00e+00	0	24	0	951058432	58	4203
2026-01-09 10:44:29.47	124.25	19.14	-46.2	-47.5	15.4	0.00e+00	0	24	0	957349888	58	4229
2026-01-09 10:44:30.45	124.19	19.26	-46.1	-47.4	15.4	0.00e+00	0	24	0	962592768	58	4193
2026-01-09 10:44:31.43	124.12	19.38	-46.1	-47.4	15.4	0.00e+00	0	24	0	967835648	58	4182
2026-01-09 10:44:32.42	124.06	19.50	-46.2	-47.5	15.3	0.00e+00	0	24	0	974127104	58	4239
2026-01-09 10:44:33.41	123.99	19.62	-46.2	-47.5	15.3	0.00e+00	0	24	0	979369984	58	4231
2026-01-09 10:44:34.39	123.92	19.74	-46.1	-47.5	15.4	0.00e+00	0	24	0	984612864	58	4194
2026-01-09 10:44:35.38	123.86	19.87	-46.1	-47.4	15.4	0.00e+00	0	24	0	989855744	58	4160
2026-01-09 10:44:36.36	123.79	19.99	-46.2	-47.5	15.4	0.00e+00	0	24	0	996147200	58	4211
2026-01-09 10:44:37.34	123.72	20.11	-46.1	-47.5	15.4	0.00e+00	0	24	0	1001390080	58	4197
2026-01-09 10:44:38.33	123.65	20.24	-46.0	-47.3	15.4	0.00e+00	0	24	0	1006632960	58	4145
2026-01-09 10:44:39.31	123.58	20.36	-46.1	-47.5	15.4	0.00e+00	0	24	0	1012924416	58	4205
2026-01-09 10:44:40.29	123.51	20.49	-46.1	-47.4	15.4	0.00e+00	0	24	0	1018167296	58	4176
2026-01-09 10:44:41.28	123.44	20.62	-46.0	-47.4	15.4	0.00e+00	0	24	0	1023410176	58	4150
2026-01-09 10:44:42.27	123.37	20.74	-45.9	-47.3	15.5	0.00e+00	0	24	0	1028653056	58	4102
2026-01-09 10:44:43.25	123.30	20.87	-46.1	-47.4	15.4	0.00e+00	0	24	0	1034944512	58	4160
2026-01-09 10:44:44.24	123.22	21.00	-46.0	-47.3	15.4	0.00e+00	0	24	0	1040187392	58	4139
2026-01-09 10:44:45.22	123.15	21.13	-45.9	-47.2	15.5	0.00e+00	0	24	0	1045430272	58	4060
2026-01-09 10:44:46.20	123.08	21.26	-45.9	-47.2	15.5	0.00e+00	0	24	0	1051721728	58	4066
2026-01-09 10:44:47.18	123.00	21.39	-45.8	-47.1	15.6	0.00e+00	0	24	0	1056964608	58	4032
2026-01-09 10:44:48.16	122.93	21.52	-45.8	-47.1	15.6	0.00e+00	0	24	0	1062207488	58	4043
2026-01-09 10:44:49.14	122.85	21.65	-45.8	-47.1	15.6	0.00e+00	0	24	0	1067450368	58	4022
2026-01-09 10:44:50.14	122.77	21.78	-45.8	-47.1	15.6	0.00e+00	0	24	0	1073741824	58	4032
2026-01-09 10:44:51.12	122.70	21.92	-45.7	-47.0	15.6	0.00e+00	0	24	0	1078984704	58	3990
2026-01-09 10:44:52.11	122.62	22.05	-45.8	-47.0	15.6	0.00e+00	0	24	0	1084227584	58	4000
2026-01-09 10:44:53.09	122.54	22.18	-45.8	-47.0	15.6	0.00e+00	0	24	0	1090519040	58	4001
2026-01-09 10:44:54.07	122.46	22.32	-45.7	-46.9	15.7	0.00e+00	0	23	0	1095761920	58	3957
2026-01-09 10:44:55.05	122.38	22.45	-45.6	-46.9	15.5	0.00e+00	0	24	0	1101004800	57	4174
2026-01-09 10:44:56.03	122.30	22.59	-45.6	-46.9	15.5	0.00e+00	0	24	0	1106247680	57	4180
2026-01-09 10:44:57.02	122.22	22.72	-45.6	-46.9	15.5	0.00e+00	0	24	0	1112539136	57	4167
2026-01-09 10:44:58.00	122.14	22.86	-45.6	-46.9	15.5	0.00e+00	0	24	0	1117782016	57	4174
2026-01-09 10:44:58.99	122.05	23.00	-45.6	-46.9	15.5	0.00e+00	0	24	0	1123024896	57	4159
2026-01-09 10:44:59.98	121.97	23.14	-45.6	-46.9	15.5	0.00e+00	0	24	0	1128267776	57	4187
2026-01-09 10:45:00.96	121.88	23.28	-45.6	-46.9	15.5	0.00e+00	0	24	0	1134559232	57	4154
2026-01-09 10:45:01.94	121.80	23.42	-45.4	-46.6	15.6	0.00e+00	0	24	0	1139802112	57	4050
2026-01-09 10:45:02.93	121.71	23.56	-45.3	-46.5	15.7	0.00e+00	0	24	0	1145044992	57	3979
2026-01-09 10:45:03.92	121.63	23.70	-45.3	-46.5	15.7	0.00e+00	0	24	0	1151336448	57	3993
2026-01-09 10:45:04.91	121.54	23.84	-45.2	-46.4	15.7	0.00e+00	0	24	0	1156579328	57	3930
2026-01-09 10:45:05.89	121.45	23.99	-45.1	-46.3	15.6	0.00e+00	0	24	0	1161822208	56	4132
2026-01-09 10:45:06.88	121.36	24.13	-45.1	-46.3	15.6	0.00e+00	0	24	0	1167065088	56	4133
2026-01-09 10:45:07.86	121.27	24.27	-45.1	-46.3	15.6	0.00e+00	0	24	0	1173356544	56	4112
2026-01-09 10:45:08.85	121.18	24.42	-45.1	-46.3	15.6	0.00e+00	0	24	0	1178599424	56	4138
2026-01-09 10:45:09.84	121.08	24.57	-45.1	-46.4	15.6	0.00e+00	0	24	0	1183842304	56	4150
2026-01-09 10:45:10.82	120.99	24.71	-45.0	-46.2	15.6	0.00e+00	0	24	0	1190133760	56	4068
2026-01-09 10:45:11.81	120.90	24.86	-45.0	-46.2	15.6	0.00e+00	0	24	0	1195376640	56	4094
2026-01-09 10:45:12.80	120.80	25.01	-45.0	-46.2	15.6	0.00e+00	0	24	0	1200619520	56	4091
2026-01-09 10:45:13.78	120.71	25.16	-45.0	-46.2	15.6	0.00e+00	0	24	0	1205862400	56	4085
2026-01-09 10:45:14.76	120.61	25.30	-45.0	-46.3	15.6	0.00e+00	0	24	0	1212153856	56	4107
2026-01-09 10:45:15.75	120.51	25.46	-45.0	-46.3	15.6	0.00e+00	0	24	0	1217396736	56	4115
2026-01-09 10:45:16.73	120.41	25.61	-45.1	-46.3	15.6	0.00e+00	0	24	0	1222639616	56	4138
2026-01-09 10:45:17.72	120.31	25.76	-45.0	-46.3	15.6	0.00e+00	0	24	0	1228931072	56	4121
2026-01-09 10:45:18.70	120.21	25.91	-45.0	-46.2	15.6	0.00e+00	0	24	0	1234173952	56	4092
2026-01-09 10:45:19.69	120.11	26.06	-44.9	-46.2	15.6	0.00e+00	0	24	0	1239416832	56	4061
2026-01-09 10:45:20.67	120.01	26.22	-45.0	-46.2	15.6	0.00e+00	0	24	0	1244659712	56	4095
2026-01-09 10:45:21.66	119.91	26.37	-45.0	-46.2	15.6	0.00e+00	0	24	0	1250951168	56	4077
2026-01-09 10:45:22.64	119.80	26.53	-45.0	-46.2	15.6	0.00e+00	0	24	0	1256194048	56	4090
2026-01-09 10:45:23.63	119.70	26.68	-44.9	-46.2	15.6	0.00e+00	0	24	0	1261436928	56	4062
2026-01-09 10:45:24.61	119.59	26.84	-45.0	-46.3	15.6	0.00e+00	0	24	0	1267728384	56	4102
2026-01-09 10:45:25.60	119.48	27.00	-44.9	-46.1	15.7	0.00e+00	0	24	0	1272971264	56	4049
2026-01-09 10:45:26.58	119.37	27.16	-44.9	-46.1	15.7	0.00e+00	0	24	0	1278214144	56	4045
2026-01-09 10:45:27.56	119.26	27.32	-45.0	-46.2	15.6	0.00e+00	0	24	0	1283457024	56	4077
2026-01-09 10:45:28.55	119.15	27.48	-44.9	-46.1	15.7	0.00e+00	0	24	0	1289748480	56	4027
2026-01-09 10:45:29.54	119.04	27.64	-44.8	-46.0	15.7	0.00e+00	0	24	0	1294991360	56	3993
2026-01-09 10:45:30.52	118.92	27.80	-45.0	-46.1	15.7	0.00e+00	0	24	0	1300234240	56	4038
2026-01-09 10:45:31.51	118.81	27.96	-45.2	-46.3	15.6	0.00e+00	0	24	0	1306525696	56	4118
2026-01-09 10:45:32.50	118.69	28.13	-45.2	-46.3	15.6	0.00e+00	0	24	0	1311768576	56	4119
2026-01-09 10:45:33.48	118.58	28.29	-45.2	-46.3	15.6	0.00e+00	0	24	0	1317011456	56	4121
2026-01-09 10:45:34.47	118.46	28.46	-45.1	-46.2	15.6	0.00e+00	0	24	0	1322254336	56	4082
2026-01-09 10:45:35.46	118.34	28.63	-45.1	-46.2	15.6	0.00e+00	0	24	0	1328545792	56	4065
2026-01-09 10:45:36.44	118.22	28.79	-45.0	-46.1	15.7	0.00e+00	0	24	0	1333788672	56	4023
2026-01-09 10:45:37.43	118.09	28.96	-44.9	-46.0	15.7	0.00e+00	0	24	0	1339031552	56	3972
2026-01-09 10:45:38.42	117.97	29.13	-45.0	-46.0	15.7	0.00e+00	0	24	0	1345323008	56	3994
2026-01-09 10:45:39.40	117.84	29.30	-44.8	-45.9	15.8	0.00e+00	0	23	0	1350565888	56	3914
2026-01-09 10:45:40.38	117.72	29.47	-44.7	-45.8	15.8	0.00e+00	0	24	0	1355808768	56	3888
2026-01-09 10:45:41.37	117.59	29.64	-44.8	-45.8	15.8	0.00e+00	0	24	0	1361051648	56	3908
2026-01-09 10:45:42.35	117.46	29.81	-44.4	-45.4	15.7	0.00e+00	0	24	0	1367343104	55	3946
2026-01-09 10:45:43.34	117.33	29.99	-44.4	-45.4	15.8	0.00e+00	0	24	0	1372585984	55	3950
2026-01-09 10:45:44.32	117.20	30.16	-44.4	-45.4	15.8	0.00e+00	0	24	0	1377828864	55	3956
2026-01-09 10:45:45.31	117.07	30.33	-44.3	-45.4	15.8	0.00e+00	0	24	0	1384120320	55	3926
2026-01-09 10:45:46.29	116.93	30.51	-44.4	-45.5	15.7	0.00e+00	0	23	0	1389363200	55	3977
2026-01-09 10:45:47.28	116.79	30.69	-44.5	-45.5	15.7	0.00e+00	0	24	0	1394606080	55	4001
2026-01-09 10:45:48.27	116.66	30.87	-44.4	-45.5	15.7	0.00e+00	0	24	0	1399848960	55	3987
2026-01-09 10:45:49.26	116.52	31.05	-44.5	-45.6	15.7	0.00e+00	0	24	0	1406140416	55	4015
2026-01-09 10:45:50.24	116.37	31.22	-44.3	-45.4	15.8	0.00e+00	0	24	0	1411383296	55	3920
2026-01-09 10:45:51.22	116.23	31.40	-44.2	-45.3	15.8	0.00e+00	0	24	0	1416626176	55	3888
2026-01-09 10:45:52.21	116.09	31.58	-44.3	-45.4	15.8	0.00e+00	0	24	0	1422917632	55	3920
2026-01-09 10:45:53.20	115.94	31.77	-44.2	-45.3	15.8	0.00e+00	0	24	0	1428160512	55	3878
2026-01-09 10:45:54.18	115.79	31.95	-44.2	-45.3	15.7	0.00e+00	0	24	0	1433403392	54	4101
2026-01-09 10:45:55.17	115.64	32.13	-44.2	-45.3	15.7	0.00e+00	0	24	0	1438646272	54	4125
2026-01-09 10:45:56.15	115.49	32.32	-44.3	-45.3	15.7	0.00e+00	0	24	0	1444937728	54	4133
2026-01-09 10:45:57.13	115.34	32.50	-44.1	-45.2	15.7	0.00e+00	0	24	0	1450180608	54	4068
2026-01-09 10:45:58.11	115.19	32.69	-44.2	-45.3	15.7	0.00e+00	0	24	0	1455423488	54	4107
2026-01-09 10:45:59.09	115.03	32.88	-44.3	-45.3	15.7	0.00e+00	0	24	0	1461714944	54	4137
2026-01-09 10:46:00.08	114.87	33.06	-44.4	-45.5	15.6	0.00e+00	0	24	0	1466957824	54	4201
2026-01-09 10:46:01.06	114.71	33.25	-44.4	-45.4	15.6	0.00e+00	0	23	0	1472200704	54	4187
2026-01-09 10:46:02.05	114.55	33.44	-44.4	-45.5	15.6	0.00e+00	0	24	0	1477443584	54	4199
2026-01-09 10:46:03.04	114.38	33.64	-44.4	-45.4	15.6	0.00e+00	0	24	0	1483735040	54	4186
2026-01-09 10:46:04.03	114.22	33.83	-44.2	-45.3	15.7	0.00e+00	0	24	0	1488977920	54	4112
2026-01-09 10:46:05.02	114.05	34.02	-44.3	-45.3	15.6	0.00e+00	0	24	0	1494220800	54	4145
2026-01-09 10:46:06.02	113.88	34.22	-44.3	-45.4	15.6	0.00e+00	0	24	0	1500512256	54	4149
2026-01-09 10:46:07.01	113.70	34.42	-44.4	-45.4	15.6	0.00e+00	0	24	0	1505755136	54	4191
2026-01-09 10:46:08.00	113.53	34.61	-44.3	-45.3	15.6	0.00e+00	0	24	0	1510998016	54	4143
2026-01-09 10:46:08.98	113.35	34.81	-44.2	-45.2	15.7	0.00e+00	0	24	0	1517289472	54	4087
2026-01-09 10:46:09.98	113.17	35.01	-44.2	-45.2	15.7	0.00e+00	0	24	0	1522532352	54	4076
2026-01-09 10:46:10.97	112.99	35.21	-44.1	-45.2	15.7	0.00e+00	0	24	0	1527775232	54	4067
2026-01-09 10:46:11.96	112.80	35.41	-44.2	-45.3	15.7	0.00e+00	0	24	0	1534066688	54	4121
2026-01-09 10:46:12.95	112.62	35.61	-44.3	-45.4	15.6	0.00e+00	0	24	0	1539309568	54	4160
2026-01-09 10:46:13.94	112.43	35.81	-44.4	-45.5	15.6	0.00e+00	0	24	0	1544552448	54	4211
2026-01-09 10:46:14.94	112.24	36.02	-44.4	-45.4	15.6	0.00e+00	0	24	0	1550843904	54	4181
2026-01-09 10:46:15.92	112.04	36.22	-44.4	-45.4	15.6	0.00e+00	0	24	0	1556086784	54	4171
2026-01-09 10:46:16.91	111.85	36.43	-44.3	-45.4	15.7	0.00e+00	0	24	0	1561329664	54	4153
2026-01-09 10:46:17.89	111.65	36.63	-44.2	-45.3	15.7	0.00e+00	0	24	0	1567621120	54	4118
2026-01-09 10:46:18.88	111.45	36.84	-44.4	-45.4	15.6	0.00e+00	0	24	0	1572864000	54	4178
2026-01-09 10:46:19.87	111.25	37.04	-44.3	-45.3	15.7	0.00e+00	0	24	0	1578106880	54	4136
2026-01-09 10:46:20.86	111.04	37.25	-44.3	-45.3	15.7	0.00e+00	0	24	0	1583349760	54	4140
2026-01-09 10:46:21.84	110.83	37.46	-44.3	-45.3	15.7	0.00e+00	0	24	0	1589641216	54	4123
2026-01-09 10:46:22.83	110.62	37.67	-44.1	-45.1	15.7	0.00e+00	0	24	0	1594884096	54	4044
2026-01-09 10:46:23.82	110.41	37.88	-44.1	-45.1	15.7	0.00e+00	0	24	0	1600126976	54	4021
2026-01-09 10:46:24.81	110.19	38.09	-44.1	-45.2	15.7	0.00e+00	0	24	0	1606418432	54	4054
2026-01-09 10:46:25.80	109.97	38.31	-44.3	-45.4	15.7	0.00e+00	0	24	0	1611661312	54	4146
2026-01-09 10:46:26.79	109.74	38.52	-44.3	-45.4	15.6	0.00e+00	0	24	0	1616904192	54	4166
2026-01-09 10:46:27.79	109.52	38.74	-44.5	-45.6	15.6	0.00e+00	0	24	0	1623195648	54	4243
2026-01-09 10:46:28.78	109.29	38.95	-44.5	-45.6	15.6	0.00e+00	0	24	0	1628438528	54	4243
2026-01-09 10:46:29.77	109.05	39.17	-44.6	-45.7	15.6	0.00e+00	0	24	0	1633681408	54	4308
2026-01-09 10:46:30.75	108.82	39.38	-44.5	-45.6	15.6	0.00e+00	0	24	0	1638924288	54	4270
2026-01-09 10:46:31.75	108.58	39.60	-44.5	-45.5	15.6	0.00e+00	0	24	0	1645215744	54	4242
2026-01-09 10:46:32.73	108.34	39.82	-44.5	-45.5	15.6	0.00e+00	0	24	0	1650458624	54	4242
2026-01-09 10:46:33.73	108.09	40.04	-44.5	-45.6	15.6	0.00e+00	0	24	0	1655701504	54	4266
2026-01-09 10:46:34.72	107.84	40.26	-44.7	-45.7	15.6	0.00e+00	0	24	0	1661992960	54	4330
2026-01-09 10:46:35.70	107.59	40.48	-44.6	-45.7	15.6	0.00e+00	0	24	0	1667235840	54	4296
2026-01-09 10:46:36.69	107.34	40.70	-44.6	-45.7	15.6	0.00e+00	0	24	0	1672478720	54	4320
2026-01-09 10:46:37.69	107.07	40.93	-44.7	-45.7	15.6	0.00e+00	0	24	0	1678770176	54	4332
2026-01-09 10:46:38.68	106.81	41.15	-44.5	-45.6	15.6	0.00e+00	0	24	0	1684013056	54	4265
2026-01-09 10:46:39.67	106.54	41.38	-44.5	-45.6	15.6	0.00e+00	0	24	0	1689255936	54	4256
2026-01-09 10:46:40.65	106.28	41.60	-44.4	-45.5	15.6	0.00e+00	0	24	0	1695547392	54	4206
2026-01-09 10:46:41.65	106.00	41.83	-44.5	-45.6	15.6	0.00e+00	0	24	0	1700790272	54	4260
2026-01-09 10:46:42.63	105.72	42.05	-44.7	-45.8	15.6	0.00e+00	0	24	0	1706033152	54	4355
2026-01-09 10:46:43.62	105.44	42.27	-44.8	-45.8	15.6	0.00e+00	0	24	0	1711276032	54	4382
2026-01-09 10:46:44.61	105.16	42.50	-44.7	-45.8	15.6	0.00e+00	0	24	0	1717567488	54	4367
2026-01-09 10:46:45.60	104.86	42.73	-44.7	-45.8	15.6	0.00e+00	0	24	0	1722810368	54	4372
2026-01-09 10:46:46.59	104.57	42.96	-44.7	-45.8	15.6	0.00e+00	0	24	0	1728053248	54	4381
2026-01-09 10:46:47.57	104.27	43.18	-44.7	-45.8	15.6	0.00e+00	0	24	0	1734344704	54	4376
2026-01-09 10:46:48.55	103.97	43.41	-44.6	-45.7	15.6	0.00e+00	0	24	0	1739587584	54	4313
2026-01-09 10:46:49.54	103.67	43.64	-44.6	-45.6	15.6	0.00e+00	0	24	0	1744830464	54	4274
2026-01-09 10:46:50.52	103.36	43.87	-44.6	-45.6	15.6	0.00e+00	0	24	0	1750073344	54	4279
2026-01-09 10:46:51.51	103.04	44.10	-44.6	-45.7	15.6	0.00e+00	0	24	0	1756364800	54	4299
2026-01-09 10:46:52.50	102.72	44.33	-44.7	-45.8	15.6	0.00e+00	0	24	0	1761607680	54	4378
2026-01-09 10:46:53.49	102.40	44.56	-44.7	-45.8	15.6	0.00e+00	0	24	0	1766850560	54	4366
2026-01-09 10:46:54.48	102.06	44.79	-44.8	-45.9	15.6	0.00e+00	0	24	0	1773142016	54	4397
2026-01-09 10:46:55.46	101.73	45.02	-44.7	-45.7	15.6	0.00e+00	0	24	0	1778384896	54	4335
2026-01-09 10:46:56.45	101.39	45.25	-44.8	-45.9	15.6	0.00e+00	0	24	0	1783627776	54	4410
2026-01-09 10:46:57.43	101.05	45.48	-44.8	-45.9	15.5	0.00e+00	0	24	0	1788870656	54	4412
2026-01-09 10:46:58.42	100.70	45.71	-44.8	-45.9	15.6	0.00e+00	0	24	0	1795162112	54	4427
2026-01-09 10:46:59.41	100.34	45.94	-44.9	-46.0	15.6	0.00e+00	0	24	0	1800404992	54	4473
2026-01-09 10:47:00.40	99.98	46.18	-44.9	-46.0	15.6	0.00e+00	0	24	0	1806696448	55	4216
2026-01-09 10:47:01.39	99.62	46.41	-44.9	-45.9	15.6	0.00e+00	0	24	0	1811939328	55	4183
2026-01-09 10:47:02.37	99.25	46.64	-44.8	-45.9	15.6	0.00e+00	0	24	0	1817182208	55	4171
2026-01-09 10:47:03.36	98.87	46.87	-44.9	-45.9	15.6	0.00e+00	0	24	0	1822425088	55	4181
2026-01-09 10:47:04.35	98.49	47.10	-45.2	-46.3	15.5	0.00e+00	0	24	0	1828716544	55	4367
2026-01-09 10:47:05.34	98.10	47.33	-45.3	-46.4	15.5	0.00e+00	0	24	0	1833959424	55	4410
2026-01-09 10:47:06.33	97.70	47.57	-45.2	-46.3	15.6	0.00e+00	0	24	0	1839202304	55	4355
2026-01-09 10:47:07.32	97.30	47.80	-45.0	-46.1	15.6	0.00e+00	0	24	0	1845493760	55	4248
2026-01-09 10:47:08.31	96.90	48.03	-45.0	-46.0	15.6	0.00e+00	0	24	0	1850736640	55	4241
2026-01-09 10:47:09.31	96.48	48.26	-44.9	-46.0	15.6	0.00e+00	0	24	0	1855979520	55	4214
2026-01-09 10:47:10.30	96.06	48.49	-45.2	-46.3	15.5	0.00e+00	0	24	0	1862270976	55	4342
2026-01-09 10:47:11.29	95.63	48.72	-45.2	-46.3	15.5	0.00e+00	0	24	0	1867513856	55	4381
2026-01-09 10:47:12.28	95.20	48.95	-45.3	-46.4	15.5	0.00e+00	0	23	0	1872756736	55	4414
2026-01-09 10:47:13.27	94.76	49.18	-45.3	-46.3	15.5	0.00e+00	0	24	0	1877999616	55	4386
2026-01-09 10:47:14.26	94.32	49.41	-45.6	-46.7	15.5	0.00e+00	0	24	0	1884291072	56	4313
2026-01-09 10:47:15.25	93.87	49.64	-45.9	-47.1	15.5	0.00e+00	0	24	0	1889533952	57	4252
2026-01-09 10:47:16.24	93.41	49.86	-46.1	-47.3	15.5	0.00e+00	0	24	0	1895825408	57	4344
2026-01-09 10:47:17.23	92.94	50.09	-46.0	-47.1	15.5	0.00e+00	0	24	0	1901068288	57	4268
2026-01-09 10:47:18.23	92.46	50.31	-46.0	-47.1	15.5	0.00e+00	0	24	0	1906311168	57	4266
2026-01-09 10:47:19.22	91.98	50.54	-45.7	-46.8	15.6	0.00e+00	0	24	0	1911554048	57	4135
2026-01-09 10:47:20.21	91.50	50.76	-46.0	-47.1	15.5	0.00e+00	0	24	0	1917845504	57	4266
2026-01-09 10:47:21.19	91.01	50.98	-45.6	-46.7	15.6	0.00e+00	0	24	0	1923088384	57	4090
2026-01-09 10:47:22.18	90.51	51.20	-45.6	-46.7	15.6	0.00e+00	0	24	0	1928331264	57	4093
2026-01-09 10:47:23.17	90.00	51.42	-45.7	-46.8	15.6	0.00e+00	0	24	0	1934622720	57	4108
2026-01-09 10:47:24.16	89.48	51.64	-45.7	-46.8	15.6	0.00e+00	0	24	0	1939865600	57	4100
2026-01-09 10:47:25.16	88.95	51.85	-45.6	-46.7	15.6	0.00e+00	0	24	0	1945108480	57	4093
2026-01-09 10:47:26.14	88.42	52.07	-45.8	-47.0	15.5	0.00e+00	0	24	0	1951399936	57	4199
2026-01-09 10:47:27.14	87.88	52.28	-45.8	-46.9	15.5	0.00e+00	0	23	0	1956642816	57	4181
2026-01-09 10:47:28.12	87.34	52.49	-45.8	-46.9	15.5	0.00e+00	0	24	0	1961885696	57	4185
2026-01-09 10:47:29.12	86.78	52.70	-45.8	-46.9	15.5	0.00e+00	0	24	0	1967128576	57	4147
2026-01-09 10:47:30.11	86.21	52.91	-45.6	-46.7	15.6	0.00e+00	0	24	0	1973420032	57	4075
2026-01-09 10:47:31.10	85.64	53.11	-45.8	-46.9	15.5	0.00e+00	0	24	0	1978662912	57	4161
2026-01-09 10:47:32.09	85.06	53.32	-45.8	-46.9	15.6	0.00e+00	0	24	0	1984954368	57	4159
2026-01-09 10:47:33.08	84.48	53.52	-45.6	-46.7	15.6	0.00e+00	0	24	0	1990197248	57	4069
2026-01-09 10:47:34.07	83.88	53.71	-45.5	-46.6	15.6	0.00e+00	0	24	0	1995440128	57	4010
2026-01-09 10:47:35.06	83.28	53.91	-45.3	-46.3	15.7	0.00e+00	0	24	0	2000683008	57	3897
2026-01-09 10:47:36.05	82.66	54.10	-45.3	-46.4	15.7	0.00e+00	0	24	0	2006974464	57	3935
2026-01-09 10:47:37.04	82.04	54.29	-45.5	-46.6	15.6	0.00e+00	0	24	0	2012217344	57	4036
2026-01-09 10:47:38.03	81.42	54.48	-45.6	-46.8	15.6	0.00e+00	0	24	0	2017460224	57	4102
2026-01-09 10:47:39.02	80.78	54.67	-45.5	-46.6	15.6	0.00e+00	0	24	0	2023751680	57	4046
2026-01-09 10:47:40.01	80.13	54.85	-45.4	-46.5	15.7	0.00e+00	0	24	0	2028994560	57	3983
2026-01-09 10:47:40.99	79.49	55.03	-45.4	-46.5	15.7	0.00e+00	0	24	0	2034237440	57	3976
2026-01-09 10:47:41.98	78.83	55.20	-45.3	-46.4	15.7	0.00e+00	0	24	0	2039480320	57	3928
2026-01-09 10:47:42.97	78.16	55.37	-45.5	-46.6	15.6	0.00e+00	0	24	0	2045771776	57	4045
2026-01-09 10:47:43.96	77.48	55.54	-45.6	-46.6	15.6	0.00e+00	0	24	0	2051014656	57	4051
2026-01-09 10:47:44.94	76.80	55.71	-45.5	-46.6	15.7	0.00e+00	0	24	0	2056257536	57	4024
2026-01-09 10:47:45.93	76.10	55.87	-45.6	-46.7	15.6	0.00e+00	0	24	0	2062548992	57	4070
2026-01-09 10:47:46.92	75.40	56.03	-45.4	-46.5	15.7	0.00e+00	0	24	0	2067791872	57	3963
2026-01-09 10:47:47.92	74.69	56.18	-45.1	-46.2	15.7	0.00e+00	0	24	0	2073034752	56	4060
2026-01-09 10:47:48.90	73.97	56.33	-44.7	-45.7	15.8	0.00e+00	0	24	0	2079326208	56	3863
2026-01-09 10:47:49.89	73.25	56.48	-44.6	-45.6	15.7	0.00e+00	0	24	0	2084569088	55	4043
2026-01-09 10:47:50.87	72.52	56.62	-45.1	-46.2	15.5	0.00e+00	0	24	0	2089811968	55	4314
2026-01-09 10:47:51.85	71.79	56.76	-45.9	-47.0	15.5	0.00e+00	0	24	0	2096103424	56	4469
2026-01-09 10:47:52.84	71.04	56.89	-45.8	-46.9	15.5	0.00e+00	0	24	0	2101346304	56	4421
2026-01-09 10:47:53.82	70.29	57.02	-45.5	-46.6	15.5	0.00e+00	0	24	0	2106589184	56	4266
2026-01-09 10:47:54.81	69.53	57.15	-45.7	-46.8	15.5	0.00e+00	0	24	0	2111832064	56	4372
2026-01-09 10:47:55.80	68.76	57.27	-45.7	-46.9	15.5	0.00e+00	0	24	0	2118123520	56	4392
2026-01-09 10:47:56.79	67.99	57.38	-45.3	-46.3	15.6	0.00e+00	0	24	0	2123366400	56	4135
2026-01-09 10:47:57.79	67.20	57.49	-45.2	-46.3	15.6	0.00e+00	0	24	0	2128609280	56	4122
2026-01-09 10:47:58.77	66.42	57.60	-45.2	-46.3	15.6	0.00e+00	0	24	0	2134900736	56	4129
2026-01-09 10:47:59.77	65.61	57.70	-45.5	-46.6	15.5	0.00e+00	0	24	0	2140143616	56	4275
2026-01-09 10:48:00.76	64.81	57.80	-45.5	-46.6	15.5	0.00e+00	0	24	0	2145386496	56	4274
2026-01-09 10:48:01.74	64.01	57.89	-45.4	-46.5	15.6	0.00e+00	0	24	0	2151677952	56	4213
2026-01-09 10:48:02.73	63.20	57.97	-45.5	-46.5	15.5	0.00e+00	0	24	0	2156920832	56	4237
2026-01-09 10:48:03.72	62.39	58.05	-45.7	-46.8	15.5	0.00e+00	0	24	0	2162163712	56	4372
2026-01-09 10:48:04.70	61.57	58.13	-45.8	-47.0	15.5	0.00e+00	0	24	0	2167406592	56	4446
2026-01-09 10:48:05.69	60.75	58.20	-45.6	-46.7	15.5	0.00e+00	0	24	0	2173698048	56	4327
2026-01-09 10:48:06.68	59.92	58.26	-45.6	-46.8	15.5	0.00e+00	0	24	0	2178940928	56	4348
2026-01-09 10:48:07.67	59.08	58.32	-45.7	-46.8	15.5	0.00e+00	0	24	0	2184183808	56	4368
2026-01-09 10:48:08.66	58.25	58.37	-45.5	-46.6	15.6	0.00e+00	0	24	0	2190475264	56	4261
2026-01-09 10:48:09.65	57.41	58.42	-45.5	-46.6	15.5	0.00e+00	0	24	0	2195718144	56	4261
2026-01-09 10:48:10.64	56.56	58.46	-45.5	-46.6	15.5	0.00e+00	0	24	0	2200961024	56	4281
2026-01-09 10:48:11.63	55.72	58.49	-45.7	-46.8	15.5	0.00e+00	0	24	0	2206203904	56	4388
2026-01-09 10:48:12.62	54.87	58.52	-45.3	-46.4	15.6	0.00e+00	0	24	0	2212495360	56	4175
2026-01-09 10:48:13.61	54.02	58.55	-45.3	-46.3	15.6	0.00e+00	0	24	0	2217738240	56	4138
2026-01-09 10:48:14.60	53.17	58.56	-45.3	-46.4	15.6	0.00e+00	0	24	0	2224029696	56	4155
2026-01-09 10:48:15.58	52.33	58.57	-45.6	-46.7	15.5	0.00e+00	0	24	0	2229272576	56	4323
2026-01-09 10:48:16.57	51.48	58.58	-45.4	-46.5	15.6	0.00e+00	0	24	0	2234515456	56	4233
2026-01-09 10:48:17.55	50.63	58.58	-45.3	-46.4	15.6	0.00e+00	0	24	0	2239758336	56	4161
2026-01-09 10:48:18.54	49.78	58.58	-45.3	-46.4	15.6	0.00e+00	0	24	0	2246049792	56	4164
2026-01-09 10:48:19.53	48.93	58.56	-45.2	-46.3	15.6	0.00e+00	0	24	0	2251292672	56	4121
2026-01-09 10:48:20.52	48.08	58.55	-45.3	-46.4	15.6	0.00e+00	0	24	0	2256535552	56	4152
2026-01-09 10:48:21.50	47.24	58.52	-45.4	-46.5	15.6	0.00e+00	0	24	0	2262827008	56	4225
2026-01-09 10:48:22.49	46.39	58.49	-45.4	-46.4	15.6	0.00e+00	0	24	0	2268069888	56	4190
2026-01-09 10:48:23.49	45.54	58.46	-45.3	-46.3	15.6	0.00e+00	0	24	0	2273312768	56	4133
2026-01-09 10:48:24.47	44.71	58.42	-45.3	-46.4	15.6	0.00e+00	0	24	0	2278555648	56	4154
2026-01-09 10:48:25.46	43.87	58.37	-45.1	-46.2	15.7	0.00e+00	0	24	0	2284847104	56	4065
2026-01-09 10:48:26.45	43.03	58.32	-45.1	-46.2	15.6	0.00e+00	0	24	0	2290089984	56	4058
2026-01-09 10:48:27.44	42.20	58.26	-45.3	-46.3	15.6	0.00e+00	0	24	0	2295332864	56	4145
2026-01-09 10:48:28.43	41.37	58.20	-45.4	-46.5	15.6	0.00e+00	0	24	0	2301624320	56	4199
2026-01-09 10:48:29.41	40.55	58.13	-45.5	-46.6	15.5	0.00e+00	0	24	0	2306867200	56	4243
2026-01-09 10:48:30.40	39.73	58.05	-45.5	-46.6	15.5	0.00e+00	0	24	0	2312110080	56	4252
2026-01-09 10:48:31.39	38.91	57.97	-45.4	-46.5	15.6	0.00e+00	0	24	0	2318401536	56	4198
2026-01-09 10:48:32.37	38.11	57.89	-45.1	-46.2	15.6	0.00e+00	0	24	0	2323644416	56	4083
2026-01-09 10:48:33.36	37.30	57.80	-45.1	-46.2	15.6	0.00e+00	0	24	0	2328887296	56	4075
2026-01-09 10:48:34.34	36.51	57.71	-45.1	-46.1	15.7	0.00e+00	0	24	0	2334130176	56	4036
2026-01-09 10:48:35.33	35.72	57.61	-44.8	-45.9	15.7	0.00e+00	0	24	0	2340421632	56	3925
2026-01-09 10:48:36.31	34.94	57.50	-44.9	-46.0	15.7	0.00e+00	0	24	0	2345664512	56	3978
2026-01-09 10:48:37.29	34.16	57.39	-45.1	-46.2	15.7	0.00e+00	0	24	0	2350907392	56	4081
2026-01-09 10:48:38.28	33.38	57.28	-45.1	-46.2	15.7	0.00e+00	0	24	0	2356150272	56	4055
2026-01-09 10:48:39.27	32.62	57.16	-45.1	-46.2	15.7	0.00e+00	0	24	0	2362441728	56	4087
2026-01-09 10:48:40.26	31.85	57.03	-45.2	-46.2	15.6	0.00e+00	0	24	0	2367684608	56	4090
2026-01-09 10:48:41.25	31.10	56.90	-45.1	-46.1	15.7	0.00e+00	0	24	0	2373976064	56	4049
2026-01-09 10:48:42.23	30.36	56.77	-45.0	-46.0	15.7	0.00e+00	0	24	0	2379218944	56	3997
2026-01-09 10:48:43.22	29.62	56.63	-45.0	-46.0	15.7	0.00e+00	0	24	0	2384461824	56	3991
2026-01-09 10:48:44.21	28.88	56.49	-44.9	-45.9	15.7	0.00e+00	0	24	0	2389704704	56	3948
2026-01-09 10:48:45.19	28.17	56.34	-44.8	-45.8	15.8	0.00e+00	0	24	0	2395996160	56	3902
2026-01-09 10:48:46.18	27.45	56.19	-44.8	-45.8	15.8	0.00e+00	0	24	0	2401239040	56	3890
2026-01-09 10:48:47.17	26.74	56.04	-44.7	-45.8	15.8	0.00e+00	0	24	0	2406481920	56	3879
2026-01-09 10:48:48.16	26.04	55.88	-44.8	-45.9	15.8	0.00e+00	0	24	0	2412773376	56	3917
2026-01-09 10:48:49.15	25.34	55.72	-44.9	-46.0	15.7	0.00e+00	0	24	0	2418016256	56	3964
2026-01-09 10:48:50.13	24.66	55.56	-44.9	-46.0	15.7	0.00e+00	0	24	0	2423259136	56	3961
2026-01-09 10:48:51.12	23.99	55.39	-45.0	-46.1	15.7	0.00e+00	0	24	0	2428502016	56	4033
2026-01-09 10:48:52.11	23.32	55.22	-45.3	-46.4	15.6	0.00e+00	0	24	0	2434793472	56	4177
2026-01-09 10:48:53.10	22.65	55.04	-45.4	-46.5	15.6	0.00e+00	0	24	0	2440036352	56	4240
2026-01-09 10:48:54.09	22.00	54.86	-45.3	-46.4	15.6	0.00e+00	0	24	0	2445279232	56	4182
2026-01-09 10:48:55.07	21.36	54.68	-45.4	-46.5	15.6	0.00e+00	0	24	0	2451570688	56	4224
2026-01-09 10:48:56.06	20.73	54.50	-45.2	-46.2	15.6	0.00e+00	0	24	0	2456813568	56	4088
2026-01-09 10:48:57.04	20.10	54.31	-45.2	-46.3	15.6	0.00e+00	0	24	0	2462056448	56	4104
2026-01-09 10:48:58.02	19.49	54.12	-45.3	-46.4	15.6	0.00e+00	0	24	0	2467299328	56	4169
2026-01-09 10:48:59.01	18.88	53.93	-45.2	-46.3	15.6	0.00e+00	0	24	0	2473590784	56	4133
2026-01-09 10:48:59.99	18.28	53.74	-45.2	-46.3	15.6	0.00e+00	0	24	0	2478833664	56	4134
2026-01-09 10:49:00.98	17.68	53.54	-45.2	-46.3	15.6	0.00e+00	0	24	0	2484076544	56	4104
2026-01-09 10:49:01.96	17.10	53.34	-45.2	-46.2	15.6	0.00e+00	0	24	0	2490368000	56	4091
2026-01-09 10:49:02.95	16.52	53.14	-45.0	-46.1	15.7	0.00e+00	0	24	0	2495610880	56	4025
2026-01-09 10:49:03.94	15.95	52.93	-45.1	-46.1	15.7	0.00e+00	0	24	0	2500853760	56	4034
2026-01-09 10:49:04.92	15.39	52.73	-45.2	-46.3	15.6	0.00e+00	0	24	0	2506096640	56	4113
2026-01-09 10:49:05.91	14.84	52.52	-45.4	-46.5	15.6	0.00e+00	0	24	0	2512388096	56	4206
2026-01-09 10:49:06.89	14.30	52.31	-45.4	-46.5	15.6	0.00e+00	0	24	0	2517630976	56	4205
2026-01-09 10:49:07.88	13.76	52.10	-45.3	-46.3	15.6	0.00e+00	0	24	0	2522873856	56	4145
2026-01-09 10:49:08.88	13.22	51.89	-45.2	-46.3	15.6	0.00e+00	0	24	0	2529165312	56	4114
2026-01-09 10:49:09.87	12.69	51.67	-45.1	-46.1	15.7	0.00e+00	0	24	0	2534408192	56	4035
2026-01-09 10:49:10.86	12.18	51.45	-45.2	-46.3	15.6	0.00e+00	0	24	0	2539651072	56	4115
2026-01-09 10:49:11.85	11.67	51.24	-45.3	-46.4	15.6	0.00e+00	0	24	0	2545942528	56	4153
2026-01-09 10:49:12.84	11.17	51.02	-45.3	-46.3	15.6	0.00e+00	0	24	0	2551185408	56	4132
2026-01-09 10:49:13.83	10.67	50.80	-45.3	-46.4	15.6	0.00e+00	0	24	0	2556428288	56	4157
2026-01-09 10:49:14.82	10.19	50.57	-45.3	-46.3	15.6	0.00e+00	0	24	0	2561671168	56	4136
2026-01-09 10:49:15.82	9.70	50.35	-45.1	-46.2	15.6	0.00e+00	0	24	0	2567962624	56	4079
2026-01-09 10:49:16.81	9.23	50.12	-45.1	-46.2	15.6	0.00e+00	0	24	0	2573205504	56	4052
2026-01-09 10:49:17.80	8.76	49.90	-44.8	-45.8	15.7	0.00e+00	0	24	0	2579496960	56	3910
2026-01-09 10:49:18.79	8.30	49.67	-44.8	-45.8	15.7	0.00e+00	0	24	0	2584739840	56	3900
2026-01-09 10:49:19.78	7.85	49.45	-44.8	-45.8	15.8	0.00e+00	0	24	0	2589982720	56	3891
2026-01-09 10:49:20.78	7.40	49.22	-44.9	-45.9	15.7	0.00e+00	0	24	0	2595225600	56	3946
2026-01-09 10:49:21.77	6.96	48.99	-44.9	-45.9	15.7	0.00e+00	0	24	0	2601517056	56	3951
2026-01-09 10:49:22.76	6.53	48.76	-44.8	-45.8	15.8	0.00e+00	0	24	0	2606759936	56	3907
2026-01-09 10:49:23.75	6.10	48.53	-44.8	-45.8	15.8	0.00e+00	0	24	0	2612002816	56	3911
2026-01-09 10:49:24.73	5.69	48.30	-44.8	-45.9	15.7	0.00e+00	0	24	0	2618294272	56	3914
2026-01-09 10:49:25.72	5.28	48.07	-45.0	-46.0	15.7	0.00e+00	0	24	0	2623537152	56	4003
2026-01-09 10:49:26.72	4.86	47.84	-45.0	-46.0	15.7	0.00e+00	0	24	0	2628780032	56	3998
2026-01-09 10:49:27.70	4.47	47.61	-44.9	-46.0	15.7	0.00e+00	0	24	0	2635071488	56	3989
2026-01-09 10:49:28.68	4.08	47.38	-45.0	-46.0	15.7	0.00e+00	0	24	0	2640314368	56	3994
2026-01-09 10:49:29.68	3.68	47.15	-44.9	-46.0	15.7	0.00e+00	0	24	0	2645557248	56	3980
2026-01-09 10:49:30.67	3.30	46.92	-44.8	-45.8	15.8	0.00e+00	0	24	0	2650800128	56	3903
2026-01-09 10:49:31.66	2.92	46.69	-44.4	-45.4	15.7	0.00e+00	0	24	0	2657091584	55	3937
2026-01-09 10:49:32.65	2.55	46.45	-44.3	-45.3	15.8	0.00e+00	0	24	0	2662334464	55	3880
2026-01-09 10:49:33.65	2.18	46.22	-44.4	-45.4	15.7	0.00e+00	0	24	0	2668625920	55	3945
2026-01-09 10:49:34.63	1.82	45.99	-44.2	-45.3	15.8	0.00e+00	0	24	0	2673868800	55	3885
2026-01-09 10:49:35.62	1.47	45.76	-44.2	-45.2	15.7	0.00e+00	0	24	0	2679111680	54	4076
2026-01-09 10:49:36.61	1.12	45.53	-44.2	-45.2	15.7	0.00e+00	0	24	0	2684354560	54	4087
2026-01-09 10:49:37.60	0.77	45.30	-44.1	-45.1	15.7	0.00e+00	0	24	0	2690646016	54	4023
2026-01-09 10:49:38.59	0.43	45.06	-44.1	-45.1	15.7	0.00e+00	0	24	0	2695888896	54	4037
2026-01-09 10:49:39.58	0.09	44.83	-44.0	-45.1	15.7	0.00e+00	0	24	0	2701131776	54	4019
2026-01-09 10:49:40.57	359.76	44.60	-44.1	-45.2	15.7	0.00e+00	0	24	0	2707423232	54	4054
2026-01-09 10:49:41.55	359.44	44.37	-43.9	-45.0	15.8	0.00e+00	0	24	0	2712666112	54	3963
2026-01-09 10:49:42.54	359.12	44.14	-43.9	-44.9	15.8	0.00e+00	0	24	0	2717908992	54	3939
2026-01-09 10:49:43.53	358.80	43.92	-44.0	-45.1	15.7	0.00e+00	0	24	0	2724200448	54	4005
2026-01-09 10:49:44.52	358.49	43.69	-44.1	-45.1	15.7	0.00e+00	0	24	0	2729443328	54	4036
2026-01-09 10:49:45.51	358.18	43.46	-44.1	-45.2	15.7	0.00e+00	0	24	0	2734686208	54	4053
2026-01-09 10:49:46.50	357.88	43.23	-44.0	-45.1	15.7	0.00e+00	0	24	0	2740977664	54	4017
2026-01-09 10:49:47.49	357.58	43.00	-44.1	-45.1	15.7	0.00e+00	0	24	0	2746220544	54	4031
2026-01-09 10:49:48.48	357.29	42.77	-44.1	-45.1	15.7	0.00e+00	0	24	0	2751463424	54	4019
2026-01-09 10:49:49.47	357.00	42.55	-44.1	-45.1	15.7	0.00e+00	0	24	0	2756706304	54	4041
2026-01-09 10:49:50.45	356.71	42.32	-44.1	-45.2	15.7	0.00e+00	0	24	0	2762997760	54	4059
2026-01-09 10:49:51.45	356.43	42.09	-44.2	-45.2	15.7	0.00e+00	0	24	0	2768240640	54	4098
2026-01-09 10:49:52.44	356.15	41.87	-44.2	-45.3	15.7	0.00e+00	0	24	0	2773483520	54	4120
2026-01-09 10:49:53.43	355.88	41.64	-44.3	-45.3	15.6	0.00e+00	0	24	0	2779774976	54	4134
2026-01-09 10:49:54.42	355.61	41.42	-44.4	-45.4	15.6	0.00e+00	0	24	0	2785017856	54	4171
2026-01-09 10:49:55.41	355.34	41.20	-44.2	-45.3	15.7	0.00e+00	0	24	0	2790260736	54	4099
2026-01-09 10:49:56.41	355.08	40.97	-44.2	-45.3	15.7	0.00e+00	0	24	0	2796552192	54	4115
2026-01-09 10:49:57.39	354.82	40.75	-44.3	-45.4	15.7	0.00e+00	0	24	0	2801795072	54	4151
2026-01-09 10:49:58.38	354.56	40.53	-44.2	-45.2	15.7	0.00e+00	0	24	0	2807037952	54	4093
2026-01-09 10:49:59.37	354.31	40.31	-44.1	-45.2	15.7	0.00e+00	0	24	0	2812280832	54	4063
2026-01-09 10:50:00.36	354.06	40.09	-44.0	-45.0	15.7	0.00e+00	0	24	0	2818572288	54	3980
2026-01-09 10:50:01.35	353.82	39.87	-44.0	-45.1	15.7	0.00e+00	0	24	0	2823815168	54	4010
2026-01-09 10:50:02.34	353.57	39.65	-43.9	-44.9	15.8	0.00e+00	0	24	0	2830106624	54	3951
2026-01-09 10:50:03.32	353.34	39.44	-44.0	-45.1	15.7	0.00e+00	0	24	0	2835349504	54	4016
2026-01-09 10:50:04.32	353.10	39.22	-44.0	-45.0	15.8	0.00e+00	0	24	0	2840592384	54	4000
2026-01-09 10:50:05.30	352.87	39.01	-43.8	-44.8	15.8	0.00e+00	0	24	0	2845835264	54	3908
2026-01-09 10:50:06.29	352.64	38.79	-43.8	-44.8	15.8	0.00e+00	0	24	0	2852126720	54	3895
2026-01-09 10:50:07.28	352.41	38.58	-43.8	-44.8	15.8	0.00e+00	0	24	0	2857369600	54	3881
2026-01-09 10:50:08.27	352.19	38.36	-43.8	-44.8	15.8	0.00e+00	0	24	0	2862612480	54	3910
2026-01-09 10:50:09.26	351.97	38.15	-43.9	-45.0	15.8	0.00e+00	0	24	0	2868903936	54	3970
2026-01-09 10:50:10.25	351.75	37.94	-44.0	-45.0	15.7	0.00e+00	0	24	0	2874146816	54	4003
2026-01-09 10:50:11.24	351.54	37.73	-44.0	-45.0	15.7	0.00e+00	0	24	0	2879389696	54	3978
2026-01-09 10:50:12.23	351.33	37.52	-44.0	-45.0	15.8	0.00e+00	0	24	0	2885681152	54	3986
2026-01-09 10:50:13.23	351.12	37.31	-43.9	-44.9	15.8	0.00e+00	0	24	0	2890924032	54	3942
2026-01-09 10:50:14.22	350.91	37.10	-43.9	-45.0	15.8	0.00e+00	0	24	0	2896166912	54	3967
2026-01-09 10:50:15.22	350.70	36.89	-44.0	-45.1	15.7	0.00e+00	0	24	0	2901409792	54	4005
2026-01-09 10:50:16.20	350.50	36.68	-44.0	-45.1	15.7	0.00e+00	0	24	0	2907701248	54	4009
2026-01-09 10:50:17.19	350.31	36.48	-44.0	-45.1	15.7	0.00e+00	0	24	0	2912944128	54	4029
2026-01-09 10:50:18.18	350.11	36.27	-44.0	-45.0	15.8	0.00e+00	0	24	0	2918187008	54	4001
2026-01-09 10:50:19.17	349.92	36.07	-43.9	-45.0	15.8	0.00e+00	0	24	0	2924478464	54	3973
2026-01-09 10:50:20.16	349.73	35.87	-44.0	-45.0	15.7	0.00e+00	0	24	0	2929721344	54	3973
2026-01-09 10:50:21.16	349.54	35.66	-44.0	-45.0	15.7	0.00e+00	0	24	0	2934964224	54	3987
2026-01-09 10:50:22.14	349.35	35.46	-44.0	-45.0	15.7	0.00e+00	0	24	0	2941255680	54	3981
2026-01-09 10:50:23.13	349.17	35.26	-44.0	-45.1	15.7	0.00e+00	0	24	0	2946498560	54	4008
2026-01-09 10:50:24.12	348.99	35.06	-44.2	-45.2	15.7	0.00e+00	0	24	0	2951741440	54	4086
2026-01-09 10:50:25.10	348.81	34.87	-44.2	-45.2	15.7	0.00e+00	0	24	0	2958032896	54	4086
2026-01-09 10:50:26.10	348.63	34.67	-44.2	-45.2	15.7	0.00e+00	0	24	0	2963275776	54	4086
2026-01-09 10:50:27.09	348.45	34.47	-44.1	-45.2	15.7	0.00e+00	0	24	0	2968518656	54	4059
2026-01-09 10:50:28.08	348.28	34.28	-44.2	-45.2	15.7	0.00e+00	0	24	0	2973761536	54	4087
2026-01-09 10:50:29.07	348.11	34.08	-44.1	-45.2	15.7	0.00e+00	0	24	0	2980052992	54	4052
2026-01-09 10:50:30.06	347.94	33.89	-44.0	-45.0	15.7	0.00e+00	0	24	0	2985295872	54	3968
2026-01-09 10:50:31.04	347.78	33.70	-43.9	-44.9	15.8	0.00e+00	0	24	0	2991587328	54	3958
2026-01-09 10:50:32.02	347.61	33.51	-43.9	-44.9	15.8	0.00e+00	0	24	0	2996830208	54	3946
2026-01-09 10:50:33.01	347.45	33.32	-43.9	-44.9	15.8	0.00e+00	0	24	0	3002073088	54	3955
2026-01-09 10:50:34.00	347.29	33.13	-44.0	-45.1	15.7	0.00e+00	0	24	0	3007315968	54	4022
2026-01-09 10:50:34.99	347.13	32.94	-44.0	-45.1	15.7	0.00e+00	0	24	0	3013607424	54	4010
2026-01-09 10:50:35.98	346.97	32.75	-44.1	-45.1	15.7	0.00e+00	0	24	0	3018850304	54	4050
2026-01-09 10:50:36.97	346.82	32.56	-44.0	-45.0	15.7	0.00e+00	0	24	0	3024093184	54	4004
2026-01-09 10:50:37.97	346.66	32.38	-44.0	-45.0	15.7	0.00e+00	0	24	0	3030384640	54	3993
2026-01-09 10:50:38.95	346.51	32.19	-44.0	-45.1	15.7	0.00e+00	0	24	0	3035627520	54	4016
2026-01-09 10:50:39.93	346.36	32.01	-44.2	-45.2	15.7	0.00e+00	0	24	0	3040870400	54	4082
2026-01-09 10:50:40.92	346.22	31.83	-44.2	-45.2	15.7	0.00e+00	0	24	0	3046113280	54	4086
2026-01-09 10:50:41.90	346.07	31.65	-44.3	-45.4	15.6	0.00e+00	0	24	0	3052404736	54	4163
2026-01-09 10:50:42.90	345.93	31.46	-44.4	-45.5	15.6	0.00e+00	0	24	0	3057647616	54	4206
2026-01-09 10:50:43.89	345.78	31.28	-44.3	-45.3	15.7	0.00e+00	0	24	0	3062890496	54	4138
2026-01-09 10:50:44.87	345.64	31.10	-44.4	-45.4	15.6	0.00e+00	0	24	0	3069181952	54	4188
2026-01-09 10:50:45.87	345.50	30.92	-44.3	-45.4	15.6	0.00e+00	0	24	0	3074424832	54	4157
2026-01-09 10:50:46.85	345.36	30.75	-44.2	-45.3	15.6	0.00e+00	0	24	0	3079667712	54	4110
2026-01-09 10:50:47.83	345.23	30.57	-44.1	-45.2	15.7	0.00e+00	0	24	0	3084910592	54	4063
2026-01-09 10:50:48.82	345.09	30.39	-44.2	-45.3	15.7	0.00e+00	0	24	0	3091202048	54	4117
2026-01-09 10:50:49.81	344.96	30.22	-44.2	-45.3	15.7	0.00e+00	0	24	0	3096444928	54	4103
2026-01-09 10:50:50.80	344.83	30.04	-44.3	-45.3	15.7	0.00e+00	0	24	0	3101687808	54	4127
2026-01-09 10:50:51.78	344.70	29.87	-44.2	-45.3	15.7	0.00e+00	0	24	0	3107979264	54	4107
2026-01-09 10:50:52.76	344.57	29.70	-44.3	-45.3	15.6	0.00e+00	0	24	0	3113222144	54	4142
2026-01-09 10:50:53.75	344.44	29.53	-44.3	-45.3	15.7	0.00e+00	0	24	0	3118465024	54	4125
2026-01-09 10:50:54.74	344.31	29.36	-44.4	-45.4	15.6	0.00e+00	0	24	0	3124756480	54	4170
2026-01-09 10:50:55.73	344.19	29.19	-44.4	-45.4	15.6	0.00e+00	0	24	0	3129999360	54	4187
2026-01-09 10:50:56.72	344.07	29.02	-44.4	-45.5	15.6	0.00e+00	0	24	0	3135242240	54	4199
2026-01-09 10:50:57.71	343.94	28.85	-44.6	-45.6	15.6	0.00e+00	0	24	0	3140485120	54	4284
2026-01-09 10:50:58.69	343.82	28.69	-44.6	-45.7	15.6	0.00e+00	0	24	0	3146776576	54	4313
2026-01-09 10:50:59.67	343.70	28.52	-44.6	-45.7	15.6	0.00e+00	0	24	0	3152019456	54	4323
2026-01-09 10:51:00.67	343.58	28.35	-44.7	-45.8	15.6	0.00e+00	0	24	0	3157262336	54	4375
2026-01-09 10:51:01.66	343.47	28.19	-44.6	-45.7	15.6	0.00e+00	0	24	0	3163553792	54	4316
2026-01-09 10:51:02.64	343.35	28.03	-44.6	-45.7	15.6	0.00e+00	0	24	0	3168796672	54	4321
2026-01-09 10:51:03.63	343.24	27.86	-44.8	-45.9	15.6	0.00e+00	0	24	0	3174039552	54	4395
2026-01-09 10:51:04.62	343.12	27.70	-44.7	-45.7	15.6	0.00e+00	0	24	0	3179282432	54	4324
2026-01-09 10:51:05.61	343.01	27.54	-44.7	-45.7	15.6	0.00e+00	0	24	0	3185573888	54	4329
2026-01-09 10:51:06.59	342.90	27.38	-44.6	-45.7	15.6	0.00e+00	0	24	0	3190816768	54	4299
2026-01-09 10:51:07.58	342.79	27.22	-44.6	-45.6	15.6	0.00e+00	0	24	0	3196059648	54	4277
2026-01-09 10:51:08.58	342.68	27.06	-44.6	-45.6	15.6	0.00e+00	0	24	0	3202351104	54	4284
2026-01-09 10:51:09.56	342.57	26.90	-44.6	-45.6	15.6	0.00e+00	0	24	0	3207593984	54	4279
2026-01-09 10:51:10.55	342.46	26.74	-44.5	-45.6	15.6	0.00e+00	0	24	0	3212836864	54	4266
2026-01-09 10:51:11.55	342.36	26.59	-44.5	-45.6	15.6	0.00e+00	0	24	0	3219128320	54	4253
2026-01-09 10:51:12.54	342.25	26.43	-44.6	-45.7	15.6	0.00e+00	0	24	0	3224371200	54	4301
2026-01-09 10:51:13.53	342.15	26.27	-44.7	-45.7	15.5	0.00e+00	0	24	0	3229614080	54	4337
2026-01-09 10:51:14.51	342.05	26.12	-44.6	-45.7	15.6	0.00e+00	0	24	0	3235905536	54	4293
2026-01-09 10:51:15.50	341.95	25.97	-44.5	-45.6	15.6	0.00e+00	0	24	0	3241148416	54	4266
2026-01-09 10:51:16.50	341.84	25.81	-44.6	-45.6	15.6	0.00e+00	0	24	0	3246391296	54	4283
2026-01-09 10:51:17.49	341.74	25.66	-44.6	-45.6	15.6	0.00e+00	0	24	0	3252682752	54	4271
2026-01-09 10:51:18.47	341.65	25.51	-44.6	-45.6	15.6	0.00e+00	0	24	0	3257925632	54	4272
2026-01-09 10:51:19.46	341.55	25.36	-44.6	-45.7	15.5	0.00e+00	0	24	0	3263168512	54	4310
2026-01-09 10:51:20.45	341.45	25.21	-44.6	-45.7	15.6	0.00e+00	0	24	0	3269459968	54	4305
2026-01-09 10:51:21.44	341.36	25.06	-44.6	-45.6	15.6	0.00e+00	0	24	0	3274702848	54	4290
2026-01-09 10:51:22.43	341.26	24.91	-44.6	-45.6	15.6	0.00e+00	0	24	0	3279945728	54	4280
2026-01-09 10:51:23.41	341.17	24.77	-44.7	-45.8	15.6	0.00e+00	0	24	0	3285188608	54	4343
2026-01-09 10:51:24.40	341.08	24.62	-44.7	-45.7	15.6	0.00e+00	0	24	0	3291480064	54	4337
2026-01-09 10:51:25.39	340.98	24.47	-44.7	-45.7	15.5	0.00e+00	0	24	0	3296722944	54	4336
2026-01-09 10:51:26.39	340.89	24.33	-44.6	-45.7	15.6	0.00e+00	0	24	0	3301965824	54	4302
2026-01-09 10:51:27.38	340.80	24.18	-44.7	-45.8	15.6	0.00e+00	0	24	0	3308257280	54	4342
2026-01-09 10:51:28.36	340.71	24.04	-44.6	-45.7	15.6	0.00e+00	0	24	0	3313500160	54	4308
2026-01-09 10:51:29.35	340.62	23.90	-44.6	-45.7	15.6	0.00e+00	0	24	0	3318743040	54	4298
2026-01-09 10:51:30.34	340.54	23.75	-44.6	-45.6	15.6	0.00e+00	0	24	0	3325034496	54	4286
2026-01-09 10:51:31.32	340.45	23.61	-44.6	-45.6	15.6	0.00e+00	0	24	0	3330277376	54	4286
2026-01-09 10:51:32.32	340.36	23.47	-44.6	-45.7	15.6	0.00e+00	0	24	0	3335520256	54	4293
2026-01-09 10:51:33.30	340.28	23.33	-44.6	-45.7	15.5	0.00e+00	0	24	0	3340763136	54	4313
2026-01-09 10:51:34.29	340.19	23.19	-44.7	-45.8	15.5	0.00e+00	0	24	0	3347054592	54	4374
2026-01-09 10:51:35.29	340.11	23.05	-44.7	-45.8	15.5	0.00e+00	0	24	0	3352297472	54	4370
2026-01-09 10:51:36.27	340.03	22.92	-44.7	-45.8	15.5	0.00e+00	0	24	0	3357540352	54	4344
2026-01-09 10:51:37.25	339.94	22.78	-44.8	-45.8	15.5	0.00e+00	0	24	0	3363831808	54	4390
2026-01-09 10:51:38.24	339.86	22.64	-44.7	-45.8	15.5	0.00e+00	0	24	0	3369074688	54	4372
2026-01-09 10:51:39.24	339.78	22.50	-44.8	-45.9	15.5	0.00e+00	0	24	0	3374317568	54	4404
2026-01-09 10:51:40.22	339.70	22.37	-44.9	-46.0	15.6	0.00e+00	0	24	0	3379560448	55	4216
2026-01-09 10:51:41.21	339.62	22.24	-44.9	-45.9	15.6	0.00e+00	0	24	0	3385851904	55	4192
2026-01-09 10:51:42.19	339.54	22.10	-45.0	-46.1	15.6	0.00e+00	0	24	0	3391094784	55	4244
2026-01-09 10:51:43.19	339.47	21.97	-44.9	-46.0	15.6	0.00e+00	0	24	0	3397386240	55	4202
2026-01-09 10:51:44.18	339.39	21.83	-45.0	-46.1	15.5	0.00e+00	0	24	0	3402629120	55	4243
2026-01-09 10:51:45.16	339.31	21.70	-44.9	-46.0	15.5	0.00e+00	0	24	0	3407872000	55	4231
2026-01-09 10:51:46.16	339.24	21.57	-45.0	-46.0	15.6	0.00e+00	0	24	0	3413114880	55	4231
2026-01-09 10:51:47.15	339.16	21.44	-45.0	-46.1	15.5	0.00e+00	0	24	0	3419406336	55	4260
2026-01-09 10:51:48.13	339.09	21.31	-45.1	-46.1	15.5	0.00e+00	0	24	0	3424649216	55	4284
2026-01-09 10:51:49.11	339.01	21.18	-45.0	-46.1	15.5	0.00e+00	0	24	0	3429892096	55	4275
2026-01-09 10:51:50.10	338.94	21.05	-45.1	-46.2	15.5	0.00e+00	0	24	0	3436183552	55	4302
2026-01-09 10:51:51.10	338.87	20.92	-45.2	-46.2	15.5	0.00e+00	0	24	0	3441426432	55	4340
2026-01-09 10:51:52.09	338.80	20.79	-45.2	-46.3	15.5	0.00e+00	0	24	0	3446669312	55	4363
2026-01-09 10:51:53.08	338.72	20.67	-45.2	-46.3	15.5	0.00e+00	0	24	0	3451912192	55	4363
2026-01-09 10:51:54.07	338.65	20.54	-45.4	-46.5	15.4	0.00e+00	0	24	0	3458203648	55	4456
2026-01-09 10:51:55.06	338.58	20.41	-45.4	-46.5	15.5	0.00e+00	0	24	0	3463446528	55	4446
2026-01-09 10:51:56.05	338.51	20.29	-45.4	-46.5	15.4	0.00e+00	0	24	0	3468689408	55	4486
2026-01-09 10:51:57.04	338.45	20.16	-45.6	-46.7	15.5	0.00e+00	0	24	0	3474980864	56	4320
2026-01-09 10:51:58.03	338.38	20.04	-45.8	-46.9	15.4	0.00e+00	0	24	0	3480223744	56	4405
2026-01-09 10:51:59.01	338.31	19.91	-45.9	-47.0	15.4	0.00e+00	0	24	0	3485466624	56	4467
2026-01-09 10:52:00.00	338.24	19.79	-45.9	-47.0	15.5	0.00e+00	0	24	0	3491758080	57	4218
2026-01-09 10:52:00.99	338.18	19.67	-45.9	-47.1	15.5	0.00e+00	0	24	0	3497000960	57	4252
2026-01-09 10:52:01.98	338.11	19.54	-46.0	-47.1	15.5	0.00e+00	0	24	0	3502243840	57	4281
2026-01-09 10:52:02.96	338.05	19.42	-46.0	-47.2	15.4	0.00e+00	0	24	0	3507486720	57	4294
2026-01-09 10:52:03.95	337.98	19.30	-45.9	-47.1	15.5	0.00e+00	0	24	0	3513778176	57	4263
2026-01-09 10:52:04.94	337.92	19.18	-46.1	-47.2	15.4	0.00e+00	0	24	0	3519021056	57	4340
2026-01-09 10:52:05.92	337.85	19.06	-46.1	-47.2	15.4	0.00e+00	0	24	0	3524263936	57	4335
2026-01-09 10:52:06.91	337.79	18.94	-46.1	-47.2	15.4	0.00e+00	0	24	0	3530555392	57	4332
2026-01-09 10:52:07.89	337.73	18.83	-46.0	-47.2	15.4	0.00e+00	0	24	0	3535798272	57	4296
2026-01-09 10:52:08.88	337.66	18.71	-46.1	-47.2	15.4	0.00e+00	0	24	0	3541041152	57	4329
2026-01-09 10:52:09.86	337.60	18.59	-46.1	-47.2	15.4	0.00e+00	0	24	0	3546284032	57	4325
2026-01-09 10:52:10.85	337.54	18.47	-45.9	-47.1	15.5	0.00e+00	0	24	0	3552575488	57	4258
2026-01-09 10:52:11.83	337.48	18.36	-45.9	-47.0	15.5	0.00e+00	0	24	0	3557818368	57	4225
2026-01-09 10:52:12.81	337.42	18.24	-45.9	-47.0	15.5	0.00e+00	0	24	0	3563061248	57	4239
2026-01-09 10:52:13.80	337.36	18.13	-45.9	-47.0	15.5	0.00e+00	0	24	0	3569352704	57	4227
2026-01-09 10:52:14.78	337.30	18.01	-45.9	-47.0	15.5	0.00e+00	0	24	0	3574595584	57	4238
2026-01-09 10:52:15.77	337.25	17.90	-45.9	-47.0	15.5	0.00e+00	0	24	0	3579838464	57	4209
2026-01-09 10:52:16.75	337.19	17.78	-45.9	-47.0	15.5	0.00e+00	0	24	0	3586129920	57	4242
2026-01-09 10:52:17.73	337.13	17.67	-46.0	-47.1	15.4	0.00e+00	0	24	0	3591372800	57	4255
2026-01-09 10:52:18.72	337.07	17.56	-45.8	-46.9	15.5	0.00e+00	0	24	0	3596615680	57	4164
2026-01-09 10:52:19.70	337.02	17.45	-45.8	-46.9	15.5	0.00e+00	0	24	0	3601858560	57	4185
2026-01-09 10:52:20.68	336.96	17.33	-46.0	-47.1	15.4	0.00e+00	0	24	0	3607101440	57	4255
2026-01-09 10:52:21.66	336.90	17.22	-45.8	-46.9	15.5	0.00e+00	0	24	0	3613392896	57	4153
2026-01-09 10:52:22.65	336.85	17.11	-45.8	-46.9	15.5	0.00e+00	0	24	0	3618635776	57	4192
2026-01-09 10:52:23.63	336.79	17.00	-45.8	-46.9	15.5	0.00e+00	0	24	0	3623878656	57	4182
2026-01-09 10:52:24.62	336.74	16.89	-45.9	-47.0	15.5	1.10e-06	0	24	0	3630170112	57	4213
2026-01-09 10:52:25.61	336.68	16.78	-46.0	-47.1	15.4	0.00e+00	0	24	0	3635412992	57	4289
2026-01-09 10:52:26.60	336.63	16.67	-46.0	-47.1	15.4	0.00e+00	0	24	0	3640655872	57	4289
