passes_logs/2026/01/09/R3.2S_Murmansk/R3.2S_Murmansk__20260109_214405_SUOMI_NPP_rec.log

#Pass ID: 20260109_214405_SUOMI NPP
#Satellite: SUOMI NPP
#Configuration: NPP
#almurnet v.1.7.20251203
#Start time: 2026-01-09 21:44:05

#Version: 2.2.20231116
#Station: R3.2S_Murmansk
#Location: 33.079688 lon 68.888172 lat
#TLE: 1 37849U 11061A   26008.83076692  .00000095  00000+0  66074-4 0  9997
#TLE: 2 37849  98.7806 310.9327 0002533  74.3004 285.8451 14.19523607735834

#Time	Az	El	Level	Level2	SNR	BER	BlckErr	Temp	State	Recorded	gain1	gain2
2026-01-09 21:44:05.97	18.52	2.04	-57.2	-73.2	3.8	1.49e+00	0	21	0	0	80	22797
2026-01-09 21:44:06.98	18.61	2.09	-57.2	-73.0	3.8	1.49e+00	0	21	104	0	79	23828
2026-01-09 21:44:07.98	18.70	2.14	-57.2	-73.1	3.8	1.49e+00	0	21	104	0	79	23938
2026-01-09 21:44:08.98	18.79	2.19	-57.2	-73.0	3.8	1.49e+00	0	21	104	0	79	23758
2026-01-09 21:44:09.98	18.88	2.24	-57.2	-73.0	3.8	1.49e+00	0	21	104	0	79	23730
2026-01-09 21:44:10.99	18.97	2.29	-57.2	-73.0	3.8	1.49e+00	0	21	104	0	79	23798
2026-01-09 21:44:11.99	19.06	2.34	-57.2	-73.0	3.8	1.49e+00	0	21	104	0	79	23768
2026-01-09 21:44:12.99	19.15	2.39	-57.2	-73.1	3.8	1.49e+00	0	21	104	0	79	23916
2026-01-09 21:44:14.00	19.24	2.44	-57.2	-73.1	3.8	1.49e+00	0	21	104	0	79	24104
2026-01-09 21:44:15.00	19.33	2.48	-57.2	-73.1	3.8	1.49e+00	0	21	104	0	79	24081
2026-01-09 21:44:16.01	19.42	2.53	-57.2	-73.1	3.8	1.49e+00	0	21	104	0	79	24117
2026-01-09 21:44:17.01	19.51	2.58	-57.2	-73.1	3.8	1.49e+00	0	21	104	0	79	24123
2026-01-09 21:44:18.00	19.60	2.63	-57.2	-73.2	3.8	1.49e+00	0	22	104	0	79	24247
2026-01-09 21:44:19.01	19.70	2.68	-57.2	-73.2	3.8	1.49e+00	0	22	104	0	79	24224
2026-01-09 21:44:20.00	19.79	2.73	-57.2	-73.2	3.8	1.49e+00	0	22	104	0	79	24196
2026-01-09 21:44:21.01	19.88	2.78	-57.2	-73.1	3.8	1.49e+00	0	21	104	0	79	24120
2026-01-09 21:44:22.01	19.98	2.83	-57.2	-73.1	3.8	1.49e+00	0	22	104	0	79	24066
2026-01-09 21:44:23.01	20.07	2.88	-57.2	-73.1	3.8	1.49e+00	0	22	104	0	79	24033
2026-01-09 21:44:24.01	20.16	2.93	-57.2	-73.1	3.8	1.49e+00	0	22	104	0	79	24074
2026-01-09 21:44:25.00	20.26	2.97	-57.2	-73.1	3.8	1.49e+00	0	22	104	0	79	23891
2026-01-09 21:44:26.00	20.35	3.02	-57.2	-73.1	3.8	1.49e+00	0	22	104	0	79	24059
2026-01-09 21:44:27.01	20.44	3.07	-57.2	-73.1	3.8	1.49e+00	0	22	104	0	79	24046
2026-01-09 21:44:28.01	20.54	3.12	-57.2	-73.1	3.8	1.49e+00	0	22	104	0	79	24129
2026-01-09 21:44:29.01	20.63	3.17	-57.2	-73.2	3.8	1.49e+00	0	22	104	0	79	24218
2026-01-09 21:44:30.02	20.73	3.22	-57.2	-73.1	3.8	1.49e+00	0	22	104	0	79	24119
2026-01-09 21:44:31.02	20.83	3.27	-57.2	-73.1	3.8	1.49e+00	0	22	104	0	79	24111
2026-01-09 21:44:32.03	20.92	3.32	-57.2	-73.1	3.8	1.49e+00	0	22	104	0	79	24035
2026-01-09 21:44:33.02	21.02	3.37	-57.2	-73.1	3.8	1.49e+00	0	22	104	0	79	24034
2026-01-09 21:44:34.02	21.12	3.42	-57.2	-73.1	3.8	1.49e+00	0	22	104	0	79	24081
2026-01-09 21:44:35.02	21.21	3.47	-57.2	-73.2	3.8	1.49e+00	0	22	104	0	79	24257
2026-01-09 21:44:36.02	21.31	3.52	-57.2	-73.2	3.8	1.49e+00	0	22	104	0	79	24274
2026-01-09 21:44:37.02	21.41	3.57	-57.2	-73.1	3.8	1.49e+00	0	22	104	0	79	24054
2026-01-09 21:44:38.02	21.51	3.62	-57.2	-73.0	3.8	1.49e+00	0	22	104	0	79	23788
2026-01-09 21:44:39.02	21.60	3.67	-57.2	-72.8	3.8	1.49e+00	0	22	104	0	79	23201
2026-01-09 21:44:40.03	21.70	3.72	-57.2	-72.6	3.8	1.49e+00	0	22	104	0	79	22771
2026-01-09 21:44:41.03	21.80	3.77	-57.2	-72.7	3.8	1.49e+00	0	22	104	0	79	22818
2026-01-09 21:44:42.04	21.90	3.82	-57.2	-72.7	3.8	1.49e+00	0	22	104	0	79	23005
2026-01-09 21:44:43.03	22.00	3.86	-57.2	-72.8	3.8	1.49e+00	0	22	104	0	79	23311
2026-01-09 21:44:44.04	22.10	3.91	-57.2	-72.9	3.8	1.49e+00	0	22	104	0	79	23543
2026-01-09 21:44:45.05	22.20	3.96	-57.2	-72.9	3.8	1.49e+00	0	22	104	0	79	23318
2026-01-09 21:44:46.04	22.30	4.01	-57.2	-72.6	3.8	1.49e+00	0	22	104	0	79	22587
2026-01-09 21:44:47.05	22.40	4.06	-57.2	-72.1	3.8	1.49e+00	0	22	104	0	79	21323
2026-01-09 21:44:48.05	22.50	4.11	-57.1	-71.5	3.8	1.49e+00	0	22	104	0	79	20007
2026-01-09 21:44:49.05	22.61	4.16	-57.1	-71.3	3.8	1.49e+00	0	22	104	0	79	19417
2026-01-09 21:44:50.05	22.71	4.21	-57.1	-71.2	3.8	1.49e+00	0	22	104	0	79	19330
2026-01-09 21:44:51.05	22.81	4.26	-57.1	-71.1	3.8	1.48e+00	0	22	104	0	79	18983
2026-01-09 21:44:52.05	22.91	4.31	-57.1	-70.9	3.8	1.48e+00	0	22	104	0	79	18553
2026-01-09 21:44:53.05	23.01	4.36	-57.1	-69.6	4.2	1.46e+00	0	22	0	0	79	16105
2026-01-09 21:44:54.05	23.12	4.41	-56.9	-67.4	5.1	1.03e+00	0	22	0	1048576	79	12412
2026-01-09 21:44:55.05	23.22	4.46	-56.6	-65.3	6.4	2.86e-01	0	22	0	3145728	79	9781
2026-01-09 21:44:56.05	23.32	4.51	-56.3	-63.4	8.0	9.83e-02	0	22	0	5242880	79	7875
2026-01-09 21:44:57.05	23.43	4.56	-55.7	-61.6	9.6	1.60e-02	0	22	0	6291456	78	6729
2026-01-09 21:44:58.04	23.53	4.61	-55.4	-60.6	10.4	2.86e-03	0	22	0	8388608	77	6414
2026-01-09 21:44:59.03	23.63	4.66	-55.3	-60.3	10.7	1.13e-03	0	22	0	10485760	77	6189
2026-01-09 21:45:00.04	23.74	4.71	-55.2	-60.2	10.8	5.58e-04	0	22	0	12582912	77	6074
2026-01-09 21:45:01.04	23.85	4.76	-55.2	-60.3	10.6	4.58e-04	0	22	0	13631488	76	6547
2026-01-09 21:45:02.04	23.95	4.81	-55.3	-60.6	10.4	7.54e-04	0	22	0	15728640	76	6728
2026-01-09 21:45:03.03	24.06	4.86	-55.4	-60.8	10.1	1.01e-03	0	22	0	17825792	76	6945
2026-01-09 21:45:04.03	24.16	4.91	-55.8	-61.9	9.2	3.96e-03	0	23	0	19922944	76	7862
2026-01-09 21:45:05.03	24.27	4.96	-56.0	-62.6	8.7	1.61e-02	0	22	0	22020096	77	8040
2026-01-09 21:45:06.03	24.38	5.01	-56.3	-64.1	7.3	6.74e-02	0	22	0	23068672	77	9545
2026-01-09 21:45:07.03	24.48	5.06	-55.4	-60.7	10.4	5.11e-03	0	22	0	25165824	77	6453
2026-01-09 21:45:08.03	24.59	5.11	-56.8	-69.3	4.2	1.89e-01	0	22	0	27262976	78	16355
2026-01-09 21:45:09.03	24.70	5.16	-56.1	-62.2	9.3	6.46e-03	0	23	0	28311552	78	7260
2026-01-09 21:45:10.02	24.81	5.21	-53.5	-56.7	13.2	7.60e-06	0	22	0	30408704	73	5125
2026-01-09 21:45:11.02	24.92	5.26	-57.0	-67.1	5.4	7.52e-02	0	22	0	32505856	79	11976
2026-01-09 21:45:12.01	25.02	5.31	-53.5	-56.7	13.2	1.19e-01	0	23	0	34603008	73	5122
2026-01-09 21:45:13.01	25.13	5.36	-53.1	-56.0	13.6	0.00e+00	0	22	0	36700160	72	5000
2026-01-09 21:45:14.01	25.24	5.41	-52.9	-55.6	13.8	0.00e+00	0	22	0	37748736	72	4806
2026-01-09 21:45:15.01	25.35	5.46	-52.9	-55.7	13.8	0.00e+00	0	22	0	39845888	72	4852
2026-01-09 21:45:16.01	25.46	5.51	-53.0	-55.9	13.7	0.00e+00	0	22	0	41943040	72	4931
2026-01-09 21:45:17.02	25.58	5.56	-52.9	-55.7	13.8	0.00e+00	0	23	0	44040192	72	4856
2026-01-09 21:45:18.02	25.69	5.61	-52.8	-55.6	13.9	0.00e+00	0	22	0	46137344	72	4769
2026-01-09 21:45:19.02	25.80	5.66	-52.7	-55.4	14.0	0.00e+00	0	22	0	47185920	72	4696
2026-01-09 21:45:20.01	25.91	5.71	-52.7	-55.4	13.9	0.00e+00	0	22	0	49283072	71	4933
2026-01-09 21:45:21.01	26.02	5.76	-52.7	-55.4	13.9	0.00e+00	0	23	0	51380224	71	4950
2026-01-09 21:45:22.02	26.14	5.81	-52.5	-55.1	14.1	0.00e+00	0	23	0	53477376	71	4787
2026-01-09 21:45:23.02	26.25	5.86	-52.5	-55.0	14.1	0.00e+00	0	22	0	54525952	71	4751
2026-01-09 21:45:24.02	26.36	5.91	-52.4	-54.9	14.2	0.00e+00	0	22	0	56623104	71	4674
2026-01-09 21:45:25.01	26.48	5.96	-52.4	-55.0	14.1	0.00e+00	0	23	0	58720256	71	4721
2026-01-09 21:45:26.01	26.59	6.01	-52.4	-54.9	14.2	0.00e+00	0	23	0	60817408	71	4675
2026-01-09 21:45:27.01	26.71	6.06	-52.3	-54.8	14.3	0.00e+00	0	23	0	62914560	71	4616
2026-01-09 21:45:28.02	26.82	6.11	-52.3	-54.8	14.3	0.00e+00	0	23	0	63963136	71	4642
2026-01-09 21:45:29.02	26.94	6.16	-52.4	-54.9	14.2	0.00e+00	0	23	0	66060288	71	4692
2026-01-09 21:45:30.02	27.05	6.21	-52.5	-55.1	14.1	0.00e+00	0	23	0	68157440	71	4763
2026-01-09 21:45:31.02	27.17	6.26	-52.5	-55.0	14.1	0.00e+00	0	23	0	70254592	71	4756
2026-01-09 21:45:32.02	27.29	6.31	-52.6	-55.2	14.0	0.00e+00	0	22	0	72351744	71	4845
2026-01-09 21:45:33.01	27.40	6.36	-52.4	-54.9	14.2	0.00e+00	0	23	0	73400320	71	4705
2026-01-09 21:45:34.01	27.52	6.41	-52.6	-55.2	14.1	0.00e+00	0	23	0	75497472	71	4829
2026-01-09 21:45:35.01	27.64	6.46	-52.5	-55.0	14.2	0.00e+00	0	23	0	77594624	71	4742
2026-01-09 21:45:36.00	27.75	6.51	-52.6	-55.2	14.1	0.00e+00	0	23	0	79691776	71	4838
2026-01-09 21:45:37.00	27.87	6.56	-52.7	-55.3	14.0	0.00e+00	0	23	0	80740352	71	4891
2026-01-09 21:45:38.00	27.99	6.61	-52.8	-55.4	13.8	0.00e+00	0	23	0	82837504	71	4982
2026-01-09 21:45:38.99	28.11	6.66	-52.8	-55.5	13.8	0.00e+00	0	23	0	84934656	71	4988
2026-01-09 21:45:39.99	28.23	6.71	-52.8	-55.4	13.9	0.00e+00	0	23	0	87031808	71	4962
2026-01-09 21:45:41.00	28.35	6.76	-52.7	-55.4	13.9	0.00e+00	0	23	0	89128960	71	4955
2026-01-09 21:45:42.00	28.47	6.81	-52.7	-55.3	13.9	0.00e+00	0	23	0	90177536	71	4902
2026-01-09 21:45:43.00	28.59	6.86	-52.8	-55.5	13.9	0.00e+00	0	23	0	92274688	71	5009
2026-01-09 21:45:44.00	28.71	6.92	-52.7	-55.3	14.0	0.00e+00	0	23	0	94371840	71	4886
2026-01-09 21:45:45.00	28.84	6.97	-52.9	-55.6	13.8	0.00e+00	0	23	0	96468992	71	5093
2026-01-09 21:45:45.99	28.96	7.01	-52.8	-55.5	13.8	0.00e+00	0	23	0	98566144	71	5027
2026-01-09 21:45:46.99	29.08	7.07	-52.6	-55.3	14.0	0.00e+00	0	23	0	99614720	71	4886
2026-01-09 21:45:48.00	29.20	7.12	-52.8	-55.4	13.9	0.00e+00	0	23	0	101711872	71	4970
2026-01-09 21:45:48.99	29.32	7.17	-52.8	-55.5	13.8	0.00e+00	0	23	0	103809024	71	5035
2026-01-09 21:45:49.99	29.45	7.22	-52.9	-55.6	13.8	0.00e+00	0	23	0	105906176	71	5098
2026-01-09 21:45:50.99	29.57	7.27	-52.6	-55.2	14.0	0.00e+00	0	23	0	106954752	71	4866
2026-01-09 21:45:51.99	29.70	7.32	-52.7	-55.3	14.0	0.00e+00	0	23	0	109051904	71	4901
2026-01-09 21:45:52.99	29.82	7.37	-52.8	-55.5	13.9	0.00e+00	0	23	0	111149056	71	5039
2026-01-09 21:45:53.99	29.95	7.42	-52.7	-55.4	13.9	0.00e+00	0	23	0	113246208	71	4952
2026-01-09 21:45:54.98	30.07	7.47	-52.7	-55.3	14.0	0.00e+00	0	23	0	115343360	71	4891
2026-01-09 21:45:55.98	30.20	7.52	-52.6	-55.2	14.0	0.00e+00	0	23	0	116391936	71	4861
2026-01-09 21:45:56.97	30.32	7.56	-52.7	-55.3	14.1	0.00e+00	0	23	0	118489088	71	4895
2026-01-09 21:45:57.96	30.45	7.61	-52.6	-55.2	14.0	0.00e+00	0	23	0	120586240	71	4845
2026-01-09 21:45:58.95	30.58	7.66	-52.7	-55.3	14.1	0.00e+00	0	23	0	122683392	71	4890
2026-01-09 21:45:59.96	30.70	7.71	-52.7	-55.3	14.0	0.00e+00	0	23	0	123731968	71	4890
2026-01-09 21:46:00.95	30.83	7.76	-52.6	-55.2	14.1	0.00e+00	0	23	0	125829120	71	4848
2026-01-09 21:46:01.95	30.96	7.81	-52.7	-55.4	14.0	0.00e+00	0	23	0	127926272	71	4943
2026-01-09 21:46:02.94	31.09	7.86	-52.6	-55.2	14.1	0.00e+00	0	23	0	130023424	71	4849
2026-01-09 21:46:03.94	31.22	7.91	-52.5	-55.1	14.2	0.00e+00	0	23	0	132120576	71	4768
2026-01-09 21:46:04.94	31.35	7.96	-52.4	-54.9	14.2	0.00e+00	0	23	0	133169152	71	4691
2026-01-09 21:46:05.94	31.48	8.01	-52.5	-55.0	14.2	0.00e+00	0	23	0	135266304	71	4743
2026-01-09 21:46:06.93	31.61	8.06	-52.3	-54.7	14.4	0.00e+00	0	23	0	137363456	71	4576
2026-01-09 21:46:07.93	31.74	8.11	-52.2	-54.6	14.5	0.00e+00	0	23	0	139460608	71	4506
2026-01-09 21:46:08.93	31.87	8.16	-52.1	-54.5	14.3	0.00e+00	0	23	0	141557760	70	4745
2026-01-09 21:46:09.93	32.00	8.21	-52.0	-54.3	14.5	0.00e+00	0	23	0	142606336	70	4639
2026-01-09 21:46:10.92	32.13	8.26	-52.1	-54.4	14.4	0.00e+00	0	23	0	144703488	70	4676
2026-01-09 21:46:11.93	32.27	8.31	-52.1	-54.4	14.4	0.00e+00	0	23	0	146800640	70	4701
2026-01-09 21:46:12.92	32.40	8.36	-52.0	-54.3	14.5	0.00e+00	0	23	0	148897792	70	4611
2026-01-09 21:46:13.93	32.54	8.41	-52.0	-54.4	14.5	0.00e+00	0	23	0	150994944	70	4665
2026-01-09 21:46:14.93	32.67	8.46	-52.1	-54.4	14.4	0.00e+00	0	23	0	152043520	70	4687
2026-01-09 21:46:15.92	32.80	8.51	-51.9	-54.2	14.5	0.00e+00	0	23	0	154140672	70	4589
2026-01-09 21:46:16.92	32.94	8.56	-51.9	-54.2	14.6	0.00e+00	0	23	0	156237824	70	4553
2026-01-09 21:46:17.92	33.07	8.61	-51.9	-54.1	14.6	0.00e+00	0	23	0	158334976	70	4524
2026-01-09 21:46:18.92	33.21	8.66	-51.8	-54.0	14.7	0.00e+00	0	23	0	159383552	70	4460
2026-01-09 21:46:19.92	33.35	8.71	-51.6	-53.7	14.7	0.00e+00	0	23	0	161480704	69	4581
2026-01-09 21:46:20.92	33.48	8.76	-51.6	-53.8	14.6	0.00e+00	0	23	0	163577856	69	4604
2026-01-09 21:46:21.91	33.62	8.80	-51.4	-53.5	14.8	0.00e+00	0	23	0	165675008	69	4451
2026-01-09 21:46:22.91	33.76	8.85	-51.4	-53.5	14.8	0.00e+00	0	23	0	167772160	69	4485
2026-01-09 21:46:23.91	33.90	8.90	-51.3	-53.4	14.9	0.00e+00	0	23	0	168820736	69	4395
2026-01-09 21:46:24.91	34.03	8.95	-51.4	-53.5	14.8	0.00e+00	0	23	0	170917888	69	4468
2026-01-09 21:46:25.90	34.17	9.00	-51.4	-53.5	14.8	0.00e+00	0	23	0	173015040	69	4474
2026-01-09 21:46:26.90	34.31	9.05	-51.4	-53.6	14.8	0.00e+00	0	23	0	175112192	69	4512
2026-01-09 21:46:27.89	34.45	9.10	-51.5	-53.7	14.7	0.00e+00	0	23	0	176160768	69	4568
2026-01-09 21:46:28.89	34.59	9.15	-51.6	-53.8	14.7	0.00e+00	0	23	0	178257920	69	4605
2026-01-09 21:46:29.89	34.73	9.20	-51.6	-53.8	14.6	0.00e+00	0	23	0	180355072	69	4648
2026-01-09 21:46:30.90	34.87	9.25	-51.6	-53.8	14.6	0.00e+00	0	23	0	182452224	69	4614
2026-01-09 21:46:31.91	35.02	9.29	-51.6	-53.8	14.6	0.00e+00	0	23	0	184549376	69	4629
2026-01-09 21:46:32.90	35.16	9.34	-51.7	-53.9	14.6	0.00e+00	0	23	0	185597952	69	4669
2026-01-09 21:46:33.90	35.30	9.39	-51.6	-53.8	14.7	0.00e+00	0	23	0	187695104	69	4618
2026-01-09 21:46:34.90	35.45	9.44	-51.5	-53.7	14.7	0.00e+00	0	23	0	189792256	69	4580
2026-01-09 21:46:35.90	35.59	9.49	-51.5	-53.7	14.7	0.00e+00	0	23	0	191889408	69	4565
2026-01-09 21:46:36.89	35.73	9.54	-51.5	-53.7	14.7	0.00e+00	0	23	0	193986560	69	4572
2026-01-09 21:46:37.89	35.88	9.59	-51.6	-53.7	14.7	0.00e+00	0	23	0	195035136	69	4598
2026-01-09 21:46:38.89	36.02	9.63	-51.6	-53.8	14.6	0.00e+00	0	23	0	197132288	69	4642
2026-01-09 21:46:39.89	36.17	9.68	-51.5	-53.6	14.7	0.00e+00	0	23	0	199229440	69	4544
2026-01-09 21:46:40.89	36.31	9.73	-51.6	-53.8	14.7	0.00e+00	0	23	0	201326592	69	4599
2026-01-09 21:46:41.89	36.46	9.78	-51.6	-53.8	14.7	0.00e+00	0	23	0	202375168	69	4612
2026-01-09 21:46:42.90	36.61	9.83	-51.6	-53.8	14.6	0.00e+00	0	23	0	204472320	69	4639
2026-01-09 21:46:43.90	36.76	9.88	-51.7	-54.0	14.5	0.00e+00	0	23	0	206569472	69	4708
2026-01-09 21:46:44.90	36.90	9.92	-51.7	-53.9	14.6	0.00e+00	0	23	0	208666624	69	4694
2026-01-09 21:46:45.90	37.05	9.97	-51.7	-54.0	14.5	0.00e+00	0	23	0	210763776	69	4740
2026-01-09 21:46:46.90	37.20	10.02	-51.7	-54.0	14.6	0.00e+00	0	23	0	211812352	69	4710
2026-01-09 21:46:47.90	37.35	10.07	-51.8	-54.0	14.5	0.00e+00	0	23	0	213909504	69	4735
2026-01-09 21:46:48.89	37.50	10.11	-51.7	-53.9	14.5	0.00e+00	0	23	0	216006656	69	4704
2026-01-09 21:46:49.89	37.65	10.16	-51.6	-53.9	14.6	0.00e+00	0	23	0	218103808	69	4661
2026-01-09 21:46:50.89	37.80	10.21	-51.6	-53.8	14.7	0.00e+00	0	23	0	220200960	69	4609
2026-01-09 21:46:51.89	37.95	10.26	-51.6	-53.8	14.7	0.00e+00	0	23	0	221249536	69	4620
2026-01-09 21:46:52.89	38.10	10.30	-51.7	-54.0	14.5	0.00e+00	0	23	0	223346688	69	4720
2026-01-09 21:46:53.89	38.25	10.35	-51.6	-53.9	14.6	0.00e+00	0	23	0	225443840	69	4665
2026-01-09 21:46:54.89	38.41	10.40	-51.7	-54.0	14.5	0.00e+00	0	23	0	227540992	69	4729
2026-01-09 21:46:55.89	38.56	10.45	-51.7	-53.9	14.6	0.00e+00	0	23	0	229638144	69	4681
2026-01-09 21:46:56.89	38.71	10.49	-51.6	-53.9	14.6	0.00e+00	0	23	0	230686720	69	4673
2026-01-09 21:46:57.90	38.87	10.54	-51.6	-53.8	14.7	0.00e+00	0	23	0	232783872	69	4619
2026-01-09 21:46:58.90	39.02	10.59	-51.5	-53.7	14.7	0.00e+00	0	23	0	234881024	69	4590
2026-01-09 21:46:59.90	39.18	10.63	-51.5	-53.7	14.7	0.00e+00	0	23	0	236978176	69	4584
2026-01-09 21:47:00.90	39.33	10.68	-51.5	-53.6	14.8	0.00e+00	0	23	0	238026752	69	4527
2026-01-09 21:47:01.90	39.49	10.73	-51.6	-53.7	14.7	0.00e+00	0	23	0	240123904	69	4593
2026-01-09 21:47:02.89	39.65	10.77	-51.6	-53.8	14.7	0.00e+00	0	23	0	242221056	69	4623
2026-01-09 21:47:03.89	39.80	10.82	-51.7	-54.0	14.6	0.00e+00	0	23	0	244318208	69	4724
2026-01-09 21:47:04.89	39.96	10.87	-51.9	-54.2	14.4	0.00e+00	0	23	0	246415360	69	4851
2026-01-09 21:47:05.88	40.12	10.91	-51.9	-54.2	14.4	0.00e+00	0	23	0	247463936	69	4849
2026-01-09 21:47:06.87	40.27	10.96	-52.0	-54.4	14.3	0.00e+00	0	23	0	249561088	69	4927
2026-01-09 21:47:07.87	40.43	11.00	-52.0	-54.4	14.3	0.00e+00	0	23	0	251658240	69	4973
2026-01-09 21:47:08.86	40.59	11.05	-52.0	-54.5	14.3	0.00e+00	0	23	0	253755392	69	4988
2026-01-09 21:47:09.86	40.75	11.09	-51.9	-54.2	14.4	0.00e+00	0	23	0	254803968	69	4862
2026-01-09 21:47:10.86	40.91	11.14	-52.0	-54.4	14.3	0.00e+00	0	23	0	256901120	69	4932
2026-01-09 21:47:11.86	41.07	11.19	-51.9	-54.2	14.4	0.00e+00	0	23	0	258998272	69	4867
2026-01-09 21:47:12.85	41.23	11.23	-51.9	-54.3	14.4	0.00e+00	0	23	0	261095424	69	4880
2026-01-09 21:47:13.85	41.39	11.28	-52.1	-54.5	14.2	0.00e+00	0	23	0	263192576	69	5020
2026-01-09 21:47:14.85	41.55	11.32	-52.1	-54.5	14.1	0.00e+00	0	23	0	264241152	69	5037
2026-01-09 21:47:15.85	41.72	11.37	-52.0	-54.5	14.2	0.00e+00	0	23	0	266338304	69	4996
2026-01-09 21:47:16.85	41.88	11.41	-52.0	-54.5	14.3	0.00e+00	0	23	0	268435456	69	5006
2026-01-09 21:47:17.85	42.04	11.46	-52.1	-54.7	14.1	0.00e+00	0	23	0	270532608	69	5110
2026-01-09 21:47:18.86	42.21	11.50	-52.1	-54.6	14.2	0.00e+00	0	23	0	272629760	69	5073
2026-01-09 21:47:19.85	42.37	11.54	-52.1	-54.5	14.2	0.00e+00	0	23	0	273678336	69	5030
2026-01-09 21:47:20.84	42.54	11.59	-52.0	-54.5	14.3	0.00e+00	0	23	0	275775488	69	5016
2026-01-09 21:47:21.84	42.70	11.63	-52.0	-54.5	14.3	0.00e+00	0	23	0	277872640	69	5001
2026-01-09 21:47:22.84	42.87	11.68	-52.0	-54.4	14.3	0.00e+00	0	23	0	279969792	69	4973
2026-01-09 21:47:23.84	43.04	11.72	-51.9	-54.3	14.4	0.00e+00	0	23	0	282066944	69	4900
2026-01-09 21:47:24.85	43.20	11.77	-52.0	-54.4	14.3	0.00e+00	0	23	0	283115520	69	4935
2026-01-09 21:47:25.84	43.37	11.81	-51.9	-54.3	14.4	0.00e+00	0	23	0	285212672	69	4883
2026-01-09 21:47:26.84	43.54	11.85	-51.9	-54.3	14.4	0.00e+00	0	23	0	287309824	69	4892
2026-01-09 21:47:27.84	43.71	11.90	-52.0	-54.5	14.3	0.00e+00	0	23	0	289406976	69	4987
2026-01-09 21:47:28.84	43.88	11.94	-52.1	-54.5	14.2	0.00e+00	0	23	0	290455552	69	5021
2026-01-09 21:47:29.83	44.04	11.98	-52.2	-54.7	14.2	0.00e+00	0	23	0	292552704	69	5110
2026-01-09 21:47:30.83	44.21	12.03	-52.1	-54.5	14.2	0.00e+00	0	23	0	294649856	69	5037
2026-01-09 21:47:31.83	44.38	12.07	-52.2	-54.8	14.1	0.00e+00	0	23	0	296747008	69	5167
2026-01-09 21:47:32.83	44.56	12.11	-52.2	-54.7	14.1	0.00e+00	0	23	0	298844160	69	5123
2026-01-09 21:47:33.82	44.73	12.15	-52.4	-55.0	14.0	0.00e+00	0	23	0	299892736	69	5315
2026-01-09 21:47:34.83	44.90	12.20	-52.4	-55.0	14.1	0.00e+00	0	23	0	301989888	70	5037
2026-01-09 21:47:35.83	45.07	12.24	-52.5	-55.1	14.0	0.00e+00	0	23	0	304087040	70	5100
2026-01-09 21:47:36.83	45.24	12.28	-52.6	-55.3	13.9	0.00e+00	0	23	0	306184192	70	5169
2026-01-09 21:47:37.82	45.42	12.32	-52.6	-55.2	13.9	0.00e+00	0	23	0	308281344	70	5156
2026-01-09 21:47:38.81	45.59	12.36	-52.6	-55.3	13.9	0.00e+00	0	23	0	309329920	70	5160
2026-01-09 21:47:39.81	45.76	12.41	-52.5	-55.1	14.0	0.00e+00	0	23	0	311427072	70	5073
2026-01-09 21:47:40.81	45.94	12.45	-52.5	-55.2	14.0	0.00e+00	0	23	0	313524224	70	5128
2026-01-09 21:47:41.81	46.11	12.49	-52.6	-55.3	14.0	0.00e+00	0	23	0	315621376	70	5180
2026-01-09 21:47:42.81	46.29	12.53	-52.6	-55.3	13.9	0.00e+00	0	23	0	316669952	70	5179
2026-01-09 21:47:43.81	46.46	12.57	-52.7	-55.3	13.9	0.00e+00	0	23	0	318767104	70	5214
2026-01-09 21:47:44.81	46.64	12.61	-52.8	-55.6	13.8	0.00e+00	0	23	0	320864256	70	5349
2026-01-09 21:47:45.81	46.82	12.65	-52.9	-55.8	13.8	0.00e+00	0	23	0	322961408	71	5183
2026-01-09 21:47:46.81	47.00	12.69	-53.0	-55.8	13.7	0.00e+00	0	23	0	325058560	71	5212
2026-01-09 21:47:47.82	47.18	12.73	-53.0	-55.9	13.7	0.00e+00	0	23	0	326107136	71	5278
2026-01-09 21:47:48.82	47.35	12.77	-53.0	-56.0	13.7	0.00e+00	0	23	0	328204288	71	5290
2026-01-09 21:47:49.81	47.53	12.81	-53.0	-55.9	13.7	0.00e+00	0	23	0	330301440	71	5251
2026-01-09 21:47:50.81	47.71	12.85	-52.9	-55.8	13.8	0.00e+00	0	23	0	332398592	71	5163
2026-01-09 21:47:51.80	47.89	12.89	-52.8	-55.6	13.8	0.00e+00	0	23	0	333447168	71	5091
2026-01-09 21:47:52.80	48.07	12.93	-52.9	-55.7	13.9	0.00e+00	0	23	0	335544320	71	5122
2026-01-09 21:47:53.79	48.25	12.97	-52.9	-55.8	13.8	0.00e+00	0	23	0	337641472	71	5173
2026-01-09 21:47:54.79	48.43	13.01	-53.0	-55.8	13.7	0.00e+00	0	23	0	339738624	71	5198
2026-01-09 21:47:55.79	48.61	13.05	-53.0	-55.9	13.7	0.00e+00	0	23	0	341835776	71	5224
2026-01-09 21:47:56.79	48.80	13.09	-53.1	-56.0	13.6	0.00e+00	0	23	0	342884352	71	5323
2026-01-09 21:47:57.79	48.98	13.12	-53.1	-56.0	13.6	0.00e+00	0	23	0	344981504	71	5303
2026-01-09 21:47:58.78	49.16	13.16	-53.0	-55.8	13.7	0.00e+00	0	23	0	347078656	71	5198
2026-01-09 21:47:59.77	49.34	13.20	-53.0	-55.9	13.7	0.00e+00	0	23	0	349175808	71	5239
2026-01-09 21:48:00.76	49.52	13.24	-52.9	-55.7	13.8	0.00e+00	0	23	0	350224384	71	5138
2026-01-09 21:48:01.76	49.71	13.27	-52.8	-55.5	14.0	0.00e+00	0	23	0	352321536	71	4998
2026-01-09 21:48:02.77	49.90	13.31	-52.8	-55.5	14.0	0.00e+00	0	23	0	354418688	71	4993
2026-01-09 21:48:03.76	50.08	13.35	-52.8	-55.5	14.0	0.00e+00	0	23	0	356515840	71	4995
2026-01-09 21:48:04.75	50.26	13.39	-53.0	-55.7	13.8	0.00e+00	0	23	0	358612992	71	5147
2026-01-09 21:48:05.74	50.45	13.42	-53.0	-55.9	13.8	0.00e+00	0	23	0	359661568	71	5220
2026-01-09 21:48:06.73	50.63	13.46	-53.2	-56.1	13.6	0.00e+00	0	23	0	361758720	71	5360
2026-01-09 21:48:07.73	50.82	13.49	-53.1	-55.9	13.7	0.00e+00	0	23	0	363855872	71	5273
2026-01-09 21:48:08.73	51.01	13.53	-53.1	-55.9	13.7	0.00e+00	0	23	0	365953024	71	5279
2026-01-09 21:48:09.72	51.19	13.57	-53.1	-56.0	13.6	0.00e+00	0	23	0	368050176	71	5298
2026-01-09 21:48:10.72	51.38	13.60	-53.0	-55.8	13.8	0.00e+00	0	23	0	369098752	71	5170
2026-01-09 21:48:11.72	51.57	13.64	-53.0	-55.8	13.8	0.00e+00	0	23	0	371195904	71	5162
2026-01-09 21:48:12.71	51.76	13.67	-52.9	-55.6	13.8	0.00e+00	0	23	0	373293056	71	5099
2026-01-09 21:48:13.71	51.95	13.71	-52.7	-55.4	14.0	0.00e+00	0	23	0	375390208	71	4941
2026-01-09 21:48:14.70	52.14	13.74	-52.7	-55.3	14.1	0.00e+00	0	23	0	376438784	71	4923
2026-01-09 21:48:15.71	52.33	13.77	-52.7	-55.3	14.1	0.00e+00	0	23	0	378535936	71	4922
2026-01-09 21:48:16.70	52.52	13.81	-52.8	-55.4	14.0	0.00e+00	0	23	0	380633088	71	4973
2026-01-09 21:48:17.70	52.71	13.84	-52.6	-55.2	14.2	0.00e+00	0	23	0	382730240	71	4826
2026-01-09 21:48:18.69	52.90	13.88	-52.6	-55.1	14.2	0.00e+00	0	23	0	384827392	71	4779
2026-01-09 21:48:19.69	53.09	13.91	-52.2	-54.5	14.6	0.00e+00	0	23	0	385875968	71	4459
2026-01-09 21:48:20.69	53.29	13.94	-52.1	-54.4	14.5	0.00e+00	0	23	0	387973120	70	4662
2026-01-09 21:48:21.69	53.48	13.98	-52.2	-54.6	14.4	0.00e+00	0	23	0	390070272	70	4777
2026-01-09 21:48:22.69	53.68	14.01	-51.8	-54.0	14.7	0.00e+00	0	23	0	392167424	70	4469
2026-01-09 21:48:23.69	53.87	14.04	-51.8	-53.9	14.8	0.00e+00	0	23	0	394264576	70	4423
2026-01-09 21:48:24.68	54.06	14.07	-51.5	-53.6	14.8	0.00e+00	0	23	0	395313152	69	4526
2026-01-09 21:48:25.68	54.26	14.10	-51.5	-53.6	14.8	0.00e+00	0	23	0	397410304	69	4536
2026-01-09 21:48:26.68	54.45	14.14	-51.5	-53.6	14.8	0.00e+00	0	23	0	399507456	69	4514
2026-01-09 21:48:27.68	54.65	14.17	-51.5	-53.6	14.8	0.00e+00	0	23	0	401604608	69	4507
2026-01-09 21:48:28.68	54.84	14.20	-51.6	-53.7	14.7	0.00e+00	0	23	0	402653184	69	4562
2026-01-09 21:48:29.67	55.04	14.23	-51.5	-53.6	14.8	0.00e+00	0	23	0	404750336	69	4498
2026-01-09 21:48:30.67	55.24	14.26	-51.6	-53.7	14.7	0.00e+00	0	23	0	406847488	69	4561
2026-01-09 21:48:31.66	55.43	14.29	-51.7	-53.8	14.7	0.00e+00	0	23	0	408944640	69	4642
2026-01-09 21:48:32.66	55.63	14.32	-51.9	-54.2	14.4	0.00e+00	0	23	0	411041792	69	4818
2026-01-09 21:48:33.66	55.83	14.35	-52.0	-54.2	14.4	0.00e+00	0	23	0	412090368	69	4867
2026-01-09 21:48:34.66	56.03	14.38	-51.7	-53.9	14.6	0.00e+00	0	23	0	414187520	69	4677
2026-01-09 21:48:35.65	56.22	14.41	-51.6	-53.8	14.7	0.00e+00	0	23	0	416284672	69	4602
2026-01-09 21:48:36.65	56.42	14.44	-51.5	-53.6	14.8	0.00e+00	0	23	0	418381824	69	4497
2026-01-09 21:48:37.64	56.62	14.46	-51.4	-53.5	14.9	0.00e+00	0	23	0	419430400	69	4449
2026-01-09 21:48:38.64	56.82	14.49	-51.3	-53.3	15.0	0.00e+00	0	23	0	421527552	69	4343
2026-01-09 21:48:39.64	57.02	14.52	-51.3	-53.4	14.7	0.00e+00	0	23	0	423624704	68	4662
2026-01-09 21:48:40.64	57.22	14.55	-51.5	-53.5	14.7	0.00e+00	0	23	0	425721856	68	4754
2026-01-09 21:48:41.64	57.42	14.58	-51.7	-53.9	14.5	0.00e+00	0	23	0	427819008	68	4959
2026-01-09 21:48:42.64	57.63	14.60	-51.8	-54.0	14.6	0.00e+00	0	23	0	428867584	69	4718
2026-01-09 21:48:43.64	57.83	14.63	-51.8	-54.0	14.6	0.00e+00	0	23	0	430964736	69	4755
2026-01-09 21:48:44.64	58.03	14.66	-51.8	-54.0	14.6	0.00e+00	0	23	0	433061888	69	4740
2026-01-09 21:48:45.64	58.23	14.68	-51.8	-53.9	14.6	0.00e+00	0	23	0	435159040	69	4690
2026-01-09 21:48:46.63	58.43	14.71	-51.6	-53.7	14.7	0.00e+00	0	23	0	437256192	69	4578
2026-01-09 21:48:47.63	58.64	14.73	-51.5	-53.6	14.7	0.00e+00	0	23	0	438304768	69	4527
2026-01-09 21:48:48.63	58.84	14.76	-51.6	-53.7	14.7	0.00e+00	0	23	0	440401920	69	4560
2026-01-09 21:48:49.62	59.04	14.78	-51.7	-53.8	14.6	0.00e+00	0	23	0	442499072	69	4621
2026-01-09 21:48:50.62	59.25	14.81	-52.0	-54.3	14.4	0.00e+00	0	23	0	444596224	69	4872
2026-01-09 21:48:51.62	59.45	14.83	-52.1	-54.4	14.3	0.00e+00	0	23	0	446693376	69	4944
2026-01-09 21:48:52.62	59.66	14.86	-52.1	-54.5	14.3	0.00e+00	0	23	0	447741952	69	4989
2026-01-09 21:48:53.62	59.86	14.88	-52.2	-54.5	14.3	0.00e+00	0	23	0	449839104	69	4999
2026-01-09 21:48:54.62	60.07	14.90	-52.0	-54.2	14.4	0.00e+00	0	23	0	451936256	69	4865
2026-01-09 21:48:55.61	60.27	14.93	-51.9	-54.1	14.5	0.00e+00	0	23	0	454033408	69	4805
2026-01-09 21:48:56.61	60.48	14.95	-52.1	-54.3	14.4	0.00e+00	0	23	0	455081984	69	4897
2026-01-09 21:48:57.60	60.68	14.97	-52.2	-54.5	14.3	0.00e+00	0	23	0	457179136	69	5029
2026-01-09 21:48:58.59	60.89	14.99	-52.6	-55.0	14.1	0.00e+00	0	23	0	459276288	70	5039
2026-01-09 21:48:59.59	61.09	15.02	-52.9	-55.6	13.8	0.00e+00	0	23	0	461373440	70	5377
2026-01-09 21:49:00.59	61.30	15.04	-53.1	-55.9	13.7	0.00e+00	0	23	0	463470592	71	5244
2026-01-09 21:49:01.59	61.51	15.06	-53.1	-55.9	13.7	0.00e+00	0	23	0	464519168	71	5231
2026-01-09 21:49:02.59	61.72	15.08	-52.8	-55.4	14.0	0.00e+00	0	23	0	466616320	71	4955
2026-01-09 21:49:03.59	61.93	15.10	-52.4	-54.8	14.4	0.00e+00	0	23	0	468713472	71	4614
2026-01-09 21:49:04.58	62.13	15.12	-52.0	-54.2	14.6	0.00e+00	0	23	0	470810624	70	4590
2026-01-09 21:49:05.58	62.34	15.14	-51.8	-53.9	14.7	0.00e+00	0	23	0	471859200	70	4421
2026-01-09 21:49:06.58	62.55	15.16	-51.5	-53.6	14.8	0.00e+00	0	23	0	473956352	69	4513
2026-01-09 21:49:07.57	62.76	15.18	-51.6	-53.6	14.8	0.00e+00	0	23	0	476053504	69	4530
2026-01-09 21:49:08.56	62.97	15.20	-51.8	-54.0	14.6	0.00e+00	0	23	0	478150656	69	4728
2026-01-09 21:49:09.55	63.17	15.21	-52.1	-54.4	14.4	0.00e+00	0	23	0	480247808	69	4974
2026-01-09 21:49:10.55	63.38	15.23	-52.3	-54.6	14.2	0.00e+00	0	23	0	481296384	69	5085
2026-01-09 21:49:11.55	63.59	15.25	-52.2	-54.5	14.3	0.00e+00	0	23	0	483393536	69	5019
2026-01-09 21:49:12.55	63.81	15.27	-52.0	-54.2	14.5	0.00e+00	0	23	0	485490688	69	4815
2026-01-09 21:49:13.55	64.02	15.29	-51.7	-53.8	14.7	0.00e+00	0	23	0	487587840	69	4619
2026-01-09 21:49:14.55	64.23	15.30	-51.5	-53.5	14.9	0.00e+00	0	23	0	488636416	69	4463
2026-01-09 21:49:15.55	64.44	15.32	-51.5	-53.5	14.8	0.00e+00	0	23	0	490733568	69	4464
2026-01-09 21:49:16.55	64.65	15.33	-51.4	-53.5	14.9	0.00e+00	0	23	0	492830720	69	4447
2026-01-09 21:49:17.54	64.86	15.35	-51.5	-53.5	14.8	0.00e+00	0	23	0	494927872	69	4483
2026-01-09 21:49:18.53	65.07	15.37	-51.5	-53.6	14.7	0.00e+00	0	23	0	497025024	69	4533
2026-01-09 21:49:19.53	65.28	15.38	-51.7	-53.8	14.7	0.00e+00	0	23	0	498073600	69	4631
2026-01-09 21:49:20.52	65.49	15.39	-51.6	-53.7	14.8	0.00e+00	0	23	0	500170752	69	4578
2026-01-09 21:49:21.52	65.71	15.41	-51.5	-53.6	14.8	0.00e+00	0	23	0	502267904	69	4507
2026-01-09 21:49:22.52	65.92	15.42	-51.5	-53.5	14.9	0.00e+00	0	23	0	504365056	69	4448
2026-01-09 21:49:23.52	66.13	15.44	-51.4	-53.4	14.9	0.00e+00	0	23	0	506462208	69	4425
2026-01-09 21:49:24.53	66.35	15.45	-51.5	-53.5	14.8	0.00e+00	0	23	0	507510784	69	4492
2026-01-09 21:49:25.53	66.56	15.46	-51.8	-53.9	14.6	0.00e+00	0	23	0	509607936	69	4682
2026-01-09 21:49:26.53	66.77	15.47	-51.9	-54.2	14.5	0.00e+00	0	23	0	511705088	69	4825
2026-01-09 21:49:27.54	66.99	15.49	-52.1	-54.4	14.3	0.00e+00	0	23	0	513802240	69	4953
2026-01-09 21:49:28.53	67.20	15.50	-52.1	-54.4	14.3	0.00e+00	0	23	0	514850816	69	4978
2026-01-09 21:49:29.54	67.42	15.51	-52.0	-54.3	14.4	0.00e+00	0	23	0	516947968	69	4906
2026-01-09 21:49:30.53	67.63	15.52	-51.8	-54.0	14.6	0.00e+00	0	23	0	519045120	69	4718
2026-01-09 21:49:31.53	67.85	15.53	-51.8	-54.0	14.5	0.00e+00	0	23	0	521142272	69	4751
2026-01-09 21:49:32.52	68.06	15.54	-51.7	-53.9	14.6	0.00e+00	0	23	0	523239424	69	4693
2026-01-09 21:49:33.52	68.27	15.55	-51.9	-54.1	14.5	0.00e+00	0	23	0	524288000	69	4801
2026-01-09 21:49:34.51	68.49	15.56	-52.1	-54.5	14.3	0.00e+00	0	23	0	526385152	69	5000
2026-01-09 21:49:35.51	68.70	15.57	-52.3	-54.8	14.2	0.00e+00	0	23	0	528482304	69	5204
2026-01-09 21:49:36.51	68.92	15.58	-52.4	-55.0	14.1	0.00e+00	0	23	0	530579456	70	5012
2026-01-09 21:49:37.50	69.13	15.59	-52.4	-55.0	14.2	0.00e+00	0	23	0	531628032	70	4985
2026-01-09 21:49:38.50	69.34	15.60	-52.4	-54.9	14.2	0.00e+00	0	23	0	533725184	70	4972
2026-01-09 21:49:39.50	69.56	15.60	-52.3	-54.8	14.3	0.00e+00	0	23	0	535822336	70	4882
2026-01-09 21:49:40.50	69.78	15.61	-52.2	-54.7	14.4	0.00e+00	0	23	0	537919488	70	4816
2026-01-09 21:49:41.50	69.99	15.62	-52.2	-54.6	14.4	0.00e+00	0	23	0	540016640	70	4772
2026-01-09 21:49:42.49	70.21	15.62	-52.1	-54.5	14.4	0.00e+00	0	23	0	541065216	70	4757
2026-01-09 21:49:43.49	70.42	15.63	-52.1	-54.5	14.4	0.00e+00	0	23	0	543162368	70	4750
2026-01-09 21:49:44.49	70.64	15.64	-52.2	-54.6	14.4	0.00e+00	0	23	0	545259520	70	4769
2026-01-09 21:49:45.49	70.85	15.64	-51.9	-54.3	14.6	0.00e+00	0	23	0	547356672	70	4601
2026-01-09 21:49:46.48	71.07	15.65	-51.9	-54.1	14.6	0.00e+00	0	23	0	549453824	70	4534
2026-01-09 21:49:47.48	71.28	15.65	-51.9	-54.2	14.7	0.00e+00	0	23	0	550502400	70	4548
2026-01-09 21:49:48.49	71.50	15.65	-51.9	-54.1	14.6	0.00e+00	0	23	0	552599552	70	4540
2026-01-09 21:49:49.49	71.72	15.66	-52.1	-54.4	14.5	0.00e+00	0	23	0	554696704	70	4684
2026-01-09 21:49:50.49	71.93	15.66	-52.1	-54.4	14.5	0.00e+00	0	23	0	556793856	70	4699
2026-01-09 21:49:51.50	72.15	15.66	-52.1	-54.4	14.5	0.00e+00	0	23	0	558891008	70	4691
2026-01-09 21:49:52.50	72.37	15.67	-52.0	-54.4	14.5	0.00e+00	0	23	0	559939584	70	4655
2026-01-09 21:49:53.49	72.58	15.67	-51.8	-54.1	14.7	0.00e+00	0	23	0	562036736	70	4521
2026-01-09 21:49:54.50	72.80	15.67	-51.6	-53.8	14.7	0.00e+00	0	23	0	564133888	69	4610
2026-01-09 21:49:55.50	73.02	15.67	-51.4	-53.5	14.9	0.00e+00	0	23	0	566231040	69	4460
2026-01-09 21:49:56.49	73.23	15.67	-51.4	-53.4	14.9	0.00e+00	0	23	0	567279616	69	4436
2026-01-09 21:49:57.48	73.45	15.68	-51.4	-53.4	14.9	0.00e+00	0	23	0	569376768	69	4433
2026-01-09 21:49:58.48	73.67	15.68	-51.5	-53.7	14.7	0.00e+00	0	23	0	571473920	69	4564
2026-01-09 21:49:59.47	73.88	15.68	-51.8	-54.0	14.5	0.00e+00	0	23	0	573571072	69	4746
2026-01-09 21:50:00.46	74.09	15.68	-51.8	-54.0	14.5	0.00e+00	0	23	0	575668224	69	4750
2026-01-09 21:50:01.46	74.31	15.67	-51.7	-54.0	14.6	0.00e+00	0	23	0	576716800	69	4713
2026-01-09 21:50:02.45	74.53	15.67	-51.6	-53.7	14.7	0.00e+00	0	23	0	578813952	69	4594
2026-01-09 21:50:03.44	74.74	15.67	-51.4	-53.6	14.8	0.00e+00	0	23	0	580911104	69	4512
2026-01-09 21:50:04.44	74.96	15.67	-51.4	-53.5	14.8	0.00e+00	0	23	0	583008256	69	4476
2026-01-09 21:50:05.44	75.17	15.67	-51.4	-53.5	14.8	0.00e+00	0	23	0	584056832	69	4490
2026-01-09 21:50:06.44	75.39	15.67	-51.4	-53.6	14.8	0.00e+00	0	23	0	586153984	69	4507
2026-01-09 21:50:07.44	75.61	15.66	-51.6	-53.8	14.7	0.00e+00	0	23	0	588251136	69	4651
2026-01-09 21:50:08.43	75.82	15.66	-51.8	-54.0	14.5	0.00e+00	0	23	0	590348288	69	4747
2026-01-09 21:50:09.43	76.04	15.65	-51.8	-54.1	14.5	0.00e+00	0	23	0	592445440	69	4777
2026-01-09 21:50:10.43	76.25	15.65	-51.7	-53.9	14.6	0.00e+00	0	23	0	593494016	69	4700
2026-01-09 21:50:11.43	76.47	15.65	-51.6	-53.8	14.7	0.00e+00	0	23	0	595591168	69	4609
2026-01-09 21:50:12.42	76.68	15.64	-51.4	-53.5	14.8	0.00e+00	0	23	0	597688320	69	4465
2026-01-09 21:50:13.41	76.90	15.64	-51.3	-53.3	14.9	0.00e+00	0	23	0	599785472	69	4385
2026-01-09 21:50:14.41	77.11	15.63	-51.2	-53.2	15.0	0.00e+00	0	23	0	600834048	69	4333
2026-01-09 21:50:15.41	77.33	15.62	-51.2	-53.2	14.8	0.00e+00	0	23	0	602931200	68	4575
2026-01-09 21:50:16.40	77.54	15.62	-51.3	-53.4	14.8	0.00e+00	0	23	0	605028352	68	4673
2026-01-09 21:50:17.40	77.76	15.61	-51.5	-53.7	14.6	0.00e+00	0	23	0	607125504	68	4831
2026-01-09 21:50:18.39	77.97	15.60	-51.7	-54.0	14.4	0.00e+00	0	23	0	609222656	68	4998
2026-01-09 21:50:19.38	78.19	15.60	-51.9	-54.2	14.3	0.00e+00	0	23	0	610271232	68	5126
2026-01-09 21:50:20.38	78.40	15.59	-52.0	-54.4	14.4	0.00e+00	0	23	0	612368384	69	4927
2026-01-09 21:50:21.37	78.62	15.58	-52.0	-54.4	14.4	0.00e+00	0	23	0	614465536	69	4933
2026-01-09 21:50:22.37	78.83	15.57	-51.8	-54.1	14.5	0.00e+00	0	23	0	616562688	69	4785
2026-01-09 21:50:23.37	79.05	15.56	-51.8	-54.0	14.6	0.00e+00	0	23	0	618659840	69	4748
2026-01-09 21:50:24.37	79.26	15.55	-51.7	-53.8	14.6	0.00e+00	0	23	0	619708416	69	4647
2026-01-09 21:50:25.38	79.48	15.54	-51.5	-53.6	14.8	0.00e+00	0	23	0	621805568	69	4499
2026-01-09 21:50:26.37	79.69	15.53	-51.5	-53.6	14.8	0.00e+00	0	23	0	623902720	69	4509
2026-01-09 21:50:27.38	79.91	15.52	-51.5	-53.7	14.7	0.00e+00	0	23	0	625999872	69	4570
2026-01-09 21:50:28.38	80.12	15.51	-51.6	-53.8	14.7	0.00e+00	0	23	0	628097024	69	4635
2026-01-09 21:50:29.38	80.34	15.50	-51.7	-53.9	14.6	0.00e+00	0	23	0	629145600	69	4692
2026-01-09 21:50:30.37	80.55	15.49	-51.7	-53.9	14.6	0.00e+00	0	23	0	631242752	69	4682
2026-01-09 21:50:31.38	80.77	15.48	-51.8	-54.0	14.5	0.00e+00	0	23	0	633339904	69	4745
2026-01-09 21:50:32.37	80.98	15.46	-51.8	-54.0	14.5	0.00e+00	0	23	0	635437056	69	4752
2026-01-09 21:50:33.37	81.19	15.45	-51.8	-54.0	14.6	0.00e+00	0	23	0	636485632	69	4734
2026-01-09 21:50:34.37	81.40	15.44	-51.8	-54.1	14.5	0.00e+00	0	23	0	638582784	69	4787
2026-01-09 21:50:35.36	81.62	15.42	-51.8	-54.1	14.5	0.00e+00	0	23	0	640679936	69	4807
2026-01-09 21:50:36.35	81.83	15.41	-51.8	-54.0	14.5	0.00e+00	0	23	0	642777088	69	4738
2026-01-09 21:50:37.34	82.04	15.40	-51.8	-54.1	14.5	0.00e+00	0	23	0	644874240	69	4783
2026-01-09 21:50:38.34	82.25	15.38	-51.7	-53.8	14.7	0.00e+00	0	23	0	645922816	69	4647
2026-01-09 21:50:39.33	82.46	15.37	-51.7	-53.9	14.6	0.00e+00	0	23	0	648019968	69	4683
2026-01-09 21:50:40.33	82.67	15.35	-51.6	-53.7	14.7	0.00e+00	0	23	0	650117120	69	4583
2026-01-09 21:50:41.33	82.89	15.34	-51.6	-53.7	14.7	0.00e+00	0	23	0	652214272	69	4569
2026-01-09 21:50:42.33	83.10	15.32	-51.5	-53.6	14.8	0.00e+00	0	23	0	653262848	69	4498
2026-01-09 21:50:43.33	83.31	15.30	-51.2	-53.2	15.0	0.00e+00	0	23	0	655360000	69	4318
2026-01-09 21:50:44.33	83.52	15.29	-51.1	-53.0	14.9	0.00e+00	0	23	0	657457152	68	4448
2026-01-09 21:50:45.32	83.73	15.27	-50.9	-52.7	15.1	0.00e+00	0	23	0	659554304	68	4319
2026-01-09 21:50:46.32	83.94	15.25	-50.9	-52.7	15.1	0.00e+00	0	23	0	661651456	68	4328
2026-01-09 21:50:47.33	84.15	15.23	-50.9	-52.8	14.9	0.00e+00	0	23	0	662700032	68	4346
2026-01-09 21:50:48.32	84.36	15.22	-51.0	-52.8	15.0	0.00e+00	0	23	0	664797184	68	4385
2026-01-09 21:50:49.32	84.57	15.20	-51.0	-52.8	15.0	0.00e+00	0	23	0	666894336	68	4381
2026-01-09 21:50:50.32	84.78	15.18	-51.0	-52.8	15.0	0.00e+00	0	23	0	668991488	68	4390
2026-01-09 21:50:51.32	84.99	15.16	-51.0	-52.9	15.0	0.00e+00	0	23	0	671088640	68	4420
2026-01-09 21:50:52.33	85.20	15.14	-50.8	-52.7	15.1	0.00e+00	0	23	0	672137216	68	4297
2026-01-09 21:50:53.32	85.41	15.12	-50.9	-52.7	15.1	0.00e+00	0	23	0	674234368	68	4310
2026-01-09 21:50:54.32	85.62	15.10	-50.8	-52.7	15.1	0.00e+00	0	23	0	676331520	68	4297
2026-01-09 21:50:55.32	85.83	15.08	-51.0	-52.8	15.1	0.00e+00	0	23	0	678428672	68	4375
2026-01-09 21:50:56.31	86.04	15.06	-51.2	-53.1	14.8	0.00e+00	0	23	0	679477248	68	4521
2026-01-09 21:50:57.31	86.24	15.04	-51.4	-53.3	14.8	0.00e+00	0	23	0	681574400	68	4644
2026-01-09 21:50:58.31	86.45	15.02	-51.5	-53.5	14.6	0.00e+00	0	23	0	683671552	68	4757
2026-01-09 21:50:59.30	86.66	15.00	-51.5	-53.5	14.6	0.00e+00	0	23	0	685768704	68	4733
2026-01-09 21:51:00.30	86.87	14.97	-51.5	-53.5	14.6	0.00e+00	0	23	0	687865856	68	4735
2026-01-09 21:51:01.30	87.07	14.95	-51.4	-53.4	14.7	0.00e+00	0	23	0	688914432	68	4666
2026-01-09 21:51:02.29	87.28	14.93	-51.3	-53.3	14.7	0.00e+00	0	23	0	691011584	68	4611
2026-01-09 21:51:03.29	87.48	14.90	-51.4	-53.4	14.7	0.00e+00	0	23	0	693108736	68	4655
2026-01-09 21:51:04.29	87.69	14.88	-51.5	-53.5	14.6	0.00e+00	0	23	0	695205888	68	4740
2026-01-09 21:51:05.29	87.90	14.86	-51.4	-53.4	14.7	0.00e+00	0	23	0	696254464	68	4669
2026-01-09 21:51:06.29	88.10	14.83	-51.5	-53.6	14.6	0.00e+00	0	23	0	698351616	68	4769
2026-01-09 21:51:07.29	88.31	14.81	-51.4	-53.4	14.7	0.00e+00	0	23	0	700448768	68	4704
2026-01-09 21:51:08.28	88.51	14.78	-51.3	-53.4	14.7	0.00e+00	0	23	0	702545920	68	4657
2026-01-09 21:51:09.27	88.71	14.76	-51.4	-53.4	14.7	0.00e+00	0	23	0	704643072	68	4695
2026-01-09 21:51:10.27	88.92	14.73	-51.4	-53.4	14.7	0.00e+00	0	23	0	705691648	68	4654
2026-01-09 21:51:11.26	89.12	14.71	-51.0	-52.9	15.0	0.00e+00	0	23	0	707788800	68	4431
2026-01-09 21:51:12.25	89.32	14.68	-50.8	-52.7	15.1	0.00e+00	0	23	0	709885952	68	4309
2026-01-09 21:51:13.25	89.52	14.66	-50.5	-52.3	15.1	0.00e+00	0	23	0	711983104	67	4355
2026-01-09 21:51:14.25	89.72	14.63	-50.3	-52.1	15.2	0.00e+00	0	23	0	713031680	67	4259
2026-01-09 21:51:15.24	89.92	14.60	-50.1	-51.8	15.1	0.00e+00	0	23	0	715128832	66	4383
2026-01-09 21:51:16.24	90.13	14.58	-50.2	-51.9	15.1	0.00e+00	0	23	0	717225984	66	4423
2026-01-09 21:51:17.25	90.33	14.55	-50.2	-52.0	15.1	0.00e+00	0	23	0	719323136	66	4466
2026-01-09 21:51:18.24	90.53	14.52	-50.4	-52.2	15.0	0.00e+00	0	23	0	721420288	66	4579
2026-01-09 21:51:19.24	90.73	14.49	-50.6	-52.4	14.9	0.00e+00	0	23	0	722468864	66	4698
2026-01-09 21:51:20.24	90.93	14.46	-50.7	-52.6	14.7	0.00e+00	0	23	0	724566016	66	4779
2026-01-09 21:51:21.25	91.13	14.44	-50.8	-52.6	14.7	0.00e+00	0	23	0	726663168	66	4807
2026-01-09 21:51:22.25	91.33	14.41	-50.8	-52.7	14.7	0.00e+00	0	23	0	728760320	66	4830
2026-01-09 21:51:23.25	91.53	14.38	-50.7	-52.6	14.7	0.00e+00	0	23	0	730857472	66	4805
2026-01-09 21:51:24.25	91.73	14.35	-50.6	-52.5	14.8	0.00e+00	0	23	0	731906048	66	4711
2026-01-09 21:51:25.24	91.93	14.32	-50.6	-52.4	14.8	0.00e+00	0	23	0	734003200	66	4690
2026-01-09 21:51:26.23	92.13	14.29	-50.8	-52.7	14.7	0.00e+00	0	23	0	736100352	66	4834
2026-01-09 21:51:27.23	92.32	14.26	-50.8	-52.7	14.7	0.00e+00	0	23	0	738197504	66	4840
2026-01-09 21:51:28.23	92.52	14.23	-51.0	-53.0	14.7	0.00e+00	0	23	0	740294656	67	4729
2026-01-09 21:51:29.24	92.72	14.20	-51.0	-53.0	14.7	0.00e+00	0	23	0	741343232	67	4721
2026-01-09 21:51:30.24	92.92	14.17	-51.0	-52.9	14.7	0.00e+00	0	23	0	743440384	67	4696
2026-01-09 21:51:31.24	93.11	14.13	-50.8	-52.7	14.9	0.00e+00	0	23	0	745537536	67	4566
2026-01-09 21:51:32.24	93.31	14.10	-50.8	-52.8	14.8	0.00e+00	0	23	0	747634688	67	4603
2026-01-09 21:51:33.24	93.51	14.07	-50.7	-52.6	14.9	0.00e+00	0	23	0	748683264	67	4543
2026-01-09 21:51:34.23	93.70	14.04	-50.8	-52.7	14.9	0.00e+00	0	23	0	750780416	67	4555
2026-01-09 21:51:35.24	93.90	14.01	-50.8	-52.7	14.9	0.00e+00	0	23	0	752877568	67	4559
2026-01-09 21:51:36.23	94.09	13.97	-50.8	-52.7	14.9	0.00e+00	0	23	0	754974720	67	4554
2026-01-09 21:51:37.22	94.28	13.94	-50.7	-52.6	14.9	0.00e+00	0	23	0	757071872	67	4513
2026-01-09 21:51:38.22	94.47	13.91	-50.7	-52.6	14.9	0.00e+00	0	23	0	758120448	67	4525
2026-01-09 21:51:39.22	94.67	13.87	-50.6	-52.5	14.9	0.00e+00	0	23	0	760217600	67	4482
2026-01-09 21:51:40.21	94.86	13.84	-50.6	-52.5	14.9	0.00e+00	0	23	0	762314752	67	4482
2026-01-09 21:51:41.21	95.05	13.81	-50.5	-52.4	15.0	0.00e+00	0	23	0	764411904	67	4435
2026-01-09 21:51:42.21	95.24	13.77	-50.7	-52.6	14.9	0.00e+00	0	23	0	765460480	67	4528
2026-01-09 21:51:43.21	95.43	13.74	-50.8	-52.7	14.8	0.00e+00	0	23	0	767557632	67	4584
2026-01-09 21:51:44.21	95.62	13.70	-50.9	-52.9	14.8	0.00e+00	0	23	0	769654784	67	4694
2026-01-09 21:51:45.21	95.81	13.67	-51.0	-53.0	14.7	0.00e+00	0	23	0	771751936	67	4749
2026-01-09 21:51:46.21	96.00	13.63	-51.0	-53.1	14.7	0.00e+00	0	23	0	773849088	67	4773
2026-01-09 21:51:47.20	96.19	13.60	-51.1	-53.1	14.6	0.00e+00	0	23	0	774897664	67	4810
2026-01-09 21:51:48.20	96.38	13.56	-51.3	-53.3	14.5	0.00e+00	0	23	0	776994816	67	4922
2026-01-09 21:51:49.20	96.57	13.53	-51.3	-53.4	14.5	0.00e+00	0	23	0	779091968	67	4952
2026-01-09 21:51:50.20	96.76	13.49	-51.6	-53.8	14.5	0.00e+00	0	23	0	781189120	68	4904
2026-01-09 21:51:51.20	96.95	13.45	-51.7	-54.0	14.4	0.00e+00	0	23	0	783286272	68	5005
2026-01-09 21:51:52.20	97.13	13.42	-51.9	-54.2	14.4	0.00e+00	0	23	0	784334848	69	4866
2026-01-09 21:51:53.20	97.32	13.38	-52.0	-54.3	14.3	0.00e+00	0	23	0	786432000	69	4914
2026-01-09 21:51:54.20	97.51	13.34	-52.1	-54.5	14.2	0.00e+00	0	23	0	788529152	69	5006
2026-01-09 21:51:55.19	97.69	13.31	-52.1	-54.4	14.3	0.00e+00	0	23	0	790626304	69	4968
2026-01-09 21:51:56.19	97.88	13.27	-52.0	-54.4	14.3	0.00e+00	0	23	0	791674880	69	4928
2026-01-09 21:51:57.19	98.06	13.23	-52.1	-54.4	14.3	0.00e+00	0	23	0	793772032	69	4975
2026-01-09 21:51:58.19	98.25	13.19	-52.2	-54.6	14.2	0.00e+00	0	23	0	795869184	69	5080
2026-01-09 21:51:59.19	98.43	13.15	-52.1	-54.5	14.2	0.00e+00	0	23	0	797966336	69	5024
2026-01-09 21:52:00.18	98.61	13.12	-52.2	-54.7	14.1	0.00e+00	0	23	0	800063488	69	5110
2026-01-09 21:52:01.18	98.80	13.08	-52.1	-54.5	14.2	0.00e+00	0	23	0	801112064	69	4997
2026-01-09 21:52:02.18	98.98	13.04	-52.1	-54.5	14.2	0.00e+00	0	23	0	803209216	69	5009
2026-01-09 21:52:03.17	99.16	13.00	-52.1	-54.6	14.2	0.00e+00	0	23	0	805306368	69	5075
2026-01-09 21:52:04.17	99.34	12.96	-52.4	-54.9	14.0	0.00e+00	0	23	0	807403520	69	5270
2026-01-09 21:52:05.17	99.52	12.92	-52.5	-55.2	13.9	0.00e+00	0	23	0	809500672	70	5130
2026-01-09 21:52:06.16	99.70	12.88	-52.7	-55.5	13.8	0.00e+00	0	23	0	810549248	70	5284
2026-01-09 21:52:07.17	99.89	12.84	-52.7	-55.4	13.8	0.00e+00	0	23	0	812646400	70	5246
2026-01-09 21:52:08.16	100.06	12.80	-52.6	-55.2	13.9	0.00e+00	0	23	0	814743552	70	5145
2026-01-09 21:52:09.16	100.24	12.76	-52.4	-54.9	14.1	0.00e+00	0	23	0	816840704	70	4961
2026-01-09 21:52:10.16	100.42	12.72	-52.4	-54.9	14.2	0.00e+00	0	23	0	817889280	70	4944
2026-01-09 21:52:11.16	100.60	12.68	-52.1	-54.4	14.4	0.00e+00	0	23	0	819986432	70	4705
2026-01-09 21:52:12.16	100.78	12.64	-52.0	-54.4	14.4	0.00e+00	0	23	0	822083584	70	4682
2026-01-09 21:52:13.16	100.96	12.60	-52.1	-54.5	14.3	0.00e+00	0	23	0	824180736	70	4738
2026-01-09 21:52:14.16	101.13	12.56	-52.1	-54.6	14.3	0.00e+00	0	23	0	826277888	70	4774
2026-01-09 21:52:15.15	101.31	12.52	-52.2	-54.7	14.3	0.00e+00	0	23	0	827326464	70	4827
2026-01-09 21:52:16.15	101.49	12.48	-52.4	-55.0	14.1	0.00e+00	0	23	0	829423616	70	5013
2026-01-09 21:52:17.15	101.66	12.44	-52.5	-55.2	14.0	0.00e+00	0	23	0	831520768	70	5110
2026-01-09 21:52:18.14	101.84	12.39	-52.7	-55.4	13.8	0.00e+00	0	23	0	833617920	70	5253
2026-01-09 21:52:19.14	102.01	12.35	-52.9	-55.8	13.7	0.00e+00	0	23	0	835715072	71	5203
2026-01-09 21:52:20.14	102.18	12.31	-53.1	-56.0	13.6	0.00e+00	0	23	0	836763648	71	5339
2026-01-09 21:52:21.13	102.36	12.27	-53.2	-56.2	13.5	0.00e+00	0	23	0	838860800	71	5425
2026-01-09 21:52:22.13	102.53	12.23	-53.3	-56.4	13.3	0.00e+00	0	23	0	840957952	71	5573
2026-01-09 21:52:23.13	102.70	12.18	-53.2	-56.3	13.3	0.00e+00	0	23	0	843055104	71	5508
2026-01-09 21:52:24.13	102.88	12.14	-53.3	-56.5	13.2	0.00e+00	0	23	0	844103680	71	5630
2026-01-09 21:52:25.13	103.05	12.10	-53.2	-56.4	13.3	0.00e+00	0	23	0	846200832	71	5550
2026-01-09 21:52:26.13	103.22	12.06	-52.9	-55.8	13.7	0.00e+00	0	23	0	848297984	71	5203
2026-01-09 21:52:27.12	103.39	12.01	-52.7	-55.5	13.9	0.00e+00	0	23	0	850395136	71	5034
2026-01-09 21:52:28.12	103.56	11.97	-52.6	-55.3	14.0	0.00e+00	0	23	0	852492288	71	4918
2026-01-09 21:52:29.12	103.73	11.93	-52.3	-54.9	14.3	0.00e+00	0	23	0	853540864	71	4678
2026-01-09 21:52:30.11	103.90	11.88	-52.2	-54.7	14.4	0.00e+00	0	23	0	855638016	71	4577
2026-01-09 21:52:31.11	104.07	11.84	-52.2	-54.7	14.2	0.00e+00	0	23	0	857735168	70	4822
2026-01-09 21:52:32.12	104.24	11.79	-52.2	-54.7	14.2	0.00e+00	0	23	0	859832320	70	4863
2026-01-09 21:52:33.12	104.40	11.75	-52.3	-54.8	14.2	0.00e+00	0	23	0	861929472	70	4910
2026-01-09 21:52:34.12	104.57	11.71	-52.4	-55.1	14.0	0.00e+00	0	23	0	862978048	70	5043
2026-01-09 21:52:35.12	104.74	11.66	-52.5	-55.1	14.0	0.00e+00	0	23	0	865075200	70	5073
2026-01-09 21:52:36.12	104.91	11.62	-52.6	-55.3	13.9	0.00e+00	0	23	0	867172352	70	5204
2026-01-09 21:52:37.12	105.07	11.57	-52.5	-55.2	14.0	0.00e+00	0	24	0	869269504	70	5108
2026-01-09 21:52:38.12	105.24	11.53	-52.4	-55.0	14.1	0.00e+00	0	23	0	871366656	70	5040
2026-01-09 21:52:39.12	105.40	11.48	-52.6	-55.3	13.9	0.00e+00	0	23	0	872415232	70	5179
2026-01-09 21:52:40.11	105.57	11.44	-52.5	-55.1	14.0	0.00e+00	0	23	0	874512384	70	5073
2026-01-09 21:52:41.11	105.73	11.39	-52.6	-55.2	13.9	0.00e+00	0	23	0	876609536	70	5145
2026-01-09 21:52:42.11	105.89	11.35	-52.7	-55.3	13.9	0.00e+00	0	23	0	878706688	70	5195
2026-01-09 21:52:43.11	106.06	11.30	-52.8	-55.5	13.8	0.00e+00	0	23	0	879755264	70	5305
2026-01-09 21:52:44.10	106.22	11.26	-52.8	-55.5	13.7	0.00e+00	0	23	0	881852416	70	5339
2026-01-09 21:52:45.11	106.38	11.21	-52.8	-55.5	13.7	0.00e+00	0	23	0	883949568	70	5335
2026-01-09 21:52:46.11	106.54	11.17	-53.0	-55.9	13.7	0.00e+00	0	23	0	886046720	71	5254
2026-01-09 21:52:47.11	106.71	11.12	-53.0	-55.9	13.6	0.00e+00	0	23	0	888143872	71	5239
2026-01-09 21:52:48.11	106.87	11.07	-52.9	-55.7	13.7	0.00e+00	0	23	0	889192448	71	5155
2026-01-09 21:52:49.11	107.03	11.03	-52.9	-55.6	13.7	0.00e+00	0	23	0	891289600	71	5096
2026-01-09 21:52:50.11	107.19	10.98	-52.9	-55.7	13.8	0.00e+00	0	23	0	893386752	71	5101
2026-01-09 21:52:51.10	107.34	10.94	-52.8	-55.6	13.8	0.00e+00	0	23	0	895483904	71	5070
2026-01-09 21:52:52.10	107.50	10.89	-52.8	-55.6	13.8	0.00e+00	0	23	0	896532480	71	5074
2026-01-09 21:52:53.09	107.66	10.84	-52.7	-55.4	14.0	0.00e+00	0	23	0	898629632	71	4957
2026-01-09 21:52:54.10	107.82	10.80	-52.6	-55.3	14.0	0.00e+00	0	23	0	900726784	71	4912
2026-01-09 21:52:55.10	107.98	10.75	-52.5	-55.1	14.2	0.00e+00	0	23	0	902823936	71	4813
2026-01-09 21:52:56.10	108.13	10.70	-52.6	-55.2	14.1	0.00e+00	0	23	0	904921088	71	4864
2026-01-09 21:52:57.11	108.29	10.66	-52.4	-55.0	14.2	0.00e+00	0	23	0	905969664	71	4712
2026-01-09 21:52:58.12	108.45	10.61	-52.5	-55.1	14.2	0.00e+00	0	23	0	908066816	71	4797
2026-01-09 21:52:59.12	108.61	10.56	-52.4	-54.9	14.3	0.00e+00	0	23	0	910163968	71	4674
2026-01-09 21:53:00.11	108.76	10.51	-52.2	-54.7	14.4	0.00e+00	0	23	0	912261120	71	4563
2026-01-09 21:53:01.12	108.91	10.47	-52.2	-54.6	14.3	0.00e+00	0	23	0	914358272	70	4791
2026-01-09 21:53:02.12	109.07	10.42	-52.1	-54.5	14.4	0.00e+00	0	23	0	915406848	70	4715
2026-01-09 21:53:03.12	109.22	10.37	-52.0	-54.4	14.4	0.00e+00	0	23	0	917504000	70	4685
2026-01-09 21:53:04.11	109.37	10.33	-52.1	-54.5	14.3	0.00e+00	0	23	0	919601152	70	4747
2026-01-09 21:53:05.11	109.53	10.28	-52.0	-54.4	14.4	0.00e+00	0	23	0	921698304	70	4702
2026-01-09 21:53:06.11	109.68	10.23	-52.0	-54.4	14.5	0.00e+00	0	24	0	922746880	70	4673
2026-01-09 21:53:07.10	109.83	10.18	-52.1	-54.6	14.3	0.00e+00	0	23	0	924844032	70	4772
2026-01-09 21:53:08.10	109.98	10.13	-52.1	-54.6	14.3	0.00e+00	0	23	0	926941184	70	4777
2026-01-09 21:53:09.09	110.13	10.09	-52.1	-54.6	14.3	0.00e+00	0	23	0	929038336	70	4764
2026-01-09 21:53:10.09	110.28	10.04	-52.1	-54.5	14.4	0.00e+00	0	23	0	931135488	70	4711
2026-01-09 21:53:11.09	110.43	9.99	-52.1	-54.2	14.6	0.00e+00	0	23	0	932184064	70	4548
2026-01-09 21:53:12.09	110.58	9.94	-52.1	-54.2	14.6	0.00e+00	0	23	0	934281216	70	4564
2026-01-09 21:53:13.08	110.73	9.89	-52.1	-54.2	14.6	0.00e+00	0	23	0	936378368	70	4566
2026-01-09 21:53:14.08	110.87	9.85	-52.1	-54.2	14.5	0.00e+00	0	23	0	938475520	70	4570
2026-01-09 21:53:15.08	111.02	9.80	-52.2	-54.2	14.5	0.00e+00	0	23	0	940572672	70	4595
2026-01-09 21:53:16.07	111.17	9.75	-52.3	-54.4	14.4	0.00e+00	0	23	0	941621248	70	4686
2026-01-09 21:53:17.06	111.31	9.70	-52.4	-54.5	14.3	0.00e+00	0	23	0	943718400	70	4747
2026-01-09 21:53:18.06	111.46	9.65	-52.3	-54.4	14.4	0.00e+00	0	23	0	945815552	70	4691
2026-01-09 21:53:19.06	111.61	9.60	-52.6	-54.9	14.1	0.00e+00	0	23	0	947912704	70	4933
2026-01-09 21:53:20.06	111.75	9.56	-52.2	-54.4	14.4	0.00e+00	0	23	0	948961280	70	4669
2026-01-09 21:53:21.06	111.90	9.51	-52.3	-54.5	14.3	0.00e+00	0	23	0	951058432	70	4747
2026-01-09 21:53:22.06	112.04	9.46	-52.3	-54.5	14.3	0.00e+00	0	23	0	953155584	70	4741
2026-01-09 21:53:23.06	112.19	9.41	-52.2	-54.3	14.5	0.00e+00	0	23	0	955252736	70	4634
2026-01-09 21:53:24.07	112.33	9.36	-52.1	-54.2	14.5	0.00e+00	0	23	0	957349888	70	4590
2026-01-09 21:53:25.07	112.47	9.31	-52.0	-54.1	14.5	0.00e+00	0	23	0	958398464	70	4538
2026-01-09 21:53:26.07	112.62	9.26	-51.6	-53.5	14.7	0.00e+00	0	23	0	960495616	69	4481
2026-01-09 21:53:27.07	112.76	9.21	-51.6	-53.5	14.7	0.00e+00	0	23	0	962592768	69	4476
2026-01-09 21:53:28.07	112.90	9.16	-51.6	-53.5	14.7	0.00e+00	0	23	0	964689920	69	4459
2026-01-09 21:53:29.07	113.04	9.11	-51.7	-53.7	14.6	0.00e+00	0	23	0	966787072	69	4574
2026-01-09 21:53:30.07	113.18	9.06	-51.7	-53.7	14.6	0.00e+00	0	23	0	967835648	69	4585
2026-01-09 21:53:31.06	113.32	9.02	-51.7	-53.7	14.6	0.00e+00	0	23	0	969932800	69	4568
2026-01-09 21:53:32.06	113.46	8.97	-51.7	-53.7	14.6	0.00e+00	0	23	0	972029952	69	4590
2026-01-09 21:53:33.05	113.60	8.92	-51.9	-54.0	14.5	0.00e+00	0	23	0	974127104	69	4731
2026-01-09 21:53:34.05	113.74	8.87	-52.0	-54.1	14.4	0.00e+00	0	23	0	975175680	69	4800
2026-01-09 21:53:35.05	113.88	8.82	-52.1	-54.2	14.3	0.00e+00	0	23	0	977272832	69	4870
2026-01-09 21:53:36.05	114.02	8.77	-52.1	-54.3	14.3	0.00e+00	0	23	0	979369984	69	4904
2026-01-09 21:53:37.05	114.15	8.72	-52.2	-54.4	14.2	0.00e+00	0	23	0	981467136	69	4979
2026-01-09 21:53:38.05	114.29	8.67	-52.2	-54.4	14.2	0.00e+00	0	23	0	983564288	69	4937
2026-01-09 21:53:39.04	114.43	8.62	-52.2	-54.5	14.2	0.00e+00	0	24	0	984612864	69	4994
2026-01-09 21:53:40.04	114.56	8.57	-52.3	-54.5	14.1	0.00e+00	0	23	0	986710016	69	5032
2026-01-09 21:53:41.03	114.70	8.52	-52.3	-54.6	14.1	0.00e+00	0	23	0	988807168	69	5075
2026-01-09 21:53:42.03	114.83	8.47	-52.5	-54.8	14.1	0.00e+00	0	23	0	990904320	70	4892
2026-01-09 21:53:43.03	114.97	8.42	-52.5	-54.8	14.1	0.00e+00	0	23	0	993001472	70	4906
2026-01-09 21:53:44.03	115.10	8.37	-52.6	-54.9	14.1	0.00e+00	0	23	0	994050048	70	4951
2026-01-09 21:53:45.03	115.24	8.32	-52.4	-54.7	14.2	0.00e+00	0	23	0	996147200	70	4853
2026-01-09 21:53:46.03	115.37	8.27	-52.5	-54.7	14.2	0.00e+00	0	23	0	998244352	70	4866
2026-01-09 21:53:47.03	115.50	8.22	-52.3	-54.5	14.3	0.00e+00	0	23	0	1000341504	70	4724
2026-01-09 21:53:48.03	115.64	8.17	-52.3	-54.5	14.3	0.00e+00	0	23	0	1001390080	70	4758
2026-01-09 21:53:49.03	115.77	8.12	-52.4	-54.6	14.2	0.00e+00	0	23	0	1003487232	70	4799
2026-01-09 21:53:50.02	115.90	8.07	-52.1	-54.3	14.4	0.00e+00	0	23	0	1005584384	70	4606
2026-01-09 21:53:51.02	116.03	8.02	-52.2	-54.5	14.3	0.00e+00	0	23	0	1007681536	70	4710
2026-01-09 21:53:52.02	116.16	7.97	-52.1	-54.3	14.4	0.00e+00	0	23	0	1009778688	70	4624
2026-01-09 21:53:53.02	116.29	7.92	-52.1	-54.3	14.4	0.00e+00	0	23	0	1010827264	70	4612
2026-01-09 21:53:54.01	116.42	7.87	-52.0	-54.2	14.5	0.00e+00	0	23	0	1012924416	70	4551
2026-01-09 21:53:55.01	116.55	7.82	-52.1	-54.3	14.4	0.00e+00	0	23	0	1015021568	70	4636
2026-01-09 21:53:56.00	116.68	7.77	-52.2	-54.5	14.3	0.00e+00	0	23	0	1017118720	70	4719
2026-01-09 21:53:57.00	116.81	7.72	-52.2	-54.5	14.3	0.00e+00	0	23	0	1019215872	70	4718
2026-01-09 21:53:58.00	116.94	7.67	-52.4	-54.6	14.2	0.00e+00	0	23	0	1020264448	70	4810
2026-01-09 21:53:59.00	117.06	7.62	-52.5	-54.9	14.1	0.00e+00	0	23	0	1022361600	70	4929
2026-01-09 21:54:00.00	117.19	7.57	-52.6	-55.1	13.9	0.00e+00	0	23	0	1024458752	70	5055
2026-01-09 21:54:01.00	117.32	7.52	-52.7	-55.1	13.9	0.00e+00	0	23	0	1026555904	70	5090
2026-01-09 21:54:02.00	117.45	7.47	-52.5	-54.9	14.0	0.00e+00	0	23	0	1027604480	70	4959
2026-01-09 21:54:02.99	117.57	7.42	-52.6	-55.0	13.9	0.00e+00	0	23	0	1029701632	70	5029
2026-01-09 21:54:03.99	117.70	7.37	-52.4	-54.8	14.1	0.00e+00	0	23	0	1031798784	70	4892
2026-01-09 21:54:04.99	117.82	7.32	-52.4	-54.7	14.1	0.00e+00	0	23	0	1033895936	70	4863
2026-01-09 21:54:05.98	117.95	7.27	-52.4	-54.8	14.1	0.00e+00	0	23	0	1035993088	70	4901
2026-01-09 21:54:06.99	118.07	7.22	-52.4	-54.8	14.1	0.00e+00	0	23	0	1037041664	70	4909
2026-01-09 21:54:07.98	118.20	7.17	-52.6	-55.0	13.9	0.00e+00	0	23	0	1039138816	70	5032
2026-01-09 21:54:08.98	118.32	7.12	-52.5	-55.0	14.0	0.00e+00	0	23	0	1041235968	70	4992
2026-01-09 21:54:09.98	118.44	7.07	-52.7	-55.2	13.8	0.00e+00	0	23	0	1043333120	70	5119
2026-01-09 21:54:10.98	118.57	7.02	-52.7	-55.3	13.7	0.00e+00	0	23	0	1045430272	70	5171
2026-01-09 21:54:11.96	118.69	6.97	-52.8	-55.4	13.6	0.00e+00	0	23	0	1046478848	70	5276
2026-01-09 21:54:12.97	118.81	6.92	-52.8	-55.4	13.7	0.00e+00	0	23	0	1048576000	70	5255
2026-01-09 21:54:13.97	118.93	6.86	-53.0	-55.6	13.6	0.00e+00	0	23	0	1050673152	71	5093
2026-01-09 21:54:14.96	119.05	6.81	-53.1	-55.9	13.5	0.00e+00	0	23	0	1052770304	71	5255
2026-01-09 21:54:15.96	119.17	6.76	-53.3	-56.2	13.3	0.00e+00	0	23	0	1053818880	71	5415
2026-01-09 21:54:16.95	119.29	6.71	-53.1	-55.8	13.5	0.00e+00	0	23	0	1055916032	71	5188
2026-01-09 21:54:17.95	119.41	6.66	-53.1	-55.9	13.5	0.00e+00	0	23	0	1058013184	71	5229
2026-01-09 21:54:18.94	119.53	6.61	-53.1	-55.9	13.5	0.00e+00	0	23	0	1060110336	71	5232
2026-01-09 21:54:19.95	119.65	6.56	-53.1	-55.9	13.4	0.00e+00	0	23	0	1062207488	71	5233
2026-01-09 21:54:20.95	119.77	6.51	-53.1	-55.9	13.5	0.00e+00	0	23	0	1063256064	71	5229
2026-01-09 21:54:21.96	119.89	6.46	-53.0	-55.7	13.6	0.00e+00	0	23	0	1065353216	71	5129
2026-01-09 21:54:22.95	120.01	6.41	-53.2	-56.1	13.3	0.00e+00	0	23	0	1067450368	71	5373
2026-01-09 21:54:23.95	120.13	6.36	-53.4	-56.3	13.1	0.00e+00	0	23	0	1069547520	71	5508
2026-01-09 21:54:24.95	120.24	6.31	-53.5	-56.6	13.1	0.00e+00	0	23	0	1070596096	72	5351
2026-01-09 21:54:25.94	120.36	6.26	-53.4	-56.4	13.2	0.00e+00	0	23	0	1072693248	72	5273
2026-01-09 21:54:26.94	120.48	6.21	-53.5	-56.5	13.1	0.00e+00	0	23	0	1074790400	72	5328
2026-01-09 21:54:27.93	120.59	6.16	-53.6	-56.7	13.0	0.00e+00	0	23	0	1076887552	72	5412
2026-01-09 21:54:28.92	120.71	6.11	-53.5	-56.6	13.1	0.00e+00	0	23	0	1078984704	72	5369
2026-01-09 21:54:29.91	120.82	6.06	-53.4	-56.4	13.2	0.00e+00	0	23	0	1080033280	72	5225
2026-01-09 21:54:30.91	120.94	6.01	-53.3	-56.2	13.3	0.00e+00	0	23	0	1082130432	72	5103
2026-01-09 21:54:31.92	121.05	5.96	-53.2	-56.0	13.5	0.00e+00	0	23	0	1084227584	72	5004
2026-01-09 21:54:32.92	121.17	5.91	-53.1	-55.9	13.6	0.00e+00	0	23	0	1086324736	72	4933
2026-01-09 21:54:33.91	121.28	5.86	-52.9	-55.6	13.7	0.00e+00	0	23	0	1087373312	72	4805
2026-01-09 21:54:34.91	121.39	5.81	-53.0	-55.7	13.7	0.00e+00	0	24	0	1089470464	72	4840
2026-01-09 21:54:35.90	121.51	5.75	-53.0	-55.8	13.6	0.00e+00	0	23	0	1091567616	72	4875
2026-01-09 21:54:36.90	121.62	5.70	-53.0	-55.7	13.6	0.00e+00	0	23	0	1093664768	72	4856
2026-01-09 21:54:37.90	121.73	5.65	-53.0	-55.7	13.6	0.00e+00	0	23	0	1095761920	72	4837
2026-01-09 21:54:38.91	121.84	5.60	-53.1	-55.9	13.5	0.00e+00	0	23	0	1096810496	72	4972
2026-01-09 21:54:39.90	121.95	5.55	-53.2	-56.1	13.4	0.00e+00	0	23	0	1098907648	72	5062
2026-01-09 21:54:40.90	122.07	5.50	-53.4	-56.5	13.1	0.00e+00	0	23	0	1101004800	72	5289
2026-01-09 21:54:41.90	122.18	5.45	-53.7	-57.0	12.7	0.00e+00	0	23	0	1103101952	72	5613
2026-01-09 21:54:42.90	122.29	5.40	-53.8	-57.3	12.5	0.00e+00	0	23	0	1105199104	72	5812
2026-01-09 21:54:43.90	122.40	5.35	-54.0	-57.6	12.3	0.00e+00	0	23	0	1106247680	73	5697
2026-01-09 21:54:44.90	122.51	5.30	-54.0	-57.7	12.3	7.00e-07	0	23	0	1108344832	73	5727
2026-01-09 21:54:45.90	122.62	5.25	-54.1	-57.7	12.2	7.00e-07	0	24	0	1110441984	73	5780
2026-01-09 21:54:46.90	122.73	5.20	-54.1	-57.8	12.1	3.00e-06	0	23	0	1112539136	73	5833
2026-01-09 21:54:47.90	122.84	5.15	-54.0	-57.7	12.2	1.50e-06	0	23	0	1114636288	73	5786
2026-01-09 21:54:48.90	122.94	5.10	-54.0	-57.7	12.2	4.50e-06	0	24	0	1115684864	73	5751
2026-01-09 21:54:49.90	123.05	5.05	-53.9	-57.6	12.2	5.30e-06	0	23	0	1117782016	73	5718
2026-01-09 21:54:50.90	123.16	5.00	-57.0	-68.2	4.9	1.60e-05	0	23	0	1119879168	79	13581
2026-01-09 21:54:51.90	123.27	4.95	-57.7	-73.4	3.8	1.49e+00	0	23	104	1119879168	80	23524
2026-01-09 21:54:52.90	123.37	4.90	-58.0	-73.9	3.8	1.49e+00	0	24	104	1119879168	81	23454
2026-01-09 21:54:53.90	123.48	4.85	-58.2	-74.2	3.8	1.49e+00	0	23	104	1119879168	81	24288
2026-01-09 21:54:54.90	123.59	4.80	-58.4	-74.4	3.8	1.49e+00	0	23	104	1119879168	81	24864
2026-01-09 21:54:55.89	123.69	4.75	-58.6	-74.6	3.8	1.49e+00	0	23	104	1119879168	82	23922
2026-01-09 21:54:56.89	123.80	4.70	-58.7	-74.7	3.8	1.49e+00	0	23	104	1119879168	82	24252
2026-01-09 21:54:57.89	123.90	4.65	-58.8	-74.8	3.8	1.49e+00	0	24	104	1119879168	82	24571
2026-01-09 21:54:58.89	124.01	4.59	-58.9	-74.9	3.8	1.49e+00	0	24	104	1119879168	82	24778
2026-01-09 21:54:59.89	124.11	4.54	-58.9	-75.0	3.8	1.49e+00	0	23	104	1119879168	82	25031
2026-01-09 21:55:00.89	124.22	4.49	-59.0	-75.1	3.8	1.49e+00	0	23	104	1119879168	83	23955
2026-01-09 21:55:01.90	124.32	4.44	-59.1	-75.2	3.8	1.49e+00	0	23	104	1119879168	83	24142
2026-01-09 21:55:02.90	124.43	4.39	-59.2	-75.2	3.8	1.49e+00	0	24	104	1119879168	83	24277
2026-01-09 21:55:03.89	124.53	4.34	-59.2	-75.2	3.8	1.49e+00	0	23	104	1119879168	83	24398
2026-01-09 21:55:04.89	124.63	4.29	-59.2	-75.3	3.8	1.49e+00	0	23	104	1119879168	83	24484
2026-01-09 21:55:05.89	124.73	4.24	-59.3	-75.3	3.8	1.49e+00	0	23	104	1119879168	83	24637
2026-01-09 21:55:06.89	124.84	4.19	-59.3	-75.4	3.8	1.49e+00	0	24	104	1119879168	83	24821
2026-01-09 21:55:07.89	124.94	4.14	-59.4	-75.4	3.8	1.49e+00	0	24	104	1119879168	83	24911
2026-01-09 21:55:08.89	125.04	4.09	-59.4	-75.4	3.8	1.49e+00	0	24	104	1119879168	83	24899
2026-01-09 21:55:09.89	125.14	4.04	-59.4	-75.5	3.8	1.49e+00	0	24	104	1119879168	83	25038
2026-01-09 21:55:10.88	125.24	3.99	-59.6	-75.7	3.8	1.49e+00	0	24	104	1119879168	84	24154
2026-01-09 21:55:11.88	125.34	3.94	-59.7	-75.7	3.8	1.49e+00	0	24	104	1119879168	84	24318
2026-01-09 21:55:12.88	125.44	3.89	-59.7	-75.7	3.8	1.49e+00	0	24	104	1119879168	84	24385
2026-01-09 21:55:13.88	125.54	3.84	-59.7	-75.7	3.8	1.49e+00	0	24	104	1119879168	84	24354
2026-01-09 21:55:14.87	125.64	3.79	-59.7	-75.7	3.8	1.49e+00	0	23	104	1119879168	84	24326
2026-01-09 21:55:15.86	125.74	3.74	-59.7	-75.8	3.8	1.49e+00	0	23	104	1119879168	84	24439
2026-01-09 21:55:16.87	125.84	3.69	-59.7	-75.8	3.8	1.49e+00	0	24	104	1119879168	84	24456
2026-01-09 21:55:17.87	125.94	3.64	-59.7	-75.7	3.8	1.49e+00	0	24	104	1119879168	84	24387
2026-01-09 21:55:18.87	126.04	3.59	-59.7	-75.7	3.8	1.49e+00	0	23	104	1119879168	84	24358
2026-01-09 21:55:19.87	126.13	3.54	-59.7	-75.7	3.8	1.49e+00	0	24	104	1119879168	84	24275
2026-01-09 21:55:20.87	126.23	3.49	-59.6	-75.7	3.8	1.49e+00	0	23	104	1119879168	84	24244
2026-01-09 21:55:21.87	126.33	3.44	-59.6	-75.7	3.8	1.49e+00	0	24	104	1119879168	84	24306
2026-01-09 21:55:22.87	126.43	3.39	-59.6	-75.7	3.8	1.49e+00	0	23	104	1119879168	84	24291
2026-01-09 21:55:23.87	126.52	3.34	-59.6	-75.7	3.8	1.49e+00	0	24	104	1119879168	84	24207
2026-01-09 21:55:24.87	126.62	3.29	-59.6	-75.7	3.8	1.49e+00	0	24	104	1119879168	84	24219
2026-01-09 21:55:25.87	126.72	3.24	-59.6	-75.7	3.8	1.49e+00	0	23	104	1119879168	84	24137
2026-01-09 21:55:26.87	126.81	3.20	-59.6	-75.6	3.8	1.49e+00	0	24	104	1119879168	84	24130
2026-01-09 21:55:27.87	126.91	3.15	-59.6	-75.7	3.8	1.49e+00	0	24	104	1119879168	84	24158
2026-01-09 21:55:28.88	127.00	3.10	-59.6	-75.7	3.8	1.49e+00	0	24	104	1119879168	84	24138
2026-01-09 21:55:29.88	127.10	3.05	-59.6	-75.6	3.8	1.49e+00	0	24	104	1119879168	84	24043
2026-01-09 21:55:30.88	127.19	3.00	-59.6	-75.6	3.8	1.49e+00	0	24	104	1119879168	84	24028
2026-01-09 21:55:31.87	127.29	2.95	-59.6	-75.6	3.8	1.49e+00	0	23	104	1119879168	84	24068
2026-01-09 21:55:32.87	127.38	2.90	-59.6	-75.6	3.8	1.49e+00	0	24	104	1119879168	84	24040
2026-01-09 21:55:33.87	127.47	2.85	-59.6	-75.6	3.8	1.49e+00	0	24	104	1119879168	84	24047
2026-01-09 21:55:34.87	127.57	2.80	-59.6	-75.6	3.8	1.49e+00	0	24	104	1119879168	84	24080
2026-01-09 21:55:35.87	127.66	2.75	-59.6	-75.6	3.8	1.49e+00	0	24	104	1119879168	84	24035
2026-01-09 21:55:36.87	127.75	2.70	-59.6	-75.6	3.8	1.49e+00	0	24	104	1119879168	84	23997
2026-01-09 21:55:37.87	127.85	2.65	-59.6	-75.6	3.8	1.49e+00	0	23	104	1119879168	84	24046
2026-01-09 21:55:38.88	127.94	2.60	-59.6	-75.6	3.8	1.49e+00	0	24	104	1119879168	84	24023
