passes_logs/2026/01/09/R3.2S_Murmansk/R3.2S_Murmansk__20260109_114327_NOAA_20_JPSS-1_rec.log

#Pass ID: 20260109_114327_NOAA 20 (JPSS-1)
#Satellite: NOAA 20 (JPSS-1)
#Configuration: NOAA 20
#almurnet v.1.7.20251203
#Start time: 2026-01-09 11:43:29

#Version: 2.2.20231116
#Station: R3.2S_Murmansk
#Location: 33.079688 lon 68.888172 lat
#TLE: 1 43013U 17073A   26008.56343035  .00000133  00000+0  84205-4 0  9993
#TLE: 2 43013  98.7630 309.5710 0001731  48.5146 311.6178 14.19534569421822

#Time	Az	El	Level	Level2	SNR	BER	BlckErr	Temp	State	Recorded	gain1	gain2
2026-01-09 11:43:29.61	207.21	2.11	-57.8	-73.7	3.8	1.49e+00	0	22	0	0	82	21687
2026-01-09 11:43:30.60	207.27	2.17	-57.7	-73.6	3.8	1.49e+00	0	22	104	0	80	23984
2026-01-09 11:43:31.59	207.34	2.23	-57.7	-73.7	3.8	1.49e+00	0	22	104	0	80	24147
2026-01-09 11:43:32.58	207.40	2.28	-57.7	-73.7	3.8	1.49e+00	0	22	104	0	80	24175
2026-01-09 11:43:33.58	207.47	2.34	-57.7	-73.6	3.8	1.49e+00	0	22	104	0	80	24102
2026-01-09 11:43:34.58	207.54	2.40	-57.7	-73.6	3.8	1.49e+00	0	23	104	0	80	24123
2026-01-09 11:43:35.56	207.60	2.45	-57.7	-73.6	3.8	1.49e+00	0	22	104	0	80	24055
2026-01-09 11:43:36.56	207.67	2.51	-57.7	-73.6	3.8	1.49e+00	0	22	104	0	80	24040
2026-01-09 11:43:37.55	207.73	2.57	-57.7	-73.6	3.8	1.49e+00	0	22	104	0	80	24129
2026-01-09 11:43:38.54	207.80	2.62	-57.6	-73.6	3.8	1.49e+00	0	22	104	0	80	24007
2026-01-09 11:43:39.53	207.87	2.68	-57.6	-73.6	3.8	1.49e+00	0	23	104	0	80	24071
2026-01-09 11:43:40.53	207.94	2.74	-57.7	-73.7	3.8	1.49e+00	0	23	104	0	80	24168
2026-01-09 11:43:41.52	208.00	2.80	-57.7	-73.6	3.8	1.49e+00	0	23	104	0	80	24099
2026-01-09 11:43:42.51	208.07	2.85	-57.7	-73.7	3.8	1.49e+00	0	22	104	0	80	24154
2026-01-09 11:43:43.50	208.14	2.91	-57.7	-73.6	3.8	1.49e+00	0	23	104	0	80	24085
2026-01-09 11:43:44.49	208.21	2.97	-57.7	-73.6	3.8	1.49e+00	0	22	104	0	80	24117
2026-01-09 11:43:45.47	208.28	3.02	-57.7	-73.6	3.8	1.49e+00	0	23	104	0	80	24026
2026-01-09 11:43:46.47	208.35	3.08	-57.7	-73.6	3.8	1.49e+00	0	23	104	0	80	24023
2026-01-09 11:43:47.46	208.42	3.14	-57.7	-73.6	3.8	1.49e+00	0	23	104	0	80	24007
2026-01-09 11:43:48.44	208.48	3.20	-57.7	-73.6	3.8	1.49e+00	0	23	104	0	80	23909
2026-01-09 11:43:49.44	208.55	3.26	-57.7	-73.6	3.8	1.49e+00	0	23	104	0	80	23930
2026-01-09 11:43:50.43	208.62	3.31	-57.7	-73.6	3.8	1.49e+00	0	23	104	0	80	24002
2026-01-09 11:43:51.41	208.69	3.37	-57.7	-73.5	3.8	1.49e+00	0	23	104	0	80	23833
2026-01-09 11:43:52.41	208.77	3.43	-57.7	-73.5	3.8	1.49e+00	0	22	104	0	80	23776
2026-01-09 11:43:53.40	208.84	3.49	-57.7	-73.5	3.8	1.49e+00	0	23	104	0	80	23707
2026-01-09 11:43:54.39	208.91	3.55	-57.6	-73.5	3.8	1.49e+00	0	23	104	0	80	23717
2026-01-09 11:43:55.38	208.98	3.61	-57.7	-73.5	3.8	1.49e+00	0	23	104	0	80	23793
2026-01-09 11:43:56.38	209.05	3.66	-57.6	-73.4	3.8	1.49e+00	0	23	104	0	80	23507
2026-01-09 11:43:57.37	209.12	3.72	-57.7	-73.4	3.8	1.49e+00	0	23	104	0	80	23358
2026-01-09 11:43:58.35	209.19	3.78	-57.6	-73.3	3.8	1.49e+00	0	23	104	0	80	23180
2026-01-09 11:43:59.34	209.27	3.84	-57.7	-73.2	3.8	1.49e+00	0	23	104	0	80	23009
2026-01-09 11:44:00.33	209.34	3.90	-57.6	-73.2	3.8	1.49e+00	0	23	104	0	80	22936
2026-01-09 11:44:01.32	209.41	3.96	-57.6	-73.3	3.8	1.49e+00	0	23	104	0	80	23266
2026-01-09 11:44:02.32	209.49	4.02	-57.6	-73.6	3.8	1.49e+00	0	23	104	0	80	23892
2026-01-09 11:44:03.31	209.56	4.08	-57.7	-73.6	3.8	1.49e+00	0	23	104	0	80	24094
2026-01-09 11:44:04.30	209.63	4.14	-57.7	-73.5	3.8	1.49e+00	0	23	104	0	80	23693
2026-01-09 11:44:05.29	209.71	4.19	-57.6	-72.8	3.8	1.49e+00	0	23	104	0	80	21907
2026-01-09 11:44:06.29	209.78	4.25	-57.6	-72.0	3.8	1.49e+00	0	23	104	0	80	19944
2026-01-09 11:44:07.27	209.86	4.31	-57.5	-71.0	3.9	1.49e+00	0	23	104	0	80	17763
2026-01-09 11:44:08.26	209.93	4.37	-57.5	-69.7	4.3	1.38e+00	0	23	0	0	80	15353
2026-01-09 11:44:09.26	210.01	4.43	-57.4	-69.0	4.6	1.13e+00	0	23	0	1048576	80	14137
2026-01-09 11:44:10.24	210.08	4.49	-57.4	-68.1	4.9	8.55e-01	0	23	0	3145728	80	12802
2026-01-09 11:44:11.22	210.16	4.55	-57.3	-67.6	5.2	6.70e-01	0	23	0	5242880	80	12075
2026-01-09 11:44:12.21	210.23	4.61	-57.3	-67.1	5.5	4.51e-01	0	23	0	6291456	80	11381
2026-01-09 11:44:13.20	210.31	4.67	-57.1	-66.0	6.2	2.94e-01	0	23	0	8388608	80	9983
2026-01-09 11:44:14.19	210.39	4.73	-56.9	-64.7	7.3	1.52e-01	0	23	0	10485760	80	8573
2026-01-09 11:44:15.18	210.46	4.79	-56.5	-63.0	8.8	5.41e-02	0	23	0	12582912	79	7490
2026-01-09 11:44:16.17	210.54	4.85	-56.3	-61.9	9.8	5.75e-03	0	23	0	13631488	79	6646
2026-01-09 11:44:17.16	210.62	4.91	-55.8	-60.5	10.9	1.09e-03	0	23	0	15728640	78	5975
2026-01-09 11:44:18.15	210.70	4.97	-55.3	-59.4	11.7	1.11e-04	0	23	0	17825792	77	5586
2026-01-09 11:44:19.14	210.77	5.03	-54.9	-58.7	12.3	1.52e-05	0	23	0	19922944	76	5414
2026-01-09 11:44:20.13	210.85	5.10	-55.4	-59.9	11.3	9.00e-05	0	23	0	20971520	76	6222
2026-01-09 11:44:21.12	210.93	5.16	-56.5	-62.8	8.8	8.53e-03	0	23	0	23068672	78	7797
2026-01-09 11:44:22.11	211.01	5.22	-55.0	-59.1	11.8	6.02e-05	0	23	0	25165824	75	6000
2026-01-09 11:44:23.10	211.09	5.28	-57.4	-69.6	4.3	8.85e-01	3	23	0	27262976	79	16044
2026-01-09 11:44:24.09	211.17	5.34	-53.7	-56.6	13.4	0.00e+00	0	23	0	28311552	73	5049
2026-01-09 11:44:25.08	211.25	5.40	-53.3	-56.0	13.9	0.00e+00	0	23	0	30408704	73	4732
2026-01-09 11:44:26.06	211.33	5.46	-53.5	-56.2	13.7	0.00e+00	0	23	0	32505856	73	4831
2026-01-09 11:44:27.06	211.41	5.52	-53.4	-56.0	13.8	0.00e+00	0	23	0	34603008	73	4759
2026-01-09 11:44:28.05	211.49	5.58	-53.4	-56.1	13.8	0.00e+00	0	23	0	35651584	73	4769
2026-01-09 11:44:29.05	211.57	5.65	-53.4	-56.1	13.8	0.00e+00	0	23	0	37748736	73	4805
2026-01-09 11:44:30.04	211.65	5.71	-53.4	-56.0	13.9	0.00e+00	0	23	0	39845888	73	4740
2026-01-09 11:44:31.03	211.74	5.77	-53.4	-56.1	13.9	0.00e+00	0	23	0	41943040	73	4762
2026-01-09 11:44:32.02	211.82	5.83	-53.3	-55.9	13.9	0.00e+00	0	23	0	44040192	73	4698
2026-01-09 11:44:33.02	211.90	5.90	-53.3	-55.9	14.0	0.00e+00	0	23	0	45088768	73	4654
2026-01-09 11:44:34.01	211.99	5.96	-53.3	-55.8	14.0	0.00e+00	0	23	0	47185920	73	4635
2026-01-09 11:44:35.00	212.07	6.02	-53.3	-55.8	14.0	0.00e+00	0	23	0	49283072	73	4630
2026-01-09 11:44:36.00	212.15	6.08	-53.1	-55.6	14.0	0.00e+00	0	23	0	51380224	72	4793
2026-01-09 11:44:37.00	212.24	6.15	-53.2	-55.7	13.9	0.00e+00	0	23	0	52428800	72	4858
2026-01-09 11:44:37.99	212.32	6.21	-53.3	-55.8	13.9	0.00e+00	0	23	0	54525952	72	4922
2026-01-09 11:44:38.98	212.41	6.27	-53.2	-55.7	13.9	0.00e+00	0	23	0	56623104	72	4863
2026-01-09 11:44:39.97	212.49	6.33	-53.2	-55.8	13.9	0.00e+00	0	23	0	58720256	72	4875
2026-01-09 11:44:40.97	212.58	6.40	-53.3	-55.8	13.9	0.00e+00	0	23	0	60817408	72	4925
2026-01-09 11:44:41.96	212.66	6.46	-53.2	-55.6	14.0	0.00e+00	0	23	0	61865984	72	4813
2026-01-09 11:44:42.95	212.75	6.52	-53.1	-55.5	14.1	0.00e+00	0	23	0	63963136	72	4734
2026-01-09 11:44:43.94	212.84	6.59	-53.1	-55.6	14.0	0.00e+00	0	23	0	66060288	72	4803
2026-01-09 11:44:44.93	212.92	6.65	-53.1	-55.6	14.0	0.00e+00	0	23	0	68157440	72	4785
2026-01-09 11:44:45.92	213.01	6.71	-53.2	-55.7	14.0	0.00e+00	0	23	0	69206016	72	4817
2026-01-09 11:44:46.90	213.10	6.78	-53.2	-55.7	14.0	0.00e+00	0	23	0	71303168	72	4851
2026-01-09 11:44:47.89	213.19	6.84	-53.3	-55.8	13.9	0.00e+00	0	23	0	73400320	72	4897
2026-01-09 11:44:48.88	213.27	6.90	-53.3	-55.9	13.9	0.00e+00	0	23	0	75497472	72	4937
2026-01-09 11:44:49.87	213.36	6.97	-53.3	-55.8	14.0	0.00e+00	0	23	0	76546048	72	4886
2026-01-09 11:44:50.86	213.45	7.03	-53.2	-55.7	14.0	0.00e+00	0	23	0	78643200	72	4854
2026-01-09 11:44:51.86	213.54	7.09	-53.2	-55.7	14.0	0.00e+00	0	23	0	80740352	72	4845
2026-01-09 11:44:52.85	213.63	7.16	-53.3	-55.8	13.9	0.00e+00	0	23	0	82837504	72	4916
2026-01-09 11:44:53.84	213.72	7.22	-53.3	-55.9	13.9	0.00e+00	0	24	0	84934656	72	4929
2026-01-09 11:44:54.83	213.81	7.29	-53.3	-55.8	13.9	0.00e+00	0	23	0	85983232	72	4892
2026-01-09 11:44:55.82	213.90	7.35	-53.2	-55.7	14.0	0.00e+00	0	23	0	88080384	72	4855
2026-01-09 11:44:56.81	213.99	7.42	-53.2	-55.7	14.0	0.00e+00	0	23	0	90177536	72	4819
2026-01-09 11:44:57.79	214.09	7.48	-53.2	-55.7	14.0	0.00e+00	0	24	0	92274688	72	4837
2026-01-09 11:44:58.78	214.18	7.54	-53.2	-55.6	14.1	0.00e+00	0	24	0	93323264	72	4808
2026-01-09 11:44:59.77	214.27	7.61	-53.2	-55.6	14.1	0.00e+00	0	23	0	95420416	72	4814
2026-01-09 11:45:00.77	214.36	7.67	-53.1	-55.5	14.1	0.00e+00	0	24	0	97517568	72	4745
2026-01-09 11:45:01.77	214.46	7.74	-53.2	-55.6	14.1	0.00e+00	0	24	0	99614720	72	4794
2026-01-09 11:45:02.76	214.55	7.80	-53.2	-55.6	14.1	0.00e+00	0	24	0	100663296	72	4786
2026-01-09 11:45:03.75	214.65	7.87	-53.1	-55.5	14.2	0.00e+00	0	23	0	102760448	72	4743
2026-01-09 11:45:04.75	214.74	7.94	-53.1	-55.5	14.2	0.00e+00	0	23	0	104857600	72	4722
2026-01-09 11:45:05.75	214.84	8.00	-53.2	-55.6	14.1	0.00e+00	0	24	0	106954752	72	4789
2026-01-09 11:45:06.74	214.93	8.07	-53.1	-55.4	14.2	0.00e+00	0	23	0	109051904	72	4704
2026-01-09 11:45:07.74	215.03	8.13	-53.1	-55.4	14.2	0.00e+00	0	23	0	110100480	72	4693
2026-01-09 11:45:08.73	215.12	8.20	-53.1	-55.4	14.2	0.00e+00	0	24	0	112197632	72	4703
2026-01-09 11:45:09.72	215.22	8.27	-53.0	-55.3	14.3	0.00e+00	0	24	0	114294784	72	4647
2026-01-09 11:45:10.71	215.32	8.33	-53.0	-55.3	14.3	0.00e+00	0	24	0	116391936	72	4628
2026-01-09 11:45:11.70	215.42	8.40	-53.0	-55.3	14.3	0.00e+00	0	24	0	117440512	72	4605
2026-01-09 11:45:12.70	215.51	8.46	-52.9	-55.2	14.3	0.00e+00	0	24	0	119537664	72	4580
2026-01-09 11:45:13.69	215.61	8.53	-52.8	-55.1	14.5	0.00e+00	0	24	0	121634816	72	4497
2026-01-09 11:45:14.68	215.71	8.60	-52.8	-55.1	14.5	0.00e+00	0	23	0	123731968	72	4500
2026-01-09 11:45:15.68	215.81	8.66	-52.8	-55.1	14.5	0.00e+00	0	23	0	125829120	72	4509
2026-01-09 11:45:16.67	215.91	8.73	-52.8	-55.0	14.5	0.00e+00	0	23	0	126877696	72	4467
2026-01-09 11:45:17.66	216.01	8.80	-52.7	-54.9	14.5	0.00e+00	0	23	0	128974848	72	4439
2026-01-09 11:45:18.65	216.11	8.86	-52.7	-54.9	14.6	0.00e+00	0	24	0	131072000	72	4401
2026-01-09 11:45:19.64	216.21	8.93	-52.7	-54.9	14.6	0.00e+00	0	24	0	133169152	72	4409
2026-01-09 11:45:20.63	216.31	9.00	-52.7	-54.9	14.4	0.00e+00	0	23	0	134217728	71	4660
2026-01-09 11:45:21.61	216.41	9.06	-52.7	-54.8	14.4	0.00e+00	0	24	0	136314880	71	4644
2026-01-09 11:45:22.60	216.52	9.13	-52.5	-54.7	14.5	0.00e+00	0	24	0	138412032	71	4560
2026-01-09 11:45:23.60	216.62	9.20	-52.6	-54.8	14.5	0.00e+00	0	23	0	140509184	71	4600
2026-01-09 11:45:24.59	216.72	9.27	-52.7	-54.8	14.4	0.00e+00	0	24	0	142606336	71	4644
2026-01-09 11:45:25.58	216.83	9.33	-52.7	-55.0	14.4	0.00e+00	0	24	0	143654912	71	4710
2026-01-09 11:45:26.57	216.93	9.40	-52.7	-54.9	14.4	0.00e+00	0	23	0	145752064	71	4703
2026-01-09 11:45:27.56	217.03	9.47	-52.8	-55.0	14.3	0.00e+00	0	23	0	147849216	71	4746
2026-01-09 11:45:28.55	217.14	9.54	-52.7	-54.9	14.4	0.00e+00	0	24	0	149946368	71	4690
2026-01-09 11:45:29.54	217.24	9.60	-52.8	-55.0	14.3	0.00e+00	0	23	0	150994944	71	4731
2026-01-09 11:45:30.54	217.35	9.67	-52.8	-55.1	14.3	0.00e+00	0	23	0	153092096	71	4774
2026-01-09 11:45:31.53	217.46	9.74	-52.8	-55.1	14.3	0.00e+00	0	24	0	155189248	71	4768
2026-01-09 11:45:32.52	217.56	9.81	-52.8	-55.1	14.3	0.00e+00	0	24	0	157286400	71	4789
2026-01-09 11:45:33.51	217.67	9.88	-52.8	-55.0	14.3	0.00e+00	0	23	0	159383552	71	4758
2026-01-09 11:45:34.51	217.78	9.95	-52.8	-55.1	14.3	0.00e+00	0	23	0	160432128	71	4774
2026-01-09 11:45:35.51	217.89	10.02	-52.8	-55.0	14.4	0.00e+00	0	23	0	162529280	71	4750
2026-01-09 11:45:36.50	218.00	10.08	-52.8	-55.1	14.3	0.00e+00	0	24	0	164626432	71	4764
2026-01-09 11:45:37.50	218.11	10.15	-52.8	-55.0	14.3	0.00e+00	0	24	0	166723584	71	4754
2026-01-09 11:45:38.49	218.22	10.22	-52.8	-55.0	14.4	0.00e+00	0	24	0	167772160	71	4728
2026-01-09 11:45:39.49	218.33	10.29	-52.8	-55.0	14.4	0.00e+00	0	24	0	169869312	71	4740
2026-01-09 11:45:40.48	218.44	10.36	-52.6	-54.8	14.5	0.00e+00	0	24	0	171966464	71	4610
2026-01-09 11:45:41.47	218.55	10.43	-52.6	-54.7	14.5	0.00e+00	0	23	0	174063616	71	4582
2026-01-09 11:45:42.47	218.66	10.50	-52.5	-54.7	14.6	0.00e+00	0	24	0	176160768	71	4547
2026-01-09 11:45:43.46	218.78	10.57	-52.5	-54.6	14.6	0.00e+00	0	24	0	177209344	71	4505
2026-01-09 11:45:44.46	218.89	10.64	-52.5	-54.6	14.6	0.00e+00	0	23	0	179306496	71	4512
2026-01-09 11:45:45.45	219.00	10.71	-52.5	-54.6	14.6	0.00e+00	0	24	0	181403648	71	4527
2026-01-09 11:45:46.45	219.12	10.78	-52.5	-54.6	14.6	0.00e+00	0	23	0	183500800	71	4506
2026-01-09 11:45:47.43	219.23	10.85	-52.4	-54.4	14.7	0.00e+00	0	24	0	184549376	71	4433
2026-01-09 11:45:48.43	219.35	10.92	-52.3	-54.4	14.7	0.00e+00	0	24	0	186646528	71	4403
2026-01-09 11:45:49.42	219.46	10.99	-52.4	-54.5	14.7	0.00e+00	0	24	0	188743680	71	4451
2026-01-09 11:45:50.41	219.58	11.06	-52.3	-54.4	14.7	0.00e+00	0	23	0	190840832	71	4394
2026-01-09 11:45:51.41	219.70	11.13	-52.4	-54.4	14.7	0.00e+00	0	23	0	191889408	71	4437
2026-01-09 11:45:52.40	219.81	11.20	-52.6	-54.7	14.6	0.00e+00	0	24	0	193986560	71	4549
2026-01-09 11:45:53.40	219.93	11.27	-52.5	-54.6	14.6	0.00e+00	0	24	0	196083712	71	4515
2026-01-09 11:45:54.38	220.05	11.34	-52.3	-54.4	14.8	0.00e+00	0	23	0	198180864	71	4396
2026-01-09 11:45:55.37	220.17	11.41	-52.5	-54.5	14.7	0.00e+00	0	24	0	200278016	71	4475
2026-01-09 11:45:56.36	220.29	11.48	-52.3	-54.3	14.8	0.00e+00	0	23	0	201326592	71	4379
2026-01-09 11:45:57.36	220.41	11.55	-52.2	-54.2	14.9	0.00e+00	0	24	0	203423744	71	4312
2026-01-09 11:45:58.35	220.53	11.62	-52.3	-54.3	14.8	0.00e+00	0	24	0	205520896	71	4351
2026-01-09 11:45:59.34	220.65	11.70	-52.3	-54.3	14.8	0.00e+00	0	23	0	207618048	71	4348
2026-01-09 11:46:00.33	220.77	11.77	-52.3	-54.3	14.8	0.00e+00	0	24	0	208666624	71	4346
2026-01-09 11:46:01.32	220.89	11.84	-52.3	-54.3	14.8	0.00e+00	0	24	0	210763776	71	4344
2026-01-09 11:46:02.31	221.01	11.91	-52.4	-54.4	14.8	0.00e+00	0	24	0	212860928	71	4411
2026-01-09 11:46:03.31	221.14	11.98	-52.4	-54.4	14.7	0.00e+00	0	23	0	214958080	71	4430
2026-01-09 11:46:04.30	221.26	12.05	-52.4	-54.4	14.7	0.00e+00	0	23	0	217055232	71	4434
2026-01-09 11:46:05.29	221.39	12.12	-52.4	-54.4	14.8	0.00e+00	0	23	0	218103808	71	4403
2026-01-09 11:46:06.28	221.51	12.19	-52.4	-54.5	14.7	0.00e+00	0	24	0	220200960	71	4460
2026-01-09 11:46:07.28	221.64	12.27	-52.5	-54.6	14.7	0.00e+00	0	23	0	222298112	71	4505
2026-01-09 11:46:08.28	221.77	12.34	-52.5	-54.5	14.7	0.00e+00	0	23	0	224395264	71	4466
2026-01-09 11:46:09.27	221.89	12.41	-52.5	-54.6	14.6	0.00e+00	0	24	0	225443840	71	4508
2026-01-09 11:46:10.26	222.02	12.48	-52.5	-54.5	14.7	0.00e+00	0	24	0	227540992	71	4469
2026-01-09 11:46:11.26	222.15	12.56	-52.4	-54.4	14.7	0.00e+00	0	23	0	229638144	71	4440
2026-01-09 11:46:12.25	222.28	12.63	-52.4	-54.4	14.8	0.00e+00	0	24	0	231735296	71	4416
2026-01-09 11:46:13.24	222.41	12.70	-52.4	-54.4	14.8	0.00e+00	0	24	0	233832448	71	4413
2026-01-09 11:46:14.23	222.54	12.77	-52.4	-54.4	14.8	0.00e+00	0	23	0	234881024	71	4409
2026-01-09 11:46:15.23	222.67	12.84	-52.3	-54.3	14.9	0.00e+00	0	24	0	236978176	71	4344
2026-01-09 11:46:16.21	222.80	12.92	-52.3	-54.3	14.8	0.00e+00	0	24	0	239075328	71	4344
2026-01-09 11:46:17.20	222.93	12.99	-52.3	-54.3	14.8	0.00e+00	0	24	0	241172480	71	4369
2026-01-09 11:46:18.19	223.06	13.06	-52.4	-54.5	14.7	0.00e+00	0	24	0	242221056	71	4446
2026-01-09 11:46:19.18	223.19	13.13	-52.4	-54.3	14.8	0.00e+00	0	24	0	244318208	71	4388
2026-01-09 11:46:20.16	223.32	13.21	-52.2	-54.2	14.9	0.00e+00	0	24	0	246415360	71	4320
2026-01-09 11:46:21.15	223.46	13.28	-52.1	-54.1	14.8	0.00e+00	0	24	0	248512512	70	4511
2026-01-09 11:46:22.14	223.59	13.35	-52.2	-54.1	14.7	0.00e+00	0	24	0	249561088	70	4542
2026-01-09 11:46:23.13	223.73	13.42	-52.1	-54.1	14.8	0.00e+00	0	24	0	251658240	70	4502
2026-01-09 11:46:24.13	223.87	13.50	-52.2	-54.2	14.7	0.00e+00	0	24	0	253755392	70	4575
2026-01-09 11:46:25.11	224.00	13.57	-52.1	-54.1	14.8	0.00e+00	0	23	0	255852544	70	4504
2026-01-09 11:46:26.11	224.14	13.64	-52.1	-54.0	14.8	0.00e+00	0	24	0	257949696	70	4463
2026-01-09 11:46:27.10	224.28	13.72	-52.1	-54.1	14.8	0.00e+00	0	24	0	258998272	70	4498
2026-01-09 11:46:28.09	224.42	13.79	-52.2	-54.1	14.8	0.00e+00	0	24	0	261095424	70	4528
2026-01-09 11:46:29.08	224.55	13.86	-52.1	-54.0	14.8	0.00e+00	0	24	0	263192576	70	4488
2026-01-09 11:46:30.07	224.69	13.94	-52.0	-53.9	14.9	0.00e+00	0	24	0	265289728	70	4418
2026-01-09 11:46:31.06	224.84	14.01	-52.0	-53.9	14.9	0.00e+00	0	24	0	266338304	70	4440
2026-01-09 11:46:32.05	224.98	14.08	-52.1	-54.0	14.8	0.00e+00	0	24	0	268435456	70	4462
2026-01-09 11:46:33.04	225.12	14.16	-52.1	-54.0	14.8	0.00e+00	0	24	0	270532608	70	4475
2026-01-09 11:46:34.04	225.26	14.23	-52.2	-54.1	14.8	0.00e+00	0	24	0	272629760	70	4516
2026-01-09 11:46:35.04	225.41	14.31	-52.2	-54.1	14.8	0.00e+00	0	24	0	274726912	70	4528
2026-01-09 11:46:36.03	225.55	14.38	-52.1	-54.1	14.8	0.00e+00	0	24	0	275775488	70	4504
2026-01-09 11:46:37.03	225.70	14.46	-52.2	-54.1	14.8	0.00e+00	0	24	0	277872640	70	4536
2026-01-09 11:46:38.03	225.84	14.53	-52.2	-54.1	14.8	0.00e+00	0	24	0	279969792	70	4529
2026-01-09 11:46:39.03	225.99	14.61	-52.2	-54.2	14.7	0.00e+00	0	24	0	282066944	70	4553
2026-01-09 11:46:40.02	226.14	14.68	-52.1	-54.0	14.8	0.00e+00	0	24	0	283115520	70	4486
2026-01-09 11:46:41.02	226.29	14.75	-52.0	-53.9	14.9	0.00e+00	0	24	0	285212672	70	4439
2026-01-09 11:46:42.01	226.43	14.83	-52.0	-54.0	14.9	0.00e+00	0	24	0	287309824	70	4443
2026-01-09 11:46:43.01	226.59	14.90	-52.1	-54.0	14.8	0.00e+00	0	24	0	289406976	70	4458
2026-01-09 11:46:44.01	226.74	14.98	-52.0	-53.8	14.9	0.00e+00	0	24	0	291504128	70	4383
2026-01-09 11:46:45.00	226.89	15.05	-51.9	-53.8	15.0	0.00e+00	0	24	0	292552704	70	4368
2026-01-09 11:46:45.99	227.04	15.13	-51.9	-53.8	14.9	0.00e+00	0	24	0	294649856	70	4375
2026-01-09 11:46:46.98	227.19	15.20	-51.9	-53.8	14.9	0.00e+00	0	24	0	296747008	70	4377
2026-01-09 11:46:47.97	227.34	15.28	-51.9	-53.8	15.0	0.00e+00	0	24	0	298844160	70	4371
2026-01-09 11:46:48.96	227.50	15.35	-52.0	-53.9	14.9	0.00e+00	0	23	0	299892736	70	4411
2026-01-09 11:46:49.96	227.65	15.42	-51.8	-53.7	15.0	0.00e+00	0	24	0	301989888	70	4314
2026-01-09 11:46:50.95	227.81	15.50	-51.8	-53.7	15.1	0.00e+00	0	24	0	304087040	70	4295
2026-01-09 11:46:51.94	227.96	15.57	-51.9	-53.7	15.0	0.00e+00	0	24	0	306184192	70	4326
2026-01-09 11:46:52.94	228.12	15.65	-51.9	-53.7	15.0	0.00e+00	0	24	0	308281344	70	4314
2026-01-09 11:46:53.93	228.28	15.72	-51.8	-53.6	15.1	0.00e+00	0	24	0	309329920	70	4291
2026-01-09 11:46:54.93	228.43	15.80	-51.7	-53.5	15.1	0.00e+00	0	24	0	311427072	70	4221
2026-01-09 11:46:55.93	228.60	15.87	-51.8	-53.6	15.1	0.00e+00	0	24	0	313524224	70	4255
2026-01-09 11:46:56.92	228.75	15.95	-51.7	-53.5	15.1	0.00e+00	0	24	0	315621376	70	4237
2026-01-09 11:46:57.91	228.91	16.02	-51.8	-53.6	15.0	0.00e+00	0	24	0	316669952	70	4290
2026-01-09 11:46:58.92	229.08	16.10	-51.8	-53.7	15.0	0.00e+00	0	24	0	318767104	70	4299
2026-01-09 11:46:59.90	229.24	16.17	-51.6	-53.4	15.0	0.00e+00	0	24	0	320864256	69	4405
2026-01-09 11:47:00.90	229.40	16.25	-51.6	-53.4	15.0	0.00e+00	0	24	0	322961408	69	4435
2026-01-09 11:47:01.90	229.57	16.33	-51.6	-53.4	15.0	0.00e+00	0	23	0	325058560	69	4436
2026-01-09 11:47:02.89	229.73	16.40	-51.7	-53.5	14.9	0.00e+00	0	24	0	326107136	69	4461
2026-01-09 11:47:03.88	229.90	16.48	-51.7	-53.5	14.9	0.00e+00	0	24	0	328204288	69	4466
2026-01-09 11:47:04.86	230.06	16.55	-51.7	-53.5	15.0	0.00e+00	0	24	0	330301440	69	4442
2026-01-09 11:47:05.86	230.23	16.62	-51.5	-53.3	15.1	0.00e+00	0	24	0	332398592	69	4356
2026-01-09 11:47:06.85	230.40	16.70	-51.3	-53.0	15.2	0.00e+00	0	24	0	333447168	69	4230
2026-01-09 11:47:07.84	230.56	16.77	-51.3	-53.0	15.2	0.00e+00	0	24	0	335544320	69	4216
2026-01-09 11:47:08.84	230.73	16.85	-51.3	-53.1	15.2	0.00e+00	0	24	0	337641472	69	4246
2026-01-09 11:47:09.83	230.90	16.92	-51.4	-53.1	15.2	0.00e+00	0	24	0	339738624	69	4286
2026-01-09 11:47:10.82	231.07	17.00	-51.4	-53.1	15.2	0.00e+00	0	24	0	341835776	69	4256
2026-01-09 11:47:11.81	231.25	17.07	-51.4	-53.1	15.2	0.00e+00	0	24	0	342884352	69	4280
2026-01-09 11:47:12.81	231.42	17.15	-51.4	-53.1	15.2	0.00e+00	0	24	0	344981504	69	4267
2026-01-09 11:47:13.81	231.59	17.23	-51.4	-53.1	15.2	0.00e+00	0	24	0	347078656	69	4267
2026-01-09 11:47:14.81	231.77	17.30	-51.4	-53.2	15.1	0.00e+00	0	24	0	349175808	69	4306
2026-01-09 11:47:15.80	231.94	17.38	-51.5	-53.3	15.1	0.00e+00	0	24	0	350224384	69	4354
2026-01-09 11:47:16.79	232.12	17.45	-51.5	-53.3	15.1	0.00e+00	0	24	0	352321536	69	4346
2026-01-09 11:47:17.78	232.30	17.52	-51.4	-53.1	15.2	0.00e+00	0	24	0	354418688	69	4275
2026-01-09 11:47:18.78	232.47	17.60	-51.5	-53.2	15.1	0.00e+00	0	24	0	356515840	69	4305
2026-01-09 11:47:19.77	232.65	17.67	-51.6	-53.4	15.0	0.00e+00	0	24	0	358612992	69	4395
2026-01-09 11:47:20.76	232.83	17.75	-51.6	-53.4	15.0	0.00e+00	0	24	0	359661568	69	4393
2026-01-09 11:47:21.76	233.01	17.82	-51.7	-53.5	15.0	0.00e+00	0	24	0	361758720	69	4459
2026-01-09 11:47:22.75	233.19	17.90	-51.7	-53.5	14.9	0.00e+00	0	24	0	363855872	69	4463
2026-01-09 11:47:23.74	233.37	17.97	-51.7	-53.5	14.9	0.00e+00	0	24	0	365953024	69	4493
2026-01-09 11:47:24.72	233.56	18.05	-51.8	-53.6	14.9	0.00e+00	0	24	0	367001600	69	4511
2026-01-09 11:47:25.71	233.74	18.12	-51.9	-53.7	14.8	0.00e+00	0	24	0	369098752	69	4587
2026-01-09 11:47:26.70	233.92	18.20	-51.9	-53.7	14.9	0.00e+00	0	24	0	371195904	69	4581
2026-01-09 11:47:27.69	234.11	18.27	-51.9	-53.7	14.8	0.00e+00	0	24	0	373293056	69	4598
2026-01-09 11:47:28.69	234.29	18.34	-51.8	-53.6	14.9	0.00e+00	0	24	0	374341632	69	4520
2026-01-09 11:47:29.68	234.48	18.42	-51.9	-53.7	14.8	0.00e+00	0	24	0	376438784	69	4595
2026-01-09 11:47:30.68	234.67	18.49	-51.7	-53.4	15.0	0.00e+00	0	24	0	378535936	69	4434
2026-01-09 11:47:31.67	234.86	18.57	-51.7	-53.5	15.0	0.00e+00	0	24	0	380633088	69	4451
2026-01-09 11:47:32.67	235.05	18.64	-51.6	-53.4	15.0	0.00e+00	0	24	0	382730240	69	4413
2026-01-09 11:47:33.66	235.24	18.71	-51.6	-53.3	15.1	0.00e+00	0	24	0	383778816	69	4382
2026-01-09 11:47:34.65	235.43	18.79	-51.5	-53.2	15.1	0.00e+00	0	24	0	385875968	69	4315
2026-01-09 11:47:35.64	235.62	18.86	-51.4	-53.1	15.2	0.00e+00	0	24	0	387973120	69	4269
2026-01-09 11:47:36.64	235.82	18.94	-51.4	-53.2	15.2	0.00e+00	0	24	0	390070272	69	4303
2026-01-09 11:47:37.63	236.01	19.01	-51.3	-53.0	15.3	0.00e+00	0	23	0	391118848	69	4232
2026-01-09 11:47:38.62	236.21	19.08	-51.3	-53.0	15.3	0.00e+00	0	24	0	393216000	69	4236
2026-01-09 11:47:39.62	236.41	19.16	-51.2	-52.9	15.3	0.00e+00	0	24	0	395313152	69	4157
2026-01-09 11:47:40.61	236.60	19.23	-51.1	-52.8	15.2	0.00e+00	0	24	0	397410304	68	4349
2026-01-09 11:47:41.61	236.80	19.30	-51.1	-52.8	15.2	0.00e+00	0	24	0	399507456	68	4364
2026-01-09 11:47:42.60	237.00	19.38	-51.1	-52.7	15.2	0.00e+00	0	24	0	400556032	68	4339
2026-01-09 11:47:43.59	237.20	19.45	-50.9	-52.5	15.3	0.00e+00	0	24	0	402653184	68	4219
2026-01-09 11:47:44.59	237.40	19.52	-50.8	-52.4	15.4	0.00e+00	0	24	0	404750336	68	4158
2026-01-09 11:47:45.57	237.60	19.59	-50.7	-52.3	15.4	0.00e+00	0	24	0	406847488	68	4099
2026-01-09 11:47:46.57	237.80	19.67	-50.4	-52.0	15.4	0.00e+00	0	24	0	407896064	67	4213
2026-01-09 11:47:47.57	238.01	19.74	-50.4	-52.0	15.3	0.00e+00	0	24	0	409993216	67	4208
2026-01-09 11:47:48.56	238.21	19.81	-50.4	-52.0	15.4	0.00e+00	0	24	0	412090368	67	4215
2026-01-09 11:47:49.56	238.42	19.88	-50.5	-52.0	15.4	0.00e+00	0	24	0	414187520	67	4225
2026-01-09 11:47:50.54	238.62	19.96	-50.5	-52.0	15.3	0.00e+00	0	24	0	416284672	67	4215
2026-01-09 11:47:51.54	238.83	20.03	-50.4	-51.9	15.4	0.00e+00	0	24	0	417333248	67	4169
2026-01-09 11:47:52.54	239.04	20.10	-50.4	-51.9	15.4	0.00e+00	0	24	0	419430400	67	4192
2026-01-09 11:47:53.53	239.25	20.17	-50.3	-51.9	15.4	0.00e+00	0	24	0	421527552	67	4159
2026-01-09 11:47:54.52	239.46	20.24	-50.3	-51.9	15.4	0.00e+00	0	24	0	423624704	67	4161
2026-01-09 11:47:55.51	239.67	20.31	-50.3	-51.8	15.4	0.00e+00	0	24	0	424673280	67	4142
2026-01-09 11:47:56.50	239.88	20.38	-50.4	-51.9	15.4	0.00e+00	0	24	0	426770432	67	4158
2026-01-09 11:47:57.51	240.10	20.45	-50.3	-51.8	15.5	0.00e+00	0	24	0	428867584	67	4113
2026-01-09 11:47:58.49	240.31	20.52	-50.4	-51.9	15.4	0.00e+00	0	23	0	430964736	67	4184
2026-01-09 11:47:59.49	240.53	20.60	-50.4	-51.9	15.4	0.00e+00	0	24	0	433061888	67	4177
2026-01-09 11:48:00.48	240.74	20.67	-50.3	-51.9	15.4	0.00e+00	0	24	0	434110464	67	4153
2026-01-09 11:48:01.48	240.96	20.74	-50.5	-52.0	15.3	0.00e+00	0	24	0	436207616	67	4236
2026-01-09 11:48:02.46	241.18	20.80	-50.5	-52.1	15.3	0.00e+00	0	24	0	438304768	67	4259
2026-01-09 11:48:03.46	241.40	20.87	-50.5	-52.1	15.3	0.00e+00	0	24	0	440401920	67	4261
2026-01-09 11:48:04.45	241.62	20.94	-50.5	-52.1	15.3	0.00e+00	0	24	0	441450496	67	4252
2026-01-09 11:48:05.44	241.84	21.01	-50.5	-52.0	15.3	0.00e+00	0	24	0	443547648	67	4232
2026-01-09 11:48:06.43	242.06	21.08	-50.5	-52.1	15.3	0.00e+00	0	24	0	445644800	67	4251
2026-01-09 11:48:07.42	242.28	21.15	-50.5	-52.1	15.3	0.00e+00	0	24	0	447741952	67	4263
2026-01-09 11:48:08.42	242.50	21.22	-50.5	-52.1	15.3	0.00e+00	0	24	0	449839104	67	4262
2026-01-09 11:48:09.41	242.73	21.29	-50.7	-52.2	15.3	0.00e+00	0	24	0	450887680	67	4338
2026-01-09 11:48:10.41	242.96	21.35	-50.6	-52.2	15.3	0.00e+00	0	24	0	452984832	67	4329
2026-01-09 11:48:11.40	243.18	21.42	-50.7	-52.2	15.2	0.00e+00	0	24	0	455081984	67	4335
2026-01-09 11:48:12.40	243.41	21.49	-50.7	-52.3	15.2	0.00e+00	0	24	0	457179136	67	4381
2026-01-09 11:48:13.39	243.64	21.56	-50.7	-52.3	15.2	0.00e+00	0	24	0	458227712	67	4353
2026-01-09 11:48:14.38	243.87	21.62	-50.6	-52.2	15.3	0.00e+00	0	24	0	460324864	67	4293
2026-01-09 11:48:15.37	244.10	21.69	-50.7	-52.3	15.2	0.00e+00	0	24	0	462422016	67	4382
2026-01-09 11:48:16.37	244.33	21.75	-50.8	-52.4	15.2	0.00e+00	0	24	0	464519168	67	4414
2026-01-09 11:48:17.37	244.56	21.82	-50.9	-52.5	15.1	0.00e+00	0	24	0	466616320	67	4477
2026-01-09 11:48:18.36	244.80	21.89	-51.0	-52.6	15.0	0.00e+00	0	23	0	467664896	67	4541
2026-01-09 11:48:19.35	245.03	21.95	-51.1	-52.7	15.0	0.00e+00	0	24	0	469762048	67	4598
2026-01-09 11:48:20.34	245.26	22.02	-51.1	-52.8	15.0	0.00e+00	0	24	0	471859200	67	4633
2026-01-09 11:48:21.33	245.50	22.08	-51.2	-52.9	14.9	0.00e+00	0	24	0	473956352	67	4702
2026-01-09 11:48:22.32	245.74	22.14	-51.3	-53.1	14.8	0.00e+00	0	24	0	475004928	67	4760
2026-01-09 11:48:23.32	245.98	22.21	-51.3	-53.0	14.9	0.00e+00	0	24	0	477102080	67	4721
2026-01-09 11:48:24.30	246.21	22.27	-51.3	-53.0	14.9	0.00e+00	0	24	0	479199232	67	4756
2026-01-09 11:48:25.30	246.45	22.33	-51.2	-52.9	14.9	0.00e+00	0	24	0	481296384	67	4696
2026-01-09 11:48:26.29	246.69	22.40	-51.2	-52.9	14.9	0.00e+00	0	24	0	482344960	67	4691
2026-01-09 11:48:27.28	246.93	22.46	-51.1	-52.8	14.9	0.00e+00	0	24	0	484442112	67	4640
2026-01-09 11:48:28.28	247.18	22.52	-51.1	-52.8	14.9	0.00e+00	0	24	0	486539264	67	4650
2026-01-09 11:48:29.26	247.42	22.58	-51.2	-52.9	14.9	0.00e+00	0	24	0	488636416	67	4684
2026-01-09 11:48:30.26	247.67	22.64	-51.2	-52.9	14.9	0.00e+00	0	24	0	490733568	67	4670
2026-01-09 11:48:31.25	247.91	22.71	-51.3	-53.0	14.9	0.00e+00	0	24	0	491782144	67	4721
2026-01-09 11:48:32.24	248.16	22.77	-51.3	-53.1	14.8	0.00e+00	0	24	0	493879296	67	4784
2026-01-09 11:48:33.23	248.40	22.83	-51.3	-53.1	14.8	0.00e+00	0	24	0	495976448	67	4776
2026-01-09 11:48:34.22	248.65	22.89	-51.3	-53.1	14.9	0.00e+00	0	24	0	498073600	67	4771
2026-01-09 11:48:35.20	248.90	22.94	-51.2	-52.9	14.9	0.00e+00	0	24	0	499122176	67	4703
2026-01-09 11:48:36.19	249.15	23.00	-51.2	-52.9	14.9	0.00e+00	0	24	0	501219328	67	4695
2026-01-09 11:48:37.19	249.40	23.06	-51.2	-52.9	14.9	0.00e+00	0	24	0	503316480	67	4701
2026-01-09 11:48:38.18	249.65	23.12	-51.3	-53.0	14.9	0.00e+00	0	24	0	505413632	67	4750
2026-01-09 11:48:39.19	249.91	23.18	-51.3	-53.1	14.8	0.00e+00	0	24	0	507510784	67	4762
2026-01-09 11:48:40.17	250.16	23.23	-51.6	-53.4	14.9	0.00e+00	0	24	0	508559360	68	4663
2026-01-09 11:48:41.17	250.41	23.29	-51.7	-53.5	14.8	0.00e+00	0	24	0	510656512	68	4724
2026-01-09 11:48:42.16	250.67	23.35	-51.9	-53.7	14.7	0.00e+00	0	24	0	512753664	68	4832
2026-01-09 11:48:43.16	250.93	23.40	-52.0	-53.9	14.8	0.00e+00	0	24	0	514850816	69	4664
2026-01-09 11:48:44.15	251.18	23.46	-52.1	-54.0	14.7	0.00e+00	0	24	0	515899392	69	4755
2026-01-09 11:48:45.14	251.44	23.51	-52.3	-54.2	14.6	0.00e+00	0	24	0	517996544	69	4834
2026-01-09 11:48:46.13	251.70	23.57	-52.4	-54.4	14.6	0.00e+00	0	24	0	520093696	69	4927
2026-01-09 11:48:47.13	251.96	23.62	-52.5	-54.5	14.6	0.00e+00	0	24	0	522190848	70	4724
2026-01-09 11:48:48.12	252.22	23.68	-52.6	-54.6	14.6	0.00e+00	0	24	0	524288000	70	4767
2026-01-09 11:48:49.12	252.49	23.73	-52.5	-54.4	14.6	0.00e+00	0	24	0	525336576	70	4692
2026-01-09 11:48:50.11	252.75	23.78	-52.5	-54.6	14.6	0.00e+00	0	24	0	527433728	70	4763
2026-01-09 11:48:51.11	253.01	23.83	-52.5	-54.5	14.6	0.00e+00	0	24	0	529530880	70	4731
2026-01-09 11:48:52.10	253.28	23.89	-52.5	-54.5	14.6	0.00e+00	0	24	0	531628032	70	4724
2026-01-09 11:48:53.10	253.54	23.94	-52.6	-54.6	14.6	0.00e+00	0	24	0	532676608	70	4769
2026-01-09 11:48:54.09	253.81	23.99	-52.7	-54.8	14.5	0.00e+00	0	24	0	534773760	70	4884
2026-01-09 11:48:55.08	254.08	24.04	-53.0	-55.1	14.4	0.00e+00	0	24	0	536870912	71	4781
2026-01-09 11:48:56.07	254.34	24.09	-53.1	-55.2	14.3	0.00e+00	0	24	0	538968064	71	4866
2026-01-09 11:48:57.07	254.61	24.13	-53.2	-55.4	14.3	0.00e+00	0	24	0	541065216	71	4953
2026-01-09 11:48:58.06	254.88	24.18	-53.2	-55.5	14.2	0.00e+00	0	24	0	542113792	71	4997
2026-01-09 11:48:59.06	255.15	24.23	-53.2	-55.4	14.3	0.00e+00	0	24	0	544210944	71	4929
2026-01-09 11:49:00.05	255.42	24.28	-53.0	-55.1	14.4	0.00e+00	0	24	0	546308096	71	4789
2026-01-09 11:49:01.05	255.70	24.32	-52.8	-54.9	14.6	0.00e+00	0	24	0	548405248	71	4683
2026-01-09 11:49:02.04	255.97	24.37	-52.6	-54.6	14.7	0.00e+00	0	24	0	549453824	71	4545
2026-01-09 11:49:03.03	256.24	24.41	-52.5	-54.5	14.8	0.00e+00	0	24	0	551550976	71	4453
2026-01-09 11:49:04.02	256.51	24.46	-52.5	-54.4	14.8	0.00e+00	0	24	0	553648128	71	4430
2026-01-09 11:49:05.02	256.79	24.50	-52.6	-54.5	14.8	0.00e+00	0	24	0	555745280	71	4492
2026-01-09 11:49:06.01	257.07	24.55	-52.8	-54.8	14.6	0.00e+00	0	24	0	557842432	71	4624
2026-01-09 11:49:07.00	257.34	24.59	-53.1	-55.3	14.3	0.00e+00	0	24	0	558891008	71	4916
2026-01-09 11:49:08.00	257.62	24.63	-53.5	-55.9	14.1	0.00e+00	0	24	0	560988160	72	4939
2026-01-09 11:49:08.99	257.90	24.67	-53.8	-56.3	13.9	0.00e+00	0	24	0	563085312	72	5173
2026-01-09 11:49:09.98	258.17	24.71	-54.0	-56.5	13.9	0.00e+00	0	24	0	565182464	73	5004
2026-01-09 11:49:10.97	258.45	24.75	-53.9	-56.5	13.9	0.00e+00	0	24	0	566231040	73	4984
2026-01-09 11:49:11.96	258.73	24.79	-53.8	-56.3	14.0	0.00e+00	0	24	0	568328192	73	4910
2026-01-09 11:49:12.96	259.01	24.83	-53.6	-56.0	14.2	0.00e+00	0	24	0	570425344	73	4726
2026-01-09 11:49:13.95	259.29	24.87	-53.5	-55.8	14.3	0.00e+00	0	24	0	572522496	73	4635
2026-01-09 11:49:14.94	259.58	24.91	-53.4	-55.6	14.5	0.00e+00	0	24	0	573571072	73	4499
2026-01-09 11:49:15.93	259.86	24.95	-53.3	-55.5	14.5	0.00e+00	0	24	0	575668224	73	4442
2026-01-09 11:49:16.91	260.14	24.98	-53.3	-55.5	14.5	0.00e+00	0	24	0	577765376	73	4466
2026-01-09 11:49:17.90	260.42	25.02	-53.4	-55.7	14.4	0.00e+00	0	24	0	579862528	73	4554
2026-01-09 11:49:18.90	260.71	25.05	-53.6	-56.0	14.2	0.00e+00	0	24	0	581959680	73	4707
2026-01-09 11:49:19.89	260.99	25.09	-53.7	-56.1	14.2	0.00e+00	0	24	0	583008256	73	4792
2026-01-09 11:49:20.88	261.27	25.12	-53.7	-56.2	14.1	0.00e+00	0	24	0	585105408	73	4824
2026-01-09 11:49:21.87	261.56	25.15	-53.8	-56.2	14.1	0.00e+00	0	24	0	587202560	73	4825
2026-01-09 11:49:22.86	261.84	25.19	-53.6	-56.0	14.2	0.00e+00	0	24	0	589299712	73	4749
2026-01-09 11:49:23.85	262.13	25.22	-53.4	-55.7	14.4	0.00e+00	0	24	0	590348288	73	4564
2026-01-09 11:49:24.84	262.42	25.25	-53.5	-55.8	14.4	0.00e+00	0	24	0	592445440	73	4606
2026-01-09 11:49:25.82	262.70	25.28	-53.2	-55.4	14.6	0.00e+00	0	24	0	594542592	73	4420
2026-01-09 11:49:26.81	262.99	25.31	-53.0	-55.2	14.6	0.00e+00	0	24	0	596639744	72	4549
2026-01-09 11:49:27.79	263.28	25.34	-53.0	-55.1	14.6	0.00e+00	0	24	0	597688320	72	4496
2026-01-09 11:49:28.79	263.57	25.36	-53.0	-55.0	14.6	0.00e+00	0	24	0	599785472	72	4493
2026-01-09 11:49:29.78	263.86	25.39	-53.1	-55.2	14.5	0.00e+00	0	24	0	601882624	72	4567
2026-01-09 11:49:30.76	264.14	25.42	-53.2	-55.3	14.5	0.00e+00	0	24	0	603979776	72	4651
2026-01-09 11:49:31.75	264.43	25.44	-53.1	-55.3	14.5	0.00e+00	0	24	0	605028352	72	4600
2026-01-09 11:49:32.74	264.73	25.47	-53.1	-55.2	14.5	0.00e+00	0	24	0	607125504	72	4574
2026-01-09 11:49:33.74	265.02	25.49	-53.0	-55.1	14.6	0.00e+00	0	24	0	609222656	72	4543
2026-01-09 11:49:34.73	265.31	25.52	-52.5	-54.5	14.8	0.00e+00	0	24	0	611319808	71	4470
2026-01-09 11:49:35.72	265.60	25.54	-52.4	-54.3	14.9	0.00e+00	0	24	0	613416960	71	4349
2026-01-09 11:49:36.72	265.90	25.56	-52.3	-54.2	15.0	0.00e+00	0	24	0	614465536	71	4325
2026-01-09 11:49:37.71	266.19	25.58	-52.3	-54.2	15.0	0.00e+00	0	24	0	616562688	71	4310
2026-01-09 11:49:38.70	266.49	25.60	-52.2	-54.0	14.9	0.00e+00	0	24	0	618659840	70	4480
2026-01-09 11:49:39.68	266.78	25.62	-52.2	-54.0	14.9	0.00e+00	0	24	0	620756992	70	4488
2026-01-09 11:49:40.67	267.07	25.64	-52.2	-54.0	14.9	0.00e+00	0	24	0	621805568	70	4483
2026-01-09 11:49:41.67	267.37	25.66	-52.3	-54.3	14.7	0.00e+00	0	24	0	623902720	70	4609
2026-01-09 11:49:42.67	267.67	25.68	-52.3	-54.2	14.8	0.00e+00	0	24	0	625999872	70	4549
2026-01-09 11:49:43.67	267.96	25.69	-52.3	-54.3	14.8	0.00e+00	0	24	0	628097024	70	4605
2026-01-09 11:49:44.66	268.26	25.71	-52.3	-54.2	14.8	0.00e+00	0	24	0	630194176	70	4547
2026-01-09 11:49:45.66	268.56	25.73	-52.3	-54.3	14.8	0.00e+00	0	24	0	631242752	70	4602
2026-01-09 11:49:46.65	268.85	25.74	-52.4	-54.4	14.7	0.00e+00	0	24	0	633339904	70	4671
2026-01-09 11:49:47.64	269.15	25.75	-52.6	-54.6	14.6	0.00e+00	0	24	0	635437056	70	4773
2026-01-09 11:49:48.63	269.44	25.77	-52.7	-54.8	14.5	0.00e+00	0	24	0	637534208	70	4882
2026-01-09 11:49:49.63	269.74	25.78	-53.0	-55.1	14.5	0.00e+00	0	24	0	638582784	71	4788
2026-01-09 11:49:50.62	270.04	25.79	-53.0	-55.1	14.4	0.00e+00	0	24	0	640679936	71	4776
2026-01-09 11:49:51.61	270.34	25.80	-53.0	-55.2	14.4	0.00e+00	0	24	0	642777088	71	4816
2026-01-09 11:49:52.60	270.63	25.81	-53.1	-55.2	14.4	0.00e+00	0	24	0	644874240	71	4854
2026-01-09 11:49:53.59	270.93	25.82	-53.0	-55.2	14.4	0.00e+00	0	24	0	646971392	71	4825
2026-01-09 11:49:54.59	271.23	25.82	-52.9	-55.0	14.5	0.00e+00	0	24	0	648019968	71	4741
2026-01-09 11:49:55.58	271.53	25.83	-52.8	-54.9	14.6	0.00e+00	0	24	0	650117120	71	4661
2026-01-09 11:49:56.57	271.83	25.84	-52.7	-54.7	14.7	0.00e+00	0	24	0	652214272	71	4553
2026-01-09 11:49:57.55	272.12	25.84	-52.6	-54.6	14.7	0.00e+00	0	24	0	654311424	71	4507
2026-01-09 11:49:58.55	272.42	25.85	-52.6	-54.5	14.8	0.00e+00	0	24	0	655360000	71	4483
2026-01-09 11:49:59.54	272.72	25.85	-52.3	-54.2	14.9	0.00e+00	0	24	0	657457152	71	4329
2026-01-09 11:50:00.53	273.02	25.85	-52.4	-54.3	14.9	0.00e+00	0	24	0	659554304	71	4341
2026-01-09 11:50:01.53	273.32	25.86	-52.3	-54.2	14.9	0.00e+00	0	24	0	661651456	71	4325
2026-01-09 11:50:02.52	273.62	25.86	-52.4	-54.3	14.9	0.00e+00	0	24	0	663748608	71	4354
2026-01-09 11:50:03.52	273.92	25.86	-52.4	-54.4	14.9	0.00e+00	0	24	0	664797184	71	4400
2026-01-09 11:50:04.51	274.22	25.86	-52.4	-54.3	15.0	0.00e+00	0	24	0	666894336	71	4341
2026-01-09 11:50:05.52	274.52	25.86	-52.3	-54.1	15.0	0.00e+00	0	24	0	668991488	71	4273
2026-01-09 11:50:06.51	274.82	25.86	-52.2	-54.0	15.1	0.00e+00	0	24	0	671088640	71	4240
2026-01-09 11:50:07.51	275.12	25.85	-52.0	-53.8	15.0	0.00e+00	0	24	0	673185792	70	4375
2026-01-09 11:50:08.50	275.42	25.85	-51.8	-53.5	15.2	0.00e+00	0	24	0	674234368	70	4232
2026-01-09 11:50:09.49	275.72	25.85	-51.8	-53.5	15.2	0.00e+00	0	24	0	676331520	70	4227
2026-01-09 11:50:10.49	276.02	25.84	-51.7	-53.4	15.2	0.00e+00	0	24	0	678428672	70	4182
2026-01-09 11:50:11.48	276.31	25.83	-51.5	-53.2	15.2	0.00e+00	0	24	0	680525824	69	4300
2026-01-09 11:50:12.47	276.61	25.83	-51.7	-53.4	15.0	0.00e+00	0	24	0	681574400	69	4439
2026-01-09 11:50:13.47	276.91	25.82	-51.9	-53.7	14.9	0.00e+00	0	24	0	683671552	69	4550
2026-01-09 11:50:14.47	277.21	25.81	-52.2	-54.0	14.7	0.00e+00	0	24	0	685768704	69	4748
2026-01-09 11:50:15.46	277.51	25.80	-52.4	-54.3	14.6	0.00e+00	0	24	0	687865856	69	4891
2026-01-09 11:50:16.47	277.81	25.79	-52.4	-54.4	14.7	0.00e+00	0	24	0	689963008	70	4671
2026-01-09 11:50:17.46	278.11	25.78	-52.4	-54.4	14.7	0.00e+00	0	24	0	691011584	70	4673
2026-01-09 11:50:18.46	278.41	25.77	-52.3	-54.2	14.8	0.00e+00	0	24	0	693108736	70	4572
2026-01-09 11:50:19.45	278.70	25.76	-52.1	-54.0	15.0	0.00e+00	0	24	0	695205888	70	4443
2026-01-09 11:50:20.45	279.00	25.74	-51.9	-53.7	15.0	0.00e+00	0	24	0	697303040	70	4313
2026-01-09 11:50:21.44	279.30	25.73	-51.7	-53.4	15.2	0.00e+00	0	24	0	698351616	70	4170
2026-01-09 11:50:22.44	279.60	25.72	-51.8	-53.5	15.2	0.00e+00	0	24	0	700448768	70	4228
2026-01-09 11:50:23.43	279.89	25.70	-52.1	-54.0	14.9	0.00e+00	0	24	0	702545920	70	4449
2026-01-09 11:50:24.42	280.19	25.68	-52.6	-54.6	14.6	0.00e+00	0	24	0	704643072	70	4777
2026-01-09 11:50:25.41	280.48	25.67	-52.9	-55.0	14.5	0.00e+00	0	24	0	706740224	71	4754
2026-01-09 11:50:26.41	280.78	25.65	-53.2	-55.4	14.3	0.00e+00	0	24	0	707788800	71	4929
2026-01-09 11:50:27.40	281.07	25.63	-53.1	-55.3	14.3	0.00e+00	0	24	0	709885952	71	4882
2026-01-09 11:50:28.39	281.36	25.61	-53.1	-55.2	14.4	0.00e+00	0	24	0	711983104	71	4840
2026-01-09 11:50:29.38	281.66	25.59	-52.9	-54.9	14.5	0.00e+00	0	24	0	714080256	71	4695
2026-01-09 11:50:30.37	281.95	25.57	-52.8	-54.8	14.6	0.00e+00	0	24	0	715128832	71	4605
2026-01-09 11:50:31.37	282.25	25.55	-52.8	-54.8	14.6	0.00e+00	0	24	0	717225984	71	4615
2026-01-09 11:50:32.36	282.54	25.53	-52.6	-54.6	14.7	0.00e+00	0	24	0	719323136	71	4508
2026-01-09 11:50:33.35	282.83	25.50	-52.4	-54.3	14.9	0.00e+00	0	24	0	721420288	71	4363
2026-01-09 11:50:34.34	283.12	25.48	-52.3	-54.2	15.0	0.00e+00	0	24	0	722468864	71	4315
2026-01-09 11:50:35.34	283.41	25.45	-52.3	-54.1	15.0	0.00e+00	0	24	0	724566016	71	4287
2026-01-09 11:50:36.32	283.70	25.43	-52.4	-54.3	14.9	0.00e+00	0	24	0	726663168	71	4347
2026-01-09 11:50:37.32	283.99	25.40	-52.5	-54.5	14.8	0.00e+00	0	24	0	728760320	71	4464
2026-01-09 11:50:38.31	284.28	25.37	-52.7	-54.7	14.7	0.00e+00	0	24	0	730857472	71	4583
2026-01-09 11:50:39.31	284.57	25.35	-52.7	-54.8	14.7	0.00e+00	0	24	0	731906048	71	4601
2026-01-09 11:50:40.31	284.87	25.32	-52.7	-54.7	14.7	0.00e+00	0	24	0	734003200	71	4563
2026-01-09 11:50:41.30	285.15	25.29	-52.7	-54.7	14.7	0.00e+00	0	24	0	736100352	71	4555
2026-01-09 11:50:42.29	285.44	25.26	-52.5	-54.4	14.9	0.00e+00	0	24	0	738197504	71	4401
2026-01-09 11:50:43.28	285.73	25.23	-52.4	-54.3	14.9	0.00e+00	0	24	0	739246080	71	4357
2026-01-09 11:50:44.28	286.02	25.20	-52.5	-54.4	14.9	0.00e+00	0	24	0	741343232	71	4407
2026-01-09 11:50:45.27	286.30	25.17	-52.3	-54.2	14.9	0.00e+00	0	24	0	743440384	71	4321
2026-01-09 11:50:46.26	286.59	25.13	-52.4	-54.3	14.9	0.00e+00	0	24	0	745537536	71	4366
2026-01-09 11:50:47.25	286.87	25.10	-52.6	-54.6	14.8	0.00e+00	0	24	0	746586112	71	4520
2026-01-09 11:50:48.24	287.15	25.07	-52.7	-54.7	14.7	0.00e+00	0	24	0	748683264	71	4551
2026-01-09 11:50:49.23	287.44	25.03	-52.4	-54.3	14.9	0.00e+00	0	24	0	750780416	71	4381
2026-01-09 11:50:50.21	287.72	25.00	-52.2	-54.0	15.1	0.00e+00	0	24	0	752877568	71	4224
2026-01-09 11:50:51.21	288.00	24.96	-52.1	-53.9	15.0	0.00e+00	0	24	0	754974720	70	4407
2026-01-09 11:50:52.20	288.28	24.92	-52.1	-53.9	15.0	0.00e+00	0	24	0	756023296	70	4415
2026-01-09 11:50:53.19	288.56	24.89	-51.9	-53.7	15.1	0.00e+00	0	24	0	758120448	70	4293
2026-01-09 11:50:54.18	288.84	24.85	-52.0	-53.8	15.0	0.00e+00	0	24	0	760217600	70	4386
2026-01-09 11:50:55.18	289.13	24.81	-51.9	-53.7	15.1	0.00e+00	0	24	0	762314752	70	4317
2026-01-09 11:50:56.17	289.40	24.77	-51.9	-53.7	15.1	0.00e+00	0	24	0	763363328	70	4306
2026-01-09 11:50:57.15	289.68	24.73	-51.8	-53.6	15.2	0.00e+00	0	24	0	765460480	70	4248
2026-01-09 11:50:58.14	289.96	24.69	-51.8	-53.5	15.2	0.00e+00	0	24	0	767557632	70	4207
2026-01-09 11:50:59.13	290.23	24.65	-51.8	-53.6	15.1	0.00e+00	0	24	0	769654784	70	4259
2026-01-09 11:51:00.13	290.51	24.61	-51.7	-53.4	15.2	0.00e+00	0	24	0	771751936	70	4160
2026-01-09 11:51:01.12	290.79	24.56	-51.5	-53.2	15.1	0.00e+00	0	24	0	772800512	69	4321
2026-01-09 11:51:02.12	291.06	24.52	-51.5	-53.1	15.2	0.00e+00	0	24	0	774897664	69	4280
2026-01-09 11:51:03.11	291.34	24.48	-51.5	-53.2	15.2	0.00e+00	0	24	0	776994816	69	4326
2026-01-09 11:51:04.09	291.61	24.43	-51.3	-53.0	15.3	0.00e+00	0	24	0	779091968	69	4209
2026-01-09 11:51:05.09	291.88	24.39	-51.3	-52.9	15.3	0.00e+00	0	24	0	780140544	69	4189
2026-01-09 11:51:06.08	292.15	24.34	-51.2	-52.8	15.4	0.00e+00	0	24	0	782237696	69	4122
2026-01-09 11:51:07.08	292.43	24.30	-51.2	-52.8	15.2	0.00e+00	0	24	0	784334848	68	4365
2026-01-09 11:51:08.07	292.70	24.25	-51.1	-52.8	15.2	0.00e+00	0	24	0	786432000	68	4345
2026-01-09 11:51:09.05	292.96	24.20	-50.9	-52.5	15.3	0.00e+00	0	24	0	787480576	68	4233
2026-01-09 11:51:10.05	293.23	24.16	-50.9	-52.5	15.4	0.00e+00	0	24	0	789577728	68	4197
2026-01-09 11:51:11.05	293.50	24.11	-50.9	-52.5	15.4	0.00e+00	0	24	0	791674880	68	4214
2026-01-09 11:51:12.04	293.77	24.06	-50.8	-52.3	15.4	0.00e+00	0	24	0	793772032	68	4123
2026-01-09 11:51:13.03	294.03	24.01	-50.5	-52.0	15.4	0.00e+00	0	24	0	795869184	67	4236
2026-01-09 11:51:14.03	294.30	23.96	-50.5	-52.0	15.4	0.00e+00	0	24	0	796917760	67	4238
2026-01-09 11:51:15.02	294.57	23.91	-50.6	-52.1	15.3	0.00e+00	0	24	0	799014912	67	4272
2026-01-09 11:51:16.02	294.83	23.86	-50.6	-52.2	15.3	0.00e+00	0	24	0	801112064	67	4313
2026-01-09 11:51:17.01	295.09	23.81	-50.7	-52.2	15.3	0.00e+00	0	24	0	803209216	67	4319
2026-01-09 11:51:18.01	295.36	23.75	-50.6	-52.1	15.3	0.00e+00	0	24	0	805306368	67	4277
2026-01-09 11:51:19.00	295.62	23.70	-50.6	-52.1	15.4	0.00e+00	0	24	0	806354944	67	4265
2026-01-09 11:51:19.99	295.88	23.65	-50.4	-51.9	15.4	0.00e+00	0	24	0	808452096	67	4191
2026-01-09 11:51:20.99	296.14	23.59	-50.2	-51.7	15.5	0.00e+00	0	24	0	810549248	67	4066
2026-01-09 11:51:21.98	296.40	23.54	-50.3	-51.8	15.5	0.00e+00	0	24	0	812646400	67	4112
2026-01-09 11:51:22.97	296.66	23.49	-50.5	-52.0	15.4	0.00e+00	0	24	0	813694976	67	4223
2026-01-09 11:51:23.96	296.91	23.43	-50.8	-52.3	15.2	0.00e+00	0	24	0	815792128	67	4381
2026-01-09 11:51:24.96	297.17	23.37	-50.9	-52.5	15.1	0.00e+00	0	24	0	817889280	67	4458
2026-01-09 11:51:25.95	297.42	23.32	-50.9	-52.5	15.2	0.00e+00	0	24	0	819986432	67	4470
2026-01-09 11:51:26.96	297.68	23.26	-50.9	-52.5	15.1	0.00e+00	0	24	0	821035008	67	4481
2026-01-09 11:51:27.95	297.94	23.21	-50.9	-52.5	15.2	0.00e+00	0	24	0	823132160	67	4453
2026-01-09 11:51:28.94	298.19	23.15	-50.9	-52.5	15.2	0.00e+00	0	24	0	825229312	67	4456
2026-01-09 11:51:29.93	298.44	23.09	-50.8	-52.4	15.2	0.00e+00	0	24	0	827326464	67	4423
2026-01-09 11:51:30.93	298.69	23.03	-50.8	-52.4	15.2	0.00e+00	0	24	0	829423616	67	4419
2026-01-09 11:51:31.93	298.94	22.97	-50.7	-52.3	15.3	0.00e+00	0	24	0	830472192	67	4348
2026-01-09 11:51:32.92	299.19	22.91	-50.5	-52.1	15.3	0.00e+00	0	24	0	832569344	67	4261
2026-01-09 11:51:33.91	299.44	22.86	-50.7	-52.3	15.2	0.00e+00	0	24	0	834666496	67	4369
2026-01-09 11:51:34.89	299.68	22.80	-50.8	-52.4	15.2	0.00e+00	0	24	0	836763648	67	4424
2026-01-09 11:51:35.88	299.93	22.74	-51.0	-52.6	15.1	0.00e+00	0	24	0	837812224	67	4511
2026-01-09 11:51:36.87	300.17	22.68	-51.0	-52.6	15.1	0.00e+00	0	24	0	839909376	67	4526
2026-01-09 11:51:37.87	300.42	22.61	-51.2	-52.8	15.0	0.00e+00	0	24	0	842006528	67	4644
2026-01-09 11:51:38.85	300.66	22.55	-51.6	-53.3	14.9	0.00e+00	0	24	0	844103680	68	4650
2026-01-09 11:51:39.85	300.90	22.49	-51.9	-53.7	14.7	0.00e+00	0	24	0	846200832	68	4839
2026-01-09 11:51:40.84	301.14	22.43	-52.1	-53.9	14.8	0.00e+00	0	24	0	847249408	69	4686
2026-01-09 11:51:41.83	301.38	22.37	-52.1	-53.9	14.8	0.00e+00	0	24	0	849346560	69	4684
2026-01-09 11:51:42.83	301.62	22.31	-52.0	-53.8	14.8	0.00e+00	0	24	0	851443712	69	4646
2026-01-09 11:51:43.82	301.86	22.24	-52.0	-53.8	14.8	0.00e+00	0	24	0	853540864	69	4645
2026-01-09 11:51:44.81	302.10	22.18	-52.1	-53.9	14.8	0.00e+00	0	24	0	854589440	69	4674
2026-01-09 11:51:45.80	302.33	22.12	-52.2	-54.1	14.7	0.00e+00	0	24	0	856686592	69	4760
2026-01-09 11:51:46.79	302.57	22.05	-52.1	-53.9	14.8	0.00e+00	0	24	0	858783744	69	4698
2026-01-09 11:51:47.77	302.80	21.99	-52.1	-53.9	14.8	0.00e+00	0	24	0	860880896	69	4698
2026-01-09 11:51:48.76	303.03	21.92	-52.0	-53.8	14.9	0.00e+00	0	24	0	862978048	69	4608
2026-01-09 11:51:49.77	303.27	21.86	-51.9	-53.7	14.9	0.00e+00	0	24	0	864026624	69	4596
2026-01-09 11:51:50.76	303.50	21.79	-51.6	-53.4	15.1	0.00e+00	0	24	0	866123776	69	4397
2026-01-09 11:51:51.75	303.73	21.73	-51.5	-53.2	15.1	0.00e+00	0	24	0	868220928	69	4323
2026-01-09 11:51:52.75	303.96	21.66	-51.6	-53.3	15.1	0.00e+00	0	24	0	870318080	69	4364
2026-01-09 11:51:53.75	304.19	21.59	-51.6	-53.4	15.1	0.00e+00	0	24	0	871366656	69	4395
2026-01-09 11:51:54.75	304.42	21.53	-51.7	-53.4	15.0	0.00e+00	0	24	0	873463808	69	4430
2026-01-09 11:51:55.75	304.65	21.46	-51.8	-53.5	15.0	0.00e+00	0	24	0	875560960	69	4477
2026-01-09 11:51:56.73	304.87	21.39	-51.8	-53.5	15.0	0.00e+00	0	24	0	877658112	69	4493
2026-01-09 11:51:57.74	305.10	21.33	-51.9	-53.7	14.9	0.00e+00	0	24	0	879755264	69	4579
2026-01-09 11:51:58.73	305.33	21.26	-52.1	-53.9	14.8	0.00e+00	0	24	0	880803840	69	4676
2026-01-09 11:51:59.71	305.55	21.19	-52.0	-53.8	14.8	0.00e+00	0	24	0	882900992	69	4642
2026-01-09 11:52:00.70	305.77	21.12	-52.0	-53.9	14.8	0.00e+00	0	24	0	884998144	69	4667
2026-01-09 11:52:01.70	305.99	21.06	-52.1	-54.0	14.7	0.00e+00	0	24	0	887095296	69	4710
2026-01-09 11:52:02.69	306.21	20.99	-52.1	-53.9	14.8	0.00e+00	0	24	0	888143872	69	4695
2026-01-09 11:52:03.69	306.43	20.92	-52.1	-54.0	14.7	0.00e+00	0	24	0	890241024	69	4721
2026-01-09 11:52:04.68	306.65	20.85	-52.1	-53.9	14.8	0.00e+00	0	24	0	892338176	69	4701
2026-01-09 11:52:05.67	306.87	20.78	-52.0	-53.8	14.8	0.00e+00	0	24	0	894435328	69	4634
2026-01-09 11:52:06.67	307.08	20.71	-51.9	-53.7	14.9	0.00e+00	0	24	0	896532480	69	4560
2026-01-09 11:52:07.66	307.30	20.64	-51.7	-53.5	15.0	0.00e+00	0	24	0	897581056	69	4470
2026-01-09 11:52:08.66	307.52	20.57	-51.6	-53.4	15.1	0.00e+00	0	24	0	899678208	69	4406
2026-01-09 11:52:09.64	307.73	20.50	-51.6	-53.4	15.1	0.00e+00	0	24	0	901775360	69	4395
2026-01-09 11:52:10.63	307.94	20.43	-51.7	-53.5	15.0	0.00e+00	0	24	0	903872512	69	4462
2026-01-09 11:52:11.62	308.15	20.36	-51.7	-53.5	15.0	0.00e+00	0	24	0	904921088	69	4467
2026-01-09 11:52:12.62	308.36	20.29	-51.8	-53.5	15.0	0.00e+00	0	24	0	907018240	69	4484
2026-01-09 11:52:13.61	308.57	20.22	-51.7	-53.5	15.0	0.00e+00	0	24	0	909115392	69	4443
2026-01-09 11:52:14.60	308.78	20.15	-51.7	-53.5	15.0	0.00e+00	0	24	0	911212544	69	4457
2026-01-09 11:52:15.59	308.99	20.08	-51.6	-53.3	15.1	0.00e+00	0	24	0	912261120	69	4389
2026-01-09 11:52:16.58	309.19	20.01	-51.5	-53.2	15.1	0.00e+00	0	24	0	914358272	69	4334
2026-01-09 11:52:17.57	309.40	19.94	-51.6	-53.3	15.0	0.00e+00	0	24	0	916455424	69	4387
2026-01-09 11:52:18.57	309.60	19.86	-51.7	-53.5	15.0	0.00e+00	0	24	0	918552576	69	4468
2026-01-09 11:52:19.56	309.81	19.79	-51.8	-53.6	15.0	0.00e+00	0	24	0	920649728	69	4512
2026-01-09 11:52:20.55	310.01	19.72	-51.9	-53.7	14.9	0.00e+00	0	24	0	921698304	69	4554
2026-01-09 11:52:21.54	310.21	19.65	-52.0	-53.8	14.8	0.00e+00	0	24	0	923795456	69	4624
2026-01-09 11:52:22.53	310.41	19.58	-52.0	-53.8	14.8	0.00e+00	0	24	0	925892608	69	4632
2026-01-09 11:52:23.52	310.61	19.51	-52.0	-53.9	14.8	0.00e+00	0	24	0	927989760	69	4653
2026-01-09 11:52:24.51	310.81	19.43	-52.0	-53.8	14.9	0.00e+00	0	24	0	929038336	69	4618
2026-01-09 11:52:25.49	311.01	19.36	-52.1	-54.0	14.7	0.00e+00	0	24	0	931135488	69	4741
2026-01-09 11:52:26.49	311.21	19.29	-52.3	-54.2	14.6	0.00e+00	0	24	0	933232640	69	4860
2026-01-09 11:52:27.48	311.40	19.22	-52.6	-54.7	14.5	0.00e+00	0	24	0	935329792	70	4831
2026-01-09 11:52:28.47	311.60	19.14	-52.9	-55.0	14.3	0.00e+00	0	24	0	937426944	70	5023
2026-01-09 11:52:29.46	311.79	19.07	-53.0	-55.1	14.4	0.00e+00	0	24	0	938475520	71	4792
2026-01-09 11:52:30.46	311.99	19.00	-52.9	-55.1	14.5	0.00e+00	0	24	0	940572672	71	4761
2026-01-09 11:52:31.45	312.18	18.92	-52.7	-54.7	14.7	0.00e+00	0	24	0	942669824	71	4576
2026-01-09 11:52:32.44	312.37	18.85	-52.5	-54.4	14.8	0.00e+00	0	24	0	944766976	71	4425
2026-01-09 11:52:33.43	312.56	18.78	-52.3	-54.2	14.9	0.00e+00	0	24	0	945815552	71	4312
2026-01-09 11:52:34.43	312.76	18.70	-52.0	-53.8	15.0	0.00e+00	0	24	0	947912704	70	4376
2026-01-09 11:52:35.41	312.94	18.63	-52.1	-53.9	15.0	0.00e+00	0	24	0	950009856	70	4426
2026-01-09 11:52:36.39	313.13	18.56	-52.2	-54.1	14.8	0.00e+00	0	24	0	952107008	70	4534
2026-01-09 11:52:37.39	313.32	18.49	-52.5	-54.4	14.6	0.00e+00	0	24	0	953155584	70	4701
2026-01-09 11:52:38.37	313.50	18.41	-52.8	-54.9	14.4	1.50e-06	0	24	0	955252736	70	4938
2026-01-09 11:52:39.36	313.69	18.34	-52.9	-55.0	14.3	0.00e+00	0	24	0	957349888	70	5021
2026-01-09 11:52:40.35	313.87	18.27	-52.9	-55.0	14.3	0.00e+00	0	24	0	959447040	70	5006
2026-01-09 11:52:41.35	314.06	18.19	-52.9	-55.1	14.4	0.00e+00	0	24	0	961544192	71	4767
2026-01-09 11:52:42.35	314.24	18.12	-52.4	-54.4	14.8	0.00e+00	0	24	0	962592768	71	4397
2026-01-09 11:52:43.34	314.43	18.04	-52.3	-54.3	14.9	0.00e+00	0	24	0	964689920	71	4345
2026-01-09 11:52:44.33	314.61	17.97	-52.0	-53.8	15.0	0.00e+00	0	24	0	966787072	70	4354
2026-01-09 11:52:45.33	314.79	17.89	-52.0	-53.8	15.0	0.00e+00	0	24	0	968884224	70	4372
2026-01-09 11:52:46.32	314.97	17.82	-52.2	-54.1	14.8	0.00e+00	0	24	0	969932800	70	4506
2026-01-09 11:52:47.31	315.15	17.75	-52.4	-54.4	14.7	0.00e+00	0	24	0	972029952	70	4676
2026-01-09 11:52:48.31	315.33	17.67	-52.5	-54.5	14.6	0.00e+00	0	24	0	974127104	70	4756
2026-01-09 11:52:49.30	315.50	17.60	-52.5	-54.5	14.6	0.00e+00	0	24	0	976224256	70	4749
2026-01-09 11:52:50.30	315.68	17.52	-52.5	-54.5	14.6	0.00e+00	0	24	0	978321408	70	4716
2026-01-09 11:52:51.30	315.86	17.45	-52.3	-54.3	14.7	0.00e+00	0	24	0	979369984	70	4604
2026-01-09 11:52:52.29	316.03	17.37	-52.2	-54.1	14.8	0.00e+00	0	24	0	981467136	70	4501
2026-01-09 11:52:53.29	316.21	17.30	-52.1	-54.0	14.9	7.00e-07	0	24	0	983564288	70	4463
2026-01-09 11:52:54.28	316.38	17.22	-52.2	-54.0	14.9	0.00e+00	0	24	0	985661440	70	4492
2026-01-09 11:52:55.27	316.55	17.15	-52.3	-54.3	14.7	0.00e+00	0	24	0	986710016	70	4613
2026-01-09 11:52:56.26	316.73	17.08	-52.6	-54.6	14.5	0.00e+00	0	24	0	988807168	70	4779
2026-01-09 11:52:57.25	316.90	17.00	-52.7	-54.8	14.4	0.00e+00	0	24	0	990904320	70	4874
2026-01-09 11:52:58.25	317.07	16.93	-52.8	-54.9	14.4	0.00e+00	0	24	0	993001472	70	4949
2026-01-09 11:52:59.24	317.24	16.85	-52.7	-54.8	14.4	0.00e+00	0	24	0	995098624	70	4887
2026-01-09 11:53:00.24	317.40	16.78	-52.6	-54.6	14.5	0.00e+00	0	24	0	996147200	70	4807
2026-01-09 11:53:01.23	317.57	16.70	-52.4	-54.4	14.6	0.00e+00	0	24	0	998244352	70	4701
2026-01-09 11:53:02.22	317.74	16.63	-52.4	-54.3	14.7	0.00e+00	0	24	0	1000341504	70	4637
2026-01-09 11:53:03.22	317.90	16.55	-52.1	-54.0	14.9	0.00e+00	0	24	0	1002438656	70	4447
2026-01-09 11:53:04.21	318.07	16.48	-51.9	-53.7	15.0	0.00e+00	0	24	0	1003487232	70	4340
2026-01-09 11:53:05.21	318.24	16.40	-52.0	-53.8	15.0	0.00e+00	0	24	0	1005584384	70	4355
2026-01-09 11:53:06.20	318.40	16.33	-52.2	-54.1	14.8	0.00e+00	0	24	0	1007681536	70	4515
2026-01-09 11:53:07.20	318.56	16.26	-52.5	-54.6	14.5	0.00e+00	0	24	0	1009778688	70	4768
2026-01-09 11:53:08.19	318.72	16.18	-52.9	-55.0	14.3	0.00e+00	0	24	0	1011875840	70	5019
2026-01-09 11:53:09.19	318.89	16.11	-53.2	-55.5	14.2	0.00e+00	0	24	0	1012924416	71	5017
2026-01-09 11:53:10.18	319.05	16.03	-53.2	-55.5	14.2	0.00e+00	0	24	0	1015021568	71	5024
2026-01-09 11:53:11.18	319.21	15.96	-53.2	-55.5	14.2	0.00e+00	0	24	0	1017118720	71	5026
2026-01-09 11:53:12.17	319.37	15.88	-53.1	-55.4	14.2	0.00e+00	0	24	0	1019215872	71	4946
2026-01-09 11:53:13.16	319.52	15.81	-53.1	-55.4	14.2	0.00e+00	0	24	0	1020264448	71	4931
2026-01-09 11:53:14.14	319.68	15.74	-52.6	-54.6	14.6	0.00e+00	0	24	0	1022361600	71	4535
2026-01-09 11:53:15.14	319.84	15.66	-52.3	-54.3	14.9	0.00e+00	0	24	0	1024458752	71	4344
2026-01-09 11:53:16.13	319.99	15.59	-52.3	-54.2	14.9	0.00e+00	0	24	0	1026555904	71	4338
2026-01-09 11:53:17.13	320.15	15.51	-52.3	-54.2	14.9	0.00e+00	0	24	0	1028653056	71	4320
2026-01-09 11:53:18.12	320.30	15.44	-52.4	-54.4	14.8	0.00e+00	0	24	0	1029701632	71	4396
2026-01-09 11:53:19.12	320.46	15.36	-52.5	-54.5	14.7	0.00e+00	0	24	0	1031798784	71	4491
2026-01-09 11:53:20.11	320.61	15.29	-52.6	-54.7	14.6	0.00e+00	0	24	0	1033895936	71	4580
2026-01-09 11:53:21.10	320.76	15.22	-52.6	-54.7	14.6	0.00e+00	0	24	0	1035993088	71	4564
2026-01-09 11:53:22.10	320.91	15.14	-52.6	-54.6	14.6	0.00e+00	0	24	0	1037041664	71	4542
2026-01-09 11:53:23.09	321.06	15.07	-52.6	-54.6	14.6	0.00e+00	0	24	0	1039138816	71	4543
2026-01-09 11:53:24.07	321.21	14.99	-52.5	-54.5	14.7	0.00e+00	0	24	0	1041235968	71	4478
2026-01-09 11:53:25.07	321.36	14.92	-52.3	-54.2	14.9	0.00e+00	0	24	0	1043333120	71	4311
2026-01-09 11:53:26.06	321.51	14.85	-52.2	-54.1	14.8	0.00e+00	0	24	0	1045430272	70	4509
2026-01-09 11:53:27.06	321.66	14.77	-52.1	-54.0	14.8	0.00e+00	0	24	0	1046478848	70	4462
2026-01-09 11:53:28.04	321.80	14.70	-52.1	-54.0	14.8	0.00e+00	0	24	0	1048576000	70	4481
2026-01-09 11:53:29.02	321.95	14.63	-52.2	-54.1	14.8	0.00e+00	0	24	0	1050673152	70	4523
2026-01-09 11:53:30.02	322.09	14.55	-52.4	-54.4	14.6	0.00e+00	0	24	0	1052770304	70	4696
2026-01-09 11:53:31.01	322.24	14.48	-52.5	-54.6	14.5	0.00e+00	0	24	0	1053818880	70	4769
2026-01-09 11:53:32.00	322.38	14.41	-52.7	-54.8	14.4	0.00e+00	0	24	0	1055916032	70	4917
2026-01-09 11:53:33.00	322.53	14.33	-52.7	-54.8	14.4	0.00e+00	0	24	0	1058013184	70	4898
2026-01-09 11:53:34.00	322.67	14.26	-52.7	-54.9	14.3	0.00e+00	0	24	0	1060110336	70	4947
2026-01-09 11:53:34.99	322.81	14.19	-52.6	-54.7	14.4	0.00e+00	0	24	0	1061158912	70	4866
2026-01-09 11:53:35.98	322.95	14.11	-52.6	-54.7	14.4	0.00e+00	0	24	0	1063256064	70	4831
2026-01-09 11:53:36.97	323.10	14.04	-52.5	-54.6	14.5	0.00e+00	0	24	0	1065353216	70	4788
2026-01-09 11:53:37.95	323.23	13.97	-52.5	-54.6	14.5	0.00e+00	0	24	0	1067450368	70	4779
2026-01-09 11:53:38.94	323.37	13.89	-52.5	-54.5	14.5	0.00e+00	0	24	0	1069547520	70	4745
2026-01-09 11:53:39.94	323.51	13.82	-52.4	-54.4	14.6	0.00e+00	0	24	0	1070596096	70	4703
2026-01-09 11:53:40.93	323.65	13.75	-52.3	-54.3	14.7	0.00e+00	0	24	0	1072693248	70	4616
2026-01-09 11:53:41.93	323.79	13.67	-52.3	-54.4	14.6	0.00e+00	0	24	0	1074790400	70	4657
2026-01-09 11:53:42.92	323.93	13.60	-52.5	-54.5	14.5	0.00e+00	0	24	0	1076887552	70	4750
2026-01-09 11:53:43.92	324.06	13.53	-52.6	-54.6	14.4	0.00e+00	0	24	0	1077936128	70	4813
2026-01-09 11:53:44.92	324.20	13.46	-52.5	-54.6	14.5	0.00e+00	0	24	0	1080033280	70	4800
2026-01-09 11:53:45.90	324.33	13.38	-52.6	-54.7	14.4	0.00e+00	0	24	0	1082130432	70	4820
2026-01-09 11:53:46.90	324.47	13.31	-52.5	-54.6	14.5	0.00e+00	0	24	0	1084227584	70	4795
2026-01-09 11:53:47.90	324.60	13.24	-52.4	-54.5	14.5	0.00e+00	0	24	0	1086324736	70	4718
2026-01-09 11:53:48.89	324.74	13.17	-52.5	-54.6	14.5	0.00e+00	0	24	0	1087373312	70	4776
2026-01-09 11:53:49.88	324.87	13.09	-52.4	-54.4	14.5	0.00e+00	0	24	0	1089470464	70	4696
2026-01-09 11:53:50.87	325.00	13.02	-52.3	-54.4	14.6	0.00e+00	0	24	0	1091567616	70	4661
2026-01-09 11:53:51.87	325.13	12.95	-52.4	-54.4	14.6	0.00e+00	0	24	0	1093664768	70	4688
2026-01-09 11:53:52.86	325.26	12.88	-52.3	-54.3	14.6	0.00e+00	0	24	0	1094713344	70	4651
2026-01-09 11:53:53.86	325.39	12.81	-52.4	-54.4	14.6	0.00e+00	0	24	0	1096810496	70	4683
2026-01-09 11:53:54.86	325.52	12.73	-52.4	-54.5	14.5	0.00e+00	0	24	0	1098907648	70	4708
2026-01-09 11:53:55.85	325.65	12.66	-52.4	-54.5	14.5	0.00e+00	0	24	0	1101004800	70	4710
2026-01-09 11:53:56.84	325.78	12.59	-52.5	-54.6	14.5	0.00e+00	0	24	0	1103101952	70	4780
2026-01-09 11:53:57.83	325.91	12.52	-52.5	-54.6	14.4	0.00e+00	0	24	0	1104150528	70	4807
2026-01-09 11:53:58.82	326.03	12.45	-52.6	-54.7	14.4	0.00e+00	0	24	0	1106247680	70	4829
2026-01-09 11:53:59.82	326.16	12.38	-52.6	-54.8	14.4	0.00e+00	0	24	0	1108344832	70	4896
2026-01-09 11:54:00.81	326.29	12.30	-52.7	-54.8	14.3	0.00e+00	0	24	0	1110441984	70	4922
2026-01-09 11:54:01.80	326.41	12.23	-52.8	-55.0	14.2	0.00e+00	0	24	0	1111490560	70	4997
2026-01-09 11:54:02.79	326.54	12.16	-52.7	-54.9	14.3	0.00e+00	0	24	0	1113587712	70	4978
2026-01-09 11:54:03.79	326.66	12.09	-52.7	-54.8	14.3	0.00e+00	0	24	0	1115684864	70	4910
2026-01-09 11:54:04.78	326.78	12.02	-52.7	-54.9	14.3	0.00e+00	0	24	0	1117782016	70	4945
2026-01-09 11:54:05.78	326.91	11.95	-52.7	-54.9	14.3	0.00e+00	0	24	0	1119879168	70	4976
2026-01-09 11:54:06.77	327.03	11.88	-52.7	-55.0	14.2	0.00e+00	0	24	0	1120927744	70	4984
2026-01-09 11:54:07.77	327.15	11.81	-52.8	-55.0	14.2	0.00e+00	0	24	0	1123024896	70	5030
2026-01-09 11:54:08.76	327.27	11.74	-52.7	-54.9	14.2	0.00e+00	0	24	0	1125122048	70	4978
2026-01-09 11:54:09.75	327.39	11.67	-52.8	-55.1	14.2	0.00e+00	0	24	0	1127219200	70	5043
2026-01-09 11:54:10.75	327.52	11.60	-52.8	-55.0	14.2	0.00e+00	0	24	0	1128267776	70	5022
2026-01-09 11:54:11.75	327.64	11.52	-52.7	-54.9	14.2	0.00e+00	0	24	0	1130364928	70	4967
2026-01-09 11:54:12.75	327.76	11.45	-52.8	-55.0	14.2	0.00e+00	0	24	0	1132462080	70	5029
2026-01-09 11:54:13.73	327.87	11.38	-52.9	-55.1	14.1	0.00e+00	0	24	0	1134559232	70	5085
2026-01-09 11:54:14.73	327.99	11.31	-52.8	-55.0	14.2	0.00e+00	0	24	0	1136656384	70	5031
2026-01-09 11:54:15.72	328.11	11.24	-52.8	-55.1	14.1	0.00e+00	0	24	0	1137704960	70	5069
2026-01-09 11:54:16.70	328.22	11.18	-52.7	-54.9	14.3	0.00e+00	0	24	0	1139802112	70	4961
2026-01-09 11:54:17.70	328.34	11.10	-52.7	-54.9	14.3	0.00e+00	0	24	0	1141899264	70	4951
2026-01-09 11:54:18.69	328.46	11.04	-52.8	-55.0	14.2	0.00e+00	0	24	0	1143996416	70	4999
2026-01-09 11:54:19.68	328.57	10.97	-52.7	-54.9	14.3	0.00e+00	0	24	0	1145044992	70	4940
2026-01-09 11:54:20.66	328.69	10.90	-52.7	-54.9	14.3	3.00e-06	0	24	0	1147142144	70	4948
2026-01-09 11:54:21.64	328.80	10.83	-52.7	-54.9	14.3	0.00e+00	0	24	0	1149239296	70	4941
2026-01-09 11:54:22.64	328.91	10.76	-52.8	-55.0	14.2	0.00e+00	0	24	0	1151336448	70	5005
2026-01-09 11:54:23.62	329.02	10.69	-52.8	-55.1	14.1	0.00e+00	0	24	0	1152385024	70	5070
2026-01-09 11:54:24.61	329.14	10.62	-52.8	-55.0	14.2	0.00e+00	0	24	0	1154482176	70	5034
2026-01-09 11:54:25.61	329.25	10.55	-52.8	-55.1	14.2	0.00e+00	0	24	0	1156579328	70	5074
2026-01-09 11:54:26.60	329.36	10.48	-52.9	-55.2	14.2	0.00e+00	0	24	0	1158676480	71	4827
2026-01-09 11:54:27.59	329.47	10.42	-53.0	-55.3	14.1	0.00e+00	0	24	0	1160773632	71	4910
2026-01-09 11:54:28.57	329.58	10.35	-53.1	-55.4	14.1	0.00e+00	0	24	0	1161822208	71	4983
2026-01-09 11:54:29.56	329.69	10.28	-53.2	-55.7	13.9	0.00e+00	0	24	0	1163919360	71	5123
2026-01-09 11:54:30.55	329.80	10.21	-53.3	-55.8	13.9	0.00e+00	0	24	0	1166016512	71	5161
2026-01-09 11:54:31.54	329.91	10.14	-53.4	-55.9	13.8	0.00e+00	0	24	0	1168113664	71	5234
2026-01-09 11:54:32.53	330.02	10.07	-53.5	-56.0	13.8	0.00e+00	0	24	0	1169162240	72	5011
2026-01-09 11:54:33.52	330.13	10.01	-53.5	-56.1	13.7	0.00e+00	0	24	0	1171259392	72	5083
2026-01-09 11:54:34.51	330.23	9.94	-53.6	-56.2	13.7	0.00e+00	0	24	0	1173356544	72	5120
2026-01-09 11:54:35.51	330.34	9.87	-53.7	-56.4	13.6	0.00e+00	0	24	0	1175453696	72	5241
2026-01-09 11:54:36.50	330.45	9.80	-53.8	-56.5	13.5	0.00e+00	0	24	0	1176502272	72	5302
2026-01-09 11:54:37.50	330.56	9.73	-53.9	-56.7	13.4	0.00e+00	0	24	0	1178599424	72	5421
2026-01-09 11:54:38.49	330.66	9.67	-53.8	-56.6	13.4	0.00e+00	0	24	0	1180696576	72	5373
2026-01-09 11:54:39.48	330.77	9.60	-53.8	-56.6	13.4	0.00e+00	0	24	0	1182793728	72	5373
2026-01-09 11:54:40.47	330.87	9.53	-53.8	-56.6	13.4	0.00e+00	0	24	0	1184890880	72	5393
2026-01-09 11:54:41.46	330.98	9.47	-53.8	-56.5	13.5	0.00e+00	0	24	0	1185939456	72	5332
2026-01-09 11:54:42.45	331.08	9.40	-53.8	-56.5	13.5	0.00e+00	0	24	0	1188036608	72	5305
2026-01-09 11:54:43.44	331.18	9.33	-53.8	-56.6	13.5	0.00e+00	0	24	0	1190133760	72	5343
2026-01-09 11:54:44.43	331.29	9.26	-53.8	-56.5	13.5	0.00e+00	0	24	0	1192230912	72	5333
2026-01-09 11:54:45.43	331.39	9.20	-53.7	-56.5	13.5	0.00e+00	0	24	0	1193279488	72	5288
2026-01-09 11:54:46.43	331.49	9.13	-53.8	-56.6	13.4	0.00e+00	0	24	0	1195376640	72	5389
2026-01-09 11:54:47.43	331.59	9.06	-53.8	-56.6	13.5	0.00e+00	0	24	0	1197473792	73	5072
2026-01-09 11:54:48.43	331.70	9.00	-53.9	-56.8	13.4	0.00e+00	0	24	0	1199570944	73	5165
2026-01-09 11:54:49.42	331.80	8.93	-54.0	-56.9	13.4	0.00e+00	0	24	0	1201668096	73	5225
2026-01-09 11:54:50.42	331.90	8.86	-54.0	-56.9	13.4	0.00e+00	0	24	0	1202716672	73	5235
2026-01-09 11:54:51.41	332.00	8.80	-53.9	-56.7	13.5	0.00e+00	0	24	0	1204813824	73	5133
