passes_logs/2026/01/09/R3.2S_Murmansk/R3.2S_Murmansk__20260109_062223_SUOMI_NPP_rec.log

#Pass ID: 20260109_062223_SUOMI NPP
#Satellite: SUOMI NPP
#Configuration: NPP
#almurnet v.1.7.20251203
#Start time: 2026-01-09 06:22:23

#Version: 2.2.20231116
#Station: R3.2S_Murmansk
#Location: 33.079688 lon 68.888172 lat
#TLE: 1 37849U 11061A   26008.05542337  .00000108  00000+0  71976-4 0  9997
#TLE: 2 37849  98.7805 310.1641 0002540  75.6410 284.5048 14.19523335735721

#Time	Az	El	Level	Level2	SNR	BER	BlckErr	Temp	State	Recorded	gain1	gain2
2026-01-09 06:22:23.78	81.28	2.04	-57.2	-73.2	3.8	1.49e+00	0	21	0	0	80	22922
2026-01-09 06:22:24.78	81.22	2.10	-57.2	-73.2	3.8	1.49e+00	0	22	104	0	79	24267
2026-01-09 06:22:25.78	81.16	2.15	-57.2	-73.2	3.8	1.49e+00	0	22	104	0	79	24247
2026-01-09 06:22:26.77	81.11	2.21	-57.2	-73.2	3.8	1.49e+00	0	22	104	0	79	24326
2026-01-09 06:22:27.77	81.05	2.27	-57.2	-73.2	3.8	1.49e+00	0	22	104	0	79	24262
2026-01-09 06:22:28.77	80.99	2.33	-57.2	-73.2	3.8	1.49e+00	0	22	104	0	79	24236
2026-01-09 06:22:29.77	80.93	2.39	-57.2	-73.2	3.8	1.49e+00	0	22	104	0	79	24279
2026-01-09 06:22:30.78	80.86	2.45	-57.2	-73.2	3.8	1.49e+00	0	22	104	0	79	24181
2026-01-09 06:22:31.77	80.80	2.50	-57.2	-73.2	3.8	1.49e+00	0	22	104	0	79	24210
2026-01-09 06:22:32.76	80.74	2.56	-57.2	-73.2	3.8	1.49e+00	0	22	104	0	79	24257
2026-01-09 06:22:33.75	80.68	2.62	-57.2	-73.2	3.8	1.49e+00	0	22	104	0	79	24307
2026-01-09 06:22:34.74	80.62	2.68	-57.2	-73.2	3.8	1.49e+00	0	22	104	0	79	24250
2026-01-09 06:22:35.73	80.56	2.74	-57.2	-73.2	3.8	1.49e+00	0	22	104	0	79	24200
2026-01-09 06:22:36.72	80.50	2.80	-57.2	-73.2	3.8	1.49e+00	0	22	104	0	79	24272
2026-01-09 06:22:37.72	80.44	2.85	-57.2	-73.2	3.8	1.49e+00	0	22	104	0	79	24302
2026-01-09 06:22:38.72	80.38	2.91	-57.2	-73.2	3.8	1.49e+00	0	22	104	0	79	24304
2026-01-09 06:22:39.72	80.31	2.97	-57.2	-73.2	3.8	1.49e+00	0	22	104	0	79	24368
2026-01-09 06:22:40.71	80.25	3.03	-57.2	-73.2	3.8	1.49e+00	0	22	104	0	79	24371
2026-01-09 06:22:41.71	80.19	3.09	-57.2	-73.2	3.8	1.49e+00	0	22	104	0	79	24369
2026-01-09 06:22:42.70	80.13	3.15	-57.2	-73.2	3.8	1.49e+00	0	22	104	0	79	24345
2026-01-09 06:22:43.71	80.06	3.21	-57.2	-73.2	3.8	1.49e+00	0	22	104	0	79	24269
2026-01-09 06:22:44.70	80.00	3.27	-57.2	-73.2	3.8	1.49e+00	0	22	104	0	79	24262
2026-01-09 06:22:45.71	79.93	3.33	-57.2	-73.2	3.8	1.49e+00	0	22	104	0	79	24220
2026-01-09 06:22:46.70	79.87	3.39	-57.2	-73.2	3.8	1.49e+00	0	22	104	0	79	24240
2026-01-09 06:22:47.70	79.80	3.45	-57.2	-73.2	3.8	1.49e+00	0	22	104	0	79	24298
2026-01-09 06:22:48.70	79.74	3.51	-57.2	-73.2	3.8	1.49e+00	0	22	104	0	79	24331
2026-01-09 06:22:49.70	79.67	3.57	-57.2	-73.2	3.8	1.49e+00	0	22	104	0	79	24349
2026-01-09 06:22:50.70	79.61	3.63	-57.2	-73.2	3.8	1.49e+00	0	22	104	0	79	24309
2026-01-09 06:22:51.69	79.54	3.69	-57.2	-73.2	3.8	1.49e+00	0	22	104	0	79	24292
2026-01-09 06:22:52.69	79.48	3.75	-57.2	-73.2	3.8	1.49e+00	0	22	104	0	79	24167
2026-01-09 06:22:53.68	79.41	3.81	-57.2	-73.1	3.8	1.49e+00	0	22	104	0	79	24027
2026-01-09 06:22:54.68	79.34	3.87	-57.2	-73.1	3.8	1.49e+00	0	22	104	0	79	23942
2026-01-09 06:22:55.68	79.28	3.93	-57.2	-73.1	3.8	1.49e+00	0	23	104	0	79	23864
2026-01-09 06:22:56.68	79.21	3.99	-57.2	-73.1	3.8	1.49e+00	0	22	104	0	79	23989
2026-01-09 06:22:57.68	79.14	4.06	-57.2	-73.2	3.8	1.49e+00	0	23	104	0	79	24185
2026-01-09 06:22:58.68	79.07	4.12	-57.2	-73.2	3.8	1.49e+00	0	22	104	0	79	24309
2026-01-09 06:22:59.68	79.00	4.18	-57.2	-73.2	3.8	1.49e+00	0	22	104	0	79	24258
2026-01-09 06:23:00.68	78.94	4.24	-57.2	-73.1	3.8	1.49e+00	0	23	104	0	79	23971
2026-01-09 06:23:01.68	78.87	4.30	-57.2	-72.8	3.8	1.49e+00	0	23	104	0	79	23238
2026-01-09 06:23:02.68	78.80	4.36	-57.2	-72.3	3.8	1.49e+00	0	22	104	0	79	21882
2026-01-09 06:23:03.67	78.73	4.42	-57.2	-71.8	3.8	1.49e+00	0	23	104	0	79	20586
2026-01-09 06:23:04.68	78.66	4.49	-57.1	-70.9	3.8	1.48e+00	0	23	104	0	79	18610
2026-01-09 06:23:05.68	78.59	4.55	-57.1	-70.2	4.1	1.46e+00	0	23	0	0	79	17278
2026-01-09 06:23:06.68	78.52	4.61	-57.1	-69.7	4.2	1.42e+00	0	23	0	0	79	16176
2026-01-09 06:23:07.68	78.45	4.67	-57.0	-68.6	4.5	1.14e+00	0	23	0	1048576	79	14299
2026-01-09 06:23:08.68	78.38	4.73	-57.0	-68.3	4.6	8.44e-01	0	23	0	2097152	79	13742
2026-01-09 06:23:09.68	78.31	4.80	-56.9	-67.6	4.9	8.22e-01	0	23	0	4194304	79	12789
2026-01-09 06:23:10.68	78.23	4.86	-56.9	-67.0	5.3	5.55e-01	0	23	0	6291456	79	11844
2026-01-09 06:23:11.68	78.16	4.92	-56.8	-66.5	5.6	4.28e-01	0	23	0	8388608	79	11252
2026-01-09 06:23:12.67	78.09	4.98	-56.7	-66.2	5.8	3.83e-01	0	23	0	9437184	79	10823
2026-01-09 06:23:13.67	78.02	5.05	-56.8	-65.7	6.2	3.90e-01	0	23	0	11534336	79	10286
2026-01-09 06:23:14.67	77.94	5.11	-56.2	-62.9	8.5	1.11e-01	0	23	0	13631488	79	7455
2026-01-09 06:23:15.67	77.87	5.17	-57.0	-68.7	4.7	4.64e-02	0	23	0	15728640	79	14409
2026-01-09 06:23:16.67	77.80	5.23	-57.0	-66.7	5.6	1.49e+00	0	23	104	15728640	79	11535
2026-01-09 06:23:17.67	77.72	5.30	-55.3	-60.4	10.7	8.47e-01	0	23	0	16777216	77	6220
2026-01-09 06:23:18.67	77.65	5.36	-55.3	-60.4	10.8	9.20e-04	0	23	0	18874368	77	6234
2026-01-09 06:23:19.67	77.57	5.42	-55.4	-60.6	10.6	5.29e-04	0	23	0	20971520	77	6418
2026-01-09 06:23:20.67	77.50	5.49	-55.0	-59.6	11.2	9.00e-04	0	23	0	22020096	76	6039
2026-01-09 06:23:21.67	77.42	5.55	-54.3	-58.4	12.2	1.29e-05	0	23	0	24117248	75	5536
2026-01-09 06:23:22.67	77.35	5.62	-54.1	-57.9	12.4	1.50e-06	0	23	0	26214400	74	5584
2026-01-09 06:23:23.66	77.27	5.68	-53.9	-57.4	12.8	7.00e-07	0	23	0	28311552	74	5254
2026-01-09 06:23:24.66	77.20	5.74	-53.6	-56.9	13.1	7.00e-07	0	23	0	30408704	73	5262
2026-01-09 06:23:25.66	77.12	5.81	-53.6	-57.0	13.0	0.00e+00	0	23	0	31457280	73	5289
2026-01-09 06:23:26.66	77.04	5.87	-53.6	-57.0	13.0	0.00e+00	0	23	0	33554432	73	5320
2026-01-09 06:23:27.65	76.97	5.93	-53.5	-56.8	13.2	0.00e+00	0	23	0	35651584	73	5207
2026-01-09 06:23:28.65	76.89	6.00	-53.6	-56.9	13.1	0.00e+00	0	23	0	37748736	73	5273
2026-01-09 06:23:29.65	76.81	6.06	-53.2	-56.4	13.5	0.00e+00	0	23	0	38797312	73	4958
2026-01-09 06:23:30.64	76.73	6.13	-53.6	-57.0	13.1	0.00e+00	0	23	0	40894464	73	5298
2026-01-09 06:23:31.63	76.65	6.19	-53.3	-56.4	13.5	0.00e+00	0	23	0	42991616	73	4973
2026-01-09 06:23:32.62	76.58	6.25	-53.3	-56.4	13.5	0.00e+00	0	23	0	45088768	73	4982
2026-01-09 06:23:33.61	76.50	6.32	-53.5	-56.8	13.2	0.00e+00	0	23	0	47185920	73	5167
2026-01-09 06:23:34.61	76.42	6.38	-53.4	-56.7	13.3	0.00e+00	0	23	0	48234496	73	5108
2026-01-09 06:23:35.60	76.34	6.45	-53.4	-56.7	13.3	0.00e+00	0	23	0	50331648	73	5135
2026-01-09 06:23:36.60	76.26	6.51	-53.3	-56.5	13.4	0.00e+00	0	23	0	52428800	73	5022
2026-01-09 06:23:37.60	76.18	6.58	-53.4	-56.7	13.3	0.00e+00	0	23	0	54525952	73	5103
2026-01-09 06:23:38.60	76.09	6.64	-53.5	-56.8	13.3	0.00e+00	0	23	0	55574528	73	5179
2026-01-09 06:23:39.59	76.01	6.71	-53.3	-56.5	13.4	0.00e+00	0	23	0	57671680	73	5038
2026-01-09 06:23:40.59	75.93	6.77	-53.4	-56.6	13.4	0.00e+00	0	23	0	59768832	73	5047
2026-01-09 06:23:41.58	75.85	6.84	-53.4	-56.6	13.4	0.00e+00	0	23	0	61865984	73	5054
2026-01-09 06:23:42.56	75.77	6.90	-53.2	-56.4	13.5	0.00e+00	0	23	0	63963136	73	4927
2026-01-09 06:23:43.55	75.69	6.97	-53.4	-56.5	13.4	0.00e+00	0	23	0	65011712	73	5018
2026-01-09 06:23:44.55	75.60	7.03	-53.3	-56.4	13.5	0.00e+00	0	23	0	67108864	73	4978
2026-01-09 06:23:45.56	75.52	7.10	-53.0	-55.9	13.7	0.00e+00	0	23	0	69206016	72	4982
2026-01-09 06:23:46.55	75.43	7.17	-53.2	-56.3	13.5	0.00e+00	0	23	0	71303168	72	5203
2026-01-09 06:23:47.55	75.35	7.23	-53.2	-56.2	13.6	0.00e+00	0	23	0	72351744	72	5127
2026-01-09 06:23:48.55	75.26	7.30	-53.3	-56.4	13.4	0.00e+00	0	23	0	74448896	72	5241
2026-01-09 06:23:49.54	75.18	7.37	-53.4	-56.5	13.3	0.00e+00	0	23	0	76546048	72	5310
2026-01-09 06:23:50.54	75.09	7.43	-53.3	-56.5	13.4	0.00e+00	0	23	0	78643200	72	5290
2026-01-09 06:23:51.54	75.00	7.50	-53.4	-56.5	13.3	0.00e+00	0	23	0	80740352	72	5321
2026-01-09 06:23:52.54	74.92	7.57	-53.3	-56.4	13.4	0.00e+00	0	23	0	81788928	72	5248
2026-01-09 06:23:53.53	74.83	7.63	-53.1	-56.1	13.6	0.00e+00	0	23	0	83886080	72	5058
2026-01-09 06:23:54.53	74.74	7.70	-53.4	-56.5	13.4	0.00e+00	0	23	0	85983232	72	5294
2026-01-09 06:23:55.53	74.66	7.77	-53.2	-56.1	13.6	0.00e+00	0	23	0	88080384	72	5094
2026-01-09 06:23:56.52	74.57	7.83	-53.2	-56.2	13.6	0.00e+00	0	23	0	90177536	72	5104
2026-01-09 06:23:57.52	74.48	7.90	-53.3	-56.4	13.5	0.00e+00	0	23	0	91226112	72	5220
2026-01-09 06:23:58.52	74.39	7.97	-53.2	-56.2	13.6	0.00e+00	0	23	0	93323264	72	5126
2026-01-09 06:23:59.52	74.30	8.04	-53.2	-56.2	13.6	0.00e+00	0	23	0	95420416	72	5123
2026-01-09 06:24:00.52	74.21	8.10	-53.4	-56.5	13.3	0.00e+00	0	23	0	97517568	72	5329
2026-01-09 06:24:01.52	74.12	8.17	-53.4	-56.6	13.3	0.00e+00	0	23	0	98566144	72	5359
2026-01-09 06:24:02.52	74.03	8.24	-53.6	-56.9	13.1	0.00e+00	0	23	0	100663296	72	5577
2026-01-09 06:24:03.52	73.93	8.31	-53.6	-56.9	13.1	0.00e+00	0	23	0	102760448	72	5559
2026-01-09 06:24:04.51	73.84	8.38	-53.6	-57.0	13.0	0.00e+00	0	23	0	104857600	72	5606
2026-01-09 06:24:05.51	73.75	8.44	-53.7	-57.1	13.0	0.00e+00	0	23	0	106954752	72	5678
2026-01-09 06:24:06.51	73.66	8.51	-53.2	-56.2	13.6	0.00e+00	0	23	0	108003328	72	5138
2026-01-09 06:24:07.51	73.56	8.58	-53.3	-56.5	13.4	0.00e+00	0	23	0	110100480	72	5293
2026-01-09 06:24:08.51	73.47	8.65	-53.3	-56.4	13.4	0.00e+00	0	23	0	112197632	72	5261
2026-01-09 06:24:09.51	73.38	8.72	-53.3	-56.4	13.4	0.00e+00	0	23	0	114294784	72	5277
2026-01-09 06:24:10.51	73.28	8.79	-53.3	-56.5	13.3	0.00e+00	0	23	0	116391936	72	5323
2026-01-09 06:24:11.51	73.19	8.86	-53.5	-56.7	13.3	0.00e+00	0	23	0	117440512	72	5455
2026-01-09 06:24:12.51	73.09	8.93	-53.4	-56.7	13.3	0.00e+00	0	23	0	119537664	72	5415
2026-01-09 06:24:13.50	72.99	8.99	-53.5	-56.8	13.2	0.00e+00	0	23	0	121634816	72	5520
2026-01-09 06:24:14.50	72.90	9.06	-53.4	-56.6	13.3	0.00e+00	0	23	0	123731968	72	5376
2026-01-09 06:24:15.50	72.80	9.13	-53.3	-56.6	13.4	0.00e+00	0	23	0	124780544	72	5351
2026-01-09 06:24:16.49	72.70	9.20	-53.1	-56.1	13.7	0.00e+00	0	23	0	126877696	72	5085
2026-01-09 06:24:17.50	72.61	9.27	-52.9	-55.9	13.8	0.00e+00	0	23	0	128974848	72	4955
2026-01-09 06:24:18.50	72.51	9.34	-53.0	-55.9	13.8	0.00e+00	0	23	0	131072000	72	4980
2026-01-09 06:24:19.50	72.41	9.41	-52.9	-55.9	13.8	0.00e+00	0	23	0	133169152	72	4937
2026-01-09 06:24:20.49	72.31	9.48	-52.8	-55.7	14.0	0.00e+00	0	23	0	134217728	72	4819
2026-01-09 06:24:21.49	72.21	9.55	-52.9	-55.8	13.9	0.00e+00	0	23	0	136314880	72	4899
2026-01-09 06:24:22.49	72.11	9.62	-52.9	-55.8	13.9	0.00e+00	0	23	0	138412032	72	4911
2026-01-09 06:24:23.48	72.01	9.69	-52.9	-55.8	13.9	0.00e+00	0	23	0	140509184	72	4902
2026-01-09 06:24:24.48	71.91	9.76	-53.0	-55.9	13.8	0.00e+00	0	23	0	142606336	72	4969
2026-01-09 06:24:25.48	71.80	9.83	-53.0	-55.9	13.8	0.00e+00	0	23	0	143654912	72	4954
2026-01-09 06:24:26.47	71.70	9.90	-53.1	-56.1	13.7	0.00e+00	0	23	0	145752064	72	5093
2026-01-09 06:24:27.48	71.60	9.97	-53.0	-56.0	13.8	0.00e+00	0	23	0	147849216	72	4986
2026-01-09 06:24:28.47	71.50	10.04	-52.9	-55.7	14.0	0.00e+00	0	23	0	149946368	72	4866
2026-01-09 06:24:29.48	71.39	10.12	-52.9	-55.8	13.9	0.00e+00	0	23	0	150994944	72	4884
2026-01-09 06:24:30.47	71.29	10.19	-52.9	-55.7	14.0	0.00e+00	0	23	0	153092096	72	4841
2026-01-09 06:24:31.46	71.18	10.26	-52.9	-55.8	13.9	0.00e+00	0	23	0	155189248	72	4877
2026-01-09 06:24:32.46	71.08	10.33	-53.0	-55.9	13.9	0.00e+00	0	23	0	157286400	72	4956
2026-01-09 06:24:33.46	70.97	10.40	-52.9	-55.8	13.9	0.00e+00	0	23	0	159383552	72	4910
2026-01-09 06:24:34.46	70.86	10.47	-53.1	-56.1	13.7	0.00e+00	0	23	0	160432128	72	5076
2026-01-09 06:24:35.46	70.76	10.54	-53.0	-55.8	13.8	0.00e+00	0	23	0	162529280	72	4908
2026-01-09 06:24:36.45	70.65	10.61	-52.9	-55.7	14.0	0.00e+00	0	23	0	164626432	72	4821
2026-01-09 06:24:37.45	70.54	10.69	-53.0	-55.8	13.9	0.00e+00	0	23	0	166723584	72	4903
2026-01-09 06:24:38.44	70.43	10.76	-52.9	-55.6	14.0	0.00e+00	0	23	0	167772160	72	4802
2026-01-09 06:24:39.44	70.32	10.83	-52.8	-55.6	14.0	0.00e+00	0	23	0	169869312	72	4800
2026-01-09 06:24:40.44	70.21	10.90	-52.9	-55.6	14.1	0.00e+00	0	23	0	171966464	72	4786
2026-01-09 06:24:41.43	70.10	10.97	-52.8	-55.6	14.1	0.00e+00	0	23	0	174063616	72	4765
2026-01-09 06:24:42.42	69.99	11.05	-52.8	-55.5	14.2	0.00e+00	0	23	0	176160768	72	4715
2026-01-09 06:24:43.41	69.88	11.12	-52.9	-55.7	14.0	0.00e+00	0	23	0	177209344	72	4822
2026-01-09 06:24:44.41	69.77	11.19	-53.0	-55.8	13.9	0.00e+00	0	23	0	179306496	72	4885
2026-01-09 06:24:45.41	69.66	11.26	-53.0	-55.8	13.9	0.00e+00	0	23	0	181403648	72	4916
2026-01-09 06:24:46.40	69.55	11.33	-53.0	-55.7	14.0	0.00e+00	0	23	0	183500800	72	4862
2026-01-09 06:24:47.40	69.43	11.41	-53.1	-55.9	13.8	0.00e+00	0	23	0	184549376	72	4981
2026-01-09 06:24:48.40	69.32	11.48	-53.0	-55.8	14.0	0.00e+00	0	23	0	186646528	72	4878
2026-01-09 06:24:49.39	69.20	11.55	-52.9	-55.7	14.0	0.00e+00	0	23	0	188743680	72	4830
2026-01-09 06:24:50.39	69.09	11.63	-53.1	-56.0	13.8	0.00e+00	0	23	0	190840832	72	5005
2026-01-09 06:24:51.40	68.97	11.70	-53.0	-55.8	13.9	0.00e+00	0	23	0	192937984	72	4915
2026-01-09 06:24:52.39	68.85	11.77	-53.0	-55.8	13.9	0.00e+00	0	23	0	193986560	72	4896
2026-01-09 06:24:53.38	68.74	11.85	-53.1	-56.0	13.8	0.00e+00	0	23	0	196083712	72	4985
2026-01-09 06:24:54.39	68.62	11.92	-53.0	-55.7	14.0	0.00e+00	0	23	0	198180864	72	4866
2026-01-09 06:24:55.38	68.50	11.99	-53.1	-56.0	13.8	0.00e+00	0	23	0	200278016	72	5009
2026-01-09 06:24:56.39	68.38	12.07	-53.2	-56.2	13.7	0.00e+00	0	23	0	202375168	72	5121
2026-01-09 06:24:57.38	68.26	12.14	-53.1	-55.9	13.9	0.00e+00	0	23	0	203423744	72	4979
2026-01-09 06:24:58.37	68.14	12.22	-53.2	-56.1	13.7	0.00e+00	0	23	0	205520896	72	5077
2026-01-09 06:24:59.36	68.02	12.29	-53.1	-55.9	13.8	0.00e+00	0	23	0	207618048	72	4974
2026-01-09 06:25:00.36	67.90	12.36	-53.1	-56.0	13.8	0.00e+00	0	23	0	209715200	72	4994
2026-01-09 06:25:01.36	67.78	12.44	-53.0	-55.8	13.9	0.00e+00	0	23	0	210763776	72	4903
2026-01-09 06:25:02.36	67.65	12.51	-53.0	-55.8	14.0	0.00e+00	0	23	0	212860928	72	4882
2026-01-09 06:25:03.36	67.53	12.59	-53.0	-55.7	14.0	0.00e+00	0	23	0	214958080	72	4865
2026-01-09 06:25:04.35	67.41	12.66	-52.8	-55.5	14.1	0.00e+00	0	23	0	217055232	72	4740
2026-01-09 06:25:05.35	67.28	12.74	-52.7	-55.4	14.2	0.00e+00	0	23	0	219152384	72	4653
2026-01-09 06:25:06.35	67.16	12.81	-52.6	-55.2	14.3	0.00e+00	0	24	0	220200960	71	4842
2026-01-09 06:25:07.34	67.03	12.88	-52.6	-55.2	14.2	0.00e+00	0	23	0	222298112	71	4825
2026-01-09 06:25:08.33	66.90	12.96	-52.6	-55.2	14.2	0.00e+00	0	23	0	224395264	71	4856
2026-01-09 06:25:09.33	66.78	13.03	-52.4	-54.8	14.4	0.00e+00	0	23	0	226492416	71	4638
2026-01-09 06:25:10.33	66.65	13.11	-52.2	-54.6	14.6	0.00e+00	0	23	0	228589568	71	4506
2026-01-09 06:25:11.33	66.52	13.18	-52.2	-54.6	14.5	0.00e+00	0	24	0	229638144	71	4517
2026-01-09 06:25:12.34	66.39	13.26	-52.1	-54.5	14.5	0.00e+00	0	23	0	231735296	70	4711
2026-01-09 06:25:13.34	66.26	13.34	-51.9	-54.3	14.6	0.00e+00	0	23	0	233832448	70	4610
2026-01-09 06:25:14.34	66.13	13.41	-52.0	-54.3	14.6	0.00e+00	0	23	0	235929600	70	4641
2026-01-09 06:25:15.35	65.99	13.49	-51.9	-54.2	14.6	0.00e+00	0	23	0	236978176	70	4576
2026-01-09 06:25:16.34	65.86	13.56	-52.0	-54.4	14.6	0.00e+00	0	23	0	239075328	70	4656
2026-01-09 06:25:17.34	65.73	13.64	-52.0	-54.3	14.6	0.00e+00	0	23	0	241172480	70	4634
2026-01-09 06:25:18.33	65.60	13.71	-52.0	-54.4	14.5	0.00e+00	0	23	0	243269632	70	4703
2026-01-09 06:25:19.34	65.46	13.79	-52.0	-54.4	14.5	0.00e+00	0	23	0	245366784	70	4687
2026-01-09 06:25:20.33	65.33	13.87	-52.0	-54.4	14.5	0.00e+00	0	23	0	246415360	70	4680
2026-01-09 06:25:21.33	65.19	13.94	-52.1	-54.5	14.5	0.00e+00	0	23	0	248512512	70	4736
2026-01-09 06:25:22.32	65.06	14.02	-52.1	-54.5	14.5	0.00e+00	0	23	0	250609664	70	4745
2026-01-09 06:25:23.32	64.92	14.09	-52.2	-54.7	14.3	0.00e+00	0	23	0	252706816	70	4842
2026-01-09 06:25:24.32	64.78	14.17	-52.0	-54.4	14.5	0.00e+00	0	23	0	253755392	70	4688
2026-01-09 06:25:25.30	64.64	14.24	-52.0	-54.4	14.6	0.00e+00	0	23	0	255852544	70	4653
2026-01-09 06:25:26.29	64.51	14.32	-52.1	-54.5	14.5	0.00e+00	0	23	0	257949696	70	4728
2026-01-09 06:25:27.29	64.37	14.40	-51.9	-54.1	14.7	0.00e+00	0	24	0	260046848	70	4538
2026-01-09 06:25:28.29	64.23	14.47	-51.9	-54.2	14.7	0.00e+00	0	23	0	262144000	70	4565
2026-01-09 06:25:29.28	64.08	14.55	-52.1	-54.5	14.5	0.00e+00	0	24	0	263192576	70	4719
2026-01-09 06:25:30.27	63.94	14.63	-52.2	-54.6	14.4	0.00e+00	0	24	0	265289728	70	4814
2026-01-09 06:25:31.27	63.80	14.70	-52.0	-54.4	14.5	0.00e+00	0	24	0	267386880	70	4660
2026-01-09 06:25:32.26	63.66	14.78	-51.9	-54.2	14.7	0.00e+00	0	23	0	269484032	70	4567
2026-01-09 06:25:33.25	63.51	14.85	-52.1	-54.4	14.5	0.00e+00	0	23	0	270532608	70	4684
2026-01-09 06:25:34.25	63.37	14.93	-52.1	-54.5	14.5	0.00e+00	0	23	0	272629760	70	4708
2026-01-09 06:25:35.25	63.22	15.01	-52.0	-54.3	14.6	0.00e+00	0	24	0	274726912	70	4615
2026-01-09 06:25:36.25	63.08	15.09	-52.0	-54.4	14.5	0.00e+00	0	23	0	276824064	70	4687
2026-01-09 06:25:37.24	62.93	15.16	-51.9	-54.3	14.6	0.00e+00	0	23	0	278921216	70	4617
2026-01-09 06:25:38.24	62.78	15.24	-51.8	-54.2	14.7	0.00e+00	0	23	0	279969792	70	4589
2026-01-09 06:25:39.23	62.63	15.32	-51.7	-54.2	14.5	0.00e+00	0	23	0	282066944	69	4852
2026-01-09 06:25:40.23	62.48	15.39	-51.8	-54.3	14.5	0.00e+00	0	23	0	284164096	69	4873
2026-01-09 06:25:41.23	62.33	15.47	-51.8	-54.2	14.5	0.00e+00	0	23	0	286261248	69	4867
2026-01-09 06:25:42.23	62.18	15.55	-51.8	-54.4	14.4	0.00e+00	0	23	0	288358400	69	4951
2026-01-09 06:25:43.22	62.03	15.62	-51.9	-54.5	14.3	0.00e+00	0	23	0	289406976	69	5003
2026-01-09 06:25:44.21	61.88	15.70	-51.9	-54.5	14.3	0.00e+00	0	23	0	291504128	69	5003
2026-01-09 06:25:45.21	61.72	15.78	-52.0	-54.5	14.3	0.00e+00	0	23	0	293601280	69	5028
2026-01-09 06:25:46.21	61.57	15.86	-52.0	-54.6	14.3	0.00e+00	0	24	0	295698432	69	5051
2026-01-09 06:25:47.21	61.41	15.93	-52.2	-54.9	14.1	0.00e+00	0	24	0	296747008	69	5243
2026-01-09 06:25:48.20	61.26	16.01	-52.3	-55.0	14.1	0.00e+00	0	24	0	298844160	69	5304
2026-01-09 06:25:49.20	61.10	16.09	-52.4	-55.1	14.1	0.00e+00	0	24	0	300941312	70	5078
2026-01-09 06:25:50.20	60.94	16.16	-52.6	-55.4	14.0	0.00e+00	0	24	0	303038464	70	5221
2026-01-09 06:25:51.20	60.78	16.24	-52.5	-55.2	14.1	0.00e+00	0	23	0	305135616	70	5146
2026-01-09 06:25:52.19	60.62	16.32	-52.5	-55.3	14.0	0.00e+00	0	24	0	306184192	70	5186
2026-01-09 06:25:53.18	60.46	16.40	-52.7	-55.6	13.9	0.00e+00	0	23	0	308281344	70	5368
2026-01-09 06:25:54.18	60.30	16.47	-52.7	-55.5	13.8	0.00e+00	0	23	0	310378496	70	5294
2026-01-09 06:25:55.18	60.14	16.55	-52.6	-55.4	13.9	0.00e+00	0	24	0	312475648	70	5242
2026-01-09 06:25:56.18	59.98	16.63	-52.7	-55.5	13.9	0.00e+00	0	24	0	314572800	70	5299
2026-01-09 06:25:57.18	59.81	16.71	-52.6	-55.3	14.0	0.00e+00	0	24	0	315621376	70	5199
2026-01-09 06:25:58.19	59.65	16.78	-52.5	-55.1	14.1	0.00e+00	0	23	0	317718528	70	5097
2026-01-09 06:25:59.19	59.48	16.86	-52.6	-55.2	14.1	0.00e+00	0	24	0	319815680	70	5132
2026-01-09 06:26:00.19	59.31	16.94	-52.5	-55.1	14.1	0.00e+00	0	24	0	321912832	70	5061
2026-01-09 06:26:01.45	59.10	17.04	-52.4	-55.0	14.2	0.00e+00	0	24	0	322961408	70	4997
2026-01-09 06:26:02.24	58.97	17.10	-52.5	-55.1	14.1	0.00e+00	0	24	0	325058560	70	5089
2026-01-09 06:26:03.45	58.76	17.19	-52.5	-55.2	14.1	0.00e+00	0	24	0	327155712	70	5105
2026-01-09 06:26:04.30	58.62	17.26	-52.4	-55.0	14.2	0.00e+00	0	24	0	329252864	70	5038
2026-01-09 06:26:05.44	58.42	17.35	-52.5	-55.1	14.1	0.00e+00	0	23	0	331350016	70	5084
2026-01-09 06:26:06.29	58.28	17.41	-52.5	-55.2	14.1	0.00e+00	0	24	0	332398592	70	5114
2026-01-09 06:26:07.43	58.08	17.50	-52.4	-55.0	14.2	0.00e+00	0	24	0	334495744	70	5014
2026-01-09 06:26:08.29	57.93	17.57	-52.3	-54.9	14.2	0.00e+00	0	23	0	336592896	70	4972
2026-01-09 06:26:09.42	57.73	17.66	-52.2	-54.7	14.4	0.00e+00	0	23	0	338690048	70	4867
2026-01-09 06:26:10.28	57.58	17.72	-52.2	-54.7	14.4	0.00e+00	0	23	0	339738624	70	4869
2026-01-09 06:26:11.43	57.38	17.81	-52.2	-54.7	14.3	0.00e+00	0	23	0	341835776	70	4844
2026-01-09 06:26:12.28	57.23	17.88	-52.3	-54.8	14.3	0.00e+00	0	24	0	343932928	70	4901
2026-01-09 06:26:13.42	57.02	17.97	-52.2	-54.7	14.4	0.00e+00	0	24	0	346030080	70	4829
2026-01-09 06:26:14.28	56.87	18.03	-52.1	-54.7	14.4	0.00e+00	0	24	0	347078656	70	4816
2026-01-09 06:26:15.42	56.66	18.12	-52.3	-54.9	14.3	0.00e+00	0	24	0	349175808	70	4937
2026-01-09 06:26:16.28	56.51	18.19	-52.2	-54.8	14.3	0.00e+00	0	24	0	351272960	70	4920
2026-01-09 06:26:17.41	56.30	18.27	-52.5	-55.3	14.0	0.00e+00	0	24	0	353370112	70	5187
2026-01-09 06:26:18.27	56.14	18.34	-52.5	-55.2	14.0	0.00e+00	0	24	0	354418688	70	5148
2026-01-09 06:26:19.41	55.93	18.43	-52.4	-55.1	14.1	0.00e+00	0	24	0	357564416	70	5067
2026-01-09 06:26:20.26	55.78	18.49	-52.3	-54.8	14.3	0.00e+00	0	24	0	358612992	70	4920
2026-01-09 06:26:21.39	55.57	18.58	-52.2	-54.7	14.4	0.00e+00	0	24	0	360710144	70	4847
2026-01-09 06:26:22.25	55.40	18.65	-52.2	-54.7	14.4	0.00e+00	0	24	0	362807296	70	4822
2026-01-09 06:26:23.39	55.19	18.73	-52.2	-54.7	14.4	0.00e+00	0	24	0	364904448	70	4858
2026-01-09 06:26:24.24	55.03	18.80	-52.2	-54.7	14.4	0.00e+00	0	24	0	365953024	70	4861
2026-01-09 06:26:25.39	54.81	18.89	-52.1	-54.4	14.5	0.00e+00	0	24	0	368050176	70	4704
2026-01-09 06:26:26.25	54.65	18.95	-52.2	-54.6	14.4	0.00e+00	0	24	0	370147328	70	4768
2026-01-09 06:26:27.39	54.43	19.04	-52.3	-54.7	14.3	0.00e+00	0	24	0	372244480	70	4869
2026-01-09 06:26:28.23	54.27	19.10	-52.0	-54.4	14.5	0.00e+00	0	24	0	373293056	70	4661
2026-01-09 06:26:29.37	54.05	19.19	-52.4	-54.9	14.3	0.00e+00	0	24	0	375390208	70	4945
2026-01-09 06:26:30.22	53.88	19.26	-52.3	-54.7	14.4	0.00e+00	0	24	0	377487360	70	4870
2026-01-09 06:26:31.35	53.66	19.34	-52.5	-55.0	14.2	0.00e+00	0	24	0	379584512	70	5035
2026-01-09 06:26:32.20	53.49	19.41	-52.4	-55.0	14.2	0.00e+00	0	24	0	380633088	70	5024
2026-01-09 06:26:33.34	53.27	19.49	-52.2	-54.7	14.4	0.00e+00	0	23	0	382730240	70	4846
2026-01-09 06:26:34.20	53.10	19.56	-52.1	-54.5	14.5	0.00e+00	0	24	0	384827392	70	4737
2026-01-09 06:26:35.32	52.87	19.64	-52.1	-54.5	14.5	0.00e+00	0	24	0	386924544	70	4729
2026-01-09 06:26:36.17	52.70	19.71	-51.9	-54.2	14.7	0.00e+00	0	24	0	389021696	70	4597
2026-01-09 06:26:37.31	52.47	19.79	-51.9	-54.2	14.7	0.00e+00	0	24	0	391118848	70	4565
2026-01-09 06:26:38.16	52.30	19.85	-51.8	-54.1	14.8	0.00e+00	0	24	0	392167424	70	4503
2026-01-09 06:26:39.28	52.07	19.94	-51.9	-54.2	14.7	0.00e+00	0	24	0	394264576	70	4575
2026-01-09 06:26:40.13	51.90	20.00	-51.6	-53.8	14.7	0.00e+00	0	24	0	396361728	69	4621
2026-01-09 06:26:41.27	51.66	20.09	-51.8	-54.0	14.5	0.00e+00	0	24	0	398458880	69	4742
2026-01-09 06:26:42.12	51.49	20.15	-51.7	-54.0	14.5	0.00e+00	0	24	0	399507456	69	4731
2026-01-09 06:26:43.25	51.25	20.23	-51.5	-53.7	14.7	0.00e+00	0	24	0	401604608	69	4561
2026-01-09 06:26:44.11	51.07	20.30	-51.5	-53.7	14.7	0.00e+00	0	24	0	403701760	69	4572
2026-01-09 06:26:45.25	50.83	20.38	-51.3	-53.5	14.8	0.00e+00	0	24	0	405798912	69	4481
2026-01-09 06:26:46.10	50.65	20.44	-51.4	-53.6	14.7	0.00e+00	0	24	0	406847488	69	4530
2026-01-09 06:26:47.23	50.42	20.53	-51.4	-53.7	14.7	0.00e+00	0	24	0	408944640	69	4553
2026-01-09 06:26:48.09	50.23	20.59	-51.2	-53.3	14.9	0.00e+00	0	24	0	411041792	69	4381
2026-01-09 06:26:49.23	49.99	20.67	-51.1	-53.2	14.8	0.00e+00	0	24	0	413138944	68	4585
2026-01-09 06:26:50.09	49.80	20.74	-50.9	-52.9	15.0	0.00e+00	0	24	0	414187520	68	4411
2026-01-09 06:26:51.23	49.56	20.82	-50.8	-52.8	15.0	0.00e+00	0	24	0	417333248	68	4368
2026-01-09 06:26:52.09	49.37	20.88	-50.7	-52.7	15.1	0.00e+00	0	24	0	418381824	68	4316
2026-01-09 06:26:53.23	49.12	20.96	-50.5	-52.5	15.0	0.00e+00	0	24	0	420478976	67	4464
2026-01-09 06:26:54.08	48.94	21.02	-50.5	-52.4	15.0	0.00e+00	0	24	0	422576128	67	4441
2026-01-09 06:26:55.23	48.68	21.11	-50.4	-52.3	15.0	0.00e+00	0	24	0	424673280	67	4384
2026-01-09 06:26:56.08	48.50	21.17	-50.5	-52.5	14.9	0.00e+00	0	24	0	425721856	67	4472
2026-01-09 06:26:57.22	48.24	21.25	-50.5	-52.5	15.0	0.00e+00	0	24	0	427819008	67	4462
2026-01-09 06:26:58.08	48.05	21.31	-50.5	-52.5	15.0	0.00e+00	0	24	0	429916160	67	4454
2026-01-09 06:26:59.22	47.80	21.39	-50.8	-52.9	14.8	0.00e+00	0	24	0	432013312	67	4674
2026-01-09 06:27:00.08	47.60	21.45	-50.8	-52.8	14.8	0.00e+00	0	24	0	433061888	67	4641
2026-01-09 06:27:01.22	47.34	21.53	-50.7	-52.7	14.9	0.00e+00	0	24	0	435159040	67	4551
2026-01-09 06:27:02.07	47.15	21.59	-50.6	-52.5	15.0	0.00e+00	0	24	0	437256192	67	4466
2026-01-09 06:27:03.21	46.89	21.67	-50.7	-52.6	14.9	0.00e+00	0	24	0	439353344	67	4539
2026-01-09 06:27:04.06	46.70	21.73	-50.6	-52.6	14.9	0.00e+00	0	24	0	440401920	67	4500
2026-01-09 06:27:05.20	46.43	21.80	-50.6	-52.6	15.0	0.00e+00	0	24	0	442499072	67	4500
2026-01-09 06:27:06.05	46.24	21.86	-50.6	-52.6	14.9	0.00e+00	0	24	0	444596224	67	4525
2026-01-09 06:27:07.20	45.97	21.94	-50.4	-52.4	15.0	0.00e+00	0	24	0	446693376	67	4403
2026-01-09 06:27:08.06	45.77	22.00	-50.2	-52.1	15.2	0.00e+00	0	24	0	448790528	67	4259
2026-01-09 06:27:09.20	45.50	22.08	-50.1	-52.0	15.1	0.00e+00	0	24	0	450887680	66	4455
2026-01-09 06:27:10.05	45.30	22.13	-50.2	-52.0	15.0	0.00e+00	0	24	0	451936256	66	4490
2026-01-09 06:27:11.19	45.03	22.21	-50.2	-52.1	15.0	0.00e+00	0	24	0	454033408	66	4504
2026-01-09 06:27:12.04	44.83	22.27	-50.5	-52.4	14.9	0.00e+00	0	24	0	456130560	66	4678
2026-01-09 06:27:13.18	44.56	22.34	-50.3	-52.2	15.0	0.00e+00	0	24	0	458227712	66	4565
2026-01-09 06:27:14.04	44.35	22.40	-50.1	-52.0	15.1	0.00e+00	0	24	0	459276288	66	4445
2026-01-09 06:27:15.17	44.08	22.47	-50.0	-51.8	15.2	0.00e+00	0	24	0	461373440	66	4372
2026-01-09 06:27:16.02	43.88	22.53	-50.0	-51.7	15.2	0.00e+00	0	24	0	463470592	66	4330
2026-01-09 06:27:17.16	43.60	22.60	-50.1	-51.9	15.2	0.00e+00	0	24	0	465567744	66	4395
2026-01-09 06:27:18.02	43.39	22.66	-50.0	-51.7	15.2	0.00e+00	0	24	0	466616320	66	4329
2026-01-09 06:27:19.16	43.11	22.73	-50.2	-51.9	15.1	0.00e+00	0	24	0	468713472	66	4437
2026-01-09 06:27:20.02	42.90	22.78	-50.2	-52.0	15.1	0.00e+00	0	24	0	470810624	66	4442
2026-01-09 06:27:21.16	42.62	22.86	-50.4	-52.2	15.0	0.00e+00	0	24	0	472907776	66	4556
2026-01-09 06:27:22.02	42.41	22.91	-50.4	-52.2	15.0	0.00e+00	0	24	0	473956352	66	4583
2026-01-09 06:27:23.16	42.12	22.98	-50.5	-52.3	14.9	0.00e+00	0	24	0	477102080	66	4638
2026-01-09 06:27:24.01	41.91	23.03	-50.6	-52.5	14.8	0.00e+00	0	24	0	478150656	66	4758
2026-01-09 06:27:25.15	41.63	23.10	-50.5	-52.4	14.9	0.00e+00	0	24	0	480247808	66	4694
2026-01-09 06:27:26.01	41.41	23.15	-50.5	-52.4	14.9	0.00e+00	0	24	0	482344960	66	4686
2026-01-09 06:27:27.15	41.12	23.22	-50.5	-52.3	14.9	0.00e+00	0	24	0	484442112	66	4635
2026-01-09 06:27:28.00	40.91	23.27	-50.6	-52.5	14.9	0.00e+00	0	24	0	485490688	66	4710
2026-01-09 06:27:29.15	40.61	23.34	-50.5	-52.4	14.9	0.00e+00	0	24	0	487587840	66	4663
2026-01-09 06:27:30.00	40.40	23.39	-50.4	-52.3	14.9	0.00e+00	0	24	0	489684992	66	4599
2026-01-09 06:27:31.14	40.10	23.46	-50.2	-52.0	15.1	0.00e+00	0	24	0	491782144	66	4486
2026-01-09 06:27:32.00	39.88	23.51	-50.2	-52.0	15.1	0.00e+00	0	24	0	492830720	66	4442
2026-01-09 06:27:33.13	39.59	23.57	-50.2	-51.9	15.1	0.00e+00	0	24	0	494927872	66	4430
2026-01-09 06:27:33.98	39.37	23.62	-50.2	-51.9	15.1	0.00e+00	0	24	0	497025024	66	4432
2026-01-09 06:27:35.11	39.08	23.69	-50.5	-52.3	15.0	0.00e+00	0	24	0	499122176	66	4619
2026-01-09 06:27:35.96	38.86	23.73	-50.4	-52.2	15.0	0.00e+00	0	24	0	500170752	66	4585
2026-01-09 06:27:37.10	38.56	23.80	-50.4	-52.1	15.0	0.00e+00	0	24	0	502267904	66	4533
2026-01-09 06:27:37.96	38.33	23.85	-50.1	-51.8	15.2	0.00e+00	0	24	0	504365056	66	4376
2026-01-09 06:27:39.09	38.03	23.91	-50.1	-51.8	15.2	0.00e+00	0	24	0	506462208	66	4352
2026-01-09 06:27:39.93	37.81	23.95	-50.1	-51.8	15.2	0.00e+00	0	24	0	508559360	66	4372
2026-01-09 06:27:41.07	37.51	24.01	-50.4	-52.2	15.0	0.00e+00	0	24	0	510656512	66	4559
2026-01-09 06:27:41.92	37.28	24.06	-50.4	-52.2	15.0	0.00e+00	0	24	0	511705088	66	4561
2026-01-09 06:27:43.04	36.98	24.12	-50.3	-52.0	15.1	0.00e+00	0	24	0	513802240	66	4481
2026-01-09 06:27:43.90	36.75	24.16	-50.0	-51.7	15.2	0.00e+00	0	24	0	515899392	66	4307
2026-01-09 06:27:45.03	36.45	24.22	-50.2	-51.9	15.1	0.00e+00	0	24	0	517996544	66	4412
2026-01-09 06:27:45.88	36.22	24.26	-50.3	-52.0	15.1	0.00e+00	0	24	0	519045120	66	4463
2026-01-09 06:27:47.03	35.90	24.32	-50.3	-52.0	15.1	0.00e+00	0	24	0	521142272	66	4464
2026-01-09 06:27:47.88	35.67	24.36	-50.4	-52.2	15.0	0.00e+00	0	24	0	523239424	66	4568
2026-01-09 06:27:49.03	35.36	24.42	-50.2	-51.9	15.1	0.00e+00	0	23	0	525336576	66	4438
2026-01-09 06:27:49.89	35.12	24.46	-50.3	-52.0	15.1	0.00e+00	0	24	0	526385152	66	4477
2026-01-09 06:27:51.03	34.81	24.51	-50.4	-52.1	15.0	0.00e+00	0	24	0	528482304	66	4530
2026-01-09 06:27:51.88	34.58	24.55	-50.4	-52.2	15.0	0.00e+00	0	24	0	530579456	66	4559
2026-01-09 06:27:53.02	34.26	24.60	-50.4	-52.1	15.0	0.00e+00	0	24	0	532676608	66	4521
2026-01-09 06:27:53.88	34.03	24.64	-50.2	-51.9	15.1	0.00e+00	0	24	0	534773760	66	4410
2026-01-09 06:27:55.01	33.71	24.69	-50.1	-51.8	15.2	0.00e+00	0	24	0	535822336	66	4379
2026-01-09 06:27:55.87	33.47	24.73	-50.0	-51.7	15.2	0.00e+00	0	24	0	537919488	66	4332
2026-01-09 06:27:57.00	33.16	24.78	-50.2	-51.9	15.1	0.00e+00	0	24	0	540016640	66	4408
2026-01-09 06:27:57.86	32.92	24.82	-50.2	-51.9	15.1	0.00e+00	0	23	0	542113792	66	4419
2026-01-09 06:27:59.00	32.60	24.86	-50.6	-52.3	14.9	0.00e+00	0	24	0	544210944	66	4645
2026-01-09 06:27:59.85	32.36	24.90	-50.6	-52.4	14.9	0.00e+00	0	24	0	545259520	66	4679
2026-01-09 06:28:00.99	32.04	24.95	-50.7	-52.6	14.8	0.00e+00	0	24	0	547356672	66	4772
2026-01-09 06:28:01.84	31.79	24.98	-50.8	-52.7	14.7	0.00e+00	0	24	0	549453824	66	4849
2026-01-09 06:28:02.98	31.47	25.03	-51.0	-52.9	14.8	0.00e+00	0	23	0	551550976	67	4674
2026-01-09 06:28:03.83	31.23	25.06	-51.7	-53.7	14.6	0.00e+00	0	24	0	552599552	68	4864
2026-01-09 06:28:04.98	30.90	25.10	-52.2	-54.4	14.3	0.00e+00	0	24	0	554696704	69	4979
2026-01-09 06:28:05.83	30.66	25.13	-52.4	-54.8	14.3	0.00e+00	0	24	0	556793856	70	4895
2026-01-09 06:28:06.97	30.33	25.18	-52.3	-54.5	14.5	0.00e+00	0	24	0	558891008	70	4740
2026-01-09 06:28:07.83	30.09	25.21	-52.2	-54.5	14.5	0.00e+00	0	24	0	559939584	70	4708
2026-01-09 06:28:08.97	29.76	25.25	-51.9	-54.1	14.7	0.00e+00	0	24	0	562036736	70	4516
2026-01-09 06:28:09.82	29.51	25.27	-51.9	-54.1	14.7	0.00e+00	0	24	0	564133888	70	4500
2026-01-09 06:28:10.97	29.18	25.31	-51.7	-53.9	14.7	0.00e+00	0	24	0	566231040	69	4660
2026-01-09 06:28:11.83	28.93	25.34	-51.6	-53.7	14.8	0.00e+00	0	24	0	568328192	69	4558
2026-01-09 06:28:12.97	28.60	25.38	-51.5	-53.6	14.8	0.00e+00	0	24	0	570425344	69	4536
2026-01-09 06:28:13.83	28.35	25.40	-51.7	-53.9	14.7	0.00e+00	0	24	0	571473920	69	4697
2026-01-09 06:28:14.98	28.02	25.44	-52.0	-54.3	14.4	0.00e+00	0	24	0	573571072	69	4913
2026-01-09 06:28:15.83	27.77	25.46	-52.0	-54.3	14.5	0.00e+00	0	24	0	575668224	69	4884
2026-01-09 06:28:16.97	27.43	25.50	-52.2	-54.6	14.3	0.00e+00	0	24	0	577765376	69	5073
2026-01-09 06:28:17.83	27.18	25.52	-52.2	-54.6	14.3	0.00e+00	0	24	0	578813952	69	5067
2026-01-09 06:28:18.98	26.85	25.55	-52.1	-54.4	14.4	0.00e+00	0	23	0	580911104	69	4969
2026-01-09 06:28:19.83	26.60	25.58	-52.1	-54.5	14.3	0.00e+00	0	24	0	583008256	69	5006
2026-01-09 06:28:20.98	26.26	25.61	-52.3	-54.8	14.2	0.00e+00	0	24	0	585105408	69	5166
2026-01-09 06:28:21.84	26.00	25.63	-52.3	-54.8	14.2	0.00e+00	0	24	0	587202560	69	5197
2026-01-09 06:28:22.97	25.67	25.65	-52.4	-54.9	14.3	0.00e+00	0	24	0	588251136	70	4963
2026-01-09 06:28:23.83	25.42	25.67	-52.3	-54.7	14.4	0.00e+00	0	24	0	590348288	70	4855
2026-01-09 06:28:24.97	25.08	25.70	-52.3	-54.7	14.4	0.00e+00	0	24	0	592445440	70	4827
2026-01-09 06:28:25.83	24.82	25.72	-52.4	-54.8	14.3	0.00e+00	0	24	0	594542592	70	4920
2026-01-09 06:28:26.97	24.48	25.74	-52.2	-54.6	14.4	0.00e+00	0	24	0	596639744	70	4800
2026-01-09 06:28:27.82	24.23	25.76	-52.2	-54.7	14.4	0.00e+00	0	24	0	597688320	70	4821
2026-01-09 06:28:28.96	23.89	25.78	-51.9	-54.2	14.6	0.00e+00	0	24	0	599785472	70	4588
2026-01-09 06:28:29.81	23.64	25.80	-51.9	-54.2	14.6	0.00e+00	0	24	0	601882624	70	4579
2026-01-09 06:28:30.95	23.30	25.82	-51.5	-53.6	14.8	0.00e+00	0	24	0	603979776	69	4520
2026-01-09 06:28:31.80	23.04	25.83	-51.4	-53.4	14.9	0.00e+00	0	24	0	605028352	69	4439
2026-01-09 06:28:32.95	22.70	25.85	-51.5	-53.7	14.8	0.00e+00	0	24	0	607125504	69	4555
2026-01-09 06:28:33.80	22.45	25.86	-51.6	-53.8	14.7	0.00e+00	0	24	0	609222656	69	4606
2026-01-09 06:28:34.94	22.10	25.88	-51.9	-54.2	14.5	0.00e+00	0	24	0	611319808	69	4843
2026-01-09 06:28:35.80	21.85	25.89	-52.0	-54.4	14.3	0.00e+00	0	24	0	612368384	69	4964
2026-01-09 06:28:36.94	21.50	25.90	-52.1	-54.5	14.3	0.00e+00	0	24	0	615514112	69	5015
2026-01-09 06:28:37.79	21.25	25.91	-52.1	-54.4	14.3	0.00e+00	0	24	0	616562688	69	4963
2026-01-09 06:28:38.93	20.91	25.92	-52.4	-54.8	14.2	0.00e+00	0	24	0	618659840	69	5212
2026-01-09 06:28:39.78	20.65	25.93	-52.3	-54.7	14.2	0.00e+00	0	24	0	620756992	69	5131
2026-01-09 06:28:40.92	20.31	25.94	-52.4	-54.8	14.3	0.00e+00	0	24	0	622854144	70	4922
2026-01-09 06:28:41.77	20.05	25.95	-52.4	-54.9	14.3	0.00e+00	0	24	0	623902720	70	4928
2026-01-09 06:28:42.90	19.71	25.96	-52.2	-54.4	14.5	0.00e+00	0	24	0	625999872	70	4692
2026-01-09 06:28:43.76	19.45	25.96	-52.1	-54.3	14.6	0.00e+00	0	24	0	628097024	70	4625
2026-01-09 06:28:44.90	19.11	25.97	-51.9	-54.0	14.7	0.00e+00	0	24	0	630194176	70	4475
2026-01-09 06:28:45.76	18.85	25.97	-51.7	-53.9	14.7	0.00e+00	0	24	0	631242752	69	4662
2026-01-09 06:28:46.90	18.51	25.98	-51.8	-53.9	14.6	0.00e+00	0	24	0	633339904	69	4682
2026-01-09 06:28:47.75	18.25	25.98	-51.9	-54.1	14.5	0.00e+00	0	24	0	635437056	69	4813
2026-01-09 06:28:48.90	17.90	25.98	-52.3	-54.8	14.1	0.00e+00	0	24	0	637534208	69	5188
2026-01-09 06:28:49.75	17.65	25.98	-52.5	-55.0	14.2	0.00e+00	0	24	0	638582784	70	5039
2026-01-09 06:28:50.89	17.30	25.98	-52.5	-55.1	14.1	0.00e+00	0	24	0	640679936	70	5075
2026-01-09 06:28:51.74	17.04	25.98	-52.4	-54.9	14.3	0.00e+00	0	24	0	642777088	70	4956
2026-01-09 06:28:52.89	16.70	25.98	-52.5	-55.0	14.1	0.00e+00	0	24	0	644874240	70	5029
2026-01-09 06:28:53.74	16.44	25.98	-52.4	-54.8	14.3	0.00e+00	0	24	0	646971392	70	4915
2026-01-09 06:28:54.89	16.09	25.97	-52.3	-54.7	14.3	0.00e+00	0	24	0	649068544	70	4845
2026-01-09 06:28:55.74	15.84	25.97	-52.2	-54.6	14.4	0.00e+00	0	24	0	650117120	70	4771
2026-01-09 06:28:56.89	15.49	25.97	-51.9	-54.1	14.7	0.00e+00	0	24	0	652214272	70	4529
2026-01-09 06:28:57.74	15.24	25.96	-51.5	-53.7	14.8	0.00e+00	0	24	0	654311424	69	4561
2026-01-09 06:28:58.88	14.89	25.95	-51.3	-53.4	14.9	0.00e+00	0	24	0	656408576	69	4397
2026-01-09 06:28:59.74	14.63	25.95	-50.9	-52.8	15.0	0.00e+00	0	24	0	657457152	68	4389
2026-01-09 06:29:00.87	14.29	25.94	-50.8	-52.7	15.1	0.00e+00	0	24	0	659554304	68	4332
2026-01-09 06:29:01.73	14.03	25.93	-50.8	-52.6	15.2	0.00e+00	0	24	0	661651456	68	4274
2026-01-09 06:29:02.87	13.69	25.92	-51.0	-52.9	15.0	0.00e+00	0	24	0	663748608	68	4408
2026-01-09 06:29:03.73	13.43	25.91	-51.1	-53.1	15.0	0.00e+00	0	24	0	664797184	68	4505
2026-01-09 06:29:04.87	13.09	25.89	-51.0	-53.0	15.0	0.00e+00	0	24	0	666894336	68	4445
2026-01-09 06:29:05.73	12.83	25.88	-50.9	-52.8	15.0	0.00e+00	0	24	0	668991488	68	4380
2026-01-09 06:29:06.87	12.49	25.87	-50.8	-52.7	15.1	0.00e+00	0	24	0	671088640	68	4312
2026-01-09 06:29:07.72	12.24	25.85	-50.5	-52.3	15.1	0.00e+00	0	24	0	672137216	67	4344
2026-01-09 06:29:08.86	11.90	25.84	-50.5	-52.3	15.1	0.00e+00	0	24	0	675282944	67	4341
2026-01-09 06:29:09.71	11.64	25.82	-50.4	-52.2	15.2	0.00e+00	0	24	0	676331520	67	4302
2026-01-09 06:29:10.85	11.30	25.80	-50.2	-51.9	15.3	0.00e+00	0	24	0	678428672	67	4176
2026-01-09 06:29:11.71	11.05	25.79	-49.9	-51.5	15.3	0.00e+00	0	24	0	680525824	66	4210
2026-01-09 06:29:12.85	10.71	25.77	-49.9	-51.5	15.4	0.00e+00	0	24	0	682622976	66	4205
2026-01-09 06:29:13.70	10.45	25.75	-49.8	-51.4	15.4	0.00e+00	0	24	0	683671552	66	4188
2026-01-09 06:29:14.85	10.11	25.73	-49.9	-51.5	15.4	0.00e+00	0	24	0	685768704	66	4204
2026-01-09 06:29:15.71	9.86	25.71	-49.9	-51.4	15.4	0.00e+00	0	24	0	687865856	66	4187
2026-01-09 06:29:16.85	9.52	25.68	-49.8	-51.4	15.4	0.00e+00	0	24	0	689963008	66	4167
2026-01-09 06:29:17.69	9.27	25.66	-50.1	-51.7	15.3	0.00e+00	0	24	0	691011584	66	4312
2026-01-09 06:29:18.83	8.93	25.64	-50.2	-51.8	15.2	0.00e+00	0	24	0	693108736	66	4385
2026-01-09 06:29:19.69	8.68	25.62	-50.5	-52.2	15.0	0.00e+00	0	24	0	695205888	66	4574
2026-01-09 06:29:20.84	8.34	25.59	-50.5	-52.2	15.0	0.00e+00	0	24	0	697303040	66	4582
2026-01-09 06:29:21.69	8.09	25.57	-50.5	-52.3	14.9	0.00e+00	0	24	0	699400192	66	4618
2026-01-09 06:29:22.83	7.76	25.53	-50.5	-52.3	15.0	0.00e+00	0	24	0	701497344	66	4623
2026-01-09 06:29:23.69	7.50	25.51	-50.4	-52.1	15.0	0.00e+00	0	24	0	702545920	66	4544
2026-01-09 06:29:24.83	7.17	25.48	-50.6	-52.3	14.9	0.00e+00	0	24	0	704643072	66	4646
2026-01-09 06:29:25.69	6.92	25.45	-50.5	-52.2	15.0	0.00e+00	0	24	0	706740224	66	4579
2026-01-09 06:29:26.83	6.59	25.42	-50.5	-52.2	15.0	0.00e+00	0	24	0	708837376	66	4549
2026-01-09 06:29:27.68	6.34	25.39	-50.5	-52.1	15.0	0.00e+00	0	24	0	709885952	66	4542
2026-01-09 06:29:28.82	6.01	25.36	-50.7	-52.4	14.9	0.00e+00	0	24	0	711983104	66	4680
2026-01-09 06:29:29.68	5.76	25.33	-51.0	-52.8	14.9	0.00e+00	0	24	0	714080256	67	4637
2026-01-09 06:29:30.82	5.43	25.29	-51.0	-52.8	14.9	0.00e+00	0	24	0	716177408	67	4612
2026-01-09 06:29:31.67	5.19	25.26	-50.8	-52.6	15.0	0.00e+00	0	24	0	717225984	67	4511
2026-01-09 06:29:32.81	4.86	25.22	-50.7	-52.4	15.1	0.00e+00	0	24	0	719323136	67	4395
2026-01-09 06:29:33.67	4.61	25.19	-50.8	-52.5	15.0	0.00e+00	0	24	0	721420288	67	4482
2026-01-09 06:29:34.81	4.28	25.15	-51.1	-52.9	14.8	0.00e+00	0	24	0	723517440	67	4705
2026-01-09 06:29:35.67	4.04	25.12	-51.7	-53.7	14.7	0.00e+00	0	24	0	724566016	68	4828
2026-01-09 06:29:36.81	3.71	25.08	-51.7	-53.7	14.7	0.00e+00	0	24	0	727711744	68	4838
2026-01-09 06:29:37.66	3.47	25.04	-51.5	-53.4	14.8	0.00e+00	0	24	0	728760320	68	4694
2026-01-09 06:29:38.80	3.15	25.00	-51.3	-53.1	14.9	0.00e+00	0	24	0	730857472	68	4532
2026-01-09 06:29:39.64	2.91	24.97	-51.2	-53.1	14.9	0.00e+00	0	24	0	732954624	68	4507
2026-01-09 06:29:40.78	2.59	24.92	-51.3	-53.2	14.9	0.00e+00	0	24	0	735051776	68	4550
2026-01-09 06:29:41.64	2.35	24.89	-51.6	-53.5	14.7	0.00e+00	0	24	0	736100352	68	4746
2026-01-09 06:29:42.78	2.03	24.84	-51.4	-53.3	14.8	0.00e+00	0	24	0	738197504	68	4601
2026-01-09 06:29:43.64	1.79	24.80	-51.5	-53.4	14.8	0.00e+00	0	24	0	740294656	68	4669
2026-01-09 06:29:44.77	1.47	24.75	-51.6	-53.6	14.7	0.00e+00	0	24	0	742391808	68	4775
2026-01-09 06:29:45.62	1.23	24.72	-51.7	-53.8	14.6	0.00e+00	0	24	0	743440384	68	4881
2026-01-09 06:29:46.76	0.92	24.66	-51.9	-54.0	14.5	0.00e+00	0	24	0	745537536	68	5005
2026-01-09 06:29:47.61	0.68	24.63	-52.0	-54.2	14.5	0.00e+00	0	24	0	747634688	69	4837
2026-01-09 06:29:48.74	0.37	24.57	-52.0	-54.2	14.5	0.00e+00	0	24	0	749731840	69	4853
2026-01-09 06:29:49.59	0.13	24.54	-52.0	-54.2	14.5	0.00e+00	0	24	0	750780416	69	4865
2026-01-09 06:29:50.72	359.82	24.48	-52.2	-54.5	14.4	0.00e+00	0	24	0	752877568	69	4995
2026-01-09 06:29:51.57	359.59	24.44	-52.4	-54.8	14.2	0.00e+00	0	24	0	754974720	69	5184
2026-01-09 06:29:52.71	359.28	24.39	-52.4	-54.9	14.3	0.00e+00	0	24	0	757071872	70	4934
2026-01-09 06:29:53.56	359.05	24.35	-52.3	-54.6	14.5	0.00e+00	0	24	0	758120448	70	4789
2026-01-09 06:29:54.70	358.74	24.29	-52.1	-54.3	14.6	0.00e+00	0	24	0	761266176	70	4646
2026-01-09 06:29:55.55	358.51	24.25	-52.0	-54.1	14.7	0.00e+00	0	24	0	762314752	70	4545
2026-01-09 06:29:56.69	358.20	24.19	-52.0	-54.2	14.7	0.00e+00	0	24	0	764411904	70	4567
2026-01-09 06:29:57.53	357.98	24.15	-52.1	-54.4	14.6	0.00e+00	0	24	0	766509056	70	4675
2026-01-09 06:29:58.68	357.67	24.09	-52.1	-54.4	14.6	0.00e+00	0	24	0	768606208	70	4681
2026-01-09 06:29:59.53	357.44	24.04	-52.2	-54.5	14.5	0.00e+00	0	24	0	769654784	70	4746
2026-01-09 06:30:00.67	357.14	23.98	-52.4	-54.8	14.3	0.00e+00	0	24	0	771751936	70	4910
2026-01-09 06:30:01.54	356.91	23.93	-52.4	-54.7	14.3	0.00e+00	0	24	0	773849088	70	4858
2026-01-09 06:30:02.68	356.61	23.87	-52.2	-54.5	14.5	0.00e+00	0	24	0	775946240	70	4723
2026-01-09 06:30:03.53	356.38	23.83	-52.2	-54.6	14.5	0.00e+00	0	24	0	776994816	70	4765
2026-01-09 06:30:04.67	356.09	23.76	-52.2	-54.5	14.5	0.00e+00	0	24	0	779091968	70	4720
2026-01-09 06:30:05.53	355.86	23.72	-52.0	-54.3	14.6	0.00e+00	0	24	0	781189120	70	4633
2026-01-09 06:30:06.67	355.56	23.65	-51.8	-54.0	14.8	0.00e+00	0	24	0	783286272	70	4452
2026-01-09 06:30:07.53	355.34	23.60	-51.9	-54.0	14.8	0.00e+00	0	24	0	784334848	70	4484
2026-01-09 06:30:08.66	355.05	23.54	-51.9	-54.1	14.8	0.00e+00	0	24	0	786432000	70	4494
2026-01-09 06:30:09.52	354.83	23.49	-52.0	-54.3	14.6	0.00e+00	0	24	0	788529152	70	4633
2026-01-09 06:30:10.66	354.53	23.42	-51.9	-54.2	14.7	0.00e+00	0	24	0	790626304	70	4559
2026-01-09 06:30:11.51	354.32	23.37	-52.2	-54.6	14.4	0.00e+00	0	24	0	792723456	70	4784
2026-01-09 06:30:12.64	354.03	23.31	-52.5	-55.1	14.1	0.00e+00	0	24	0	794820608	70	5074
2026-01-09 06:30:13.50	353.81	23.25	-52.7	-55.4	14.0	0.00e+00	0	24	0	795869184	70	5242
2026-01-09 06:30:14.64	353.52	23.19	-52.6	-55.2	14.0	0.00e+00	0	24	0	797966336	70	5158
2026-01-09 06:30:15.50	353.31	23.13	-52.4	-54.8	14.3	0.00e+00	0	24	0	800063488	70	4926
2026-01-09 06:30:16.64	353.02	23.06	-52.0	-54.3	14.6	0.00e+00	0	24	0	802160640	70	4630
2026-01-09 06:30:17.49	352.81	23.01	-52.0	-54.4	14.5	0.00e+00	0	24	0	803209216	70	4656
2026-01-09 06:30:18.64	352.52	22.94	-52.1	-54.6	14.5	0.00e+00	0	24	0	805306368	70	4768
2026-01-09 06:30:19.50	352.31	22.89	-52.3	-54.7	14.4	0.00e+00	0	24	0	807403520	70	4849
2026-01-09 06:30:20.65	352.03	22.81	-52.4	-55.0	14.2	0.00e+00	0	24	0	809500672	70	5006
2026-01-09 06:30:21.50	351.82	22.76	-52.5	-55.0	14.2	0.00e+00	0	24	0	810549248	70	5033
2026-01-09 06:30:22.65	351.54	22.69	-52.8	-55.6	13.8	0.00e+00	0	24	0	813694976	70	5390
2026-01-09 06:30:23.50	351.33	22.63	-52.7	-55.5	13.9	0.00e+00	0	24	0	814743552	70	5327
2026-01-09 06:30:24.65	351.05	22.56	-52.6	-55.3	14.0	0.00e+00	0	24	0	816840704	70	5173
2026-01-09 06:30:25.50	350.84	22.50	-52.3	-54.9	14.3	0.00e+00	0	24	0	818937856	70	4949
2026-01-09 06:30:26.65	350.57	22.43	-52.1	-54.6	14.5	0.00e+00	0	24	0	821035008	70	4763
2026-01-09 06:30:27.50	350.36	22.37	-51.5	-53.7	14.8	0.00e+00	0	24	0	822083584	69	4575
2026-01-09 06:30:28.64	350.09	22.30	-51.1	-53.1	14.9	0.00e+00	0	24	0	824180736	68	4529
2026-01-09 06:30:29.50	349.89	22.24	-51.0	-53.0	15.0	0.00e+00	0	24	0	826277888	68	4482
2026-01-09 06:30:30.64	349.62	22.17	-51.1	-53.1	14.9	0.00e+00	0	24	0	828375040	68	4540
2026-01-09 06:30:31.49	349.42	22.11	-51.2	-53.2	14.9	0.00e+00	0	24	0	829423616	68	4587
2026-01-09 06:30:32.64	349.15	22.03	-51.5	-53.7	14.6	0.00e+00	0	24	0	831520768	68	4819
2026-01-09 06:30:33.49	348.95	21.97	-51.8	-54.1	14.4	0.00e+00	0	24	0	833617920	68	5062
2026-01-09 06:30:34.63	348.69	21.90	-52.0	-54.4	14.3	0.00e+00	0	24	0	835715072	69	4971
2026-01-09 06:30:35.49	348.49	21.84	-52.0	-54.4	14.4	0.00e+00	0	24	0	836763648	69	4963
2026-01-09 06:30:36.62	348.23	21.76	-51.9	-54.3	14.4	0.00e+00	0	24	0	838860800	69	4875
2026-01-09 06:30:37.48	348.03	21.70	-51.8	-54.1	14.5	0.00e+00	0	24	0	840957952	69	4782
2026-01-09 06:30:38.62	347.77	21.62	-51.4	-53.5	14.9	0.00e+00	0	24	0	843055104	69	4484
2026-01-09 06:30:39.48	347.57	21.56	-51.0	-53.0	15.0	0.00e+00	0	24	0	845152256	68	4478
2026-01-09 06:30:40.61	347.32	21.48	-50.5	-52.3	15.1	0.00e+00	0	24	0	847249408	67	4374
2026-01-09 06:30:41.46	347.13	21.42	-50.3	-52.1	15.2	0.00e+00	0	24	0	848297984	67	4259
2026-01-09 06:30:42.60	346.87	21.34	-50.1	-51.9	15.1	0.00e+00	0	24	0	850395136	66	4419
2026-01-09 06:30:43.46	346.68	21.28	-50.0	-51.7	15.2	0.00e+00	0	24	0	852492288	66	4326
2026-01-09 06:30:44.60	346.42	21.20	-50.0	-51.8	15.2	0.00e+00	0	24	0	854589440	66	4370
2026-01-09 06:30:45.45	346.24	21.14	-50.0	-51.8	15.2	0.00e+00	0	24	0	855638016	66	4372
2026-01-09 06:30:46.59	345.99	21.06	-50.4	-52.3	15.0	0.00e+00	0	24	0	857735168	66	4602
2026-01-09 06:30:47.44	345.80	21.00	-50.5	-52.4	14.9	0.00e+00	0	24	0	859832320	66	4674
2026-01-09 06:30:48.58	345.55	20.92	-50.4	-52.3	14.8	0.00e+00	0	24	0	861929472	66	4632
2026-01-09 06:30:49.44	345.36	20.86	-50.5	-52.4	14.9	0.00e+00	0	24	0	862978048	66	4661
2026-01-09 06:30:50.59	345.12	20.77	-50.6	-52.6	14.8	0.00e+00	0	24	0	865075200	66	4768
2026-01-09 06:30:51.45	344.93	20.71	-50.6	-52.6	14.8	0.00e+00	0	24	0	867172352	66	4761
2026-01-09 06:30:52.59	344.69	20.63	-50.7	-52.7	14.8	0.00e+00	0	24	0	869269504	66	4849
2026-01-09 06:30:53.44	344.51	20.57	-50.6	-52.6	14.8	0.00e+00	0	24	0	871366656	66	4770
2026-01-09 06:30:54.58	344.27	20.48	-50.7	-52.8	14.7	0.00e+00	0	24	0	873463808	66	4881
2026-01-09 06:30:55.44	344.08	20.42	-50.8	-52.9	14.6	0.00e+00	0	24	0	874512384	66	4959
2026-01-09 06:30:56.57	343.85	20.34	-50.9	-53.0	14.6	0.00e+00	0	24	0	876609536	66	4987
2026-01-09 06:30:57.43	343.67	20.27	-50.9	-53.0	14.6	0.00e+00	0	24	0	878706688	66	5025
2026-01-09 06:30:58.58	343.43	20.19	-51.0	-53.1	14.7	0.00e+00	0	24	0	880803840	67	4794
2026-01-09 06:30:59.43	343.25	20.12	-50.9	-53.0	14.7	0.00e+00	0	24	0	881852416	67	4759
2026-01-09 06:31:00.57	343.02	20.04	-50.9	-53.0	14.7	0.00e+00	0	24	0	883949568	67	4739
2026-01-09 06:31:01.42	342.84	19.98	-50.9	-52.9	14.8	0.00e+00	0	24	0	886046720	67	4705
2026-01-09 06:31:02.57	342.61	19.89	-50.7	-52.7	14.9	0.00e+00	0	24	0	888143872	67	4573
2026-01-09 06:31:03.43	342.44	19.83	-50.8	-52.8	14.8	0.00e+00	0	24	0	889192448	67	4645
2026-01-09 06:31:04.58	342.20	19.74	-51.0	-53.2	14.7	0.00e+00	0	24	0	891289600	67	4819
2026-01-09 06:31:05.43	342.03	19.68	-51.3	-53.5	14.5	0.00e+00	0	24	0	893386752	67	4998
2026-01-09 06:31:06.57	341.80	19.59	-51.3	-53.5	14.5	0.00e+00	0	24	0	895483904	67	5040
2026-01-09 06:31:07.43	341.63	19.53	-51.3	-53.5	14.5	0.00e+00	0	24	0	897581056	67	5003
2026-01-09 06:31:08.57	341.41	19.44	-50.7	-52.7	14.9	0.00e+00	0	24	0	899678208	67	4561
2026-01-09 06:31:09.43	341.24	19.37	-50.6	-52.6	15.0	0.00e+00	0	24	0	900726784	67	4505
2026-01-09 06:31:10.57	341.02	19.29	-50.5	-52.4	15.1	0.00e+00	0	24	0	902823936	67	4431
2026-01-09 06:31:11.43	340.85	19.22	-50.5	-52.4	15.1	0.00e+00	0	24	0	904921088	67	4438
2026-01-09 06:31:12.56	340.63	19.14	-50.7	-52.7	14.9	0.00e+00	0	24	0	907018240	67	4576
2026-01-09 06:31:13.42	340.46	19.07	-51.0	-53.1	14.7	0.00e+00	0	24	0	908066816	67	4771
2026-01-09 06:31:14.56	340.24	18.98	-51.0	-53.0	14.8	0.00e+00	0	24	0	910163968	67	4740
2026-01-09 06:31:15.42	340.08	18.92	-50.9	-52.9	14.8	0.00e+00	0	24	0	912261120	67	4668
2026-01-09 06:31:16.56	339.86	18.83	-50.7	-52.6	14.9	0.00e+00	0	24	0	914358272	67	4531
2026-01-09 06:31:17.42	339.70	18.77	-50.6	-52.5	15.0	0.00e+00	0	24	0	915406848	67	4473
2026-01-09 06:31:18.56	339.49	18.68	-50.4	-52.3	15.1	0.00e+00	0	24	0	917504000	67	4343
2026-01-09 06:31:19.41	339.33	18.61	-50.4	-52.2	15.2	0.00e+00	0	24	0	919601152	67	4314
2026-01-09 06:31:20.55	339.12	18.53	-50.1	-51.8	15.2	0.00e+00	0	24	0	921698304	66	4391
2026-01-09 06:31:21.41	338.96	18.46	-50.2	-52.0	15.1	0.00e+00	0	24	0	923795456	66	4446
2026-01-09 06:31:22.55	338.75	18.37	-50.2	-51.9	15.1	0.00e+00	0	24	0	925892608	66	4421
2026-01-09 06:31:23.41	338.59	18.31	-50.3	-52.1	15.0	0.00e+00	0	24	0	926941184	66	4530
2026-01-09 06:31:24.56	338.38	18.22	-50.4	-52.2	15.0	0.00e+00	0	24	0	929038336	66	4550
2026-01-09 06:31:25.42	338.22	18.15	-50.4	-52.1	15.0	0.00e+00	0	24	0	931135488	66	4536
2026-01-09 06:31:26.55	338.02	18.06	-50.7	-52.5	14.8	0.00e+00	0	24	0	933232640	66	4758
2026-01-09 06:31:27.41	337.87	18.00	-50.7	-52.6	14.8	0.00e+00	0	24	0	934281216	66	4800
2026-01-09 06:31:28.54	337.66	17.91	-50.9	-52.8	14.7	0.00e+00	0	24	0	936378368	66	4906
2026-01-09 06:31:29.40	337.51	17.84	-50.6	-52.5	14.8	0.00e+00	0	24	0	938475520	66	4747
2026-01-09 06:31:30.55	337.31	17.76	-50.6	-52.4	14.9	0.00e+00	0	24	0	940572672	66	4689
2026-01-09 06:31:31.40	337.16	17.69	-50.4	-52.1	15.0	0.00e+00	0	24	0	941621248	66	4544
2026-01-09 06:31:32.54	336.96	17.60	-50.4	-52.1	15.0	0.00e+00	0	24	0	944766976	66	4544
2026-01-09 06:31:33.40	336.81	17.54	-50.3	-52.1	15.0	0.00e+00	0	24	0	945815552	66	4517
2026-01-09 06:31:34.54	336.61	17.45	-50.2	-51.9	15.1	0.00e+00	0	24	0	947912704	66	4428
2026-01-09 06:31:35.39	336.46	17.38	-50.3	-52.0	15.1	0.00e+00	0	24	0	950009856	66	4479
2026-01-09 06:31:36.53	336.27	17.29	-50.4	-52.2	15.0	0.00e+00	0	24	0	952107008	66	4564
2026-01-09 06:31:37.38	336.12	17.23	-50.6	-52.4	14.9	0.00e+00	0	24	0	953155584	66	4691
2026-01-09 06:31:38.52	335.93	17.14	-50.6	-52.4	14.9	0.00e+00	0	24	0	955252736	66	4675
2026-01-09 06:31:39.37	335.79	17.07	-50.6	-52.4	14.9	0.00e+00	0	24	0	957349888	66	4698
2026-01-09 06:31:40.51	335.60	16.98	-50.8	-52.6	14.8	0.00e+00	0	24	0	959447040	66	4796
2026-01-09 06:31:41.37	335.45	16.92	-50.8	-52.6	14.8	0.00e+00	0	24	0	960495616	66	4797
2026-01-09 06:31:42.51	335.26	16.83	-50.8	-52.7	14.8	0.00e+00	0	24	0	962592768	66	4832
2026-01-09 06:31:43.36	335.12	16.76	-50.8	-52.6	14.8	0.00e+00	0	24	0	964689920	66	4789
2026-01-09 06:31:44.50	334.94	16.67	-50.6	-52.4	14.9	0.00e+00	0	24	0	966787072	66	4705
2026-01-09 06:31:45.34	334.80	16.61	-50.5	-52.3	14.9	0.00e+00	0	24	0	967835648	66	4614
2026-01-09 06:31:46.48	334.61	16.52	-50.6	-52.4	14.9	0.00e+00	0	24	0	969932800	66	4693
2026-01-09 06:31:47.34	334.47	16.45	-50.1	-51.8	15.2	0.00e+00	0	24	0	972029952	66	4367
2026-01-09 06:31:48.48	334.29	16.37	-50.0	-51.6	15.2	0.00e+00	0	24	0	974127104	66	4288
2026-01-09 06:31:49.33	334.15	16.30	-50.0	-51.6	15.2	0.00e+00	0	24	0	976224256	66	4270
2026-01-09 06:31:50.47	333.97	16.21	-50.1	-51.8	15.1	0.00e+00	0	24	0	978321408	66	4356
2026-01-09 06:31:51.34	333.84	16.14	-50.3	-52.0	15.0	0.00e+00	0	24	0	979369984	66	4489
2026-01-09 06:31:52.48	333.66	16.06	-50.6	-52.5	14.8	0.00e+00	0	24	0	981467136	66	4722
2026-01-09 06:31:53.33	333.52	15.99	-51.0	-52.9	14.8	0.00e+00	0	24	0	983564288	67	4670
2026-01-09 06:31:54.48	333.34	15.90	-51.1	-53.1	14.7	0.00e+00	0	24	0	985661440	67	4809
2026-01-09 06:31:55.33	333.21	15.84	-51.2	-53.2	14.6	0.00e+00	0	24	0	986710016	67	4848
2026-01-09 06:31:56.47	333.04	15.75	-51.0	-53.0	14.7	0.00e+00	0	24	0	988807168	67	4712
2026-01-09 06:31:57.31	332.91	15.68	-51.0	-52.9	14.8	0.00e+00	0	24	0	990904320	67	4687
2026-01-09 06:31:58.44	332.73	15.59	-50.8	-52.7	14.9	0.00e+00	0	24	0	993001472	67	4564
2026-01-09 06:31:59.29	332.61	15.53	-50.8	-52.6	14.9	0.00e+00	0	24	0	994050048	67	4518
2026-01-09 06:32:00.44	332.43	15.44	-50.7	-52.5	15.0	0.00e+00	0	24	0	996147200	67	4461
2026-01-09 06:32:01.29	332.30	15.37	-50.5	-52.3	15.1	0.00e+00	0	24	0	998244352	67	4344
2026-01-09 06:32:02.43	332.13	15.29	-50.5	-52.3	15.1	0.00e+00	0	24	0	1000341504	67	4359
2026-01-09 06:32:03.29	332.01	15.22	-50.5	-52.3	15.0	0.00e+00	0	24	0	1001390080	67	4380
2026-01-09 06:32:04.44	331.84	15.13	-50.6	-52.4	15.0	0.00e+00	0	24	0	1004535808	67	4439
2026-01-09 06:32:05.30	331.71	15.07	-50.4	-52.2	15.1	0.00e+00	0	24	0	1005584384	67	4319
2026-01-09 06:32:06.44	331.54	14.98	-50.6	-52.4	15.0	0.00e+00	0	24	0	1007681536	67	4404
2026-01-09 06:32:07.30	331.42	14.91	-50.8	-52.6	14.9	0.00e+00	0	24	0	1009778688	67	4517
2026-01-09 06:32:08.44	331.25	14.82	-50.9	-52.8	14.8	0.00e+00	0	24	0	1011875840	67	4639
2026-01-09 06:32:09.30	331.13	14.76	-51.1	-53.0	14.7	0.00e+00	0	24	0	1012924416	67	4756
2026-01-09 06:32:10.44	330.96	14.67	-51.6	-53.7	14.5	0.00e+00	0	24	0	1015021568	68	4846
2026-01-09 06:32:11.29	330.84	14.61	-51.9	-54.1	14.3	0.00e+00	0	24	0	1017118720	68	5046
2026-01-09 06:32:12.44	330.68	14.52	-51.9	-54.0	14.4	0.00e+00	0	24	0	1019215872	68	5037
2026-01-09 06:32:13.29	330.56	14.45	-52.3	-54.5	14.3	0.00e+00	0	24	0	1020264448	69	5035
2026-01-09 06:32:14.44	330.40	14.36	-52.1	-54.4	14.3	0.00e+00	0	24	0	1022361600	69	4937
2026-01-09 06:32:15.30	330.28	14.30	-51.9	-54.1	14.5	0.00e+00	0	24	0	1024458752	69	4763
2026-01-09 06:32:16.43	330.12	14.21	-51.6	-53.6	14.7	0.00e+00	0	24	0	1026555904	69	4544
2026-01-09 06:32:17.29	330.00	14.15	-51.4	-53.3	14.9	0.00e+00	0	24	0	1028653056	69	4389
2026-01-09 06:32:18.43	329.85	14.06	-51.2	-53.1	14.9	0.00e+00	0	24	0	1030750208	68	4496
2026-01-09 06:32:19.28	329.73	14.00	-51.1	-53.0	14.9	0.00e+00	0	24	0	1031798784	68	4465
2026-01-09 06:32:20.42	329.57	13.91	-51.0	-52.8	15.0	0.00e+00	0	24	0	1033895936	68	4376
2026-01-09 06:32:21.28	329.46	13.84	-50.9	-52.7	15.1	0.00e+00	0	24	0	1035993088	68	4340
2026-01-09 06:32:22.42	329.31	13.76	-51.2	-53.0	14.9	0.00e+00	0	24	0	1038090240	68	4488
2026-01-09 06:32:23.28	329.19	13.69	-51.2	-53.1	14.8	0.00e+00	0	24	0	1039138816	68	4518
2026-01-09 06:32:24.41	329.04	13.61	-51.1	-52.9	14.9	0.00e+00	0	24	0	1041235968	68	4432
2026-01-09 06:32:25.27	328.93	13.54	-51.2	-53.2	14.8	0.00e+00	0	24	0	1043333120	68	4552
2026-01-09 06:32:26.41	328.78	13.46	-51.4	-53.4	14.8	0.00e+00	0	24	0	1045430272	68	4657
2026-01-09 06:32:27.26	328.66	13.39	-51.3	-53.2	14.8	0.00e+00	0	24	0	1046478848	68	4580
2026-01-09 06:32:28.40	328.52	13.31	-51.2	-53.1	14.9	0.00e+00	0	24	0	1048576000	68	4522
2026-01-09 06:32:29.26	328.40	13.24	-51.3	-53.3	14.8	0.00e+00	0	24	0	1050673152	68	4605
2026-01-09 06:32:30.40	328.26	13.15	-51.2	-53.1	14.9	0.00e+00	0	24	0	1052770304	68	4494
2026-01-09 06:32:31.26	328.15	13.09	-51.1	-53.0	14.9	0.00e+00	0	24	0	1053818880	68	4467
2026-01-09 06:32:32.40	328.00	13.00	-51.1	-53.0	14.9	0.00e+00	0	24	0	1056964608	68	4454
2026-01-09 06:32:33.25	327.89	12.94	-51.3	-53.2	14.8	0.00e+00	0	24	0	1058013184	68	4576
2026-01-09 06:32:34.40	327.75	12.85	-51.4	-53.4	14.7	0.00e+00	0	24	0	1060110336	68	4675
2026-01-09 06:32:35.26	327.64	12.79	-51.4	-53.4	14.6	0.00e+00	0	24	0	1062207488	68	4702
2026-01-09 06:32:36.40	327.50	12.71	-51.6	-53.7	14.5	0.00e+00	0	24	0	1064304640	68	4860
2026-01-09 06:32:37.25	327.39	12.64	-51.5	-53.6	14.6	0.00e+00	0	24	0	1065353216	68	4785
2026-01-09 06:32:38.39	327.25	12.56	-51.6	-53.7	14.6	0.00e+00	0	24	0	1067450368	68	4819
2026-01-09 06:32:39.24	327.14	12.49	-51.7	-53.8	14.5	0.00e+00	0	24	0	1069547520	68	4890
2026-01-09 06:32:40.38	327.00	12.41	-51.7	-53.9	14.4	0.00e+00	0	24	0	1071644672	68	4941
2026-01-09 06:32:41.23	326.90	12.35	-51.8	-54.0	14.4	0.00e+00	0	24	0	1072693248	68	5006
2026-01-09 06:32:42.36	326.76	12.26	-51.9	-54.1	14.4	0.00e+00	0	24	0	1074790400	69	4805
2026-01-09 06:32:43.21	326.66	12.20	-52.0	-54.3	14.4	0.00e+00	0	24	0	1076887552	69	4880
2026-01-09 06:32:44.36	326.52	12.11	-52.1	-54.4	14.3	0.00e+00	0	24	0	1078984704	69	4947
2026-01-09 06:32:45.22	326.42	12.05	-52.2	-54.5	14.2	0.00e+00	0	24	0	1080033280	69	5008
2026-01-09 06:32:46.35	326.29	11.97	-52.1	-54.4	14.3	0.00e+00	0	24	0	1082130432	69	4971
2026-01-09 06:32:47.20	326.19	11.90	-52.2	-54.6	14.1	0.00e+00	0	24	0	1084227584	69	5082
2026-01-09 06:32:48.35	326.05	11.82	-52.4	-54.8	14.2	0.00e+00	0	24	0	1086324736	70	4909
2026-01-09 06:32:49.20	325.95	11.76	-52.4	-54.9	14.2	0.00e+00	0	24	0	1088421888	70	4929
2026-01-09 06:32:50.34	325.82	11.67	-52.4	-54.7	14.3	0.00e+00	0	24	0	1090519040	70	4854
2026-01-09 06:32:51.20	325.72	11.61	-52.2	-54.5	14.4	0.00e+00	0	24	0	1091567616	70	4723
2026-01-09 06:32:52.33	325.59	11.53	-52.2	-54.5	14.4	0.00e+00	0	24	0	1093664768	70	4707
2026-01-09 06:32:53.19	325.49	11.47	-52.0	-54.2	14.6	0.00e+00	0	24	0	1095761920	70	4565
2026-01-09 06:32:54.33	325.36	11.38	-52.0	-54.1	14.6	0.00e+00	0	24	0	1097859072	70	4528
2026-01-09 06:32:55.18	325.26	11.32	-51.8	-54.0	14.7	0.00e+00	0	24	0	1098907648	70	4447
2026-01-09 06:32:56.32	325.14	11.24	-51.7	-53.8	14.8	0.00e+00	0	24	0	1101004800	70	4366
2026-01-09 06:32:57.18	325.04	11.18	-51.9	-54.0	14.7	0.00e+00	0	24	0	1103101952	70	4480
2026-01-09 06:32:58.33	324.91	11.09	-52.0	-54.1	14.6	0.00e+00	0	24	0	1105199104	70	4536
2026-01-09 06:32:59.18	324.82	11.03	-52.2	-54.4	14.4	0.00e+00	0	24	0	1106247680	70	4660
2026-01-09 06:33:00.32	324.69	10.95	-52.2	-54.4	14.4	0.00e+00	0	24	0	1108344832	70	4690
2026-01-09 06:33:01.18	324.59	10.89	-52.4	-54.6	14.3	0.00e+00	0	24	0	1110441984	70	4809
2026-01-09 06:33:02.32	324.47	10.80	-52.6	-55.0	14.1	0.00e+00	0	24	0	1112539136	70	5008
2026-01-09 06:33:03.18	324.38	10.74	-52.6	-55.1	14.0	0.00e+00	0	24	0	1114636288	70	5067
2026-01-09 06:33:04.32	324.25	10.66	-53.0	-55.6	13.9	0.00e+00	0	24	0	1116733440	71	5049
2026-01-09 06:33:05.18	324.16	10.60	-52.8	-55.4	14.0	0.00e+00	0	24	0	1117782016	71	4952
2026-01-09 06:33:06.32	324.04	10.52	-52.8	-55.3	14.0	0.00e+00	0	24	0	1119879168	71	4901
2026-01-09 06:33:07.17	323.95	10.46	-52.8	-55.3	14.1	0.00e+00	0	24	0	1121976320	71	4876
2026-01-09 06:33:08.31	323.83	10.37	-52.7	-55.1	14.1	0.00e+00	0	24	0	1124073472	71	4801
2026-01-09 06:33:09.17	323.74	10.31	-52.6	-55.0	14.2	0.00e+00	0	24	0	1125122048	71	4733
2026-01-09 06:33:10.31	323.62	10.23	-52.4	-54.7	14.4	0.00e+00	0	24	0	1127219200	71	4554
2026-01-09 06:33:11.16	323.53	10.17	-52.4	-54.8	14.4	0.00e+00	0	24	0	1129316352	71	4603
2026-01-09 06:33:12.30	323.41	10.09	-52.1	-54.3	14.5	0.00e+00	0	24	0	1131413504	70	4607
2026-01-09 06:33:13.15	323.32	10.03	-52.2	-54.4	14.4	0.00e+00	0	24	0	1132462080	70	4701
2026-01-09 06:33:14.29	323.20	9.95	-52.1	-54.3	14.5	0.00e+00	0	24	0	1134559232	70	4634
2026-01-09 06:33:15.15	323.11	9.89	-52.2	-54.4	14.4	0.00e+00	0	24	0	1136656384	70	4678
2026-01-09 06:33:16.29	323.00	9.81	-52.1	-54.4	14.4	0.00e+00	0	24	0	1138753536	70	4663
2026-01-09 06:33:17.14	322.91	9.75	-52.2	-54.5	14.4	0.00e+00	0	24	0	1140850688	70	4719
2026-01-09 06:33:18.29	322.79	9.67	-52.3	-54.6	14.3	0.00e+00	0	24	0	1142947840	70	4771
2026-01-09 06:33:19.15	322.71	9.61	-52.3	-54.7	14.3	0.00e+00	0	24	0	1143996416	70	4819
2026-01-09 06:33:20.30	322.59	9.53	-52.6	-55.1	14.0	0.00e+00	0	24	0	1146093568	70	5069
2026-01-09 06:33:21.15	322.51	9.47	-52.5	-55.0	14.0	0.00e+00	0	24	0	1148190720	70	5016
2026-01-09 06:33:22.29	322.40	9.39	-52.8	-55.4	13.8	0.00e+00	0	24	0	1150287872	70	5248
2026-01-09 06:33:23.15	322.31	9.33	-53.0	-55.7	13.8	0.00e+00	0	24	0	1151336448	71	5140
2026-01-09 06:33:24.29	322.20	9.25	-53.0	-55.8	13.7	0.00e+00	0	24	0	1153433600	71	5161
2026-01-09 06:33:25.14	322.12	9.19	-53.1	-55.8	13.7	0.00e+00	0	24	0	1155530752	71	5162
2026-01-09 06:33:26.28	322.01	9.11	-53.1	-55.9	13.6	0.00e+00	0	24	0	1157627904	71	5265
2026-01-09 06:33:27.14	321.92	9.05	-53.3	-56.1	13.5	0.00e+00	0	24	0	1158676480	71	5401
2026-01-09 06:33:28.27	321.81	8.97	-53.4	-56.4	13.4	0.00e+00	0	24	0	1160773632	72	5230
2026-01-09 06:33:29.12	321.73	8.91	-53.4	-56.2	13.5	0.00e+00	0	24	0	1162870784	72	5156
2026-01-09 06:33:30.27	321.62	8.83	-53.3	-56.2	13.5	0.00e+00	0	24	0	1164967936	72	5135
2026-01-09 06:33:31.13	321.54	8.77	-53.3	-56.1	13.6	0.00e+00	0	24	0	1166016512	72	5090
2026-01-09 06:33:32.27	321.43	8.70	-53.3	-56.1	13.6	0.00e+00	0	24	0	1169162240	72	5098
2026-01-09 06:33:33.12	321.35	8.64	-53.5	-56.4	13.4	0.00e+00	0	24	0	1170210816	72	5232
2026-01-09 06:33:34.27	321.25	8.56	-53.3	-56.2	13.5	0.00e+00	0	24	0	1172307968	72	5136
2026-01-09 06:33:35.12	321.17	8.50	-53.3	-56.1	13.6	0.00e+00	0	24	0	1174405120	72	5075
2026-01-09 06:33:36.27	321.06	8.42	-53.2	-56.0	13.7	0.00e+00	0	24	0	1176502272	72	4994
2026-01-09 06:33:37.12	320.98	8.36	-53.3	-56.1	13.6	0.00e+00	0	24	0	1177550848	72	5065
2026-01-09 06:33:38.26	320.88	8.29	-53.3	-56.1	13.6	0.00e+00	0	24	0	1179648000	72	5053
2026-01-09 06:33:39.11	320.80	8.23	-53.4	-56.3	13.5	0.00e+00	0	24	0	1181745152	72	5161
2026-01-09 06:33:40.24	320.70	8.15	-53.4	-56.2	13.5	0.00e+00	0	24	0	1183842304	72	5131
2026-01-09 06:33:41.09	320.62	8.09	-53.3	-56.0	13.6	0.00e+00	0	24	0	1184890880	72	5031
2026-01-09 06:33:42.23	320.52	8.02	-53.4	-56.2	13.5	0.00e+00	0	24	0	1186988032	72	5149
2026-01-09 06:33:43.08	320.44	7.96	-53.4	-56.4	13.4	0.00e+00	0	24	0	1189085184	72	5220
2026-01-09 06:33:44.23	320.34	7.88	-53.3	-56.2	13.5	0.00e+00	0	24	0	1191182336	72	5131
2026-01-09 06:33:45.08	320.27	7.82	-53.6	-56.6	13.3	0.00e+00	0	24	0	1193279488	72	5386
2026-01-09 06:33:46.22	320.17	7.75	-53.6	-56.7	13.2	0.00e+00	0	24	0	1194328064	72	5452
2026-01-09 06:33:47.07	320.09	7.69	-53.6	-56.7	13.2	0.00e+00	0	24	0	1196425216	72	5407
2026-01-09 06:33:48.20	319.99	7.62	-53.8	-57.1	13.0	0.00e+00	0	24	0	1198522368	72	5686
2026-01-09 06:33:49.06	319.92	7.56	-53.7	-56.8	13.2	0.00e+00	0	24	0	1200619520	73	5214
2026-01-09 06:33:50.20	319.82	7.48	-53.9	-57.1	13.0	0.00e+00	0	24	0	1202716672	73	5395
2026-01-09 06:33:51.05	319.75	7.43	-54.0	-57.4	12.8	0.00e+00	0	24	0	1203765248	73	5552
2026-01-09 06:33:52.18	319.65	7.35	-54.1	-57.6	12.7	0.00e+00	0	24	0	1205862400	73	5680
2026-01-09 06:33:53.03	319.58	7.29	-54.0	-57.3	12.9	0.00e+00	0	24	0	1207959552	73	5520
2026-01-09 06:33:54.17	319.48	7.22	-53.9	-57.3	12.9	0.00e+00	0	24	0	1210056704	73	5478
2026-01-09 06:33:55.03	319.41	7.16	-53.9	-57.1	13.0	0.00e+00	0	24	0	1211105280	73	5402
