passes_logs/2026/01/09/R3.2S_Murmansk/R3.2S_Murmansk__20260109_054408_FENGYUN_3D_rec.log

#Pass ID: 20260109_054408_FENGYUN 3D
#Satellite: FENGYUN 3D
#Configuration: FENGYUN 3D
#almurnet v.1.7.20251203
#Start time: 2026-01-09 05:44:07

#Version: 2.2.20231116
#Station: R3.2S_Murmansk
#Location: 33.079688 lon 68.888172 lat
#TLE: 1 43010U 17072A   26008.59015185 -.00000067  00000+0 -98204-5 0  9997
#TLE: 2 43010  98.9935 340.3069 0002117 119.1923 240.9464 14.19693468422340

#Time	Az	El	Level	Level2	SNR	BER	BlckErr	Temp	State	Recorded	gain1	gain2
2026-01-09 05:44:07.80	44.40	1.99	-57.2	-70.2	3.8	8.46e-01	0	22	0	0	80	16176
2026-01-09 05:44:08.80	44.35	2.04	-57.1	-70.1	3.8	8.46e-01	0	22	104	0	79	16902
2026-01-09 05:44:09.82	44.29	2.10	-57.1	-70.1	3.8	8.45e-01	0	22	104	0	79	17011
2026-01-09 05:44:10.82	44.23	2.16	-57.1	-70.1	3.8	8.47e-01	0	22	104	0	79	16983
2026-01-09 05:44:11.83	44.18	2.22	-57.1	-70.1	3.8	8.45e-01	0	22	104	0	79	17013
2026-01-09 05:44:12.84	44.12	2.28	-57.1	-70.2	3.8	8.46e-01	0	22	104	0	79	17104
2026-01-09 05:44:13.85	44.07	2.34	-57.1	-70.1	3.8	8.46e-01	0	22	104	0	79	17055
2026-01-09 05:44:14.86	44.01	2.40	-57.1	-70.2	3.8	8.46e-01	0	22	104	0	79	17085
2026-01-09 05:44:15.87	43.95	2.46	-57.1	-70.1	3.8	8.46e-01	0	22	104	0	79	17015
2026-01-09 05:44:16.88	43.90	2.52	-57.1	-70.1	3.8	8.45e-01	0	22	104	0	79	17039
2026-01-09 05:44:17.89	43.84	2.58	-57.1	-70.1	3.8	8.45e-01	0	22	104	0	79	16986
2026-01-09 05:44:18.90	43.78	2.64	-57.2	-70.1	3.8	8.45e-01	0	22	104	0	79	17048
2026-01-09 05:44:19.91	43.72	2.70	-57.2	-70.1	3.8	8.46e-01	0	22	104	0	79	17063
2026-01-09 05:44:20.91	43.67	2.76	-57.2	-70.1	3.8	8.46e-01	0	22	104	0	79	17076
2026-01-09 05:44:21.93	43.61	2.82	-57.2	-70.2	3.8	8.45e-01	0	22	104	0	79	17088
2026-01-09 05:44:22.93	43.55	2.88	-57.2	-70.1	3.8	8.45e-01	0	22	104	0	79	17051
2026-01-09 05:44:23.94	43.49	2.94	-57.2	-70.2	3.8	8.46e-01	0	22	104	0	79	17096
2026-01-09 05:44:24.95	43.43	3.00	-57.1	-70.2	3.8	8.45e-01	0	22	104	0	79	17136
2026-01-09 05:44:25.96	43.37	3.06	-57.1	-70.2	3.8	8.46e-01	0	22	104	0	79	17090
2026-01-09 05:44:26.97	43.31	3.13	-57.2	-70.1	3.8	8.46e-01	0	22	104	0	79	17001
2026-01-09 05:44:27.97	43.25	3.19	-57.2	-70.1	3.8	8.46e-01	0	22	104	0	79	16891
2026-01-09 05:44:28.99	43.19	3.25	-57.1	-70.0	3.8	8.47e-01	0	22	104	0	79	16738
2026-01-09 05:44:29.99	43.13	3.31	-57.1	-70.0	3.8	8.46e-01	0	22	104	0	79	16762
2026-01-09 05:44:31.00	43.07	3.37	-57.1	-69.9	3.8	8.46e-01	0	22	104	0	79	16681
2026-01-09 05:44:32.01	43.01	3.43	-57.1	-70.0	3.8	8.45e-01	0	22	104	0	79	16769
2026-01-09 05:44:33.02	42.95	3.49	-57.1	-70.1	3.8	8.47e-01	0	22	104	0	79	17040
2026-01-09 05:44:34.02	42.89	3.55	-57.2	-70.1	3.8	8.45e-01	0	22	104	0	79	17023
2026-01-09 05:44:35.03	42.83	3.62	-57.1	-70.1	3.8	8.46e-01	0	22	104	0	79	17041
2026-01-09 05:44:36.04	42.76	3.68	-57.2	-70.2	3.8	8.46e-01	0	22	104	0	79	17086
2026-01-09 05:44:37.06	42.70	3.74	-57.1	-70.1	3.8	8.45e-01	0	22	104	0	79	16979
2026-01-09 05:44:38.07	42.64	3.80	-57.1	-70.1	3.8	8.46e-01	0	22	104	0	79	16941
2026-01-09 05:44:39.07	42.58	3.86	-57.1	-70.0	3.8	8.46e-01	0	22	104	0	79	16788
2026-01-09 05:44:40.08	42.51	3.93	-57.1	-70.0	3.8	8.46e-01	0	22	104	0	79	16698
2026-01-09 05:44:41.09	42.45	3.99	-57.1	-70.0	3.8	8.46e-01	0	22	104	0	79	16784
2026-01-09 05:44:42.10	42.39	4.05	-57.1	-70.1	3.8	8.46e-01	0	22	104	0	79	17006
2026-01-09 05:44:43.11	42.32	4.11	-57.2	-70.2	3.8	8.46e-01	0	23	104	0	79	17111
2026-01-09 05:44:44.12	42.26	4.18	-57.2	-70.1	3.8	8.46e-01	0	22	104	0	79	17052
2026-01-09 05:44:45.13	42.19	4.24	-57.1	-70.0	3.8	8.46e-01	0	22	104	0	79	16715
2026-01-09 05:44:46.13	42.13	4.30	-57.1	-69.3	3.8	8.46e-01	0	22	104	0	79	15522
2026-01-09 05:44:47.14	42.06	4.37	-57.0	-68.5	3.8	8.45e-01	0	23	104	0	79	14120
2026-01-09 05:44:48.15	42.00	4.43	-56.9	-67.5	3.9	8.44e-01	0	23	104	0	79	12636
2026-01-09 05:44:49.16	41.93	4.49	-56.8	-66.3	4.3	8.36e-01	0	23	0	0	79	10953
2026-01-09 05:44:50.17	41.87	4.56	-56.7	-65.3	4.6	8.15e-01	0	23	0	0	79	9816
2026-01-09 05:44:51.18	41.80	4.62	-56.5	-64.3	5.1	7.77e-01	0	23	0	0	79	8697
2026-01-09 05:44:52.19	41.73	4.68	-56.3	-63.3	5.7	5.70e-01	0	23	0	1048576	79	7738
2026-01-09 05:44:53.20	41.67	4.75	-56.1	-62.3	6.4	3.04e-01	0	23	0	7340032	78	7329
2026-01-09 05:44:54.21	41.60	4.81	-55.8	-61.4	7.1	1.57e-01	0	23	0	12582912	78	6631
2026-01-09 05:44:55.22	41.53	4.87	-55.5	-60.4	8.0	6.75e-02	0	23	0	17825792	77	6255
2026-01-09 05:44:56.23	41.46	4.94	-55.4	-60.4	8.1	4.82e-02	0	23	0	24117248	77	6208
2026-01-09 05:44:57.24	41.39	5.00	-55.1	-59.6	8.7	2.52e-02	0	23	0	29360128	76	6017
2026-01-09 05:44:58.25	41.33	5.07	-54.8	-58.6	9.6	1.49e-02	0	23	0	35651584	76	5384
2026-01-09 05:44:59.26	41.26	5.13	-57.5	-70.1	3.8	8.45e-01	0	23	104	37748736	80	15964
2026-01-09 05:45:00.26	41.19	5.20	-55.9	-61.2	7.5	4.35e-01	0	23	0	38797312	78	6427
2026-01-09 05:45:01.26	41.12	5.26	-55.2	-59.7	8.6	4.58e-02	0	23	0	44040192	76	6074
2026-01-09 05:45:02.27	41.05	5.32	-52.4	-54.8	12.3	0.00e+00	0	23	0	49283072	69	5212
2026-01-09 05:45:03.28	40.98	5.39	-56.6	-65.1	4.1	8.43e-01	0	23	104	52428800	78	10141
2026-01-09 05:45:04.29	40.91	5.45	-51.4	-53.3	13.5	0.00e+00	0	23	0	55574528	69	4357
2026-01-09 05:45:05.30	40.84	5.52	-50.2	-51.9	14.1	0.00e+00	0	23	0	61865984	67	4183
2026-01-09 05:45:06.31	40.77	5.59	-49.7	-51.3	14.4	0.00e+00	0	23	0	67108864	66	4141
2026-01-09 05:45:07.32	40.69	5.65	-49.5	-51.1	14.4	0.00e+00	0	23	0	73400320	65	4259
2026-01-09 05:45:08.33	40.62	5.72	-49.0	-50.5	14.6	0.00e+00	0	23	0	78643200	64	4227
2026-01-09 05:45:09.33	40.55	5.78	-48.9	-50.4	14.7	0.00e+00	0	23	0	83886080	64	4165
2026-01-09 05:45:10.34	40.48	5.85	-48.8	-50.2	14.8	0.00e+00	0	23	0	90177536	64	4066
2026-01-09 05:45:11.35	40.41	5.91	-49.0	-50.4	14.6	0.00e+00	0	23	0	95420416	64	4193
2026-01-09 05:45:12.36	40.33	5.98	-48.9	-50.4	14.7	0.00e+00	0	23	0	101711872	64	4182
2026-01-09 05:45:13.36	40.26	6.04	-48.9	-50.4	14.7	0.00e+00	0	23	0	106954752	64	4155
2026-01-09 05:45:14.37	40.19	6.11	-48.8	-50.2	14.8	0.00e+00	0	23	0	112197632	64	4083
2026-01-09 05:45:15.38	40.11	6.18	-48.8	-50.3	14.7	0.00e+00	0	23	0	118489088	64	4115
2026-01-09 05:45:16.39	40.04	6.24	-48.9	-50.4	14.7	0.00e+00	0	23	0	123731968	64	4149
2026-01-09 05:45:17.39	39.96	6.31	-48.8	-50.2	14.8	0.00e+00	0	23	0	130023424	64	4075
2026-01-09 05:45:18.40	39.89	6.38	-48.7	-50.2	14.7	0.00e+00	0	23	0	135266304	63	4297
2026-01-09 05:45:19.41	39.81	6.44	-48.6	-50.0	14.8	0.00e+00	0	23	0	140509184	63	4239
2026-01-09 05:45:20.41	39.74	6.51	-48.7	-50.1	14.7	0.00e+00	0	23	0	146800640	63	4273
2026-01-09 05:45:21.42	39.66	6.58	-48.7	-50.2	14.7	0.00e+00	0	23	0	152043520	63	4296
2026-01-09 05:45:22.43	39.58	6.64	-48.6	-50.0	14.8	0.00e+00	0	23	0	158334976	63	4238
2026-01-09 05:45:23.44	39.50	6.71	-48.8	-50.3	14.6	0.00e+00	0	23	0	163577856	63	4346
2026-01-09 05:45:24.45	39.43	6.78	-48.7	-50.1	14.7	0.00e+00	0	23	0	169869312	63	4279
2026-01-09 05:45:25.46	39.35	6.85	-48.8	-50.2	14.7	0.00e+00	0	23	0	175112192	63	4318
2026-01-09 05:45:26.46	39.27	6.91	-48.8	-50.3	14.6	0.00e+00	0	23	0	180355072	63	4350
2026-01-09 05:45:27.47	39.19	6.98	-48.8	-50.2	14.7	0.00e+00	0	23	0	186646528	63	4310
2026-01-09 05:45:28.48	39.11	7.05	-48.8	-50.2	14.7	0.00e+00	0	23	0	191889408	63	4316
2026-01-09 05:45:29.49	39.03	7.12	-48.8	-50.3	14.7	0.00e+00	0	23	0	197132288	63	4351
2026-01-09 05:45:30.50	38.95	7.19	-48.7	-50.1	14.8	0.00e+00	0	23	0	203423744	63	4248
2026-01-09 05:45:31.51	38.87	7.25	-48.7	-50.1	14.8	0.00e+00	0	23	0	208666624	63	4252
2026-01-09 05:45:32.52	38.79	7.32	-48.8	-50.2	14.7	0.00e+00	0	23	0	214958080	63	4309
2026-01-09 05:45:33.53	38.71	7.39	-48.7	-50.1	14.7	0.00e+00	0	23	0	220200960	63	4290
2026-01-09 05:45:34.54	38.63	7.46	-48.7	-50.2	14.7	0.00e+00	0	23	0	225443840	63	4296
2026-01-09 05:45:35.54	38.55	7.53	-48.7	-50.1	14.7	0.00e+00	0	23	0	231735296	63	4287
2026-01-09 05:45:36.55	38.47	7.60	-48.8	-50.2	14.7	0.00e+00	0	23	0	236978176	63	4329
2026-01-09 05:45:37.56	38.38	7.67	-48.7	-50.1	14.8	0.00e+00	0	23	0	243269632	63	4282
2026-01-09 05:45:38.57	38.30	7.74	-48.8	-50.2	14.7	0.00e+00	0	23	0	248512512	63	4316
2026-01-09 05:45:39.57	38.22	7.80	-48.7	-50.1	14.8	0.00e+00	0	23	0	254803968	63	4281
2026-01-09 05:45:40.57	38.14	7.87	-48.7	-50.2	14.7	0.00e+00	0	23	0	260046848	63	4293
2026-01-09 05:45:41.56	38.05	7.94	-48.7	-50.1	14.8	0.00e+00	0	23	0	265289728	63	4250
2026-01-09 05:45:42.56	37.97	8.01	-48.7	-50.2	14.7	0.00e+00	0	23	0	271581184	63	4297
2026-01-09 05:45:43.56	37.88	8.08	-48.7	-50.1	14.8	0.00e+00	0	23	0	276824064	63	4283
2026-01-09 05:45:44.56	37.80	8.15	-48.7	-50.1	14.8	0.00e+00	0	23	0	282066944	63	4276
2026-01-09 05:45:45.56	37.71	8.22	-48.6	-50.0	14.9	0.00e+00	0	23	0	288358400	63	4197
2026-01-09 05:45:46.56	37.63	8.29	-48.5	-49.9	14.9	0.00e+00	0	23	0	293601280	63	4183
2026-01-09 05:45:47.55	37.54	8.36	-48.6	-50.0	14.8	0.00e+00	0	23	0	298844160	63	4218
2026-01-09 05:45:48.56	37.46	8.43	-48.6	-50.0	14.8	0.00e+00	0	23	0	305135616	63	4201
2026-01-09 05:45:49.55	37.37	8.50	-48.5	-49.9	14.9	0.00e+00	0	23	0	310378496	63	4169
2026-01-09 05:45:50.55	37.28	8.57	-48.4	-49.7	15.0	0.00e+00	0	23	0	316669952	63	4091
2026-01-09 05:45:51.55	37.20	8.64	-48.4	-49.7	15.0	0.00e+00	0	23	0	321912832	63	4086
2026-01-09 05:45:52.54	37.11	8.71	-48.5	-49.9	14.9	0.00e+00	0	23	0	327155712	63	4176
2026-01-09 05:45:53.54	37.02	8.78	-48.4	-49.7	15.0	0.00e+00	0	23	0	332398592	63	4086
2026-01-09 05:45:54.52	36.93	8.85	-48.3	-49.7	15.0	0.00e+00	0	23	0	338690048	63	4054
2026-01-09 05:45:55.52	36.84	8.92	-48.2	-49.5	15.1	0.00e+00	0	23	0	343932928	63	3996
2026-01-09 05:45:56.51	36.75	8.99	-48.1	-49.4	15.0	0.00e+00	0	23	0	350224384	62	4191
2026-01-09 05:45:57.51	36.66	9.06	-48.2	-49.5	15.0	0.00e+00	0	23	0	355467264	62	4207
2026-01-09 05:45:58.51	36.57	9.13	-48.1	-49.4	15.0	0.00e+00	0	23	0	360710144	62	4156
2026-01-09 05:45:59.50	36.48	9.20	-48.1	-49.5	15.0	0.00e+00	0	23	0	367001600	62	4206
2026-01-09 05:46:00.50	36.39	9.27	-48.1	-49.4	15.0	0.00e+00	0	23	0	372244480	62	4161
2026-01-09 05:46:01.49	36.30	9.34	-48.1	-49.4	15.0	0.00e+00	0	23	0	377487360	62	4185
2026-01-09 05:46:02.49	36.21	9.42	-48.2	-49.6	14.9	0.00e+00	0	23	0	383778816	62	4253
2026-01-09 05:46:03.49	36.11	9.49	-48.1	-49.5	15.0	0.00e+00	0	23	0	389021696	62	4201
2026-01-09 05:46:04.49	36.02	9.56	-48.0	-49.3	15.1	0.00e+00	0	23	0	394264576	62	4121
2026-01-09 05:46:05.48	35.92	9.63	-48.1	-49.4	15.0	0.00e+00	0	23	0	400556032	62	4178
2026-01-09 05:46:06.48	35.83	9.70	-48.0	-49.4	15.1	0.00e+00	0	23	0	405798912	62	4149
2026-01-09 05:46:07.47	35.74	9.77	-48.0	-49.3	15.1	0.00e+00	0	24	0	411041792	62	4124
2026-01-09 05:46:08.46	35.64	9.85	-48.0	-49.3	15.0	0.00e+00	0	23	0	417333248	62	4135
2026-01-09 05:46:09.45	35.55	9.92	-48.0	-49.3	15.1	0.00e+00	0	23	0	422576128	62	4109
2026-01-09 05:46:10.46	35.45	9.99	-47.9	-49.2	15.1	0.00e+00	0	23	0	427819008	62	4093
2026-01-09 05:46:11.44	35.35	10.06	-47.9	-49.2	15.1	0.00e+00	0	23	0	434110464	62	4092
2026-01-09 05:46:12.44	35.26	10.14	-47.9	-49.2	15.1	0.00e+00	0	23	0	439353344	62	4073
2026-01-09 05:46:13.45	35.16	10.21	-47.9	-49.2	15.1	0.00e+00	0	23	0	444596224	62	4095
2026-01-09 05:46:14.45	35.06	10.28	-47.9	-49.2	15.1	0.00e+00	0	23	0	450887680	62	4057
2026-01-09 05:46:15.46	34.96	10.36	-47.8	-49.0	15.2	0.00e+00	0	24	0	456130560	62	3998
2026-01-09 05:46:16.45	34.86	10.43	-47.8	-49.1	15.2	0.00e+00	0	23	0	462422016	62	4015
2026-01-09 05:46:17.45	34.76	10.50	-47.8	-49.1	15.2	0.00e+00	0	24	0	467664896	62	4011
2026-01-09 05:46:18.44	34.66	10.58	-47.7	-49.0	15.2	0.00e+00	0	23	0	472907776	62	3984
2026-01-09 05:46:19.44	34.56	10.65	-47.7	-49.0	15.3	0.00e+00	0	23	0	478150656	62	3979
2026-01-09 05:46:20.43	34.46	10.72	-47.8	-49.1	15.2	0.00e+00	0	24	0	484442112	62	4027
2026-01-09 05:46:21.43	34.35	10.80	-47.6	-48.9	15.1	0.00e+00	0	23	0	489684992	61	4163
2026-01-09 05:46:22.42	34.25	10.87	-47.4	-48.7	15.2	0.00e+00	0	23	0	494927872	61	4076
2026-01-09 05:46:23.42	34.15	10.95	-47.5	-48.8	15.2	0.00e+00	0	23	0	501219328	61	4109
2026-01-09 05:46:24.41	34.05	11.02	-47.5	-48.8	15.2	0.00e+00	0	23	0	506462208	61	4099
2026-01-09 05:46:25.40	33.94	11.09	-47.5	-48.7	15.2	0.00e+00	0	23	0	512753664	61	4094
2026-01-09 05:46:26.40	33.84	11.17	-47.6	-48.8	15.1	0.00e+00	0	23	0	517996544	61	4140
2026-01-09 05:46:27.40	33.73	11.24	-47.5	-48.7	15.2	0.00e+00	0	24	0	523239424	61	4097
2026-01-09 05:46:28.39	33.63	11.32	-47.5	-48.7	15.2	0.00e+00	0	24	0	529530880	61	4074
2026-01-09 05:46:29.39	33.52	11.39	-47.5	-48.7	15.2	0.00e+00	0	23	0	534773760	61	4078
2026-01-09 05:46:30.39	33.41	11.47	-47.5	-48.8	15.2	0.00e+00	0	23	0	540016640	61	4108
2026-01-09 05:46:31.39	33.30	11.54	-47.5	-48.7	15.2	0.00e+00	0	23	0	546308096	61	4098
2026-01-09 05:46:32.38	33.20	11.62	-47.5	-48.7	15.2	0.00e+00	0	23	0	551550976	61	4077
2026-01-09 05:46:33.38	33.09	11.70	-47.5	-48.7	15.2	0.00e+00	0	23	0	556793856	61	4083
2026-01-09 05:46:34.36	32.98	11.77	-47.5	-48.8	15.2	0.00e+00	0	24	0	563085312	61	4106
2026-01-09 05:46:35.35	32.87	11.85	-47.5	-48.8	15.2	0.00e+00	0	23	0	568328192	61	4124
2026-01-09 05:46:36.35	32.76	11.92	-47.5	-48.8	15.2	0.00e+00	0	23	0	573571072	61	4120
2026-01-09 05:46:37.34	32.65	12.00	-47.5	-48.8	15.2	0.00e+00	0	24	0	579862528	61	4108
2026-01-09 05:46:38.33	32.54	12.07	-47.5	-48.8	15.2	0.00e+00	0	23	0	585105408	61	4104
2026-01-09 05:46:39.32	32.43	12.15	-47.5	-48.7	15.2	0.00e+00	0	23	0	590348288	61	4083
2026-01-09 05:46:40.31	32.32	12.22	-47.5	-48.8	15.2	0.00e+00	0	23	0	595591168	61	4101
2026-01-09 05:46:41.30	32.20	12.30	-47.5	-48.7	15.2	0.00e+00	0	23	0	601882624	61	4079
2026-01-09 05:46:42.28	32.09	12.38	-47.6	-48.8	15.2	0.00e+00	0	23	0	607125504	61	4144
2026-01-09 05:46:43.27	31.98	12.45	-47.5	-48.7	15.2	0.00e+00	0	23	0	612368384	61	4089
2026-01-09 05:46:44.27	31.86	12.53	-47.5	-48.8	15.2	0.00e+00	0	24	0	618659840	61	4125
2026-01-09 05:46:45.26	31.75	12.61	-47.5	-48.8	15.2	0.00e+00	0	23	0	623902720	61	4117
2026-01-09 05:46:46.25	31.63	12.68	-47.5	-48.7	15.3	0.00e+00	0	23	0	629145600	61	4075
2026-01-09 05:46:47.23	31.52	12.76	-47.5	-48.8	15.2	0.00e+00	0	24	0	634388480	61	4111
2026-01-09 05:46:48.23	31.40	12.84	-47.5	-48.7	15.2	0.00e+00	0	23	0	640679936	61	4088
2026-01-09 05:46:49.22	31.28	12.91	-47.3	-48.6	15.3	0.00e+00	0	24	0	645922816	61	4013
2026-01-09 05:46:50.20	31.16	12.99	-47.2	-48.5	15.4	0.00e+00	0	23	0	652214272	61	3959
2026-01-09 05:46:51.19	31.05	13.07	-47.3	-48.6	15.3	0.00e+00	0	23	0	657457152	61	4006
2026-01-09 05:46:52.18	30.93	13.14	-47.2	-48.4	15.4	0.00e+00	0	23	0	662700032	61	3957
2026-01-09 05:46:53.18	30.80	13.22	-47.1	-48.3	15.3	0.00e+00	0	24	0	667942912	60	4133
2026-01-09 05:46:54.18	30.68	13.30	-47.2	-48.4	15.2	0.00e+00	0	23	0	674234368	60	4157
2026-01-09 05:46:55.18	30.56	13.38	-47.2	-48.4	15.2	0.00e+00	0	23	0	679477248	60	4172
2026-01-09 05:46:56.18	30.44	13.46	-47.1	-48.3	15.3	0.00e+00	0	24	0	684720128	60	4133
2026-01-09 05:46:57.17	30.31	13.54	-47.1	-48.3	15.3	0.00e+00	0	24	0	691011584	60	4145
2026-01-09 05:46:58.16	30.19	13.61	-47.1	-48.4	15.3	0.00e+00	0	24	0	696254464	60	4146
2026-01-09 05:46:59.15	30.07	13.69	-47.1	-48.3	15.3	0.00e+00	0	24	0	702545920	60	4108
2026-01-09 05:47:00.14	29.94	13.77	-47.2	-48.4	15.3	0.00e+00	0	24	0	707788800	60	4151
2026-01-09 05:47:01.15	29.81	13.85	-47.0	-48.2	15.3	0.00e+00	0	23	0	713031680	60	4080
2026-01-09 05:47:02.14	29.69	13.93	-47.0	-48.2	15.3	0.00e+00	0	24	0	719323136	60	4092
2026-01-09 05:47:03.13	29.56	14.01	-47.0	-48.2	15.4	0.00e+00	0	23	0	724566016	60	4067
2026-01-09 05:47:04.13	29.43	14.09	-46.9	-48.1	15.4	0.00e+00	0	23	0	729808896	60	4027
2026-01-09 05:47:05.12	29.30	14.17	-46.9	-48.0	15.4	0.00e+00	0	24	0	736100352	60	4004
2026-01-09 05:47:06.12	29.17	14.25	-46.8	-48.0	15.4	0.00e+00	0	23	0	741343232	60	3994
2026-01-09 05:47:07.11	29.04	14.33	-46.8	-48.0	15.4	0.00e+00	0	23	0	746586112	60	3980
2026-01-09 05:47:08.10	28.91	14.41	-46.7	-47.9	15.5	0.00e+00	0	24	0	752877568	60	3941
2026-01-09 05:47:09.10	28.78	14.49	-46.8	-48.0	15.5	0.00e+00	0	23	0	758120448	60	3959
2026-01-09 05:47:10.09	28.65	14.56	-46.7	-47.9	15.5	0.00e+00	0	24	0	763363328	60	3915
2026-01-09 05:47:11.09	28.52	14.65	-47.0	-48.2	15.2	0.00e+00	0	24	0	768606208	59	4321
2026-01-09 05:47:12.07	28.38	14.72	-47.0	-48.2	15.2	0.00e+00	0	24	0	774897664	59	4327
2026-01-09 05:47:13.06	28.25	14.80	-47.0	-48.2	15.2	0.00e+00	0	24	0	780140544	59	4327
2026-01-09 05:47:14.05	28.12	14.88	-46.9	-48.1	15.3	0.00e+00	0	23	0	786432000	59	4272
2026-01-09 05:47:15.05	27.98	14.96	-46.9	-48.2	15.3	0.00e+00	0	24	0	791674880	59	4293
2026-01-09 05:47:16.04	27.84	15.04	-46.8	-48.0	15.3	0.00e+00	0	24	0	796917760	59	4241
2026-01-09 05:47:17.04	27.70	15.13	-46.9	-48.1	15.3	0.00e+00	0	23	0	802160640	59	4244
2026-01-09 05:47:18.02	27.57	15.20	-46.8	-48.0	15.3	0.00e+00	0	24	0	808452096	59	4231
2026-01-09 05:47:19.01	27.43	15.29	-46.8	-48.0	15.3	0.00e+00	0	24	0	813694976	59	4219
2026-01-09 05:47:20.01	27.29	15.37	-46.8	-48.0	15.3	0.00e+00	0	24	0	818937856	59	4198
2026-01-09 05:47:21.00	27.15	15.45	-46.7	-47.9	15.3	0.00e+00	0	24	0	825229312	59	4182
2026-01-09 05:47:21.99	27.01	15.53	-46.8	-48.0	15.3	0.00e+00	0	24	0	830472192	59	4208
2026-01-09 05:47:22.98	26.87	15.61	-46.8	-48.0	15.3	0.00e+00	0	24	0	835715072	59	4219
2026-01-09 05:47:23.97	26.72	15.69	-46.8	-48.0	15.3	0.00e+00	0	24	0	842006528	59	4240
2026-01-09 05:47:24.97	26.58	15.77	-46.8	-47.9	15.3	0.00e+00	0	23	0	847249408	59	4192
2026-01-09 05:47:25.96	26.44	15.85	-46.8	-48.0	15.3	0.00e+00	0	24	0	852492288	59	4233
2026-01-09 05:47:26.95	26.29	15.93	-46.8	-48.0	15.3	0.00e+00	0	23	0	858783744	59	4200
2026-01-09 05:47:27.95	26.14	16.01	-46.7	-47.9	15.4	0.00e+00	0	24	0	864026624	59	4165
2026-01-09 05:47:28.94	26.00	16.10	-46.7	-47.9	15.4	0.00e+00	0	24	0	869269504	59	4154
2026-01-09 05:47:29.93	25.85	16.18	-46.6	-47.8	15.4	0.00e+00	0	24	0	875560960	59	4136
2026-01-09 05:47:30.93	25.70	16.26	-46.6	-47.8	15.4	0.00e+00	0	24	0	880803840	59	4118
2026-01-09 05:47:31.92	25.55	16.34	-46.6	-47.8	15.4	0.00e+00	0	23	0	886046720	59	4127
2026-01-09 05:47:32.91	25.40	16.42	-46.7	-47.8	15.4	0.00e+00	0	23	0	892338176	59	4144
2026-01-09 05:47:33.91	25.25	16.51	-46.6	-47.8	15.4	0.00e+00	0	24	0	897581056	59	4107
2026-01-09 05:47:34.90	25.10	16.59	-46.7	-47.9	15.4	0.00e+00	0	24	0	902823936	59	4151
2026-01-09 05:47:35.89	24.95	16.67	-46.7	-47.9	15.4	0.00e+00	0	24	0	908066816	59	4149
2026-01-09 05:47:36.87	24.80	16.75	-46.7	-47.8	15.4	0.00e+00	0	24	0	914358272	59	4135
2026-01-09 05:47:37.86	24.64	16.83	-46.7	-47.9	15.4	0.00e+00	0	23	0	919601152	59	4182
2026-01-09 05:47:38.85	24.49	16.91	-46.8	-47.9	15.3	0.00e+00	0	23	0	925892608	59	4189
2026-01-09 05:47:39.84	24.33	17.00	-46.5	-47.7	15.4	0.00e+00	0	24	0	931135488	59	4083
2026-01-09 05:47:40.83	24.18	17.08	-46.5	-47.7	15.5	0.00e+00	0	24	0	936378368	59	4074
2026-01-09 05:47:41.81	24.02	17.16	-46.5	-47.7	15.5	0.00e+00	0	24	0	941621248	59	4084
2026-01-09 05:47:42.81	23.86	17.24	-46.5	-47.6	15.5	0.00e+00	0	24	0	947912704	59	4044
2026-01-09 05:47:43.81	23.70	17.32	-46.4	-47.6	15.5	0.00e+00	0	24	0	953155584	59	4029
2026-01-09 05:47:44.81	23.54	17.41	-46.5	-47.6	15.5	0.00e+00	0	24	0	958398464	59	4036
2026-01-09 05:47:45.80	23.38	17.49	-46.4	-47.6	15.5	0.00e+00	0	24	0	964689920	59	4009
2026-01-09 05:47:46.79	23.22	17.57	-46.2	-47.3	15.6	0.00e+00	0	24	0	969932800	59	3909
2026-01-09 05:47:47.79	23.05	17.66	-46.1	-47.3	15.5	0.00e+00	0	24	0	975175680	58	4103
2026-01-09 05:47:48.78	22.89	17.74	-46.1	-47.3	15.5	0.00e+00	0	23	0	981467136	58	4108
2026-01-09 05:47:49.77	22.72	17.82	-46.1	-47.2	15.5	0.00e+00	0	24	0	986710016	58	4097
2026-01-09 05:47:50.77	22.56	17.90	-46.2	-47.3	15.5	0.00e+00	0	24	0	991952896	58	4127
2026-01-09 05:47:51.76	22.39	17.99	-46.2	-47.4	15.5	0.00e+00	0	24	0	998244352	58	4155
2026-01-09 05:47:52.76	22.22	18.07	-46.2	-47.4	15.5	0.00e+00	0	24	0	1003487232	58	4147
2026-01-09 05:47:53.75	22.05	18.15	-46.3	-47.5	15.4	0.00e+00	0	24	0	1008730112	58	4202
2026-01-09 05:47:54.75	21.88	18.23	-46.3	-47.4	15.4	0.00e+00	0	24	0	1015021568	58	4187
2026-01-09 05:47:55.74	21.71	18.32	-46.2	-47.4	15.5	0.00e+00	0	24	0	1020264448	58	4168
2026-01-09 05:47:56.73	21.54	18.40	-46.3	-47.4	15.4	0.00e+00	0	23	0	1025507328	58	4185
2026-01-09 05:47:57.72	21.37	18.48	-46.1	-47.2	15.5	0.00e+00	0	24	0	1031798784	58	4094
2026-01-09 05:47:58.71	21.20	18.56	-45.9	-47.1	15.6	0.00e+00	0	24	0	1037041664	58	4008
2026-01-09 05:47:59.71	21.02	18.65	-45.9	-47.1	15.6	0.00e+00	0	24	0	1042284544	58	4007
2026-01-09 05:48:00.70	20.85	18.73	-46.0	-47.1	15.5	0.00e+00	0	24	0	1048576000	58	4049
2026-01-09 05:48:01.69	20.67	18.81	-45.9	-47.0	15.6	0.00e+00	0	24	0	1053818880	58	3995
2026-01-09 05:48:02.69	20.49	18.90	-45.9	-47.0	15.6	0.00e+00	0	24	0	1059061760	58	3999
2026-01-09 05:48:03.68	20.31	18.98	-46.0	-47.1	15.5	0.00e+00	0	24	0	1065353216	58	4050
2026-01-09 05:48:04.68	20.13	19.06	-46.2	-47.4	15.5	0.00e+00	0	24	0	1070596096	58	4147
2026-01-09 05:48:05.69	19.95	19.15	-46.3	-47.4	15.4	0.00e+00	0	24	0	1075838976	58	4183
2026-01-09 05:48:06.68	19.77	19.23	-46.3	-47.4	15.4	0.00e+00	0	24	0	1082130432	58	4191
2026-01-09 05:48:07.68	19.58	19.31	-46.3	-47.5	15.5	0.00e+00	0	23	0	1087373312	58	4194
2026-01-09 05:48:08.67	19.40	19.39	-46.2	-47.4	15.5	0.00e+00	0	24	0	1092616192	58	4159
2026-01-09 05:48:09.67	19.22	19.48	-46.1	-47.3	15.6	0.00e+00	0	24	0	1098907648	58	4108
2026-01-09 05:48:10.66	19.03	19.56	-46.1	-47.2	15.5	0.00e+00	0	24	0	1104150528	58	4085
2026-01-09 05:48:11.65	18.85	19.64	-46.1	-47.2	15.5	0.00e+00	0	24	0	1110441984	58	4082
2026-01-09 05:48:12.65	18.66	19.73	-46.1	-47.2	15.5	0.00e+00	0	24	0	1115684864	58	4071
2026-01-09 05:48:13.64	18.47	19.81	-46.1	-47.2	15.5	0.00e+00	0	23	0	1120927744	58	4096
2026-01-09 05:48:14.63	18.28	19.89	-46.1	-47.2	15.5	0.00e+00	0	24	0	1126170624	58	4082
2026-01-09 05:48:15.63	18.09	19.97	-46.1	-47.2	15.5	0.00e+00	0	24	0	1132462080	58	4089
2026-01-09 05:48:16.61	17.90	20.05	-46.1	-47.2	15.5	0.00e+00	0	24	0	1137704960	58	4091
2026-01-09 05:48:17.61	17.71	20.14	-46.1	-47.2	15.5	0.00e+00	0	24	0	1142947840	58	4085
2026-01-09 05:48:18.60	17.51	20.22	-46.1	-47.2	15.5	0.00e+00	0	23	0	1149239296	58	4081
2026-01-09 05:48:19.60	17.32	20.30	-46.1	-47.2	15.5	0.00e+00	0	24	0	1154482176	58	4092
2026-01-09 05:48:20.59	17.12	20.38	-45.9	-47.0	15.6	0.00e+00	0	24	0	1160773632	58	3977
2026-01-09 05:48:21.59	16.92	20.47	-45.8	-46.9	15.7	0.00e+00	0	23	0	1166016512	58	3937
2026-01-09 05:48:22.58	16.73	20.55	-45.8	-46.9	15.7	0.00e+00	0	24	0	1171259392	58	3948
2026-01-09 05:48:23.57	16.53	20.63	-45.9	-47.0	15.6	0.00e+00	0	24	0	1176502272	58	4001
2026-01-09 05:48:24.57	16.33	20.71	-45.9	-47.0	15.6	0.00e+00	0	24	0	1182793728	58	4002
2026-01-09 05:48:25.56	16.13	20.79	-45.8	-46.9	15.6	0.00e+00	0	24	0	1188036608	58	3950
2026-01-09 05:48:26.56	15.92	20.87	-45.8	-46.9	15.6	0.00e+00	0	23	0	1193279488	58	3944
2026-01-09 05:48:27.54	15.72	20.95	-45.7	-46.9	15.7	0.00e+00	0	24	0	1199570944	58	3914
2026-01-09 05:48:28.53	15.52	21.03	-45.6	-46.7	15.6	0.00e+00	0	24	0	1204813824	57	4087
2026-01-09 05:48:29.52	15.31	21.12	-45.6	-46.7	15.6	0.00e+00	0	24	0	1210056704	57	4088
2026-01-09 05:48:30.52	15.11	21.20	-45.6	-46.7	15.6	0.00e+00	0	24	0	1216348160	57	4091
2026-01-09 05:48:31.51	14.90	21.28	-45.5	-46.6	15.6	0.00e+00	0	24	0	1221591040	57	4037
2026-01-09 05:48:32.49	14.69	21.36	-45.5	-46.6	15.6	0.00e+00	0	23	0	1226833920	57	4011
2026-01-09 05:48:33.48	14.48	21.44	-45.4	-46.5	15.6	0.00e+00	0	24	0	1232076800	57	4000
2026-01-09 05:48:34.47	14.27	21.52	-45.4	-46.5	15.6	0.00e+00	0	23	0	1238368256	57	3977
2026-01-09 05:48:35.46	14.06	21.60	-45.4	-46.5	15.7	0.00e+00	0	24	0	1243611136	57	3974
2026-01-09 05:48:36.45	13.85	21.68	-45.4	-46.5	15.6	0.00e+00	0	24	0	1249902592	57	3999
2026-01-09 05:48:37.45	13.63	21.76	-45.4	-46.5	15.7	0.00e+00	0	24	0	1255145472	57	3979
2026-01-09 05:48:38.44	13.42	21.84	-45.4	-46.5	15.6	0.00e+00	0	24	0	1260388352	57	3996
2026-01-09 05:48:39.43	13.20	21.91	-45.5	-46.6	15.6	0.00e+00	0	24	0	1265631232	57	4020
2026-01-09 05:48:40.41	12.99	21.99	-45.6	-46.7	15.6	0.00e+00	0	24	0	1271922688	57	4089
2026-01-09 05:48:41.40	12.77	22.07	-45.5	-46.6	15.6	0.00e+00	0	24	0	1277165568	57	4043
2026-01-09 05:48:42.39	12.55	22.15	-45.5	-46.6	15.6	0.00e+00	0	24	0	1282408448	57	4028
2026-01-09 05:48:43.38	12.33	22.23	-45.6	-46.7	15.6	0.00e+00	0	24	0	1288699904	57	4097
2026-01-09 05:48:44.37	12.11	22.31	-45.7	-46.8	15.6	0.00e+00	0	24	0	1293942784	57	4120
2026-01-09 05:48:45.36	11.89	22.38	-45.6	-46.7	15.6	0.00e+00	0	24	0	1299185664	57	4093
2026-01-09 05:48:46.36	11.66	22.46	-45.6	-46.7	15.6	0.00e+00	0	24	0	1305477120	57	4091
2026-01-09 05:48:47.35	11.44	22.54	-45.6	-46.7	15.6	0.00e+00	0	24	0	1310720000	57	4088
2026-01-09 05:48:48.35	11.21	22.62	-45.6	-46.7	15.6	0.00e+00	0	24	0	1315962880	57	4063
2026-01-09 05:48:49.34	10.98	22.69	-45.3	-46.4	15.7	0.00e+00	0	24	0	1322254336	57	3944
2026-01-09 05:48:50.33	10.75	22.77	-45.3	-46.4	15.7	0.00e+00	0	24	0	1327497216	57	3927
2026-01-09 05:48:51.33	10.52	22.85	-45.4	-46.5	15.7	0.00e+00	0	24	0	1332740096	57	3971
2026-01-09 05:48:52.32	10.29	22.92	-45.3	-46.4	15.7	0.00e+00	0	24	0	1339031552	57	3924
2026-01-09 05:48:53.31	10.06	23.00	-45.4	-46.5	15.7	0.00e+00	0	23	0	1344274432	57	3991
2026-01-09 05:48:54.31	9.82	23.08	-45.4	-46.5	15.6	0.00e+00	0	24	0	1349517312	57	4002
2026-01-09 05:48:55.30	9.59	23.15	-45.4	-46.5	15.7	0.00e+00	0	24	0	1355808768	57	3997
2026-01-09 05:48:56.30	9.35	23.23	-45.4	-46.5	15.7	0.00e+00	0	23	0	1361051648	57	3965
2026-01-09 05:48:57.29	9.12	23.30	-45.5	-46.6	15.6	0.00e+00	0	24	0	1366294528	57	4011
2026-01-09 05:48:58.28	8.88	23.38	-45.4	-46.5	15.7	0.00e+00	0	24	0	1371537408	57	3991
2026-01-09 05:48:59.28	8.64	23.45	-45.3	-46.4	15.7	0.00e+00	0	24	0	1377828864	57	3922
2026-01-09 05:49:00.27	8.40	23.52	-45.4	-46.5	15.7	0.00e+00	0	24	0	1383071744	57	3966
2026-01-09 05:49:01.26	8.16	23.60	-45.5	-46.6	15.6	0.00e+00	0	24	0	1389363200	57	4036
2026-01-09 05:49:02.25	7.92	23.67	-45.5	-46.6	15.6	0.00e+00	0	24	0	1394606080	57	4028
2026-01-09 05:49:03.24	7.67	23.74	-45.5	-46.6	15.6	0.00e+00	0	24	0	1399848960	57	4036
2026-01-09 05:49:04.24	7.43	23.82	-45.3	-46.4	15.7	0.00e+00	0	24	0	1405091840	57	3935
2026-01-09 05:49:05.23	7.18	23.89	-45.2	-46.3	15.7	0.00e+00	0	24	0	1411383296	57	3911
2026-01-09 05:49:06.22	6.93	23.96	-45.2	-46.3	15.7	0.00e+00	0	24	0	1416626176	57	3898
2026-01-09 05:49:07.21	6.69	24.03	-45.3	-46.3	15.7	0.00e+00	0	24	0	1422917632	57	3911
2026-01-09 05:49:08.19	6.44	24.10	-45.3	-46.4	15.7	0.00e+00	0	24	0	1428160512	57	3958
2026-01-09 05:49:09.19	6.19	24.17	-45.3	-46.4	15.7	0.00e+00	0	24	0	1433403392	57	3923
2026-01-09 05:49:10.19	5.93	24.24	-45.4	-46.5	15.7	0.00e+00	0	24	0	1438646272	57	3962
2026-01-09 05:49:11.19	5.68	24.31	-45.2	-46.3	15.8	0.00e+00	0	24	0	1444937728	57	3871
2026-01-09 05:49:12.18	5.43	24.38	-45.1	-46.2	15.6	0.00e+00	0	24	0	1450180608	56	4054
2026-01-09 05:49:13.18	5.17	24.45	-45.2	-46.3	15.6	0.00e+00	0	24	0	1455423488	56	4111
2026-01-09 05:49:14.17	4.91	24.52	-45.3	-46.4	15.6	0.00e+00	0	23	0	1461714944	56	4155
2026-01-09 05:49:15.16	4.66	24.59	-45.4	-46.5	15.5	0.00e+00	0	24	0	1466957824	56	4203
2026-01-09 05:49:16.15	4.40	24.65	-45.3	-46.4	15.6	0.00e+00	0	24	0	1473249280	56	4171
2026-01-09 05:49:17.15	4.14	24.72	-45.4	-46.5	15.6	0.00e+00	0	24	0	1478492160	56	4206
2026-01-09 05:49:18.14	3.88	24.79	-45.4	-46.5	15.5	0.00e+00	0	24	0	1483735040	56	4204
2026-01-09 05:49:19.13	3.62	24.85	-45.2	-46.4	15.6	0.00e+00	0	24	0	1488977920	56	4146
2026-01-09 05:49:20.13	3.35	24.92	-45.1	-46.2	15.6	0.00e+00	0	24	0	1495269376	56	4090
2026-01-09 05:49:21.12	3.09	24.98	-45.1	-46.2	15.6	0.00e+00	0	24	0	1500512256	56	4076
2026-01-09 05:49:22.12	2.82	25.05	-45.0	-46.1	15.7	0.00e+00	0	24	0	1505755136	56	4020
2026-01-09 05:49:23.12	2.55	25.11	-44.8	-45.9	15.7	0.00e+00	0	24	0	1512046592	56	3934
2026-01-09 05:49:24.11	2.28	25.18	-44.8	-45.9	15.7	0.00e+00	0	24	0	1517289472	56	3942
2026-01-09 05:49:25.11	2.01	25.24	-44.7	-45.8	15.8	0.00e+00	0	24	0	1523580928	56	3889
2026-01-09 05:49:26.11	1.74	25.30	-44.8	-45.9	15.8	0.00e+00	0	24	0	1528823808	56	3918
2026-01-09 05:49:27.11	1.47	25.37	-44.8	-45.9	15.8	0.00e+00	0	24	0	1534066688	56	3915
2026-01-09 05:49:28.10	1.20	25.43	-44.9	-46.0	15.7	0.00e+00	0	24	0	1540358144	56	3981
2026-01-09 05:49:29.09	0.93	25.49	-45.0	-46.1	15.7	0.00e+00	0	24	0	1545601024	56	4006
2026-01-09 05:49:30.09	0.65	25.55	-44.9	-46.0	15.7	0.00e+00	0	24	0	1550843904	56	3985
2026-01-09 05:49:31.08	0.38	25.61	-45.0	-46.1	15.7	0.00e+00	0	24	0	1556086784	56	4007
2026-01-09 05:49:32.07	0.10	25.67	-44.9	-46.0	15.7	0.00e+00	0	24	0	1562378240	56	3983
2026-01-09 05:49:33.06	359.83	25.72	-45.0	-46.0	15.7	0.00e+00	0	24	0	1567621120	56	4001
2026-01-09 05:49:34.06	359.55	25.78	-45.0	-46.0	15.7	0.00e+00	0	24	0	1573912576	56	3997
2026-01-09 05:49:35.05	359.27	25.84	-44.9	-46.0	15.7	0.00e+00	0	24	0	1579155456	56	3986
2026-01-09 05:49:36.05	358.99	25.90	-45.0	-46.0	15.7	0.00e+00	0	24	0	1584398336	56	4001
2026-01-09 05:49:37.03	358.71	25.95	-44.8	-45.9	15.7	0.00e+00	0	24	0	1589641216	56	3928
2026-01-09 05:49:38.02	358.43	26.01	-44.9	-46.0	15.7	0.00e+00	0	24	0	1595932672	56	3975
2026-01-09 05:49:39.00	358.15	26.06	-45.0	-46.1	15.7	0.00e+00	0	24	0	1601175552	56	4019
2026-01-09 05:49:39.99	357.86	26.11	-44.9	-46.0	15.7	0.00e+00	0	24	0	1606418432	56	3981
2026-01-09 05:49:40.99	357.58	26.17	-44.9	-45.9	15.7	0.00e+00	0	24	0	1612709888	56	3951
2026-01-09 05:49:41.99	357.29	26.22	-44.8	-45.9	15.7	0.00e+00	0	24	0	1617952768	56	3925
2026-01-09 05:49:42.98	357.00	26.27	-44.7	-45.7	15.8	0.00e+00	0	24	0	1623195648	56	3855
2026-01-09 05:49:43.96	356.72	26.32	-44.5	-45.5	15.7	0.00e+00	0	24	0	1629487104	55	3988
2026-01-09 05:49:44.95	356.43	26.37	-44.5	-45.6	15.7	0.00e+00	0	24	0	1634729984	55	4025
2026-01-09 05:49:45.94	356.14	26.42	-44.7	-45.7	15.6	0.00e+00	0	24	0	1639972864	55	4097
2026-01-09 05:49:46.92	355.86	26.47	-44.7	-45.8	15.6	0.00e+00	0	24	0	1645215744	55	4130
2026-01-09 05:49:47.91	355.57	26.52	-44.8	-45.9	15.6	0.00e+00	0	24	0	1651507200	55	4180
2026-01-09 05:49:48.91	355.27	26.57	-44.8	-45.9	15.6	0.00e+00	0	24	0	1656750080	55	4146
2026-01-09 05:49:49.91	354.98	26.61	-44.7	-45.8	15.6	0.00e+00	0	24	0	1663041536	55	4129
2026-01-09 05:49:50.91	354.68	26.66	-44.6	-45.7	15.7	0.00e+00	0	24	0	1668284416	55	4065
2026-01-09 05:49:51.90	354.38	26.71	-44.6	-45.7	15.6	0.00e+00	0	24	0	1673527296	55	4061
2026-01-09 05:49:52.90	354.09	26.75	-44.7	-45.7	15.6	0.00e+00	0	24	0	1679818752	55	4091
2026-01-09 05:49:53.90	353.79	26.79	-44.7	-45.8	15.6	0.00e+00	0	24	0	1685061632	55	4109
2026-01-09 05:49:54.89	353.49	26.84	-44.8	-45.9	15.6	0.00e+00	0	24	0	1690304512	55	4149
2026-01-09 05:49:55.89	353.19	26.88	-44.8	-45.8	15.6	0.00e+00	0	24	0	1695547392	55	4142
2026-01-09 05:49:56.88	352.89	26.92	-44.7	-45.8	15.6	0.00e+00	0	24	0	1701838848	55	4101
2026-01-09 05:49:57.88	352.59	26.96	-44.7	-45.8	15.6	0.00e+00	0	24	0	1707081728	55	4119
2026-01-09 05:49:58.87	352.29	27.00	-44.6	-45.7	15.6	0.00e+00	0	24	0	1713373184	55	4072
2026-01-09 05:49:59.86	351.99	27.04	-44.7	-45.7	15.6	0.00e+00	0	24	0	1718616064	55	4090
2026-01-09 05:50:00.85	351.69	27.08	-44.5	-45.6	15.7	0.00e+00	0	24	0	1723858944	55	4012
2026-01-09 05:50:01.85	351.38	27.12	-44.5	-45.5	15.7	0.00e+00	0	24	0	1730150400	55	4004
2026-01-09 05:50:02.84	351.08	27.15	-44.5	-45.5	15.7	0.00e+00	0	24	0	1735393280	55	3995
2026-01-09 05:50:03.83	350.78	27.19	-44.5	-45.6	15.7	0.00e+00	0	24	0	1740636160	55	4030
2026-01-09 05:50:04.83	350.47	27.22	-44.6	-45.6	15.7	0.00e+00	0	24	0	1745879040	55	4037
2026-01-09 05:50:05.82	350.17	27.26	-44.5	-45.6	15.7	0.00e+00	0	24	0	1752170496	55	4020
2026-01-09 05:50:06.82	349.86	27.29	-44.5	-45.6	15.7	0.00e+00	0	24	0	1757413376	55	4012
2026-01-09 05:50:07.81	349.55	27.32	-44.4	-45.5	15.7	0.00e+00	0	24	0	1763704832	55	3961
2026-01-09 05:50:08.80	349.25	27.35	-44.4	-45.5	15.7	0.00e+00	0	24	0	1768947712	55	3983
2026-01-09 05:50:09.80	348.94	27.38	-44.5	-45.5	15.7	0.00e+00	0	24	0	1774190592	55	3997
2026-01-09 05:50:10.78	348.63	27.41	-44.4	-45.5	15.7	0.00e+00	0	24	0	1779433472	55	3985
2026-01-09 05:50:11.78	348.32	27.44	-44.5	-45.6	15.7	0.00e+00	0	24	0	1785724928	55	4024
2026-01-09 05:50:12.77	348.01	27.47	-44.5	-45.6	15.7	0.00e+00	0	24	0	1790967808	55	4008
2026-01-09 05:50:13.76	347.70	27.49	-44.4	-45.5	15.7	0.00e+00	0	24	0	1797259264	55	3985
2026-01-09 05:50:14.76	347.39	27.52	-44.5	-45.5	15.7	0.00e+00	0	24	0	1802502144	55	3989
2026-01-09 05:50:15.75	347.08	27.55	-44.5	-45.6	15.7	0.00e+00	0	24	0	1807745024	55	4017
2026-01-09 05:50:16.74	346.77	27.57	-44.6	-45.6	15.7	0.00e+00	0	24	0	1812987904	55	4042
2026-01-09 05:50:17.73	346.46	27.59	-44.5	-45.6	15.7	0.00e+00	0	24	0	1819279360	55	4035
2026-01-09 05:50:18.71	346.15	27.61	-44.5	-45.6	15.7	0.00e+00	0	24	0	1824522240	55	4033
2026-01-09 05:50:19.71	345.83	27.64	-44.6	-45.6	15.7	0.00e+00	0	24	0	1829765120	55	4044
2026-01-09 05:50:20.71	345.52	27.66	-44.5	-45.5	15.7	0.00e+00	0	24	0	1836056576	55	3998
2026-01-09 05:50:21.70	345.20	27.68	-44.2	-45.3	15.8	0.00e+00	0	24	0	1841299456	55	3881
2026-01-09 05:50:22.69	344.89	27.69	-44.3	-45.3	15.8	0.00e+00	0	24	0	1847590912	55	3903
2026-01-09 05:50:23.69	344.57	27.71	-44.2	-45.3	15.8	0.00e+00	0	24	0	1852833792	55	3888
2026-01-09 05:50:24.68	344.26	27.73	-44.3	-45.3	15.8	0.00e+00	0	24	0	1858076672	55	3904
2026-01-09 05:50:25.68	343.94	27.74	-44.3	-45.3	15.8	0.00e+00	0	24	0	1863319552	55	3907
2026-01-09 05:50:26.68	343.62	27.76	-44.1	-45.1	15.7	0.00e+00	0	24	0	1869611008	54	4046
2026-01-09 05:50:27.67	343.31	27.77	-44.0	-45.1	15.7	0.00e+00	0	24	0	1874853888	54	4020
2026-01-09 05:50:28.66	342.99	27.78	-44.1	-45.1	15.7	0.00e+00	0	24	0	1880096768	54	4046
2026-01-09 05:50:29.65	342.68	27.80	-44.2	-45.3	15.7	0.00e+00	0	24	0	1886388224	54	4114
2026-01-09 05:50:30.65	342.36	27.81	-44.3	-45.4	15.7	0.00e+00	0	24	0	1891631104	54	4148
2026-01-09 05:50:31.65	342.04	27.82	-44.3	-45.4	15.6	0.00e+00	0	24	0	1897922560	54	4157
2026-01-09 05:50:32.65	341.72	27.83	-44.4	-45.4	15.6	0.00e+00	0	24	0	1903165440	54	4188
2026-01-09 05:50:33.64	341.40	27.83	-44.4	-45.4	15.6	0.00e+00	0	24	0	1908408320	54	4193
2026-01-09 05:50:34.64	341.08	27.84	-44.3	-45.3	15.6	0.00e+00	0	24	0	1913651200	54	4129
2026-01-09 05:50:35.63	340.77	27.85	-44.4	-45.5	15.6	0.00e+00	0	24	0	1919942656	54	4205
2026-01-09 05:50:36.63	340.45	27.85	-44.4	-45.5	15.6	0.00e+00	0	24	0	1925185536	54	4200
2026-01-09 05:50:37.61	340.13	27.86	-44.2	-45.3	15.7	0.00e+00	0	24	0	1930428416	54	4107
2026-01-09 05:50:38.61	339.81	27.86	-44.3	-45.4	15.6	0.00e+00	0	24	0	1936719872	54	4148
2026-01-09 05:50:39.60	339.50	27.86	-44.4	-45.5	15.6	0.00e+00	0	24	0	1941962752	54	4207
2026-01-09 05:50:40.59	339.18	27.86	-44.4	-45.5	15.6	0.00e+00	0	24	0	1947205632	54	4230
2026-01-09 05:50:41.58	338.86	27.86	-44.5	-45.6	15.6	0.00e+00	0	24	0	1953497088	54	4264
2026-01-09 05:50:42.57	338.54	27.86	-44.5	-45.6	15.6	0.00e+00	0	24	0	1958739968	54	4278
2026-01-09 05:50:43.56	338.23	27.86	-44.5	-45.6	15.6	0.00e+00	0	24	0	1963982848	54	4266
2026-01-09 05:50:44.54	337.91	27.86	-44.6	-45.7	15.6	0.00e+00	0	24	0	1970274304	54	4298
2026-01-09 05:50:45.54	337.59	27.85	-44.4	-45.5	15.6	0.00e+00	0	24	0	1975517184	54	4223
2026-01-09 05:50:46.54	337.27	27.85	-44.5	-45.6	15.6	0.00e+00	0	24	0	1980760064	54	4248
2026-01-09 05:50:47.53	336.96	27.84	-44.5	-45.6	15.6	0.00e+00	0	24	0	1987051520	54	4253
2026-01-09 05:50:48.52	336.64	27.83	-44.4	-45.5	15.6	0.00e+00	0	24	0	1992294400	54	4224
2026-01-09 05:50:49.52	336.32	27.83	-44.3	-45.4	15.6	0.00e+00	0	24	0	1997537280	54	4160
2026-01-09 05:50:50.51	336.01	27.82	-44.3	-45.3	15.6	0.00e+00	0	24	0	2003828736	54	4143
2026-01-09 05:50:51.50	335.69	27.81	-44.2	-45.2	15.6	0.00e+00	0	24	0	2009071616	54	4096
2026-01-09 05:50:52.49	335.37	27.80	-44.2	-45.3	15.6	0.00e+00	0	24	0	2014314496	54	4116
2026-01-09 05:50:53.49	335.05	27.78	-44.3	-45.3	15.6	0.00e+00	0	24	0	2019557376	54	4136
2026-01-09 05:50:54.48	334.74	27.77	-44.2	-45.2	15.7	0.00e+00	0	24	0	2025848832	54	4086
2026-01-09 05:50:55.46	334.43	27.76	-44.3	-45.3	15.6	0.00e+00	0	24	0	2031091712	54	4139
2026-01-09 05:50:56.45	334.11	27.74	-44.3	-45.3	15.6	0.00e+00	0	24	0	2037383168	54	4139
2026-01-09 05:50:57.44	333.80	27.73	-44.3	-45.3	15.6	0.00e+00	0	24	0	2042626048	54	4138
2026-01-09 05:50:58.44	333.48	27.71	-44.4	-45.5	15.6	0.00e+00	0	24	0	2047868928	54	4195
2026-01-09 05:50:59.42	333.17	27.69	-44.5	-45.5	15.6	0.00e+00	0	24	0	2053111808	54	4235
2026-01-09 05:51:00.41	332.86	27.68	-44.4	-45.5	15.6	0.00e+00	0	24	0	2059403264	54	4212
2026-01-09 05:51:01.41	332.54	27.66	-44.4	-45.4	15.6	0.00e+00	0	24	0	2064646144	54	4191
2026-01-09 05:51:02.40	332.23	27.64	-44.4	-45.4	15.6	0.00e+00	0	24	0	2069889024	54	4174
2026-01-09 05:51:03.40	331.91	27.62	-44.4	-45.5	15.6	0.00e+00	0	24	0	2076180480	54	4203
2026-01-09 05:51:04.39	331.60	27.59	-44.5	-45.5	15.6	0.00e+00	0	24	0	2081423360	54	4238
2026-01-09 05:51:05.38	331.29	27.57	-44.5	-45.5	15.6	0.00e+00	0	24	0	2086666240	54	4241
2026-01-09 05:51:06.38	330.97	27.55	-44.4	-45.5	15.6	0.00e+00	0	24	0	2092957696	54	4223
2026-01-09 05:51:07.37	330.66	27.52	-44.5	-45.5	15.6	0.00e+00	0	24	0	2098200576	54	4235
2026-01-09 05:51:08.37	330.35	27.50	-44.3	-45.4	15.6	0.00e+00	0	24	0	2103443456	54	4170
2026-01-09 05:51:09.36	330.04	27.47	-44.4	-45.4	15.6	0.00e+00	0	24	0	2109734912	54	4177
2026-01-09 05:51:10.34	329.73	27.44	-44.4	-45.4	15.6	0.00e+00	0	24	0	2114977792	54	4182
2026-01-09 05:51:11.33	329.43	27.41	-44.3	-45.4	15.6	0.00e+00	0	24	0	2120220672	54	4160
2026-01-09 05:51:12.33	329.11	27.38	-44.5	-45.5	15.6	0.00e+00	0	24	0	2126512128	54	4229
2026-01-09 05:51:13.33	328.80	27.35	-44.5	-45.5	15.6	0.00e+00	0	24	0	2131755008	54	4233
2026-01-09 05:51:14.33	328.49	27.32	-44.5	-45.6	15.6	0.00e+00	0	24	0	2136997888	54	4256
2026-01-09 05:51:15.33	328.19	27.29	-44.5	-45.6	15.6	0.00e+00	0	24	0	2143289344	54	4274
2026-01-09 05:51:16.33	327.88	27.26	-44.4	-45.5	15.6	0.00e+00	0	24	0	2148532224	54	4215
2026-01-09 05:51:17.33	327.57	27.22	-44.4	-45.5	15.6	0.00e+00	0	24	0	2153775104	54	4209
2026-01-09 05:51:18.32	327.26	27.19	-44.4	-45.4	15.6	0.00e+00	0	24	0	2160066560	54	4188
2026-01-09 05:51:19.32	326.96	27.15	-44.3	-45.3	15.6	0.00e+00	0	24	0	2165309440	54	4140
2026-01-09 05:51:20.32	326.65	27.11	-44.4	-45.4	15.6	0.00e+00	0	24	0	2171600896	54	4179
2026-01-09 05:51:21.31	326.35	27.08	-44.5	-45.5	15.6	0.00e+00	0	24	0	2176843776	54	4229
2026-01-09 05:51:22.31	326.05	27.04	-44.3	-45.3	15.6	0.00e+00	0	24	0	2182086656	54	4133
2026-01-09 05:51:23.31	325.74	27.00	-44.2	-45.3	15.7	0.00e+00	0	24	0	2188378112	54	4104
2026-01-09 05:51:24.31	325.44	26.96	-44.3	-45.4	15.7	0.00e+00	0	24	0	2193620992	54	4150
2026-01-09 05:51:25.31	325.14	26.92	-44.3	-45.3	15.6	0.00e+00	0	24	0	2198863872	54	4145
2026-01-09 05:51:26.31	324.84	26.88	-44.4	-45.4	15.6	0.00e+00	0	24	0	2205155328	54	4188
2026-01-09 05:51:27.31	324.53	26.83	-44.4	-45.5	15.6	0.00e+00	0	24	0	2210398208	54	4202
2026-01-09 05:51:28.31	324.23	26.79	-44.3	-45.4	15.6	0.00e+00	0	24	0	2215641088	54	4147
2026-01-09 05:51:29.31	323.94	26.75	-44.2	-45.3	15.7	0.00e+00	0	24	0	2221932544	54	4106
2026-01-09 05:51:30.31	323.64	26.70	-44.2	-45.3	15.6	0.00e+00	0	24	0	2227175424	54	4124
2026-01-09 05:51:31.31	323.34	26.66	-44.2	-45.2	15.7	0.00e+00	0	24	0	2233466880	54	4080
2026-01-09 05:51:32.31	323.04	26.61	-44.2	-45.2	15.7	0.00e+00	0	24	0	2238709760	54	4095
2026-01-09 05:51:33.31	322.75	26.56	-44.3	-45.4	15.6	0.00e+00	0	24	0	2243952640	54	4150
2026-01-09 05:51:34.30	322.46	26.51	-44.3	-45.3	15.6	0.00e+00	0	24	0	2250244096	54	4117
2026-01-09 05:51:35.30	322.16	26.47	-44.4	-45.4	15.6	0.00e+00	0	24	0	2255486976	54	4177
2026-01-09 05:51:36.30	321.87	26.42	-44.5	-45.5	15.6	0.00e+00	0	24	0	2260729856	54	4228
2026-01-09 05:51:37.31	321.58	26.37	-44.5	-45.6	15.6	0.00e+00	0	24	0	2267021312	54	4270
2026-01-09 05:51:38.30	321.29	26.32	-44.5	-45.6	15.6	0.00e+00	0	24	0	2272264192	54	4261
2026-01-09 05:51:39.30	321.00	26.26	-44.6	-45.7	15.6	0.00e+00	0	24	0	2277507072	54	4295
2026-01-09 05:51:40.29	320.71	26.21	-44.7	-45.8	15.5	0.00e+00	0	24	0	2283798528	54	4360
2026-01-09 05:51:41.28	320.43	26.16	-44.6	-45.7	15.6	0.00e+00	0	24	0	2289041408	54	4302
2026-01-09 05:51:42.27	320.14	26.11	-44.5	-45.5	15.6	0.00e+00	0	24	0	2294284288	54	4236
2026-01-09 05:51:43.27	319.86	26.05	-44.5	-45.5	15.6	0.00e+00	0	24	0	2300575744	54	4226
2026-01-09 05:51:44.25	319.58	26.00	-44.4	-45.5	15.6	0.00e+00	0	24	0	2305818624	54	4215
2026-01-09 05:51:45.26	319.29	25.94	-44.4	-45.5	15.6	0.00e+00	0	24	0	2311061504	54	4218
2026-01-09 05:51:46.25	319.01	25.89	-44.4	-45.5	15.6	0.00e+00	0	24	0	2317352960	54	4218
2026-01-09 05:51:47.24	318.73	25.83	-44.4	-45.4	15.6	0.00e+00	0	24	0	2322595840	54	4184
2026-01-09 05:51:48.24	318.45	25.77	-44.4	-45.5	15.6	0.00e+00	0	24	0	2327838720	54	4195
2026-01-09 05:51:49.23	318.17	25.71	-44.3	-45.4	15.6	0.00e+00	0	24	0	2334130176	54	4154
2026-01-09 05:51:50.23	317.89	25.66	-44.4	-45.4	15.6	0.00e+00	0	24	0	2339373056	54	4186
2026-01-09 05:51:51.22	317.62	25.60	-44.4	-45.5	15.6	0.00e+00	0	24	0	2344615936	54	4199
2026-01-09 05:51:52.21	317.34	25.54	-44.6	-45.7	15.6	0.00e+00	0	24	0	2350907392	54	4300
2026-01-09 05:51:53.20	317.07	25.48	-44.7	-45.8	15.5	0.00e+00	0	24	0	2356150272	54	4359
2026-01-09 05:51:54.20	316.79	25.42	-44.6	-45.7	15.6	0.00e+00	0	24	0	2361393152	54	4314
2026-01-09 05:51:55.20	316.52	25.35	-44.6	-45.7	15.6	0.00e+00	0	24	0	2367684608	54	4304
2026-01-09 05:51:56.19	316.25	25.29	-44.7	-45.8	15.5	0.00e+00	0	24	0	2372927488	54	4345
2026-01-09 05:51:57.19	315.98	25.23	-44.5	-45.6	15.6	0.00e+00	0	24	0	2378170368	54	4254
2026-01-09 05:51:58.20	315.70	25.16	-44.5	-45.5	15.6	0.00e+00	0	24	0	2384461824	54	4230
2026-01-09 05:51:59.20	315.43	25.10	-44.6	-45.6	15.6	0.00e+00	0	24	0	2389704704	54	4279
2026-01-09 05:52:00.20	315.17	25.04	-44.6	-45.7	15.6	0.00e+00	0	24	0	2395996160	54	4293
2026-01-09 05:52:01.19	314.90	24.97	-44.6	-45.6	15.6	0.00e+00	0	24	0	2401239040	54	4286
2026-01-09 05:52:02.19	314.64	24.91	-44.6	-45.7	15.6	0.00e+00	0	24	0	2406481920	54	4321
2026-01-09 05:52:03.20	314.37	24.84	-44.8	-45.8	15.5	0.00e+00	0	24	0	2412773376	54	4390
2026-01-09 05:52:04.19	314.11	24.77	-44.8	-45.9	15.5	0.00e+00	0	24	0	2418016256	54	4432
2026-01-09 05:52:05.18	313.85	24.71	-44.9	-46.0	15.5	0.00e+00	0	24	0	2423259136	54	4455
2026-01-09 05:52:06.18	313.58	24.64	-45.0	-46.0	15.6	0.00e+00	0	24	0	2428502016	55	4235
2026-01-09 05:52:07.17	313.33	24.57	-45.0	-46.1	15.5	0.00e+00	0	24	0	2434793472	55	4261
2026-01-09 05:52:08.16	313.07	24.50	-45.0	-46.1	15.5	0.00e+00	0	24	0	2440036352	55	4271
2026-01-09 05:52:09.16	312.81	24.43	-45.0	-46.1	15.5	0.00e+00	0	24	0	2446327808	55	4269
2026-01-09 05:52:10.15	312.56	24.37	-45.0	-46.1	15.5	0.00e+00	0	24	0	2451570688	55	4261
2026-01-09 05:52:11.14	312.30	24.30	-44.9	-46.0	15.6	0.00e+00	0	24	0	2456813568	55	4210
2026-01-09 05:52:12.14	312.05	24.23	-44.9	-46.0	15.6	0.00e+00	0	24	0	2462056448	55	4195
2026-01-09 05:52:13.15	311.79	24.15	-45.0	-46.1	15.6	0.00e+00	0	24	0	2468347904	55	4244
2026-01-09 05:52:14.15	311.54	24.08	-45.0	-46.1	15.5	0.00e+00	0	24	0	2473590784	55	4265
2026-01-09 05:52:15.14	311.29	24.01	-44.8	-45.9	15.6	0.00e+00	0	24	0	2479882240	55	4178
2026-01-09 05:52:16.14	311.04	23.94	-44.8	-45.9	15.6	0.00e+00	0	24	0	2485125120	55	4159
2026-01-09 05:52:17.15	310.79	23.87	-44.9	-46.0	15.6	0.00e+00	0	24	0	2490368000	55	4214
2026-01-09 05:52:18.15	310.54	23.79	-44.8	-45.9	15.6	0.00e+00	0	24	0	2496659456	55	4178
2026-01-09 05:52:19.14	310.30	23.72	-44.8	-45.9	15.6	0.00e+00	0	24	0	2501902336	55	4182
2026-01-09 05:52:20.14	310.05	23.65	-44.7	-45.8	15.6	0.00e+00	0	24	0	2507145216	55	4136
2026-01-09 05:52:21.14	309.81	23.57	-44.7	-45.7	15.6	0.00e+00	0	24	0	2513436672	55	4087
2026-01-09 05:52:22.13	309.57	23.50	-44.6	-45.7	15.7	0.00e+00	0	24	0	2518679552	55	4072
2026-01-09 05:52:23.13	309.32	23.43	-44.7	-45.7	15.6	0.00e+00	0	24	0	2523922432	55	4095
2026-01-09 05:52:24.13	309.08	23.35	-44.7	-45.8	15.6	0.00e+00	0	24	0	2530213888	55	4121
2026-01-09 05:52:25.13	308.84	23.28	-44.8	-45.9	15.6	0.00e+00	0	24	0	2535456768	55	4175
2026-01-09 05:52:26.13	308.60	23.20	-44.8	-45.9	15.6	0.00e+00	0	24	0	2540699648	55	4182
2026-01-09 05:52:27.12	308.37	23.13	-44.9	-45.9	15.6	0.00e+00	0	24	0	2546991104	55	4189
2026-01-09 05:52:28.12	308.13	23.05	-44.8	-45.9	15.6	0.00e+00	0	24	0	2552233984	55	4148
2026-01-09 05:52:29.11	307.90	22.97	-44.9	-46.0	15.6	0.00e+00	0	24	0	2558525440	55	4239
2026-01-09 05:52:30.11	307.67	22.90	-45.0	-46.1	15.6	0.00e+00	0	24	0	2563768320	55	4266
2026-01-09 05:52:31.10	307.44	22.82	-45.1	-46.2	15.5	0.00e+00	0	24	0	2569011200	55	4320
2026-01-09 05:52:32.10	307.20	22.74	-45.1	-46.2	15.5	0.00e+00	0	24	0	2575302656	55	4293
2026-01-09 05:52:33.10	306.97	22.67	-45.0	-46.1	15.6	0.00e+00	0	24	0	2580545536	55	4270
2026-01-09 05:52:34.10	306.74	22.59	-44.9	-46.0	15.6	0.00e+00	0	24	0	2585788416	55	4211
2026-01-09 05:52:35.09	306.52	22.51	-45.0	-46.0	15.6	0.00e+00	0	24	0	2591031296	55	4233
2026-01-09 05:52:36.09	306.29	22.43	-45.0	-46.1	15.5	0.00e+00	0	24	0	2597322752	55	4276
2026-01-09 05:52:37.09	306.06	22.35	-45.1	-46.2	15.5	0.00e+00	0	24	0	2602565632	55	4306
2026-01-09 05:52:38.09	305.84	22.27	-45.2	-46.3	15.5	0.00e+00	0	24	0	2608857088	55	4348
2026-01-09 05:52:39.09	305.62	22.20	-45.1	-46.2	15.5	0.00e+00	0	24	0	2614099968	55	4309
2026-01-09 05:52:40.08	305.40	22.12	-45.2	-46.3	15.5	0.00e+00	0	24	0	2619342848	55	4362
2026-01-09 05:52:41.08	305.17	22.04	-45.2	-46.3	15.5	0.00e+00	0	24	0	2625634304	55	4353
2026-01-09 05:52:42.08	304.95	21.96	-45.3	-46.4	15.5	0.00e+00	0	24	0	2630877184	55	4402
2026-01-09 05:52:43.08	304.73	21.88	-45.4	-46.5	15.4	0.00e+00	0	24	0	2636120064	55	4458
2026-01-09 05:52:44.09	304.51	21.80	-45.5	-46.6	15.5	0.00e+00	0	24	0	2642411520	56	4263
2026-01-09 05:52:45.07	304.30	21.72	-45.5	-46.6	15.5	0.00e+00	0	24	0	2647654400	56	4270
2026-01-09 05:52:46.07	304.09	21.64	-45.5	-46.6	15.5	0.00e+00	0	24	0	2652897280	56	4285
2026-01-09 05:52:47.05	303.88	21.56	-45.5	-46.6	15.5	0.00e+00	0	24	0	2659188736	56	4264
2026-01-09 05:52:48.04	303.66	21.48	-45.7	-46.8	15.5	0.00e+00	0	24	0	2664431616	56	4349
2026-01-09 05:52:49.04	303.45	21.40	-45.7	-46.9	15.4	0.00e+00	0	24	0	2669674496	56	4396
2026-01-09 05:52:50.03	303.24	21.32	-45.8	-46.9	15.4	0.00e+00	0	24	0	2675965952	56	4440
2026-01-09 05:52:51.03	303.03	21.24	-45.8	-47.0	15.4	0.00e+00	0	24	0	2681208832	56	4451
2026-01-09 05:52:52.03	302.82	21.15	-45.9	-47.0	15.5	0.00e+00	0	24	0	2686451712	57	4231
2026-01-09 05:52:53.02	302.62	21.07	-45.8	-46.9	15.5	0.00e+00	0	24	0	2692743168	57	4185
2026-01-09 05:52:54.02	302.41	20.99	-45.8	-46.9	15.5	0.00e+00	0	24	0	2697986048	57	4185
2026-01-09 05:52:55.02	302.21	20.91	-45.8	-46.9	15.5	0.00e+00	0	24	0	2704277504	57	4192
2026-01-09 05:52:56.02	302.00	20.83	-45.8	-46.9	15.5	0.00e+00	0	24	0	2709520384	57	4170
2026-01-09 05:52:57.02	301.80	20.75	-45.9	-47.0	15.5	0.00e+00	0	24	0	2714763264	57	4224
2026-01-09 05:52:58.01	301.60	20.67	-45.9	-47.0	15.5	0.00e+00	0	24	0	2721054720	57	4215
2026-01-09 05:52:59.02	301.39	20.58	-45.9	-47.1	15.5	0.00e+00	0	24	0	2726297600	57	4247
2026-01-09 05:53:00.01	301.20	20.50	-45.9	-47.0	15.5	0.00e+00	0	24	0	2731540480	57	4235
2026-01-09 05:53:01.01	301.00	20.42	-45.8	-46.9	15.5	0.00e+00	0	24	0	2737831936	57	4193
2026-01-09 05:53:02.00	300.80	20.34	-45.9	-47.0	15.5	0.00e+00	0	24	0	2743074816	57	4238
2026-01-09 05:53:03.00	300.60	20.25	-46.0	-47.1	15.5	0.00e+00	0	24	0	2748317696	57	4267
2026-01-09 05:53:04.00	300.41	20.17	-46.0	-47.1	15.5	0.00e+00	0	24	0	2754609152	57	4291
2026-01-09 05:53:05.00	300.21	20.09	-45.8	-46.9	15.5	0.00e+00	0	24	0	2759852032	57	4176
2026-01-09 05:53:06.00	300.02	20.00	-45.7	-46.8	15.5	0.00e+00	0	24	0	2766143488	57	4140
2026-01-09 05:53:06.99	299.83	19.92	-45.7	-46.8	15.5	0.00e+00	0	24	0	2771386368	57	4127
2026-01-09 05:53:07.98	299.64	19.84	-45.8	-46.9	15.5	0.00e+00	0	24	0	2776629248	57	4147
2026-01-09 05:53:08.98	299.45	19.76	-45.8	-46.9	15.5	0.00e+00	0	24	0	2781872128	57	4191
2026-01-09 05:53:09.98	299.26	19.67	-45.8	-46.9	15.5	0.00e+00	0	24	0	2788163584	57	4178
2026-01-09 05:53:10.98	299.07	19.59	-45.9	-47.0	15.5	0.00e+00	0	24	0	2793406464	57	4230
2026-01-09 05:53:11.97	298.88	19.51	-46.0	-47.1	15.4	0.00e+00	0	24	0	2798649344	57	4289
2026-01-09 05:53:12.97	298.70	19.43	-46.1	-47.2	15.4	0.00e+00	0	24	0	2804940800	57	4309
2026-01-09 05:53:13.97	298.51	19.34	-46.0	-47.1	15.4	0.00e+00	0	24	0	2810183680	57	4272
2026-01-09 05:53:14.97	298.33	19.26	-46.1	-47.3	15.4	0.00e+00	0	24	0	2816475136	57	4345
2026-01-09 05:53:15.97	298.14	19.17	-46.1	-47.2	15.4	0.00e+00	0	24	0	2821718016	57	4340
2026-01-09 05:53:16.98	297.96	19.09	-46.0	-47.1	15.4	0.00e+00	0	24	0	2826960896	57	4284
2026-01-09 05:53:17.97	297.78	19.01	-46.0	-47.1	15.4	0.00e+00	0	24	0	2833252352	57	4280
2026-01-09 05:53:18.97	297.60	18.92	-45.9	-47.0	15.5	0.00e+00	0	24	0	2838495232	57	4223
2026-01-09 05:53:19.97	297.42	18.84	-45.8	-46.9	15.5	0.00e+00	0	24	0	2843738112	57	4190
2026-01-09 05:53:20.96	297.24	18.76	-45.8	-46.9	15.5	0.00e+00	0	24	0	2850029568	57	4167
2026-01-09 05:53:21.96	297.07	18.67	-45.9	-47.0	15.5	0.00e+00	0	24	0	2855272448	57	4202
2026-01-09 05:53:22.96	296.89	18.59	-45.8	-47.0	15.5	0.00e+00	0	24	0	2860515328	57	4207
2026-01-09 05:53:23.96	296.71	18.51	-45.9	-47.0	15.5	0.00e+00	0	24	0	2866806784	57	4235
2026-01-09 05:53:24.95	296.54	18.42	-46.0	-47.2	15.4	0.00e+00	0	24	0	2872049664	57	4304
2026-01-09 05:53:25.95	296.37	18.34	-46.1	-47.2	15.4	0.00e+00	0	24	0	2878341120	57	4327
2026-01-09 05:53:26.94	296.20	18.26	-46.1	-47.3	15.4	0.00e+00	0	24	0	2883584000	57	4361
2026-01-09 05:53:27.94	296.03	18.18	-46.2	-47.4	15.4	0.00e+00	0	24	0	2888826880	57	4415
2026-01-09 05:53:28.94	295.86	18.09	-46.2	-47.3	15.4	0.00e+00	0	24	0	2895118336	57	4377
2026-01-09 05:53:29.95	295.68	18.01	-46.3	-47.5	15.3	0.00e+00	0	24	0	2900361216	57	4449
2026-01-09 05:53:30.94	295.52	17.92	-46.5	-47.6	15.4	0.00e+00	0	24	0	2905604096	58	4276
2026-01-09 05:53:31.94	295.35	17.84	-46.4	-47.5	15.4	0.00e+00	0	24	0	2911895552	58	4237
2026-01-09 05:53:32.94	295.18	17.76	-46.5	-47.7	15.4	0.00e+00	0	24	0	2917138432	58	4299
2026-01-09 05:53:33.94	295.02	17.67	-46.5	-47.6	15.4	0.00e+00	0	24	0	2922381312	58	4277
2026-01-09 05:53:34.93	294.85	17.59	-46.5	-47.7	15.4	0.00e+00	0	24	0	2928672768	58	4298
2026-01-09 05:53:35.93	294.69	17.51	-46.6	-47.8	15.3	0.00e+00	0	24	0	2933915648	58	4353
2026-01-09 05:53:36.92	294.53	17.43	-46.6	-47.8	15.3	0.00e+00	0	24	0	2939158528	58	4347
2026-01-09 05:53:37.92	294.36	17.34	-46.7	-47.9	15.3	0.00e+00	0	24	0	2945449984	58	4393
2026-01-09 05:53:38.92	294.20	17.26	-46.6	-47.8	15.3	0.00e+00	0	24	0	2950692864	58	4360
2026-01-09 05:53:39.91	294.04	17.18	-46.7	-47.9	15.3	0.00e+00	0	24	0	2955935744	58	4413
2026-01-09 05:53:40.90	293.89	17.10	-46.8	-48.0	15.3	0.00e+00	0	24	0	2962227200	58	4455
2026-01-09 05:53:41.90	293.73	17.01	-46.8	-48.0	15.3	0.00e+00	0	24	0	2967470080	58	4463
2026-01-09 05:53:42.89	293.57	16.93	-46.8	-48.0	15.3	0.00e+00	0	24	0	2972712960	58	4470
2026-01-09 05:53:43.89	293.41	16.85	-46.9	-48.0	15.3	0.00e+00	0	24	0	2979004416	58	4487
2026-01-09 05:53:44.88	293.26	16.77	-46.8	-48.0	15.3	0.00e+00	0	24	0	2984247296	58	4459
2026-01-09 05:53:45.87	293.11	16.68	-46.8	-48.0	15.3	0.00e+00	0	24	0	2989490176	58	4442
2026-01-09 05:53:46.86	292.95	16.60	-46.7	-47.9	15.3	0.00e+00	0	24	0	2995781632	58	4417
2026-01-09 05:53:47.85	292.80	16.52	-46.7	-47.9	15.3	0.00e+00	0	24	0	3001024512	58	4408
2026-01-09 05:53:48.85	292.65	16.44	-46.8	-47.9	15.3	0.00e+00	0	24	0	3006267392	58	4424
2026-01-09 05:53:49.84	292.50	16.36	-46.7	-47.9	15.3	0.00e+00	0	24	0	3012558848	58	4422
2026-01-09 05:53:50.84	292.35	16.27	-46.8	-48.0	15.3	0.00e+00	0	24	0	3017801728	58	4464
2026-01-09 05:53:51.84	292.20	16.19	-46.9	-48.0	15.3	0.00e+00	0	24	0	3023044608	58	4487
2026-01-09 05:53:52.83	292.05	16.11	-46.8	-48.0	15.2	0.00e+00	0	24	0	3029336064	58	4485
2026-01-09 05:53:53.83	291.90	16.03	-46.8	-48.0	15.3	0.00e+00	0	24	0	3034578944	58	4458
2026-01-09 05:53:54.82	291.76	15.95	-46.8	-48.0	15.3	0.00e+00	0	24	0	3039821824	58	4458
2026-01-09 05:53:55.82	291.61	15.86	-46.9	-48.1	15.2	0.00e+00	0	24	0	3046113280	58	4523
2026-01-09 05:53:56.82	291.46	15.78	-46.8	-48.0	15.4	0.00e+00	0	24	0	3051356160	59	4229
2026-01-09 05:53:57.82	291.32	15.70	-46.9	-48.1	15.3	0.00e+00	0	24	0	3056599040	59	4270
2026-01-09 05:53:58.82	291.17	15.62	-46.9	-48.1	15.3	0.00e+00	0	24	0	3062890496	59	4270
2026-01-09 05:53:59.82	291.03	15.54	-47.0	-48.2	15.3	0.00e+00	0	24	0	3068133376	59	4336
2026-01-09 05:54:00.82	290.89	15.45	-47.0	-48.2	15.3	0.00e+00	0	24	0	3073376256	59	4325
2026-01-09 05:54:01.82	290.74	15.37	-47.1	-48.2	15.2	0.00e+00	0	24	0	3079667712	59	4340
2026-01-09 05:54:02.82	290.60	15.29	-47.1	-48.3	15.3	0.00e+00	0	24	0	3084910592	59	4349
2026-01-09 05:54:03.81	290.46	15.21	-47.1	-48.3	15.2	0.00e+00	0	24	0	3091202048	59	4378
2026-01-09 05:54:04.81	290.32	15.13	-47.1	-48.3	15.2	0.00e+00	0	24	0	3096444928	59	4390
2026-01-09 05:54:05.81	290.19	15.05	-47.2	-48.4	15.2	0.00e+00	0	24	0	3101687808	59	4421
2026-01-09 05:54:06.81	290.05	14.97	-47.2	-48.4	15.2	0.00e+00	0	24	0	3107979264	59	4421
2026-01-09 05:54:07.81	289.91	14.89	-47.2	-48.4	15.2	0.00e+00	0	24	0	3113222144	59	4393
2026-01-09 05:54:08.81	289.77	14.81	-47.2	-48.4	15.2	0.00e+00	0	24	0	3118465024	59	4415
2026-01-09 05:54:09.81	289.64	14.72	-47.2	-48.4	15.2	0.00e+00	0	24	0	3124756480	59	4410
2026-01-09 05:54:10.80	289.50	14.65	-47.2	-48.4	15.2	0.00e+00	0	24	0	3129999360	59	4422
2026-01-09 05:54:11.80	289.37	14.56	-47.2	-48.4	15.2	0.00e+00	0	24	0	3135242240	59	4437
2026-01-09 05:54:12.79	289.24	14.48	-47.3	-48.5	15.1	0.00e+00	0	24	0	3141533696	59	4491
2026-01-09 05:54:13.78	289.11	14.41	-47.4	-48.6	15.1	0.00e+00	0	24	0	3146776576	59	4529
2026-01-09 05:54:14.78	288.97	14.33	-47.2	-48.4	15.3	0.00e+00	0	24	0	3152019456	60	4184
2026-01-09 05:54:15.78	288.84	14.25	-47.2	-48.4	15.3	0.00e+00	0	24	0	3158310912	60	4176
2026-01-09 05:54:16.78	288.71	14.17	-47.2	-48.4	15.3	0.00e+00	0	24	0	3163553792	60	4184
2026-01-09 05:54:17.78	288.58	14.09	-47.3	-48.5	15.2	0.00e+00	0	24	0	3168796672	60	4231
2026-01-09 05:54:18.78	288.45	14.01	-47.3	-48.5	15.2	0.00e+00	0	24	0	3175088128	60	4199
2026-01-09 05:54:19.78	288.32	13.93	-47.2	-48.4	15.2	0.00e+00	0	24	0	3180331008	60	4183
2026-01-09 05:54:20.78	288.20	13.85	-47.2	-48.4	15.3	0.00e+00	0	24	0	3186622464	60	4151
2026-01-09 05:54:21.77	288.07	13.77	-47.3	-48.5	15.2	0.00e+00	0	24	0	3191865344	60	4219
2026-01-09 05:54:22.76	287.94	13.69	-47.2	-48.4	15.3	0.00e+00	0	24	0	3197108224	60	4150
2026-01-09 05:54:23.76	287.82	13.61	-47.1	-48.3	15.3	0.00e+00	0	24	0	3203399680	60	4122
2026-01-09 05:54:24.76	287.69	13.53	-47.2	-48.4	15.3	0.00e+00	0	24	0	3208642560	60	4178
2026-01-09 05:54:25.76	287.57	13.45	-47.2	-48.4	15.2	0.00e+00	0	24	0	3213885440	60	4185
2026-01-09 05:54:26.76	287.45	13.37	-47.1	-48.3	15.3	0.00e+00	0	24	0	3220176896	60	4122
2026-01-09 05:54:27.77	287.32	13.29	-47.2	-48.4	15.3	0.00e+00	0	24	0	3225419776	60	4171
2026-01-09 05:54:28.76	287.20	13.22	-47.2	-48.4	15.3	0.00e+00	0	24	0	3230662656	60	4164
2026-01-09 05:54:29.75	287.08	13.14	-47.2	-48.4	15.3	0.00e+00	0	24	0	3236954112	60	4159
2026-01-09 05:54:30.74	286.96	13.06	-47.2	-48.4	15.3	0.00e+00	0	24	0	3242196992	60	4174
2026-01-09 05:54:31.75	286.84	12.98	-47.2	-48.4	15.3	0.00e+00	0	24	0	3248488448	60	4159
2026-01-09 05:54:32.75	286.72	12.90	-47.2	-48.4	15.3	0.00e+00	0	24	0	3253731328	60	4152
2026-01-09 05:54:33.76	286.60	12.82	-47.2	-48.4	15.2	0.00e+00	0	24	0	3258974208	60	4179
2026-01-09 05:54:34.76	286.48	12.75	-47.3	-48.5	15.2	0.00e+00	0	24	0	3265265664	60	4210
2026-01-09 05:54:35.77	286.36	12.67	-47.2	-48.4	15.2	0.00e+00	0	24	0	3270508544	60	4168
2026-01-09 05:54:36.76	286.24	12.59	-47.4	-48.6	15.2	0.00e+00	0	24	0	3275751424	60	4265
2026-01-09 05:54:37.76	286.13	12.51	-47.4	-48.6	15.1	0.00e+00	0	24	0	3282042880	60	4276
2026-01-09 05:54:38.76	286.01	12.44	-47.3	-48.5	15.2	0.00e+00	0	24	0	3287285760	60	4241
2026-01-09 05:54:39.74	285.90	12.36	-47.4	-48.6	15.2	0.00e+00	0	24	0	3292528640	60	4265
2026-01-09 05:54:40.75	285.78	12.28	-47.5	-48.8	15.1	0.00e+00	0	24	0	3298820096	60	4348
2026-01-09 05:54:41.74	285.67	12.21	-47.5	-48.8	15.1	0.00e+00	0	24	0	3304062976	60	4359
2026-01-09 05:54:42.74	285.56	12.13	-47.5	-48.7	15.1	0.00e+00	0	24	0	3309305856	60	4313
2026-01-09 05:54:43.75	285.44	12.05	-47.6	-48.8	15.1	0.00e+00	0	24	0	3315597312	60	4382
2026-01-09 05:54:44.74	285.33	11.98	-47.6	-48.8	15.0	0.00e+00	0	24	0	3320840192	60	4391
2026-01-09 05:54:45.74	285.22	11.90	-47.6	-48.8	15.1	0.00e+00	0	24	0	3327131648	60	4383
2026-01-09 05:54:46.74	285.11	11.82	-47.6	-48.9	15.0	0.00e+00	0	24	0	3332374528	60	4410
2026-01-09 05:54:47.74	285.00	11.75	-47.6	-48.8	15.1	0.00e+00	0	24	0	3337617408	60	4362
2026-01-09 05:54:48.74	284.89	11.67	-47.7	-48.9	15.0	0.00e+00	0	24	0	3342860288	60	4419
2026-01-09 05:54:49.73	284.78	11.60	-47.7	-48.9	15.0	0.00e+00	0	24	0	3349151744	60	4424
2026-01-09 05:54:50.72	284.67	11.52	-47.7	-48.9	15.0	0.00e+00	0	24	0	3354394624	60	4435
2026-01-09 05:54:51.72	284.56	11.45	-47.7	-49.0	15.0	0.00e+00	0	24	0	3360686080	60	4478
2026-01-09 05:54:52.72	284.46	11.37	-47.8	-49.1	15.0	0.00e+00	0	24	0	3365928960	60	4500
2026-01-09 05:54:53.72	284.35	11.30	-47.8	-49.1	15.0	0.00e+00	0	24	0	3371171840	60	4497
2026-01-09 05:54:54.71	284.24	11.22	-47.9	-49.2	14.9	0.00e+00	0	24	0	3377463296	60	4547
2026-01-09 05:54:55.71	284.14	11.15	-47.9	-49.1	14.9	0.00e+00	0	24	0	3382706176	60	4536
2026-01-09 05:54:56.71	284.03	11.07	-47.9	-49.2	14.9	0.00e+00	0	24	0	3387949056	60	4551
2026-01-09 05:54:57.71	283.93	11.00	-47.8	-49.1	15.0	0.00e+00	0	24	0	3394240512	61	4279
2026-01-09 05:54:58.71	283.82	10.92	-47.9	-49.2	15.0	0.00e+00	0	24	0	3399483392	61	4323
2026-01-09 05:54:59.71	283.72	10.85	-47.9	-49.2	15.0	0.00e+00	0	24	0	3404726272	61	4299
2026-01-09 05:55:00.68	283.62	10.77	-47.9	-49.2	15.0	0.00e+00	0	24	0	3411017728	61	4318
2026-01-09 05:55:01.68	283.52	10.70	-47.9	-49.2	15.0	0.00e+00	0	24	0	3416260608	61	4307
2026-01-09 05:55:02.67	283.41	10.63	-48.0	-49.2	15.0	0.00e+00	0	24	0	3421503488	61	4332
2026-01-09 05:55:03.67	283.31	10.55	-47.9	-49.1	15.0	0.00e+00	0	24	0	3427794944	61	4291
2026-01-09 05:55:04.66	283.21	10.48	-48.0	-49.3	14.9	0.00e+00	0	24	0	3433037824	61	4380
2026-01-09 05:55:05.66	283.11	10.41	-48.0	-49.2	15.0	0.00e+00	0	24	0	3438280704	61	4338
2026-01-09 05:55:06.66	283.01	10.33	-47.9	-49.1	15.0	0.00e+00	0	24	0	3444572160	61	4283
2026-01-09 05:55:07.66	282.91	10.26	-48.0	-49.2	15.0	0.00e+00	0	24	0	3449815040	61	4339
2026-01-09 05:55:08.65	282.81	10.19	-48.0	-49.3	14.9	0.00e+00	0	24	0	3455057920	61	4382
2026-01-09 05:55:09.65	282.72	10.11	-48.1	-49.4	14.9	0.00e+00	0	24	0	3461349376	61	4395
2026-01-09 05:55:10.64	282.62	10.04	-48.2	-49.5	14.9	0.00e+00	0	24	0	3466592256	61	4457
2026-01-09 05:55:11.64	282.52	9.97	-48.2	-49.5	14.8	0.00e+00	0	24	0	3471835136	61	4482
2026-01-09 05:55:12.64	282.42	9.89	-48.2	-49.5	14.9	0.00e+00	0	24	0	3478126592	61	4450
2026-01-09 05:55:13.65	282.33	9.82	-48.1	-49.5	14.9	0.00e+00	0	24	0	3483369472	61	4444
2026-01-09 05:55:14.65	282.23	9.75	-48.2	-49.5	14.8	0.00e+00	0	24	0	3489660928	61	4486
2026-01-09 05:55:15.65	282.14	9.68	-48.2	-49.5	14.8	0.00e+00	0	24	0	3494903808	61	4473
2026-01-09 05:55:16.65	282.04	9.60	-48.2	-49.5	14.9	0.00e+00	0	24	0	3500146688	61	4464
2026-01-09 05:55:17.65	281.95	9.53	-48.1	-49.4	14.9	0.00e+00	0	24	0	3506438144	61	4432
2026-01-09 05:55:18.66	281.85	9.46	-48.1	-49.4	14.9	0.00e+00	0	24	0	3511681024	61	4406
2026-01-09 05:55:19.66	281.76	9.39	-48.0	-49.3	14.9	0.00e+00	0	24	0	3516923904	61	4389
2026-01-09 05:55:20.65	281.66	9.31	-48.1	-49.4	14.9	0.00e+00	0	24	0	3523215360	61	4426
2026-01-09 05:55:21.66	281.57	9.24	-48.0	-49.3	14.9	0.00e+00	0	24	0	3528458240	61	4375
2026-01-09 05:55:22.65	281.48	9.17	-48.1	-49.4	14.9	0.00e+00	0	24	0	3534749696	61	4406
2026-01-09 05:55:23.66	281.39	9.10	-48.1	-49.4	14.9	0.00e+00	0	24	0	3539992576	61	4397
2026-01-09 05:55:24.65	281.30	9.03	-48.2	-49.6	14.8	0.00e+00	0	24	0	3545235456	61	4497
2026-01-09 05:55:25.65	281.21	8.96	-48.2	-49.5	14.8	0.00e+00	0	24	0	3551526912	61	4477
2026-01-09 05:55:26.65	281.12	8.89	-48.4	-49.7	14.8	0.00e+00	0	24	0	3556769792	61	4578
2026-01-09 05:55:27.65	281.03	8.82	-48.3	-49.6	14.8	0.00e+00	0	24	0	3562012672	61	4525
2026-01-09 05:55:28.64	280.94	8.75	-48.3	-49.6	14.8	0.00e+00	0	24	0	3568304128	61	4518
2026-01-09 05:55:29.64	280.85	8.67	-48.2	-49.6	14.8	0.00e+00	0	24	0	3573547008	61	4507
2026-01-09 05:55:30.65	280.76	8.60	-48.2	-49.5	14.8	0.00e+00	0	24	0	3578789888	61	4461
2026-01-09 05:55:31.65	280.67	8.53	-48.3	-49.7	14.8	0.00e+00	0	24	0	3585081344	61	4566
2026-01-09 05:55:32.65	280.58	8.46	-48.4	-49.7	14.7	0.00e+00	0	24	0	3590324224	61	4592
