passes_logs/2026/01/09/R3.2S_Murmansk/R3.2S_Murmansk__20260109_225456_NOAA_21_JPSS-2_rec.log

#Pass ID: 20260109_225456_NOAA 21 (JPSS-2)
#Satellite: NOAA 21 (JPSS-2)
#Configuration: NOAA-21
#almurnet v.1.7.20251203
#Start time: 2026-01-09 22:54:57

#Version: 2.2.20231116
#Station: R3.2S_Murmansk
#Location: 33.079688 lon 68.888172 lat
#TLE: 1 54234U 22150A   26009.23291724  .00000115  00000+0  75298-4 0  9996
#TLE: 2 54234  98.7494 310.2026 0000856 324.9272  35.1848 14.19533567163994

#Time	Az	El	Level	Level2	SNR	BER	BlckErr	Temp	State	Recorded	gain1	gain2
2026-01-09 22:54:57.85	19.68	2.09	-57.3	-71.1	3.8	1.49e+00	0	21	0	0	81	16953
2026-01-09 22:54:58.85	19.73	2.15	-57.2	-70.8	3.8	1.49e+00	0	21	104	0	79	18452
2026-01-09 22:54:59.85	19.78	2.21	-57.2	-70.8	3.8	1.49e+00	0	21	104	0	79	18375
2026-01-09 22:55:00.85	19.84	2.27	-57.2	-70.7	3.8	1.49e+00	0	21	104	0	79	18221
2026-01-09 22:55:01.86	19.89	2.33	-57.2	-70.7	3.8	1.49e+00	0	22	104	0	79	18299
2026-01-09 22:55:02.86	19.95	2.38	-57.2	-70.6	3.8	1.49e+00	0	21	104	0	79	18046
2026-01-09 22:55:03.86	20.00	2.44	-57.2	-70.5	3.8	1.49e+00	0	21	104	0	79	17809
2026-01-09 22:55:04.85	20.05	2.50	-57.2	-70.4	3.8	1.49e+00	0	21	104	0	79	17543
2026-01-09 22:55:05.86	20.11	2.56	-57.2	-70.2	3.8	1.49e+00	0	22	104	0	79	17109
2026-01-09 22:55:06.86	20.17	2.62	-57.2	-69.9	3.8	1.49e+00	0	22	104	0	79	16525
2026-01-09 22:55:07.86	20.22	2.68	-57.2	-69.6	3.8	1.49e+00	0	22	104	0	79	15996
2026-01-09 22:55:08.87	20.28	2.74	-57.2	-69.5	3.8	1.49e+00	0	22	104	0	79	15768
2026-01-09 22:55:09.86	20.33	2.80	-57.2	-69.5	3.8	1.49e+00	0	22	104	0	79	15798
2026-01-09 22:55:10.86	20.39	2.86	-57.1	-69.2	3.9	1.49e+00	0	22	104	0	79	15400
2026-01-09 22:55:11.86	20.44	2.92	-57.1	-69.2	3.8	1.49e+00	0	22	104	0	79	15231
2026-01-09 22:55:12.86	20.50	2.98	-57.2	-69.3	3.9	1.49e+00	0	22	104	0	79	15568
2026-01-09 22:55:13.86	20.56	3.04	-57.1	-69.2	3.8	1.49e+00	0	22	104	0	79	15313
2026-01-09 22:55:14.85	20.61	3.10	-57.1	-68.8	4.0	1.49e+00	0	22	104	0	79	14557
2026-01-09 22:55:15.84	20.67	3.16	-57.1	-68.8	3.9	1.48e+00	0	22	104	0	79	14545
2026-01-09 22:55:16.84	20.73	3.22	-57.0	-67.6	4.2	1.47e+00	0	22	104	0	79	12696
2026-01-09 22:55:17.84	20.79	3.29	-57.0	-67.5	3.9	1.46e+00	0	22	104	0	79	12554
2026-01-09 22:55:18.84	20.84	3.35	-56.9	-66.0	4.7	1.21e+00	0	22	104	0	79	10645
2026-01-09 22:55:19.84	20.90	3.41	-56.8	-65.4	5.0	8.03e-01	0	22	0	0	79	9923
2026-01-09 22:55:20.84	20.96	3.47	-56.7	-64.8	5.3	5.13e-01	0	22	0	3145728	79	9273
2026-01-09 22:55:21.84	21.02	3.53	-56.7	-64.5	5.5	4.61e-01	0	22	0	6291456	79	8951
2026-01-09 22:55:22.84	21.08	3.59	-56.5	-63.9	5.9	3.36e-01	0	22	0	9437184	79	8333
2026-01-09 22:55:23.85	21.14	3.65	-56.6	-64.2	5.7	3.81e-01	0	22	0	12582912	79	8606
2026-01-09 22:55:24.84	21.19	3.72	-56.5	-63.8	6.0	2.99e-01	0	22	0	15728640	79	8261
2026-01-09 22:55:25.84	21.25	3.78	-56.3	-62.9	6.6	1.86e-01	0	22	0	18874368	79	7435
2026-01-09 22:55:26.84	21.31	3.84	-56.2	-62.3	7.1	1.31e-01	0	22	0	22020096	79	6948
2026-01-09 22:55:27.84	21.37	3.90	-56.0	-61.6	7.7	6.12e-02	0	22	0	25165824	78	6770
2026-01-09 22:55:28.85	21.43	3.96	-55.4	-60.0	9.1	1.78e-02	0	22	0	28311552	77	5985
2026-01-09 22:55:29.85	21.49	4.03	-54.7	-58.5	10.5	1.97e-03	0	22	0	31457280	76	5287
2026-01-09 22:55:30.85	21.55	4.09	-54.0	-57.3	11.3	2.42e-04	0	22	0	34603008	74	5183
2026-01-09 22:55:31.85	21.61	4.15	-53.6	-56.5	11.9	1.37e-05	0	22	0	37748736	73	5006
2026-01-09 22:55:32.85	21.67	4.21	-52.8	-55.3	12.7	1.50e-06	0	22	0	40894464	72	4646
2026-01-09 22:55:33.85	21.74	4.28	-52.4	-54.7	13.1	0.00e+00	0	22	0	44040192	71	4555
2026-01-09 22:55:34.85	21.80	4.34	-52.2	-54.4	13.3	0.00e+00	0	22	0	47185920	71	4430
2026-01-09 22:55:35.84	21.86	4.40	-51.7	-53.8	13.6	0.00e+00	0	22	0	50331648	70	4374
2026-01-09 22:55:36.84	21.92	4.47	-51.7	-53.8	13.4	0.00e+00	0	22	0	53477376	69	4636
2026-01-09 22:55:37.84	21.98	4.53	-51.7	-53.8	13.5	0.00e+00	0	23	0	56623104	69	4601
2026-01-09 22:55:38.84	22.04	4.59	-52.1	-54.3	13.1	0.00e+00	0	22	0	59768832	69	4920
2026-01-09 22:55:39.83	22.11	4.66	-52.5	-54.9	12.8	0.00e+00	0	22	0	62914560	70	4938
2026-01-09 22:55:40.82	22.17	4.72	-52.8	-55.4	12.4	0.00e+00	0	22	0	66060288	70	5255
2026-01-09 22:55:41.82	22.23	4.78	-53.4	-56.4	11.8	4.50e-06	0	22	0	68157440	71	5543
2026-01-09 22:55:42.81	22.30	4.85	-54.0	-57.4	11.2	9.23e-05	0	22	0	71303168	73	5542
2026-01-09 22:55:43.81	22.36	4.91	-54.5	-58.3	10.4	8.41e-04	0	22	0	74448896	74	5791
2026-01-09 22:55:44.80	22.42	4.97	-55.1	-59.5	9.4	3.06e-03	0	22	0	77594624	75	6293
2026-01-09 22:55:45.80	22.49	5.04	-55.4	-60.3	8.7	1.34e-02	0	22	0	80740352	75	6899
2026-01-09 22:55:46.79	22.55	5.10	-53.1	-55.7	12.5	6.68e-04	0	22	0	83886080	72	4839
2026-01-09 22:55:47.78	22.61	5.17	-52.9	-55.4	12.7	0.00e+00	0	22	0	87031808	72	4687
2026-01-09 22:55:48.78	22.68	5.23	-56.4	-63.6	6.1	9.57e-02	0	22	0	90177536	77	9025
2026-01-09 22:55:49.76	22.74	5.29	-56.3	-62.9	6.6	2.85e-01	0	22	0	93323264	78	7860
2026-01-09 22:55:50.76	22.81	5.36	-52.6	-54.9	13.0	4.83e-04	0	22	0	96468992	71	4698
2026-01-09 22:55:51.76	22.87	5.42	-52.5	-54.7	13.1	0.00e+00	0	22	0	99614720	71	4592
2026-01-09 22:55:52.75	22.94	5.49	-52.2	-54.4	13.4	0.00e+00	0	22	0	102760448	71	4415
2026-01-09 22:55:53.75	23.01	5.55	-51.9	-54.0	13.5	0.00e+00	0	23	0	105906176	70	4477
2026-01-09 22:55:54.75	23.07	5.62	-51.5	-53.4	13.8	0.00e+00	0	22	0	109051904	69	4433
2026-01-09 22:55:55.75	23.14	5.68	-51.4	-53.4	13.8	0.00e+00	0	22	0	112197632	69	4404
2026-01-09 22:55:56.75	23.21	5.75	-51.3	-53.2	13.9	0.00e+00	0	23	0	115343360	69	4309
2026-01-09 22:55:57.76	23.27	5.82	-51.2	-53.1	14.1	0.00e+00	0	22	0	118489088	69	4252
2026-01-09 22:55:58.75	23.34	5.88	-51.3	-53.2	13.8	0.00e+00	0	23	0	121634816	68	4585
2026-01-09 22:55:59.76	23.41	5.95	-51.2	-53.1	13.9	0.00e+00	0	23	0	124780544	68	4520
2026-01-09 22:56:00.76	23.48	6.02	-51.2	-53.1	13.9	0.00e+00	0	22	0	127926272	68	4519
2026-01-09 22:56:01.75	23.55	6.08	-51.1	-52.9	14.0	0.00e+00	0	23	0	131072000	68	4419
2026-01-09 22:56:02.75	23.61	6.15	-50.9	-52.7	14.2	0.00e+00	0	23	0	134217728	68	4325
2026-01-09 22:56:03.76	23.68	6.21	-50.8	-52.6	14.2	0.00e+00	0	23	0	137363456	68	4243
2026-01-09 22:56:04.75	23.75	6.28	-50.8	-52.5	14.3	0.00e+00	0	23	0	140509184	68	4208
2026-01-09 22:56:05.75	23.82	6.35	-50.8	-52.6	14.3	0.00e+00	0	22	0	143654912	68	4256
2026-01-09 22:56:06.75	23.89	6.42	-50.8	-52.6	14.3	0.00e+00	0	23	0	146800640	68	4248
2026-01-09 22:56:07.74	23.96	6.48	-50.8	-52.5	14.3	0.00e+00	0	23	0	149946368	68	4226
2026-01-09 22:56:08.75	24.03	6.55	-50.8	-52.6	14.3	0.00e+00	0	22	0	153092096	68	4246
2026-01-09 22:56:09.74	24.10	6.62	-50.8	-52.5	14.3	0.00e+00	0	23	0	156237824	68	4241
2026-01-09 22:56:10.74	24.18	6.68	-50.9	-52.6	14.3	0.00e+00	0	23	0	159383552	68	4252
2026-01-09 22:56:11.74	24.25	6.75	-50.8	-52.5	14.3	0.00e+00	0	23	0	162529280	68	4228
2026-01-09 22:56:12.74	24.32	6.82	-50.9	-52.6	14.3	0.00e+00	0	23	0	165675008	68	4265
2026-01-09 22:56:13.74	24.39	6.89	-50.8	-52.5	14.4	0.00e+00	0	23	0	168820736	68	4194
2026-01-09 22:56:14.74	24.46	6.96	-50.7	-52.4	14.4	0.00e+00	0	23	0	171966464	68	4167
2026-01-09 22:56:15.73	24.54	7.02	-50.6	-52.2	14.3	0.00e+00	0	23	0	175112192	67	4340
2026-01-09 22:56:16.74	24.61	7.09	-50.7	-52.4	14.2	0.00e+00	0	23	0	177209344	67	4414
2026-01-09 22:56:17.73	24.68	7.16	-50.7	-52.4	14.2	0.00e+00	0	23	0	180355072	67	4424
2026-01-09 22:56:18.73	24.76	7.23	-50.6	-52.4	14.2	0.00e+00	0	23	0	183500800	67	4399
2026-01-09 22:56:19.73	24.83	7.30	-50.6	-52.3	14.3	0.00e+00	0	23	0	186646528	67	4351
2026-01-09 22:56:20.73	24.90	7.37	-50.4	-52.1	14.4	0.00e+00	0	23	0	189792256	67	4273
2026-01-09 22:56:21.74	24.98	7.44	-50.4	-52.0	14.4	0.00e+00	0	23	0	192937984	67	4237
2026-01-09 22:56:22.74	25.05	7.51	-50.4	-52.1	14.4	0.00e+00	0	22	0	196083712	67	4260
2026-01-09 22:56:23.73	25.13	7.58	-50.4	-52.1	14.4	0.00e+00	0	23	0	199229440	67	4264
2026-01-09 22:56:24.73	25.21	7.65	-50.3	-51.9	14.5	0.00e+00	0	23	0	202375168	67	4181
2026-01-09 22:56:25.74	25.28	7.72	-50.3	-51.9	14.5	0.00e+00	0	23	0	205520896	67	4175
2026-01-09 22:56:26.74	25.36	7.79	-50.3	-51.9	14.5	0.00e+00	0	23	0	208666624	67	4168
2026-01-09 22:56:27.74	25.44	7.86	-50.2	-51.8	14.4	0.00e+00	0	23	0	211812352	66	4360
2026-01-09 22:56:28.73	25.51	7.93	-50.2	-51.8	14.4	0.00e+00	0	23	0	214958080	66	4360
2026-01-09 22:56:29.74	25.59	8.00	-50.1	-51.7	14.5	0.00e+00	0	23	0	218103808	66	4334
2026-01-09 22:56:30.74	25.67	8.07	-50.1	-51.7	14.5	0.00e+00	0	23	0	221249536	66	4306
2026-01-09 22:56:31.74	25.75	8.14	-50.1	-51.7	14.5	0.00e+00	0	23	0	224395264	66	4329
2026-01-09 22:56:32.73	25.82	8.21	-50.1	-51.7	14.5	0.00e+00	0	23	0	227540992	66	4324
2026-01-09 22:56:33.72	25.90	8.28	-50.1	-51.7	14.5	0.00e+00	0	23	0	230686720	66	4306
2026-01-09 22:56:34.72	25.98	8.35	-50.1	-51.6	14.5	0.00e+00	0	23	0	233832448	66	4269
2026-01-09 22:56:35.72	26.06	8.42	-50.0	-51.5	14.6	0.00e+00	0	23	0	236978176	66	4231
2026-01-09 22:56:36.72	26.14	8.50	-50.0	-51.5	14.6	0.00e+00	0	23	0	240123904	66	4235
2026-01-09 22:56:37.72	26.22	8.57	-49.9	-51.5	14.6	0.00e+00	0	23	0	243269632	66	4204
2026-01-09 22:56:38.72	26.30	8.64	-49.9	-51.4	14.7	0.00e+00	0	23	0	246415360	66	4151
2026-01-09 22:56:39.72	26.38	8.71	-50.0	-51.5	14.6	0.00e+00	0	23	0	249561088	66	4221
2026-01-09 22:56:40.71	26.46	8.78	-49.9	-51.5	14.6	0.00e+00	0	23	0	252706816	66	4198
2026-01-09 22:56:41.71	26.55	8.86	-50.1	-51.6	14.5	0.00e+00	0	23	0	255852544	66	4275
2026-01-09 22:56:42.71	26.63	8.93	-49.8	-51.3	14.7	0.00e+00	0	23	0	258998272	66	4123
2026-01-09 22:56:43.70	26.71	9.00	-49.8	-51.3	14.8	0.00e+00	0	23	0	262144000	66	4113
2026-01-09 22:56:44.69	26.79	9.07	-49.9	-51.4	14.6	0.00e+00	0	23	0	265289728	66	4190
2026-01-09 22:56:45.69	26.87	9.15	-49.8	-51.4	14.7	0.00e+00	0	23	0	268435456	66	4149
2026-01-09 22:56:46.69	26.96	9.22	-49.8	-51.3	14.8	0.00e+00	0	23	0	271581184	66	4108
2026-01-09 22:56:47.68	27.04	9.29	-49.8	-51.3	14.8	0.00e+00	0	23	0	274726912	66	4118
2026-01-09 22:56:48.68	27.13	9.36	-49.8	-51.3	14.8	0.00e+00	0	23	0	277872640	66	4115
2026-01-09 22:56:49.68	27.21	9.44	-49.8	-51.3	14.7	0.00e+00	0	23	0	281018368	66	4130
2026-01-09 22:56:50.68	27.30	9.51	-49.9	-51.4	14.7	0.00e+00	0	23	0	284164096	66	4158
2026-01-09 22:56:51.68	27.38	9.59	-49.9	-51.4	14.7	0.00e+00	0	23	0	287309824	66	4151
2026-01-09 22:56:52.67	27.47	9.66	-49.9	-51.4	14.7	0.00e+00	0	23	0	290455552	66	4183
2026-01-09 22:56:53.67	27.55	9.73	-50.0	-51.5	14.6	0.00e+00	0	23	0	293601280	66	4207
2026-01-09 22:56:54.67	27.64	9.81	-49.8	-51.3	14.7	0.00e+00	0	23	0	296747008	66	4124
2026-01-09 22:56:55.67	27.73	9.88	-49.8	-51.3	14.8	0.00e+00	0	23	0	299892736	66	4117
2026-01-09 22:56:56.66	27.82	9.96	-49.9	-51.4	14.7	0.00e+00	0	23	0	303038464	66	4155
2026-01-09 22:56:57.66	27.90	10.03	-49.9	-51.4	14.7	0.00e+00	0	23	0	306184192	66	4161
2026-01-09 22:56:58.66	27.99	10.11	-49.8	-51.3	14.8	0.00e+00	0	23	0	309329920	66	4114
2026-01-09 22:56:59.66	28.08	10.18	-49.7	-51.2	14.8	0.00e+00	0	23	0	312475648	66	4071
2026-01-09 22:57:00.66	28.17	10.26	-49.6	-51.0	14.7	0.00e+00	0	23	0	314572800	65	4242
2026-01-09 22:57:01.65	28.26	10.33	-49.6	-51.1	14.7	0.00e+00	0	23	0	317718528	65	4251
2026-01-09 22:57:02.65	28.35	10.41	-49.7	-51.2	14.6	0.00e+00	0	23	0	320864256	65	4309
2026-01-09 22:57:03.64	28.44	10.49	-49.7	-51.2	14.6	0.00e+00	0	23	0	324009984	65	4318
2026-01-09 22:57:04.63	28.53	10.56	-49.6	-51.0	14.7	0.00e+00	0	23	0	327155712	65	4238
2026-01-09 22:57:05.63	28.62	10.64	-49.7	-51.1	14.7	0.00e+00	0	23	0	330301440	65	4283
2026-01-09 22:57:06.62	28.71	10.71	-49.5	-50.9	14.8	0.00e+00	0	23	0	333447168	65	4181
2026-01-09 22:57:07.62	28.81	10.79	-49.5	-50.9	14.8	0.00e+00	0	23	0	336592896	65	4173
2026-01-09 22:57:08.62	28.90	10.87	-49.5	-50.9	14.8	0.00e+00	0	23	0	339738624	65	4176
2026-01-09 22:57:09.62	28.99	10.94	-49.5	-50.9	14.8	0.00e+00	0	23	0	342884352	65	4185
2026-01-09 22:57:10.62	29.09	11.02	-49.5	-51.0	14.8	0.00e+00	0	23	0	346030080	65	4204
2026-01-09 22:57:11.61	29.18	11.10	-49.5	-50.9	14.8	0.00e+00	0	23	0	349175808	65	4175
2026-01-09 22:57:12.62	29.28	11.18	-49.3	-50.7	14.9	0.00e+00	0	23	0	352321536	65	4086
2026-01-09 22:57:13.62	29.37	11.26	-49.3	-50.7	14.9	0.00e+00	0	23	0	355467264	65	4075
2026-01-09 22:57:14.62	29.47	11.33	-49.3	-50.7	14.9	0.00e+00	0	23	0	358612992	65	4092
2026-01-09 22:57:15.62	29.57	11.41	-49.3	-50.7	14.9	0.00e+00	0	23	0	361758720	65	4095
2026-01-09 22:57:16.61	29.66	11.49	-49.3	-50.7	15.0	0.00e+00	0	23	0	364904448	65	4067
2026-01-09 22:57:17.61	29.76	11.57	-49.2	-50.6	15.0	0.00e+00	0	23	0	368050176	65	4048
2026-01-09 22:57:18.61	29.86	11.65	-49.2	-50.6	15.0	0.00e+00	0	23	0	371195904	65	4032
2026-01-09 22:57:19.59	29.95	11.72	-49.2	-50.6	15.0	0.00e+00	0	23	0	374341632	65	4035
2026-01-09 22:57:20.59	30.05	11.80	-49.3	-50.7	14.9	0.00e+00	0	23	0	377487360	65	4076
2026-01-09 22:57:21.59	30.15	11.88	-49.2	-50.6	15.0	0.00e+00	0	23	0	380633088	65	4025
2026-01-09 22:57:22.59	30.25	11.96	-49.0	-50.3	15.0	0.00e+00	0	23	0	383778816	64	4137
2026-01-09 22:57:23.59	30.35	12.04	-49.0	-50.3	15.0	0.00e+00	0	23	0	386924544	64	4139
2026-01-09 22:57:24.59	30.45	12.12	-48.9	-50.2	15.0	0.00e+00	0	23	0	390070272	64	4096
2026-01-09 22:57:25.59	30.56	12.20	-48.9	-50.2	15.1	0.00e+00	0	23	0	393216000	64	4086
2026-01-09 22:57:26.59	30.66	12.28	-48.9	-50.2	15.1	0.00e+00	0	23	0	396361728	64	4070
2026-01-09 22:57:27.59	30.76	12.36	-48.9	-50.2	15.1	0.00e+00	0	23	0	399507456	64	4073
2026-01-09 22:57:28.59	30.86	12.44	-48.9	-50.2	15.0	0.00e+00	0	23	0	402653184	64	4076
2026-01-09 22:57:29.59	30.97	12.52	-48.8	-50.1	15.1	0.00e+00	0	23	0	405798912	64	4040
2026-01-09 22:57:30.59	31.07	12.61	-48.8	-50.2	15.1	0.00e+00	0	23	0	408944640	64	4059
2026-01-09 22:57:31.58	31.18	12.69	-48.8	-50.2	15.1	0.00e+00	0	23	0	412090368	64	4061
2026-01-09 22:57:32.58	31.28	12.77	-48.8	-50.2	15.1	0.00e+00	0	23	0	415236096	64	4062
2026-01-09 22:57:33.58	31.39	12.85	-48.8	-50.2	15.1	0.00e+00	0	23	0	418381824	64	4055
2026-01-09 22:57:34.58	31.49	12.93	-48.9	-50.3	15.0	0.00e+00	0	23	0	421527552	64	4102
2026-01-09 22:57:35.58	31.60	13.01	-48.8	-50.2	15.1	0.00e+00	0	23	0	423624704	64	4057
2026-01-09 22:57:36.57	31.71	13.09	-48.9	-50.2	15.0	0.00e+00	0	23	0	426770432	64	4087
2026-01-09 22:57:37.57	31.81	13.18	-48.8	-50.1	15.1	0.00e+00	0	23	0	429916160	64	4046
2026-01-09 22:57:38.56	31.92	13.26	-48.7	-50.1	15.1	0.00e+00	0	23	0	433061888	64	4010
2026-01-09 22:57:39.56	32.03	13.34	-48.8	-50.1	15.1	0.00e+00	0	23	0	436207616	64	4036
2026-01-09 22:57:40.56	32.14	13.42	-48.7	-50.0	15.1	0.00e+00	0	23	0	439353344	64	4003
2026-01-09 22:57:41.56	32.25	13.51	-48.7	-50.1	15.1	0.00e+00	0	23	0	442499072	64	4008
2026-01-09 22:57:42.56	32.36	13.59	-48.8	-50.1	15.1	0.00e+00	0	23	0	445644800	64	4041
2026-01-09 22:57:43.56	32.47	13.67	-48.8	-50.2	15.1	0.00e+00	0	23	0	448790528	64	4052
2026-01-09 22:57:44.55	32.59	13.76	-48.7	-50.0	15.1	0.00e+00	0	23	0	451936256	64	3993
2026-01-09 22:57:45.54	32.70	13.84	-48.7	-50.0	15.0	0.00e+00	0	23	0	455081984	63	4232
2026-01-09 22:57:46.54	32.81	13.92	-48.7	-50.0	15.0	0.00e+00	0	23	0	458227712	63	4220
2026-01-09 22:57:47.54	32.93	14.01	-48.7	-50.0	15.0	0.00e+00	0	23	0	461373440	63	4231
2026-01-09 22:57:48.54	33.04	14.09	-48.7	-50.1	15.0	0.00e+00	0	23	0	464519168	63	4254
2026-01-09 22:57:49.53	33.15	14.18	-48.8	-50.1	15.0	0.00e+00	0	23	0	467664896	63	4291
2026-01-09 22:57:50.52	33.27	14.26	-48.7	-50.0	15.0	0.00e+00	0	23	0	470810624	63	4230
2026-01-09 22:57:51.52	33.39	14.35	-48.8	-50.1	14.9	0.00e+00	0	23	0	473956352	63	4291
2026-01-09 22:57:52.52	33.50	14.43	-48.9	-50.3	14.9	0.00e+00	0	23	0	477102080	63	4346
2026-01-09 22:57:53.52	33.62	14.52	-48.8	-50.2	14.9	0.00e+00	0	23	0	480247808	63	4307
2026-01-09 22:57:54.53	33.74	14.60	-48.8	-50.2	15.0	0.00e+00	0	23	0	483393536	63	4293
2026-01-09 22:57:55.52	33.86	14.69	-48.8	-50.1	15.0	0.00e+00	0	23	0	486539264	63	4291
2026-01-09 22:57:56.52	33.98	14.77	-48.7	-50.0	15.0	0.00e+00	0	23	0	489684992	63	4232
2026-01-09 22:57:57.52	34.10	14.86	-48.7	-50.1	15.0	0.00e+00	0	23	0	492830720	63	4247
2026-01-09 22:57:58.51	34.22	14.95	-48.7	-50.0	15.0	0.00e+00	0	23	0	495976448	63	4225
2026-01-09 22:57:59.51	34.34	15.03	-48.8	-50.1	15.0	0.00e+00	0	23	0	499122176	63	4254
2026-01-09 22:58:00.50	34.46	15.12	-48.7	-50.0	15.0	0.00e+00	0	23	0	502267904	63	4213
2026-01-09 22:58:01.50	34.59	15.20	-48.7	-50.0	15.0	0.00e+00	0	23	0	505413632	63	4234
2026-01-09 22:58:02.51	34.71	15.29	-48.8	-50.1	15.0	0.00e+00	0	23	0	508559360	63	4281
2026-01-09 22:58:03.50	34.83	15.38	-48.9	-50.2	14.9	0.00e+00	0	23	0	511705088	63	4313
2026-01-09 22:58:04.51	34.96	15.47	-48.9	-50.2	14.9	0.00e+00	0	23	0	514850816	63	4334
2026-01-09 22:58:05.50	35.09	15.55	-48.9	-50.2	14.9	0.00e+00	0	23	0	517996544	63	4320
2026-01-09 22:58:06.50	35.21	15.64	-48.7	-50.0	15.0	0.00e+00	0	23	0	521142272	63	4235
2026-01-09 22:58:07.50	35.34	15.73	-48.8	-50.1	15.0	0.00e+00	0	23	0	524288000	63	4276
2026-01-09 22:58:08.50	35.47	15.82	-48.9	-50.2	14.9	0.00e+00	0	23	0	527433728	63	4328
2026-01-09 22:58:09.50	35.60	15.91	-48.8	-50.2	14.9	0.00e+00	0	23	0	530579456	63	4306
2026-01-09 22:58:10.50	35.73	16.00	-48.9	-50.2	14.9	0.00e+00	0	23	0	533725184	63	4318
2026-01-09 22:58:11.50	35.86	16.08	-48.9	-50.2	14.9	0.00e+00	0	23	0	536870912	63	4317
2026-01-09 22:58:12.50	35.99	16.17	-48.9	-50.3	14.9	0.00e+00	0	23	0	540016640	63	4354
2026-01-09 22:58:13.50	36.12	16.26	-48.9	-50.3	14.9	0.00e+00	0	23	0	543162368	63	4349
2026-01-09 22:58:14.50	36.25	16.35	-48.9	-50.3	14.9	0.00e+00	0	23	0	545259520	63	4348
2026-01-09 22:58:15.49	36.38	16.44	-48.9	-50.2	14.9	0.00e+00	0	23	0	548405248	63	4336
2026-01-09 22:58:16.49	36.52	16.53	-48.9	-50.3	14.9	0.00e+00	0	23	0	551550976	63	4348
2026-01-09 22:58:17.49	36.65	16.62	-49.0	-50.4	14.8	0.00e+00	0	23	0	554696704	63	4422
2026-01-09 22:58:18.49	36.79	16.71	-49.1	-50.4	14.8	0.00e+00	0	23	0	557842432	63	4425
2026-01-09 22:58:19.48	36.92	16.80	-49.1	-50.4	14.8	0.00e+00	0	23	0	560988160	63	4433
2026-01-09 22:58:20.48	37.06	16.89	-49.1	-50.4	14.8	0.00e+00	0	23	0	564133888	63	4434
2026-01-09 22:58:21.48	37.20	16.98	-49.0	-50.4	14.9	0.00e+00	0	23	0	567279616	63	4409
2026-01-09 22:58:22.48	37.34	17.07	-49.1	-50.5	14.8	0.00e+00	0	23	0	570425344	63	4447
2026-01-09 22:58:23.48	37.48	17.16	-49.0	-50.4	14.9	0.00e+00	0	23	0	573571072	63	4415
2026-01-09 22:58:24.49	37.62	17.26	-49.0	-50.4	14.9	0.00e+00	0	23	0	576716800	63	4400
2026-01-09 22:58:25.48	37.76	17.35	-48.9	-50.3	14.9	0.00e+00	0	23	0	579862528	63	4355
2026-01-09 22:58:26.49	37.90	17.44	-48.9	-50.2	14.9	0.00e+00	0	23	0	583008256	63	4338
2026-01-09 22:58:27.48	38.05	17.53	-49.0	-50.3	14.9	0.00e+00	0	23	0	586153984	63	4368
2026-01-09 22:58:28.48	38.19	17.62	-48.8	-50.1	15.0	0.00e+00	0	23	0	589299712	63	4280
2026-01-09 22:58:29.47	38.33	17.71	-48.8	-50.2	15.0	0.00e+00	0	23	0	592445440	63	4300
2026-01-09 22:58:30.48	38.48	17.81	-48.9	-50.2	15.0	0.00e+00	0	23	0	595591168	63	4308
2026-01-09 22:58:31.47	38.62	17.90	-48.9	-50.2	15.0	0.00e+00	0	23	0	598736896	63	4310
2026-01-09 22:58:32.46	38.77	17.99	-48.9	-50.2	15.0	0.00e+00	0	23	0	601882624	63	4301
2026-01-09 22:58:33.46	38.92	18.08	-48.8	-50.1	15.0	0.00e+00	0	23	0	605028352	63	4277
2026-01-09 22:58:34.46	39.07	18.18	-48.8	-50.2	15.0	0.00e+00	0	23	0	608174080	63	4298
2026-01-09 22:58:35.46	39.22	18.27	-48.8	-50.1	15.0	0.00e+00	0	23	0	611319808	63	4285
2026-01-09 22:58:36.47	39.37	18.36	-48.7	-50.0	15.0	0.00e+00	0	23	0	614465536	63	4215
2026-01-09 22:58:37.47	39.52	18.46	-48.7	-50.0	15.0	0.00e+00	0	23	0	617611264	63	4200
2026-01-09 22:58:38.46	39.67	18.55	-48.6	-49.9	15.1	0.00e+00	0	23	0	620756992	63	4174
2026-01-09 22:58:39.47	39.83	18.64	-48.5	-49.8	15.1	0.00e+00	0	23	0	623902720	63	4114
2026-01-09 22:58:40.46	39.98	18.74	-48.4	-49.6	15.2	0.00e+00	0	23	0	627048448	63	4050
2026-01-09 22:58:41.46	40.14	18.83	-48.4	-49.6	15.2	0.00e+00	0	23	0	630194176	63	4035
2026-01-09 22:58:42.45	40.29	18.92	-48.3	-49.6	15.2	0.00e+00	0	23	0	633339904	63	4019
2026-01-09 22:58:43.45	40.45	19.02	-48.4	-49.7	15.2	0.00e+00	0	23	0	636485632	63	4069
2026-01-09 22:58:44.45	40.61	19.11	-48.3	-49.6	15.2	0.00e+00	0	23	0	639631360	63	4027
2026-01-09 22:58:45.44	40.76	19.21	-48.5	-49.7	15.2	0.00e+00	0	23	0	642777088	63	4085
2026-01-09 22:58:46.44	40.92	19.30	-48.5	-49.8	15.2	0.00e+00	0	23	0	645922816	63	4100
2026-01-09 22:58:47.44	41.09	19.40	-48.4	-49.7	15.2	0.00e+00	0	23	0	649068544	63	4052
2026-01-09 22:58:48.44	41.25	19.49	-48.4	-49.6	15.2	0.00e+00	0	23	0	652214272	63	4037
2026-01-09 22:58:49.44	41.41	19.59	-48.4	-49.7	15.2	0.00e+00	0	23	0	655360000	63	4071
2026-01-09 22:58:50.44	41.57	19.68	-48.5	-49.8	15.1	0.00e+00	0	23	0	658505728	63	4107
2026-01-09 22:58:51.44	41.74	19.78	-48.3	-49.6	15.2	0.00e+00	0	23	0	661651456	63	4014
2026-01-09 22:58:52.44	41.91	19.87	-48.2	-49.4	15.3	0.00e+00	0	23	0	664797184	63	3958
2026-01-09 22:58:53.42	42.07	19.97	-48.1	-49.3	15.2	0.00e+00	0	23	0	667942912	62	4110
2026-01-09 22:58:54.42	42.24	20.06	-48.0	-49.3	15.2	0.00e+00	0	23	0	670040064	62	4100
2026-01-09 22:58:55.42	42.41	20.16	-48.1	-49.3	15.2	0.00e+00	0	23	0	673185792	62	4119
2026-01-09 22:58:56.41	42.57	20.26	-48.1	-49.4	15.2	0.00e+00	0	23	0	676331520	62	4155
2026-01-09 22:58:57.42	42.75	20.35	-48.2	-49.4	15.2	0.00e+00	0	23	0	679477248	62	4186
2026-01-09 22:58:58.42	42.92	20.45	-48.3	-49.6	15.1	0.00e+00	0	23	0	682622976	62	4257
2026-01-09 22:58:59.43	43.09	20.55	-48.4	-49.7	15.1	0.00e+00	0	23	0	685768704	62	4301
2026-01-09 22:59:00.43	43.27	20.64	-48.4	-49.6	15.1	0.00e+00	0	23	0	688914432	62	4284
2026-01-09 22:59:01.42	43.44	20.74	-48.4	-49.7	15.0	0.00e+00	0	23	0	692060160	62	4313
2026-01-09 22:59:02.42	43.62	20.84	-48.4	-49.6	15.1	0.00e+00	0	23	0	695205888	62	4273
2026-01-09 22:59:03.42	43.80	20.93	-48.1	-49.4	15.2	0.00e+00	0	23	0	698351616	62	4163
2026-01-09 22:59:04.42	43.97	21.03	-48.1	-49.4	15.2	0.00e+00	0	23	0	701497344	62	4147
2026-01-09 22:59:05.42	44.15	21.13	-47.9	-49.1	15.3	0.00e+00	0	23	0	704643072	62	4044
2026-01-09 22:59:06.41	44.33	21.23	-47.8	-49.0	15.3	0.00e+00	0	23	0	707788800	62	4003
2026-01-09 22:59:07.42	44.52	21.32	-47.9	-49.1	15.3	0.00e+00	0	23	0	710934528	62	4005
2026-01-09 22:59:08.42	44.70	21.42	-47.9	-49.1	15.3	0.00e+00	0	23	0	714080256	62	4027
2026-01-09 22:59:09.43	44.89	21.52	-48.0	-49.2	15.3	0.00e+00	0	23	0	717225984	62	4082
2026-01-09 22:59:10.43	45.07	21.62	-48.1	-49.3	15.2	0.00e+00	0	23	0	720371712	62	4135
2026-01-09 22:59:11.42	45.26	21.72	-48.1	-49.4	15.2	0.00e+00	0	23	0	723517440	62	4161
2026-01-09 22:59:12.42	45.44	21.81	-48.1	-49.3	15.2	0.00e+00	0	23	0	726663168	62	4134
2026-01-09 22:59:13.42	45.63	21.91	-48.1	-49.3	15.2	0.00e+00	0	23	0	729808896	62	4126
2026-01-09 22:59:14.42	45.82	22.01	-48.0	-49.2	15.3	0.00e+00	0	23	0	732954624	62	4098
2026-01-09 22:59:15.41	46.01	22.11	-47.9	-49.1	15.3	0.00e+00	0	23	0	736100352	62	4012
2026-01-09 22:59:16.41	46.20	22.21	-48.0	-49.1	15.3	0.00e+00	0	23	0	739246080	62	4050
2026-01-09 22:59:17.41	46.40	22.30	-47.8	-49.0	15.3	0.00e+00	0	23	0	742391808	62	3991
2026-01-09 22:59:18.40	46.59	22.40	-47.8	-49.0	15.3	0.00e+00	0	23	0	745537536	62	3986
2026-01-09 22:59:19.40	46.79	22.50	-47.8	-49.0	15.4	0.00e+00	0	23	0	748683264	62	3967
2026-01-09 22:59:20.40	46.98	22.60	-48.0	-49.2	15.3	0.00e+00	0	23	0	751828992	62	4057
2026-01-09 22:59:21.41	47.18	22.70	-48.0	-49.3	15.2	0.00e+00	0	23	0	754974720	62	4106
2026-01-09 22:59:22.42	47.38	22.80	-48.1	-49.4	15.2	0.00e+00	0	23	0	758120448	62	4157
2026-01-09 22:59:23.42	47.58	22.90	-48.2	-49.4	15.2	0.00e+00	0	23	0	761266176	62	4163
2026-01-09 22:59:24.42	47.79	22.99	-48.1	-49.3	15.2	0.00e+00	0	23	0	764411904	62	4123
2026-01-09 22:59:25.42	47.99	23.09	-48.0	-49.2	15.2	0.00e+00	0	23	0	767557632	62	4075
2026-01-09 22:59:26.42	48.19	23.19	-47.9	-49.1	15.3	0.00e+00	0	23	0	770703360	62	4036
2026-01-09 22:59:27.42	48.40	23.29	-47.8	-48.9	15.4	0.00e+00	0	23	0	773849088	62	3952
2026-01-09 22:59:28.42	48.61	23.39	-47.7	-48.9	15.4	0.00e+00	0	23	0	776994816	62	3920
2026-01-09 22:59:29.42	48.82	23.49	-47.6	-48.8	15.3	0.00e+00	0	23	0	780140544	61	4112
2026-01-09 22:59:30.43	49.03	23.59	-47.7	-48.8	15.3	0.00e+00	0	23	0	783286272	61	4135
2026-01-09 22:59:31.43	49.24	23.68	-47.7	-48.9	15.2	0.00e+00	0	23	0	786432000	61	4167
2026-01-09 22:59:32.42	49.45	23.78	-47.8	-49.0	15.2	0.00e+00	0	23	0	789577728	61	4218
2026-01-09 22:59:33.42	49.66	23.88	-47.9	-49.1	15.2	0.00e+00	0	23	0	792723456	61	4265
2026-01-09 22:59:34.42	49.88	23.98	-48.0	-49.3	15.1	0.00e+00	0	23	0	795869184	61	4344
2026-01-09 22:59:35.42	50.09	24.08	-48.2	-49.4	15.1	0.00e+00	0	23	0	799014912	61	4409
2026-01-09 22:59:36.43	50.31	24.18	-48.1	-49.3	15.1	0.00e+00	0	23	0	802160640	61	4387
2026-01-09 22:59:37.44	50.53	24.28	-48.1	-49.4	15.1	0.00e+00	0	23	0	805306368	61	4404
2026-01-09 22:59:38.43	50.75	24.37	-48.1	-49.3	15.1	0.00e+00	0	23	0	808452096	61	4382
2026-01-09 22:59:39.43	50.97	24.47	-48.1	-49.4	15.1	0.00e+00	0	23	0	811597824	61	4410
2026-01-09 22:59:40.43	51.20	24.57	-48.1	-49.4	15.1	0.00e+00	0	23	0	814743552	61	4394
2026-01-09 22:59:41.43	51.42	24.67	-48.2	-49.4	15.1	0.00e+00	0	23	0	817889280	61	4436
2026-01-09 22:59:42.42	51.64	24.77	-48.2	-49.5	15.0	0.00e+00	0	23	0	821035008	61	4460
2026-01-09 22:59:43.42	51.87	24.86	-48.4	-49.6	15.0	0.00e+00	0	23	0	824180736	61	4521
2026-01-09 22:59:44.42	52.10	24.96	-48.3	-49.6	15.0	0.00e+00	0	23	0	827326464	61	4496
2026-01-09 22:59:45.42	52.33	25.06	-48.3	-49.6	15.0	0.00e+00	0	23	0	829423616	61	4504
2026-01-09 22:59:46.42	52.56	25.16	-48.2	-49.5	15.0	0.00e+00	0	23	0	832569344	61	4461
2026-01-09 22:59:47.41	52.79	25.25	-48.0	-49.2	15.1	0.00e+00	0	23	0	835715072	61	4333
2026-01-09 22:59:48.41	53.02	25.35	-47.9	-49.1	15.2	0.00e+00	0	23	0	838860800	61	4264
2026-01-09 22:59:49.40	53.26	25.45	-48.0	-49.2	15.2	0.00e+00	0	23	0	842006528	61	4325
2026-01-09 22:59:50.40	53.49	25.54	-48.0	-49.2	15.1	0.00e+00	0	23	0	845152256	61	4294
2026-01-09 22:59:51.39	53.73	25.64	-48.0	-49.2	15.2	0.00e+00	0	23	0	848297984	61	4300
2026-01-09 22:59:52.39	53.97	25.74	-48.1	-49.3	15.1	0.00e+00	0	23	0	851443712	61	4359
2026-01-09 22:59:53.39	54.21	25.83	-48.2	-49.5	15.0	0.00e+00	0	23	0	854589440	61	4444
2026-01-09 22:59:54.39	54.45	25.93	-48.3	-49.6	15.0	0.00e+00	0	23	0	857735168	61	4506
2026-01-09 22:59:55.38	54.69	26.03	-48.4	-49.7	15.1	0.00e+00	0	23	0	860880896	62	4307
2026-01-09 22:59:56.00	54.84	26.09	-48.4	-49.7	15.1	0.00e+00	0	23	0	864026624	62	4301
2026-01-09 22:59:57.57	55.23	26.24	-48.3	-49.5	15.1	0.00e+00	0	23	0	869269504	62	4239
2026-01-09 22:59:58.19	55.39	26.30	-48.3	-49.5	15.1	0.00e+00	0	23	0	871366656	62	4229
2026-01-09 22:59:59.75	55.78	26.44	-48.3	-49.5	15.1	0.00e+00	0	23	0	875560960	62	4207
2026-01-09 23:00:00.42	55.94	26.51	-48.3	-49.5	15.1	0.00e+00	0	23	0	877658112	62	4224
2026-01-09 23:00:01.84	56.30	26.64	-48.2	-49.4	15.2	0.00e+00	0	23	0	882900992	62	4167
2026-01-09 23:00:02.55	56.48	26.71	-48.2	-49.4	15.2	0.00e+00	0	23	0	884998144	62	4191
2026-01-09 23:00:03.85	56.82	26.83	-48.2	-49.4	15.2	0.00e+00	0	23	0	889192448	62	4168
2026-01-09 23:00:04.56	57.00	26.90	-48.1	-49.3	15.2	0.00e+00	0	23	0	891289600	62	4129
2026-01-09 23:00:05.85	57.33	27.02	-48.2	-49.4	15.2	0.00e+00	0	23	0	894435328	62	4169
2026-01-09 23:00:06.58	57.52	27.09	-48.3	-49.5	15.2	0.00e+00	0	23	0	897581056	62	4213
2026-01-09 23:00:07.87	57.86	27.21	-48.5	-49.7	15.1	0.00e+00	0	23	0	901775360	62	4330
2026-01-09 23:00:08.59	58.05	27.28	-48.6	-49.9	15.0	0.00e+00	0	23	0	903872512	62	4394
2026-01-09 23:00:09.87	58.39	27.39	-48.7	-50.0	14.9	0.00e+00	0	23	0	908066816	62	4472
2026-01-09 23:00:10.60	58.59	27.46	-48.7	-50.0	14.9	0.00e+00	0	23	0	910163968	62	4471
2026-01-09 23:00:11.89	58.93	27.58	-48.7	-50.0	14.9	0.00e+00	0	23	0	913309696	62	4452
2026-01-09 23:00:12.60	59.12	27.65	-48.6	-49.9	15.0	0.00e+00	0	24	0	916455424	62	4429
2026-01-09 23:00:13.89	59.47	27.76	-48.5	-49.7	15.0	0.00e+00	0	23	0	919601152	62	4329
2026-01-09 23:00:14.60	59.67	27.83	-48.5	-49.7	15.0	0.00e+00	0	23	0	922746880	62	4334
2026-01-09 23:00:15.89	60.02	27.94	-48.3	-49.5	15.1	0.00e+00	0	23	0	925892608	62	4220
2026-01-09 23:00:16.62	60.22	28.01	-48.3	-49.5	15.1	0.00e+00	0	23	0	929038336	62	4237
2026-01-09 23:00:17.90	60.58	28.12	-48.4	-49.7	15.1	0.00e+00	0	23	0	932184064	62	4298
2026-01-09 23:00:18.63	60.78	28.19	-48.3	-49.5	15.1	0.00e+00	0	23	0	935329792	62	4230
2026-01-09 23:00:19.91	61.14	28.30	-48.2	-49.4	15.1	0.00e+00	0	23	0	938475520	62	4190
2026-01-09 23:00:20.66	61.35	28.37	-48.2	-49.4	15.2	0.00e+00	0	23	0	941621248	62	4176
2026-01-09 23:00:21.94	61.71	28.48	-48.3	-49.5	15.1	0.00e+00	0	23	0	944766976	62	4221
2026-01-09 23:00:22.69	61.93	28.55	-48.2	-49.4	15.2	0.00e+00	0	23	0	947912704	62	4190
2026-01-09 23:00:23.97	62.29	28.66	-48.1	-49.3	15.2	0.00e+00	0	23	0	952107008	62	4131
2026-01-09 23:00:24.69	62.50	28.72	-48.2	-49.4	15.2	0.00e+00	0	23	0	954204160	62	4176
2026-01-09 23:00:25.98	62.88	28.83	-48.0	-49.2	15.3	0.00e+00	0	23	0	958398464	62	4071
2026-01-09 23:00:26.72	63.09	28.89	-48.1	-49.3	15.2	0.00e+00	0	23	0	960495616	62	4115
2026-01-09 23:00:28.02	63.47	29.00	-48.1	-49.3	15.2	0.00e+00	0	23	0	964689920	62	4110
2026-01-09 23:00:28.73	63.68	29.06	-48.2	-49.4	15.2	0.00e+00	0	23	0	966787072	62	4151
2026-01-09 23:00:30.02	64.06	29.17	-48.2	-49.4	15.2	0.00e+00	0	23	0	970981376	62	4189
2026-01-09 23:00:30.73	64.27	29.23	-48.2	-49.4	15.2	0.00e+00	0	23	0	973078528	62	4181
2026-01-09 23:00:32.02	64.66	29.34	-48.2	-49.4	15.2	0.00e+00	0	23	0	977272832	62	4181
2026-01-09 23:00:32.74	64.88	29.40	-48.2	-49.4	15.2	0.00e+00	0	23	0	979369984	62	4170
2026-01-09 23:00:34.02	65.26	29.50	-48.2	-49.4	15.1	0.00e+00	0	23	0	983564288	62	4193
2026-01-09 23:00:34.73	65.48	29.56	-48.2	-49.5	15.1	0.00e+00	0	23	0	985661440	62	4195
2026-01-09 23:00:36.02	65.87	29.66	-48.4	-49.7	15.0	0.00e+00	0	23	0	988807168	62	4309
2026-01-09 23:00:36.73	66.09	29.72	-48.5	-49.8	15.0	0.00e+00	0	23	0	991952896	62	4361
2026-01-09 23:00:38.02	66.49	29.82	-48.6	-49.8	15.0	0.00e+00	0	23	0	995098624	62	4389
2026-01-09 23:00:38.74	66.71	29.88	-48.5	-49.7	15.1	0.00e+00	0	23	0	998244352	62	4319
2026-01-09 23:00:40.02	67.11	29.97	-48.2	-49.5	15.1	0.00e+00	0	23	0	1001390080	62	4194
2026-01-09 23:00:40.75	67.33	30.03	-48.2	-49.4	15.2	0.00e+00	0	23	0	1003487232	62	4192
2026-01-09 23:00:42.02	67.73	30.13	-48.4	-49.6	15.1	0.00e+00	0	23	0	1007681536	62	4268
2026-01-09 23:00:42.76	67.97	30.18	-48.3	-49.6	15.1	0.00e+00	0	23	0	1009778688	62	4254
2026-01-09 23:00:44.04	68.37	30.28	-48.5	-49.7	15.1	0.00e+00	0	23	0	1013972992	62	4336
2026-01-09 23:00:44.79	68.61	30.33	-48.5	-49.8	15.0	0.00e+00	0	23	0	1017118720	62	4346
2026-01-09 23:00:46.07	69.02	30.43	-48.5	-49.7	15.0	0.00e+00	0	23	0	1020264448	62	4337
2026-01-09 23:00:46.80	69.25	30.48	-48.4	-49.7	15.1	0.00e+00	0	23	0	1023410176	62	4294
2026-01-09 23:00:48.09	69.67	30.57	-48.5	-49.7	15.1	0.00e+00	0	23	0	1026555904	62	4315
2026-01-09 23:00:48.80	69.90	30.62	-48.4	-49.6	15.1	0.00e+00	0	23	0	1028653056	62	4264
2026-01-09 23:00:50.09	70.32	30.71	-48.5	-49.7	15.0	0.00e+00	0	23	0	1032847360	62	4319
2026-01-09 23:00:50.80	70.55	30.76	-48.5	-49.8	15.0	0.00e+00	0	23	0	1034944512	62	4358
2026-01-09 23:00:52.10	70.98	30.85	-48.8	-50.1	14.9	0.00e+00	0	23	0	1039138816	62	4512
2026-01-09 23:00:52.81	71.21	30.90	-48.7	-50.0	14.9	0.00e+00	0	23	0	1042284544	62	4484
2026-01-09 23:00:54.12	71.64	30.98	-48.7	-50.0	15.0	0.00e+00	0	23	0	1045430272	62	4467
2026-01-09 23:00:54.84	71.88	31.03	-48.8	-50.1	14.9	0.00e+00	0	23	0	1048576000	62	4512
2026-01-09 23:00:56.13	72.31	31.12	-48.8	-50.0	14.9	0.00e+00	0	23	0	1051721728	62	4478
2026-01-09 23:00:56.85	72.55	31.16	-48.7	-49.9	15.0	0.00e+00	0	23	0	1053818880	62	4433
2026-01-09 23:00:58.13	72.98	31.24	-49.0	-50.3	14.9	0.00e+00	0	23	0	1058013184	63	4353
2026-01-09 23:00:58.86	73.23	31.29	-48.9	-50.3	14.9	0.00e+00	0	23	0	1060110336	63	4341
2026-01-09 23:01:00.15	73.67	31.37	-49.0	-50.3	14.9	0.00e+00	0	23	0	1064304640	63	4377
2026-01-09 23:01:00.90	73.92	31.41	-49.0	-50.3	14.9	0.00e+00	0	23	0	1067450368	63	4376
2026-01-09 23:01:02.19	74.36	31.49	-49.0	-50.2	14.9	0.00e+00	0	23	0	1070596096	63	4332
2026-01-09 23:01:02.91	74.61	31.53	-49.0	-50.3	14.9	0.00e+00	0	23	0	1073741824	63	4370
2026-01-09 23:01:04.20	75.05	31.60	-49.0	-50.3	14.9	0.00e+00	0	23	0	1076887552	63	4377
2026-01-09 23:01:04.91	75.30	31.64	-49.0	-50.3	14.9	0.00e+00	0	23	0	1078984704	63	4353
2026-01-09 23:01:06.20	75.74	31.71	-49.0	-50.3	14.9	0.00e+00	0	23	0	1083179008	63	4365
2026-01-09 23:01:06.92	75.99	31.75	-49.0	-50.3	14.9	0.00e+00	0	23	0	1086324736	63	4350
2026-01-09 23:01:08.21	76.44	31.82	-49.0	-50.3	14.9	0.00e+00	0	23	0	1089470464	63	4343
2026-01-09 23:01:08.93	76.69	31.86	-48.9	-50.2	14.9	0.00e+00	0	23	0	1092616192	63	4329
2026-01-09 23:01:10.21	77.14	31.92	-48.7	-50.0	15.0	0.00e+00	0	24	0	1095761920	63	4206
2026-01-09 23:01:10.93	77.39	31.96	-48.6	-49.9	15.1	0.00e+00	0	23	0	1097859072	63	4154
2026-01-09 23:01:12.22	77.85	32.02	-48.7	-50.0	15.1	0.00e+00	0	23	0	1102053376	63	4199
2026-01-09 23:01:12.94	78.10	32.05	-48.9	-50.2	15.0	0.00e+00	0	23	0	1104150528	63	4314
2026-01-09 23:01:14.22	78.56	32.11	-49.0	-50.3	14.9	0.00e+00	0	23	0	1108344832	63	4363
2026-01-09 23:01:14.94	78.81	32.15	-49.0	-50.3	14.9	0.00e+00	0	23	0	1110441984	63	4360
2026-01-09 23:01:16.23	79.27	32.20	-49.0	-50.3	14.9	0.00e+00	0	23	0	1114636288	63	4380
2026-01-09 23:01:16.94	79.53	32.23	-49.0	-50.3	14.9	0.00e+00	0	23	0	1116733440	63	4387
2026-01-09 23:01:18.22	79.98	32.29	-49.2	-50.5	14.8	0.00e+00	0	23	0	1120927744	63	4479
2026-01-09 23:01:18.96	80.25	32.32	-49.2	-50.6	14.8	0.00e+00	0	23	0	1123024896	63	4498
2026-01-09 23:01:20.25	80.72	32.37	-49.2	-50.6	14.8	0.00e+00	0	23	0	1127219200	63	4504
2026-01-09 23:01:20.97	80.98	32.39	-49.2	-50.6	14.8	0.00e+00	0	23	0	1129316352	63	4507
2026-01-09 23:01:22.26	81.44	32.44	-48.8	-50.0	15.0	0.00e+00	0	23	0	1133510656	63	4239
2026-01-09 23:01:22.99	81.71	32.47	-48.7	-50.0	15.1	0.00e+00	0	23	0	1135607808	63	4214
2026-01-09 23:01:24.28	82.18	32.51	-48.8	-50.0	15.0	0.00e+00	0	23	0	1139802112	63	4228
2026-01-09 23:01:25.00	82.44	32.54	-48.9	-50.1	15.0	0.00e+00	0	23	0	1141899264	63	4290
2026-01-09 23:01:26.28	82.91	32.58	-49.0	-50.3	15.0	0.00e+00	0	23	0	1146093568	63	4355
2026-01-09 23:01:27.00	83.17	32.60	-49.0	-50.2	14.9	0.00e+00	0	23	0	1148190720	63	4339
2026-01-09 23:01:28.28	83.64	32.64	-48.9	-50.2	15.0	0.00e+00	0	23	0	1152385024	63	4332
2026-01-09 23:01:29.00	83.90	32.66	-48.9	-50.2	15.0	0.00e+00	0	23	0	1154482176	63	4302
2026-01-09 23:01:30.28	84.37	32.69	-49.0	-50.3	14.9	0.00e+00	0	23	0	1158676480	63	4367
2026-01-09 23:01:30.99	84.63	32.71	-49.1	-50.4	14.9	0.00e+00	0	23	0	1160773632	63	4407
2026-01-09 23:01:32.30	85.12	32.74	-49.2	-50.5	14.9	0.00e+00	0	23	0	1164967936	63	4467
2026-01-09 23:01:33.02	85.38	32.76	-49.2	-50.5	14.8	0.00e+00	0	23	0	1167065088	63	4488
2026-01-09 23:01:34.30	85.86	32.79	-49.3	-50.6	14.8	0.00e+00	0	24	0	1171259392	63	4530
2026-01-09 23:01:35.02	86.12	32.80	-49.3	-50.7	14.8	0.00e+00	0	23	0	1173356544	63	4550
2026-01-09 23:01:36.30	86.60	32.83	-49.4	-50.8	14.8	0.00e+00	0	23	0	1177550848	64	4360
2026-01-09 23:01:37.04	86.87	32.84	-49.4	-50.7	14.9	0.00e+00	0	23	0	1179648000	64	4339
2026-01-09 23:01:38.34	87.36	32.86	-49.4	-50.7	14.8	0.00e+00	0	23	0	1183842304	64	4332
2026-01-09 23:01:39.07	87.63	32.88	-49.3	-50.6	14.9	0.00e+00	0	23	0	1185939456	64	4283
2026-01-09 23:01:40.35	88.10	32.89	-49.4	-50.7	14.8	0.00e+00	0	23	0	1190133760	64	4340
2026-01-09 23:01:41.09	88.38	32.90	-49.3	-50.7	14.9	0.00e+00	0	23	0	1192230912	64	4298
2026-01-09 23:01:42.37	88.86	32.92	-49.3	-50.7	14.9	0.00e+00	0	23	0	1196425216	64	4293
2026-01-09 23:01:43.08	89.12	32.93	-49.2	-50.5	15.0	0.00e+00	0	23	0	1198522368	64	4204
2026-01-09 23:01:44.40	89.62	32.94	-49.2	-50.5	15.0	0.00e+00	0	23	0	1202716672	64	4198
2026-01-09 23:01:45.12	89.88	32.94	-49.2	-50.5	15.0	0.00e+00	0	23	0	1204813824	64	4220
2026-01-09 23:01:46.40	90.36	32.95	-49.4	-50.8	14.8	0.00e+00	0	23	0	1209008128	64	4345
2026-01-09 23:01:47.13	90.64	32.95	-49.4	-50.7	14.9	0.00e+00	0	23	0	1211105280	64	4328
2026-01-09 23:01:48.41	91.12	32.96	-49.5	-50.8	14.8	0.00e+00	0	23	0	1215299584	64	4378
2026-01-09 23:01:49.14	91.39	32.96	-49.5	-50.8	14.8	0.00e+00	0	23	0	1217396736	64	4382
2026-01-09 23:01:50.43	91.87	32.96	-49.5	-50.9	14.8	0.00e+00	0	23	0	1221591040	64	4409
2026-01-09 23:01:51.15	92.14	32.96	-49.3	-50.7	14.9	0.00e+00	0	23	0	1223688192	64	4306
2026-01-09 23:01:52.43	92.62	32.96	-49.5	-50.8	14.8	0.00e+00	0	23	0	1227882496	64	4379
2026-01-09 23:01:53.17	92.90	32.96	-49.3	-50.7	14.9	0.00e+00	0	23	0	1229979648	64	4293
2026-01-09 23:01:54.45	93.38	32.95	-49.0	-50.3	15.1	0.00e+00	0	23	0	1234173952	64	4106
2026-01-09 23:01:55.19	93.65	32.95	-49.0	-50.3	15.1	0.00e+00	0	23	0	1236271104	64	4124
2026-01-09 23:01:56.47	94.13	32.94	-49.0	-50.3	15.0	0.00e+00	0	23	0	1240465408	64	4136
2026-01-09 23:01:57.20	94.40	32.93	-49.0	-50.3	15.0	0.00e+00	0	23	0	1242562560	64	4133
2026-01-09 23:01:58.49	94.89	32.92	-49.0	-50.3	15.0	0.00e+00	0	23	0	1246756864	64	4120
2026-01-09 23:01:59.20	95.15	32.91	-49.0	-50.3	15.0	0.00e+00	0	23	0	1248854016	64	4140
2026-01-09 23:02:00.48	95.63	32.90	-48.9	-50.2	15.1	0.00e+00	0	23	0	1253048320	64	4078
2026-01-09 23:02:01.21	95.90	32.89	-48.9	-50.2	15.1	0.00e+00	0	23	0	1255145472	64	4078
2026-01-09 23:02:02.50	96.38	32.87	-48.8	-50.0	15.2	0.00e+00	0	23	0	1259339776	64	3991
2026-01-09 23:02:03.21	96.64	32.85	-48.8	-50.1	15.2	0.00e+00	0	23	0	1261436928	64	4038
2026-01-09 23:02:04.49	97.12	32.83	-49.0	-50.3	15.1	0.00e+00	0	23	0	1265631232	64	4119
2026-01-09 23:02:05.21	97.39	32.82	-49.2	-50.5	14.9	0.00e+00	0	23	0	1267728384	64	4225
2026-01-09 23:02:06.50	97.87	32.79	-49.2	-50.5	15.0	0.00e+00	0	23	0	1271922688	64	4205
2026-01-09 23:02:07.23	98.14	32.78	-49.2	-50.6	14.9	0.00e+00	0	23	0	1274019840	64	4251
2026-01-09 23:02:08.51	98.61	32.75	-49.2	-50.6	14.9	0.00e+00	0	23	0	1278214144	64	4248
2026-01-09 23:02:09.23	98.88	32.73	-49.2	-50.5	15.0	0.00e+00	0	23	0	1280311296	64	4239
2026-01-09 23:02:10.50	99.34	32.70	-49.1	-50.4	15.0	0.00e+00	0	23	0	1284505600	64	4161
2026-01-09 23:02:11.26	99.62	32.68	-49.0	-50.3	15.1	0.00e+00	0	23	0	1286602752	64	4123
2026-01-09 23:02:12.54	100.09	32.64	-49.1	-50.4	15.0	0.00e+00	0	23	0	1290797056	64	4158
2026-01-09 23:02:13.26	100.36	32.62	-49.0	-50.3	15.1	0.00e+00	0	23	0	1292894208	64	4134
2026-01-09 23:02:14.55	100.83	32.58	-49.1	-50.4	15.0	0.00e+00	0	23	0	1297088512	64	4151
2026-01-09 23:02:15.26	101.09	32.56	-49.1	-50.4	15.0	0.00e+00	0	23	0	1299185664	64	4170
2026-01-09 23:02:16.55	101.56	32.52	-49.0	-50.3	15.1	0.00e+00	0	23	0	1303379968	64	4107
2026-01-09 23:02:17.26	101.82	32.49	-48.9	-50.2	15.1	0.00e+00	0	23	0	1305477120	64	4083
2026-01-09 23:02:18.56	102.29	32.44	-49.1	-50.4	15.0	0.00e+00	0	23	0	1309671424	64	4154
2026-01-09 23:02:19.31	102.56	32.42	-49.1	-50.4	15.0	0.00e+00	0	23	0	1311768576	64	4171
2026-01-09 23:02:20.60	103.03	32.37	-49.0	-50.3	15.1	0.00e+00	0	23	0	1315962880	64	4112
2026-01-09 23:02:21.31	103.29	32.34	-49.1	-50.4	15.0	0.00e+00	0	23	0	1318060032	64	4156
2026-01-09 23:02:22.60	103.75	32.29	-49.2	-50.5	15.0	0.00e+00	0	23	0	1322254336	64	4211
2026-01-09 23:02:23.31	104.01	32.26	-49.2	-50.5	15.0	0.00e+00	0	24	0	1324351488	64	4230
2026-01-09 23:02:24.59	104.47	32.20	-49.2	-50.6	14.9	0.00e+00	0	23	0	1328545792	64	4248
2026-01-09 23:02:25.31	104.72	32.17	-49.2	-50.5	14.9	0.00e+00	0	23	0	1330642944	64	4224
2026-01-09 23:02:26.59	105.18	32.12	-49.2	-50.5	14.9	0.00e+00	0	23	0	1334837248	64	4220
2026-01-09 23:02:27.31	105.43	32.08	-49.2	-50.5	15.0	0.00e+00	0	24	0	1336934400	64	4212
2026-01-09 23:02:28.59	105.89	32.02	-49.0	-50.3	15.0	0.00e+00	0	23	0	1341128704	64	4113
2026-01-09 23:02:29.30	106.14	31.99	-48.9	-50.2	15.1	0.00e+00	0	23	0	1343225856	64	4083
2026-01-09 23:02:30.58	106.59	31.93	-49.1	-50.4	15.0	0.00e+00	0	23	0	1347420160	64	4192
2026-01-09 23:02:31.30	106.84	31.89	-49.0	-50.3	15.0	0.00e+00	0	23	0	1349517312	64	4134
2026-01-09 23:02:32.59	107.30	31.82	-49.1	-50.4	15.0	0.00e+00	0	23	0	1353711616	64	4170
2026-01-09 23:02:33.31	107.55	31.78	-49.0	-50.3	15.1	0.00e+00	0	23	0	1355808768	64	4099
2026-01-09 23:02:34.60	108.00	31.72	-48.9	-50.2	15.1	0.00e+00	0	23	0	1360003072	64	4080
2026-01-09 23:02:35.30	108.24	31.68	-48.9	-50.2	15.1	0.00e+00	0	23	0	1362100224	64	4081
2026-01-09 23:02:36.62	108.69	31.60	-49.0	-50.3	15.1	0.00e+00	0	23	0	1366294528	64	4104
2026-01-09 23:02:37.34	108.94	31.56	-48.9	-50.2	15.1	0.00e+00	0	23	0	1368391680	64	4062
2026-01-09 23:02:38.63	109.39	31.49	-49.0	-50.3	15.1	0.00e+00	0	23	0	1372585984	64	4112
2026-01-09 23:02:39.35	109.63	31.45	-49.0	-50.3	15.1	0.00e+00	0	23	0	1374683136	64	4129
2026-01-09 23:02:40.63	110.07	31.37	-49.1	-50.4	15.0	0.00e+00	0	23	0	1378877440	64	4189
2026-01-09 23:02:41.35	110.31	31.33	-49.0	-50.3	15.1	0.00e+00	0	23	0	1380974592	64	4100
2026-01-09 23:02:42.64	110.75	31.25	-48.8	-50.1	15.1	0.00e+00	0	23	0	1385168896	64	4026
2026-01-09 23:02:43.38	111.00	31.20	-48.9	-50.1	15.2	0.00e+00	0	23	0	1387266048	64	4036
2026-01-09 23:02:44.67	111.43	31.12	-48.6	-49.9	15.1	0.00e+00	0	23	0	1391460352	63	4164
2026-01-09 23:02:45.38	111.67	31.07	-48.7	-50.0	15.1	0.00e+00	0	23	0	1393557504	63	4196
2026-01-09 23:02:46.71	112.11	30.99	-48.7	-50.0	15.1	0.00e+00	0	23	0	1397751808	63	4195
2026-01-09 23:02:47.42	112.35	30.94	-48.8	-50.1	15.0	0.00e+00	0	23	0	1399848960	63	4246
2026-01-09 23:02:48.74	112.79	30.85	-48.9	-50.2	15.0	0.00e+00	0	23	0	1404043264	63	4309
2026-01-09 23:02:49.45	113.02	30.80	-48.9	-50.2	15.0	0.00e+00	0	23	0	1406140416	63	4327
2026-01-09 23:02:50.74	113.44	30.71	-49.0	-50.3	14.9	0.00e+00	0	23	0	1410334720	63	4368
2026-01-09 23:02:51.46	113.68	30.66	-48.9	-50.2	14.9	0.00e+00	0	23	0	1412431872	63	4327
2026-01-09 23:02:52.75	114.10	30.57	-48.8	-50.1	15.0	0.00e+00	0	23	0	1416626176	63	4269
2026-01-09 23:02:53.46	114.33	30.52	-48.6	-49.9	15.1	0.00e+00	0	23	0	1418723328	63	4169
2026-01-09 23:02:54.76	114.74	30.43	-48.7	-49.9	15.1	0.00e+00	0	23	0	1422917632	63	4178
2026-01-09 23:02:55.47	114.97	30.37	-48.6	-49.8	15.1	0.00e+00	0	23	0	1425014784	63	4116
2026-01-09 23:02:56.75	115.38	30.28	-48.6	-49.9	15.1	0.00e+00	0	23	0	1429209088	63	4153
2026-01-09 23:02:57.50	115.62	30.22	-48.6	-49.8	15.1	0.00e+00	0	23	0	1431306240	63	4145
2026-01-09 23:02:58.78	116.02	30.13	-48.6	-49.9	15.1	0.00e+00	0	23	0	1435500544	63	4155
2026-01-09 23:02:59.50	116.25	30.07	-48.6	-49.8	15.1	0.00e+00	0	23	0	1437597696	63	4139
2026-01-09 23:03:00.80	116.66	29.97	-48.5	-49.8	15.2	0.00e+00	0	23	0	1441792000	63	4117
2026-01-09 23:03:01.51	116.88	29.92	-48.6	-49.8	15.1	0.00e+00	0	23	0	1443889152	63	4123
2026-01-09 23:03:02.81	117.28	29.82	-48.6	-49.9	15.1	0.00e+00	0	23	0	1448083456	63	4173
2026-01-09 23:03:03.52	117.50	29.76	-48.5	-49.8	15.2	0.00e+00	0	23	0	1450180608	63	4111
2026-01-09 23:03:04.81	117.90	29.66	-48.3	-49.5	15.3	0.00e+00	0	23	0	1454374912	63	3983
2026-01-09 23:03:05.52	118.12	29.60	-48.2	-49.4	15.3	0.00e+00	0	23	0	1456472064	63	3944
2026-01-09 23:03:06.83	118.52	29.49	-48.2	-49.4	15.3	0.00e+00	0	23	0	1460666368	63	3920
2026-01-09 23:03:07.55	118.74	29.44	-48.1	-49.3	15.2	0.00e+00	0	23	0	1462763520	62	4130
2026-01-09 23:03:08.84	119.12	29.33	-48.4	-49.6	15.1	0.00e+00	0	23	0	1466957824	62	4266
2026-01-09 23:03:09.56	119.34	29.27	-48.4	-49.6	15.1	0.00e+00	0	23	0	1469054976	62	4277
2026-01-09 23:03:10.85	119.73	29.16	-48.4	-49.6	15.1	0.00e+00	0	23	0	1473249280	62	4291
2026-01-09 23:03:11.59	119.95	29.10	-48.3	-49.5	15.1	0.00e+00	0	23	0	1475346432	62	4216
2026-01-09 23:03:12.87	120.32	28.99	-48.1	-49.3	15.2	0.00e+00	0	23	0	1479540736	62	4134
2026-01-09 23:03:13.59	120.54	28.93	-48.0	-49.2	15.2	0.00e+00	0	23	0	1481637888	62	4081
2026-01-09 23:03:14.87	120.91	28.82	-48.1	-49.3	15.2	0.00e+00	0	23	0	1485832192	62	4104
2026-01-09 23:03:15.61	121.12	28.76	-48.1	-49.3	15.2	0.00e+00	0	23	0	1487929344	62	4145
2026-01-09 23:03:16.90	121.50	28.65	-48.0	-49.2	15.3	0.00e+00	0	24	0	1492123648	62	4056
2026-01-09 23:03:17.61	121.70	28.58	-47.9	-49.1	15.3	0.00e+00	0	23	0	1494220800	62	4014
2026-01-09 23:03:18.90	122.07	28.47	-47.8	-49.0	15.3	0.00e+00	0	23	0	1498415104	62	3995
2026-01-09 23:03:19.64	122.28	28.41	-47.7	-48.9	15.4	0.00e+00	0	23	0	1500512256	62	3933
2026-01-09 23:03:20.91	122.64	28.29	-47.7	-48.9	15.4	0.00e+00	0	23	0	1504706560	62	3940
2026-01-09 23:03:21.65	122.85	28.23	-47.8	-49.0	15.4	0.00e+00	0	23	0	1506803712	62	3960
2026-01-09 23:03:22.93	123.21	28.11	-47.7	-48.9	15.4	0.00e+00	0	23	0	1510998016	62	3928
2026-01-09 23:03:23.65	123.41	28.05	-47.8	-49.0	15.3	0.00e+00	0	23	0	1513095168	62	3970
2026-01-09 23:03:24.93	123.76	27.93	-47.7	-48.9	15.4	0.00e+00	0	23	0	1517289472	62	3941
2026-01-09 23:03:25.65	123.96	27.87	-47.7	-48.9	15.4	0.00e+00	0	23	0	1519386624	62	3920
2026-01-09 23:03:26.93	124.31	27.75	-47.8	-49.0	15.3	0.00e+00	0	24	0	1523580928	62	3997
2026-01-09 23:03:27.66	124.51	27.68	-47.9	-49.1	15.3	0.00e+00	0	23	0	1525678080	62	4045
2026-01-09 23:03:28.95	124.86	27.57	-48.0	-49.2	15.3	0.00e+00	0	23	0	1529872384	62	4077
2026-01-09 23:03:29.66	125.05	27.50	-48.0	-49.2	15.3	0.00e+00	0	23	0	1531969536	62	4077
2026-01-09 23:03:30.97	125.40	27.38	-47.7	-48.8	15.3	0.00e+00	0	23	0	1536163840	61	4135
2026-01-09 23:03:31.69	125.60	27.31	-47.6	-48.8	15.3	0.00e+00	0	23	0	1538260992	61	4110
2026-01-09 23:03:32.99	125.94	27.19	-47.6	-48.8	15.3	0.00e+00	0	24	0	1542455296	61	4113
2026-01-09 23:03:33.70	126.13	27.12	-47.6	-48.7	15.3	0.00e+00	0	23	0	1544552448	61	4082
2026-01-09 23:03:35.00	126.47	27.00	-47.6	-48.8	15.3	0.00e+00	0	23	0	1548746752	61	4132
2026-01-09 23:03:35.72	126.66	26.93	-47.8	-49.0	15.2	0.00e+00	0	23	0	1550843904	61	4206
2026-01-09 23:03:37.00	126.99	26.81	-47.9	-49.1	15.2	0.00e+00	0	23	0	1555038208	61	4282
2026-01-09 23:03:37.73	127.17	26.74	-47.9	-49.1	15.2	0.00e+00	0	23	0	1557135360	61	4278
2026-01-09 23:03:39.02	127.50	26.62	-47.9	-49.1	15.2	0.00e+00	0	23	0	1561329664	61	4272
2026-01-09 23:03:39.75	127.69	26.55	-47.9	-49.1	15.2	0.00e+00	0	23	0	1563426816	61	4273
2026-01-09 23:03:41.03	128.01	26.43	-47.8	-49.0	15.2	0.00e+00	0	23	0	1567621120	61	4239
2026-01-09 23:03:41.76	128.20	26.36	-47.7	-48.9	15.2	0.00e+00	0	23	0	1569718272	61	4179
2026-01-09 23:03:43.04	128.52	26.24	-47.7	-48.9	15.2	0.00e+00	0	23	0	1573912576	61	4177
2026-01-09 23:03:43.78	128.70	26.17	-47.7	-48.8	15.3	0.00e+00	0	23	0	1576009728	61	4132
2026-01-09 23:03:45.07	129.02	26.04	-47.6	-48.8	15.3	0.00e+00	0	23	0	1580204032	61	4125
2026-01-09 23:03:45.78	129.19	25.97	-47.7	-48.9	15.3	0.00e+00	0	23	0	1582301184	61	4167
2026-01-09 23:03:47.07	129.51	25.85	-47.7	-48.9	15.2	0.00e+00	0	23	0	1586495488	61	4154
2026-01-09 23:03:47.79	129.68	25.78	-47.8	-49.0	15.2	0.00e+00	0	23	0	1588592640	61	4221
2026-01-09 23:03:49.08	129.99	25.65	-47.8	-49.0	15.2	0.00e+00	0	23	0	1592786944	61	4227
2026-01-09 23:03:49.79	130.16	25.58	-47.8	-49.0	15.2	0.00e+00	0	23	0	1594884096	61	4230
2026-01-09 23:03:51.10	130.48	25.46	-48.0	-49.2	15.1	0.00e+00	0	23	0	1599078400	61	4306
2026-01-09 23:03:51.81	130.64	25.39	-48.1	-49.3	15.1	0.00e+00	0	23	0	1601175552	61	4386
2026-01-09 23:03:53.11	130.95	25.26	-48.0	-49.2	15.1	0.00e+00	0	23	0	1605369856	61	4339
2026-01-09 23:03:53.83	131.12	25.19	-48.1	-49.3	15.1	0.00e+00	0	23	0	1607467008	61	4369
2026-01-09 23:03:55.13	131.42	25.06	-48.1	-49.3	15.1	0.00e+00	0	23	0	1611661312	61	4363
2026-01-09 23:03:55.84	131.58	24.99	-48.1	-49.3	15.1	0.00e+00	0	23	0	1613758464	61	4358
2026-01-09 23:03:57.12	131.88	24.86	-48.2	-49.4	15.0	0.00e+00	0	23	0	1617952768	61	4413
2026-01-09 23:03:57.83	132.04	24.79	-48.1	-49.3	15.1	0.00e+00	0	23	0	1620049920	61	4350
2026-01-09 23:03:59.12	132.33	24.67	-48.1	-49.3	15.1	0.00e+00	0	23	0	1624244224	61	4357
2026-01-09 23:03:59.84	132.49	24.60	-48.1	-49.4	15.1	0.00e+00	0	23	0	1626341376	61	4403
2026-01-09 23:04:01.12	132.78	24.47	-48.1	-49.4	15.1	0.00e+00	0	23	0	1630535680	61	4392
2026-01-09 23:04:01.84	132.94	24.40	-48.2	-49.4	15.0	0.00e+00	0	23	0	1632632832	61	4438
2026-01-09 23:04:03.12	133.22	24.27	-48.0	-49.3	15.1	0.00e+00	0	23	0	1636827136	61	4343
2026-01-09 23:04:03.85	133.39	24.20	-48.0	-49.2	15.1	0.00e+00	0	23	0	1638924288	61	4320
2026-01-09 23:04:05.13	133.66	24.07	-48.0	-49.2	15.1	0.00e+00	0	23	0	1643118592	61	4307
2026-01-09 23:04:05.86	133.82	24.00	-48.0	-49.2	15.1	0.00e+00	0	23	0	1645215744	61	4318
2026-01-09 23:04:07.14	134.10	23.87	-48.0	-49.3	15.1	0.00e+00	0	23	0	1649410048	61	4350
2026-01-09 23:04:07.86	134.25	23.80	-48.0	-49.2	15.1	0.00e+00	0	23	0	1651507200	61	4316
2026-01-09 23:04:09.15	134.53	23.68	-48.0	-49.2	15.1	0.00e+00	0	23	0	1655701504	61	4339
2026-01-09 23:04:09.86	134.68	23.61	-48.0	-49.2	15.1	0.00e+00	0	23	0	1657798656	61	4318
2026-01-09 23:04:11.15	134.95	23.48	-48.0	-49.3	15.1	0.00e+00	0	23	0	1661992960	61	4351
2026-01-09 23:04:11.86	135.10	23.41	-48.0	-49.3	15.1	0.00e+00	0	23	0	1664090112	61	4343
2026-01-09 23:04:13.15	135.37	23.28	-48.1	-49.3	15.1	0.00e+00	0	23	0	1667235840	61	4367
2026-01-09 23:04:13.87	135.52	23.21	-48.1	-49.3	15.1	0.00e+00	0	23	0	1670381568	61	4372
2026-01-09 23:04:15.16	135.78	23.08	-48.0	-49.3	15.1	0.00e+00	0	23	0	1674575872	61	4347
2026-01-09 23:04:15.89	135.93	23.01	-48.0	-49.2	15.1	0.00e+00	0	23	0	1676673024	61	4338
2026-01-09 23:04:17.17	136.19	22.88	-48.0	-49.2	15.1	0.00e+00	0	23	0	1680867328	61	4340
2026-01-09 23:04:17.89	136.34	22.81	-48.1	-49.3	15.1	0.00e+00	0	23	0	1682964480	61	4355
2026-01-09 23:04:19.17	136.59	22.68	-48.1	-49.4	15.1	0.00e+00	0	23	0	1687158784	61	4410
2026-01-09 23:04:19.91	136.74	22.61	-48.2	-49.4	15.0	0.00e+00	0	23	0	1689255936	61	4441
2026-01-09 23:04:21.19	136.99	22.48	-48.1	-49.3	15.1	0.00e+00	0	23	0	1692401664	61	4375
2026-01-09 23:04:21.90	137.13	22.41	-48.1	-49.3	15.1	0.00e+00	0	23	0	1695547392	61	4388
2026-01-09 23:04:23.19	137.39	22.28	-48.1	-49.3	15.0	0.00e+00	0	23	0	1698693120	61	4391
2026-01-09 23:04:23.91	137.53	22.21	-48.1	-49.3	15.0	0.00e+00	0	23	0	1701838848	61	4372
2026-01-09 23:04:25.20	137.78	22.08	-48.2	-49.5	15.0	0.00e+00	0	23	0	1704984576	61	4445
2026-01-09 23:04:25.94	137.92	22.01	-48.2	-49.5	15.0	0.00e+00	0	23	0	1708130304	61	4449
2026-01-09 23:04:27.22	138.16	21.89	-48.4	-49.6	14.9	0.00e+00	0	23	0	1711276032	61	4542
2026-01-09 23:04:27.94	138.30	21.81	-48.4	-49.6	14.9	0.00e+00	0	23	0	1714421760	61	4543
2026-01-09 23:04:29.24	138.54	21.69	-48.4	-49.7	14.9	0.00e+00	0	23	0	1717567488	61	4548
2026-01-09 23:04:29.95	138.68	21.62	-48.4	-49.7	15.0	0.00e+00	0	23	0	1720713216	62	4307
2026-01-09 23:04:31.25	138.92	21.49	-48.4	-49.7	15.0	0.00e+00	0	23	0	1723858944	62	4311
2026-01-09 23:04:31.96	139.05	21.42	-48.4	-49.7	15.0	0.00e+00	0	23	0	1727004672	62	4331
2026-01-09 23:04:33.25	139.29	21.29	-48.3	-49.6	15.1	0.00e+00	0	23	0	1730150400	62	4278
2026-01-09 23:04:33.96	139.42	21.22	-48.3	-49.6	15.1	0.00e+00	0	23	0	1733296128	62	4246
2026-01-09 23:04:35.27	139.65	21.09	-48.3	-49.6	15.1	0.00e+00	0	23	0	1736441856	62	4248
2026-01-09 23:04:35.98	139.78	21.02	-48.3	-49.6	15.1	0.00e+00	0	23	0	1739587584	62	4261
2026-01-09 23:04:37.27	140.01	20.90	-48.2	-49.4	15.1	0.00e+00	0	23	0	1742733312	62	4189
2026-01-09 23:04:37.99	140.14	20.83	-48.1	-49.3	15.2	0.00e+00	0	23	0	1745879040	62	4126
2026-01-09 23:04:39.27	140.37	20.70	-48.1	-49.4	15.2	0.00e+00	0	23	0	1749024768	62	4152
2026-01-09 23:04:39.99	140.50	20.63	-48.1	-49.3	15.2	0.00e+00	0	23	0	1751121920	62	4133
2026-01-09 23:04:41.28	140.72	20.51	-48.1	-49.3	15.2	0.00e+00	0	23	0	1755316224	62	4130
2026-01-09 23:04:41.99	140.84	20.44	-48.1	-49.3	15.2	0.00e+00	0	23	0	1757413376	62	4124
2026-01-09 23:04:43.28	141.07	20.31	-48.1	-49.3	15.2	0.00e+00	0	23	0	1761607680	62	4139
2026-01-09 23:04:44.00	141.19	20.24	-48.1	-49.4	15.2	0.00e+00	0	23	0	1763704832	62	4152
2026-01-09 23:04:45.28	141.41	20.12	-48.2	-49.4	15.1	0.00e+00	0	23	0	1767899136	62	4181
2026-01-09 23:04:46.00	141.53	20.05	-48.2	-49.5	15.1	0.00e+00	0	23	0	1769996288	62	4202
2026-01-09 23:04:47.28	141.75	19.92	-48.2	-49.5	15.2	0.00e+00	0	23	0	1774190592	62	4199
2026-01-09 23:04:47.99	141.87	19.86	-48.1	-49.4	15.2	0.00e+00	0	23	0	1776287744	62	4150
2026-01-09 23:04:49.28	142.08	19.73	-48.0	-49.2	15.2	0.00e+00	0	23	0	1780482048	62	4084
2026-01-09 23:04:49.99	142.20	19.66	-48.0	-49.2	15.2	0.00e+00	0	23	0	1782579200	62	4088
2026-01-09 23:04:51.29	142.41	19.54	-48.0	-49.2	15.2	0.00e+00	0	23	0	1786773504	62	4098
2026-01-09 23:04:52.02	142.53	19.47	-47.9	-49.2	15.3	0.00e+00	0	23	0	1788870656	62	4058
2026-01-09 23:04:53.30	142.74	19.35	-47.9	-49.1	15.2	0.00e+00	0	23	0	1793064960	62	4046
2026-01-09 23:04:54.02	142.86	19.28	-47.9	-49.1	15.2	0.00e+00	0	23	0	1795162112	62	4048
2026-01-09 23:04:55.30	143.06	19.15	-47.9	-49.2	15.2	0.00e+00	0	23	0	1799356416	62	4058
2026-01-09 23:04:56.02	143.18	19.09	-48.0	-49.2	15.2	0.00e+00	0	23	0	1801453568	62	4085
2026-01-09 23:04:57.31	143.38	18.96	-48.0	-49.2	15.2	0.00e+00	0	23	0	1805647872	62	4066
2026-01-09 23:04:58.02	143.49	18.90	-47.9	-49.1	15.3	0.00e+00	0	23	0	1807745024	62	4035
2026-01-09 23:04:59.32	143.70	18.77	-47.9	-49.1	15.2	0.00e+00	0	23	0	1811939328	62	4035
2026-01-09 23:05:00.04	143.81	18.70	-47.9	-49.2	15.2	0.00e+00	0	23	0	1814036480	62	4054
2026-01-09 23:05:01.32	144.01	18.58	-48.0	-49.2	15.2	0.00e+00	0	23	0	1818230784	62	4063
2026-01-09 23:05:02.04	144.12	18.51	-48.0	-49.2	15.2	0.00e+00	0	23	0	1820327936	62	4091
2026-01-09 23:05:03.33	144.32	18.39	-47.9	-49.1	15.2	0.00e+00	0	23	0	1824522240	62	4032
2026-01-09 23:05:04.04	144.42	18.33	-47.9	-49.1	15.2	0.00e+00	0	23	0	1826619392	62	4032
2026-01-09 23:05:05.34	144.62	18.20	-48.0	-49.2	15.2	0.00e+00	0	23	0	1830813696	62	4088
2026-01-09 23:05:06.06	144.73	18.14	-48.2	-49.4	15.1	0.00e+00	0	23	0	1832910848	62	4175
2026-01-09 23:05:07.35	144.92	18.02	-48.2	-49.5	15.1	0.00e+00	0	23	0	1837105152	62	4218
2026-01-09 23:05:08.06	145.03	17.95	-48.3	-49.5	15.1	0.00e+00	0	23	0	1839202304	62	4242
2026-01-09 23:05:09.36	145.22	17.83	-48.4	-49.7	15.0	0.00e+00	0	23	0	1843396608	62	4329
2026-01-09 23:05:10.07	145.32	17.76	-48.4	-49.7	15.0	0.00e+00	0	23	0	1845493760	62	4324
2026-01-09 23:05:11.37	145.51	17.64	-48.4	-49.7	15.0	0.00e+00	0	23	0	1849688064	62	4306
2026-01-09 23:05:12.08	145.61	17.58	-48.3	-49.6	15.0	0.00e+00	0	23	0	1851785216	62	4279
2026-01-09 23:05:13.36	145.80	17.46	-48.3	-49.6	15.0	0.00e+00	0	23	0	1855979520	62	4263
2026-01-09 23:05:14.08	145.90	17.39	-48.4	-49.7	15.0	0.00e+00	0	23	0	1858076672	62	4302
2026-01-09 23:05:15.37	146.09	17.27	-48.5	-49.8	15.0	0.00e+00	0	23	0	1862270976	62	4372
2026-01-09 23:05:16.09	146.19	17.21	-48.6	-49.9	14.9	0.00e+00	0	23	0	1864368128	62	4411
2026-01-09 23:05:17.38	146.37	17.09	-48.7	-50.0	14.8	0.00e+00	0	23	0	1868562432	62	4486
2026-01-09 23:05:18.10	146.47	17.02	-48.7	-50.0	14.9	0.00e+00	0	23	0	1870659584	62	4480
2026-01-09 23:05:19.38	146.65	16.90	-48.7	-50.0	14.9	0.00e+00	0	23	0	1874853888	62	4453
2026-01-09 23:05:20.10	146.75	16.84	-48.7	-50.0	14.8	0.00e+00	0	23	0	1876951040	62	4483
2026-01-09 23:05:21.38	146.92	16.72	-48.6	-50.0	14.9	0.00e+00	0	23	0	1881145344	62	4446
2026-01-09 23:05:22.09	147.02	16.66	-48.6	-49.9	14.9	0.00e+00	0	23	0	1883242496	62	4395
2026-01-09 23:05:23.38	147.20	16.54	-48.6	-49.9	14.9	0.00e+00	0	23	0	1887436800	62	4427
2026-01-09 23:05:24.09	147.29	16.48	-48.6	-49.9	14.9	0.00e+00	0	23	0	1889533952	62	4440
2026-01-09 23:05:25.38	147.47	16.36	-48.8	-50.2	14.8	0.00e+00	0	23	0	1893728256	62	4547
2026-01-09 23:05:26.10	147.56	16.29	-48.8	-50.1	14.8	0.00e+00	0	23	0	1895825408	62	4520
2026-01-09 23:05:27.38	147.73	16.18	-48.9	-50.2	14.8	0.00e+00	0	23	0	1900019712	62	4580
2026-01-09 23:05:28.10	147.83	16.11	-48.9	-50.3	14.8	0.00e+00	0	23	0	1902116864	63	4365
2026-01-09 23:05:29.38	147.99	16.00	-49.0	-50.3	14.8	0.00e+00	0	23	0	1906311168	63	4369
2026-01-09 23:05:30.11	148.09	15.93	-49.0	-50.4	14.8	0.00e+00	0	23	0	1908408320	63	4414
2026-01-09 23:05:31.39	148.26	15.82	-49.1	-50.5	14.8	0.00e+00	0	23	0	1912602624	63	4448
2026-01-09 23:05:32.13	148.35	15.75	-49.2	-50.6	14.7	0.00e+00	0	23	0	1914699776	63	4517
2026-01-09 23:05:33.40	148.51	15.64	-49.1	-50.5	14.7	0.00e+00	0	23	0	1918894080	63	4472
2026-01-09 23:05:34.13	148.61	15.58	-49.1	-50.5	14.8	0.00e+00	0	23	0	1920991232	63	4458
2026-01-09 23:05:35.42	148.77	15.46	-49.1	-50.4	14.8	0.00e+00	0	23	0	1925185536	63	4424
2026-01-09 23:05:36.13	148.86	15.40	-49.2	-50.6	14.7	0.00e+00	0	23	0	1927282688	63	4498
2026-01-09 23:05:37.43	149.02	15.29	-49.2	-50.6	14.7	0.00e+00	0	23	0	1931476992	63	4530
2026-01-09 23:05:38.15	149.11	15.22	-49.3	-50.6	14.7	0.00e+00	0	23	0	1933574144	63	4541
2026-01-09 23:05:39.43	149.27	15.11	-49.3	-50.7	14.6	0.00e+00	0	23	0	1937768448	63	4592
2026-01-09 23:05:40.15	149.36	15.05	-49.3	-50.7	14.6	0.00e+00	0	23	0	1939865600	63	4576
2026-01-09 23:05:41.44	149.52	14.93	-49.2	-50.6	14.7	0.00e+00	0	23	0	1944059904	63	4524
2026-01-09 23:05:42.15	149.61	14.87	-49.3	-50.7	14.6	0.00e+00	0	23	0	1946157056	63	4582
2026-01-09 23:05:43.45	149.76	14.76	-49.3	-50.8	14.6	0.00e+00	0	23	0	1950351360	63	4599
2026-01-09 23:05:44.16	149.85	14.70	-49.4	-50.8	14.6	0.00e+00	0	23	0	1952448512	63	4638
2026-01-09 23:05:45.45	150.00	14.59	-49.4	-50.8	14.7	0.00e+00	0	23	0	1956642816	64	4358
2026-01-09 23:05:46.16	150.09	14.53	-49.4	-50.8	14.7	0.00e+00	0	23	0	1958739968	64	4370
2026-01-09 23:05:47.46	150.24	14.41	-49.3	-50.7	14.7	0.00e+00	0	23	0	1962934272	64	4334
2026-01-09 23:05:48.17	150.33	14.35	-49.3	-50.7	14.8	0.00e+00	0	23	0	1965031424	64	4317
2026-01-09 23:05:49.48	150.48	14.24	-49.3	-50.7	14.7	0.00e+00	0	23	0	1969225728	64	4340
2026-01-09 23:05:50.19	150.56	14.18	-49.3	-50.8	14.7	0.00e+00	0	23	0	1971322880	64	4341
2026-01-09 23:05:51.50	150.71	14.07	-49.3	-50.7	14.8	0.00e+00	0	23	0	1975517184	64	4328
2026-01-09 23:05:52.22	150.80	14.01	-49.2	-50.6	14.8	0.00e+00	0	23	0	1977614336	64	4271
2026-01-09 23:05:53.50	150.94	13.90	-49.1	-50.5	14.8	0.00e+00	0	23	0	1981808640	64	4220
2026-01-09 23:05:54.22	151.03	13.84	-49.2	-50.6	14.8	0.00e+00	0	23	0	1983905792	64	4244
2026-01-09 23:05:55.50	151.17	13.73	-49.2	-50.6	14.8	0.00e+00	0	23	0	1987051520	64	4272
2026-01-09 23:05:56.21	151.25	13.67	-49.3	-50.8	14.7	0.00e+00	0	23	0	1990197248	64	4351
2026-01-09 23:05:57.50	151.40	13.56	-49.2	-50.6	14.8	0.00e+00	0	23	0	1993342976	64	4281
2026-01-09 23:05:58.21	151.47	13.50	-49.3	-50.7	14.8	0.00e+00	0	23	0	1996488704	64	4309
2026-01-09 23:05:59.50	151.62	13.39	-49.4	-50.8	14.7	0.00e+00	0	23	0	1999634432	64	4367
2026-01-09 23:06:00.22	151.70	13.33	-49.4	-50.9	14.7	0.00e+00	0	23	0	2002780160	64	4404
2026-01-09 23:06:01.50	151.84	13.23	-49.3	-50.8	14.7	0.00e+00	0	23	0	2005925888	64	4345
2026-01-09 23:06:02.21	151.91	13.17	-49.3	-50.8	14.7	0.00e+00	0	23	0	2009071616	64	4344
2026-01-09 23:06:03.51	152.06	13.06	-49.3	-50.8	14.7	0.00e+00	0	23	0	2012217344	64	4346
2026-01-09 23:06:04.22	152.13	13.00	-49.3	-50.8	14.7	0.00e+00	0	23	0	2015363072	64	4350
2026-01-09 23:06:05.50	152.27	12.89	-49.4	-50.8	14.7	0.00e+00	0	23	0	2018508800	64	4371
2026-01-09 23:06:06.26	152.35	12.83	-49.4	-50.9	14.7	0.00e+00	0	23	0	2021654528	64	4397
2026-01-09 23:06:07.55	152.49	12.73	-49.4	-50.8	14.7	0.00e+00	0	23	0	2024800256	64	4361
2026-01-09 23:06:08.27	152.56	12.67	-49.4	-50.9	14.6	0.00e+00	0	23	0	2027945984	64	4408
2026-01-09 23:06:09.56	152.70	12.56	-49.4	-50.8	14.7	0.00e+00	0	23	0	2032140288	64	4358
2026-01-09 23:06:10.27	152.77	12.50	-49.4	-50.8	14.7	0.00e+00	0	23	0	2034237440	64	4388
2026-01-09 23:06:11.57	152.91	12.40	-49.3	-50.7	14.7	0.00e+00	0	23	0	2037383168	64	4306
2026-01-09 23:06:12.28	152.98	12.34	-49.3	-50.8	14.7	0.00e+00	0	23	0	2040528896	64	4358
2026-01-09 23:06:13.57	153.12	12.23	-49.3	-50.7	14.7	0.00e+00	0	23	0	2043674624	64	4305
2026-01-09 23:06:14.28	153.19	12.18	-49.4	-50.8	14.7	0.00e+00	0	23	0	2046820352	64	4367
2026-01-09 23:06:15.57	153.32	12.07	-49.2	-50.6	14.8	0.00e+00	0	23	0	2049966080	64	4273
2026-01-09 23:06:16.28	153.39	12.02	-49.3	-50.7	14.7	0.00e+00	0	23	0	2052063232	64	4306
2026-01-09 23:06:17.57	153.52	11.91	-49.1	-50.5	14.8	0.00e+00	0	24	0	2056257536	64	4219
2026-01-09 23:06:18.30	153.59	11.85	-49.1	-50.5	14.9	0.00e+00	0	23	0	2058354688	64	4219
2026-01-09 23:06:19.58	153.72	11.75	-49.2	-50.6	14.8	0.00e+00	0	24	0	2062548992	64	4256
2026-01-09 23:06:20.29	153.79	11.69	-49.2	-50.7	14.7	0.00e+00	0	23	0	2064646144	64	4292
2026-01-09 23:06:21.59	153.92	11.59	-49.3	-50.7	14.7	0.00e+00	0	23	0	2068840448	64	4304
2026-01-09 23:06:22.31	153.99	11.53	-49.1	-50.5	14.8	0.00e+00	0	24	0	2071986176	64	4232
2026-01-09 23:06:23.60	154.12	11.43	-49.1	-50.5	14.8	0.00e+00	0	23	0	2075131904	64	4223
2026-01-09 23:06:24.31	154.19	11.38	-49.1	-50.5	14.8	0.00e+00	0	23	0	2077229056	64	4199
2026-01-09 23:06:25.62	154.31	11.27	-49.1	-50.5	14.9	0.00e+00	0	23	0	2081423360	64	4197
2026-01-09 23:06:26.33	154.38	11.22	-49.1	-50.5	14.8	0.00e+00	0	23	0	2083520512	64	4210
