passes_logs/2026/01/09/R3.2S_Murmansk/R3.2S_Murmansk__20260109_073156_NOAA_21_JPSS-2_rec.log

#Pass ID: 20260109_073156_NOAA 21 (JPSS-2)
#Satellite: NOAA 21 (JPSS-2)
#Configuration: NOAA-21
#almurnet v.1.7.20251203
#Start time: 2026-01-09 07:31:56

#Version: 2.2.20231116
#Station: R3.2S_Murmansk
#Location: 33.079688 lon 68.888172 lat
#TLE: 1 54234U 22150A   26008.59854928  .00000127  00000+0  81204-4 0  9992
#TLE: 2 54234  98.7494 309.5759 0000887 327.7487  32.3634 14.19533414163905

#Time	Az	El	Level	Level2	SNR	BER	BlckErr	Temp	State	Recorded	gain1	gain2
2026-01-09 07:31:56.79	106.15	2.02	-57.4	-71.1	3.8	1.49e+00	0	22	0	0	81	17049
2026-01-09 07:31:57.79	106.11	2.08	-57.4	-70.9	3.8	1.49e+00	0	22	104	0	79	18582
2026-01-09 07:31:58.78	106.07	2.14	-57.4	-70.9	3.8	1.49e+00	0	22	104	0	79	18617
2026-01-09 07:31:59.77	106.03	2.20	-57.4	-70.9	3.8	1.49e+00	0	22	104	0	79	18698
2026-01-09 07:32:00.77	105.99	2.26	-57.4	-71.1	3.8	1.49e+00	0	22	104	0	79	18960
2026-01-09 07:32:01.77	105.94	2.32	-57.4	-71.1	3.8	1.49e+00	0	22	104	0	79	19093
2026-01-09 07:32:02.77	105.90	2.38	-57.4	-71.1	3.8	1.49e+00	0	22	104	0	79	19122
2026-01-09 07:32:03.75	105.86	2.44	-57.4	-71.1	3.8	1.49e+00	0	22	104	0	79	19150
2026-01-09 07:32:04.75	105.81	2.51	-57.4	-71.1	3.8	1.49e+00	0	22	104	0	79	19021
2026-01-09 07:32:05.75	105.77	2.57	-57.4	-71.1	3.8	1.49e+00	0	22	104	0	79	19085
2026-01-09 07:32:06.75	105.72	2.63	-57.4	-71.1	3.8	1.49e+00	0	22	104	0	79	19117
2026-01-09 07:32:07.74	105.68	2.69	-57.4	-71.1	3.8	1.49e+00	0	22	104	0	79	19156
2026-01-09 07:32:08.74	105.64	2.75	-57.4	-71.1	3.8	1.49e+00	0	22	104	0	79	19064
2026-01-09 07:32:09.73	105.59	2.82	-57.4	-71.1	3.8	1.49e+00	0	22	104	0	79	19043
2026-01-09 07:32:10.72	105.55	2.88	-57.4	-71.1	3.8	1.49e+00	0	22	104	0	79	19025
2026-01-09 07:32:11.72	105.50	2.94	-57.4	-71.1	3.8	1.49e+00	0	22	104	0	79	19002
2026-01-09 07:32:12.71	105.46	3.00	-57.4	-71.1	3.8	1.49e+00	0	22	104	0	79	19033
2026-01-09 07:32:13.71	105.41	3.07	-57.4	-71.1	3.8	1.49e+00	0	22	104	0	79	18970
2026-01-09 07:32:14.70	105.37	3.13	-57.4	-71.1	3.8	1.49e+00	0	22	104	0	79	18976
2026-01-09 07:32:15.68	105.32	3.19	-57.4	-71.1	3.8	1.49e+00	0	22	104	0	79	19015
2026-01-09 07:32:16.67	105.28	3.25	-57.4	-71.0	3.8	1.49e+00	0	22	104	0	79	18941
2026-01-09 07:32:17.68	105.23	3.32	-57.4	-71.0	3.8	1.49e+00	0	22	104	0	79	18928
2026-01-09 07:32:18.67	105.18	3.38	-57.4	-70.9	3.8	1.49e+00	0	22	104	0	79	18720
2026-01-09 07:32:19.67	105.14	3.44	-57.4	-70.8	3.8	1.49e+00	0	22	104	0	79	18517
2026-01-09 07:32:20.67	105.09	3.51	-57.4	-70.8	3.8	1.49e+00	0	22	104	0	79	18320
2026-01-09 07:32:21.67	105.04	3.57	-57.4	-70.6	3.8	1.49e+00	0	22	104	0	79	18091
2026-01-09 07:32:22.67	104.99	3.64	-57.4	-70.6	3.8	1.49e+00	0	22	104	0	79	17981
2026-01-09 07:32:23.67	104.95	3.70	-57.4	-70.6	3.8	1.49e+00	0	22	104	0	79	17996
2026-01-09 07:32:24.67	104.90	3.76	-57.3	-70.6	3.8	1.49e+00	0	22	104	0	79	18014
2026-01-09 07:32:25.67	104.85	3.83	-57.4	-70.8	3.8	1.49e+00	0	22	104	0	79	18407
2026-01-09 07:32:26.67	104.80	3.89	-57.4	-71.0	3.8	1.49e+00	0	22	104	0	79	18839
2026-01-09 07:32:27.66	104.75	3.96	-57.4	-71.1	3.8	1.49e+00	0	22	104	0	79	19160
2026-01-09 07:32:28.66	104.71	4.02	-57.4	-71.1	3.8	1.49e+00	0	22	104	0	79	19030
2026-01-09 07:32:29.66	104.66	4.09	-57.4	-70.8	3.8	1.49e+00	0	22	104	0	79	18340
2026-01-09 07:32:30.65	104.61	4.15	-57.3	-70.2	3.8	1.49e+00	0	22	104	0	79	17176
2026-01-09 07:32:31.65	104.56	4.22	-57.3	-69.4	3.9	1.49e+00	0	22	104	0	79	15689
2026-01-09 07:32:32.65	104.51	4.28	-57.2	-67.9	4.1	1.48e+00	0	22	104	0	79	13173
2026-01-09 07:32:33.64	104.46	4.35	-57.1	-66.8	4.4	1.45e+00	1	22	104	0	79	11619
2026-01-09 07:32:34.63	104.41	4.41	-57.0	-66.0	4.8	9.82e-01	0	23	104	0	79	10594
2026-01-09 07:32:35.63	104.36	4.48	-56.8	-64.9	5.4	6.00e-01	0	22	0	1048576	79	9314
2026-01-09 07:32:36.63	104.31	4.55	-56.7	-64.3	5.7	4.00e-01	0	22	0	3145728	79	8725
2026-01-09 07:32:37.62	104.26	4.61	-56.6	-63.6	6.2	2.67e-01	0	23	0	6291456	79	8024
2026-01-09 07:32:38.62	104.21	4.68	-56.4	-62.8	6.8	1.49e-01	0	23	0	9437184	79	7337
2026-01-09 07:32:39.63	104.16	4.74	-56.3	-62.4	7.2	1.10e-01	0	22	0	12582912	79	7021
2026-01-09 07:32:40.62	104.10	4.81	-56.1	-61.7	7.8	7.61e-02	0	23	0	15728640	78	6826
2026-01-09 07:32:41.63	104.05	4.88	-56.0	-61.3	8.1	4.68e-02	0	22	0	18874368	78	6546
2026-01-09 07:32:42.62	104.00	4.94	-55.9	-61.1	8.3	3.59e-02	0	23	0	22020096	78	6376
2026-01-09 07:32:43.61	103.95	5.01	-55.9	-61.0	8.4	2.55e-02	0	23	0	25165824	78	6333
2026-01-09 07:32:44.60	103.90	5.08	-55.2	-59.2	10.1	9.50e-03	0	23	0	28311552	77	5419
2026-01-09 07:32:45.59	103.84	5.14	-56.1	-61.6	8.0	1.36e-03	0	22	0	31457280	77	7165
2026-01-09 07:32:46.59	103.79	5.21	-56.1	-61.5	8.1	6.56e-02	0	23	0	34603008	78	6685
2026-01-09 07:32:47.59	103.74	5.28	-53.9	-56.8	11.9	5.18e-02	0	23	0	37748736	74	4881
2026-01-09 07:32:48.59	103.68	5.35	-56.5	-62.9	7.0	2.62e-03	0	23	0	40894464	78	7876
2026-01-09 07:32:49.58	103.63	5.41	-55.7	-60.1	9.3	1.59e-01	0	23	0	41943040	78	5719
2026-01-09 07:32:50.58	103.58	5.48	-54.0	-56.9	11.9	2.05e-05	0	23	0	45088768	74	4968
2026-01-09 07:32:51.58	103.52	5.55	-53.8	-56.7	12.1	7.60e-06	0	23	0	48234496	74	4853
2026-01-09 07:32:52.58	103.47	5.62	-53.6	-56.3	12.1	3.80e-06	0	23	0	51380224	73	4904
2026-01-09 07:32:53.57	103.41	5.69	-53.5	-56.2	12.3	3.00e-06	0	23	0	54525952	73	4864
2026-01-09 07:32:54.56	103.36	5.75	-53.5	-56.3	12.3	3.80e-06	0	23	0	57671680	73	4899
2026-01-09 07:32:55.55	103.30	5.82	-53.2	-55.7	12.6	0.00e+00	0	23	0	60817408	73	4589
2026-01-09 07:32:56.54	103.25	5.89	-53.1	-55.6	12.7	1.50e-06	0	23	0	63963136	72	4774
2026-01-09 07:32:57.54	103.19	5.96	-53.0	-55.5	12.7	7.00e-07	0	23	0	67108864	72	4751
2026-01-09 07:32:58.53	103.14	6.03	-52.8	-55.2	13.0	0.00e+00	0	23	0	69206016	72	4565
2026-01-09 07:32:59.53	103.08	6.10	-52.7	-55.1	12.9	0.00e+00	0	23	0	72351744	71	4767
2026-01-09 07:33:00.52	103.02	6.17	-52.4	-54.6	13.3	0.00e+00	0	23	0	75497472	71	4497
2026-01-09 07:33:01.51	102.97	6.24	-52.7	-55.1	12.9	0.00e+00	0	23	0	78643200	71	4781
2026-01-09 07:33:02.51	102.91	6.30	-52.6	-54.9	13.0	0.00e+00	0	23	0	81788928	71	4693
2026-01-09 07:33:03.50	102.85	6.37	-52.3	-54.4	13.4	0.00e+00	0	23	0	84934656	71	4436
2026-01-09 07:33:04.50	102.79	6.44	-52.2	-54.3	13.4	0.00e+00	0	23	0	88080384	70	4628
2026-01-09 07:33:05.50	102.73	6.51	-52.2	-54.3	13.3	0.00e+00	0	23	0	91226112	70	4620
2026-01-09 07:33:06.50	102.68	6.59	-52.0	-54.0	13.6	0.00e+00	0	23	0	94371840	70	4464
2026-01-09 07:33:07.49	102.62	6.66	-52.2	-54.3	13.3	0.00e+00	0	23	0	97517568	70	4619
2026-01-09 07:33:08.48	102.56	6.73	-52.0	-54.1	13.5	0.00e+00	0	23	0	100663296	70	4517
2026-01-09 07:33:09.48	102.50	6.80	-51.9	-54.0	13.4	0.00e+00	0	23	0	103809024	69	4706
2026-01-09 07:33:10.48	102.44	6.87	-51.7	-53.7	13.6	0.00e+00	0	23	0	106954752	69	4571
2026-01-09 07:33:11.48	102.38	6.94	-52.0	-54.1	13.4	0.00e+00	0	23	0	110100480	69	4770
2026-01-09 07:33:12.49	102.32	7.01	-51.8	-53.7	13.6	0.00e+00	0	23	0	113246208	69	4587
2026-01-09 07:33:13.49	102.26	7.08	-51.5	-53.4	13.8	0.00e+00	0	23	0	116391936	69	4399
2026-01-09 07:33:14.50	102.20	7.16	-51.5	-53.4	13.8	0.00e+00	0	23	0	119537664	69	4404
2026-01-09 07:33:15.49	102.13	7.23	-51.5	-53.4	13.8	0.00e+00	0	23	0	122683392	69	4414
2026-01-09 07:33:16.48	102.07	7.30	-51.4	-53.3	13.9	0.00e+00	0	23	0	125829120	69	4353
2026-01-09 07:33:17.48	102.01	7.37	-51.5	-53.4	13.8	0.00e+00	0	23	0	128974848	69	4404
2026-01-09 07:33:18.48	101.95	7.44	-51.4	-53.3	13.9	0.00e+00	0	23	0	132120576	69	4360
2026-01-09 07:33:19.48	101.89	7.52	-51.5	-53.4	13.9	0.00e+00	0	23	0	135266304	69	4401
2026-01-09 07:33:20.48	101.82	7.59	-51.4	-53.2	14.0	0.00e+00	0	23	0	138412032	69	4320
2026-01-09 07:33:21.49	101.76	7.66	-51.2	-53.0	13.9	0.00e+00	0	23	0	141557760	68	4449
2026-01-09 07:33:22.49	101.69	7.74	-51.2	-53.0	13.9	0.00e+00	0	23	0	144703488	68	4459
2026-01-09 07:33:23.49	101.63	7.81	-51.2	-53.0	14.0	0.00e+00	0	23	0	147849216	68	4453
2026-01-09 07:33:24.49	101.57	7.88	-51.4	-53.2	13.8	0.00e+00	0	23	0	150994944	68	4593
2026-01-09 07:33:25.49	101.50	7.96	-51.0	-52.7	14.1	0.00e+00	0	23	0	154140672	68	4329
2026-01-09 07:33:26.49	101.44	8.03	-50.5	-52.2	14.4	0.00e+00	0	23	0	157286400	67	4292
2026-01-09 07:33:27.49	101.37	8.11	-50.4	-52.1	14.3	0.00e+00	0	23	0	160432128	67	4250
2026-01-09 07:33:28.49	101.30	8.18	-50.3	-51.9	14.4	0.00e+00	0	23	0	163577856	67	4179
2026-01-09 07:33:29.50	101.24	8.25	-50.4	-52.0	14.3	0.00e+00	0	23	0	166723584	67	4240
2026-01-09 07:33:30.50	101.17	8.33	-50.1	-51.7	14.4	0.00e+00	0	23	0	169869312	66	4299
2026-01-09 07:33:31.50	101.10	8.40	-49.9	-51.5	14.5	0.00e+00	0	23	0	173015040	66	4205
2026-01-09 07:33:32.50	101.04	8.48	-50.0	-51.5	14.5	0.00e+00	0	23	0	176160768	66	4224
2026-01-09 07:33:33.50	100.97	8.55	-50.0	-51.6	14.5	0.00e+00	0	23	0	179306496	66	4256
2026-01-09 07:33:34.50	100.90	8.63	-50.0	-51.6	14.5	0.00e+00	0	23	0	182452224	66	4267
2026-01-09 07:33:35.50	100.83	8.71	-49.8	-51.3	14.7	0.00e+00	0	23	0	185597952	66	4123
2026-01-09 07:33:36.49	100.77	8.78	-49.8	-51.3	14.7	0.00e+00	0	23	0	188743680	66	4121
2026-01-09 07:33:37.49	100.70	8.86	-49.8	-51.3	14.6	0.00e+00	0	23	0	191889408	66	4139
2026-01-09 07:33:38.48	100.63	8.93	-49.7	-51.2	14.7	0.00e+00	0	23	0	195035136	66	4057
2026-01-09 07:33:39.48	100.56	9.01	-49.6	-51.1	14.6	0.00e+00	0	23	0	197132288	65	4250
2026-01-09 07:33:40.47	100.49	9.08	-49.5	-51.0	14.7	0.00e+00	0	23	0	200278016	65	4195
2026-01-09 07:33:41.46	100.42	9.16	-49.4	-50.9	14.7	0.00e+00	0	23	0	203423744	65	4169
2026-01-09 07:33:42.47	100.35	9.24	-49.5	-50.9	14.7	0.00e+00	0	23	0	206569472	65	4189
2026-01-09 07:33:43.46	100.28	9.31	-49.5	-50.9	14.7	0.00e+00	0	23	0	209715200	65	4179
2026-01-09 07:33:44.46	100.20	9.39	-49.6	-51.0	14.6	0.00e+00	0	23	0	212860928	65	4236
2026-01-09 07:33:45.46	100.13	9.47	-49.4	-50.9	14.7	0.00e+00	0	23	0	216006656	65	4171
2026-01-09 07:33:46.46	100.06	9.55	-49.5	-50.9	14.7	0.00e+00	0	23	0	219152384	65	4186
2026-01-09 07:33:47.47	99.98	9.63	-49.5	-51.0	14.7	0.00e+00	0	23	0	222298112	65	4199
2026-01-09 07:33:48.48	99.91	9.70	-49.4	-50.9	14.7	0.00e+00	0	23	0	225443840	65	4159
2026-01-09 07:33:49.48	99.84	9.78	-49.4	-50.9	14.7	0.00e+00	0	23	0	228589568	65	4172
2026-01-09 07:33:50.49	99.76	9.86	-49.4	-50.8	14.8	0.00e+00	0	23	0	231735296	65	4136
2026-01-09 07:33:51.48	99.69	9.94	-49.5	-50.9	14.8	0.00e+00	0	23	0	234881024	65	4175
2026-01-09 07:33:52.48	99.61	10.02	-49.4	-50.9	14.7	0.00e+00	0	23	0	238026752	65	4178
2026-01-09 07:33:53.48	99.54	10.10	-49.4	-50.9	14.8	0.00e+00	0	23	0	241172480	65	4148
2026-01-09 07:33:54.48	99.46	10.18	-49.4	-50.9	14.8	0.00e+00	0	23	0	244318208	65	4146
2026-01-09 07:33:55.47	99.39	10.26	-49.2	-50.6	14.9	0.00e+00	0	23	0	247463936	65	4047
2026-01-09 07:33:56.47	99.31	10.34	-49.2	-50.6	14.9	0.00e+00	0	23	0	250609664	65	4045
2026-01-09 07:33:57.46	99.23	10.41	-49.1	-50.5	14.8	0.00e+00	0	23	0	253755392	64	4225
2026-01-09 07:33:58.46	99.15	10.49	-49.2	-50.6	14.8	0.00e+00	0	23	0	256901120	64	4279
2026-01-09 07:33:59.46	99.08	10.57	-49.1	-50.5	14.8	0.00e+00	0	23	0	260046848	64	4209
2026-01-09 07:34:00.45	99.00	10.65	-49.0	-50.4	14.9	0.00e+00	0	23	0	263192576	64	4174
2026-01-09 07:34:01.45	98.92	10.74	-49.0	-50.3	14.9	0.00e+00	0	23	0	266338304	64	4135
2026-01-09 07:34:02.44	98.84	10.82	-48.9	-50.3	14.9	0.00e+00	0	23	0	269484032	64	4120
2026-01-09 07:34:03.43	98.76	10.90	-48.8	-50.2	15.0	0.00e+00	0	23	0	272629760	64	4065
2026-01-09 07:34:04.43	98.68	10.98	-48.8	-50.1	15.0	0.00e+00	0	23	0	275775488	64	4033
2026-01-09 07:34:05.43	98.60	11.06	-48.8	-50.1	15.0	0.00e+00	0	23	0	278921216	64	4034
2026-01-09 07:34:06.43	98.52	11.14	-48.9	-50.2	15.0	0.00e+00	0	23	0	282066944	64	4090
2026-01-09 07:34:07.43	98.44	11.22	-48.9	-50.3	14.9	0.00e+00	0	23	0	285212672	64	4099
2026-01-09 07:34:08.42	98.36	11.30	-48.7	-50.0	14.9	0.00e+00	0	23	0	288358400	63	4211
2026-01-09 07:34:09.42	98.27	11.39	-48.8	-50.1	14.9	0.00e+00	0	23	0	291504128	63	4287
2026-01-09 07:34:10.41	98.19	11.47	-48.7	-50.1	14.9	0.00e+00	0	23	0	294649856	63	4248
2026-01-09 07:34:11.39	98.11	11.55	-48.7	-50.1	14.9	0.00e+00	0	23	0	297795584	63	4244
2026-01-09 07:34:12.39	98.03	11.63	-48.7	-50.0	14.9	0.00e+00	0	23	0	300941312	63	4239
2026-01-09 07:34:13.38	97.94	11.72	-48.7	-50.1	14.9	0.00e+00	0	23	0	304087040	63	4244
2026-01-09 07:34:14.37	97.86	11.80	-48.8	-50.1	14.9	0.00e+00	0	23	0	306184192	63	4268
2026-01-09 07:34:15.37	97.77	11.88	-48.8	-50.1	14.9	0.00e+00	0	23	0	309329920	63	4277
2026-01-09 07:34:16.36	97.69	11.96	-48.8	-50.2	14.9	0.00e+00	0	23	0	312475648	63	4309
2026-01-09 07:34:17.35	97.60	12.05	-48.9	-50.2	14.8	0.00e+00	0	23	0	315621376	63	4317
2026-01-09 07:34:18.34	97.51	12.13	-48.8	-50.2	14.9	0.00e+00	0	23	0	318767104	63	4303
2026-01-09 07:34:19.34	97.43	12.22	-48.8	-50.1	14.9	0.00e+00	0	23	0	321912832	63	4269
2026-01-09 07:34:20.33	97.34	12.30	-48.7	-50.0	15.0	0.00e+00	0	23	0	325058560	63	4210
2026-01-09 07:34:21.33	97.25	12.39	-48.7	-50.0	14.9	0.00e+00	0	24	0	328204288	63	4228
2026-01-09 07:34:22.32	97.16	12.47	-48.7	-50.0	14.9	0.00e+00	0	23	0	331350016	63	4238
2026-01-09 07:34:23.33	97.07	12.56	-48.6	-49.9	15.0	0.00e+00	0	23	0	334495744	63	4158
2026-01-09 07:34:24.32	96.98	12.64	-48.6	-49.9	15.0	0.00e+00	0	23	0	337641472	63	4172
2026-01-09 07:34:25.31	96.89	12.73	-48.7	-50.0	14.9	0.00e+00	0	23	0	340787200	63	4218
2026-01-09 07:34:26.31	96.80	12.81	-48.8	-50.2	14.9	0.00e+00	0	23	0	343932928	63	4295
2026-01-09 07:34:27.30	96.71	12.90	-48.8	-50.1	14.9	0.00e+00	0	23	0	347078656	63	4260
2026-01-09 07:34:28.28	96.62	12.98	-48.8	-50.1	14.9	0.00e+00	0	23	0	350224384	63	4273
2026-01-09 07:34:29.28	96.53	13.07	-48.7	-50.1	14.9	0.00e+00	0	23	0	353370112	63	4245
2026-01-09 07:34:30.28	96.43	13.16	-48.7	-50.0	15.0	0.00e+00	0	24	0	356515840	63	4199
2026-01-09 07:34:31.28	96.34	13.24	-48.7	-50.0	14.9	0.00e+00	0	23	0	359661568	63	4241
2026-01-09 07:34:32.27	96.24	13.33	-48.6	-50.0	15.0	0.00e+00	0	23	0	362807296	63	4203
2026-01-09 07:34:33.27	96.15	13.42	-48.8	-50.1	14.9	0.00e+00	0	23	0	365953024	63	4254
2026-01-09 07:34:34.26	96.05	13.51	-48.6	-49.9	15.0	0.00e+00	0	23	0	369098752	63	4178
2026-01-09 07:34:35.26	95.96	13.59	-48.7	-50.1	14.9	0.00e+00	0	23	0	372244480	63	4244
2026-01-09 07:34:36.26	95.86	13.68	-48.7	-50.1	14.9	0.00e+00	0	23	0	375390208	63	4250
2026-01-09 07:34:37.26	95.76	13.77	-48.7	-50.0	14.9	0.00e+00	0	24	0	378535936	63	4229
2026-01-09 07:34:38.25	95.67	13.86	-48.8	-50.1	14.9	0.00e+00	0	23	0	381681664	63	4275
2026-01-09 07:34:39.25	95.57	13.95	-48.8	-50.1	14.9	0.00e+00	0	23	0	384827392	63	4273
2026-01-09 07:34:40.24	95.47	14.04	-48.8	-50.2	14.9	0.00e+00	0	23	0	387973120	63	4301
2026-01-09 07:34:41.24	95.37	14.13	-48.6	-49.9	15.0	0.00e+00	0	23	0	391118848	63	4191
2026-01-09 07:34:42.24	95.27	14.22	-48.6	-49.9	15.0	0.00e+00	0	24	0	394264576	63	4147
2026-01-09 07:34:43.23	95.17	14.31	-48.6	-50.0	15.0	0.00e+00	0	23	0	396361728	63	4194
2026-01-09 07:34:44.23	95.06	14.40	-48.6	-49.9	15.0	0.00e+00	0	23	0	399507456	63	4166
2026-01-09 07:34:45.22	94.96	14.49	-48.5	-49.8	15.1	0.00e+00	0	23	0	402653184	63	4140
2026-01-09 07:34:46.22	94.86	14.58	-48.5	-49.8	15.1	0.00e+00	0	23	0	405798912	63	4130
2026-01-09 07:34:47.22	94.76	14.67	-48.6	-49.9	15.0	0.00e+00	0	23	0	408944640	63	4188
2026-01-09 07:34:48.21	94.65	14.76	-48.6	-49.9	15.0	0.00e+00	0	23	0	412090368	63	4188
2026-01-09 07:34:49.21	94.55	14.85	-48.6	-49.9	15.0	0.00e+00	0	23	0	415236096	63	4183
2026-01-09 07:34:50.20	94.44	14.94	-48.6	-49.9	15.0	0.00e+00	0	23	0	418381824	63	4187
2026-01-09 07:34:51.20	94.33	15.03	-48.7	-50.0	15.0	0.00e+00	0	23	0	421527552	63	4239
2026-01-09 07:34:52.19	94.23	15.13	-48.7	-50.0	14.9	0.00e+00	0	23	0	424673280	63	4231
2026-01-09 07:34:53.19	94.12	15.22	-48.8	-50.1	14.9	0.00e+00	0	23	0	427819008	63	4278
2026-01-09 07:34:54.18	94.01	15.31	-48.8	-50.1	14.9	0.00e+00	0	24	0	430964736	63	4284
2026-01-09 07:34:55.17	93.90	15.40	-48.8	-50.2	14.9	0.00e+00	0	24	0	434110464	63	4296
2026-01-09 07:34:56.16	93.80	15.50	-49.0	-50.3	14.8	0.00e+00	0	23	0	437256192	63	4384
2026-01-09 07:34:57.17	93.68	15.59	-48.8	-50.1	14.9	0.00e+00	0	23	0	440401920	63	4288
2026-01-09 07:34:58.16	93.57	15.68	-48.9	-50.2	14.9	0.00e+00	0	23	0	443547648	63	4325
2026-01-09 07:34:59.15	93.46	15.78	-49.0	-50.3	14.8	0.00e+00	0	23	0	446693376	63	4366
2026-01-09 07:35:00.14	93.35	15.87	-48.8	-50.1	14.9	0.00e+00	0	24	0	449839104	63	4270
2026-01-09 07:35:01.14	93.24	15.96	-48.8	-50.2	14.9	0.00e+00	0	23	0	452984832	63	4302
2026-01-09 07:35:02.14	93.12	16.06	-48.8	-50.1	14.9	0.00e+00	0	23	0	456130560	63	4265
2026-01-09 07:35:03.13	93.01	16.15	-48.9	-50.2	14.9	0.00e+00	0	23	0	459276288	63	4323
2026-01-09 07:35:04.13	92.89	16.25	-48.9	-50.2	14.9	0.00e+00	0	23	0	462422016	63	4316
2026-01-09 07:35:05.12	92.78	16.34	-48.7	-50.0	15.0	0.00e+00	0	23	0	465567744	63	4216
2026-01-09 07:35:06.12	92.66	16.44	-48.8	-50.1	14.9	0.00e+00	0	23	0	468713472	63	4282
2026-01-09 07:35:07.12	92.54	16.54	-48.7	-50.0	15.0	0.00e+00	0	23	0	471859200	63	4220
2026-01-09 07:35:08.12	92.42	16.63	-48.8	-50.1	14.9	0.00e+00	0	23	0	475004928	63	4255
2026-01-09 07:35:09.12	92.30	16.73	-48.8	-50.1	14.9	0.00e+00	0	24	0	478150656	63	4248
2026-01-09 07:35:10.12	92.18	16.83	-48.9	-50.2	14.9	0.00e+00	0	23	0	481296384	63	4310
2026-01-09 07:35:11.12	92.06	16.92	-48.8	-50.1	14.9	0.00e+00	0	23	0	484442112	63	4255
2026-01-09 07:35:12.12	91.94	17.02	-48.9	-50.2	14.9	0.00e+00	0	23	0	487587840	63	4318
2026-01-09 07:35:13.12	91.82	17.12	-48.9	-50.2	14.9	0.00e+00	0	23	0	490733568	63	4319
2026-01-09 07:35:14.12	91.69	17.22	-49.1	-50.5	14.8	0.00e+00	0	24	0	493879296	63	4454
2026-01-09 07:35:15.11	91.57	17.31	-49.0	-50.4	14.8	0.00e+00	0	23	0	497025024	63	4404
2026-01-09 07:35:16.11	91.44	17.41	-49.1	-50.4	14.8	0.00e+00	0	24	0	500170752	63	4435
2026-01-09 07:35:17.11	91.32	17.51	-49.2	-50.5	14.7	0.00e+00	0	23	0	503316480	63	4491
2026-01-09 07:35:18.10	91.19	17.61	-49.1	-50.5	14.8	0.00e+00	0	24	0	505413632	63	4453
2026-01-09 07:35:19.10	91.06	17.71	-49.0	-50.4	14.8	0.00e+00	0	23	0	508559360	63	4414
2026-01-09 07:35:20.10	90.94	17.81	-48.9	-50.3	14.8	0.00e+00	0	24	0	511705088	63	4346
2026-01-09 07:35:21.10	90.81	17.91	-48.9	-50.2	14.9	0.00e+00	0	24	0	514850816	63	4334
2026-01-09 07:35:22.11	90.67	18.01	-49.0	-50.4	14.8	0.00e+00	0	23	0	517996544	63	4394
2026-01-09 07:35:23.10	90.54	18.11	-48.9	-50.2	14.9	0.00e+00	0	23	0	521142272	63	4316
2026-01-09 07:35:24.10	90.41	18.21	-49.0	-50.3	14.8	0.00e+00	0	24	0	524288000	63	4347
2026-01-09 07:35:25.09	90.28	18.31	-48.9	-50.2	14.9	0.00e+00	0	23	0	527433728	63	4332
2026-01-09 07:35:26.09	90.15	18.41	-48.9	-50.2	14.9	0.00e+00	0	23	0	530579456	63	4329
2026-01-09 07:35:27.09	90.01	18.51	-48.9	-50.2	14.9	0.00e+00	0	23	0	533725184	63	4322
2026-01-09 07:35:28.09	89.87	18.61	-49.0	-50.3	14.8	0.00e+00	0	24	0	536870912	63	4374
2026-01-09 07:35:29.09	89.74	18.71	-49.0	-50.3	14.8	0.00e+00	0	23	0	540016640	63	4379
2026-01-09 07:35:30.09	89.60	18.81	-49.0	-50.4	14.8	0.00e+00	0	23	0	543162368	63	4414
2026-01-09 07:35:31.10	89.46	18.92	-49.0	-50.4	14.8	0.00e+00	0	23	0	546308096	63	4403
2026-01-09 07:35:32.10	89.32	19.02	-48.9	-50.2	14.9	0.00e+00	0	23	0	549453824	63	4303
2026-01-09 07:35:33.10	89.18	19.12	-48.9	-50.2	14.9	0.00e+00	0	23	0	552599552	63	4303
2026-01-09 07:35:34.11	89.04	19.22	-48.9	-50.2	14.9	0.00e+00	0	24	0	555745280	63	4305
2026-01-09 07:35:35.11	88.89	19.33	-48.9	-50.2	14.9	0.00e+00	0	23	0	558891008	63	4320
2026-01-09 07:35:36.11	88.75	19.43	-48.8	-50.1	14.9	0.00e+00	0	24	0	562036736	63	4281
2026-01-09 07:35:37.11	88.61	19.53	-48.7	-50.0	15.0	0.00e+00	0	23	0	565182464	63	4213
2026-01-09 07:35:38.11	88.46	19.64	-48.7	-50.0	15.0	0.00e+00	0	24	0	568328192	63	4212
2026-01-09 07:35:39.11	88.31	19.74	-48.8	-50.1	14.9	0.00e+00	0	23	0	571473920	63	4284
2026-01-09 07:35:40.12	88.17	19.85	-48.7	-50.0	15.0	0.00e+00	0	23	0	574619648	63	4204
2026-01-09 07:35:41.12	88.02	19.95	-48.7	-50.0	15.0	0.00e+00	0	24	0	577765376	63	4198
2026-01-09 07:35:42.12	87.87	20.06	-48.6	-49.9	15.1	0.00e+00	0	23	0	580911104	63	4150
2026-01-09 07:35:43.11	87.72	20.16	-48.6	-49.9	15.0	0.00e+00	0	24	0	584056832	63	4190
2026-01-09 07:35:44.11	87.57	20.26	-48.4	-49.7	15.1	0.00e+00	0	23	0	587202560	63	4072
2026-01-09 07:35:45.11	87.41	20.37	-48.5	-49.8	15.1	0.00e+00	0	24	0	590348288	63	4102
2026-01-09 07:35:46.11	87.26	20.48	-48.3	-49.6	15.2	0.00e+00	0	23	0	593494016	63	4025
2026-01-09 07:35:47.11	87.10	20.58	-48.5	-49.7	15.1	0.00e+00	0	23	0	596639744	63	4092
2026-01-09 07:35:48.10	86.95	20.69	-48.3	-49.6	15.2	0.00e+00	0	23	0	599785472	63	4008
2026-01-09 07:35:49.11	86.79	20.79	-48.3	-49.5	15.2	0.00e+00	0	23	0	602931200	63	3987
2026-01-09 07:35:50.11	86.63	20.90	-48.1	-49.4	15.1	0.00e+00	0	24	0	606076928	62	4153
2026-01-09 07:35:51.11	86.47	21.01	-48.1	-49.3	15.1	0.00e+00	0	23	0	609222656	62	4139
2026-01-09 07:35:52.11	86.31	21.11	-48.1	-49.3	15.1	0.00e+00	0	23	0	612368384	62	4134
2026-01-09 07:35:53.11	86.15	21.22	-48.0	-49.2	15.2	0.00e+00	0	23	0	615514112	62	4092
2026-01-09 07:35:54.12	85.99	21.33	-47.9	-49.1	15.3	0.00e+00	0	24	0	618659840	62	4025
2026-01-09 07:35:55.12	85.82	21.44	-47.9	-49.1	15.2	0.00e+00	0	24	0	621805568	62	4031
2026-01-09 07:35:56.12	85.66	21.54	-47.9	-49.1	15.2	0.00e+00	0	24	0	624951296	62	4048
2026-01-09 07:35:57.11	85.49	21.65	-47.9	-49.2	15.2	0.00e+00	0	24	0	628097024	62	4058
2026-01-09 07:35:58.11	85.33	21.76	-47.8	-49.0	15.3	0.00e+00	0	24	0	631242752	62	3991
2026-01-09 07:35:59.11	85.16	21.87	-47.7	-48.9	15.2	0.00e+00	0	23	0	634388480	61	4149
2026-01-09 07:36:00.11	84.99	21.98	-47.7	-48.9	15.2	0.00e+00	0	24	0	637534208	61	4185
2026-01-09 07:36:01.11	84.82	22.09	-47.7	-48.9	15.2	0.00e+00	0	24	0	640679936	61	4185
2026-01-09 07:36:02.11	84.65	22.19	-47.6	-48.8	15.2	0.00e+00	0	23	0	643825664	61	4123
2026-01-09 07:36:03.11	84.47	22.30	-47.7	-48.9	15.2	0.00e+00	0	24	0	646971392	61	4157
2026-01-09 07:36:04.12	84.30	22.41	-47.6	-48.8	15.2	0.00e+00	0	23	0	650117120	61	4135
2026-01-09 07:36:05.12	84.12	22.52	-47.8	-49.0	15.2	0.00e+00	0	23	0	653262848	61	4208
2026-01-09 07:36:06.12	83.94	22.63	-47.7	-48.9	15.2	0.00e+00	0	23	0	656408576	61	4168
2026-01-09 07:36:07.12	83.76	22.74	-47.6	-48.8	15.2	0.00e+00	0	24	0	659554304	61	4117
2026-01-09 07:36:08.12	83.58	22.85	-47.6	-48.7	15.3	0.00e+00	0	24	0	662700032	61	4091
2026-01-09 07:36:09.13	83.40	22.96	-47.6	-48.8	15.2	0.00e+00	0	23	0	664797184	61	4104
2026-01-09 07:36:10.12	83.22	23.07	-47.7	-48.9	15.2	0.00e+00	0	23	0	667942912	61	4158
2026-01-09 07:36:11.13	83.04	23.18	-47.7	-48.8	15.2	0.00e+00	0	24	0	671088640	61	4142
2026-01-09 07:36:12.13	82.85	23.29	-47.7	-48.9	15.2	0.00e+00	0	24	0	674234368	61	4166
2026-01-09 07:36:13.13	82.66	23.41	-47.8	-49.1	15.1	0.00e+00	0	24	0	677380096	61	4245
2026-01-09 07:36:14.12	82.48	23.51	-47.8	-49.0	15.2	0.00e+00	0	24	0	680525824	61	4230
2026-01-09 07:36:15.12	82.29	23.63	-48.0	-49.2	15.1	0.00e+00	0	24	0	683671552	61	4308
2026-01-09 07:36:16.11	82.10	23.74	-47.9	-49.1	15.1	0.00e+00	0	24	0	686817280	61	4273
2026-01-09 07:36:17.10	81.91	23.85	-47.8	-49.1	15.1	0.00e+00	0	24	0	689963008	61	4248
2026-01-09 07:36:18.10	81.72	23.96	-47.8	-49.0	15.2	0.00e+00	0	24	0	693108736	61	4199
2026-01-09 07:36:19.10	81.52	24.07	-47.8	-48.9	15.2	0.00e+00	0	24	0	696254464	61	4190
2026-01-09 07:36:20.11	81.33	24.18	-47.7	-48.9	15.2	0.00e+00	0	24	0	699400192	61	4166
2026-01-09 07:36:21.11	81.13	24.29	-47.8	-49.0	15.1	0.00e+00	0	24	0	702545920	61	4222
2026-01-09 07:36:22.12	80.93	24.41	-47.9	-49.1	15.1	0.00e+00	0	24	0	705691648	61	4253
2026-01-09 07:36:23.12	80.73	24.52	-48.0	-49.2	15.1	0.00e+00	0	24	0	708837376	61	4333
2026-01-09 07:36:24.13	80.52	24.63	-48.1	-49.4	15.0	0.00e+00	0	24	0	711983104	61	4416
2026-01-09 07:36:25.14	80.32	24.74	-48.2	-49.5	15.0	0.00e+00	0	24	0	715128832	61	4472
2026-01-09 07:36:26.14	80.11	24.86	-48.3	-49.6	15.0	0.00e+00	0	24	0	718274560	61	4522
2026-01-09 07:36:27.15	79.91	24.97	-48.4	-49.6	15.0	0.00e+00	0	24	0	721420288	61	4542
2026-01-09 07:36:28.15	79.70	25.08	-48.3	-49.5	15.1	0.00e+00	0	24	0	724566016	62	4229
2026-01-09 07:36:29.16	79.49	25.20	-48.0	-49.2	15.2	0.00e+00	0	24	0	727711744	62	4097
2026-01-09 07:36:30.16	79.28	25.31	-47.8	-49.0	15.3	0.00e+00	0	24	0	730857472	62	3980
2026-01-09 07:36:31.16	79.07	25.42	-47.9	-49.1	15.3	0.00e+00	0	24	0	734003200	62	4011
2026-01-09 07:36:32.16	78.85	25.53	-48.0	-49.2	15.2	0.00e+00	0	24	0	737148928	62	4057
2026-01-09 07:36:33.16	78.64	25.64	-48.0	-49.3	15.2	0.00e+00	0	24	0	740294656	62	4099
2026-01-09 07:36:34.17	78.42	25.76	-48.3	-49.5	15.1	0.00e+00	0	24	0	743440384	62	4231
2026-01-09 07:36:35.17	78.20	25.87	-48.4	-49.6	15.0	0.00e+00	0	24	0	746586112	62	4289
2026-01-09 07:36:36.17	77.98	25.98	-48.5	-49.8	15.0	0.00e+00	0	24	0	749731840	62	4342
2026-01-09 07:36:37.17	77.76	26.10	-48.5	-49.8	15.0	0.00e+00	0	24	0	752877568	62	4353
2026-01-09 07:36:38.18	77.53	26.21	-48.4	-49.7	15.0	0.00e+00	0	24	0	756023296	62	4300
2026-01-09 07:36:39.17	77.31	26.32	-48.4	-49.6	15.1	0.00e+00	0	24	0	759169024	62	4267
2026-01-09 07:36:40.18	77.08	26.43	-48.2	-49.5	15.1	0.00e+00	0	24	0	762314752	62	4196
2026-01-09 07:36:41.18	76.86	26.55	-48.2	-49.4	15.1	0.00e+00	0	24	0	765460480	62	4150
2026-01-09 07:36:42.19	76.62	26.66	-48.1	-49.3	15.1	0.00e+00	0	24	0	768606208	62	4144
2026-01-09 07:36:43.19	76.39	26.77	-48.4	-49.6	15.0	0.00e+00	0	24	0	771751936	62	4263
2026-01-09 07:36:44.19	76.16	26.89	-48.6	-49.9	14.9	0.00e+00	0	24	0	774897664	62	4405
2026-01-09 07:36:45.20	75.92	27.00	-48.7	-49.9	14.9	0.00e+00	0	24	0	778043392	62	4437
2026-01-09 07:36:46.20	75.69	27.11	-48.8	-50.0	14.9	0.00e+00	0	24	0	781189120	62	4491
2026-01-09 07:36:47.21	75.45	27.22	-48.8	-50.1	14.9	0.00e+00	0	24	0	784334848	62	4522
2026-01-09 07:36:48.21	75.21	27.34	-48.8	-50.1	14.9	0.00e+00	0	24	0	787480576	62	4508
2026-01-09 07:36:49.21	74.97	27.45	-48.8	-50.1	14.9	0.00e+00	0	24	0	790626304	62	4512
2026-01-09 07:36:50.21	74.72	27.56	-48.8	-50.1	14.8	0.00e+00	0	24	0	793772032	62	4537
2026-01-09 07:36:51.21	74.48	27.67	-48.9	-50.2	14.9	0.00e+00	0	24	0	796917760	63	4331
2026-01-09 07:36:52.21	74.23	27.78	-49.0	-50.3	14.9	0.00e+00	0	24	0	800063488	63	4380
2026-01-09 07:36:53.22	73.98	27.90	-49.0	-50.3	14.9	0.00e+00	0	24	0	803209216	63	4345
2026-01-09 07:36:54.22	73.73	28.01	-49.1	-50.4	14.8	0.00e+00	0	24	0	806354944	63	4402
2026-01-09 07:36:55.22	73.48	28.12	-49.2	-50.5	14.8	0.00e+00	0	24	0	809500672	63	4485
2026-01-09 07:36:56.22	73.23	28.23	-49.1	-50.5	14.8	0.00e+00	0	24	0	812646400	63	4452
2026-01-09 07:36:57.22	72.97	28.34	-49.0	-50.3	14.9	0.00e+00	0	24	0	815792128	63	4352
2026-01-09 07:36:58.22	72.71	28.45	-48.9	-50.2	14.9	0.00e+00	0	24	0	818937856	63	4309
2026-01-09 07:36:59.23	72.45	28.56	-48.7	-50.0	15.0	0.00e+00	0	23	0	822083584	63	4203
2026-01-09 07:37:00.24	72.19	28.67	-48.4	-49.7	15.2	0.00e+00	0	23	0	825229312	63	4065
2026-01-09 07:37:01.23	71.93	28.78	-48.4	-49.7	15.1	0.00e+00	0	24	0	828375040	63	4068
2026-01-09 07:37:02.24	71.66	28.89	-48.4	-49.6	15.2	0.00e+00	0	24	0	831520768	63	4026
2026-01-09 07:37:03.24	71.40	29.00	-48.4	-49.7	15.2	0.00e+00	0	24	0	834666496	63	4055
2026-01-09 07:37:04.24	71.13	29.11	-48.4	-49.6	15.1	0.00e+00	0	24	0	837812224	63	4046
2026-01-09 07:37:05.24	70.86	29.22	-48.5	-49.8	15.1	0.00e+00	0	24	0	840957952	63	4112
2026-01-09 07:37:06.24	70.59	29.33	-48.6	-49.8	15.1	0.00e+00	0	24	0	844103680	63	4144
2026-01-09 07:37:07.24	70.32	29.43	-48.5	-49.8	15.1	0.00e+00	0	24	0	847249408	63	4110
2026-01-09 07:37:08.23	70.04	29.54	-48.6	-49.8	15.1	0.00e+00	0	24	0	850395136	63	4126
2026-01-09 07:37:09.24	69.76	29.65	-48.6	-49.8	15.1	0.00e+00	0	24	0	853540864	63	4136
2026-01-09 07:37:10.24	69.48	29.76	-48.6	-49.9	15.1	0.00e+00	0	24	0	856686592	63	4156
2026-01-09 07:37:11.25	69.20	29.86	-48.5	-49.8	15.1	0.00e+00	0	24	0	859832320	63	4117
2026-01-09 07:37:12.25	68.92	29.97	-48.6	-49.8	15.1	0.00e+00	0	24	0	862978048	63	4137
2026-01-09 07:37:13.25	68.63	30.08	-48.5	-49.8	15.1	0.00e+00	0	24	0	866123776	63	4122
2026-01-09 07:37:14.26	68.35	30.18	-48.5	-49.7	15.1	0.00e+00	0	24	0	869269504	63	4098
2026-01-09 07:37:15.27	68.05	30.29	-48.5	-49.8	15.1	0.00e+00	0	24	0	872415232	63	4116
2026-01-09 07:37:16.26	67.77	30.39	-48.7	-50.0	15.0	0.00e+00	0	24	0	875560960	63	4198
2026-01-09 07:37:17.27	67.47	30.50	-48.6	-49.9	15.1	0.00e+00	0	24	0	878706688	63	4170
2026-01-09 07:37:18.27	67.18	30.60	-48.5	-49.7	15.1	0.00e+00	0	24	0	881852416	63	4098
2026-01-09 07:37:19.28	66.88	30.71	-48.6	-49.8	15.1	0.00e+00	0	24	0	884998144	63	4134
2026-01-09 07:37:20.28	66.58	30.81	-48.6	-49.9	15.1	0.00e+00	0	24	0	888143872	63	4154
2026-01-09 07:37:21.29	66.28	30.91	-48.5	-49.7	15.1	0.00e+00	0	24	0	891289600	63	4097
2026-01-09 07:37:22.29	65.98	31.01	-48.6	-49.8	15.1	0.00e+00	0	24	0	894435328	63	4138
2026-01-09 07:37:23.30	65.67	31.11	-48.6	-49.8	15.1	0.00e+00	0	24	0	897581056	63	4133
2026-01-09 07:37:24.30	65.37	31.21	-48.7	-50.0	15.0	0.00e+00	0	24	0	900726784	63	4215
2026-01-09 07:37:25.30	65.06	31.31	-48.8	-50.1	15.0	0.00e+00	0	24	0	903872512	63	4261
2026-01-09 07:37:26.31	64.75	31.42	-48.9	-50.2	15.0	0.00e+00	0	24	0	907018240	63	4292
2026-01-09 07:37:27.31	64.43	31.51	-48.8	-50.0	15.0	0.00e+00	0	24	0	910163968	63	4238
2026-01-09 07:37:28.32	64.12	31.61	-48.9	-50.2	14.9	0.00e+00	0	24	0	913309696	63	4299
2026-01-09 07:37:29.32	63.80	31.71	-48.8	-50.1	15.0	0.00e+00	0	24	0	916455424	63	4266
2026-01-09 07:37:30.32	63.49	31.81	-49.0	-50.3	14.9	0.00e+00	0	24	0	918552576	63	4343
2026-01-09 07:37:31.32	63.17	31.90	-48.9	-50.2	14.9	0.00e+00	0	24	0	921698304	63	4324
2026-01-09 07:37:32.32	62.85	32.00	-48.9	-50.2	14.9	0.00e+00	0	24	0	924844032	63	4295
2026-01-09 07:37:33.32	62.52	32.09	-48.9	-50.2	14.9	0.00e+00	0	24	0	927989760	63	4328
2026-01-09 07:37:34.32	62.20	32.19	-49.0	-50.3	14.9	0.00e+00	0	24	0	931135488	63	4357
2026-01-09 07:37:35.32	61.87	32.28	-49.0	-50.3	14.9	0.00e+00	0	24	0	934281216	63	4374
2026-01-09 07:37:36.31	61.55	32.37	-49.1	-50.4	14.9	0.00e+00	0	24	0	937426944	63	4416
2026-01-09 07:37:37.32	61.22	32.46	-49.2	-50.5	14.8	0.00e+00	0	24	0	940572672	63	4458
2026-01-09 07:37:38.32	60.88	32.55	-49.2	-50.5	14.8	0.00e+00	0	24	0	943718400	63	4457
2026-01-09 07:37:39.33	60.55	32.64	-49.2	-50.5	14.8	0.00e+00	0	24	0	946864128	63	4462
2026-01-09 07:37:40.34	60.21	32.73	-49.4	-50.7	14.7	0.00e+00	0	24	0	950009856	63	4557
2026-01-09 07:37:41.34	59.87	32.82	-49.5	-50.9	14.8	0.00e+00	0	24	0	953155584	64	4394
2026-01-09 07:37:42.34	59.53	32.91	-49.5	-50.8	14.8	0.00e+00	0	24	0	956301312	64	4375
2026-01-09 07:37:43.34	59.19	33.00	-49.5	-50.8	14.8	0.00e+00	0	24	0	959447040	64	4360
2026-01-09 07:37:44.35	58.84	33.08	-49.5	-50.9	14.8	0.00e+00	0	24	0	962592768	64	4402
2026-01-09 07:37:45.35	58.50	33.17	-49.4	-50.8	14.8	0.00e+00	0	24	0	965738496	64	4359
2026-01-09 07:37:46.36	58.15	33.25	-49.5	-50.8	14.8	0.00e+00	0	24	0	968884224	64	4363
2026-01-09 07:37:47.37	57.80	33.33	-49.3	-50.6	14.9	0.00e+00	0	24	0	972029952	64	4281
2026-01-09 07:37:48.37	57.45	33.42	-49.4	-50.8	14.8	0.00e+00	0	24	0	975175680	64	4346
2026-01-09 07:37:49.38	57.09	33.50	-49.4	-50.7	14.8	0.00e+00	0	24	0	978321408	64	4335
2026-01-09 07:37:50.39	56.73	33.58	-49.2	-50.5	14.9	0.00e+00	0	24	0	981467136	64	4226
2026-01-09 07:37:51.40	56.37	33.66	-49.1	-50.4	15.0	0.00e+00	0	24	0	984612864	64	4189
2026-01-09 07:37:52.40	56.02	33.73	-49.3	-50.6	14.9	0.00e+00	0	24	0	987758592	64	4262
2026-01-09 07:37:53.41	55.65	33.81	-49.5	-50.9	14.8	0.00e+00	0	24	0	990904320	64	4409
2026-01-09 07:37:54.41	55.29	33.89	-49.7	-51.1	14.7	0.00e+00	0	24	0	994050048	64	4519
2026-01-09 07:37:55.40	54.94	33.96	-49.7	-51.1	14.7	0.00e+00	0	24	0	997195776	64	4545
2026-01-09 07:37:56.41	54.57	34.03	-49.9	-51.3	14.6	0.00e+00	0	24	0	1000341504	64	4619
2026-01-09 07:37:57.40	54.21	34.10	-49.8	-51.3	14.7	0.00e+00	0	24	0	1003487232	65	4341
2026-01-09 07:37:58.40	53.84	34.17	-50.0	-51.4	14.7	0.00e+00	0	24	0	1006632960	65	4423
2026-01-09 07:37:59.41	53.47	34.24	-49.9	-51.4	14.7	0.00e+00	0	24	0	1009778688	65	4395
2026-01-09 07:38:00.41	53.10	34.31	-49.8	-51.2	14.7	0.00e+00	0	24	0	1012924416	65	4318
2026-01-09 07:38:01.41	52.72	34.38	-49.7	-51.1	14.8	0.00e+00	0	24	0	1016070144	65	4247
2026-01-09 07:38:02.42	52.35	34.45	-49.8	-51.2	14.8	0.00e+00	0	24	0	1019215872	65	4294
2026-01-09 07:38:03.42	51.97	34.51	-49.7	-51.1	14.8	0.00e+00	0	24	0	1022361600	65	4253
2026-01-09 07:38:04.43	51.59	34.57	-49.7	-51.0	14.8	0.00e+00	0	24	0	1025507328	65	4231
2026-01-09 07:38:05.44	51.21	34.64	-49.7	-51.0	14.8	0.00e+00	0	24	0	1028653056	65	4221
2026-01-09 07:38:06.45	50.83	34.70	-49.4	-50.7	15.0	0.00e+00	0	24	0	1031798784	65	4068
2026-01-09 07:38:07.45	50.45	34.76	-49.2	-50.5	15.1	0.00e+00	0	24	0	1034944512	65	3970
2026-01-09 07:38:08.45	50.07	34.82	-49.0	-50.3	15.1	0.00e+00	0	24	0	1038090240	64	4113
2026-01-09 07:38:09.46	49.68	34.87	-49.0	-50.2	15.1	0.00e+00	0	24	0	1041235968	64	4093
2026-01-09 07:38:10.45	49.30	34.93	-49.1	-50.4	15.0	0.00e+00	0	24	0	1044381696	64	4160
2026-01-09 07:38:11.45	48.91	34.98	-49.2	-50.5	14.9	0.00e+00	0	24	0	1047527424	64	4240
2026-01-09 07:38:12.46	48.52	35.03	-49.5	-50.8	14.8	0.00e+00	0	24	0	1050673152	64	4380
2026-01-09 07:38:13.46	48.13	35.08	-49.6	-51.0	14.7	0.00e+00	0	24	0	1053818880	64	4459
2026-01-09 07:38:14.47	47.74	35.13	-49.6	-51.0	14.7	0.00e+00	0	24	0	1056964608	64	4458
2026-01-09 07:38:15.47	47.35	35.18	-49.7	-51.1	14.7	0.00e+00	0	24	0	1060110336	64	4518
2026-01-09 07:38:16.48	46.95	35.23	-49.8	-51.2	14.6	0.00e+00	0	24	0	1063256064	64	4582
2026-01-09 07:38:17.49	46.56	35.27	-49.9	-51.3	14.6	0.00e+00	0	24	0	1066401792	65	4381
2026-01-09 07:38:18.49	46.16	35.32	-49.8	-51.2	14.7	0.00e+00	0	24	0	1069547520	65	4326
2026-01-09 07:38:19.49	45.77	35.36	-49.7	-51.0	14.8	0.00e+00	0	24	0	1072693248	65	4225
2026-01-09 07:38:20.49	45.37	35.40	-49.7	-51.1	14.8	0.00e+00	0	24	0	1075838976	65	4252
2026-01-09 07:38:21.50	44.97	35.44	-49.7	-51.0	14.8	0.00e+00	0	24	0	1078984704	65	4233
2026-01-09 07:38:22.50	44.57	35.48	-49.7	-51.1	14.8	0.00e+00	0	24	0	1082130432	65	4250
2026-01-09 07:38:23.50	44.17	35.51	-49.6	-50.9	14.9	0.00e+00	0	24	0	1085276160	65	4172
2026-01-09 07:38:24.51	43.77	35.55	-49.6	-50.9	14.9	0.00e+00	0	24	0	1088421888	65	4174
2026-01-09 07:38:25.51	43.37	35.58	-49.6	-50.9	14.9	0.00e+00	0	24	0	1091567616	65	4161
2026-01-09 07:38:26.51	42.97	35.61	-49.6	-50.9	14.9	0.00e+00	0	24	0	1094713344	65	4185
2026-01-09 07:38:27.51	42.56	35.64	-49.6	-51.0	14.9	0.00e+00	0	24	0	1097859072	65	4195
2026-01-09 07:38:28.51	42.16	35.67	-49.7	-51.1	14.8	0.00e+00	0	24	0	1101004800	65	4257
2026-01-09 07:38:29.52	41.75	35.70	-49.8	-51.2	14.7	0.00e+00	0	24	0	1104150528	65	4333
2026-01-09 07:38:30.52	41.35	35.72	-49.9	-51.4	14.7	0.00e+00	0	24	0	1107296256	65	4396
2026-01-09 07:38:31.53	40.94	35.75	-50.0	-51.4	14.7	0.00e+00	0	24	0	1110441984	65	4416
2026-01-09 07:38:32.53	40.54	35.77	-50.1	-51.5	14.6	0.00e+00	0	24	0	1113587712	65	4475
2026-01-09 07:38:33.53	40.13	35.79	-50.2	-51.6	14.6	0.00e+00	0	24	0	1116733440	65	4534
2026-01-09 07:38:34.53	39.72	35.81	-50.1	-51.5	14.6	0.00e+00	0	24	0	1119879168	65	4489
2026-01-09 07:38:35.53	39.32	35.82	-50.1	-51.5	14.6	0.00e+00	0	24	0	1123024896	65	4470
2026-01-09 07:38:36.54	38.90	35.84	-50.2	-51.7	14.5	0.00e+00	0	24	0	1126170624	65	4583
2026-01-09 07:38:37.54	38.50	35.85	-50.1	-51.5	14.6	0.00e+00	0	24	0	1129316352	65	4470
2026-01-09 07:38:38.55	38.09	35.86	-49.9	-51.3	14.7	0.00e+00	0	24	0	1132462080	65	4380
2026-01-09 07:38:39.55	37.68	35.87	-49.8	-51.2	14.7	0.00e+00	0	24	0	1135607808	65	4309
2026-01-09 07:38:40.55	37.27	35.88	-49.8	-51.1	14.8	0.00e+00	0	24	0	1138753536	65	4284
2026-01-09 07:38:41.56	36.86	35.89	-49.7	-51.1	14.8	0.00e+00	0	24	0	1141899264	65	4260
2026-01-09 07:38:42.56	36.45	35.89	-49.6	-50.9	14.9	0.00e+00	0	24	0	1145044992	65	4172
2026-01-09 07:38:43.57	36.03	35.90	-49.7	-51.1	14.8	0.00e+00	0	24	0	1148190720	65	4282
2026-01-09 07:38:44.57	35.63	35.90	-49.5	-50.9	14.9	0.00e+00	0	24	0	1151336448	65	4155
2026-01-09 07:38:45.57	35.22	35.90	-49.4	-50.8	15.0	0.00e+00	0	24	0	1154482176	65	4102
2026-01-09 07:38:46.58	34.80	35.90	-49.4	-50.7	15.0	0.00e+00	0	24	0	1157627904	65	4079
2026-01-09 07:38:47.57	34.40	35.90	-49.4	-50.7	15.0	0.00e+00	0	24	0	1160773632	65	4094
2026-01-09 07:38:48.58	33.99	35.89	-49.3	-50.6	15.0	0.00e+00	0	24	0	1163919360	65	4044
2026-01-09 07:38:49.58	33.58	35.88	-49.5	-50.8	15.0	0.00e+00	0	24	0	1167065088	65	4131
2026-01-09 07:38:50.59	33.17	35.88	-49.5	-50.8	15.0	0.00e+00	0	24	0	1170210816	65	4109
2026-01-09 07:38:51.59	32.76	35.87	-49.4	-50.7	15.0	0.00e+00	0	24	0	1173356544	65	4088
2026-01-09 07:38:52.58	32.35	35.85	-49.5	-50.8	14.9	0.00e+00	0	24	0	1176502272	65	4126
2026-01-09 07:38:53.59	31.94	35.84	-49.4	-50.7	15.0	0.00e+00	0	24	0	1179648000	65	4092
2026-01-09 07:38:54.59	31.53	35.83	-49.3	-50.6	15.1	0.00e+00	0	24	0	1182793728	65	4016
2026-01-09 07:38:55.60	31.12	35.81	-49.5	-50.8	14.9	0.00e+00	0	24	0	1185939456	65	4119
2026-01-09 07:38:56.60	30.72	35.79	-49.5	-50.9	14.9	0.00e+00	0	24	0	1189085184	65	4154
2026-01-09 07:38:57.61	30.31	35.77	-49.6	-51.0	14.9	0.00e+00	0	24	0	1192230912	65	4199
2026-01-09 07:38:58.60	29.91	35.75	-49.4	-50.7	15.0	0.00e+00	0	24	0	1195376640	65	4068
2026-01-09 07:38:59.61	29.50	35.73	-49.4	-50.7	15.0	0.00e+00	0	24	0	1198522368	65	4089
2026-01-09 07:39:00.61	29.09	35.70	-49.4	-50.7	15.0	0.00e+00	0	24	0	1201668096	65	4083
2026-01-09 07:39:01.62	28.69	35.68	-49.4	-50.8	15.0	0.00e+00	0	24	0	1204813824	65	4099
2026-01-09 07:39:02.63	28.28	35.65	-49.6	-50.9	14.9	0.00e+00	0	24	0	1207959552	65	4193
2026-01-09 07:39:03.63	27.88	35.62	-49.6	-51.0	14.9	0.00e+00	0	24	0	1211105280	65	4214
2026-01-09 07:39:04.64	27.47	35.59	-49.7	-51.1	14.8	0.00e+00	0	24	0	1214251008	65	4253
2026-01-09 07:39:05.65	27.07	35.55	-49.6	-51.0	14.9	0.00e+00	0	24	0	1217396736	65	4207
2026-01-09 07:39:06.65	26.67	35.52	-49.8	-51.2	14.7	0.00e+00	0	24	0	1220542464	65	4307
2026-01-09 07:39:07.66	26.26	35.48	-49.9	-51.3	14.7	0.00e+00	0	24	0	1223688192	65	4356
2026-01-09 07:39:08.66	25.87	35.45	-50.1	-51.5	14.6	0.00e+00	0	24	0	1226833920	65	4477
2026-01-09 07:39:09.67	25.47	35.41	-50.0	-51.4	14.6	0.00e+00	0	24	0	1229979648	65	4410
2026-01-09 07:39:10.68	25.07	35.37	-50.0	-51.4	14.7	0.00e+00	0	24	0	1233125376	65	4438
2026-01-09 07:39:11.67	24.67	35.32	-50.0	-51.4	14.6	0.00e+00	0	24	0	1236271104	65	4420
2026-01-09 07:39:12.67	24.28	35.28	-50.1	-51.5	14.6	0.00e+00	0	24	0	1239416832	65	4473
2026-01-09 07:39:13.67	23.89	35.24	-49.8	-51.2	14.8	0.00e+00	0	24	0	1241513984	65	4321
2026-01-09 07:39:14.67	23.50	35.19	-49.6	-51.0	14.9	0.00e+00	0	24	0	1244659712	65	4204
2026-01-09 07:39:15.67	23.11	35.14	-49.6	-50.9	14.9	0.00e+00	0	24	0	1247805440	65	4173
2026-01-09 07:39:16.68	22.71	35.09	-49.5	-50.8	15.0	0.00e+00	0	24	0	1250951168	65	4106
2026-01-09 07:39:17.68	22.32	35.04	-49.4	-50.8	15.0	0.00e+00	0	24	0	1254096896	65	4099
2026-01-09 07:39:18.69	21.93	34.99	-49.5	-50.8	15.0	0.00e+00	0	24	0	1258291200	65	4121
2026-01-09 07:39:19.69	21.55	34.94	-49.6	-50.9	14.9	0.00e+00	0	24	0	1261436928	65	4174
2026-01-09 07:39:20.70	21.16	34.88	-49.4	-50.8	15.0	0.00e+00	0	24	0	1263534080	65	4102
2026-01-09 07:39:21.70	20.78	34.82	-49.3	-50.6	15.1	0.00e+00	0	24	0	1266679808	65	4031
2026-01-09 07:39:22.71	20.39	34.77	-49.2	-50.4	15.1	0.00e+00	0	24	0	1269825536	65	3957
2026-01-09 07:39:23.71	20.01	34.71	-48.9	-50.2	15.1	0.00e+00	0	24	0	1272971264	64	4072
2026-01-09 07:39:24.71	19.63	34.65	-48.8	-50.0	15.2	0.00e+00	0	24	0	1276116992	64	3993
2026-01-09 07:39:25.72	19.25	34.59	-48.7	-49.9	15.2	0.00e+00	0	24	0	1279262720	64	3940
2026-01-09 07:39:26.72	18.87	34.52	-48.8	-50.0	15.0	0.00e+00	0	24	0	1282408448	63	4229
2026-01-09 07:39:27.73	18.49	34.46	-49.0	-50.2	14.9	0.00e+00	0	24	0	1285554176	63	4338
2026-01-09 07:39:28.73	18.12	34.39	-49.2	-50.5	14.8	0.00e+00	0	24	0	1288699904	63	4475
2026-01-09 07:39:29.74	17.75	34.32	-49.5	-50.9	14.8	0.00e+00	0	24	0	1291845632	64	4412
2026-01-09 07:39:30.75	17.37	34.26	-49.7	-51.1	14.7	0.00e+00	0	24	0	1294991360	64	4509
2026-01-09 07:39:31.75	17.00	34.19	-49.7	-51.0	14.7	0.00e+00	0	24	0	1298137088	64	4483
2026-01-09 07:39:32.75	16.64	34.12	-49.4	-50.7	14.9	0.00e+00	0	24	0	1301282816	64	4310
2026-01-09 07:39:33.75	16.27	34.05	-49.2	-50.5	15.0	0.00e+00	0	24	0	1304428544	64	4195
2026-01-09 07:39:34.75	15.91	33.97	-49.1	-50.4	15.0	0.00e+00	0	24	0	1307574272	64	4148
2026-01-09 07:39:35.75	15.55	33.90	-49.1	-50.4	15.0	0.00e+00	0	24	0	1310720000	64	4165
2026-01-09 07:39:36.76	15.18	33.82	-49.4	-50.7	14.8	0.00e+00	0	24	0	1313865728	64	4314
2026-01-09 07:39:37.76	14.82	33.75	-49.7	-51.1	14.7	0.00e+00	0	24	0	1317011456	64	4509
2026-01-09 07:39:38.76	14.47	33.67	-49.9	-51.3	14.6	0.00e+00	0	24	0	1320157184	64	4635
2026-01-09 07:39:39.77	14.11	33.59	-49.9	-51.3	14.7	0.00e+00	0	24	0	1323302912	65	4357
2026-01-09 07:39:40.77	13.76	33.51	-49.8	-51.1	14.7	0.00e+00	0	24	0	1326448640	65	4291
2026-01-09 07:39:41.77	13.40	33.43	-49.5	-50.9	14.9	0.00e+00	0	24	0	1329594368	65	4159
2026-01-09 07:39:42.77	13.05	33.35	-49.3	-50.6	15.0	0.00e+00	0	24	0	1332740096	65	4051
2026-01-09 07:39:43.78	12.70	33.27	-49.2	-50.5	15.1	0.00e+00	0	24	0	1335885824	65	3993
2026-01-09 07:39:44.79	12.35	33.18	-49.2	-50.4	15.1	0.00e+00	0	24	0	1339031552	65	3953
2026-01-09 07:39:45.80	12.00	33.10	-49.0	-50.3	15.0	0.00e+00	0	24	0	1342177280	64	4110
2026-01-09 07:39:46.81	11.66	33.01	-49.0	-50.3	15.0	0.00e+00	0	24	0	1345323008	64	4101
2026-01-09 07:39:47.81	11.32	32.93	-48.8	-50.1	15.1	0.00e+00	0	24	0	1348468736	64	4017
2026-01-09 07:39:48.82	10.97	32.84	-48.6	-49.8	15.1	0.00e+00	0	24	0	1351614464	63	4125
2026-01-09 07:39:49.82	10.64	32.75	-48.5	-49.7	15.1	0.00e+00	0	24	0	1354760192	63	4098
2026-01-09 07:39:50.83	10.30	32.66	-48.6	-49.8	15.1	0.00e+00	0	24	0	1357905920	63	4117
2026-01-09 07:39:51.84	9.96	32.57	-48.9	-50.1	15.0	0.00e+00	0	24	0	1361051648	63	4286
2026-01-09 07:39:52.84	9.63	32.48	-49.2	-50.5	14.8	0.00e+00	0	24	0	1364197376	63	4446
2026-01-09 07:39:53.85	9.30	32.39	-49.3	-50.6	14.8	0.00e+00	0	24	0	1367343104	63	4527
2026-01-09 07:39:54.86	8.97	32.30	-49.2	-50.6	14.8	0.00e+00	0	24	0	1370488832	63	4498
2026-01-09 07:39:55.86	8.64	32.20	-49.1	-50.4	14.8	0.00e+00	0	24	0	1373634560	63	4431
2026-01-09 07:39:56.86	8.32	32.11	-48.8	-50.1	14.9	0.00e+00	0	24	0	1376780288	63	4252
2026-01-09 07:39:57.86	7.99	32.02	-48.5	-49.7	15.1	0.00e+00	0	24	0	1379926016	63	4086
2026-01-09 07:39:58.86	7.67	31.92	-48.3	-49.5	15.2	0.00e+00	0	24	0	1383071744	63	4001
2026-01-09 07:39:59.87	7.35	31.82	-48.6	-49.8	15.1	0.00e+00	0	24	0	1386217472	63	4143
2026-01-09 07:40:00.88	7.03	31.73	-48.7	-49.9	15.0	0.00e+00	0	24	0	1389363200	63	4188
2026-01-09 07:40:01.88	6.72	31.63	-49.0	-50.3	14.9	0.00e+00	0	24	0	1392508928	63	4345
2026-01-09 07:40:02.88	6.40	31.53	-49.2	-50.5	14.8	0.00e+00	0	24	0	1395654656	63	4485
2026-01-09 07:40:03.89	6.09	31.43	-49.3	-50.6	14.8	0.00e+00	0	24	0	1398800384	63	4542
2026-01-09 07:40:04.90	5.78	31.33	-49.3	-50.6	14.8	0.00e+00	0	24	0	1401946112	63	4544
2026-01-09 07:40:05.90	5.47	31.23	-49.0	-50.3	14.9	0.00e+00	0	24	0	1405091840	63	4357
2026-01-09 07:40:06.90	5.17	31.13	-48.8	-50.0	15.0	0.00e+00	0	24	0	1408237568	63	4230
2026-01-09 07:40:07.91	4.86	31.03	-48.9	-50.2	15.0	0.00e+00	0	24	0	1411383296	63	4294
2026-01-09 07:40:08.92	4.56	30.93	-49.1	-50.4	14.9	0.00e+00	0	24	0	1414529024	63	4412
2026-01-09 07:40:09.92	4.26	30.83	-49.2	-50.5	14.8	0.00e+00	0	24	0	1417674752	63	4475
2026-01-09 07:40:10.93	3.96	30.72	-49.4	-50.7	14.7	0.00e+00	0	24	0	1420820480	63	4596
2026-01-09 07:40:11.94	3.66	30.62	-49.4	-50.7	14.8	0.00e+00	0	24	0	1423966208	64	4316
2026-01-09 07:40:12.95	3.36	30.52	-49.3	-50.6	14.9	0.00e+00	0	24	0	1427111936	64	4289
2026-01-09 07:40:13.95	3.07	30.41	-49.0	-50.3	15.0	0.00e+00	0	24	0	1430257664	64	4129
2026-01-09 07:40:14.96	2.78	30.31	-48.8	-50.0	15.2	0.00e+00	0	24	0	1433403392	64	3993
2026-01-09 07:40:15.96	2.49	30.20	-48.8	-50.0	15.1	0.00e+00	0	24	0	1436549120	64	4000
2026-01-09 07:40:16.97	2.20	30.10	-48.7	-49.9	15.2	0.00e+00	0	24	0	1439694848	64	3940
2026-01-09 07:40:17.97	1.92	29.99	-48.7	-49.9	15.1	0.00e+00	0	24	0	1442840576	63	4166
2026-01-09 07:40:18.96	1.64	29.88	-48.8	-50.0	15.0	0.00e+00	0	24	0	1445986304	63	4237
2026-01-09 07:40:19.96	1.36	29.78	-49.0	-50.3	14.9	0.00e+00	0	24	0	1449132032	63	4354
2026-01-09 07:40:20.97	1.08	29.67	-49.1	-50.4	14.9	0.00e+00	0	24	0	1452277760	63	4408
2026-01-09 07:40:21.98	0.80	29.56	-49.1	-50.4	14.8	0.00e+00	0	24	0	1455423488	63	4438
2026-01-09 07:40:22.99	0.52	29.45	-49.0	-50.3	14.9	0.00e+00	0	24	0	1458569216	63	4389
2026-01-09 07:40:23.99	0.25	29.35	-49.0	-50.3	14.9	0.00e+00	0	24	0	1461714944	63	4343
2026-01-09 07:40:25.00	359.97	29.24	-48.8	-50.1	15.0	0.00e+00	0	24	0	1464860672	63	4256
2026-01-09 07:40:26.00	359.70	29.13	-48.8	-50.0	15.0	0.00e+00	0	24	0	1468006400	63	4229
2026-01-09 07:40:27.01	359.43	29.02	-48.9	-50.2	14.9	0.00e+00	0	24	0	1471152128	63	4334
2026-01-09 07:40:28.01	359.17	28.91	-48.8	-50.1	15.0	0.00e+00	0	24	0	1474297856	63	4278
2026-01-09 07:40:29.00	358.91	28.80	-48.9	-50.2	14.9	0.00e+00	0	24	0	1477443584	63	4328
2026-01-09 07:40:30.01	358.64	28.69	-48.9	-50.2	15.0	0.00e+00	0	24	0	1480589312	63	4311
2026-01-09 07:40:31.02	358.38	28.58	-48.8	-50.1	15.0	0.00e+00	0	24	0	1483735040	63	4245
2026-01-09 07:40:32.02	358.12	28.47	-48.6	-49.9	15.1	0.00e+00	0	24	0	1486880768	63	4161
2026-01-09 07:40:33.02	357.87	28.36	-48.6	-49.8	15.1	0.00e+00	0	24	0	1490026496	63	4141
2026-01-09 07:40:34.03	357.61	28.25	-48.5	-49.8	15.1	0.00e+00	0	24	0	1493172224	63	4115
2026-01-09 07:40:35.03	357.36	28.14	-48.5	-49.7	15.2	0.00e+00	0	24	0	1496317952	63	4071
2026-01-09 07:40:36.04	357.10	28.03	-48.3	-49.6	15.2	0.00e+00	0	24	0	1499463680	63	4006
2026-01-09 07:40:37.05	356.85	27.91	-48.4	-49.6	15.2	0.00e+00	0	24	0	1502609408	63	4038
2026-01-09 07:40:38.05	356.60	27.80	-48.5	-49.7	15.1	0.00e+00	0	24	0	1505755136	63	4098
2026-01-09 07:40:39.06	356.35	27.69	-48.8	-50.1	15.0	0.00e+00	0	24	0	1508900864	63	4248
2026-01-09 07:40:40.06	356.11	27.58	-48.8	-50.1	15.0	0.00e+00	0	24	0	1512046592	63	4247
2026-01-09 07:40:41.06	355.87	27.47	-48.7	-50.0	15.1	0.00e+00	0	24	0	1515192320	63	4196
2026-01-09 07:40:42.06	355.63	27.36	-48.6	-49.8	15.1	0.00e+00	0	24	0	1518338048	63	4124
2026-01-09 07:40:43.07	355.39	27.24	-48.5	-49.8	15.1	0.00e+00	0	24	0	1521483776	63	4104
2026-01-09 07:40:44.08	355.15	27.13	-48.6	-49.8	15.1	0.00e+00	0	24	0	1524629504	63	4132
2026-01-09 07:40:45.08	354.91	27.02	-48.5	-49.7	15.1	0.00e+00	0	24	0	1527775232	63	4083
2026-01-09 07:40:46.09	354.67	26.91	-48.3	-49.6	15.2	0.00e+00	0	24	0	1530920960	63	4005
2026-01-09 07:40:47.09	354.44	26.79	-48.3	-49.5	15.2	0.00e+00	0	24	0	1534066688	63	3998
2026-01-09 07:40:48.10	354.21	26.68	-48.2	-49.4	15.3	0.00e+00	0	24	0	1537212416	63	3930
2026-01-09 07:40:49.10	353.98	26.57	-48.1	-49.3	15.2	0.00e+00	0	24	0	1540358144	62	4119
2026-01-09 07:40:50.10	353.75	26.46	-48.2	-49.4	15.2	0.00e+00	0	24	0	1543503872	62	4148
2026-01-09 07:40:51.11	353.53	26.34	-48.3	-49.5	15.1	0.00e+00	0	24	0	1546649600	62	4202
2026-01-09 07:40:52.12	353.30	26.23	-48.3	-49.5	15.1	0.00e+00	0	24	0	1549795328	62	4207
2026-01-09 07:40:53.13	353.07	26.12	-48.3	-49.5	15.1	0.00e+00	0	24	0	1552941056	62	4226
2026-01-09 07:40:54.13	352.85	26.00	-48.4	-49.6	15.0	0.00e+00	0	24	0	1556086784	62	4283
2026-01-09 07:40:55.13	352.63	25.89	-48.5	-49.7	15.0	0.00e+00	0	24	0	1559232512	62	4318
2026-01-09 07:40:56.14	352.41	25.78	-48.9	-50.1	14.9	0.00e+00	0	24	0	1562378240	62	4544
2026-01-09 07:40:57.15	352.20	25.67	-49.0	-50.3	14.9	0.00e+00	0	24	0	1565523968	63	4355
2026-01-09 07:40:58.15	351.98	25.55	-49.1	-50.4	14.8	0.00e+00	0	24	0	1568669696	63	4435
2026-01-09 07:40:59.15	351.77	25.44	-49.1	-50.4	14.9	0.00e+00	0	24	0	1571815424	63	4426
2026-01-09 07:41:00.15	351.56	25.33	-49.0	-50.3	14.9	0.00e+00	0	24	0	1574961152	63	4389
2026-01-09 07:41:01.16	351.35	25.22	-48.9	-50.2	14.9	0.00e+00	0	24	0	1578106880	63	4311
2026-01-09 07:41:02.17	351.14	25.10	-48.7	-50.0	15.0	0.00e+00	0	24	0	1581252608	63	4215
2026-01-09 07:41:03.17	350.93	24.99	-48.6	-49.8	15.1	0.00e+00	0	24	0	1584398336	63	4138
2026-01-09 07:41:04.17	350.72	24.88	-48.5	-49.7	15.1	0.00e+00	0	24	0	1587544064	63	4096
2026-01-09 07:41:05.18	350.52	24.77	-48.4	-49.6	15.2	0.00e+00	0	24	0	1590689792	63	4026
2026-01-09 07:41:06.18	350.31	24.65	-48.4	-49.6	15.2	0.00e+00	0	24	0	1593835520	63	4032
2026-01-09 07:41:07.19	350.11	24.54	-48.3	-49.5	15.2	0.00e+00	0	24	0	1596981248	63	3967
2026-01-09 07:41:08.20	349.91	24.43	-48.0	-49.2	15.2	0.00e+00	0	24	0	1600126976	62	4089
2026-01-09 07:41:09.21	349.71	24.32	-48.1	-49.2	15.2	0.00e+00	0	24	0	1603272704	62	4095
2026-01-09 07:41:10.21	349.51	24.21	-48.0	-49.2	15.2	0.00e+00	0	24	0	1606418432	62	4089
2026-01-09 07:41:11.21	349.32	24.09	-47.9	-49.0	15.3	0.00e+00	0	24	0	1609564160	62	3997
2026-01-09 07:41:12.22	349.12	23.98	-47.7	-48.9	15.4	0.00e+00	0	24	0	1612709888	62	3930
2026-01-09 07:41:13.22	348.93	23.87	-47.7	-48.9	15.3	0.00e+00	0	24	0	1615855616	62	3927
2026-01-09 07:41:14.22	348.74	23.76	-47.6	-48.7	15.2	0.00e+00	0	24	0	1619001344	61	4088
2026-01-09 07:41:15.22	348.55	23.65	-47.6	-48.7	15.3	0.00e+00	0	24	0	1622147072	61	4092
2026-01-09 07:41:16.23	348.36	23.54	-47.7	-48.8	15.2	0.00e+00	0	24	0	1625292800	61	4142
2026-01-09 07:41:17.24	348.17	23.43	-47.7	-48.8	15.2	0.00e+00	0	24	0	1628438528	61	4129
2026-01-09 07:41:18.25	347.98	23.31	-47.7	-48.9	15.2	0.00e+00	0	24	0	1631584256	61	4178
2026-01-09 07:41:19.25	347.80	23.20	-47.8	-48.9	15.2	0.00e+00	0	24	0	1634729984	61	4177
2026-01-09 07:41:20.25	347.61	23.09	-47.9	-49.0	15.1	0.00e+00	0	24	0	1637875712	61	4232
2026-01-09 07:41:21.26	347.43	22.98	-48.0	-49.2	15.1	0.00e+00	0	24	0	1641021440	61	4304
2026-01-09 07:41:22.26	347.25	22.87	-48.1	-49.3	15.0	0.00e+00	0	24	0	1644167168	61	4377
2026-01-09 07:41:23.27	347.07	22.76	-48.2	-49.4	15.0	0.00e+00	0	24	0	1647312896	61	4406
2026-01-09 07:41:24.27	346.89	22.65	-48.2	-49.4	15.0	0.00e+00	0	24	0	1650458624	61	4432
2026-01-09 07:41:25.27	346.72	22.54	-48.2	-49.4	15.0	0.00e+00	0	24	0	1653604352	61	4417
2026-01-09 07:41:26.28	346.54	22.43	-48.1	-49.4	15.0	0.00e+00	0	24	0	1656750080	61	4394
2026-01-09 07:41:27.28	346.36	22.32	-48.1	-49.3	15.1	0.00e+00	0	24	0	1659895808	61	4365
2026-01-09 07:41:28.29	346.19	22.22	-48.1	-49.3	15.1	0.00e+00	0	24	0	1663041536	61	4346
2026-01-09 07:41:29.29	346.02	22.11	-48.0	-49.2	15.1	0.00e+00	0	24	0	1666187264	61	4329
2026-01-09 07:41:30.30	345.85	22.00	-48.2	-49.4	15.0	0.00e+00	0	24	0	1669332992	61	4397
2026-01-09 07:41:31.30	345.68	21.89	-48.2	-49.5	15.0	0.00e+00	0	24	0	1672478720	61	4455
2026-01-09 07:41:32.30	345.51	21.78	-48.3	-49.6	14.9	0.00e+00	0	24	0	1675624448	61	4509
2026-01-09 07:41:33.30	345.34	21.67	-48.5	-49.8	15.0	0.00e+00	0	24	0	1678770176	62	4344
2026-01-09 07:41:34.30	345.18	21.57	-48.4	-49.7	15.0	0.00e+00	0	24	0	1681915904	62	4298
2026-01-09 07:41:35.29	345.01	21.46	-48.5	-49.7	15.0	0.00e+00	0	24	0	1685061632	62	4319
2026-01-09 07:41:36.29	344.85	21.35	-48.5	-49.7	15.0	0.00e+00	0	24	0	1688207360	62	4340
2026-01-09 07:41:37.29	344.69	21.24	-48.5	-49.8	15.0	0.00e+00	0	24	0	1691353088	62	4370
2026-01-09 07:41:38.30	344.53	21.14	-48.6	-49.8	15.0	0.00e+00	0	24	0	1694498816	62	4371
2026-01-09 07:41:39.29	344.37	21.03	-48.6	-49.9	14.9	0.00e+00	0	24	0	1697644544	62	4416
2026-01-09 07:41:40.30	344.21	20.92	-48.5	-49.8	15.0	0.00e+00	0	24	0	1700790272	62	4356
2026-01-09 07:41:41.30	344.05	20.82	-48.5	-49.8	15.0	0.00e+00	0	24	0	1703936000	62	4373
2026-01-09 07:41:42.30	343.89	20.71	-48.7	-50.0	14.9	0.00e+00	0	24	0	1706033152	62	4457
2026-01-09 07:41:43.30	343.74	20.61	-48.5	-49.8	15.0	0.00e+00	0	24	0	1709178880	62	4357
2026-01-09 07:41:44.29	343.59	20.50	-48.6	-49.9	14.9	0.00e+00	0	24	0	1712324608	62	4408
2026-01-09 07:41:45.30	343.43	20.40	-48.6	-49.9	14.9	0.00e+00	0	24	0	1715470336	62	4398
2026-01-09 07:41:46.30	343.28	20.29	-48.6	-49.8	14.9	0.00e+00	0	24	0	1718616064	62	4386
2026-01-09 07:41:47.30	343.13	20.19	-48.6	-49.8	14.9	0.00e+00	0	24	0	1721761792	62	4376
2026-01-09 07:41:48.30	342.98	20.08	-48.6	-49.9	14.9	0.00e+00	0	24	0	1724907520	62	4419
2026-01-09 07:41:49.30	342.83	19.98	-48.7	-50.0	14.9	0.00e+00	0	24	0	1728053248	62	4443
2026-01-09 07:41:50.30	342.68	19.87	-48.5	-49.7	15.0	0.00e+00	0	24	0	1731198976	62	4316
2026-01-09 07:41:51.30	342.53	19.77	-48.4	-49.7	15.0	0.00e+00	0	24	0	1734344704	62	4308
2026-01-09 07:41:52.30	342.39	19.66	-48.5	-49.8	15.0	0.00e+00	0	24	0	1737490432	62	4349
2026-01-09 07:41:53.30	342.24	19.56	-48.3	-49.5	15.1	0.00e+00	0	24	0	1740636160	62	4230
2026-01-09 07:41:54.30	342.10	19.46	-48.3	-49.5	15.1	0.00e+00	0	24	0	1743781888	62	4236
2026-01-09 07:41:55.30	341.96	19.36	-48.1	-49.3	15.1	0.00e+00	0	24	0	1746927616	62	4121
2026-01-09 07:41:56.30	341.81	19.25	-48.4	-49.6	15.0	0.00e+00	0	24	0	1750073344	62	4258
2026-01-09 07:41:57.29	341.67	19.15	-48.3	-49.6	15.0	0.00e+00	0	24	0	1753219072	62	4246
2026-01-09 07:41:58.29	341.53	19.05	-48.1	-49.3	15.1	0.00e+00	0	24	0	1756364800	62	4109
2026-01-09 07:41:59.28	341.40	18.95	-48.1	-49.3	15.1	0.00e+00	0	24	0	1759510528	62	4132
2026-01-09 07:42:00.29	341.26	18.84	-48.1	-49.3	15.2	0.00e+00	0	24	0	1762656256	62	4101
2026-01-09 07:42:01.29	341.12	18.74	-48.2	-49.4	15.1	0.00e+00	0	24	0	1765801984	62	4155
2026-01-09 07:42:02.30	340.98	18.64	-48.2	-49.4	15.1	0.00e+00	0	24	0	1768947712	62	4151
2026-01-09 07:42:03.30	340.85	18.54	-48.2	-49.4	15.1	0.00e+00	0	24	0	1772093440	62	4156
2026-01-09 07:42:04.30	340.71	18.44	-48.2	-49.4	15.1	0.00e+00	0	24	0	1775239168	62	4169
2026-01-09 07:42:05.30	340.58	18.34	-48.2	-49.4	15.1	0.00e+00	0	24	0	1778384896	62	4168
2026-01-09 07:42:06.29	340.45	18.24	-48.3	-49.5	15.1	0.00e+00	0	24	0	1781530624	62	4208
2026-01-09 07:42:07.30	340.31	18.14	-48.1	-49.3	15.1	0.00e+00	0	24	0	1784676352	62	4132
2026-01-09 07:42:08.29	340.18	18.04	-48.1	-49.3	15.1	0.00e+00	0	24	0	1787822080	62	4131
2026-01-09 07:42:09.29	340.05	17.94	-48.2	-49.4	15.1	0.00e+00	0	24	0	1790967808	62	4157
2026-01-09 07:42:10.29	339.93	17.84	-48.2	-49.4	15.1	0.00e+00	0	24	0	1794113536	62	4150
2026-01-09 07:42:11.29	339.80	17.74	-48.3	-49.5	15.1	0.00e+00	0	24	0	1797259264	62	4213
2026-01-09 07:42:12.30	339.67	17.64	-48.3	-49.5	15.1	0.00e+00	0	24	0	1800404992	62	4216
2026-01-09 07:42:13.30	339.54	17.54	-48.3	-49.5	15.0	0.00e+00	0	24	0	1803550720	62	4227
2026-01-09 07:42:14.30	339.42	17.44	-48.3	-49.6	15.0	0.00e+00	0	24	0	1806696448	62	4247
2026-01-09 07:42:15.31	339.29	17.35	-48.2	-49.5	15.1	0.00e+00	0	24	0	1809842176	62	4199
2026-01-09 07:42:16.31	339.17	17.25	-48.5	-49.7	15.0	0.00e+00	0	24	0	1812987904	62	4337
2026-01-09 07:42:17.31	339.04	17.15	-48.4	-49.7	15.0	0.00e+00	0	24	0	1816133632	62	4304
2026-01-09 07:42:18.31	338.92	17.05	-48.6	-49.8	14.9	0.00e+00	0	24	0	1819279360	62	4370
2026-01-09 07:42:19.30	338.80	16.96	-48.7	-50.0	14.9	0.00e+00	0	24	0	1822425088	62	4465
2026-01-09 07:42:20.31	338.68	16.86	-48.8	-50.1	14.8	0.00e+00	0	24	0	1825570816	62	4518
2026-01-09 07:42:21.30	338.56	16.76	-48.9	-50.2	14.8	0.00e+00	0	24	0	1828716544	62	4554
2026-01-09 07:42:22.30	338.44	16.67	-48.9	-50.2	14.9	0.00e+00	0	24	0	1831862272	63	4332
2026-01-09 07:42:23.30	338.32	16.57	-49.1	-50.4	14.8	0.00e+00	0	24	0	1835008000	63	4440
2026-01-09 07:42:24.29	338.21	16.48	-49.1	-50.4	14.8	0.00e+00	0	24	0	1838153728	63	4438
2026-01-09 07:42:25.30	338.09	16.38	-49.1	-50.4	14.8	0.00e+00	0	24	0	1841299456	63	4415
2026-01-09 07:42:26.30	337.97	16.28	-49.2	-50.5	14.8	0.00e+00	0	24	0	1844445184	63	4466
2026-01-09 07:42:27.30	337.86	16.19	-49.2	-50.5	14.8	0.00e+00	0	24	0	1847590912	63	4471
2026-01-09 07:42:28.29	337.74	16.09	-49.2	-50.5	14.8	0.00e+00	0	24	0	1850736640	63	4478
2026-01-09 07:42:29.28	337.63	16.00	-49.2	-50.5	14.7	0.00e+00	0	24	0	1852833792	63	4493
2026-01-09 07:42:30.28	337.52	15.91	-49.0	-50.3	14.8	0.00e+00	0	24	0	1855979520	63	4378
2026-01-09 07:42:31.28	337.41	15.81	-49.0	-50.4	14.8	0.00e+00	0	24	0	1859125248	63	4407
2026-01-09 07:42:32.28	337.29	15.72	-49.0	-50.3	14.8	0.00e+00	0	24	0	1862270976	63	4357
2026-01-09 07:42:33.28	337.18	15.63	-48.9	-50.2	14.9	0.00e+00	0	24	0	1865416704	63	4336
2026-01-09 07:42:34.28	337.07	15.53	-49.0	-50.3	14.8	0.00e+00	0	24	0	1868562432	63	4390
2026-01-09 07:42:35.28	336.96	15.44	-48.9	-50.2	14.9	0.00e+00	0	24	0	1871708160	63	4327
2026-01-09 07:42:36.27	336.86	15.35	-49.1	-50.5	14.8	0.00e+00	0	24	0	1874853888	63	4459
2026-01-09 07:42:37.26	336.75	15.25	-49.2	-50.6	14.7	0.00e+00	0	24	0	1877999616	63	4509
2026-01-09 07:42:38.26	336.64	15.16	-49.3	-50.7	14.7	0.00e+00	0	24	0	1881145344	63	4546
2026-01-09 07:42:39.26	336.53	15.07	-49.0	-50.3	14.8	0.00e+00	0	24	0	1884291072	63	4388
2026-01-09 07:42:40.26	336.43	14.98	-49.1	-50.4	14.8	0.00e+00	0	24	0	1887436800	63	4421
2026-01-09 07:42:41.25	336.32	14.89	-49.1	-50.5	14.8	0.00e+00	0	24	0	1890582528	63	4444
2026-01-09 07:42:42.26	336.22	14.80	-49.3	-50.6	14.7	0.00e+00	0	24	0	1893728256	63	4523
2026-01-09 07:42:43.25	336.11	14.71	-49.2	-50.6	14.7	0.00e+00	0	24	0	1896873984	63	4520
2026-01-09 07:42:44.25	336.01	14.61	-49.2	-50.6	14.7	0.00e+00	0	24	0	1900019712	63	4515
2026-01-09 07:42:45.24	335.91	14.52	-49.4	-50.7	14.6	0.00e+00	0	24	0	1903165440	63	4593
2026-01-09 07:42:46.24	335.81	14.43	-49.5	-50.9	14.6	0.00e+00	0	24	0	1906311168	64	4428
2026-01-09 07:42:47.23	335.71	14.34	-49.4	-50.8	14.7	0.00e+00	0	24	0	1909456896	64	4363
2026-01-09 07:42:48.23	335.61	14.25	-49.5	-50.9	14.7	0.00e+00	0	24	0	1912602624	64	4412
2026-01-09 07:42:49.23	335.51	14.16	-49.5	-50.8	14.7	0.00e+00	0	24	0	1915748352	64	4386
2026-01-09 07:42:50.24	335.41	14.07	-49.5	-50.9	14.7	0.00e+00	0	24	0	1918894080	64	4418
2026-01-09 07:42:51.23	335.31	13.99	-49.6	-51.0	14.6	0.00e+00	0	24	0	1922039808	64	4459
2026-01-09 07:42:52.23	335.21	13.90	-49.6	-51.0	14.6	0.00e+00	0	24	0	1925185536	64	4493
2026-01-09 07:42:53.23	335.11	13.81	-49.4	-50.8	14.7	0.00e+00	0	24	0	1928331264	64	4386
2026-01-09 07:42:54.23	335.01	13.72	-49.3	-50.7	14.7	0.00e+00	0	24	0	1931476992	64	4319
2026-01-09 07:42:55.23	334.92	13.63	-49.3	-50.7	14.8	0.00e+00	0	24	0	1934622720	64	4295
2026-01-09 07:42:56.23	334.82	13.54	-49.2	-50.6	14.8	0.00e+00	0	24	0	1937768448	64	4267
2026-01-09 07:42:57.23	334.73	13.46	-49.2	-50.5	14.8	0.00e+00	0	24	0	1940914176	64	4234
2026-01-09 07:42:58.24	334.63	13.37	-49.1	-50.5	14.8	0.00e+00	0	24	0	1944059904	64	4204
2026-01-09 07:42:59.24	334.54	13.28	-49.1	-50.4	14.9	0.00e+00	0	24	0	1947205632	64	4177
2026-01-09 07:43:00.24	334.44	13.19	-49.2	-50.5	14.8	0.00e+00	0	24	0	1950351360	64	4217
2026-01-09 07:43:01.24	334.35	13.11	-49.1	-50.4	14.9	0.00e+00	0	24	0	1953497088	64	4158
2026-01-09 07:43:02.24	334.26	13.02	-49.2	-50.5	14.8	0.00e+00	0	24	0	1956642816	64	4237
2026-01-09 07:43:03.25	334.16	12.93	-49.1	-50.4	14.9	0.00e+00	0	24	0	1959788544	64	4185
2026-01-09 07:43:04.25	334.07	12.85	-48.9	-50.2	15.0	0.00e+00	0	24	0	1962934272	64	4081
2026-01-09 07:43:05.26	333.98	12.76	-49.0	-50.3	14.9	0.00e+00	0	24	0	1966080000	64	4111
2026-01-09 07:43:06.26	333.89	12.67	-49.2	-50.6	14.8	0.00e+00	0	24	0	1969225728	64	4250
2026-01-09 07:43:07.27	333.80	12.59	-49.5	-50.9	14.6	0.00e+00	0	24	0	1972371456	64	4404
2026-01-09 07:43:08.27	333.71	12.50	-49.4	-50.8	14.6	0.00e+00	0	24	0	1975517184	64	4383
2026-01-09 07:43:09.28	333.62	12.42	-49.4	-50.8	14.7	0.00e+00	0	24	0	1978662912	64	4356
2026-01-09 07:43:10.28	333.53	12.33	-49.5	-50.9	14.6	0.00e+00	0	24	0	1981808640	64	4431
2026-01-09 07:43:11.28	333.45	12.25	-49.5	-50.9	14.6	0.00e+00	0	24	0	1984954368	64	4406
2026-01-09 07:43:12.29	333.36	12.16	-49.5	-50.8	14.7	0.00e+00	0	24	0	1988100096	64	4391
2026-01-09 07:43:13.30	333.27	12.08	-49.4	-50.8	14.6	0.00e+00	0	24	0	1991245824	64	4381
2026-01-09 07:43:14.30	333.18	11.99	-49.6	-51.1	14.5	0.00e+00	0	24	0	1994391552	64	4508
2026-01-09 07:43:15.31	333.10	11.91	-49.6	-51.0	14.6	0.00e+00	0	24	0	1997537280	64	4473
2026-01-09 07:43:16.31	333.01	11.82	-49.7	-51.2	14.5	0.00e+00	0	24	0	2000683008	64	4556
2026-01-09 07:43:17.32	332.93	11.74	-49.7	-51.2	14.5	0.00e+00	0	24	0	2003828736	64	4572
2026-01-09 07:43:18.31	332.84	11.66	-49.7	-51.1	14.5	0.00e+00	0	24	0	2006974464	64	4525
2026-01-09 07:43:19.30	332.76	11.58	-49.9	-51.3	14.4	0.00e+00	0	24	0	2010120192	64	4651
2026-01-09 07:43:20.31	332.68	11.49	-49.9	-51.4	14.5	0.00e+00	0	24	0	2013265920	65	4425
2026-01-09 07:43:21.30	332.60	11.41	-49.8	-51.2	14.6	0.00e+00	0	24	0	2016411648	65	4325
2026-01-09 07:43:22.30	332.51	11.33	-49.9	-51.3	14.5	0.00e+00	0	24	0	2019557376	65	4377
2026-01-09 07:43:23.30	332.43	11.25	-49.7	-51.1	14.6	0.00e+00	0	24	0	2021654528	65	4281
2026-01-09 07:43:24.29	332.35	11.17	-49.5	-50.9	14.8	0.00e+00	0	24	0	2024800256	65	4158
2026-01-09 07:43:25.29	332.27	11.08	-49.8	-51.3	14.5	0.00e+00	0	24	0	2027945984	65	4364
2026-01-09 07:43:26.29	332.19	11.00	-49.8	-51.3	14.6	0.00e+00	0	24	0	2031091712	65	4344
