passes_logs/2026/01/09/R3.2S_Murmansk/R3.2S_Murmansk__20260109_112703_AQUA_rec.log

#Pass ID: 20260109_112703_AQUA
#Satellite: AQUA
#Configuration: AQUA
#almurnet v.1.7.20251203
#Start time: 2026-01-09 11:27:03

#Version: 2.2.20231116
#Station: R3.2S_Murmansk
#Location: 33.079688 lon 68.888172 lat
#TLE: 1 27424U 02022A   26004.96787593  .00001598  00000+0  32997-3 0  9996
#TLE: 2 27424  98.4069 331.2279 0002002  90.2377   0.6092 14.61798176259425

#Time	Az	El	Level	Level2	SNR	BER	BlckErr	Temp	State	Recorded	gain1	gain2
2026-01-09 11:27:03.95	156.88	2.03	-57.0	-76.3	3.8	7.43e-01	0	22	0	0	82	33981
2026-01-09 11:27:04.93	156.89	2.09	-56.9	-76.3	3.8	7.47e-01	0	22	104	0	81	35740
2026-01-09 11:27:05.89	156.90	2.16	-56.9	-76.2	3.8	7.44e-01	0	22	104	0	81	35555
2026-01-09 11:27:06.85	156.91	2.22	-56.9	-76.2	3.8	7.44e-01	0	22	104	0	81	35450
2026-01-09 11:27:07.82	156.91	2.29	-56.9	-76.1	3.8	7.47e-01	0	22	104	0	81	35264
2026-01-09 11:27:08.78	156.92	2.35	-56.9	-76.1	3.8	7.46e-01	0	22	104	0	81	35013
2026-01-09 11:27:09.75	156.93	2.42	-56.9	-76.0	3.8	7.44e-01	0	22	104	0	81	34537
2026-01-09 11:27:10.72	156.94	2.48	-56.9	-75.9	3.8	7.48e-01	0	22	104	0	81	34190
2026-01-09 11:27:11.69	156.95	2.55	-56.9	-75.8	3.8	7.49e-01	0	22	104	0	81	33778
2026-01-09 11:27:12.65	156.95	2.61	-56.9	-75.5	3.8	7.43e-01	0	22	104	0	81	32912
2026-01-09 11:27:13.61	156.96	2.68	-56.9	-75.5	3.8	7.45e-01	0	22	104	0	81	32598
2026-01-09 11:27:14.58	156.97	2.74	-56.9	-75.4	3.8	7.43e-01	0	22	104	0	81	32392
2026-01-09 11:27:15.55	156.98	2.81	-56.9	-75.2	3.8	7.46e-01	0	22	104	0	81	31449
2026-01-09 11:27:16.52	156.99	2.88	-56.9	-75.0	3.8	7.45e-01	0	22	104	0	81	30774
2026-01-09 11:27:17.48	156.99	2.94	-56.9	-74.8	3.8	7.44e-01	0	22	104	0	81	30319
2026-01-09 11:27:18.45	157.00	3.01	-56.9	-74.7	3.8	7.46e-01	0	22	104	0	81	30011
2026-01-09 11:27:19.41	157.01	3.08	-56.9	-74.4	3.8	7.46e-01	0	22	104	0	81	28985
2026-01-09 11:27:20.38	157.02	3.14	-56.9	-74.1	3.9	7.45e-01	0	22	104	0	81	27938
2026-01-09 11:27:21.34	157.03	3.21	-56.9	-73.5	4.0	7.41e-01	0	22	104	0	81	26022
2026-01-09 11:27:22.31	157.03	3.28	-56.9	-74.0	3.9	7.43e-01	0	22	104	0	81	27443
2026-01-09 11:27:23.28	157.04	3.35	-56.9	-74.5	3.8	7.43e-01	0	22	104	0	81	29168
2026-01-09 11:27:24.25	157.05	3.41	-56.9	-75.3	3.8	7.44e-01	0	22	104	0	81	31962
2026-01-09 11:27:25.21	157.06	3.48	-56.9	-76.1	3.8	7.43e-01	0	22	104	0	81	35125
2026-01-09 11:27:26.18	157.07	3.55	-56.9	-76.0	3.8	7.45e-01	0	22	104	0	81	34810
2026-01-09 11:27:27.15	157.08	3.62	-56.9	-74.7	3.9	7.44e-01	0	22	104	0	81	29834
2026-01-09 11:27:28.11	157.08	3.69	-56.8	-72.6	4.2	7.32e-01	0	22	104	0	81	23340
2026-01-09 11:27:28.81	157.09	3.74	-56.8	-70.7	4.9	7.08e-01	0	22	0	0	81	18805
2026-01-09 11:27:30.19	157.10	3.84	-56.6	-67.6	6.9	6.60e-01	91	22	0	1048576	81	13260
2026-01-09 11:27:30.88	157.11	3.89	-56.5	-67.1	7.4	6.51e-01	91	22	0	2621440	81	12444
2026-01-09 11:27:32.25	157.12	3.98	-56.3	-64.9	9.4	6.24e-01	0	23	0	5242880	81	9643
2026-01-09 11:27:32.94	157.13	4.03	-56.1	-64.0	10.2	6.19e-01	0	23	0	6291456	81	8668
2026-01-09 11:27:34.33	157.14	4.13	-55.9	-62.9	11.2	6.14e-01	0	23	0	8912896	81	7637
2026-01-09 11:27:35.02	157.14	4.18	-55.7	-62.3	11.5	6.12e-01	0	23	0	10485760	80	7625
2026-01-09 11:27:36.40	157.16	4.28	-55.3	-61.0	12.4	6.10e-01	0	22	0	13107200	79	6946
2026-01-09 11:27:37.08	157.16	4.33	-55.1	-60.3	12.9	6.04e-01	0	22	0	14155776	79	6370
2026-01-09 11:27:38.46	157.17	4.44	-54.5	-58.9	13.8	6.07e-01	0	23	0	16777216	78	5760
2026-01-09 11:27:39.15	157.18	4.49	-54.1	-58.1	14.2	6.06e-01	0	23	0	17825792	77	5571
2026-01-09 11:27:40.53	157.19	4.59	-53.6	-57.2	14.6	6.06e-01	0	23	0	20447232	76	5301
2026-01-09 11:27:41.22	157.20	4.64	-53.1	-56.4	14.8	6.07e-01	0	23	0	22020096	75	5152
2026-01-09 11:27:42.60	157.21	4.74	-52.3	-55.1	15.3	6.05e-01	0	23	0	24641536	73	4956
2026-01-09 11:27:43.29	157.22	4.79	-52.1	-54.8	15.3	6.05e-01	0	23	0	25690112	73	4791
2026-01-09 11:27:44.67	157.23	4.89	-51.7	-54.3	15.4	6.06e-01	0	23	0	28311552	72	4766
2026-01-09 11:27:45.37	157.24	4.95	-51.5	-54.0	15.6	6.06e-01	0	23	0	29884416	72	4629
2026-01-09 11:27:46.75	157.25	5.05	-51.5	-53.9	15.6	6.05e-01	0	23	0	32505856	72	4579
2026-01-09 11:27:47.43	157.26	5.10	-53.5	-57.1	14.5	6.06e-01	0	23	0	33554432	74	5893
2026-01-09 11:27:48.82	157.27	5.21	-54.3	-58.4	13.9	6.07e-01	0	23	0	36175872	76	6100
2026-01-09 11:27:49.51	157.28	5.26	-53.1	-56.4	14.7	6.08e-01	0	23	0	37224448	73	5785
2026-01-09 11:27:50.89	157.29	5.36	-54.9	-59.8	13.0	6.09e-01	0	23	0	39845888	78	6350
2026-01-09 11:27:51.58	157.29	5.42	-51.3	-53.7	15.5	6.07e-01	0	23	0	41418752	71	4746
2026-01-09 11:27:52.96	157.31	5.52	-51.1	-53.4	15.6	6.05e-01	0	23	0	44040192	71	4559
2026-01-09 11:27:53.64	157.31	5.58	-50.9	-53.1	15.8	6.06e-01	0	23	0	45088768	71	4410
2026-01-09 11:27:55.03	157.33	5.68	-51.0	-53.3	15.5	6.03e-01	0	23	0	47710208	70	4795
2026-01-09 11:27:55.71	157.33	5.73	-51.1	-53.3	15.5	6.07e-01	0	23	0	49283072	70	4804
2026-01-09 11:27:57.09	157.35	5.84	-50.7	-52.8	15.7	6.06e-01	0	23	0	51904512	70	4526
2026-01-09 11:27:57.78	157.35	5.90	-50.5	-52.6	15.8	6.05e-01	0	23	0	52953088	70	4424
2026-01-09 11:27:59.17	157.37	6.00	-50.8	-52.9	15.7	6.06e-01	0	23	0	55574528	70	4586
2026-01-09 11:27:59.86	157.37	6.06	-50.7	-52.8	15.7	6.07e-01	0	23	0	56623104	70	4521
2026-01-09 11:28:01.24	157.39	6.17	-50.6	-52.7	15.7	6.06e-01	0	23	0	59244544	70	4490
2026-01-09 11:28:01.92	157.39	6.22	-50.6	-52.7	15.8	6.07e-01	0	23	0	60817408	70	4454
2026-01-09 11:28:03.31	157.41	6.33	-50.6	-52.7	15.8	6.08e-01	0	23	0	63438848	70	4478
2026-01-09 11:28:04.00	157.41	6.39	-50.6	-52.7	15.8	6.03e-01	0	23	0	64487424	70	4478
2026-01-09 11:28:05.37	157.43	6.50	-50.6	-52.7	15.8	6.07e-01	0	23	0	67108864	70	4444
2026-01-09 11:28:06.06	157.43	6.55	-50.5	-52.6	15.8	6.08e-01	0	23	0	68681728	70	4415
2026-01-09 11:28:07.45	157.45	6.66	-50.5	-52.6	15.8	6.06e-01	0	23	0	71303168	70	4424
2026-01-09 11:28:08.14	157.45	6.72	-50.5	-52.6	15.8	6.05e-01	0	23	0	72351744	70	4428
2026-01-09 11:28:09.52	157.47	6.83	-50.6	-52.7	15.8	6.06e-01	0	23	0	74973184	70	4460
2026-01-09 11:28:10.21	157.47	6.89	-50.6	-52.6	15.8	6.06e-01	0	23	0	76021760	70	4439
2026-01-09 11:28:11.59	157.49	7.00	-50.5	-52.5	15.9	6.06e-01	0	23	0	79167488	70	4366
2026-01-09 11:28:12.28	157.50	7.05	-50.5	-52.5	15.9	6.05e-01	0	23	0	80216064	70	4388
2026-01-09 11:28:13.66	157.51	7.17	-50.5	-52.5	15.9	6.05e-01	0	23	0	82837504	70	4387
2026-01-09 11:28:14.35	157.52	7.23	-50.5	-52.6	15.9	6.07e-01	0	23	0	83886080	70	4395
2026-01-09 11:28:15.74	157.53	7.34	-50.5	-52.5	15.9	6.07e-01	0	23	0	86507520	70	4361
2026-01-09 11:28:16.43	157.54	7.40	-50.4	-52.4	15.9	6.07e-01	0	23	0	88080384	70	4338
2026-01-09 11:28:17.81	157.55	7.51	-50.4	-52.5	15.9	6.09e-01	0	23	0	90701824	70	4354
2026-01-09 11:28:18.50	157.56	7.57	-50.2	-52.2	15.8	6.06e-01	0	23	0	91750400	69	4484
2026-01-09 11:28:19.88	157.57	7.69	-50.2	-52.2	15.8	6.07e-01	0	23	0	94371840	69	4480
2026-01-09 11:28:20.56	157.58	7.74	-50.3	-52.3	15.7	6.07e-01	0	23	0	95944704	69	4510
2026-01-09 11:28:21.94	157.60	7.86	-50.2	-52.2	15.8	6.07e-01	0	23	0	98566144	69	4462
2026-01-09 11:28:22.63	157.60	7.92	-50.2	-52.2	15.8	6.06e-01	0	23	0	99614720	69	4454
2026-01-09 11:28:24.01	157.62	8.04	-50.1	-52.0	15.9	6.05e-01	0	23	0	102236160	69	4373
2026-01-09 11:28:24.70	157.62	8.10	-50.1	-52.0	15.9	6.08e-01	0	23	0	103284736	69	4388
2026-01-09 11:28:26.08	157.64	8.22	-50.0	-51.9	15.9	6.08e-01	0	23	0	105906176	69	4338
2026-01-09 11:28:26.77	157.65	8.27	-50.0	-52.0	15.9	6.07e-01	0	23	0	107479040	69	4347
2026-01-09 11:28:28.15	157.66	8.39	-50.1	-52.0	15.9	6.06e-01	0	23	0	110100480	69	4365
2026-01-09 11:28:28.83	157.67	8.45	-50.0	-52.0	15.9	6.07e-01	0	23	0	111149056	69	4348
2026-01-09 11:28:30.21	157.68	8.57	-50.0	-51.9	15.9	6.06e-01	0	23	0	113770496	69	4316
2026-01-09 11:28:30.90	157.69	8.63	-50.0	-51.9	15.9	6.07e-01	0	23	0	115343360	69	4317
2026-01-09 11:28:32.28	157.71	8.76	-49.9	-51.8	16.0	6.05e-01	0	23	0	117964800	69	4275
2026-01-09 11:28:32.97	157.71	8.82	-49.8	-51.6	15.8	6.06e-01	0	23	0	119013376	68	4439
2026-01-09 11:28:34.35	157.73	8.94	-49.8	-51.7	15.8	6.04e-01	0	23	0	121634816	68	4447
2026-01-09 11:28:35.04	157.74	9.00	-49.8	-51.7	15.8	6.07e-01	0	23	0	122683392	68	4450
2026-01-09 11:28:36.43	157.75	9.13	-49.8	-51.7	15.8	6.05e-01	0	23	0	125304832	68	4474
2026-01-09 11:28:37.12	157.76	9.19	-49.8	-51.7	15.8	6.06e-01	0	23	0	126877696	68	4456
2026-01-09 11:28:38.50	157.78	9.31	-49.9	-51.7	15.8	6.03e-01	0	23	0	129499136	68	4489
2026-01-09 11:28:39.19	157.78	9.38	-49.8	-51.6	15.8	6.07e-01	0	23	0	130547712	68	4439
2026-01-09 11:28:40.57	157.80	9.50	-49.7	-51.5	15.9	6.08e-01	0	23	0	133169152	68	4371
2026-01-09 11:28:41.26	157.81	9.56	-49.7	-51.6	15.9	6.06e-01	0	23	0	134742016	68	4392
2026-01-09 11:28:42.64	157.82	9.69	-49.7	-51.6	15.9	6.05e-01	0	23	0	137363456	68	4404
2026-01-09 11:28:43.33	157.83	9.75	-49.7	-51.6	15.9	6.08e-01	0	23	0	138412032	68	4393
2026-01-09 11:28:44.71	157.85	9.88	-49.6	-51.4	15.9	6.04e-01	0	23	0	141033472	68	4328
2026-01-09 11:28:45.40	157.86	9.95	-49.7	-51.5	15.9	6.07e-01	0	23	0	142082048	68	4355
2026-01-09 11:28:46.78	157.87	10.08	-49.6	-51.4	15.9	6.07e-01	0	23	0	144703488	68	4335
2026-01-09 11:28:47.47	157.88	10.14	-49.6	-51.5	15.9	6.05e-01	0	23	0	146276352	68	4347
2026-01-09 11:28:48.85	157.90	10.27	-49.6	-51.4	15.9	6.06e-01	0	23	0	148897792	68	4328
2026-01-09 11:28:49.54	157.90	10.34	-49.6	-51.4	15.9	6.07e-01	0	23	0	149946368	68	4333
2026-01-09 11:28:50.92	157.92	10.47	-49.6	-51.4	16.0	6.07e-01	0	23	0	152567808	68	4311
2026-01-09 11:28:51.61	157.93	10.53	-49.6	-51.4	16.0	6.04e-01	0	23	0	154140672	68	4317
2026-01-09 11:28:52.99	157.95	10.67	-49.5	-51.3	16.0	6.08e-01	0	23	0	156762112	68	4259
2026-01-09 11:28:53.68	157.95	10.73	-49.6	-51.4	16.0	6.07e-01	0	23	0	157810688	68	4300
2026-01-09 11:28:55.06	157.97	10.87	-49.5	-51.3	16.0	6.06e-01	0	23	0	160432128	68	4267
2026-01-09 11:28:55.75	157.98	10.93	-49.5	-51.3	16.0	6.06e-01	0	23	0	161480704	68	4273
2026-01-09 11:28:57.13	158.00	11.07	-49.5	-51.3	16.0	6.06e-01	0	23	0	164102144	68	4275
2026-01-09 11:28:57.82	158.01	11.14	-49.5	-51.3	16.0	6.06e-01	0	23	0	165675008	68	4259
2026-01-09 11:28:59.19	158.02	11.27	-49.5	-51.3	16.0	6.09e-01	0	23	0	168296448	68	4263
2026-01-09 11:28:59.88	158.03	11.34	-49.5	-51.3	16.0	6.08e-01	0	23	0	169345024	68	4267
2026-01-09 11:29:01.26	158.05	11.48	-49.5	-51.3	16.0	6.08e-01	0	23	0	171966464	68	4266
2026-01-09 11:29:01.95	158.06	11.55	-49.4	-51.2	16.0	6.05e-01	0	23	0	173539328	68	4210
2026-01-09 11:29:03.33	158.08	11.68	-49.4	-51.2	16.0	6.07e-01	0	23	0	176160768	68	4225
2026-01-09 11:29:04.02	158.08	11.75	-49.4	-51.2	16.0	6.06e-01	0	23	0	177209344	68	4221
2026-01-09 11:29:05.40	158.10	11.89	-49.5	-51.2	16.1	6.06e-01	0	23	0	179830784	68	4225
2026-01-09 11:29:06.09	158.11	11.96	-49.3	-51.1	15.9	6.06e-01	0	23	0	180879360	67	4396
2026-01-09 11:29:07.47	158.13	12.11	-49.3	-51.1	15.9	6.06e-01	0	23	0	183500800	67	4419
2026-01-09 11:29:08.16	158.14	12.18	-49.3	-51.1	15.9	6.08e-01	0	23	0	185073664	67	4418
2026-01-09 11:29:09.54	158.16	12.32	-49.3	-51.0	15.9	6.05e-01	0	23	0	187695104	67	4368
2026-01-09 11:29:10.23	158.17	12.39	-49.3	-51.0	15.9	6.07e-01	0	23	0	188743680	67	4385
2026-01-09 11:29:11.61	158.18	12.54	-49.2	-50.9	15.9	6.06e-01	0	23	0	191365120	67	4314
2026-01-09 11:29:12.30	158.19	12.61	-49.2	-51.0	15.9	6.06e-01	0	23	0	192937984	67	4354
2026-01-09 11:29:13.67	158.21	12.75	-49.1	-50.8	16.0	6.06e-01	0	23	0	195559424	67	4271
2026-01-09 11:29:14.36	158.22	12.83	-49.0	-50.7	16.0	6.07e-01	0	23	0	196608000	67	4235
2026-01-09 11:29:15.75	158.24	12.97	-49.0	-50.7	16.0	6.05e-01	0	23	0	199229440	67	4236
2026-01-09 11:29:16.44	158.25	13.05	-49.0	-50.7	16.0	6.06e-01	0	23	0	200278016	67	4227
2026-01-09 11:29:17.82	158.27	13.20	-49.0	-50.7	16.0	6.07e-01	0	23	0	202899456	67	4211
2026-01-09 11:29:18.51	158.28	13.27	-48.9	-50.6	16.1	6.04e-01	0	23	0	204472320	67	4152
2026-01-09 11:29:19.89	158.30	13.42	-48.9	-50.6	16.1	6.05e-01	0	23	0	207093760	67	4181
2026-01-09 11:29:20.58	158.31	13.50	-49.0	-50.7	16.0	6.07e-01	0	23	0	208142336	67	4205
2026-01-09 11:29:21.96	158.33	13.65	-48.9	-50.6	15.9	6.06e-01	0	23	0	210763776	66	4411
2026-01-09 11:29:22.65	158.34	13.72	-48.9	-50.6	15.9	6.08e-01	0	23	0	212336640	66	4434
2026-01-09 11:29:24.02	158.36	13.88	-48.9	-50.6	15.9	6.05e-01	0	23	0	214958080	66	4402
2026-01-09 11:29:24.71	158.37	13.95	-48.8	-50.5	15.9	6.06e-01	0	23	0	216006656	66	4377
2026-01-09 11:29:26.09	158.39	14.11	-48.9	-50.6	15.9	6.05e-01	0	23	0	218628096	66	4395
2026-01-09 11:29:26.78	158.40	14.19	-48.9	-50.6	15.9	6.05e-01	0	23	0	219676672	66	4416
2026-01-09 11:29:28.17	158.42	14.34	-48.9	-50.6	15.9	6.05e-01	0	23	0	222298112	66	4428
2026-01-09 11:29:28.86	158.43	14.42	-49.0	-50.7	15.8	6.05e-01	0	23	0	223870976	66	4488
2026-01-09 11:29:30.24	158.45	14.58	-49.0	-50.7	15.9	6.08e-01	0	24	0	226492416	66	4464
2026-01-09 11:29:30.93	158.46	14.66	-49.1	-50.8	15.8	6.06e-01	0	23	0	227540992	66	4502
2026-01-09 11:29:32.31	158.48	14.82	-49.1	-50.8	15.8	6.08e-01	0	24	0	230162432	66	4512
2026-01-09 11:29:33.00	158.49	14.90	-49.1	-50.8	15.8	6.08e-01	0	23	0	231735296	66	4512
2026-01-09 11:29:34.38	158.51	15.06	-49.0	-50.7	15.8	6.03e-01	0	23	0	234356736	66	4477
2026-01-09 11:29:35.07	158.52	15.14	-49.1	-50.8	15.8	6.08e-01	0	23	0	235405312	66	4517
2026-01-09 11:29:36.45	158.54	15.31	-49.1	-50.8	15.8	6.07e-01	0	24	0	238026752	66	4506
2026-01-09 11:29:37.14	158.55	15.39	-49.0	-50.6	15.8	6.04e-01	0	23	0	239075328	66	4439
2026-01-09 11:29:38.52	158.58	15.55	-48.9	-50.6	15.9	6.04e-01	0	23	0	241696768	66	4429
2026-01-09 11:29:39.21	158.59	15.64	-48.9	-50.6	15.9	6.06e-01	0	23	0	243269632	66	4409
2026-01-09 11:29:40.59	158.61	15.80	-48.9	-50.5	15.9	6.06e-01	0	24	0	245891072	66	4389
2026-01-09 11:29:41.28	158.62	15.89	-48.9	-50.5	15.9	6.05e-01	0	23	0	246939648	66	4385
2026-01-09 11:29:42.66	158.64	16.06	-48.8	-50.4	15.9	6.04e-01	0	23	0	249561088	66	4316
2026-01-09 11:29:43.35	158.65	16.14	-48.7	-50.4	16.0	6.06e-01	0	23	0	251133952	66	4301
2026-01-09 11:29:44.73	158.68	16.31	-48.7	-50.4	16.0	6.04e-01	0	23	0	253755392	66	4292
2026-01-09 11:29:45.42	158.69	16.40	-48.7	-50.3	16.0	6.06e-01	0	23	0	254803968	66	4258
2026-01-09 11:29:46.81	158.71	16.57	-48.7	-50.4	16.0	6.05e-01	0	24	0	257425408	66	4296
2026-01-09 11:29:47.49	158.72	16.66	-48.7	-50.3	16.0	6.06e-01	0	23	0	258473984	66	4259
2026-01-09 11:29:48.87	158.74	16.83	-48.7	-50.3	16.0	6.07e-01	0	23	0	261095424	66	4285
2026-01-09 11:29:49.55	158.76	16.92	-48.7	-50.4	15.9	6.07e-01	0	23	0	262668288	66	4300
2026-01-09 11:29:50.94	158.78	17.10	-48.7	-50.4	15.9	6.03e-01	0	23	0	265289728	66	4312
2026-01-09 11:29:51.63	158.79	17.19	-48.8	-50.5	15.9	6.06e-01	0	23	0	266338304	66	4357
2026-01-09 11:29:53.01	158.82	17.37	-48.9	-50.5	15.9	6.07e-01	0	23	0	268959744	66	4384
2026-01-09 11:29:53.70	158.83	17.46	-48.9	-50.6	15.9	6.07e-01	0	24	0	270532608	66	4401
2026-01-09 11:29:55.08	158.85	17.64	-49.0	-50.6	15.9	6.06e-01	0	24	0	273154048	66	4439
2026-01-09 11:29:55.77	158.86	17.73	-48.9	-50.6	15.8	6.05e-01	0	24	0	274202624	66	4427
2026-01-09 11:29:57.15	158.89	17.92	-49.0	-50.6	15.9	6.05e-01	0	23	0	276824064	66	4430
2026-01-09 11:29:57.84	158.90	18.01	-49.0	-50.6	15.8	6.08e-01	0	23	0	277872640	66	4439
2026-01-09 11:29:59.21	158.93	18.19	-49.0	-50.7	15.8	6.05e-01	0	24	0	280494080	66	4457
2026-01-09 11:29:59.90	158.94	18.29	-49.0	-50.7	15.8	6.07e-01	0	23	0	282066944	66	4480
2026-01-09 11:30:01.28	158.96	18.47	-49.0	-50.7	15.9	6.04e-01	0	24	0	284688384	66	4485
2026-01-09 11:30:01.98	158.98	18.57	-48.9	-50.6	15.9	6.05e-01	0	23	0	285736960	66	4429
2026-01-09 11:30:03.35	159.00	18.76	-48.9	-50.5	15.9	6.08e-01	0	23	0	288358400	66	4385
2026-01-09 11:30:04.04	159.02	18.86	-48.8	-50.5	15.9	6.05e-01	0	23	0	289931264	66	4341
2026-01-09 11:30:05.42	159.04	19.05	-48.9	-50.6	15.9	6.06e-01	0	23	0	292028416	66	4400
2026-01-09 11:30:06.11	159.06	19.15	-48.9	-50.5	15.9	6.06e-01	0	24	0	293601280	66	4387
2026-01-09 11:30:07.49	159.08	19.34	-49.0	-50.6	15.8	6.07e-01	0	23	0	296222720	66	4438
2026-01-09 11:30:08.18	159.10	19.44	-48.9	-50.6	15.9	6.06e-01	0	23	0	297271296	66	4424
2026-01-09 11:30:09.56	159.12	19.64	-49.0	-50.7	15.8	6.07e-01	0	24	0	299892736	66	4475
2026-01-09 11:30:10.25	159.14	19.74	-49.1	-50.8	15.8	6.06e-01	0	24	0	301465600	66	4514
2026-01-09 11:30:11.63	159.16	19.94	-49.1	-50.8	15.8	6.04e-01	0	23	0	304087040	66	4544
2026-01-09 11:30:12.32	159.18	20.04	-49.2	-50.8	15.8	6.06e-01	0	24	0	305135616	66	4539
2026-01-09 11:30:13.70	159.21	20.24	-49.2	-50.9	15.7	6.05e-01	0	24	0	307757056	66	4582
2026-01-09 11:30:14.39	159.22	20.35	-49.2	-51.0	15.7	6.04e-01	0	24	0	309329920	66	4601
2026-01-09 11:30:15.77	159.25	20.55	-49.1	-50.8	15.8	6.06e-01	0	23	0	311951360	66	4516
2026-01-09 11:30:16.46	159.26	20.66	-49.2	-50.9	15.8	6.07e-01	0	24	0	312999936	66	4550
2026-01-09 11:30:17.84	159.29	20.87	-49.1	-50.8	15.8	6.07e-01	0	24	0	315621376	66	4497
2026-01-09 11:30:18.53	159.31	20.97	-49.1	-50.7	15.8	6.05e-01	0	23	0	317194240	66	4488
2026-01-09 11:30:19.91	159.34	21.18	-49.1	-50.8	15.8	6.07e-01	0	24	0	319291392	66	4499
2026-01-09 11:30:20.60	159.35	21.29	-49.1	-50.8	15.8	6.07e-01	0	24	0	320864256	66	4520
2026-01-09 11:30:21.98	159.38	21.51	-49.3	-51.0	15.7	6.09e-01	0	24	0	323485696	66	4606
2026-01-09 11:30:22.67	159.40	21.61	-49.1	-50.8	15.8	6.04e-01	0	24	0	324534272	66	4516
2026-01-09 11:30:24.05	159.43	21.83	-49.1	-50.7	15.8	6.06e-01	0	24	0	327155712	66	4481
2026-01-09 11:30:24.74	159.44	21.94	-49.1	-50.8	15.8	6.05e-01	0	24	0	328728576	66	4498
2026-01-09 11:30:26.12	159.48	22.16	-49.1	-50.7	15.8	6.08e-01	0	24	0	331350016	66	4481
2026-01-09 11:30:26.81	159.49	22.27	-49.1	-50.7	15.8	6.06e-01	0	24	0	332398592	66	4480
2026-01-09 11:30:28.19	159.52	22.50	-49.1	-50.8	15.8	6.07e-01	0	24	0	335020032	66	4535
2026-01-09 11:30:28.88	159.54	22.61	-49.2	-50.9	15.8	6.06e-01	0	24	0	336592896	66	4554
2026-01-09 11:30:30.27	159.57	22.84	-49.3	-51.0	15.7	6.05e-01	0	24	0	338690048	66	4608
2026-01-09 11:30:30.96	159.59	22.95	-49.2	-50.9	15.7	6.07e-01	0	24	0	340262912	66	4595
2026-01-09 11:30:32.34	159.62	23.19	-49.3	-51.0	15.7	6.07e-01	0	24	0	342884352	66	4611
2026-01-09 11:30:33.03	159.64	23.30	-49.3	-51.0	15.7	6.06e-01	0	24	0	343932928	66	4648
2026-01-09 11:30:34.41	159.67	23.54	-49.2	-50.9	15.8	6.07e-01	0	24	0	346554368	66	4588
2026-01-09 11:30:35.10	159.69	23.65	-49.2	-50.9	15.8	6.05e-01	0	24	0	348127232	66	4591
2026-01-09 11:30:36.48	159.72	23.89	-49.3	-51.0	15.7	6.07e-01	0	24	0	350748672	66	4648
2026-01-09 11:30:37.17	159.74	24.01	-49.3	-51.0	15.7	6.06e-01	0	24	0	351797248	66	4603
2026-01-09 11:30:38.55	159.78	24.25	-49.3	-51.0	15.7	6.05e-01	0	23	0	354418688	66	4622
2026-01-09 11:30:39.23	159.79	24.37	-49.3	-51.1	15.7	6.09e-01	0	24	0	355991552	66	4657
2026-01-09 11:30:40.62	159.83	24.62	-49.3	-51.1	15.7	6.06e-01	0	24	0	358088704	66	4658
2026-01-09 11:30:41.31	159.85	24.74	-49.4	-51.2	15.7	6.05e-01	0	24	0	359661568	66	4707
2026-01-09 11:30:42.69	159.89	24.99	-49.5	-51.2	15.7	6.08e-01	0	24	0	362283008	66	4747
2026-01-09 11:30:43.38	159.90	25.12	-49.5	-51.2	15.7	6.07e-01	0	24	0	363331584	66	4757
2026-01-09 11:30:44.76	159.94	25.37	-49.4	-51.1	15.7	6.07e-01	0	24	0	365953024	66	4660
2026-01-09 11:30:45.46	159.96	25.50	-49.4	-51.1	15.7	6.07e-01	0	24	0	367525888	66	4670
2026-01-09 11:30:46.84	160.00	25.76	-49.2	-50.9	15.8	6.07e-01	0	24	0	370147328	66	4574
2026-01-09 11:30:47.53	160.02	25.88	-49.1	-50.7	15.8	6.07e-01	0	24	0	371195904	66	4491
2026-01-09 11:30:48.91	160.06	26.15	-49.0	-50.7	15.8	6.06e-01	0	24	0	373817344	66	4447
2026-01-09 11:30:49.60	160.08	26.28	-48.9	-50.5	15.9	6.05e-01	0	24	0	375390208	66	4385
2026-01-09 11:30:50.97	160.12	26.54	-49.0	-50.7	15.8	6.06e-01	0	24	0	378011648	66	4445
2026-01-09 11:30:51.66	160.14	26.67	-49.1	-50.8	15.8	6.05e-01	0	23	0	379060224	66	4498
2026-01-09 11:30:53.04	160.18	26.94	-49.1	-50.8	15.8	6.06e-01	0	24	0	381681664	66	4510
2026-01-09 11:30:53.73	160.20	27.08	-49.1	-50.8	15.8	6.08e-01	0	24	0	382730240	66	4527
2026-01-09 11:30:55.11	160.24	27.35	-49.0	-50.6	15.8	6.08e-01	0	24	0	385351680	66	4424
2026-01-09 11:30:55.80	160.26	27.49	-49.0	-50.6	15.8	6.09e-01	0	24	0	386924544	66	4417
2026-01-09 11:30:57.18	160.31	27.77	-48.9	-50.5	15.9	6.05e-01	0	24	0	389545984	66	4383
2026-01-09 11:30:57.87	160.33	27.91	-48.8	-50.5	15.9	6.09e-01	0	24	0	390594560	66	4353
2026-01-09 11:30:59.25	160.37	28.19	-48.8	-50.4	15.9	6.06e-01	0	24	0	393216000	66	4335
2026-01-09 11:30:59.94	160.39	28.33	-48.8	-50.4	15.9	6.06e-01	0	24	0	394788864	66	4296
2026-01-09 11:31:01.32	160.44	28.62	-48.6	-50.2	16.0	6.07e-01	0	24	0	396886016	66	4239
2026-01-09 11:31:02.01	160.46	28.76	-48.7	-50.3	16.0	6.09e-01	0	24	0	398458880	66	4259
2026-01-09 11:31:03.39	160.51	29.05	-48.8	-50.4	15.9	6.06e-01	0	24	0	401080320	66	4301
2026-01-09 11:31:04.08	160.53	29.20	-48.7	-50.3	16.0	6.06e-01	0	23	0	402128896	66	4245
2026-01-09 11:31:05.46	160.58	29.50	-48.5	-50.1	16.0	6.05e-01	0	23	0	404750336	66	4155
2026-01-09 11:31:06.15	160.60	29.65	-48.5	-50.1	16.0	6.07e-01	0	24	0	406323200	66	4158
2026-01-09 11:31:07.53	160.65	29.95	-48.6	-50.2	16.0	6.05e-01	0	24	0	408944640	66	4202
2026-01-09 11:31:08.23	160.68	30.10	-48.7	-50.3	15.9	6.05e-01	0	24	0	409993216	66	4286
2026-01-09 11:31:09.61	160.73	30.41	-48.8	-50.5	15.9	6.05e-01	0	24	0	412614656	66	4347
2026-01-09 11:31:10.30	160.75	30.57	-48.8	-50.4	15.9	6.04e-01	0	24	0	414187520	66	4340
2026-01-09 11:31:11.68	160.80	30.88	-48.9	-50.5	15.9	6.05e-01	0	24	0	416808960	66	4351
2026-01-09 11:31:12.37	160.83	31.04	-48.9	-50.6	15.8	6.06e-01	0	24	0	417857536	66	4393
2026-01-09 11:31:13.75	160.88	31.35	-48.8	-50.4	15.9	6.06e-01	0	24	0	420478976	66	4292
2026-01-09 11:31:14.44	160.91	31.51	-48.6	-50.2	16.0	6.05e-01	0	24	0	421527552	66	4231
2026-01-09 11:31:15.82	160.96	31.84	-48.6	-50.2	16.0	6.05e-01	0	24	0	424148992	66	4217
2026-01-09 11:31:16.51	160.99	32.00	-48.7	-50.3	15.9	6.07e-01	0	24	0	425721856	66	4256
2026-01-09 11:31:17.89	161.05	32.33	-48.8	-50.4	15.9	6.06e-01	0	24	0	428343296	66	4296
2026-01-09 11:31:18.58	161.07	32.49	-48.9	-50.5	15.9	6.07e-01	0	24	0	429391872	66	4366
2026-01-09 11:31:19.96	161.13	32.83	-49.0	-50.6	15.8	6.09e-01	0	24	0	432013312	66	4441
2026-01-09 11:31:20.65	161.16	33.00	-49.0	-50.6	15.8	6.07e-01	0	24	0	433586176	66	4427
2026-01-09 11:31:22.03	161.22	33.34	-49.0	-50.7	15.8	6.06e-01	0	24	0	436207616	66	4456
2026-01-09 11:31:22.71	161.25	33.51	-49.0	-50.6	15.9	6.08e-01	0	24	0	437256192	66	4434
2026-01-09 11:31:24.09	161.31	33.86	-49.2	-50.8	15.8	6.07e-01	0	24	0	439877632	66	4528
2026-01-09 11:31:24.79	161.34	34.03	-49.2	-50.9	15.7	6.04e-01	0	24	0	440926208	66	4573
2026-01-09 11:31:26.17	161.40	34.39	-49.5	-51.1	15.7	6.05e-01	0	24	0	443547648	66	4705
2026-01-09 11:31:26.86	161.43	34.56	-49.5	-51.2	15.6	6.06e-01	0	24	0	445120512	66	4741
2026-01-09 11:31:28.24	161.50	34.92	-49.7	-51.4	15.7	6.08e-01	0	24	0	447741952	67	4586
2026-01-09 11:31:28.93	161.53	35.11	-49.6	-51.3	15.7	6.06e-01	0	24	0	448790528	67	4533
2026-01-09 11:31:30.31	161.60	35.47	-49.8	-51.5	15.7	6.05e-01	0	24	0	451411968	67	4626
2026-01-09 11:31:31.00	161.63	35.66	-49.9	-51.6	15.7	6.06e-01	0	24	0	452984832	67	4687
2026-01-09 11:31:32.37	161.70	36.03	-49.9	-51.7	15.6	6.04e-01	0	24	0	455606272	67	4724
2026-01-09 11:31:33.06	161.74	36.22	-50.0	-51.8	15.6	6.06e-01	0	24	0	456654848	67	4768
2026-01-09 11:31:34.45	161.81	36.60	-50.1	-51.9	15.5	6.06e-01	0	24	0	459276288	67	4853
2026-01-09 11:31:35.14	161.84	36.79	-50.4	-52.2	15.6	6.08e-01	0	24	0	460324864	68	4726
2026-01-09 11:31:36.52	161.92	37.18	-50.6	-52.5	15.5	6.05e-01	0	24	0	462946304	68	4878
2026-01-09 11:31:37.21	161.95	37.37	-50.6	-52.5	15.5	6.06e-01	0	24	0	464519168	68	4901
2026-01-09 11:31:38.59	162.03	37.77	-50.8	-52.7	15.6	6.05e-01	0	24	0	467140608	69	4747
2026-01-09 11:31:39.28	162.07	37.97	-50.8	-52.7	15.6	6.05e-01	0	24	0	468189184	69	4725
2026-01-09 11:31:40.66	162.15	38.37	-50.8	-52.7	15.6	6.07e-01	0	24	0	470810624	69	4715
2026-01-09 11:31:41.35	162.19	38.57	-50.7	-52.6	15.6	6.05e-01	0	24	0	472383488	69	4687
2026-01-09 11:31:42.72	162.27	38.98	-50.7	-52.6	15.6	6.08e-01	0	24	0	474480640	69	4683
2026-01-09 11:31:43.41	162.31	39.18	-50.7	-52.6	15.6	6.07e-01	0	24	0	476053504	69	4698
2026-01-09 11:31:44.80	162.40	39.60	-50.7	-52.6	15.6	6.05e-01	0	24	0	478674944	69	4654
2026-01-09 11:31:45.50	162.44	39.82	-50.6	-52.5	15.7	6.06e-01	0	24	0	479723520	69	4613
2026-01-09 11:31:46.89	162.53	40.24	-50.6	-52.4	15.7	6.06e-01	0	24	0	482344960	69	4583
2026-01-09 11:31:47.58	162.57	40.46	-50.5	-52.3	15.7	6.07e-01	0	24	0	483917824	69	4510
2026-01-09 11:31:48.98	162.67	40.90	-50.4	-52.2	15.7	6.06e-01	0	24	0	486539264	69	4469
2026-01-09 11:31:49.68	162.71	41.12	-50.4	-52.2	15.8	6.06e-01	0	24	0	487587840	69	4460
2026-01-09 11:31:51.08	162.81	41.57	-50.2	-51.9	15.9	6.07e-01	0	24	0	490733568	69	4340
2026-01-09 11:31:51.78	162.86	41.79	-49.9	-51.6	16.0	6.06e-01	0	24	0	491782144	69	4176
2026-01-09 11:31:53.17	162.96	42.25	-49.5	-51.2	16.0	6.05e-01	0	24	0	494403584	68	4197
2026-01-09 11:31:53.87	163.01	42.48	-49.5	-51.1	16.0	6.07e-01	0	24	0	495452160	68	4184
2026-01-09 11:31:55.27	163.11	42.94	-49.3	-51.0	15.9	6.07e-01	0	24	0	498073600	67	4346
2026-01-09 11:31:55.96	163.17	43.18	-49.3	-50.9	15.9	6.06e-01	0	24	0	499646464	67	4333
2026-01-09 11:31:57.35	163.27	43.65	-49.0	-50.6	16.0	6.07e-01	0	24	0	502267904	67	4180
2026-01-09 11:31:58.05	163.33	43.89	-49.1	-50.7	16.0	6.06e-01	0	24	0	503316480	67	4202
2026-01-09 11:31:59.43	163.44	44.36	-49.0	-50.6	16.0	6.06e-01	0	24	0	505937920	67	4188
2026-01-09 11:32:00.14	163.50	44.61	-49.0	-50.6	16.0	6.06e-01	0	24	0	507510784	67	4154
2026-01-09 11:32:01.53	163.62	45.10	-49.1	-50.7	16.0	6.05e-01	0	24	0	510132224	67	4219
2026-01-09 11:32:02.24	163.68	45.35	-49.1	-50.7	16.0	6.06e-01	0	24	0	511180800	67	4220
2026-01-09 11:32:03.63	163.80	45.85	-49.0	-50.6	16.0	6.06e-01	0	24	0	513802240	67	4158
2026-01-09 11:32:04.33	163.87	46.10	-48.9	-50.5	16.1	6.08e-01	0	24	0	515375104	67	4143
2026-01-09 11:32:05.73	164.00	46.62	-49.2	-50.8	15.9	6.06e-01	0	24	0	517996544	67	4283
2026-01-09 11:32:06.42	164.06	46.87	-49.0	-50.6	16.0	6.05e-01	0	24	0	519045120	67	4176
2026-01-09 11:32:07.83	164.20	47.40	-48.7	-50.3	16.0	6.06e-01	0	24	0	521666560	66	4243
2026-01-09 11:32:08.53	164.27	47.66	-48.8	-50.4	15.9	6.08e-01	0	24	0	523239424	66	4299
2026-01-09 11:32:09.92	164.41	48.19	-49.0	-50.6	15.8	6.08e-01	0	24	0	525860864	66	4433
2026-01-09 11:32:10.62	164.49	48.46	-49.1	-50.7	15.8	6.08e-01	0	24	0	526909440	66	4469
2026-01-09 11:32:12.01	164.64	49.00	-48.9	-50.5	15.9	6.06e-01	0	24	0	529530880	66	4359
2026-01-09 11:32:12.71	164.72	49.27	-48.8	-50.4	15.9	6.09e-01	0	24	0	531103744	66	4335
2026-01-09 11:32:14.11	164.87	49.82	-48.9	-50.6	15.8	6.06e-01	0	24	0	533725184	66	4395
2026-01-09 11:32:14.81	164.96	50.10	-48.5	-50.1	16.0	6.07e-01	0	24	0	534773760	66	4154
2026-01-09 11:32:16.20	165.12	50.66	-48.6	-50.1	16.0	6.06e-01	0	24	0	537395200	66	4179
2026-01-09 11:32:16.90	165.21	50.94	-48.6	-50.1	16.0	6.05e-01	0	24	0	538968064	66	4183
2026-01-09 11:32:18.30	165.39	51.51	-48.3	-49.8	15.9	6.07e-01	0	24	0	541589504	65	4271
2026-01-09 11:32:19.00	165.48	51.80	-48.3	-49.8	15.9	6.08e-01	0	24	0	542638080	65	4267
2026-01-09 11:32:20.39	165.66	52.38	-48.4	-49.9	15.9	6.06e-01	0	24	0	545259520	65	4332
2026-01-09 11:32:21.08	165.76	52.67	-48.0	-49.5	16.0	6.05e-01	0	24	0	546832384	65	4134
2026-01-09 11:32:22.48	165.96	53.27	-48.1	-49.6	16.0	6.06e-01	0	24	0	549453824	65	4170
2026-01-09 11:32:23.17	166.06	53.56	-48.3	-49.8	15.9	6.05e-01	0	24	0	550502400	65	4287
2026-01-09 11:32:24.57	166.27	54.17	-48.3	-49.8	16.0	6.07e-01	0	24	0	553123840	65	4273
2026-01-09 11:32:25.27	166.38	54.47	-48.3	-49.9	15.9	6.07e-01	0	24	0	554696704	65	4307
2026-01-09 11:32:26.66	166.60	55.08	-48.5	-50.0	15.9	6.06e-01	0	24	0	557318144	65	4383
2026-01-09 11:32:27.36	166.72	55.39	-48.6	-50.1	15.8	6.05e-01	0	24	0	558366720	65	4437
2026-01-09 11:32:28.75	166.96	56.01	-49.0	-50.6	15.7	6.07e-01	0	24	0	560988160	65	4690
2026-01-09 11:32:29.46	167.08	56.33	-48.9	-50.5	15.7	6.07e-01	0	24	0	562561024	65	4604
2026-01-09 11:32:30.84	167.34	56.96	-49.2	-50.8	15.8	6.07e-01	0	24	0	565182464	66	4510
2026-01-09 11:32:31.53	167.47	57.27	-49.3	-51.0	15.7	6.07e-01	0	24	0	566231040	66	4627
2026-01-09 11:32:32.93	167.74	57.92	-49.5	-51.2	15.8	6.08e-01	0	24	0	568852480	67	4467
2026-01-09 11:32:33.63	167.89	58.25	-49.5	-51.2	15.8	6.07e-01	0	24	0	570425344	67	4460
2026-01-09 11:32:35.03	168.18	58.90	-49.7	-51.5	15.7	6.06e-01	0	24	0	573046784	67	4607
2026-01-09 11:32:35.72	168.33	59.23	-49.9	-51.7	15.7	6.06e-01	0	24	0	574095360	67	4709
2026-01-09 11:32:37.12	168.65	59.89	-50.1	-51.9	15.7	6.04e-01	0	24	0	576716800	68	4554
2026-01-09 11:32:37.82	168.82	60.23	-50.2	-52.0	15.7	6.06e-01	0	24	0	578289664	68	4644
2026-01-09 11:32:39.22	169.16	60.91	-50.5	-52.3	15.6	6.06e-01	0	24	0	580911104	68	4785
2026-01-09 11:32:39.92	169.34	61.25	-50.7	-52.5	15.6	6.06e-01	0	24	0	581959680	69	4643
2026-01-09 11:32:41.32	169.71	61.93	-50.8	-52.7	15.6	6.05e-01	0	24	0	584581120	69	4718
2026-01-09 11:32:42.01	169.90	62.27	-51.0	-52.9	15.5	6.07e-01	0	24	0	586153984	69	4852
2026-01-09 11:32:43.42	170.31	62.97	-51.3	-53.3	15.5	6.05e-01	0	24	0	588775424	70	4798
2026-01-09 11:32:44.12	170.52	63.32	-51.7	-53.8	15.5	6.06e-01	0	24	0	589824000	71	4803
2026-01-09 11:32:45.51	170.96	64.02	-52.1	-54.3	15.3	6.00e-01	0	24	0	592445440	71	5091
2026-01-09 11:32:46.20	171.19	64.37	-52.4	-54.7	15.3	5.99e-01	0	24	0	594018304	72	5031
2026-01-09 11:32:47.59	171.67	65.08	-52.8	-55.2	15.3	6.00e-01	0	24	0	596639744	73	5041
2026-01-09 11:32:48.28	171.92	65.43	-53.0	-55.5	15.3	6.02e-01	0	24	0	597688320	74	4877
2026-01-09 11:32:49.67	172.45	66.14	-53.1	-55.6	15.3	6.03e-01	0	24	0	600309760	74	4941
2026-01-09 11:32:50.36	172.72	66.50	-53.5	-56.1	15.0	6.01e-01	0	24	0	601358336	74	5273
2026-01-09 11:32:51.75	173.31	67.22	-53.3	-55.9	15.1	6.04e-01	0	23	0	603979776	74	5148
2026-01-09 11:32:52.44	173.61	67.58	-53.6	-56.3	15.0	6.00e-01	0	24	0	605552640	74	5342
2026-01-09 11:32:53.83	174.26	68.31	-53.7	-56.5	15.0	6.02e-01	0	24	0	608174080	75	5188
2026-01-09 11:32:54.52	174.60	68.67	-53.7	-56.5	14.9	6.01e-01	0	24	0	609222656	75	5184
2026-01-09 11:32:55.90	175.31	69.40	-53.7	-56.5	15.1	6.02e-01	0	24	0	611844096	75	5166
2026-01-09 11:32:56.60	175.70	69.77	-53.8	-56.6	15.0	6.02e-01	0	24	0	613416960	75	5248
2026-01-09 11:32:57.98	176.50	70.50	-53.5	-56.1	15.3	5.99e-01	0	24	0	616038400	75	4934
2026-01-09 11:32:58.67	176.93	70.87	-53.6	-56.2	15.1	6.02e-01	0	24	0	617086976	75	5041
2026-01-09 11:33:00.05	177.83	71.60	-52.9	-55.3	15.5	6.01e-01	0	24	0	619708416	75	4520
2026-01-09 11:33:00.74	178.32	71.97	-53.1	-55.5	15.3	6.02e-01	0	24	0	621281280	74	4922
2026-01-09 11:33:02.12	179.35	72.70	-52.3	-54.5	15.6	5.99e-01	0	24	0	623902720	73	4606
2026-01-09 11:33:02.81	179.90	73.07	-52.4	-54.6	15.5	6.02e-01	0	24	0	624951296	73	4695
2026-01-09 11:33:04.19	181.07	73.80	-52.2	-54.4	15.6	6.01e-01	0	24	0	627572736	73	4549
2026-01-09 11:33:04.88	181.71	74.16	-52.1	-54.3	15.6	6.01e-01	0	24	0	628621312	73	4516
2026-01-09 11:33:06.27	183.08	74.90	-52.0	-54.1	15.7	6.02e-01	0	24	0	631242752	73	4426
2026-01-09 11:33:06.96	183.81	75.26	-52.0	-54.1	15.7	6.00e-01	0	23	0	632815616	73	4433
2026-01-09 11:33:08.34	185.39	75.98	-51.5	-53.5	15.8	6.05e-01	0	24	0	635437056	72	4359
2026-01-09 11:33:09.03	186.24	76.34	-51.7	-53.8	15.7	6.00e-01	0	24	0	636485632	72	4509
2026-01-09 11:33:10.41	188.10	77.04	-51.4	-53.4	15.8	5.99e-01	0	24	0	639107072	72	4292
2026-01-09 11:33:11.10	189.10	77.39	-51.3	-53.3	15.9	6.03e-01	0	24	0	640679936	71	4503
2026-01-09 11:33:12.48	191.30	78.08	-51.3	-53.2	15.8	6.01e-01	0	24	0	643301376	71	4454
2026-01-09 11:33:13.17	192.50	78.42	-51.0	-52.9	15.9	5.99e-01	0	24	0	644349952	71	4318
2026-01-09 11:33:14.55	195.12	79.08	-50.9	-52.7	15.8	5.99e-01	0	24	0	646971392	70	4470
2026-01-09 11:33:15.24	196.55	79.41	-50.3	-52.0	16.0	6.00e-01	0	24	0	648019968	69	4372
2026-01-09 11:33:16.63	199.72	80.04	-50.2	-51.9	15.9	6.03e-01	0	24	0	650641408	69	4327
2026-01-09 11:33:17.32	201.45	80.34	-50.1	-51.8	15.9	6.00e-01	0	24	0	652214272	69	4249
2026-01-09 11:33:18.70	205.25	80.92	-49.7	-51.4	15.9	6.01e-01	0	24	0	654835712	68	4337
2026-01-09 11:33:19.39	207.33	81.19	-49.7	-51.3	15.9	6.03e-01	0	24	0	655884288	68	4277
2026-01-09 11:33:20.77	211.90	81.70	-49.5	-51.1	16.1	5.99e-01	0	24	0	658505728	68	4174
2026-01-09 11:33:21.46	214.40	81.94	-49.9	-51.6	15.9	6.00e-01	0	24	0	660078592	68	4428
2026-01-09 11:33:22.84	219.83	82.35	-49.9	-51.6	15.8	6.01e-01	0	24	0	662700032	68	4409
2026-01-09 11:33:23.53	222.76	82.54	-49.6	-51.3	16.0	6.02e-01	0	24	0	663748608	68	4250
2026-01-09 11:33:24.91	229.04	82.84	-50.2	-51.9	15.7	6.00e-01	0	24	0	666370048	68	4597
2026-01-09 11:33:25.60	232.36	82.96	-50.0	-51.7	15.8	6.02e-01	0	24	0	667418624	68	4447
2026-01-09 11:33:26.98	239.28	83.12	-50.3	-52.1	15.7	6.01e-01	0	24	0	670040064	68	4683
2026-01-09 11:33:27.67	242.84	83.16	-50.3	-52.1	15.7	6.02e-01	0	24	0	671612928	68	4682
2026-01-09 11:33:29.06	250.08	83.16	-50.1	-51.8	15.8	5.98e-01	0	24	0	674234368	68	4514
2026-01-09 11:33:29.74	253.60	83.13	-50.1	-51.9	15.7	6.02e-01	0	24	0	675282944	68	4568
2026-01-09 11:33:31.12	260.55	82.98	-50.0	-51.8	15.8	6.03e-01	0	23	0	677904384	68	4503
2026-01-09 11:33:31.81	263.89	82.86	-50.1	-51.8	15.8	6.00e-01	0	23	0	679477248	68	4536
2026-01-09 11:33:33.19	270.21	82.57	-49.8	-51.4	15.8	6.02e-01	0	24	0	682098688	68	4334
2026-01-09 11:33:33.88	273.17	82.39	-50.5	-52.3	15.7	6.01e-01	0	24	0	683147264	69	4538
2026-01-09 11:33:35.27	278.69	81.97	-50.2	-51.9	15.8	6.04e-01	0	24	0	685768704	68	4589
2026-01-09 11:33:35.96	281.21	81.74	-50.0	-51.7	15.8	6.00e-01	0	24	0	686817280	68	4449
2026-01-09 11:33:37.34	285.83	81.24	-50.3	-52.1	15.7	6.03e-01	0	24	0	689438720	68	4662
2026-01-09 11:33:38.03	287.93	80.97	-50.4	-52.2	15.8	6.04e-01	0	24	0	691011584	69	4476
2026-01-09 11:33:39.41	291.77	80.39	-50.5	-52.3	15.8	6.01e-01	0	23	0	693633024	69	4499
2026-01-09 11:33:40.09	293.49	80.10	-50.7	-52.5	15.7	6.02e-01	0	24	0	694681600	69	4629
2026-01-09 11:33:41.48	296.70	79.47	-50.5	-52.3	15.7	6.00e-01	0	24	0	697303040	69	4511
2026-01-09 11:33:42.16	298.13	79.15	-50.5	-52.3	15.7	6.00e-01	0	24	0	698875904	69	4511
2026-01-09 11:33:43.55	300.80	78.49	-50.9	-52.8	15.6	6.03e-01	0	24	0	701497344	69	4771
2026-01-09 11:33:44.24	302.01	78.15	-50.9	-52.7	15.6	6.02e-01	0	24	0	702545920	69	4736
2026-01-09 11:33:45.61	304.21	77.47	-50.8	-52.6	15.8	6.00e-01	0	24	0	705167360	70	4440
2026-01-09 11:33:46.30	305.23	77.12	-51.2	-53.1	15.6	6.01e-01	0	24	0	706215936	70	4686
2026-01-09 11:33:47.68	307.10	76.41	-51.7	-53.8	15.4	5.99e-01	0	24	0	708837376	71	4774
2026-01-09 11:33:48.37	307.97	76.05	-51.7	-53.8	15.5	6.04e-01	0	24	0	710410240	71	4762
2026-01-09 11:33:49.75	309.56	75.34	-51.8	-53.9	15.5	6.00e-01	0	24	0	713031680	71	4829
2026-01-09 11:33:50.45	310.31	74.97	-52.0	-54.1	15.4	5.99e-01	0	24	0	714080256	71	4955
2026-01-09 11:33:51.82	311.68	74.25	-52.1	-54.2	15.6	6.02e-01	0	24	0	716701696	72	4708
2026-01-09 11:33:52.52	312.32	73.88	-52.2	-54.3	15.5	5.99e-01	0	24	0	718274560	72	4805
2026-01-09 11:33:53.90	313.51	73.15	-52.4	-54.6	15.4	6.01e-01	0	24	0	720896000	72	4929
2026-01-09 11:33:54.59	314.07	72.78	-52.3	-54.5	15.4	6.03e-01	0	24	0	721944576	72	4922
2026-01-09 11:33:55.97	315.10	72.05	-52.1	-54.2	15.5	5.98e-01	0	24	0	724566016	72	4748
2026-01-09 11:33:56.66	315.59	71.68	-52.4	-54.7	15.3	6.01e-01	0	24	0	726138880	72	4984
2026-01-09 11:33:58.04	316.51	70.95	-51.9	-53.9	15.6	6.00e-01	0	24	0	728760320	72	4584
2026-01-09 11:33:58.73	316.94	70.59	-52.1	-54.2	15.5	6.02e-01	0	24	0	729808896	72	4753
2026-01-09 11:34:00.11	317.75	69.86	-52.7	-55.1	15.3	6.01e-01	0	24	0	732430336	73	4929
2026-01-09 11:34:00.80	318.13	69.49	-52.4	-54.6	15.4	5.99e-01	0	24	0	733478912	73	4682
2026-01-09 11:34:02.18	318.85	68.77	-52.6	-54.9	15.4	6.01e-01	0	24	0	736100352	73	4815
2026-01-09 11:34:02.87	319.19	68.40	-53.7	-56.0	15.2	6.00e-01	0	24	0	737673216	74	5180
2026-01-09 11:34:04.25	319.84	67.68	-53.1	-55.6	15.3	6.02e-01	0	24	0	740294656	74	4930
2026-01-09 11:34:04.94	320.15	67.32	-53.0	-55.4	15.3	6.03e-01	0	24	0	741343232	74	4836
2026-01-09 11:34:06.32	320.73	66.61	-52.6	-54.8	15.7	5.98e-01	0	24	0	743964672	74	4494
2026-01-09 11:34:07.01	321.01	66.25	-52.9	-55.3	15.4	6.00e-01	0	24	0	745537536	74	4769
2026-01-09 11:34:08.39	321.54	65.54	-52.4	-54.6	15.7	6.01e-01	0	24	0	748158976	74	4393
2026-01-09 11:34:09.07	321.78	65.20	-51.7	-53.6	15.7	6.02e-01	0	24	0	749207552	72	4440
2026-01-09 11:34:10.46	322.27	64.49	-51.2	-53.0	15.8	6.04e-01	0	24	0	751828992	71	4390
2026-01-09 11:34:11.15	322.50	64.14	-51.4	-53.4	15.6	6.01e-01	0	24	0	752877568	71	4558
2026-01-09 11:34:12.53	322.94	63.45	-50.9	-52.7	16.0	6.01e-01	0	24	0	755499008	71	4240
2026-01-09 11:34:13.22	323.15	63.10	-50.6	-52.4	15.9	6.01e-01	0	24	0	757071872	70	4299
2026-01-09 11:34:14.61	323.55	62.41	-50.4	-52.2	16.0	6.01e-01	0	24	0	759693312	70	4198
2026-01-09 11:34:15.30	323.75	62.07	-50.7	-52.5	15.8	6.03e-01	0	24	0	760741888	70	4349
2026-01-09 11:34:16.69	324.12	61.39	-50.0	-51.7	16.0	6.01e-01	0	24	0	763363328	69	4207
2026-01-09 11:34:17.39	324.30	61.05	-50.1	-51.8	15.9	6.01e-01	0	24	0	764936192	69	4267
2026-01-09 11:34:18.78	324.65	60.38	-50.3	-52.0	15.8	6.02e-01	0	24	0	767557632	69	4375
2026-01-09 11:34:19.48	324.81	60.05	-50.1	-51.7	15.9	5.99e-01	0	23	0	768606208	69	4235
2026-01-09 11:34:20.87	325.13	59.39	-50.1	-51.8	15.9	6.02e-01	0	24	0	771227648	69	4278
2026-01-09 11:34:21.57	325.29	59.05	-49.4	-51.2	16.0	6.03e-01	0	24	0	772800512	68	4222
2026-01-09 11:34:22.95	325.58	58.41	-49.8	-51.4	15.9	5.98e-01	0	24	0	775421952	68	4328
2026-01-09 11:34:23.65	325.72	58.08	-49.7	-51.3	15.9	6.00e-01	0	24	0	776470528	68	4271
2026-01-09 11:34:25.05	326.00	57.44	-49.7	-51.3	15.9	6.01e-01	0	24	0	779091968	68	4282
2026-01-09 11:34:25.75	326.13	57.12	-49.6	-51.2	15.9	6.02e-01	0	24	0	780664832	68	4234
2026-01-09 11:34:27.14	326.39	56.49	-49.1	-50.6	16.0	6.01e-01	0	24	0	783286272	67	4176
2026-01-09 11:34:27.84	326.52	56.17	-49.0	-50.5	16.0	5.98e-01	0	24	0	784334848	67	4135
2026-01-09 11:34:29.24	326.76	55.55	-48.7	-50.2	15.9	5.99e-01	0	24	0	786956288	66	4231
2026-01-09 11:34:29.93	326.87	55.24	-48.9	-50.4	15.9	6.00e-01	0	24	0	788529152	66	4335
2026-01-09 11:34:31.32	327.10	54.63	-48.8	-50.4	15.9	6.03e-01	0	24	0	790626304	66	4306
2026-01-09 11:34:32.01	327.21	54.33	-48.7	-50.3	16.0	6.01e-01	0	24	0	792199168	66	4257
2026-01-09 11:34:33.40	327.42	53.73	-48.6	-50.1	16.0	5.99e-01	0	24	0	794820608	66	4190
2026-01-09 11:34:34.09	327.52	53.43	-48.7	-50.2	16.0	6.03e-01	0	24	0	795869184	66	4226
2026-01-09 11:34:35.48	327.72	52.84	-48.8	-50.4	15.9	5.99e-01	0	24	0	798490624	66	4321
2026-01-09 11:34:36.17	327.82	52.55	-48.6	-50.1	16.0	6.00e-01	0	24	0	800063488	66	4164
2026-01-09 11:34:37.56	328.01	51.98	-48.8	-50.3	15.9	6.00e-01	0	24	0	802684928	66	4272
2026-01-09 11:34:38.25	328.10	51.69	-49.0	-50.6	15.8	5.99e-01	0	24	0	803733504	66	4422
2026-01-09 11:34:39.64	328.27	51.12	-49.1	-50.7	15.8	6.01e-01	0	24	0	806354944	66	4491
2026-01-09 11:34:40.33	328.36	50.84	-49.0	-50.6	15.8	6.02e-01	0	24	0	807927808	66	4420
2026-01-09 11:34:41.71	328.53	50.29	-49.3	-50.9	15.8	6.01e-01	0	24	0	810549248	66	4566
2026-01-09 11:34:42.40	328.61	50.01	-49.6	-51.3	15.8	6.01e-01	0	24	0	811597824	67	4502
2026-01-09 11:34:43.79	328.77	49.46	-49.6	-51.2	15.8	6.00e-01	0	24	0	814219264	67	4463
2026-01-09 11:34:44.48	328.85	49.19	-49.6	-51.2	15.8	6.00e-01	0	24	0	815792128	67	4485
2026-01-09 11:34:45.88	329.00	48.65	-49.9	-51.6	15.7	6.02e-01	0	24	0	818413568	67	4678
2026-01-09 11:34:46.57	329.07	48.39	-49.7	-51.4	15.7	6.00e-01	0	24	0	819462144	67	4568
2026-01-09 11:34:47.97	329.22	47.86	-49.6	-51.2	15.8	6.01e-01	0	24	0	822083584	67	4463
2026-01-09 11:34:48.66	329.29	47.60	-49.7	-51.4	15.7	6.02e-01	0	24	0	823132160	67	4556
2026-01-09 11:34:50.04	329.42	47.08	-49.8	-51.5	15.7	6.01e-01	0	24	0	825753600	67	4601
2026-01-09 11:34:50.73	329.49	46.83	-49.7	-51.4	15.7	6.01e-01	0	24	0	827326464	67	4575
2026-01-09 11:34:52.11	329.62	46.32	-49.5	-51.1	15.8	6.03e-01	0	24	0	829947904	67	4418
2026-01-09 11:34:52.81	329.68	46.07	-49.6	-51.3	15.8	6.01e-01	0	24	0	830996480	67	4514
2026-01-09 11:34:54.18	329.81	45.57	-49.7	-51.4	15.7	6.02e-01	0	24	0	833617920	67	4594
2026-01-09 11:34:54.87	329.87	45.33	-49.7	-51.4	15.7	6.04e-01	0	24	0	835190784	67	4576
2026-01-09 11:34:56.26	329.99	44.84	-49.5	-51.1	15.8	6.03e-01	0	24	0	837812224	67	4415
2026-01-09 11:34:56.95	330.04	44.60	-49.5	-51.2	15.8	6.00e-01	0	24	0	838860800	67	4452
2026-01-09 11:34:58.34	330.16	44.12	-49.6	-51.3	15.7	6.02e-01	0	24	0	841482240	67	4518
2026-01-09 11:34:59.03	330.21	43.88	-49.6	-51.2	15.8	6.01e-01	0	24	0	843055104	67	4471
2026-01-09 11:35:00.42	330.32	43.41	-49.7	-51.4	15.7	6.00e-01	0	24	0	845676544	67	4557
2026-01-09 11:35:01.12	330.38	43.17	-49.8	-51.5	15.7	6.00e-01	0	24	0	846725120	67	4622
2026-01-09 11:35:02.50	330.48	42.71	-50.0	-51.7	15.6	6.01e-01	0	24	0	849346560	67	4718
2026-01-09 11:35:03.20	330.53	42.48	-50.0	-51.7	15.6	6.03e-01	0	24	0	850919424	67	4756
2026-01-09 11:35:04.59	330.63	42.03	-50.0	-51.7	15.6	6.01e-01	0	24	0	853540864	67	4756
2026-01-09 11:35:05.28	330.68	41.80	-50.2	-52.0	15.6	6.01e-01	0	24	0	854589440	68	4601
2026-01-09 11:35:06.68	330.78	41.36	-50.1	-51.8	15.7	6.03e-01	0	23	0	857210880	68	4517
2026-01-09 11:35:07.37	330.83	41.14	-50.1	-51.8	15.7	6.01e-01	0	24	0	858259456	68	4518
2026-01-09 11:35:08.75	330.92	40.70	-50.3	-52.0	15.7	6.01e-01	0	24	0	860880896	68	4633
2026-01-09 11:35:09.45	330.97	40.48	-50.5	-52.3	15.6	6.01e-01	0	24	0	862453760	68	4807
2026-01-09 11:35:10.85	331.06	40.05	-50.5	-52.3	15.6	6.02e-01	0	24	0	865075200	68	4814
2026-01-09 11:35:11.55	331.10	39.84	-50.5	-52.3	15.6	6.01e-01	0	24	0	866123776	68	4765
2026-01-09 11:35:12.93	331.19	39.42	-50.3	-52.1	15.6	6.00e-01	0	23	0	868745216	68	4659
2026-01-09 11:35:13.63	331.23	39.21	-50.4	-52.2	15.6	5.99e-01	0	24	0	870318080	68	4716
2026-01-09 11:35:15.03	331.31	38.79	-50.5	-52.3	15.6	6.01e-01	0	24	0	872939520	68	4810
2026-01-09 11:35:15.73	331.35	38.59	-50.4	-52.2	15.6	6.00e-01	0	24	0	873988096	68	4729
2026-01-09 11:35:17.12	331.43	38.18	-50.4	-52.2	15.6	6.01e-01	0	24	0	876609536	68	4717
2026-01-09 11:35:17.82	331.47	37.98	-50.3	-52.1	15.7	6.00e-01	0	24	0	878182400	68	4672
2026-01-09 11:35:19.21	331.55	37.58	-50.1	-51.9	15.7	6.01e-01	0	24	0	880803840	68	4561
2026-01-09 11:35:19.91	331.59	37.39	-50.1	-51.8	15.8	6.02e-01	0	24	0	881852416	68	4511
2026-01-09 11:35:21.30	331.66	36.99	-50.1	-51.8	15.7	6.00e-01	0	24	0	884473856	68	4537
2026-01-09 11:35:22.00	331.70	36.80	-49.8	-51.5	15.8	6.01e-01	0	24	0	886046720	68	4364
2026-01-09 11:35:23.39	331.77	36.42	-49.5	-51.2	16.0	6.00e-01	0	24	0	888668160	68	4196
2026-01-09 11:35:24.09	331.81	36.23	-49.6	-51.2	15.9	6.02e-01	0	24	0	889716736	68	4205
2026-01-09 11:35:25.49	331.88	35.85	-49.4	-51.0	16.0	6.01e-01	0	24	0	892338176	68	4140
2026-01-09 11:35:26.19	331.91	35.66	-49.4	-51.0	16.0	6.00e-01	0	24	0	893911040	68	4125
2026-01-09 11:35:27.58	331.98	35.29	-49.4	-51.0	16.0	6.00e-01	0	24	0	896532480	68	4133
2026-01-09 11:35:28.28	332.02	35.11	-49.4	-51.0	15.9	6.02e-01	0	24	0	897581056	67	4375
2026-01-09 11:35:29.66	332.08	34.75	-49.3	-50.9	15.9	6.00e-01	0	24	0	900202496	67	4320
2026-01-09 11:35:30.36	332.11	34.57	-49.3	-50.9	15.9	6.00e-01	0	24	0	901775360	67	4311
2026-01-09 11:35:31.74	332.18	34.21	-49.2	-50.8	15.9	6.01e-01	0	24	0	904396800	67	4258
2026-01-09 11:35:32.44	332.21	34.03	-49.2	-50.8	16.0	6.00e-01	0	24	0	905445376	67	4257
2026-01-09 11:35:33.82	332.27	33.69	-49.0	-50.6	16.0	6.01e-01	0	24	0	908066816	67	4171
2026-01-09 11:35:34.52	332.30	33.51	-49.0	-50.6	16.0	6.00e-01	0	24	0	909115392	67	4163
2026-01-09 11:35:35.91	332.36	33.17	-48.7	-50.2	16.0	6.00e-01	0	24	0	911736832	66	4242
2026-01-09 11:35:36.62	332.39	33.00	-48.6	-50.2	16.0	5.99e-01	0	24	0	913309696	66	4200
2026-01-09 11:35:37.99	332.45	32.66	-48.6	-50.1	16.0	6.01e-01	0	24	0	915931136	66	4168
2026-01-09 11:35:38.69	332.48	32.50	-48.5	-50.0	16.0	6.02e-01	0	24	0	916979712	66	4130
2026-01-09 11:35:40.06	332.53	32.17	-48.5	-50.1	16.0	5.99e-01	0	24	0	919601152	66	4156
2026-01-09 11:35:40.77	332.56	32.00	-48.4	-50.0	16.0	6.01e-01	0	24	0	921174016	66	4100
2026-01-09 11:35:42.15	332.62	31.68	-48.6	-50.2	16.0	6.00e-01	0	24	0	923795456	66	4209
2026-01-09 11:35:42.86	332.64	31.51	-48.5	-50.1	16.0	6.01e-01	0	24	0	924844032	66	4153
2026-01-09 11:35:44.25	332.70	31.19	-48.4	-49.9	16.0	6.03e-01	0	24	0	927465472	66	4097
2026-01-09 11:35:44.94	332.72	31.04	-48.4	-49.9	16.1	6.00e-01	0	24	0	929038336	66	4098
2026-01-09 11:35:46.33	332.78	30.72	-48.5	-50.0	16.0	6.02e-01	0	24	0	931659776	66	4115
2026-01-09 11:35:47.04	332.80	30.56	-48.5	-50.0	16.0	6.01e-01	0	24	0	932708352	66	4129
2026-01-09 11:35:48.42	332.85	30.26	-48.5	-50.1	16.0	6.01e-01	0	24	0	935329792	66	4167
2026-01-09 11:35:49.12	332.88	30.10	-48.6	-50.1	16.0	6.02e-01	0	24	0	936902656	66	4188
2026-01-09 11:35:50.51	332.93	29.80	-48.6	-50.1	16.0	6.01e-01	0	24	0	939524096	66	4184
2026-01-09 11:35:51.21	332.95	29.65	-48.6	-50.2	16.0	6.02e-01	0	24	0	940572672	66	4219
2026-01-09 11:35:52.61	333.00	29.34	-48.7	-50.2	16.0	6.02e-01	0	24	0	943194112	66	4230
2026-01-09 11:35:53.30	333.02	29.20	-48.5	-50.1	16.0	6.00e-01	0	24	0	944766976	66	4148
2026-01-09 11:35:54.70	333.07	28.90	-48.4	-49.9	16.1	6.01e-01	0	24	0	947388416	66	4089
2026-01-09 11:35:55.40	333.10	28.76	-48.4	-49.9	16.1	6.01e-01	0	24	0	948436992	66	4093
2026-01-09 11:35:56.79	333.14	28.47	-48.5	-50.0	16.1	6.01e-01	0	24	0	951058432	66	4117
2026-01-09 11:35:57.50	333.16	28.32	-48.5	-50.0	16.1	6.01e-01	0	24	0	952631296	66	4118
2026-01-09 11:35:58.88	333.21	28.04	-48.5	-50.0	16.0	6.02e-01	0	24	0	955252736	66	4144
2026-01-09 11:35:59.58	333.23	27.90	-48.6	-50.2	16.0	6.02e-01	0	24	0	956301312	66	4199
2026-01-09 11:36:00.95	333.27	27.62	-48.8	-50.3	15.9	5.99e-01	0	24	0	958922752	66	4278
2026-01-09 11:36:01.66	333.30	27.48	-48.8	-50.4	15.9	6.03e-01	0	24	0	960495616	66	4294
2026-01-09 11:36:03.06	333.34	27.20	-48.9	-50.5	15.8	5.99e-01	0	24	0	963117056	66	4379
2026-01-09 11:36:03.76	333.36	27.07	-49.0	-50.7	15.8	6.01e-01	0	24	0	964165632	66	4442
2026-01-09 11:36:05.16	333.40	26.79	-49.1	-50.7	15.8	6.01e-01	0	24	0	966787072	66	4462
2026-01-09 11:36:05.86	333.42	26.66	-49.1	-50.8	15.8	6.00e-01	0	24	0	968359936	66	4502
2026-01-09 11:36:07.22	333.46	26.40	-49.1	-50.8	15.8	6.03e-01	0	24	0	970457088	66	4496
2026-01-09 11:36:07.92	333.48	26.27	-49.2	-50.8	15.8	6.00e-01	0	24	0	972029952	66	4532
2026-01-09 11:36:09.28	333.52	26.01	-49.2	-50.9	15.8	5.99e-01	0	24	0	974651392	66	4554
2026-01-09 11:36:09.98	333.54	25.88	-49.2	-50.8	15.8	6.02e-01	0	24	0	975699968	66	4518
2026-01-09 11:36:11.36	333.58	25.62	-49.3	-50.9	15.8	6.02e-01	0	24	0	978321408	66	4592
2026-01-09 11:36:12.07	333.60	25.49	-49.3	-51.0	15.7	6.01e-01	0	24	0	979894272	66	4633
2026-01-09 11:36:13.38	333.64	25.25	-49.4	-51.1	15.7	6.02e-01	0	24	0	982515712	66	4653
2026-01-09 11:36:14.09	333.66	25.12	-49.4	-51.1	15.7	5.99e-01	0	24	0	983564288	66	4653
2026-01-09 11:36:15.38	333.69	24.89	-49.5	-51.2	15.7	6.00e-01	0	24	0	986185728	66	4713
2026-01-09 11:36:16.10	333.71	24.76	-49.5	-51.2	15.7	6.04e-01	0	24	0	987234304	66	4732
2026-01-09 11:36:17.37	333.74	24.54	-49.5	-51.2	15.7	6.01e-01	0	24	0	989855744	66	4744
2026-01-09 11:36:18.17	333.77	24.40	-49.5	-51.2	15.6	6.02e-01	0	24	0	991428608	66	4715
2026-01-09 11:36:19.37	333.80	24.19	-49.5	-51.2	15.7	6.00e-01	0	24	0	993525760	66	4742
2026-01-09 11:36:20.22	333.82	24.04	-49.4	-51.1	15.7	6.00e-01	0	24	0	995098624	66	4704
2026-01-09 11:36:21.35	333.85	23.84	-49.5	-51.2	15.7	6.02e-01	0	24	0	997195776	66	4738
2026-01-09 11:36:22.19	333.87	23.70	-49.5	-51.2	15.7	6.03e-01	0	24	0	998768640	66	4713
2026-01-09 11:36:23.32	333.90	23.51	-49.5	-51.2	15.7	6.02e-01	0	24	0	1000865792	66	4721
2026-01-09 11:36:24.16	333.92	23.37	-49.4	-51.1	15.7	6.03e-01	0	24	0	1002438656	66	4679
2026-01-09 11:36:25.29	333.94	23.18	-49.3	-51.0	15.7	6.01e-01	0	24	0	1004535808	66	4644
2026-01-09 11:36:26.13	333.97	23.04	-49.4	-51.1	15.7	6.02e-01	0	24	0	1006108672	66	4655
2026-01-09 11:36:27.26	333.99	22.85	-49.4	-51.1	15.7	6.00e-01	0	24	0	1008205824	66	4652
2026-01-09 11:36:28.10	334.01	22.71	-49.4	-51.0	15.7	5.99e-01	0	24	0	1009778688	66	4646
2026-01-09 11:36:29.23	334.04	22.53	-49.4	-51.0	15.7	6.03e-01	0	24	0	1011875840	66	4648
2026-01-09 11:36:30.08	334.06	22.39	-49.4	-51.0	15.7	6.01e-01	0	24	0	1013448704	66	4643
2026-01-09 11:36:31.20	334.09	22.21	-49.3	-51.0	15.7	6.05e-01	0	24	0	1015545856	66	4616
2026-01-09 11:36:32.04	334.10	22.08	-49.3	-51.0	15.7	6.02e-01	0	24	0	1017118720	66	4602
2026-01-09 11:36:33.17	334.13	21.90	-49.3	-50.9	15.7	6.01e-01	0	24	0	1019215872	66	4593
2026-01-09 11:36:34.01	334.15	21.77	-49.3	-51.0	15.7	6.00e-01	0	24	0	1020788736	66	4616
2026-01-09 11:36:35.15	334.17	21.59	-49.3	-51.0	15.7	6.00e-01	0	24	0	1022885888	66	4646
2026-01-09 11:36:35.99	334.19	21.46	-49.3	-51.0	15.7	5.98e-01	0	24	0	1024458752	66	4601
2026-01-09 11:36:37.13	334.22	21.28	-49.2	-50.9	15.7	6.01e-01	0	24	0	1026555904	66	4546
2026-01-09 11:36:37.98	334.24	21.15	-49.3	-51.0	15.7	6.00e-01	0	24	0	1028653056	66	4622
2026-01-09 11:36:39.11	334.26	20.98	-49.2	-50.9	15.7	6.01e-01	0	24	0	1030225920	66	4553
2026-01-09 11:36:39.96	334.28	20.85	-49.2	-50.9	15.7	6.02e-01	0	24	0	1031798784	66	4568
2026-01-09 11:36:41.09	334.30	20.68	-49.2	-50.9	15.7	6.01e-01	0	24	0	1034420224	66	4583
2026-01-09 11:36:41.93	334.32	20.55	-49.2	-50.8	15.7	6.02e-01	0	24	0	1035993088	66	4544
2026-01-09 11:36:43.07	334.35	20.39	-49.2	-50.8	15.7	6.02e-01	0	24	0	1038090240	66	4538
2026-01-09 11:36:43.92	334.36	20.26	-49.2	-50.8	15.8	6.03e-01	0	24	0	1039663104	66	4527
2026-01-09 11:36:45.05	334.39	20.09	-49.0	-50.6	15.8	6.01e-01	0	24	0	1041760256	66	4439
2026-01-09 11:36:45.89	334.40	19.97	-49.1	-50.7	15.8	6.02e-01	0	24	0	1043333120	66	4493
2026-01-09 11:36:47.03	334.43	19.81	-49.1	-50.8	15.8	5.99e-01	0	24	0	1045430272	66	4497
2026-01-09 11:36:47.87	334.44	19.69	-49.0	-50.6	15.8	6.04e-01	0	24	0	1047003136	66	4419
2026-01-09 11:36:49.01	334.47	19.52	-49.1	-50.8	15.8	6.00e-01	0	24	0	1049100288	66	4508
2026-01-09 11:36:49.87	334.48	19.40	-49.1	-50.8	15.8	6.01e-01	0	24	0	1050673152	66	4513
2026-01-09 11:36:51.00	334.51	19.24	-49.0	-50.7	15.8	6.02e-01	0	24	0	1052770304	66	4465
2026-01-09 11:36:51.86	334.52	19.12	-49.0	-50.7	15.8	5.99e-01	0	24	0	1054343168	66	4442
2026-01-09 11:36:52.99	334.55	18.96	-49.0	-50.6	15.8	6.01e-01	0	24	0	1056440320	66	4438
2026-01-09 11:36:53.84	334.56	18.84	-49.0	-50.6	15.8	6.00e-01	0	24	0	1058013184	66	4430
2026-01-09 11:36:54.97	334.58	18.69	-49.0	-50.7	15.8	6.00e-01	0	24	0	1060110336	66	4455
2026-01-09 11:36:55.81	334.60	18.57	-49.0	-50.7	15.8	6.02e-01	0	24	0	1061683200	66	4456
2026-01-09 11:36:56.95	334.62	18.42	-49.0	-50.7	15.8	6.02e-01	0	24	0	1063780352	66	4462
2026-01-09 11:36:57.80	334.64	18.30	-49.0	-50.7	15.8	5.99e-01	0	24	0	1065353216	66	4457
2026-01-09 11:36:58.93	334.66	18.15	-49.0	-50.7	15.8	6.02e-01	0	24	0	1067450368	66	4456
2026-01-09 11:36:59.78	334.67	18.04	-49.0	-50.6	15.9	6.00e-01	0	24	0	1069023232	66	4421
2026-01-09 11:37:00.90	334.69	17.89	-49.0	-50.6	15.8	6.00e-01	0	24	0	1071120384	66	4441
2026-01-09 11:37:01.75	334.71	17.78	-49.0	-50.6	15.8	6.00e-01	0	24	0	1072693248	66	4433
2026-01-09 11:37:02.89	334.73	17.63	-49.0	-50.7	15.8	6.03e-01	0	24	0	1075314688	66	4460
2026-01-09 11:37:03.74	334.75	17.52	-49.0	-50.6	15.8	6.02e-01	0	24	0	1076887552	66	4420
2026-01-09 11:37:04.88	334.77	17.37	-48.9	-50.6	15.8	6.00e-01	0	24	0	1078984704	66	4398
2026-01-09 11:37:05.73	334.78	17.26	-49.0	-50.6	15.8	6.02e-01	0	24	0	1080557568	66	4422
2026-01-09 11:37:06.86	334.80	17.11	-49.1	-50.8	15.8	6.01e-01	0	24	0	1082654720	66	4507
2026-01-09 11:37:07.70	334.82	17.01	-48.9	-50.5	15.9	6.03e-01	0	24	0	1084227584	66	4367
2026-01-09 11:37:08.83	334.83	16.86	-48.9	-50.6	15.9	6.02e-01	0	24	0	1086324736	66	4398
2026-01-09 11:37:09.68	334.85	16.76	-49.0	-50.7	15.7	6.02e-01	0	24	0	1087897600	66	4463
2026-01-09 11:37:10.82	334.87	16.61	-49.0	-50.6	15.8	6.04e-01	0	24	0	1089994752	66	4419
2026-01-09 11:37:11.68	334.88	16.50	-49.0	-50.7	15.8	6.00e-01	0	24	0	1091567616	66	4443
2026-01-09 11:37:12.81	334.90	16.36	-49.0	-50.7	15.8	6.01e-01	0	24	0	1093664768	66	4448
2026-01-09 11:37:13.67	334.92	16.26	-49.1	-50.8	15.8	6.01e-01	0	24	0	1095237632	66	4514
2026-01-09 11:37:14.81	334.94	16.12	-48.9	-50.6	15.8	6.01e-01	0	24	0	1097334784	66	4401
2026-01-09 11:37:15.66	334.95	16.01	-49.0	-50.6	15.8	6.01e-01	0	24	0	1098907648	66	4435
2026-01-09 11:37:16.80	334.97	15.88	-49.0	-50.7	15.8	6.03e-01	0	24	0	1101004800	66	4445
2026-01-09 11:37:17.65	334.98	15.77	-49.0	-50.7	15.8	6.03e-01	0	24	0	1102577664	66	4444
2026-01-09 11:37:18.78	335.00	15.64	-49.0	-50.7	15.8	6.00e-01	0	24	0	1104674816	66	4443
2026-01-09 11:37:19.64	335.02	15.54	-48.9	-50.6	15.8	6.03e-01	0	23	0	1106247680	66	4410
2026-01-09 11:37:20.78	335.03	15.40	-48.9	-50.5	15.8	6.01e-01	0	24	0	1108869120	66	4386
2026-01-09 11:37:21.63	335.05	15.30	-48.9	-50.6	15.8	6.01e-01	0	24	0	1110441984	66	4402
2026-01-09 11:37:22.77	335.07	15.17	-48.9	-50.6	15.8	6.01e-01	0	24	0	1112539136	66	4415
2026-01-09 11:37:23.62	335.08	15.07	-48.9	-50.6	15.8	6.01e-01	0	24	0	1114112000	66	4414
2026-01-09 11:37:24.76	335.10	14.93	-49.0	-50.6	15.8	6.02e-01	0	24	0	1116209152	66	4424
2026-01-09 11:37:25.62	335.11	14.83	-48.9	-50.6	15.8	6.01e-01	0	24	0	1117782016	66	4394
2026-01-09 11:37:26.75	335.13	14.70	-48.9	-50.5	15.8	6.00e-01	0	24	0	1119879168	66	4379
2026-01-09 11:37:27.60	335.14	14.61	-48.9	-50.6	15.8	6.00e-01	0	24	0	1121452032	66	4394
2026-01-09 11:37:28.74	335.16	14.48	-48.9	-50.6	15.8	6.00e-01	0	24	0	1123549184	66	4410
2026-01-09 11:37:29.59	335.17	14.38	-48.9	-50.6	15.8	5.98e-01	0	24	0	1125122048	66	4418
2026-01-09 11:37:30.73	335.19	14.25	-49.0	-50.6	15.8	6.02e-01	0	24	0	1127219200	66	4435
2026-01-09 11:37:31.57	335.20	14.16	-48.8	-50.5	15.9	6.02e-01	0	24	0	1128792064	66	4358
2026-01-09 11:37:32.71	335.22	14.03	-48.9	-50.5	15.8	6.00e-01	0	24	0	1130889216	66	4388
2026-01-09 11:37:33.56	335.23	13.94	-48.9	-50.5	15.8	6.00e-01	0	24	0	1132462080	66	4371
2026-01-09 11:37:34.70	335.25	13.81	-48.8	-50.5	15.8	6.00e-01	0	24	0	1134559232	66	4357
2026-01-09 11:37:35.54	335.26	13.72	-48.9	-50.6	15.8	6.01e-01	0	24	0	1136132096	66	4419
2026-01-09 11:37:36.67	335.28	13.59	-49.0	-50.7	15.8	6.00e-01	0	24	0	1138229248	66	4450
2026-01-09 11:37:37.52	335.29	13.50	-48.9	-50.5	15.8	6.02e-01	0	24	0	1139802112	66	4390
2026-01-09 11:37:38.64	335.30	13.38	-48.9	-50.6	15.8	6.01e-01	0	24	0	1141899264	66	4420
2026-01-09 11:37:39.50	335.32	13.29	-48.9	-50.6	15.8	6.01e-01	0	24	0	1143472128	66	4393
2026-01-09 11:37:40.63	335.33	13.17	-48.8	-50.5	15.9	6.02e-01	0	24	0	1146093568	66	4360
2026-01-09 11:37:41.48	335.35	13.08	-48.9	-50.5	15.9	6.01e-01	0	24	0	1147666432	66	4372
2026-01-09 11:37:42.61	335.36	12.96	-48.8	-50.5	15.8	5.99e-01	0	24	0	1149763584	66	4354
2026-01-09 11:37:43.45	335.37	12.87	-48.9	-50.6	15.8	6.00e-01	0	24	0	1151336448	66	4401
2026-01-09 11:37:44.58	335.39	12.75	-48.9	-50.6	15.8	6.01e-01	0	24	0	1153433600	66	4420
2026-01-09 11:37:45.44	335.40	12.66	-49.0	-50.7	15.8	6.00e-01	0	24	0	1155006464	66	4452
2026-01-09 11:37:46.58	335.42	12.54	-49.0	-50.7	15.8	6.03e-01	0	24	0	1157103616	66	4445
2026-01-09 11:37:47.42	335.43	12.45	-49.1	-50.8	15.7	6.00e-01	0	24	0	1158676480	66	4521
2026-01-09 11:37:48.56	335.44	12.33	-49.0	-50.7	15.8	6.00e-01	0	24	0	1160773632	66	4465
2026-01-09 11:37:49.41	335.46	12.25	-49.0	-50.6	15.8	6.01e-01	0	24	0	1162346496	66	4439
2026-01-09 11:37:50.55	335.47	12.13	-49.0	-50.7	15.8	5.99e-01	0	24	0	1164443648	66	4467
2026-01-09 11:37:51.41	335.48	12.04	-49.1	-50.8	15.7	6.00e-01	0	24	0	1166016512	66	4520
2026-01-09 11:37:52.54	335.50	11.93	-49.0	-50.7	15.8	6.00e-01	0	24	0	1168113664	66	4481
2026-01-09 11:37:53.40	335.51	11.84	-49.1	-50.8	15.7	6.01e-01	0	24	0	1169686528	66	4523
2026-01-09 11:37:54.53	335.52	11.73	-49.2	-50.9	15.7	6.02e-01	0	24	0	1171783680	66	4562
2026-01-09 11:37:55.38	335.54	11.64	-49.2	-51.0	15.7	6.01e-01	0	24	0	1173356544	66	4600
2026-01-09 11:37:56.51	335.55	11.53	-49.3	-51.0	15.7	6.02e-01	0	24	0	1175453696	66	4623
2026-01-09 11:37:57.37	335.56	11.45	-49.2	-51.0	15.7	6.02e-01	0	24	0	1177026560	66	4619
2026-01-09 11:37:58.51	335.58	11.33	-49.3	-51.1	15.7	5.98e-01	0	24	0	1179123712	66	4655
2026-01-09 11:37:59.36	335.59	11.25	-49.3	-51.1	15.7	6.01e-01	0	24	0	1180696576	66	4676
2026-01-09 11:38:00.50	335.60	11.14	-49.4	-51.2	15.6	6.03e-01	0	24	0	1183318016	66	4721
2026-01-09 11:38:01.35	335.61	11.05	-49.3	-51.1	15.6	6.00e-01	0	24	0	1184890880	66	4676
2026-01-09 11:38:02.48	335.63	10.95	-49.5	-51.3	15.6	6.01e-01	0	24	0	1186988032	66	4797
2026-01-09 11:38:03.33	335.64	10.86	-49.4	-51.2	15.6	6.00e-01	0	24	0	1188560896	66	4714
2026-01-09 11:38:04.47	335.65	10.75	-49.4	-51.2	15.6	6.02e-01	0	23	0	1190658048	66	4732
2026-01-09 11:38:05.31	335.66	10.67	-49.6	-51.4	15.6	6.01e-01	0	24	0	1192230912	66	4839
2026-01-09 11:38:06.45	335.68	10.56	-49.5	-51.2	15.6	5.98e-01	0	24	0	1194328064	66	4749
2026-01-09 11:38:07.30	335.69	10.48	-49.3	-51.1	15.6	6.02e-01	0	24	0	1195900928	66	4663
2026-01-09 11:38:08.44	335.70	10.38	-49.4	-51.1	15.7	6.04e-01	0	24	0	1197998080	66	4685
2026-01-09 11:38:09.30	335.71	10.30	-49.3	-51.1	15.6	6.00e-01	0	24	0	1199570944	66	4682
2026-01-09 11:38:10.44	335.73	10.19	-49.4	-51.1	15.6	6.00e-01	0	24	0	1201668096	66	4700
2026-01-09 11:38:11.30	335.74	10.11	-49.4	-51.2	15.6	6.01e-01	0	24	0	1203240960	66	4725
2026-01-09 11:38:12.44	335.75	10.00	-49.4	-51.3	15.5	6.00e-01	0	24	0	1205338112	66	4771
2026-01-09 11:38:13.29	335.76	9.92	-49.4	-51.2	15.5	6.02e-01	0	24	0	1206910976	66	4737
2026-01-09 11:38:14.43	335.78	9.82	-49.5	-51.3	15.4	6.01e-01	0	24	0	1209008128	66	4802
2026-01-09 11:38:15.27	335.79	9.74	-49.5	-51.3	15.5	6.02e-01	0	24	0	1210580992	66	4797
2026-01-09 11:38:16.40	335.80	9.64	-49.4	-51.3	15.5	6.01e-01	0	24	0	1212678144	66	4780
2026-01-09 11:38:17.26	335.81	9.56	-49.5	-51.4	15.4	6.01e-01	0	24	0	1214251008	66	4818
2026-01-09 11:38:18.39	335.82	9.46	-49.5	-51.3	15.4	6.01e-01	0	24	0	1216872448	66	4802
2026-01-09 11:38:19.25	335.83	9.38	-49.4	-51.3	15.5	6.01e-01	0	24	0	1218445312	66	4760
2026-01-09 11:38:20.38	335.85	9.28	-49.6	-51.5	15.3	6.02e-01	0	24	0	1220542464	66	4913
2026-01-09 11:38:21.23	335.86	9.20	-49.6	-51.5	15.5	6.01e-01	0	24	0	1222115328	67	4648
2026-01-09 11:38:22.37	335.87	9.10	-49.5	-51.4	15.6	6.01e-01	0	24	0	1224212480	67	4576
2026-01-09 11:38:23.21	335.88	9.03	-49.5	-51.3	15.6	6.03e-01	0	24	0	1225785344	67	4528
2026-01-09 11:38:24.35	335.89	8.93	-49.6	-51.5	15.5	6.01e-01	0	24	0	1227882496	67	4648
2026-01-09 11:38:25.20	335.90	8.85	-49.6	-51.5	15.6	6.00e-01	0	24	0	1229455360	67	4640
2026-01-09 11:38:26.34	335.92	8.75	-49.8	-51.8	15.5	6.00e-01	0	24	0	1231552512	67	4787
2026-01-09 11:38:27.20	335.93	8.68	-49.6	-51.6	15.5	6.00e-01	0	24	0	1233125376	67	4652
2026-01-09 11:38:28.34	335.94	8.58	-49.8	-51.7	15.5	6.02e-01	0	24	0	1235222528	67	4729
2026-01-09 11:38:29.20	335.95	8.50	-49.9	-51.9	15.4	6.01e-01	0	24	0	1236795392	67	4821
2026-01-09 11:38:30.33	335.96	8.40	-50.0	-51.9	15.4	6.00e-01	0	24	0	1238892544	67	4861
2026-01-09 11:38:31.18	335.97	8.33	-49.8	-51.7	15.5	5.98e-01	0	24	0	1240465408	67	4751
2026-01-09 11:38:32.33	335.99	8.23	-50.0	-51.9	15.4	5.99e-01	0	24	0	1242562560	67	4861
2026-01-09 11:38:33.18	336.00	8.16	-49.9	-51.8	15.5	6.01e-01	0	24	0	1244135424	67	4814
2026-01-09 11:38:34.33	336.01	8.06	-49.8	-51.8	15.4	6.01e-01	0	24	0	1246756864	67	4773
2026-01-09 11:38:35.19	336.02	7.99	-49.9	-51.8	15.4	6.00e-01	0	24	0	1248329728	67	4789
2026-01-09 11:38:36.32	336.03	7.89	-49.9	-51.9	15.4	6.02e-01	0	24	0	1250426880	67	4844
2026-01-09 11:38:37.17	336.04	7.82	-49.8	-51.7	15.5	6.03e-01	0	24	0	1251999744	67	4759
2026-01-09 11:38:38.31	336.05	7.73	-49.9	-51.9	15.4	6.00e-01	0	24	0	1254096896	67	4828
2026-01-09 11:38:39.16	336.06	7.65	-49.9	-51.9	15.5	6.01e-01	0	24	0	1255669760	67	4842
2026-01-09 11:38:40.29	336.07	7.56	-50.1	-52.1	15.4	6.00e-01	0	24	0	1257766912	67	4937
2026-01-09 11:38:41.14	336.08	7.49	-50.0	-52.0	15.4	6.01e-01	0	24	0	1259339776	67	4884
2026-01-09 11:38:42.27	336.10	7.40	-49.9	-51.9	15.6	6.00e-01	0	24	0	1261436928	68	4548
2026-01-09 11:38:43.12	336.10	7.33	-50.0	-52.0	15.6	5.98e-01	0	24	0	1263009792	68	4630
2026-01-09 11:38:44.25	336.12	7.23	-50.1	-52.0	15.6	6.00e-01	0	24	0	1265106944	68	4637
2026-01-09 11:38:45.10	336.13	7.16	-50.2	-52.1	15.6	6.02e-01	0	24	0	1266679808	68	4704
2026-01-09 11:38:46.24	336.14	7.07	-50.2	-52.2	15.5	6.02e-01	0	24	0	1268776960	68	4736
2026-01-09 11:38:47.10	336.15	7.00	-50.2	-52.3	15.5	6.03e-01	0	24	0	1270349824	68	4764
