passes_logs/2026/01/09/R3.2S_Murmansk/R3.2S_Murmansk__20260109_232436_SUOMI_NPP_rec.log

#Pass ID: 20260109_232436_SUOMI NPP
#Satellite: SUOMI NPP
#Configuration: NPP
#almurnet v.1.7.20251203
#Start time: 2026-01-09 23:24:37

#Version: 2.2.20231116
#Station: R3.2S_Murmansk
#Location: 33.079688 lon 68.888172 lat
#TLE: 1 37849U 11061A   26008.83076692  .00000095  00000+0  66074-4 0  9997
#TLE: 2 37849  98.7806 310.9327 0002533  74.3004 285.8451 14.19523607735834

#Time	Az	El	Level	Level2	SNR	BER	BlckErr	Temp	State	Recorded	gain1	gain2
2026-01-09 23:24:37.15	20.55	2.01	-57.3	-73.0	3.8	1.49e+00	0	21	0	0	81	21120
2026-01-09 23:24:38.15	20.59	2.07	-57.2	-72.5	3.8	1.49e+00	0	22	104	0	79	22393
2026-01-09 23:24:39.15	20.63	2.13	-57.2	-72.4	3.8	1.49e+00	0	22	104	0	79	22161
2026-01-09 23:24:40.16	20.67	2.20	-57.2	-72.2	3.8	1.49e+00	0	22	104	0	79	21666
2026-01-09 23:24:41.15	20.71	2.26	-57.2	-72.2	3.8	1.49e+00	0	22	104	0	79	21617
2026-01-09 23:24:42.16	20.76	2.32	-57.2	-72.2	3.8	1.49e+00	0	22	104	0	79	21709
2026-01-09 23:24:43.16	20.80	2.38	-57.2	-72.2	3.8	1.49e+00	0	22	104	0	79	21569
2026-01-09 23:24:44.17	20.84	2.44	-57.2	-72.3	3.8	1.49e+00	0	22	104	0	79	21830
2026-01-09 23:24:45.17	20.88	2.50	-57.2	-72.2	3.8	1.49e+00	0	22	104	0	79	21526
2026-01-09 23:24:46.16	20.93	2.57	-57.2	-72.2	3.8	1.49e+00	0	22	104	0	79	21572
2026-01-09 23:24:47.16	20.97	2.63	-57.3	-72.2	3.8	1.49e+00	0	22	104	0	79	21736
2026-01-09 23:24:48.16	21.01	2.69	-57.2	-72.2	3.8	1.49e+00	0	22	104	0	79	21517
2026-01-09 23:24:49.17	21.06	2.75	-57.2	-71.9	3.8	1.49e+00	0	22	104	0	79	21009
2026-01-09 23:24:50.16	21.10	2.81	-57.2	-71.5	3.8	1.49e+00	0	22	104	0	79	19946
2026-01-09 23:24:51.16	21.14	2.88	-57.2	-71.0	3.9	1.49e+00	0	22	104	0	79	18937
2026-01-09 23:24:52.16	21.19	2.94	-57.1	-70.3	3.9	1.49e+00	0	22	104	0	79	17376
2026-01-09 23:24:53.15	21.23	3.00	-57.1	-69.1	4.4	1.35e+00	63	22	0	0	79	15067
2026-01-09 23:24:54.15	21.28	3.06	-57.1	-69.3	4.3	1.34e+00	0	22	0	0	79	15430
2026-01-09 23:24:55.15	21.32	3.13	-57.0	-68.7	4.5	1.31e+00	0	22	0	2097152	79	14470
2026-01-09 23:24:56.15	21.36	3.19	-57.0	-68.0	4.8	8.72e-01	0	22	0	4194304	79	13261
2026-01-09 23:24:57.15	21.41	3.25	-57.0	-68.2	4.7	7.84e-01	0	22	0	5242880	79	13581
2026-01-09 23:24:58.15	21.45	3.32	-57.0	-67.5	5.0	7.77e-01	0	22	0	7340032	79	12578
2026-01-09 23:24:59.15	21.50	3.38	-56.9	-67.4	5.1	6.63e-01	0	22	0	9437184	79	12496
2026-01-09 23:25:00.15	21.54	3.44	-56.9	-67.2	5.2	5.80e-01	0	22	0	11534336	79	12138
2026-01-09 23:25:01.15	21.59	3.51	-56.9	-66.8	5.4	4.73e-01	0	22	0	13631488	79	11634
2026-01-09 23:25:02.15	21.63	3.57	-56.8	-66.0	5.9	3.91e-01	0	22	0	14680064	79	10645
2026-01-09 23:25:03.14	21.68	3.64	-56.6	-64.9	6.8	1.74e-01	0	22	0	16777216	79	9332
2026-01-09 23:25:04.14	21.73	3.70	-56.4	-63.6	7.9	7.36e-02	0	22	0	18874368	79	8051
2026-01-09 23:25:05.13	21.77	3.76	-56.2	-62.9	8.6	4.25e-02	0	22	0	20971520	79	7383
2026-01-09 23:25:06.13	21.82	3.83	-55.9	-61.7	9.6	1.50e-02	0	22	0	22020096	78	6834
2026-01-09 23:25:07.13	21.86	3.89	-55.6	-60.8	10.3	2.41e-03	0	23	0	24117248	77	6538
2026-01-09 23:25:08.13	21.91	3.96	-55.3	-59.9	11.1	8.22e-04	0	23	0	26214400	77	5887
2026-01-09 23:25:09.13	21.96	4.02	-54.9	-59.1	11.7	2.40e-04	0	22	0	28311552	76	5670
2026-01-09 23:25:10.13	22.00	4.09	-54.8	-58.8	12.0	1.52e-05	0	23	0	30408704	76	5491
2026-01-09 23:25:11.13	22.05	4.15	-54.3	-58.0	12.4	8.30e-06	0	22	0	31457280	75	5309
2026-01-09 23:25:12.13	22.10	4.22	-54.4	-58.2	12.3	6.10e-06	0	23	0	33554432	75	5403
2026-01-09 23:25:13.13	22.15	4.28	-54.2	-57.8	12.6	0.00e+00	0	22	0	35651584	75	5162
2026-01-09 23:25:14.13	22.19	4.35	-54.3	-57.9	12.4	2.20e-06	0	23	0	37748736	74	5570
2026-01-09 23:25:15.13	22.24	4.41	-54.4	-58.2	12.2	2.20e-06	0	22	0	39845888	74	5731
2026-01-09 23:25:16.12	22.29	4.48	-54.7	-58.8	11.7	8.30e-06	0	23	0	40894464	74	6162
2026-01-09 23:25:17.12	22.34	4.55	-54.9	-59.3	11.3	4.57e-05	0	23	0	42991616	74	6566
2026-01-09 23:25:18.12	22.39	4.61	-55.1	-59.9	10.9	1.90e-04	0	23	0	45088768	75	6584
2026-01-09 23:25:19.13	22.44	4.68	-55.6	-60.9	10.1	5.97e-04	0	23	0	47185920	76	6991
2026-01-09 23:25:20.13	22.48	4.75	-55.9	-61.8	9.3	4.59e-03	0	23	0	48234496	76	7787
2026-01-09 23:25:21.13	22.53	4.81	-56.2	-62.9	8.4	1.79e-02	0	23	0	50331648	77	8352
2026-01-09 23:25:22.13	22.58	4.88	-56.4	-63.7	7.7	4.86e-02	0	23	0	52428800	77	9161
2026-01-09 23:25:23.13	22.63	4.95	-56.6	-64.6	7.1	8.40e-02	0	23	0	54525952	78	9502
2026-01-09 23:25:24.12	22.68	5.01	-56.7	-65.5	6.3	1.90e-01	0	23	0	56623104	78	10589
2026-01-09 23:25:25.12	22.73	5.08	-56.7	-65.4	6.4	1.72e-01	0	23	0	57671680	78	10413
2026-01-09 23:25:26.12	22.78	5.15	-57.0	-68.8	4.4	6.23e-01	52	23	0	59768832	79	14627
2026-01-09 23:25:27.11	22.83	5.21	-57.0	-66.2	5.9	2.22e-01	0	23	0	61865984	79	10796
2026-01-09 23:25:28.11	22.88	5.28	-55.5	-60.3	11.0	2.80e-03	0	23	0	63963136	77	6175
2026-01-09 23:25:29.11	22.93	5.35	-57.2	-69.3	4.3	3.97e-01	0	23	0	65011712	79	15421
2026-01-09 23:25:30.12	22.98	5.42	-55.5	-60.3	10.9	2.34e-01	0	23	0	67108864	77	6157
2026-01-09 23:25:31.11	23.04	5.49	-55.3	-59.7	11.4	8.08e-05	0	23	0	69206016	77	5760
2026-01-09 23:25:32.10	23.09	5.55	-55.4	-59.9	11.3	1.03e-04	0	23	0	71303168	77	5859
2026-01-09 23:25:33.09	23.14	5.62	-55.2	-59.5	11.5	4.88e-05	0	23	0	72351744	76	5951
2026-01-09 23:25:34.09	23.19	5.69	-55.3	-59.7	11.3	8.54e-05	0	23	0	74448896	76	6076
2026-01-09 23:25:35.10	23.24	5.76	-55.2	-59.3	11.6	5.64e-05	0	23	0	76546048	76	5855
2026-01-09 23:25:36.10	23.29	5.83	-55.0	-59.0	11.9	1.44e-05	0	23	0	78643200	76	5630
2026-01-09 23:25:37.10	23.35	5.90	-54.9	-58.9	12.1	1.22e-05	0	23	0	80740352	76	5530
2026-01-09 23:25:38.10	23.40	5.97	-54.8	-58.6	12.3	4.50e-06	0	23	0	81788928	76	5389
2026-01-09 23:25:39.10	23.45	6.04	-54.8	-58.6	12.2	6.10e-06	0	23	0	83886080	76	5389
2026-01-09 23:25:40.09	23.50	6.11	-54.7	-58.5	12.4	2.20e-06	0	23	0	85983232	76	5281
2026-01-09 23:25:41.08	23.56	6.17	-54.4	-57.8	12.7	7.00e-07	0	23	0	88080384	75	5215
2026-01-09 23:25:42.08	23.61	6.24	-54.2	-57.5	13.0	0.00e+00	0	23	0	89128960	75	4992
2026-01-09 23:25:43.08	23.67	6.31	-54.2	-57.5	13.0	0.00e+00	0	23	0	91226112	75	5023
2026-01-09 23:25:44.08	23.72	6.39	-54.1	-57.3	13.0	7.00e-07	0	23	0	93323264	74	5207
2026-01-09 23:25:45.08	23.77	6.46	-54.1	-57.4	12.9	0.00e+00	0	23	0	95420416	74	5232
2026-01-09 23:25:46.07	23.83	6.53	-54.1	-57.3	13.0	0.00e+00	0	23	0	97517568	74	5197
2026-01-09 23:25:47.08	23.88	6.60	-54.1	-57.3	13.0	0.00e+00	0	23	0	98566144	74	5203
2026-01-09 23:25:48.08	23.94	6.67	-54.2	-57.4	12.9	7.00e-07	0	23	0	100663296	74	5268
2026-01-09 23:25:49.08	23.99	6.74	-54.0	-57.1	13.2	0.00e+00	0	23	0	102760448	74	5080
2026-01-09 23:25:50.07	24.05	6.81	-54.1	-57.2	13.1	0.00e+00	0	23	0	104857600	74	5133
2026-01-09 23:25:51.06	24.10	6.88	-54.0	-57.2	13.2	0.00e+00	0	23	0	106954752	74	5103
2026-01-09 23:25:52.06	24.16	6.95	-53.9	-56.9	13.3	0.00e+00	0	23	0	108003328	74	4977
2026-01-09 23:25:53.06	24.22	7.02	-53.9	-56.9	13.3	0.00e+00	0	23	0	110100480	74	4969
2026-01-09 23:25:54.06	24.27	7.10	-53.8	-56.8	13.4	0.00e+00	0	23	0	112197632	74	4893
2026-01-09 23:25:55.06	24.33	7.17	-53.9	-56.9	13.3	0.00e+00	0	23	0	114294784	74	4962
2026-01-09 23:25:56.06	24.39	7.24	-53.9	-56.9	13.4	0.00e+00	0	23	0	115343360	74	4934
2026-01-09 23:25:57.06	24.44	7.31	-53.8	-56.7	13.5	0.00e+00	0	23	0	117440512	74	4817
2026-01-09 23:25:58.06	24.50	7.39	-53.8	-56.7	13.5	0.00e+00	0	23	0	119537664	74	4857
2026-01-09 23:25:59.06	24.56	7.46	-53.8	-56.6	13.6	0.00e+00	0	23	0	121634816	74	4804
2026-01-09 23:26:00.07	24.62	7.53	-53.7	-56.5	13.5	0.00e+00	0	23	0	123731968	73	5037
2026-01-09 23:26:01.06	24.68	7.61	-53.6	-56.3	13.6	0.00e+00	0	23	0	124780544	73	4910
2026-01-09 23:26:02.06	24.74	7.68	-53.6	-56.3	13.6	0.00e+00	0	23	0	126877696	73	4919
2026-01-09 23:26:03.06	24.79	7.75	-53.6	-56.3	13.6	0.00e+00	0	23	0	128974848	73	4916
2026-01-09 23:26:04.06	24.85	7.83	-53.6	-56.3	13.6	0.00e+00	0	23	0	131072000	73	4916
2026-01-09 23:26:05.06	24.91	7.90	-53.5	-56.2	13.7	0.00e+00	0	23	0	133169152	73	4820
2026-01-09 23:26:06.06	24.97	7.98	-53.6	-56.3	13.6	0.00e+00	0	23	0	134217728	73	4915
2026-01-09 23:26:07.07	25.03	8.05	-53.3	-56.0	13.9	0.00e+00	0	23	0	136314880	73	4714
2026-01-09 23:26:08.06	25.09	8.13	-53.4	-56.1	13.8	0.00e+00	0	23	0	138412032	73	4783
2026-01-09 23:26:09.06	25.15	8.20	-53.4	-56.1	13.8	0.00e+00	0	23	0	140509184	73	4763
2026-01-09 23:26:10.07	25.22	8.28	-53.4	-56.0	13.8	0.00e+00	0	23	0	141557760	73	4758
2026-01-09 23:26:11.06	25.28	8.35	-53.4	-56.1	13.9	0.00e+00	0	23	0	143654912	73	4761
2026-01-09 23:26:12.06	25.34	8.43	-53.3	-55.9	13.9	0.00e+00	0	23	0	145752064	73	4694
2026-01-09 23:26:13.06	25.40	8.50	-53.3	-55.9	14.0	0.00e+00	0	23	0	147849216	73	4652
2026-01-09 23:26:14.05	25.46	8.58	-53.2	-55.7	14.1	0.00e+00	0	23	0	149946368	73	4566
2026-01-09 23:26:15.06	25.53	8.66	-53.1	-55.7	13.9	0.00e+00	0	23	0	150994944	72	4834
2026-01-09 23:26:16.05	25.59	8.73	-53.2	-55.8	13.9	0.00e+00	0	23	0	153092096	72	4894
2026-01-09 23:26:17.05	25.65	8.81	-53.1	-55.5	14.0	0.00e+00	0	23	0	155189248	72	4740
2026-01-09 23:26:18.05	25.71	8.88	-53.2	-55.7	14.0	0.00e+00	0	23	0	157286400	72	4833
2026-01-09 23:26:19.04	25.78	8.96	-53.1	-55.5	14.0	0.00e+00	0	23	0	158334976	72	4759
2026-01-09 23:26:20.03	25.84	9.04	-52.9	-55.3	14.2	0.00e+00	0	23	0	160432128	72	4643
2026-01-09 23:26:21.04	25.91	9.12	-53.0	-55.4	14.2	0.00e+00	0	23	0	162529280	72	4657
2026-01-09 23:26:22.04	25.97	9.19	-52.9	-55.3	14.2	0.00e+00	0	23	0	164626432	72	4638
2026-01-09 23:26:23.04	26.03	9.27	-53.0	-55.4	14.2	0.00e+00	0	23	0	166723584	72	4654
2026-01-09 23:26:24.04	26.10	9.35	-52.8	-55.1	14.3	0.00e+00	0	23	0	167772160	72	4530
2026-01-09 23:26:25.04	26.17	9.43	-52.8	-55.2	14.3	0.00e+00	0	23	0	169869312	72	4551
2026-01-09 23:26:26.04	26.23	9.51	-52.8	-55.1	14.3	0.00e+00	0	23	0	171966464	72	4526
2026-01-09 23:26:27.04	26.30	9.58	-52.6	-54.8	14.3	0.00e+00	0	23	0	174063616	71	4631
2026-01-09 23:26:28.03	26.36	9.66	-52.7	-55.0	14.2	0.00e+00	0	23	0	176160768	71	4742
2026-01-09 23:26:29.04	26.43	9.74	-52.6	-54.8	14.3	0.00e+00	0	23	0	177209344	71	4637
2026-01-09 23:26:30.04	26.50	9.82	-52.6	-54.9	14.3	0.00e+00	0	23	0	179306496	71	4672
2026-01-09 23:26:31.03	26.57	9.90	-52.6	-54.9	14.3	0.00e+00	0	23	0	181403648	71	4668
2026-01-09 23:26:32.02	26.63	9.98	-52.5	-54.6	14.4	0.00e+00	0	23	0	183500800	71	4535
2026-01-09 23:26:33.01	26.70	10.06	-52.6	-54.8	14.4	0.00e+00	0	23	0	185597952	71	4603
2026-01-09 23:26:34.01	26.77	10.14	-52.4	-54.5	14.5	0.00e+00	0	23	0	186646528	71	4471
2026-01-09 23:26:35.00	26.84	10.22	-52.3	-54.5	14.6	0.00e+00	0	23	0	188743680	71	4442
2026-01-09 23:26:35.99	26.91	10.30	-52.4	-54.5	14.5	0.00e+00	0	23	0	190840832	71	4464
2026-01-09 23:26:36.99	26.98	10.38	-52.3	-54.3	14.6	0.00e+00	0	23	0	192937984	71	4375
2026-01-09 23:26:37.98	27.04	10.46	-52.2	-54.3	14.7	0.00e+00	0	23	0	193986560	71	4363
2026-01-09 23:26:38.98	27.12	10.54	-52.1	-54.1	14.6	0.00e+00	0	23	0	196083712	70	4517
2026-01-09 23:26:39.97	27.19	10.62	-52.2	-54.3	14.5	0.00e+00	0	23	0	198180864	70	4616
2026-01-09 23:26:40.97	27.26	10.71	-52.2	-54.2	14.5	0.00e+00	0	23	0	200278016	70	4593
2026-01-09 23:26:41.97	27.33	10.79	-52.2	-54.2	14.6	0.00e+00	0	23	0	202375168	70	4582
2026-01-09 23:26:42.97	27.40	10.87	-52.1	-54.2	14.6	0.00e+00	0	23	0	203423744	70	4560
2026-01-09 23:26:43.97	27.47	10.95	-52.0	-54.0	14.7	0.00e+00	0	23	0	205520896	70	4488
2026-01-09 23:26:44.96	27.54	11.03	-52.0	-54.0	14.7	0.00e+00	0	23	0	207618048	70	4442
2026-01-09 23:26:45.96	27.62	11.12	-52.1	-54.1	14.6	0.00e+00	0	23	0	209715200	70	4534
2026-01-09 23:26:46.95	27.69	11.20	-51.9	-53.9	14.7	0.00e+00	0	23	0	210763776	70	4422
2026-01-09 23:26:47.95	27.76	11.28	-52.0	-54.0	14.7	0.00e+00	0	23	0	212860928	70	4468
2026-01-09 23:26:48.95	27.84	11.37	-51.9	-53.9	14.8	0.00e+00	0	23	0	214958080	70	4426
2026-01-09 23:26:49.95	27.91	11.45	-52.0	-54.0	14.7	0.00e+00	0	23	0	217055232	70	4456
2026-01-09 23:26:50.95	27.99	11.54	-52.0	-54.0	14.7	0.00e+00	0	23	0	219152384	70	4480
2026-01-09 23:26:51.94	28.06	11.62	-52.0	-54.0	14.7	0.00e+00	0	23	0	220200960	70	4447
2026-01-09 23:26:52.94	28.14	11.70	-52.0	-54.0	14.7	0.00e+00	0	23	0	222298112	70	4485
2026-01-09 23:26:53.93	28.21	11.79	-52.1	-54.1	14.6	0.00e+00	0	23	0	224395264	70	4544
2026-01-09 23:26:54.92	28.29	11.87	-51.9	-53.9	14.7	0.00e+00	0	23	0	226492416	70	4420
2026-01-09 23:26:55.92	28.37	11.96	-52.1	-54.1	14.6	0.00e+00	0	23	0	227540992	70	4532
2026-01-09 23:26:56.93	28.44	12.05	-52.0	-54.0	14.7	0.00e+00	0	23	0	229638144	70	4464
2026-01-09 23:26:57.93	28.52	12.13	-52.1	-54.1	14.6	0.00e+00	0	23	0	231735296	70	4528
2026-01-09 23:26:58.93	28.60	12.22	-52.1	-54.1	14.7	0.00e+00	0	23	0	233832448	70	4514
2026-01-09 23:26:59.94	28.68	12.31	-52.1	-54.1	14.6	0.00e+00	0	24	0	235929600	70	4535
2026-01-09 23:27:00.95	28.76	12.39	-52.1	-54.1	14.7	0.00e+00	0	23	0	236978176	70	4510
2026-01-09 23:27:01.94	28.84	12.48	-52.1	-54.1	14.7	0.00e+00	0	23	0	239075328	70	4504
2026-01-09 23:27:02.94	28.92	12.57	-52.0	-54.0	14.7	0.00e+00	0	23	0	241172480	70	4468
2026-01-09 23:27:03.94	29.00	12.66	-52.1	-54.1	14.6	0.00e+00	0	23	0	243269632	70	4520
2026-01-09 23:27:04.94	29.08	12.74	-52.1	-54.2	14.6	0.00e+00	0	23	0	245366784	70	4548
2026-01-09 23:27:05.94	29.16	12.83	-52.1	-54.2	14.6	0.00e+00	0	23	0	246415360	70	4559
2026-01-09 23:27:06.94	29.24	12.92	-52.0	-53.9	14.8	0.00e+00	0	24	0	248512512	70	4434
2026-01-09 23:27:07.94	29.33	13.01	-52.0	-54.0	14.7	0.00e+00	0	23	0	250609664	70	4473
2026-01-09 23:27:08.95	29.41	13.10	-52.0	-54.0	14.7	0.00e+00	0	23	0	252706816	70	4484
2026-01-09 23:27:09.95	29.49	13.19	-52.1	-54.1	14.7	0.00e+00	0	23	0	254803968	70	4510
2026-01-09 23:27:10.95	29.58	13.28	-52.1	-54.1	14.6	0.00e+00	0	23	0	255852544	70	4540
2026-01-09 23:27:11.94	29.66	13.37	-52.2	-54.2	14.6	0.00e+00	0	23	0	257949696	70	4595
2026-01-09 23:27:12.94	29.75	13.46	-52.1	-54.1	14.7	0.00e+00	0	23	0	260046848	70	4530
2026-01-09 23:27:13.94	29.83	13.55	-52.1	-54.1	14.6	0.00e+00	0	23	0	262144000	70	4538
2026-01-09 23:27:14.93	29.92	13.64	-52.3	-54.4	14.5	0.00e+00	0	23	0	263192576	70	4681
2026-01-09 23:27:15.93	30.00	13.73	-52.2	-54.3	14.6	0.00e+00	0	23	0	265289728	70	4606
2026-01-09 23:27:16.93	30.09	13.82	-52.2	-54.3	14.6	0.00e+00	0	23	0	267386880	70	4606
2026-01-09 23:27:17.93	30.18	13.91	-52.3	-54.4	14.5	0.00e+00	0	24	0	269484032	70	4678
2026-01-09 23:27:18.93	30.26	14.00	-52.3	-54.3	14.5	0.00e+00	0	23	0	271581184	70	4639
2026-01-09 23:27:19.92	30.35	14.09	-52.3	-54.3	14.5	0.00e+00	0	23	0	272629760	70	4651
2026-01-09 23:27:20.91	30.44	14.19	-52.2	-54.3	14.6	0.00e+00	0	23	0	274726912	70	4601
2026-01-09 23:27:21.92	30.53	14.28	-52.2	-54.2	14.6	0.00e+00	0	23	0	276824064	70	4587
2026-01-09 23:27:22.92	30.62	14.37	-52.2	-54.2	14.6	0.00e+00	0	23	0	278921216	70	4563
2026-01-09 23:27:23.92	30.71	14.47	-52.1	-54.1	14.7	0.00e+00	0	23	0	281018368	70	4504
2026-01-09 23:27:24.92	30.80	14.56	-52.1	-54.1	14.7	0.00e+00	0	24	0	282066944	70	4520
2026-01-09 23:27:25.91	30.89	14.65	-52.0	-54.0	14.7	0.00e+00	0	23	0	284164096	70	4442
2026-01-09 23:27:26.91	30.98	14.75	-52.0	-53.9	14.8	0.00e+00	0	23	0	286261248	70	4433
2026-01-09 23:27:27.90	31.07	14.84	-52.2	-54.2	14.6	0.00e+00	0	23	0	288358400	70	4568
2026-01-09 23:27:28.89	31.17	14.94	-51.9	-53.8	14.7	0.00e+00	0	23	0	289406976	70	4378
2026-01-09 23:27:29.89	31.26	15.03	-52.0	-54.0	14.7	0.00e+00	0	23	0	291504128	70	4480
2026-01-09 23:27:30.89	31.35	15.13	-51.9	-53.8	14.8	0.00e+00	0	24	0	293601280	70	4367
2026-01-09 23:27:31.89	31.45	15.22	-52.1	-54.1	14.7	0.00e+00	0	23	0	295698432	70	4516
2026-01-09 23:27:32.89	31.55	15.32	-52.1	-54.0	14.7	0.00e+00	0	23	0	297795584	70	4489
2026-01-09 23:27:33.88	31.64	15.41	-52.1	-54.1	14.7	0.00e+00	0	23	0	298844160	70	4501
2026-01-09 23:27:34.88	31.74	15.51	-52.0	-53.9	14.8	0.00e+00	0	24	0	300941312	70	4434
2026-01-09 23:27:35.88	31.83	15.61	-51.9	-53.8	14.8	0.00e+00	0	23	0	303038464	70	4390
2026-01-09 23:27:36.89	31.93	15.71	-51.9	-53.9	14.8	0.00e+00	0	23	0	305135616	70	4393
2026-01-09 23:27:37.88	32.03	15.80	-51.8	-53.7	14.9	0.00e+00	0	24	0	306184192	70	4307
2026-01-09 23:27:38.88	32.13	15.90	-51.7	-53.5	15.0	0.00e+00	0	24	0	308281344	70	4240
2026-01-09 23:27:39.88	32.23	16.00	-51.9	-53.7	14.9	0.00e+00	0	23	0	310378496	70	4340
2026-01-09 23:27:40.88	32.33	16.10	-51.8	-53.7	14.9	0.00e+00	0	24	0	312475648	70	4309
2026-01-09 23:27:41.88	32.43	16.20	-51.6	-53.4	14.9	0.00e+00	0	23	0	314572800	69	4425
2026-01-09 23:27:42.87	32.53	16.29	-51.6	-53.4	14.9	0.00e+00	0	24	0	315621376	69	4432
2026-01-09 23:27:43.87	32.63	16.39	-51.5	-53.3	14.9	0.00e+00	0	24	0	317718528	69	4381
2026-01-09 23:27:44.87	32.74	16.49	-51.6	-53.4	14.9	0.00e+00	0	23	0	319815680	69	4405
2026-01-09 23:27:45.87	32.84	16.59	-51.7	-53.6	14.8	0.00e+00	0	23	0	321912832	69	4508
2026-01-09 23:27:46.88	32.94	16.70	-51.9	-53.8	14.7	0.00e+00	0	24	0	324009984	69	4650
2026-01-09 23:27:47.88	33.05	16.80	-51.7	-53.5	14.8	0.00e+00	0	23	0	325058560	69	4470
2026-01-09 23:27:48.88	33.15	16.90	-51.8	-53.7	14.7	0.00e+00	0	23	0	327155712	69	4580
2026-01-09 23:27:49.88	33.26	17.00	-52.0	-54.0	14.6	0.00e+00	0	23	0	329252864	69	4737
2026-01-09 23:27:50.87	33.37	17.10	-52.0	-53.9	14.6	0.00e+00	0	24	0	331350016	69	4687
2026-01-09 23:27:51.87	33.47	17.20	-52.3	-54.4	14.4	0.00e+00	0	24	0	333447168	69	4969
2026-01-09 23:27:52.87	33.58	17.31	-52.2	-54.3	14.5	0.00e+00	0	23	0	334495744	69	4880
2026-01-09 23:27:53.86	33.69	17.41	-52.1	-54.1	14.7	0.00e+00	0	23	0	336592896	70	4518
2026-01-09 23:27:54.85	33.80	17.51	-52.4	-54.4	14.5	0.00e+00	0	23	0	338690048	70	4681
2026-01-09 23:27:55.85	33.91	17.61	-52.5	-54.6	14.4	0.00e+00	0	24	0	340787200	70	4764
2026-01-09 23:27:56.85	34.02	17.72	-52.3	-54.3	14.6	0.00e+00	0	23	0	341835776	70	4623
2026-01-09 23:27:57.84	34.13	17.82	-52.4	-54.4	14.5	0.00e+00	0	23	0	343932928	70	4702
2026-01-09 23:27:58.84	34.24	17.92	-52.2	-54.2	14.6	0.00e+00	0	23	0	346030080	70	4560
2026-01-09 23:27:59.84	34.36	18.03	-52.4	-54.4	14.5	0.00e+00	0	23	0	348127232	70	4700
2026-01-09 23:28:00.84	34.47	18.14	-52.3	-54.3	14.6	0.00e+00	0	24	0	350224384	70	4612
2026-01-09 23:28:01.84	34.59	18.24	-52.3	-54.4	14.6	0.00e+00	0	24	0	351272960	70	4678
2026-01-09 23:28:02.84	34.70	18.35	-52.3	-54.3	14.6	0.00e+00	0	23	0	353370112	70	4618
2026-01-09 23:28:03.84	34.82	18.45	-52.5	-54.6	14.4	0.00e+00	0	23	0	355467264	70	4813
2026-01-09 23:28:04.83	34.93	18.56	-52.6	-54.8	14.2	0.00e+00	0	23	0	357564416	70	4884
2026-01-09 23:28:05.83	35.05	18.67	-52.4	-54.5	14.5	0.00e+00	0	23	0	358612992	70	4715
2026-01-09 23:28:06.82	35.17	18.77	-52.4	-54.4	14.5	0.00e+00	0	23	0	360710144	70	4702
2026-01-09 23:28:07.82	35.29	18.88	-52.4	-54.5	14.5	0.00e+00	0	24	0	362807296	70	4723
2026-01-09 23:28:08.82	35.41	18.99	-52.5	-54.7	14.4	0.00e+00	0	24	0	364904448	70	4820
2026-01-09 23:28:09.82	35.53	19.10	-52.5	-54.6	14.4	0.00e+00	0	24	0	367001600	70	4791
2026-01-09 23:28:10.83	35.65	19.21	-52.7	-55.0	14.2	0.00e+00	0	23	0	368050176	70	4985
2026-01-09 23:28:11.82	35.77	19.32	-52.6	-54.8	14.3	0.00e+00	0	24	0	370147328	70	4887
2026-01-09 23:28:12.82	35.90	19.42	-52.5	-54.7	14.4	0.00e+00	0	24	0	372244480	70	4821
2026-01-09 23:28:13.82	36.02	19.53	-52.5	-54.6	14.4	0.00e+00	0	24	0	374341632	70	4781
2026-01-09 23:28:14.81	36.15	19.64	-52.6	-54.7	14.4	0.00e+00	0	24	0	376438784	70	4865
2026-01-09 23:28:15.81	36.27	19.75	-52.6	-54.8	14.3	0.00e+00	0	24	0	377487360	70	4871
2026-01-09 23:28:16.82	36.40	19.87	-52.6	-54.7	14.4	0.00e+00	0	24	0	379584512	70	4865
2026-01-09 23:28:17.81	36.53	19.98	-53.0	-55.3	14.2	0.00e+00	0	24	0	381681664	71	4872
2026-01-09 23:28:18.81	36.66	20.09	-52.6	-54.8	14.5	0.00e+00	0	24	0	383778816	71	4599
2026-01-09 23:28:19.80	36.79	20.20	-52.7	-54.9	14.4	0.00e+00	0	24	0	384827392	71	4680
2026-01-09 23:28:20.80	36.92	20.31	-52.7	-54.8	14.4	0.00e+00	0	24	0	386924544	71	4633
2026-01-09 23:28:21.80	37.05	20.42	-52.6	-54.7	14.5	0.00e+00	0	24	0	389021696	71	4557
2026-01-09 23:28:22.79	37.18	20.54	-52.7	-54.8	14.5	0.00e+00	0	24	0	391118848	71	4634
2026-01-09 23:28:23.80	37.31	20.65	-52.7	-54.9	14.4	0.00e+00	0	24	0	393216000	71	4662
2026-01-09 23:28:24.80	37.45	20.77	-52.8	-55.0	14.4	0.00e+00	0	24	0	394264576	71	4731
2026-01-09 23:28:25.79	37.58	20.88	-52.8	-55.0	14.3	0.00e+00	0	23	0	396361728	71	4756
2026-01-09 23:28:26.79	37.72	20.99	-52.9	-55.1	14.3	0.00e+00	0	24	0	398458880	71	4793
2026-01-09 23:28:27.78	37.86	21.11	-52.8	-55.0	14.4	0.00e+00	0	23	0	400556032	71	4736
2026-01-09 23:28:28.77	37.99	21.22	-52.9	-55.2	14.3	0.00e+00	0	24	0	401604608	71	4815
2026-01-09 23:28:29.77	38.13	21.34	-53.0	-55.2	14.2	0.00e+00	0	24	0	403701760	71	4862
2026-01-09 23:28:30.76	38.27	21.45	-52.8	-55.1	14.3	0.00e+00	0	23	0	405798912	71	4766
2026-01-09 23:28:31.77	38.41	21.57	-52.6	-54.8	14.5	0.00e+00	0	24	0	407896064	71	4610
2026-01-09 23:28:32.77	38.56	21.69	-52.6	-54.7	14.5	0.00e+00	0	24	0	409993216	71	4595
2026-01-09 23:28:33.77	38.70	21.80	-52.6	-54.7	14.6	0.00e+00	0	23	0	411041792	71	4549
2026-01-09 23:28:34.77	38.84	21.92	-52.3	-54.3	14.8	0.00e+00	0	23	0	413138944	71	4361
2026-01-09 23:28:35.77	38.99	22.04	-52.4	-54.4	14.7	0.00e+00	0	24	0	415236096	71	4402
2026-01-09 23:28:36.76	39.14	22.16	-52.2	-54.2	14.8	0.00e+00	0	23	0	417333248	71	4307
2026-01-09 23:28:37.76	39.28	22.28	-52.0	-53.9	14.8	0.00e+00	0	24	0	419430400	70	4435
2026-01-09 23:28:38.76	39.43	22.39	-51.9	-53.7	14.9	0.00e+00	0	24	0	420478976	70	4333
2026-01-09 23:28:39.75	39.58	22.51	-51.8	-53.6	15.0	0.00e+00	0	24	0	422576128	70	4291
2026-01-09 23:28:40.76	39.73	22.63	-51.6	-53.5	14.9	0.00e+00	0	24	0	424673280	69	4450
2026-01-09 23:28:41.76	39.89	22.75	-51.6	-53.4	15.0	0.00e+00	0	24	0	426770432	69	4399
2026-01-09 23:28:42.76	40.04	22.87	-51.5	-53.3	15.0	0.00e+00	0	23	0	428867584	69	4352
2026-01-09 23:28:43.76	40.19	23.00	-51.5	-53.3	14.9	0.00e+00	0	23	0	429916160	69	4376
2026-01-09 23:28:44.76	40.35	23.12	-51.5	-53.2	15.1	0.00e+00	0	24	0	432013312	69	4333
2026-01-09 23:28:45.76	40.51	23.24	-51.5	-53.2	15.0	0.00e+00	0	24	0	434110464	69	4339
2026-01-09 23:28:46.76	40.66	23.36	-51.4	-53.2	15.0	0.00e+00	0	24	0	436207616	69	4316
2026-01-09 23:28:47.76	40.82	23.48	-51.5	-53.3	15.0	0.00e+00	0	23	0	437256192	69	4342
2026-01-09 23:28:48.76	40.98	23.61	-51.7	-53.6	14.8	0.00e+00	0	23	0	439353344	69	4503
2026-01-09 23:28:49.76	41.15	23.73	-51.8	-53.7	14.8	0.00e+00	0	23	0	441450496	69	4566
2026-01-09 23:28:50.75	41.31	23.85	-52.2	-54.2	14.6	0.00e+00	0	23	0	443547648	69	4822
2026-01-09 23:28:51.75	41.47	23.97	-52.1	-54.1	14.5	0.00e+00	0	23	0	445644800	69	4808
2026-01-09 23:28:52.75	41.64	24.10	-52.1	-54.1	14.6	0.00e+00	0	23	0	446693376	69	4771
2026-01-09 23:28:53.75	41.80	24.22	-52.0	-53.9	14.6	0.00e+00	0	24	0	448790528	69	4703
2026-01-09 23:28:54.75	41.97	24.35	-52.0	-53.9	14.7	0.00e+00	0	24	0	450887680	69	4661
2026-01-09 23:28:55.76	42.14	24.47	-52.0	-53.9	14.7	0.00e+00	0	23	0	452984832	69	4673
2026-01-09 23:28:56.75	42.31	24.60	-51.9	-53.7	14.8	0.00e+00	0	24	0	455081984	69	4583
2026-01-09 23:28:57.76	42.49	24.73	-51.7	-53.5	14.9	0.00e+00	0	24	0	456130560	69	4442
2026-01-09 23:28:58.76	42.66	24.85	-51.5	-53.3	15.0	0.00e+00	0	24	0	458227712	69	4349
2026-01-09 23:28:59.76	42.83	24.98	-51.5	-53.2	15.0	0.00e+00	0	24	0	460324864	69	4328
2026-01-09 23:29:00.76	43.01	25.11	-51.8	-53.6	14.8	0.00e+00	0	24	0	462422016	69	4510
2026-01-09 23:29:01.76	43.19	25.23	-51.7	-53.5	14.9	0.00e+00	0	23	0	464519168	69	4489
2026-01-09 23:29:02.76	43.37	25.36	-52.0	-53.9	14.7	0.00e+00	0	24	0	465567744	69	4652
2026-01-09 23:29:03.76	43.55	25.49	-52.1	-54.1	14.6	0.00e+00	0	23	0	467664896	69	4779
2026-01-09 23:29:04.75	43.73	25.61	-52.3	-54.3	14.6	0.00e+00	0	24	0	469762048	70	4634
2026-01-09 23:29:05.75	43.91	25.74	-52.5	-54.5	14.5	0.00e+00	0	23	0	471859200	70	4759
2026-01-09 23:29:06.75	44.09	25.87	-52.5	-54.5	14.5	0.00e+00	0	23	0	472907776	70	4746
2026-01-09 23:29:07.75	44.28	26.00	-52.4	-54.4	14.6	0.00e+00	0	23	0	475004928	70	4693
2026-01-09 23:29:08.75	44.47	26.13	-52.3	-54.3	14.6	0.00e+00	0	23	0	477102080	70	4620
2026-01-09 23:29:09.75	44.66	26.26	-52.4	-54.3	14.6	0.00e+00	0	24	0	479199232	70	4651
2026-01-09 23:29:10.75	44.85	26.39	-52.4	-54.5	14.5	0.00e+00	0	23	0	481296384	70	4715
2026-01-09 23:29:11.74	45.04	26.52	-52.3	-54.3	14.6	0.00e+00	0	24	0	482344960	70	4634
2026-01-09 23:29:12.74	45.23	26.65	-52.2	-54.2	14.7	0.00e+00	0	23	0	484442112	70	4550
2026-01-09 23:29:13.74	45.43	26.78	-52.4	-54.4	14.5	0.00e+00	0	24	0	486539264	70	4704
2026-01-09 23:29:14.75	45.62	26.91	-52.1	-54.1	14.8	0.00e+00	0	24	0	488636416	70	4502
2026-01-09 23:29:15.75	45.82	27.05	-52.5	-54.6	14.5	0.00e+00	0	24	0	490733568	70	4773
2026-01-09 23:29:16.74	46.02	27.18	-52.7	-54.8	14.3	0.00e+00	0	24	0	491782144	70	4919
2026-01-09 23:29:17.74	46.22	27.31	-52.8	-55.0	14.4	0.00e+00	0	23	0	493879296	71	4714
2026-01-09 23:29:18.74	46.43	27.44	-52.8	-55.0	14.4	0.00e+00	0	23	0	495976448	71	4730
2026-01-09 23:29:19.73	46.63	27.57	-52.9	-55.1	14.3	0.00e+00	0	23	0	498073600	71	4764
2026-01-09 23:29:20.73	46.84	27.71	-53.0	-55.2	14.3	0.00e+00	0	24	0	499122176	71	4821
2026-01-09 23:29:21.73	47.04	27.84	-52.8	-54.9	14.4	0.00e+00	0	23	0	501219328	71	4692
2026-01-09 23:29:22.73	47.25	27.97	-52.8	-54.9	14.5	0.00e+00	0	24	0	503316480	71	4664
2026-01-09 23:29:23.73	47.46	28.11	-52.5	-54.5	14.7	0.00e+00	0	23	0	505413632	71	4481
2026-01-09 23:29:24.73	47.68	28.24	-52.2	-54.0	14.8	0.00e+00	0	23	0	507510784	70	4491
2026-01-09 23:29:25.73	47.89	28.37	-51.9	-53.7	15.0	0.00e+00	0	24	0	508559360	70	4305
2026-01-09 23:29:26.74	48.11	28.51	-52.0	-53.9	14.9	0.00e+00	0	23	0	510656512	70	4396
2026-01-09 23:29:27.74	48.33	28.64	-52.2	-54.1	14.8	0.00e+00	0	23	0	512753664	70	4539
2026-01-09 23:29:28.74	48.55	28.78	-52.4	-54.4	14.6	0.00e+00	0	23	0	514850816	70	4682
2026-01-09 23:29:29.73	48.77	28.91	-52.7	-54.8	14.3	0.00e+00	0	24	0	515899392	70	4922
2026-01-09 23:29:30.72	48.99	29.05	-52.8	-55.0	14.3	0.00e+00	0	23	0	517996544	70	5010
2026-01-09 23:29:31.72	49.22	29.18	-52.8	-54.9	14.5	0.00e+00	0	23	0	520093696	71	4670
2026-01-09 23:29:32.72	49.45	29.32	-52.7	-54.8	14.5	0.00e+00	0	24	0	522190848	71	4641
2026-01-09 23:29:33.72	49.68	29.45	-52.6	-54.7	14.6	0.00e+00	0	24	0	524288000	71	4547
2026-01-09 23:29:34.72	49.91	29.59	-52.4	-54.4	14.8	0.00e+00	0	23	0	525336576	71	4418
2026-01-09 23:29:35.72	50.14	29.73	-52.4	-54.4	14.8	0.00e+00	0	24	0	527433728	71	4413
2026-01-09 23:29:36.72	50.38	29.86	-52.5	-54.5	14.7	0.00e+00	0	23	0	529530880	71	4463
2026-01-09 23:29:37.71	50.61	30.00	-52.7	-54.7	14.6	0.00e+00	0	23	0	531628032	71	4588
2026-01-09 23:29:38.71	50.85	30.13	-52.7	-54.8	14.5	0.00e+00	0	24	0	533725184	71	4650
2026-01-09 23:29:39.71	51.09	30.27	-52.9	-55.1	14.4	0.00e+00	0	24	0	534773760	71	4796
2026-01-09 23:29:40.70	51.33	30.41	-53.0	-55.3	14.2	0.00e+00	0	23	0	536870912	71	4880
2026-01-09 23:29:41.68	51.57	30.54	-53.2	-55.5	14.1	0.00e+00	0	23	0	538968064	71	5017
2026-01-09 23:29:42.69	51.82	30.68	-53.3	-55.6	14.1	0.00e+00	0	23	0	541065216	71	5068
2026-01-09 23:29:43.69	52.07	30.82	-52.9	-55.0	14.4	0.00e+00	0	24	0	542113792	71	4731
2026-01-09 23:29:44.69	52.33	30.95	-52.8	-54.9	14.5	0.00e+00	0	24	0	544210944	71	4677
2026-01-09 23:29:45.69	52.58	31.09	-52.6	-54.7	14.6	0.00e+00	0	23	0	546308096	71	4560
2026-01-09 23:29:46.69	52.84	31.23	-52.6	-54.7	14.6	0.00e+00	0	23	0	548405248	71	4570
2026-01-09 23:29:47.69	53.09	31.36	-52.9	-55.0	14.4	0.00e+00	0	23	0	550502400	71	4740
2026-01-09 23:29:48.70	53.36	31.50	-53.0	-55.1	14.3	0.00e+00	0	23	0	551550976	71	4788
2026-01-09 23:29:49.69	53.62	31.64	-53.0	-55.1	14.4	0.00e+00	0	23	0	553648128	71	4805
2026-01-09 23:29:50.69	53.88	31.78	-53.2	-55.4	14.2	0.00e+00	0	23	0	555745280	71	4934
2026-01-09 23:29:51.69	54.15	31.91	-53.7	-56.1	13.9	0.00e+00	0	23	0	557842432	72	5062
2026-01-09 23:29:52.69	54.42	32.05	-54.1	-56.7	13.8	0.00e+00	0	24	0	559939584	73	5109
2026-01-09 23:29:53.70	54.69	32.19	-54.9	-58.0	13.1	0.00e+00	0	23	0	560988160	74	5614
2026-01-09 23:29:54.69	54.96	32.32	-55.2	-58.5	12.7	7.00e-07	0	23	0	563085312	75	5650
2026-01-09 23:29:55.70	55.24	32.46	-55.8	-59.5	12.1	3.00e-06	0	23	0	565182464	76	5984
2026-01-09 23:29:56.72	55.52	32.60	-55.9	-59.7	12.1	6.10e-06	0	24	0	567279616	77	5757
2026-01-09 23:29:57.72	55.80	32.74	-55.7	-59.4	12.3	3.00e-06	0	23	0	569376768	77	5572
2026-01-09 23:29:58.73	56.09	32.88	-54.8	-57.7	13.4	0.00e+00	0	23	0	570425344	76	4867
2026-01-09 23:29:59.71	56.37	33.01	-54.6	-57.4	13.5	0.00e+00	0	24	0	572522496	75	4931
2026-01-09 23:30:00.71	56.65	33.15	-54.5	-57.3	13.6	0.00e+00	0	24	0	574619648	75	4917
2026-01-09 23:30:01.71	56.94	33.28	-54.7	-57.6	13.5	0.00e+00	0	23	0	576716800	75	5050
2026-01-09 23:30:02.70	57.23	33.42	-54.7	-57.6	13.3	0.00e+00	0	23	0	577765376	75	5062
2026-01-09 23:30:03.70	57.53	33.55	-55.0	-58.1	13.1	0.00e+00	0	23	0	579862528	75	5362
2026-01-09 23:30:04.70	57.83	33.69	-55.3	-58.7	12.5	0.00e+00	0	23	0	581959680	75	5726
2026-01-09 23:30:05.70	58.12	33.82	-55.2	-58.4	12.7	7.00e-07	0	23	0	584056832	75	5561
2026-01-09 23:30:06.69	58.42	33.96	-54.7	-57.7	13.4	0.00e+00	0	24	0	586153984	75	5115
2026-01-09 23:30:07.69	58.73	34.09	-54.7	-57.5	13.5	0.00e+00	0	24	0	587202560	75	5030
2026-01-09 23:30:08.68	59.03	34.23	-54.6	-57.5	13.5	0.00e+00	0	24	0	589299712	75	4988
2026-01-09 23:30:09.68	59.34	34.36	-54.8	-57.7	13.3	0.00e+00	0	24	0	591396864	75	5139
2026-01-09 23:30:10.68	59.65	34.49	-54.6	-57.5	13.4	0.00e+00	0	24	0	593494016	75	5032
2026-01-09 23:30:11.68	59.97	34.63	-54.6	-57.4	13.6	0.00e+00	0	24	0	594542592	75	4958
2026-01-09 23:30:12.68	60.28	34.76	-54.6	-57.4	13.6	0.00e+00	0	24	0	596639744	75	4940
2026-01-09 23:30:13.68	60.60	34.89	-54.7	-57.6	13.4	0.00e+00	0	24	0	598736896	75	5056
2026-01-09 23:30:14.68	60.92	35.03	-55.0	-58.1	13.0	0.00e+00	0	24	0	600834048	75	5382
2026-01-09 23:30:15.68	61.25	35.16	-55.4	-58.8	12.6	0.00e+00	0	23	0	602931200	75	5824
2026-01-09 23:30:16.68	61.58	35.29	-55.2	-58.3	13.0	0.00e+00	0	24	0	603979776	76	5191
2026-01-09 23:30:17.67	61.90	35.42	-55.1	-58.2	13.0	0.00e+00	0	24	0	606076928	76	5116
2026-01-09 23:30:18.68	62.24	35.55	-55.0	-58.0	13.3	0.00e+00	0	24	0	608174080	76	5012
2026-01-09 23:30:19.68	62.57	35.68	-54.6	-57.4	13.5	0.00e+00	0	24	0	610271232	75	4948
2026-01-09 23:30:20.68	62.91	35.81	-54.6	-57.4	13.5	0.00e+00	0	24	0	612368384	75	4957
2026-01-09 23:30:21.68	63.25	35.94	-54.7	-57.6	13.4	0.00e+00	0	24	0	613416960	75	5051
2026-01-09 23:30:22.69	63.60	36.07	-54.9	-58.0	13.1	0.00e+00	0	23	0	615514112	75	5300
2026-01-09 23:30:23.69	63.94	36.20	-55.0	-58.1	13.0	0.00e+00	0	24	0	617611264	75	5393
2026-01-09 23:30:24.68	64.29	36.32	-55.0	-58.1	13.0	0.00e+00	0	23	0	619708416	75	5394
2026-01-09 23:30:25.68	64.64	36.45	-55.3	-58.6	12.6	0.00e+00	0	24	0	621805568	75	5684
2026-01-09 23:30:26.68	64.99	36.57	-55.2	-58.4	12.9	0.00e+00	0	24	0	622854144	75	5573
2026-01-09 23:30:27.68	65.35	36.70	-54.8	-57.7	13.2	7.00e-07	0	24	0	624951296	75	5155
2026-01-09 23:30:28.68	65.71	36.82	-54.5	-57.2	13.8	0.00e+00	0	24	0	627048448	75	4843
2026-01-09 23:30:29.67	66.07	36.94	-54.1	-56.7	13.8	0.00e+00	0	24	0	629145600	74	4839
2026-01-09 23:30:30.67	66.43	37.07	-54.2	-56.9	13.8	0.00e+00	0	24	0	630194176	74	4928
2026-01-09 23:30:31.67	66.80	37.19	-54.7	-57.5	13.4	0.00e+00	0	24	0	632291328	74	5338
2026-01-09 23:30:32.67	67.17	37.31	-54.6	-57.5	13.3	0.00e+00	0	23	0	634388480	74	5293
2026-01-09 23:30:33.67	67.54	37.43	-55.3	-58.7	12.6	0.00e+00	0	24	0	636485632	75	5778
2026-01-09 23:30:34.66	67.91	37.55	-55.2	-58.4	12.8	0.00e+00	0	24	0	638582784	75	5585
2026-01-09 23:30:35.66	68.29	37.66	-55.1	-58.2	13.1	0.00e+00	0	24	0	639631360	75	5440
2026-01-09 23:30:36.64	68.66	37.78	-54.0	-56.5	13.9	0.00e+00	0	24	0	641728512	74	4734
2026-01-09 23:30:37.64	69.05	37.90	-53.7	-56.0	14.3	0.00e+00	0	24	0	643825664	74	4459
2026-01-09 23:30:38.65	69.44	38.01	-53.6	-55.9	14.2	0.00e+00	0	23	0	645922816	73	4689
2026-01-09 23:30:39.65	69.82	38.13	-53.6	-56.0	14.2	0.00e+00	0	24	0	646971392	73	4721
2026-01-09 23:30:40.64	70.21	38.24	-54.0	-56.6	13.8	0.00e+00	0	24	0	649068544	73	5045
2026-01-09 23:30:41.64	70.61	38.35	-54.3	-57.1	13.5	0.00e+00	0	24	0	651165696	73	5345
2026-01-09 23:30:42.64	71.00	38.46	-54.5	-57.2	13.5	0.00e+00	0	24	0	653262848	74	5150
2026-01-09 23:30:43.64	71.40	38.57	-54.7	-57.6	13.2	0.00e+00	0	23	0	655360000	74	5391
2026-01-09 23:30:44.64	71.80	38.68	-54.1	-56.7	13.8	0.00e+00	0	24	0	656408576	74	4853
2026-01-09 23:30:45.64	72.21	38.79	-53.8	-56.3	14.1	0.00e+00	0	24	0	658505728	74	4611
2026-01-09 23:30:46.64	72.62	38.89	-53.6	-55.9	14.2	0.00e+00	0	24	0	660602880	73	4687
2026-01-09 23:30:47.64	73.03	39.00	-53.0	-55.2	14.5	0.00e+00	0	23	0	662700032	72	4548
2026-01-09 23:30:48.64	73.44	39.10	-53.2	-55.3	14.4	0.00e+00	0	24	0	664797184	72	4642
2026-01-09 23:30:49.64	73.85	39.20	-53.7	-56.2	13.9	0.00e+00	0	24	0	665845760	72	5112
2026-01-09 23:30:50.63	74.27	39.30	-54.1	-56.6	13.7	0.00e+00	0	24	0	667942912	73	5091
2026-01-09 23:30:51.63	74.69	39.40	-54.2	-56.8	13.6	0.00e+00	0	24	0	670040064	73	5196
2026-01-09 23:30:52.62	75.11	39.50	-54.1	-56.7	13.7	0.00e+00	0	24	0	672137216	73	5137
2026-01-09 23:30:53.62	75.53	39.60	-53.5	-55.8	14.3	0.00e+00	0	23	0	674234368	73	4642
2026-01-09 23:30:54.62	75.96	39.69	-53.6	-55.9	14.2	0.00e+00	0	23	0	675282944	73	4691
2026-01-09 23:30:55.62	76.39	39.78	-53.5	-55.8	14.3	0.00e+00	0	24	0	677380096	73	4612
2026-01-09 23:30:56.62	76.82	39.88	-53.1	-55.2	14.5	0.00e+00	0	24	0	679477248	72	4575
2026-01-09 23:30:57.63	77.26	39.97	-52.8	-54.8	14.7	0.00e+00	0	24	0	681574400	72	4362
2026-01-09 23:30:58.63	77.70	40.06	-53.0	-55.2	14.3	0.00e+00	0	24	0	682622976	71	4831
2026-01-09 23:30:59.64	78.14	40.15	-54.2	-56.8	13.7	0.00e+00	0	24	0	684720128	73	5190
2026-01-09 23:31:00.64	78.58	40.23	-54.9	-57.9	13.2	0.00e+00	0	24	0	686817280	75	5241
2026-01-09 23:31:01.64	79.03	40.31	-54.9	-58.0	13.2	0.00e+00	0	24	0	688914432	75	5295
2026-01-09 23:31:02.63	79.47	40.40	-54.4	-57.0	13.8	0.00e+00	0	24	0	691011584	75	4755
2026-01-09 23:31:03.63	79.92	40.48	-54.1	-56.6	13.9	0.00e+00	0	24	0	692060160	74	4812
2026-01-09 23:31:04.63	80.37	40.56	-54.2	-56.7	13.8	0.00e+00	0	23	0	694157312	74	4854
2026-01-09 23:31:05.63	80.82	40.63	-54.1	-56.6	13.9	0.00e+00	0	24	0	696254464	74	4777
2026-01-09 23:31:06.62	81.28	40.71	-53.5	-55.7	14.3	0.00e+00	0	24	0	698351616	73	4580
2026-01-09 23:31:07.62	81.73	40.78	-53.5	-55.7	14.3	0.00e+00	0	23	0	700448768	73	4573
2026-01-09 23:31:08.63	82.20	40.85	-54.3	-57.0	13.6	0.00e+00	0	24	0	701497344	73	5290
2026-01-09 23:31:09.62	82.65	40.92	-55.3	-58.7	12.7	0.00e+00	0	23	0	703594496	75	5787
2026-01-09 23:31:10.62	83.12	40.99	-55.7	-59.4	12.2	7.00e-07	0	24	0	705691648	76	5895
2026-01-09 23:31:11.62	83.58	41.05	-55.3	-58.6	12.9	7.00e-07	0	23	0	707788800	76	5360
2026-01-09 23:31:12.62	84.05	41.12	-55.0	-58.0	13.4	0.00e+00	0	24	0	708837376	76	5009
2026-01-09 23:31:13.63	84.52	41.18	-55.2	-58.3	13.2	0.00e+00	0	23	0	710934528	76	5179
2026-01-09 23:31:14.62	84.99	41.24	-55.5	-58.9	12.7	0.00e+00	0	24	0	713031680	76	5543
2026-01-09 23:31:15.62	85.46	41.30	-55.5	-58.9	12.7	0.00e+00	0	23	0	715128832	76	5571
2026-01-09 23:31:16.62	85.94	41.35	-55.5	-58.8	12.8	0.00e+00	0	24	0	717225984	76	5466
2026-01-09 23:31:17.63	86.42	41.41	-55.6	-59.0	12.6	1.50e-06	0	23	0	718274560	76	5604
2026-01-09 23:31:18.63	86.89	41.46	-55.8	-59.4	12.3	7.00e-07	0	24	0	720371712	76	5857
2026-01-09 23:31:19.63	87.37	41.51	-56.0	-59.8	12.1	7.00e-07	0	23	0	722468864	77	5798
2026-01-09 23:31:20.63	87.85	41.55	-56.3	-60.5	11.6	2.05e-05	0	23	0	724566016	77	6291
2026-01-09 23:31:21.63	88.33	41.60	-56.3	-60.5	11.8	3.58e-05	0	24	0	726663168	78	5952
2026-01-09 23:31:22.63	88.82	41.64	-56.1	-59.8	12.1	1.29e-05	0	24	0	727711744	78	5528
2026-01-09 23:31:23.63	89.30	41.68	-55.6	-58.9	12.8	7.00e-07	0	23	0	729808896	77	5249
2026-01-09 23:31:24.64	89.79	41.72	-55.5	-58.8	12.9	0.00e+00	0	24	0	731906048	77	5164
2026-01-09 23:31:25.64	90.28	41.76	-55.8	-59.4	12.5	0.00e+00	0	24	0	734003200	77	5529
2026-01-09 23:31:26.64	90.77	41.79	-55.8	-59.4	12.4	0.00e+00	0	24	0	736100352	77	5536
2026-01-09 23:31:27.63	91.25	41.82	-55.6	-58.9	12.8	7.00e-07	0	23	0	737148928	77	5266
2026-01-09 23:31:28.64	91.74	41.85	-56.1	-60.1	12.0	1.50e-06	0	24	0	739246080	77	6030
2026-01-09 23:31:29.63	92.23	41.88	-56.6	-61.0	11.2	7.01e-05	0	24	0	741343232	78	6346
2026-01-09 23:31:30.63	92.72	41.91	-56.7	-61.5	10.7	5.58e-04	0	23	0	743440384	78	6667
2026-01-09 23:31:31.63	93.21	41.93	-56.5	-60.9	11.3	1.72e-04	0	24	0	744488960	78	6269
2026-01-09 23:31:32.63	93.70	41.95	-55.6	-59.0	12.8	2.13e-05	0	24	0	746586112	77	5291
2026-01-09 23:31:33.63	94.20	41.97	-55.0	-57.9	13.4	0.00e+00	0	24	0	748683264	76	4936
2026-01-09 23:31:34.62	94.69	41.98	-54.7	-57.5	13.5	0.00e+00	0	24	0	750780416	75	5008
2026-01-09 23:31:35.62	95.18	42.00	-55.2	-58.5	12.8	0.00e+00	0	24	0	752877568	75	5606
2026-01-09 23:31:36.61	95.67	42.01	-55.4	-58.8	12.6	7.00e-07	0	24	0	753926144	75	5806
2026-01-09 23:31:37.61	96.16	42.02	-55.4	-58.6	13.0	0.00e+00	0	24	0	756023296	76	5377
2026-01-09 23:31:38.61	96.66	42.02	-54.4	-57.0	13.8	0.00e+00	0	23	0	758120448	75	4757
2026-01-09 23:31:39.61	97.15	42.03	-53.9	-56.2	14.1	0.00e+00	0	24	0	760217600	74	4583
2026-01-09 23:31:40.61	97.65	42.03	-53.8	-56.1	14.3	0.00e+00	0	24	0	761266176	74	4522
2026-01-09 23:31:41.60	98.14	42.03	-54.3	-57.0	13.7	0.00e+00	0	24	0	763363328	74	4988
2026-01-09 23:31:42.60	98.63	42.02	-54.8	-57.8	13.1	0.00e+00	0	24	0	765460480	74	5514
2026-01-09 23:31:43.60	99.13	42.02	-54.8	-57.6	13.3	0.00e+00	0	24	0	767557632	75	5099
2026-01-09 23:31:44.60	99.62	42.01	-54.4	-57.1	13.8	0.00e+00	0	24	0	769654784	75	4763
2026-01-09 23:31:45.60	100.12	42.00	-54.2	-56.8	13.8	0.00e+00	0	24	0	770703360	74	4902
2026-01-09 23:31:46.60	100.61	41.99	-54.7	-57.7	13.3	0.00e+00	0	24	0	772800512	74	5405
2026-01-09 23:31:47.60	101.11	41.98	-55.1	-58.3	13.0	0.00e+00	0	24	0	774897664	75	5496
2026-01-09 23:31:48.59	101.60	41.96	-54.5	-57.2	13.7	0.00e+00	0	24	0	776994816	75	4844
2026-01-09 23:31:49.59	102.09	41.94	-53.4	-55.6	14.4	0.00e+00	0	24	0	779091968	73	4542
2026-01-09 23:31:50.59	102.58	41.92	-52.6	-54.6	14.7	0.00e+00	0	24	0	780140544	71	4511
2026-01-09 23:31:51.58	103.07	41.89	-53.9	-56.4	13.8	0.00e+00	0	24	0	782237696	73	4969
2026-01-09 23:31:52.58	103.56	41.87	-55.7	-59.4	12.3	0.00e+00	0	24	0	784334848	76	5898
2026-01-09 23:31:53.58	104.05	41.84	-56.0	-59.9	11.9	2.67e-05	0	24	0	786432000	77	5918
2026-01-09 23:31:54.58	104.54	41.81	-55.1	-58.1	13.3	3.00e-06	0	24	0	787480576	76	5062
2026-01-09 23:31:55.58	105.03	41.78	-54.1	-56.5	14.0	0.00e+00	0	24	0	789577728	74	4729
2026-01-09 23:31:56.58	105.51	41.74	-54.3	-56.9	13.8	0.00e+00	0	23	0	791674880	74	4934
2026-01-09 23:31:57.58	106.00	41.70	-54.8	-57.8	13.1	0.00e+00	0	24	0	793772032	74	5486
2026-01-09 23:31:58.58	106.48	41.66	-54.7	-57.6	13.4	0.00e+00	0	24	0	795869184	75	5049
2026-01-09 23:31:59.59	106.97	41.62	-53.9	-56.2	14.2	0.00e+00	0	24	0	796917760	74	4596
2026-01-09 23:32:00.58	107.45	41.58	-54.0	-56.4	13.9	0.00e+00	0	24	0	799014912	73	4961
2026-01-09 23:32:01.58	107.93	41.53	-54.2	-56.8	13.6	0.00e+00	0	24	0	801112064	73	5215
2026-01-09 23:32:02.58	108.41	41.48	-55.1	-58.2	13.1	0.00e+00	0	24	0	803209216	75	5431
2026-01-09 23:32:03.58	108.89	41.43	-55.1	-58.3	13.1	0.00e+00	0	24	0	805306368	75	5498
2026-01-09 23:32:04.58	109.37	41.38	-54.6	-57.3	13.6	0.00e+00	0	24	0	806354944	75	4917
2026-01-09 23:32:05.58	109.84	41.33	-54.2	-56.7	14.0	0.00e+00	0	23	0	808452096	75	4566
2026-01-09 23:32:06.58	110.32	41.27	-54.7	-57.6	13.2	0.00e+00	0	24	0	810549248	74	5384
2026-01-09 23:32:07.58	110.79	41.21	-56.0	-59.8	12.2	0.00e+00	0	24	0	812646400	77	5805
2026-01-09 23:32:08.58	111.26	41.15	-56.5	-60.8	11.2	9.90e-06	0	24	0	814743552	78	6200
2026-01-09 23:32:09.58	111.73	41.09	-56.1	-60.1	12.0	1.14e-05	0	24	0	815792128	78	5675
2026-01-09 23:32:10.57	112.19	41.02	-55.2	-58.3	13.2	7.00e-07	0	23	0	817889280	77	4901
2026-01-09 23:32:11.56	112.65	40.96	-54.5	-57.2	13.7	0.00e+00	0	24	0	819986432	75	4866
2026-01-09 23:32:12.56	113.11	40.89	-54.2	-56.7	13.9	0.00e+00	0	24	0	822083584	74	4860
2026-01-09 23:32:13.56	113.58	40.82	-53.7	-56.1	14.2	0.00e+00	0	24	0	823132160	74	4516
2026-01-09 23:32:14.56	114.03	40.75	-53.3	-55.5	14.5	0.00e+00	0	24	0	825229312	73	4467
2026-01-09 23:32:15.56	114.49	40.67	-52.7	-54.7	14.6	0.00e+00	0	24	0	827326464	71	4558
2026-01-09 23:32:16.56	114.95	40.60	-53.0	-55.1	14.5	0.00e+00	0	24	0	829423616	71	4800
2026-01-09 23:32:17.56	115.40	40.52	-53.4	-55.7	14.2	0.00e+00	0	24	0	831520768	72	4852
2026-01-09 23:32:18.55	115.85	40.44	-53.4	-55.7	14.2	0.00e+00	0	24	0	832569344	72	4841
2026-01-09 23:32:19.55	116.29	40.36	-53.4	-55.7	14.2	0.00e+00	0	24	0	834666496	72	4826
2026-01-09 23:32:20.55	116.74	40.27	-53.8	-56.3	13.8	0.00e+00	0	24	0	836763648	72	5197
2026-01-09 23:32:21.55	117.18	40.19	-53.5	-55.9	14.1	0.00e+00	0	24	0	838860800	72	4936
2026-01-09 23:32:22.55	117.63	40.10	-52.7	-54.7	14.8	0.00e+00	0	24	0	839909376	72	4328
2026-01-09 23:32:23.54	118.06	40.02	-52.1	-54.0	14.8	0.00e+00	0	24	0	842006528	70	4458
2026-01-09 23:32:24.53	118.49	39.93	-52.0	-53.8	15.0	0.00e+00	0	24	0	844103680	70	4379
2026-01-09 23:32:25.53	118.93	39.84	-52.3	-54.3	14.7	0.00e+00	0	23	0	846200832	70	4616
2026-01-09 23:32:26.53	119.36	39.74	-52.3	-54.2	14.7	0.00e+00	0	24	0	848297984	70	4564
2026-01-09 23:32:27.53	119.79	39.65	-52.0	-53.8	15.0	0.00e+00	0	24	0	849346560	70	4346
2026-01-09 23:32:28.53	120.22	39.55	-51.0	-52.6	15.2	0.00e+00	0	23	0	851443712	68	4273
2026-01-09 23:32:29.52	120.64	39.46	-50.0	-51.5	15.4	0.00e+00	0	24	0	853540864	66	4197
2026-01-09 23:32:30.52	121.06	39.36	-49.7	-51.1	15.6	0.00e+00	0	24	0	855638016	66	4025
2026-01-09 23:32:31.52	121.48	39.26	-50.1	-51.5	15.2	0.00e+00	0	24	0	857735168	65	4492
2026-01-09 23:32:32.52	121.90	39.16	-50.5	-52.1	15.1	0.00e+00	0	24	0	858783744	66	4536
2026-01-09 23:32:33.52	122.31	39.05	-50.7	-52.3	15.0	0.00e+00	0	24	0	860880896	66	4613
2026-01-09 23:32:34.52	122.73	38.95	-50.3	-51.9	15.2	0.00e+00	0	24	0	862978048	66	4396
2026-01-09 23:32:35.52	123.14	38.84	-50.4	-52.0	15.1	0.00e+00	0	24	0	865075200	66	4461
2026-01-09 23:32:36.51	123.54	38.74	-50.6	-52.2	15.1	0.00e+00	0	24	0	866123776	66	4587
2026-01-09 23:32:37.50	123.94	38.63	-51.0	-52.6	14.9	0.00e+00	0	23	0	868220928	67	4531
2026-01-09 23:32:38.49	124.34	38.52	-50.6	-52.2	15.2	0.00e+00	0	23	0	870318080	67	4301
2026-01-09 23:32:39.49	124.74	38.41	-50.0	-51.4	15.4	0.00e+00	0	23	0	872415232	66	4191
2026-01-09 23:32:40.49	125.13	38.30	-49.6	-50.9	15.6	0.00e+00	0	24	0	874512384	65	4185
2026-01-09 23:32:41.49	125.53	38.19	-48.9	-50.3	15.6	0.00e+00	0	23	0	875560960	64	4104
2026-01-09 23:32:42.49	125.92	38.07	-48.7	-50.0	15.6	0.00e+00	0	24	0	877658112	64	4003
2026-01-09 23:32:43.48	126.30	37.96	-48.7	-50.1	15.6	0.00e+00	0	24	0	879755264	64	4013
2026-01-09 23:32:44.48	126.69	37.84	-48.6	-49.9	15.5	0.00e+00	0	24	0	881852416	63	4178
2026-01-09 23:32:45.48	127.07	37.73	-48.5	-49.8	15.6	0.00e+00	0	24	0	883949568	63	4137
2026-01-09 23:32:46.48	127.45	37.61	-48.9	-50.2	15.4	0.00e+00	0	24	0	884998144	63	4335
2026-01-09 23:32:47.48	127.83	37.49	-49.5	-51.0	15.3	0.00e+00	0	24	0	887095296	64	4458
2026-01-09 23:32:48.49	128.21	37.37	-49.8	-51.3	15.3	0.00e+00	0	24	0	889192448	65	4375
2026-01-09 23:32:49.48	128.57	37.25	-49.6	-51.1	15.3	0.00e+00	0	24	0	891289600	65	4269
2026-01-09 23:32:50.48	128.94	37.13	-49.0	-50.3	15.5	0.00e+00	0	24	0	892338176	64	4145
2026-01-09 23:32:51.48	129.31	37.00	-48.7	-50.1	15.6	0.00e+00	0	24	0	894435328	64	4007
2026-01-09 23:32:52.48	129.67	36.88	-48.8	-50.2	15.5	0.00e+00	0	24	0	896532480	64	4067
2026-01-09 23:32:53.48	130.04	36.76	-49.3	-50.7	15.4	0.00e+00	0	24	0	898629632	64	4318
2026-01-09 23:32:54.48	130.39	36.63	-49.3	-50.7	15.3	0.00e+00	0	23	0	900726784	64	4332
2026-01-09 23:32:55.48	130.75	36.51	-49.2	-50.6	15.4	0.00e+00	0	24	0	901775360	64	4270
2026-01-09 23:32:56.48	131.10	36.38	-49.3	-50.7	15.3	0.00e+00	0	24	0	903872512	64	4334
2026-01-09 23:32:57.48	131.45	36.25	-49.5	-51.0	15.2	0.00e+00	0	24	0	905969664	64	4460
2026-01-09 23:32:58.49	131.81	36.12	-50.1	-51.7	15.1	0.00e+00	0	24	0	908066816	65	4549
2026-01-09 23:32:59.49	132.15	36.00	-50.5	-52.1	15.0	0.00e+00	0	23	0	910163968	66	4533
2026-01-09 23:33:00.49	132.49	35.87	-50.7	-52.3	15.0	0.00e+00	0	24	0	911212544	66	4651
2026-01-09 23:33:01.50	132.84	35.74	-51.0	-52.7	14.9	0.00e+00	0	24	0	913309696	67	4589
2026-01-09 23:33:02.49	133.17	35.61	-50.7	-52.4	15.1	0.00e+00	0	23	0	915406848	67	4398
2026-01-09 23:33:03.48	133.50	35.48	-50.5	-52.0	15.3	0.00e+00	0	24	0	917504000	67	4241
2026-01-09 23:33:04.48	133.83	35.35	-50.5	-52.1	15.3	0.00e+00	0	24	0	918552576	67	4264
2026-01-09 23:33:05.48	134.16	35.21	-50.9	-52.6	15.0	0.00e+00	0	24	0	920649728	67	4496
2026-01-09 23:33:06.48	134.49	35.08	-50.9	-52.5	15.0	0.00e+00	0	24	0	922746880	67	4473
2026-01-09 23:33:07.48	134.81	34.95	-50.6	-52.2	15.2	0.00e+00	0	23	0	924844032	67	4304
2026-01-09 23:33:08.48	135.13	34.82	-49.8	-51.2	15.5	0.00e+00	0	24	0	926941184	66	4097
2026-01-09 23:33:09.47	135.45	34.68	-49.9	-51.3	15.3	0.00e+00	0	24	0	927989760	65	4385
2026-01-09 23:33:10.47	135.77	34.55	-50.6	-52.2	15.0	0.00e+00	0	24	0	930086912	66	4578
2026-01-09 23:33:11.46	136.08	34.42	-52.1	-54.0	14.7	0.00e+00	0	24	0	932184064	69	4708
2026-01-09 23:33:12.46	136.39	34.28	-53.0	-55.2	14.3	0.00e+00	0	24	0	934281216	71	4839
2026-01-09 23:33:13.45	136.69	34.15	-51.9	-53.7	14.9	0.00e+00	0	24	0	935329792	70	4329
2026-01-09 23:33:14.45	137.00	34.01	-51.1	-52.8	15.1	0.00e+00	0	24	0	937426944	68	4362
2026-01-09 23:33:15.46	137.31	33.88	-51.0	-52.6	15.2	0.00e+00	0	23	0	939524096	68	4252
2026-01-09 23:33:16.46	137.61	33.74	-51.4	-53.1	14.9	0.00e+00	0	24	0	941621248	68	4541
2026-01-09 23:33:17.46	137.91	33.61	-53.0	-55.2	14.3	0.00e+00	0	24	0	943718400	71	4841
2026-01-09 23:33:18.46	138.20	33.47	-54.5	-57.5	13.3	0.00e+00	0	24	0	944766976	74	5312
2026-01-09 23:33:19.45	138.50	33.33	-55.0	-58.3	12.9	0.00e+00	0	24	0	946864128	75	5487
2026-01-09 23:33:20.45	138.79	33.20	-54.2	-56.9	13.8	0.00e+00	0	24	0	948961280	75	4682
2026-01-09 23:33:21.44	139.07	33.06	-53.3	-55.6	14.3	0.00e+00	0	24	0	951058432	73	4495
2026-01-09 23:33:22.45	139.36	32.92	-52.6	-54.6	14.6	0.00e+00	0	24	0	953155584	71	4531
2026-01-09 23:33:23.45	139.65	32.79	-52.2	-54.1	14.8	0.00e+00	0	24	0	954204160	70	4526
2026-01-09 23:33:24.45	139.93	32.65	-53.1	-55.3	14.2	0.00e+00	0	24	0	956301312	71	4916
2026-01-09 23:33:25.45	140.21	32.51	-54.4	-57.3	13.4	0.00e+00	0	23	0	958398464	73	5507
2026-01-09 23:33:26.46	140.49	32.37	-55.6	-59.3	12.3	7.00e-07	0	24	0	960495616	76	5834
2026-01-09 23:33:27.45	140.76	32.24	-55.0	-58.2	12.9	3.00e-06	0	24	0	962592768	76	5148
2026-01-09 23:33:28.45	141.04	32.10	-53.2	-55.4	14.4	0.00e+00	0	24	0	963641344	73	4412
2026-01-09 23:33:29.45	141.31	31.96	-51.5	-53.3	15.1	0.00e+00	0	24	0	965738496	69	4342
2026-01-09 23:33:30.45	141.57	31.82	-51.4	-53.1	14.9	0.00e+00	0	24	0	967835648	68	4532
2026-01-09 23:33:31.45	141.84	31.69	-51.8	-53.6	14.7	0.00e+00	0	24	0	969932800	68	4788
2026-01-09 23:33:32.45	142.11	31.55	-52.8	-54.9	14.3	0.00e+00	0	24	0	970981376	70	4928
2026-01-09 23:33:33.45	142.37	31.41	-54.2	-56.9	13.5	0.00e+00	0	24	0	973078528	73	5277
2026-01-09 23:33:34.45	142.63	31.27	-54.9	-58.1	13.0	0.00e+00	0	24	0	975175680	75	5379
2026-01-09 23:33:35.45	142.88	31.14	-54.0	-56.7	13.9	0.00e+00	0	24	0	977272832	74	4830
2026-01-09 23:33:36.44	143.14	31.00	-53.5	-55.9	14.2	0.00e+00	0	24	0	979369984	73	4663
2026-01-09 23:33:37.44	143.39	30.86	-52.5	-54.5	14.7	0.00e+00	0	24	0	980418560	71	4469
2026-01-09 23:33:38.43	143.64	30.72	-52.4	-54.3	14.8	0.00e+00	0	23	0	982515712	71	4385
2026-01-09 23:33:39.42	143.89	30.59	-52.3	-54.3	14.6	0.00e+00	0	24	0	984612864	70	4621
2026-01-09 23:33:40.42	144.13	30.45	-52.6	-54.7	14.4	0.00e+00	0	24	0	986710016	70	4850
2026-01-09 23:33:41.41	144.38	30.31	-53.8	-56.3	13.8	0.00e+00	0	24	0	987758592	72	5192
2026-01-09 23:33:42.41	144.62	30.18	-54.3	-57.1	13.4	0.00e+00	0	24	0	989855744	73	5353
2026-01-09 23:33:43.41	144.86	30.04	-54.1	-56.8	13.6	0.00e+00	0	24	0	991952896	73	5197
2026-01-09 23:33:44.41	145.10	29.90	-53.0	-55.2	14.4	0.00e+00	0	24	0	994050048	72	4549
2026-01-09 23:33:45.40	145.33	29.77	-51.4	-53.2	15.0	0.00e+00	0	24	0	996147200	69	4300
2026-01-09 23:33:46.40	145.57	29.63	-50.8	-52.4	15.2	0.00e+00	0	24	0	997195776	68	4181
2026-01-09 23:33:47.40	145.80	29.49	-50.9	-52.5	15.2	0.00e+00	0	24	0	999292928	68	4231
2026-01-09 23:33:48.40	146.03	29.36	-51.6	-53.4	14.8	0.00e+00	0	24	0	1001390080	68	4692
2026-01-09 23:33:49.40	146.26	29.22	-52.9	-55.1	14.2	0.00e+00	0	24	0	1003487232	70	5046
2026-01-09 23:33:50.40	146.49	29.09	-53.7	-56.3	13.8	0.00e+00	0	24	0	1005584384	72	5178
2026-01-09 23:33:51.41	146.72	28.95	-54.1	-56.8	13.6	0.00e+00	0	24	0	1006632960	73	5206
2026-01-09 23:33:52.39	146.94	28.81	-53.2	-55.6	14.4	0.00e+00	0	24	0	1008730112	73	4495
2026-01-09 23:33:53.40	147.16	28.68	-52.1	-54.1	14.8	0.00e+00	0	24	0	1010827264	70	4506
2026-01-09 23:33:54.40	147.38	28.54	-51.3	-53.0	15.1	0.00e+00	0	24	0	1012924416	69	4214
2026-01-09 23:33:55.40	147.60	28.41	-50.8	-52.4	15.3	0.00e+00	0	24	0	1013972992	68	4170
2026-01-09 23:33:56.41	147.82	28.27	-50.6	-52.3	15.1	0.00e+00	0	24	0	1016070144	67	4345
2026-01-09 23:33:57.41	148.03	28.14	-50.8	-52.5	15.0	0.00e+00	0	24	0	1018167296	67	4466
2026-01-09 23:33:58.41	148.25	28.00	-51.8	-53.6	14.6	0.00e+00	0	24	0	1020264448	68	4786
2026-01-09 23:33:59.40	148.45	27.87	-52.6	-54.8	14.4	0.00e+00	0	23	0	1022361600	70	4882
2026-01-09 23:34:00.40	148.66	27.73	-53.0	-55.3	14.3	0.00e+00	0	24	0	1023410176	71	4875
2026-01-09 23:34:01.41	148.87	27.60	-53.2	-55.6	14.0	0.00e+00	0	23	0	1025507328	71	5044
2026-01-09 23:34:02.41	149.08	27.47	-52.7	-54.9	14.5	0.00e+00	0	24	0	1027604480	71	4660
2026-01-09 23:34:03.41	149.28	27.33	-52.0	-53.9	14.8	0.00e+00	0	24	0	1029701632	70	4432
2026-01-09 23:34:04.40	149.48	27.20	-51.7	-53.5	15.0	0.00e+00	0	24	0	1031798784	70	4213
2026-01-09 23:34:05.39	149.68	27.07	-51.4	-53.2	15.0	0.00e+00	0	24	0	1032847360	69	4293
2026-01-09 23:34:06.39	149.88	26.94	-51.5	-53.2	15.0	0.00e+00	0	23	0	1034944512	69	4337
2026-01-09 23:34:07.39	150.08	26.81	-51.8	-53.6	14.8	0.00e+00	0	24	0	1037041664	69	4531
2026-01-09 23:34:08.39	150.28	26.67	-52.0	-53.9	14.7	0.00e+00	0	24	0	1039138816	69	4697
2026-01-09 23:34:09.39	150.47	26.54	-52.3	-54.3	14.4	0.00e+00	0	24	0	1041235968	69	4878
2026-01-09 23:34:10.39	150.67	26.41	-52.5	-54.5	14.5	0.00e+00	0	23	0	1042284544	70	4738
2026-01-09 23:34:11.39	150.86	26.28	-52.1	-54.1	14.7	0.00e+00	0	24	0	1044381696	70	4514
2026-01-09 23:34:12.39	151.05	26.15	-52.0	-53.9	14.9	0.00e+00	0	24	0	1046478848	70	4395
2026-01-09 23:34:13.38	151.23	26.02	-51.6	-53.4	15.0	0.00e+00	0	24	0	1048576000	69	4395
2026-01-09 23:34:14.38	151.42	25.89	-51.4	-53.2	15.0	0.00e+00	0	24	0	1049624576	69	4303
2026-01-09 23:34:15.37	151.60	25.76	-51.3	-53.0	15.1	0.00e+00	0	24	0	1051721728	69	4217
2026-01-09 23:34:16.37	151.79	25.63	-51.1	-52.7	15.1	0.00e+00	0	24	0	1053818880	68	4327
2026-01-09 23:34:17.37	151.97	25.50	-50.7	-52.3	15.3	0.00e+00	0	24	0	1055916032	68	4129
2026-01-09 23:34:18.36	152.15	25.38	-50.5	-52.1	15.2	0.00e+00	0	24	0	1058013184	67	4264
2026-01-09 23:34:19.36	152.33	25.25	-50.8	-52.4	15.0	0.00e+00	0	24	0	1059061760	67	4426
2026-01-09 23:34:20.36	152.51	25.12	-50.7	-52.4	15.1	0.00e+00	0	24	0	1061158912	67	4405
2026-01-09 23:34:21.36	152.69	24.99	-50.8	-52.5	15.0	0.00e+00	0	24	0	1063256064	67	4460
2026-01-09 23:34:22.36	152.86	24.86	-50.8	-52.5	15.0	0.00e+00	0	24	0	1065353216	67	4467
2026-01-09 23:34:23.36	153.04	24.74	-51.0	-52.7	14.9	0.00e+00	0	24	0	1066401792	67	4557
2026-01-09 23:34:24.36	153.21	24.61	-51.3	-53.1	14.7	0.00e+00	0	24	0	1068498944	67	4800
2026-01-09 23:34:25.35	153.38	24.49	-51.5	-53.3	14.8	0.00e+00	0	24	0	1070596096	68	4626
2026-01-09 23:34:26.35	153.55	24.36	-51.6	-53.4	14.8	0.00e+00	0	23	0	1072693248	68	4679
2026-01-09 23:34:27.34	153.72	24.24	-51.7	-53.6	14.7	0.00e+00	0	23	0	1074790400	68	4781
2026-01-09 23:34:28.34	153.88	24.11	-51.4	-53.2	14.8	0.00e+00	0	24	0	1075838976	68	4571
2026-01-09 23:34:29.33	154.05	23.99	-51.4	-53.2	14.9	0.00e+00	0	24	0	1077936128	68	4548
2026-01-09 23:34:30.34	154.22	23.86	-51.4	-53.1	14.9	0.00e+00	0	23	0	1080033280	68	4530
2026-01-09 23:34:31.33	154.38	23.74	-51.1	-52.7	15.1	0.00e+00	0	24	0	1082130432	68	4340
2026-01-09 23:34:32.32	154.54	23.62	-51.1	-52.8	15.0	0.00e+00	0	24	0	1084227584	68	4376
2026-01-09 23:34:33.32	154.70	23.49	-51.1	-52.7	15.1	0.00e+00	0	24	0	1085276160	68	4329
2026-01-09 23:34:34.31	154.86	23.37	-51.3	-53.0	14.9	0.00e+00	0	24	0	1087373312	68	4479
2026-01-09 23:34:35.31	155.02	23.25	-51.6	-53.4	14.7	0.00e+00	0	24	0	1089470464	68	4676
2026-01-09 23:34:36.29	155.17	23.13	-51.8	-53.7	14.6	0.00e+00	0	24	0	1091567616	68	4859
2026-01-09 23:34:37.29	155.33	23.01	-52.2	-54.2	14.5	0.00e+00	0	24	0	1092616192	69	4818
2026-01-09 23:34:38.28	155.48	22.88	-52.5	-54.6	14.4	0.00e+00	0	24	0	1094713344	70	4774
2026-01-09 23:34:39.29	155.64	22.76	-52.6	-54.7	14.3	0.00e+00	0	24	0	1096810496	70	4861
2026-01-09 23:34:40.29	155.79	22.64	-52.8	-55.1	14.2	0.00e+00	0	24	0	1098907648	70	5042
2026-01-09 23:34:41.28	155.94	22.52	-52.6	-54.6	14.4	0.00e+00	0	24	0	1101004800	70	4812
2026-01-09 23:34:42.28	156.09	22.40	-52.5	-54.6	14.4	0.00e+00	0	24	0	1102053376	70	4773
2026-01-09 23:34:43.28	156.24	22.28	-52.3	-54.3	14.6	0.00e+00	0	24	0	1104150528	70	4644
2026-01-09 23:34:44.28	156.39	22.16	-52.1	-54.0	14.8	0.00e+00	0	24	0	1106247680	70	4457
2026-01-09 23:34:45.28	156.54	22.04	-51.9	-53.7	14.9	0.00e+00	0	24	0	1108344832	70	4339
2026-01-09 23:34:46.28	156.68	21.92	-51.8	-53.6	14.9	0.00e+00	0	24	0	1110441984	70	4289
2026-01-09 23:34:47.27	156.83	21.81	-52.0	-53.8	14.8	0.00e+00	0	24	0	1111490560	70	4390
2026-01-09 23:34:48.26	156.97	21.69	-52.3	-54.3	14.6	0.00e+00	0	24	0	1113587712	70	4623
2026-01-09 23:34:49.26	157.11	21.57	-52.4	-54.4	14.5	0.00e+00	0	23	0	1115684864	70	4696
2026-01-09 23:34:50.25	157.26	21.46	-52.5	-54.6	14.4	0.00e+00	0	24	0	1117782016	70	4791
2026-01-09 23:34:51.25	157.40	21.34	-52.6	-54.8	14.3	0.00e+00	0	23	0	1118830592	70	4886
2026-01-09 23:34:52.24	157.54	21.22	-52.9	-55.1	14.1	0.00e+00	0	24	0	1120927744	70	5069
2026-01-09 23:34:53.24	157.67	21.11	-52.8	-55.0	14.4	0.00e+00	0	24	0	1123024896	71	4739
2026-01-09 23:34:54.24	157.81	20.99	-52.6	-54.8	14.5	0.00e+00	0	24	0	1125122048	71	4606
2026-01-09 23:34:55.24	157.95	20.88	-52.4	-54.5	14.6	0.00e+00	0	24	0	1127219200	71	4446
2026-01-09 23:34:56.24	158.09	20.76	-52.0	-53.9	14.8	0.00e+00	0	24	0	1128267776	70	4428
2026-01-09 23:34:57.24	158.22	20.65	-51.9	-53.8	14.8	0.00e+00	0	24	0	1130364928	70	4373
2026-01-09 23:34:58.24	158.35	20.53	-51.5	-53.3	14.9	0.00e+00	0	24	0	1132462080	69	4365
2026-01-09 23:34:59.24	158.49	20.42	-51.3	-53.0	15.1	0.00e+00	0	24	0	1134559232	69	4217
2026-01-09 23:35:00.25	158.62	20.30	-51.3	-53.0	15.1	0.00e+00	0	24	0	1135607808	69	4242
2026-01-09 23:35:01.24	158.75	20.19	-51.0	-52.6	15.1	0.00e+00	0	23	0	1137704960	68	4280
2026-01-09 23:35:02.25	158.88	20.08	-50.9	-52.5	15.2	0.00e+00	0	23	0	1139802112	68	4236
2026-01-09 23:35:03.24	159.01	19.97	-51.2	-52.9	15.0	0.00e+00	0	24	0	1141899264	68	4415
2026-01-09 23:35:04.24	159.14	19.85	-51.1	-52.8	15.0	0.00e+00	0	24	0	1143996416	68	4386
2026-01-09 23:35:05.24	159.27	19.74	-51.6	-53.5	14.7	0.00e+00	0	24	0	1145044992	68	4722
2026-01-09 23:35:06.24	159.39	19.63	-51.6	-53.5	14.7	0.00e+00	0	24	0	1147142144	68	4724
2026-01-09 23:35:07.23	159.52	19.52	-51.6	-53.5	14.7	0.00e+00	0	23	0	1149239296	68	4728
2026-01-09 23:35:08.23	159.64	19.41	-51.9	-53.9	14.6	0.00e+00	0	24	0	1151336448	69	4664
2026-01-09 23:35:09.23	159.77	19.30	-51.8	-53.8	14.7	0.00e+00	0	24	0	1153433600	69	4602
2026-01-09 23:35:10.23	159.89	19.19	-52.0	-54.0	14.6	0.00e+00	0	24	0	1154482176	69	4744
2026-01-09 23:35:11.23	160.01	19.08	-52.2	-54.3	14.4	0.00e+00	0	24	0	1156579328	69	4880
2026-01-09 23:35:12.22	160.13	18.97	-52.0	-54.0	14.6	0.00e+00	0	24	0	1158676480	69	4714
2026-01-09 23:35:13.22	160.25	18.86	-52.1	-54.1	14.5	0.00e+00	0	24	0	1160773632	69	4795
2026-01-09 23:35:14.22	160.37	18.76	-51.6	-53.5	14.9	0.00e+00	0	24	0	1161822208	69	4447
2026-01-09 23:35:15.22	160.49	18.65	-51.5	-53.3	15.0	0.00e+00	0	24	0	1163919360	69	4348
2026-01-09 23:35:16.22	160.61	18.54	-51.4	-53.2	15.0	0.00e+00	0	24	0	1166016512	69	4314
2026-01-09 23:35:17.22	160.73	18.43	-51.0	-52.7	15.1	0.00e+00	0	24	0	1168113664	68	4333
2026-01-09 23:35:18.22	160.85	18.32	-51.2	-52.9	15.0	0.00e+00	0	24	0	1170210816	68	4403
2026-01-09 23:35:19.21	160.96	18.22	-51.2	-53.0	14.9	0.00e+00	0	24	0	1171259392	68	4454
2026-01-09 23:35:20.22	161.08	18.11	-50.9	-52.6	15.1	0.00e+00	0	24	0	1173356544	68	4250
2026-01-09 23:35:21.21	161.19	18.01	-51.3	-53.1	14.9	0.00e+00	0	24	0	1175453696	68	4528
2026-01-09 23:35:22.20	161.30	17.90	-51.3	-53.1	14.9	0.00e+00	0	24	0	1177550848	68	4524
2026-01-09 23:35:23.20	161.42	17.80	-51.3	-53.1	14.9	0.00e+00	0	23	0	1178599424	68	4528
2026-01-09 23:35:24.20	161.53	17.69	-51.7	-53.5	14.6	0.00e+00	0	23	0	1180696576	68	4754
2026-01-09 23:35:25.20	161.64	17.59	-51.5	-53.3	14.7	0.00e+00	0	24	0	1182793728	68	4641
2026-01-09 23:35:26.20	161.75	17.48	-51.9	-53.8	14.5	0.00e+00	0	24	0	1184890880	68	4915
2026-01-09 23:35:27.20	161.86	17.38	-52.0	-53.9	14.6	0.00e+00	0	24	0	1186988032	69	4682
2026-01-09 23:35:28.20	161.97	17.28	-51.9	-53.9	14.6	0.00e+00	0	24	0	1188036608	69	4675
2026-01-09 23:35:29.20	162.08	17.17	-52.1	-54.2	14.5	0.00e+00	0	24	0	1190133760	69	4830
2026-01-09 23:35:30.20	162.19	17.07	-52.1	-54.0	14.5	0.00e+00	0	24	0	1192230912	69	4754
2026-01-09 23:35:31.19	162.29	16.97	-52.1	-54.1	14.5	0.00e+00	0	24	0	1194328064	69	4769
2026-01-09 23:35:32.19	162.40	16.87	-52.3	-54.4	14.3	0.00e+00	0	24	0	1196425216	69	4946
2026-01-09 23:35:33.19	162.50	16.76	-52.4	-54.5	14.4	0.00e+00	0	24	0	1197473792	70	4725
2026-01-09 23:35:34.19	162.61	16.66	-52.7	-54.9	14.2	0.00e+00	0	24	0	1199570944	70	4931
2026-01-09 23:35:35.18	162.71	16.56	-52.8	-55.0	14.2	0.00e+00	0	24	0	1201668096	70	5017
2026-01-09 23:35:36.18	162.81	16.46	-52.9	-55.2	14.2	0.00e+00	0	23	0	1203765248	71	4835
2026-01-09 23:35:37.17	162.92	16.36	-53.3	-55.8	13.8	0.00e+00	0	24	0	1205862400	71	5196
2026-01-09 23:35:38.18	163.02	16.26	-53.4	-55.8	13.8	0.00e+00	0	24	0	1206910976	71	5207
2026-01-09 23:35:39.17	163.12	16.16	-53.4	-55.9	13.8	0.00e+00	0	24	0	1209008128	71	5258
2026-01-09 23:35:40.17	163.22	16.06	-53.7	-56.3	13.6	0.00e+00	0	23	0	1211105280	72	5187
2026-01-09 23:35:41.17	163.32	15.96	-53.7	-56.4	13.6	0.00e+00	0	23	0	1213202432	72	5244
2026-01-09 23:35:42.18	163.42	15.86	-53.9	-56.7	13.4	0.00e+00	0	24	0	1214251008	72	5419
2026-01-09 23:35:43.18	163.52	15.76	-54.0	-56.8	13.5	0.00e+00	0	24	0	1216348160	73	5198
2026-01-09 23:35:44.18	163.62	15.67	-53.7	-56.4	13.8	0.00e+00	0	24	0	1218445312	73	4927
2026-01-09 23:35:45.18	163.72	15.57	-53.9	-56.6	13.6	0.00e+00	0	23	0	1220542464	73	5091
2026-01-09 23:35:46.18	163.82	15.47	-53.8	-56.5	13.6	0.00e+00	0	24	0	1222639616	73	5032
2026-01-09 23:35:47.17	163.91	15.37	-53.6	-56.1	13.9	0.00e+00	0	24	0	1223688192	73	4789
2026-01-09 23:35:48.17	164.01	15.28	-53.6	-56.1	13.9	0.00e+00	0	24	0	1225785344	73	4778
2026-01-09 23:35:49.17	164.10	15.18	-53.4	-55.9	14.0	0.00e+00	0	24	0	1227882496	73	4666
2026-01-09 23:35:50.17	164.20	15.08	-53.2	-55.6	14.1	0.00e+00	0	24	0	1229979648	72	4782
2026-01-09 23:35:51.17	164.29	14.99	-52.9	-55.1	14.3	0.00e+00	0	23	0	1232076800	72	4544
2026-01-09 23:35:52.16	164.39	14.89	-52.5	-54.6	14.5	0.00e+00	0	23	0	1233125376	71	4542
2026-01-09 23:35:53.17	164.48	14.80	-52.5	-54.7	14.5	0.00e+00	0	23	0	1235222528	71	4546
2026-01-09 23:35:54.17	164.57	14.70	-52.3	-54.3	14.7	0.00e+00	0	24	0	1237319680	71	4355
2026-01-09 23:35:55.16	164.66	14.61	-52.0	-53.9	14.8	0.00e+00	0	24	0	1239416832	70	4421
2026-01-09 23:35:56.16	164.75	14.51	-51.9	-53.9	14.8	0.00e+00	0	24	0	1240465408	70	4401
2026-01-09 23:35:57.16	164.85	14.42	-51.8	-53.7	14.9	0.00e+00	0	24	0	1242562560	70	4296
2026-01-09 23:35:58.16	164.94	14.32	-51.6	-53.5	14.8	0.00e+00	0	24	0	1244659712	69	4464
2026-01-09 23:35:59.15	165.02	14.23	-51.6	-53.4	14.8	0.00e+00	0	24	0	1246756864	69	4419
2026-01-09 23:36:00.16	165.11	14.14	-51.4	-53.2	14.9	0.00e+00	0	23	0	1248854016	69	4331
2026-01-09 23:36:01.15	165.20	14.04	-51.3	-53.1	14.9	0.00e+00	0	24	0	1249902592	69	4264
2026-01-09 23:36:02.15	165.29	13.95	-51.5	-53.3	14.8	0.00e+00	0	24	0	1251999744	69	4354
2026-01-09 23:36:03.15	165.38	13.86	-51.2	-53.0	15.0	0.00e+00	0	23	0	1254096896	69	4214
2026-01-09 23:36:04.15	165.47	13.77	-51.4	-53.2	14.9	0.00e+00	0	23	0	1256194048	69	4298
2026-01-09 23:36:05.15	165.55	13.67	-51.4	-53.2	14.9	0.00e+00	0	23	0	1257242624	69	4328
2026-01-09 23:36:06.15	165.64	13.58	-51.4	-53.2	14.9	0.00e+00	0	24	0	1259339776	69	4318
