passes_logs/2026/01/09/R3.2S_Murmansk/R3.2S_Murmansk__20260109_230941_AQUA_rec.log

#Pass ID: 20260109_230941_AQUA
#Satellite: AQUA
#Configuration: AQUA
#almurnet v.1.7.20251203
#Start time: 2026-01-09 23:09:41

#Version: 2.2.20231116
#Station: R3.2S_Murmansk
#Location: 33.079688 lon 68.888172 lat
#TLE: 1 27424U 02022A   26009.00333547  .00001046  00000+0  21942-3 0  9998
#TLE: 2 27424  98.4075 335.3304 0002025  85.7625 349.1392 14.61808998260011

#Time	Az	El	Level	Level2	SNR	BER	BlckErr	Temp	State	Recorded	gain1	gain2
2026-01-09 23:09:41.32	22.41	1.99	-56.7	-75.6	3.8	7.45e-01	0	24	0	0	82	31436
2026-01-09 23:09:42.29	22.52	2.03	-56.6	-75.7	3.8	7.46e-01	0	23	104	0	80	35660
2026-01-09 23:09:43.27	22.63	2.07	-56.6	-75.8	3.8	7.46e-01	0	23	104	0	80	35915
2026-01-09 23:09:44.26	22.74	2.12	-56.6	-75.8	3.8	7.50e-01	0	24	104	0	80	35844
2026-01-09 23:09:45.25	22.85	2.16	-56.6	-75.8	3.8	7.47e-01	0	23	104	0	80	35910
2026-01-09 23:09:46.24	22.96	2.21	-56.6	-75.8	3.8	7.49e-01	0	23	104	0	80	35900
2026-01-09 23:09:47.22	23.07	2.25	-56.6	-75.8	3.8	7.44e-01	0	23	104	0	80	35876
2026-01-09 23:09:48.20	23.18	2.30	-56.6	-75.8	3.8	7.47e-01	0	23	104	0	80	36092
2026-01-09 23:09:49.18	23.29	2.34	-56.6	-75.8	3.8	7.45e-01	0	23	104	0	80	36091
2026-01-09 23:09:50.17	23.41	2.39	-56.6	-75.9	3.8	7.47e-01	0	23	104	0	80	36403
2026-01-09 23:09:51.16	23.52	2.43	-56.6	-75.9	3.8	7.48e-01	0	23	104	0	80	36120
2026-01-09 23:09:52.14	23.63	2.48	-56.6	-75.8	3.8	7.51e-01	0	23	104	0	80	35845
2026-01-09 23:09:53.13	23.74	2.52	-56.6	-75.9	3.8	7.43e-01	0	23	104	0	80	36117
2026-01-09 23:09:54.11	23.86	2.56	-56.6	-75.8	3.8	7.45e-01	0	24	104	0	80	35910
2026-01-09 23:09:55.09	23.97	2.61	-56.6	-75.7	3.8	7.45e-01	0	24	104	0	80	35337
2026-01-09 23:09:56.08	24.08	2.65	-56.6	-75.8	3.8	7.48e-01	0	24	104	0	80	35978
2026-01-09 23:09:57.06	24.20	2.70	-56.6	-75.8	3.8	7.48e-01	0	24	104	0	80	36015
2026-01-09 23:09:58.05	24.31	2.74	-56.6	-75.7	3.8	7.43e-01	0	23	104	0	80	35605
2026-01-09 23:09:59.04	24.43	2.79	-56.6	-75.7	3.8	7.45e-01	0	24	104	0	80	35337
2026-01-09 23:10:00.02	24.55	2.83	-56.5	-75.7	3.8	7.46e-01	0	24	104	0	80	35549
2026-01-09 23:10:01.00	24.66	2.88	-56.6	-75.6	3.8	7.45e-01	0	23	104	0	80	35103
2026-01-09 23:10:01.98	24.78	2.92	-56.6	-75.7	3.8	7.45e-01	0	24	104	0	80	35485
2026-01-09 23:10:02.96	24.89	2.97	-56.6	-75.8	3.8	7.45e-01	0	24	104	0	80	35822
2026-01-09 23:10:03.95	25.01	3.01	-56.6	-75.7	3.8	7.45e-01	0	23	104	0	80	35429
2026-01-09 23:10:04.93	25.13	3.05	-56.6	-75.7	3.8	7.50e-01	0	24	104	0	80	35511
2026-01-09 23:10:05.91	25.24	3.10	-56.6	-75.6	3.8	7.48e-01	0	23	104	0	80	34984
2026-01-09 23:10:06.90	25.36	3.14	-56.6	-75.7	3.8	7.44e-01	0	24	104	0	80	35486
2026-01-09 23:10:07.88	25.48	3.19	-56.6	-75.8	3.8	7.47e-01	0	23	104	0	80	35980
2026-01-09 23:10:08.85	25.60	3.23	-56.6	-75.9	3.8	7.45e-01	0	24	104	0	80	36111
2026-01-09 23:10:09.84	25.72	3.28	-56.6	-75.9	3.8	7.45e-01	0	23	104	0	80	36176
2026-01-09 23:10:10.82	25.84	3.32	-56.6	-75.7	3.8	7.45e-01	0	23	104	0	80	35497
2026-01-09 23:10:11.80	25.96	3.36	-56.6	-75.8	3.8	7.44e-01	0	23	104	0	80	35951
2026-01-09 23:10:12.78	26.08	3.41	-56.5	-75.9	3.8	7.45e-01	0	23	104	0	80	36133
2026-01-09 23:10:13.75	26.20	3.45	-56.6	-75.8	3.8	7.49e-01	0	24	104	0	80	36002
2026-01-09 23:10:14.73	26.32	3.50	-56.6	-75.8	3.8	7.49e-01	0	23	104	0	80	35703
2026-01-09 23:10:15.72	26.44	3.54	-56.5	-75.8	3.8	7.47e-01	0	23	104	0	80	35741
2026-01-09 23:10:16.70	26.56	3.59	-56.5	-75.3	3.8	7.47e-01	0	24	104	0	80	34026
2026-01-09 23:10:17.68	26.68	3.63	-56.5	-75.2	3.8	7.45e-01	0	24	104	0	80	33649
2026-01-09 23:10:18.66	26.80	3.67	-56.5	-75.4	3.8	7.47e-01	0	23	104	0	80	34176
2026-01-09 23:10:19.64	26.93	3.72	-56.5	-75.5	3.8	7.45e-01	0	24	104	0	80	34808
2026-01-09 23:10:20.62	27.05	3.76	-56.5	-75.7	3.8	7.47e-01	0	23	104	0	80	35568
2026-01-09 23:10:21.61	27.17	3.81	-56.5	-75.7	3.8	7.48e-01	0	23	104	0	80	35661
2026-01-09 23:10:22.59	27.30	3.85	-56.5	-75.7	3.8	7.47e-01	0	24	104	0	80	35533
2026-01-09 23:10:23.57	27.42	3.89	-56.6	-75.7	3.8	7.50e-01	0	24	104	0	80	35485
2026-01-09 23:10:24.56	27.55	3.94	-56.6	-75.8	3.8	7.48e-01	0	23	104	0	80	35953
2026-01-09 23:10:25.54	27.67	3.98	-56.5	-75.9	3.8	7.46e-01	0	23	104	0	80	36134
2026-01-09 23:10:26.52	27.80	4.03	-56.5	-75.9	3.8	7.48e-01	0	23	104	0	80	36208
2026-01-09 23:10:27.50	27.92	4.07	-56.5	-75.6	3.8	7.45e-01	0	24	104	0	80	35044
2026-01-09 23:10:28.48	28.05	4.11	-56.5	-75.5	3.8	7.45e-01	0	23	104	0	80	34703
2026-01-09 23:10:29.47	28.18	4.16	-56.5	-75.4	3.9	7.46e-01	0	24	104	0	80	34193
2026-01-09 23:10:30.45	28.30	4.20	-56.5	-75.7	3.8	7.48e-01	0	23	104	0	80	35319
2026-01-09 23:10:31.43	28.43	4.25	-56.5	-75.9	3.8	7.48e-01	0	23	104	0	80	36120
2026-01-09 23:10:32.42	28.56	4.29	-56.5	-75.8	3.8	7.48e-01	0	23	104	0	80	36007
2026-01-09 23:10:33.40	28.69	4.33	-56.5	-75.0	3.8	7.48e-01	0	23	104	0	80	32575
2026-01-09 23:10:34.38	28.82	4.38	-56.5	-73.2	3.9	7.44e-01	0	24	104	0	80	26751
2026-01-09 23:10:35.37	28.95	4.42	-56.4	-71.3	4.4	7.25e-01	0	24	104	0	80	21299
2026-01-09 23:10:36.35	29.08	4.47	-56.4	-70.8	4.7	7.17e-01	0	24	104	0	80	20092
2026-01-09 23:10:37.34	29.21	4.51	-56.4	-71.0	4.6	7.21e-01	0	24	104	0	80	20741
2026-01-09 23:10:38.33	29.34	4.55	-56.4	-71.1	4.0	7.41e-01	0	23	104	0	80	20837
2026-01-09 23:10:39.32	29.47	4.60	-56.4	-69.4	5.4	6.99e-01	0	23	0	0	80	17250
2026-01-09 23:10:40.31	29.60	4.64	-56.1	-66.2	7.8	6.41e-01	40	24	0	1572864	80	11842
2026-01-09 23:10:41.31	29.74	4.69	-55.5	-62.5	11.0	6.09e-01	0	23	0	3145728	80	7805
2026-01-09 23:10:42.30	29.87	4.73	-54.8	-60.2	12.7	6.06e-01	0	24	0	5242880	78	6710
2026-01-09 23:10:43.29	30.00	4.77	-54.6	-59.7	13.1	6.05e-01	0	24	0	6815744	78	6311
2026-01-09 23:10:44.28	30.14	4.82	-54.4	-59.1	13.5	6.04e-01	0	24	0	8912896	78	5894
2026-01-09 23:10:45.27	30.27	4.86	-54.3	-59.1	13.4	6.04e-01	0	23	0	11010048	77	6217
2026-01-09 23:10:46.26	30.41	4.91	-54.4	-59.3	13.2	6.02e-01	0	24	0	12582912	77	6420
2026-01-09 23:10:47.24	30.54	4.95	-54.8	-60.3	12.6	6.04e-01	0	24	0	14680064	77	7148
2026-01-09 23:10:48.23	30.68	4.99	-55.0	-61.1	12.0	6.05e-01	0	23	0	16252928	77	7859
2026-01-09 23:10:49.22	30.81	5.04	-55.4	-62.2	11.2	6.09e-01	0	24	0	18350080	78	8456
2026-01-09 23:10:50.21	30.95	5.08	-55.1	-60.9	12.2	6.05e-01	0	24	0	19922944	78	7268
2026-01-09 23:10:51.20	31.09	5.12	-54.6	-59.5	13.4	6.04e-01	0	23	0	22020096	78	6176
2026-01-09 23:10:52.19	31.22	5.17	-56.1	-66.3	7.6	6.47e-01	63	24	0	23592960	80	12073
2026-01-09 23:10:53.17	31.36	5.21	-56.1	-66.6	6.9	6.52e-01	91	24	0	25690112	80	12456
2026-01-09 23:10:54.15	31.50	5.25	-51.7	-54.2	15.4	6.02e-01	0	23	0	27262976	72	4748
2026-01-09 23:10:55.14	31.63	5.30	-51.7	-54.2	15.4	6.05e-01	0	23	0	29360128	72	4751
2026-01-09 23:10:56.13	31.77	5.34	-51.5	-54.0	15.5	6.05e-01	0	24	0	30932992	72	4599
2026-01-09 23:10:57.12	31.91	5.38	-51.1	-53.4	15.6	6.02e-01	0	23	0	33030144	71	4597
2026-01-09 23:10:58.11	32.05	5.43	-51.1	-53.4	15.6	6.03e-01	0	23	0	35127296	71	4556
2026-01-09 23:10:59.10	32.19	5.47	-51.3	-53.6	15.5	6.04e-01	0	24	0	36700160	71	4687
2026-01-09 23:11:00.09	32.33	5.51	-51.1	-53.4	15.6	6.02e-01	0	24	0	38797312	71	4555
2026-01-09 23:11:01.07	32.47	5.55	-51.0	-53.2	15.7	6.05e-01	0	23	0	40370176	71	4463
2026-01-09 23:11:02.06	32.62	5.60	-51.0	-53.3	15.4	6.01e-01	0	23	0	41943040	71	4518
2026-01-09 23:11:03.04	32.76	5.64	-51.1	-53.5	15.6	6.04e-01	0	24	0	44040192	71	4599
2026-01-09 23:11:04.03	32.90	5.68	-51.2	-53.4	15.6	6.04e-01	0	23	0	46137344	71	4593
2026-01-09 23:11:05.01	33.04	5.72	-51.2	-53.5	15.6	6.04e-01	0	23	0	47710208	71	4623
2026-01-09 23:11:06.00	33.18	5.77	-51.1	-53.3	15.6	6.03e-01	0	24	0	49807360	71	4543
2026-01-09 23:11:06.99	33.33	5.81	-51.1	-53.3	15.7	6.03e-01	0	24	0	51380224	71	4525
2026-01-09 23:11:07.97	33.47	5.85	-50.9	-53.1	15.7	6.03e-01	0	24	0	53477376	71	4431
2026-01-09 23:11:08.95	33.61	5.89	-51.0	-53.2	15.7	6.03e-01	0	23	0	55050240	71	4482
2026-01-09 23:11:09.94	33.76	5.94	-51.0	-53.2	15.7	6.02e-01	0	23	0	57147392	71	4450
2026-01-09 23:11:10.92	33.90	5.98	-51.0	-53.2	15.7	6.04e-01	0	23	0	58720256	71	4464
2026-01-09 23:11:11.92	34.05	6.02	-51.1	-53.4	15.6	6.02e-01	0	23	0	60817408	71	4582
2026-01-09 23:11:12.92	34.20	6.06	-51.3	-53.6	15.6	6.01e-01	0	23	0	62390272	71	4674
2026-01-09 23:11:13.92	34.35	6.11	-50.9	-53.1	15.8	6.03e-01	0	24	0	64487424	71	4421
2026-01-09 23:11:14.92	34.50	6.15	-50.7	-52.9	15.7	6.03e-01	0	24	0	66584576	70	4555
2026-01-09 23:11:15.92	34.65	6.19	-50.7	-52.9	15.7	6.01e-01	0	24	0	68157440	70	4557
2026-01-09 23:11:16.92	34.80	6.23	-50.8	-52.9	15.6	6.02e-01	0	24	0	70254592	70	4576
2026-01-09 23:11:17.92	34.95	6.28	-50.7	-52.8	15.6	6.02e-01	0	23	0	71827456	70	4534
2026-01-09 23:11:18.92	35.10	6.32	-50.7	-52.9	15.7	6.01e-01	0	23	0	73924608	70	4564
2026-01-09 23:11:19.92	35.25	6.36	-50.7	-52.8	15.7	6.04e-01	0	24	0	76021760	70	4529
2026-01-09 23:11:20.92	35.40	6.40	-50.7	-52.9	15.7	6.05e-01	0	23	0	77594624	70	4552
2026-01-09 23:11:21.92	35.55	6.44	-50.7	-52.8	15.7	6.03e-01	0	23	0	79691776	70	4510
2026-01-09 23:11:22.92	35.70	6.49	-50.7	-52.8	15.7	6.02e-01	0	23	0	81264640	70	4524
2026-01-09 23:11:23.91	35.86	6.53	-50.7	-52.8	15.7	6.04e-01	0	23	0	83361792	70	4500
2026-01-09 23:11:24.91	36.01	6.57	-50.7	-52.8	15.7	6.03e-01	0	24	0	84934656	70	4533
2026-01-09 23:11:25.91	36.16	6.61	-50.9	-53.0	15.6	6.03e-01	0	24	0	87031808	70	4648
2026-01-09 23:11:26.91	36.32	6.65	-50.9	-53.1	15.6	6.01e-01	0	23	0	89128960	70	4658
2026-01-09 23:11:27.90	36.47	6.69	-50.9	-53.1	15.6	6.03e-01	0	23	0	90701824	70	4661
2026-01-09 23:11:28.91	36.63	6.74	-50.9	-53.1	15.6	6.03e-01	0	23	0	92798976	70	4656
2026-01-09 23:11:29.91	36.78	6.78	-50.5	-52.6	15.8	6.03e-01	0	23	0	94371840	70	4425
2026-01-09 23:11:30.90	36.94	6.82	-50.5	-52.6	15.8	6.03e-01	0	23	0	96468992	70	4407
2026-01-09 23:11:31.90	37.10	6.86	-50.5	-52.6	15.8	6.02e-01	0	23	0	98041856	70	4427
2026-01-09 23:11:32.90	37.25	6.90	-50.7	-52.8	15.7	6.03e-01	0	23	0	100139008	70	4514
2026-01-09 23:11:33.90	37.41	6.94	-50.7	-52.9	15.7	6.04e-01	0	23	0	101711872	70	4552
2026-01-09 23:11:34.90	37.57	6.98	-50.5	-52.6	15.8	6.04e-01	0	24	0	103809024	70	4414
2026-01-09 23:11:35.90	37.73	7.02	-50.5	-52.6	15.8	6.03e-01	0	23	0	105906176	70	4405
2026-01-09 23:11:36.89	37.89	7.06	-50.4	-52.5	15.9	6.03e-01	0	23	0	107479040	70	4341
2026-01-09 23:11:37.90	38.05	7.10	-50.4	-52.4	15.9	6.03e-01	0	23	0	109576192	70	4340
2026-01-09 23:11:38.90	38.21	7.14	-50.5	-52.5	15.8	6.02e-01	0	23	0	111149056	70	4375
2026-01-09 23:11:39.90	38.37	7.18	-50.5	-52.5	15.8	6.02e-01	0	23	0	113246208	70	4372
2026-01-09 23:11:40.90	38.53	7.22	-50.5	-52.6	15.8	6.03e-01	0	23	0	114819072	70	4422
2026-01-09 23:11:41.90	38.69	7.26	-50.4	-52.4	15.9	6.04e-01	0	23	0	116916224	70	4340
2026-01-09 23:11:42.90	38.85	7.30	-50.4	-52.5	15.9	6.02e-01	0	23	0	119013376	70	4346
2026-01-09 23:11:43.91	39.02	7.34	-50.5	-52.5	15.9	6.03e-01	0	23	0	120586240	70	4363
2026-01-09 23:11:44.91	39.18	7.38	-50.5	-52.5	15.9	6.02e-01	0	23	0	122683392	70	4371
2026-01-09 23:11:45.90	39.34	7.42	-50.6	-52.6	15.8	6.03e-01	0	23	0	124256256	70	4422
2026-01-09 23:11:46.90	39.50	7.46	-50.6	-52.6	15.8	6.04e-01	0	23	0	126353408	70	4430
2026-01-09 23:11:47.90	39.67	7.50	-50.6	-52.7	15.7	6.00e-01	0	23	0	127926272	70	4451
2026-01-09 23:11:48.89	39.83	7.54	-50.4	-52.4	15.9	6.01e-01	0	23	0	130023424	70	4327
2026-01-09 23:11:49.89	40.00	7.58	-50.4	-52.5	15.9	6.03e-01	0	23	0	132120576	70	4343
2026-01-09 23:11:50.89	40.16	7.62	-50.3	-52.3	15.8	6.02e-01	0	23	0	133693440	69	4507
2026-01-09 23:11:51.89	40.33	7.66	-50.2	-52.2	15.8	6.04e-01	0	23	0	135790592	69	4465
2026-01-09 23:11:52.89	40.50	7.70	-50.3	-52.3	15.8	6.04e-01	0	23	0	137363456	69	4504
2026-01-09 23:11:53.90	40.66	7.73	-50.2	-52.2	15.8	6.02e-01	0	23	0	139460608	69	4457
2026-01-09 23:11:54.89	40.83	7.77	-50.3	-52.3	15.7	6.04e-01	0	23	0	141557760	69	4531
2026-01-09 23:11:55.89	41.00	7.81	-50.2	-52.2	15.8	6.03e-01	0	23	0	143130624	69	4465
2026-01-09 23:11:56.89	41.17	7.85	-50.3	-52.3	15.7	6.02e-01	0	23	0	145227776	69	4513
2026-01-09 23:11:57.88	41.33	7.89	-50.3	-52.3	15.7	6.01e-01	0	23	0	146800640	69	4495
2026-01-09 23:11:58.88	41.50	7.93	-50.2	-52.2	15.8	6.03e-01	0	23	0	148897792	69	4465
2026-01-09 23:11:59.88	41.67	7.96	-50.2	-52.2	15.8	6.02e-01	0	23	0	150470656	69	4477
2026-01-09 23:12:00.88	41.84	8.00	-50.1	-52.0	15.9	6.05e-01	0	23	0	152567808	69	4381
2026-01-09 23:12:01.88	42.01	8.04	-50.1	-52.1	15.8	6.04e-01	0	24	0	154664960	69	4412
2026-01-09 23:12:02.88	42.19	8.08	-50.2	-52.1	15.8	6.03e-01	0	23	0	156237824	69	4430
2026-01-09 23:12:03.88	42.36	8.11	-50.2	-52.2	15.8	6.04e-01	0	23	0	158334976	69	4448
2026-01-09 23:12:04.88	42.53	8.15	-50.2	-52.2	15.8	6.02e-01	0	23	0	159907840	69	4460
2026-01-09 23:12:05.88	42.70	8.19	-50.2	-52.2	15.8	6.05e-01	0	23	0	162004992	69	4481
2026-01-09 23:12:06.88	42.88	8.22	-50.1	-52.1	15.8	6.03e-01	0	23	0	163577856	69	4402
2026-01-09 23:12:07.87	43.05	8.26	-50.2	-52.2	15.8	6.04e-01	0	23	0	165675008	69	4446
2026-01-09 23:12:08.86	43.22	8.30	-50.1	-52.0	15.8	6.04e-01	0	23	0	167772160	69	4382
2026-01-09 23:12:09.86	43.39	8.33	-50.1	-52.0	15.8	6.03e-01	0	24	0	169345024	69	4379
2026-01-09 23:12:10.85	43.57	8.37	-50.2	-52.1	15.8	6.02e-01	0	23	0	171442176	69	4431
2026-01-09 23:12:11.85	43.74	8.40	-50.2	-52.2	15.8	6.03e-01	0	23	0	173015040	69	4480
2026-01-09 23:12:12.86	43.92	8.44	-50.2	-52.2	15.8	6.02e-01	0	23	0	175112192	69	4446
2026-01-09 23:12:13.86	44.10	8.48	-50.0	-52.0	15.9	6.03e-01	0	23	0	176685056	69	4350
2026-01-09 23:12:14.86	44.27	8.51	-50.1	-52.0	15.9	6.02e-01	0	23	0	178782208	69	4370
2026-01-09 23:12:15.86	44.45	8.55	-50.1	-52.1	15.8	6.03e-01	0	23	0	180355072	69	4415
2026-01-09 23:12:16.85	44.63	8.58	-50.1	-52.1	15.9	6.02e-01	0	23	0	182452224	69	4394
2026-01-09 23:12:17.85	44.81	8.62	-50.2	-52.2	15.8	6.03e-01	0	23	0	184549376	69	4470
2026-01-09 23:12:18.85	44.98	8.65	-50.2	-52.1	15.8	6.02e-01	0	23	0	186122240	69	4438
2026-01-09 23:12:19.85	45.16	8.69	-50.1	-52.0	15.9	6.03e-01	0	23	0	188219392	69	4385
2026-01-09 23:12:20.85	45.34	8.72	-50.1	-52.0	15.9	6.04e-01	0	24	0	189792256	69	4390
2026-01-09 23:12:21.86	45.52	8.76	-50.1	-52.0	15.8	6.02e-01	0	23	0	191889408	69	4386
2026-01-09 23:12:22.86	45.70	8.79	-50.0	-51.9	15.9	6.04e-01	0	23	0	193986560	69	4337
2026-01-09 23:12:23.86	45.89	8.82	-49.9	-51.8	16.0	6.03e-01	0	23	0	195559424	69	4258
2026-01-09 23:12:24.85	46.06	8.86	-50.0	-51.9	15.9	6.04e-01	0	23	0	197656576	69	4293
2026-01-09 23:12:25.85	46.25	8.89	-49.9	-51.8	15.7	6.03e-01	0	23	0	199229440	68	4523
2026-01-09 23:12:26.84	46.43	8.92	-49.8	-51.7	15.8	6.04e-01	0	23	0	201326592	68	4458
2026-01-09 23:12:27.84	46.61	8.96	-49.8	-51.7	15.8	6.03e-01	0	23	0	202899456	68	4471
2026-01-09 23:12:28.84	46.79	8.99	-49.8	-51.7	15.8	6.04e-01	0	23	0	204996608	68	4471
2026-01-09 23:12:29.84	46.98	9.02	-49.8	-51.6	15.8	6.02e-01	0	23	0	206569472	68	4430
2026-01-09 23:12:30.84	47.16	9.06	-49.7	-51.6	15.9	6.03e-01	0	23	0	208666624	68	4406
2026-01-09 23:12:31.85	47.35	9.09	-49.8	-51.7	15.8	6.05e-01	0	23	0	210763776	68	4443
2026-01-09 23:12:32.85	47.53	9.12	-49.9	-51.8	15.8	6.01e-01	0	23	0	212336640	68	4544
2026-01-09 23:12:33.86	47.72	9.15	-49.9	-51.8	15.8	6.04e-01	0	23	0	214433792	68	4523
2026-01-09 23:12:34.85	47.90	9.18	-49.9	-51.8	15.8	6.02e-01	0	23	0	216006656	68	4495
2026-01-09 23:12:35.85	48.09	9.22	-49.8	-51.7	15.8	6.04e-01	0	23	0	218103808	68	4472
2026-01-09 23:12:36.85	48.27	9.25	-49.9	-51.8	15.8	6.05e-01	0	23	0	220200960	68	4499
2026-01-09 23:12:37.85	48.46	9.28	-49.8	-51.7	15.8	6.02e-01	0	23	0	221773824	68	4451
2026-01-09 23:12:38.85	48.65	9.31	-49.8	-51.7	15.8	6.04e-01	0	23	0	223870976	68	4445
2026-01-09 23:12:39.85	48.84	9.34	-49.8	-51.7	15.8	6.04e-01	0	23	0	225443840	68	4461
2026-01-09 23:12:40.85	49.02	9.37	-49.8	-51.7	15.7	6.06e-01	0	23	0	227540992	68	4483
2026-01-09 23:12:41.85	49.21	9.40	-49.8	-51.6	15.8	6.03e-01	0	23	0	229113856	68	4437
2026-01-09 23:12:42.86	49.40	9.43	-49.8	-51.7	15.8	6.04e-01	0	23	0	231211008	68	4458
2026-01-09 23:12:43.85	49.59	9.46	-49.8	-51.7	15.8	6.03e-01	0	23	0	233308160	68	4470
2026-01-09 23:12:44.85	49.78	9.49	-49.9	-51.7	15.8	6.06e-01	0	23	0	234881024	68	4484
2026-01-09 23:12:45.84	49.97	9.52	-49.8	-51.7	15.8	6.03e-01	0	23	0	236978176	68	4483
2026-01-09 23:12:46.83	50.16	9.55	-49.7	-51.5	15.9	6.03e-01	0	23	0	238551040	68	4386
2026-01-09 23:12:47.83	50.35	9.58	-49.7	-51.6	15.8	6.02e-01	0	23	0	240648192	68	4424
2026-01-09 23:12:48.84	50.54	9.61	-49.8	-51.6	15.8	6.03e-01	0	24	0	242221056	68	4434
2026-01-09 23:12:49.84	50.74	9.64	-49.7	-51.5	15.8	6.04e-01	0	23	0	244318208	68	4391
2026-01-09 23:12:50.83	50.93	9.67	-49.6	-51.4	15.9	6.00e-01	0	23	0	246415360	68	4319
2026-01-09 23:12:51.84	51.12	9.69	-49.7	-51.6	15.9	6.04e-01	0	23	0	247988224	68	4396
2026-01-09 23:12:52.84	51.31	9.72	-49.7	-51.6	15.8	6.04e-01	0	23	0	250085376	68	4411
2026-01-09 23:12:53.83	51.50	9.75	-49.7	-51.6	15.9	6.03e-01	0	23	0	251658240	68	4395
2026-01-09 23:12:54.83	51.70	9.78	-49.7	-51.5	15.9	6.02e-01	0	23	0	253755392	68	4375
2026-01-09 23:12:55.82	51.89	9.80	-49.7	-51.5	15.9	6.02e-01	0	23	0	255328256	68	4391
2026-01-09 23:12:56.81	52.08	9.83	-49.6	-51.5	15.9	6.02e-01	0	24	0	257425408	68	4355
2026-01-09 23:12:57.80	52.28	9.86	-49.7	-51.5	15.9	6.04e-01	0	23	0	258998272	68	4383
2026-01-09 23:12:58.80	52.47	9.88	-49.7	-51.5	15.9	6.01e-01	0	23	0	261095424	68	4370
2026-01-09 23:12:59.81	52.67	9.91	-49.6	-51.4	15.9	6.02e-01	0	23	0	263192576	68	4329
2026-01-09 23:13:00.81	52.87	9.94	-49.7	-51.5	15.9	6.02e-01	0	23	0	264765440	68	4374
2026-01-09 23:13:01.81	53.06	9.96	-49.7	-51.5	15.9	6.03e-01	0	23	0	266862592	68	4362
2026-01-09 23:13:02.81	53.26	9.99	-49.6	-51.4	15.9	6.03e-01	0	23	0	268435456	68	4328
2026-01-09 23:13:03.80	53.45	10.01	-49.7	-51.5	15.9	6.04e-01	0	23	0	270532608	68	4382
2026-01-09 23:13:04.79	53.65	10.04	-49.6	-51.5	15.9	6.04e-01	0	23	0	272105472	68	4348
2026-01-09 23:13:05.79	53.85	10.06	-49.6	-51.4	15.9	6.03e-01	0	23	0	274202624	68	4326
2026-01-09 23:13:06.79	54.05	10.09	-49.6	-51.4	15.9	6.05e-01	0	23	0	276299776	68	4326
2026-01-09 23:13:07.79	54.24	10.11	-49.7	-51.5	15.9	6.00e-01	0	23	0	277872640	68	4370
2026-01-09 23:13:08.79	54.44	10.13	-49.7	-51.5	15.9	6.03e-01	0	23	0	279969792	68	4387
2026-01-09 23:13:09.79	54.64	10.16	-49.8	-51.6	15.8	6.02e-01	0	23	0	281542656	68	4428
2026-01-09 23:13:10.78	54.84	10.18	-49.7	-51.5	15.9	6.03e-01	0	23	0	283639808	68	4368
2026-01-09 23:13:11.78	55.04	10.20	-49.6	-51.4	15.9	6.05e-01	0	23	0	285736960	68	4338
2026-01-09 23:13:12.79	55.24	10.23	-49.5	-51.3	16.0	6.03e-01	0	23	0	287309824	68	4277
2026-01-09 23:13:13.78	55.44	10.25	-49.5	-51.3	16.0	6.03e-01	0	23	0	289406976	68	4287
2026-01-09 23:13:14.79	55.64	10.27	-49.6	-51.4	15.9	6.01e-01	0	23	0	290979840	68	4314
2026-01-09 23:13:15.79	55.85	10.30	-49.6	-51.4	15.9	6.02e-01	0	23	0	293076992	68	4303
2026-01-09 23:13:16.79	56.05	10.32	-49.5	-51.3	15.9	6.03e-01	0	24	0	294649856	68	4283
2026-01-09 23:13:17.79	56.25	10.34	-49.5	-51.2	16.0	6.02e-01	0	23	0	296747008	68	4236
2026-01-09 23:13:18.79	56.45	10.36	-49.4	-51.2	16.0	6.03e-01	0	23	0	298844160	68	4220
2026-01-09 23:13:19.78	56.65	10.38	-49.6	-51.4	15.9	6.03e-01	0	23	0	300417024	68	4309
2026-01-09 23:13:20.79	56.86	10.40	-49.6	-51.4	15.9	6.05e-01	0	23	0	302514176	68	4316
2026-01-09 23:13:21.78	57.06	10.42	-49.5	-51.3	16.0	6.02e-01	0	23	0	304087040	68	4250
2026-01-09 23:13:22.78	57.26	10.44	-49.5	-51.3	16.0	6.03e-01	0	23	0	306184192	68	4256
2026-01-09 23:13:23.78	57.47	10.46	-49.5	-51.3	16.0	6.03e-01	0	23	0	307757056	68	4266
2026-01-09 23:13:24.78	57.67	10.48	-49.5	-51.3	15.9	6.02e-01	0	23	0	309854208	68	4288
2026-01-09 23:13:25.78	57.87	10.50	-49.6	-51.4	15.8	6.01e-01	0	23	0	311951360	68	4307
2026-01-09 23:13:26.78	58.08	10.52	-49.4	-51.2	16.0	6.02e-01	0	23	0	313524224	68	4235
2026-01-09 23:13:27.77	58.28	10.54	-49.5	-51.3	16.0	6.04e-01	0	23	0	315621376	68	4277
2026-01-09 23:13:28.77	58.49	10.56	-49.5	-51.4	16.0	6.02e-01	0	23	0	317194240	68	4294
2026-01-09 23:13:29.78	58.69	10.58	-49.5	-51.3	16.0	6.01e-01	0	23	0	319291392	68	4254
2026-01-09 23:13:30.78	58.90	10.59	-49.5	-51.2	16.0	6.03e-01	0	23	0	320864256	68	4237
2026-01-09 23:13:31.78	59.11	10.61	-49.6	-51.4	15.9	6.03e-01	0	23	0	322961408	68	4312
2026-01-09 23:13:32.77	59.31	10.63	-49.5	-51.3	16.0	6.04e-01	0	23	0	325058560	68	4252
2026-01-09 23:13:33.77	59.52	10.65	-49.4	-51.2	16.0	6.04e-01	0	23	0	326631424	68	4210
2026-01-09 23:13:34.78	59.73	10.66	-49.5	-51.3	16.0	6.03e-01	0	24	0	328728576	68	4243
2026-01-09 23:13:35.77	59.93	10.68	-49.5	-51.3	16.0	6.02e-01	0	23	0	330301440	68	4257
2026-01-09 23:13:36.78	60.14	10.69	-49.6	-51.4	16.0	6.02e-01	0	23	0	332398592	68	4306
2026-01-09 23:13:37.77	60.34	10.71	-49.5	-51.3	16.0	6.02e-01	0	23	0	333971456	68	4245
2026-01-09 23:13:38.76	60.55	10.73	-49.5	-51.3	16.0	6.05e-01	0	23	0	336068608	68	4262
2026-01-09 23:13:39.76	60.76	10.74	-49.6	-51.5	15.9	6.03e-01	0	23	0	337641472	68	4355
2026-01-09 23:13:40.76	60.97	10.76	-49.5	-51.3	16.0	6.02e-01	0	23	0	339738624	68	4273
2026-01-09 23:13:41.75	61.17	10.77	-49.4	-51.1	16.0	6.04e-01	0	23	0	341835776	68	4191
2026-01-09 23:13:42.75	61.38	10.78	-49.4	-51.2	15.8	6.03e-01	0	23	0	343408640	67	4453
2026-01-09 23:13:43.75	61.59	10.80	-49.5	-51.3	15.8	6.02e-01	0	23	0	345505792	67	4496
2026-01-09 23:13:44.75	61.80	10.81	-49.4	-51.2	15.8	6.03e-01	0	23	0	347078656	67	4477
2026-01-09 23:13:45.75	62.01	10.83	-49.4	-51.2	15.8	6.03e-01	0	23	0	349175808	67	4490
2026-01-09 23:13:46.74	62.22	10.84	-49.4	-51.2	15.8	6.04e-01	0	23	0	351272960	67	4458
2026-01-09 23:13:47.73	62.42	10.85	-49.5	-51.3	15.8	6.03e-01	0	23	0	352845824	67	4510
2026-01-09 23:13:48.73	62.63	10.86	-49.4	-51.2	15.8	6.03e-01	0	23	0	354942976	67	4474
2026-01-09 23:13:49.73	62.84	10.88	-49.4	-51.2	15.8	6.03e-01	0	23	0	356515840	67	4482
2026-01-09 23:13:50.72	63.05	10.89	-49.4	-51.2	15.8	6.02e-01	0	23	0	358612992	67	4492
2026-01-09 23:13:51.71	63.26	10.90	-49.4	-51.2	15.8	6.04e-01	0	23	0	360185856	67	4446
2026-01-09 23:13:52.72	63.47	10.91	-49.4	-51.2	15.8	6.01e-01	0	24	0	362283008	67	4471
2026-01-09 23:13:53.72	63.68	10.92	-49.4	-51.2	15.8	6.03e-01	0	23	0	364380160	67	4478
2026-01-09 23:13:54.72	63.89	10.93	-49.5	-51.3	15.8	6.02e-01	0	23	0	365953024	67	4515
2026-01-09 23:13:55.72	64.11	10.94	-49.4	-51.2	15.8	6.03e-01	0	23	0	368050176	67	4472
2026-01-09 23:13:56.70	64.31	10.95	-49.5	-51.3	15.7	6.03e-01	0	23	0	369623040	67	4535
2026-01-09 23:13:57.70	64.52	10.96	-49.3	-51.1	15.8	6.02e-01	0	23	0	371720192	67	4436
2026-01-09 23:13:58.69	64.73	10.97	-49.4	-51.2	15.8	6.04e-01	0	23	0	373293056	67	4469
2026-01-09 23:13:59.69	64.95	10.98	-49.3	-51.1	15.8	6.03e-01	0	23	0	375390208	67	4430
2026-01-09 23:14:00.69	65.16	10.99	-49.4	-51.2	15.8	6.02e-01	0	24	0	376963072	67	4474
2026-01-09 23:14:01.69	65.37	11.00	-49.5	-51.3	15.8	6.03e-01	0	23	0	379060224	67	4514
2026-01-09 23:14:02.69	65.58	11.00	-49.3	-51.1	15.9	6.02e-01	0	23	0	381157376	67	4435
2026-01-09 23:14:03.69	65.79	11.01	-49.4	-51.2	15.8	6.03e-01	0	23	0	382730240	67	4455
2026-01-09 23:14:04.69	66.01	11.02	-49.5	-51.3	15.8	6.02e-01	0	23	0	384827392	67	4501
2026-01-09 23:14:05.69	66.22	11.02	-49.4	-51.2	15.8	6.05e-01	0	24	0	386400256	67	4463
2026-01-09 23:14:06.68	66.43	11.03	-49.4	-51.2	15.8	6.02e-01	0	23	0	388497408	67	4489
2026-01-09 23:14:07.68	66.64	11.04	-49.4	-51.2	15.8	6.04e-01	0	23	0	390070272	67	4469
2026-01-09 23:14:08.68	66.85	11.04	-49.3	-51.1	15.8	6.02e-01	0	23	0	392167424	67	4415
2026-01-09 23:14:09.68	67.07	11.05	-49.3	-51.1	15.8	6.03e-01	0	23	0	394264576	67	4409
2026-01-09 23:14:10.67	67.28	11.05	-49.3	-51.1	15.8	6.03e-01	0	23	0	395837440	67	4429
2026-01-09 23:14:11.67	67.49	11.06	-49.3	-51.1	15.8	6.02e-01	0	23	0	397934592	67	4432
2026-01-09 23:14:12.67	67.70	11.06	-49.4	-51.2	15.8	6.02e-01	0	23	0	399507456	67	4449
2026-01-09 23:14:13.67	67.92	11.07	-49.4	-51.2	15.8	6.03e-01	0	23	0	401604608	67	4483
2026-01-09 23:14:14.67	68.13	11.07	-49.4	-51.2	15.8	6.04e-01	0	23	0	403177472	67	4454
2026-01-09 23:14:15.66	68.34	11.08	-49.5	-51.3	15.8	6.05e-01	0	23	0	405274624	67	4501
2026-01-09 23:14:16.66	68.55	11.08	-49.4	-51.2	15.8	6.02e-01	0	23	0	407371776	67	4458
2026-01-09 23:14:17.66	68.77	11.08	-49.3	-51.0	15.9	6.03e-01	0	23	0	408944640	67	4384
2026-01-09 23:14:18.66	68.98	11.08	-49.3	-51.1	15.8	6.05e-01	0	23	0	411041792	67	4411
2026-01-09 23:14:19.66	69.19	11.09	-49.4	-51.1	15.8	6.02e-01	0	23	0	412614656	67	4439
2026-01-09 23:14:20.66	69.41	11.09	-49.4	-51.2	15.8	6.02e-01	0	24	0	414711808	67	4451
2026-01-09 23:14:21.66	69.62	11.09	-49.4	-51.2	15.8	6.03e-01	0	23	0	416284672	67	4445
2026-01-09 23:14:22.67	69.84	11.09	-49.4	-51.2	15.8	6.04e-01	0	23	0	418381824	67	4458
2026-01-09 23:14:23.66	70.05	11.09	-49.4	-51.2	15.8	6.00e-01	0	24	0	419954688	67	4473
2026-01-09 23:14:24.65	70.26	11.09	-49.4	-51.2	15.8	6.03e-01	0	24	0	422051840	67	4491
2026-01-09 23:14:25.65	70.47	11.09	-49.4	-51.2	15.8	6.00e-01	0	23	0	424148992	67	4469
2026-01-09 23:14:26.66	70.69	11.09	-49.3	-51.1	15.8	6.02e-01	0	23	0	425721856	67	4434
2026-01-09 23:14:27.66	70.90	11.09	-49.5	-51.3	15.8	6.05e-01	0	23	0	427819008	67	4503
2026-01-09 23:14:28.66	71.12	11.09	-49.2	-51.0	15.9	6.02e-01	0	23	0	429916160	67	4366
2026-01-09 23:14:29.66	71.33	11.09	-49.3	-51.1	15.9	6.01e-01	0	23	0	431489024	67	4423
2026-01-09 23:14:30.66	71.54	11.09	-49.4	-51.2	15.8	6.06e-01	0	23	0	433586176	67	4467
2026-01-09 23:14:31.67	71.76	11.09	-49.5	-51.3	15.8	6.03e-01	0	23	0	435159040	67	4498
2026-01-09 23:14:32.67	71.97	11.09	-49.4	-51.2	15.8	6.03e-01	0	23	0	437256192	67	4452
2026-01-09 23:14:33.67	72.19	11.08	-49.4	-51.2	15.8	6.03e-01	0	23	0	438829056	67	4476
2026-01-09 23:14:34.67	72.40	11.08	-49.3	-51.1	15.8	6.03e-01	0	23	0	440926208	67	4426
2026-01-09 23:14:35.66	72.61	11.08	-49.3	-51.1	15.9	6.04e-01	0	23	0	443023360	67	4430
2026-01-09 23:14:36.65	72.82	11.07	-49.3	-51.1	15.9	6.04e-01	0	23	0	444596224	67	4398
2026-01-09 23:14:37.65	73.04	11.07	-49.3	-51.1	15.8	6.03e-01	0	23	0	446693376	67	4416
2026-01-09 23:14:38.65	73.25	11.07	-49.3	-51.1	15.9	6.02e-01	0	23	0	448266240	67	4407
2026-01-09 23:14:39.65	73.46	11.06	-49.3	-51.1	15.9	6.03e-01	0	23	0	450363392	67	4438
2026-01-09 23:14:40.65	73.67	11.06	-49.3	-51.1	15.8	6.03e-01	0	23	0	451936256	67	4436
2026-01-09 23:14:41.65	73.89	11.05	-49.4	-51.2	15.8	6.04e-01	0	23	0	454033408	67	4474
2026-01-09 23:14:42.65	74.10	11.05	-49.3	-51.1	15.8	6.03e-01	0	23	0	455606272	67	4426
2026-01-09 23:14:43.65	74.31	11.04	-49.3	-51.1	15.8	6.01e-01	0	23	0	457703424	67	4427
2026-01-09 23:14:44.65	74.53	11.03	-49.3	-51.1	15.9	6.00e-01	0	23	0	459800576	67	4395
2026-01-09 23:14:45.64	74.74	11.03	-49.3	-51.1	15.9	6.05e-01	0	24	0	461373440	67	4393
2026-01-09 23:14:46.64	74.95	11.02	-49.3	-51.0	15.9	6.03e-01	0	23	0	463470592	67	4377
2026-01-09 23:14:47.64	75.16	11.01	-49.3	-51.1	15.9	6.06e-01	0	23	0	465043456	67	4415
2026-01-09 23:14:48.64	75.37	11.01	-49.5	-51.3	15.8	6.03e-01	0	23	0	467140608	67	4511
2026-01-09 23:14:49.63	75.58	11.00	-49.3	-51.1	15.8	6.04e-01	0	24	0	468713472	67	4437
2026-01-09 23:14:50.63	75.80	10.99	-49.3	-51.1	15.9	6.02e-01	0	23	0	470810624	67	4428
2026-01-09 23:14:51.63	76.01	10.98	-49.3	-51.1	15.9	6.03e-01	0	24	0	472907776	67	4407
2026-01-09 23:14:52.63	76.22	10.97	-49.3	-51.1	15.9	6.02e-01	0	24	0	474480640	67	4412
2026-01-09 23:14:53.63	76.43	10.96	-49.3	-51.1	15.9	6.04e-01	0	24	0	476577792	67	4401
2026-01-09 23:14:54.63	76.64	10.95	-49.3	-51.1	15.8	6.03e-01	0	23	0	478150656	67	4403
2026-01-09 23:14:55.63	76.86	10.94	-49.4	-51.2	15.8	6.03e-01	0	23	0	480247808	67	4456
2026-01-09 23:14:56.63	77.07	10.93	-49.3	-51.1	15.8	6.04e-01	0	24	0	481820672	67	4423
2026-01-09 23:14:57.63	77.28	10.92	-49.4	-51.3	15.8	6.01e-01	0	24	0	483917824	67	4502
2026-01-09 23:14:58.64	77.49	10.91	-49.4	-51.2	15.8	6.03e-01	0	24	0	486014976	67	4448
2026-01-09 23:14:59.65	77.70	10.90	-49.4	-51.1	15.8	6.02e-01	0	23	0	487587840	67	4440
2026-01-09 23:15:00.66	77.92	10.89	-49.3	-51.1	15.9	6.04e-01	0	24	0	489684992	67	4404
2026-01-09 23:15:01.66	78.13	10.88	-49.3	-51.1	15.9	6.01e-01	0	24	0	491257856	67	4397
2026-01-09 23:15:02.66	78.34	10.87	-49.4	-51.2	15.8	6.03e-01	0	24	0	493355008	67	4446
2026-01-09 23:15:03.66	78.55	10.86	-49.2	-51.0	15.9	6.04e-01	0	24	0	495452160	67	4378
2026-01-09 23:15:04.66	78.76	10.84	-49.4	-51.2	15.8	6.04e-01	0	24	0	497025024	67	4461
2026-01-09 23:15:05.66	78.97	10.83	-49.5	-51.3	15.8	6.03e-01	0	23	0	499122176	67	4510
2026-01-09 23:15:06.66	79.18	10.82	-49.5	-51.3	15.8	6.04e-01	0	24	0	500695040	67	4508
2026-01-09 23:15:07.65	79.39	10.80	-49.5	-51.3	15.8	6.03e-01	0	23	0	502792192	67	4525
2026-01-09 23:15:08.65	79.59	10.79	-49.5	-51.3	15.7	6.04e-01	0	23	0	504365056	67	4521
2026-01-09 23:15:09.65	79.80	10.77	-49.4	-51.2	15.8	6.05e-01	0	23	0	506462208	67	4455
2026-01-09 23:15:10.65	80.01	10.76	-49.3	-51.1	15.9	6.02e-01	0	23	0	508559360	67	4422
2026-01-09 23:15:11.63	80.22	10.75	-49.3	-51.1	15.8	6.02e-01	0	23	0	510132224	67	4424
2026-01-09 23:15:12.62	80.42	10.73	-49.4	-51.1	15.8	6.04e-01	0	23	0	512229376	67	4440
2026-01-09 23:15:13.62	80.63	10.72	-49.4	-51.2	15.8	6.04e-01	0	24	0	513802240	67	4468
2026-01-09 23:15:14.62	80.84	10.70	-49.4	-51.2	15.8	6.04e-01	0	23	0	515899392	67	4466
2026-01-09 23:15:15.61	81.05	10.68	-49.4	-51.2	15.8	6.03e-01	0	24	0	517472256	67	4460
2026-01-09 23:15:16.61	81.25	10.67	-49.3	-51.1	15.8	6.05e-01	0	24	0	519569408	67	4440
2026-01-09 23:15:17.61	81.46	10.65	-49.3	-51.1	15.8	6.01e-01	0	23	0	521666560	67	4412
2026-01-09 23:15:18.61	81.67	10.63	-49.3	-51.1	15.8	6.03e-01	0	23	0	523239424	67	4441
2026-01-09 23:15:19.61	81.87	10.62	-49.3	-51.1	15.8	6.05e-01	0	23	0	525336576	67	4406
2026-01-09 23:15:20.60	82.08	10.60	-49.4	-51.2	15.8	6.03e-01	0	23	0	526909440	67	4452
2026-01-09 23:15:21.60	82.28	10.58	-49.4	-51.2	15.8	6.02e-01	0	24	0	529006592	67	4481
2026-01-09 23:15:22.60	82.49	10.56	-49.3	-51.1	15.8	6.04e-01	0	23	0	530579456	67	4441
2026-01-09 23:15:23.59	82.69	10.54	-49.3	-51.1	15.8	6.02e-01	0	23	0	532676608	67	4433
2026-01-09 23:15:24.59	82.90	10.53	-49.5	-51.3	15.8	6.03e-01	0	23	0	534249472	67	4505
2026-01-09 23:15:25.59	83.10	10.51	-49.5	-51.3	15.8	6.03e-01	0	23	0	536346624	67	4515
2026-01-09 23:15:26.59	83.31	10.49	-49.4	-51.2	15.8	6.02e-01	0	24	0	538443776	67	4482
2026-01-09 23:15:27.59	83.51	10.47	-49.3	-51.1	15.8	6.04e-01	0	23	0	540016640	67	4433
2026-01-09 23:15:28.59	83.72	10.45	-49.3	-51.1	15.8	6.06e-01	0	24	0	542113792	67	4436
2026-01-09 23:15:29.59	83.92	10.43	-49.4	-51.2	15.8	6.06e-01	0	23	0	543686656	67	4448
2026-01-09 23:15:30.59	84.13	10.41	-49.5	-51.3	15.8	6.03e-01	0	23	0	545783808	67	4515
2026-01-09 23:15:31.59	84.33	10.39	-49.5	-51.3	15.7	6.03e-01	0	23	0	547356672	67	4533
2026-01-09 23:15:32.59	84.53	10.37	-49.6	-51.5	15.7	6.04e-01	0	24	0	549453824	67	4617
2026-01-09 23:15:33.58	84.73	10.34	-49.5	-51.4	15.7	6.03e-01	0	23	0	551550976	67	4570
2026-01-09 23:15:34.58	84.94	10.32	-49.5	-51.3	15.7	6.02e-01	0	23	0	553123840	67	4544
2026-01-09 23:15:35.58	85.14	10.30	-49.4	-51.2	15.8	6.04e-01	0	24	0	555220992	67	4485
2026-01-09 23:15:36.58	85.34	10.28	-49.5	-51.3	15.8	6.03e-01	0	24	0	556793856	67	4526
2026-01-09 23:15:37.58	85.54	10.26	-49.5	-51.4	15.8	6.02e-01	0	23	0	558891008	67	4553
2026-01-09 23:15:38.58	85.74	10.23	-49.5	-51.3	15.8	6.04e-01	0	24	0	560988160	67	4515
2026-01-09 23:15:39.57	85.94	10.21	-49.4	-51.2	15.8	6.04e-01	0	24	0	562561024	67	4486
2026-01-09 23:15:40.58	86.14	10.19	-49.4	-51.2	15.8	6.04e-01	0	23	0	564658176	67	4456
2026-01-09 23:15:41.57	86.34	10.16	-49.3	-51.1	15.8	6.02e-01	0	23	0	566231040	67	4410
2026-01-09 23:15:42.58	86.54	10.14	-49.4	-51.2	15.8	6.02e-01	0	24	0	568328192	67	4491
2026-01-09 23:15:43.58	86.74	10.12	-49.5	-51.4	15.8	6.00e-01	0	23	0	569901056	67	4561
2026-01-09 23:15:44.58	86.94	10.09	-49.4	-51.2	15.8	6.03e-01	0	23	0	571998208	67	4456
2026-01-09 23:15:45.58	87.14	10.07	-49.5	-51.3	15.8	6.01e-01	0	23	0	574095360	67	4505
2026-01-09 23:15:46.59	87.34	10.04	-49.5	-51.3	15.8	6.03e-01	0	23	0	575668224	67	4516
2026-01-09 23:15:47.59	87.54	10.02	-49.5	-51.4	15.7	6.03e-01	0	24	0	577765376	67	4550
2026-01-09 23:15:48.59	87.74	9.99	-49.5	-51.3	15.8	6.02e-01	0	23	0	579338240	67	4537
2026-01-09 23:15:49.58	87.93	9.97	-49.5	-51.3	15.8	6.04e-01	0	24	0	581435392	67	4519
2026-01-09 23:15:50.58	88.13	9.94	-49.5	-51.3	15.8	6.01e-01	0	24	0	583008256	67	4510
2026-01-09 23:15:51.57	88.33	9.92	-49.6	-51.5	15.7	6.03e-01	0	23	0	585105408	67	4604
2026-01-09 23:15:52.58	88.53	9.89	-49.5	-51.3	15.8	6.03e-01	0	24	0	587202560	67	4531
2026-01-09 23:15:53.58	88.72	9.86	-49.5	-51.3	15.8	6.01e-01	0	23	0	588775424	67	4521
2026-01-09 23:15:54.57	88.91	9.84	-49.3	-51.2	15.8	6.02e-01	0	23	0	590872576	67	4445
2026-01-09 23:15:55.57	89.11	9.81	-49.4	-51.2	15.8	6.01e-01	0	23	0	592445440	67	4464
2026-01-09 23:15:56.57	89.31	9.78	-49.4	-51.3	15.8	6.04e-01	0	24	0	594542592	67	4499
2026-01-09 23:15:57.57	89.50	9.75	-49.6	-51.5	15.7	6.03e-01	0	23	0	596115456	67	4605
2026-01-09 23:15:58.57	89.69	9.73	-49.6	-51.4	15.7	6.02e-01	0	23	0	598212608	67	4590
2026-01-09 23:15:59.57	89.89	9.70	-49.5	-51.4	15.7	6.02e-01	0	23	0	600309760	67	4576
2026-01-09 23:16:00.56	90.08	9.67	-49.6	-51.4	15.7	6.04e-01	0	23	0	601882624	67	4578
2026-01-09 23:16:01.57	90.27	9.64	-49.5	-51.3	15.8	6.05e-01	0	23	0	603979776	67	4532
2026-01-09 23:16:02.57	90.47	9.61	-49.5	-51.3	15.8	6.03e-01	0	23	0	605552640	67	4539
2026-01-09 23:16:03.56	90.66	9.58	-49.5	-51.3	15.8	6.03e-01	0	23	0	607649792	67	4516
2026-01-09 23:16:04.56	90.85	9.55	-49.4	-51.3	15.8	6.05e-01	0	23	0	609222656	67	4495
2026-01-09 23:16:05.56	91.04	9.53	-49.6	-51.4	15.7	6.02e-01	0	24	0	611319808	67	4596
2026-01-09 23:16:06.56	91.23	9.50	-49.5	-51.4	15.7	6.01e-01	0	24	0	613416960	67	4569
2026-01-09 23:16:07.56	91.42	9.47	-49.6	-51.4	15.7	6.05e-01	0	24	0	614989824	67	4575
2026-01-09 23:16:08.55	91.61	9.44	-49.6	-51.4	15.7	6.05e-01	0	23	0	617086976	67	4592
2026-01-09 23:16:09.55	91.80	9.41	-49.5	-51.4	15.7	6.02e-01	0	23	0	618659840	67	4548
2026-01-09 23:16:10.55	91.99	9.38	-49.6	-51.4	15.7	6.02e-01	0	23	0	620756992	67	4598
2026-01-09 23:16:11.55	92.18	9.34	-49.6	-51.5	15.7	6.02e-01	0	23	0	622329856	67	4630
2026-01-09 23:16:12.55	92.37	9.31	-49.5	-51.4	15.7	6.02e-01	0	23	0	624427008	67	4567
2026-01-09 23:16:13.55	92.55	9.28	-49.6	-51.4	15.7	6.03e-01	0	24	0	625999872	67	4590
2026-01-09 23:16:14.56	92.74	9.25	-49.5	-51.3	15.8	6.04e-01	0	23	0	628097024	67	4544
2026-01-09 23:16:15.56	92.93	9.22	-49.6	-51.5	15.7	6.02e-01	0	23	0	630194176	67	4614
2026-01-09 23:16:16.56	93.12	9.19	-49.7	-51.6	15.7	6.02e-01	0	23	0	631767040	67	4656
2026-01-09 23:16:17.56	93.30	9.16	-49.5	-51.4	15.7	6.03e-01	0	23	0	633864192	67	4563
2026-01-09 23:16:18.56	93.49	9.12	-49.6	-51.4	15.7	6.04e-01	0	23	0	635437056	67	4576
2026-01-09 23:16:19.56	93.68	9.09	-49.7	-51.6	15.7	6.02e-01	0	23	0	637534208	67	4668
2026-01-09 23:16:20.56	93.86	9.06	-49.7	-51.6	15.6	6.02e-01	0	24	0	639631360	67	4693
2026-01-09 23:16:21.56	94.05	9.03	-49.8	-51.7	15.6	6.04e-01	0	23	0	641204224	67	4721
2026-01-09 23:16:22.56	94.23	8.99	-49.7	-51.5	15.7	6.04e-01	0	23	0	643301376	67	4651
2026-01-09 23:16:23.56	94.41	8.96	-49.7	-51.6	15.6	6.03e-01	0	23	0	644874240	67	4696
2026-01-09 23:16:24.56	94.60	8.93	-49.7	-51.6	15.7	6.03e-01	0	23	0	646971392	67	4675
2026-01-09 23:16:25.56	94.78	8.89	-49.7	-51.6	15.7	6.03e-01	0	23	0	649068544	67	4685
2026-01-09 23:16:26.55	94.96	8.86	-49.7	-51.6	15.7	6.03e-01	0	24	0	650641408	67	4663
2026-01-09 23:16:27.55	95.14	8.83	-49.6	-51.5	15.7	6.04e-01	0	23	0	652738560	67	4640
2026-01-09 23:16:28.54	95.32	8.79	-49.6	-51.5	15.7	6.04e-01	0	23	0	654311424	67	4626
2026-01-09 23:16:29.54	95.50	8.76	-49.6	-51.5	15.7	6.07e-01	0	24	0	656408576	67	4612
2026-01-09 23:16:30.54	95.68	8.72	-49.6	-51.5	15.7	6.06e-01	0	24	0	657981440	67	4613
2026-01-09 23:16:31.54	95.87	8.69	-49.6	-51.5	15.7	6.04e-01	0	23	0	660078592	67	4636
2026-01-09 23:16:32.54	96.04	8.65	-49.8	-51.7	15.6	6.02e-01	0	24	0	661651456	67	4755
2026-01-09 23:16:33.54	96.22	8.62	-49.7	-51.5	15.7	6.04e-01	0	23	0	663748608	67	4650
2026-01-09 23:16:34.54	96.40	8.58	-49.8	-51.8	15.6	6.07e-01	0	24	0	665845760	67	4772
2026-01-09 23:16:35.55	96.58	8.55	-49.9	-51.9	15.5	6.05e-01	0	24	0	667418624	67	4827
2026-01-09 23:16:36.54	96.76	8.51	-50.0	-52.0	15.5	6.03e-01	0	23	0	669515776	67	4910
2026-01-09 23:16:37.54	96.94	8.48	-50.0	-52.0	15.5	6.02e-01	0	23	0	671088640	67	4910
2026-01-09 23:16:38.54	97.11	8.44	-50.2	-52.2	15.6	6.05e-01	0	23	0	673185792	68	4724
2026-01-09 23:16:39.54	97.29	8.40	-49.9	-51.9	15.7	6.03e-01	0	24	0	674758656	68	4555
2026-01-09 23:16:40.54	97.47	8.37	-49.7	-51.6	15.8	6.05e-01	0	24	0	676855808	68	4425
2026-01-09 23:16:41.55	97.64	8.33	-49.8	-51.7	15.8	6.05e-01	0	23	0	678952960	68	4456
2026-01-09 23:16:42.55	97.82	8.30	-49.8	-51.7	15.8	6.05e-01	0	23	0	680525824	68	4453
2026-01-09 23:16:43.55	97.99	8.26	-49.8	-51.7	15.8	6.03e-01	0	23	0	682622976	68	4445
2026-01-09 23:16:44.54	98.17	8.22	-49.7	-51.6	15.8	6.02e-01	0	24	0	684195840	68	4433
2026-01-09 23:16:45.54	98.34	8.19	-49.9	-51.8	15.8	6.03e-01	0	23	0	686292992	68	4529
2026-01-09 23:16:46.55	98.52	8.15	-49.8	-51.7	15.8	6.03e-01	0	23	0	688390144	68	4485
2026-01-09 23:16:47.55	98.69	8.11	-49.9	-51.8	15.8	6.03e-01	0	24	0	689963008	68	4525
2026-01-09 23:16:48.55	98.86	8.07	-49.9	-51.8	15.8	6.04e-01	0	23	0	692060160	68	4513
2026-01-09 23:16:49.56	99.04	8.03	-50.0	-51.9	15.7	6.04e-01	0	23	0	693633024	68	4591
2026-01-09 23:16:50.55	99.21	8.00	-49.9	-51.9	15.7	6.03e-01	0	23	0	695730176	68	4561
2026-01-09 23:16:51.55	99.38	7.96	-49.9	-51.9	15.8	6.04e-01	0	24	0	697303040	68	4550
2026-01-09 23:16:52.55	99.55	7.92	-50.0	-51.9	15.7	6.03e-01	0	24	0	699400192	68	4591
2026-01-09 23:16:53.55	99.72	7.88	-49.9	-51.9	15.7	6.03e-01	0	23	0	701497344	68	4563
2026-01-09 23:16:54.55	99.89	7.85	-49.9	-51.9	15.7	6.05e-01	0	23	0	703070208	68	4571
2026-01-09 23:16:55.55	100.06	7.81	-50.0	-51.9	15.7	6.02e-01	0	23	0	705167360	68	4585
2026-01-09 23:16:56.55	100.23	7.77	-49.9	-51.8	15.7	6.01e-01	0	23	0	706740224	68	4543
2026-01-09 23:16:57.55	100.39	7.73	-50.0	-52.0	15.7	6.05e-01	0	23	0	708837376	68	4607
2026-01-09 23:16:58.55	100.56	7.69	-49.9	-51.9	15.7	6.04e-01	0	23	0	710410240	68	4564
2026-01-09 23:16:59.55	100.73	7.65	-50.0	-51.9	15.7	6.02e-01	0	23	0	712507392	68	4593
2026-01-09 23:17:00.55	100.90	7.61	-50.0	-51.9	15.7	6.02e-01	0	23	0	714604544	68	4585
2026-01-09 23:17:01.55	101.06	7.57	-50.2	-52.2	15.6	6.02e-01	0	24	0	716177408	68	4724
2026-01-09 23:17:02.55	101.23	7.53	-50.1	-52.1	15.7	6.03e-01	0	23	0	718274560	68	4671
2026-01-09 23:17:03.55	101.39	7.49	-50.1	-52.1	15.6	6.03e-01	0	23	0	719847424	68	4663
2026-01-09 23:17:04.55	101.56	7.45	-50.0	-52.0	15.7	6.04e-01	0	23	0	721944576	68	4613
2026-01-09 23:17:05.55	101.72	7.42	-50.0	-52.0	15.7	6.02e-01	0	24	0	723517440	68	4644
2026-01-09 23:17:06.56	101.89	7.38	-50.1	-52.1	15.7	6.03e-01	0	24	0	725614592	68	4660
2026-01-09 23:17:07.56	102.05	7.34	-50.0	-52.0	15.6	6.01e-01	0	24	0	727711744	68	4639
2026-01-09 23:17:08.56	102.22	7.30	-50.1	-52.1	15.6	6.05e-01	0	23	0	729284608	68	4704
2026-01-09 23:17:09.56	102.38	7.25	-50.1	-52.0	15.7	6.03e-01	0	23	0	731381760	68	4651
2026-01-09 23:17:10.57	102.54	7.21	-50.0	-52.0	15.7	6.03e-01	0	23	0	733478912	68	4611
2026-01-09 23:17:11.57	102.70	7.17	-50.1	-52.1	15.6	6.03e-01	0	24	0	735051776	68	4668
2026-01-09 23:17:12.57	102.87	7.13	-50.0	-52.0	15.6	6.05e-01	0	23	0	737148928	68	4634
2026-01-09 23:17:13.56	103.02	7.09	-50.1	-52.1	15.6	6.02e-01	0	23	0	738721792	68	4658
2026-01-09 23:17:14.56	103.18	7.05	-50.1	-52.1	15.6	6.03e-01	0	23	0	740818944	68	4690
2026-01-09 23:17:15.57	103.35	7.01	-50.1	-52.1	15.6	6.02e-01	0	24	0	742391808	68	4696
2026-01-09 23:17:16.56	103.50	6.97	-50.0	-52.1	15.6	6.03e-01	0	23	0	744488960	68	4652
2026-01-09 23:17:17.56	103.66	6.93	-50.1	-52.1	15.6	6.04e-01	0	23	0	746586112	68	4693
2026-01-09 23:17:18.56	103.82	6.89	-50.2	-52.2	15.6	6.01e-01	0	23	0	748158976	68	4739
2026-01-09 23:17:19.55	103.98	6.85	-50.1	-52.2	15.6	6.04e-01	0	23	0	750256128	68	4712
2026-01-09 23:17:20.55	104.14	6.81	-50.2	-52.2	15.6	6.02e-01	0	23	0	751828992	68	4723
2026-01-09 23:17:21.55	104.29	6.76	-50.2	-52.3	15.6	6.04e-01	0	24	0	753926144	68	4800
2026-01-09 23:17:22.55	104.45	6.72	-50.3	-52.3	15.5	6.04e-01	0	24	0	755499008	68	4813
2026-01-09 23:17:23.55	104.61	6.68	-50.4	-52.4	15.5	6.05e-01	0	23	0	757596160	68	4869
2026-01-09 23:17:24.55	104.76	6.64	-50.2	-52.2	15.6	6.05e-01	0	23	0	759169024	68	4741
2026-01-09 23:17:25.54	104.91	6.60	-50.1	-52.1	15.6	6.04e-01	0	23	0	761266176	68	4701
2026-01-09 23:17:26.55	105.07	6.56	-50.1	-52.1	15.6	6.04e-01	0	23	0	763363328	68	4677
2026-01-09 23:17:27.54	105.22	6.51	-50.2	-52.2	15.6	6.02e-01	0	23	0	764936192	68	4758
2026-01-09 23:17:28.55	105.38	6.47	-50.3	-52.4	15.5	6.04e-01	0	23	0	767033344	68	4831
2026-01-09 23:17:29.54	105.53	6.43	-50.2	-52.3	15.6	6.03e-01	0	23	0	768606208	68	4779
2026-01-09 23:17:30.54	105.68	6.39	-50.2	-52.3	15.6	6.03e-01	0	23	0	770703360	68	4772
2026-01-09 23:17:31.54	105.84	6.35	-50.3	-52.4	15.5	6.03e-01	0	24	0	772276224	68	4838
2026-01-09 23:17:32.54	105.99	6.30	-50.3	-52.4	15.5	6.04e-01	0	23	0	774373376	68	4820
2026-01-09 23:17:33.54	106.14	6.26	-50.3	-52.4	15.5	6.01e-01	0	23	0	776470528	68	4861
2026-01-09 23:17:34.54	106.29	6.22	-50.5	-52.6	15.4	6.03e-01	0	23	0	778043392	68	4980
2026-01-09 23:17:35.53	106.44	6.18	-50.4	-52.5	15.4	6.02e-01	0	23	0	780140544	68	4887
2026-01-09 23:17:36.53	106.59	6.13	-50.4	-52.5	15.5	6.02e-01	0	23	0	781713408	68	4915
2026-01-09 23:17:37.53	106.74	6.09	-50.4	-52.5	15.5	6.01e-01	0	23	0	783810560	68	4898
2026-01-09 23:17:38.53	106.89	6.05	-50.4	-52.5	15.5	6.03e-01	0	23	0	785383424	68	4905
2026-01-09 23:17:39.53	107.04	6.00	-50.3	-52.5	15.5	6.04e-01	0	23	0	787480576	68	4872
2026-01-09 23:17:40.54	107.19	5.96	-50.4	-52.6	15.5	6.03e-01	0	23	0	789577728	68	4930
2026-01-09 23:17:41.54	107.33	5.92	-50.4	-52.5	15.5	6.03e-01	0	23	0	791150592	68	4900
2026-01-09 23:17:42.54	107.48	5.87	-50.4	-52.5	15.5	6.04e-01	0	24	0	793247744	68	4906
2026-01-09 23:17:43.54	107.63	5.83	-50.4	-52.5	15.5	6.05e-01	0	23	0	794820608	68	4891
2026-01-09 23:17:44.55	107.78	5.79	-50.5	-52.6	15.4	6.04e-01	0	23	0	796917760	68	4954
2026-01-09 23:17:45.56	107.92	5.74	-50.3	-52.4	15.5	6.04e-01	0	23	0	799014912	68	4853
2026-01-09 23:17:46.56	108.07	5.70	-50.4	-52.5	15.5	6.03e-01	0	24	0	800587776	68	4891
2026-01-09 23:17:47.56	108.21	5.66	-50.5	-52.7	15.4	6.03e-01	0	23	0	802684928	68	4986
2026-01-09 23:17:48.57	108.36	5.61	-50.5	-52.6	15.4	6.03e-01	0	23	0	804257792	68	4975
2026-01-09 23:17:49.57	108.50	5.57	-50.6	-52.8	15.5	6.02e-01	0	24	0	806354944	69	4796
2026-01-09 23:17:50.58	108.65	5.52	-50.6	-52.8	15.5	6.03e-01	0	24	0	808452096	69	4799
2026-01-09 23:17:51.57	108.79	5.48	-50.6	-52.7	15.5	6.04e-01	0	23	0	810024960	69	4750
2026-01-09 23:17:52.58	108.93	5.44	-50.6	-52.8	15.5	6.03e-01	0	24	0	812122112	69	4776
2026-01-09 23:17:53.57	109.08	5.39	-50.6	-52.8	15.5	6.05e-01	0	23	0	813694976	69	4783
2026-01-09 23:17:54.57	109.22	5.35	-50.7	-52.9	15.5	6.05e-01	0	24	0	815792128	69	4826
2026-01-09 23:17:55.57	109.36	5.31	-50.7	-53.0	15.4	6.03e-01	0	23	0	817364992	69	4875
2026-01-09 23:17:56.57	109.50	5.26	-50.7	-52.9	15.4	6.03e-01	0	23	0	819462144	69	4840
2026-01-09 23:17:57.56	109.64	5.22	-50.8	-53.1	15.4	6.03e-01	0	24	0	821559296	69	4955
2026-01-09 23:17:58.57	109.78	5.17	-50.8	-53.1	15.4	6.03e-01	0	23	0	823132160	69	4954
2026-01-09 23:17:59.57	109.92	5.13	-50.8	-53.1	15.4	6.04e-01	0	24	0	825229312	69	4933
2026-01-09 23:18:00.57	110.06	5.09	-50.8	-53.1	15.4	6.04e-01	0	23	0	826802176	69	4931
2026-01-09 23:18:01.58	110.20	5.04	-50.7	-53.0	15.5	6.04e-01	0	23	0	828899328	69	4876
2026-01-09 23:18:02.58	110.34	5.00	-52.4	-55.3	15.0	6.06e-01	0	23	0	830472192	72	5397
2026-01-09 23:18:03.59	110.48	4.95	-57.5	-76.5	3.8	7.48e-01	0	24	104	831520768	82	34602
2026-01-09 23:18:04.59	110.61	4.91	-57.7	-77.1	3.8	7.43e-01	0	23	104	831520768	83	34908
2026-01-09 23:18:05.58	110.75	4.86	-57.9	-77.2	3.8	7.45e-01	0	23	104	831520768	83	35485
2026-01-09 23:18:06.58	110.89	4.82	-58.0	-77.2	3.8	7.47e-01	0	24	104	831520768	83	35553
2026-01-09 23:18:07.57	111.02	4.77	-58.1	-77.4	3.8	7.45e-01	0	23	104	831520768	83	36257
2026-01-09 23:18:08.57	111.16	4.73	-58.3	-77.7	3.8	7.47e-01	0	23	104	831520768	84	35313
2026-01-09 23:18:09.56	111.29	4.69	-58.4	-77.7	3.8	7.47e-01	0	23	104	831520768	84	35560
2026-01-09 23:18:10.55	111.42	4.64	-58.4	-77.8	3.8	7.47e-01	0	23	104	831520768	84	35796
2026-01-09 23:18:11.55	111.56	4.60	-58.5	-77.8	3.8	7.47e-01	0	24	104	831520768	84	36060
2026-01-09 23:18:12.55	111.69	4.55	-58.5	-77.9	3.8	7.47e-01	0	23	104	831520768	84	36190
2026-01-09 23:18:13.54	111.82	4.51	-58.6	-77.9	3.8	7.47e-01	0	24	104	831520768	84	36336
2026-01-09 23:18:14.54	111.96	4.46	-58.6	-77.9	3.8	7.48e-01	0	24	104	831520768	84	36491
2026-01-09 23:18:15.54	112.09	4.42	-58.7	-78.0	3.8	7.42e-01	0	24	104	831520768	85	34701
2026-01-09 23:18:16.53	112.22	4.37	-58.7	-78.0	3.8	7.47e-01	0	24	104	831520768	85	34762
2026-01-09 23:18:17.53	112.35	4.33	-58.7	-78.1	3.8	7.47e-01	0	23	104	831520768	85	34905
2026-01-09 23:18:18.53	112.48	4.28	-58.7	-78.1	3.8	7.47e-01	0	24	104	831520768	85	34989
2026-01-09 23:18:19.52	112.61	4.24	-58.8	-78.1	3.8	7.47e-01	0	23	104	831520768	85	35033
2026-01-09 23:18:20.53	112.75	4.19	-58.8	-78.1	3.8	7.49e-01	0	24	104	831520768	85	35231
2026-01-09 23:18:21.53	112.88	4.15	-58.8	-78.2	3.8	7.48e-01	0	23	104	831520768	85	35321
2026-01-09 23:18:22.53	113.01	4.10	-58.8	-78.2	3.8	7.48e-01	0	23	104	831520768	85	35372
2026-01-09 23:18:23.53	113.13	4.06	-58.9	-78.2	3.8	7.46e-01	0	24	104	831520768	85	35526
2026-01-09 23:18:24.53	113.26	4.01	-58.9	-78.3	3.8	7.45e-01	0	24	104	831520768	85	35720
2026-01-09 23:18:25.52	113.39	3.97	-58.9	-78.3	3.8	7.50e-01	0	24	104	831520768	85	35757
2026-01-09 23:18:26.53	113.52	3.92	-58.9	-78.3	3.8	7.44e-01	0	24	104	831520768	85	35783
2026-01-09 23:18:27.54	113.65	3.88	-59.0	-78.3	3.9	7.45e-01	0	23	104	831520768	85	35957
2026-01-09 23:18:28.54	113.78	3.83	-59.0	-78.4	3.8	7.47e-01	0	24	104	831520768	85	36110
2026-01-09 23:18:29.55	113.90	3.79	-59.0	-78.4	3.8	7.47e-01	0	24	104	831520768	85	36171
2026-01-09 23:18:30.55	114.03	3.74	-59.1	-78.4	3.8	7.46e-01	0	24	104	831520768	85	36315
2026-01-09 23:18:31.54	114.15	3.70	-59.1	-78.4	3.8	7.44e-01	0	24	104	831520768	85	36427
2026-01-09 23:18:32.54	114.28	3.65	-59.1	-78.4	3.8	7.45e-01	0	23	104	831520768	85	36366
2026-01-09 23:18:33.55	114.41	3.60	-59.0	-78.4	3.8	7.46e-01	0	24	104	831520768	85	36273
2026-01-09 23:18:34.54	114.53	3.56	-59.0	-78.4	3.8	7.46e-01	0	24	104	831520768	85	36210
2026-01-09 23:18:35.54	114.65	3.51	-59.0	-78.4	3.8	7.46e-01	0	23	104	831520768	85	36245
2026-01-09 23:18:36.53	114.78	3.47	-59.0	-78.4	3.8	7.45e-01	0	24	104	831520768	85	36159
2026-01-09 23:18:37.53	114.90	3.42	-59.0	-78.4	3.8	7.46e-01	0	24	104	831520768	85	36224
2026-01-09 23:18:38.53	115.02	3.38	-59.0	-78.4	3.8	7.47e-01	0	23	104	831520768	85	36145
2026-01-09 23:18:39.53	115.15	3.33	-59.0	-78.3	3.8	7.48e-01	0	24	104	831520768	85	36079
2026-01-09 23:18:40.53	115.27	3.29	-59.0	-78.3	3.8	7.46e-01	0	23	104	831520768	85	36050
2026-01-09 23:18:41.54	115.39	3.24	-59.0	-78.3	3.8	7.50e-01	0	24	104	831520768	85	36076
2026-01-09 23:18:42.54	115.51	3.20	-59.0	-78.3	3.8	7.44e-01	0	24	104	831520768	85	36037
2026-01-09 23:18:43.53	115.63	3.15	-59.0	-78.3	3.8	7.43e-01	0	24	104	831520768	85	36045
2026-01-09 23:18:44.52	115.75	3.11	-59.0	-78.3	3.8	7.45e-01	0	24	104	831520768	85	35878
2026-01-09 23:18:45.52	115.87	3.06	-59.0	-78.3	3.8	7.45e-01	0	24	104	831520768	85	35821
2026-01-09 23:18:46.52	115.99	3.01	-59.0	-78.3	3.8	7.46e-01	0	23	104	831520768	85	35935
2026-01-09 23:18:47.52	116.11	2.97	-59.0	-78.3	3.8	7.46e-01	0	24	104	831520768	85	35887
2026-01-09 23:18:48.52	116.23	2.92	-59.0	-78.3	3.8	7.46e-01	0	24	104	831520768	85	35917
2026-01-09 23:18:49.52	116.35	2.88	-58.9	-78.3	3.8	7.44e-01	0	23	104	831520768	85	35917
2026-01-09 23:18:50.52	116.47	2.83	-58.9	-78.3	3.8	7.50e-01	0	24	104	831520768	85	35887
2026-01-09 23:18:51.52	116.59	2.79	-58.9	-78.3	3.8	7.44e-01	0	24	104	831520768	85	35749
2026-01-09 23:18:52.52	116.70	2.74	-58.9	-78.3	3.8	7.43e-01	0	23	104	831520768	85	35820
2026-01-09 23:18:53.52	116.82	2.70	-58.9	-78.2	3.8	7.46e-01	0	24	104	831520768	85	35641
2026-01-09 23:18:54.51	116.94	2.65	-58.9	-78.2	3.8	7.45e-01	0	24	104	831520768	85	35688
2026-01-09 23:18:55.51	117.05	2.60	-58.9	-78.2	3.8	7.45e-01	0	24	104	831520768	85	35691
2026-01-09 23:18:56.50	117.17	2.56	-58.9	-78.2	3.8	7.46e-01	0	24	104	831520768	85	35613
2026-01-09 23:18:57.50	117.29	2.51	-58.9	-78.2	3.8	7.47e-01	0	24	104	831520768	85	35657
2026-01-09 23:18:58.50	117.40	2.47	-58.9	-78.2	3.8	7.44e-01	0	24	104	831520768	85	35638
2026-01-09 23:18:59.50	117.52	2.42	-58.9	-78.2	3.8	7.47e-01	0	24	104	831520768	85	35578
2026-01-09 23:19:00.49	117.63	2.38	-58.9	-78.2	3.8	7.45e-01	0	24	104	831520768	85	35608
2026-01-09 23:19:01.49	117.74	2.33	-58.9	-78.2	3.8	7.46e-01	0	24	104	831520768	85	35640
2026-01-09 23:19:02.49	117.86	2.29	-58.9	-78.2	3.8	7.48e-01	0	24	104	831520768	85	35559
2026-01-09 23:19:03.49	117.97	2.24	-58.9	-78.2	3.8	7.45e-01	0	24	104	831520768	85	35567
2026-01-09 23:19:04.49	118.08	2.19	-58.9	-78.2	3.8	7.47e-01	0	24	104	831520768	85	35652
2026-01-09 23:19:05.49	118.20	2.15	-58.9	-78.2	3.8	7.46e-01	0	24	104	831520768	85	35612
2026-01-09 23:19:06.49	118.31	2.10	-58.9	-78.2	3.8	7.47e-01	0	24	104	831520768	85	35657
2026-01-09 23:19:07.50	118.42	2.06	-58.9	-78.2	3.8	7.43e-01	0	24	104	831520768	85	35678
2026-01-09 23:19:08.50	118.53	2.01	-58.9	-78.2	3.8	7.44e-01	0	24	104	831520768	85	35671
2026-01-09 23:19:09.50	118.65	1.97	-58.9	-78.2	3.8	7.43e-01	0	23	104	831520768	85	35648

#Closed at: 2026-01-09 23:19:09
#Recorded file [831 MB]: D:/lorett/data/31004_260110_020941.dat