passes_logs/2026/01/09/R3.2S_Murmansk/R3.2S_Murmansk__20260109_100142_NOAA_20_JPSS-1_rec.log

#Pass ID: 20260109_100142_NOAA 20 (JPSS-1)
#Satellite: NOAA 20 (JPSS-1)
#Configuration: NOAA 20
#almurnet v.1.7.20251203
#Start time: 2026-01-09 10:01:42

#Version: 2.2.20231116
#Station: R3.2S_Murmansk
#Location: 33.079688 lon 68.888172 lat
#TLE: 1 43013U 17073A   26008.56343035  .00000133  00000+0  84205-4 0  9993
#TLE: 2 43013  98.7630 309.5710 0001731  48.5146 311.6178 14.19534569421822

#Time	Az	El	Level	Level2	SNR	BER	BlckErr	Temp	State	Recorded	gain1	gain2
2026-01-09 10:01:42.49	163.91	2.00	-57.6	-73.5	3.8	1.49e+00	0	21	0	0	81	22403
2026-01-09 10:01:43.48	163.93	2.06	-57.5	-73.5	3.8	1.49e+00	0	22	104	0	80	23701
2026-01-09 10:01:44.47	163.95	2.13	-57.5	-73.5	3.8	1.49e+00	0	22	104	0	80	23609
2026-01-09 10:01:45.46	163.96	2.19	-57.5	-73.5	3.8	1.49e+00	0	22	104	0	80	23644
2026-01-09 10:01:46.44	163.98	2.25	-57.6	-73.4	3.8	1.49e+00	0	22	104	0	80	23426
2026-01-09 10:01:47.43	164.00	2.32	-57.5	-73.4	3.8	1.49e+00	0	22	104	0	80	23345
2026-01-09 10:01:48.42	164.01	2.38	-57.5	-73.3	3.8	1.49e+00	0	22	104	0	80	23151
2026-01-09 10:01:49.40	164.03	2.44	-57.5	-73.3	3.8	1.49e+00	0	22	104	0	80	23179
2026-01-09 10:01:50.40	164.05	2.51	-57.3	-73.3	3.8	1.49e+00	0	22	104	0	80	23276
2026-01-09 10:01:51.39	164.06	2.57	-57.5	-73.3	3.8	1.49e+00	0	22	104	0	80	23201
2026-01-09 10:01:52.38	164.08	2.64	-57.5	-73.3	3.8	1.49e+00	0	22	104	0	80	23236
2026-01-09 10:01:53.36	164.10	2.70	-57.5	-73.3	3.8	1.49e+00	0	22	104	0	80	23247
2026-01-09 10:01:54.35	164.11	2.77	-57.5	-73.3	3.8	1.49e+00	0	22	104	0	80	23251
2026-01-09 10:01:55.33	164.13	2.83	-57.5	-73.3	3.8	1.49e+00	0	22	104	0	80	23140
2026-01-09 10:01:56.32	164.15	2.90	-57.5	-73.2	3.8	1.49e+00	0	22	104	0	80	22823
2026-01-09 10:01:57.30	164.17	2.96	-57.5	-73.1	3.8	1.49e+00	0	22	104	0	80	22675
2026-01-09 10:01:58.29	164.18	3.03	-57.5	-73.0	3.8	1.49e+00	0	22	104	0	80	22424
2026-01-09 10:01:59.28	164.20	3.09	-57.5	-73.0	3.8	1.49e+00	0	22	104	0	80	22505
2026-01-09 10:02:00.27	164.22	3.16	-57.5	-73.1	3.8	1.49e+00	0	22	104	0	80	22592
2026-01-09 10:02:01.27	164.24	3.22	-57.5	-73.2	3.8	1.49e+00	0	22	104	0	80	22912
2026-01-09 10:02:02.26	164.25	3.29	-57.5	-73.3	3.8	1.49e+00	0	22	104	0	80	23258
2026-01-09 10:02:03.24	164.27	3.35	-57.5	-73.5	3.8	1.49e+00	0	22	104	0	80	23661
2026-01-09 10:02:04.22	164.29	3.42	-57.5	-73.5	3.8	1.49e+00	0	22	104	0	80	23793
2026-01-09 10:02:05.22	164.31	3.49	-57.5	-73.4	3.8	1.49e+00	0	22	104	0	80	23473
2026-01-09 10:02:06.21	164.33	3.55	-57.5	-73.1	3.8	1.49e+00	0	22	104	0	80	22575
2026-01-09 10:02:07.19	164.34	3.62	-57.5	-72.4	3.8	1.49e+00	0	22	104	0	80	21000
2026-01-09 10:02:08.18	164.36	3.69	-57.5	-71.5	3.8	1.49e+00	0	22	104	0	80	18820
2026-01-09 10:02:09.17	164.38	3.75	-57.4	-70.4	4.1	1.48e+00	0	22	104	0	80	16525
2026-01-09 10:02:10.16	164.40	3.82	-57.4	-69.4	4.3	1.39e+00	74	22	0	0	80	14852
2026-01-09 10:02:11.15	164.42	3.89	-57.3	-68.3	4.8	9.86e-01	0	22	0	1048576	80	13045
2026-01-09 10:02:12.14	164.44	3.96	-57.2	-67.7	5.1	6.72e-01	0	22	0	3145728	80	12224
2026-01-09 10:02:13.14	164.45	4.03	-57.1	-66.9	5.5	5.57e-01	0	23	0	5242880	80	11111
2026-01-09 10:02:14.13	164.47	4.09	-57.1	-66.4	5.9	3.80e-01	0	22	0	7340032	80	10507
2026-01-09 10:02:15.11	164.49	4.16	-56.9	-65.4	6.5	2.26e-01	0	22	0	8388608	80	9348
2026-01-09 10:02:16.11	164.51	4.23	-56.9	-64.9	7.1	1.50e-01	0	22	0	10485760	80	8769
2026-01-09 10:02:17.09	164.53	4.30	-56.7	-64.2	7.6	8.64e-02	0	22	0	12582912	80	8128
2026-01-09 10:02:18.08	164.55	4.37	-56.5	-63.3	8.4	3.92e-02	0	23	0	14680064	79	7774
2026-01-09 10:02:19.07	164.57	4.43	-56.3	-62.6	9.0	2.14e-02	0	23	0	16777216	79	7191
2026-01-09 10:02:20.06	164.59	4.50	-56.1	-61.9	9.6	7.18e-03	0	22	0	17825792	78	6963
2026-01-09 10:02:21.05	164.60	4.57	-55.8	-61.0	10.4	2.55e-03	0	22	0	19922944	78	6304
2026-01-09 10:02:22.04	164.62	4.64	-55.8	-60.8	10.6	9.49e-04	0	23	0	22020096	78	6166
2026-01-09 10:02:23.03	164.64	4.71	-55.5	-60.1	11.2	3.67e-04	0	22	0	24117248	77	6001
2026-01-09 10:02:24.02	164.66	4.78	-55.2	-59.5	11.7	1.04e-04	0	23	0	25165824	77	5620
2026-01-09 10:02:25.01	164.68	4.85	-55.0	-59.1	11.9	3.81e-05	0	23	0	27262976	76	5686
2026-01-09 10:02:25.99	164.70	4.92	-55.0	-59.0	11.9	1.52e-05	0	23	0	29360128	76	5636
2026-01-09 10:02:26.99	164.72	4.99	-54.8	-58.5	12.4	6.10e-06	0	23	0	31457280	76	5305
2026-01-09 10:02:27.97	164.74	5.06	-54.8	-58.6	12.3	2.20e-06	0	22	0	32505856	76	5375
2026-01-09 10:02:28.96	164.76	5.13	-55.5	-60.2	11.1	4.50e-06	0	22	0	34603008	76	6423
2026-01-09 10:02:29.95	164.78	5.20	-56.0	-61.3	10.2	6.74e-04	0	23	0	36700160	77	6950
2026-01-09 10:02:30.94	164.80	5.27	-56.4	-63.0	8.6	3.20e-05	0	23	0	38797312	77	8462
2026-01-09 10:02:31.93	164.82	5.35	-57.2	-67.4	5.3	5.55e-02	0	23	0	40894464	79	12473
2026-01-09 10:02:32.92	164.84	5.42	-53.9	-56.9	13.3	3.80e-06	0	23	0	41943040	74	4981
2026-01-09 10:02:33.91	164.86	5.49	-53.7	-56.6	13.6	0.00e+00	0	23	0	44040192	74	4787
2026-01-09 10:02:34.90	164.88	5.56	-53.7	-56.6	13.4	0.00e+00	0	23	0	46137344	73	5063
2026-01-09 10:02:35.89	164.90	5.63	-53.7	-56.6	13.4	0.00e+00	0	23	0	48234496	73	5079
2026-01-09 10:02:36.87	164.92	5.70	-53.7	-56.7	13.4	0.00e+00	0	23	0	49283072	73	5115
2026-01-09 10:02:37.86	164.94	5.78	-53.5	-56.3	13.6	0.00e+00	0	23	0	51380224	73	4902
2026-01-09 10:02:38.85	164.96	5.85	-53.6	-56.5	13.5	0.00e+00	0	23	0	53477376	73	4984
2026-01-09 10:02:39.84	164.98	5.92	-53.7	-56.6	13.4	0.00e+00	0	23	0	55574528	73	5078
2026-01-09 10:02:40.82	165.00	5.99	-53.5	-56.3	13.6	0.00e+00	0	23	0	56623104	73	4923
2026-01-09 10:02:41.81	165.02	6.07	-53.6	-56.4	13.6	0.00e+00	0	23	0	58720256	73	4947
2026-01-09 10:02:42.81	165.04	6.14	-53.6	-56.4	13.6	0.00e+00	0	23	0	60817408	73	4969
2026-01-09 10:02:43.79	165.06	6.21	-53.6	-56.4	13.6	0.00e+00	0	23	0	62914560	73	4945
2026-01-09 10:02:44.79	165.09	6.29	-53.4	-56.2	13.7	0.00e+00	0	23	0	63963136	73	4830
2026-01-09 10:02:45.77	165.11	6.36	-53.3	-56.0	13.9	0.00e+00	0	23	0	66060288	73	4733
2026-01-09 10:02:46.76	165.13	6.44	-53.4	-56.1	13.9	0.00e+00	0	23	0	68157440	73	4783
2026-01-09 10:02:47.74	165.15	6.51	-53.4	-56.1	13.8	0.00e+00	0	23	0	70254592	73	4798
2026-01-09 10:02:48.72	165.17	6.58	-53.4	-56.1	13.8	0.00e+00	0	23	0	72351744	73	4799
2026-01-09 10:02:49.70	165.19	6.66	-53.4	-56.1	13.9	0.00e+00	0	23	0	73400320	73	4782
2026-01-09 10:02:50.69	165.21	6.73	-53.4	-56.0	13.9	0.00e+00	0	23	0	75497472	73	4749
2026-01-09 10:02:51.68	165.23	6.81	-53.3	-56.0	14.0	0.00e+00	0	23	0	77594624	73	4724
2026-01-09 10:02:52.66	165.26	6.88	-53.2	-55.8	14.0	0.00e+00	0	23	0	79691776	73	4641
2026-01-09 10:02:53.65	165.28	6.96	-53.2	-55.8	14.0	0.00e+00	0	23	0	80740352	73	4638
2026-01-09 10:02:54.64	165.30	7.03	-53.3	-55.8	14.1	0.00e+00	0	23	0	82837504	73	4636
2026-01-09 10:02:55.63	165.32	7.11	-53.3	-55.8	14.0	0.00e+00	0	23	0	84934656	73	4649
2026-01-09 10:02:56.62	165.34	7.19	-53.3	-55.9	14.0	0.00e+00	0	23	0	87031808	73	4679
2026-01-09 10:02:57.60	165.37	7.26	-53.2	-55.8	14.1	0.00e+00	0	23	0	88080384	73	4611
2026-01-09 10:02:58.60	165.39	7.34	-53.1	-55.6	14.0	0.00e+00	0	23	0	90177536	72	4802
2026-01-09 10:02:59.59	165.41	7.42	-53.1	-55.6	14.0	0.00e+00	0	23	0	92274688	72	4785
2026-01-09 10:03:00.57	165.43	7.49	-53.1	-55.5	14.1	0.00e+00	0	23	0	94371840	72	4737
2026-01-09 10:03:01.56	165.46	7.57	-53.1	-55.5	14.1	0.00e+00	0	23	0	96468992	72	4739
2026-01-09 10:03:02.54	165.48	7.65	-53.1	-55.6	14.1	0.00e+00	0	23	0	97517568	72	4771
2026-01-09 10:03:03.54	165.50	7.73	-53.1	-55.6	14.1	0.00e+00	0	23	0	99614720	72	4766
2026-01-09 10:03:04.53	165.52	7.80	-53.0	-55.5	14.1	0.00e+00	0	23	0	101711872	72	4726
2026-01-09 10:03:05.52	165.55	7.88	-53.1	-55.5	14.1	0.00e+00	0	23	0	103809024	72	4733
2026-01-09 10:03:06.50	165.57	7.96	-52.9	-55.4	14.2	0.00e+00	0	23	0	104857600	72	4658
2026-01-09 10:03:07.49	165.59	8.04	-52.9	-55.3	14.2	0.00e+00	0	23	0	106954752	72	4642
2026-01-09 10:03:08.47	165.62	8.12	-52.9	-55.3	14.3	0.00e+00	0	23	0	109051904	72	4637
2026-01-09 10:03:09.46	165.64	8.20	-52.8	-55.2	14.3	0.00e+00	0	23	0	111149056	72	4570
2026-01-09 10:03:10.44	165.66	8.28	-52.9	-55.2	14.3	0.00e+00	0	23	0	112197632	72	4580
2026-01-09 10:03:11.43	165.69	8.36	-53.0	-55.3	14.2	0.00e+00	0	23	0	114294784	72	4649
2026-01-09 10:03:12.42	165.71	8.44	-52.8	-55.1	14.4	0.00e+00	0	23	0	116391936	72	4537
2026-01-09 10:03:13.41	165.74	8.52	-52.9	-55.2	14.3	0.00e+00	0	23	0	118489088	72	4575
2026-01-09 10:03:14.40	165.76	8.60	-52.8	-55.2	14.4	0.00e+00	0	23	0	120586240	72	4547
2026-01-09 10:03:15.39	165.78	8.68	-52.8	-55.2	14.4	0.00e+00	0	23	0	121634816	72	4546
2026-01-09 10:03:16.38	165.81	8.76	-52.8	-55.1	14.4	0.00e+00	0	23	0	123731968	72	4509
2026-01-09 10:03:17.37	165.83	8.84	-52.7	-55.0	14.5	0.00e+00	0	23	0	125829120	72	4461
2026-01-09 10:03:18.35	165.86	8.92	-52.8	-55.1	14.4	0.00e+00	0	23	0	127926272	72	4541
2026-01-09 10:03:19.34	165.88	9.00	-52.9	-55.3	14.3	0.00e+00	0	23	0	128974848	72	4600
2026-01-09 10:03:20.33	165.91	9.09	-52.7	-54.9	14.5	0.00e+00	0	23	0	131072000	72	4441
2026-01-09 10:03:21.33	165.93	9.17	-52.8	-55.1	14.4	0.00e+00	0	23	0	133169152	72	4495
2026-01-09 10:03:22.32	165.96	9.25	-52.7	-54.9	14.5	0.00e+00	0	23	0	135266304	72	4435
2026-01-09 10:03:23.31	165.98	9.34	-52.6	-54.7	14.5	0.00e+00	0	23	0	136314880	71	4596
2026-01-09 10:03:24.31	166.01	9.42	-52.5	-54.7	14.5	0.00e+00	0	23	0	138412032	71	4593
2026-01-09 10:03:25.29	166.03	9.50	-52.6	-54.8	14.5	0.00e+00	0	23	0	140509184	71	4605
2026-01-09 10:03:26.28	166.06	9.59	-52.5	-54.7	14.5	0.00e+00	0	23	0	142606336	71	4561
2026-01-09 10:03:27.27	166.08	9.67	-52.5	-54.6	14.6	0.00e+00	0	23	0	143654912	71	4544
2026-01-09 10:03:28.26	166.11	9.75	-52.5	-54.7	14.6	0.00e+00	0	23	0	145752064	71	4550
2026-01-09 10:03:29.25	166.13	9.84	-52.4	-54.6	14.6	0.00e+00	0	23	0	147849216	71	4506
2026-01-09 10:03:30.24	166.16	9.92	-52.4	-54.5	14.6	0.00e+00	0	23	0	149946368	71	4481
2026-01-09 10:03:31.24	166.19	10.01	-52.4	-54.6	14.6	0.00e+00	0	23	0	152043520	71	4503
2026-01-09 10:03:32.23	166.21	10.10	-52.4	-54.5	14.7	0.00e+00	0	23	0	153092096	71	4453
2026-01-09 10:03:33.22	166.24	10.18	-52.5	-54.7	14.5	0.00e+00	0	23	0	155189248	71	4568
2026-01-09 10:03:34.21	166.27	10.27	-52.4	-54.5	14.7	0.00e+00	0	23	0	157286400	71	4468
2026-01-09 10:03:35.21	166.29	10.36	-52.4	-54.5	14.6	0.00e+00	0	23	0	159383552	71	4483
2026-01-09 10:03:36.19	166.32	10.44	-52.3	-54.4	14.7	0.00e+00	0	23	0	160432128	71	4411
2026-01-09 10:03:37.17	166.35	10.53	-52.3	-54.4	14.7	0.00e+00	0	23	0	162529280	71	4420
2026-01-09 10:03:38.16	166.37	10.62	-52.4	-54.5	14.7	0.00e+00	0	23	0	164626432	71	4471
2026-01-09 10:03:39.15	166.40	10.70	-52.4	-54.6	14.6	0.00e+00	0	23	0	166723584	71	4507
2026-01-09 10:03:40.14	166.43	10.79	-52.4	-54.5	14.7	0.00e+00	0	23	0	168820736	71	4450
2026-01-09 10:03:41.13	166.45	10.88	-52.5	-54.7	14.6	0.00e+00	0	23	0	169869312	71	4553
2026-01-09 10:03:42.11	166.48	10.97	-52.4	-54.5	14.7	0.00e+00	0	23	0	171966464	71	4455
2026-01-09 10:03:43.10	166.51	11.06	-52.4	-54.5	14.7	0.00e+00	0	23	0	174063616	71	4454
2026-01-09 10:03:44.09	166.54	11.15	-52.4	-54.5	14.7	0.00e+00	0	23	0	176160768	71	4456
2026-01-09 10:03:45.08	166.57	11.23	-52.3	-54.4	14.7	0.00e+00	0	23	0	177209344	71	4401
2026-01-09 10:03:46.08	166.59	11.33	-52.2	-54.3	14.8	0.00e+00	0	23	0	179306496	71	4365
2026-01-09 10:03:47.06	166.62	11.42	-52.3	-54.4	14.7	0.00e+00	0	23	0	181403648	71	4416
2026-01-09 10:03:48.05	166.65	11.51	-52.2	-54.2	14.8	0.00e+00	0	23	0	183500800	71	4340
2026-01-09 10:03:49.03	166.68	11.60	-52.1	-54.1	14.7	0.00e+00	0	23	0	184549376	70	4527
2026-01-09 10:03:50.01	166.71	11.69	-52.1	-54.1	14.7	0.00e+00	0	23	0	186646528	70	4541
2026-01-09 10:03:51.00	166.74	11.78	-52.1	-54.1	14.7	0.00e+00	0	23	0	188743680	70	4541
2026-01-09 10:03:51.99	166.77	11.87	-52.1	-54.1	14.7	0.00e+00	0	24	0	190840832	70	4530
2026-01-09 10:03:52.97	166.80	11.96	-52.1	-54.1	14.8	0.00e+00	0	23	0	191889408	70	4505
2026-01-09 10:03:53.96	166.82	12.05	-52.0	-54.0	14.8	0.00e+00	0	23	0	193986560	70	4454
2026-01-09 10:03:54.95	166.85	12.15	-52.0	-54.0	14.8	0.00e+00	0	23	0	196083712	70	4472
2026-01-09 10:03:55.95	166.88	12.24	-52.0	-53.9	14.8	0.00e+00	0	24	0	198180864	70	4434
2026-01-09 10:03:56.94	166.91	12.33	-52.0	-53.9	14.8	0.00e+00	0	23	0	200278016	70	4430
2026-01-09 10:03:57.93	166.94	12.43	-52.0	-53.9	14.8	0.00e+00	0	23	0	201326592	70	4428
2026-01-09 10:03:58.92	166.98	12.52	-51.9	-53.9	14.9	0.00e+00	0	23	0	203423744	70	4402
2026-01-09 10:03:59.92	167.01	12.62	-51.9	-53.8	14.9	0.00e+00	0	23	0	205520896	70	4386
2026-01-09 10:04:00.91	167.04	12.71	-52.0	-53.9	14.9	0.00e+00	0	23	0	207618048	70	4422
2026-01-09 10:04:01.90	167.07	12.81	-51.9	-53.8	14.9	0.00e+00	0	23	0	208666624	70	4373
2026-01-09 10:04:02.88	167.10	12.90	-51.8	-53.8	15.0	0.00e+00	0	23	0	210763776	70	4346
2026-01-09 10:04:03.86	167.13	13.00	-51.9	-53.8	14.9	0.00e+00	0	23	0	212860928	70	4353
2026-01-09 10:04:04.85	167.16	13.10	-51.9	-53.8	14.9	0.00e+00	0	23	0	214958080	70	4363
2026-01-09 10:04:05.84	167.19	13.19	-51.9	-53.8	14.9	0.00e+00	0	23	0	217055232	70	4351
2026-01-09 10:04:06.83	167.22	13.29	-51.9	-53.8	14.9	0.00e+00	0	23	0	218103808	70	4388
2026-01-09 10:04:07.82	167.26	13.39	-51.8	-53.6	15.0	0.00e+00	0	23	0	220200960	70	4282
2026-01-09 10:04:08.80	167.29	13.48	-51.8	-53.6	15.0	0.00e+00	0	23	0	222298112	70	4280
2026-01-09 10:04:09.80	167.32	13.58	-51.9	-53.8	15.0	0.00e+00	0	23	0	224395264	70	4342
2026-01-09 10:04:10.78	167.35	13.68	-51.8	-53.6	15.0	0.00e+00	0	23	0	225443840	70	4270
2026-01-09 10:04:11.77	167.38	13.78	-51.8	-53.6	15.0	0.00e+00	0	23	0	227540992	70	4276
2026-01-09 10:04:12.76	167.42	13.88	-51.8	-53.6	15.1	0.00e+00	0	23	0	229638144	70	4267
2026-01-09 10:04:13.74	167.45	13.98	-51.8	-53.6	15.0	0.00e+00	0	23	0	231735296	70	4272
2026-01-09 10:04:14.74	167.48	14.08	-51.7	-53.6	15.0	0.00e+00	0	23	0	232783872	70	4262
2026-01-09 10:04:15.72	167.52	14.18	-51.7	-53.5	15.1	0.00e+00	0	23	0	234881024	70	4228
2026-01-09 10:04:16.70	167.55	14.28	-51.5	-53.4	15.0	0.00e+00	0	23	0	236978176	69	4398
2026-01-09 10:04:17.69	167.58	14.38	-51.6	-53.4	15.0	0.00e+00	0	23	0	239075328	69	4397
2026-01-09 10:04:18.67	167.62	14.48	-51.7	-53.5	14.9	0.00e+00	0	23	0	240123904	69	4480
2026-01-09 10:04:19.66	167.65	14.59	-51.6	-53.4	15.0	0.00e+00	0	23	0	242221056	69	4437
2026-01-09 10:04:20.66	167.69	14.69	-51.6	-53.4	15.0	0.00e+00	0	23	0	244318208	69	4400
2026-01-09 10:04:21.65	167.72	14.79	-51.6	-53.5	14.9	0.00e+00	0	23	0	246415360	69	4443
2026-01-09 10:04:22.64	167.76	14.90	-51.6	-53.4	15.0	0.00e+00	0	23	0	248512512	69	4437
2026-01-09 10:04:23.62	167.79	15.00	-51.6	-53.4	15.0	0.00e+00	0	23	0	249561088	69	4402
2026-01-09 10:04:24.60	167.83	15.11	-51.7	-53.6	14.9	0.00e+00	0	23	0	251658240	69	4495
2026-01-09 10:04:25.60	167.86	15.21	-51.6	-53.4	15.0	0.00e+00	0	23	0	253755392	69	4427
2026-01-09 10:04:26.58	167.90	15.32	-51.7	-53.5	14.9	0.00e+00	0	23	0	255852544	69	4482
2026-01-09 10:04:27.57	167.93	15.42	-51.7	-53.5	14.9	0.00e+00	0	23	0	256901120	69	4473
2026-01-09 10:04:28.56	167.97	15.53	-51.7	-53.6	14.9	0.00e+00	0	23	0	258998272	69	4508
2026-01-09 10:04:29.55	168.01	15.64	-51.8	-53.7	14.8	0.00e+00	0	23	0	261095424	69	4558
2026-01-09 10:04:30.54	168.04	15.74	-51.8	-53.7	14.9	0.00e+00	0	24	0	263192576	69	4549
2026-01-09 10:04:31.54	168.08	15.85	-51.9	-53.7	14.8	0.00e+00	0	23	0	264241152	69	4592
2026-01-09 10:04:32.52	168.12	15.96	-51.9	-53.8	14.8	0.00e+00	0	24	0	266338304	69	4605
2026-01-09 10:04:33.52	168.16	16.07	-52.0	-53.9	14.7	0.00e+00	0	23	0	268435456	69	4659
2026-01-09 10:04:34.51	168.19	16.18	-52.0	-53.9	14.7	0.00e+00	0	23	0	270532608	69	4672
2026-01-09 10:04:35.50	168.23	16.29	-52.0	-53.9	14.7	0.00e+00	0	23	0	272629760	69	4682
2026-01-09 10:04:36.48	168.27	16.40	-52.0	-53.9	14.7	0.00e+00	0	23	0	273678336	69	4704
2026-01-09 10:04:37.48	168.31	16.51	-52.0	-53.9	14.7	0.00e+00	0	23	0	275775488	69	4680
2026-01-09 10:04:38.46	168.35	16.62	-52.0	-53.9	14.7	0.00e+00	0	23	0	277872640	69	4659
2026-01-09 10:04:39.44	168.39	16.73	-52.0	-54.0	14.7	0.00e+00	0	24	0	279969792	69	4713
2026-01-09 10:04:40.43	168.42	16.84	-52.1	-54.0	14.7	0.00e+00	0	23	0	281018368	69	4746
2026-01-09 10:04:41.43	168.46	16.96	-52.1	-54.1	14.6	0.00e+00	0	23	0	283115520	69	4766
2026-01-09 10:04:42.42	168.50	17.07	-52.2	-54.1	14.6	0.00e+00	0	23	0	285212672	69	4813
2026-01-09 10:04:43.40	168.54	17.18	-52.2	-54.2	14.6	0.00e+00	0	24	0	287309824	69	4845
2026-01-09 10:04:44.39	168.58	17.30	-52.2	-54.2	14.5	0.00e+00	0	23	0	288358400	69	4867
2026-01-09 10:04:45.38	168.63	17.41	-52.3	-54.4	14.5	0.00e+00	0	24	0	290455552	69	4937
2026-01-09 10:04:46.36	168.67	17.53	-52.2	-54.2	14.6	0.00e+00	0	23	0	292552704	69	4849
2026-01-09 10:04:47.34	168.71	17.64	-52.3	-54.3	14.5	0.00e+00	0	23	0	294649856	69	4889
2026-01-09 10:04:48.33	168.75	17.76	-52.3	-54.3	14.5	0.00e+00	0	23	0	295698432	69	4912
2026-01-09 10:04:49.32	168.79	17.87	-52.5	-54.5	14.5	0.00e+00	0	23	0	297795584	70	4730
2026-01-09 10:04:50.30	168.83	17.99	-52.5	-54.5	14.5	0.00e+00	0	24	0	299892736	70	4750
2026-01-09 10:04:51.29	168.87	18.11	-52.4	-54.5	14.6	0.00e+00	0	23	0	301989888	70	4719
2026-01-09 10:04:52.28	168.92	18.23	-52.6	-54.6	14.5	0.00e+00	0	24	0	303038464	70	4796
2026-01-09 10:04:53.27	168.96	18.35	-52.6	-54.7	14.4	0.00e+00	0	23	0	305135616	70	4836
2026-01-09 10:04:54.25	169.00	18.47	-52.6	-54.7	14.4	0.00e+00	0	24	0	307232768	70	4832
2026-01-09 10:04:55.24	169.05	18.59	-52.7	-54.8	14.4	0.00e+00	0	24	0	309329920	70	4879
2026-01-09 10:04:56.23	169.09	18.71	-52.7	-54.8	14.4	0.00e+00	0	23	0	311427072	70	4886
2026-01-09 10:04:57.21	169.13	18.83	-52.7	-54.8	14.4	0.00e+00	0	24	0	312475648	70	4884
2026-01-09 10:04:58.20	169.18	18.95	-52.7	-54.9	14.4	0.00e+00	0	24	0	314572800	70	4935
2026-01-09 10:04:59.18	169.22	19.07	-52.7	-54.8	14.4	0.00e+00	0	24	0	316669952	70	4894
2026-01-09 10:05:00.17	169.27	19.19	-52.7	-54.9	14.4	0.00e+00	0	23	0	318767104	70	4929
2026-01-09 10:05:01.16	169.31	19.32	-52.7	-54.9	14.4	0.00e+00	0	24	0	319815680	70	4932
2026-01-09 10:05:02.15	169.36	19.44	-52.7	-54.8	14.4	0.00e+00	0	23	0	321912832	70	4910
2026-01-09 10:05:03.13	169.40	19.57	-52.7	-54.9	14.4	0.00e+00	0	23	0	324009984	70	4927
2026-01-09 10:05:04.13	169.45	19.69	-52.7	-54.8	14.4	0.00e+00	0	23	0	326107136	70	4922
2026-01-09 10:05:05.11	169.50	19.82	-52.8	-55.0	14.3	0.00e+00	0	24	0	327155712	70	4989
2026-01-09 10:05:06.10	169.55	19.95	-52.7	-54.8	14.4	0.00e+00	0	23	0	329252864	70	4915
2026-01-09 10:05:07.10	169.59	20.07	-52.7	-54.8	14.4	0.00e+00	0	23	0	331350016	70	4874
2026-01-09 10:05:08.09	169.64	20.20	-52.7	-54.7	14.4	0.00e+00	0	24	0	333447168	70	4863
2026-01-09 10:05:09.08	169.69	20.33	-52.7	-54.7	14.4	0.00e+00	0	24	0	335544320	70	4859
2026-01-09 10:05:10.07	169.74	20.46	-52.8	-54.9	14.4	0.00e+00	0	23	0	336592896	70	4931
2026-01-09 10:05:11.06	169.79	20.59	-52.7	-54.8	14.4	0.00e+00	0	24	0	338690048	70	4897
2026-01-09 10:05:12.04	169.84	20.72	-52.7	-54.8	14.4	0.00e+00	0	24	0	340787200	70	4887
2026-01-09 10:05:13.04	169.89	20.85	-52.7	-54.8	14.4	0.00e+00	0	24	0	342884352	70	4902
2026-01-09 10:05:14.03	169.94	20.99	-52.6	-54.7	14.4	0.00e+00	0	24	0	343932928	70	4848
2026-01-09 10:05:15.01	169.99	21.12	-52.6	-54.7	14.5	0.00e+00	0	24	0	346030080	70	4850
2026-01-09 10:05:16.01	170.04	21.25	-52.7	-54.8	14.4	0.00e+00	0	24	0	348127232	70	4876
2026-01-09 10:05:16.99	170.09	21.38	-52.6	-54.6	14.5	0.00e+00	0	23	0	350224384	70	4780
2026-01-09 10:05:17.98	170.14	21.52	-52.6	-54.7	14.5	0.00e+00	0	24	0	351272960	70	4842
2026-01-09 10:05:18.97	170.19	21.66	-52.6	-54.6	14.5	0.00e+00	0	24	0	353370112	70	4785
2026-01-09 10:05:19.96	170.25	21.79	-52.6	-54.6	14.5	0.00e+00	0	24	0	355467264	70	4800
2026-01-09 10:05:20.95	170.30	21.93	-52.5	-54.6	14.5	0.00e+00	0	24	0	357564416	70	4760
2026-01-09 10:05:21.93	170.35	22.06	-52.5	-54.5	14.6	0.00e+00	0	24	0	359661568	70	4754
2026-01-09 10:05:22.92	170.41	22.20	-52.5	-54.5	14.6	0.00e+00	0	24	0	360710144	70	4728
2026-01-09 10:05:23.91	170.46	22.34	-52.5	-54.5	14.6	0.00e+00	0	24	0	362807296	70	4729
2026-01-09 10:05:24.90	170.52	22.48	-52.4	-54.4	14.6	0.00e+00	0	24	0	364904448	70	4680
2026-01-09 10:05:25.89	170.57	22.62	-52.4	-54.4	14.7	0.00e+00	0	23	0	367001600	70	4666
2026-01-09 10:05:26.89	170.63	22.77	-52.5	-54.5	14.6	0.00e+00	0	24	0	368050176	70	4749
2026-01-09 10:05:27.88	170.69	22.91	-52.4	-54.4	14.7	0.00e+00	0	24	0	370147328	70	4663
2026-01-09 10:05:28.88	170.74	23.05	-52.3	-54.2	14.7	0.00e+00	0	24	0	372244480	70	4581
2026-01-09 10:05:29.87	170.80	23.20	-52.3	-54.3	14.7	0.00e+00	0	24	0	374341632	70	4599
2026-01-09 10:05:30.86	170.86	23.34	-52.3	-54.3	14.7	0.00e+00	0	24	0	376438784	70	4607
2026-01-09 10:05:31.85	170.92	23.49	-52.3	-54.2	14.8	0.00e+00	0	24	0	377487360	70	4581
2026-01-09 10:05:32.84	170.98	23.63	-52.3	-54.2	14.7	0.00e+00	0	24	0	379584512	70	4565
2026-01-09 10:05:33.83	171.04	23.78	-52.3	-54.2	14.8	0.00e+00	0	24	0	381681664	70	4556
2026-01-09 10:05:34.82	171.10	23.93	-52.3	-54.2	14.8	0.00e+00	0	24	0	383778816	70	4579
2026-01-09 10:05:35.81	171.16	24.08	-52.4	-54.3	14.7	0.00e+00	0	24	0	384827392	70	4621
2026-01-09 10:05:36.81	171.22	24.23	-52.4	-54.3	14.7	0.00e+00	0	23	0	386924544	70	4640
2026-01-09 10:05:37.78	171.28	24.37	-52.3	-54.3	14.7	0.00e+00	0	24	0	389021696	70	4599
2026-01-09 10:05:38.77	171.34	24.52	-52.2	-54.1	14.8	0.00e+00	0	24	0	391118848	70	4504
2026-01-09 10:05:39.75	171.40	24.68	-52.3	-54.1	14.8	0.00e+00	0	23	0	392167424	70	4544
2026-01-09 10:05:40.74	171.47	24.83	-52.3	-54.2	14.8	0.00e+00	0	23	0	394264576	70	4565
2026-01-09 10:05:41.73	171.53	24.98	-52.2	-54.1	14.8	0.00e+00	0	24	0	396361728	70	4511
2026-01-09 10:05:42.71	171.59	25.13	-52.1	-54.0	14.9	0.00e+00	0	24	0	398458880	70	4445
2026-01-09 10:05:43.70	171.66	25.29	-52.2	-54.1	14.9	0.00e+00	0	24	0	399507456	70	4496
2026-01-09 10:05:44.69	171.72	25.45	-52.3	-54.2	14.8	0.00e+00	0	24	0	401604608	70	4596
2026-01-09 10:05:45.68	171.79	25.60	-52.2	-54.0	14.9	0.00e+00	0	24	0	403701760	70	4487
2026-01-09 10:05:46.66	171.86	25.76	-52.3	-54.2	14.8	0.00e+00	0	24	0	405798912	70	4548
2026-01-09 10:05:47.65	171.92	25.92	-52.4	-54.3	14.7	0.00e+00	0	24	0	407896064	70	4632
2026-01-09 10:05:48.63	171.99	26.08	-52.3	-54.3	14.7	0.00e+00	0	24	0	408944640	70	4614
2026-01-09 10:05:49.61	172.06	26.24	-52.5	-54.4	14.6	0.00e+00	0	24	0	411041792	70	4705
2026-01-09 10:05:50.59	172.13	26.40	-52.5	-54.5	14.6	0.00e+00	0	24	0	413138944	70	4726
2026-01-09 10:05:51.58	172.20	26.56	-52.5	-54.5	14.6	0.00e+00	0	24	0	415236096	70	4731
2026-01-09 10:05:52.57	172.27	26.72	-52.6	-54.6	14.5	0.00e+00	0	24	0	416284672	70	4809
2026-01-09 10:05:53.55	172.34	26.88	-52.7	-54.7	14.5	0.00e+00	0	23	0	418381824	70	4851
2026-01-09 10:05:54.53	172.41	27.05	-52.7	-54.7	14.5	0.00e+00	0	23	0	420478976	70	4850
2026-01-09 10:05:55.52	172.48	27.21	-52.7	-54.8	14.4	0.00e+00	0	23	0	422576128	70	4886
2026-01-09 10:05:56.51	172.56	27.38	-52.8	-54.8	14.4	0.00e+00	0	23	0	423624704	70	4923
2026-01-09 10:05:57.49	172.63	27.55	-52.8	-54.9	14.3	0.00e+00	0	24	0	425721856	70	4968
2026-01-09 10:05:58.47	172.70	27.72	-52.8	-54.9	14.4	0.00e+00	0	24	0	427819008	70	4961
2026-01-09 10:05:59.47	172.78	27.89	-52.8	-54.9	14.4	0.00e+00	0	24	0	429916160	70	4946
2026-01-09 10:06:00.45	172.86	28.06	-52.8	-54.9	14.4	0.00e+00	0	24	0	430964736	70	4947
2026-01-09 10:06:01.44	172.93	28.23	-52.9	-54.9	14.4	0.00e+00	0	23	0	433061888	70	4975
2026-01-09 10:06:02.43	173.01	28.40	-52.9	-54.9	14.4	0.00e+00	0	24	0	435159040	70	4981
2026-01-09 10:06:03.41	173.09	28.57	-52.9	-54.9	14.4	0.00e+00	0	24	0	437256192	70	4983
2026-01-09 10:06:04.40	173.17	28.75	-53.0	-55.1	14.4	0.00e+00	0	24	0	439353344	71	4765
2026-01-09 10:06:05.39	173.25	28.93	-53.0	-55.1	14.4	0.00e+00	0	24	0	440401920	71	4802
2026-01-09 10:06:06.37	173.33	29.10	-53.0	-55.2	14.4	0.00e+00	0	24	0	442499072	71	4821
2026-01-09 10:06:07.36	173.41	29.28	-53.2	-55.4	14.3	0.00e+00	0	24	0	444596224	71	4940
2026-01-09 10:06:08.35	173.50	29.46	-53.2	-55.4	14.3	0.00e+00	0	24	0	446693376	71	4947
2026-01-09 10:06:09.33	173.58	29.64	-53.3	-55.5	14.2	0.00e+00	0	23	0	447741952	71	5028
2026-01-09 10:06:10.32	173.66	29.82	-53.3	-55.5	14.2	0.00e+00	0	24	0	449839104	71	5014
2026-01-09 10:06:11.31	173.75	30.00	-53.5	-55.8	14.2	0.00e+00	0	24	0	451936256	72	4912
2026-01-09 10:06:12.29	173.84	30.19	-53.4	-55.6	14.3	0.00e+00	0	23	0	454033408	72	4792
2026-01-09 10:06:13.28	173.92	30.37	-53.4	-55.7	14.2	0.00e+00	0	24	0	455081984	72	4839
2026-01-09 10:06:14.26	174.01	30.55	-53.5	-55.7	14.2	0.00e+00	0	24	0	457179136	72	4846
2026-01-09 10:06:15.25	174.10	30.74	-53.5	-55.8	14.2	0.00e+00	0	24	0	459276288	72	4910
2026-01-09 10:06:16.25	174.19	30.93	-53.5	-55.8	14.2	0.00e+00	0	24	0	461373440	72	4906
2026-01-09 10:06:17.23	174.28	31.12	-53.5	-55.8	14.2	0.00e+00	0	24	0	462422016	72	4874
2026-01-09 10:06:18.22	174.38	31.31	-53.6	-55.9	14.2	0.00e+00	0	24	0	464519168	72	4934
2026-01-09 10:06:19.22	174.47	31.50	-53.7	-56.0	14.1	0.00e+00	0	24	0	466616320	72	5028
2026-01-09 10:06:20.21	174.57	31.70	-53.7	-56.1	14.0	0.00e+00	0	24	0	468713472	72	5044
2026-01-09 10:06:21.20	174.66	31.89	-53.8	-56.2	14.0	0.00e+00	0	24	0	470810624	72	5108
2026-01-09 10:06:22.18	174.76	32.09	-53.7	-56.0	14.1	0.00e+00	0	24	0	471859200	72	5027
2026-01-09 10:06:23.18	174.86	32.28	-53.7	-56.1	14.1	0.00e+00	0	23	0	473956352	72	5043
2026-01-09 10:06:24.17	174.96	32.48	-53.5	-55.9	14.2	0.00e+00	0	24	0	476053504	72	4933
2026-01-09 10:06:25.17	175.06	32.68	-53.6	-55.9	14.1	0.00e+00	0	23	0	478150656	72	4971
2026-01-09 10:06:26.16	175.16	32.88	-53.6	-55.9	14.2	0.00e+00	0	24	0	479199232	72	4978
2026-01-09 10:06:27.15	175.26	33.09	-53.5	-55.7	14.2	0.00e+00	0	24	0	481296384	72	4838
2026-01-09 10:06:28.15	175.37	33.29	-53.4	-55.6	14.3	0.00e+00	0	24	0	483393536	72	4797
2026-01-09 10:06:29.15	175.47	33.50	-53.3	-55.5	14.4	0.00e+00	0	23	0	485490688	72	4714
2026-01-09 10:06:30.15	175.58	33.70	-53.3	-55.5	14.4	0.00e+00	0	24	0	487587840	72	4720
2026-01-09 10:06:31.14	175.69	33.91	-53.5	-55.7	14.3	0.00e+00	0	24	0	488636416	72	4850
2026-01-09 10:06:32.13	175.80	34.12	-53.5	-55.8	14.2	0.00e+00	0	24	0	490733568	72	4888
2026-01-09 10:06:33.13	175.91	34.33	-53.5	-55.8	14.2	0.00e+00	0	24	0	492830720	72	4882
2026-01-09 10:06:34.13	176.02	34.54	-53.4	-55.6	14.4	0.00e+00	0	24	0	494927872	72	4771
2026-01-09 10:06:35.12	176.14	34.75	-53.3	-55.5	14.4	0.00e+00	0	24	0	495976448	72	4757
2026-01-09 10:06:36.10	176.25	34.97	-53.2	-55.4	14.4	0.00e+00	0	24	0	498073600	72	4670
2026-01-09 10:06:37.09	176.37	35.18	-53.3	-55.5	14.4	0.00e+00	0	24	0	500170752	72	4735
2026-01-09 10:06:38.08	176.48	35.40	-53.1	-55.2	14.6	0.00e+00	0	24	0	502267904	72	4557
2026-01-09 10:06:39.07	176.60	35.61	-53.1	-55.2	14.5	0.00e+00	0	24	0	503316480	72	4583
2026-01-09 10:06:40.06	176.73	35.83	-53.1	-55.3	14.5	0.00e+00	0	24	0	505413632	72	4599
2026-01-09 10:06:41.06	176.85	36.05	-53.1	-55.2	14.5	0.00e+00	0	24	0	507510784	72	4577
2026-01-09 10:06:42.05	176.97	36.28	-53.1	-55.3	14.5	0.00e+00	0	24	0	509607936	72	4602
2026-01-09 10:06:43.05	177.10	36.50	-53.2	-55.4	14.5	0.00e+00	0	23	0	511705088	72	4660
2026-01-09 10:06:44.04	177.23	36.73	-53.3	-55.4	14.4	0.00e+00	0	24	0	512753664	72	4686
2026-01-09 10:06:45.03	177.36	36.95	-53.4	-55.6	14.4	0.00e+00	0	24	0	514850816	72	4766
2026-01-09 10:06:46.03	177.49	37.18	-53.3	-55.5	14.3	0.00e+00	0	24	0	516947968	72	4757
2026-01-09 10:06:47.01	177.62	37.41	-53.5	-55.7	14.3	0.00e+00	0	24	0	519045120	72	4856
2026-01-09 10:06:48.01	177.76	37.64	-53.6	-55.9	14.1	0.00e+00	0	24	0	520093696	72	4974
2026-01-09 10:06:49.01	177.89	37.87	-53.7	-56.1	14.1	0.00e+00	0	24	0	522190848	72	5050
2026-01-09 10:06:50.00	178.03	38.10	-53.8	-56.2	14.0	0.00e+00	0	24	0	524288000	72	5132
2026-01-09 10:06:50.99	178.17	38.34	-54.0	-56.5	13.9	0.00e+00	0	24	0	526385152	73	4998
2026-01-09 10:06:51.99	178.32	38.58	-54.3	-56.8	13.7	0.00e+00	0	24	0	528482304	73	5218
2026-01-09 10:06:52.98	178.46	38.81	-54.4	-57.0	13.6	0.00e+00	0	24	0	529530880	73	5320
2026-01-09 10:06:53.97	178.61	39.05	-54.7	-57.5	13.5	0.00e+00	0	24	0	531628032	74	5297
2026-01-09 10:06:54.95	178.75	39.29	-54.7	-57.6	13.4	0.00e+00	0	24	0	533725184	74	5376
2026-01-09 10:06:55.94	178.90	39.53	-54.9	-57.8	13.3	0.00e+00	0	24	0	535822336	74	5504
2026-01-09 10:06:56.94	179.06	39.78	-54.9	-57.8	13.4	0.00e+00	0	24	0	536870912	75	5186
2026-01-09 10:06:57.93	179.21	40.02	-54.8	-57.7	13.5	0.00e+00	0	24	0	538968064	75	5137
2026-01-09 10:06:58.91	179.37	40.26	-54.5	-57.2	13.8	0.00e+00	0	24	0	541065216	75	4815
2026-01-09 10:06:59.90	179.53	40.51	-54.5	-57.2	13.8	0.00e+00	0	24	0	543162368	75	4856
2026-01-09 10:07:00.89	179.69	40.76	-54.5	-57.1	13.8	0.00e+00	0	24	0	545259520	75	4805
2026-01-09 10:07:01.89	179.86	41.01	-54.7	-57.6	13.6	0.00e+00	0	24	0	546308096	75	5052
2026-01-09 10:07:02.88	180.02	41.26	-54.9	-57.8	13.4	0.00e+00	0	24	0	548405248	75	5174
2026-01-09 10:07:03.88	180.20	41.52	-55.0	-58.0	13.2	0.00e+00	0	24	0	550502400	75	5328
2026-01-09 10:07:04.87	180.37	41.77	-55.0	-58.0	13.2	0.00e+00	0	24	0	552599552	75	5326
2026-01-09 10:07:05.86	180.54	42.03	-54.9	-57.9	13.4	0.00e+00	0	24	0	553648128	75	5237
2026-01-09 10:07:06.85	180.72	42.29	-54.7	-57.5	13.6	0.00e+00	0	24	0	555745280	75	4993
2026-01-09 10:07:07.85	180.90	42.55	-54.5	-57.2	13.8	0.00e+00	0	24	0	557842432	75	4861
2026-01-09 10:07:08.84	181.09	42.81	-54.4	-56.9	14.0	0.00e+00	0	24	0	559939584	75	4693
2026-01-09 10:07:09.83	181.27	43.07	-54.3	-56.9	14.0	0.00e+00	0	24	0	560988160	75	4669
2026-01-09 10:07:10.82	181.46	43.34	-54.2	-56.7	14.1	0.00e+00	0	24	0	563085312	75	4580
2026-01-09 10:07:11.82	181.66	43.61	-54.4	-57.0	14.0	0.00e+00	0	24	0	565182464	75	4707
2026-01-09 10:07:12.82	181.85	43.87	-54.5	-57.2	13.8	0.00e+00	0	24	0	567279616	75	4837
2026-01-09 10:07:13.81	182.05	44.14	-54.6	-57.3	13.8	0.00e+00	0	24	0	569376768	75	4910
2026-01-09 10:07:14.81	182.26	44.42	-54.6	-57.2	13.7	0.00e+00	0	24	0	570425344	75	4870
2026-01-09 10:07:15.80	182.46	44.69	-54.4	-57.0	13.9	0.00e+00	0	24	0	572522496	75	4752
2026-01-09 10:07:16.80	182.67	44.96	-54.4	-56.9	14.0	0.00e+00	0	24	0	574619648	75	4691
2026-01-09 10:07:17.79	182.88	45.24	-54.6	-57.4	13.7	0.00e+00	0	24	0	576716800	75	4936
2026-01-09 10:07:18.79	183.10	45.51	-54.9	-57.8	13.4	0.00e+00	0	24	0	577765376	75	5187
2026-01-09 10:07:19.78	183.32	45.79	-54.9	-57.7	13.4	0.00e+00	0	24	0	579862528	75	5154
2026-01-09 10:07:20.78	183.55	46.07	-54.7	-57.5	13.6	0.00e+00	0	24	0	581959680	75	5007
2026-01-09 10:07:21.77	183.78	46.35	-54.7	-57.5	13.6	0.00e+00	0	24	0	584056832	75	5015
2026-01-09 10:07:22.77	184.01	46.64	-54.6	-57.2	13.8	0.00e+00	0	24	0	586153984	75	4859
2026-01-09 10:07:23.76	184.25	46.92	-54.4	-57.0	14.0	0.00e+00	0	24	0	587202560	75	4716
2026-01-09 10:07:24.76	184.49	47.21	-54.1	-56.6	14.1	0.00e+00	0	24	0	589299712	74	4781
2026-01-09 10:07:25.74	184.73	47.49	-54.3	-56.8	13.9	0.00e+00	0	24	0	591396864	74	4897
2026-01-09 10:07:26.72	184.98	47.77	-54.5	-57.2	13.7	0.00e+00	0	24	0	593494016	74	5122
2026-01-09 10:07:27.71	185.23	48.06	-54.6	-57.4	13.6	0.00e+00	0	24	0	594542592	74	5220
2026-01-09 10:07:28.71	185.49	48.35	-54.6	-57.2	13.6	0.00e+00	0	24	0	596639744	74	5153
2026-01-09 10:07:29.70	185.75	48.65	-54.5	-57.1	13.8	0.00e+00	0	24	0	598736896	74	5057
2026-01-09 10:07:30.69	186.02	48.94	-54.1	-56.5	14.1	0.00e+00	0	24	0	600834048	74	4742
2026-01-09 10:07:31.69	186.30	49.23	-53.6	-55.8	14.4	0.00e+00	0	23	0	602931200	73	4650
2026-01-09 10:07:32.69	186.58	49.53	-53.1	-55.2	14.6	0.00e+00	0	24	0	603979776	72	4561
2026-01-09 10:07:33.68	186.86	49.83	-52.9	-54.8	14.8	0.00e+00	0	24	0	606076928	72	4383
2026-01-09 10:07:34.67	187.15	50.13	-52.6	-54.5	14.8	0.00e+00	0	24	0	608174080	71	4480
2026-01-09 10:07:35.66	187.45	50.42	-52.2	-54.0	15.1	0.00e+00	0	24	0	610271232	71	4211
2026-01-09 10:07:36.65	187.75	50.72	-52.0	-53.8	15.0	0.00e+00	0	24	0	611319808	70	4359
2026-01-09 10:07:37.65	188.06	51.03	-51.7	-53.4	15.2	0.00e+00	0	24	0	613416960	70	4180
2026-01-09 10:07:38.64	188.37	51.33	-51.2	-52.8	15.3	0.00e+00	0	24	0	615514112	69	4137
2026-01-09 10:07:39.62	188.69	51.63	-50.9	-52.5	15.4	0.00e+00	0	24	0	617611264	68	4212
2026-01-09 10:07:40.61	189.01	51.93	-50.7	-52.2	15.5	0.00e+00	0	24	0	619708416	68	4056
2026-01-09 10:07:41.61	189.35	52.24	-50.3	-51.8	15.5	0.00e+00	0	24	0	620756992	67	4105
2026-01-09 10:07:42.60	189.69	52.55	-50.2	-51.7	15.6	0.00e+00	0	24	0	622854144	67	4075
2026-01-09 10:07:43.59	190.03	52.85	-50.1	-51.5	15.4	0.00e+00	0	24	0	624951296	66	4225
2026-01-09 10:07:44.59	190.39	53.16	-49.8	-51.2	15.6	0.00e+00	0	24	0	627048448	66	4074
2026-01-09 10:07:45.59	190.75	53.47	-49.7	-51.1	15.7	0.00e+00	0	24	0	628097024	66	4019
2026-01-09 10:07:46.58	191.12	53.78	-49.5	-50.9	15.6	0.00e+00	0	24	0	630194176	65	4163
2026-01-09 10:07:47.57	191.50	54.09	-49.1	-50.5	15.6	0.00e+00	0	24	0	632291328	64	4196
2026-01-09 10:07:48.57	191.89	54.41	-49.4	-50.8	15.5	0.00e+00	0	24	0	634388480	64	4368
2026-01-09 10:07:49.56	192.28	54.72	-49.8	-51.2	15.3	0.00e+00	0	24	0	636485632	64	4587
2026-01-09 10:07:50.55	192.68	55.03	-50.1	-51.5	15.3	0.00e+00	0	23	0	637534208	65	4474
2026-01-09 10:07:51.55	193.09	55.34	-50.3	-51.8	15.2	0.00e+00	0	24	0	639631360	65	4620
2026-01-09 10:07:52.55	193.52	55.66	-50.7	-52.2	15.1	0.00e+00	0	24	0	641728512	66	4573
2026-01-09 10:07:53.54	193.95	55.97	-51.0	-52.6	15.1	0.00e+00	0	24	0	643825664	67	4499
2026-01-09 10:07:54.53	194.39	56.28	-51.2	-52.8	15.0	0.00e+00	0	23	0	644874240	67	4625
2026-01-09 10:07:55.52	194.83	56.60	-51.3	-53.0	15.0	0.00e+00	0	24	0	646971392	67	4708
2026-01-09 10:07:56.50	195.29	56.91	-51.3	-52.9	15.0	0.00e+00	0	23	0	649068544	67	4704
2026-01-09 10:07:57.49	195.76	57.22	-51.3	-53.0	14.9	0.00e+00	0	24	0	651165696	67	4738
2026-01-09 10:07:58.49	196.24	57.54	-51.4	-53.1	14.9	0.00e+00	0	23	0	652214272	67	4770
2026-01-09 10:07:59.48	196.73	57.85	-51.8	-53.5	14.9	0.00e+00	0	24	0	654311424	68	4749
2026-01-09 10:08:00.47	197.23	58.16	-52.0	-53.8	14.9	0.00e+00	0	24	0	656408576	69	4619
2026-01-09 10:08:01.47	197.75	58.48	-52.0	-53.8	14.9	0.00e+00	0	24	0	658505728	69	4616
2026-01-09 10:08:02.47	198.28	58.79	-51.8	-53.5	15.0	0.00e+00	0	24	0	660602880	69	4444
2026-01-09 10:08:03.46	198.82	59.10	-51.4	-53.0	15.3	0.00e+00	0	23	0	661651456	69	4235
2026-01-09 10:08:04.45	199.37	59.41	-51.1	-52.6	15.3	0.00e+00	0	24	0	663748608	68	4289
2026-01-09 10:08:05.44	199.94	59.72	-51.0	-52.6	15.3	0.00e+00	0	23	0	665845760	68	4249
2026-01-09 10:08:06.44	200.52	60.03	-50.9	-52.5	15.4	0.00e+00	0	23	0	667942912	68	4200
2026-01-09 10:08:07.43	201.11	60.34	-50.5	-52.0	15.4	0.00e+00	0	24	0	668991488	67	4234
2026-01-09 10:08:08.43	201.73	60.65	-50.5	-52.0	15.4	0.00e+00	0	24	0	671088640	67	4231
2026-01-09 10:08:09.42	202.35	60.95	-50.6	-52.0	15.4	0.00e+00	0	24	0	673185792	67	4238
2026-01-09 10:08:10.41	202.98	61.25	-50.3	-51.8	15.5	0.00e+00	0	24	0	675282944	67	4128
2026-01-09 10:08:11.40	203.64	61.55	-50.4	-51.8	15.5	0.00e+00	0	24	0	677380096	67	4138
2026-01-09 10:08:12.39	204.30	61.85	-50.4	-51.9	15.5	0.00e+00	0	24	0	678428672	67	4148
2026-01-09 10:08:13.38	204.99	62.15	-50.3	-51.8	15.5	0.00e+00	0	24	0	680525824	67	4127
2026-01-09 10:08:14.38	205.69	62.45	-50.3	-51.7	15.5	0.00e+00	0	24	0	682622976	67	4094
2026-01-09 10:08:15.38	206.42	62.74	-50.5	-51.9	15.5	0.00e+00	0	24	0	684720128	67	4192
2026-01-09 10:08:16.36	207.15	63.03	-51.0	-52.6	15.1	0.00e+00	0	23	0	685768704	67	4502
2026-01-09 10:08:17.36	207.91	63.32	-51.3	-52.9	15.0	0.00e+00	0	24	0	687865856	67	4703
2026-01-09 10:08:18.35	208.68	63.60	-51.7	-53.4	15.0	0.00e+00	0	24	0	689963008	68	4661
2026-01-09 10:08:19.33	209.46	63.88	-51.6	-53.3	15.0	0.00e+00	0	24	0	692060160	68	4611
2026-01-09 10:08:20.32	210.27	64.16	-51.6	-53.3	15.0	0.00e+00	0	24	0	694157312	68	4604
2026-01-09 10:08:21.32	211.11	64.43	-51.4	-53.1	15.1	0.00e+00	0	23	0	695205888	68	4497
2026-01-09 10:08:22.31	211.95	64.70	-51.5	-53.1	15.1	0.00e+00	0	24	0	697303040	68	4531
2026-01-09 10:08:23.31	212.83	64.97	-51.7	-53.3	15.0	0.00e+00	0	24	0	699400192	68	4650
2026-01-09 10:08:24.29	213.71	65.23	-52.0	-53.8	14.9	0.00e+00	0	24	0	701497344	69	4624
2026-01-09 10:08:25.28	214.62	65.49	-52.1	-53.8	14.9	0.00e+00	0	24	0	702545920	69	4642
2026-01-09 10:08:26.27	215.55	65.74	-52.0	-53.8	14.9	0.00e+00	0	23	0	704643072	69	4605
2026-01-09 10:08:27.26	216.50	65.98	-51.7	-53.4	15.1	0.00e+00	0	24	0	706740224	69	4406
2026-01-09 10:08:28.26	217.48	66.23	-51.3	-52.9	15.4	0.00e+00	0	24	0	708837376	69	4166
2026-01-09 10:08:29.26	218.49	66.47	-51.1	-52.6	15.3	0.00e+00	0	24	0	710934528	68	4277
2026-01-09 10:08:30.25	219.51	66.70	-51.4	-53.1	15.1	0.00e+00	0	24	0	711983104	68	4508
2026-01-09 10:08:31.25	220.56	66.92	-52.5	-54.4	14.8	0.00e+00	0	24	0	714080256	70	4663
2026-01-09 10:08:32.23	221.61	67.14	-53.1	-55.1	14.5	0.00e+00	0	24	0	716177408	71	4781
2026-01-09 10:08:33.23	222.70	67.35	-53.1	-55.1	14.5	0.00e+00	0	24	0	718274560	71	4811
2026-01-09 10:08:34.22	223.80	67.55	-52.8	-54.7	14.8	0.00e+00	0	24	0	719323136	71	4576
2026-01-09 10:08:35.21	224.93	67.75	-52.8	-54.7	14.8	0.00e+00	0	24	0	721420288	71	4560
2026-01-09 10:08:36.21	226.09	67.94	-53.1	-55.1	14.6	0.00e+00	0	24	0	723517440	71	4780
2026-01-09 10:08:37.20	227.26	68.12	-53.5	-55.7	14.4	0.00e+00	0	24	0	725614592	72	4836
2026-01-09 10:08:38.20	228.46	68.29	-53.9	-56.3	14.1	0.00e+00	0	24	0	727711744	73	4886
2026-01-09 10:08:39.18	229.65	68.46	-54.2	-56.6	14.0	0.00e+00	0	24	0	728760320	73	5069
2026-01-09 10:08:40.18	230.89	68.61	-53.9	-56.1	14.3	0.00e+00	0	24	0	730857472	73	4809
2026-01-09 10:08:41.17	232.14	68.76	-53.6	-55.7	14.5	0.00e+00	0	24	0	732954624	73	4567
2026-01-09 10:08:42.16	233.41	68.90	-53.6	-55.7	14.5	0.00e+00	0	24	0	735051776	73	4587
2026-01-09 10:08:43.15	234.69	69.03	-53.4	-55.4	14.7	0.00e+00	0	24	0	736100352	73	4427
2026-01-09 10:08:44.15	236.00	69.14	-53.2	-55.2	14.7	0.00e+00	0	24	0	738197504	72	4557
2026-01-09 10:08:45.15	237.33	69.25	-53.5	-55.6	14.4	0.00e+00	0	24	0	740294656	72	4795
2026-01-09 10:08:46.14	238.66	69.35	-53.7	-55.9	14.2	0.00e+00	0	24	0	742391808	72	4935
2026-01-09 10:08:47.14	240.01	69.44	-53.3	-55.4	14.5	0.00e+00	0	24	0	744488960	72	4664
2026-01-09 10:08:48.13	241.36	69.52	-53.0	-55.0	14.8	0.00e+00	0	24	0	745537536	72	4459
2026-01-09 10:08:49.12	242.73	69.59	-52.4	-54.2	15.0	0.00e+00	0	24	0	747634688	71	4328
2026-01-09 10:08:50.11	244.10	69.64	-52.2	-53.9	15.0	0.00e+00	0	24	0	749731840	70	4417
2026-01-09 10:08:51.11	245.49	69.69	-52.6	-54.5	14.7	0.00e+00	0	24	0	751828992	70	4758
2026-01-09 10:08:52.10	246.88	69.72	-52.7	-54.6	14.6	0.00e+00	0	24	0	752877568	70	4763
2026-01-09 10:08:53.09	248.27	69.74	-52.1	-53.8	15.0	0.00e+00	0	24	0	754974720	70	4389
2026-01-09 10:08:54.09	249.67	69.76	-52.1	-53.8	15.1	0.00e+00	0	24	0	757071872	70	4391
2026-01-09 10:08:55.08	251.06	69.76	-52.3	-54.1	14.9	0.00e+00	0	24	0	759169024	70	4536
2026-01-09 10:08:56.07	252.46	69.75	-52.1	-53.9	15.0	0.00e+00	0	24	0	760217600	70	4403
2026-01-09 10:08:57.06	253.85	69.73	-51.4	-53.0	15.3	0.00e+00	0	24	0	762314752	69	4209
2026-01-09 10:08:58.05	255.23	69.69	-51.3	-52.9	15.4	0.00e+00	0	24	0	764411904	69	4165
2026-01-09 10:08:59.04	256.61	69.65	-51.4	-53.0	15.3	0.00e+00	0	24	0	766509056	69	4195
2026-01-09 10:09:00.04	258.00	69.60	-52.0	-53.7	14.9	0.00e+00	0	24	0	768606208	69	4592
2026-01-09 10:09:01.04	259.38	69.53	-52.0	-53.7	14.9	0.00e+00	0	24	0	769654784	69	4596
2026-01-09 10:09:02.02	260.72	69.46	-51.6	-53.2	15.2	0.00e+00	0	24	0	771751936	69	4329
2026-01-09 10:09:03.02	262.07	69.37	-51.8	-53.5	15.1	0.00e+00	0	24	0	773849088	69	4466
2026-01-09 10:09:04.02	263.42	69.27	-53.0	-55.1	14.5	0.00e+00	0	24	0	775946240	71	4760
2026-01-09 10:09:05.00	264.72	69.17	-54.1	-56.5	14.1	0.00e+00	0	24	0	776994816	73	5031
2026-01-09 10:09:06.00	266.03	69.05	-53.7	-56.0	14.4	0.00e+00	0	24	0	779091968	73	4706
2026-01-09 10:09:06.99	267.32	68.92	-53.5	-55.7	14.5	0.00e+00	0	24	0	781189120	73	4555
2026-01-09 10:09:07.98	268.59	68.79	-53.8	-56.0	14.4	0.00e+00	0	24	0	783286272	73	4716
2026-01-09 10:09:08.98	269.85	68.64	-54.9	-57.6	13.5	0.00e+00	0	24	0	785383424	74	5371
2026-01-09 10:09:09.97	271.08	68.49	-55.3	-58.2	13.3	0.00e+00	0	24	0	786432000	75	5444
2026-01-09 10:09:10.96	272.29	68.33	-54.1	-56.4	14.3	0.00e+00	0	24	0	788529152	74	4680
2026-01-09 10:09:11.95	273.48	68.15	-53.6	-55.7	14.5	0.00e+00	0	24	0	790626304	73	4555
2026-01-09 10:09:12.94	274.66	67.98	-54.3	-56.7	13.9	0.00e+00	0	24	0	792723456	73	5157
2026-01-09 10:09:13.94	275.82	67.79	-55.6	-58.7	13.0	0.00e+00	0	24	0	793772032	76	5463
2026-01-09 10:09:14.93	276.95	67.59	-55.0	-57.7	13.7	0.00e+00	0	24	0	795869184	76	4857
2026-01-09 10:09:15.92	278.05	67.39	-53.8	-56.0	14.5	0.00e+00	0	24	0	797966336	74	4458
2026-01-09 10:09:16.91	279.14	67.18	-53.3	-55.2	14.8	0.00e+00	0	24	0	800063488	73	4334
2026-01-09 10:09:17.91	280.21	66.96	-53.3	-55.3	14.6	0.00e+00	0	24	0	802160640	72	4643
2026-01-09 10:09:18.90	281.26	66.74	-53.8	-56.0	14.2	0.00e+00	0	24	0	803209216	72	4985
2026-01-09 10:09:19.89	282.28	66.51	-53.0	-54.9	14.8	0.00e+00	0	24	0	805306368	72	4422
2026-01-09 10:09:20.89	283.29	66.28	-51.7	-53.3	15.3	0.00e+00	0	24	0	807403520	70	4129
2026-01-09 10:09:21.89	284.27	66.04	-51.5	-53.1	15.2	0.00e+00	0	24	0	809500672	69	4275
2026-01-09 10:09:22.87	285.22	65.79	-52.1	-53.9	14.9	0.00e+00	0	24	0	810549248	69	4663
2026-01-09 10:09:23.86	286.15	65.54	-51.8	-53.5	15.0	0.00e+00	0	24	0	812646400	69	4475
2026-01-09 10:09:24.85	287.06	65.29	-50.8	-52.3	15.5	0.00e+00	0	24	0	814743552	68	4114
2026-01-09 10:09:25.84	287.96	65.03	-50.6	-52.0	15.4	0.00e+00	0	24	0	816840704	67	4225
2026-01-09 10:09:26.83	288.83	64.76	-50.9	-52.4	15.2	0.00e+00	0	24	0	817889280	67	4401
2026-01-09 10:09:27.83	289.69	64.49	-51.7	-53.3	15.0	0.00e+00	0	24	0	819986432	68	4643
2026-01-09 10:09:28.82	290.52	64.22	-52.0	-53.7	14.9	0.00e+00	0	24	0	822083584	69	4567
2026-01-09 10:09:29.82	291.34	63.94	-51.0	-52.5	15.4	0.00e+00	0	24	0	824180736	68	4234
2026-01-09 10:09:30.81	292.13	63.66	-49.7	-51.1	15.6	0.00e+00	0	24	0	826277888	66	4028
2026-01-09 10:09:31.80	292.91	63.38	-50.1	-51.6	15.4	0.00e+00	0	24	0	827326464	66	4251
2026-01-09 10:09:32.78	293.65	63.10	-51.0	-52.6	15.1	0.00e+00	0	24	0	829423616	67	4524
2026-01-09 10:09:33.77	294.39	62.81	-50.8	-52.4	15.2	0.00e+00	0	24	0	831520768	67	4397
2026-01-09 10:09:34.77	295.12	62.51	-50.2	-51.6	15.6	0.00e+00	0	24	0	833617920	67	4033
2026-01-09 10:09:35.76	295.82	62.22	-50.1	-51.6	15.5	0.00e+00	0	24	0	834666496	66	4254
2026-01-09 10:09:36.76	296.52	61.92	-50.1	-51.5	15.4	0.00e+00	0	24	0	836763648	66	4214
2026-01-09 10:09:37.76	297.19	61.62	-49.3	-50.7	15.7	0.00e+00	0	24	0	838860800	65	4054
2026-01-09 10:09:38.74	297.84	61.32	-49.0	-50.2	15.6	0.00e+00	0	24	0	840957952	64	4087
2026-01-09 10:09:39.74	298.48	61.02	-49.1	-50.4	15.6	0.00e+00	0	24	0	842006528	64	4181
2026-01-09 10:09:40.73	299.11	60.72	-49.5	-50.8	15.4	0.00e+00	0	24	0	844103680	64	4369
2026-01-09 10:09:41.73	299.72	60.41	-49.6	-51.0	15.4	0.00e+00	0	24	0	846200832	64	4446
2026-01-09 10:09:42.71	300.31	60.11	-50.1	-51.6	15.3	0.00e+00	0	24	0	848297984	65	4508
2026-01-09 10:09:43.70	300.89	59.80	-50.2	-51.6	15.3	0.00e+00	0	24	0	850395136	65	4528
2026-01-09 10:09:44.69	301.46	59.49	-49.8	-51.2	15.4	0.00e+00	0	24	0	851443712	65	4304
2026-01-09 10:09:45.68	302.01	59.18	-50.1	-51.5	15.3	0.00e+00	0	24	0	853540864	65	4488
2026-01-09 10:09:46.67	302.55	58.87	-51.2	-52.9	15.0	0.00e+00	0	24	0	855638016	67	4663
2026-01-09 10:09:47.67	303.08	58.56	-52.3	-54.1	14.7	0.00e+00	0	24	0	857735168	69	4801
2026-01-09 10:09:48.66	303.60	58.25	-51.6	-53.2	15.2	0.00e+00	0	24	0	858783744	69	4310
2026-01-09 10:09:49.66	304.11	57.93	-51.3	-52.8	15.4	0.00e+00	0	24	0	860880896	69	4119
2026-01-09 10:09:50.66	304.61	57.62	-51.5	-53.1	15.1	0.00e+00	0	24	0	862978048	68	4513
2026-01-09 10:09:51.65	305.09	57.31	-52.1	-53.8	14.9	0.00e+00	0	24	0	865075200	69	4639
2026-01-09 10:09:52.64	305.56	57.00	-52.6	-54.5	14.7	0.00e+00	0	24	0	867172352	70	4742
2026-01-09 10:09:53.64	306.02	56.68	-52.0	-53.8	15.1	0.00e+00	0	24	0	868220928	70	4360
2026-01-09 10:09:54.62	306.47	56.37	-50.8	-52.3	15.4	0.00e+00	0	24	0	870318080	68	4135
2026-01-09 10:09:55.61	306.91	56.06	-50.0	-51.3	15.5	0.00e+00	0	24	0	872415232	66	4141
2026-01-09 10:09:56.60	307.34	55.75	-49.7	-51.0	15.7	0.00e+00	0	24	0	874512384	66	3997
2026-01-09 10:09:57.58	307.76	55.44	-50.1	-51.5	15.5	0.00e+00	0	24	0	875560960	66	4214
2026-01-09 10:09:58.58	308.17	55.13	-51.2	-52.8	15.1	0.00e+00	0	24	0	877658112	67	4641
2026-01-09 10:09:59.56	308.57	54.82	-51.2	-52.8	15.1	0.00e+00	0	24	0	879755264	67	4621
2026-01-09 10:10:00.56	308.97	54.51	-50.5	-52.0	15.4	0.00e+00	0	24	0	881852416	67	4205
2026-01-09 10:10:01.55	309.36	54.20	-50.2	-51.6	15.6	0.00e+00	0	24	0	883949568	67	4019
2026-01-09 10:10:02.53	309.73	53.89	-50.2	-51.6	15.5	0.00e+00	0	24	0	884998144	66	4265
2026-01-09 10:10:03.52	310.10	53.58	-50.5	-51.9	15.3	0.00e+00	0	24	0	887095296	66	4436
2026-01-09 10:10:04.51	310.46	53.28	-50.9	-52.5	15.2	0.00e+00	0	24	0	889192448	67	4469
2026-01-09 10:10:05.51	310.82	52.97	-50.7	-52.2	15.3	0.00e+00	0	24	0	891289600	67	4311
2026-01-09 10:10:06.50	311.17	52.66	-50.3	-51.8	15.5	0.00e+00	0	24	0	892338176	67	4131
2026-01-09 10:10:07.49	311.51	52.35	-49.8	-51.2	15.6	0.00e+00	0	24	0	894435328	66	4073
2026-01-09 10:10:08.49	311.85	52.05	-49.2	-50.5	15.7	0.00e+00	0	24	0	896532480	65	3995
2026-01-09 10:10:09.48	312.17	51.74	-48.9	-50.2	15.6	0.00e+00	0	24	0	898629632	64	4068
2026-01-09 10:10:10.47	312.49	51.44	-49.3	-50.6	15.5	0.00e+00	0	24	0	899678208	64	4267
2026-01-09 10:10:11.46	312.81	51.14	-50.7	-52.3	15.2	0.00e+00	0	24	0	901775360	66	4607
2026-01-09 10:10:12.45	313.12	50.84	-52.4	-54.2	14.7	0.00e+00	0	24	0	903872512	69	4865
2026-01-09 10:10:13.45	313.42	50.54	-52.6	-54.5	14.7	0.00e+00	0	24	0	905969664	70	4750
2026-01-09 10:10:14.44	313.72	50.24	-52.0	-53.8	15.1	0.00e+00	0	24	0	908066816	70	4350
2026-01-09 10:10:15.43	314.01	49.95	-51.7	-53.4	15.3	0.00e+00	0	24	0	909115392	70	4155
2026-01-09 10:10:16.42	314.29	49.65	-51.8	-53.4	15.1	0.00e+00	0	24	0	911212544	69	4420
2026-01-09 10:10:17.41	314.57	49.36	-52.6	-54.4	14.8	0.00e+00	0	24	0	913309696	70	4677
2026-01-09 10:10:18.40	314.85	49.06	-53.3	-55.3	14.4	0.00e+00	0	24	0	915406848	71	4890
2026-01-09 10:10:19.39	315.11	48.77	-54.7	-57.3	13.7	0.00e+00	0	24	0	916455424	74	5183
2026-01-09 10:10:20.39	315.38	48.48	-56.2	-59.9	12.4	0.00e+00	0	24	0	918552576	77	5859
2026-01-09 10:10:21.38	315.64	48.19	-56.2	-60.0	12.3	6.10e-06	0	24	0	920649728	78	5602
2026-01-09 10:10:22.37	315.90	47.90	-54.5	-57.1	14.0	0.00e+00	0	24	0	922746880	75	4790
2026-01-09 10:10:23.36	316.15	47.61	-53.3	-55.3	14.7	0.00e+00	0	24	0	924844032	73	4377
2026-01-09 10:10:24.35	316.39	47.33	-53.0	-54.9	14.8	0.00e+00	0	24	0	925892608	72	4410
2026-01-09 10:10:25.35	316.63	47.04	-53.1	-55.0	14.8	0.00e+00	0	24	0	927989760	72	4491
2026-01-09 10:10:26.34	316.87	46.76	-53.3	-55.3	14.6	0.00e+00	0	24	0	930086912	72	4649
2026-01-09 10:10:27.32	317.10	46.48	-53.9	-56.2	14.1	0.00e+00	0	24	0	932184064	72	5106
2026-01-09 10:10:28.32	317.33	46.20	-54.4	-56.9	13.8	0.00e+00	0	24	0	933232640	73	5234
2026-01-09 10:10:29.32	317.56	45.92	-54.3	-56.8	14.1	0.00e+00	0	24	0	935329792	74	4873
2026-01-09 10:10:30.31	317.78	45.64	-53.8	-56.1	14.4	0.00e+00	0	24	0	937426944	74	4501
2026-01-09 10:10:31.31	318.00	45.37	-53.0	-54.9	14.8	0.00e+00	0	24	0	939524096	72	4438
2026-01-09 10:10:32.31	318.22	45.09	-52.4	-54.1	15.1	0.00e+00	0	24	0	941621248	71	4278
2026-01-09 10:10:33.30	318.43	44.82	-52.0	-53.6	15.2	0.00e+00	0	24	0	942669824	70	4278
2026-01-09 10:10:34.29	318.63	44.55	-51.8	-53.4	15.3	0.00e+00	0	24	0	944766976	70	4156
2026-01-09 10:10:35.28	318.83	44.28	-51.7	-53.3	15.3	0.00e+00	0	24	0	946864128	70	4132
2026-01-09 10:10:36.27	319.03	44.01	-52.0	-53.6	15.2	0.00e+00	0	24	0	948961280	70	4281
2026-01-09 10:10:37.27	319.23	43.74	-52.8	-54.7	14.6	0.00e+00	0	24	0	950009856	70	4826
2026-01-09 10:10:38.26	319.43	43.48	-53.7	-56.0	14.2	0.00e+00	0	24	0	952107008	72	4996
2026-01-09 10:10:39.25	319.62	43.21	-53.2	-55.3	14.6	0.00e+00	0	24	0	954204160	72	4634
2026-01-09 10:10:40.25	319.81	42.95	-52.2	-53.9	15.2	0.00e+00	0	24	0	956301312	71	4183
2026-01-09 10:10:41.24	319.99	42.69	-51.3	-52.8	15.4	0.00e+00	0	24	0	958398464	69	4143
2026-01-09 10:10:42.23	320.17	42.43	-51.0	-52.5	15.4	0.00e+00	0	24	0	959447040	68	4226
2026-01-09 10:10:43.23	320.35	42.17	-50.8	-52.3	15.5	0.00e+00	0	24	0	961544192	68	4109
2026-01-09 10:10:44.22	320.53	41.91	-50.4	-51.8	15.5	0.00e+00	0	24	0	963641344	67	4129
2026-01-09 10:10:45.21	320.70	41.66	-50.8	-52.4	15.2	0.00e+00	0	24	0	965738496	67	4403
2026-01-09 10:10:46.20	320.87	41.41	-51.8	-53.5	14.9	0.00e+00	0	24	0	966787072	68	4759
2026-01-09 10:10:47.19	321.04	41.15	-53.0	-55.0	14.6	0.00e+00	0	24	0	968884224	71	4743
2026-01-09 10:10:48.19	321.20	40.90	-53.8	-56.1	14.2	0.00e+00	0	24	0	970981376	72	5088
2026-01-09 10:10:49.18	321.37	40.65	-54.2	-56.8	13.9	0.00e+00	0	24	0	973078528	73	5181
2026-01-09 10:10:50.16	321.53	40.41	-53.5	-55.7	14.5	0.00e+00	0	24	0	974127104	73	4559
2026-01-09 10:10:51.16	321.69	40.16	-52.2	-54.0	15.1	0.00e+00	0	24	0	976224256	71	4242
2026-01-09 10:10:52.15	321.84	39.92	-51.2	-52.8	15.4	0.00e+00	0	24	0	978321408	69	4109
2026-01-09 10:10:53.14	321.99	39.68	-50.7	-52.1	15.5	0.00e+00	0	24	0	980418560	68	4033
2026-01-09 10:10:54.13	322.15	39.43	-50.2	-51.6	15.6	0.00e+00	0	24	0	982515712	67	4050
2026-01-09 10:10:55.13	322.30	39.19	-50.3	-51.7	15.5	0.00e+00	0	24	0	983564288	67	4062
2026-01-09 10:10:56.12	322.44	38.95	-50.7	-52.1	15.3	0.00e+00	0	24	0	985661440	67	4280
2026-01-09 10:10:57.11	322.59	38.72	-51.7	-53.4	15.0	0.00e+00	0	24	0	987758592	68	4679
2026-01-09 10:10:58.10	322.73	38.48	-52.8	-54.8	14.6	0.00e+00	0	24	0	989855744	70	4881
2026-01-09 10:10:59.09	322.87	38.25	-53.5	-55.7	14.4	0.00e+00	0	24	0	990904320	72	4833
2026-01-09 10:11:00.08	323.01	38.02	-53.5	-55.8	14.3	0.00e+00	0	24	0	993001472	72	4878
2026-01-09 10:11:01.08	323.15	37.78	-53.0	-55.0	14.7	0.00e+00	0	24	0	995098624	72	4483
2026-01-09 10:11:02.08	323.29	37.55	-52.4	-54.2	15.0	0.00e+00	0	24	0	997195776	71	4300
2026-01-09 10:11:03.07	323.42	37.32	-51.9	-53.6	15.2	0.00e+00	0	24	0	999292928	70	4270
2026-01-09 10:11:04.06	323.55	37.10	-51.5	-53.1	15.3	0.00e+00	0	24	0	1000341504	69	4262
2026-01-09 10:11:05.05	323.68	36.87	-51.2	-52.8	15.4	0.00e+00	0	24	0	1002438656	69	4117
2026-01-09 10:11:06.05	323.81	36.65	-51.3	-52.8	15.2	0.00e+00	0	24	0	1004535808	68	4377
2026-01-09 10:11:07.04	323.94	36.42	-51.3	-52.8	15.2	0.00e+00	0	24	0	1006632960	68	4375
2026-01-09 10:11:08.03	324.06	36.20	-51.5	-53.1	15.1	0.00e+00	0	24	0	1007681536	68	4497
2026-01-09 10:11:09.03	324.19	35.98	-51.3	-52.8	15.2	0.00e+00	0	24	0	1009778688	68	4382
2026-01-09 10:11:10.02	324.31	35.76	-51.4	-53.0	15.1	0.00e+00	0	24	0	1011875840	68	4484
2026-01-09 10:11:11.01	324.43	35.55	-51.6	-53.3	15.0	0.00e+00	0	24	0	1013972992	68	4626
2026-01-09 10:11:12.00	324.55	35.33	-51.8	-53.5	14.9	0.00e+00	0	24	0	1016070144	68	4750
2026-01-09 10:11:13.00	324.66	35.11	-52.1	-53.9	14.9	0.00e+00	0	24	0	1017118720	69	4653
2026-01-09 10:11:14.00	324.78	34.90	-52.2	-54.0	14.8	0.00e+00	0	24	0	1019215872	69	4727
2026-01-09 10:11:14.99	324.89	34.69	-52.2	-54.0	14.8	0.00e+00	0	24	0	1021313024	69	4724
2026-01-09 10:11:15.98	325.01	34.48	-52.1	-53.9	14.8	0.00e+00	0	24	0	1023410176	69	4687
2026-01-09 10:11:16.98	325.12	34.27	-52.1	-53.9	14.9	0.00e+00	0	24	0	1024458752	69	4655
2026-01-09 10:11:17.97	325.23	34.06	-52.1	-53.8	14.9	0.00e+00	0	24	0	1026555904	69	4637
2026-01-09 10:11:18.96	325.34	33.85	-52.2	-54.0	14.8	0.00e+00	0	24	0	1028653056	69	4740
2026-01-09 10:11:19.96	325.45	33.64	-52.2	-54.1	14.7	0.00e+00	0	24	0	1030750208	69	4766
2026-01-09 10:11:20.95	325.55	33.44	-52.3	-54.2	14.7	0.00e+00	0	24	0	1032847360	69	4834
2026-01-09 10:11:21.95	325.66	33.24	-52.5	-54.3	14.6	0.00e+00	0	24	0	1033895936	70	4642
2026-01-09 10:11:22.94	325.76	33.03	-52.4	-54.3	14.8	0.00e+00	0	24	0	1035993088	70	4625
2026-01-09 10:11:23.93	325.86	32.83	-52.5	-54.3	14.8	0.00e+00	0	24	0	1038090240	70	4629
2026-01-09 10:11:24.93	325.96	32.63	-52.6	-54.5	14.7	0.00e+00	0	24	0	1040187392	70	4722
2026-01-09 10:11:25.92	326.06	32.44	-52.5	-54.4	14.7	0.00e+00	0	24	0	1041235968	70	4670
2026-01-09 10:11:26.91	326.16	32.24	-52.5	-54.4	14.7	0.00e+00	0	24	0	1043333120	70	4687
2026-01-09 10:11:27.90	326.26	32.04	-52.6	-54.5	14.7	0.00e+00	0	24	0	1045430272	70	4731
2026-01-09 10:11:28.90	326.36	31.85	-52.7	-54.6	14.6	0.00e+00	0	24	0	1047527424	70	4804
2026-01-09 10:11:29.89	326.45	31.66	-52.7	-54.7	14.6	0.00e+00	0	24	0	1049624576	70	4826
2026-01-09 10:11:30.89	326.55	31.46	-53.0	-55.0	14.6	0.00e+00	0	24	0	1050673152	71	4738
2026-01-09 10:11:31.89	326.64	31.27	-53.3	-55.4	14.3	0.00e+00	0	24	0	1052770304	71	4943
2026-01-09 10:11:32.88	326.74	31.08	-53.3	-55.5	14.3	0.00e+00	0	24	0	1054867456	71	4989
2026-01-09 10:11:33.87	326.83	30.89	-53.6	-55.8	14.2	0.00e+00	0	24	0	1056964608	72	4898
2026-01-09 10:11:34.86	326.92	30.71	-53.5	-55.7	14.3	0.00e+00	0	24	0	1058013184	72	4830
2026-01-09 10:11:35.85	327.01	30.52	-53.4	-55.6	14.4	0.00e+00	0	24	0	1060110336	72	4789
2026-01-09 10:11:36.84	327.09	30.34	-53.4	-55.6	14.4	0.00e+00	0	24	0	1062207488	72	4779
2026-01-09 10:11:37.83	327.18	30.15	-53.3	-55.4	14.5	0.00e+00	0	24	0	1064304640	72	4661
2026-01-09 10:11:38.83	327.27	29.97	-53.1	-55.2	14.5	0.00e+00	0	24	0	1065353216	72	4575
2026-01-09 10:11:39.82	327.35	29.79	-53.0	-55.0	14.7	0.00e+00	0	24	0	1067450368	72	4453
2026-01-09 10:11:40.82	327.44	29.60	-52.7	-54.6	14.9	0.00e+00	0	24	0	1069547520	72	4282
2026-01-09 10:11:41.81	327.52	29.42	-52.3	-54.1	15.0	0.00e+00	0	24	0	1071644672	71	4275
2026-01-09 10:11:42.80	327.60	29.25	-52.2	-53.9	15.1	0.00e+00	0	24	0	1073741824	71	4193
2026-01-09 10:11:43.80	327.69	29.07	-52.0	-53.7	15.1	0.00e+00	0	24	0	1074790400	70	4328
2026-01-09 10:11:44.80	327.77	28.89	-51.9	-53.7	15.1	0.00e+00	0	24	0	1076887552	70	4293
2026-01-09 10:11:45.79	327.85	28.72	-51.9	-53.6	15.1	0.00e+00	0	24	0	1078984704	70	4253
2026-01-09 10:11:46.78	327.93	28.54	-51.8	-53.5	15.2	0.00e+00	0	24	0	1081081856	70	4194
2026-01-09 10:11:47.77	328.01	28.37	-51.8	-53.5	15.2	0.00e+00	0	24	0	1082130432	70	4217
2026-01-09 10:11:48.76	328.09	28.20	-51.9	-53.6	15.1	0.00e+00	0	24	0	1084227584	70	4264
2026-01-09 10:11:49.75	328.16	28.03	-52.0	-53.8	15.0	0.00e+00	0	24	0	1086324736	70	4352
2026-01-09 10:11:50.74	328.24	27.86	-52.2	-54.0	14.9	0.00e+00	0	24	0	1088421888	70	4489
2026-01-09 10:11:51.73	328.31	27.69	-52.3	-54.1	14.8	0.00e+00	0	24	0	1090519040	70	4534
2026-01-09 10:11:52.72	328.39	27.52	-52.4	-54.2	14.8	0.00e+00	0	24	0	1091567616	70	4595
2026-01-09 10:11:53.71	328.46	27.35	-52.5	-54.4	14.7	0.00e+00	0	24	0	1093664768	70	4659
2026-01-09 10:11:54.70	328.54	27.19	-52.5	-54.5	14.7	0.00e+00	0	24	0	1095761920	70	4713
2026-01-09 10:11:55.69	328.61	27.02	-52.5	-54.5	14.7	0.00e+00	0	24	0	1097859072	70	4718
2026-01-09 10:11:56.68	328.68	26.86	-52.5	-54.4	14.7	0.00e+00	0	24	0	1098907648	70	4680
2026-01-09 10:11:57.67	328.75	26.69	-52.5	-54.4	14.7	0.00e+00	0	24	0	1101004800	70	4656
2026-01-09 10:11:58.67	328.82	26.53	-52.3	-54.1	14.8	0.00e+00	0	24	0	1103101952	70	4532
2026-01-09 10:11:59.66	328.89	26.37	-52.0	-53.8	15.0	0.00e+00	0	24	0	1105199104	70	4360
2026-01-09 10:12:00.65	328.96	26.21	-51.9	-53.6	15.1	0.00e+00	0	24	0	1107296256	70	4285
2026-01-09 10:12:01.65	329.03	26.05	-51.7	-53.4	15.3	0.00e+00	0	24	0	1108344832	70	4164
2026-01-09 10:12:02.65	329.10	25.89	-51.6	-53.4	15.1	0.00e+00	0	24	0	1110441984	69	4394
2026-01-09 10:12:03.64	329.17	25.73	-51.5	-53.2	15.2	0.00e+00	0	24	0	1112539136	69	4292
2026-01-09 10:12:04.64	329.23	25.57	-51.3	-53.0	15.3	2.20e-06	0	24	0	1114636288	69	4201
2026-01-09 10:12:05.63	329.30	25.42	-51.0	-52.6	15.3	0.00e+00	0	24	0	1115684864	68	4247
2026-01-09 10:12:06.62	329.36	25.26	-50.9	-52.5	15.4	0.00e+00	0	24	0	1117782016	68	4202
2026-01-09 10:12:07.60	329.43	25.11	-51.0	-52.6	15.3	0.00e+00	0	24	0	1119879168	68	4263
2026-01-09 10:12:08.60	329.49	24.95	-50.9	-52.4	15.4	0.00e+00	0	24	0	1121976320	68	4178
2026-01-09 10:12:09.59	329.56	24.80	-50.7	-52.2	15.5	0.00e+00	0	24	0	1124073472	68	4094
2026-01-09 10:12:10.58	329.62	24.65	-50.8	-52.3	15.4	0.00e+00	0	24	0	1125122048	68	4124
2026-01-09 10:12:11.58	329.68	24.50	-50.9	-52.4	15.4	0.00e+00	0	24	0	1127219200	68	4177
2026-01-09 10:12:12.56	329.74	24.35	-50.9	-52.4	15.4	0.00e+00	0	24	0	1129316352	68	4192
2026-01-09 10:12:13.56	329.81	24.20	-51.0	-52.6	15.3	0.00e+00	0	24	0	1131413504	68	4260
2026-01-09 10:12:14.55	329.87	24.05	-51.1	-52.8	15.2	0.00e+00	0	24	0	1132462080	68	4346
2026-01-09 10:12:15.55	329.93	23.90	-51.2	-52.8	15.1	0.00e+00	0	24	0	1134559232	68	4383
2026-01-09 10:12:16.53	329.99	23.76	-51.2	-52.9	15.1	0.00e+00	0	24	0	1136656384	68	4418
2026-01-09 10:12:17.53	330.05	23.61	-51.2	-52.8	15.2	0.00e+00	0	24	0	1138753536	68	4377
2026-01-09 10:12:18.52	330.11	23.47	-51.1	-52.8	15.2	0.00e+00	0	24	0	1139802112	68	4348
2026-01-09 10:12:19.51	330.16	23.32	-51.0	-52.7	15.2	3.00e-06	0	24	0	1141899264	68	4297
2026-01-09 10:12:20.50	330.22	23.18	-51.2	-52.8	15.1	0.00e+00	0	24	0	1143996416	68	4383
2026-01-09 10:12:21.49	330.28	23.04	-51.2	-52.8	15.1	0.00e+00	0	24	0	1146093568	68	4384
2026-01-09 10:12:22.48	330.34	22.89	-51.0	-52.6	15.2	0.00e+00	0	24	0	1148190720	68	4278
2026-01-09 10:12:23.47	330.39	22.75	-50.9	-52.5	15.3	0.00e+00	0	24	0	1149239296	68	4233
2026-01-09 10:12:24.47	330.45	22.61	-50.8	-52.3	15.4	0.00e+00	0	24	0	1151336448	68	4132
2026-01-09 10:12:25.46	330.50	22.47	-50.8	-52.4	15.4	0.00e+00	0	24	0	1153433600	68	4152
2026-01-09 10:12:26.46	330.56	22.33	-50.7	-52.3	15.5	7.00e-07	0	24	0	1155530752	68	4101
2026-01-09 10:12:27.45	330.61	22.19	-50.5	-52.0	15.4	0.00e+00	0	24	0	1156579328	67	4225
2026-01-09 10:12:28.44	330.67	22.06	-50.6	-52.1	15.3	0.00e+00	0	24	0	1158676480	67	4273
2026-01-09 10:12:29.44	330.72	21.92	-50.6	-52.2	15.3	0.00e+00	0	24	0	1160773632	67	4303
2026-01-09 10:12:30.43	330.77	21.78	-50.5	-52.0	15.4	0.00e+00	0	24	0	1162870784	67	4219
2026-01-09 10:12:31.42	330.83	21.65	-50.5	-52.1	15.3	0.00e+00	0	24	0	1164967936	67	4247
2026-01-09 10:12:32.41	330.88	21.51	-50.4	-51.9	15.4	0.00e+00	0	24	0	1166016512	67	4159
2026-01-09 10:12:33.40	330.93	21.38	-50.5	-52.0	15.4	0.00e+00	0	24	0	1168113664	67	4208
2026-01-09 10:12:34.39	330.98	21.25	-50.3	-51.8	15.5	0.00e+00	0	24	0	1170210816	67	4136
2026-01-09 10:12:35.38	331.03	21.11	-50.3	-51.8	15.4	0.00e+00	0	24	0	1172307968	67	4143
2026-01-09 10:12:36.38	331.09	20.98	-50.4	-51.9	15.4	0.00e+00	0	24	0	1173356544	67	4170
2026-01-09 10:12:37.37	331.14	20.85	-50.4	-51.9	15.4	0.00e+00	0	24	0	1175453696	67	4165
2026-01-09 10:12:38.36	331.19	20.72	-50.4	-52.0	15.4	0.00e+00	0	24	0	1177550848	67	4195
2026-01-09 10:12:39.35	331.24	20.59	-50.4	-52.0	15.4	0.00e+00	0	24	0	1179648000	67	4194
2026-01-09 10:12:40.35	331.29	20.46	-50.6	-52.1	15.3	0.00e+00	0	24	0	1181745152	67	4271
2026-01-09 10:12:41.34	331.33	20.33	-50.6	-52.1	15.3	0.00e+00	0	24	0	1182793728	67	4275
2026-01-09 10:12:42.33	331.38	20.20	-50.6	-52.2	15.2	0.00e+00	0	24	0	1184890880	67	4326
2026-01-09 10:12:43.33	331.43	20.07	-50.7	-52.3	15.1	0.00e+00	0	24	0	1186988032	67	4349
2026-01-09 10:12:44.33	331.48	19.95	-50.7	-52.3	15.1	0.00e+00	0	24	0	1189085184	67	4380
2026-01-09 10:12:45.31	331.53	19.82	-50.8	-52.4	15.1	0.00e+00	0	24	0	1190133760	67	4411
2026-01-09 10:12:46.30	331.57	19.70	-50.8	-52.4	15.1	0.00e+00	0	24	0	1192230912	67	4420
2026-01-09 10:12:47.29	331.62	19.57	-50.9	-52.6	15.1	0.00e+00	0	24	0	1194328064	67	4498
2026-01-09 10:12:48.29	331.67	19.45	-50.9	-52.6	15.1	0.00e+00	0	24	0	1196425216	67	4510
2026-01-09 10:12:49.29	331.71	19.32	-51.0	-52.6	15.1	0.00e+00	0	24	0	1197473792	67	4526
2026-01-09 10:12:50.27	331.76	19.20	-50.9	-52.5	15.1	0.00e+00	0	24	0	1199570944	67	4462
2026-01-09 10:12:51.26	331.80	19.08	-50.9	-52.5	15.1	0.00e+00	0	24	0	1201668096	67	4493
2026-01-09 10:12:52.24	331.85	18.96	-50.9	-52.5	15.1	0.00e+00	0	24	0	1203765248	67	4469
2026-01-09 10:12:53.23	331.89	18.84	-50.9	-52.6	15.1	0.00e+00	0	24	0	1204813824	67	4502
2026-01-09 10:12:54.23	331.94	18.71	-50.9	-52.6	15.1	0.00e+00	0	24	0	1206910976	67	4515
2026-01-09 10:12:55.22	331.98	18.59	-51.0	-52.6	15.0	0.00e+00	0	24	0	1209008128	67	4522
2026-01-09 10:12:56.21	332.02	18.47	-50.9	-52.5	15.1	0.00e+00	0	24	0	1211105280	67	4491
2026-01-09 10:12:57.20	332.07	18.36	-50.9	-52.6	15.1	0.00e+00	0	24	0	1213202432	67	4506
2026-01-09 10:12:58.19	332.11	18.24	-50.9	-52.5	15.1	0.00e+00	0	24	0	1214251008	67	4480
2026-01-09 10:12:59.18	332.15	18.12	-50.9	-52.5	15.1	0.00e+00	0	24	0	1216348160	67	4480
2026-01-09 10:13:00.17	332.20	18.00	-51.0	-52.6	15.0	0.00e+00	0	24	0	1218445312	67	4537
2026-01-09 10:13:01.17	332.24	17.88	-51.0	-52.7	15.0	0.00e+00	0	24	0	1220542464	67	4570
