passes_logs/2026/01/09/R3.2S_Murmansk/R3.2S_Murmansk__20260109_030400_SUOMI_NPP_rec.log

#Pass ID: 20260109_030400_SUOMI NPP
#Satellite: SUOMI NPP
#Configuration: NPP
#almurnet v.1.7.20251203
#Start time: 2026-01-09 03:04:02

#Version: 2.2.20231116
#Station: R3.2S_Murmansk
#Location: 33.079688 lon 68.888172 lat
#TLE: 1 37849U 11061A   26008.05542337  .00000108  00000+0  71976-4 0  9997
#TLE: 2 37849  98.7805 310.1641 0002540  75.6410 284.5048 14.19523335735721

#Time	Az	El	Level	Level2	SNR	BER	BlckErr	Temp	State	Recorded	gain1	gain2
2026-01-09 03:04:02.21	37.55	2.11	-57.2	-73.1	3.8	1.49e+00	0	22	0	0	80	22731
2026-01-09 03:04:03.22	37.50	2.17	-57.1	-73.1	3.8	1.49e+00	0	22	104	0	79	24061
2026-01-09 03:04:04.23	37.45	2.23	-57.1	-73.2	3.8	1.49e+00	0	22	104	0	79	24157
2026-01-09 03:04:05.23	37.41	2.29	-57.1	-73.1	3.8	1.49e+00	0	22	104	0	79	24096
2026-01-09 03:04:06.24	37.36	2.35	-57.2	-73.1	3.8	1.49e+00	0	22	104	0	79	24108
2026-01-09 03:04:07.23	37.31	2.41	-57.1	-73.1	3.8	1.49e+00	0	22	104	0	79	24052
2026-01-09 03:04:08.23	37.26	2.47	-57.1	-73.1	3.8	1.49e+00	0	22	104	0	79	24103
2026-01-09 03:04:09.23	37.21	2.53	-57.2	-73.2	3.8	1.49e+00	0	22	104	0	79	24153
2026-01-09 03:04:10.23	37.17	2.59	-57.2	-73.2	3.8	1.49e+00	0	22	104	0	79	24182
2026-01-09 03:04:11.22	37.12	2.66	-57.2	-73.1	3.8	1.49e+00	0	22	104	0	79	24095
2026-01-09 03:04:12.23	37.07	2.72	-57.1	-73.1	3.8	1.49e+00	0	22	104	0	79	24075
2026-01-09 03:04:13.23	37.02	2.78	-57.1	-73.1	3.8	1.49e+00	0	22	104	0	79	24070
2026-01-09 03:04:14.23	36.97	2.84	-57.1	-73.1	3.8	1.49e+00	0	22	104	0	79	24035
2026-01-09 03:04:15.23	36.92	2.90	-57.1	-73.1	3.8	1.49e+00	0	22	104	0	79	23936
2026-01-09 03:04:16.23	36.87	2.96	-57.1	-73.1	3.8	1.49e+00	0	22	104	0	79	24013
2026-01-09 03:04:17.23	36.82	3.03	-57.1	-73.1	3.8	1.49e+00	0	22	104	0	79	23971
2026-01-09 03:04:18.22	36.77	3.09	-57.1	-73.0	3.8	1.49e+00	0	22	104	0	79	23761
2026-01-09 03:04:19.22	36.72	3.15	-57.1	-73.0	3.8	1.49e+00	0	22	104	0	79	23821
2026-01-09 03:04:20.22	36.67	3.21	-57.2	-73.1	3.8	1.49e+00	0	22	104	0	79	23972
2026-01-09 03:04:21.22	36.62	3.27	-57.1	-73.1	3.8	1.49e+00	0	22	104	0	79	24048
2026-01-09 03:04:22.21	36.57	3.34	-57.1	-73.1	3.8	1.49e+00	0	22	104	0	79	24034
2026-01-09 03:04:23.22	36.52	3.40	-57.2	-73.1	3.8	1.49e+00	0	22	104	0	79	24129
2026-01-09 03:04:24.22	36.47	3.46	-57.1	-73.1	3.8	1.49e+00	0	22	104	0	79	24079
2026-01-09 03:04:25.22	36.41	3.52	-57.2	-73.2	3.8	1.49e+00	0	22	104	0	79	24133
2026-01-09 03:04:26.22	36.36	3.59	-57.2	-73.1	3.8	1.49e+00	0	23	104	0	79	24105
2026-01-09 03:04:27.22	36.31	3.65	-57.2	-73.1	3.8	1.49e+00	0	22	104	0	79	24039
2026-01-09 03:04:28.23	36.26	3.71	-57.2	-73.1	3.8	1.49e+00	0	22	104	0	79	24098
2026-01-09 03:04:29.23	36.20	3.78	-57.2	-73.1	3.8	1.49e+00	0	22	104	0	79	24070
2026-01-09 03:04:30.22	36.15	3.84	-57.2	-73.1	3.8	1.49e+00	0	23	104	0	79	24109
2026-01-09 03:04:31.22	36.10	3.90	-57.2	-73.2	3.8	1.49e+00	0	22	104	0	79	24170
2026-01-09 03:04:32.22	36.04	3.97	-57.2	-73.1	3.8	1.49e+00	0	22	104	0	79	24046
2026-01-09 03:04:33.22	35.99	4.03	-57.2	-73.1	3.8	1.49e+00	0	23	104	0	79	23870
2026-01-09 03:04:34.22	35.94	4.09	-57.2	-73.0	3.8	1.49e+00	0	22	104	0	79	23604
2026-01-09 03:04:35.22	35.88	4.16	-57.1	-72.7	3.8	1.49e+00	0	22	104	0	79	22871
2026-01-09 03:04:36.21	35.83	4.22	-57.1	-72.4	3.8	1.49e+00	0	23	104	0	79	22216
2026-01-09 03:04:37.21	35.77	4.29	-57.1	-72.1	3.8	1.49e+00	0	23	104	0	79	21314
2026-01-09 03:04:38.20	35.72	4.35	-57.1	-71.6	3.8	1.49e+00	0	22	104	0	79	20265
2026-01-09 03:04:39.20	35.66	4.42	-57.1	-71.2	3.8	1.49e+00	0	23	104	0	79	19267
2026-01-09 03:04:40.20	35.61	4.48	-57.1	-70.6	3.9	1.49e+00	0	22	104	0	79	17981
2026-01-09 03:04:41.19	35.55	4.54	-57.0	-70.1	4.1	1.47e+00	0	23	104	0	79	17040
2026-01-09 03:04:42.19	35.50	4.61	-57.0	-69.5	4.2	1.41e+00	0	23	0	0	79	15935
2026-01-09 03:04:43.18	35.44	4.67	-56.9	-68.7	4.4	1.29e+00	20	23	0	0	79	14485
2026-01-09 03:04:44.18	35.38	4.74	-56.9	-68.0	4.7	8.45e-01	0	23	0	2097152	79	13372
2026-01-09 03:04:45.18	35.33	4.80	-56.8	-67.3	5.1	6.65e-01	0	23	0	4194304	79	12300
2026-01-09 03:04:46.17	35.27	4.87	-56.8	-67.1	5.2	5.92e-01	0	23	0	6291456	79	12037
2026-01-09 03:04:47.17	35.21	4.93	-56.7	-66.4	5.6	4.59e-01	0	23	0	7340032	79	11055
2026-01-09 03:04:48.16	35.16	5.00	-56.6	-66.0	5.8	3.88e-01	0	23	0	9437184	79	10646
2026-01-09 03:04:49.16	35.10	5.07	-56.6	-66.3	5.8	3.30e-01	0	23	0	11534336	79	10911
2026-01-09 03:04:50.16	35.04	5.13	-57.1	-69.7	4.2	1.29e+00	0	23	0	12582912	79	16189
2026-01-09 03:04:51.15	34.98	5.20	-55.6	-61.3	10.0	1.82e-01	0	23	0	14680064	77	6880
2026-01-09 03:04:52.15	34.92	5.26	-57.0	-71.6	3.8	5.13e-01	0	23	104	15728640	79	20147
2026-01-09 03:04:53.15	34.86	5.33	-57.1	-67.7	4.9	7.75e-01	0	23	0	15728640	79	12928
2026-01-09 03:04:54.14	34.81	5.40	-55.9	-62.2	9.0	3.14e-03	0	23	0	17825792	77	7673
2026-01-09 03:04:55.14	34.75	5.46	-55.4	-60.6	10.5	2.16e-03	0	23	0	19922944	77	6369
2026-01-09 03:04:56.15	34.68	5.53	-55.4	-60.7	10.4	1.55e-03	0	23	0	20971520	77	6464
2026-01-09 03:04:57.15	34.62	5.60	-54.9	-59.5	11.4	3.79e-04	0	23	0	23068672	76	5944
2026-01-09 03:04:58.15	34.56	5.66	-54.2	-58.1	12.4	1.29e-05	0	23	0	25165824	75	5387
2026-01-09 03:04:59.15	34.50	5.73	-54.2	-58.1	12.3	0.00e+00	0	23	0	27262976	74	5695
2026-01-09 03:05:00.15	34.44	5.80	-53.9	-57.5	12.7	7.00e-07	0	23	0	29360128	74	5330
2026-01-09 03:05:01.15	34.38	5.87	-53.9	-57.4	12.8	0.00e+00	0	23	0	30408704	74	5254
2026-01-09 03:05:02.15	34.32	5.93	-53.9	-57.4	12.8	0.00e+00	0	23	0	32505856	74	5275
2026-01-09 03:05:03.15	34.26	6.00	-53.8	-57.3	13.0	0.00e+00	0	23	0	34603008	74	5160
2026-01-09 03:05:04.15	34.19	6.07	-53.5	-56.8	13.2	0.00e+00	0	23	0	36700160	73	5172
2026-01-09 03:05:05.15	34.13	6.14	-53.6	-56.9	13.1	0.00e+00	0	23	0	38797312	73	5236
2026-01-09 03:05:06.14	34.07	6.20	-53.5	-56.7	13.3	0.00e+00	0	23	0	39845888	73	5125
2026-01-09 03:05:07.15	34.00	6.27	-53.3	-56.5	13.4	0.00e+00	0	23	0	41943040	73	5023
2026-01-09 03:05:08.15	33.94	6.34	-53.4	-56.5	13.4	0.00e+00	0	23	0	44040192	73	5037
2026-01-09 03:05:09.15	33.88	6.41	-53.5	-56.6	13.3	0.00e+00	0	23	0	46137344	73	5097
2026-01-09 03:05:10.15	33.81	6.48	-53.5	-56.7	13.3	0.00e+00	0	23	0	48234496	73	5119
2026-01-09 03:05:11.15	33.75	6.55	-53.6	-56.9	13.2	0.00e+00	0	23	0	49283072	73	5230
2026-01-09 03:05:12.15	33.68	6.62	-53.5	-56.7	13.3	0.00e+00	0	23	0	51380224	73	5118
2026-01-09 03:05:13.15	33.62	6.69	-53.4	-56.6	13.4	0.00e+00	0	23	0	53477376	73	5044
2026-01-09 03:05:14.15	33.55	6.76	-53.4	-56.4	13.5	0.00e+00	0	23	0	55574528	73	4970
2026-01-09 03:05:15.15	33.49	6.83	-53.3	-56.3	13.6	0.00e+00	0	23	0	56623104	73	4891
2026-01-09 03:05:16.15	33.42	6.90	-53.4	-56.5	13.4	0.00e+00	0	23	0	58720256	73	5024
2026-01-09 03:05:17.15	33.35	6.97	-53.2	-56.1	13.7	0.00e+00	0	23	0	60817408	73	4811
2026-01-09 03:05:18.15	33.29	7.04	-53.3	-56.2	13.6	0.00e+00	0	23	0	62914560	73	4868
2026-01-09 03:05:19.15	33.22	7.11	-53.1	-55.9	13.7	0.00e+00	0	23	0	65011712	72	4970
2026-01-09 03:05:20.14	33.15	7.18	-53.1	-56.1	13.6	0.00e+00	0	23	0	66060288	72	5070
2026-01-09 03:05:21.14	33.08	7.25	-53.3	-56.3	13.5	0.00e+00	0	23	0	68157440	72	5176
2026-01-09 03:05:22.13	33.02	7.32	-53.1	-56.0	13.6	0.00e+00	0	23	0	70254592	72	5032
2026-01-09 03:05:23.13	32.95	7.39	-53.1	-56.1	13.6	0.00e+00	0	23	0	72351744	72	5047
2026-01-09 03:05:24.13	32.88	7.46	-53.3	-56.3	13.4	0.00e+00	0	23	0	74448896	72	5204
2026-01-09 03:05:25.13	32.81	7.53	-53.1	-55.9	13.7	0.00e+00	0	23	0	75497472	72	4979
2026-01-09 03:05:26.12	32.74	7.60	-53.2	-56.2	13.6	0.00e+00	0	23	0	77594624	72	5117
2026-01-09 03:05:27.12	32.67	7.67	-53.0	-55.8	13.8	0.00e+00	0	23	0	79691776	72	4899
2026-01-09 03:05:28.11	32.60	7.74	-53.1	-56.1	13.6	0.00e+00	0	23	0	81788928	72	5067
2026-01-09 03:05:29.11	32.53	7.81	-53.0	-55.9	13.8	0.00e+00	0	23	0	82837504	72	4935
2026-01-09 03:05:30.10	32.46	7.88	-52.8	-55.6	13.9	0.00e+00	0	23	0	84934656	72	4809
2026-01-09 03:05:31.10	32.39	7.96	-52.9	-55.7	13.9	0.00e+00	0	23	0	87031808	72	4826
2026-01-09 03:05:32.10	32.32	8.03	-52.9	-55.6	14.0	0.00e+00	0	23	0	89128960	72	4802
2026-01-09 03:05:33.09	32.24	8.10	-52.5	-55.1	14.1	0.00e+00	0	23	0	91226112	71	4775
2026-01-09 03:05:34.09	32.17	8.17	-52.8	-55.6	13.8	0.00e+00	0	23	0	92274688	71	5086
2026-01-09 03:05:35.09	32.10	8.24	-52.9	-55.8	13.7	0.00e+00	0	23	0	94371840	71	5169
2026-01-09 03:05:36.08	32.03	8.32	-52.7	-55.4	13.9	0.00e+00	0	23	0	96468992	71	4980
2026-01-09 03:05:37.08	31.95	8.39	-52.9	-55.7	13.8	0.00e+00	0	23	0	98566144	71	5150
2026-01-09 03:05:38.08	31.88	8.46	-52.9	-55.7	13.8	0.00e+00	0	23	0	99614720	71	5142
2026-01-09 03:05:39.07	31.80	8.54	-52.8	-55.6	13.9	0.00e+00	0	23	0	101711872	71	5054
2026-01-09 03:05:40.07	31.73	8.61	-52.7	-55.5	13.9	0.00e+00	0	23	0	103809024	71	5017
2026-01-09 03:05:41.07	31.65	8.68	-52.8	-55.5	13.9	0.00e+00	0	23	0	105906176	71	5033
2026-01-09 03:05:42.06	31.58	8.76	-52.6	-55.3	14.1	0.00e+00	0	23	0	108003328	71	4881
2026-01-09 03:05:43.06	31.50	8.83	-52.8	-55.6	13.9	0.00e+00	0	23	0	109051904	71	5059
2026-01-09 03:05:44.05	31.43	8.90	-52.6	-55.4	14.0	0.00e+00	0	23	0	111149056	71	4931
2026-01-09 03:05:45.05	31.35	8.98	-52.6	-55.4	14.0	0.00e+00	0	23	0	113246208	71	4955
2026-01-09 03:05:46.05	31.27	9.05	-52.5	-55.2	14.1	0.00e+00	0	23	0	115343360	71	4863
2026-01-09 03:05:47.05	31.19	9.13	-52.5	-55.2	14.1	0.00e+00	0	23	0	116391936	71	4866
2026-01-09 03:05:48.05	31.12	9.20	-52.5	-55.3	14.1	0.00e+00	0	23	0	118489088	71	4875
2026-01-09 03:05:49.05	31.04	9.28	-52.5	-55.1	14.1	0.00e+00	0	23	0	120586240	71	4805
2026-01-09 03:05:50.05	30.96	9.35	-52.6	-55.3	14.1	0.00e+00	0	23	0	122683392	71	4894
2026-01-09 03:05:51.05	30.88	9.43	-52.7	-55.4	14.0	0.00e+00	0	23	0	124780544	71	4971
2026-01-09 03:05:52.04	30.80	9.50	-52.5	-55.1	14.2	0.00e+00	0	23	0	125829120	71	4803
2026-01-09 03:05:53.04	30.72	9.58	-52.4	-55.0	14.3	0.00e+00	0	23	0	127926272	71	4714
2026-01-09 03:05:54.04	30.64	9.65	-52.4	-55.0	14.2	0.00e+00	0	23	0	130023424	71	4752
2026-01-09 03:05:55.04	30.56	9.73	-52.4	-55.0	14.2	0.00e+00	0	23	0	132120576	71	4747
2026-01-09 03:05:56.03	30.48	9.80	-52.5	-55.1	14.2	0.00e+00	0	23	0	134217728	71	4781
2026-01-09 03:05:57.03	30.39	9.88	-52.4	-55.0	14.2	0.00e+00	0	23	0	135266304	71	4734
2026-01-09 03:05:58.04	30.31	9.96	-52.4	-54.9	14.3	0.00e+00	0	23	0	137363456	71	4693
2026-01-09 03:05:59.03	30.23	10.03	-52.4	-55.0	14.2	0.00e+00	0	23	0	139460608	71	4722
2026-01-09 03:06:00.03	30.15	10.11	-52.2	-54.7	14.4	0.00e+00	0	23	0	141557760	71	4572
2026-01-09 03:06:01.03	30.06	10.19	-52.3	-54.8	14.4	0.00e+00	0	23	0	143654912	71	4623
2026-01-09 03:06:02.03	29.98	10.27	-52.3	-54.8	14.4	0.00e+00	0	23	0	144703488	71	4650
2026-01-09 03:06:03.03	29.89	10.34	-52.3	-54.7	14.3	0.00e+00	0	23	0	146800640	71	4597
2026-01-09 03:06:04.02	29.81	10.42	-52.3	-54.7	14.4	0.00e+00	0	23	0	148897792	71	4575
2026-01-09 03:06:05.02	29.72	10.50	-52.3	-54.7	14.4	0.00e+00	0	23	0	150994944	71	4593
2026-01-09 03:06:06.01	29.64	10.57	-52.3	-54.7	14.4	0.00e+00	0	23	0	152043520	71	4565
2026-01-09 03:06:07.01	29.55	10.65	-52.3	-54.7	14.3	0.00e+00	0	23	0	154140672	71	4585
2026-01-09 03:06:08.02	29.46	10.73	-52.3	-54.7	14.3	0.00e+00	0	23	0	156237824	71	4590
2026-01-09 03:06:09.02	29.37	10.81	-52.4	-54.9	14.3	0.00e+00	0	23	0	158334976	71	4667
2026-01-09 03:06:10.01	29.29	10.89	-52.5	-55.0	14.2	0.00e+00	0	23	0	160432128	71	4718
2026-01-09 03:06:11.01	29.20	10.97	-52.5	-54.9	14.2	0.00e+00	0	23	0	161480704	71	4698
2026-01-09 03:06:12.01	29.11	11.05	-52.6	-55.2	14.1	0.00e+00	0	23	0	163577856	71	4828
2026-01-09 03:06:13.01	29.02	11.13	-52.7	-55.2	14.0	0.00e+00	0	23	0	165675008	71	4863
2026-01-09 03:06:14.00	28.93	11.20	-52.6	-55.1	14.2	0.00e+00	0	23	0	167772160	71	4775
2026-01-09 03:06:15.00	28.84	11.28	-52.7	-55.3	14.0	0.00e+00	0	23	0	168820736	71	4890
2026-01-09 03:06:16.01	28.75	11.36	-52.5	-55.0	14.2	0.00e+00	0	23	0	170917888	71	4747
2026-01-09 03:06:17.00	28.65	11.44	-52.5	-54.9	14.2	0.00e+00	0	23	0	173015040	71	4702
2026-01-09 03:06:18.00	28.56	11.52	-52.3	-54.7	14.4	0.00e+00	0	23	0	175112192	71	4561
2026-01-09 03:06:19.00	28.47	11.60	-52.4	-54.8	14.3	0.00e+00	0	23	0	177209344	71	4650
2026-01-09 03:06:20.00	28.38	11.69	-52.5	-54.9	14.3	0.00e+00	0	23	0	178257920	71	4683
2026-01-09 03:06:20.99	28.28	11.76	-52.5	-54.9	14.3	0.00e+00	0	23	0	180355072	71	4696
2026-01-09 03:06:21.98	28.19	11.85	-52.4	-54.8	14.3	0.00e+00	0	23	0	182452224	71	4624
2026-01-09 03:06:22.97	28.10	11.93	-52.4	-54.8	14.3	0.00e+00	0	23	0	184549376	71	4644
2026-01-09 03:06:23.97	28.00	12.01	-52.3	-54.7	14.4	0.00e+00	0	23	0	186646528	71	4560
2026-01-09 03:06:24.97	27.90	12.09	-52.4	-54.9	14.3	0.00e+00	0	23	0	187695104	71	4659
2026-01-09 03:06:25.97	27.81	12.17	-52.4	-54.9	14.3	0.00e+00	0	23	0	189792256	71	4679
2026-01-09 03:06:26.97	27.71	12.25	-52.3	-54.7	14.4	0.00e+00	0	23	0	191889408	71	4559
2026-01-09 03:06:27.98	27.61	12.33	-52.3	-54.6	14.4	0.00e+00	0	23	0	193986560	71	4544
2026-01-09 03:06:28.97	27.51	12.42	-52.4	-54.9	14.3	0.00e+00	0	23	0	196083712	71	4652
2026-01-09 03:06:29.97	27.42	12.50	-52.0	-54.3	14.5	0.00e+00	0	23	0	197132288	70	4628
2026-01-09 03:06:30.97	27.32	12.58	-52.0	-54.4	14.5	0.00e+00	0	23	0	199229440	70	4654
2026-01-09 03:06:31.97	27.22	12.66	-51.9	-54.1	14.6	0.00e+00	0	23	0	201326592	70	4509
2026-01-09 03:06:32.97	27.12	12.75	-52.1	-54.4	14.4	0.00e+00	0	23	0	203423744	70	4674
2026-01-09 03:06:33.97	27.01	12.83	-52.0	-54.3	14.5	0.00e+00	0	23	0	204472320	70	4613
2026-01-09 03:06:34.97	26.91	12.91	-52.0	-54.2	14.5	0.00e+00	0	23	0	206569472	70	4592
2026-01-09 03:06:35.97	26.81	13.00	-52.0	-54.2	14.6	0.00e+00	0	23	0	208666624	70	4566
2026-01-09 03:06:36.97	26.71	13.08	-52.1	-54.4	14.4	0.00e+00	0	23	0	210763776	70	4701
2026-01-09 03:06:37.96	26.60	13.16	-52.0	-54.2	14.6	0.00e+00	0	23	0	212860928	70	4574
2026-01-09 03:06:38.96	26.50	13.25	-51.9	-54.2	14.6	0.00e+00	0	23	0	213909504	70	4546
2026-01-09 03:06:39.96	26.40	13.33	-51.9	-54.1	14.6	0.00e+00	0	23	0	216006656	70	4534
2026-01-09 03:06:40.95	26.29	13.42	-52.0	-54.2	14.5	0.00e+00	0	23	0	218103808	70	4590
2026-01-09 03:06:41.94	26.19	13.50	-52.0	-54.2	14.5	0.00e+00	0	23	0	220200960	70	4547
2026-01-09 03:06:42.95	26.08	13.59	-51.9	-54.1	14.7	0.00e+00	0	23	0	221249536	70	4494
2026-01-09 03:06:43.94	25.97	13.67	-51.9	-54.1	14.6	0.00e+00	0	23	0	223346688	70	4521
2026-01-09 03:06:44.95	25.86	13.76	-51.8	-53.9	14.8	0.00e+00	0	23	0	225443840	70	4410
2026-01-09 03:06:45.94	25.76	13.84	-51.6	-53.6	14.8	0.00e+00	0	23	0	227540992	69	4499
2026-01-09 03:06:46.93	25.65	13.93	-51.7	-53.7	14.7	0.00e+00	0	23	0	229638144	69	4585
2026-01-09 03:06:47.93	25.54	14.01	-51.5	-53.5	14.8	0.00e+00	0	23	0	230686720	69	4444
2026-01-09 03:06:48.92	25.43	14.10	-51.7	-53.7	14.7	0.00e+00	0	23	0	232783872	69	4564
2026-01-09 03:06:49.92	25.32	14.18	-51.8	-53.9	14.6	0.00e+00	0	23	0	234881024	69	4655
2026-01-09 03:06:50.92	25.20	14.27	-51.8	-53.9	14.6	0.00e+00	0	23	0	236978176	69	4657
2026-01-09 03:06:51.92	25.09	14.36	-51.9	-54.0	14.5	0.00e+00	0	24	0	239075328	69	4723
2026-01-09 03:06:52.92	24.98	14.44	-51.8	-53.9	14.6	0.00e+00	0	24	0	240123904	69	4674
2026-01-09 03:06:53.91	24.87	14.53	-51.8	-53.9	14.6	0.00e+00	0	24	0	242221056	69	4682
2026-01-09 03:06:54.91	24.75	14.62	-51.9	-54.0	14.5	0.00e+00	0	23	0	244318208	69	4749
2026-01-09 03:06:55.91	24.64	14.71	-51.8	-53.9	14.6	0.00e+00	0	23	0	246415360	69	4660
2026-01-09 03:06:56.91	24.52	14.79	-51.9	-53.9	14.5	0.00e+00	0	24	0	247463936	69	4705
2026-01-09 03:06:57.90	24.40	14.88	-51.9	-54.0	14.5	0.00e+00	0	23	0	249561088	69	4724
2026-01-09 03:06:58.90	24.29	14.97	-51.7	-53.8	14.6	0.00e+00	0	23	0	251658240	69	4604
2026-01-09 03:06:59.90	24.17	15.06	-51.7	-53.8	14.6	0.00e+00	0	23	0	253755392	69	4632
2026-01-09 03:07:00.90	24.05	15.15	-51.7	-53.8	14.6	0.00e+00	0	23	0	255852544	69	4638
2026-01-09 03:07:01.90	23.93	15.23	-51.8	-53.9	14.6	0.00e+00	0	23	0	256901120	69	4655
2026-01-09 03:07:02.90	23.81	15.32	-51.9	-54.0	14.5	0.00e+00	0	24	0	258998272	69	4747
2026-01-09 03:07:03.90	23.69	15.41	-51.8	-53.9	14.6	0.00e+00	0	23	0	261095424	69	4672
2026-01-09 03:07:04.90	23.57	15.50	-52.0	-54.3	14.3	0.00e+00	0	23	0	263192576	69	4897
2026-01-09 03:07:05.90	23.44	15.59	-51.9	-54.2	14.4	0.00e+00	0	24	0	264241152	69	4843
2026-01-09 03:07:06.90	23.32	15.68	-51.9	-54.1	14.5	0.00e+00	0	23	0	266338304	69	4804
2026-01-09 03:07:07.90	23.20	15.77	-52.0	-54.3	14.4	0.00e+00	0	24	0	268435456	69	4901
2026-01-09 03:07:08.90	23.07	15.86	-51.8	-53.9	14.5	0.00e+00	0	24	0	270532608	69	4691
2026-01-09 03:07:09.90	22.95	15.95	-51.7	-53.9	14.6	0.00e+00	0	24	0	272629760	69	4652
2026-01-09 03:07:10.90	22.82	16.04	-51.7	-53.9	14.6	0.00e+00	0	24	0	273678336	69	4674
2026-01-09 03:07:11.90	22.69	16.13	-51.8	-54.0	14.5	0.00e+00	0	24	0	275775488	69	4721
2026-01-09 03:07:12.89	22.57	16.22	-52.0	-54.3	14.4	0.00e+00	0	24	0	277872640	69	4878
2026-01-09 03:07:13.89	22.44	16.31	-51.9	-54.1	14.5	0.00e+00	0	24	0	279969792	69	4802
2026-01-09 03:07:14.89	22.31	16.40	-52.0	-54.2	14.4	0.00e+00	0	24	0	282066944	69	4837
2026-01-09 03:07:15.89	22.18	16.49	-52.0	-54.2	14.4	0.00e+00	0	23	0	283115520	69	4866
2026-01-09 03:07:16.88	22.05	16.59	-51.8	-54.0	14.5	0.00e+00	0	24	0	285212672	69	4721
2026-01-09 03:07:17.88	21.92	16.68	-52.0	-54.1	14.5	0.00e+00	0	24	0	287309824	69	4809
2026-01-09 03:07:18.88	21.78	16.77	-51.9	-54.1	14.5	0.00e+00	0	24	0	289406976	69	4761
2026-01-09 03:07:19.88	21.65	16.86	-51.8	-53.9	14.6	0.00e+00	0	24	0	291504128	69	4690
2026-01-09 03:07:20.88	21.51	16.95	-51.8	-53.9	14.6	0.00e+00	0	24	0	292552704	69	4685
2026-01-09 03:07:21.88	21.38	17.05	-51.8	-53.8	14.6	0.00e+00	0	23	0	294649856	69	4644
2026-01-09 03:07:22.88	21.24	17.14	-51.7	-53.8	14.7	0.00e+00	0	24	0	296747008	69	4610
2026-01-09 03:07:23.88	21.11	17.23	-51.9	-54.0	14.6	0.00e+00	0	23	0	298844160	69	4708
2026-01-09 03:07:24.87	20.97	17.32	-51.8	-53.9	14.6	0.00e+00	0	24	0	299892736	69	4654
2026-01-09 03:07:25.87	20.83	17.42	-52.1	-54.2	14.4	0.00e+00	0	23	0	301989888	69	4865
2026-01-09 03:07:26.87	20.69	17.51	-52.3	-54.6	14.2	0.00e+00	0	24	0	304087040	69	5043
2026-01-09 03:07:27.87	20.55	17.60	-52.2	-54.4	14.3	0.00e+00	0	24	0	306184192	69	4943
2026-01-09 03:07:28.87	20.41	17.70	-52.4	-54.8	14.3	0.00e+00	0	24	0	308281344	70	4878
2026-01-09 03:07:29.87	20.27	17.79	-52.7	-55.2	14.1	0.00e+00	0	24	0	309329920	70	5104
2026-01-09 03:07:30.87	20.12	17.88	-52.7	-55.1	14.1	0.00e+00	0	24	0	311427072	70	5064
2026-01-09 03:07:31.86	19.98	17.98	-52.7	-55.1	14.1	0.00e+00	0	24	0	313524224	70	5092
2026-01-09 03:07:32.86	19.83	18.07	-52.7	-55.1	14.2	0.00e+00	0	24	0	315621376	70	5058
2026-01-09 03:07:33.86	19.69	18.17	-52.8	-55.2	14.0	0.00e+00	0	24	0	316669952	70	5146
2026-01-09 03:07:34.86	19.54	18.26	-52.7	-55.2	14.0	0.00e+00	0	24	0	318767104	70	5131
2026-01-09 03:07:35.86	19.39	18.36	-52.7	-55.2	14.0	0.00e+00	0	24	0	320864256	70	5121
2026-01-09 03:07:36.86	19.24	18.45	-52.8	-55.3	14.0	0.00e+00	0	24	0	322961408	70	5167
2026-01-09 03:07:37.86	19.09	18.55	-52.6	-55.0	14.1	0.00e+00	0	24	0	325058560	70	5023
2026-01-09 03:07:38.85	18.95	18.64	-52.5	-54.9	14.2	0.00e+00	0	24	0	326107136	70	4972
2026-01-09 03:07:39.85	18.79	18.74	-52.4	-54.6	14.3	0.00e+00	0	24	0	328204288	70	4812
2026-01-09 03:07:40.85	18.64	18.83	-52.3	-54.5	14.5	0.00e+00	0	24	0	330301440	70	4735
2026-01-09 03:07:41.84	18.49	18.93	-52.1	-54.3	14.5	0.00e+00	0	24	0	332398592	70	4612
2026-01-09 03:07:42.84	18.33	19.02	-51.8	-53.9	14.8	0.00e+00	0	24	0	334495744	70	4425
2026-01-09 03:07:43.84	18.18	19.12	-51.9	-54.1	14.7	0.00e+00	0	24	0	335544320	70	4506
2026-01-09 03:07:44.83	18.02	19.21	-51.9	-54.0	14.7	0.00e+00	0	24	0	337641472	70	4486
2026-01-09 03:07:45.82	17.87	19.31	-52.0	-54.2	14.6	0.00e+00	0	24	0	339738624	70	4559
2026-01-09 03:07:46.82	17.71	19.41	-52.1	-54.3	14.6	0.00e+00	0	23	0	341835776	70	4621
2026-01-09 03:07:47.81	17.55	19.50	-52.2	-54.4	14.5	0.00e+00	0	24	0	342884352	70	4689
2026-01-09 03:07:48.81	17.39	19.60	-52.3	-54.6	14.5	0.00e+00	0	24	0	344981504	70	4760
2026-01-09 03:07:49.81	17.23	19.70	-52.1	-54.4	14.5	0.00e+00	0	24	0	347078656	70	4657
2026-01-09 03:07:50.80	17.07	19.79	-52.2	-54.5	14.5	0.00e+00	0	24	0	349175808	70	4712
2026-01-09 03:07:51.80	16.90	19.89	-52.2	-54.5	14.5	0.00e+00	0	24	0	351272960	70	4739
2026-01-09 03:07:52.80	16.74	19.99	-52.0	-54.2	14.7	0.00e+00	0	24	0	352321536	70	4550
2026-01-09 03:07:53.79	16.57	20.08	-52.0	-54.1	14.7	0.00e+00	0	24	0	354418688	70	4508
2026-01-09 03:07:54.79	16.41	20.18	-51.9	-54.0	14.7	0.00e+00	0	24	0	356515840	70	4487
2026-01-09 03:07:55.78	16.24	20.28	-52.0	-54.1	14.7	0.00e+00	0	24	0	358612992	70	4502
2026-01-09 03:07:56.78	16.07	20.38	-52.2	-54.4	14.6	0.00e+00	0	24	0	360710144	70	4652
2026-01-09 03:07:57.78	15.90	20.47	-52.1	-54.3	14.6	0.00e+00	0	24	0	361758720	70	4634
2026-01-09 03:07:58.78	15.73	20.57	-52.2	-54.3	14.5	0.00e+00	0	24	0	363855872	70	4645
2026-01-09 03:07:59.78	15.56	20.67	-52.4	-54.7	14.3	0.00e+00	0	24	0	365953024	70	4832
2026-01-09 03:08:00.78	15.38	20.77	-52.2	-54.3	14.6	0.00e+00	0	24	0	368050176	70	4639
2026-01-09 03:08:01.78	15.21	20.87	-52.1	-54.2	14.6	0.00e+00	0	24	0	369098752	70	4571
2026-01-09 03:08:02.77	15.03	20.96	-52.3	-54.4	14.5	0.00e+00	0	24	0	371195904	70	4695
2026-01-09 03:08:03.77	14.86	21.06	-52.3	-54.5	14.5	0.00e+00	0	24	0	373293056	70	4724
2026-01-09 03:08:04.77	14.68	21.16	-52.3	-54.4	14.5	0.00e+00	0	24	0	375390208	70	4695
2026-01-09 03:08:05.77	14.50	21.26	-52.3	-54.5	14.5	0.00e+00	0	24	0	377487360	70	4719
2026-01-09 03:08:06.78	14.32	21.36	-52.3	-54.5	14.4	0.00e+00	0	24	0	378535936	70	4751
2026-01-09 03:08:07.77	14.14	21.46	-52.5	-54.9	14.2	0.00e+00	0	24	0	380633088	70	4955
2026-01-09 03:08:08.77	13.95	21.56	-52.4	-54.8	14.3	0.00e+00	0	24	0	382730240	70	4872
2026-01-09 03:08:09.77	13.77	21.66	-52.5	-54.9	14.3	0.00e+00	0	24	0	384827392	70	4936
2026-01-09 03:08:10.76	13.58	21.75	-52.4	-54.8	14.3	0.00e+00	0	24	0	385875968	70	4898
2026-01-09 03:08:11.75	13.40	21.85	-52.4	-54.7	14.3	0.00e+00	0	24	0	387973120	70	4868
2026-01-09 03:08:12.75	13.21	21.95	-52.4	-54.7	14.3	0.00e+00	0	24	0	390070272	70	4847
2026-01-09 03:08:13.75	13.02	22.05	-52.4	-54.7	14.3	0.00e+00	0	24	0	392167424	70	4851
2026-01-09 03:08:14.75	12.83	22.15	-52.3	-54.7	14.3	0.00e+00	0	24	0	394264576	70	4845
2026-01-09 03:08:15.75	12.64	22.25	-52.5	-55.0	14.1	0.00e+00	0	23	0	395313152	70	5010
2026-01-09 03:08:16.75	12.45	22.35	-52.4	-54.8	14.3	0.00e+00	0	24	0	397410304	70	4884
2026-01-09 03:08:17.75	12.25	22.45	-52.4	-54.7	14.4	0.00e+00	0	24	0	399507456	70	4852
2026-01-09 03:08:18.75	12.06	22.55	-52.2	-54.4	14.5	0.00e+00	0	24	0	401604608	70	4702
2026-01-09 03:08:19.75	11.86	22.65	-52.0	-54.2	14.7	0.00e+00	0	24	0	403701760	70	4569
2026-01-09 03:08:20.75	11.66	22.75	-51.9	-54.0	14.8	0.00e+00	0	24	0	404750336	70	4444
2026-01-09 03:08:21.75	11.47	22.85	-51.8	-53.8	14.8	0.00e+00	0	24	0	406847488	70	4388
2026-01-09 03:08:22.75	11.27	22.95	-51.9	-54.0	14.7	0.00e+00	0	24	0	408944640	70	4469
2026-01-09 03:08:23.75	11.06	23.05	-52.2	-54.4	14.5	0.00e+00	0	24	0	411041792	70	4673
2026-01-09 03:08:24.74	10.86	23.15	-52.1	-54.2	14.6	0.00e+00	0	23	0	412090368	70	4573
2026-01-09 03:08:25.73	10.66	23.24	-52.1	-54.2	14.7	0.00e+00	0	24	0	414187520	70	4546
2026-01-09 03:08:26.73	10.45	23.34	-52.0	-54.0	14.7	0.00e+00	0	24	0	416284672	70	4457
2026-01-09 03:08:27.72	10.25	23.44	-51.9	-53.9	14.8	0.00e+00	0	24	0	418381824	70	4393
2026-01-09 03:08:28.72	10.04	23.54	-51.9	-53.9	14.8	0.00e+00	0	24	0	420478976	70	4427
2026-01-09 03:08:29.72	9.83	23.64	-52.0	-54.1	14.7	0.00e+00	0	24	0	421527552	70	4508
2026-01-09 03:08:30.72	9.62	23.74	-52.0	-54.1	14.7	0.00e+00	0	24	0	423624704	70	4524
2026-01-09 03:08:31.72	9.41	23.84	-52.2	-54.3	14.6	0.00e+00	0	24	0	425721856	70	4632
2026-01-09 03:08:32.72	9.19	23.94	-52.2	-54.4	14.5	0.00e+00	0	24	0	427819008	70	4676
2026-01-09 03:08:33.72	8.98	24.04	-52.2	-54.4	14.5	0.00e+00	0	24	0	429916160	70	4675
2026-01-09 03:08:34.72	8.76	24.14	-52.2	-54.3	14.6	0.00e+00	0	24	0	430964736	70	4640
2026-01-09 03:08:35.71	8.55	24.24	-52.0	-54.1	14.7	0.00e+00	0	24	0	433061888	70	4494
2026-01-09 03:08:36.71	8.33	24.33	-51.9	-54.0	14.8	0.00e+00	0	24	0	435159040	70	4443
2026-01-09 03:08:37.71	8.11	24.43	-51.9	-54.0	14.8	0.00e+00	0	24	0	437256192	70	4443
2026-01-09 03:08:38.71	7.88	24.53	-52.0	-54.1	14.7	0.00e+00	0	24	0	438304768	70	4518
2026-01-09 03:08:39.71	7.66	24.63	-52.2	-54.4	14.5	0.00e+00	0	24	0	440401920	70	4668
2026-01-09 03:08:40.71	7.44	24.73	-52.3	-54.5	14.5	0.00e+00	0	24	0	442499072	70	4746
2026-01-09 03:08:41.70	7.21	24.83	-52.4	-54.7	14.4	0.00e+00	0	24	0	444596224	70	4836
2026-01-09 03:08:42.69	6.99	24.93	-52.3	-54.4	14.5	0.00e+00	0	24	0	446693376	70	4698
2026-01-09 03:08:43.70	6.76	25.02	-52.2	-54.4	14.5	0.00e+00	0	24	0	447741952	70	4695
2026-01-09 03:08:44.69	6.53	25.12	-52.1	-54.3	14.6	0.00e+00	0	24	0	449839104	70	4608
2026-01-09 03:08:45.69	6.29	25.22	-52.1	-54.1	14.7	0.00e+00	0	24	0	451936256	70	4542
2026-01-09 03:08:46.69	6.06	25.32	-52.1	-54.2	14.7	0.00e+00	0	24	0	454033408	70	4575
2026-01-09 03:08:47.68	5.83	25.41	-52.3	-54.4	14.6	0.00e+00	0	24	0	456130560	70	4661
2026-01-09 03:08:48.68	5.59	25.51	-52.8	-55.1	14.2	0.00e+00	0	24	0	457179136	70	5051
2026-01-09 03:08:49.66	5.36	25.61	-53.0	-55.4	14.2	0.00e+00	0	24	0	459276288	71	4936
2026-01-09 03:08:50.66	5.12	25.70	-52.7	-55.0	14.4	0.00e+00	0	24	0	461373440	71	4732
2026-01-09 03:08:51.65	4.88	25.80	-52.5	-54.6	14.6	0.00e+00	0	24	0	463470592	71	4514
2026-01-09 03:08:52.65	4.64	25.90	-52.0	-54.0	14.8	0.00e+00	0	24	0	464519168	70	4472
2026-01-09 03:08:53.65	4.39	25.99	-51.9	-53.8	14.9	0.00e+00	0	24	0	466616320	70	4368
2026-01-09 03:08:54.65	4.15	26.09	-51.9	-53.8	14.8	0.00e+00	0	24	0	468713472	70	4370
2026-01-09 03:08:55.65	3.90	26.19	-51.8	-53.7	14.9	0.00e+00	0	24	0	470810624	70	4323
2026-01-09 03:08:56.65	3.65	26.28	-51.8	-53.8	14.8	0.00e+00	0	24	0	472907776	70	4359
2026-01-09 03:08:57.65	3.40	26.38	-51.5	-53.4	14.9	0.00e+00	0	24	0	473956352	69	4436
2026-01-09 03:08:58.64	3.15	26.47	-51.4	-53.3	14.9	0.00e+00	0	24	0	476053504	69	4356
2026-01-09 03:08:59.64	2.90	26.57	-50.9	-52.7	15.1	0.00e+00	0	24	0	478150656	68	4305
2026-01-09 03:09:00.64	2.65	26.66	-50.7	-52.5	15.2	0.00e+00	0	24	0	480247808	68	4206
2026-01-09 03:09:01.64	2.39	26.75	-50.9	-52.7	15.1	0.00e+00	0	24	0	481296384	68	4324
2026-01-09 03:09:02.63	2.14	26.85	-51.1	-53.0	14.9	0.00e+00	0	24	0	483393536	68	4455
2026-01-09 03:09:03.63	1.88	26.94	-51.3	-53.3	14.8	0.00e+00	0	24	0	485490688	68	4644
2026-01-09 03:09:04.63	1.62	27.04	-51.7	-53.9	14.5	0.00e+00	0	24	0	487587840	68	4946
2026-01-09 03:09:05.63	1.35	27.13	-51.9	-54.0	14.6	0.00e+00	0	24	0	489684992	69	4759
2026-01-09 03:09:06.63	1.09	27.22	-51.7	-53.8	14.7	0.00e+00	0	24	0	490733568	69	4600
2026-01-09 03:09:07.63	0.82	27.31	-52.0	-54.1	14.6	0.00e+00	0	24	0	492830720	69	4813
2026-01-09 03:09:08.63	0.56	27.41	-52.0	-54.1	14.5	0.00e+00	0	24	0	494927872	69	4812
2026-01-09 03:09:09.62	0.29	27.50	-52.0	-54.2	14.5	0.00e+00	0	24	0	497025024	69	4843
2026-01-09 03:09:10.62	0.02	27.59	-52.5	-55.0	14.2	0.00e+00	0	24	0	499122176	70	4989
2026-01-09 03:09:11.62	359.75	27.68	-52.9	-55.4	14.1	0.00e+00	0	24	0	500170752	71	4979
2026-01-09 03:09:12.62	359.48	27.77	-53.1	-55.7	13.9	0.00e+00	0	24	0	502267904	71	5144
2026-01-09 03:09:13.61	359.21	27.86	-53.0	-55.6	14.0	0.00e+00	0	24	0	504365056	71	5087
2026-01-09 03:09:14.61	358.93	27.95	-52.7	-55.1	14.3	0.00e+00	0	24	0	506462208	71	4760
2026-01-09 03:09:15.61	358.65	28.04	-52.2	-54.4	14.7	0.00e+00	0	24	0	507510784	71	4421
2026-01-09 03:09:16.61	358.37	28.12	-52.3	-54.5	14.5	0.00e+00	0	23	0	509607936	70	4729
2026-01-09 03:09:17.60	358.09	28.21	-52.3	-54.4	14.5	0.00e+00	0	24	0	511705088	70	4705
2026-01-09 03:09:18.60	357.81	28.30	-52.2	-54.4	14.5	0.00e+00	0	24	0	513802240	70	4702
2026-01-09 03:09:19.60	357.53	28.39	-52.3	-54.6	14.4	0.00e+00	0	24	0	515899392	70	4769
2026-01-09 03:09:20.59	357.25	28.47	-52.4	-54.8	14.3	0.00e+00	0	24	0	516947968	70	4880
2026-01-09 03:09:21.59	356.96	28.56	-52.3	-54.7	14.3	0.00e+00	0	24	0	519045120	70	4826
2026-01-09 03:09:22.58	356.67	28.64	-52.3	-54.7	14.4	0.00e+00	0	24	0	521142272	70	4816
2026-01-09 03:09:23.58	356.38	28.73	-52.4	-54.8	14.3	0.00e+00	0	24	0	523239424	70	4878
2026-01-09 03:09:24.58	356.09	28.81	-52.6	-55.1	14.2	0.00e+00	0	24	0	525336576	70	5058
2026-01-09 03:09:25.58	355.80	28.90	-53.0	-55.6	14.0	0.00e+00	0	24	0	526385152	71	5097
2026-01-09 03:09:26.58	355.50	28.98	-53.2	-56.0	13.8	0.00e+00	0	24	0	528482304	71	5308
2026-01-09 03:09:27.58	355.21	29.06	-53.6	-56.6	13.5	0.00e+00	0	24	0	530579456	72	5368
2026-01-09 03:09:28.58	354.91	29.14	-53.8	-56.9	13.4	0.00e+00	0	24	0	532676608	72	5565
2026-01-09 03:09:29.58	354.61	29.22	-53.8	-56.9	13.4	0.00e+00	0	24	0	533725184	72	5585
2026-01-09 03:09:30.58	354.31	29.30	-54.0	-57.3	13.3	0.00e+00	0	24	0	535822336	73	5484
2026-01-09 03:09:31.57	354.01	29.38	-54.1	-57.4	13.2	0.00e+00	0	24	0	537919488	73	5553
2026-01-09 03:09:32.56	353.71	29.46	-54.4	-57.9	13.0	0.00e+00	0	24	0	540016640	74	5555
2026-01-09 03:09:33.56	353.40	29.54	-54.7	-58.5	12.7	7.00e-07	0	24	0	542113792	75	5641
2026-01-09 03:09:34.56	353.10	29.62	-54.8	-58.6	12.6	0.00e+00	0	24	0	543162368	75	5710
2026-01-09 03:09:35.56	352.79	29.70	-54.3	-57.6	13.2	0.00e+00	0	24	0	545259520	75	5090
2026-01-09 03:09:36.56	352.48	29.77	-53.7	-56.6	13.8	0.00e+00	0	24	0	547356672	74	4794
2026-01-09 03:09:37.56	352.17	29.85	-53.2	-55.8	14.2	0.00e+00	0	24	0	549453824	73	4611
2026-01-09 03:09:38.56	351.85	29.92	-52.8	-55.2	14.4	0.00e+00	0	24	0	551550976	72	4561
2026-01-09 03:09:39.55	351.54	30.00	-53.2	-55.8	14.1	0.00e+00	0	24	0	552599552	72	4901
2026-01-09 03:09:40.54	351.23	30.07	-53.2	-55.9	13.9	0.00e+00	0	24	0	554696704	72	4971
2026-01-09 03:09:41.55	350.91	30.14	-53.4	-56.3	13.7	0.00e+00	0	24	0	556793856	72	5218
2026-01-09 03:09:42.54	350.59	30.21	-53.2	-56.1	13.8	0.00e+00	0	24	0	558891008	72	5044
2026-01-09 03:09:43.54	350.27	30.28	-53.1	-56.1	13.9	0.00e+00	0	24	0	559939584	72	5052
2026-01-09 03:09:44.54	349.95	30.35	-52.9	-55.7	14.0	0.00e+00	0	24	0	562036736	72	4829
2026-01-09 03:09:45.53	349.63	30.42	-53.0	-55.8	14.0	0.00e+00	0	24	0	564133888	72	4926
2026-01-09 03:09:46.53	349.31	30.49	-53.3	-56.4	13.7	0.00e+00	0	24	0	566231040	72	5223
2026-01-09 03:09:47.52	348.99	30.56	-53.3	-56.4	13.7	0.00e+00	0	24	0	568328192	72	5247
2026-01-09 03:09:48.52	348.66	30.63	-53.1	-56.0	14.0	0.00e+00	0	24	0	569376768	72	4995
2026-01-09 03:09:49.52	348.33	30.69	-52.9	-55.6	14.1	0.00e+00	0	24	0	571473920	72	4799
2026-01-09 03:09:50.53	348.00	30.76	-52.8	-55.4	14.3	0.00e+00	0	24	0	573571072	72	4677
2026-01-09 03:09:51.52	347.67	30.82	-52.6	-55.2	14.2	0.00e+00	0	24	0	575668224	71	4841
2026-01-09 03:09:52.52	347.34	30.88	-52.6	-55.2	14.3	0.00e+00	0	24	0	576716800	71	4845
2026-01-09 03:09:53.51	347.01	30.94	-52.9	-55.6	14.1	0.00e+00	0	24	0	578813952	71	5046
2026-01-09 03:09:54.52	346.67	31.01	-53.1	-55.9	13.9	0.00e+00	0	24	0	580911104	71	5269
2026-01-09 03:09:55.52	346.33	31.07	-53.0	-55.7	14.0	0.00e+00	0	24	0	583008256	71	5155
2026-01-09 03:09:56.52	345.99	31.12	-52.8	-55.4	14.1	0.00e+00	0	24	0	585105408	71	4946
2026-01-09 03:09:57.52	345.66	31.18	-52.6	-55.0	14.4	0.00e+00	0	24	0	586153984	71	4715
2026-01-09 03:09:58.51	345.32	31.24	-52.6	-55.1	14.3	0.00e+00	0	24	0	588251136	71	4784
2026-01-09 03:09:59.50	344.98	31.29	-52.7	-55.2	14.3	0.00e+00	0	24	0	590348288	71	4865
2026-01-09 03:10:00.50	344.64	31.35	-53.2	-56.1	13.7	0.00e+00	0	24	0	592445440	71	5398
2026-01-09 03:10:01.49	344.30	31.40	-53.7	-56.9	13.4	0.00e+00	0	24	0	593494016	72	5543
2026-01-09 03:10:02.49	343.95	31.46	-53.9	-57.3	13.1	0.00e+00	0	24	0	595591168	72	5793
2026-01-09 03:10:03.48	343.61	31.51	-53.5	-56.6	13.5	0.00e+00	0	24	0	597688320	72	5366
2026-01-09 03:10:04.48	343.27	31.56	-52.9	-55.6	14.1	0.00e+00	0	24	0	599785472	72	4800
2026-01-09 03:10:05.48	342.92	31.61	-52.3	-54.6	14.6	0.00e+00	0	24	0	601882624	71	4544
2026-01-09 03:10:06.47	342.57	31.66	-52.1	-54.3	14.6	0.00e+00	0	24	0	602931200	70	4626
2026-01-09 03:10:07.48	342.22	31.70	-52.4	-54.7	14.4	0.00e+00	0	24	0	605028352	70	4860
2026-01-09 03:10:08.47	341.87	31.75	-52.5	-55.0	14.2	0.00e+00	0	24	0	607125504	70	4988
2026-01-09 03:10:09.47	341.52	31.79	-52.5	-54.9	14.3	0.00e+00	0	24	0	609222656	70	4957
2026-01-09 03:10:10.46	341.17	31.84	-52.4	-54.8	14.3	0.00e+00	0	24	0	611319808	70	4908
2026-01-09 03:10:11.45	340.82	31.88	-52.0	-54.2	14.7	0.00e+00	0	24	0	612368384	70	4565
2026-01-09 03:10:12.46	340.46	31.92	-51.8	-53.9	14.8	0.00e+00	0	24	0	614465536	70	4408
2026-01-09 03:10:13.45	340.11	31.96	-52.1	-54.4	14.6	0.00e+00	0	24	0	616562688	70	4668
2026-01-09 03:10:14.45	339.75	32.00	-52.3	-54.6	14.5	0.00e+00	0	24	0	618659840	70	4794
2026-01-09 03:10:15.46	339.39	32.04	-52.5	-54.9	14.3	0.00e+00	0	24	0	619708416	70	4934
2026-01-09 03:10:16.44	339.04	32.07	-52.4	-54.9	14.3	0.00e+00	0	24	0	621805568	70	4944
2026-01-09 03:10:17.44	338.68	32.11	-52.6	-55.1	14.2	0.00e+00	0	24	0	623902720	70	5068
2026-01-09 03:10:18.44	338.32	32.14	-52.2	-54.5	14.5	0.00e+00	0	24	0	625999872	70	4719
2026-01-09 03:10:19.43	337.96	32.18	-51.6	-53.8	14.8	0.00e+00	0	24	0	628097024	69	4614
2026-01-09 03:10:20.43	337.60	32.21	-51.6	-53.7	14.8	0.00e+00	0	24	0	629145600	69	4556
2026-01-09 03:10:21.43	337.24	32.24	-52.0	-54.2	14.6	0.00e+00	0	24	0	631242752	69	4816
2026-01-09 03:10:22.44	336.87	32.27	-52.7	-55.1	14.2	0.00e+00	0	24	0	633339904	70	5093
2026-01-09 03:10:23.44	336.51	32.30	-53.6	-56.5	13.7	0.00e+00	0	24	0	635437056	72	5330
2026-01-09 03:10:24.44	336.15	32.32	-53.8	-56.9	13.5	0.00e+00	0	24	0	637534208	73	5248
2026-01-09 03:10:25.43	335.79	32.35	-53.3	-56.1	14.0	0.00e+00	0	24	0	638582784	73	4798
2026-01-09 03:10:26.43	335.42	32.37	-52.5	-54.9	14.4	0.00e+00	0	24	0	640679936	71	4691
2026-01-09 03:10:27.43	335.06	32.40	-52.3	-54.5	14.7	0.00e+00	0	24	0	642777088	71	4454
2026-01-09 03:10:28.43	334.69	32.42	-52.4	-54.7	14.6	0.00e+00	0	24	0	644874240	71	4574
2026-01-09 03:10:29.42	334.33	32.44	-53.0	-55.5	14.1	0.00e+00	0	24	0	645922816	71	5023
2026-01-09 03:10:30.43	333.96	32.46	-53.3	-56.1	13.8	0.00e+00	0	24	0	648019968	71	5349
2026-01-09 03:10:31.42	333.59	32.47	-53.3	-56.0	13.9	0.00e+00	0	24	0	650117120	72	5038
2026-01-09 03:10:32.42	333.22	32.49	-53.0	-55.6	14.2	0.00e+00	0	24	0	652214272	72	4792
2026-01-09 03:10:33.41	332.86	32.50	-52.7	-55.1	14.5	0.00e+00	0	24	0	654311424	72	4496
2026-01-09 03:10:34.41	332.49	32.52	-52.4	-54.6	14.7	0.00e+00	0	24	0	655360000	71	4506
2026-01-09 03:10:35.40	332.13	32.53	-52.0	-54.0	14.8	0.00e+00	0	24	0	657457152	70	4487
2026-01-09 03:10:36.39	331.76	32.54	-52.1	-54.2	14.7	0.00e+00	0	24	0	659554304	70	4572
2026-01-09 03:10:37.40	331.39	32.55	-52.5	-54.7	14.4	0.00e+00	0	24	0	661651456	70	4853
2026-01-09 03:10:38.40	331.02	32.56	-52.9	-55.3	14.3	0.00e+00	0	24	0	662700032	71	4903
2026-01-09 03:10:39.40	330.65	32.57	-53.1	-55.7	14.0	0.00e+00	0	24	0	664797184	71	5125
2026-01-09 03:10:40.39	330.28	32.57	-53.0	-55.6	14.1	0.00e+00	0	24	0	666894336	71	5059
2026-01-09 03:10:41.39	329.91	32.58	-53.1	-55.7	14.0	0.00e+00	0	24	0	668991488	71	5155
2026-01-09 03:10:42.40	329.54	32.58	-53.2	-55.8	13.9	0.00e+00	0	24	0	671088640	71	5198
2026-01-09 03:10:43.40	329.17	32.58	-53.6	-56.4	13.7	0.00e+00	0	24	0	672137216	72	5275
2026-01-09 03:10:44.40	328.80	32.58	-53.8	-56.9	13.4	0.00e+00	0	24	0	674234368	72	5538
2026-01-09 03:10:45.39	328.43	32.58	-53.8	-56.8	13.6	0.00e+00	0	24	0	676331520	73	5185
2026-01-09 03:10:46.39	328.06	32.58	-54.0	-57.1	13.4	0.00e+00	0	24	0	678428672	73	5370
2026-01-09 03:10:47.38	327.69	32.57	-53.9	-57.1	13.4	0.00e+00	0	24	0	680525824	73	5355
2026-01-09 03:10:48.38	327.32	32.57	-53.8	-56.8	13.6	0.00e+00	0	24	0	681574400	73	5161
2026-01-09 03:10:49.37	326.96	32.56	-53.3	-56.0	14.1	0.00e+00	0	24	0	683671552	73	4710
2026-01-09 03:10:50.37	326.59	32.55	-53.0	-55.5	14.3	0.00e+00	0	24	0	685768704	72	4719
2026-01-09 03:10:51.37	326.22	32.54	-52.7	-55.0	14.4	0.00e+00	0	24	0	687865856	71	4750
2026-01-09 03:10:52.36	325.85	32.53	-52.5	-54.8	14.5	0.00e+00	0	24	0	688914432	71	4632
2026-01-09 03:10:53.35	325.49	32.52	-52.7	-55.1	14.4	0.00e+00	0	24	0	691011584	71	4771
2026-01-09 03:10:54.34	325.12	32.51	-52.8	-55.2	14.3	0.00e+00	0	24	0	693108736	71	4823
2026-01-09 03:10:55.33	324.76	32.49	-53.0	-55.4	14.2	0.00e+00	0	24	0	695205888	71	4979
2026-01-09 03:10:56.33	324.39	32.48	-53.5	-56.3	13.8	0.00e+00	0	24	0	697303040	72	5172
2026-01-09 03:10:57.33	324.02	32.46	-53.7	-56.6	13.7	0.00e+00	0	24	0	698351616	72	5348
2026-01-09 03:10:58.33	323.65	32.44	-53.5	-56.3	13.8	0.00e+00	0	24	0	700448768	72	5172
2026-01-09 03:10:59.33	323.29	32.42	-53.5	-56.2	13.8	0.00e+00	0	24	0	702545920	72	5129
2026-01-09 03:11:00.33	322.92	32.40	-53.6	-56.3	13.9	0.00e+00	0	24	0	704643072	72	5177
2026-01-09 03:11:01.33	322.56	32.38	-53.7	-56.5	13.8	0.00e+00	0	24	0	706740224	73	5014
2026-01-09 03:11:02.33	322.19	32.35	-53.6	-56.3	14.0	0.00e+00	0	24	0	707788800	73	4884
2026-01-09 03:11:03.33	321.83	32.33	-53.8	-56.6	13.7	0.00e+00	0	24	0	709885952	73	5074
2026-01-09 03:11:04.32	321.47	32.30	-53.8	-56.6	13.7	0.00e+00	0	24	0	711983104	73	5085
2026-01-09 03:11:05.32	321.10	32.27	-53.6	-56.4	13.9	0.00e+00	0	24	0	714080256	73	4962
2026-01-09 03:11:06.32	320.74	32.24	-53.3	-55.8	14.3	0.00e+00	0	24	0	715128832	73	4648
2026-01-09 03:11:07.32	320.38	32.21	-53.1	-55.6	14.3	0.00e+00	0	24	0	717225984	72	4800
2026-01-09 03:11:08.32	320.01	32.18	-52.8	-55.1	14.5	0.00e+00	0	24	0	719323136	72	4544
2026-01-09 03:11:09.32	319.65	32.15	-52.4	-54.7	14.5	0.00e+00	0	24	0	721420288	71	4577
2026-01-09 03:11:10.32	319.29	32.11	-52.5	-54.8	14.5	0.00e+00	0	24	0	723517440	71	4624
2026-01-09 03:11:11.32	318.93	32.08	-52.5	-54.9	14.4	0.00e+00	0	24	0	724566016	71	4670
2026-01-09 03:11:12.32	318.58	32.04	-52.9	-55.4	14.2	0.00e+00	0	24	0	726663168	71	4944
2026-01-09 03:11:13.31	318.22	32.01	-53.1	-55.8	14.0	0.00e+00	0	24	0	728760320	71	5163
2026-01-09 03:11:14.31	317.86	31.97	-53.0	-55.6	14.0	0.00e+00	0	24	0	730857472	71	5072
2026-01-09 03:11:15.31	317.51	31.93	-53.2	-55.9	13.9	0.00e+00	0	24	0	731906048	71	5271
2026-01-09 03:11:16.31	317.15	31.88	-52.9	-55.5	14.1	0.00e+00	0	24	0	734003200	71	4984
2026-01-09 03:11:17.31	316.80	31.84	-52.8	-55.3	14.2	0.00e+00	0	24	0	736100352	71	4909
2026-01-09 03:11:18.30	316.45	31.80	-52.5	-54.9	14.4	0.00e+00	0	24	0	738197504	71	4699
2026-01-09 03:11:19.30	316.10	31.75	-52.1	-54.4	14.6	0.00e+00	0	24	0	740294656	70	4673
2026-01-09 03:11:20.30	315.75	31.71	-52.3	-54.6	14.5	0.00e+00	0	24	0	741343232	70	4804
2026-01-09 03:11:21.29	315.40	31.66	-52.6	-55.1	14.2	0.00e+00	0	24	0	743440384	70	5049
2026-01-09 03:11:22.30	315.05	31.61	-52.7	-55.2	14.2	0.00e+00	0	24	0	745537536	70	5146
2026-01-09 03:11:23.30	314.70	31.56	-52.8	-55.4	14.0	0.00e+00	0	24	0	747634688	70	5265
2026-01-09 03:11:24.30	314.35	31.51	-52.9	-55.5	14.1	0.00e+00	0	24	0	749731840	71	4987
2026-01-09 03:11:25.29	314.01	31.46	-52.8	-55.4	14.1	0.00e+00	0	24	0	750780416	71	4979
2026-01-09 03:11:26.29	313.66	31.41	-53.1	-55.8	14.0	0.00e+00	0	24	0	752877568	71	5168
2026-01-09 03:11:27.29	313.32	31.35	-53.1	-55.8	13.9	0.00e+00	0	24	0	754974720	71	5213
2026-01-09 03:11:28.29	312.98	31.30	-53.2	-56.0	13.8	0.00e+00	0	24	0	757071872	71	5291
2026-01-09 03:11:29.29	312.64	31.24	-52.7	-55.3	14.2	0.00e+00	0	24	0	758120448	71	4907
2026-01-09 03:11:30.28	312.30	31.19	-52.2	-54.5	14.6	0.00e+00	0	24	0	760217600	71	4492
2026-01-09 03:11:31.27	311.96	31.13	-52.0	-54.2	14.7	0.00e+00	0	24	0	762314752	70	4578
2026-01-09 03:11:32.27	311.62	31.07	-52.0	-54.2	14.7	0.00e+00	0	24	0	764411904	70	4578
2026-01-09 03:11:33.27	311.29	31.01	-51.9	-54.0	14.8	0.00e+00	0	24	0	766509056	70	4486
2026-01-09 03:11:34.27	310.95	30.95	-52.1	-54.4	14.6	0.00e+00	0	24	0	767557632	70	4688
2026-01-09 03:11:35.27	310.62	30.89	-52.3	-54.6	14.5	0.00e+00	0	24	0	769654784	70	4795
2026-01-09 03:11:36.26	310.29	30.83	-52.8	-55.3	14.1	0.00e+00	0	24	0	771751936	70	5182
2026-01-09 03:11:37.26	309.96	30.76	-52.7	-55.2	14.2	0.00e+00	0	24	0	773849088	70	5146
2026-01-09 03:11:38.26	309.63	30.70	-52.9	-55.4	14.0	0.00e+00	0	24	0	774897664	71	4965
2026-01-09 03:11:39.25	309.30	30.63	-52.8	-55.3	14.2	0.00e+00	0	24	0	776994816	71	4891
2026-01-09 03:11:40.25	308.97	30.57	-53.1	-55.7	14.0	0.00e+00	0	24	0	779091968	71	5115
2026-01-09 03:11:41.25	308.65	30.50	-53.3	-56.0	13.8	0.00e+00	0	24	0	781189120	71	5330
2026-01-09 03:11:42.25	308.32	30.43	-53.7	-56.7	13.5	0.00e+00	0	24	0	783286272	72	5431
2026-01-09 03:11:43.24	308.00	30.36	-53.7	-56.5	13.6	0.00e+00	0	24	0	784334848	72	5329
2026-01-09 03:11:44.24	307.68	30.29	-53.3	-56.1	13.9	0.00e+00	0	24	0	786432000	72	5045
2026-01-09 03:11:45.23	307.36	30.22	-53.5	-56.4	13.6	0.00e+00	0	24	0	788529152	72	5232
2026-01-09 03:11:46.23	307.04	30.15	-53.6	-56.5	13.4	0.00e+00	0	24	0	790626304	72	5305
2026-01-09 03:11:47.22	306.73	30.08	-53.9	-57.1	13.2	0.00e+00	0	24	0	792723456	72	5694
2026-01-09 03:11:48.22	306.41	30.00	-54.0	-57.4	13.2	0.00e+00	0	24	0	793772032	73	5545
2026-01-09 03:11:49.21	306.10	29.93	-54.4	-57.9	12.8	0.00e+00	0	24	0	795869184	73	5900
2026-01-09 03:11:50.21	305.79	29.85	-54.3	-57.6	13.1	0.00e+00	0	24	0	797966336	73	5695
2026-01-09 03:11:51.20	305.48	29.78	-54.1	-57.3	13.3	0.00e+00	0	24	0	800063488	73	5488
2026-01-09 03:11:52.20	305.17	29.70	-53.5	-56.3	13.9	0.00e+00	0	24	0	801112064	73	4900
2026-01-09 03:11:53.20	304.86	29.63	-53.6	-56.4	13.8	0.00e+00	0	24	0	803209216	73	4962
2026-01-09 03:11:54.20	304.55	29.55	-53.5	-56.3	14.0	0.00e+00	0	24	0	805306368	73	4905
2026-01-09 03:11:55.19	304.25	29.47	-53.5	-56.3	13.9	0.00e+00	0	24	0	807403520	73	4926
2026-01-09 03:11:56.20	303.94	29.39	-53.5	-56.3	13.9	0.00e+00	0	24	0	809500672	73	4913
2026-01-09 03:11:57.20	303.64	29.31	-53.4	-56.3	13.9	0.00e+00	0	24	0	810549248	73	4904
2026-01-09 03:11:58.19	303.34	29.23	-53.0	-55.6	14.2	0.00e+00	0	24	0	812646400	72	4797
2026-01-09 03:11:59.18	303.04	29.15	-52.9	-55.4	14.3	0.00e+00	0	24	0	814743552	72	4692
2026-01-09 03:12:00.17	302.75	29.07	-52.8	-55.3	14.4	0.00e+00	0	24	0	816840704	72	4606
2026-01-09 03:12:01.16	302.45	28.99	-52.4	-54.7	14.5	0.00e+00	0	24	0	818937856	71	4596
2026-01-09 03:12:02.16	302.16	28.90	-51.9	-54.0	14.7	0.00e+00	0	24	0	819986432	70	4489
2026-01-09 03:12:03.16	301.87	28.82	-51.2	-53.2	14.9	0.00e+00	0	24	0	822083584	68	4552
2026-01-09 03:12:04.15	301.58	28.74	-51.0	-53.0	15.0	0.00e+00	0	24	0	824180736	68	4443
2026-01-09 03:12:05.15	301.28	28.65	-51.4	-53.5	14.7	0.00e+00	0	24	0	826277888	68	4740
2026-01-09 03:12:06.15	301.00	28.57	-51.5	-53.5	14.7	0.00e+00	0	24	0	827326464	68	4759
2026-01-09 03:12:07.14	300.71	28.48	-51.7	-53.8	14.6	0.00e+00	0	24	0	829423616	68	4893
2026-01-09 03:12:08.13	300.43	28.40	-51.8	-54.0	14.4	0.00e+00	0	24	0	831520768	68	5019
2026-01-09 03:12:09.13	300.14	28.31	-52.2	-54.5	14.3	0.00e+00	0	24	0	833617920	69	5028
2026-01-09 03:12:10.12	299.86	28.22	-52.8	-55.3	14.0	0.00e+00	0	24	0	835715072	70	5213
2026-01-09 03:12:11.12	299.58	28.13	-53.2	-55.9	13.9	0.00e+00	0	24	0	836763648	71	5279
2026-01-09 03:12:12.12	299.30	28.04	-53.1	-55.8	13.9	0.00e+00	0	24	0	838860800	71	5162
2026-01-09 03:12:13.13	299.02	27.95	-52.3	-54.6	14.6	0.00e+00	0	24	0	840957952	71	4504
2026-01-09 03:12:14.12	298.75	27.87	-51.5	-53.4	14.9	0.00e+00	0	24	0	843055104	69	4426
2026-01-09 03:12:15.13	298.47	27.78	-51.5	-53.5	14.9	0.00e+00	0	24	0	844103680	69	4456
2026-01-09 03:12:16.13	298.19	27.69	-52.1	-54.3	14.4	0.00e+00	0	24	0	846200832	69	4909
2026-01-09 03:12:17.12	297.92	27.60	-52.8	-55.4	14.1	0.00e+00	0	24	0	848297984	70	5223
2026-01-09 03:12:18.12	297.65	27.50	-53.4	-56.2	13.8	0.00e+00	0	24	0	850395136	72	5141
2026-01-09 03:12:19.12	297.39	27.41	-54.0	-57.2	13.4	0.00e+00	0	24	0	852492288	73	5423
2026-01-09 03:12:20.12	297.12	27.32	-54.1	-57.3	13.3	0.00e+00	0	24	0	853540864	73	5508
2026-01-09 03:12:21.12	296.85	27.23	-54.0	-56.9	13.6	0.00e+00	0	24	0	855638016	73	5265
2026-01-09 03:12:22.12	296.59	27.13	-53.7	-56.6	13.8	0.00e+00	0	24	0	857735168	73	5048
2026-01-09 03:12:23.12	296.32	27.04	-53.4	-56.1	14.1	0.00e+00	0	24	0	859832320	73	4801
2026-01-09 03:12:24.12	296.06	26.95	-53.1	-55.6	14.1	0.00e+00	0	24	0	861929472	72	4804
2026-01-09 03:12:25.12	295.80	26.85	-52.8	-55.2	14.5	0.00e+00	0	24	0	862978048	72	4561
2026-01-09 03:12:26.12	295.55	26.76	-52.3	-54.5	14.6	0.00e+00	0	24	0	865075200	71	4471
2026-01-09 03:12:27.12	295.29	26.67	-52.6	-54.9	14.5	0.00e+00	0	24	0	867172352	71	4681
2026-01-09 03:12:28.11	295.04	26.57	-52.6	-54.8	14.5	0.00e+00	0	24	0	869269504	71	4641
2026-01-09 03:12:29.11	294.78	26.48	-52.5	-54.6	14.7	0.00e+00	0	24	0	870318080	71	4545
2026-01-09 03:12:30.11	294.53	26.38	-52.0	-54.1	14.8	0.00e+00	0	24	0	872415232	70	4501
2026-01-09 03:12:31.11	294.28	26.29	-51.8	-53.7	15.0	0.00e+00	0	24	0	874512384	70	4329
2026-01-09 03:12:32.10	294.03	26.19	-51.5	-53.4	15.0	0.00e+00	0	24	0	876609536	69	4393
2026-01-09 03:12:33.10	293.79	26.09	-51.7	-53.6	14.8	0.00e+00	0	24	0	878706688	69	4527
2026-01-09 03:12:34.10	293.54	26.00	-51.8	-53.7	14.8	0.00e+00	0	24	0	879755264	69	4578
2026-01-09 03:12:35.10	293.29	25.90	-51.7	-53.7	14.8	0.00e+00	0	24	0	881852416	69	4562
2026-01-09 03:12:36.10	293.05	25.81	-51.7	-53.6	14.8	0.00e+00	0	24	0	883949568	69	4528
2026-01-09 03:12:37.09	292.81	25.71	-51.6	-53.6	14.8	0.00e+00	0	24	0	886046720	69	4502
2026-01-09 03:12:38.09	292.57	25.61	-51.9	-53.9	14.6	0.00e+00	0	24	0	887095296	69	4698
2026-01-09 03:12:39.08	292.34	25.52	-51.9	-54.0	14.6	0.00e+00	0	24	0	889192448	69	4719
2026-01-09 03:12:40.08	292.10	25.42	-51.7	-53.7	14.8	0.00e+00	0	24	0	891289600	69	4578
2026-01-09 03:12:41.09	291.86	25.32	-51.9	-54.0	14.6	0.00e+00	0	24	0	893386752	69	4757
2026-01-09 03:12:42.08	291.63	25.22	-52.1	-54.3	14.5	0.00e+00	0	24	0	895483904	69	4891
2026-01-09 03:12:43.08	291.40	25.12	-52.0	-54.1	14.6	0.00e+00	0	24	0	896532480	69	4778
2026-01-09 03:12:44.08	291.17	25.03	-51.9	-53.9	14.6	0.00e+00	0	24	0	898629632	69	4703
2026-01-09 03:12:45.08	290.94	24.93	-51.9	-54.0	14.6	0.00e+00	0	24	0	900726784	69	4716
2026-01-09 03:12:46.07	290.71	24.83	-51.8	-53.9	14.7	0.00e+00	0	24	0	902823936	69	4684
2026-01-09 03:12:47.07	290.48	24.73	-51.9	-54.0	14.6	0.00e+00	0	24	0	904921088	69	4711
2026-01-09 03:12:48.08	290.25	24.63	-51.9	-54.0	14.6	0.00e+00	0	24	0	905969664	69	4714
2026-01-09 03:12:49.07	290.03	24.53	-51.7	-53.7	14.8	0.00e+00	0	24	0	908066816	69	4568
2026-01-09 03:12:50.07	289.81	24.43	-51.7	-53.7	14.8	0.00e+00	0	24	0	910163968	69	4580
2026-01-09 03:12:51.06	289.59	24.34	-51.6	-53.6	14.8	0.00e+00	0	24	0	912261120	69	4512
2026-01-09 03:12:52.05	289.37	24.24	-51.5	-53.4	14.9	0.00e+00	0	24	0	913309696	69	4405
2026-01-09 03:12:53.06	289.15	24.14	-51.4	-53.3	14.9	0.00e+00	0	24	0	915406848	69	4380
2026-01-09 03:12:54.06	288.94	24.04	-50.9	-52.6	15.1	0.00e+00	0	24	0	917504000	68	4291
2026-01-09 03:12:55.05	288.72	23.94	-50.3	-52.0	15.2	0.00e+00	0	24	0	919601152	67	4204
2026-01-09 03:12:56.05	288.51	23.84	-50.1	-51.7	15.2	0.00e+00	0	24	0	921698304	66	4330
2026-01-09 03:12:57.04	288.30	23.74	-49.9	-51.5	15.3	0.00e+00	0	24	0	922746880	66	4222
2026-01-09 03:12:58.03	288.09	23.64	-49.7	-51.2	15.4	0.00e+00	0	24	0	924844032	66	4086
2026-01-09 03:12:59.03	287.88	23.54	-49.8	-51.4	15.2	0.00e+00	0	24	0	926941184	65	4418
2026-01-09 03:13:00.02	287.67	23.44	-50.1	-51.7	15.1	0.00e+00	0	24	0	929038336	65	4558
2026-01-09 03:13:01.02	287.46	23.34	-50.6	-52.3	14.9	0.00e+00	0	24	0	931135488	66	4623
2026-01-09 03:13:02.01	287.26	23.25	-50.8	-52.7	14.9	0.00e+00	0	24	0	932184064	67	4548
2026-01-09 03:13:03.01	287.05	23.15	-51.0	-52.8	14.8	0.00e+00	0	24	0	934281216	67	4648
2026-01-09 03:13:04.01	286.85	23.05	-50.9	-52.7	14.9	0.00e+00	0	24	0	936378368	67	4567
2026-01-09 03:13:05.01	286.65	22.95	-50.7	-52.5	15.0	0.00e+00	0	24	0	938475520	67	4454
2026-01-09 03:13:06.02	286.44	22.85	-50.7	-52.5	15.0	0.00e+00	0	24	0	939524096	67	4442
2026-01-09 03:13:07.01	286.25	22.75	-50.6	-52.3	15.1	0.00e+00	0	24	0	941621248	67	4360
2026-01-09 03:13:08.00	286.05	22.65	-50.6	-52.3	15.1	0.00e+00	0	24	0	943718400	67	4387
2026-01-09 03:13:08.99	285.86	22.55	-50.7	-52.4	15.1	0.00e+00	0	24	0	945815552	67	4428
2026-01-09 03:13:09.99	285.66	22.45	-50.9	-52.7	14.9	0.00e+00	0	24	0	947912704	67	4598
2026-01-09 03:13:11.00	285.46	22.35	-50.8	-52.6	14.9	0.00e+00	0	24	0	948961280	67	4522
2026-01-09 03:13:12.00	285.27	22.25	-50.9	-52.8	14.9	0.00e+00	0	24	0	951058432	67	4603
2026-01-09 03:13:13.00	285.08	22.15	-50.9	-52.7	14.9	0.00e+00	0	24	0	953155584	67	4590
2026-01-09 03:13:14.00	284.89	22.05	-50.9	-52.6	14.9	0.00e+00	0	24	0	955252736	67	4542
2026-01-09 03:13:14.99	284.70	21.95	-51.0	-52.8	14.9	0.00e+00	0	24	0	956301312	67	4614
2026-01-09 03:13:15.98	284.51	21.85	-51.1	-53.0	14.7	0.00e+00	0	24	0	958398464	67	4744
2026-01-09 03:13:16.98	284.33	21.75	-51.1	-52.9	14.8	0.00e+00	0	24	0	960495616	67	4700
2026-01-09 03:13:17.97	284.14	21.66	-51.0	-52.9	14.8	0.00e+00	0	24	0	962592768	67	4679
2026-01-09 03:13:18.96	283.96	21.56	-51.0	-52.9	14.8	0.00e+00	0	24	0	964689920	67	4672
2026-01-09 03:13:19.95	283.78	21.46	-50.7	-52.5	15.0	0.00e+00	0	24	0	965738496	67	4462
2026-01-09 03:13:20.95	283.59	21.36	-50.5	-52.2	15.1	0.00e+00	0	24	0	967835648	67	4306
2026-01-09 03:13:21.94	283.41	21.26	-50.4	-52.1	15.2	0.00e+00	0	24	0	969932800	67	4256
2026-01-09 03:13:22.93	283.24	21.16	-50.6	-52.3	15.1	0.00e+00	0	24	0	972029952	67	4353
2026-01-09 03:13:23.93	283.06	21.07	-50.4	-52.1	15.2	0.00e+00	0	24	0	973078528	67	4258
2026-01-09 03:13:24.93	282.88	20.97	-50.8	-52.6	14.9	0.00e+00	0	24	0	975175680	67	4528
2026-01-09 03:13:25.93	282.70	20.87	-51.0	-52.9	14.8	0.00e+00	0	24	0	977272832	67	4669
2026-01-09 03:13:26.93	282.53	20.77	-51.2	-53.1	14.7	0.00e+00	0	24	0	979369984	67	4794
2026-01-09 03:13:27.92	282.35	20.67	-51.2	-53.1	14.7	0.00e+00	0	24	0	981467136	67	4784
2026-01-09 03:13:28.92	282.18	20.57	-51.3	-53.2	14.6	0.00e+00	0	24	0	982515712	67	4861
2026-01-09 03:13:29.92	282.01	20.47	-51.2	-53.1	14.7	0.00e+00	0	24	0	984612864	67	4773
2026-01-09 03:13:30.92	281.84	20.38	-50.9	-52.7	14.9	0.00e+00	0	24	0	986710016	67	4588
2026-01-09 03:13:31.91	281.67	20.28	-50.9	-52.7	14.9	0.00e+00	0	24	0	988807168	67	4590
2026-01-09 03:13:32.90	281.50	20.18	-50.7	-52.4	15.0	0.00e+00	0	24	0	989855744	67	4435
2026-01-09 03:13:33.90	281.34	20.08	-50.5	-52.2	15.1	0.00e+00	0	24	0	991952896	67	4323
2026-01-09 03:13:34.90	281.17	19.99	-50.3	-52.0	15.2	0.00e+00	0	24	0	994050048	67	4199
2026-01-09 03:13:35.90	281.00	19.89	-50.3	-52.0	15.2	0.00e+00	0	24	0	996147200	67	4203
2026-01-09 03:13:36.90	280.84	19.79	-50.3	-52.0	15.2	0.00e+00	0	24	0	998244352	67	4200
2026-01-09 03:13:37.91	280.67	19.69	-50.4	-52.0	15.2	0.00e+00	0	24	0	999292928	67	4241
2026-01-09 03:13:38.91	280.51	19.60	-50.8	-52.5	15.0	0.00e+00	0	24	0	1001390080	67	4460
2026-01-09 03:13:39.91	280.35	19.50	-50.8	-52.5	15.0	0.00e+00	0	24	0	1003487232	67	4459
2026-01-09 03:13:40.90	280.19	19.40	-51.2	-53.0	14.7	0.00e+00	0	24	0	1005584384	67	4738
2026-01-09 03:13:41.91	280.03	19.31	-51.8	-53.8	14.5	0.00e+00	0	24	0	1007681536	68	4911
2026-01-09 03:13:42.91	279.87	19.21	-52.2	-54.3	14.5	0.00e+00	0	24	0	1008730112	69	4877
2026-01-09 03:13:43.91	279.71	19.11	-52.4	-54.6	14.4	0.00e+00	0	24	0	1010827264	70	4780
2026-01-09 03:13:44.90	279.56	19.02	-52.5	-54.8	14.4	0.00e+00	0	24	0	1012924416	70	4874
2026-01-09 03:13:45.91	279.40	18.92	-52.5	-54.7	14.3	0.00e+00	0	24	0	1015021568	70	4863
2026-01-09 03:13:46.91	279.25	18.82	-52.2	-54.3	14.6	0.00e+00	0	24	0	1017118720	70	4608
2026-01-09 03:13:47.90	279.10	18.73	-51.9	-54.0	14.8	0.00e+00	0	24	0	1018167296	70	4447
2026-01-09 03:13:48.90	278.95	18.63	-51.6	-53.6	14.8	0.00e+00	0	24	0	1020264448	69	4509
2026-01-09 03:13:49.90	278.79	18.54	-51.5	-53.4	14.9	0.00e+00	0	24	0	1022361600	69	4414
2026-01-09 03:13:50.90	278.64	18.44	-51.3	-53.1	15.0	0.00e+00	0	24	0	1024458752	69	4271
2026-01-09 03:13:51.90	278.49	18.35	-51.3	-53.2	15.0	0.00e+00	0	24	0	1025507328	69	4295
2026-01-09 03:13:52.89	278.35	18.25	-51.6	-53.5	14.8	0.00e+00	0	24	0	1027604480	69	4485
2026-01-09 03:13:53.89	278.20	18.16	-51.6	-53.6	14.8	0.00e+00	0	24	0	1029701632	69	4510
2026-01-09 03:13:54.89	278.05	18.06	-52.1	-54.2	14.5	0.00e+00	0	24	0	1031798784	69	4858
2026-01-09 03:13:55.89	277.91	17.97	-52.1	-54.3	14.4	0.00e+00	0	24	0	1033895936	69	4879
2026-01-09 03:13:56.88	277.76	17.88	-52.2	-54.4	14.4	0.00e+00	0	24	0	1034944512	69	4943
2026-01-09 03:13:57.88	277.62	17.78	-52.2	-54.4	14.3	0.00e+00	0	24	0	1037041664	69	4965
2026-01-09 03:13:58.87	277.48	17.69	-52.2	-54.5	14.4	0.00e+00	0	24	0	1039138816	69	4998
2026-01-09 03:13:59.87	277.34	17.59	-51.9	-54.0	14.6	0.00e+00	0	24	0	1041235968	69	4738
2026-01-09 03:14:00.87	277.20	17.50	-51.8	-53.8	14.7	0.00e+00	0	24	0	1043333120	69	4631
2026-01-09 03:14:01.87	277.06	17.41	-51.6	-53.5	14.8	0.00e+00	0	24	0	1044381696	69	4484
2026-01-09 03:14:02.86	276.92	17.31	-51.4	-53.3	14.9	0.00e+00	0	24	0	1046478848	69	4386
2026-01-09 03:14:03.86	276.78	17.22	-51.2	-53.1	15.1	0.00e+00	0	24	0	1048576000	69	4262
2026-01-09 03:14:04.85	276.64	17.13	-51.1	-53.0	14.9	0.00e+00	0	24	0	1050673152	68	4465
2026-01-09 03:14:05.85	276.51	17.04	-51.1	-53.0	14.9	0.00e+00	0	24	0	1051721728	68	4447
2026-01-09 03:14:06.85	276.37	16.94	-51.2	-53.1	14.9	0.00e+00	0	24	0	1053818880	68	4503
2026-01-09 03:14:07.85	276.23	16.85	-51.3	-53.3	14.8	0.00e+00	0	24	0	1055916032	68	4600
2026-01-09 03:14:08.85	276.10	16.76	-51.3	-53.2	14.8	0.00e+00	0	24	0	1058013184	68	4581
2026-01-09 03:14:09.85	275.97	16.67	-51.5	-53.4	14.7	0.00e+00	0	24	0	1060110336	68	4673
2026-01-09 03:14:10.85	275.83	16.58	-51.6	-53.6	14.6	0.00e+00	0	24	0	1061158912	68	4778
2026-01-09 03:14:11.86	275.70	16.48	-51.7	-53.7	14.6	0.00e+00	0	24	0	1063256064	68	4823
2026-01-09 03:14:12.85	275.57	16.39	-51.7	-53.7	14.6	0.00e+00	0	24	0	1065353216	68	4822
2026-01-09 03:14:13.86	275.44	16.30	-51.7	-53.7	14.6	0.00e+00	0	24	0	1067450368	68	4842
2026-01-09 03:14:14.86	275.31	16.21	-51.8	-53.9	14.5	0.00e+00	0	24	0	1068498944	68	4938
2026-01-09 03:14:15.86	275.18	16.12	-51.4	-53.3	14.8	0.00e+00	0	24	0	1070596096	68	4635
2026-01-09 03:14:16.86	275.06	16.03	-51.5	-53.4	14.7	0.00e+00	0	24	0	1072693248	68	4701
2026-01-09 03:14:17.85	274.93	15.94	-51.4	-53.3	14.8	0.00e+00	0	24	0	1074790400	68	4601
2026-01-09 03:14:18.86	274.80	15.85	-51.3	-53.2	14.8	0.00e+00	0	24	0	1076887552	68	4569
2026-01-09 03:14:19.86	274.68	15.76	-51.2	-53.0	14.9	0.00e+00	0	24	0	1077936128	68	4487
2026-01-09 03:14:20.86	274.55	15.67	-51.1	-52.9	14.9	0.00e+00	0	24	0	1080033280	68	4434
2026-01-09 03:14:21.86	274.43	15.58	-51.3	-53.2	14.8	0.00e+00	0	24	0	1082130432	68	4550
2026-01-09 03:14:22.85	274.31	15.49	-51.5	-53.4	14.7	0.00e+00	0	24	0	1084227584	68	4662
2026-01-09 03:14:23.85	274.18	15.40	-51.8	-53.8	14.5	0.00e+00	0	24	0	1086324736	68	4887
2026-01-09 03:14:24.85	274.06	15.31	-52.1	-54.2	14.5	0.00e+00	0	24	0	1087373312	69	4816
2026-01-09 03:14:25.84	273.94	15.22	-52.6	-54.9	14.3	0.00e+00	0	24	0	1089470464	70	4933
2026-01-09 03:14:26.84	273.82	15.13	-52.9	-55.3	14.0	0.00e+00	0	24	0	1091567616	70	5198
2026-01-09 03:14:27.83	273.70	15.04	-53.2	-55.9	13.9	0.00e+00	0	24	0	1093664768	71	5226
2026-01-09 03:14:28.82	273.59	14.96	-53.3	-56.0	13.7	0.00e+00	0	24	0	1095761920	71	5333
2026-01-09 03:14:29.83	273.47	14.87	-53.3	-55.9	13.9	0.00e+00	0	24	0	1096810496	72	4972
2026-01-09 03:14:30.83	273.35	14.78	-53.2	-55.7	14.0	0.00e+00	0	24	0	1098907648	72	4866
2026-01-09 03:14:31.83	273.23	14.69	-52.9	-55.3	14.2	0.00e+00	0	24	0	1101004800	72	4642
2026-01-09 03:14:32.82	273.12	14.60	-52.5	-54.7	14.4	0.00e+00	0	24	0	1103101952	71	4595
2026-01-09 03:14:33.82	273.00	14.52	-52.0	-54.0	14.7	0.00e+00	0	24	0	1104150528	70	4486
2026-01-09 03:14:34.82	272.89	14.43	-51.7	-53.6	14.9	0.00e+00	0	24	0	1106247680	70	4289
2026-01-09 03:14:35.81	272.78	14.34	-51.4	-53.3	14.9	0.00e+00	0	24	0	1108344832	69	4345
2026-01-09 03:14:36.81	272.66	14.26	-51.1	-52.9	15.0	0.00e+00	0	24	0	1110441984	68	4430
2026-01-09 03:14:37.81	272.55	14.17	-51.1	-52.9	14.9	0.00e+00	0	24	0	1112539136	68	4413
2026-01-09 03:14:38.81	272.44	14.08	-51.1	-52.9	14.9	0.00e+00	0	24	0	1113587712	68	4419
2026-01-09 03:14:39.81	272.33	14.00	-51.3	-53.2	14.8	0.00e+00	0	24	0	1115684864	68	4586
2026-01-09 03:14:40.80	272.22	13.91	-51.4	-53.4	14.7	0.00e+00	0	24	0	1117782016	68	4654
2026-01-09 03:14:41.81	272.11	13.82	-51.7	-53.8	14.5	0.00e+00	0	24	0	1119879168	68	4879
2026-01-09 03:14:42.81	272.00	13.74	-52.1	-54.3	14.3	0.00e+00	0	24	0	1121976320	69	4919
2026-01-09 03:14:43.81	271.89	13.65	-52.3	-54.6	14.2	0.00e+00	0	24	0	1123024896	69	5094
2026-01-09 03:14:44.81	271.78	13.57	-52.7	-55.2	14.0	0.00e+00	0	24	0	1125122048	70	5121
2026-01-09 03:14:45.81	271.68	13.48	-53.4	-55.8	13.9	0.00e+00	0	24	0	1127219200	71	5161
2026-01-09 03:14:46.81	271.57	13.40	-53.2	-55.8	13.8	0.00e+00	0	24	0	1129316352	71	5206
2026-01-09 03:14:47.81	271.46	13.31	-53.2	-56.0	13.7	0.00e+00	0	24	0	1131413504	71	5283
2026-01-09 03:14:48.81	271.36	13.23	-53.3	-56.1	13.7	0.00e+00	0	24	0	1132462080	71	5347
2026-01-09 03:14:49.81	271.25	13.14	-53.4	-56.1	13.8	0.00e+00	0	24	0	1134559232	72	5072
2026-01-09 03:14:50.81	271.15	13.06	-53.4	-56.1	13.8	0.00e+00	0	24	0	1136656384	72	5076
2026-01-09 03:14:51.80	271.05	12.98	-53.4	-56.1	13.8	0.00e+00	0	24	0	1138753536	72	5061
2026-01-09 03:14:52.80	270.94	12.89	-53.3	-56.0	13.8	0.00e+00	0	24	0	1139802112	72	5013
2026-01-09 03:14:53.80	270.84	12.81	-53.2	-55.9	13.9	0.00e+00	0	24	0	1141899264	72	4935
2026-01-09 03:14:54.80	270.74	12.73	-53.3	-56.0	13.8	0.00e+00	0	24	0	1143996416	72	4988
2026-01-09 03:14:55.80	270.64	12.64	-53.3	-56.0	13.8	0.00e+00	0	24	0	1146093568	72	4999
2026-01-09 03:14:56.79	270.54	12.56	-53.2	-55.9	13.9	0.00e+00	0	24	0	1148190720	72	4927
2026-01-09 03:14:57.78	270.44	12.48	-53.1	-55.6	14.0	0.00e+00	0	24	0	1149239296	72	4806
2026-01-09 03:14:58.78	270.34	12.40	-53.2	-55.9	13.9	0.00e+00	0	24	0	1151336448	72	4951
2026-01-09 03:14:59.77	270.24	12.31	-53.1	-55.7	14.0	0.00e+00	0	24	0	1153433600	72	4847
2026-01-09 03:15:00.76	270.15	12.23	-53.0	-55.5	14.1	0.00e+00	0	24	0	1155530752	72	4754
2026-01-09 03:15:01.76	270.05	12.15	-53.2	-55.8	14.0	0.00e+00	0	24	0	1156579328	72	4877
2026-01-09 03:15:02.76	269.95	12.07	-53.1	-55.6	14.0	0.00e+00	0	24	0	1158676480	72	4813
2026-01-09 03:15:03.76	269.86	11.99	-53.1	-55.6	14.0	0.00e+00	0	24	0	1160773632	72	4803
2026-01-09 03:15:04.75	269.76	11.91	-53.1	-55.7	14.0	0.00e+00	0	24	0	1162870784	72	4829
2026-01-09 03:15:05.75	269.67	11.83	-53.2	-55.8	13.9	0.00e+00	0	24	0	1164967936	72	4884
2026-01-09 03:15:06.74	269.57	11.75	-53.2	-55.8	13.9	0.00e+00	0	24	0	1166016512	72	4921
2026-01-09 03:15:07.74	269.48	11.66	-53.2	-55.9	13.9	0.00e+00	0	24	0	1168113664	72	4927
2026-01-09 03:15:08.73	269.38	11.58	-53.2	-55.9	13.8	0.00e+00	0	24	0	1170210816	72	4938
2026-01-09 03:15:09.73	269.29	11.50	-53.2	-55.9	13.8	0.00e+00	0	24	0	1172307968	72	4932
2026-01-09 03:15:10.73	269.20	11.42	-53.1	-55.7	13.9	0.00e+00	0	24	0	1173356544	72	4855
2026-01-09 03:15:11.73	269.11	11.34	-53.1	-55.7	13.9	0.00e+00	0	24	0	1175453696	72	4859
2026-01-09 03:15:12.73	269.01	11.26	-53.0	-55.6	14.0	0.00e+00	0	24	0	1177550848	72	4774
2026-01-09 03:15:13.73	268.92	11.18	-52.9	-55.4	14.1	0.00e+00	0	24	0	1179648000	72	4668
2026-01-09 03:15:14.74	268.83	11.10	-52.8	-55.2	14.2	0.00e+00	0	24	0	1181745152	72	4589
2026-01-09 03:15:15.74	268.74	11.02	-52.7	-55.1	14.3	0.00e+00	0	24	0	1182793728	72	4524
2026-01-09 03:15:16.74	268.65	10.95	-52.7	-55.2	14.1	0.00e+00	0	24	0	1184890880	71	4823
2026-01-09 03:15:17.73	268.56	10.87	-52.7	-55.1	14.1	0.00e+00	0	24	0	1186988032	71	4808
2026-01-09 03:15:18.73	268.47	10.79	-52.8	-55.3	14.0	0.00e+00	0	24	0	1189085184	71	4877
2026-01-09 03:15:19.73	268.39	10.71	-52.9	-55.5	13.9	0.00e+00	0	24	0	1191182336	71	5013
2026-01-09 03:15:20.72	268.30	10.63	-53.0	-55.6	13.8	0.00e+00	0	24	0	1192230912	71	5068
2026-01-09 03:15:21.72	268.21	10.55	-53.0	-55.7	13.7	0.00e+00	0	24	0	1194328064	71	5101
2026-01-09 03:15:22.73	268.12	10.47	-53.2	-55.9	13.6	0.00e+00	0	24	0	1196425216	71	5241
2026-01-09 03:15:23.72	268.04	10.40	-53.1	-55.8	13.6	0.00e+00	0	24	0	1198522368	71	5191
2026-01-09 03:15:24.72	267.95	10.32	-53.1	-55.8	13.6	0.00e+00	0	24	0	1199570944	71	5200
2026-01-09 03:15:25.72	267.87	10.24	-53.2	-56.0	13.5	0.00e+00	0	24	0	1201668096	71	5320
2026-01-09 03:15:26.71	267.78	10.17	-53.4	-56.3	13.3	0.00e+00	0	24	0	1203765248	71	5479
2026-01-09 03:15:27.71	267.70	10.09	-53.4	-56.4	13.4	0.00e+00	0	24	0	1205862400	72	5231
2026-01-09 03:15:28.71	267.61	10.01	-53.7	-56.8	13.1	0.00e+00	0	24	0	1207959552	72	5502
2026-01-09 03:15:29.70	267.53	9.94	-53.9	-57.1	12.9	0.00e+00	0	24	0	1209008128	72	5675
2026-01-09 03:15:30.70	267.45	9.86	-54.1	-57.5	12.8	0.00e+00	0	24	0	1211105280	73	5609
2026-01-09 03:15:31.70	267.37	9.78	-54.4	-57.9	12.5	0.00e+00	0	24	0	1213202432	73	5911
