passes_logs/2026/01/09/R3.2S_Murmansk/R3.2S_Murmansk__20260109_110258_2024-110A_rec.log

#Pass ID: 20260109_110258_2024-110A
#Satellite: 2024-110A
#Configuration: 01B_900M
#almurnet v.1.7.20251203
#Start time: 2026-01-09 11:03:00

#Version: 2.2.20231116
#Station: R3.2S_Murmansk
#Location: 33.079688 lon 68.888172 lat
#TLE: 1 60012U 24110A   26008.58318696  .00008859  00000+0  53667-3 0  9998
#TLE: 2 60012  97.5753 101.6537 0010593  86.3973 273.8468 15.10775729 87797

#Time	Az	El	Level	Level2	SNR	BER	BlckErr	Temp	State	Recorded	gain1	gain2
2026-01-09 11:03:00.14	21.69	2.12	-58.5	-61.7	6.2	0.00e+00	0	24	0	0	82	22451
2026-01-09 11:03:01.13	21.68	2.19	-58.7	-61.9	6.2	0.00e+00	0	24	104	0	84	20553
2026-01-09 11:03:02.11	21.66	2.26	-58.7	-61.9	6.2	0.00e+00	0	24	104	0	84	20470
2026-01-09 11:03:03.10	21.65	2.33	-58.7	-61.9	6.2	0.00e+00	0	24	104	0	84	20462
2026-01-09 11:03:04.09	21.63	2.40	-58.7	-61.9	6.2	0.00e+00	0	24	104	0	84	20460
2026-01-09 11:03:05.08	21.61	2.47	-58.7	-61.9	6.2	0.00e+00	0	24	104	0	84	20501
2026-01-09 11:03:06.07	21.60	2.54	-58.7	-61.9	6.2	0.00e+00	0	24	104	0	84	20522
2026-01-09 11:03:07.05	21.58	2.61	-58.7	-61.9	6.2	0.00e+00	0	24	104	0	84	20511
2026-01-09 11:03:08.03	21.57	2.67	-58.7	-61.9	6.2	0.00e+00	0	24	104	0	84	20561
2026-01-09 11:03:09.02	21.55	2.74	-58.7	-61.9	6.2	0.00e+00	0	24	104	0	84	20472
2026-01-09 11:03:10.01	21.54	2.82	-58.7	-61.9	6.2	0.00e+00	0	25	104	0	84	20584
2026-01-09 11:03:11.00	21.52	2.89	-58.7	-61.9	6.2	0.00e+00	0	24	104	0	84	20511
2026-01-09 11:03:12.00	21.50	2.96	-58.7	-61.9	6.2	0.00e+00	0	25	104	0	84	20524
2026-01-09 11:03:12.98	21.49	3.03	-58.7	-61.9	6.2	0.00e+00	0	25	104	0	84	20523
2026-01-09 11:03:13.97	21.47	3.10	-58.7	-61.9	6.2	0.00e+00	0	25	104	0	84	20628
2026-01-09 11:03:14.96	21.46	3.17	-58.7	-61.9	6.2	0.00e+00	0	25	104	0	84	20544
2026-01-09 11:03:15.94	21.44	3.24	-58.7	-61.9	6.2	0.00e+00	0	25	104	0	84	20543
2026-01-09 11:03:16.93	21.42	3.32	-58.7	-61.9	6.2	0.00e+00	0	25	104	0	84	20607
2026-01-09 11:03:17.92	21.40	3.39	-58.7	-61.9	6.2	0.00e+00	0	24	104	0	84	20538
2026-01-09 11:03:18.91	21.39	3.46	-58.7	-61.9	6.2	0.00e+00	0	25	104	0	84	20560
2026-01-09 11:03:19.90	21.37	3.53	-58.7	-61.9	6.2	0.00e+00	0	25	104	0	84	20632
2026-01-09 11:03:20.90	21.35	3.61	-58.7	-61.9	6.2	0.00e+00	0	25	104	0	84	20561
2026-01-09 11:03:21.89	21.34	3.68	-58.7	-61.9	6.2	0.00e+00	0	25	104	0	84	20567
2026-01-09 11:03:22.88	21.32	3.75	-58.7	-61.9	6.2	0.00e+00	0	25	104	0	84	20507
2026-01-09 11:03:23.87	21.30	3.83	-58.7	-61.9	6.2	0.00e+00	0	25	104	0	84	20444
2026-01-09 11:03:24.87	21.28	3.90	-58.7	-61.9	6.2	0.00e+00	0	25	104	0	84	20556
2026-01-09 11:03:25.86	21.26	3.98	-58.7	-61.9	6.2	0.00e+00	0	25	104	0	84	20544
2026-01-09 11:03:26.84	21.25	4.05	-58.7	-61.9	6.2	0.00e+00	0	25	104	0	84	20551
2026-01-09 11:03:27.83	21.23	4.13	-58.7	-61.9	6.2	0.00e+00	0	25	104	0	84	20537
2026-01-09 11:03:28.81	21.21	4.20	-58.7	-61.9	6.2	0.00e+00	0	25	104	0	84	20541
2026-01-09 11:03:29.80	21.19	4.28	-58.7	-61.9	6.2	0.00e+00	0	25	104	0	84	20532
2026-01-09 11:03:30.79	21.17	4.35	-58.7	-61.9	6.2	0.00e+00	0	25	104	0	84	20587
2026-01-09 11:03:31.78	21.15	4.43	-58.7	-61.9	6.2	0.00e+00	0	25	104	0	84	20491
2026-01-09 11:03:32.77	21.13	4.51	-58.7	-61.9	6.2	0.00e+00	0	25	104	0	84	20474
2026-01-09 11:03:33.76	21.12	4.58	-58.7	-61.9	6.2	0.00e+00	0	25	104	0	84	20544
2026-01-09 11:03:34.75	21.10	4.66	-58.7	-61.9	6.2	0.00e+00	0	25	104	0	84	20591
2026-01-09 11:03:35.75	21.08	4.74	-58.7	-61.9	6.2	0.00e+00	0	25	104	0	84	20556
2026-01-09 11:03:36.74	21.06	4.81	-58.7	-61.9	6.2	0.00e+00	0	25	104	0	84	20565
2026-01-09 11:03:37.73	21.04	4.89	-58.7	-61.9	6.2	0.00e+00	0	25	104	0	84	20599
2026-01-09 11:03:38.73	21.02	4.97	-58.7	-61.9	6.2	0.00e+00	0	25	104	0	84	20591
2026-01-09 11:03:39.73	21.00	5.05	-58.7	-61.9	6.2	0.00e+00	0	25	104	0	84	20521
2026-01-09 11:03:40.71	20.98	5.13	-58.7	-61.9	6.2	0.00e+00	0	25	104	0	84	20566
2026-01-09 11:03:41.72	20.96	5.21	-58.7	-61.9	6.2	0.00e+00	0	25	104	0	84	20607
2026-01-09 11:03:42.71	20.94	5.29	-58.7	-61.9	6.2	0.00e+00	0	25	104	0	84	20595
2026-01-09 11:03:43.70	20.91	5.37	-58.7	-61.9	6.2	0.00e+00	0	25	104	0	84	20545
2026-01-09 11:03:44.70	20.89	5.45	-58.7	-61.9	6.2	0.00e+00	0	25	104	0	84	20603
2026-01-09 11:03:45.70	20.87	5.53	-58.7	-61.9	6.2	0.00e+00	0	25	104	0	84	20623
2026-01-09 11:03:46.70	20.85	5.61	-58.7	-61.9	6.2	0.00e+00	0	25	104	0	84	20630
2026-01-09 11:03:47.69	20.83	5.69	-58.7	-61.9	6.2	0.00e+00	0	25	104	0	84	20596
2026-01-09 11:03:48.67	20.81	5.77	-58.7	-62.0	6.2	0.00e+00	0	25	104	0	84	20649
2026-01-09 11:03:49.65	20.79	5.85	-58.7	-61.9	6.2	0.00e+00	0	25	104	0	84	20615
2026-01-09 11:03:50.64	20.76	5.94	-58.7	-62.0	6.2	0.00e+00	0	25	104	0	84	20677
2026-01-09 11:03:51.63	20.74	6.02	-58.7	-61.9	6.2	0.00e+00	0	26	104	0	84	20619
2026-01-09 11:03:52.62	20.72	6.10	-58.7	-62.0	6.2	0.00e+00	0	26	104	0	84	20656
2026-01-09 11:03:53.60	20.70	6.18	-58.7	-61.9	6.2	0.00e+00	0	26	104	0	84	20610
2026-01-09 11:03:54.59	20.67	6.26	-58.7	-61.9	6.2	0.00e+00	0	26	104	0	84	20609
2026-01-09 11:03:55.58	20.65	6.35	-58.7	-61.9	6.2	0.00e+00	0	26	104	0	84	20548
2026-01-09 11:03:56.57	20.63	6.43	-58.7	-61.9	6.2	0.00e+00	0	26	104	0	84	20622
2026-01-09 11:03:57.56	20.60	6.52	-58.7	-61.9	6.2	0.00e+00	0	26	104	0	84	20533
2026-01-09 11:03:58.55	20.58	6.60	-58.7	-61.9	6.2	0.00e+00	0	26	104	0	84	20612
2026-01-09 11:03:59.54	20.56	6.69	-58.7	-62.0	6.2	0.00e+00	0	26	104	0	84	20646
2026-01-09 11:04:00.53	20.53	6.77	-58.7	-61.9	6.2	0.00e+00	0	26	104	0	84	20567
2026-01-09 11:04:01.52	20.51	6.86	-58.7	-61.9	6.2	0.00e+00	0	26	104	0	84	20605
2026-01-09 11:04:02.51	20.49	6.94	-58.7	-62.0	6.2	0.00e+00	0	26	104	0	84	20666
2026-01-09 11:04:03.50	20.46	7.03	-58.7	-62.0	6.2	0.00e+00	0	26	104	0	84	20669
2026-01-09 11:04:04.49	20.44	7.12	-58.7	-62.0	6.2	0.00e+00	0	26	104	0	84	20666
2026-01-09 11:04:05.48	20.41	7.20	-58.7	-62.0	6.2	0.00e+00	0	26	104	0	84	20673
2026-01-09 11:04:06.48	20.39	7.29	-58.7	-61.9	6.2	0.00e+00	0	26	104	0	84	20579
2026-01-09 11:04:07.47	20.36	7.38	-58.7	-62.0	6.2	0.00e+00	0	26	104	0	84	20651
2026-01-09 11:04:08.46	20.33	7.47	-58.7	-61.9	6.2	0.00e+00	0	26	104	0	84	20582
2026-01-09 11:04:09.45	20.31	7.56	-58.7	-61.9	6.2	0.00e+00	0	26	104	0	84	20622
2026-01-09 11:04:10.44	20.28	7.65	-58.7	-61.9	6.2	0.00e+00	0	26	104	0	84	20594
2026-01-09 11:04:11.43	20.26	7.73	-58.7	-61.9	6.2	0.00e+00	0	26	104	0	84	20632
2026-01-09 11:04:12.41	20.23	7.82	-58.8	-62.0	6.2	0.00e+00	0	26	104	0	84	20654
2026-01-09 11:04:13.41	20.20	7.91	-58.7	-62.0	6.2	0.00e+00	0	26	104	0	84	20656
2026-01-09 11:04:14.40	20.18	8.01	-58.7	-61.9	6.2	0.00e+00	0	26	104	0	84	20602
2026-01-09 11:04:15.38	20.15	8.10	-58.7	-62.0	6.2	0.00e+00	0	26	104	0	84	20653
2026-01-09 11:04:16.37	20.12	8.19	-58.7	-61.9	6.2	0.00e+00	0	26	104	0	84	20610
2026-01-09 11:04:17.35	20.10	8.28	-58.7	-61.9	6.2	0.00e+00	0	26	104	0	84	20625
2026-01-09 11:04:18.34	20.07	8.37	-58.7	-61.9	6.2	0.00e+00	0	26	104	0	84	20623
2026-01-09 11:04:19.32	20.04	8.46	-58.7	-61.9	6.2	0.00e+00	0	26	104	0	84	20598
2026-01-09 11:04:20.31	20.01	8.56	-58.7	-62.0	6.2	0.00e+00	0	26	104	0	84	20654
2026-01-09 11:04:21.30	19.98	8.65	-58.7	-61.9	6.2	0.00e+00	0	26	104	0	84	20559
2026-01-09 11:04:22.29	19.95	8.74	-58.7	-61.9	6.2	0.00e+00	0	26	104	0	84	20622
2026-01-09 11:04:23.28	19.92	8.84	-58.7	-61.9	6.2	0.00e+00	0	26	104	0	84	20631
2026-01-09 11:04:24.28	19.89	8.93	-58.7	-61.9	6.2	0.00e+00	0	26	104	0	84	20614
2026-01-09 11:04:25.26	19.86	9.03	-58.9	-62.1	6.2	0.00e+00	0	26	104	0	84	21015
2026-01-09 11:04:26.25	19.83	9.13	-59.0	-62.2	6.2	0.00e+00	0	26	104	0	84	21179
2026-01-09 11:04:27.25	19.80	9.22	-59.0	-62.2	6.2	0.00e+00	0	26	104	0	84	21216
2026-01-09 11:04:28.24	19.77	9.32	-59.0	-62.2	6.2	0.00e+00	0	26	104	0	84	21240
2026-01-09 11:04:29.22	19.74	9.42	-59.0	-62.2	6.2	0.00e+00	0	26	104	0	84	21146
2026-01-09 11:04:30.21	19.71	9.51	-58.9	-62.2	6.2	0.00e+00	0	26	104	0	84	21136
2026-01-09 11:04:31.20	19.68	9.61	-58.9	-62.1	6.2	0.00e+00	0	26	104	0	84	21097
2026-01-09 11:04:32.19	19.65	9.71	-58.9	-62.1	6.2	0.00e+00	0	26	104	0	84	21035
2026-01-09 11:04:33.18	19.62	9.81	-58.9	-62.1	6.2	0.00e+00	0	26	104	0	84	21086
2026-01-09 11:04:34.18	19.58	9.91	-59.0	-62.2	6.2	0.00e+00	0	26	104	0	84	21352
2026-01-09 11:04:35.18	19.55	10.01	-59.0	-62.3	6.2	0.00e+00	0	26	104	0	84	21405
2026-01-09 11:04:36.17	19.52	10.11	-59.0	-62.2	6.2	0.00e+00	0	26	104	0	84	21340
2026-01-09 11:04:37.18	19.49	10.22	-59.0	-62.3	6.2	0.00e+00	0	26	104	0	84	21361
2026-01-09 11:04:38.17	19.45	10.32	-59.1	-62.3	6.2	0.00e+00	0	26	104	0	84	21390
2026-01-09 11:04:39.16	19.42	10.42	-59.1	-62.3	6.2	0.00e+00	0	26	104	0	84	21438
2026-01-09 11:04:40.15	19.38	10.53	-59.1	-62.3	6.2	0.00e+00	0	26	104	0	84	21427
2026-01-09 11:04:41.14	19.35	10.63	-59.1	-62.3	6.2	0.00e+00	0	26	104	0	84	21524
2026-01-09 11:04:42.13	19.31	10.73	-59.1	-62.3	6.2	0.00e+00	0	26	104	0	84	21540
2026-01-09 11:04:43.13	19.28	10.84	-59.1	-62.3	6.2	0.00e+00	0	26	104	0	84	21458
2026-01-09 11:04:44.12	19.24	10.94	-59.1	-62.3	6.2	0.00e+00	0	26	104	0	84	21396
2026-01-09 11:04:45.12	19.21	11.05	-59.1	-62.3	6.2	0.00e+00	0	26	104	0	84	21484
2026-01-09 11:04:46.13	19.17	11.16	-59.0	-62.2	6.2	0.00e+00	0	26	104	0	84	21346
2026-01-09 11:04:47.12	19.13	11.27	-59.0	-62.2	6.2	0.00e+00	0	26	104	0	84	21263
2026-01-09 11:04:48.12	19.10	11.38	-59.0	-62.2	6.2	0.00e+00	0	26	104	0	84	21189
2026-01-09 11:04:49.12	19.06	11.49	-58.9	-62.1	6.2	0.00e+00	0	26	104	0	84	21043
2026-01-09 11:04:50.12	19.02	11.60	-58.8	-62.0	6.2	0.00e+00	0	26	104	0	84	20835
2026-01-09 11:04:51.12	18.98	11.71	-58.7	-61.9	6.2	0.00e+00	0	26	104	0	84	20544
2026-01-09 11:04:52.11	18.94	11.82	-58.6	-61.8	6.2	0.00e+00	0	26	104	0	84	20316
2026-01-09 11:04:53.10	18.91	11.93	-58.5	-61.7	6.2	0.00e+00	0	26	104	0	84	20020
2026-01-09 11:04:54.10	18.87	12.04	-58.1	-61.3	6.2	0.00e+00	0	26	104	0	83	20240
2026-01-09 11:04:55.10	18.83	12.15	-58.0	-61.2	6.2	0.00e+00	0	26	104	0	83	20062
2026-01-09 11:04:56.09	18.79	12.27	-58.1	-61.3	6.2	0.00e+00	0	26	104	0	83	20213
2026-01-09 11:04:57.09	18.75	12.38	-58.0	-61.2	6.2	0.00e+00	0	26	104	0	83	20022
2026-01-09 11:04:58.07	18.71	12.49	-58.0	-61.2	6.2	0.00e+00	0	26	104	0	83	20019
2026-01-09 11:04:59.07	18.66	12.61	-58.0	-61.2	6.2	0.00e+00	0	26	104	0	83	20023
2026-01-09 11:05:00.06	18.62	12.72	-57.9	-61.1	6.2	0.00e+00	0	26	104	0	83	19899
2026-01-09 11:05:01.05	18.58	12.84	-58.0	-61.2	6.2	0.00e+00	0	26	104	0	83	20033
2026-01-09 11:05:02.04	18.54	12.96	-57.9	-61.2	6.2	0.00e+00	0	26	104	0	83	19971
2026-01-09 11:05:03.03	18.50	13.08	-58.0	-61.2	6.2	0.00e+00	0	26	104	0	83	20085
2026-01-09 11:05:04.03	18.45	13.19	-57.9	-61.2	6.2	0.00e+00	0	26	104	0	83	19936
2026-01-09 11:05:05.02	18.41	13.31	-58.0	-61.2	6.2	0.00e+00	0	26	104	0	83	20036
2026-01-09 11:05:06.01	18.36	13.43	-57.9	-61.2	6.2	0.00e+00	0	26	104	0	83	20016
2026-01-09 11:05:07.00	18.32	13.55	-58.0	-61.2	6.2	0.00e+00	0	26	104	0	83	20125
2026-01-09 11:05:07.99	18.27	13.68	-57.7	-60.8	6.2	0.00e+00	0	26	104	0	81	21427
2026-01-09 11:05:08.97	18.23	13.80	-57.0	-59.5	6.2	0.00e+00	0	26	104	0	81	18590
2026-01-09 11:05:09.96	18.18	13.92	-57.1	-59.6	6.2	0.00e+00	0	26	104	0	81	18618
2026-01-09 11:05:10.95	18.14	14.04	-57.0	-59.4	6.3	0.00e+00	0	26	104	0	81	18343
2026-01-09 11:05:11.93	18.09	14.17	-57.6	-60.5	6.2	0.00e+00	0	26	104	0	81	20690
2026-01-09 11:05:12.91	18.04	14.29	-57.4	-60.1	6.2	0.00e+00	0	26	104	0	81	19776
2026-01-09 11:05:13.90	17.99	14.42	-57.7	-60.7	6.2	0.00e+00	0	26	104	0	81	21257
2026-01-09 11:05:14.88	17.95	14.54	-55.0	-56.4	7.0	0.00e+00	0	27	104	0	77	16347
2026-01-09 11:05:15.86	17.90	14.67	-57.6	-60.6	6.2	0.00e+00	0	26	104	0	80	22305
2026-01-09 11:05:16.85	17.85	14.80	-55.0	-56.5	6.9	0.00e+00	0	26	104	0	77	16442
2026-01-09 11:05:17.84	17.80	14.92	-42.7	-43.4	11.3	3.31e-03	0	26	104	0	69	5749
2026-01-09 11:05:18.83	17.75	15.05	-41.4	-41.6	13.3	2.28e-05	0	27	0	41943040	50	13997
2026-01-09 11:05:19.81	17.70	15.18	-41.3	-41.5	13.2	3.62e-05	0	27	0	150994944	49	14679
2026-01-09 11:05:20.80	17.64	15.32	-41.1	-41.4	13.3	5.70e-06	0	27	0	260046848	49	14462
2026-01-09 11:05:21.78	17.59	15.45	-41.0	-41.3	13.4	2.28e-05	0	26	0	369098752	49	14341
2026-01-09 11:05:22.76	17.54	15.58	-41.2	-41.4	13.3	1.90e-05	0	27	0	486539264	49	14533
2026-01-09 11:05:23.75	17.49	15.71	-41.0	-41.2	13.4	1.52e-05	0	27	0	595591168	49	14186
2026-01-09 11:05:24.74	17.43	15.85	-40.9	-41.1	13.4	1.14e-05	0	27	0	704643072	49	14071
2026-01-09 11:05:25.74	17.38	15.99	-40.8	-41.0	13.4	1.33e-05	0	27	0	813694976	48	14758
2026-01-09 11:05:26.72	17.32	16.12	-40.9	-41.1	13.3	1.14e-05	0	27	0	931135488	48	14862
2026-01-09 11:05:27.71	17.27	16.26	-40.7	-41.0	13.4	9.50e-06	0	27	0	1040187392	48	14623
2026-01-09 11:05:28.70	17.21	16.40	-40.6	-40.8	13.5	7.60e-06	0	27	0	1149239296	48	14356
2026-01-09 11:05:29.68	17.15	16.54	-40.7	-40.9	13.4	1.33e-05	0	27	0	1258291200	48	14519
2026-01-09 11:05:30.68	17.09	16.68	-40.7	-40.9	13.4	1.52e-05	0	27	0	1375731712	48	14526
2026-01-09 11:05:31.67	17.04	16.82	-40.7	-40.9	13.4	1.52e-05	0	27	0	1484783616	48	14592
2026-01-09 11:05:32.66	16.98	16.97	-40.5	-40.8	13.5	1.33e-05	0	27	0	1593835520	48	14309
2026-01-09 11:05:33.66	16.92	17.11	-40.5	-40.7	13.5	1.33e-05	0	27	0	1711276032	48	14170
2026-01-09 11:05:34.65	16.85	17.26	-40.5	-40.7	13.5	7.60e-06	0	27	0	1820327936	48	14272
2026-01-09 11:05:35.65	16.79	17.41	-39.6	-39.8	13.4	1.52e-05	0	27	0	1937768448	46	14353
2026-01-09 11:05:36.64	16.73	17.55	-39.5	-39.7	13.4	1.90e-05	0	27	0	2038431744	46	14271
2026-01-09 11:05:37.63	16.67	17.70	-39.5	-39.8	13.4	9.50e-06	0	27	0	2155872256	46	14289
2026-01-09 11:05:38.63	16.60	17.85	-39.3	-39.5	13.4	7.60e-06	0	27	0	2264924160	45	14756
2026-01-09 11:05:39.63	16.54	18.00	-39.3	-39.6	13.4	1.14e-05	0	27	0	2382364672	45	14786
2026-01-09 11:05:40.62	16.47	18.16	-39.4	-39.6	13.4	1.14e-05	0	27	0	2491416576	45	14878
2026-01-09 11:05:41.60	16.41	18.31	-39.2	-39.5	13.4	3.80e-06	0	27	0	2608857088	45	14637
2026-01-09 11:05:42.60	16.34	18.46	-39.0	-39.3	13.5	5.70e-06	0	27	0	2717908992	45	14285
2026-01-09 11:05:43.59	16.27	18.62	-39.0	-39.3	13.5	9.50e-06	0	27	0	2826960896	45	14278
2026-01-09 11:05:44.57	16.20	18.77	-39.0	-39.2	13.5	3.80e-06	0	27	0	2936012800	45	14225
2026-01-09 11:05:45.56	16.13	18.93	-38.9	-39.1	13.6	1.90e-06	0	27	0	3045064704	45	14044
2026-01-09 11:05:46.56	16.06	19.09	-38.8	-39.0	13.5	1.90e-06	0	27	0	3162505216	44	14720
2026-01-09 11:05:47.55	15.99	19.25	-38.8	-39.1	13.5	5.70e-06	0	27	0	3271557120	44	14804
2026-01-09 11:05:48.54	15.92	19.41	-38.8	-39.0	13.5	3.80e-06	0	27	0	3380609024	44	14747
2026-01-09 11:05:49.53	15.85	19.58	-38.7	-38.9	13.6	5.70e-06	0	27	0	3489660928	44	14537
2026-01-09 11:05:50.52	15.77	19.74	-38.7	-38.9	13.6	3.80e-06	0	27	0	3607101440	44	14571
2026-01-09 11:05:51.52	15.70	19.91	-38.6	-38.8	13.6	5.70e-06	0	27	0	3716153344	44	14421
2026-01-09 11:05:52.50	15.62	20.07	-38.4	-38.7	13.7	3.80e-06	0	27	0	3833593856	44	14136
2026-01-09 11:05:53.48	15.55	20.24	-38.4	-38.6	13.7	3.80e-06	0	27	0	3934257152	44	14063
2026-01-09 11:05:54.47	15.47	20.41	-38.3	-38.6	13.6	5.70e-06	0	27	0	4051697664	43	14798
2026-01-09 11:05:55.46	15.39	20.58	-38.3	-38.5	13.6	1.90e-06	0	27	0	4160749568	43	14674
2026-01-09 11:05:56.46	15.31	20.75	-38.2	-38.4	13.7	1.90e-06	0	27	0	4278190080	43	14486
2026-01-09 11:05:57.45	15.23	20.92	-38.1	-38.3	13.7	0.00e+00	0	27	0	4387241984	43	14415
2026-01-09 11:05:58.45	15.14	21.10	-38.1	-38.3	13.7	3.80e-06	0	27	0	4496293888	43	14384
2026-01-09 11:05:59.43	15.06	21.27	-38.1	-38.3	13.7	1.90e-06	0	27	0	4605345792	43	14403
2026-01-09 11:06:00.43	14.98	21.45	-38.0	-38.2	13.7	7.60e-06	0	27	0	4722786304	43	14253
2026-01-09 11:06:01.42	14.89	21.63	-37.9	-38.2	13.8	0.00e+00	0	27	0	4831838208	43	14120
2026-01-09 11:06:02.41	14.80	21.81	-37.7	-38.0	13.7	5.70e-06	0	27	0	4940890112	42	14656
2026-01-09 11:06:03.40	14.72	22.00	-37.8	-38.1	13.7	0.00e+00	0	27	0	5058330624	42	14798
2026-01-09 11:06:04.40	14.63	22.18	-37.7	-38.0	13.7	0.00e+00	0	27	0	5167382528	42	14650
2026-01-09 11:06:05.39	14.54	22.37	-37.7	-37.9	13.7	1.90e-06	0	27	0	5276434432	42	14509
2026-01-09 11:06:06.38	14.44	22.55	-37.6	-37.8	13.8	0.00e+00	0	27	0	5385486336	42	14339
2026-01-09 11:06:07.37	14.35	22.74	-37.7	-37.9	13.8	3.80e-06	0	27	0	5502926848	42	14500
2026-01-09 11:06:08.37	14.26	22.93	-37.5	-37.7	13.8	1.90e-06	0	27	0	5611978752	42	14166
2026-01-09 11:06:09.36	14.16	23.12	-37.2	-37.4	13.8	0.00e+00	0	27	0	5729419264	41	14589
2026-01-09 11:06:10.36	14.06	23.32	-37.2	-37.4	13.8	1.90e-06	0	27	0	5838471168	41	14486
2026-01-09 11:06:11.35	13.96	23.51	-37.1	-37.3	13.8	3.80e-06	0	27	0	5947523072	41	14423
2026-01-09 11:06:12.34	13.86	23.71	-37.0	-37.3	13.9	0.00e+00	0	27	0	6056574976	41	14312
2026-01-09 11:06:13.33	13.76	23.91	-37.1	-37.3	13.8	0.00e+00	0	27	0	6174015488	41	14419
2026-01-09 11:06:14.32	13.66	24.11	-37.0	-37.2	13.9	1.90e-06	0	27	0	6283067392	41	14197
2026-01-09 11:06:15.31	13.56	24.31	-36.9	-37.2	13.9	0.00e+00	0	27	0	6392119296	41	14120
2026-01-09 11:06:16.31	13.45	24.52	-36.8	-37.0	13.9	0.00e+00	0	27	0	6509559808	40	14706
2026-01-09 11:06:17.30	13.34	24.72	-36.8	-37.0	13.9	0.00e+00	0	27	0	6618611712	40	14630
2026-01-09 11:06:18.30	13.23	24.93	-36.6	-36.8	13.9	0.00e+00	0	27	0	6736052224	40	14321
2026-01-09 11:06:19.29	13.12	25.14	-36.6	-36.8	13.9	0.00e+00	0	27	0	6836715520	40	14326
2026-01-09 11:06:20.29	13.01	25.36	-36.6	-36.8	13.9	0.00e+00	0	27	0	6954156032	40	14343
2026-01-09 11:06:21.28	12.89	25.57	-36.6	-36.8	13.9	0.00e+00	0	27	0	7063207936	40	14346
2026-01-09 11:06:22.28	12.78	25.79	-36.5	-36.7	14.0	1.90e-06	0	27	0	7180648448	40	14146
2026-01-09 11:06:23.27	12.66	26.00	-36.4	-36.6	14.0	0.00e+00	0	27	0	7289700352	40	14047
2026-01-09 11:06:24.26	12.54	26.22	-36.3	-36.5	13.9	0.00e+00	0	27	0	7398752256	39	14761
2026-01-09 11:06:25.25	12.42	26.44	-36.2	-36.4	14.0	0.00e+00	0	27	0	7516192768	39	14576
2026-01-09 11:06:26.23	12.30	26.66	-36.2	-36.4	14.0	0.00e+00	0	27	0	7625244672	39	14520
2026-01-09 11:06:27.23	12.17	26.89	-36.2	-36.4	14.0	0.00e+00	0	27	0	7734296576	39	14450
2026-01-09 11:06:28.23	12.04	27.12	-36.0	-36.2	14.1	0.00e+00	0	27	0	7843348480	39	14235
2026-01-09 11:06:29.22	11.91	27.35	-36.0	-36.2	14.1	0.00e+00	0	27	0	7960788992	39	14177
2026-01-09 11:06:30.22	11.78	27.58	-35.8	-36.0	14.0	0.00e+00	0	27	0	8069840896	38	14667
2026-01-09 11:06:31.21	11.65	27.82	-35.8	-36.0	14.0	0.00e+00	0	27	0	8187281408	38	14651
2026-01-09 11:06:32.20	11.51	28.05	-35.8	-36.0	14.0	0.00e+00	0	27	0	8296333312	38	14715
2026-01-09 11:06:33.20	11.37	28.29	-35.9	-36.1	14.0	0.00e+00	0	27	0	8413773824	38	14824
2026-01-09 11:06:34.19	11.23	28.53	-35.6	-35.8	14.1	0.00e+00	0	27	0	8514437120	38	14332
2026-01-09 11:06:35.18	11.09	28.78	-35.5	-35.7	14.1	0.00e+00	0	27	0	8631877632	38	14185
2026-01-09 11:06:36.17	10.94	29.02	-35.4	-35.6	14.2	0.00e+00	0	27	0	8740929536	38	14057
2026-01-09 11:06:37.16	10.80	29.27	-35.4	-35.6	14.2	0.00e+00	0	27	0	8849981440	38	13992
2026-01-09 11:06:38.15	10.65	29.52	-35.2	-35.4	14.1	1.90e-06	0	27	0	8967421952	37	14579
2026-01-09 11:06:39.14	10.49	29.77	-35.1	-35.3	14.1	0.00e+00	0	27	0	9076473856	37	14400
2026-01-09 11:06:40.13	10.34	30.02	-35.1	-35.3	14.2	0.00e+00	0	27	0	9185525760	37	14305
2026-01-09 11:06:41.13	10.18	30.28	-35.0	-35.2	14.2	0.00e+00	0	27	0	9294577664	37	14163
2026-01-09 11:06:42.12	10.02	30.54	-34.9	-35.1	14.2	0.00e+00	0	27	0	9412018176	37	14044
2026-01-09 11:06:43.11	9.85	30.80	-34.8	-35.0	14.1	0.00e+00	0	27	0	9521070080	36	14729
2026-01-09 11:06:44.10	9.69	31.07	-34.8	-35.1	14.1	0.00e+00	0	27	0	9638510592	36	14783
2026-01-09 11:06:45.10	9.51	31.34	-34.7	-34.9	14.2	0.00e+00	0	27	0	9747562496	36	14474
2026-01-09 11:06:46.10	9.34	31.61	-34.5	-34.7	14.3	0.00e+00	0	27	0	9865003008	36	14144
2026-01-09 11:06:47.09	9.16	31.88	-34.4	-34.6	14.3	0.00e+00	0	27	0	9965666304	36	14044
2026-01-09 11:06:48.09	8.98	32.16	-34.4	-34.6	14.3	0.00e+00	0	27	0	10083106816	36	14104
2026-01-09 11:06:49.08	8.80	32.44	-31.7	-31.9	14.1	0.00e+00	0	27	0	10192158720	30	14518
2026-01-09 11:06:50.07	8.61	32.72	-31.6	-31.8	14.1	0.00e+00	0	27	0	10309599232	30	14386
2026-01-09 11:06:51.05	8.43	33.00	-31.6	-31.8	14.1	0.00e+00	0	27	0	10418651136	30	14357
2026-01-09 11:06:52.05	8.23	33.29	-31.5	-31.7	14.2	0.00e+00	0	27	0	10527703040	30	14241
2026-01-09 11:06:53.04	8.03	33.57	-31.3	-31.5	14.1	0.00e+00	0	27	0	10636754944	29	14684
2026-01-09 11:06:54.03	7.83	33.87	-31.3	-31.6	14.1	0.00e+00	0	27	0	10745806848	29	14798
2026-01-09 11:06:55.02	7.63	34.16	-31.2	-31.4	14.2	0.00e+00	0	27	0	10863247360	29	14500
2026-01-09 11:06:56.01	7.42	34.46	-31.2	-31.4	14.2	0.00e+00	0	27	0	10972299264	29	14570
2026-01-09 11:06:57.01	7.20	34.76	-31.0	-31.2	14.3	0.00e+00	0	27	0	11089739776	29	14157
2026-01-09 11:06:58.00	6.98	35.06	-30.9	-31.1	14.3	0.00e+00	0	27	0	11198791680	29	14001
2026-01-09 11:06:58.99	6.76	35.37	-30.9	-31.1	14.3	0.00e+00	0	27	0	11307843584	29	14003
2026-01-09 11:06:59.98	6.54	35.68	-30.6	-30.9	14.2	0.00e+00	0	27	0	11416895488	28	14451
2026-01-09 11:07:00.98	6.30	35.99	-30.7	-30.9	14.2	0.00e+00	0	27	0	11534336000	28	14489
2026-01-09 11:07:01.97	6.07	36.30	-30.8	-31.0	14.2	0.00e+00	0	27	0	11643387904	28	14633
2026-01-09 11:07:02.97	5.82	36.62	-30.7	-30.9	14.2	0.00e+00	0	27	0	11760828416	28	14524
2026-01-09 11:07:03.96	5.58	36.94	-30.4	-30.6	14.3	0.00e+00	0	27	0	11869880320	28	14086
2026-01-09 11:07:04.96	5.32	37.27	-30.4	-30.6	14.2	0.00e+00	0	28	0	11978932224	27	14869
2026-01-09 11:07:05.94	5.07	37.59	-30.3	-30.6	14.2	0.00e+00	0	27	0	12096372736	27	14807
2026-01-09 11:07:06.95	4.80	37.93	-30.3	-30.5	14.3	0.00e+00	0	27	0	12205424640	27	14659
2026-01-09 11:07:07.94	4.53	38.26	-30.3	-30.5	14.3	0.00e+00	0	27	0	12314476544	27	14646
2026-01-09 11:07:08.93	4.26	38.60	-30.1	-30.3	14.3	0.00e+00	0	27	0	12423528448	27	14315
2026-01-09 11:07:09.93	3.98	38.94	-30.0	-30.2	14.4	0.00e+00	0	27	0	12540968960	27	14234
2026-01-09 11:07:10.92	3.69	39.28	-29.9	-30.1	14.4	0.00e+00	0	27	0	12650020864	27	14041
2026-01-09 11:07:11.92	3.40	39.63	-29.8	-30.0	14.3	0.00e+00	0	27	0	12767461376	26	14746
2026-01-09 11:07:12.90	3.10	39.97	-29.7	-29.9	14.3	0.00e+00	0	27	0	12876513280	26	14491
2026-01-09 11:07:13.90	2.79	40.33	-29.8	-30.0	14.3	0.00e+00	0	27	0	12985565184	26	14707
2026-01-09 11:07:14.90	2.47	40.68	-29.7	-29.9	14.3	0.00e+00	0	27	0	13103005696	26	14504
2026-01-09 11:07:15.90	2.15	41.04	-29.6	-29.8	14.3	0.00e+00	0	28	0	13212057600	26	14347
2026-01-09 11:07:16.90	1.82	41.41	-29.4	-29.7	14.4	0.00e+00	0	28	0	13329498112	26	14118
2026-01-09 11:07:17.89	1.48	41.77	-29.2	-29.4	14.4	0.00e+00	0	28	0	13430161408	25	14508
2026-01-09 11:07:18.87	1.14	42.13	-29.2	-29.4	14.3	0.00e+00	0	27	0	13547601920	25	14605
2026-01-09 11:07:19.86	0.79	42.50	-29.0	-29.2	14.4	0.00e+00	0	27	0	13656653824	25	14239
2026-01-09 11:07:20.85	0.43	42.87	-29.0	-29.2	14.4	0.00e+00	0	28	0	13774094336	25	14213
2026-01-09 11:07:21.84	0.06	43.24	-29.0	-29.2	14.4	0.00e+00	0	27	0	13883146240	25	14228
2026-01-09 11:07:22.83	359.68	43.62	-28.9	-29.1	14.4	0.00e+00	0	27	0	13992198144	25	14039
2026-01-09 11:07:23.81	359.29	44.00	-28.9	-29.1	14.4	0.00e+00	0	27	0	14101250048	25	14060
2026-01-09 11:07:24.81	358.89	44.38	-28.8	-29.0	14.3	0.00e+00	0	27	0	14218690560	24	14754
2026-01-09 11:07:25.80	358.48	44.77	-28.7	-28.9	14.3	0.00e+00	0	27	0	14327742464	24	14532
2026-01-09 11:07:26.79	358.06	45.15	-28.6	-28.9	14.4	0.00e+00	0	27	0	14436794368	24	14452
2026-01-09 11:07:27.77	357.64	45.54	-28.6	-28.8	14.4	0.00e+00	0	28	0	14545846272	24	14318
2026-01-09 11:07:28.77	357.19	45.94	-28.6	-28.8	14.4	0.00e+00	0	28	0	14663286784	24	14348
2026-01-09 11:07:29.76	356.74	46.33	-28.4	-28.7	14.4	0.00e+00	0	27	0	14772338688	24	14128
2026-01-09 11:07:30.74	356.28	46.72	-28.4	-28.7	14.5	0.00e+00	0	27	0	14881390592	24	14112
2026-01-09 11:07:31.73	355.80	47.12	-28.4	-28.6	14.5	0.00e+00	0	27	0	14990442496	24	14013
2026-01-09 11:07:32.72	355.31	47.52	-28.3	-28.5	14.4	0.00e+00	0	27	0	15099494400	23	14696
2026-01-09 11:07:33.71	354.81	47.93	-28.2	-28.4	14.4	0.00e+00	0	28	0	15216934912	23	14554
2026-01-09 11:07:34.70	354.29	48.33	-28.2	-28.4	14.4	0.00e+00	0	28	0	15325986816	23	14442
2026-01-09 11:07:35.70	353.76	48.74	-28.2	-28.4	14.4	0.00e+00	0	27	0	15443427328	23	14484
2026-01-09 11:07:36.69	353.21	49.15	-28.0	-28.2	14.5	0.00e+00	0	28	0	15544090624	23	14230
2026-01-09 11:07:37.68	352.65	49.56	-28.0	-28.2	14.5	0.00e+00	0	27	0	15661531136	23	14173
2026-01-09 11:07:38.67	352.07	49.97	-28.0	-28.2	14.5	0.00e+00	0	27	0	15770583040	23	14181
2026-01-09 11:07:39.67	351.48	50.38	-27.8	-28.0	14.4	0.00e+00	0	27	0	15888023552	22	14728
2026-01-09 11:07:40.66	350.87	50.80	-27.8	-28.0	14.4	0.00e+00	0	27	0	15997075456	22	14724
2026-01-09 11:07:41.67	350.22	51.22	-27.8	-28.0	14.4	0.00e+00	0	28	0	16114515968	22	14628
2026-01-09 11:07:42.66	349.58	51.63	-27.8	-28.0	14.4	0.00e+00	0	28	0	16223567872	22	14681
2026-01-09 11:07:43.66	348.91	52.05	-27.7	-27.9	14.5	0.00e+00	0	27	0	16332619776	22	14587
2026-01-09 11:07:44.65	348.22	52.46	-27.7	-27.9	14.4	0.00e+00	0	27	0	16450060288	22	14586
2026-01-09 11:07:45.64	347.52	52.87	-27.7	-27.9	14.5	0.00e+00	0	28	0	16559112192	22	14477
2026-01-09 11:07:46.64	346.79	53.29	-27.7	-27.9	14.4	0.00e+00	0	28	0	16676552704	22	14588
2026-01-09 11:07:47.63	346.04	53.70	-27.9	-28.1	14.4	0.00e+00	0	27	0	16777216000	22	14827
2026-01-09 11:07:48.62	345.28	54.11	-27.7	-27.9	14.4	0.00e+00	0	27	0	16894656512	22	14488
2026-01-09 11:07:49.61	344.48	54.51	-27.5	-27.7	14.5	0.00e+00	0	28	0	17003708416	22	14146
2026-01-09 11:07:50.60	343.67	54.92	-27.5	-27.7	14.5	0.00e+00	0	27	0	17121148928	22	14133
2026-01-09 11:07:51.60	342.83	55.32	-27.5	-27.7	14.5	0.00e+00	0	27	0	17230200832	22	14249
2026-01-09 11:07:52.60	341.95	55.73	-27.4	-27.6	14.5	0.00e+00	0	27	0	17339252736	22	14043
2026-01-09 11:07:53.59	341.07	56.12	-27.2	-27.5	14.4	0.00e+00	0	28	0	17448304640	21	14646
2026-01-09 11:07:54.58	340.15	56.52	-27.2	-27.4	14.4	0.00e+00	0	27	0	17565745152	21	14588
2026-01-09 11:07:55.57	339.21	56.91	-27.2	-27.5	14.4	0.00e+00	0	27	0	17674797056	21	14608
2026-01-09 11:07:56.57	338.23	57.29	-27.2	-27.4	14.4	0.00e+00	0	27	0	17783848960	21	14585
2026-01-09 11:07:57.55	337.25	57.67	-27.1	-27.4	14.5	0.00e+00	0	28	0	17901289472	21	14454
2026-01-09 11:07:58.54	336.22	58.04	-27.1	-27.3	14.5	0.00e+00	0	27	0	18001952768	21	14351
2026-01-09 11:07:59.54	335.16	58.41	-27.1	-27.3	14.5	0.00e+00	0	28	0	18119393280	21	14331
2026-01-09 11:08:00.53	334.07	58.77	-27.0	-27.2	14.5	0.00e+00	0	28	0	18228445184	21	14235
2026-01-09 11:08:01.52	332.96	59.12	-27.0	-27.2	14.5	0.00e+00	0	28	0	18345885696	21	14186
2026-01-09 11:08:02.51	331.81	59.47	-27.0	-27.2	14.5	0.00e+00	0	27	0	18454937600	21	14273
2026-01-09 11:08:03.50	330.64	59.80	-27.0	-27.1	14.5	0.00e+00	0	27	0	18572378112	21	14111
2026-01-09 11:08:04.50	329.42	60.13	-27.0	-27.3	14.5	0.00e+00	0	28	0	18681430016	21	14279
2026-01-09 11:08:05.49	328.18	60.45	-27.0	-27.2	14.5	0.00e+00	0	28	0	18790481920	21	14160
2026-01-09 11:08:06.48	326.91	60.76	-26.9	-27.1	14.6	0.00e+00	0	27	0	18899533824	21	14045
2026-01-09 11:08:07.47	325.61	61.05	-26.9	-27.1	14.5	0.00e+00	0	28	0	19016974336	21	14047
2026-01-09 11:08:08.45	324.30	61.33	-26.9	-27.1	14.5	0.00e+00	0	28	0	19126026240	21	14087
2026-01-09 11:08:09.43	322.95	61.60	-26.9	-27.1	14.5	0.00e+00	0	27	0	19235078144	21	14073
2026-01-09 11:08:10.42	321.56	61.86	-26.9	-27.1	14.5	0.00e+00	0	28	0	19344130048	21	14100
2026-01-09 11:08:11.42	320.13	62.11	-26.9	-27.1	14.5	0.00e+00	0	28	0	19453181952	21	14041
2026-01-09 11:08:12.41	318.68	62.34	-26.8	-27.0	14.4	0.00e+00	0	28	0	19570622464	20	14702
2026-01-09 11:08:13.40	317.20	62.55	-26.8	-27.0	14.4	0.00e+00	0	27	0	19679674368	20	14721
2026-01-09 11:08:14.40	315.69	62.75	-26.8	-27.0	14.4	0.00e+00	0	27	0	19797114880	20	14644
2026-01-09 11:08:15.39	314.16	62.94	-26.8	-27.0	14.4	0.00e+00	0	28	0	19906166784	20	14752
2026-01-09 11:08:16.39	312.60	63.11	-26.7	-27.0	14.4	0.00e+00	0	28	0	20015218688	20	14637
2026-01-09 11:08:17.38	311.03	63.26	-26.8	-27.0	14.4	0.00e+00	0	27	0	20124270592	20	14658
2026-01-09 11:08:18.38	309.42	63.39	-26.8	-27.0	14.4	0.00e+00	0	27	0	20241711104	20	14694
2026-01-09 11:08:19.37	307.82	63.50	-26.7	-27.0	14.4	0.00e+00	0	28	0	20350763008	20	14620
2026-01-09 11:08:20.36	306.20	63.60	-26.9	-27.1	14.4	0.00e+00	0	28	0	20468203520	20	14848
2026-01-09 11:08:21.34	304.58	63.68	-26.9	-27.1	14.4	0.00e+00	0	28	0	20577255424	20	14875
2026-01-09 11:08:22.34	302.92	63.73	-26.8	-27.0	14.4	0.00e+00	0	28	0	20686307328	20	14715
2026-01-09 11:08:23.33	301.27	63.77	-26.7	-26.9	14.5	0.00e+00	0	28	0	20795359232	20	14595
2026-01-09 11:08:24.31	299.64	63.79	-26.8	-27.0	14.4	0.00e+00	0	28	0	20904411136	20	14736
2026-01-09 11:08:25.32	297.95	63.79	-26.8	-27.0	14.4	0.00e+00	0	28	0	21021851648	20	14693
2026-01-09 11:08:26.31	296.30	63.77	-26.8	-27.0	14.5	0.00e+00	0	27	0	21130903552	20	14628
2026-01-09 11:08:27.29	294.66	63.73	-26.8	-27.0	14.5	0.00e+00	0	28	0	21239955456	20	14622
2026-01-09 11:08:28.29	293.00	63.68	-26.8	-27.0	14.4	0.00e+00	0	27	0	21349007360	20	14700
2026-01-09 11:08:29.28	291.37	63.60	-26.8	-27.0	14.4	0.00e+00	0	28	0	21466447872	20	14766
2026-01-09 11:08:30.27	289.75	63.50	-26.8	-27.0	14.4	0.00e+00	0	28	0	21575499776	20	14653
2026-01-09 11:08:31.26	288.14	63.39	-26.9	-27.1	14.4	0.00e+00	0	27	0	21692940288	20	14864
2026-01-09 11:08:32.25	286.56	63.26	-26.7	-27.0	14.5	0.00e+00	0	28	0	21801992192	20	14624
2026-01-09 11:08:33.24	284.98	63.11	-26.9	-27.1	14.4	0.00e+00	0	28	0	21911044096	20	14811
2026-01-09 11:08:34.23	283.44	62.94	-26.8	-27.0	14.5	0.00e+00	0	28	0	22020096000	20	14701
2026-01-09 11:08:35.23	281.89	62.76	-26.9	-27.1	14.4	0.00e+00	0	27	0	22137536512	20	14920
2026-01-09 11:08:36.23	280.38	62.55	-26.9	-27.1	14.4	0.00e+00	0	28	0	22246588416	20	14922
2026-01-09 11:08:37.22	278.90	62.34	-26.9	-27.1	14.4	0.00e+00	0	28	0	22355640320	20	14886
2026-01-09 11:08:38.21	277.45	62.11	-26.9	-27.1	14.4	0.00e+00	0	27	0	22473080832	20	14871
2026-01-09 11:08:39.21	276.02	61.86	-26.9	-27.1	14.4	0.00e+00	0	28	0	22582132736	20	14905
2026-01-09 11:08:40.20	274.63	61.60	-26.9	-27.1	14.4	0.00e+00	0	27	0	22699573248	20	14860
2026-01-09 11:08:41.20	273.25	61.33	-26.9	-27.2	14.4	0.00e+00	0	28	0	22808625152	20	14963
2026-01-09 11:08:42.19	271.92	61.04	-27.0	-27.2	14.4	0.00e+00	0	28	0	22917677056	20	15022
2026-01-09 11:08:43.18	270.62	60.75	-27.0	-27.2	14.4	0.00e+00	0	28	0	23026728960	20	15009
2026-01-09 11:08:44.19	269.33	60.43	-27.0	-27.2	14.4	0.00e+00	0	28	0	23144169472	20	15007
2026-01-09 11:08:45.18	268.09	60.12	-27.0	-27.2	14.4	0.00e+00	0	28	0	23253221376	20	15069
2026-01-09 11:08:46.18	266.87	59.79	-27.0	-27.2	14.4	0.00e+00	0	28	0	23370661888	20	15089
2026-01-09 11:08:47.17	265.70	59.45	-27.0	-27.2	14.4	0.00e+00	0	27	0	23479713792	20	15055
2026-01-09 11:08:48.17	264.54	59.10	-27.1	-27.3	14.4	0.00e+00	0	28	0	23588765696	20	15170
2026-01-09 11:08:49.15	263.44	58.75	-27.1	-27.3	14.4	0.00e+00	0	28	0	23706206208	20	15276
2026-01-09 11:08:50.14	262.35	58.39	-27.1	-27.3	14.4	0.00e+00	0	28	0	23815258112	20	15246
2026-01-09 11:08:51.14	261.29	58.02	-27.3	-27.5	14.4	0.00e+00	0	28	0	23924310016	20	15589
2026-01-09 11:08:52.13	260.27	57.65	-27.2	-27.4	14.4	0.00e+00	0	28	0	24033361920	20	15348
2026-01-09 11:08:53.12	259.27	57.27	-27.2	-27.5	14.4	0.00e+00	0	28	0	24150802432	20	15526
2026-01-09 11:08:54.11	258.30	56.88	-27.3	-27.6	14.3	0.00e+00	0	28	0	24259854336	20	15663
2026-01-09 11:08:55.10	257.36	56.49	-27.2	-27.4	14.4	0.00e+00	0	28	0	24377294848	20	15468
2026-01-09 11:08:56.09	256.45	56.10	-27.3	-27.5	14.3	0.00e+00	0	28	0	24486346752	20	15603
2026-01-09 11:08:57.09	255.55	55.70	-27.4	-27.6	14.3	0.00e+00	0	28	0	24595398656	20	15823
2026-01-09 11:08:58.08	254.69	55.30	-27.4	-27.6	14.3	0.00e+00	0	28	0	24704450560	20	15765
2026-01-09 11:08:59.07	253.85	54.89	-27.4	-27.6	14.3	0.00e+00	0	28	0	24821891072	20	15824
2026-01-09 11:09:00.05	253.05	54.49	-27.4	-27.6	14.3	0.00e+00	0	27	0	24930942976	20	15827
2026-01-09 11:09:01.05	252.25	54.08	-27.5	-27.7	14.3	0.00e+00	0	27	0	25039994880	20	15960
2026-01-09 11:09:02.04	251.48	53.67	-27.5	-27.7	14.3	0.00e+00	0	27	0	25149046784	20	15996
2026-01-09 11:09:03.02	250.74	53.26	-27.7	-27.9	14.4	0.00e+00	0	28	0	25258098688	21	15367
2026-01-09 11:09:04.02	250.01	52.85	-27.6	-27.8	14.4	0.00e+00	0	28	0	25375539200	21	15240
2026-01-09 11:09:05.01	249.31	52.43	-27.7	-27.9	14.4	0.00e+00	0	28	0	25484591104	21	15356
2026-01-09 11:09:06.00	248.62	52.02	-27.7	-28.0	14.3	0.00e+00	0	28	0	25602031616	21	15487
2026-01-09 11:09:06.99	247.96	51.61	-27.9	-28.1	14.3	0.00e+00	0	28	0	25702694912	21	15727
2026-01-09 11:09:07.98	247.31	51.19	-27.8	-28.0	14.3	0.00e+00	0	28	0	25820135424	21	15574
2026-01-09 11:09:08.97	246.68	50.78	-27.9	-28.1	14.3	0.00e+00	0	28	0	25929187328	21	15785
2026-01-09 11:09:09.96	246.07	50.37	-27.9	-28.1	14.3	0.00e+00	0	28	0	26046627840	21	15795
2026-01-09 11:09:10.95	245.48	49.96	-27.9	-28.1	14.3	0.00e+00	0	27	0	26155679744	21	15735
2026-01-09 11:09:11.94	244.90	49.55	-28.0	-28.2	14.3	0.00e+00	0	28	0	26273120256	21	15929
2026-01-09 11:09:12.94	244.34	49.13	-28.0	-28.2	14.3	0.00e+00	0	28	0	26373783552	21	15996
2026-01-09 11:09:13.92	243.79	48.73	-28.1	-28.3	14.4	0.00e+00	0	28	0	26491224064	22	15285
2026-01-09 11:09:14.91	243.26	48.32	-28.1	-28.4	14.3	0.00e+00	0	27	0	26600275968	22	15328
2026-01-09 11:09:15.91	242.74	47.91	-28.2	-28.4	14.3	0.00e+00	0	28	0	26709327872	22	15473
2026-01-09 11:09:16.90	242.24	47.51	-28.2	-28.5	14.3	0.00e+00	0	28	0	26826768384	22	15505
2026-01-09 11:09:17.90	241.74	47.10	-28.3	-28.6	14.3	0.00e+00	0	28	0	26935820288	22	15692
2026-01-09 11:09:18.89	241.26	46.70	-28.4	-28.7	14.3	0.00e+00	0	27	0	27053260800	22	15908
2026-01-09 11:09:19.89	240.79	46.30	-28.6	-28.8	14.3	0.00e+00	0	28	0	27153924096	22	16102
2026-01-09 11:09:20.87	240.35	45.91	-28.6	-28.9	14.3	0.00e+00	0	28	0	27271364608	23	15334
2026-01-09 11:09:21.87	239.90	45.51	-28.6	-28.9	14.3	0.00e+00	0	28	0	27380416512	23	15306
2026-01-09 11:09:22.86	239.47	45.12	-58.2	-61.8	6.2	0.00e+00	0	27	104	27430748160	82	22785
2026-01-09 11:09:23.86	239.05	44.73	-58.2	-61.8	6.2	0.00e+00	0	27	104	27430748160	82	22702
2026-01-09 11:09:24.86	238.63	44.34	-58.3	-61.8	6.2	0.00e+00	0	27	104	27430748160	82	22788
2026-01-09 11:09:25.84	238.24	43.96	-58.4	-61.8	6.2	0.00e+00	0	27	104	27430748160	82	22797
2026-01-09 11:09:26.84	237.85	43.58	-58.8	-62.0	6.2	0.00e+00	0	27	104	27430748160	83	22017
2026-01-09 11:09:27.83	237.47	43.20	-58.7	-61.9	6.2	0.00e+00	0	27	104	27430748160	83	21830
2026-01-09 11:09:28.82	237.10	42.83	-58.6	-61.9	6.2	0.00e+00	0	27	104	27430748160	83	21833
2026-01-09 11:09:29.82	236.73	42.45	-58.4	-61.8	6.2	0.00e+00	0	27	104	27430748160	83	21568
2026-01-09 11:09:30.82	236.38	42.08	-58.7	-61.9	6.2	0.00e+00	0	27	104	27430748160	83	21843
2026-01-09 11:09:31.82	236.03	41.71	-58.7	-61.9	6.2	0.00e+00	0	27	104	27430748160	83	21812
2026-01-09 11:09:32.81	235.69	41.34	-58.7	-61.9	6.2	0.00e+00	0	27	104	27430748160	83	21827
2026-01-09 11:09:33.81	235.36	40.98	-58.5	-61.9	6.2	0.00e+00	0	27	104	27430748160	83	21707
2026-01-09 11:09:34.81	235.04	40.62	-58.7	-62.0	6.1	0.00e+00	0	27	104	27430748160	83	21906
2026-01-09 11:09:35.80	234.72	40.27	-58.7	-61.9	6.2	0.00e+00	0	27	104	27430748160	83	21847
2026-01-09 11:09:36.79	234.42	39.92	-58.6	-61.9	6.2	0.00e+00	0	27	104	27430748160	83	21798
2026-01-09 11:09:37.78	234.12	39.57	-58.5	-61.9	6.2	0.00e+00	0	27	104	27430748160	83	21724
2026-01-09 11:09:38.78	233.82	39.22	-58.7	-62.0	6.2	0.00e+00	0	27	104	27430748160	83	21858
2026-01-09 11:09:39.77	233.54	38.88	-58.7	-62.0	6.2	0.00e+00	0	27	104	27430748160	83	21887
2026-01-09 11:09:40.76	233.26	38.54	-58.6	-61.9	6.2	0.00e+00	0	27	104	27430748160	83	21719
2026-01-09 11:09:41.75	232.98	38.20	-58.6	-61.9	6.2	0.00e+00	0	27	104	27430748160	83	21719
2026-01-09 11:09:42.74	232.72	37.87	-58.7	-61.9	6.1	0.00e+00	0	27	104	27430748160	83	21826
2026-01-09 11:09:43.74	232.45	37.54	-58.7	-61.9	6.2	0.00e+00	0	27	104	27430748160	83	21745
2026-01-09 11:09:44.74	232.19	37.21	-58.6	-61.9	6.2	0.00e+00	0	27	104	27430748160	83	21674
2026-01-09 11:09:45.74	231.94	36.88	-58.5	-61.8	6.2	0.00e+00	0	27	104	27430748160	83	21561
2026-01-09 11:09:46.74	231.69	36.56	-58.7	-61.9	6.2	0.00e+00	0	27	104	27430748160	83	21714
2026-01-09 11:09:47.73	231.45	36.24	-58.6	-61.9	6.2	0.00e+00	0	27	104	27430748160	83	21654
2026-01-09 11:09:48.72	231.21	35.93	-58.6	-61.9	6.2	0.00e+00	0	27	104	27430748160	83	21625
2026-01-09 11:09:49.73	230.98	35.61	-58.5	-61.8	6.2	0.00e+00	0	27	104	27430748160	83	21530
2026-01-09 11:09:50.73	230.75	35.30	-58.6	-61.8	6.2	0.00e+00	0	27	104	27430748160	83	21598
2026-01-09 11:09:51.73	230.52	34.99	-58.6	-61.8	6.2	0.00e+00	0	27	104	27430748160	83	21600
2026-01-09 11:09:52.72	230.31	34.68	-58.6	-61.8	6.2	0.00e+00	0	27	104	27430748160	83	21543
2026-01-09 11:09:53.72	230.09	34.38	-58.5	-61.8	6.2	0.00e+00	0	27	104	27430748160	83	21403
2026-01-09 11:09:54.72	229.88	34.08	-58.6	-61.8	6.2	0.00e+00	0	27	104	27430748160	83	21493
2026-01-09 11:09:55.71	229.68	33.79	-58.6	-61.8	6.2	0.00e+00	0	27	104	27430748160	83	21531
2026-01-09 11:09:56.71	229.47	33.49	-58.5	-61.8	6.2	0.00e+00	0	27	104	27430748160	83	21457
2026-01-09 11:09:57.71	229.27	33.20	-58.5	-61.8	6.2	0.00e+00	0	27	104	27430748160	83	21380
2026-01-09 11:09:58.70	229.08	32.92	-58.6	-61.8	6.2	0.00e+00	0	27	104	27430748160	83	21427
2026-01-09 11:09:59.70	228.89	32.63	-58.6	-61.8	6.2	0.00e+00	0	27	104	27430748160	83	21408
2026-01-09 11:10:00.69	228.70	32.35	-58.5	-61.8	6.2	0.00e+00	0	27	104	27430748160	83	21474
2026-01-09 11:10:01.69	228.52	32.07	-58.5	-61.7	6.2	0.00e+00	0	27	104	27430748160	83	21354
2026-01-09 11:10:02.68	228.34	31.79	-58.5	-61.8	6.2	0.00e+00	0	27	104	27430748160	83	21399
2026-01-09 11:10:03.68	228.16	31.52	-58.5	-61.8	6.2	0.00e+00	0	27	104	27430748160	83	21419
2026-01-09 11:10:04.67	227.99	31.25	-58.5	-61.8	6.2	0.00e+00	0	27	104	27430748160	83	21393
2026-01-09 11:10:05.66	227.82	30.98	-58.5	-61.7	6.2	0.00e+00	0	27	104	27430748160	83	21204
2026-01-09 11:10:06.66	227.65	30.72	-58.5	-61.7	6.2	0.00e+00	0	27	104	27430748160	83	21300
2026-01-09 11:10:07.65	227.49	30.45	-58.5	-61.7	6.2	0.00e+00	0	27	104	27430748160	83	21274
2026-01-09 11:10:08.65	227.32	30.19	-58.5	-61.7	6.2	0.00e+00	0	27	104	27430748160	83	21279
2026-01-09 11:10:09.65	227.16	29.93	-58.4	-61.7	6.2	0.00e+00	0	27	104	27430748160	83	21239
2026-01-09 11:10:10.64	227.01	29.68	-58.5	-61.7	6.2	0.00e+00	0	27	104	27430748160	83	21348
2026-01-09 11:10:11.63	226.86	29.43	-58.5	-61.7	6.2	0.00e+00	0	27	104	27430748160	83	21269
2026-01-09 11:10:12.63	226.71	29.17	-58.4	-61.7	6.2	0.00e+00	0	27	104	27430748160	83	21200
2026-01-09 11:10:13.63	226.56	28.92	-58.4	-61.6	6.2	0.00e+00	0	27	104	27430748160	83	21109
2026-01-09 11:10:14.62	226.41	28.68	-58.5	-61.7	6.2	0.00e+00	0	27	104	27430748160	83	21173
2026-01-09 11:10:15.61	226.27	28.44	-58.4	-61.7	6.2	0.00e+00	0	27	104	27430748160	83	21170
2026-01-09 11:10:16.60	226.13	28.20	-58.4	-61.7	6.2	0.00e+00	0	27	104	27430748160	83	21125
2026-01-09 11:10:17.59	225.99	27.96	-58.4	-61.6	6.2	0.00e+00	0	27	104	27430748160	83	21054
2026-01-09 11:10:18.59	225.85	27.72	-58.4	-61.6	6.2	0.00e+00	0	27	104	27430748160	83	21065
2026-01-09 11:10:19.57	225.72	27.49	-58.4	-61.7	6.2	0.00e+00	0	27	104	27430748160	83	21139
2026-01-09 11:10:20.57	225.59	27.25	-58.4	-61.6	6.2	0.00e+00	0	27	104	27430748160	83	21062
2026-01-09 11:10:21.56	225.46	27.02	-58.4	-61.6	6.2	0.00e+00	0	27	104	27430748160	83	20953
2026-01-09 11:10:22.55	225.33	26.80	-58.4	-61.6	6.2	0.00e+00	0	27	104	27430748160	83	21064
2026-01-09 11:10:23.54	225.21	26.57	-58.4	-61.6	6.2	0.00e+00	0	27	104	27430748160	83	21030
2026-01-09 11:10:24.53	225.08	26.35	-58.4	-61.6	6.2	0.00e+00	0	27	104	27430748160	83	21063
2026-01-09 11:10:25.53	224.96	26.13	-58.3	-61.6	6.2	0.00e+00	0	27	104	27430748160	83	20970
2026-01-09 11:10:26.52	224.84	25.91	-58.4	-61.6	6.2	0.00e+00	0	27	104	27430748160	83	20985
2026-01-09 11:10:27.52	224.72	25.69	-58.4	-61.6	6.2	0.00e+00	0	27	104	27430748160	83	21000
2026-01-09 11:10:28.50	224.61	25.47	-58.3	-61.6	6.2	0.00e+00	0	27	104	27430748160	83	20983
2026-01-09 11:10:29.49	224.49	25.26	-58.3	-61.6	6.2	0.00e+00	0	27	104	27430748160	83	20914
2026-01-09 11:10:30.48	224.38	25.05	-58.3	-61.5	6.2	0.00e+00	0	27	104	27430748160	83	20798
2026-01-09 11:10:31.48	224.27	24.84	-58.3	-61.5	6.2	0.00e+00	0	27	104	27430748160	83	20829
2026-01-09 11:10:32.47	224.16	24.63	-58.3	-61.5	6.2	0.00e+00	0	27	104	27430748160	83	20865
2026-01-09 11:10:33.47	224.05	24.42	-58.3	-61.5	6.2	0.00e+00	0	27	104	27430748160	83	20798
2026-01-09 11:10:34.46	223.95	24.22	-58.3	-61.5	6.2	0.00e+00	0	27	104	27430748160	83	20838
2026-01-09 11:10:35.45	223.84	24.02	-58.3	-61.6	6.2	0.00e+00	0	27	104	27430748160	83	20894
2026-01-09 11:10:36.45	223.74	23.82	-58.3	-61.5	6.2	0.00e+00	0	27	104	27430748160	83	20847
2026-01-09 11:10:37.45	223.64	23.62	-58.3	-61.5	6.2	0.00e+00	0	27	104	27430748160	83	20770
2026-01-09 11:10:38.44	223.54	23.42	-58.3	-61.5	6.2	0.00e+00	0	27	104	27430748160	83	20790
2026-01-09 11:10:39.44	223.44	23.22	-58.3	-61.5	6.2	0.00e+00	0	27	104	27430748160	83	20860
2026-01-09 11:10:40.44	223.34	23.03	-58.3	-61.5	6.1	0.00e+00	0	27	104	27430748160	83	20867
2026-01-09 11:10:41.44	223.24	22.83	-58.3	-61.5	6.2	0.00e+00	0	27	104	27430748160	83	20721
2026-01-09 11:10:42.43	223.15	22.64	-58.3	-61.5	6.2	0.00e+00	0	27	104	27430748160	83	20721
2026-01-09 11:10:43.43	223.05	22.45	-58.3	-61.5	6.2	0.00e+00	0	27	104	27430748160	83	20814
2026-01-09 11:10:44.43	222.96	22.26	-58.3	-61.5	6.2	0.00e+00	0	27	104	27430748160	83	20726
2026-01-09 11:10:45.43	222.87	22.08	-58.3	-61.5	6.2	0.00e+00	0	27	104	27430748160	83	20682
2026-01-09 11:10:46.43	222.78	21.89	-58.2	-61.5	6.2	0.00e+00	0	27	104	27430748160	83	20667
2026-01-09 11:10:47.42	222.69	21.71	-58.3	-61.5	6.2	0.00e+00	0	27	104	27430748160	83	20672
2026-01-09 11:10:48.41	222.61	21.53	-58.2	-61.4	6.2	0.00e+00	0	27	104	27430748160	83	20628
2026-01-09 11:10:49.41	222.52	21.35	-58.2	-61.4	6.2	0.00e+00	0	27	104	27430748160	83	20633
2026-01-09 11:10:50.40	222.44	21.17	-58.2	-61.4	6.2	0.00e+00	0	27	104	27430748160	83	20536
2026-01-09 11:10:51.40	222.35	20.99	-58.2	-61.4	6.2	0.00e+00	0	27	104	27430748160	83	20604
2026-01-09 11:10:52.40	222.27	20.82	-58.2	-61.4	6.2	0.00e+00	0	27	104	27430748160	83	20599
2026-01-09 11:10:53.40	222.19	20.64	-58.2	-61.4	6.2	0.00e+00	0	27	104	27430748160	83	20577
2026-01-09 11:10:54.39	222.11	20.47	-58.2	-61.4	6.2	0.00e+00	0	27	104	27430748160	83	20527
2026-01-09 11:10:55.39	222.03	20.30	-58.2	-61.4	6.2	0.00e+00	0	27	104	27430748160	83	20602
2026-01-09 11:10:56.38	221.95	20.13	-58.2	-61.4	6.2	0.00e+00	0	27	104	27430748160	83	20476
2026-01-09 11:10:57.39	221.87	19.96	-58.2	-61.4	6.2	0.00e+00	0	27	104	27430748160	83	20560
2026-01-09 11:10:58.38	221.79	19.79	-58.2	-61.4	6.2	0.00e+00	0	27	104	27430748160	83	20611
2026-01-09 11:10:59.38	221.72	19.62	-58.2	-61.4	6.2	0.00e+00	0	27	104	27430748160	83	20616
2026-01-09 11:11:00.37	221.64	19.46	-58.2	-61.4	6.2	0.00e+00	0	27	104	27430748160	83	20462
2026-01-09 11:11:01.36	221.57	19.30	-58.2	-61.4	6.2	0.00e+00	0	27	104	27430748160	83	20498
2026-01-09 11:11:02.36	221.50	19.14	-58.1	-61.4	6.2	0.00e+00	0	27	104	27430748160	83	20461
2026-01-09 11:11:03.35	221.43	18.98	-58.2	-61.4	6.2	0.00e+00	0	27	104	27430748160	83	20465
2026-01-09 11:11:04.34	221.36	18.82	-58.2	-61.4	6.2	0.00e+00	0	27	104	27430748160	83	20485
2026-01-09 11:11:05.35	221.29	18.66	-58.2	-61.3	6.2	0.00e+00	0	27	104	27430748160	83	20390
2026-01-09 11:11:06.34	221.22	18.50	-58.1	-61.3	6.2	0.00e+00	0	27	104	27430748160	83	20370
2026-01-09 11:11:07.33	221.15	18.34	-58.1	-61.4	6.2	0.00e+00	0	27	104	27430748160	83	20420
2026-01-09 11:11:08.32	221.08	18.19	-58.1	-61.4	6.2	0.00e+00	0	27	104	27430748160	83	20410
2026-01-09 11:11:09.31	221.02	18.04	-58.1	-61.3	6.2	0.00e+00	0	27	104	27430748160	83	20391
2026-01-09 11:11:10.30	220.95	17.89	-58.1	-61.3	6.2	0.00e+00	0	27	104	27430748160	83	20327
2026-01-09 11:11:11.29	220.89	17.74	-58.1	-61.3	6.2	0.00e+00	0	27	104	27430748160	83	20363
2026-01-09 11:11:12.28	220.82	17.59	-58.1	-61.3	6.2	0.00e+00	0	27	104	27430748160	83	20318
2026-01-09 11:11:13.27	220.76	17.44	-58.1	-61.3	6.2	0.00e+00	0	27	104	27430748160	83	20312
2026-01-09 11:11:14.26	220.70	17.29	-58.1	-61.3	6.2	0.00e+00	0	27	104	27430748160	83	20391
2026-01-09 11:11:15.25	220.63	17.14	-58.1	-61.3	6.2	0.00e+00	0	27	104	27430748160	83	20266
2026-01-09 11:11:16.25	220.57	17.00	-58.1	-61.3	6.2	0.00e+00	0	27	104	27430748160	83	20183
2026-01-09 11:11:17.25	220.51	16.85	-58.1	-61.3	6.2	0.00e+00	0	27	104	27430748160	83	20296
2026-01-09 11:11:18.24	220.45	16.71	-58.1	-61.3	6.2	0.00e+00	0	27	104	27430748160	83	20259
2026-01-09 11:11:19.23	220.39	16.57	-58.1	-61.3	6.2	0.00e+00	0	27	104	27430748160	83	20247
2026-01-09 11:11:20.23	220.33	16.42	-58.0	-61.3	6.2	0.00e+00	0	27	104	27430748160	83	20211
2026-01-09 11:11:21.22	220.28	16.28	-58.1	-61.3	6.2	0.00e+00	0	27	104	27430748160	83	20299
2026-01-09 11:11:22.20	220.22	16.15	-58.0	-61.3	6.2	0.00e+00	0	27	104	27430748160	83	20205
2026-01-09 11:11:23.19	220.16	16.01	-58.1	-61.3	6.2	0.00e+00	0	27	104	27430748160	83	20225
2026-01-09 11:11:24.19	220.11	15.87	-58.0	-61.3	6.2	0.00e+00	0	27	104	27430748160	83	20183
2026-01-09 11:11:25.18	220.05	15.73	-58.1	-61.2	6.1	0.00e+00	0	27	104	27430748160	83	20157
2026-01-09 11:11:26.17	220.00	15.60	-58.0	-61.3	6.2	0.00e+00	0	27	104	27430748160	83	20190
2026-01-09 11:11:27.17	219.94	15.46	-58.0	-61.2	6.2	0.00e+00	0	27	104	27430748160	83	20101
2026-01-09 11:11:28.15	219.89	15.33	-58.0	-61.2	6.2	0.00e+00	0	27	104	27430748160	83	20116
2026-01-09 11:11:29.14	219.84	15.20	-58.0	-61.3	6.2	0.00e+00	0	27	104	27430748160	83	20230
2026-01-09 11:11:30.14	219.79	15.07	-58.0	-61.2	6.2	0.00e+00	0	27	104	27430748160	83	20115
2026-01-09 11:11:31.13	219.74	14.93	-58.0	-61.2	6.2	0.00e+00	0	27	104	27430748160	83	20113
2026-01-09 11:11:32.12	219.68	14.80	-58.0	-61.2	6.2	0.00e+00	0	27	104	27430748160	83	20074
2026-01-09 11:11:33.13	219.63	14.67	-58.0	-61.3	6.2	0.00e+00	0	27	104	27430748160	83	20166
2026-01-09 11:11:34.11	219.58	14.55	-58.0	-61.2	6.2	0.00e+00	0	27	104	27430748160	83	20130
2026-01-09 11:11:35.11	219.53	14.42	-58.0	-61.2	6.2	0.00e+00	0	27	104	27430748160	83	20103
2026-01-09 11:11:36.10	219.49	14.29	-58.0	-61.2	6.2	0.00e+00	0	27	104	27430748160	83	20019
2026-01-09 11:11:37.09	219.44	14.17	-58.0	-61.2	6.2	0.00e+00	0	27	104	27430748160	83	20095
2026-01-09 11:11:38.09	219.39	14.04	-58.0	-61.2	6.2	0.00e+00	0	27	104	27430748160	83	20030
2026-01-09 11:11:39.07	219.34	13.92	-58.0	-61.2	6.2	0.00e+00	0	27	104	27430748160	83	20002
2026-01-09 11:11:40.06	219.29	13.79	-58.0	-61.2	6.2	0.00e+00	0	27	104	27430748160	83	19968
2026-01-09 11:11:41.06	219.25	13.67	-58.0	-61.2	6.2	0.00e+00	0	27	104	27430748160	83	20020
2026-01-09 11:11:42.06	219.20	13.55	-57.9	-61.2	6.2	0.00e+00	0	27	104	27430748160	83	19952
2026-01-09 11:11:43.06	219.16	13.42	-57.9	-61.1	6.2	0.00e+00	0	27	104	27430748160	83	19917
2026-01-09 11:11:44.05	219.11	13.30	-57.9	-61.1	6.2	0.00e+00	0	27	104	27430748160	83	19873
2026-01-09 11:11:45.04	219.07	13.18	-58.0	-61.2	6.2	0.00e+00	0	27	104	27430748160	83	19954
2026-01-09 11:11:46.03	219.02	13.06	-57.9	-61.2	6.2	0.00e+00	0	27	104	27430748160	83	19938
2026-01-09 11:11:47.02	218.98	12.95	-57.9	-61.1	6.2	0.00e+00	0	27	104	27430748160	83	19879
2026-01-09 11:11:48.01	218.94	12.83	-57.9	-61.1	6.2	0.00e+00	0	27	104	27430748160	83	19882
2026-01-09 11:11:49.00	218.89	12.71	-57.9	-61.1	6.2	0.00e+00	0	27	104	27430748160	83	19907
2026-01-09 11:11:49.99	218.85	12.60	-57.9	-61.1	6.2	0.00e+00	0	27	104	27430748160	83	19824
2026-01-09 11:11:50.99	218.81	12.48	-57.9	-61.1	6.2	0.00e+00	0	27	104	27430748160	83	19907
2026-01-09 11:11:51.98	218.77	12.37	-57.9	-61.1	6.2	0.00e+00	0	27	104	27430748160	83	19799
2026-01-09 11:11:52.97	218.73	12.25	-57.9	-61.1	6.2	0.00e+00	0	27	104	27430748160	83	19854
2026-01-09 11:11:53.96	218.69	12.14	-57.9	-61.1	6.2	0.00e+00	0	27	104	27430748160	83	19759
2026-01-09 11:11:54.96	218.65	12.02	-57.9	-61.1	6.2	0.00e+00	0	27	104	27430748160	83	19730
2026-01-09 11:11:55.95	218.61	11.91	-57.8	-61.0	6.2	0.00e+00	0	27	104	27430748160	82	20847
2026-01-09 11:11:56.94	218.57	11.80	-57.9	-61.0	6.2	0.00e+00	0	27	104	27430748160	82	20826
2026-01-09 11:11:57.94	218.53	11.69	-57.8	-61.1	6.2	0.00e+00	0	27	104	27430748160	82	20913
2026-01-09 11:11:58.93	218.49	11.58	-57.8	-61.0	6.2	0.00e+00	0	27	104	27430748160	82	20812
2026-01-09 11:11:59.92	218.45	11.47	-57.8	-61.0	6.2	0.00e+00	0	27	104	27430748160	82	20739
2026-01-09 11:12:00.91	218.41	11.36	-57.8	-61.0	6.2	0.00e+00	0	27	104	27430748160	82	20803
2026-01-09 11:12:01.91	218.37	11.25	-57.8	-61.0	6.2	0.00e+00	0	27	104	27430748160	82	20765
2026-01-09 11:12:02.90	218.34	11.14	-57.8	-61.0	6.2	0.00e+00	0	27	104	27430748160	82	20782
2026-01-09 11:12:03.90	218.30	11.04	-57.8	-61.0	6.2	0.00e+00	0	27	104	27430748160	82	20650
2026-01-09 11:12:04.89	218.26	10.93	-57.8	-61.1	6.2	0.00e+00	0	27	104	27430748160	82	20886
2026-01-09 11:12:05.87	218.23	10.82	-57.8	-61.0	6.2	0.00e+00	0	27	104	27430748160	82	20687
2026-01-09 11:12:06.87	218.19	10.72	-57.8	-60.9	6.2	0.00e+00	0	27	104	27430748160	82	20596
2026-01-09 11:12:07.87	218.16	10.61	-57.7	-60.9	6.2	0.00e+00	0	27	104	27430748160	82	20616
2026-01-09 11:12:08.85	218.12	10.51	-57.8	-61.0	6.2	0.00e+00	0	27	104	27430748160	82	20708
2026-01-09 11:12:09.85	218.09	10.41	-57.8	-61.0	6.2	0.00e+00	0	27	104	27430748160	82	20679
2026-01-09 11:12:10.84	218.05	10.30	-57.7	-60.9	6.2	0.00e+00	0	27	104	27430748160	82	20598
2026-01-09 11:12:11.83	218.02	10.20	-57.7	-60.9	6.2	0.00e+00	0	27	104	27430748160	82	20544
2026-01-09 11:12:12.82	217.98	10.10	-57.8	-61.0	6.2	0.00e+00	0	27	104	27430748160	82	20769
2026-01-09 11:12:13.81	217.95	10.00	-57.7	-61.0	6.2	0.00e+00	0	27	104	27430748160	82	20639
2026-01-09 11:12:14.80	217.92	9.90	-57.7	-60.9	6.2	0.00e+00	0	27	104	27430748160	82	20514
2026-01-09 11:12:15.79	217.88	9.79	-57.7	-60.9	6.2	0.00e+00	0	27	104	27430748160	82	20488
2026-01-09 11:12:16.78	217.85	9.69	-57.7	-61.0	6.2	0.00e+00	0	27	104	27430748160	82	20642
2026-01-09 11:12:17.78	217.82	9.59	-57.7	-60.9	6.2	0.00e+00	0	27	104	27430748160	82	20568
2026-01-09 11:12:18.78	217.79	9.49	-57.7	-60.9	6.2	0.00e+00	0	27	104	27430748160	82	20485
2026-01-09 11:12:19.78	217.76	9.40	-57.7	-60.9	6.2	0.00e+00	0	27	104	27430748160	82	20466
2026-01-09 11:12:20.77	217.72	9.30	-57.7	-60.9	6.2	0.00e+00	0	27	104	27430748160	82	20477
2026-01-09 11:12:21.76	217.69	9.20	-57.7	-60.9	6.2	0.00e+00	0	27	104	27430748160	82	20444
2026-01-09 11:12:22.75	217.66	9.10	-57.6	-60.8	6.2	0.00e+00	0	27	104	27430748160	82	20374
2026-01-09 11:12:23.74	217.63	9.01	-57.6	-60.8	6.2	0.00e+00	0	27	104	27430748160	82	20381
2026-01-09 11:12:24.73	217.60	8.91	-57.7	-60.9	6.2	0.00e+00	0	27	104	27430748160	82	20457
2026-01-09 11:12:25.72	217.57	8.82	-57.6	-60.9	6.2	0.00e+00	0	27	104	27430748160	82	20427
2026-01-09 11:12:26.71	217.54	8.72	-57.6	-60.8	6.2	0.00e+00	0	27	104	27430748160	82	20308
2026-01-09 11:12:27.70	217.51	8.63	-57.6	-60.8	6.2	0.00e+00	0	27	104	27430748160	82	20254
2026-01-09 11:12:28.70	217.48	8.53	-57.6	-60.8	6.2	0.00e+00	0	27	104	27430748160	82	20333
2026-01-09 11:12:29.69	217.45	8.44	-57.6	-60.8	6.2	0.00e+00	0	27	104	27430748160	82	20230
2026-01-09 11:12:30.68	217.42	8.34	-57.5	-60.8	6.2	0.00e+00	0	27	104	27430748160	82	20228
2026-01-09 11:12:31.67	217.40	8.25	-57.5	-60.7	6.2	0.00e+00	0	27	104	27430748160	82	20108
2026-01-09 11:12:32.66	217.37	8.16	-57.6	-60.8	6.2	0.00e+00	0	27	104	27430748160	82	20313
2026-01-09 11:12:33.66	217.34	8.07	-57.5	-60.8	6.2	0.00e+00	0	27	104	27430748160	82	20220
2026-01-09 11:12:34.65	217.31	7.97	-57.5	-60.7	6.2	0.00e+00	0	27	104	27430748160	82	20156
2026-01-09 11:12:35.64	217.28	7.88	-57.5	-60.7	6.2	0.00e+00	0	27	104	27430748160	82	20043
2026-01-09 11:12:36.63	217.26	7.79	-57.5	-60.7	6.2	0.00e+00	0	27	104	27430748160	82	20123
2026-01-09 11:12:37.63	217.23	7.70	-57.5	-60.7	6.2	0.00e+00	0	27	104	27430748160	82	20143
2026-01-09 11:12:38.62	217.20	7.61	-57.5	-60.7	6.2	0.00e+00	0	27	104	27430748160	82	20041
2026-01-09 11:12:39.61	217.17	7.52	-57.5	-60.7	6.2	0.00e+00	0	27	104	27430748160	82	19990
2026-01-09 11:12:40.60	217.15	7.43	-57.5	-60.8	6.2	0.00e+00	0	27	104	27430748160	82	20169
2026-01-09 11:12:41.60	217.12	7.34	-57.5	-60.7	6.2	0.00e+00	0	27	104	27430748160	82	20031
2026-01-09 11:12:42.60	217.10	7.26	-57.5	-60.7	6.2	0.00e+00	0	27	104	27430748160	82	20008
2026-01-09 11:12:43.59	217.07	7.17	-57.4	-60.6	6.2	0.00e+00	0	27	104	27430748160	82	19894
2026-01-09 11:12:44.59	217.04	7.08	-57.5	-60.7	6.2	0.00e+00	0	27	104	27430748160	82	20058
2026-01-09 11:12:45.59	217.02	6.99	-57.5	-60.7	6.2	0.00e+00	0	27	104	27430748160	82	20031
2026-01-09 11:12:46.57	216.99	6.91	-57.4	-60.6	6.2	0.00e+00	0	27	104	27430748160	82	19818
2026-01-09 11:12:47.57	216.97	6.82	-57.4	-60.6	6.2	0.00e+00	0	27	104	27430748160	82	19748
2026-01-09 11:12:48.57	216.94	6.73	-57.4	-60.6	6.2	0.00e+00	0	27	104	27430748160	81	20994
2026-01-09 11:12:49.56	216.92	6.65	-57.4	-60.6	6.2	0.00e+00	0	27	104	27430748160	81	20949
2026-01-09 11:12:50.55	216.89	6.56	-57.3	-60.5	6.2	0.00e+00	0	27	104	27430748160	81	20844
2026-01-09 11:12:51.55	216.87	6.48	-57.3	-60.5	6.2	0.00e+00	0	27	104	27430748160	81	20681
2026-01-09 11:12:52.54	216.85	6.39	-57.3	-60.5	6.2	0.00e+00	0	27	104	27430748160	81	20833
2026-01-09 11:12:53.53	216.82	6.31	-57.3	-60.6	6.2	0.00e+00	0	27	104	27430748160	81	20888
2026-01-09 11:12:54.51	216.80	6.22	-57.3	-60.5	6.2	0.00e+00	0	27	104	27430748160	81	20730
2026-01-09 11:12:55.49	216.78	6.14	-57.2	-60.5	6.2	0.00e+00	0	27	104	27430748160	81	20681
2026-01-09 11:12:56.49	216.75	6.06	-57.3	-60.5	6.2	0.00e+00	0	27	104	27430748160	81	20718
2026-01-09 11:12:57.48	216.73	5.97	-57.3	-60.5	6.2	0.00e+00	0	27	104	27430748160	81	20779
2026-01-09 11:12:58.48	216.71	5.89	-57.2	-60.4	6.2	0.00e+00	0	27	104	27430748160	81	20551
2026-01-09 11:12:59.47	216.68	5.81	-57.2	-60.4	6.2	0.00e+00	0	27	104	27430748160	81	20474
2026-01-09 11:13:00.45	216.66	5.73	-57.2	-60.4	6.2	0.00e+00	0	27	104	27430748160	81	20613
2026-01-09 11:13:01.44	216.64	5.65	-57.3	-60.5	6.2	0.00e+00	0	27	104	27430748160	81	20656
2026-01-09 11:13:02.44	216.62	5.56	-57.2	-60.4	6.2	0.00e+00	0	27	104	27430748160	81	20541
2026-01-09 11:13:03.43	216.60	5.48	-57.1	-60.3	6.2	0.00e+00	0	27	104	27430748160	81	20361
2026-01-09 11:13:04.43	216.57	5.40	-57.2	-60.4	6.2	0.00e+00	0	27	104	27430748160	81	20529
2026-01-09 11:13:05.43	216.55	5.32	-57.2	-60.4	6.2	0.00e+00	0	27	104	27430748160	81	20527
2026-01-09 11:13:06.42	216.53	5.24	-57.2	-60.4	6.2	0.00e+00	0	27	104	27430748160	81	20410
2026-01-09 11:13:07.41	216.51	5.16	-57.1	-60.3	6.2	0.00e+00	0	27	104	27430748160	81	20228
2026-01-09 11:13:08.41	216.49	5.08	-57.1	-60.3	6.2	0.00e+00	0	27	104	27430748160	81	20323
2026-01-09 11:13:09.39	216.47	5.00	-57.2	-60.4	6.2	0.00e+00	0	27	104	27430748160	81	20597
2026-01-09 11:13:10.39	216.45	4.93	-57.6	-60.8	6.1	0.00e+00	0	27	104	27430748160	81	21457
2026-01-09 11:13:11.39	216.43	4.85	-57.8	-61.0	6.2	0.00e+00	0	27	104	27430748160	81	22007
2026-01-09 11:13:12.39	216.40	4.77	-53.1	-54.6	6.2	0.00e+00	0	27	104	27430748160	71	18703
2026-01-09 11:13:13.39	216.38	4.69	-58.2	-61.4	6.2	0.00e+00	0	27	104	27430748160	82	21830
2026-01-09 11:13:14.39	216.36	4.61	-58.4	-61.6	6.2	0.00e+00	0	27	104	27430748160	82	22181
2026-01-09 11:13:15.39	216.34	4.53	-58.5	-61.7	6.2	0.00e+00	0	27	104	27430748160	82	22453
2026-01-09 11:13:16.39	216.32	4.45	-58.5	-61.8	6.2	0.00e+00	0	27	104	27430748160	82	22640
2026-01-09 11:13:17.39	216.30	4.38	-58.6	-61.8	6.2	0.00e+00	0	27	104	27430748160	82	22832
2026-01-09 11:13:18.40	216.28	4.30	-58.7	-61.9	6.1	0.00e+00	0	27	104	27430748160	83	21744
2026-01-09 11:13:19.39	216.26	4.22	-58.7	-62.0	6.2	0.00e+00	0	27	104	27430748160	83	21884
2026-01-09 11:13:20.38	216.25	4.15	-58.8	-62.0	6.2	0.00e+00	0	27	104	27430748160	83	21955
2026-01-09 11:13:21.38	216.23	4.07	-58.8	-62.0	6.2	0.00e+00	0	27	104	27430748160	83	22064
2026-01-09 11:13:22.37	216.21	4.00	-58.8	-62.0	6.2	0.00e+00	0	27	104	27430748160	83	22068
2026-01-09 11:13:23.37	216.19	3.92	-58.9	-62.1	6.2	0.00e+00	0	27	104	27430748160	83	22154
2026-01-09 11:13:24.38	216.17	3.84	-58.9	-62.1	6.2	0.00e+00	0	27	104	27430748160	83	22355
2026-01-09 11:13:25.37	216.15	3.77	-59.0	-62.2	6.2	0.00e+00	0	27	104	27430748160	83	22410
2026-01-09 11:13:26.37	216.13	3.70	-59.0	-62.2	6.2	0.00e+00	0	27	104	27430748160	83	22456
2026-01-09 11:13:27.37	216.11	3.62	-59.0	-62.2	6.2	0.00e+00	0	27	104	27430748160	83	22489
2026-01-09 11:13:28.37	216.10	3.55	-59.0	-62.2	6.2	0.00e+00	0	27	104	27430748160	83	22568
2026-01-09 11:13:29.37	216.08	3.47	-59.0	-62.3	6.2	0.00e+00	0	27	104	27430748160	83	22641
2026-01-09 11:13:30.37	216.06	3.40	-59.1	-62.3	6.2	0.00e+00	0	27	104	27430748160	83	22754
2026-01-09 11:13:31.37	216.04	3.32	-59.1	-62.3	6.1	0.00e+00	0	27	104	27430748160	83	22795
2026-01-09 11:13:32.37	216.02	3.25	-59.1	-62.3	6.2	0.00e+00	0	27	104	27430748160	83	22855
2026-01-09 11:13:33.36	216.01	3.18	-59.0	-62.3	6.2	0.00e+00	0	27	104	27430748160	83	22643
2026-01-09 11:13:34.35	215.99	3.11	-59.0	-62.2	6.1	0.00e+00	0	27	104	27430748160	83	22601
2026-01-09 11:13:35.34	215.97	3.03	-59.0	-62.3	6.2	0.00e+00	0	27	104	27430748160	83	22627
2026-01-09 11:13:36.33	215.95	2.96	-59.0	-62.2	6.1	0.00e+00	0	27	104	27430748160	83	22559
2026-01-09 11:13:37.31	215.94	2.89	-59.0	-62.2	6.2	0.00e+00	0	27	104	27430748160	83	22530
2026-01-09 11:13:38.30	215.92	2.82	-59.0	-62.2	6.2	0.00e+00	0	27	104	27430748160	83	22517
2026-01-09 11:13:39.29	215.90	2.75	-59.0	-62.2	6.1	0.00e+00	0	27	104	27430748160	83	22557
2026-01-09 11:13:40.28	215.89	2.68	-59.0	-62.2	6.2	0.00e+00	0	27	104	27430748160	83	22497
2026-01-09 11:13:41.26	215.87	2.61	-59.0	-62.2	6.2	0.00e+00	0	27	104	27430748160	83	22372
2026-01-09 11:13:42.26	215.85	2.54	-58.9	-62.2	6.1	0.00e+00	0	27	104	27430748160	83	22410
2026-01-09 11:13:43.25	215.84	2.47	-58.9	-62.2	6.2	0.00e+00	0	27	104	27430748160	83	22433
2026-01-09 11:13:44.24	215.82	2.40	-58.9	-62.1	6.1	0.00e+00	0	27	104	27430748160	83	22346
2026-01-09 11:13:45.23	215.81	2.33	-58.9	-62.1	6.2	0.00e+00	0	27	104	27430748160	83	22363
2026-01-09 11:13:46.21	215.79	2.26	-58.9	-62.1	6.2	0.00e+00	0	27	104	27430748160	83	22299
2026-01-09 11:13:47.20	215.77	2.19	-58.9	-62.1	6.2	0.00e+00	0	27	104	27430748160	83	22217
2026-01-09 11:13:48.20	215.76	2.12	-58.9	-62.1	6.2	0.00e+00	0	27	104	27430748160	83	22189
2026-01-09 11:13:49.18	215.74	2.05	-58.9	-62.1	6.2	0.00e+00	0	27	104	27430748160	83	22301

#Closed at: 2026-01-09 11:13:50
#Recorded file [27430 MB]: D:/lorett/data/31004_260109_140259.dat