passes_logs/2026/01/09/R3.2S_Murmansk/R3.2S_Murmansk__20260109_122146_TY-42_rec.log

#Pass ID: 20260109_122146_TY-42
#Satellite: TY-42
#Configuration: TY-42_900M
#almurnet v.1.7.20251203
#Start time: 2026-01-09 12:21:46

#Version: 2.2.20231116
#Station: R3.2S_Murmansk
#Location: 33.079688 lon 68.888172 lat
#TLE: 1 64048U 25103A   26008.64993056  .00008011  00000-0  38191-3 0 09996
#TLE: 2 64048 097.4110 084.1864 0001712 091.7426 302.1052 15.19171442 35856

#Time	Az	El	Level	Level2	SNR	BER	BlckErr	Temp	State	Recorded	gain1	gain2
2026-01-09 12:21:46.42	29.59	1.97	-56.9	-60.1	6.1	0.00e+00	0	29	0	0	80	21023
2026-01-09 12:21:47.41	29.49	2.03	-57.0	-60.2	6.2	0.00e+00	0	29	104	0	81	19939
2026-01-09 12:21:48.41	29.39	2.09	-57.0	-60.2	6.2	0.00e+00	0	29	104	0	81	20011
2026-01-09 12:21:49.41	29.29	2.15	-57.0	-60.2	6.2	0.00e+00	0	29	104	0	81	20054
2026-01-09 12:21:50.41	29.18	2.20	-57.0	-60.2	6.2	0.00e+00	0	29	104	0	81	20044
2026-01-09 12:21:51.40	29.08	2.26	-57.0	-60.2	6.2	0.00e+00	0	29	104	0	81	20000
2026-01-09 12:21:52.40	28.98	2.32	-57.0	-60.2	6.2	0.00e+00	0	29	104	0	81	20026
2026-01-09 12:21:53.40	28.87	2.38	-57.0	-60.2	6.2	0.00e+00	0	29	104	0	81	20032
2026-01-09 12:21:54.40	28.77	2.44	-57.0	-60.2	6.2	0.00e+00	0	29	104	0	81	20124
2026-01-09 12:21:55.40	28.66	2.49	-57.0	-60.2	6.2	0.00e+00	0	29	104	0	81	20003
2026-01-09 12:21:56.39	28.56	2.55	-57.0	-60.2	6.2	0.00e+00	0	29	104	0	81	20059
2026-01-09 12:21:57.39	28.45	2.61	-57.0	-60.2	6.2	0.00e+00	0	29	104	0	81	20095
2026-01-09 12:21:58.38	28.34	2.67	-57.0	-60.2	6.2	0.00e+00	0	29	104	0	81	20097
2026-01-09 12:21:59.37	28.24	2.73	-57.0	-60.2	6.2	0.00e+00	0	29	104	0	81	20101
2026-01-09 12:22:00.37	28.13	2.79	-57.0	-60.2	6.2	0.00e+00	0	29	104	0	81	20102
2026-01-09 12:22:01.36	28.02	2.84	-57.0	-60.2	6.2	0.00e+00	0	29	104	0	81	20042
2026-01-09 12:22:02.36	27.91	2.90	-57.0	-60.2	6.2	0.00e+00	0	29	104	0	81	20087
2026-01-09 12:22:03.36	27.80	2.96	-57.0	-60.2	6.2	0.00e+00	0	30	104	0	81	20011
2026-01-09 12:22:04.36	27.69	3.02	-57.0	-60.2	6.2	0.00e+00	0	30	104	0	81	20119
2026-01-09 12:22:05.35	27.58	3.08	-57.0	-60.2	6.2	0.00e+00	0	30	104	0	81	20082
2026-01-09 12:22:06.35	27.47	3.14	-57.0	-60.2	6.2	0.00e+00	0	30	104	0	81	20051
2026-01-09 12:22:07.35	27.35	3.20	-57.0	-60.2	6.2	0.00e+00	0	30	104	0	81	20058
2026-01-09 12:22:08.35	27.24	3.26	-57.0	-60.2	6.2	0.00e+00	0	30	104	0	81	20088
2026-01-09 12:22:09.34	27.13	3.32	-57.0	-60.2	6.2	0.00e+00	0	30	104	0	81	20038
2026-01-09 12:22:10.32	27.02	3.37	-57.0	-60.2	6.2	0.00e+00	0	30	104	0	81	20065
2026-01-09 12:22:11.32	26.90	3.43	-57.0	-60.2	6.2	0.00e+00	0	30	104	0	81	20128
2026-01-09 12:22:12.31	26.79	3.49	-57.0	-60.2	6.2	0.00e+00	0	30	104	0	81	20136
2026-01-09 12:22:13.31	26.67	3.55	-57.0	-60.3	6.2	0.00e+00	0	30	104	0	81	20185
2026-01-09 12:22:14.31	26.55	3.61	-57.0	-60.3	6.2	0.00e+00	0	30	104	0	81	20167
2026-01-09 12:22:15.30	26.44	3.67	-57.0	-60.2	6.2	0.00e+00	0	30	104	0	81	20128
2026-01-09 12:22:16.30	26.32	3.73	-57.0	-60.3	6.2	0.00e+00	0	30	104	0	81	20212
2026-01-09 12:22:17.31	26.20	3.79	-57.1	-60.3	6.2	0.00e+00	0	30	104	0	81	20200
2026-01-09 12:22:18.31	26.08	3.85	-57.1	-60.2	6.2	0.00e+00	0	30	104	0	81	20156
2026-01-09 12:22:19.30	25.96	3.91	-57.1	-60.3	6.2	0.00e+00	0	30	104	0	81	20175
2026-01-09 12:22:20.30	25.84	3.97	-57.0	-60.3	6.2	0.00e+00	0	30	104	0	81	20180
2026-01-09 12:22:21.30	25.72	4.03	-57.0	-60.3	6.2	0.00e+00	0	31	104	0	81	20176
2026-01-09 12:22:22.30	25.60	4.09	-57.1	-60.3	6.2	0.00e+00	0	31	104	0	81	20175
2026-01-09 12:22:23.29	25.48	4.15	-57.1	-60.3	6.2	0.00e+00	0	30	104	0	81	20246
2026-01-09 12:22:24.28	25.35	4.21	-57.1	-60.3	6.2	0.00e+00	0	31	104	0	81	20234
2026-01-09 12:22:25.28	25.23	4.28	-57.1	-60.3	6.2	0.00e+00	0	30	104	0	81	20179
2026-01-09 12:22:26.28	25.11	4.34	-57.1	-60.3	6.2	0.00e+00	0	30	104	0	81	20293
2026-01-09 12:22:27.28	24.98	4.40	-57.1	-60.3	6.2	0.00e+00	0	31	104	0	81	20223
2026-01-09 12:22:28.28	24.85	4.46	-57.1	-60.3	6.2	0.00e+00	0	31	104	0	81	20186
2026-01-09 12:22:29.28	24.73	4.52	-57.1	-60.3	6.2	0.00e+00	0	31	104	0	81	20201
2026-01-09 12:22:30.27	24.60	4.58	-57.1	-60.3	6.2	0.00e+00	0	31	104	0	81	20220
2026-01-09 12:22:31.26	24.48	4.64	-57.0	-60.3	6.2	0.00e+00	0	31	104	0	81	20214
2026-01-09 12:22:32.26	24.35	4.70	-57.0	-60.3	6.2	0.00e+00	0	31	104	0	81	20203
2026-01-09 12:22:33.24	24.22	4.76	-57.0	-60.3	6.2	0.00e+00	0	31	104	0	81	20213
2026-01-09 12:22:34.24	24.09	4.82	-57.1	-60.3	6.2	0.00e+00	0	31	104	0	81	20194
2026-01-09 12:22:35.23	23.96	4.88	-57.1	-60.3	6.2	0.00e+00	0	31	104	0	81	20229
2026-01-09 12:22:36.23	23.83	4.95	-57.1	-60.3	6.2	0.00e+00	0	31	104	0	81	20294
2026-01-09 12:22:37.23	23.70	5.01	-57.1	-60.3	6.2	0.00e+00	0	31	104	0	81	20213
2026-01-09 12:22:38.23	23.56	5.07	-57.1	-60.3	6.2	0.00e+00	0	31	104	0	81	20273
2026-01-09 12:22:39.23	23.43	5.13	-57.1	-60.3	6.2	0.00e+00	0	31	104	0	81	20377
2026-01-09 12:22:40.22	23.30	5.19	-57.2	-60.4	6.2	0.00e+00	0	31	104	0	81	20505
2026-01-09 12:22:41.21	23.16	5.25	-57.1	-60.3	6.2	0.00e+00	0	31	104	0	81	20293
2026-01-09 12:22:42.21	23.03	5.31	-57.2	-60.5	6.2	0.00e+00	0	31	104	0	81	20715
2026-01-09 12:22:43.20	22.89	5.38	-57.1	-60.3	6.2	0.00e+00	0	31	104	0	81	20284
2026-01-09 12:22:44.20	22.75	5.44	-57.2	-60.5	6.2	0.00e+00	0	31	104	0	81	20684
2026-01-09 12:22:45.19	22.62	5.50	-57.2	-60.4	6.2	0.00e+00	0	31	104	0	81	20478
2026-01-09 12:22:46.18	22.48	5.56	-57.3	-60.5	6.2	0.00e+00	0	31	104	0	81	20844
2026-01-09 12:22:47.18	22.34	5.62	-57.2	-60.4	6.2	0.00e+00	0	31	104	0	81	20483
2026-01-09 12:22:48.17	22.20	5.69	-57.2	-60.5	6.2	0.00e+00	0	31	104	0	81	20752
2026-01-09 12:22:49.16	22.06	5.75	-57.2	-60.4	6.2	0.00e+00	0	31	104	0	81	20519
2026-01-09 12:22:50.16	21.92	5.81	-57.3	-60.5	6.2	0.00e+00	0	31	104	0	81	20814
2026-01-09 12:22:51.14	21.78	5.87	-57.2	-60.4	6.2	0.00e+00	0	31	104	0	81	20555
2026-01-09 12:22:52.14	21.64	5.93	-57.3	-60.5	6.2	0.00e+00	0	31	104	0	81	20788
2026-01-09 12:22:53.13	21.49	6.00	-57.3	-60.5	6.2	0.00e+00	0	31	104	0	81	20657
2026-01-09 12:22:54.12	21.35	6.06	-57.4	-60.6	6.2	0.00e+00	0	31	104	0	81	20961
2026-01-09 12:22:55.12	21.20	6.12	-57.3	-60.4	6.2	0.00e+00	0	31	104	0	81	20599
2026-01-09 12:22:56.11	21.06	6.18	-57.3	-60.5	6.2	0.00e+00	0	31	104	0	81	20861
2026-01-09 12:22:57.10	20.91	6.24	-57.3	-60.5	6.2	0.00e+00	0	31	104	0	81	20792
2026-01-09 12:22:58.09	20.77	6.31	-57.4	-60.7	6.2	0.00e+00	0	31	104	0	81	21119
2026-01-09 12:22:59.07	20.62	6.37	-57.3	-60.5	6.2	0.00e+00	0	31	104	0	81	20714
2026-01-09 12:23:00.07	20.47	6.43	-57.4	-60.6	6.2	0.00e+00	0	31	104	0	81	20981
2026-01-09 12:23:01.06	20.32	6.49	-57.3	-60.6	6.2	0.00e+00	0	31	104	0	81	20939
2026-01-09 12:23:02.05	20.17	6.56	-57.4	-60.6	6.2	0.00e+00	0	31	104	0	81	21111
2026-01-09 12:23:03.04	20.02	6.62	-57.3	-60.5	6.2	0.00e+00	0	31	104	0	81	20823
2026-01-09 12:23:04.03	19.87	6.68	-57.4	-60.6	6.2	0.00e+00	0	31	104	0	81	21040
2026-01-09 12:23:05.03	19.72	6.74	-57.4	-60.6	6.2	0.00e+00	0	31	104	0	81	21017
2026-01-09 12:23:06.02	19.56	6.81	-57.5	-60.7	6.2	0.00e+00	0	31	104	0	81	21307
2026-01-09 12:23:07.02	19.41	6.87	-57.4	-60.6	6.2	0.00e+00	0	31	104	0	81	20958
2026-01-09 12:23:08.02	19.25	6.93	-57.4	-60.7	6.2	0.00e+00	0	31	104	0	81	21130
2026-01-09 12:23:09.01	19.09	7.00	-57.4	-60.6	6.2	0.00e+00	0	31	104	0	81	21072
2026-01-09 12:23:10.01	18.94	7.06	-57.5	-60.7	6.2	0.00e+00	0	31	104	0	81	21300
2026-01-09 12:23:11.00	18.78	7.12	-57.4	-60.6	6.2	0.00e+00	0	31	104	0	81	21001
2026-01-09 12:23:12.00	18.62	7.19	-57.4	-60.7	6.2	0.00e+00	0	31	104	0	81	21138
2026-01-09 12:23:13.00	18.46	7.25	-57.4	-60.6	6.2	0.00e+00	0	31	104	0	81	21063
2026-01-09 12:23:13.99	18.30	7.31	-57.5	-60.8	6.2	0.00e+00	0	31	104	0	81	21365
2026-01-09 12:23:14.98	18.14	7.38	-57.4	-60.6	6.2	0.00e+00	0	31	104	0	81	21101
2026-01-09 12:23:15.98	17.97	7.44	-57.5	-60.7	6.2	0.00e+00	0	31	104	0	81	21298
2026-01-09 12:23:16.97	17.81	7.50	-57.4	-60.7	6.2	0.00e+00	0	31	104	0	81	21125
2026-01-09 12:23:17.97	17.64	7.57	-57.5	-60.8	6.2	0.00e+00	0	31	104	0	81	21360
2026-01-09 12:23:18.97	17.48	7.63	-57.4	-60.6	6.2	0.00e+00	0	31	104	0	81	21114
2026-01-09 12:23:19.96	17.31	7.69	-57.5	-60.7	6.2	0.00e+00	0	31	104	0	81	21297
2026-01-09 12:23:20.95	17.14	7.75	-57.5	-60.7	6.2	0.00e+00	0	32	104	0	81	21295
2026-01-09 12:23:21.94	16.98	7.82	-57.6	-60.8	6.1	0.00e+00	0	31	104	0	81	21471
2026-01-09 12:23:22.93	16.81	7.88	-57.5	-60.7	6.2	0.00e+00	0	31	104	0	81	21233
2026-01-09 12:23:23.91	16.64	7.94	-57.5	-60.8	6.2	0.00e+00	0	31	104	0	81	21412
2026-01-09 12:23:24.90	16.47	8.01	-57.5	-60.7	6.2	0.00e+00	0	31	104	0	81	21334
2026-01-09 12:23:25.89	16.30	8.07	-57.6	-60.8	6.2	0.00e+00	0	31	104	0	81	21580
2026-01-09 12:23:26.88	16.13	8.13	-57.5	-60.7	6.2	0.00e+00	0	32	104	0	81	21315
2026-01-09 12:23:27.88	15.95	8.20	-57.6	-60.8	6.2	0.00e+00	0	32	104	0	81	21495
2026-01-09 12:23:28.88	15.78	8.26	-57.6	-60.8	6.2	0.00e+00	0	31	104	0	81	21424
2026-01-09 12:23:29.88	15.60	8.32	-57.6	-60.9	6.2	0.00e+00	0	32	104	0	81	21653
2026-01-09 12:23:30.87	15.42	8.39	-57.6	-60.8	6.1	0.00e+00	0	31	104	0	81	21451
2026-01-09 12:23:31.86	15.25	8.45	-57.6	-60.8	6.2	0.00e+00	0	31	104	0	81	21531
2026-01-09 12:23:32.86	15.07	8.51	-57.6	-60.8	6.2	0.00e+00	0	32	104	0	81	21426
2026-01-09 12:23:33.85	14.89	8.58	-57.6	-60.9	6.2	0.00e+00	0	32	104	0	81	21684
2026-01-09 12:23:34.85	14.71	8.64	-57.6	-60.8	6.1	0.00e+00	0	32	104	0	81	21385
2026-01-09 12:23:35.85	14.53	8.70	-57.6	-60.9	6.2	0.00e+00	0	32	104	0	81	21623
2026-01-09 12:23:36.84	14.34	8.77	-57.6	-60.8	6.2	0.00e+00	0	32	104	0	81	21505
2026-01-09 12:23:37.84	14.16	8.83	-57.7	-60.9	6.2	0.00e+00	0	31	104	0	81	21704
2026-01-09 12:23:38.84	13.97	8.89	-57.6	-60.8	6.2	0.00e+00	0	32	104	0	81	21535
2026-01-09 12:23:39.84	13.79	8.96	-57.7	-60.9	6.1	0.00e+00	0	32	104	0	81	21689
2026-01-09 12:23:40.84	13.60	9.02	-57.6	-60.8	6.2	0.00e+00	0	32	104	0	81	21564
2026-01-09 12:23:41.83	13.41	9.08	-57.7	-60.9	6.1	0.00e+00	0	32	104	0	81	21775
2026-01-09 12:23:42.81	13.23	9.14	-57.6	-60.9	6.2	0.00e+00	0	32	104	0	81	21613
2026-01-09 12:23:43.81	13.04	9.21	-57.7	-60.9	6.2	0.00e+00	0	32	104	0	81	21669
2026-01-09 12:23:44.81	12.84	9.27	-57.6	-60.8	6.2	0.00e+00	0	32	104	0	81	21606
2026-01-09 12:23:45.80	12.65	9.33	-57.7	-60.9	6.2	0.00e+00	0	32	104	0	81	21801
2026-01-09 12:23:46.79	12.46	9.40	-57.6	-60.9	6.2	0.00e+00	0	32	104	0	81	21685
2026-01-09 12:23:47.79	12.27	9.46	-57.7	-60.9	6.2	0.00e+00	0	32	104	0	81	21734
2026-01-09 12:23:48.78	12.07	9.52	-57.7	-60.9	6.1	0.00e+00	0	32	104	0	81	21743
2026-01-09 12:23:49.77	11.88	9.58	-57.7	-61.0	6.2	0.00e+00	0	32	104	0	81	21857
2026-01-09 12:23:50.77	11.68	9.65	-57.7	-60.9	6.2	0.00e+00	0	32	104	0	81	21791
2026-01-09 12:23:51.76	11.48	9.71	-57.7	-61.0	6.2	0.00e+00	0	32	104	0	81	21863
2026-01-09 12:23:52.76	11.28	9.77	-57.7	-60.9	6.2	0.00e+00	0	32	104	0	81	21833
2026-01-09 12:23:53.76	11.08	9.83	-57.7	-61.0	6.2	0.00e+00	0	32	104	0	81	21980
2026-01-09 12:23:54.76	10.88	9.90	-57.7	-60.9	6.2	0.00e+00	0	32	104	0	81	21810
2026-01-09 12:23:55.75	10.68	9.96	-57.7	-60.9	6.2	0.00e+00	0	32	104	0	81	21820
2026-01-09 12:23:56.75	10.47	10.02	-57.7	-60.9	6.2	0.00e+00	0	32	104	0	81	21854
2026-01-09 12:23:57.74	10.27	10.08	-57.8	-61.1	6.2	0.00e+00	0	32	104	0	81	22111
2026-01-09 12:23:58.74	10.06	10.15	-57.7	-61.0	6.2	0.00e+00	0	32	104	0	81	21877
2026-01-09 12:23:59.73	9.86	10.21	-57.8	-61.0	6.2	0.00e+00	0	32	104	0	81	21897
2026-01-09 12:24:00.72	9.65	10.27	-57.8	-61.0	6.2	0.00e+00	0	32	104	0	81	21924
2026-01-09 12:24:01.71	9.44	10.33	-57.8	-61.0	6.2	0.00e+00	0	32	104	0	81	22067
2026-01-09 12:24:02.71	9.23	10.39	-57.8	-61.0	6.2	0.00e+00	0	32	104	0	81	22019
2026-01-09 12:24:03.71	9.02	10.45	-57.8	-61.0	6.2	0.00e+00	0	32	104	0	81	21990
2026-01-09 12:24:04.70	8.81	10.51	-57.8	-61.0	6.2	0.00e+00	0	32	104	0	81	21970
2026-01-09 12:24:05.70	8.60	10.58	-57.8	-61.1	6.1	0.00e+00	0	32	104	0	81	22147
2026-01-09 12:24:06.69	8.38	10.64	-57.8	-61.0	6.2	0.00e+00	0	32	104	0	81	22087
2026-01-09 12:24:07.69	8.17	10.70	-57.8	-61.0	6.2	0.00e+00	0	32	104	0	81	22100
2026-01-09 12:24:08.68	7.95	10.76	-57.8	-61.1	6.2	0.00e+00	0	32	104	0	81	22141
2026-01-09 12:24:09.67	7.74	10.82	-57.8	-61.1	6.1	0.00e+00	0	32	104	0	81	22202
2026-01-09 12:24:10.66	7.52	10.88	-57.8	-61.1	6.2	0.00e+00	0	32	104	0	81	22142
2026-01-09 12:24:11.65	7.30	10.94	-57.8	-61.1	6.2	0.00e+00	0	32	104	0	81	22209
2026-01-09 12:24:12.65	7.08	11.00	-57.8	-61.1	6.2	0.00e+00	0	32	104	0	81	22115
2026-01-09 12:24:13.65	6.85	11.06	-57.9	-61.1	6.1	0.00e+00	0	32	104	0	81	22225
2026-01-09 12:24:14.65	6.63	11.12	-57.9	-61.1	6.1	0.00e+00	0	32	104	0	81	22210
2026-01-09 12:24:15.65	6.41	11.18	-57.9	-61.1	6.2	0.00e+00	0	32	104	0	81	22278
2026-01-09 12:24:16.65	6.18	11.24	-57.9	-61.1	6.2	0.00e+00	0	32	104	0	81	22225
2026-01-09 12:24:17.65	5.95	11.30	-57.9	-61.1	6.1	0.00e+00	0	32	104	0	81	22345
2026-01-09 12:24:18.64	5.72	11.36	-57.9	-61.1	6.1	0.00e+00	0	32	104	0	81	22261
2026-01-09 12:24:19.64	5.50	11.42	-57.9	-61.1	6.2	0.00e+00	0	32	104	0	81	22270
2026-01-09 12:24:20.63	5.27	11.47	-57.9	-61.1	6.2	0.00e+00	0	32	104	0	81	22288
2026-01-09 12:24:21.62	5.04	11.53	-57.9	-61.1	6.2	0.00e+00	0	32	104	0	81	22346
2026-01-09 12:24:22.62	4.80	11.59	-57.9	-61.1	6.2	0.00e+00	0	32	104	0	81	22254
2026-01-09 12:24:23.61	4.57	11.65	-57.9	-61.1	6.2	0.00e+00	0	32	104	0	81	22226
2026-01-09 12:24:24.62	4.33	11.71	-57.9	-61.1	6.2	0.00e+00	0	32	104	0	81	22317
2026-01-09 12:24:25.61	4.10	11.76	-58.0	-61.2	6.2	0.00e+00	0	32	104	0	81	22455
2026-01-09 12:24:26.61	3.86	11.82	-57.9	-61.2	6.2	0.00e+00	0	32	104	0	81	22393
2026-01-09 12:24:27.61	3.62	11.88	-57.9	-61.1	6.2	0.00e+00	0	32	104	0	81	22233
2026-01-09 12:24:28.60	3.38	11.94	-57.9	-61.1	6.1	0.00e+00	0	32	104	0	81	22332
2026-01-09 12:24:29.61	3.14	11.99	-58.0	-61.2	6.1	0.00e+00	0	32	104	0	81	22515
2026-01-09 12:24:30.60	2.90	12.05	-57.9	-61.2	6.2	0.00e+00	0	32	104	0	81	22379
2026-01-09 12:24:31.61	2.66	12.11	-57.9	-61.1	6.2	0.00e+00	0	32	104	0	81	22293
2026-01-09 12:24:32.61	2.41	12.16	-57.9	-61.1	6.2	0.00e+00	0	32	104	0	81	22350
2026-01-09 12:24:33.61	2.17	12.22	-57.9	-61.2	6.2	0.00e+00	0	32	104	0	81	22390
2026-01-09 12:24:34.62	1.92	12.27	-57.9	-61.2	6.2	0.00e+00	0	32	104	0	81	22366
2026-01-09 12:24:35.62	1.67	12.33	-57.9	-61.1	6.2	0.00e+00	0	32	104	0	81	22325
2026-01-09 12:24:36.62	1.42	12.38	-57.9	-61.1	6.2	0.00e+00	0	32	104	0	81	22360
2026-01-09 12:24:37.62	1.17	12.44	-57.9	-61.2	6.1	0.00e+00	0	32	104	0	81	22437
2026-01-09 12:24:38.61	0.92	12.49	-58.0	-61.2	6.2	0.00e+00	0	32	104	0	81	22483
2026-01-09 12:24:39.61	0.67	12.55	-57.9	-61.2	6.2	0.00e+00	0	32	104	0	81	22404
2026-01-09 12:24:40.61	0.41	12.60	-57.9	-61.1	6.2	0.00e+00	0	32	104	0	81	22354
2026-01-09 12:24:41.61	0.16	12.65	-58.0	-61.2	6.2	0.00e+00	0	32	104	0	81	22489
2026-01-09 12:24:42.61	359.90	12.71	-58.0	-61.2	6.1	0.00e+00	0	32	104	0	81	22505
2026-01-09 12:24:43.61	359.65	12.76	-58.0	-61.2	6.2	0.00e+00	0	32	104	0	81	22415
2026-01-09 12:24:44.61	359.39	12.81	-58.0	-61.2	6.1	0.00e+00	0	32	104	0	81	22477
2026-01-09 12:24:45.61	359.13	12.87	-58.0	-61.2	6.2	0.00e+00	0	32	104	0	81	22590
2026-01-09 12:24:46.61	358.87	12.92	-58.0	-61.2	6.2	0.00e+00	0	32	104	0	81	22557
2026-01-09 12:24:47.62	358.60	12.97	-58.0	-61.2	6.2	0.00e+00	0	32	104	0	81	22551
2026-01-09 12:24:48.61	358.34	13.02	-58.0	-61.2	6.2	0.00e+00	0	32	104	0	81	22550
2026-01-09 12:24:49.61	358.08	13.07	-58.0	-61.3	6.2	0.00e+00	0	32	104	0	81	22626
2026-01-09 12:24:50.61	357.82	13.12	-58.0	-61.3	6.1	0.00e+00	0	32	104	0	81	22628
2026-01-09 12:24:51.61	357.55	13.17	-58.0	-61.2	6.1	0.00e+00	0	32	104	0	81	22545
2026-01-09 12:24:52.61	357.28	13.22	-58.0	-61.2	6.2	0.00e+00	0	32	104	0	81	22510
2026-01-09 12:24:53.61	357.01	13.27	-58.0	-61.2	6.2	0.00e+00	0	32	104	0	81	22597
2026-01-09 12:24:54.61	356.75	13.32	-58.0	-61.2	6.1	0.00e+00	0	32	104	0	81	22608
2026-01-09 12:24:55.61	356.48	13.37	-58.0	-61.2	6.1	0.00e+00	0	32	104	0	81	22583
2026-01-09 12:24:56.60	356.21	13.41	-58.0	-61.2	6.1	0.00e+00	0	32	104	0	81	22525
2026-01-09 12:24:57.61	355.93	13.46	-58.0	-61.3	6.2	0.00e+00	0	32	104	0	81	22667
2026-01-09 12:24:58.60	355.66	13.51	-58.0	-61.2	6.2	0.00e+00	0	32	104	0	81	22592
2026-01-09 12:24:59.60	355.39	13.55	-58.0	-61.2	6.2	0.00e+00	0	32	104	0	81	22594
2026-01-09 12:25:00.59	355.11	13.60	-58.0	-61.2	6.1	0.00e+00	0	32	104	0	81	22557
2026-01-09 12:25:01.59	354.84	13.64	-58.0	-61.2	6.2	0.00e+00	0	32	104	0	81	22619
2026-01-09 12:25:02.60	354.56	13.69	-58.0	-61.2	6.2	0.00e+00	0	32	104	0	81	22621
2026-01-09 12:25:03.59	354.28	13.73	-58.0	-61.3	6.2	0.00e+00	0	32	104	0	81	22628
2026-01-09 12:25:04.60	354.00	13.78	-58.0	-61.2	6.1	0.00e+00	0	32	104	0	81	22601
2026-01-09 12:25:05.60	353.72	13.82	-58.1	-61.3	6.2	0.00e+00	0	32	104	0	81	22675
2026-01-09 12:25:06.59	353.44	13.87	-58.0	-61.3	6.2	0.00e+00	0	32	104	0	81	22684
2026-01-09 12:25:07.59	353.16	13.91	-58.1	-61.3	6.2	0.00e+00	0	32	104	0	81	22704
2026-01-09 12:25:08.59	352.88	13.95	-58.0	-61.3	6.2	0.00e+00	0	32	104	0	81	22681
2026-01-09 12:25:09.59	352.59	13.99	-58.1	-61.3	6.2	0.00e+00	0	32	104	0	81	22794
2026-01-09 12:25:10.58	352.31	14.03	-58.1	-61.3	6.2	0.00e+00	0	32	104	0	81	22739
2026-01-09 12:25:11.58	352.02	14.07	-58.1	-61.3	6.1	0.00e+00	0	32	104	0	81	22744
2026-01-09 12:25:12.58	351.74	14.11	-58.1	-61.3	6.1	0.00e+00	0	32	104	0	81	22816
2026-01-09 12:25:13.58	351.45	14.15	-58.1	-61.4	6.1	0.00e+00	0	32	104	0	81	22891
2026-01-09 12:25:14.57	351.16	14.19	-58.1	-61.3	6.1	0.00e+00	0	32	104	0	81	22857
2026-01-09 12:25:15.56	350.87	14.23	-58.1	-61.3	6.1	0.00e+00	0	32	104	0	81	22816
2026-01-09 12:25:16.56	350.58	14.27	-58.1	-61.3	6.1	0.00e+00	0	32	104	0	81	22839
2026-01-09 12:25:17.56	350.29	14.30	-58.2	-61.4	6.2	0.00e+00	0	32	104	0	82	21736
2026-01-09 12:25:18.55	350.00	14.34	-58.2	-61.4	6.2	0.00e+00	0	33	104	0	82	21700
2026-01-09 12:25:19.55	349.71	14.38	-58.2	-61.4	6.1	0.00e+00	0	32	104	0	82	21791
2026-01-09 12:25:20.54	349.42	14.41	-58.2	-61.4	6.2	0.00e+00	0	32	104	0	82	21716
2026-01-09 12:25:21.54	349.12	14.45	-58.2	-61.4	6.1	0.00e+00	0	33	104	0	82	21802
2026-01-09 12:25:22.54	348.83	14.48	-58.2	-61.5	6.2	0.00e+00	0	33	104	0	82	21863
2026-01-09 12:25:23.54	348.53	14.52	-58.2	-61.4	6.2	0.00e+00	0	33	104	0	82	21807
2026-01-09 12:25:24.53	348.23	14.55	-58.2	-61.4	6.2	0.00e+00	0	33	104	0	82	21768
2026-01-09 12:25:25.53	347.94	14.58	-58.2	-61.5	6.2	0.00e+00	0	33	104	0	82	21928
2026-01-09 12:25:26.51	347.64	14.61	-58.3	-61.5	6.2	0.00e+00	0	32	104	0	82	22025
2026-01-09 12:25:27.51	347.34	14.64	-58.3	-61.5	6.2	0.00e+00	0	33	104	0	82	21928
2026-01-09 12:25:28.50	347.05	14.67	-58.2	-61.5	6.1	0.00e+00	0	32	104	0	82	21952
2026-01-09 12:25:29.49	346.75	14.70	-58.3	-61.5	6.2	0.00e+00	0	33	104	0	82	21909
2026-01-09 12:25:30.48	346.45	14.73	-58.3	-61.5	6.2	0.00e+00	0	33	104	0	82	21894
2026-01-09 12:25:31.48	346.15	14.76	-58.2	-61.5	6.2	0.00e+00	0	33	104	0	82	21957
2026-01-09 12:25:32.47	345.85	14.79	-58.2	-61.4	6.2	0.00e+00	0	32	104	0	82	21835
2026-01-09 12:25:33.47	345.54	14.82	-58.3	-61.5	6.2	0.00e+00	0	33	104	0	82	21943
2026-01-09 12:25:34.47	345.24	14.84	-58.3	-61.5	6.2	0.00e+00	0	32	104	0	82	21900
2026-01-09 12:25:35.47	344.93	14.87	-58.2	-61.4	6.2	0.00e+00	0	32	104	0	82	21832
2026-01-09 12:25:36.46	344.63	14.90	-58.2	-61.5	6.2	0.00e+00	0	32	104	0	82	21861
2026-01-09 12:25:37.46	344.32	14.92	-58.3	-61.5	6.2	0.00e+00	0	32	104	0	82	21891
2026-01-09 12:25:38.45	344.02	14.94	-58.3	-61.5	6.2	0.00e+00	0	33	104	0	82	21947
2026-01-09 12:25:39.45	343.71	14.97	-58.2	-61.5	6.2	0.00e+00	0	33	104	0	82	21883
2026-01-09 12:25:40.45	343.40	14.99	-58.2	-61.5	6.2	0.00e+00	0	33	104	0	82	21929
2026-01-09 12:25:41.44	343.10	15.01	-58.3	-61.5	6.2	0.00e+00	0	33	104	0	82	21925
2026-01-09 12:25:42.43	342.79	15.03	-58.3	-61.5	6.2	0.00e+00	0	32	104	0	82	21929
2026-01-09 12:25:43.43	342.48	15.05	-58.2	-61.4	6.2	0.00e+00	0	33	104	0	82	21853
2026-01-09 12:25:44.43	342.17	15.07	-58.2	-61.5	6.1	0.00e+00	0	32	104	0	82	21889
2026-01-09 12:25:45.43	341.86	15.09	-58.3	-61.5	6.2	0.00e+00	0	33	104	0	82	21980
2026-01-09 12:25:46.43	341.55	15.11	-58.3	-61.5	6.2	0.00e+00	0	32	104	0	82	21986
2026-01-09 12:25:47.43	341.23	15.13	-58.3	-61.5	6.1	0.00e+00	0	32	104	0	82	21912
2026-01-09 12:25:48.43	340.92	15.15	-58.3	-61.5	6.1	0.00e+00	0	33	104	0	82	21916
2026-01-09 12:25:49.42	340.61	15.16	-58.3	-61.5	6.2	0.00e+00	0	33	104	0	82	21988
2026-01-09 12:25:50.43	340.30	15.18	-58.3	-61.5	6.2	0.00e+00	0	32	104	0	82	22068
2026-01-09 12:25:51.43	339.98	15.19	-58.3	-61.5	6.1	0.00e+00	0	32	104	0	82	21934
2026-01-09 12:25:52.43	339.67	15.21	-58.3	-61.5	6.2	0.00e+00	0	33	104	0	82	22046
2026-01-09 12:25:53.43	339.35	15.22	-58.3	-61.5	6.1	0.00e+00	0	32	104	0	82	22016
2026-01-09 12:25:54.42	339.04	15.23	-58.3	-61.5	6.2	0.00e+00	0	32	104	0	82	22059
2026-01-09 12:25:55.42	338.73	15.25	-58.3	-61.5	6.1	0.00e+00	0	32	104	0	82	21976
2026-01-09 12:25:56.43	338.41	15.26	-58.3	-61.5	6.2	0.00e+00	0	33	104	0	82	21952
2026-01-09 12:25:57.43	338.09	15.27	-58.3	-61.5	6.2	0.00e+00	0	32	104	0	82	22006
2026-01-09 12:25:58.43	337.78	15.28	-58.3	-61.5	6.2	0.00e+00	0	32	104	0	82	22040
2026-01-09 12:25:59.43	337.46	15.29	-58.3	-61.5	6.2	0.00e+00	0	33	104	0	82	21916
2026-01-09 12:26:00.41	337.15	15.29	-58.3	-61.6	6.2	0.00e+00	0	32	104	0	82	22127
2026-01-09 12:26:01.42	336.83	15.30	-58.3	-61.6	6.2	0.00e+00	0	32	104	0	82	22205
2026-01-09 12:26:02.43	336.51	15.31	-58.3	-61.6	6.2	0.00e+00	0	33	104	0	82	22127
2026-01-09 12:26:03.41	336.20	15.31	-58.3	-61.5	6.2	0.00e+00	0	32	104	0	82	22079
2026-01-09 12:26:04.41	335.89	15.32	-58.3	-61.6	6.2	0.00e+00	0	32	104	0	82	22120
2026-01-09 12:26:05.41	335.57	15.32	-58.3	-61.6	6.2	0.00e+00	0	32	104	0	82	22164
2026-01-09 12:26:06.41	335.25	15.33	-58.3	-61.5	6.2	0.00e+00	0	33	104	0	82	22104
2026-01-09 12:26:07.40	334.94	15.33	-58.3	-61.5	6.2	0.00e+00	0	32	104	0	82	22035
2026-01-09 12:26:08.39	334.62	15.33	-58.3	-61.5	6.2	0.00e+00	0	32	104	0	82	21972
2026-01-09 12:26:09.40	334.30	15.33	-58.3	-61.5	6.2	0.00e+00	0	32	104	0	82	22078
2026-01-09 12:26:10.41	333.98	15.33	-58.3	-61.6	6.2	0.00e+00	0	32	104	0	82	22120
2026-01-09 12:26:11.41	333.67	15.33	-58.3	-61.5	6.1	0.00e+00	0	32	104	0	82	22076
2026-01-09 12:26:12.41	333.35	15.33	-58.3	-61.5	6.2	0.00e+00	0	33	104	0	82	22079
2026-01-09 12:26:13.41	333.03	15.33	-58.3	-61.5	6.2	0.00e+00	0	33	104	0	82	22068
2026-01-09 12:26:14.41	332.71	15.33	-58.3	-61.5	6.1	0.00e+00	0	33	104	0	82	22108
2026-01-09 12:26:15.41	332.40	15.32	-58.3	-61.5	6.2	0.00e+00	0	33	104	0	82	22000
2026-01-09 12:26:16.41	332.08	15.32	-58.3	-61.5	6.2	0.00e+00	0	32	104	0	82	22081
2026-01-09 12:26:17.42	331.76	15.31	-58.3	-61.5	6.2	0.00e+00	0	33	104	0	82	22045
2026-01-09 12:26:18.42	331.44	15.31	-58.3	-61.5	6.1	0.00e+00	0	32	104	0	82	22012
2026-01-09 12:26:19.42	331.13	15.30	-58.3	-61.5	6.2	0.00e+00	0	33	104	0	82	22034
2026-01-09 12:26:20.42	330.81	15.29	-47.7	-48.1	9.5	0.00e+00	0	33	104	0	62	14906
2026-01-09 12:26:21.41	330.50	15.29	-42.2	-42.5	12.2	3.04e-02	0	33	0	67108864	51	14696
2026-01-09 12:26:22.41	330.18	15.28	-42.6	-42.9	12.0	3.04e-02	0	33	0	184549376	50	16313
2026-01-09 12:26:23.40	329.87	15.27	-47.4	-47.8	10.0	0.00e+00	5513	34	104	243269632	62	14297
2026-01-09 12:26:24.40	329.55	15.26	-39.2	-39.4	12.5	0.00e+00	0	34	0	327155712	45	14586
2026-01-09 12:26:25.40	329.24	15.25	-39.3	-39.6	12.5	0.00e+00	0	34	0	444596224	45	14808
2026-01-09 12:26:26.39	328.92	15.23	-39.1	-39.4	12.5	0.00e+00	0	34	0	553648128	45	14465
2026-01-09 12:26:27.39	328.61	15.22	-39.2	-39.4	12.5	2.74e-02	0	34	0	662700032	45	14590
2026-01-09 12:26:28.39	328.30	15.21	-39.0	-39.3	12.5	2.74e-02	0	34	0	780140544	45	14421
2026-01-09 12:26:29.39	327.98	15.19	-39.0	-39.3	12.6	4.88e-03	0	34	0	889192448	45	14376
2026-01-09 12:26:30.39	327.67	15.18	-39.2	-39.5	12.5	4.88e-03	0	34	0	1006632960	45	14640
2026-01-09 12:26:31.38	327.36	15.16	-38.9	-39.2	12.6	4.23e-03	0	34	0	1115684864	45	14221
2026-01-09 12:26:32.38	327.04	15.15	-38.8	-39.1	12.6	4.23e-03	0	34	0	1224736768	44	14868
2026-01-09 12:26:33.38	326.73	15.13	-39.0	-39.3	12.5	4.23e-03	0	34	0	1342177280	44	15220
2026-01-09 12:26:34.38	326.42	15.11	-38.8	-39.1	12.6	4.23e-03	0	34	0	1451229184	44	14793
2026-01-09 12:26:35.37	326.11	15.09	-38.8	-39.1	12.6	4.08e-03	0	34	0	1568669696	44	14858
2026-01-09 12:26:36.36	325.80	15.08	-38.8	-39.1	12.6	4.08e-03	0	34	0	1669332992	44	14889
2026-01-09 12:26:37.37	325.49	15.06	-38.7	-39.0	12.6	4.08e-03	0	34	0	1786773504	44	14694
2026-01-09 12:26:38.37	325.18	15.03	-38.8	-39.1	12.6	3.34e-03	0	34	0	1904214016	44	14807
2026-01-09 12:26:39.37	324.87	15.01	-38.7	-39.0	12.6	3.34e-03	0	34	0	2013265920	44	14644
2026-01-09 12:26:40.38	324.56	14.99	-38.7	-39.0	12.6	3.34e-03	0	34	0	2130706432	44	14754
2026-01-09 12:26:41.36	324.25	14.97	-38.7	-39.0	12.6	2.45e-03	0	34	0	2231369728	44	14708
2026-01-09 12:26:42.36	323.95	14.95	-38.7	-39.0	12.6	2.45e-03	0	34	0	2348810240	44	14769
2026-01-09 12:26:43.36	323.64	14.92	-38.7	-39.0	12.6	2.45e-03	0	34	0	2457862144	44	14711
2026-01-09 12:26:44.35	323.33	14.90	-38.7	-39.0	12.6	2.54e-03	0	34	0	2575302656	44	14764
2026-01-09 12:26:45.35	323.03	14.87	-38.8	-39.1	12.6	2.54e-03	0	34	0	2684354560	44	14802
2026-01-09 12:26:46.35	322.72	14.84	-38.7	-39.0	12.6	2.54e-03	0	34	0	2793406464	44	14688
2026-01-09 12:26:47.35	322.42	14.82	-38.7	-39.0	12.6	2.54e-03	0	34	0	2910846976	44	14654
2026-01-09 12:26:48.34	322.12	14.79	-38.7	-39.0	12.6	2.41e-03	0	34	0	3019898880	44	14676
2026-01-09 12:26:49.34	321.81	14.76	-38.7	-39.0	12.6	2.41e-03	0	34	0	3137339392	44	14717
2026-01-09 12:26:50.34	321.51	14.73	-38.8	-39.1	12.6	2.79e-03	0	35	0	3246391296	44	14881
2026-01-09 12:26:51.33	321.21	14.70	-38.8	-39.1	12.6	2.79e-03	0	35	0	3363831808	44	14930
2026-01-09 12:26:52.32	320.91	14.67	-38.8	-39.1	12.6	2.79e-03	0	34	0	3472883712	44	14910
2026-01-09 12:26:53.33	320.61	14.64	-38.9	-39.2	12.6	5.14e-03	0	34	0	3581935616	44	15001
2026-01-09 12:26:54.32	320.31	14.61	-38.9	-39.3	12.5	5.14e-03	0	35	0	3699376128	44	15124
2026-01-09 12:26:55.32	320.01	14.58	-38.8	-39.1	12.6	5.14e-03	0	35	0	3808428032	44	14818
2026-01-09 12:26:56.32	319.71	14.55	-38.9	-39.2	12.6	3.65e-03	0	35	0	3917479936	44	14989
2026-01-09 12:26:57.32	319.41	14.51	-38.9	-39.3	12.5	3.65e-03	0	35	0	4034920448	44	15139
2026-01-09 12:26:58.32	319.12	14.48	-39.0	-39.3	12.5	3.20e-03	0	35	0	4143972352	44	15258
2026-01-09 12:26:59.32	318.82	14.45	-38.9	-39.2	12.5	3.20e-03	0	35	0	4253024256	44	15093
2026-01-09 12:27:00.31	318.53	14.41	-39.0	-39.3	12.5	3.20e-03	0	35	0	4370464768	44	15224
2026-01-09 12:27:01.30	318.24	14.38	-38.8	-39.1	12.6	3.40e-03	0	35	0	4479516672	44	14933
2026-01-09 12:27:02.29	317.95	14.34	-39.0	-39.3	12.5	3.40e-03	0	35	0	4588568576	44	15234
2026-01-09 12:27:03.29	317.65	14.30	-38.9	-39.2	12.5	3.40e-03	0	35	0	4706009088	44	15062
2026-01-09 12:27:04.29	317.36	14.27	-38.8	-39.1	12.6	3.40e-03	0	35	0	4815060992	44	14891
2026-01-09 12:27:05.29	317.07	14.23	-38.8	-39.2	12.5	3.41e-03	0	35	0	4932501504	44	14973
2026-01-09 12:27:06.28	316.78	14.19	-38.8	-39.1	12.5	3.41e-03	0	35	0	5041553408	44	14881
2026-01-09 12:27:07.28	316.49	14.15	-38.8	-39.2	12.5	2.84e-03	0	35	0	5150605312	44	14976
2026-01-09 12:27:08.28	316.20	14.11	-38.9	-39.2	12.5	2.84e-03	0	35	0	5268045824	44	15090
2026-01-09 12:27:09.27	315.92	14.07	-39.0	-39.4	12.5	2.84e-03	0	35	0	5377097728	44	15320
2026-01-09 12:27:10.27	315.63	14.03	-38.9	-39.2	12.5	5.98e-03	0	35	0	5494538240	44	15089
2026-01-09 12:27:11.26	315.35	13.99	-39.0	-39.3	12.5	5.98e-03	0	35	0	5595201536	44	15230
2026-01-09 12:27:12.24	315.07	13.95	-39.0	-39.3	12.5	5.98e-03	0	35	0	5712642048	44	15231
2026-01-09 12:27:13.25	314.78	13.91	-39.0	-39.4	12.5	8.47e-03	0	35	0	5821693952	44	15309
2026-01-09 12:27:14.25	314.50	13.86	-39.1	-39.4	12.5	8.47e-03	0	35	0	5939134464	44	15338
2026-01-09 12:27:15.25	314.22	13.82	-39.2	-39.6	12.5	8.47e-03	0	35	0	6048186368	44	15714
2026-01-09 12:27:16.25	313.94	13.78	-39.3	-39.6	12.4	8.15e-03	0	35	0	6157238272	44	15745
2026-01-09 12:27:17.25	313.66	13.73	-58.3	-57.5	4.3	8.15e-03	0	35	104	6266290176	55	65535
2026-01-09 12:27:18.25	313.38	13.69	-58.4	-61.6	6.2	8.15e-03	0	35	104	6266290176	82	22316
2026-01-09 12:27:19.24	313.10	13.64	-58.4	-61.6	6.1	8.15e-03	0	35	104	6266290176	82	22221
2026-01-09 12:27:20.23	312.83	13.60	-58.4	-61.6	6.1	5.81e-03	0	34	104	6266290176	82	22253
2026-01-09 12:27:21.21	312.56	13.55	-58.4	-61.6	6.2	5.81e-03	0	35	104	6266290176	82	22281
2026-01-09 12:27:22.21	312.29	13.51	-58.4	-61.6	6.1	5.81e-03	0	34	104	6266290176	82	22312
2026-01-09 12:27:23.20	312.01	13.46	-58.4	-61.6	6.2	5.81e-03	0	34	104	6266290176	82	22357
2026-01-09 12:27:24.19	311.74	13.41	-58.4	-61.6	6.2	5.81e-03	0	34	104	6266290176	82	22180
2026-01-09 12:27:25.18	311.47	13.37	-58.4	-61.6	6.1	5.81e-03	0	34	104	6266290176	82	22281
2026-01-09 12:27:26.18	311.20	13.32	-58.4	-61.6	6.1	5.81e-03	0	34	104	6266290176	82	22248
2026-01-09 12:27:27.17	310.94	13.27	-58.4	-61.7	6.2	5.81e-03	0	34	104	6266290176	82	22432
2026-01-09 12:27:28.17	310.67	13.22	-58.4	-61.6	6.2	5.81e-03	0	34	104	6266290176	82	22192
2026-01-09 12:27:29.17	310.40	13.17	-58.4	-61.6	6.1	5.81e-03	0	34	104	6266290176	82	22263
2026-01-09 12:27:30.16	310.14	13.12	-58.3	-61.6	6.2	5.81e-03	0	34	104	6266290176	82	22162
2026-01-09 12:27:31.16	309.87	13.07	-58.4	-61.6	6.2	5.81e-03	0	34	104	6266290176	82	22320
2026-01-09 12:27:32.16	309.61	13.02	-58.4	-61.6	6.2	5.81e-03	0	34	104	6266290176	82	22272
2026-01-09 12:27:33.16	309.34	12.97	-58.4	-61.6	6.1	5.81e-03	0	34	104	6266290176	82	22280
2026-01-09 12:27:34.15	309.09	12.92	-58.3	-61.6	6.2	5.81e-03	0	34	104	6266290176	82	22142
2026-01-09 12:27:35.15	308.82	12.87	-58.4	-61.6	6.2	5.81e-03	0	34	104	6266290176	82	22249
2026-01-09 12:27:36.16	308.56	12.81	-58.4	-61.6	6.1	5.81e-03	0	34	104	6266290176	82	22160
2026-01-09 12:27:37.16	308.30	12.76	-58.4	-61.6	6.2	5.81e-03	0	34	104	6266290176	82	22228
2026-01-09 12:27:38.15	308.05	12.71	-58.3	-61.6	6.2	0.00e+00	0	34	104	6266290176	82	22171
2026-01-09 12:27:39.16	307.79	12.66	-58.4	-61.6	6.1	0.00e+00	0	34	104	6266290176	82	22292
2026-01-09 12:27:40.16	307.53	12.60	-58.3	-61.6	6.1	0.00e+00	0	34	104	6266290176	82	22116
2026-01-09 12:27:41.16	307.28	12.55	-58.3	-61.6	6.2	0.00e+00	0	34	104	6266290176	82	22118
2026-01-09 12:27:42.16	307.03	12.49	-58.3	-61.5	6.2	0.00e+00	0	34	104	6266290176	82	22029
2026-01-09 12:27:43.16	306.77	12.44	-58.4	-61.6	6.2	0.00e+00	0	34	104	6266290176	82	22232
2026-01-09 12:27:44.16	306.52	12.38	-58.3	-61.6	6.1	0.00e+00	0	34	104	6266290176	82	22168
2026-01-09 12:27:45.17	306.27	12.33	-58.2	-61.6	6.2	0.00e+00	0	34	104	6266290176	82	22174
2026-01-09 12:27:46.17	306.02	12.27	-58.3	-61.5	6.2	0.00e+00	0	34	104	6266290176	82	22065
2026-01-09 12:27:47.17	305.77	12.22	-58.3	-61.6	6.1	0.00e+00	0	34	104	6266290176	82	22169
2026-01-09 12:27:48.18	305.53	12.16	-58.3	-61.6	6.1	0.00e+00	0	34	104	6266290176	82	22125
2026-01-09 12:27:49.18	305.28	12.11	-58.3	-61.5	6.2	0.00e+00	0	34	104	6266290176	82	22084
2026-01-09 12:27:50.18	305.04	12.05	-58.3	-61.5	6.1	0.00e+00	0	34	104	6266290176	82	21992
2026-01-09 12:27:51.18	304.79	11.99	-58.3	-61.6	6.1	0.00e+00	0	34	104	6266290176	82	22118
2026-01-09 12:27:52.18	304.55	11.93	-58.3	-61.5	6.2	0.00e+00	0	34	104	6266290176	82	22092
2026-01-09 12:27:53.18	304.31	11.88	-58.3	-61.5	6.1	0.00e+00	0	34	104	6266290176	82	22077
2026-01-09 12:27:54.18	304.07	11.82	-58.3	-61.5	6.2	0.00e+00	0	34	104	6266290176	82	21961
2026-01-09 12:27:55.18	303.83	11.76	-58.3	-61.6	6.2	0.00e+00	0	34	104	6266290176	82	22133
2026-01-09 12:27:56.17	303.60	11.70	-58.3	-61.5	6.1	0.00e+00	0	34	104	6266290176	82	21902
2026-01-09 12:27:57.17	303.36	11.65	-58.3	-61.5	6.2	0.00e+00	0	34	104	6266290176	82	22019
2026-01-09 12:27:58.18	303.12	11.59	-58.2	-61.5	6.2	0.00e+00	0	34	104	6266290176	82	21987
2026-01-09 12:27:59.17	302.89	11.53	-58.3	-61.6	6.2	0.00e+00	0	34	104	6266290176	82	22146
2026-01-09 12:28:00.17	302.66	11.47	-58.3	-61.5	6.2	0.00e+00	0	34	104	6266290176	82	21989
2026-01-09 12:28:01.17	302.43	11.41	-58.3	-61.5	6.2	0.00e+00	0	34	104	6266290176	82	22047
2026-01-09 12:28:02.17	302.20	11.35	-58.3	-61.5	6.2	0.00e+00	0	34	104	6266290176	82	21999
2026-01-09 12:28:03.16	301.97	11.29	-58.3	-61.5	6.2	0.00e+00	0	33	104	6266290176	82	22105
2026-01-09 12:28:04.16	301.74	11.23	-58.3	-61.5	6.2	0.00e+00	0	34	104	6266290176	82	22021
2026-01-09 12:28:05.16	301.52	11.17	-58.3	-61.5	6.2	0.00e+00	0	34	104	6266290176	82	22041
2026-01-09 12:28:06.16	301.29	11.11	-58.3	-61.5	6.1	0.00e+00	0	34	104	6266290176	82	21963
2026-01-09 12:28:07.38	301.02	11.04	-58.3	-61.5	6.2	0.00e+00	0	33	104	6266290176	82	21986
2026-01-09 12:28:08.24	300.82	10.99	-58.3	-61.5	6.1	0.00e+00	0	34	104	6266290176	82	22000
2026-01-09 12:28:09.38	300.57	10.92	-58.2	-61.5	6.2	0.00e+00	0	34	104	6266290176	82	21933
2026-01-09 12:28:10.23	300.38	10.87	-58.3	-61.5	6.2	0.00e+00	0	34	104	6266290176	82	22005
2026-01-09 12:28:11.37	300.13	10.80	-58.3	-61.5	6.1	0.00e+00	0	33	104	6266290176	82	22015
2026-01-09 12:28:12.23	299.94	10.75	-58.3	-61.5	6.1	0.00e+00	0	33	104	6266290176	82	21935
2026-01-09 12:28:13.36	299.70	10.68	-58.3	-61.5	6.2	0.00e+00	0	34	104	6266290176	82	21918
2026-01-09 12:28:14.21	299.51	10.62	-58.3	-61.5	6.1	0.00e+00	0	33	104	6266290176	82	21928
2026-01-09 12:28:15.35	299.27	10.55	-58.3	-61.5	6.1	0.00e+00	0	33	104	6266290176	82	21993
2026-01-09 12:28:16.20	299.08	10.50	-58.2	-61.5	6.1	0.00e+00	0	33	104	6266290176	82	21927
2026-01-09 12:28:17.35	298.84	10.43	-58.3	-61.5	6.2	0.00e+00	0	33	104	6266290176	82	21929
2026-01-09 12:28:18.21	298.66	10.38	-58.2	-61.5	6.2	0.00e+00	0	33	104	6266290176	82	21903
2026-01-09 12:28:19.35	298.42	10.31	-58.3	-61.5	6.2	0.00e+00	0	33	104	6266290176	82	21964
2026-01-09 12:28:20.21	298.23	10.25	-58.2	-61.4	6.2	0.00e+00	0	33	104	6266290176	82	21801
2026-01-09 12:28:21.35	298.00	10.18	-58.2	-61.4	6.2	0.00e+00	0	33	104	6266290176	82	21778
2026-01-09 12:28:22.20	297.82	10.13	-58.2	-61.4	6.2	0.00e+00	0	33	104	6266290176	82	21839
2026-01-09 12:28:23.34	297.58	10.06	-58.2	-61.5	6.2	0.00e+00	0	33	104	6266290176	82	21895
2026-01-09 12:28:24.19	297.41	10.01	-58.2	-61.4	6.2	0.00e+00	0	33	104	6266290176	82	21743
2026-01-09 12:28:25.33	297.18	9.93	-58.2	-61.4	6.1	0.00e+00	0	34	104	6266290176	82	21789
2026-01-09 12:28:26.18	297.00	9.88	-58.2	-61.4	6.2	0.00e+00	0	33	104	6266290176	82	21850
2026-01-09 12:28:27.31	296.77	9.81	-58.2	-61.5	6.2	0.00e+00	0	34	104	6266290176	82	21886
2026-01-09 12:28:28.16	296.60	9.76	-58.2	-61.4	6.2	0.00e+00	0	33	104	6266290176	82	21711
2026-01-09 12:28:29.30	296.37	9.69	-58.2	-61.4	6.2	0.00e+00	0	34	104	6266290176	82	21723
2026-01-09 12:28:30.16	296.20	9.63	-58.2	-61.4	6.1	0.00e+00	0	33	104	6266290176	82	21807
2026-01-09 12:28:31.29	295.98	9.56	-58.2	-61.5	6.2	0.00e+00	0	33	104	6266290176	82	21864
2026-01-09 12:28:32.14	295.81	9.51	-58.2	-61.4	6.2	0.00e+00	0	33	104	6266290176	82	21741
2026-01-09 12:28:33.28	295.59	9.43	-58.2	-61.4	6.2	0.00e+00	0	33	104	6266290176	82	21761
2026-01-09 12:28:34.13	295.42	9.38	-58.2	-61.5	6.2	0.00e+00	0	33	104	6266290176	82	21935
2026-01-09 12:28:35.26	295.20	9.31	-58.2	-61.4	6.1	0.00e+00	0	33	104	6266290176	82	21852
2026-01-09 12:28:36.12	295.03	9.25	-58.2	-61.4	6.1	0.00e+00	0	33	104	6266290176	82	21764
2026-01-09 12:28:37.25	294.82	9.18	-58.2	-61.4	6.1	0.00e+00	0	33	104	6266290176	82	21773
2026-01-09 12:28:38.11	294.65	9.13	-58.2	-61.5	6.1	0.00e+00	0	33	104	6266290176	82	21880
2026-01-09 12:28:39.25	294.44	9.06	-58.2	-61.5	6.2	0.00e+00	0	33	104	6266290176	82	21872
2026-01-09 12:28:40.10	294.28	9.00	-58.1	-61.3	6.2	0.00e+00	0	34	104	6266290176	82	21554
2026-01-09 12:28:41.24	294.06	8.93	-58.2	-61.4	6.2	0.00e+00	0	34	104	6266290176	82	21748
2026-01-09 12:28:42.10	293.90	8.87	-58.2	-61.5	6.2	0.00e+00	0	33	104	6266290176	82	21941
2026-01-09 12:28:43.24	293.69	8.80	-58.2	-61.5	6.2	0.00e+00	0	33	104	6266290176	82	21905
2026-01-09 12:28:44.09	293.53	8.75	-58.2	-61.4	6.2	0.00e+00	0	33	104	6266290176	82	21705
2026-01-09 12:28:45.23	293.32	8.68	-58.2	-61.4	6.2	0.00e+00	0	33	104	6266290176	82	21709
2026-01-09 12:28:46.08	293.17	8.62	-58.2	-61.4	6.2	0.00e+00	0	33	104	6266290176	82	21801
2026-01-09 12:28:47.22	292.96	8.55	-58.2	-61.4	6.1	0.00e+00	0	33	104	6266290176	82	21839
2026-01-09 12:28:48.08	292.80	8.49	-58.1	-61.4	6.2	0.00e+00	0	33	104	6266290176	82	21611
2026-01-09 12:28:49.23	292.60	8.42	-58.1	-61.4	6.2	0.00e+00	0	33	104	6266290176	82	21673
2026-01-09 12:28:50.08	292.44	8.37	-58.2	-61.5	6.2	0.00e+00	0	33	104	6266290176	82	21909
2026-01-09 12:28:51.22	292.24	8.29	-58.2	-61.4	6.2	0.00e+00	0	33	104	6266290176	82	21790
2026-01-09 12:28:52.08	292.09	8.24	-58.1	-61.3	6.2	0.00e+00	0	33	104	6266290176	82	21492
2026-01-09 12:28:53.22	291.89	8.17	-58.1	-61.3	6.2	0.00e+00	0	33	104	6266290176	82	21564
2026-01-09 12:28:54.07	291.74	8.11	-58.2	-61.4	6.2	0.00e+00	0	33	104	6266290176	82	21822
2026-01-09 12:28:55.21	291.54	8.04	-58.2	-61.4	6.2	0.00e+00	0	33	104	6266290176	82	21721
2026-01-09 12:28:56.07	291.39	7.98	-58.0	-61.3	6.2	0.00e+00	0	33	104	6266290176	82	21407
2026-01-09 12:28:57.22	291.19	7.91	-58.1	-61.3	6.2	0.00e+00	0	33	104	6266290176	82	21457
2026-01-09 12:28:58.07	291.05	7.86	-58.2	-61.4	6.1	0.00e+00	0	33	104	6266290176	82	21737
2026-01-09 12:28:59.23	290.85	7.78	-58.2	-61.4	6.2	0.00e+00	0	33	104	6266290176	82	21707
2026-01-09 12:29:00.08	290.71	7.73	-58.0	-61.2	6.2	0.00e+00	0	33	104	6266290176	82	21327
2026-01-09 12:29:01.21	290.52	7.66	-58.0	-61.3	6.2	0.00e+00	0	33	104	6266290176	82	21447
2026-01-09 12:29:02.08	290.37	7.60	-58.1	-61.4	6.2	0.00e+00	0	33	104	6266290176	82	21628
2026-01-09 12:29:03.23	290.18	7.53	-58.1	-61.4	6.1	0.00e+00	0	33	104	6266290176	82	21619
2026-01-09 12:29:04.09	290.04	7.47	-58.0	-61.2	6.2	0.00e+00	0	33	104	6266290176	82	21159
2026-01-09 12:29:05.24	289.85	7.40	-58.0	-61.3	6.2	0.00e+00	0	33	104	6266290176	82	21382
2026-01-09 12:29:06.09	289.71	7.35	-58.1	-61.4	6.2	0.00e+00	0	33	104	6266290176	82	21613
2026-01-09 12:29:07.24	289.52	7.27	-58.1	-61.3	6.2	0.00e+00	0	33	104	6266290176	82	21517
2026-01-09 12:29:08.10	289.38	7.22	-57.9	-61.1	6.2	0.00e+00	0	33	104	6266290176	82	21109
2026-01-09 12:29:09.25	289.19	7.14	-58.0	-61.2	6.2	0.00e+00	0	34	104	6266290176	82	21234
2026-01-09 12:29:10.11	289.06	7.09	-58.1	-61.3	6.2	0.00e+00	0	33	104	6266290176	82	21491
2026-01-09 12:29:11.25	288.88	7.02	-58.0	-61.3	6.2	0.00e+00	0	33	104	6266290176	82	21439
2026-01-09 12:29:12.10	288.74	6.96	-57.9	-61.1	6.2	0.00e+00	0	33	104	6266290176	82	21032
2026-01-09 12:29:13.25	288.56	6.89	-57.9	-61.1	6.2	0.00e+00	0	33	104	6266290176	82	21002
2026-01-09 12:29:14.11	288.42	6.84	-58.0	-61.2	6.2	0.00e+00	0	33	104	6266290176	82	21329
2026-01-09 12:29:15.24	288.25	6.76	-58.0	-61.2	6.2	0.00e+00	0	33	104	6266290176	82	21265
2026-01-09 12:29:16.10	288.11	6.71	-57.8	-61.1	6.2	0.00e+00	0	33	104	6266290176	82	20971
2026-01-09 12:29:17.24	287.94	6.64	-57.9	-61.1	6.2	0.00e+00	0	33	104	6266290176	82	21056
2026-01-09 12:29:18.10	287.81	6.58	-58.0	-61.2	6.2	0.00e+00	0	33	104	6266290176	82	21256
2026-01-09 12:29:19.24	287.63	6.51	-58.0	-61.2	6.1	0.00e+00	0	33	104	6266290176	82	21209
2026-01-09 12:29:20.10	287.50	6.46	-57.8	-61.1	6.2	0.00e+00	0	33	104	6266290176	82	20875
2026-01-09 12:29:21.25	287.33	6.38	-57.8	-61.1	6.2	0.00e+00	0	33	104	6266290176	82	20933
2026-01-09 12:29:22.10	287.20	6.33	-57.9	-61.2	6.2	0.00e+00	0	33	104	6266290176	82	21191
2026-01-09 12:29:23.23	287.03	6.26	-57.9	-61.1	6.1	0.00e+00	0	33	104	6266290176	82	21094
2026-01-09 12:29:24.08	286.91	6.21	-57.8	-61.0	6.2	0.00e+00	0	33	104	6266290176	82	20787
2026-01-09 12:29:25.22	286.74	6.13	-57.8	-61.1	6.2	0.00e+00	0	33	104	6266290176	82	20939
2026-01-09 12:29:26.08	286.61	6.08	-57.9	-61.1	6.2	0.00e+00	0	33	104	6266290176	82	21110
2026-01-09 12:29:27.22	286.45	6.01	-57.9	-61.1	6.2	0.00e+00	0	33	104	6266290176	82	21087
2026-01-09 12:29:28.06	286.32	5.96	-57.8	-61.0	6.2	0.00e+00	0	33	104	6266290176	82	20779
2026-01-09 12:29:29.20	286.16	5.88	-57.8	-61.0	6.2	0.00e+00	0	33	104	6266290176	82	20806
2026-01-09 12:29:30.05	286.04	5.83	-57.9	-61.1	6.2	0.00e+00	0	33	104	6266290176	82	21109
2026-01-09 12:29:31.19	285.87	5.76	-57.9	-61.1	6.2	0.00e+00	0	33	104	6266290176	82	21004
2026-01-09 12:29:32.03	285.75	5.71	-57.7	-61.0	6.2	0.00e+00	0	33	104	6266290176	82	20645
2026-01-09 12:29:33.17	285.59	5.64	-57.8	-61.0	6.2	0.00e+00	0	33	104	6266290176	82	20741
2026-01-09 12:29:34.03	285.47	5.58	-57.9	-61.1	6.2	0.00e+00	0	33	104	6266290176	82	20888
2026-01-09 12:29:35.17	285.31	5.51	-57.8	-61.0	6.2	0.00e+00	0	33	104	6266290176	82	20871
2026-01-09 12:29:36.03	285.19	5.46	-57.7	-60.9	6.2	0.00e+00	0	33	104	6266290176	82	20572
2026-01-09 12:29:37.16	285.04	5.39	-57.7	-61.0	6.2	0.00e+00	0	33	104	6266290176	82	20665
2026-01-09 12:29:38.01	284.92	5.33	-57.8	-61.1	6.2	0.00e+00	0	33	104	6266290176	82	20895
2026-01-09 12:29:39.14	284.77	5.26	-57.8	-61.0	6.2	0.00e+00	0	33	104	6266290176	82	20774
2026-01-09 12:29:40.00	284.65	5.21	-57.7	-60.9	6.1	0.00e+00	0	33	104	6266290176	82	20414
2026-01-09 12:29:41.14	284.49	5.14	-57.7	-60.9	6.2	0.00e+00	0	33	104	6266290176	82	20493
2026-01-09 12:29:41.99	284.38	5.09	-57.8	-61.0	6.2	0.00e+00	0	33	104	6266290176	82	20726
2026-01-09 12:29:43.13	284.23	5.02	-57.7	-61.0	6.2	0.00e+00	0	33	104	6266290176	82	20679
2026-01-09 12:29:43.98	284.11	4.96	-57.8	-61.1	6.2	0.00e+00	0	33	104	6266290176	82	20920
2026-01-09 12:29:45.10	283.97	4.89	-58.2	-61.4	6.2	0.00e+00	0	33	104	6266290176	82	21797
2026-01-09 12:29:45.96	283.85	4.84	-58.4	-61.6	6.1	0.00e+00	0	33	104	6266290176	82	22273
2026-01-09 12:29:47.09	283.70	4.77	-58.6	-61.8	6.1	0.00e+00	0	33	104	6266290176	82	22774
2026-01-09 12:29:47.95	283.59	4.72	-58.7	-61.9	6.2	0.00e+00	0	33	104	6266290176	83	21750
2026-01-09 12:29:49.09	283.45	4.65	-58.8	-62.0	6.2	0.00e+00	0	33	104	6266290176	83	22082
2026-01-09 12:29:49.94	283.34	4.60	-58.9	-62.1	6.2	0.00e+00	0	33	104	6266290176	83	22263
2026-01-09 12:29:51.08	283.19	4.53	-59.0	-62.2	6.1	0.00e+00	0	33	104	6266290176	83	22506
2026-01-09 12:29:51.93	283.08	4.48	-59.0	-62.3	6.2	0.00e+00	0	33	104	6266290176	83	22675
2026-01-09 12:29:53.08	282.94	4.40	-59.1	-62.3	6.1	0.00e+00	0	33	104	6266290176	83	22863
2026-01-09 12:29:53.93	282.83	4.35	-59.3	-62.6	6.1	0.00e+00	0	33	104	6266290176	84	22196
2026-01-09 12:29:55.06	282.69	4.28	-59.4	-62.7	6.2	0.00e+00	0	33	104	6266290176	84	22400
2026-01-09 12:29:55.91	282.58	4.23	-59.5	-62.7	6.1	0.00e+00	0	33	104	6266290176	84	22540
2026-01-09 12:29:57.05	282.44	4.16	-59.5	-62.8	6.2	0.00e+00	0	33	104	6266290176	84	22642
2026-01-09 12:29:57.91	282.33	4.11	-59.5	-62.8	6.2	0.00e+00	0	33	104	6266290176	84	22654
2026-01-09 12:29:59.05	282.19	4.04	-59.6	-62.8	6.2	0.00e+00	0	33	104	6266290176	84	22722
2026-01-09 12:29:59.90	282.09	3.99	-59.6	-62.8	6.1	0.00e+00	0	33	104	6266290176	84	22753
2026-01-09 12:30:01.04	281.95	3.92	-59.6	-62.8	6.2	0.00e+00	0	33	104	6266290176	84	22821
2026-01-09 12:30:01.89	281.85	3.87	-59.6	-62.8	6.2	0.00e+00	0	33	104	6266290176	84	22806
2026-01-09 12:30:03.03	281.71	3.80	-59.6	-62.8	6.2	0.00e+00	0	33	104	6266290176	84	22779
2026-01-09 12:30:03.88	281.61	3.75	-59.6	-62.8	6.2	0.00e+00	0	33	104	6266290176	84	22814
2026-01-09 12:30:05.02	281.47	3.68	-59.6	-62.8	6.2	0.00e+00	0	33	104	6266290176	84	22871
2026-01-09 12:30:05.88	281.37	3.63	-59.6	-62.8	6.2	0.00e+00	0	33	104	6266290176	84	22826
2026-01-09 12:30:07.02	281.24	3.56	-59.6	-62.8	6.2	0.00e+00	0	33	104	6266290176	84	22880
2026-01-09 12:30:07.88	281.14	3.51	-59.7	-62.9	6.2	0.00e+00	0	33	104	6266290176	85	21728
2026-01-09 12:30:09.02	281.00	3.44	-59.6	-62.9	6.2	0.00e+00	0	33	104	6266290176	85	21626
2026-01-09 12:30:09.87	280.91	3.39	-59.6	-62.8	6.1	0.00e+00	0	33	104	6266290176	85	21603
2026-01-09 12:30:11.01	280.77	3.32	-59.6	-62.9	6.1	0.00e+00	0	33	104	6266290176	85	21615
2026-01-09 12:30:11.87	280.68	3.27	-59.6	-62.8	6.2	0.00e+00	0	33	104	6266290176	85	21471
2026-01-09 12:30:13.02	280.54	3.20	-59.5	-62.8	6.2	0.00e+00	0	33	104	6266290176	85	21392
2026-01-09 12:30:13.87	280.45	3.15	-59.5	-62.7	6.2	0.00e+00	0	33	104	6266290176	85	21290
2026-01-09 12:30:15.01	280.32	3.08	-59.5	-62.7	6.2	0.00e+00	0	33	104	6266290176	85	21316
2026-01-09 12:30:15.87	280.22	3.03	-59.5	-62.7	6.1	0.00e+00	0	33	104	6266290176	85	21268
2026-01-09 12:30:17.00	280.10	2.97	-59.5	-62.7	6.2	0.00e+00	0	33	104	6266290176	85	21204
2026-01-09 12:30:17.86	280.00	2.91	-59.5	-62.6	6.2	0.00e+00	0	33	104	6266290176	85	21091
2026-01-09 12:30:19.00	279.88	2.85	-59.4	-62.7	6.2	0.00e+00	0	33	104	6266290176	85	21168
2026-01-09 12:30:19.85	279.78	2.80	-59.4	-62.7	6.1	0.00e+00	0	33	104	6266290176	85	21230
2026-01-09 12:30:21.00	279.66	2.73	-59.4	-62.7	6.2	0.00e+00	0	33	104	6266290176	85	21142
2026-01-09 12:30:21.86	279.56	2.68	-59.4	-62.7	6.1	0.00e+00	0	33	104	6266290176	85	21156
2026-01-09 12:30:23.00	279.44	2.61	-59.4	-62.6	6.2	0.00e+00	0	33	104	6266290176	85	21049
2026-01-09 12:30:23.83	279.35	2.56	-59.4	-62.6	6.2	0.00e+00	0	33	104	6266290176	85	21011
2026-01-09 12:30:24.97	279.23	2.50	-59.4	-62.6	6.1	0.00e+00	0	33	104	6266290176	85	21029
2026-01-09 12:30:25.82	279.14	2.45	-59.4	-62.6	6.2	0.00e+00	0	33	104	6266290176	85	21031
2026-01-09 12:30:26.96	279.02	2.38	-59.4	-62.6	6.2	0.00e+00	0	34	104	6266290176	85	21074
2026-01-09 12:30:27.82	278.93	2.33	-59.4	-62.6	6.2	0.00e+00	0	33	104	6266290176	85	20991
2026-01-09 12:30:28.96	278.81	2.26	-59.4	-62.6	6.2	0.00e+00	0	33	104	6266290176	85	20985
2026-01-09 12:30:29.82	278.72	2.21	-59.4	-62.6	6.1	0.00e+00	0	33	104	6266290176	85	21006
2026-01-09 12:30:30.95	278.60	2.15	-59.4	-62.6	6.2	0.00e+00	0	33	104	6266290176	85	21006
2026-01-09 12:30:31.80	278.51	2.10	-59.4	-62.6	6.2	0.00e+00	0	33	104	6266290176	85	21030
2026-01-09 12:30:32.94	278.39	2.03	-59.4	-62.6	6.2	0.00e+00	0	33	104	6266290176	85	21012
2026-01-09 12:30:33.79	278.31	1.98	-59.4	-62.6	6.1	0.00e+00	0	33	104	6266290176	85	21084
2026-01-09 12:30:34.93	278.19	1.92	-59.4	-62.6	6.2	0.00e+00	0	33	104	6266290176	85	20955
2026-01-09 12:30:35.78	278.11	1.87	-59.4	-62.6	6.1	0.00e+00	0	33	104	6266290176	85	20978

#Closed at: 2026-01-09 12:30:36
#Recorded file [6266 MB]: D:/lorett/data/31004_260109_152146.dat