passes_logs/2026/01/09/R3.2S_Murmansk/R3.2S_Murmansk__20260109_140333_FENGYUN_3D_rec.log

#Pass ID: 20260109_140333_FENGYUN 3D
#Satellite: FENGYUN 3D
#Configuration: FENGYUN 3D
#almurnet v.1.7.20251203
#Start time: 2026-01-09 14:03:33

#Version: 2.2.20231116
#Station: R3.2S_Murmansk
#Location: 33.079688 lon 68.888172 lat
#TLE: 1 43010U 17072A   26008.59015185 -.00000067  00000+0 -98204-5 0  9997
#TLE: 2 43010  98.9935 340.3069 0002117 119.1923 240.9464 14.19693468422340

#Time	Az	El	Level	Level2	SNR	BER	BlckErr	Temp	State	Recorded	gain1	gain2
2026-01-09 14:03:33.82	215.23	2.03	-57.7	-70.6	3.8	8.46e-01	0	21	0	0	81	16042
2026-01-09 14:03:34.82	215.31	2.09	-57.6	-70.6	3.8	8.45e-01	0	21	104	0	80	16921
2026-01-09 14:03:35.81	215.38	2.14	-57.6	-70.6	3.8	8.46e-01	0	21	104	0	80	16970
2026-01-09 14:03:36.81	215.46	2.20	-57.6	-70.6	3.8	8.45e-01	0	21	104	0	80	16953
2026-01-09 14:03:37.81	215.53	2.25	-57.6	-70.5	3.8	8.46e-01	0	21	104	0	80	16867
2026-01-09 14:03:38.81	215.61	2.30	-57.6	-70.5	3.8	8.46e-01	0	21	104	0	80	16838
2026-01-09 14:03:39.80	215.68	2.36	-57.6	-70.5	3.8	8.46e-01	0	21	104	0	80	16711
2026-01-09 14:03:40.80	215.76	2.41	-57.6	-70.5	3.8	8.45e-01	0	22	104	0	80	16753
2026-01-09 14:03:41.80	215.84	2.47	-57.6	-70.4	3.8	8.45e-01	0	22	104	0	80	16693
2026-01-09 14:03:42.80	215.91	2.52	-57.6	-70.5	3.8	8.45e-01	0	22	104	0	80	16820
2026-01-09 14:03:43.79	215.99	2.58	-57.6	-70.6	3.8	8.44e-01	0	22	104	0	80	16929
2026-01-09 14:03:44.79	216.06	2.63	-57.6	-70.6	3.8	8.46e-01	0	22	104	0	80	16981
2026-01-09 14:03:45.78	216.14	2.69	-57.6	-70.6	3.8	8.46e-01	0	22	104	0	80	17021
2026-01-09 14:03:46.78	216.22	2.74	-57.6	-70.6	3.8	8.46e-01	0	22	104	0	80	16934
2026-01-09 14:03:47.78	216.30	2.80	-57.6	-70.5	3.8	8.46e-01	0	22	104	0	80	16852
2026-01-09 14:03:48.77	216.37	2.85	-57.7	-70.5	3.8	8.46e-01	0	22	104	0	80	16881
2026-01-09 14:03:49.78	216.45	2.91	-57.6	-70.5	3.8	8.46e-01	0	22	104	0	80	16810
2026-01-09 14:03:50.77	216.53	2.96	-57.7	-70.5	3.8	8.46e-01	0	22	104	0	80	16772
2026-01-09 14:03:51.76	216.61	3.01	-57.7	-70.6	3.8	8.45e-01	0	22	104	0	80	16923
2026-01-09 14:03:52.76	216.69	3.07	-57.7	-70.6	3.8	8.45e-01	0	22	104	0	80	16909
2026-01-09 14:03:53.76	216.77	3.13	-57.7	-70.7	3.8	8.46e-01	0	22	104	0	80	17102
2026-01-09 14:03:54.75	216.85	3.18	-57.7	-70.6	3.8	8.46e-01	0	22	104	0	80	17006
2026-01-09 14:03:55.75	216.93	3.24	-57.7	-70.6	3.8	8.46e-01	0	22	104	0	80	17002
2026-01-09 14:03:56.75	217.01	3.29	-57.6	-70.6	3.8	8.44e-01	0	22	104	0	80	17066
2026-01-09 14:03:57.76	217.09	3.35	-57.6	-70.6	3.8	8.45e-01	0	22	104	0	80	16939
2026-01-09 14:03:58.76	217.17	3.40	-57.6	-70.6	3.8	8.46e-01	0	22	104	0	80	16921
2026-01-09 14:03:59.76	217.25	3.46	-57.6	-70.5	3.8	8.46e-01	0	22	104	0	80	16711
2026-01-09 14:04:00.76	217.33	3.52	-57.6	-70.4	3.8	8.45e-01	0	22	104	0	80	16587
2026-01-09 14:04:01.75	217.41	3.57	-57.6	-70.3	3.8	8.47e-01	0	22	104	0	80	16453
2026-01-09 14:04:02.75	217.50	3.63	-57.6	-70.2	3.8	8.47e-01	0	22	104	0	80	16128
2026-01-09 14:04:03.74	217.58	3.68	-57.6	-70.2	3.8	8.45e-01	0	22	104	0	80	16237
2026-01-09 14:04:04.74	217.66	3.74	-57.6	-70.1	3.8	8.45e-01	0	22	104	0	80	15985
2026-01-09 14:04:05.74	217.74	3.79	-57.6	-70.1	3.8	8.46e-01	0	23	104	0	80	16117
2026-01-09 14:04:06.74	217.83	3.85	-57.6	-70.0	3.8	8.46e-01	0	22	104	0	80	15871
2026-01-09 14:04:07.74	217.91	3.91	-57.6	-69.9	3.8	8.45e-01	0	22	104	0	80	15662
2026-01-09 14:04:08.75	218.00	3.96	-57.6	-69.7	3.8	8.46e-01	0	22	104	0	80	15262
2026-01-09 14:04:09.75	218.08	4.02	-57.6	-69.6	3.8	8.46e-01	0	22	104	0	80	15074
2026-01-09 14:04:10.75	218.16	4.08	-57.6	-69.9	3.8	8.44e-01	0	22	104	0	80	15757
2026-01-09 14:04:11.76	218.25	4.13	-57.6	-70.3	3.8	8.45e-01	0	22	104	0	80	16439
2026-01-09 14:04:12.76	218.34	4.19	-57.6	-70.6	3.8	8.46e-01	0	22	104	0	80	16926
2026-01-09 14:04:13.75	218.42	4.25	-57.6	-70.1	3.8	8.47e-01	0	22	104	0	80	16102
2026-01-09 14:04:14.76	218.51	4.30	-57.6	-69.2	3.8	8.45e-01	0	22	104	0	80	14488
2026-01-09 14:04:15.75	218.59	4.36	-57.4	-67.0	4.2	8.42e-01	0	23	0	0	80	11163
2026-01-09 14:04:16.75	218.68	4.42	-57.2	-65.6	4.7	8.06e-01	0	23	0	0	80	9575
2026-01-09 14:04:17.75	218.76	4.48	-56.9	-64.4	5.4	7.45e-01	0	22	0	0	80	8291
2026-01-09 14:04:18.75	218.85	4.53	-56.7	-63.4	6.0	3.33e-01	0	23	0	4194304	80	7388
2026-01-09 14:04:19.75	218.94	4.59	-56.6	-62.9	6.3	2.49e-01	0	23	0	9437184	79	7411
2026-01-09 14:04:20.75	219.03	4.65	-56.4	-62.1	7.1	1.94e-01	0	22	0	14680064	79	6726
2026-01-09 14:04:21.74	219.11	4.70	-55.9	-60.7	8.2	5.70e-02	0	22	0	20971520	78	6128
2026-01-09 14:04:22.75	219.20	4.76	-55.4	-59.6	9.2	2.60e-02	0	23	0	26214400	77	5701
2026-01-09 14:04:23.75	219.29	4.82	-54.3	-57.5	10.9	1.13e-03	0	23	0	31457280	75	5011
2026-01-09 14:04:24.76	219.38	4.88	-53.4	-56.0	12.0	5.95e-05	0	23	0	37748736	73	4747
2026-01-09 14:04:25.76	219.47	4.93	-52.2	-54.3	13.1	0.00e+00	0	23	0	42991616	71	4384
2026-01-09 14:04:26.76	219.56	4.99	-51.8	-53.8	13.4	0.00e+00	0	23	0	49283072	70	4355
2026-01-09 14:04:27.76	219.65	5.05	-51.7	-53.7	13.3	0.00e+00	0	23	0	54525952	69	4572
2026-01-09 14:04:28.77	219.74	5.11	-54.6	-58.0	10.5	4.11e-05	0	23	0	59768832	74	5642
2026-01-09 14:04:29.76	219.83	5.17	-50.5	-52.2	14.1	2.40e-05	0	22	0	66060288	67	4310
2026-01-09 14:04:30.77	219.93	5.22	-56.1	-61.5	7.5	5.48e-03	0	23	0	71303168	77	7051
2026-01-09 14:04:31.76	220.02	5.28	-49.2	-50.6	14.6	1.39e-03	0	23	0	76546048	64	4279
2026-01-09 14:04:32.76	220.11	5.34	-49.3	-50.8	14.5	0.00e+00	0	23	0	82837504	64	4373
2026-01-09 14:04:33.76	220.20	5.40	-49.4	-50.8	14.5	0.00e+00	0	23	0	88080384	64	4385
2026-01-09 14:04:34.76	220.29	5.46	-49.0	-50.5	14.7	0.00e+00	0	23	0	93323264	64	4194
2026-01-09 14:04:35.76	220.39	5.51	-48.9	-50.3	14.8	0.00e+00	0	22	0	99614720	64	4117
2026-01-09 14:04:36.75	220.48	5.57	-49.1	-50.6	14.6	0.00e+00	0	23	0	104857600	64	4276
2026-01-09 14:04:37.75	220.57	5.63	-49.0	-50.5	14.7	0.00e+00	0	23	0	110100480	64	4219
2026-01-09 14:04:38.76	220.67	5.69	-48.8	-50.2	14.9	0.00e+00	0	23	0	116391936	64	4079
2026-01-09 14:04:39.76	220.76	5.75	-48.9	-50.4	14.8	0.00e+00	0	23	0	121634816	64	4150
2026-01-09 14:04:40.76	220.85	5.81	-48.8	-50.2	14.9	0.00e+00	0	23	0	127926272	64	4077
2026-01-09 14:04:41.75	220.95	5.87	-48.7	-50.1	14.8	0.00e+00	0	23	0	133169152	63	4285
2026-01-09 14:04:42.75	221.04	5.92	-48.7	-50.0	14.8	0.00e+00	0	23	0	138412032	63	4241
2026-01-09 14:04:43.75	221.14	5.98	-48.7	-50.1	14.8	0.00e+00	0	23	0	144703488	63	4277
2026-01-09 14:04:44.76	221.24	6.04	-48.7	-50.2	14.8	0.00e+00	0	23	0	149946368	63	4293
2026-01-09 14:04:45.76	221.33	6.10	-48.9	-50.3	14.7	0.00e+00	0	23	0	155189248	63	4358
2026-01-09 14:04:46.75	221.43	6.16	-48.8	-50.2	14.7	0.00e+00	0	23	0	161480704	63	4321
2026-01-09 14:04:47.75	221.53	6.22	-48.8	-50.3	14.7	0.00e+00	0	23	0	166723584	63	4341
2026-01-09 14:04:48.75	221.62	6.28	-48.6	-50.0	14.8	0.00e+00	0	23	0	171966464	63	4231
2026-01-09 14:04:49.75	221.72	6.34	-48.7	-50.1	14.8	0.00e+00	0	23	0	178257920	63	4291
2026-01-09 14:04:50.75	221.82	6.40	-48.6	-50.0	14.9	0.00e+00	0	23	0	183500800	63	4213
2026-01-09 14:04:51.76	221.92	6.46	-48.6	-50.0	14.9	0.00e+00	0	23	0	189792256	63	4233
2026-01-09 14:04:52.75	222.02	6.52	-48.6	-50.0	14.9	0.00e+00	0	23	0	195035136	63	4207
2026-01-09 14:04:53.75	222.12	6.57	-48.7	-50.1	14.8	0.00e+00	0	23	0	200278016	63	4288
2026-01-09 14:04:54.74	222.22	6.63	-48.7	-50.1	14.8	0.00e+00	0	23	0	206569472	63	4270
2026-01-09 14:04:55.74	222.32	6.69	-48.8	-50.2	14.8	0.00e+00	0	23	0	211812352	63	4307
2026-01-09 14:04:56.73	222.42	6.75	-48.8	-50.2	14.7	0.00e+00	0	23	0	217055232	63	4335
2026-01-09 14:04:57.72	222.52	6.81	-48.8	-50.3	14.8	0.00e+00	0	23	0	223346688	63	4341
2026-01-09 14:04:58.72	222.62	6.87	-48.9	-50.3	14.7	0.00e+00	0	23	0	228589568	63	4365
2026-01-09 14:04:59.72	222.72	6.93	-48.9	-50.3	14.7	0.00e+00	0	23	0	233832448	63	4358
2026-01-09 14:05:00.72	222.82	6.99	-49.1	-50.5	14.6	0.00e+00	0	23	0	240123904	63	4466
2026-01-09 14:05:01.73	222.93	7.05	-49.1	-50.5	14.6	0.00e+00	0	23	0	245366784	63	4465
2026-01-09 14:05:02.73	223.03	7.11	-49.1	-50.6	14.6	0.00e+00	0	23	0	251658240	63	4512
2026-01-09 14:05:03.73	223.13	7.17	-49.0	-50.5	14.6	0.00e+00	0	23	0	256901120	63	4461
2026-01-09 14:05:04.72	223.24	7.23	-49.0	-50.4	14.7	0.00e+00	0	23	0	262144000	63	4407
2026-01-09 14:05:05.72	223.34	7.29	-48.6	-50.0	14.9	0.00e+00	0	23	0	267386880	63	4207
2026-01-09 14:05:06.71	223.44	7.35	-48.6	-50.0	14.9	0.00e+00	0	23	0	273678336	63	4201
2026-01-09 14:05:07.71	223.55	7.41	-48.6	-50.0	14.9	0.00e+00	0	23	0	278921216	63	4196
2026-01-09 14:05:08.71	223.65	7.47	-48.5	-49.9	15.0	0.00e+00	0	23	0	285212672	63	4149
2026-01-09 14:05:09.71	223.76	7.53	-48.4	-49.8	15.0	0.00e+00	0	23	0	290455552	63	4100
2026-01-09 14:05:10.70	223.87	7.59	-48.4	-49.8	15.0	0.00e+00	0	23	0	295698432	63	4102
2026-01-09 14:05:11.69	223.97	7.65	-48.5	-49.8	15.0	0.00e+00	0	23	0	301989888	63	4139
2026-01-09 14:05:12.69	224.08	7.71	-48.6	-50.0	14.9	0.00e+00	0	23	0	307232768	63	4198
2026-01-09 14:05:13.69	224.19	7.78	-48.5	-49.9	15.0	0.00e+00	0	23	0	312475648	63	4159
2026-01-09 14:05:14.70	224.30	7.84	-48.6	-50.0	14.9	0.00e+00	0	23	0	318767104	63	4230
2026-01-09 14:05:15.70	224.40	7.90	-48.5	-49.9	15.0	0.00e+00	0	23	0	324009984	63	4161
2026-01-09 14:05:16.70	224.51	7.96	-48.6	-50.0	14.9	0.00e+00	0	23	0	329252864	63	4196
2026-01-09 14:05:17.69	224.62	8.02	-48.5	-49.9	15.0	0.00e+00	0	23	0	335544320	63	4163
2026-01-09 14:05:18.70	224.73	8.08	-48.6	-50.0	14.9	0.00e+00	0	23	0	340787200	63	4196
2026-01-09 14:05:19.70	224.84	8.14	-48.5	-49.8	15.0	0.00e+00	0	23	0	347078656	63	4138
2026-01-09 14:05:20.69	224.95	8.20	-48.3	-49.7	15.1	0.00e+00	0	23	0	352321536	63	4059
2026-01-09 14:05:21.69	225.06	8.26	-48.3	-49.6	15.2	0.00e+00	0	23	0	357564416	63	4020
2026-01-09 14:05:22.69	225.18	8.32	-48.3	-49.7	15.1	0.00e+00	0	23	0	363855872	63	4059
2026-01-09 14:05:23.69	225.29	8.39	-48.1	-49.4	15.1	0.00e+00	0	23	0	369098752	62	4161
2026-01-09 14:05:24.68	225.40	8.45	-48.0	-49.3	15.1	0.00e+00	0	23	0	374341632	62	4130
2026-01-09 14:05:25.68	225.51	8.51	-48.0	-49.3	15.1	0.00e+00	0	23	0	380633088	62	4117
2026-01-09 14:05:26.67	225.62	8.57	-48.0	-49.3	15.1	0.00e+00	0	23	0	385875968	62	4131
2026-01-09 14:05:27.67	225.74	8.63	-48.1	-49.3	15.1	0.00e+00	0	23	0	391118848	62	4145
2026-01-09 14:05:28.68	225.85	8.69	-48.2	-49.5	15.0	0.00e+00	0	23	0	397410304	62	4202
2026-01-09 14:05:29.68	225.97	8.76	-48.1	-49.4	15.1	0.00e+00	0	23	0	402653184	62	4181
2026-01-09 14:05:30.68	226.08	8.82	-48.1	-49.4	15.1	0.00e+00	0	23	0	408944640	62	4182
2026-01-09 14:05:31.68	226.20	8.88	-48.2	-49.5	15.0	0.00e+00	0	23	0	414187520	62	4216
2026-01-09 14:05:32.68	226.32	8.94	-48.1	-49.4	15.1	0.00e+00	0	23	0	419430400	62	4158
2026-01-09 14:05:33.68	226.43	9.00	-48.1	-49.4	15.1	0.00e+00	0	23	0	425721856	62	4172
2026-01-09 14:05:34.69	226.55	9.07	-48.1	-49.3	15.1	0.00e+00	0	23	0	430964736	62	4140
2026-01-09 14:05:35.69	226.67	9.13	-48.0	-49.3	15.1	0.00e+00	0	23	0	436207616	62	4126
2026-01-09 14:05:36.67	226.79	9.19	-47.8	-49.0	15.3	0.00e+00	0	23	0	442499072	62	3999
2026-01-09 14:05:37.67	226.90	9.25	-47.8	-49.1	15.3	0.00e+00	0	23	0	447741952	62	4012
2026-01-09 14:05:38.67	227.02	9.31	-47.6	-48.8	15.2	0.00e+00	0	23	0	452984832	61	4135
2026-01-09 14:05:39.67	227.14	9.37	-47.6	-48.9	15.2	0.00e+00	0	23	0	459276288	61	4148
2026-01-09 14:05:40.67	227.26	9.44	-47.6	-48.8	15.2	0.00e+00	0	23	0	464519168	61	4128
2026-01-09 14:05:41.66	227.38	9.50	-47.7	-49.0	15.1	0.00e+00	0	23	0	469762048	61	4212
2026-01-09 14:05:42.66	227.50	9.56	-47.7	-48.9	15.2	0.00e+00	0	23	0	476053504	61	4182
2026-01-09 14:05:43.65	227.62	9.62	-47.5	-48.8	15.2	0.00e+00	0	23	0	481296384	61	4105
2026-01-09 14:05:44.66	227.75	9.69	-47.6	-48.9	15.2	0.00e+00	0	23	0	486539264	61	4174
2026-01-09 14:05:45.65	227.87	9.75	-47.7	-48.9	15.1	0.00e+00	0	23	0	492830720	61	4193
2026-01-09 14:05:46.64	227.99	9.81	-47.6	-48.8	15.2	0.00e+00	0	23	0	498073600	61	4123
2026-01-09 14:05:47.64	228.11	9.87	-47.6	-48.9	15.2	0.00e+00	0	23	0	503316480	61	4166
2026-01-09 14:05:48.63	228.24	9.93	-47.7	-48.9	15.2	0.00e+00	0	23	0	509607936	61	4183
2026-01-09 14:05:49.64	228.36	10.00	-47.6	-48.9	15.2	0.00e+00	0	23	0	514850816	61	4152
2026-01-09 14:05:50.63	228.49	10.06	-47.7	-48.9	15.2	0.00e+00	0	23	0	521142272	61	4190
2026-01-09 14:05:51.63	228.61	10.12	-47.6	-48.9	15.2	0.00e+00	0	23	0	526385152	61	4146
2026-01-09 14:05:52.63	228.74	10.19	-47.6	-48.8	15.2	0.00e+00	0	23	0	531628032	61	4132
2026-01-09 14:05:53.63	228.87	10.25	-47.6	-48.9	15.2	0.00e+00	0	23	0	537919488	61	4170
2026-01-09 14:05:54.64	228.99	10.31	-47.7	-48.9	15.2	0.00e+00	0	23	0	543162368	61	4187
2026-01-09 14:05:55.63	229.12	10.37	-47.8	-49.0	15.1	0.00e+00	0	23	0	548405248	61	4235
2026-01-09 14:05:56.62	229.25	10.44	-47.7	-49.0	15.1	0.00e+00	0	23	0	554696704	61	4224
2026-01-09 14:05:57.61	229.38	10.50	-47.7	-49.0	15.2	0.00e+00	0	23	0	559939584	61	4219
2026-01-09 14:05:58.62	229.51	10.56	-47.7	-49.0	15.1	0.00e+00	0	23	0	565182464	61	4217
2026-01-09 14:05:59.62	229.64	10.63	-47.7	-49.0	15.2	0.00e+00	0	23	0	571473920	61	4210
2026-01-09 14:06:00.62	229.77	10.69	-47.6	-48.8	15.2	0.00e+00	0	23	0	576716800	61	4137
2026-01-09 14:06:01.62	229.90	10.75	-47.6	-48.9	15.2	0.00e+00	0	23	0	581959680	61	4166
2026-01-09 14:06:02.61	230.03	10.81	-47.5	-48.8	15.3	0.00e+00	0	23	0	588251136	61	4108
2026-01-09 14:06:03.60	230.16	10.88	-47.4	-48.7	15.3	0.00e+00	0	23	0	593494016	61	4059
2026-01-09 14:06:04.60	230.29	10.94	-47.5	-48.7	15.3	0.00e+00	0	23	0	598736896	61	4070
2026-01-09 14:06:05.60	230.42	11.00	-47.3	-48.5	15.4	0.00e+00	0	23	0	605028352	61	3964
2026-01-09 14:06:06.59	230.56	11.07	-47.2	-48.4	15.5	0.00e+00	0	23	0	610271232	61	3923
2026-01-09 14:06:07.59	230.69	11.13	-47.2	-48.4	15.3	0.00e+00	0	23	0	615514112	60	4181
2026-01-09 14:06:08.60	230.83	11.19	-47.2	-48.4	15.2	0.00e+00	0	23	0	621805568	60	4192
2026-01-09 14:06:09.60	230.96	11.26	-47.3	-48.6	15.2	0.00e+00	0	23	0	627048448	60	4245
2026-01-09 14:06:10.61	231.10	11.32	-47.3	-48.5	15.2	0.00e+00	0	23	0	633339904	60	4229
2026-01-09 14:06:11.61	231.24	11.38	-47.3	-48.5	15.2	0.00e+00	0	23	0	638582784	60	4221
2026-01-09 14:06:12.61	231.37	11.45	-47.3	-48.5	15.2	0.00e+00	0	23	0	643825664	60	4231
2026-01-09 14:06:13.62	231.51	11.51	-47.4	-48.6	15.2	0.00e+00	0	24	0	650117120	60	4276
2026-01-09 14:06:14.62	231.65	11.57	-47.4	-48.7	15.1	0.00e+00	0	23	0	655360000	60	4308
2026-01-09 14:06:15.62	231.79	11.64	-47.4	-48.7	15.2	0.00e+00	0	23	0	661651456	60	4297
2026-01-09 14:06:16.62	231.93	11.70	-47.4	-48.6	15.2	0.00e+00	0	23	0	666894336	60	4262
2026-01-09 14:06:17.62	232.07	11.77	-47.3	-48.5	15.2	0.00e+00	0	23	0	672137216	60	4237
2026-01-09 14:06:18.61	232.21	11.83	-47.3	-48.6	15.2	0.00e+00	0	23	0	677380096	60	4244
2026-01-09 14:06:19.61	232.35	11.89	-47.3	-48.5	15.3	0.00e+00	0	23	0	683671552	60	4200
2026-01-09 14:06:20.62	232.49	11.96	-47.2	-48.4	15.3	0.00e+00	0	23	0	688914432	60	4178
2026-01-09 14:06:21.61	232.63	12.02	-47.2	-48.4	15.3	0.00e+00	0	23	0	695205888	60	4170
2026-01-09 14:06:22.61	232.78	12.08	-47.1	-48.2	15.3	0.00e+00	0	23	0	700448768	60	4097
2026-01-09 14:06:23.61	232.92	12.15	-47.1	-48.3	15.3	0.00e+00	0	23	0	705691648	60	4137
2026-01-09 14:06:24.60	233.06	12.21	-47.1	-48.3	15.3	0.00e+00	0	23	0	711983104	60	4116
2026-01-09 14:06:25.60	233.21	12.27	-47.0	-48.1	15.4	0.00e+00	0	23	0	717225984	60	4043
2026-01-09 14:06:26.60	233.35	12.34	-47.0	-48.2	15.4	0.00e+00	0	23	0	722468864	60	4082
2026-01-09 14:06:27.60	233.50	12.40	-47.1	-48.3	15.3	0.00e+00	0	23	0	728760320	60	4115
2026-01-09 14:06:28.60	233.64	12.46	-47.0	-48.2	15.4	0.00e+00	0	23	0	734003200	60	4065
2026-01-09 14:06:29.60	233.79	12.53	-47.1	-48.3	15.3	0.00e+00	0	23	0	739246080	60	4104
2026-01-09 14:06:30.60	233.94	12.59	-47.1	-48.3	15.4	0.00e+00	0	23	0	745537536	60	4099
2026-01-09 14:06:31.60	234.09	12.65	-47.0	-48.2	15.4	0.00e+00	0	23	0	750780416	60	4065
2026-01-09 14:06:32.60	234.24	12.72	-47.0	-48.2	15.4	0.00e+00	0	23	0	757071872	60	4080
2026-01-09 14:06:33.61	234.39	12.78	-47.0	-48.2	15.4	0.00e+00	0	23	0	762314752	60	4074
2026-01-09 14:06:34.61	234.54	12.84	-46.9	-48.1	15.4	0.00e+00	0	23	0	767557632	60	4023
2026-01-09 14:06:35.61	234.69	12.91	-47.0	-48.1	15.4	0.00e+00	0	23	0	773849088	60	4039
2026-01-09 14:06:36.61	234.84	12.97	-46.9	-48.1	15.4	0.00e+00	0	23	0	779091968	60	4028
2026-01-09 14:06:37.60	234.99	13.03	-47.0	-48.2	15.4	0.00e+00	0	23	0	784334848	60	4057
2026-01-09 14:06:38.60	235.14	13.10	-46.8	-48.0	15.5	0.00e+00	0	23	0	790626304	60	3988
2026-01-09 14:06:39.60	235.30	13.16	-46.8	-48.0	15.5	0.00e+00	0	23	0	795869184	60	3993
2026-01-09 14:06:40.60	235.45	13.22	-46.8	-48.0	15.5	0.00e+00	0	23	0	801112064	60	3977
2026-01-09 14:06:41.60	235.61	13.29	-46.9	-48.0	15.4	0.00e+00	0	23	0	807403520	60	3999
2026-01-09 14:06:42.60	235.76	13.35	-46.9	-48.0	15.5	0.00e+00	0	23	0	812646400	60	4000
2026-01-09 14:06:43.59	235.92	13.41	-46.8	-48.0	15.5	0.00e+00	0	23	0	818937856	60	3964
2026-01-09 14:06:44.60	236.07	13.48	-46.7	-47.9	15.5	0.00e+00	0	23	0	824180736	60	3929
2026-01-09 14:06:45.59	236.23	13.54	-46.8	-48.0	15.5	0.00e+00	0	23	0	829423616	60	3986
2026-01-09 14:06:46.58	236.39	13.60	-46.9	-48.1	15.4	0.00e+00	0	23	0	835715072	60	4014
2026-01-09 14:06:47.58	236.54	13.67	-46.8	-47.9	15.5	0.00e+00	0	23	0	840957952	60	3945
2026-01-09 14:06:48.59	236.71	13.73	-46.7	-47.9	15.5	0.00e+00	0	23	0	846200832	60	3939
2026-01-09 14:06:49.59	236.87	13.79	-46.7	-47.9	15.5	0.00e+00	0	24	0	852492288	60	3926
2026-01-09 14:06:50.59	237.03	13.86	-46.8	-47.9	15.5	0.00e+00	0	23	0	857735168	60	3940
2026-01-09 14:06:51.59	237.19	13.92	-46.7	-47.9	15.5	0.00e+00	0	24	0	864026624	60	3918
2026-01-09 14:06:52.59	237.35	13.98	-47.0	-48.2	15.3	0.00e+00	0	23	0	869269504	59	4314
2026-01-09 14:06:53.58	237.51	14.05	-47.1	-48.2	15.3	0.00e+00	0	23	0	874512384	59	4337
2026-01-09 14:06:54.58	237.67	14.11	-46.9	-48.1	15.3	0.00e+00	0	23	0	880803840	59	4248
2026-01-09 14:06:55.58	237.84	14.17	-46.9	-48.1	15.3	0.00e+00	0	23	0	886046720	59	4247
2026-01-09 14:06:56.57	238.00	14.23	-47.0	-48.2	15.3	0.00e+00	0	23	0	891289600	59	4325
2026-01-09 14:06:57.57	238.17	14.30	-47.0	-48.2	15.3	0.00e+00	0	23	0	896532480	59	4309
2026-01-09 14:06:58.57	238.33	14.36	-47.0	-48.2	15.3	0.00e+00	0	23	0	902823936	59	4336
2026-01-09 14:06:59.57	238.50	14.42	-47.0	-48.3	15.3	0.00e+00	0	23	0	908066816	59	4342
2026-01-09 14:07:00.58	238.67	14.48	-47.0	-48.2	15.3	0.00e+00	0	23	0	914358272	59	4329
2026-01-09 14:07:01.57	238.83	14.55	-47.0	-48.2	15.3	0.00e+00	0	23	0	919601152	59	4295
2026-01-09 14:07:02.57	239.00	14.61	-47.0	-48.2	15.3	0.00e+00	0	24	0	925892608	59	4294
2026-01-09 14:07:03.57	239.17	14.67	-47.0	-48.3	15.3	0.00e+00	0	24	0	931135488	59	4344
2026-01-09 14:07:04.56	239.34	14.73	-47.0	-48.2	15.3	0.00e+00	0	24	0	936378368	59	4312
2026-01-09 14:07:05.56	239.51	14.80	-47.0	-48.2	15.3	0.00e+00	0	24	0	941621248	59	4314
2026-01-09 14:07:06.55	239.68	14.86	-46.9	-48.1	15.3	0.00e+00	0	24	0	947912704	59	4285
2026-01-09 14:07:07.55	239.85	14.92	-46.8	-48.0	15.4	0.00e+00	0	23	0	953155584	59	4223
2026-01-09 14:07:08.55	240.02	14.98	-46.8	-48.0	15.3	0.00e+00	0	24	0	958398464	59	4238
2026-01-09 14:07:09.55	240.20	15.04	-46.8	-48.0	15.4	0.00e+00	0	24	0	964689920	59	4197
2026-01-09 14:07:10.56	240.37	15.11	-46.6	-47.8	15.5	0.00e+00	0	23	0	969932800	59	4116
2026-01-09 14:07:11.55	240.55	15.17	-46.6	-47.8	15.4	0.00e+00	0	23	0	976224256	59	4118
2026-01-09 14:07:12.56	240.72	15.23	-46.8	-48.0	15.4	0.00e+00	0	23	0	981467136	59	4200
2026-01-09 14:07:13.56	240.90	15.29	-46.8	-47.9	15.4	0.00e+00	0	23	0	986710016	59	4193
2026-01-09 14:07:14.55	241.08	15.35	-46.9	-48.1	15.3	0.00e+00	0	23	0	993001472	59	4275
2026-01-09 14:07:15.55	241.25	15.41	-46.9	-48.1	15.3	0.00e+00	0	24	0	998244352	59	4266
2026-01-09 14:07:16.56	241.43	15.47	-47.0	-48.2	15.3	0.00e+00	0	23	0	1003487232	59	4295
2026-01-09 14:07:17.56	241.61	15.54	-46.9	-48.1	15.3	0.00e+00	0	23	0	1009778688	59	4255
2026-01-09 14:07:18.56	241.79	15.60	-46.9	-48.1	15.3	0.00e+00	0	23	0	1015021568	59	4277
2026-01-09 14:07:19.56	241.97	15.66	-46.9	-48.1	15.3	0.00e+00	0	23	0	1020264448	59	4263
2026-01-09 14:07:20.56	242.15	15.72	-46.8	-48.0	15.4	0.00e+00	0	23	0	1026555904	59	4226
2026-01-09 14:07:21.55	242.33	15.78	-46.8	-48.0	15.4	0.00e+00	0	23	0	1031798784	59	4216
2026-01-09 14:07:22.54	242.51	15.84	-46.7	-47.9	15.4	0.00e+00	0	24	0	1038090240	59	4152
2026-01-09 14:07:23.53	242.70	15.90	-46.6	-47.8	15.5	0.00e+00	0	24	0	1043333120	59	4122
2026-01-09 14:07:24.53	242.88	15.96	-46.6	-47.8	15.5	0.00e+00	0	23	0	1048576000	59	4111
2026-01-09 14:07:25.52	243.06	16.02	-46.6	-47.8	15.5	0.00e+00	0	23	0	1054867456	59	4123
2026-01-09 14:07:26.53	243.25	16.08	-46.6	-47.8	15.5	0.00e+00	0	23	0	1060110336	59	4120
2026-01-09 14:07:27.53	243.44	16.14	-46.6	-47.7	15.5	0.00e+00	0	24	0	1065353216	59	4088
2026-01-09 14:07:28.53	243.62	16.20	-46.4	-47.5	15.6	0.00e+00	0	24	0	1071644672	59	4000
2026-01-09 14:07:29.53	243.81	16.26	-46.5	-47.6	15.5	0.00e+00	0	23	0	1076887552	59	4027
2026-01-09 14:07:30.53	244.00	16.32	-46.5	-47.6	15.5	0.00e+00	0	23	0	1082130432	59	4036
2026-01-09 14:07:31.52	244.19	16.38	-46.5	-47.6	15.5	0.00e+00	0	23	0	1088421888	59	4045
2026-01-09 14:07:32.52	244.38	16.44	-46.5	-47.6	15.5	0.00e+00	0	24	0	1093664768	59	4051
2026-01-09 14:07:33.51	244.57	16.50	-46.5	-47.6	15.5	0.00e+00	0	23	0	1098907648	59	4044
2026-01-09 14:07:34.51	244.76	16.55	-46.5	-47.6	15.5	0.00e+00	0	23	0	1105199104	59	4044
2026-01-09 14:07:35.51	244.95	16.61	-46.6	-47.7	15.5	0.00e+00	0	23	0	1110441984	59	4094
2026-01-09 14:07:36.50	245.14	16.67	-46.5	-47.7	15.5	0.00e+00	0	23	0	1115684864	59	4062
2026-01-09 14:07:37.50	245.33	16.73	-46.6	-47.7	15.5	0.00e+00	0	23	0	1121976320	59	4093
2026-01-09 14:07:38.49	245.52	16.79	-46.5	-47.7	15.5	0.00e+00	0	23	0	1127219200	59	4064
2026-01-09 14:07:39.48	245.72	16.84	-46.5	-47.6	15.5	0.00e+00	0	23	0	1132462080	59	4035
2026-01-09 14:07:40.47	245.91	16.90	-46.5	-47.6	15.5	0.00e+00	0	23	0	1138753536	59	4038
2026-01-09 14:07:41.47	246.11	16.96	-46.4	-47.5	15.6	0.00e+00	0	23	0	1143996416	59	3993
2026-01-09 14:07:42.47	246.31	17.02	-46.3	-47.5	15.6	0.00e+00	0	23	0	1149239296	59	3965
2026-01-09 14:07:43.47	246.50	17.07	-46.4	-47.5	15.6	0.00e+00	0	23	0	1155530752	59	3982
2026-01-09 14:07:44.47	246.70	17.13	-46.3	-47.4	15.6	0.00e+00	0	23	0	1160773632	59	3958
2026-01-09 14:07:45.47	246.90	17.19	-46.3	-47.4	15.7	0.00e+00	0	23	0	1167065088	59	3924
2026-01-09 14:07:46.47	247.10	17.25	-46.1	-47.2	15.5	0.00e+00	0	23	0	1172307968	58	4081
2026-01-09 14:07:47.46	247.30	17.30	-46.2	-47.3	15.5	0.00e+00	0	23	0	1177550848	58	4127
2026-01-09 14:07:48.46	247.50	17.36	-46.2	-47.3	15.5	0.00e+00	0	23	0	1182793728	58	4132
2026-01-09 14:07:49.44	247.70	17.41	-46.3	-47.4	15.5	0.00e+00	0	23	0	1189085184	58	4187
2026-01-09 14:07:50.44	247.90	17.47	-46.3	-47.5	15.5	0.00e+00	0	24	0	1194328064	58	4195
2026-01-09 14:07:51.44	248.11	17.52	-46.2	-47.3	15.5	0.00e+00	0	24	0	1200619520	58	4142
2026-01-09 14:07:52.44	248.31	17.58	-46.3	-47.4	15.5	0.00e+00	0	23	0	1205862400	58	4179
2026-01-09 14:07:53.43	248.51	17.63	-46.3	-47.4	15.5	0.00e+00	0	23	0	1211105280	58	4183
2026-01-09 14:07:54.43	248.72	17.69	-46.3	-47.4	15.5	0.00e+00	0	23	0	1217396736	58	4175
2026-01-09 14:07:55.43	248.93	17.74	-46.2	-47.3	15.5	0.00e+00	0	24	0	1222639616	58	4124
2026-01-09 14:07:56.43	249.13	17.80	-46.2	-47.3	15.5	0.00e+00	0	23	0	1227882496	58	4133
2026-01-09 14:07:57.43	249.34	17.85	-46.2	-47.3	15.5	0.00e+00	0	23	0	1234173952	58	4110
2026-01-09 14:07:58.42	249.55	17.91	-46.1	-47.2	15.6	0.00e+00	0	23	0	1239416832	58	4074
2026-01-09 14:07:59.42	249.76	17.96	-46.1	-47.2	15.5	0.00e+00	0	23	0	1244659712	58	4089
2026-01-09 14:08:00.41	249.96	18.01	-46.2	-47.3	15.5	0.00e+00	0	23	0	1250951168	58	4121
2026-01-09 14:08:01.40	250.17	18.07	-46.2	-47.3	15.5	0.00e+00	0	24	0	1256194048	58	4145
2026-01-09 14:08:02.39	250.38	18.12	-46.3	-47.4	15.5	0.00e+00	0	24	0	1261436928	58	4173
2026-01-09 14:08:03.40	250.60	18.17	-46.4	-47.5	15.4	0.00e+00	0	23	0	1267728384	58	4218
2026-01-09 14:08:04.39	250.81	18.22	-46.3	-47.5	15.5	0.00e+00	0	23	0	1272971264	58	4199
2026-01-09 14:08:05.40	251.02	18.28	-46.2	-47.4	15.5	0.00e+00	0	24	0	1278214144	58	4164
2026-01-09 14:08:06.40	251.24	18.33	-46.3	-47.4	15.5	0.00e+00	0	23	0	1284505600	58	4184
2026-01-09 14:08:07.39	251.45	18.38	-46.2	-47.3	15.5	0.00e+00	0	23	0	1289748480	58	4117
2026-01-09 14:08:08.38	251.66	18.43	-46.2	-47.3	15.5	0.00e+00	0	24	0	1296039936	58	4132
2026-01-09 14:08:09.38	251.88	18.48	-46.2	-47.3	15.5	0.00e+00	0	24	0	1301282816	58	4128
2026-01-09 14:08:10.39	252.10	18.53	-46.2	-47.3	15.5	0.00e+00	0	23	0	1306525696	58	4125
2026-01-09 14:08:11.39	252.32	18.59	-46.1	-47.2	15.5	0.00e+00	0	24	0	1312817152	58	4092
2026-01-09 14:08:12.39	252.54	18.64	-46.1	-47.2	15.5	0.00e+00	0	24	0	1318060032	58	4098
2026-01-09 14:08:13.39	252.76	18.69	-46.0	-47.1	15.6	0.00e+00	0	23	0	1323302912	58	4043
2026-01-09 14:08:14.39	252.98	18.74	-46.0	-47.1	15.6	0.00e+00	0	23	0	1329594368	58	4026
2026-01-09 14:08:15.39	253.20	18.78	-46.0	-47.1	15.6	0.00e+00	0	23	0	1334837248	58	4049
2026-01-09 14:08:16.39	253.42	18.83	-45.9	-47.0	15.6	0.00e+00	0	23	0	1340080128	58	3996
2026-01-09 14:08:17.38	253.64	18.88	-45.9	-47.0	15.6	0.00e+00	0	23	0	1346371584	58	4001
2026-01-09 14:08:18.38	253.86	18.93	-46.0	-47.1	15.6	0.00e+00	0	23	0	1351614464	58	4021
2026-01-09 14:08:19.38	254.09	18.98	-45.8	-46.9	15.7	0.00e+00	0	24	0	1357905920	58	3947
2026-01-09 14:08:20.37	254.31	19.03	-45.7	-46.8	15.7	0.00e+00	0	23	0	1363148800	58	3886
2026-01-09 14:08:21.37	254.53	19.07	-45.6	-46.6	15.6	0.00e+00	0	23	0	1368391680	57	4045
2026-01-09 14:08:22.37	254.76	19.12	-45.6	-46.7	15.6	0.00e+00	0	24	0	1374683136	57	4059
2026-01-09 14:08:23.37	254.98	19.17	-45.6	-46.7	15.6	0.00e+00	0	23	0	1379926016	57	4069
2026-01-09 14:08:24.37	255.21	19.21	-45.7	-46.8	15.6	0.00e+00	0	23	0	1385168896	57	4103
2026-01-09 14:08:25.37	255.44	19.26	-45.7	-46.8	15.6	0.00e+00	0	24	0	1390411776	57	4130
2026-01-09 14:08:26.37	255.67	19.30	-45.7	-46.8	15.5	0.00e+00	0	23	0	1396703232	57	4145
2026-01-09 14:08:27.37	255.90	19.35	-45.9	-47.0	15.5	0.00e+00	0	23	0	1401946112	57	4240
2026-01-09 14:08:28.37	256.13	19.40	-45.9	-47.0	15.5	0.00e+00	0	23	0	1408237568	57	4215
2026-01-09 14:08:29.37	256.36	19.44	-45.9	-47.0	15.5	0.00e+00	0	23	0	1413480448	57	4207
2026-01-09 14:08:30.36	256.58	19.48	-45.9	-47.0	15.5	0.00e+00	0	23	0	1418723328	57	4239
2026-01-09 14:08:31.36	256.82	19.53	-45.7	-46.8	15.6	0.00e+00	0	23	0	1425014784	57	4136
2026-01-09 14:08:32.35	257.05	19.57	-45.6	-46.7	15.6	0.00e+00	0	23	0	1430257664	57	4095
2026-01-09 14:08:33.35	257.28	19.61	-45.5	-46.6	15.6	0.00e+00	0	23	0	1435500544	57	4042
2026-01-09 14:08:34.35	257.51	19.66	-45.5	-46.6	15.6	0.00e+00	0	24	0	1441792000	57	4038
2026-01-09 14:08:35.35	257.75	19.70	-45.7	-46.8	15.6	0.00e+00	0	23	0	1447034880	57	4121
2026-01-09 14:08:36.35	257.98	19.74	-45.9	-47.0	15.5	0.00e+00	0	24	0	1452277760	57	4212
2026-01-09 14:08:37.35	258.22	19.78	-45.9	-47.1	15.5	0.00e+00	0	23	0	1458569216	57	4251
2026-01-09 14:08:38.34	258.45	19.82	-45.9	-47.1	15.5	0.00e+00	0	23	0	1463812096	57	4258
2026-01-09 14:08:39.33	258.68	19.86	-45.8	-46.9	15.5	0.00e+00	0	24	0	1470103552	57	4163
2026-01-09 14:08:40.33	258.92	19.90	-45.7	-46.8	15.6	0.00e+00	0	24	0	1475346432	57	4114
2026-01-09 14:08:41.33	259.16	19.94	-45.7	-46.9	15.5	0.00e+00	0	23	0	1480589312	57	4148
2026-01-09 14:08:42.33	259.40	19.98	-45.8	-46.9	15.5	0.00e+00	0	23	0	1486880768	57	4165
2026-01-09 14:08:43.33	259.63	20.02	-45.7	-46.8	15.6	0.00e+00	0	24	0	1492123648	57	4102
2026-01-09 14:08:44.31	259.87	20.06	-45.7	-46.9	15.6	0.00e+00	0	23	0	1497366528	57	4146
2026-01-09 14:08:45.31	260.11	20.10	-45.6	-46.7	15.6	0.00e+00	0	24	0	1502609408	57	4086
2026-01-09 14:08:46.30	260.35	20.13	-45.7	-46.8	15.6	0.00e+00	0	24	0	1508900864	57	4136
2026-01-09 14:08:47.29	260.59	20.17	-45.7	-46.8	15.6	0.00e+00	0	23	0	1514143744	57	4115
2026-01-09 14:08:48.29	260.83	20.21	-45.6	-46.7	15.6	0.00e+00	0	23	0	1520435200	57	4082
2026-01-09 14:08:49.28	261.07	20.24	-45.7	-46.8	15.6	0.00e+00	0	24	0	1525678080	57	4099
2026-01-09 14:08:50.29	261.31	20.28	-45.6	-46.7	15.6	0.00e+00	0	23	0	1530920960	57	4064
2026-01-09 14:08:51.28	261.55	20.32	-45.6	-46.7	15.6	0.00e+00	0	23	0	1537212416	57	4084
2026-01-09 14:08:52.28	261.80	20.35	-45.6	-46.7	15.6	0.00e+00	0	23	0	1542455296	57	4076
2026-01-09 14:08:53.27	262.04	20.38	-45.5	-46.6	15.6	0.00e+00	0	24	0	1547698176	57	4045
2026-01-09 14:08:54.26	262.28	20.42	-45.5	-46.6	15.6	0.00e+00	0	23	0	1552941056	57	4028
2026-01-09 14:08:55.27	262.53	20.45	-45.4	-46.5	15.6	0.00e+00	0	24	0	1559232512	57	3986
2026-01-09 14:08:56.26	262.77	20.48	-45.5	-46.6	15.6	0.00e+00	0	23	0	1564475392	57	4007
2026-01-09 14:08:57.26	263.02	20.52	-45.4	-46.4	15.7	0.00e+00	0	24	0	1570766848	57	3956
2026-01-09 14:08:58.26	263.27	20.55	-45.3	-46.4	15.7	0.00e+00	0	23	0	1576009728	57	3938
2026-01-09 14:08:59.26	263.52	20.58	-45.3	-46.4	15.7	0.00e+00	0	24	0	1581252608	57	3947
2026-01-09 14:09:00.26	263.76	20.61	-45.4	-46.4	15.7	0.00e+00	0	23	0	1587544064	57	3956
2026-01-09 14:09:01.27	264.01	20.64	-45.5	-46.6	15.6	0.00e+00	0	23	0	1592786944	57	4011
2026-01-09 14:09:02.26	264.26	20.67	-45.5	-46.5	15.6	0.00e+00	0	23	0	1598029824	57	4002
2026-01-09 14:09:03.27	264.51	20.70	-45.4	-46.5	15.6	0.00e+00	0	23	0	1604321280	57	3996
2026-01-09 14:09:04.27	264.76	20.73	-45.4	-46.5	15.6	0.00e+00	0	23	0	1609564160	57	3990
2026-01-09 14:09:05.27	265.01	20.76	-45.5	-46.6	15.6	0.00e+00	0	24	0	1615855616	57	4030
2026-01-09 14:09:06.26	265.26	20.79	-45.6	-46.7	15.6	0.00e+00	0	24	0	1621098496	57	4062
2026-01-09 14:09:07.25	265.51	20.82	-45.6	-46.7	15.6	0.00e+00	0	23	0	1626341376	57	4095
2026-01-09 14:09:08.25	265.76	20.84	-45.6	-46.7	15.6	0.00e+00	0	24	0	1632632832	57	4059
2026-01-09 14:09:09.24	266.01	20.87	-45.6	-46.7	15.6	0.00e+00	0	23	0	1637875712	57	4083
2026-01-09 14:09:10.24	266.26	20.90	-45.6	-46.7	15.6	0.00e+00	0	24	0	1643118592	57	4076
2026-01-09 14:09:11.24	266.52	20.92	-45.6	-46.7	15.6	0.00e+00	0	23	0	1649410048	57	4097
2026-01-09 14:09:12.24	266.77	20.95	-45.7	-46.8	15.6	0.00e+00	0	23	0	1654652928	57	4115
2026-01-09 14:09:13.24	267.02	20.97	-45.6	-46.7	15.6	0.00e+00	0	23	0	1659895808	57	4089
2026-01-09 14:09:14.24	267.28	20.99	-45.6	-46.7	15.6	0.00e+00	0	23	0	1666187264	57	4079
2026-01-09 14:09:15.24	267.53	21.02	-45.6	-46.6	15.6	0.00e+00	0	24	0	1671430144	57	4051
2026-01-09 14:09:16.25	267.79	21.04	-45.4	-46.5	15.7	0.00e+00	0	24	0	1676673024	57	3974
2026-01-09 14:09:17.24	268.04	21.06	-45.5	-46.6	15.6	0.00e+00	0	23	0	1682964480	57	4007
2026-01-09 14:09:18.24	268.30	21.08	-45.6	-46.7	15.6	0.00e+00	0	24	0	1688207360	57	4077
2026-01-09 14:09:19.24	268.55	21.11	-45.6	-46.7	15.6	0.00e+00	0	24	0	1694498816	57	4095
2026-01-09 14:09:20.24	268.81	21.13	-45.6	-46.7	15.6	0.00e+00	0	24	0	1699741696	57	4079
2026-01-09 14:09:21.23	269.06	21.15	-45.6	-46.7	15.6	0.00e+00	0	24	0	1704984576	57	4058
2026-01-09 14:09:22.23	269.32	21.17	-45.6	-46.7	15.6	0.00e+00	0	24	0	1711276032	57	4075
2026-01-09 14:09:23.24	269.58	21.19	-45.6	-46.7	15.6	0.00e+00	0	23	0	1716518912	57	4052
2026-01-09 14:09:24.22	269.83	21.20	-45.6	-46.7	15.6	0.00e+00	0	23	0	1721761792	57	4052
2026-01-09 14:09:25.22	270.09	21.22	-45.4	-46.5	15.7	0.00e+00	0	24	0	1728053248	57	3974
2026-01-09 14:09:26.23	270.35	21.24	-45.5	-46.5	15.7	0.00e+00	0	23	0	1733296128	57	4000
2026-01-09 14:09:27.22	270.61	21.26	-45.5	-46.6	15.7	0.00e+00	0	23	0	1738539008	57	4016
2026-01-09 14:09:28.23	270.87	21.27	-45.5	-46.6	15.6	0.00e+00	0	23	0	1744830464	57	4048
2026-01-09 14:09:29.23	271.13	21.29	-45.6	-46.7	15.6	0.00e+00	0	23	0	1750073344	57	4072
2026-01-09 14:09:30.24	271.39	21.30	-45.6	-46.7	15.6	0.00e+00	0	23	0	1756364800	57	4065
2026-01-09 14:09:31.24	271.65	21.32	-45.6	-46.7	15.6	0.00e+00	0	23	0	1761607680	57	4056
2026-01-09 14:09:32.25	271.91	21.33	-45.4	-46.5	15.7	0.00e+00	0	23	0	1766850560	57	3989
2026-01-09 14:09:33.25	272.17	21.34	-45.4	-46.5	15.7	0.00e+00	0	23	0	1773142016	57	3961
2026-01-09 14:09:34.25	272.43	21.36	-45.4	-46.4	15.7	0.00e+00	0	23	0	1778384896	57	3954
2026-01-09 14:09:35.25	272.69	21.37	-45.5	-46.6	15.6	0.00e+00	0	24	0	1783627776	57	4027
2026-01-09 14:09:36.25	272.95	21.38	-45.5	-46.6	15.6	0.00e+00	0	24	0	1789919232	57	4043
2026-01-09 14:09:37.25	273.21	21.39	-45.5	-46.6	15.7	0.00e+00	0	24	0	1795162112	57	4015
2026-01-09 14:09:38.25	273.47	21.40	-45.5	-46.6	15.6	0.00e+00	0	23	0	1800404992	57	4022
2026-01-09 14:09:39.25	273.73	21.41	-45.6	-46.6	15.6	0.00e+00	0	23	0	1806696448	57	4043
2026-01-09 14:09:40.25	274.00	21.42	-45.4	-46.5	15.7	0.00e+00	0	23	0	1811939328	57	3982
2026-01-09 14:09:41.25	274.26	21.43	-45.4	-46.5	15.7	0.00e+00	0	24	0	1818230784	57	3984
2026-01-09 14:09:42.26	274.52	21.44	-45.3	-46.4	15.7	0.00e+00	0	23	0	1823473664	57	3945
2026-01-09 14:09:43.26	274.78	21.44	-45.5	-46.6	15.7	0.00e+00	0	23	0	1828716544	57	4006
2026-01-09 14:09:44.26	275.04	21.45	-45.5	-46.6	15.6	0.00e+00	0	23	0	1835008000	57	4051
2026-01-09 14:09:45.27	275.31	21.46	-45.5	-46.6	15.7	0.00e+00	0	23	0	1840250880	57	4023
2026-01-09 14:09:46.28	275.57	21.46	-45.5	-46.6	15.6	0.00e+00	0	24	0	1846542336	57	4045
2026-01-09 14:09:47.27	275.83	21.47	-45.7	-46.9	15.6	0.00e+00	0	23	0	1851785216	57	4147
2026-01-09 14:09:48.27	276.09	21.47	-45.6	-46.7	15.6	0.00e+00	0	24	0	1857028096	57	4057
2026-01-09 14:09:49.27	276.36	21.48	-45.7	-46.8	15.6	0.00e+00	0	23	0	1863319552	57	4123
2026-01-09 14:09:50.27	276.62	21.48	-45.7	-46.8	15.6	0.00e+00	0	23	0	1868562432	57	4110
2026-01-09 14:09:51.27	276.88	21.48	-45.5	-46.6	15.6	0.00e+00	0	23	0	1873805312	57	4041
2026-01-09 14:09:52.27	277.14	21.48	-45.5	-46.6	15.6	0.00e+00	0	23	0	1880096768	57	4018
2026-01-09 14:09:53.27	277.40	21.48	-45.6	-46.7	15.6	0.00e+00	0	24	0	1885339648	57	4065
2026-01-09 14:09:54.27	277.67	21.49	-45.6	-46.7	15.6	0.00e+00	0	24	0	1890582528	57	4081
2026-01-09 14:09:55.27	277.93	21.49	-45.7	-46.8	15.6	0.00e+00	0	24	0	1896873984	57	4110
2026-01-09 14:09:56.27	278.19	21.49	-45.6	-46.7	15.6	0.00e+00	0	24	0	1902116864	57	4083
2026-01-09 14:09:57.27	278.45	21.48	-45.5	-46.6	15.6	0.00e+00	0	23	0	1908408320	57	4041
2026-01-09 14:09:58.28	278.72	21.48	-45.5	-46.6	15.6	0.00e+00	0	24	0	1913651200	57	4038
2026-01-09 14:09:59.28	278.98	21.48	-45.5	-46.6	15.6	0.00e+00	0	23	0	1918894080	57	4006
2026-01-09 14:10:00.28	279.24	21.48	-45.5	-46.6	15.6	0.00e+00	0	23	0	1925185536	57	4033
2026-01-09 14:10:01.28	279.50	21.47	-45.5	-46.6	15.6	0.00e+00	0	24	0	1930428416	57	4029
2026-01-09 14:10:02.28	279.77	21.47	-45.5	-46.6	15.6	0.00e+00	0	24	0	1936719872	57	4047
2026-01-09 14:10:03.28	280.03	21.47	-45.5	-46.6	15.6	0.00e+00	0	23	0	1941962752	57	4020
2026-01-09 14:10:04.28	280.29	21.46	-45.5	-46.5	15.7	0.00e+00	0	24	0	1947205632	57	3999
2026-01-09 14:10:05.28	280.55	21.45	-45.5	-46.6	15.6	0.00e+00	0	24	0	1953497088	57	4020
2026-01-09 14:10:06.28	280.81	21.45	-45.6	-46.7	15.6	0.00e+00	0	24	0	1958739968	57	4073
2026-01-09 14:10:07.28	281.07	21.44	-45.7	-46.8	15.6	0.00e+00	0	24	0	1963982848	57	4125
2026-01-09 14:10:08.28	281.33	21.43	-45.6	-46.7	15.6	0.00e+00	0	24	0	1970274304	57	4085
2026-01-09 14:10:09.28	281.60	21.43	-45.6	-46.7	15.6	0.00e+00	0	24	0	1975517184	57	4087
2026-01-09 14:10:10.27	281.85	21.42	-45.7	-46.8	15.6	0.00e+00	0	24	0	1980760064	57	4107
2026-01-09 14:10:11.28	282.12	21.41	-45.6	-46.7	15.6	0.00e+00	0	24	0	1987051520	57	4076
2026-01-09 14:10:12.29	282.38	21.40	-45.8	-46.9	15.5	0.00e+00	0	23	0	1992294400	57	4176
2026-01-09 14:10:13.29	282.64	21.39	-45.8	-46.9	15.5	0.00e+00	0	24	0	1998585856	57	4171
2026-01-09 14:10:14.29	282.90	21.38	-45.7	-46.8	15.6	0.00e+00	0	24	0	2003828736	57	4136
2026-01-09 14:10:15.29	283.16	21.36	-45.7	-46.8	15.6	0.00e+00	0	24	0	2009071616	57	4134
2026-01-09 14:10:16.29	283.42	21.35	-45.6	-46.7	15.6	0.00e+00	0	24	0	2015363072	57	4089
2026-01-09 14:10:17.30	283.68	21.34	-45.6	-46.7	15.6	0.00e+00	0	23	0	2020605952	57	4071
2026-01-09 14:10:18.30	283.94	21.32	-45.4	-46.5	15.7	0.00e+00	0	24	0	2025848832	57	3968
2026-01-09 14:10:19.30	284.20	21.31	-45.4	-46.5	15.7	0.00e+00	0	24	0	2032140288	57	3985
2026-01-09 14:10:20.30	284.46	21.30	-45.4	-46.5	15.7	0.00e+00	0	23	0	2037383168	57	3990
2026-01-09 14:10:21.30	284.72	21.28	-45.4	-46.5	15.7	0.00e+00	0	24	0	2042626048	57	3984
2026-01-09 14:10:22.30	284.98	21.27	-45.5	-46.6	15.6	0.00e+00	0	24	0	2048917504	57	4008
2026-01-09 14:10:23.30	285.24	21.25	-45.5	-46.5	15.7	0.00e+00	0	24	0	2054160384	57	4003
2026-01-09 14:10:24.30	285.50	21.23	-45.6	-46.6	15.6	0.00e+00	0	24	0	2060451840	57	4049
2026-01-09 14:10:25.31	285.76	21.21	-45.7	-46.8	15.6	0.00e+00	0	24	0	2065694720	57	4109
2026-01-09 14:10:26.32	286.02	21.20	-45.7	-46.8	15.5	0.00e+00	0	24	0	2070937600	57	4129
2026-01-09 14:10:27.32	286.27	21.18	-45.8	-46.9	15.5	0.00e+00	0	24	0	2077229056	57	4173
2026-01-09 14:10:28.32	286.53	21.16	-45.8	-46.9	15.5	0.00e+00	0	24	0	2082471936	57	4186
2026-01-09 14:10:29.32	286.79	21.14	-45.8	-46.9	15.6	0.00e+00	0	24	0	2088763392	57	4153
2026-01-09 14:10:30.31	287.04	21.12	-45.8	-46.9	15.5	0.00e+00	0	24	0	2094006272	57	4189
2026-01-09 14:10:31.31	287.30	21.10	-45.9	-47.0	15.5	0.00e+00	0	24	0	2099249152	57	4208
2026-01-09 14:10:32.31	287.55	21.08	-46.0	-47.1	15.5	0.00e+00	0	24	0	2104492032	57	4274
2026-01-09 14:10:33.31	287.81	21.05	-46.0	-47.1	15.5	0.00e+00	0	24	0	2110783488	57	4254
2026-01-09 14:10:34.32	288.06	21.03	-45.9	-47.0	15.5	0.00e+00	0	24	0	2116026368	57	4221
2026-01-09 14:10:35.32	288.32	21.01	-45.9	-47.0	15.5	0.00e+00	0	24	0	2122317824	57	4232
2026-01-09 14:10:36.32	288.57	20.98	-45.8	-46.9	15.5	0.00e+00	0	24	0	2127560704	57	4181
2026-01-09 14:10:37.33	288.83	20.96	-45.9	-47.0	15.5	0.00e+00	0	23	0	2133852160	57	4205
2026-01-09 14:10:38.34	289.08	20.94	-45.8	-46.9	15.5	0.00e+00	0	24	0	2139095040	57	4181
2026-01-09 14:10:39.34	289.34	20.91	-45.9	-47.0	15.5	0.00e+00	0	24	0	2144337920	57	4194
2026-01-09 14:10:40.35	289.59	20.88	-45.9	-47.0	15.5	0.00e+00	0	24	0	2150629376	57	4196
2026-01-09 14:10:41.35	289.84	20.86	-46.0	-47.1	15.5	0.00e+00	0	24	0	2155872256	57	4280
2026-01-09 14:10:42.35	290.09	20.83	-46.0	-47.2	15.5	0.00e+00	0	24	0	2161115136	57	4292
2026-01-09 14:10:43.35	290.35	20.80	-46.0	-47.2	15.5	0.00e+00	0	24	0	2167406592	57	4299
2026-01-09 14:10:44.36	290.60	20.78	-46.1	-47.3	15.4	0.00e+00	0	24	0	2172649472	57	4349
2026-01-09 14:10:45.36	290.85	20.75	-46.1	-47.3	15.4	0.00e+00	0	24	0	2177892352	57	4352
2026-01-09 14:10:46.36	291.10	20.72	-46.1	-47.2	15.4	0.00e+00	0	24	0	2184183808	57	4337
2026-01-09 14:10:47.37	291.35	20.69	-46.0	-47.1	15.5	0.00e+00	0	24	0	2189426688	57	4271
2026-01-09 14:10:48.36	291.60	20.66	-46.0	-47.1	15.5	0.00e+00	0	24	0	2195718144	57	4268
2026-01-09 14:10:49.36	291.85	20.63	-45.9	-47.1	15.5	0.00e+00	0	24	0	2200961024	57	4243
2026-01-09 14:10:50.36	292.09	20.60	-45.8	-46.8	15.5	0.00e+00	0	24	0	2206203904	57	4143
2026-01-09 14:10:51.36	292.34	20.57	-45.8	-46.9	15.5	0.00e+00	0	23	0	2212495360	57	4146
2026-01-09 14:10:52.35	292.59	20.54	-45.9	-47.0	15.5	0.00e+00	0	24	0	2217738240	57	4196
2026-01-09 14:10:53.35	292.83	20.50	-45.8	-46.9	15.5	0.00e+00	0	24	0	2222981120	57	4166
2026-01-09 14:10:54.34	293.07	20.47	-45.9	-47.0	15.5	0.00e+00	0	24	0	2229272576	57	4202
2026-01-09 14:10:55.34	293.32	20.44	-45.8	-46.9	15.5	0.00e+00	0	24	0	2234515456	57	4181
2026-01-09 14:10:56.34	293.56	20.40	-45.8	-46.9	15.5	0.00e+00	0	24	0	2239758336	57	4192
2026-01-09 14:10:57.33	293.81	20.37	-45.8	-46.9	15.5	0.00e+00	0	24	0	2246049792	57	4188
2026-01-09 14:10:58.33	294.05	20.34	-45.8	-46.9	15.5	0.00e+00	0	24	0	2251292672	57	4180
2026-01-09 14:10:59.33	294.29	20.30	-45.8	-46.9	15.6	0.00e+00	0	24	0	2257584128	57	4146
2026-01-09 14:11:00.33	294.54	20.27	-45.8	-46.9	15.5	0.00e+00	0	23	0	2262827008	57	4188
2026-01-09 14:11:01.34	294.78	20.23	-46.0	-47.1	15.5	0.00e+00	0	24	0	2268069888	57	4252
2026-01-09 14:11:02.34	295.02	20.19	-46.0	-47.1	15.5	0.00e+00	0	24	0	2274361344	57	4282
2026-01-09 14:11:03.34	295.26	20.16	-46.0	-47.1	15.5	0.00e+00	0	23	0	2279604224	57	4282
2026-01-09 14:11:04.34	295.50	20.12	-46.1	-47.3	15.4	0.00e+00	0	24	0	2284847104	57	4346
2026-01-09 14:11:05.33	295.74	20.08	-46.0	-47.2	15.5	0.00e+00	0	23	0	2291138560	57	4299
2026-01-09 14:11:06.34	295.98	20.04	-46.1	-47.2	15.5	0.00e+00	0	24	0	2296381440	57	4307
2026-01-09 14:11:07.34	296.22	20.00	-46.1	-47.3	15.4	0.00e+00	0	24	0	2301624320	57	4347
2026-01-09 14:11:08.35	296.46	19.96	-46.3	-47.4	15.4	0.00e+00	0	24	0	2307915776	57	4421
2026-01-09 14:11:09.35	296.70	19.93	-46.3	-47.4	15.4	0.00e+00	0	24	0	2313158656	57	4420
2026-01-09 14:11:10.35	296.94	19.89	-46.3	-47.4	15.4	0.00e+00	0	24	0	2319450112	57	4422
2026-01-09 14:11:11.36	297.17	19.84	-46.3	-47.4	15.4	0.00e+00	0	23	0	2324692992	57	4423
2026-01-09 14:11:12.37	297.41	19.80	-46.3	-47.4	15.4	0.00e+00	0	24	0	2329935872	57	4424
2026-01-09 14:11:13.37	297.65	19.76	-46.3	-47.4	15.4	0.00e+00	0	24	0	2336227328	57	4432
2026-01-09 14:11:14.37	297.88	19.72	-46.3	-47.4	15.4	0.00e+00	0	24	0	2341470208	57	4439
2026-01-09 14:11:15.37	298.12	19.68	-46.3	-47.5	15.4	0.00e+00	0	24	0	2347761664	57	4464
2026-01-09 14:11:16.38	298.35	19.64	-46.5	-47.6	15.4	0.00e+00	0	24	0	2353004544	58	4277
2026-01-09 14:11:17.37	298.58	19.59	-46.5	-47.6	15.4	0.00e+00	0	24	0	2358247424	58	4276
2026-01-09 14:11:18.37	298.81	19.55	-46.4	-47.6	15.4	0.00e+00	0	24	0	2363490304	58	4245
2026-01-09 14:11:19.38	299.05	19.51	-46.5	-47.6	15.4	0.00e+00	0	24	0	2369781760	58	4275
2026-01-09 14:11:20.37	299.27	19.46	-46.4	-47.6	15.4	0.00e+00	0	24	0	2375024640	58	4256
2026-01-09 14:11:21.37	299.50	19.42	-46.4	-47.5	15.4	0.00e+00	0	24	0	2381316096	58	4225
2026-01-09 14:11:22.37	299.73	19.37	-46.4	-47.5	15.4	0.00e+00	0	23	0	2386558976	58	4227
2026-01-09 14:11:23.37	299.96	19.33	-46.4	-47.5	15.4	0.00e+00	0	23	0	2392850432	58	4237
2026-01-09 14:11:24.37	300.19	19.28	-46.5	-47.7	15.4	0.00e+00	0	23	0	2398093312	58	4303
2026-01-09 14:11:25.37	300.42	19.24	-46.5	-47.6	15.4	0.00e+00	0	24	0	2403336192	58	4275
2026-01-09 14:11:26.37	300.64	19.19	-46.5	-47.7	15.4	0.00e+00	0	24	0	2408579072	58	4317
2026-01-09 14:11:27.36	300.87	19.15	-46.6	-47.8	15.3	0.00e+00	0	24	0	2414870528	58	4365
2026-01-09 14:11:28.37	301.10	19.10	-46.6	-47.8	15.4	0.00e+00	0	24	0	2420113408	58	4347
2026-01-09 14:11:29.37	301.32	19.05	-46.6	-47.8	15.4	0.00e+00	0	24	0	2425356288	58	4346
2026-01-09 14:11:30.37	301.54	19.01	-46.5	-47.7	15.4	0.00e+00	0	24	0	2431647744	58	4299
2026-01-09 14:11:31.36	301.76	18.96	-46.5	-47.7	15.4	0.00e+00	0	24	0	2436890624	58	4297
2026-01-09 14:11:32.35	301.99	18.91	-46.5	-47.6	15.4	0.00e+00	0	24	0	2443182080	58	4271
2026-01-09 14:11:33.36	302.21	18.86	-46.4	-47.6	15.4	0.00e+00	0	24	0	2448424960	58	4254
2026-01-09 14:11:34.36	302.43	18.81	-46.4	-47.6	15.4	0.00e+00	0	24	0	2453667840	58	4266
2026-01-09 14:11:35.36	302.65	18.76	-46.3	-47.5	15.4	0.00e+00	0	24	0	2459959296	58	4201
2026-01-09 14:11:36.36	302.87	18.71	-46.3	-47.5	15.4	0.00e+00	0	24	0	2465202176	58	4209
2026-01-09 14:11:37.35	303.09	18.67	-46.4	-47.5	15.4	0.00e+00	0	24	0	2470445056	58	4225
2026-01-09 14:11:38.36	303.31	18.61	-46.4	-47.6	15.4	0.00e+00	0	24	0	2476736512	58	4251
2026-01-09 14:11:39.36	303.53	18.56	-46.4	-47.6	15.4	0.00e+00	0	24	0	2481979392	58	4254
2026-01-09 14:11:40.35	303.74	18.51	-46.5	-47.6	15.4	0.00e+00	0	24	0	2487222272	58	4277
2026-01-09 14:11:41.36	303.96	18.46	-46.4	-47.6	15.4	0.00e+00	0	24	0	2493513728	58	4257
2026-01-09 14:11:42.36	304.17	18.41	-46.5	-47.7	15.4	0.00e+00	0	24	0	2498756608	58	4293
2026-01-09 14:11:43.35	304.39	18.36	-46.5	-47.7	15.4	0.00e+00	0	24	0	2505048064	58	4299
2026-01-09 14:11:44.36	304.60	18.31	-46.6	-47.7	15.4	0.00e+00	0	24	0	2510290944	58	4330
2026-01-09 14:11:45.35	304.81	18.26	-46.6	-47.7	15.4	0.00e+00	0	24	0	2515533824	58	4325
2026-01-09 14:11:46.35	305.03	18.21	-46.6	-47.7	15.4	0.00e+00	0	24	0	2521825280	58	4328
2026-01-09 14:11:47.35	305.24	18.15	-46.5	-47.7	15.4	0.00e+00	0	24	0	2527068160	58	4325
2026-01-09 14:11:48.35	305.45	18.10	-46.6	-47.8	15.4	0.00e+00	0	24	0	2532311040	58	4357
2026-01-09 14:11:49.35	305.66	18.05	-46.7	-47.8	15.3	0.00e+00	0	24	0	2538602496	58	4378
2026-01-09 14:11:50.35	305.87	17.99	-46.6	-47.8	15.4	0.00e+00	0	24	0	2543845376	58	4343
2026-01-09 14:11:51.35	306.08	17.94	-46.4	-47.5	15.4	0.00e+00	0	24	0	2549088256	58	4238
2026-01-09 14:11:52.34	306.29	17.89	-46.4	-47.5	15.4	0.00e+00	0	23	0	2555379712	58	4217
2026-01-09 14:11:53.33	306.49	17.83	-46.4	-47.5	15.4	0.00e+00	0	24	0	2560622592	58	4229
2026-01-09 14:11:54.34	306.70	17.78	-46.4	-47.6	15.4	0.00e+00	0	24	0	2566914048	58	4249
2026-01-09 14:11:55.33	306.90	17.73	-46.6	-47.7	15.4	0.00e+00	0	24	0	2572156928	58	4330
2026-01-09 14:11:56.33	307.11	17.67	-46.7	-47.9	15.3	0.00e+00	0	24	0	2577399808	58	4399
2026-01-09 14:11:57.33	307.31	17.62	-46.8	-48.0	15.3	0.00e+00	0	24	0	2583691264	58	4480
2026-01-09 14:11:58.32	307.52	17.56	-46.9	-48.1	15.4	0.00e+00	0	24	0	2588934144	59	4283
2026-01-09 14:11:59.32	307.72	17.51	-47.0	-48.2	15.3	0.00e+00	0	24	0	2594177024	59	4324
2026-01-09 14:12:00.31	307.92	17.45	-47.0	-48.2	15.3	0.00e+00	0	24	0	2599419904	59	4322
2026-01-09 14:12:01.30	308.12	17.40	-47.0	-48.2	15.3	0.00e+00	0	24	0	2605711360	59	4317
2026-01-09 14:12:02.30	308.32	17.34	-47.1	-48.3	15.3	0.00e+00	0	24	0	2610954240	59	4384
2026-01-09 14:12:03.29	308.52	17.28	-46.9	-48.1	15.3	0.00e+00	0	24	0	2617245696	59	4272
2026-01-09 14:12:04.29	308.72	17.23	-46.9	-48.1	15.3	0.00e+00	0	24	0	2622488576	59	4260
2026-01-09 14:12:05.28	308.92	17.17	-46.8	-48.0	15.4	0.00e+00	0	24	0	2627731456	59	4218
2026-01-09 14:12:06.29	309.12	17.11	-46.9	-48.0	15.3	0.00e+00	0	24	0	2634022912	59	4240
2026-01-09 14:12:07.29	309.31	17.06	-46.9	-48.1	15.3	0.00e+00	0	24	0	2639265792	59	4258
2026-01-09 14:12:08.28	309.51	17.00	-46.8	-48.0	15.4	0.00e+00	0	24	0	2644508672	59	4213
2026-01-09 14:12:09.29	309.71	16.94	-46.9	-48.0	15.4	0.00e+00	0	24	0	2650800128	59	4235
2026-01-09 14:12:10.29	309.90	16.89	-46.8	-48.0	15.4	0.00e+00	0	24	0	2656043008	59	4194
2026-01-09 14:12:11.30	310.10	16.83	-46.8	-48.0	15.4	0.00e+00	0	24	0	2662334464	59	4205
2026-01-09 14:12:12.29	310.29	16.77	-46.8	-48.0	15.4	0.00e+00	0	24	0	2667577344	59	4210
2026-01-09 14:12:13.29	310.48	16.71	-46.8	-48.0	15.4	0.00e+00	0	24	0	2672820224	59	4194
2026-01-09 14:12:14.30	310.68	16.65	-46.8	-47.9	15.4	0.00e+00	0	24	0	2679111680	59	4186
2026-01-09 14:12:15.30	310.87	16.59	-46.8	-48.0	15.4	0.00e+00	0	24	0	2684354560	59	4208
2026-01-09 14:12:16.30	311.06	16.54	-46.9	-48.1	15.3	0.00e+00	0	24	0	2689597440	59	4256
2026-01-09 14:12:17.29	311.25	16.48	-47.0	-48.2	15.3	0.00e+00	0	24	0	2695888896	59	4312
2026-01-09 14:12:18.29	311.44	16.42	-47.1	-48.3	15.3	0.00e+00	0	24	0	2701131776	59	4368
2026-01-09 14:12:19.30	311.63	16.36	-47.1	-48.3	15.3	0.00e+00	0	24	0	2706374656	59	4380
2026-01-09 14:12:20.29	311.82	16.30	-47.2	-48.5	15.2	0.00e+00	0	24	0	2712666112	59	4445
2026-01-09 14:12:21.29	312.00	16.24	-47.3	-48.5	15.2	0.00e+00	0	24	0	2717908992	59	4492
2026-01-09 14:12:22.29	312.19	16.18	-47.4	-48.6	15.2	0.00e+00	0	24	0	2724200448	59	4503
2026-01-09 14:12:23.29	312.38	16.12	-47.2	-48.4	15.2	0.00e+00	0	24	0	2729443328	59	4409
2026-01-09 14:12:24.30	312.56	16.06	-47.3	-48.5	15.2	0.00e+00	0	24	0	2734686208	59	4454
2026-01-09 14:12:25.29	312.75	16.00	-47.4	-48.6	15.1	0.00e+00	0	24	0	2740977664	59	4510
2026-01-09 14:12:26.29	312.93	15.94	-47.1	-48.3	15.3	0.00e+00	0	24	0	2746220544	60	4132
2026-01-09 14:12:27.29	313.11	15.88	-47.2	-48.4	15.3	0.00e+00	0	24	0	2751463424	60	4154
2026-01-09 14:12:28.29	313.29	15.82	-47.2	-48.4	15.3	0.00e+00	0	24	0	2757754880	60	4193
2026-01-09 14:12:29.30	313.48	15.76	-47.3	-48.5	15.3	0.00e+00	0	24	0	2762997760	60	4230
2026-01-09 14:12:30.29	313.66	15.70	-47.3	-48.5	15.3	0.00e+00	0	24	0	2768240640	60	4205
2026-01-09 14:12:31.29	313.84	15.64	-47.1	-48.3	15.3	0.00e+00	0	24	0	2774532096	60	4124
2026-01-09 14:12:32.29	314.02	15.58	-47.0	-48.2	15.4	0.00e+00	0	24	0	2779774976	60	4067
2026-01-09 14:12:33.30	314.20	15.52	-47.0	-48.2	15.4	0.00e+00	0	24	0	2786066432	60	4086
2026-01-09 14:12:34.30	314.38	15.46	-47.1	-48.2	15.4	0.00e+00	0	24	0	2791309312	60	4088
2026-01-09 14:12:35.30	314.55	15.40	-46.9	-48.1	15.4	0.00e+00	0	23	0	2796552192	60	4033
2026-01-09 14:12:36.30	314.73	15.34	-46.8	-48.0	15.4	0.00e+00	0	24	0	2802843648	60	3990
2026-01-09 14:12:37.30	314.91	15.28	-46.9	-48.1	15.4	0.00e+00	0	24	0	2808086528	60	4005
2026-01-09 14:12:38.31	315.08	15.21	-46.8	-47.9	15.5	0.00e+00	0	24	0	2813329408	60	3935
2026-01-09 14:12:39.30	315.26	15.15	-46.8	-47.9	15.5	0.00e+00	0	24	0	2819620864	60	3941
2026-01-09 14:12:40.30	315.43	15.09	-46.7	-47.8	15.5	0.00e+00	0	24	0	2824863744	60	3907
2026-01-09 14:12:41.30	315.60	15.03	-47.0	-48.2	15.3	0.00e+00	0	24	0	2830106624	59	4330
2026-01-09 14:12:42.30	315.78	14.97	-47.2	-48.4	15.2	0.00e+00	0	24	0	2836398080	59	4402
2026-01-09 14:12:43.31	315.95	14.91	-47.1	-48.3	15.2	0.00e+00	0	24	0	2841640960	59	4372
2026-01-09 14:12:44.31	316.12	14.85	-47.1	-48.3	15.2	0.00e+00	0	24	0	2847932416	59	4359
2026-01-09 14:12:45.31	316.29	14.78	-47.2	-48.4	15.2	0.00e+00	0	24	0	2853175296	59	4428
2026-01-09 14:12:46.32	316.46	14.72	-47.2	-48.4	15.2	0.00e+00	0	24	0	2858418176	59	4401
2026-01-09 14:12:47.32	316.63	14.66	-47.2	-48.4	15.2	0.00e+00	0	24	0	2864709632	59	4420
2026-01-09 14:12:48.31	316.80	14.60	-47.2	-48.4	15.2	0.00e+00	0	24	0	2869952512	59	4435
2026-01-09 14:12:49.31	316.96	14.54	-47.2	-48.4	15.1	0.00e+00	0	24	0	2875195392	59	4435
2026-01-09 14:12:50.30	317.13	14.47	-47.4	-48.6	15.1	0.00e+00	0	24	0	2881486848	59	4509
2026-01-09 14:12:51.30	317.30	14.41	-47.2	-48.4	15.3	0.00e+00	0	24	0	2886729728	60	4169
2026-01-09 14:12:52.30	317.46	14.35	-47.1	-48.3	15.3	0.00e+00	0	24	0	2891972608	60	4100
2026-01-09 14:12:53.30	317.63	14.29	-47.3	-48.5	15.2	0.00e+00	0	24	0	2898264064	60	4206
2026-01-09 14:12:54.30	317.79	14.22	-47.3	-48.5	15.2	0.00e+00	0	24	0	2903506944	60	4201
2026-01-09 14:12:55.29	317.95	14.16	-47.1	-48.3	15.3	0.00e+00	0	24	0	2909798400	60	4104
2026-01-09 14:12:56.28	318.11	14.10	-47.1	-48.3	15.3	0.00e+00	0	24	0	2915041280	60	4101
2026-01-09 14:12:57.28	318.28	14.04	-47.1	-48.3	15.3	0.00e+00	0	24	0	2920284160	60	4123
2026-01-09 14:12:58.27	318.44	13.98	-47.1	-48.2	15.3	0.00e+00	0	24	0	2926575616	60	4096
2026-01-09 14:12:59.27	318.60	13.91	-47.2	-48.4	15.3	0.00e+00	0	24	0	2931818496	60	4155
2026-01-09 14:13:00.27	318.76	13.85	-47.2	-48.4	15.2	0.00e+00	0	24	0	2937061376	60	4165
2026-01-09 14:13:01.27	318.92	13.79	-47.2	-48.5	15.2	0.00e+00	0	24	0	2942304256	60	4196
2026-01-09 14:13:02.26	319.08	13.73	-47.3	-48.5	15.2	0.00e+00	0	24	0	2948595712	60	4210
2026-01-09 14:13:03.26	319.23	13.66	-47.3	-48.6	15.2	0.00e+00	0	24	0	2953838592	60	4251
2026-01-09 14:13:04.26	319.39	13.60	-47.5	-48.7	15.1	0.00e+00	0	24	0	2960130048	60	4322
2026-01-09 14:13:05.26	319.55	13.54	-47.5	-48.8	15.1	0.00e+00	0	24	0	2965372928	60	4343
2026-01-09 14:13:06.26	319.71	13.47	-47.4	-48.7	15.2	0.00e+00	0	24	0	2970615808	60	4300
2026-01-09 14:13:07.26	319.86	13.41	-47.4	-48.6	15.2	0.00e+00	0	24	0	2976907264	60	4277
2026-01-09 14:13:08.26	320.02	13.35	-47.4	-48.6	15.2	0.00e+00	0	24	0	2982150144	60	4280
2026-01-09 14:13:09.26	320.17	13.29	-47.3	-48.5	15.2	0.00e+00	0	24	0	2987393024	60	4226
2026-01-09 14:13:10.26	320.32	13.22	-47.2	-48.4	15.3	0.00e+00	0	24	0	2993684480	60	4186
2026-01-09 14:13:11.25	320.48	13.16	-47.2	-48.4	15.2	0.00e+00	0	24	0	2998927360	60	4181
2026-01-09 14:13:12.25	320.63	13.10	-47.2	-48.4	15.2	0.00e+00	0	24	0	3004170240	60	4152
2026-01-09 14:13:13.25	320.78	13.03	-47.2	-48.4	15.2	0.00e+00	0	24	0	3010461696	60	4160
2026-01-09 14:13:14.26	320.93	12.97	-47.3	-48.4	15.2	0.00e+00	0	24	0	3015704576	60	4193
2026-01-09 14:13:15.26	321.08	12.91	-47.2	-48.4	15.2	0.00e+00	0	24	0	3021996032	60	4171
2026-01-09 14:13:16.26	321.24	12.84	-47.1	-48.3	15.3	0.00e+00	0	24	0	3027238912	60	4140
2026-01-09 14:13:17.25	321.38	12.78	-47.2	-48.4	15.2	0.00e+00	0	24	0	3032481792	60	4149
2026-01-09 14:13:18.25	321.53	12.72	-47.1	-48.3	15.2	0.00e+00	0	24	0	3038773248	60	4134
2026-01-09 14:13:19.25	321.68	12.66	-47.1	-48.3	15.3	0.00e+00	0	24	0	3044016128	60	4132
2026-01-09 14:13:20.25	321.83	12.59	-47.2	-48.4	15.3	0.00e+00	0	24	0	3049259008	60	4148
2026-01-09 14:13:21.24	321.97	12.53	-47.1	-48.3	15.3	0.00e+00	0	24	0	3055550464	60	4132
2026-01-09 14:13:22.25	322.12	12.47	-47.2	-48.4	15.3	0.00e+00	0	24	0	3060793344	60	4165
2026-01-09 14:13:23.25	322.27	12.40	-47.3	-48.5	15.2	0.00e+00	0	24	0	3066036224	60	4202
2026-01-09 14:13:24.25	322.41	12.34	-47.3	-48.5	15.2	0.00e+00	0	24	0	3072327680	60	4216
2026-01-09 14:13:25.25	322.56	12.28	-47.4	-48.6	15.1	0.00e+00	0	24	0	3077570560	60	4272
2026-01-09 14:13:26.25	322.70	12.21	-47.4	-48.6	15.1	0.00e+00	0	24	0	3083862016	60	4259
2026-01-09 14:13:27.24	322.84	12.15	-47.4	-48.6	15.2	0.00e+00	0	24	0	3089104896	60	4266
2026-01-09 14:13:28.25	322.99	12.09	-47.5	-48.7	15.1	0.00e+00	0	24	0	3094347776	60	4319
2026-01-09 14:13:29.25	323.13	12.02	-47.5	-48.7	15.1	0.00e+00	0	24	0	3100639232	60	4320
2026-01-09 14:13:30.25	323.27	11.96	-47.4	-48.7	15.1	0.00e+00	0	24	0	3105882112	60	4298
2026-01-09 14:13:31.25	323.41	11.90	-47.5	-48.7	15.1	0.00e+00	0	24	0	3111124992	60	4314
2026-01-09 14:13:32.25	323.55	11.84	-47.5	-48.7	15.1	0.00e+00	0	24	0	3117416448	60	4325
2026-01-09 14:13:33.25	323.69	11.77	-47.5	-48.8	15.1	0.00e+00	0	24	0	3122659328	60	4354
2026-01-09 14:13:34.26	323.83	11.71	-47.6	-48.9	15.0	0.00e+00	0	24	0	3127902208	60	4421
2026-01-09 14:13:35.25	323.97	11.65	-47.7	-48.9	15.0	0.00e+00	0	24	0	3134193664	60	4430
2026-01-09 14:13:36.24	324.11	11.58	-47.7	-49.0	15.0	0.00e+00	0	24	0	3139436544	60	4477
2026-01-09 14:13:37.24	324.25	11.52	-47.7	-48.9	15.0	0.00e+00	0	24	0	3145728000	60	4437
2026-01-09 14:13:38.25	324.38	11.46	-47.7	-49.0	14.9	0.00e+00	0	24	0	3150970880	60	4480
2026-01-09 14:13:39.24	324.52	11.39	-47.7	-48.9	15.0	0.00e+00	0	24	0	3156213760	60	4434
2026-01-09 14:13:40.23	324.65	11.33	-47.7	-49.0	15.0	0.00e+00	0	24	0	3162505216	60	4465
2026-01-09 14:13:41.23	324.79	11.27	-47.7	-49.0	14.9	0.00e+00	0	24	0	3167748096	60	4468
2026-01-09 14:13:42.23	324.92	11.21	-47.8	-49.0	15.0	0.00e+00	0	24	0	3172990976	60	4474
2026-01-09 14:13:43.23	325.06	11.14	-47.6	-48.9	15.0	0.00e+00	0	24	0	3179282432	60	4412
2026-01-09 14:13:44.24	325.19	11.08	-47.6	-48.8	15.0	0.00e+00	0	24	0	3184525312	60	4376
2026-01-09 14:13:45.23	325.33	11.02	-47.6	-48.9	15.0	0.00e+00	0	24	0	3189768192	60	4405
2026-01-09 14:13:46.23	325.46	10.96	-47.7	-48.9	15.0	0.00e+00	0	24	0	3196059648	60	4431
2026-01-09 14:13:47.23	325.59	10.89	-47.6	-48.9	15.0	0.00e+00	0	24	0	3201302528	60	4407
2026-01-09 14:13:48.22	325.72	10.83	-47.7	-48.9	15.0	0.00e+00	0	24	0	3207593984	60	4425
2026-01-09 14:13:49.22	325.85	10.77	-47.7	-49.0	15.0	0.00e+00	0	24	0	3212836864	60	4459
2026-01-09 14:13:50.21	325.98	10.71	-47.8	-49.1	14.9	0.00e+00	0	24	0	3218079744	60	4503
2026-01-09 14:13:51.21	326.11	10.64	-47.8	-49.0	14.9	0.00e+00	0	24	0	3223322624	60	4476
2026-01-09 14:13:52.21	326.24	10.58	-47.8	-49.1	14.9	0.00e+00	0	24	0	3229614080	60	4540
2026-01-09 14:13:53.21	326.37	10.52	-47.9	-49.2	15.0	0.00e+00	0	24	0	3234856960	61	4311
2026-01-09 14:13:54.20	326.50	10.46	-48.0	-49.3	14.9	0.00e+00	0	24	0	3240099840	61	4360
2026-01-09 14:13:55.20	326.62	10.39	-48.1	-49.5	14.9	0.00e+00	0	24	0	3246391296	61	4448
2026-01-09 14:13:56.19	326.75	10.33	-48.1	-49.4	14.9	0.00e+00	0	24	0	3251634176	61	4408
2026-01-09 14:13:57.19	326.88	10.27	-48.1	-49.4	14.9	0.00e+00	0	24	0	3257925632	61	4424
2026-01-09 14:13:58.18	327.00	10.21	-48.2	-49.6	14.8	0.00e+00	0	24	0	3263168512	61	4495
2026-01-09 14:13:59.18	327.13	10.15	-48.2	-49.5	14.8	0.00e+00	0	24	0	3268411392	61	4489
2026-01-09 14:14:00.18	327.25	10.08	-48.2	-49.6	14.8	0.00e+00	0	24	0	3274702848	61	4515
2026-01-09 14:14:01.17	327.38	10.02	-48.3	-49.6	14.8	0.00e+00	0	24	0	3279945728	61	4537
2026-01-09 14:14:02.17	327.50	9.96	-48.2	-49.5	14.8	0.00e+00	0	24	0	3285188608	61	4482
2026-01-09 14:14:03.17	327.62	9.90	-48.2	-49.5	14.8	0.00e+00	0	24	0	3291480064	61	4493
2026-01-09 14:14:04.17	327.75	9.83	-48.3	-49.6	14.8	0.00e+00	0	24	0	3296722944	61	4525
2026-01-09 14:14:05.17	327.87	9.77	-48.1	-49.4	14.9	0.00e+00	0	24	0	3303014400	61	4429
2026-01-09 14:14:06.17	327.99	9.71	-48.1	-49.5	14.9	0.00e+00	0	24	0	3308257280	61	4443
2026-01-09 14:14:07.16	328.11	9.65	-48.0	-49.3	14.9	0.00e+00	0	24	0	3313500160	61	4368
2026-01-09 14:14:08.16	328.23	9.59	-48.1	-49.4	14.9	0.00e+00	0	24	0	3318743040	61	4432
2026-01-09 14:14:09.15	328.35	9.53	-48.1	-49.5	14.8	0.00e+00	0	24	0	3325034496	61	4450
2026-01-09 14:14:10.15	328.47	9.46	-48.1	-49.4	14.9	0.00e+00	0	24	0	3330277376	61	4432
2026-01-09 14:14:11.14	328.59	9.40	-48.2	-49.5	14.8	0.00e+00	0	24	0	3335520256	61	4475
2026-01-09 14:14:12.14	328.71	9.34	-48.2	-49.5	14.8	0.00e+00	0	24	0	3341811712	61	4484
2026-01-09 14:14:13.14	328.83	9.28	-48.3	-49.7	14.7	0.00e+00	0	24	0	3347054592	61	4559
2026-01-09 14:14:14.14	328.95	9.22	-48.3	-49.6	14.8	0.00e+00	0	24	0	3353346048	61	4506
2026-01-09 14:14:15.13	329.07	9.16	-48.2	-49.6	14.8	0.00e+00	0	24	0	3358588928	61	4506
2026-01-09 14:14:16.14	329.18	9.09	-48.2	-49.5	14.8	0.00e+00	0	24	0	3363831808	61	4477
2026-01-09 14:14:17.14	329.30	9.03	-48.3	-49.6	14.8	0.00e+00	0	24	0	3370123264	61	4530
2026-01-09 14:14:18.13	329.42	8.97	-48.3	-49.6	14.8	0.00e+00	0	24	0	3375366144	61	4532
2026-01-09 14:14:19.13	329.53	8.91	-48.3	-49.6	14.8	0.00e+00	0	24	0	3380609024	61	4510
2026-01-09 14:14:20.13	329.65	8.85	-48.3	-49.6	14.8	0.00e+00	0	24	0	3386900480	61	4514
2026-01-09 14:14:21.13	329.76	8.79	-48.3	-49.6	14.7	0.00e+00	0	24	0	3392143360	61	4517
2026-01-09 14:14:22.12	329.88	8.73	-48.2	-49.5	14.8	0.00e+00	0	24	0	3397386240	61	4475
2026-01-09 14:14:23.12	329.99	8.67	-48.3	-49.6	14.7	0.00e+00	0	24	0	3403677696	61	4533
2026-01-09 14:14:24.13	330.10	8.60	-48.2	-49.5	14.8	0.00e+00	0	24	0	3408920576	61	4471
2026-01-09 14:14:25.13	330.22	8.54	-48.2	-49.5	14.8	0.00e+00	0	24	0	3415212032	61	4485
2026-01-09 14:14:26.13	330.33	8.48	-48.2	-49.5	14.8	0.00e+00	0	24	0	3420454912	61	4486
2026-01-09 14:14:27.13	330.44	8.42	-48.2	-49.5	14.8	0.00e+00	0	24	0	3425697792	61	4468
2026-01-09 14:14:28.14	330.56	8.36	-48.3	-49.6	14.7	0.00e+00	0	24	0	3431989248	61	4540
2026-01-09 14:14:29.14	330.67	8.30	-48.4	-49.7	14.7	0.00e+00	0	24	0	3437232128	61	4594
2026-01-09 14:14:30.14	330.78	8.24	-48.5	-49.8	14.8	0.00e+00	0	24	0	3442475008	62	4381
2026-01-09 14:14:31.14	330.89	8.18	-48.5	-49.9	14.8	0.00e+00	0	24	0	3448766464	62	4396
2026-01-09 14:14:32.14	331.00	8.12	-48.4	-49.7	14.8	0.00e+00	0	24	0	3454009344	62	4340
2026-01-09 14:14:33.14	331.11	8.06	-48.6	-50.0	14.7	0.00e+00	0	24	0	3459252224	62	4476
2026-01-09 14:14:34.14	331.22	8.00	-48.5	-49.9	14.7	0.00e+00	0	24	0	3465543680	62	4398
2026-01-09 14:14:35.15	331.33	7.93	-48.6	-50.0	14.6	0.00e+00	0	24	0	3470786560	62	4475
2026-01-09 14:14:36.15	331.44	7.87	-48.8	-50.2	14.6	0.00e+00	0	24	0	3477078016	62	4577
2026-01-09 14:14:37.15	331.54	7.81	-49.0	-50.4	14.6	0.00e+00	0	24	0	3482320896	63	4420
2026-01-09 14:14:38.15	331.65	7.75	-48.8	-50.2	14.7	0.00e+00	0	24	0	3487563776	63	4326
2026-01-09 14:14:39.15	331.76	7.69	-48.9	-50.3	14.6	0.00e+00	0	24	0	3493855232	63	4379
2026-01-09 14:14:40.16	331.87	7.63	-48.8	-50.3	14.7	0.00e+00	0	24	0	3499098112	63	4346
2026-01-09 14:14:41.17	331.97	7.57	-48.7	-50.0	14.8	0.00e+00	0	24	0	3505389568	63	4242
2026-01-09 14:14:42.16	332.08	7.51	-48.6	-49.9	14.9	0.00e+00	0	24	0	3510632448	63	4191
2026-01-09 14:14:43.17	332.18	7.45	-48.5	-49.9	14.9	0.00e+00	0	24	0	3515875328	63	4155
2026-01-09 14:14:44.17	332.29	7.39	-48.6	-49.9	14.9	0.00e+00	0	24	0	3521118208	63	4186
2026-01-09 14:14:45.17	332.39	7.33	-48.6	-49.9	14.9	0.00e+00	0	24	0	3527409664	63	4185
2026-01-09 14:14:46.17	332.50	7.27	-48.6	-50.0	14.8	0.00e+00	0	24	0	3532652544	63	4221
2026-01-09 14:14:47.17	332.60	7.21	-48.6	-50.0	14.8	0.00e+00	0	24	0	3538944000	63	4209
2026-01-09 14:14:48.17	332.71	7.15	-48.6	-50.0	14.8	0.00e+00	0	24	0	3544186880	63	4195
2026-01-09 14:14:49.17	332.81	7.09	-48.5	-49.8	14.9	0.00e+00	0	24	0	3550478336	63	4118
2026-01-09 14:14:50.17	332.91	7.03	-48.5	-49.8	14.9	0.00e+00	0	24	0	3555721216	63	4136
2026-01-09 14:14:51.17	333.01	6.97	-48.5	-49.9	14.9	0.00e+00	0	24	0	3560964096	63	4154
2026-01-09 14:14:52.18	333.12	6.91	-48.5	-49.9	14.9	0.00e+00	0	24	0	3567255552	63	4149
2026-01-09 14:14:53.18	333.22	6.85	-48.7	-50.0	14.8	0.00e+00	0	24	0	3572498432	63	4238
2026-01-09 14:14:54.17	333.32	6.80	-48.8	-50.2	14.7	0.00e+00	0	24	0	3577741312	63	4325
2026-01-09 14:14:55.16	333.42	6.74	-48.9	-50.3	14.6	0.00e+00	0	24	0	3582984192	63	4387
2026-01-09 14:14:56.17	333.52	6.68	-48.8	-50.2	14.7	0.00e+00	0	24	0	3589275648	63	4322
