passes_logs/2026/01/09/R3.2S_Murmansk/R3.2S_Murmansk__20260109_123459_NOAA_21_JPSS-2_rec.log

#Pass ID: 20260109_123459_NOAA 21 (JPSS-2)
#Satellite: NOAA 21 (JPSS-2)
#Configuration: NOAA-21
#almurnet v.1.7.20251203
#Start time: 2026-01-09 12:34:59

#Version: 2.2.20231116
#Station: R3.2S_Murmansk
#Location: 33.079688 lon 68.888172 lat
#TLE: 1 54234U 22150A   26008.59854928  .00000127  00000+0  81204-4 0  9992
#TLE: 2 54234  98.7494 309.5759 0000887 327.7487  32.3634 14.19533414163905

#Time	Az	El	Level	Level2	SNR	BER	BlckErr	Temp	State	Recorded	gain1	gain2
2026-01-09 12:34:59.53	230.67	2.01	-57.9	-71.7	3.8	1.49e+00	0	22	0	0	82	17091
2026-01-09 12:35:00.50	230.75	2.06	-57.8	-71.6	3.8	1.49e+00	0	22	104	0	80	19024
2026-01-09 12:35:01.47	230.84	2.11	-57.8	-71.6	3.8	1.49e+00	0	22	104	0	80	19007
2026-01-09 12:35:02.44	230.93	2.16	-57.8	-71.6	3.8	1.49e+00	0	22	104	0	80	19006
2026-01-09 12:35:03.41	231.01	2.20	-57.8	-71.6	3.8	1.49e+00	0	22	104	0	80	19057
2026-01-09 12:35:04.38	231.10	2.25	-57.8	-71.6	3.8	1.49e+00	0	22	104	0	80	19028
2026-01-09 12:35:05.36	231.19	2.30	-57.8	-71.6	3.8	1.49e+00	0	22	104	0	80	18979
2026-01-09 12:35:06.34	231.28	2.35	-57.8	-71.6	3.8	1.49e+00	0	22	104	0	80	18962
2026-01-09 12:35:07.31	231.36	2.40	-57.8	-71.6	3.8	1.49e+00	0	22	104	0	80	18974
2026-01-09 12:35:08.28	231.45	2.44	-57.8	-71.6	3.8	1.49e+00	0	22	104	0	80	19027
2026-01-09 12:35:09.25	231.54	2.49	-57.8	-71.6	3.8	1.49e+00	0	23	104	0	80	18968
2026-01-09 12:35:10.23	231.63	2.54	-57.8	-71.6	3.8	1.49e+00	0	22	104	0	80	18950
2026-01-09 12:35:11.20	231.72	2.59	-57.8	-71.5	3.8	1.49e+00	0	22	104	0	80	18897
2026-01-09 12:35:12.17	231.81	2.64	-57.8	-71.5	3.8	1.49e+00	0	23	104	0	80	18894
2026-01-09 12:35:13.15	231.90	2.68	-57.8	-71.5	3.8	1.49e+00	0	22	104	0	80	18845
2026-01-09 12:35:14.13	231.99	2.73	-57.8	-71.5	3.8	1.49e+00	0	23	104	0	80	18925
2026-01-09 12:35:15.10	232.08	2.78	-57.8	-71.5	3.8	1.49e+00	0	23	104	0	80	18902
2026-01-09 12:35:16.07	232.17	2.83	-57.8	-71.5	3.8	1.49e+00	0	22	104	0	80	18927
2026-01-09 12:35:17.05	232.26	2.88	-57.8	-71.5	3.8	1.49e+00	0	23	104	0	80	18860
2026-01-09 12:35:18.02	232.35	2.93	-57.8	-71.6	3.8	1.49e+00	0	23	104	0	80	18952
2026-01-09 12:35:19.00	232.44	2.98	-57.8	-71.5	3.8	1.49e+00	0	23	104	0	80	18821
2026-01-09 12:35:19.97	232.53	3.02	-57.8	-71.5	3.8	1.49e+00	0	23	104	0	80	18813
2026-01-09 12:35:20.94	232.62	3.07	-57.8	-71.5	3.8	1.49e+00	0	23	104	0	80	18900
2026-01-09 12:35:21.92	232.72	3.12	-57.8	-71.5	3.8	1.49e+00	0	23	104	0	80	18902
2026-01-09 12:35:22.89	232.81	3.17	-57.8	-71.6	3.8	1.49e+00	0	23	104	0	80	18956
2026-01-09 12:35:23.86	232.90	3.22	-57.8	-71.6	3.8	1.49e+00	0	23	104	0	80	18970
2026-01-09 12:35:24.83	232.99	3.27	-57.8	-71.5	3.8	1.49e+00	0	23	104	0	80	18944
2026-01-09 12:35:25.80	233.09	3.31	-57.8	-71.5	3.8	1.49e+00	0	23	104	0	80	18842
2026-01-09 12:35:26.78	233.18	3.36	-57.8	-71.5	3.8	1.49e+00	0	23	104	0	80	18812
2026-01-09 12:35:27.75	233.27	3.41	-57.8	-71.5	3.8	1.49e+00	0	23	104	0	80	18776
2026-01-09 12:35:28.72	233.37	3.46	-57.8	-71.5	3.8	1.49e+00	0	23	104	0	80	18803
2026-01-09 12:35:29.69	233.46	3.51	-57.8	-71.5	3.8	1.49e+00	0	23	104	0	80	18845
2026-01-09 12:35:30.66	233.56	3.56	-57.8	-71.5	3.8	1.49e+00	0	23	104	0	80	18907
2026-01-09 12:35:31.63	233.65	3.61	-57.8	-71.5	3.8	1.49e+00	0	23	104	0	80	18905
2026-01-09 12:35:32.60	233.75	3.65	-57.8	-71.5	3.8	1.49e+00	0	23	104	0	80	18843
2026-01-09 12:35:33.57	233.84	3.70	-57.8	-71.5	3.8	1.49e+00	0	23	104	0	80	18914
2026-01-09 12:35:34.54	233.94	3.75	-57.8	-71.6	3.8	1.49e+00	0	23	104	0	80	18980
2026-01-09 12:35:35.50	234.03	3.80	-57.8	-71.5	3.8	1.49e+00	0	23	104	0	80	18914
2026-01-09 12:35:36.47	234.13	3.85	-57.8	-71.5	3.8	1.49e+00	0	23	104	0	80	18805
2026-01-09 12:35:37.44	234.22	3.90	-57.8	-71.4	3.8	1.49e+00	0	23	104	0	80	18690
2026-01-09 12:35:38.41	234.32	3.95	-57.8	-71.3	3.8	1.49e+00	0	23	104	0	80	18453
2026-01-09 12:35:39.37	234.42	3.99	-57.8	-71.3	3.8	1.49e+00	0	23	104	0	80	18316
2026-01-09 12:35:40.35	234.52	4.04	-57.8	-71.2	3.8	1.49e+00	0	23	104	0	80	18166
2026-01-09 12:35:41.32	234.61	4.09	-57.8	-71.2	3.8	1.49e+00	0	23	104	0	80	18101
2026-01-09 12:35:42.30	234.71	4.14	-57.7	-71.1	3.8	1.49e+00	0	23	104	0	80	17990
2026-01-09 12:35:43.27	234.81	4.19	-57.8	-71.0	3.8	1.49e+00	0	23	104	0	80	17838
2026-01-09 12:35:44.24	234.91	4.24	-57.7	-71.0	3.8	1.49e+00	0	23	104	0	80	17747
2026-01-09 12:35:45.21	235.01	4.29	-57.7	-71.0	3.8	1.49e+00	0	23	104	0	80	17716
2026-01-09 12:35:46.19	235.11	4.34	-57.8	-71.1	3.8	1.49e+00	0	23	104	0	80	17943
2026-01-09 12:35:47.16	235.21	4.39	-57.8	-71.2	3.8	1.49e+00	0	23	104	0	80	18250
2026-01-09 12:35:48.13	235.31	4.44	-57.8	-71.5	3.8	1.49e+00	0	23	104	0	80	18807
2026-01-09 12:35:49.10	235.41	4.48	-57.8	-71.4	3.8	1.49e+00	0	23	104	0	80	18619
2026-01-09 12:35:50.07	235.51	4.53	-57.7	-70.6	3.8	1.49e+00	0	23	104	0	80	16944
2026-01-09 12:35:51.04	235.61	4.58	-57.6	-69.2	3.9	1.48e+00	0	23	104	0	80	14466
2026-01-09 12:35:52.01	235.71	4.63	-57.5	-67.7	4.3	1.47e+00	0	23	104	0	80	12182
2026-01-09 12:35:52.98	235.81	4.68	-57.4	-67.3	4.0	1.07e+00	0	23	104	0	80	11585
2026-01-09 12:35:53.95	235.91	4.73	-57.3	-65.8	5.1	6.50e-01	0	23	0	1048576	80	9745
2026-01-09 12:35:54.92	236.02	4.78	-57.1	-64.8	5.6	4.48e-01	0	23	0	4194304	80	8706
2026-01-09 12:35:55.89	236.12	4.83	-56.9	-63.8	6.3	2.58e-01	0	23	0	7340032	80	7769
2026-01-09 12:35:56.86	236.22	4.88	-56.4	-61.9	7.9	6.69e-02	0	23	0	10485760	79	6585
2026-01-09 12:35:57.84	236.33	4.93	-55.5	-59.7	9.7	5.95e-03	0	23	0	13631488	77	5784
2026-01-09 12:35:58.81	236.43	4.98	-54.9	-58.3	10.9	8.04e-04	0	23	0	16777216	76	5203
2026-01-09 12:35:59.79	236.53	5.03	-53.8	-56.5	12.2	1.67e-05	0	23	0	19922944	74	4729
2026-01-09 12:36:00.76	236.64	5.07	-56.8	-63.1	7.0	2.51e-02	0	23	0	23068672	78	7994
2026-01-09 12:36:01.73	236.74	5.12	-56.8	-63.6	6.5	4.76e-02	0	23	0	26214400	79	8053
2026-01-09 12:36:02.70	236.85	5.17	-53.4	-55.9	12.6	5.65e-01	0	23	0	26214400	73	4665
2026-01-09 12:36:03.67	236.95	5.22	-55.9	-60.4	9.2	1.01e-03	0	23	0	29360128	76	6608
2026-01-09 12:36:04.64	237.06	5.27	-52.3	-54.4	13.4	1.60e-05	0	24	0	32505856	71	4401
2026-01-09 12:36:05.61	237.17	5.32	-51.7	-53.6	13.9	0.00e+00	0	23	0	34603008	70	4254
2026-01-09 12:36:06.58	237.27	5.37	-51.7	-53.7	13.7	0.00e+00	0	23	0	37748736	69	4551
2026-01-09 12:36:07.55	237.38	5.42	-51.6	-53.5	13.8	0.00e+00	0	23	0	40894464	69	4452
2026-01-09 12:36:08.52	237.48	5.47	-51.5	-53.3	13.9	0.00e+00	0	23	0	44040192	69	4382
2026-01-09 12:36:09.49	237.59	5.52	-51.7	-53.5	13.8	0.00e+00	0	23	0	47185920	69	4488
2026-01-09 12:36:10.46	237.70	5.57	-51.6	-53.5	13.8	0.00e+00	0	23	0	50331648	69	4460
2026-01-09 12:36:11.44	237.81	5.62	-51.7	-53.5	13.8	0.00e+00	0	23	0	53477376	69	4491
2026-01-09 12:36:12.40	237.92	5.67	-51.5	-53.3	13.9	0.00e+00	0	23	0	56623104	69	4389
2026-01-09 12:36:13.38	238.03	5.72	-51.5	-53.3	13.9	0.00e+00	0	23	0	59768832	69	4369
2026-01-09 12:36:14.35	238.13	5.76	-51.5	-53.3	13.9	0.00e+00	0	23	0	61865984	69	4375
2026-01-09 12:36:15.33	238.25	5.81	-51.5	-53.3	13.9	0.00e+00	0	24	0	65011712	69	4375
2026-01-09 12:36:16.29	238.35	5.86	-51.5	-53.3	13.9	0.00e+00	0	23	0	68157440	69	4373
2026-01-09 12:36:17.27	238.47	5.91	-51.3	-53.1	14.1	0.00e+00	0	23	0	71303168	69	4258
2026-01-09 12:36:18.24	238.58	5.96	-51.5	-53.4	13.9	0.00e+00	0	23	0	74448896	69	4394
2026-01-09 12:36:19.21	238.69	6.01	-51.4	-53.2	14.1	0.00e+00	0	23	0	77594624	69	4297
2026-01-09 12:36:20.19	238.80	6.06	-51.5	-53.3	14.0	0.00e+00	0	23	0	80740352	69	4365
2026-01-09 12:36:21.16	238.91	6.11	-51.3	-53.1	14.1	0.00e+00	0	23	0	83886080	69	4255
2026-01-09 12:36:22.13	239.02	6.16	-51.4	-53.1	14.1	0.00e+00	0	23	0	87031808	69	4290
2026-01-09 12:36:23.10	239.13	6.21	-51.3	-53.1	14.1	0.00e+00	0	23	0	90177536	69	4256
2026-01-09 12:36:24.07	239.25	6.26	-51.4	-53.2	14.1	0.00e+00	0	23	0	93323264	69	4298
2026-01-09 12:36:25.04	239.36	6.31	-51.3	-53.1	14.1	0.00e+00	0	23	0	95420416	69	4271
2026-01-09 12:36:26.02	239.47	6.36	-51.3	-53.1	14.1	0.00e+00	0	23	0	98566144	69	4245
2026-01-09 12:36:26.99	239.59	6.41	-51.3	-53.1	14.1	0.00e+00	0	23	0	101711872	69	4274
2026-01-09 12:36:27.96	239.70	6.46	-51.5	-53.3	14.0	0.00e+00	0	23	0	104857600	69	4364
2026-01-09 12:36:28.94	239.82	6.51	-51.4	-53.1	14.1	0.00e+00	0	24	0	108003328	69	4280
2026-01-09 12:36:29.91	239.93	6.56	-51.2	-53.0	14.2	0.00e+00	0	23	0	111149056	69	4209
2026-01-09 12:36:30.88	240.05	6.61	-51.3	-53.0	14.2	0.00e+00	0	24	0	114294784	69	4229
2026-01-09 12:36:31.85	240.16	6.66	-51.3	-53.1	14.1	0.00e+00	0	23	0	117440512	69	4282
2026-01-09 12:36:32.82	240.28	6.70	-51.3	-53.0	14.1	0.00e+00	0	23	0	120586240	69	4235
2026-01-09 12:36:33.79	240.40	6.75	-51.3	-53.1	14.1	0.00e+00	0	23	0	122683392	69	4246
2026-01-09 12:36:34.77	240.51	6.80	-51.2	-52.9	14.2	0.00e+00	0	23	0	125829120	69	4177
2026-01-09 12:36:35.74	240.63	6.85	-51.1	-52.9	14.1	0.00e+00	0	23	0	128974848	68	4394
2026-01-09 12:36:36.71	240.75	6.90	-51.2	-52.9	14.1	0.00e+00	0	24	0	132120576	68	4435
2026-01-09 12:36:37.68	240.87	6.95	-51.1	-52.8	14.2	0.00e+00	0	24	0	135266304	68	4348
2026-01-09 12:36:38.65	240.98	7.00	-51.1	-52.8	14.2	0.00e+00	0	23	0	138412032	68	4344
2026-01-09 12:36:39.62	241.10	7.05	-50.9	-52.6	14.3	0.00e+00	0	23	0	141557760	68	4274
2026-01-09 12:36:40.59	241.22	7.10	-51.0	-52.7	14.2	0.00e+00	0	23	0	144703488	68	4295
2026-01-09 12:36:41.56	241.34	7.15	-50.9	-52.5	14.3	0.00e+00	0	23	0	147849216	68	4227
2026-01-09 12:36:42.53	241.46	7.20	-50.9	-52.6	14.3	0.00e+00	0	23	0	150994944	68	4259
2026-01-09 12:36:43.50	241.58	7.25	-51.0	-52.7	14.2	0.00e+00	0	23	0	153092096	68	4333
2026-01-09 12:36:44.47	241.70	7.30	-51.0	-52.7	14.3	0.00e+00	0	24	0	156237824	68	4304
2026-01-09 12:36:45.44	241.82	7.35	-50.9	-52.5	14.3	0.00e+00	0	24	0	159383552	68	4221
2026-01-09 12:36:46.41	241.94	7.40	-51.0	-52.6	14.3	0.00e+00	0	23	0	162529280	68	4287
2026-01-09 12:36:47.38	242.07	7.45	-50.9	-52.6	14.3	0.00e+00	0	24	0	165675008	68	4261
2026-01-09 12:36:48.35	242.19	7.49	-50.9	-52.6	14.3	0.00e+00	0	23	0	168820736	68	4251
2026-01-09 12:36:49.32	242.31	7.54	-50.8	-52.4	14.4	0.00e+00	0	24	0	171966464	68	4192
2026-01-09 12:36:50.29	242.43	7.59	-50.9	-52.6	14.3	0.00e+00	0	23	0	175112192	68	4257
2026-01-09 12:36:51.26	242.56	7.64	-50.9	-52.5	14.3	0.00e+00	0	23	0	177209344	68	4217
2026-01-09 12:36:52.23	242.68	7.69	-50.8	-52.5	14.4	0.00e+00	0	24	0	180355072	68	4194
2026-01-09 12:36:53.20	242.80	7.74	-50.7	-52.4	14.4	0.00e+00	0	23	0	183500800	68	4147
2026-01-09 12:36:54.17	242.93	7.79	-50.5	-52.0	14.4	0.00e+00	0	24	0	186646528	67	4241
2026-01-09 12:36:55.14	243.05	7.84	-50.5	-52.1	14.4	0.00e+00	0	23	0	189792256	67	4257
2026-01-09 12:36:56.11	243.18	7.89	-50.5	-52.1	14.4	0.00e+00	0	24	0	192937984	67	4264
2026-01-09 12:36:57.09	243.31	7.94	-50.5	-52.0	14.4	0.00e+00	0	23	0	196083712	67	4241
2026-01-09 12:36:58.06	243.43	7.99	-50.5	-52.1	14.4	0.00e+00	0	23	0	199229440	67	4277
2026-01-09 12:36:59.03	243.56	8.04	-50.4	-51.9	14.5	0.00e+00	0	24	0	202375168	67	4192
2026-01-09 12:37:00.00	243.69	8.08	-50.3	-51.8	14.6	0.00e+00	0	23	0	205520896	67	4120
2026-01-09 12:37:00.97	243.81	8.13	-50.3	-51.9	14.5	0.00e+00	0	24	0	208666624	67	4164
2026-01-09 12:37:01.94	243.94	8.18	-50.3	-51.9	14.6	0.00e+00	0	23	0	210763776	67	4160
2026-01-09 12:37:02.91	244.07	8.23	-50.3	-51.8	14.6	0.00e+00	0	23	0	213909504	67	4136
2026-01-09 12:37:03.88	244.20	8.28	-50.4	-51.9	14.5	0.00e+00	0	24	0	217055232	67	4176
2026-01-09 12:37:04.86	244.33	8.33	-50.4	-51.9	14.5	0.00e+00	0	23	0	220200960	67	4185
2026-01-09 12:37:05.82	244.46	8.38	-50.1	-51.7	14.5	0.00e+00	0	23	0	223346688	66	4296
2026-01-09 12:37:06.80	244.59	8.43	-50.0	-51.5	14.6	0.00e+00	0	24	0	226492416	66	4230
2026-01-09 12:37:07.76	244.72	8.48	-50.2	-51.7	14.5	0.00e+00	0	23	0	229638144	66	4321
2026-01-09 12:37:08.73	244.85	8.52	-50.3	-51.8	14.4	0.00e+00	0	23	0	232783872	66	4364
2026-01-09 12:37:09.70	244.98	8.57	-50.2	-51.7	14.5	0.00e+00	0	23	0	234881024	66	4332
2026-01-09 12:37:10.67	245.11	8.62	-50.1	-51.6	14.5	0.00e+00	0	23	0	238026752	66	4274
2026-01-09 12:37:11.63	245.24	8.67	-50.2	-51.7	14.5	0.00e+00	0	23	0	241172480	66	4320
2026-01-09 12:37:12.60	245.37	8.72	-50.2	-51.8	14.4	0.00e+00	0	24	0	244318208	66	4345
2026-01-09 12:37:13.57	245.51	8.77	-50.2	-51.7	14.5	0.00e+00	0	24	0	247463936	66	4333
2026-01-09 12:37:14.54	245.64	8.82	-50.1	-51.6	14.5	0.00e+00	0	24	0	250609664	66	4289
2026-01-09 12:37:15.50	245.77	8.86	-50.2	-51.7	14.5	0.00e+00	0	23	0	253755392	66	4309
2026-01-09 12:37:16.47	245.91	8.91	-50.3	-51.8	14.4	0.00e+00	0	24	0	256901120	66	4379
2026-01-09 12:37:17.44	246.04	8.96	-50.2	-51.7	14.5	0.00e+00	0	23	0	260046848	66	4318
2026-01-09 12:37:18.40	246.17	9.01	-50.2	-51.8	14.5	0.00e+00	0	23	0	262144000	66	4346
2026-01-09 12:37:19.37	246.31	9.06	-50.1	-51.7	14.5	0.00e+00	0	24	0	265289728	66	4304
2026-01-09 12:37:20.33	246.44	9.10	-50.2	-51.7	14.5	0.00e+00	0	23	0	268435456	66	4305
2026-01-09 12:37:21.30	246.58	9.15	-50.3	-51.8	14.5	0.00e+00	0	24	0	271581184	66	4358
2026-01-09 12:37:22.27	246.72	9.20	-50.2	-51.7	14.5	0.00e+00	0	23	0	274726912	66	4337
2026-01-09 12:37:23.23	246.85	9.25	-50.2	-51.8	14.5	0.00e+00	0	23	0	277872640	66	4346
2026-01-09 12:37:24.20	246.99	9.30	-50.2	-51.7	14.5	0.00e+00	0	24	0	281018368	66	4339
2026-01-09 12:37:25.16	247.13	9.34	-50.2	-51.7	14.5	0.00e+00	0	23	0	283115520	66	4302
2026-01-09 12:37:26.13	247.26	9.39	-50.1	-51.6	14.6	0.00e+00	0	23	0	286261248	66	4244
2026-01-09 12:37:27.09	247.40	9.44	-50.1	-51.6	14.6	0.00e+00	0	23	0	289406976	66	4251
2026-01-09 12:37:28.06	247.54	9.49	-50.1	-51.5	14.6	0.00e+00	0	24	0	292552704	66	4241
2026-01-09 12:37:29.02	247.68	9.53	-49.9	-51.4	14.7	0.00e+00	0	24	0	295698432	66	4177
2026-01-09 12:37:29.99	247.82	9.58	-50.0	-51.4	14.7	0.00e+00	0	23	0	298844160	66	4188
2026-01-09 12:37:30.95	247.96	9.63	-49.8	-51.3	14.8	0.00e+00	0	24	0	301989888	66	4107
2026-01-09 12:37:31.92	248.10	9.68	-49.9	-51.3	14.7	0.00e+00	0	23	0	305135616	66	4144
2026-01-09 12:37:32.88	248.24	9.72	-49.9	-51.3	14.7	0.00e+00	0	23	0	308281344	66	4132
2026-01-09 12:37:33.85	248.38	9.77	-49.9	-51.3	14.7	0.00e+00	0	24	0	310378496	66	4121
2026-01-09 12:37:34.83	248.53	9.82	-49.6	-51.0	14.7	0.00e+00	0	24	0	313524224	65	4232
2026-01-09 12:37:35.79	248.67	9.87	-49.7	-51.1	14.7	0.00e+00	0	23	0	316669952	65	4255
2026-01-09 12:37:36.76	248.81	9.91	-49.7	-51.1	14.7	0.00e+00	0	23	0	319815680	65	4270
2026-01-09 12:37:37.73	248.95	9.96	-49.7	-51.1	14.7	0.00e+00	0	23	0	322961408	65	4261
2026-01-09 12:37:38.69	249.10	10.01	-49.6	-51.0	14.7	0.00e+00	0	23	0	326107136	65	4241
2026-01-09 12:37:39.66	249.24	10.06	-49.6	-51.0	14.7	0.00e+00	0	24	0	329252864	65	4223
2026-01-09 12:37:40.62	249.38	10.10	-49.6	-51.1	14.7	0.00e+00	0	24	0	332398592	65	4244
2026-01-09 12:37:41.59	249.53	10.15	-49.7	-51.2	14.6	0.00e+00	0	24	0	335544320	65	4308
2026-01-09 12:37:42.56	249.68	10.20	-49.7	-51.1	14.7	0.00e+00	0	24	0	337641472	65	4275
2026-01-09 12:37:43.52	249.82	10.24	-49.7	-51.1	14.7	0.00e+00	0	24	0	340787200	65	4277
2026-01-09 12:37:44.49	249.97	10.29	-49.6	-51.0	14.7	0.00e+00	0	24	0	343932928	65	4231
2026-01-09 12:37:45.45	250.11	10.34	-49.6	-51.1	14.7	0.00e+00	0	24	0	347078656	65	4245
2026-01-09 12:37:46.42	250.26	10.38	-49.6	-51.1	14.7	0.00e+00	0	24	0	350224384	65	4251
2026-01-09 12:37:47.39	250.41	10.43	-49.5	-50.9	14.8	0.00e+00	0	24	0	353370112	65	4190
2026-01-09 12:37:48.35	250.56	10.47	-49.6	-51.0	14.7	0.00e+00	0	24	0	356515840	65	4240
2026-01-09 12:37:49.32	250.71	10.52	-49.6	-51.0	14.7	0.00e+00	0	24	0	358612992	65	4205
2026-01-09 12:37:50.28	250.85	10.57	-49.6	-51.0	14.8	0.00e+00	0	24	0	361758720	65	4198
2026-01-09 12:37:51.25	251.00	10.61	-49.6	-51.1	14.7	0.00e+00	0	24	0	364904448	65	4250
2026-01-09 12:37:52.22	251.15	10.66	-49.6	-51.0	14.8	0.00e+00	0	23	0	368050176	65	4218
2026-01-09 12:37:53.19	251.31	10.71	-49.6	-51.0	14.8	0.00e+00	0	24	0	371195904	65	4212
2026-01-09 12:37:54.15	251.45	10.75	-49.5	-50.9	14.8	0.00e+00	0	24	0	374341632	65	4165
2026-01-09 12:37:55.12	251.61	10.80	-49.6	-51.0	14.7	0.00e+00	0	24	0	377487360	65	4221
2026-01-09 12:37:56.08	251.76	10.84	-49.6	-51.0	14.8	0.00e+00	0	24	0	380633088	65	4227
2026-01-09 12:37:57.05	251.91	10.89	-49.5	-50.9	14.8	0.00e+00	0	23	0	383778816	65	4151
2026-01-09 12:37:58.02	252.06	10.93	-49.4	-50.8	14.9	0.00e+00	0	24	0	386924544	65	4113
2026-01-09 12:37:58.99	252.22	10.98	-49.4	-50.7	14.9	0.00e+00	0	24	0	389021696	65	4089
2026-01-09 12:37:59.96	252.37	11.02	-49.5	-50.8	14.8	0.00e+00	0	24	0	392167424	65	4137
2026-01-09 12:38:00.93	252.53	11.07	-49.3	-50.7	14.9	0.00e+00	0	24	0	395313152	65	4081
2026-01-09 12:38:01.90	252.68	11.12	-49.3	-50.7	14.9	0.00e+00	0	23	0	398458880	65	4065
2026-01-09 12:38:02.87	252.84	11.16	-49.4	-50.7	14.9	0.00e+00	0	24	0	401604608	65	4089
2026-01-09 12:38:03.84	252.99	11.21	-49.4	-50.7	14.9	0.00e+00	0	24	0	404750336	65	4083
2026-01-09 12:38:04.81	253.15	11.25	-49.4	-50.7	14.9	0.00e+00	0	24	0	407896064	65	4089
2026-01-09 12:38:05.79	253.31	11.30	-49.4	-50.7	14.9	0.00e+00	0	24	0	411041792	65	4094
2026-01-09 12:38:06.76	253.46	11.34	-49.3	-50.6	15.0	0.00e+00	0	24	0	413138944	65	4038
2026-01-09 12:38:07.73	253.62	11.38	-49.3	-50.6	15.0	0.00e+00	0	24	0	416284672	65	4050
2026-01-09 12:38:08.70	253.78	11.43	-49.3	-50.7	14.9	0.00e+00	0	24	0	419430400	65	4062
2026-01-09 12:38:09.67	253.94	11.47	-49.3	-50.7	14.9	0.00e+00	0	24	0	422576128	65	4081
2026-01-09 12:38:10.64	254.10	11.52	-49.4	-50.8	14.8	0.00e+00	0	24	0	425721856	65	4128
2026-01-09 12:38:11.60	254.26	11.56	-49.5	-50.8	14.8	0.00e+00	0	24	0	428867584	65	4136
2026-01-09 12:38:12.57	254.42	11.61	-49.5	-50.8	14.8	0.00e+00	0	24	0	432013312	65	4136
2026-01-09 12:38:13.54	254.58	11.65	-49.5	-50.9	14.8	0.00e+00	0	24	0	435159040	65	4172
2026-01-09 12:38:14.50	254.74	11.69	-49.5	-50.9	14.8	0.00e+00	0	24	0	438304768	65	4162
2026-01-09 12:38:15.47	254.90	11.74	-49.4	-50.7	14.9	0.00e+00	0	24	0	441450496	65	4086
2026-01-09 12:38:16.44	255.06	11.78	-49.4	-50.7	14.9	0.00e+00	0	24	0	443547648	65	4088
2026-01-09 12:38:17.41	255.22	11.82	-49.4	-50.7	14.9	0.00e+00	0	24	0	446693376	65	4084
2026-01-09 12:38:18.37	255.38	11.87	-49.3	-50.6	14.9	0.00e+00	0	24	0	449839104	65	4049
2026-01-09 12:38:19.34	255.55	11.91	-49.2	-50.6	15.0	0.00e+00	0	24	0	452984832	65	4005
2026-01-09 12:38:20.31	255.71	11.95	-49.3	-50.7	14.9	0.00e+00	0	24	0	456130560	65	4062
2026-01-09 12:38:21.28	255.87	11.99	-49.3	-50.7	14.9	0.00e+00	0	24	0	459276288	65	4057
2026-01-09 12:38:22.24	256.04	12.04	-49.4	-50.7	14.9	0.00e+00	0	24	0	462422016	65	4087
2026-01-09 12:38:23.20	256.20	12.08	-49.5	-50.9	14.8	0.00e+00	0	24	0	464519168	65	4158
2026-01-09 12:38:24.18	256.37	12.12	-49.5	-50.9	14.8	0.00e+00	0	24	0	467664896	65	4152
2026-01-09 12:38:25.14	256.53	12.16	-49.6	-51.0	14.8	0.00e+00	0	24	0	470810624	65	4222
2026-01-09 12:38:26.11	256.70	12.21	-49.5	-50.9	14.8	0.00e+00	0	24	0	473956352	65	4185
2026-01-09 12:38:27.07	256.86	12.25	-49.6	-51.1	14.7	0.00e+00	0	24	0	477102080	65	4253
2026-01-09 12:38:28.04	257.03	12.29	-49.8	-51.2	14.7	0.00e+00	0	24	0	480247808	65	4309
2026-01-09 12:38:29.01	257.20	12.33	-49.8	-51.2	14.7	0.00e+00	0	24	0	483393536	65	4329
2026-01-09 12:38:29.98	257.37	12.37	-49.8	-51.2	14.6	0.00e+00	0	23	0	486539264	65	4326
2026-01-09 12:38:30.94	257.54	12.41	-49.8	-51.3	14.6	0.00e+00	0	24	0	489684992	65	4362
2026-01-09 12:38:31.91	257.70	12.45	-49.8	-51.2	14.7	0.00e+00	0	24	0	491782144	65	4322
2026-01-09 12:38:32.88	257.87	12.50	-49.8	-51.3	14.6	0.00e+00	0	24	0	494927872	65	4355
2026-01-09 12:38:33.85	258.04	12.54	-49.8	-51.2	14.6	0.00e+00	0	24	0	498073600	65	4324
2026-01-09 12:38:34.82	258.22	12.58	-49.7	-51.2	14.7	0.00e+00	0	24	0	501219328	65	4304
2026-01-09 12:38:35.79	258.39	12.62	-49.7	-51.1	14.7	0.00e+00	0	24	0	504365056	65	4284
2026-01-09 12:38:36.75	258.56	12.66	-49.5	-50.9	14.8	0.00e+00	0	24	0	507510784	65	4189
2026-01-09 12:38:37.73	258.73	12.70	-49.6	-51.0	14.8	0.00e+00	0	24	0	510656512	65	4194
2026-01-09 12:38:38.69	258.90	12.74	-49.6	-51.0	14.8	0.00e+00	0	24	0	513802240	65	4206
2026-01-09 12:38:39.66	259.07	12.78	-49.4	-50.8	14.9	0.00e+00	0	24	0	516947968	65	4109
2026-01-09 12:38:40.63	259.25	12.82	-49.3	-50.7	15.0	0.00e+00	0	24	0	520093696	65	4055
2026-01-09 12:38:41.61	259.42	12.86	-49.4	-50.8	14.9	0.00e+00	0	24	0	522190848	65	4099
2026-01-09 12:38:42.57	259.60	12.90	-49.5	-50.8	14.9	0.00e+00	0	24	0	525336576	65	4140
2026-01-09 12:38:43.54	259.77	12.94	-49.6	-51.0	14.8	0.00e+00	0	24	0	528482304	65	4201
2026-01-09 12:38:44.51	259.94	12.98	-49.6	-51.0	14.8	0.00e+00	0	23	0	531628032	65	4228
2026-01-09 12:38:45.48	260.12	13.01	-49.6	-51.0	14.8	0.00e+00	0	24	0	534773760	65	4220
2026-01-09 12:38:46.45	260.30	13.05	-49.6	-51.0	14.8	0.00e+00	0	24	0	537919488	65	4213
2026-01-09 12:38:47.42	260.47	13.09	-49.7	-51.1	14.7	0.00e+00	0	24	0	541065216	65	4276
2026-01-09 12:38:48.39	260.65	13.13	-49.7	-51.1	14.7	0.00e+00	0	24	0	544210944	65	4283
2026-01-09 12:38:49.36	260.83	13.17	-49.7	-51.1	14.7	0.00e+00	0	24	0	546308096	65	4258
2026-01-09 12:38:50.33	261.01	13.21	-49.7	-51.1	14.7	0.00e+00	0	24	0	549453824	65	4262
2026-01-09 12:38:51.30	261.18	13.24	-49.5	-50.9	14.8	0.00e+00	0	24	0	552599552	65	4175
2026-01-09 12:38:52.27	261.36	13.28	-49.5	-50.9	14.8	0.00e+00	0	24	0	555745280	65	4175
2026-01-09 12:38:53.24	261.54	13.32	-49.4	-50.8	14.9	0.00e+00	0	24	0	558891008	65	4103
2026-01-09 12:38:54.21	261.72	13.36	-49.5	-50.8	14.9	0.00e+00	0	24	0	562036736	65	4137
2026-01-09 12:38:55.18	261.90	13.39	-49.5	-50.9	14.8	0.00e+00	0	24	0	565182464	65	4173
2026-01-09 12:38:56.15	262.08	13.43	-49.6	-51.0	14.8	0.00e+00	0	24	0	568328192	65	4210
2026-01-09 12:38:57.12	262.26	13.47	-49.6	-51.0	14.8	0.00e+00	0	24	0	571473920	65	4209
2026-01-09 12:38:58.09	262.44	13.50	-49.7	-51.1	14.7	0.00e+00	0	24	0	574619648	65	4256
2026-01-09 12:38:59.07	262.63	13.54	-49.7	-51.1	14.7	0.00e+00	0	24	0	576716800	65	4263
2026-01-09 12:39:00.04	262.81	13.58	-49.7	-51.1	14.7	0.00e+00	0	24	0	579862528	65	4269
2026-01-09 12:39:01.01	262.99	13.61	-49.7	-51.2	14.7	0.00e+00	0	24	0	583008256	65	4295
2026-01-09 12:39:01.98	263.17	13.65	-49.8	-51.2	14.7	0.00e+00	0	24	0	586153984	65	4312
2026-01-09 12:39:02.95	263.36	13.68	-49.5	-50.9	14.8	0.00e+00	0	24	0	589299712	65	4156
2026-01-09 12:39:03.92	263.54	13.72	-49.6	-50.9	14.8	0.00e+00	0	24	0	592445440	65	4191
2026-01-09 12:39:04.89	263.73	13.75	-49.4	-50.8	14.9	0.00e+00	0	24	0	595591168	65	4116
2026-01-09 12:39:05.86	263.91	13.79	-49.4	-50.8	14.9	0.00e+00	0	24	0	598736896	65	4121
2026-01-09 12:39:06.83	264.10	13.82	-49.5	-50.9	14.9	0.00e+00	0	24	0	601882624	65	4149
2026-01-09 12:39:07.80	264.28	13.86	-49.3	-50.6	15.0	0.00e+00	0	24	0	603979776	65	4028
2026-01-09 12:39:08.77	264.47	13.89	-49.2	-50.5	15.0	0.00e+00	0	24	0	607125504	65	4003
2026-01-09 12:39:09.75	264.66	13.92	-49.2	-50.6	15.0	0.00e+00	0	24	0	610271232	65	4012
2026-01-09 12:39:10.72	264.84	13.96	-49.2	-50.5	15.0	0.00e+00	0	24	0	613416960	65	4000
2026-01-09 12:39:11.69	265.03	13.99	-49.2	-50.6	15.0	0.00e+00	0	24	0	616562688	65	4013
2026-01-09 12:39:12.66	265.22	14.02	-49.1	-50.4	14.9	0.00e+00	0	24	0	619708416	64	4191
2026-01-09 12:39:13.63	265.41	14.06	-49.3	-50.6	14.8	0.00e+00	0	24	0	622854144	64	4266
2026-01-09 12:39:14.60	265.59	14.09	-49.3	-50.6	14.8	0.00e+00	0	24	0	625999872	64	4277
2026-01-09 12:39:15.56	265.78	14.12	-49.3	-50.6	14.8	0.00e+00	0	24	0	629145600	64	4291
2026-01-09 12:39:16.54	265.97	14.15	-49.3	-50.7	14.8	0.00e+00	0	24	0	631242752	64	4306
2026-01-09 12:39:17.51	266.16	14.18	-49.3	-50.6	14.8	0.00e+00	0	24	0	634388480	64	4287
2026-01-09 12:39:18.48	266.35	14.22	-49.2	-50.5	14.8	0.00e+00	0	24	0	637534208	64	4235
2026-01-09 12:39:19.45	266.54	14.25	-49.2	-50.5	14.8	0.00e+00	0	24	0	640679936	64	4238
2026-01-09 12:39:20.42	266.73	14.28	-49.1	-50.5	14.9	0.00e+00	0	24	0	643825664	64	4199
2026-01-09 12:39:21.39	266.92	14.31	-49.1	-50.4	14.9	0.00e+00	0	24	0	646971392	64	4183
2026-01-09 12:39:22.36	267.11	14.34	-49.2	-50.5	14.8	0.00e+00	0	24	0	650117120	64	4215
2026-01-09 12:39:23.33	267.31	14.37	-49.1	-50.4	14.9	0.00e+00	0	24	0	653262848	64	4181
2026-01-09 12:39:24.30	267.50	14.40	-49.1	-50.4	14.9	0.00e+00	0	24	0	656408576	64	4193
2026-01-09 12:39:25.27	267.69	14.43	-49.1	-50.5	14.9	0.00e+00	0	24	0	659554304	64	4209
2026-01-09 12:39:26.24	267.88	14.46	-49.2	-50.5	14.9	0.00e+00	0	24	0	661651456	64	4217
2026-01-09 12:39:27.21	268.08	14.49	-49.3	-50.6	14.8	0.00e+00	0	24	0	664797184	64	4279
2026-01-09 12:39:28.18	268.27	14.52	-49.1	-50.5	14.9	0.00e+00	0	24	0	667942912	64	4209
2026-01-09 12:39:29.15	268.47	14.55	-49.2	-50.5	14.9	0.00e+00	0	24	0	671088640	64	4239
2026-01-09 12:39:30.12	268.66	14.57	-49.2	-50.5	14.9	0.00e+00	0	24	0	674234368	64	4225
2026-01-09 12:39:31.09	268.85	14.60	-49.2	-50.5	14.9	0.00e+00	0	24	0	677380096	64	4219
2026-01-09 12:39:32.06	269.05	14.63	-49.1	-50.4	14.9	0.00e+00	0	24	0	680525824	64	4178
2026-01-09 12:39:33.03	269.25	14.66	-49.1	-50.4	14.9	0.00e+00	0	24	0	683671552	64	4162
2026-01-09 12:39:34.00	269.44	14.69	-49.2	-50.5	14.9	0.00e+00	0	24	0	686817280	64	4227
2026-01-09 12:39:34.97	269.64	14.71	-49.2	-50.5	14.9	0.00e+00	0	24	0	688914432	64	4227
2026-01-09 12:39:35.94	269.83	14.74	-49.1	-50.4	14.9	0.00e+00	0	24	0	692060160	64	4185
2026-01-09 12:39:36.91	270.03	14.77	-49.1	-50.4	14.9	0.00e+00	0	24	0	695205888	64	4172
2026-01-09 12:39:37.88	270.23	14.79	-49.0	-50.3	15.0	0.00e+00	0	24	0	698351616	64	4131
2026-01-09 12:39:38.85	270.43	14.82	-49.0	-50.3	15.0	0.00e+00	0	24	0	701497344	64	4116
2026-01-09 12:39:39.83	270.63	14.84	-49.0	-50.3	15.0	0.00e+00	0	24	0	704643072	64	4122
2026-01-09 12:39:40.79	270.82	14.87	-48.9	-50.2	15.0	0.00e+00	0	24	0	707788800	64	4065
2026-01-09 12:39:41.77	271.02	14.89	-48.9	-50.2	15.0	0.00e+00	0	24	0	710934528	64	4082
2026-01-09 12:39:42.74	271.22	14.92	-48.9	-50.2	15.0	0.00e+00	0	24	0	714080256	64	4086
2026-01-09 12:39:43.71	271.42	14.94	-48.9	-50.2	15.0	0.00e+00	0	24	0	716177408	64	4079
2026-01-09 12:39:44.68	271.62	14.97	-49.0	-50.3	15.0	0.00e+00	0	24	0	719323136	64	4121
2026-01-09 12:39:45.65	271.82	14.99	-48.9	-50.2	15.0	0.00e+00	0	24	0	722468864	64	4076
2026-01-09 12:39:46.62	272.02	15.02	-48.9	-50.2	15.0	0.00e+00	0	24	0	725614592	64	4096
2026-01-09 12:39:47.60	272.22	15.04	-49.1	-50.4	14.9	0.00e+00	0	24	0	728760320	64	4162
2026-01-09 12:39:48.56	272.42	15.06	-49.0	-50.3	15.0	0.00e+00	0	24	0	731906048	64	4144
2026-01-09 12:39:49.53	272.62	15.08	-49.0	-50.3	14.9	0.00e+00	0	24	0	735051776	64	4141
2026-01-09 12:39:50.50	272.82	15.11	-48.9	-50.2	15.0	0.00e+00	0	24	0	738197504	64	4092
2026-01-09 12:39:51.47	273.02	15.13	-48.9	-50.2	15.0	0.00e+00	0	24	0	741343232	64	4086
2026-01-09 12:39:52.44	273.23	15.15	-49.0	-50.3	15.0	0.00e+00	0	24	0	743440384	64	4115
2026-01-09 12:39:53.41	273.43	15.17	-48.9	-50.2	15.0	0.00e+00	0	24	0	746586112	64	4072
2026-01-09 12:39:54.38	273.63	15.19	-48.9	-50.2	15.0	0.00e+00	0	24	0	749731840	64	4061
2026-01-09 12:39:55.35	273.83	15.21	-48.9	-50.2	15.0	0.00e+00	0	24	0	752877568	64	4069
2026-01-09 12:39:56.32	274.04	15.23	-49.0	-50.3	15.0	0.00e+00	0	24	0	756023296	64	4111
2026-01-09 12:39:57.29	274.24	15.25	-48.9	-50.2	15.0	0.00e+00	0	24	0	759169024	64	4081
2026-01-09 12:39:58.26	274.44	15.27	-49.0	-50.3	15.0	0.00e+00	0	24	0	762314752	64	4121
2026-01-09 12:39:59.23	274.65	15.29	-48.9	-50.2	15.0	0.00e+00	0	24	0	765460480	64	4088
2026-01-09 12:40:00.20	274.85	15.31	-48.9	-50.2	15.0	0.00e+00	0	24	0	768606208	64	4072
2026-01-09 12:40:01.17	275.05	15.33	-48.8	-50.1	15.1	0.00e+00	0	24	0	771751936	64	4037
2026-01-09 12:40:02.14	275.26	15.35	-48.8	-50.1	15.1	0.00e+00	0	24	0	773849088	64	4046
2026-01-09 12:40:03.12	275.47	15.37	-48.9	-50.2	15.0	0.00e+00	0	24	0	776994816	64	4076
2026-01-09 12:40:04.09	275.67	15.39	-48.9	-50.2	15.1	0.00e+00	0	24	0	780140544	64	4060
2026-01-09 12:40:05.06	275.88	15.40	-49.0	-50.3	15.0	0.00e+00	0	24	0	783286272	64	4112
2026-01-09 12:40:06.04	276.08	15.42	-48.9	-50.2	15.0	0.00e+00	0	24	0	786432000	64	4090
2026-01-09 12:40:07.01	276.29	15.44	-49.0	-50.3	15.0	0.00e+00	0	24	0	789577728	64	4099
2026-01-09 12:40:07.99	276.50	15.45	-49.0	-50.3	15.0	0.00e+00	0	24	0	792723456	64	4143
2026-01-09 12:40:08.97	276.71	15.47	-49.0	-50.3	15.0	0.00e+00	0	24	0	795869184	64	4099
2026-01-09 12:40:09.94	276.91	15.49	-49.0	-50.3	15.0	0.00e+00	0	24	0	799014912	64	4144
2026-01-09 12:40:10.91	277.12	15.50	-49.0	-50.3	15.0	0.00e+00	0	24	0	801112064	64	4100
2026-01-09 12:40:11.88	277.32	15.52	-48.8	-50.1	15.1	0.00e+00	0	24	0	804257792	64	4035
2026-01-09 12:40:12.85	277.53	15.53	-48.9	-50.2	15.0	0.00e+00	0	24	0	807403520	64	4071
2026-01-09 12:40:13.83	277.74	15.55	-49.0	-50.3	15.0	0.00e+00	0	24	0	810549248	64	4119
2026-01-09 12:40:14.80	277.95	15.56	-48.9	-50.2	15.0	0.00e+00	0	24	0	813694976	64	4083
2026-01-09 12:40:15.77	278.16	15.57	-49.0	-50.3	15.0	0.00e+00	0	24	0	816840704	64	4131
2026-01-09 12:40:16.75	278.37	15.59	-49.1	-50.4	14.9	0.00e+00	0	24	0	819986432	64	4181
2026-01-09 12:40:17.72	278.57	15.60	-49.0	-50.3	15.0	0.00e+00	0	24	0	823132160	64	4141
2026-01-09 12:40:18.69	278.78	15.61	-48.9	-50.2	15.0	0.00e+00	0	24	0	826277888	64	4096
2026-01-09 12:40:19.66	278.99	15.63	-49.1	-50.4	15.0	0.00e+00	0	24	0	829423616	64	4166
2026-01-09 12:40:20.64	279.20	15.64	-49.1	-50.4	15.0	0.00e+00	0	24	0	832569344	64	4160
2026-01-09 12:40:21.61	279.41	15.65	-49.0	-50.3	15.0	0.00e+00	0	24	0	834666496	64	4101
2026-01-09 12:40:22.58	279.62	15.66	-48.9	-50.2	15.0	0.00e+00	0	24	0	837812224	64	4092
2026-01-09 12:40:23.56	279.83	15.67	-48.9	-50.2	15.0	0.00e+00	0	24	0	840957952	64	4088
2026-01-09 12:40:24.53	280.04	15.68	-48.9	-50.1	15.1	0.00e+00	0	24	0	844103680	64	4051
2026-01-09 12:40:25.50	280.25	15.69	-49.0	-50.3	15.0	0.00e+00	0	24	0	847249408	64	4122
2026-01-09 12:40:26.48	280.46	15.70	-49.0	-50.3	15.0	0.00e+00	0	24	0	850395136	64	4109
2026-01-09 12:40:27.45	280.67	15.71	-48.8	-50.1	15.1	0.00e+00	0	24	0	853540864	64	4040
2026-01-09 12:40:28.43	280.88	15.72	-48.8	-50.1	15.1	0.00e+00	0	24	0	856686592	64	4034
2026-01-09 12:40:29.40	281.09	15.73	-48.8	-50.1	15.1	0.00e+00	0	24	0	859832320	64	4033
2026-01-09 12:40:30.38	281.30	15.74	-48.8	-50.1	15.1	0.00e+00	0	24	0	862978048	64	4031
2026-01-09 12:40:31.35	281.51	15.75	-48.8	-50.1	15.1	0.00e+00	0	24	0	865075200	64	4031
2026-01-09 12:40:32.33	281.72	15.76	-48.8	-50.1	15.1	0.00e+00	0	24	0	868220928	64	4031
2026-01-09 12:40:33.30	281.93	15.76	-49.0	-50.3	15.0	0.00e+00	0	24	0	871366656	64	4120
2026-01-09 12:40:34.27	282.14	15.77	-49.1	-50.4	14.9	0.00e+00	0	24	0	874512384	64	4178
2026-01-09 12:40:35.24	282.35	15.78	-49.1	-50.5	14.9	0.00e+00	0	24	0	877658112	64	4198
2026-01-09 12:40:36.22	282.56	15.78	-49.2	-50.5	14.9	0.00e+00	0	24	0	880803840	64	4215
2026-01-09 12:40:37.19	282.77	15.79	-49.2	-50.5	14.9	0.00e+00	0	24	0	883949568	64	4223
2026-01-09 12:40:38.15	282.98	15.80	-49.1	-50.4	14.9	0.00e+00	0	24	0	887095296	64	4189
2026-01-09 12:40:39.12	283.19	15.80	-49.0	-50.3	15.0	0.00e+00	0	24	0	890241024	64	4122
2026-01-09 12:40:40.10	283.41	15.81	-49.1	-50.4	14.9	0.00e+00	0	24	0	892338176	64	4161
2026-01-09 12:40:41.07	283.62	15.81	-49.1	-50.4	14.9	0.00e+00	0	24	0	895483904	64	4156
2026-01-09 12:40:42.04	283.83	15.81	-49.1	-50.5	14.9	0.00e+00	0	24	0	898629632	64	4195
2026-01-09 12:40:43.01	284.04	15.82	-49.2	-50.5	14.9	0.00e+00	0	24	0	901775360	64	4218
2026-01-09 12:40:43.98	284.25	15.82	-49.2	-50.6	14.9	0.00e+00	0	24	0	904921088	64	4251
2026-01-09 12:40:44.96	284.46	15.83	-49.3	-50.7	14.8	0.00e+00	0	24	0	908066816	64	4309
2026-01-09 12:40:45.93	284.67	15.83	-49.3	-50.7	14.8	0.00e+00	0	23	0	911212544	64	4319
2026-01-09 12:40:46.91	284.89	15.83	-49.4	-50.7	14.8	0.00e+00	0	23	0	914358272	64	4327
2026-01-09 12:40:47.88	285.10	15.83	-49.3	-50.7	14.8	0.00e+00	0	24	0	917504000	64	4321
2026-01-09 12:40:48.85	285.31	15.83	-49.3	-50.7	14.8	0.00e+00	0	24	0	920649728	64	4294
2026-01-09 12:40:49.82	285.52	15.84	-49.3	-50.7	14.8	0.00e+00	0	24	0	923795456	64	4301
2026-01-09 12:40:50.80	285.73	15.84	-49.4	-50.7	14.8	0.00e+00	0	24	0	925892608	64	4326
2026-01-09 12:40:51.77	285.94	15.84	-49.3	-50.7	14.8	0.00e+00	0	24	0	929038336	64	4304
2026-01-09 12:40:52.74	286.15	15.84	-49.2	-50.5	14.9	0.00e+00	0	24	0	932184064	64	4242
2026-01-09 12:40:53.72	286.37	15.84	-49.2	-50.6	14.9	0.00e+00	0	24	0	935329792	64	4257
2026-01-09 12:40:54.69	286.58	15.84	-49.3	-50.6	14.9	0.00e+00	0	24	0	938475520	64	4268
2026-01-09 12:40:55.67	286.79	15.84	-49.3	-50.6	14.9	0.00e+00	0	24	0	941621248	64	4256
2026-01-09 12:40:56.65	287.00	15.83	-49.2	-50.6	14.9	0.00e+00	0	24	0	944766976	64	4257
2026-01-09 12:40:57.62	287.21	15.83	-49.2	-50.5	14.9	0.00e+00	0	24	0	947912704	64	4219
2026-01-09 12:40:58.59	287.43	15.83	-49.1	-50.5	14.9	0.00e+00	0	24	0	951058432	64	4195
2026-01-09 12:40:59.57	287.64	15.83	-49.1	-50.5	14.9	0.00e+00	0	24	0	953155584	64	4195
2026-01-09 12:41:00.53	287.85	15.82	-49.2	-50.5	14.9	0.00e+00	0	24	0	956301312	64	4208
2026-01-09 12:41:01.50	288.06	15.82	-49.1	-50.5	14.9	0.00e+00	0	24	0	959447040	64	4198
2026-01-09 12:41:02.47	288.27	15.82	-49.1	-50.4	15.0	0.00e+00	0	24	0	962592768	64	4187
2026-01-09 12:41:03.45	288.48	15.81	-49.1	-50.4	15.0	0.00e+00	0	23	0	965738496	64	4153
2026-01-09 12:41:04.43	288.69	15.81	-49.1	-50.5	14.9	0.00e+00	0	24	0	968884224	64	4194
2026-01-09 12:41:05.41	288.91	15.81	-49.1	-50.5	14.9	0.00e+00	0	24	0	972029952	64	4195
2026-01-09 12:41:06.38	289.12	15.80	-49.1	-50.4	15.0	0.00e+00	0	24	0	975175680	64	4181
2026-01-09 12:41:07.36	289.33	15.80	-49.1	-50.4	15.0	0.00e+00	0	24	0	978321408	64	4160
2026-01-09 12:41:08.33	289.54	15.79	-49.1	-50.4	15.0	0.00e+00	0	24	0	981467136	64	4185
2026-01-09 12:41:09.31	289.75	15.78	-49.0	-50.3	15.0	0.00e+00	0	24	0	984612864	64	4125
2026-01-09 12:41:10.28	289.96	15.78	-49.0	-50.3	15.0	0.00e+00	0	23	0	986710016	64	4138
2026-01-09 12:41:11.26	290.17	15.77	-49.0	-50.3	15.0	0.00e+00	0	24	0	989855744	64	4108
2026-01-09 12:41:12.24	290.39	15.76	-49.0	-50.2	15.0	0.00e+00	0	24	0	993001472	64	4098
2026-01-09 12:41:13.22	290.60	15.76	-49.0	-50.3	15.0	0.00e+00	0	24	0	996147200	64	4117
2026-01-09 12:41:14.19	290.81	15.75	-49.1	-50.5	14.9	0.00e+00	0	23	0	999292928	64	4199
2026-01-09 12:41:15.17	291.02	15.74	-49.1	-50.4	15.0	0.00e+00	0	24	0	1002438656	64	4166
2026-01-09 12:41:16.14	291.23	15.73	-49.1	-50.5	14.9	0.00e+00	0	24	0	1005584384	64	4199
2026-01-09 12:41:17.12	291.44	15.72	-49.1	-50.4	15.0	0.00e+00	0	24	0	1008730112	64	4167
2026-01-09 12:41:18.10	291.65	15.71	-49.1	-50.5	14.9	0.00e+00	0	24	0	1011875840	64	4205
2026-01-09 12:41:19.08	291.86	15.70	-49.1	-50.5	15.0	0.00e+00	0	24	0	1015021568	64	4200
2026-01-09 12:41:20.05	292.07	15.69	-49.1	-50.4	15.0	0.00e+00	0	24	0	1018167296	64	4167
2026-01-09 12:41:21.02	292.28	15.68	-49.1	-50.4	15.0	0.00e+00	0	24	0	1021313024	64	4146
2026-01-09 12:41:22.00	292.49	15.67	-49.1	-50.4	15.0	0.00e+00	0	24	0	1023410176	64	4172
2026-01-09 12:41:22.98	292.70	15.66	-49.1	-50.4	15.0	0.00e+00	0	24	0	1026555904	64	4173
2026-01-09 12:41:23.95	292.91	15.65	-49.2	-50.5	14.9	0.00e+00	0	24	0	1029701632	64	4228
2026-01-09 12:41:24.92	293.12	15.64	-49.2	-50.5	14.9	0.00e+00	0	24	0	1032847360	64	4230
2026-01-09 12:41:25.90	293.33	15.63	-49.3	-50.6	14.8	0.00e+00	0	24	0	1035993088	64	4291
2026-01-09 12:41:26.87	293.54	15.61	-49.1	-50.4	14.9	0.00e+00	0	24	0	1039138816	64	4187
2026-01-09 12:41:27.85	293.75	15.60	-49.1	-50.4	15.0	0.00e+00	0	24	0	1042284544	64	4152
2026-01-09 12:41:28.83	293.96	15.59	-49.0	-50.3	15.0	0.00e+00	0	24	0	1045430272	64	4120
2026-01-09 12:41:29.80	294.16	15.57	-49.0	-50.2	15.0	0.00e+00	0	24	0	1048576000	64	4097
2026-01-09 12:41:30.78	294.37	15.56	-49.1	-50.4	15.0	0.00e+00	0	24	0	1051721728	64	4179
2026-01-09 12:41:31.77	294.58	15.54	-49.2	-50.5	14.9	0.00e+00	0	24	0	1053818880	64	4237
2026-01-09 12:41:32.74	294.79	15.53	-49.4	-50.8	14.8	0.00e+00	0	24	0	1056964608	64	4343
2026-01-09 12:41:33.72	295.00	15.51	-49.4	-50.8	14.8	0.00e+00	0	24	0	1060110336	64	4341
2026-01-09 12:41:34.70	295.21	15.50	-49.4	-50.7	14.8	0.00e+00	0	24	0	1063256064	64	4333
2026-01-09 12:41:35.68	295.42	15.48	-49.5	-50.9	14.8	0.00e+00	0	24	0	1066401792	64	4397
2026-01-09 12:41:36.66	295.62	15.47	-49.5	-50.8	14.8	0.00e+00	0	24	0	1069547520	64	4384
2026-01-09 12:41:37.63	295.83	15.45	-49.6	-50.9	14.7	0.00e+00	0	24	0	1072693248	64	4441
2026-01-09 12:41:38.61	296.04	15.43	-49.4	-50.8	14.8	0.00e+00	0	24	0	1075838976	64	4344
2026-01-09 12:41:39.59	296.25	15.42	-49.3	-50.6	14.8	0.00e+00	0	24	0	1078984704	64	4291
2026-01-09 12:41:40.56	296.45	15.40	-49.2	-50.5	14.9	0.00e+00	0	24	0	1082130432	64	4231
2026-01-09 12:41:41.54	296.66	15.38	-49.3	-50.6	14.8	0.00e+00	0	24	0	1085276160	64	4282
2026-01-09 12:41:42.52	296.86	15.36	-49.3	-50.6	14.9	0.00e+00	0	24	0	1088421888	64	4276
2026-01-09 12:41:43.50	297.07	15.35	-49.2	-50.6	14.9	0.00e+00	0	24	0	1090519040	64	4245
2026-01-09 12:41:44.48	297.28	15.33	-49.2	-50.6	14.9	0.00e+00	0	24	0	1093664768	64	4247
2026-01-09 12:41:45.46	297.48	15.31	-49.2	-50.5	14.9	0.00e+00	0	24	0	1096810496	64	4207
2026-01-09 12:41:46.44	297.69	15.29	-49.3	-50.6	14.9	0.00e+00	0	24	0	1099956224	64	4273
2026-01-09 12:41:47.41	297.89	15.27	-49.2	-50.5	14.9	0.00e+00	0	24	0	1103101952	64	4230
2026-01-09 12:41:48.39	298.10	15.25	-49.2	-50.6	14.9	0.00e+00	0	24	0	1106247680	64	4246
2026-01-09 12:41:49.37	298.30	15.23	-49.3	-50.6	14.9	0.00e+00	0	24	0	1109393408	64	4280
2026-01-09 12:41:50.34	298.50	15.21	-49.4	-50.8	14.8	0.00e+00	0	24	0	1112539136	64	4346
2026-01-09 12:41:51.32	298.71	15.19	-49.4	-50.7	14.8	0.00e+00	0	24	0	1115684864	64	4320
2026-01-09 12:41:52.30	298.91	15.17	-49.4	-50.9	14.8	0.00e+00	0	24	0	1118830592	64	4393
2026-01-09 12:41:53.28	299.11	15.14	-49.5	-50.8	14.8	0.00e+00	0	24	0	1121976320	64	4384
2026-01-09 12:41:54.26	299.32	15.12	-49.5	-50.9	14.8	0.00e+00	0	24	0	1124073472	64	4392
2026-01-09 12:41:55.25	299.52	15.10	-49.5	-50.9	14.7	0.00e+00	0	24	0	1127219200	64	4418
2026-01-09 12:41:56.23	299.73	15.08	-49.4	-50.7	14.8	0.00e+00	0	24	0	1130364928	64	4318
2026-01-09 12:41:57.21	299.93	15.05	-49.2	-50.5	14.9	0.00e+00	0	24	0	1133510656	64	4217
2026-01-09 12:41:58.18	300.13	15.03	-49.1	-50.4	14.9	0.00e+00	0	24	0	1136656384	64	4193
2026-01-09 12:41:59.16	300.33	15.01	-49.2	-50.5	14.9	0.00e+00	0	24	0	1139802112	64	4214
2026-01-09 12:42:00.14	300.53	14.98	-49.2	-50.5	14.9	0.00e+00	0	24	0	1142947840	64	4230
2026-01-09 12:42:01.11	300.73	14.96	-49.2	-50.5	14.9	0.00e+00	0	24	0	1146093568	64	4225
2026-01-09 12:42:02.09	300.93	14.94	-49.2	-50.5	14.9	0.00e+00	0	24	0	1149239296	64	4231
2026-01-09 12:42:03.06	301.13	14.91	-49.1	-50.4	14.9	0.00e+00	0	24	0	1152385024	64	4174
2026-01-09 12:42:04.04	301.33	14.89	-49.2	-50.5	14.9	0.00e+00	0	24	0	1155530752	64	4236
2026-01-09 12:42:05.02	301.53	14.86	-49.2	-50.6	14.9	0.00e+00	0	24	0	1158676480	64	4259
2026-01-09 12:42:05.99	301.73	14.84	-49.3	-50.6	14.9	0.00e+00	0	24	0	1160773632	64	4291
2026-01-09 12:42:06.96	301.93	14.81	-49.4	-50.7	14.8	0.00e+00	0	24	0	1163919360	64	4329
2026-01-09 12:42:07.94	302.12	14.78	-49.3	-50.7	14.9	0.00e+00	0	24	0	1167065088	64	4292
2026-01-09 12:42:08.92	302.32	14.76	-49.2	-50.5	14.9	0.00e+00	0	24	0	1170210816	64	4225
2026-01-09 12:42:09.90	302.52	14.73	-49.1	-50.5	14.9	0.00e+00	0	24	0	1173356544	64	4201
2026-01-09 12:42:10.87	302.72	14.70	-49.1	-50.4	15.0	0.00e+00	0	24	0	1176502272	64	4175
2026-01-09 12:42:11.85	302.91	14.68	-49.1	-50.4	15.0	0.00e+00	0	24	0	1179648000	64	4174
2026-01-09 12:42:12.82	303.11	14.65	-49.1	-50.5	14.9	0.00e+00	0	24	0	1182793728	64	4203
2026-01-09 12:42:13.80	303.31	14.62	-49.1	-50.4	15.0	0.00e+00	0	24	0	1185939456	64	4165
2026-01-09 12:42:14.78	303.50	14.59	-49.1	-50.4	15.0	0.00e+00	0	24	0	1189085184	64	4169
2026-01-09 12:42:15.75	303.70	14.57	-49.2	-50.5	14.9	0.00e+00	0	24	0	1192230912	64	4231
2026-01-09 12:42:16.73	303.89	14.54	-49.1	-50.4	14.9	0.00e+00	0	24	0	1195376640	64	4187
2026-01-09 12:42:17.70	304.09	14.51	-49.2	-50.5	14.9	0.00e+00	0	24	0	1197473792	64	4209
2026-01-09 12:42:18.69	304.28	14.48	-49.2	-50.6	14.9	0.00e+00	0	24	0	1200619520	64	4248
2026-01-09 12:42:19.66	304.48	14.45	-49.1	-50.4	15.0	0.00e+00	0	24	0	1203765248	64	4184
2026-01-09 12:42:20.63	304.67	14.42	-49.1	-50.4	15.0	0.00e+00	0	24	0	1206910976	64	4176
2026-01-09 12:42:21.62	304.86	14.39	-49.1	-50.4	15.0	0.00e+00	0	24	0	1210056704	64	4183
2026-01-09 12:42:22.60	305.06	14.36	-49.1	-50.4	15.0	0.00e+00	0	24	0	1213202432	64	4176
2026-01-09 12:42:23.58	305.25	14.33	-49.0	-50.3	15.0	0.00e+00	0	24	0	1216348160	64	4115
2026-01-09 12:42:24.56	305.44	14.30	-49.1	-50.5	14.9	0.00e+00	0	24	0	1219493888	64	4203
2026-01-09 12:42:25.54	305.64	14.27	-49.1	-50.5	14.9	0.00e+00	0	24	0	1222639616	64	4199
2026-01-09 12:42:26.52	305.83	14.23	-49.2	-50.5	14.9	0.00e+00	0	24	0	1225785344	64	4233
2026-01-09 12:42:27.50	306.02	14.20	-49.2	-50.5	14.9	0.00e+00	0	24	0	1228931072	64	4214
2026-01-09 12:42:28.48	306.21	14.17	-49.1	-50.4	14.9	0.00e+00	0	24	0	1232076800	64	4183
2026-01-09 12:42:29.47	306.40	14.14	-49.2	-50.5	14.9	0.00e+00	0	24	0	1234173952	64	4223
2026-01-09 12:42:30.44	306.59	14.11	-49.2	-50.6	14.9	0.00e+00	0	24	0	1237319680	64	4248
2026-01-09 12:42:31.42	306.78	14.07	-49.2	-50.5	14.9	0.00e+00	0	24	0	1240465408	64	4228
2026-01-09 12:42:32.40	306.97	14.04	-49.2	-50.5	14.9	0.00e+00	0	24	0	1243611136	64	4213
2026-01-09 12:42:33.38	307.16	14.01	-49.2	-50.5	14.9	0.00e+00	0	24	0	1246756864	64	4216
2026-01-09 12:42:34.36	307.35	13.97	-49.1	-50.5	14.9	0.00e+00	0	24	0	1249902592	64	4195
2026-01-09 12:42:35.34	307.54	13.94	-49.1	-50.4	14.9	0.00e+00	0	24	0	1253048320	64	4170
2026-01-09 12:42:36.32	307.72	13.91	-49.0	-50.3	15.0	0.00e+00	0	24	0	1256194048	64	4133
2026-01-09 12:42:37.30	307.91	13.87	-49.0	-50.3	15.0	0.00e+00	0	24	0	1259339776	64	4118
2026-01-09 12:42:38.28	308.10	13.84	-49.1	-50.4	15.0	0.00e+00	0	24	0	1262485504	64	4151
2026-01-09 12:42:39.27	308.29	13.80	-49.0	-50.4	15.0	0.00e+00	0	24	0	1265631232	64	4149
2026-01-09 12:42:40.25	308.47	13.77	-49.0	-50.3	15.0	0.00e+00	0	24	0	1268776960	64	4136
2026-01-09 12:42:41.23	308.66	13.73	-49.1	-50.4	15.0	0.00e+00	0	24	0	1271922688	64	4158
2026-01-09 12:42:42.20	308.84	13.70	-49.1	-50.4	14.9	0.00e+00	0	24	0	1274019840	64	4167
2026-01-09 12:42:43.18	309.03	13.66	-49.1	-50.4	14.9	0.00e+00	0	24	0	1277165568	64	4190
2026-01-09 12:42:44.16	309.21	13.63	-49.2	-50.5	14.9	0.00e+00	0	24	0	1280311296	64	4214
2026-01-09 12:42:45.14	309.39	13.59	-49.3	-50.6	14.9	0.00e+00	0	24	0	1283457024	64	4272
2026-01-09 12:42:46.11	309.58	13.56	-49.3	-50.6	14.9	0.00e+00	0	24	0	1286602752	64	4269
2026-01-09 12:42:47.09	309.76	13.52	-49.2	-50.5	14.9	0.00e+00	0	24	0	1289748480	64	4240
2026-01-09 12:42:48.07	309.94	13.48	-49.2	-50.5	14.9	0.00e+00	0	24	0	1292894208	64	4226
2026-01-09 12:42:49.05	310.12	13.45	-49.2	-50.5	14.9	0.00e+00	0	24	0	1296039936	64	4224
2026-01-09 12:42:50.03	310.31	13.41	-49.1	-50.4	14.9	0.00e+00	0	24	0	1299185664	64	4185
2026-01-09 12:42:51.02	310.49	13.37	-49.1	-50.4	14.9	0.00e+00	0	24	0	1302331392	64	4173
2026-01-09 12:42:52.00	310.67	13.34	-49.1	-50.4	14.9	0.00e+00	0	24	0	1305477120	64	4147
2026-01-09 12:42:52.98	310.85	13.30	-49.1	-50.4	14.9	0.00e+00	0	24	0	1308622848	64	4160
2026-01-09 12:42:53.96	311.03	13.26	-49.1	-50.4	14.9	0.00e+00	0	24	0	1310720000	64	4179
2026-01-09 12:42:54.94	311.21	13.22	-48.9	-50.2	15.0	0.00e+00	0	24	0	1313865728	64	4072
2026-01-09 12:42:55.92	311.39	13.19	-49.0	-50.3	15.0	0.00e+00	0	24	0	1317011456	64	4113
2026-01-09 12:42:56.90	311.57	13.15	-49.1	-50.4	14.9	0.00e+00	0	24	0	1320157184	64	4175
2026-01-09 12:42:57.88	311.75	13.11	-49.0	-50.3	15.0	0.00e+00	0	24	0	1323302912	64	4103
2026-01-09 12:42:58.85	311.92	13.07	-49.1	-50.4	15.0	0.00e+00	0	24	0	1326448640	64	4155
2026-01-09 12:42:59.84	312.10	13.03	-49.0	-50.3	15.0	0.00e+00	0	24	0	1329594368	64	4128
2026-01-09 12:43:00.82	312.28	12.99	-49.2	-50.5	14.9	0.00e+00	0	24	0	1332740096	64	4209
2026-01-09 12:43:01.80	312.45	12.95	-49.2	-50.5	14.8	0.00e+00	0	24	0	1335885824	64	4232
2026-01-09 12:43:02.78	312.63	12.91	-49.2	-50.6	14.8	0.00e+00	0	24	0	1339031552	64	4259
2026-01-09 12:43:03.77	312.81	12.87	-49.1	-50.4	15.0	0.00e+00	0	24	0	1342177280	64	4152
2026-01-09 12:43:04.75	312.98	12.83	-49.1	-50.4	14.9	0.00e+00	0	24	0	1345323008	64	4191
2026-01-09 12:43:05.72	313.15	12.79	-49.2	-50.5	14.9	0.00e+00	0	24	0	1348468736	64	4207
2026-01-09 12:43:06.70	313.33	12.75	-49.0	-50.3	14.9	0.00e+00	0	24	0	1350565888	64	4127
2026-01-09 12:43:07.68	313.50	12.71	-49.1	-50.4	14.9	0.00e+00	0	24	0	1353711616	64	4181
2026-01-09 12:43:08.67	313.68	12.67	-49.2	-50.5	14.8	0.00e+00	0	24	0	1356857344	64	4232
2026-01-09 12:43:09.65	313.85	12.63	-49.3	-50.7	14.8	0.00e+00	0	24	0	1360003072	64	4293
2026-01-09 12:43:10.62	314.02	12.59	-49.2	-50.6	14.8	0.00e+00	0	24	0	1363148800	64	4255
2026-01-09 12:43:11.61	314.19	12.55	-49.3	-50.7	14.8	0.00e+00	0	24	0	1366294528	64	4309
2026-01-09 12:43:12.59	314.37	12.51	-49.3	-50.7	14.8	0.00e+00	0	24	0	1369440256	64	4301
2026-01-09 12:43:13.57	314.54	12.47	-49.4	-50.8	14.8	0.00e+00	0	24	0	1372585984	64	4343
2026-01-09 12:43:14.55	314.71	12.43	-49.5	-50.8	14.7	0.00e+00	0	24	0	1375731712	64	4389
2026-01-09 12:43:15.53	314.88	12.39	-49.5	-50.9	14.7	0.00e+00	0	24	0	1378877440	64	4392
2026-01-09 12:43:16.51	315.05	12.34	-49.7	-51.1	14.6	0.00e+00	0	24	0	1382023168	64	4524
2026-01-09 12:43:17.50	315.22	12.30	-49.6	-51.0	14.6	0.00e+00	0	24	0	1385168896	64	4475
2026-01-09 12:43:18.48	315.39	12.26	-49.6	-51.1	14.6	0.00e+00	0	24	0	1388314624	64	4505
2026-01-09 12:43:19.46	315.55	12.22	-49.6	-51.0	14.6	0.00e+00	0	24	0	1390411776	64	4474
2026-01-09 12:43:20.45	315.72	12.17	-49.6	-51.0	14.6	0.00e+00	0	24	0	1393557504	64	4488
2026-01-09 12:43:21.43	315.89	12.13	-49.6	-51.0	14.6	0.00e+00	0	24	0	1396703232	64	4487
2026-01-09 12:43:22.42	316.06	12.09	-49.6	-51.0	14.6	0.00e+00	0	24	0	1399848960	64	4489
2026-01-09 12:43:23.40	316.22	12.05	-49.6	-51.0	14.6	0.00e+00	0	24	0	1402994688	64	4457
2026-01-09 12:43:24.38	316.39	12.00	-49.4	-50.8	14.7	0.00e+00	0	24	0	1406140416	64	4363
2026-01-09 12:43:25.37	316.56	11.96	-49.3	-50.7	14.8	0.00e+00	0	24	0	1409286144	64	4293
2026-01-09 12:43:26.36	316.72	11.92	-49.4	-50.8	14.7	0.00e+00	0	24	0	1412431872	64	4360
2026-01-09 12:43:27.34	316.89	11.87	-49.4	-50.8	14.7	0.00e+00	0	24	0	1415577600	64	4346
2026-01-09 12:43:28.32	317.05	11.83	-49.3	-50.7	14.7	0.00e+00	0	24	0	1418723328	64	4295
2026-01-09 12:43:29.30	317.21	11.79	-49.4	-50.7	14.7	0.00e+00	0	24	0	1421869056	64	4328
2026-01-09 12:43:30.28	317.38	11.74	-49.4	-50.8	14.7	0.00e+00	0	24	0	1425014784	64	4369
2026-01-09 12:43:31.27	317.54	11.70	-49.5	-50.8	14.7	0.00e+00	0	24	0	1428160512	64	4386
2026-01-09 12:43:32.25	317.70	11.65	-49.4	-50.8	14.7	0.00e+00	0	24	0	1431306240	64	4379
2026-01-09 12:43:33.23	317.86	11.61	-49.5	-50.9	14.7	0.00e+00	0	24	0	1434451968	64	4393
2026-01-09 12:43:34.22	318.03	11.57	-49.6	-51.0	14.6	0.00e+00	0	24	0	1436549120	64	4469
2026-01-09 12:43:35.21	318.19	11.52	-49.6	-51.0	14.6	0.00e+00	0	24	0	1439694848	64	4492
2026-01-09 12:43:36.20	318.35	11.48	-49.7	-51.2	14.5	0.00e+00	0	24	0	1442840576	64	4575
2026-01-09 12:43:37.19	318.51	11.43	-49.8	-51.2	14.5	0.00e+00	0	24	0	1445986304	64	4591
2026-01-09 12:43:38.17	318.67	11.39	-49.8	-51.3	14.5	0.00e+00	0	24	0	1449132032	64	4630
2026-01-09 12:43:39.15	318.83	11.34	-49.8	-51.3	14.4	0.00e+00	0	24	0	1452277760	64	4631
2026-01-09 12:43:40.13	318.99	11.30	-49.9	-51.4	14.6	0.00e+00	0	24	0	1455423488	65	4399
2026-01-09 12:43:41.12	319.15	11.25	-49.9	-51.4	14.5	0.00e+00	0	24	0	1458569216	65	4409
2026-01-09 12:43:42.10	319.30	11.21	-50.1	-51.6	14.4	0.00e+00	0	24	0	1461714944	65	4511
2026-01-09 12:43:43.08	319.46	11.16	-50.0	-51.5	14.5	0.00e+00	0	24	0	1464860672	65	4453
2026-01-09 12:43:44.07	319.62	11.12	-50.0	-51.5	14.4	0.00e+00	0	24	0	1468006400	65	4490
2026-01-09 12:43:45.05	319.77	11.07	-50.0	-51.5	14.4	0.00e+00	0	24	0	1471152128	65	4480
2026-01-09 12:43:46.04	319.93	11.02	-50.0	-51.5	14.5	0.00e+00	0	24	0	1474297856	65	4479
2026-01-09 12:43:47.01	320.08	10.98	-50.1	-51.6	14.4	0.00e+00	0	24	0	1476395008	65	4535
2026-01-09 12:43:48.00	320.24	10.93	-50.2	-51.7	14.3	0.00e+00	0	24	0	1479540736	65	4583
2026-01-09 12:43:48.99	320.40	10.89	-50.1	-51.6	14.4	0.00e+00	0	24	0	1482686464	65	4512
2026-01-09 12:43:49.97	320.55	10.84	-50.0	-51.5	14.5	0.00e+00	0	24	0	1485832192	65	4450
2026-01-09 12:43:50.95	320.70	10.80	-50.0	-51.4	14.5	0.00e+00	0	24	0	1488977920	65	4435
2026-01-09 12:43:51.94	320.86	10.75	-49.9	-51.4	14.6	0.00e+00	0	24	0	1492123648	65	4410
2026-01-09 12:43:52.92	321.01	10.70	-50.0	-51.5	14.5	0.00e+00	0	24	0	1495269376	65	4454
2026-01-09 12:43:53.90	321.16	10.66	-50.0	-51.5	14.5	0.00e+00	0	24	0	1498415104	65	4457
2026-01-09 12:43:54.89	321.31	10.61	-50.1	-51.6	14.4	0.00e+00	0	24	0	1501560832	65	4494
2026-01-09 12:43:55.87	321.46	10.56	-50.0	-51.5	14.5	0.00e+00	0	24	0	1504706560	65	4467
2026-01-09 12:43:56.85	321.61	10.52	-50.1	-51.6	14.4	0.00e+00	0	24	0	1507852288	65	4498
2026-01-09 12:43:57.84	321.77	10.47	-50.0	-51.5	14.4	0.00e+00	0	24	0	1510998016	65	4481
2026-01-09 12:43:58.83	321.92	10.42	-50.0	-51.5	14.5	0.00e+00	0	24	0	1514143744	65	4460
2026-01-09 12:43:59.81	322.06	10.38	-50.0	-51.5	14.4	0.00e+00	0	24	0	1517289472	65	4465
2026-01-09 12:44:00.80	322.21	10.33	-50.0	-51.5	14.4	0.00e+00	0	24	0	1520435200	65	4451
2026-01-09 12:44:01.78	322.36	10.28	-50.0	-51.5	14.4	0.00e+00	0	24	0	1523580928	65	4481
2026-01-09 12:44:02.76	322.51	10.23	-50.1	-51.6	14.4	0.00e+00	0	24	0	1525678080	65	4513
2026-01-09 12:44:03.74	322.66	10.19	-50.0	-51.5	14.5	0.00e+00	0	24	0	1528823808	65	4465
2026-01-09 12:44:04.73	322.80	10.14	-50.1	-51.6	14.4	0.00e+00	0	24	0	1531969536	65	4517
2026-01-09 12:44:05.71	322.95	10.09	-50.0	-51.5	14.4	0.00e+00	0	24	0	1535115264	65	4490
2026-01-09 12:44:06.69	323.10	10.05	-50.1	-51.6	14.4	0.00e+00	0	24	0	1538260992	65	4520
2026-01-09 12:44:07.68	323.24	10.00	-50.1	-51.6	14.4	0.00e+00	0	24	0	1541406720	65	4532
2026-01-09 12:44:08.67	323.39	9.95	-50.0	-51.6	14.4	0.00e+00	0	24	0	1544552448	65	4497
2026-01-09 12:44:09.65	323.53	9.90	-50.1	-51.6	14.4	0.00e+00	0	24	0	1547698176	65	4520
2026-01-09 12:44:10.64	323.68	9.85	-50.1	-51.7	14.3	0.00e+00	0	24	0	1550843904	65	4571
2026-01-09 12:44:11.63	323.82	9.81	-50.1	-51.7	14.4	0.00e+00	0	24	0	1553989632	65	4558
2026-01-09 12:44:12.60	323.97	9.76	-50.1	-51.7	14.3	0.00e+00	0	24	0	1557135360	65	4558
2026-01-09 12:44:13.59	324.11	9.71	-50.2	-51.8	14.3	0.00e+00	0	24	0	1560281088	65	4607
2026-01-09 12:44:14.57	324.25	9.66	-50.2	-51.7	14.3	0.00e+00	0	24	0	1563426816	65	4590
2026-01-09 12:44:15.56	324.39	9.61	-50.2	-51.7	14.3	0.00e+00	0	24	0	1566572544	65	4573
2026-01-09 12:44:16.55	324.54	9.57	-50.2	-51.7	14.3	0.00e+00	0	24	0	1569718272	65	4566
2026-01-09 12:44:17.53	324.68	9.52	-50.2	-51.7	14.3	0.00e+00	0	24	0	1572864000	65	4579
2026-01-09 12:44:18.52	324.82	9.47	-50.2	-51.8	14.3	0.00e+00	0	24	0	1576009728	65	4609
2026-01-09 12:44:19.51	324.96	9.42	-50.2	-51.8	14.3	0.00e+00	0	24	0	1578106880	65	4612
2026-01-09 12:44:20.50	325.10	9.37	-50.3	-51.9	14.3	0.00e+00	0	24	0	1581252608	65	4660
2026-01-09 12:44:21.48	325.24	9.32	-50.3	-51.9	14.2	0.00e+00	0	24	0	1584398336	65	4685
2026-01-09 12:44:22.47	325.38	9.28	-50.1	-51.7	14.3	0.00e+00	0	24	0	1587544064	65	4563
2026-01-09 12:44:23.46	325.52	9.23	-50.4	-52.0	14.3	0.00e+00	0	24	0	1590689792	66	4481
2026-01-09 12:44:24.45	325.66	9.18	-50.2	-51.8	14.4	0.00e+00	0	24	0	1593835520	66	4344
2026-01-09 12:44:25.43	325.79	9.13	-50.2	-51.8	14.4	0.00e+00	0	24	0	1596981248	66	4369
2026-01-09 12:44:26.42	325.93	9.08	-50.2	-51.7	14.5	0.00e+00	0	24	0	1600126976	66	4338
2026-01-09 12:44:27.40	326.07	9.03	-50.1	-51.6	14.5	0.00e+00	0	24	0	1603272704	66	4288
2026-01-09 12:44:28.39	326.21	8.98	-50.3	-51.9	14.4	0.00e+00	0	24	0	1606418432	66	4402
2026-01-09 12:44:29.37	326.34	8.94	-50.2	-51.7	14.5	0.00e+00	0	24	0	1609564160	66	4320
2026-01-09 12:44:30.37	326.48	8.89	-50.2	-51.8	14.4	0.00e+00	0	24	0	1612709888	66	4357
2026-01-09 12:44:31.36	326.61	8.84	-50.2	-51.8	14.4	0.00e+00	0	24	0	1615855616	66	4357
2026-01-09 12:44:32.34	326.75	8.79	-50.3	-51.9	14.3	0.00e+00	0	24	0	1619001344	66	4420
2026-01-09 12:44:33.33	326.88	8.74	-50.3	-51.8	14.4	0.00e+00	0	24	0	1622147072	66	4388
2026-01-09 12:44:34.32	327.02	8.69	-50.2	-51.8	14.4	0.00e+00	0	24	0	1624244224	66	4374
2026-01-09 12:44:35.30	327.15	8.64	-50.3	-51.8	14.4	0.00e+00	0	24	0	1627389952	66	4387
2026-01-09 12:44:36.29	327.28	8.59	-50.2	-51.8	14.4	0.00e+00	0	24	0	1630535680	66	4363
2026-01-09 12:44:37.27	327.42	8.54	-50.5	-52.1	14.2	0.00e+00	0	24	0	1633681408	66	4503
2026-01-09 12:44:38.25	327.55	8.49	-50.4	-52.0	14.3	0.00e+00	0	24	0	1636827136	66	4468
2026-01-09 12:44:39.24	327.68	8.44	-50.3	-51.9	14.4	0.00e+00	0	24	0	1639972864	66	4393
2026-01-09 12:44:40.22	327.81	8.40	-50.3	-51.9	14.3	0.00e+00	0	24	0	1643118592	66	4438
2026-01-09 12:44:41.20	327.94	8.35	-50.3	-51.9	14.4	0.00e+00	0	24	0	1646264320	66	4392
2026-01-09 12:44:42.19	328.07	8.30	-50.3	-51.9	14.4	0.00e+00	0	23	0	1649410048	66	4410
2026-01-09 12:44:43.17	328.20	8.25	-50.4	-52.0	14.3	0.00e+00	0	24	0	1652555776	66	4485
2026-01-09 12:44:44.15	328.33	8.20	-50.3	-52.0	14.3	0.00e+00	0	24	0	1655701504	66	4442
2026-01-09 12:44:45.14	328.46	8.15	-50.5	-52.1	14.2	0.00e+00	0	24	0	1658847232	66	4517
2026-01-09 12:44:46.13	328.59	8.10	-50.3	-51.9	14.3	0.00e+00	0	24	0	1661992960	66	4425
2026-01-09 12:44:47.11	328.72	8.05	-50.2	-51.8	14.4	0.00e+00	0	24	0	1665138688	66	4355
2026-01-09 12:44:48.09	328.84	8.00	-50.4	-52.0	14.3	0.00e+00	0	24	0	1668284416	66	4492
2026-01-09 12:44:49.08	328.97	7.95	-50.5	-52.1	14.2	0.00e+00	0	24	0	1671430144	66	4499
2026-01-09 12:44:50.06	329.10	7.90	-50.4	-51.9	14.3	0.00e+00	0	24	0	1673527296	66	4435
2026-01-09 12:44:51.04	329.22	7.85	-50.5	-52.1	14.2	0.00e+00	0	24	0	1676673024	66	4523
2026-01-09 12:44:52.02	329.35	7.80	-50.4	-52.0	14.2	0.00e+00	0	24	0	1679818752	66	4477
2026-01-09 12:44:53.00	329.47	7.76	-50.5	-52.1	14.2	0.00e+00	0	24	0	1682964480	66	4519
2026-01-09 12:44:53.98	329.60	7.71	-50.3	-51.9	14.3	0.00e+00	0	24	0	1686110208	66	4428
2026-01-09 12:44:54.97	329.73	7.66	-50.4	-52.0	14.3	0.00e+00	0	24	0	1689255936	66	4460
2026-01-09 12:44:55.95	329.85	7.61	-50.3	-51.9	14.3	0.00e+00	0	24	0	1692401664	66	4419
2026-01-09 12:44:56.93	329.97	7.56	-50.4	-52.1	14.2	0.00e+00	0	24	0	1695547392	66	4500
2026-01-09 12:44:57.92	330.10	7.51	-50.4	-52.0	14.2	0.00e+00	0	24	0	1698693120	66	4462
2026-01-09 12:44:58.91	330.22	7.46	-50.3	-51.9	14.3	0.00e+00	0	24	0	1701838848	66	4439
2026-01-09 12:44:59.90	330.34	7.41	-50.4	-52.0	14.2	0.00e+00	0	24	0	1704984576	66	4462
2026-01-09 12:45:00.89	330.47	7.36	-50.3	-51.9	14.3	0.00e+00	0	24	0	1708130304	66	4441
2026-01-09 12:45:01.87	330.59	7.31	-50.5	-52.1	14.2	0.00e+00	0	24	0	1711276032	66	4516
2026-01-09 12:45:02.86	330.71	7.26	-50.5	-52.1	14.2	0.00e+00	0	24	0	1714421760	66	4526
2026-01-09 12:45:03.86	330.84	7.21	-50.6	-52.2	14.1	0.00e+00	0	24	0	1717567488	66	4571
2026-01-09 12:45:04.84	330.96	7.16	-50.5	-52.2	14.1	0.00e+00	0	24	0	1719664640	66	4558
2026-01-09 12:45:05.83	331.08	7.11	-50.5	-52.2	14.1	0.00e+00	0	24	0	1722810368	66	4572
2026-01-09 12:45:06.81	331.20	7.06	-50.6	-52.3	14.1	0.00e+00	0	24	0	1725956096	66	4605
2026-01-09 12:45:07.81	331.32	7.01	-50.7	-52.4	14.0	0.00e+00	0	24	0	1729101824	66	4703
2026-01-09 12:45:08.80	331.44	6.96	-50.6	-52.3	14.0	0.00e+00	0	24	0	1732247552	66	4643
2026-01-09 12:45:09.79	331.56	6.91	-50.6	-52.3	14.0	0.00e+00	0	24	0	1735393280	66	4634
2026-01-09 12:45:10.78	331.68	6.86	-50.7	-52.4	14.0	0.00e+00	0	24	0	1738539008	66	4687
2026-01-09 12:45:11.76	331.79	6.81	-50.8	-52.6	14.0	0.00e+00	0	24	0	1741684736	67	4506
2026-01-09 12:45:12.75	331.91	6.76	-50.9	-52.6	14.0	0.00e+00	0	24	0	1744830464	67	4533
2026-01-09 12:45:13.74	332.03	6.71	-50.9	-52.6	14.0	0.00e+00	0	24	0	1747976192	67	4533
2026-01-09 12:45:14.73	332.15	6.66	-50.8	-52.6	14.0	0.00e+00	0	24	0	1751121920	67	4496
2026-01-09 12:45:15.73	332.27	6.61	-50.8	-52.5	14.0	0.00e+00	0	24	0	1754267648	67	4487
2026-01-09 12:45:16.72	332.38	6.56	-51.0	-52.7	13.9	0.00e+00	0	24	0	1757413376	67	4583
2026-01-09 12:45:17.72	332.50	6.51	-51.0	-52.8	13.9	0.00e+00	0	24	0	1760559104	67	4626
2026-01-09 12:45:18.71	332.62	6.46	-51.1	-52.9	13.8	0.00e+00	0	24	0	1763704832	67	4703
2026-01-09 12:45:19.70	332.73	6.41	-50.9	-52.7	13.9	0.00e+00	0	24	0	1766850560	67	4570
2026-01-09 12:45:20.69	332.85	6.36	-51.1	-53.0	13.8	0.00e+00	0	24	0	1769996288	67	4709
2026-01-09 12:45:21.68	332.96	6.31	-51.0	-52.8	13.9	0.00e+00	0	24	0	1773142016	67	4603
2026-01-09 12:45:22.66	333.08	6.26	-50.9	-52.6	14.0	0.00e+00	0	24	0	1776287744	67	4539
2026-01-09 12:45:23.66	333.19	6.21	-51.0	-52.7	13.9	0.00e+00	0	24	0	1779433472	67	4582
2026-01-09 12:45:24.64	333.31	6.16	-51.0	-52.7	13.9	0.00e+00	0	24	0	1782579200	67	4588
2026-01-09 12:45:25.62	333.42	6.11	-51.0	-52.7	13.9	0.00e+00	0	24	0	1784676352	67	4597
2026-01-09 12:45:26.61	333.53	6.06	-51.0	-52.8	13.8	0.00e+00	0	24	0	1787822080	67	4618
2026-01-09 12:45:27.59	333.64	6.01	-51.0	-52.8	13.8	0.00e+00	0	24	0	1790967808	67	4642
2026-01-09 12:45:28.57	333.75	5.96	-51.0	-52.9	13.8	0.00e+00	0	24	0	1794113536	67	4660
2026-01-09 12:45:29.56	333.87	5.91	-51.3	-53.3	13.5	0.00e+00	0	24	0	1797259264	67	4872
2026-01-09 12:45:30.54	333.98	5.86	-51.0	-52.8	13.8	0.00e+00	0	24	0	1800404992	67	4635
2026-01-09 12:45:31.53	334.09	5.81	-51.3	-53.2	13.6	0.00e+00	0	24	0	1803550720	67	4829
2026-01-09 12:45:32.51	334.20	5.76	-51.1	-52.9	13.7	0.00e+00	0	24	0	1806696448	67	4700
2026-01-09 12:45:33.50	334.31	5.71	-51.2	-53.0	13.7	0.00e+00	0	24	0	1809842176	67	4747
2026-01-09 12:45:34.48	334.42	5.66	-51.1	-52.9	13.7	0.00e+00	0	24	0	1812987904	67	4697
2026-01-09 12:45:35.47	334.53	5.61	-51.0	-52.9	13.7	0.00e+00	0	24	0	1816133632	67	4660
2026-01-09 12:45:36.45	334.64	5.56	-51.2	-53.2	13.5	0.00e+00	0	24	0	1819279360	67	4818
2026-01-09 12:45:37.44	334.74	5.52	-51.1	-53.0	13.6	0.00e+00	0	24	0	1822425088	67	4728
2026-01-09 12:45:38.42	334.85	5.47	-51.6	-53.6	13.4	0.00e+00	0	24	0	1825570816	68	4781
2026-01-09 12:45:39.41	334.96	5.42	-51.5	-53.4	13.5	0.00e+00	0	24	0	1827667968	68	4703
2026-01-09 12:45:40.40	335.07	5.37	-51.5	-53.5	13.5	0.00e+00	0	24	0	1830813696	68	4739
2026-01-09 12:45:41.38	335.18	5.32	-51.2	-53.0	13.8	0.00e+00	0	24	0	1833959424	68	4480
2026-01-09 12:45:42.37	335.28	5.27	-51.3	-53.3	13.6	0.00e+00	0	24	0	1837105152	68	4599
2026-01-09 12:45:43.36	335.39	5.22	-51.3	-53.1	13.7	0.00e+00	0	24	0	1840250880	68	4534
2026-01-09 12:45:44.34	335.50	5.17	-51.4	-53.3	13.6	0.00e+00	0	24	0	1843396608	68	4629
2026-01-09 12:45:45.33	335.60	5.12	-51.3	-53.2	13.7	0.00e+00	0	24	0	1846542336	68	4589
2026-01-09 12:45:46.31	335.71	5.07	-51.4	-53.3	13.7	0.00e+00	0	24	0	1849688064	68	4600
2026-01-09 12:45:47.29	335.81	5.02	-51.5	-53.4	13.6	0.00e+00	0	24	0	1852833792	68	4679
2026-01-09 12:45:48.28	335.92	4.97	-57.9	-70.9	3.8	1.22e+00	0	24	104	1854930944	80	17643
2026-01-09 12:45:49.27	336.02	4.92	-58.4	-72.2	3.8	1.49e+00	0	24	104	1854930944	81	19221
2026-01-09 12:45:50.26	336.13	4.87	-58.7	-72.5	3.8	1.49e+00	0	24	104	1854930944	82	18750
2026-01-09 12:45:51.25	336.23	4.82	-58.9	-72.7	3.8	1.49e+00	0	24	104	1854930944	82	19233
2026-01-09 12:45:52.24	336.34	4.77	-59.0	-72.8	3.8	1.49e+00	0	24	104	1854930944	83	18506
2026-01-09 12:45:53.22	336.44	4.72	-59.2	-73.0	3.8	1.49e+00	0	24	104	1854930944	83	18755
2026-01-09 12:45:54.21	336.54	4.67	-59.2	-73.1	3.8	1.49e+00	0	24	104	1854930944	83	18988
2026-01-09 12:45:55.20	336.64	4.62	-59.3	-73.2	3.8	1.49e+00	0	24	104	1854930944	83	19195
2026-01-09 12:45:56.18	336.75	4.57	-59.4	-73.3	3.8	1.49e+00	0	24	104	1854930944	83	19404
2026-01-09 12:45:57.17	336.85	4.52	-59.7	-73.5	3.8	1.49e+00	0	24	104	1854930944	84	18799
2026-01-09 12:45:58.16	336.95	4.48	-59.7	-73.5	3.8	1.49e+00	0	24	104	1854930944	84	18928
2026-01-09 12:45:59.15	337.05	4.43	-59.7	-73.5	3.8	1.49e+00	0	24	104	1854930944	84	18899
2026-01-09 12:46:00.14	337.15	4.38	-59.8	-73.6	3.8	1.49e+00	0	24	104	1854930944	84	19003
2026-01-09 12:46:01.13	337.25	4.33	-59.8	-73.6	3.8	1.49e+00	0	24	104	1854930944	84	19038
2026-01-09 12:46:02.12	337.36	4.28	-59.8	-73.6	3.8	1.49e+00	0	24	104	1854930944	84	19118
2026-01-09 12:46:03.11	337.46	4.23	-59.8	-73.6	3.8	1.49e+00	0	24	104	1854930944	84	19119
2026-01-09 12:46:04.10	337.56	4.18	-59.8	-73.7	3.8	1.49e+00	0	24	104	1854930944	84	19204
2026-01-09 12:46:05.09	337.66	4.13	-59.8	-73.6	3.8	1.49e+00	0	24	104	1854930944	84	19116
2026-01-09 12:46:06.08	337.75	4.08	-59.8	-73.7	3.8	1.49e+00	0	24	104	1854930944	84	19198
2026-01-09 12:46:07.07	337.85	4.03	-59.8	-73.6	3.8	1.49e+00	0	24	104	1854930944	84	19156
2026-01-09 12:46:08.05	337.95	3.98	-59.8	-73.6	3.8	1.49e+00	0	24	104	1854930944	84	19135
2026-01-09 12:46:09.04	338.05	3.93	-59.8	-73.7	3.8	1.49e+00	0	24	104	1854930944	84	19191
2026-01-09 12:46:10.04	338.15	3.88	-59.8	-73.6	3.8	1.49e+00	0	24	104	1854930944	84	19130
