passes_logs/2026/01/09/R3.2S_Murmansk/R3.2S_Murmansk__20260109_144615_AQUA_rec.log

#Pass ID: 20260109_144615_AQUA
#Satellite: AQUA
#Configuration: AQUA
#almurnet v.1.7.20251203
#Start time: 2026-01-09 14:46:16

#Version: 2.2.20231116
#Station: R3.2S_Murmansk
#Location: 33.079688 lon 68.888172 lat
#TLE: 1 27424U 02022A   26004.96787593  .00001598  00000+0  32997-3 0  9996
#TLE: 2 27424  98.4069 331.2279 0002002  90.2377   0.6092 14.61798176259425

#Time	Az	El	Level	Level2	SNR	BER	BlckErr	Temp	State	Recorded	gain1	gain2
2026-01-09 14:46:16.86	249.92	2.05	-57.2	-76.5	3.8	7.47e-01	0	21	0	0	83	32862
2026-01-09 14:46:17.85	250.04	2.09	-57.1	-76.4	3.8	7.46e-01	0	21	104	0	81	36513
2026-01-09 14:46:18.85	250.16	2.14	-57.1	-76.5	3.8	7.42e-01	0	21	104	0	81	36587
2026-01-09 14:46:19.84	250.28	2.18	-57.1	-76.4	3.8	7.49e-01	0	21	104	0	81	36479
2026-01-09 14:46:20.84	250.40	2.22	-57.1	-76.5	3.8	7.46e-01	0	21	104	0	81	36578
2026-01-09 14:46:21.82	250.52	2.26	-57.1	-76.5	3.8	7.46e-01	0	21	104	0	81	36614
2026-01-09 14:46:22.82	250.64	2.30	-57.2	-76.5	3.8	7.47e-01	0	21	104	0	82	34774
2026-01-09 14:46:23.83	250.76	2.34	-57.2	-76.5	3.8	7.46e-01	0	21	104	0	82	34737
2026-01-09 14:46:24.81	250.88	2.38	-57.2	-76.5	3.8	7.47e-01	0	22	104	0	82	34637
2026-01-09 14:46:25.81	251.01	2.43	-57.2	-76.5	3.8	7.46e-01	0	22	104	0	82	34552
2026-01-09 14:46:26.82	251.13	2.47	-57.2	-76.5	3.8	7.44e-01	0	22	104	0	82	34620
2026-01-09 14:46:27.81	251.25	2.51	-57.2	-76.5	3.8	7.48e-01	0	22	104	0	82	34667
2026-01-09 14:46:28.81	251.38	2.55	-57.2	-76.5	3.8	7.45e-01	0	22	104	0	82	34737
2026-01-09 14:46:29.81	251.50	2.59	-57.2	-76.5	3.8	7.45e-01	0	22	104	0	82	34686
2026-01-09 14:46:30.81	251.63	2.63	-57.2	-76.5	3.8	7.44e-01	0	22	104	0	82	34739
2026-01-09 14:46:31.81	251.75	2.67	-57.2	-76.5	3.8	7.46e-01	0	22	104	0	82	34709
2026-01-09 14:46:32.80	251.87	2.72	-57.2	-76.5	3.8	7.43e-01	0	22	104	0	82	34768
2026-01-09 14:46:33.80	252.00	2.76	-57.2	-76.5	3.8	7.46e-01	0	22	104	0	82	34737
2026-01-09 14:46:34.79	252.12	2.80	-57.2	-76.5	3.8	7.46e-01	0	22	104	0	82	34738
2026-01-09 14:46:35.78	252.25	2.84	-57.2	-76.5	3.8	7.42e-01	0	22	104	0	82	34613
2026-01-09 14:46:36.77	252.38	2.88	-57.2	-76.5	3.8	7.45e-01	0	22	104	0	82	34520
2026-01-09 14:46:37.76	252.50	2.92	-57.2	-76.4	3.8	7.46e-01	0	22	104	0	82	34443
2026-01-09 14:46:38.76	252.63	2.96	-57.2	-76.5	3.8	7.46e-01	0	22	104	0	82	34510
2026-01-09 14:46:39.75	252.75	3.00	-57.2	-76.5	3.8	7.46e-01	0	22	104	0	82	34751
2026-01-09 14:46:40.75	252.88	3.04	-57.2	-76.5	3.8	7.44e-01	0	22	104	0	82	34788
2026-01-09 14:46:41.75	253.01	3.08	-57.2	-76.5	3.8	7.44e-01	0	22	104	0	82	34788
2026-01-09 14:46:42.74	253.14	3.12	-57.2	-76.5	3.8	7.46e-01	0	22	104	0	82	34705
2026-01-09 14:46:43.74	253.27	3.17	-57.2	-76.5	3.8	7.46e-01	0	22	104	0	82	34580
2026-01-09 14:46:44.74	253.40	3.21	-57.2	-76.5	3.8	7.47e-01	0	22	104	0	82	34591
2026-01-09 14:46:45.73	253.53	3.25	-57.2	-76.5	3.8	7.49e-01	0	22	104	0	82	34507
2026-01-09 14:46:46.74	253.66	3.29	-57.2	-76.4	3.8	7.45e-01	0	22	104	0	82	34276
2026-01-09 14:46:47.73	253.79	3.33	-57.2	-76.4	3.8	7.43e-01	0	22	104	0	82	34131
2026-01-09 14:46:48.73	253.92	3.37	-57.2	-76.4	3.8	7.46e-01	0	22	104	0	82	34473
2026-01-09 14:46:49.72	254.05	3.41	-57.2	-76.5	3.8	7.46e-01	0	22	104	0	82	34690
2026-01-09 14:46:50.72	254.18	3.45	-57.2	-76.5	3.8	7.47e-01	0	22	104	0	82	34835
2026-01-09 14:46:51.72	254.31	3.49	-57.2	-76.5	3.8	7.44e-01	0	22	104	0	82	34789
2026-01-09 14:46:52.71	254.45	3.53	-57.2	-76.5	3.8	7.50e-01	0	22	104	0	82	34563
2026-01-09 14:46:53.71	254.58	3.57	-57.2	-76.5	3.8	7.47e-01	0	22	104	0	82	34647
2026-01-09 14:46:54.71	254.71	3.61	-57.2	-76.5	3.8	7.42e-01	0	22	104	0	82	34802
2026-01-09 14:46:55.71	254.85	3.65	-57.2	-76.5	3.8	7.47e-01	0	22	104	0	82	34739
2026-01-09 14:46:56.70	254.98	3.69	-57.2	-76.4	3.8	7.47e-01	0	22	104	0	82	34099
2026-01-09 14:46:57.70	255.11	3.73	-57.2	-76.2	3.8	7.45e-01	0	22	104	0	82	33348
2026-01-09 14:46:58.70	255.25	3.77	-57.2	-76.1	3.8	7.45e-01	0	22	104	0	82	33084
2026-01-09 14:46:59.70	255.38	3.81	-57.2	-76.0	3.8	7.46e-01	0	22	104	0	82	32685
2026-01-09 14:47:00.69	255.52	3.85	-57.2	-76.0	3.8	7.43e-01	0	22	104	0	82	32889
2026-01-09 14:47:01.70	255.66	3.89	-57.2	-76.0	3.8	7.47e-01	0	22	104	0	82	32911
2026-01-09 14:47:02.70	255.79	3.93	-57.2	-76.1	3.8	7.43e-01	0	22	104	0	82	32962
2026-01-09 14:47:03.70	255.93	3.97	-57.2	-76.3	3.8	7.49e-01	0	22	104	0	82	33790
2026-01-09 14:47:04.70	256.07	4.01	-57.2	-76.4	3.8	7.49e-01	0	22	104	0	82	34336
2026-01-09 14:47:05.69	256.20	4.05	-57.2	-76.4	3.8	7.47e-01	0	22	104	0	82	34274
2026-01-09 14:47:06.70	256.34	4.09	-57.2	-76.0	3.8	7.47e-01	0	22	104	0	82	32870
2026-01-09 14:47:07.69	256.48	4.13	-57.2	-75.6	3.8	7.50e-01	0	23	104	0	82	31126
2026-01-09 14:47:08.69	256.62	4.17	-57.2	-75.5	3.8	7.46e-01	0	23	104	0	82	31059
2026-01-09 14:47:09.69	256.76	4.21	-57.2	-75.6	3.8	7.45e-01	0	22	104	0	82	31374
2026-01-09 14:47:10.68	256.90	4.25	-57.2	-76.1	3.8	7.48e-01	0	22	104	0	82	33063
2026-01-09 14:47:11.68	257.04	4.29	-57.2	-76.3	3.8	7.46e-01	0	22	104	0	82	33990
2026-01-09 14:47:12.67	257.18	4.33	-57.2	-76.4	3.8	7.46e-01	0	23	104	0	82	34373
2026-01-09 14:47:13.67	257.32	4.37	-57.2	-76.5	3.8	7.45e-01	0	22	104	0	82	34596
2026-01-09 14:47:14.67	257.46	4.40	-57.2	-76.2	3.8	7.44e-01	0	22	104	0	82	33694
2026-01-09 14:47:15.66	257.60	4.44	-57.2	-76.0	3.8	7.45e-01	0	23	104	0	82	32570
2026-01-09 14:47:16.67	257.74	4.48	-57.2	-75.7	3.8	7.43e-01	0	23	104	0	82	31735
2026-01-09 14:47:17.66	257.88	4.52	-57.2	-75.5	3.8	7.41e-01	0	23	104	0	82	30853
2026-01-09 14:47:18.66	258.03	4.56	-57.2	-75.0	3.8	7.44e-01	0	23	104	0	82	29237
2026-01-09 14:47:19.66	258.17	4.60	-57.2	-74.0	3.9	7.41e-01	0	23	104	0	82	25884
2026-01-09 14:47:20.65	258.31	4.64	-57.1	-73.4	4.1	7.35e-01	0	23	104	0	82	24295
2026-01-09 14:47:21.65	258.46	4.68	-57.1	-74.6	3.8	7.46e-01	0	23	104	0	82	27850
2026-01-09 14:47:22.64	258.60	4.71	-57.2	-76.2	3.8	7.46e-01	0	23	104	0	82	33386
2026-01-09 14:47:23.64	258.74	4.75	-57.2	-75.4	3.9	7.44e-01	0	23	104	0	82	30685
2026-01-09 14:47:24.63	258.89	4.79	-57.0	-70.7	5.0	7.10e-01	5	23	104	0	82	17843
2026-01-09 14:47:25.63	259.03	4.83	-56.8	-67.5	7.3	6.54e-01	91	23	0	1048576	82	12281
2026-01-09 14:47:26.63	259.18	4.87	-56.6	-65.5	9.1	6.29e-01	0	23	0	3145728	82	9756
2026-01-09 14:47:27.63	259.33	4.91	-56.3	-64.0	10.4	6.18e-01	0	23	0	5242880	81	8700
2026-01-09 14:47:28.63	259.47	4.94	-56.0	-62.6	11.5	6.10e-01	0	23	0	6815744	81	7414
2026-01-09 14:47:29.63	259.62	4.98	-55.1	-60.0	13.2	6.06e-01	0	23	0	8912896	79	6197
2026-01-09 14:47:30.62	259.77	5.02	-53.8	-57.3	14.7	6.06e-01	0	23	0	10485760	76	5383
2026-01-09 14:47:31.63	259.92	5.06	-53.1	-56.2	15.0	6.07e-01	0	23	0	12582912	75	5003
2026-01-09 14:47:32.63	260.06	5.09	-55.6	-61.4	12.7	6.13e-01	0	23	0	14680064	78	7636
2026-01-09 14:47:33.62	260.21	5.13	-52.0	-54.6	15.4	6.06e-01	0	23	0	16252928	73	4686
2026-01-09 14:47:34.62	260.36	5.17	-53.9	-57.7	14.4	6.06e-01	0	23	0	18350080	75	5935
2026-01-09 14:47:35.61	260.51	5.21	-51.3	-53.6	15.6	6.07e-01	0	23	0	19922944	71	4688
2026-01-09 14:47:36.60	260.66	5.24	-51.7	-54.2	15.6	6.06e-01	0	23	0	22020096	72	4729
2026-01-09 14:47:37.60	260.81	5.28	-51.1	-53.3	15.7	6.05e-01	0	23	0	23592960	71	4524
2026-01-09 14:47:38.60	260.96	5.32	-51.1	-53.3	15.7	6.06e-01	0	23	0	25690112	71	4510
2026-01-09 14:47:39.59	261.11	5.35	-51.1	-53.4	15.7	6.07e-01	0	23	0	27262976	71	4558
2026-01-09 14:47:40.59	261.26	5.39	-51.0	-53.2	15.8	6.06e-01	0	23	0	29360128	71	4478
2026-01-09 14:47:41.58	261.41	5.43	-51.1	-53.3	15.7	6.06e-01	0	23	0	31457280	71	4529
2026-01-09 14:47:42.58	261.56	5.46	-51.0	-53.2	15.8	6.05e-01	0	23	0	33030144	71	4485
2026-01-09 14:47:43.58	261.72	5.50	-51.0	-53.3	15.8	6.06e-01	0	23	0	35127296	71	4495
2026-01-09 14:47:44.56	261.87	5.54	-51.0	-53.2	15.8	6.07e-01	0	23	0	36700160	71	4449
2026-01-09 14:47:45.55	262.02	5.57	-51.1	-53.3	15.7	6.05e-01	0	23	0	38797312	71	4508
2026-01-09 14:47:46.55	262.17	5.61	-51.0	-53.2	15.8	6.09e-01	0	23	0	40370176	71	4444
2026-01-09 14:47:47.54	262.33	5.65	-51.1	-53.3	15.7	6.06e-01	0	23	0	42467328	71	4532
2026-01-09 14:47:48.53	262.48	5.68	-51.2	-53.5	15.7	6.08e-01	0	23	0	44040192	71	4605
2026-01-09 14:47:49.53	262.64	5.72	-50.9	-53.1	15.8	6.05e-01	0	23	0	46137344	71	4421
2026-01-09 14:47:50.52	262.79	5.75	-50.8	-52.9	15.7	6.05e-01	0	23	0	48234496	70	4593
2026-01-09 14:47:51.52	262.95	5.79	-50.8	-53.0	15.7	6.09e-01	0	23	0	49807360	70	4631
2026-01-09 14:47:52.52	263.10	5.82	-50.7	-52.9	15.7	6.08e-01	0	23	0	51904512	70	4557
2026-01-09 14:47:53.53	263.26	5.86	-50.8	-52.9	15.7	6.08e-01	0	23	0	53477376	70	4580
2026-01-09 14:47:54.53	263.42	5.90	-51.0	-53.2	15.6	6.07e-01	0	23	0	55574528	70	4711
2026-01-09 14:47:55.52	263.57	5.93	-50.9	-53.2	15.6	6.07e-01	0	23	0	57147392	70	4708
2026-01-09 14:47:56.52	263.73	5.97	-50.9	-53.1	15.6	6.07e-01	0	23	0	59244544	70	4674
2026-01-09 14:47:57.52	263.89	6.00	-50.9	-53.0	15.7	6.08e-01	0	23	0	61341696	70	4649
2026-01-09 14:47:58.52	264.05	6.04	-50.8	-53.0	15.7	6.08e-01	0	23	0	62914560	70	4606
2026-01-09 14:47:59.51	264.21	6.07	-50.6	-52.7	15.8	6.04e-01	0	23	0	65011712	70	4490
2026-01-09 14:48:00.50	264.37	6.10	-50.7	-52.8	15.8	6.07e-01	0	23	0	66584576	70	4521
2026-01-09 14:48:01.50	264.53	6.14	-50.7	-52.9	15.7	6.08e-01	0	23	0	68681728	70	4553
2026-01-09 14:48:02.50	264.69	6.17	-50.7	-52.9	15.8	6.07e-01	0	23	0	70254592	70	4548
2026-01-09 14:48:03.51	264.85	6.21	-50.8	-53.0	15.7	6.06e-01	0	23	0	72351744	70	4629
2026-01-09 14:48:04.50	265.01	6.24	-50.9	-53.1	15.6	6.06e-01	0	23	0	74448896	70	4660
2026-01-09 14:48:05.49	265.17	6.28	-50.8	-52.9	15.7	6.04e-01	0	23	0	76021760	70	4562
2026-01-09 14:48:06.48	265.33	6.31	-50.7	-52.8	15.7	6.07e-01	0	23	0	78118912	70	4544
2026-01-09 14:48:07.49	265.49	6.34	-50.7	-52.8	15.8	6.08e-01	0	23	0	79691776	70	4511
2026-01-09 14:48:08.49	265.66	6.38	-50.7	-52.8	15.8	6.06e-01	0	23	0	81788928	70	4519
2026-01-09 14:48:09.50	265.82	6.41	-50.6	-52.6	15.9	6.06e-01	0	23	0	83361792	70	4433
2026-01-09 14:48:10.50	265.98	6.44	-50.7	-52.8	15.8	6.05e-01	0	23	0	85458944	70	4541
2026-01-09 14:48:11.50	266.15	6.48	-50.6	-52.7	15.8	6.06e-01	0	23	0	87031808	70	4479
2026-01-09 14:48:12.50	266.31	6.51	-50.7	-52.9	15.8	6.07e-01	0	23	0	89128960	70	4550
2026-01-09 14:48:13.49	266.48	6.54	-50.7	-52.8	15.8	6.07e-01	0	23	0	91226112	70	4540
2026-01-09 14:48:14.49	266.64	6.58	-50.6	-52.8	15.8	6.08e-01	0	23	0	92798976	70	4503
2026-01-09 14:48:15.48	266.81	6.61	-50.6	-52.8	15.8	6.06e-01	0	23	0	94896128	70	4502
2026-01-09 14:48:16.48	266.97	6.64	-50.4	-52.5	15.9	6.06e-01	0	23	0	96468992	70	4349
2026-01-09 14:48:17.48	267.14	6.67	-50.2	-52.2	15.8	6.05e-01	0	23	0	98566144	69	4474
2026-01-09 14:48:18.48	267.30	6.71	-50.2	-52.3	15.8	6.09e-01	0	23	0	100139008	69	4518
2026-01-09 14:48:19.48	267.47	6.74	-50.4	-52.5	15.7	6.06e-01	0	23	0	102236160	69	4630
2026-01-09 14:48:20.48	267.64	6.77	-50.8	-53.1	15.4	6.06e-01	0	23	0	104333312	69	4955
2026-01-09 14:48:21.47	267.81	6.80	-51.6	-54.1	15.2	6.08e-01	0	23	0	105906176	70	5278
2026-01-09 14:48:22.47	267.97	6.83	-52.0	-54.8	15.0	6.06e-01	0	23	0	108003328	71	5345
2026-01-09 14:48:23.46	268.14	6.86	-52.6	-55.7	14.7	6.07e-01	0	23	0	109576192	72	5624
2026-01-09 14:48:24.45	268.31	6.90	-52.7	-56.0	14.7	6.06e-01	0	23	0	111673344	73	5486
2026-01-09 14:48:25.45	268.48	6.93	-52.8	-56.2	14.6	6.07e-01	0	23	0	113246208	73	5598
2026-01-09 14:48:26.45	268.65	6.96	-52.9	-56.3	14.5	6.06e-01	0	23	0	115343360	73	5702
2026-01-09 14:48:27.45	268.82	6.99	-53.0	-56.6	14.4	6.08e-01	0	23	0	116916224	73	5906
2026-01-09 14:48:28.45	268.99	7.02	-53.3	-57.2	14.2	6.07e-01	0	23	0	119013376	74	5928
2026-01-09 14:48:29.44	269.16	7.05	-53.6	-57.7	13.9	6.06e-01	0	23	0	121110528	74	6293
2026-01-09 14:48:30.43	269.33	7.08	-53.8	-58.1	13.8	6.05e-01	0	23	0	122683392	75	6224
2026-01-09 14:48:31.44	269.50	7.11	-53.7	-57.7	14.0	6.07e-01	0	23	0	124780544	75	5991
2026-01-09 14:48:32.44	269.67	7.14	-53.6	-57.4	14.3	6.05e-01	0	23	0	126353408	75	5734
2026-01-09 14:48:33.44	269.85	7.17	-53.3	-56.7	14.7	6.04e-01	0	23	0	128450560	75	5317
2026-01-09 14:48:34.44	270.02	7.20	-53.0	-56.1	15.1	6.08e-01	0	23	0	130547712	75	4943
2026-01-09 14:48:35.43	270.19	7.23	-52.9	-55.9	15.2	6.07e-01	0	23	0	132120576	75	4860
2026-01-09 14:48:36.43	270.36	7.26	-52.0	-54.5	15.5	6.06e-01	0	23	0	134217728	73	4643
2026-01-09 14:48:37.42	270.54	7.29	-51.5	-53.8	15.7	6.07e-01	0	23	0	135790592	72	4537
2026-01-09 14:48:38.42	270.71	7.32	-51.1	-53.4	15.7	6.06e-01	0	23	0	137887744	71	4556
2026-01-09 14:48:39.41	270.88	7.35	-50.9	-53.0	15.9	6.07e-01	0	23	0	139460608	71	4387
2026-01-09 14:48:40.40	271.06	7.37	-50.9	-53.1	15.8	6.09e-01	0	23	0	141557760	71	4401
2026-01-09 14:48:41.40	271.23	7.40	-51.0	-53.2	15.8	6.05e-01	0	23	0	143130624	71	4444
2026-01-09 14:48:42.39	271.41	7.43	-50.7	-52.8	15.8	6.06e-01	0	23	0	145227776	70	4531
2026-01-09 14:48:43.39	271.58	7.46	-50.7	-52.8	15.8	6.06e-01	0	23	0	147324928	70	4499
2026-01-09 14:48:44.38	271.76	7.49	-50.6	-52.7	15.8	6.07e-01	0	23	0	148897792	70	4466
2026-01-09 14:48:45.37	271.93	7.51	-50.6	-52.7	15.8	6.07e-01	0	23	0	150994944	70	4471
2026-01-09 14:48:46.37	272.11	7.54	-50.4	-52.4	15.9	6.07e-01	0	23	0	152567808	70	4322
2026-01-09 14:48:47.37	272.29	7.57	-50.3	-52.3	15.8	6.07e-01	0	23	0	154664960	69	4495
2026-01-09 14:48:48.38	272.47	7.60	-50.4	-52.4	15.7	6.06e-01	0	23	0	156237824	69	4564
2026-01-09 14:48:49.38	272.64	7.62	-50.2	-52.2	15.8	6.08e-01	0	23	0	158334976	69	4454
2026-01-09 14:48:50.37	272.82	7.65	-50.3	-52.3	15.8	6.05e-01	0	23	0	160432128	69	4508
2026-01-09 14:48:51.37	273.00	7.68	-50.4	-52.4	15.8	6.06e-01	0	23	0	162004992	69	4547
2026-01-09 14:48:52.36	273.18	7.70	-50.3	-52.3	15.8	6.08e-01	0	23	0	164102144	69	4533
2026-01-09 14:48:53.36	273.36	7.73	-50.3	-52.3	15.8	6.07e-01	0	23	0	165675008	69	4510
2026-01-09 14:48:54.35	273.53	7.76	-50.3	-52.3	15.8	6.05e-01	0	23	0	167772160	69	4533
2026-01-09 14:48:55.35	273.72	7.78	-50.4	-52.4	15.7	6.04e-01	0	23	0	169345024	69	4560
2026-01-09 14:48:56.35	273.90	7.81	-50.3	-52.3	15.8	6.06e-01	0	23	0	171442176	69	4534
2026-01-09 14:48:57.34	274.07	7.83	-50.4	-52.4	15.7	6.06e-01	0	23	0	173015040	69	4564
2026-01-09 14:48:58.34	274.26	7.86	-50.3	-52.2	15.8	6.06e-01	0	23	0	175112192	69	4486
2026-01-09 14:48:59.33	274.44	7.88	-50.2	-52.2	15.8	6.06e-01	0	23	0	177209344	69	4473
2026-01-09 14:49:00.33	274.62	7.91	-50.3	-52.2	15.8	6.06e-01	0	23	0	178782208	69	4477
2026-01-09 14:49:01.34	274.80	7.93	-50.2	-52.1	15.9	6.06e-01	0	23	0	180879360	69	4439
2026-01-09 14:49:02.34	274.98	7.96	-50.2	-52.2	15.8	6.06e-01	0	23	0	182452224	69	4461
2026-01-09 14:49:03.33	275.17	7.98	-50.2	-52.1	15.9	6.05e-01	0	23	0	184549376	69	4408
2026-01-09 14:49:04.33	275.35	8.00	-50.2	-52.1	15.9	6.07e-01	0	23	0	186122240	69	4411
2026-01-09 14:49:05.33	275.53	8.03	-50.2	-52.2	15.8	6.07e-01	0	23	0	188219392	69	4464
2026-01-09 14:49:06.33	275.72	8.05	-50.3	-52.3	15.8	6.06e-01	0	23	0	190316544	69	4541
2026-01-09 14:49:07.33	275.90	8.07	-50.3	-52.3	15.8	6.06e-01	0	23	0	191889408	69	4494
2026-01-09 14:49:08.33	276.08	8.10	-50.2	-52.2	15.8	6.05e-01	0	23	0	193986560	69	4458
2026-01-09 14:49:09.34	276.27	8.12	-50.1	-52.1	15.9	6.07e-01	0	23	0	195559424	69	4406
2026-01-09 14:49:10.33	276.45	8.14	-50.2	-52.2	15.8	6.06e-01	0	23	0	197656576	69	4457
2026-01-09 14:49:11.33	276.64	8.17	-50.2	-52.2	15.8	6.07e-01	0	23	0	199229440	69	4447
2026-01-09 14:49:12.33	276.82	8.19	-50.2	-52.2	15.8	6.06e-01	0	23	0	201326592	69	4451
2026-01-09 14:49:13.33	277.01	8.21	-50.2	-52.1	15.8	6.06e-01	0	23	0	203423744	69	4432
2026-01-09 14:49:14.32	277.19	8.23	-50.2	-52.1	15.9	6.06e-01	0	23	0	204996608	69	4418
2026-01-09 14:49:15.32	277.38	8.25	-50.2	-52.2	15.8	6.07e-01	0	23	0	207093760	69	4468
2026-01-09 14:49:16.32	277.57	8.28	-50.3	-52.3	15.8	6.06e-01	0	23	0	208666624	69	4494
2026-01-09 14:49:17.32	277.76	8.30	-50.2	-52.1	15.9	6.06e-01	0	23	0	210763776	69	4424
2026-01-09 14:49:18.32	277.94	8.32	-50.3	-52.2	15.8	6.07e-01	0	23	0	212860928	69	4463
2026-01-09 14:49:19.31	278.13	8.34	-50.2	-52.2	15.8	6.05e-01	0	23	0	214433792	69	4444
2026-01-09 14:49:20.31	278.32	8.36	-50.4	-52.3	15.8	6.07e-01	0	23	0	216530944	69	4536
2026-01-09 14:49:21.31	278.50	8.38	-50.2	-52.2	15.8	6.05e-01	0	23	0	218103808	69	4468
2026-01-09 14:49:22.30	278.69	8.40	-50.2	-52.1	15.8	6.07e-01	0	23	0	220200960	69	4438
2026-01-09 14:49:23.30	278.88	8.42	-50.3	-52.2	15.8	6.08e-01	0	23	0	221773824	69	4488
2026-01-09 14:49:24.31	279.07	8.44	-50.3	-52.2	15.8	6.07e-01	0	23	0	223870976	69	4493
2026-01-09 14:49:25.30	279.26	8.46	-50.2	-52.2	15.8	6.06e-01	0	23	0	225968128	69	4457
2026-01-09 14:49:26.30	279.45	8.48	-50.2	-52.1	15.9	6.08e-01	0	23	0	227540992	69	4430
2026-01-09 14:49:27.30	279.64	8.49	-50.3	-52.2	15.8	6.09e-01	0	23	0	229638144	69	4475
2026-01-09 14:49:28.31	279.83	8.51	-50.3	-52.2	15.8	6.07e-01	0	23	0	231211008	69	4473
2026-01-09 14:49:29.31	280.02	8.53	-50.2	-52.1	15.8	6.06e-01	0	23	0	233308160	69	4428
2026-01-09 14:49:30.31	280.21	8.55	-50.2	-52.1	15.9	6.06e-01	0	23	0	234881024	69	4427
2026-01-09 14:49:31.31	280.40	8.57	-50.2	-52.1	15.8	6.06e-01	0	23	0	236978176	69	4441
2026-01-09 14:49:32.30	280.59	8.59	-50.2	-52.2	15.8	6.07e-01	0	23	0	239075328	69	4457
2026-01-09 14:49:33.31	280.78	8.60	-50.2	-52.1	15.9	6.07e-01	0	23	0	240648192	69	4422
2026-01-09 14:49:34.31	280.97	8.62	-50.2	-52.1	15.8	6.05e-01	0	23	0	242745344	69	4429
2026-01-09 14:49:35.30	281.16	8.64	-50.3	-52.2	15.8	6.07e-01	0	23	0	244318208	69	4484
2026-01-09 14:49:36.31	281.36	8.65	-50.1	-52.0	15.9	6.06e-01	0	23	0	246415360	69	4367
2026-01-09 14:49:37.31	281.55	8.67	-50.1	-52.0	15.9	6.07e-01	0	23	0	247988224	69	4379
2026-01-09 14:49:38.30	281.74	8.69	-50.2	-52.1	15.9	6.06e-01	0	23	0	250085376	69	4414
2026-01-09 14:49:39.30	281.93	8.70	-50.3	-52.2	15.8	6.08e-01	0	23	0	252182528	69	4491
2026-01-09 14:49:40.30	282.13	8.72	-50.3	-52.3	15.8	6.04e-01	0	23	0	253755392	69	4511
2026-01-09 14:49:41.29	282.32	8.73	-50.4	-52.4	15.7	6.04e-01	0	23	0	255852544	69	4581
2026-01-09 14:49:42.29	282.51	8.75	-50.4	-52.4	15.7	6.06e-01	0	23	0	257425408	69	4565
2026-01-09 14:49:43.29	282.70	8.76	-50.3	-52.3	15.8	6.06e-01	0	23	0	259522560	69	4495
2026-01-09 14:49:44.30	282.90	8.78	-50.3	-52.2	15.8	6.08e-01	0	23	0	261095424	69	4469
2026-01-09 14:49:45.28	283.09	8.79	-50.3	-52.2	15.8	6.06e-01	0	23	0	263192576	69	4475
2026-01-09 14:49:46.28	283.28	8.81	-50.3	-52.3	15.8	6.04e-01	0	23	0	264765440	69	4500
2026-01-09 14:49:47.27	283.47	8.82	-50.3	-52.3	15.8	6.07e-01	0	23	0	266862592	69	4498
2026-01-09 14:49:48.27	283.67	8.83	-50.3	-52.2	15.8	6.07e-01	0	23	0	268959744	69	4479
2026-01-09 14:49:49.28	283.87	8.85	-50.3	-52.2	15.8	6.07e-01	0	23	0	270532608	69	4488
2026-01-09 14:49:50.27	284.06	8.86	-50.3	-52.2	15.8	6.07e-01	0	23	0	272629760	69	4485
2026-01-09 14:49:51.27	284.25	8.87	-50.3	-52.2	15.8	6.06e-01	0	23	0	274202624	69	4492
2026-01-09 14:49:52.27	284.45	8.88	-50.3	-52.3	15.8	6.03e-01	0	23	0	276299776	69	4514
2026-01-09 14:49:53.26	284.64	8.90	-50.4	-52.3	15.8	6.03e-01	0	23	0	278396928	69	4527
2026-01-09 14:49:54.26	284.84	8.91	-50.4	-52.3	15.8	6.03e-01	0	23	0	279969792	69	4512
2026-01-09 14:49:55.25	285.03	8.92	-50.3	-52.2	15.8	6.01e-01	0	23	0	282066944	69	4480
2026-01-09 14:49:56.25	285.23	8.93	-50.3	-52.2	15.8	6.04e-01	0	23	0	283639808	69	4472
2026-01-09 14:49:57.25	285.42	8.94	-50.2	-52.1	15.8	6.02e-01	0	23	0	285736960	69	4439
2026-01-09 14:49:58.25	285.62	8.95	-50.3	-52.2	15.8	6.03e-01	0	23	0	287309824	69	4465
2026-01-09 14:49:59.24	285.81	8.96	-50.4	-52.3	15.8	6.06e-01	0	23	0	289406976	69	4514
2026-01-09 14:50:00.25	286.01	8.97	-50.4	-52.3	15.8	6.04e-01	0	23	0	290979840	69	4539
2026-01-09 14:50:01.24	286.21	8.98	-50.3	-52.2	15.8	6.01e-01	0	23	0	293076992	69	4477
2026-01-09 14:50:02.24	286.40	8.99	-50.2	-52.1	15.9	6.03e-01	0	23	0	295174144	69	4425
2026-01-09 14:50:03.24	286.60	9.00	-50.4	-52.3	15.8	6.02e-01	0	23	0	296747008	69	4517
2026-01-09 14:50:04.24	286.80	9.01	-50.4	-52.3	15.7	6.02e-01	0	23	0	298844160	69	4542
2026-01-09 14:50:05.23	286.99	9.02	-50.4	-52.4	15.8	6.04e-01	0	23	0	300417024	69	4546
2026-01-09 14:50:06.23	287.19	9.03	-50.4	-52.3	15.8	6.02e-01	0	23	0	302514176	69	4533
2026-01-09 14:50:07.22	287.38	9.04	-50.4	-52.3	15.7	6.04e-01	0	23	0	304087040	69	4544
2026-01-09 14:50:08.22	287.58	9.05	-50.5	-52.4	15.7	6.01e-01	0	23	0	306184192	69	4575
2026-01-09 14:50:09.22	287.78	9.05	-50.4	-52.4	15.8	6.02e-01	0	23	0	308281344	69	4559
2026-01-09 14:50:10.22	287.98	9.06	-50.5	-52.5	15.7	6.02e-01	0	23	0	309854208	69	4607
2026-01-09 14:50:11.22	288.17	9.07	-50.5	-52.4	15.7	6.03e-01	0	23	0	311951360	69	4583
2026-01-09 14:50:12.22	288.37	9.08	-50.4	-52.4	15.8	6.04e-01	0	23	0	313524224	69	4550
2026-01-09 14:50:13.22	288.57	9.08	-50.3	-52.2	15.8	6.04e-01	0	23	0	315621376	69	4473
2026-01-09 14:50:14.22	288.77	9.09	-50.4	-52.3	15.8	6.02e-01	0	23	0	317194240	69	4517
2026-01-09 14:50:15.22	288.97	9.10	-50.4	-52.3	15.8	6.03e-01	0	23	0	319291392	69	4520
2026-01-09 14:50:16.22	289.16	9.10	-50.4	-52.4	15.7	6.04e-01	0	23	0	321388544	69	4566
2026-01-09 14:50:17.22	289.36	9.11	-50.5	-52.5	15.7	6.02e-01	0	23	0	322961408	69	4635
2026-01-09 14:50:18.22	289.56	9.11	-50.5	-52.5	15.7	6.03e-01	0	23	0	325058560	69	4608
2026-01-09 14:50:19.21	289.76	9.12	-50.3	-52.2	15.8	6.02e-01	0	23	0	326631424	69	4471
2026-01-09 14:50:20.21	289.95	9.12	-50.2	-52.1	15.9	6.03e-01	0	23	0	328728576	69	4394
2026-01-09 14:50:21.21	290.15	9.13	-50.2	-52.1	15.9	6.05e-01	0	23	0	330301440	69	4402
2026-01-09 14:50:22.22	290.35	9.13	-50.3	-52.2	15.8	6.02e-01	0	23	0	332398592	69	4484
2026-01-09 14:50:23.21	290.55	9.14	-50.4	-52.3	15.8	6.01e-01	0	23	0	334495744	69	4545
2026-01-09 14:50:24.21	290.75	9.14	-50.4	-52.4	15.8	6.02e-01	0	23	0	336068608	69	4555
2026-01-09 14:50:25.21	290.95	9.14	-50.3	-52.3	15.8	6.01e-01	0	23	0	338165760	69	4494
2026-01-09 14:50:26.21	291.15	9.15	-50.3	-52.2	15.8	6.03e-01	0	23	0	339738624	69	4491
2026-01-09 14:50:27.21	291.35	9.15	-50.3	-52.2	15.8	6.02e-01	0	23	0	341835776	69	4457
2026-01-09 14:50:28.21	291.54	9.15	-50.3	-52.2	15.8	6.01e-01	0	23	0	343408640	69	4490
2026-01-09 14:50:29.20	291.74	9.15	-50.4	-52.3	15.7	6.05e-01	0	23	0	345505792	69	4538
2026-01-09 14:50:30.19	291.94	9.16	-50.4	-52.3	15.7	6.03e-01	0	23	0	347078656	69	4515
2026-01-09 14:50:31.19	292.14	9.16	-50.3	-52.3	15.8	6.02e-01	0	23	0	349175808	69	4496
2026-01-09 14:50:32.18	292.33	9.16	-50.5	-52.4	15.7	6.04e-01	0	23	0	351272960	69	4568
2026-01-09 14:50:33.18	292.53	9.16	-50.4	-52.3	15.8	6.04e-01	0	23	0	352845824	69	4532
2026-01-09 14:50:34.17	292.73	9.16	-50.4	-52.3	15.8	6.02e-01	0	23	0	354942976	69	4522
2026-01-09 14:50:35.17	292.93	9.16	-50.5	-52.4	15.7	6.02e-01	0	23	0	356515840	69	4597
2026-01-09 14:50:36.16	293.13	9.16	-50.6	-52.6	15.7	6.04e-01	0	23	0	358612992	69	4665
2026-01-09 14:50:37.15	293.32	9.16	-50.5	-52.4	15.7	6.05e-01	0	23	0	360710144	69	4590
2026-01-09 14:50:38.15	293.52	9.16	-50.4	-52.3	15.8	6.00e-01	0	23	0	362283008	69	4526
2026-01-09 14:50:39.15	293.72	9.16	-50.4	-52.3	15.8	6.04e-01	0	23	0	363855872	69	4506
2026-01-09 14:50:40.15	293.92	9.16	-50.3	-52.2	15.8	6.05e-01	0	23	0	365953024	69	4486
2026-01-09 14:50:41.14	294.12	9.16	-50.4	-52.4	15.7	6.04e-01	0	23	0	368050176	69	4550
2026-01-09 14:50:42.14	294.32	9.16	-50.3	-52.2	15.8	6.02e-01	0	23	0	369623040	69	4474
2026-01-09 14:50:43.14	294.51	9.16	-50.3	-52.2	15.8	6.05e-01	0	23	0	371720192	69	4490
2026-01-09 14:50:44.13	294.71	9.15	-50.3	-52.3	15.8	6.02e-01	0	23	0	373293056	69	4503
2026-01-09 14:50:45.13	294.91	9.15	-50.4	-52.3	15.8	6.03e-01	0	23	0	375390208	69	4537
2026-01-09 14:50:46.13	295.11	9.15	-50.4	-52.3	15.8	6.03e-01	0	23	0	377487360	69	4519
2026-01-09 14:50:47.13	295.31	9.15	-50.4	-52.4	15.7	6.03e-01	0	23	0	379060224	69	4562
2026-01-09 14:50:48.13	295.51	9.14	-50.4	-52.3	15.8	6.05e-01	0	23	0	381157376	69	4540
2026-01-09 14:50:49.12	295.70	9.14	-50.4	-52.3	15.8	6.02e-01	0	23	0	382730240	69	4518
2026-01-09 14:50:50.11	295.90	9.14	-50.3	-52.3	15.8	6.03e-01	0	23	0	384827392	69	4498
2026-01-09 14:50:51.11	296.10	9.13	-50.3	-52.1	15.8	6.05e-01	0	23	0	386400256	69	4440
2026-01-09 14:50:52.11	296.30	9.13	-50.1	-52.0	15.9	6.03e-01	0	23	0	388497408	69	4371
2026-01-09 14:50:53.10	296.49	9.12	-50.2	-52.1	15.9	6.01e-01	0	23	0	390070272	69	4392
2026-01-09 14:50:54.09	296.69	9.12	-50.3	-52.2	15.8	6.04e-01	0	23	0	392167424	69	4461
2026-01-09 14:50:55.09	296.89	9.11	-50.3	-52.2	15.8	6.04e-01	0	23	0	394264576	69	4477
2026-01-09 14:50:56.09	297.09	9.11	-50.3	-52.2	15.8	6.02e-01	0	23	0	395837440	69	4493
2026-01-09 14:50:57.08	297.28	9.10	-50.2	-52.1	15.8	6.03e-01	0	23	0	397934592	69	4441
2026-01-09 14:50:58.08	297.48	9.10	-50.2	-52.1	15.8	6.05e-01	0	23	0	399507456	69	4436
2026-01-09 14:50:59.08	297.68	9.09	-50.2	-52.1	15.8	6.02e-01	0	23	0	401604608	69	4439
2026-01-09 14:51:00.08	297.88	9.08	-50.2	-52.1	15.9	6.02e-01	0	23	0	403177472	69	4431
2026-01-09 14:51:01.08	298.07	9.08	-50.2	-52.1	15.9	6.02e-01	0	23	0	405274624	69	4399
2026-01-09 14:51:02.06	298.27	9.07	-50.3	-52.3	15.8	6.04e-01	0	23	0	407371776	69	4494
2026-01-09 14:51:03.07	298.47	9.06	-50.3	-52.2	15.8	6.01e-01	0	23	0	408944640	69	4450
2026-01-09 14:51:04.06	298.66	9.06	-50.3	-52.3	15.8	6.03e-01	0	23	0	411041792	69	4508
2026-01-09 14:51:05.05	298.86	9.05	-50.3	-52.3	15.8	6.04e-01	0	23	0	412614656	69	4511
2026-01-09 14:51:06.04	299.05	9.04	-50.3	-52.2	15.8	6.04e-01	0	23	0	414711808	69	4466
2026-01-09 14:51:07.04	299.25	9.03	-50.3	-52.2	15.8	6.03e-01	0	23	0	416284672	69	4452
2026-01-09 14:51:08.04	299.45	9.02	-50.3	-52.2	15.8	6.03e-01	0	23	0	418381824	69	4479
2026-01-09 14:51:09.04	299.64	9.01	-50.4	-52.3	15.8	6.04e-01	0	23	0	419954688	69	4524
2026-01-09 14:51:10.04	299.84	9.00	-50.3	-52.3	15.8	6.03e-01	0	23	0	422051840	69	4504
2026-01-09 14:51:11.03	300.03	9.00	-50.3	-52.2	15.8	6.04e-01	0	23	0	424148992	69	4489
2026-01-09 14:51:12.02	300.23	8.99	-50.2	-52.1	15.8	6.03e-01	0	23	0	425721856	69	4422
2026-01-09 14:51:13.01	300.42	8.98	-50.2	-52.1	15.8	6.03e-01	0	23	0	427819008	69	4440
2026-01-09 14:51:14.01	300.62	8.97	-50.3	-52.2	15.8	6.06e-01	0	23	0	429391872	69	4490
2026-01-09 14:51:15.01	300.82	8.95	-50.2	-52.1	15.9	6.04e-01	0	23	0	431489024	69	4420
2026-01-09 14:51:16.01	301.01	8.94	-50.2	-52.1	15.9	6.05e-01	0	23	0	433061888	69	4420
2026-01-09 14:51:17.01	301.21	8.93	-50.1	-52.0	15.9	6.04e-01	0	23	0	435159040	69	4384
2026-01-09 14:51:18.01	301.40	8.92	-50.1	-52.0	15.9	6.05e-01	0	23	0	437256192	69	4377
2026-01-09 14:51:19.00	301.60	8.91	-50.1	-52.0	15.9	6.03e-01	0	23	0	438829056	69	4352
2026-01-09 14:51:20.00	301.79	8.90	-50.1	-52.0	15.9	6.02e-01	0	23	0	440926208	69	4378
2026-01-09 14:51:21.00	301.99	8.89	-50.2	-52.1	15.8	6.05e-01	0	23	0	442499072	69	4439
2026-01-09 14:51:21.99	302.18	8.87	-50.2	-52.2	15.8	6.02e-01	0	23	0	444596224	69	4442
2026-01-09 14:51:22.97	302.37	8.86	-50.2	-52.1	15.9	6.04e-01	0	23	0	446169088	69	4427
2026-01-09 14:51:23.97	302.56	8.85	-50.2	-52.1	15.8	6.00e-01	0	23	0	448266240	69	4437
2026-01-09 14:51:24.97	302.76	8.84	-50.2	-52.2	15.8	6.03e-01	0	23	0	449839104	69	4443
2026-01-09 14:51:25.97	302.95	8.82	-50.2	-52.1	15.9	6.05e-01	0	23	0	451936256	69	4401
2026-01-09 14:51:26.97	303.15	8.81	-50.1	-52.0	15.9	6.03e-01	0	23	0	454033408	69	4380
2026-01-09 14:51:27.97	303.34	8.79	-50.1	-52.0	15.9	6.04e-01	0	23	0	455606272	69	4372
2026-01-09 14:51:28.97	303.53	8.78	-50.1	-52.0	15.9	6.03e-01	0	23	0	457703424	69	4352
2026-01-09 14:51:29.96	303.72	8.77	-50.2	-52.1	15.9	6.03e-01	0	23	0	459276288	69	4395
2026-01-09 14:51:30.96	303.92	8.75	-50.2	-52.1	15.9	6.06e-01	0	23	0	461373440	69	4409
2026-01-09 14:51:31.95	304.11	8.74	-50.2	-52.1	15.8	6.00e-01	0	23	0	462946304	69	4438
2026-01-09 14:51:32.95	304.30	8.72	-50.3	-52.2	15.8	6.02e-01	0	23	0	465043456	69	4474
2026-01-09 14:51:33.95	304.49	8.71	-50.3	-52.3	15.8	6.03e-01	0	23	0	467140608	69	4516
2026-01-09 14:51:34.95	304.69	8.69	-50.3	-52.3	15.8	6.04e-01	0	23	0	468713472	69	4517
2026-01-09 14:51:35.95	304.88	8.67	-50.3	-52.3	15.8	6.01e-01	0	23	0	470810624	69	4498
2026-01-09 14:51:36.95	305.07	8.66	-50.3	-52.2	15.8	6.03e-01	0	23	0	472383488	69	4493
2026-01-09 14:51:37.95	305.26	8.64	-50.2	-52.1	15.8	6.01e-01	0	23	0	474480640	69	4435
2026-01-09 14:51:38.94	305.45	8.62	-50.2	-52.1	15.9	6.02e-01	0	23	0	476053504	69	4392
2026-01-09 14:51:39.93	305.64	8.61	-50.2	-52.1	15.8	6.02e-01	0	23	0	478150656	69	4437
2026-01-09 14:51:40.93	305.83	8.59	-50.1	-52.0	15.9	6.01e-01	0	23	0	479723520	69	4382
2026-01-09 14:51:41.92	306.02	8.57	-50.2	-52.1	15.9	6.01e-01	0	23	0	481820672	69	4405
2026-01-09 14:51:42.92	306.21	8.55	-50.1	-52.0	15.9	6.02e-01	0	23	0	483917824	69	4361
2026-01-09 14:51:43.92	306.40	8.54	-50.1	-52.0	15.9	6.02e-01	0	23	0	485490688	69	4378
2026-01-09 14:51:44.92	306.59	8.52	-50.2	-52.1	15.8	6.05e-01	0	23	0	487587840	69	4400
2026-01-09 14:51:45.91	306.78	8.50	-50.1	-52.1	15.8	6.03e-01	0	23	0	489160704	69	4394
2026-01-09 14:51:46.91	306.97	8.48	-50.0	-51.9	15.9	6.05e-01	0	23	0	491257856	69	4330
2026-01-09 14:51:47.91	307.16	8.46	-50.1	-52.0	15.9	6.03e-01	0	23	0	493355008	69	4363
2026-01-09 14:51:48.90	307.34	8.44	-50.2	-52.1	15.9	6.02e-01	0	23	0	494927872	69	4401
2026-01-09 14:51:49.90	307.53	8.42	-50.1	-52.0	15.9	6.03e-01	0	23	0	497025024	69	4383
2026-01-09 14:51:50.89	307.72	8.40	-50.2	-52.1	15.8	6.03e-01	0	23	0	498597888	69	4402
2026-01-09 14:51:51.89	307.91	8.38	-50.1	-52.0	15.9	6.02e-01	0	23	0	500695040	69	4380
2026-01-09 14:51:52.88	308.09	8.36	-50.0	-51.9	15.9	6.03e-01	0	23	0	502267904	69	4323
2026-01-09 14:51:53.88	308.28	8.34	-50.1	-52.0	15.9	6.02e-01	0	23	0	504365056	69	4359
2026-01-09 14:51:54.88	308.47	8.32	-50.2	-52.1	15.8	6.04e-01	0	23	0	505937920	69	4422
2026-01-09 14:51:55.87	308.65	8.30	-50.2	-52.1	15.8	6.01e-01	0	23	0	508035072	69	4437
2026-01-09 14:51:56.87	308.84	8.28	-50.2	-52.1	15.8	6.03e-01	0	23	0	510132224	69	4429
2026-01-09 14:51:57.86	309.02	8.26	-50.3	-52.3	15.8	6.05e-01	0	23	0	511705088	69	4521
2026-01-09 14:51:58.86	309.21	8.24	-50.2	-52.1	15.8	6.06e-01	0	23	0	513802240	69	4429
2026-01-09 14:51:59.86	309.39	8.22	-50.1	-52.0	15.9	6.03e-01	0	23	0	515375104	69	4391
2026-01-09 14:52:00.85	309.58	8.20	-50.1	-52.0	15.9	6.03e-01	0	23	0	517472256	69	4374
2026-01-09 14:52:01.85	309.76	8.17	-50.2	-52.1	15.8	6.04e-01	0	23	0	519045120	69	4418
2026-01-09 14:52:02.86	309.95	8.15	-50.1	-52.1	15.9	6.02e-01	0	23	0	521142272	69	4393
2026-01-09 14:52:03.86	310.13	8.13	-50.1	-52.0	15.9	6.04e-01	0	23	0	523239424	69	4386
2026-01-09 14:52:04.85	310.32	8.11	-50.2	-52.2	15.8	6.03e-01	0	23	0	524812288	69	4451
2026-01-09 14:52:05.85	310.50	8.08	-50.3	-52.3	15.8	6.05e-01	0	23	0	526909440	69	4501
2026-01-09 14:52:06.85	310.68	8.06	-50.3	-52.3	15.8	6.02e-01	0	23	0	528482304	69	4516
2026-01-09 14:52:07.84	310.87	8.04	-50.3	-52.2	15.8	6.03e-01	0	23	0	530579456	69	4492
2026-01-09 14:52:08.83	311.05	8.01	-50.2	-52.2	15.8	6.02e-01	0	23	0	532152320	69	4472
2026-01-09 14:52:09.83	311.23	7.99	-50.3	-52.2	15.8	6.04e-01	0	23	0	534249472	69	4487
2026-01-09 14:52:10.83	311.41	7.97	-50.3	-52.2	15.8	6.02e-01	0	23	0	535822336	69	4473
2026-01-09 14:52:11.83	311.59	7.94	-50.1	-52.0	15.9	6.03e-01	0	23	0	537919488	69	4386
2026-01-09 14:52:12.83	311.78	7.92	-50.2	-52.2	15.8	6.03e-01	0	23	0	540016640	69	4453
2026-01-09 14:52:13.83	311.96	7.89	-50.3	-52.2	15.8	6.06e-01	0	23	0	541589504	69	4487
2026-01-09 14:52:14.82	312.14	7.87	-50.2	-52.2	15.8	6.01e-01	0	23	0	543686656	69	4465
2026-01-09 14:52:15.82	312.32	7.84	-50.2	-52.1	15.8	6.03e-01	0	23	0	545259520	69	4441
2026-01-09 14:52:16.82	312.50	7.82	-50.3	-52.3	15.8	6.05e-01	0	23	0	547356672	69	4494
2026-01-09 14:52:17.82	312.68	7.79	-50.2	-52.2	15.8	6.02e-01	0	23	0	548929536	69	4467
2026-01-09 14:52:18.81	312.86	7.77	-50.3	-52.3	15.8	6.04e-01	0	23	0	551026688	69	4499
2026-01-09 14:52:19.81	313.03	7.74	-50.3	-52.3	15.7	6.03e-01	0	23	0	553123840	69	4536
2026-01-09 14:52:20.82	313.22	7.71	-50.3	-52.2	15.8	6.02e-01	0	23	0	554696704	69	4475
2026-01-09 14:52:21.82	313.39	7.69	-50.3	-52.2	15.8	6.01e-01	0	23	0	556793856	69	4488
2026-01-09 14:52:22.84	313.58	7.66	-50.3	-52.3	15.8	6.04e-01	0	23	0	558366720	69	4532
2026-01-09 14:52:23.84	313.75	7.63	-50.4	-52.4	15.7	6.02e-01	0	23	0	560463872	69	4571
2026-01-09 14:52:24.84	313.93	7.61	-50.3	-52.3	15.7	6.03e-01	0	23	0	562036736	69	4523
2026-01-09 14:52:25.84	314.11	7.58	-50.2	-52.2	15.8	6.03e-01	0	23	0	564133888	69	4461
2026-01-09 14:52:26.84	314.29	7.55	-50.2	-52.1	15.8	6.03e-01	0	23	0	566231040	69	4419
2026-01-09 14:52:27.83	314.46	7.53	-50.2	-52.2	15.8	6.04e-01	0	23	0	567803904	69	4480
2026-01-09 14:52:28.83	314.64	7.50	-50.3	-52.3	15.8	6.03e-01	0	23	0	569901056	69	4497
2026-01-09 14:52:29.84	314.81	7.47	-50.4	-52.4	15.7	6.01e-01	0	23	0	571473920	69	4597
2026-01-09 14:52:30.83	314.99	7.44	-50.6	-52.6	15.6	6.02e-01	0	23	0	573571072	69	4698
2026-01-09 14:52:31.82	315.16	7.41	-50.5	-52.6	15.6	6.01e-01	0	23	0	575668224	69	4654
2026-01-09 14:52:32.82	315.34	7.39	-50.4	-52.4	15.7	6.01e-01	0	23	0	577241088	69	4597
2026-01-09 14:52:33.83	315.51	7.36	-50.4	-52.5	15.7	6.02e-01	0	23	0	579338240	69	4602
2026-01-09 14:52:34.84	315.69	7.33	-50.5	-52.5	15.7	6.05e-01	0	23	0	580911104	69	4639
2026-01-09 14:52:35.83	315.86	7.30	-50.3	-52.3	15.7	6.02e-01	0	23	0	583008256	69	4510
2026-01-09 14:52:36.84	316.04	7.27	-50.3	-52.3	15.8	6.05e-01	0	23	0	584581120	69	4522
2026-01-09 14:52:37.84	316.21	7.24	-50.3	-52.2	15.8	6.05e-01	0	23	0	586678272	69	4490
2026-01-09 14:52:38.85	316.38	7.21	-50.3	-52.3	15.8	6.02e-01	0	23	0	588775424	69	4538
2026-01-09 14:52:39.86	316.56	7.18	-50.3	-52.3	15.8	6.04e-01	0	23	0	590348288	69	4496
2026-01-09 14:52:40.86	316.73	7.15	-50.3	-52.4	15.7	6.03e-01	0	23	0	592445440	69	4546
2026-01-09 14:52:41.85	316.90	7.12	-50.3	-52.3	15.8	6.03e-01	0	23	0	594018304	69	4522
2026-01-09 14:52:42.85	317.07	7.09	-50.2	-52.2	15.8	6.02e-01	0	23	0	596115456	69	4460
2026-01-09 14:52:43.84	317.24	7.06	-50.2	-52.2	15.8	6.03e-01	0	23	0	597688320	69	4484
2026-01-09 14:52:44.85	317.41	7.03	-50.3	-52.4	15.7	6.04e-01	0	23	0	599785472	69	4546
2026-01-09 14:52:45.84	317.58	7.00	-50.5	-52.5	15.7	6.04e-01	0	23	0	601882624	69	4643
2026-01-09 14:52:46.84	317.75	6.97	-50.5	-52.6	15.6	6.04e-01	0	23	0	603455488	69	4683
2026-01-09 14:52:47.84	317.92	6.94	-50.5	-52.5	15.6	6.03e-01	0	23	0	605552640	69	4650
2026-01-09 14:52:48.84	318.09	6.91	-50.5	-52.6	15.6	6.05e-01	0	23	0	607125504	69	4694
2026-01-09 14:52:49.84	318.26	6.88	-50.5	-52.5	15.6	6.02e-01	0	23	0	609222656	69	4651
2026-01-09 14:52:50.83	318.42	6.85	-50.4	-52.5	15.7	6.02e-01	0	23	0	610795520	69	4607
2026-01-09 14:52:51.84	318.59	6.82	-50.5	-52.5	15.6	6.02e-01	0	23	0	612892672	69	4631
2026-01-09 14:52:52.84	318.76	6.78	-50.6	-52.7	15.6	6.03e-01	0	23	0	614989824	69	4707
2026-01-09 14:52:53.84	318.93	6.75	-50.4	-52.5	15.7	6.02e-01	0	23	0	616562688	69	4622
2026-01-09 14:52:54.83	319.09	6.72	-50.4	-52.4	15.7	6.03e-01	0	23	0	618659840	69	4565
2026-01-09 14:52:55.83	319.26	6.69	-50.4	-52.4	15.7	6.03e-01	0	23	0	620232704	69	4596
2026-01-09 14:52:56.83	319.42	6.66	-50.3	-52.4	15.7	6.03e-01	0	23	0	622329856	69	4565
2026-01-09 14:52:57.83	319.59	6.62	-50.4	-52.4	15.7	6.02e-01	0	23	0	623902720	69	4595
2026-01-09 14:52:58.82	319.75	6.59	-50.4	-52.4	15.7	6.02e-01	0	23	0	625999872	69	4598
2026-01-09 14:52:59.81	319.92	6.56	-50.5	-52.5	15.6	6.02e-01	0	23	0	628097024	69	4649
2026-01-09 14:53:00.81	320.08	6.53	-50.5	-52.5	15.6	6.04e-01	0	23	0	629669888	69	4630
2026-01-09 14:53:01.81	320.24	6.49	-50.4	-52.4	15.7	6.03e-01	0	23	0	631767040	69	4581
2026-01-09 14:53:02.80	320.41	6.46	-50.4	-52.5	15.7	6.01e-01	0	23	0	633339904	69	4619
2026-01-09 14:53:03.79	320.57	6.43	-50.5	-52.5	15.6	6.03e-01	0	23	0	635437056	69	4641
2026-01-09 14:53:04.79	320.73	6.40	-50.6	-52.7	15.5	6.03e-01	0	23	0	637009920	69	4753
2026-01-09 14:53:05.80	320.89	6.36	-50.4	-52.4	15.6	6.05e-01	0	23	0	639107072	69	4591
2026-01-09 14:53:06.80	321.06	6.33	-50.4	-52.4	15.7	6.04e-01	0	23	0	641204224	69	4597
2026-01-09 14:53:07.80	321.22	6.29	-50.4	-52.5	15.7	6.04e-01	0	23	0	642777088	69	4603
2026-01-09 14:53:08.80	321.38	6.26	-50.5	-52.5	15.7	6.03e-01	0	23	0	644874240	69	4650
2026-01-09 14:53:09.81	321.54	6.23	-50.4	-52.4	15.7	6.03e-01	0	23	0	646447104	69	4575
2026-01-09 14:53:10.81	321.70	6.19	-50.4	-52.4	15.7	6.04e-01	0	23	0	648544256	69	4598
2026-01-09 14:53:11.81	321.86	6.16	-50.4	-52.5	15.6	6.02e-01	0	23	0	650641408	69	4611
2026-01-09 14:53:12.80	322.02	6.12	-50.5	-52.6	15.6	6.02e-01	0	23	0	652214272	69	4670
2026-01-09 14:53:13.80	322.18	6.09	-50.4	-52.5	15.7	6.05e-01	0	23	0	654311424	69	4617
2026-01-09 14:53:14.81	322.34	6.05	-50.6	-52.7	15.6	6.04e-01	0	23	0	655884288	69	4731
2026-01-09 14:53:15.81	322.50	6.02	-50.6	-52.7	15.5	6.03e-01	0	23	0	657981440	69	4750
2026-01-09 14:53:16.81	322.66	5.98	-50.6	-52.7	15.6	6.04e-01	0	23	0	659554304	69	4759
2026-01-09 14:53:17.81	322.81	5.95	-50.5	-52.6	15.6	6.02e-01	0	23	0	661651456	69	4695
2026-01-09 14:53:18.81	322.97	5.91	-50.6	-52.8	15.6	6.02e-01	0	23	0	663748608	69	4761
2026-01-09 14:53:19.82	323.13	5.88	-50.7	-52.8	15.5	6.03e-01	0	24	0	665321472	69	4800
2026-01-09 14:53:20.81	323.28	5.84	-50.6	-52.8	15.5	6.05e-01	0	23	0	667418624	69	4776
2026-01-09 14:53:21.80	323.44	5.81	-50.5	-52.6	15.6	6.03e-01	0	23	0	668991488	69	4675
2026-01-09 14:53:22.80	323.59	5.77	-50.6	-52.8	15.5	6.03e-01	0	23	0	671088640	69	4768
2026-01-09 14:53:23.80	323.75	5.74	-50.6	-52.8	15.5	6.03e-01	0	23	0	672661504	69	4784
2026-01-09 14:53:24.80	323.90	5.70	-50.6	-52.7	15.6	6.02e-01	0	23	0	674758656	69	4724
2026-01-09 14:53:25.80	324.06	5.67	-50.4	-52.5	15.6	6.04e-01	0	23	0	676331520	69	4628
2026-01-09 14:53:26.79	324.21	5.63	-50.5	-52.5	15.6	6.04e-01	0	23	0	678428672	69	4642
2026-01-09 14:53:27.79	324.36	5.59	-50.6	-52.7	15.6	6.05e-01	0	23	0	680525824	69	4741
2026-01-09 14:53:28.80	324.52	5.56	-50.7	-52.8	15.5	6.03e-01	0	23	0	682098688	69	4812
2026-01-09 14:53:29.80	324.67	5.52	-50.6	-52.7	15.6	6.02e-01	0	23	0	684195840	69	4758
2026-01-09 14:53:30.80	324.82	5.49	-50.7	-52.9	15.5	6.03e-01	0	23	0	686292992	69	4843
2026-01-09 14:53:31.80	324.98	5.45	-50.8	-53.0	15.5	6.02e-01	0	23	0	687865856	69	4879
2026-01-09 14:53:32.81	325.13	5.41	-50.8	-53.0	15.4	6.03e-01	0	23	0	689963008	69	4889
2026-01-09 14:53:33.80	325.28	5.38	-50.8	-53.0	15.4	6.04e-01	0	23	0	691535872	69	4904
2026-01-09 14:53:34.79	325.43	5.34	-50.8	-53.0	15.4	6.01e-01	0	23	0	693633024	69	4924
2026-01-09 14:53:35.79	325.58	5.30	-50.9	-53.1	15.4	6.05e-01	0	23	0	695205888	69	4969
2026-01-09 14:53:36.79	325.73	5.27	-50.8	-53.0	15.4	6.04e-01	0	23	0	697303040	69	4924
2026-01-09 14:53:37.79	325.88	5.23	-50.7	-52.9	15.5	6.03e-01	0	23	0	698875904	69	4845
2026-01-09 14:53:38.79	326.03	5.19	-50.7	-52.8	15.5	6.02e-01	0	23	0	700973056	69	4798
2026-01-09 14:53:39.79	326.17	5.15	-50.7	-52.8	15.5	6.00e-01	0	23	0	703070208	69	4800
2026-01-09 14:53:40.79	326.32	5.12	-50.6	-52.8	15.5	6.04e-01	0	23	0	704643072	69	4788
2026-01-09 14:53:41.79	326.47	5.08	-50.7	-52.9	15.5	6.02e-01	0	24	0	706740224	69	4862
2026-01-09 14:53:42.78	326.62	5.04	-50.7	-52.9	15.5	6.02e-01	0	24	0	708313088	69	4869
2026-01-09 14:53:43.78	326.76	5.00	-55.6	-61.4	12.8	6.05e-01	0	23	0	710410240	78	7650
2026-01-09 14:53:44.78	326.91	4.97	-57.6	-77.0	3.8	7.43e-01	0	23	104	710934528	83	34610
2026-01-09 14:53:45.78	327.06	4.93	-58.0	-77.3	3.8	7.46e-01	0	23	104	710934528	83	35930
2026-01-09 14:53:46.78	327.20	4.89	-58.4	-77.7	3.8	7.45e-01	0	24	104	710934528	84	35600
2026-01-09 14:53:47.78	327.35	4.85	-58.6	-78.0	3.8	7.46e-01	0	23	104	710934528	84	36528
2026-01-09 14:53:48.78	327.49	4.82	-58.8	-78.1	3.8	7.44e-01	0	23	104	710934528	85	34974
2026-01-09 14:53:49.78	327.64	4.78	-58.9	-78.2	3.8	7.48e-01	0	23	104	710934528	85	35474
2026-01-09 14:53:50.78	327.78	4.74	-59.0	-78.3	3.8	7.49e-01	0	23	104	710934528	85	35816
2026-01-09 14:53:51.78	327.93	4.70	-59.0	-78.4	3.8	7.42e-01	0	24	104	710934528	85	36237
2026-01-09 14:53:52.77	328.07	4.66	-59.1	-78.5	3.8	7.46e-01	0	24	104	710934528	85	36540
2026-01-09 14:53:53.77	328.21	4.62	-59.2	-78.5	3.8	7.48e-01	0	23	104	710934528	86	34790
2026-01-09 14:53:54.77	328.36	4.59	-59.2	-78.6	3.8	7.46e-01	0	24	104	710934528	86	35028
2026-01-09 14:53:55.77	328.50	4.55	-59.3	-78.6	3.8	7.47e-01	0	24	104	710934528	86	35111
2026-01-09 14:53:56.76	328.64	4.51	-59.3	-78.7	3.8	7.46e-01	0	24	104	710934528	86	35294
2026-01-09 14:53:57.75	328.78	4.47	-59.3	-78.7	3.8	7.47e-01	0	24	104	710934528	86	35342
2026-01-09 14:53:58.73	328.92	4.43	-59.3	-78.7	3.8	7.50e-01	0	24	104	710934528	86	35319
2026-01-09 14:53:59.72	329.06	4.39	-59.3	-78.7	3.8	7.47e-01	0	24	104	710934528	86	35393
2026-01-09 14:54:00.72	329.20	4.36	-59.3	-78.7	3.8	7.48e-01	0	24	104	710934528	86	35520
2026-01-09 14:54:01.72	329.34	4.32	-59.3	-78.7	3.8	7.48e-01	0	24	104	710934528	86	35444
2026-01-09 14:54:02.72	329.48	4.28	-59.3	-78.7	3.8	7.45e-01	0	24	104	710934528	86	35320
2026-01-09 14:54:03.72	329.62	4.24	-59.3	-78.7	3.8	7.47e-01	0	23	104	710934528	86	35313
2026-01-09 14:54:04.72	329.75	4.20	-59.3	-78.6	3.8	7.45e-01	0	24	104	710934528	86	35243
2026-01-09 14:54:05.72	329.89	4.16	-59.2	-78.6	3.8	7.45e-01	0	24	104	710934528	86	35138
2026-01-09 14:54:06.72	330.03	4.12	-59.2	-78.6	3.8	7.46e-01	0	23	104	710934528	86	34884
2026-01-09 14:54:07.72	330.17	4.08	-59.2	-78.6	3.8	7.48e-01	0	23	104	710934528	86	34904
2026-01-09 14:54:08.72	330.31	4.04	-59.2	-78.5	3.8	7.47e-01	0	24	104	710934528	86	34778
2026-01-09 14:54:09.72	330.44	4.00	-59.2	-78.5	3.8	7.48e-01	0	24	104	710934528	86	34816
2026-01-09 14:54:10.72	330.58	3.96	-59.2	-78.5	3.8	7.47e-01	0	23	104	710934528	86	34815
2026-01-09 14:54:11.71	330.71	3.92	-59.2	-78.5	3.8	7.43e-01	0	24	104	710934528	86	34646
2026-01-09 14:54:12.72	330.85	3.88	-59.2	-78.5	3.8	7.48e-01	0	24	104	710934528	86	34619
2026-01-09 14:54:13.71	330.99	3.84	-59.1	-78.5	3.8	7.47e-01	0	24	104	710934528	86	34659
2026-01-09 14:54:14.71	331.12	3.81	-59.1	-78.5	3.8	7.46e-01	0	24	104	710934528	86	34655
2026-01-09 14:54:15.70	331.25	3.77	-59.1	-78.5	3.8	7.47e-01	0	24	104	710934528	86	34621
2026-01-09 14:54:16.70	331.39	3.73	-59.1	-78.5	3.8	7.50e-01	0	24	104	710934528	86	34549
2026-01-09 14:54:17.70	331.52	3.69	-59.1	-78.4	3.8	7.42e-01	0	24	104	710934528	86	34460
2026-01-09 14:54:18.70	331.65	3.65	-59.1	-78.5	3.8	7.45e-01	0	24	104	710934528	86	34487
2026-01-09 14:54:19.70	331.79	3.61	-59.1	-78.4	3.8	7.47e-01	0	24	104	710934528	86	34464
2026-01-09 14:54:20.71	331.92	3.57	-59.1	-78.4	3.8	7.49e-01	0	24	104	710934528	86	34321
2026-01-09 14:54:21.71	332.05	3.53	-59.1	-78.4	3.8	7.46e-01	0	23	104	710934528	86	34317
2026-01-09 14:54:22.72	332.19	3.48	-59.1	-78.4	3.8	7.46e-01	0	24	104	710934528	86	34381
2026-01-09 14:54:23.72	332.32	3.44	-59.1	-78.4	3.8	7.47e-01	0	24	104	710934528	86	34351
2026-01-09 14:54:24.72	332.45	3.40	-59.1	-78.4	3.8	7.47e-01	0	24	104	710934528	86	34414
2026-01-09 14:54:25.72	332.58	3.36	-59.1	-78.4	3.8	7.46e-01	0	24	104	710934528	86	34345
2026-01-09 14:54:26.72	332.71	3.32	-59.1	-78.4	3.8	7.43e-01	0	24	104	710934528	86	34292
2026-01-09 14:54:27.71	332.84	3.28	-59.1	-78.4	3.8	7.44e-01	0	24	104	710934528	86	34338
2026-01-09 14:54:28.72	332.97	3.24	-59.1	-78.4	3.8	7.44e-01	0	24	104	710934528	86	34312
2026-01-09 14:54:29.72	333.10	3.20	-59.1	-78.4	3.8	7.46e-01	0	24	104	710934528	86	34351
2026-01-09 14:54:30.72	333.23	3.16	-59.1	-78.4	3.8	7.47e-01	0	24	104	710934528	86	34272
2026-01-09 14:54:31.72	333.36	3.12	-59.1	-78.4	3.8	7.46e-01	0	23	104	710934528	86	34315
2026-01-09 14:54:32.72	333.49	3.08	-59.0	-78.4	3.8	7.43e-01	0	24	104	710934528	86	34311
2026-01-09 14:54:33.73	333.61	3.04	-59.0	-78.4	3.8	7.50e-01	0	24	104	710934528	86	34296
2026-01-09 14:54:34.72	333.74	3.00	-59.1	-78.4	3.8	7.48e-01	0	24	104	710934528	86	34342
2026-01-09 14:54:35.72	333.87	2.96	-59.0	-78.4	3.8	7.44e-01	0	24	104	710934528	86	34272
2026-01-09 14:54:36.73	334.00	2.92	-59.0	-78.4	3.8	7.45e-01	0	24	104	710934528	86	34261
2026-01-09 14:54:37.72	334.12	2.88	-59.0	-78.4	3.8	7.42e-01	0	24	104	710934528	86	34173
2026-01-09 14:54:38.72	334.25	2.84	-59.0	-78.4	3.8	7.47e-01	0	24	104	710934528	86	34215
2026-01-09 14:54:39.72	334.37	2.79	-59.0	-78.4	3.8	7.44e-01	0	24	104	710934528	86	34140
2026-01-09 14:54:40.72	334.50	2.75	-59.0	-78.4	3.8	7.48e-01	0	24	104	710934528	86	34167
2026-01-09 14:54:41.72	334.62	2.71	-59.0	-78.4	3.8	7.47e-01	0	24	104	710934528	86	34210
2026-01-09 14:54:42.72	334.75	2.67	-59.0	-78.4	3.8	7.47e-01	0	23	104	710934528	86	34248
2026-01-09 14:54:43.72	334.87	2.63	-59.0	-78.4	3.8	7.46e-01	0	24	104	710934528	86	34133
2026-01-09 14:54:44.72	334.99	2.59	-59.0	-78.4	3.8	7.47e-01	0	24	104	710934528	86	34192
2026-01-09 14:54:45.72	335.12	2.55	-59.0	-78.4	3.8	7.45e-01	0	24	104	710934528	86	34145
2026-01-09 14:54:46.72	335.24	2.51	-59.0	-78.4	3.8	7.46e-01	0	24	104	710934528	86	34212
2026-01-09 14:54:47.72	335.36	2.47	-59.0	-78.4	3.8	7.46e-01	0	24	104	710934528	86	34146
2026-01-09 14:54:48.72	335.49	2.43	-59.0	-78.4	3.8	7.46e-01	0	24	104	710934528	86	34110
2026-01-09 14:54:49.71	335.61	2.38	-59.0	-78.3	3.8	7.45e-01	0	24	104	710934528	86	34035
2026-01-09 14:54:50.71	335.73	2.34	-59.0	-78.3	3.8	7.46e-01	0	24	104	710934528	86	34005
2026-01-09 14:54:51.71	335.85	2.30	-59.0	-78.3	3.8	7.46e-01	0	24	104	710934528	86	34021
2026-01-09 14:54:52.70	335.97	2.26	-59.0	-78.3	3.8	7.43e-01	0	24	104	710934528	86	33992
2026-01-09 14:54:53.69	336.09	2.22	-59.0	-78.3	3.8	7.46e-01	0	24	104	710934528	86	33946
2026-01-09 14:54:54.69	336.21	2.18	-59.0	-78.3	3.8	7.46e-01	0	24	104	710934528	86	34019
2026-01-09 14:54:55.68	336.33	2.14	-59.0	-78.3	3.8	7.44e-01	0	24	104	710934528	86	33979
2026-01-09 14:54:56.68	336.45	2.10	-59.0	-78.3	3.8	7.45e-01	0	24	104	710934528	86	34063
2026-01-09 14:54:57.67	336.56	2.06	-59.0	-78.3	3.8	7.44e-01	0	24	104	710934528	86	33904
2026-01-09 14:54:58.67	336.68	2.01	-59.0	-78.3	3.8	7.43e-01	0	24	104	710934528	86	34056
2026-01-09 14:54:59.67	336.80	1.97	-59.0	-78.3	3.8	7.47e-01	0	24	104	710934528	86	34039

#Closed at: 2026-01-09 14:55:00
#Recorded file [710 MB]: D:/lorett/data/31004_260109_174616.dat