passes_logs/2026/01/09/R3.2S_Murmansk/R3.2S_Murmansk__20260109_040416_FENGYUN_3D_rec.log

#Pass ID: 20260109_040416_FENGYUN 3D
#Satellite: FENGYUN 3D
#Configuration: FENGYUN 3D
#almurnet v.1.7.20251203
#Start time: 2026-01-09 04:04:16

#Version: 2.2.20231116
#Station: R3.2S_Murmansk
#Location: 33.079688 lon 68.888172 lat
#TLE: 1 43010U 17072A   26008.59015185 -.00000067  00000+0 -98204-5 0  9997
#TLE: 2 43010  98.9935 340.3069 0002117 119.1923 240.9464 14.19693468422340

#Time	Az	El	Level	Level2	SNR	BER	BlckErr	Temp	State	Recorded	gain1	gain2
2026-01-09 04:04:16.89	31.40	2.01	-57.1	-70.1	3.8	8.45e-01	0	21	0	0	80	16084
2026-01-09 04:04:17.89	31.38	2.07	-57.1	-70.1	3.8	8.46e-01	0	22	104	0	79	16978
2026-01-09 04:04:18.89	31.35	2.13	-57.1	-70.1	3.8	8.44e-01	0	22	104	0	79	16968
2026-01-09 04:04:19.89	31.32	2.20	-57.1	-70.1	3.8	8.45e-01	0	22	104	0	79	16922
2026-01-09 04:04:20.88	31.29	2.26	-57.1	-70.1	3.8	8.45e-01	0	22	104	0	79	16947
2026-01-09 04:04:21.88	31.27	2.32	-57.1	-70.1	3.8	8.46e-01	0	22	104	0	79	17004
2026-01-09 04:04:22.88	31.24	2.39	-57.1	-70.1	3.8	8.47e-01	0	22	104	0	79	16967
2026-01-09 04:04:23.88	31.21	2.45	-57.1	-70.1	3.8	8.46e-01	0	22	104	0	79	16944
2026-01-09 04:04:24.88	31.18	2.51	-57.1	-70.1	3.8	8.45e-01	0	22	104	0	79	17033
2026-01-09 04:04:25.88	31.15	2.58	-57.1	-70.1	3.8	8.46e-01	0	22	104	0	79	16969
2026-01-09 04:04:26.88	31.12	2.64	-57.1	-70.1	3.8	8.46e-01	0	22	104	0	79	17040
2026-01-09 04:04:27.87	31.10	2.70	-57.1	-70.1	3.8	8.45e-01	0	22	104	0	79	17043
2026-01-09 04:04:28.87	31.07	2.77	-57.1	-70.1	3.8	8.46e-01	0	22	104	0	79	16974
2026-01-09 04:04:29.86	31.04	2.83	-57.1	-70.1	3.8	8.45e-01	0	22	104	0	79	16936
2026-01-09 04:04:30.86	31.01	2.90	-57.1	-70.0	3.8	8.46e-01	0	22	104	0	79	16876
2026-01-09 04:04:31.86	30.98	2.96	-57.1	-70.0	3.8	8.45e-01	0	22	104	0	79	16850
2026-01-09 04:04:32.86	30.95	3.02	-57.1	-70.1	3.8	8.45e-01	0	22	104	0	79	16889
2026-01-09 04:04:33.86	30.92	3.09	-57.1	-70.1	3.8	8.45e-01	0	22	104	0	79	16943
2026-01-09 04:04:34.86	30.89	3.15	-57.1	-70.1	3.8	8.47e-01	0	22	104	0	79	17028
2026-01-09 04:04:35.86	30.86	3.22	-57.1	-70.0	3.8	8.45e-01	0	23	104	0	79	16873
2026-01-09 04:04:36.86	30.83	3.28	-57.1	-70.0	3.8	8.46e-01	0	22	104	0	79	16710
2026-01-09 04:04:37.86	30.80	3.35	-57.1	-69.8	3.8	8.47e-01	0	22	104	0	79	16430
2026-01-09 04:04:38.86	30.77	3.42	-57.1	-69.6	3.8	8.45e-01	0	22	104	0	79	16099
2026-01-09 04:04:39.86	30.74	3.48	-57.1	-69.4	3.8	8.45e-01	0	22	104	0	79	15605
2026-01-09 04:04:40.86	30.71	3.55	-57.1	-69.3	3.8	8.46e-01	0	22	104	0	79	15447
2026-01-09 04:04:41.85	30.68	3.61	-57.0	-69.1	3.8	8.47e-01	0	22	104	0	79	15129
2026-01-09 04:04:42.85	30.65	3.68	-57.0	-68.9	3.8	8.45e-01	0	22	104	0	79	14861
2026-01-09 04:04:43.84	30.62	3.74	-57.0	-68.6	3.8	8.46e-01	0	22	104	0	79	14303
2026-01-09 04:04:44.85	30.58	3.81	-57.0	-68.2	3.8	8.44e-01	0	22	104	0	79	13698
2026-01-09 04:04:45.85	30.55	3.88	-56.9	-67.9	3.9	8.45e-01	0	22	104	0	79	13154
2026-01-09 04:04:46.85	30.52	3.94	-56.9	-67.8	3.9	8.43e-01	0	22	104	0	79	12981
2026-01-09 04:04:47.85	30.49	4.01	-56.9	-67.5	3.8	8.42e-01	0	23	104	0	79	12656
2026-01-09 04:04:48.85	30.46	4.08	-56.9	-67.2	4.0	8.43e-01	0	22	104	0	79	12116
2026-01-09 04:04:49.85	30.42	4.15	-56.8	-66.9	4.1	8.39e-01	0	23	0	0	79	11729
2026-01-09 04:04:50.85	30.39	4.21	-56.8	-66.3	4.3	8.35e-01	0	23	0	0	79	10987
2026-01-09 04:04:51.85	30.36	4.28	-56.7	-65.8	4.4	8.33e-01	0	23	0	0	79	10303
2026-01-09 04:04:52.85	30.33	4.35	-56.6	-65.3	4.6	8.14e-01	0	23	0	0	79	9725
2026-01-09 04:04:53.85	30.29	4.42	-56.5	-64.4	5.0	7.79e-01	0	23	0	0	79	8848
2026-01-09 04:04:54.85	30.26	4.48	-56.4	-63.6	5.5	6.71e-01	0	22	0	0	79	8006
2026-01-09 04:04:55.85	30.23	4.55	-56.2	-62.8	6.0	3.77e-01	0	23	0	5242880	79	7304
2026-01-09 04:04:56.85	30.19	4.62	-55.9	-61.9	6.6	2.11e-01	0	23	0	10485760	78	7034
2026-01-09 04:04:57.85	30.16	4.69	-55.6	-60.8	7.6	9.96e-02	0	23	0	16777216	77	6524
2026-01-09 04:04:58.85	30.13	4.76	-55.5	-60.7	7.7	6.58e-02	0	23	0	22020096	77	6436
2026-01-09 04:04:59.84	30.09	4.83	-55.3	-60.1	8.3	4.69e-02	0	23	0	28311552	77	5993
2026-01-09 04:05:00.84	30.06	4.89	-55.1	-59.6	8.6	2.28e-02	0	23	0	33554432	76	6037
2026-01-09 04:05:01.84	30.02	4.96	-55.1	-59.6	8.6	2.38e-02	0	23	0	38797312	76	6022
2026-01-09 04:05:02.83	29.99	5.03	-55.1	-59.6	8.7	2.64e-02	0	23	0	44040192	76	6019
2026-01-09 04:05:03.83	29.96	5.10	-56.0	-61.8	7.0	2.77e-02	0	23	0	50331648	77	7306
2026-01-09 04:05:04.83	29.92	5.17	-56.3	-62.6	6.3	2.23e-01	0	23	0	55574528	77	8057
2026-01-09 04:05:05.82	29.89	5.24	-55.9	-62.0	6.6	3.42e-02	0	23	0	60817408	77	7467
2026-01-09 04:05:06.83	29.85	5.31	-52.5	-54.8	12.5	1.58e-03	0	23	0	67108864	71	4605
2026-01-09 04:05:07.82	29.82	5.38	-56.6	-64.7	5.0	2.18e-02	0	23	0	72351744	78	9633
2026-01-09 04:05:08.82	29.78	5.45	-53.0	-55.5	12.1	4.21e-03	0	23	0	75497472	72	4715
2026-01-09 04:05:09.82	29.74	5.52	-51.1	-52.9	13.6	0.00e+00	0	23	0	80740352	68	4435
2026-01-09 04:05:10.82	29.71	5.59	-49.7	-51.3	14.4	0.00e+00	0	23	0	87031808	66	4101
2026-01-09 04:05:11.82	29.67	5.66	-49.1	-50.6	14.5	0.00e+00	0	23	0	92274688	64	4253
2026-01-09 04:05:12.82	29.64	5.73	-49.1	-50.6	14.5	0.00e+00	0	23	0	97517568	64	4268
2026-01-09 04:05:13.82	29.60	5.81	-48.9	-50.3	14.7	0.00e+00	0	23	0	103809024	64	4131
2026-01-09 04:05:14.81	29.56	5.88	-48.8	-50.3	14.8	0.00e+00	0	23	0	109051904	64	4112
2026-01-09 04:05:15.81	29.53	5.95	-48.8	-50.3	14.8	0.00e+00	0	23	0	114294784	64	4101
2026-01-09 04:05:16.81	29.49	6.02	-48.8	-50.2	14.8	0.00e+00	0	23	0	120586240	64	4088
2026-01-09 04:05:17.80	29.45	6.09	-48.9	-50.4	14.7	0.00e+00	0	23	0	125829120	64	4146
2026-01-09 04:05:18.79	29.41	6.16	-49.0	-50.5	14.6	0.00e+00	0	23	0	131072000	64	4218
2026-01-09 04:05:19.79	29.38	6.23	-48.8	-50.3	14.8	0.00e+00	0	23	0	137363456	64	4099
2026-01-09 04:05:20.79	29.34	6.31	-48.9	-50.3	14.8	0.00e+00	0	23	0	142606336	64	4109
2026-01-09 04:05:21.78	29.30	6.38	-48.9	-50.4	14.7	0.00e+00	0	23	0	147849216	64	4150
2026-01-09 04:05:22.77	29.26	6.45	-48.9	-50.3	14.7	0.00e+00	0	23	0	154140672	64	4129
2026-01-09 04:05:23.77	29.22	6.52	-48.8	-50.2	14.8	0.00e+00	0	23	0	159383552	64	4094
2026-01-09 04:05:24.77	29.18	6.60	-48.7	-50.1	14.7	0.00e+00	0	23	0	164626432	63	4259
2026-01-09 04:05:25.76	29.15	6.67	-48.7	-50.2	14.7	0.00e+00	0	23	0	170917888	63	4295
2026-01-09 04:05:26.76	29.11	6.74	-48.8	-50.3	14.6	0.00e+00	0	23	0	176160768	63	4355
2026-01-09 04:05:27.75	29.07	6.82	-48.8	-50.2	14.7	0.00e+00	0	23	0	182452224	63	4300
2026-01-09 04:05:28.74	29.03	6.89	-48.8	-50.2	14.7	0.00e+00	0	23	0	187695104	63	4304
2026-01-09 04:05:29.74	28.99	6.96	-48.8	-50.3	14.7	0.00e+00	0	23	0	192937984	63	4352
2026-01-09 04:05:30.75	28.95	7.04	-48.7	-50.1	14.7	0.00e+00	0	23	0	199229440	63	4267
2026-01-09 04:05:31.75	28.91	7.11	-48.8	-50.3	14.7	0.00e+00	0	23	0	204472320	63	4346
2026-01-09 04:05:32.75	28.87	7.19	-48.7	-50.1	14.7	0.00e+00	0	23	0	209715200	63	4269
2026-01-09 04:05:33.74	28.83	7.26	-48.8	-50.2	14.7	0.00e+00	0	23	0	214958080	63	4319
2026-01-09 04:05:34.74	28.78	7.34	-48.7	-50.1	14.7	0.00e+00	0	23	0	221249536	63	4284
2026-01-09 04:05:35.75	28.74	7.42	-48.8	-50.2	14.7	0.00e+00	0	23	0	226492416	63	4321
2026-01-09 04:05:36.76	28.70	7.49	-48.9	-50.3	14.6	0.00e+00	0	23	0	232783872	63	4369
2026-01-09 04:05:37.76	28.66	7.57	-48.9	-50.4	14.6	0.00e+00	0	23	0	238026752	63	4399
2026-01-09 04:05:38.76	28.62	7.64	-48.8	-50.2	14.7	0.00e+00	0	23	0	244318208	63	4313
2026-01-09 04:05:39.75	28.57	7.72	-48.8	-50.2	14.7	0.00e+00	0	23	0	249561088	63	4302
2026-01-09 04:05:40.75	28.53	7.80	-48.9	-50.3	14.6	0.00e+00	0	23	0	254803968	63	4373
2026-01-09 04:05:41.74	28.49	7.87	-48.8	-50.2	14.7	0.00e+00	0	23	0	260046848	63	4318
2026-01-09 04:05:42.74	28.45	7.95	-48.8	-50.2	14.7	0.00e+00	0	23	0	266338304	63	4296
2026-01-09 04:05:43.73	28.40	8.03	-48.9	-50.4	14.6	0.00e+00	0	23	0	271581184	63	4399
2026-01-09 04:05:44.74	28.36	8.10	-49.0	-50.4	14.6	0.00e+00	0	23	0	277872640	63	4422
2026-01-09 04:05:45.75	28.32	8.18	-48.9	-50.3	14.6	0.00e+00	0	23	0	283115520	63	4378
2026-01-09 04:05:46.74	28.27	8.26	-49.0	-50.5	14.6	0.00e+00	0	23	0	288358400	63	4442
2026-01-09 04:05:47.75	28.23	8.34	-49.1	-50.5	14.5	0.00e+00	0	23	0	294649856	63	4480
2026-01-09 04:05:48.75	28.18	8.42	-49.0	-50.4	14.6	0.00e+00	0	23	0	299892736	63	4427
2026-01-09 04:05:49.75	28.14	8.49	-49.0	-50.5	14.5	0.00e+00	0	23	0	306184192	63	4455
2026-01-09 04:05:50.74	28.09	8.57	-49.0	-50.4	14.6	0.00e+00	0	23	0	311427072	63	4441
2026-01-09 04:05:51.75	28.05	8.65	-48.5	-49.9	14.9	0.00e+00	0	23	0	316669952	63	4169
2026-01-09 04:05:52.75	28.00	8.73	-48.7	-50.1	14.8	0.00e+00	0	23	0	322961408	63	4243
2026-01-09 04:05:53.75	27.96	8.81	-48.5	-49.9	14.9	0.00e+00	0	23	0	328204288	63	4169
2026-01-09 04:05:54.75	27.91	8.89	-48.5	-49.9	14.9	0.00e+00	0	23	0	333447168	63	4170
2026-01-09 04:05:55.75	27.86	8.97	-48.5	-49.9	14.9	0.00e+00	0	23	0	339738624	63	4155
2026-01-09 04:05:56.74	27.82	9.05	-48.7	-50.0	14.8	0.00e+00	0	23	0	344981504	63	4237
2026-01-09 04:05:57.74	27.77	9.13	-48.7	-50.1	14.8	0.00e+00	0	23	0	350224384	63	4249
2026-01-09 04:05:58.74	27.72	9.21	-48.5	-49.9	14.9	0.00e+00	0	23	0	356515840	63	4167
2026-01-09 04:05:59.74	27.68	9.29	-48.4	-49.7	15.0	0.00e+00	0	23	0	361758720	63	4095
2026-01-09 04:06:00.74	27.63	9.37	-48.3	-49.6	15.1	0.00e+00	0	23	0	367001600	63	4047
2026-01-09 04:06:01.74	27.58	9.45	-48.4	-49.7	15.0	0.00e+00	0	23	0	373293056	63	4084
2026-01-09 04:06:02.73	27.53	9.54	-48.3	-49.7	15.0	0.00e+00	0	23	0	378535936	63	4058
2026-01-09 04:06:03.74	27.48	9.62	-48.3	-49.7	15.0	0.00e+00	0	23	0	383778816	63	4064
2026-01-09 04:06:04.73	27.43	9.70	-48.0	-49.3	15.0	0.00e+00	0	23	0	390070272	62	4130
2026-01-09 04:06:05.72	27.38	9.78	-48.1	-49.5	15.0	0.00e+00	0	23	0	395313152	62	4195
2026-01-09 04:06:06.72	27.34	9.86	-48.2	-49.5	15.0	0.00e+00	0	24	0	400556032	62	4209
2026-01-09 04:06:07.72	27.29	9.95	-48.2	-49.5	14.9	0.00e+00	0	23	0	406847488	62	4221
2026-01-09 04:06:08.71	27.24	10.03	-48.1	-49.4	15.0	0.00e+00	0	23	0	412090368	62	4180
2026-01-09 04:06:09.71	27.18	10.11	-48.0	-49.3	15.1	0.00e+00	0	23	0	418381824	62	4122
2026-01-09 04:06:10.70	27.13	10.19	-48.0	-49.3	15.1	0.00e+00	0	23	0	423624704	62	4113
2026-01-09 04:06:11.69	27.08	10.28	-48.0	-49.2	15.1	0.00e+00	0	23	0	428867584	62	4091
2026-01-09 04:06:12.69	27.03	10.36	-48.0	-49.3	15.0	0.00e+00	0	23	0	434110464	62	4124
2026-01-09 04:06:13.68	26.98	10.45	-47.9	-49.2	15.1	0.00e+00	0	23	0	440401920	62	4070
2026-01-09 04:06:14.68	26.93	10.53	-47.8	-49.1	15.2	0.00e+00	0	23	0	445644800	62	4035
2026-01-09 04:06:15.67	26.88	10.61	-47.8	-49.1	15.2	0.00e+00	0	23	0	450887680	62	4032
2026-01-09 04:06:16.66	26.82	10.70	-47.8	-49.1	15.2	0.00e+00	0	23	0	457179136	62	4040
2026-01-09 04:06:17.66	26.77	10.78	-47.8	-49.1	15.2	0.00e+00	0	23	0	462422016	62	4025
2026-01-09 04:06:18.66	26.72	10.87	-47.8	-49.1	15.2	0.00e+00	0	24	0	468713472	62	4009
2026-01-09 04:06:19.65	26.67	10.95	-47.8	-49.0	15.2	0.00e+00	0	23	0	473956352	62	3992
2026-01-09 04:06:20.65	26.61	11.04	-47.8	-49.1	15.2	0.00e+00	0	23	0	479199232	62	4005
2026-01-09 04:06:21.65	26.56	11.13	-47.6	-48.8	15.2	0.00e+00	0	23	0	485490688	61	4121
2026-01-09 04:06:22.65	26.50	11.21	-47.7	-48.9	15.1	0.00e+00	0	23	0	490733568	61	4193
2026-01-09 04:06:23.65	26.45	11.30	-47.7	-49.0	15.1	0.00e+00	0	23	0	495976448	61	4230
2026-01-09 04:06:24.66	26.39	11.39	-47.6	-48.8	15.1	0.00e+00	0	23	0	502267904	61	4131
2026-01-09 04:06:25.66	26.33	11.48	-47.5	-48.8	15.2	0.00e+00	0	23	0	507510784	61	4119
2026-01-09 04:06:26.66	26.28	11.57	-47.5	-48.8	15.2	0.00e+00	0	24	0	513802240	61	4109
2026-01-09 04:06:27.66	26.22	11.65	-47.6	-48.8	15.2	0.00e+00	0	23	0	519045120	61	4129
2026-01-09 04:06:28.66	26.16	11.74	-47.7	-48.9	15.1	0.00e+00	0	23	0	524288000	61	4188
2026-01-09 04:06:29.65	26.11	11.83	-47.5	-48.8	15.2	0.00e+00	0	23	0	530579456	61	4103
2026-01-09 04:06:30.65	26.05	11.92	-47.5	-48.7	15.2	0.00e+00	0	24	0	535822336	61	4085
2026-01-09 04:06:31.64	25.99	12.01	-47.6	-48.8	15.2	0.00e+00	0	23	0	541065216	61	4136
2026-01-09 04:06:32.64	25.93	12.10	-47.5	-48.7	15.2	0.00e+00	0	23	0	547356672	61	4080
2026-01-09 04:06:33.64	25.88	12.19	-47.5	-48.7	15.2	0.00e+00	0	24	0	552599552	61	4083
2026-01-09 04:06:34.64	25.82	12.28	-47.5	-48.8	15.2	0.00e+00	0	24	0	557842432	61	4110
2026-01-09 04:06:35.64	25.76	12.37	-47.5	-48.7	15.2	0.00e+00	0	23	0	564133888	61	4080
2026-01-09 04:06:36.64	25.70	12.46	-47.5	-48.7	15.2	0.00e+00	0	24	0	569376768	61	4087
2026-01-09 04:06:37.65	25.64	12.55	-47.5	-48.7	15.2	0.00e+00	0	23	0	575668224	61	4086
2026-01-09 04:06:38.64	25.58	12.64	-47.3	-48.5	15.3	0.00e+00	0	23	0	580911104	61	3996
2026-01-09 04:06:39.64	25.51	12.73	-47.3	-48.5	15.3	0.00e+00	0	23	0	586153984	61	3978
2026-01-09 04:06:40.65	25.45	12.83	-47.5	-48.7	15.2	0.00e+00	0	24	0	592445440	61	4083
2026-01-09 04:06:41.64	25.39	12.92	-47.3	-48.5	15.3	0.00e+00	0	23	0	597688320	61	3969
2026-01-09 04:06:42.64	25.33	13.01	-47.3	-48.5	15.3	0.00e+00	0	23	0	602931200	61	4003
2026-01-09 04:06:43.64	25.27	13.10	-47.3	-48.6	15.3	0.00e+00	0	24	0	608174080	61	4006
2026-01-09 04:06:44.63	25.20	13.20	-47.3	-48.5	15.3	0.00e+00	0	24	0	614465536	61	3996
2026-01-09 04:06:45.63	25.14	13.29	-47.4	-48.6	15.3	0.00e+00	0	23	0	619708416	61	4038
2026-01-09 04:06:46.63	25.08	13.38	-47.2	-48.4	15.3	0.00e+00	0	23	0	625999872	61	3954
2026-01-09 04:06:47.63	25.01	13.48	-47.1	-48.3	15.2	0.00e+00	0	23	0	631242752	60	4121
2026-01-09 04:06:48.62	24.95	13.57	-47.1	-48.3	15.2	0.00e+00	0	24	0	636485632	60	4136
2026-01-09 04:06:49.62	24.88	13.67	-47.0	-48.2	15.3	0.00e+00	0	24	0	642777088	60	4089
2026-01-09 04:06:50.62	24.82	13.76	-47.0	-48.2	15.3	0.00e+00	0	24	0	648019968	60	4072
2026-01-09 04:06:51.61	24.75	13.86	-47.1	-48.3	15.2	0.00e+00	0	24	0	653262848	60	4126
2026-01-09 04:06:52.61	24.68	13.95	-47.0	-48.2	15.3	0.00e+00	0	24	0	659554304	60	4084
2026-01-09 04:06:53.60	24.62	14.05	-47.0	-48.2	15.3	0.00e+00	0	24	0	664797184	60	4082
2026-01-09 04:06:54.59	24.55	14.15	-47.0	-48.1	15.3	0.00e+00	0	23	0	670040064	60	4049
2026-01-09 04:06:55.58	24.48	14.24	-47.0	-48.2	15.3	0.00e+00	0	24	0	676331520	60	4065
2026-01-09 04:06:56.58	24.41	14.34	-46.9	-48.1	15.3	0.00e+00	0	23	0	681574400	60	4045
2026-01-09 04:06:57.58	24.34	14.44	-47.0	-48.2	15.3	0.00e+00	0	24	0	686817280	60	4075
2026-01-09 04:06:58.58	24.27	14.53	-47.0	-48.1	15.3	0.00e+00	0	23	0	693108736	60	4046
2026-01-09 04:06:59.58	24.20	14.63	-46.9	-48.1	15.3	0.00e+00	0	24	0	698351616	60	4037
2026-01-09 04:07:00.57	24.13	14.73	-46.9	-48.1	15.3	0.00e+00	0	24	0	703594496	60	4033
2026-01-09 04:07:01.57	24.06	14.83	-46.9	-48.1	15.3	0.00e+00	0	24	0	709885952	60	4025
2026-01-09 04:07:02.57	23.99	14.93	-46.8	-48.0	15.4	0.00e+00	0	24	0	715128832	60	3961
2026-01-09 04:07:03.57	23.92	15.03	-46.9	-48.1	15.4	0.00e+00	0	24	0	720371712	60	4008
2026-01-09 04:07:04.56	23.85	15.13	-47.0	-48.2	15.3	0.00e+00	0	24	0	726663168	60	4076
2026-01-09 04:07:05.57	23.77	15.23	-46.8	-48.0	15.4	0.00e+00	0	23	0	731906048	60	3983
2026-01-09 04:07:06.57	23.70	15.33	-46.9	-48.0	15.4	0.00e+00	0	24	0	738197504	60	4004
2026-01-09 04:07:07.57	23.63	15.43	-46.8	-48.0	15.4	0.00e+00	0	24	0	743440384	60	3966
2026-01-09 04:07:08.57	23.55	15.53	-46.8	-48.0	15.4	0.00e+00	0	23	0	748683264	60	3976
2026-01-09 04:07:09.57	23.48	15.64	-46.8	-47.9	15.5	0.00e+00	0	23	0	754974720	60	3952
2026-01-09 04:07:10.57	23.40	15.74	-47.0	-48.2	15.2	0.00e+00	0	23	0	760217600	59	4331
2026-01-09 04:07:11.57	23.32	15.84	-46.9	-48.1	15.2	0.00e+00	0	24	0	765460480	59	4289
2026-01-09 04:07:12.56	23.25	15.94	-46.7	-47.9	15.3	0.00e+00	0	23	0	771751936	59	4160
2026-01-09 04:07:13.56	23.17	16.05	-46.7	-47.8	15.4	0.00e+00	0	24	0	776994816	59	4137
2026-01-09 04:07:14.56	23.09	16.15	-46.6	-47.8	15.4	0.00e+00	0	24	0	782237696	59	4106
2026-01-09 04:07:15.55	23.02	16.25	-46.6	-47.7	15.4	0.00e+00	0	23	0	788529152	59	4087
2026-01-09 04:07:16.55	22.94	16.36	-46.6	-47.8	15.4	0.00e+00	0	24	0	793772032	59	4113
2026-01-09 04:07:17.54	22.86	16.46	-46.6	-47.8	15.4	0.00e+00	0	23	0	800063488	59	4101
2026-01-09 04:07:18.54	22.78	16.57	-46.6	-47.8	15.4	0.00e+00	0	24	0	805306368	59	4102
2026-01-09 04:07:19.54	22.70	16.68	-46.6	-47.7	15.4	0.00e+00	0	24	0	810549248	59	4091
2026-01-09 04:07:20.53	22.62	16.78	-46.6	-47.7	15.4	0.00e+00	0	24	0	815792128	59	4083
2026-01-09 04:07:21.54	22.53	16.89	-46.6	-47.7	15.4	0.00e+00	0	24	0	822083584	59	4083
2026-01-09 04:07:22.54	22.45	17.00	-46.6	-47.7	15.4	0.00e+00	0	24	0	827326464	59	4095
2026-01-09 04:07:23.53	22.37	17.10	-46.5	-47.7	15.4	0.00e+00	0	24	0	832569344	59	4080
2026-01-09 04:07:24.52	22.28	17.21	-46.5	-47.6	15.5	0.00e+00	0	24	0	838860800	59	4039
2026-01-09 04:07:25.52	22.20	17.32	-46.5	-47.6	15.4	0.00e+00	0	24	0	844103680	59	4044
2026-01-09 04:07:26.52	22.11	17.43	-46.5	-47.6	15.5	0.00e+00	0	24	0	850395136	59	4041
2026-01-09 04:07:27.52	22.03	17.54	-46.5	-47.7	15.4	0.00e+00	0	24	0	855638016	59	4055
2026-01-09 04:07:28.51	21.94	17.64	-46.5	-47.7	15.4	0.00e+00	0	24	0	860880896	59	4065
2026-01-09 04:07:29.51	21.86	17.75	-46.5	-47.7	15.4	0.00e+00	0	24	0	867172352	59	4067
2026-01-09 04:07:30.51	21.77	17.86	-46.6	-47.7	15.4	0.00e+00	0	24	0	872415232	59	4077
2026-01-09 04:07:31.51	21.68	17.98	-46.4	-47.6	15.5	0.00e+00	0	24	0	877658112	59	4015
2026-01-09 04:07:32.51	21.59	18.09	-46.5	-47.6	15.5	0.00e+00	0	24	0	883949568	59	4037
2026-01-09 04:07:33.51	21.50	18.20	-46.4	-47.6	15.5	0.00e+00	0	24	0	889192448	59	4016
2026-01-09 04:07:34.51	21.41	18.31	-46.4	-47.5	15.5	0.00e+00	0	24	0	894435328	59	4002
2026-01-09 04:07:35.51	21.32	18.42	-46.3	-47.5	15.5	0.00e+00	0	24	0	900726784	59	3972
2026-01-09 04:07:36.51	21.23	18.54	-46.4	-47.6	15.5	0.00e+00	0	24	0	905969664	59	4023
2026-01-09 04:07:37.51	21.13	18.65	-46.3	-47.5	15.5	0.00e+00	0	24	0	912261120	59	3982
2026-01-09 04:07:38.51	21.04	18.76	-46.2	-47.4	15.6	0.00e+00	0	24	0	917504000	59	3927
2026-01-09 04:07:39.51	20.95	18.88	-46.3	-47.4	15.5	0.00e+00	0	24	0	922746880	59	3943
2026-01-09 04:07:40.51	20.85	18.99	-46.3	-47.5	15.5	0.00e+00	0	24	0	929038336	59	3963
2026-01-09 04:07:41.50	20.76	19.11	-46.4	-47.5	15.5	0.00e+00	0	24	0	934281216	59	4000
2026-01-09 04:07:42.50	20.66	19.22	-46.3	-47.5	15.6	0.00e+00	0	24	0	939524096	59	3961
2026-01-09 04:07:43.50	20.56	19.34	-46.4	-47.5	15.5	0.00e+00	0	24	0	945815552	59	4001
2026-01-09 04:07:44.51	20.47	19.46	-46.4	-47.5	15.5	0.00e+00	0	24	0	951058432	59	4001
2026-01-09 04:07:45.50	20.37	19.57	-46.3	-47.4	15.6	0.00e+00	0	23	0	956301312	59	3942
2026-01-09 04:07:46.50	20.27	19.69	-46.3	-47.5	15.6	0.00e+00	0	24	0	962592768	59	3972
2026-01-09 04:07:47.50	20.17	19.81	-46.2	-47.3	15.7	0.00e+00	0	24	0	967835648	59	3892
2026-01-09 04:07:48.50	20.07	19.93	-46.2	-47.3	15.5	0.00e+00	0	24	0	974127104	58	4122
2026-01-09 04:07:49.49	19.97	20.04	-46.2	-47.3	15.4	0.00e+00	0	24	0	979369984	58	4145
2026-01-09 04:07:50.48	19.86	20.16	-46.0	-47.1	15.6	0.00e+00	0	24	0	984612864	58	4022
2026-01-09 04:07:51.48	19.76	20.28	-45.9	-47.0	15.6	0.00e+00	0	24	0	989855744	58	3997
2026-01-09 04:07:52.48	19.66	20.40	-45.8	-46.9	15.6	0.00e+00	0	24	0	996147200	58	3949
2026-01-09 04:07:53.48	19.55	20.52	-45.8	-46.9	15.6	0.00e+00	0	24	0	1001390080	58	3941
2026-01-09 04:07:54.49	19.44	20.65	-45.7	-46.8	15.6	0.00e+00	0	24	0	1007681536	58	3910
2026-01-09 04:07:55.47	19.34	20.77	-45.5	-46.7	15.6	0.00e+00	0	24	0	1012924416	57	4055
2026-01-09 04:07:56.47	19.23	20.89	-45.6	-46.7	15.6	0.00e+00	0	24	0	1018167296	57	4054
2026-01-09 04:07:57.47	19.12	21.01	-45.5	-46.6	15.6	0.00e+00	0	24	0	1024458752	57	4033
2026-01-09 04:07:58.47	19.01	21.13	-45.5	-46.6	15.6	0.00e+00	0	24	0	1029701632	57	4029
2026-01-09 04:07:59.48	18.90	21.26	-45.5	-46.6	15.6	0.00e+00	0	24	0	1034944512	57	4026
2026-01-09 04:08:00.47	18.79	21.38	-45.5	-46.6	15.6	0.00e+00	0	24	0	1041235968	57	4016
2026-01-09 04:08:01.48	18.68	21.51	-45.4	-46.5	15.6	0.00e+00	0	24	0	1046478848	57	3998
2026-01-09 04:08:02.48	18.57	21.63	-45.6	-46.7	15.6	0.00e+00	0	24	0	1051721728	57	4070
2026-01-09 04:08:03.48	18.45	21.76	-45.4	-46.5	15.6	0.00e+00	0	24	0	1058013184	57	3991
2026-01-09 04:08:04.47	18.34	21.88	-45.5	-46.6	15.6	0.00e+00	0	24	0	1063256064	57	4010
2026-01-09 04:08:05.47	18.22	22.01	-45.5	-46.6	15.6	0.00e+00	0	24	0	1069547520	57	4019
2026-01-09 04:08:06.46	18.11	22.14	-45.5	-46.6	15.6	0.00e+00	0	24	0	1074790400	57	4024
2026-01-09 04:08:07.45	17.99	22.26	-45.5	-46.7	15.6	0.00e+00	0	24	0	1080033280	57	4056
2026-01-09 04:08:08.45	17.87	22.39	-45.4	-46.5	15.6	0.00e+00	0	24	0	1086324736	57	3969
2026-01-09 04:08:09.45	17.75	22.52	-45.5	-46.6	15.6	0.00e+00	0	24	0	1091567616	57	4009
2026-01-09 04:08:10.45	17.63	22.65	-45.4	-46.5	15.6	0.00e+00	0	24	0	1096810496	57	3998
2026-01-09 04:08:11.45	17.51	22.78	-45.5	-46.6	15.6	0.00e+00	0	24	0	1103101952	57	4012
2026-01-09 04:08:12.44	17.38	22.91	-45.6	-46.7	15.6	0.00e+00	0	24	0	1108344832	57	4065
2026-01-09 04:08:13.44	17.26	23.04	-45.5	-46.6	15.6	0.00e+00	0	24	0	1113587712	57	4032
2026-01-09 04:08:14.45	17.13	23.17	-45.5	-46.6	15.6	0.00e+00	0	24	0	1119879168	57	4032
2026-01-09 04:08:15.44	17.01	23.30	-45.5	-46.6	15.6	0.00e+00	0	24	0	1125122048	57	4045
2026-01-09 04:08:16.44	16.88	23.44	-45.4	-46.5	15.6	0.00e+00	0	24	0	1130364928	57	3981
2026-01-09 04:08:17.44	16.75	23.57	-45.4	-46.5	15.6	0.00e+00	0	24	0	1136656384	57	3987
2026-01-09 04:08:18.44	16.62	23.70	-45.4	-46.5	15.6	0.00e+00	0	24	0	1141899264	57	3993
2026-01-09 04:08:19.43	16.49	23.83	-45.3	-46.4	15.7	0.00e+00	0	24	0	1147142144	57	3935
2026-01-09 04:08:20.43	16.36	23.97	-45.3	-46.4	15.7	0.00e+00	0	24	0	1153433600	57	3933
2026-01-09 04:08:21.43	16.23	24.10	-45.5	-46.6	15.6	0.00e+00	0	24	0	1158676480	57	4012
2026-01-09 04:08:22.43	16.09	24.24	-45.3	-46.4	15.7	0.00e+00	0	24	0	1163919360	57	3947
2026-01-09 04:08:23.43	15.96	24.38	-45.3	-46.4	15.7	0.00e+00	0	24	0	1170210816	57	3943
2026-01-09 04:08:24.42	15.82	24.51	-45.4	-46.5	15.7	0.00e+00	0	24	0	1175453696	57	3961
2026-01-09 04:08:25.42	15.68	24.65	-45.3	-46.4	15.7	0.00e+00	0	24	0	1181745152	57	3921
2026-01-09 04:08:26.41	15.55	24.78	-45.3	-46.4	15.7	0.00e+00	0	24	0	1186988032	57	3920
2026-01-09 04:08:27.40	15.41	24.92	-45.2	-46.3	15.7	0.00e+00	0	24	0	1192230912	57	3902
2026-01-09 04:08:28.40	15.26	25.06	-45.2	-46.3	15.7	0.00e+00	0	24	0	1198522368	57	3905
2026-01-09 04:08:29.40	15.12	25.20	-45.2	-46.3	15.7	0.00e+00	0	24	0	1203765248	57	3893
2026-01-09 04:08:30.40	14.98	25.34	-45.2	-46.3	15.7	0.00e+00	0	24	0	1209008128	57	3897
2026-01-09 04:08:31.40	14.83	25.48	-45.3	-46.4	15.7	0.00e+00	0	24	0	1215299584	57	3923
2026-01-09 04:08:32.40	14.68	25.62	-45.1	-46.2	15.6	0.00e+00	0	24	0	1220542464	56	4060
2026-01-09 04:08:33.40	14.54	25.76	-45.2	-46.2	15.6	0.00e+00	0	24	0	1225785344	56	4093
2026-01-09 04:08:34.40	14.39	25.90	-45.0	-46.1	15.6	0.00e+00	0	24	0	1232076800	56	4041
2026-01-09 04:08:35.40	14.23	26.04	-45.1	-46.2	15.6	0.00e+00	0	24	0	1237319680	56	4052
2026-01-09 04:08:36.40	14.08	26.19	-44.8	-45.8	15.7	0.00e+00	0	24	0	1243611136	56	3913
2026-01-09 04:08:37.40	13.93	26.33	-44.8	-45.8	15.7	0.00e+00	0	24	0	1248854016	56	3900
2026-01-09 04:08:38.40	13.77	26.48	-44.7	-45.8	15.8	0.00e+00	0	24	0	1254096896	56	3881
2026-01-09 04:08:39.39	13.62	26.62	-44.7	-45.7	15.8	0.00e+00	0	24	0	1259339776	56	3868
2026-01-09 04:08:40.40	13.46	26.76	-44.4	-45.5	15.7	0.00e+00	0	24	0	1265631232	55	3976
2026-01-09 04:08:41.40	13.30	26.91	-44.6	-45.6	15.6	0.00e+00	0	24	0	1270874112	55	4038
2026-01-09 04:08:42.41	13.13	27.06	-44.6	-45.7	15.6	0.00e+00	0	24	0	1277165568	55	4067
2026-01-09 04:08:43.40	12.97	27.20	-44.6	-45.6	15.6	0.00e+00	0	24	0	1282408448	55	4048
2026-01-09 04:08:44.41	12.81	27.35	-44.6	-45.6	15.6	0.00e+00	0	24	0	1287651328	55	4047
2026-01-09 04:08:45.41	12.64	27.50	-44.7	-45.8	15.6	0.00e+00	0	24	0	1293942784	55	4104
2026-01-09 04:08:46.41	12.47	27.65	-44.8	-45.9	15.6	0.00e+00	0	24	0	1299185664	55	4184
2026-01-09 04:08:47.41	12.31	27.80	-44.8	-45.9	15.6	0.00e+00	0	24	0	1305477120	55	4185
2026-01-09 04:08:48.40	12.14	27.94	-44.7	-45.8	15.6	0.00e+00	0	24	0	1310720000	55	4131
2026-01-09 04:08:49.41	11.96	28.10	-44.8	-45.8	15.6	0.00e+00	0	24	0	1315962880	55	4138
2026-01-09 04:08:50.41	11.79	28.25	-44.7	-45.8	15.6	0.00e+00	0	24	0	1322254336	55	4117
2026-01-09 04:08:51.41	11.61	28.40	-44.6	-45.7	15.6	0.00e+00	0	24	0	1327497216	55	4084
2026-01-09 04:08:52.41	11.44	28.55	-44.6	-45.6	15.6	0.00e+00	0	24	0	1332740096	55	4043
2026-01-09 04:08:53.42	11.25	28.70	-44.5	-45.6	15.7	0.00e+00	0	24	0	1339031552	55	4018
2026-01-09 04:08:54.42	11.07	28.85	-44.4	-45.5	15.7	0.00e+00	0	24	0	1344274432	55	3967
2026-01-09 04:08:55.42	10.89	29.01	-44.5	-45.5	15.7	0.00e+00	0	24	0	1349517312	55	4003
2026-01-09 04:08:56.41	10.71	29.16	-44.5	-45.5	15.7	0.00e+00	0	24	0	1355808768	55	3996
2026-01-09 04:08:57.41	10.52	29.31	-44.5	-45.6	15.7	0.00e+00	0	24	0	1361051648	55	4024
2026-01-09 04:08:58.41	10.33	29.47	-44.6	-45.7	15.6	0.00e+00	0	24	0	1367343104	55	4061
2026-01-09 04:08:59.42	10.14	29.62	-44.6	-45.7	15.6	0.00e+00	0	24	0	1372585984	55	4058
2026-01-09 04:09:00.41	9.95	29.78	-44.6	-45.7	15.6	0.00e+00	0	24	0	1377828864	55	4082
2026-01-09 04:09:01.42	9.76	29.94	-44.5	-45.6	15.6	0.00e+00	0	24	0	1384120320	55	4030
2026-01-09 04:09:02.40	9.57	30.09	-44.6	-45.6	15.6	0.00e+00	0	24	0	1389363200	55	4041
2026-01-09 04:09:03.41	9.37	30.25	-44.4	-45.4	15.7	0.00e+00	0	24	0	1394606080	55	3958
2026-01-09 04:09:04.40	9.17	30.40	-44.3	-45.3	15.8	0.00e+00	0	24	0	1400897536	55	3887
2026-01-09 04:09:05.40	8.97	30.56	-44.3	-45.3	15.7	0.00e+00	0	24	0	1406140416	55	3910
2026-01-09 04:09:06.40	8.76	30.72	-44.3	-45.3	15.7	0.00e+00	0	24	0	1411383296	55	3913
2026-01-09 04:09:07.39	8.56	30.88	-44.4	-45.4	15.7	0.00e+00	0	24	0	1417674752	55	3958
2026-01-09 04:09:08.39	8.35	31.03	-44.3	-45.4	15.7	0.00e+00	0	24	0	1422917632	55	3930
2026-01-09 04:09:09.39	8.14	31.19	-44.4	-45.4	15.7	0.00e+00	0	24	0	1428160512	55	3950
2026-01-09 04:09:10.39	7.93	31.35	-44.3	-45.4	15.7	0.00e+00	0	24	0	1434451968	55	3924
2026-01-09 04:09:11.39	7.72	31.51	-44.4	-45.4	15.7	0.00e+00	0	24	0	1439694848	55	3936
2026-01-09 04:09:12.39	7.50	31.68	-44.3	-45.4	15.7	0.00e+00	0	24	0	1444937728	55	3921
2026-01-09 04:09:13.38	7.29	31.83	-44.3	-45.3	15.7	0.00e+00	0	24	0	1451229184	55	3909
2026-01-09 04:09:14.37	7.07	31.99	-44.4	-45.4	15.7	0.00e+00	0	24	0	1456472064	55	3937
2026-01-09 04:09:15.37	6.85	32.16	-44.2	-45.3	15.8	0.00e+00	0	24	0	1461714944	55	3885
2026-01-09 04:09:16.36	6.62	32.32	-44.3	-45.4	15.7	0.00e+00	0	24	0	1468006400	55	3916
2026-01-09 04:09:17.35	6.40	32.48	-44.4	-45.5	15.7	0.00e+00	0	24	0	1473249280	55	3962
2026-01-09 04:09:18.36	6.17	32.64	-44.6	-45.7	15.6	0.00e+00	0	24	0	1479540736	55	4091
2026-01-09 04:09:19.36	5.93	32.81	-44.7	-45.8	15.6	0.00e+00	0	24	0	1484783616	55	4103
2026-01-09 04:09:20.35	5.70	32.97	-44.6	-45.6	15.6	0.00e+00	0	24	0	1490026496	55	4047
2026-01-09 04:09:21.35	5.47	33.13	-44.4	-45.5	15.7	0.00e+00	0	24	0	1496317952	55	3964
2026-01-09 04:09:22.34	5.23	33.30	-44.3	-45.3	15.8	0.00e+00	0	24	0	1501560832	55	3911
2026-01-09 04:09:23.33	4.99	33.46	-44.2	-45.2	15.7	0.00e+00	0	24	0	1506803712	54	4069
2026-01-09 04:09:24.33	4.75	33.62	-44.3	-45.3	15.6	0.00e+00	0	24	0	1513095168	54	4120
2026-01-09 04:09:25.34	4.50	33.79	-44.2	-45.3	15.6	0.00e+00	0	24	0	1518338048	54	4115
2026-01-09 04:09:26.33	4.25	33.96	-44.3	-45.3	15.6	0.00e+00	0	24	0	1523580928	54	4136
2026-01-09 04:09:27.33	4.00	34.12	-44.5	-45.6	15.6	0.00e+00	0	24	0	1529872384	54	4244
2026-01-09 04:09:28.34	3.74	34.29	-44.5	-45.5	15.6	0.00e+00	0	24	0	1535115264	54	4230
2026-01-09 04:09:29.34	3.49	34.46	-44.5	-45.6	15.6	0.00e+00	0	24	0	1540358144	54	4272
2026-01-09 04:09:30.33	3.23	34.62	-44.5	-45.5	15.6	0.00e+00	0	24	0	1546649600	54	4223
2026-01-09 04:09:31.33	2.97	34.79	-44.3	-45.3	15.6	0.00e+00	0	24	0	1551892480	54	4125
2026-01-09 04:09:32.33	2.70	34.95	-44.3	-45.3	15.6	0.00e+00	0	24	0	1557135360	54	4126
2026-01-09 04:09:33.32	2.44	35.12	-44.3	-45.3	15.6	0.00e+00	0	24	0	1563426816	54	4135
2026-01-09 04:09:34.32	2.17	35.29	-44.4	-45.4	15.6	0.00e+00	0	24	0	1568669696	54	4184
2026-01-09 04:09:35.32	1.89	35.46	-44.5	-45.5	15.6	0.00e+00	0	24	0	1574961152	54	4227
2026-01-09 04:09:36.32	1.62	35.62	-44.5	-45.6	15.6	0.00e+00	0	24	0	1580204032	54	4262
2026-01-09 04:09:37.32	1.34	35.79	-44.5	-45.6	15.6	0.00e+00	0	24	0	1585446912	54	4251
2026-01-09 04:09:38.32	1.06	35.96	-44.4	-45.5	15.6	0.00e+00	0	24	0	1591738368	54	4203
2026-01-09 04:09:39.32	0.77	36.13	-44.4	-45.5	15.6	0.00e+00	0	24	0	1596981248	54	4212
2026-01-09 04:09:40.31	0.49	36.29	-44.5	-45.6	15.6	0.00e+00	0	24	0	1602224128	54	4250
2026-01-09 04:09:41.31	0.20	36.46	-44.6	-45.7	15.6	0.00e+00	0	24	0	1608515584	54	4304
2026-01-09 04:09:42.31	359.90	36.63	-44.6	-45.6	15.6	0.00e+00	0	24	0	1613758464	54	4286
2026-01-09 04:09:43.32	359.60	36.80	-44.6	-45.7	15.6	0.00e+00	0	24	0	1619001344	54	4293
2026-01-09 04:09:44.31	359.30	36.96	-44.4	-45.5	15.6	0.00e+00	0	24	0	1625292800	54	4204
2026-01-09 04:09:45.30	359.00	37.13	-44.6	-45.6	15.6	0.00e+00	0	24	0	1630535680	54	4271
2026-01-09 04:09:46.30	358.70	37.30	-44.5	-45.5	15.6	0.00e+00	0	24	0	1636827136	54	4236
2026-01-09 04:09:47.30	358.39	37.47	-44.3	-45.3	15.6	0.00e+00	0	24	0	1642070016	54	4141
2026-01-09 04:09:48.30	358.08	37.63	-44.3	-45.3	15.6	0.00e+00	0	24	0	1647312896	54	4132
2026-01-09 04:09:49.30	357.76	37.80	-44.3	-45.4	15.6	0.00e+00	0	24	0	1653604352	54	4152
2026-01-09 04:09:50.30	357.44	37.97	-44.3	-45.4	15.6	0.00e+00	0	24	0	1658847232	54	4158
2026-01-09 04:09:51.30	357.12	38.14	-44.3	-45.4	15.6	0.00e+00	0	24	0	1664090112	54	4167
2026-01-09 04:09:52.29	356.79	38.30	-44.4	-45.4	15.6	0.00e+00	0	24	0	1669332992	54	4191
2026-01-09 04:09:53.29	356.47	38.47	-44.3	-45.3	15.6	0.00e+00	0	24	0	1675624448	54	4127
2026-01-09 04:09:54.29	356.13	38.63	-44.3	-45.3	15.6	0.00e+00	0	24	0	1680867328	54	4144
2026-01-09 04:09:55.29	355.80	38.80	-44.5	-45.6	15.6	0.00e+00	0	24	0	1687158784	54	4253
2026-01-09 04:09:56.29	355.46	38.97	-44.6	-45.7	15.6	0.00e+00	0	24	0	1692401664	54	4293
2026-01-09 04:09:57.29	355.11	39.13	-44.6	-45.6	15.6	0.00e+00	0	24	0	1697644544	54	4272
2026-01-09 04:09:58.29	354.77	39.30	-44.6	-45.7	15.6	0.00e+00	0	24	0	1703936000	54	4295
2026-01-09 04:09:59.29	354.42	39.46	-44.5	-45.6	15.6	0.00e+00	0	24	0	1709178880	54	4258
2026-01-09 04:10:00.29	354.06	39.63	-44.5	-45.6	15.6	0.00e+00	0	24	0	1714421760	54	4260
2026-01-09 04:10:01.29	353.70	39.79	-44.4	-45.5	15.6	0.00e+00	0	24	0	1720713216	54	4206
2026-01-09 04:10:02.29	353.34	39.95	-44.2	-45.3	15.6	0.00e+00	0	24	0	1725956096	54	4100
2026-01-09 04:10:03.29	352.98	40.11	-44.3	-45.3	15.6	0.00e+00	0	24	0	1731198976	54	4132
2026-01-09 04:10:04.29	352.61	40.28	-44.3	-45.3	15.6	0.00e+00	0	24	0	1737490432	54	4138
2026-01-09 04:10:05.29	352.24	40.44	-44.4	-45.4	15.6	0.00e+00	0	24	0	1742733312	54	4189
2026-01-09 04:10:06.29	351.86	40.60	-44.5	-45.6	15.6	0.00e+00	0	24	0	1749024768	54	4247
2026-01-09 04:10:07.29	351.48	40.76	-44.8	-45.9	15.5	0.00e+00	0	24	0	1754267648	54	4400
2026-01-09 04:10:08.29	351.10	40.92	-44.7	-45.8	15.6	0.00e+00	0	24	0	1759510528	54	4348
2026-01-09 04:10:09.29	350.71	41.08	-44.7	-45.8	15.6	0.00e+00	0	24	0	1765801984	54	4347
2026-01-09 04:10:10.28	350.32	41.23	-44.6	-45.7	15.6	0.00e+00	0	24	0	1771044864	54	4305
2026-01-09 04:10:11.27	349.93	41.39	-44.5	-45.6	15.6	0.00e+00	0	24	0	1776287744	54	4245
2026-01-09 04:10:12.27	349.53	41.54	-44.2	-45.2	15.6	0.00e+00	0	24	0	1782579200	54	4076
2026-01-09 04:10:13.28	349.12	41.70	-44.2	-45.2	15.7	0.00e+00	0	24	0	1787822080	54	4089
2026-01-09 04:10:14.29	348.71	41.85	-44.1	-45.2	15.7	0.00e+00	0	24	0	1793064960	54	4061
2026-01-09 04:10:15.28	348.31	42.01	-44.3	-45.3	15.6	0.00e+00	0	24	0	1799356416	54	4140
2026-01-09 04:10:16.26	347.90	42.16	-44.4	-45.4	15.6	0.00e+00	0	24	0	1804599296	54	4168
2026-01-09 04:10:17.26	347.48	42.31	-44.3	-45.3	15.6	0.00e+00	0	24	0	1810890752	54	4133
2026-01-09 04:10:18.26	347.06	42.46	-44.3	-45.4	15.6	0.00e+00	0	24	0	1816133632	54	4156
2026-01-09 04:10:19.25	346.64	42.60	-44.5	-45.6	15.6	0.00e+00	0	24	0	1821376512	54	4257
2026-01-09 04:10:20.24	346.21	42.75	-44.6	-45.7	15.6	0.00e+00	0	24	0	1826619392	54	4300
2026-01-09 04:10:21.23	345.78	42.89	-44.7	-45.8	15.5	0.00e+00	0	24	0	1832910848	54	4368
2026-01-09 04:10:22.23	345.34	43.04	-44.8	-45.9	15.5	0.00e+00	0	24	0	1838153728	54	4398
2026-01-09 04:10:23.23	344.90	43.18	-44.7	-45.7	15.5	0.00e+00	0	24	0	1843396608	54	4336
2026-01-09 04:10:24.22	344.46	43.32	-44.6	-45.6	15.6	0.00e+00	0	24	0	1849688064	54	4282
2026-01-09 04:10:25.22	344.01	43.46	-44.7	-45.8	15.6	0.00e+00	0	24	0	1854930944	54	4347
2026-01-09 04:10:26.21	343.56	43.60	-44.7	-45.8	15.5	0.00e+00	0	24	0	1861222400	54	4346
2026-01-09 04:10:27.21	343.10	43.74	-44.6	-45.6	15.6	0.00e+00	0	24	0	1866465280	54	4286
2026-01-09 04:10:28.21	342.64	43.87	-44.6	-45.7	15.6	0.00e+00	0	24	0	1871708160	54	4306
2026-01-09 04:10:29.20	342.18	44.01	-44.6	-45.6	15.6	0.00e+00	0	24	0	1877999616	54	4275
2026-01-09 04:10:30.21	341.70	44.14	-44.5	-45.6	15.6	0.00e+00	0	24	0	1883242496	54	4262
2026-01-09 04:10:31.21	341.23	44.27	-44.6	-45.7	15.6	0.00e+00	0	24	0	1888485376	54	4311
2026-01-09 04:10:32.21	340.75	44.40	-44.7	-45.8	15.5	0.00e+00	0	24	0	1894776832	54	4345
2026-01-09 04:10:33.21	340.27	44.53	-44.5	-45.6	15.6	0.00e+00	0	24	0	1900019712	54	4268
2026-01-09 04:10:34.20	339.79	44.65	-44.4	-45.4	15.6	0.00e+00	0	24	0	1905262592	54	4185
2026-01-09 04:10:35.20	339.30	44.78	-44.6	-45.7	15.6	0.00e+00	0	24	0	1911554048	54	4309
2026-01-09 04:10:36.19	338.81	44.90	-44.7	-45.8	15.6	0.00e+00	0	24	0	1916796928	54	4351
2026-01-09 04:10:37.19	338.31	45.01	-44.8	-45.8	15.6	0.00e+00	0	24	0	1922039808	54	4381
2026-01-09 04:10:38.18	337.82	45.13	-44.7	-45.7	15.6	0.00e+00	0	24	0	1928331264	54	4335
2026-01-09 04:10:39.18	337.31	45.25	-44.5	-45.6	15.6	0.00e+00	0	24	0	1933574144	54	4259
2026-01-09 04:10:40.18	336.80	45.36	-44.6	-45.6	15.6	0.00e+00	0	24	0	1938817024	54	4289
2026-01-09 04:10:41.18	336.29	45.47	-44.6	-45.6	15.6	0.00e+00	0	24	0	1945108480	54	4288
2026-01-09 04:10:42.19	335.77	45.58	-44.8	-45.9	15.5	0.00e+00	0	24	0	1950351360	54	4402
2026-01-09 04:10:43.19	335.25	45.69	-44.7	-45.7	15.6	0.00e+00	0	24	0	1955594240	54	4311
2026-01-09 04:10:44.19	334.73	45.79	-44.7	-45.7	15.6	0.00e+00	0	24	0	1961885696	54	4330
2026-01-09 04:10:45.19	334.21	45.89	-44.9	-45.9	15.5	0.00e+00	0	24	0	1967128576	54	4440
2026-01-09 04:10:46.18	333.68	45.99	-44.9	-46.0	15.6	0.00e+00	0	24	0	1973420032	55	4201
2026-01-09 04:10:47.18	333.15	46.09	-44.8	-45.9	15.6	0.00e+00	0	24	0	1978662912	55	4164
2026-01-09 04:10:48.19	332.61	46.18	-44.9	-45.9	15.6	0.00e+00	0	24	0	1983905792	55	4180
2026-01-09 04:10:49.19	332.07	46.27	-44.7	-45.7	15.6	0.00e+00	0	24	0	1990197248	55	4080
2026-01-09 04:10:50.18	331.53	46.36	-44.7	-45.8	15.6	0.00e+00	0	24	0	1995440128	55	4120
2026-01-09 04:10:51.18	330.99	46.45	-44.8	-45.8	15.6	0.00e+00	0	24	0	2000683008	55	4129
2026-01-09 04:10:52.18	330.44	46.53	-44.8	-45.9	15.6	0.00e+00	0	24	0	2006974464	55	4172
2026-01-09 04:10:53.18	329.89	46.61	-44.9	-46.0	15.6	0.00e+00	0	24	0	2012217344	55	4223
2026-01-09 04:10:54.18	329.33	46.69	-45.0	-46.1	15.6	0.00e+00	0	24	0	2017460224	55	4260
2026-01-09 04:10:55.17	328.78	46.77	-45.2	-46.2	15.5	0.00e+00	0	24	0	2023751680	55	4327
2026-01-09 04:10:56.17	328.22	46.84	-45.1	-46.1	15.5	0.00e+00	0	24	0	2028994560	55	4283
2026-01-09 04:10:57.17	327.66	46.91	-44.9	-46.0	15.6	0.00e+00	0	24	0	2035286016	55	4197
2026-01-09 04:10:58.16	327.10	46.97	-45.0	-46.1	15.6	0.00e+00	0	24	0	2040528896	55	4255
2026-01-09 04:10:59.16	326.54	47.04	-45.3	-46.4	15.5	0.00e+00	0	24	0	2045771776	55	4426
2026-01-09 04:11:00.16	325.97	47.10	-45.3	-46.3	15.5	0.00e+00	0	24	0	2052063232	55	4389
2026-01-09 04:11:01.16	325.40	47.16	-45.1	-46.1	15.5	0.00e+00	0	24	0	2057306112	55	4282
2026-01-09 04:11:02.16	324.82	47.21	-45.1	-46.2	15.5	0.00e+00	0	24	0	2062548992	55	4314
2026-01-09 04:11:03.16	324.25	47.26	-45.0	-46.1	15.6	0.00e+00	0	24	0	2068840448	55	4264
2026-01-09 04:11:04.16	323.67	47.31	-44.8	-45.9	15.6	0.00e+00	0	24	0	2074083328	55	4148
2026-01-09 04:11:05.15	323.10	47.36	-44.6	-45.7	15.6	0.00e+00	0	24	0	2080374784	55	4052
2026-01-09 04:11:06.15	322.52	47.40	-44.6	-45.7	15.6	0.00e+00	0	24	0	2085617664	55	4065
2026-01-09 04:11:07.14	321.94	47.44	-44.9	-45.9	15.6	0.00e+00	0	24	0	2090860544	55	4192
2026-01-09 04:11:08.14	321.36	47.47	-45.0	-46.1	15.6	0.00e+00	0	24	0	2096103424	55	4268
2026-01-09 04:11:09.12	320.78	47.51	-45.1	-46.1	15.5	0.00e+00	0	24	0	2102394880	55	4284
2026-01-09 04:11:10.11	320.20	47.53	-45.2	-46.2	15.5	0.00e+00	0	24	0	2107637760	55	4335
2026-01-09 04:11:11.11	319.62	47.56	-45.2	-46.2	15.5	0.00e+00	0	24	0	2112880640	55	4328
2026-01-09 04:11:12.11	319.03	47.58	-45.1	-46.2	15.5	0.00e+00	0	24	0	2119172096	55	4305
2026-01-09 04:11:13.10	318.45	47.60	-45.0	-46.1	15.6	0.00e+00	0	24	0	2124414976	55	4245
2026-01-09 04:11:14.10	317.86	47.62	-44.8	-45.9	15.6	0.00e+00	0	24	0	2129657856	55	4169
2026-01-09 04:11:15.10	317.27	47.63	-44.9	-45.9	15.6	0.00e+00	0	24	0	2135949312	55	4177
2026-01-09 04:11:16.10	316.68	47.64	-44.8	-45.9	15.6	0.00e+00	0	24	0	2141192192	55	4164
2026-01-09 04:11:17.10	316.09	47.65	-44.8	-45.9	15.6	0.00e+00	0	24	0	2147483648	55	4170
2026-01-09 04:11:18.10	315.50	47.65	-44.8	-45.8	15.6	0.00e+00	0	24	0	2152726528	55	4126
2026-01-09 04:11:19.09	314.91	47.65	-44.6	-45.6	15.7	0.00e+00	0	24	0	2157969408	55	4025
2026-01-09 04:11:20.09	314.32	47.65	-44.6	-45.7	15.6	0.00e+00	0	24	0	2163212288	55	4064
2026-01-09 04:11:21.08	313.74	47.64	-44.8	-45.9	15.6	0.00e+00	0	24	0	2169503744	55	4155
2026-01-09 04:11:22.07	313.15	47.63	-44.8	-45.9	15.6	0.00e+00	0	24	0	2174746624	55	4150
2026-01-09 04:11:23.07	312.56	47.62	-44.9	-46.0	15.6	0.00e+00	0	24	0	2181038080	55	4202
2026-01-09 04:11:24.07	311.97	47.60	-45.1	-46.1	15.5	0.00e+00	0	24	0	2186280960	55	4283
2026-01-09 04:11:25.07	311.38	47.58	-45.2	-46.3	15.5	0.00e+00	0	24	0	2191523840	55	4349
2026-01-09 04:11:26.07	310.79	47.56	-45.2	-46.3	15.5	0.00e+00	0	24	0	2197815296	55	4376
2026-01-09 04:11:27.06	310.21	47.53	-45.1	-46.2	15.5	0.00e+00	0	24	0	2203058176	55	4307
2026-01-09 04:11:28.06	309.63	47.50	-45.0	-46.0	15.6	0.00e+00	0	24	0	2208301056	55	4230
2026-01-09 04:11:29.06	309.04	47.47	-44.9	-45.9	15.6	0.00e+00	0	24	0	2214592512	55	4182
2026-01-09 04:11:30.06	308.46	47.43	-44.8	-45.9	15.6	0.00e+00	0	24	0	2219835392	55	4154
2026-01-09 04:11:31.06	307.88	47.39	-44.8	-45.8	15.6	0.00e+00	0	24	0	2225078272	55	4139
2026-01-09 04:11:32.05	307.30	47.35	-44.8	-45.8	15.6	0.00e+00	0	24	0	2231369728	55	4115
2026-01-09 04:11:33.05	306.72	47.30	-44.7	-45.8	15.6	0.00e+00	0	24	0	2236612608	55	4100
2026-01-09 04:11:34.05	306.15	47.26	-44.9	-46.0	15.5	0.00e+00	0	24	0	2242904064	55	4211
2026-01-09 04:11:35.05	305.57	47.20	-45.0	-46.1	15.5	0.00e+00	0	24	0	2248146944	55	4270
2026-01-09 04:11:36.04	305.00	47.15	-45.1	-46.2	15.5	0.00e+00	0	24	0	2253389824	55	4292
2026-01-09 04:11:37.04	304.43	47.09	-45.1	-46.2	15.5	0.00e+00	0	24	0	2258632704	55	4306
2026-01-09 04:11:38.04	303.86	47.03	-45.2	-46.3	15.5	0.00e+00	0	24	0	2264924160	55	4367
2026-01-09 04:11:39.04	303.30	46.97	-45.2	-46.3	15.5	0.00e+00	0	24	0	2270167040	55	4344
2026-01-09 04:11:40.04	302.73	46.90	-45.0	-46.0	15.6	0.00e+00	0	24	0	2275409920	55	4234
2026-01-09 04:11:41.04	302.17	46.83	-44.9	-45.9	15.6	0.00e+00	0	24	0	2281701376	55	4167
2026-01-09 04:11:42.03	301.62	46.76	-44.9	-45.9	15.6	0.00e+00	0	24	0	2286944256	55	4187
2026-01-09 04:11:43.03	301.06	46.68	-44.9	-46.0	15.6	0.00e+00	0	24	0	2293235712	55	4196
2026-01-09 04:11:44.03	300.51	46.60	-44.7	-45.8	15.6	0.00e+00	0	24	0	2298478592	55	4102
2026-01-09 04:11:45.03	299.96	46.52	-44.6	-45.6	15.6	0.00e+00	0	24	0	2303721472	55	4029
2026-01-09 04:11:46.03	299.41	46.44	-44.6	-45.7	15.6	0.00e+00	0	24	0	2310012928	55	4056
2026-01-09 04:11:47.02	298.87	46.35	-44.6	-45.7	15.6	0.00e+00	0	24	0	2315255808	55	4059
2026-01-09 04:11:48.02	298.32	46.26	-44.7	-45.7	15.6	0.00e+00	0	24	0	2320498688	55	4090
2026-01-09 04:11:49.01	297.79	46.17	-44.6	-45.6	15.7	0.00e+00	0	24	0	2326790144	55	4047
2026-01-09 04:11:50.01	297.26	46.08	-44.5	-45.6	15.7	0.00e+00	0	24	0	2332033024	55	4018
2026-01-09 04:11:51.01	296.72	45.98	-44.6	-45.7	15.6	0.00e+00	0	24	0	2337275904	55	4069
2026-01-09 04:11:52.01	296.19	45.88	-44.6	-45.7	15.6	0.00e+00	0	24	0	2343567360	55	4059
2026-01-09 04:11:53.02	295.66	45.78	-44.8	-45.8	15.6	0.00e+00	0	24	0	2348810240	55	4123
2026-01-09 04:11:54.02	295.14	45.67	-44.7	-45.7	15.6	0.00e+00	0	24	0	2355101696	55	4084
2026-01-09 04:11:55.03	294.62	45.56	-44.6	-45.7	15.7	0.00e+00	0	24	0	2360344576	55	4066
2026-01-09 04:11:56.02	294.10	45.45	-44.7	-45.7	15.7	0.00e+00	0	24	0	2365587456	55	4087
2026-01-09 04:11:57.02	293.59	45.34	-44.8	-45.8	15.6	0.00e+00	0	24	0	2371878912	55	4136
2026-01-09 04:11:58.02	293.08	45.23	-44.6	-45.7	15.7	0.00e+00	0	24	0	2377121792	55	4061
2026-01-09 04:11:59.02	292.58	45.11	-44.7	-45.7	15.6	0.00e+00	0	24	0	2382364672	55	4091
2026-01-09 04:12:00.02	292.08	45.00	-44.6	-45.6	15.6	0.00e+00	0	24	0	2388656128	55	4043
2026-01-09 04:12:01.02	291.58	44.88	-44.6	-45.6	15.7	0.00e+00	0	24	0	2393899008	55	4029
2026-01-09 04:12:02.02	291.09	44.75	-44.7	-45.7	15.6	0.00e+00	0	24	0	2399141888	55	4098
2026-01-09 04:12:03.02	290.60	44.63	-44.6	-45.6	15.7	0.00e+00	0	24	0	2405433344	55	4037
2026-01-09 04:12:04.02	290.11	44.50	-44.5	-45.6	15.7	0.00e+00	0	24	0	2410676224	55	4019
2026-01-09 04:12:05.02	289.63	44.38	-44.5	-45.6	15.7	0.00e+00	0	24	0	2416967680	55	4012
2026-01-09 04:12:06.02	289.15	44.25	-44.4	-45.4	15.7	0.00e+00	0	24	0	2422210560	55	3935
2026-01-09 04:12:07.02	288.68	44.12	-44.3	-45.3	15.8	0.00e+00	0	24	0	2427453440	55	3883
2026-01-09 04:12:08.01	288.21	43.98	-44.3	-45.3	15.7	0.00e+00	0	24	0	2433744896	55	3900
2026-01-09 04:12:09.01	287.75	43.85	-44.3	-45.3	15.7	0.00e+00	0	24	0	2438987776	55	3874
2026-01-09 04:12:10.01	287.29	43.71	-44.3	-45.4	15.7	0.00e+00	0	24	0	2444230656	55	3920
2026-01-09 04:12:11.01	286.83	43.57	-44.3	-45.3	15.8	0.00e+00	0	24	0	2450522112	55	3913
2026-01-09 04:12:12.00	286.38	43.44	-44.4	-45.4	15.7	0.00e+00	0	24	0	2455764992	55	3940
2026-01-09 04:12:13.00	285.93	43.29	-44.5	-45.5	15.7	0.00e+00	0	24	0	2461007872	55	3994
2026-01-09 04:12:14.00	285.48	43.15	-44.5	-45.5	15.7	0.00e+00	0	24	0	2467299328	55	3990
2026-01-09 04:12:14.99	285.04	43.01	-44.5	-45.5	15.7	0.00e+00	0	24	0	2472542208	55	3996
2026-01-09 04:12:15.99	284.60	42.86	-44.3	-45.4	15.7	0.00e+00	0	24	0	2477785088	55	3916
2026-01-09 04:12:16.98	284.17	42.72	-44.1	-45.1	15.6	0.00e+00	0	24	0	2484076544	54	4047
2026-01-09 04:12:17.98	283.74	42.57	-44.0	-45.0	15.7	0.00e+00	0	24	0	2489319424	54	3972
2026-01-09 04:12:18.98	283.32	42.42	-44.2	-45.2	15.7	0.00e+00	0	24	0	2494562304	54	4072
2026-01-09 04:12:19.98	282.90	42.27	-44.1	-45.2	15.7	0.00e+00	0	24	0	2500853760	54	4058
2026-01-09 04:12:20.97	282.48	42.12	-44.1	-45.1	15.7	0.00e+00	0	24	0	2506096640	54	4045
2026-01-09 04:12:21.97	282.07	41.97	-44.1	-45.1	15.7	0.00e+00	0	24	0	2511339520	54	4018
2026-01-09 04:12:22.97	281.66	41.82	-44.3	-45.4	15.6	0.00e+00	0	24	0	2517630976	54	4152
2026-01-09 04:12:23.97	281.25	41.66	-44.4	-45.5	15.6	0.00e+00	0	24	0	2522873856	54	4213
2026-01-09 04:12:24.97	280.85	41.51	-44.5	-45.5	15.6	0.00e+00	0	24	0	2529165312	54	4232
2026-01-09 04:12:25.96	280.45	41.35	-44.4	-45.4	15.6	0.00e+00	0	24	0	2534408192	54	4175
2026-01-09 04:12:26.95	280.06	41.20	-44.2	-45.3	15.6	0.00e+00	0	24	0	2539651072	54	4104
2026-01-09 04:12:27.95	279.67	41.04	-44.3	-45.3	15.6	0.00e+00	0	24	0	2545942528	54	4127
2026-01-09 04:12:28.95	279.28	40.88	-44.3	-45.3	15.6	0.00e+00	0	24	0	2551185408	54	4137
2026-01-09 04:12:29.95	278.90	40.72	-44.4	-45.5	15.6	0.00e+00	0	24	0	2556428288	54	4194
2026-01-09 04:12:30.95	278.52	40.56	-44.4	-45.4	15.6	0.00e+00	0	24	0	2562719744	54	4185
2026-01-09 04:12:31.94	278.14	40.40	-44.6	-45.6	15.6	0.00e+00	0	24	0	2567962624	54	4271
2026-01-09 04:12:32.93	277.77	40.24	-44.7	-45.7	15.5	0.00e+00	0	24	0	2573205504	54	4323
2026-01-09 04:12:33.93	277.41	40.08	-44.7	-45.8	15.5	0.00e+00	0	24	0	2579496960	54	4344
2026-01-09 04:12:34.93	277.04	39.91	-44.7	-45.8	15.5	0.00e+00	0	24	0	2584739840	54	4359
2026-01-09 04:12:35.92	276.68	39.75	-44.9	-46.0	15.5	0.00e+00	0	24	0	2589982720	54	4442
2026-01-09 04:12:36.92	276.33	39.59	-44.7	-45.8	15.5	0.00e+00	0	24	0	2596274176	54	4354
2026-01-09 04:12:37.92	275.97	39.42	-44.8	-45.9	15.5	0.00e+00	0	24	0	2601517056	54	4404
2026-01-09 04:12:38.92	275.62	39.26	-44.7	-45.7	15.5	0.00e+00	0	24	0	2606759936	54	4328
2026-01-09 04:12:39.92	275.27	39.09	-44.4	-45.5	15.6	0.00e+00	0	24	0	2613051392	54	4211
2026-01-09 04:12:40.92	274.93	38.93	-44.5	-45.5	15.6	0.00e+00	0	24	0	2618294272	54	4215
2026-01-09 04:12:41.93	274.59	38.76	-44.4	-45.5	15.6	0.00e+00	0	24	0	2624585728	54	4201
2026-01-09 04:12:42.93	274.25	38.59	-44.4	-45.4	15.6	0.00e+00	0	24	0	2629828608	54	4176
2026-01-09 04:12:43.93	273.92	38.43	-44.4	-45.4	15.6	0.00e+00	0	24	0	2635071488	54	4188
2026-01-09 04:12:44.93	273.59	38.26	-44.4	-45.4	15.6	0.00e+00	0	24	0	2641362944	54	4174
2026-01-09 04:12:45.94	273.26	38.09	-44.3	-45.3	15.6	0.00e+00	0	24	0	2646605824	54	4134
2026-01-09 04:12:46.93	272.94	37.92	-44.1	-45.1	15.7	0.00e+00	0	24	0	2651848704	54	4044
2026-01-09 04:12:47.92	272.62	37.76	-44.2	-45.2	15.6	0.00e+00	0	24	0	2658140160	54	4074
2026-01-09 04:12:48.92	272.31	37.59	-44.2	-45.3	15.6	0.00e+00	0	24	0	2663383040	54	4104
2026-01-09 04:12:49.92	271.99	37.42	-44.2	-45.3	15.6	0.00e+00	0	24	0	2668625920	54	4109
2026-01-09 04:12:50.92	271.68	37.25	-44.1	-45.2	15.6	0.00e+00	0	24	0	2674917376	54	4058
2026-01-09 04:12:51.92	271.38	37.08	-44.1	-45.2	15.7	0.00e+00	0	24	0	2680160256	54	4055
2026-01-09 04:12:52.93	271.07	36.91	-44.1	-45.1	15.7	0.00e+00	0	24	0	2686451712	54	4046
2026-01-09 04:12:53.92	270.77	36.75	-44.0	-45.0	15.7	0.00e+00	0	24	0	2691694592	54	4003
2026-01-09 04:12:54.92	270.48	36.58	-44.1	-45.1	15.7	0.00e+00	0	24	0	2696937472	54	4033
2026-01-09 04:12:55.92	270.18	36.41	-44.2	-45.3	15.6	0.00e+00	0	24	0	2703228928	54	4099
2026-01-09 04:12:56.92	269.89	36.24	-44.2	-45.3	15.6	0.00e+00	0	24	0	2708471808	54	4112
2026-01-09 04:12:57.92	269.60	36.07	-44.1	-45.2	15.7	0.00e+00	0	24	0	2713714688	54	4054
2026-01-09 04:12:58.91	269.32	35.91	-44.0	-45.1	15.7	0.00e+00	0	24	0	2720006144	54	4016
2026-01-09 04:12:59.91	269.04	35.74	-43.9	-44.9	15.7	0.00e+00	0	24	0	2725249024	54	3940
2026-01-09 04:13:00.91	268.76	35.57	-43.9	-45.0	15.7	0.00e+00	0	24	0	2730491904	54	3964
2026-01-09 04:13:01.91	268.48	35.40	-43.8	-44.8	15.7	0.00e+00	0	24	0	2736783360	54	3899
2026-01-09 04:13:02.91	268.21	35.23	-44.0	-45.0	15.7	0.00e+00	0	24	0	2742026240	54	3985
2026-01-09 04:13:03.90	267.94	35.07	-44.1	-45.1	15.6	0.00e+00	0	24	0	2748317696	54	4038
2026-01-09 04:13:04.90	267.67	34.90	-44.1	-45.2	15.7	0.00e+00	0	24	0	2753560576	54	4066
2026-01-09 04:13:05.90	267.41	34.73	-44.3	-45.3	15.6	0.00e+00	0	24	0	2758803456	54	4136
2026-01-09 04:13:06.90	267.15	34.57	-44.2	-45.3	15.6	0.00e+00	0	24	0	2765094912	54	4121
2026-01-09 04:13:07.90	266.89	34.40	-44.3	-45.3	15.6	0.00e+00	0	24	0	2770337792	54	4133
2026-01-09 04:13:08.90	266.63	34.23	-44.2	-45.3	15.6	0.00e+00	0	24	0	2775580672	54	4110
2026-01-09 04:13:09.91	266.37	34.06	-44.1	-45.2	15.6	0.00e+00	0	24	0	2781872128	54	4057
2026-01-09 04:13:10.91	266.12	33.90	-44.3	-45.3	15.6	0.00e+00	0	24	0	2787115008	54	4133
2026-01-09 04:13:11.91	265.87	33.73	-44.2	-45.3	15.6	0.00e+00	0	24	0	2792357888	54	4113
2026-01-09 04:13:12.91	265.63	33.57	-44.4	-45.4	15.6	0.00e+00	0	24	0	2798649344	54	4170
2026-01-09 04:13:13.91	265.38	33.40	-44.2	-45.2	15.6	0.00e+00	0	24	0	2803892224	54	4094
2026-01-09 04:13:14.91	265.14	33.23	-44.2	-45.3	15.6	0.00e+00	0	24	0	2810183680	54	4109
2026-01-09 04:13:15.90	264.90	33.07	-44.3	-45.3	15.6	0.00e+00	0	24	0	2815426560	54	4131
2026-01-09 04:13:16.90	264.67	32.91	-44.3	-45.3	15.6	0.00e+00	0	24	0	2820669440	54	4133
2026-01-09 04:13:17.90	264.43	32.74	-44.4	-45.4	15.6	0.00e+00	0	24	0	2826960896	54	4176
2026-01-09 04:13:18.90	264.20	32.58	-44.4	-45.5	15.6	0.00e+00	0	24	0	2832203776	54	4205
2026-01-09 04:13:19.90	263.97	32.41	-44.3	-45.4	15.6	0.00e+00	0	24	0	2837446656	54	4161
2026-01-09 04:13:20.90	263.74	32.25	-44.4	-45.4	15.6	0.00e+00	0	24	0	2843738112	54	4176
2026-01-09 04:13:21.89	263.52	32.09	-44.3	-45.4	15.6	0.00e+00	0	24	0	2848980992	54	4148
2026-01-09 04:13:22.89	263.30	31.93	-44.4	-45.5	15.6	0.00e+00	0	24	0	2854223872	54	4205
2026-01-09 04:13:23.89	263.08	31.77	-44.4	-45.4	15.6	0.00e+00	0	24	0	2860515328	54	4179
2026-01-09 04:13:24.89	262.86	31.60	-44.4	-45.4	15.6	0.00e+00	0	24	0	2865758208	54	4189
2026-01-09 04:13:25.89	262.64	31.44	-44.5	-45.6	15.6	0.00e+00	0	24	0	2871001088	54	4260
2026-01-09 04:13:26.89	262.43	31.28	-44.4	-45.5	15.6	0.00e+00	0	24	0	2877292544	54	4214
2026-01-09 04:13:27.89	262.22	31.12	-44.5	-45.5	15.6	0.00e+00	0	24	0	2882535424	54	4226
2026-01-09 04:13:28.89	262.01	30.96	-44.5	-45.5	15.6	0.00e+00	0	24	0	2887778304	54	4222
2026-01-09 04:13:29.89	261.80	30.80	-44.5	-45.5	15.6	0.00e+00	0	24	0	2894069760	54	4217
2026-01-09 04:13:30.89	261.60	30.64	-44.5	-45.6	15.6	0.00e+00	0	24	0	2899312640	54	4255
2026-01-09 04:13:31.88	261.39	30.49	-44.5	-45.5	15.6	0.00e+00	0	24	0	2904555520	54	4222
2026-01-09 04:13:32.88	261.19	30.33	-44.3	-45.4	15.6	0.00e+00	0	24	0	2910846976	54	4174
2026-01-09 04:13:33.88	260.99	30.17	-44.4	-45.5	15.6	0.00e+00	0	24	0	2916089856	54	4221
2026-01-09 04:13:34.89	260.79	30.01	-44.5	-45.5	15.6	0.00e+00	0	24	0	2922381312	54	4216
2026-01-09 04:13:35.89	260.60	29.86	-44.3	-45.4	15.6	0.00e+00	0	24	0	2927624192	54	4168
2026-01-09 04:13:36.89	260.40	29.70	-44.4	-45.5	15.6	0.00e+00	0	24	0	2932867072	54	4197
2026-01-09 04:13:37.88	260.21	29.55	-44.4	-45.4	15.6	0.00e+00	0	24	0	2939158528	54	4175
2026-01-09 04:13:38.88	260.02	29.39	-44.4	-45.5	15.6	0.00e+00	0	24	0	2944401408	54	4202
2026-01-09 04:13:39.88	259.84	29.24	-44.6	-45.6	15.6	0.00e+00	0	24	0	2949644288	54	4281
2026-01-09 04:13:40.87	259.65	29.08	-44.8	-45.8	15.5	0.00e+00	0	24	0	2955935744	54	4385
2026-01-09 04:13:41.87	259.47	28.93	-44.9	-46.0	15.5	0.00e+00	0	24	0	2961178624	54	4468
2026-01-09 04:13:42.86	259.29	28.78	-44.9	-46.0	15.6	0.00e+00	0	24	0	2966421504	55	4208
2026-01-09 04:13:43.86	259.11	28.62	-44.9	-46.0	15.5	0.00e+00	0	24	0	2972712960	55	4212
2026-01-09 04:13:44.86	258.93	28.47	-44.9	-46.0	15.5	0.00e+00	0	24	0	2977955840	55	4218
2026-01-09 04:13:45.86	258.75	28.32	-44.9	-46.0	15.5	0.00e+00	0	24	0	2984247296	55	4230
2026-01-09 04:13:46.87	258.57	28.17	-44.9	-46.0	15.5	0.00e+00	0	24	0	2989490176	55	4196
2026-01-09 04:13:47.87	258.40	28.02	-44.8	-45.9	15.5	0.00e+00	0	24	0	2994733056	55	4159
2026-01-09 04:13:48.87	258.23	27.87	-44.8	-45.9	15.5	0.00e+00	0	24	0	3001024512	55	4156
2026-01-09 04:13:49.87	258.05	27.72	-44.9	-45.9	15.5	0.00e+00	0	24	0	3006267392	55	4184
2026-01-09 04:13:50.87	257.89	27.57	-44.9	-45.9	15.5	0.00e+00	0	24	0	3011510272	55	4179
2026-01-09 04:13:51.86	257.72	27.42	-44.7	-45.8	15.6	0.00e+00	0	24	0	3017801728	55	4113
2026-01-09 04:13:52.86	257.55	27.27	-44.6	-45.7	15.6	0.00e+00	0	24	0	3023044608	55	4066
2026-01-09 04:13:53.86	257.39	27.13	-44.6	-45.7	15.6	0.00e+00	0	24	0	3028287488	55	4063
2026-01-09 04:13:54.87	257.22	26.98	-44.7	-45.8	15.6	0.00e+00	0	24	0	3034578944	55	4110
2026-01-09 04:13:55.86	257.06	26.83	-44.8	-45.8	15.6	0.00e+00	0	24	0	3039821824	55	4144
2026-01-09 04:13:56.86	256.90	26.69	-44.9	-46.0	15.5	0.00e+00	0	24	0	3046113280	55	4197
2026-01-09 04:13:57.86	256.75	26.54	-44.9	-46.0	15.5	0.00e+00	0	24	0	3051356160	55	4195
2026-01-09 04:13:58.86	256.59	26.40	-45.0	-46.1	15.5	0.00e+00	0	24	0	3056599040	55	4259
2026-01-09 04:13:59.86	256.43	26.25	-45.1	-46.1	15.5	0.00e+00	0	24	0	3062890496	55	4284
2026-01-09 04:14:00.86	256.28	26.11	-45.0	-46.0	15.5	0.00e+00	0	24	0	3068133376	55	4237
2026-01-09 04:14:01.85	256.13	25.97	-44.9	-46.0	15.5	0.00e+00	0	24	0	3073376256	55	4214
2026-01-09 04:14:02.85	255.98	25.82	-45.0	-46.0	15.5	0.00e+00	0	24	0	3079667712	55	4236
2026-01-09 04:14:03.85	255.83	25.68	-44.8	-45.9	15.5	0.00e+00	0	24	0	3084910592	55	4171
2026-01-09 04:14:04.85	255.68	25.54	-44.9	-45.9	15.5	0.00e+00	0	24	0	3090153472	55	4182
2026-01-09 04:14:05.84	255.53	25.40	-44.9	-46.0	15.5	0.00e+00	0	24	0	3096444928	55	4207
2026-01-09 04:14:06.84	255.39	25.26	-44.7	-45.7	15.6	0.00e+00	0	24	0	3101687808	55	4091
2026-01-09 04:14:07.84	255.24	25.12	-44.6	-45.7	15.6	0.00e+00	0	24	0	3106930688	55	4079
2026-01-09 04:14:08.83	255.10	24.98	-44.7	-45.7	15.6	0.00e+00	0	24	0	3113222144	55	4098
2026-01-09 04:14:09.83	254.96	24.84	-44.6	-45.7	15.6	0.00e+00	0	24	0	3118465024	55	4063
2026-01-09 04:14:10.84	254.82	24.70	-44.6	-45.6	15.6	0.00e+00	0	24	0	3123707904	55	4034
2026-01-09 04:14:11.84	254.68	24.56	-44.6	-45.7	15.6	0.00e+00	0	24	0	3129999360	55	4069
2026-01-09 04:14:12.84	254.54	24.43	-44.7	-45.8	15.6	0.00e+00	0	24	0	3135242240	55	4114
2026-01-09 04:14:13.84	254.40	24.29	-44.8	-45.8	15.6	0.00e+00	0	24	0	3140485120	55	4144
2026-01-09 04:14:14.84	254.26	24.15	-44.7	-45.8	15.6	0.00e+00	0	24	0	3146776576	55	4124
2026-01-09 04:14:15.85	254.13	24.02	-44.8	-45.9	15.5	0.00e+00	0	24	0	3152019456	55	4162
2026-01-09 04:14:16.85	254.00	23.88	-44.8	-45.9	15.5	0.00e+00	0	24	0	3158310912	55	4157
2026-01-09 04:14:17.85	253.86	23.75	-44.7	-45.8	15.6	0.00e+00	0	24	0	3163553792	55	4106
2026-01-09 04:14:18.85	253.73	23.61	-44.8	-45.8	15.6	0.00e+00	0	24	0	3169845248	55	4135
2026-01-09 04:14:19.84	253.60	23.48	-44.8	-45.9	15.5	0.00e+00	0	24	0	3175088128	55	4153
2026-01-09 04:14:20.84	253.47	23.35	-44.7	-45.7	15.6	0.00e+00	0	24	0	3180331008	55	4082
2026-01-09 04:14:21.84	253.35	23.21	-44.8	-45.8	15.5	0.00e+00	0	24	0	3185573888	55	4130
2026-01-09 04:14:22.84	253.22	23.08	-44.9	-45.9	15.5	0.00e+00	0	24	0	3191865344	55	4180
2026-01-09 04:14:23.84	253.09	22.95	-44.9	-46.0	15.5	0.00e+00	0	24	0	3197108224	55	4198
2026-01-09 04:14:24.84	252.97	22.82	-45.0	-46.1	15.5	0.00e+00	0	24	0	3202351104	55	4285
2026-01-09 04:14:25.83	252.85	22.69	-45.1	-46.1	15.5	0.00e+00	0	24	0	3208642560	55	4291
2026-01-09 04:14:26.83	252.72	22.56	-45.1	-46.2	15.5	0.00e+00	0	24	0	3213885440	55	4298
2026-01-09 04:14:27.82	252.60	22.43	-45.1	-46.2	15.5	0.00e+00	0	24	0	3220176896	55	4317
2026-01-09 04:14:28.82	252.48	22.30	-45.1	-46.3	15.5	0.00e+00	0	24	0	3225419776	55	4342
2026-01-09 04:14:29.83	252.36	22.17	-45.0	-46.1	15.5	0.00e+00	0	24	0	3230662656	55	4276
2026-01-09 04:14:30.82	252.25	22.05	-45.1	-46.2	15.5	0.00e+00	0	24	0	3236954112	55	4300
2026-01-09 04:14:31.83	252.13	21.92	-45.1	-46.2	15.5	0.00e+00	0	24	0	3242196992	55	4330
2026-01-09 04:14:32.83	252.01	21.79	-45.1	-46.2	15.5	0.00e+00	0	24	0	3247439872	55	4304
2026-01-09 04:14:33.83	251.90	21.66	-45.1	-46.2	15.5	0.00e+00	0	24	0	3253731328	55	4331
2026-01-09 04:14:34.82	251.78	21.54	-45.1	-46.2	15.5	0.00e+00	0	24	0	3258974208	55	4323
2026-01-09 04:14:35.81	251.67	21.42	-45.1	-46.2	15.5	0.00e+00	0	24	0	3265265664	55	4311
2026-01-09 04:14:36.81	251.56	21.29	-45.2	-46.3	15.4	0.00e+00	0	24	0	3270508544	55	4361
2026-01-09 04:14:37.81	251.45	21.17	-45.2	-46.3	15.4	0.00e+00	0	24	0	3275751424	55	4391
2026-01-09 04:14:38.80	251.34	21.04	-45.2	-46.3	15.4	0.00e+00	0	24	0	3282042880	55	4385
2026-01-09 04:14:39.81	251.23	20.92	-45.3	-46.4	15.4	0.00e+00	0	24	0	3287285760	55	4412
2026-01-09 04:14:40.81	251.12	20.80	-45.3	-46.4	15.4	0.00e+00	0	24	0	3292528640	55	4398
2026-01-09 04:14:41.82	251.01	20.67	-45.3	-46.4	15.4	0.00e+00	0	24	0	3298820096	55	4427
2026-01-09 04:14:42.82	250.90	20.55	-45.4	-46.5	15.4	0.00e+00	0	24	0	3304062976	55	4461
2026-01-09 04:14:43.83	250.79	20.43	-45.6	-46.7	15.4	0.00e+00	0	24	0	3309305856	56	4299
2026-01-09 04:14:44.83	250.69	20.31	-45.5	-46.6	15.4	0.00e+00	0	24	0	3315597312	56	4291
2026-01-09 04:14:45.83	250.58	20.19	-45.6	-46.7	15.4	0.00e+00	0	24	0	3320840192	56	4332
2026-01-09 04:14:46.83	250.48	20.07	-45.5	-46.6	15.4	0.00e+00	0	24	0	3327131648	56	4281
2026-01-09 04:14:47.84	250.38	19.95	-45.6	-46.7	15.4	0.00e+00	0	24	0	3332374528	56	4325
2026-01-09 04:14:48.83	250.28	19.83	-45.6	-46.7	15.4	0.00e+00	0	24	0	3337617408	56	4303
2026-01-09 04:14:49.83	250.17	19.71	-45.6	-46.7	15.4	0.00e+00	0	24	0	3343908864	56	4318
2026-01-09 04:14:50.84	250.07	19.59	-45.7	-46.7	15.4	0.00e+00	0	24	0	3349151744	56	4339
2026-01-09 04:14:51.84	249.97	19.47	-45.6	-46.7	15.4	0.00e+00	0	24	0	3354394624	56	4312
2026-01-09 04:14:52.84	249.87	19.35	-45.7	-46.8	15.4	0.00e+00	0	24	0	3360686080	56	4350
2026-01-09 04:14:53.83	249.78	19.24	-45.6	-46.7	15.4	0.00e+00	0	24	0	3365928960	56	4334
2026-01-09 04:14:54.83	249.68	19.12	-45.8	-46.9	15.4	0.00e+00	0	24	0	3371171840	56	4397
2026-01-09 04:14:55.83	249.58	19.01	-45.8	-47.0	15.4	0.00e+00	0	24	0	3377463296	56	4456
2026-01-09 04:14:56.83	249.49	18.89	-45.9	-47.0	15.4	0.00e+00	0	24	0	3382706176	56	4472
2026-01-09 04:14:57.84	249.39	18.77	-45.9	-47.0	15.5	0.00e+00	0	24	0	3388997632	57	4228
2026-01-09 04:14:58.84	249.30	18.66	-46.0	-47.2	15.4	0.00e+00	0	24	0	3394240512	57	4295
2026-01-09 04:14:59.85	249.20	18.54	-46.0	-47.2	15.4	0.00e+00	0	24	0	3400531968	57	4296
2026-01-09 04:15:00.85	249.11	18.43	-46.1	-47.3	15.4	0.00e+00	0	24	0	3405774848	57	4344
2026-01-09 04:15:01.85	249.02	18.32	-46.0	-47.3	15.4	0.00e+00	0	24	0	3411017728	57	4343
2026-01-09 04:15:02.85	248.93	18.21	-46.0	-47.3	15.4	0.00e+00	0	24	0	3417309184	57	4366
2026-01-09 04:15:03.85	248.84	18.09	-46.2	-47.4	15.4	0.00e+00	0	24	0	3422552064	57	4425
2026-01-09 04:15:04.85	248.75	17.98	-46.2	-47.4	15.4	0.00e+00	0	24	0	3427794944	57	4408
2026-01-09 04:15:05.85	248.66	17.87	-46.3	-47.5	15.3	0.00e+00	0	24	0	3434086400	57	4448
2026-01-09 04:15:06.85	248.57	17.76	-46.2	-47.4	15.3	0.00e+00	0	24	0	3439329280	57	4392
2026-01-09 04:15:07.85	248.48	17.65	-46.4	-47.5	15.3	0.00e+00	0	24	0	3444572160	57	4480
2026-01-09 04:15:08.84	248.39	17.54	-46.3	-47.5	15.4	0.00e+00	0	24	0	3450863616	58	4226
2026-01-09 04:15:09.84	248.31	17.43	-46.4	-47.6	15.4	0.00e+00	0	24	0	3456106496	58	4248
2026-01-09 04:15:10.84	248.22	17.32	-46.5	-47.7	15.3	0.00e+00	0	24	0	3461349376	58	4314
2026-01-09 04:15:11.84	248.13	17.21	-46.5	-47.7	15.3	0.00e+00	0	24	0	3467640832	58	4300
2026-01-09 04:15:12.83	248.05	17.10	-46.6	-47.8	15.3	0.00e+00	0	24	0	3472883712	58	4347
2026-01-09 04:15:13.84	247.97	16.99	-46.6	-47.8	15.3	0.00e+00	0	24	0	3478126592	58	4342
2026-01-09 04:15:14.83	247.88	16.89	-46.6	-47.8	15.3	0.00e+00	0	24	0	3484418048	58	4368
2026-01-09 04:15:15.83	247.80	16.78	-46.6	-47.8	15.3	0.00e+00	0	24	0	3489660928	58	4372
2026-01-09 04:15:16.83	247.72	16.67	-46.6	-47.8	15.3	0.00e+00	0	24	0	3494903808	58	4366
2026-01-09 04:15:17.83	247.64	16.57	-46.6	-47.8	15.3	0.00e+00	0	24	0	3501195264	58	4355
2026-01-09 04:15:18.83	247.55	16.46	-46.6	-47.8	15.3	0.00e+00	0	24	0	3506438144	58	4377
2026-01-09 04:15:19.82	247.47	16.36	-46.5	-47.7	15.3	0.00e+00	0	24	0	3512729600	58	4302
2026-01-09 04:15:20.82	247.39	16.25	-46.6	-47.8	15.3	0.00e+00	0	24	0	3517972480	58	4344
2026-01-09 04:15:21.83	247.31	16.14	-46.5	-47.7	15.3	0.00e+00	0	24	0	3523215360	58	4300
2026-01-09 04:15:22.83	247.24	16.04	-46.5	-47.6	15.3	0.00e+00	0	24	0	3529506816	58	4288
2026-01-09 04:15:23.83	247.16	15.94	-46.5	-47.6	15.3	0.00e+00	0	24	0	3534749696	58	4267
2026-01-09 04:15:24.82	247.08	15.83	-46.6	-47.8	15.3	0.00e+00	0	24	0	3539992576	58	4343
2026-01-09 04:15:25.82	247.00	15.73	-46.6	-47.8	15.3	0.00e+00	0	24	0	3546284032	58	4348
2026-01-09 04:15:26.82	246.93	15.63	-46.6	-47.8	15.3	0.00e+00	0	24	0	3551526912	58	4356
2026-01-09 04:15:27.81	246.85	15.53	-46.6	-47.8	15.3	0.00e+00	0	24	0	3556769792	58	4354
2026-01-09 04:15:28.81	246.78	15.42	-46.7	-47.8	15.3	0.00e+00	0	24	0	3563061248	58	4380
2026-01-09 04:15:29.81	246.70	15.32	-46.7	-47.9	15.2	0.00e+00	0	24	0	3568304128	58	4414
2026-01-09 04:15:30.81	246.63	15.22	-46.8	-48.0	15.2	0.00e+00	0	24	0	3574595584	58	4452
2026-01-09 04:15:31.80	246.55	15.12	-46.8	-48.0	15.2	0.00e+00	0	24	0	3579838464	58	4475
2026-01-09 04:15:32.80	246.48	15.02	-46.9	-48.1	15.2	0.00e+00	0	24	0	3585081344	58	4506
2026-01-09 04:15:33.80	246.41	14.92	-46.9	-48.0	15.3	0.00e+00	0	24	0	3591372800	59	4239
2026-01-09 04:15:34.79	246.34	14.82	-47.1	-48.2	15.2	0.00e+00	0	24	0	3596615680	59	4333
2026-01-09 04:15:35.78	246.26	14.72	-47.0	-48.2	15.2	0.00e+00	0	24	0	3601858560	59	4329
2026-01-09 04:15:36.79	246.19	14.62	-47.0	-48.2	15.3	0.00e+00	0	24	0	3608150016	59	4300
2026-01-09 04:15:37.79	246.12	14.52	-47.0	-48.2	15.2	0.00e+00	0	24	0	3613392896	59	4327
2026-01-09 04:15:38.79	246.05	14.42	-47.0	-48.1	15.2	0.00e+00	0	24	0	3618635776	59	4290
2026-01-09 04:15:39.79	245.98	14.33	-47.0	-48.2	15.2	0.00e+00	0	24	0	3624927232	59	4307
2026-01-09 04:15:40.79	245.91	14.23	-46.9	-48.0	15.3	0.00e+00	0	24	0	3630170112	59	4236
2026-01-09 04:15:41.79	245.84	14.13	-47.0	-48.2	15.2	0.00e+00	0	24	0	3635412992	59	4317
