passes_logs/2026/01/09/R3.2S_Murmansk/R3.2S_Murmansk__20260109_064242_NOAA_20_JPSS-1_rec.log

#Pass ID: 20260109_064242_NOAA 20 (JPSS-1)
#Satellite: NOAA 20 (JPSS-1)
#Configuration: NOAA 20
#almurnet v.1.7.20251203
#Start time: 2026-01-09 06:42:43

#Version: 2.2.20231116
#Station: R3.2S_Murmansk
#Location: 33.079688 lon 68.888172 lat
#TLE: 1 43013U 17073A   26008.56343035  .00000133  00000+0  84205-4 0  9993
#TLE: 2 43013  98.7630 309.5710 0001731  48.5146 311.6178 14.19534569421822

#Time	Az	El	Level	Level2	SNR	BER	BlckErr	Temp	State	Recorded	gain1	gain2
2026-01-09 06:42:43.45	89.16	2.04	-57.3	-73.3	3.8	1.49e+00	0	21	0	0	81	21799
2026-01-09 06:42:44.45	89.10	2.09	-57.2	-73.2	3.8	1.49e+00	0	22	104	0	79	24254
2026-01-09 06:42:45.44	89.05	2.15	-57.2	-73.2	3.8	1.49e+00	0	22	104	0	79	24343
2026-01-09 06:42:46.45	88.99	2.21	-57.2	-73.2	3.8	1.49e+00	0	22	104	0	79	24284
2026-01-09 06:42:47.45	88.94	2.27	-57.2	-73.2	3.8	1.49e+00	0	22	104	0	79	24213
2026-01-09 06:42:48.45	88.88	2.33	-57.2	-73.2	3.8	1.49e+00	0	22	104	0	79	24239
2026-01-09 06:42:49.44	88.83	2.39	-57.2	-73.2	3.8	1.49e+00	0	22	104	0	79	24276
2026-01-09 06:42:50.44	88.77	2.45	-57.2	-73.2	3.8	1.49e+00	0	22	104	0	79	24214
2026-01-09 06:42:51.44	88.72	2.51	-57.2	-73.2	3.8	1.49e+00	0	22	104	0	79	24247
2026-01-09 06:42:52.45	88.66	2.57	-57.2	-73.2	3.8	1.49e+00	0	22	104	0	79	24362
2026-01-09 06:42:53.44	88.60	2.63	-57.2	-73.2	3.8	1.49e+00	0	22	104	0	79	24257
2026-01-09 06:42:54.44	88.55	2.69	-57.2	-73.2	3.8	1.49e+00	0	22	104	0	79	24330
2026-01-09 06:42:55.44	88.49	2.75	-57.2	-73.2	3.8	1.49e+00	0	22	104	0	79	24250
2026-01-09 06:42:56.45	88.43	2.81	-57.2	-73.2	3.8	1.49e+00	0	22	104	0	79	24347
2026-01-09 06:42:57.45	88.37	2.87	-57.2	-73.2	3.8	1.49e+00	0	22	104	0	79	24388
2026-01-09 06:42:58.44	88.32	2.93	-57.2	-73.3	3.8	1.49e+00	0	22	104	0	79	24466
2026-01-09 06:42:59.44	88.26	2.99	-57.2	-73.3	3.8	1.49e+00	0	22	104	0	79	24459
2026-01-09 06:43:00.44	88.20	3.05	-57.2	-73.3	3.8	1.49e+00	0	22	104	0	79	24428
2026-01-09 06:43:01.45	88.14	3.11	-57.2	-73.2	3.8	1.49e+00	0	22	104	0	79	24392
2026-01-09 06:43:02.44	88.08	3.17	-57.2	-73.2	3.8	1.49e+00	0	22	104	0	79	24303
2026-01-09 06:43:03.44	88.02	3.23	-57.2	-73.2	3.8	1.49e+00	0	22	104	0	79	24239
2026-01-09 06:43:04.45	87.96	3.29	-57.2	-73.2	3.8	1.49e+00	0	22	104	0	79	24151
2026-01-09 06:43:05.45	87.90	3.36	-57.2	-73.2	3.8	1.49e+00	0	22	104	0	79	24189
2026-01-09 06:43:06.45	87.84	3.42	-57.2	-73.2	3.8	1.49e+00	0	22	104	0	79	24360
2026-01-09 06:43:07.46	87.78	3.48	-57.2	-73.3	3.8	1.49e+00	0	22	104	0	79	24414
2026-01-09 06:43:08.45	87.72	3.54	-57.2	-73.2	3.8	1.49e+00	0	23	104	0	79	24369
2026-01-09 06:43:09.45	87.66	3.60	-57.2	-73.2	3.8	1.49e+00	0	22	104	0	79	24313
2026-01-09 06:43:10.44	87.60	3.66	-57.2	-73.2	3.8	1.49e+00	0	22	104	0	79	24232
2026-01-09 06:43:11.44	87.54	3.72	-57.2	-73.2	3.8	1.49e+00	0	22	104	0	79	24188
2026-01-09 06:43:12.44	87.48	3.78	-57.2	-73.1	3.8	1.49e+00	0	22	104	0	79	24040
2026-01-09 06:43:13.44	87.41	3.85	-57.2	-73.0	3.8	1.49e+00	0	22	104	0	79	23850
2026-01-09 06:43:14.44	87.35	3.91	-57.2	-73.1	3.8	1.49e+00	0	22	104	0	79	23924
2026-01-09 06:43:15.44	87.29	3.97	-57.2	-73.1	3.8	1.49e+00	0	22	104	0	79	23980
2026-01-09 06:43:16.43	87.23	4.03	-57.2	-73.2	3.8	1.49e+00	0	22	104	0	79	24211
2026-01-09 06:43:17.43	87.17	4.09	-57.2	-73.2	3.8	1.49e+00	0	22	104	0	79	24385
2026-01-09 06:43:18.44	87.10	4.16	-57.2	-73.2	3.8	1.49e+00	0	23	104	0	79	24268
2026-01-09 06:43:19.44	87.04	4.22	-57.2	-73.1	3.8	1.49e+00	0	22	104	0	79	23891
2026-01-09 06:43:20.45	86.97	4.28	-57.2	-72.6	3.8	1.49e+00	0	22	104	0	79	22714
2026-01-09 06:43:21.45	86.91	4.35	-57.2	-72.1	3.8	1.49e+00	0	22	104	0	79	21340
2026-01-09 06:43:22.45	86.84	4.41	-57.2	-71.5	3.8	1.49e+00	0	23	104	0	79	19929
2026-01-09 06:43:23.46	86.78	4.47	-57.1	-70.7	4.0	1.49e+00	0	23	104	0	79	18197
2026-01-09 06:43:24.46	86.71	4.54	-57.1	-69.6	4.2	1.46e+00	0	22	0	0	79	15992
2026-01-09 06:43:25.47	86.65	4.60	-57.0	-69.0	4.4	1.37e+00	57	23	0	0	79	14885
2026-01-09 06:43:26.48	86.58	4.66	-57.0	-67.9	4.9	7.70e-01	0	23	0	1048576	79	13111
2026-01-09 06:43:27.48	86.52	4.73	-57.0	-68.6	4.6	9.38e-01	0	23	0	3145728	79	14226
2026-01-09 06:43:28.48	86.45	4.79	-56.9	-66.9	5.4	6.76e-01	0	23	0	5242880	79	11730
2026-01-09 06:43:29.47	86.38	4.85	-56.8	-66.5	5.6	4.04e-01	0	23	0	7340032	79	11260
2026-01-09 06:43:30.47	86.32	4.92	-56.8	-66.4	5.7	3.94e-01	0	23	0	9437184	79	11108
2026-01-09 06:43:31.47	86.25	4.98	-56.8	-65.9	6.0	3.57e-01	0	23	0	10485760	79	10530
2026-01-09 06:43:32.47	86.18	5.05	-56.8	-66.3	5.8	2.89e-01	0	23	0	12582912	79	10944
2026-01-09 06:43:33.47	86.11	5.11	-56.9	-66.4	5.8	3.33e-01	0	23	0	14680064	79	11156
2026-01-09 06:43:34.47	86.05	5.17	-56.8	-66.1	5.9	6.98e-01	0	23	0	16777216	79	10703
2026-01-09 06:43:35.47	85.98	5.24	-56.5	-64.1	7.4	6.29e-01	0	23	0	18874368	79	8470
2026-01-09 06:43:36.47	85.91	5.30	-56.7	-65.0	7.0	1.59e-02	0	23	0	19922944	78	9955
2026-01-09 06:43:37.47	85.84	5.37	-56.9	-67.0	4.3	1.49e+00	0	23	104	20971520	79	11879
2026-01-09 06:43:38.47	85.77	5.43	-55.5	-60.4	10.8	1.19e-03	0	23	0	22020096	77	6237
2026-01-09 06:43:39.48	85.70	5.50	-55.4	-60.0	11.2	4.02e-04	0	23	0	23068672	77	5976
2026-01-09 06:43:40.47	85.63	5.56	-55.2	-59.6	11.5	9.76e-05	0	23	0	25165824	77	5665
2026-01-09 06:43:41.46	85.56	5.63	-55.3	-59.9	11.4	1.88e-04	0	23	0	27262976	77	5864
2026-01-09 06:43:42.46	85.49	5.69	-55.3	-59.8	11.4	1.18e-04	0	23	0	29360128	77	5803
2026-01-09 06:43:43.46	85.42	5.76	-55.4	-60.0	11.2	3.11e-04	0	23	0	31457280	77	5972
2026-01-09 06:43:44.45	85.35	5.82	-55.4	-60.1	11.1	1.34e-04	0	23	0	32505856	77	6020
2026-01-09 06:43:45.44	85.28	5.89	-55.1	-59.4	11.6	9.23e-05	0	23	0	34603008	76	5893
2026-01-09 06:43:46.44	85.21	5.95	-55.1	-59.3	11.7	4.95e-05	0	23	0	36700160	76	5829
2026-01-09 06:43:47.43	85.14	6.02	-55.0	-59.0	12.0	1.37e-05	0	23	0	38797312	76	5606
2026-01-09 06:43:48.43	85.06	6.08	-54.8	-58.5	12.3	6.80e-06	0	23	0	39845888	76	5327
2026-01-09 06:43:49.43	84.99	6.15	-54.4	-57.8	12.8	7.00e-07	0	23	0	41943040	75	5179
2026-01-09 06:43:50.42	84.92	6.21	-54.4	-57.8	12.8	0.00e+00	0	23	0	44040192	75	5218
2026-01-09 06:43:51.42	84.84	6.28	-54.4	-58.0	12.7	0.00e+00	0	23	0	46137344	75	5286
2026-01-09 06:43:52.42	84.77	6.35	-54.2	-57.5	13.1	0.00e+00	0	23	0	48234496	75	4994
2026-01-09 06:43:53.41	84.70	6.41	-53.9	-56.9	13.3	0.00e+00	0	23	0	49283072	74	4979
2026-01-09 06:43:54.40	84.62	6.48	-53.9	-57.0	13.2	0.00e+00	0	23	0	51380224	74	5031
2026-01-09 06:43:55.40	84.55	6.55	-53.9	-56.9	13.4	0.00e+00	0	23	0	53477376	74	4953
2026-01-09 06:43:56.40	84.47	6.61	-54.0	-57.0	13.3	0.00e+00	0	23	0	55574528	74	5039
2026-01-09 06:43:57.40	84.40	6.68	-53.9	-56.9	13.4	0.00e+00	0	23	0	57671680	74	4945
2026-01-09 06:43:58.39	84.32	6.75	-54.0	-57.1	13.2	0.00e+00	0	23	0	58720256	74	5070
2026-01-09 06:43:59.39	84.24	6.81	-54.0	-57.1	13.2	0.00e+00	0	23	0	60817408	74	5076
2026-01-09 06:44:00.39	84.17	6.88	-54.0	-57.1	13.2	0.00e+00	0	23	0	62914560	74	5069
2026-01-09 06:44:01.39	84.09	6.95	-53.8	-56.8	13.5	0.00e+00	0	23	0	65011712	74	4900
2026-01-09 06:44:02.39	84.01	7.02	-53.6	-56.5	13.5	0.00e+00	0	23	0	66060288	73	5004
2026-01-09 06:44:03.37	83.94	7.08	-53.7	-56.6	13.5	0.00e+00	0	23	0	68157440	73	5075
2026-01-09 06:44:04.38	83.86	7.15	-53.6	-56.4	13.5	0.00e+00	0	23	0	70254592	73	4968
2026-01-09 06:44:05.37	83.78	7.22	-53.7	-56.6	13.5	0.00e+00	0	23	0	72351744	73	5045
2026-01-09 06:44:06.37	83.70	7.29	-53.7	-56.5	13.5	0.00e+00	0	23	0	74448896	73	5024
2026-01-09 06:44:07.37	83.62	7.36	-53.6	-56.4	13.6	0.00e+00	0	23	0	75497472	73	4939
2026-01-09 06:44:08.37	83.54	7.42	-53.6	-56.4	13.6	0.00e+00	0	23	0	77594624	73	4979
2026-01-09 06:44:09.37	83.46	7.49	-53.6	-56.4	13.7	0.00e+00	0	23	0	79691776	73	4951
2026-01-09 06:44:10.37	83.38	7.56	-53.7	-56.5	13.5	0.00e+00	0	23	0	81788928	73	5016
2026-01-09 06:44:11.36	83.30	7.63	-53.6	-56.4	13.6	0.00e+00	0	23	0	82837504	73	4963
2026-01-09 06:44:12.36	83.22	7.70	-53.6	-56.4	13.6	0.00e+00	0	23	0	84934656	73	4929
2026-01-09 06:44:13.36	83.13	7.77	-53.5	-56.3	13.7	0.00e+00	0	23	0	87031808	73	4891
2026-01-09 06:44:14.35	83.05	7.84	-53.5	-56.3	13.7	0.00e+00	0	23	0	89128960	73	4888
2026-01-09 06:44:15.36	82.97	7.91	-53.5	-56.2	13.7	0.00e+00	0	23	0	91226112	73	4862
2026-01-09 06:44:16.36	82.89	7.97	-53.5	-56.3	13.7	0.00e+00	0	23	0	92274688	73	4885
2026-01-09 06:44:17.36	82.80	8.04	-53.5	-56.3	13.7	0.00e+00	0	23	0	94371840	73	4899
2026-01-09 06:44:18.35	82.72	8.11	-53.5	-56.2	13.7	0.00e+00	0	23	0	96468992	73	4862
2026-01-09 06:44:19.34	82.64	8.18	-53.4	-56.1	13.9	0.00e+00	0	23	0	98566144	73	4804
2026-01-09 06:44:20.34	82.55	8.25	-53.5	-56.2	13.8	0.00e+00	0	23	0	99614720	73	4830
2026-01-09 06:44:21.33	82.47	8.32	-53.4	-56.1	13.9	0.00e+00	0	23	0	101711872	73	4765
2026-01-09 06:44:22.33	82.38	8.39	-53.5	-56.1	13.8	0.00e+00	0	23	0	103809024	73	4813
2026-01-09 06:44:23.32	82.30	8.46	-53.5	-56.2	13.8	0.00e+00	0	23	0	105906176	73	4836
2026-01-09 06:44:24.31	82.21	8.53	-53.4	-56.0	13.9	0.00e+00	0	23	0	108003328	73	4738
2026-01-09 06:44:25.31	82.12	8.60	-53.4	-56.0	13.9	0.00e+00	0	23	0	109051904	73	4736
2026-01-09 06:44:26.30	82.04	8.67	-53.4	-56.1	13.9	0.00e+00	0	23	0	111149056	73	4774
2026-01-09 06:44:27.29	81.95	8.74	-53.4	-56.0	13.9	0.00e+00	0	23	0	113246208	73	4739
2026-01-09 06:44:28.29	81.86	8.81	-53.4	-56.0	13.9	0.00e+00	0	23	0	115343360	73	4734
2026-01-09 06:44:29.28	81.77	8.88	-53.4	-56.1	13.9	0.00e+00	0	23	0	116391936	73	4770
2026-01-09 06:44:30.28	81.68	8.96	-53.4	-56.1	13.9	0.00e+00	0	23	0	118489088	73	4784
2026-01-09 06:44:31.28	81.60	9.03	-53.5	-56.1	13.8	0.00e+00	0	23	0	120586240	73	4791
2026-01-09 06:44:32.29	81.50	9.10	-53.4	-56.0	13.9	0.00e+00	0	23	0	122683392	73	4746
2026-01-09 06:44:33.28	81.41	9.17	-53.4	-56.0	13.9	0.00e+00	0	23	0	124780544	73	4726
2026-01-09 06:44:34.28	81.32	9.24	-53.5	-56.2	13.8	0.00e+00	0	24	0	125829120	73	4821
2026-01-09 06:44:35.28	81.23	9.31	-53.5	-56.1	13.9	0.00e+00	0	23	0	127926272	73	4791
2026-01-09 06:44:36.28	81.14	9.39	-53.4	-56.0	13.9	0.00e+00	0	23	0	130023424	73	4745
2026-01-09 06:44:37.28	81.05	9.46	-53.5	-56.1	13.8	0.00e+00	0	23	0	132120576	73	4799
2026-01-09 06:44:38.28	80.96	9.53	-53.5	-56.2	13.8	0.00e+00	0	23	0	134217728	73	4833
2026-01-09 06:44:39.28	80.86	9.60	-53.4	-56.0	14.0	0.00e+00	0	23	0	135266304	73	4707
2026-01-09 06:44:40.27	80.77	9.68	-53.4	-56.0	14.0	0.00e+00	0	24	0	137363456	73	4734
2026-01-09 06:44:41.27	80.67	9.75	-53.4	-55.9	14.0	0.00e+00	0	23	0	139460608	73	4690
2026-01-09 06:44:42.26	80.58	9.82	-53.4	-56.0	14.0	0.00e+00	0	23	0	141557760	73	4717
2026-01-09 06:44:43.27	80.48	9.89	-53.3	-55.9	14.0	0.00e+00	0	23	0	143654912	73	4654
2026-01-09 06:44:44.26	80.39	9.97	-53.4	-56.0	13.9	0.00e+00	0	23	0	144703488	73	4738
2026-01-09 06:44:45.26	80.29	10.04	-53.3	-55.9	14.0	0.00e+00	0	23	0	146800640	73	4684
2026-01-09 06:44:46.25	80.20	10.11	-53.4	-55.9	14.0	0.00e+00	0	23	0	148897792	73	4684
2026-01-09 06:44:47.24	80.10	10.19	-53.3	-55.8	14.1	0.00e+00	0	23	0	150994944	73	4641
2026-01-09 06:44:48.23	80.01	10.26	-53.3	-55.9	14.1	0.00e+00	0	23	0	152043520	73	4665
2026-01-09 06:44:49.23	79.91	10.33	-53.3	-55.8	14.1	0.00e+00	0	23	0	154140672	73	4643
2026-01-09 06:44:50.23	79.81	10.41	-53.3	-55.8	14.1	0.00e+00	0	23	0	156237824	73	4614
2026-01-09 06:44:51.22	79.71	10.48	-53.3	-55.8	14.1	0.00e+00	0	23	0	158334976	73	4600
2026-01-09 06:44:52.22	79.61	10.55	-53.3	-55.8	14.1	0.00e+00	0	23	0	160432128	73	4633
2026-01-09 06:44:53.22	79.51	10.63	-53.3	-55.8	14.1	0.00e+00	0	23	0	161480704	73	4620
2026-01-09 06:44:54.21	79.41	10.70	-53.3	-55.9	14.1	0.00e+00	0	23	0	163577856	73	4671
2026-01-09 06:44:55.21	79.31	10.78	-53.3	-55.8	14.1	0.00e+00	0	23	0	165675008	73	4650
2026-01-09 06:44:56.21	79.21	10.85	-53.3	-55.8	14.1	0.00e+00	0	23	0	167772160	73	4633
2026-01-09 06:44:57.20	79.11	10.93	-53.3	-55.8	14.1	0.00e+00	0	23	0	168820736	73	4609
2026-01-09 06:44:58.20	79.00	11.00	-53.3	-55.8	14.1	0.00e+00	0	23	0	170917888	73	4633
2026-01-09 06:44:59.19	78.90	11.08	-53.2	-55.7	14.2	0.00e+00	0	24	0	173015040	73	4565
2026-01-09 06:45:00.19	78.80	11.15	-53.2	-55.7	14.2	0.00e+00	0	23	0	175112192	73	4558
2026-01-09 06:45:01.19	78.69	11.23	-53.3	-55.9	14.0	0.00e+00	0	23	0	177209344	73	4662
2026-01-09 06:45:02.18	78.59	11.30	-53.3	-55.8	14.1	0.00e+00	0	24	0	178257920	73	4638
2026-01-09 06:45:03.18	78.48	11.38	-53.3	-55.8	14.1	0.00e+00	0	23	0	180355072	73	4625
2026-01-09 06:45:04.17	78.38	11.45	-53.3	-55.8	14.1	0.00e+00	0	24	0	182452224	73	4609
2026-01-09 06:45:05.17	78.27	11.53	-53.3	-55.8	14.1	0.00e+00	0	23	0	184549376	73	4619
2026-01-09 06:45:06.16	78.16	11.60	-53.3	-55.8	14.1	0.00e+00	0	24	0	185597952	73	4631
2026-01-09 06:45:07.15	78.06	11.68	-53.3	-55.8	14.1	0.00e+00	0	23	0	187695104	73	4630
2026-01-09 06:45:08.15	77.95	11.76	-53.3	-55.8	14.2	0.00e+00	0	23	0	189792256	73	4615
2026-01-09 06:45:09.16	77.84	11.83	-53.4	-55.9	14.0	0.00e+00	0	23	0	191889408	73	4694
2026-01-09 06:45:10.16	77.73	11.91	-53.3	-55.8	14.1	0.00e+00	0	24	0	193986560	73	4615
2026-01-09 06:45:11.15	77.62	11.99	-53.2	-55.7	14.2	0.00e+00	0	23	0	195035136	73	4559
2026-01-09 06:45:12.15	77.51	12.06	-53.2	-55.7	14.2	0.00e+00	0	24	0	197132288	73	4553
2026-01-09 06:45:13.15	77.40	12.14	-53.1	-55.5	14.2	0.00e+00	0	23	0	199229440	72	4743
2026-01-09 06:45:14.15	77.28	12.22	-53.1	-55.5	14.2	0.00e+00	0	24	0	201326592	72	4728
2026-01-09 06:45:15.15	77.17	12.30	-53.0	-55.3	14.3	0.00e+00	0	23	0	202375168	72	4629
2026-01-09 06:45:16.15	77.06	12.37	-53.0	-55.3	14.3	0.00e+00	0	24	0	204472320	72	4632
2026-01-09 06:45:17.15	76.94	12.45	-53.1	-55.4	14.2	0.00e+00	0	24	0	206569472	72	4695
2026-01-09 06:45:18.15	76.83	12.53	-53.1	-55.4	14.3	0.00e+00	0	23	0	208666624	72	4678
2026-01-09 06:45:19.14	76.72	12.61	-53.0	-55.4	14.2	0.00e+00	0	23	0	210763776	72	4669
2026-01-09 06:45:20.14	76.60	12.68	-53.0	-55.4	14.2	0.00e+00	0	24	0	211812352	72	4669
2026-01-09 06:45:21.14	76.48	12.76	-53.1	-55.5	14.2	0.00e+00	0	24	0	213909504	72	4751
2026-01-09 06:45:22.14	76.37	12.84	-53.1	-55.5	14.2	0.00e+00	0	24	0	216006656	72	4726
2026-01-09 06:45:23.14	76.25	12.92	-53.1	-55.4	14.2	0.00e+00	0	24	0	218103808	72	4677
2026-01-09 06:45:24.14	76.13	13.00	-53.0	-55.4	14.3	0.00e+00	0	24	0	220200960	72	4670
2026-01-09 06:45:25.14	76.01	13.08	-53.0	-55.4	14.3	0.00e+00	0	24	0	221249536	72	4670
2026-01-09 06:45:26.15	75.89	13.16	-53.1	-55.4	14.2	0.00e+00	0	24	0	223346688	72	4677
2026-01-09 06:45:27.15	75.77	13.24	-53.1	-55.5	14.2	0.00e+00	0	24	0	225443840	72	4739
2026-01-09 06:45:28.15	75.65	13.32	-53.1	-55.4	14.2	0.00e+00	0	24	0	227540992	72	4704
2026-01-09 06:45:29.14	75.53	13.39	-53.1	-55.5	14.3	0.00e+00	0	24	0	229638144	72	4707
2026-01-09 06:45:30.14	75.41	13.47	-53.1	-55.5	14.2	0.00e+00	0	24	0	230686720	72	4751
2026-01-09 06:45:31.14	75.28	13.55	-53.0	-55.4	14.3	0.00e+00	0	24	0	232783872	72	4665
2026-01-09 06:45:32.14	75.16	13.63	-53.1	-55.5	14.2	0.00e+00	0	24	0	234881024	72	4711
2026-01-09 06:45:33.14	75.04	13.71	-53.2	-55.5	14.2	0.00e+00	0	24	0	236978176	72	4756
2026-01-09 06:45:34.14	74.91	13.79	-52.9	-55.2	14.4	0.00e+00	0	24	0	238026752	72	4590
2026-01-09 06:45:35.15	74.78	13.87	-52.9	-55.2	14.4	0.00e+00	0	24	0	240123904	72	4568
2026-01-09 06:45:36.15	74.66	13.95	-52.9	-55.2	14.4	0.00e+00	0	24	0	242221056	72	4566
2026-01-09 06:45:37.15	74.53	14.03	-52.9	-55.2	14.4	0.00e+00	0	23	0	244318208	72	4553
2026-01-09 06:45:38.15	74.40	14.11	-52.9	-55.2	14.4	0.00e+00	0	24	0	246415360	72	4555
2026-01-09 06:45:39.15	74.27	14.19	-52.9	-55.1	14.4	0.00e+00	0	24	0	247463936	72	4521
2026-01-09 06:45:40.15	74.14	14.27	-52.8	-54.9	14.5	0.00e+00	0	24	0	249561088	72	4437
2026-01-09 06:45:41.14	74.02	14.35	-52.7	-54.9	14.4	0.00e+00	0	24	0	251658240	71	4675
2026-01-09 06:45:42.15	73.88	14.44	-52.7	-54.9	14.4	0.00e+00	0	24	0	253755392	71	4671
2026-01-09 06:45:43.14	73.75	14.52	-52.8	-55.0	14.4	0.00e+00	0	24	0	255852544	71	4723
2026-01-09 06:45:44.14	73.62	14.60	-52.6	-54.8	14.5	0.00e+00	0	24	0	256901120	71	4610
2026-01-09 06:45:45.15	73.49	14.68	-52.6	-54.8	14.5	0.00e+00	0	24	0	258998272	71	4615
2026-01-09 06:45:46.15	73.35	14.76	-52.5	-54.7	14.6	0.00e+00	0	24	0	261095424	71	4547
2026-01-09 06:45:47.14	73.22	14.84	-52.6	-54.8	14.5	0.00e+00	0	24	0	263192576	71	4621
2026-01-09 06:45:48.14	73.09	14.92	-52.6	-54.8	14.5	0.00e+00	0	24	0	264241152	71	4612
2026-01-09 06:45:49.14	72.95	15.01	-52.6	-54.8	14.5	0.00e+00	0	24	0	266338304	71	4621
2026-01-09 06:45:50.14	72.81	15.09	-52.7	-54.8	14.5	0.00e+00	0	24	0	268435456	71	4648
2026-01-09 06:45:51.14	72.68	15.17	-52.6	-54.7	14.5	0.00e+00	0	24	0	270532608	71	4562
2026-01-09 06:45:52.13	72.54	15.25	-52.6	-54.7	14.5	0.00e+00	0	24	0	272629760	71	4577
2026-01-09 06:45:53.14	72.40	15.33	-52.6	-54.7	14.6	0.00e+00	0	24	0	273678336	71	4563
2026-01-09 06:45:54.14	72.26	15.42	-52.6	-54.8	14.5	0.00e+00	0	24	0	275775488	71	4620
2026-01-09 06:45:55.14	72.12	15.50	-52.5	-54.6	14.6	0.00e+00	0	23	0	277872640	71	4495
2026-01-09 06:45:56.14	71.98	15.58	-52.4	-54.5	14.7	0.00e+00	0	24	0	279969792	71	4474
2026-01-09 06:45:57.13	71.84	15.66	-52.5	-54.6	14.6	0.00e+00	0	24	0	282066944	71	4505
2026-01-09 06:45:58.13	71.69	15.74	-52.3	-54.4	14.7	0.00e+00	0	23	0	283115520	71	4403
2026-01-09 06:45:59.13	71.55	15.83	-52.2	-54.2	14.8	0.00e+00	0	24	0	285212672	71	4327
2026-01-09 06:46:00.12	71.41	15.91	-52.3	-54.3	14.7	0.00e+00	0	24	0	287309824	71	4388
2026-01-09 06:46:01.12	71.26	15.99	-52.3	-54.3	14.8	0.00e+00	0	24	0	289406976	71	4368
2026-01-09 06:46:02.12	71.11	16.07	-52.4	-54.4	14.7	0.00e+00	0	24	0	291504128	71	4416
2026-01-09 06:46:03.13	70.97	16.16	-52.3	-54.4	14.7	0.00e+00	0	24	0	292552704	71	4406
2026-01-09 06:46:04.13	70.82	16.24	-52.4	-54.4	14.7	0.00e+00	0	24	0	294649856	71	4439
2026-01-09 06:46:05.12	70.67	16.32	-52.4	-54.5	14.6	0.00e+00	0	24	0	296747008	71	4481
2026-01-09 06:46:06.11	70.52	16.41	-52.4	-54.4	14.7	0.00e+00	0	24	0	298844160	71	4426
2026-01-09 06:46:07.11	70.37	16.49	-52.4	-54.4	14.7	0.00e+00	0	24	0	299892736	71	4437
2026-01-09 06:46:08.11	70.22	16.57	-52.3	-54.3	14.8	0.00e+00	0	24	0	301989888	71	4390
2026-01-09 06:46:09.11	70.07	16.66	-52.4	-54.4	14.7	0.00e+00	0	24	0	304087040	71	4437
2026-01-09 06:46:10.12	69.92	16.74	-52.3	-54.4	14.7	0.00e+00	0	24	0	306184192	71	4414
2026-01-09 06:46:11.12	69.76	16.83	-52.3	-54.4	14.7	0.00e+00	0	24	0	308281344	71	4402
2026-01-09 06:46:12.12	69.61	16.91	-52.3	-54.3	14.8	0.00e+00	0	24	0	309329920	71	4385
2026-01-09 06:46:13.11	69.45	16.99	-52.4	-54.4	14.7	0.00e+00	0	24	0	311427072	71	4405
2026-01-09 06:46:14.11	69.30	17.08	-52.3	-54.4	14.8	0.00e+00	0	24	0	313524224	71	4399
2026-01-09 06:46:15.11	69.14	17.16	-52.5	-54.5	14.7	0.00e+00	0	24	0	315621376	71	4473
2026-01-09 06:46:16.11	68.98	17.24	-52.4	-54.4	14.7	0.00e+00	0	24	0	317718528	71	4432
2026-01-09 06:46:17.10	68.82	17.33	-52.4	-54.5	14.7	0.00e+00	0	24	0	318767104	71	4444
2026-01-09 06:46:18.10	68.66	17.41	-52.4	-54.4	14.7	0.00e+00	0	24	0	320864256	71	4424
2026-01-09 06:46:19.10	68.50	17.50	-52.4	-54.4	14.7	0.00e+00	0	24	0	322961408	71	4419
2026-01-09 06:46:20.10	68.34	17.58	-52.4	-54.4	14.7	0.00e+00	0	24	0	325058560	71	4436
2026-01-09 06:46:21.10	68.18	17.66	-52.4	-54.4	14.7	0.00e+00	0	24	0	326107136	71	4418
2026-01-09 06:46:22.10	68.02	17.75	-52.4	-54.4	14.7	0.00e+00	0	24	0	328204288	71	4437
2026-01-09 06:46:23.09	67.85	17.83	-52.4	-54.4	14.7	0.00e+00	0	24	0	330301440	71	4435
2026-01-09 06:46:24.09	67.69	17.92	-52.4	-54.4	14.7	0.00e+00	0	24	0	332398592	71	4435
2026-01-09 06:46:25.09	67.52	18.00	-52.4	-54.5	14.7	0.00e+00	0	24	0	334495744	71	4467
2026-01-09 06:46:26.08	67.35	18.09	-52.5	-54.6	14.6	0.00e+00	0	24	0	335544320	71	4516
2026-01-09 06:46:27.08	67.19	18.17	-52.7	-54.8	14.5	0.00e+00	0	24	0	337641472	71	4627
2026-01-09 06:46:28.07	67.02	18.25	-52.7	-54.8	14.5	0.00e+00	0	24	0	339738624	71	4638
2026-01-09 06:46:29.07	66.85	18.34	-52.7	-54.8	14.5	0.00e+00	0	24	0	341835776	71	4635
2026-01-09 06:46:30.06	66.68	18.42	-52.6	-54.7	14.6	0.00e+00	0	24	0	342884352	71	4582
2026-01-09 06:46:31.06	66.51	18.51	-52.7	-54.8	14.5	0.00e+00	0	24	0	344981504	71	4632
2026-01-09 06:46:32.06	66.33	18.59	-52.7	-54.8	14.5	0.00e+00	0	24	0	347078656	71	4651
2026-01-09 06:46:33.05	66.16	18.68	-52.7	-54.8	14.5	0.00e+00	0	24	0	349175808	71	4629
2026-01-09 06:46:34.04	65.99	18.76	-52.6	-54.8	14.5	0.00e+00	0	24	0	351272960	71	4610
2026-01-09 06:46:35.03	65.81	18.84	-52.7	-54.8	14.5	0.00e+00	0	24	0	352321536	71	4606
2026-01-09 06:46:36.03	65.64	18.93	-52.6	-54.7	14.6	0.00e+00	0	24	0	354418688	71	4570
2026-01-09 06:46:37.02	65.46	19.01	-52.6	-54.7	14.6	0.00e+00	0	24	0	356515840	71	4577
2026-01-09 06:46:38.02	65.28	19.10	-52.6	-54.6	14.6	0.00e+00	0	24	0	358612992	71	4534
2026-01-09 06:46:39.01	65.10	19.18	-52.6	-54.7	14.6	0.00e+00	0	24	0	360710144	71	4595
2026-01-09 06:46:40.01	64.92	19.26	-52.5	-54.6	14.6	0.00e+00	0	24	0	361758720	71	4528
2026-01-09 06:46:41.01	64.74	19.35	-52.6	-54.6	14.6	0.00e+00	0	24	0	363855872	71	4533
2026-01-09 06:46:42.00	64.56	19.43	-52.6	-54.6	14.6	0.00e+00	0	24	0	365953024	71	4531
2026-01-09 06:46:43.00	64.38	19.52	-52.4	-54.4	14.7	0.00e+00	0	24	0	368050176	71	4436
2026-01-09 06:46:44.00	64.19	19.60	-52.5	-54.6	14.6	0.00e+00	0	24	0	369098752	71	4518
2026-01-09 06:46:45.00	64.00	19.69	-52.5	-54.5	14.7	0.00e+00	0	24	0	371195904	71	4484
2026-01-09 06:46:46.00	63.82	19.77	-52.4	-54.5	14.7	0.00e+00	0	24	0	373293056	71	4454
2026-01-09 06:46:46.99	63.63	19.86	-52.6	-54.7	14.6	0.00e+00	0	24	0	375390208	71	4568
2026-01-09 06:46:47.99	63.44	19.94	-52.5	-54.6	14.6	0.00e+00	0	24	0	377487360	71	4510
2026-01-09 06:46:48.99	63.25	20.02	-52.6	-54.7	14.6	0.00e+00	0	24	0	378535936	71	4562
2026-01-09 06:46:50.00	63.06	20.11	-52.6	-54.6	14.6	0.00e+00	0	24	0	380633088	71	4542
2026-01-09 06:46:50.99	62.87	20.19	-52.5	-54.6	14.6	0.00e+00	0	24	0	382730240	71	4526
2026-01-09 06:46:52.00	62.67	20.28	-52.5	-54.6	14.6	0.00e+00	0	24	0	384827392	71	4522
2026-01-09 06:46:52.99	62.48	20.36	-52.4	-54.4	14.8	0.00e+00	0	24	0	385875968	71	4435
2026-01-09 06:46:54.00	62.28	20.45	-52.4	-54.4	14.8	0.00e+00	0	24	0	387973120	71	4419
2026-01-09 06:46:54.99	62.09	20.53	-52.3	-54.2	14.9	0.00e+00	0	24	0	390070272	71	4336
2026-01-09 06:46:55.99	61.89	20.61	-52.3	-54.2	14.8	0.00e+00	0	24	0	392167424	71	4322
2026-01-09 06:46:57.00	61.69	20.70	-52.2	-54.1	14.9	0.00e+00	0	24	0	394264576	71	4280
2026-01-09 06:46:58.00	61.49	20.78	-52.1	-54.0	14.8	0.00e+00	0	24	0	395313152	70	4474
2026-01-09 06:46:59.00	61.29	20.87	-52.1	-54.0	14.8	0.00e+00	0	24	0	397410304	70	4486
2026-01-09 06:46:59.99	61.09	20.95	-52.0	-53.9	14.9	0.00e+00	0	24	0	399507456	70	4425
2026-01-09 06:47:00.99	60.88	21.03	-52.0	-53.9	14.9	0.00e+00	0	24	0	401604608	70	4421
2026-01-09 06:47:02.00	60.68	21.12	-52.1	-54.0	14.8	0.00e+00	0	24	0	403701760	70	4481
2026-01-09 06:47:03.00	60.47	21.20	-52.0	-53.9	14.9	0.00e+00	0	24	0	404750336	70	4422
2026-01-09 06:47:03.99	60.27	21.28	-51.9	-53.7	15.0	0.00e+00	0	24	0	406847488	70	4325
2026-01-09 06:47:04.99	60.06	21.36	-51.8	-53.7	15.0	0.00e+00	0	24	0	408944640	70	4295
2026-01-09 06:47:05.99	59.85	21.45	-51.7	-53.6	15.0	0.00e+00	0	24	0	411041792	70	4250
2026-01-09 06:47:06.99	59.64	21.53	-51.6	-53.4	15.0	0.00e+00	0	24	0	412090368	69	4424
2026-01-09 06:47:07.99	59.43	21.61	-51.6	-53.4	15.0	0.00e+00	0	24	0	414187520	69	4414
2026-01-09 06:47:08.99	59.21	21.70	-51.5	-53.3	15.0	0.00e+00	0	24	0	416284672	69	4362
2026-01-09 06:47:09.99	59.00	21.78	-51.6	-53.4	15.0	0.00e+00	0	24	0	418381824	69	4398
2026-01-09 06:47:10.98	58.79	21.86	-51.3	-53.0	15.2	0.00e+00	0	24	0	420478976	69	4232
2026-01-09 06:47:11.98	58.57	21.94	-51.4	-53.2	15.1	0.00e+00	0	24	0	421527552	69	4296
2026-01-09 06:47:12.97	58.36	22.02	-51.5	-53.2	15.1	0.00e+00	0	24	0	423624704	69	4323
2026-01-09 06:47:13.96	58.14	22.10	-51.4	-53.2	15.1	0.00e+00	0	24	0	425721856	69	4309
2026-01-09 06:47:14.96	57.92	22.18	-51.5	-53.2	15.1	0.00e+00	0	24	0	427819008	69	4328
2026-01-09 06:47:15.96	57.70	22.27	-51.4	-53.2	15.1	0.00e+00	0	24	0	429916160	69	4307
2026-01-09 06:47:16.95	57.48	22.35	-51.4	-53.1	15.1	0.00e+00	0	24	0	430964736	69	4258
2026-01-09 06:47:17.95	57.26	22.43	-51.3	-53.1	15.2	0.00e+00	0	24	0	433061888	69	4245
2026-01-09 06:47:18.94	57.04	22.51	-51.2	-52.8	15.0	0.00e+00	0	24	0	435159040	68	4386
2026-01-09 06:47:19.94	56.81	22.59	-51.2	-52.8	15.1	0.00e+00	0	24	0	437256192	68	4389
2026-01-09 06:47:20.93	56.59	22.67	-51.1	-52.8	15.1	0.00e+00	0	24	0	438304768	68	4368
2026-01-09 06:47:21.93	56.36	22.75	-51.0	-52.7	15.2	0.00e+00	0	24	0	440401920	68	4303
2026-01-09 06:47:22.92	56.13	22.82	-51.1	-52.7	15.1	0.00e+00	0	24	0	442499072	68	4339
2026-01-09 06:47:23.92	55.90	22.90	-51.0	-52.6	15.2	0.00e+00	0	24	0	444596224	68	4291
2026-01-09 06:47:24.92	55.67	22.98	-51.0	-52.7	15.2	0.00e+00	0	24	0	446693376	68	4307
2026-01-09 06:47:25.92	55.44	23.06	-51.0	-52.7	15.2	0.00e+00	0	24	0	447741952	68	4306
2026-01-09 06:47:26.92	55.21	23.14	-51.1	-52.8	15.1	0.00e+00	0	24	0	449839104	68	4362
2026-01-09 06:47:27.92	54.97	23.22	-51.0	-52.7	15.2	0.00e+00	0	24	0	451936256	68	4324
2026-01-09 06:47:28.92	54.74	23.30	-51.0	-52.6	15.2	0.00e+00	0	24	0	454033408	68	4283
2026-01-09 06:47:29.92	54.50	23.38	-51.0	-52.6	15.3	0.00e+00	0	24	0	456130560	68	4288
2026-01-09 06:47:30.92	54.26	23.45	-51.1	-52.8	15.2	0.00e+00	0	24	0	457179136	68	4354
2026-01-09 06:47:31.90	54.03	23.53	-51.1	-52.8	15.1	0.00e+00	0	24	0	459276288	68	4360
2026-01-09 06:47:32.90	53.79	23.61	-51.2	-52.9	15.1	0.00e+00	0	24	0	461373440	68	4396
2026-01-09 06:47:33.89	53.55	23.68	-51.1	-52.8	15.1	0.00e+00	0	24	0	463470592	68	4363
2026-01-09 06:47:34.89	53.31	23.76	-51.2	-52.9	15.1	0.00e+00	0	24	0	464519168	68	4400
2026-01-09 06:47:35.88	53.06	23.83	-51.1	-52.8	15.1	0.00e+00	0	24	0	466616320	68	4379
2026-01-09 06:47:36.88	52.82	23.91	-51.3	-53.0	15.0	0.00e+00	0	24	0	468713472	68	4467
2026-01-09 06:47:37.88	52.57	23.98	-51.1	-52.8	15.1	0.00e+00	0	24	0	470810624	68	4382
2026-01-09 06:47:38.88	52.33	24.06	-51.1	-52.8	15.1	0.00e+00	0	24	0	472907776	68	4369
2026-01-09 06:47:39.88	52.08	24.13	-51.1	-52.8	15.1	0.00e+00	0	24	0	473956352	68	4367
2026-01-09 06:47:40.87	51.83	24.21	-51.1	-52.7	15.2	0.00e+00	0	24	0	476053504	68	4335
2026-01-09 06:47:41.87	51.58	24.28	-51.1	-52.8	15.1	0.00e+00	0	24	0	478150656	68	4365
2026-01-09 06:47:42.87	51.33	24.35	-51.2	-52.9	15.1	0.00e+00	0	24	0	480247808	68	4404
2026-01-09 06:47:43.87	51.07	24.42	-51.2	-52.9	15.1	0.00e+00	0	24	0	481296384	68	4401
2026-01-09 06:47:44.87	50.82	24.50	-51.1	-52.8	15.1	0.00e+00	0	24	0	483393536	68	4363
2026-01-09 06:47:45.86	50.56	24.57	-51.2	-52.9	15.1	0.00e+00	0	24	0	485490688	68	4421
2026-01-09 06:47:46.85	50.31	24.64	-51.3	-53.0	15.0	0.00e+00	0	24	0	487587840	68	4451
2026-01-09 06:47:47.85	50.05	24.71	-51.2	-52.9	15.1	0.00e+00	0	24	0	489684992	68	4415
2026-01-09 06:47:48.84	49.79	24.78	-51.3	-53.1	15.0	0.00e+00	0	24	0	490733568	68	4505
2026-01-09 06:47:49.84	49.53	24.85	-51.4	-53.1	15.0	0.00e+00	0	24	0	492830720	68	4539
2026-01-09 06:47:50.83	49.28	24.92	-51.5	-53.3	14.9	0.00e+00	0	24	0	494927872	68	4605
2026-01-09 06:47:51.82	49.01	24.99	-51.6	-53.4	14.8	0.00e+00	0	24	0	497025024	68	4678
2026-01-09 06:47:52.82	48.75	25.06	-51.6	-53.4	14.8	0.00e+00	0	24	0	498073600	68	4690
2026-01-09 06:47:53.82	48.49	25.13	-51.3	-53.0	15.0	0.00e+00	0	24	0	500170752	68	4469
2026-01-09 06:47:54.82	48.22	25.19	-51.2	-52.9	15.1	0.00e+00	0	24	0	502267904	68	4419
2026-01-09 06:47:55.81	47.95	25.26	-51.2	-52.8	15.1	0.00e+00	0	24	0	504365056	68	4391
2026-01-09 06:47:56.81	47.69	25.33	-51.1	-52.8	15.2	0.00e+00	0	24	0	506462208	68	4353
2026-01-09 06:47:57.81	47.42	25.39	-51.1	-52.7	15.2	0.00e+00	0	24	0	507510784	68	4324
2026-01-09 06:47:58.80	47.15	25.46	-51.1	-52.8	15.2	0.00e+00	0	24	0	509607936	68	4352
2026-01-09 06:47:59.80	46.88	25.52	-51.1	-52.8	15.1	0.00e+00	0	24	0	511705088	68	4370
2026-01-09 06:48:00.80	46.60	25.59	-51.0	-52.7	15.2	0.00e+00	0	24	0	513802240	68	4298
2026-01-09 06:48:01.80	46.33	25.65	-51.1	-52.7	15.2	0.00e+00	0	24	0	514850816	68	4332
2026-01-09 06:48:02.79	46.06	25.72	-51.0	-52.6	15.2	0.00e+00	0	24	0	516947968	68	4291
2026-01-09 06:48:03.79	45.78	25.78	-51.0	-52.7	15.2	0.00e+00	0	24	0	519045120	68	4298
2026-01-09 06:48:04.78	45.51	25.84	-51.0	-52.7	15.2	0.00e+00	0	24	0	521142272	68	4305
2026-01-09 06:48:05.78	45.23	25.90	-51.1	-52.8	15.1	0.00e+00	0	24	0	523239424	68	4371
2026-01-09 06:48:06.77	44.95	25.96	-51.0	-52.7	15.2	0.00e+00	0	24	0	524288000	68	4309
2026-01-09 06:48:07.77	44.67	26.02	-51.1	-52.7	15.2	0.00e+00	0	24	0	526385152	68	4321
2026-01-09 06:48:08.76	44.39	26.08	-51.1	-52.7	15.2	0.00e+00	0	24	0	528482304	68	4326
2026-01-09 06:48:09.75	44.11	26.14	-51.1	-52.8	15.2	0.00e+00	0	24	0	530579456	68	4349
2026-01-09 06:48:10.74	43.83	26.20	-51.0	-52.7	15.2	0.00e+00	0	24	0	531628032	68	4317
2026-01-09 06:48:11.73	43.55	26.26	-51.0	-52.6	15.2	0.00e+00	0	24	0	533725184	68	4285
2026-01-09 06:48:12.73	43.26	26.31	-51.0	-52.6	15.2	0.00e+00	0	24	0	535822336	68	4276
2026-01-09 06:48:13.73	42.97	26.37	-51.0	-52.6	15.2	0.00e+00	0	24	0	537919488	68	4277
2026-01-09 06:48:14.72	42.69	26.43	-51.0	-52.7	15.2	0.00e+00	0	24	0	540016640	68	4308
2026-01-09 06:48:15.72	42.40	26.48	-51.1	-52.8	15.1	0.00e+00	0	24	0	541065216	68	4358
2026-01-09 06:48:16.73	42.11	26.54	-51.2	-52.9	15.1	0.00e+00	0	24	0	543162368	68	4420
2026-01-09 06:48:17.73	41.82	26.59	-51.3	-53.0	15.0	0.00e+00	0	24	0	545259520	68	4467
2026-01-09 06:48:18.72	41.53	26.64	-51.4	-53.1	15.0	0.00e+00	0	24	0	547356672	68	4526
2026-01-09 06:48:19.72	41.23	26.70	-51.3	-53.0	15.0	0.00e+00	0	24	0	549453824	68	4482
2026-01-09 06:48:20.71	40.94	26.75	-51.4	-53.1	14.9	0.00e+00	0	24	0	550502400	68	4540
2026-01-09 06:48:21.71	40.65	26.80	-51.4	-53.2	15.0	0.00e+00	0	24	0	552599552	68	4552
2026-01-09 06:48:22.70	40.35	26.85	-51.6	-53.4	14.9	0.00e+00	0	24	0	554696704	68	4688
2026-01-09 06:48:23.69	40.06	26.90	-51.8	-53.7	14.7	0.00e+00	0	24	0	556793856	68	4819
2026-01-09 06:48:24.70	39.76	26.95	-52.0	-53.8	14.8	0.00e+00	0	24	0	558891008	69	4651
2026-01-09 06:48:25.69	39.46	26.99	-52.1	-54.0	14.7	0.00e+00	0	24	0	559939584	69	4718
2026-01-09 06:48:26.68	39.17	27.04	-52.0	-53.9	14.7	0.00e+00	0	24	0	562036736	69	4666
2026-01-09 06:48:27.67	38.87	27.09	-52.0	-53.8	14.8	0.00e+00	0	24	0	564133888	69	4640
2026-01-09 06:48:28.67	38.57	27.13	-52.1	-54.0	14.7	0.00e+00	0	24	0	566231040	69	4708
2026-01-09 06:48:29.67	38.27	27.18	-52.2	-54.1	14.6	0.00e+00	0	24	0	567279616	69	4802
2026-01-09 06:48:30.67	37.96	27.22	-52.2	-54.1	14.6	0.00e+00	0	24	0	569376768	69	4778
2026-01-09 06:48:31.67	37.66	27.26	-52.1	-54.0	14.7	0.00e+00	0	24	0	571473920	69	4749
2026-01-09 06:48:32.66	37.36	27.31	-52.2	-54.1	14.6	0.00e+00	0	24	0	573571072	69	4814
2026-01-09 06:48:33.66	37.05	27.35	-52.2	-54.1	14.6	0.00e+00	0	24	0	575668224	69	4798
2026-01-09 06:48:34.66	36.75	27.39	-52.2	-54.1	14.6	0.00e+00	0	24	0	576716800	69	4792
2026-01-09 06:48:35.66	36.44	27.43	-52.2	-54.1	14.6	0.00e+00	0	24	0	578813952	69	4812
2026-01-09 06:48:36.64	36.14	27.47	-52.3	-54.3	14.6	0.00e+00	0	24	0	580911104	69	4873
2026-01-09 06:48:37.64	35.83	27.50	-52.2	-54.2	14.6	0.00e+00	0	24	0	583008256	69	4840
2026-01-09 06:48:38.64	35.52	27.54	-52.3	-54.2	14.6	0.00e+00	0	24	0	584056832	69	4870
2026-01-09 06:48:39.63	35.21	27.58	-52.3	-54.3	14.6	0.00e+00	0	24	0	586153984	69	4876
2026-01-09 06:48:40.62	34.91	27.61	-52.5	-54.5	14.6	0.00e+00	0	24	0	588251136	70	4759
2026-01-09 06:48:41.60	34.60	27.65	-52.5	-54.5	14.6	0.00e+00	0	24	0	590348288	70	4720
2026-01-09 06:48:42.61	34.29	27.68	-52.5	-54.5	14.6	0.00e+00	0	24	0	592445440	70	4752
2026-01-09 06:48:43.60	33.98	27.71	-52.4	-54.3	14.7	0.00e+00	0	24	0	593494016	70	4630
2026-01-09 06:48:44.60	33.66	27.74	-52.5	-54.4	14.6	0.00e+00	0	24	0	595591168	70	4699
2026-01-09 06:48:45.61	33.35	27.78	-52.6	-54.6	14.6	0.00e+00	0	24	0	597688320	70	4768
2026-01-09 06:48:46.60	33.03	27.81	-52.7	-54.7	14.5	0.00e+00	0	24	0	599785472	70	4870
2026-01-09 06:48:47.61	32.72	27.84	-52.7	-54.8	14.4	0.00e+00	0	24	0	600834048	70	4915
2026-01-09 06:48:48.59	32.41	27.86	-52.7	-54.8	14.4	0.00e+00	0	24	0	602931200	70	4884
2026-01-09 06:48:49.59	32.09	27.89	-52.7	-54.8	14.5	0.00e+00	0	24	0	605028352	70	4875
2026-01-09 06:48:50.59	31.77	27.92	-52.7	-54.8	14.5	0.00e+00	0	24	0	607125504	70	4915
2026-01-09 06:48:51.59	31.46	27.94	-52.7	-54.7	14.5	0.00e+00	0	24	0	609222656	70	4840
2026-01-09 06:48:52.59	31.14	27.97	-52.8	-54.9	14.4	0.00e+00	0	24	0	610271232	70	4934
2026-01-09 06:48:53.58	30.82	27.99	-52.9	-55.0	14.3	0.00e+00	0	24	0	612368384	70	5014
2026-01-09 06:48:54.58	30.51	28.01	-53.0	-55.1	14.4	0.00e+00	0	24	0	614465536	71	4798
2026-01-09 06:48:55.58	30.19	28.03	-53.1	-55.3	14.3	0.00e+00	0	24	0	616562688	71	4908
2026-01-09 06:48:56.57	29.87	28.05	-53.1	-55.2	14.3	0.00e+00	0	24	0	617611264	71	4863
2026-01-09 06:48:57.57	29.55	28.07	-53.1	-55.2	14.3	0.00e+00	0	24	0	619708416	71	4867
2026-01-09 06:48:58.57	29.23	28.09	-53.1	-55.3	14.3	0.00e+00	0	24	0	621805568	71	4883
2026-01-09 06:48:59.57	28.91	28.11	-53.0	-55.1	14.4	0.00e+00	0	24	0	623902720	71	4795
2026-01-09 06:49:00.56	28.59	28.13	-52.9	-55.1	14.4	0.00e+00	0	24	0	625999872	71	4764
2026-01-09 06:49:01.56	28.27	28.14	-52.9	-55.0	14.4	0.00e+00	0	24	0	627048448	71	4747
2026-01-09 06:49:02.55	27.95	28.16	-53.0	-55.1	14.4	0.00e+00	0	24	0	629145600	71	4796
2026-01-09 06:49:03.54	27.63	28.17	-53.1	-55.3	14.3	0.00e+00	0	24	0	631242752	71	4904
2026-01-09 06:49:04.54	27.31	28.18	-53.3	-55.5	14.2	0.00e+00	0	24	0	633339904	71	5012
2026-01-09 06:49:05.53	26.99	28.19	-53.2	-55.4	14.2	0.00e+00	0	24	0	634388480	71	4943
2026-01-09 06:49:06.52	26.67	28.20	-53.1	-55.2	14.3	0.00e+00	0	24	0	636485632	71	4863
2026-01-09 06:49:07.52	26.35	28.21	-52.9	-55.1	14.4	0.00e+00	0	24	0	638582784	71	4767
2026-01-09 06:49:08.52	26.03	28.22	-52.8	-54.9	14.5	0.00e+00	0	24	0	640679936	71	4667
2026-01-09 06:49:09.51	25.71	28.23	-52.8	-54.9	14.5	0.00e+00	0	24	0	642777088	71	4658
2026-01-09 06:49:10.51	25.38	28.24	-52.7	-54.8	14.6	0.00e+00	0	24	0	643825664	71	4613
2026-01-09 06:49:11.51	25.06	28.24	-52.6	-54.6	14.7	0.00e+00	0	24	0	645922816	71	4530
2026-01-09 06:49:12.50	24.74	28.25	-52.7	-54.7	14.7	0.00e+00	0	24	0	648019968	71	4579
2026-01-09 06:49:13.50	24.42	28.25	-52.6	-54.5	14.7	0.00e+00	0	24	0	650117120	71	4484
2026-01-09 06:49:14.49	24.10	28.25	-52.7	-54.8	14.6	0.00e+00	0	24	0	651165696	71	4619
2026-01-09 06:49:15.49	23.77	28.25	-52.8	-54.8	14.6	0.00e+00	0	24	0	653262848	71	4619
2026-01-09 06:49:16.48	23.45	28.26	-52.7	-54.7	14.6	0.00e+00	0	24	0	655360000	71	4590
2026-01-09 06:49:17.48	23.13	28.25	-52.6	-54.6	14.7	0.00e+00	0	24	0	657457152	71	4544
2026-01-09 06:49:18.48	22.80	28.25	-52.5	-54.5	14.8	0.00e+00	0	24	0	659554304	71	4461
2026-01-09 06:49:19.47	22.48	28.25	-52.6	-54.6	14.7	0.00e+00	0	24	0	660602880	71	4503
2026-01-09 06:49:20.48	22.16	28.25	-52.6	-54.6	14.7	0.00e+00	0	24	0	662700032	71	4524
2026-01-09 06:49:21.46	21.84	28.24	-52.6	-54.6	14.7	0.00e+00	0	24	0	664797184	71	4542
2026-01-09 06:49:22.46	21.52	28.24	-52.7	-54.7	14.7	0.00e+00	0	24	0	666894336	71	4565
2026-01-09 06:49:23.46	21.19	28.23	-52.6	-54.6	14.7	0.00e+00	0	24	0	668991488	71	4509
2026-01-09 06:49:24.45	20.87	28.22	-52.4	-54.3	14.9	0.00e+00	0	24	0	670040064	71	4377
2026-01-09 06:49:25.46	20.55	28.21	-52.4	-54.3	14.9	0.00e+00	0	24	0	672137216	71	4347
2026-01-09 06:49:26.45	20.23	28.21	-52.3	-54.2	14.9	0.00e+00	0	24	0	674234368	71	4330
2026-01-09 06:49:27.45	19.91	28.19	-52.4	-54.4	14.8	0.00e+00	0	24	0	676331520	71	4403
2026-01-09 06:49:28.45	19.58	28.18	-52.4	-54.3	14.9	0.00e+00	0	24	0	678428672	71	4361
2026-01-09 06:49:29.44	19.26	28.17	-52.4	-54.3	14.9	0.00e+00	0	24	0	679477248	71	4362
2026-01-09 06:49:30.44	18.94	28.16	-52.3	-54.2	14.9	0.00e+00	0	24	0	681574400	71	4325
2026-01-09 06:49:31.44	18.62	28.14	-52.3	-54.2	14.9	0.00e+00	0	24	0	683671552	71	4337
2026-01-09 06:49:32.44	18.30	28.13	-52.1	-53.9	14.9	0.00e+00	0	24	0	685768704	70	4417
2026-01-09 06:49:33.44	17.98	28.11	-51.9	-53.8	15.0	0.00e+00	0	24	0	686817280	70	4341
2026-01-09 06:49:34.43	17.66	28.09	-51.9	-53.6	15.1	0.00e+00	0	24	0	688914432	70	4285
2026-01-09 06:49:35.43	17.34	28.07	-51.9	-53.6	15.1	0.00e+00	0	24	0	691011584	70	4287
2026-01-09 06:49:36.42	17.02	28.05	-51.7	-53.5	15.2	0.00e+00	0	24	0	693108736	70	4205
2026-01-09 06:49:37.42	16.71	28.03	-51.6	-53.4	15.0	0.00e+00	0	24	0	695205888	69	4392
2026-01-09 06:49:38.42	16.39	28.01	-51.6	-53.3	15.0	0.00e+00	0	24	0	696254464	69	4380
2026-01-09 06:49:39.41	16.07	27.99	-51.6	-53.3	15.1	0.00e+00	0	24	0	698351616	69	4357
2026-01-09 06:49:40.41	15.75	27.97	-51.6	-53.3	15.0	0.00e+00	0	24	0	700448768	69	4349
2026-01-09 06:49:41.40	15.44	27.94	-51.5	-53.2	15.1	0.00e+00	0	24	0	702545920	69	4300
2026-01-09 06:49:42.40	15.12	27.92	-51.5	-53.2	15.1	0.00e+00	0	24	0	703594496	69	4319
2026-01-09 06:49:43.40	14.81	27.89	-51.7	-53.4	15.0	0.00e+00	0	24	0	705691648	69	4415
2026-01-09 06:49:44.40	14.49	27.86	-51.6	-53.3	15.1	0.00e+00	0	24	0	707788800	69	4380
2026-01-09 06:49:45.40	14.17	27.84	-51.5	-53.3	15.1	0.00e+00	0	24	0	709885952	69	4347
2026-01-09 06:49:46.39	13.86	27.81	-51.5	-53.3	15.1	0.00e+00	0	24	0	711983104	69	4353
2026-01-09 06:49:47.39	13.55	27.78	-51.4	-53.1	15.2	0.00e+00	0	24	0	713031680	69	4276
2026-01-09 06:49:48.39	13.23	27.75	-51.5	-53.3	15.1	0.00e+00	0	24	0	715128832	69	4343
2026-01-09 06:49:49.39	12.92	27.71	-51.6	-53.3	15.1	0.00e+00	0	24	0	717225984	69	4360
2026-01-09 06:49:50.39	12.61	27.68	-51.6	-53.3	15.1	0.00e+00	0	24	0	719323136	69	4350
2026-01-09 06:49:51.38	12.30	27.65	-51.7	-53.4	15.0	0.00e+00	0	24	0	720371712	69	4437
2026-01-09 06:49:52.38	11.99	27.61	-51.7	-53.5	15.0	0.00e+00	0	24	0	722468864	69	4450
2026-01-09 06:49:53.37	11.68	27.58	-51.7	-53.4	15.0	0.00e+00	0	24	0	724566016	69	4431
2026-01-09 06:49:54.37	11.37	27.54	-51.6	-53.4	15.0	0.00e+00	0	24	0	726663168	69	4394
2026-01-09 06:49:55.36	11.07	27.51	-51.5	-53.2	15.1	0.00e+00	0	24	0	728760320	69	4324
2026-01-09 06:49:56.36	10.76	27.47	-51.6	-53.3	15.0	0.00e+00	0	24	0	729808896	69	4391
2026-01-09 06:49:57.36	10.45	27.43	-51.6	-53.3	15.0	0.00e+00	0	24	0	731906048	69	4388
2026-01-09 06:49:58.35	10.15	27.39	-51.6	-53.3	15.1	0.00e+00	0	24	0	734003200	69	4366
2026-01-09 06:49:59.35	9.84	27.35	-51.8	-53.6	14.9	0.00e+00	0	24	0	736100352	69	4515
2026-01-09 06:50:00.35	9.53	27.31	-52.0	-53.8	14.8	0.00e+00	0	24	0	738197504	69	4617
2026-01-09 06:50:01.34	9.23	27.27	-52.1	-54.0	14.7	0.00e+00	0	24	0	739246080	69	4710
2026-01-09 06:50:02.34	8.93	27.22	-52.2	-54.1	14.6	0.00e+00	0	24	0	741343232	69	4787
2026-01-09 06:50:03.33	8.63	27.18	-52.2	-54.1	14.6	0.00e+00	0	24	0	743440384	69	4782
2026-01-09 06:50:04.32	8.33	27.13	-52.2	-54.1	14.6	0.00e+00	0	24	0	745537536	69	4808
2026-01-09 06:50:05.31	8.03	27.09	-52.3	-54.2	14.6	0.00e+00	0	24	0	746586112	69	4846
2026-01-09 06:50:06.31	7.73	27.04	-52.3	-54.2	14.6	0.00e+00	0	24	0	748683264	69	4856
2026-01-09 06:50:07.31	7.43	27.00	-52.4	-54.3	14.5	0.00e+00	0	24	0	750780416	69	4902
2026-01-09 06:50:08.30	7.14	26.95	-52.3	-54.3	14.6	0.00e+00	0	24	0	752877568	69	4872
2026-01-09 06:50:09.30	6.84	26.90	-52.4	-54.3	14.7	0.00e+00	0	24	0	754974720	70	4624
2026-01-09 06:50:10.30	6.54	26.85	-52.5	-54.4	14.7	0.00e+00	0	24	0	756023296	70	4683
2026-01-09 06:50:11.29	6.25	26.80	-52.6	-54.6	14.5	0.00e+00	0	24	0	758120448	70	4780
2026-01-09 06:50:12.28	5.96	26.75	-52.7	-54.8	14.4	0.00e+00	0	24	0	760217600	70	4881
2026-01-09 06:50:13.28	5.67	26.70	-52.8	-54.9	14.4	0.00e+00	0	24	0	762314752	70	4932
2026-01-09 06:50:14.27	5.38	26.65	-52.7	-54.8	14.5	0.00e+00	0	24	0	763363328	70	4886
2026-01-09 06:50:15.27	5.08	26.59	-52.8	-54.9	14.4	0.00e+00	0	24	0	765460480	70	4927
2026-01-09 06:50:16.27	4.79	26.54	-52.9	-55.0	14.3	0.00e+00	0	24	0	767557632	70	4990
2026-01-09 06:50:17.27	4.50	26.49	-52.7	-54.7	14.5	0.00e+00	0	24	0	769654784	70	4839
2026-01-09 06:50:18.27	4.22	26.43	-52.7	-54.8	14.5	0.00e+00	0	24	0	771751936	70	4871
2026-01-09 06:50:19.27	3.93	26.37	-52.8	-54.9	14.4	0.00e+00	0	24	0	772800512	70	4932
2026-01-09 06:50:20.26	3.64	26.32	-52.8	-54.9	14.4	0.00e+00	0	24	0	774897664	70	4955
2026-01-09 06:50:21.25	3.36	26.26	-52.9	-55.0	14.3	0.00e+00	0	24	0	776994816	70	4994
2026-01-09 06:50:22.26	3.07	26.20	-52.9	-55.0	14.4	0.00e+00	0	24	0	779091968	71	4748
2026-01-09 06:50:23.26	2.79	26.14	-53.1	-55.2	14.4	0.00e+00	0	24	0	780140544	71	4845
2026-01-09 06:50:24.25	2.51	26.09	-53.1	-55.3	14.3	0.00e+00	0	24	0	782237696	71	4883
2026-01-09 06:50:25.24	2.23	26.03	-53.0	-55.2	14.4	0.00e+00	0	24	0	784334848	71	4838
2026-01-09 06:50:26.24	1.95	25.97	-53.0	-55.1	14.4	0.00e+00	0	24	0	786432000	71	4766
2026-01-09 06:50:27.24	1.67	25.91	-52.9	-54.9	14.5	0.00e+00	0	24	0	788529152	71	4693
2026-01-09 06:50:28.24	1.39	25.84	-52.7	-54.8	14.6	0.00e+00	0	24	0	789577728	71	4612
2026-01-09 06:50:29.23	1.12	25.78	-52.8	-54.9	14.6	0.00e+00	0	24	0	791674880	71	4665
2026-01-09 06:50:30.23	0.84	25.72	-52.8	-54.9	14.5	0.00e+00	0	24	0	793772032	71	4679
2026-01-09 06:50:31.22	0.57	25.66	-53.0	-55.1	14.4	0.00e+00	0	24	0	795869184	71	4780
2026-01-09 06:50:32.22	0.30	25.59	-53.1	-55.2	14.4	0.00e+00	0	24	0	796917760	71	4840
2026-01-09 06:50:33.22	0.02	25.53	-53.0	-55.1	14.4	0.00e+00	0	24	0	799014912	71	4777
2026-01-09 06:50:34.21	359.75	25.46	-52.9	-55.0	14.5	0.00e+00	0	24	0	801112064	71	4727
2026-01-09 06:50:35.20	359.49	25.40	-53.0	-55.1	14.4	0.00e+00	0	24	0	803209216	71	4806
2026-01-09 06:50:36.20	359.22	25.33	-52.9	-54.9	14.5	0.00e+00	0	24	0	805306368	71	4696
2026-01-09 06:50:37.20	358.95	25.27	-52.6	-54.6	14.7	0.00e+00	0	24	0	806354944	71	4541
2026-01-09 06:50:38.20	358.68	25.20	-52.6	-54.5	14.7	0.00e+00	0	24	0	808452096	71	4493
2026-01-09 06:50:39.19	358.42	25.13	-52.6	-54.6	14.7	0.00e+00	0	24	0	810549248	71	4500
2026-01-09 06:50:40.19	358.15	25.06	-52.7	-54.7	14.6	0.00e+00	0	24	0	812646400	71	4551
2026-01-09 06:50:41.19	357.89	24.99	-52.7	-54.6	14.7	0.00e+00	0	24	0	814743552	71	4540
2026-01-09 06:50:42.18	357.63	24.93	-52.6	-54.5	14.7	0.00e+00	0	24	0	815792128	71	4489
2026-01-09 06:50:43.18	357.37	24.86	-52.6	-54.6	14.7	0.00e+00	0	24	0	817889280	71	4509
2026-01-09 06:50:44.17	357.11	24.79	-52.4	-54.4	14.8	0.00e+00	0	24	0	819986432	71	4401
2026-01-09 06:50:45.16	356.86	24.72	-52.5	-54.4	14.8	0.00e+00	0	24	0	822083584	71	4422
2026-01-09 06:50:46.16	356.60	24.65	-52.5	-54.4	14.8	0.00e+00	0	24	0	823132160	71	4413
2026-01-09 06:50:47.15	356.34	24.57	-52.3	-54.2	14.9	0.00e+00	0	24	0	825229312	71	4331
2026-01-09 06:50:48.14	356.09	24.50	-52.4	-54.3	14.8	0.00e+00	0	24	0	827326464	71	4375
2026-01-09 06:50:49.14	355.84	24.43	-52.3	-54.2	14.9	0.00e+00	0	24	0	829423616	71	4306
2026-01-09 06:50:50.14	355.58	24.36	-52.2	-54.1	15.0	0.00e+00	0	24	0	831520768	71	4252
2026-01-09 06:50:51.13	355.33	24.29	-52.2	-54.0	15.0	0.00e+00	0	24	0	832569344	71	4220
2026-01-09 06:50:52.12	355.09	24.21	-52.1	-54.0	14.9	0.00e+00	0	24	0	834666496	70	4451
2026-01-09 06:50:53.11	354.84	24.14	-52.3	-54.2	14.8	0.00e+00	0	24	0	836763648	70	4567
2026-01-09 06:50:54.11	354.59	24.07	-52.0	-53.9	14.9	0.00e+00	0	24	0	838860800	70	4411
2026-01-09 06:50:55.10	354.35	23.99	-51.9	-53.7	15.0	0.00e+00	0	24	0	839909376	70	4310
2026-01-09 06:50:56.10	354.10	23.92	-51.8	-53.5	15.1	0.00e+00	0	24	0	842006528	70	4231
2026-01-09 06:50:57.10	353.85	23.84	-51.8	-53.6	15.1	0.00e+00	0	24	0	844103680	70	4250
2026-01-09 06:50:58.09	353.61	23.77	-51.9	-53.7	15.0	0.00e+00	0	24	0	846200832	70	4311
2026-01-09 06:50:59.10	353.37	23.69	-51.8	-53.5	15.1	0.00e+00	0	24	0	848297984	70	4229
2026-01-09 06:51:00.10	353.13	23.61	-51.7	-53.5	15.1	0.00e+00	0	24	0	849346560	70	4214
2026-01-09 06:51:01.10	352.89	23.54	-51.8	-53.5	15.1	0.00e+00	0	24	0	851443712	70	4228
2026-01-09 06:51:02.10	352.65	23.46	-51.7	-53.4	15.2	0.00e+00	0	24	0	853540864	70	4170
2026-01-09 06:51:03.11	352.41	23.38	-51.6	-53.3	15.1	0.00e+00	0	24	0	855638016	69	4377
2026-01-09 06:51:04.11	352.17	23.30	-51.5	-53.2	15.1	0.00e+00	0	24	0	857735168	69	4306
2026-01-09 06:51:05.11	351.94	23.23	-51.5	-53.2	15.1	0.00e+00	0	24	0	858783744	69	4307
2026-01-09 06:51:06.12	351.70	23.15	-51.3	-53.0	15.2	0.00e+00	0	24	0	860880896	69	4208
2026-01-09 06:51:07.12	351.47	23.07	-51.3	-53.0	15.2	0.00e+00	0	24	0	862978048	69	4213
2026-01-09 06:51:08.13	351.23	22.99	-51.3	-52.9	15.3	0.00e+00	0	24	0	865075200	69	4189
2026-01-09 06:51:09.13	351.00	22.91	-51.3	-53.0	15.2	0.00e+00	0	24	0	866123776	69	4228
2026-01-09 06:51:10.13	350.77	22.83	-51.3	-53.0	15.2	0.00e+00	0	24	0	868220928	69	4210
2026-01-09 06:51:11.13	350.54	22.75	-51.3	-52.9	15.2	0.00e+00	0	24	0	870318080	69	4185
2026-01-09 06:51:12.13	350.32	22.67	-51.2	-52.9	15.3	0.00e+00	0	24	0	872415232	69	4164
2026-01-09 06:51:13.13	350.09	22.59	-51.3	-52.9	15.2	0.00e+00	0	24	0	874512384	69	4183
2026-01-09 06:51:14.13	349.87	22.51	-51.2	-52.9	15.3	0.00e+00	0	24	0	875560960	69	4166
2026-01-09 06:51:15.12	349.65	22.43	-51.1	-52.7	15.2	0.00e+00	0	24	0	877658112	68	4305
2026-01-09 06:51:16.13	349.42	22.35	-51.1	-52.7	15.2	0.00e+00	0	24	0	879755264	68	4331
2026-01-09 06:51:17.13	349.20	22.27	-51.0	-52.7	15.2	0.00e+00	0	24	0	881852416	68	4295
2026-01-09 06:51:18.13	348.98	22.19	-51.0	-52.6	15.3	0.00e+00	0	24	0	883949568	68	4255
2026-01-09 06:51:19.13	348.76	22.11	-50.9	-52.4	15.3	0.00e+00	0	24	0	884998144	68	4193
2026-01-09 06:51:20.13	348.54	22.03	-50.9	-52.5	15.3	0.00e+00	0	24	0	887095296	68	4201
2026-01-09 06:51:21.14	348.33	21.94	-50.9	-52.5	15.3	0.00e+00	0	24	0	889192448	68	4237
2026-01-09 06:51:22.14	348.11	21.86	-50.8	-52.4	15.3	0.00e+00	0	24	0	891289600	68	4164
2026-01-09 06:51:23.13	347.90	21.78	-50.8	-52.4	15.3	0.00e+00	0	24	0	893386752	68	4147
2026-01-09 06:51:24.14	347.68	21.70	-50.7	-52.2	15.4	0.00e+00	0	24	0	894435328	68	4097
2026-01-09 06:51:25.14	347.47	21.62	-50.4	-52.0	15.3	0.00e+00	0	24	0	896532480	67	4195
2026-01-09 06:51:26.15	347.26	21.53	-50.3	-51.9	15.4	0.00e+00	0	24	0	898629632	67	4158
2026-01-09 06:51:27.14	347.05	21.45	-50.2	-51.7	15.5	0.00e+00	0	24	0	900726784	67	4079
2026-01-09 06:51:28.14	346.84	21.37	-50.2	-51.7	15.5	0.00e+00	0	24	0	901775360	67	4075
2026-01-09 06:51:29.15	346.63	21.28	-50.2	-51.7	15.3	0.00e+00	0	24	0	903872512	66	4294
2026-01-09 06:51:30.15	346.43	21.20	-50.1	-51.6	15.3	0.00e+00	0	24	0	905969664	66	4276
2026-01-09 06:51:31.15	346.22	21.12	-50.1	-51.6	15.4	0.00e+00	0	24	0	908066816	66	4263
2026-01-09 06:51:32.15	346.02	21.03	-50.0	-51.5	15.4	0.00e+00	0	24	0	910163968	66	4201
2026-01-09 06:51:33.15	345.81	20.95	-49.9	-51.4	15.5	0.00e+00	0	24	0	911212544	66	4150
2026-01-09 06:51:34.15	345.61	20.87	-49.8	-51.2	15.5	0.00e+00	0	24	0	913309696	66	4075
2026-01-09 06:51:35.16	345.41	20.78	-49.8	-51.2	15.5	0.00e+00	0	24	0	915406848	66	4082
2026-01-09 06:51:36.16	345.21	20.70	-49.8	-51.3	15.5	0.00e+00	0	24	0	917504000	66	4121
2026-01-09 06:51:37.16	345.01	20.62	-49.7	-51.1	15.6	0.00e+00	0	24	0	919601152	66	4046
2026-01-09 06:51:38.16	344.81	20.53	-49.9	-51.4	15.5	0.00e+00	0	24	0	920649728	66	4154
2026-01-09 06:51:39.15	344.62	20.45	-49.9	-51.3	15.5	0.00e+00	0	24	0	922746880	66	4142
2026-01-09 06:51:40.15	344.42	20.37	-50.0	-51.5	15.4	0.00e+00	0	24	0	924844032	66	4194
2026-01-09 06:51:41.16	344.23	20.28	-49.9	-51.3	15.5	0.00e+00	0	24	0	926941184	66	4141
2026-01-09 06:51:42.16	344.04	20.20	-49.8	-51.3	15.5	0.00e+00	0	24	0	929038336	66	4104
2026-01-09 06:51:43.17	343.84	20.11	-49.9	-51.3	15.5	0.00e+00	0	24	0	930086912	66	4136
2026-01-09 06:51:44.18	343.65	20.03	-49.9	-51.4	15.4	0.00e+00	0	24	0	932184064	66	4179
2026-01-09 06:51:45.18	343.46	19.94	-49.9	-51.4	15.5	0.00e+00	0	24	0	934281216	66	4153
2026-01-09 06:51:46.18	343.27	19.86	-49.9	-51.4	15.4	0.00e+00	0	24	0	936378368	66	4176
2026-01-09 06:51:47.17	343.08	19.77	-50.0	-51.4	15.4	0.00e+00	0	24	0	938475520	66	4191
2026-01-09 06:51:48.18	342.90	19.69	-50.1	-51.6	15.3	0.00e+00	0	24	0	939524096	66	4291
2026-01-09 06:51:49.18	342.71	19.60	-50.1	-51.6	15.4	0.00e+00	0	24	0	941621248	66	4254
2026-01-09 06:51:50.19	342.52	19.52	-49.9	-51.4	15.5	0.00e+00	0	24	0	943718400	66	4147
2026-01-09 06:51:51.19	342.34	19.43	-50.0	-51.5	15.4	0.00e+00	0	24	0	945815552	66	4207
2026-01-09 06:51:52.19	342.16	19.35	-50.1	-51.6	15.4	0.00e+00	0	24	0	946864128	66	4244
2026-01-09 06:51:53.19	341.98	19.27	-50.0	-51.5	15.4	0.00e+00	0	24	0	948961280	66	4229
2026-01-09 06:51:54.20	341.79	19.18	-50.0	-51.5	15.4	0.00e+00	0	24	0	951058432	66	4222
2026-01-09 06:51:55.20	341.62	19.10	-50.0	-51.5	15.4	0.00e+00	0	24	0	953155584	66	4220
2026-01-09 06:51:56.20	341.44	19.01	-50.1	-51.6	15.4	0.00e+00	0	24	0	955252736	66	4248
2026-01-09 06:51:57.20	341.26	18.93	-50.2	-51.7	15.3	0.00e+00	0	24	0	956301312	66	4304
2026-01-09 06:51:58.21	341.08	18.84	-50.2	-51.7	15.3	0.00e+00	0	24	0	958398464	66	4329
2026-01-09 06:51:59.21	340.91	18.76	-50.3	-51.8	15.2	0.00e+00	0	24	0	960495616	66	4386
2026-01-09 06:52:00.21	340.73	18.67	-50.3	-51.8	15.2	0.00e+00	0	24	0	962592768	66	4388
2026-01-09 06:52:01.21	340.56	18.59	-50.3	-51.9	15.2	0.00e+00	0	24	0	964689920	66	4415
2026-01-09 06:52:02.21	340.39	18.50	-50.4	-52.0	15.2	0.00e+00	0	24	0	965738496	66	4457
2026-01-09 06:52:03.21	340.21	18.42	-50.4	-51.9	15.2	0.00e+00	0	24	0	967835648	66	4430
2026-01-09 06:52:04.22	340.04	18.33	-50.4	-51.9	15.2	0.00e+00	0	24	0	969932800	66	4431
2026-01-09 06:52:05.23	339.87	18.25	-50.4	-52.0	15.1	0.00e+00	0	24	0	972029952	66	4463
2026-01-09 06:52:06.23	339.70	18.16	-50.6	-52.2	15.1	0.00e+00	0	24	0	974127104	66	4549
2026-01-09 06:52:07.22	339.54	18.08	-50.7	-52.3	15.0	0.00e+00	0	24	0	975175680	66	4626
2026-01-09 06:52:08.22	339.37	18.00	-50.8	-52.4	14.9	0.00e+00	0	24	0	977272832	66	4698
2026-01-09 06:52:09.23	339.20	17.91	-50.8	-52.5	14.9	0.00e+00	0	24	0	979369984	66	4709
2026-01-09 06:52:10.22	339.04	17.83	-50.9	-52.6	14.9	0.00e+00	0	24	0	981467136	66	4780
2026-01-09 06:52:11.22	338.87	17.74	-51.0	-52.7	14.9	0.00e+00	0	24	0	983564288	67	4593
2026-01-09 06:52:12.22	338.71	17.66	-51.1	-52.8	14.9	0.00e+00	0	24	0	984612864	67	4645
2026-01-09 06:52:13.23	338.55	17.57	-51.2	-53.0	14.8	0.00e+00	0	24	0	986710016	67	4725
2026-01-09 06:52:14.23	338.39	17.49	-51.2	-53.0	14.8	0.00e+00	0	24	0	988807168	67	4710
2026-01-09 06:52:15.23	338.23	17.41	-51.3	-53.0	14.8	0.00e+00	0	24	0	990904320	67	4753
2026-01-09 06:52:16.23	338.07	17.32	-51.3	-53.1	14.8	0.00e+00	0	24	0	991952896	67	4786
2026-01-09 06:52:17.23	337.91	17.24	-51.2	-53.0	14.8	0.00e+00	0	24	0	994050048	67	4727
2026-01-09 06:52:18.23	337.75	17.15	-51.2	-53.0	14.8	0.00e+00	0	24	0	996147200	67	4740
2026-01-09 06:52:19.23	337.60	17.07	-51.3	-53.1	14.8	0.00e+00	0	24	0	998244352	67	4770
2026-01-09 06:52:20.23	337.44	16.99	-51.4	-53.1	14.8	0.00e+00	0	24	0	1000341504	67	4806
2026-01-09 06:52:21.23	337.28	16.90	-51.2	-52.9	14.9	0.00e+00	0	24	0	1001390080	67	4680
2026-01-09 06:52:22.23	337.13	16.82	-51.2	-53.0	14.9	0.00e+00	0	24	0	1003487232	67	4706
2026-01-09 06:52:23.23	336.98	16.74	-51.1	-52.8	14.9	0.00e+00	0	24	0	1005584384	67	4602
2026-01-09 06:52:24.24	336.82	16.65	-51.1	-52.8	14.9	0.00e+00	0	24	0	1007681536	67	4631
2026-01-09 06:52:25.24	336.67	16.57	-51.2	-52.9	14.9	0.00e+00	0	24	0	1009778688	67	4673
2026-01-09 06:52:26.23	336.52	16.49	-51.2	-53.0	14.8	0.00e+00	0	24	0	1010827264	67	4715
2026-01-09 06:52:27.23	336.37	16.40	-51.3	-53.1	14.8	0.00e+00	0	24	0	1012924416	67	4768
2026-01-09 06:52:28.24	336.22	16.32	-51.4	-53.2	14.7	0.00e+00	0	24	0	1015021568	67	4829
2026-01-09 06:52:29.24	336.08	16.24	-51.6	-53.4	14.8	0.00e+00	0	24	0	1017118720	68	4681
2026-01-09 06:52:30.24	335.93	16.15	-51.5	-53.3	14.9	0.00e+00	0	24	0	1018167296	68	4601
2026-01-09 06:52:31.24	335.78	16.07	-51.6	-53.4	14.8	0.00e+00	0	24	0	1020264448	68	4677
2026-01-09 06:52:32.23	335.64	15.99	-51.6	-53.5	14.8	0.00e+00	0	24	0	1022361600	68	4716
2026-01-09 06:52:33.23	335.49	15.90	-51.7	-53.5	14.7	0.00e+00	0	24	0	1024458752	68	4735
2026-01-09 06:52:34.22	335.35	15.82	-51.7	-53.6	14.7	0.00e+00	0	24	0	1026555904	68	4777
2026-01-09 06:52:35.22	335.21	15.74	-51.7	-53.5	14.7	0.00e+00	0	24	0	1027604480	68	4727
2026-01-09 06:52:36.22	335.07	15.66	-51.7	-53.5	14.7	0.00e+00	0	24	0	1029701632	68	4757
2026-01-09 06:52:37.22	334.92	15.58	-51.7	-53.5	14.7	0.00e+00	0	24	0	1031798784	68	4752
2026-01-09 06:52:38.22	334.78	15.49	-51.8	-53.6	14.7	0.00e+00	0	24	0	1033895936	68	4802
2026-01-09 06:52:39.21	334.65	15.41	-51.8	-53.6	14.7	0.00e+00	0	24	0	1035993088	68	4797
2026-01-09 06:52:40.22	334.50	15.33	-51.7	-53.6	14.7	0.00e+00	0	24	0	1037041664	68	4789
2026-01-09 06:52:41.21	334.37	15.25	-51.8	-53.6	14.7	0.00e+00	0	24	0	1039138816	68	4804
2026-01-09 06:52:42.21	334.23	15.17	-51.8	-53.7	14.6	0.00e+00	0	24	0	1041235968	68	4851
2026-01-09 06:52:43.20	334.09	15.09	-51.9	-53.8	14.6	0.00e+00	0	24	0	1043333120	68	4881
2026-01-09 06:52:44.20	333.96	15.00	-51.9	-53.7	14.6	0.00e+00	0	24	0	1044381696	68	4865
2026-01-09 06:52:45.19	333.82	14.92	-52.0	-53.9	14.7	0.00e+00	0	24	0	1046478848	69	4683
2026-01-09 06:52:46.19	333.69	14.84	-52.0	-53.9	14.7	0.00e+00	0	24	0	1048576000	69	4692
2026-01-09 06:52:47.20	333.56	14.76	-52.0	-53.9	14.7	0.00e+00	0	24	0	1050673152	69	4694
2026-01-09 06:52:48.19	333.42	14.68	-52.0	-54.0	14.7	0.00e+00	0	24	0	1052770304	69	4707
2026-01-09 06:52:49.19	333.29	14.60	-52.0	-53.9	14.7	0.00e+00	0	24	0	1053818880	69	4697
2026-01-09 06:52:50.19	333.16	14.52	-52.0	-54.0	14.6	0.00e+00	0	24	0	1055916032	69	4727
2026-01-09 06:52:51.19	333.03	14.44	-52.0	-53.9	14.6	0.00e+00	0	24	0	1058013184	69	4679
2026-01-09 06:52:52.19	332.90	14.36	-52.0	-54.0	14.6	0.00e+00	0	24	0	1060110336	69	4708
2026-01-09 06:52:53.19	332.77	14.28	-52.0	-54.0	14.6	0.00e+00	0	24	0	1062207488	69	4708
2026-01-09 06:52:54.18	332.64	14.20	-52.1	-54.0	14.6	0.00e+00	0	24	0	1063256064	69	4738
2026-01-09 06:52:55.18	332.51	14.12	-52.1	-54.1	14.6	0.00e+00	0	24	0	1065353216	69	4770
2026-01-09 06:52:56.18	332.39	14.04	-52.1	-54.1	14.6	0.00e+00	0	24	0	1067450368	69	4761
2026-01-09 06:52:57.18	332.26	13.96	-52.2	-54.2	14.5	0.00e+00	0	24	0	1069547520	69	4829
2026-01-09 06:52:58.17	332.14	13.88	-52.2	-54.2	14.5	0.00e+00	0	24	0	1070596096	69	4862
2026-01-09 06:52:59.16	332.01	13.80	-52.3	-54.4	14.4	0.00e+00	0	24	0	1072693248	69	4956
2026-01-09 06:53:00.16	331.89	13.72	-52.5	-54.6	14.5	0.00e+00	0	24	0	1074790400	70	4769
2026-01-09 06:53:01.16	331.76	13.64	-52.5	-54.5	14.5	0.00e+00	0	24	0	1076887552	70	4738
2026-01-09 06:53:02.16	331.64	13.56	-52.5	-54.6	14.5	0.00e+00	0	24	0	1078984704	70	4793
2026-01-09 06:53:03.15	331.52	13.48	-52.5	-54.6	14.4	0.00e+00	0	24	0	1080033280	70	4800
2026-01-09 06:53:04.15	331.40	13.40	-52.6	-54.8	14.3	0.00e+00	0	24	0	1082130432	70	4904
2026-01-09 06:53:05.15	331.28	13.32	-52.7	-54.9	14.3	0.00e+00	0	24	0	1084227584	70	4927
2026-01-09 06:53:06.15	331.16	13.24	-52.8	-55.0	14.2	0.00e+00	0	24	0	1086324736	70	5020
2026-01-09 06:53:07.14	331.04	13.16	-52.8	-55.0	14.2	0.00e+00	0	24	0	1087373312	70	4995
2026-01-09 06:53:08.14	330.92	13.09	-52.8	-55.1	14.2	0.00e+00	0	24	0	1089470464	70	5049
2026-01-09 06:53:09.13	330.80	13.01	-52.8	-55.0	14.2	0.00e+00	0	24	0	1091567616	70	5002
2026-01-09 06:53:10.12	330.68	12.93	-52.8	-55.0	14.2	0.00e+00	0	24	0	1093664768	70	5033
2026-01-09 06:53:11.12	330.57	12.85	-52.7	-54.9	14.3	0.00e+00	0	24	0	1095761920	70	4930
2026-01-09 06:53:12.11	330.45	12.77	-52.7	-54.9	14.3	0.00e+00	0	24	0	1096810496	70	4947
2026-01-09 06:53:13.10	330.34	12.70	-52.6	-54.8	14.3	0.00e+00	0	24	0	1098907648	70	4906
2026-01-09 06:53:14.09	330.22	12.62	-52.8	-55.0	14.2	0.00e+00	0	24	0	1101004800	70	4992
2026-01-09 06:53:15.09	330.11	12.54	-52.6	-54.7	14.4	0.00e+00	0	24	0	1103101952	70	4839
2026-01-09 06:53:16.09	329.99	12.46	-52.6	-54.8	14.3	0.00e+00	0	24	0	1104150528	70	4891
2026-01-09 06:53:17.09	329.88	12.39	-52.7	-54.9	14.3	0.00e+00	0	24	0	1106247680	70	4942
2026-01-09 06:53:18.09	329.77	12.31	-52.8	-55.0	14.2	0.00e+00	0	24	0	1108344832	70	5018
2026-01-09 06:53:19.08	329.66	12.23	-52.8	-55.0	14.2	0.00e+00	0	24	0	1110441984	70	5040
2026-01-09 06:53:20.08	329.55	12.16	-52.9	-55.2	14.1	0.00e+00	0	24	0	1112539136	70	5113
2026-01-09 06:53:21.07	329.44	12.08	-53.0	-55.3	14.2	0.00e+00	0	24	0	1113587712	71	4878
2026-01-09 06:53:22.06	329.33	12.00	-53.0	-55.3	14.2	0.00e+00	0	24	0	1115684864	71	4891
2026-01-09 06:53:23.06	329.22	11.93	-53.1	-55.4	14.1	0.00e+00	0	24	0	1117782016	71	4944
2026-01-09 06:53:24.05	329.11	11.85	-52.9	-55.2	14.2	0.00e+00	0	24	0	1119879168	71	4858
2026-01-09 06:53:25.04	329.00	11.78	-52.9	-55.2	14.2	0.00e+00	0	24	0	1120927744	71	4862
2026-01-09 06:53:26.03	328.89	11.70	-53.0	-55.3	14.1	0.00e+00	0	24	0	1123024896	71	4903
2026-01-09 06:53:27.03	328.79	11.62	-52.9	-55.2	14.2	0.00e+00	0	24	0	1125122048	71	4835
2026-01-09 06:53:28.02	328.68	11.55	-52.9	-55.2	14.2	0.00e+00	0	24	0	1127219200	71	4858
2026-01-09 06:53:29.03	328.57	11.47	-52.9	-55.2	14.2	0.00e+00	0	24	0	1129316352	71	4858
2026-01-09 06:53:30.03	328.47	11.40	-52.9	-55.2	14.2	0.00e+00	0	24	0	1130364928	71	4832
2026-01-09 06:53:31.03	328.36	11.32	-52.9	-55.1	14.2	0.00e+00	0	24	0	1132462080	71	4811
2026-01-09 06:53:32.03	328.26	11.24	-52.7	-55.0	14.4	0.00e+00	0	24	0	1134559232	71	4712
2026-01-09 06:53:33.02	328.15	11.17	-52.9	-55.1	14.3	0.00e+00	0	24	0	1136656384	71	4794
2026-01-09 06:53:34.02	328.05	11.09	-52.8	-55.0	14.3	0.00e+00	0	24	0	1138753536	71	4759
2026-01-09 06:53:35.01	327.95	11.02	-52.9	-55.2	14.2	0.00e+00	0	24	0	1139802112	71	4837
2026-01-09 06:53:36.01	327.85	10.95	-53.0	-55.3	14.1	0.00e+00	0	24	0	1141899264	71	4910
2026-01-09 06:53:37.01	327.74	10.87	-53.0	-55.4	14.1	0.00e+00	0	24	0	1143996416	71	4929
2026-01-09 06:53:38.01	327.64	10.80	-53.1	-55.5	14.0	0.00e+00	0	24	0	1146093568	71	5003
2026-01-09 06:53:39.00	327.54	10.72	-53.2	-55.6	13.9	0.00e+00	0	24	0	1148190720	71	5073
2026-01-09 06:53:40.00	327.44	10.65	-53.2	-55.6	14.0	0.00e+00	0	24	0	1149239296	71	5062
2026-01-09 06:53:41.00	327.34	10.57	-53.3	-55.8	13.9	0.00e+00	0	24	0	1151336448	71	5164
2026-01-09 06:53:41.99	327.24	10.50	-53.3	-55.8	13.8	0.00e+00	0	24	0	1153433600	71	5205
2026-01-09 06:53:43.00	327.14	10.42	-53.2	-55.6	13.9	0.00e+00	0	24	0	1155530752	71	5099
2026-01-09 06:53:43.99	327.05	10.35	-53.2	-55.7	13.9	0.00e+00	0	24	0	1156579328	71	5132
2026-01-09 06:53:44.99	326.95	10.28	-53.3	-55.8	13.8	0.00e+00	0	24	0	1158676480	71	5187
2026-01-09 06:53:45.99	326.85	10.20	-53.4	-55.9	13.8	0.00e+00	0	24	0	1160773632	71	5240
2026-01-09 06:53:46.99	326.76	10.13	-53.3	-55.8	13.8	0.00e+00	0	24	0	1162870784	71	5207
2026-01-09 06:53:47.99	326.66	10.06	-53.4	-55.9	13.7	0.00e+00	0	24	0	1164967936	71	5260
2026-01-09 06:53:48.98	326.56	9.99	-53.5	-56.1	13.8	0.00e+00	0	24	0	1166016512	72	5071
2026-01-09 06:53:49.98	326.47	9.91	-53.4	-56.0	13.8	0.00e+00	0	24	0	1168113664	72	5021
2026-01-09 06:53:50.97	326.38	9.84	-53.5	-56.1	13.7	0.00e+00	0	24	0	1170210816	72	5077
2026-01-09 06:53:51.97	326.28	9.77	-53.5	-56.2	13.7	0.00e+00	0	24	0	1172307968	72	5113
2026-01-09 06:53:52.97	326.19	9.69	-53.6	-56.2	13.7	0.00e+00	0	24	0	1173356544	72	5124
2026-01-09 06:53:53.97	326.09	9.62	-53.5	-56.2	13.7	0.00e+00	0	24	0	1175453696	72	5113
2026-01-09 06:53:54.97	326.00	9.55	-53.6	-56.3	13.6	0.00e+00	0	24	0	1177550848	72	5181
2026-01-09 06:53:55.97	325.91	9.48	-53.6	-56.3	13.6	0.00e+00	0	24	0	1179648000	72	5173
2026-01-09 06:53:56.96	325.82	9.41	-53.7	-56.4	13.5	0.00e+00	0	24	0	1181745152	72	5271
2026-01-09 06:53:57.96	325.73	9.33	-53.6	-56.3	13.6	0.00e+00	0	24	0	1182793728	72	5207
2026-01-09 06:53:58.95	325.64	9.26	-53.6	-56.3	13.6	0.00e+00	0	24	0	1184890880	72	5191
2026-01-09 06:53:59.95	325.55	9.19	-53.7	-56.4	13.6	0.00e+00	0	24	0	1186988032	72	5233
2026-01-09 06:54:00.94	325.46	9.12	-53.6	-56.3	13.6	0.00e+00	0	24	0	1189085184	72	5170
2026-01-09 06:54:01.94	325.37	9.05	-53.5	-56.1	13.7	0.00e+00	0	24	0	1190133760	72	5083
2026-01-09 06:54:02.94	325.28	8.98	-53.5	-56.1	13.8	0.00e+00	0	24	0	1192230912	72	5042
2026-01-09 06:54:03.93	325.19	8.91	-53.6	-56.3	13.6	0.00e+00	0	24	0	1194328064	72	5212
2026-01-09 06:54:04.93	325.10	8.84	-53.5	-56.1	13.7	0.00e+00	0	24	0	1196425216	72	5065
2026-01-09 06:54:05.93	325.01	8.77	-53.4	-56.0	13.7	0.00e+00	0	24	0	1198522368	72	5036
2026-01-09 06:54:06.93	324.93	8.69	-53.4	-56.0	13.8	0.00e+00	0	24	0	1199570944	72	5033
2026-01-09 06:54:07.93	324.84	8.62	-53.5	-56.2	13.7	0.00e+00	0	24	0	1201668096	72	5108
2026-01-09 06:54:08.93	324.75	8.55	-53.5	-56.2	13.7	0.00e+00	0	24	0	1203765248	72	5103
2026-01-09 06:54:09.93	324.67	8.48	-53.6	-56.2	13.6	0.00e+00	0	24	0	1205862400	72	5147
2026-01-09 06:54:10.92	324.58	8.41	-53.5	-56.1	13.7	0.00e+00	0	24	0	1207959552	72	5086
2026-01-09 06:54:11.92	324.50	8.34	-53.4	-56.0	13.7	0.00e+00	0	24	0	1209008128	72	5023
2026-01-09 06:54:12.92	324.41	8.27	-53.6	-56.4	13.5	0.00e+00	0	24	0	1211105280	72	5223
2026-01-09 06:54:13.92	324.33	8.20	-53.5	-56.1	13.7	0.00e+00	0	24	0	1213202432	72	5077
2026-01-09 06:54:14.92	324.24	8.13	-53.5	-56.1	13.7	0.00e+00	0	24	0	1215299584	72	5093
