passes_logs/2026/01/28/R3.2S_Murmansk/R3.2S_Murmansk__20260128_063636_NOAA_21_JPSS-2_rec.log

#Pass ID: 20260128_063636_NOAA 21 (JPSS-2)
#Satellite: NOAA 21 (JPSS-2)
#Configuration: NOAA-21
#almurnet v.1.7.20251203
#Start time: 2026-01-28 06:36:37

#Version: 2.2.20231116
#Station: R3.2S_Murmansk
#Location: 33.079688 lon 68.888172 lat
#TLE: 1 54234U 22150A   26027.27712747  .00000181  00000+0  10656-3 0  9992
#TLE: 2 54234  98.7510 328.0291 0000845 205.5277 154.5858 14.19540098166550

#Time	Az	El	Level	Level2	SNR	BER	BlckErr	Temp	State	Recorded	gain1	gain2
2026-01-28 06:36:37.19	87.12	2.06	-52.1	-64.8	3.8	1.49e+00	0	41	0	0	76	14968
2026-01-28 06:36:38.19	87.07	2.12	-52.1	-64.8	3.8	1.49e+00	0	41	104	0	74	16789
2026-01-28 06:36:39.19	87.01	2.18	-52.0	-64.7	3.8	1.49e+00	0	41	104	0	74	16657
2026-01-28 06:36:40.20	86.96	2.24	-52.0	-64.8	3.8	1.49e+00	0	41	104	0	74	16712
2026-01-28 06:36:41.20	86.90	2.30	-52.0	-64.7	3.8	1.49e+00	0	41	104	0	74	16635
2026-01-28 06:36:42.21	86.84	2.36	-52.0	-64.7	3.8	1.49e+00	0	41	104	0	74	16675
2026-01-28 06:36:43.22	86.78	2.42	-52.0	-64.7	3.8	1.49e+00	0	41	104	0	74	16665
2026-01-28 06:36:44.23	86.73	2.48	-52.0	-64.7	3.8	1.49e+00	0	41	104	0	74	16625
2026-01-28 06:36:45.23	86.67	2.54	-52.0	-64.7	3.8	1.49e+00	0	41	104	0	74	16611
2026-01-28 06:36:46.24	86.61	2.60	-52.0	-64.7	3.8	1.49e+00	0	41	104	0	74	16612
2026-01-28 06:36:47.25	86.55	2.66	-52.0	-64.6	3.8	1.49e+00	0	41	104	0	74	16481
2026-01-28 06:36:48.25	86.49	2.72	-52.0	-64.6	3.8	1.49e+00	0	41	104	0	74	16445
2026-01-28 06:36:49.26	86.43	2.78	-52.0	-64.7	3.8	1.49e+00	0	41	104	0	74	16557
2026-01-28 06:36:50.27	86.38	2.84	-52.0	-64.7	3.8	1.49e+00	0	41	104	0	74	16549
2026-01-28 06:36:51.27	86.32	2.90	-52.0	-64.7	3.8	1.49e+00	0	41	104	0	74	16645
2026-01-28 06:36:52.27	86.26	2.96	-52.0	-64.7	3.8	1.49e+00	0	41	104	0	74	16643
2026-01-28 06:36:53.28	86.20	3.02	-52.0	-64.7	3.8	1.49e+00	0	41	104	0	74	16589
2026-01-28 06:36:54.29	86.14	3.08	-52.0	-64.6	3.8	1.49e+00	0	41	104	0	74	16503
2026-01-28 06:36:55.30	86.08	3.14	-52.0	-64.6	3.8	1.49e+00	0	41	104	0	74	16369
2026-01-28 06:36:56.31	86.02	3.20	-52.0	-64.5	3.8	1.49e+00	0	41	104	0	74	16265
2026-01-28 06:36:57.32	85.95	3.26	-52.0	-64.5	3.8	1.49e+00	0	41	104	0	74	16219
2026-01-28 06:36:58.32	85.89	3.32	-52.0	-64.5	3.8	1.49e+00	0	41	104	0	74	16256
2026-01-28 06:36:59.33	85.83	3.38	-52.0	-64.6	3.8	1.49e+00	0	41	104	0	74	16425
2026-01-28 06:37:00.34	85.77	3.44	-52.0	-64.7	3.8	1.49e+00	0	41	104	0	74	16525
2026-01-28 06:37:01.34	85.71	3.50	-52.0	-64.7	3.8	1.49e+00	0	42	104	0	74	16586
2026-01-28 06:37:02.35	85.65	3.57	-52.0	-64.7	3.8	1.49e+00	0	42	104	0	74	16674
2026-01-28 06:37:03.36	85.58	3.63	-52.0	-64.7	3.8	1.49e+00	0	41	104	0	74	16590
2026-01-28 06:37:04.36	85.52	3.69	-52.0	-64.7	3.8	1.49e+00	0	42	104	0	74	16538
2026-01-28 06:37:05.36	85.46	3.75	-52.0	-64.6	3.8	1.49e+00	0	42	104	0	74	16443
2026-01-28 06:37:06.37	85.39	3.81	-52.0	-64.7	3.8	1.49e+00	0	42	104	0	74	16506
2026-01-28 06:37:07.38	85.33	3.88	-52.0	-64.7	3.8	1.49e+00	0	42	104	0	74	16581
2026-01-28 06:37:08.39	85.27	3.94	-52.0	-64.5	3.8	1.49e+00	0	42	104	0	74	16197
2026-01-28 06:37:09.40	85.20	4.00	-51.9	-64.0	3.8	1.49e+00	0	42	104	0	74	15383
2026-01-28 06:37:10.41	85.14	4.06	-51.9	-63.3	3.8	1.49e+00	0	42	104	0	74	14172
2026-01-28 06:37:11.41	85.07	4.12	-51.8	-62.3	3.9	1.49e+00	0	42	104	0	74	12604
2026-01-28 06:37:12.42	85.01	4.19	-51.6	-60.7	4.3	1.46e+00	0	42	104	0	74	10528
2026-01-28 06:37:13.43	84.94	4.25	-51.5	-59.6	4.8	1.17e+00	0	42	104	0	74	9192
2026-01-28 06:37:14.43	84.88	4.31	-51.3	-58.7	5.3	5.97e-01	0	42	0	1048576	74	8315
2026-01-28 06:37:15.44	84.81	4.38	-51.2	-58.4	5.5	5.39e-01	0	42	0	4194304	74	8030
2026-01-28 06:37:16.44	84.74	4.44	-51.2	-58.3	5.5	4.54e-01	0	42	0	7340032	74	7967
2026-01-28 06:37:17.45	84.68	4.50	-51.3	-58.6	5.3	5.25e-01	0	42	0	10485760	74	8233
2026-01-28 06:37:18.46	84.61	4.56	-51.4	-59.1	5.0	5.75e-01	0	42	0	13631488	74	8742
2026-01-28 06:37:19.47	84.54	4.63	-51.5	-60.6	4.0	1.09e+00	0	42	104	15728640	74	10313
2026-01-28 06:37:20.47	84.48	4.69	-51.6	-60.9	3.9	1.22e+00	0	42	104	15728640	74	10778
2026-01-28 06:37:21.47	84.41	4.75	-51.5	-59.8	4.7	1.21e+00	2	42	104	15728640	74	9448
2026-01-28 06:37:22.48	84.34	4.82	-51.3	-58.5	5.4	6.01e-01	0	42	0	15728640	74	8121
2026-01-28 06:37:23.49	84.27	4.88	-50.8	-56.6	6.8	2.36e-01	0	42	0	19922944	73	6950
2026-01-28 06:37:24.50	84.20	4.95	-50.3	-55.1	8.3	6.16e-02	0	42	0	22020096	72	6134
2026-01-28 06:37:25.51	84.13	5.01	-49.8	-53.7	9.8	2.88e-02	0	42	0	25165824	71	5577
2026-01-28 06:37:26.51	84.06	5.07	-51.1	-58.0	6.0	2.07e-02	0	42	0	28311552	72	8585
2026-01-28 06:37:27.52	83.99	5.14	-51.8	-61.5	4.1	1.49e+00	0	42	104	29360128	74	11420
2026-01-28 06:37:28.53	83.92	5.20	-49.5	-53.0	10.5	3.14e-01	0	42	0	29360128	71	5121
2026-01-28 06:37:29.53	83.85	5.27	-46.5	-48.2	15.2	6.80e-04	0	42	0	32505856	65	4187
2026-01-28 06:37:30.54	83.78	5.33	-49.2	-52.6	11.5	7.40e-05	0	42	0	35651584	68	5799
2026-01-28 06:37:31.55	83.71	5.40	-49.9	-54.5	4.7	1.49e+00	0	42	104	36700160	71	6112
2026-01-28 06:37:32.55	83.64	5.46	-45.1	-46.4	17.4	0.00e+00	0	42	0	37748736	62	4034
2026-01-28 06:37:33.55	83.57	5.53	-44.9	-46.2	17.6	0.00e+00	0	42	0	40894464	61	4192
2026-01-28 06:37:34.56	83.50	5.59	-45.0	-46.3	17.5	0.00e+00	0	42	0	44040192	61	4220
2026-01-28 06:37:35.57	83.42	5.66	-45.0	-46.3	17.5	0.00e+00	0	42	0	47185920	61	4220
2026-01-28 06:37:36.58	83.35	5.72	-44.9	-46.2	17.7	0.00e+00	0	42	0	50331648	61	4164
2026-01-28 06:37:37.58	83.28	5.79	-44.9	-46.3	17.6	0.00e+00	0	42	0	53477376	61	4201
2026-01-28 06:37:38.59	83.21	5.85	-45.0	-46.3	17.6	0.00e+00	0	42	0	57671680	61	4208
2026-01-28 06:37:39.60	83.13	5.92	-45.0	-46.4	17.5	0.00e+00	0	42	0	60817408	61	4245
2026-01-28 06:37:40.60	83.06	5.98	-45.0	-46.3	17.5	0.00e+00	0	42	0	63963136	61	4236
2026-01-28 06:37:41.61	82.98	6.05	-45.2	-46.5	17.4	0.00e+00	0	42	0	67108864	61	4328
2026-01-28 06:37:42.62	82.91	6.12	-45.4	-46.8	17.2	0.00e+00	0	42	0	70254592	61	4452
2026-01-28 06:37:43.62	82.83	6.18	-45.3	-46.6	17.3	0.00e+00	0	42	0	72351744	61	4378
2026-01-28 06:37:44.63	82.76	6.25	-44.7	-46.0	17.9	0.00e+00	0	42	0	75497472	61	4073
2026-01-28 06:37:45.63	82.68	6.31	-44.6	-45.9	18.0	0.00e+00	0	42	0	78643200	61	4029
2026-01-28 06:37:46.64	82.61	6.38	-44.6	-45.8	18.1	0.00e+00	0	42	0	81788928	61	3984
2026-01-28 06:37:47.65	82.53	6.45	-44.7	-46.0	18.0	0.00e+00	0	42	0	84934656	61	4054
2026-01-28 06:37:48.65	82.45	6.51	-44.7	-46.0	17.9	0.00e+00	0	42	0	88080384	61	4061
2026-01-28 06:37:49.66	82.38	6.58	-44.9	-46.2	17.8	0.00e+00	0	42	0	91226112	61	4164
2026-01-28 06:37:50.67	82.30	6.65	-44.8	-46.1	17.8	0.00e+00	0	42	0	94371840	61	4144
2026-01-28 06:37:51.67	82.22	6.71	-44.9	-46.2	17.8	0.00e+00	0	42	0	97517568	61	4171
2026-01-28 06:37:52.68	82.14	6.78	-44.7	-45.9	18.0	0.00e+00	0	42	0	100663296	61	4049
2026-01-28 06:37:53.69	82.06	6.85	-44.9	-46.2	17.8	0.00e+00	0	42	0	103809024	61	4151
2026-01-28 06:37:54.69	81.98	6.92	-44.9	-46.2	17.8	0.00e+00	0	42	0	108003328	61	4160
2026-01-28 06:37:55.70	81.90	6.98	-44.8	-46.1	17.9	0.00e+00	0	42	0	111149056	61	4117
2026-01-28 06:37:56.71	81.82	7.05	-44.5	-45.7	18.2	0.00e+00	0	42	0	114294784	61	3948
2026-01-28 06:37:57.72	81.74	7.12	-44.6	-45.8	18.1	0.00e+00	0	42	0	117440512	60	4217
2026-01-28 06:37:58.72	81.66	7.19	-44.5	-45.8	18.2	0.00e+00	0	42	0	119537664	60	4209
2026-01-28 06:37:59.72	81.58	7.25	-44.4	-45.6	18.4	0.00e+00	0	42	0	122683392	60	4122
2026-01-28 06:38:00.73	81.50	7.32	-44.4	-45.6	18.4	0.00e+00	0	42	0	125829120	60	4115
2026-01-28 06:38:01.74	81.42	7.39	-44.4	-45.7	18.3	0.00e+00	0	42	0	128974848	60	4156
2026-01-28 06:38:02.74	81.34	7.46	-44.3	-45.5	18.5	0.00e+00	0	42	0	132120576	60	4054
2026-01-28 06:38:03.75	81.25	7.53	-44.2	-45.4	18.6	0.00e+00	0	42	0	135266304	60	4034
2026-01-28 06:38:04.75	81.17	7.60	-44.5	-45.7	18.3	0.00e+00	0	42	0	138412032	60	4184
2026-01-28 06:38:05.76	81.09	7.66	-44.8	-46.0	18.0	0.00e+00	0	42	0	141557760	60	4323
2026-01-28 06:38:06.77	81.00	7.73	-44.5	-45.7	18.3	0.00e+00	0	42	0	144703488	60	4171
2026-01-28 06:38:07.77	80.92	7.80	-44.4	-45.6	18.4	0.00e+00	0	42	0	147849216	60	4111
2026-01-28 06:38:08.78	80.83	7.87	-44.3	-45.5	18.5	0.00e+00	0	42	0	150994944	60	4068
2026-01-28 06:38:09.79	80.75	7.94	-44.4	-45.5	18.5	0.00e+00	0	42	0	154140672	60	4096
2026-01-28 06:38:10.79	80.66	8.01	-44.3	-45.4	18.5	0.00e+00	0	42	0	158334976	60	4037
2026-01-28 06:38:11.80	80.58	8.08	-44.2	-45.3	18.7	0.00e+00	0	42	0	161480704	60	3997
2026-01-28 06:38:12.80	80.49	8.15	-44.1	-45.3	18.7	0.00e+00	0	42	0	164626432	60	3969
2026-01-28 06:38:13.81	80.40	8.22	-44.2	-45.4	18.6	0.00e+00	0	42	0	166723584	60	4020
2026-01-28 06:38:14.82	80.32	8.29	-44.0	-45.1	18.9	0.00e+00	0	42	0	169869312	60	3909
2026-01-28 06:38:15.83	80.23	8.36	-44.1	-45.2	18.8	0.00e+00	0	42	0	173015040	60	3953
2026-01-28 06:38:16.83	80.14	8.43	-44.2	-45.4	18.7	0.00e+00	0	42	0	176160768	60	4010
2026-01-28 06:38:17.84	80.05	8.50	-44.1	-45.3	18.8	0.00e+00	0	43	0	179306496	60	3975
2026-01-28 06:38:18.84	79.96	8.57	-44.1	-45.2	18.8	0.00e+00	0	42	0	182452224	60	3952
2026-01-28 06:38:19.85	79.87	8.64	-44.1	-45.2	18.9	0.00e+00	0	42	0	185597952	60	3941
2026-01-28 06:38:20.86	79.78	8.71	-44.3	-45.4	19.0	0.00e+00	0	42	0	188743680	59	4275
2026-01-28 06:38:21.87	79.69	8.78	-44.2	-45.4	19.0	0.00e+00	0	42	0	191889408	59	4249
2026-01-28 06:38:22.87	79.60	8.85	-44.1	-45.2	19.2	0.00e+00	0	42	0	195035136	59	4185
2026-01-28 06:38:23.88	79.51	8.92	-44.2	-45.3	19.1	0.00e+00	0	42	0	198180864	59	4215
2026-01-28 06:38:24.89	79.42	9.00	-44.2	-45.3	19.1	0.00e+00	0	42	0	201326592	59	4234
2026-01-28 06:38:25.90	79.33	9.07	-44.2	-45.4	19.1	0.00e+00	0	42	0	205520896	59	4244
2026-01-28 06:38:26.91	79.23	9.14	-44.3	-45.5	19.0	0.00e+00	0	42	0	208666624	59	4296
2026-01-28 06:38:27.91	79.14	9.21	-44.2	-45.3	19.1	0.00e+00	0	42	0	211812352	59	4238
2026-01-28 06:38:28.92	79.05	9.28	-44.4	-45.5	18.9	0.00e+00	0	42	0	213909504	59	4316
2026-01-28 06:38:29.93	78.95	9.35	-44.1	-45.2	19.2	0.00e+00	0	42	0	217055232	59	4164
2026-01-28 06:38:30.93	78.86	9.43	-44.1	-45.2	19.3	0.00e+00	0	42	0	220200960	59	4150
2026-01-28 06:38:31.94	78.76	9.50	-44.0	-45.1	19.4	0.00e+00	0	42	0	223346688	59	4099
2026-01-28 06:38:32.95	78.67	9.57	-44.0	-45.1	19.4	0.00e+00	0	42	0	226492416	59	4100
2026-01-28 06:38:33.96	78.57	9.64	-44.0	-45.1	19.4	0.00e+00	0	42	0	229638144	59	4111
2026-01-28 06:38:34.96	78.48	9.72	-43.9	-45.0	19.5	0.00e+00	0	42	0	232783872	59	4058
2026-01-28 06:38:35.97	78.38	9.79	-43.9	-44.9	19.5	0.00e+00	0	43	0	235929600	59	4046
2026-01-28 06:38:36.97	78.28	9.86	-43.8	-44.9	19.6	0.00e+00	0	43	0	239075328	59	4023
2026-01-28 06:38:37.97	78.18	9.93	-43.8	-44.9	19.5	0.00e+00	0	42	0	242221056	59	4032
2026-01-28 06:38:38.98	78.09	10.01	-43.8	-44.9	19.6	0.00e+00	0	43	0	245366784	59	4005
2026-01-28 06:38:39.99	77.99	10.08	-43.7	-44.8	19.7	0.00e+00	0	42	0	249561088	59	3974
2026-01-28 06:38:40.99	77.89	10.15	-43.7	-44.7	19.7	0.00e+00	0	42	0	252706816	59	3944
2026-01-28 06:38:41.99	77.79	10.23	-43.6	-44.6	19.9	0.00e+00	0	42	0	255852544	59	3895
2026-01-28 06:38:43.00	77.69	10.30	-43.6	-44.6	19.8	0.00e+00	0	42	0	258998272	59	3901
2026-01-28 06:38:44.01	77.59	10.37	-43.6	-44.6	19.9	0.00e+00	0	43	0	262144000	59	3897
2026-01-28 06:38:45.02	77.48	10.45	-43.6	-44.6	19.8	0.00e+00	0	43	0	264241152	59	3901
2026-01-28 06:38:46.02	77.38	10.52	-43.5	-44.5	20.0	0.00e+00	0	43	0	267386880	59	3847
2026-01-28 06:38:47.02	77.28	10.59	-43.5	-44.5	20.0	0.00e+00	0	43	0	270532608	58	4070
2026-01-28 06:38:48.03	77.18	10.67	-43.3	-44.3	20.1	0.00e+00	0	42	0	273678336	58	3975
2026-01-28 06:38:49.04	77.07	10.74	-43.4	-44.4	20.1	0.00e+00	0	42	0	276824064	58	4014
2026-01-28 06:38:50.05	76.97	10.82	-43.3	-44.3	20.2	0.00e+00	0	43	0	279969792	58	3965
2026-01-28 06:38:51.05	76.86	10.89	-43.2	-44.2	20.3	0.00e+00	0	42	0	283115520	58	3918
2026-01-28 06:38:52.06	76.76	10.97	-43.2	-44.1	20.3	0.00e+00	0	43	0	286261248	58	3905
2026-01-28 06:38:53.07	76.65	11.04	-43.1	-44.1	20.3	0.00e+00	0	43	0	289406976	58	3893
2026-01-28 06:38:54.07	76.55	11.12	-43.2	-44.2	20.3	0.00e+00	0	43	0	292552704	58	3939
2026-01-28 06:38:55.08	76.44	11.19	-43.2	-44.1	20.3	0.00e+00	0	43	0	295698432	58	3903
2026-01-28 06:38:56.08	76.33	11.27	-43.1	-44.0	20.4	0.00e+00	0	43	0	298844160	58	3867
2026-01-28 06:38:57.09	76.22	11.34	-43.1	-44.1	20.3	0.00e+00	0	42	0	303038464	58	3894
2026-01-28 06:38:58.10	76.11	11.42	-43.1	-44.0	20.4	0.00e+00	0	43	0	306184192	58	3858
2026-01-28 06:38:59.11	76.00	11.49	-43.0	-44.0	20.4	0.00e+00	0	43	0	309329920	57	4072
2026-01-28 06:39:00.11	75.89	11.57	-43.0	-44.0	20.4	0.00e+00	0	43	0	311427072	57	4078
2026-01-28 06:39:01.12	75.78	11.65	-43.1	-44.1	20.4	0.00e+00	0	43	0	314572800	57	4101
2026-01-28 06:39:02.13	75.67	11.72	-43.0	-44.0	20.5	0.00e+00	0	43	0	317718528	57	4065
2026-01-28 06:39:03.14	75.56	11.80	-43.0	-44.0	20.5	0.00e+00	0	43	0	320864256	57	4064
2026-01-28 06:39:04.14	75.45	11.87	-43.0	-43.9	20.5	0.00e+00	0	43	0	324009984	57	4046
2026-01-28 06:39:05.15	75.33	11.95	-43.0	-44.0	20.5	0.00e+00	0	43	0	327155712	57	4064
2026-01-28 06:39:06.16	75.22	12.03	-43.0	-43.9	20.5	0.00e+00	0	43	0	330301440	57	4032
2026-01-28 06:39:07.16	75.11	12.10	-42.7	-43.6	20.8	0.00e+00	0	43	0	333447168	57	3909
2026-01-28 06:39:08.17	74.99	12.18	-42.8	-43.8	20.7	0.00e+00	0	43	0	336592896	57	3976
2026-01-28 06:39:09.18	74.88	12.26	-42.9	-43.8	20.7	0.00e+00	0	42	0	339738624	57	3975
2026-01-28 06:39:10.19	74.76	12.34	-42.8	-43.7	20.7	0.00e+00	0	43	0	342884352	57	3951
2026-01-28 06:39:11.19	74.64	12.41	-42.7	-43.7	20.8	0.00e+00	0	43	0	347078656	57	3921
2026-01-28 06:39:12.20	74.53	12.49	-42.7	-43.6	20.8	0.00e+00	0	43	0	350224384	57	3890
2026-01-28 06:39:13.21	74.41	12.57	-42.8	-43.7	20.7	0.00e+00	0	43	0	353370112	57	3931
2026-01-28 06:39:14.21	74.29	12.64	-42.8	-43.7	20.7	0.00e+00	0	43	0	356515840	57	3940
2026-01-28 06:39:15.22	74.17	12.72	-42.8	-43.7	20.7	0.00e+00	0	43	0	358612992	57	3952
2026-01-28 06:39:16.22	74.05	12.80	-42.9	-43.9	20.6	0.00e+00	0	43	0	361758720	57	4021
2026-01-28 06:39:17.23	73.93	12.88	-42.8	-43.8	20.7	0.00e+00	0	43	0	364904448	57	3963
2026-01-28 06:39:18.23	73.81	12.96	-42.9	-43.8	20.7	0.00e+00	0	42	0	368050176	57	4004
2026-01-28 06:39:19.24	73.69	13.03	-42.8	-43.7	20.8	0.00e+00	0	43	0	371195904	57	3942
2026-01-28 06:39:20.25	73.57	13.11	-42.7	-43.7	20.9	0.00e+00	0	43	0	374341632	57	3914
2026-01-28 06:39:21.26	73.44	13.19	-42.8	-43.7	20.8	0.00e+00	0	43	0	377487360	57	3940
2026-01-28 06:39:22.27	73.32	13.27	-42.8	-43.7	20.8	0.00e+00	0	43	0	380633088	57	3951
2026-01-28 06:39:23.27	73.19	13.35	-42.8	-43.8	20.8	0.00e+00	0	43	0	383778816	57	3963
2026-01-28 06:39:24.28	73.07	13.43	-42.8	-43.7	20.8	0.00e+00	0	43	0	386924544	57	3932
2026-01-28 06:39:25.29	72.94	13.51	-42.9	-43.8	20.7	0.00e+00	0	43	0	391118848	57	3996
2026-01-28 06:39:26.29	72.82	13.58	-42.8	-43.7	20.8	0.00e+00	0	43	0	394264576	57	3933
2026-01-28 06:39:27.30	72.69	13.66	-42.7	-43.6	20.9	0.00e+00	0	43	0	397410304	57	3904
2026-01-28 06:39:28.31	72.56	13.74	-42.7	-43.6	20.9	0.00e+00	0	43	0	400556032	57	3877
2026-01-28 06:39:29.32	72.43	13.82	-42.6	-43.5	20.9	0.00e+00	0	43	0	403701760	57	3863
2026-01-28 06:39:30.33	72.30	13.90	-42.8	-43.7	20.8	0.00e+00	0	43	0	405798912	57	3919
2026-01-28 06:39:31.33	72.17	13.98	-42.8	-43.7	20.8	0.00e+00	0	43	0	408944640	57	3942
2026-01-28 06:39:32.34	72.04	14.06	-42.9	-43.8	20.7	0.00e+00	0	43	0	412090368	57	3984
2026-01-28 06:39:33.35	71.91	14.14	-42.7	-43.6	20.9	0.00e+00	0	43	0	415236096	57	3911
2026-01-28 06:39:34.35	71.78	14.22	-42.8	-43.8	20.8	0.00e+00	0	43	0	418381824	57	3963
2026-01-28 06:39:35.36	71.65	14.30	-42.9	-43.8	20.7	0.00e+00	0	43	0	421527552	57	3995
2026-01-28 06:39:36.37	71.51	14.38	-43.0	-43.9	20.6	0.00e+00	0	43	0	424673280	57	4046
2026-01-28 06:39:37.38	71.38	14.46	-42.9	-43.8	20.8	0.00e+00	0	43	0	427819008	57	3987
2026-01-28 06:39:38.39	71.24	14.54	-42.9	-43.9	20.7	0.00e+00	0	42	0	430964736	57	4010
2026-01-28 06:39:39.40	71.11	14.62	-42.8	-43.7	20.8	0.00e+00	0	43	0	435159040	57	3947
2026-01-28 06:39:40.40	70.97	14.70	-42.8	-43.7	20.8	0.00e+00	0	43	0	438304768	57	3944
2026-01-28 06:39:41.41	70.83	14.78	-42.8	-43.7	20.8	0.00e+00	0	43	0	441450496	57	3951
2026-01-28 06:39:42.42	70.69	14.87	-42.9	-43.8	20.8	0.00e+00	0	43	0	444596224	57	3970
2026-01-28 06:39:43.43	70.55	14.95	-42.8	-43.7	20.8	0.00e+00	0	43	0	447741952	57	3929
2026-01-28 06:39:44.44	70.41	15.03	-42.8	-43.7	20.8	0.00e+00	0	43	0	450887680	57	3958
2026-01-28 06:39:45.44	70.27	15.11	-42.8	-43.7	20.8	0.00e+00	0	42	0	452984832	57	3928
2026-01-28 06:39:46.44	70.13	15.19	-42.9	-43.9	20.7	0.00e+00	0	43	0	456130560	57	4007
2026-01-28 06:39:47.45	69.99	15.27	-43.0	-44.0	20.6	0.00e+00	0	43	0	459276288	57	4060
2026-01-28 06:39:48.45	69.85	15.35	-43.1	-44.1	20.5	0.00e+00	0	43	0	462422016	57	4100
2026-01-28 06:39:49.46	69.71	15.43	-43.0	-44.0	20.6	0.00e+00	0	43	0	465567744	57	4064
2026-01-28 06:39:50.47	69.56	15.51	-43.1	-44.0	20.6	0.00e+00	0	42	0	468713472	57	4086
2026-01-28 06:39:51.48	69.42	15.60	-43.1	-44.0	20.6	0.00e+00	0	43	0	471859200	57	4092
2026-01-28 06:39:52.48	69.27	15.68	-43.0	-43.9	20.7	0.00e+00	0	43	0	475004928	57	4038
2026-01-28 06:39:53.49	69.12	15.76	-42.9	-43.8	20.8	0.00e+00	0	43	0	479199232	57	4004
2026-01-28 06:39:54.49	68.98	15.84	-43.0	-43.9	20.7	0.00e+00	0	43	0	482344960	57	4048
2026-01-28 06:39:55.50	68.83	15.92	-43.0	-43.9	20.7	0.00e+00	0	43	0	485490688	57	4035
2026-01-28 06:39:56.51	68.68	16.00	-43.0	-43.9	20.7	0.00e+00	0	43	0	488636416	57	4037
2026-01-28 06:39:57.51	68.53	16.09	-42.9	-43.9	20.7	0.00e+00	0	43	0	491782144	57	4006
2026-01-28 06:39:58.52	68.38	16.17	-42.9	-43.8	20.8	0.00e+00	0	43	0	494927872	57	3982
2026-01-28 06:39:59.53	68.23	16.25	-42.9	-43.9	20.7	0.00e+00	0	43	0	498073600	57	4019
2026-01-28 06:40:00.54	68.07	16.33	-43.0	-44.0	20.7	0.00e+00	0	43	0	500170752	57	4059
2026-01-28 06:40:01.55	67.92	16.42	-43.1	-44.1	20.5	0.00e+00	0	43	0	503316480	57	4107
2026-01-28 06:40:02.55	67.77	16.50	-43.2	-44.1	20.5	0.00e+00	0	43	0	506462208	57	4131
2026-01-28 06:40:03.56	67.61	16.58	-43.2	-44.2	20.5	0.00e+00	0	43	0	509607936	57	4146
2026-01-28 06:40:04.57	67.45	16.66	-43.3	-44.3	20.4	0.00e+00	0	43	0	512753664	57	4203
2026-01-28 06:40:05.58	67.30	16.75	-43.3	-44.2	20.5	0.00e+00	0	43	0	515899392	57	4184
2026-01-28 06:40:06.58	67.14	16.83	-43.3	-44.2	20.5	0.00e+00	0	43	0	519045120	57	4174
2026-01-28 06:40:07.59	66.98	16.91	-43.2	-44.1	20.6	0.00e+00	0	43	0	523239424	57	4128
2026-01-28 06:40:08.60	66.82	16.99	-43.2	-44.2	20.5	0.00e+00	0	43	0	526385152	57	4159
2026-01-28 06:40:09.61	66.66	17.08	-43.4	-44.4	20.3	0.00e+00	0	43	0	529530880	57	4251
2026-01-28 06:40:10.62	66.50	17.16	-43.4	-44.3	20.3	0.00e+00	0	43	0	532676608	57	4223
2026-01-28 06:40:11.63	66.33	17.24	-43.3	-44.3	20.3	0.00e+00	0	43	0	535822336	57	4202
2026-01-28 06:40:12.64	66.17	17.33	-43.2	-44.1	20.5	0.00e+00	0	43	0	538968064	57	4124
2026-01-28 06:40:13.65	66.01	17.41	-43.3	-44.2	20.4	0.00e+00	0	43	0	542113792	57	4179
2026-01-28 06:40:14.65	65.84	17.49	-43.3	-44.3	20.3	0.00e+00	0	42	0	545259520	57	4219
2026-01-28 06:40:15.66	65.68	17.57	-43.3	-44.3	20.4	0.00e+00	0	43	0	547356672	57	4209
2026-01-28 06:40:16.66	65.51	17.66	-43.2	-44.1	20.5	0.00e+00	0	43	0	550502400	57	4130
2026-01-28 06:40:17.66	65.34	17.74	-43.2	-44.2	20.5	0.00e+00	0	43	0	553648128	57	4153
2026-01-28 06:40:18.67	65.17	17.82	-43.0	-44.0	20.7	0.00e+00	0	43	0	556793856	57	4058
2026-01-28 06:40:19.68	65.00	17.91	-43.1	-44.1	20.6	0.00e+00	0	43	0	559939584	57	4101
2026-01-28 06:40:20.69	64.83	17.99	-42.9	-43.8	20.8	0.00e+00	0	43	0	564133888	57	3987
2026-01-28 06:40:21.70	64.66	18.07	-42.9	-43.8	20.9	0.00e+00	0	43	0	567279616	57	3973
2026-01-28 06:40:22.71	64.49	18.16	-42.9	-43.9	20.8	0.00e+00	0	43	0	570425344	57	4009
2026-01-28 06:40:23.72	64.31	18.24	-43.0	-43.9	20.8	0.00e+00	0	43	0	573571072	57	4032
2026-01-28 06:40:24.72	64.14	18.32	-42.9	-43.8	20.9	0.00e+00	0	43	0	576716800	57	3981
2026-01-28 06:40:25.73	63.96	18.40	-42.8	-43.7	21.0	0.00e+00	0	43	0	579862528	57	3934
2026-01-28 06:40:26.74	63.79	18.49	-42.7	-43.6	21.0	0.00e+00	0	43	0	583008256	57	3900
2026-01-28 06:40:27.74	63.61	18.57	-42.7	-43.7	21.0	0.00e+00	0	43	0	586153984	57	3916
2026-01-28 06:40:28.75	63.43	18.65	-42.7	-43.6	21.1	0.00e+00	0	43	0	589299712	57	3869
2026-01-28 06:40:29.76	63.25	18.74	-42.8	-43.7	21.0	0.00e+00	0	43	0	592445440	57	3915
2026-01-28 06:40:30.76	63.07	18.82	-42.8	-43.7	21.0	0.00e+00	0	43	0	594542592	57	3919
2026-01-28 06:40:31.77	62.89	18.90	-42.7	-43.6	21.1	0.00e+00	0	43	0	597688320	57	3889
2026-01-28 06:40:32.78	62.71	18.99	-42.7	-43.6	21.1	0.00e+00	0	43	0	600834048	57	3871
2026-01-28 06:40:33.79	62.52	19.07	-42.6	-43.5	21.2	0.00e+00	0	43	0	603979776	57	3847
2026-01-28 06:40:34.80	62.34	19.15	-42.7	-43.6	21.0	0.00e+00	0	43	0	608174080	57	3898
2026-01-28 06:40:35.80	62.15	19.24	-42.8	-43.7	21.0	0.00e+00	0	43	0	611319808	57	3917
2026-01-28 06:40:36.81	61.97	19.32	-42.7	-43.6	21.1	0.00e+00	0	43	0	614465536	57	3871
2026-01-28 06:40:37.82	61.78	19.40	-42.6	-43.4	21.2	0.00e+00	0	43	0	617611264	57	3823
2026-01-28 06:40:38.83	61.59	19.48	-42.5	-43.4	21.2	0.00e+00	0	43	0	620756992	57	3812
2026-01-28 06:40:39.84	61.40	19.57	-42.4	-43.3	21.3	0.00e+00	0	43	0	623902720	56	3989
2026-01-28 06:40:40.85	61.21	19.65	-42.5	-43.3	21.3	0.00e+00	0	43	0	627048448	56	4004
2026-01-28 06:40:41.85	61.02	19.73	-42.4	-43.3	21.4	0.00e+00	0	43	0	630194176	56	3988
2026-01-28 06:40:42.86	60.83	19.82	-42.5	-43.4	21.3	0.00e+00	0	43	0	633339904	56	4035
2026-01-28 06:40:43.87	60.63	19.90	-42.4	-43.3	21.4	0.00e+00	0	43	0	636485632	56	3973
2026-01-28 06:40:44.88	60.44	19.98	-42.4	-43.3	21.4	0.00e+00	0	43	0	639631360	56	3972
2026-01-28 06:40:45.89	60.24	20.06	-42.3	-43.2	21.5	0.00e+00	0	43	0	642777088	56	3936
2026-01-28 06:40:46.90	60.04	20.15	-42.3	-43.1	21.5	0.00e+00	0	43	0	645922816	56	3906
2026-01-28 06:40:47.91	59.84	20.23	-42.2	-43.0	21.6	0.00e+00	0	43	0	649068544	56	3858
2026-01-28 06:40:48.92	59.64	20.31	-42.0	-42.9	21.8	0.00e+00	0	43	0	652214272	56	3789
2026-01-28 06:40:49.93	59.44	20.39	-42.1	-42.9	21.7	0.00e+00	0	43	0	655360000	56	3792
2026-01-28 06:40:50.93	59.24	20.47	-42.0	-42.8	21.8	0.00e+00	0	43	0	658505728	56	3778
2026-01-28 06:40:51.94	59.04	20.56	-42.1	-42.9	21.7	0.00e+00	0	43	0	661651456	56	3797
2026-01-28 06:40:52.95	58.84	20.64	-42.1	-42.9	21.6	0.00e+00	0	43	0	664797184	56	3824
2026-01-28 06:40:53.96	58.63	20.72	-42.2	-43.1	21.5	0.00e+00	0	43	0	667942912	56	3876
2026-01-28 06:40:54.96	58.43	20.80	-42.3	-43.2	21.5	0.00e+00	0	43	0	671088640	56	3924
2026-01-28 06:40:55.97	58.22	20.88	-42.2	-43.1	21.5	0.00e+00	0	43	0	674234368	56	3891
2026-01-28 06:40:56.98	58.01	20.96	-42.3	-43.2	21.5	0.00e+00	0	43	0	677380096	56	3940
2026-01-28 06:40:57.99	57.80	21.04	-42.2	-43.1	21.6	0.00e+00	0	43	0	680525824	56	3879
2026-01-28 06:40:59.00	57.59	21.12	-42.1	-43.0	21.7	0.00e+00	0	43	0	683671552	56	3831
2026-01-28 06:41:00.01	57.38	21.21	-42.1	-43.0	21.7	0.00e+00	0	43	0	686817280	56	3831
2026-01-28 06:41:01.01	57.17	21.29	-42.2	-43.1	21.5	0.00e+00	0	43	0	689963008	56	3887
2026-01-28 06:41:02.02	56.95	21.37	-42.3	-43.1	21.5	0.00e+00	0	43	0	693108736	56	3900
2026-01-28 06:41:03.03	56.74	21.45	-42.3	-43.2	21.5	0.00e+00	0	43	0	696254464	56	3927
2026-01-28 06:41:04.04	56.52	21.53	-42.3	-43.2	21.5	0.00e+00	0	43	0	699400192	56	3931
2026-01-28 06:41:05.05	56.31	21.61	-42.4	-43.2	21.5	0.00e+00	0	43	0	702545920	56	3949
2026-01-28 06:41:06.05	56.09	21.69	-42.2	-43.1	21.6	0.00e+00	0	43	0	705691648	56	3878
2026-01-28 06:41:07.06	55.87	21.77	-42.1	-43.0	21.7	0.00e+00	0	43	0	708837376	56	3837
2026-01-28 06:41:08.07	55.65	21.84	-42.0	-42.8	21.8	0.00e+00	0	43	0	711983104	56	3763
2026-01-28 06:41:09.09	55.42	21.92	-42.0	-42.9	21.8	0.00e+00	0	43	0	715128832	56	3781
2026-01-28 06:41:10.09	55.20	22.00	-41.8	-42.6	22.0	0.00e+00	0	43	0	718274560	55	3895
2026-01-28 06:41:11.10	54.98	22.08	-41.9	-42.7	21.8	0.00e+00	0	43	0	721420288	55	3955
2026-01-28 06:41:12.11	54.75	22.16	-42.0	-42.8	21.8	0.00e+00	0	43	0	724566016	55	3978
2026-01-28 06:41:13.12	54.53	22.24	-41.8	-42.7	21.9	0.00e+00	0	43	0	727711744	55	3922
2026-01-28 06:41:14.12	54.30	22.32	-42.0	-42.9	21.7	0.00e+00	0	43	0	730857472	55	4015
2026-01-28 06:41:15.14	54.07	22.39	-42.0	-42.8	21.8	0.00e+00	0	43	0	734003200	55	3992
2026-01-28 06:41:16.15	53.84	22.47	-42.0	-42.9	21.7	0.00e+00	0	43	0	737148928	55	4018
2026-01-28 06:41:17.15	53.61	22.55	-42.0	-42.9	21.7	0.00e+00	0	43	0	740294656	55	4018
2026-01-28 06:41:18.16	53.38	22.62	-42.0	-42.8	21.8	0.00e+00	0	43	0	743440384	55	3994
2026-01-28 06:41:19.17	53.15	22.70	-42.1	-42.9	21.7	0.00e+00	0	43	0	746586112	55	4028
2026-01-28 06:41:20.18	52.91	22.78	-42.1	-42.9	21.6	0.00e+00	0	43	0	749731840	55	4051
2026-01-28 06:41:21.19	52.68	22.85	-42.2	-43.1	21.6	0.00e+00	0	43	0	752877568	55	4110
2026-01-28 06:41:22.19	52.44	22.93	-42.3	-43.1	21.5	0.00e+00	0	43	0	756023296	55	4128
2026-01-28 06:41:23.20	52.20	23.00	-42.2	-43.1	21.6	0.00e+00	0	43	0	759169024	55	4116
2026-01-28 06:41:24.21	51.96	23.08	-42.3	-43.2	21.5	0.00e+00	0	43	0	762314752	55	4164
2026-01-28 06:41:25.22	51.72	23.15	-42.1	-42.9	21.7	0.00e+00	0	43	0	765460480	55	4050
2026-01-28 06:41:26.22	51.48	23.23	-42.0	-42.9	21.7	0.00e+00	0	43	0	768606208	55	4012
2026-01-28 06:41:27.23	51.24	23.30	-42.1	-43.0	21.6	0.00e+00	0	43	0	771751936	55	4063
2026-01-28 06:41:28.23	51.00	23.38	-42.2	-43.0	21.6	0.00e+00	0	43	0	774897664	55	4079
2026-01-28 06:41:29.24	50.75	23.45	-42.2	-43.1	21.6	0.00e+00	0	43	0	778043392	55	4118
2026-01-28 06:41:30.24	50.51	23.52	-42.1	-43.0	21.7	0.00e+00	0	43	0	781189120	55	4053
2026-01-28 06:41:31.25	50.26	23.59	-42.2	-43.1	21.6	0.00e+00	0	43	0	784334848	55	4113
2026-01-28 06:41:32.26	50.02	23.67	-42.3	-43.2	21.5	0.00e+00	0	43	0	787480576	55	4146
2026-01-28 06:41:33.27	49.77	23.74	-42.4	-43.3	21.4	0.00e+00	0	43	0	790626304	55	4198
2026-01-28 06:41:34.27	49.52	23.81	-42.5	-43.4	21.3	0.00e+00	0	43	0	793772032	55	4263
2026-01-28 06:41:35.28	49.27	23.88	-42.5	-43.3	21.4	0.00e+00	0	43	0	796917760	55	4238
2026-01-28 06:41:36.28	49.01	23.95	-42.5	-43.3	21.4	0.00e+00	0	43	0	800063488	55	4242
2026-01-28 06:41:37.29	48.76	24.02	-42.5	-43.3	21.4	0.00e+00	0	43	0	803209216	55	4228
2026-01-28 06:41:38.29	48.51	24.09	-42.6	-43.4	21.3	0.00e+00	0	43	0	806354944	55	4286
2026-01-28 06:41:39.30	48.25	24.16	-42.6	-43.5	21.2	0.00e+00	0	43	0	809500672	55	4325
2026-01-28 06:41:40.31	47.99	24.23	-42.5	-43.4	21.3	0.00e+00	0	43	0	812646400	55	4278
2026-01-28 06:41:41.31	47.74	24.30	-42.6	-43.4	21.3	0.00e+00	0	43	0	815792128	55	4284
2026-01-28 06:41:42.33	47.47	24.37	-42.7	-43.5	21.2	0.00e+00	0	43	0	818937856	55	4336
2026-01-28 06:41:43.33	47.22	24.43	-42.6	-43.5	21.2	0.00e+00	0	43	0	822083584	55	4321
2026-01-28 06:41:44.34	46.95	24.50	-42.7	-43.5	21.2	0.00e+00	0	43	0	825229312	55	4338
2026-01-28 06:41:45.34	46.69	24.57	-42.6	-43.5	21.3	0.00e+00	0	43	0	828375040	55	4305
2026-01-28 06:41:46.35	46.43	24.63	-42.7	-43.6	21.2	0.00e+00	0	43	0	831520768	55	4360
2026-01-28 06:41:47.36	46.16	24.70	-42.5	-43.3	21.4	0.00e+00	0	43	0	834666496	55	4230
2026-01-28 06:41:48.37	45.90	24.76	-42.5	-43.3	21.4	0.00e+00	0	43	0	837812224	55	4241
2026-01-28 06:41:49.37	45.63	24.83	-42.3	-43.1	21.6	0.00e+00	0	43	0	840957952	55	4132
2026-01-28 06:41:50.38	45.36	24.89	-42.3	-43.1	21.5	0.00e+00	0	43	0	844103680	55	4139
2026-01-28 06:41:51.39	45.09	24.95	-42.4	-43.2	21.4	0.00e+00	0	43	0	847249408	55	4179
2026-01-28 06:41:52.40	44.82	25.02	-42.5	-43.3	21.4	0.00e+00	0	43	0	850395136	55	4229
2026-01-28 06:41:53.40	44.55	25.08	-42.5	-43.3	21.3	0.00e+00	0	43	0	853540864	55	4238
2026-01-28 06:41:54.41	44.28	25.14	-42.5	-43.3	21.4	0.00e+00	0	43	0	856686592	55	4232
2026-01-28 06:41:55.41	44.01	25.20	-42.5	-43.3	21.4	0.00e+00	0	43	0	859832320	55	4230
2026-01-28 06:41:56.42	43.73	25.26	-42.5	-43.3	21.4	0.00e+00	0	43	0	862978048	55	4229
2026-01-28 06:41:57.43	43.46	25.32	-42.5	-43.4	21.3	0.00e+00	0	43	0	866123776	55	4259
2026-01-28 06:41:58.43	43.18	25.38	-42.6	-43.5	21.1	0.00e+00	0	43	0	869269504	55	4331
2026-01-28 06:41:59.44	42.90	25.44	-42.9	-43.8	21.0	0.00e+00	0	43	0	872415232	56	4205
2026-01-28 06:42:00.45	42.62	25.50	-43.1	-44.0	20.8	0.00e+00	0	43	0	875560960	56	4318
2026-01-28 06:42:01.46	42.34	25.56	-42.8	-43.7	21.1	0.00e+00	0	43	0	878706688	56	4172
2026-01-28 06:42:02.46	42.06	25.61	-42.8	-43.7	21.2	0.00e+00	0	43	0	881852416	56	4147
2026-01-28 06:42:03.47	41.78	25.67	-42.7	-43.5	21.3	0.00e+00	0	43	0	884998144	56	4093
2026-01-28 06:42:04.47	41.50	25.73	-42.7	-43.6	21.3	0.00e+00	0	43	0	888143872	56	4114
2026-01-28 06:42:05.48	41.22	25.78	-42.7	-43.5	21.3	0.00e+00	0	43	0	891289600	56	4097
2026-01-28 06:42:06.49	40.93	25.84	-42.5	-43.4	21.5	0.00e+00	0	43	0	894435328	56	4024
2026-01-28 06:42:07.49	40.65	25.89	-42.6	-43.4	21.4	0.00e+00	0	43	0	897581056	56	4045
2026-01-28 06:42:08.50	40.36	25.94	-42.6	-43.4	21.4	0.00e+00	0	43	0	900726784	56	4046
2026-01-28 06:42:09.51	40.07	25.99	-42.5	-43.3	21.5	0.00e+00	0	43	0	903872512	56	3989
2026-01-28 06:42:10.51	39.78	26.05	-42.3	-43.1	21.7	0.00e+00	0	43	0	907018240	56	3911
2026-01-28 06:42:11.52	39.49	26.10	-42.3	-43.2	21.7	0.00e+00	0	43	0	910163968	56	3915
2026-01-28 06:42:12.53	39.20	26.15	-42.3	-43.1	21.7	0.00e+00	0	43	0	913309696	56	3896
2026-01-28 06:42:13.53	38.91	26.20	-41.9	-42.8	22.0	0.00e+00	0	43	0	916455424	55	3960
2026-01-28 06:42:14.54	38.62	26.24	-41.9	-42.7	21.9	0.00e+00	0	43	0	919601152	55	3938
2026-01-28 06:42:15.55	38.32	26.29	-41.9	-42.7	21.9	0.00e+00	0	43	0	922746880	55	3951
2026-01-28 06:42:16.56	38.03	26.34	-42.0	-42.9	21.8	0.00e+00	0	43	0	925892608	55	4013
2026-01-28 06:42:17.56	37.74	26.39	-42.1	-43.0	21.7	0.00e+00	0	43	0	929038336	55	4064
2026-01-28 06:42:18.57	37.44	26.43	-42.3	-43.1	21.6	0.00e+00	0	43	0	932184064	55	4122
2026-01-28 06:42:19.58	37.14	26.48	-42.1	-42.9	21.8	0.00e+00	0	43	0	935329792	55	4030
2026-01-28 06:42:20.59	36.84	26.52	-42.0	-42.8	21.9	0.00e+00	0	43	0	938475520	55	3997
2026-01-28 06:42:21.59	36.55	26.56	-42.0	-42.9	21.9	0.00e+00	0	43	0	941621248	55	4014
2026-01-28 06:42:22.60	36.25	26.61	-42.1	-42.9	21.8	0.00e+00	0	43	0	944766976	55	4031
2026-01-28 06:42:23.61	35.95	26.65	-42.0	-42.8	21.9	0.00e+00	0	43	0	947912704	55	3983
2026-01-28 06:42:24.62	35.65	26.69	-42.0	-42.9	21.9	0.00e+00	0	43	0	951058432	55	4005
2026-01-28 06:42:25.62	35.35	26.73	-41.9	-42.8	21.9	0.00e+00	0	43	0	954204160	55	3963
2026-01-28 06:42:26.63	35.04	26.77	-42.0	-42.8	21.9	0.00e+00	0	43	0	957349888	55	3989
2026-01-28 06:42:27.63	34.74	26.81	-42.0	-42.8	21.9	0.00e+00	0	43	0	960495616	55	3994
2026-01-28 06:42:28.64	34.44	26.85	-41.9	-42.7	22.0	0.00e+00	0	43	0	963641344	55	3946
2026-01-28 06:42:29.65	34.13	26.88	-42.0	-42.8	21.9	0.00e+00	0	43	0	966787072	55	3985
2026-01-28 06:42:30.66	33.83	26.92	-42.0	-42.9	21.9	0.00e+00	0	43	0	969932800	55	4007
2026-01-28 06:42:31.67	33.52	26.95	-42.0	-42.8	21.9	0.00e+00	0	43	0	973078528	55	4000
2026-01-28 06:42:32.67	33.22	26.99	-41.9	-42.8	22.0	0.00e+00	0	43	0	976224256	55	3963
2026-01-28 06:42:33.68	32.91	27.02	-41.9	-42.7	22.0	0.00e+00	0	43	0	979369984	55	3926
2026-01-28 06:42:34.69	32.60	27.05	-41.9	-42.7	22.0	0.00e+00	0	43	0	982515712	55	3927
2026-01-28 06:42:35.69	32.29	27.09	-42.0	-42.8	21.9	0.00e+00	0	43	0	985661440	55	3978
2026-01-28 06:42:36.70	31.98	27.12	-42.0	-42.8	21.9	0.00e+00	0	43	0	988807168	55	3995
2026-01-28 06:42:37.71	31.67	27.15	-42.1	-42.9	21.8	0.00e+00	0	43	0	991952896	55	4036
2026-01-28 06:42:38.72	31.36	27.18	-42.2	-43.0	21.7	0.00e+00	0	43	0	995098624	55	4083
2026-01-28 06:42:39.73	31.05	27.20	-42.2	-43.0	21.7	0.00e+00	0	43	0	998244352	55	4082
2026-01-28 06:42:40.73	30.74	27.23	-42.2	-43.0	21.7	0.00e+00	0	43	0	1001390080	55	4073
2026-01-28 06:42:41.75	30.42	27.26	-42.2	-43.0	21.6	0.00e+00	0	43	0	1004535808	55	4096
2026-01-28 06:42:42.75	30.11	27.28	-42.2	-43.1	21.6	0.00e+00	0	43	0	1007681536	55	4114
2026-01-28 06:42:43.76	29.80	27.31	-42.3	-43.2	21.6	0.00e+00	0	43	0	1010827264	55	4146
2026-01-28 06:42:44.77	29.49	27.33	-42.1	-43.0	21.8	0.00e+00	0	43	0	1013972992	55	4055
2026-01-28 06:42:45.77	29.17	27.35	-42.2	-43.0	21.7	0.00e+00	0	43	0	1017118720	55	4073
2026-01-28 06:42:46.78	28.86	27.37	-42.1	-42.9	21.8	0.00e+00	0	43	0	1020264448	55	4032
2026-01-28 06:42:47.79	28.54	27.40	-42.2	-43.0	21.7	0.00e+00	0	43	0	1023410176	55	4089
2026-01-28 06:42:48.80	28.23	27.42	-42.2	-43.0	21.7	0.00e+00	0	43	0	1026555904	55	4095
2026-01-28 06:42:49.81	27.91	27.43	-42.3	-43.1	21.6	0.00e+00	0	43	0	1029701632	55	4145
2026-01-28 06:42:50.81	27.60	27.45	-42.5	-43.4	21.4	0.00e+00	0	43	0	1032847360	55	4257
2026-01-28 06:42:51.82	27.28	27.47	-42.7	-43.6	21.3	0.00e+00	0	43	0	1035993088	55	4343
2026-01-28 06:42:52.83	26.96	27.48	-42.6	-43.5	21.3	0.00e+00	0	43	0	1039138816	55	4297
2026-01-28 06:42:53.83	26.65	27.50	-42.6	-43.4	21.4	0.00e+00	0	43	0	1042284544	55	4274
2026-01-28 06:42:54.85	26.33	27.51	-42.4	-43.3	21.4	0.00e+00	0	43	0	1045430272	55	4206
2026-01-28 06:42:55.85	26.01	27.53	-42.4	-43.2	21.5	0.00e+00	0	43	0	1048576000	55	4185
2026-01-28 06:42:56.86	25.69	27.54	-42.3	-43.1	21.6	0.00e+00	0	43	0	1051721728	55	4133
2026-01-28 06:42:57.87	25.38	27.55	-42.1	-43.0	21.8	0.00e+00	0	43	0	1054867456	55	4052
2026-01-28 06:42:58.88	25.06	27.56	-42.2	-43.1	21.7	0.00e+00	0	43	0	1058013184	55	4109
2026-01-28 06:42:59.89	24.74	27.57	-42.2	-43.1	21.7	0.00e+00	0	43	0	1061158912	55	4104
2026-01-28 06:43:00.89	24.42	27.58	-42.1	-42.9	21.8	0.00e+00	0	43	0	1064304640	55	4044
2026-01-28 06:43:01.90	24.10	27.58	-42.2	-43.0	21.7	0.00e+00	0	43	0	1067450368	55	4082
2026-01-28 06:43:02.91	23.78	27.59	-42.1	-43.0	21.7	0.00e+00	0	43	0	1070596096	55	4070
2026-01-28 06:43:03.91	23.47	27.60	-42.0	-42.9	21.9	0.00e+00	0	43	0	1073741824	55	4012
2026-01-28 06:43:04.92	23.15	27.60	-42.0	-42.9	21.9	0.00e+00	0	43	0	1076887552	55	4019
2026-01-28 06:43:05.93	22.83	27.60	-42.0	-42.8	21.9	0.00e+00	0	43	0	1080033280	55	3974
2026-01-28 06:43:06.93	22.51	27.61	-42.1	-42.9	21.9	0.00e+00	0	43	0	1083179008	55	4025
2026-01-28 06:43:07.94	22.19	27.61	-42.1	-42.9	21.8	0.00e+00	0	43	0	1086324736	55	4034
2026-01-28 06:43:08.95	21.87	27.61	-42.1	-42.9	21.8	0.00e+00	0	43	0	1089470464	55	4044
2026-01-28 06:43:09.95	21.55	27.61	-42.1	-42.9	21.8	0.00e+00	0	43	0	1092616192	55	4035
2026-01-28 06:43:10.96	21.23	27.60	-42.1	-43.0	21.8	0.00e+00	0	43	0	1095761920	55	4053
2026-01-28 06:43:11.97	20.91	27.60	-42.1	-42.9	21.8	0.00e+00	0	43	0	1098907648	55	4049
2026-01-28 06:43:12.97	20.60	27.60	-42.1	-42.9	21.8	0.00e+00	0	43	0	1102053376	55	4023
2026-01-28 06:43:13.98	20.28	27.59	-42.1	-42.9	21.9	0.00e+00	0	43	0	1105199104	55	4019
2026-01-28 06:43:14.99	19.96	27.59	-41.9	-42.7	22.0	0.00e+00	0	43	0	1108344832	55	3957
2026-01-28 06:43:16.00	19.64	27.58	-41.8	-42.6	22.1	0.00e+00	0	43	0	1111490560	55	3906
2026-01-28 06:43:17.01	19.32	27.57	-41.9	-42.7	22.1	0.00e+00	0	43	0	1114636288	55	3941
2026-01-28 06:43:18.01	19.00	27.56	-41.9	-42.7	22.1	0.00e+00	0	43	0	1117782016	55	3915
2026-01-28 06:43:19.02	18.68	27.55	-41.9	-42.7	22.0	0.00e+00	0	43	0	1120927744	55	3945
2026-01-28 06:43:20.03	18.37	27.54	-41.8	-42.6	22.2	0.00e+00	0	43	0	1124073472	55	3880
2026-01-28 06:43:21.04	18.05	27.53	-41.9	-42.7	22.0	0.00e+00	0	43	0	1127219200	55	3936
2026-01-28 06:43:22.05	17.73	27.52	-42.0	-42.8	21.9	0.00e+00	0	43	0	1130364928	55	3995
2026-01-28 06:43:23.05	17.41	27.51	-42.1	-42.9	21.8	0.00e+00	0	43	0	1133510656	55	4046
2026-01-28 06:43:24.06	17.10	27.49	-42.0	-42.9	21.9	0.00e+00	0	43	0	1136656384	55	4007
2026-01-28 06:43:25.06	16.78	27.48	-42.1	-42.9	21.9	0.00e+00	0	43	0	1139802112	55	4031
2026-01-28 06:43:26.07	16.47	27.46	-42.1	-42.9	21.9	0.00e+00	0	43	0	1142947840	55	4037
2026-01-28 06:43:27.08	16.15	27.44	-42.2	-43.0	21.8	0.00e+00	0	43	0	1146093568	55	4063
2026-01-28 06:43:28.09	15.83	27.42	-42.2	-43.1	21.7	0.00e+00	0	43	0	1149239296	55	4104
2026-01-28 06:43:29.09	15.52	27.41	-42.3	-43.2	21.6	0.00e+00	0	43	0	1152385024	55	4162
2026-01-28 06:43:30.10	15.20	27.39	-42.3	-43.1	21.7	0.00e+00	0	43	0	1155530752	55	4137
2026-01-28 06:43:31.11	14.89	27.36	-42.3	-43.2	21.7	0.00e+00	0	43	0	1158676480	55	4148
2026-01-28 06:43:32.12	14.57	27.34	-42.3	-43.2	21.6	0.00e+00	0	43	0	1161822208	55	4164
2026-01-28 06:43:33.12	14.26	27.32	-42.5	-43.3	21.5	0.00e+00	0	43	0	1164967936	55	4242
2026-01-28 06:43:34.13	13.95	27.30	-42.4	-43.3	21.6	0.00e+00	0	43	0	1168113664	55	4211
2026-01-28 06:43:35.14	13.64	27.27	-42.3	-43.1	21.7	0.00e+00	0	43	0	1171259392	55	4135
2026-01-28 06:43:36.15	13.32	27.24	-42.1	-43.0	21.8	0.00e+00	0	43	0	1174405120	55	4066
2026-01-28 06:43:37.16	13.01	27.22	-42.1	-42.9	21.8	0.00e+00	0	43	0	1177550848	55	4022
2026-01-28 06:43:38.17	12.70	27.19	-42.1	-43.0	21.7	0.00e+00	0	43	0	1180696576	55	4059
2026-01-28 06:43:39.17	12.39	27.16	-42.1	-43.0	21.8	0.00e+00	0	43	0	1183842304	55	4052
2026-01-28 06:43:40.18	12.08	27.13	-42.2	-43.0	21.7	0.00e+00	0	43	0	1186988032	55	4087
2026-01-28 06:43:41.19	11.77	27.10	-42.3	-43.1	21.6	0.00e+00	0	43	0	1190133760	55	4140
2026-01-28 06:43:42.20	11.46	27.07	-42.2	-43.0	21.6	0.00e+00	0	43	0	1193279488	55	4097
2026-01-28 06:43:43.21	11.15	27.04	-42.2	-43.0	21.7	0.00e+00	0	43	0	1196425216	55	4079
2026-01-28 06:43:44.22	10.84	27.01	-42.2	-43.0	21.6	0.00e+00	0	43	0	1199570944	55	4094
2026-01-28 06:43:45.23	10.54	26.97	-42.2	-43.1	21.7	0.00e+00	0	43	0	1202716672	55	4099
2026-01-28 06:43:46.23	10.23	26.94	-42.3	-43.1	21.6	0.00e+00	0	43	0	1205862400	55	4143
2026-01-28 06:43:47.24	9.93	26.90	-42.3	-43.1	21.6	0.00e+00	0	43	0	1209008128	55	4129
2026-01-28 06:43:48.25	9.62	26.86	-42.3	-43.2	21.6	0.00e+00	0	43	0	1212153856	55	4159
2026-01-28 06:43:49.25	9.32	26.83	-42.2	-43.0	21.7	0.00e+00	0	43	0	1215299584	55	4092
2026-01-28 06:43:50.26	9.01	26.79	-42.1	-42.9	21.8	0.00e+00	0	43	0	1218445312	55	4044
2026-01-28 06:43:51.27	8.71	26.75	-42.1	-42.9	21.8	0.00e+00	0	43	0	1221591040	55	4034
2026-01-28 06:43:52.28	8.41	26.71	-42.1	-42.9	21.8	0.00e+00	0	43	0	1224736768	55	4018
2026-01-28 06:43:53.29	8.11	26.67	-42.2	-43.0	21.7	0.00e+00	0	43	0	1227882496	55	4076
2026-01-28 06:43:54.30	7.81	26.63	-42.2	-43.1	21.7	0.00e+00	0	43	0	1231028224	55	4111
2026-01-28 06:43:55.31	7.50	26.59	-42.4	-43.2	21.6	0.00e+00	0	43	0	1234173952	55	4181
2026-01-28 06:43:56.32	7.21	26.54	-42.4	-43.3	21.5	0.00e+00	0	43	0	1237319680	55	4204
2026-01-28 06:43:57.33	6.91	26.50	-42.6	-43.4	21.4	0.00e+00	0	43	0	1240465408	55	4290
2026-01-28 06:43:58.33	6.61	26.45	-42.5	-43.4	21.5	0.00e+00	0	43	0	1243611136	55	4254
2026-01-28 06:43:59.34	6.32	26.41	-42.5	-43.4	21.5	0.00e+00	0	43	0	1246756864	55	4255
2026-01-28 06:44:00.35	6.02	26.36	-42.6	-43.4	21.4	0.00e+00	0	43	0	1249902592	55	4291
2026-01-28 06:44:01.36	5.72	26.32	-42.5	-43.3	21.5	0.00e+00	0	43	0	1253048320	55	4231
2026-01-28 06:44:02.36	5.43	26.27	-42.6	-43.5	21.4	0.00e+00	0	43	0	1256194048	55	4313
2026-01-28 06:44:03.37	5.14	26.22	-42.6	-43.5	21.4	0.00e+00	0	43	0	1259339776	55	4329
2026-01-28 06:44:04.38	4.85	26.17	-42.5	-43.4	21.5	0.00e+00	0	43	0	1262485504	55	4250
2026-01-28 06:44:05.39	4.56	26.12	-42.5	-43.4	21.5	0.00e+00	0	43	0	1265631232	55	4257
2026-01-28 06:44:06.40	4.26	26.07	-42.4	-43.3	21.5	0.00e+00	0	43	0	1268776960	55	4219
2026-01-28 06:44:07.40	3.98	26.02	-42.4	-43.3	21.6	0.00e+00	0	43	0	1271922688	55	4205
2026-01-28 06:44:08.41	3.69	25.97	-42.4	-43.3	21.6	0.00e+00	0	43	0	1275068416	55	4205
2026-01-28 06:44:09.42	3.40	25.91	-42.4	-43.3	21.5	0.00e+00	0	43	0	1278214144	55	4213
2026-01-28 06:44:10.43	3.11	25.86	-42.5	-43.4	21.5	0.00e+00	0	43	0	1281359872	55	4248
2026-01-28 06:44:11.44	2.83	25.81	-42.5	-43.3	21.5	0.00e+00	0	43	0	1284505600	55	4233
2026-01-28 06:44:12.45	2.54	25.75	-42.4	-43.2	21.6	0.00e+00	0	43	0	1287651328	55	4192
2026-01-28 06:44:13.46	2.26	25.70	-42.3	-43.1	21.7	0.00e+00	0	43	0	1290797056	55	4138
2026-01-28 06:44:14.47	1.98	25.64	-42.2	-43.0	21.7	0.00e+00	0	43	0	1293942784	55	4077
2026-01-28 06:44:15.48	1.70	25.58	-42.1	-43.0	21.8	0.00e+00	0	43	0	1297088512	55	4063
2026-01-28 06:44:16.49	1.41	25.53	-42.2	-43.0	21.7	0.00e+00	0	43	0	1300234240	55	4093
2026-01-28 06:44:17.50	1.13	25.47	-42.0	-42.8	21.9	0.00e+00	0	43	0	1303379968	55	3972
2026-01-28 06:44:18.51	0.86	25.41	-42.0	-42.8	21.9	0.00e+00	0	43	0	1306525696	55	3990
2026-01-28 06:44:19.51	0.58	25.35	-42.2	-43.0	21.7	0.00e+00	0	43	0	1309671424	55	4083
2026-01-28 06:44:20.52	0.30	25.29	-42.3	-43.1	21.6	0.00e+00	0	43	0	1312817152	55	4131
2026-01-28 06:44:21.53	0.03	25.23	-42.4	-43.2	21.5	0.00e+00	0	43	0	1315962880	55	4180
2026-01-28 06:44:22.53	359.76	25.17	-42.2	-43.0	21.7	0.00e+00	0	43	0	1319108608	55	4075
2026-01-28 06:44:23.54	359.48	25.11	-42.0	-42.8	21.8	0.00e+00	0	43	0	1322254336	55	4004
2026-01-28 06:44:24.55	359.21	25.05	-41.8	-42.6	22.0	0.00e+00	0	43	0	1325400064	55	3900
2026-01-28 06:44:25.56	358.94	24.98	-41.8	-42.6	22.0	0.00e+00	0	43	0	1328545792	55	3909
2026-01-28 06:44:26.57	358.67	24.92	-41.9	-42.7	22.0	0.00e+00	0	43	0	1331691520	55	3945
2026-01-28 06:44:27.58	358.40	24.86	-42.0	-42.9	21.9	0.00e+00	0	43	0	1334837248	55	4010
2026-01-28 06:44:28.59	358.13	24.79	-42.2	-43.1	21.7	0.00e+00	0	43	0	1339031552	55	4118
2026-01-28 06:44:29.60	357.87	24.73	-42.3	-43.2	21.5	0.00e+00	0	43	0	1341128704	55	4171
2026-01-28 06:44:30.61	357.60	24.66	-42.4	-43.3	21.3	0.00e+00	0	43	0	1344274432	55	4215
2026-01-28 06:44:31.61	357.34	24.60	-42.4	-43.2	21.3	0.00e+00	0	43	0	1347420160	55	4179
2026-01-28 06:44:32.62	357.07	24.53	-42.4	-43.2	21.4	0.00e+00	0	43	0	1350565888	55	4182
2026-01-28 06:44:33.63	356.81	24.46	-42.0	-42.9	21.8	0.00e+00	0	43	0	1353711616	55	4008
2026-01-28 06:44:34.63	356.55	24.40	-41.6	-42.4	22.2	0.00e+00	0	43	0	1356857344	55	3810
2026-01-28 06:44:35.64	356.29	24.33	-41.5	-42.3	22.3	0.00e+00	0	43	0	1360003072	55	3750
2026-01-28 06:44:36.64	356.04	24.26	-41.4	-42.2	22.4	0.00e+00	0	43	0	1363148800	54	3927
2026-01-28 06:44:37.65	355.78	24.19	-41.4	-42.2	22.4	0.00e+00	0	43	0	1366294528	54	3938
2026-01-28 06:44:38.66	355.52	24.12	-41.5	-42.3	22.3	0.00e+00	0	43	0	1369440256	54	3985
2026-01-28 06:44:39.67	355.27	24.05	-41.7	-42.5	22.2	0.00e+00	0	43	0	1372585984	54	4054
2026-01-28 06:44:40.68	355.01	23.98	-41.8	-42.5	22.1	0.00e+00	0	43	0	1375731712	54	4097
2026-01-28 06:44:41.69	354.76	23.91	-41.8	-42.6	22.1	0.00e+00	0	43	0	1378877440	54	4122
2026-01-28 06:44:42.69	354.51	23.84	-41.8	-42.7	22.0	0.00e+00	0	43	0	1383071744	54	4146
2026-01-28 06:44:43.70	354.26	23.77	-41.7	-42.5	22.1	0.00e+00	0	43	0	1386217472	54	4058
2026-01-28 06:44:44.71	354.01	23.70	-41.8	-42.6	22.0	0.00e+00	0	43	0	1388314624	54	4119
2026-01-28 06:44:45.72	353.76	23.63	-41.9	-42.7	21.9	0.00e+00	0	43	0	1391460352	54	4159
2026-01-28 06:44:46.72	353.51	23.56	-42.0	-42.8	21.9	0.00e+00	0	43	0	1394606080	54	4206
2026-01-28 06:44:47.73	353.27	23.48	-42.0	-42.8	21.9	0.00e+00	0	43	0	1397751808	54	4220
2026-01-28 06:44:48.74	353.02	23.41	-42.2	-43.0	21.7	0.00e+00	0	43	0	1400897536	54	4333
2026-01-28 06:44:49.75	352.78	23.34	-42.3	-43.1	21.6	0.00e+00	0	43	0	1404043264	55	4143
2026-01-28 06:44:50.76	352.54	23.26	-42.2	-43.0	21.7	0.00e+00	0	43	0	1407188992	55	4089
2026-01-28 06:44:51.77	352.29	23.19	-42.2	-43.0	21.7	0.00e+00	0	43	0	1410334720	55	4092
2026-01-28 06:44:52.78	352.05	23.11	-42.0	-42.9	21.9	0.00e+00	0	43	0	1413480448	55	4011
2026-01-28 06:44:53.79	351.81	23.04	-42.0	-42.9	21.8	0.00e+00	0	43	0	1416626176	55	4012
2026-01-28 06:44:54.80	351.58	22.96	-42.1	-42.9	21.8	0.00e+00	0	43	0	1420820480	55	4023
2026-01-28 06:44:55.81	351.34	22.89	-42.0	-42.9	21.8	0.00e+00	0	43	0	1423966208	55	4014
2026-01-28 06:44:56.81	351.11	22.81	-42.1	-42.9	21.8	0.00e+00	0	43	0	1427111936	55	4033
2026-01-28 06:44:57.83	350.87	22.73	-42.2	-43.1	21.6	0.00e+00	0	43	0	1430257664	55	4124
2026-01-28 06:44:58.83	350.64	22.66	-42.4	-43.2	21.5	0.00e+00	0	43	0	1433403392	55	4190
2026-01-28 06:44:59.84	350.40	22.58	-42.6	-43.5	21.2	0.00e+00	0	43	0	1435500544	55	4319
2026-01-28 06:45:00.85	350.17	22.51	-42.9	-43.8	21.1	0.00e+00	0	43	0	1438646272	56	4198
2026-01-28 06:45:01.86	349.94	22.43	-42.8	-43.7	21.2	0.00e+00	0	43	0	1441792000	56	4181
2026-01-28 06:45:02.86	349.72	22.35	-42.8	-43.7	21.2	0.00e+00	0	43	0	1444937728	56	4153
2026-01-28 06:45:03.88	349.49	22.27	-42.6	-43.4	21.4	0.00e+00	0	43	0	1448083456	56	4041
2026-01-28 06:45:04.88	349.26	22.20	-42.5	-43.4	21.5	0.00e+00	0	43	0	1451229184	56	4013
2026-01-28 06:45:05.89	349.04	22.12	-42.4	-43.3	21.5	0.00e+00	0	43	0	1455423488	56	3978
2026-01-28 06:45:06.90	348.81	22.04	-42.6	-43.4	21.4	0.00e+00	0	43	0	1458569216	56	4050
2026-01-28 06:45:07.91	348.59	21.96	-42.6	-43.4	21.4	0.00e+00	0	43	0	1461714944	56	4042
2026-01-28 06:45:08.92	348.37	21.88	-42.6	-43.5	21.3	0.00e+00	0	43	0	1464860672	56	4089
2026-01-28 06:45:09.93	348.15	21.80	-42.7	-43.6	21.3	0.00e+00	0	43	0	1468006400	56	4108
2026-01-28 06:45:10.93	347.93	21.72	-42.5	-43.4	21.4	0.00e+00	0	43	0	1471152128	56	4028
2026-01-28 06:45:11.94	347.71	21.64	-42.6	-43.4	21.4	0.00e+00	0	43	0	1474297856	56	4051
2026-01-28 06:45:12.95	347.49	21.56	-42.5	-43.4	21.4	0.00e+00	0	43	0	1477443584	56	4017
2026-01-28 06:45:13.95	347.28	21.48	-42.3	-43.2	21.6	0.00e+00	0	43	0	1480589312	56	3932
2026-01-28 06:45:14.96	347.06	21.40	-42.3	-43.1	21.7	0.00e+00	0	43	0	1482686464	56	3896
2026-01-28 06:45:15.97	346.85	21.32	-42.2	-43.0	21.7	0.00e+00	0	43	0	1485832192	56	3859
2026-01-28 06:45:16.98	346.64	21.24	-42.2	-43.0	21.7	0.00e+00	0	43	0	1488977920	56	3865
2026-01-28 06:45:17.99	346.42	21.16	-42.3	-43.2	21.6	0.00e+00	0	43	0	1492123648	56	3914
2026-01-28 06:45:18.99	346.21	21.08	-42.4	-43.2	21.5	0.00e+00	0	43	0	1496317952	56	3951
2026-01-28 06:45:20.00	346.01	21.00	-42.5	-43.3	21.4	0.00e+00	0	43	0	1499463680	56	3994
2026-01-28 06:45:21.01	345.80	20.92	-42.6	-43.4	21.3	0.00e+00	0	43	0	1502609408	56	4042
2026-01-28 06:45:22.02	345.59	20.84	-42.6	-43.5	21.2	0.00e+00	0	43	0	1505755136	56	4070
2026-01-28 06:45:23.03	345.38	20.76	-42.4	-43.3	21.5	0.00e+00	0	43	0	1508900864	56	3968
2026-01-28 06:45:24.04	345.18	20.68	-42.4	-43.2	21.5	0.00e+00	0	43	0	1512046592	56	3956
2026-01-28 06:45:25.04	344.98	20.60	-42.2	-43.1	21.6	0.00e+00	0	43	0	1515192320	56	3880
2026-01-28 06:45:26.05	344.77	20.51	-42.3	-43.2	21.6	0.00e+00	0	43	0	1518338048	56	3925
2026-01-28 06:45:27.05	344.57	20.43	-42.3	-43.1	21.6	0.00e+00	0	43	0	1521483776	56	3890
2026-01-28 06:45:28.06	344.37	20.35	-42.2	-43.0	21.7	0.00e+00	0	43	0	1524629504	56	3862
2026-01-28 06:45:29.07	344.17	20.27	-42.3	-43.2	21.6	0.00e+00	0	43	0	1527775232	56	3921
2026-01-28 06:45:30.07	343.98	20.19	-42.3	-43.2	21.6	0.00e+00	0	43	0	1529872384	56	3920
2026-01-28 06:45:31.08	343.78	20.10	-42.4	-43.3	21.5	0.00e+00	0	43	0	1533018112	56	3961
2026-01-28 06:45:32.09	343.58	20.02	-42.5	-43.3	21.5	0.00e+00	0	43	0	1536163840	56	3995
2026-01-28 06:45:33.09	343.39	19.94	-42.5	-43.4	21.4	0.00e+00	0	43	0	1540358144	56	4033
2026-01-28 06:45:34.10	343.19	19.86	-42.5	-43.4	21.4	0.00e+00	0	43	0	1543503872	56	4012
2026-01-28 06:45:35.11	343.00	19.78	-42.5	-43.4	21.3	0.00e+00	0	43	0	1546649600	56	4037
2026-01-28 06:45:36.11	342.81	19.69	-42.5	-43.4	21.3	0.00e+00	0	43	0	1549795328	56	4026
2026-01-28 06:45:37.12	342.62	19.61	-42.5	-43.4	21.3	0.00e+00	0	43	0	1552941056	56	4024
2026-01-28 06:45:38.13	342.43	19.53	-42.6	-43.4	21.3	0.00e+00	0	43	0	1556086784	56	4048
2026-01-28 06:45:39.14	342.24	19.44	-42.5	-43.3	21.4	0.00e+00	0	43	0	1559232512	56	4004
2026-01-28 06:45:40.15	342.05	19.36	-42.5	-43.3	21.4	0.00e+00	0	43	0	1562378240	56	3995
2026-01-28 06:45:41.15	341.86	19.28	-42.6	-43.4	21.3	0.00e+00	0	43	0	1565523968	56	4041
2026-01-28 06:45:42.16	341.68	19.20	-42.5	-43.4	21.3	0.00e+00	0	43	0	1568669696	56	4022
2026-01-28 06:45:43.16	341.50	19.11	-42.5	-43.4	21.3	0.00e+00	0	43	0	1571815424	56	4022
2026-01-28 06:45:44.17	341.31	19.03	-42.6	-43.5	21.2	0.00e+00	0	43	0	1574961152	56	4067
2026-01-28 06:45:45.18	341.13	18.95	-42.5	-43.3	21.3	0.00e+00	0	43	0	1577058304	56	3995
2026-01-28 06:45:46.19	340.95	18.86	-42.5	-43.4	21.2	0.00e+00	0	43	0	1581252608	56	4006
2026-01-28 06:45:47.20	340.77	18.78	-42.3	-43.2	21.4	0.00e+00	0	43	0	1584398336	56	3940
2026-01-28 06:45:48.21	340.59	18.70	-42.3	-43.2	21.5	0.00e+00	0	43	0	1587544064	56	3926
2026-01-28 06:45:49.22	340.41	18.62	-42.3	-43.1	21.5	0.00e+00	0	43	0	1590689792	56	3911
2026-01-28 06:45:50.23	340.23	18.53	-42.3	-43.2	21.5	0.00e+00	0	43	0	1593835520	56	3935
2026-01-28 06:45:51.23	340.05	18.45	-42.4	-43.3	21.4	0.00e+00	0	43	0	1596981248	56	3973
2026-01-28 06:45:52.24	339.88	18.37	-42.5	-43.3	21.3	0.00e+00	0	43	0	1600126976	56	4001
2026-01-28 06:45:53.25	339.70	18.28	-42.5	-43.3	21.3	0.00e+00	0	43	0	1603272704	56	3999
2026-01-28 06:45:54.25	339.53	18.20	-42.5	-43.3	21.4	0.00e+00	0	43	0	1606418432	56	3993
2026-01-28 06:45:55.26	339.36	18.12	-42.5	-43.3	21.4	0.00e+00	0	43	0	1609564160	56	3997
2026-01-28 06:45:56.27	339.18	18.03	-42.5	-43.3	21.4	0.00e+00	0	43	0	1612709888	56	4003
2026-01-28 06:45:57.28	339.01	17.95	-42.5	-43.4	21.3	0.00e+00	0	43	0	1615855616	56	4006
2026-01-28 06:45:58.29	338.84	17.87	-42.5	-43.4	21.3	0.00e+00	0	43	0	1619001344	56	4023
2026-01-28 06:45:59.29	338.67	17.79	-42.6	-43.5	21.3	0.00e+00	0	43	0	1622147072	56	4055
2026-01-28 06:46:00.29	338.51	17.70	-42.6	-43.5	21.2	0.00e+00	0	43	0	1625292800	56	4078
2026-01-28 06:46:01.30	338.34	17.62	-42.8	-43.7	21.1	0.00e+00	0	43	0	1628438528	56	4149
2026-01-28 06:46:02.31	338.17	17.54	-42.9	-43.8	21.0	0.00e+00	0	43	0	1631584256	56	4203
2026-01-28 06:46:03.31	338.01	17.45	-42.9	-43.8	20.9	0.00e+00	0	43	0	1634729984	56	4240
2026-01-28 06:46:04.31	337.85	17.37	-42.8	-43.7	21.0	0.00e+00	0	43	0	1637875712	56	4182
2026-01-28 06:46:05.32	337.68	17.29	-42.8	-43.7	21.1	0.00e+00	0	43	0	1641021440	56	4169
2026-01-28 06:46:06.33	337.52	17.21	-42.9	-43.8	21.0	0.00e+00	0	43	0	1644167168	56	4215
2026-01-28 06:46:07.33	337.36	17.12	-42.8	-43.7	21.0	0.00e+00	0	43	0	1647312896	56	4157
2026-01-28 06:46:08.34	337.20	17.04	-42.6	-43.5	21.2	0.00e+00	0	43	0	1650458624	56	4071
2026-01-28 06:46:09.35	337.04	16.96	-42.6	-43.5	21.2	0.00e+00	0	43	0	1653604352	56	4056
2026-01-28 06:46:10.36	336.88	16.88	-42.6	-43.4	21.3	0.00e+00	0	43	0	1656750080	56	4047
2026-01-28 06:46:11.37	336.72	16.79	-42.4	-43.3	21.4	0.00e+00	0	43	0	1659895808	56	3990
2026-01-28 06:46:12.37	336.56	16.71	-42.5	-43.4	21.3	0.00e+00	0	43	0	1663041536	56	4024
2026-01-28 06:46:13.38	336.41	16.63	-42.6	-43.5	21.2	0.00e+00	0	43	0	1666187264	56	4052
2026-01-28 06:46:14.39	336.25	16.55	-42.6	-43.5	21.2	0.00e+00	0	43	0	1669332992	56	4088
2026-01-28 06:46:15.39	336.10	16.46	-42.9	-43.8	21.0	0.00e+00	0	43	0	1672478720	56	4201
2026-01-28 06:46:16.40	335.95	16.38	-43.0	-43.9	20.9	0.00e+00	0	43	0	1675624448	56	4276
2026-01-28 06:46:17.40	335.79	16.30	-43.1	-44.0	20.7	0.00e+00	0	43	0	1678770176	56	4313
2026-01-28 06:46:18.41	335.64	16.22	-43.1	-44.0	20.7	0.00e+00	0	43	0	1681915904	56	4314
2026-01-28 06:46:19.41	335.49	16.14	-43.1	-44.0	20.7	0.00e+00	0	43	0	1685061632	56	4333
2026-01-28 06:46:20.42	335.34	16.05	-43.1	-44.0	20.7	0.00e+00	0	43	0	1688207360	56	4316
2026-01-28 06:46:21.43	335.19	15.97	-42.8	-43.7	20.9	0.00e+00	0	43	0	1691353088	56	4188
2026-01-28 06:46:22.43	335.04	15.89	-42.8	-43.7	20.9	0.00e+00	0	43	0	1694498816	56	4178
2026-01-28 06:46:23.44	334.90	15.81	-42.7	-43.6	21.0	0.00e+00	0	43	0	1697644544	56	4131
2026-01-28 06:46:24.45	334.75	15.73	-42.6	-43.5	21.2	0.00e+00	0	43	0	1700790272	56	4055
2026-01-28 06:46:25.45	334.60	15.65	-42.7	-43.6	21.0	0.00e+00	0	43	0	1703936000	56	4126
2026-01-28 06:46:26.46	334.46	15.56	-42.8	-43.7	21.0	0.00e+00	0	43	0	1707081728	56	4152
2026-01-28 06:46:27.47	334.31	15.48	-42.7	-43.6	21.0	0.00e+00	0	43	0	1710227456	56	4131
2026-01-28 06:46:28.48	334.17	15.40	-42.8	-43.7	20.9	0.00e+00	0	43	0	1713373184	56	4186
2026-01-28 06:46:29.49	334.02	15.32	-42.9	-43.8	20.8	0.00e+00	0	43	0	1716518912	56	4238
2026-01-28 06:46:30.49	333.88	15.24	-43.1	-44.0	20.7	0.00e+00	0	43	0	1719664640	56	4329
2026-01-28 06:46:31.50	333.74	15.16	-43.2	-44.1	20.6	0.00e+00	0	43	0	1722810368	56	4380
2026-01-28 06:46:32.51	333.60	15.08	-43.3	-44.2	20.5	0.00e+00	0	43	0	1725956096	57	4180
2026-01-28 06:46:33.52	333.46	15.00	-43.3	-44.2	20.5	0.00e+00	0	43	0	1729101824	57	4174
2026-01-28 06:46:34.52	333.32	14.92	-43.2	-44.1	20.5	0.00e+00	0	43	0	1732247552	57	4144
2026-01-28 06:46:35.53	333.18	14.83	-43.2	-44.1	20.5	0.00e+00	0	43	0	1735393280	57	4139
2026-01-28 06:46:36.54	333.05	14.75	-43.1	-44.1	20.5	0.00e+00	0	43	0	1738539008	57	4118
2026-01-28 06:46:37.55	332.91	14.67	-43.2	-44.2	20.4	0.00e+00	0	43	0	1741684736	57	4153
2026-01-28 06:46:38.56	332.77	14.59	-43.1	-44.1	20.6	0.00e+00	0	43	0	1744830464	57	4099
2026-01-28 06:46:39.57	332.64	14.51	-42.9	-43.8	20.7	0.00e+00	0	43	0	1747976192	57	3985
2026-01-28 06:46:40.57	332.50	14.43	-42.8	-43.7	20.9	0.00e+00	0	43	0	1751121920	57	3941
2026-01-28 06:46:41.58	332.37	14.35	-42.8	-43.7	20.9	0.00e+00	0	43	0	1754267648	57	3956
2026-01-28 06:46:42.59	332.24	14.27	-42.8	-43.8	20.9	0.00e+00	0	43	0	1757413376	57	3959
2026-01-28 06:46:43.60	332.10	14.19	-42.9	-43.9	20.8	0.00e+00	0	43	0	1760559104	57	4012
2026-01-28 06:46:44.60	331.97	14.11	-43.1	-44.0	20.7	0.00e+00	0	43	0	1763704832	57	4069
2026-01-28 06:46:45.60	331.84	14.03	-43.0	-43.9	20.7	0.00e+00	0	43	0	1766850560	57	4031
2026-01-28 06:46:46.61	331.71	13.95	-43.2	-44.1	20.6	0.00e+00	0	43	0	1769996288	57	4130
2026-01-28 06:46:47.62	331.58	13.87	-43.2	-44.1	20.5	0.00e+00	0	43	0	1773142016	57	4142
2026-01-28 06:46:48.63	331.45	13.79	-43.3	-44.3	20.4	0.00e+00	0	43	0	1776287744	57	4195
2026-01-28 06:46:49.64	331.33	13.71	-43.4	-44.4	20.2	0.00e+00	0	43	0	1779433472	57	4266
2026-01-28 06:46:50.64	331.20	13.64	-43.4	-44.3	20.3	0.00e+00	0	43	0	1782579200	57	4238
2026-01-28 06:46:51.65	331.07	13.56	-43.4	-44.3	20.2	0.00e+00	0	43	0	1785724928	57	4229
2026-01-28 06:46:52.66	330.95	13.48	-43.3	-44.2	20.3	0.00e+00	0	43	0	1788870656	57	4180
2026-01-28 06:46:53.67	330.82	13.40	-43.1	-44.1	20.5	0.00e+00	0	43	0	1792016384	57	4099
2026-01-28 06:46:54.67	330.70	13.32	-43.1	-44.0	20.5	0.00e+00	0	43	0	1795162112	57	4079
2026-01-28 06:46:55.68	330.57	13.24	-43.1	-44.1	20.5	0.00e+00	0	43	0	1798307840	57	4100
2026-01-28 06:46:56.69	330.45	13.16	-42.9	-43.8	20.7	0.00e+00	0	43	0	1801453568	57	3974
2026-01-28 06:46:57.70	330.33	13.09	-42.8	-43.8	20.8	0.00e+00	0	43	0	1804599296	57	3959
2026-01-28 06:46:58.70	330.21	13.01	-42.6	-43.5	21.0	0.00e+00	0	43	0	1807745024	57	3854
2026-01-28 06:46:59.71	330.09	12.93	-42.6	-43.5	21.0	0.00e+00	0	43	0	1810890752	57	3858
2026-01-28 06:47:00.72	329.96	12.85	-42.6	-43.5	21.0	0.00e+00	0	43	0	1814036480	57	3856
2026-01-28 06:47:01.72	329.85	12.77	-42.7	-43.6	20.9	0.00e+00	0	43	0	1817182208	57	3889
2026-01-28 06:47:02.73	329.73	12.70	-42.8	-43.7	20.9	0.00e+00	0	43	0	1820327936	57	3922
2026-01-28 06:47:03.74	329.61	12.62	-42.9	-43.9	20.7	0.00e+00	0	43	0	1823473664	57	4007
2026-01-28 06:47:04.75	329.49	12.54	-43.2	-44.1	20.5	0.00e+00	0	43	0	1826619392	57	4125
2026-01-28 06:47:05.76	329.37	12.46	-43.3	-44.2	20.4	0.00e+00	0	43	0	1829765120	57	4191
2026-01-28 06:47:06.76	329.26	12.39	-43.4	-44.4	20.2	0.00e+00	0	43	0	1832910848	57	4286
2026-01-28 06:47:07.77	329.14	12.31	-43.6	-44.6	20.0	0.00e+00	0	43	0	1836056576	57	4365
2026-01-28 06:47:08.77	329.02	12.23	-43.7	-44.7	19.9	0.00e+00	0	43	0	1839202304	57	4432
2026-01-28 06:47:09.78	328.91	12.16	-43.8	-44.8	19.8	0.00e+00	0	43	0	1842348032	58	4230
2026-01-28 06:47:10.79	328.80	12.08	-43.7	-44.7	19.9	0.00e+00	0	43	0	1845493760	58	4165
2026-01-28 06:47:11.79	328.68	12.00	-43.7	-44.8	19.8	0.00e+00	0	43	0	1848639488	58	4200
2026-01-28 06:47:12.79	328.57	11.93	-43.6	-44.6	19.9	0.00e+00	0	43	0	1851785216	58	4114
2026-01-28 06:47:13.80	328.46	11.85	-43.6	-44.6	19.9	0.00e+00	0	43	0	1854930944	58	4129
2026-01-28 06:47:14.80	328.35	11.77	-43.7	-44.7	19.8	0.00e+00	0	43	0	1858076672	58	4190
2026-01-28 06:47:15.81	328.24	11.70	-43.7	-44.7	19.8	0.00e+00	0	43	0	1861222400	58	4176
2026-01-28 06:47:16.82	328.12	11.62	-43.4	-44.4	20.1	0.00e+00	0	43	0	1864368128	58	4035
2026-01-28 06:47:17.83	328.01	11.55	-43.3	-44.3	20.2	0.00e+00	0	43	0	1867513856	58	3983
2026-01-28 06:47:18.83	327.91	11.47	-43.4	-44.3	20.1	0.00e+00	0	43	0	1870659584	58	4004
2026-01-28 06:47:19.84	327.80	11.40	-43.4	-44.4	20.1	0.00e+00	0	43	0	1873805312	58	4040
2026-01-28 06:47:20.85	327.69	11.32	-43.4	-44.4	20.2	0.00e+00	0	43	0	1876951040	58	4013
2026-01-28 06:47:21.85	327.58	11.25	-43.2	-44.2	20.3	0.00e+00	0	43	0	1880096768	58	3933
2026-01-28 06:47:22.86	327.47	11.17	-43.2	-44.1	20.4	0.00e+00	0	43	0	1883242496	58	3913
2026-01-28 06:47:23.87	327.37	11.09	-43.3	-44.3	20.2	0.00e+00	0	43	0	1886388224	58	3975
2026-01-28 06:47:24.88	327.26	11.02	-43.5	-44.5	20.0	0.00e+00	0	43	0	1889533952	58	4075
2026-01-28 06:47:25.88	327.16	10.95	-43.6	-44.6	19.9	0.00e+00	0	43	0	1892679680	58	4139
2026-01-28 06:47:26.89	327.05	10.87	-43.7	-44.8	19.8	0.00e+00	0	43	0	1895825408	58	4204
2026-01-28 06:47:27.89	326.95	10.80	-43.9	-44.9	19.6	0.00e+00	0	43	0	1898971136	58	4287
2026-01-28 06:47:28.89	326.84	10.72	-44.0	-45.1	19.5	0.00e+00	0	43	0	1902116864	58	4367
2026-01-28 06:47:29.90	326.74	10.65	-44.1	-45.2	19.4	0.00e+00	0	43	0	1905262592	58	4420
2026-01-28 06:47:30.91	326.64	10.57	-44.2	-45.3	19.3	0.00e+00	0	43	0	1908408320	59	4227
2026-01-28 06:47:31.92	326.53	10.50	-44.2	-45.3	19.3	0.00e+00	0	43	0	1911554048	59	4215
2026-01-28 06:47:32.93	326.43	10.43	-44.2	-45.3	19.2	0.00e+00	0	43	0	1914699776	59	4227
2026-01-28 06:47:33.93	326.33	10.35	-44.1	-45.2	19.4	0.00e+00	0	43	0	1917845504	59	4147
2026-01-28 06:47:34.94	326.23	10.28	-44.1	-45.2	19.4	0.00e+00	0	43	0	1920991232	59	4146
2026-01-28 06:47:35.95	326.13	10.20	-44.1	-45.1	19.3	0.00e+00	0	43	0	1924136960	59	4145
2026-01-28 06:47:36.96	326.03	10.13	-44.1	-45.2	19.3	0.00e+00	0	43	0	1927282688	59	4173
2026-01-28 06:47:37.97	325.93	10.06	-44.2	-45.3	19.2	0.00e+00	0	43	0	1930428416	59	4211
2026-01-28 06:47:38.98	325.83	9.98	-44.0	-45.1	19.4	0.00e+00	0	43	0	1933574144	59	4099
2026-01-28 06:47:39.98	325.74	9.91	-43.9	-45.0	19.5	0.00e+00	0	43	0	1936719872	59	4070
2026-01-28 06:47:40.98	325.64	9.84	-44.0	-45.1	19.3	0.00e+00	0	43	0	1939865600	59	4125
2026-01-28 06:47:41.98	325.54	9.77	-44.1	-45.2	19.3	0.00e+00	0	43	0	1943011328	59	4146
2026-01-28 06:47:42.99	325.45	9.70	-43.9	-45.0	19.5	0.00e+00	0	43	0	1946157056	59	4063
2026-01-28 06:47:43.99	325.35	9.62	-44.0	-45.0	19.4	0.00e+00	0	43	0	1949302784	59	4084
2026-01-28 06:47:45.00	325.26	9.55	-44.1	-45.1	19.3	0.00e+00	0	43	0	1952448512	59	4140
2026-01-28 06:47:46.00	325.16	9.48	-44.1	-45.2	19.3	0.00e+00	0	43	0	1955594240	59	4165
2026-01-28 06:47:47.01	325.07	9.41	-44.2	-45.3	19.2	0.00e+00	0	43	0	1958739968	59	4227
2026-01-28 06:47:48.02	324.97	9.33	-44.3	-45.4	19.1	0.00e+00	0	43	0	1961885696	59	4267
2026-01-28 06:47:49.03	324.88	9.26	-44.4	-45.5	19.0	0.00e+00	0	43	0	1965031424	59	4313
2026-01-28 06:47:50.03	324.79	9.19	-44.4	-45.5	19.0	0.00e+00	0	43	0	1968177152	59	4332
2026-01-28 06:47:51.05	324.69	9.12	-44.4	-45.6	18.9	0.00e+00	0	43	0	1971322880	59	4360
2026-01-28 06:47:52.06	324.60	9.05	-44.5	-45.7	18.8	0.00e+00	0	43	0	1974468608	59	4411
2026-01-28 06:47:53.07	324.51	8.98	-44.7	-45.9	18.6	0.00e+00	0	43	0	1977614336	59	4521
2026-01-28 06:47:54.07	324.42	8.91	-44.6	-45.8	18.7	0.00e+00	0	43	0	1980760064	59	4477
2026-01-28 06:47:55.08	324.33	8.83	-44.4	-45.6	18.6	0.00e+00	0	43	0	1983905792	60	4102
2026-01-28 06:47:56.09	324.24	8.76	-44.4	-45.6	18.6	0.00e+00	0	43	0	1987051520	60	4112
2026-01-28 06:47:57.10	324.15	8.69	-44.4	-45.6	18.6	0.00e+00	0	43	0	1990197248	60	4109
2026-01-28 06:47:58.10	324.06	8.62	-44.4	-45.5	18.6	0.00e+00	0	43	0	1993342976	60	4098
2026-01-28 06:47:59.11	323.97	8.55	-44.5	-45.7	18.5	0.00e+00	0	43	0	1996488704	60	4155
2026-01-28 06:48:00.12	323.88	8.48	-44.5	-45.6	18.5	0.00e+00	0	43	0	1999634432	60	4142
2026-01-28 06:48:01.13	323.79	8.41	-44.5	-45.7	18.4	0.00e+00	0	43	0	2002780160	60	4179
2026-01-28 06:48:02.13	323.70	8.34	-44.5	-45.7	18.4	0.00e+00	0	43	0	2005925888	60	4153
2026-01-28 06:48:03.14	323.62	8.27	-44.4	-45.6	18.5	0.00e+00	0	43	0	2009071616	60	4102
2026-01-28 06:48:04.15	323.53	8.20	-44.5	-45.7	18.4	0.00e+00	0	43	0	2012217344	60	4149
2026-01-28 06:48:05.16	323.44	8.13	-44.6	-45.8	18.2	0.00e+00	0	43	0	2015363072	60	4235
2026-01-28 06:48:06.17	323.36	8.06	-44.6	-45.8	18.3	0.00e+00	0	43	0	2018508800	60	4206
2026-01-28 06:48:07.17	323.27	7.99	-44.4	-45.6	18.5	0.00e+00	0	43	0	2021654528	60	4112
2026-01-28 06:48:08.18	323.19	7.92	-44.4	-45.6	18.4	0.00e+00	0	43	0	2024800256	60	4137
2026-01-28 06:48:09.19	323.10	7.85	-44.2	-45.4	18.6	0.00e+00	0	43	0	2027945984	60	4025
2026-01-28 06:48:10.20	323.02	7.78	-44.2	-45.3	18.6	0.00e+00	0	43	0	2031091712	60	4003
2026-01-28 06:48:11.21	322.93	7.72	-44.3	-45.5	18.5	0.00e+00	0	43	0	2034237440	60	4065
2026-01-28 06:48:12.21	322.85	7.65	-44.3	-45.4	18.6	0.00e+00	0	43	0	2037383168	60	4049
