passes_logs/2026/01/28/R3.2S_Murmansk/R3.2S_Murmansk__20260128_132101_NOAA_21_JPSS-2_rec.log

#Pass ID: 20260128_132101_NOAA 21 (JPSS-2)
#Satellite: NOAA 21 (JPSS-2)
#Configuration: NOAA-21
#almurnet v.1.7.20251203
#Start time: 2026-01-28 13:21:01

#Version: 2.2.20231116
#Station: R3.2S_Murmansk
#Location: 33.079688 lon 68.888172 lat
#TLE: 1 54234U 22150A   26027.77052245  .00000166  00000+0  99439-4 0  9997
#TLE: 2 54234  98.7510 328.5165 0000872 203.6403 156.4733 14.19540252166628

#Time	Az	El	Level	Level2	SNR	BER	BlckErr	Temp	State	Recorded	gain1	gain2
2026-01-28 13:21:01.63	253.14	1.99	-54.1	-66.9	3.8	1.49e+00	0	41	0	0	79	15973
2026-01-28 13:21:02.63	253.24	2.03	-54.0	-66.8	3.8	1.49e+00	0	40	104	0	78	16865
2026-01-28 13:21:03.64	253.35	2.07	-54.0	-66.8	3.8	1.49e+00	0	40	104	0	78	16886
2026-01-28 13:21:04.65	253.46	2.11	-54.0	-66.8	3.8	1.49e+00	0	41	104	0	78	16852
2026-01-28 13:21:05.65	253.57	2.15	-54.0	-66.8	3.8	1.49e+00	0	41	104	0	78	16782
2026-01-28 13:21:06.66	253.68	2.19	-54.0	-66.8	3.8	1.49e+00	0	41	104	0	78	16787
2026-01-28 13:21:07.66	253.79	2.23	-54.0	-66.8	3.8	1.49e+00	0	40	104	0	78	16767
2026-01-28 13:21:08.67	253.90	2.28	-54.0	-66.8	3.8	1.49e+00	0	41	104	0	78	16781
2026-01-28 13:21:09.68	254.01	2.32	-54.0	-66.8	3.8	1.49e+00	0	41	104	0	78	16743
2026-01-28 13:21:10.68	254.11	2.36	-54.1	-66.9	3.8	1.49e+00	0	41	104	0	78	16975
2026-01-28 13:21:11.69	254.22	2.40	-54.3	-67.1	3.8	1.49e+00	0	41	104	0	79	16367
2026-01-28 13:21:12.69	254.33	2.44	-54.4	-67.2	3.8	1.49e+00	0	41	104	0	79	16515
2026-01-28 13:21:13.70	254.44	2.48	-54.4	-67.2	3.8	1.49e+00	0	41	104	0	79	16588
2026-01-28 13:21:14.71	254.56	2.52	-54.4	-67.2	3.8	1.49e+00	0	41	104	0	79	16559
2026-01-28 13:21:15.71	254.67	2.56	-54.4	-67.2	3.8	1.49e+00	0	41	104	0	79	16573
2026-01-28 13:21:16.71	254.78	2.60	-54.4	-67.1	3.8	1.49e+00	0	41	104	0	79	16456
2026-01-28 13:21:17.72	254.89	2.64	-54.3	-67.1	3.8	1.49e+00	0	41	104	0	79	16367
2026-01-28 13:21:18.73	255.00	2.68	-54.3	-67.0	3.8	1.49e+00	0	41	104	0	79	16252
2026-01-28 13:21:19.74	255.11	2.72	-54.2	-67.0	3.8	1.49e+00	0	41	104	0	79	16219
2026-01-28 13:21:20.75	255.23	2.76	-54.2	-66.9	3.8	1.49e+00	0	41	104	0	79	16095
2026-01-28 13:21:21.75	255.34	2.80	-54.2	-66.9	3.8	1.49e+00	0	41	104	0	79	16094
2026-01-28 13:21:22.76	255.45	2.84	-54.1	-66.9	3.8	1.49e+00	0	41	104	0	79	15949
2026-01-28 13:21:23.77	255.57	2.88	-54.0	-66.8	3.8	1.49e+00	0	41	104	0	79	15795
2026-01-28 13:21:24.78	255.68	2.92	-53.9	-66.7	3.8	1.49e+00	0	41	104	0	79	15602
2026-01-28 13:21:25.79	255.79	2.96	-53.8	-66.6	3.8	1.49e+00	0	41	104	0	79	15493
2026-01-28 13:21:26.79	255.91	3.00	-53.7	-66.4	3.8	1.49e+00	0	41	104	0	79	15219
2026-01-28 13:21:27.80	256.02	3.04	-53.5	-66.3	3.8	1.49e+00	0	41	104	0	79	14993
2026-01-28 13:21:28.80	256.14	3.07	-53.4	-66.2	3.8	1.49e+00	0	41	104	0	78	15590
2026-01-28 13:21:29.81	256.25	3.11	-53.2	-65.8	3.8	1.49e+00	0	41	104	0	78	15047
2026-01-28 13:21:30.82	256.37	3.15	-52.9	-65.6	3.8	1.49e+00	0	41	104	0	77	15528
2026-01-28 13:21:31.83	256.49	3.19	-52.5	-65.2	3.8	1.49e+00	0	41	104	0	77	14871
2026-01-28 13:21:32.84	256.60	3.23	-52.4	-65.1	3.8	1.49e+00	0	41	104	0	76	15511
2026-01-28 13:21:33.85	256.72	3.27	-52.4	-65.1	3.8	1.49e+00	0	41	104	0	76	15539
2026-01-28 13:21:34.85	256.83	3.31	-52.4	-65.1	3.8	1.49e+00	0	42	104	0	76	15532
2026-01-28 13:21:35.86	256.95	3.35	-52.4	-65.1	3.8	1.49e+00	0	41	104	0	76	15501
2026-01-28 13:21:36.87	257.07	3.39	-52.4	-65.1	3.8	1.49e+00	0	42	104	0	76	15540
2026-01-28 13:21:37.88	257.19	3.43	-52.3	-65.1	3.8	1.49e+00	0	42	104	0	76	15493
2026-01-28 13:21:38.89	257.31	3.47	-52.3	-65.1	3.8	1.49e+00	0	41	104	0	76	15433
2026-01-28 13:21:39.89	257.42	3.51	-52.3	-65.1	3.8	1.49e+00	0	41	104	0	76	15440
2026-01-28 13:21:40.90	257.54	3.55	-52.3	-65.1	3.8	1.49e+00	0	41	104	0	76	15429
2026-01-28 13:21:41.91	257.66	3.59	-52.3	-65.1	3.8	1.49e+00	0	42	104	0	76	15449
2026-01-28 13:21:42.92	257.78	3.63	-52.3	-65.1	3.8	1.49e+00	0	42	104	0	76	15441
2026-01-28 13:21:43.92	257.90	3.67	-52.3	-65.1	3.8	1.49e+00	0	42	104	0	76	15446
2026-01-28 13:21:44.93	258.02	3.71	-52.3	-65.1	3.8	1.49e+00	0	42	104	0	76	15448
2026-01-28 13:21:45.94	258.14	3.74	-52.3	-65.1	3.8	1.49e+00	0	42	104	0	76	15440
2026-01-28 13:21:46.95	258.26	3.78	-52.3	-65.1	3.8	1.49e+00	0	42	104	0	76	15460
2026-01-28 13:21:47.95	258.38	3.82	-52.3	-65.0	3.8	1.49e+00	0	42	104	0	76	15362
2026-01-28 13:21:48.96	258.50	3.86	-52.3	-65.0	3.8	1.49e+00	0	42	104	0	76	15340
2026-01-28 13:21:49.97	258.62	3.90	-52.3	-65.0	3.8	1.49e+00	0	42	104	0	76	15285
2026-01-28 13:21:50.98	258.75	3.94	-52.3	-65.0	3.8	1.49e+00	0	42	104	0	76	15281
2026-01-28 13:21:51.99	258.87	3.98	-52.3	-65.0	3.8	1.49e+00	0	42	104	0	76	15259
2026-01-28 13:21:52.99	258.99	4.02	-52.3	-65.0	3.8	1.49e+00	0	42	104	0	76	15324
2026-01-28 13:21:54.00	259.11	4.06	-52.3	-65.0	3.8	1.49e+00	0	42	104	0	76	15379
2026-01-28 13:21:55.01	259.24	4.09	-52.3	-65.0	3.8	1.49e+00	0	42	104	0	76	15398
2026-01-28 13:21:56.02	259.36	4.13	-52.3	-65.1	3.8	1.49e+00	0	42	104	0	76	15417
2026-01-28 13:21:57.03	259.48	4.17	-52.3	-65.0	3.8	1.49e+00	0	42	104	0	76	15370
2026-01-28 13:21:58.04	259.61	4.21	-52.3	-65.1	3.8	1.49e+00	0	42	104	0	76	15427
2026-01-28 13:21:59.05	259.73	4.25	-52.3	-65.0	3.8	1.49e+00	0	42	104	0	76	15299
2026-01-28 13:22:00.05	259.85	4.29	-52.3	-64.9	3.8	1.49e+00	0	42	104	0	76	15170
2026-01-28 13:22:01.06	259.98	4.32	-52.3	-64.9	3.8	1.49e+00	0	42	104	0	76	15163
2026-01-28 13:22:02.07	260.11	4.36	-52.3	-64.9	3.8	1.49e+00	0	42	104	0	76	15065
2026-01-28 13:22:03.07	260.23	4.40	-52.3	-64.9	3.8	1.49e+00	0	42	104	0	76	15191
2026-01-28 13:22:04.08	260.36	4.44	-52.3	-64.9	3.8	1.49e+00	0	42	104	0	76	15191
2026-01-28 13:22:05.09	260.48	4.48	-52.3	-64.9	3.8	1.49e+00	0	42	104	0	76	15160
2026-01-28 13:22:06.10	260.61	4.52	-52.3	-64.9	3.8	1.49e+00	0	42	104	0	76	15063
2026-01-28 13:22:07.11	260.74	4.55	-52.3	-65.0	3.8	1.49e+00	0	42	104	0	76	15263
2026-01-28 13:22:08.12	260.86	4.59	-52.3	-65.0	3.8	1.49e+00	0	42	104	0	76	15365
2026-01-28 13:22:09.12	260.99	4.63	-52.3	-64.8	3.8	1.49e+00	0	42	104	0	76	14947
2026-01-28 13:22:10.13	261.12	4.67	-52.2	-63.5	3.8	1.49e+00	0	42	104	0	76	12922
2026-01-28 13:22:11.14	261.25	4.70	-52.0	-61.9	4.1	1.48e+00	0	42	104	0	76	10695
2026-01-28 13:22:12.15	261.37	4.74	-51.8	-60.1	4.7	1.35e+00	0	42	104	0	75	9270
2026-01-28 13:22:13.16	261.50	4.78	-51.7	-59.3	5.1	7.05e-01	0	42	0	1048576	75	8436
2026-01-28 13:22:14.17	261.63	4.82	-51.7	-59.7	4.9	7.03e-01	0	42	0	4194304	75	8792
2026-01-28 13:22:15.17	261.76	4.85	-51.6	-59.2	5.2	6.52e-01	0	42	0	7340032	75	8305
2026-01-28 13:22:16.18	261.89	4.89	-51.4	-57.9	6.0	4.38e-01	0	42	0	10485760	74	7604
2026-01-28 13:22:17.19	262.02	4.93	-50.6	-55.4	8.3	1.09e-01	0	42	0	13631488	73	6011
2026-01-28 13:22:18.20	262.15	4.97	-49.6	-53.0	10.9	3.97e-03	0	42	0	16777216	71	5125
2026-01-28 13:22:19.21	262.28	5.00	-48.5	-51.0	13.0	1.30e-04	0	42	0	19922944	68	4843
2026-01-28 13:22:20.22	262.41	5.04	-47.7	-49.8	14.1	6.10e-06	0	42	0	23068672	67	4467
2026-01-28 13:22:21.22	262.54	5.08	-47.5	-49.6	14.3	2.20e-06	0	42	0	26214400	67	4367
2026-01-28 13:22:22.23	262.67	5.11	-50.0	-53.9	9.8	7.68e-02	0	42	0	29360128	72	5346
2026-01-28 13:22:23.24	262.81	5.15	-47.9	-50.2	13.7	1.50e-06	0	42	0	32505856	66	4977
2026-01-28 13:22:24.25	262.94	5.19	-51.0	-56.7	6.8	1.24e+00	2	42	104	34603008	74	6620
2026-01-28 13:22:25.26	263.07	5.23	-45.8	-47.3	16.8	0.00e+00	0	42	0	36700160	62	4451
2026-01-28 13:22:26.26	263.20	5.26	-45.5	-46.9	17.1	0.00e+00	0	42	0	39845888	62	4258
2026-01-28 13:22:27.27	263.34	5.30	-45.6	-47.0	16.9	0.00e+00	0	42	0	42991616	62	4318
2026-01-28 13:22:28.28	263.47	5.33	-45.4	-46.8	17.1	0.00e+00	0	42	0	46137344	62	4230
2026-01-28 13:22:29.29	263.60	5.37	-45.5	-47.0	17.0	0.00e+00	0	42	0	49283072	62	4309
2026-01-28 13:22:30.30	263.74	5.41	-45.6	-47.0	16.9	0.00e+00	0	42	0	52428800	62	4339
2026-01-28 13:22:31.30	263.87	5.44	-45.7	-47.1	16.9	0.00e+00	0	42	0	55574528	62	4369
2026-01-28 13:22:32.31	264.01	5.48	-45.6	-47.1	16.9	0.00e+00	0	42	0	58720256	62	4362
2026-01-28 13:22:33.31	264.14	5.52	-45.5	-46.9	17.1	0.00e+00	0	42	0	61865984	62	4278
2026-01-28 13:22:34.33	264.28	5.55	-45.5	-46.9	17.1	0.00e+00	0	42	0	65011712	62	4267
2026-01-28 13:22:35.33	264.41	5.59	-45.2	-46.6	17.4	0.00e+00	0	42	0	68157440	62	4116
2026-01-28 13:22:36.34	264.55	5.62	-45.1	-46.5	17.4	0.00e+00	0	42	0	71303168	62	4075
2026-01-28 13:22:37.34	264.68	5.66	-45.4	-46.8	17.2	0.00e+00	0	42	0	74448896	62	4197
2026-01-28 13:22:38.35	264.82	5.69	-45.5	-47.0	17.0	0.00e+00	0	42	0	77594624	62	4301
2026-01-28 13:22:39.35	264.95	5.73	-45.6	-47.0	17.0	0.00e+00	0	42	0	80740352	62	4314
2026-01-28 13:22:40.36	265.09	5.77	-45.4	-46.8	17.2	0.00e+00	0	42	0	83886080	62	4211
2026-01-28 13:22:41.37	265.23	5.80	-45.3	-46.7	17.4	0.00e+00	0	42	0	87031808	62	4162
2026-01-28 13:22:42.38	265.37	5.84	-45.3	-46.7	17.4	0.00e+00	0	42	0	90177536	62	4152
2026-01-28 13:22:43.39	265.51	5.87	-45.1	-46.4	17.6	0.00e+00	0	42	0	93323264	62	4027
2026-01-28 13:22:44.40	265.65	5.91	-45.3	-46.6	17.4	0.00e+00	0	42	0	96468992	62	4140
2026-01-28 13:22:45.41	265.78	5.94	-45.4	-46.7	17.3	0.00e+00	0	42	0	99614720	62	4182
2026-01-28 13:22:46.42	265.92	5.98	-45.3	-46.7	17.4	0.00e+00	0	42	0	102760448	62	4172
2026-01-28 13:22:47.43	266.06	6.01	-45.2	-46.6	17.5	0.00e+00	0	42	0	105906176	62	4103
2026-01-28 13:22:48.44	266.20	6.05	-45.2	-46.6	17.5	0.00e+00	0	42	0	109051904	62	4110
2026-01-28 13:22:49.45	266.34	6.08	-45.2	-46.6	17.5	0.00e+00	0	42	0	112197632	62	4111
2026-01-28 13:22:50.46	266.48	6.12	-45.2	-46.6	17.5	0.00e+00	0	42	0	115343360	62	4099
2026-01-28 13:22:51.47	266.63	6.15	-45.2	-46.6	17.4	0.00e+00	0	42	0	118489088	62	4124
2026-01-28 13:22:52.48	266.77	6.19	-45.2	-46.5	17.5	0.00e+00	0	42	0	121634816	62	4082
2026-01-28 13:22:53.49	266.91	6.22	-45.2	-46.6	17.5	0.00e+00	0	42	0	124780544	62	4103
2026-01-28 13:22:54.49	267.05	6.25	-45.0	-46.3	17.7	0.00e+00	0	42	0	127926272	62	3987
2026-01-28 13:22:55.50	267.19	6.29	-44.8	-46.1	17.9	0.00e+00	0	42	0	131072000	61	4119
2026-01-28 13:22:56.51	267.33	6.32	-44.6	-45.8	18.1	0.00e+00	0	42	0	134217728	61	3994
2026-01-28 13:22:57.52	267.48	6.36	-44.8	-46.1	17.8	0.00e+00	0	42	0	137363456	61	4114
2026-01-28 13:22:58.53	267.62	6.39	-44.7	-46.0	17.9	0.00e+00	0	42	0	140509184	61	4058
2026-01-28 13:22:59.54	267.76	6.42	-45.1	-46.5	17.4	0.00e+00	0	42	0	143654912	61	4311
2026-01-28 13:23:00.55	267.91	6.46	-45.7	-47.2	16.6	0.00e+00	0	42	0	146800640	61	4691
2026-01-28 13:23:01.56	268.05	6.49	-46.4	-48.1	15.7	0.00e+00	0	42	0	149946368	63	4629
2026-01-28 13:23:02.57	268.20	6.52	-46.8	-48.8	14.8	0.00e+00	0	42	0	153092096	64	4732
2026-01-28 13:23:03.57	268.34	6.56	-47.2	-49.4	14.2	7.00e-07	0	42	0	156237824	65	4761
2026-01-28 13:23:04.58	268.48	6.59	-47.4	-49.6	13.8	3.00e-06	0	42	0	159383552	65	4921
2026-01-28 13:23:05.59	268.63	6.62	-47.5	-49.8	13.6	6.80e-06	0	42	0	162529280	65	5015
2026-01-28 13:23:06.60	268.78	6.66	-47.6	-50.0	13.4	9.10e-06	0	42	0	165675008	65	5122
2026-01-28 13:23:07.61	268.92	6.69	-47.6	-50.1	13.3	1.52e-05	0	42	0	168820736	65	5166
2026-01-28 13:23:08.61	269.07	6.72	-47.8	-50.4	12.9	4.11e-05	0	42	0	171966464	66	5064
2026-01-28 13:23:09.62	269.21	6.75	-47.8	-50.3	13.0	5.79e-05	0	42	0	175112192	66	5028
2026-01-28 13:23:10.63	269.36	6.79	-47.6	-50.0	13.3	2.67e-05	0	42	0	178257920	66	4842
2026-01-28 13:23:11.63	269.51	6.82	-47.7	-50.1	13.3	1.90e-05	0	42	0	181403648	66	4906
2026-01-28 13:23:12.64	269.65	6.85	-47.5	-49.8	13.6	8.30e-06	0	42	0	184549376	66	4746
2026-01-28 13:23:13.65	269.80	6.88	-47.4	-49.7	13.8	1.50e-06	0	42	0	187695104	66	4674
2026-01-28 13:23:14.66	269.95	6.92	-47.3	-49.5	14.1	0.00e+00	0	42	0	190840832	66	4547
2026-01-28 13:23:15.67	270.10	6.95	-47.3	-49.5	14.1	7.00e-07	0	42	0	193986560	66	4554
2026-01-28 13:23:16.67	270.25	6.98	-46.6	-48.5	15.1	0.00e+00	0	42	0	197132288	65	4303
2026-01-28 13:23:17.68	270.40	7.01	-46.0	-47.7	15.8	0.00e+00	0	42	0	200278016	64	4172
2026-01-28 13:23:18.69	270.54	7.04	-45.7	-47.2	16.5	0.00e+00	0	42	0	203423744	63	4178
2026-01-28 13:23:19.70	270.69	7.07	-45.3	-46.7	17.1	0.00e+00	0	42	0	206569472	62	4162
2026-01-28 13:23:20.71	270.84	7.10	-45.1	-46.5	17.3	0.00e+00	0	43	0	209715200	62	4084
2026-01-28 13:23:21.71	270.99	7.14	-45.0	-46.3	17.6	0.00e+00	0	42	0	212860928	61	4210
2026-01-28 13:23:22.72	271.14	7.17	-44.9	-46.2	17.7	0.00e+00	0	42	0	216006656	61	4180
2026-01-28 13:23:23.73	271.30	7.20	-44.9	-46.2	17.8	0.00e+00	0	42	0	219152384	61	4159
2026-01-28 13:23:24.74	271.45	7.23	-45.0	-46.3	17.7	0.00e+00	0	42	0	222298112	61	4211
2026-01-28 13:23:25.75	271.60	7.26	-44.9	-46.2	17.9	0.00e+00	0	42	0	225443840	61	4150
2026-01-28 13:23:26.76	271.75	7.29	-44.8	-46.1	17.9	0.00e+00	0	42	0	228589568	61	4132
2026-01-28 13:23:27.77	271.90	7.32	-44.9	-46.2	17.9	0.00e+00	0	42	0	231735296	61	4165
2026-01-28 13:23:28.77	272.05	7.35	-44.8	-46.0	18.1	0.00e+00	0	42	0	234881024	61	4091
2026-01-28 13:23:29.78	272.21	7.38	-44.8	-46.0	18.0	0.00e+00	0	42	0	238026752	61	4093
2026-01-28 13:23:30.79	272.36	7.41	-44.7	-46.0	18.1	0.00e+00	0	42	0	241172480	61	4069
2026-01-28 13:23:31.79	272.51	7.44	-44.8	-46.1	18.1	0.00e+00	0	42	0	244318208	61	4103
2026-01-28 13:23:32.80	272.67	7.47	-44.6	-45.9	18.3	0.00e+00	0	42	0	247463936	61	4012
2026-01-28 13:23:33.81	272.82	7.50	-44.8	-46.1	18.0	0.00e+00	0	42	0	250609664	61	4101
2026-01-28 13:23:34.82	272.97	7.53	-44.7	-45.9	18.2	0.00e+00	0	42	0	253755392	61	4032
2026-01-28 13:23:35.83	273.13	7.56	-44.7	-45.9	18.2	0.00e+00	0	42	0	256901120	61	4043
2026-01-28 13:23:36.83	273.28	7.59	-44.5	-45.7	18.5	0.00e+00	0	42	0	260046848	61	3919
2026-01-28 13:23:37.84	273.44	7.61	-44.6	-45.8	18.3	0.00e+00	0	42	0	263192576	60	4236
2026-01-28 13:23:38.85	273.59	7.64	-44.7	-45.9	18.2	0.00e+00	0	42	0	266338304	60	4255
2026-01-28 13:23:39.86	273.75	7.67	-44.6	-45.8	18.3	0.00e+00	0	42	0	269484032	60	4195
2026-01-28 13:23:40.87	273.90	7.70	-44.6	-45.8	18.3	0.00e+00	0	42	0	272629760	60	4226
2026-01-28 13:23:41.88	274.06	7.73	-44.5	-45.7	18.5	0.00e+00	0	42	0	275775488	60	4150
2026-01-28 13:23:42.89	274.22	7.76	-44.5	-45.7	18.4	0.00e+00	0	42	0	278921216	60	4180
2026-01-28 13:23:43.89	274.37	7.79	-44.6	-45.8	18.4	0.00e+00	0	42	0	282066944	60	4195
2026-01-28 13:23:44.90	274.53	7.81	-44.5	-45.7	18.4	0.00e+00	0	42	0	285212672	60	4187
2026-01-28 13:23:45.91	274.69	7.84	-44.6	-45.8	18.3	0.00e+00	0	42	0	288358400	60	4222
2026-01-28 13:23:46.92	274.85	7.87	-44.7	-45.9	18.2	0.00e+00	0	42	0	291504128	60	4270
2026-01-28 13:23:47.93	275.00	7.90	-44.7	-45.9	18.2	0.00e+00	0	42	0	294649856	60	4286
2026-01-28 13:23:48.93	275.16	7.92	-44.7	-46.0	18.2	0.00e+00	0	42	0	297795584	60	4305
2026-01-28 13:23:49.94	275.32	7.95	-44.8	-46.0	18.1	0.00e+00	0	42	0	300941312	60	4328
2026-01-28 13:23:50.95	275.48	7.98	-44.7	-45.9	18.2	0.00e+00	0	42	0	304087040	60	4285
2026-01-28 13:23:51.96	275.64	8.00	-44.5	-45.7	18.4	0.00e+00	0	42	0	307232768	60	4185
2026-01-28 13:23:52.97	275.80	8.03	-44.6	-45.8	18.4	0.00e+00	0	42	0	310378496	60	4222
2026-01-28 13:23:53.98	275.96	8.06	-44.8	-46.0	18.2	0.00e+00	0	42	0	313524224	60	4315
2026-01-28 13:23:54.99	276.12	8.08	-44.8	-46.1	18.1	0.00e+00	0	42	0	316669952	60	4368
2026-01-28 13:23:55.99	276.28	8.11	-44.7	-45.9	18.2	0.00e+00	0	42	0	319815680	60	4291
2026-01-28 13:23:57.00	276.44	8.14	-44.7	-45.9	18.3	0.00e+00	0	42	0	322961408	60	4277
2026-01-28 13:23:58.01	276.60	8.16	-44.6	-45.8	18.4	0.00e+00	0	42	0	326107136	60	4225
2026-01-28 13:23:59.02	276.76	8.19	-44.6	-45.8	18.3	0.00e+00	0	42	0	329252864	60	4225
2026-01-28 13:24:00.03	276.92	8.21	-44.7	-45.9	18.3	0.00e+00	0	42	0	332398592	60	4263
2026-01-28 13:24:01.03	277.08	8.24	-44.5	-45.7	18.5	0.00e+00	0	42	0	335544320	60	4147
2026-01-28 13:24:02.04	277.24	8.26	-44.6	-45.7	18.5	0.00e+00	0	42	0	338690048	60	4188
2026-01-28 13:24:03.04	277.40	8.29	-44.6	-45.7	18.5	0.00e+00	0	42	0	341835776	60	4187
2026-01-28 13:24:04.05	277.57	8.31	-44.5	-45.7	18.5	0.00e+00	0	42	0	344981504	60	4151
2026-01-28 13:24:05.05	277.73	8.34	-44.3	-45.5	18.7	0.00e+00	0	42	0	348127232	60	4072
2026-01-28 13:24:06.06	277.89	8.36	-44.2	-45.3	18.8	0.00e+00	0	42	0	351272960	60	3993
2026-01-28 13:24:07.07	278.05	8.39	-44.4	-45.6	18.6	0.00e+00	0	42	0	354418688	60	4102
2026-01-28 13:24:08.08	278.22	8.41	-44.4	-45.5	18.7	0.00e+00	0	42	0	357564416	60	4075
2026-01-28 13:24:09.09	278.38	8.43	-44.5	-45.7	18.6	0.00e+00	0	43	0	360710144	60	4151
2026-01-28 13:24:10.10	278.55	8.46	-44.4	-45.5	18.7	0.00e+00	0	43	0	363855872	60	4077
2026-01-28 13:24:11.11	278.71	8.48	-44.3	-45.4	18.8	0.00e+00	0	42	0	367001600	60	4033
2026-01-28 13:24:12.12	278.87	8.51	-44.2	-45.3	18.9	0.00e+00	0	42	0	370147328	60	4001
2026-01-28 13:24:13.12	279.04	8.53	-44.3	-45.4	18.8	0.00e+00	0	42	0	373293056	60	4031
2026-01-28 13:24:14.13	279.20	8.55	-44.3	-45.4	18.8	0.00e+00	0	42	0	376438784	60	4048
2026-01-28 13:24:15.14	279.37	8.57	-44.3	-45.5	18.8	0.00e+00	0	42	0	379584512	60	4055
2026-01-28 13:24:16.15	279.53	8.60	-44.4	-45.5	18.7	0.00e+00	0	42	0	382730240	60	4097
2026-01-28 13:24:17.16	279.70	8.62	-44.4	-45.5	18.7	0.00e+00	0	42	0	385875968	60	4080
2026-01-28 13:24:18.17	279.87	8.64	-44.3	-45.5	18.8	0.00e+00	0	42	0	389021696	60	4052
2026-01-28 13:24:19.17	280.03	8.66	-44.4	-45.5	18.7	0.00e+00	0	42	0	392167424	60	4092
2026-01-28 13:24:20.18	280.20	8.69	-44.4	-45.5	18.7	0.00e+00	0	42	0	395313152	60	4096
2026-01-28 13:24:21.19	280.36	8.71	-44.3	-45.5	18.8	0.00e+00	0	42	0	398458880	60	4052
2026-01-28 13:24:22.20	280.53	8.73	-44.4	-45.6	18.7	0.00e+00	0	42	0	401604608	60	4111
2026-01-28 13:24:23.21	280.70	8.75	-44.5	-45.6	18.6	0.00e+00	0	42	0	404750336	60	4143
2026-01-28 13:24:24.21	280.86	8.77	-44.4	-45.5	18.8	0.00e+00	0	42	0	407896064	60	4069
2026-01-28 13:24:25.22	281.03	8.79	-44.5	-45.7	18.7	0.00e+00	0	42	0	411041792	60	4154
2026-01-28 13:24:26.23	281.20	8.81	-44.5	-45.7	18.6	0.00e+00	0	42	0	414187520	60	4164
2026-01-28 13:24:27.23	281.37	8.83	-44.5	-45.6	18.6	0.00e+00	0	42	0	417333248	60	4139
2026-01-28 13:24:28.24	281.54	8.85	-44.5	-45.6	18.6	0.00e+00	0	42	0	420478976	60	4140
2026-01-28 13:24:29.24	281.70	8.87	-44.5	-45.6	18.7	0.00e+00	0	42	0	423624704	60	4125
2026-01-28 13:24:30.25	281.87	8.89	-44.4	-45.5	18.8	0.00e+00	0	42	0	426770432	60	4081
2026-01-28 13:24:31.26	282.04	8.91	-44.3	-45.5	18.9	0.00e+00	0	42	0	429916160	60	4052
2026-01-28 13:24:32.27	282.21	8.93	-44.3	-45.5	18.8	0.00e+00	0	42	0	433061888	60	4055
2026-01-28 13:24:33.28	282.38	8.95	-44.4	-45.5	18.8	0.00e+00	0	42	0	436207616	60	4093
2026-01-28 13:24:34.29	282.55	8.97	-44.4	-45.5	18.8	0.00e+00	0	42	0	439353344	60	4068
2026-01-28 13:24:35.30	282.72	8.99	-44.5	-45.6	18.7	0.00e+00	0	42	0	442499072	60	4135
2026-01-28 13:24:36.31	282.89	9.01	-44.4	-45.5	18.8	0.00e+00	0	42	0	445644800	60	4074
2026-01-28 13:24:37.31	283.06	9.03	-44.5	-45.7	18.7	0.00e+00	0	43	0	448790528	60	4146
2026-01-28 13:24:38.32	283.23	9.05	-44.5	-45.7	18.7	0.00e+00	0	42	0	451936256	60	4146
2026-01-28 13:24:39.33	283.40	9.07	-44.6	-45.7	18.7	0.00e+00	0	42	0	455081984	60	4185
2026-01-28 13:24:40.34	283.57	9.08	-44.5	-45.7	18.7	0.00e+00	0	42	0	458227712	60	4154
2026-01-28 13:24:41.35	283.74	9.10	-44.4	-45.5	18.9	0.00e+00	0	42	0	461373440	60	4065
2026-01-28 13:24:42.36	283.91	9.12	-44.3	-45.4	18.9	0.00e+00	0	42	0	464519168	60	4044
2026-01-28 13:24:43.37	284.08	9.14	-44.3	-45.5	18.9	0.00e+00	0	42	0	467664896	60	4060
2026-01-28 13:24:44.37	284.25	9.15	-44.4	-45.5	18.9	0.00e+00	0	42	0	470810624	60	4088
2026-01-28 13:24:45.38	284.43	9.17	-44.4	-45.6	18.8	0.00e+00	0	42	0	473956352	60	4110
2026-01-28 13:24:46.39	284.60	9.19	-44.5	-45.6	18.8	0.00e+00	0	42	0	477102080	60	4144
2026-01-28 13:24:47.40	284.77	9.20	-44.5	-45.6	18.8	0.00e+00	0	43	0	480247808	60	4138
2026-01-28 13:24:48.41	284.94	9.22	-44.6	-45.8	18.7	0.00e+00	0	43	0	483393536	60	4197
2026-01-28 13:24:49.42	285.12	9.24	-44.7	-45.8	18.6	0.00e+00	0	42	0	486539264	60	4234
2026-01-28 13:24:50.43	285.29	9.25	-44.8	-46.0	18.4	0.00e+00	0	42	0	489684992	60	4310
2026-01-28 13:24:51.43	285.46	9.27	-44.7	-45.9	18.6	0.00e+00	0	42	0	492830720	60	4248
2026-01-28 13:24:52.44	285.63	9.28	-44.6	-45.8	18.7	0.00e+00	0	42	0	495976448	60	4199
2026-01-28 13:24:53.45	285.81	9.30	-44.6	-45.8	18.6	0.00e+00	0	42	0	499122176	60	4225
2026-01-28 13:24:54.46	285.98	9.31	-44.6	-45.8	18.7	0.00e+00	0	42	0	502267904	60	4223
2026-01-28 13:24:55.47	286.16	9.33	-44.6	-45.7	18.7	0.00e+00	0	43	0	505413632	60	4192
2026-01-28 13:24:56.48	286.33	9.34	-44.5	-45.6	18.8	0.00e+00	0	42	0	508559360	60	4144
2026-01-28 13:24:57.48	286.50	9.36	-44.5	-45.6	18.8	0.00e+00	0	42	0	511705088	60	4132
2026-01-28 13:24:58.49	286.68	9.37	-44.4	-45.5	18.9	0.00e+00	0	42	0	514850816	60	4083
2026-01-28 13:24:59.50	286.85	9.38	-44.4	-45.6	18.9	0.00e+00	0	42	0	517996544	60	4115
2026-01-28 13:25:00.51	287.03	9.40	-44.4	-45.5	19.0	0.00e+00	0	42	0	521142272	60	4063
2026-01-28 13:25:01.51	287.20	9.41	-44.4	-45.6	18.9	0.00e+00	0	42	0	524288000	60	4099
2026-01-28 13:25:02.52	287.37	9.42	-44.5	-45.6	18.8	0.00e+00	0	42	0	527433728	60	4131
2026-01-28 13:25:03.53	287.55	9.44	-44.5	-45.7	18.7	0.00e+00	0	42	0	530579456	60	4169
2026-01-28 13:25:04.53	287.72	9.45	-44.5	-45.7	18.8	0.00e+00	0	42	0	533725184	60	4165
2026-01-28 13:25:05.53	287.90	9.46	-44.4	-45.5	19.0	0.00e+00	0	42	0	536870912	60	4073
2026-01-28 13:25:06.54	288.07	9.48	-44.6	-45.7	18.8	0.00e+00	0	42	0	540016640	60	4189
2026-01-28 13:25:07.55	288.25	9.49	-44.5	-45.6	18.9	0.00e+00	0	42	0	543162368	60	4130
2026-01-28 13:25:08.56	288.42	9.50	-44.3	-45.4	19.0	0.00e+00	0	42	0	546308096	60	4051
2026-01-28 13:25:09.58	288.60	9.51	-44.4	-45.5	19.0	0.00e+00	0	42	0	549453824	60	4081
2026-01-28 13:25:10.58	288.77	9.52	-44.4	-45.5	19.0	0.00e+00	0	42	0	552599552	60	4069
2026-01-28 13:25:11.59	288.95	9.53	-44.4	-45.6	18.9	0.00e+00	0	42	0	555745280	60	4104
2026-01-28 13:25:12.60	289.13	9.54	-44.4	-45.5	18.9	0.00e+00	0	42	0	558891008	60	4090
2026-01-28 13:25:13.61	289.30	9.56	-44.6	-45.7	18.7	0.00e+00	0	42	0	562036736	60	4176
2026-01-28 13:25:14.61	289.48	9.57	-44.5	-45.7	18.8	0.00e+00	0	43	0	565182464	60	4158
2026-01-28 13:25:15.62	289.65	9.58	-44.5	-45.6	18.8	0.00e+00	0	42	0	568328192	60	4138
2026-01-28 13:25:16.63	289.83	9.59	-44.6	-45.7	18.8	0.00e+00	0	42	0	572522496	60	4180
2026-01-28 13:25:17.64	290.01	9.60	-44.5	-45.6	18.9	0.00e+00	0	42	0	575668224	60	4113
2026-01-28 13:25:18.65	290.19	9.61	-44.5	-45.6	18.9	0.00e+00	0	42	0	577765376	60	4136
2026-01-28 13:25:19.66	290.36	9.61	-44.5	-45.6	18.9	0.00e+00	0	43	0	580911104	60	4130
2026-01-28 13:25:20.67	290.54	9.62	-44.3	-45.4	19.1	0.00e+00	0	42	0	584056832	60	4037
2026-01-28 13:25:21.68	290.72	9.63	-44.4	-45.5	19.1	0.00e+00	0	42	0	587202560	60	4058
2026-01-28 13:25:22.69	290.89	9.64	-44.3	-45.4	19.1	0.00e+00	0	42	0	590348288	60	4034
2026-01-28 13:25:23.69	291.07	9.65	-44.3	-45.4	19.2	0.00e+00	0	42	0	593494016	60	4024
2026-01-28 13:25:24.70	291.25	9.66	-44.4	-45.5	19.1	0.00e+00	0	42	0	596639744	60	4056
2026-01-28 13:25:25.71	291.43	9.67	-44.4	-45.5	19.0	0.00e+00	0	42	0	599785472	60	4080
2026-01-28 13:25:26.72	291.60	9.67	-44.5	-45.6	18.9	0.00e+00	0	42	0	602931200	60	4144
2026-01-28 13:25:27.72	291.78	9.68	-44.5	-45.7	18.9	0.00e+00	0	42	0	606076928	60	4149
2026-01-28 13:25:28.73	291.96	9.69	-44.5	-45.6	18.9	0.00e+00	0	42	0	610271232	60	4141
2026-01-28 13:25:29.74	292.14	9.70	-44.5	-45.6	19.0	0.00e+00	0	42	0	613416960	60	4111
2026-01-28 13:25:30.75	292.31	9.70	-44.5	-45.7	18.9	0.00e+00	0	42	0	616562688	60	4155
2026-01-28 13:25:31.76	292.49	9.71	-44.3	-45.4	19.1	0.00e+00	0	43	0	619708416	60	4047
2026-01-28 13:25:32.77	292.67	9.71	-44.2	-45.3	19.2	0.00e+00	0	42	0	622854144	60	3991
2026-01-28 13:25:33.77	292.85	9.72	-44.4	-45.5	19.0	0.00e+00	0	42	0	624951296	60	4071
2026-01-28 13:25:34.78	293.02	9.73	-44.2	-45.3	19.2	0.00e+00	0	42	0	628097024	60	3980
2026-01-28 13:25:35.79	293.20	9.73	-44.2	-45.3	19.1	0.00e+00	0	42	0	631242752	60	3985
2026-01-28 13:25:36.80	293.38	9.74	-44.2	-45.2	19.2	0.00e+00	0	42	0	634388480	60	3958
2026-01-28 13:25:37.81	293.56	9.74	-44.1	-45.2	19.3	0.00e+00	0	42	0	637534208	60	3914
2026-01-28 13:25:38.81	293.74	9.75	-44.1	-45.2	19.3	0.00e+00	0	42	0	640679936	60	3928
2026-01-28 13:25:39.82	293.92	9.75	-44.2	-45.3	19.2	0.00e+00	0	42	0	643825664	60	3977
2026-01-28 13:25:40.83	294.09	9.76	-44.2	-45.2	19.2	0.00e+00	0	42	0	648019968	60	3951
2026-01-28 13:25:41.84	294.27	9.76	-44.2	-45.3	19.1	0.00e+00	0	42	0	651165696	60	3980
2026-01-28 13:25:42.85	294.45	9.76	-44.2	-45.3	19.1	0.00e+00	0	42	0	654311424	60	3976
2026-01-28 13:25:43.86	294.63	9.77	-44.1	-45.2	19.3	0.00e+00	0	42	0	657457152	60	3918
2026-01-28 13:25:44.87	294.81	9.77	-44.1	-45.2	19.2	0.00e+00	0	42	0	660602880	60	3938
2026-01-28 13:25:45.88	294.99	9.77	-44.2	-45.3	19.1	0.00e+00	0	42	0	663748608	60	3971
2026-01-28 13:25:46.88	295.17	9.78	-44.1	-45.2	19.1	0.00e+00	0	42	0	666894336	60	3953
2026-01-28 13:25:47.89	295.35	9.78	-44.2	-45.4	19.0	0.00e+00	0	42	0	670040064	60	4005
2026-01-28 13:25:48.90	295.52	9.78	-44.2	-45.3	19.1	0.00e+00	0	42	0	672137216	60	3967
2026-01-28 13:25:49.91	295.70	9.78	-44.2	-45.3	19.1	0.00e+00	0	42	0	675282944	60	3986
2026-01-28 13:25:50.92	295.88	9.79	-44.0	-45.1	19.3	0.00e+00	0	42	0	678428672	60	3890
2026-01-28 13:25:51.93	296.06	9.79	-44.0	-45.1	19.3	0.00e+00	0	42	0	682622976	60	3880
2026-01-28 13:25:52.94	296.24	9.79	-44.1	-45.2	19.2	0.00e+00	0	42	0	685768704	60	3916
2026-01-28 13:25:53.95	296.42	9.79	-44.2	-45.3	19.1	0.00e+00	0	43	0	688914432	60	3967
2026-01-28 13:25:54.96	296.60	9.79	-44.1	-45.2	19.2	0.00e+00	0	42	0	692060160	60	3917
2026-01-28 13:25:55.97	296.78	9.79	-44.1	-45.2	19.2	0.00e+00	0	42	0	695205888	60	3934
2026-01-28 13:25:56.98	296.96	9.79	-44.1	-45.2	19.2	0.00e+00	0	42	0	698351616	60	3920
2026-01-28 13:25:57.99	297.14	9.79	-44.4	-45.5	19.1	0.00e+00	0	42	0	701497344	59	4330
2026-01-28 13:25:59.00	297.32	9.79	-44.5	-45.6	19.0	0.00e+00	0	42	0	704643072	59	4389
2026-01-28 13:26:00.01	297.49	9.79	-44.5	-45.7	18.9	0.00e+00	0	42	0	707788800	59	4412
2026-01-28 13:26:01.01	297.67	9.79	-44.5	-45.7	19.0	0.00e+00	0	42	0	710934528	59	4402
2026-01-28 13:26:02.02	297.85	9.79	-44.6	-45.7	18.9	0.00e+00	0	42	0	714080256	59	4419
2026-01-28 13:26:03.03	298.03	9.79	-44.7	-45.8	18.8	0.00e+00	0	42	0	717225984	59	4490
2026-01-28 13:26:04.04	298.21	9.79	-44.5	-45.6	19.0	0.00e+00	0	43	0	720371712	59	4383
2026-01-28 13:26:05.04	298.39	9.79	-44.4	-45.5	19.2	0.00e+00	0	42	0	723517440	59	4303
2026-01-28 13:26:06.05	298.57	9.79	-44.4	-45.5	19.1	0.00e+00	0	42	0	726663168	59	4328
2026-01-28 13:26:07.05	298.74	9.78	-44.4	-45.6	19.0	0.00e+00	0	42	0	729808896	59	4349
2026-01-28 13:26:08.06	298.92	9.78	-44.4	-45.5	19.0	0.00e+00	0	43	0	732954624	59	4334
2026-01-28 13:26:09.07	299.10	9.78	-44.5	-45.7	19.0	0.00e+00	0	42	0	736100352	59	4396
2026-01-28 13:26:10.08	299.28	9.78	-44.5	-45.6	19.0	0.00e+00	0	42	0	739246080	59	4369
2026-01-28 13:26:11.09	299.46	9.77	-44.5	-45.6	19.0	0.00e+00	0	42	0	742391808	59	4371
2026-01-28 13:26:12.09	299.64	9.77	-44.5	-45.7	19.0	0.00e+00	0	42	0	745537536	59	4403
2026-01-28 13:26:13.10	299.82	9.77	-44.5	-45.7	19.0	0.00e+00	0	42	0	748683264	59	4399
2026-01-28 13:26:14.11	299.99	9.76	-44.4	-45.6	19.1	0.00e+00	0	43	0	751828992	59	4347
2026-01-28 13:26:15.12	300.17	9.76	-44.4	-45.5	19.1	0.00e+00	0	42	0	754974720	59	4321
2026-01-28 13:26:16.13	300.35	9.75	-44.3	-45.4	19.2	0.00e+00	0	42	0	758120448	59	4284
2026-01-28 13:26:17.13	300.53	9.75	-44.4	-45.5	19.1	0.00e+00	0	42	0	761266176	59	4304
2026-01-28 13:26:18.14	300.71	9.75	-44.4	-45.5	19.2	0.00e+00	0	42	0	764411904	59	4293
2026-01-28 13:26:19.15	300.89	9.74	-44.3	-45.4	19.2	0.00e+00	0	42	0	767557632	59	4287
2026-01-28 13:26:20.16	301.06	9.74	-44.3	-45.4	19.2	0.00e+00	0	42	0	770703360	59	4272
2026-01-28 13:26:21.17	301.24	9.73	-44.4	-45.5	19.1	0.00e+00	0	42	0	773849088	59	4294
2026-01-28 13:26:22.18	301.42	9.72	-44.4	-45.5	19.1	0.00e+00	0	42	0	776994816	59	4337
2026-01-28 13:26:23.19	301.60	9.72	-44.2	-45.3	19.3	0.00e+00	0	42	0	780140544	59	4221
2026-01-28 13:26:24.20	301.78	9.71	-44.2	-45.2	19.4	0.00e+00	0	42	0	783286272	59	4182
2026-01-28 13:26:25.21	301.96	9.71	-44.3	-45.4	19.3	0.00e+00	0	42	0	786432000	59	4253
2026-01-28 13:26:26.22	302.13	9.70	-44.1	-45.2	19.4	0.00e+00	0	42	0	789577728	59	4161
2026-01-28 13:26:27.23	302.31	9.69	-44.1	-45.2	19.4	0.00e+00	0	42	0	792723456	59	4154
2026-01-28 13:26:28.24	302.49	9.69	-44.3	-45.4	19.2	0.00e+00	0	42	0	795869184	59	4267
2026-01-28 13:26:29.24	302.67	9.68	-44.4	-45.5	19.2	0.00e+00	0	42	0	799014912	59	4307
2026-01-28 13:26:30.25	302.84	9.67	-44.4	-45.6	19.1	0.00e+00	0	42	0	802160640	59	4345
2026-01-28 13:26:31.25	303.02	9.66	-44.5	-45.6	19.1	0.00e+00	0	42	0	805306368	59	4355
2026-01-28 13:26:32.26	303.20	9.66	-44.5	-45.6	19.0	0.00e+00	0	42	0	808452096	59	4367
2026-01-28 13:26:33.27	303.37	9.65	-44.3	-45.4	19.3	0.00e+00	0	42	0	811597824	59	4251
2026-01-28 13:26:34.28	303.55	9.64	-44.2	-45.3	19.3	0.00e+00	0	42	0	814743552	59	4208
2026-01-28 13:26:35.29	303.73	9.63	-44.2	-45.3	19.3	0.00e+00	0	42	0	817889280	59	4221
2026-01-28 13:26:36.30	303.91	9.62	-44.3	-45.4	19.2	0.00e+00	0	42	0	821035008	59	4250
2026-01-28 13:26:37.31	304.08	9.61	-44.1	-45.2	19.3	0.00e+00	0	42	0	824180736	59	4186
2026-01-28 13:26:38.32	304.26	9.60	-44.3	-45.4	19.2	0.00e+00	0	42	0	827326464	59	4274
2026-01-28 13:26:39.33	304.44	9.59	-44.3	-45.4	19.1	0.00e+00	0	42	0	830472192	59	4288
2026-01-28 13:26:40.34	304.61	9.58	-44.3	-45.4	19.2	0.00e+00	0	42	0	833617920	59	4278
2026-01-28 13:26:41.35	304.79	9.57	-44.4	-45.5	19.1	0.00e+00	0	42	0	836763648	59	4311
2026-01-28 13:26:42.36	304.97	9.56	-44.4	-45.6	19.0	0.00e+00	0	43	0	839909376	59	4346
2026-01-28 13:26:43.37	305.14	9.55	-44.3	-45.4	19.2	0.00e+00	0	42	0	843055104	59	4249
2026-01-28 13:26:44.38	305.32	9.54	-44.3	-45.4	19.2	0.00e+00	0	42	0	846200832	59	4248
2026-01-28 13:26:45.39	305.49	9.53	-44.3	-45.4	19.1	0.00e+00	0	42	0	849346560	59	4260
2026-01-28 13:26:46.40	305.67	9.52	-44.1	-45.2	19.3	0.00e+00	0	42	0	852492288	59	4160
2026-01-28 13:26:47.41	305.85	9.51	-44.2	-45.3	19.2	0.00e+00	0	42	0	855638016	59	4206
2026-01-28 13:26:48.41	306.02	9.50	-44.3	-45.4	19.1	0.00e+00	0	42	0	858783744	59	4256
2026-01-28 13:26:49.42	306.20	9.48	-44.2	-45.3	19.2	0.00e+00	0	42	0	861929472	59	4223
2026-01-28 13:26:50.43	306.37	9.47	-44.3	-45.4	19.1	0.00e+00	0	42	0	865075200	59	4253
2026-01-28 13:26:51.44	306.55	9.46	-44.3	-45.4	19.1	0.00e+00	0	42	0	868220928	59	4255
2026-01-28 13:26:52.45	306.72	9.45	-44.3	-45.4	19.1	0.00e+00	0	42	0	871366656	59	4252
2026-01-28 13:26:53.45	306.89	9.43	-44.1	-45.2	19.3	0.00e+00	0	42	0	874512384	59	4159
2026-01-28 13:26:54.45	307.07	9.42	-44.3	-45.4	19.0	0.00e+00	0	42	0	877658112	59	4289
2026-01-28 13:26:55.47	307.24	9.41	-44.2	-45.3	19.3	0.00e+00	0	42	0	880803840	59	4195
2026-01-28 13:26:56.47	307.42	9.39	-44.0	-45.1	19.4	0.00e+00	0	42	0	883949568	59	4103
2026-01-28 13:26:57.48	307.59	9.38	-44.2	-45.3	19.3	0.00e+00	0	42	0	887095296	59	4194
2026-01-28 13:26:58.49	307.76	9.37	-44.1	-45.2	19.4	0.00e+00	0	43	0	890241024	59	4164
2026-01-28 13:26:59.50	307.94	9.35	-44.1	-45.2	19.3	0.00e+00	0	43	0	893386752	59	4170
2026-01-28 13:27:00.51	308.11	9.34	-44.3	-45.4	19.1	0.00e+00	0	42	0	896532480	59	4286
2026-01-28 13:27:01.52	308.29	9.32	-44.3	-45.5	19.1	0.00e+00	0	43	0	899678208	59	4300
2026-01-28 13:27:02.53	308.46	9.31	-44.5	-45.6	18.9	0.00e+00	0	42	0	902823936	59	4376
2026-01-28 13:27:03.53	308.63	9.29	-44.5	-45.7	18.9	0.00e+00	0	43	0	905969664	59	4392
2026-01-28 13:27:04.53	308.80	9.28	-44.6	-45.7	18.8	0.00e+00	0	42	0	909115392	59	4436
2026-01-28 13:27:05.54	308.98	9.26	-44.2	-45.3	18.9	0.00e+00	0	42	0	912261120	60	4002
2026-01-28 13:27:06.55	309.15	9.25	-44.2	-45.4	18.8	0.00e+00	0	42	0	915406848	60	4023
2026-01-28 13:27:07.56	309.32	9.23	-44.2	-45.3	18.9	0.00e+00	0	42	0	918552576	60	3970
2026-01-28 13:27:08.57	309.49	9.22	-44.2	-45.3	18.9	0.00e+00	0	42	0	921698304	60	3977
2026-01-28 13:27:09.58	309.67	9.20	-44.2	-45.3	18.8	0.00e+00	0	42	0	924844032	60	3977
2026-01-28 13:27:10.58	309.84	9.18	-44.2	-45.3	18.8	0.00e+00	0	42	0	927989760	60	3993
2026-01-28 13:27:11.59	310.01	9.17	-44.3	-45.5	18.7	0.00e+00	0	42	0	931135488	60	4062
2026-01-28 13:27:12.60	310.18	9.15	-44.3	-45.4	18.7	0.00e+00	0	42	0	934281216	60	4044
2026-01-28 13:27:13.61	310.35	9.13	-44.3	-45.5	18.7	0.00e+00	0	42	0	937426944	60	4075
2026-01-28 13:27:14.62	310.52	9.12	-44.3	-45.5	18.7	0.00e+00	0	42	0	940572672	60	4062
2026-01-28 13:27:15.62	310.69	9.10	-44.2	-45.3	18.8	0.00e+00	0	42	0	943718400	60	3991
2026-01-28 13:27:16.63	310.86	9.08	-44.3	-45.4	18.8	0.00e+00	0	42	0	946864128	60	4040
2026-01-28 13:27:17.64	311.03	9.06	-44.2	-45.3	18.8	0.00e+00	0	42	0	950009856	60	4002
2026-01-28 13:27:18.65	311.20	9.04	-44.3	-45.4	18.8	0.00e+00	0	42	0	953155584	60	4042
2026-01-28 13:27:19.66	311.37	9.03	-44.3	-45.5	18.7	0.00e+00	0	43	0	956301312	60	4053
2026-01-28 13:27:20.66	311.54	9.01	-44.2	-45.4	18.8	0.00e+00	0	42	0	959447040	60	4029
2026-01-28 13:27:21.67	311.71	8.99	-44.2	-45.4	18.7	0.00e+00	0	43	0	962592768	60	4024
2026-01-28 13:27:22.68	311.88	8.97	-44.3	-45.4	18.7	0.00e+00	0	42	0	965738496	60	4044
2026-01-28 13:27:23.69	312.05	8.95	-44.2	-45.3	18.8	0.00e+00	0	42	0	968884224	60	4002
2026-01-28 13:27:24.69	312.22	8.93	-44.2	-45.4	18.8	0.00e+00	0	42	0	972029952	60	4015
2026-01-28 13:27:25.70	312.39	8.91	-44.3	-45.5	18.7	0.00e+00	0	43	0	975175680	60	4054
2026-01-28 13:27:26.71	312.56	8.89	-44.2	-45.4	18.8	0.00e+00	0	42	0	978321408	60	4022
2026-01-28 13:27:27.72	312.72	8.87	-44.2	-45.4	18.7	0.00e+00	0	42	0	981467136	60	4020
2026-01-28 13:27:28.72	312.89	8.85	-44.4	-45.5	18.6	0.00e+00	0	42	0	984612864	60	4087
2026-01-28 13:27:29.73	313.06	8.83	-44.3	-45.5	18.6	0.00e+00	0	42	0	987758592	60	4062
2026-01-28 13:27:30.74	313.23	8.81	-44.3	-45.5	18.6	0.00e+00	0	42	0	990904320	60	4063
2026-01-28 13:27:31.75	313.39	8.79	-44.5	-45.7	18.5	0.00e+00	0	42	0	994050048	60	4157
2026-01-28 13:27:32.75	313.56	8.77	-44.3	-45.5	18.7	0.00e+00	0	43	0	997195776	60	4066
2026-01-28 13:27:33.77	313.73	8.75	-44.3	-45.4	18.7	0.00e+00	0	43	0	1000341504	60	4050
2026-01-28 13:27:34.78	313.90	8.73	-44.2	-45.4	18.7	0.00e+00	0	42	0	1003487232	60	4024
2026-01-28 13:27:35.78	314.06	8.70	-44.1	-45.2	18.9	0.00e+00	0	42	0	1006632960	60	3946
2026-01-28 13:27:36.79	314.23	8.68	-44.1	-45.2	18.9	0.00e+00	0	42	0	1009778688	60	3957
2026-01-28 13:27:37.80	314.39	8.66	-44.1	-45.2	18.9	0.00e+00	0	43	0	1012924416	60	3933
2026-01-28 13:27:38.81	314.56	8.64	-44.5	-45.7	18.8	0.00e+00	0	43	0	1016070144	59	4403
2026-01-28 13:27:39.81	314.72	8.62	-44.4	-45.6	18.8	0.00e+00	0	42	0	1019215872	59	4371
2026-01-28 13:27:40.82	314.89	8.59	-44.3	-45.5	18.9	0.00e+00	0	42	0	1022361600	59	4300
2026-01-28 13:27:41.83	315.05	8.57	-44.3	-45.4	19.0	0.00e+00	0	42	0	1025507328	59	4283
2026-01-28 13:27:42.83	315.22	8.55	-44.3	-45.4	19.0	0.00e+00	0	42	0	1028653056	59	4288
2026-01-28 13:27:43.84	315.38	8.53	-44.2	-45.3	19.0	0.00e+00	0	42	0	1031798784	59	4240
2026-01-28 13:27:44.85	315.55	8.50	-44.1	-45.3	19.1	0.00e+00	0	42	0	1034944512	59	4200
2026-01-28 13:27:45.86	315.71	8.48	-44.2	-45.3	19.1	0.00e+00	0	42	0	1038090240	59	4215
2026-01-28 13:27:46.87	315.87	8.46	-44.3	-45.5	18.9	0.00e+00	0	42	0	1041235968	59	4292
2026-01-28 13:27:47.88	316.04	8.43	-44.4	-45.5	19.0	0.00e+00	0	42	0	1044381696	59	4324
2026-01-28 13:27:48.88	316.20	8.41	-44.2	-45.3	19.1	0.00e+00	0	42	0	1047527424	59	4202
2026-01-28 13:27:49.89	316.36	8.38	-44.4	-45.5	19.0	0.00e+00	0	42	0	1050673152	59	4314
2026-01-28 13:27:50.90	316.52	8.36	-44.4	-45.5	18.9	0.00e+00	0	42	0	1053818880	59	4323
2026-01-28 13:27:51.91	316.69	8.34	-44.4	-45.5	18.9	0.00e+00	0	43	0	1056964608	59	4327
2026-01-28 13:27:52.92	316.85	8.31	-44.4	-45.6	18.9	0.00e+00	0	42	0	1060110336	59	4351
2026-01-28 13:27:53.92	317.01	8.29	-44.4	-45.5	19.0	0.00e+00	0	42	0	1063256064	59	4313
2026-01-28 13:27:54.93	317.17	8.26	-44.3	-45.5	18.9	0.00e+00	0	42	0	1066401792	59	4304
2026-01-28 13:27:55.94	317.33	8.24	-44.4	-45.6	18.8	0.00e+00	0	42	0	1069547520	59	4344
2026-01-28 13:27:56.95	317.49	8.21	-44.3	-45.5	18.9	0.00e+00	0	42	0	1072693248	59	4300
2026-01-28 13:27:57.96	317.66	8.19	-44.2	-45.3	19.1	0.00e+00	0	42	0	1075838976	59	4208
2026-01-28 13:27:58.96	317.81	8.16	-44.2	-45.3	19.1	0.00e+00	0	42	0	1078984704	59	4214
2026-01-28 13:27:59.97	317.98	8.13	-44.2	-45.3	19.1	0.00e+00	0	43	0	1082130432	59	4223
2026-01-28 13:28:00.98	318.14	8.11	-44.1	-45.3	19.1	0.00e+00	0	42	0	1085276160	59	4196
2026-01-28 13:28:01.99	318.30	8.08	-44.3	-45.4	18.9	0.00e+00	0	42	0	1088421888	59	4291
2026-01-28 13:28:02.99	318.45	8.06	-44.4	-45.5	18.9	0.00e+00	0	43	0	1091567616	59	4318
2026-01-28 13:28:04.00	318.61	8.03	-44.3	-45.5	18.9	0.00e+00	0	42	0	1094713344	59	4305
2026-01-28 13:28:05.01	318.77	8.00	-44.4	-45.6	18.8	0.00e+00	0	42	0	1097859072	59	4362
2026-01-28 13:28:06.02	318.93	7.98	-44.3	-45.5	18.9	0.00e+00	0	42	0	1101004800	59	4309
2026-01-28 13:28:07.02	319.09	7.95	-44.4	-45.6	18.7	0.00e+00	0	42	0	1104150528	59	4356
2026-01-28 13:28:08.03	319.25	7.92	-44.4	-45.6	18.8	0.00e+00	0	42	0	1107296256	59	4361
2026-01-28 13:28:09.04	319.40	7.90	-44.3	-45.4	18.8	0.00e+00	0	42	0	1110441984	59	4270
2026-01-28 13:28:10.05	319.56	7.87	-44.4	-45.5	18.9	0.00e+00	0	42	0	1113587712	59	4330
2026-01-28 13:28:11.05	319.72	7.84	-44.6	-45.7	18.6	0.00e+00	0	42	0	1116733440	59	4431
2026-01-28 13:28:12.06	319.87	7.81	-44.5	-45.7	18.7	0.00e+00	0	43	0	1119879168	59	4398
2026-01-28 13:28:13.07	320.03	7.79	-44.5	-45.7	18.6	0.00e+00	0	42	0	1123024896	59	4408
2026-01-28 13:28:14.08	320.19	7.76	-44.6	-45.8	18.6	0.00e+00	0	43	0	1126170624	59	4452
2026-01-28 13:28:15.09	320.34	7.73	-44.6	-45.8	18.5	0.00e+00	0	42	0	1129316352	59	4483
2026-01-28 13:28:16.09	320.50	7.70	-44.4	-45.6	18.5	0.00e+00	0	42	0	1132462080	60	4109
2026-01-28 13:28:17.10	320.65	7.67	-44.3	-45.4	18.5	0.00e+00	0	42	0	1135607808	60	4038
2026-01-28 13:28:18.10	320.81	7.65	-44.4	-45.5	18.5	0.00e+00	0	43	0	1138753536	60	4096
2026-01-28 13:28:19.11	320.96	7.62	-44.4	-45.6	18.4	0.00e+00	0	42	0	1141899264	60	4119
2026-01-28 13:28:20.12	321.12	7.59	-44.2	-45.4	18.6	0.00e+00	0	42	0	1145044992	60	4027
2026-01-28 13:28:21.13	321.27	7.56	-44.2	-45.4	18.6	0.00e+00	0	42	0	1148190720	60	4017
2026-01-28 13:28:22.14	321.43	7.53	-44.1	-45.3	18.6	0.00e+00	0	42	0	1151336448	60	3990
2026-01-28 13:28:23.15	321.58	7.50	-44.1	-45.3	18.7	0.00e+00	0	42	0	1154482176	60	3970
2026-01-28 13:28:24.15	321.73	7.47	-44.3	-45.4	18.5	0.00e+00	0	42	0	1157627904	60	4048
2026-01-28 13:28:25.15	321.88	7.44	-44.3	-45.4	18.5	0.00e+00	0	43	0	1160773632	60	4043
2026-01-28 13:28:26.17	322.04	7.41	-44.3	-45.4	18.5	0.00e+00	0	42	0	1163919360	60	4050
2026-01-28 13:28:27.17	322.19	7.38	-44.3	-45.5	18.5	0.00e+00	0	43	0	1167065088	60	4058
2026-01-28 13:28:28.18	322.34	7.35	-44.3	-45.4	18.5	0.00e+00	0	42	0	1170210816	60	4050
2026-01-28 13:28:29.19	322.49	7.32	-44.3	-45.4	18.5	0.00e+00	0	42	0	1173356544	60	4046
2026-01-28 13:28:30.20	322.64	7.29	-44.4	-45.6	18.4	0.00e+00	0	42	0	1176502272	60	4111
2026-01-28 13:28:31.21	322.80	7.26	-44.2	-45.4	18.5	0.00e+00	0	42	0	1179648000	60	4028
2026-01-28 13:28:32.22	322.95	7.23	-44.2	-45.4	18.5	0.00e+00	0	42	0	1182793728	60	4013
2026-01-28 13:28:33.23	323.10	7.20	-44.2	-45.3	18.6	0.00e+00	0	43	0	1185939456	60	3993
2026-01-28 13:28:34.23	323.25	7.17	-44.1	-45.2	18.7	0.00e+00	0	42	0	1189085184	60	3945
2026-01-28 13:28:35.24	323.40	7.14	-44.4	-45.5	18.7	0.00e+00	0	42	0	1192230912	59	4338
2026-01-28 13:28:36.25	323.55	7.11	-44.4	-45.6	18.6	0.00e+00	0	42	0	1195376640	59	4350
2026-01-28 13:28:37.26	323.70	7.08	-44.5	-45.7	18.5	0.00e+00	0	42	0	1198522368	59	4411
2026-01-28 13:28:38.27	323.85	7.05	-44.4	-45.6	18.8	0.00e+00	0	42	0	1201668096	59	4343
2026-01-28 13:28:39.28	323.99	7.01	-44.4	-45.6	18.7	0.00e+00	0	43	0	1204813824	59	4374
2026-01-28 13:28:40.29	324.14	6.98	-44.6	-45.9	18.4	0.00e+00	0	42	0	1207959552	59	4497
2026-01-28 13:28:41.30	324.29	6.95	-44.3	-45.5	18.5	0.00e+00	0	42	0	1211105280	60	4081
2026-01-28 13:28:42.31	324.44	6.92	-44.3	-45.4	18.5	0.00e+00	0	42	0	1214251008	60	4049
2026-01-28 13:28:43.31	324.59	6.89	-44.3	-45.5	18.4	0.00e+00	0	42	0	1217396736	60	4062
2026-01-28 13:28:44.32	324.73	6.86	-44.2	-45.4	18.6	0.00e+00	0	42	0	1220542464	60	4032
2026-01-28 13:28:45.33	324.88	6.82	-44.4	-45.6	18.4	0.00e+00	0	42	0	1223688192	60	4101
2026-01-28 13:28:46.34	325.03	6.79	-44.5	-45.7	18.2	0.00e+00	0	42	0	1226833920	60	4173
2026-01-28 13:28:47.35	325.17	6.76	-44.4	-45.6	18.3	0.00e+00	0	42	0	1229979648	60	4133
2026-01-28 13:28:48.36	325.32	6.73	-44.4	-45.6	18.2	0.00e+00	0	42	0	1233125376	60	4142
2026-01-28 13:28:49.36	325.46	6.70	-44.7	-45.9	18.0	0.00e+00	0	42	0	1236271104	60	4289
2026-01-28 13:28:50.37	325.61	6.66	-44.7	-45.9	18.0	0.00e+00	0	42	0	1239416832	60	4281
2026-01-28 13:28:51.38	325.76	6.63	-44.6	-45.8	18.1	0.00e+00	0	42	0	1242562560	60	4223
2026-01-28 13:28:52.39	325.90	6.60	-44.5	-45.7	18.2	0.00e+00	0	43	0	1245708288	60	4180
2026-01-28 13:28:53.40	326.04	6.56	-44.4	-45.6	18.3	0.00e+00	0	42	0	1248854016	60	4107
2026-01-28 13:28:54.41	326.19	6.53	-44.5	-45.7	18.2	0.00e+00	0	42	0	1251999744	60	4193
2026-01-28 13:28:55.42	326.33	6.50	-44.3	-45.4	18.4	0.00e+00	0	43	0	1255145472	60	4050
2026-01-28 13:28:56.42	326.48	6.46	-44.4	-45.6	18.3	0.00e+00	0	42	0	1258291200	60	4119
2026-01-28 13:28:57.43	326.62	6.43	-44.3	-45.6	18.3	0.00e+00	0	42	0	1262485504	60	4099
2026-01-28 13:28:58.44	326.76	6.40	-44.3	-45.5	18.4	0.00e+00	0	43	0	1265631232	60	4058
2026-01-28 13:28:59.44	326.90	6.36	-44.4	-45.6	18.3	0.00e+00	0	42	0	1268776960	60	4102
2026-01-28 13:29:00.45	327.05	6.33	-44.4	-45.7	18.2	0.00e+00	0	43	0	1271922688	60	4151
2026-01-28 13:29:01.45	327.19	6.30	-44.4	-45.6	18.3	0.00e+00	0	43	0	1274019840	60	4127
2026-01-28 13:29:02.47	327.33	6.26	-44.3	-45.6	18.3	0.00e+00	0	43	0	1277165568	60	4099
2026-01-28 13:29:03.48	327.47	6.23	-44.5	-45.8	18.1	0.00e+00	0	43	0	1280311296	60	4206
2026-01-28 13:29:04.48	327.61	6.19	-44.6	-45.9	18.0	0.00e+00	0	42	0	1283457024	60	4250
2026-01-28 13:29:05.49	327.75	6.16	-44.6	-45.9	18.0	0.00e+00	0	42	0	1286602752	60	4251
2026-01-28 13:29:06.49	327.89	6.13	-44.7	-46.0	17.8	0.00e+00	0	42	0	1289748480	60	4322
2026-01-28 13:29:07.50	328.03	6.09	-44.9	-46.3	17.6	0.00e+00	0	43	0	1292894208	60	4444
2026-01-28 13:29:08.51	328.17	6.06	-45.0	-46.4	17.5	0.00e+00	0	42	0	1296039936	60	4510
2026-01-28 13:29:09.52	328.31	6.02	-45.1	-46.5	17.3	0.00e+00	0	42	0	1299185664	60	4573
2026-01-28 13:29:10.52	328.45	5.99	-45.1	-46.5	17.3	0.00e+00	0	42	0	1302331392	61	4329
2026-01-28 13:29:11.53	328.59	5.95	-45.2	-46.6	17.3	0.00e+00	0	42	0	1306525696	61	4346
2026-01-28 13:29:12.54	328.72	5.92	-45.1	-46.5	17.3	0.00e+00	0	43	0	1309671424	61	4309
2026-01-28 13:29:13.55	328.86	5.88	-44.9	-46.3	17.5	0.00e+00	0	42	0	1312817152	61	4204
2026-01-28 13:29:14.56	329.00	5.85	-44.9	-46.2	17.6	0.00e+00	0	42	0	1315962880	61	4180
2026-01-28 13:29:15.57	329.14	5.81	-44.9	-46.3	17.6	0.00e+00	0	42	0	1319108608	61	4206
2026-01-28 13:29:16.58	329.28	5.78	-44.9	-46.2	17.6	0.00e+00	0	42	0	1321205760	61	4183
2026-01-28 13:29:17.58	329.41	5.74	-44.9	-46.2	17.6	0.00e+00	0	42	0	1324351488	61	4163
2026-01-28 13:29:18.59	329.55	5.71	-44.9	-46.2	17.6	0.00e+00	0	43	0	1327497216	61	4180
2026-01-28 13:29:19.59	329.68	5.67	-44.9	-46.2	17.6	0.00e+00	0	42	0	1330642944	61	4175
2026-01-28 13:29:20.60	329.82	5.64	-44.8	-46.1	17.7	0.00e+00	0	43	0	1333788672	61	4140
2026-01-28 13:29:21.60	329.95	5.60	-44.6	-45.9	17.8	0.00e+00	0	42	0	1336934400	61	4040
2026-01-28 13:29:22.61	330.09	5.57	-44.9	-46.2	17.6	0.00e+00	0	43	0	1340080128	61	4169
2026-01-28 13:29:23.62	330.22	5.53	-44.8	-46.1	17.7	0.00e+00	0	43	0	1343225856	61	4121
2026-01-28 13:29:24.63	330.36	5.49	-44.9	-46.2	17.6	0.00e+00	0	43	0	1347420160	61	4176
2026-01-28 13:29:25.64	330.49	5.46	-44.9	-46.2	17.6	0.00e+00	0	43	0	1350565888	61	4172
2026-01-28 13:29:26.65	330.63	5.42	-45.1	-46.4	17.3	0.00e+00	0	43	0	1353711616	61	4288
2026-01-28 13:29:27.65	330.76	5.39	-45.2	-46.7	17.1	0.00e+00	0	43	0	1356857344	61	4401
2026-01-28 13:29:28.66	330.89	5.35	-45.1	-46.4	17.3	0.00e+00	0	42	0	1360003072	61	4280
2026-01-28 13:29:29.67	331.03	5.31	-45.1	-46.5	17.2	0.00e+00	0	42	0	1363148800	61	4302
2026-01-28 13:29:30.67	331.16	5.28	-45.1	-46.5	17.3	0.00e+00	0	42	0	1366294528	61	4301
2026-01-28 13:29:31.68	331.29	5.24	-45.2	-46.6	17.2	0.00e+00	0	42	0	1368391680	61	4368
2026-01-28 13:29:32.69	331.42	5.21	-45.1	-46.5	17.3	0.00e+00	0	42	0	1371537408	61	4310
2026-01-28 13:29:33.70	331.55	5.17	-45.2	-46.6	17.1	0.00e+00	0	43	0	1374683136	61	4357
2026-01-28 13:29:34.71	331.69	5.13	-45.1	-46.4	17.3	0.00e+00	0	42	0	1377828864	61	4282
2026-01-28 13:29:35.72	331.82	5.10	-45.1	-46.4	17.2	0.00e+00	0	42	0	1380974592	61	4285
2026-01-28 13:29:36.72	331.95	5.06	-45.1	-46.5	17.2	0.00e+00	0	43	0	1384120320	61	4304
2026-01-28 13:29:37.73	332.08	5.02	-44.9	-46.3	17.4	0.00e+00	0	43	0	1388314624	61	4197
2026-01-28 13:29:38.74	332.21	4.98	-51.5	-58.9	5.4	8.82e-03	0	42	0	1391460352	73	9024
2026-01-28 13:29:39.75	332.34	4.95	-52.6	-65.4	3.8	1.49e+00	0	42	104	1391460352	75	16912
2026-01-28 13:29:40.75	332.47	4.91	-52.9	-65.6	3.8	1.49e+00	0	43	104	1391460352	76	16420
2026-01-28 13:29:41.76	332.60	4.87	-53.0	-65.8	3.8	1.49e+00	0	43	104	1391460352	76	16750
2026-01-28 13:29:42.77	332.72	4.84	-53.1	-65.9	3.8	1.49e+00	0	43	104	1391460352	76	16969
2026-01-28 13:29:43.78	332.85	4.80	-53.2	-65.9	3.8	1.49e+00	0	43	104	1391460352	76	17082
2026-01-28 13:29:44.79	332.98	4.76	-53.3	-66.0	3.8	1.49e+00	0	43	104	1391460352	77	16298
2026-01-28 13:29:45.80	333.11	4.72	-53.3	-66.1	3.8	1.49e+00	0	43	104	1391460352	77	16366
2026-01-28 13:29:46.81	333.24	4.69	-53.3	-66.1	3.8	1.49e+00	0	42	104	1391460352	77	16351
2026-01-28 13:29:47.81	333.36	4.65	-53.3	-66.0	3.8	1.49e+00	0	43	104	1391460352	77	16273
2026-01-28 13:29:48.82	333.49	4.61	-53.2	-65.9	3.8	1.49e+00	0	43	104	1391460352	77	16123
2026-01-28 13:29:49.82	333.62	4.58	-53.1	-65.8	3.8	1.49e+00	0	43	104	1391460352	77	15925
2026-01-28 13:29:50.83	333.74	4.54	-53.1	-65.8	3.8	1.49e+00	0	43	104	1391460352	77	15831
2026-01-28 13:29:51.84	333.87	4.50	-53.1	-65.8	3.8	1.49e+00	0	43	104	1391460352	77	15896
2026-01-28 13:29:52.85	334.00	4.46	-53.2	-65.9	3.8	1.49e+00	0	43	104	1391460352	77	15973
2026-01-28 13:29:53.86	334.12	4.42	-53.2	-65.9	3.8	1.49e+00	0	43	104	1391460352	77	16057
2026-01-28 13:29:54.87	334.25	4.39	-53.3	-66.0	3.8	1.49e+00	0	43	104	1391460352	77	16165
2026-01-28 13:29:55.88	334.37	4.35	-53.3	-66.0	3.8	1.49e+00	0	43	104	1391460352	77	16254
2026-01-28 13:29:56.89	334.50	4.31	-53.3	-66.1	3.8	1.49e+00	0	43	104	1391460352	77	16356
2026-01-28 13:29:57.90	334.62	4.27	-53.3	-66.1	3.8	1.49e+00	0	43	104	1391460352	77	16412
2026-01-28 13:29:58.90	334.74	4.23	-53.3	-66.1	3.8	1.49e+00	0	43	104	1391460352	77	16393
2026-01-28 13:29:59.92	334.87	4.20	-53.3	-66.1	3.8	1.49e+00	0	43	104	1391460352	77	16355
2026-01-28 13:30:00.92	334.99	4.16	-53.3	-66.0	3.8	1.49e+00	0	43	104	1391460352	77	16247
2026-01-28 13:30:01.93	335.11	4.12	-53.3	-66.0	3.8	1.49e+00	0	43	104	1391460352	77	16173
2026-01-28 13:30:02.94	335.24	4.08	-53.2	-66.0	3.8	1.49e+00	0	43	104	1391460352	77	16129
2026-01-28 13:30:03.95	335.36	4.04	-53.2	-66.0	3.8	1.49e+00	0	43	104	1391460352	77	16179
2026-01-28 13:30:04.96	335.48	4.00	-53.2	-66.0	3.8	1.49e+00	0	43	104	1391460352	77	16159
2026-01-28 13:30:05.96	335.60	3.97	-53.2	-65.9	3.8	1.49e+00	0	43	104	1391460352	77	16125
2026-01-28 13:30:06.97	335.72	3.93	-53.2	-65.9	3.8	1.49e+00	0	43	104	1391460352	77	16095
2026-01-28 13:30:07.98	335.84	3.89	-53.2	-66.0	3.8	1.49e+00	0	43	104	1391460352	77	16142
2026-01-28 13:30:08.99	335.97	3.85	-53.2	-65.9	3.8	1.49e+00	0	43	104	1391460352	77	16120
2026-01-28 13:30:10.00	336.09	3.81	-53.2	-65.9	3.8	1.49e+00	0	43	104	1391460352	77	16098
2026-01-28 13:30:11.01	336.21	3.77	-53.2	-65.9	3.8	1.49e+00	0	43	104	1391460352	77	16061
2026-01-28 13:30:12.02	336.33	3.73	-53.2	-65.9	3.8	1.49e+00	0	43	104	1391460352	77	16038
2026-01-28 13:30:13.03	336.45	3.69	-53.2	-65.9	3.8	1.49e+00	0	43	104	1391460352	77	16061
2026-01-28 13:30:14.04	336.57	3.66	-53.2	-65.9	3.8	1.49e+00	0	43	104	1391460352	77	16073
2026-01-28 13:30:15.05	336.69	3.62	-53.2	-65.9	3.8	1.49e+00	0	43	104	1391460352	77	16046
2026-01-28 13:30:16.05	336.80	3.58	-53.2	-65.9	3.8	1.49e+00	0	43	104	1391460352	77	16068
2026-01-28 13:30:17.06	336.92	3.54	-53.1	-65.9	3.8	1.49e+00	0	43	104	1391460352	77	16056
2026-01-28 13:30:18.07	337.04	3.50	-53.2	-65.9	3.8	1.49e+00	0	43	104	1391460352	77	16029
2026-01-28 13:30:19.08	337.16	3.46	-53.1	-65.9	3.8	1.49e+00	0	43	104	1391460352	77	16002
2026-01-28 13:30:20.08	337.27	3.42	-53.2	-65.9	3.8	1.49e+00	0	43	104	1391460352	77	15962
2026-01-28 13:30:21.09	337.39	3.38	-53.1	-65.9	3.8	1.49e+00	0	43	104	1391460352	77	16023
2026-01-28 13:30:22.09	337.51	3.34	-53.1	-65.9	3.8	1.49e+00	0	43	104	1391460352	77	15957
2026-01-28 13:30:23.10	337.62	3.31	-53.1	-65.8	3.8	1.49e+00	0	43	104	1391460352	77	15919
2026-01-28 13:30:24.11	337.74	3.27	-53.1	-65.9	3.8	1.49e+00	0	43	104	1391460352	77	16021
2026-01-28 13:30:25.11	337.86	3.23	-53.1	-65.9	3.8	1.49e+00	0	43	104	1391460352	77	15986
2026-01-28 13:30:26.12	337.97	3.19	-53.1	-65.9	3.8	1.49e+00	0	43	104	1391460352	77	15949
2026-01-28 13:30:27.13	338.09	3.15	-53.1	-65.8	3.8	1.49e+00	0	43	104	1391460352	77	15920
2026-01-28 13:30:28.14	338.20	3.11	-53.1	-65.9	3.8	1.49e+00	0	43	104	1391460352	77	15981
2026-01-28 13:30:29.15	338.32	3.07	-53.1	-65.9	3.8	1.49e+00	0	43	104	1391460352	77	15970
2026-01-28 13:30:30.16	338.43	3.03	-53.1	-65.8	3.8	1.49e+00	0	43	104	1391460352	77	15938
2026-01-28 13:30:31.17	338.55	2.99	-53.1	-65.9	3.8	1.49e+00	0	43	104	1391460352	77	15954
2026-01-28 13:30:32.18	338.66	2.95	-53.1	-65.8	3.8	1.49e+00	0	43	104	1391460352	77	15938
2026-01-28 13:30:33.18	338.77	2.91	-53.1	-65.8	3.8	1.49e+00	0	43	104	1391460352	77	15892
2026-01-28 13:30:34.19	338.89	2.87	-53.1	-65.8	3.8	1.49e+00	0	43	104	1391460352	77	15932
2026-01-28 13:30:35.20	339.00	2.83	-53.1	-65.8	3.8	1.49e+00	0	43	104	1391460352	77	15885
2026-01-28 13:30:36.21	339.11	2.79	-53.1	-65.8	3.8	1.49e+00	0	43	104	1391460352	77	15911
2026-01-28 13:30:37.21	339.23	2.75	-53.1	-65.8	3.8	1.49e+00	0	43	104	1391460352	77	15913
2026-01-28 13:30:38.22	339.34	2.71	-53.1	-65.8	3.8	1.49e+00	0	43	104	1391460352	77	15869
2026-01-28 13:30:39.23	339.45	2.67	-53.1	-65.8	3.8	1.49e+00	0	43	104	1391460352	77	15924
2026-01-28 13:30:40.23	339.56	2.63	-53.1	-65.8	3.8	1.49e+00	0	43	104	1391460352	77	15891
2026-01-28 13:30:41.24	339.67	2.59	-53.1	-65.8	3.8	1.49e+00	0	43	104	1391460352	77	15896
2026-01-28 13:30:42.25	339.78	2.55	-53.1	-65.8	3.8	1.49e+00	0	43	104	1391460352	77	15900
2026-01-28 13:30:43.26	339.89	2.51	-53.1	-65.8	3.8	1.49e+00	0	43	104	1391460352	77	15916
2026-01-28 13:30:44.26	340.00	2.47	-53.1	-65.8	3.8	1.49e+00	0	43	104	1391460352	77	15870
2026-01-28 13:30:45.27	340.11	2.43	-53.1	-65.8	3.8	1.49e+00	0	43	104	1391460352	77	15886
2026-01-28 13:30:46.28	340.22	2.39	-53.1	-65.8	3.8	1.49e+00	0	43	104	1391460352	77	15893
2026-01-28 13:30:47.29	340.33	2.35	-53.1	-65.9	3.8	1.49e+00	0	43	104	1391460352	77	15961
2026-01-28 13:30:48.30	340.44	2.31	-53.1	-65.8	3.8	1.49e+00	0	43	104	1391460352	77	15891
2026-01-28 13:30:49.31	340.55	2.27	-53.1	-65.8	3.8	1.49e+00	0	43	104	1391460352	77	15878
2026-01-28 13:30:50.31	340.66	2.23	-53.1	-65.8	3.8	1.49e+00	0	43	104	1391460352	77	15879
2026-01-28 13:30:51.32	340.77	2.19	-53.1	-65.8	3.8	1.49e+00	0	43	104	1391460352	77	15845
2026-01-28 13:30:52.33	340.88	2.15	-53.1	-65.8	3.8	1.49e+00	0	43	104	1391460352	77	15929
2026-01-28 13:30:53.33	340.99	2.11	-53.1	-65.8	3.8	1.49e+00	0	43	104	1391460352	77	15891
2026-01-28 13:30:54.34	341.09	2.07	-53.1	-65.8	3.8	1.49e+00	0	43	104	1391460352	77	15867
2026-01-28 13:30:55.35	341.20	2.03	-53.1	-65.8	3.8	1.49e+00	0	43	104	1391460352	77	15882
2026-01-28 13:30:56.36	341.31	1.99	-53.1	-65.8	3.8	1.49e+00	0	43	104	1391460352	77	15860
2026-01-28 13:30:57.37	341.41	1.95	-53.1	-65.8	3.8	1.49e+00	0	43	104	1391460352	77	15839

#Closed at: 2026-01-28 13:30:57
#Recorded file [1391 MB]: D:/lorett/data/31041_260128_162101.dat