passes_logs/2026/01/28/R3.2S_Murmansk/R3.2S_Murmansk__20260128_173042_TY-39_rec.log

#Pass ID: 20260128_173042_TY-39
#Satellite: TY-39
#Configuration: TY-39
#almurnet v.1.7.20251203
#Start time: 2026-01-28 17:30:43

#Version: 2.2.20231116
#Station: R3.2S_Murmansk
#Location: 33.079688 lon 68.888172 lat
#TLE: 1 51832U 22019J   26027.53500954  .00003458  00000-0  16483-3 0  9996
#TLE: 2 51832  97.3625  93.9185 0008876  12.4294 347.7158 15.19733854216436

#Time	Az	El	Level	Level2	SNR	BER	BlckErr	Temp	State	Recorded	gain1	gain2
2026-01-28 17:30:43.14	137.59	2.06	-54.4	-56.5	3.7	0.00e+00	0	45	0	0	79	19345
2026-01-28 17:30:44.14	137.57	2.13	-54.3	-56.5	3.7	0.00e+00	0	45	104	0	80	18256
2026-01-28 17:30:45.14	137.54	2.20	-54.4	-56.6	3.7	0.00e+00	0	45	104	0	80	18506
2026-01-28 17:30:46.15	137.51	2.27	-54.5	-56.7	3.7	0.00e+00	0	46	104	0	80	18605
2026-01-28 17:30:47.16	137.48	2.34	-54.5	-56.6	3.7	0.00e+00	0	46	104	0	80	18522
2026-01-28 17:30:48.16	137.45	2.41	-54.5	-56.6	3.7	0.00e+00	0	45	104	0	80	18524
2026-01-28 17:30:49.17	137.42	2.48	-54.5	-56.6	3.7	0.00e+00	0	46	104	0	80	18475
2026-01-28 17:30:50.18	137.39	2.55	-54.4	-56.5	3.7	0.00e+00	0	46	104	0	80	18383
2026-01-28 17:30:51.19	137.36	2.62	-54.4	-56.5	3.7	0.00e+00	0	46	104	0	80	18259
2026-01-28 17:30:52.20	137.33	2.70	-54.3	-56.5	3.7	0.00e+00	0	46	104	0	80	18225
2026-01-28 17:30:53.21	137.30	2.77	-54.3	-56.4	3.7	0.00e+00	0	46	104	0	80	18127
2026-01-28 17:30:54.21	137.27	2.84	-54.3	-56.4	3.7	0.00e+00	0	46	104	0	80	18029
2026-01-28 17:30:55.22	137.23	2.91	-54.2	-56.3	3.7	0.00e+00	0	46	104	0	80	17897
2026-01-28 17:30:56.23	137.20	2.99	-54.1	-56.3	3.7	0.00e+00	0	46	104	0	80	17771
2026-01-28 17:30:57.24	137.17	3.06	-54.1	-56.2	3.7	0.00e+00	0	46	104	0	80	17658
2026-01-28 17:30:58.24	137.14	3.13	-54.0	-56.1	3.7	0.00e+00	0	46	104	0	80	17525
2026-01-28 17:30:59.25	137.11	3.21	-54.0	-56.1	3.7	0.00e+00	0	46	104	0	79	18585
2026-01-28 17:31:00.26	137.08	3.28	-53.9	-56.0	3.7	0.00e+00	0	46	104	0	79	18321
2026-01-28 17:31:01.26	137.04	3.36	-53.7	-55.9	3.7	0.00e+00	0	46	104	0	79	17999
2026-01-28 17:31:02.27	137.01	3.43	-53.6	-55.7	3.7	0.00e+00	0	46	104	0	79	17643
2026-01-28 17:31:03.28	136.98	3.51	-53.4	-55.5	3.7	0.00e+00	0	46	104	0	78	18326
2026-01-28 17:31:04.29	136.94	3.58	-53.1	-55.3	3.7	0.00e+00	0	46	104	0	78	17780
2026-01-28 17:31:05.29	136.91	3.66	-52.7	-54.8	3.7	0.00e+00	0	46	104	0	77	17905
2026-01-28 17:31:06.30	136.88	3.73	-52.4	-54.6	3.7	0.00e+00	0	47	104	0	76	18449
2026-01-28 17:31:07.31	136.84	3.81	-52.2	-54.3	3.7	0.00e+00	0	47	104	0	76	17961
2026-01-28 17:31:08.32	136.81	3.88	-52.2	-54.3	3.7	0.00e+00	0	46	104	0	76	17870
2026-01-28 17:31:09.32	136.78	3.96	-52.2	-54.3	3.7	0.00e+00	0	47	104	0	76	17849
2026-01-28 17:31:10.33	136.74	4.04	-52.1	-54.3	3.7	0.00e+00	0	46	104	0	76	17833
2026-01-28 17:31:11.34	136.71	4.11	-52.1	-54.3	3.7	0.00e+00	0	47	104	0	76	17848
2026-01-28 17:31:12.34	136.67	4.19	-52.1	-54.3	3.7	0.00e+00	0	46	104	0	76	17851
2026-01-28 17:31:13.35	136.64	4.27	-52.1	-54.2	3.7	0.00e+00	0	47	104	0	76	17761
2026-01-28 17:31:14.36	136.60	4.35	-52.1	-54.3	3.7	0.00e+00	0	47	104	0	76	17781
2026-01-28 17:31:15.36	136.56	4.42	-52.1	-54.3	3.7	0.00e+00	0	47	104	0	76	17795
2026-01-28 17:31:16.37	136.53	4.50	-52.1	-54.3	3.7	0.00e+00	0	47	104	0	76	17791
2026-01-28 17:31:17.37	136.49	4.58	-52.1	-54.3	3.7	0.00e+00	0	47	104	0	76	17813
2026-01-28 17:31:18.38	136.45	4.66	-52.1	-54.3	3.7	0.00e+00	0	47	104	0	76	17776
2026-01-28 17:31:19.39	136.42	4.74	-52.1	-54.3	3.7	0.00e+00	0	47	104	0	76	17826
2026-01-28 17:31:20.39	136.38	4.82	-52.1	-54.3	3.7	0.00e+00	0	47	104	0	76	17808
2026-01-28 17:31:21.40	136.34	4.90	-52.1	-54.2	3.7	0.00e+00	0	47	104	0	76	17715
2026-01-28 17:31:22.41	136.31	4.98	-52.1	-54.3	3.7	0.00e+00	0	47	104	0	76	17807
2026-01-28 17:31:23.42	136.27	5.06	-52.1	-54.2	3.6	0.00e+00	0	47	104	0	76	17721
2026-01-28 17:31:24.42	136.23	5.14	-52.2	-54.4	3.7	0.00e+00	0	47	104	0	76	18009
2026-01-28 17:31:25.43	136.19	5.22	-52.3	-54.4	3.7	0.00e+00	0	47	104	0	76	18107
2026-01-28 17:31:26.44	136.15	5.30	-52.2	-54.3	3.7	0.00e+00	0	47	104	0	76	17894
2026-01-28 17:31:27.44	136.11	5.38	-52.3	-54.4	3.7	0.00e+00	0	47	104	0	76	18125
2026-01-28 17:31:28.45	136.07	5.47	-52.2	-54.3	3.7	0.00e+00	0	47	104	0	76	17907
2026-01-28 17:31:29.45	136.03	5.55	-52.3	-54.4	3.7	0.00e+00	0	47	104	0	76	18125
2026-01-28 17:31:30.46	135.99	5.63	-52.2	-54.4	3.7	0.00e+00	0	47	104	0	75	19112
2026-01-28 17:31:31.46	135.95	5.71	-52.3	-54.5	3.7	0.00e+00	0	47	104	0	75	19295
2026-01-28 17:31:32.47	135.91	5.80	-52.2	-54.4	3.7	0.00e+00	0	47	104	0	75	19037
2026-01-28 17:31:33.48	135.87	5.88	-52.3	-54.5	3.7	0.00e+00	0	47	104	0	75	19259
2026-01-28 17:31:34.48	135.83	5.96	-52.3	-54.5	3.7	0.00e+00	0	47	104	0	75	19274
2026-01-28 17:31:35.49	135.79	6.05	-52.4	-54.5	3.7	0.00e+00	0	47	104	0	75	19334
2026-01-28 17:31:36.50	135.74	6.13	-52.3	-54.4	3.7	0.00e+00	0	47	104	0	75	19245
2026-01-28 17:31:37.50	135.70	6.22	-52.4	-54.5	3.7	0.00e+00	0	47	104	0	75	19382
2026-01-28 17:31:38.51	135.66	6.30	-52.3	-54.5	3.7	0.00e+00	0	48	104	0	75	19360
2026-01-28 17:31:39.52	135.62	6.39	-52.4	-54.5	3.7	0.00e+00	0	48	104	0	75	19463
2026-01-28 17:31:40.52	135.57	6.48	-52.4	-54.5	3.7	0.00e+00	0	48	104	0	75	19369
2026-01-28 17:31:41.53	135.53	6.56	-52.4	-54.6	3.7	0.00e+00	0	47	104	0	75	19483
2026-01-28 17:31:42.53	135.49	6.65	-52.4	-54.5	3.7	0.00e+00	0	47	104	0	75	19443
2026-01-28 17:31:43.54	135.44	6.74	-52.4	-54.6	3.7	0.00e+00	0	47	104	0	75	19532
2026-01-28 17:31:44.54	135.40	6.82	-52.4	-54.6	3.7	0.00e+00	0	48	104	0	75	19542
2026-01-28 17:31:45.55	135.35	6.91	-52.4	-54.6	3.7	0.00e+00	0	48	104	0	75	19545
2026-01-28 17:31:46.55	135.31	7.00	-52.5	-54.6	3.7	0.00e+00	0	48	104	0	75	19587
2026-01-28 17:31:47.56	135.26	7.09	-52.5	-54.6	3.7	0.00e+00	0	47	104	0	75	19620
2026-01-28 17:31:48.56	135.21	7.18	-52.5	-54.6	3.7	0.00e+00	0	47	104	0	75	19612
2026-01-28 17:31:49.57	135.17	7.27	-52.5	-54.6	3.7	0.00e+00	0	48	104	0	75	19664
2026-01-28 17:31:50.58	135.12	7.36	-52.5	-54.6	3.7	0.00e+00	0	48	104	0	75	19664
2026-01-28 17:31:51.59	135.07	7.45	-52.5	-54.7	3.7	0.00e+00	0	48	104	0	75	19719
2026-01-28 17:31:52.60	135.02	7.54	-52.5	-54.7	3.7	0.00e+00	0	48	104	0	75	19740
2026-01-28 17:31:53.60	134.98	7.63	-52.5	-54.7	3.7	0.00e+00	0	48	104	0	75	19739
2026-01-28 17:31:54.61	134.93	7.72	-52.5	-54.7	3.7	0.00e+00	0	48	104	0	75	19720
2026-01-28 17:31:55.62	134.88	7.82	-52.5	-54.7	3.7	0.00e+00	0	48	104	0	75	19722
2026-01-28 17:31:56.63	134.83	7.91	-52.6	-54.7	3.7	0.00e+00	0	48	104	0	75	19812
2026-01-28 17:31:57.64	134.78	8.00	-52.6	-54.7	3.7	0.00e+00	0	48	104	0	75	19793
2026-01-28 17:31:58.65	134.73	8.10	-52.6	-54.7	3.7	0.00e+00	0	48	104	0	75	19900
2026-01-28 17:31:59.65	134.68	8.19	-52.6	-54.7	3.7	0.00e+00	0	48	104	0	75	19825
2026-01-28 17:32:00.65	134.63	8.28	-52.6	-54.7	3.7	0.00e+00	0	48	104	0	75	19920
2026-01-28 17:32:01.66	134.57	8.38	-52.6	-54.7	3.7	0.00e+00	0	48	104	0	75	19797
2026-01-28 17:32:02.67	134.52	8.47	-52.6	-54.8	3.7	0.00e+00	0	48	104	0	75	19991
2026-01-28 17:32:03.67	134.47	8.57	-52.6	-54.7	3.7	0.00e+00	0	48	104	0	75	19888
2026-01-28 17:32:04.67	134.42	8.66	-52.6	-54.8	3.7	0.00e+00	0	48	104	0	75	19973
2026-01-28 17:32:05.68	134.36	8.76	-52.6	-54.7	3.7	0.00e+00	0	48	104	0	75	19931
2026-01-28 17:32:06.69	134.31	8.86	-52.7	-54.8	3.7	0.00e+00	0	48	104	0	75	20054
2026-01-28 17:32:07.69	134.26	8.96	-52.6	-54.8	3.7	0.00e+00	0	48	104	0	75	19938
2026-01-28 17:32:08.70	134.20	9.05	-52.7	-54.8	3.7	0.00e+00	0	48	104	0	75	20050
2026-01-28 17:32:09.71	134.15	9.15	-52.6	-54.8	3.7	0.00e+00	0	48	104	0	75	19998
2026-01-28 17:32:10.71	134.09	9.25	-52.7	-54.9	3.7	0.00e+00	0	48	104	0	75	20231
2026-01-28 17:32:11.72	134.03	9.35	-52.7	-54.8	3.7	0.00e+00	0	48	104	0	76	18998
2026-01-28 17:32:12.73	133.98	9.45	-52.7	-54.9	3.7	0.00e+00	0	48	104	0	76	19039
2026-01-28 17:32:13.74	133.92	9.55	-52.7	-54.8	3.7	0.00e+00	0	48	104	0	76	19006
2026-01-28 17:32:14.75	133.86	9.65	-52.8	-54.9	3.7	0.00e+00	0	48	104	0	76	19163
2026-01-28 17:32:15.75	133.80	9.76	-52.7	-54.8	3.7	0.00e+00	0	48	104	0	76	19021
2026-01-28 17:32:16.75	133.74	9.86	-52.8	-54.9	3.7	0.00e+00	0	48	104	0	76	19113
2026-01-28 17:32:17.76	133.68	9.96	-52.7	-54.9	3.7	0.00e+00	0	48	104	0	76	19058
2026-01-28 17:32:18.77	133.62	10.06	-52.8	-54.9	3.7	0.00e+00	0	48	104	0	76	19202
2026-01-28 17:32:19.78	133.56	10.17	-52.7	-54.9	3.7	0.00e+00	0	48	104	0	76	19057
2026-01-28 17:32:20.78	133.50	10.27	-52.8	-54.9	3.7	0.00e+00	0	48	104	0	76	19116
2026-01-28 17:32:21.79	133.44	10.38	-52.8	-54.9	3.7	0.00e+00	0	48	104	0	76	19096
2026-01-28 17:32:22.80	133.38	10.48	-52.8	-54.9	3.7	0.00e+00	0	48	104	0	76	19244
2026-01-28 17:32:23.81	133.32	10.59	-52.8	-54.9	3.7	0.00e+00	0	48	104	0	76	19080
2026-01-28 17:32:24.82	133.25	10.70	-52.8	-54.9	3.7	0.00e+00	0	48	104	0	76	19188
2026-01-28 17:32:25.83	133.19	10.80	-52.8	-54.9	3.7	0.00e+00	0	48	104	0	76	19181
2026-01-28 17:32:26.83	133.12	10.91	-52.9	-55.0	3.7	0.00e+00	0	48	104	0	76	19291
2026-01-28 17:32:27.84	133.06	11.02	-52.8	-54.9	3.7	0.00e+00	0	48	104	0	76	19145
2026-01-28 17:32:28.85	132.99	11.13	-52.8	-55.0	3.7	0.00e+00	0	48	104	0	76	19291
2026-01-28 17:32:29.85	132.93	11.24	-52.8	-54.9	3.7	0.00e+00	0	48	104	0	76	19134
2026-01-28 17:32:30.86	132.86	11.35	-52.9	-55.0	3.7	0.00e+00	0	48	104	0	76	19477
2026-01-28 17:32:31.86	132.79	11.46	-52.8	-54.9	3.7	0.00e+00	0	48	104	0	76	19147
2026-01-28 17:32:32.87	132.72	11.57	-52.9	-55.0	3.7	0.00e+00	0	48	104	0	76	19401
2026-01-28 17:32:33.87	132.65	11.68	-52.8	-54.9	3.6	0.00e+00	0	48	104	0	76	19180
2026-01-28 17:32:34.88	132.58	11.80	-52.9	-55.0	3.7	0.00e+00	0	48	104	0	76	19419
2026-01-28 17:32:35.89	132.51	11.91	-52.8	-55.0	3.7	0.00e+00	0	48	104	0	76	19276
2026-01-28 17:32:36.89	132.44	12.02	-52.9	-55.0	3.7	0.00e+00	0	48	104	0	76	19402
2026-01-28 17:32:37.90	132.37	12.14	-52.8	-55.0	3.7	0.00e+00	0	48	104	0	76	19270
2026-01-28 17:32:38.91	132.30	12.25	-52.9	-55.0	3.7	0.00e+00	0	48	104	0	76	19473
2026-01-28 17:32:39.91	132.22	12.37	-52.9	-55.0	3.7	0.00e+00	0	48	104	0	76	19318
2026-01-28 17:32:40.92	132.15	12.49	-52.9	-55.0	3.7	0.00e+00	0	48	104	0	76	19442
2026-01-28 17:32:41.93	132.08	12.60	-52.8	-55.0	3.7	0.00e+00	0	48	104	0	76	19314
2026-01-28 17:32:42.94	132.00	12.72	-52.9	-55.0	3.7	0.00e+00	0	48	104	0	76	19453
2026-01-28 17:32:43.94	131.92	12.84	-52.9	-55.0	3.7	0.00e+00	0	48	104	0	76	19394
2026-01-28 17:32:44.95	131.85	12.96	-52.9	-55.1	3.7	0.00e+00	0	48	104	0	76	19512
2026-01-28 17:32:45.95	131.77	13.08	-52.9	-55.0	3.7	0.00e+00	0	48	104	0	76	19402
2026-01-28 17:32:46.96	131.69	13.20	-53.0	-55.1	3.7	0.00e+00	0	48	104	0	76	19573
2026-01-28 17:32:47.96	131.61	13.32	-52.9	-55.0	3.7	0.00e+00	0	48	104	0	76	19445
2026-01-28 17:32:48.97	131.53	13.45	-52.9	-55.1	3.7	0.00e+00	0	49	104	0	76	19505
2026-01-28 17:32:49.97	131.45	13.57	-52.9	-55.0	3.7	0.00e+00	0	49	104	0	76	19293
2026-01-28 17:32:50.98	131.37	13.69	-53.0	-55.1	3.7	0.00e+00	0	48	104	0	76	19648
2026-01-28 17:32:51.99	131.29	13.82	-52.9	-55.1	3.7	0.00e+00	0	48	104	0	76	19518
2026-01-28 17:32:53.00	131.20	13.94	-53.0	-55.1	3.7	0.00e+00	0	48	104	0	76	19593
2026-01-28 17:32:54.00	131.12	14.07	-52.9	-55.1	3.7	0.00e+00	0	49	104	0	76	19484
2026-01-28 17:32:55.01	131.03	14.20	-53.0	-55.2	3.7	0.00e+00	0	48	104	0	76	19724
2026-01-28 17:32:56.02	130.95	14.33	-53.0	-55.1	3.7	0.00e+00	0	49	104	0	76	19560
2026-01-28 17:32:57.03	130.86	14.46	-53.0	-55.1	3.7	0.00e+00	0	48	104	0	76	19632
2026-01-28 17:32:58.03	130.77	14.58	-53.0	-55.1	3.7	0.00e+00	0	49	104	0	76	19553
2026-01-28 17:32:59.04	130.68	14.72	-53.1	-55.2	3.7	0.00e+00	0	49	104	0	76	19739
2026-01-28 17:33:00.04	130.59	14.85	-53.0	-55.1	3.7	0.00e+00	0	48	104	0	76	19686
2026-01-28 17:33:01.05	130.50	14.98	-53.1	-55.2	3.7	0.00e+00	0	48	104	0	76	19785
2026-01-28 17:33:02.06	130.41	15.11	-53.0	-55.1	3.6	0.00e+00	0	48	104	0	76	19670
2026-01-28 17:33:03.07	130.32	15.25	-53.1	-55.2	3.7	0.00e+00	0	48	104	0	76	19852
2026-01-28 17:33:04.06	130.22	15.38	-53.1	-55.2	3.7	0.00e+00	0	48	104	0	76	19747
2026-01-28 17:33:05.07	130.13	15.52	-53.1	-55.2	3.7	0.00e+00	0	49	104	0	76	19782
2026-01-28 17:33:06.07	130.03	15.65	-53.0	-55.1	3.7	0.00e+00	0	48	104	0	76	19660
2026-01-28 17:33:07.08	129.93	15.79	-53.1	-55.2	3.7	0.00e+00	0	49	104	0	76	19856
2026-01-28 17:33:08.08	129.84	15.93	-53.1	-55.3	3.7	0.00e+00	0	48	104	0	76	19967
2026-01-28 17:33:09.09	129.74	16.07	-53.1	-55.2	3.7	0.00e+00	0	49	104	0	76	19913
2026-01-28 17:33:10.10	129.64	16.21	-53.1	-55.2	3.7	0.00e+00	0	48	104	0	76	19804
2026-01-28 17:33:11.11	129.53	16.35	-53.2	-55.3	3.7	0.00e+00	0	49	104	0	76	20040
2026-01-28 17:33:12.11	129.43	16.49	-53.1	-55.2	3.7	0.00e+00	0	49	104	0	76	19916
2026-01-28 17:33:13.12	129.33	16.64	-53.2	-55.3	3.7	0.00e+00	0	48	104	0	76	20035
2026-01-28 17:33:14.12	129.22	16.78	-53.1	-55.2	3.7	0.00e+00	0	49	104	0	76	19899
2026-01-28 17:33:15.13	129.12	16.93	-53.2	-55.4	3.7	0.00e+00	0	49	104	0	77	19062
2026-01-28 17:33:16.13	129.01	17.07	-53.2	-55.3	3.7	0.00e+00	0	49	104	0	77	18911
2026-01-28 17:33:17.14	128.90	17.22	-53.2	-55.3	3.7	0.00e+00	0	49	104	0	77	19019
2026-01-28 17:33:18.15	128.79	17.37	-53.1	-55.3	3.7	0.00e+00	0	49	104	0	77	18848
2026-01-28 17:33:19.15	128.68	17.52	-53.2	-55.4	3.7	0.00e+00	0	48	104	0	77	19083
2026-01-28 17:33:20.16	128.56	17.67	-53.2	-55.3	3.7	0.00e+00	0	48	104	0	77	18998
2026-01-28 17:33:21.17	128.45	17.82	-53.2	-55.4	3.7	0.00e+00	0	48	104	0	77	19041
2026-01-28 17:33:22.17	128.34	17.97	-53.2	-55.3	3.7	0.00e+00	0	49	104	0	77	18975
2026-01-28 17:33:23.18	128.22	18.13	-53.3	-55.4	3.7	0.00e+00	0	49	104	0	77	19124
2026-01-28 17:33:24.19	128.10	18.28	-53.2	-55.4	3.7	0.00e+00	0	48	104	0	77	19080
2026-01-28 17:33:25.19	127.98	18.44	-53.3	-55.4	3.7	0.00e+00	0	48	104	0	77	19171
2026-01-28 17:33:26.19	127.86	18.59	-53.2	-55.4	3.7	0.00e+00	0	49	104	0	77	19036
2026-01-28 17:33:27.20	127.74	18.75	-53.3	-55.4	3.7	0.00e+00	0	49	104	0	77	19222
2026-01-28 17:33:28.21	127.61	18.91	-53.3	-55.4	3.7	0.00e+00	0	49	104	0	77	19208
2026-01-28 17:33:29.21	127.49	19.07	-53.3	-55.4	3.7	0.00e+00	0	49	104	0	77	19226
2026-01-28 17:33:30.22	127.36	19.23	-53.3	-55.4	3.7	0.00e+00	0	49	104	0	77	19160
2026-01-28 17:33:31.22	127.23	19.40	-53.4	-55.5	3.7	0.00e+00	0	49	104	0	77	19384
2026-01-28 17:33:32.23	127.10	19.56	-53.4	-55.5	3.7	0.00e+00	0	48	104	0	77	19373
2026-01-28 17:33:33.23	126.97	19.73	-53.4	-55.5	3.7	0.00e+00	0	49	104	0	77	19412
2026-01-28 17:33:34.24	126.83	19.89	-53.4	-55.5	3.7	0.00e+00	0	49	104	0	77	19367
2026-01-28 17:33:35.24	126.70	20.06	-53.4	-55.5	3.7	0.00e+00	0	49	104	0	77	19438
2026-01-28 17:33:36.25	126.56	20.23	-53.4	-55.5	3.7	0.00e+00	0	49	104	0	77	19359
2026-01-28 17:33:37.26	126.42	20.40	-53.4	-55.5	3.7	0.00e+00	0	49	104	0	77	19436
2026-01-28 17:33:38.27	126.28	20.57	-53.4	-55.5	3.7	0.00e+00	0	49	104	0	77	19386
2026-01-28 17:33:39.28	126.14	20.75	-53.4	-55.5	3.7	0.00e+00	0	49	104	0	77	19414
2026-01-28 17:33:40.29	125.99	20.92	-53.4	-55.5	3.7	0.00e+00	0	49	104	0	77	19450
2026-01-28 17:33:41.29	125.85	21.10	-53.4	-55.5	3.7	0.00e+00	0	49	104	0	77	19476
2026-01-28 17:33:42.30	125.70	21.28	-53.4	-55.6	3.7	0.00e+00	0	49	104	0	77	19525
2026-01-28 17:33:43.30	125.55	21.45	-53.5	-55.6	3.7	0.00e+00	0	49	104	0	77	19527
2026-01-28 17:33:44.31	125.39	21.63	-53.4	-55.6	3.7	0.00e+00	0	49	104	0	77	19496
2026-01-28 17:33:45.32	125.24	21.82	-53.4	-55.6	3.7	0.00e+00	0	49	104	0	77	19547
2026-01-28 17:33:46.32	125.08	22.00	-53.5	-55.6	3.7	0.00e+00	0	49	104	0	77	19586
2026-01-28 17:33:47.33	124.92	22.18	-53.5	-55.6	3.7	0.00e+00	0	49	104	0	77	19616
2026-01-28 17:33:48.33	124.76	22.37	-53.4	-55.6	3.7	0.00e+00	0	49	104	0	77	19512
2026-01-28 17:33:49.34	124.60	22.55	-53.5	-55.6	3.7	0.00e+00	0	49	104	0	77	19575
2026-01-28 17:33:50.35	124.43	22.74	-53.5	-55.6	3.7	0.00e+00	0	49	104	0	77	19632
2026-01-28 17:33:51.35	124.27	22.93	-53.5	-55.6	3.7	0.00e+00	0	49	104	0	77	19667
2026-01-28 17:33:52.36	124.10	23.12	-53.5	-55.6	3.7	0.00e+00	0	49	104	0	77	19594
2026-01-28 17:33:53.36	123.92	23.32	-53.5	-55.7	3.7	0.00e+00	0	49	104	0	77	19714
2026-01-28 17:33:54.37	123.75	23.51	-53.6	-55.7	3.7	0.00e+00	0	49	104	0	77	19873
2026-01-28 17:33:55.37	123.57	23.71	-53.6	-55.8	3.7	0.00e+00	0	49	104	0	77	19947
2026-01-28 17:33:56.37	123.39	23.90	-53.6	-55.7	3.7	0.00e+00	0	49	104	0	77	19902
2026-01-28 17:33:57.38	123.21	24.10	-53.6	-55.8	3.7	0.00e+00	0	49	104	0	77	19935
2026-01-28 17:33:58.38	123.03	24.30	-53.6	-55.7	3.7	0.00e+00	0	49	104	0	77	19832
2026-01-28 17:33:59.38	122.84	24.50	-53.7	-55.8	3.7	0.00e+00	0	49	104	0	77	20014
2026-01-28 17:34:00.38	122.65	24.71	-53.6	-55.7	3.7	0.00e+00	0	49	104	0	77	19920
2026-01-28 17:34:01.39	122.45	24.91	-53.6	-55.7	3.7	0.00e+00	0	49	104	0	77	19887
2026-01-28 17:34:02.39	122.26	25.12	-53.6	-55.8	3.7	0.00e+00	0	49	104	0	77	19958
2026-01-28 17:34:03.40	122.06	25.33	-53.7	-55.8	3.7	0.00e+00	0	49	104	0	77	19988
2026-01-28 17:34:04.40	121.86	25.54	-53.6	-55.8	3.7	0.00e+00	0	49	104	0	77	20035
2026-01-28 17:34:05.41	121.65	25.75	-53.7	-55.8	3.7	0.00e+00	0	49	104	0	77	19958
2026-01-28 17:34:06.41	121.45	25.96	-53.7	-55.8	3.7	0.00e+00	0	49	104	0	77	20012
2026-01-28 17:34:07.42	121.23	26.18	-53.7	-55.8	3.7	0.00e+00	0	49	104	0	77	20076
2026-01-28 17:34:08.42	121.02	26.39	-53.7	-55.8	3.7	0.00e+00	0	49	104	0	77	20013
2026-01-28 17:34:09.42	120.80	26.61	-53.7	-55.8	3.7	0.00e+00	0	49	104	0	77	20008
2026-01-28 17:34:10.43	120.58	26.83	-53.7	-55.8	3.7	0.00e+00	0	49	104	0	77	20086
2026-01-28 17:34:11.44	120.35	27.06	-53.7	-55.8	3.7	0.00e+00	0	49	104	0	77	20056
2026-01-28 17:34:12.44	120.13	27.28	-53.7	-55.8	3.7	0.00e+00	0	49	104	0	77	20007
2026-01-28 17:34:13.44	119.90	27.50	-53.7	-55.8	3.7	0.00e+00	0	49	104	0	77	20059
2026-01-28 17:34:14.45	119.66	27.73	-53.7	-55.8	3.7	0.00e+00	0	49	104	0	77	20159
2026-01-28 17:34:15.46	119.42	27.96	-53.7	-55.9	3.7	0.00e+00	0	49	104	0	78	19091
2026-01-28 17:34:16.46	119.18	28.19	-53.7	-55.8	3.7	0.00e+00	0	49	104	0	78	18992
2026-01-28 17:34:17.46	118.93	28.42	-53.7	-55.9	3.7	0.00e+00	0	49	104	0	78	19122
2026-01-28 17:34:18.47	118.68	28.66	-53.8	-55.9	3.7	0.00e+00	0	49	104	0	78	19132
2026-01-28 17:34:19.47	118.43	28.89	-53.8	-55.9	3.7	0.00e+00	0	49	104	0	78	19084
2026-01-28 17:34:20.48	118.17	29.13	-53.7	-55.9	3.7	0.00e+00	0	49	104	0	78	19101
2026-01-28 17:34:21.49	117.90	29.37	-53.8	-55.9	3.7	0.00e+00	0	49	104	0	78	19132
2026-01-28 17:34:22.49	117.64	29.61	-53.8	-55.9	3.7	0.00e+00	0	49	104	0	78	19193
2026-01-28 17:34:23.50	117.36	29.86	-53.8	-55.9	3.7	0.00e+00	0	49	104	0	78	19200
2026-01-28 17:34:24.50	117.09	30.10	-53.8	-55.9	3.7	0.00e+00	0	49	104	0	78	19083
2026-01-28 17:34:25.50	116.81	30.34	-53.8	-55.9	3.7	0.00e+00	0	49	104	0	78	19182
2026-01-28 17:34:26.51	116.52	30.59	-53.8	-56.0	3.7	0.00e+00	0	49	104	0	78	19262
2026-01-28 17:34:27.52	116.23	30.85	-53.8	-55.9	3.7	0.00e+00	0	49	104	0	78	19229
2026-01-28 17:34:28.52	115.93	31.10	-53.8	-55.9	3.7	0.00e+00	0	49	104	0	78	19154
2026-01-28 17:34:29.52	115.64	31.35	-53.8	-55.9	3.7	0.00e+00	0	49	104	0	78	19226
2026-01-28 17:34:30.53	115.33	31.60	-53.8	-56.0	3.7	0.00e+00	0	49	104	0	78	19299
2026-01-28 17:34:31.53	115.02	31.86	-53.8	-55.9	3.7	0.00e+00	0	49	104	0	78	19191
2026-01-28 17:34:32.54	114.70	32.12	-53.8	-55.9	3.7	0.00e+00	0	49	104	0	78	19195
2026-01-28 17:34:33.54	114.38	32.38	-53.8	-56.0	3.7	0.00e+00	0	49	104	0	78	19298
2026-01-28 17:34:34.54	114.05	32.64	-53.8	-56.0	3.7	0.00e+00	0	49	104	0	78	19326
2026-01-28 17:34:35.54	113.72	32.90	-53.8	-56.0	3.7	0.00e+00	0	49	104	0	78	19318
2026-01-28 17:34:36.55	113.38	33.17	-53.8	-55.9	3.7	0.00e+00	0	49	104	0	78	19183
2026-01-28 17:34:37.55	113.04	33.43	-53.8	-56.0	3.7	0.00e+00	0	49	104	0	78	19282
2026-01-28 17:34:38.56	112.68	33.70	-53.8	-56.0	3.7	0.00e+00	0	49	104	0	78	19327
2026-01-28 17:34:39.56	112.33	33.97	-53.9	-56.0	3.7	0.00e+00	0	49	104	0	78	19319
2026-01-28 17:34:40.56	111.97	34.24	-53.8	-55.9	3.7	0.00e+00	0	49	104	0	78	19231
2026-01-28 17:34:41.57	111.59	34.52	-35.4	-35.2	14.7	5.76e-04	0	49	0	25165824	42	14006
2026-01-28 17:34:42.56	111.22	34.79	-49.2	-49.7	5.4	2.98e-03	1630	50	0	92274688	68	16597
2026-01-28 17:34:43.57	110.84	35.07	-33.2	-33.0	12.4	0.00e+00	2124	50	104	100663296	38	13663
2026-01-28 17:34:44.58	110.44	35.34	-28.4	-28.2	16.0	0.00e+00	0	50	0	159383552	28	14057
2026-01-28 17:34:45.58	110.05	35.62	-28.4	-28.3	16.0	0.00e+00	0	50	0	234881024	28	14173
2026-01-28 17:34:46.59	109.64	35.90	-28.0	-27.9	16.1	0.00e+00	0	50	0	310378496	27	14335
2026-01-28 17:34:47.59	109.23	36.18	-28.0	-27.9	16.2	0.00e+00	0	50	0	385875968	27	14281
2026-01-28 17:34:48.60	108.80	36.47	-27.6	-27.5	16.3	0.00e+00	0	50	0	461373440	27	13699
2026-01-28 17:34:49.61	108.37	36.75	-27.4	-27.3	16.3	0.00e+00	0	50	0	536870912	26	14180
2026-01-28 17:34:50.62	107.93	37.04	-27.4	-27.3	16.3	0.00e+00	0	50	0	612368384	26	14250
2026-01-28 17:34:51.63	107.49	37.32	-27.3	-27.2	16.4	0.00e+00	0	50	0	687865856	26	14033
2026-01-28 17:34:52.63	107.04	37.61	-27.4	-27.3	16.3	0.00e+00	0	50	0	763363328	26	14214
2026-01-28 17:34:53.64	106.57	37.90	-27.3	-27.2	16.4	0.00e+00	0	50	0	830472192	26	14088
2026-01-28 17:34:54.64	106.10	38.18	-27.3	-27.2	16.3	0.00e+00	0	50	0	914358272	26	14031
2026-01-28 17:34:55.64	105.63	38.47	-27.1	-27.0	16.4	0.00e+00	0	50	0	989855744	26	13710
2026-01-28 17:34:56.65	105.14	38.76	-27.1	-27.0	16.4	0.00e+00	0	50	0	1065353216	26	13727
2026-01-28 17:34:57.65	104.64	39.05	-27.2	-27.1	16.4	0.00e+00	0	50	0	1140850688	26	13797
2026-01-28 17:34:58.66	104.13	39.34	-27.1	-27.0	16.4	0.00e+00	0	50	0	1216348160	26	13688
2026-01-28 17:34:59.67	103.61	39.63	-27.1	-27.0	16.4	0.00e+00	0	50	0	1291845632	26	13636
2026-01-28 17:35:00.67	103.09	39.92	-27.0	-26.9	16.5	0.00e+00	0	50	0	1367343104	26	13497
2026-01-28 17:35:01.68	102.55	40.21	-26.8	-26.7	16.5	0.00e+00	0	50	0	1442840576	25	14019
2026-01-28 17:35:02.69	102.00	40.51	-26.9	-26.8	16.5	0.00e+00	0	50	0	1518338048	25	14158
2026-01-28 17:35:03.70	101.44	40.80	-26.8	-26.7	16.5	0.00e+00	0	50	0	1593835520	25	13954
2026-01-28 17:35:04.71	100.87	41.09	-26.8	-26.7	16.5	0.00e+00	0	50	0	1669332992	25	13969
2026-01-28 17:35:05.72	100.29	41.38	-26.7	-26.6	16.5	0.00e+00	0	50	0	1744830464	25	13871
2026-01-28 17:35:06.72	99.70	41.67	-26.6	-26.5	16.5	0.00e+00	0	50	0	1820327936	25	13692
2026-01-28 17:35:07.73	99.10	41.96	-26.6	-26.5	16.5	0.00e+00	0	50	0	1895825408	25	13766
2026-01-28 17:35:08.74	98.48	42.24	-26.5	-26.4	16.5	0.00e+00	0	50	0	1971322880	25	13607
2026-01-28 17:35:09.75	97.86	42.53	-26.5	-26.4	16.6	0.00e+00	0	50	0	2046820352	25	13607
2026-01-28 17:35:10.75	97.22	42.81	-26.6	-26.5	16.5	0.00e+00	0	50	0	2122317824	25	13701
2026-01-28 17:35:11.76	96.57	43.10	-26.4	-26.3	16.6	0.00e+00	0	50	0	2197815296	24	14219
2026-01-28 17:35:12.77	95.91	43.38	-26.5	-26.4	16.6	0.00e+00	0	50	0	2273312768	24	14341
2026-01-28 17:35:13.77	95.24	43.66	-26.4	-26.3	16.6	0.00e+00	0	50	0	2348810240	24	14218
2026-01-28 17:35:14.79	94.55	43.94	-26.3	-26.2	16.6	0.00e+00	0	50	0	2424307712	24	14069
2026-01-28 17:35:15.80	93.85	44.21	-26.5	-26.4	16.6	0.00e+00	0	50	0	2499805184	24	14347
2026-01-28 17:35:16.81	93.14	44.49	-26.4	-26.3	16.6	0.00e+00	0	50	0	2575302656	24	14243
2026-01-28 17:35:17.81	92.42	44.76	-26.3	-26.2	16.6	0.00e+00	0	50	0	2650800128	24	14004
2026-01-28 17:35:18.82	91.69	45.02	-26.2	-26.1	16.6	0.00e+00	0	50	0	2726297600	24	13887
2026-01-28 17:35:19.83	90.94	45.29	-26.2	-26.1	16.6	0.00e+00	0	50	0	2801795072	24	13820
2026-01-28 17:35:20.83	90.18	45.55	-26.1	-26.0	16.6	0.00e+00	0	50	0	2877292544	24	13742
2026-01-28 17:35:21.84	89.41	45.81	-26.0	-25.9	16.6	0.00e+00	0	50	0	2952790016	24	13587
2026-01-28 17:35:22.85	88.62	46.06	-26.1	-26.0	16.6	0.00e+00	0	50	0	3028287488	24	13716
2026-01-28 17:35:23.86	87.82	46.31	-26.1	-26.0	16.6	0.00e+00	0	50	0	3103784960	24	13716
2026-01-28 17:35:24.87	87.00	46.55	-26.2	-26.1	16.5	0.00e+00	0	50	0	3179282432	24	13834
2026-01-28 17:35:25.87	86.18	46.79	-25.9	-25.8	16.6	0.00e+00	0	51	0	3254779904	23	14270
2026-01-28 17:35:26.88	85.34	47.03	-25.9	-25.8	16.6	0.00e+00	0	50	0	3330277376	23	14268
2026-01-28 17:35:27.89	84.49	47.26	-25.9	-25.7	16.6	0.00e+00	0	51	0	3405774848	23	14104
2026-01-28 17:35:28.89	83.63	47.48	-25.8	-25.7	16.6	0.00e+00	0	51	0	3481272320	23	14018
2026-01-28 17:35:29.90	82.75	47.70	-25.8	-25.7	16.6	0.00e+00	0	50	0	3556769792	23	14091
2026-01-28 17:35:30.91	81.85	47.91	-25.8	-25.7	16.6	0.00e+00	0	50	0	3632267264	23	14089
2026-01-28 17:35:31.91	80.96	48.11	-25.8	-25.7	16.7	0.00e+00	0	51	0	3707764736	23	13955
2026-01-28 17:35:32.92	80.04	48.31	-25.7	-25.6	16.7	0.00e+00	0	50	0	3783262208	23	13882
2026-01-28 17:35:33.92	79.12	48.50	-25.8	-25.7	16.7	0.00e+00	0	51	0	3858759680	23	13992
2026-01-28 17:35:34.93	78.18	48.69	-25.7	-25.6	16.6	0.00e+00	0	51	0	3934257152	23	13913
2026-01-28 17:35:35.94	77.23	48.87	-25.8	-25.7	16.7	0.00e+00	0	51	0	4009754624	23	13964
2026-01-28 17:35:36.95	76.27	49.04	-25.6	-25.5	16.7	0.00e+00	0	50	0	4093640704	23	13762
2026-01-28 17:35:37.95	75.30	49.20	-25.7	-25.6	16.7	0.00e+00	0	51	0	4160749568	23	13803
2026-01-28 17:35:38.96	74.32	49.36	-25.6	-25.5	16.7	0.00e+00	0	51	0	4236247040	23	13742
2026-01-28 17:35:39.98	73.31	49.50	-25.6	-25.4	16.7	0.00e+00	0	51	0	4311744512	23	13621
2026-01-28 17:35:40.99	72.31	49.64	-25.6	-25.5	16.7	0.00e+00	0	51	0	4387241984	23	13640
2026-01-28 17:35:41.99	71.31	49.77	-25.5	-25.4	16.7	0.00e+00	0	51	0	4462739456	23	13601
2026-01-28 17:35:42.99	70.30	49.89	-25.6	-25.5	16.7	0.00e+00	0	51	0	4538236928	23	13698
2026-01-28 17:35:44.04	69.23	50.00	-25.6	-25.5	16.7	0.00e+00	0	51	0	4613734400	23	13756
2026-01-28 17:35:44.96	68.28	50.09	-25.6	-25.5	16.7	0.00e+00	0	51	0	4689231872	23	13757
2026-01-28 17:35:46.02	67.19	50.19	-25.7	-25.6	16.7	0.00e+00	0	51	0	4764729344	23	13817
2026-01-28 17:35:46.91	66.26	50.26	-25.6	-25.5	16.7	0.00e+00	0	51	0	4831838208	23	13669
2026-01-28 17:35:47.99	65.14	50.34	-25.4	-25.3	16.8	0.00e+00	0	51	0	4915724288	22	14247
2026-01-28 17:35:48.87	64.21	50.40	-25.4	-25.3	16.7	0.00e+00	0	51	0	4982833152	22	14267
2026-01-28 17:35:50.02	63.00	50.46	-25.4	-25.3	16.7	0.00e+00	0	51	0	5066719232	22	14234
2026-01-28 17:35:50.90	62.07	50.50	-25.5	-25.4	16.7	0.00e+00	0	51	0	5133828096	22	14349
2026-01-28 17:35:52.04	60.87	50.53	-25.5	-25.4	16.7	0.00e+00	0	51	0	5217714176	22	14343
2026-01-28 17:35:52.94	59.91	50.55	-25.4	-25.3	16.7	0.00e+00	0	51	0	5284823040	22	14178
2026-01-28 17:35:53.99	58.80	50.56	-25.4	-25.3	16.7	0.00e+00	0	51	0	5368709120	22	14208
2026-01-28 17:35:54.88	57.85	50.57	-25.5	-25.4	16.7	0.00e+00	0	51	0	5435817984	22	14295
2026-01-28 17:35:55.97	56.69	50.56	-25.6	-25.6	16.7	0.00e+00	0	51	0	5511315456	22	14608
2026-01-28 17:35:56.87	55.74	50.54	-25.5	-25.4	16.8	0.00e+00	0	51	0	5578424320	22	14306
2026-01-28 17:35:57.91	54.64	50.51	-25.5	-25.4	16.7	0.00e+00	0	51	0	5653921792	22	14392
2026-01-28 17:35:58.85	53.64	50.48	-25.5	-25.4	16.7	0.00e+00	0	51	0	5729419264	22	14340
2026-01-28 17:35:59.85	52.59	50.43	-25.6	-25.5	16.6	0.00e+00	0	51	0	5804916736	22	14503
2026-01-28 17:36:00.86	51.53	50.37	-25.4	-25.3	16.7	0.00e+00	0	51	0	5880414208	22	14244
2026-01-28 17:36:01.87	50.47	50.30	-25.4	-25.3	16.7	0.00e+00	0	51	0	5955911680	22	14145
2026-01-28 17:36:02.88	49.42	50.23	-25.5	-25.4	16.7	0.00e+00	0	51	0	6031409152	22	14374
2026-01-28 17:36:03.89	48.38	50.14	-25.6	-25.5	16.7	0.00e+00	0	51	0	6106906624	22	14487
2026-01-28 17:36:04.90	47.34	50.04	-25.4	-25.3	16.7	0.00e+00	0	51	0	6182404096	22	14225
2026-01-28 17:36:05.90	46.32	49.94	-25.5	-25.4	16.7	0.00e+00	0	51	0	6257901568	22	14321
2026-01-28 17:36:06.91	45.30	49.82	-25.6	-25.4	16.7	0.00e+00	0	51	0	6333399040	22	14426
2026-01-28 17:36:07.92	44.28	49.70	-25.6	-25.5	16.7	0.00e+00	0	51	0	6408896512	22	14452
2026-01-28 17:36:08.93	43.27	49.56	-25.6	-25.5	16.7	0.00e+00	0	51	0	6484393984	22	14466
2026-01-28 17:36:09.93	42.29	49.42	-25.5	-25.4	16.7	0.00e+00	0	51	0	6559891456	22	14422
2026-01-28 17:36:10.94	41.30	49.27	-25.6	-25.5	16.7	0.00e+00	0	51	0	6635388928	22	14557
2026-01-28 17:36:11.95	40.32	49.11	-25.6	-25.5	16.7	0.00e+00	0	51	0	6710886400	22	14521
2026-01-28 17:36:12.96	39.36	48.94	-25.6	-25.5	16.7	0.00e+00	0	51	0	6786383872	22	14543
2026-01-28 17:36:13.97	38.40	48.77	-25.6	-25.5	16.7	0.00e+00	0	51	0	6861881344	22	14591
2026-01-28 17:36:14.98	37.46	48.59	-25.6	-25.5	16.7	0.00e+00	0	51	0	6937378816	22	14576
2026-01-28 17:36:15.98	36.54	48.40	-25.7	-25.6	16.7	0.00e+00	0	51	0	7012876288	22	14708
2026-01-28 17:36:16.99	35.62	48.20	-25.7	-25.6	16.7	0.00e+00	0	51	0	7088373760	22	14712
2026-01-28 17:36:17.99	34.72	48.00	-25.7	-25.6	16.7	0.00e+00	0	51	0	7163871232	22	14737
2026-01-28 17:36:19.00	33.82	47.79	-25.8	-25.7	16.6	0.00e+00	0	51	0	7239368704	22	14873
2026-01-28 17:36:20.00	32.95	47.58	-25.8	-25.7	16.6	0.00e+00	0	51	0	7314866176	22	14879
2026-01-28 17:36:21.01	32.08	47.36	-25.8	-25.7	16.6	0.00e+00	0	51	0	7390363648	22	14909
2026-01-28 17:36:22.02	31.22	47.13	-25.8	-25.7	16.6	0.00e+00	0	51	0	7465861120	22	14913
2026-01-28 17:36:23.03	30.38	46.90	-25.9	-25.8	16.6	0.00e+00	0	51	0	7541358592	22	14953
2026-01-28 17:36:24.03	29.55	46.66	-25.9	-25.8	16.6	0.00e+00	0	51	0	7616856064	22	14968
2026-01-28 17:36:25.03	28.74	46.42	-26.0	-25.9	16.6	0.00e+00	0	51	0	7692353536	22	15171
2026-01-28 17:36:26.04	27.94	46.18	-25.9	-25.8	16.6	0.00e+00	0	51	0	7767851008	22	15107
2026-01-28 17:36:27.05	27.15	45.93	-26.2	-26.1	16.5	0.00e+00	0	51	0	7843348480	22	15506
2026-01-28 17:36:28.05	26.37	45.68	-26.0	-25.9	16.6	0.00e+00	0	51	0	7918845952	22	15206
2026-01-28 17:36:29.06	25.61	45.42	-26.1	-26.0	16.6	0.00e+00	0	51	0	7994343424	22	15317
2026-01-28 17:36:30.06	24.86	45.16	-26.2	-26.1	16.6	0.00e+00	0	51	0	8069840896	22	15492
2026-01-28 17:36:31.07	24.12	44.89	-26.1	-26.0	16.6	0.00e+00	0	51	0	8145338368	22	15447
2026-01-28 17:36:32.07	23.40	44.63	-26.2	-26.1	16.6	0.00e+00	0	51	0	8220835840	22	15553
2026-01-28 17:36:33.08	22.69	44.36	-26.2	-26.1	16.6	0.00e+00	0	51	0	8296333312	23	14696
2026-01-28 17:36:34.08	21.99	44.09	-26.3	-26.2	16.6	0.00e+00	0	51	0	8371830784	23	14887
2026-01-28 17:36:35.09	21.30	43.81	-26.3	-26.2	16.6	0.00e+00	0	51	0	8447328256	23	14929
2026-01-28 17:36:36.09	20.63	43.53	-26.4	-26.3	16.6	0.00e+00	0	51	0	8522825728	23	14952
2026-01-28 17:36:37.10	19.96	43.25	-26.4	-26.3	16.6	0.00e+00	0	51	0	8598323200	23	14961
2026-01-28 17:36:38.11	19.31	42.97	-26.5	-26.4	16.5	0.00e+00	0	51	0	8673820672	23	15278
2026-01-28 17:36:39.11	18.68	42.69	-26.6	-26.5	16.5	0.00e+00	0	51	0	8749318144	23	15358
2026-01-28 17:36:40.11	18.05	42.41	-26.6	-26.6	16.5	0.00e+00	0	51	0	8824815616	23	15474
2026-01-28 17:36:41.12	17.43	42.12	-26.5	-26.4	16.5	0.00e+00	0	51	0	8900313088	23	15284
2026-01-28 17:36:42.12	16.83	41.84	-26.6	-26.5	16.5	0.00e+00	0	51	0	8975810560	23	15467
2026-01-28 17:36:43.13	16.24	41.55	-26.6	-26.5	16.5	0.00e+00	0	51	0	9042919424	23	15338
2026-01-28 17:36:44.14	15.65	41.26	-26.7	-26.6	16.5	0.00e+00	0	51	0	9118416896	23	15492
2026-01-28 17:36:45.15	15.08	40.97	-26.7	-26.6	16.5	0.00e+00	0	51	0	9202302976	24	14712
2026-01-28 17:36:46.15	14.52	40.69	-26.8	-26.7	16.4	0.00e+00	0	51	0	9277800448	24	14807
2026-01-28 17:36:47.16	13.97	40.40	-26.8	-26.7	16.5	0.00e+00	0	51	0	9353297920	24	14823
2026-01-28 17:36:48.17	13.43	40.11	-26.8	-26.7	16.4	0.00e+00	0	51	0	9428795392	24	14929
2026-01-28 17:36:49.17	12.90	39.82	-26.9	-26.8	16.5	0.00e+00	0	51	0	9504292864	24	14960
2026-01-28 17:36:50.18	12.38	39.53	-26.9	-26.8	16.4	0.00e+00	0	51	0	9579790336	24	15073
2026-01-28 17:36:51.19	11.87	39.24	-26.9	-26.8	16.4	0.00e+00	0	51	0	9655287808	24	15022
2026-01-28 17:36:52.19	11.37	38.95	-27.0	-26.9	16.4	0.00e+00	0	51	0	9730785280	24	15236
2026-01-28 17:36:53.20	10.87	38.66	-27.1	-27.0	16.4	0.00e+00	0	51	0	9806282752	24	15321
2026-01-28 17:36:54.20	10.39	38.38	-27.0	-26.9	16.4	0.00e+00	0	51	0	9881780224	24	15278
2026-01-28 17:36:55.21	9.92	38.09	-27.2	-27.1	16.4	0.00e+00	0	51	0	9957277696	24	15539
2026-01-28 17:36:56.21	9.46	37.80	-27.1	-27.0	16.3	0.00e+00	0	51	0	10032775168	24	15442
2026-01-28 17:36:57.22	9.00	37.52	-27.2	-27.1	16.4	0.00e+00	0	51	0	10108272640	24	15555
2026-01-28 17:36:58.22	8.55	37.24	-27.4	-27.3	16.3	0.00e+00	0	51	0	10175381504	25	15057
2026-01-28 17:36:59.23	8.11	36.95	-27.3	-27.2	16.4	0.00e+00	0	51	0	10250878976	25	14881
2026-01-28 17:37:00.24	7.68	36.67	-27.5	-27.4	16.3	0.00e+00	0	51	0	10334765056	25	15131
2026-01-28 17:37:01.24	7.26	36.39	-27.5	-27.4	16.3	0.00e+00	0	51	0	10410262528	25	15131
2026-01-28 17:37:02.25	6.84	36.11	-27.5	-27.4	16.3	0.00e+00	0	51	0	10485760000	25	15283
2026-01-28 17:37:03.26	6.43	35.83	-27.5	-27.4	16.3	0.00e+00	0	51	0	10561257472	25	15283
2026-01-28 17:37:04.26	6.03	35.55	-27.6	-27.5	16.3	0.00e+00	0	51	0	10636754944	25	15458
2026-01-28 17:37:05.27	5.64	35.27	-27.6	-27.5	16.3	0.00e+00	0	51	0	10712252416	25	15447
2026-01-28 17:37:06.29	5.24	34.99	-27.7	-27.6	16.2	0.00e+00	0	51	0	10787749888	25	15522
2026-01-28 17:37:07.29	4.87	34.72	-27.8	-27.7	16.2	0.00e+00	0	51	0	10863247360	26	14778
2026-01-28 17:37:08.30	4.49	34.45	-27.9	-27.8	16.2	0.00e+00	0	51	0	10938744832	26	15033
2026-01-28 17:37:09.30	4.13	34.18	-27.8	-27.7	16.2	0.00e+00	0	51	0	11014242304	26	14913
2026-01-28 17:37:10.31	3.77	33.91	-27.9	-27.8	16.2	0.00e+00	0	51	0	11089739776	26	15045
2026-01-28 17:37:11.31	3.42	33.64	-28.0	-27.9	16.2	0.00e+00	0	51	0	11165237248	26	15169
2026-01-28 17:37:12.32	3.07	33.37	-28.0	-27.9	16.1	0.00e+00	0	51	0	11240734720	26	15252
2026-01-28 17:37:13.33	2.72	33.11	-28.1	-28.0	16.1	0.00e+00	0	51	0	11307843584	26	15467
2026-01-28 17:37:14.34	2.39	32.84	-28.2	-28.1	16.1	0.00e+00	0	51	0	11383341056	26	15587
2026-01-28 17:37:15.35	2.06	32.58	-28.2	-28.1	16.1	0.00e+00	0	51	0	11467227136	27	14690
2026-01-28 17:37:16.36	1.73	32.32	-28.1	-28.1	16.1	0.00e+00	0	51	0	11542724608	27	14625
2026-01-28 17:37:17.37	1.41	32.06	-28.3	-28.2	16.0	0.00e+00	0	51	0	11618222080	27	14919
2026-01-28 17:37:18.37	1.10	31.81	-28.3	-28.2	16.1	0.00e+00	0	51	0	11693719552	27	14835
2026-01-28 17:37:19.38	0.79	31.55	-28.3	-28.2	16.1	0.00e+00	0	51	0	11769217024	27	14913
2026-01-28 17:37:20.39	0.49	31.30	-28.4	-28.3	16.1	0.00e+00	0	51	0	11844714496	27	14963
2026-01-28 17:37:21.40	0.19	31.04	-28.4	-28.3	16.0	0.00e+00	0	51	0	11920211968	27	15104
2026-01-28 17:37:22.41	359.90	30.79	-28.5	-28.4	16.0	0.00e+00	0	51	0	11995709440	27	15131
2026-01-28 17:37:23.42	359.61	30.54	-28.6	-28.5	16.0	0.00e+00	0	51	0	12071206912	27	15310
2026-01-28 17:37:24.42	359.33	30.30	-28.5	-28.4	16.0	0.00e+00	0	51	0	12146704384	27	15251
2026-01-28 17:37:25.43	359.05	30.05	-28.6	-28.5	16.0	0.00e+00	0	51	0	12222201856	27	15420
2026-01-28 17:37:26.43	358.78	29.81	-28.5	-28.4	16.0	0.00e+00	0	51	0	12297699328	28	14430
2026-01-28 17:37:27.44	358.51	29.57	-28.7	-28.6	15.9	0.00e+00	0	51	0	12373196800	28	14624
2026-01-28 17:37:28.45	358.24	29.33	-28.7	-28.6	15.9	0.00e+00	0	51	0	12448694272	28	14712
2026-01-28 17:37:29.45	357.99	29.10	-28.9	-28.8	15.9	0.00e+00	0	51	0	12524191744	28	15031
2026-01-28 17:37:30.46	357.73	28.86	-28.9	-28.8	15.8	0.00e+00	0	51	0	12599689216	28	15104
2026-01-28 17:37:31.47	357.48	28.62	-28.9	-28.8	15.9	0.00e+00	0	51	0	12675186688	28	15040
2026-01-28 17:37:32.48	357.23	28.39	-29.0	-29.0	15.8	0.00e+00	0	51	0	12750684160	28	15309
2026-01-28 17:37:33.49	356.98	28.16	-28.9	-28.8	15.8	0.00e+00	0	51	0	12826181632	28	15120
2026-01-28 17:37:34.50	356.74	27.93	-28.9	-28.9	15.8	0.00e+00	0	51	0	12901679104	28	15123
2026-01-28 17:37:35.50	356.51	27.71	-29.0	-28.9	15.8	0.00e+00	0	51	0	12977176576	28	15225
2026-01-28 17:37:36.51	356.27	27.48	-29.1	-29.0	15.8	0.00e+00	0	51	0	13052674048	28	15416
2026-01-28 17:37:37.51	356.05	27.26	-29.1	-29.0	15.8	0.00e+00	0	51	0	13128171520	28	15380
2026-01-28 17:37:38.52	355.82	27.04	-29.3	-29.2	15.7	0.00e+00	0	51	0	13203668992	29	14806
2026-01-28 17:37:39.52	355.60	26.82	-29.2	-29.1	15.7	0.00e+00	0	51	0	13279166464	29	14700
2026-01-28 17:37:40.53	355.38	26.60	-29.3	-29.2	15.7	0.00e+00	0	51	0	13354663936	29	14799
2026-01-28 17:37:41.53	355.17	26.38	-29.3	-29.2	15.7	0.00e+00	0	51	0	13430161408	29	14933
2026-01-28 17:37:42.53	354.95	26.17	-29.3	-29.2	15.7	0.00e+00	0	51	0	13505658880	29	14937
2026-01-28 17:37:43.54	354.75	25.96	-29.5	-29.4	15.6	0.00e+00	0	51	0	13581156352	29	15139
2026-01-28 17:37:44.55	354.54	25.74	-29.5	-29.4	15.6	0.00e+00	0	51	0	13656653824	29	15215
2026-01-28 17:37:45.55	354.34	25.53	-29.5	-29.4	15.6	0.00e+00	0	51	0	13732151296	29	15270
2026-01-28 17:37:46.56	354.14	25.33	-29.6	-29.5	15.6	0.00e+00	0	51	0	13807648768	29	15331
2026-01-28 17:37:47.57	353.94	25.12	-29.6	-29.6	15.6	0.00e+00	0	51	0	13883146240	29	15477
2026-01-28 17:37:48.57	353.75	24.91	-29.8	-29.7	15.5	0.00e+00	0	51	0	13958643712	30	14809
2026-01-28 17:37:49.58	353.56	24.71	-29.8	-29.7	15.5	0.00e+00	0	51	0	14034141184	30	14855
2026-01-28 17:37:50.59	353.37	24.51	-29.9	-29.8	15.5	0.00e+00	0	51	0	14109638656	30	14969
2026-01-28 17:37:51.59	353.18	24.31	-29.9	-29.8	15.5	0.00e+00	0	51	0	14185136128	30	15034
2026-01-28 17:37:52.59	353.00	24.11	-29.8	-29.7	15.5	0.00e+00	0	51	0	14260633600	30	14944
2026-01-28 17:37:53.60	352.82	23.91	-29.9	-29.8	15.5	0.00e+00	0	51	0	14336131072	30	15010
2026-01-28 17:37:54.61	352.64	23.72	-30.0	-29.9	15.5	0.00e+00	0	51	0	14411628544	30	15163
2026-01-28 17:37:55.61	352.47	23.52	-30.0	-29.9	15.5	0.00e+00	0	51	0	14487126016	30	15181
2026-01-28 17:37:56.62	352.29	23.33	-30.0	-29.9	15.4	0.00e+00	0	51	0	14562623488	30	15261
2026-01-28 17:37:57.63	352.12	23.14	-30.1	-30.0	15.4	0.00e+00	0	51	0	14638120960	30	15377
2026-01-28 17:37:58.63	351.95	22.95	-30.2	-30.1	15.4	0.00e+00	0	51	0	14705229824	30	15550
2026-01-28 17:37:59.64	351.79	22.76	-30.2	-30.1	15.4	0.00e+00	0	51	0	14789115904	31	14699
2026-01-28 17:38:00.65	351.62	22.58	-30.2	-30.2	15.4	0.00e+00	0	51	0	14864613376	31	14784
2026-01-28 17:38:01.66	351.46	22.39	-30.3	-30.2	15.3	0.00e+00	0	51	0	14940110848	31	14879
2026-01-28 17:38:02.67	351.30	22.20	-30.3	-30.2	15.3	0.00e+00	0	51	0	15015608320	31	14942
2026-01-28 17:38:03.67	351.15	22.02	-30.4	-30.3	15.3	0.00e+00	0	51	0	15091105792	31	15092
2026-01-28 17:38:04.68	350.99	21.84	-30.4	-30.3	15.3	0.00e+00	0	51	0	15166603264	31	15084
2026-01-28 17:38:05.69	350.84	21.66	-30.5	-30.4	15.3	0.00e+00	0	51	0	15242100736	31	15193
2026-01-28 17:38:06.69	350.69	21.48	-30.5	-30.4	15.2	0.00e+00	0	51	0	15317598208	31	15288
2026-01-28 17:38:07.70	350.54	21.31	-30.6	-30.6	15.2	0.00e+00	0	51	0	15393095680	31	15486
2026-01-28 17:38:08.70	350.39	21.13	-30.6	-30.5	15.2	0.00e+00	0	51	0	15468593152	31	15339
2026-01-28 17:38:09.71	350.25	20.96	-30.6	-30.5	15.1	0.00e+00	0	51	0	15544090624	32	14577
2026-01-28 17:38:10.71	350.11	20.79	-30.5	-30.5	15.2	0.00e+00	0	51	0	15619588096	32	14465
2026-01-28 17:38:11.71	349.97	20.62	-30.6	-30.6	15.1	0.00e+00	0	51	0	15695085568	32	14611
2026-01-28 17:38:12.71	349.83	20.45	-30.8	-30.7	15.0	0.00e+00	0	51	0	15770583040	32	14848
2026-01-28 17:38:13.72	349.69	20.28	-30.7	-30.6	15.1	0.00e+00	0	51	0	15837691904	32	14704
2026-01-28 17:38:14.73	349.55	20.11	-30.8	-30.7	15.1	0.00e+00	0	51	0	15913189376	32	14878
2026-01-28 17:38:15.73	349.42	19.94	-30.7	-30.7	15.1	0.00e+00	0	51	0	15988686848	32	14787
2026-01-28 17:38:16.74	349.29	19.78	-30.8	-30.8	15.0	0.00e+00	0	51	0	16072572928	32	14957
2026-01-28 17:38:17.74	349.16	19.61	-30.8	-30.8	15.0	0.00e+00	0	51	0	16148070400	32	14954
2026-01-28 17:38:18.75	349.03	19.45	-30.9	-30.8	15.0	0.00e+00	0	51	0	16223567872	32	15016
2026-01-28 17:38:19.76	348.90	19.29	-31.0	-30.9	15.0	0.00e+00	0	51	0	16299065344	32	15200
2026-01-28 17:38:20.77	348.77	19.13	-31.0	-30.9	15.0	0.00e+00	0	51	0	16374562816	32	15171
2026-01-28 17:38:21.77	348.65	18.97	-31.2	-31.1	14.9	0.00e+00	0	51	0	16450060288	32	15532
2026-01-28 17:38:22.78	348.53	18.81	-31.1	-31.0	14.9	0.00e+00	0	51	0	16525557760	32	15436
2026-01-28 17:38:23.79	348.41	18.65	-31.1	-31.1	14.9	0.00e+00	0	51	0	16601055232	32	15475
2026-01-28 17:38:24.80	348.29	18.50	-31.1	-31.0	14.9	0.00e+00	0	51	0	16676552704	32	15453
2026-01-28 17:38:25.80	348.17	18.34	-31.2	-31.2	14.8	0.00e+00	0	51	0	16752050176	33	14781
2026-01-28 17:38:26.81	348.05	18.19	-31.2	-31.1	14.8	0.00e+00	0	51	0	16827547648	33	14759
2026-01-28 17:38:27.81	347.94	18.04	-31.2	-31.2	14.8	0.00e+00	0	51	0	16903045120	33	14791
2026-01-28 17:38:28.82	347.82	17.89	-31.3	-31.3	14.8	0.00e+00	0	51	0	16978542592	33	14957
2026-01-28 17:38:29.83	347.71	17.74	-31.4	-31.3	14.8	0.00e+00	0	51	0	17045651456	33	15001
2026-01-28 17:38:30.83	347.60	17.59	-31.5	-31.5	14.7	0.00e+00	0	51	0	17121148928	33	15316
2026-01-28 17:38:31.84	347.49	17.44	-31.5	-31.4	14.7	0.00e+00	0	52	0	17196646400	33	15186
2026-01-28 17:38:32.84	347.38	17.29	-31.5	-31.4	14.7	0.00e+00	0	51	0	17280532480	33	15272
2026-01-28 17:38:33.85	347.27	17.15	-31.5	-31.5	14.7	0.00e+00	0	51	0	17356029952	33	15334
2026-01-28 17:38:34.86	347.16	17.00	-31.6	-31.6	14.6	0.00e+00	0	51	0	17431527424	33	15474
2026-01-28 17:38:35.87	347.06	16.86	-31.7	-31.7	14.6	0.00e+00	0	52	0	17507024896	34	14784
2026-01-28 17:38:36.87	346.96	16.71	-31.7	-31.7	14.6	0.00e+00	0	51	0	17582522368	34	14800
2026-01-28 17:38:37.88	346.85	16.57	-31.8	-31.7	14.5	0.00e+00	0	51	0	17658019840	34	14880
2026-01-28 17:38:38.88	346.75	16.43	-31.8	-31.7	14.6	0.00e+00	0	51	0	17733517312	34	14908
2026-01-28 17:38:39.89	346.65	16.29	-31.9	-31.8	14.5	0.00e+00	0	51	0	17809014784	34	15012
2026-01-28 17:38:40.90	346.55	16.15	-31.8	-31.8	14.5	0.00e+00	0	51	0	17884512256	34	14985
2026-01-28 17:38:41.91	346.45	16.01	-31.9	-31.8	14.5	0.00e+00	0	51	0	17960009728	34	15038
2026-01-28 17:38:42.92	346.36	15.87	-31.9	-31.9	14.5	0.00e+00	0	51	0	18035507200	34	15159
2026-01-28 17:38:43.93	346.26	15.74	-32.0	-31.9	14.4	0.00e+00	0	51	0	18111004672	34	15275
2026-01-28 17:38:44.93	346.16	15.60	-32.0	-32.0	14.4	0.00e+00	0	51	0	18178113536	34	15301
2026-01-28 17:38:45.94	346.07	15.47	-32.0	-32.0	14.4	0.00e+00	0	51	0	18261999616	34	15308
2026-01-28 17:38:46.95	345.98	15.33	-32.2	-32.1	14.3	0.00e+00	0	52	0	18337497088	34	15564
2026-01-28 17:38:47.96	345.89	15.20	-32.2	-32.2	14.3	0.00e+00	0	51	0	18412994560	35	14790
2026-01-28 17:38:48.97	345.79	15.07	-32.2	-32.2	14.3	0.00e+00	0	51	0	18488492032	35	14801
2026-01-28 17:38:49.97	345.70	14.94	-32.4	-32.3	14.2	0.00e+00	0	51	0	18563989504	35	15031
2026-01-28 17:38:50.98	345.62	14.81	-32.3	-32.3	14.2	0.00e+00	0	51	0	18639486976	35	14973
2026-01-28 17:38:51.99	345.53	14.68	-32.4	-32.3	14.2	0.00e+00	0	52	0	18714984448	35	15002
2026-01-28 17:38:53.00	345.44	14.55	-32.5	-32.4	14.2	6.90e-06	0	51	0	18790481920	35	15201
2026-01-28 17:38:54.00	345.35	14.42	-32.4	-32.3	14.2	6.90e-06	0	51	0	18865979392	35	15050
2026-01-28 17:38:55.01	345.27	14.29	-32.5	-32.4	14.2	0.00e+00	0	51	0	18941476864	35	15192
2026-01-28 17:38:56.02	345.18	14.17	-32.4	-32.3	14.2	0.00e+00	0	51	0	19016974336	35	15052
2026-01-28 17:38:57.02	345.10	14.04	-32.5	-32.4	14.2	0.00e+00	0	52	0	19092471808	35	15207
2026-01-28 17:38:58.03	345.02	13.92	-32.5	-32.4	14.1	0.00e+00	0	52	0	19167969280	35	15282
2026-01-28 17:38:59.04	344.94	13.79	-32.6	-32.5	14.1	0.00e+00	0	51	0	19243466752	35	15366
2026-01-28 17:39:00.04	344.86	13.67	-32.6	-32.5	14.1	0.00e+00	0	51	0	19318964224	35	15465
2026-01-28 17:39:01.05	344.78	13.55	-32.7	-32.6	14.0	6.90e-06	0	51	0	19394461696	35	15546
2026-01-28 17:39:02.06	344.70	13.42	-35.1	-35.0	14.7	0.00e+00	0	52	0	19469959168	41	14565
2026-01-28 17:39:03.07	344.62	13.30	-35.1	-35.0	14.7	0.00e+00	0	52	0	19545456640	41	14537
2026-01-28 17:39:04.08	344.54	13.18	-35.2	-35.1	14.7	0.00e+00	0	52	0	19620954112	41	14756
2026-01-28 17:39:05.08	344.46	13.06	-35.1	-35.0	14.7	0.00e+00	0	52	0	19696451584	41	14564
2026-01-28 17:39:06.09	344.39	12.95	-35.3	-35.3	14.6	0.00e+00	0	51	0	19771949056	41	14972
2026-01-28 17:39:07.10	344.31	12.83	-35.3	-35.2	14.6	0.00e+00	0	51	0	19847446528	41	14849
2026-01-28 17:39:08.11	344.24	12.71	-35.3	-35.2	14.6	0.00e+00	0	52	0	19922944000	41	14846
2026-01-28 17:39:09.12	344.16	12.59	-35.3	-35.2	14.6	0.00e+00	0	52	0	19998441472	41	14944
2026-01-28 17:39:10.13	344.09	12.48	-35.5	-35.4	14.5	0.00e+00	0	51	0	20073938944	41	15216
2026-01-28 17:39:11.13	344.02	12.36	-35.4	-35.3	14.5	0.00e+00	0	51	0	20149436416	41	14985
2026-01-28 17:39:12.14	343.95	12.25	-35.4	-35.3	14.5	0.00e+00	0	51	0	20233322496	41	15093
2026-01-28 17:39:13.15	343.88	12.13	-35.5	-35.4	14.5	0.00e+00	0	52	0	20300431360	41	15282
2026-01-28 17:39:14.16	343.81	12.02	-35.6	-35.5	14.4	0.00e+00	0	52	0	20375928832	41	15358
2026-01-28 17:39:15.17	343.74	11.91	-35.6	-35.6	14.4	0.00e+00	0	51	0	20451426304	41	15485
2026-01-28 17:39:16.17	343.67	11.79	-35.7	-35.6	14.4	0.00e+00	0	52	0	20526923776	42	14753
2026-01-28 17:39:17.17	343.60	11.68	-35.7	-35.6	14.4	0.00e+00	0	52	0	20602421248	42	14702
2026-01-28 17:39:18.18	343.53	11.57	-35.6	-35.6	14.4	0.00e+00	0	52	0	20677918720	42	14615
2026-01-28 17:39:19.19	343.47	11.46	-35.8	-35.8	14.3	0.00e+00	0	52	0	20753416192	42	14951
2026-01-28 17:39:20.20	343.40	11.35	-35.7	-35.6	14.4	0.00e+00	0	52	0	20828913664	42	14715
2026-01-28 17:39:21.20	343.33	11.24	-35.9	-35.8	14.2	0.00e+00	0	51	0	20904411136	42	15082
2026-01-28 17:39:22.21	343.27	11.14	-35.8	-35.7	14.3	0.00e+00	0	52	0	20979908608	42	14864
2026-01-28 17:39:23.22	343.20	11.03	-35.8	-35.7	14.3	0.00e+00	0	51	0	21055406080	42	14937
2026-01-28 17:39:24.23	343.14	10.92	-35.9	-35.8	14.2	0.00e+00	0	52	0	21130903552	42	15082
2026-01-28 17:39:25.24	343.08	10.81	-35.9	-35.8	14.2	0.00e+00	0	51	0	21206401024	42	15056
2026-01-28 17:39:26.25	343.02	10.71	-36.0	-35.9	14.2	0.00e+00	0	52	0	21290287104	42	15251
2026-01-28 17:39:27.25	342.95	10.60	-36.0	-35.9	14.2	0.00e+00	0	51	0	21365784576	42	15289
2026-01-28 17:39:28.26	342.89	10.50	-36.0	-36.0	14.1	0.00e+00	0	51	0	21432893440	42	15325
2026-01-28 17:39:29.26	342.83	10.39	-36.1	-36.1	14.1	0.00e+00	0	52	0	21508390912	42	15477
2026-01-28 17:39:30.27	342.77	10.29	-36.2	-36.1	14.1	0.00e+00	0	51	0	21583888384	42	15520
2026-01-28 17:39:31.28	342.71	10.19	-36.1	-36.1	14.1	0.00e+00	0	52	0	21659385856	42	15506
2026-01-28 17:39:32.29	342.65	10.08	-36.3	-36.2	14.0	0.00e+00	0	52	0	21734883328	43	14873
2026-01-28 17:39:33.30	342.59	9.98	-36.3	-36.3	14.0	0.00e+00	0	51	0	21810380800	43	14963
2026-01-28 17:39:34.30	342.54	9.88	-36.2	-36.2	14.0	6.90e-06	0	51	0	21885878272	43	14817
2026-01-28 17:39:35.31	342.48	9.78	-36.5	-36.4	13.9	6.90e-06	0	51	0	21961375744	43	15257
2026-01-28 17:39:36.32	342.42	9.68	-36.5	-36.4	13.9	0.00e+00	0	52	0	22036873216	43	15235
2026-01-28 17:39:37.32	342.36	9.58	-36.4	-36.3	13.9	0.00e+00	0	52	0	22112370688	43	15054
2026-01-28 17:39:38.33	342.31	9.48	-36.6	-36.5	13.8	0.00e+00	0	52	0	22187868160	43	15374
2026-01-28 17:39:39.33	342.25	9.38	-36.6	-36.5	13.8	6.90e-06	0	51	0	22263365632	43	15442
2026-01-28 17:39:40.34	342.20	9.28	-36.4	-36.3	13.9	0.00e+00	0	52	0	22347251712	43	15063
2026-01-28 17:39:41.35	342.14	9.18	-36.6	-36.5	13.8	0.00e+00	0	51	0	22422749184	43	15392
2026-01-28 17:39:42.36	342.09	9.09	-36.5	-36.5	13.8	0.00e+00	0	52	0	22498246656	43	15349
2026-01-28 17:39:43.37	342.04	8.99	-36.5	-36.4	13.8	0.00e+00	0	52	0	22565355520	43	15283
2026-01-28 17:39:44.37	341.98	8.89	-36.6	-36.6	13.8	0.00e+00	0	52	0	22640852992	43	15500
2026-01-28 17:39:45.38	341.93	8.80	-36.6	-36.5	13.8	0.00e+00	0	51	0	22716350464	43	15419
2026-01-28 17:39:46.39	341.88	8.70	-36.6	-36.6	13.7	6.90e-06	0	52	0	22791847936	44	14640
2026-01-28 17:39:47.40	341.83	8.61	-36.6	-36.6	13.7	0.00e+00	0	51	0	22867345408	44	14628
2026-01-28 17:39:48.40	341.78	8.51	-36.6	-36.5	13.7	0.00e+00	0	52	0	22942842880	44	14572
2026-01-28 17:39:49.41	341.72	8.42	-36.7	-36.6	13.7	0.00e+00	0	52	0	23018340352	44	14670
2026-01-28 17:39:50.42	341.67	8.32	-36.8	-36.7	13.6	6.90e-06	0	51	0	23093837824	44	14871
2026-01-28 17:39:51.43	341.62	8.23	-36.8	-36.8	13.5	0.00e+00	0	52	0	23169335296	44	14965
2026-01-28 17:39:52.44	341.57	8.14	-36.9	-36.8	13.5	1.38e-05	0	52	0	23253221376	44	15094
2026-01-28 17:39:53.45	341.52	8.04	-36.9	-36.8	13.5	6.90e-06	0	52	0	23328718848	44	15049
2026-01-28 17:39:54.46	341.48	7.95	-37.0	-37.0	13.4	1.38e-05	0	52	0	23404216320	44	15305
2026-01-28 17:39:55.47	341.43	7.86	-37.0	-37.0	13.4	0.00e+00	0	52	0	23479713792	44	15329
2026-01-28 17:39:56.47	341.38	7.77	-37.1	-37.0	13.3	1.38e-05	0	51	0	23555211264	44	15390
2026-01-28 17:39:57.48	341.33	7.68	-37.1	-37.0	13.3	0.00e+00	0	52	0	23630708736	44	15462
2026-01-28 17:39:58.48	341.29	7.59	-37.1	-37.1	13.3	0.00e+00	0	52	0	23697817600	44	15490
2026-01-28 17:39:59.49	341.24	7.50	-37.0	-37.0	13.4	2.08e-05	0	52	0	23773315072	45	14473
2026-01-28 17:40:00.49	341.19	7.41	-37.1	-37.0	13.3	0.00e+00	0	52	0	23848812544	45	14539
2026-01-28 17:40:01.50	341.15	7.32	-37.2	-37.1	13.3	0.00e+00	0	52	0	23924310016	45	14716
2026-01-28 17:40:02.51	341.10	7.23	-37.2	-37.1	13.3	0.00e+00	0	52	0	23999807488	45	14705
2026-01-28 17:40:03.52	341.06	7.14	-37.2	-37.1	13.3	2.08e-05	0	52	0	24075304960	45	14713
2026-01-28 17:40:04.52	341.01	7.05	-37.2	-37.1	13.3	1.38e-05	0	52	0	24150802432	45	14707
2026-01-28 17:40:05.52	340.97	6.97	-37.2	-37.1	13.3	0.00e+00	0	52	0	24226299904	45	14740
2026-01-28 17:40:06.53	340.92	6.88	-37.2	-37.1	13.2	0.00e+00	0	52	0	24301797376	45	14737
2026-01-28 17:40:07.53	340.88	6.79	-37.2	-37.2	13.2	0.00e+00	0	52	0	24377294848	45	14827
2026-01-28 17:40:08.54	340.84	6.71	-37.3	-37.3	13.1	1.38e-05	0	52	0	24461180928	45	15028
2026-01-28 17:40:09.55	340.79	6.62	-37.4	-37.4	13.1	6.90e-06	0	52	0	24536678400	45	15179
2026-01-28 17:40:10.56	340.75	6.53	-37.6	-37.6	12.9	1.38e-05	0	52	0	24612175872	45	15543
2026-01-28 17:40:11.57	340.71	6.45	-37.9	-37.9	12.7	2.77e-05	0	52	0	24687673344	46	15203
2026-01-28 17:40:12.58	340.67	6.36	-37.4	-37.4	13.1	2.08e-05	0	52	0	24763170816	46	14342
2026-01-28 17:40:13.59	340.62	6.28	-37.4	-37.4	13.0	1.38e-05	0	51	0	24830279680	46	14352
2026-01-28 17:40:14.60	340.58	6.19	-37.6	-37.5	13.0	5.54e-05	0	52	0	24905777152	46	14567
2026-01-28 17:40:15.60	340.54	6.11	-37.7	-37.6	12.9	0.00e+00	0	52	0	24981274624	46	14703
2026-01-28 17:40:16.61	340.50	6.03	-37.6	-37.6	12.9	6.24e-05	0	52	0	25056772096	46	14618
2026-01-28 17:40:17.62	340.46	5.94	-37.7	-37.7	12.8	1.38e-05	0	52	0	25132269568	46	14872
2026-01-28 17:40:18.63	340.42	5.86	-37.9	-37.8	12.7	1.38e-05	0	52	0	25207767040	46	15095
2026-01-28 17:40:19.63	340.38	5.78	-37.8	-37.7	12.8	3.46e-05	0	52	0	25283264512	46	14894
2026-01-28 17:40:20.64	340.34	5.70	-37.8	-37.7	12.8	2.77e-05	0	52	0	25367150592	46	14870
2026-01-28 17:40:21.65	340.30	5.61	-37.6	-37.6	12.8	2.08e-05	0	52	0	25442648064	46	14686
2026-01-28 17:40:22.65	340.26	5.53	-37.8	-37.8	12.7	2.08e-05	0	52	0	25518145536	46	14998
2026-01-28 17:40:23.66	340.23	5.45	-37.8	-37.8	12.7	4.85e-05	0	52	0	25593643008	46	15044
2026-01-28 17:40:24.67	340.19	5.37	-52.4	-54.7	3.7	4.85e-05	0	51	104	25618808832	75	19772
2026-01-28 17:40:25.68	340.15	5.29	-52.4	-54.6	3.7	4.85e-05	0	51	104	25618808832	75	19578
2026-01-28 17:40:26.68	340.11	5.21	-52.3	-54.5	3.7	4.85e-05	0	51	104	25618808832	75	19396
2026-01-28 17:40:27.69	340.07	5.13	-52.4	-54.5	3.7	4.85e-05	0	51	104	25618808832	75	19438
2026-01-28 17:40:28.69	340.04	5.05	-52.2	-54.4	3.7	4.85e-05	0	51	104	25618808832	75	19083
2026-01-28 17:40:29.70	340.00	4.97	-52.3	-54.4	3.7	4.85e-05	0	51	104	25618808832	75	19240
2026-01-28 17:40:30.71	339.96	4.89	-52.8	-54.9	3.7	4.85e-05	0	51	104	25618808832	76	19217
2026-01-28 17:40:31.71	339.93	4.81	-53.1	-55.2	3.7	4.85e-05	0	51	104	25618808832	76	19885
2026-01-28 17:40:32.72	339.89	4.73	-53.4	-55.5	3.7	4.85e-05	0	51	104	25618808832	77	19349
2026-01-28 17:40:33.73	339.86	4.66	-53.5	-55.6	3.7	4.85e-05	0	51	104	25618808832	77	19654
2026-01-28 17:40:34.74	339.82	4.58	-53.6	-55.7	3.7	4.85e-05	0	50	104	25618808832	77	19923
2026-01-28 17:40:35.74	339.79	4.50	-53.8	-55.9	3.7	4.85e-05	0	51	104	25618808832	78	19134
2026-01-28 17:40:36.75	339.75	4.42	-53.9	-56.0	3.7	4.85e-05	0	51	104	25618808832	78	19416
2026-01-28 17:40:37.76	339.72	4.35	-53.9	-56.0	3.7	4.85e-05	0	51	104	25618808832	78	19459
2026-01-28 17:40:38.77	339.68	4.27	-53.9	-56.0	3.7	4.85e-05	0	51	104	25618808832	78	19477
2026-01-28 17:40:39.78	339.65	4.19	-53.9	-56.1	3.7	4.85e-05	0	50	104	25618808832	78	19513
2026-01-28 17:40:40.79	339.61	4.12	-53.9	-56.0	3.7	4.85e-05	0	50	104	25618808832	78	19419
2026-01-28 17:40:41.80	339.58	4.04	-53.9	-56.0	3.7	4.85e-05	0	50	104	25618808832	78	19405
2026-01-28 17:40:42.82	339.55	3.96	-53.7	-55.9	3.7	4.85e-05	0	50	104	25618808832	78	19073
2026-01-28 17:40:43.84	339.51	3.89	-53.6	-55.7	3.7	4.85e-05	0	50	104	25618808832	78	18699
2026-01-28 17:40:44.84	339.48	3.81	-53.6	-55.7	3.7	4.85e-05	0	50	104	25618808832	78	18723
2026-01-28 17:40:45.84	339.45	3.74	-53.6	-55.7	3.7	4.85e-05	0	50	104	25618808832	78	18760
2026-01-28 17:40:46.85	339.42	3.66	-53.6	-55.8	3.7	4.85e-05	0	50	104	25618808832	78	18851
2026-01-28 17:40:47.85	339.38	3.59	-53.7	-55.8	3.7	4.85e-05	0	50	104	25618808832	78	18883
2026-01-28 17:40:48.85	339.35	3.51	-53.7	-55.8	3.7	4.85e-05	0	51	104	25618808832	78	18906
2026-01-28 17:40:49.87	339.32	3.44	-53.7	-55.8	3.7	4.85e-05	0	50	104	25618808832	78	18889
2026-01-28 17:40:50.87	339.29	3.37	-53.6	-55.7	3.7	4.85e-05	0	51	104	25618808832	78	18814
2026-01-28 17:40:51.87	339.26	3.29	-53.6	-55.7	3.7	4.85e-05	0	50	104	25618808832	78	18694
2026-01-28 17:40:52.88	339.23	3.22	-53.5	-55.7	3.7	4.85e-05	0	50	104	25618808832	78	18645
2026-01-28 17:40:53.89	339.20	3.15	-53.5	-55.6	3.7	4.85e-05	0	50	104	25618808832	78	18543
2026-01-28 17:40:54.90	339.17	3.07	-53.5	-55.7	3.7	4.85e-05	0	50	104	25618808832	78	18621
2026-01-28 17:40:55.91	339.14	3.00	-53.5	-55.7	3.7	4.85e-05	0	50	104	25618808832	78	18610
2026-01-28 17:40:56.91	339.11	2.93	-53.5	-55.6	3.7	4.85e-05	0	50	104	25618808832	78	18557
2026-01-28 17:40:57.92	339.08	2.86	-53.5	-55.6	3.7	4.85e-05	0	50	104	25618808832	78	18590
2026-01-28 17:40:58.93	339.05	2.79	-53.5	-55.6	3.7	4.85e-05	0	50	104	25618808832	78	18556
2026-01-28 17:40:59.93	339.02	2.72	-53.5	-55.6	3.7	4.85e-05	0	50	104	25618808832	78	18554
2026-01-28 17:41:00.94	338.99	2.64	-53.5	-55.6	3.7	4.85e-05	0	50	104	25618808832	78	18538
2026-01-28 17:41:01.94	338.96	2.57	-53.5	-55.6	3.7	4.85e-05	0	50	104	25618808832	78	18475
2026-01-28 17:41:02.95	338.93	2.50	-53.5	-55.6	3.7	4.85e-05	0	50	104	25618808832	78	18543
2026-01-28 17:41:03.96	338.90	2.43	-53.5	-55.6	3.7	4.85e-05	0	50	104	25618808832	78	18462
2026-01-28 17:41:04.97	338.87	2.36	-53.4	-55.6	3.6	4.85e-05	0	50	104	25618808832	78	18425
2026-01-28 17:41:05.97	338.84	2.29	-53.4	-55.6	3.7	4.85e-05	0	50	104	25618808832	78	18426
2026-01-28 17:41:06.98	338.82	2.22	-53.4	-55.6	3.7	4.85e-05	0	50	104	25618808832	78	18469
2026-01-28 17:41:07.99	338.79	2.15	-53.4	-55.6	3.7	4.85e-05	0	50	104	25618808832	78	18397
2026-01-28 17:41:09.00	338.76	2.08	-53.4	-55.6	3.7	4.85e-05	0	50	104	25618808832	78	18390
2026-01-28 17:41:10.01	338.73	2.01	-53.4	-55.6	3.7	4.85e-05	0	50	104	25618808832	78	18446
2026-01-28 17:41:11.02	338.71	1.94	-53.4	-55.5	3.7	4.85e-05	0	50	104	25618808832	78	18356

#Closed at: 2026-01-28 17:41:11
#Recorded file [25618 MB]: D:/lorett/data/31041_260128_203042.dat