passes_logs/2026/01/28/R3.2S_Murmansk/R3.2S_Murmansk__20260128_235007_AQUA_rec.log

#Pass ID: 20260128_235007_AQUA
#Satellite: AQUA
#Configuration: AQUA
#almurnet v.1.7.20251203
#Start time: 2026-01-28 23:50:09

#Version: 2.2.20231116
#Station: R3.2S_Murmansk
#Location: 33.079688 lon 68.888172 lat
#TLE: 1 27424U 02022A   26027.96263068  .00001625  00000+0  33481-3 0  9997
#TLE: 2 27424  98.4102 354.6095 0001839  63.4368   7.7786 14.61867353262782

#Time	Az	El	Level	Level2	SNR	BER	BlckErr	Temp	State	Recorded	gain1	gain2
2026-01-28 23:50:09.53	21.46	2.11	-53.4	-71.2	3.8	7.44e-01	0	40	0	0	78	27835
2026-01-28 23:50:10.52	21.55	2.16	-53.4	-71.1	3.8	7.44e-01	0	40	104	0	77	29109
2026-01-28 23:50:11.53	21.64	2.22	-53.4	-71.1	3.8	7.45e-01	0	40	104	0	77	29029
2026-01-28 23:50:12.54	21.73	2.27	-53.4	-71.1	3.8	7.46e-01	0	40	104	0	77	29083
2026-01-28 23:50:13.54	21.82	2.33	-53.4	-71.1	3.8	7.43e-01	0	40	104	0	77	29081
2026-01-28 23:50:14.55	21.92	2.38	-53.4	-71.0	3.8	7.46e-01	0	40	104	0	77	28830
2026-01-28 23:50:15.55	22.01	2.43	-53.4	-70.8	3.8	7.46e-01	0	40	104	0	77	28302
2026-01-28 23:50:16.56	22.10	2.49	-53.4	-70.8	3.8	7.46e-01	0	40	104	0	77	28227
2026-01-28 23:50:17.57	22.20	2.54	-53.3	-70.8	3.8	7.47e-01	0	40	104	0	77	28213
2026-01-28 23:50:18.57	22.29	2.60	-53.3	-70.8	3.8	7.47e-01	0	40	104	0	77	28186
2026-01-28 23:50:19.58	22.39	2.65	-53.3	-70.8	3.8	7.46e-01	0	41	104	0	77	28092
2026-01-28 23:50:20.59	22.48	2.70	-53.3	-70.8	3.8	7.45e-01	0	40	104	0	77	28123
2026-01-28 23:50:21.60	22.58	2.76	-53.3	-70.7	3.8	7.48e-01	0	40	104	0	77	27907
2026-01-28 23:50:22.61	22.67	2.81	-53.3	-70.8	3.8	7.45e-01	0	40	104	0	77	28101
2026-01-28 23:50:23.61	22.77	2.87	-53.3	-70.6	3.8	7.42e-01	0	41	104	0	77	27704
2026-01-28 23:50:24.62	22.87	2.92	-53.3	-70.6	3.8	7.43e-01	0	40	104	0	77	27473
2026-01-28 23:50:25.63	22.96	2.98	-53.3	-70.3	3.8	7.40e-01	0	40	104	0	77	26740
2026-01-28 23:50:26.64	23.06	3.03	-53.3	-70.2	3.8	7.46e-01	0	40	104	0	77	26351
2026-01-28 23:50:27.64	23.16	3.09	-53.3	-70.0	3.8	7.44e-01	0	41	104	0	77	25566
2026-01-28 23:50:28.65	23.26	3.14	-53.3	-70.0	3.8	7.44e-01	0	40	104	0	77	25593
2026-01-28 23:50:29.66	23.36	3.20	-53.3	-69.7	3.8	7.46e-01	0	41	104	0	77	24894
2026-01-28 23:50:30.67	23.46	3.25	-53.3	-69.9	3.8	7.45e-01	0	41	104	0	77	25392
2026-01-28 23:50:31.68	23.56	3.31	-53.3	-69.9	3.8	7.44e-01	0	41	104	0	77	25501
2026-01-28 23:50:32.69	23.66	3.36	-53.3	-70.1	3.8	7.45e-01	0	41	104	0	77	25891
2026-01-28 23:50:33.69	23.75	3.42	-53.3	-69.8	3.8	7.42e-01	0	41	104	0	77	25014
2026-01-28 23:50:34.70	23.86	3.47	-53.3	-70.0	3.8	7.43e-01	0	41	104	0	77	25778
2026-01-28 23:50:35.70	23.96	3.53	-53.3	-70.1	3.8	7.45e-01	0	41	104	0	77	25871
2026-01-28 23:50:36.71	24.06	3.58	-53.3	-69.1	3.9	7.44e-01	0	41	104	0	77	23086
2026-01-28 23:50:37.72	24.16	3.64	-53.3	-69.4	3.8	7.44e-01	0	41	104	0	77	24001
2026-01-28 23:50:38.73	24.26	3.69	-53.3	-68.8	4.0	7.43e-01	0	41	104	0	77	22314
2026-01-28 23:50:39.73	24.36	3.75	-53.3	-69.3	3.8	7.46e-01	0	41	104	0	77	23736
2026-01-28 23:50:40.74	24.47	3.80	-53.2	-68.8	3.9	7.42e-01	0	41	104	0	77	22485
2026-01-28 23:50:41.75	24.57	3.86	-53.3	-69.8	3.8	7.44e-01	0	41	104	0	77	24985
2026-01-28 23:50:42.76	24.67	3.92	-53.3	-69.5	3.8	7.47e-01	0	41	104	0	77	24407
2026-01-28 23:50:43.77	24.78	3.97	-53.3	-69.9	3.8	7.44e-01	0	41	104	0	77	25508
2026-01-28 23:50:44.77	24.88	4.03	-53.3	-70.0	3.8	7.44e-01	0	41	104	0	77	25823
2026-01-28 23:50:45.78	24.99	4.08	-53.3	-69.6	3.8	7.45e-01	0	41	104	0	77	24443
2026-01-28 23:50:46.79	25.09	4.14	-53.2	-68.7	3.9	7.45e-01	0	41	104	0	77	22256
2026-01-28 23:50:47.80	25.20	4.20	-53.2	-67.0	4.4	7.28e-01	0	41	104	0	77	18218
2026-01-28 23:50:48.81	25.31	4.25	-53.1	-65.8	4.9	7.14e-01	0	41	104	0	77	15880
2026-01-28 23:50:49.81	25.41	4.31	-53.1	-65.7	4.9	7.14e-01	11	41	0	0	77	15637
2026-01-28 23:50:50.82	25.52	4.36	-53.1	-64.9	5.4	6.99e-01	0	41	0	0	77	14357
2026-01-28 23:50:51.83	25.63	4.42	-52.9	-63.2	6.6	6.67e-01	184	41	0	1572864	77	11729
2026-01-28 23:50:52.84	25.74	4.48	-52.4	-60.1	9.8	6.23e-01	0	41	0	3145728	76	8675
2026-01-28 23:50:53.85	25.84	4.53	-51.7	-57.3	12.6	6.05e-01	0	41	0	5242880	75	6698
2026-01-28 23:50:54.85	25.95	4.59	-50.6	-54.6	15.4	6.01e-01	0	41	0	6815744	73	5497
2026-01-28 23:50:55.86	26.06	4.65	-49.2	-52.0	18.2	6.00e-01	0	41	0	8912896	70	4818
2026-01-28 23:50:56.87	26.17	4.70	-48.1	-50.3	19.8	6.00e-01	0	41	0	10485760	68	4479
2026-01-28 23:50:57.88	26.28	4.76	-46.6	-48.4	21.7	5.99e-01	0	41	0	12582912	65	4267
2026-01-28 23:50:58.89	26.39	4.82	-46.9	-48.8	21.4	6.02e-01	0	41	0	14680064	65	4469
2026-01-28 23:50:59.89	26.50	4.87	-46.9	-48.8	21.5	6.02e-01	0	41	0	16252928	64	4741
2026-01-28 23:51:00.90	26.62	4.93	-47.0	-49.0	21.3	6.00e-01	0	41	0	18350080	64	4815
2026-01-28 23:51:01.90	26.73	4.98	-47.6	-49.7	20.6	6.03e-01	0	41	0	19922944	65	4938
2026-01-28 23:51:02.91	26.84	5.04	-49.1	-51.8	18.4	6.01e-01	0	41	0	22020096	68	5311
2026-01-28 23:51:03.92	26.95	5.10	-50.0	-53.2	17.5	5.99e-01	0	41	0	23592960	70	5560
2026-01-28 23:51:04.93	27.07	5.16	-52.9	-64.6	6.5	6.82e-01	179	41	0	25690112	76	14628
2026-01-28 23:51:05.94	27.18	5.21	-50.0	-53.2	17.1	6.03e-01	0	41	0	25690112	70	5544
2026-01-28 23:51:06.95	27.30	5.27	-47.3	-49.2	21.1	6.05e-01	0	41	0	27787264	66	4431
2026-01-28 23:51:07.96	27.41	5.33	-52.6	-60.7	9.6	6.28e-01	0	41	0	29884416	75	9937
2026-01-28 23:51:08.97	27.53	5.38	-47.3	-49.2	21.1	6.04e-01	0	41	0	31457280	66	4438
2026-01-28 23:51:09.98	27.64	5.44	-47.3	-49.2	21.2	6.03e-01	0	41	0	33554432	66	4394
2026-01-28 23:51:10.99	27.76	5.50	-46.9	-48.7	21.6	6.02e-01	0	41	0	35127296	65	4407
2026-01-28 23:51:11.99	27.87	5.56	-46.7	-48.4	21.9	6.02e-01	0	41	0	37224448	64	4540
2026-01-28 23:51:13.00	27.99	5.61	-46.8	-48.5	21.9	6.02e-01	0	41	0	38797312	64	4594
2026-01-28 23:51:14.01	28.11	5.67	-46.4	-48.0	22.3	6.03e-01	0	41	0	40894464	64	4339
2026-01-28 23:51:15.01	28.23	5.73	-46.1	-47.7	22.7	6.05e-01	0	41	0	42991616	64	4181
2026-01-28 23:51:16.02	28.35	5.78	-46.3	-47.9	22.5	6.04e-01	0	41	0	44564480	64	4268
2026-01-28 23:51:17.03	28.47	5.84	-46.6	-48.3	22.1	6.04e-01	0	41	0	46661632	64	4485
2026-01-28 23:51:18.04	28.59	5.90	-46.4	-48.0	22.3	6.03e-01	0	41	0	48758784	64	4338
2026-01-28 23:51:19.04	28.70	5.96	-46.3	-47.9	22.4	6.04e-01	0	41	0	50331648	64	4269
2026-01-28 23:51:20.05	28.83	6.01	-46.1	-47.8	22.5	6.04e-01	0	41	0	52428800	64	4210
2026-01-28 23:51:21.06	28.95	6.07	-46.2	-47.8	22.5	6.03e-01	0	41	0	54001664	64	4226
2026-01-28 23:51:22.07	29.07	6.13	-46.1	-47.7	22.8	6.04e-01	0	41	0	56098816	64	4155
2026-01-28 23:51:23.08	29.19	6.19	-46.2	-47.9	22.6	6.03e-01	0	41	0	58195968	64	4258
2026-01-28 23:51:24.08	29.31	6.25	-46.2	-47.9	22.5	6.05e-01	0	41	0	59768832	64	4257
2026-01-28 23:51:25.09	29.44	6.30	-46.1	-47.7	22.7	6.02e-01	0	41	0	61865984	64	4187
2026-01-28 23:51:26.10	29.56	6.36	-46.2	-47.9	22.5	6.04e-01	0	41	0	63438848	64	4256
2026-01-28 23:51:27.11	29.68	6.42	-46.3	-48.0	22.5	6.05e-01	0	41	0	65536000	64	4306
2026-01-28 23:51:28.11	29.81	6.48	-46.2	-47.8	22.6	6.03e-01	0	41	0	67108864	64	4209
2026-01-28 23:51:29.12	29.93	6.53	-46.2	-47.8	22.6	6.03e-01	0	41	0	69206016	64	4216
2026-01-28 23:51:30.12	30.06	6.59	-46.0	-47.6	22.9	6.04e-01	0	41	0	71303168	64	4128
2026-01-28 23:51:31.13	30.18	6.65	-46.2	-47.8	22.8	6.04e-01	0	41	0	72876032	64	4196
2026-01-28 23:51:32.14	30.31	6.71	-46.2	-47.8	22.7	6.04e-01	0	41	0	74973184	64	4197
2026-01-28 23:51:33.15	30.44	6.77	-46.1	-47.6	22.9	6.04e-01	0	41	0	77070336	64	4137
2026-01-28 23:51:34.15	30.57	6.82	-45.9	-47.5	23.1	6.02e-01	0	41	0	78643200	63	4298
2026-01-28 23:51:35.16	30.69	6.88	-46.0	-47.6	23.0	6.02e-01	0	41	0	80740352	63	4369
2026-01-28 23:51:36.17	30.82	6.94	-46.2	-47.8	22.9	6.03e-01	0	41	0	82313216	63	4452
2026-01-28 23:51:37.18	30.95	7.00	-46.2	-47.8	22.8	6.03e-01	0	42	0	84410368	63	4453
2026-01-28 23:51:38.18	31.08	7.06	-46.1	-47.7	23.0	6.02e-01	0	41	0	86507520	63	4410
2026-01-28 23:51:39.19	31.21	7.12	-46.0	-47.6	23.1	6.05e-01	0	41	0	88080384	63	4350
2026-01-28 23:51:40.20	31.34	7.17	-46.0	-47.5	23.2	6.06e-01	0	42	0	90177536	63	4309
2026-01-28 23:51:41.21	31.48	7.23	-45.9	-47.5	23.2	6.02e-01	0	41	0	91750400	63	4292
2026-01-28 23:51:42.22	31.61	7.29	-45.9	-47.4	23.2	6.03e-01	0	41	0	93847552	63	4272
2026-01-28 23:51:43.23	31.74	7.35	-45.9	-47.5	23.2	6.04e-01	0	41	0	95944704	63	4297
2026-01-28 23:51:44.24	31.88	7.41	-46.1	-47.6	23.0	6.04e-01	0	41	0	97517568	63	4380
2026-01-28 23:51:45.25	32.01	7.47	-45.9	-47.4	23.2	6.04e-01	0	42	0	99614720	63	4281
2026-01-28 23:51:46.26	32.14	7.53	-45.8	-47.3	23.3	6.03e-01	0	41	0	101187584	63	4216
2026-01-28 23:51:47.27	32.28	7.59	-45.8	-47.3	23.3	6.04e-01	0	42	0	103284736	63	4204
2026-01-28 23:51:48.27	32.41	7.64	-45.7	-47.2	23.4	6.04e-01	0	41	0	105381888	63	4146
2026-01-28 23:51:49.28	32.55	7.70	-45.7	-47.2	23.3	6.02e-01	0	41	0	106954752	63	4191
2026-01-28 23:51:50.29	32.69	7.76	-45.6	-47.1	23.5	6.04e-01	0	42	0	109051904	63	4127
2026-01-28 23:51:51.30	32.82	7.82	-45.8	-47.3	23.4	6.03e-01	0	41	0	110624768	63	4212
2026-01-28 23:51:52.30	32.96	7.88	-45.9	-47.4	23.3	6.04e-01	0	42	0	112721920	63	4279
2026-01-28 23:51:53.32	33.10	7.94	-45.8	-47.3	23.4	6.04e-01	0	42	0	114819072	63	4217
2026-01-28 23:51:54.32	33.24	8.00	-45.8	-47.3	23.4	6.03e-01	0	42	0	116391936	63	4221
2026-01-28 23:51:55.33	33.38	8.05	-45.9	-47.4	23.3	6.06e-01	0	42	0	118489088	63	4256
2026-01-28 23:51:56.34	33.52	8.11	-45.7	-47.2	23.5	6.02e-01	0	42	0	120586240	63	4167
2026-01-28 23:51:57.35	33.66	8.17	-45.4	-46.8	23.8	6.02e-01	0	42	0	122159104	62	4228
2026-01-28 23:51:58.36	33.80	8.23	-45.4	-46.9	23.7	6.05e-01	0	42	0	124256256	62	4254
2026-01-28 23:51:59.36	33.94	8.29	-45.5	-46.9	23.6	6.04e-01	0	42	0	125829120	62	4277
2026-01-28 23:52:00.37	34.09	8.35	-45.6	-47.0	23.7	6.03e-01	0	42	0	127926272	62	4329
2026-01-28 23:52:01.38	34.23	8.41	-45.6	-47.0	23.7	6.03e-01	0	42	0	129499136	62	4325
2026-01-28 23:52:02.39	34.37	8.47	-45.5	-46.9	23.7	6.05e-01	0	42	0	131596288	62	4289
2026-01-28 23:52:03.39	34.52	8.52	-45.5	-46.9	23.8	6.04e-01	0	41	0	133693440	62	4285
2026-01-28 23:52:04.40	34.66	8.58	-45.4	-46.8	24.0	6.02e-01	0	42	0	135266304	62	4205
2026-01-28 23:52:05.41	34.81	8.64	-45.3	-46.7	24.0	6.00e-01	0	42	0	137363456	62	4180
2026-01-28 23:52:06.41	34.95	8.70	-45.3	-46.8	23.9	6.01e-01	0	42	0	138936320	62	4194
2026-01-28 23:52:07.42	35.10	8.76	-45.5	-47.0	23.8	6.03e-01	0	42	0	141033472	62	4296
2026-01-28 23:52:08.43	35.25	8.82	-45.6	-47.1	23.7	6.03e-01	0	42	0	143130624	62	4356
2026-01-28 23:52:09.44	35.40	8.88	-45.4	-46.9	23.8	6.03e-01	0	42	0	144703488	62	4246
2026-01-28 23:52:10.45	35.55	8.94	-45.5	-46.9	23.8	6.03e-01	0	42	0	146800640	62	4256
2026-01-28 23:52:11.45	35.69	9.00	-45.4	-46.8	23.9	6.02e-01	0	42	0	148897792	62	4213
2026-01-28 23:52:12.46	35.84	9.05	-45.3	-46.7	24.0	6.05e-01	0	41	0	150470656	62	4182
2026-01-28 23:52:13.47	36.00	9.11	-45.4	-46.8	24.0	6.03e-01	0	42	0	152567808	62	4209
2026-01-28 23:52:14.47	36.15	9.17	-45.4	-46.8	24.0	6.05e-01	0	42	0	154140672	62	4208
2026-01-28 23:52:15.47	36.30	9.23	-45.4	-46.8	24.0	6.02e-01	0	42	0	156237824	62	4217
2026-01-28 23:52:16.48	36.45	9.29	-45.3	-46.7	24.1	6.03e-01	0	42	0	157810688	62	4149
2026-01-28 23:52:17.49	36.60	9.35	-45.2	-46.6	24.2	6.03e-01	0	42	0	159907840	62	4123
2026-01-28 23:52:18.50	36.76	9.41	-45.3	-46.7	24.2	6.01e-01	0	42	0	162004992	62	4159
2026-01-28 23:52:19.51	36.91	9.47	-45.3	-46.7	24.1	6.04e-01	0	42	0	163577856	62	4163
2026-01-28 23:52:20.52	37.07	9.52	-45.2	-46.6	24.2	6.03e-01	0	42	0	165675008	62	4112
2026-01-28 23:52:21.53	37.22	9.58	-45.3	-46.7	24.2	6.04e-01	0	42	0	167247872	62	4168
2026-01-28 23:52:22.53	37.38	9.64	-45.3	-46.7	24.1	6.03e-01	0	42	0	169345024	62	4187
2026-01-28 23:52:23.55	37.54	9.70	-45.5	-46.9	23.9	6.04e-01	0	42	0	171442176	62	4279
2026-01-28 23:52:24.56	37.70	9.76	-45.3	-46.8	24.1	6.03e-01	0	42	0	173015040	62	4194
2026-01-28 23:52:25.57	37.85	9.82	-45.2	-46.5	24.3	6.03e-01	0	42	0	175112192	62	4098
2026-01-28 23:52:26.57	38.01	9.88	-45.1	-46.5	24.3	6.05e-01	0	42	0	177209344	62	4077
2026-01-28 23:52:27.58	38.17	9.94	-45.1	-46.4	24.4	6.03e-01	0	42	0	178782208	62	4036
2026-01-28 23:52:28.59	38.33	9.99	-45.1	-46.5	24.4	6.03e-01	0	42	0	180879360	62	4054
2026-01-28 23:52:29.60	38.50	10.05	-45.1	-46.5	24.3	6.02e-01	0	42	0	182452224	62	4066
2026-01-28 23:52:30.60	38.66	10.11	-45.1	-46.5	24.3	6.05e-01	0	42	0	184549376	62	4052
2026-01-28 23:52:31.61	38.82	10.17	-45.1	-46.5	24.3	6.04e-01	0	42	0	186122240	62	4074
2026-01-28 23:52:32.62	38.98	10.23	-45.2	-46.5	24.3	6.03e-01	0	42	0	188219392	62	4089
2026-01-28 23:52:33.63	39.15	10.29	-45.2	-46.6	24.2	6.04e-01	0	42	0	190316544	62	4113
2026-01-28 23:52:34.64	39.31	10.35	-45.1	-46.4	24.4	6.03e-01	0	42	0	192413696	62	4046
2026-01-28 23:52:35.64	39.48	10.40	-45.1	-46.4	24.4	6.05e-01	0	42	0	193986560	62	4036
2026-01-28 23:52:36.65	39.64	10.46	-45.1	-46.5	24.4	6.02e-01	0	42	0	196083712	62	4058
2026-01-28 23:52:37.65	39.81	10.52	-45.1	-46.4	24.4	6.03e-01	0	42	0	197656576	62	4048
2026-01-28 23:52:38.66	39.97	10.58	-45.0	-46.4	24.5	6.04e-01	0	42	0	199753728	62	4006
2026-01-28 23:52:39.67	40.14	10.64	-45.0	-46.3	24.5	6.03e-01	0	42	0	201326592	62	3994
2026-01-28 23:52:40.68	40.31	10.69	-44.9	-46.2	24.6	6.03e-01	0	42	0	203423744	61	4190
2026-01-28 23:52:41.69	40.48	10.75	-44.9	-46.2	24.6	6.03e-01	0	42	0	205520896	61	4180
2026-01-28 23:52:42.70	40.65	10.81	-44.9	-46.2	24.6	6.05e-01	0	42	0	207093760	61	4169
2026-01-28 23:52:43.70	40.82	10.87	-44.8	-46.1	24.8	6.03e-01	0	42	0	209190912	61	4113
2026-01-28 23:52:44.71	40.99	10.93	-44.8	-46.1	24.8	6.02e-01	0	42	0	210763776	61	4103
2026-01-28 23:52:45.72	41.17	10.98	-44.7	-46.0	24.8	6.05e-01	0	42	0	212860928	61	4082
2026-01-28 23:52:46.73	41.34	11.04	-44.8	-46.1	24.8	6.03e-01	0	42	0	214958080	61	4125
2026-01-28 23:52:47.74	41.51	11.10	-44.8	-46.1	24.7	6.06e-01	0	42	0	216530944	61	4133
2026-01-28 23:52:48.74	41.69	11.16	-44.9	-46.2	24.6	6.04e-01	0	42	0	218628096	61	4173
2026-01-28 23:52:49.75	41.86	11.21	-44.8	-46.1	24.6	6.03e-01	0	42	0	220725248	61	4143
2026-01-28 23:52:50.76	42.04	11.27	-44.8	-46.2	24.7	6.01e-01	0	42	0	222298112	61	4154
2026-01-28 23:52:51.77	42.22	11.33	-44.9	-46.2	24.6	6.03e-01	0	42	0	224395264	61	4170
2026-01-28 23:52:52.78	42.39	11.39	-44.8	-46.1	24.8	6.04e-01	0	42	0	225968128	61	4131
2026-01-28 23:52:53.79	42.57	11.44	-44.8	-46.1	24.7	6.04e-01	0	42	0	228065280	61	4143
2026-01-28 23:52:54.80	42.75	11.50	-44.8	-46.1	24.7	6.05e-01	0	42	0	229638144	61	4131
2026-01-28 23:52:55.81	42.93	11.56	-44.7	-46.0	24.9	6.02e-01	0	42	0	231735296	61	4081
2026-01-28 23:52:56.81	43.11	11.62	-44.6	-45.9	25.0	6.04e-01	0	42	0	233832448	61	4014
2026-01-28 23:52:57.82	43.29	11.67	-44.5	-45.8	25.1	6.05e-01	0	42	0	235405312	61	3976
2026-01-28 23:52:58.83	43.47	11.73	-44.6	-45.8	25.1	6.05e-01	0	42	0	237502464	61	3998
2026-01-28 23:52:59.84	43.66	11.79	-44.6	-45.9	25.0	6.05e-01	0	42	0	239599616	61	4020
2026-01-28 23:53:00.84	43.84	11.84	-44.7	-46.0	24.9	6.05e-01	0	42	0	241172480	61	4095
2026-01-28 23:53:01.85	44.02	11.90	-44.7	-46.0	24.9	6.04e-01	0	42	0	243269632	61	4057
2026-01-28 23:53:02.86	44.21	11.96	-44.6	-45.9	25.0	6.01e-01	0	42	0	244842496	61	4011
2026-01-28 23:53:03.87	44.39	12.01	-44.7	-46.0	24.9	6.03e-01	0	42	0	246939648	61	4053
2026-01-28 23:53:04.87	44.58	12.07	-44.6	-45.8	25.0	6.02e-01	0	42	0	249036800	61	4003
2026-01-28 23:53:05.88	44.76	12.12	-44.6	-45.9	24.9	6.01e-01	0	42	0	250609664	61	4027
2026-01-28 23:53:06.89	44.95	12.18	-44.7	-46.0	24.9	6.04e-01	0	42	0	252706816	61	4054
2026-01-28 23:53:07.89	45.14	12.24	-44.6	-45.9	25.0	6.05e-01	0	42	0	254279680	61	4024
2026-01-28 23:53:08.90	45.33	12.29	-44.7	-46.0	25.0	6.01e-01	0	42	0	256376832	61	4054
2026-01-28 23:53:09.91	45.52	12.35	-44.5	-45.8	25.1	6.04e-01	0	42	0	257949696	61	3981
2026-01-28 23:53:10.92	45.71	12.40	-44.4	-45.6	25.3	6.03e-01	0	42	0	260046848	60	4137
2026-01-28 23:53:11.93	45.90	12.46	-44.4	-45.7	25.2	6.04e-01	0	42	0	262144000	60	4170
2026-01-28 23:53:12.93	46.09	12.51	-44.5	-45.7	25.2	6.03e-01	0	42	0	264241152	60	4183
2026-01-28 23:53:13.93	46.28	12.57	-44.4	-45.7	25.2	6.05e-01	0	42	0	265814016	60	4164
2026-01-28 23:53:14.94	46.48	12.62	-44.4	-45.7	25.2	6.04e-01	0	42	0	267911168	60	4169
2026-01-28 23:53:15.95	46.67	12.68	-44.5	-45.7	25.2	6.03e-01	0	42	0	269484032	60	4178
2026-01-28 23:53:16.96	46.87	12.73	-44.4	-45.6	25.3	6.03e-01	0	42	0	271581184	60	4132
2026-01-28 23:53:17.97	47.06	12.79	-44.4	-45.7	25.2	6.05e-01	0	42	0	273154048	60	4153
2026-01-28 23:53:18.97	47.26	12.84	-44.4	-45.7	25.1	6.02e-01	0	42	0	275251200	60	4164
2026-01-28 23:53:19.98	47.46	12.89	-44.3	-45.5	25.3	6.03e-01	0	42	0	277348352	60	4095
2026-01-28 23:53:20.99	47.66	12.95	-44.3	-45.6	25.3	6.03e-01	0	42	0	278921216	60	4115
2026-01-28 23:53:22.00	47.85	13.00	-44.4	-45.7	25.2	6.03e-01	0	42	0	281018368	60	4147
2026-01-28 23:53:23.00	48.05	13.06	-44.4	-45.7	25.3	6.03e-01	0	42	0	282591232	60	4151
2026-01-28 23:53:24.01	48.25	13.11	-44.4	-45.7	25.2	6.01e-01	0	42	0	284688384	60	4161
2026-01-28 23:53:25.01	48.45	13.16	-44.4	-45.6	25.3	6.03e-01	0	42	0	286261248	60	4143
2026-01-28 23:53:26.02	48.66	13.22	-44.4	-45.6	25.3	6.05e-01	0	42	0	288358400	60	4128
2026-01-28 23:53:27.03	48.86	13.27	-44.3	-45.5	25.4	6.03e-01	0	42	0	290455552	60	4072
2026-01-28 23:53:28.04	49.06	13.32	-44.2	-45.4	25.5	6.02e-01	0	42	0	292552704	60	4051
2026-01-28 23:53:29.04	49.27	13.37	-44.3	-45.5	25.4	6.04e-01	0	42	0	294125568	60	4079
2026-01-28 23:53:30.05	49.47	13.43	-44.4	-45.6	25.3	6.03e-01	0	42	0	296222720	60	4136
2026-01-28 23:53:31.06	49.68	13.48	-44.3	-45.6	25.3	6.04e-01	0	42	0	297795584	60	4105
2026-01-28 23:53:32.07	49.88	13.53	-44.4	-45.7	25.2	6.06e-01	0	42	0	299892736	60	4178
2026-01-28 23:53:33.07	50.09	13.58	-44.4	-45.6	25.3	6.04e-01	0	42	0	301465600	60	4140
2026-01-28 23:53:34.08	50.30	13.63	-44.4	-45.6	25.2	6.06e-01	0	42	0	303562752	60	4136
2026-01-28 23:53:35.09	50.51	13.69	-44.4	-45.7	25.2	6.04e-01	0	42	0	305659904	60	4164
2026-01-28 23:53:36.10	50.72	13.74	-44.4	-45.6	25.2	6.03e-01	0	42	0	307232768	60	4140
2026-01-28 23:53:37.11	50.93	13.79	-44.4	-45.6	25.3	6.04e-01	0	42	0	309329920	60	4141
2026-01-28 23:53:38.12	51.14	13.84	-44.5	-45.7	25.2	6.04e-01	0	42	0	310902784	60	4185
2026-01-28 23:53:39.12	51.35	13.89	-44.4	-45.6	25.3	6.05e-01	0	42	0	312999936	60	4120
2026-01-28 23:53:40.13	51.56	13.94	-44.2	-45.5	25.4	6.04e-01	0	42	0	315097088	60	4059
2026-01-28 23:53:41.13	51.77	13.99	-44.2	-45.4	25.4	6.02e-01	0	42	0	316669952	60	4022
2026-01-28 23:53:42.14	51.99	14.04	-44.2	-45.4	25.4	6.04e-01	0	42	0	318767104	60	4048
2026-01-28 23:53:43.15	52.20	14.09	-44.3	-45.5	25.4	6.02e-01	0	42	0	320864256	60	4082
2026-01-28 23:53:44.15	52.42	14.14	-44.2	-45.5	25.5	6.05e-01	0	42	0	322437120	60	4053
2026-01-28 23:53:45.16	52.63	14.19	-44.1	-45.3	25.5	6.05e-01	0	42	0	324534272	60	3998
2026-01-28 23:53:46.17	52.85	14.24	-44.2	-45.4	25.5	6.05e-01	0	42	0	326107136	60	4013
2026-01-28 23:53:47.18	53.07	14.28	-44.2	-45.4	25.4	6.02e-01	0	42	0	328204288	60	4031
2026-01-28 23:53:48.19	53.29	14.33	-44.2	-45.4	25.5	6.03e-01	0	42	0	329777152	60	4032
2026-01-28 23:53:49.19	53.51	14.38	-44.1	-45.4	25.5	6.03e-01	0	42	0	331874304	60	4012
2026-01-28 23:53:50.20	53.73	14.43	-44.2	-45.4	25.5	6.06e-01	0	42	0	333971456	60	4031
2026-01-28 23:53:51.21	53.95	14.48	-44.2	-45.5	25.5	6.01e-01	0	42	0	335544320	60	4053
2026-01-28 23:53:52.21	54.17	14.52	-44.3	-45.5	25.4	6.03e-01	0	42	0	337641472	60	4084
2026-01-28 23:53:53.22	54.39	14.57	-44.1	-45.4	25.6	6.02e-01	0	42	0	339214336	60	4005
2026-01-28 23:53:54.23	54.61	14.62	-44.1	-45.3	25.6	6.05e-01	0	42	0	341311488	60	3998
2026-01-28 23:53:55.23	54.84	14.66	-44.2	-45.4	25.5	6.02e-01	0	42	0	343408640	60	4025
2026-01-28 23:53:56.24	55.06	14.71	-44.1	-45.3	25.6	6.05e-01	0	42	0	344981504	60	3975
2026-01-28 23:53:57.25	55.29	14.75	-44.1	-45.3	25.6	6.04e-01	0	42	0	347078656	60	3984
2026-01-28 23:53:58.26	55.51	14.80	-44.1	-45.3	25.5	6.02e-01	0	42	0	349175808	60	3993
2026-01-28 23:53:59.26	55.74	14.85	-44.1	-45.3	25.5	6.05e-01	0	42	0	350748672	60	4001
2026-01-28 23:54:00.27	55.97	14.89	-44.1	-45.3	25.6	6.03e-01	0	42	0	352845824	60	3967
2026-01-28 23:54:01.28	56.19	14.94	-44.2	-45.4	25.5	6.04e-01	0	42	0	354418688	60	4029
2026-01-28 23:54:02.28	56.42	14.98	-44.1	-45.3	25.6	6.04e-01	0	42	0	356515840	60	4000
2026-01-28 23:54:03.29	56.65	15.02	-44.1	-45.3	25.6	6.03e-01	0	42	0	358088704	60	3986
2026-01-28 23:54:04.30	56.88	15.07	-44.0	-45.2	25.6	6.05e-01	0	42	0	360185856	60	3956
2026-01-28 23:54:05.31	57.11	15.11	-44.0	-45.2	25.7	6.04e-01	0	42	0	362283008	60	3951
2026-01-28 23:54:06.31	57.34	15.15	-44.0	-45.2	25.7	6.03e-01	0	42	0	363855872	60	3932
2026-01-28 23:54:07.32	57.58	15.20	-44.1	-45.3	25.5	6.03e-01	0	42	0	365953024	59	4240
2026-01-28 23:54:08.33	57.81	15.24	-44.3	-45.5	25.4	6.01e-01	0	42	0	368050176	59	4324
2026-01-28 23:54:09.34	58.04	15.28	-44.3	-45.5	25.3	6.04e-01	0	42	0	369623040	59	4315
2026-01-28 23:54:10.35	58.28	15.32	-44.2	-45.4	25.4	6.04e-01	0	42	0	371720192	59	4266
2026-01-28 23:54:11.36	58.51	15.36	-44.2	-45.5	25.4	6.04e-01	0	42	0	373293056	59	4293
2026-01-28 23:54:12.36	58.75	15.40	-44.1	-45.3	25.4	6.04e-01	0	42	0	375390208	59	4242
2026-01-28 23:54:13.37	58.98	15.45	-44.3	-45.5	25.4	6.02e-01	0	42	0	377487360	59	4329
2026-01-28 23:54:14.38	59.22	15.49	-44.2	-45.4	25.4	6.05e-01	0	42	0	379060224	59	4261
2026-01-28 23:54:15.39	59.46	15.53	-44.2	-45.4	25.4	6.05e-01	0	42	0	381157376	59	4256
2026-01-28 23:54:16.39	59.70	15.56	-44.2	-45.4	25.4	6.03e-01	0	42	0	382730240	59	4278
2026-01-28 23:54:17.40	59.94	15.60	-44.2	-45.5	25.3	6.02e-01	0	42	0	384827392	59	4299
2026-01-28 23:54:18.40	60.17	15.64	-44.3	-45.5	25.3	6.04e-01	0	42	0	386400256	59	4318
2026-01-28 23:54:19.42	60.42	15.68	-44.2	-45.4	25.4	6.05e-01	0	42	0	388497408	59	4277
2026-01-28 23:54:20.42	60.66	15.72	-44.2	-45.4	25.4	6.03e-01	0	42	0	390594560	59	4266
2026-01-28 23:54:21.43	60.90	15.76	-44.2	-45.4	25.4	6.02e-01	0	42	0	392691712	59	4249
2026-01-28 23:54:22.44	61.14	15.79	-44.4	-45.6	25.2	6.03e-01	0	42	0	394264576	59	4359
2026-01-28 23:54:23.45	61.39	15.83	-44.3	-45.5	25.3	6.03e-01	0	42	0	396361728	59	4325
2026-01-28 23:54:24.45	61.63	15.87	-44.2	-45.4	25.4	6.05e-01	0	42	0	397934592	59	4259
2026-01-28 23:54:25.46	61.87	15.90	-44.1	-45.3	25.4	6.05e-01	0	42	0	400031744	59	4235
2026-01-28 23:54:26.46	62.11	15.94	-44.2	-45.4	25.4	6.05e-01	0	42	0	401604608	59	4266
2026-01-28 23:54:27.47	62.36	15.97	-44.2	-45.4	25.3	6.05e-01	0	42	0	403701760	59	4288
2026-01-28 23:54:28.48	62.61	16.01	-44.1	-45.3	25.5	6.02e-01	0	42	0	405798912	59	4198
2026-01-28 23:54:29.48	62.85	16.04	-44.1	-45.3	25.5	6.01e-01	0	42	0	407371776	59	4206
2026-01-28 23:54:30.49	63.10	16.08	-44.1	-45.3	25.4	6.04e-01	0	42	0	409468928	59	4210
2026-01-28 23:54:31.50	63.35	16.11	-44.1	-45.3	25.4	6.03e-01	0	42	0	411041792	59	4242
2026-01-28 23:54:32.51	63.60	16.14	-44.2	-45.4	25.4	6.03e-01	0	42	0	413138944	59	4257
2026-01-28 23:54:33.52	63.85	16.18	-44.2	-45.4	25.3	6.04e-01	0	42	0	414711808	59	4286
2026-01-28 23:54:34.53	64.10	16.21	-44.2	-45.4	25.4	6.02e-01	0	42	0	416808960	59	4259
2026-01-28 23:54:35.53	64.34	16.24	-44.2	-45.5	25.4	6.05e-01	0	42	0	418906112	59	4295
2026-01-28 23:54:36.54	64.59	16.27	-44.1	-45.3	25.5	6.04e-01	0	42	0	421003264	59	4240
2026-01-28 23:54:37.55	64.85	16.30	-44.1	-45.3	25.5	6.05e-01	0	42	0	422576128	59	4222
2026-01-28 23:54:38.55	65.10	16.33	-44.2	-45.5	25.4	6.02e-01	0	42	0	424673280	59	4302
2026-01-28 23:54:39.56	65.35	16.36	-44.1	-45.3	25.5	6.05e-01	0	42	0	426246144	59	4241
2026-01-28 23:54:40.57	65.60	16.39	-44.1	-45.3	25.5	6.03e-01	0	42	0	428343296	59	4241
2026-01-28 23:54:41.58	65.86	16.42	-44.2	-45.4	25.5	6.04e-01	0	42	0	429916160	59	4248
2026-01-28 23:54:42.58	66.11	16.45	-44.2	-45.4	25.4	6.05e-01	0	42	0	432013312	59	4291
2026-01-28 23:54:43.59	66.36	16.48	-44.3	-45.5	25.4	6.03e-01	0	42	0	434110464	59	4325
2026-01-28 23:54:44.60	66.62	16.50	-44.2	-45.4	25.4	6.02e-01	0	42	0	435683328	59	4287
2026-01-28 23:54:45.61	66.87	16.53	-44.3	-45.5	25.3	6.02e-01	0	42	0	437780480	59	4317
2026-01-28 23:54:46.61	67.13	16.56	-44.2	-45.4	25.5	6.02e-01	0	42	0	439353344	59	4255
2026-01-28 23:54:47.62	67.38	16.58	-44.2	-45.4	25.6	6.03e-01	0	42	0	441450496	59	4248
2026-01-28 23:54:48.63	67.64	16.61	-44.1	-45.3	25.6	6.04e-01	0	42	0	443547648	59	4197
2026-01-28 23:54:49.64	67.90	16.63	-44.1	-45.3	25.6	6.03e-01	0	42	0	445120512	59	4226
2026-01-28 23:54:50.64	68.15	16.66	-44.1	-45.3	25.6	6.03e-01	0	42	0	447217664	59	4226
2026-01-28 23:54:51.65	68.41	16.68	-44.1	-45.3	25.6	6.03e-01	0	42	0	449314816	59	4239
2026-01-28 23:54:52.66	68.67	16.71	-44.1	-45.3	25.6	6.02e-01	0	42	0	450887680	59	4206
2026-01-28 23:54:53.67	68.93	16.73	-44.1	-45.3	25.5	6.02e-01	0	42	0	452984832	59	4228
2026-01-28 23:54:54.67	69.19	16.75	-44.2	-45.5	25.5	6.04e-01	0	42	0	454557696	59	4294
2026-01-28 23:54:55.68	69.45	16.77	-44.2	-45.4	25.5	6.04e-01	0	42	0	456654848	59	4274
2026-01-28 23:54:56.69	69.71	16.80	-44.2	-45.4	25.5	6.02e-01	0	42	0	458227712	59	4289
2026-01-28 23:54:57.70	69.97	16.82	-44.2	-45.4	25.5	6.04e-01	0	42	0	460324864	59	4284
2026-01-28 23:54:58.71	70.23	16.84	-44.1	-45.2	25.6	6.02e-01	0	42	0	462422016	59	4192
2026-01-28 23:54:59.72	70.49	16.86	-44.1	-45.4	25.5	6.03e-01	0	42	0	463994880	59	4244
2026-01-28 23:55:00.72	70.75	16.88	-44.2	-45.4	25.5	6.03e-01	0	42	0	466092032	59	4278
2026-01-28 23:55:01.73	71.01	16.90	-44.1	-45.3	25.5	6.06e-01	0	42	0	468189184	59	4225
2026-01-28 23:55:02.74	71.28	16.91	-44.1	-45.3	24.9	6.03e-01	0	42	0	469762048	59	4218
2026-01-28 23:55:03.75	71.54	16.93	-44.1	-45.3	25.6	6.05e-01	0	42	0	471859200	59	4222
2026-01-28 23:55:04.75	71.80	16.95	-44.2	-45.5	25.4	6.05e-01	0	42	0	473432064	59	4297
2026-01-28 23:55:05.76	72.06	16.97	-44.1	-45.3	25.6	6.04e-01	0	42	0	475529216	59	4195
2026-01-28 23:55:06.77	72.33	16.98	-44.2	-45.4	25.5	6.03e-01	0	42	0	477626368	59	4249
2026-01-28 23:55:07.77	72.59	17.00	-44.1	-45.3	25.6	6.06e-01	0	42	0	479199232	59	4208
2026-01-28 23:55:08.78	72.85	17.01	-44.1	-45.3	25.6	6.02e-01	0	42	0	481296384	59	4197
2026-01-28 23:55:09.79	73.12	17.03	-44.2	-45.4	25.5	6.04e-01	0	42	0	482869248	59	4287
2026-01-28 23:55:10.79	73.38	17.04	-44.1	-45.3	25.6	6.03e-01	0	42	0	484966400	59	4210
2026-01-28 23:55:11.80	73.65	17.06	-44.2	-45.4	25.5	6.05e-01	0	42	0	486539264	59	4258
2026-01-28 23:55:12.80	73.91	17.07	-44.3	-45.5	25.4	6.05e-01	0	42	0	488636416	59	4319
2026-01-28 23:55:13.81	74.18	17.08	-44.2	-45.4	25.5	6.03e-01	0	42	0	490733568	59	4255
2026-01-28 23:55:14.82	74.44	17.09	-44.3	-45.5	25.4	6.05e-01	0	42	0	492306432	59	4316
2026-01-28 23:55:15.83	74.71	17.10	-44.0	-45.2	25.6	6.04e-01	0	42	0	494403584	59	4192
2026-01-28 23:55:16.83	74.97	17.12	-44.1	-45.2	25.7	6.03e-01	0	42	0	496500736	59	4192
2026-01-28 23:55:17.84	75.24	17.13	-44.1	-45.3	25.6	6.02e-01	0	42	0	498073600	59	4226
2026-01-28 23:55:18.85	75.51	17.14	-44.1	-45.3	25.6	6.06e-01	0	42	0	500170752	59	4204
2026-01-28 23:55:19.85	75.77	17.14	-44.0	-45.2	25.7	6.03e-01	0	42	0	501743616	59	4163
2026-01-28 23:55:20.86	76.04	17.15	-44.1	-45.3	25.6	6.03e-01	0	42	0	503840768	59	4212
2026-01-28 23:55:21.87	76.31	17.16	-44.2	-45.4	25.5	6.05e-01	0	42	0	505937920	59	4264
2026-01-28 23:55:22.88	76.57	17.17	-44.2	-45.4	25.4	6.03e-01	0	42	0	507510784	59	4272
2026-01-28 23:55:23.89	76.84	17.17	-44.1	-45.3	25.6	6.06e-01	0	42	0	509607936	59	4209
2026-01-28 23:55:24.89	77.11	17.18	-44.1	-45.3	25.7	6.06e-01	0	42	0	511180800	59	4196
2026-01-28 23:55:25.90	77.37	17.19	-44.0	-45.2	25.7	6.03e-01	0	42	0	513277952	59	4165
2026-01-28 23:55:26.91	77.64	17.19	-44.1	-45.3	25.6	6.04e-01	0	42	0	514850816	59	4213
2026-01-28 23:55:27.91	77.91	17.20	-44.1	-45.3	25.6	6.04e-01	0	42	0	516947968	59	4213
2026-01-28 23:55:28.92	78.18	17.20	-44.0	-45.2	25.8	6.05e-01	0	42	0	519045120	59	4158
2026-01-28 23:55:29.93	78.44	17.20	-44.1	-45.3	25.7	6.03e-01	0	42	0	521142272	59	4218
2026-01-28 23:55:30.94	78.71	17.21	-44.2	-45.4	25.5	6.02e-01	0	42	0	522715136	59	4261
2026-01-28 23:55:31.94	78.98	17.21	-44.1	-45.3	25.5	6.02e-01	0	42	0	524812288	59	4236
2026-01-28 23:55:32.95	79.25	17.21	-44.1	-45.3	25.6	6.03e-01	0	42	0	526385152	59	4237
2026-01-28 23:55:33.96	79.52	17.21	-44.2	-45.4	25.5	6.04e-01	0	42	0	528482304	59	4263
2026-01-28 23:55:34.97	79.78	17.21	-44.2	-45.4	24.6	6.04e-01	0	42	0	530055168	59	4258
2026-01-28 23:55:35.97	80.05	17.21	-44.1	-45.2	25.7	6.02e-01	0	42	0	532152320	59	4192
2026-01-28 23:55:36.98	80.32	17.21	-44.2	-45.4	25.6	6.04e-01	0	42	0	534249472	59	4252
2026-01-28 23:55:37.99	80.59	17.21	-44.1	-45.3	25.6	6.02e-01	0	42	0	535822336	59	4224
2026-01-28 23:55:39.00	80.86	17.21	-44.0	-45.2	25.7	6.03e-01	0	42	0	537919488	59	4184
2026-01-28 23:55:40.00	81.12	17.21	-43.9	-45.0	25.8	6.03e-01	0	42	0	539492352	59	4097
2026-01-28 23:55:41.01	81.39	17.20	-43.9	-45.1	25.7	6.03e-01	0	42	0	541589504	59	4141
2026-01-28 23:55:42.02	81.66	17.20	-44.1	-45.3	25.6	6.04e-01	0	42	0	543162368	59	4228
2026-01-28 23:55:43.03	81.93	17.20	-44.3	-45.5	25.4	6.03e-01	0	42	0	545259520	59	4310
2026-01-28 23:55:44.04	82.19	17.19	-44.1	-45.3	25.6	6.04e-01	0	42	0	547356672	59	4222
2026-01-28 23:55:45.05	82.46	17.19	-44.1	-45.3	25.6	6.02e-01	0	42	0	549453824	59	4213
2026-01-28 23:55:46.05	82.73	17.18	-44.2	-45.4	25.6	6.05e-01	0	42	0	551026688	59	4250
2026-01-28 23:55:47.06	83.00	17.17	-44.1	-45.3	25.6	6.03e-01	0	42	0	553123840	59	4221
2026-01-28 23:55:48.07	83.26	17.17	-44.0	-45.2	25.7	6.04e-01	0	42	0	554696704	59	4159
2026-01-28 23:55:49.08	83.53	17.16	-44.0	-45.1	25.7	6.03e-01	0	42	0	556793856	59	4145
2026-01-28 23:55:50.09	83.80	17.15	-44.0	-45.1	25.6	6.04e-01	0	42	0	558366720	59	4141
2026-01-28 23:55:51.09	84.06	17.14	-44.2	-45.4	25.5	6.04e-01	0	42	0	560463872	59	4264
2026-01-28 23:55:52.10	84.33	17.13	-44.1	-45.3	25.6	6.03e-01	0	42	0	562561024	59	4207
2026-01-28 23:55:53.11	84.60	17.12	-44.1	-45.3	25.6	6.05e-01	0	42	0	564133888	59	4220
2026-01-28 23:55:54.12	84.87	17.11	-44.0	-45.2	25.7	6.03e-01	0	42	0	566231040	59	4151
2026-01-28 23:55:55.13	85.13	17.10	-44.1	-45.3	25.5	6.03e-01	0	42	0	567803904	59	4227
2026-01-28 23:55:56.13	85.40	17.09	-44.0	-45.2	25.7	6.05e-01	0	42	0	569901056	59	4180
2026-01-28 23:55:57.14	85.66	17.08	-44.0	-45.2	25.7	6.02e-01	0	42	0	571998208	59	4164
2026-01-28 23:55:58.15	85.93	17.07	-43.9	-45.1	25.7	6.05e-01	0	42	0	573571072	59	4134
2026-01-28 23:55:59.16	86.19	17.05	-44.0	-45.2	25.6	6.02e-01	0	42	0	575668224	59	4188
2026-01-28 23:56:00.16	86.46	17.04	-43.9	-45.1	25.7	6.05e-01	0	42	0	577765376	59	4140
2026-01-28 23:56:01.17	86.72	17.02	-44.0	-45.2	25.7	6.04e-01	0	42	0	579338240	59	4170
2026-01-28 23:56:02.18	86.99	17.01	-44.1	-45.3	25.6	6.03e-01	0	42	0	581435392	59	4220
2026-01-28 23:56:03.19	87.25	16.99	-44.1	-45.3	25.6	6.04e-01	0	42	0	583008256	59	4205
2026-01-28 23:56:04.19	87.51	16.98	-44.1	-45.3	25.6	6.03e-01	0	42	0	585105408	59	4231
2026-01-28 23:56:05.20	87.78	16.96	-44.1	-45.3	25.6	6.05e-01	0	42	0	586678272	59	4202
2026-01-28 23:56:06.21	88.04	16.94	-44.0	-45.2	25.7	6.04e-01	0	42	0	588775424	59	4166
2026-01-28 23:56:07.21	88.30	16.93	-44.1	-45.3	25.6	6.02e-01	0	42	0	590872576	59	4203
2026-01-28 23:56:08.22	88.57	16.91	-44.1	-45.3	25.6	6.03e-01	0	42	0	592445440	59	4238
2026-01-28 23:56:09.23	88.83	16.89	-43.9	-45.1	25.7	6.04e-01	0	42	0	594542592	59	4129
2026-01-28 23:56:10.24	89.09	16.87	-44.0	-45.2	25.7	6.03e-01	0	42	0	596639744	59	4154
2026-01-28 23:56:11.25	89.36	16.85	-43.9	-45.1	25.8	6.03e-01	0	42	0	598212608	59	4118
2026-01-28 23:56:12.25	89.61	16.83	-44.0	-45.2	25.7	6.05e-01	0	42	0	600309760	59	4158
2026-01-28 23:56:13.26	89.88	16.81	-43.9	-45.1	25.8	6.03e-01	0	42	0	601882624	59	4115
2026-01-28 23:56:14.27	90.14	16.79	-43.9	-45.1	25.8	6.03e-01	0	42	0	603979776	59	4122
2026-01-28 23:56:15.27	90.40	16.77	-43.8	-45.0	25.8	6.03e-01	0	42	0	606076928	59	4079
2026-01-28 23:56:16.28	90.66	16.75	-44.0	-45.2	25.6	6.03e-01	0	42	0	607649792	59	4173
2026-01-28 23:56:17.29	90.92	16.72	-44.0	-45.2	25.6	6.04e-01	0	42	0	609746944	59	4162
2026-01-28 23:56:18.30	91.18	16.70	-44.1	-45.3	25.5	6.02e-01	0	42	0	611319808	59	4205
2026-01-28 23:56:19.31	91.44	16.68	-43.9	-45.1	25.7	6.04e-01	0	42	0	613416960	59	4127
2026-01-28 23:56:20.32	91.69	16.65	-43.9	-45.1	25.7	6.03e-01	0	42	0	614989824	59	4109
2026-01-28 23:56:21.32	91.95	16.63	-44.0	-45.2	25.6	6.05e-01	0	42	0	617086976	59	4156
2026-01-28 23:56:22.33	92.21	16.60	-43.9	-45.1	25.9	6.03e-01	0	42	0	619184128	59	4107
2026-01-28 23:56:23.34	92.47	16.58	-43.9	-45.0	25.8	6.05e-01	0	42	0	620756992	59	4098
2026-01-28 23:56:24.35	92.72	16.55	-43.9	-45.1	25.7	6.05e-01	0	42	0	622854144	59	4123
2026-01-28 23:56:25.36	92.98	16.52	-43.9	-45.1	25.8	6.03e-01	0	42	0	624951296	59	4103
2026-01-28 23:56:26.37	93.23	16.49	-44.0	-45.2	25.7	6.03e-01	0	42	0	626524160	59	4147
2026-01-28 23:56:27.37	93.49	16.47	-43.8	-45.0	25.8	6.06e-01	0	42	0	628621312	59	4090
2026-01-28 23:56:28.38	93.74	16.44	-44.0	-45.2	25.6	6.02e-01	0	42	0	630194176	59	4164
2026-01-28 23:56:29.39	94.00	16.41	-44.1	-45.3	25.6	6.02e-01	0	42	0	632291328	59	4194
2026-01-28 23:56:30.40	94.25	16.38	-43.9	-45.1	25.8	6.05e-01	0	42	0	634388480	59	4116
2026-01-28 23:56:31.41	94.51	16.35	-43.9	-45.1	25.8	6.05e-01	0	42	0	635961344	59	4102
2026-01-28 23:56:32.41	94.76	16.32	-43.9	-45.1	25.8	6.04e-01	0	42	0	638058496	59	4120
2026-01-28 23:56:33.42	95.01	16.29	-43.9	-45.1	25.8	6.04e-01	0	42	0	639631360	59	4118
2026-01-28 23:56:34.43	95.26	16.26	-43.9	-45.1	25.8	6.06e-01	0	42	0	641728512	59	4109
2026-01-28 23:56:35.44	95.51	16.23	-43.9	-45.1	25.8	6.02e-01	0	42	0	643825664	59	4129
2026-01-28 23:56:36.45	95.76	16.20	-44.0	-45.2	25.7	6.04e-01	0	42	0	645398528	59	4152
2026-01-28 23:56:37.45	96.01	16.16	-43.9	-45.1	25.7	6.01e-01	0	42	0	647495680	59	4125
2026-01-28 23:56:38.46	96.26	16.13	-43.9	-45.1	25.8	6.04e-01	0	42	0	649068544	59	4133
2026-01-28 23:56:39.47	96.51	16.10	-43.8	-45.0	25.8	6.01e-01	0	42	0	651165696	59	4090
2026-01-28 23:56:40.48	96.76	16.06	-43.9	-45.1	25.8	6.05e-01	0	42	0	653262848	59	4121
2026-01-28 23:56:41.49	97.01	16.03	-43.9	-45.0	25.8	6.02e-01	0	42	0	654835712	59	4098
2026-01-28 23:56:42.49	97.25	16.00	-43.8	-45.0	25.8	6.03e-01	0	42	0	656932864	59	4079
2026-01-28 23:56:43.50	97.50	15.96	-43.9	-45.1	25.8	6.03e-01	0	42	0	658505728	59	4102
2026-01-28 23:56:44.50	97.74	15.92	-43.9	-45.1	25.8	6.04e-01	0	42	0	660602880	59	4119
2026-01-28 23:56:45.51	97.99	15.89	-44.0	-45.2	25.6	6.04e-01	0	42	0	662700032	59	4192
2026-01-28 23:56:46.52	98.23	15.85	-44.0	-45.2	25.7	6.05e-01	0	42	0	664272896	59	4174
2026-01-28 23:56:47.52	98.48	15.82	-44.0	-45.2	25.7	6.05e-01	0	42	0	666370048	59	4154
2026-01-28 23:56:48.53	98.72	15.78	-44.0	-45.2	25.8	6.03e-01	0	42	0	668467200	59	4176
2026-01-28 23:56:49.54	98.96	15.74	-43.9	-45.1	25.7	6.05e-01	0	42	0	670040064	59	4139
2026-01-28 23:56:50.55	99.21	15.70	-43.9	-45.1	25.7	6.01e-01	0	42	0	672137216	59	4120
2026-01-28 23:56:51.56	99.45	15.67	-43.8	-45.0	25.9	6.05e-01	0	42	0	673710080	59	4077
2026-01-28 23:56:52.56	99.69	15.63	-43.9	-45.1	25.8	6.03e-01	0	42	0	675807232	59	4105
2026-01-28 23:56:53.57	99.93	15.59	-44.0	-45.2	25.7	6.04e-01	0	42	0	677380096	59	4148
2026-01-28 23:56:54.58	100.17	15.55	-43.9	-45.1	25.8	6.02e-01	0	42	0	679477248	59	4138
2026-01-28 23:56:55.59	100.41	15.51	-43.9	-45.1	25.7	6.03e-01	0	42	0	681574400	59	4138
2026-01-28 23:56:56.60	100.65	15.47	-44.0	-45.2	25.7	6.03e-01	0	42	0	683147264	59	4150
2026-01-28 23:56:57.61	100.88	15.43	-44.0	-45.2	25.8	6.03e-01	0	42	0	685244416	59	4165
2026-01-28 23:56:58.62	101.12	15.39	-44.0	-45.2	25.7	6.03e-01	0	42	0	686817280	59	4149
2026-01-28 23:56:59.63	101.36	15.35	-44.0	-45.1	25.7	6.04e-01	0	42	0	688914432	59	4137
2026-01-28 23:57:00.63	101.59	15.30	-43.8	-45.0	25.8	6.02e-01	0	42	0	691011584	59	4082
2026-01-28 23:57:01.64	101.83	15.26	-43.8	-45.0	25.8	6.04e-01	0	42	0	692584448	59	4084
2026-01-28 23:57:02.65	102.06	15.22	-44.0	-45.2	25.7	6.03e-01	0	42	0	694681600	59	4170
2026-01-28 23:57:03.66	102.29	15.18	-44.0	-45.2	25.7	6.02e-01	0	42	0	696778752	59	4167
2026-01-28 23:57:04.67	102.53	15.13	-44.0	-45.2	25.7	6.02e-01	0	42	0	698351616	59	4180
2026-01-28 23:57:05.67	102.76	15.09	-44.0	-45.2	25.6	6.03e-01	0	42	0	700448768	59	4187
2026-01-28 23:57:06.68	102.99	15.05	-44.0	-45.2	25.7	6.02e-01	0	42	0	702021632	59	4155
2026-01-28 23:57:07.69	103.22	15.00	-44.0	-45.2	25.8	6.05e-01	0	42	0	704118784	59	4147
2026-01-28 23:57:08.70	103.45	14.96	-43.9	-45.1	25.7	6.02e-01	0	42	0	705691648	59	4141
2026-01-28 23:57:09.71	103.68	14.91	-44.1	-45.3	25.6	6.03e-01	0	42	0	707788800	59	4237
2026-01-28 23:57:10.71	103.91	14.87	-44.1	-45.3	25.7	6.03e-01	0	42	0	709885952	59	4201
2026-01-28 23:57:11.72	104.14	14.82	-44.1	-45.3	25.5	6.04e-01	0	42	0	711458816	59	4213
2026-01-28 23:57:12.73	104.36	14.78	-44.1	-45.3	25.5	6.02e-01	0	42	0	713555968	59	4221
2026-01-28 23:57:13.74	104.59	14.73	-44.2	-45.4	25.5	6.04e-01	0	42	0	715653120	59	4264
2026-01-28 23:57:14.74	104.82	14.69	-44.2	-45.4	25.5	6.03e-01	0	42	0	717225984	59	4279
2026-01-28 23:57:15.75	105.04	14.64	-44.3	-45.6	25.4	6.02e-01	0	42	0	719323136	59	4350
2026-01-28 23:57:16.76	105.27	14.59	-44.4	-45.6	25.3	6.05e-01	0	42	0	720896000	59	4370
2026-01-28 23:57:17.77	105.49	14.55	-44.2	-45.4	25.5	6.04e-01	0	42	0	722993152	59	4254
2026-01-28 23:57:18.78	105.71	14.50	-44.1	-45.3	25.6	6.03e-01	0	42	0	725090304	59	4194
2026-01-28 23:57:19.79	105.93	14.45	-43.9	-45.0	25.8	6.04e-01	0	42	0	726663168	59	4098
2026-01-28 23:57:20.79	106.15	14.40	-44.0	-45.2	25.6	6.05e-01	0	42	0	728760320	59	4187
2026-01-28 23:57:21.80	106.38	14.35	-44.1	-45.3	25.6	6.04e-01	0	42	0	730333184	59	4207
2026-01-28 23:57:22.81	106.60	14.31	-44.1	-45.3	25.6	6.04e-01	0	42	0	732430336	59	4235
2026-01-28 23:57:23.81	106.81	14.26	-44.1	-45.3	25.5	6.04e-01	0	42	0	734003200	59	4238
2026-01-28 23:57:24.83	107.03	14.21	-44.0	-45.2	25.6	6.05e-01	0	42	0	736100352	59	4178
2026-01-28 23:57:25.83	107.25	14.16	-44.0	-45.2	25.6	6.01e-01	0	42	0	738197504	59	4173
2026-01-28 23:57:26.84	107.47	14.11	-44.1	-45.3	25.6	6.01e-01	0	42	0	740294656	59	4215
2026-01-28 23:57:27.85	107.68	14.06	-44.1	-45.4	25.5	6.04e-01	0	42	0	741867520	59	4248
2026-01-28 23:57:28.86	107.90	14.01	-44.1	-45.3	25.5	6.04e-01	0	42	0	743964672	59	4232
2026-01-28 23:57:29.87	108.11	13.96	-44.1	-45.3	25.5	6.04e-01	0	42	0	745537536	59	4232
2026-01-28 23:57:30.88	108.33	13.91	-44.1	-45.3	25.5	6.00e-01	0	42	0	747634688	59	4236
2026-01-28 23:57:31.88	108.54	13.86	-44.0	-45.2	25.6	6.05e-01	0	42	0	749207552	59	4175
2026-01-28 23:57:32.89	108.75	13.81	-44.0	-45.2	25.7	6.03e-01	0	42	0	751304704	59	4158
2026-01-28 23:57:33.90	108.96	13.76	-44.1	-45.3	25.5	6.05e-01	0	42	0	753401856	59	4201
2026-01-28 23:57:34.91	109.18	13.70	-44.2	-45.4	25.5	6.04e-01	0	42	0	754974720	59	4274
2026-01-28 23:57:35.91	109.38	13.65	-44.2	-45.4	25.4	6.04e-01	0	42	0	757071872	59	4289
2026-01-28 23:57:36.92	109.59	13.60	-44.2	-45.4	25.4	6.05e-01	0	42	0	758644736	59	4270
2026-01-28 23:57:37.93	109.80	13.55	-44.3	-45.5	25.3	6.02e-01	0	42	0	760741888	59	4315
2026-01-28 23:57:38.94	110.01	13.50	-44.1	-45.3	25.5	6.04e-01	0	42	0	762839040	59	4238
2026-01-28 23:57:39.94	110.22	13.45	-44.1	-45.4	25.5	6.04e-01	0	42	0	764411904	59	4248
2026-01-28 23:57:40.95	110.42	13.39	-44.2	-45.4	25.5	6.03e-01	0	42	0	766509056	59	4251
2026-01-28 23:57:41.96	110.63	13.34	-44.1	-45.3	25.5	6.05e-01	0	42	0	768606208	59	4236
2026-01-28 23:57:42.97	110.83	13.29	-44.1	-45.3	25.5	6.03e-01	0	42	0	770179072	59	4223
2026-01-28 23:57:43.98	111.04	13.23	-44.1	-45.3	25.5	6.03e-01	0	42	0	772276224	59	4226
2026-01-28 23:57:44.98	111.24	13.18	-44.2	-45.4	25.5	6.03e-01	0	42	0	773849088	59	4262
2026-01-28 23:57:45.99	111.44	13.13	-44.2	-45.4	25.5	6.03e-01	0	42	0	775946240	59	4254
2026-01-28 23:57:46.99	111.64	13.07	-44.2	-45.4	25.5	6.04e-01	0	42	0	777519104	59	4253
2026-01-28 23:57:48.00	111.84	13.02	-44.3	-45.5	25.4	6.03e-01	0	42	0	779616256	59	4313
2026-01-28 23:57:49.01	112.04	12.97	-44.3	-45.6	25.2	6.02e-01	0	42	0	781713408	59	4358
2026-01-28 23:57:50.02	112.24	12.91	-44.3	-45.6	25.3	6.05e-01	0	42	0	783286272	59	4364
2026-01-28 23:57:51.03	112.44	12.86	-44.3	-45.5	25.3	6.05e-01	0	42	0	785383424	59	4311
2026-01-28 23:57:52.04	112.64	12.80	-44.3	-45.6	25.3	6.04e-01	0	42	0	787480576	59	4347
2026-01-28 23:57:53.05	112.84	12.75	-44.5	-45.7	25.3	6.06e-01	0	42	0	789053440	59	4422
2026-01-28 23:57:54.06	113.04	12.69	-44.4	-45.6	25.3	6.03e-01	0	42	0	791150592	59	4381
2026-01-28 23:57:55.06	113.23	12.64	-44.3	-45.5	25.4	6.04e-01	0	42	0	792723456	59	4333
2026-01-28 23:57:56.07	113.42	12.58	-44.4	-45.6	25.3	6.03e-01	0	42	0	794820608	59	4361
2026-01-28 23:57:57.08	113.62	12.53	-44.4	-45.6	25.3	6.02e-01	0	42	0	796917760	59	4368
2026-01-28 23:57:58.09	113.81	12.47	-44.4	-45.6	25.3	6.04e-01	0	42	0	798490624	59	4384
2026-01-28 23:57:59.09	114.00	12.42	-44.5	-45.7	25.2	6.05e-01	0	42	0	800587776	59	4419
2026-01-28 23:58:00.10	114.20	12.36	-44.5	-45.7	25.2	6.05e-01	0	42	0	802160640	59	4410
2026-01-28 23:58:01.11	114.39	12.30	-44.4	-45.7	25.3	6.04e-01	0	42	0	804257792	59	4402
2026-01-28 23:58:02.12	114.58	12.25	-44.3	-45.5	25.3	6.05e-01	0	42	0	805830656	59	4340
2026-01-28 23:58:03.13	114.77	12.19	-44.5	-45.7	25.2	6.04e-01	0	42	0	807927808	59	4429
2026-01-28 23:58:04.13	114.96	12.14	-44.5	-45.8	25.1	6.03e-01	0	42	0	810024960	59	4460
2026-01-28 23:58:05.14	115.14	12.08	-44.4	-45.7	25.2	6.03e-01	0	42	0	812122112	59	4420
2026-01-28 23:58:06.15	115.33	12.02	-44.5	-45.7	25.1	6.04e-01	0	42	0	813694976	59	4422
2026-01-28 23:58:07.16	115.52	11.97	-44.4	-45.6	25.1	6.03e-01	0	42	0	815792128	59	4386
2026-01-28 23:58:08.17	115.70	11.91	-44.4	-45.6	25.2	6.02e-01	0	42	0	817364992	59	4383
2026-01-28 23:58:09.17	115.89	11.85	-44.3	-45.6	25.2	6.06e-01	0	42	0	819462144	59	4350
2026-01-28 23:58:10.18	116.07	11.80	-44.4	-45.6	25.2	6.04e-01	0	42	0	821035008	59	4364
2026-01-28 23:58:11.19	116.26	11.74	-44.4	-45.7	25.2	6.03e-01	0	42	0	823132160	59	4406
2026-01-28 23:58:12.20	116.44	11.68	-44.5	-45.8	25.1	6.03e-01	0	42	0	825229312	59	4445
2026-01-28 23:58:13.20	116.62	11.63	-44.6	-45.8	25.0	6.05e-01	0	42	0	826802176	59	4488
2026-01-28 23:58:14.21	116.80	11.57	-44.5	-45.8	25.0	6.05e-01	0	42	0	828899328	59	4447
2026-01-28 23:58:15.22	116.98	11.51	-44.5	-45.8	25.1	6.03e-01	0	42	0	830472192	59	4445
2026-01-28 23:58:16.23	117.16	11.45	-44.6	-45.9	24.9	6.05e-01	0	42	0	832569344	59	4526
2026-01-28 23:58:17.23	117.34	11.40	-44.5	-45.7	25.2	6.04e-01	0	42	0	834666496	60	4172
2026-01-28 23:58:18.24	117.52	11.34	-44.5	-45.7	25.2	6.04e-01	0	42	0	836239360	60	4186
2026-01-28 23:58:19.25	117.70	11.28	-44.6	-45.9	25.0	6.03e-01	0	42	0	838336512	60	4259
2026-01-28 23:58:20.25	117.87	11.22	-44.5	-45.8	25.1	6.05e-01	0	42	0	840433664	60	4196
2026-01-28 23:58:21.26	118.05	11.16	-44.5	-45.7	25.1	6.03e-01	0	42	0	842006528	60	4188
2026-01-28 23:58:22.27	118.23	11.11	-44.5	-45.7	25.1	6.04e-01	0	42	0	844103680	60	4182
2026-01-28 23:58:23.27	118.40	11.05	-44.5	-45.7	25.1	6.04e-01	0	42	0	845676544	60	4188
2026-01-28 23:58:24.28	118.57	10.99	-44.4	-45.7	25.1	6.03e-01	0	42	0	847773696	60	4178
2026-01-28 23:58:25.29	118.75	10.93	-44.5	-45.8	25.1	6.05e-01	0	42	0	849346560	60	4204
2026-01-28 23:58:26.30	118.92	10.87	-44.4	-45.7	25.0	6.02e-01	0	42	0	851443712	60	4173
2026-01-28 23:58:27.31	119.09	10.82	-44.5	-45.7	25.0	6.02e-01	0	42	0	853540864	60	4190
2026-01-28 23:58:28.31	119.26	10.76	-44.4	-45.7	25.0	6.04e-01	0	42	0	855113728	60	4177
2026-01-28 23:58:29.32	119.43	10.70	-44.5	-45.8	25.0	6.04e-01	0	42	0	857210880	60	4217
2026-01-28 23:58:30.33	119.60	10.64	-44.4	-45.7	25.0	6.03e-01	0	42	0	858783744	60	4160
2026-01-28 23:58:31.33	119.77	10.58	-44.4	-45.7	25.0	6.05e-01	0	42	0	860880896	60	4167
2026-01-28 23:58:32.34	119.94	10.52	-44.4	-45.6	25.0	6.02e-01	0	42	0	862978048	60	4139
2026-01-28 23:58:33.35	120.11	10.46	-44.4	-45.7	24.9	6.05e-01	0	42	0	864550912	60	4168
2026-01-28 23:58:34.35	120.27	10.41	-44.5	-45.8	24.8	6.05e-01	0	42	0	866648064	60	4218
2026-01-28 23:58:35.36	120.44	10.35	-44.5	-45.8	24.7	6.05e-01	0	42	0	868745216	60	4235
2026-01-28 23:58:36.37	120.60	10.29	-44.5	-45.8	24.7	6.04e-01	0	42	0	870318080	60	4209
2026-01-28 23:58:37.38	120.77	10.23	-44.5	-45.8	24.7	6.02e-01	0	42	0	872415232	60	4212
2026-01-28 23:58:38.39	120.93	10.17	-44.6	-45.9	24.6	6.05e-01	0	42	0	873988096	60	4264
2026-01-28 23:58:39.39	121.10	10.11	-44.5	-45.8	24.7	6.04e-01	0	42	0	876085248	60	4221
2026-01-28 23:58:40.40	121.26	10.05	-44.5	-45.9	24.6	6.03e-01	0	42	0	877658112	60	4244
2026-01-28 23:58:41.41	121.42	9.99	-44.6	-45.9	24.7	6.04e-01	0	42	0	879755264	60	4262
2026-01-28 23:58:42.42	121.58	9.93	-44.5	-45.8	24.8	6.04e-01	0	42	0	881852416	60	4217
2026-01-28 23:58:43.42	121.74	9.88	-44.5	-45.8	24.7	6.04e-01	0	42	0	883425280	60	4229
2026-01-28 23:58:44.43	121.90	9.82	-44.5	-45.8	24.7	6.05e-01	0	42	0	885522432	60	4202
2026-01-28 23:58:45.44	122.06	9.76	-44.6	-45.8	24.6	6.03e-01	0	42	0	887619584	60	4242
2026-01-28 23:58:46.44	122.22	9.70	-44.4	-45.7	24.6	6.04e-01	0	42	0	889192448	60	4189
2026-01-28 23:58:47.45	122.38	9.64	-44.5	-45.8	24.5	6.03e-01	0	42	0	891289600	60	4224
2026-01-28 23:58:48.46	122.54	9.58	-44.4	-45.7	24.6	6.04e-01	0	42	0	892862464	60	4177
2026-01-28 23:58:49.47	122.69	9.52	-44.6	-46.0	24.4	6.03e-01	0	42	0	894959616	60	4299
2026-01-28 23:58:50.48	122.85	9.46	-44.6	-46.0	24.5	6.06e-01	0	42	0	897056768	60	4294
2026-01-28 23:58:51.49	123.01	9.40	-44.7	-46.1	24.4	6.05e-01	0	42	0	898629632	60	4347
2026-01-28 23:58:52.49	123.16	9.34	-44.8	-46.1	24.4	6.04e-01	0	42	0	900726784	60	4383
2026-01-28 23:58:53.50	123.31	9.28	-44.9	-46.2	24.3	6.05e-01	0	42	0	902299648	60	4439
2026-01-28 23:58:54.51	123.47	9.23	-44.8	-46.2	24.2	6.04e-01	0	42	0	904396800	60	4428
2026-01-28 23:58:55.51	123.62	9.17	-44.8	-46.2	24.2	6.03e-01	0	42	0	905969664	60	4392
2026-01-28 23:58:56.52	123.77	9.11	-44.8	-46.2	24.1	6.08e-01	0	42	0	908066816	60	4416
2026-01-28 23:58:57.53	123.92	9.05	-44.9	-46.3	23.8	6.04e-01	0	42	0	910163968	60	4455
2026-01-28 23:58:58.54	124.07	8.99	-44.7	-46.1	23.9	6.04e-01	0	42	0	912261120	60	4362
2026-01-28 23:58:59.55	124.23	8.93	-44.8	-46.1	23.6	6.04e-01	0	42	0	913833984	60	4379
2026-01-28 23:59:00.55	124.37	8.87	-44.5	-45.9	23.8	6.06e-01	0	42	0	915931136	60	4248
2026-01-28 23:59:01.56	124.52	8.81	-44.6	-46.0	23.7	6.06e-01	0	42	0	917504000	60	4310
2026-01-28 23:59:02.56	124.67	8.75	-44.7	-46.1	23.5	6.06e-01	0	42	0	919601152	60	4345
2026-01-28 23:59:03.57	124.82	8.69	-44.5	-45.9	23.9	6.02e-01	0	42	0	921174016	60	4250
2026-01-28 23:59:04.58	124.97	8.63	-44.7	-46.0	23.7	6.04e-01	0	42	0	923271168	60	4310
2026-01-28 23:59:05.59	125.11	8.57	-44.6	-45.9	23.9	6.04e-01	0	42	0	925368320	60	4266
2026-01-28 23:59:06.60	125.26	8.51	-44.6	-46.0	24.0	6.03e-01	0	42	0	926941184	60	4308
2026-01-28 23:59:07.61	125.40	8.45	-44.7	-46.1	23.9	6.03e-01	0	42	0	929038336	60	4344
2026-01-28 23:59:08.61	125.55	8.40	-44.8	-46.2	23.9	6.04e-01	0	42	0	930611200	60	4408
2026-01-28 23:59:09.62	125.69	8.34	-44.9	-46.3	23.9	6.02e-01	0	42	0	932708352	60	4452
2026-01-28 23:59:10.63	125.83	8.28	-44.8	-46.2	24.1	6.05e-01	0	42	0	934805504	60	4409
2026-01-28 23:59:11.64	125.98	8.22	-44.9	-46.2	24.1	6.02e-01	0	42	0	936378368	60	4439
2026-01-28 23:59:12.65	126.12	8.16	-44.8	-46.2	24.2	6.02e-01	0	42	0	938475520	60	4412
2026-01-28 23:59:13.65	126.26	8.10	-44.8	-46.2	24.2	6.05e-01	0	42	0	940572672	60	4423
2026-01-28 23:59:14.66	126.40	8.04	-44.8	-46.1	24.3	6.04e-01	0	42	0	942145536	60	4380
2026-01-28 23:59:15.67	126.54	7.98	-44.7	-46.1	24.2	6.05e-01	0	42	0	944242688	60	4377
2026-01-28 23:59:16.68	126.68	7.92	-44.8	-46.2	24.1	6.04e-01	0	42	0	945815552	60	4436
2026-01-28 23:59:17.69	126.82	7.86	-45.0	-46.4	23.9	6.05e-01	0	42	0	947912704	60	4536
2026-01-28 23:59:18.69	126.96	7.80	-44.9	-46.3	23.9	6.05e-01	0	42	0	949485568	60	4492
2026-01-28 23:59:19.70	127.10	7.74	-44.8	-46.2	24.1	6.06e-01	0	42	0	951582720	60	4400
2026-01-28 23:59:20.71	127.23	7.69	-44.9	-46.3	23.9	6.03e-01	0	42	0	953679872	60	4449
2026-01-28 23:59:21.71	127.37	7.63	-45.0	-46.4	23.8	6.03e-01	0	42	0	955252736	60	4499
2026-01-28 23:59:22.72	127.51	7.57	-44.9	-46.3	23.8	6.05e-01	0	42	0	957349888	60	4462
2026-01-28 23:59:23.73	127.64	7.51	-45.0	-46.4	23.7	6.03e-01	0	42	0	959447040	60	4509
2026-01-28 23:59:24.74	127.78	7.45	-45.2	-46.6	23.5	6.03e-01	0	42	0	961019904	60	4635
2026-01-28 23:59:25.74	127.91	7.39	-45.1	-46.5	23.6	6.04e-01	0	42	0	963117056	60	4575
2026-01-28 23:59:26.75	128.05	7.33	-45.2	-46.7	23.4	6.03e-01	0	42	0	964689920	61	4402
2026-01-28 23:59:27.76	128.18	7.27	-45.2	-46.7	23.4	6.03e-01	0	42	0	966787072	61	4410
2026-01-28 23:59:28.76	128.31	7.21	-45.3	-46.8	23.3	6.03e-01	0	42	0	968884224	61	4478
2026-01-28 23:59:29.77	128.44	7.16	-45.3	-46.8	23.2	6.05e-01	0	42	0	970457088	61	4481
2026-01-28 23:59:30.78	128.58	7.10	-45.3	-46.7	23.4	6.01e-01	0	42	0	972554240	61	4438
2026-01-28 23:59:31.79	128.71	7.04	-45.3	-46.8	23.3	6.05e-01	0	42	0	974127104	61	4466
2026-01-28 23:59:32.80	128.84	6.98	-45.1	-46.6	23.5	6.04e-01	0	42	0	976224256	61	4357
2026-01-28 23:59:33.81	128.97	6.92	-45.2	-46.6	23.5	6.03e-01	0	42	0	977797120	61	4377
2026-01-28 23:59:34.81	129.10	6.86	-45.1	-46.6	23.5	6.05e-01	0	42	0	979894272	61	4368
2026-01-28 23:59:35.82	129.23	6.80	-45.2	-46.7	23.4	6.05e-01	0	42	0	981991424	61	4412
2026-01-28 23:59:36.83	129.35	6.74	-45.3	-46.8	23.3	6.05e-01	0	42	0	983564288	61	4457
2026-01-28 23:59:37.84	129.48	6.69	-45.3	-46.8	23.3	6.06e-01	0	42	0	985661440	61	4463
2026-01-28 23:59:38.85	129.61	6.63	-45.3	-46.8	23.3	6.02e-01	0	42	0	987758592	61	4475
2026-01-28 23:59:39.86	129.74	6.57	-45.3	-46.8	23.3	6.05e-01	0	42	0	989331456	61	4470
2026-01-28 23:59:40.86	129.86	6.51	-45.2	-46.7	23.4	6.04e-01	0	42	0	991428608	61	4427
2026-01-28 23:59:41.87	129.99	6.45	-45.2	-46.7	23.4	6.03e-01	0	42	0	993001472	61	4415
2026-01-28 23:59:42.87	130.11	6.39	-45.3	-46.7	23.4	6.03e-01	0	42	0	995098624	61	4436
2026-01-28 23:59:43.88	130.24	6.33	-45.6	-47.1	23.0	6.05e-01	0	42	0	997195776	61	4621
2026-01-28 23:59:44.89	130.36	6.28	-45.4	-46.9	23.2	6.03e-01	0	42	0	998768640	61	4506
2026-01-28 23:59:45.89	130.48	6.22	-45.3	-46.8	23.2	6.05e-01	0	42	0	1000865792	61	4466
2026-01-28 23:59:46.90	130.61	6.16	-45.4	-46.9	23.2	6.04e-01	0	42	0	1002438656	61	4501
2026-01-28 23:59:47.91	130.73	6.10	-45.4	-46.9	23.2	6.03e-01	0	42	0	1004535808	61	4506
2026-01-28 23:59:48.92	130.85	6.04	-45.3	-46.8	23.2	6.03e-01	0	42	0	1006108672	61	4486
2026-01-28 23:59:49.92	130.97	5.99	-45.5	-47.1	23.0	6.04e-01	0	42	0	1008205824	61	4610
2026-01-28 23:59:50.93	131.09	5.93	-45.6	-47.1	23.0	6.02e-01	0	42	0	1010302976	61	4627
2026-01-28 23:59:51.94	131.22	5.87	-45.7	-47.2	22.8	6.05e-01	0	42	0	1011875840	61	4703
2026-01-28 23:59:52.95	131.34	5.81	-45.6	-47.1	23.0	6.03e-01	0	42	0	1013972992	62	4389
2026-01-28 23:59:53.95	131.45	5.75	-45.6	-47.2	23.0	6.03e-01	0	42	0	1016070144	62	4412
2026-01-28 23:59:54.96	131.57	5.70	-45.5	-47.1	23.0	6.02e-01	0	42	0	1017643008	62	4353
2026-01-28 23:59:55.97	131.69	5.64	-45.5	-47.0	23.1	6.05e-01	0	42	0	1019740160	62	4330
2026-01-28 23:59:56.97	131.81	5.58	-45.6	-47.1	22.9	6.05e-01	0	42	0	1021313024	62	4373
2026-01-28 23:59:57.98	131.93	5.52	-45.6	-47.1	22.9	6.04e-01	0	42	0	1023410176	62	4375
2026-01-28 23:59:58.98	132.04	5.47	-45.4	-47.0	23.1	6.03e-01	0	42	0	1025507328	62	4293
2026-01-28 23:59:59.99	132.16	5.41	-45.5	-47.0	23.0	6.03e-01	0	42	0	1027080192	62	4339
2026-01-29 00:00:00.99	132.28	5.35	-45.7	-47.3	22.7	6.04e-01	0	42	0	1029177344	62	4477
2026-01-29 00:00:02.00	132.39	5.29	-45.6	-47.3	22.7	6.03e-01	0	42	0	1030750208	62	4461
2026-01-29 00:00:03.01	132.51	5.24	-45.7	-47.4	22.6	6.03e-01	0	42	0	1032847360	62	4500
2026-01-29 00:00:04.02	132.62	5.18	-45.6	-47.3	22.6	6.02e-01	0	42	0	1034420224	62	4462
2026-01-29 00:00:05.03	132.74	5.12	-45.6	-47.2	22.6	6.05e-01	0	42	0	1036517376	62	4430
2026-01-29 00:00:06.04	132.85	5.06	-45.6	-47.2	22.6	6.04e-01	0	42	0	1038614528	62	4435
2026-01-29 00:00:07.04	132.96	5.01	-45.5	-47.2	22.5	6.05e-01	0	42	0	1040187392	62	4427
2026-01-29 00:00:08.05	133.08	4.95	-53.0	-70.5	3.7	7.53e-01	0	42	104	1041760256	76	28975
2026-01-29 00:00:09.06	133.19	4.89	-53.2	-71.3	3.8	7.42e-01	0	42	104	1041760256	77	29712
2026-01-29 00:00:10.07	133.30	4.83	-53.3	-71.7	3.8	7.46e-01	0	42	104	1041760256	77	31140
2026-01-29 00:00:11.08	133.41	4.78	-52.1	-71.7	3.8	7.47e-01	0	42	104	1041760256	74	37248
2026-01-29 00:00:12.09	133.52	4.72	-51.2	-71.8	3.8	7.51e-01	0	42	104	1041760256	72	41973
2026-01-29 00:00:13.09	133.63	4.66	-49.8	-72.3	3.9	7.45e-01	0	42	104	1041760256	72	44437
2026-01-29 00:00:14.10	133.74	4.61	-51.9	-72.4	3.9	7.47e-01	0	42	104	1041760256	74	40118
2026-01-29 00:00:15.11	133.85	4.55	-53.8	-71.6	3.9	7.44e-01	0	42	104	1041760256	78	29152
2026-01-29 00:00:16.11	133.96	4.49	-54.0	-72.7	3.8	7.45e-01	0	42	104	1041760256	79	31248
2026-01-29 00:00:17.12	134.07	4.44	-54.0	-72.8	3.8	7.45e-01	0	42	104	1041760256	79	31624
2026-01-29 00:00:18.13	134.18	4.38	-54.0	-72.7	3.8	7.49e-01	0	42	104	1041760256	78	33080
2026-01-29 00:00:19.14	134.29	4.32	-52.7	-72.7	3.9	7.48e-01	0	42	104	1041760256	77	35216
2026-01-29 00:00:20.15	134.39	4.27	-52.6	-72.8	3.8	7.44e-01	0	42	104	1041760256	75	39974
2026-01-29 00:00:21.15	134.50	4.21	-53.0	-72.9	3.8	7.48e-01	0	42	104	1041760256	76	38111
2026-01-29 00:00:22.16	134.61	4.15	-53.3	-73.0	3.8	7.46e-01	0	42	104	1041760256	77	36479
2026-01-29 00:00:23.17	134.71	4.10	-55.4	-73.2	3.8	7.48e-01	0	42	104	1041760256	81	29568
2026-01-29 00:00:24.18	134.82	4.04	-55.5	-73.3	3.8	7.45e-01	0	42	104	1041760256	81	29836
2026-01-29 00:00:25.19	134.93	3.98	-55.6	-73.4	3.8	7.47e-01	0	42	104	1041760256	81	30200
2026-01-29 00:00:26.20	135.03	3.93	-55.6	-73.4	3.8	7.48e-01	0	42	104	1041760256	81	30294
2026-01-29 00:00:27.20	135.13	3.87	-55.6	-73.4	3.8	7.45e-01	0	42	104	1041760256	81	30359
2026-01-29 00:00:28.21	135.24	3.82	-55.6	-73.4	3.8	7.43e-01	0	42	104	1041760256	81	30293
2026-01-29 00:00:29.22	135.34	3.76	-55.6	-73.5	3.8	7.45e-01	0	42	104	1041760256	81	30399
2026-01-29 00:00:30.22	135.44	3.70	-55.6	-73.5	3.8	7.46e-01	0	42	104	1041760256	81	30420
2026-01-29 00:00:31.23	135.55	3.65	-55.6	-73.5	3.8	7.45e-01	0	42	104	1041760256	81	30422
2026-01-29 00:00:32.24	135.65	3.59	-55.7	-73.5	3.8	7.48e-01	0	42	104	1041760256	81	30592
2026-01-29 00:00:33.25	135.75	3.54	-55.7	-73.6	3.8	7.44e-01	0	42	104	1041760256	82	29260
2026-01-29 00:00:34.26	135.85	3.48	-55.7	-73.6	3.8	7.42e-01	0	42	104	1041760256	82	29145
2026-01-29 00:00:35.26	135.95	3.42	-55.9	-73.7	3.8	7.42e-01	0	42	104	1041760256	82	29578
2026-01-29 00:00:36.27	136.06	3.37	-55.8	-73.7	3.8	7.43e-01	0	42	104	1041760256	82	29376
2026-01-29 00:00:37.28	136.16	3.31	-55.8	-73.7	3.8	7.44e-01	0	42	104	1041760256	82	29370
2026-01-29 00:00:38.29	136.26	3.26	-55.8	-73.7	3.8	7.44e-01	0	42	104	1041760256	82	29531
2026-01-29 00:00:39.30	136.36	3.20	-55.8	-73.7	3.8	7.45e-01	0	42	104	1041760256	82	29373
2026-01-29 00:00:40.31	136.46	3.15	-55.8	-73.6	3.8	7.46e-01	0	42	104	1041760256	82	29336
2026-01-29 00:00:41.32	136.55	3.09	-55.8	-73.6	3.8	7.46e-01	0	42	104	1041760256	82	29347
2026-01-29 00:00:42.33	136.65	3.03	-55.8	-73.6	3.8	7.46e-01	0	42	104	1041760256	82	29262
2026-01-29 00:00:43.34	136.75	2.98	-55.8	-73.6	3.8	7.44e-01	0	42	104	1041760256	82	29226
2026-01-29 00:00:44.34	136.85	2.92	-55.8	-73.6	3.8	7.48e-01	0	42	104	1041760256	82	29122
2026-01-29 00:00:45.35	136.95	2.87	-55.7	-73.5	3.8	7.48e-01	0	42	104	1041760256	82	28963
2026-01-29 00:00:46.36	137.04	2.81	-55.7	-73.5	3.8	7.47e-01	0	42	104	1041760256	82	28883
2026-01-29 00:00:47.37	137.14	2.76	-55.7	-73.5	3.8	7.45e-01	0	42	104	1041760256	82	28741
2026-01-29 00:00:48.38	137.24	2.70	-55.6	-73.4	3.8	7.45e-01	0	42	104	1041760256	82	28634
2026-01-29 00:00:49.39	137.33	2.65	-55.6	-73.4	3.8	7.45e-01	0	42	104	1041760256	82	28573
2026-01-29 00:00:50.40	137.43	2.59	-55.5	-73.4	3.8	7.43e-01	0	42	104	1041760256	82	28409
2026-01-29 00:00:51.41	137.52	2.54	-55.5	-73.3	3.8	7.44e-01	0	42	104	1041760256	82	28211
2026-01-29 00:00:52.42	137.62	2.48	-55.4	-73.3	3.8	7.49e-01	0	42	104	1041760256	82	28170
2026-01-29 00:00:53.43	137.71	2.43	-55.4	-73.2	3.8	7.43e-01	0	42	104	1041760256	82	27957
2026-01-29 00:00:54.43	137.80	2.38	-55.3	-73.2	3.8	7.43e-01	0	42	104	1041760256	82	27719
2026-01-29 00:00:55.44	137.90	2.32	-55.2	-73.1	3.8	7.44e-01	0	42	104	1041760256	82	27475
2026-01-29 00:00:56.45	137.99	2.27	-55.2	-73.0	3.8	7.46e-01	0	42	104	1041760256	82	27163
2026-01-29 00:00:57.46	138.08	2.21	-55.0	-72.9	3.8	7.48e-01	0	42	104	1041760256	82	26881
2026-01-29 00:00:58.46	138.18	2.16	-54.9	-72.7	3.8	7.47e-01	0	42	104	1041760256	81	27943
2026-01-29 00:00:59.47	138.27	2.10	-54.7	-72.5	3.8	7.45e-01	0	42	104	1041760256	81	27321
2026-01-29 00:01:00.48	138.36	2.05	-54.6	-72.4	3.8	7.41e-01	0	42	104	1041760256	81	26905
2026-01-29 00:01:01.48	138.45	2.00	-54.5	-72.4	3.8	7.43e-01	0	42	104	1041760256	81	26852

#Closed at: 2026-01-29 00:01:02
#Recorded file [1041 MB]: D:/lorett/data/31041_260129_025009.dat