passes_logs/2026/01/28/R3.2S_Murmansk/R3.2S_Murmansk__20260128_073454_KANOPUS-V_5_rec.log

#Pass ID: 20260128_073454_KANOPUS-V 5
#Satellite: KANOPUS-V 5
#Configuration: KANOPUS-V_8320
#almurnet v.1.7.20251203
#Start time: 2026-01-28 07:34:55

#Version: 2.2.20231116
#Station: R3.2S_Murmansk
#Location: 33.079688 lon 68.888172 lat
#TLE: 1 43876U 18111A   26027.84700365  .00004960  00000+0  21036-3 0  9993
#TLE: 2 43876  97.3676 296.1288 0001839  89.0677 271.0771 15.23563804393425

#Time	Az	El	Level	Level2	SNR	BER	BlckErr	Temp	State	Recorded	gain1	gain2
2026-01-28 07:34:55.84	154.16	2.11	-54.8	-63.6	3.8	7.46e-01	0	41	0	0	80	10359
2026-01-28 07:34:56.84	154.16	2.19	-54.8	-63.7	3.8	7.46e-01	0	41	104	0	80	10428
2026-01-28 07:34:57.85	154.16	2.26	-54.8	-63.6	3.8	7.46e-01	0	41	104	0	80	10400
2026-01-28 07:34:58.86	154.16	2.33	-54.8	-63.6	3.8	7.44e-01	0	41	104	0	80	10366
2026-01-28 07:34:59.87	154.16	2.40	-54.8	-63.6	3.8	7.45e-01	0	41	104	0	80	10389
2026-01-28 07:35:00.88	154.16	2.47	-54.8	-63.6	3.8	7.45e-01	0	41	104	0	80	10385
2026-01-28 07:35:01.89	154.16	2.55	-54.8	-63.6	3.8	7.45e-01	0	41	104	0	80	10372
2026-01-28 07:35:02.89	154.16	2.62	-54.9	-63.7	3.8	7.47e-01	0	41	104	0	80	10506
2026-01-28 07:35:03.90	154.15	2.69	-54.9	-63.8	3.8	7.44e-01	0	41	104	0	80	10567
2026-01-28 07:35:04.91	154.15	2.77	-55.0	-63.8	3.8	7.46e-01	0	41	104	0	80	10613
2026-01-28 07:35:05.92	154.15	2.84	-54.9	-63.8	3.8	7.45e-01	0	41	104	0	80	10538
2026-01-28 07:35:06.93	154.15	2.91	-54.9	-63.8	3.8	7.46e-01	0	42	104	0	80	10545
2026-01-28 07:35:07.93	154.15	2.99	-54.9	-63.7	3.8	7.45e-01	0	42	104	0	80	10474
2026-01-28 07:35:08.94	154.15	3.06	-54.8	-63.7	3.8	7.47e-01	0	41	104	0	80	10442
2026-01-28 07:35:09.95	154.15	3.14	-54.8	-63.7	3.8	7.45e-01	0	42	104	0	80	10428
2026-01-28 07:35:10.96	154.15	3.21	-54.8	-63.6	3.8	7.45e-01	0	41	104	0	80	10322
2026-01-28 07:35:11.97	154.14	3.29	-54.7	-63.6	3.8	7.45e-01	0	42	104	0	80	10319
2026-01-28 07:35:12.98	154.14	3.36	-54.7	-63.6	3.8	7.45e-01	0	42	104	0	80	10300
2026-01-28 07:35:13.99	154.14	3.44	-54.6	-63.5	3.8	7.45e-01	0	41	104	0	80	10240
2026-01-28 07:35:15.00	154.14	3.51	-54.6	-63.4	3.8	7.46e-01	0	42	104	0	80	10154
2026-01-28 07:35:16.01	154.14	3.59	-54.5	-63.4	3.8	7.46e-01	0	42	104	0	80	10066
2026-01-28 07:35:17.01	154.14	3.67	-54.4	-63.2	3.8	7.46e-01	0	42	104	0	80	9938
2026-01-28 07:35:18.02	154.13	3.74	-54.3	-63.2	3.8	7.47e-01	0	42	104	0	80	9853
2026-01-28 07:35:19.03	154.13	3.82	-54.2	-63.1	3.8	7.44e-01	0	42	104	0	80	9744
2026-01-28 07:35:20.04	154.13	3.90	-54.1	-63.0	3.8	7.44e-01	0	42	104	0	80	9612
2026-01-28 07:35:21.05	154.13	3.98	-54.0	-62.9	3.8	7.45e-01	0	42	104	0	80	9503
2026-01-28 07:35:22.05	154.13	4.05	-53.9	-62.7	3.8	7.44e-01	0	42	104	0	79	9887
2026-01-28 07:35:23.06	154.12	4.13	-53.7	-62.5	3.8	7.44e-01	0	42	104	0	79	9706
2026-01-28 07:35:24.07	154.12	4.21	-53.4	-62.2	3.8	7.47e-01	0	42	104	0	78	9860
2026-01-28 07:35:25.08	154.12	4.29	-49.7	-53.4	7.1	6.42e-01	0	42	104	0	71	5351
2026-01-28 07:35:26.09	154.12	4.37	-48.8	-52.0	8.6	6.20e-01	0	42	0	10485760	69	5158
2026-01-28 07:35:27.10	154.12	4.45	-48.1	-51.1	9.7	6.03e-01	0	42	0	25165824	67	5205
2026-01-28 07:35:28.11	154.11	4.53	-47.4	-50.1	10.6	5.99e-01	0	42	0	41943040	66	4922
2026-01-28 07:35:29.12	154.11	4.61	-46.6	-49.3	11.4	5.96e-01	0	42	0	56623104	65	4713
2026-01-28 07:35:30.12	154.11	4.69	-46.1	-48.6	12.0	5.94e-01	0	42	0	71303168	64	4625
2026-01-28 07:35:31.13	154.11	4.77	-46.1	-48.6	12.2	5.78e-01	0	42	0	88080384	63	4885
2026-01-28 07:35:32.14	154.11	4.85	-45.8	-48.2	12.5	5.79e-01	0	42	0	102760448	63	4667
2026-01-28 07:35:33.15	154.10	4.93	-46.0	-48.5	12.2	5.76e-01	0	42	0	119537664	63	4816
2026-01-28 07:35:34.15	154.10	5.02	-46.4	-48.9	11.7	6.01e-01	0	42	0	134217728	63	5099
2026-01-28 07:35:35.16	154.10	5.10	-46.7	-49.4	11.2	6.11e-01	0	42	0	150994944	64	5045
2026-01-28 07:35:36.17	154.10	5.18	-48.6	-51.8	8.8	6.11e-01	0	42	0	165675008	68	5302
2026-01-28 07:35:37.18	154.09	5.26	-47.2	-50.0	10.7	5.97e-01	0	42	0	180355072	65	5118
2026-01-28 07:35:38.18	154.09	5.35	-47.3	-49.9	10.9	6.02e-01	0	43	0	197132288	66	4807
2026-01-28 07:35:39.19	154.09	5.43	-51.5	-57.2	4.4	7.21e-01	0	42	0	211812352	74	7007
2026-01-28 07:35:40.20	154.09	5.51	-45.7	-48.0	12.6	5.88e-01	0	42	0	226492416	63	4592
2026-01-28 07:35:41.21	154.08	5.60	-45.6	-48.0	12.6	6.00e-01	0	42	0	243269632	62	4827
2026-01-28 07:35:42.21	154.08	5.68	-45.6	-47.9	12.7	6.07e-01	0	42	0	257949696	62	4788
2026-01-28 07:35:43.22	154.08	5.77	-45.4	-47.7	12.9	6.05e-01	0	42	0	272629760	62	4687
2026-01-28 07:35:44.23	154.08	5.85	-45.4	-47.7	13.0	5.96e-01	0	42	0	289406976	62	4654
2026-01-28 07:35:45.24	154.07	5.94	-45.3	-47.6	13.0	6.05e-01	0	42	0	304087040	62	4633
2026-01-28 07:35:46.25	154.07	6.03	-45.1	-47.4	13.3	6.05e-01	0	42	0	320864256	62	4495
2026-01-28 07:35:47.26	154.07	6.11	-45.1	-47.4	13.3	6.05e-01	0	42	0	335544320	62	4501
2026-01-28 07:35:48.27	154.06	6.20	-45.1	-47.4	13.3	6.06e-01	0	42	0	352321536	62	4520
2026-01-28 07:35:49.27	154.06	6.29	-45.1	-47.4	13.3	6.03e-01	0	43	0	367001600	62	4495
2026-01-28 07:35:50.28	154.06	6.38	-45.0	-47.2	13.4	6.06e-01	0	42	0	381681664	62	4434
2026-01-28 07:35:51.29	154.06	6.46	-45.1	-47.3	13.4	6.05e-01	0	42	0	398458880	62	4481
2026-01-28 07:35:52.29	154.05	6.55	-44.9	-47.1	13.6	6.01e-01	0	42	0	413138944	61	4607
2026-01-28 07:35:53.30	154.05	6.64	-44.9	-47.2	13.5	6.00e-01	0	43	0	427819008	61	4652
2026-01-28 07:35:54.31	154.05	6.73	-44.8	-47.0	13.7	6.07e-01	0	42	0	442499072	61	4546
2026-01-28 07:35:55.32	154.04	6.82	-44.9	-47.1	13.6	6.01e-01	0	42	0	459276288	61	4642
2026-01-28 07:35:56.33	154.04	6.91	-44.9	-47.1	13.6	6.01e-01	0	42	0	473956352	61	4635
2026-01-28 07:35:57.34	154.04	7.00	-44.8	-46.9	13.8	6.02e-01	0	43	0	488636416	61	4535
2026-01-28 07:35:58.35	154.03	7.09	-44.8	-47.0	13.8	6.01e-01	0	42	0	507510784	61	4560
2026-01-28 07:35:59.36	154.03	7.18	-44.7	-46.8	13.9	6.02e-01	0	43	0	522190848	61	4467
2026-01-28 07:36:00.36	154.03	7.28	-44.6	-46.8	14.0	6.01e-01	0	43	0	536870912	61	4448
2026-01-28 07:36:01.37	154.02	7.37	-44.6	-46.7	14.0	6.03e-01	0	43	0	551550976	61	4411
2026-01-28 07:36:02.38	154.02	7.46	-44.6	-46.7	14.0	6.00e-01	0	42	0	568328192	61	4401
2026-01-28 07:36:03.38	154.01	7.55	-44.5	-46.6	14.1	6.02e-01	0	43	0	583008256	61	4380
2026-01-28 07:36:04.39	154.01	7.65	-44.5	-46.6	14.2	6.02e-01	0	43	0	597688320	61	4374
2026-01-28 07:36:05.41	154.01	7.74	-44.4	-46.5	14.2	6.05e-01	0	43	0	614465536	60	4588
2026-01-28 07:36:06.41	154.00	7.84	-44.3	-46.4	14.3	6.01e-01	0	43	0	629145600	60	4526
2026-01-28 07:36:07.43	154.00	7.93	-44.3	-46.4	14.4	6.01e-01	0	43	0	643825664	60	4509
2026-01-28 07:36:08.43	153.99	8.03	-44.3	-46.3	14.4	6.00e-01	0	43	0	660602880	60	4492
2026-01-28 07:36:09.44	153.99	8.13	-44.2	-46.3	14.5	6.00e-01	0	43	0	675282944	60	4447
2026-01-28 07:36:10.45	153.99	8.22	-44.2	-46.3	14.4	6.04e-01	0	43	0	692060160	60	4455
2026-01-28 07:36:11.45	153.98	8.32	-44.1	-46.2	14.6	5.99e-01	0	43	0	706740224	60	4394
2026-01-28 07:36:12.46	153.98	8.42	-44.2	-46.3	14.5	5.99e-01	0	43	0	723517440	60	4450
2026-01-28 07:36:13.47	153.97	8.52	-44.0	-46.1	14.7	5.99e-01	0	43	0	738197504	60	4357
2026-01-28 07:36:14.48	153.97	8.62	-44.0	-46.0	14.7	5.98e-01	0	43	0	752877568	60	4328
2026-01-28 07:36:15.49	153.96	8.71	-44.0	-46.0	14.8	6.02e-01	0	43	0	769654784	59	4572
2026-01-28 07:36:16.49	153.96	8.81	-44.2	-46.3	14.5	6.05e-01	0	43	0	784334848	59	4707
2026-01-28 07:36:17.50	153.96	8.91	-44.0	-46.0	14.7	6.05e-01	0	43	0	799014912	59	4594
2026-01-28 07:36:18.51	153.95	9.02	-44.0	-46.0	14.8	6.04e-01	0	43	0	815792128	59	4568
2026-01-28 07:36:19.52	153.95	9.12	-44.0	-46.1	14.7	6.06e-01	0	43	0	830472192	59	4607
2026-01-28 07:36:20.53	153.94	9.22	-44.0	-46.1	14.7	6.07e-01	0	43	0	845152256	59	4607
2026-01-28 07:36:21.54	153.94	9.32	-44.0	-46.1	14.7	6.04e-01	0	43	0	861929472	59	4603
2026-01-28 07:36:22.55	153.93	9.43	-43.8	-45.8	14.9	6.05e-01	0	43	0	878706688	59	4488
2026-01-28 07:36:23.56	153.93	9.53	-43.8	-45.9	15.0	6.03e-01	0	43	0	893386752	59	4498
2026-01-28 07:36:24.57	153.92	9.63	-43.9	-45.9	14.9	6.03e-01	0	43	0	908066816	59	4536
2026-01-28 07:36:25.58	153.92	9.74	-43.8	-45.9	14.9	6.04e-01	0	43	0	924844032	59	4494
2026-01-28 07:36:26.58	153.91	9.84	-43.8	-45.8	15.0	6.05e-01	0	43	0	939524096	59	4468
2026-01-28 07:36:27.59	153.91	9.95	-43.8	-45.8	15.1	6.04e-01	0	43	0	954204160	59	4443
2026-01-28 07:36:28.60	153.90	10.06	-43.8	-45.8	15.0	6.04e-01	0	43	0	970981376	59	4453
2026-01-28 07:36:29.61	153.89	10.17	-43.8	-45.8	15.0	6.03e-01	0	43	0	985661440	59	4480
2026-01-28 07:36:30.61	153.89	10.27	-43.6	-45.6	15.2	6.03e-01	0	43	0	1000341504	59	4361
2026-01-28 07:36:31.62	153.88	10.38	-43.7	-45.7	15.1	6.03e-01	0	43	0	1017118720	59	4410
2026-01-28 07:36:32.63	153.88	10.49	-43.7	-45.7	15.1	6.05e-01	0	43	0	1031798784	59	4404
2026-01-28 07:36:33.64	153.87	10.60	-43.5	-45.5	15.3	6.04e-01	0	43	0	1046478848	59	4325
2026-01-28 07:36:34.64	153.87	10.71	-43.6	-45.6	15.3	5.97e-01	0	43	0	1063256064	59	4348
2026-01-28 07:36:35.65	153.86	10.82	-43.6	-45.6	15.2	6.03e-01	0	43	0	1080033280	59	4348
2026-01-28 07:36:36.66	153.85	10.93	-43.5	-45.5	15.3	6.03e-01	0	43	0	1094713344	59	4315
2026-01-28 07:36:37.67	153.85	11.05	-43.4	-45.4	15.4	6.00e-01	0	43	0	1109393408	58	4499
2026-01-28 07:36:38.68	153.84	11.16	-43.4	-45.4	15.4	6.05e-01	0	43	0	1126170624	58	4515
2026-01-28 07:36:39.69	153.83	11.28	-43.3	-45.3	15.5	6.04e-01	0	43	0	1140850688	58	4460
2026-01-28 07:36:40.70	153.83	11.39	-43.4	-45.4	15.4	6.04e-01	0	43	0	1155530752	58	4518
2026-01-28 07:36:41.70	153.82	11.50	-43.4	-45.4	15.4	6.03e-01	0	43	0	1172307968	58	4522
2026-01-28 07:36:42.72	153.81	11.62	-43.2	-45.2	15.5	6.03e-01	0	43	0	1186988032	58	4427
2026-01-28 07:36:43.72	153.81	11.74	-43.3	-45.3	15.5	6.04e-01	0	43	0	1201668096	58	4472
2026-01-28 07:36:44.73	153.80	11.86	-43.3	-45.3	15.5	6.04e-01	0	43	0	1218445312	58	4464
2026-01-28 07:36:45.74	153.79	11.98	-43.3	-45.4	15.5	6.04e-01	0	43	0	1233125376	58	4501
2026-01-28 07:36:46.75	153.79	12.09	-43.2	-45.2	15.6	6.03e-01	0	43	0	1249902592	58	4437
2026-01-28 07:36:47.76	153.78	12.21	-43.1	-45.2	15.7	6.00e-01	0	43	0	1264582656	58	4394
2026-01-28 07:36:48.77	153.77	12.34	-43.0	-45.1	15.7	5.97e-01	0	43	0	1281359872	58	4347
2026-01-28 07:36:49.77	153.76	12.46	-43.0	-45.0	15.8	6.04e-01	0	43	0	1296039936	58	4317
2026-01-28 07:36:50.78	153.76	12.58	-43.0	-45.0	15.8	5.98e-01	0	43	0	1310720000	57	4564
2026-01-28 07:36:51.79	153.75	12.70	-43.0	-45.0	15.7	6.00e-01	0	43	0	1327497216	57	4586
2026-01-28 07:36:52.80	153.74	12.83	-42.9	-44.9	15.9	5.89e-01	0	43	0	1342177280	57	4524
2026-01-28 07:36:53.81	153.73	12.95	-42.8	-44.8	15.9	6.01e-01	0	43	0	1356857344	57	4492
2026-01-28 07:36:54.82	153.73	13.08	-42.7	-44.7	16.0	6.03e-01	0	43	0	1373634560	57	4441
2026-01-28 07:36:55.83	153.72	13.21	-42.8	-44.8	16.0	6.00e-01	0	43	0	1388314624	57	4448
2026-01-28 07:36:56.84	153.71	13.33	-42.7	-44.8	16.0	6.05e-01	0	43	0	1402994688	57	4445
2026-01-28 07:36:57.85	153.70	13.46	-42.6	-44.6	16.1	5.99e-01	0	43	0	1419771904	57	4361
2026-01-28 07:36:58.86	153.69	13.59	-42.7	-44.7	16.1	6.04e-01	0	43	0	1436549120	57	4405
2026-01-28 07:36:59.87	153.68	13.72	-42.6	-44.6	16.2	6.00e-01	0	43	0	1451229184	57	4349
2026-01-28 07:37:00.87	153.68	13.85	-42.7	-44.7	16.1	6.02e-01	0	43	0	1465909248	57	4396
2026-01-28 07:37:01.88	153.67	13.98	-42.4	-44.4	16.3	6.03e-01	0	43	0	1482686464	56	4513
2026-01-28 07:37:02.89	153.66	14.12	-42.5	-44.5	16.3	6.03e-01	0	43	0	1497366528	56	4556
2026-01-28 07:37:03.90	153.65	14.25	-42.3	-44.3	16.4	6.03e-01	0	43	0	1512046592	56	4450
2026-01-28 07:37:04.91	153.64	14.39	-42.3	-44.2	16.4	6.04e-01	0	43	0	1528823808	56	4435
2026-01-28 07:37:05.91	153.63	14.52	-42.1	-44.1	16.6	6.02e-01	0	43	0	1543503872	56	4352
2026-01-28 07:37:06.92	153.62	14.66	-42.1	-44.1	16.6	6.02e-01	0	43	0	1558183936	56	4370
2026-01-28 07:37:07.93	153.61	14.80	-42.1	-44.1	16.7	6.02e-01	0	43	0	1574961152	55	4629
2026-01-28 07:37:08.94	153.60	14.94	-41.9	-43.9	16.8	6.02e-01	0	43	0	1589641216	55	4534
2026-01-28 07:37:09.95	153.59	15.08	-42.0	-44.0	16.8	6.02e-01	0	43	0	1606418432	55	4566
2026-01-28 07:37:10.96	153.58	15.22	-42.0	-44.0	16.8	6.01e-01	0	43	0	1621098496	55	4562
2026-01-28 07:37:11.96	153.57	15.36	-41.9	-43.9	16.8	5.99e-01	0	43	0	1637875712	55	4511
2026-01-28 07:37:12.97	153.56	15.50	-41.6	-43.6	17.2	6.00e-01	0	43	0	1652555776	55	4367
2026-01-28 07:37:13.98	153.55	15.65	-41.5	-43.4	17.3	6.03e-01	0	43	0	1667235840	55	4286
2026-01-28 07:37:14.99	153.54	15.79	-41.5	-43.4	17.2	6.03e-01	0	43	0	1684013056	54	4528
2026-01-28 07:37:16.00	153.53	15.94	-41.5	-43.4	17.3	6.03e-01	0	43	0	1698693120	54	4531
2026-01-28 07:37:17.01	153.52	16.09	-41.3	-43.3	17.4	6.01e-01	0	43	0	1713373184	54	4443
2026-01-28 07:37:18.02	153.50	16.24	-41.2	-43.1	17.5	6.01e-01	0	43	0	1730150400	54	4377
2026-01-28 07:37:19.03	153.49	16.39	-41.2	-43.1	17.5	6.03e-01	0	43	0	1744830464	54	4374
2026-01-28 07:37:20.03	153.48	16.54	-41.1	-43.0	17.6	6.04e-01	0	43	0	1759510528	54	4332
2026-01-28 07:37:21.04	153.47	16.69	-41.2	-43.1	17.5	6.03e-01	0	43	0	1776287744	54	4385
2026-01-28 07:37:22.05	153.46	16.84	-41.1	-43.0	17.5	6.01e-01	0	43	0	1793064960	54	4326
2026-01-28 07:37:23.06	153.44	17.00	-41.1	-43.0	17.6	5.99e-01	0	43	0	1807745024	54	4328
2026-01-28 07:37:24.07	153.43	17.16	-41.1	-43.0	17.6	5.96e-01	0	43	0	1822425088	54	4325
2026-01-28 07:37:25.07	153.42	17.31	-41.1	-43.0	17.6	5.99e-01	0	43	0	1839202304	54	4334
2026-01-28 07:37:26.09	153.41	17.47	-41.1	-43.0	17.6	6.00e-01	0	43	0	1853882368	54	4308
2026-01-28 07:37:27.09	153.39	17.63	-41.1	-43.0	17.6	6.01e-01	0	43	0	1868562432	54	4328
2026-01-28 07:37:28.10	153.38	17.80	-41.1	-43.0	17.6	5.98e-01	0	43	0	1885339648	54	4310
2026-01-28 07:37:29.11	153.37	17.96	-41.2	-43.1	17.6	5.94e-01	0	43	0	1900019712	54	4381
2026-01-28 07:37:30.12	153.35	18.12	-41.2	-43.1	17.6	5.97e-01	0	43	0	1914699776	54	4357
2026-01-28 07:37:31.13	153.34	18.29	-41.2	-43.1	17.5	5.99e-01	0	43	0	1929379840	54	4376
2026-01-28 07:37:32.13	153.33	18.46	-41.2	-43.0	17.7	6.00e-01	0	43	0	1946157056	54	4332
2026-01-28 07:37:33.14	153.31	18.62	-41.1	-43.0	17.6	6.00e-01	0	43	0	1960837120	54	4298
2026-01-28 07:37:34.15	153.30	18.80	-41.2	-43.0	17.7	5.97e-01	0	43	0	1977614336	54	4333
2026-01-28 07:37:35.15	153.28	18.97	-41.1	-43.0	17.7	6.00e-01	0	43	0	1994391552	54	4294
2026-01-28 07:37:36.16	153.27	19.14	-41.0	-42.9	17.7	5.98e-01	0	43	0	2009071616	54	4265
2026-01-28 07:37:37.17	153.25	19.31	-41.1	-42.9	17.8	5.91e-01	0	43	0	2023751680	54	4284
2026-01-28 07:37:38.17	153.24	19.49	-41.0	-42.9	17.8	5.86e-01	0	43	0	2038431744	54	4243
2026-01-28 07:37:39.18	153.22	19.67	-40.9	-42.7	17.8	5.97e-01	0	43	0	2055208960	53	4434
2026-01-28 07:37:40.18	153.20	19.85	-40.7	-42.6	18.0	5.92e-01	0	43	0	2069889024	53	4353
2026-01-28 07:37:41.19	153.19	20.03	-40.7	-42.5	18.0	5.96e-01	0	43	0	2084569088	53	4337
2026-01-28 07:37:42.20	153.17	20.21	-40.7	-42.5	18.0	5.94e-01	0	43	0	2101346304	53	4333
2026-01-28 07:37:43.20	153.15	20.39	-40.5	-42.4	18.1	5.93e-01	0	43	0	2116026368	53	4253
2026-01-28 07:37:44.21	153.14	20.58	-40.4	-42.2	18.2	6.01e-01	0	43	0	2130706432	52	4416
2026-01-28 07:37:45.22	153.12	20.77	-40.4	-42.2	18.2	6.02e-01	0	43	0	2147483648	52	4416
2026-01-28 07:37:46.23	153.10	20.96	-40.3	-42.1	18.3	5.99e-01	0	44	0	2162163712	52	4367
2026-01-28 07:37:47.23	153.08	21.15	-40.2	-42.0	18.4	5.99e-01	0	43	0	2176843776	52	4308
2026-01-28 07:37:48.24	153.07	21.34	-40.3	-42.1	18.3	5.97e-01	0	43	0	2193620992	52	4344
2026-01-28 07:37:49.25	153.05	21.54	-40.0	-41.8	18.5	5.95e-01	0	43	0	2210398208	52	4217
2026-01-28 07:37:50.26	153.03	21.74	-40.1	-41.9	18.5	6.02e-01	0	43	0	2225078272	51	4498
2026-01-28 07:37:51.27	153.01	21.94	-39.9	-41.7	18.7	5.88e-01	0	43	0	2239758336	51	4401
2026-01-28 07:37:52.27	152.99	22.14	-39.9	-41.7	18.7	5.96e-01	0	43	0	2256535552	51	4393
2026-01-28 07:37:53.28	152.97	22.34	-40.0	-41.7	18.6	5.93e-01	0	43	0	2271215616	51	4431
2026-01-28 07:37:54.29	152.95	22.55	-40.1	-41.8	18.6	5.93e-01	0	43	0	2285895680	51	4475
2026-01-28 07:37:55.29	152.93	22.75	-40.0	-41.7	18.6	5.99e-01	0	43	0	2302672896	51	4429
2026-01-28 07:37:56.30	152.91	22.96	-40.0	-41.7	18.7	5.98e-01	0	43	0	2317352960	51	4411
2026-01-28 07:37:57.31	152.89	23.17	-40.0	-41.8	18.6	5.92e-01	0	43	0	2332033024	51	4451
2026-01-28 07:37:58.32	152.86	23.39	-40.1	-41.9	18.6	5.95e-01	0	43	0	2348810240	51	4505
2026-01-28 07:37:59.33	152.84	23.60	-40.2	-42.0	18.5	5.93e-01	0	43	0	2363490304	51	4563
2026-01-28 07:38:00.33	152.82	23.82	-40.3	-42.0	18.4	6.01e-01	0	43	0	2378170368	51	4575
2026-01-28 07:38:01.34	152.80	24.04	-40.3	-42.1	18.3	5.96e-01	0	44	0	2394947584	51	4609
2026-01-28 07:38:02.35	152.77	24.26	-40.4	-42.2	18.3	5.92e-01	0	43	0	2411724800	51	4693
2026-01-28 07:38:03.36	152.75	24.49	-40.5	-42.3	18.3	5.93e-01	0	43	0	2426404864	51	4740
2026-01-28 07:38:04.37	152.72	24.72	-40.5	-42.4	18.3	5.97e-01	0	43	0	2441084928	51	4770
2026-01-28 07:38:05.37	152.70	24.95	-40.6	-42.4	18.2	5.97e-01	0	43	0	2457862144	51	4786
2026-01-28 07:38:06.38	152.67	25.18	-40.6	-42.4	18.2	5.94e-01	0	43	0	2472542208	51	4802
2026-01-28 07:38:07.39	152.65	25.41	-40.5	-42.3	18.3	5.91e-01	0	43	0	2487222272	51	4759
2026-01-28 07:38:08.40	152.62	25.65	-40.5	-42.3	18.3	5.96e-01	0	43	0	2503999488	51	4737
2026-01-28 07:38:09.41	152.59	25.89	-40.5	-42.3	18.3	5.99e-01	0	43	0	2518679552	51	4739
2026-01-28 07:38:10.41	152.57	26.13	-40.4	-42.2	18.4	5.96e-01	0	43	0	2533359616	51	4666
2026-01-28 07:38:11.42	152.54	26.38	-40.3	-42.0	18.5	5.96e-01	0	43	0	2550136832	51	4597
2026-01-28 07:38:12.43	152.51	26.63	-40.5	-42.2	18.4	5.99e-01	0	43	0	2564816896	51	4679
2026-01-28 07:38:13.44	152.48	26.88	-40.3	-42.0	18.5	5.98e-01	0	43	0	2579496960	51	4591
2026-01-28 07:38:14.45	152.45	27.13	-40.2	-41.9	18.5	5.97e-01	0	43	0	2596274176	51	4529
2026-01-28 07:38:15.46	152.42	27.39	-40.3	-42.0	18.5	5.99e-01	0	43	0	2613051392	51	4590
2026-01-28 07:38:16.47	152.39	27.65	-40.3	-42.1	18.4	5.97e-01	0	43	0	2627731456	51	4604
2026-01-28 07:38:17.47	152.36	27.91	-40.4	-42.1	18.5	5.96e-01	0	43	0	2642411520	51	4612
2026-01-28 07:38:18.48	152.33	28.18	-40.5	-42.2	18.4	5.99e-01	0	43	0	2659188736	51	4665
2026-01-28 07:38:19.49	152.30	28.45	-40.4	-42.1	18.5	5.99e-01	0	43	0	2673868800	51	4626
2026-01-28 07:38:20.50	152.26	28.72	-40.6	-42.3	18.4	5.97e-01	0	43	0	2688548864	51	4729
2026-01-28 07:38:21.51	152.23	28.99	-40.3	-42.0	18.6	6.03e-01	0	43	0	2705326080	51	4555
2026-01-28 07:38:22.52	152.19	29.27	-40.2	-42.0	18.5	5.98e-01	0	43	0	2720006144	51	4551
2026-01-28 07:38:23.53	152.16	29.56	-40.3	-42.0	18.5	6.01e-01	0	43	0	2734686208	51	4593
2026-01-28 07:38:24.53	152.12	29.84	-40.1	-41.9	18.6	5.95e-01	0	43	0	2751463424	51	4502
2026-01-28 07:38:25.54	152.09	30.13	-40.1	-41.9	18.6	5.94e-01	0	43	0	2766143488	51	4505
2026-01-28 07:38:26.55	152.05	30.42	-40.2	-41.9	18.6	5.95e-01	0	43	0	2782920704	51	4535
2026-01-28 07:38:27.56	152.01	30.71	-40.2	-42.0	18.5	5.97e-01	0	43	0	2797600768	51	4570
2026-01-28 07:38:28.57	151.97	31.01	-40.3	-42.1	18.5	5.96e-01	0	43	0	2814377984	51	4628
2026-01-28 07:38:29.58	151.93	31.32	-40.4	-42.2	18.4	5.98e-01	0	43	0	2829058048	51	4680
2026-01-28 07:38:30.59	151.89	31.62	-40.5	-42.4	18.3	5.94e-01	0	43	0	2843738112	51	4786
2026-01-28 07:38:31.60	151.85	31.93	-40.6	-42.5	18.2	5.99e-01	0	43	0	2860515328	51	4857
2026-01-28 07:38:32.61	151.80	32.25	-40.7	-42.7	18.1	5.99e-01	0	43	0	2875195392	51	4967
2026-01-28 07:38:33.61	151.76	32.56	-40.6	-42.7	18.0	6.01e-01	0	43	0	2889875456	52	4671
2026-01-28 07:38:34.62	151.71	32.89	-40.5	-42.7	18.0	5.98e-01	0	43	0	2906652672	52	4678
2026-01-28 07:38:35.63	151.67	33.21	-40.4	-42.6	18.1	5.97e-01	0	43	0	2921332736	52	4625
2026-01-28 07:38:36.63	151.62	33.54	-40.2	-42.4	18.2	6.03e-01	0	43	0	2936012800	52	4512
2026-01-28 07:38:37.64	151.57	33.88	-40.3	-42.4	18.2	5.97e-01	0	43	0	2952790016	52	4520
2026-01-28 07:38:38.64	151.52	34.21	-40.0	-42.1	18.4	5.99e-01	0	43	0	2969567232	52	4386
2026-01-28 07:38:39.65	151.47	34.56	-40.1	-42.2	18.4	5.97e-01	0	44	0	2984247296	52	4392
2026-01-28 07:38:40.66	151.42	34.90	-40.1	-42.2	18.4	5.95e-01	0	43	0	2998927360	52	4422
2026-01-28 07:38:41.67	151.37	35.26	-39.9	-41.9	18.6	5.97e-01	0	43	0	3015704576	51	4533
2026-01-28 07:38:42.68	151.31	35.61	-39.8	-41.8	18.7	5.99e-01	0	43	0	3030384640	51	4462
2026-01-28 07:38:43.69	151.26	35.97	-39.9	-41.9	18.6	5.93e-01	0	43	0	3045064704	51	4503
2026-01-28 07:38:44.70	151.20	36.34	-39.7	-41.7	18.8	5.96e-01	0	43	0	3061841920	51	4403
2026-01-28 07:38:45.70	151.14	36.71	-39.1	-41.1	19.1	5.99e-01	0	43	0	3076521984	50	4343
2026-01-28 07:38:46.71	151.08	37.08	-39.0	-41.0	19.1	5.98e-01	0	43	0	3091202048	50	4328
2026-01-28 07:38:47.72	151.02	37.46	-38.8	-40.9	19.2	5.97e-01	0	43	0	3107979264	49	4534
2026-01-28 07:38:48.73	150.96	37.85	-38.8	-41.1	19.1	5.98e-01	0	43	0	3122659328	49	4612
2026-01-28 07:38:49.74	150.89	38.24	-38.9	-41.2	19.0	6.00e-01	0	43	0	3137339392	49	4666
2026-01-28 07:38:50.75	150.82	38.64	-38.8	-41.1	19.1	5.99e-01	0	43	0	3154116608	49	4621
2026-01-28 07:38:51.76	150.75	39.04	-38.9	-41.2	19.0	5.99e-01	0	43	0	3170893824	49	4675
2026-01-28 07:38:52.77	150.68	39.45	-38.7	-41.0	19.2	5.97e-01	0	43	0	3185573888	49	4553
2026-01-28 07:38:53.77	150.61	39.85	-38.7	-41.0	19.1	5.98e-01	0	43	0	3200253952	49	4557
2026-01-28 07:38:54.78	150.54	40.27	-38.2	-40.5	19.4	5.98e-01	0	43	0	3217031168	48	4593
2026-01-28 07:38:55.79	150.46	40.70	-38.1	-40.5	19.4	5.99e-01	0	44	0	3231711232	48	4586
2026-01-28 07:38:56.80	150.38	41.12	-38.2	-40.7	19.4	5.93e-01	0	43	0	3246391296	48	4661
2026-01-28 07:38:57.80	150.30	41.56	-38.0	-40.4	19.5	5.97e-01	0	43	0	3261071360	48	4497
2026-01-28 07:38:58.81	150.21	42.00	-37.0	-39.2	19.2	6.04e-01	0	43	0	3277848576	46	4416
2026-01-28 07:38:59.82	150.13	42.44	-36.8	-39.0	19.4	6.00e-01	0	43	0	3292528640	45	4565
2026-01-28 07:39:00.83	150.04	42.90	-36.9	-39.1	19.3	6.01e-01	0	43	0	3307208704	45	4601
2026-01-28 07:39:01.84	149.95	43.36	-36.7	-38.8	19.5	5.90e-01	0	43	0	3323985920	45	4462
2026-01-28 07:39:02.85	149.85	43.82	-36.5	-38.7	19.6	5.96e-01	0	44	0	3340763136	45	4400
2026-01-28 07:39:03.85	149.75	44.29	-36.4	-38.6	19.6	5.91e-01	0	43	0	3355443200	44	4622
2026-01-28 07:39:04.86	149.65	44.77	-36.4	-38.6	19.6	5.94e-01	0	43	0	3372220416	44	4605
2026-01-28 07:39:05.87	149.55	45.25	-36.4	-38.5	19.6	5.98e-01	0	44	0	3386900480	44	4588
2026-01-28 07:39:06.88	149.44	45.74	-36.3	-38.4	19.7	6.00e-01	0	43	0	3401580544	44	4517
2026-01-28 07:39:07.89	149.33	46.24	-36.2	-38.2	19.8	5.96e-01	0	43	0	3416260608	44	4441
2026-01-28 07:39:08.89	149.21	46.74	-36.3	-38.3	19.7	6.02e-01	0	43	0	3433037824	44	4469
2026-01-28 07:39:09.90	149.09	47.25	-36.2	-38.3	19.8	6.00e-01	0	43	0	3447717888	44	4464
2026-01-28 07:39:10.91	148.97	47.77	-36.2	-38.3	19.7	5.96e-01	0	43	0	3462397952	44	4480
2026-01-28 07:39:11.92	148.84	48.29	-36.3	-38.3	19.7	5.97e-01	0	43	0	3479175168	44	4492
2026-01-28 07:39:12.93	148.71	48.82	-36.2	-38.3	19.8	6.01e-01	0	43	0	3493855232	44	4443
2026-01-28 07:39:13.93	148.57	49.35	-36.1	-38.2	19.7	6.01e-01	0	43	0	3508535296	44	4402
2026-01-28 07:39:14.95	148.43	49.91	-36.2	-38.3	19.7	6.02e-01	0	43	0	3525312512	44	4470
2026-01-28 07:39:15.96	148.28	50.46	-36.3	-38.5	19.7	5.99e-01	0	44	0	3542089728	44	4546
2026-01-28 07:39:16.97	148.12	51.02	-36.5	-38.6	19.6	6.01e-01	0	44	0	3556769792	44	4611
2026-01-28 07:39:17.97	147.96	51.58	-36.8	-38.7	19.5	6.02e-01	0	43	0	3571449856	44	4692
2026-01-28 07:39:18.98	147.80	52.16	-36.9	-38.9	19.4	6.01e-01	0	43	0	3588227072	44	4779
2026-01-28 07:39:19.99	147.62	52.74	-37.1	-39.0	19.3	6.01e-01	0	43	0	3602907136	44	4864
2026-01-28 07:39:21.00	147.44	53.33	-37.1	-39.2	19.4	5.89e-01	0	44	0	3617587200	44	4933
2026-01-28 07:39:22.01	147.25	53.92	-37.1	-39.1	19.4	5.89e-01	0	44	0	3634364416	44	4908
2026-01-28 07:39:23.02	147.05	54.53	-37.3	-39.4	19.1	5.89e-01	0	43	0	3649044480	45	4787
2026-01-28 07:39:24.03	146.85	55.14	-37.7	-39.9	18.9	5.89e-01	0	43	0	3663724544	45	5046
2026-01-28 07:39:25.04	146.63	55.76	-37.9	-40.0	18.9	5.88e-01	0	43	0	3680501760	46	4866
2026-01-28 07:39:26.04	146.40	56.38	-37.8	-40.1	18.7	5.88e-01	0	44	0	3697278976	46	4923
2026-01-28 07:39:27.05	146.17	57.01	-37.9	-40.2	18.7	5.88e-01	0	43	0	3711959040	46	4944
2026-01-28 07:39:28.06	145.92	57.65	-37.9	-40.1	18.8	5.89e-01	0	43	0	3726639104	46	4905
2026-01-28 07:39:29.07	145.66	58.30	-38.2	-40.3	18.6	5.89e-01	0	43	0	3743416320	46	5023
2026-01-28 07:39:30.07	145.38	58.95	-38.1	-40.3	18.7	5.88e-01	0	43	0	3758096384	46	4990
2026-01-28 07:39:31.08	145.09	59.61	-37.9	-39.9	18.9	5.88e-01	0	43	0	3772776448	46	4787
2026-01-28 07:39:32.09	144.79	60.28	-38.0	-39.9	18.9	5.89e-01	0	43	0	3789553664	46	4785
2026-01-28 07:39:33.10	144.47	60.96	-37.7	-39.6	19.2	5.88e-01	0	43	0	3804233728	46	4606
2026-01-28 07:39:34.11	144.13	61.64	-37.6	-39.5	19.2	5.88e-01	0	43	0	3818913792	46	4562
2026-01-28 07:39:35.12	143.77	62.33	-37.6	-39.6	19.2	5.89e-01	0	44	0	3835691008	46	4602
2026-01-28 07:39:36.13	143.38	63.03	-40.0	-40.6	19.6	5.89e-01	0	43	0	3850371072	50	4135
2026-01-28 07:39:37.14	142.98	63.73	-39.6	-40.3	19.8	5.90e-01	0	43	0	3865051136	50	3986
2026-01-28 07:39:38.15	142.55	64.44	-54.6	-63.5	3.8	7.45e-01	0	43	104	3871342592	79	10868
2026-01-28 07:39:39.15	142.09	65.15	-54.6	-63.5	3.8	7.44e-01	0	43	104	3871342592	79	10844
2026-01-28 07:39:40.16	141.60	65.87	-54.6	-63.5	3.8	7.45e-01	0	43	104	3871342592	79	10814
2026-01-28 07:39:41.17	141.08	66.60	-54.7	-63.5	3.8	7.47e-01	0	43	104	3871342592	79	10826
2026-01-28 07:39:42.18	140.51	67.33	-54.7	-63.5	3.8	7.44e-01	0	43	104	3871342592	79	10856
2026-01-28 07:39:43.19	139.91	68.06	-54.7	-63.5	3.8	7.46e-01	0	44	104	3871342592	79	10812
2026-01-28 07:39:44.20	139.26	68.80	-54.7	-63.5	3.8	7.45e-01	0	44	104	3871342592	79	10862
2026-01-28 07:39:45.21	138.56	69.55	-54.7	-63.5	3.8	7.46e-01	0	43	104	3871342592	79	10886
2026-01-28 07:39:46.21	137.81	70.29	-54.7	-63.5	3.8	7.46e-01	0	43	104	3871342592	79	10824
2026-01-28 07:39:47.22	136.98	71.04	-54.7	-63.5	3.8	7.46e-01	0	43	104	3871342592	79	10881
2026-01-28 07:39:48.23	136.09	71.79	-54.7	-63.5	3.8	7.44e-01	0	43	104	3871342592	80	10205
2026-01-28 07:39:49.24	135.11	72.54	-54.7	-63.5	3.8	7.43e-01	0	43	104	3871342592	80	10263
2026-01-28 07:39:50.25	134.03	73.30	-54.6	-63.5	3.8	7.46e-01	0	43	104	3871342592	80	10211
2026-01-28 07:39:51.25	132.87	74.04	-54.7	-63.5	3.8	7.45e-01	0	44	104	3871342592	80	10229
2026-01-28 07:39:52.26	131.56	74.79	-54.7	-63.5	3.8	7.45e-01	0	44	104	3871342592	80	10219
2026-01-28 07:39:53.27	130.12	75.54	-54.7	-63.5	3.8	7.44e-01	0	43	104	3871342592	80	10260
2026-01-28 07:39:54.28	128.51	76.28	-54.6	-63.5	3.8	7.46e-01	0	43	104	3871342592	80	10207
2026-01-28 07:39:55.29	126.72	77.01	-54.7	-63.5	3.8	7.46e-01	0	43	104	3871342592	80	10261
2026-01-28 07:39:56.29	124.72	77.73	-54.7	-63.5	3.8	7.44e-01	0	44	104	3871342592	80	10282
2026-01-28 07:39:57.30	122.45	78.44	-54.7	-63.6	3.8	7.46e-01	0	43	104	3871342592	80	10304
2026-01-28 07:39:58.31	119.88	79.13	-54.7	-63.5	3.8	7.44e-01	0	44	104	3871342592	80	10257
2026-01-28 07:39:59.32	116.95	79.80	-54.7	-63.6	3.8	7.46e-01	0	43	104	3871342592	80	10297
2026-01-28 07:40:00.33	113.61	80.44	-54.7	-63.6	3.8	7.44e-01	0	43	104	3871342592	80	10324
2026-01-28 07:40:01.33	109.84	81.05	-54.7	-63.6	3.8	7.46e-01	0	43	104	3871342592	80	10298
2026-01-28 07:40:02.34	105.48	81.61	-54.7	-63.5	3.8	7.48e-01	0	43	104	3871342592	80	10270
2026-01-28 07:40:03.35	100.52	82.13	-54.7	-63.6	3.8	7.46e-01	0	43	104	3871342592	80	10323
2026-01-28 07:40:04.35	94.97	82.57	-54.8	-63.6	3.8	7.45e-01	0	43	104	3871342592	80	10340
2026-01-28 07:40:05.36	88.71	82.94	-54.7	-63.6	3.8	7.46e-01	0	44	104	3871342592	80	10312
2026-01-28 07:40:06.37	81.84	83.22	-54.7	-63.6	3.8	7.45e-01	0	43	104	3871342592	80	10322
2026-01-28 07:40:07.38	74.49	83.39	-54.8	-63.6	3.8	7.45e-01	0	44	104	3871342592	80	10332
2026-01-28 07:40:08.39	66.87	83.45	-54.8	-63.6	3.8	7.46e-01	0	43	104	3871342592	80	10350
2026-01-28 07:40:09.40	59.25	83.40	-54.7	-63.6	3.8	7.45e-01	0	43	104	3871342592	80	10313
2026-01-28 07:40:10.40	51.95	83.23	-54.7	-63.6	3.8	7.46e-01	0	43	104	3871342592	80	10311
2026-01-28 07:40:11.42	44.98	82.96	-54.8	-63.6	3.8	7.46e-01	0	43	104	3871342592	80	10374
2026-01-28 07:40:12.42	38.74	82.60	-54.8	-63.6	3.8	7.44e-01	0	43	104	3871342592	80	10360
2026-01-28 07:40:13.43	33.09	82.16	-54.7	-63.6	3.8	7.45e-01	0	43	104	3871342592	80	10338
2026-01-28 07:40:14.44	28.09	81.65	-54.7	-63.6	3.8	7.46e-01	0	43	104	3871342592	80	10334
2026-01-28 07:40:15.45	23.71	81.08	-54.8	-63.6	3.8	7.45e-01	0	43	104	3871342592	80	10399
2026-01-28 07:40:16.46	19.87	80.48	-54.8	-63.7	3.8	7.45e-01	0	43	104	3871342592	80	10444
2026-01-28 07:40:17.47	16.51	79.84	-54.8	-63.7	3.8	7.45e-01	0	43	104	3871342592	80	10416
2026-01-28 07:40:18.48	13.57	79.17	-54.8	-63.6	3.8	7.45e-01	0	43	104	3871342592	80	10380
2026-01-28 07:40:19.48	11.00	78.48	-54.8	-63.7	3.8	7.45e-01	0	44	104	3871342592	80	10465
2026-01-28 07:40:20.49	8.72	77.77	-54.8	-63.7	3.8	7.45e-01	0	43	104	3871342592	80	10435
2026-01-28 07:40:21.50	6.69	77.05	-54.8	-63.6	3.8	7.45e-01	0	44	104	3871342592	80	10406
2026-01-28 07:40:22.51	4.88	76.32	-54.8	-63.6	3.8	7.44e-01	0	43	104	3871342592	80	10379
2026-01-28 07:40:23.52	3.27	75.58	-54.8	-63.7	3.8	7.46e-01	0	43	104	3871342592	80	10424
2026-01-28 07:40:24.53	1.82	74.83	-54.8	-63.7	3.8	7.46e-01	0	43	104	3871342592	80	10470
2026-01-28 07:40:25.53	0.52	74.09	-54.8	-63.6	3.8	7.44e-01	0	44	104	3871342592	80	10395
2026-01-28 07:40:26.54	359.34	73.34	-54.8	-63.6	3.8	7.46e-01	0	44	104	3871342592	80	10404
2026-01-28 07:40:27.55	358.26	72.59	-54.9	-63.7	3.8	7.48e-01	0	43	104	3871342592	80	10437
2026-01-28 07:40:28.56	357.27	71.84	-54.8	-63.7	3.8	7.44e-01	0	43	104	3871342592	80	10445
2026-01-28 07:40:29.57	356.37	71.09	-54.8	-63.6	3.8	7.45e-01	0	44	104	3871342592	80	10398
2026-01-28 07:40:30.58	355.55	70.34	-54.8	-63.6	3.8	7.46e-01	0	43	104	3871342592	80	10401
2026-01-28 07:40:31.59	354.79	69.59	-54.9	-63.7	3.8	7.45e-01	0	43	104	3871342592	80	10447
2026-01-28 07:40:32.60	354.08	68.85	-54.8	-63.7	3.8	7.45e-01	0	43	104	3871342592	80	10450
2026-01-28 07:40:33.60	353.44	68.12	-54.8	-63.6	3.8	7.45e-01	0	43	104	3871342592	80	10362
2026-01-28 07:40:34.61	352.83	67.38	-54.8	-63.7	3.8	7.45e-01	0	44	104	3871342592	80	10443
2026-01-28 07:40:35.62	352.27	66.65	-54.8	-63.7	3.8	7.46e-01	0	43	104	3871342592	80	10444
2026-01-28 07:40:36.63	351.74	65.93	-54.8	-63.7	3.8	7.45e-01	0	44	104	3871342592	80	10432
2026-01-28 07:40:37.63	351.25	65.21	-54.8	-63.6	3.8	7.43e-01	0	43	104	3871342592	80	10364
2026-01-28 07:40:38.64	350.79	64.50	-54.8	-63.6	3.8	7.44e-01	0	44	104	3871342592	80	10391
2026-01-28 07:40:39.65	350.36	63.79	-54.8	-63.7	3.8	7.43e-01	0	43	104	3871342592	80	10449
2026-01-28 07:40:40.66	349.95	63.09	-54.8	-63.6	3.8	7.47e-01	0	43	104	3871342592	80	10406
2026-01-28 07:40:41.67	349.57	62.39	-54.8	-63.6	3.8	7.46e-01	0	44	104	3871342592	80	10374
2026-01-28 07:40:42.67	349.21	61.71	-54.8	-63.6	3.8	7.46e-01	0	43	104	3871342592	80	10389
2026-01-28 07:40:43.68	348.87	61.03	-54.8	-63.7	3.8	7.46e-01	0	43	104	3871342592	80	10434
2026-01-28 07:40:44.69	348.55	60.35	-54.8	-63.6	3.8	7.45e-01	0	44	104	3871342592	80	10392
2026-01-28 07:40:45.70	348.24	59.68	-54.8	-63.6	3.8	7.45e-01	0	44	104	3871342592	80	10368
2026-01-28 07:40:46.71	347.95	59.02	-54.8	-63.6	3.8	7.44e-01	0	44	104	3871342592	80	10366
2026-01-28 07:40:47.71	347.68	58.37	-54.8	-63.6	3.8	7.47e-01	0	43	104	3871342592	80	10377
2026-01-28 07:40:48.72	347.42	57.73	-54.8	-63.6	3.8	7.44e-01	0	43	104	3871342592	80	10344
2026-01-28 07:40:49.73	347.17	57.09	-54.7	-63.6	3.8	7.45e-01	0	43	104	3871342592	80	10325
2026-01-28 07:40:50.74	346.93	56.45	-54.8	-63.6	3.8	7.44e-01	0	43	104	3871342592	80	10312
2026-01-28 07:40:51.75	346.70	55.83	-54.8	-63.6	3.8	7.44e-01	0	43	104	3871342592	80	10363
2026-01-28 07:40:52.75	346.49	55.22	-54.8	-63.6	3.8	7.47e-01	0	43	104	3871342592	80	10355
2026-01-28 07:40:53.76	346.28	54.61	-54.7	-63.5	3.8	7.45e-01	0	43	104	3871342592	80	10293
2026-01-28 07:40:54.77	346.08	54.00	-54.7	-63.6	3.8	7.47e-01	0	44	104	3871342592	80	10308
2026-01-28 07:40:55.78	345.89	53.41	-54.7	-63.6	3.8	7.46e-01	0	43	104	3871342592	80	10337
2026-01-28 07:40:56.79	345.71	52.82	-54.7	-63.6	3.8	7.44e-01	0	43	104	3871342592	80	10294
2026-01-28 07:40:57.79	345.53	52.25	-54.7	-63.5	3.8	7.45e-01	0	43	104	3871342592	80	10274
2026-01-28 07:40:58.80	345.37	51.67	-54.7	-63.5	3.8	7.45e-01	0	43	104	3871342592	80	10261
2026-01-28 07:40:59.81	345.21	51.11	-54.7	-63.6	3.8	7.44e-01	0	43	104	3871342592	80	10304
2026-01-28 07:41:00.82	345.05	50.55	-54.7	-63.5	3.8	7.44e-01	0	43	104	3871342592	80	10278
2026-01-28 07:41:01.82	344.90	50.00	-54.7	-63.5	3.8	7.45e-01	0	43	104	3871342592	80	10210
2026-01-28 07:41:02.83	344.76	49.46	-54.7	-63.5	3.8	7.46e-01	0	43	104	3871342592	80	10215
2026-01-28 07:41:03.84	344.62	48.92	-54.7	-63.5	3.8	7.47e-01	0	43	104	3871342592	80	10229
2026-01-28 07:41:04.85	344.49	48.39	-54.7	-63.5	3.8	7.45e-01	0	43	104	3871342592	80	10262
2026-01-28 07:41:05.86	344.36	47.86	-54.6	-63.5	3.8	7.45e-01	0	43	104	3871342592	80	10193
2026-01-28 07:41:06.86	344.24	47.35	-54.6	-63.5	3.8	7.45e-01	0	43	104	3871342592	80	10191
2026-01-28 07:41:07.87	344.12	46.84	-54.7	-63.5	3.8	7.44e-01	0	44	104	3871342592	80	10264
2026-01-28 07:41:08.88	344.00	46.34	-54.7	-63.5	3.8	7.46e-01	0	43	104	3871342592	80	10238
2026-01-28 07:41:09.89	343.89	45.84	-54.6	-63.5	3.8	7.46e-01	0	43	104	3871342592	80	10202
2026-01-28 07:41:10.90	343.78	45.35	-54.6	-63.4	3.8	7.45e-01	0	43	104	3871342592	80	10174
2026-01-28 07:41:11.91	343.68	44.87	-54.7	-63.5	3.8	7.46e-01	0	43	104	3871342592	80	10203
2026-01-28 07:41:12.91	343.57	44.39	-54.6	-63.4	3.8	7.44e-01	0	43	104	3871342592	80	10167
2026-01-28 07:41:13.92	343.48	43.92	-54.6	-63.4	3.8	7.45e-01	0	44	104	3871342592	80	10141
2026-01-28 07:41:14.93	343.38	43.46	-54.6	-63.4	3.8	7.45e-01	0	43	104	3871342592	80	10174
2026-01-28 07:41:15.94	343.29	43.00	-54.6	-63.4	3.8	7.45e-01	0	44	104	3871342592	80	10169
2026-01-28 07:41:16.95	343.20	42.55	-54.6	-63.4	3.8	7.44e-01	0	43	104	3871342592	80	10168
2026-01-28 07:41:17.95	343.11	42.11	-54.6	-63.4	3.8	7.45e-01	0	44	104	3871342592	80	10137
2026-01-28 07:41:18.96	343.03	41.67	-54.6	-63.4	3.8	7.45e-01	0	44	104	3871342592	80	10135
2026-01-28 07:41:19.97	342.95	41.23	-54.6	-63.4	3.8	7.46e-01	0	44	104	3871342592	80	10167
2026-01-28 07:41:20.98	342.87	40.80	-54.6	-63.4	3.8	7.45e-01	0	43	104	3871342592	80	10134
2026-01-28 07:41:21.99	342.79	40.38	-54.6	-63.4	3.8	7.48e-01	0	44	104	3871342592	80	10127
2026-01-28 07:41:22.99	342.72	39.97	-54.6	-63.4	3.8	7.45e-01	0	44	104	3871342592	80	10103
2026-01-28 07:41:24.00	342.64	39.56	-54.6	-63.4	3.8	7.46e-01	0	44	104	3871342592	80	10124
2026-01-28 07:41:25.01	342.57	39.15	-54.6	-63.4	3.8	7.44e-01	0	44	104	3871342592	80	10122
2026-01-28 07:41:26.02	342.50	38.75	-54.5	-63.4	3.8	7.46e-01	0	43	104	3871342592	80	10111
2026-01-28 07:41:27.03	342.44	38.35	-54.5	-63.3	3.8	7.45e-01	0	43	104	3871342592	80	10043
2026-01-28 07:41:28.04	342.37	37.96	-54.5	-63.4	3.8	7.45e-01	0	44	104	3871342592	80	10084
2026-01-28 07:41:29.05	342.31	37.58	-54.5	-63.3	3.8	7.47e-01	0	44	104	3871342592	80	10059
2026-01-28 07:41:30.05	342.25	37.20	-54.5	-63.4	3.8	7.45e-01	0	44	104	3871342592	80	10062
2026-01-28 07:41:31.06	342.19	36.83	-54.5	-63.3	3.8	7.45e-01	0	43	104	3871342592	80	10023
2026-01-28 07:41:32.07	342.13	36.46	-54.5	-63.3	3.8	7.45e-01	0	43	104	3871342592	80	10019
2026-01-28 07:41:33.08	342.07	36.09	-54.5	-63.3	3.8	7.47e-01	0	43	104	3871342592	80	10037
2026-01-28 07:41:34.09	342.01	35.73	-54.5	-63.3	3.8	7.45e-01	0	43	104	3871342592	80	9995
2026-01-28 07:41:35.09	341.96	35.38	-54.4	-63.3	3.8	7.45e-01	0	43	104	3871342592	80	9952
2026-01-28 07:41:36.10	341.91	35.02	-54.5	-63.3	3.8	7.44e-01	0	43	104	3871342592	80	10020
2026-01-28 07:41:37.11	341.86	34.68	-54.4	-63.3	3.8	7.45e-01	0	44	104	3871342592	80	9988
2026-01-28 07:41:38.12	341.81	34.33	-54.4	-63.3	3.8	7.47e-01	0	43	104	3871342592	80	9969
2026-01-28 07:41:39.12	341.76	34.00	-54.4	-63.3	3.8	7.46e-01	0	44	104	3871342592	80	9947
2026-01-28 07:41:40.13	341.71	33.66	-54.4	-63.2	3.8	7.45e-01	0	44	104	3871342592	80	9943
2026-01-28 07:41:41.14	341.66	33.33	-54.4	-63.3	3.8	7.44e-01	0	44	104	3871342592	80	9960
2026-01-28 07:41:42.15	341.61	33.01	-54.4	-63.2	3.8	7.44e-01	0	44	104	3871342592	80	9895
2026-01-28 07:41:43.16	341.57	32.69	-54.4	-63.2	3.8	7.47e-01	0	43	104	3871342592	80	9864
2026-01-28 07:41:44.17	341.53	32.37	-54.4	-63.2	3.8	7.44e-01	0	44	104	3871342592	80	9899
2026-01-28 07:41:45.17	341.48	32.06	-54.4	-63.2	3.8	7.46e-01	0	44	104	3871342592	80	9918
2026-01-28 07:41:46.18	341.44	31.75	-54.3	-63.2	3.8	7.48e-01	0	43	104	3871342592	80	9910
2026-01-28 07:41:47.19	341.40	31.44	-54.3	-63.2	3.8	7.43e-01	0	44	104	3871342592	80	9845
2026-01-28 07:41:48.20	341.36	31.14	-54.4	-63.2	3.8	7.45e-01	0	44	104	3871342592	80	9881
2026-01-28 07:41:49.20	341.32	30.84	-54.3	-63.2	3.8	7.44e-01	0	44	104	3871342592	80	9872
2026-01-28 07:41:50.21	341.28	30.55	-54.3	-63.1	3.8	7.46e-01	0	44	104	3871342592	80	9824
2026-01-28 07:41:51.22	341.24	30.25	-54.3	-63.1	3.8	7.44e-01	0	43	104	3871342592	80	9802
2026-01-28 07:41:52.23	341.21	29.97	-54.3	-63.2	3.8	7.45e-01	0	44	104	3871342592	80	9840
2026-01-28 07:41:53.23	341.17	29.68	-54.3	-63.1	3.8	7.46e-01	0	44	104	3871342592	80	9799
2026-01-28 07:41:54.24	341.14	29.40	-54.3	-63.1	3.8	7.44e-01	0	44	104	3871342592	80	9800
2026-01-28 07:41:55.25	341.10	29.12	-54.3	-63.1	3.8	7.45e-01	0	44	104	3871342592	80	9772
2026-01-28 07:41:56.26	341.07	28.85	-54.3	-63.1	3.8	7.45e-01	0	44	104	3871342592	80	9789
2026-01-28 07:41:57.27	341.04	28.58	-54.3	-63.1	3.8	7.45e-01	0	44	104	3871342592	80	9787
2026-01-28 07:41:58.28	341.00	28.31	-54.2	-63.0	3.8	7.45e-01	0	43	104	3871342592	80	9717
2026-01-28 07:41:59.29	340.97	28.04	-54.2	-63.0	3.8	7.44e-01	0	44	104	3871342592	80	9699
2026-01-28 07:42:00.29	340.94	27.78	-54.3	-63.1	3.8	7.45e-01	0	43	104	3871342592	80	9804
2026-01-28 07:42:01.30	340.91	27.52	-54.2	-63.1	3.8	7.44e-01	0	44	104	3871342592	80	9737
2026-01-28 07:42:02.31	340.88	27.26	-54.2	-63.0	3.8	7.43e-01	0	44	104	3871342592	80	9697
2026-01-28 07:42:03.32	340.85	27.01	-54.2	-63.0	3.8	7.45e-01	0	43	104	3871342592	80	9697
2026-01-28 07:42:04.32	340.82	26.76	-54.2	-63.1	3.8	7.45e-01	0	44	104	3871342592	80	9720
2026-01-28 07:42:05.33	340.79	26.51	-54.2	-63.0	3.8	7.47e-01	0	43	104	3871342592	80	9716
2026-01-28 07:42:06.34	340.77	26.27	-54.2	-63.0	3.8	7.45e-01	0	44	104	3871342592	80	9686
2026-01-28 07:42:07.35	340.74	26.03	-54.2	-63.0	3.8	7.45e-01	0	44	104	3871342592	80	9672
2026-01-28 07:42:08.36	340.71	25.78	-54.2	-63.0	3.8	7.46e-01	0	43	104	3871342592	80	9706
2026-01-28 07:42:09.37	340.69	25.55	-54.2	-63.0	3.8	7.45e-01	0	44	104	3871342592	80	9715
2026-01-28 07:42:10.38	340.66	25.31	-54.2	-63.0	3.8	7.46e-01	0	44	104	3871342592	80	9682
2026-01-28 07:42:11.39	340.64	25.08	-54.2	-63.0	3.8	7.47e-01	0	43	104	3871342592	80	9688
2026-01-28 07:42:12.39	340.61	24.85	-54.2	-63.0	3.8	7.44e-01	0	44	104	3871342592	80	9685
2026-01-28 07:42:13.40	340.59	24.62	-54.1	-63.0	3.8	7.44e-01	0	44	104	3871342592	80	9655
2026-01-28 07:42:14.41	340.56	24.40	-54.1	-63.0	3.8	7.44e-01	0	44	104	3871342592	80	9637
2026-01-28 07:42:15.42	340.54	24.18	-54.1	-63.0	3.8	7.45e-01	0	43	104	3871342592	80	9610
2026-01-28 07:42:16.43	340.52	23.96	-54.1	-63.0	3.8	7.46e-01	0	44	104	3871342592	80	9619
2026-01-28 07:42:17.44	340.49	23.74	-54.1	-62.9	3.8	7.46e-01	0	43	104	3871342592	80	9598
2026-01-28 07:42:18.45	340.47	23.52	-54.1	-62.9	3.8	7.47e-01	0	44	104	3871342592	80	9580
2026-01-28 07:42:19.46	340.45	23.31	-54.1	-62.9	3.8	7.43e-01	0	43	104	3871342592	80	9571
2026-01-28 07:42:20.47	340.43	23.10	-54.1	-62.9	3.8	7.46e-01	0	44	104	3871342592	80	9593
2026-01-28 07:42:21.47	340.41	22.89	-54.1	-62.9	3.8	7.45e-01	0	44	104	3871342592	80	9562
2026-01-28 07:42:22.48	340.39	22.68	-54.1	-62.9	3.8	7.46e-01	0	44	104	3871342592	80	9556
2026-01-28 07:42:23.49	340.37	22.47	-54.1	-62.9	3.8	7.45e-01	0	44	104	3871342592	80	9516
2026-01-28 07:42:24.50	340.35	22.27	-54.1	-62.9	3.8	7.46e-01	0	44	104	3871342592	80	9571
2026-01-28 07:42:25.51	340.33	22.07	-54.1	-62.9	3.8	7.46e-01	0	44	104	3871342592	80	9546
2026-01-28 07:42:26.52	340.31	21.87	-54.0	-62.9	3.8	7.45e-01	0	44	104	3871342592	80	9504
2026-01-28 07:42:27.52	340.29	21.68	-54.0	-62.8	3.8	7.45e-01	0	43	104	3871342592	80	9493
2026-01-28 07:42:28.53	340.27	21.48	-54.0	-62.9	3.8	7.46e-01	0	44	104	3871342592	80	9503
2026-01-28 07:42:29.54	340.25	21.29	-54.0	-62.9	3.8	7.45e-01	0	43	104	3871342592	80	9515
2026-01-28 07:42:30.54	340.24	21.10	-54.0	-62.8	3.8	7.45e-01	0	43	104	3871342592	80	9489
2026-01-28 07:42:31.55	340.22	20.91	-54.0	-62.8	3.8	7.45e-01	0	43	104	3871342592	80	9448
2026-01-28 07:42:32.56	340.20	20.72	-54.0	-62.8	3.8	7.44e-01	0	43	104	3871342592	80	9447
2026-01-28 07:42:33.57	340.19	20.53	-54.0	-62.8	3.8	7.45e-01	0	43	104	3871342592	80	9469
2026-01-28 07:42:34.58	340.17	20.35	-54.0	-62.8	3.8	7.45e-01	0	43	104	3871342592	80	9478
2026-01-28 07:42:35.58	340.15	20.17	-54.0	-62.9	3.8	7.47e-01	0	44	104	3871342592	79	10064
2026-01-28 07:42:36.59	340.14	19.98	-54.0	-62.8	3.8	7.46e-01	0	44	104	3871342592	79	10044
2026-01-28 07:42:37.60	340.12	19.80	-54.0	-62.9	3.8	7.45e-01	0	44	104	3871342592	79	10063
2026-01-28 07:42:38.61	340.10	19.63	-54.0	-62.8	3.8	7.46e-01	0	44	104	3871342592	79	10044
2026-01-28 07:42:39.62	340.09	19.45	-54.0	-62.8	3.8	7.46e-01	0	43	104	3871342592	79	9999
2026-01-28 07:42:40.63	340.07	19.27	-54.0	-62.9	3.8	7.44e-01	0	44	104	3871342592	79	10068
2026-01-28 07:42:41.64	340.06	19.10	-54.0	-62.8	3.8	7.45e-01	0	43	104	3871342592	79	10054
2026-01-28 07:42:42.65	340.05	18.93	-54.0	-62.8	3.8	7.47e-01	0	44	104	3871342592	79	9998
2026-01-28 07:42:43.65	340.03	18.76	-54.0	-62.8	3.8	7.45e-01	0	43	104	3871342592	79	10012
2026-01-28 07:42:44.66	340.02	18.59	-54.0	-62.8	3.8	7.46e-01	0	43	104	3871342592	79	9998
2026-01-28 07:42:45.67	340.00	18.42	-54.0	-62.8	3.8	7.46e-01	0	44	104	3871342592	79	10049
2026-01-28 07:42:46.68	339.99	18.26	-53.9	-62.8	3.8	7.45e-01	0	43	104	3871342592	79	9947
2026-01-28 07:42:47.69	339.98	18.09	-53.9	-62.8	3.8	7.45e-01	0	44	104	3871342592	79	9962
2026-01-28 07:42:48.69	339.96	17.93	-53.9	-62.8	3.8	7.44e-01	0	44	104	3871342592	79	9972
2026-01-28 07:42:49.70	339.95	17.77	-54.0	-62.8	3.8	7.45e-01	0	43	104	3871342592	79	9977
2026-01-28 07:42:50.71	339.94	17.61	-53.9	-62.7	3.8	7.46e-01	0	44	104	3871342592	79	9928
2026-01-28 07:42:51.72	339.93	17.45	-53.9	-62.7	3.8	7.45e-01	0	44	104	3871342592	79	9914
2026-01-28 07:42:52.72	339.91	17.29	-53.9	-62.7	3.8	7.46e-01	0	44	104	3871342592	79	9925
2026-01-28 07:42:53.73	339.90	17.14	-53.9	-62.8	3.8	7.47e-01	0	44	104	3871342592	79	9969
2026-01-28 07:42:54.73	339.89	16.98	-53.9	-62.7	3.8	7.47e-01	0	44	104	3871342592	79	9882
2026-01-28 07:42:55.74	339.88	16.83	-53.9	-62.7	3.8	7.47e-01	0	43	104	3871342592	79	9930
2026-01-28 07:42:56.75	339.87	16.68	-53.9	-62.7	3.8	7.44e-01	0	43	104	3871342592	79	9882
2026-01-28 07:42:57.76	339.85	16.53	-53.9	-62.7	3.8	7.45e-01	0	44	104	3871342592	79	9886
2026-01-28 07:42:58.77	339.84	16.38	-53.8	-62.7	3.8	7.45e-01	0	44	104	3871342592	79	9870
2026-01-28 07:42:59.78	339.83	16.23	-53.9	-62.7	3.8	7.46e-01	0	44	104	3871342592	79	9862
2026-01-28 07:43:00.78	339.82	16.08	-53.8	-62.7	3.8	7.44e-01	0	43	104	3871342592	79	9846
2026-01-28 07:43:01.79	339.81	15.93	-53.9	-62.7	3.8	7.44e-01	0	43	104	3871342592	79	9878
2026-01-28 07:43:02.80	339.80	15.79	-53.8	-62.6	3.8	7.46e-01	0	43	104	3871342592	79	9816
2026-01-28 07:43:03.81	339.79	15.64	-53.8	-62.6	3.8	7.45e-01	0	43	104	3871342592	79	9820
2026-01-28 07:43:04.82	339.78	15.50	-53.8	-62.6	3.8	7.46e-01	0	43	104	3871342592	79	9807
2026-01-28 07:43:05.83	339.77	15.36	-53.8	-62.6	3.8	7.45e-01	0	44	104	3871342592	79	9830
2026-01-28 07:43:06.83	339.76	15.22	-53.8	-62.6	3.8	7.45e-01	0	44	104	3871342592	79	9786
2026-01-28 07:43:07.84	339.75	15.08	-53.8	-62.6	3.8	7.46e-01	0	44	104	3871342592	79	9783
2026-01-28 07:43:08.85	339.74	14.94	-53.8	-62.6	3.8	7.44e-01	0	44	104	3871342592	79	9739
2026-01-28 07:43:09.86	339.73	14.80	-53.8	-62.7	3.8	7.43e-01	0	44	104	3871342592	79	9831
2026-01-28 07:43:10.87	339.72	14.66	-53.8	-62.6	3.8	7.45e-01	0	43	104	3871342592	79	9751
2026-01-28 07:43:11.88	339.71	14.53	-53.7	-62.6	3.8	7.44e-01	0	43	104	3871342592	79	9757
2026-01-28 07:43:12.88	339.70	14.39	-53.7	-62.5	3.8	7.45e-01	0	44	104	3871342592	79	9707
2026-01-28 07:43:13.90	339.70	14.26	-53.8	-62.6	3.8	7.45e-01	0	43	104	3871342592	79	9774
2026-01-28 07:43:14.90	339.69	14.13	-53.7	-62.5	3.8	7.46e-01	0	44	104	3871342592	79	9675
2026-01-28 07:43:15.91	339.68	13.99	-53.7	-62.6	3.8	7.46e-01	0	44	104	3871342592	79	9745
2026-01-28 07:43:16.92	339.67	13.86	-53.7	-62.5	3.8	7.46e-01	0	43	104	3871342592	79	9697
2026-01-28 07:43:17.92	339.66	13.73	-53.7	-62.6	3.8	7.44e-01	0	43	104	3871342592	79	9728
2026-01-28 07:43:18.93	339.65	13.60	-53.7	-62.5	3.8	7.45e-01	0	44	104	3871342592	79	9684
2026-01-28 07:43:19.94	339.65	13.48	-53.7	-62.5	3.8	7.45e-01	0	44	104	3871342592	79	9675
2026-01-28 07:43:20.95	339.64	13.35	-53.7	-62.5	3.8	7.45e-01	0	44	104	3871342592	79	9645
2026-01-28 07:43:21.96	339.63	13.22	-53.7	-62.5	3.8	7.45e-01	0	44	104	3871342592	79	9699
2026-01-28 07:43:22.97	339.62	13.10	-53.6	-62.5	3.8	7.43e-01	0	44	104	3871342592	79	9642
2026-01-28 07:43:23.97	339.62	12.97	-53.6	-62.4	3.8	7.45e-01	0	44	104	3871342592	79	9603
2026-01-28 07:43:24.98	339.61	12.85	-53.6	-62.5	3.8	7.45e-01	0	43	104	3871342592	79	9630
2026-01-28 07:43:25.99	339.60	12.72	-53.7	-62.5	3.8	7.45e-01	0	43	104	3871342592	79	9636
2026-01-28 07:43:27.00	339.59	12.60	-53.6	-62.5	3.8	7.46e-01	0	43	104	3871342592	79	9623
2026-01-28 07:43:28.01	339.59	12.48	-53.6	-62.4	3.8	7.44e-01	0	44	104	3871342592	79	9570
2026-01-28 07:43:29.02	339.58	12.36	-53.6	-62.4	3.8	7.46e-01	0	43	104	3871342592	79	9599
2026-01-28 07:43:30.03	339.57	12.24	-53.6	-62.5	3.8	7.45e-01	0	44	104	3871342592	79	9609
2026-01-28 07:43:31.03	339.57	12.12	-53.6	-62.4	3.8	7.45e-01	0	44	104	3871342592	79	9568
2026-01-28 07:43:32.04	339.56	12.00	-53.6	-62.4	3.8	7.45e-01	0	44	104	3871342592	79	9552
2026-01-28 07:43:33.05	339.55	11.88	-53.5	-62.4	3.8	7.43e-01	0	44	104	3871342592	79	9520
2026-01-28 07:43:34.06	339.55	11.77	-53.6	-62.4	3.8	7.47e-01	0	44	104	3871342592	79	9567
2026-01-28 07:43:35.07	339.54	11.65	-53.5	-62.3	3.8	7.44e-01	0	44	104	3871342592	79	9495
2026-01-28 07:43:36.07	339.53	11.54	-53.5	-62.3	3.8	7.45e-01	0	44	104	3871342592	79	9477
2026-01-28 07:43:37.08	339.53	11.42	-53.5	-62.4	3.8	7.46e-01	0	44	104	3871342592	79	9499
2026-01-28 07:43:38.09	339.52	11.31	-53.6	-62.4	3.8	7.46e-01	0	44	104	3871342592	79	9546
2026-01-28 07:43:39.10	339.52	11.19	-53.5	-62.3	3.8	7.44e-01	0	43	104	3871342592	79	9444
2026-01-28 07:43:40.11	339.51	11.08	-53.5	-62.3	3.8	7.45e-01	0	44	104	3871342592	79	9461
2026-01-28 07:43:41.12	339.50	10.97	-53.4	-62.2	3.8	7.46e-01	0	44	104	3871342592	78	9944
2026-01-28 07:43:42.13	339.50	10.86	-53.5	-62.3	3.8	7.46e-01	0	44	104	3871342592	78	10007
2026-01-28 07:43:43.13	339.49	10.75	-53.4	-62.3	3.8	7.44e-01	0	44	104	3871342592	78	9955
2026-01-28 07:43:44.14	339.49	10.64	-53.4	-62.3	3.8	7.45e-01	0	44	104	3871342592	78	9954
2026-01-28 07:43:45.15	339.48	10.53	-53.4	-62.2	3.8	7.44e-01	0	44	104	3871342592	78	9928
2026-01-28 07:43:46.16	339.48	10.42	-53.5	-62.3	3.8	7.46e-01	0	44	104	3871342592	78	9996
2026-01-28 07:43:47.17	339.47	10.31	-53.4	-62.2	3.8	7.44e-01	0	43	104	3871342592	78	9906
2026-01-28 07:43:48.18	339.47	10.20	-53.4	-62.2	3.8	7.45e-01	0	44	104	3871342592	78	9926
2026-01-28 07:43:49.19	339.46	10.10	-53.4	-62.2	3.8	7.45e-01	0	43	104	3871342592	78	9848
2026-01-28 07:43:50.19	339.46	9.99	-53.4	-62.2	3.8	7.47e-01	0	43	104	3871342592	78	9943
2026-01-28 07:43:51.20	339.45	9.89	-53.4	-62.2	3.8	7.46e-01	0	44	104	3871342592	78	9879
2026-01-28 07:43:52.21	339.45	9.78	-53.4	-62.2	3.8	7.45e-01	0	44	104	3871342592	78	9877
2026-01-28 07:43:53.22	339.44	9.68	-53.3	-62.1	3.8	7.45e-01	0	44	104	3871342592	78	9818
2026-01-28 07:43:54.22	339.44	9.57	-53.4	-62.2	3.8	7.48e-01	0	43	104	3871342592	78	9922
2026-01-28 07:43:55.23	339.43	9.47	-53.3	-62.1	3.8	7.45e-01	0	44	104	3871342592	78	9830
2026-01-28 07:43:56.24	339.43	9.37	-53.3	-62.2	3.8	7.46e-01	0	44	104	3871342592	78	9839
2026-01-28 07:43:57.25	339.42	9.27	-53.3	-62.2	3.8	7.45e-01	0	44	104	3871342592	78	9836
2026-01-28 07:43:58.25	339.42	9.17	-53.3	-62.2	3.8	7.44e-01	0	43	104	3871342592	78	9853
2026-01-28 07:43:59.26	339.42	9.06	-53.3	-62.1	3.8	7.45e-01	0	44	104	3871342592	78	9812
2026-01-28 07:44:00.27	339.41	8.96	-53.3	-62.1	3.8	7.44e-01	0	44	104	3871342592	78	9793
2026-01-28 07:44:01.28	339.41	8.86	-53.3	-62.1	3.8	7.45e-01	0	44	104	3871342592	78	9789
2026-01-28 07:44:02.29	339.40	8.76	-53.3	-62.1	3.8	7.45e-01	0	44	104	3871342592	78	9796
2026-01-28 07:44:03.30	339.40	8.67	-53.3	-62.1	3.8	7.45e-01	0	44	104	3871342592	78	9758
2026-01-28 07:44:04.31	339.40	8.57	-53.2	-62.1	3.8	7.46e-01	0	44	104	3871342592	78	9751
2026-01-28 07:44:05.31	339.39	8.47	-53.2	-62.0	3.8	7.44e-01	0	44	104	3871342592	78	9698
2026-01-28 07:44:06.32	339.39	8.37	-53.3	-62.1	3.8	7.46e-01	0	44	104	3871342592	78	9791
2026-01-28 07:44:07.33	339.39	8.28	-53.2	-62.1	3.8	7.45e-01	0	44	104	3871342592	78	9733
2026-01-28 07:44:08.34	339.38	8.18	-53.2	-62.0	3.8	7.45e-01	0	43	104	3871342592	78	9692
2026-01-28 07:44:09.35	339.38	8.08	-53.3	-62.1	3.8	7.45e-01	0	44	104	3871342592	78	9784
2026-01-28 07:44:10.36	339.37	7.99	-53.3	-62.1	3.8	7.44e-01	0	44	104	3871342592	78	9805
2026-01-28 07:44:11.37	339.37	7.89	-53.2	-62.0	3.8	7.45e-01	0	44	104	3871342592	78	9683
2026-01-28 07:44:12.37	339.37	7.80	-53.2	-62.0	3.8	7.46e-01	0	43	104	3871342592	78	9714
2026-01-28 07:44:13.38	339.36	7.71	-53.2	-62.1	3.8	7.45e-01	0	44	104	3871342592	78	9729
2026-01-28 07:44:14.39	339.36	7.61	-53.3	-62.0	3.8	7.45e-01	0	44	104	3871342592	78	9711
2026-01-28 07:44:15.40	339.36	7.52	-53.2	-62.0	3.8	7.46e-01	0	44	104	3871342592	78	9665
2026-01-28 07:44:16.41	339.35	7.43	-53.2	-62.0	3.8	7.45e-01	0	44	104	3871342592	78	9637
2026-01-28 07:44:17.41	339.35	7.34	-53.2	-62.0	3.8	7.46e-01	0	44	104	3871342592	78	9648
2026-01-28 07:44:18.42	339.35	7.24	-53.2	-62.0	3.8	7.46e-01	0	44	104	3871342592	78	9692
2026-01-28 07:44:19.43	339.35	7.15	-53.1	-62.0	3.8	7.44e-01	0	44	104	3871342592	78	9644
2026-01-28 07:44:20.44	339.34	7.06	-53.1	-62.0	3.8	7.45e-01	0	43	104	3871342592	78	9608
2026-01-28 07:44:21.44	339.34	6.97	-53.2	-62.0	3.8	7.47e-01	0	43	104	3871342592	78	9620
2026-01-28 07:44:22.45	339.34	6.88	-53.1	-62.0	3.8	7.45e-01	0	43	104	3871342592	78	9633
2026-01-28 07:44:23.46	339.33	6.79	-53.1	-61.9	3.8	7.46e-01	0	44	104	3871342592	78	9570
2026-01-28 07:44:24.46	339.33	6.70	-53.1	-61.9	3.8	7.46e-01	0	44	104	3871342592	78	9527
2026-01-28 07:44:25.47	339.33	6.62	-53.1	-61.9	3.8	7.44e-01	0	44	104	3871342592	78	9573
2026-01-28 07:44:26.48	339.33	6.53	-53.1	-61.9	3.8	7.46e-01	0	44	104	3871342592	78	9586
2026-01-28 07:44:27.49	339.32	6.44	-53.0	-61.9	3.8	7.47e-01	0	44	104	3871342592	78	9515
2026-01-28 07:44:28.49	339.32	6.35	-53.0	-61.8	3.8	7.47e-01	0	44	104	3871342592	78	9461
2026-01-28 07:44:29.50	339.32	6.27	-53.0	-61.9	3.8	7.45e-01	0	43	104	3871342592	77	10062
2026-01-28 07:44:30.51	339.32	6.18	-53.0	-61.9	3.8	7.45e-01	0	44	104	3871342592	77	10061
2026-01-28 07:44:31.51	339.32	6.09	-53.0	-61.8	3.8	7.45e-01	0	44	104	3871342592	77	9984
2026-01-28 07:44:32.52	339.31	6.01	-52.9	-61.7	3.8	7.44e-01	0	44	104	3871342592	77	9930
2026-01-28 07:44:33.53	339.31	5.92	-53.0	-61.8	3.8	7.45e-01	0	44	104	3871342592	77	10008
2026-01-28 07:44:34.53	339.31	5.84	-53.0	-61.8	3.8	7.44e-01	0	44	104	3871342592	77	9970
2026-01-28 07:44:35.54	339.31	5.75	-52.9	-61.7	3.8	7.43e-01	0	44	104	3871342592	77	9919
2026-01-28 07:44:36.55	339.30	5.67	-52.8	-61.7	3.8	7.45e-01	0	44	104	3871342592	77	9869
2026-01-28 07:44:37.56	339.30	5.58	-52.9	-61.7	3.8	7.44e-01	0	44	104	3871342592	77	9925
2026-01-28 07:44:38.57	339.30	5.50	-52.9	-61.7	3.8	7.46e-01	0	44	104	3871342592	77	9911
2026-01-28 07:44:39.57	339.30	5.42	-52.8	-61.7	3.8	7.46e-01	0	43	104	3871342592	77	9854
2026-01-28 07:44:40.57	339.30	5.34	-52.7	-61.6	3.8	7.44e-01	0	43	104	3871342592	77	9746
2026-01-28 07:44:41.58	339.29	5.25	-52.9	-61.7	3.8	7.45e-01	0	44	104	3871342592	77	9915
2026-01-28 07:44:42.59	339.29	5.17	-52.8	-61.6	3.8	7.45e-01	0	43	104	3871342592	77	9797
2026-01-28 07:44:43.59	339.29	5.09	-52.8	-61.6	3.8	7.44e-01	0	44	104	3871342592	77	9748
2026-01-28 07:44:44.60	339.29	5.01	-52.8	-61.6	3.8	7.44e-01	0	43	104	3871342592	77	9825
2026-01-28 07:44:45.61	339.29	4.93	-53.3	-62.1	3.8	7.44e-01	0	44	104	3871342592	77	10342
2026-01-28 07:44:46.62	339.29	4.85	-53.6	-62.4	3.8	7.47e-01	0	44	104	3871342592	77	10739
2026-01-28 07:44:47.63	339.28	4.76	-53.8	-62.6	3.8	7.45e-01	0	44	104	3871342592	78	10405
2026-01-28 07:44:48.63	339.28	4.69	-54.0	-62.8	3.8	7.45e-01	0	44	104	3871342592	78	10616
2026-01-28 07:44:49.64	339.28	4.61	-54.1	-62.9	3.8	7.45e-01	0	44	104	3871342592	78	10759
2026-01-28 07:44:50.65	339.28	4.53	-54.2	-63.0	3.8	7.44e-01	0	44	104	3871342592	78	10903
2026-01-28 07:44:51.66	339.28	4.45	-54.3	-63.2	3.8	7.44e-01	0	44	104	3871342592	79	10440
2026-01-28 07:44:52.67	339.28	4.37	-54.4	-63.2	3.8	7.45e-01	0	44	104	3871342592	79	10469
2026-01-28 07:44:53.67	339.28	4.29	-54.4	-63.2	3.8	7.45e-01	0	44	104	3871342592	79	10489
2026-01-28 07:44:54.68	339.27	4.21	-54.4	-63.2	3.8	7.45e-01	0	44	104	3871342592	79	10488
2026-01-28 07:44:55.69	339.27	4.13	-54.4	-63.2	3.8	7.45e-01	0	44	104	3871342592	79	10453
2026-01-28 07:44:56.70	339.27	4.05	-54.3	-63.2	3.8	7.43e-01	0	44	104	3871342592	79	10429
2026-01-28 07:44:57.71	339.27	3.98	-54.2	-63.1	3.8	7.44e-01	0	43	104	3871342592	79	10328
2026-01-28 07:44:58.71	339.27	3.90	-54.1	-62.9	3.8	7.45e-01	0	44	104	3871342592	79	10158
2026-01-28 07:44:59.72	339.27	3.82	-54.1	-62.9	3.8	7.46e-01	0	44	104	3871342592	79	10153
2026-01-28 07:45:00.73	339.27	3.75	-54.1	-63.0	3.8	7.47e-01	0	44	104	3871342592	79	10184
2026-01-28 07:45:01.74	339.27	3.67	-54.2	-63.0	3.8	7.46e-01	0	44	104	3871342592	79	10259
2026-01-28 07:45:02.75	339.27	3.59	-54.2	-63.1	3.8	7.46e-01	0	44	104	3871342592	79	10300
2026-01-28 07:45:03.76	339.26	3.52	-54.2	-63.1	3.8	7.45e-01	0	44	104	3871342592	79	10307
2026-01-28 07:45:04.77	339.26	3.44	-54.2	-63.1	3.8	7.45e-01	0	44	104	3871342592	79	10303
2026-01-28 07:45:05.77	339.26	3.37	-54.2	-63.1	3.8	7.46e-01	0	43	104	3871342592	79	10330
2026-01-28 07:45:06.78	339.26	3.29	-54.2	-63.0	3.8	7.46e-01	0	44	104	3871342592	79	10237
2026-01-28 07:45:07.79	339.26	3.22	-54.1	-63.0	3.8	7.46e-01	0	44	104	3871342592	79	10192
2026-01-28 07:45:08.80	339.26	3.14	-54.1	-63.0	3.8	7.44e-01	0	44	104	3871342592	79	10233
2026-01-28 07:45:09.81	339.26	3.07	-54.1	-63.0	3.8	7.46e-01	0	44	104	3871342592	79	10178
2026-01-28 07:45:10.81	339.26	3.00	-54.1	-62.9	3.8	7.45e-01	0	44	104	3871342592	79	10167
2026-01-28 07:45:11.82	339.26	2.92	-54.1	-62.9	3.8	7.45e-01	0	44	104	3871342592	79	10135
2026-01-28 07:45:12.83	339.26	2.85	-54.1	-62.9	3.8	7.46e-01	0	44	104	3871342592	79	10152
2026-01-28 07:45:13.84	339.26	2.78	-54.1	-62.9	3.8	7.44e-01	0	44	104	3871342592	79	10101
2026-01-28 07:45:14.85	339.26	2.70	-54.1	-62.9	3.8	7.46e-01	0	44	104	3871342592	79	10132
2026-01-28 07:45:15.85	339.26	2.63	-54.1	-62.9	3.8	7.45e-01	0	44	104	3871342592	79	10095
2026-01-28 07:45:16.86	339.26	2.56	-54.1	-62.9	3.8	7.45e-01	0	44	104	3871342592	79	10065
2026-01-28 07:45:17.87	339.25	2.49	-54.1	-62.9	3.8	7.45e-01	0	44	104	3871342592	79	10086
2026-01-28 07:45:18.88	339.25	2.42	-54.1	-62.9	3.8	7.46e-01	0	44	104	3871342592	79	10110
2026-01-28 07:45:19.89	339.25	2.34	-54.0	-62.9	3.8	7.45e-01	0	44	104	3871342592	79	10117
2026-01-28 07:45:20.90	339.25	2.27	-54.0	-62.9	3.8	7.45e-01	0	44	104	3871342592	79	10071
2026-01-28 07:45:21.90	339.25	2.20	-54.0	-62.9	3.8	7.45e-01	0	44	104	3871342592	79	10112
2026-01-28 07:45:22.91	339.25	2.13	-54.0	-62.9	3.8	7.45e-01	0	44	104	3871342592	79	10069
2026-01-28 07:45:23.92	339.25	2.06	-54.0	-62.9	3.8	7.45e-01	0	43	104	3871342592	79	10110

#Closed at: 2026-01-28 07:45:24
#Recorded file [3871 MB]: D:/lorett/data/31041_260128_103455.dat