passes_logs/2026/01/28/R3.2S_Murmansk/R3.2S_Murmansk__20260128_100457_TY-42_rec.log

#Pass ID: 20260128_100457_TY-42
#Satellite: TY-42
#Configuration: TY-42_900M
#almurnet v.1.7.20251203
#Start time: 2026-01-28 10:04:59

#Version: 2.2.20231116
#Station: R3.2S_Murmansk
#Location: 33.079688 lon 68.888172 lat
#TLE: 1 64048U 25103A   26027.88263889  .00008008  00000-0  38191-3 0 09993
#TLE: 2 64048 097.4119 103.0583 0001740 093.1169 297.5293 15.19162476 38770

#Time	Az	El	Level	Level2	SNR	BER	BlckErr	Temp	State	Recorded	gain1	gain2
2026-01-28 10:04:59.03	21.37	2.08	-54.4	-56.5	6.2	0.00e+00	0	49	0	0	79	19418
2026-01-28 10:05:00.05	21.34	2.15	-54.3	-56.5	6.2	0.00e+00	0	49	104	0	80	18309
2026-01-28 10:05:01.05	21.32	2.22	-54.3	-56.5	6.2	0.00e+00	0	49	104	0	80	18260
2026-01-28 10:05:02.06	21.29	2.29	-54.3	-56.5	6.2	0.00e+00	0	50	104	0	80	18206
2026-01-28 10:05:03.07	21.26	2.36	-54.3	-56.4	6.2	0.00e+00	0	50	104	0	80	18141
2026-01-28 10:05:04.08	21.24	2.43	-54.3	-56.4	6.2	0.00e+00	0	50	104	0	80	18124
2026-01-28 10:05:05.09	21.21	2.50	-54.5	-56.6	6.2	0.00e+00	0	50	104	0	80	18481
2026-01-28 10:05:06.09	21.18	2.57	-54.5	-56.7	6.2	0.00e+00	0	50	104	0	80	18648
2026-01-28 10:05:07.11	21.15	2.64	-54.5	-56.7	6.2	0.00e+00	0	50	104	0	80	18689
2026-01-28 10:05:08.12	21.13	2.71	-54.6	-56.7	6.2	0.00e+00	0	50	104	0	80	18686
2026-01-28 10:05:09.12	21.10	2.78	-54.6	-56.7	6.2	0.00e+00	0	50	104	0	80	18646
2026-01-28 10:05:10.13	21.07	2.86	-54.5	-56.7	6.2	0.00e+00	0	50	104	0	80	18639
2026-01-28 10:05:11.14	21.04	2.93	-54.5	-56.6	6.2	0.00e+00	0	50	104	0	80	18589
2026-01-28 10:05:12.14	21.01	3.00	-54.5	-56.6	6.2	0.00e+00	0	50	104	0	80	18600
2026-01-28 10:05:13.15	20.98	3.07	-54.5	-56.6	6.2	0.00e+00	0	50	104	0	80	18475
2026-01-28 10:05:14.16	20.96	3.15	-54.4	-56.5	6.2	0.00e+00	0	50	104	0	80	18330
2026-01-28 10:05:15.17	20.93	3.22	-54.4	-56.5	6.2	0.00e+00	0	50	104	0	80	18298
2026-01-28 10:05:16.17	20.90	3.29	-54.4	-56.5	6.2	0.00e+00	0	50	104	0	80	18312
2026-01-28 10:05:17.18	20.87	3.37	-54.4	-56.5	6.2	0.00e+00	0	50	104	0	80	18257
2026-01-28 10:05:18.19	20.84	3.44	-54.3	-56.4	6.2	0.00e+00	0	50	104	0	80	18057
2026-01-28 10:05:19.19	20.81	3.51	-54.2	-56.3	6.2	0.00e+00	0	51	104	0	80	17935
2026-01-28 10:05:20.20	20.78	3.59	-54.1	-56.3	6.2	0.00e+00	0	50	104	0	80	17836
2026-01-28 10:05:21.21	20.75	3.66	-54.1	-56.2	6.2	0.00e+00	0	51	104	0	80	17608
2026-01-28 10:05:22.22	20.72	3.74	-54.0	-56.1	6.2	0.00e+00	0	51	104	0	79	18556
2026-01-28 10:05:23.23	20.68	3.81	-53.9	-56.0	6.2	0.00e+00	0	51	104	0	79	18245
2026-01-28 10:05:24.24	20.65	3.89	-53.7	-55.8	6.2	0.00e+00	0	51	104	0	79	17897
2026-01-28 10:05:25.25	20.62	3.96	-53.2	-55.3	6.2	0.00e+00	0	51	104	0	77	18884
2026-01-28 10:05:26.25	20.59	4.04	-53.1	-55.2	6.2	0.00e+00	0	51	104	0	77	18726
2026-01-28 10:05:27.26	20.56	4.12	-52.6	-54.7	6.2	0.00e+00	0	51	104	0	77	17747
2026-01-28 10:05:28.27	20.53	4.19	-52.5	-54.7	6.2	0.00e+00	0	51	104	0	77	17600
2026-01-28 10:05:29.28	20.49	4.27	-52.5	-54.6	6.2	0.00e+00	0	51	104	0	77	17512
2026-01-28 10:05:30.29	20.46	4.35	-52.5	-54.6	6.2	0.00e+00	0	51	104	0	77	17526
2026-01-28 10:05:31.29	20.43	4.42	-52.5	-54.6	6.2	0.00e+00	0	51	104	0	77	17553
2026-01-28 10:05:32.30	20.39	4.50	-52.5	-54.6	6.2	0.00e+00	0	51	104	0	77	17478
2026-01-28 10:05:33.31	20.36	4.58	-52.5	-54.6	6.2	0.00e+00	0	51	104	0	77	17491
2026-01-28 10:05:34.32	20.33	4.66	-52.5	-54.6	6.2	0.00e+00	0	51	104	0	77	17521
2026-01-28 10:05:35.33	20.29	4.74	-52.5	-54.6	6.2	0.00e+00	0	51	104	0	77	17471
2026-01-28 10:05:36.33	20.26	4.81	-52.5	-54.6	6.2	0.00e+00	0	51	104	0	77	17524
2026-01-28 10:05:37.34	20.22	4.89	-52.5	-54.6	6.2	0.00e+00	0	51	104	0	77	17476
2026-01-28 10:05:38.34	20.19	4.97	-52.5	-54.6	6.2	0.00e+00	0	51	104	0	76	18471
2026-01-28 10:05:39.35	20.15	5.05	-52.7	-54.9	6.2	0.00e+00	0	51	104	0	76	19038
2026-01-28 10:05:40.36	20.12	5.13	-52.0	-54.1	6.2	0.00e+00	0	51	104	0	76	17488
2026-01-28 10:05:41.37	20.08	5.21	-48.7	-50.8	6.2	0.00e+00	0	52	104	0	69	17966
2026-01-28 10:05:42.38	20.05	5.29	-48.6	-50.8	6.2	0.00e+00	0	52	104	0	69	17865
2026-01-28 10:05:43.38	20.01	5.37	-48.6	-50.8	6.2	0.00e+00	0	51	104	0	69	17893
2026-01-28 10:05:44.39	19.98	5.46	-48.6	-50.8	6.2	0.00e+00	0	52	104	0	69	17786
2026-01-28 10:05:45.39	19.94	5.54	-48.6	-50.7	6.2	0.00e+00	0	52	104	0	69	17649
2026-01-28 10:05:46.40	19.90	5.62	-48.6	-50.7	6.2	0.00e+00	0	52	104	0	69	17644
2026-01-28 10:05:47.41	19.87	5.70	-48.6	-50.7	6.2	0.00e+00	0	52	104	0	69	17616
2026-01-28 10:05:48.41	19.83	5.78	-48.5	-50.6	6.2	0.00e+00	0	52	104	0	69	17551
2026-01-28 10:05:49.42	19.79	5.87	-48.6	-50.7	6.2	0.00e+00	0	52	104	0	69	17631
2026-01-28 10:05:50.43	19.75	5.95	-48.6	-50.7	6.2	0.00e+00	0	52	104	0	69	17722
2026-01-28 10:05:51.44	19.71	6.03	-48.6	-50.7	6.2	0.00e+00	0	52	104	0	69	17592
2026-01-28 10:05:52.45	19.67	6.12	-48.6	-50.7	6.2	0.00e+00	0	52	104	0	69	17695
2026-01-28 10:05:53.45	19.64	6.20	-48.6	-50.7	6.2	0.00e+00	0	52	104	0	69	17694
2026-01-28 10:05:54.46	19.60	6.29	-48.6	-50.7	6.2	0.00e+00	0	52	104	0	69	17703
2026-01-28 10:05:55.47	19.56	6.37	-48.6	-50.7	6.2	0.00e+00	0	52	104	0	69	17712
2026-01-28 10:05:56.48	19.52	6.46	-48.6	-50.7	6.2	0.00e+00	0	52	104	0	69	17699
2026-01-28 10:05:57.49	19.48	6.54	-48.6	-50.7	6.2	0.00e+00	0	52	104	0	69	17609
2026-01-28 10:05:58.50	19.44	6.63	-48.6	-50.7	6.2	0.00e+00	0	52	104	0	69	17651
2026-01-28 10:05:59.51	19.39	6.72	-48.5	-50.7	6.2	0.00e+00	0	52	104	0	69	17633
2026-01-28 10:06:00.51	19.35	6.80	-48.5	-50.7	6.2	0.00e+00	0	52	104	0	69	17589
2026-01-28 10:06:01.52	19.31	6.89	-48.5	-50.7	6.2	0.00e+00	0	52	104	0	69	17621
2026-01-28 10:06:02.53	19.27	6.98	-48.6	-50.7	6.2	0.00e+00	0	52	104	0	69	17591
2026-01-28 10:06:03.53	19.23	7.06	-48.6	-50.7	6.2	0.00e+00	0	52	104	0	69	17634
2026-01-28 10:06:04.54	19.18	7.15	-48.6	-50.7	6.2	0.00e+00	0	52	104	0	69	17664
2026-01-28 10:06:05.55	19.14	7.24	-48.6	-50.7	6.2	0.00e+00	0	52	104	0	69	17696
2026-01-28 10:06:06.56	19.10	7.33	-48.6	-50.7	6.2	0.00e+00	0	52	104	0	69	17753
2026-01-28 10:06:07.57	19.05	7.42	-48.6	-50.7	6.2	0.00e+00	0	52	104	0	69	17716
2026-01-28 10:06:08.58	19.01	7.51	-48.6	-50.7	6.2	0.00e+00	0	52	104	0	69	17725
2026-01-28 10:06:09.58	18.97	7.60	-48.6	-50.7	6.2	0.00e+00	0	53	104	0	69	17696
2026-01-28 10:06:10.59	18.92	7.69	-48.6	-50.7	6.2	0.00e+00	0	53	104	0	69	17690
2026-01-28 10:06:11.60	18.88	7.78	-48.6	-50.7	6.2	0.00e+00	0	52	104	0	69	17695
2026-01-28 10:06:12.60	18.83	7.87	-48.6	-50.7	6.2	0.00e+00	0	52	104	0	69	17682
2026-01-28 10:06:13.61	18.78	7.97	-48.6	-50.7	6.2	0.00e+00	0	52	104	0	69	17671
2026-01-28 10:06:14.62	18.74	8.06	-48.6	-50.7	6.2	0.00e+00	0	52	104	0	69	17681
2026-01-28 10:06:15.63	18.69	8.15	-48.6	-50.7	6.2	0.00e+00	0	52	104	0	69	17761
2026-01-28 10:06:16.63	18.64	8.24	-48.6	-50.7	6.2	0.00e+00	0	52	104	0	69	17724
2026-01-28 10:06:17.64	18.60	8.34	-48.6	-50.7	6.2	0.00e+00	0	52	104	0	69	17715
2026-01-28 10:06:18.64	18.55	8.43	-48.6	-50.8	6.2	0.00e+00	0	52	104	0	69	17778
2026-01-28 10:06:19.65	18.50	8.53	-48.6	-50.7	6.2	0.00e+00	0	52	104	0	69	17751
2026-01-28 10:06:20.66	18.45	8.62	-48.6	-50.7	6.2	0.00e+00	0	52	104	0	69	17732
2026-01-28 10:06:21.67	18.40	8.72	-48.6	-50.7	6.2	0.00e+00	0	53	104	0	69	17752
2026-01-28 10:06:22.68	18.35	8.81	-48.6	-50.7	6.2	0.00e+00	0	52	104	0	69	17668
2026-01-28 10:06:23.69	18.30	8.91	-48.6	-50.7	6.2	0.00e+00	0	53	104	0	69	17754
2026-01-28 10:06:24.70	18.25	9.01	-48.6	-50.7	6.2	0.00e+00	0	52	104	0	69	17708
2026-01-28 10:06:25.71	18.20	9.11	-48.6	-50.7	6.2	0.00e+00	0	53	104	0	69	17743
2026-01-28 10:06:26.71	18.15	9.20	-48.6	-50.7	6.2	0.00e+00	0	53	104	0	69	17764
2026-01-28 10:06:27.72	18.10	9.30	-48.6	-50.7	6.2	0.00e+00	0	53	104	0	69	17751
2026-01-28 10:06:28.73	18.04	9.40	-48.6	-50.7	6.2	0.00e+00	0	53	104	0	69	17723
2026-01-28 10:06:29.74	17.99	9.50	-49.1	-51.2	6.2	0.00e+00	0	53	104	0	69	18803
2026-01-28 10:06:30.74	17.94	9.60	-49.2	-51.4	6.2	0.00e+00	0	52	104	0	69	19040
2026-01-28 10:06:31.75	17.88	9.70	-49.5	-51.6	6.2	0.00e+00	0	53	104	0	69	19669
2026-01-28 10:06:32.76	17.83	9.80	-52.1	-54.2	6.2	0.00e+00	0	53	104	0	74	19786
2026-01-28 10:06:33.77	17.77	9.90	-52.6	-54.6	6.2	0.00e+00	0	53	104	0	76	18504
2026-01-28 10:06:34.78	17.72	10.01	-52.8	-54.7	6.2	0.00e+00	0	53	104	0	76	18783
2026-01-28 10:06:35.79	17.66	10.11	-52.7	-54.7	6.2	0.00e+00	0	53	104	0	76	18794
2026-01-28 10:06:36.79	17.61	10.21	-52.7	-54.7	6.2	0.00e+00	0	53	104	0	76	18723
2026-01-28 10:06:37.80	17.55	10.31	-52.7	-54.7	6.2	0.00e+00	0	53	104	0	76	18678
2026-01-28 10:06:38.80	17.49	10.42	-52.7	-54.7	6.2	0.00e+00	0	53	104	0	76	18654
2026-01-28 10:06:39.82	17.43	10.52	-52.7	-54.6	6.2	0.00e+00	0	53	104	0	76	18501
2026-01-28 10:06:40.82	17.37	10.63	-52.6	-54.6	6.2	0.00e+00	0	53	104	0	76	18561
2026-01-28 10:06:41.83	17.32	10.73	-52.7	-54.6	6.2	0.00e+00	0	53	104	0	76	18596
2026-01-28 10:06:42.84	17.26	10.84	-52.7	-54.8	6.2	0.00e+00	0	53	104	0	76	18850
2026-01-28 10:06:43.84	17.20	10.95	-52.8	-54.8	6.2	0.00e+00	0	53	104	0	76	18976
2026-01-28 10:06:44.85	17.13	11.06	-52.9	-55.0	6.2	0.00e+00	0	53	104	0	76	19358
2026-01-28 10:06:45.86	17.07	11.16	-52.9	-55.0	6.2	0.00e+00	0	53	104	0	76	19381
2026-01-28 10:06:46.86	17.01	11.27	-52.9	-55.0	6.2	0.00e+00	0	53	104	0	76	19401
2026-01-28 10:06:47.87	16.95	11.38	-52.9	-55.1	6.2	0.00e+00	0	53	104	0	76	19509
2026-01-28 10:06:48.88	16.89	11.49	-52.9	-55.1	6.2	0.00e+00	0	53	104	0	76	19507
2026-01-28 10:06:49.89	16.82	11.60	-52.9	-55.0	6.2	0.00e+00	0	53	104	0	76	19445
2026-01-28 10:06:50.89	16.76	11.71	-52.9	-55.1	6.2	0.00e+00	0	53	104	0	76	19480
2026-01-28 10:06:51.90	16.69	11.83	-52.9	-55.1	6.2	0.00e+00	0	53	104	0	76	19485
2026-01-28 10:06:52.91	16.63	11.94	-52.9	-55.0	6.2	0.00e+00	0	53	104	0	76	19435
2026-01-28 10:06:53.91	16.56	12.05	-52.9	-55.0	6.2	0.00e+00	0	53	104	0	76	19441
2026-01-28 10:06:54.92	16.49	12.17	-52.9	-55.0	6.2	0.00e+00	0	53	104	0	76	19436
2026-01-28 10:06:55.92	16.43	12.28	-52.9	-55.0	6.2	0.00e+00	0	53	104	0	76	19414
2026-01-28 10:06:56.93	16.36	12.39	-52.9	-55.0	6.2	0.00e+00	0	53	104	0	76	19373
2026-01-28 10:06:57.94	16.29	12.51	-52.9	-55.0	6.2	0.00e+00	0	53	104	0	76	19271
2026-01-28 10:06:58.95	16.22	12.63	-52.9	-55.0	6.2	0.00e+00	0	53	104	0	76	19263
2026-01-28 10:06:59.96	16.15	12.74	-52.9	-55.0	6.2	0.00e+00	0	53	104	0	76	19309
2026-01-28 10:07:00.97	16.08	12.86	-52.9	-55.0	6.2	0.00e+00	0	53	104	0	76	19355
2026-01-28 10:07:01.98	16.00	12.98	-52.9	-55.0	6.2	0.00e+00	0	53	104	0	76	19436
2026-01-28 10:07:02.99	15.93	13.10	-52.9	-55.0	6.2	0.00e+00	0	53	104	0	76	19436
2026-01-28 10:07:03.99	15.86	13.22	-52.9	-55.0	6.2	0.00e+00	0	53	104	0	76	19457
2026-01-28 10:07:05.00	15.79	13.34	-52.9	-55.0	6.2	0.00e+00	0	53	104	0	76	19412
2026-01-28 10:07:06.01	15.71	13.46	-52.9	-55.0	6.2	0.00e+00	0	53	104	0	76	19399
2026-01-28 10:07:07.02	15.63	13.59	-52.9	-55.0	6.2	0.00e+00	0	53	104	0	76	19273
2026-01-28 10:07:08.02	15.56	13.71	-52.8	-54.9	6.2	0.00e+00	0	53	104	0	76	19216
2026-01-28 10:07:09.03	15.48	13.83	-52.8	-54.9	6.2	0.00e+00	0	53	104	0	76	19236
2026-01-28 10:07:10.04	15.40	13.96	-52.9	-54.9	6.2	0.00e+00	0	53	104	0	76	19256
2026-01-28 10:07:11.05	15.32	14.08	-52.9	-55.0	6.2	0.00e+00	0	53	104	0	76	19327
2026-01-28 10:07:12.06	15.24	14.21	-52.9	-55.0	6.2	0.00e+00	0	53	104	0	76	19319
2026-01-28 10:07:13.07	15.16	14.34	-52.9	-55.0	6.2	0.00e+00	0	53	104	0	76	19365
2026-01-28 10:07:14.08	15.08	14.47	-52.9	-55.0	6.2	0.00e+00	0	53	104	0	76	19382
2026-01-28 10:07:15.09	15.00	14.59	-52.9	-55.0	6.2	0.00e+00	0	53	104	0	76	19356
2026-01-28 10:07:16.10	14.92	14.72	-52.9	-55.0	6.2	0.00e+00	0	53	104	0	76	19435
2026-01-28 10:07:17.10	14.83	14.85	-52.9	-55.0	6.2	0.00e+00	0	53	104	0	76	19380
2026-01-28 10:07:18.11	14.75	14.99	-52.9	-55.0	6.2	0.00e+00	0	53	104	0	76	19432
2026-01-28 10:07:19.12	14.66	15.12	-52.9	-55.0	6.2	0.00e+00	0	53	104	0	76	19415
2026-01-28 10:07:20.13	14.57	15.25	-52.9	-55.0	6.2	0.00e+00	0	53	104	0	76	19392
2026-01-28 10:07:21.13	14.49	15.38	-52.9	-55.0	6.2	0.00e+00	0	53	104	0	76	19305
2026-01-28 10:07:22.14	14.40	15.52	-52.9	-55.0	6.2	0.00e+00	0	53	104	0	76	19274
2026-01-28 10:07:23.15	14.31	15.66	-52.9	-55.0	6.2	0.00e+00	0	53	104	0	76	19278
2026-01-28 10:07:24.15	14.22	15.79	-52.9	-55.0	6.2	0.00e+00	0	53	104	0	76	19295
2026-01-28 10:07:25.16	14.13	15.93	-52.9	-55.0	6.2	0.00e+00	0	53	104	0	76	19348
2026-01-28 10:07:26.17	14.03	16.07	-52.9	-55.0	6.2	0.00e+00	0	53	104	0	76	19446
2026-01-28 10:07:27.18	13.94	16.21	-52.9	-55.0	6.2	0.00e+00	0	53	104	0	76	19375
2026-01-28 10:07:28.19	13.84	16.35	-52.9	-55.0	6.2	0.00e+00	0	53	104	0	76	19293
2026-01-28 10:07:29.19	13.75	16.49	-52.8	-54.9	6.2	0.00e+00	0	53	104	0	76	19251
2026-01-28 10:07:30.20	13.65	16.63	-52.8	-55.0	6.2	0.00e+00	0	53	104	0	76	19257
2026-01-28 10:07:31.21	13.55	16.77	-52.9	-55.0	6.2	0.00e+00	0	53	104	0	76	19287
2026-01-28 10:07:32.21	13.45	16.92	-52.9	-55.0	6.2	0.00e+00	0	53	104	0	76	19288
2026-01-28 10:07:33.22	13.35	17.06	-52.9	-55.0	6.2	0.00e+00	0	53	104	0	76	19303
2026-01-28 10:07:34.23	13.25	17.21	-52.9	-55.0	6.2	0.00e+00	0	53	104	0	76	19299
2026-01-28 10:07:35.23	13.15	17.36	-52.9	-55.0	6.2	0.00e+00	0	53	104	0	76	19315
2026-01-28 10:07:36.24	13.04	17.50	-52.8	-55.0	6.2	0.00e+00	0	53	104	0	76	19258
2026-01-28 10:07:37.25	12.94	17.65	-52.8	-55.0	6.2	0.00e+00	0	53	104	0	76	19275
2026-01-28 10:07:38.26	12.83	17.80	-52.9	-54.9	6.2	0.00e+00	0	53	104	0	76	19254
2026-01-28 10:07:39.27	12.72	17.96	-52.9	-55.0	6.2	0.00e+00	0	53	104	0	76	19344
2026-01-28 10:07:40.28	12.61	18.11	-52.9	-55.0	6.2	0.00e+00	0	53	104	0	76	19333
2026-01-28 10:07:41.28	12.50	18.26	-52.9	-55.0	6.2	0.00e+00	0	53	104	0	76	19406
2026-01-28 10:07:42.29	12.39	18.42	-52.9	-55.0	6.2	0.00e+00	0	53	104	0	76	19377
2026-01-28 10:07:43.29	12.28	18.57	-52.9	-55.0	6.2	0.00e+00	0	53	104	0	76	19331
2026-01-28 10:07:44.30	12.16	18.73	-52.9	-55.0	6.2	0.00e+00	0	53	104	0	76	19386
2026-01-28 10:07:45.31	12.05	18.89	-52.9	-55.0	6.2	0.00e+00	0	53	104	0	76	19411
2026-01-28 10:07:46.32	11.93	19.05	-52.9	-55.0	6.2	0.00e+00	0	53	104	0	76	19400
2026-01-28 10:07:47.32	11.81	19.21	-52.9	-55.1	6.2	0.00e+00	0	53	104	0	76	19481
2026-01-28 10:07:48.33	11.69	19.37	-53.0	-55.2	6.2	0.00e+00	0	53	104	0	76	19730
2026-01-28 10:07:49.34	11.57	19.53	-53.4	-55.5	6.2	0.00e+00	0	53	104	0	77	19453
2026-01-28 10:07:50.35	11.44	19.70	-53.7	-55.8	6.2	0.00e+00	0	53	104	0	77	20076
2026-01-28 10:07:51.36	11.32	19.86	-53.8	-56.0	6.2	0.00e+00	0	53	104	0	78	19322
2026-01-28 10:07:52.37	11.19	20.03	-54.0	-56.1	6.2	0.00e+00	0	53	104	0	78	19587
2026-01-28 10:07:53.37	11.06	20.20	-54.1	-56.2	6.2	0.00e+00	0	53	104	0	78	19843
2026-01-28 10:07:54.37	10.93	20.37	-54.2	-56.3	6.2	0.00e+00	0	53	104	0	78	20070
2026-01-28 10:07:55.38	10.80	20.54	-54.3	-56.4	6.2	0.00e+00	0	53	104	0	79	19215
2026-01-28 10:07:56.39	10.67	20.71	-54.4	-56.5	6.2	0.00e+00	0	53	104	0	79	19471
2026-01-28 10:07:57.39	10.53	20.88	-54.4	-56.6	6.2	0.00e+00	0	53	104	0	79	19595
2026-01-28 10:07:58.40	10.40	21.06	-54.5	-56.6	6.2	0.00e+00	0	54	104	0	79	19633
2026-01-28 10:07:59.41	10.26	21.23	-54.5	-56.6	6.2	0.00e+00	0	54	104	0	79	19647
2026-01-28 10:08:00.41	10.12	21.41	-54.6	-56.7	6.2	0.00e+00	0	54	104	0	79	19850
2026-01-28 10:08:01.42	9.97	21.59	-54.6	-56.7	6.2	0.00e+00	0	54	104	0	79	19820
2026-01-28 10:08:02.42	9.83	21.77	-54.5	-56.7	6.2	0.00e+00	0	53	104	0	79	19721
2026-01-28 10:08:03.43	9.68	21.95	-54.5	-56.6	6.2	0.00e+00	0	53	104	0	79	19692
2026-01-28 10:08:04.44	9.53	22.13	-54.5	-56.6	6.2	0.00e+00	0	54	104	0	79	19647
2026-01-28 10:08:05.45	9.38	22.32	-54.5	-56.6	6.2	0.00e+00	0	54	104	0	79	19640
2026-01-28 10:08:06.45	9.23	22.50	-54.5	-56.7	6.2	0.00e+00	0	54	104	0	79	19725
2026-01-28 10:08:07.46	9.08	22.69	-54.6	-56.7	6.2	0.00e+00	0	54	104	0	79	19852
2026-01-28 10:08:08.46	8.92	22.88	-54.6	-56.8	6.2	0.00e+00	0	54	104	0	79	19978
2026-01-28 10:08:09.47	8.76	23.07	-54.7	-56.8	6.2	0.00e+00	0	54	104	0	79	20002
2026-01-28 10:08:10.47	8.60	23.26	-54.7	-56.8	6.2	0.00e+00	0	54	104	0	79	20119
2026-01-28 10:08:11.48	8.44	23.45	-54.7	-56.8	6.2	0.00e+00	0	54	104	0	79	20162
2026-01-28 10:08:12.49	8.27	23.65	-54.7	-56.9	6.2	0.00e+00	0	53	104	0	79	20176
2026-01-28 10:08:13.49	8.10	23.84	-54.7	-56.8	6.2	0.00e+00	0	54	104	0	80	18909
2026-01-28 10:08:14.50	7.93	24.04	-54.7	-56.8	6.2	0.00e+00	0	54	104	0	80	18976
2026-01-28 10:08:15.51	7.76	24.24	-54.7	-56.8	6.2	0.00e+00	0	54	104	0	80	18986
2026-01-28 10:08:16.52	7.58	24.44	-54.7	-56.8	6.2	0.00e+00	0	54	104	0	80	18949
2026-01-28 10:08:17.53	7.40	24.65	-54.6	-56.8	6.2	0.00e+00	0	54	104	0	80	18829
2026-01-28 10:08:18.54	7.22	24.85	-54.6	-56.8	6.2	0.00e+00	0	54	104	0	80	18858
2026-01-28 10:08:19.55	7.04	25.06	-54.6	-56.7	6.2	0.00e+00	0	53	104	0	80	18756
2026-01-28 10:08:20.55	6.85	25.27	-54.6	-56.8	6.2	0.00e+00	0	54	104	0	80	18848
2026-01-28 10:08:21.56	6.66	25.48	-54.7	-56.8	6.2	0.00e+00	0	54	104	0	80	19018
2026-01-28 10:08:22.57	6.47	25.69	-54.7	-56.8	6.2	0.00e+00	0	54	104	0	80	18881
2026-01-28 10:08:23.57	6.28	25.90	-54.6	-56.8	6.2	0.00e+00	0	54	104	0	80	18822
2026-01-28 10:08:24.58	6.08	26.11	-54.6	-56.7	6.2	0.00e+00	0	54	104	0	80	18775
2026-01-28 10:08:25.59	5.88	26.33	-54.6	-56.8	6.2	0.00e+00	0	54	104	0	80	18850
2026-01-28 10:08:26.59	5.68	26.55	-54.6	-56.8	6.2	0.00e+00	0	54	104	0	80	18822
2026-01-28 10:08:27.60	5.47	26.77	-54.6	-56.7	6.2	0.00e+00	0	54	104	0	80	18688
2026-01-28 10:08:28.61	5.26	26.99	-54.6	-56.7	6.2	0.00e+00	0	54	104	0	80	18687
2026-01-28 10:08:29.62	5.04	27.21	-54.5	-56.7	6.2	0.00e+00	0	54	104	0	80	18668
2026-01-28 10:08:30.63	4.82	27.44	-54.5	-56.7	6.2	0.00e+00	0	54	104	0	80	18612
2026-01-28 10:08:31.64	4.60	27.67	-54.5	-56.6	6.2	0.00e+00	0	54	104	0	80	18601
2026-01-28 10:08:32.64	4.38	27.90	-54.5	-56.6	6.2	0.00e+00	0	54	104	0	80	18580
2026-01-28 10:08:33.65	4.15	28.13	-54.5	-56.7	6.2	0.00e+00	0	54	104	0	80	18644
2026-01-28 10:08:34.66	3.92	28.36	-54.5	-56.6	6.2	0.00e+00	0	54	104	0	80	18545
2026-01-28 10:08:35.67	3.68	28.59	-54.5	-56.6	6.2	0.00e+00	0	54	104	0	80	18589
2026-01-28 10:08:36.67	3.45	28.83	-54.5	-56.6	6.2	0.00e+00	0	53	104	0	80	18523
2026-01-28 10:08:37.68	3.20	29.07	-54.5	-56.6	6.2	0.00e+00	0	54	104	0	80	18527
2026-01-28 10:08:38.69	2.96	29.31	-54.5	-56.6	6.2	0.00e+00	0	54	104	0	80	18521
2026-01-28 10:08:39.70	2.70	29.55	-54.5	-56.6	6.2	0.00e+00	0	53	104	0	80	18518
2026-01-28 10:08:40.71	2.45	29.80	-54.5	-56.6	6.2	0.00e+00	0	54	104	0	80	18539
2026-01-28 10:08:41.72	2.19	30.04	-54.5	-56.6	6.2	0.00e+00	0	54	104	0	80	18503
2026-01-28 10:08:42.73	1.92	30.29	-54.5	-56.6	6.2	0.00e+00	0	54	104	0	80	18536
2026-01-28 10:08:43.73	1.66	30.54	-54.5	-56.6	6.2	0.00e+00	0	54	104	0	80	18513
2026-01-28 10:08:44.74	1.38	30.79	-54.5	-56.6	6.2	0.00e+00	0	54	104	0	80	18474
2026-01-28 10:08:45.75	1.10	31.04	-54.5	-56.6	6.2	0.00e+00	0	54	104	0	80	18533
2026-01-28 10:08:46.75	0.82	31.30	-54.5	-56.6	6.2	0.00e+00	0	54	104	0	80	18440
2026-01-28 10:08:47.76	0.54	31.55	-54.5	-56.6	6.2	0.00e+00	0	54	104	0	80	18539
2026-01-28 10:08:48.77	0.24	31.81	-54.5	-56.6	6.2	0.00e+00	0	54	104	0	80	18460
2026-01-28 10:08:49.77	359.95	32.07	-54.5	-56.6	6.2	0.00e+00	0	54	104	0	80	18496
2026-01-28 10:08:50.78	359.64	32.34	-54.5	-56.6	6.2	0.00e+00	0	54	104	0	80	18479
2026-01-28 10:08:51.80	359.33	32.60	-54.5	-56.6	6.2	0.00e+00	0	54	104	0	80	18458
2026-01-28 10:08:52.81	359.02	32.87	-54.5	-56.6	6.2	0.00e+00	0	54	104	0	80	18505
2026-01-28 10:08:53.81	358.70	33.14	-54.5	-56.6	6.2	0.00e+00	0	54	104	0	80	18457
2026-01-28 10:08:54.82	358.37	33.41	-54.5	-56.6	6.2	0.00e+00	0	54	104	0	80	18484
2026-01-28 10:08:55.83	358.04	33.68	-54.5	-56.6	6.2	0.00e+00	0	54	104	0	80	18462
2026-01-28 10:08:56.84	357.70	33.95	-54.5	-56.6	6.2	0.00e+00	0	54	104	0	80	18429
2026-01-28 10:08:57.85	357.36	34.23	-54.5	-56.6	6.2	0.00e+00	0	54	104	0	80	18465
2026-01-28 10:08:58.86	357.01	34.51	-54.5	-56.6	6.2	0.00e+00	0	54	104	0	80	18490
2026-01-28 10:08:59.87	356.65	34.79	-54.5	-56.6	6.2	0.00e+00	0	54	104	0	80	18517
2026-01-28 10:09:00.87	356.29	35.06	-54.4	-56.6	6.2	0.00e+00	0	53	104	0	80	18434
2026-01-28 10:09:01.88	355.92	35.35	-54.4	-56.6	6.2	0.00e+00	0	54	104	0	80	18436
2026-01-28 10:09:02.89	355.54	35.63	-54.5	-56.6	6.2	0.00e+00	0	54	104	0	80	18507
2026-01-28 10:09:03.89	355.16	35.91	-54.4	-56.6	6.2	0.00e+00	0	54	104	0	80	18450
2026-01-28 10:09:04.90	354.77	36.20	-54.4	-56.6	6.2	0.00e+00	0	54	104	0	80	18471
2026-01-28 10:09:05.91	354.37	36.49	-54.4	-56.6	6.2	0.00e+00	0	54	104	0	80	18434
2026-01-28 10:09:06.92	353.97	36.78	-54.4	-56.6	6.2	0.00e+00	0	54	104	0	80	18465
2026-01-28 10:09:07.93	353.55	37.07	-54.4	-56.6	6.2	0.00e+00	0	54	104	0	80	18449
2026-01-28 10:09:08.93	353.13	37.36	-54.5	-56.5	6.2	0.00e+00	0	54	104	0	80	18384
2026-01-28 10:09:09.94	352.70	37.65	-54.4	-56.6	6.2	0.00e+00	0	54	104	0	80	18426
2026-01-28 10:09:10.95	352.26	37.95	-54.4	-56.6	6.2	0.00e+00	0	54	104	0	80	18478
2026-01-28 10:09:11.96	351.82	38.25	-54.4	-56.6	6.2	0.00e+00	0	54	104	0	80	18489
2026-01-28 10:09:12.96	351.36	38.54	-54.4	-56.6	6.2	0.00e+00	0	54	104	0	80	18415
2026-01-28 10:09:13.97	350.90	38.84	-54.4	-56.6	6.2	0.00e+00	0	54	104	0	80	18420
2026-01-28 10:09:14.98	350.42	39.14	-54.4	-56.6	6.2	0.00e+00	0	54	104	0	80	18422
2026-01-28 10:09:15.98	349.95	39.43	-54.4	-56.6	6.2	0.00e+00	0	54	104	0	80	18436
2026-01-28 10:09:16.99	349.45	39.73	-54.4	-56.5	6.2	0.00e+00	0	54	104	0	80	18366
2026-01-28 10:09:18.00	348.95	40.04	-54.4	-56.5	6.2	0.00e+00	0	54	104	0	80	18383
2026-01-28 10:09:19.01	348.44	40.34	-54.4	-56.6	6.2	0.00e+00	0	54	104	0	80	18421
2026-01-28 10:09:20.01	347.92	40.64	-54.4	-56.6	6.2	0.00e+00	0	54	104	0	80	18419
2026-01-28 10:09:21.02	347.39	40.94	-54.4	-56.6	6.2	0.00e+00	0	54	104	0	80	18427
2026-01-28 10:09:22.03	346.84	41.24	-54.4	-56.6	6.2	0.00e+00	0	54	104	0	80	18410
2026-01-28 10:09:23.04	346.29	41.54	-54.4	-56.5	6.2	0.00e+00	0	54	104	0	80	18361
2026-01-28 10:09:24.04	345.73	41.84	-54.4	-56.6	6.2	0.00e+00	0	54	104	0	80	18427
2026-01-28 10:09:25.05	345.15	42.14	-54.4	-56.5	6.2	0.00e+00	0	54	104	0	80	18374
2026-01-28 10:09:26.06	344.57	42.45	-54.4	-56.5	6.2	0.00e+00	0	54	104	0	80	18373
2026-01-28 10:09:27.06	343.97	42.74	-54.4	-56.6	6.2	0.00e+00	0	54	104	0	80	18397
2026-01-28 10:09:28.07	343.36	43.04	-54.4	-56.6	6.2	0.00e+00	0	54	104	0	80	18410
2026-01-28 10:09:29.08	342.74	43.34	-54.4	-56.5	6.2	0.00e+00	0	54	104	0	80	18364
2026-01-28 10:09:30.09	342.10	43.64	-54.4	-56.5	6.2	0.00e+00	0	54	104	0	80	18378
2026-01-28 10:09:31.10	341.45	43.94	-54.4	-56.6	6.2	0.00e+00	0	54	104	0	80	18393
2026-01-28 10:09:32.10	340.80	44.23	-54.4	-56.6	6.2	0.00e+00	0	54	104	0	80	18401
2026-01-28 10:09:33.11	340.13	44.52	-54.4	-56.5	6.2	0.00e+00	0	54	104	0	80	18349
2026-01-28 10:09:34.12	339.44	44.81	-54.4	-56.5	6.2	0.00e+00	0	54	104	0	80	18313
2026-01-28 10:09:35.13	338.74	45.10	-54.4	-56.6	6.2	0.00e+00	0	54	104	0	80	18405
2026-01-28 10:09:36.13	338.04	45.39	-54.4	-56.5	6.2	0.00e+00	0	54	104	0	80	18378
2026-01-28 10:09:37.14	337.31	45.67	-54.4	-56.6	6.2	0.00e+00	0	54	104	0	80	18413
2026-01-28 10:09:38.15	336.57	45.95	-54.4	-56.5	6.2	0.00e+00	0	54	104	0	80	18379
2026-01-28 10:09:39.15	335.82	46.23	-54.4	-56.6	6.2	0.00e+00	0	54	104	0	80	18425
2026-01-28 10:09:40.16	335.06	46.51	-54.4	-56.5	6.2	0.00e+00	0	54	104	0	80	18389
2026-01-28 10:09:41.17	334.28	46.78	-54.4	-56.6	6.2	0.00e+00	0	54	104	0	80	18443
2026-01-28 10:09:42.18	333.48	47.04	-54.4	-56.5	6.2	0.00e+00	0	54	104	0	80	18350
2026-01-28 10:09:43.18	332.68	47.31	-54.4	-56.5	6.2	0.00e+00	0	54	104	0	80	18352
2026-01-28 10:09:44.19	331.85	47.57	-54.4	-56.5	6.2	0.00e+00	0	54	104	0	80	18358
2026-01-28 10:09:45.19	331.03	47.82	-54.4	-56.6	6.2	0.00e+00	0	54	104	0	80	18392
2026-01-28 10:09:46.20	330.17	48.07	-54.4	-56.6	6.2	0.00e+00	0	54	104	0	80	18438
2026-01-28 10:09:47.20	329.32	48.31	-54.4	-56.5	6.2	0.00e+00	0	54	104	0	80	18353
2026-01-28 10:09:48.21	328.44	48.55	-54.4	-56.5	6.2	0.00e+00	0	54	104	0	80	18333
2026-01-28 10:09:49.22	327.54	48.78	-54.4	-56.5	6.2	0.00e+00	0	54	104	0	80	18335
2026-01-28 10:09:50.23	326.63	49.01	-54.4	-56.5	6.2	0.00e+00	0	54	104	0	80	18328
2026-01-28 10:09:51.24	325.71	49.23	-54.4	-56.5	6.2	0.00e+00	0	54	104	0	80	18366
2026-01-28 10:09:52.25	324.78	49.44	-54.4	-56.5	6.2	0.00e+00	0	54	104	0	80	18342
2026-01-28 10:09:53.25	323.84	49.65	-54.4	-56.5	6.2	0.00e+00	0	54	104	0	80	18298
2026-01-28 10:09:54.26	322.88	49.85	-54.4	-56.5	6.2	0.00e+00	0	54	104	0	80	18304
2026-01-28 10:09:55.27	321.90	50.04	-54.4	-56.5	6.2	0.00e+00	0	54	104	0	80	18322
2026-01-28 10:09:56.27	320.92	50.23	-54.4	-56.5	6.2	0.00e+00	0	54	104	0	80	18312
2026-01-28 10:09:57.28	319.93	50.40	-54.4	-56.5	6.2	0.00e+00	0	54	104	0	80	18314
2026-01-28 10:09:58.29	318.91	50.57	-54.4	-56.5	6.2	0.00e+00	0	54	104	0	80	18293
2026-01-28 10:09:59.30	317.89	50.73	-54.4	-56.5	6.2	0.00e+00	0	54	104	0	80	18300
2026-01-28 10:10:00.31	316.86	50.88	-54.4	-56.5	6.2	0.00e+00	0	54	104	0	80	18318
2026-01-28 10:10:01.32	315.81	51.02	-54.4	-56.5	6.2	0.00e+00	0	54	104	0	80	18324
2026-01-28 10:10:02.32	314.77	51.15	-54.4	-56.5	6.2	0.00e+00	0	54	104	0	80	18328
2026-01-28 10:10:03.32	313.72	51.27	-54.4	-56.5	6.2	0.00e+00	0	54	104	0	80	18309
2026-01-28 10:10:04.33	312.65	51.38	-54.4	-56.5	6.2	0.00e+00	0	54	104	0	80	18295
2026-01-28 10:10:05.34	311.57	51.49	-54.4	-56.5	6.2	0.00e+00	0	54	104	0	80	18295
2026-01-28 10:10:06.35	310.48	51.58	-54.4	-56.5	6.2	0.00e+00	0	54	104	0	80	18258
2026-01-28 10:10:07.35	309.40	51.66	-54.4	-56.5	6.2	0.00e+00	0	54	104	0	80	18304
2026-01-28 10:10:08.36	308.30	51.73	-54.4	-56.5	6.2	0.00e+00	0	54	104	0	80	18306
2026-01-28 10:10:09.37	307.20	51.79	-54.4	-56.5	6.2	0.00e+00	0	54	104	0	80	18247
2026-01-28 10:10:10.38	306.09	51.84	-54.4	-56.5	6.2	0.00e+00	0	54	104	0	80	18340
2026-01-28 10:10:11.38	304.99	51.88	-54.4	-56.5	6.2	0.00e+00	0	54	104	0	80	18271
2026-01-28 10:10:12.39	303.88	51.91	-54.4	-56.5	6.2	0.00e+00	0	54	104	0	80	18301
2026-01-28 10:10:13.39	302.77	51.92	-54.4	-56.5	6.2	0.00e+00	0	54	104	0	80	18315
2026-01-28 10:10:14.40	301.66	51.93	-54.4	-56.5	6.2	0.00e+00	0	54	104	0	80	18245
2026-01-28 10:10:15.40	300.55	51.92	-54.4	-56.5	6.2	0.00e+00	0	54	104	0	80	18275
2026-01-28 10:10:16.42	299.42	51.91	-54.4	-56.5	6.2	0.00e+00	0	54	104	0	80	18288
2026-01-28 10:10:17.42	298.32	51.88	-54.3	-56.5	6.2	0.00e+00	0	54	104	0	80	18253
2026-01-28 10:10:18.43	297.21	51.84	-54.4	-56.5	6.2	0.00e+00	0	54	104	0	80	18235
2026-01-28 10:10:19.43	296.11	51.79	-54.3	-56.5	6.2	0.00e+00	0	54	104	0	80	18202
2026-01-28 10:10:20.45	295.00	51.73	-54.4	-56.5	6.2	0.00e+00	0	54	104	0	80	18291
2026-01-28 10:10:21.45	293.91	51.66	-54.4	-56.5	6.2	0.00e+00	0	54	104	0	80	18300
2026-01-28 10:10:22.45	292.82	51.58	-54.3	-56.5	6.2	0.00e+00	0	54	104	0	80	18191
2026-01-28 10:10:23.46	291.74	51.49	-54.3	-56.4	6.2	0.00e+00	0	54	104	0	80	18164
2026-01-28 10:10:24.47	290.66	51.39	-54.3	-56.5	6.2	0.00e+00	0	54	104	0	80	18229
2026-01-28 10:10:25.48	289.58	51.28	-54.3	-56.5	6.2	0.00e+00	0	54	104	0	80	18205
2026-01-28 10:10:26.49	288.52	51.16	-54.3	-56.5	6.2	0.00e+00	0	54	104	0	80	18180
2026-01-28 10:10:27.50	287.47	51.03	-54.3	-56.4	6.2	0.00e+00	0	54	104	0	80	18144
2026-01-28 10:10:28.51	286.42	50.88	-54.3	-56.5	6.2	0.00e+00	0	54	104	0	80	18208
2026-01-28 10:10:29.52	285.39	50.73	-54.3	-56.5	6.2	0.00e+00	0	54	104	0	80	18195
2026-01-28 10:10:30.52	284.37	50.58	-54.3	-56.5	6.2	0.00e+00	0	54	104	0	80	18209
2026-01-28 10:10:31.53	283.36	50.41	-54.3	-56.5	6.2	0.00e+00	0	54	104	0	80	18220
2026-01-28 10:10:32.53	282.37	50.23	-54.3	-56.5	6.2	0.00e+00	0	54	104	0	80	18240
2026-01-28 10:10:33.54	281.38	50.05	-54.3	-56.5	6.2	0.00e+00	0	54	104	0	80	18188
2026-01-28 10:10:34.55	280.40	49.86	-54.3	-56.4	6.2	0.00e+00	0	54	104	0	80	18150
2026-01-28 10:10:35.55	279.45	49.66	-54.3	-56.5	6.2	0.00e+00	0	54	104	0	80	18212
2026-01-28 10:10:36.56	278.50	49.45	-54.3	-56.5	6.2	0.00e+00	0	54	104	0	80	18206
2026-01-28 10:10:37.57	277.56	49.24	-54.3	-56.4	6.2	0.00e+00	0	54	104	0	80	18137
2026-01-28 10:10:38.57	276.65	49.02	-54.3	-56.5	6.2	0.00e+00	0	54	104	0	80	18195
2026-01-28 10:10:39.58	275.74	48.79	-54.3	-56.4	6.2	0.00e+00	0	54	104	0	80	18128
2026-01-28 10:10:40.59	274.84	48.56	-54.3	-56.4	6.2	0.00e+00	0	54	104	0	80	18177
2026-01-28 10:10:41.60	273.96	48.32	-54.3	-56.5	6.2	0.00e+00	0	54	104	0	80	18207
2026-01-28 10:10:42.61	273.09	48.07	-54.3	-56.4	6.2	0.00e+00	0	54	104	0	80	18109
2026-01-28 10:10:43.61	272.25	47.83	-54.3	-56.4	6.2	0.00e+00	0	54	104	0	80	18178
2026-01-28 10:10:44.62	271.41	47.57	-54.3	-56.5	6.2	0.00e+00	0	54	104	0	80	18204
2026-01-28 10:10:45.63	270.58	47.31	-54.3	-56.5	6.2	0.00e+00	0	54	104	0	80	18214
2026-01-28 10:10:46.64	269.77	47.05	-54.3	-56.4	6.2	0.00e+00	0	54	104	0	80	18125
2026-01-28 10:10:47.65	268.97	46.78	-54.3	-56.5	6.2	0.00e+00	0	54	104	0	80	18188
2026-01-28 10:10:48.65	268.20	46.51	-54.3	-56.4	6.2	0.00e+00	0	54	104	0	80	18151
2026-01-28 10:10:49.66	267.43	46.23	-54.3	-56.4	6.2	0.00e+00	0	54	104	0	80	18167
2026-01-28 10:10:50.66	266.68	45.96	-54.3	-56.4	6.2	0.00e+00	0	54	104	0	80	18167
2026-01-28 10:10:51.67	265.94	45.67	-54.3	-56.4	6.2	0.00e+00	0	54	104	0	80	18164
2026-01-28 10:10:52.68	265.21	45.39	-54.3	-56.4	6.2	0.00e+00	0	54	104	0	80	18137
2026-01-28 10:10:53.68	264.50	45.10	-54.3	-56.4	6.2	0.00e+00	0	54	104	0	80	18119
2026-01-28 10:10:54.69	263.80	44.81	-54.3	-56.4	6.2	0.00e+00	0	54	104	0	80	18162
2026-01-28 10:10:55.70	263.11	44.52	-54.3	-56.4	6.2	0.00e+00	0	54	104	0	80	18163
2026-01-28 10:10:56.71	262.44	44.23	-54.3	-56.4	6.2	0.00e+00	0	54	104	0	80	18159
2026-01-28 10:10:57.71	261.78	43.93	-54.3	-56.4	6.2	0.00e+00	0	54	104	0	80	18162
2026-01-28 10:10:58.72	261.13	43.64	-54.3	-56.4	6.2	0.00e+00	0	54	104	0	80	18158
2026-01-28 10:10:59.73	260.49	43.34	-54.3	-56.4	6.2	0.00e+00	0	54	104	0	80	18165
2026-01-28 10:11:00.74	259.87	43.04	-54.3	-56.4	6.2	0.00e+00	0	54	104	0	80	18145
2026-01-28 10:11:01.74	259.26	42.74	-54.3	-56.4	6.2	0.00e+00	0	54	104	0	80	18151
2026-01-28 10:11:02.75	258.66	42.44	-54.3	-56.4	6.2	0.00e+00	0	54	104	0	80	18136
2026-01-28 10:11:03.77	258.07	42.13	-54.3	-56.4	6.2	0.00e+00	0	54	104	0	80	18162
2026-01-28 10:11:04.77	257.49	41.83	-54.3	-56.5	6.2	0.00e+00	0	54	104	0	80	18200
2026-01-28 10:11:05.78	256.93	41.53	-54.3	-56.4	6.2	0.00e+00	0	54	104	0	80	18179
2026-01-28 10:11:06.79	256.37	41.23	-54.3	-56.5	6.2	0.00e+00	0	54	104	0	80	18211
2026-01-28 10:11:07.80	255.83	40.92	-54.3	-56.4	6.2	0.00e+00	0	54	104	0	80	18118
2026-01-28 10:11:08.80	255.30	40.62	-54.3	-56.4	6.2	0.00e+00	0	54	104	0	80	18105
2026-01-28 10:11:09.81	254.77	40.32	-54.3	-56.4	6.2	0.00e+00	0	54	104	0	80	18170
2026-01-28 10:11:10.82	254.26	40.02	-54.3	-56.4	6.2	0.00e+00	0	54	104	0	80	18150
2026-01-28 10:11:11.83	253.76	39.72	-54.3	-56.4	6.2	0.00e+00	0	54	104	0	80	18130
2026-01-28 10:11:12.84	253.26	39.41	-54.3	-56.4	6.2	0.00e+00	0	54	104	0	80	18133
2026-01-28 10:11:13.85	252.78	39.11	-54.3	-56.4	6.2	0.00e+00	0	54	104	0	80	18084
2026-01-28 10:11:14.85	252.31	38.82	-54.3	-56.4	6.2	0.00e+00	0	54	104	0	80	18169
2026-01-28 10:11:15.86	251.84	38.52	-54.3	-56.5	6.2	0.00e+00	0	54	104	0	80	18202
2026-01-28 10:11:16.86	251.39	38.22	-54.3	-56.4	6.2	0.00e+00	0	54	104	0	80	18149
2026-01-28 10:11:17.87	250.94	37.92	-54.3	-56.4	6.2	0.00e+00	0	54	104	0	80	18112
2026-01-28 10:11:18.88	250.50	37.63	-54.3	-56.4	6.2	0.00e+00	0	54	104	0	80	18153
2026-01-28 10:11:19.89	250.07	37.33	-54.3	-56.4	6.2	0.00e+00	0	54	104	0	80	18131
2026-01-28 10:11:20.90	249.64	37.04	-54.3	-56.4	6.2	0.00e+00	0	54	104	0	80	18137
2026-01-28 10:11:21.91	249.23	36.75	-54.3	-56.4	6.2	0.00e+00	0	54	104	0	80	18059
2026-01-28 10:11:22.91	248.82	36.46	-54.3	-56.4	6.2	0.00e+00	0	54	104	0	80	18070
2026-01-28 10:11:23.92	248.42	36.17	-54.3	-56.4	6.2	0.00e+00	0	54	104	0	80	18103
2026-01-28 10:11:24.93	248.03	35.88	-54.3	-56.4	6.2	0.00e+00	0	54	104	0	80	18147
2026-01-28 10:11:25.94	247.64	35.59	-54.3	-56.4	6.2	0.00e+00	0	54	104	0	80	18121
2026-01-28 10:11:26.94	247.27	35.31	-54.3	-56.4	6.2	0.00e+00	0	54	104	0	80	18105
2026-01-28 10:11:27.95	246.90	35.03	-54.3	-56.4	6.2	0.00e+00	0	54	104	0	80	18109
2026-01-28 10:11:28.96	246.53	34.75	-54.3	-56.4	6.2	0.00e+00	0	54	104	0	80	18116
2026-01-28 10:11:29.97	246.18	34.47	-54.3	-56.4	6.2	0.00e+00	0	54	104	0	80	18128
2026-01-28 10:11:30.98	245.82	34.19	-54.3	-56.4	6.2	0.00e+00	0	54	104	0	80	18119
2026-01-28 10:11:31.99	245.48	33.91	-54.3	-56.4	6.2	0.00e+00	0	54	104	0	80	18128
2026-01-28 10:11:33.00	245.14	33.64	-54.3	-56.4	6.2	0.00e+00	0	54	104	0	80	18169
2026-01-28 10:11:34.01	244.81	33.36	-54.3	-56.4	6.2	0.00e+00	0	54	104	0	80	18121
2026-01-28 10:11:35.01	244.48	33.09	-54.3	-56.4	6.2	0.00e+00	0	54	104	0	80	18099
2026-01-28 10:11:36.02	244.16	32.82	-54.3	-56.4	6.2	0.00e+00	0	54	104	0	80	18151
2026-01-28 10:11:37.03	243.85	32.56	-54.3	-56.4	6.2	0.00e+00	0	54	104	0	80	18146
2026-01-28 10:11:38.04	243.54	32.29	-54.3	-56.4	6.2	0.00e+00	0	54	104	0	80	18096
2026-01-28 10:11:39.04	243.24	32.03	-54.3	-56.4	6.2	0.00e+00	0	54	104	0	80	18065
2026-01-28 10:11:40.05	242.94	31.77	-54.3	-56.4	6.2	0.00e+00	0	54	104	0	80	18159
2026-01-28 10:11:41.06	242.64	31.51	-54.3	-56.4	6.2	0.00e+00	0	54	104	0	80	18130
2026-01-28 10:11:42.07	242.35	31.25	-54.3	-56.4	6.2	0.00e+00	0	54	104	0	80	18080
2026-01-28 10:11:43.07	242.07	30.99	-54.3	-56.4	6.2	0.00e+00	0	54	104	0	80	18087
2026-01-28 10:11:44.08	241.79	30.74	-54.3	-56.4	6.2	0.00e+00	0	54	104	0	80	18063
2026-01-28 10:11:45.09	241.52	30.49	-54.3	-56.4	6.2	0.00e+00	0	54	104	0	80	18125
2026-01-28 10:11:46.10	241.25	30.24	-54.3	-56.4	6.2	0.00e+00	0	54	104	0	80	18082
2026-01-28 10:11:47.11	240.98	29.99	-54.3	-56.4	6.2	0.00e+00	0	54	104	0	80	18060
2026-01-28 10:11:48.11	240.73	29.74	-54.3	-56.4	6.2	0.00e+00	0	54	104	0	80	18058
2026-01-28 10:11:49.12	240.47	29.50	-54.3	-56.4	6.2	0.00e+00	0	54	104	0	80	18048
2026-01-28 10:11:50.13	240.22	29.25	-54.3	-56.4	6.2	0.00e+00	0	54	104	0	80	18054
2026-01-28 10:11:51.14	239.97	29.01	-54.3	-56.4	6.2	0.00e+00	0	54	104	0	80	18084
2026-01-28 10:11:52.14	239.73	28.78	-54.3	-56.4	6.2	0.00e+00	0	54	104	0	80	18086
2026-01-28 10:11:53.15	239.49	28.54	-54.3	-56.4	6.2	0.00e+00	0	54	104	0	80	18038
2026-01-28 10:11:54.16	239.25	28.30	-54.3	-56.4	6.2	0.00e+00	0	54	104	0	80	18030
2026-01-28 10:11:55.17	239.02	28.07	-54.3	-56.4	6.2	0.00e+00	0	54	104	0	80	18044
2026-01-28 10:11:56.17	238.79	27.84	-54.3	-56.4	6.2	0.00e+00	0	54	104	0	80	18045
2026-01-28 10:11:57.18	238.56	27.61	-54.3	-56.4	6.2	0.00e+00	0	54	104	0	80	18032
2026-01-28 10:11:58.19	238.34	27.38	-54.3	-56.4	6.2	0.00e+00	0	54	104	0	80	18049
2026-01-28 10:11:59.20	238.12	27.15	-54.3	-56.4	6.2	0.00e+00	0	54	104	0	80	18057
2026-01-28 10:12:00.21	237.91	26.93	-54.3	-56.4	6.2	0.00e+00	0	54	104	0	80	18022
2026-01-28 10:12:01.21	237.70	26.71	-54.3	-56.4	6.2	0.00e+00	0	54	104	0	80	18079
2026-01-28 10:12:02.22	237.49	26.49	-54.3	-56.4	6.2	0.00e+00	0	54	104	0	80	18030
2026-01-28 10:12:03.22	237.29	26.27	-54.3	-56.4	6.2	0.00e+00	0	54	104	0	80	18125
2026-01-28 10:12:04.23	237.09	26.05	-54.3	-56.4	6.2	0.00e+00	0	54	104	0	80	18044
2026-01-28 10:12:05.24	236.89	25.83	-54.3	-56.4	6.2	0.00e+00	0	54	104	0	80	18062
2026-01-28 10:12:06.25	236.69	25.62	-54.3	-56.4	6.2	0.00e+00	0	54	104	0	80	17998
2026-01-28 10:12:07.26	236.50	25.41	-54.3	-56.4	6.2	0.00e+00	0	54	104	0	80	18059
2026-01-28 10:12:08.27	236.31	25.20	-54.3	-56.4	6.2	0.00e+00	0	54	104	0	80	18031
2026-01-28 10:12:09.27	236.12	24.99	-54.3	-56.4	6.2	0.00e+00	0	54	104	0	80	18015
2026-01-28 10:12:10.28	235.94	24.78	-54.2	-56.4	6.2	0.00e+00	0	54	104	0	80	18035
2026-01-28 10:12:11.29	235.75	24.58	-54.3	-56.4	6.2	0.00e+00	0	54	104	0	80	18069
2026-01-28 10:12:12.30	235.57	24.37	-54.2	-56.4	6.2	0.00e+00	0	54	104	0	80	18013
2026-01-28 10:12:13.31	235.40	24.17	-54.2	-56.4	6.2	0.00e+00	0	54	104	0	80	18028
2026-01-28 10:12:14.31	235.23	23.97	-54.2	-56.4	6.2	0.00e+00	0	54	104	0	80	18026
2026-01-28 10:12:15.32	235.05	23.77	-54.2	-56.4	6.2	0.00e+00	0	54	104	0	80	17997
2026-01-28 10:12:16.33	234.88	23.57	-54.2	-56.4	6.2	0.00e+00	0	54	104	0	80	18048
2026-01-28 10:12:17.34	234.72	23.38	-54.2	-56.4	6.2	0.00e+00	0	54	104	0	80	17994
2026-01-28 10:12:18.34	234.55	23.19	-54.3	-56.4	6.2	0.00e+00	0	54	104	0	80	18032
2026-01-28 10:12:19.35	234.39	22.99	-54.3	-56.3	6.2	0.00e+00	0	54	104	0	80	17952
2026-01-28 10:12:20.36	234.23	22.80	-54.3	-56.4	6.2	0.00e+00	0	54	104	0	80	18042
2026-01-28 10:12:21.37	234.07	22.61	-54.2	-56.4	6.2	0.00e+00	0	54	104	0	80	18024
2026-01-28 10:12:22.38	233.92	22.42	-54.2	-56.4	6.2	0.00e+00	0	54	104	0	80	18010
2026-01-28 10:12:23.39	233.77	22.24	-54.2	-56.4	6.2	0.00e+00	0	54	104	0	80	18028
2026-01-28 10:12:24.39	233.62	22.05	-54.2	-56.4	6.2	0.00e+00	0	54	104	0	80	17981
2026-01-28 10:12:25.40	233.47	21.87	-54.2	-56.4	6.2	0.00e+00	0	54	104	0	80	18056
2026-01-28 10:12:26.41	233.32	21.69	-54.2	-56.4	6.2	0.00e+00	0	54	104	0	80	18021
2026-01-28 10:12:27.41	233.17	21.51	-54.3	-56.4	6.2	0.00e+00	0	54	104	0	80	18039
2026-01-28 10:12:28.42	233.03	21.33	-54.2	-56.4	6.2	0.00e+00	0	54	104	0	80	18027
2026-01-28 10:12:29.43	232.89	21.15	-54.2	-56.4	6.2	0.00e+00	0	54	104	0	80	18068
2026-01-28 10:12:30.44	232.75	20.97	-54.2	-56.4	6.2	0.00e+00	0	54	104	0	80	18027
2026-01-28 10:12:31.44	232.61	20.80	-54.2	-56.4	6.2	0.00e+00	0	54	104	0	80	18027
2026-01-28 10:12:32.45	232.48	20.62	-54.2	-56.4	6.2	0.00e+00	0	54	104	0	80	18010
2026-01-28 10:12:33.46	232.34	20.45	-54.2	-56.4	6.2	0.00e+00	0	54	104	0	80	18043
2026-01-28 10:12:34.47	232.21	20.28	-54.3	-56.4	6.2	0.00e+00	0	54	104	0	80	18075
2026-01-28 10:12:35.48	232.08	20.11	-54.2	-56.4	6.2	0.00e+00	0	54	104	0	80	18004
2026-01-28 10:12:36.49	231.95	19.94	-54.3	-56.4	6.2	0.00e+00	0	54	104	0	80	18030
2026-01-28 10:12:37.49	231.82	19.77	-54.3	-56.4	6.2	0.00e+00	0	54	104	0	80	18030
2026-01-28 10:12:38.50	231.70	19.61	-54.3	-56.4	6.2	0.00e+00	0	54	104	0	80	18036
2026-01-28 10:12:39.51	231.57	19.44	-54.2	-56.4	6.2	0.00e+00	0	54	104	0	80	18039
2026-01-28 10:12:40.52	231.45	19.28	-54.2	-56.4	6.2	0.00e+00	0	54	104	0	80	17976
2026-01-28 10:12:41.53	231.33	19.12	-54.2	-56.4	6.2	0.00e+00	0	54	104	0	80	18043
2026-01-28 10:12:42.53	231.21	18.96	-54.2	-56.4	6.2	0.00e+00	0	54	104	0	80	18041
2026-01-28 10:12:43.54	231.09	18.80	-54.2	-56.4	6.2	0.00e+00	0	54	104	0	80	17982
2026-01-28 10:12:44.55	230.98	18.64	-54.2	-56.4	6.2	0.00e+00	0	54	104	0	80	18020
2026-01-28 10:12:45.56	230.86	18.48	-54.2	-56.4	6.2	0.00e+00	0	54	104	0	80	18004
2026-01-28 10:12:46.57	230.75	18.32	-54.2	-56.4	6.2	0.00e+00	0	54	104	0	80	18036
2026-01-28 10:12:47.58	230.63	18.17	-54.2	-56.4	6.2	0.00e+00	0	54	104	0	80	18011
2026-01-28 10:12:48.59	230.52	18.01	-54.2	-56.4	6.2	0.00e+00	0	54	104	0	80	18031
2026-01-28 10:12:49.59	230.41	17.86	-54.2	-56.4	6.2	0.00e+00	0	54	104	0	80	17972
2026-01-28 10:12:50.60	230.30	17.71	-54.2	-56.4	6.2	0.00e+00	0	54	104	0	80	17992
2026-01-28 10:12:51.61	230.20	17.56	-54.2	-56.4	6.2	0.00e+00	0	54	104	0	80	17986
2026-01-28 10:12:52.62	230.09	17.41	-54.2	-56.4	6.2	0.00e+00	0	54	104	0	80	18028
2026-01-28 10:12:53.63	229.99	17.26	-54.2	-56.4	6.2	0.00e+00	0	54	104	0	80	17985
2026-01-28 10:12:54.64	229.88	17.11	-54.2	-56.3	6.2	0.00e+00	0	54	104	0	80	17968
2026-01-28 10:12:55.64	229.78	16.96	-54.2	-56.3	6.2	0.00e+00	0	54	104	0	80	17953
2026-01-28 10:12:56.65	229.68	16.82	-54.2	-56.4	6.2	0.00e+00	0	54	104	0	80	18033
2026-01-28 10:12:57.66	229.58	16.67	-54.2	-56.4	6.2	0.00e+00	0	54	104	0	80	18012
2026-01-28 10:12:58.67	229.48	16.53	-54.2	-56.3	6.2	0.00e+00	0	54	104	0	80	17944
2026-01-28 10:12:59.68	229.38	16.39	-54.2	-56.3	6.2	0.00e+00	0	54	104	0	80	17971
2026-01-28 10:13:00.68	229.29	16.24	-54.2	-56.4	6.2	0.00e+00	0	54	104	0	80	18002
2026-01-28 10:13:01.69	229.19	16.10	-54.2	-56.4	6.2	0.00e+00	0	54	104	0	80	18022
2026-01-28 10:13:02.70	229.10	15.96	-54.2	-56.4	6.2	0.00e+00	0	54	104	0	80	17981
2026-01-28 10:13:03.71	229.00	15.82	-54.2	-56.4	6.2	0.00e+00	0	54	104	0	80	17975
2026-01-28 10:13:04.71	228.91	15.69	-54.2	-56.3	6.2	0.00e+00	0	54	104	0	80	17922
2026-01-28 10:13:05.72	228.82	15.55	-54.2	-56.3	6.2	0.00e+00	0	54	104	0	80	17936
2026-01-28 10:13:06.73	228.73	15.41	-54.2	-56.4	6.2	0.00e+00	0	54	104	0	80	17998
2026-01-28 10:13:07.73	228.64	15.28	-54.2	-56.3	6.2	0.00e+00	0	54	104	0	80	17955
2026-01-28 10:13:08.74	228.55	15.15	-54.2	-56.3	6.2	0.00e+00	0	54	104	0	80	17936
2026-01-28 10:13:09.75	228.47	15.01	-54.2	-56.3	6.2	0.00e+00	0	54	104	0	80	17929
2026-01-28 10:13:10.75	228.38	14.88	-54.2	-56.3	6.2	0.00e+00	0	54	104	0	80	17928
2026-01-28 10:13:11.76	228.29	14.75	-54.2	-56.3	6.2	0.00e+00	0	54	104	0	80	17931
2026-01-28 10:13:12.77	228.21	14.62	-54.2	-56.3	6.2	0.00e+00	0	54	104	0	80	17938
2026-01-28 10:13:13.78	228.13	14.49	-54.2	-56.3	6.2	0.00e+00	0	54	104	0	80	17951
2026-01-28 10:13:14.78	228.04	14.36	-54.2	-56.4	6.2	0.00e+00	0	54	104	0	80	17973
2026-01-28 10:13:15.79	227.96	14.23	-54.2	-56.3	6.2	0.00e+00	0	54	104	0	80	17912
2026-01-28 10:13:16.79	227.88	14.11	-54.2	-56.3	6.2	0.00e+00	0	54	104	0	80	17948
2026-01-28 10:13:17.80	227.80	13.98	-54.2	-56.4	6.2	0.00e+00	0	54	104	0	80	18004
2026-01-28 10:13:18.81	227.72	13.85	-54.2	-56.3	6.2	0.00e+00	0	54	104	0	80	17950
2026-01-28 10:13:19.82	227.64	13.73	-54.2	-56.4	6.2	0.00e+00	0	54	104	0	80	18000
2026-01-28 10:13:20.82	227.57	13.60	-54.2	-56.3	6.2	0.00e+00	0	54	104	0	80	17925
2026-01-28 10:13:21.83	227.49	13.48	-54.2	-56.3	6.2	0.00e+00	0	54	104	0	80	17891
2026-01-28 10:13:22.84	227.41	13.36	-54.2	-56.3	6.2	0.00e+00	0	54	104	0	80	17954
2026-01-28 10:13:23.84	227.34	13.24	-54.2	-56.3	6.2	0.00e+00	0	54	104	0	80	17905
2026-01-28 10:13:24.85	227.26	13.12	-54.2	-56.3	6.2	0.00e+00	0	54	104	0	80	17938
2026-01-28 10:13:25.86	227.19	12.99	-54.2	-56.3	6.2	0.00e+00	0	54	104	0	80	17926
2026-01-28 10:13:26.87	227.12	12.87	-54.2	-56.3	6.2	0.00e+00	0	54	104	0	80	17899
2026-01-28 10:13:27.87	227.04	12.76	-54.2	-56.3	6.2	0.00e+00	0	54	104	0	80	17930
2026-01-28 10:13:28.88	226.97	12.64	-54.2	-56.3	6.2	0.00e+00	0	54	104	0	80	17964
2026-01-28 10:13:29.88	226.90	12.52	-54.2	-56.4	6.2	0.00e+00	0	54	104	0	80	17981
2026-01-28 10:13:30.89	226.83	12.40	-54.2	-56.3	6.2	0.00e+00	0	54	104	0	80	17951
2026-01-28 10:13:31.90	226.76	12.29	-54.2	-56.3	6.2	0.00e+00	0	54	104	0	80	17931
2026-01-28 10:13:32.90	226.69	12.17	-54.2	-56.3	6.2	0.00e+00	0	54	104	0	80	17936
2026-01-28 10:13:33.91	226.63	12.06	-54.2	-56.3	6.2	0.00e+00	0	54	104	0	80	17915
2026-01-28 10:13:34.91	226.56	11.94	-54.2	-56.3	6.2	0.00e+00	0	54	104	0	80	17879
2026-01-28 10:13:35.92	226.49	11.83	-54.2	-56.3	6.2	0.00e+00	0	54	104	0	80	17824
2026-01-28 10:13:36.93	226.43	11.72	-54.2	-56.3	6.2	0.00e+00	0	54	104	0	80	17892
2026-01-28 10:13:37.94	226.36	11.61	-54.1	-56.3	6.2	0.00e+00	0	54	104	0	80	17844
2026-01-28 10:13:38.95	226.29	11.49	-54.2	-56.3	6.2	0.00e+00	0	54	104	0	80	17903
2026-01-28 10:13:39.95	226.23	11.38	-54.2	-56.3	6.2	0.00e+00	0	54	104	0	80	17877
2026-01-28 10:13:40.96	226.17	11.27	-54.2	-56.3	6.2	0.00e+00	0	54	104	0	80	17903
2026-01-28 10:13:41.97	226.10	11.16	-54.2	-56.3	6.2	0.00e+00	0	54	104	0	80	17837
2026-01-28 10:13:42.98	226.04	11.05	-54.2	-56.3	6.2	0.00e+00	0	54	104	0	80	17867
2026-01-28 10:13:43.99	225.98	10.95	-54.1	-56.3	6.2	0.00e+00	0	54	104	0	80	17849
2026-01-28 10:13:44.99	225.92	10.84	-54.1	-56.3	6.2	0.00e+00	0	54	104	0	80	17814
2026-01-28 10:13:46.00	225.86	10.73	-54.1	-56.3	6.2	0.00e+00	0	54	104	0	80	17791
2026-01-28 10:13:47.01	225.80	10.62	-54.1	-56.3	6.2	0.00e+00	0	54	104	0	80	17814
2026-01-28 10:13:48.02	225.74	10.52	-54.1	-56.3	6.2	0.00e+00	0	54	104	0	80	17782
2026-01-28 10:13:49.03	225.68	10.41	-54.1	-56.3	6.2	0.00e+00	0	54	104	0	80	17794
2026-01-28 10:13:50.03	225.62	10.31	-54.1	-56.3	6.2	0.00e+00	0	54	104	0	80	17795
2026-01-28 10:13:51.04	225.56	10.20	-54.1	-56.2	6.2	0.00e+00	0	54	104	0	80	17749
2026-01-28 10:13:52.05	225.50	10.10	-54.1	-56.2	6.2	0.00e+00	0	54	104	0	80	17742
2026-01-28 10:13:53.05	225.45	10.00	-54.1	-56.3	6.2	0.00e+00	0	54	104	0	80	17768
2026-01-28 10:13:54.06	225.39	9.89	-54.1	-56.3	6.2	0.00e+00	0	54	104	0	80	17773
2026-01-28 10:13:55.07	225.34	9.79	-54.1	-56.2	6.2	0.00e+00	0	54	104	0	80	17741
2026-01-28 10:13:56.07	225.28	9.69	-54.1	-56.2	6.2	0.00e+00	0	54	104	0	80	17750
2026-01-28 10:13:57.07	225.23	9.59	-54.1	-56.2	6.2	0.00e+00	0	54	104	0	80	17710
2026-01-28 10:13:58.08	225.17	9.49	-54.1	-56.3	6.2	0.00e+00	0	54	104	0	80	17801
2026-01-28 10:13:59.09	225.12	9.39	-54.1	-56.2	6.2	0.00e+00	0	54	104	0	80	17714
2026-01-28 10:14:00.09	225.06	9.29	-54.1	-56.3	6.2	0.00e+00	0	54	104	0	80	17783
2026-01-28 10:14:01.09	225.01	9.19	-54.1	-56.2	6.2	0.00e+00	0	54	104	0	80	17749
2026-01-28 10:14:02.10	224.96	9.09	-54.1	-56.2	6.2	0.00e+00	0	54	104	0	80	17673
2026-01-28 10:14:03.10	224.91	8.99	-54.1	-56.2	6.2	0.00e+00	0	54	104	0	80	17742
2026-01-28 10:14:04.11	224.86	8.90	-54.1	-56.2	6.2	0.00e+00	0	54	104	0	80	17746
2026-01-28 10:14:05.12	224.80	8.80	-54.1	-56.3	6.2	0.00e+00	0	54	104	0	80	17792
2026-01-28 10:14:06.13	224.75	8.70	-54.1	-56.2	6.2	0.00e+00	0	54	104	0	80	17739
2026-01-28 10:14:07.14	224.70	8.61	-54.1	-56.2	6.2	0.00e+00	0	54	104	0	80	17726
2026-01-28 10:14:08.15	224.65	8.51	-54.1	-56.2	6.2	0.00e+00	0	54	104	0	80	17715
2026-01-28 10:14:09.15	224.60	8.42	-54.1	-56.2	6.2	0.00e+00	0	54	104	0	80	17731
2026-01-28 10:14:10.16	224.56	8.32	-54.1	-56.2	6.2	0.00e+00	0	54	104	0	80	17696
2026-01-28 10:14:11.17	224.51	8.23	-54.1	-56.2	6.2	0.00e+00	0	54	104	0	80	17734
2026-01-28 10:14:12.18	224.46	8.13	-54.1	-56.2	6.2	0.00e+00	0	54	104	0	80	17696
2026-01-28 10:14:13.18	224.41	8.04	-54.1	-56.2	6.2	0.00e+00	0	54	104	0	80	17736
2026-01-28 10:14:14.19	224.36	7.95	-54.1	-56.2	6.2	0.00e+00	0	54	104	0	80	17711
2026-01-28 10:14:15.19	224.32	7.85	-54.1	-56.2	6.2	0.00e+00	0	54	104	0	80	17703
2026-01-28 10:14:16.20	224.27	7.76	-54.1	-56.2	6.2	0.00e+00	0	54	104	0	80	17765
2026-01-28 10:14:17.21	224.22	7.67	-54.1	-56.2	6.2	0.00e+00	0	54	104	0	80	17731
2026-01-28 10:14:18.21	224.18	7.58	-54.1	-56.2	6.2	0.00e+00	0	54	104	0	80	17748
2026-01-28 10:14:19.22	224.13	7.49	-54.1	-56.2	6.2	0.00e+00	0	54	104	0	80	17749
2026-01-28 10:14:20.23	224.09	7.40	-54.1	-56.2	6.2	0.00e+00	0	54	104	0	80	17694
2026-01-28 10:14:21.24	224.04	7.31	-54.1	-56.2	6.2	0.00e+00	0	54	104	0	80	17703
2026-01-28 10:14:22.25	224.00	7.22	-54.1	-56.2	6.2	0.00e+00	0	54	104	0	80	17737
2026-01-28 10:14:23.25	223.95	7.13	-54.1	-56.2	6.2	0.00e+00	0	54	104	0	80	17723
2026-01-28 10:14:24.26	223.91	7.04	-54.1	-56.2	6.2	0.00e+00	0	54	104	0	80	17677
2026-01-28 10:14:25.26	223.87	6.95	-54.1	-56.2	6.2	0.00e+00	0	54	104	0	80	17754
2026-01-28 10:14:26.27	223.83	6.86	-54.1	-56.2	6.2	0.00e+00	0	54	104	0	80	17718
2026-01-28 10:14:27.28	223.78	6.77	-54.1	-56.2	6.2	0.00e+00	0	54	104	0	80	17725
2026-01-28 10:14:28.29	223.74	6.69	-54.1	-56.2	6.2	0.00e+00	0	54	104	0	80	17735
2026-01-28 10:14:29.29	223.70	6.60	-54.1	-56.2	6.2	0.00e+00	0	54	104	0	80	17699
2026-01-28 10:14:30.31	223.66	6.51	-54.1	-56.2	6.2	0.00e+00	0	54	104	0	80	17719
2026-01-28 10:14:31.31	223.62	6.43	-54.1	-56.2	6.2	0.00e+00	0	54	104	0	80	17698
2026-01-28 10:14:32.32	223.57	6.34	-54.1	-56.2	6.2	0.00e+00	0	54	104	0	80	17735
2026-01-28 10:14:33.33	223.53	6.26	-54.1	-56.2	6.2	0.00e+00	0	54	104	0	80	17694
2026-01-28 10:14:34.34	223.49	6.17	-54.1	-56.2	6.2	0.00e+00	0	54	104	0	80	17744
2026-01-28 10:14:35.34	223.45	6.09	-54.1	-56.2	6.2	0.00e+00	0	54	104	0	80	17693
2026-01-28 10:14:36.35	223.41	6.00	-54.1	-56.2	6.2	0.00e+00	0	54	104	0	80	17676
2026-01-28 10:14:37.36	223.38	5.92	-54.1	-56.2	6.2	0.00e+00	0	54	104	0	80	17687
2026-01-28 10:14:38.37	223.34	5.83	-54.1	-56.2	6.2	0.00e+00	0	54	104	0	80	17657
2026-01-28 10:14:39.38	223.30	5.75	-54.1	-56.2	6.2	0.00e+00	0	54	104	0	80	17715
2026-01-28 10:14:40.39	223.26	5.67	-54.1	-56.2	6.2	0.00e+00	0	54	104	0	80	17731
2026-01-28 10:14:41.40	223.22	5.58	-54.1	-56.2	6.2	0.00e+00	0	54	104	0	80	17738
2026-01-28 10:14:42.41	223.18	5.50	-54.1	-56.2	6.2	0.00e+00	0	54	104	0	80	17710
2026-01-28 10:14:43.42	223.15	5.42	-54.1	-56.2	6.2	0.00e+00	0	54	104	0	80	17737
2026-01-28 10:14:44.42	223.11	5.34	-54.1	-56.2	6.2	0.00e+00	0	54	104	0	80	17701
2026-01-28 10:14:45.43	223.07	5.26	-54.1	-56.2	6.2	0.00e+00	0	54	104	0	80	17635
2026-01-28 10:14:46.44	223.03	5.17	-54.1	-56.2	6.2	0.00e+00	0	54	104	0	80	17685
2026-01-28 10:14:47.45	223.00	5.09	-54.1	-56.2	6.2	0.00e+00	0	54	104	0	80	17666
2026-01-28 10:14:48.46	222.96	5.01	-54.1	-56.2	6.2	0.00e+00	0	54	104	0	80	17709
2026-01-28 10:14:49.47	222.93	4.93	-54.1	-56.2	6.2	0.00e+00	0	54	104	0	80	17651
2026-01-28 10:14:50.47	222.89	4.85	-54.1	-56.2	6.2	0.00e+00	0	54	104	0	80	17667
2026-01-28 10:14:51.48	222.86	4.77	-54.1	-56.2	6.2	0.00e+00	0	54	104	0	80	17643
2026-01-28 10:14:52.49	222.82	4.69	-54.1	-56.2	6.2	0.00e+00	0	54	104	0	80	17629
2026-01-28 10:14:53.50	222.79	4.62	-54.1	-56.2	6.2	0.00e+00	0	54	104	0	80	17676
2026-01-28 10:14:54.50	222.75	4.54	-54.1	-56.2	6.2	0.00e+00	0	54	104	0	80	17692
2026-01-28 10:14:55.51	222.72	4.46	-54.1	-56.2	6.2	0.00e+00	0	54	104	0	80	17627
2026-01-28 10:14:56.52	222.68	4.38	-54.1	-56.2	6.2	0.00e+00	0	54	104	0	80	17616
2026-01-28 10:14:57.53	222.65	4.30	-54.1	-56.2	6.2	0.00e+00	0	54	104	0	80	17646
2026-01-28 10:14:58.53	222.62	4.23	-54.1	-56.2	6.2	0.00e+00	0	54	104	0	80	17607
2026-01-28 10:14:59.54	222.58	4.15	-54.1	-56.2	6.2	0.00e+00	0	54	104	0	80	17664
2026-01-28 10:15:00.55	222.55	4.07	-54.1	-56.2	6.2	0.00e+00	0	54	104	0	80	17630
2026-01-28 10:15:01.55	222.52	4.00	-54.1	-56.2	6.2	0.00e+00	0	54	104	0	80	17612
2026-01-28 10:15:02.56	222.48	3.92	-54.1	-56.2	6.2	0.00e+00	0	54	104	0	80	17638
2026-01-28 10:15:03.57	222.45	3.84	-54.1	-56.2	6.2	0.00e+00	0	54	104	0	80	17619
2026-01-28 10:15:04.58	222.42	3.77	-54.1	-56.2	6.2	0.00e+00	0	54	104	0	80	17664
2026-01-28 10:15:05.59	222.39	3.69	-54.1	-56.2	6.2	0.00e+00	0	54	104	0	80	17668
2026-01-28 10:15:06.59	222.36	3.62	-54.1	-56.2	6.2	0.00e+00	0	54	104	0	80	17666
2026-01-28 10:15:07.60	222.33	3.54	-54.1	-56.2	6.2	0.00e+00	0	54	104	0	80	17624
2026-01-28 10:15:08.60	222.29	3.47	-54.1	-56.2	6.2	0.00e+00	0	54	104	0	80	17583
2026-01-28 10:15:09.62	222.26	3.39	-54.1	-56.2	6.2	0.00e+00	0	54	104	0	80	17609
2026-01-28 10:15:10.63	222.23	3.32	-54.1	-56.2	6.2	0.00e+00	0	54	104	0	80	17631
2026-01-28 10:15:11.63	222.20	3.24	-54.1	-56.2	6.2	0.00e+00	0	54	104	0	80	17644
2026-01-28 10:15:12.64	222.17	3.17	-54.1	-56.2	6.2	0.00e+00	0	54	104	0	80	17661
2026-01-28 10:15:13.65	222.14	3.10	-54.1	-56.2	6.2	0.00e+00	0	54	104	0	80	17664
2026-01-28 10:15:14.66	222.11	3.02	-54.1	-56.2	6.2	0.00e+00	0	54	104	0	80	17621
2026-01-28 10:15:15.67	222.08	2.95	-54.1	-56.2	6.2	0.00e+00	0	54	104	0	80	17626
2026-01-28 10:15:16.67	222.05	2.88	-54.1	-56.2	6.2	0.00e+00	0	54	104	0	80	17605
2026-01-28 10:15:17.68	222.02	2.81	-54.1	-56.2	6.2	0.00e+00	0	54	104	0	80	17653
2026-01-28 10:15:18.69	221.99	2.73	-54.1	-56.2	6.2	0.00e+00	0	54	104	0	80	17614
2026-01-28 10:15:19.70	221.97	2.66	-54.1	-56.2	6.2	0.00e+00	0	54	104	0	80	17576
2026-01-28 10:15:20.71	221.94	2.59	-54.1	-56.2	6.2	0.00e+00	0	54	104	0	80	17586
2026-01-28 10:15:21.71	221.91	2.52	-54.1	-56.2	6.2	0.00e+00	0	54	104	0	80	17623
2026-01-28 10:15:22.72	221.88	2.45	-54.1	-56.2	6.2	0.00e+00	0	54	104	0	80	17618
2026-01-28 10:15:23.73	221.85	2.38	-54.1	-56.2	6.2	0.00e+00	0	54	104	0	80	17611
2026-01-28 10:15:24.74	221.82	2.30	-54.0	-56.2	6.2	0.00e+00	0	54	104	0	80	17614
2026-01-28 10:15:25.74	221.80	2.23	-54.1	-56.2	6.2	0.00e+00	0	54	104	0	80	17630
2026-01-28 10:15:26.75	221.77	2.16	-54.1	-56.2	6.2	0.00e+00	0	54	104	0	80	17641
2026-01-28 10:15:27.76	221.74	2.09	-54.1	-56.2	6.2	0.00e+00	0	54	104	0	80	17608
2026-01-28 10:15:28.77	221.71	2.02	-54.1	-56.2	6.2	0.00e+00	0	54	104	0	80	17629
2026-01-28 10:15:29.78	221.69	1.95	-54.0	-56.2	6.2	0.00e+00	0	54	104	0	80	17643

#Closed at: 2026-01-28 10:15:30
#Recorded file [0 MB]: D:/lorett/data/31041_260128_130458.dat