passes_logs/2026/01/28/R3.2S_Murmansk/R3.2S_Murmansk__20260128_013825_NOAA_21_JPSS-2_rec.log

#Pass ID: 20260128_013825_NOAA 21 (JPSS-2)
#Satellite: NOAA 21 (JPSS-2)
#Configuration: NOAA-21
#almurnet v.1.7.20251203
#Start time: 2026-01-28 01:38:25

#Version: 2.2.20231116
#Station: R3.2S_Murmansk
#Location: 33.079688 lon 68.888172 lat
#TLE: 1 54234U 22150A   26027.27712747  .00000181  00000+0  10656-3 0  9992
#TLE: 2 54234  98.7510 328.0291 0000845 205.5277 154.5858 14.19540098166550

#Time	Az	El	Level	Level2	SNR	BER	BlckErr	Temp	State	Recorded	gain1	gain2
2026-01-28 01:38:25.87	28.73	2.04	-53.8	-66.5	3.8	1.49e+00	0	41	0	0	78	16189
2026-01-28 01:38:26.87	28.71	2.10	-53.2	-66.0	3.8	1.49e+00	0	41	104	0	77	16270
2026-01-28 01:38:27.87	28.69	2.17	-52.9	-65.7	3.8	1.49e+00	0	41	104	0	77	15665
2026-01-28 01:38:28.88	28.67	2.23	-52.7	-65.4	3.8	1.49e+00	0	41	104	0	77	15152
2026-01-28 01:38:29.89	28.65	2.30	-52.2	-64.9	3.8	1.49e+00	0	41	104	0	76	15161
2026-01-28 01:38:30.90	28.62	2.36	-51.9	-64.5	3.8	1.49e+00	0	41	104	0	75	15360
2026-01-28 01:38:31.91	28.60	2.43	-51.9	-64.5	3.8	1.49e+00	0	41	104	0	75	15253
2026-01-28 01:38:32.93	28.58	2.49	-51.8	-64.4	3.8	1.49e+00	0	41	104	0	75	15179
2026-01-28 01:38:33.93	28.56	2.56	-51.8	-64.4	3.8	1.49e+00	0	41	104	0	75	15104
2026-01-28 01:38:34.93	28.54	2.62	-51.8	-64.4	3.8	1.49e+00	0	41	104	0	75	15149
2026-01-28 01:38:35.94	28.52	2.68	-51.8	-64.4	3.8	1.49e+00	0	41	104	0	75	15122
2026-01-28 01:38:36.95	28.50	2.75	-51.8	-64.4	3.8	1.49e+00	0	41	104	0	75	15128
2026-01-28 01:38:37.96	28.48	2.82	-51.8	-64.4	3.8	1.49e+00	0	41	104	0	75	15203
2026-01-28 01:38:38.97	28.45	2.88	-51.8	-64.4	3.8	1.49e+00	0	41	104	0	75	15134
2026-01-28 01:38:39.97	28.43	2.95	-51.8	-64.4	3.8	1.49e+00	0	41	104	0	75	15153
2026-01-28 01:38:40.98	28.41	3.01	-51.8	-64.5	3.8	1.49e+00	0	42	104	0	75	15365
2026-01-28 01:38:41.99	28.39	3.08	-51.8	-64.5	3.8	1.49e+00	0	42	104	0	75	15382
2026-01-28 01:38:43.00	28.37	3.14	-51.8	-64.5	3.8	1.49e+00	0	42	104	0	75	15255
2026-01-28 01:38:44.01	28.34	3.21	-51.8	-64.1	3.8	1.49e+00	0	41	104	0	75	14690
2026-01-28 01:38:45.02	28.32	3.28	-51.7	-63.6	3.8	1.49e+00	0	42	104	0	75	13806
2026-01-28 01:38:46.03	28.30	3.34	-51.6	-62.7	3.8	1.49e+00	0	42	104	0	75	12453
2026-01-28 01:38:47.03	28.28	3.41	-51.5	-61.4	4.1	1.47e+00	0	41	104	0	75	10677
2026-01-28 01:38:48.04	28.25	3.48	-51.4	-60.3	4.4	1.38e+00	0	42	104	0	74	9948
2026-01-28 01:38:49.04	28.23	3.54	-51.3	-59.4	4.8	1.13e+00	0	42	104	0	74	8975
2026-01-28 01:38:50.05	28.21	3.61	-51.2	-59.2	4.9	7.71e-01	0	42	0	0	74	8762
2026-01-28 01:38:51.06	28.19	3.68	-51.2	-58.8	5.1	6.72e-01	0	42	0	3145728	74	8460
2026-01-28 01:38:52.07	28.16	3.75	-51.1	-58.4	5.3	5.44e-01	0	42	0	6291456	74	8011
2026-01-28 01:38:53.08	28.14	3.81	-51.1	-58.6	5.2	5.37e-01	0	42	0	9437184	74	8194
2026-01-28 01:38:54.09	28.11	3.88	-51.0	-58.2	5.5	5.11e-01	0	42	0	12582912	74	7813
2026-01-28 01:38:55.09	28.09	3.95	-50.9	-57.8	5.8	4.09e-01	0	42	0	15728640	73	7908
2026-01-28 01:38:56.10	28.07	4.02	-50.9	-57.7	5.8	4.40e-01	0	42	0	18874368	73	7829
2026-01-28 01:38:57.11	28.04	4.09	-50.9	-57.7	5.8	4.04e-01	0	42	0	22020096	73	7853
2026-01-28 01:38:58.11	28.02	4.15	-50.9	-57.4	6.0	3.19e-01	0	42	0	25165824	73	7624
2026-01-28 01:38:59.12	28.00	4.22	-50.8	-57.0	6.3	2.78e-01	0	42	0	28311552	73	7257
2026-01-28 01:39:00.13	27.97	4.29	-50.7	-56.8	6.5	2.45e-01	0	42	0	31457280	73	7108
2026-01-28 01:39:01.13	27.95	4.36	-50.5	-56.2	7.0	1.58e-01	0	42	0	34603008	73	6619
2026-01-28 01:39:02.14	27.92	4.43	-50.4	-55.9	7.3	1.22e-01	0	42	0	37748736	72	6732
2026-01-28 01:39:03.15	27.90	4.50	-50.5	-56.0	7.2	1.23e-01	0	42	0	40894464	72	6853
2026-01-28 01:39:04.16	27.87	4.57	-50.6	-56.5	6.8	1.63e-01	0	42	0	44040192	72	7268
2026-01-28 01:39:05.16	27.85	4.64	-50.6	-56.3	6.9	1.66e-01	0	42	0	47185920	72	7091
2026-01-28 01:39:06.17	27.82	4.71	-50.7	-56.8	6.5	2.09e-01	0	42	0	51380224	72	7519
2026-01-28 01:39:07.18	27.80	4.78	-50.9	-57.8	5.7	3.65e-01	0	42	0	53477376	72	8434
2026-01-28 01:39:08.19	27.77	4.85	-51.1	-58.6	5.2	5.94e-01	0	42	0	56623104	72	9257
2026-01-28 01:39:09.20	27.75	4.92	-51.1	-58.9	5.0	6.51e-01	0	42	0	59768832	72	9547
2026-01-28 01:39:10.21	27.72	4.99	-51.3	-59.9	4.6	1.32e+00	2	42	104	61865984	73	10085
2026-01-28 01:39:11.21	27.70	5.06	-51.5	-61.3	4.1	1.46e+00	0	42	104	61865984	73	11857
2026-01-28 01:39:12.22	27.67	5.13	-48.5	-51.3	12.3	5.87e-05	0	42	0	63963136	68	5029
2026-01-28 01:39:13.22	27.64	5.20	-50.7	-56.2	7.4	1.04e-01	0	42	0	67108864	71	7377
2026-01-28 01:39:14.23	27.62	5.27	-51.6	-63.7	3.8	1.49e+00	0	42	104	68157440	74	14795
2026-01-28 01:39:15.24	27.59	5.34	-46.6	-48.3	15.2	5.67e-01	0	42	104	68157440	63	4730
2026-01-28 01:39:16.25	27.56	5.41	-51.8	-63.2	3.8	1.49e+00	0	42	104	69206016	74	14013
2026-01-28 01:39:17.25	27.54	5.49	-46.0	-47.5	15.8	5.95e-01	0	42	104	69206016	63	4327
2026-01-28 01:39:18.26	27.51	5.56	-45.5	-46.9	16.8	0.00e+00	0	42	0	71303168	62	4263
2026-01-28 01:39:19.27	27.48	5.63	-45.5	-47.0	16.7	0.00e+00	0	42	0	74448896	62	4311
2026-01-28 01:39:20.28	27.46	5.70	-45.1	-46.4	17.3	0.00e+00	0	42	0	78643200	62	4040
2026-01-28 01:39:21.28	27.43	5.77	-45.1	-46.4	17.3	0.00e+00	0	42	0	81788928	62	4040
2026-01-28 01:39:22.29	27.40	5.85	-44.8	-46.1	17.7	0.00e+00	0	42	0	84934656	61	4102
2026-01-28 01:39:23.30	27.37	5.92	-44.9	-46.2	17.6	0.00e+00	0	42	0	88080384	61	4159
2026-01-28 01:39:24.31	27.35	5.99	-44.7	-45.9	17.8	0.00e+00	0	42	0	90177536	61	4041
2026-01-28 01:39:25.31	27.32	6.07	-44.6	-45.9	17.9	0.00e+00	0	42	0	93323264	61	4010
2026-01-28 01:39:26.32	27.29	6.14	-44.8	-46.1	17.7	0.00e+00	0	42	0	96468992	61	4116
2026-01-28 01:39:27.33	27.26	6.21	-44.8	-46.1	17.7	0.00e+00	0	42	0	99614720	61	4115
2026-01-28 01:39:28.33	27.23	6.29	-44.7	-45.9	17.8	0.00e+00	0	42	0	102760448	61	4047
2026-01-28 01:39:29.34	27.20	6.36	-44.4	-45.7	18.1	0.00e+00	0	42	0	105906176	60	4151
2026-01-28 01:39:30.35	27.18	6.44	-44.3	-45.5	18.3	0.00e+00	0	42	0	109051904	60	4081
2026-01-28 01:39:31.36	27.15	6.51	-44.3	-45.5	18.2	0.00e+00	0	42	0	112197632	60	4096
2026-01-28 01:39:32.37	27.12	6.59	-44.6	-45.8	18.0	0.00e+00	0	42	0	115343360	60	4239
2026-01-28 01:39:33.37	27.09	6.66	-44.5	-45.7	18.1	0.00e+00	0	42	0	119537664	60	4164
2026-01-28 01:39:34.38	27.06	6.74	-44.4	-45.6	18.1	0.00e+00	0	42	0	122683392	60	4145
2026-01-28 01:39:35.39	27.03	6.81	-44.6	-45.8	18.0	0.00e+00	0	42	0	125829120	60	4241
2026-01-28 01:39:36.40	27.00	6.89	-44.5	-45.8	18.1	0.00e+00	0	43	0	128974848	60	4210
2026-01-28 01:39:37.41	26.97	6.96	-44.5	-45.8	18.1	0.00e+00	0	42	0	132120576	60	4202
2026-01-28 01:39:38.41	26.94	7.04	-44.4	-45.6	18.3	0.00e+00	0	42	0	135266304	60	4112
2026-01-28 01:39:39.42	26.91	7.12	-44.3	-45.5	18.3	0.00e+00	0	42	0	137363456	60	4094
2026-01-28 01:39:40.43	26.88	7.19	-44.4	-45.7	18.2	0.00e+00	0	42	0	140509184	60	4147
2026-01-28 01:39:41.44	26.85	7.27	-44.2	-45.4	18.5	0.00e+00	0	42	0	143654912	60	4028
2026-01-28 01:39:42.44	26.82	7.35	-44.2	-45.4	18.5	0.00e+00	0	42	0	146800640	60	4013
2026-01-28 01:39:43.45	26.79	7.42	-44.2	-45.4	18.5	0.00e+00	0	42	0	149946368	60	4030
2026-01-28 01:39:44.46	26.75	7.50	-44.1	-45.2	18.7	0.00e+00	0	42	0	153092096	60	3948
2026-01-28 01:39:45.47	26.72	7.58	-44.0	-45.2	18.8	0.00e+00	0	43	0	157286400	60	3919
2026-01-28 01:39:46.48	26.69	7.66	-44.3	-45.5	18.8	0.00e+00	0	42	0	160432128	59	4297
2026-01-28 01:39:47.49	26.66	7.73	-44.4	-45.6	18.7	0.00e+00	0	42	0	163577856	59	4382
2026-01-28 01:39:48.50	26.63	7.81	-44.4	-45.6	18.7	0.00e+00	0	42	0	166723584	59	4362
2026-01-28 01:39:49.50	26.60	7.89	-44.2	-45.4	18.9	0.00e+00	0	42	0	169869312	59	4256
2026-01-28 01:39:50.51	26.56	7.97	-44.3	-45.4	18.8	0.00e+00	0	42	0	173015040	59	4289
2026-01-28 01:39:51.52	26.53	8.05	-44.2	-45.4	18.9	0.00e+00	0	43	0	176160768	59	4258
2026-01-28 01:39:52.53	26.50	8.13	-44.3	-45.4	18.9	0.00e+00	0	42	0	179306496	59	4277
2026-01-28 01:39:53.54	26.46	8.21	-44.2	-45.3	19.0	0.00e+00	0	43	0	182452224	59	4215
2026-01-28 01:39:54.55	26.43	8.29	-44.0	-45.1	19.2	0.00e+00	0	42	0	184549376	59	4113
2026-01-28 01:39:55.55	26.40	8.37	-44.1	-45.2	19.1	0.00e+00	0	43	0	187695104	59	4168
2026-01-28 01:39:56.56	26.36	8.45	-44.0	-45.1	19.2	0.00e+00	0	42	0	190840832	59	4132
2026-01-28 01:39:57.57	26.33	8.53	-44.2	-45.3	19.0	0.00e+00	0	43	0	193986560	59	4211
2026-01-28 01:39:58.58	26.30	8.61	-44.0	-45.0	19.3	0.00e+00	0	42	0	198180864	59	4096
2026-01-28 01:39:59.59	26.26	8.69	-44.1	-45.2	19.1	0.00e+00	0	42	0	201326592	59	4162
2026-01-28 01:40:00.60	26.23	8.77	-44.1	-45.2	19.2	0.00e+00	0	43	0	204472320	59	4153
2026-01-28 01:40:01.61	26.19	8.85	-43.8	-44.9	19.4	0.00e+00	0	43	0	207618048	59	4034
2026-01-28 01:40:02.62	26.16	8.93	-43.8	-44.9	19.4	0.00e+00	0	42	0	210763776	59	4023
2026-01-28 01:40:03.63	26.12	9.02	-43.9	-44.9	19.4	0.00e+00	0	43	0	213909504	59	4047
2026-01-28 01:40:04.63	26.09	9.10	-43.8	-44.9	19.5	0.00e+00	0	43	0	217055232	59	4006
2026-01-28 01:40:05.64	26.05	9.18	-43.8	-44.9	19.5	0.00e+00	0	43	0	220200960	59	4013
2026-01-28 01:40:06.65	26.02	9.26	-43.8	-44.8	19.5	0.00e+00	0	43	0	223346688	59	3999
2026-01-28 01:40:07.65	25.98	9.35	-43.8	-44.8	19.6	0.00e+00	0	43	0	226492416	59	3991
2026-01-28 01:40:08.66	25.94	9.43	-43.9	-44.9	19.5	0.00e+00	0	42	0	229638144	59	4049
2026-01-28 01:40:09.67	25.91	9.51	-43.7	-44.7	19.7	0.00e+00	0	43	0	231735296	59	3942
2026-01-28 01:40:10.68	25.87	9.60	-43.7	-44.7	19.7	0.00e+00	0	43	0	235929600	59	3944
2026-01-28 01:40:11.69	25.83	9.68	-43.5	-44.5	19.9	0.00e+00	0	43	0	239075328	59	3847
2026-01-28 01:40:12.69	25.80	9.76	-43.5	-44.5	19.8	0.00e+00	0	43	0	242221056	59	3868
2026-01-28 01:40:13.70	25.76	9.85	-43.5	-44.5	19.8	0.00e+00	0	43	0	245366784	59	3868
2026-01-28 01:40:14.71	25.72	9.93	-43.5	-44.6	19.8	0.00e+00	0	43	0	248512512	59	3876
2026-01-28 01:40:15.72	25.68	10.02	-43.7	-44.8	19.6	0.00e+00	0	43	0	251658240	59	3979
2026-01-28 01:40:16.73	25.64	10.11	-43.8	-44.8	19.6	0.00e+00	0	43	0	254803968	59	3991
2026-01-28 01:40:17.73	25.61	10.19	-43.7	-44.8	19.7	0.00e+00	0	43	0	257949696	59	3959
2026-01-28 01:40:18.74	25.57	10.28	-43.8	-44.9	19.5	0.00e+00	0	42	0	261095424	59	4016
2026-01-28 01:40:19.74	25.53	10.36	-43.8	-44.9	19.5	0.00e+00	0	43	0	264241152	59	4014
2026-01-28 01:40:20.75	25.49	10.45	-43.5	-44.5	19.9	0.00e+00	0	43	0	267386880	59	3846
2026-01-28 01:40:21.76	25.45	10.54	-43.4	-44.4	20.0	0.00e+00	0	43	0	270532608	58	4042
2026-01-28 01:40:22.76	25.41	10.62	-43.5	-44.5	19.9	0.00e+00	0	43	0	273678336	58	4079
2026-01-28 01:40:23.77	25.37	10.71	-43.4	-44.4	20.0	0.00e+00	0	43	0	276824064	58	4038
2026-01-28 01:40:24.78	25.33	10.80	-43.6	-44.7	19.8	0.00e+00	0	42	0	279969792	58	4149
2026-01-28 01:40:25.79	25.29	10.89	-43.5	-44.5	19.9	0.00e+00	0	43	0	283115520	58	4070
2026-01-28 01:40:26.80	25.25	10.97	-43.7	-44.7	19.7	0.00e+00	0	43	0	286261248	58	4185
2026-01-28 01:40:27.81	25.21	11.06	-43.7	-44.8	19.7	0.00e+00	0	43	0	289406976	58	4212
2026-01-28 01:40:28.81	25.17	11.15	-43.8	-44.8	19.7	0.00e+00	0	43	0	292552704	58	4235
2026-01-28 01:40:29.82	25.13	11.24	-43.5	-44.5	20.0	0.00e+00	0	43	0	295698432	58	4071
2026-01-28 01:40:30.83	25.08	11.33	-43.7	-44.7	19.8	0.00e+00	0	43	0	298844160	58	4175
2026-01-28 01:40:31.84	25.04	11.42	-43.6	-44.7	19.8	0.00e+00	0	43	0	301989888	58	4153
2026-01-28 01:40:32.85	25.00	11.51	-43.5	-44.5	20.0	0.00e+00	0	42	0	305135616	58	4057
2026-01-28 01:40:33.86	24.96	11.60	-43.3	-44.3	20.1	0.00e+00	0	43	0	308281344	58	3981
2026-01-28 01:40:34.87	24.91	11.69	-43.3	-44.3	20.1	0.00e+00	0	43	0	311427072	58	3986
2026-01-28 01:40:35.88	24.87	11.78	-43.2	-44.2	20.2	0.00e+00	0	43	0	314572800	58	3936
2026-01-28 01:40:36.89	24.83	11.88	-43.1	-44.1	20.3	0.00e+00	0	43	0	317718528	58	3897
2026-01-28 01:40:37.89	24.78	11.97	-43.1	-44.1	20.3	0.00e+00	0	43	0	320864256	58	3878
2026-01-28 01:40:38.90	24.74	12.06	-43.2	-44.2	20.2	0.00e+00	0	43	0	324009984	58	3926
2026-01-28 01:40:39.91	24.69	12.15	-43.2	-44.2	20.2	0.00e+00	0	43	0	327155712	58	3935
2026-01-28 01:40:40.92	24.65	12.24	-43.0	-44.0	20.4	0.00e+00	0	43	0	330301440	58	3835
2026-01-28 01:40:41.93	24.60	12.34	-43.0	-44.0	20.5	0.00e+00	0	43	0	333447168	57	4055
2026-01-28 01:40:42.93	24.56	12.43	-43.0	-44.0	20.4	0.00e+00	0	43	0	336592896	57	4073
2026-01-28 01:40:43.94	24.51	12.52	-43.1	-44.1	20.3	0.00e+00	0	43	0	339738624	57	4130
2026-01-28 01:40:44.95	24.47	12.62	-43.2	-44.2	20.3	0.00e+00	0	43	0	342884352	57	4165
2026-01-28 01:40:45.96	24.42	12.71	-43.3	-44.3	20.2	0.00e+00	0	43	0	346030080	57	4200
2026-01-28 01:40:46.97	24.37	12.81	-43.0	-44.0	20.5	0.00e+00	0	43	0	349175808	57	4063
2026-01-28 01:40:47.98	24.33	12.90	-43.0	-43.9	20.5	0.00e+00	0	43	0	352321536	57	4041
2026-01-28 01:40:48.99	24.28	13.00	-43.1	-44.1	20.4	0.00e+00	0	43	0	355467264	57	4109
2026-01-28 01:40:49.99	24.23	13.10	-43.0	-44.0	20.5	0.00e+00	0	43	0	358612992	57	4063
2026-01-28 01:40:51.00	24.18	13.19	-42.9	-43.9	20.6	0.00e+00	0	43	0	361758720	57	4012
2026-01-28 01:40:52.01	24.13	13.29	-43.0	-43.9	20.5	0.00e+00	0	43	0	364904448	57	4051
2026-01-28 01:40:53.01	24.09	13.38	-42.9	-43.8	20.6	0.00e+00	0	43	0	368050176	57	3987
2026-01-28 01:40:54.02	24.04	13.48	-43.0	-44.0	20.6	0.00e+00	0	43	0	371195904	57	4055
2026-01-28 01:40:55.03	23.99	13.58	-43.0	-43.9	20.6	0.00e+00	0	43	0	374341632	57	4035
2026-01-28 01:40:56.04	23.94	13.68	-43.0	-43.9	20.6	0.00e+00	0	43	0	377487360	57	4040
2026-01-28 01:40:57.05	23.89	13.78	-43.0	-44.0	20.5	0.00e+00	0	43	0	380633088	57	4068
2026-01-28 01:40:58.05	23.84	13.87	-43.0	-43.9	20.6	0.00e+00	0	43	0	383778816	57	4036
2026-01-28 01:40:59.06	23.79	13.97	-43.0	-43.9	20.6	0.00e+00	0	43	0	386924544	57	4049
2026-01-28 01:41:00.07	23.73	14.07	-43.0	-44.0	20.6	0.00e+00	0	43	0	390070272	57	4052
2026-01-28 01:41:01.08	23.68	14.17	-42.9	-43.8	20.7	0.00e+00	0	43	0	393216000	57	4001
2026-01-28 01:41:02.09	23.63	14.27	-43.0	-43.9	20.6	0.00e+00	0	43	0	396361728	57	4025
2026-01-28 01:41:03.10	23.58	14.38	-42.8	-43.8	20.7	0.00e+00	0	43	0	399507456	57	3966
2026-01-28 01:41:04.10	23.53	14.48	-42.9	-43.9	20.7	0.00e+00	0	43	0	402653184	57	4020
2026-01-28 01:41:05.11	23.47	14.58	-42.9	-43.8	20.7	0.00e+00	0	43	0	405798912	57	3995
2026-01-28 01:41:06.12	23.42	14.68	-42.9	-43.9	20.7	0.00e+00	0	43	0	408944640	57	4021
2026-01-28 01:41:07.13	23.37	14.78	-43.0	-43.9	20.7	0.00e+00	0	43	0	412090368	57	4026
2026-01-28 01:41:08.14	23.31	14.88	-43.0	-43.9	20.6	0.00e+00	0	43	0	415236096	57	4051
2026-01-28 01:41:09.14	23.26	14.99	-43.0	-43.9	20.6	0.00e+00	0	43	0	418381824	57	4032
2026-01-28 01:41:10.15	23.20	15.09	-43.0	-44.0	20.6	0.00e+00	0	43	0	421527552	57	4060
2026-01-28 01:41:11.16	23.15	15.20	-42.9	-43.8	20.8	0.00e+00	0	43	0	424673280	57	3990
2026-01-28 01:41:12.17	23.09	15.30	-42.9	-43.8	20.7	0.00e+00	0	43	0	427819008	57	4004
2026-01-28 01:41:13.17	23.03	15.40	-43.0	-43.9	20.7	0.00e+00	0	43	0	430964736	57	4042
2026-01-28 01:41:14.18	22.98	15.51	-43.1	-44.0	20.6	0.00e+00	0	43	0	434110464	57	4091
2026-01-28 01:41:15.19	22.92	15.61	-43.1	-44.0	20.6	0.00e+00	0	43	0	437256192	57	4083
2026-01-28 01:41:16.20	22.86	15.72	-43.0	-44.0	20.7	0.00e+00	0	43	0	440401920	57	4064
2026-01-28 01:41:17.21	22.80	15.83	-43.0	-44.0	20.7	0.00e+00	0	43	0	443547648	57	4052
2026-01-28 01:41:18.22	22.74	15.93	-43.1	-44.0	20.6	0.00e+00	0	43	0	446693376	57	4078
2026-01-28 01:41:19.23	22.69	16.04	-43.2	-44.1	20.5	0.00e+00	0	43	0	449839104	57	4125
2026-01-28 01:41:20.24	22.63	16.15	-43.0	-43.9	20.7	0.00e+00	0	43	0	452984832	57	4048
2026-01-28 01:41:21.25	22.57	16.26	-43.0	-43.9	20.7	0.00e+00	0	43	0	456130560	57	4040
2026-01-28 01:41:22.25	22.51	16.37	-43.1	-44.0	20.7	0.00e+00	0	43	0	459276288	57	4075
2026-01-28 01:41:23.26	22.45	16.48	-43.1	-44.1	20.6	0.00e+00	0	43	0	462422016	57	4110
2026-01-28 01:41:24.27	22.38	16.59	-43.1	-44.1	20.6	0.00e+00	0	43	0	465567744	57	4108
2026-01-28 01:41:25.28	22.32	16.70	-43.0	-44.0	20.7	0.00e+00	0	43	0	468713472	57	4065
2026-01-28 01:41:26.28	22.26	16.81	-43.1	-44.1	20.6	0.00e+00	0	43	0	471859200	57	4110
2026-01-28 01:41:27.29	22.20	16.92	-43.1	-44.0	20.7	0.00e+00	0	43	0	475004928	57	4090
2026-01-28 01:41:28.30	22.13	17.03	-43.1	-44.1	20.6	0.00e+00	0	43	0	478150656	57	4106
2026-01-28 01:41:29.31	22.07	17.14	-43.1	-44.1	20.7	0.00e+00	0	43	0	481296384	57	4103
2026-01-28 01:41:30.32	22.01	17.25	-43.1	-44.0	20.7	0.00e+00	0	43	0	484442112	57	4077
2026-01-28 01:41:31.33	21.94	17.37	-43.2	-44.2	20.5	0.00e+00	0	43	0	487587840	57	4155
2026-01-28 01:41:32.34	21.88	17.48	-43.1	-44.1	20.6	0.00e+00	0	43	0	490733568	57	4109
2026-01-28 01:41:33.34	21.81	17.59	-43.2	-44.1	20.6	0.00e+00	0	43	0	493879296	57	4111
2026-01-28 01:41:34.35	21.74	17.71	-43.1	-44.1	20.6	0.00e+00	0	43	0	497025024	57	4100
2026-01-28 01:41:35.36	21.68	17.82	-43.1	-44.1	20.6	0.00e+00	0	43	0	500170752	57	4105
2026-01-28 01:41:36.37	21.61	17.94	-43.2	-44.1	20.6	0.00e+00	0	43	0	503316480	57	4118
2026-01-28 01:41:37.37	21.54	18.05	-43.2	-44.1	20.5	0.00e+00	0	43	0	506462208	57	4137
2026-01-28 01:41:38.38	21.47	18.17	-43.3	-44.3	20.4	0.00e+00	0	43	0	509607936	57	4207
2026-01-28 01:41:39.39	21.40	18.29	-43.4	-44.4	20.3	0.00e+00	0	43	0	512753664	57	4269
2026-01-28 01:41:40.40	21.33	18.40	-43.2	-44.2	20.5	0.00e+00	0	43	0	515899392	57	4166
2026-01-28 01:41:41.41	21.26	18.52	-43.3	-44.2	20.4	0.00e+00	0	43	0	519045120	57	4188
2026-01-28 01:41:42.42	21.19	18.64	-43.4	-44.3	20.4	0.00e+00	0	43	0	522190848	57	4236
2026-01-28 01:41:43.43	21.12	18.76	-43.3	-44.3	20.4	0.00e+00	0	43	0	525336576	57	4201
2026-01-28 01:41:44.44	21.05	18.88	-43.5	-44.5	20.2	0.00e+00	0	43	0	528482304	57	4320
2026-01-28 01:41:45.45	20.98	19.00	-43.5	-44.5	20.2	0.00e+00	0	43	0	531628032	57	4321
2026-01-28 01:41:46.45	20.90	19.12	-43.4	-44.4	20.4	0.00e+00	0	43	0	534773760	57	4265
2026-01-28 01:41:47.46	20.83	19.24	-43.5	-44.5	20.3	0.00e+00	0	43	0	537919488	57	4308
2026-01-28 01:41:48.47	20.76	19.36	-43.4	-44.4	20.4	0.00e+00	0	43	0	541065216	57	4258
2026-01-28 01:41:49.48	20.68	19.48	-43.5	-44.5	20.3	0.00e+00	0	43	0	544210944	57	4301
2026-01-28 01:41:50.49	20.60	19.61	-43.3	-44.3	20.5	0.00e+00	0	43	0	547356672	57	4195
2026-01-28 01:41:51.50	20.53	19.73	-43.2	-44.2	20.6	0.00e+00	0	43	0	550502400	57	4151
2026-01-28 01:41:52.51	20.45	19.85	-43.2	-44.2	20.6	0.00e+00	0	43	0	553648128	57	4152
2026-01-28 01:41:53.51	20.37	19.98	-43.2	-44.2	20.6	0.00e+00	0	43	0	556793856	57	4166
2026-01-28 01:41:54.52	20.30	20.10	-43.1	-44.0	20.7	0.00e+00	0	43	0	559939584	57	4094
2026-01-28 01:41:55.53	20.22	20.23	-43.2	-44.1	20.6	0.00e+00	0	43	0	563085312	57	4139
2026-01-28 01:41:56.54	20.14	20.36	-43.2	-44.1	20.6	0.00e+00	0	43	0	566231040	57	4141
2026-01-28 01:41:57.54	20.06	20.48	-43.1	-44.0	20.7	0.00e+00	0	43	0	569376768	57	4080
2026-01-28 01:41:58.55	19.98	20.61	-42.9	-43.8	20.9	0.00e+00	0	43	0	572522496	57	3980
2026-01-28 01:41:59.57	19.89	20.74	-42.6	-43.5	21.1	0.00e+00	0	43	0	575668224	57	3848
2026-01-28 01:42:00.57	19.81	20.86	-42.6	-43.5	21.2	0.00e+00	0	43	0	578813952	57	3834
2026-01-28 01:42:01.58	19.73	20.99	-42.7	-43.6	21.1	0.00e+00	0	43	0	581959680	57	3870
2026-01-28 01:42:02.59	19.64	21.12	-42.6	-43.5	21.2	0.00e+00	0	43	0	585105408	57	3833
2026-01-28 01:42:03.60	19.56	21.25	-42.5	-43.4	21.3	0.00e+00	0	43	0	588251136	57	3790
2026-01-28 01:42:04.61	19.47	21.39	-42.3	-43.2	21.4	0.00e+00	0	43	0	591396864	56	3920
2026-01-28 01:42:05.62	19.39	21.52	-42.3	-43.2	21.4	0.00e+00	0	43	0	594542592	56	3925
2026-01-28 01:42:06.63	19.30	21.65	-42.2	-43.1	21.5	0.00e+00	0	43	0	597688320	56	3893
2026-01-28 01:42:07.63	19.21	21.78	-42.1	-43.0	21.7	0.00e+00	0	43	0	600834048	56	3829
2026-01-28 01:42:08.64	19.13	21.91	-42.1	-42.9	21.7	0.00e+00	0	43	0	603979776	56	3806
2026-01-28 01:42:09.65	19.04	22.05	-42.1	-42.9	21.7	0.00e+00	0	43	0	607125504	56	3811
2026-01-28 01:42:10.66	18.95	22.18	-41.9	-42.7	21.8	0.00e+00	0	43	0	610271232	55	3927
2026-01-28 01:42:11.67	18.85	22.32	-41.9	-42.7	21.8	0.00e+00	0	43	0	613416960	55	3946
2026-01-28 01:42:12.68	18.76	22.45	-41.7	-42.5	22.0	0.00e+00	0	43	0	616562688	55	3859
2026-01-28 01:42:13.69	18.67	22.59	-41.7	-42.5	22.0	0.00e+00	0	43	0	619708416	55	3855
2026-01-28 01:42:14.69	18.58	22.73	-41.6	-42.4	22.1	0.00e+00	0	43	0	622854144	55	3805
2026-01-28 01:42:15.70	18.48	22.86	-41.6	-42.4	22.1	0.00e+00	0	43	0	625999872	55	3789
2026-01-28 01:42:16.71	18.39	23.00	-41.5	-42.3	22.1	0.00e+00	0	43	0	629145600	55	3774
2026-01-28 01:42:17.72	18.29	23.14	-41.6	-42.4	22.1	0.00e+00	0	43	0	632291328	55	3798
2026-01-28 01:42:18.73	18.19	23.28	-41.7	-42.5	22.0	0.00e+00	0	43	0	635437056	55	3848
2026-01-28 01:42:19.74	18.10	23.42	-41.6	-42.4	22.1	0.00e+00	0	43	0	638582784	55	3797
2026-01-28 01:42:20.75	18.00	23.56	-41.5	-42.3	22.2	0.00e+00	0	43	0	641728512	55	3752
2026-01-28 01:42:21.76	17.90	23.71	-41.5	-42.4	22.1	0.00e+00	0	43	0	644874240	55	3784
2026-01-28 01:42:22.77	17.80	23.85	-41.6	-42.4	22.0	0.00e+00	0	43	0	648019968	55	3809
2026-01-28 01:42:23.77	17.70	23.99	-41.6	-42.5	22.0	0.00e+00	0	43	0	651165696	55	3831
2026-01-28 01:42:24.78	17.59	24.13	-41.6	-42.4	22.0	0.00e+00	0	43	0	654311424	55	3820
2026-01-28 01:42:25.79	17.49	24.28	-41.7	-42.5	22.0	0.00e+00	0	43	0	657457152	55	3854
2026-01-28 01:42:26.80	17.39	24.42	-41.9	-42.7	21.9	0.00e+00	0	43	0	660602880	55	3928
2026-01-28 01:42:27.80	17.28	24.57	-41.8	-42.6	21.9	0.00e+00	0	43	0	663748608	55	3910
2026-01-28 01:42:28.81	17.17	24.72	-41.8	-42.7	21.9	0.00e+00	0	43	0	666894336	55	3919
2026-01-28 01:42:29.82	17.07	24.86	-41.9	-42.8	21.8	0.00e+00	0	43	0	670040064	55	3966
2026-01-28 01:42:30.83	16.96	25.01	-42.0	-42.8	21.8	0.00e+00	0	43	0	673185792	55	3994
2026-01-28 01:42:31.84	16.85	25.16	-42.0	-42.9	21.8	0.00e+00	0	43	0	676331520	55	4015
2026-01-28 01:42:32.85	16.74	25.31	-42.0	-42.8	21.8	0.00e+00	0	43	0	679477248	55	4004
2026-01-28 01:42:33.85	16.63	25.46	-42.0	-42.8	21.8	0.00e+00	0	43	0	682622976	55	4002
2026-01-28 01:42:34.86	16.51	25.61	-42.0	-42.8	21.8	0.00e+00	0	43	0	685768704	55	3996
2026-01-28 01:42:35.86	16.40	25.76	-42.1	-42.9	21.8	0.00e+00	0	43	0	688914432	55	4045
2026-01-28 01:42:36.87	16.29	25.91	-42.0	-42.8	21.9	0.00e+00	0	43	0	692060160	55	3979
2026-01-28 01:42:37.88	16.17	26.07	-41.9	-42.7	21.9	0.00e+00	0	43	0	695205888	55	3935
2026-01-28 01:42:38.88	16.05	26.22	-41.9	-42.7	21.9	0.00e+00	0	43	0	698351616	55	3940
2026-01-28 01:42:39.89	15.93	26.37	-42.1	-42.9	21.7	0.00e+00	0	43	0	701497344	55	4028
2026-01-28 01:42:40.90	15.81	26.53	-42.2	-43.0	21.6	0.00e+00	0	43	0	704643072	55	4083
2026-01-28 01:42:41.91	15.69	26.68	-42.3	-43.1	21.5	0.00e+00	0	43	0	707788800	55	4141
2026-01-28 01:42:42.92	15.57	26.84	-42.5	-43.3	21.3	0.00e+00	0	43	0	710934528	55	4237
2026-01-28 01:42:43.93	15.45	27.00	-42.5	-43.3	21.3	0.00e+00	0	43	0	714080256	55	4231
2026-01-28 01:42:44.93	15.32	27.16	-42.5	-43.4	21.2	0.00e+00	0	43	0	717225984	55	4260
2026-01-28 01:42:45.94	15.20	27.32	-42.7	-43.6	21.1	0.00e+00	0	43	0	720371712	55	4341
2026-01-28 01:42:46.95	15.07	27.48	-42.8	-43.7	21.1	0.00e+00	0	43	0	723517440	56	4146
2026-01-28 01:42:47.96	14.94	27.64	-42.9	-43.8	21.0	0.00e+00	0	43	0	726663168	56	4226
2026-01-28 01:42:48.97	14.81	27.80	-43.1	-44.0	20.9	0.00e+00	0	43	0	729808896	56	4304
2026-01-28 01:42:49.97	14.68	27.96	-42.9	-43.8	21.0	0.00e+00	0	43	0	734003200	56	4240
2026-01-28 01:42:50.98	14.55	28.12	-42.9	-43.9	21.0	0.00e+00	0	43	0	737148928	56	4243
2026-01-28 01:42:51.99	14.41	28.29	-42.9	-43.8	21.1	0.00e+00	0	43	0	739246080	56	4213
2026-01-28 01:42:53.00	14.28	28.45	-43.0	-43.9	21.0	0.00e+00	0	43	0	742391808	56	4281
2026-01-28 01:42:54.01	14.14	28.62	-42.9	-43.8	21.1	0.00e+00	0	43	0	745537536	56	4223
2026-01-28 01:42:55.01	14.00	28.78	-42.9	-43.8	21.1	0.00e+00	0	43	0	748683264	56	4212
2026-01-28 01:42:56.02	13.86	28.95	-43.0	-43.9	21.0	0.00e+00	0	43	0	751828992	56	4261
2026-01-28 01:42:57.03	13.72	29.12	-43.0	-43.9	20.9	0.00e+00	0	43	0	754974720	56	4291
2026-01-28 01:42:58.04	13.58	29.29	-43.2	-44.1	20.8	0.00e+00	0	43	0	758120448	57	4131
2026-01-28 01:42:59.05	13.43	29.45	-43.2	-44.1	20.9	0.00e+00	0	43	0	761266176	57	4113
2026-01-28 01:43:00.06	13.28	29.62	-43.2	-44.1	20.9	0.00e+00	0	43	0	764411904	57	4119
2026-01-28 01:43:01.07	13.14	29.80	-43.0	-43.9	21.0	0.00e+00	0	43	0	767557632	57	4037
2026-01-28 01:43:02.08	12.99	29.97	-43.0	-43.9	21.0	0.00e+00	0	43	0	771751936	57	4030
2026-01-28 01:43:03.09	12.84	30.14	-43.1	-44.0	20.9	0.00e+00	0	43	0	774897664	57	4053
2026-01-28 01:43:04.10	12.68	30.31	-43.2	-44.1	20.8	0.00e+00	0	43	0	778043392	57	4131
2026-01-28 01:43:05.11	12.53	30.49	-43.0	-43.9	21.1	0.00e+00	0	43	0	781189120	57	4037
2026-01-28 01:43:06.11	12.37	30.66	-43.0	-43.9	21.1	0.00e+00	0	43	0	784334848	57	4021
2026-01-28 01:43:07.13	12.21	30.84	-43.0	-43.9	21.1	0.00e+00	0	43	0	786432000	57	4033
2026-01-28 01:43:08.13	12.06	31.02	-42.7	-43.6	21.4	0.00e+00	0	43	0	789577728	57	3881
2026-01-28 01:43:09.14	11.89	31.19	-42.7	-43.5	21.4	0.00e+00	0	43	0	792723456	57	3847
2026-01-28 01:43:10.15	11.73	31.37	-42.6	-43.5	21.4	0.00e+00	0	43	0	795869184	57	3835
2026-01-28 01:43:11.16	11.57	31.55	-42.6	-43.5	21.4	0.00e+00	0	43	0	799014912	57	3834
2026-01-28 01:43:12.17	11.40	31.73	-42.7	-43.5	21.3	0.00e+00	0	43	0	802160640	57	3864
2026-01-28 01:43:13.17	11.23	31.91	-42.8	-43.7	21.1	0.00e+00	0	43	0	806354944	57	3927
2026-01-28 01:43:14.18	11.06	32.09	-42.8	-43.7	21.1	0.00e+00	0	43	0	809500672	57	3934
2026-01-28 01:43:15.19	10.89	32.27	-43.0	-43.9	21.0	0.00e+00	0	43	0	812646400	57	4041
2026-01-28 01:43:16.20	10.71	32.46	-43.0	-44.0	21.0	0.00e+00	0	43	0	815792128	57	4057
2026-01-28 01:43:17.21	10.54	32.64	-43.1	-44.0	21.0	0.00e+00	0	43	0	818937856	57	4082
2026-01-28 01:43:18.21	10.36	32.83	-43.1	-44.0	21.0	0.00e+00	0	43	0	822083584	57	4080
2026-01-28 01:43:19.22	10.18	33.01	-43.1	-44.0	21.0	0.00e+00	0	43	0	825229312	57	4096
2026-01-28 01:43:20.23	9.99	33.20	-43.0	-43.9	21.1	0.00e+00	0	43	0	828375040	57	4049
2026-01-28 01:43:21.24	9.81	33.39	-43.0	-43.9	21.1	0.00e+00	0	43	0	831520768	57	4041
2026-01-28 01:43:22.24	9.62	33.57	-42.9	-43.8	21.3	0.00e+00	0	43	0	834666496	57	3963
2026-01-28 01:43:23.25	9.43	33.76	-43.1	-43.9	21.1	0.00e+00	0	43	0	836763648	57	4051
2026-01-28 01:43:24.25	9.24	33.95	-42.9	-43.8	21.3	0.00e+00	0	43	0	839909376	57	3970
2026-01-28 01:43:25.26	9.05	34.14	-43.0	-43.9	21.2	0.00e+00	0	43	0	843055104	57	4006
2026-01-28 01:43:26.27	8.85	34.33	-42.9	-43.8	21.2	0.00e+00	0	43	0	846200832	57	3979
2026-01-28 01:43:27.28	8.65	34.52	-43.1	-44.0	21.0	0.00e+00	0	43	0	850395136	57	4074
2026-01-28 01:43:28.28	8.45	34.71	-43.2	-44.1	20.9	0.00e+00	0	43	0	853540864	57	4130
2026-01-28 01:43:29.29	8.25	34.91	-43.5	-44.4	20.6	0.00e+00	0	43	0	856686592	57	4274
2026-01-28 01:43:30.30	8.04	35.10	-43.7	-44.6	20.5	0.00e+00	0	43	0	859832320	58	4137
2026-01-28 01:43:31.31	7.83	35.30	-43.7	-44.7	20.4	0.00e+00	0	43	0	862978048	58	4165
2026-01-28 01:43:32.32	7.62	35.49	-43.9	-44.8	20.2	0.00e+00	0	43	0	866123776	58	4237
2026-01-28 01:43:33.33	7.41	35.69	-43.8	-44.8	20.2	0.00e+00	0	43	0	869269504	58	4224
2026-01-28 01:43:34.34	7.19	35.89	-43.9	-44.8	20.2	0.00e+00	0	43	0	872415232	58	4233
2026-01-28 01:43:35.35	6.97	36.09	-44.0	-44.9	20.1	0.00e+00	0	43	0	875560960	58	4286
2026-01-28 01:43:36.36	6.75	36.29	-43.9	-44.9	20.2	0.00e+00	0	43	0	878706688	58	4274
2026-01-28 01:43:37.37	6.53	36.49	-44.0	-45.0	20.2	0.00e+00	0	43	0	881852416	58	4320
2026-01-28 01:43:38.37	6.30	36.69	-44.0	-45.0	20.1	0.00e+00	0	43	0	883949568	58	4326
2026-01-28 01:43:39.38	6.07	36.89	-44.2	-45.2	19.9	0.00e+00	0	43	0	888143872	59	4188
2026-01-28 01:43:40.39	5.84	37.09	-44.4	-45.4	19.6	0.00e+00	0	43	0	891289600	59	4276
2026-01-28 01:43:41.40	5.60	37.29	-44.6	-45.6	19.5	0.00e+00	0	43	0	894435328	59	4376
2026-01-28 01:43:42.40	5.36	37.49	-44.7	-45.8	19.4	0.00e+00	0	43	0	897581056	59	4444
2026-01-28 01:43:43.41	5.12	37.70	-44.5	-45.6	19.6	0.00e+00	0	43	0	900726784	59	4373
2026-01-28 01:43:44.41	4.88	37.90	-44.5	-45.6	19.6	0.00e+00	0	43	0	903872512	59	4367
2026-01-28 01:43:45.42	4.63	38.10	-44.5	-45.5	19.7	0.00e+00	0	43	0	907018240	59	4320
2026-01-28 01:43:46.43	4.38	38.31	-44.4	-45.4	19.9	0.00e+00	0	43	0	910163968	59	4247
2026-01-28 01:43:47.44	4.12	38.52	-44.5	-45.5	19.7	0.00e+00	0	43	0	913309696	59	4332
2026-01-28 01:43:48.45	3.86	38.72	-44.5	-45.5	19.5	0.00e+00	0	43	0	916455424	60	4085
2026-01-28 01:43:49.45	3.60	38.93	-44.5	-45.6	19.4	0.00e+00	0	43	0	919601152	60	4106
2026-01-28 01:43:50.46	3.34	39.14	-44.6	-45.6	19.4	0.00e+00	0	43	0	922746880	60	4141
2026-01-28 01:43:51.46	3.07	39.34	-44.4	-45.4	19.6	0.00e+00	0	43	0	925892608	60	4041
2026-01-28 01:43:52.47	2.80	39.55	-44.3	-45.3	19.8	0.00e+00	0	43	0	929038336	60	3975
2026-01-28 01:43:53.48	2.52	39.76	-44.2	-45.2	19.8	0.00e+00	0	43	0	932184064	60	3939
2026-01-28 01:43:54.49	2.25	39.97	-44.3	-45.3	19.7	0.00e+00	0	43	0	935329792	60	3997
2026-01-28 01:43:55.50	1.96	40.18	-44.3	-45.3	19.8	0.00e+00	0	43	0	938475520	60	3992
2026-01-28 01:43:56.51	1.68	40.40	-44.5	-45.6	19.5	0.00e+00	0	43	0	941621248	60	4118
2026-01-28 01:43:57.52	1.38	40.61	-44.5	-45.5	19.5	0.00e+00	0	43	0	944766976	60	4097
2026-01-28 01:43:58.53	1.09	40.82	-44.5	-45.5	19.6	0.00e+00	0	43	0	947912704	60	4089
2026-01-28 01:43:59.54	0.79	41.03	-44.5	-45.5	19.6	0.00e+00	0	43	0	951058432	60	4076
2026-01-28 01:44:00.55	0.49	41.24	-44.5	-45.6	19.6	0.00e+00	0	43	0	954204160	60	4105
2026-01-28 01:44:01.56	0.18	41.46	-44.6	-45.6	19.5	0.00e+00	0	43	0	957349888	60	4139
2026-01-28 01:44:02.57	359.87	41.67	-44.6	-45.6	19.5	0.00e+00	0	43	0	960495616	60	4128
2026-01-28 01:44:03.58	359.56	41.89	-44.7	-45.7	19.4	0.00e+00	0	43	0	963641344	60	4167
2026-01-28 01:44:04.59	359.24	42.10	-45.0	-46.1	19.0	0.00e+00	0	43	0	966787072	60	4381
2026-01-28 01:44:05.59	358.92	42.31	-45.2	-46.3	18.8	0.00e+00	0	43	0	969932800	61	4233
2026-01-28 01:44:06.61	358.59	42.53	-45.2	-46.3	18.9	0.00e+00	0	43	0	973078528	61	4230
2026-01-28 01:44:07.61	358.26	42.74	-45.2	-46.4	18.8	0.00e+00	0	43	0	976224256	61	4246
2026-01-28 01:44:08.63	357.92	42.96	-45.1	-46.2	19.0	0.00e+00	0	43	0	979369984	61	4182
2026-01-28 01:44:09.63	357.58	43.17	-45.0	-46.1	19.1	0.00e+00	0	43	0	982515712	61	4115
2026-01-28 01:44:10.64	357.24	43.38	-44.9	-45.9	19.2	0.00e+00	0	43	0	985661440	61	4035
2026-01-28 01:44:11.65	356.88	43.60	-44.6	-45.7	19.4	0.00e+00	0	43	0	988807168	61	3925
2026-01-28 01:44:12.66	356.53	43.81	-44.8	-45.8	19.3	0.00e+00	0	43	0	991952896	61	3988
2026-01-28 01:44:13.67	356.17	44.03	-44.9	-46.0	19.1	0.00e+00	0	43	0	995098624	61	4086
2026-01-28 01:44:14.68	355.80	44.24	-45.3	-46.4	18.8	0.00e+00	0	43	0	998244352	61	4289
2026-01-28 01:44:15.68	355.44	44.46	-45.5	-46.7	18.5	0.00e+00	0	43	0	1001390080	61	4432
2026-01-28 01:44:16.69	355.06	44.67	-45.5	-46.7	18.4	0.00e+00	0	43	0	1004535808	61	4423
2026-01-28 01:44:17.70	354.68	44.88	-45.0	-46.1	19.0	0.00e+00	0	43	0	1007681536	61	4134
2026-01-28 01:44:18.71	354.30	45.10	-45.0	-46.1	19.1	0.00e+00	0	43	0	1010827264	61	4124
2026-01-28 01:44:19.72	353.91	45.31	-45.0	-46.1	19.0	0.00e+00	0	43	0	1013972992	61	4130
2026-01-28 01:44:20.73	353.51	45.52	-45.1	-46.2	18.9	0.00e+00	0	43	0	1017118720	61	4179
2026-01-28 01:44:21.73	353.11	45.73	-45.3	-46.5	18.7	0.00e+00	0	43	0	1020264448	61	4317
2026-01-28 01:44:22.74	352.71	45.95	-45.3	-46.4	18.8	0.00e+00	0	43	0	1023410176	61	4259
2026-01-28 01:44:23.75	352.29	46.16	-45.3	-46.4	18.9	0.00e+00	0	43	0	1026555904	61	4254
2026-01-28 01:44:24.76	351.87	46.37	-45.1	-46.2	19.0	0.00e+00	0	43	0	1029701632	61	4175
2026-01-28 01:44:25.76	351.46	46.58	-45.2	-46.3	19.0	0.00e+00	0	43	0	1032847360	61	4224
2026-01-28 01:44:26.77	351.03	46.79	-45.2	-46.3	18.9	0.00e+00	0	43	0	1035993088	61	4226
2026-01-28 01:44:27.78	350.59	47.00	-45.1	-46.3	19.0	0.00e+00	0	43	0	1039138816	61	4204
2026-01-28 01:44:28.79	350.15	47.20	-45.0	-46.2	19.1	0.00e+00	0	43	0	1042284544	61	4155
2026-01-28 01:44:29.79	349.71	47.41	-44.9	-46.0	19.3	0.00e+00	0	43	0	1045430272	61	4065
2026-01-28 01:44:30.81	349.25	47.62	-44.8	-45.8	19.5	0.00e+00	0	43	0	1048576000	61	3994
2026-01-28 01:44:31.81	348.79	47.82	-44.9	-45.9	19.3	0.00e+00	0	43	0	1051721728	61	4045
2026-01-28 01:44:32.81	348.33	48.02	-44.8	-45.9	19.3	0.00e+00	0	43	0	1054867456	61	4019
2026-01-28 01:44:33.82	347.86	48.23	-45.3	-46.4	18.8	0.00e+00	0	43	0	1058013184	61	4277
2026-01-28 01:44:34.83	347.38	48.43	-45.3	-46.4	18.9	0.00e+00	0	43	0	1061158912	61	4271
2026-01-28 01:44:35.84	346.90	48.63	-45.2	-46.4	18.9	0.00e+00	0	43	0	1064304640	61	4255
2026-01-28 01:44:36.85	346.41	48.83	-45.1	-46.2	19.0	0.00e+00	0	43	0	1067450368	61	4163
2026-01-28 01:44:37.86	345.91	49.03	-44.9	-46.0	19.3	0.00e+00	0	43	0	1070596096	61	4052
2026-01-28 01:44:38.87	345.41	49.22	-44.9	-46.0	19.3	0.00e+00	0	43	0	1073741824	61	4062
2026-01-28 01:44:39.87	344.90	49.42	-44.4	-45.4	19.8	0.00e+00	0	43	0	1076887552	60	4047
2026-01-28 01:44:40.88	344.39	49.61	-44.3	-45.2	20.0	0.00e+00	0	43	0	1080033280	60	3945
2026-01-28 01:44:41.89	343.87	49.80	-44.3	-45.2	20.0	0.00e+00	0	43	0	1083179008	60	3952
2026-01-28 01:44:42.90	343.34	49.99	-44.7	-45.7	19.4	0.00e+00	0	43	0	1086324736	60	4191
2026-01-28 01:44:43.91	342.80	50.18	-44.8	-45.8	19.4	0.00e+00	0	43	0	1089470464	60	4234
2026-01-28 01:44:44.92	342.26	50.37	-44.5	-45.6	19.7	0.00e+00	0	43	0	1092616192	60	4111
2026-01-28 01:44:45.92	341.71	50.55	-44.3	-45.3	19.9	0.00e+00	0	43	0	1095761920	60	3998
2026-01-28 01:44:46.93	341.16	50.73	-44.3	-45.3	20.0	0.00e+00	0	43	0	1098907648	60	3972
2026-01-28 01:44:47.94	340.59	50.91	-44.1	-45.1	20.1	0.00e+00	0	43	0	1102053376	60	3892
2026-01-28 01:44:48.95	340.02	51.09	-44.4	-45.4	20.1	0.00e+00	0	43	0	1105199104	59	4248
2026-01-28 01:44:49.96	339.45	51.26	-44.1	-45.0	20.4	0.00e+00	0	43	0	1108344832	59	4092
2026-01-28 01:44:50.96	338.87	51.43	-43.8	-44.7	20.8	0.00e+00	0	43	0	1111490560	59	3930
2026-01-28 01:44:51.97	338.28	51.60	-43.6	-44.5	20.9	0.00e+00	0	43	0	1114636288	59	3850
2026-01-28 01:44:52.98	337.68	51.77	-43.6	-44.5	21.0	0.00e+00	0	43	0	1117782016	59	3864
2026-01-28 01:44:53.99	337.08	51.94	-43.7	-44.6	20.8	0.00e+00	0	43	0	1120927744	59	3912
2026-01-28 01:44:55.00	336.47	52.10	-43.7	-44.7	20.8	0.00e+00	0	43	0	1124073472	59	3914
2026-01-28 01:44:56.00	335.85	52.26	-43.5	-44.4	21.0	0.00e+00	0	43	0	1127219200	59	3802
2026-01-28 01:44:57.01	335.23	52.41	-43.5	-44.4	21.0	0.00e+00	0	43	0	1130364928	58	4035
2026-01-28 01:44:58.01	334.61	52.56	-43.5	-44.4	21.0	0.00e+00	0	43	0	1133510656	58	4033
2026-01-28 01:44:59.02	333.97	52.71	-43.6	-44.5	20.9	0.00e+00	0	43	0	1136656384	58	4078
2026-01-28 01:45:00.03	333.33	52.86	-43.7	-44.6	20.8	0.00e+00	0	43	0	1139802112	58	4132
2026-01-28 01:45:01.04	332.68	53.00	-43.7	-44.6	21.0	0.00e+00	0	43	0	1142947840	58	4108
2026-01-28 01:45:02.04	332.03	53.14	-43.4	-44.2	21.2	0.00e+00	0	43	0	1146093568	58	3958
2026-01-28 01:45:03.05	331.36	53.28	-43.2	-44.1	21.3	0.00e+00	0	43	0	1149239296	58	3876
2026-01-28 01:45:04.06	330.70	53.41	-43.4	-44.3	21.2	0.00e+00	0	43	0	1152385024	58	3997
2026-01-28 01:45:05.07	330.02	53.54	-43.5	-44.4	21.0	0.00e+00	0	43	0	1155530752	58	4045
2026-01-28 01:45:06.08	329.34	53.67	-43.7	-44.6	20.9	0.00e+00	0	43	0	1158676480	58	4115
2026-01-28 01:45:07.09	328.65	53.79	-43.8	-44.7	20.7	0.00e+00	0	43	0	1161822208	58	4192
2026-01-28 01:45:08.10	327.96	53.91	-44.1	-45.1	20.4	0.00e+00	0	43	0	1164967936	58	4360
2026-01-28 01:45:09.11	327.26	54.02	-44.2	-45.2	20.3	0.00e+00	0	43	0	1168113664	59	4190
2026-01-28 01:45:10.12	326.56	54.13	-44.6	-45.6	20.0	0.00e+00	0	43	0	1171259392	59	4383
2026-01-28 01:45:11.13	325.85	54.23	-44.1	-45.1	20.3	0.00e+00	0	43	0	1174405120	59	4143
2026-01-28 01:45:12.13	325.14	54.33	-43.9	-44.9	20.7	0.00e+00	0	43	0	1177550848	59	4010
2026-01-28 01:45:13.14	324.43	54.43	-43.5	-44.4	21.1	0.00e+00	0	43	0	1180696576	59	3817
2026-01-28 01:45:14.15	323.70	54.52	-43.5	-44.4	21.0	0.00e+00	0	43	0	1183842304	58	4035
2026-01-28 01:45:15.16	322.97	54.61	-43.4	-44.3	21.2	0.00e+00	0	43	0	1186988032	58	3960
2026-01-28 01:45:16.17	322.24	54.69	-43.5	-44.4	21.2	0.00e+00	0	43	0	1190133760	58	4014
2026-01-28 01:45:17.17	321.51	54.77	-43.1	-44.0	21.5	0.00e+00	0	43	0	1193279488	58	3827
2026-01-28 01:45:18.18	320.77	54.85	-43.0	-43.8	21.6	0.00e+00	0	43	0	1196425216	57	3988
2026-01-28 01:45:19.19	320.03	54.92	-42.9	-43.8	21.7	0.00e+00	0	43	0	1199570944	57	3961
2026-01-28 01:45:20.20	319.28	54.98	-43.0	-43.8	21.5	0.00e+00	0	43	0	1202716672	57	3991
2026-01-28 01:45:21.21	318.53	55.04	-42.9	-43.8	21.7	0.00e+00	0	43	0	1205862400	57	3964
2026-01-28 01:45:22.22	317.77	55.10	-43.0	-43.8	21.6	0.00e+00	0	43	0	1209008128	57	3992
2026-01-28 01:45:23.23	317.01	55.15	-43.3	-44.2	21.2	0.00e+00	0	43	0	1212153856	57	4159
2026-01-28 01:45:24.23	316.26	55.19	-43.5	-44.4	21.1	0.00e+00	0	43	0	1215299584	57	4244
2026-01-28 01:45:25.24	315.50	55.23	-43.5	-44.4	21.1	0.00e+00	0	43	0	1218445312	57	4254
2026-01-28 01:45:26.24	314.74	55.27	-43.4	-44.3	21.2	0.00e+00	0	43	0	1221591040	57	4230
2026-01-28 01:45:27.25	313.98	55.30	-43.1	-43.9	21.5	0.00e+00	0	43	0	1224736768	57	4051
2026-01-28 01:45:28.26	313.21	55.32	-43.1	-44.0	21.5	0.00e+00	0	43	0	1227882496	57	4070
2026-01-28 01:45:29.27	312.44	55.34	-43.3	-44.2	21.3	0.00e+00	0	43	0	1231028224	57	4176
2026-01-28 01:45:30.28	311.67	55.36	-43.3	-44.2	21.3	0.00e+00	0	43	0	1234173952	57	4169
2026-01-28 01:45:31.29	310.90	55.37	-43.2	-44.1	21.4	0.00e+00	0	43	0	1237319680	57	4104
2026-01-28 01:45:32.30	310.13	55.37	-43.0	-43.9	21.3	0.00e+00	0	43	0	1240465408	57	4010
2026-01-28 01:45:33.31	309.36	55.37	-43.2	-44.1	21.3	0.00e+00	0	43	0	1243611136	57	4102
2026-01-28 01:45:34.32	308.59	55.37	-43.2	-44.1	21.3	0.00e+00	0	43	0	1246756864	57	4122
2026-01-28 01:45:35.33	307.81	55.36	-43.5	-44.4	21.0	0.00e+00	0	43	0	1249902592	57	4259
2026-01-28 01:45:36.34	307.04	55.34	-44.3	-45.3	20.4	0.00e+00	0	43	0	1253048320	59	4200
2026-01-28 01:45:37.35	306.28	55.32	-44.2	-45.1	20.5	0.00e+00	0	43	0	1256194048	59	4144
2026-01-28 01:45:38.36	305.51	55.29	-44.1	-45.1	20.5	0.00e+00	0	43	0	1259339776	59	4107
2026-01-28 01:45:39.37	304.74	55.26	-43.9	-44.8	20.7	0.00e+00	0	43	0	1262485504	59	3997
2026-01-28 01:45:40.37	303.98	55.23	-43.7	-44.6	20.9	0.00e+00	0	43	0	1265631232	59	3883
2026-01-28 01:45:41.38	303.22	55.19	-43.8	-44.7	20.7	0.00e+00	0	43	0	1268776960	59	3953
2026-01-28 01:45:42.39	302.46	55.14	-44.1	-45.1	20.3	0.00e+00	0	43	0	1271922688	59	4101
2026-01-28 01:45:43.39	301.71	55.09	-44.1	-45.1	20.3	0.00e+00	0	43	0	1275068416	59	4107
2026-01-28 01:45:44.41	300.95	55.03	-43.8	-44.7	20.7	0.00e+00	0	43	0	1278214144	59	3945
2026-01-28 01:45:45.42	300.20	54.97	-43.8	-44.8	20.5	0.00e+00	0	43	0	1281359872	59	3978
2026-01-28 01:45:46.42	299.46	54.91	-43.4	-44.3	21.1	0.00e+00	0	43	0	1284505600	58	3978
2026-01-28 01:45:47.43	298.71	54.84	-43.3	-44.1	21.3	0.00e+00	0	43	0	1287651328	58	3908
2026-01-28 01:45:48.44	297.97	54.76	-43.9	-44.8	20.7	0.00e+00	0	43	0	1290797056	58	4218
2026-01-28 01:45:49.44	297.24	54.68	-44.0	-45.0	20.5	0.00e+00	0	43	0	1293942784	58	4309
2026-01-28 01:45:50.45	296.51	54.60	-44.0	-45.0	20.5	0.00e+00	0	43	0	1297088512	58	4319
2026-01-28 01:45:51.46	295.78	54.51	-44.1	-45.0	20.5	0.00e+00	0	43	0	1300234240	58	4334
2026-01-28 01:45:52.47	295.06	54.42	-43.8	-44.7	20.8	0.00e+00	0	43	0	1303379968	58	4163
2026-01-28 01:45:53.48	294.34	54.32	-43.5	-44.4	21.1	0.00e+00	0	43	0	1306525696	58	4031
2026-01-28 01:45:54.49	293.63	54.22	-43.5	-44.3	21.1	0.00e+00	0	43	0	1309671424	58	3996
2026-01-28 01:45:55.50	292.92	54.11	-43.7	-44.7	20.8	0.00e+00	0	43	0	1312817152	58	4146
2026-01-28 01:45:56.51	292.21	54.00	-43.7	-44.6	20.9	0.00e+00	0	43	0	1315962880	58	4113
2026-01-28 01:45:57.52	291.52	53.89	-43.2	-44.1	21.4	0.00e+00	0	43	0	1319108608	58	3885
2026-01-28 01:45:58.53	290.82	53.77	-43.2	-44.1	21.3	0.00e+00	0	43	0	1322254336	58	3882
2026-01-28 01:45:59.53	290.15	53.65	-42.9	-43.8	21.7	0.00e+00	0	43	0	1325400064	57	3973
2026-01-28 01:46:00.54	289.46	53.52	-43.1	-44.0	21.5	0.00e+00	0	43	0	1328545792	57	4053
2026-01-28 01:46:01.55	288.79	53.39	-44.2	-44.7	20.9	0.00e+00	0	43	0	1331691520	58	4172
2026-01-28 01:46:02.56	288.12	53.26	-44.4	-45.4	20.3	0.00e+00	0	43	0	1334837248	59	4251
2026-01-28 01:46:03.57	287.46	53.12	-44.4	-45.4	20.2	0.00e+00	0	43	0	1337982976	59	4262
2026-01-28 01:46:04.58	286.80	52.98	-44.1	-45.0	20.5	0.00e+00	0	43	0	1341128704	59	4079
2026-01-28 01:46:05.59	286.15	52.84	-43.9	-44.8	20.8	0.00e+00	0	43	0	1344274432	59	3975
2026-01-28 01:46:06.60	285.51	52.69	-43.3	-44.1	21.3	0.00e+00	0	43	0	1347420160	58	3910
2026-01-28 01:46:07.61	284.87	52.54	-43.0	-43.8	21.6	0.00e+00	0	43	0	1350565888	57	3991
2026-01-28 01:46:08.61	284.25	52.39	-43.7	-44.6	21.0	0.00e+00	0	43	0	1353711616	57	4361
2026-01-28 01:46:09.61	283.63	52.23	-44.1	-45.0	20.5	0.00e+00	0	43	0	1356857344	58	4339
2026-01-28 01:46:10.62	283.01	52.07	-43.9	-44.8	20.8	0.00e+00	0	43	0	1360003072	58	4231
2026-01-28 01:46:11.63	282.40	51.91	-43.6	-44.5	21.0	0.00e+00	0	43	0	1363148800	58	4070
2026-01-28 01:46:12.64	281.80	51.74	-43.3	-44.2	21.1	0.00e+00	0	43	0	1366294528	58	3922
2026-01-28 01:46:13.64	281.21	51.58	-43.3	-44.1	21.1	0.00e+00	0	43	0	1369440256	58	3898
2026-01-28 01:46:14.64	280.63	51.41	-44.1	-45.0	20.5	0.00e+00	0	43	0	1372585984	58	4323
2026-01-28 01:46:15.65	280.04	51.23	-44.4	-45.4	19.9	0.00e+00	0	43	0	1375731712	60	4015
2026-01-28 01:46:16.66	279.47	51.06	-44.4	-45.4	19.9	0.00e+00	0	43	0	1378877440	60	4027
2026-01-28 01:46:17.67	278.90	50.88	-44.4	-45.4	19.8	0.00e+00	0	43	0	1382023168	60	4036
2026-01-28 01:46:18.68	278.33	50.70	-44.3	-45.4	19.5	0.00e+00	0	43	0	1386217472	60	4007
2026-01-28 01:46:19.69	277.78	50.52	-44.2	-45.2	19.9	0.00e+00	0	43	0	1388314624	60	3924
2026-01-28 01:46:20.69	277.23	50.33	-44.3	-45.3	20.2	0.00e+00	0	43	0	1391460352	59	4235
2026-01-28 01:46:21.70	276.69	50.15	-44.5	-45.5	20.1	0.00e+00	0	43	0	1394606080	59	4320
2026-01-28 01:46:22.71	276.15	49.96	-44.4	-45.5	19.8	0.00e+00	0	43	0	1397751808	60	4061
2026-01-28 01:46:23.72	275.62	49.77	-44.4	-45.5	19.8	0.00e+00	0	43	0	1400897536	60	4055
2026-01-28 01:46:24.73	275.10	49.58	-44.4	-45.5	19.7	0.00e+00	0	43	0	1404043264	60	4054
2026-01-28 01:46:25.74	274.58	49.38	-44.3	-45.3	19.9	0.00e+00	0	43	0	1407188992	60	3973
2026-01-28 01:46:26.75	274.07	49.19	-44.2	-45.2	19.9	0.00e+00	0	43	0	1410334720	60	3957
2026-01-28 01:46:27.75	273.58	48.99	-44.2	-45.2	20.1	0.00e+00	0	43	0	1413480448	59	4175
2026-01-28 01:46:28.76	273.08	48.79	-44.5	-45.5	20.1	0.00e+00	0	43	0	1416626176	59	4324
2026-01-28 01:46:29.77	272.59	48.59	-44.9	-46.0	19.2	0.00e+00	0	43	0	1419771904	60	4321
2026-01-28 01:46:30.78	272.10	48.39	-45.9	-47.2	18.1	0.00e+00	0	43	0	1423966208	62	4412
2026-01-28 01:46:31.79	271.63	48.19	-46.2	-47.6	17.6	0.00e+00	0	43	0	1427111936	63	4351
2026-01-28 01:46:32.79	271.16	47.99	-45.7	-46.9	18.1	0.00e+00	0	43	0	1430257664	63	4018
2026-01-28 01:46:33.80	270.69	47.78	-44.9	-45.9	19.0	0.00e+00	0	43	0	1433403392	61	4047
2026-01-28 01:46:34.81	270.24	47.57	-44.4	-45.4	19.8	0.00e+00	0	43	0	1435500544	60	4017
2026-01-28 01:46:35.82	269.78	47.37	-44.1	-45.0	20.1	0.00e+00	0	43	0	1438646272	60	3839
2026-01-28 01:46:36.83	269.34	47.16	-44.4	-45.3	20.0	0.00e+00	0	43	0	1441792000	59	4220
2026-01-28 01:46:37.83	268.90	46.95	-44.4	-45.4	19.7	0.00e+00	0	43	0	1444937728	60	4037
2026-01-28 01:46:38.84	268.46	46.74	-45.5	-46.6	18.7	0.00e+00	0	43	0	1448083456	61	4371
2026-01-28 01:46:39.85	268.03	46.53	-46.4	-47.7	17.7	0.00e+00	0	43	0	1451229184	63	4440
2026-01-28 01:46:40.86	267.61	46.32	-46.5	-47.9	17.3	0.00e+00	0	43	0	1454374912	63	4517
2026-01-28 01:46:41.87	267.19	46.11	-45.9	-47.1	17.4	0.00e+00	0	43	0	1457520640	63	4129
2026-01-28 01:46:42.88	266.78	45.90	-44.7	-45.8	18.5	0.00e+00	0	43	0	1461714944	61	3987
2026-01-28 01:46:43.89	266.37	45.68	-44.2	-45.1	19.5	0.00e+00	0	43	0	1464860672	60	3906
2026-01-28 01:46:44.89	265.98	45.47	-44.1	-45.1	20.2	0.00e+00	0	43	0	1468006400	59	4112
2026-01-28 01:46:45.90	265.58	45.26	-44.4	-45.4	19.9	0.00e+00	0	43	0	1471152128	59	4245
2026-01-28 01:46:46.91	265.19	45.05	-44.8	-45.8	19.3	0.00e+00	0	43	0	1474297856	60	4219
2026-01-28 01:46:47.92	264.80	44.83	-45.9	-47.2	18.1	0.00e+00	0	43	0	1477443584	62	4393
2026-01-28 01:46:48.93	264.42	44.62	-46.7	-48.1	17.3	0.00e+00	0	43	0	1480589312	63	4643
2026-01-28 01:46:49.93	264.05	44.40	-46.5	-47.9	17.4	0.00e+00	0	43	0	1482686464	64	4253
2026-01-28 01:46:50.94	263.68	44.19	-46.0	-47.3	17.9	0.00e+00	0	43	0	1485832192	64	4002
2026-01-28 01:46:51.95	263.32	43.97	-45.6	-46.8	18.5	0.00e+00	0	43	0	1488977920	63	3965
2026-01-28 01:46:52.96	262.96	43.76	-44.9	-46.0	19.2	0.00e+00	0	43	0	1492123648	61	4072
2026-01-28 01:46:53.97	262.60	43.54	-44.1	-45.0	20.0	0.00e+00	0	43	0	1496317952	60	3863
2026-01-28 01:46:54.98	262.25	43.33	-44.1	-45.1	20.4	0.00e+00	0	43	0	1499463680	59	4100
2026-01-28 01:46:55.99	261.91	43.11	-44.3	-45.2	20.2	0.00e+00	0	43	0	1502609408	59	4192
2026-01-28 01:46:57.00	261.56	42.90	-44.6	-45.7	19.5	0.00e+00	0	43	0	1505755136	60	4152
2026-01-28 01:46:58.01	261.23	42.68	-45.5	-46.7	18.6	0.00e+00	0	43	0	1508900864	61	4420
2026-01-28 01:46:59.01	260.90	42.47	-45.7	-46.9	18.3	0.00e+00	0	43	0	1512046592	62	4260
2026-01-28 01:47:00.02	260.57	42.25	-44.8	-45.9	18.8	0.00e+00	0	43	0	1515192320	61	4033
2026-01-28 01:47:01.03	260.25	42.04	-44.2	-45.1	19.5	0.00e+00	0	43	0	1518338048	60	3910
2026-01-28 01:47:02.04	259.93	41.82	-44.2	-45.2	19.7	0.00e+00	0	43	0	1521483776	60	3924
2026-01-28 01:47:03.04	259.62	41.61	-44.3	-45.3	19.7	0.00e+00	0	43	0	1524629504	60	3982
2026-01-28 01:47:04.05	259.31	41.40	-45.0	-46.1	19.0	0.00e+00	0	43	0	1527775232	60	4369
2026-01-28 01:47:05.06	259.00	41.19	-45.7	-46.9	18.3	0.00e+00	0	43	0	1529872384	61	4510
2026-01-28 01:47:06.07	258.70	40.97	-45.9	-47.1	18.1	0.00e+00	0	43	0	1533018112	62	4390
2026-01-28 01:47:07.08	258.40	40.76	-45.6	-46.8	18.5	0.00e+00	0	43	0	1537212416	62	4201
2026-01-28 01:47:08.09	258.10	40.55	-45.3	-46.4	18.8	0.00e+00	0	43	0	1540358144	62	4042
2026-01-28 01:47:09.10	257.81	40.33	-45.1	-46.3	18.8	0.00e+00	0	43	0	1543503872	62	3966
2026-01-28 01:47:10.11	257.53	40.12	-44.9	-46.0	19.2	0.00e+00	0	43	0	1546649600	61	4077
2026-01-28 01:47:11.12	257.24	39.91	-44.5	-45.5	19.6	0.00e+00	0	43	0	1549795328	61	3856
2026-01-28 01:47:12.13	256.96	39.70	-44.3	-45.3	19.9	0.00e+00	0	43	0	1552941056	59	4212
2026-01-28 01:47:13.14	256.69	39.49	-43.6	-44.5	20.6	0.00e+00	0	43	0	1556086784	59	3855
2026-01-28 01:47:14.15	256.42	39.28	-43.4	-44.2	20.9	0.00e+00	0	43	0	1559232512	58	3949
2026-01-28 01:47:15.16	256.15	39.07	-43.1	-43.9	21.2	0.00e+00	0	43	0	1562378240	58	3820
2026-01-28 01:47:16.17	255.88	38.86	-43.7	-44.6	20.6	0.00e+00	0	43	0	1565523968	58	4112
2026-01-28 01:47:17.17	255.62	38.66	-44.5	-45.6	19.8	0.00e+00	0	43	0	1568669696	59	4342
2026-01-28 01:47:18.18	255.36	38.45	-45.1	-46.2	19.0	0.00e+00	0	43	0	1571815424	60	4418
2026-01-28 01:47:19.19	255.11	38.24	-45.3	-46.5	18.5	0.00e+00	0	43	0	1574961152	61	4317
2026-01-28 01:47:20.20	254.86	38.03	-45.2	-46.3	18.5	0.00e+00	0	43	0	1578106880	61	4231
2026-01-28 01:47:21.21	254.61	37.83	-44.8	-46.0	18.9	0.00e+00	0	43	0	1581252608	61	4053
2026-01-28 01:47:22.21	254.37	37.63	-44.7	-45.8	19.2	0.00e+00	0	43	0	1584398336	61	3978
2026-01-28 01:47:23.22	254.12	37.42	-44.7	-45.7	19.3	0.00e+00	0	43	0	1587544064	61	3947
2026-01-28 01:47:24.23	253.88	37.22	-44.7	-45.8	19.2	0.00e+00	0	43	0	1590689792	61	3963
2026-01-28 01:47:25.24	253.65	37.01	-44.7	-45.8	19.2	0.00e+00	0	43	0	1593835520	61	4003
2026-01-28 01:47:26.25	253.41	36.81	-44.5	-45.6	19.4	0.00e+00	0	43	0	1596981248	60	4102
2026-01-28 01:47:27.26	253.18	36.61	-44.2	-45.3	19.7	0.00e+00	0	43	0	1600126976	60	3976
2026-01-28 01:47:28.27	252.96	36.41	-44.2	-45.2	19.8	0.00e+00	0	43	0	1603272704	60	3930
2026-01-28 01:47:29.27	252.73	36.21	-44.2	-45.2	19.8	0.00e+00	0	43	0	1606418432	60	3933
2026-01-28 01:47:30.29	252.51	36.01	-44.2	-45.2	19.8	0.00e+00	0	43	0	1609564160	60	3932
2026-01-28 01:47:31.30	252.29	35.81	-44.2	-45.3	19.7	0.00e+00	0	43	0	1612709888	60	3959
2026-01-28 01:47:32.30	252.07	35.61	-44.7	-45.8	19.3	0.00e+00	0	43	0	1615855616	60	4208
2026-01-28 01:47:33.31	251.86	35.42	-44.7	-45.8	19.2	0.00e+00	0	43	0	1619001344	60	4199
2026-01-28 01:47:34.32	251.65	35.22	-44.6	-45.7	19.1	0.00e+00	0	43	0	1622147072	60	4177
2026-01-28 01:47:35.33	251.44	35.02	-44.5	-45.5	19.2	0.00e+00	0	43	0	1625292800	60	4093
2026-01-28 01:47:36.33	251.23	34.83	-44.1	-45.1	19.7	0.00e+00	0	43	0	1628438528	60	3874
2026-01-28 01:47:37.34	251.03	34.64	-44.0	-45.0	20.2	0.00e+00	0	43	0	1631584256	59	4078
2026-01-28 01:47:38.35	250.83	34.44	-43.7	-44.7	20.4	0.00e+00	0	43	0	1634729984	59	3918
2026-01-28 01:47:39.36	250.63	34.25	-43.6	-44.6	20.6	0.00e+00	0	43	0	1637875712	59	3875
2026-01-28 01:47:40.37	250.43	34.06	-43.7	-44.6	20.6	0.00e+00	0	43	0	1641021440	59	3885
2026-01-28 01:47:41.38	250.24	33.87	-43.8	-44.8	20.5	0.00e+00	0	43	0	1644167168	59	3977
2026-01-28 01:47:42.39	250.05	33.68	-44.0	-45.0	20.3	0.00e+00	0	43	0	1647312896	59	4068
2026-01-28 01:47:43.40	249.86	33.49	-44.1	-45.1	20.1	0.00e+00	0	43	0	1650458624	59	4128
2026-01-28 01:47:44.41	249.67	33.30	-44.1	-45.1	20.1	0.00e+00	0	43	0	1653604352	59	4124
2026-01-28 01:47:45.42	249.48	33.11	-44.0	-44.9	20.2	0.00e+00	0	43	0	1656750080	59	4050
2026-01-28 01:47:46.43	249.30	32.92	-43.8	-44.8	20.4	0.00e+00	0	43	0	1659895808	59	3963
2026-01-28 01:47:47.44	249.12	32.74	-43.5	-44.5	20.6	0.00e+00	0	43	0	1663041536	59	3838
2026-01-28 01:47:48.45	248.94	32.55	-43.4	-44.3	20.7	0.00e+00	0	43	0	1666187264	58	4003
2026-01-28 01:47:49.46	248.76	32.37	-43.3	-44.2	20.9	0.00e+00	0	43	0	1669332992	58	3953
2026-01-28 01:47:50.47	248.59	32.18	-43.1	-44.0	21.0	0.00e+00	0	43	0	1672478720	58	3865
2026-01-28 01:47:51.47	248.42	32.00	-43.1	-43.9	21.1	0.00e+00	0	43	0	1675624448	58	3818
2026-01-28 01:47:52.48	248.25	31.82	-43.1	-43.9	21.1	0.00e+00	0	43	0	1678770176	58	3824
2026-01-28 01:47:53.49	248.08	31.64	-43.0	-43.9	21.1	0.00e+00	0	43	0	1681915904	58	3801
2026-01-28 01:47:54.50	247.91	31.46	-43.2	-44.1	21.0	0.00e+00	0	43	0	1685061632	58	3871
2026-01-28 01:47:55.51	247.74	31.28	-43.3	-44.2	20.9	0.00e+00	0	43	0	1688207360	58	3926
2026-01-28 01:47:56.51	247.58	31.10	-43.5	-44.4	20.7	0.00e+00	0	43	0	1691353088	58	4033
2026-01-28 01:47:57.52	247.42	30.92	-43.6	-44.5	20.6	0.00e+00	0	43	0	1694498816	58	4095
2026-01-28 01:47:58.53	247.26	30.75	-43.8	-44.8	20.4	0.00e+00	0	43	0	1697644544	58	4199
2026-01-28 01:47:59.54	247.10	30.57	-43.9	-44.9	20.2	0.00e+00	0	43	0	1700790272	58	4276
2026-01-28 01:48:00.55	246.95	30.39	-43.9	-44.9	20.3	0.00e+00	0	43	0	1703936000	58	4263
2026-01-28 01:48:01.56	246.79	30.22	-43.9	-44.9	20.3	0.00e+00	0	43	0	1707081728	58	4253
2026-01-28 01:48:02.57	246.64	30.04	-43.6	-44.6	20.5	0.00e+00	0	43	0	1710227456	58	4104
2026-01-28 01:48:03.58	246.49	29.87	-43.6	-44.5	20.5	0.00e+00	0	43	0	1713373184	58	4092
2026-01-28 01:48:04.59	246.34	29.70	-43.3	-44.3	20.8	0.00e+00	0	43	0	1716518912	58	3963
2026-01-28 01:48:05.60	246.19	29.53	-42.8	-43.7	21.2	0.00e+00	0	43	0	1719664640	57	3935
2026-01-28 01:48:06.61	246.04	29.36	-42.7	-43.5	21.4	0.00e+00	0	43	0	1722810368	57	3855
2026-01-28 01:48:07.61	245.90	29.19	-42.7	-43.5	21.4	0.00e+00	0	43	0	1725956096	57	3868
2026-01-28 01:48:08.62	245.76	29.02	-42.6	-43.5	21.5	0.00e+00	0	43	0	1729101824	57	3825
2026-01-28 01:48:09.63	245.61	28.85	-42.5	-43.4	21.5	0.00e+00	0	43	0	1732247552	57	3792
2026-01-28 01:48:10.64	245.47	28.68	-42.4	-43.3	21.6	0.00e+00	0	43	0	1735393280	56	3966
2026-01-28 01:48:11.65	245.34	28.52	-42.6	-43.4	21.5	0.00e+00	0	43	0	1738539008	56	4039
2026-01-28 01:48:12.66	245.20	28.35	-42.6	-43.5	21.4	0.00e+00	0	43	0	1741684736	56	4066
2026-01-28 01:48:13.67	245.06	28.19	-42.8	-43.6	21.3	0.00e+00	0	43	0	1744830464	56	4145
2026-01-28 01:48:14.68	244.93	28.02	-42.8	-43.7	21.2	0.00e+00	0	43	0	1747976192	56	4187
2026-01-28 01:48:15.69	244.79	27.86	-43.0	-43.9	21.1	0.00e+00	0	43	0	1751121920	56	4243
2026-01-28 01:48:16.69	244.66	27.70	-42.9	-43.8	21.1	0.00e+00	0	43	0	1754267648	56	4233
2026-01-28 01:48:17.70	244.53	27.54	-42.8	-43.7	21.2	0.00e+00	0	43	0	1757413376	56	4174
2026-01-28 01:48:18.71	244.40	27.37	-42.7	-43.5	21.4	0.00e+00	0	43	0	1760559104	56	4092
2026-01-28 01:48:19.72	244.28	27.21	-42.6	-43.5	21.4	0.00e+00	0	43	0	1763704832	56	4063
2026-01-28 01:48:20.73	244.15	27.05	-42.6	-43.5	21.4	0.00e+00	0	43	0	1766850560	56	4052
2026-01-28 01:48:21.73	244.03	26.90	-42.5	-43.3	21.4	0.00e+00	0	43	0	1769996288	56	4002
2026-01-28 01:48:22.74	243.90	26.74	-42.5	-43.3	21.5	0.00e+00	0	43	0	1773142016	56	3996
2026-01-28 01:48:23.75	243.78	26.58	-42.4	-43.3	21.5	0.00e+00	0	43	0	1776287744	56	3981
2026-01-28 01:48:24.76	243.66	26.42	-42.4	-43.3	21.5	0.00e+00	0	43	0	1779433472	56	3967
2026-01-28 01:48:25.77	243.54	26.27	-42.5	-43.4	21.4	0.00e+00	0	43	0	1782579200	56	4024
2026-01-28 01:48:26.78	243.42	26.11	-42.6	-43.4	21.4	0.00e+00	0	43	0	1785724928	56	4036
2026-01-28 01:48:27.79	243.30	25.96	-42.6	-43.4	21.4	0.00e+00	0	43	0	1788870656	56	4035
2026-01-28 01:48:28.80	243.18	25.81	-42.6	-43.4	21.4	0.00e+00	0	43	0	1792016384	56	4041
2026-01-28 01:48:29.81	243.07	25.65	-42.5	-43.4	21.5	0.00e+00	0	43	0	1795162112	56	4033
2026-01-28 01:48:30.81	242.96	25.50	-42.6	-43.5	21.4	0.00e+00	0	43	0	1798307840	56	4083
2026-01-28 01:48:31.82	242.84	25.35	-42.6	-43.5	21.4	0.00e+00	0	43	0	1801453568	56	4058
2026-01-28 01:48:32.83	242.73	25.20	-42.6	-43.5	21.4	0.00e+00	0	43	0	1804599296	56	4058
2026-01-28 01:48:33.83	242.62	25.05	-42.6	-43.4	21.4	0.00e+00	0	43	0	1807745024	56	4036
2026-01-28 01:48:34.84	242.51	24.90	-42.6	-43.5	21.4	0.00e+00	0	43	0	1810890752	56	4058
2026-01-28 01:48:35.85	242.40	24.76	-42.4	-43.3	21.6	0.00e+00	0	43	0	1814036480	56	3976
2026-01-28 01:48:36.86	242.29	24.61	-42.3	-43.1	21.7	0.00e+00	0	43	0	1817182208	56	3900
2026-01-28 01:48:37.87	242.19	24.46	-42.3	-43.1	21.7	0.00e+00	0	43	0	1820327936	56	3890
2026-01-28 01:48:38.88	242.08	24.31	-42.1	-42.9	21.9	0.00e+00	0	43	0	1823473664	56	3813
2026-01-28 01:48:39.89	241.98	24.17	-42.2	-43.0	21.8	0.00e+00	0	43	0	1826619392	56	3865
2026-01-28 01:48:40.89	241.87	24.03	-42.1	-43.0	21.8	0.00e+00	0	43	0	1829765120	56	3831
2026-01-28 01:48:41.90	241.77	23.88	-42.2	-43.0	21.8	0.00e+00	0	43	0	1832910848	56	3847
2026-01-28 01:48:42.91	241.67	23.74	-42.3	-43.1	21.7	0.00e+00	0	43	0	1836056576	56	3886
2026-01-28 01:48:43.91	241.57	23.60	-42.4	-43.2	21.6	0.00e+00	0	43	0	1839202304	56	3951
2026-01-28 01:48:44.92	241.47	23.45	-42.4	-43.3	21.5	0.00e+00	0	43	0	1842348032	56	3985
2026-01-28 01:48:45.93	241.37	23.31	-42.6	-43.5	21.4	0.00e+00	0	43	0	1845493760	56	4064
2026-01-28 01:48:46.94	241.27	23.17	-42.8	-43.7	21.2	0.00e+00	0	43	0	1848639488	56	4152
2026-01-28 01:48:47.95	241.17	23.03	-42.9	-43.8	21.1	0.00e+00	0	43	0	1851785216	56	4225
2026-01-28 01:48:48.96	241.08	22.89	-43.0	-44.0	21.0	0.00e+00	0	43	0	1854930944	56	4299
2026-01-28 01:48:49.97	240.98	22.75	-43.1	-44.1	20.8	0.00e+00	0	43	0	1858076672	56	4357
2026-01-28 01:48:50.97	240.89	22.62	-43.3	-44.3	20.6	0.00e+00	0	43	0	1861222400	57	4196
2026-01-28 01:48:51.98	240.79	22.48	-43.4	-44.4	20.5	0.00e+00	0	43	0	1864368128	57	4259
2026-01-28 01:48:52.99	240.70	22.34	-43.3	-44.3	20.5	0.00e+00	0	43	0	1867513856	57	4231
2026-01-28 01:48:53.99	240.61	22.21	-43.3	-44.3	20.5	0.00e+00	0	43	0	1870659584	57	4222
2026-01-28 01:48:55.00	240.52	22.07	-43.2	-44.2	20.5	0.00e+00	0	43	0	1873805312	57	4167
2026-01-28 01:48:56.01	240.43	21.94	-43.1	-44.0	20.7	0.00e+00	0	43	0	1876951040	57	4083
2026-01-28 01:48:57.02	240.34	21.80	-43.0	-44.0	20.7	0.00e+00	0	43	0	1880096768	57	4059
2026-01-28 01:48:58.02	240.25	21.67	-42.7	-43.6	21.0	0.00e+00	0	43	0	1883242496	57	3885
2026-01-28 01:48:59.03	240.16	21.54	-42.6	-43.5	21.1	0.00e+00	0	43	0	1886388224	57	3843
2026-01-28 01:49:00.04	240.07	21.40	-42.6	-43.5	21.0	0.00e+00	0	43	0	1889533952	57	3854
2026-01-28 01:49:01.04	239.99	21.27	-42.3	-43.1	21.4	0.00e+00	0	43	0	1892679680	56	3900
2026-01-28 01:49:02.05	239.90	21.14	-42.2	-43.0	21.5	0.00e+00	0	43	0	1895825408	56	3847
2026-01-28 01:49:03.06	239.82	21.01	-42.1	-42.9	21.6	0.00e+00	0	43	0	1898971136	56	3798
2026-01-28 01:49:04.07	239.73	20.88	-42.1	-42.9	21.6	0.00e+00	0	43	0	1902116864	56	3802
2026-01-28 01:49:05.08	239.65	20.75	-41.8	-42.6	21.8	0.00e+00	0	43	0	1905262592	55	3871
2026-01-28 01:49:06.09	239.57	20.62	-41.8	-42.6	21.8	0.00e+00	0	43	0	1908408320	55	3883
2026-01-28 01:49:07.10	239.49	20.50	-41.8	-42.6	21.9	0.00e+00	0	43	0	1911554048	55	3889
2026-01-28 01:49:08.10	239.40	20.37	-41.7	-42.5	21.9	0.00e+00	0	43	0	1914699776	55	3849
2026-01-28 01:49:09.12	239.32	20.24	-41.7	-42.5	21.9	0.00e+00	0	43	0	1917845504	55	3848
2026-01-28 01:49:10.13	239.24	20.11	-41.8	-42.6	21.9	0.00e+00	0	43	0	1920991232	55	3888
2026-01-28 01:49:11.13	239.16	19.99	-41.7	-42.6	21.9	0.00e+00	0	43	0	1924136960	55	3869
2026-01-28 01:49:12.14	239.09	19.86	-41.7	-42.5	21.9	0.00e+00	0	43	0	1927282688	55	3856
2026-01-28 01:49:13.15	239.01	19.74	-41.8	-42.6	21.9	0.00e+00	0	43	0	1930428416	55	3907
2026-01-28 01:49:14.17	238.93	19.61	-41.8	-42.6	21.8	0.00e+00	0	43	0	1933574144	55	3905
2026-01-28 01:49:15.17	238.85	19.49	-41.9	-42.7	21.8	0.00e+00	0	43	0	1937768448	55	3928
2026-01-28 01:49:16.18	238.78	19.37	-41.9	-42.7	21.7	0.00e+00	0	43	0	1939865600	55	3951
2026-01-28 01:49:17.19	238.70	19.25	-42.0	-42.8	21.6	0.00e+00	0	43	0	1943011328	55	3989
2026-01-28 01:49:18.20	238.63	19.12	-42.0	-42.8	21.6	0.00e+00	0	43	0	1946157056	55	3992
2026-01-28 01:49:19.21	238.55	19.00	-42.1	-42.9	21.5	0.00e+00	0	43	0	1949302784	55	4033
2026-01-28 01:49:20.22	238.48	18.88	-42.1	-42.9	21.5	0.00e+00	0	43	0	1952448512	55	4041
2026-01-28 01:49:21.23	238.41	18.76	-42.2	-43.0	21.4	0.00e+00	0	43	0	1955594240	55	4094
2026-01-28 01:49:22.23	238.34	18.64	-42.2	-43.1	21.4	0.00e+00	0	43	0	1958739968	55	4109
2026-01-28 01:49:23.24	238.26	18.52	-42.3	-43.2	21.3	0.00e+00	0	43	0	1961885696	55	4169
2026-01-28 01:49:24.25	238.19	18.41	-42.4	-43.2	21.3	0.00e+00	0	43	0	1965031424	55	4191
2026-01-28 01:49:25.26	238.12	18.29	-42.4	-43.3	21.2	0.00e+00	0	43	0	1968177152	55	4229
2026-01-28 01:49:26.27	238.05	18.17	-42.5	-43.4	21.1	0.00e+00	0	43	0	1972371456	55	4279
2026-01-28 01:49:27.28	237.98	18.05	-42.6	-43.5	21.1	0.00e+00	0	43	0	1975517184	55	4294
2026-01-28 01:49:28.29	237.91	17.94	-42.8	-43.8	20.9	0.00e+00	0	43	0	1978662912	56	4196
2026-01-28 01:49:29.30	237.84	17.82	-42.8	-43.8	20.9	0.00e+00	0	43	0	1981808640	56	4198
2026-01-28 01:49:30.31	237.78	17.70	-42.8	-43.8	20.9	0.00e+00	0	43	0	1984954368	56	4200
2026-01-28 01:49:31.32	237.71	17.59	-43.0	-44.0	20.8	0.00e+00	0	43	0	1987051520	56	4296
2026-01-28 01:49:32.32	237.64	17.47	-43.1	-44.1	20.6	0.00e+00	0	43	0	1990197248	56	4357
2026-01-28 01:49:33.33	237.58	17.36	-43.2	-44.2	20.5	0.00e+00	0	43	0	1993342976	56	4399
2026-01-28 01:49:34.34	237.51	17.25	-43.3	-44.2	20.5	0.00e+00	0	43	0	1996488704	57	4188
2026-01-28 01:49:35.35	237.45	17.13	-43.3	-44.3	20.4	0.00e+00	0	43	0	1999634432	57	4226
2026-01-28 01:49:36.36	237.38	17.02	-43.5	-44.5	20.3	0.00e+00	0	43	0	2002780160	57	4293
2026-01-28 01:49:37.37	237.32	16.91	-43.5	-44.5	20.2	0.00e+00	0	43	0	2005925888	57	4331
2026-01-28 01:49:38.38	237.25	16.80	-43.4	-44.4	20.3	0.00e+00	0	43	0	2010120192	57	4287
2026-01-28 01:49:39.39	237.19	16.69	-43.5	-44.6	20.2	0.00e+00	0	43	0	2013265920	57	4342
2026-01-28 01:49:40.39	237.13	16.58	-43.5	-44.5	20.2	0.00e+00	0	43	0	2016411648	57	4327
2026-01-28 01:49:41.40	237.07	16.47	-43.4	-44.4	20.3	0.00e+00	0	43	0	2019557376	57	4257
2026-01-28 01:49:42.41	237.00	16.36	-43.4	-44.4	20.2	0.00e+00	0	43	0	2022703104	57	4262
2026-01-28 01:49:43.42	236.94	16.25	-43.5	-44.5	20.1	0.00e+00	0	43	0	2025848832	57	4314
2026-01-28 01:49:44.43	236.88	16.14	-43.4	-44.4	20.2	0.00e+00	0	43	0	2028994560	57	4243
2026-01-28 01:49:45.44	236.82	16.03	-43.4	-44.4	20.2	0.00e+00	0	43	0	2032140288	57	4265
2026-01-28 01:49:46.44	236.76	15.92	-43.5	-44.5	20.1	0.00e+00	0	43	0	2035286016	57	4316
2026-01-28 01:49:47.45	236.70	15.81	-43.4	-44.3	20.2	0.00e+00	0	43	0	2037383168	57	4236
2026-01-28 01:49:48.46	236.64	15.71	-43.4	-44.4	20.1	0.00e+00	0	43	0	2040528896	57	4281
2026-01-28 01:49:49.47	236.58	15.60	-43.3	-44.2	20.3	0.00e+00	0	43	0	2043674624	57	4179
2026-01-28 01:49:50.48	236.53	15.49	-43.3	-44.3	20.3	0.00e+00	0	43	0	2047868928	57	4210
2026-01-28 01:49:51.49	236.47	15.39	-43.4	-44.4	20.2	0.00e+00	0	43	0	2051014656	57	4263
2026-01-28 01:49:52.49	236.41	15.28	-43.3	-44.2	20.4	0.00e+00	0	43	0	2054160384	57	4174
2026-01-28 01:49:53.51	236.35	15.18	-43.2	-44.1	20.4	0.00e+00	0	43	0	2057306112	57	4145
2026-01-28 01:49:54.51	236.30	15.07	-43.1	-44.0	20.5	0.00e+00	0	43	0	2060451840	57	4096
2026-01-28 01:49:55.52	236.24	14.97	-43.1	-44.1	20.5	0.00e+00	0	43	0	2063597568	57	4103
2026-01-28 01:49:56.53	236.19	14.86	-43.2	-44.1	20.5	0.00e+00	0	43	0	2066743296	57	4123
2026-01-28 01:49:57.54	236.13	14.76	-43.1	-44.0	20.5	0.00e+00	0	43	0	2069889024	57	4085
2026-01-28 01:49:58.55	236.08	14.66	-43.2	-44.1	20.5	0.00e+00	0	43	0	2073034752	57	4122
