passes_logs/2026/01/28/R3.2S_Murmansk/R3.2S_Murmansk__20260128_042953_KANOPUS-V_5_rec.log

#Pass ID: 20260128_042953_KANOPUS-V 5
#Satellite: KANOPUS-V 5
#Configuration: KANOPUS-V_8320
#almurnet v.1.7.20251203
#Start time: 2026-01-28 04:29:55

#Version: 2.2.20231116
#Station: R3.2S_Murmansk
#Location: 33.079688 lon 68.888172 lat
#TLE: 1 43876U 18111A   26027.32158080  .00005009  00000+0  21245-3 0  9994
#TLE: 2 43876  97.3675 295.6129 0001827  89.1739 270.9707 15.23558826393345

#Time	Az	El	Level	Level2	SNR	BER	BlckErr	Temp	State	Recorded	gain1	gain2
2026-01-28 04:29:55.36	75.10	2.13	-53.7	-62.6	3.8	7.44e-01	0	41	0	0	78	10356
2026-01-28 04:29:56.36	74.99	2.19	-53.7	-62.6	3.8	7.45e-01	0	41	104	0	78	10371
2026-01-28 04:29:57.37	74.87	2.24	-53.7	-62.6	3.8	7.47e-01	0	42	104	0	78	10345
2026-01-28 04:29:58.37	74.76	2.30	-53.7	-62.6	3.8	7.45e-01	0	42	104	0	78	10313
2026-01-28 04:29:59.38	74.64	2.36	-53.7	-62.6	3.8	7.44e-01	0	42	104	0	78	10321
2026-01-28 04:30:00.39	74.53	2.41	-53.7	-62.6	3.8	7.43e-01	0	42	104	0	78	10349
2026-01-28 04:30:01.40	74.41	2.47	-53.8	-62.6	3.8	7.46e-01	0	42	104	0	78	10360
2026-01-28 04:30:02.41	74.29	2.53	-53.7	-62.6	3.8	7.43e-01	0	41	104	0	78	10308
2026-01-28 04:30:03.42	74.18	2.59	-53.7	-62.6	3.8	7.45e-01	0	42	104	0	78	10336
2026-01-28 04:30:04.43	74.06	2.64	-53.7	-62.6	3.8	7.46e-01	0	42	104	0	78	10370
2026-01-28 04:30:05.43	73.94	2.70	-53.7	-62.6	3.8	7.44e-01	0	42	104	0	78	10307
2026-01-28 04:30:06.44	73.82	2.76	-53.7	-62.6	3.8	7.46e-01	0	42	104	0	78	10296
2026-01-28 04:30:07.45	73.70	2.82	-53.7	-62.6	3.8	7.45e-01	0	42	104	0	78	10354
2026-01-28 04:30:08.45	73.58	2.87	-53.7	-62.6	3.8	7.45e-01	0	42	104	0	78	10312
2026-01-28 04:30:09.46	73.46	2.93	-53.7	-62.6	3.8	7.45e-01	0	42	104	0	78	10384
2026-01-28 04:30:10.47	73.34	2.99	-53.7	-62.6	3.8	7.44e-01	0	42	104	0	78	10331
2026-01-28 04:30:11.48	73.21	3.05	-53.7	-62.6	3.8	7.44e-01	0	42	104	0	78	10321
2026-01-28 04:30:12.48	73.09	3.10	-53.7	-62.6	3.8	7.45e-01	0	42	104	0	78	10332
2026-01-28 04:30:13.49	72.97	3.16	-53.8	-62.6	3.8	7.45e-01	0	42	104	0	78	10382
2026-01-28 04:30:14.50	72.84	3.22	-53.7	-62.6	3.8	7.44e-01	0	42	104	0	78	10307
2026-01-28 04:30:15.51	72.72	3.28	-53.7	-62.6	3.8	7.46e-01	0	42	104	0	78	10319
2026-01-28 04:30:16.52	72.59	3.34	-53.7	-62.6	3.8	7.46e-01	0	42	104	0	78	10347
2026-01-28 04:30:17.53	72.47	3.39	-53.8	-62.6	3.8	7.44e-01	0	42	104	0	78	10327
2026-01-28 04:30:18.54	72.34	3.45	-53.7	-62.6	3.8	7.44e-01	0	42	104	0	78	10298
2026-01-28 04:30:19.55	72.21	3.51	-53.7	-62.6	3.8	7.45e-01	0	42	104	0	78	10319
2026-01-28 04:30:20.56	72.08	3.57	-53.7	-62.6	3.8	7.45e-01	0	42	104	0	78	10363
2026-01-28 04:30:21.57	71.95	3.63	-53.7	-62.6	3.8	7.45e-01	0	42	104	0	78	10338
2026-01-28 04:30:22.58	71.82	3.69	-53.7	-62.6	3.8	7.44e-01	0	42	104	0	78	10348
2026-01-28 04:30:23.59	71.69	3.74	-53.7	-62.5	3.8	7.43e-01	0	42	104	0	78	10281
2026-01-28 04:30:24.59	71.56	3.80	-53.7	-62.6	3.8	7.47e-01	0	42	104	0	78	10344
2026-01-28 04:30:25.60	71.43	3.86	-53.7	-62.6	3.8	7.46e-01	0	42	104	0	78	10330
2026-01-28 04:30:26.61	71.30	3.92	-53.8	-62.6	3.8	7.46e-01	0	42	104	0	78	10333
2026-01-28 04:30:27.62	71.16	3.98	-53.7	-62.6	3.8	7.46e-01	0	42	104	0	78	10313
2026-01-28 04:30:28.63	71.03	4.04	-53.7	-62.6	3.8	7.45e-01	0	42	104	0	78	10344
2026-01-28 04:30:29.63	70.90	4.10	-53.7	-62.6	3.8	7.46e-01	0	42	104	0	78	10329
2026-01-28 04:30:30.64	70.76	4.15	-53.7	-62.6	3.8	7.45e-01	0	42	104	0	78	10349
2026-01-28 04:30:31.65	70.63	4.21	-53.7	-62.6	3.8	7.46e-01	0	42	104	0	78	10333
2026-01-28 04:30:32.65	70.49	4.27	-53.7	-62.6	3.8	7.45e-01	0	42	104	0	78	10338
2026-01-28 04:30:33.66	70.35	4.33	-53.8	-62.6	3.8	7.46e-01	0	42	104	0	78	10312
2026-01-28 04:30:34.67	70.21	4.39	-53.7	-62.6	3.8	7.45e-01	0	43	104	0	78	10343
2026-01-28 04:30:35.68	70.07	4.45	-53.7	-62.6	3.8	7.45e-01	0	42	104	0	78	10341
2026-01-28 04:30:36.68	69.94	4.51	-53.7	-62.6	3.8	7.46e-01	0	43	104	0	78	10348
2026-01-28 04:30:37.69	69.80	4.57	-53.7	-62.6	3.8	7.46e-01	0	43	104	0	78	10342
2026-01-28 04:30:38.70	69.65	4.63	-53.7	-62.6	3.8	7.45e-01	0	43	104	0	78	10339
2026-01-28 04:30:39.71	69.51	4.69	-53.8	-62.6	3.8	7.43e-01	0	43	104	0	78	10356
2026-01-28 04:30:40.71	69.37	4.74	-53.8	-62.6	3.8	7.46e-01	0	43	104	0	78	10321
2026-01-28 04:30:41.72	69.23	4.80	-53.7	-62.6	3.8	7.45e-01	0	43	104	0	78	10332
2026-01-28 04:30:42.73	69.08	4.86	-53.7	-62.6	3.8	7.46e-01	0	42	104	0	78	10346
2026-01-28 04:30:43.74	68.94	4.92	-53.7	-62.6	3.8	7.44e-01	0	42	104	0	78	10340
2026-01-28 04:30:44.75	68.79	4.98	-53.7	-62.6	3.8	7.45e-01	0	43	104	0	78	10307
2026-01-28 04:30:45.76	68.65	5.04	-53.7	-62.6	3.8	7.45e-01	0	42	104	0	78	10353
2026-01-28 04:30:46.77	68.50	5.10	-53.7	-62.6	3.8	7.45e-01	0	43	104	0	78	10331
2026-01-28 04:30:47.77	68.35	5.16	-53.7	-62.6	3.8	7.45e-01	0	43	104	0	78	10339
2026-01-28 04:30:48.78	68.20	5.22	-53.7	-62.6	3.8	7.46e-01	0	43	104	0	78	10333
2026-01-28 04:30:49.79	68.05	5.28	-53.7	-62.6	3.8	7.44e-01	0	43	104	0	78	10337
2026-01-28 04:30:50.80	67.90	5.34	-53.8	-62.6	3.8	7.46e-01	0	43	104	0	78	10394
2026-01-28 04:30:51.81	67.75	5.40	-53.7	-62.6	3.8	7.46e-01	0	43	104	0	78	10319
2026-01-28 04:30:52.81	67.60	5.46	-53.7	-62.6	3.8	7.47e-01	0	43	104	0	78	10331
2026-01-28 04:30:53.83	67.45	5.52	-53.7	-62.6	3.8	7.43e-01	0	43	104	0	78	10327
2026-01-28 04:30:54.83	67.29	5.58	-53.7	-62.6	3.8	7.44e-01	0	43	104	0	78	10329
2026-01-28 04:30:55.84	67.14	5.64	-53.7	-62.6	3.8	7.43e-01	0	43	104	0	78	10350
2026-01-28 04:30:56.85	66.98	5.70	-53.7	-62.6	3.8	7.46e-01	0	43	104	0	78	10298
2026-01-28 04:30:57.86	66.83	5.76	-53.8	-62.6	3.8	7.46e-01	0	43	104	0	78	10361
2026-01-28 04:30:58.87	66.67	5.82	-53.7	-62.6	3.8	7.47e-01	0	43	104	0	78	10324
2026-01-28 04:30:59.88	66.51	5.88	-53.7	-62.6	3.8	7.47e-01	0	43	104	0	78	10341
2026-01-28 04:31:00.88	66.36	5.94	-53.7	-62.6	3.8	7.45e-01	0	43	104	0	78	10325
2026-01-28 04:31:01.89	66.20	6.00	-53.7	-62.6	3.8	7.45e-01	0	43	104	0	78	10347
2026-01-28 04:31:02.90	66.04	6.06	-53.7	-62.6	3.8	7.45e-01	0	43	104	0	78	10369
2026-01-28 04:31:03.91	65.88	6.11	-53.7	-62.6	3.8	7.46e-01	0	43	104	0	78	10317
2026-01-28 04:31:04.92	65.71	6.17	-53.8	-62.6	3.8	7.47e-01	0	43	104	0	78	10311
2026-01-28 04:31:05.93	65.55	6.23	-53.8	-62.6	3.8	7.47e-01	0	43	104	0	78	10346
2026-01-28 04:31:06.94	65.39	6.29	-53.7	-62.6	3.8	7.46e-01	0	43	104	0	78	10343
2026-01-28 04:31:07.95	65.22	6.35	-53.7	-62.6	3.8	7.45e-01	0	43	104	0	78	10312
2026-01-28 04:31:08.96	65.06	6.41	-53.7	-62.6	3.8	7.46e-01	0	43	104	0	78	10309
2026-01-28 04:31:09.97	64.89	6.47	-53.7	-62.6	3.8	7.45e-01	0	43	104	0	78	10346
2026-01-28 04:31:10.97	64.72	6.53	-53.7	-62.6	3.8	7.45e-01	0	43	104	0	78	10324
2026-01-28 04:31:11.98	64.56	6.59	-53.7	-62.6	3.8	7.46e-01	0	43	104	0	78	10302
2026-01-28 04:31:12.99	64.39	6.65	-53.7	-62.6	3.8	7.46e-01	0	43	104	0	78	10315
2026-01-28 04:31:14.00	64.22	6.71	-53.8	-62.6	3.8	7.44e-01	0	43	104	0	78	10375
2026-01-28 04:31:15.00	64.05	6.77	-53.8	-62.6	3.8	7.45e-01	0	43	104	0	78	10334
2026-01-28 04:31:16.01	63.88	6.83	-53.8	-62.6	3.8	7.46e-01	0	43	104	0	78	10347
2026-01-28 04:31:17.02	63.70	6.89	-53.7	-62.6	3.8	7.47e-01	0	43	104	0	78	10317
2026-01-28 04:31:18.03	63.53	6.95	-53.7	-62.6	3.8	7.46e-01	0	43	104	0	78	10343
2026-01-28 04:31:19.03	63.36	7.01	-53.7	-62.6	3.8	7.46e-01	0	43	104	0	78	10320
2026-01-28 04:31:20.04	63.18	7.07	-53.7	-62.6	3.8	7.44e-01	0	43	104	0	78	10371
2026-01-28 04:31:21.05	63.01	7.13	-53.8	-62.6	3.8	7.45e-01	0	43	104	0	78	10349
2026-01-28 04:31:22.06	62.83	7.19	-53.7	-62.6	3.8	7.44e-01	0	43	104	0	78	10337
2026-01-28 04:31:23.06	62.65	7.25	-53.8	-62.6	3.8	7.45e-01	0	43	104	0	78	10360
2026-01-28 04:31:24.07	62.47	7.31	-53.7	-62.6	3.8	7.44e-01	0	43	104	0	78	10319
2026-01-28 04:31:25.08	62.29	7.37	-53.7	-62.6	3.8	7.45e-01	0	43	104	0	78	10306
2026-01-28 04:31:26.08	62.11	7.43	-53.8	-62.6	3.8	7.45e-01	0	43	104	0	78	10387
2026-01-28 04:31:27.09	61.93	7.49	-53.8	-62.6	3.8	7.46e-01	0	43	104	0	78	10333
2026-01-28 04:31:28.10	61.75	7.55	-53.8	-62.6	3.8	7.45e-01	0	43	104	0	78	10346
2026-01-28 04:31:29.11	61.57	7.61	-53.8	-62.6	3.8	7.45e-01	0	43	104	0	78	10352
2026-01-28 04:31:30.12	61.38	7.67	-53.7	-62.6	3.8	7.46e-01	0	43	104	0	78	10336
2026-01-28 04:31:31.13	61.19	7.73	-53.8	-62.6	3.8	7.44e-01	0	43	104	0	78	10332
2026-01-28 04:31:32.13	61.01	7.78	-53.8	-62.6	3.8	7.47e-01	0	43	104	0	78	10337
2026-01-28 04:31:33.14	60.82	7.84	-53.8	-62.6	3.8	7.45e-01	0	43	104	0	78	10341
2026-01-28 04:31:34.15	60.63	7.90	-53.8	-62.6	3.8	7.46e-01	0	43	104	0	78	10337
2026-01-28 04:31:35.16	60.44	7.96	-53.8	-62.6	3.8	7.44e-01	0	43	104	0	78	10316
2026-01-28 04:31:36.17	60.25	8.02	-53.7	-62.6	3.8	7.46e-01	0	43	104	0	78	10325
2026-01-28 04:31:37.18	60.06	8.08	-53.8	-62.6	3.8	7.45e-01	0	43	104	0	78	10355
2026-01-28 04:31:38.19	59.87	8.14	-53.8	-62.6	3.8	7.46e-01	0	44	104	0	78	10316
2026-01-28 04:31:39.19	59.68	8.20	-53.7	-62.6	3.8	7.45e-01	0	43	104	0	78	10317
2026-01-28 04:31:40.20	59.48	8.26	-53.7	-62.6	3.8	7.45e-01	0	43	104	0	78	10318
2026-01-28 04:31:41.21	59.29	8.32	-53.7	-62.6	3.8	7.46e-01	0	43	104	0	78	10316
2026-01-28 04:31:42.22	59.09	8.37	-53.8	-62.6	3.8	7.45e-01	0	43	104	0	78	10355
2026-01-28 04:31:43.22	58.90	8.43	-53.7	-62.6	3.8	7.45e-01	0	43	104	0	78	10334
2026-01-28 04:31:44.23	58.70	8.49	-53.8	-62.6	3.8	7.44e-01	0	43	104	0	78	10337
2026-01-28 04:31:45.24	58.50	8.55	-53.8	-62.6	3.8	7.47e-01	0	43	104	0	78	10337
2026-01-28 04:31:46.25	58.30	8.61	-53.7	-62.6	3.8	7.44e-01	0	43	104	0	78	10361
2026-01-28 04:31:47.25	58.10	8.66	-53.7	-62.6	3.8	7.45e-01	0	43	104	0	78	10329
2026-01-28 04:31:48.26	57.90	8.72	-53.7	-62.6	3.8	7.45e-01	0	44	104	0	78	10326
2026-01-28 04:31:49.27	57.69	8.78	-53.8	-62.6	3.8	7.43e-01	0	43	104	0	78	10341
2026-01-28 04:31:50.27	57.49	8.84	-53.8	-62.6	3.8	7.46e-01	0	43	104	0	78	10385
2026-01-28 04:31:51.28	57.28	8.90	-53.8	-62.6	3.8	7.44e-01	0	44	104	0	78	10355
2026-01-28 04:31:52.29	57.08	8.95	-53.7	-62.6	3.8	7.45e-01	0	43	104	0	78	10355
2026-01-28 04:31:53.30	56.87	9.01	-53.7	-62.6	3.8	7.45e-01	0	43	104	0	78	10316
2026-01-28 04:31:54.31	56.66	9.07	-53.8	-62.6	3.8	7.43e-01	0	43	104	0	78	10354
2026-01-28 04:31:55.32	56.45	9.13	-53.7	-62.6	3.8	7.45e-01	0	44	104	0	78	10331
2026-01-28 04:31:56.32	56.24	9.18	-53.8	-62.6	3.8	7.46e-01	0	43	104	0	78	10334
2026-01-28 04:31:57.33	56.03	9.24	-53.7	-62.6	3.8	7.45e-01	0	44	104	0	78	10354
2026-01-28 04:31:58.34	55.82	9.30	-53.8	-62.6	3.8	7.45e-01	0	44	104	0	78	10343
2026-01-28 04:31:59.35	55.60	9.35	-53.8	-62.6	3.8	7.44e-01	0	43	104	0	78	10328
2026-01-28 04:32:00.35	55.39	9.41	-53.8	-62.6	3.8	7.46e-01	0	44	104	0	78	10350
2026-01-28 04:32:01.36	55.18	9.47	-53.8	-62.6	3.8	7.45e-01	0	44	104	0	78	10324
2026-01-28 04:32:02.37	54.96	9.52	-53.7	-62.6	3.8	7.44e-01	0	43	104	0	78	10305
2026-01-28 04:32:03.38	54.74	9.58	-53.8	-62.6	3.8	7.46e-01	0	43	104	0	78	10371
2026-01-28 04:32:04.39	54.52	9.63	-53.7	-62.6	3.8	7.46e-01	0	44	104	0	78	10361
2026-01-28 04:32:05.40	54.30	9.69	-53.7	-62.6	3.8	7.47e-01	0	44	104	0	78	10358
2026-01-28 04:32:06.41	54.08	9.74	-53.7	-62.6	3.8	7.45e-01	0	44	104	0	78	10353
2026-01-28 04:32:07.42	53.86	9.80	-53.8	-62.6	3.8	7.45e-01	0	44	104	0	78	10358
2026-01-28 04:32:08.42	53.64	9.85	-53.8	-62.6	3.8	7.44e-01	0	44	104	0	78	10334
2026-01-28 04:32:09.43	53.41	9.91	-53.8	-62.6	3.8	7.44e-01	0	43	104	0	78	10376
2026-01-28 04:32:10.44	53.19	9.96	-53.8	-62.6	3.8	7.46e-01	0	43	104	0	78	10319
2026-01-28 04:32:11.45	52.96	10.02	-53.8	-62.6	3.8	7.46e-01	0	43	104	0	78	10348
2026-01-28 04:32:12.45	52.74	10.07	-53.8	-62.6	3.8	7.46e-01	0	43	104	0	78	10362
2026-01-28 04:32:13.46	52.51	10.13	-53.8	-62.6	3.8	7.44e-01	0	44	104	0	78	10376
2026-01-28 04:32:14.47	52.28	10.18	-53.8	-62.6	3.8	7.46e-01	0	43	104	0	78	10358
2026-01-28 04:32:15.48	52.05	10.23	-53.8	-62.6	3.8	7.45e-01	0	43	104	0	78	10353
2026-01-28 04:32:16.49	51.82	10.29	-53.8	-62.6	3.8	7.45e-01	0	43	104	0	78	10359
2026-01-28 04:32:17.49	51.59	10.34	-53.8	-62.6	3.8	7.48e-01	0	44	104	0	78	10352
2026-01-28 04:32:18.50	51.35	10.39	-53.8	-62.6	3.8	7.43e-01	0	43	104	0	78	10345
2026-01-28 04:32:19.51	51.12	10.45	-53.8	-62.6	3.8	7.45e-01	0	43	104	0	78	10307
2026-01-28 04:32:20.51	50.88	10.50	-53.8	-62.6	3.8	7.44e-01	0	43	104	0	78	10314
2026-01-28 04:32:21.52	50.65	10.55	-53.8	-62.6	3.8	7.46e-01	0	43	104	0	78	10330
2026-01-28 04:32:22.53	50.41	10.60	-53.8	-62.6	3.8	7.44e-01	0	44	104	0	78	10373
2026-01-28 04:32:23.54	50.17	10.66	-53.8	-62.6	3.8	7.45e-01	0	43	104	0	78	10325
2026-01-28 04:32:24.55	49.93	10.71	-53.8	-62.6	3.8	7.45e-01	0	44	104	0	78	10346
2026-01-28 04:32:25.55	49.69	10.76	-53.8	-62.6	3.8	7.46e-01	0	43	104	0	78	10342
2026-01-28 04:32:26.56	49.45	10.81	-53.8	-62.6	3.8	7.45e-01	0	44	104	0	78	10349
2026-01-28 04:32:27.57	49.21	10.86	-53.8	-62.6	3.8	7.46e-01	0	43	104	0	78	10339
2026-01-28 04:32:28.57	48.96	10.91	-53.8	-62.6	3.8	7.44e-01	0	44	104	0	78	10323
2026-01-28 04:32:29.58	48.72	10.96	-53.8	-62.6	3.8	7.44e-01	0	44	104	0	78	10349
2026-01-28 04:32:30.59	48.47	11.01	-53.8	-62.6	3.8	7.47e-01	0	43	104	0	78	10323
2026-01-28 04:32:31.60	48.23	11.06	-53.8	-62.6	3.8	7.45e-01	0	44	104	0	78	10349
2026-01-28 04:32:32.61	47.98	11.11	-53.8	-62.6	3.8	7.44e-01	0	43	104	0	78	10357
2026-01-28 04:32:33.62	47.73	11.16	-53.8	-62.6	3.8	7.45e-01	0	44	104	0	78	10352
2026-01-28 04:32:34.63	47.48	11.21	-53.8	-62.6	3.8	7.46e-01	0	44	104	0	78	10343
2026-01-28 04:32:35.63	47.23	11.25	-53.8	-62.6	3.8	7.45e-01	0	43	104	0	78	10316
2026-01-28 04:32:36.64	46.98	11.30	-53.8	-62.6	3.8	7.46e-01	0	44	104	0	78	10332
2026-01-28 04:32:37.65	46.72	11.35	-53.8	-62.6	3.8	7.45e-01	0	43	104	0	78	10372
2026-01-28 04:32:38.65	46.47	11.40	-53.8	-62.6	3.8	7.44e-01	0	43	104	0	78	10347
2026-01-28 04:32:39.66	46.22	11.44	-53.8	-62.6	3.8	7.46e-01	0	44	104	0	78	10371
2026-01-28 04:32:40.66	45.96	11.49	-53.8	-62.6	3.8	7.45e-01	0	44	104	0	78	10323
2026-01-28 04:32:41.67	45.70	11.54	-53.8	-62.6	3.8	7.46e-01	0	44	104	0	78	10373
2026-01-28 04:32:42.68	45.45	11.58	-53.8	-62.6	3.8	7.45e-01	0	43	104	0	78	10346
2026-01-28 04:32:43.69	45.19	11.63	-53.8	-62.6	3.8	7.43e-01	0	44	104	0	78	10340
2026-01-28 04:32:44.69	44.93	11.67	-53.8	-62.6	3.8	7.44e-01	0	44	104	0	78	10360
2026-01-28 04:32:45.70	44.67	11.72	-53.8	-62.6	3.8	7.47e-01	0	44	104	0	78	10370
2026-01-28 04:32:46.71	44.41	11.76	-53.8	-62.6	3.8	7.43e-01	0	43	104	0	78	10377
2026-01-28 04:32:47.72	44.14	11.81	-53.8	-62.6	3.8	7.45e-01	0	44	104	0	78	10364
2026-01-28 04:32:48.73	43.88	11.85	-53.8	-62.6	3.8	7.45e-01	0	44	104	0	78	10327
2026-01-28 04:32:49.73	43.62	11.89	-53.8	-62.6	3.8	7.47e-01	0	43	104	0	78	10335
2026-01-28 04:32:50.73	43.35	11.93	-53.8	-62.6	3.8	7.45e-01	0	44	104	0	78	10342
2026-01-28 04:32:51.74	43.08	11.98	-53.8	-62.6	3.8	7.45e-01	0	44	104	0	78	10352
2026-01-28 04:32:52.75	42.82	12.02	-53.8	-62.6	3.8	7.45e-01	0	44	104	0	78	10348
2026-01-28 04:32:53.76	42.55	12.06	-53.7	-62.6	3.8	7.47e-01	0	44	104	0	78	10333
2026-01-28 04:32:54.77	42.28	12.10	-53.8	-62.6	3.8	7.46e-01	0	44	104	0	78	10377
2026-01-28 04:32:55.78	42.01	12.14	-53.8	-62.6	3.8	7.44e-01	0	44	104	0	78	10391
2026-01-28 04:32:56.78	41.74	12.18	-53.8	-62.6	3.8	7.45e-01	0	44	104	0	78	10347
2026-01-28 04:32:57.79	41.47	12.22	-53.8	-62.6	3.8	7.46e-01	0	44	104	0	78	10332
2026-01-28 04:32:58.80	41.19	12.26	-53.8	-62.6	3.8	7.44e-01	0	44	104	0	78	10331
2026-01-28 04:32:59.81	40.92	12.30	-53.7	-62.6	3.8	7.44e-01	0	44	104	0	78	10352
2026-01-28 04:33:00.81	40.65	12.34	-53.8	-62.6	3.8	7.45e-01	0	44	104	0	78	10333
2026-01-28 04:33:01.82	40.37	12.37	-53.8	-62.6	3.8	7.45e-01	0	44	104	0	78	10362
2026-01-28 04:33:02.83	40.09	12.41	-53.8	-62.6	3.8	7.46e-01	0	44	104	0	78	10344
2026-01-28 04:33:03.84	39.81	12.45	-53.8	-62.6	3.8	7.44e-01	0	44	104	0	78	10328
2026-01-28 04:33:04.85	39.54	12.49	-53.8	-62.6	3.8	7.45e-01	0	44	104	0	78	10350
2026-01-28 04:33:05.86	39.26	12.52	-53.8	-62.6	3.8	7.43e-01	0	44	104	0	78	10350
2026-01-28 04:33:06.87	38.98	12.56	-53.8	-62.6	3.8	7.47e-01	0	44	104	0	78	10367
2026-01-28 04:33:07.87	38.70	12.59	-53.8	-62.6	3.8	7.46e-01	0	44	104	0	78	10334
2026-01-28 04:33:08.88	38.42	12.63	-53.8	-62.6	3.8	7.45e-01	0	44	104	0	78	10339
2026-01-28 04:33:09.89	38.13	12.66	-53.8	-62.6	3.8	7.46e-01	0	44	104	0	78	10357
2026-01-28 04:33:10.89	37.85	12.69	-53.8	-62.6	3.8	7.44e-01	0	44	104	0	78	10344
2026-01-28 04:33:11.90	37.57	12.73	-53.8	-62.6	3.8	7.45e-01	0	44	104	0	78	10366
2026-01-28 04:33:12.91	37.28	12.76	-53.8	-62.6	3.8	7.44e-01	0	44	104	0	78	10344
2026-01-28 04:33:13.92	37.00	12.79	-53.8	-62.6	3.8	7.42e-01	0	44	104	0	78	10366
2026-01-28 04:33:14.93	36.71	12.82	-53.8	-62.6	3.8	7.46e-01	0	44	104	0	78	10327
2026-01-28 04:33:15.93	36.43	12.85	-53.8	-62.6	3.8	7.44e-01	0	44	104	0	78	10342
2026-01-28 04:33:16.94	36.14	12.88	-53.8	-62.6	3.8	7.45e-01	0	44	104	0	78	10333
2026-01-28 04:33:17.95	35.85	12.91	-53.8	-62.6	3.8	7.44e-01	0	44	104	0	78	10330
2026-01-28 04:33:18.96	35.56	12.94	-53.8	-62.6	3.8	7.46e-01	0	44	104	0	78	10354
2026-01-28 04:33:19.97	35.27	12.97	-53.8	-62.6	3.8	7.47e-01	0	44	104	0	78	10345
2026-01-28 04:33:20.98	34.98	13.00	-53.8	-62.6	3.8	7.45e-01	0	44	104	0	78	10372
2026-01-28 04:33:21.99	34.69	13.02	-53.8	-62.6	3.8	7.44e-01	0	44	104	0	78	10336
2026-01-28 04:33:23.00	34.40	13.05	-53.8	-62.6	3.8	7.46e-01	0	44	104	0	78	10353
2026-01-28 04:33:24.01	34.10	13.08	-53.8	-62.6	3.8	7.46e-01	0	44	104	0	78	10357
2026-01-28 04:33:25.01	33.81	13.10	-53.8	-62.6	3.8	7.46e-01	0	44	104	0	78	10343
2026-01-28 04:33:26.02	33.52	13.13	-53.8	-62.6	3.8	7.45e-01	0	44	104	0	78	10386
2026-01-28 04:33:27.03	33.22	13.15	-53.8	-62.6	3.8	7.45e-01	0	44	104	0	78	10369
2026-01-28 04:33:28.04	32.93	13.17	-53.8	-62.6	3.8	7.46e-01	0	44	104	0	78	10363
2026-01-28 04:33:29.05	32.63	13.20	-53.8	-62.6	3.8	7.44e-01	0	44	104	0	78	10366
2026-01-28 04:33:30.05	32.34	13.22	-53.8	-62.6	3.8	7.45e-01	0	44	104	0	78	10358
2026-01-28 04:33:31.06	32.04	13.24	-53.8	-62.6	3.8	7.45e-01	0	44	104	0	78	10324
2026-01-28 04:33:32.07	31.75	13.26	-53.8	-62.6	3.8	7.44e-01	0	44	104	0	78	10357
2026-01-28 04:33:33.08	31.45	13.28	-53.8	-62.6	3.8	7.46e-01	0	44	104	0	78	10385
2026-01-28 04:33:34.09	31.15	13.30	-53.8	-62.6	3.8	7.46e-01	0	44	104	0	78	10383
2026-01-28 04:33:35.09	30.86	13.32	-53.8	-62.6	3.8	7.46e-01	0	44	104	0	78	10327
2026-01-28 04:33:36.10	30.56	13.34	-53.8	-62.6	3.8	7.44e-01	0	44	104	0	78	10376
2026-01-28 04:33:37.11	30.26	13.36	-53.8	-62.6	3.8	7.45e-01	0	44	104	0	78	10310
2026-01-28 04:33:38.12	29.96	13.37	-53.8	-62.6	3.8	7.45e-01	0	44	104	0	78	10392
2026-01-28 04:33:39.13	29.66	13.39	-53.8	-62.6	3.8	7.47e-01	0	44	104	0	78	10363
2026-01-28 04:33:40.14	29.36	13.41	-53.8	-62.6	3.8	7.46e-01	0	44	104	0	78	10383
2026-01-28 04:33:41.15	29.05	13.42	-53.8	-62.6	3.8	7.45e-01	0	44	104	0	78	10370
2026-01-28 04:33:42.15	28.76	13.44	-53.8	-62.6	3.8	7.44e-01	0	44	104	0	78	10332
2026-01-28 04:33:43.16	28.45	13.45	-53.8	-62.6	3.8	7.47e-01	0	44	104	0	78	10371
2026-01-28 04:33:44.17	28.15	13.47	-53.8	-62.6	3.8	7.46e-01	0	44	104	0	78	10357
2026-01-28 04:33:45.17	27.85	13.48	-53.8	-62.6	3.8	7.44e-01	0	44	104	0	78	10373
2026-01-28 04:33:46.18	27.55	13.49	-53.8	-62.6	3.8	7.45e-01	0	44	104	0	78	10363
2026-01-28 04:33:47.18	27.25	13.50	-53.8	-62.6	3.8	7.46e-01	0	44	104	0	78	10322
2026-01-28 04:33:48.19	26.95	13.51	-53.8	-62.6	3.8	7.45e-01	0	44	104	0	78	10335
2026-01-28 04:33:49.20	26.64	13.52	-53.8	-62.6	3.8	7.45e-01	0	44	104	0	78	10341
2026-01-28 04:33:50.21	26.34	13.53	-53.8	-62.6	3.8	7.46e-01	0	43	104	0	78	10360
2026-01-28 04:33:51.21	26.04	13.54	-53.8	-62.6	3.8	7.45e-01	0	44	104	0	78	10376
2026-01-28 04:33:52.22	25.73	13.55	-53.8	-62.6	3.8	7.46e-01	0	44	104	0	78	10352
2026-01-28 04:33:53.23	25.43	13.55	-53.8	-62.6	3.8	7.45e-01	0	44	104	0	78	10323
2026-01-28 04:33:54.23	25.13	13.56	-53.8	-62.6	3.8	7.47e-01	0	44	104	0	78	10312
2026-01-28 04:33:55.24	24.82	13.57	-53.8	-62.6	3.8	7.46e-01	0	44	104	0	78	10361
2026-01-28 04:33:56.25	24.52	13.57	-53.8	-62.6	3.8	7.46e-01	0	44	104	0	78	10355
2026-01-28 04:33:57.25	24.22	13.58	-53.8	-62.6	3.8	7.48e-01	0	44	104	0	78	10364
2026-01-28 04:33:58.26	23.91	13.58	-53.8	-62.6	3.8	7.47e-01	0	44	104	0	78	10358
2026-01-28 04:33:59.27	23.60	13.58	-53.8	-62.6	3.8	7.44e-01	0	44	104	0	78	10328
2026-01-28 04:34:00.28	23.30	13.59	-53.8	-62.6	3.8	7.44e-01	0	44	104	0	78	10378
2026-01-28 04:34:01.28	23.00	13.59	-53.8	-62.6	3.8	7.46e-01	0	44	104	0	78	10355
2026-01-28 04:34:02.29	22.69	13.59	-53.8	-62.6	3.8	7.43e-01	0	44	104	0	78	10357
2026-01-28 04:34:03.30	22.39	13.59	-53.8	-62.6	3.8	7.47e-01	0	44	104	0	78	10321
2026-01-28 04:34:04.31	22.08	13.59	-53.8	-62.6	3.8	7.46e-01	0	44	104	0	78	10305
2026-01-28 04:34:05.31	21.78	13.59	-53.8	-62.6	3.8	7.45e-01	0	44	104	0	78	10347
2026-01-28 04:34:06.32	21.47	13.59	-53.8	-62.6	3.8	7.44e-01	0	44	104	0	78	10390
2026-01-28 04:34:07.33	21.17	13.59	-53.8	-62.6	3.8	7.44e-01	0	44	104	0	78	10358
2026-01-28 04:34:08.34	20.86	13.58	-53.8	-62.6	3.8	7.44e-01	0	44	104	0	78	10345
2026-01-28 04:34:09.35	20.56	13.58	-53.8	-62.6	3.8	7.45e-01	0	44	104	0	78	10344
2026-01-28 04:34:10.36	20.25	13.57	-53.8	-62.6	3.8	7.46e-01	0	44	104	0	78	10362
2026-01-28 04:34:11.37	19.95	13.57	-53.8	-62.6	3.8	7.45e-01	0	44	104	0	78	10349
2026-01-28 04:34:12.37	19.65	13.56	-53.8	-62.6	3.8	7.45e-01	0	44	104	0	78	10358
2026-01-28 04:34:13.38	19.34	13.56	-53.8	-62.6	3.8	7.44e-01	0	44	104	0	78	10346
2026-01-28 04:34:14.39	19.04	13.55	-53.8	-62.6	3.8	7.46e-01	0	44	104	0	78	10389
2026-01-28 04:34:15.39	18.73	13.54	-53.8	-62.6	3.8	7.46e-01	0	44	104	0	78	10330
2026-01-28 04:34:16.40	18.43	13.53	-53.8	-62.6	3.8	7.46e-01	0	44	104	0	78	10327
2026-01-28 04:34:17.41	18.13	13.52	-53.8	-62.6	3.8	7.45e-01	0	44	104	0	78	10378
2026-01-28 04:34:18.42	17.82	13.51	-53.8	-62.6	3.8	7.46e-01	0	44	104	0	78	10346
2026-01-28 04:34:19.43	17.52	13.50	-53.8	-62.6	3.8	7.47e-01	0	44	104	0	78	10355
2026-01-28 04:34:20.43	17.22	13.49	-53.8	-62.6	3.8	7.46e-01	0	44	104	0	78	10348
2026-01-28 04:34:21.44	16.92	13.48	-53.8	-62.6	3.8	7.45e-01	0	44	104	0	78	10342
2026-01-28 04:34:22.45	16.61	13.47	-53.8	-62.6	3.8	7.45e-01	0	44	104	0	78	10358
2026-01-28 04:34:23.46	16.31	13.46	-53.8	-62.6	3.8	7.43e-01	0	44	104	0	78	10375
2026-01-28 04:34:24.47	16.01	13.44	-53.8	-62.6	3.8	7.44e-01	0	44	104	0	78	10386
2026-01-28 04:34:25.48	15.71	13.43	-53.8	-62.6	3.8	7.45e-01	0	44	104	0	78	10332
2026-01-28 04:34:26.48	15.41	13.41	-53.8	-62.6	3.8	7.46e-01	0	44	104	0	78	10378
2026-01-28 04:34:27.49	15.11	13.40	-53.8	-62.6	3.8	7.46e-01	0	44	104	0	78	10336
2026-01-28 04:34:28.50	14.81	13.38	-53.8	-62.6	3.8	7.45e-01	0	44	104	0	78	10348
2026-01-28 04:34:29.50	14.51	13.36	-53.8	-62.6	3.8	7.44e-01	0	44	104	0	78	10367
2026-01-28 04:34:30.51	14.21	13.34	-53.8	-62.6	3.8	7.44e-01	0	44	104	0	78	10353
2026-01-28 04:34:31.52	13.91	13.33	-53.8	-62.6	3.8	7.44e-01	0	44	104	0	78	10362
2026-01-28 04:34:32.52	13.62	13.31	-53.8	-62.6	3.8	7.45e-01	0	44	104	0	78	10346
2026-01-28 04:34:33.53	13.32	13.29	-53.8	-62.6	3.8	7.45e-01	0	44	104	0	78	10335
2026-01-28 04:34:34.54	13.02	13.27	-53.8	-62.6	3.8	7.47e-01	0	44	104	0	78	10341
2026-01-28 04:34:35.55	12.73	13.25	-53.8	-62.6	3.8	7.43e-01	0	44	104	0	78	10337
2026-01-28 04:34:36.56	12.43	13.22	-53.8	-62.6	3.8	7.44e-01	0	44	104	0	78	10387
2026-01-28 04:34:37.56	12.14	13.20	-53.8	-62.6	3.8	7.45e-01	0	44	104	0	78	10362
2026-01-28 04:34:38.57	11.84	13.18	-53.8	-62.6	3.8	7.45e-01	0	44	104	0	78	10326
2026-01-28 04:34:39.58	11.55	13.16	-53.8	-62.6	3.8	7.46e-01	0	44	104	0	78	10377
2026-01-28 04:34:40.59	11.25	13.13	-53.8	-62.6	3.8	7.45e-01	0	44	104	0	78	10337
2026-01-28 04:34:41.60	10.96	13.11	-53.8	-62.6	3.8	7.46e-01	0	44	104	0	78	10358
2026-01-28 04:34:42.60	10.67	13.08	-53.8	-62.6	3.8	7.45e-01	0	44	104	0	78	10360
2026-01-28 04:34:43.61	10.38	13.06	-53.8	-62.6	3.8	7.46e-01	0	44	104	0	78	10397
2026-01-28 04:34:44.62	10.08	13.03	-53.8	-62.6	3.8	7.44e-01	0	44	104	0	78	10382
2026-01-28 04:34:45.63	9.79	13.00	-53.8	-62.6	3.8	7.44e-01	0	44	104	0	78	10363
2026-01-28 04:34:46.64	9.50	12.98	-53.8	-62.6	3.8	7.47e-01	0	44	104	0	78	10361
2026-01-28 04:34:47.65	9.21	12.95	-53.8	-62.6	3.8	7.45e-01	0	44	104	0	78	10344
2026-01-28 04:34:48.65	8.93	12.92	-53.8	-62.6	3.8	7.45e-01	0	44	104	0	78	10327
2026-01-28 04:34:49.66	8.64	12.89	-53.8	-62.6	3.8	7.45e-01	0	44	104	0	78	10369
2026-01-28 04:34:50.67	8.35	12.86	-53.8	-62.6	3.8	7.47e-01	0	44	104	0	78	10334
2026-01-28 04:34:51.68	8.06	12.83	-53.8	-62.6	3.8	7.44e-01	0	44	104	0	78	10379
2026-01-28 04:34:52.68	7.78	12.80	-53.8	-62.6	3.8	7.47e-01	0	44	104	0	78	10382
2026-01-28 04:34:53.69	7.49	12.77	-53.8	-62.6	3.8	7.45e-01	0	44	104	0	78	10363
2026-01-28 04:34:54.70	7.21	12.74	-53.8	-62.6	3.8	7.44e-01	0	44	104	0	78	10316
2026-01-28 04:34:55.71	6.92	12.70	-53.8	-62.6	3.8	7.45e-01	0	44	104	0	78	10361
2026-01-28 04:34:56.71	6.64	12.67	-53.8	-62.6	3.8	7.45e-01	0	44	104	0	78	10361
2026-01-28 04:34:57.72	6.36	12.64	-53.8	-62.6	3.8	7.46e-01	0	44	104	0	78	10355
2026-01-28 04:34:58.73	6.08	12.60	-53.8	-62.6	3.8	7.45e-01	0	44	104	0	78	10371
2026-01-28 04:34:59.74	5.80	12.57	-53.8	-62.6	3.8	7.46e-01	0	44	104	0	78	10357
2026-01-28 04:35:00.74	5.52	12.53	-53.8	-62.6	3.8	7.45e-01	0	44	104	0	78	10389
2026-01-28 04:35:01.75	5.24	12.50	-53.8	-62.6	3.8	7.44e-01	0	44	104	0	78	10326
2026-01-28 04:35:02.76	4.96	12.46	-53.8	-62.6	3.8	7.44e-01	0	44	104	0	78	10355
2026-01-28 04:35:03.77	4.68	12.42	-53.8	-62.6	3.8	7.47e-01	0	44	104	0	78	10340
2026-01-28 04:35:04.77	4.41	12.39	-53.8	-62.6	3.8	7.46e-01	0	44	104	0	78	10375
2026-01-28 04:35:05.78	4.13	12.35	-53.8	-62.6	3.8	7.44e-01	0	44	104	0	78	10369
2026-01-28 04:35:06.79	3.86	12.31	-53.8	-62.6	3.8	7.44e-01	0	44	104	0	78	10390
2026-01-28 04:35:07.79	3.59	12.27	-53.8	-62.6	3.8	7.46e-01	0	44	104	0	78	10360
2026-01-28 04:35:08.80	3.31	12.23	-53.8	-62.6	3.8	7.46e-01	0	44	104	0	78	10362
2026-01-28 04:35:09.81	3.04	12.19	-53.8	-62.6	3.8	7.45e-01	0	44	104	0	78	10362
2026-01-28 04:35:10.82	2.77	12.15	-53.8	-62.6	3.8	7.45e-01	0	44	104	0	78	10367
2026-01-28 04:35:11.83	2.50	12.11	-53.8	-62.6	3.8	7.46e-01	0	44	104	0	78	10352
2026-01-28 04:35:12.84	2.23	12.07	-53.8	-62.6	3.8	7.46e-01	0	44	104	0	78	10385
2026-01-28 04:35:13.85	1.96	12.03	-53.8	-62.6	3.8	7.45e-01	0	44	104	0	78	10341
2026-01-28 04:35:14.86	1.69	11.99	-53.8	-62.6	3.8	7.46e-01	0	44	104	0	78	10384
2026-01-28 04:35:15.86	1.43	11.95	-53.8	-62.6	3.8	7.46e-01	0	44	104	0	78	10352
2026-01-28 04:35:16.87	1.16	11.91	-53.8	-62.6	3.8	7.45e-01	0	44	104	0	78	10367
2026-01-28 04:35:17.88	0.90	11.86	-53.8	-62.6	3.8	7.45e-01	0	44	104	0	78	10335
2026-01-28 04:35:18.89	0.63	11.82	-53.8	-62.6	3.8	7.46e-01	0	44	104	0	78	10385
2026-01-28 04:35:19.90	0.37	11.78	-53.8	-62.6	3.8	7.43e-01	0	44	104	0	78	10301
2026-01-28 04:35:20.91	0.11	11.73	-53.8	-62.6	3.8	7.44e-01	0	44	104	0	78	10331
2026-01-28 04:35:21.92	359.85	11.69	-53.8	-62.7	3.8	7.45e-01	0	44	104	0	78	10414
2026-01-28 04:35:22.92	359.59	11.64	-53.8	-62.6	3.8	7.45e-01	0	44	104	0	78	10333
2026-01-28 04:35:23.93	359.33	11.60	-53.8	-62.6	3.8	7.46e-01	0	44	104	0	78	10364
2026-01-28 04:35:24.93	359.08	11.55	-53.8	-62.6	3.8	7.45e-01	0	44	104	0	78	10359
2026-01-28 04:35:25.94	358.82	11.51	-53.8	-62.6	3.8	7.45e-01	0	44	104	0	78	10408
2026-01-28 04:35:26.94	358.56	11.46	-53.8	-62.6	3.8	7.46e-01	0	44	104	0	78	10401
2026-01-28 04:35:27.95	358.31	11.41	-53.8	-62.6	3.8	7.44e-01	0	44	104	0	78	10340
2026-01-28 04:35:28.96	358.05	11.37	-53.8	-62.6	3.8	7.45e-01	0	44	104	0	78	10361
2026-01-28 04:35:29.97	357.80	11.32	-53.8	-62.6	3.8	7.44e-01	0	44	104	0	78	10358
2026-01-28 04:35:30.98	357.55	11.27	-53.8	-62.6	3.8	7.47e-01	0	44	104	0	78	10347
2026-01-28 04:35:31.99	357.30	11.22	-53.8	-62.6	3.8	7.44e-01	0	44	104	0	78	10395
2026-01-28 04:35:33.00	357.05	11.17	-53.8	-62.6	3.8	7.45e-01	0	44	104	0	78	10377
2026-01-28 04:35:34.01	356.80	11.13	-53.8	-62.6	3.8	7.45e-01	0	44	104	0	78	10335
2026-01-28 04:35:35.01	356.55	11.08	-53.8	-62.6	3.8	7.44e-01	0	44	104	0	78	10351
2026-01-28 04:35:36.02	356.31	11.03	-53.8	-62.6	3.8	7.43e-01	0	44	104	0	78	10341
2026-01-28 04:35:37.03	356.06	10.98	-53.8	-62.6	3.8	7.46e-01	0	44	104	0	78	10347
2026-01-28 04:35:38.04	355.82	10.93	-53.8	-62.6	3.8	7.45e-01	0	43	104	0	78	10356
2026-01-28 04:35:39.04	355.57	10.88	-53.8	-62.6	3.8	7.45e-01	0	44	104	0	78	10393
2026-01-28 04:35:40.05	355.33	10.83	-53.8	-62.6	3.8	7.46e-01	0	44	104	0	78	10386
2026-01-28 04:35:41.06	355.09	10.78	-53.8	-62.6	3.8	7.45e-01	0	44	104	0	78	10361
2026-01-28 04:35:42.07	354.85	10.73	-53.8	-62.6	3.8	7.45e-01	0	44	104	0	78	10412
2026-01-28 04:35:43.08	354.61	10.67	-53.8	-62.6	3.8	7.45e-01	0	44	104	0	78	10353
2026-01-28 04:35:44.09	354.37	10.62	-53.8	-62.6	3.8	7.45e-01	0	44	104	0	78	10390
2026-01-28 04:35:45.10	354.13	10.57	-53.8	-62.6	3.8	7.45e-01	0	44	104	0	78	10357
2026-01-28 04:35:46.10	353.90	10.52	-53.8	-62.6	3.8	7.44e-01	0	44	104	0	78	10363
2026-01-28 04:35:47.11	353.66	10.47	-53.8	-62.6	3.8	7.44e-01	0	44	104	0	78	10372
2026-01-28 04:35:48.12	353.43	10.41	-53.8	-62.6	3.8	7.46e-01	0	44	104	0	78	10397
2026-01-28 04:35:49.13	353.19	10.36	-53.8	-62.6	3.8	7.46e-01	0	44	104	0	78	10349
2026-01-28 04:35:50.13	352.96	10.31	-53.8	-62.6	3.8	7.47e-01	0	44	104	0	78	10382
2026-01-28 04:35:51.14	352.73	10.25	-53.8	-62.6	3.8	7.44e-01	0	44	104	0	78	10407
2026-01-28 04:35:52.15	352.50	10.20	-53.8	-62.6	3.8	7.43e-01	0	44	104	0	78	10345
2026-01-28 04:35:53.16	352.27	10.15	-53.8	-62.6	3.8	7.46e-01	0	44	104	0	78	10392
2026-01-28 04:35:54.16	352.05	10.09	-53.8	-62.6	3.8	7.44e-01	0	44	104	0	78	10355
2026-01-28 04:35:55.17	351.82	10.04	-53.8	-62.6	3.8	7.44e-01	0	44	104	0	78	10358
2026-01-28 04:35:56.18	351.59	9.98	-53.8	-62.6	3.8	7.46e-01	0	44	104	0	78	10344
2026-01-28 04:35:57.19	351.37	9.93	-53.8	-62.6	3.8	7.45e-01	0	44	104	0	78	10372
2026-01-28 04:35:58.20	351.14	9.88	-53.8	-62.6	3.8	7.45e-01	0	44	104	0	78	10403
2026-01-28 04:35:59.21	350.92	9.82	-53.8	-62.6	3.8	7.46e-01	0	44	104	0	78	10387
2026-01-28 04:36:00.21	350.70	9.77	-53.8	-62.6	3.8	7.44e-01	0	44	104	0	78	10387
2026-01-28 04:36:01.22	350.48	9.71	-53.8	-62.6	3.8	7.45e-01	0	44	104	0	78	10358
2026-01-28 04:36:02.23	350.26	9.65	-53.8	-62.6	3.8	7.44e-01	0	44	104	0	78	10373
2026-01-28 04:36:03.24	350.04	9.60	-53.8	-62.6	3.8	7.45e-01	0	44	104	0	78	10375
2026-01-28 04:36:04.25	349.82	9.54	-53.8	-62.6	3.8	7.44e-01	0	44	104	0	78	10396
2026-01-28 04:36:05.25	349.61	9.49	-53.8	-62.6	3.8	7.45e-01	0	44	104	0	78	10370
2026-01-28 04:36:06.26	349.39	9.43	-53.8	-62.6	3.8	7.45e-01	0	44	104	0	78	10370
2026-01-28 04:36:07.27	349.18	9.37	-53.8	-62.6	3.8	7.45e-01	0	44	104	0	78	10384
2026-01-28 04:36:08.28	348.97	9.32	-53.8	-62.6	3.8	7.46e-01	0	44	104	0	78	10382
2026-01-28 04:36:09.29	348.75	9.26	-53.8	-62.6	3.8	7.45e-01	0	44	104	0	78	10376
2026-01-28 04:36:10.29	348.54	9.21	-53.8	-62.6	3.8	7.47e-01	0	44	104	0	78	10350
2026-01-28 04:36:11.30	348.33	9.15	-53.8	-62.6	3.8	7.45e-01	0	44	104	0	78	10370
2026-01-28 04:36:12.31	348.12	9.09	-53.8	-62.6	3.8	7.44e-01	0	44	104	0	78	10355
2026-01-28 04:36:13.32	347.91	9.03	-53.8	-62.6	3.8	7.45e-01	0	44	104	0	78	10395
2026-01-28 04:36:14.32	347.71	8.98	-53.8	-62.6	3.8	7.46e-01	0	44	104	0	78	10369
2026-01-28 04:36:15.33	347.50	8.92	-53.8	-62.6	3.8	7.46e-01	0	44	104	0	78	10350
2026-01-28 04:36:16.34	347.30	8.86	-53.8	-62.6	3.8	7.45e-01	0	44	104	0	78	10362
2026-01-28 04:36:17.35	347.09	8.80	-53.8	-62.6	3.8	7.45e-01	0	44	104	0	78	10345
2026-01-28 04:36:18.36	346.89	8.75	-53.8	-62.6	3.8	7.44e-01	0	44	104	0	78	10385
2026-01-28 04:36:19.36	346.69	8.69	-53.8	-62.6	3.8	7.44e-01	0	44	104	0	78	10348
2026-01-28 04:36:20.37	346.49	8.63	-53.8	-62.6	3.8	7.43e-01	0	44	104	0	78	10392
2026-01-28 04:36:21.38	346.29	8.57	-53.8	-62.6	3.8	7.47e-01	0	44	104	0	78	10357
2026-01-28 04:36:22.38	346.09	8.52	-53.8	-62.6	3.8	7.45e-01	0	44	104	0	78	10374
2026-01-28 04:36:23.39	345.89	8.46	-53.8	-62.6	3.8	7.46e-01	0	44	104	0	78	10358
2026-01-28 04:36:24.40	345.70	8.40	-53.8	-62.6	3.8	7.45e-01	0	44	104	0	78	10381
2026-01-28 04:36:25.41	345.50	8.34	-53.8	-62.6	3.8	7.46e-01	0	44	104	0	78	10334
2026-01-28 04:36:26.41	345.31	8.28	-53.8	-62.6	3.8	7.46e-01	0	44	104	0	78	10347
2026-01-28 04:36:27.42	345.11	8.22	-53.8	-62.6	3.8	7.46e-01	0	44	104	0	78	10364
2026-01-28 04:36:28.43	344.92	8.16	-53.8	-62.6	3.8	7.45e-01	0	44	104	0	78	10394
2026-01-28 04:36:29.44	344.73	8.11	-53.8	-62.6	3.8	7.44e-01	0	44	104	0	78	10351
2026-01-28 04:36:30.45	344.54	8.05	-53.8	-62.6	3.8	7.44e-01	0	44	104	0	78	10401
2026-01-28 04:36:31.46	344.34	7.99	-53.8	-62.6	3.8	7.45e-01	0	44	104	0	78	10377
2026-01-28 04:36:32.47	344.16	7.93	-53.8	-62.6	3.8	7.45e-01	0	44	104	0	78	10388
2026-01-28 04:36:33.48	343.97	7.87	-53.8	-62.6	3.8	7.47e-01	0	44	104	0	78	10342
2026-01-28 04:36:34.48	343.78	7.81	-53.8	-62.6	3.8	7.45e-01	0	44	104	0	78	10358
2026-01-28 04:36:35.49	343.60	7.75	-53.8	-62.6	3.8	7.44e-01	0	44	104	0	78	10328
2026-01-28 04:36:36.50	343.41	7.69	-53.8	-62.6	3.8	7.45e-01	0	44	104	0	78	10345
2026-01-28 04:36:37.50	343.23	7.63	-53.8	-62.6	3.8	7.45e-01	0	44	104	0	78	10376
2026-01-28 04:36:38.51	343.04	7.57	-53.8	-62.6	3.8	7.47e-01	0	44	104	0	78	10366
2026-01-28 04:36:39.52	342.86	7.52	-53.8	-62.6	3.8	7.47e-01	0	44	104	0	78	10381
2026-01-28 04:36:40.53	342.68	7.46	-53.8	-62.6	3.8	7.47e-01	0	44	104	0	78	10347
2026-01-28 04:36:41.53	342.50	7.40	-53.8	-62.6	3.8	7.45e-01	0	44	104	0	78	10398
2026-01-28 04:36:42.54	342.32	7.34	-53.8	-62.6	3.8	7.45e-01	0	44	104	0	78	10361
2026-01-28 04:36:43.55	342.14	7.28	-53.8	-62.6	3.8	7.46e-01	0	44	104	0	78	10362
2026-01-28 04:36:44.56	341.96	7.22	-53.8	-62.6	3.8	7.46e-01	0	44	104	0	78	10381
2026-01-28 04:36:45.57	341.79	7.16	-53.8	-62.6	3.8	7.45e-01	0	44	104	0	78	10350
2026-01-28 04:36:46.58	341.61	7.10	-53.8	-62.6	3.8	7.44e-01	0	44	104	0	78	10384
2026-01-28 04:36:47.59	341.44	7.04	-53.8	-62.6	3.8	7.47e-01	0	44	104	0	78	10383
2026-01-28 04:36:48.59	341.26	6.98	-53.8	-62.6	3.8	7.46e-01	0	44	104	0	78	10398
2026-01-28 04:36:49.60	341.09	6.92	-53.8	-62.6	3.8	7.45e-01	0	44	104	0	78	10357
2026-01-28 04:36:50.60	340.92	6.86	-53.8	-62.6	3.8	7.45e-01	0	44	104	0	78	10386
2026-01-28 04:36:51.61	340.75	6.80	-53.8	-62.6	3.8	7.46e-01	0	44	104	0	78	10325
2026-01-28 04:36:52.62	340.58	6.74	-53.8	-62.6	3.8	7.44e-01	0	44	104	0	78	10373
2026-01-28 04:36:53.63	340.41	6.68	-53.8	-62.6	3.8	7.46e-01	0	44	104	0	78	10346
2026-01-28 04:36:54.63	340.24	6.62	-53.8	-62.6	3.8	7.45e-01	0	44	104	0	78	10348
2026-01-28 04:36:55.64	340.07	6.56	-53.8	-62.6	3.8	7.46e-01	0	44	104	0	78	10390
2026-01-28 04:36:56.65	339.91	6.50	-53.8	-62.6	3.8	7.46e-01	0	44	104	0	78	10371
2026-01-28 04:36:57.65	339.74	6.44	-53.8	-62.6	3.8	7.46e-01	0	44	104	0	78	10407
2026-01-28 04:36:58.66	339.58	6.38	-53.8	-62.6	3.8	7.45e-01	0	44	104	0	78	10370
2026-01-28 04:36:59.67	339.41	6.32	-53.8	-62.6	3.8	7.47e-01	0	44	104	0	78	10358
2026-01-28 04:37:00.68	339.25	6.26	-53.8	-62.6	3.8	7.44e-01	0	44	104	0	78	10364
2026-01-28 04:37:01.69	339.08	6.20	-53.8	-62.6	3.8	7.44e-01	0	44	104	0	78	10339
2026-01-28 04:37:02.69	338.92	6.15	-53.8	-62.6	3.8	7.44e-01	0	44	104	0	78	10352
2026-01-28 04:37:03.70	338.76	6.09	-53.8	-62.6	3.8	7.46e-01	0	44	104	0	78	10382
2026-01-28 04:37:04.71	338.60	6.03	-53.8	-62.6	3.8	7.45e-01	0	44	104	0	78	10368
2026-01-28 04:37:05.72	338.44	5.97	-53.8	-62.6	3.8	7.47e-01	0	44	104	0	78	10386
2026-01-28 04:37:06.73	338.29	5.91	-53.8	-62.6	3.8	7.44e-01	0	44	104	0	78	10356
2026-01-28 04:37:07.74	338.13	5.85	-53.8	-62.6	3.8	7.46e-01	0	44	104	0	78	10380
2026-01-28 04:37:08.75	337.97	5.79	-53.8	-62.6	3.8	7.45e-01	0	44	104	0	78	10384
2026-01-28 04:37:09.76	337.82	5.73	-53.8	-62.6	3.8	7.45e-01	0	44	104	0	78	10388
2026-01-28 04:37:10.76	337.66	5.67	-53.8	-62.6	3.8	7.45e-01	0	44	104	0	78	10402
2026-01-28 04:37:11.77	337.51	5.61	-53.8	-62.6	3.8	7.45e-01	0	44	104	0	78	10383
2026-01-28 04:37:12.77	337.36	5.55	-53.8	-62.6	3.8	7.44e-01	0	44	104	0	78	10401
2026-01-28 04:37:13.78	337.20	5.49	-53.8	-62.6	3.8	7.47e-01	0	44	104	0	78	10382
2026-01-28 04:37:14.79	337.05	5.43	-53.8	-62.6	3.8	7.45e-01	0	44	104	0	78	10379
2026-01-28 04:37:15.80	336.90	5.37	-53.8	-62.6	3.8	7.44e-01	0	44	104	0	78	10381
2026-01-28 04:37:16.80	336.75	5.31	-53.8	-62.6	3.8	7.47e-01	0	44	104	0	78	10387
2026-01-28 04:37:17.81	336.60	5.25	-53.8	-62.7	3.8	7.46e-01	0	44	104	0	78	10428
2026-01-28 04:37:18.82	336.45	5.19	-53.8	-62.6	3.8	7.44e-01	0	44	104	0	78	10382
2026-01-28 04:37:19.83	336.30	5.13	-53.8	-62.6	3.8	7.44e-01	0	44	104	0	78	10368
2026-01-28 04:37:20.84	336.16	5.07	-53.8	-62.6	3.8	7.46e-01	0	44	104	0	78	10374
2026-01-28 04:37:21.84	336.01	5.02	-53.8	-62.6	3.8	7.45e-01	0	44	104	0	78	10382
2026-01-28 04:37:22.85	335.87	4.96	-53.8	-62.6	3.8	7.46e-01	0	44	104	0	78	10364
2026-01-28 04:37:23.86	335.72	4.90	-53.8	-62.6	3.8	7.44e-01	0	44	104	0	78	10384
2026-01-28 04:37:24.87	335.58	4.84	-53.8	-62.6	3.8	7.45e-01	0	44	104	0	78	10390
2026-01-28 04:37:25.88	335.44	4.78	-53.8	-62.6	3.8	7.46e-01	0	44	104	0	78	10365
2026-01-28 04:37:26.88	335.29	4.72	-53.8	-62.6	3.8	7.45e-01	0	44	104	0	78	10376
2026-01-28 04:37:27.89	335.15	4.66	-53.8	-62.6	3.8	7.45e-01	0	44	104	0	78	10359
2026-01-28 04:37:28.90	335.01	4.60	-53.8	-62.6	3.8	7.45e-01	0	44	104	0	78	10375
2026-01-28 04:37:29.91	334.87	4.54	-53.8	-62.6	3.8	7.44e-01	0	44	104	0	78	10336
2026-01-28 04:37:30.92	334.73	4.48	-53.8	-62.6	3.8	7.45e-01	0	44	104	0	78	10372
2026-01-28 04:37:31.93	334.59	4.42	-53.8	-62.6	3.8	7.45e-01	0	44	104	0	78	10410
2026-01-28 04:37:32.93	334.46	4.37	-53.8	-62.6	3.8	7.44e-01	0	44	104	0	78	10347
2026-01-28 04:37:33.94	334.32	4.31	-53.8	-62.6	3.8	7.45e-01	0	44	104	0	78	10382
2026-01-28 04:37:34.94	334.18	4.25	-53.8	-62.6	3.8	7.46e-01	0	44	104	0	78	10402
2026-01-28 04:37:35.95	334.05	4.19	-53.8	-62.6	3.8	7.44e-01	0	44	104	0	78	10372
2026-01-28 04:37:36.96	333.91	4.13	-53.8	-62.7	3.8	7.46e-01	0	44	104	0	78	10436
2026-01-28 04:37:37.97	333.78	4.07	-53.8	-62.6	3.8	7.46e-01	0	44	104	0	78	10348
2026-01-28 04:37:38.98	333.64	4.01	-53.8	-62.6	3.8	7.47e-01	0	44	104	0	78	10351
2026-01-28 04:37:39.99	333.51	3.95	-53.8	-62.6	3.8	7.45e-01	0	44	104	0	78	10388
2026-01-28 04:37:41.00	333.38	3.90	-53.8	-62.6	3.8	7.44e-01	0	44	104	0	78	10389
2026-01-28 04:37:42.00	333.25	3.84	-53.8	-62.6	3.8	7.44e-01	0	44	104	0	78	10376
2026-01-28 04:37:43.01	333.12	3.78	-53.8	-62.6	3.8	7.45e-01	0	44	104	0	78	10391
2026-01-28 04:37:44.02	332.99	3.72	-53.8	-62.6	3.8	7.46e-01	0	44	104	0	78	10357
2026-01-28 04:37:45.02	332.86	3.66	-53.8	-62.6	3.8	7.47e-01	0	44	104	0	78	10382
2026-01-28 04:37:46.03	332.73	3.60	-53.8	-62.7	3.8	7.44e-01	0	44	104	0	78	10444
2026-01-28 04:37:47.04	332.60	3.55	-53.8	-62.6	3.8	7.45e-01	0	44	104	0	78	10393
2026-01-28 04:37:48.05	332.47	3.49	-53.8	-62.6	3.8	7.45e-01	0	44	104	0	78	10362
2026-01-28 04:37:49.05	332.35	3.43	-53.8	-62.6	3.8	7.46e-01	0	44	104	0	78	10398
2026-01-28 04:37:50.06	332.22	3.37	-53.8	-62.6	3.8	7.45e-01	0	44	104	0	78	10401
2026-01-28 04:37:51.07	332.10	3.31	-53.8	-62.6	3.8	7.46e-01	0	44	104	0	78	10368
2026-01-28 04:37:52.08	331.97	3.26	-53.8	-62.6	3.8	7.45e-01	0	44	104	0	78	10398
2026-01-28 04:37:53.09	331.85	3.20	-53.8	-62.6	3.8	7.45e-01	0	44	104	0	78	10386
2026-01-28 04:37:54.10	331.72	3.14	-53.8	-62.6	3.8	7.43e-01	0	44	104	0	78	10351
2026-01-28 04:37:55.11	331.60	3.08	-53.8	-62.6	3.8	7.44e-01	0	44	104	0	78	10371
2026-01-28 04:37:56.11	331.48	3.03	-53.8	-62.6	3.8	7.45e-01	0	44	104	0	78	10382
2026-01-28 04:37:57.12	331.36	2.97	-53.8	-62.6	3.8	7.44e-01	0	44	104	0	78	10347
2026-01-28 04:37:58.13	331.24	2.91	-53.8	-62.6	3.8	7.45e-01	0	44	104	0	78	10342
2026-01-28 04:37:59.14	331.12	2.85	-53.8	-62.6	3.8	7.44e-01	0	44	104	0	78	10406
2026-01-28 04:38:00.15	331.00	2.80	-53.8	-62.6	3.8	7.46e-01	0	44	104	0	78	10410
2026-01-28 04:38:01.15	330.88	2.74	-53.8	-62.6	3.8	7.44e-01	0	44	104	0	78	10373
2026-01-28 04:38:02.16	330.76	2.68	-53.8	-62.6	3.8	7.45e-01	0	44	104	0	78	10370
2026-01-28 04:38:03.16	330.64	2.62	-53.8	-62.6	3.8	7.44e-01	0	44	104	0	78	10378
2026-01-28 04:38:04.17	330.52	2.57	-53.8	-62.6	3.8	7.45e-01	0	44	104	0	78	10393
2026-01-28 04:38:05.18	330.41	2.51	-53.8	-62.6	3.8	7.45e-01	0	44	104	0	78	10345
2026-01-28 04:38:06.19	330.29	2.45	-53.8	-62.6	3.8	7.45e-01	0	44	104	0	78	10371
2026-01-28 04:38:07.19	330.18	2.40	-53.8	-62.6	3.8	7.45e-01	0	44	104	0	78	10385
2026-01-28 04:38:08.20	330.06	2.34	-53.8	-62.7	3.8	7.46e-01	0	44	104	0	78	10426
2026-01-28 04:38:09.21	329.95	2.28	-53.8	-62.6	3.8	7.46e-01	0	44	104	0	78	10401
2026-01-28 04:38:10.22	329.83	2.22	-53.8	-62.6	3.8	7.45e-01	0	44	104	0	78	10361
2026-01-28 04:38:11.23	329.72	2.17	-53.8	-62.6	3.8	7.45e-01	0	44	104	0	78	10392
2026-01-28 04:38:12.23	329.61	2.11	-53.8	-62.6	3.8	7.45e-01	0	44	104	0	78	10378
2026-01-28 04:38:13.24	329.50	2.06	-53.8	-62.6	3.8	7.45e-01	0	44	104	0	78	10395
2026-01-28 04:38:14.24	329.39	2.00	-53.8	-62.6	3.8	7.46e-01	0	44	104	0	78	10368

#Closed at: 2026-01-28 04:38:14
#Recorded file [0 MB]: D:/lorett/data/31041_260128_072955.dat