passes_logs/2026/01/28/R3.2S_Murmansk/R3.2S_Murmansk__20260128_081531_NOAA_21_JPSS-2_rec.log

#Pass ID: 20260128_081531_NOAA 21 (JPSS-2)
#Satellite: NOAA 21 (JPSS-2)
#Configuration: NOAA-21
#almurnet v.1.7.20251203
#Start time: 2026-01-28 08:16:22

#Version: 2.2.20231116
#Station: R3.2S_Murmansk
#Location: 33.079688 lon 68.888172 lat
#TLE: 1 54234U 22150A   26027.77052245  .00000166  00000+0  99439-4 0  9997
#TLE: 2 54234  98.7510 328.5165 0000872 203.6403 156.4733 14.19540252166628

#Time	Az	El	Level	Level2	SNR	BER	BlckErr	Temp	State	Recorded	gain1	gain2
2026-01-28 08:16:22.56	120.54	5.36	-48.7	-50.8	6.2	0.00e+00	0	44	0	0	69	17940
2026-01-28 08:16:23.56	120.50	5.43	-47.6	-60.2	3.8	1.49e+00	0	45	104	0	65	16669
2026-01-28 08:16:24.56	120.46	5.50	-47.6	-60.2	3.8	1.49e+00	0	45	104	0	65	16672
2026-01-28 08:16:25.57	120.43	5.58	-47.6	-60.2	3.8	1.49e+00	0	45	104	0	65	16652
2026-01-28 08:16:26.58	120.39	5.65	-47.6	-60.2	3.8	1.49e+00	0	45	104	0	65	16619
2026-01-28 08:16:27.59	120.35	5.72	-47.6	-60.2	3.8	1.49e+00	0	45	104	0	65	16632
2026-01-28 08:16:28.60	120.31	5.79	-47.6	-60.2	3.8	1.49e+00	0	45	104	0	65	16645
2026-01-28 08:16:29.61	120.28	5.86	-47.6	-60.2	3.8	1.49e+00	0	45	104	0	65	16634
2026-01-28 08:16:30.61	120.24	5.94	-47.6	-60.2	3.8	1.49e+00	0	44	104	0	65	16613
2026-01-28 08:16:31.62	120.20	6.01	-47.6	-60.2	3.8	1.49e+00	0	45	104	0	65	16599
2026-01-28 08:16:32.63	120.16	6.08	-47.6	-60.2	3.8	1.49e+00	0	44	104	0	65	16607
2026-01-28 08:16:33.64	120.12	6.15	-47.6	-60.3	3.8	1.49e+00	0	44	104	0	65	16697
2026-01-28 08:16:34.64	120.09	6.23	-47.6	-60.2	3.8	1.49e+00	0	44	104	0	65	16621
2026-01-28 08:16:35.65	120.05	6.30	-47.6	-60.2	3.8	1.49e+00	0	44	104	0	65	16629
2026-01-28 08:16:36.66	120.01	6.37	-47.6	-60.3	3.8	1.49e+00	0	44	104	0	65	16715
2026-01-28 08:16:37.67	119.97	6.45	-47.6	-60.2	3.8	1.49e+00	0	45	104	0	65	16613
2026-01-28 08:16:38.68	119.93	6.52	-47.6	-60.2	3.8	1.49e+00	0	44	104	0	65	16643
2026-01-28 08:16:39.69	119.89	6.60	-47.6	-60.2	3.8	1.49e+00	0	44	104	0	65	16620
2026-01-28 08:16:40.69	119.85	6.67	-47.6	-60.2	3.8	1.49e+00	0	44	104	0	65	16635
2026-01-28 08:16:41.70	119.81	6.75	-47.6	-60.2	3.8	1.49e+00	0	44	104	0	65	16622
2026-01-28 08:16:42.71	119.77	6.82	-47.6	-60.2	3.8	1.49e+00	0	44	104	0	65	16632
2026-01-28 08:16:43.72	119.73	6.90	-47.6	-60.2	3.8	1.49e+00	0	44	104	0	65	16617
2026-01-28 08:16:44.73	119.69	6.97	-47.6	-60.2	3.8	1.49e+00	0	44	104	0	65	16637
2026-01-28 08:16:45.74	119.65	7.05	-47.6	-60.2	3.8	1.49e+00	0	44	104	0	65	16638
2026-01-28 08:16:46.74	119.61	7.12	-47.6	-60.2	3.8	1.49e+00	0	44	104	0	65	16644
2026-01-28 08:16:47.75	119.56	7.20	-47.6	-60.2	3.8	1.49e+00	0	44	104	0	65	16629
2026-01-28 08:16:48.76	119.52	7.27	-47.6	-60.2	3.8	1.49e+00	0	44	104	0	65	16643
2026-01-28 08:16:49.77	119.48	7.35	-47.6	-60.3	3.8	1.49e+00	0	44	104	0	65	16716
2026-01-28 08:16:50.77	119.44	7.43	-47.6	-60.2	3.8	1.49e+00	0	44	104	0	65	16623
2026-01-28 08:16:51.78	119.40	7.50	-47.6	-60.2	3.8	1.49e+00	0	44	104	0	65	16631
2026-01-28 08:16:52.79	119.35	7.58	-47.6	-60.3	3.8	1.49e+00	0	44	104	0	65	16713
2026-01-28 08:16:53.80	119.31	7.66	-47.6	-60.2	3.8	1.49e+00	0	44	104	0	65	16615
2026-01-28 08:16:54.81	119.27	7.73	-47.6	-60.2	3.8	1.49e+00	0	44	104	0	65	16663
2026-01-28 08:16:55.81	119.22	7.81	-47.6	-60.2	3.8	1.49e+00	0	44	104	0	65	16612
2026-01-28 08:16:56.82	119.18	7.89	-47.6	-60.2	3.8	1.49e+00	0	44	104	0	65	16579
2026-01-28 08:16:57.83	119.14	7.97	-47.6	-60.2	3.8	1.49e+00	0	44	104	0	65	16633
2026-01-28 08:16:58.84	119.09	8.05	-47.6	-60.2	3.8	1.49e+00	0	44	104	0	65	16610
2026-01-28 08:16:59.85	119.05	8.12	-47.6	-60.2	3.8	1.49e+00	0	44	104	0	65	16640
2026-01-28 08:17:00.85	119.00	8.20	-47.6	-60.2	3.8	1.49e+00	0	44	104	0	65	16625
2026-01-28 08:17:01.86	118.96	8.28	-47.6	-60.2	3.8	1.49e+00	0	44	104	0	65	16631
2026-01-28 08:17:02.87	118.91	8.36	-47.6	-60.2	3.8	1.49e+00	0	44	104	0	65	16615
2026-01-28 08:17:03.88	118.87	8.44	-47.6	-60.2	3.8	1.49e+00	0	44	104	0	65	16591
2026-01-28 08:17:04.89	118.82	8.52	-47.6	-60.2	3.8	1.49e+00	0	44	104	0	65	16604
2026-01-28 08:17:05.89	118.78	8.60	-47.6	-60.2	3.8	1.49e+00	0	44	104	0	65	16638
2026-01-28 08:17:06.90	118.73	8.68	-47.6	-60.2	3.8	1.49e+00	0	44	104	0	65	16629
2026-01-28 08:17:07.91	118.68	8.76	-47.6	-60.2	3.8	1.49e+00	0	44	104	0	65	16638
2026-01-28 08:17:08.92	118.64	8.84	-47.6	-60.2	3.8	1.49e+00	0	44	104	0	65	16645
2026-01-28 08:17:09.93	118.59	8.92	-47.6	-60.2	3.8	1.49e+00	0	44	104	0	65	16598
2026-01-28 08:17:10.93	118.54	9.00	-47.6	-60.2	3.8	1.49e+00	0	44	104	0	65	16628
2026-01-28 08:17:11.94	118.49	9.08	-47.6	-60.2	3.8	1.49e+00	0	44	104	0	65	16627
2026-01-28 08:17:12.95	118.45	9.16	-47.6	-60.2	3.8	1.49e+00	0	44	104	0	65	16631
2026-01-28 08:17:13.96	118.40	9.25	-47.6	-60.2	3.8	1.49e+00	0	44	104	0	65	16620
2026-01-28 08:17:14.97	118.35	9.33	-47.6	-60.2	3.8	1.49e+00	0	44	104	0	65	16589
2026-01-28 08:17:15.97	118.30	9.41	-47.6	-60.2	3.8	1.49e+00	0	44	104	0	65	16654
2026-01-28 08:17:16.98	118.25	9.49	-47.6	-60.2	3.8	1.49e+00	0	44	104	0	65	16641
2026-01-28 08:17:17.99	118.20	9.57	-47.6	-60.2	3.8	1.49e+00	0	44	104	0	65	16614
2026-01-28 08:17:19.00	118.15	9.66	-47.6	-60.2	3.8	1.49e+00	0	44	104	0	65	16640
2026-01-28 08:17:20.01	118.10	9.74	-47.6	-60.2	3.8	1.49e+00	0	44	104	0	65	16659
2026-01-28 08:17:21.01	118.05	9.82	-47.6	-60.2	3.8	1.49e+00	0	44	104	0	65	16673
2026-01-28 08:17:22.02	118.00	9.91	-47.6	-60.2	3.8	1.49e+00	0	44	104	0	65	16682
2026-01-28 08:17:23.03	117.95	9.99	-47.6	-60.2	3.8	1.49e+00	0	44	104	0	65	16646
2026-01-28 08:17:24.04	117.90	10.08	-47.6	-60.2	3.8	1.49e+00	0	44	104	0	65	16592
2026-01-28 08:17:25.04	117.85	10.16	-47.6	-60.2	3.8	1.49e+00	0	44	104	0	65	16632
2026-01-28 08:17:26.05	117.80	10.25	-47.6	-60.2	3.8	1.49e+00	0	44	104	0	65	16624
2026-01-28 08:17:27.05	117.74	10.33	-47.6	-60.2	3.8	1.49e+00	0	44	104	0	65	16618
2026-01-28 08:17:28.06	117.69	10.42	-47.6	-60.2	3.8	1.49e+00	0	44	104	0	65	16630
2026-01-28 08:17:29.07	117.64	10.50	-47.6	-60.2	3.8	1.49e+00	0	44	104	0	65	16598
2026-01-28 08:17:30.08	117.58	10.59	-47.6	-60.2	3.8	1.49e+00	0	44	104	0	65	16624
2026-01-28 08:17:31.09	117.53	10.67	-47.6	-60.2	3.8	1.49e+00	0	44	104	0	65	16606
2026-01-28 08:17:32.09	117.48	10.76	-47.6	-60.2	3.8	1.49e+00	0	44	104	0	65	16619
2026-01-28 08:17:33.10	117.42	10.85	-47.6	-60.2	3.8	1.49e+00	0	44	104	0	65	16603
2026-01-28 08:17:34.11	117.37	10.93	-47.6	-60.2	3.8	1.49e+00	0	43	104	0	65	16624
2026-01-28 08:17:35.12	117.31	11.02	-47.6	-60.2	3.8	1.49e+00	0	44	104	0	65	16661
2026-01-28 08:17:36.13	117.26	11.11	-47.6	-60.2	3.8	1.49e+00	0	43	104	0	65	16634
2026-01-28 08:17:37.13	117.20	11.20	-47.6	-60.2	3.8	1.49e+00	0	44	104	0	65	16641
2026-01-28 08:17:38.14	117.15	11.28	-47.6	-60.2	3.8	1.49e+00	0	43	104	0	65	16622
2026-01-28 08:17:39.15	117.09	11.37	-47.6	-60.2	3.8	1.49e+00	0	43	104	0	65	16611
2026-01-28 08:17:40.16	117.03	11.46	-47.6	-60.2	3.8	1.49e+00	0	44	104	0	65	16651
2026-01-28 08:17:41.17	116.98	11.55	-47.6	-60.2	3.8	1.49e+00	0	43	104	0	65	16597
2026-01-28 08:17:42.18	116.92	11.64	-47.6	-60.2	3.8	1.49e+00	0	43	104	0	65	16642
2026-01-28 08:17:43.19	116.86	11.73	-47.6	-60.2	3.8	1.49e+00	0	44	104	0	65	16630
2026-01-28 08:17:44.20	116.80	11.82	-47.6	-60.2	3.8	1.49e+00	0	44	104	0	65	16672
2026-01-28 08:17:45.21	116.75	11.91	-47.6	-60.2	3.8	1.49e+00	0	44	104	0	65	16606
2026-01-28 08:17:46.22	116.69	12.00	-47.6	-60.2	3.8	1.49e+00	0	43	104	0	65	16624
2026-01-28 08:17:47.23	116.63	12.09	-47.6	-60.2	3.8	1.49e+00	0	44	104	0	65	16612
2026-01-28 08:17:48.24	116.57	12.18	-47.6	-60.2	3.8	1.49e+00	0	43	104	0	65	16604
2026-01-28 08:17:49.25	116.51	12.27	-47.6	-60.2	3.8	1.49e+00	0	44	104	0	65	16676
2026-01-28 08:17:50.25	116.45	12.36	-47.6	-60.2	3.8	1.49e+00	0	44	104	0	65	16636
2026-01-28 08:17:51.26	116.39	12.46	-47.6	-60.2	3.8	1.49e+00	0	43	104	0	65	16624
2026-01-28 08:17:52.27	116.32	12.55	-47.6	-60.2	3.8	1.49e+00	0	43	104	0	65	16629
2026-01-28 08:17:53.28	116.26	12.64	-47.6	-60.2	3.8	1.49e+00	0	44	104	0	65	16627
2026-01-28 08:17:54.29	116.20	12.74	-47.6	-60.2	3.8	1.49e+00	0	43	104	0	65	16641
2026-01-28 08:17:55.30	116.14	12.83	-47.6	-60.2	3.8	1.49e+00	0	43	104	0	65	16616
2026-01-28 08:17:56.31	116.08	12.92	-47.6	-60.2	3.8	1.49e+00	0	43	104	0	65	16570
2026-01-28 08:17:57.32	116.01	13.02	-47.6	-60.2	3.8	1.49e+00	0	44	104	0	65	16674
2026-01-28 08:17:58.33	115.95	13.11	-47.6	-60.2	3.8	1.49e+00	0	43	104	0	65	16620
2026-01-28 08:17:59.33	115.88	13.20	-47.6	-60.2	3.8	1.49e+00	0	43	104	0	65	16635
2026-01-28 08:18:00.34	115.82	13.30	-47.6	-60.2	3.8	1.49e+00	0	44	104	0	65	16611
2026-01-28 08:18:01.35	115.76	13.40	-47.6	-60.2	3.8	1.49e+00	0	43	104	0	65	16607
2026-01-28 08:18:02.36	115.69	13.49	-47.6	-60.2	3.8	1.49e+00	0	43	104	0	65	16594
2026-01-28 08:18:03.37	115.62	13.59	-47.6	-60.2	3.8	1.49e+00	0	43	104	0	65	16577
2026-01-28 08:18:04.37	115.56	13.68	-47.6	-60.2	3.8	1.49e+00	0	43	104	0	65	16609
2026-01-28 08:18:05.38	115.49	13.78	-47.6	-60.2	3.8	1.49e+00	0	43	104	0	65	16642
2026-01-28 08:18:06.39	115.42	13.88	-47.6	-60.2	3.8	1.49e+00	0	43	104	0	65	16571
2026-01-28 08:18:07.40	115.36	13.97	-47.6	-60.2	3.8	1.49e+00	0	43	104	0	65	16674
2026-01-28 08:18:08.40	115.29	14.07	-47.6	-60.2	3.8	1.49e+00	0	43	104	0	65	16613
2026-01-28 08:18:09.41	115.22	14.17	-47.6	-60.2	3.8	1.49e+00	0	44	104	0	65	16614
2026-01-28 08:18:10.42	115.15	14.27	-47.6	-60.2	3.8	1.49e+00	0	43	104	0	65	16671
2026-01-28 08:18:11.43	115.08	14.37	-47.6	-60.2	3.8	1.49e+00	0	43	104	0	65	16610
2026-01-28 08:18:12.43	115.01	14.46	-47.6	-60.2	3.8	1.49e+00	0	44	104	0	65	16632
2026-01-28 08:18:13.44	114.94	14.56	-47.6	-60.2	3.8	1.49e+00	0	43	104	0	65	16604
2026-01-28 08:18:14.44	114.87	14.66	-47.6	-60.2	3.8	1.49e+00	0	43	104	0	65	16663
2026-01-28 08:18:15.45	114.80	14.76	-47.6	-60.2	3.8	1.49e+00	0	43	104	0	65	16655
2026-01-28 08:18:16.46	114.73	14.86	-47.6	-60.2	3.8	1.49e+00	0	43	104	0	65	16651
2026-01-28 08:18:17.46	114.65	14.96	-47.6	-60.2	3.8	1.49e+00	0	43	104	0	65	16620
2026-01-28 08:18:18.47	114.58	15.07	-47.6	-60.2	3.8	1.49e+00	0	43	104	0	65	16602
2026-01-28 08:18:19.48	114.51	15.17	-47.6	-60.2	3.8	1.49e+00	0	43	104	0	65	16611
2026-01-28 08:18:20.49	114.43	15.27	-47.6	-60.2	3.8	1.49e+00	0	44	104	0	65	16658
2026-01-28 08:18:21.49	114.36	15.37	-47.6	-60.2	3.8	1.49e+00	0	43	104	0	65	16597
2026-01-28 08:18:22.50	114.28	15.47	-47.6	-60.2	3.8	1.49e+00	0	44	104	0	65	16594
2026-01-28 08:18:23.51	114.21	15.58	-47.6	-60.2	3.8	1.49e+00	0	43	104	0	65	16636
2026-01-28 08:18:24.52	114.13	15.68	-47.6	-60.2	3.8	1.49e+00	0	43	104	0	65	16668
2026-01-28 08:18:25.53	114.05	15.79	-47.6	-60.2	3.8	1.49e+00	0	43	104	0	65	16598
2026-01-28 08:18:26.53	113.98	15.89	-47.6	-60.2	3.8	1.49e+00	0	43	104	0	65	16671
2026-01-28 08:18:27.54	113.90	15.99	-47.6	-60.2	3.8	1.49e+00	0	43	104	0	65	16636
2026-01-28 08:18:28.55	113.82	16.10	-47.6	-60.2	3.8	1.49e+00	0	43	104	0	65	16592
2026-01-28 08:18:29.56	113.74	16.20	-47.6	-60.2	3.8	1.49e+00	0	43	104	0	65	16656
2026-01-28 08:18:30.57	113.66	16.31	-47.6	-60.2	3.8	1.49e+00	0	43	104	0	65	16608
2026-01-28 08:18:31.57	113.58	16.42	-47.6	-60.2	3.8	1.49e+00	0	43	104	0	65	16620
2026-01-28 08:18:32.58	113.50	16.52	-47.6	-60.2	3.8	1.49e+00	0	43	104	0	65	16536
2026-01-28 08:18:33.59	113.42	16.63	-47.6	-60.2	3.8	1.49e+00	0	43	104	0	65	16629
2026-01-28 08:18:34.60	113.34	16.74	-47.6	-60.2	3.8	1.49e+00	0	43	104	0	65	16585
2026-01-28 08:18:35.61	113.25	16.85	-47.6	-60.2	3.8	1.49e+00	0	43	104	0	65	16627
2026-01-28 08:18:36.62	113.17	16.95	-47.6	-60.2	3.8	1.49e+00	0	43	104	0	65	16611
2026-01-28 08:18:37.63	113.09	17.06	-47.6	-60.2	3.8	1.49e+00	0	43	104	0	65	16655
2026-01-28 08:18:38.63	113.00	17.17	-47.6	-60.2	3.8	1.49e+00	0	43	104	0	65	16599
2026-01-28 08:18:39.65	112.92	17.28	-47.6	-60.2	3.8	1.49e+00	0	43	104	0	65	16602
2026-01-28 08:18:40.65	112.83	17.39	-47.6	-60.2	3.8	1.49e+00	0	43	104	0	65	16628
2026-01-28 08:18:41.66	112.75	17.50	-47.6	-60.2	3.8	1.49e+00	0	43	104	0	65	16613
2026-01-28 08:18:42.67	112.66	17.61	-47.6	-60.2	3.8	1.49e+00	0	43	104	0	65	16641
2026-01-28 08:18:43.68	112.57	17.72	-47.6	-60.2	3.8	1.49e+00	0	43	104	0	65	16558
2026-01-28 08:18:44.69	112.48	17.84	-47.6	-60.2	3.8	1.49e+00	0	43	104	0	65	16585
2026-01-28 08:18:45.70	112.39	17.95	-47.6	-60.2	3.8	1.49e+00	0	43	104	0	65	16620
2026-01-28 08:18:46.70	112.30	18.06	-47.6	-60.2	3.8	1.49e+00	0	43	104	0	65	16604
2026-01-28 08:18:47.71	112.21	18.17	-47.6	-60.2	3.8	1.49e+00	0	43	104	0	65	16671
2026-01-28 08:18:48.72	112.12	18.29	-47.6	-60.2	3.8	1.49e+00	0	43	104	0	65	16637
2026-01-28 08:18:49.73	112.03	18.40	-47.6	-60.2	3.8	1.49e+00	0	43	104	0	65	16635
2026-01-28 08:18:50.73	111.94	18.51	-47.6	-60.2	3.8	1.49e+00	0	43	104	0	65	16627
2026-01-28 08:18:51.74	111.84	18.63	-47.6	-60.2	3.8	1.49e+00	0	43	104	0	65	16619
2026-01-28 08:18:52.75	111.75	18.74	-47.6	-60.2	3.8	1.49e+00	0	43	104	0	65	16627
2026-01-28 08:18:53.76	111.65	18.86	-47.6	-60.2	3.8	1.49e+00	0	43	104	0	65	16626
2026-01-28 08:18:54.77	111.56	18.98	-47.6	-60.2	3.8	1.49e+00	0	43	104	0	65	16654
2026-01-28 08:18:55.77	111.46	19.09	-47.6	-60.2	3.8	1.49e+00	0	43	104	0	65	16618
2026-01-28 08:18:56.78	111.37	19.21	-47.6	-60.2	3.8	1.49e+00	0	43	104	0	65	16624
2026-01-28 08:18:57.79	111.27	19.33	-47.6	-60.2	3.8	1.49e+00	0	43	104	0	65	16623
2026-01-28 08:18:58.80	111.17	19.45	-47.6	-60.2	3.8	1.49e+00	0	43	104	0	65	16627
2026-01-28 08:18:59.81	111.07	19.56	-47.6	-60.2	3.8	1.49e+00	0	43	104	0	65	16664
2026-01-28 08:19:00.81	110.97	19.68	-47.6	-60.2	3.8	1.49e+00	0	43	104	0	65	16663
2026-01-28 08:19:01.82	110.87	19.80	-47.6	-60.2	3.8	1.49e+00	0	43	104	0	65	16603
2026-01-28 08:19:02.83	110.77	19.92	-47.6	-60.2	3.8	1.49e+00	0	43	104	0	65	16659
2026-01-28 08:19:03.83	110.67	20.04	-47.6	-60.3	3.8	1.49e+00	0	44	104	0	65	16714
2026-01-28 08:19:04.84	110.56	20.16	-47.6	-60.2	3.8	1.49e+00	0	43	104	0	65	16631
2026-01-28 08:19:05.85	110.46	20.28	-47.6	-60.2	3.8	1.49e+00	0	43	104	0	65	16593
2026-01-28 08:19:06.86	110.35	20.41	-47.6	-60.2	3.8	1.49e+00	0	43	104	0	65	16577
2026-01-28 08:19:07.87	110.25	20.53	-47.6	-60.2	3.8	1.49e+00	0	43	104	0	65	16609
2026-01-28 08:19:08.87	110.14	20.65	-47.6	-60.2	3.8	1.49e+00	0	43	104	0	65	16563
2026-01-28 08:19:09.88	110.03	20.77	-47.6	-60.2	3.8	1.49e+00	0	43	104	0	65	16656
2026-01-28 08:19:10.89	109.92	20.90	-47.6	-60.2	3.8	1.49e+00	0	43	104	0	65	16574
2026-01-28 08:19:11.90	109.81	21.02	-47.6	-60.2	3.8	1.49e+00	0	43	104	0	65	16565
2026-01-28 08:19:12.91	109.70	21.15	-47.6	-60.2	3.8	1.49e+00	0	43	104	0	65	16680
2026-01-28 08:19:13.91	109.59	21.27	-47.6	-60.2	3.8	1.49e+00	0	43	104	0	65	16618
2026-01-28 08:19:14.92	109.48	21.40	-47.6	-60.2	3.8	1.49e+00	0	43	104	0	65	16643
2026-01-28 08:19:15.92	109.37	21.52	-47.6	-60.2	3.8	1.49e+00	0	43	104	0	65	16672
2026-01-28 08:19:16.93	109.25	21.65	-47.6	-60.2	3.8	1.49e+00	0	43	104	0	65	16603
2026-01-28 08:19:17.94	109.14	21.78	-47.6	-60.2	3.8	1.49e+00	0	43	104	0	65	16633
2026-01-28 08:19:18.94	109.02	21.90	-47.6	-60.2	3.8	1.49e+00	0	43	104	0	65	16645
2026-01-28 08:19:19.95	108.91	22.03	-47.6	-60.2	3.8	1.49e+00	0	43	104	0	65	16673
2026-01-28 08:19:20.97	108.79	22.16	-47.6	-60.2	3.8	1.49e+00	0	43	104	0	65	16692
2026-01-28 08:19:21.97	108.67	22.29	-47.6	-60.2	3.8	1.49e+00	0	43	104	0	65	16628
2026-01-28 08:19:22.98	108.55	22.42	-47.6	-60.2	3.8	1.49e+00	0	43	104	0	65	16614
2026-01-28 08:19:23.99	108.43	22.55	-47.6	-60.2	3.8	1.49e+00	0	43	104	0	65	16604
2026-01-28 08:19:25.00	108.30	22.68	-47.6	-60.2	3.8	1.49e+00	0	43	104	0	65	16627
2026-01-28 08:19:26.01	108.18	22.82	-47.6	-60.2	3.8	1.49e+00	0	43	104	0	65	16593
2026-01-28 08:19:27.01	108.06	22.95	-47.6	-60.2	3.8	1.49e+00	0	43	104	0	65	16569
2026-01-28 08:19:28.03	107.93	23.08	-47.6	-60.2	3.8	1.49e+00	0	43	104	0	65	16620
2026-01-28 08:19:29.03	107.80	23.21	-47.6	-60.2	3.8	1.49e+00	0	43	104	0	65	16626
2026-01-28 08:19:30.04	107.68	23.35	-47.6	-60.2	3.8	1.49e+00	0	43	104	0	65	16614
2026-01-28 08:19:31.05	107.55	23.48	-47.6	-60.2	3.8	1.49e+00	0	43	104	0	65	16641
2026-01-28 08:19:32.06	107.42	23.62	-47.6	-60.2	3.8	1.49e+00	0	43	104	0	65	16595
2026-01-28 08:19:33.07	107.29	23.75	-47.6	-60.2	3.8	1.49e+00	0	43	104	0	65	16645
2026-01-28 08:19:34.08	107.15	23.89	-47.6	-60.2	3.8	1.49e+00	0	43	104	0	65	16680
2026-01-28 08:19:35.08	107.02	24.02	-47.6	-60.2	3.8	1.49e+00	0	43	104	0	65	16637
2026-01-28 08:19:36.09	106.89	24.16	-47.6	-60.2	3.8	1.49e+00	0	43	104	0	65	16596
2026-01-28 08:19:37.10	106.75	24.30	-47.6	-60.2	3.8	1.49e+00	0	43	104	0	65	16632
2026-01-28 08:19:38.11	106.61	24.43	-47.6	-60.2	3.8	1.49e+00	0	43	104	0	65	16627
2026-01-28 08:19:39.12	106.47	24.57	-47.6	-60.2	3.8	1.49e+00	0	43	104	0	65	16616
2026-01-28 08:19:40.12	106.34	24.71	-47.6	-60.2	3.8	1.49e+00	0	43	104	0	65	16561
2026-01-28 08:19:41.13	106.20	24.85	-47.6	-60.2	3.8	1.49e+00	0	43	104	0	65	16612
2026-01-28 08:19:42.14	106.05	24.99	-47.6	-60.2	3.8	1.49e+00	0	43	104	0	65	16610
2026-01-28 08:19:43.15	105.91	25.13	-47.6	-60.2	3.8	1.49e+00	0	43	104	0	65	16629
2026-01-28 08:19:44.16	105.76	25.27	-47.6	-60.2	3.8	1.49e+00	0	43	104	0	65	16616
2026-01-28 08:19:45.17	105.62	25.41	-47.6	-60.2	3.8	1.49e+00	0	43	104	0	65	16610
2026-01-28 08:19:46.18	105.47	25.56	-47.6	-60.2	3.8	1.49e+00	0	43	104	0	65	16629
2026-01-28 08:19:47.19	105.32	25.70	-47.6	-60.2	3.8	1.49e+00	0	43	104	0	65	16648
2026-01-28 08:19:48.20	105.17	25.84	-47.6	-60.2	3.8	1.49e+00	0	43	104	0	65	16627
2026-01-28 08:19:49.21	105.02	25.99	-47.6	-60.2	3.8	1.49e+00	0	43	104	0	65	16582
2026-01-28 08:19:50.21	104.87	26.13	-47.6	-60.2	3.8	1.49e+00	0	43	104	0	65	16593
2026-01-28 08:19:51.22	104.71	26.28	-47.6	-60.2	3.8	1.49e+00	0	43	104	0	65	16628
2026-01-28 08:19:52.23	104.56	26.42	-47.6	-60.2	3.8	1.49e+00	0	43	104	0	65	16644
2026-01-28 08:19:53.24	104.40	26.57	-47.6	-60.2	3.8	1.49e+00	0	43	104	0	65	16606
2026-01-28 08:19:54.25	104.24	26.72	-47.6	-60.2	3.8	1.49e+00	0	43	104	0	65	16571
2026-01-28 08:19:55.25	104.08	26.86	-47.6	-60.2	3.8	1.49e+00	0	43	104	0	65	16596
2026-01-28 08:19:56.26	103.92	27.01	-47.6	-60.2	3.8	1.49e+00	0	43	104	0	65	16594
2026-01-28 08:19:57.27	103.76	27.16	-47.6	-60.2	3.8	1.49e+00	0	43	104	0	65	16620
2026-01-28 08:19:58.28	103.59	27.31	-47.6	-60.2	3.8	1.49e+00	0	43	104	0	65	16627
2026-01-28 08:19:59.29	103.43	27.46	-47.6	-60.2	3.8	1.49e+00	0	43	104	0	65	16616
2026-01-28 08:20:00.29	103.26	27.61	-47.6	-60.2	3.8	1.49e+00	0	43	104	0	65	16638
2026-01-28 08:20:01.30	103.09	27.76	-47.6	-60.2	3.8	1.49e+00	0	43	104	0	65	16579
2026-01-28 08:20:02.31	102.92	27.91	-47.6	-60.2	3.8	1.49e+00	0	43	104	0	65	16645
2026-01-28 08:20:03.32	102.75	28.06	-47.6	-60.2	3.8	1.49e+00	0	43	104	0	65	16579
2026-01-28 08:20:04.32	102.57	28.21	-47.6	-60.2	3.8	1.49e+00	0	43	104	0	65	16622
2026-01-28 08:20:05.33	102.40	28.36	-47.6	-60.2	3.8	1.49e+00	0	43	104	0	65	16625
2026-01-28 08:20:06.34	102.22	28.52	-47.6	-60.2	3.8	1.49e+00	0	43	104	0	65	16641
2026-01-28 08:20:07.35	102.04	28.67	-47.6	-60.2	3.8	1.49e+00	0	43	104	0	65	16634
2026-01-28 08:20:08.35	101.86	28.82	-47.6	-60.2	3.8	1.49e+00	0	43	104	0	65	16630
2026-01-28 08:20:09.36	101.67	28.98	-47.6	-60.2	3.8	1.49e+00	0	43	104	0	65	16602
2026-01-28 08:20:10.37	101.49	29.13	-47.6	-60.2	3.8	1.49e+00	0	43	104	0	65	16605
2026-01-28 08:20:11.37	101.30	29.29	-47.6	-60.2	3.8	1.49e+00	0	43	104	0	65	16599
2026-01-28 08:20:12.38	101.12	29.44	-47.6	-60.2	3.8	1.49e+00	0	43	104	0	65	16576
2026-01-28 08:20:13.39	100.92	29.60	-47.6	-60.2	3.8	1.49e+00	0	43	104	0	65	16640
2026-01-28 08:20:14.40	100.73	29.76	-47.6	-60.2	3.8	1.49e+00	0	43	104	0	65	16620
2026-01-28 08:20:15.41	100.54	29.92	-47.6	-60.2	3.8	1.49e+00	0	43	104	0	65	16658
2026-01-28 08:20:16.41	100.34	30.07	-47.6	-60.2	3.8	1.49e+00	0	43	104	0	65	16631
2026-01-28 08:20:17.43	100.14	30.23	-47.6	-60.2	3.8	1.49e+00	0	43	104	0	65	16655
2026-01-28 08:20:18.43	99.94	30.39	-47.6	-60.2	3.8	1.49e+00	0	43	104	0	65	16630
2026-01-28 08:20:19.44	99.74	30.55	-47.6	-60.2	3.8	1.49e+00	0	43	104	0	65	16621
2026-01-28 08:20:20.44	99.54	30.71	-47.6	-60.2	3.8	1.49e+00	0	43	104	0	65	16582
2026-01-28 08:20:21.45	99.33	30.87	-47.6	-60.2	3.8	1.49e+00	0	43	104	0	65	16617
2026-01-28 08:20:22.45	99.13	31.03	-47.6	-60.2	3.8	1.49e+00	0	43	104	0	65	16659
2026-01-28 08:20:23.46	98.92	31.19	-47.6	-60.2	3.8	1.49e+00	0	43	104	0	65	16646
2026-01-28 08:20:24.47	98.70	31.35	-47.6	-60.2	3.8	1.49e+00	0	43	104	0	65	16607
2026-01-28 08:20:25.47	98.49	31.52	-47.6	-60.2	3.8	1.49e+00	0	43	104	0	65	16637
2026-01-28 08:20:26.48	98.27	31.68	-47.6	-60.2	3.8	1.49e+00	0	43	104	0	65	16620
2026-01-28 08:20:27.49	98.05	31.84	-47.6	-60.2	3.8	1.49e+00	0	43	104	0	65	16595
2026-01-28 08:20:28.50	97.83	32.01	-47.6	-60.2	3.8	1.49e+00	0	43	104	0	65	16597
2026-01-28 08:20:29.51	97.61	32.17	-47.6	-60.2	3.8	1.49e+00	0	43	104	0	65	16595
2026-01-28 08:20:30.52	97.38	32.34	-47.6	-60.2	3.8	1.49e+00	0	43	104	0	65	16633
2026-01-28 08:20:31.53	97.15	32.50	-47.6	-60.2	3.8	1.49e+00	0	43	104	0	65	16615
2026-01-28 08:20:32.54	96.92	32.67	-47.6	-60.2	3.8	1.49e+00	0	43	104	0	65	16596
2026-01-28 08:20:33.54	96.69	32.83	-47.6	-60.2	3.8	1.49e+00	0	43	104	0	65	16579
2026-01-28 08:20:34.55	96.46	33.00	-47.6	-60.2	3.8	1.49e+00	0	43	104	0	65	16573
2026-01-28 08:20:35.56	96.22	33.16	-47.6	-60.2	3.8	1.49e+00	0	43	104	0	65	16625
2026-01-28 08:20:36.57	95.98	33.33	-47.6	-60.2	3.8	1.49e+00	0	43	104	0	65	16598
2026-01-28 08:20:37.58	95.73	33.50	-47.6	-60.2	3.8	1.49e+00	0	43	104	0	65	16622
2026-01-28 08:20:38.59	95.49	33.66	-47.6	-60.2	3.8	1.49e+00	0	43	104	0	65	16580
2026-01-28 08:20:39.59	95.24	33.83	-47.6	-60.2	3.8	1.49e+00	0	43	104	0	65	16590
2026-01-28 08:20:40.60	94.99	34.00	-47.6	-60.2	3.8	1.49e+00	0	43	104	0	65	16611
2026-01-28 08:20:41.61	94.74	34.17	-47.6	-60.2	3.8	1.49e+00	0	43	104	0	65	16602
2026-01-28 08:20:42.62	94.48	34.34	-47.6	-60.2	3.8	1.49e+00	0	43	104	0	65	16606
2026-01-28 08:20:43.63	94.22	34.51	-47.6	-60.2	3.8	1.49e+00	0	43	104	0	65	16626
2026-01-28 08:20:44.64	93.96	34.67	-47.6	-60.2	3.8	1.49e+00	0	43	104	0	65	16619
2026-01-28 08:20:45.65	93.70	34.84	-47.6	-60.2	3.8	1.49e+00	0	43	104	0	65	16593
2026-01-28 08:20:46.66	93.43	35.01	-47.6	-60.2	3.8	1.49e+00	0	43	104	0	65	16598
2026-01-28 08:20:47.66	93.16	35.18	-47.6	-60.2	3.8	1.49e+00	0	43	104	0	65	16623
2026-01-28 08:20:48.67	92.89	35.35	-47.6	-60.2	3.8	1.49e+00	0	43	104	0	65	16607
2026-01-28 08:20:49.68	92.61	35.52	-47.6	-60.2	3.8	1.49e+00	0	43	104	0	65	16601
2026-01-28 08:20:50.69	92.34	35.69	-47.6	-60.2	3.8	1.49e+00	0	43	104	0	65	16625
2026-01-28 08:20:51.70	92.05	35.86	-47.6	-60.2	3.8	1.49e+00	0	43	104	0	65	16582
2026-01-28 08:20:52.71	91.77	36.03	-47.6	-60.2	3.8	1.49e+00	0	43	104	0	65	16600
2026-01-28 08:20:53.71	91.49	36.20	-47.6	-60.2	3.8	1.49e+00	0	43	104	0	65	16658
2026-01-28 08:20:54.72	91.19	36.37	-47.6	-60.2	3.8	1.49e+00	0	43	104	0	65	16615
2026-01-28 08:20:55.73	90.90	36.54	-47.6	-60.2	3.8	1.49e+00	0	43	104	0	65	16625
2026-01-28 08:20:56.74	90.60	36.71	-47.6	-60.2	3.8	1.49e+00	0	43	104	0	65	16602
2026-01-28 08:20:57.74	90.31	36.88	-47.6	-60.2	3.8	1.49e+00	0	43	104	0	65	16632
2026-01-28 08:20:58.75	90.00	37.05	-47.6	-60.2	3.8	1.49e+00	0	43	104	0	65	16600
2026-01-28 08:20:59.76	89.70	37.22	-47.6	-60.2	3.8	1.49e+00	0	43	104	0	65	16579
2026-01-28 08:21:00.77	89.39	37.39	-47.6	-60.2	3.8	1.49e+00	0	43	104	0	65	16619
2026-01-28 08:21:01.77	89.08	37.56	-47.6	-60.2	3.8	1.49e+00	0	43	104	0	65	16603
2026-01-28 08:21:02.78	88.76	37.73	-47.6	-60.2	3.8	1.49e+00	0	43	104	0	65	16564
2026-01-28 08:21:03.79	88.44	37.90	-47.6	-60.2	3.8	1.49e+00	0	43	104	0	65	16660
2026-01-28 08:21:04.80	88.12	38.07	-47.6	-60.2	3.8	1.49e+00	0	43	104	0	65	16571
2026-01-28 08:21:05.81	87.80	38.24	-47.6	-60.2	3.8	1.49e+00	0	43	104	0	65	16624
2026-01-28 08:21:06.81	87.47	38.41	-47.6	-60.2	3.8	1.49e+00	0	43	104	0	65	16630
2026-01-28 08:21:07.82	87.14	38.58	-47.6	-60.2	3.8	1.49e+00	0	43	104	0	65	16630
2026-01-28 08:21:08.83	86.80	38.75	-47.6	-60.2	3.8	1.49e+00	0	43	104	0	65	16559
2026-01-28 08:21:09.84	86.46	38.92	-47.6	-60.2	3.8	1.49e+00	0	43	104	0	65	16633
2026-01-28 08:21:10.85	86.12	39.09	-47.6	-60.2	3.8	1.49e+00	0	43	104	0	65	16577
2026-01-28 08:21:11.86	85.77	39.25	-47.6	-60.2	3.8	1.49e+00	0	43	104	0	65	16642
2026-01-28 08:21:12.87	85.42	39.42	-47.6	-60.2	3.8	1.49e+00	0	43	104	0	65	16586
2026-01-28 08:21:13.88	85.06	39.59	-47.6	-60.2	3.8	1.49e+00	0	43	104	0	65	16582
2026-01-28 08:21:14.89	84.71	39.76	-47.6	-60.2	3.8	1.49e+00	0	43	104	0	65	16600
2026-01-28 08:21:15.89	84.35	39.92	-47.6	-60.2	3.8	1.49e+00	0	43	104	0	65	16612
2026-01-28 08:21:16.90	83.98	40.09	-47.6	-60.2	3.8	1.49e+00	0	43	104	0	65	16600
2026-01-28 08:21:17.91	83.61	40.25	-47.6	-60.2	3.8	1.49e+00	0	43	104	0	65	16626
2026-01-28 08:21:18.92	83.24	40.42	-47.6	-60.2	3.8	1.49e+00	0	43	104	0	65	16629
2026-01-28 08:21:19.93	82.86	40.58	-47.6	-60.2	3.8	1.49e+00	0	43	104	0	65	16596
2026-01-28 08:21:20.93	82.49	40.74	-47.6	-60.2	3.8	1.49e+00	0	43	104	0	65	16630
2026-01-28 08:21:21.94	82.10	40.90	-47.6	-60.2	3.8	1.49e+00	0	43	104	0	65	16592
2026-01-28 08:21:22.95	81.71	41.07	-47.6	-60.2	3.8	1.49e+00	0	43	104	0	65	16619
2026-01-28 08:21:23.96	81.32	41.23	-47.6	-60.2	3.8	1.49e+00	0	43	104	0	65	16637
2026-01-28 08:21:24.97	80.92	41.39	-47.6	-60.2	3.8	1.49e+00	0	43	104	0	65	16646
2026-01-28 08:21:25.97	80.53	41.54	-47.6	-60.2	3.8	1.49e+00	0	43	104	0	65	16588
2026-01-28 08:21:26.98	80.12	41.70	-47.6	-60.2	3.8	1.49e+00	0	43	104	0	65	16605
2026-01-28 08:21:27.99	79.72	41.86	-47.6	-60.2	3.8	1.49e+00	0	43	104	0	65	16637
2026-01-28 08:21:28.99	79.31	42.01	-47.6	-60.2	3.8	1.49e+00	0	43	104	0	65	16601
2026-01-28 08:21:30.01	78.89	42.17	-47.6	-60.2	3.8	1.49e+00	0	43	104	0	65	16606
2026-01-28 08:21:31.01	78.47	42.32	-47.6	-60.2	3.8	1.49e+00	0	43	104	0	65	16619
2026-01-28 08:21:32.02	78.05	42.48	-47.6	-60.2	3.8	1.49e+00	0	43	104	0	65	16616
2026-01-28 08:21:33.03	77.62	42.63	-47.6	-60.2	3.8	1.49e+00	0	43	104	0	65	16608
2026-01-28 08:21:34.04	77.19	42.78	-47.6	-60.2	3.8	1.49e+00	0	43	104	0	65	16633
2026-01-28 08:21:35.04	76.75	42.93	-47.6	-60.2	3.8	1.49e+00	0	44	104	0	65	16579
2026-01-28 08:21:36.05	76.31	43.08	-47.6	-60.2	3.8	1.49e+00	0	43	104	0	65	16615
2026-01-28 08:21:37.06	75.87	43.22	-47.6	-60.2	3.8	1.49e+00	0	43	104	0	65	16555
2026-01-28 08:21:38.07	75.42	43.37	-47.6	-60.2	3.8	1.49e+00	0	43	104	0	65	16608
2026-01-28 08:21:39.08	74.97	43.51	-47.6	-60.2	3.8	1.49e+00	0	43	104	0	65	16627
2026-01-28 08:21:40.09	74.51	43.65	-47.6	-60.2	3.8	1.49e+00	0	43	104	0	65	16571
2026-01-28 08:21:41.10	74.05	43.80	-47.6	-60.2	3.8	1.49e+00	0	43	104	0	65	16650
2026-01-28 08:21:42.11	73.59	43.93	-47.6	-60.2	3.8	1.49e+00	0	43	104	0	65	16679
2026-01-28 08:21:43.12	73.12	44.07	-47.6	-60.2	3.8	1.49e+00	0	43	104	0	65	16612
2026-01-28 08:21:44.13	72.64	44.21	-47.6	-60.2	3.8	1.49e+00	0	43	104	0	65	16594
2026-01-28 08:21:45.13	72.17	44.34	-47.6	-60.2	3.8	1.49e+00	0	43	104	0	65	16620
2026-01-28 08:21:46.14	71.69	44.47	-47.6	-60.2	3.8	1.49e+00	0	43	104	0	65	16611
2026-01-28 08:21:47.14	71.21	44.60	-47.6	-60.2	3.8	1.49e+00	0	43	104	0	65	16604
2026-01-28 08:21:48.15	70.72	44.73	-47.6	-60.2	3.8	1.49e+00	0	43	104	0	65	16555
2026-01-28 08:21:49.16	70.23	44.86	-47.6	-60.2	3.8	1.49e+00	0	43	104	0	65	16577
2026-01-28 08:21:50.17	69.73	44.98	-47.6	-60.2	3.8	1.49e+00	0	43	104	0	65	16625
2026-01-28 08:21:51.17	69.23	45.10	-47.6	-60.2	3.8	1.49e+00	0	43	104	0	65	16583
2026-01-28 08:21:52.18	68.73	45.23	-47.6	-60.2	3.8	1.49e+00	0	43	104	0	65	16587
2026-01-28 08:21:53.19	68.22	45.34	-47.6	-60.2	3.8	1.49e+00	0	43	104	0	65	16620
2026-01-28 08:21:54.20	67.71	45.46	-47.6	-60.2	3.8	1.49e+00	0	43	104	0	65	16614
2026-01-28 08:21:55.21	67.19	45.57	-47.6	-60.2	3.8	1.49e+00	0	43	104	0	65	16607
2026-01-28 08:21:56.21	66.68	45.69	-47.6	-60.2	3.8	1.49e+00	0	43	104	0	65	16552
2026-01-28 08:21:57.22	66.16	45.79	-47.6	-60.2	3.8	1.49e+00	0	43	104	0	65	16603
2026-01-28 08:21:58.23	65.63	45.90	-47.6	-60.2	3.8	1.49e+00	0	43	104	0	65	16602
2026-01-28 08:21:59.23	65.10	46.01	-47.6	-60.2	3.8	1.49e+00	0	43	104	0	65	16636
2026-01-28 08:22:00.24	64.57	46.11	-47.6	-60.2	3.8	1.49e+00	0	43	104	0	65	16620
2026-01-28 08:22:01.25	64.03	46.21	-47.6	-60.2	3.8	1.49e+00	0	43	104	0	65	16601
2026-01-28 08:22:02.26	63.49	46.30	-47.6	-60.2	3.8	1.49e+00	0	43	104	0	65	16593
2026-01-28 08:22:03.27	62.95	46.40	-47.6	-60.2	3.8	1.49e+00	0	43	104	0	65	16579
2026-01-28 08:22:04.28	62.40	46.49	-47.6	-60.2	3.8	1.49e+00	0	43	104	0	65	16599
2026-01-28 08:22:05.29	61.85	46.58	-47.6	-60.2	3.8	1.49e+00	0	43	104	0	65	16553
2026-01-28 08:22:06.30	61.29	46.67	-47.6	-60.2	3.8	1.49e+00	0	43	104	0	65	16567
2026-01-28 08:22:07.31	60.74	46.75	-47.6	-60.2	3.8	1.49e+00	0	43	104	0	65	16607
2026-01-28 08:22:08.32	60.18	46.83	-47.6	-60.2	3.8	1.49e+00	0	43	104	0	65	16604
2026-01-28 08:22:09.33	59.62	46.91	-47.6	-60.2	3.8	1.49e+00	0	43	104	0	65	16607
2026-01-28 08:22:10.33	59.06	46.98	-47.6	-60.2	3.8	1.49e+00	0	43	104	0	65	16647
2026-01-28 08:22:11.34	58.49	47.06	-47.6	-60.2	3.8	1.49e+00	0	43	104	0	65	16619
2026-01-28 08:22:12.35	57.92	47.12	-47.6	-60.2	3.8	1.49e+00	0	43	104	0	65	16645
2026-01-28 08:22:13.36	57.34	47.19	-47.6	-60.2	3.8	1.49e+00	0	43	104	0	65	16630
2026-01-28 08:22:14.37	56.77	47.25	-47.6	-60.2	3.8	1.49e+00	0	43	104	0	65	16611
2026-01-28 08:22:15.37	56.20	47.31	-47.6	-60.2	3.8	1.49e+00	0	43	104	0	65	16589
2026-01-28 08:22:16.38	55.62	47.37	-47.6	-60.2	3.8	1.49e+00	0	43	104	0	65	16573
2026-01-28 08:22:17.39	55.04	47.42	-47.6	-60.2	3.8	1.49e+00	0	43	104	0	65	16594
2026-01-28 08:22:18.39	54.46	47.47	-47.6	-60.2	3.8	1.49e+00	0	43	104	0	65	16597
2026-01-28 08:22:19.40	53.87	47.52	-47.6	-60.2	3.8	1.49e+00	0	43	104	0	65	16540
2026-01-28 08:22:20.41	53.29	47.57	-47.6	-60.2	3.8	1.49e+00	0	43	104	0	65	16574
2026-01-28 08:22:21.42	52.70	47.61	-47.6	-60.2	3.8	1.49e+00	0	43	104	0	65	16596
2026-01-28 08:22:22.43	52.11	47.64	-47.6	-60.2	3.8	1.49e+00	0	43	104	0	65	16604
2026-01-28 08:22:23.43	51.52	47.68	-47.6	-60.2	3.8	1.49e+00	0	43	104	0	65	16564
2026-01-28 08:22:24.44	50.93	47.71	-47.6	-60.2	3.8	1.49e+00	0	43	104	0	65	16622
2026-01-28 08:22:25.45	50.33	47.74	-47.6	-60.2	3.8	1.49e+00	0	43	104	0	65	16574
2026-01-28 08:22:26.45	49.74	47.76	-47.6	-60.2	3.8	1.49e+00	0	43	104	0	65	16594
2026-01-28 08:22:27.46	49.15	47.78	-47.6	-60.2	3.8	1.49e+00	0	43	104	0	65	16575
2026-01-28 08:22:28.46	48.56	47.80	-47.6	-60.2	3.8	1.49e+00	0	43	104	0	65	16591
2026-01-28 08:22:29.47	47.96	47.81	-47.6	-60.2	3.8	1.49e+00	0	43	104	0	65	16594
2026-01-28 08:22:30.48	47.36	47.82	-47.6	-60.2	3.8	1.49e+00	0	43	104	0	65	16576
2026-01-28 08:22:31.49	46.76	47.83	-47.6	-60.2	3.8	1.49e+00	0	43	104	0	65	16553
2026-01-28 08:22:32.50	46.17	47.84	-47.6	-60.2	3.8	1.49e+00	0	43	104	0	65	16662
2026-01-28 08:22:33.51	45.57	47.84	-47.6	-60.2	3.8	1.49e+00	0	43	104	0	65	16580
2026-01-28 08:22:34.51	44.97	47.83	-47.6	-60.2	3.8	1.49e+00	0	43	104	0	65	16550
2026-01-28 08:22:35.52	44.38	47.83	-47.6	-60.2	3.8	1.49e+00	0	43	104	0	65	16593
2026-01-28 08:22:36.53	43.78	47.82	-47.6	-60.2	3.8	1.49e+00	0	43	104	0	65	16599
2026-01-28 08:22:37.54	43.18	47.81	-47.6	-60.2	3.8	1.49e+00	0	43	104	0	65	16616
2026-01-28 08:22:38.54	42.59	47.79	-47.6	-60.2	3.8	1.49e+00	0	43	104	0	65	16604
2026-01-28 08:22:39.55	41.99	47.77	-47.6	-60.2	3.8	1.49e+00	0	43	104	0	65	16548
2026-01-28 08:22:40.56	41.40	47.75	-47.6	-60.2	3.8	1.49e+00	0	43	104	0	65	16638
2026-01-28 08:22:41.57	40.80	47.72	-47.6	-60.2	3.8	1.49e+00	0	43	104	0	65	16569
2026-01-28 08:22:42.58	40.21	47.69	-47.6	-60.2	3.8	1.49e+00	0	43	104	0	65	16653
2026-01-28 08:22:43.58	39.62	47.66	-47.6	-60.2	3.8	1.49e+00	0	43	104	0	65	16596
2026-01-28 08:22:44.60	39.03	47.62	-47.6	-60.2	3.8	1.49e+00	0	43	104	0	65	16591
2026-01-28 08:22:45.60	38.44	47.58	-47.6	-60.2	3.8	1.49e+00	0	43	104	0	65	16577
2026-01-28 08:22:46.61	37.86	47.54	-47.6	-60.2	3.8	1.49e+00	0	43	104	0	65	16601
2026-01-28 08:22:47.62	37.27	47.49	-47.6	-60.2	3.8	1.49e+00	0	43	104	0	65	16650
2026-01-28 08:22:48.63	36.69	47.44	-47.6	-60.2	3.8	1.49e+00	0	43	104	0	65	16597
2026-01-28 08:22:49.64	36.10	47.39	-47.6	-60.2	3.8	1.49e+00	0	43	104	0	65	16563
2026-01-28 08:22:50.65	35.52	47.34	-47.6	-60.2	3.8	1.49e+00	0	43	104	0	65	16556
2026-01-28 08:22:51.65	34.95	47.28	-47.6	-60.2	3.8	1.49e+00	0	43	104	0	65	16595
2026-01-28 08:22:52.66	34.38	47.22	-47.6	-60.2	3.8	1.49e+00	0	43	104	0	65	16619
2026-01-28 08:22:53.67	33.80	47.15	-47.6	-60.2	3.8	1.49e+00	0	43	104	0	65	16625
2026-01-28 08:22:54.68	33.23	47.08	-47.6	-60.2	3.8	1.49e+00	0	43	104	0	65	16607
2026-01-28 08:22:55.69	32.66	47.01	-47.6	-60.2	3.8	1.49e+00	0	43	104	0	65	16561
2026-01-28 08:22:56.70	32.10	46.94	-47.6	-60.2	3.8	1.49e+00	0	43	104	0	65	16641
2026-01-28 08:22:57.71	31.53	46.86	-47.6	-60.2	3.8	1.49e+00	0	43	104	0	65	16547
2026-01-28 08:22:58.72	30.97	46.78	-47.6	-60.2	3.8	1.49e+00	0	43	104	0	65	16617
2026-01-28 08:22:59.73	30.42	46.70	-47.6	-60.2	3.8	1.49e+00	0	43	104	0	65	16587
2026-01-28 08:23:00.74	29.86	46.62	-47.6	-60.2	3.8	1.49e+00	0	43	104	0	65	16615
2026-01-28 08:23:01.75	29.31	46.53	-47.6	-60.2	3.8	1.49e+00	0	43	104	0	65	16592
2026-01-28 08:23:02.75	28.77	46.44	-47.6	-60.2	3.8	1.49e+00	0	43	104	0	65	16602
2026-01-28 08:23:03.76	28.22	46.34	-47.6	-60.2	3.8	1.49e+00	0	43	104	0	65	16592
2026-01-28 08:23:04.77	27.68	46.25	-47.6	-60.2	3.8	1.49e+00	0	43	104	0	65	16527
2026-01-28 08:23:05.78	27.14	46.15	-47.6	-60.2	3.8	1.49e+00	0	43	104	0	65	16556
2026-01-28 08:23:06.79	26.61	46.05	-47.6	-60.2	3.8	1.49e+00	0	43	104	0	65	16571
2026-01-28 08:23:07.80	26.08	45.94	-47.6	-60.2	3.8	1.49e+00	0	43	104	0	65	16579
2026-01-28 08:23:08.81	25.55	45.84	-47.6	-60.2	3.8	1.49e+00	0	43	104	0	65	16627
2026-01-28 08:23:09.81	25.03	45.73	-47.6	-60.2	3.8	1.49e+00	0	43	104	0	65	16650
2026-01-28 08:23:10.82	24.51	45.62	-47.6	-60.2	3.8	1.49e+00	0	43	104	0	65	16641
2026-01-28 08:23:11.83	23.99	45.51	-47.6	-60.2	3.8	1.49e+00	0	43	104	0	65	16596
2026-01-28 08:23:12.83	23.48	45.39	-47.6	-60.2	3.8	1.49e+00	0	43	104	0	65	16524
2026-01-28 08:23:13.84	22.97	45.28	-47.6	-60.2	3.8	1.49e+00	0	43	104	0	65	16587
2026-01-28 08:23:14.85	22.47	45.16	-47.6	-60.2	3.8	1.49e+00	0	43	104	0	65	16571
2026-01-28 08:23:15.86	21.97	45.03	-47.6	-60.2	3.8	1.49e+00	0	43	104	0	65	16614
2026-01-28 08:23:16.87	21.47	44.91	-47.6	-60.2	3.8	1.49e+00	0	43	104	0	65	16560
2026-01-28 08:23:17.87	20.98	44.79	-47.6	-60.2	3.8	1.49e+00	0	43	104	0	65	16606
2026-01-28 08:23:18.88	20.49	44.66	-47.6	-60.2	3.8	1.49e+00	0	43	104	0	65	16586
2026-01-28 08:23:19.89	20.00	44.53	-47.6	-60.2	3.8	1.49e+00	0	43	104	0	65	16592
2026-01-28 08:23:20.90	19.52	44.40	-47.6	-60.2	3.8	1.49e+00	0	43	104	0	65	16595
2026-01-28 08:23:21.91	19.04	44.26	-47.6	-60.2	3.8	1.49e+00	0	43	104	0	65	16556
2026-01-28 08:23:22.92	18.57	44.13	-47.6	-60.2	3.8	1.49e+00	0	43	104	0	65	16564
2026-01-28 08:23:23.93	18.10	43.99	-47.5	-60.2	3.8	1.49e+00	0	43	104	0	65	16566
2026-01-28 08:23:24.94	17.63	43.85	-47.6	-60.2	3.8	1.49e+00	0	43	104	0	65	16552
2026-01-28 08:23:25.95	17.17	43.71	-47.6	-60.2	3.8	1.49e+00	0	43	104	0	65	16534
2026-01-28 08:23:26.96	16.71	43.57	-47.6	-60.2	3.8	1.49e+00	0	43	104	0	65	16586
2026-01-28 08:23:27.96	16.26	43.43	-47.5	-60.2	3.8	1.49e+00	0	43	104	0	65	16572
2026-01-28 08:23:28.97	15.81	43.29	-47.6	-60.2	3.8	1.49e+00	0	43	104	0	65	16543
2026-01-28 08:23:29.98	15.37	43.14	-47.6	-60.2	3.8	1.49e+00	0	43	104	0	65	16625
2026-01-28 08:23:30.99	14.93	42.99	-47.6	-60.2	3.8	1.49e+00	0	43	104	0	65	16561
2026-01-28 08:23:32.00	14.49	42.84	-47.6	-60.2	3.8	1.49e+00	0	43	104	0	65	16585
2026-01-28 08:23:33.01	14.06	42.69	-47.6	-60.2	3.8	1.49e+00	0	43	104	0	65	16609
2026-01-28 08:23:34.02	13.63	42.54	-47.6	-60.2	3.8	1.49e+00	0	43	104	0	65	16563
2026-01-28 08:23:35.03	13.20	42.39	-47.6	-60.2	3.8	1.49e+00	0	43	104	0	65	16626
2026-01-28 08:23:36.04	12.78	42.24	-47.6	-60.2	3.8	1.49e+00	0	43	104	0	65	16549
2026-01-28 08:23:37.05	12.36	42.08	-47.6	-60.2	3.8	1.49e+00	0	43	104	0	65	16570
2026-01-28 08:23:38.05	11.96	41.93	-47.6	-60.2	3.8	1.49e+00	0	43	104	0	65	16580
2026-01-28 08:23:39.06	11.55	41.77	-47.6	-60.2	3.8	1.49e+00	0	43	104	0	65	16560
2026-01-28 08:23:40.07	11.14	41.61	-47.6	-60.2	3.8	1.49e+00	0	43	104	0	65	16597
2026-01-28 08:23:41.08	10.74	41.46	-47.6	-60.2	3.8	1.49e+00	0	43	104	0	65	16610
2026-01-28 08:23:42.09	10.34	41.30	-47.6	-60.2	3.8	1.49e+00	0	43	104	0	65	16575
2026-01-28 08:23:43.10	9.95	41.14	-47.6	-60.2	3.8	1.49e+00	0	43	104	0	65	16584
2026-01-28 08:23:44.11	9.56	40.97	-47.6	-60.2	3.8	1.49e+00	0	43	104	0	65	16600
2026-01-28 08:23:45.12	9.18	40.81	-47.6	-60.2	3.8	1.49e+00	0	43	104	0	65	16613
2026-01-28 08:23:46.12	8.80	40.65	-47.6	-60.2	3.8	1.49e+00	0	43	104	0	65	16608
2026-01-28 08:23:47.13	8.42	40.49	-47.6	-60.2	3.8	1.49e+00	0	43	104	0	65	16572
2026-01-28 08:23:48.14	8.05	40.32	-47.6	-60.2	3.8	1.49e+00	0	43	104	0	65	16596
2026-01-28 08:23:49.15	7.68	40.16	-47.6	-60.2	3.8	1.49e+00	0	43	104	0	65	16601
2026-01-28 08:23:50.15	7.31	40.00	-47.6	-60.2	3.8	1.49e+00	0	43	104	0	65	16598
2026-01-28 08:23:51.16	6.95	39.83	-47.6	-60.2	3.8	1.49e+00	0	43	104	0	65	16614
2026-01-28 08:23:52.17	6.59	39.66	-47.6	-60.2	3.8	1.49e+00	0	43	104	0	65	16564
2026-01-28 08:23:53.17	6.24	39.50	-47.6	-60.2	3.8	1.49e+00	0	43	104	0	65	16550
2026-01-28 08:23:54.18	5.89	39.33	-47.6	-60.2	3.8	1.49e+00	0	43	104	0	65	16595
2026-01-28 08:23:55.19	5.54	39.17	-47.6	-60.2	3.8	1.49e+00	0	43	104	0	65	16602
2026-01-28 08:23:56.20	5.20	39.00	-47.6	-60.2	3.8	1.49e+00	0	43	104	0	65	16582
2026-01-28 08:23:57.21	4.86	38.83	-47.6	-60.2	3.8	1.49e+00	0	43	104	0	65	16656
2026-01-28 08:23:58.21	4.52	38.66	-47.6	-60.2	3.8	1.49e+00	0	43	104	0	65	16586
2026-01-28 08:23:59.22	4.19	38.49	-47.6	-60.2	3.8	1.49e+00	0	43	104	0	65	16566
2026-01-28 08:24:00.23	3.86	38.32	-47.6	-60.2	3.8	1.49e+00	0	43	104	0	65	16558
2026-01-28 08:24:01.24	3.53	38.16	-47.6	-60.2	3.8	1.49e+00	0	43	104	0	65	16626
2026-01-28 08:24:02.25	3.21	37.99	-47.6	-60.2	3.8	1.49e+00	0	43	104	0	65	16580
2026-01-28 08:24:03.26	2.89	37.82	-47.6	-60.2	3.8	1.49e+00	0	43	104	0	65	16572
2026-01-28 08:24:04.27	2.57	37.65	-47.6	-60.2	3.8	1.49e+00	0	43	104	0	65	16580
2026-01-28 08:24:05.27	2.26	37.48	-47.6	-60.2	3.8	1.49e+00	0	43	104	0	65	16584
2026-01-28 08:24:06.28	1.95	37.31	-47.6	-60.2	3.8	1.49e+00	0	43	104	0	65	16568
2026-01-28 08:24:07.29	1.64	37.14	-47.6	-60.2	3.8	1.49e+00	0	43	104	0	65	16550
2026-01-28 08:24:08.29	1.34	36.97	-47.6	-60.2	3.8	1.49e+00	0	43	104	0	65	16554
2026-01-28 08:24:09.30	1.04	36.80	-47.6	-60.2	3.8	1.49e+00	0	43	104	0	65	16620
2026-01-28 08:24:10.31	0.75	36.63	-47.5	-60.2	3.8	1.49e+00	0	43	104	0	65	16551
2026-01-28 08:24:11.32	0.45	36.46	-47.5	-60.2	3.8	1.49e+00	0	43	104	0	65	16571
2026-01-28 08:24:12.33	0.16	36.29	-47.6	-60.2	3.8	1.49e+00	0	43	104	0	65	16570
2026-01-28 08:24:13.33	359.88	36.12	-47.6	-60.2	3.8	1.49e+00	0	43	104	0	65	16597
2026-01-28 08:24:14.34	359.59	35.95	-47.6	-60.2	3.8	1.49e+00	0	43	104	0	65	16577
2026-01-28 08:24:15.35	359.31	35.78	-47.6	-60.2	3.8	1.49e+00	0	43	104	0	65	16525
2026-01-28 08:24:16.36	359.03	35.61	-47.6	-60.2	3.8	1.49e+00	0	43	104	0	65	16608
2026-01-28 08:24:17.37	358.75	35.44	-47.6	-60.2	3.8	1.49e+00	0	43	104	0	65	16568
2026-01-28 08:24:18.38	358.48	35.27	-47.6	-60.2	3.8	1.49e+00	0	43	104	0	65	16594
2026-01-28 08:24:19.38	358.21	35.10	-47.6	-60.2	3.8	1.49e+00	0	43	104	0	65	16576
2026-01-28 08:24:20.39	357.94	34.93	-47.6	-60.2	3.8	1.49e+00	0	43	104	0	65	16586
2026-01-28 08:24:21.40	357.68	34.76	-47.6	-60.2	3.8	1.49e+00	0	43	104	0	65	16588
2026-01-28 08:24:22.41	357.42	34.60	-47.6	-60.2	3.8	1.49e+00	0	43	104	0	65	16609
2026-01-28 08:24:23.41	357.16	34.43	-47.6	-60.2	3.8	1.49e+00	0	43	104	0	65	16607
2026-01-28 08:24:24.42	356.90	34.26	-47.6	-60.2	3.8	1.49e+00	0	43	104	0	65	16584
2026-01-28 08:24:25.43	356.65	34.09	-47.5	-60.2	3.8	1.49e+00	0	43	104	0	65	16562
2026-01-28 08:24:26.44	356.40	33.92	-47.6	-60.2	3.8	1.49e+00	0	43	104	0	65	16540
2026-01-28 08:24:27.44	356.15	33.76	-47.6	-60.2	3.8	1.49e+00	0	43	104	0	65	16577
2026-01-28 08:24:28.45	355.91	33.59	-47.6	-60.2	3.8	1.49e+00	0	43	104	0	65	16610
2026-01-28 08:24:29.46	355.66	33.42	-47.6	-60.2	3.8	1.49e+00	0	43	104	0	65	16573
2026-01-28 08:24:30.47	355.42	33.26	-47.6	-60.2	3.8	1.49e+00	0	43	104	0	65	16572
2026-01-28 08:24:31.47	355.19	33.09	-47.5	-60.2	3.8	1.49e+00	0	43	104	0	65	16621
2026-01-28 08:24:32.48	354.95	32.93	-47.6	-60.2	3.8	1.49e+00	0	43	104	0	65	16590
2026-01-28 08:24:33.49	354.72	32.76	-47.6	-60.2	3.8	1.49e+00	0	43	104	0	65	16525
2026-01-28 08:24:34.50	354.48	32.60	-47.6	-60.2	3.8	1.49e+00	0	43	104	0	65	16575
2026-01-28 08:24:35.51	354.26	32.43	-47.6	-60.2	3.8	1.49e+00	0	43	104	0	65	16534
2026-01-28 08:24:36.52	354.03	32.27	-47.6	-60.2	3.8	1.49e+00	0	43	104	0	65	16560
2026-01-28 08:24:37.53	353.80	32.10	-47.5	-60.2	3.8	1.49e+00	0	43	104	0	65	16597
2026-01-28 08:24:38.54	353.58	31.94	-47.5	-60.2	3.8	1.49e+00	0	43	104	0	65	16534
2026-01-28 08:24:39.55	353.36	31.78	-47.6	-60.2	3.8	1.49e+00	0	43	104	0	65	16590
2026-01-28 08:24:40.55	353.15	31.61	-47.6	-60.2	3.8	1.49e+00	0	43	104	0	65	16563
2026-01-28 08:24:41.56	352.93	31.45	-47.6	-60.2	3.8	1.49e+00	0	43	104	0	65	16571
2026-01-28 08:24:42.57	352.72	31.29	-47.6	-60.2	3.8	1.49e+00	0	43	104	0	65	16665
2026-01-28 08:24:43.58	352.51	31.13	-47.6	-60.2	3.8	1.49e+00	0	43	104	0	65	16585
2026-01-28 08:24:44.59	352.30	30.97	-47.6	-60.2	3.8	1.49e+00	0	43	104	0	65	16576
2026-01-28 08:24:45.60	352.09	30.81	-47.6	-60.2	3.8	1.49e+00	0	43	104	0	65	16576
2026-01-28 08:24:46.61	351.89	30.65	-47.6	-60.2	3.8	1.49e+00	0	43	104	0	65	16618
2026-01-28 08:24:47.62	351.68	30.49	-47.6	-60.2	3.8	1.49e+00	0	43	104	0	65	16580
2026-01-28 08:24:48.63	351.48	30.33	-47.6	-60.2	3.8	1.49e+00	0	43	104	0	65	16604
2026-01-28 08:24:49.63	351.29	30.17	-47.6	-60.2	3.8	1.49e+00	0	43	104	0	65	16558
2026-01-28 08:24:50.64	351.09	30.01	-47.6	-60.2	3.8	1.49e+00	0	43	104	0	65	16583
2026-01-28 08:24:51.65	350.90	29.86	-47.6	-60.2	3.8	1.49e+00	0	43	104	0	65	16570
2026-01-28 08:24:52.66	350.70	29.70	-47.6	-60.2	3.8	1.49e+00	0	43	104	0	65	16555
2026-01-28 08:24:53.67	350.51	29.54	-47.6	-60.2	3.8	1.49e+00	0	43	104	0	65	16562
2026-01-28 08:24:54.68	350.32	29.38	-47.6	-60.2	3.8	1.49e+00	0	43	104	0	65	16583
2026-01-28 08:24:55.69	350.14	29.23	-47.5	-60.2	3.8	1.49e+00	0	43	104	0	65	16566
2026-01-28 08:24:56.69	349.95	29.08	-47.6	-60.2	3.8	1.49e+00	0	43	104	0	65	16561
2026-01-28 08:24:57.70	349.77	28.92	-47.6	-60.2	3.8	1.49e+00	0	43	104	0	65	16578
2026-01-28 08:24:58.71	349.59	28.77	-47.5	-60.2	3.8	1.49e+00	0	43	104	0	65	16573
2026-01-28 08:24:59.71	349.41	28.61	-47.5	-60.2	3.8	1.49e+00	0	43	104	0	65	16594
2026-01-28 08:25:00.72	349.23	28.46	-47.6	-60.2	3.8	1.49e+00	0	43	104	0	65	16595
2026-01-28 08:25:01.73	349.05	28.31	-47.6	-60.2	3.8	1.49e+00	0	43	104	0	65	16571
2026-01-28 08:25:02.73	348.88	28.16	-47.6	-60.2	3.8	1.49e+00	0	43	104	0	65	16559
2026-01-28 08:25:03.74	348.71	28.01	-47.6	-60.2	3.8	1.49e+00	0	43	104	0	65	16617
2026-01-28 08:25:04.75	348.54	27.86	-47.6	-60.2	3.8	1.49e+00	0	43	104	0	65	16596
2026-01-28 08:25:05.76	348.37	27.70	-47.6	-60.2	3.8	1.49e+00	0	43	104	0	65	16583
2026-01-28 08:25:06.77	348.20	27.55	-47.6	-60.2	3.8	1.49e+00	0	43	104	0	65	16538
2026-01-28 08:25:07.78	348.03	27.41	-47.5	-60.1	3.8	1.49e+00	0	43	104	0	65	16501
2026-01-28 08:25:08.78	347.87	27.26	-47.6	-60.2	3.8	1.49e+00	0	43	104	0	65	16561
2026-01-28 08:25:09.79	347.70	27.11	-47.6	-60.2	3.8	1.49e+00	0	43	104	0	65	16606
2026-01-28 08:25:10.80	347.54	26.96	-47.5	-60.2	3.8	1.49e+00	0	43	104	0	65	16558
2026-01-28 08:25:11.81	347.38	26.81	-47.6	-60.2	3.8	1.49e+00	0	43	104	0	65	16595
2026-01-28 08:25:12.81	347.22	26.67	-47.6	-60.2	3.8	1.49e+00	0	43	104	0	65	16561
2026-01-28 08:25:13.82	347.07	26.52	-47.6	-60.2	3.8	1.49e+00	0	43	104	0	65	16543
2026-01-28 08:25:14.83	346.91	26.38	-47.6	-60.2	3.8	1.49e+00	0	43	104	0	65	16575
2026-01-28 08:25:15.84	346.76	26.23	-47.6	-60.2	3.8	1.49e+00	0	43	104	0	65	16655
2026-01-28 08:25:16.85	346.60	26.09	-47.6	-60.2	3.8	1.49e+00	0	43	104	0	65	16572
2026-01-28 08:25:17.85	346.45	25.95	-47.5	-60.2	3.8	1.49e+00	0	43	104	0	65	16575
2026-01-28 08:25:18.86	346.30	25.80	-47.6	-60.2	3.8	1.49e+00	0	43	104	0	65	16600
2026-01-28 08:25:19.87	346.15	25.66	-47.6	-60.2	3.8	1.49e+00	0	43	104	0	65	16548
2026-01-28 08:25:20.88	346.01	25.52	-47.6	-60.2	3.8	1.49e+00	0	43	104	0	65	16601
2026-01-28 08:25:21.88	345.86	25.38	-47.6	-60.2	3.8	1.49e+00	0	43	104	0	65	16609
2026-01-28 08:25:22.89	345.72	25.24	-47.5	-60.2	3.8	1.49e+00	0	43	104	0	65	16616
2026-01-28 08:25:23.90	345.57	25.09	-47.6	-60.2	3.8	1.49e+00	0	43	104	0	65	16565
2026-01-28 08:25:24.91	345.43	24.95	-47.6	-60.2	3.8	1.49e+00	0	43	104	0	65	16597
2026-01-28 08:25:25.92	345.29	24.81	-47.6	-60.2	3.8	1.49e+00	0	43	104	0	65	16585
2026-01-28 08:25:26.93	345.15	24.68	-47.6	-60.2	3.8	1.49e+00	0	43	104	0	65	16593
2026-01-28 08:25:27.94	345.01	24.54	-47.5	-60.2	3.8	1.49e+00	0	43	104	0	65	16577
2026-01-28 08:25:28.94	344.87	24.40	-47.6	-60.2	3.8	1.49e+00	0	43	104	0	65	16555
2026-01-28 08:25:29.95	344.74	24.26	-47.6	-60.2	3.8	1.49e+00	0	43	104	0	65	16591
2026-01-28 08:25:30.96	344.60	24.13	-47.6	-60.2	3.8	1.49e+00	0	43	104	0	65	16615
2026-01-28 08:25:31.97	344.47	23.99	-47.6	-60.2	3.8	1.49e+00	0	43	104	0	65	16628
2026-01-28 08:25:32.98	344.34	23.85	-47.6	-60.2	3.8	1.49e+00	0	43	104	0	65	16576
2026-01-28 08:25:33.99	344.21	23.72	-47.6	-60.2	3.8	1.49e+00	0	43	104	0	65	16591
2026-01-28 08:25:35.00	344.08	23.58	-47.6	-60.2	3.8	1.49e+00	0	43	104	0	65	16553
2026-01-28 08:25:36.01	343.95	23.45	-47.6	-60.2	3.8	1.49e+00	0	43	104	0	65	16558
2026-01-28 08:25:37.02	343.82	23.32	-47.6	-60.2	3.8	1.49e+00	0	43	104	0	65	16579
2026-01-28 08:25:38.03	343.69	23.18	-47.6	-60.2	3.8	1.49e+00	0	43	104	0	65	16554
2026-01-28 08:25:39.04	343.57	23.05	-47.6	-60.2	3.8	1.49e+00	0	43	104	0	65	16568
2026-01-28 08:25:40.05	343.44	22.92	-47.6	-60.2	3.8	1.49e+00	0	43	104	0	65	16576
2026-01-28 08:25:41.05	343.32	22.79	-47.6	-60.2	3.8	1.49e+00	0	43	104	0	65	16599
2026-01-28 08:25:42.06	343.20	22.66	-47.6	-60.2	3.8	1.49e+00	0	43	104	0	65	16631
2026-01-28 08:25:43.07	343.08	22.53	-47.5	-60.2	3.8	1.49e+00	0	43	104	0	65	16578
2026-01-28 08:25:44.08	342.96	22.40	-47.6	-60.2	3.8	1.49e+00	0	43	104	0	65	16538
2026-01-28 08:25:45.09	342.84	22.27	-47.6	-60.2	3.8	1.49e+00	0	43	104	0	65	16590
2026-01-28 08:25:46.10	342.72	22.14	-47.6	-60.2	3.8	1.49e+00	0	43	104	0	65	16609
2026-01-28 08:25:47.11	342.60	22.01	-47.6	-60.2	3.8	1.49e+00	0	43	104	0	65	16598
2026-01-28 08:25:48.11	342.49	21.88	-47.6	-60.2	3.8	1.49e+00	0	43	104	0	65	16546
2026-01-28 08:25:49.12	342.37	21.76	-47.5	-60.2	3.8	1.49e+00	0	43	104	0	65	16578
2026-01-28 08:25:50.13	342.26	21.63	-47.6	-60.2	3.8	1.49e+00	0	43	104	0	65	16601
2026-01-28 08:25:51.14	342.14	21.50	-47.5	-60.2	3.8	1.49e+00	0	43	104	0	65	16560
2026-01-28 08:25:52.15	342.03	21.38	-47.6	-60.2	3.8	1.49e+00	0	43	104	0	65	16561
2026-01-28 08:25:53.16	341.92	21.25	-47.5	-60.2	3.8	1.49e+00	0	43	104	0	65	16555
2026-01-28 08:25:54.17	341.81	21.13	-47.6	-60.2	3.8	1.49e+00	0	43	104	0	65	16538
2026-01-28 08:25:55.17	341.70	21.00	-47.5	-60.2	3.8	1.49e+00	0	43	104	0	65	16588
2026-01-28 08:25:56.18	341.59	20.88	-47.5	-60.2	3.8	1.49e+00	0	43	104	0	65	16524
2026-01-28 08:25:57.19	341.48	20.76	-47.5	-60.2	3.8	1.49e+00	0	43	104	0	65	16622
2026-01-28 08:25:58.20	341.38	20.63	-47.5	-60.2	3.8	1.49e+00	0	43	104	0	65	16524
2026-01-28 08:25:59.20	341.27	20.51	-47.6	-60.2	3.8	1.49e+00	0	43	104	0	65	16558
2026-01-28 08:26:00.21	341.17	20.39	-47.5	-60.2	3.8	1.49e+00	0	43	104	0	65	16610
2026-01-28 08:26:01.22	341.06	20.27	-47.5	-60.2	3.8	1.49e+00	0	43	104	0	65	16622
2026-01-28 08:26:02.23	340.96	20.15	-47.6	-60.2	3.8	1.49e+00	0	43	104	0	65	16535
2026-01-28 08:26:03.24	340.86	20.03	-47.6	-60.2	3.8	1.49e+00	0	43	104	0	65	16647
2026-01-28 08:26:04.25	340.75	19.91	-47.6	-60.2	3.8	1.49e+00	0	43	104	0	65	16602
2026-01-28 08:26:05.25	340.65	19.79	-47.5	-60.2	3.8	1.49e+00	0	43	104	0	65	16615
2026-01-28 08:26:06.26	340.55	19.67	-47.5	-60.2	3.8	1.49e+00	0	43	104	0	65	16564
2026-01-28 08:26:07.27	340.45	19.55	-47.5	-60.2	3.8	1.49e+00	0	43	104	0	65	16618
2026-01-28 08:26:08.28	340.36	19.43	-47.6	-60.2	3.8	1.49e+00	0	43	104	0	65	16603
2026-01-28 08:26:09.29	340.26	19.31	-47.6	-60.2	3.8	1.49e+00	0	43	104	0	65	16556
2026-01-28 08:26:10.30	340.16	19.20	-47.6	-60.2	3.8	1.49e+00	0	43	104	0	65	16591
2026-01-28 08:26:11.31	340.06	19.08	-47.6	-60.2	3.8	1.49e+00	0	43	104	0	65	16558
2026-01-28 08:26:12.32	339.97	18.96	-47.5	-60.2	3.8	1.49e+00	0	43	104	0	65	16607
2026-01-28 08:26:13.33	339.87	18.85	-47.6	-60.2	3.8	1.49e+00	0	43	104	0	65	16553
2026-01-28 08:26:14.33	339.78	18.73	-47.6	-60.2	3.8	1.49e+00	0	43	104	0	65	16603
2026-01-28 08:26:15.34	339.69	18.62	-47.6	-60.2	3.8	1.49e+00	0	43	104	0	65	16571
2026-01-28 08:26:16.35	339.59	18.51	-47.5	-60.2	3.8	1.49e+00	0	43	104	0	65	16571
2026-01-28 08:26:17.36	339.50	18.39	-47.6	-60.2	3.8	1.49e+00	0	43	104	0	65	16551
2026-01-28 08:26:18.37	339.41	18.28	-47.5	-60.2	3.8	1.49e+00	0	43	104	0	65	16599
2026-01-28 08:26:19.37	339.32	18.17	-47.5	-60.2	3.8	1.49e+00	0	43	104	0	65	16577
2026-01-28 08:26:20.38	339.23	18.05	-47.6	-60.2	3.8	1.49e+00	0	43	104	0	65	16586
2026-01-28 08:26:21.39	339.14	17.94	-47.5	-60.2	3.8	1.49e+00	0	43	104	0	65	16558
2026-01-28 08:26:22.40	339.05	17.83	-47.5	-60.2	3.8	1.49e+00	0	43	104	0	65	16571
2026-01-28 08:26:23.41	338.97	17.72	-47.6	-60.2	3.8	1.49e+00	0	43	104	0	65	16574
2026-01-28 08:26:24.42	338.88	17.61	-47.5	-60.2	3.8	1.49e+00	0	43	104	0	65	16514
2026-01-28 08:26:25.43	338.79	17.50	-47.5	-60.2	3.8	1.49e+00	0	43	104	0	65	16572
2026-01-28 08:26:26.43	338.71	17.39	-47.5	-60.2	3.8	1.49e+00	0	43	104	0	65	16516
2026-01-28 08:26:27.44	338.62	17.28	-47.5	-60.2	3.8	1.49e+00	0	43	104	0	65	16577
2026-01-28 08:26:28.45	338.54	17.17	-47.5	-60.2	3.8	1.49e+00	0	43	104	0	65	16544
2026-01-28 08:26:29.46	338.46	17.06	-47.5	-60.2	3.8	1.49e+00	0	43	104	0	65	16573
2026-01-28 08:26:30.47	338.37	16.95	-47.6	-60.2	3.8	1.49e+00	0	43	104	0	65	16559
2026-01-28 08:26:31.48	338.29	16.84	-47.5	-60.2	3.8	1.49e+00	0	43	104	0	65	16560
2026-01-28 08:26:32.48	338.21	16.74	-47.6	-60.2	3.8	1.49e+00	0	43	104	0	65	16581
2026-01-28 08:26:33.49	338.13	16.63	-47.5	-60.2	3.8	1.49e+00	0	43	104	0	65	16566
2026-01-28 08:26:34.50	338.05	16.52	-47.6	-60.2	3.8	1.49e+00	0	43	104	0	65	16591
2026-01-28 08:26:35.51	337.97	16.42	-47.6	-60.2	3.8	1.49e+00	0	43	104	0	65	16587
2026-01-28 08:26:36.51	337.89	16.31	-47.6	-60.2	3.8	1.49e+00	0	43	104	0	65	16579
2026-01-28 08:26:37.52	337.81	16.21	-47.6	-60.2	3.8	1.49e+00	0	43	104	0	65	16561
2026-01-28 08:26:38.53	337.73	16.10	-47.6	-60.2	3.8	1.49e+00	0	43	104	0	65	16562
2026-01-28 08:26:39.54	337.65	16.00	-47.5	-60.2	3.8	1.49e+00	0	43	104	0	65	16562
2026-01-28 08:26:40.55	337.58	15.89	-47.6	-60.2	3.8	1.49e+00	0	43	104	0	65	16542
2026-01-28 08:26:41.56	337.50	15.79	-47.5	-60.2	3.8	1.49e+00	0	43	104	0	65	16587
2026-01-28 08:26:42.57	337.42	15.68	-47.5	-60.2	3.8	1.49e+00	0	43	104	0	65	16522
2026-01-28 08:26:43.57	337.35	15.58	-47.6	-60.2	3.8	1.49e+00	0	43	104	0	65	16589
2026-01-28 08:26:44.58	337.27	15.48	-47.5	-60.2	3.8	1.49e+00	0	43	104	0	65	16545
2026-01-28 08:26:45.59	337.20	15.38	-47.6	-60.2	3.8	1.49e+00	0	43	104	0	65	16589
2026-01-28 08:26:46.60	337.12	15.27	-47.5	-60.2	3.8	1.49e+00	0	43	104	0	65	16578
2026-01-28 08:26:47.60	337.05	15.17	-47.6	-60.2	3.8	1.49e+00	0	43	104	0	65	16555
2026-01-28 08:26:48.61	336.98	15.07	-47.5	-60.2	3.8	1.49e+00	0	43	104	0	65	16578
2026-01-28 08:26:49.62	336.91	14.97	-47.6	-60.2	3.8	1.49e+00	0	43	104	0	65	16575
2026-01-28 08:26:50.63	336.83	14.87	-47.6	-60.2	3.8	1.49e+00	0	43	104	0	65	16534
2026-01-28 08:26:51.64	336.76	14.77	-47.6	-60.2	3.8	1.49e+00	0	43	104	0	65	16578
2026-01-28 08:26:52.65	336.69	14.67	-47.6	-60.2	3.8	1.49e+00	0	43	104	0	65	16567
2026-01-28 08:26:53.65	336.62	14.57	-47.6	-60.2	3.8	1.49e+00	0	43	104	0	65	16532
2026-01-28 08:26:54.66	336.55	14.47	-47.6	-60.2	3.8	1.49e+00	0	43	104	0	65	16586
2026-01-28 08:26:55.67	336.48	14.37	-47.5	-60.2	3.8	1.49e+00	0	43	104	0	65	16574
2026-01-28 08:26:56.67	336.41	14.28	-47.5	-60.2	3.8	1.49e+00	0	43	104	0	65	16567
2026-01-28 08:26:57.68	336.35	14.18	-47.6	-60.2	3.8	1.49e+00	0	43	104	0	65	16522
2026-01-28 08:26:58.69	336.28	14.08	-47.5	-60.2	3.8	1.49e+00	0	43	104	0	65	16554
2026-01-28 08:26:59.70	336.21	13.98	-47.6	-60.2	3.8	1.49e+00	0	43	104	0	65	16583
2026-01-28 08:27:00.71	336.14	13.89	-47.6	-60.2	3.8	1.49e+00	0	43	104	0	65	16528
2026-01-28 08:27:01.72	336.08	13.79	-47.5	-60.2	3.8	1.49e+00	0	43	104	0	65	16572
2026-01-28 08:27:02.73	336.01	13.69	-47.5	-60.2	3.8	1.49e+00	0	43	104	0	65	16554
2026-01-28 08:27:03.74	335.95	13.60	-47.5	-60.2	3.8	1.49e+00	0	43	104	0	65	16566
2026-01-28 08:27:04.75	335.88	13.50	-47.6	-60.2	3.8	1.49e+00	0	43	104	0	65	16596
2026-01-28 08:27:05.76	335.82	13.41	-47.5	-60.2	3.8	1.49e+00	0	43	104	0	65	16568
2026-01-28 08:27:06.76	335.75	13.31	-47.5	-60.2	3.8	1.49e+00	0	43	104	0	65	16601
2026-01-28 08:27:07.77	335.69	13.22	-47.6	-60.2	3.8	1.49e+00	0	43	104	0	65	16603
2026-01-28 08:27:08.78	335.62	13.12	-47.5	-60.2	3.8	1.49e+00	0	43	104	0	65	16595
2026-01-28 08:27:09.79	335.56	13.03	-47.6	-60.2	3.8	1.49e+00	0	43	104	0	65	16594
2026-01-28 08:27:10.80	335.50	12.93	-47.6	-60.2	3.8	1.49e+00	0	43	104	0	65	16599
2026-01-28 08:27:11.81	335.44	12.84	-47.5	-60.2	3.8	1.49e+00	0	43	104	0	65	16595
2026-01-28 08:27:12.81	335.38	12.75	-47.6	-60.2	3.8	1.49e+00	0	43	104	0	65	16566
2026-01-28 08:27:13.82	335.31	12.66	-47.6	-60.2	3.8	1.49e+00	0	43	104	0	65	16534
2026-01-28 08:27:14.83	335.25	12.56	-47.6	-60.2	3.8	1.49e+00	0	43	104	0	65	16579
2026-01-28 08:27:15.84	335.19	12.47	-47.5	-60.2	3.8	1.49e+00	0	43	104	0	65	16539
2026-01-28 08:27:16.85	335.13	12.38	-47.6	-60.2	3.8	1.49e+00	0	43	104	0	65	16547
2026-01-28 08:27:17.85	335.07	12.29	-47.5	-60.2	3.8	1.49e+00	0	43	104	0	65	16594
2026-01-28 08:27:18.86	335.01	12.20	-47.5	-60.2	3.8	1.49e+00	0	43	104	0	65	16613
2026-01-28 08:27:19.87	334.95	12.11	-47.5	-60.2	3.8	1.49e+00	0	43	104	0	65	16595
2026-01-28 08:27:20.88	334.90	12.02	-47.6	-60.2	3.8	1.49e+00	0	43	104	0	65	16582
2026-01-28 08:27:21.88	334.84	11.93	-47.6	-60.2	3.8	1.49e+00	0	43	104	0	65	16579
2026-01-28 08:27:22.89	334.78	11.84	-47.6	-60.2	3.8	1.49e+00	0	43	104	0	65	16583
2026-01-28 08:27:23.90	334.72	11.75	-47.5	-60.2	3.8	1.49e+00	0	43	104	0	65	16557
2026-01-28 08:27:24.91	334.67	11.66	-47.5	-60.2	3.8	1.49e+00	0	43	104	0	65	16566
2026-01-28 08:27:25.92	334.61	11.57	-47.5	-60.2	3.8	1.49e+00	0	43	104	0	65	16579
2026-01-28 08:27:26.93	334.55	11.48	-47.5	-60.2	3.8	1.49e+00	0	43	104	0	65	16558
2026-01-28 08:27:27.94	334.50	11.39	-47.6	-60.2	3.8	1.49e+00	0	43	104	0	65	16610
2026-01-28 08:27:28.95	334.44	11.30	-47.5	-60.2	3.8	1.49e+00	0	43	104	0	65	16509
2026-01-28 08:27:29.95	334.39	11.22	-47.6	-60.2	3.8	1.49e+00	0	43	104	0	65	16581
2026-01-28 08:27:30.96	334.33	11.13	-47.6	-60.2	3.8	1.49e+00	0	43	104	0	65	16600
2026-01-28 08:27:31.97	334.28	11.04	-47.6	-60.2	3.8	1.49e+00	0	43	104	0	65	16600
2026-01-28 08:27:32.98	334.22	10.95	-47.5	-60.2	3.8	1.49e+00	0	43	104	0	65	16609
2026-01-28 08:27:33.99	334.17	10.87	-47.5	-60.2	3.8	1.49e+00	0	43	104	0	65	16564
2026-01-28 08:27:35.00	334.12	10.78	-47.5	-60.2	3.8	1.49e+00	0	43	104	0	65	16534
2026-01-28 08:27:36.00	334.06	10.70	-47.6	-60.2	3.8	1.49e+00	0	43	104	0	65	16596
2026-01-28 08:27:37.01	334.01	10.61	-47.6	-60.2	3.8	1.49e+00	0	43	104	0	65	16590
2026-01-28 08:27:38.02	333.96	10.52	-47.6	-60.2	3.8	1.49e+00	0	43	104	0	65	16590
2026-01-28 08:27:39.03	333.91	10.44	-47.5	-60.2	3.8	1.49e+00	0	43	104	0	65	16529
2026-01-28 08:27:40.04	333.85	10.35	-47.5	-60.2	3.8	1.49e+00	0	43	104	0	65	16622
2026-01-28 08:27:41.05	333.80	10.27	-47.6	-60.2	3.8	1.49e+00	0	43	104	0	65	16569
2026-01-28 08:27:42.06	333.75	10.18	-47.5	-60.2	3.8	1.49e+00	0	43	104	0	65	16559
2026-01-28 08:27:43.07	333.70	10.10	-47.5	-60.2	3.8	1.49e+00	0	43	104	0	65	16537
2026-01-28 08:27:44.08	333.65	10.02	-47.6	-60.2	3.8	1.49e+00	0	43	104	0	65	16553
2026-01-28 08:27:45.09	333.60	9.93	-47.5	-60.2	3.8	1.49e+00	0	43	104	0	65	16586
2026-01-28 08:27:46.09	333.55	9.85	-47.6	-60.2	3.8	1.49e+00	0	43	104	0	65	16594
2026-01-28 08:27:47.10	333.50	9.77	-47.5	-60.2	3.8	1.49e+00	0	43	104	0	65	16573
2026-01-28 08:27:48.11	333.45	9.68	-47.5	-60.2	3.8	1.49e+00	0	43	104	0	65	16526
2026-01-28 08:27:49.12	333.40	9.60	-47.5	-60.2	3.8	1.49e+00	0	43	104	0	65	16578
2026-01-28 08:27:50.13	333.35	9.52	-47.5	-60.2	3.8	1.49e+00	0	43	104	0	65	16600
2026-01-28 08:27:51.13	333.30	9.44	-47.5	-60.2	3.8	1.49e+00	0	43	104	0	65	16555
2026-01-28 08:27:52.14	333.26	9.35	-47.5	-60.2	3.8	1.49e+00	0	43	104	0	65	16556
2026-01-28 08:27:53.15	333.21	9.27	-47.6	-60.2	3.8	1.49e+00	0	43	104	0	65	16571
2026-01-28 08:27:54.16	333.16	9.19	-47.6	-60.2	3.8	1.49e+00	0	43	104	0	65	16586
2026-01-28 08:27:55.17	333.11	9.11	-47.6	-60.2	3.8	1.49e+00	0	43	104	0	65	16561
2026-01-28 08:27:56.17	333.07	9.03	-47.5	-60.2	3.8	1.49e+00	0	43	104	0	65	16545
2026-01-28 08:27:57.18	333.02	8.95	-47.5	-60.2	3.8	1.49e+00	0	43	104	0	65	16573
2026-01-28 08:27:58.19	332.97	8.87	-47.5	-60.2	3.8	1.49e+00	0	43	104	0	65	16577
2026-01-28 08:27:59.20	332.93	8.79	-47.5	-60.2	3.8	1.49e+00	0	43	104	0	65	16582
2026-01-28 08:28:00.21	332.88	8.71	-47.6	-60.2	3.8	1.49e+00	0	43	104	0	65	16585
2026-01-28 08:28:01.22	332.84	8.63	-47.5	-60.2	3.8	1.49e+00	0	43	104	0	65	16541
2026-01-28 08:28:02.22	332.79	8.55	-47.6	-60.2	3.8	1.49e+00	0	43	104	0	65	16571
2026-01-28 08:28:03.23	332.75	8.47	-47.5	-60.2	3.8	1.49e+00	0	43	104	0	65	16618
2026-01-28 08:28:04.24	332.70	8.39	-47.6	-60.2	3.8	1.49e+00	0	43	104	0	65	16583
2026-01-28 08:28:05.25	332.66	8.31	-47.6	-60.2	3.8	1.49e+00	0	43	104	0	65	16572
2026-01-28 08:28:06.26	332.61	8.23	-47.5	-60.2	3.8	1.49e+00	0	43	104	0	65	16594
2026-01-28 08:28:07.26	332.57	8.15	-47.6	-60.2	3.8	1.49e+00	0	43	104	0	65	16558
2026-01-28 08:28:08.27	332.52	8.08	-47.6	-60.2	3.8	1.49e+00	0	43	104	0	65	16595
2026-01-28 08:28:09.28	332.48	8.00	-47.5	-60.2	3.8	1.49e+00	0	43	104	0	65	16560
2026-01-28 08:28:10.28	332.44	7.92	-47.5	-60.2	3.8	1.49e+00	0	43	104	0	65	16562
2026-01-28 08:28:11.30	332.39	7.84	-47.6	-60.2	3.8	1.49e+00	0	43	104	0	65	16590
2026-01-28 08:28:12.30	332.35	7.77	-47.6	-60.2	3.8	1.49e+00	0	43	104	0	65	16561
2026-01-28 08:28:13.31	332.31	7.69	-47.6	-60.2	3.8	1.49e+00	0	43	104	0	65	16572
2026-01-28 08:28:14.32	332.27	7.61	-47.5	-60.2	3.8	1.49e+00	0	43	104	0	65	16544
2026-01-28 08:28:15.33	332.23	7.53	-47.6	-60.2	3.8	1.49e+00	0	43	104	0	65	16580
2026-01-28 08:28:16.33	332.18	7.46	-47.5	-60.2	3.8	1.49e+00	0	43	104	0	65	16561
2026-01-28 08:28:17.34	332.14	7.38	-47.6	-60.2	3.8	1.49e+00	0	43	104	0	65	16590
2026-01-28 08:28:18.35	332.10	7.31	-47.6	-60.2	3.8	1.49e+00	0	43	104	0	65	16559
2026-01-28 08:28:19.36	332.06	7.23	-47.5	-60.2	3.8	1.49e+00	0	43	104	0	65	16597
2026-01-28 08:28:20.37	332.02	7.16	-47.5	-60.2	3.8	1.49e+00	0	43	104	0	65	16575
2026-01-28 08:28:21.37	331.98	7.08	-47.5	-60.2	3.8	1.49e+00	0	43	104	0	65	16583
2026-01-28 08:28:22.38	331.94	7.01	-47.6	-60.2	3.8	1.49e+00	0	43	104	0	65	16577
2026-01-28 08:28:23.39	331.90	6.93	-47.6	-60.2	3.8	1.49e+00	0	43	104	0	65	16604
2026-01-28 08:28:24.40	331.86	6.86	-47.5	-60.2	3.8	1.49e+00	0	43	104	0	65	16547
2026-01-28 08:28:25.41	331.82	6.78	-47.5	-60.2	3.8	1.49e+00	0	43	104	0	65	16531
2026-01-28 08:28:26.42	331.78	6.71	-47.6	-60.2	3.8	1.49e+00	0	43	104	0	65	16590
2026-01-28 08:28:27.43	331.74	6.63	-47.5	-60.2	3.8	1.49e+00	0	43	104	0	65	16593
2026-01-28 08:28:28.43	331.70	6.56	-47.5	-60.2	3.8	1.49e+00	0	43	104	0	65	16568
2026-01-28 08:28:29.44	331.66	6.48	-47.6	-60.2	3.8	1.49e+00	0	43	104	0	65	16600
2026-01-28 08:28:30.45	331.62	6.41	-47.6	-60.2	3.8	1.49e+00	0	43	104	0	65	16602
2026-01-28 08:28:31.45	331.59	6.34	-47.5	-60.2	3.8	1.49e+00	0	43	104	0	65	16547
2026-01-28 08:28:32.46	331.55	6.26	-47.6	-60.2	3.8	1.49e+00	0	43	104	0	65	16584
2026-01-28 08:28:33.47	331.51	6.19	-47.5	-60.2	3.8	1.49e+00	0	43	104	0	65	16576
2026-01-28 08:28:34.47	331.47	6.12	-47.6	-60.2	3.8	1.49e+00	0	43	104	0	65	16566
2026-01-28 08:28:35.48	331.43	6.05	-47.6	-60.2	3.8	1.49e+00	0	43	104	0	65	16580
2026-01-28 08:28:36.49	331.40	5.97	-47.5	-60.2	3.8	1.49e+00	0	43	104	0	65	16595
2026-01-28 08:28:37.50	331.36	5.90	-47.6	-60.2	3.8	1.49e+00	0	43	104	0	65	16559
2026-01-28 08:28:38.51	331.32	5.83	-47.6	-60.2	3.8	1.49e+00	0	43	104	0	65	16601
2026-01-28 08:28:39.52	331.29	5.76	-47.5	-60.2	3.8	1.49e+00	0	43	104	0	65	16564
2026-01-28 08:28:40.53	331.25	5.69	-47.6	-60.2	3.8	1.49e+00	0	43	104	0	65	16562
2026-01-28 08:28:41.53	331.21	5.61	-47.6	-60.2	3.8	1.49e+00	0	43	104	0	65	16601
2026-01-28 08:28:42.54	331.18	5.54	-47.5	-60.2	3.8	1.49e+00	0	43	104	0	65	16561
2026-01-28 08:28:43.55	331.14	5.47	-47.6	-60.2	3.8	1.49e+00	0	43	104	0	65	16608
2026-01-28 08:28:44.56	331.11	5.40	-47.5	-60.2	3.8	1.49e+00	0	43	104	0	65	16570
2026-01-28 08:28:45.57	331.07	5.33	-47.5	-60.2	3.8	1.49e+00	0	43	104	0	65	16601
2026-01-28 08:28:46.58	331.03	5.26	-47.5	-60.2	3.8	1.49e+00	0	43	104	0	65	16526
