passes_logs/2026/01/28/R3.2S_Murmansk/R3.2S_Murmansk__20260128_130251_FENGYUN_3D_rec.log

#Pass ID: 20260128_130251_FENGYUN 3D
#Satellite: FENGYUN 3D
#Configuration: FENGYUN 3D
#almurnet v.1.7.20251203
#Start time: 2026-01-28 13:02:53

#Version: 2.2.20231116
#Station: R3.2S_Murmansk
#Location: 33.079688 lon 68.888172 lat
#TLE: 1 43010U 17072A   26027.90082829  .00000305  00000+0  16579-3 0  9998
#TLE: 2 43010  98.9960 359.9183 0002511  88.1058 272.0405 14.19701796425082

#Time	Az	El	Level	Level2	SNR	BER	BlckErr	Temp	State	Recorded	gain1	gain2
2026-01-28 13:02:53.49	187.67	2.12	-54.0	-66.0	3.8	8.46e-01	0	41	0	0	79	14429
2026-01-28 13:02:54.49	187.72	2.18	-54.3	-66.3	3.8	8.46e-01	0	40	104	0	79	14891
2026-01-28 13:02:55.49	187.76	2.24	-54.3	-66.2	3.8	8.46e-01	0	41	104	0	79	14799
2026-01-28 13:02:56.50	187.81	2.31	-54.2	-66.2	3.8	8.47e-01	0	41	104	0	79	14776
2026-01-28 13:02:57.51	187.85	2.37	-54.2	-66.2	3.8	8.46e-01	0	41	104	0	79	14780
2026-01-28 13:02:58.52	187.90	2.43	-54.2	-66.2	3.8	8.46e-01	0	41	104	0	79	14750
2026-01-28 13:02:59.53	187.94	2.49	-54.2	-66.2	3.8	8.46e-01	0	41	104	0	79	14742
2026-01-28 13:03:00.53	187.99	2.55	-54.2	-66.1	3.8	8.46e-01	0	41	104	0	79	14615
2026-01-28 13:03:01.54	188.04	2.62	-54.1	-66.1	3.8	8.47e-01	0	41	104	0	79	14605
2026-01-28 13:03:02.55	188.08	2.68	-54.1	-66.1	3.8	8.46e-01	0	41	104	0	79	14617
2026-01-28 13:03:03.56	188.13	2.74	-54.1	-66.0	3.8	8.46e-01	0	41	104	0	79	14519
2026-01-28 13:03:04.57	188.18	2.81	-54.0	-66.0	3.8	8.46e-01	0	41	104	0	79	14378
2026-01-28 13:03:05.58	188.23	2.87	-54.0	-65.9	3.8	8.47e-01	0	41	104	0	79	14341
2026-01-28 13:03:06.58	188.27	2.93	-53.9	-65.9	3.8	8.46e-01	0	41	104	0	79	14275
2026-01-28 13:03:07.59	188.32	2.99	-53.9	-65.8	3.8	8.46e-01	0	41	104	0	79	14097
2026-01-28 13:03:08.60	188.37	3.06	-53.8	-65.7	3.8	8.47e-01	0	41	104	0	79	14020
2026-01-28 13:03:09.61	188.42	3.12	-53.7	-65.7	3.8	8.45e-01	0	41	104	0	79	13943
2026-01-28 13:03:10.62	188.46	3.19	-53.6	-65.6	3.8	8.45e-01	0	41	104	0	79	13775
2026-01-28 13:03:11.63	188.51	3.25	-53.5	-65.4	3.8	8.45e-01	0	41	104	0	79	13549
2026-01-28 13:03:12.63	188.56	3.31	-53.4	-65.3	3.8	8.47e-01	0	41	104	0	78	14104
2026-01-28 13:03:13.64	188.61	3.38	-53.2	-65.1	3.8	8.46e-01	0	41	104	0	78	13809
2026-01-28 13:03:14.65	188.66	3.44	-52.8	-64.7	3.8	8.47e-01	0	41	104	0	77	14036
2026-01-28 13:03:15.66	188.71	3.51	-52.4	-64.0	3.8	8.47e-01	0	41	104	0	76	13684
2026-01-28 13:03:16.66	188.76	3.57	-52.4	-63.8	3.8	8.44e-01	0	41	104	0	76	13406
2026-01-28 13:03:17.67	188.81	3.63	-52.4	-63.9	3.8	8.46e-01	0	41	104	0	76	13437
2026-01-28 13:03:18.68	188.86	3.70	-52.4	-64.0	3.8	8.47e-01	0	41	104	0	76	13677
2026-01-28 13:03:19.69	188.91	3.76	-52.4	-64.2	3.8	8.46e-01	0	41	104	0	76	13987
2026-01-28 13:03:20.70	188.96	3.83	-52.4	-64.3	3.8	8.45e-01	0	41	104	0	76	14153
2026-01-28 13:03:21.71	189.01	3.89	-52.4	-64.3	3.8	8.46e-01	0	41	104	0	76	14127
2026-01-28 13:03:22.71	189.06	3.96	-52.4	-64.0	3.8	8.45e-01	0	41	104	0	76	13631
2026-01-28 13:03:23.72	189.11	4.02	-52.3	-63.4	3.8	8.47e-01	0	41	104	0	76	12778
2026-01-28 13:03:24.73	189.16	4.09	-52.2	-62.6	3.8	8.47e-01	0	42	104	0	76	11612
2026-01-28 13:03:25.74	189.21	4.16	-52.2	-62.0	4.0	8.43e-01	0	41	104	0	76	10837
2026-01-28 13:03:26.74	189.26	4.22	-52.2	-61.9	4.0	8.43e-01	0	41	104	0	76	10739
2026-01-28 13:03:27.76	189.32	4.29	-52.2	-62.2	3.9	8.44e-01	0	41	104	0	76	11074
2026-01-28 13:03:28.76	189.37	4.35	-52.3	-62.7	3.8	8.46e-01	0	41	104	0	76	11738
2026-01-28 13:03:29.77	189.42	4.42	-52.3	-63.2	3.8	8.47e-01	0	41	104	0	76	12409
2026-01-28 13:03:30.77	189.47	4.49	-52.2	-62.0	3.9	8.45e-01	0	42	104	0	76	10844
2026-01-28 13:03:31.79	189.52	4.55	-51.8	-59.7	4.6	8.38e-01	0	41	0	0	75	8770
2026-01-28 13:03:32.80	189.58	4.62	-51.0	-56.2	6.8	3.50e-01	0	42	0	3145728	74	6258
2026-01-28 13:03:33.80	189.63	4.69	-50.1	-54.1	8.9	5.29e-02	0	41	0	8388608	72	5469
2026-01-28 13:03:34.81	189.68	4.75	-49.0	-51.9	11.3	4.06e-03	0	41	0	13631488	70	4795
2026-01-28 13:03:35.81	189.74	4.82	-47.9	-50.2	13.0	8.12e-05	0	42	0	19922944	67	4652
2026-01-28 13:03:36.82	189.79	4.89	-46.8	-48.6	14.6	3.40e-06	0	42	0	25165824	65	4362
2026-01-28 13:03:37.82	189.84	4.95	-46.1	-47.8	15.5	0.00e+00	0	42	0	30408704	64	4196
2026-01-28 13:03:38.84	189.90	5.02	-45.7	-47.2	16.1	0.00e+00	0	42	0	36700160	63	4184
2026-01-28 13:03:39.85	189.95	5.09	-46.5	-48.3	15.1	0.00e+00	0	42	0	41943040	63	4709
2026-01-28 13:03:40.85	190.01	5.16	-50.3	-54.5	8.7	6.54e-03	0	42	0	48234496	71	6120
2026-01-28 13:03:41.86	190.06	5.23	-44.9	-46.2	17.2	2.97e-05	0	42	0	53477376	61	4162
2026-01-28 13:03:42.87	190.12	5.29	-51.0	-56.0	7.4	2.66e-02	0	42	0	58720256	72	6813
2026-01-28 13:03:43.88	190.17	5.36	-43.6	-44.7	18.9	1.10e-06	0	42	0	65011712	59	3947
2026-01-28 13:03:44.88	190.23	5.43	-43.7	-44.8	18.8	0.00e+00	0	42	0	70254592	59	3982
2026-01-28 13:03:45.89	190.28	5.50	-43.6	-44.7	18.9	0.00e+00	0	42	0	76546048	59	3952
2026-01-28 13:03:46.90	190.34	5.57	-43.4	-44.5	19.1	0.00e+00	0	42	0	81788928	58	4054
2026-01-28 13:03:47.91	190.40	5.64	-43.3	-44.4	19.2	0.00e+00	0	42	0	88080384	58	4035
2026-01-28 13:03:48.92	190.45	5.71	-43.3	-44.4	19.3	0.00e+00	0	41	0	93323264	58	4011
2026-01-28 13:03:49.92	190.51	5.78	-43.5	-44.6	19.0	0.00e+00	0	42	0	98566144	58	4130
2026-01-28 13:03:50.93	190.57	5.85	-43.5	-44.6	19.0	0.00e+00	0	42	0	104857600	58	4129
2026-01-28 13:03:51.93	190.62	5.91	-43.3	-44.4	19.2	0.00e+00	0	42	0	110100480	58	4018
2026-01-28 13:03:52.94	190.68	5.98	-43.4	-44.5	19.2	0.00e+00	0	42	0	115343360	58	4058
2026-01-28 13:03:53.95	190.74	6.05	-43.4	-44.5	19.2	0.00e+00	0	42	0	121634816	58	4061
2026-01-28 13:03:54.96	190.80	6.12	-43.4	-44.6	19.1	0.00e+00	0	42	0	126877696	58	4101
2026-01-28 13:03:55.97	190.86	6.19	-43.3	-44.4	19.3	0.00e+00	0	42	0	133169152	58	4020
2026-01-28 13:03:56.98	190.92	6.27	-43.3	-44.3	19.4	0.00e+00	0	42	0	138412032	58	3996
2026-01-28 13:03:57.99	190.98	6.34	-43.4	-44.5	19.2	0.00e+00	0	42	0	144703488	58	4082
2026-01-28 13:03:59.00	191.03	6.41	-43.3	-44.4	19.3	0.00e+00	0	42	0	149946368	58	4026
2026-01-28 13:04:00.01	191.09	6.48	-43.1	-44.2	19.6	0.00e+00	0	42	0	156237824	58	3928
2026-01-28 13:04:01.01	191.15	6.55	-43.1	-44.2	19.5	0.00e+00	0	42	0	161480704	58	3927
2026-01-28 13:04:02.02	191.21	6.62	-43.1	-44.2	19.5	0.00e+00	0	42	0	166723584	58	3941
2026-01-28 13:04:03.02	191.27	6.69	-43.1	-44.2	19.5	0.00e+00	0	42	0	173015040	58	3949
2026-01-28 13:04:04.03	191.33	6.76	-43.2	-44.3	19.5	0.00e+00	0	42	0	178257920	58	3960
2026-01-28 13:04:05.04	191.39	6.84	-43.1	-44.2	19.6	0.00e+00	0	42	0	183500800	57	4163
2026-01-28 13:04:06.05	191.46	6.91	-43.1	-44.2	19.6	0.00e+00	0	42	0	189792256	57	4170
2026-01-28 13:04:07.06	191.52	6.98	-43.0	-44.1	19.7	0.00e+00	0	42	0	195035136	57	4119
2026-01-28 13:04:08.07	191.58	7.05	-43.0	-44.1	19.7	0.00e+00	0	42	0	200278016	57	4125
2026-01-28 13:04:09.08	191.64	7.13	-42.9	-43.9	19.8	0.00e+00	0	42	0	206569472	57	4051
2026-01-28 13:04:10.09	191.70	7.20	-42.9	-44.0	19.8	0.00e+00	0	42	0	212860928	57	4056
2026-01-28 13:04:11.10	191.77	7.27	-43.0	-44.0	19.8	0.00e+00	0	42	0	218103808	57	4085
2026-01-28 13:04:12.11	191.83	7.34	-42.7	-43.7	20.1	0.00e+00	0	42	0	223346688	57	3926
2026-01-28 13:04:13.12	191.89	7.42	-42.6	-43.6	20.2	0.00e+00	0	42	0	229638144	57	3878
2026-01-28 13:04:14.13	191.96	7.49	-42.7	-43.7	20.1	0.00e+00	0	42	0	234881024	57	3926
2026-01-28 13:04:15.14	192.02	7.57	-42.6	-43.6	20.2	0.00e+00	0	42	0	241172480	57	3896
2026-01-28 13:04:16.15	192.08	7.64	-42.5	-43.5	20.3	0.00e+00	0	42	0	246415360	57	3847
2026-01-28 13:04:17.16	192.15	7.71	-42.5	-43.5	20.3	0.00e+00	0	42	0	251658240	56	4063
2026-01-28 13:04:18.17	192.21	7.79	-42.4	-43.4	20.4	0.00e+00	0	42	0	257949696	56	4042
2026-01-28 13:04:19.18	192.28	7.86	-42.5	-43.5	20.4	0.00e+00	0	42	0	263192576	56	4054
2026-01-28 13:04:20.19	192.34	7.94	-42.3	-43.3	20.5	0.00e+00	0	42	0	268435456	56	3987
2026-01-28 13:04:21.20	192.41	8.01	-42.4	-43.3	20.5	0.00e+00	0	42	0	274726912	56	3999
2026-01-28 13:04:22.21	192.48	8.09	-42.3	-43.3	20.5	0.00e+00	0	42	0	281018368	56	3979
2026-01-28 13:04:23.21	192.54	8.16	-42.4	-43.4	20.5	0.00e+00	0	42	0	286261248	56	4025
2026-01-28 13:04:24.22	192.61	8.24	-42.4	-43.4	20.5	0.00e+00	0	42	0	291504128	56	4014
2026-01-28 13:04:25.23	192.68	8.31	-42.6	-43.6	20.3	0.00e+00	0	42	0	297795584	56	4131
2026-01-28 13:04:26.24	192.74	8.39	-42.5	-43.5	20.4	0.00e+00	0	42	0	303038464	56	4070
2026-01-28 13:04:27.25	192.81	8.46	-42.2	-43.1	20.7	0.00e+00	0	42	0	308281344	56	3912
2026-01-28 13:04:28.26	192.88	8.54	-42.2	-43.1	20.7	0.00e+00	0	42	0	314572800	56	3912
2026-01-28 13:04:29.27	192.95	8.62	-42.1	-43.0	20.8	0.00e+00	0	42	0	319815680	56	3864
2026-01-28 13:04:30.28	193.02	8.69	-42.2	-43.1	20.7	0.00e+00	0	42	0	326107136	56	3913
2026-01-28 13:04:31.28	193.08	8.77	-42.0	-43.0	20.9	0.00e+00	0	42	0	331350016	56	3840
2026-01-28 13:04:32.29	193.15	8.85	-42.2	-43.2	20.7	0.00e+00	0	42	0	336592896	56	3915
2026-01-28 13:04:33.29	193.22	8.92	-42.1	-43.0	20.9	0.00e+00	0	42	0	342884352	56	3850
2026-01-28 13:04:34.30	193.29	9.00	-42.2	-43.2	20.7	0.00e+00	0	42	0	349175808	56	3918
2026-01-28 13:04:35.31	193.36	9.08	-42.0	-42.9	21.0	0.00e+00	0	42	0	354418688	56	3813
2026-01-28 13:04:36.32	193.43	9.16	-42.2	-43.1	20.8	0.00e+00	0	42	0	359661568	56	3896
2026-01-28 13:04:37.33	193.51	9.24	-42.2	-43.2	20.7	0.00e+00	0	42	0	365953024	56	3928
2026-01-28 13:04:38.34	193.58	9.31	-42.1	-43.0	20.9	0.00e+00	0	42	0	371195904	56	3852
2026-01-28 13:04:39.34	193.65	9.39	-42.2	-43.2	20.8	0.00e+00	0	42	0	376438784	56	3917
2026-01-28 13:04:40.35	193.72	9.47	-42.1	-43.1	20.8	0.00e+00	0	42	0	382730240	56	3882
2026-01-28 13:04:41.35	193.79	9.55	-42.2	-43.1	20.8	0.00e+00	0	42	0	387973120	56	3913
2026-01-28 13:04:42.36	193.87	9.63	-42.1	-43.1	20.8	0.00e+00	0	42	0	393216000	56	3891
2026-01-28 13:04:43.37	193.94	9.71	-42.2	-43.1	20.8	0.00e+00	0	42	0	399507456	56	3899
2026-01-28 13:04:44.37	194.01	9.79	-42.2	-43.1	20.8	0.00e+00	0	42	0	404750336	56	3891
2026-01-28 13:04:45.38	194.09	9.87	-42.1	-43.0	20.9	0.00e+00	0	42	0	411041792	56	3860
2026-01-28 13:04:46.38	194.16	9.95	-42.1	-43.1	20.9	0.00e+00	0	42	0	416284672	56	3875
2026-01-28 13:04:47.39	194.24	10.03	-42.1	-43.1	20.9	0.00e+00	0	42	0	422576128	56	3881
2026-01-28 13:04:48.39	194.31	10.11	-42.1	-43.1	20.9	0.00e+00	0	42	0	427819008	56	3889
2026-01-28 13:04:49.40	194.39	10.19	-42.1	-43.0	20.9	0.00e+00	0	42	0	434110464	56	3859
2026-01-28 13:04:50.41	194.46	10.27	-42.1	-43.1	20.9	0.00e+00	0	42	0	439353344	56	3888
2026-01-28 13:04:51.41	194.54	10.35	-42.0	-42.9	21.0	0.00e+00	0	42	0	444596224	56	3819
2026-01-28 13:04:52.42	194.61	10.43	-41.9	-42.8	21.0	0.00e+00	0	42	0	450887680	55	4004
2026-01-28 13:04:53.43	194.69	10.51	-41.9	-42.9	21.0	0.00e+00	0	42	0	456130560	55	4022
2026-01-28 13:04:54.43	194.77	10.59	-41.9	-42.8	21.1	0.00e+00	0	42	0	461373440	55	3980
2026-01-28 13:04:55.45	194.85	10.67	-41.9	-42.8	21.1	0.00e+00	0	42	0	467664896	55	3985
2026-01-28 13:04:56.45	194.92	10.76	-41.9	-42.8	21.0	0.00e+00	0	42	0	472907776	55	4003
2026-01-28 13:04:57.45	195.00	10.84	-41.9	-42.8	21.1	0.00e+00	0	42	0	478150656	55	3995
2026-01-28 13:04:58.46	195.08	10.92	-41.9	-42.8	21.1	0.00e+00	0	42	0	484442112	55	3989
2026-01-28 13:04:59.47	195.16	11.00	-42.0	-42.9	21.0	0.00e+00	0	42	0	489684992	55	4026
2026-01-28 13:05:00.48	195.24	11.09	-41.9	-42.8	21.1	0.00e+00	0	42	0	495976448	55	3987
2026-01-28 13:05:01.49	195.32	11.17	-41.8	-42.8	21.1	0.00e+00	0	42	0	501219328	55	3973
2026-01-28 13:05:02.49	195.40	11.25	-42.0	-42.9	21.1	0.00e+00	0	42	0	507510784	55	4032
2026-01-28 13:05:03.50	195.48	11.34	-41.8	-42.8	21.2	0.00e+00	0	42	0	512753664	55	3962
2026-01-28 13:05:04.51	195.57	11.42	-41.7	-42.7	21.3	0.00e+00	0	42	0	519045120	55	3924
2026-01-28 13:05:05.51	195.65	11.50	-41.8	-42.7	21.3	0.00e+00	0	42	0	524288000	55	3926
2026-01-28 13:05:06.52	195.73	11.59	-41.8	-42.8	21.2	0.00e+00	0	42	0	529530880	55	3970
2026-01-28 13:05:07.52	195.81	11.67	-41.8	-42.8	21.2	0.00e+00	0	42	0	535822336	55	3965
2026-01-28 13:05:08.53	195.90	11.76	-41.8	-42.7	21.2	0.00e+00	0	42	0	541065216	55	3955
2026-01-28 13:05:09.54	195.98	11.84	-41.8	-42.7	21.2	0.00e+00	0	42	0	546308096	55	3941
2026-01-28 13:05:10.55	196.07	11.93	-41.8	-42.8	21.2	0.00e+00	0	42	0	552599552	55	3969
2026-01-28 13:05:11.56	196.15	12.02	-41.7	-42.6	21.3	0.00e+00	0	42	0	557842432	55	3892
2026-01-28 13:05:12.57	196.24	12.10	-41.6	-42.5	21.5	0.00e+00	0	42	0	563085312	55	3855
2026-01-28 13:05:13.57	196.32	12.19	-41.7	-42.6	21.4	0.00e+00	0	42	0	569376768	55	3873
2026-01-28 13:05:14.58	196.41	12.27	-41.7	-42.6	21.3	0.00e+00	0	42	0	574619648	55	3907
2026-01-28 13:05:15.58	196.50	12.36	-41.6	-42.5	21.5	0.00e+00	0	42	0	580911104	55	3839
2026-01-28 13:05:16.59	196.58	12.45	-41.4	-42.3	21.6	0.00e+00	0	42	0	586153984	54	4000
2026-01-28 13:05:17.60	196.67	12.53	-41.5	-42.4	21.6	0.00e+00	0	42	0	592445440	54	4017
2026-01-28 13:05:18.61	196.76	12.62	-41.5	-42.4	21.6	0.00e+00	0	42	0	597688320	54	4031
2026-01-28 13:05:19.61	196.85	12.71	-41.4	-42.3	21.6	0.00e+00	0	42	0	603979776	54	3984
2026-01-28 13:05:20.62	196.94	12.80	-41.4	-42.3	21.7	0.00e+00	0	42	0	609222656	54	3967
2026-01-28 13:05:21.63	197.03	12.89	-41.3	-42.2	21.8	0.00e+00	0	43	0	614465536	54	3938
2026-01-28 13:05:22.64	197.12	12.97	-41.3	-42.2	21.8	0.00e+00	0	42	0	620756992	54	3917
2026-01-28 13:05:23.64	197.21	13.06	-41.3	-42.2	21.8	0.00e+00	0	42	0	625999872	54	3915
2026-01-28 13:05:24.65	197.30	13.15	-41.1	-42.0	22.0	0.00e+00	0	42	0	631242752	54	3826
2026-01-28 13:05:25.66	197.39	13.24	-41.2	-42.1	21.8	0.00e+00	0	42	0	637534208	54	3901
2026-01-28 13:05:26.67	197.49	13.33	-41.2	-42.1	21.9	0.00e+00	0	42	0	642777088	54	3870
2026-01-28 13:05:27.68	197.58	13.42	-41.0	-41.9	22.1	0.00e+00	0	42	0	648019968	54	3796
2026-01-28 13:05:28.69	197.67	13.51	-41.1	-42.0	22.0	0.00e+00	0	42	0	654311424	54	3831
2026-01-28 13:05:29.70	197.77	13.60	-41.1	-41.9	22.0	0.00e+00	0	42	0	660602880	54	3810
2026-01-28 13:05:30.71	197.86	13.69	-41.1	-42.0	22.0	0.00e+00	0	42	0	665845760	54	3844
2026-01-28 13:05:31.72	197.96	13.78	-41.1	-41.9	22.0	0.00e+00	0	42	0	671088640	54	3823
2026-01-28 13:05:32.72	198.05	13.87	-41.1	-41.9	22.0	0.00e+00	0	42	0	677380096	54	3818
2026-01-28 13:05:33.73	198.15	13.97	-41.1	-42.0	22.0	0.00e+00	0	42	0	682622976	54	3853
2026-01-28 13:05:34.74	198.25	14.06	-41.1	-42.0	22.0	0.00e+00	0	42	0	688914432	54	3827
2026-01-28 13:05:35.75	198.34	14.15	-41.0	-41.9	22.1	0.00e+00	0	43	0	694157312	54	3793
2026-01-28 13:05:36.76	198.44	14.24	-41.0	-41.9	22.1	0.00e+00	0	42	0	699400192	54	3797
2026-01-28 13:05:37.77	198.54	14.33	-41.1	-42.0	22.0	0.00e+00	0	43	0	705691648	54	3842
2026-01-28 13:05:38.78	198.64	14.43	-41.0	-41.9	22.1	0.00e+00	0	42	0	710934528	54	3799
2026-01-28 13:05:39.79	198.74	14.52	-40.9	-41.7	22.2	0.00e+00	0	42	0	716177408	53	3956
2026-01-28 13:05:40.79	198.84	14.61	-40.8	-41.6	22.3	0.00e+00	0	42	0	722468864	53	3907
2026-01-28 13:05:41.80	198.94	14.71	-40.8	-41.6	22.4	0.00e+00	0	42	0	728760320	53	3890
2026-01-28 13:05:42.81	199.04	14.80	-40.8	-41.7	22.3	0.00e+00	0	42	0	734003200	53	3922
2026-01-28 13:05:43.83	199.15	14.90	-40.9	-41.8	22.2	0.00e+00	0	42	0	739246080	53	3961
2026-01-28 13:05:44.83	199.25	14.99	-40.7	-41.6	22.4	0.00e+00	0	42	0	745537536	53	3880
2026-01-28 13:05:45.84	199.35	15.09	-40.7	-41.6	22.4	0.00e+00	0	42	0	750780416	53	3885
2026-01-28 13:05:46.85	199.46	15.18	-40.8	-41.6	22.3	0.00e+00	0	43	0	756023296	53	3895
2026-01-28 13:05:47.86	199.56	15.28	-40.8	-41.6	22.3	0.00e+00	0	42	0	762314752	53	3904
2026-01-28 13:05:48.87	199.67	15.37	-40.8	-41.7	22.3	0.00e+00	0	42	0	767557632	53	3935
2026-01-28 13:05:49.87	199.77	15.47	-40.7	-41.6	22.4	0.00e+00	0	42	0	773849088	53	3882
2026-01-28 13:05:50.89	199.88	15.56	-40.8	-41.7	22.3	0.00e+00	0	42	0	779091968	53	3924
2026-01-28 13:05:51.90	199.99	15.66	-41.0	-41.8	22.2	0.00e+00	0	42	0	785383424	53	3996
2026-01-28 13:05:52.91	200.10	15.76	-40.7	-41.5	22.5	0.00e+00	0	43	0	790626304	53	3848
2026-01-28 13:05:53.91	200.21	15.85	-40.6	-41.4	22.6	0.00e+00	0	42	0	796917760	53	3803
2026-01-28 13:05:54.92	200.32	15.95	-40.5	-41.3	22.6	0.00e+00	0	42	0	802160640	53	3773
2026-01-28 13:05:55.93	200.43	16.05	-40.3	-41.2	22.8	0.00e+00	0	42	0	807403520	52	3924
2026-01-28 13:05:56.93	200.54	16.15	-40.5	-41.3	22.7	0.00e+00	0	42	0	813694976	53	3752
2026-01-28 13:05:57.95	200.65	16.25	-40.4	-41.2	23.0	0.00e+00	0	42	0	818937856	52	3918
2026-01-28 13:05:58.95	200.76	16.34	-40.2	-41.0	23.1	0.00e+00	0	42	0	824180736	52	3842
2026-01-28 13:05:59.95	200.87	16.44	-40.1	-40.9	23.1	0.00e+00	0	42	0	830472192	52	3813
2026-01-28 13:06:00.96	200.99	16.54	-40.1	-40.9	23.1	0.00e+00	0	42	0	835715072	52	3809
2026-01-28 13:06:01.97	201.10	16.64	-40.3	-41.0	23.0	0.00e+00	0	42	0	840957952	52	3861
2026-01-28 13:06:02.98	201.22	16.74	-40.1	-40.8	23.2	0.00e+00	0	42	0	847249408	52	3779
2026-01-28 13:06:03.99	201.33	16.84	-40.0	-40.8	23.3	0.00e+00	0	42	0	852492288	52	3749
2026-01-28 13:06:05.00	201.45	16.94	-40.1	-40.8	23.3	0.00e+00	0	42	0	858783744	51	3987
2026-01-28 13:06:06.01	201.57	17.04	-40.0	-40.8	23.3	0.00e+00	0	42	0	864026624	51	3983
2026-01-28 13:06:07.01	201.68	17.14	-40.0	-40.7	23.4	0.00e+00	0	43	0	870318080	51	3955
2026-01-28 13:06:08.02	201.80	17.25	-40.0	-40.7	23.4	0.00e+00	0	42	0	875560960	51	3953
2026-01-28 13:06:09.03	201.92	17.35	-39.9	-40.7	23.5	0.00e+00	0	43	0	881852416	51	3923
2026-01-28 13:06:10.03	202.04	17.45	-39.9	-40.6	23.5	0.00e+00	0	42	0	887095296	51	3900
2026-01-28 13:06:11.04	202.16	17.55	-40.0	-40.7	23.5	0.00e+00	0	42	0	892338176	51	3940
2026-01-28 13:06:12.05	202.29	17.65	-40.0	-40.7	23.4	0.00e+00	0	42	0	898629632	51	3947
2026-01-28 13:06:13.05	202.41	17.76	-39.8	-40.6	23.6	0.00e+00	0	42	0	903872512	51	3882
2026-01-28 13:06:14.06	202.53	17.86	-39.9	-40.7	23.5	0.00e+00	0	42	0	909115392	51	3931
2026-01-28 13:06:15.07	202.66	17.96	-39.9	-40.7	23.5	0.00e+00	0	42	0	915406848	51	3931
2026-01-28 13:06:16.08	202.78	18.07	-39.9	-40.7	23.6	0.00e+00	0	42	0	920649728	51	3920
2026-01-28 13:06:17.08	202.91	18.17	-40.0	-40.7	23.5	0.00e+00	0	42	0	925892608	51	3954
2026-01-28 13:06:18.09	203.03	18.27	-40.0	-40.8	23.4	0.00e+00	0	42	0	932184064	51	3978
2026-01-28 13:06:19.10	203.16	18.38	-40.1	-40.9	23.4	0.00e+00	0	42	0	938475520	51	4025
2026-01-28 13:06:20.11	203.29	18.48	-40.2	-41.0	23.2	0.00e+00	0	43	0	943718400	51	4083
2026-01-28 13:06:21.11	203.42	18.59	-40.2	-41.0	23.3	0.00e+00	0	43	0	948961280	51	4059
2026-01-28 13:06:22.13	203.55	18.70	-40.3	-41.1	23.2	0.00e+00	0	42	0	955252736	51	4101
2026-01-28 13:06:23.13	203.68	18.80	-40.2	-41.0	23.2	0.00e+00	0	42	0	960495616	51	4082
2026-01-28 13:06:24.14	203.82	18.91	-40.0	-40.8	23.4	0.00e+00	0	42	0	966787072	51	3978
2026-01-28 13:06:25.14	203.95	19.01	-39.9	-40.7	23.5	0.00e+00	0	42	0	972029952	51	3946
2026-01-28 13:06:26.15	204.08	19.12	-39.8	-40.6	23.6	0.00e+00	0	42	0	977272832	51	3896
2026-01-28 13:06:27.16	204.22	19.23	-39.8	-40.6	23.6	0.00e+00	0	42	0	983564288	51	3892
2026-01-28 13:06:28.17	204.35	19.33	-39.7	-40.4	23.8	0.00e+00	0	42	0	988807168	51	3812
2026-01-28 13:06:29.18	204.49	19.44	-39.7	-40.5	23.8	0.00e+00	0	42	0	994050048	51	3827
2026-01-28 13:06:30.18	204.63	19.55	-39.5	-40.3	23.9	0.00e+00	0	42	0	1000341504	51	3749
2026-01-28 13:06:31.19	204.76	19.66	-39.3	-40.1	24.1	0.00e+00	0	42	0	1006632960	50	3883
2026-01-28 13:06:32.20	204.90	19.77	-39.3	-40.0	24.2	0.00e+00	0	42	0	1011875840	50	3856
2026-01-28 13:06:33.21	205.05	19.88	-39.3	-40.1	24.1	0.00e+00	0	42	0	1017118720	50	3869
2026-01-28 13:06:34.22	205.19	19.99	-39.3	-40.1	24.1	0.00e+00	0	42	0	1023410176	50	3880
2026-01-28 13:06:35.22	205.33	20.10	-39.1	-39.9	24.3	0.00e+00	0	42	0	1028653056	50	3786
2026-01-28 13:06:36.23	205.47	20.21	-39.1	-39.8	24.4	0.00e+00	0	42	0	1033895936	50	3769
2026-01-28 13:06:37.24	205.62	20.32	-39.2	-39.9	24.3	0.00e+00	0	42	0	1040187392	50	3804
2026-01-28 13:06:38.25	205.76	20.43	-39.3	-40.0	24.2	0.00e+00	0	43	0	1045430272	50	3864
2026-01-28 13:06:39.26	205.91	20.54	-39.3	-40.1	24.1	0.00e+00	0	43	0	1051721728	50	3872
2026-01-28 13:06:40.27	206.06	20.65	-39.5	-40.2	24.0	0.00e+00	0	42	0	1056964608	50	3943
2026-01-28 13:06:41.28	206.21	20.76	-39.5	-40.3	24.0	0.00e+00	0	42	0	1062207488	50	3959
2026-01-28 13:06:42.28	206.35	20.87	-39.6	-40.3	23.9	0.00e+00	0	43	0	1068498944	50	3997
2026-01-28 13:06:43.29	206.51	20.98	-39.5	-40.3	23.9	0.00e+00	0	42	0	1074790400	50	3978
2026-01-28 13:06:44.30	206.66	21.10	-39.6	-40.4	23.9	0.00e+00	0	43	0	1080033280	50	4006
2026-01-28 13:06:45.31	206.81	21.21	-39.5	-40.3	24.0	0.00e+00	0	42	0	1085276160	50	3960
2026-01-28 13:06:46.31	206.96	21.32	-39.5	-40.3	24.0	0.00e+00	0	42	0	1091567616	50	3978
2026-01-28 13:06:47.32	207.12	21.44	-39.5	-40.3	24.0	0.00e+00	0	42	0	1096810496	50	3959
2026-01-28 13:06:48.33	207.27	21.55	-39.6	-40.3	23.9	0.00e+00	0	42	0	1102053376	50	3985
2026-01-28 13:06:49.34	207.43	21.66	-39.6	-40.4	23.9	0.00e+00	0	42	0	1108344832	50	4012
2026-01-28 13:06:50.35	207.59	21.78	-39.3	-40.1	24.2	0.00e+00	0	42	0	1113587712	50	3876
2026-01-28 13:06:51.35	207.75	21.89	-39.3	-40.0	24.2	0.00e+00	0	42	0	1118830592	50	3861
2026-01-28 13:06:52.36	207.91	22.01	-39.4	-40.2	24.1	0.00e+00	0	42	0	1125122048	50	3914
2026-01-28 13:06:53.37	208.07	22.12	-39.3	-40.1	24.2	0.00e+00	0	42	0	1130364928	50	3870
2026-01-28 13:06:54.38	208.24	22.24	-39.1	-39.9	24.3	0.00e+00	0	42	0	1136656384	50	3795
2026-01-28 13:06:55.39	208.40	22.35	-39.2	-39.9	24.3	0.00e+00	0	42	0	1141899264	50	3805
2026-01-28 13:06:56.40	208.57	22.47	-39.0	-39.8	24.4	0.00e+00	0	43	0	1148190720	50	3748
2026-01-28 13:06:57.41	208.73	22.59	-39.1	-39.8	24.4	0.00e+00	0	42	0	1153433600	50	3764
2026-01-28 13:06:58.41	208.90	22.70	-39.0	-39.8	24.5	0.00e+00	0	42	0	1159725056	50	3741
2026-01-28 13:06:59.42	209.07	22.82	-38.9	-39.6	24.6	0.00e+00	0	42	0	1164967936	49	3886
2026-01-28 13:07:00.43	209.24	22.94	-38.9	-39.7	24.5	0.00e+00	0	42	0	1170210816	49	3917
2026-01-28 13:07:01.43	209.41	23.05	-39.0	-39.7	24.4	0.00e+00	0	42	0	1176502272	49	3954
2026-01-28 13:07:02.44	209.58	23.17	-38.8	-39.6	24.6	0.00e+00	0	42	0	1181745152	49	3874
2026-01-28 13:07:03.45	209.76	23.29	-38.8	-39.6	24.6	0.00e+00	0	42	0	1186988032	49	3875
2026-01-28 13:07:04.46	209.93	23.41	-38.9	-39.6	24.6	0.00e+00	0	42	0	1193279488	49	3892
2026-01-28 13:07:05.47	210.11	23.53	-38.8	-39.5	24.6	0.00e+00	0	43	0	1198522368	49	3868
2026-01-28 13:07:06.48	210.29	23.65	-38.9	-39.6	24.6	0.00e+00	0	43	0	1203765248	49	3883
2026-01-28 13:07:07.49	210.47	23.77	-38.9	-39.6	24.6	0.00e+00	0	42	0	1210056704	49	3903
2026-01-28 13:07:08.50	210.65	23.89	-38.9	-39.7	24.5	0.00e+00	0	42	0	1216348160	49	3923
2026-01-28 13:07:09.51	210.83	24.01	-38.9	-39.7	24.6	0.00e+00	0	42	0	1221591040	49	3922
2026-01-28 13:07:10.52	211.01	24.13	-38.9	-39.6	24.6	0.00e+00	0	42	0	1226833920	49	3910
2026-01-28 13:07:11.53	211.20	24.25	-38.8	-39.5	24.7	0.00e+00	0	42	0	1233125376	49	3855
2026-01-28 13:07:12.53	211.38	24.37	-38.8	-39.5	24.7	0.00e+00	0	43	0	1238368256	49	3865
2026-01-28 13:07:13.54	211.57	24.49	-38.9	-39.6	24.6	0.00e+00	0	42	0	1244659712	49	3885
2026-01-28 13:07:14.55	211.76	24.61	-38.9	-39.6	24.6	0.00e+00	0	42	0	1249902592	49	3913
2026-01-28 13:07:15.56	211.95	24.73	-38.9	-39.7	24.6	0.00e+00	0	43	0	1255145472	49	3923
2026-01-28 13:07:16.57	212.14	24.85	-39.0	-39.7	24.5	0.00e+00	0	42	0	1261436928	49	3941
2026-01-28 13:07:17.57	212.33	24.97	-38.8	-39.6	24.7	0.00e+00	0	42	0	1266679808	49	3879
2026-01-28 13:07:18.58	212.53	25.09	-38.7	-39.4	24.8	0.00e+00	0	42	0	1271922688	49	3802
2026-01-28 13:07:19.59	212.72	25.22	-38.7	-39.4	24.7	0.00e+00	0	42	0	1278214144	49	3820
2026-01-28 13:07:20.59	212.92	25.34	-38.7	-39.4	24.8	0.00e+00	0	43	0	1284505600	49	3816
2026-01-28 13:07:21.60	213.12	25.46	-38.9	-39.6	24.6	0.00e+00	0	43	0	1289748480	49	3885
2026-01-28 13:07:22.61	213.32	25.58	-38.7	-39.4	24.8	0.00e+00	0	42	0	1294991360	49	3823
2026-01-28 13:07:23.62	213.52	25.71	-38.7	-39.4	24.8	0.00e+00	0	43	0	1301282816	49	3817
2026-01-28 13:07:24.63	213.73	25.83	-38.7	-39.5	24.8	0.00e+00	0	42	0	1306525696	49	3827
2026-01-28 13:07:25.64	213.93	25.95	-38.6	-39.3	24.9	0.00e+00	0	43	0	1311768576	49	3749
2026-01-28 13:07:26.65	214.14	26.08	-38.6	-39.4	24.9	0.00e+00	0	43	0	1318060032	49	3784
2026-01-28 13:07:27.66	214.35	26.20	-38.8	-39.5	24.7	0.00e+00	0	42	0	1323302912	49	3836
2026-01-28 13:07:28.67	214.56	26.32	-38.5	-39.2	25.0	0.00e+00	0	43	0	1329594368	49	3700
2026-01-28 13:07:29.67	214.77	26.45	-38.4	-39.1	25.1	0.00e+00	0	43	0	1334837248	48	3881
2026-01-28 13:07:30.68	214.98	26.57	-38.4	-39.1	25.0	0.00e+00	0	42	0	1340080128	48	3913
2026-01-28 13:07:31.69	215.19	26.70	-38.4	-39.1	25.1	0.00e+00	0	43	0	1346371584	48	3876
2026-01-28 13:07:32.70	215.41	26.82	-38.4	-39.1	25.0	0.00e+00	0	43	0	1352663040	48	3911
2026-01-28 13:07:33.71	215.63	26.95	-38.4	-39.1	25.1	0.00e+00	0	42	0	1357905920	48	3900
2026-01-28 13:07:34.72	215.85	27.07	-38.6	-39.3	24.9	0.00e+00	0	43	0	1363148800	48	3999
2026-01-28 13:07:35.73	216.07	27.20	-38.4	-39.1	25.1	0.00e+00	0	43	0	1369440256	48	3899
2026-01-28 13:07:36.74	216.29	27.32	-38.4	-39.1	25.0	0.00e+00	0	43	0	1374683136	48	3907
2026-01-28 13:07:37.75	216.52	27.45	-38.4	-39.1	25.1	0.00e+00	0	42	0	1379926016	48	3885
2026-01-28 13:07:38.76	216.75	27.57	-38.4	-39.1	25.1	0.00e+00	0	43	0	1386217472	48	3904
2026-01-28 13:07:39.76	216.97	27.70	-38.4	-39.1	25.1	0.00e+00	0	43	0	1391460352	48	3873
2026-01-28 13:07:40.77	217.20	27.82	-38.3	-39.0	25.2	0.00e+00	0	42	0	1396703232	48	3825
2026-01-28 13:07:41.77	217.43	27.95	-38.2	-38.9	25.2	0.00e+00	0	43	0	1402994688	48	3822
2026-01-28 13:07:42.78	217.67	28.07	-38.3	-39.0	25.1	0.00e+00	0	42	0	1408237568	48	3860
2026-01-28 13:07:43.79	217.90	28.20	-38.3	-39.0	25.2	0.00e+00	0	43	0	1414529024	48	3851
2026-01-28 13:07:44.80	218.14	28.32	-38.3	-39.0	25.2	0.00e+00	0	43	0	1419771904	48	3855
2026-01-28 13:07:45.81	218.38	28.45	-38.3	-39.0	25.2	0.00e+00	0	43	0	1426063360	48	3830
2026-01-28 13:07:46.82	218.62	28.58	-38.2	-38.9	25.3	0.00e+00	0	42	0	1431306240	48	3798
2026-01-28 13:07:47.83	218.86	28.70	-38.3	-39.0	25.2	0.00e+00	0	42	0	1437597696	48	3832
2026-01-28 13:07:48.84	219.11	28.83	-38.3	-39.0	25.2	0.00e+00	0	42	0	1442840576	48	3837
2026-01-28 13:07:49.85	219.35	28.95	-38.2	-38.9	25.3	0.00e+00	0	42	0	1448083456	48	3788
2026-01-28 13:07:50.85	219.60	29.08	-38.2	-39.0	25.2	0.00e+00	0	43	0	1454374912	48	3829
2026-01-28 13:07:51.86	219.85	29.20	-38.3	-39.0	25.2	0.00e+00	0	42	0	1459617792	48	3857
2026-01-28 13:07:52.87	220.10	29.33	-38.2	-38.9	25.3	0.00e+00	0	42	0	1464860672	48	3783
2026-01-28 13:07:53.87	220.36	29.45	-38.2	-38.9	25.3	0.00e+00	0	42	0	1471152128	48	3803
2026-01-28 13:07:54.88	220.61	29.58	-38.2	-38.9	25.3	0.00e+00	0	42	0	1476395008	48	3803
2026-01-28 13:07:55.89	220.87	29.71	-38.1	-38.8	25.3	0.00e+00	0	42	0	1482686464	48	3773
2026-01-28 13:07:56.90	221.13	29.83	-38.1	-38.8	25.3	0.00e+00	0	42	0	1487929344	48	3774
2026-01-28 13:07:57.91	221.39	29.96	-38.1	-38.8	25.4	0.00e+00	0	42	0	1494220800	48	3762
2026-01-28 13:07:58.92	221.66	30.08	-38.1	-38.8	25.3	0.00e+00	0	43	0	1499463680	48	3778
2026-01-28 13:07:59.93	221.92	30.21	-38.0	-38.7	25.4	0.00e+00	0	42	0	1504706560	48	3734
2026-01-28 13:08:00.94	222.19	30.33	-38.0	-38.7	25.5	0.00e+00	0	43	0	1510998016	48	3714
2026-01-28 13:08:01.95	222.46	30.46	-38.1	-38.7	25.4	0.00e+00	0	42	0	1516240896	48	3733
2026-01-28 13:08:02.96	222.73	30.59	-38.2	-38.9	25.3	0.00e+00	0	42	0	1522532352	48	3785
2026-01-28 13:08:03.96	223.01	30.71	-38.2	-38.9	25.3	0.00e+00	0	42	0	1527775232	48	3818
2026-01-28 13:08:04.97	223.28	30.83	-38.2	-38.9	25.3	0.00e+00	0	43	0	1533018112	48	3820
2026-01-28 13:08:05.98	223.56	30.96	-38.2	-38.9	25.3	0.00e+00	0	42	0	1539309568	48	3824
2026-01-28 13:08:06.99	223.84	31.08	-38.2	-38.9	25.3	0.00e+00	0	43	0	1545601024	48	3807
2026-01-28 13:08:07.99	224.12	31.21	-38.2	-38.8	25.3	0.00e+00	0	43	0	1550843904	48	3780
2026-01-28 13:08:09.00	224.41	31.33	-37.7	-38.4	25.3	0.00e+00	0	43	0	1556086784	47	3797
2026-01-28 13:08:10.01	224.69	31.45	-37.5	-38.2	25.4	0.00e+00	0	42	0	1562378240	47	3719
2026-01-28 13:08:11.02	224.98	31.58	-37.6	-38.3	25.4	0.00e+00	0	42	0	1567621120	47	3754
2026-01-28 13:08:12.03	225.28	31.70	-37.7	-38.4	25.3	0.00e+00	0	42	0	1572864000	47	3782
2026-01-28 13:08:13.04	225.57	31.82	-37.7	-38.4	25.2	0.00e+00	0	43	0	1579155456	47	3818
2026-01-28 13:08:14.05	225.86	31.95	-37.7	-38.5	25.2	0.00e+00	0	42	0	1584398336	47	3825
2026-01-28 13:08:15.06	226.16	32.07	-37.7	-38.4	25.2	0.00e+00	0	42	0	1589641216	47	3814
2026-01-28 13:08:16.07	226.46	32.19	-37.6	-38.3	25.3	0.00e+00	0	43	0	1595932672	47	3770
2026-01-28 13:08:17.08	226.77	32.31	-37.4	-38.1	25.5	0.00e+00	0	43	0	1601175552	46	3904
2026-01-28 13:08:18.09	227.07	32.43	-37.5	-38.2	25.5	0.00e+00	0	43	0	1607467008	46	3930
2026-01-28 13:08:19.10	227.38	32.55	-37.6	-38.3	25.3	0.00e+00	0	43	0	1612709888	46	3984
2026-01-28 13:08:20.11	227.69	32.67	-37.7	-38.4	25.3	0.00e+00	0	43	0	1619001344	46	4024
2026-01-28 13:08:21.12	228.00	32.79	-37.8	-38.5	25.2	0.00e+00	0	42	0	1624244224	46	4088
2026-01-28 13:08:22.13	228.31	32.91	-37.8	-38.6	25.1	0.00e+00	0	42	0	1630535680	46	4110
2026-01-28 13:08:23.13	228.62	33.03	-38.0	-38.7	25.0	0.00e+00	0	42	0	1635778560	46	4170
2026-01-28 13:08:24.14	228.94	33.15	-38.0	-38.7	25.0	0.00e+00	0	43	0	1641021440	46	4160
2026-01-28 13:08:25.15	229.26	33.27	-37.9	-38.6	25.1	0.00e+00	0	43	0	1647312896	46	4110
2026-01-28 13:08:26.16	229.59	33.39	-37.8	-38.5	25.1	0.00e+00	0	43	0	1652555776	46	4091
2026-01-28 13:08:27.17	229.91	33.50	-37.8	-38.5	25.2	0.00e+00	0	42	0	1657798656	46	4091
2026-01-28 13:08:28.18	230.24	33.62	-37.8	-38.5	25.2	0.00e+00	0	43	0	1664090112	46	4089
2026-01-28 13:08:29.19	230.57	33.73	-37.7	-38.4	25.3	0.00e+00	0	42	0	1669332992	46	4016
2026-01-28 13:08:30.20	230.90	33.85	-37.7	-38.4	25.3	0.00e+00	0	43	0	1675624448	46	4043
2026-01-28 13:08:31.21	231.23	33.96	-37.8	-38.5	25.2	0.00e+00	0	43	0	1680867328	46	4087
2026-01-28 13:08:32.21	231.57	34.08	-37.8	-38.5	25.2	0.00e+00	0	42	0	1687158784	46	4076
2026-01-28 13:08:33.23	231.91	34.19	-37.8	-38.5	25.2	0.00e+00	0	43	0	1692401664	46	4085
2026-01-28 13:08:34.23	232.25	34.30	-37.9	-38.6	25.1	0.00e+00	0	43	0	1697644544	46	4114
2026-01-28 13:08:35.24	232.59	34.42	-37.7	-38.4	25.3	0.00e+00	0	42	0	1703936000	46	4007
2026-01-28 13:08:36.25	232.94	34.53	-37.7	-38.4	25.3	0.00e+00	0	43	0	1709178880	46	4030
2026-01-28 13:08:37.26	233.29	34.64	-37.7	-38.4	25.3	0.00e+00	0	42	0	1715470336	46	4035
2026-01-28 13:08:38.26	233.63	34.75	-37.6	-38.3	25.4	0.00e+00	0	42	0	1720713216	46	3984
2026-01-28 13:08:39.27	233.98	34.85	-37.7	-38.4	25.3	0.00e+00	0	43	0	1725956096	46	4018
2026-01-28 13:08:40.28	234.34	34.96	-37.7	-38.4	25.2	0.00e+00	0	42	0	1732247552	46	4047
2026-01-28 13:08:41.29	234.70	35.07	-37.8	-38.6	25.1	0.00e+00	0	43	0	1738539008	46	4101
2026-01-28 13:08:42.30	235.06	35.18	-37.7	-38.5	25.2	0.00e+00	0	42	0	1743781888	46	4059
2026-01-28 13:08:43.31	235.42	35.28	-37.8	-38.5	25.2	0.00e+00	0	43	0	1749024768	46	4094
2026-01-28 13:08:44.31	235.78	35.38	-37.8	-38.5	25.2	0.00e+00	0	43	0	1755316224	46	4079
2026-01-28 13:08:45.32	236.15	35.49	-37.7	-38.4	25.3	0.00e+00	0	42	0	1760559104	46	4051
2026-01-28 13:08:46.33	236.52	35.59	-37.8	-38.5	25.2	0.00e+00	0	42	0	1765801984	46	4070
2026-01-28 13:08:47.34	236.89	35.69	-37.8	-38.5	25.2	0.00e+00	0	42	0	1772093440	46	4082
2026-01-28 13:08:48.35	237.26	35.79	-37.9	-38.7	25.1	0.00e+00	0	43	0	1777336320	46	4151
2026-01-28 13:08:49.35	237.63	35.89	-37.8	-38.5	25.2	0.00e+00	0	43	0	1782579200	46	4094
2026-01-28 13:08:50.36	238.01	35.99	-37.6	-38.4	25.3	0.00e+00	0	42	0	1788870656	46	4017
2026-01-28 13:08:51.37	238.39	36.09	-37.7	-38.4	25.3	0.00e+00	0	42	0	1794113536	46	4019
2026-01-28 13:08:52.38	238.77	36.18	-37.6	-38.3	25.4	0.00e+00	0	42	0	1800404992	46	3981
2026-01-28 13:08:53.39	239.16	36.28	-37.5	-38.2	25.5	0.00e+00	0	43	0	1805647872	46	3946
2026-01-28 13:08:54.40	239.54	36.37	-37.6	-38.3	25.4	0.00e+00	0	43	0	1811939328	46	3969
2026-01-28 13:08:55.40	239.93	36.47	-37.6	-38.4	25.4	0.00e+00	0	42	0	1817182208	46	4006
2026-01-28 13:08:56.41	240.32	36.56	-37.6	-38.3	25.4	0.00e+00	0	42	0	1823473664	46	3992
2026-01-28 13:08:57.42	240.71	36.65	-37.6	-38.3	25.4	0.00e+00	0	42	0	1828716544	46	3997
2026-01-28 13:08:58.43	241.11	36.74	-37.7	-38.4	25.3	0.00e+00	0	42	0	1833959424	46	4015
2026-01-28 13:08:59.44	241.51	36.83	-37.5	-38.2	25.5	0.00e+00	0	42	0	1840250880	46	3930
2026-01-28 13:09:00.45	241.90	36.91	-37.5	-38.3	25.5	0.00e+00	0	43	0	1845493760	46	3959
2026-01-28 13:09:01.46	242.31	37.00	-37.4	-38.1	25.6	0.00e+00	0	43	0	1850736640	46	3903
2026-01-28 13:09:02.47	242.71	37.08	-37.3	-38.0	25.7	0.00e+00	0	42	0	1857028096	46	3864
2026-01-28 13:09:03.47	243.11	37.16	-37.4	-38.1	25.6	0.00e+00	0	43	0	1862270976	46	3908
2026-01-28 13:09:04.48	243.52	37.24	-37.5	-38.2	25.5	0.00e+00	0	43	0	1867513856	46	3948
2026-01-28 13:09:05.49	243.93	37.32	-37.5	-38.2	25.5	0.00e+00	0	42	0	1873805312	46	3916
2026-01-28 13:09:06.49	244.34	37.40	-37.6	-38.3	25.4	0.00e+00	0	42	0	1880096768	46	3973
2026-01-28 13:09:07.51	244.75	37.48	-37.3	-38.0	25.7	0.00e+00	0	43	0	1885339648	46	3857
2026-01-28 13:09:08.51	245.17	37.56	-37.6	-38.3	25.5	0.00e+00	0	42	0	1890582528	46	3960
2026-01-28 13:09:09.52	245.58	37.63	-37.7	-38.4	25.3	0.00e+00	0	43	0	1896873984	46	4050
2026-01-28 13:09:10.53	246.00	37.70	-37.5	-38.3	25.4	0.00e+00	0	42	0	1902116864	46	3969
2026-01-28 13:09:11.53	246.42	37.77	-37.4	-38.1	25.6	0.00e+00	0	42	0	1908408320	46	3889
2026-01-28 13:09:12.54	246.84	37.84	-37.4	-38.1	25.6	0.00e+00	0	43	0	1913651200	46	3883
2026-01-28 13:09:13.55	247.27	37.91	-37.5	-38.1	25.6	0.00e+00	0	43	0	1918894080	46	3909
2026-01-28 13:09:14.56	247.69	37.98	-37.5	-38.2	25.5	0.00e+00	0	43	0	1925185536	46	3939
2026-01-28 13:09:15.57	248.12	38.04	-37.7	-38.5	25.3	0.00e+00	0	43	0	1930428416	46	4055
2026-01-28 13:09:16.58	248.55	38.10	-37.6	-38.3	25.5	0.00e+00	0	42	0	1935671296	46	3961
2026-01-28 13:09:17.59	248.98	38.17	-37.4	-38.1	25.6	0.00e+00	0	42	0	1941962752	46	3884
2026-01-28 13:09:18.60	249.41	38.22	-37.4	-38.2	25.6	0.00e+00	0	42	0	1948254208	46	3916
2026-01-28 13:09:19.61	249.85	38.28	-37.5	-38.2	25.5	0.00e+00	0	42	0	1953497088	46	3949
2026-01-28 13:09:20.61	250.28	38.34	-37.6	-38.3	25.4	0.00e+00	0	42	0	1958739968	46	3981
2026-01-28 13:09:21.62	250.72	38.39	-37.7	-38.4	25.3	0.00e+00	0	42	0	1965031424	46	4012
2026-01-28 13:09:22.63	251.16	38.45	-37.4	-38.1	25.6	0.00e+00	0	43	0	1970274304	46	3895
2026-01-28 13:09:23.64	251.60	38.50	-37.4	-38.1	25.6	0.00e+00	0	42	0	1975517184	46	3892
2026-01-28 13:09:24.65	252.04	38.55	-37.4	-38.1	25.6	0.00e+00	0	43	0	1981808640	46	3876
2026-01-28 13:09:25.66	252.48	38.59	-37.4	-38.1	25.6	0.00e+00	0	42	0	1987051520	46	3883
2026-01-28 13:09:26.66	252.92	38.64	-37.6	-38.3	25.5	0.00e+00	0	43	0	1993342976	46	3969
2026-01-28 13:09:27.67	253.37	38.68	-37.5	-38.2	25.5	0.00e+00	0	42	0	1998585856	46	3953
2026-01-28 13:09:28.68	253.81	38.72	-37.3	-38.0	25.7	0.00e+00	0	43	0	2003828736	46	3857
2026-01-28 13:09:29.69	254.26	38.76	-37.3	-38.0	25.7	0.00e+00	0	42	0	2010120192	46	3833
2026-01-28 13:09:30.70	254.71	38.80	-37.2	-37.9	25.8	0.00e+00	0	43	0	2016411648	46	3795
2026-01-28 13:09:31.71	255.16	38.84	-37.3	-38.0	25.7	0.00e+00	0	42	0	2021654528	46	3835
2026-01-28 13:09:32.72	255.61	38.87	-37.3	-38.1	25.7	0.00e+00	0	43	0	2026897408	46	3873
2026-01-28 13:09:33.73	256.06	38.91	-37.3	-37.9	25.8	0.00e+00	0	42	0	2033188864	46	3822
2026-01-28 13:09:34.74	256.51	38.94	-37.2	-37.9	25.8	0.00e+00	0	43	0	2038431744	46	3800
2026-01-28 13:09:35.75	256.96	38.96	-37.3	-38.0	25.7	0.00e+00	0	42	0	2043674624	46	3829
2026-01-28 13:09:36.75	257.41	38.99	-37.6	-38.3	25.5	0.00e+00	0	43	0	2049966080	46	3971
2026-01-28 13:09:37.76	257.87	39.02	-37.8	-38.6	25.2	0.00e+00	0	43	0	2055208960	46	4109
2026-01-28 13:09:38.77	258.32	39.04	-37.8	-38.5	25.3	0.00e+00	0	42	0	2060451840	46	4078
2026-01-28 13:09:39.78	258.78	39.06	-37.9	-38.6	25.2	0.00e+00	0	42	0	2066743296	46	4108
2026-01-28 13:09:40.79	259.23	39.08	-37.5	-38.2	25.5	0.00e+00	0	43	0	2071986176	46	3952
2026-01-28 13:09:41.79	259.69	39.09	-37.3	-38.0	25.7	0.00e+00	0	43	0	2078277632	46	3841
2026-01-28 13:09:42.80	260.14	39.11	-37.3	-38.0	25.7	0.00e+00	0	42	0	2083520512	46	3862
2026-01-28 13:09:43.81	260.60	39.12	-37.4	-38.1	25.7	0.00e+00	0	42	0	2089811968	46	3886
2026-01-28 13:09:44.82	261.06	39.13	-37.4	-38.2	25.6	0.00e+00	0	42	0	2095054848	46	3914
2026-01-28 13:09:45.83	261.52	39.14	-37.6	-38.3	25.5	0.00e+00	0	43	0	2101346304	46	3969
2026-01-28 13:09:46.84	261.98	39.15	-37.4	-38.1	25.6	0.00e+00	0	42	0	2106589184	46	3897
2026-01-28 13:09:47.85	262.43	39.15	-37.4	-38.1	25.6	0.00e+00	0	43	0	2111832064	46	3904
2026-01-28 13:09:48.85	262.89	39.16	-37.4	-38.2	25.6	0.00e+00	0	43	0	2118123520	46	3914
2026-01-28 13:09:49.86	263.35	39.16	-37.6	-38.3	25.5	0.00e+00	0	42	0	2123366400	46	3963
2026-01-28 13:09:50.87	263.80	39.15	-37.5	-38.2	25.6	0.00e+00	0	42	0	2128609280	46	3949
2026-01-28 13:09:51.88	264.26	39.15	-37.6	-38.3	25.5	0.00e+00	0	42	0	2134900736	46	3990
2026-01-28 13:09:52.89	264.72	39.15	-37.7	-38.4	25.4	0.00e+00	0	43	0	2140143616	46	4041
2026-01-28 13:09:53.89	265.18	39.14	-37.6	-38.3	25.5	0.00e+00	0	42	0	2146435072	46	3968
2026-01-28 13:09:54.90	265.63	39.13	-37.5	-38.2	25.6	0.00e+00	0	43	0	2151677952	46	3939
2026-01-28 13:09:55.91	266.09	39.12	-37.4	-38.1	25.6	0.00e+00	0	42	0	2157969408	46	3893
2026-01-28 13:09:56.92	266.55	39.10	-37.3	-38.0	25.7	0.00e+00	0	42	0	2163212288	46	3849
2026-01-28 13:09:57.93	267.00	39.09	-37.4	-38.1	25.6	0.00e+00	0	42	0	2168455168	46	3896
2026-01-28 13:09:58.94	267.46	39.07	-37.5	-38.2	25.6	0.00e+00	0	43	0	2174746624	46	3926
2026-01-28 13:09:59.94	267.91	39.05	-37.4	-38.1	25.6	0.00e+00	0	43	0	2179989504	46	3903
2026-01-28 13:10:00.94	268.36	39.03	-37.5	-38.2	25.6	0.00e+00	0	42	0	2186280960	46	3919
2026-01-28 13:10:01.94	268.81	39.01	-37.5	-38.2	25.6	0.00e+00	0	43	0	2191523840	46	3934
2026-01-28 13:10:02.95	269.27	38.98	-37.6	-38.3	25.5	0.00e+00	0	42	0	2196766720	46	3964
2026-01-28 13:10:03.96	269.72	38.96	-37.6	-38.3	25.5	0.00e+00	0	42	0	2203058176	46	3986
2026-01-28 13:10:04.96	270.17	38.93	-37.6	-38.3	25.5	0.00e+00	0	43	0	2208301056	46	3971
2026-01-28 13:10:05.97	270.62	38.90	-37.4	-38.1	25.6	0.00e+00	0	43	0	2213543936	46	3902
2026-01-28 13:10:06.98	271.07	38.86	-37.3	-37.9	25.8	0.00e+00	0	43	0	2219835392	46	3824
2026-01-28 13:10:07.99	271.52	38.83	-37.5	-38.2	25.6	0.00e+00	0	43	0	2226126848	46	3925
2026-01-28 13:10:09.00	271.97	38.79	-37.6	-38.3	25.5	0.00e+00	0	43	0	2231369728	46	3966
2026-01-28 13:10:10.01	272.42	38.75	-37.5	-38.2	25.6	0.00e+00	0	43	0	2236612608	46	3944
2026-01-28 13:10:11.02	272.86	38.71	-37.6	-38.3	25.5	0.00e+00	0	42	0	2242904064	46	3986
2026-01-28 13:10:12.02	273.30	38.67	-37.6	-38.3	25.5	0.00e+00	0	42	0	2248146944	46	3992
2026-01-28 13:10:13.02	273.74	38.63	-37.6	-38.3	25.5	0.00e+00	0	42	0	2253389824	46	3975
2026-01-28 13:10:14.03	274.19	38.58	-37.5	-38.2	25.6	0.00e+00	0	43	0	2259681280	46	3935
2026-01-28 13:10:15.04	274.63	38.53	-37.5	-38.2	25.6	0.00e+00	0	42	0	2264924160	46	3952
2026-01-28 13:10:16.05	275.07	38.48	-37.5	-38.2	25.6	0.00e+00	0	43	0	2271215616	46	3938
2026-01-28 13:10:17.05	275.51	38.43	-37.6	-38.3	25.5	0.00e+00	0	42	0	2276458496	46	3981
2026-01-28 13:10:18.06	275.94	38.38	-37.6	-38.3	25.5	0.00e+00	0	43	0	2281701376	46	3966
2026-01-28 13:10:19.07	276.38	38.32	-37.5	-38.2	25.6	0.00e+00	0	42	0	2287992832	46	3950
2026-01-28 13:10:20.08	276.81	38.27	-37.6	-38.3	25.5	0.00e+00	0	42	0	2293235712	46	4001
2026-01-28 13:10:21.08	277.24	38.21	-37.6	-38.3	25.5	0.00e+00	0	43	0	2298478592	46	3992
2026-01-28 13:10:22.09	277.68	38.15	-37.5	-38.2	25.6	0.00e+00	0	43	0	2304770048	46	3936
2026-01-28 13:10:23.10	278.11	38.09	-37.5	-38.2	25.6	0.00e+00	0	42	0	2311061504	46	3953
2026-01-28 13:10:24.11	278.53	38.02	-37.5	-38.2	25.7	0.00e+00	0	43	0	2316304384	46	3914
2026-01-28 13:10:25.12	278.96	37.96	-37.4	-38.2	25.7	0.00e+00	0	42	0	2321547264	46	3915
2026-01-28 13:10:26.13	279.39	37.89	-37.5	-38.2	25.6	0.00e+00	0	43	0	2327838720	46	3938
2026-01-28 13:10:27.14	279.81	37.82	-37.5	-38.2	25.6	0.00e+00	0	43	0	2333081600	46	3941
2026-01-28 13:10:28.15	280.23	37.76	-37.7	-38.4	25.5	0.00e+00	0	43	0	2338324480	46	4016
2026-01-28 13:10:29.16	280.65	37.68	-37.8	-38.5	25.3	0.00e+00	0	42	0	2344615936	46	4075
2026-01-28 13:10:30.17	281.07	37.61	-37.8	-38.5	25.3	0.00e+00	0	43	0	2349858816	46	4092
2026-01-28 13:10:31.18	281.49	37.54	-37.6	-38.3	25.5	0.00e+00	0	42	0	2356150272	46	3973
2026-01-28 13:10:32.19	281.90	37.46	-37.4	-38.1	25.7	0.00e+00	0	43	0	2361393152	46	3872
2026-01-28 13:10:33.20	282.31	37.38	-37.4	-38.1	25.7	0.00e+00	0	43	0	2367684608	46	3902
2026-01-28 13:10:34.20	282.72	37.31	-37.5	-38.2	25.6	0.00e+00	0	43	0	2372927488	46	3950
2026-01-28 13:10:35.21	283.13	37.23	-37.6	-38.3	25.6	0.00e+00	0	43	0	2379218944	46	3968
2026-01-28 13:10:36.22	283.53	37.14	-37.7	-38.4	25.5	0.00e+00	0	43	0	2384461824	46	4039
2026-01-28 13:10:37.23	283.94	37.06	-37.6	-38.3	25.6	0.00e+00	0	43	0	2389704704	46	3970
2026-01-28 13:10:38.23	284.34	36.98	-37.5	-38.2	25.6	0.00e+00	0	43	0	2395996160	46	3951
2026-01-28 13:10:39.25	284.74	36.89	-37.3	-38.0	25.8	0.00e+00	0	42	0	2401239040	46	3856
2026-01-28 13:10:40.25	285.14	36.81	-37.3	-38.0	25.8	0.00e+00	0	43	0	2406481920	46	3840
2026-01-28 13:10:41.26	285.53	36.72	-37.4	-38.1	25.7	0.00e+00	0	43	0	2412773376	46	3895
2026-01-28 13:10:42.27	285.93	36.63	-37.5	-38.2	25.6	0.00e+00	0	43	0	2418016256	46	3943
2026-01-28 13:10:43.28	286.32	36.54	-37.6	-38.3	25.5	0.00e+00	0	43	0	2423259136	46	3997
2026-01-28 13:10:44.29	286.71	36.45	-37.7	-38.4	25.5	0.00e+00	0	43	0	2429550592	46	4028
2026-01-28 13:10:45.29	287.09	36.35	-37.7	-38.4	25.4	0.00e+00	0	42	0	2435842048	46	4041
2026-01-28 13:10:46.30	287.48	36.26	-37.7	-38.4	25.4	0.00e+00	0	43	0	2441084928	46	4045
2026-01-28 13:10:47.31	287.86	36.16	-37.8	-38.5	25.4	0.00e+00	0	42	0	2446327808	46	4060
2026-01-28 13:10:48.31	288.24	36.07	-37.8	-38.6	25.3	0.00e+00	0	43	0	2452619264	46	4100
2026-01-28 13:10:49.32	288.62	35.97	-37.8	-38.5	25.4	0.00e+00	0	43	0	2457862144	46	4085
2026-01-28 13:10:50.33	288.99	35.87	-37.8	-38.5	25.4	0.00e+00	0	43	0	2464153600	46	4072
2026-01-28 13:10:51.33	289.36	35.77	-37.8	-38.5	25.3	0.00e+00	0	43	0	2469396480	46	4098
2026-01-28 13:10:52.34	289.73	35.67	-38.0	-38.7	25.3	0.00e+00	0	43	0	2474639360	46	4153
2026-01-28 13:10:53.35	290.10	35.57	-37.7	-38.4	25.4	0.00e+00	0	43	0	2480930816	46	4049
2026-01-28 13:10:54.35	290.47	35.47	-37.7	-38.4	25.5	0.00e+00	0	43	0	2486173696	46	4007
2026-01-28 13:10:55.36	290.83	35.37	-37.7	-38.4	25.5	0.00e+00	0	43	0	2491416576	46	4035
2026-01-28 13:10:56.37	291.20	35.26	-37.7	-38.4	25.5	0.00e+00	0	42	0	2497708032	46	4025
2026-01-28 13:10:57.37	291.55	35.16	-37.8	-38.5	25.4	0.00e+00	0	42	0	2502950912	46	4058
2026-01-28 13:10:58.38	291.91	35.05	-37.9	-38.6	25.3	0.00e+00	0	42	0	2508193792	46	4135
2026-01-28 13:10:59.39	292.27	34.95	-38.0	-38.8	25.2	0.00e+00	0	43	0	2514485248	46	4200
2026-01-28 13:11:00.40	292.62	34.84	-38.0	-38.8	25.2	0.00e+00	0	42	0	2520776704	46	4204
2026-01-28 13:11:01.40	292.97	34.73	-37.8	-38.5	25.4	0.00e+00	0	43	0	2526019584	46	4060
2026-01-28 13:11:02.41	293.32	34.62	-37.7	-38.4	25.5	0.00e+00	0	43	0	2531262464	46	4022
2026-01-28 13:11:03.42	293.66	34.51	-37.6	-38.2	25.6	0.00e+00	0	42	0	2537553920	46	3954
2026-01-28 13:11:04.43	294.01	34.40	-37.6	-38.3	25.6	0.00e+00	0	42	0	2542796800	46	3992
2026-01-28 13:11:05.44	294.35	34.29	-37.8	-38.5	25.4	0.00e+00	0	43	0	2549088256	46	4078
2026-01-28 13:11:06.45	294.69	34.18	-37.9	-38.7	25.3	0.00e+00	0	43	0	2554331136	46	4157
2026-01-28 13:11:07.45	295.03	34.06	-38.0	-38.7	25.2	0.00e+00	0	42	0	2559574016	46	4193
2026-01-28 13:11:08.46	295.36	33.95	-38.0	-38.7	25.2	0.00e+00	0	43	0	2565865472	46	4188
2026-01-28 13:11:09.47	295.69	33.84	-38.0	-38.8	25.2	0.00e+00	0	42	0	2571108352	46	4196
2026-01-28 13:11:10.48	296.02	33.72	-38.0	-38.8	25.2	0.00e+00	0	42	0	2576351232	46	4194
2026-01-28 13:11:11.49	296.35	33.61	-37.8	-38.5	25.4	0.00e+00	0	43	0	2582642688	46	4073
2026-01-28 13:11:12.50	296.68	33.49	-37.8	-38.5	25.4	0.00e+00	0	42	0	2588934144	46	4084
2026-01-28 13:11:13.51	297.00	33.37	-37.9	-38.6	25.3	0.00e+00	0	43	0	2594177024	46	4121
2026-01-28 13:11:14.51	297.32	33.26	-38.1	-38.8	25.2	0.00e+00	0	43	0	2599419904	46	4207
2026-01-28 13:11:15.52	297.64	33.14	-38.0	-38.7	25.2	0.00e+00	0	42	0	2605711360	46	4177
2026-01-28 13:11:16.53	297.96	33.02	-38.1	-38.8	25.2	0.00e+00	0	42	0	2610954240	46	4216
2026-01-28 13:11:17.54	298.27	32.90	-38.1	-38.9	25.1	0.00e+00	0	43	0	2616197120	46	4247
2026-01-28 13:11:18.54	298.58	32.78	-37.9	-38.6	25.3	0.00e+00	0	43	0	2622488576	46	4107
2026-01-28 13:11:19.55	298.89	32.67	-37.9	-38.6	25.3	0.00e+00	0	42	0	2627731456	46	4121
2026-01-28 13:11:20.55	299.20	32.55	-38.0	-38.7	25.2	0.00e+00	0	42	0	2634022912	46	4192
2026-01-28 13:11:21.56	299.50	32.43	-38.2	-38.9	25.1	0.00e+00	0	42	0	2639265792	46	4262
2026-01-28 13:11:22.57	299.81	32.31	-38.2	-38.9	25.0	0.00e+00	0	42	0	2644508672	47	4040
2026-01-28 13:11:23.57	300.10	32.19	-38.2	-38.9	25.0	0.00e+00	0	42	0	2650800128	47	4051
2026-01-28 13:11:24.58	300.40	32.06	-38.1	-38.8	25.1	0.00e+00	0	42	0	2656043008	47	4004
2026-01-28 13:11:25.59	300.70	31.94	-38.1	-38.8	25.2	0.00e+00	0	42	0	2662334464	47	3980
2026-01-28 13:11:26.60	300.99	31.82	-38.0	-38.8	25.2	0.00e+00	0	42	0	2667577344	47	3961
2026-01-28 13:11:27.60	301.28	31.70	-37.9	-38.5	25.4	0.00e+00	0	43	0	2673868800	47	3867
2026-01-28 13:11:28.61	301.57	31.58	-37.8	-38.5	25.4	0.00e+00	0	43	0	2679111680	47	3859
2026-01-28 13:11:29.62	301.86	31.45	-38.0	-38.7	25.2	0.00e+00	0	42	0	2684354560	47	3917
2026-01-28 13:11:30.63	302.15	31.33	-37.9	-38.7	25.2	0.00e+00	0	43	0	2690646016	47	3928
2026-01-28 13:11:31.64	302.43	31.21	-38.1	-38.8	25.1	0.00e+00	0	43	0	2695888896	47	4004
2026-01-28 13:11:32.65	302.71	31.08	-38.1	-38.9	25.0	0.00e+00	0	42	0	2701131776	47	4013
2026-01-28 13:11:33.65	302.99	30.96	-38.2	-38.9	25.0	0.00e+00	0	42	0	2707423232	47	4041
2026-01-28 13:11:34.66	303.27	30.84	-38.3	-39.1	24.9	0.00e+00	0	43	0	2712666112	47	4114
2026-01-28 13:11:35.67	303.54	30.71	-38.2	-38.9	25.0	0.00e+00	0	42	0	2718957568	47	4024
2026-01-28 13:11:36.68	303.82	30.59	-38.3	-39.0	24.9	0.00e+00	0	43	0	2724200448	47	4077
2026-01-28 13:11:37.69	304.09	30.46	-38.3	-39.0	24.9	0.00e+00	0	43	0	2729443328	47	4076
2026-01-28 13:11:38.69	304.36	30.34	-38.3	-39.0	24.9	0.00e+00	0	43	0	2735734784	47	4096
2026-01-28 13:11:39.70	304.62	30.21	-38.3	-39.1	24.8	0.00e+00	0	42	0	2742026240	47	4106
2026-01-28 13:11:40.71	304.89	30.09	-38.1	-38.8	25.0	0.00e+00	0	42	0	2747269120	47	4003
2026-01-28 13:11:41.72	305.15	29.96	-38.1	-38.8	25.1	0.00e+00	0	42	0	2752512000	47	3987
2026-01-28 13:11:42.73	305.41	29.84	-38.1	-38.8	25.0	0.00e+00	0	43	0	2758803456	47	4004
2026-01-28 13:11:43.74	305.67	29.71	-38.1	-38.8	25.1	0.00e+00	0	43	0	2764046336	47	3973
2026-01-28 13:11:44.75	305.93	29.59	-38.2	-39.0	24.9	0.00e+00	0	42	0	2769289216	47	4060
2026-01-28 13:11:45.76	306.19	29.46	-38.3	-39.0	24.8	0.00e+00	0	43	0	2775580672	47	4092
2026-01-28 13:11:46.76	306.44	29.34	-38.3	-39.0	24.8	0.00e+00	0	43	0	2780823552	47	4093
2026-01-28 13:11:47.77	306.69	29.21	-38.3	-39.1	24.8	0.00e+00	0	42	0	2786066432	47	4108
2026-01-28 13:11:48.78	306.94	29.09	-38.4	-39.2	24.7	0.00e+00	0	43	0	2792357888	47	4154
2026-01-28 13:11:49.79	307.18	28.96	-38.2	-38.9	24.9	0.00e+00	0	43	0	2797600768	47	4050
2026-01-28 13:11:50.79	307.43	28.84	-38.3	-39.0	24.8	0.00e+00	0	42	0	2803892224	47	4097
2026-01-28 13:11:51.80	307.67	28.71	-38.3	-39.0	24.8	0.00e+00	0	43	0	2809135104	47	4081
2026-01-28 13:11:52.81	307.91	28.59	-38.4	-39.1	24.7	0.00e+00	0	42	0	2815426560	47	4118
2026-01-28 13:11:53.82	308.15	28.46	-38.6	-39.3	24.6	0.00e+00	0	43	0	2820669440	47	4217
2026-01-28 13:11:54.83	308.39	28.34	-38.7	-39.5	24.4	0.00e+00	0	42	0	2826960896	47	4305
2026-01-28 13:11:55.84	308.63	28.21	-39.0	-39.8	24.6	0.00e+00	0	43	0	2832203776	48	4202
2026-01-28 13:11:56.85	308.86	28.09	-39.1	-39.9	24.6	0.00e+00	0	43	0	2837446656	48	4247
2026-01-28 13:11:57.86	309.10	27.96	-38.9	-39.6	24.7	0.00e+00	0	43	0	2843738112	48	4145
2026-01-28 13:11:58.87	309.33	27.84	-38.9	-39.6	24.7	0.00e+00	0	42	0	2848980992	48	4141
2026-01-28 13:11:59.88	309.56	27.71	-38.7	-39.4	25.0	0.00e+00	0	42	0	2854223872	48	4024
2026-01-28 13:12:00.88	309.78	27.59	-38.5	-39.2	25.1	0.00e+00	0	43	0	2860515328	48	3924
2026-01-28 13:12:01.89	310.01	27.46	-38.3	-39.0	25.3	0.00e+00	0	43	0	2866806784	48	3854
2026-01-28 13:12:02.90	310.23	27.34	-38.5	-39.2	25.1	0.00e+00	0	42	0	2872049664	48	3927
2026-01-28 13:12:03.91	310.46	27.21	-38.5	-39.2	25.1	0.00e+00	0	42	0	2877292544	48	3919
2026-01-28 13:12:04.92	310.68	27.09	-38.5	-39.3	25.0	0.00e+00	0	42	0	2883584000	48	3965
2026-01-28 13:12:05.93	310.90	26.97	-38.6	-39.4	24.9	0.00e+00	0	42	0	2888826880	48	4015
2026-01-28 13:12:06.94	311.11	26.84	-38.7	-39.5	24.9	0.00e+00	0	42	0	2894069760	48	4056
2026-01-28 13:12:07.95	311.33	26.72	-38.7	-39.5	24.9	0.00e+00	0	43	0	2900361216	48	4066
2026-01-28 13:12:08.96	311.54	26.59	-38.6	-39.3	25.0	0.00e+00	0	43	0	2905604096	48	4003
2026-01-28 13:12:09.97	311.76	26.47	-38.5	-39.2	25.1	0.00e+00	0	43	0	2911895552	48	3944
2026-01-28 13:12:10.98	311.97	26.35	-38.5	-39.3	25.0	0.00e+00	0	42	0	2917138432	48	3960
2026-01-28 13:12:11.98	312.18	26.22	-38.4	-39.1	25.2	0.00e+00	0	42	0	2922381312	48	3900
2026-01-28 13:12:12.99	312.38	26.10	-38.3	-39.0	25.3	0.00e+00	0	43	0	2928672768	48	3829
2026-01-28 13:12:14.00	312.59	25.98	-38.5	-39.2	25.1	0.00e+00	0	43	0	2934964224	48	3914
2026-01-28 13:12:15.01	312.79	25.85	-38.4	-39.1	25.1	0.00e+00	0	43	0	2940207104	48	3894
2026-01-28 13:12:16.02	313.00	25.73	-38.5	-39.2	25.1	0.00e+00	0	42	0	2945449984	48	3942
2026-01-28 13:12:17.03	313.20	25.61	-38.6	-39.3	25.0	0.00e+00	0	42	0	2951741440	48	3993
2026-01-28 13:12:18.04	313.40	25.49	-38.8	-39.5	24.8	0.00e+00	0	43	0	2956984320	48	4064
2026-01-28 13:12:19.05	313.60	25.37	-38.7	-39.4	24.9	0.00e+00	0	42	0	2962227200	48	4024
2026-01-28 13:12:20.05	313.79	25.25	-38.7	-39.5	24.8	0.00e+00	0	42	0	2968518656	48	4059
2026-01-28 13:12:21.06	313.99	25.12	-38.7	-39.4	24.9	0.00e+00	0	42	0	2973761536	48	4025
2026-01-28 13:12:22.07	314.18	25.00	-38.7	-39.4	24.9	0.00e+00	0	43	0	2979004416	48	4048
2026-01-28 13:12:23.08	314.38	24.88	-38.7	-39.4	24.9	0.00e+00	0	43	0	2985295872	48	4016
2026-01-28 13:12:24.08	314.56	24.76	-38.8	-39.5	24.8	0.00e+00	0	43	0	2990538752	48	4069
2026-01-28 13:12:25.09	314.75	24.64	-38.7	-39.4	24.9	0.00e+00	0	42	0	2996830208	48	4019
2026-01-28 13:12:26.10	314.94	24.52	-38.7	-39.4	24.9	0.00e+00	0	42	0	3002073088	48	4045
2026-01-28 13:12:27.11	315.13	24.40	-38.9	-39.6	24.7	0.00e+00	0	43	0	3008364544	48	4127
2026-01-28 13:12:28.12	315.32	24.28	-38.9	-39.6	24.7	0.00e+00	0	42	0	3013607424	48	4129
2026-01-28 13:12:29.13	315.50	24.16	-39.0	-39.7	24.6	0.00e+00	0	43	0	3019898880	48	4169
2026-01-28 13:12:30.14	315.68	24.04	-39.0	-39.7	24.5	0.00e+00	0	42	0	3025141760	48	4193
2026-01-28 13:12:31.15	315.87	23.92	-39.0	-39.8	24.5	0.00e+00	0	43	0	3030384640	48	4209
2026-01-28 13:12:32.16	316.05	23.80	-39.0	-39.7	24.6	0.00e+00	0	42	0	3036676096	48	4156
2026-01-28 13:12:33.17	316.22	23.68	-38.9	-39.6	24.7	0.00e+00	0	42	0	3041918976	48	4133
2026-01-28 13:12:34.18	316.40	23.57	-38.9	-39.6	24.6	0.00e+00	0	42	0	3047161856	48	4141
2026-01-28 13:12:35.19	316.58	23.45	-38.8	-39.5	24.8	0.00e+00	0	42	0	3053453312	48	4070
2026-01-28 13:12:36.20	316.75	23.33	-38.9	-39.6	24.7	0.00e+00	0	42	0	3059744768	48	4120
2026-01-28 13:12:37.20	316.93	23.21	-38.8	-39.5	24.7	0.00e+00	0	42	0	3064987648	48	4093
2026-01-28 13:12:38.21	317.10	23.10	-38.9	-39.6	24.7	0.00e+00	0	42	0	3070230528	48	4120
2026-01-28 13:12:39.21	317.27	22.98	-38.9	-39.6	24.6	0.00e+00	0	43	0	3076521984	48	4143
2026-01-28 13:12:40.22	317.44	22.86	-39.0	-39.7	24.6	0.00e+00	0	43	0	3081764864	48	4167
2026-01-28 13:12:41.22	317.61	22.75	-39.1	-39.8	24.5	0.00e+00	0	43	0	3087007744	48	4221
2026-01-28 13:12:42.23	317.77	22.63	-39.1	-39.8	24.4	0.00e+00	0	43	0	3093299200	48	4242
2026-01-28 13:12:43.24	317.94	22.52	-39.2	-39.9	24.3	0.00e+00	0	43	0	3098542080	48	4273
2026-01-28 13:12:44.25	318.10	22.40	-39.2	-39.9	24.3	0.00e+00	0	42	0	3104833536	49	4049
2026-01-28 13:12:45.26	318.27	22.29	-39.2	-40.0	24.3	0.00e+00	0	42	0	3110076416	49	4052
2026-01-28 13:12:46.27	318.43	22.17	-39.2	-39.9	24.3	0.00e+00	0	43	0	3115319296	49	4043
2026-01-28 13:12:47.28	318.59	22.06	-39.0	-39.7	24.5	0.00e+00	0	42	0	3121610752	49	3958
2026-01-28 13:12:48.29	318.75	21.94	-39.1	-39.8	24.4	0.00e+00	0	42	0	3127902208	49	3972
2026-01-28 13:12:49.30	318.91	21.83	-39.1	-39.8	24.5	0.00e+00	0	43	0	3133145088	49	3979
2026-01-28 13:12:50.31	319.07	21.71	-39.2	-39.9	24.3	0.00e+00	0	43	0	3138387968	49	4028
2026-01-28 13:12:51.32	319.23	21.60	-39.3	-40.0	24.2	0.00e+00	0	42	0	3144679424	49	4059
2026-01-28 13:12:52.33	319.38	21.49	-39.3	-40.0	24.2	0.00e+00	0	43	0	3149922304	49	4066
2026-01-28 13:12:53.33	319.54	21.37	-39.3	-40.0	24.2	0.00e+00	0	43	0	3155165184	49	4098
2026-01-28 13:12:54.34	319.69	21.26	-39.5	-40.2	24.0	0.00e+00	0	43	0	3161456640	49	4176
2026-01-28 13:12:55.35	319.84	21.15	-39.5	-40.3	24.0	0.00e+00	0	42	0	3166699520	49	4209
2026-01-28 13:12:56.36	320.00	21.04	-39.7	-40.4	23.9	0.00e+00	0	42	0	3171942400	49	4274
2026-01-28 13:12:57.37	320.15	20.93	-39.6	-40.4	23.9	0.00e+00	0	43	0	3178233856	49	4260
2026-01-28 13:12:58.38	320.30	20.81	-39.7	-40.5	23.8	0.00e+00	0	42	0	3183476736	50	4074
2026-01-28 13:12:59.39	320.44	20.70	-39.7	-40.5	23.8	0.00e+00	0	42	0	3189768192	50	4077
2026-01-28 13:13:00.39	320.59	20.59	-39.8	-40.6	23.7	0.00e+00	0	43	0	3195011072	50	4100
2026-01-28 13:13:01.40	320.74	20.48	-39.9	-40.6	23.6	0.00e+00	0	43	0	3201302528	50	4145
2026-01-28 13:13:02.41	320.88	20.37	-39.8	-40.6	23.7	0.00e+00	0	43	0	3206545408	50	4099
2026-01-28 13:13:03.41	321.03	20.26	-39.7	-40.4	23.9	0.00e+00	0	43	0	3212836864	50	4023
2026-01-28 13:13:04.42	321.17	20.15	-39.6	-40.3	23.9	0.00e+00	0	42	0	3218079744	50	3990
2026-01-28 13:13:05.43	321.31	20.04	-39.6	-40.3	23.9	0.00e+00	0	43	0	3223322624	50	3999
2026-01-28 13:13:06.44	321.45	19.94	-39.6	-40.4	23.8	0.00e+00	0	42	0	3229614080	50	4022
2026-01-28 13:13:07.44	321.59	19.83	-39.8	-40.5	23.7	0.00e+00	0	43	0	3234856960	50	4081
2026-01-28 13:13:08.45	321.73	19.72	-39.8	-40.6	23.6	0.00e+00	0	43	0	3240099840	50	4115
2026-01-28 13:13:09.46	321.87	19.61	-39.9	-40.7	23.6	0.00e+00	0	42	0	3246391296	50	4164
2026-01-28 13:13:10.47	322.01	19.50	-40.1	-40.9	23.3	0.00e+00	0	42	0	3251634176	50	4284
2026-01-28 13:13:11.48	322.15	19.40	-40.1	-40.9	23.3	0.00e+00	0	43	0	3256877056	50	4291
2026-01-28 13:13:12.49	322.28	19.29	-40.2	-41.0	23.3	0.00e+00	0	43	0	3263168512	50	4304
2026-01-28 13:13:13.50	322.42	19.18	-40.2	-41.0	23.2	0.00e+00	0	42	0	3269459968	51	4073
2026-01-28 13:13:14.50	322.55	19.08	-40.1	-40.9	23.3	0.00e+00	0	43	0	3274702848	51	4043
2026-01-28 13:13:15.51	322.68	18.97	-40.1	-40.9	23.3	0.00e+00	0	43	0	3279945728	51	4036
2026-01-28 13:13:16.52	322.81	18.87	-40.1	-40.9	23.3	0.00e+00	0	42	0	3286237184	51	4025
2026-01-28 13:13:17.53	322.95	18.76	-40.1	-40.8	23.4	0.00e+00	0	42	0	3291480064	51	4004
2026-01-28 13:13:18.54	323.08	18.65	-40.1	-40.8	23.4	0.00e+00	0	43	0	3297771520	51	4003
2026-01-28 13:13:19.55	323.21	18.55	-40.0	-40.8	23.4	1.10e-06	0	43	0	3303014400	51	3984
2026-01-28 13:13:20.56	323.34	18.45	-40.1	-40.9	23.3	0.00e+00	0	43	0	3308257280	51	4011
2026-01-28 13:13:21.57	323.46	18.34	-40.0	-40.7	23.5	0.00e+00	0	43	0	3314548736	51	3951
2026-01-28 13:13:22.58	323.59	18.24	-40.0	-40.7	23.4	0.00e+00	0	43	0	3319791616	51	3958
2026-01-28 13:13:23.59	323.72	18.13	-40.0	-40.7	23.4	0.00e+00	0	43	0	3326083072	51	3950
2026-01-28 13:13:24.59	323.84	18.03	-40.0	-40.8	23.4	0.00e+00	0	43	0	3331325952	51	3979
2026-01-28 13:13:25.60	323.97	17.93	-40.0	-40.8	23.3	0.00e+00	0	42	0	3337617408	51	3986
2026-01-28 13:13:26.60	324.09	17.83	-40.1	-40.8	23.3	0.00e+00	0	43	0	3342860288	51	3999
2026-01-28 13:13:27.61	324.21	17.72	-40.1	-40.9	23.3	0.00e+00	0	43	0	3348103168	51	4007
2026-01-28 13:13:28.62	324.33	17.62	-40.2	-40.9	23.2	0.00e+00	0	43	0	3354394624	51	4041
2026-01-28 13:13:29.63	324.45	17.52	-40.2	-41.0	23.2	0.00e+00	0	43	0	3359637504	51	4073
2026-01-28 13:13:30.64	324.58	17.42	-40.3	-41.1	23.1	0.00e+00	0	43	0	3364880384	51	4116
2026-01-28 13:13:31.65	324.70	17.32	-40.2	-41.0	23.2	0.00e+00	0	42	0	3371171840	51	4076
2026-01-28 13:13:32.65	324.81	17.22	-40.2	-41.0	23.1	0.00e+00	0	42	0	3376414720	51	4089
2026-01-28 13:13:33.66	324.93	17.12	-40.3	-41.1	23.0	0.00e+00	0	43	0	3382706176	51	4100
2026-01-28 13:13:34.67	325.05	17.02	-40.2	-41.0	23.1	0.00e+00	0	43	0	3387949056	51	4091
2026-01-28 13:13:35.68	325.17	16.92	-40.2	-41.0	23.1	0.00e+00	0	43	0	3393191936	51	4081
2026-01-28 13:13:36.69	325.28	16.82	-40.3	-41.1	23.1	1.10e-06	0	43	0	3399483392	51	4111
2026-01-28 13:13:37.70	325.40	16.72	-40.5	-41.3	22.9	0.00e+00	0	43	0	3405774848	51	4198
2026-01-28 13:13:38.71	325.51	16.62	-40.3	-41.1	23.1	0.00e+00	0	43	0	3411017728	51	4101
2026-01-28 13:13:39.71	325.63	16.52	-40.4	-41.2	22.9	0.00e+00	0	42	0	3416260608	51	4160
2026-01-28 13:13:40.72	325.74	16.42	-40.5	-41.3	22.8	0.00e+00	0	42	0	3422552064	51	4207
2026-01-28 13:13:41.73	325.85	16.32	-40.6	-41.4	22.8	0.00e+00	0	43	0	3427794944	51	4249
2026-01-28 13:13:42.74	325.96	16.23	-40.4	-41.3	22.9	0.00e+00	0	42	0	3433037824	51	4198
2026-01-28 13:13:43.75	326.07	16.13	-40.5	-41.3	22.8	0.00e+00	0	42	0	3439329280	51	4216
2026-01-28 13:13:44.76	326.18	16.03	-40.5	-41.3	22.7	0.00e+00	0	43	0	3444572160	51	4238
2026-01-28 13:13:45.76	326.29	15.93	-40.5	-41.3	22.7	0.00e+00	0	42	0	3449815040	51	4239
2026-01-28 13:13:46.77	326.40	15.84	-40.5	-41.3	22.7	0.00e+00	0	42	0	3456106496	51	4241
2026-01-28 13:13:47.78	326.51	15.74	-40.7	-41.5	22.6	0.00e+00	0	42	0	3461349376	51	4303
2026-01-28 13:13:48.79	326.62	15.64	-40.6	-41.4	22.6	0.00e+00	0	43	0	3467640832	52	4028
2026-01-28 13:13:49.79	326.72	15.55	-40.5	-41.3	22.7	0.00e+00	0	42	0	3472883712	52	3999
2026-01-28 13:13:50.80	326.83	15.45	-40.5	-41.3	22.7	2.20e-06	0	42	0	3479175168	52	3991
2026-01-28 13:13:51.80	326.94	15.36	-40.5	-41.3	22.7	0.00e+00	0	42	0	3484418048	52	3966
2026-01-28 13:13:52.81	327.04	15.26	-40.6	-41.4	22.7	0.00e+00	0	43	0	3490709504	52	4009
2026-01-28 13:13:53.81	327.14	15.17	-40.6	-41.4	22.7	0.00e+00	0	43	0	3495952384	52	4009
2026-01-28 13:13:54.82	327.25	15.08	-40.6	-41.4	22.7	0.00e+00	0	43	0	3501195264	52	4008
2026-01-28 13:13:55.83	327.35	14.98	-40.6	-41.4	22.6	0.00e+00	0	43	0	3507486720	52	4048
2026-01-28 13:13:56.83	327.45	14.89	-40.6	-41.4	22.6	0.00e+00	0	42	0	3512729600	52	4038
2026-01-28 13:13:57.84	327.56	14.80	-40.7	-41.5	22.5	0.00e+00	0	42	0	3517972480	52	4082
2026-01-28 13:13:58.85	327.66	14.70	-40.7	-41.5	22.5	0.00e+00	0	43	0	3524263936	52	4082
2026-01-28 13:13:59.85	327.76	14.61	-40.9	-41.7	22.3	0.00e+00	0	43	0	3529506816	52	4164
2026-01-28 13:14:00.86	327.86	14.52	-40.8	-41.6	22.4	0.00e+00	0	43	0	3534749696	52	4145
2026-01-28 13:14:01.86	327.96	14.43	-40.9	-41.7	22.3	0.00e+00	0	43	0	3541041152	52	4159
2026-01-28 13:14:02.87	328.05	14.33	-41.0	-41.8	22.2	0.00e+00	0	43	0	3546284032	52	4225
2026-01-28 13:14:03.88	328.15	14.24	-41.0	-41.9	22.1	0.00e+00	0	42	0	3552575488	52	4251
2026-01-28 13:14:04.89	328.25	14.15	-41.0	-41.9	22.1	0.00e+00	0	42	0	3557818368	52	4253
2026-01-28 13:14:05.89	328.35	14.06	-41.1	-41.9	22.0	0.00e+00	0	43	0	3564109824	52	4280
2026-01-28 13:14:06.90	328.44	13.97	-41.1	-42.0	22.0	0.00e+00	0	43	0	3569352704	52	4305
2026-01-28 13:14:07.91	328.54	13.88	-41.2	-42.1	21.9	0.00e+00	0	43	0	3575644160	52	4365
2026-01-28 13:14:08.91	328.64	13.79	-41.2	-42.0	22.0	0.00e+00	0	43	0	3580887040	53	4094
2026-01-28 13:14:09.92	328.73	13.70	-41.3	-42.1	21.8	0.00e+00	0	42	0	3586129920	53	4135
2026-01-28 13:14:10.93	328.82	13.61	-41.2	-42.1	21.9	0.00e+00	0	42	0	3592421376	53	4116
2026-01-28 13:14:11.94	328.92	13.52	-41.3	-42.1	21.8	0.00e+00	0	43	0	3597664256	53	4142
2026-01-28 13:14:12.95	329.01	13.43	-41.2	-42.1	21.9	0.00e+00	0	43	0	3602907136	53	4124
2026-01-28 13:14:13.95	329.10	13.34	-41.2	-42.1	21.9	0.00e+00	0	43	0	3609198592	53	4110
2026-01-28 13:14:14.97	329.20	13.25	-41.3	-42.1	21.8	0.00e+00	0	43	0	3614441472	53	4132
2026-01-28 13:14:15.97	329.29	13.16	-41.3	-42.2	21.7	0.00e+00	0	42	0	3619684352	53	4164
2026-01-28 13:14:16.98	329.38	13.07	-41.4	-42.2	21.7	0.00e+00	0	42	0	3625975808	53	4192
2026-01-28 13:14:17.98	329.47	12.99	-41.3	-42.2	21.7	0.00e+00	0	43	0	3631218688	53	4165
2026-01-28 13:14:18.99	329.56	12.90	-41.3	-42.2	21.7	0.00e+00	0	43	0	3637510144	53	4172
2026-01-28 13:14:20.00	329.65	12.81	-41.3	-42.2	21.7	0.00e+00	0	43	0	3642753024	53	4165
2026-01-28 13:14:21.01	329.74	12.72	-41.5	-42.3	21.6	0.00e+00	0	43	0	3649044480	53	4235
