passes_logs/2026/01/28/R3.2S_Murmansk/R3.2S_Murmansk__20260128_080715_JL1KF02B06_rec.log

#Pass ID: 20260128_080715_JL1KF02B06
#Satellite: JL1KF02B06
#Configuration: 01B_900M
#almurnet v.1.7.20251203
#Start time: 2026-01-28 08:07:16

#Version: 2.2.20231116
#Station: R3.2S_Murmansk
#Location: 33.079688 lon 68.888172 lat
#TLE: 1 61192U 24169D   26027.59201637  .00008583  00000+0  53563-3 0  9999
#TLE: 2 61192  97.5579 118.6012 0006699  67.1157 293.0778 15.09729151 74624

#Time	Az	El	Level	Level2	SNR	BER	BlckErr	Temp	State	Recorded	gain1	gain2
2026-01-28 08:07:16.84	24.20	2.06	-54.4	-56.5	6.3	0.00e+00	0	43	0	0	80	18264
2026-01-28 08:07:17.85	24.31	2.12	-53.4	-55.5	6.2	0.00e+00	0	43	104	0	78	18314
2026-01-28 08:07:18.86	24.42	2.17	-53.0	-55.2	6.2	0.00e+00	0	43	104	0	78	17575
2026-01-28 08:07:19.86	24.54	2.22	-53.0	-55.1	6.2	0.00e+00	0	43	104	0	78	17493
2026-01-28 08:07:20.87	24.65	2.28	-53.0	-55.1	6.2	0.00e+00	0	43	104	0	78	17423
2026-01-28 08:07:21.88	24.76	2.33	-53.0	-55.1	6.2	0.00e+00	0	43	104	0	78	17403
2026-01-28 08:07:22.89	24.88	2.39	-53.0	-55.0	6.2	0.00e+00	0	43	104	0	78	17353
2026-01-28 08:07:23.90	25.00	2.44	-53.0	-55.1	6.2	0.00e+00	0	44	104	0	78	17371
2026-01-28 08:07:24.91	25.11	2.50	-52.9	-55.0	6.2	0.00e+00	0	43	104	0	77	18361
2026-01-28 08:07:25.92	25.23	2.55	-52.9	-55.0	6.2	0.00e+00	0	43	104	0	77	18365
2026-01-28 08:07:26.93	25.35	2.61	-52.9	-55.0	6.2	0.00e+00	0	44	104	0	77	18372
2026-01-28 08:07:27.94	25.46	2.66	-52.9	-55.0	6.2	0.00e+00	0	44	104	0	77	18302
2026-01-28 08:07:28.94	25.58	2.72	-52.9	-55.0	6.2	0.00e+00	0	44	104	0	77	18314
2026-01-28 08:07:29.95	25.70	2.77	-52.9	-55.0	6.2	0.00e+00	0	44	104	0	77	18262
2026-01-28 08:07:30.96	25.82	2.83	-52.9	-55.0	6.2	0.00e+00	0	44	104	0	77	18318
2026-01-28 08:07:31.97	25.94	2.88	-52.9	-55.0	6.2	0.00e+00	0	44	104	0	77	18280
2026-01-28 08:07:32.97	26.06	2.94	-52.9	-55.0	6.2	0.00e+00	0	44	104	0	77	18292
2026-01-28 08:07:33.98	26.18	2.99	-52.9	-55.0	6.2	0.00e+00	0	44	104	0	77	18315
2026-01-28 08:07:34.99	26.30	3.05	-52.9	-55.0	6.2	0.00e+00	0	44	104	0	77	18295
2026-01-28 08:07:36.00	26.42	3.10	-52.9	-55.0	6.2	0.00e+00	0	44	104	0	77	18303
2026-01-28 08:07:37.01	26.54	3.16	-52.9	-55.0	6.2	0.00e+00	0	44	104	0	77	18236
2026-01-28 08:07:38.02	26.67	3.21	-52.9	-55.0	6.2	0.00e+00	0	44	104	0	77	18248
2026-01-28 08:07:39.03	26.79	3.27	-52.9	-55.0	6.2	0.00e+00	0	44	104	0	77	18237
2026-01-28 08:07:40.03	26.91	3.32	-52.9	-55.0	6.2	0.00e+00	0	44	104	0	77	18261
2026-01-28 08:07:41.04	27.04	3.38	-52.9	-55.0	6.2	0.00e+00	0	44	104	0	77	18302
2026-01-28 08:07:42.04	27.16	3.43	-52.9	-55.0	6.2	0.00e+00	0	44	104	0	77	18223
2026-01-28 08:07:43.05	27.29	3.49	-52.9	-55.0	6.2	0.00e+00	0	44	104	0	77	18213
2026-01-28 08:07:44.06	27.41	3.55	-52.9	-55.0	6.2	0.00e+00	0	44	104	0	77	18217
2026-01-28 08:07:45.07	27.54	3.60	-52.9	-55.0	6.2	0.00e+00	0	44	104	0	77	18188
2026-01-28 08:07:46.08	27.67	3.66	-52.9	-55.0	6.2	0.00e+00	0	44	104	0	77	18236
2026-01-28 08:07:47.09	27.80	3.71	-52.9	-55.0	6.2	0.00e+00	0	44	104	0	77	18205
2026-01-28 08:07:48.10	27.93	3.77	-52.9	-55.0	6.2	0.00e+00	0	44	104	0	77	18211
2026-01-28 08:07:49.11	28.06	3.83	-52.9	-55.0	6.2	0.00e+00	0	44	104	0	77	18204
2026-01-28 08:07:50.12	28.19	3.88	-52.9	-54.9	6.2	0.00e+00	0	44	104	0	77	18149
2026-01-28 08:07:51.12	28.31	3.94	-52.9	-54.9	6.2	0.00e+00	0	44	104	0	77	18157
2026-01-28 08:07:52.13	28.45	3.99	-52.9	-55.0	6.2	0.00e+00	0	44	104	0	77	18190
2026-01-28 08:07:53.14	28.58	4.05	-52.8	-54.9	6.2	0.00e+00	0	45	104	0	77	18166
2026-01-28 08:07:54.15	28.71	4.11	-52.8	-54.9	6.2	0.00e+00	0	44	104	0	77	18124
2026-01-28 08:07:55.15	28.84	4.16	-52.9	-54.9	6.2	0.00e+00	0	44	104	0	77	18152
2026-01-28 08:07:56.15	28.97	4.22	-52.8	-54.9	6.2	0.00e+00	0	44	104	0	77	18110
2026-01-28 08:07:57.16	29.11	4.27	-52.8	-54.9	6.2	0.00e+00	0	44	104	0	77	18089
2026-01-28 08:07:58.17	29.24	4.33	-52.8	-54.9	6.2	0.00e+00	0	44	104	0	77	18096
2026-01-28 08:07:59.18	29.38	4.39	-52.8	-54.9	6.2	0.00e+00	0	45	104	0	77	18165
2026-01-28 08:08:00.19	29.51	4.44	-52.8	-54.9	6.2	0.00e+00	0	44	104	0	77	18172
2026-01-28 08:08:01.20	29.65	4.50	-52.8	-54.9	6.2	0.00e+00	0	44	104	0	77	18076
2026-01-28 08:08:02.21	29.79	4.56	-52.8	-54.9	6.2	0.00e+00	0	44	104	0	77	18131
2026-01-28 08:08:03.22	29.92	4.61	-52.8	-54.9	6.2	0.00e+00	0	45	104	0	77	18178
2026-01-28 08:08:04.23	30.06	4.67	-52.8	-54.9	6.2	0.00e+00	0	44	104	0	77	18121
2026-01-28 08:08:05.23	30.20	4.72	-52.8	-54.9	6.2	0.00e+00	0	45	104	0	77	18143
2026-01-28 08:08:06.24	30.34	4.78	-52.8	-54.9	6.2	0.00e+00	0	45	104	0	77	18061
2026-01-28 08:08:07.25	30.48	4.84	-52.8	-54.9	6.2	0.00e+00	0	44	104	0	77	18113
2026-01-28 08:08:08.26	30.62	4.89	-52.8	-54.9	6.2	0.00e+00	0	45	104	0	77	18110
2026-01-28 08:08:09.27	30.76	4.95	-52.8	-54.9	6.2	0.00e+00	0	45	104	0	77	18130
2026-01-28 08:08:10.28	30.91	5.01	-52.8	-54.9	6.2	0.00e+00	0	45	104	0	77	18072
2026-01-28 08:08:11.29	31.05	5.07	-53.0	-55.1	6.2	0.00e+00	0	45	104	0	77	18555
2026-01-28 08:08:12.29	31.19	5.12	-51.7	-53.7	6.2	0.00e+00	0	45	104	0	75	17747
2026-01-28 08:08:13.30	31.34	5.18	-49.2	-51.3	6.2	0.00e+00	0	45	104	0	70	17856
2026-01-28 08:08:14.30	31.48	5.23	-49.1	-51.3	6.2	0.00e+00	0	45	104	0	70	17812
2026-01-28 08:08:15.31	31.63	5.29	-49.1	-51.2	6.2	0.00e+00	0	45	104	0	70	17602
2026-01-28 08:08:16.32	31.77	5.35	-49.1	-51.2	6.2	0.00e+00	0	45	104	0	70	17674
2026-01-28 08:08:17.33	31.92	5.41	-49.1	-51.2	6.2	0.00e+00	0	45	104	0	70	17672
2026-01-28 08:08:18.34	32.07	5.46	-49.1	-51.2	6.2	0.00e+00	0	45	104	0	70	17626
2026-01-28 08:08:19.35	32.21	5.52	-49.1	-51.2	6.2	0.00e+00	0	45	104	0	70	17651
2026-01-28 08:08:20.35	32.36	5.58	-49.1	-51.2	6.2	0.00e+00	0	45	104	0	70	17573
2026-01-28 08:08:21.36	32.51	5.63	-49.0	-51.2	6.2	0.00e+00	0	45	104	0	70	17628
2026-01-28 08:08:22.37	32.66	5.69	-49.0	-51.1	6.2	0.00e+00	0	45	104	0	70	17543
2026-01-28 08:08:23.38	32.81	5.75	-49.0	-51.1	6.2	0.00e+00	0	45	104	0	70	17532
2026-01-28 08:08:24.39	32.97	5.81	-49.0	-51.1	6.2	0.00e+00	0	45	104	0	70	17533
2026-01-28 08:08:25.40	33.12	5.86	-49.0	-51.2	6.2	0.00e+00	0	45	104	0	70	17566
2026-01-28 08:08:26.41	33.27	5.92	-49.0	-51.1	6.2	0.00e+00	0	45	104	0	70	17517
2026-01-28 08:08:27.41	33.42	5.98	-49.0	-51.1	6.2	0.00e+00	0	45	104	0	70	17551
2026-01-28 08:08:28.43	33.58	6.03	-49.0	-51.1	6.2	0.00e+00	0	45	104	0	70	17510
2026-01-28 08:08:29.43	33.73	6.09	-49.0	-51.2	6.2	0.00e+00	0	45	104	0	70	17573
2026-01-28 08:08:30.44	33.89	6.15	-49.0	-51.1	6.2	0.00e+00	0	45	104	0	70	17554
2026-01-28 08:08:31.45	34.05	6.20	-49.0	-51.1	6.2	0.00e+00	0	45	104	0	70	17481
2026-01-28 08:08:32.46	34.20	6.26	-49.0	-51.1	6.2	0.00e+00	0	45	104	0	70	17560
2026-01-28 08:08:33.47	34.36	6.32	-49.0	-51.1	6.2	0.00e+00	0	45	104	0	70	17511
2026-01-28 08:08:34.48	34.52	6.38	-49.0	-51.1	6.2	0.00e+00	0	45	104	0	70	17485
2026-01-28 08:08:35.49	34.68	6.43	-49.0	-51.1	6.2	0.00e+00	0	45	104	0	70	17500
2026-01-28 08:08:36.49	34.84	6.49	-49.0	-51.1	6.2	0.00e+00	0	45	104	0	70	17471
2026-01-28 08:08:37.50	35.00	6.55	-49.0	-51.1	6.2	0.00e+00	0	45	104	0	70	17521
2026-01-28 08:08:38.51	35.16	6.61	-49.0	-51.1	6.2	0.00e+00	0	45	104	0	70	17460
2026-01-28 08:08:39.52	35.33	6.66	-49.0	-51.1	6.2	0.00e+00	0	45	104	0	70	17494
2026-01-28 08:08:40.53	35.49	6.72	-49.0	-51.1	6.2	0.00e+00	0	45	104	0	70	17501
2026-01-28 08:08:41.53	35.65	6.78	-49.0	-51.1	6.2	0.00e+00	0	45	104	0	70	17473
2026-01-28 08:08:42.54	35.82	6.83	-49.0	-51.1	6.2	0.00e+00	0	45	104	0	70	17416
2026-01-28 08:08:43.55	35.98	6.89	-49.0	-51.1	6.2	0.00e+00	0	45	104	0	70	17464
2026-01-28 08:08:44.56	36.15	6.95	-49.0	-51.1	6.2	0.00e+00	0	45	104	0	70	17476
2026-01-28 08:08:45.57	36.32	7.01	-49.0	-51.1	6.2	0.00e+00	0	45	104	0	70	17457
2026-01-28 08:08:46.57	36.48	7.06	-48.9	-51.1	6.2	0.00e+00	0	45	104	0	69	18415
2026-01-28 08:08:47.58	36.65	7.12	-49.0	-51.1	6.2	0.00e+00	0	45	104	0	69	18475
2026-01-28 08:08:48.59	36.82	7.18	-48.9	-51.1	6.2	0.00e+00	0	45	104	0	69	18451
2026-01-28 08:08:49.60	36.99	7.23	-49.0	-51.1	6.2	0.00e+00	0	45	104	0	69	18506
2026-01-28 08:08:50.61	37.17	7.29	-49.0	-51.1	6.2	0.00e+00	0	45	104	0	69	18407
2026-01-28 08:08:51.61	37.34	7.35	-48.9	-51.1	6.2	0.00e+00	0	45	104	0	69	18394
2026-01-28 08:08:52.62	37.51	7.40	-49.0	-51.1	6.2	0.00e+00	0	45	104	0	69	18485
2026-01-28 08:08:53.62	37.68	7.46	-48.9	-51.0	6.2	0.00e+00	0	45	104	0	69	18367
2026-01-28 08:08:54.63	37.85	7.52	-48.9	-51.1	6.2	0.00e+00	0	45	104	0	69	18404
2026-01-28 08:08:55.64	38.03	7.57	-48.9	-51.1	6.2	0.00e+00	0	45	104	0	69	18434
2026-01-28 08:08:56.64	38.20	7.63	-48.9	-51.1	6.2	0.00e+00	0	45	104	0	69	18519
2026-01-28 08:08:57.65	38.38	7.69	-48.9	-51.1	6.2	0.00e+00	0	45	104	0	69	18424
2026-01-28 08:08:58.66	38.56	7.74	-48.9	-51.0	6.2	0.00e+00	0	45	104	0	69	18369
2026-01-28 08:08:59.67	38.74	7.80	-48.9	-51.0	6.2	0.00e+00	0	45	104	0	69	18370
2026-01-28 08:09:00.68	38.92	7.86	-48.9	-51.0	6.2	0.00e+00	0	45	104	0	69	18378
2026-01-28 08:09:01.69	39.10	7.92	-48.9	-51.0	6.2	0.00e+00	0	45	104	0	69	18375
2026-01-28 08:09:02.70	39.28	7.97	-48.9	-51.1	6.2	0.00e+00	0	45	104	0	69	18423
2026-01-28 08:09:03.71	39.46	8.03	-48.9	-51.1	6.2	0.00e+00	0	45	104	0	69	18405
2026-01-28 08:09:04.72	39.64	8.09	-48.9	-51.0	6.2	0.00e+00	0	45	104	0	69	18355
2026-01-28 08:09:05.73	39.83	8.14	-48.9	-51.1	6.2	0.00e+00	0	45	104	0	69	18404
2026-01-28 08:09:06.74	40.01	8.20	-48.9	-51.0	6.2	0.00e+00	0	45	104	0	69	18379
2026-01-28 08:09:07.75	40.20	8.25	-48.9	-51.1	6.2	0.00e+00	0	45	104	0	69	18419
2026-01-28 08:09:08.76	40.38	8.31	-48.9	-51.0	6.2	0.00e+00	0	45	104	0	69	18371
2026-01-28 08:09:09.77	40.57	8.37	-48.9	-51.0	6.2	0.00e+00	0	45	104	0	69	18382
2026-01-28 08:09:10.78	40.76	8.42	-48.9	-51.1	6.2	0.00e+00	0	45	104	0	69	18402
2026-01-28 08:09:11.79	40.95	8.48	-48.9	-51.0	6.2	0.00e+00	0	45	104	0	69	18372
2026-01-28 08:09:12.80	41.14	8.54	-48.9	-51.0	6.2	0.00e+00	0	45	104	0	69	18365
2026-01-28 08:09:13.81	41.33	8.59	-48.9	-51.0	6.2	0.00e+00	0	45	104	0	69	18345
2026-01-28 08:09:14.82	41.52	8.65	-48.9	-51.1	6.2	0.00e+00	0	45	104	0	69	18398
2026-01-28 08:09:15.83	41.71	8.70	-48.9	-51.0	6.2	0.00e+00	0	45	104	0	69	18368
2026-01-28 08:09:16.83	41.90	8.76	-48.9	-51.0	6.2	0.00e+00	0	45	104	0	69	18367
2026-01-28 08:09:17.85	42.10	8.81	-48.9	-51.0	6.2	0.00e+00	0	45	104	0	69	18354
2026-01-28 08:09:18.86	42.29	8.87	-48.9	-51.0	6.2	0.00e+00	0	45	104	0	69	18324
2026-01-28 08:09:19.87	42.49	8.93	-48.9	-51.0	6.2	0.00e+00	0	45	104	0	69	18348
2026-01-28 08:09:20.87	42.68	8.98	-48.9	-51.1	6.2	0.00e+00	0	45	104	0	69	18394
2026-01-28 08:09:21.88	42.88	9.04	-48.9	-51.0	6.2	0.00e+00	0	45	104	0	69	18326
2026-01-28 08:09:22.89	43.08	9.09	-48.9	-51.0	6.2	0.00e+00	0	46	104	0	69	18328
2026-01-28 08:09:23.90	43.27	9.15	-48.9	-51.0	6.2	0.00e+00	0	45	104	0	69	18349
2026-01-28 08:09:24.91	43.47	9.20	-48.9	-51.0	6.2	0.00e+00	0	45	104	0	69	18345
2026-01-28 08:09:25.92	43.68	9.26	-48.9	-51.0	6.2	0.00e+00	0	45	104	0	69	18374
2026-01-28 08:09:26.93	43.88	9.31	-48.9	-51.0	6.2	0.00e+00	0	45	104	0	69	18355
2026-01-28 08:09:27.93	44.08	9.37	-48.9	-51.0	6.2	0.00e+00	0	46	104	0	69	18358
2026-01-28 08:09:28.94	44.28	9.42	-48.9	-51.0	6.2	0.00e+00	0	45	104	0	69	18335
2026-01-28 08:09:29.95	44.49	9.47	-48.9	-51.0	6.2	0.00e+00	0	45	104	0	69	18362
2026-01-28 08:09:30.96	44.69	9.53	-48.9	-51.0	6.2	0.00e+00	0	45	104	0	69	18287
2026-01-28 08:09:31.97	44.90	9.58	-48.9	-51.0	6.2	0.00e+00	0	45	104	0	69	18313
2026-01-28 08:09:32.97	45.10	9.64	-48.9	-51.0	6.2	0.00e+00	0	45	104	0	69	18255
2026-01-28 08:09:33.98	45.31	9.69	-48.9	-51.0	6.2	0.00e+00	0	45	104	0	69	18334
2026-01-28 08:09:34.99	45.52	9.74	-48.9	-51.0	6.2	0.00e+00	0	45	104	0	69	18332
2026-01-28 08:09:36.00	45.73	9.80	-48.9	-51.0	6.2	0.00e+00	0	46	104	0	69	18321
2026-01-28 08:09:37.01	45.94	9.85	-48.9	-51.0	6.2	0.00e+00	0	45	104	0	69	18291
2026-01-28 08:09:38.01	46.15	9.90	-48.9	-51.0	6.2	0.00e+00	0	45	104	0	69	18289
2026-01-28 08:09:39.02	46.36	9.96	-48.9	-51.0	6.2	0.00e+00	0	45	104	0	69	18347
2026-01-28 08:09:40.03	46.57	10.01	-48.9	-51.0	6.2	0.00e+00	0	45	104	0	69	18285
2026-01-28 08:09:41.04	46.79	10.06	-48.9	-51.0	6.2	0.00e+00	0	45	104	0	69	18268
2026-01-28 08:09:42.04	47.00	10.11	-48.9	-51.0	6.2	0.00e+00	0	45	104	0	69	18307
2026-01-28 08:09:43.05	47.22	10.17	-48.9	-51.0	6.2	0.00e+00	0	45	104	0	69	18289
2026-01-28 08:09:44.06	47.43	10.22	-48.9	-51.0	6.2	0.00e+00	0	45	104	0	69	18311
2026-01-28 08:09:45.06	47.65	10.27	-48.9	-51.0	6.2	0.00e+00	0	45	104	0	69	18276
2026-01-28 08:09:46.07	47.87	10.32	-48.9	-51.0	6.2	0.00e+00	0	45	104	0	69	18246
2026-01-28 08:09:47.07	48.09	10.37	-48.9	-51.0	6.2	0.00e+00	0	45	104	0	69	18255
2026-01-28 08:09:48.08	48.31	10.43	-48.9	-51.0	6.2	0.00e+00	0	45	104	0	69	18286
2026-01-28 08:09:49.09	48.53	10.48	-48.9	-51.0	6.2	0.00e+00	0	45	104	0	69	18281
2026-01-28 08:09:50.10	48.75	10.53	-48.9	-51.0	6.2	0.00e+00	0	45	104	0	69	18294
2026-01-28 08:09:51.10	48.97	10.58	-48.9	-51.0	6.2	0.00e+00	0	46	104	0	69	18253
2026-01-28 08:09:52.11	49.20	10.63	-48.9	-51.0	6.2	0.00e+00	0	45	104	0	69	18261
2026-01-28 08:09:53.12	49.42	10.68	-48.9	-51.0	6.2	0.00e+00	0	45	104	0	69	18253
2026-01-28 08:09:54.13	49.65	10.73	-48.9	-51.0	6.2	0.00e+00	0	46	104	0	69	18265
2026-01-28 08:09:55.14	49.87	10.78	-48.9	-51.0	6.2	0.00e+00	0	45	104	0	69	18297
2026-01-28 08:09:56.14	50.10	10.83	-48.9	-51.0	6.2	0.00e+00	0	46	104	0	69	18227
2026-01-28 08:09:57.15	50.33	10.88	-48.9	-51.0	6.2	0.00e+00	0	46	104	0	69	18270
2026-01-28 08:09:58.15	50.56	10.93	-48.9	-51.0	6.2	0.00e+00	0	45	104	0	69	18185
2026-01-28 08:09:59.16	50.79	10.98	-48.9	-51.0	6.2	0.00e+00	0	46	104	0	69	18227
2026-01-28 08:10:00.17	51.02	11.03	-48.9	-51.0	6.2	0.00e+00	0	45	104	0	69	18288
2026-01-28 08:10:01.18	51.25	11.08	-48.9	-51.0	6.2	0.00e+00	0	45	104	0	69	18249
2026-01-28 08:10:02.19	51.48	11.12	-48.9	-51.0	6.2	0.00e+00	0	46	104	0	69	18215
2026-01-28 08:10:03.19	51.72	11.17	-48.9	-51.0	6.2	0.00e+00	0	45	104	0	69	18220
2026-01-28 08:10:04.20	51.95	11.22	-48.9	-51.0	6.2	0.00e+00	0	46	104	0	69	18206
2026-01-28 08:10:05.21	52.19	11.27	-48.9	-51.0	6.2	0.00e+00	0	45	104	0	69	18289
2026-01-28 08:10:06.21	52.42	11.32	-48.9	-51.0	6.2	0.00e+00	0	46	104	0	69	18215
2026-01-28 08:10:07.22	52.66	11.36	-48.9	-51.0	6.2	0.00e+00	0	45	104	0	69	18237
2026-01-28 08:10:08.23	52.90	11.41	-48.9	-51.0	6.2	0.00e+00	0	46	104	0	69	18314
2026-01-28 08:10:09.24	53.14	11.46	-48.9	-51.0	6.2	0.00e+00	0	45	104	0	69	18229
2026-01-28 08:10:10.25	53.38	11.50	-48.9	-51.0	6.2	0.00e+00	0	45	104	0	69	18228
2026-01-28 08:10:11.26	53.62	11.55	-48.9	-51.0	6.2	0.00e+00	0	46	104	0	69	18253
2026-01-28 08:10:12.27	53.86	11.59	-48.9	-51.0	6.2	0.00e+00	0	46	104	0	69	18200
2026-01-28 08:10:13.28	54.10	11.64	-48.9	-51.0	6.2	0.00e+00	0	46	104	0	69	18233
2026-01-28 08:10:14.29	54.35	11.69	-48.9	-51.0	6.2	0.00e+00	0	45	104	0	69	18212
2026-01-28 08:10:15.29	54.59	11.73	-48.9	-51.0	6.2	0.00e+00	0	46	104	0	69	18254
2026-01-28 08:10:16.30	54.84	11.77	-48.9	-51.0	6.2	0.00e+00	0	45	104	0	69	18216
2026-01-28 08:10:17.31	55.08	11.82	-48.9	-51.0	6.2	0.00e+00	0	46	104	0	69	18240
2026-01-28 08:10:18.32	55.33	11.86	-48.9	-50.9	6.2	0.00e+00	0	46	104	0	69	18177
2026-01-28 08:10:19.33	55.58	11.91	-48.9	-51.0	6.2	0.00e+00	0	45	104	0	69	18255
2026-01-28 08:10:20.34	55.83	11.95	-48.9	-51.0	6.2	0.00e+00	0	45	104	0	69	18207
2026-01-28 08:10:21.34	56.07	11.99	-48.8	-51.0	6.2	0.00e+00	0	45	104	0	69	18233
2026-01-28 08:10:22.35	56.32	12.04	-48.9	-51.0	6.2	0.00e+00	0	46	104	0	69	18192
2026-01-28 08:10:23.36	56.58	12.08	-48.9	-51.0	6.2	0.00e+00	0	45	104	0	69	18208
2026-01-28 08:10:24.37	56.83	12.12	-48.9	-51.0	6.2	0.00e+00	0	46	104	0	69	18229
2026-01-28 08:10:25.38	57.08	12.16	-48.9	-51.0	6.2	0.00e+00	0	46	104	0	69	18268
2026-01-28 08:10:26.38	57.33	12.20	-48.8	-51.0	6.2	0.00e+00	0	45	104	0	69	18289
2026-01-28 08:10:27.39	57.59	12.24	-48.8	-50.9	6.2	0.00e+00	0	46	104	0	69	18177
2026-01-28 08:10:28.40	57.84	12.28	-48.8	-51.0	6.2	0.00e+00	0	45	104	0	69	18211
2026-01-28 08:10:29.41	58.10	12.32	-48.9	-51.0	6.2	0.00e+00	0	45	104	0	69	18242
2026-01-28 08:10:30.42	58.36	12.36	-48.9	-51.0	6.2	0.00e+00	0	45	104	0	69	18183
2026-01-28 08:10:31.43	58.62	12.40	-48.8	-51.0	6.2	0.00e+00	0	46	104	0	69	18196
2026-01-28 08:10:32.44	58.88	12.44	-48.9	-51.0	6.2	0.00e+00	0	46	104	0	69	18261
2026-01-28 08:10:33.45	59.13	12.48	-48.8	-51.0	6.2	0.00e+00	0	45	104	0	69	18228
2026-01-28 08:10:34.45	59.39	12.52	-48.8	-51.0	6.2	0.00e+00	0	45	104	0	69	18274
2026-01-28 08:10:35.46	59.65	12.56	-48.9	-51.0	6.2	0.00e+00	0	45	104	0	69	18228
2026-01-28 08:10:36.47	59.92	12.59	-48.9	-51.0	6.2	0.00e+00	0	45	104	0	69	18226
2026-01-28 08:10:37.47	60.18	12.63	-48.9	-51.0	6.2	0.00e+00	0	46	104	0	69	18221
2026-01-28 08:10:38.48	60.44	12.67	-48.8	-51.0	6.2	0.00e+00	0	45	104	0	69	18221
2026-01-28 08:10:39.49	60.70	12.70	-48.8	-51.0	6.2	0.00e+00	0	45	104	0	69	18206
2026-01-28 08:10:40.50	60.97	12.74	-48.9	-50.9	6.2	0.00e+00	0	45	104	0	69	18179
2026-01-28 08:10:41.50	61.23	12.77	-48.9	-51.0	6.2	0.00e+00	0	45	104	0	69	18187
2026-01-28 08:10:42.51	61.50	12.81	-48.9	-51.0	6.2	0.00e+00	0	46	104	0	69	18227
2026-01-28 08:10:43.52	61.77	12.84	-48.8	-50.9	6.2	0.00e+00	0	45	104	0	69	18179
2026-01-28 08:10:44.53	62.03	12.88	-48.8	-51.0	6.2	0.00e+00	0	46	104	0	69	18187
2026-01-28 08:10:45.53	62.30	12.91	-48.8	-51.0	6.2	0.00e+00	0	45	104	0	69	18210
2026-01-28 08:10:46.54	62.57	12.94	-48.8	-50.9	6.2	0.00e+00	0	46	104	0	69	18177
2026-01-28 08:10:47.55	62.84	12.97	-48.8	-51.0	6.2	0.00e+00	0	46	104	0	69	18181
2026-01-28 08:10:48.56	63.11	13.01	-48.8	-51.0	6.2	0.00e+00	0	45	104	0	69	18251
2026-01-28 08:10:49.56	63.38	13.04	-48.8	-50.9	6.2	0.00e+00	0	46	104	0	69	18179
2026-01-28 08:10:50.57	63.65	13.07	-48.8	-51.0	6.2	0.00e+00	0	45	104	0	69	18238
2026-01-28 08:10:51.58	63.92	13.10	-48.8	-50.9	6.2	0.00e+00	0	46	104	0	69	18163
2026-01-28 08:10:52.59	64.20	13.13	-48.8	-50.9	6.2	0.00e+00	0	46	104	0	69	18159
2026-01-28 08:10:53.59	64.47	13.16	-48.8	-50.9	6.2	0.00e+00	0	46	104	0	69	18155
2026-01-28 08:10:54.60	64.74	13.19	-48.8	-50.9	6.2	0.00e+00	0	46	104	0	69	18129
2026-01-28 08:10:55.61	65.02	13.22	-48.8	-50.9	6.2	0.00e+00	0	45	104	0	69	18113
2026-01-28 08:10:56.62	65.30	13.25	-48.8	-51.0	6.2	0.00e+00	0	46	104	0	69	18211
2026-01-28 08:10:57.63	65.57	13.27	-48.8	-50.9	6.2	0.00e+00	0	45	104	0	69	18154
2026-01-28 08:10:58.63	65.85	13.30	-48.8	-51.0	6.2	0.00e+00	0	45	104	0	69	18189
2026-01-28 08:10:59.64	66.12	13.33	-48.8	-51.0	6.2	0.00e+00	0	45	104	0	69	18210
2026-01-28 08:11:00.65	66.40	13.35	-48.8	-50.9	6.2	0.00e+00	0	46	104	0	69	18154
2026-01-28 08:11:01.65	66.68	13.38	-48.8	-50.9	6.2	0.00e+00	0	45	104	0	69	18163
2026-01-28 08:11:02.66	66.96	13.41	-48.8	-50.9	6.2	0.00e+00	0	45	104	0	69	18147
2026-01-28 08:11:03.67	67.24	13.43	-48.8	-50.9	6.2	0.00e+00	0	46	104	0	69	18122
2026-01-28 08:11:04.68	67.52	13.45	-48.8	-51.0	6.2	0.00e+00	0	45	104	0	69	18182
2026-01-28 08:11:05.69	67.80	13.48	-48.8	-50.9	6.2	0.00e+00	0	46	104	0	69	18121
2026-01-28 08:11:06.70	68.08	13.50	-48.8	-50.9	6.2	0.00e+00	0	45	104	0	69	18173
2026-01-28 08:11:07.70	68.36	13.52	-48.8	-50.9	6.2	0.00e+00	0	45	104	0	69	18150
2026-01-28 08:11:08.71	68.64	13.55	-48.8	-50.9	6.2	0.00e+00	0	46	104	0	69	18130
2026-01-28 08:11:09.72	68.93	13.57	-48.8	-50.9	6.2	0.00e+00	0	46	104	0	69	18125
2026-01-28 08:11:10.73	69.21	13.59	-48.8	-51.0	6.2	0.00e+00	0	45	104	0	69	18204
2026-01-28 08:11:11.73	69.49	13.61	-48.8	-51.0	6.2	0.00e+00	0	45	104	0	69	18181
2026-01-28 08:11:12.74	69.78	13.63	-48.8	-50.9	6.2	0.00e+00	0	45	104	0	69	18145
2026-01-28 08:11:13.75	70.06	13.65	-48.8	-50.9	6.2	0.00e+00	0	45	104	0	69	18174
2026-01-28 08:11:14.76	70.35	13.67	-48.8	-51.0	6.2	0.00e+00	0	45	104	0	69	18231
2026-01-28 08:11:15.77	70.63	13.68	-48.8	-50.9	6.2	0.00e+00	0	46	104	0	69	18126
2026-01-28 08:11:16.77	70.91	13.70	-48.8	-50.9	6.2	0.00e+00	0	46	104	0	69	18157
2026-01-28 08:11:17.79	71.20	13.72	-48.8	-50.9	6.2	0.00e+00	0	45	104	0	69	18146
2026-01-28 08:11:18.79	71.49	13.73	-48.8	-51.0	6.2	0.00e+00	0	46	104	0	69	18192
2026-01-28 08:11:19.80	71.77	13.75	-48.9	-51.0	6.2	0.00e+00	0	45	104	0	69	18193
2026-01-28 08:11:20.81	72.06	13.77	-48.9	-51.0	6.2	0.00e+00	0	45	104	0	69	18247
2026-01-28 08:11:21.82	72.35	13.78	-48.9	-51.0	6.2	0.00e+00	0	46	104	0	69	18277
2026-01-28 08:11:22.83	72.64	13.79	-48.9	-51.0	6.2	0.00e+00	0	46	104	0	69	18210
2026-01-28 08:11:23.83	72.92	13.81	-48.9	-51.0	6.2	0.00e+00	0	46	104	0	69	18222
2026-01-28 08:11:24.84	73.21	13.82	-48.9	-51.0	6.2	0.00e+00	0	46	104	0	69	18219
2026-01-28 08:11:25.86	73.51	13.83	-48.9	-51.0	6.2	0.00e+00	0	46	104	0	69	18193
2026-01-28 08:11:26.86	73.79	13.84	-48.8	-51.0	6.2	0.00e+00	0	46	104	0	69	18221
2026-01-28 08:11:27.87	74.08	13.86	-48.9	-51.0	6.2	0.00e+00	0	46	104	0	69	18288
2026-01-28 08:11:28.88	74.37	13.87	-48.8	-51.0	6.2	0.00e+00	0	46	104	0	69	18198
2026-01-28 08:11:29.89	74.66	13.88	-48.8	-51.0	6.2	0.00e+00	0	46	104	0	69	18266
2026-01-28 08:11:30.89	74.95	13.89	-48.8	-50.9	6.2	0.00e+00	0	46	104	0	69	18167
2026-01-28 08:11:31.90	75.24	13.89	-48.8	-50.9	6.2	0.00e+00	0	46	104	0	69	18170
2026-01-28 08:11:32.91	75.53	13.90	-48.8	-51.0	6.2	0.00e+00	0	46	104	0	69	18209
2026-01-28 08:11:33.92	75.82	13.91	-48.8	-51.0	6.2	0.00e+00	0	46	104	0	69	18221
2026-01-28 08:11:34.93	76.11	13.92	-48.8	-51.0	6.2	0.00e+00	0	46	104	0	69	18233
2026-01-28 08:11:35.94	76.40	13.92	-48.9	-51.0	6.2	0.00e+00	0	46	104	0	69	18192
2026-01-28 08:11:36.94	76.69	13.93	-48.8	-51.0	6.2	0.00e+00	0	46	104	0	69	18184
2026-01-28 08:11:37.96	76.99	13.93	-48.8	-51.0	6.2	0.00e+00	0	45	104	0	69	18215
2026-01-28 08:11:38.96	77.28	13.94	-48.8	-51.0	6.2	0.00e+00	0	46	104	0	69	18226
2026-01-28 08:11:39.97	77.57	13.94	-48.8	-51.0	6.2	0.00e+00	0	46	104	0	69	18184
2026-01-28 08:11:40.98	77.86	13.95	-48.8	-51.0	6.2	0.00e+00	0	46	104	0	69	18180
2026-01-28 08:11:41.98	78.15	13.95	-48.8	-50.9	6.2	0.00e+00	0	46	104	0	69	18144
2026-01-28 08:11:42.99	78.44	13.95	-48.8	-51.0	6.2	0.00e+00	0	46	104	0	69	18213
2026-01-28 08:11:44.00	78.73	13.95	-48.8	-51.0	6.2	0.00e+00	0	46	104	0	69	18190
2026-01-28 08:11:45.01	79.02	13.95	-48.8	-51.0	6.2	0.00e+00	0	45	104	0	69	18226
2026-01-28 08:11:46.01	79.31	13.95	-48.8	-51.0	6.2	0.00e+00	0	46	104	0	69	18220
2026-01-28 08:11:47.02	79.61	13.95	-48.8	-51.0	6.2	0.00e+00	0	46	104	0	69	18181
2026-01-28 08:11:48.03	79.90	13.95	-48.8	-51.0	6.2	0.00e+00	0	46	104	0	69	18200
2026-01-28 08:11:49.04	80.19	13.95	-48.8	-51.0	6.2	0.00e+00	0	45	104	0	69	18207
2026-01-28 08:11:50.05	80.48	13.95	-48.8	-51.0	6.2	0.00e+00	0	46	104	0	69	18220
2026-01-28 08:11:51.05	80.77	13.94	-48.8	-50.9	6.2	0.00e+00	0	46	104	0	69	18133
2026-01-28 08:11:52.06	81.06	13.94	-48.8	-51.0	6.2	0.00e+00	0	46	104	0	69	18215
2026-01-28 08:11:53.07	81.35	13.94	-48.8	-51.0	6.2	0.00e+00	0	46	104	0	69	18214
2026-01-28 08:11:54.08	81.65	13.93	-48.8	-50.9	6.2	0.00e+00	0	45	104	0	69	18161
2026-01-28 08:11:55.09	81.94	13.93	-48.8	-50.9	6.2	0.00e+00	0	46	104	0	69	18124
2026-01-28 08:11:56.10	82.23	13.92	-48.8	-50.9	6.2	0.00e+00	0	46	104	0	69	18102
2026-01-28 08:11:57.11	82.52	13.91	-48.8	-50.9	6.2	0.00e+00	0	46	104	0	69	18141
2026-01-28 08:11:58.11	82.81	13.91	-48.8	-50.9	6.2	0.00e+00	0	46	104	0	69	18148
2026-01-28 08:11:59.12	83.10	13.90	-48.8	-51.0	6.2	0.00e+00	0	46	104	0	69	18190
2026-01-28 08:12:00.13	83.39	13.89	-48.8	-50.9	6.2	0.00e+00	0	46	104	0	69	18166
2026-01-28 08:12:01.13	83.68	13.88	-48.8	-50.9	6.2	0.00e+00	0	46	104	0	69	18163
2026-01-28 08:12:02.14	83.97	13.87	-48.8	-50.9	6.2	0.00e+00	0	46	104	0	69	18142
2026-01-28 08:12:03.15	84.26	13.86	-48.8	-51.0	6.2	0.00e+00	0	46	104	0	69	18218
2026-01-28 08:12:04.15	84.55	13.85	-48.8	-50.9	6.2	0.00e+00	0	46	104	0	69	18157
2026-01-28 08:12:05.16	84.84	13.84	-48.8	-51.0	6.2	0.00e+00	0	46	104	0	69	18212
2026-01-28 08:12:06.17	85.13	13.83	-48.8	-51.0	6.2	0.00e+00	0	46	104	0	69	18181
2026-01-28 08:12:07.18	85.42	13.82	-48.8	-50.9	6.2	0.00e+00	0	46	104	0	69	18160
2026-01-28 08:12:08.19	85.70	13.80	-48.8	-50.9	6.2	0.00e+00	0	46	104	0	69	18150
2026-01-28 08:12:09.20	85.99	13.79	-48.8	-50.9	6.2	0.00e+00	0	46	104	0	69	18147
2026-01-28 08:12:10.21	86.28	13.78	-48.8	-50.9	6.2	0.00e+00	0	46	104	0	69	18159
2026-01-28 08:12:11.21	86.57	13.76	-48.8	-50.9	6.2	0.00e+00	0	46	104	0	69	18115
2026-01-28 08:12:12.22	86.85	13.75	-48.8	-50.9	6.2	0.00e+00	0	46	104	0	69	18140
2026-01-28 08:12:13.22	87.14	13.73	-48.8	-50.9	6.2	0.00e+00	0	46	104	0	69	18173
2026-01-28 08:12:14.23	87.43	13.71	-48.8	-50.9	6.2	0.00e+00	0	46	104	0	69	18154
2026-01-28 08:12:15.24	87.71	13.70	-48.8	-50.9	6.2	0.00e+00	0	46	104	0	69	18140
2026-01-28 08:12:16.25	88.00	13.68	-48.8	-50.9	6.2	0.00e+00	0	46	104	0	69	18122
2026-01-28 08:12:17.25	88.28	13.66	-48.8	-50.9	6.2	0.00e+00	0	46	104	0	69	18103
2026-01-28 08:12:18.26	88.57	13.64	-48.8	-50.9	6.2	0.00e+00	0	46	104	0	69	18120
2026-01-28 08:12:19.27	88.85	13.62	-48.8	-50.9	6.2	0.00e+00	0	46	104	0	69	18138
2026-01-28 08:12:20.27	89.13	13.60	-48.8	-50.9	6.2	0.00e+00	0	46	104	0	69	18099
2026-01-28 08:12:21.28	89.42	13.58	-48.8	-50.9	6.2	0.00e+00	0	46	104	0	69	18102
2026-01-28 08:12:22.28	89.70	13.56	-48.8	-50.9	6.2	0.00e+00	0	46	104	0	69	18136
2026-01-28 08:12:23.29	89.98	13.54	-48.8	-50.9	6.2	0.00e+00	0	46	104	0	69	18091
2026-01-28 08:12:24.30	90.27	13.52	-48.8	-50.9	6.2	0.00e+00	0	45	104	0	69	18176
2026-01-28 08:12:25.30	90.55	13.49	-48.8	-50.9	6.2	0.00e+00	0	46	104	0	69	18128
2026-01-28 08:12:26.31	90.83	13.47	-48.8	-50.9	6.2	0.00e+00	0	46	104	0	69	18157
2026-01-28 08:12:27.32	91.11	13.45	-48.8	-50.9	6.2	0.00e+00	0	46	104	0	69	18106
2026-01-28 08:12:28.33	91.39	13.42	-48.8	-50.9	6.2	0.00e+00	0	46	104	0	69	18157
2026-01-28 08:12:29.33	91.67	13.40	-48.8	-50.9	6.2	0.00e+00	0	46	104	0	69	18134
2026-01-28 08:12:30.34	91.95	13.37	-48.8	-50.9	6.2	0.00e+00	0	46	104	0	69	18174
2026-01-28 08:12:31.35	92.23	13.35	-48.8	-50.9	6.2	0.00e+00	0	46	104	0	69	18122
2026-01-28 08:12:32.36	92.50	13.32	-48.8	-50.9	6.2	0.00e+00	0	46	104	0	69	18123
2026-01-28 08:12:33.37	92.78	13.29	-48.8	-50.9	6.2	0.00e+00	0	46	104	0	69	18119
2026-01-28 08:12:34.37	93.06	13.27	-48.8	-50.9	6.2	0.00e+00	0	46	104	0	69	18145
2026-01-28 08:12:35.38	93.33	13.24	-48.8	-50.9	6.2	0.00e+00	0	46	104	0	69	18112
2026-01-28 08:12:36.39	93.61	13.21	-48.8	-50.9	6.2	0.00e+00	0	46	104	0	69	18109
2026-01-28 08:12:37.40	93.89	13.18	-48.8	-50.9	6.2	0.00e+00	0	46	104	0	69	18091
2026-01-28 08:12:38.41	94.16	13.15	-48.8	-50.9	6.2	0.00e+00	0	46	104	0	69	18163
2026-01-28 08:12:39.41	94.43	13.12	-48.8	-50.9	6.2	0.00e+00	0	46	104	0	69	18116
2026-01-28 08:12:40.42	94.71	13.09	-48.8	-50.9	6.2	0.00e+00	0	46	104	0	69	18119
2026-01-28 08:12:41.43	94.98	13.06	-48.8	-50.9	6.2	0.00e+00	0	45	104	0	69	18092
2026-01-28 08:12:42.44	95.25	13.03	-48.8	-50.9	6.2	0.00e+00	0	46	104	0	69	18125
2026-01-28 08:12:43.44	95.52	13.00	-48.8	-50.9	6.2	0.00e+00	0	46	104	0	69	18074
2026-01-28 08:12:44.45	95.79	12.96	-48.8	-50.9	6.2	0.00e+00	0	45	104	0	69	18126
2026-01-28 08:12:45.46	96.06	12.93	-48.8	-51.0	6.2	0.00e+00	0	46	104	0	69	18180
2026-01-28 08:12:46.47	96.33	12.90	-48.8	-50.9	6.2	0.00e+00	0	45	104	0	69	18122
2026-01-28 08:12:47.48	96.60	12.86	-48.8	-50.9	6.2	0.00e+00	0	46	104	0	69	18080
2026-01-28 08:12:48.49	96.87	12.83	-48.8	-50.9	6.2	0.00e+00	0	46	104	0	69	18142
2026-01-28 08:12:49.49	97.14	12.80	-48.8	-50.9	6.2	0.00e+00	0	46	104	0	69	18080
2026-01-28 08:12:50.51	97.40	12.76	-48.8	-50.9	6.2	0.00e+00	0	46	104	0	69	18118
2026-01-28 08:12:51.51	97.67	12.72	-48.8	-50.9	6.2	0.00e+00	0	46	104	0	69	18134
2026-01-28 08:12:52.52	97.93	12.69	-48.8	-50.9	6.2	0.00e+00	0	46	104	0	69	18092
2026-01-28 08:12:53.53	98.20	12.65	-48.8	-50.9	6.2	0.00e+00	0	46	104	0	69	18078
2026-01-28 08:12:54.54	98.46	12.62	-48.8	-50.9	6.2	0.00e+00	0	46	104	0	69	18090
2026-01-28 08:12:55.55	98.73	12.58	-48.8	-50.9	6.2	0.00e+00	0	46	104	0	69	18142
2026-01-28 08:12:56.56	98.99	12.54	-48.8	-50.9	6.2	0.00e+00	0	46	104	0	69	18067
2026-01-28 08:12:57.57	99.25	12.50	-48.8	-50.9	6.2	0.00e+00	0	45	104	0	69	18146
2026-01-28 08:12:58.57	99.51	12.46	-48.8	-50.9	6.2	0.00e+00	0	46	104	0	69	18046
2026-01-28 08:12:59.58	99.77	12.43	-48.8	-50.9	6.2	0.00e+00	0	46	104	0	69	18046
2026-01-28 08:13:00.59	100.03	12.39	-48.8	-50.9	6.2	0.00e+00	0	46	104	0	69	18081
2026-01-28 08:13:01.59	100.28	12.35	-48.8	-50.9	6.2	0.00e+00	0	45	104	0	69	18088
2026-01-28 08:13:02.60	100.54	12.31	-48.8	-50.9	6.2	0.00e+00	0	46	104	0	69	18047
2026-01-28 08:13:03.61	100.80	12.27	-48.8	-50.9	6.2	0.00e+00	0	46	104	0	69	18063
2026-01-28 08:13:04.61	101.05	12.23	-48.8	-50.9	6.2	0.00e+00	0	46	104	0	69	18113
2026-01-28 08:13:05.62	101.31	12.19	-48.8	-50.9	6.2	0.00e+00	0	46	104	0	69	18042
2026-01-28 08:13:06.63	101.56	12.14	-48.8	-50.9	6.2	0.00e+00	0	46	104	0	69	18107
2026-01-28 08:13:07.64	101.81	12.10	-48.8	-50.9	6.2	0.00e+00	0	46	104	0	69	18094
2026-01-28 08:13:08.65	102.07	12.06	-48.8	-50.9	6.2	0.00e+00	0	45	104	0	69	18090
2026-01-28 08:13:09.66	102.32	12.02	-48.8	-50.9	6.2	0.00e+00	0	46	104	0	69	18145
2026-01-28 08:13:10.66	102.57	11.97	-48.8	-50.9	6.2	0.00e+00	0	46	104	0	69	18130
2026-01-28 08:13:11.67	102.82	11.93	-48.8	-50.9	6.2	0.00e+00	0	46	104	0	69	18088
2026-01-28 08:13:12.68	103.07	11.89	-48.8	-50.9	6.2	0.00e+00	0	46	104	0	69	18119
2026-01-28 08:13:13.69	103.32	11.84	-48.8	-50.9	6.2	0.00e+00	0	46	104	0	69	18110
2026-01-28 08:13:14.70	103.56	11.80	-48.8	-50.9	6.2	0.00e+00	0	46	104	0	69	18109
2026-01-28 08:13:15.70	103.81	11.76	-48.8	-50.9	6.2	0.00e+00	0	46	104	0	69	18095
2026-01-28 08:13:16.71	104.05	11.71	-48.8	-50.9	6.2	0.00e+00	0	46	104	0	69	18063
2026-01-28 08:13:17.72	104.30	11.67	-48.8	-50.9	6.2	0.00e+00	0	46	104	0	69	18128
2026-01-28 08:13:18.73	104.54	11.62	-48.8	-50.9	6.2	0.00e+00	0	46	104	0	69	18080
2026-01-28 08:13:19.73	104.79	11.57	-48.8	-50.9	6.2	0.00e+00	0	46	104	0	69	18074
2026-01-28 08:13:20.74	105.03	11.53	-48.8	-50.9	6.2	0.00e+00	0	46	104	0	69	18071
2026-01-28 08:13:21.75	105.27	11.48	-48.8	-50.9	6.2	0.00e+00	0	46	104	0	69	18073
2026-01-28 08:13:22.76	105.51	11.44	-48.8	-50.9	6.2	0.00e+00	0	46	104	0	69	18060
2026-01-28 08:13:23.77	105.75	11.39	-48.8	-50.9	6.2	0.00e+00	0	46	104	0	69	18068
2026-01-28 08:13:24.78	105.99	11.34	-48.8	-50.9	6.2	0.00e+00	0	46	104	0	69	18074
2026-01-28 08:13:25.79	106.23	11.29	-48.8	-50.9	6.2	0.00e+00	0	46	104	0	69	18115
2026-01-28 08:13:26.79	106.46	11.25	-48.8	-50.9	6.2	0.00e+00	0	46	104	0	69	18101
2026-01-28 08:13:27.80	106.70	11.20	-48.8	-50.9	6.2	0.00e+00	0	46	104	0	69	18073
2026-01-28 08:13:28.81	106.93	11.15	-48.8	-50.9	6.2	0.00e+00	0	46	104	0	69	18136
2026-01-28 08:13:29.82	107.17	11.10	-48.8	-50.9	6.2	0.00e+00	0	46	104	0	69	18100
2026-01-28 08:13:30.83	107.40	11.05	-48.8	-50.9	6.2	0.00e+00	0	46	104	0	69	18056
2026-01-28 08:13:31.84	107.63	11.00	-48.8	-50.9	6.2	0.00e+00	0	46	104	0	69	18060
2026-01-28 08:13:32.84	107.86	10.95	-48.8	-50.9	6.2	0.00e+00	0	46	104	0	69	18109
2026-01-28 08:13:33.85	108.10	10.90	-48.8	-50.9	6.2	0.00e+00	0	46	104	0	69	18064
2026-01-28 08:13:34.86	108.33	10.85	-48.8	-50.9	6.2	0.00e+00	0	46	104	0	69	18063
2026-01-28 08:13:35.87	108.55	10.80	-48.8	-50.9	6.2	0.00e+00	0	46	104	0	69	18074
2026-01-28 08:13:36.88	108.78	10.75	-48.8	-50.9	6.2	0.00e+00	0	46	104	0	69	18058
2026-01-28 08:13:37.89	109.01	10.70	-48.8	-50.9	6.2	0.00e+00	0	46	104	0	69	18086
2026-01-28 08:13:38.90	109.24	10.65	-48.8	-50.9	6.2	0.00e+00	0	46	104	0	69	18065
2026-01-28 08:13:39.90	109.46	10.60	-48.8	-50.9	6.2	0.00e+00	0	46	104	0	69	18043
2026-01-28 08:13:40.91	109.68	10.55	-48.8	-50.9	6.2	0.00e+00	0	46	104	0	69	18103
2026-01-28 08:13:41.91	109.91	10.50	-48.8	-50.9	6.2	0.00e+00	0	46	104	0	69	18086
2026-01-28 08:13:42.92	110.13	10.45	-48.8	-50.9	6.2	0.00e+00	0	46	104	0	69	18048
2026-01-28 08:13:43.93	110.35	10.40	-48.8	-50.9	6.2	0.00e+00	0	46	104	0	69	18031
2026-01-28 08:13:44.94	110.57	10.35	-48.8	-50.9	6.2	0.00e+00	0	46	104	0	69	18070
2026-01-28 08:13:45.95	110.79	10.29	-48.8	-50.9	6.2	0.00e+00	0	46	104	0	69	18068
2026-01-28 08:13:46.96	111.01	10.24	-48.8	-50.9	6.2	0.00e+00	0	46	104	0	69	18019
2026-01-28 08:13:47.97	111.23	10.19	-48.8	-50.9	6.2	0.00e+00	0	46	104	0	69	18064
2026-01-28 08:13:48.97	111.44	10.14	-48.8	-50.9	6.2	0.00e+00	0	46	104	0	69	18018
2026-01-28 08:13:49.98	111.66	10.08	-48.8	-50.9	6.2	0.00e+00	0	46	104	0	69	18054
2026-01-28 08:13:50.99	111.88	10.03	-48.8	-50.9	6.2	0.00e+00	0	46	104	0	69	18091
2026-01-28 08:13:52.00	112.09	9.98	-48.8	-50.9	6.2	0.00e+00	0	46	104	0	69	18114
2026-01-28 08:13:53.01	112.30	9.92	-48.8	-50.9	6.2	0.00e+00	0	46	104	0	69	18056
2026-01-28 08:13:54.02	112.52	9.87	-48.8	-50.9	6.2	0.00e+00	0	46	104	0	69	18069
2026-01-28 08:13:55.03	112.73	9.82	-48.8	-50.9	6.2	0.00e+00	0	46	104	0	69	18122
2026-01-28 08:13:56.03	112.94	9.76	-48.8	-50.9	6.2	0.00e+00	0	46	104	0	69	18064
2026-01-28 08:13:57.04	113.15	9.71	-48.8	-50.9	6.2	0.00e+00	0	46	104	0	69	18049
2026-01-28 08:13:58.05	113.36	9.66	-48.8	-50.9	6.2	0.00e+00	0	46	104	0	69	18050
2026-01-28 08:13:59.05	113.56	9.60	-48.8	-50.9	6.2	0.00e+00	0	46	104	0	69	18038
2026-01-28 08:14:00.06	113.77	9.55	-48.8	-50.9	6.2	0.00e+00	0	46	104	0	69	18064
2026-01-28 08:14:01.07	113.98	9.49	-48.8	-50.9	6.2	0.00e+00	0	46	104	0	69	18087
2026-01-28 08:14:02.08	114.18	9.44	-48.8	-50.9	6.2	0.00e+00	0	46	104	0	69	18064
2026-01-28 08:14:03.09	114.39	9.38	-48.8	-50.9	6.2	0.00e+00	0	46	104	0	69	18042
2026-01-28 08:14:04.09	114.59	9.33	-48.8	-50.9	6.2	0.00e+00	0	46	104	0	69	18045
2026-01-28 08:14:05.10	114.79	9.27	-48.8	-50.9	6.2	0.00e+00	0	46	104	0	69	18052
2026-01-28 08:14:06.11	114.99	9.22	-48.8	-50.9	6.2	0.00e+00	0	46	104	0	69	17989
2026-01-28 08:14:07.12	115.19	9.16	-48.8	-50.9	6.2	0.00e+00	0	46	104	0	69	18072
2026-01-28 08:14:08.13	115.39	9.11	-48.8	-50.9	6.2	0.00e+00	0	46	104	0	69	18079
2026-01-28 08:14:09.13	115.59	9.05	-48.8	-50.9	6.2	0.00e+00	0	46	104	0	69	18064
2026-01-28 08:14:10.14	115.79	9.00	-48.8	-50.9	6.2	0.00e+00	0	46	104	0	69	18030
2026-01-28 08:14:11.15	115.99	8.94	-48.8	-50.9	6.2	0.00e+00	0	46	104	0	69	18042
2026-01-28 08:14:12.15	116.18	8.89	-48.8	-50.9	6.2	0.00e+00	0	46	104	0	69	18016
2026-01-28 08:14:13.16	116.38	8.83	-48.8	-50.9	6.2	0.00e+00	0	46	104	0	69	18073
2026-01-28 08:14:14.17	116.57	8.78	-48.8	-50.9	6.2	0.00e+00	0	46	104	0	69	18030
2026-01-28 08:14:15.17	116.77	8.72	-48.8	-50.9	6.2	0.00e+00	0	46	104	0	69	18070
2026-01-28 08:14:16.18	116.96	8.66	-48.8	-50.9	6.2	0.00e+00	0	46	104	0	69	18094
2026-01-28 08:14:17.19	117.15	8.61	-48.8	-50.9	6.2	0.00e+00	0	46	104	0	69	18029
2026-01-28 08:14:18.19	117.34	8.55	-48.8	-50.9	6.2	0.00e+00	0	46	104	0	69	18051
2026-01-28 08:14:19.20	117.53	8.50	-48.8	-50.9	6.2	0.00e+00	0	46	104	0	69	18024
2026-01-28 08:14:20.21	117.72	8.44	-48.8	-50.9	6.2	0.00e+00	0	46	104	0	69	18078
2026-01-28 08:14:21.22	117.91	8.38	-48.8	-50.9	6.2	0.00e+00	0	46	104	0	69	18014
2026-01-28 08:14:22.22	118.10	8.33	-48.8	-50.9	6.2	0.00e+00	0	46	104	0	69	18035
2026-01-28 08:14:23.23	118.28	8.27	-48.8	-50.9	6.2	0.00e+00	0	46	104	0	69	18029
2026-01-28 08:14:24.24	118.47	8.21	-48.8	-50.9	6.2	0.00e+00	0	46	104	0	69	18094
2026-01-28 08:14:25.24	118.65	8.16	-48.8	-50.9	6.2	0.00e+00	0	46	104	0	69	18088
2026-01-28 08:14:26.25	118.84	8.10	-48.8	-50.9	6.2	0.00e+00	0	46	104	0	69	18072
2026-01-28 08:14:27.26	119.02	8.04	-48.8	-50.9	6.2	0.00e+00	0	46	104	0	69	18015
2026-01-28 08:14:28.27	119.20	7.99	-48.8	-50.9	6.2	0.00e+00	0	46	104	0	69	18024
2026-01-28 08:14:29.28	119.39	7.93	-48.8	-50.9	6.2	0.00e+00	0	46	104	0	69	18074
2026-01-28 08:14:30.29	119.57	7.87	-48.8	-50.9	6.2	0.00e+00	0	46	104	0	69	18005
2026-01-28 08:14:31.29	119.75	7.82	-48.8	-50.9	6.2	0.00e+00	0	46	104	0	69	18012
2026-01-28 08:14:32.30	119.93	7.76	-48.8	-50.9	6.2	0.00e+00	0	46	104	0	69	18052
2026-01-28 08:14:33.31	120.11	7.70	-48.8	-50.9	6.2	0.00e+00	0	46	104	0	69	17986
2026-01-28 08:14:34.31	120.28	7.65	-48.8	-50.9	6.2	0.00e+00	0	46	104	0	69	18052
2026-01-28 08:14:35.32	120.46	7.59	-48.8	-50.9	6.2	0.00e+00	0	46	104	0	69	18015
2026-01-28 08:14:36.33	120.63	7.53	-48.8	-50.9	6.2	0.00e+00	0	46	104	0	69	18012
2026-01-28 08:14:37.33	120.81	7.47	-48.7	-50.9	6.2	0.00e+00	0	46	104	0	69	17993
2026-01-28 08:14:38.34	120.98	7.42	-48.7	-50.9	6.2	0.00e+00	0	46	104	0	69	18008
2026-01-28 08:14:39.35	121.16	7.36	-48.7	-50.9	6.2	0.00e+00	0	45	104	0	69	18016
2026-01-28 08:14:40.36	121.33	7.30	-48.8	-50.9	6.2	0.00e+00	0	46	104	0	69	18007
2026-01-28 08:14:41.37	121.50	7.24	-48.8	-50.9	6.2	0.00e+00	0	46	104	0	69	17990
2026-01-28 08:14:42.37	121.67	7.19	-48.8	-50.9	6.2	0.00e+00	0	46	104	0	69	18010
2026-01-28 08:14:43.38	121.84	7.13	-48.8	-50.9	6.2	0.00e+00	0	46	104	0	69	17983
2026-01-28 08:14:44.39	122.01	7.07	-48.7	-50.9	6.2	0.00e+00	0	46	104	0	69	17998
2026-01-28 08:14:45.40	122.18	7.02	-48.8	-50.9	6.2	0.00e+00	0	46	104	0	69	18052
2026-01-28 08:14:46.41	122.35	6.96	-48.7	-50.9	6.2	0.00e+00	0	46	104	0	69	18075
2026-01-28 08:14:47.42	122.52	6.90	-48.8	-50.9	6.2	0.00e+00	0	46	104	0	69	18035
2026-01-28 08:14:48.42	122.68	6.84	-48.8	-50.9	6.2	0.00e+00	0	46	104	0	69	18055
2026-01-28 08:14:49.43	122.85	6.79	-48.8	-50.9	6.2	0.00e+00	0	46	104	0	69	18045
2026-01-28 08:14:50.44	123.01	6.73	-48.8	-50.9	6.2	0.00e+00	0	46	104	0	69	18029
2026-01-28 08:14:51.45	123.18	6.67	-48.8	-50.8	6.2	0.00e+00	0	46	104	0	69	17971
2026-01-28 08:14:52.46	123.34	6.61	-48.8	-50.9	6.2	0.00e+00	0	46	104	0	69	18034
2026-01-28 08:14:53.47	123.51	6.56	-48.8	-50.9	6.2	0.00e+00	0	46	104	0	69	18014
2026-01-28 08:14:54.47	123.67	6.50	-48.7	-50.8	6.2	0.00e+00	0	46	104	0	69	17964
2026-01-28 08:14:55.48	123.83	6.44	-48.8	-50.9	6.2	0.00e+00	0	46	104	0	69	18040
2026-01-28 08:14:56.49	123.99	6.38	-48.8	-50.9	6.2	0.00e+00	0	46	104	0	69	18049
2026-01-28 08:14:57.49	124.15	6.33	-48.7	-50.9	6.2	0.00e+00	0	46	104	0	69	18020
2026-01-28 08:14:58.50	124.31	6.27	-48.8	-50.9	6.2	0.00e+00	0	46	104	0	69	17994
2026-01-28 08:14:59.51	124.46	6.21	-48.7	-50.9	6.2	0.00e+00	0	46	104	0	69	18054
2026-01-28 08:15:00.52	124.62	6.15	-48.7	-50.9	6.2	0.00e+00	0	46	104	0	69	18057
2026-01-28 08:15:01.53	124.78	6.10	-48.7	-50.9	6.2	0.00e+00	0	46	104	0	69	18040
2026-01-28 08:15:02.54	124.94	6.04	-48.7	-50.9	6.2	0.00e+00	0	46	104	0	69	18028
2026-01-28 08:15:03.54	125.09	5.98	-48.7	-50.9	6.2	0.00e+00	0	46	104	0	69	18008
2026-01-28 08:15:04.55	125.24	5.92	-48.8	-50.9	6.2	0.00e+00	0	46	104	0	69	18017
2026-01-28 08:15:05.56	125.40	5.87	-48.7	-50.9	6.2	0.00e+00	0	46	104	0	69	18020
2026-01-28 08:15:06.57	125.55	5.81	-48.7	-50.8	6.2	0.00e+00	0	46	104	0	69	17967
2026-01-28 08:15:07.57	125.70	5.75	-48.8	-50.9	6.2	0.00e+00	0	46	104	0	69	18024
2026-01-28 08:15:08.58	125.85	5.69	-48.7	-50.9	6.2	0.00e+00	0	46	104	0	69	17987
2026-01-28 08:15:09.59	126.01	5.64	-48.7	-50.9	6.2	0.00e+00	0	46	104	0	69	17996
2026-01-28 08:15:10.60	126.16	5.58	-48.7	-50.9	6.2	0.00e+00	0	46	104	0	69	17984
2026-01-28 08:15:11.60	126.30	5.52	-48.7	-50.9	6.2	0.00e+00	0	46	104	0	69	18019
2026-01-28 08:15:12.61	126.45	5.46	-48.7	-50.9	6.2	0.00e+00	0	46	104	0	69	17993
2026-01-28 08:15:13.62	126.60	5.41	-48.7	-50.9	6.2	0.00e+00	0	46	104	0	69	17994
2026-01-28 08:15:14.63	126.75	5.35	-48.7	-50.9	6.2	0.00e+00	0	46	104	0	69	17995
2026-01-28 08:15:15.63	126.90	5.29	-48.7	-50.8	6.2	0.00e+00	0	46	104	0	69	17964
2026-01-28 08:15:16.64	127.04	5.24	-48.7	-50.9	6.2	0.00e+00	0	46	104	0	69	17985
2026-01-28 08:15:17.65	127.19	5.18	-48.7	-50.9	6.2	0.00e+00	0	46	104	0	69	18006
2026-01-28 08:15:18.65	127.33	5.12	-48.7	-50.9	6.2	0.00e+00	0	46	104	0	69	17996
2026-01-28 08:15:19.66	127.48	5.06	-48.7	-50.9	6.2	0.00e+00	0	46	104	0	69	17993
2026-01-28 08:15:20.67	127.62	5.01	-48.7	-50.8	6.2	0.00e+00	0	46	104	0	69	17956
2026-01-28 08:15:21.68	127.76	4.95	-48.7	-50.8	6.2	0.00e+00	0	46	104	0	69	17969
2026-01-28 08:15:22.69	127.90	4.89	-48.7	-50.8	6.2	0.00e+00	0	46	104	0	69	17946
2026-01-28 08:15:23.69	128.04	4.84	-48.7	-50.9	6.2	0.00e+00	0	46	104	0	69	17985
2026-01-28 08:15:24.70	128.19	4.78	-48.7	-50.9	6.2	0.00e+00	0	46	104	0	69	18028
2026-01-28 08:15:25.71	128.33	4.72	-48.7	-50.9	6.2	0.00e+00	0	46	104	0	69	17981
2026-01-28 08:15:26.71	128.46	4.67	-48.7	-50.9	6.2	0.00e+00	0	46	104	0	69	17972
2026-01-28 08:15:27.72	128.60	4.61	-48.7	-50.8	6.2	0.00e+00	0	46	104	0	69	17946
2026-01-28 08:15:28.72	128.74	4.55	-48.7	-50.8	6.2	0.00e+00	0	46	104	0	69	17954
2026-01-28 08:15:29.73	128.88	4.50	-48.7	-50.8	6.2	0.00e+00	0	46	104	0	69	17930
2026-01-28 08:15:30.74	129.02	4.44	-48.7	-50.8	6.2	0.00e+00	0	46	104	0	69	17928
2026-01-28 08:15:31.75	129.15	4.38	-48.7	-50.8	6.2	0.00e+00	0	46	104	0	69	17960
2026-01-28 08:15:32.76	129.29	4.32	-48.7	-50.9	6.2	0.00e+00	0	46	104	0	69	17998
2026-01-28 08:15:33.76	129.42	4.27	-48.7	-50.9	6.2	0.00e+00	0	46	104	0	69	17985
2026-01-28 08:15:34.77	129.56	4.21	-48.7	-50.8	6.2	0.00e+00	0	46	104	0	69	17905
2026-01-28 08:15:35.78	129.69	4.16	-48.7	-50.9	6.2	0.00e+00	0	46	104	0	69	17976
2026-01-28 08:15:36.79	129.82	4.10	-48.7	-50.9	6.2	0.00e+00	0	46	104	0	69	17985
2026-01-28 08:15:37.80	129.96	4.04	-48.7	-50.9	6.2	0.00e+00	0	46	104	0	69	17973
2026-01-28 08:15:38.81	130.09	3.99	-48.7	-50.8	6.2	0.00e+00	0	46	104	0	69	17959
2026-01-28 08:15:39.81	130.22	3.93	-48.7	-50.8	6.2	0.00e+00	0	46	104	0	69	17960
2026-01-28 08:15:40.82	130.35	3.87	-48.7	-50.8	6.2	0.00e+00	0	46	104	0	69	17917
2026-01-28 08:15:41.83	130.48	3.82	-48.7	-50.8	6.2	0.00e+00	0	46	104	0	69	17960
2026-01-28 08:15:42.84	130.61	3.76	-48.7	-50.8	6.2	0.00e+00	0	46	104	0	69	17946
2026-01-28 08:15:43.85	130.74	3.70	-48.7	-50.8	6.2	0.00e+00	0	46	104	0	69	17939
2026-01-28 08:15:44.86	130.87	3.65	-48.7	-50.8	6.2	0.00e+00	0	46	104	0	69	17948
2026-01-28 08:15:45.87	131.00	3.59	-48.7	-50.9	6.2	0.00e+00	0	46	104	0	69	18043
2026-01-28 08:15:46.88	131.12	3.54	-48.7	-50.8	6.2	0.00e+00	0	46	104	0	69	17956
2026-01-28 08:15:47.89	131.25	3.48	-48.7	-50.8	6.2	0.00e+00	0	46	104	0	69	17955
2026-01-28 08:15:48.89	131.38	3.42	-48.7	-50.8	6.2	0.00e+00	0	46	104	0	69	17969
2026-01-28 08:15:49.90	131.50	3.37	-48.7	-50.8	6.2	0.00e+00	0	46	104	0	69	17967
2026-01-28 08:15:50.91	131.63	3.31	-48.7	-50.8	6.2	0.00e+00	0	46	104	0	69	17915
2026-01-28 08:15:51.92	131.75	3.26	-48.7	-50.8	6.2	0.00e+00	0	46	104	0	69	17967
2026-01-28 08:15:52.93	131.88	3.20	-48.7	-50.8	6.2	0.00e+00	0	46	104	0	69	17953
2026-01-28 08:15:53.93	132.00	3.14	-48.7	-50.8	6.2	0.00e+00	0	46	104	0	69	17942
2026-01-28 08:15:54.94	132.12	3.09	-48.7	-50.9	6.2	0.00e+00	0	46	104	0	69	17985
2026-01-28 08:15:55.95	132.24	3.03	-48.7	-50.9	6.2	0.00e+00	0	46	104	0	69	17983
2026-01-28 08:15:56.96	132.37	2.98	-48.7	-50.9	6.2	0.00e+00	0	46	104	0	69	18009
2026-01-28 08:15:57.97	132.49	2.92	-48.7	-50.9	6.2	0.00e+00	0	46	104	0	69	17990
2026-01-28 08:15:58.97	132.61	2.87	-48.7	-50.9	6.2	0.00e+00	0	46	104	0	69	18029
2026-01-28 08:15:59.98	132.73	2.81	-48.7	-50.8	6.2	0.00e+00	0	46	104	0	69	17945
2026-01-28 08:16:00.99	132.85	2.76	-48.7	-50.8	6.2	0.00e+00	0	46	104	0	69	17966
2026-01-28 08:16:02.00	132.97	2.70	-48.7	-50.8	6.2	0.00e+00	0	46	104	0	69	17942
2026-01-28 08:16:03.01	133.08	2.65	-48.7	-50.8	6.2	0.00e+00	0	46	104	0	69	17964
2026-01-28 08:16:04.01	133.20	2.59	-48.7	-50.9	6.2	0.00e+00	0	46	104	0	69	17974
2026-01-28 08:16:05.02	133.32	2.54	-48.7	-50.9	6.2	0.00e+00	0	46	104	0	69	18001
2026-01-28 08:16:06.03	133.44	2.48	-48.7	-50.9	6.2	0.00e+00	0	46	104	0	69	17975
2026-01-28 08:16:07.04	133.55	2.43	-48.7	-50.9	6.2	0.00e+00	0	46	104	0	69	17972
2026-01-28 08:16:08.05	133.67	2.37	-48.7	-50.9	6.2	0.00e+00	0	46	104	0	69	17991
2026-01-28 08:16:09.05	133.78	2.32	-48.7	-50.8	6.2	0.00e+00	0	46	104	0	69	17964
2026-01-28 08:16:10.06	133.90	2.26	-48.7	-50.9	6.2	0.00e+00	0	46	104	0	69	17974
2026-01-28 08:16:11.07	134.01	2.21	-48.7	-50.9	6.2	0.00e+00	0	46	104	0	69	17987
2026-01-28 08:16:12.08	134.13	2.15	-48.7	-50.9	6.2	0.00e+00	0	46	104	0	69	17984
2026-01-28 08:16:13.09	134.24	2.10	-48.7	-50.8	6.2	0.00e+00	0	46	104	0	69	17906
2026-01-28 08:16:14.10	134.35	2.04	-48.7	-50.9	6.2	0.00e+00	0	46	104	0	69	18001
2026-01-28 08:16:15.10	134.46	1.99	-48.7	-50.9	6.2	0.00e+00	0	46	104	0	69	17976

#Closed at: 2026-01-28 08:16:15
#Recorded file [0 MB]: D:/lorett/data/31041_260128_110716.dat