passes_logs/2026/01/28/R3.2S_Murmansk/R3.2S_Murmansk__20260128_020809_SUOMI_NPP_rec.log

#Pass ID: 20260128_020809_SUOMI NPP
#Satellite: SUOMI NPP
#Configuration: NPP
#almurnet v.1.7.20251203
#Start time: 2026-01-28 02:08:09

#Version: 2.2.20231116
#Station: R3.2S_Murmansk
#Location: 33.079688 lon 68.888172 lat
#TLE: 1 37849U 11061A   26027.29799992  .00000188  00000+0  11027-3 0  9993
#TLE: 2 37849  98.7822 329.2414 0002113  42.5791 317.5548 14.19530708738457

#Time	Az	El	Level	Level2	SNR	BER	BlckErr	Temp	State	Recorded	gain1	gain2
2026-01-28 02:08:09.25	31.12	2.00	-54.0	-69.0	3.8	1.49e+00	0	41	0	0	79	20484
2026-01-28 02:08:10.25	31.09	2.07	-53.9	-69.0	3.8	1.49e+00	0	41	104	0	78	21524
2026-01-28 02:08:11.26	31.06	2.13	-53.9	-68.9	3.8	1.49e+00	0	41	104	0	78	21453
2026-01-28 02:08:12.27	31.03	2.19	-54.0	-68.9	3.8	1.49e+00	0	41	104	0	78	21432
2026-01-28 02:08:13.27	31.00	2.26	-54.2	-69.2	3.8	1.49e+00	0	41	104	0	78	22052
2026-01-28 02:08:14.28	30.97	2.32	-54.1	-69.2	3.8	1.49e+00	0	41	104	0	78	22024
2026-01-28 02:08:15.28	30.94	2.38	-54.2	-69.1	3.8	1.49e+00	0	41	104	0	78	21978
2026-01-28 02:08:16.29	30.91	2.45	-54.2	-69.1	3.8	1.49e+00	0	41	104	0	78	21936
2026-01-28 02:08:17.31	30.88	2.51	-54.2	-69.1	3.8	1.49e+00	0	41	104	0	78	21970
2026-01-28 02:08:18.31	30.85	2.58	-54.1	-69.1	3.8	1.49e+00	0	41	104	0	78	21960
2026-01-28 02:08:19.33	30.82	2.64	-54.1	-69.1	3.8	1.49e+00	0	41	104	0	78	21933
2026-01-28 02:08:20.33	30.79	2.70	-54.1	-69.1	3.8	1.49e+00	0	41	104	0	78	21887
2026-01-28 02:08:21.33	30.76	2.77	-54.1	-69.0	3.8	1.49e+00	0	41	104	0	78	21712
2026-01-28 02:08:22.34	30.72	2.83	-54.0	-69.0	3.8	1.49e+00	0	41	104	0	78	21541
2026-01-28 02:08:23.35	30.69	2.90	-54.0	-69.0	3.8	1.49e+00	0	41	104	0	78	21516
2026-01-28 02:08:24.36	30.66	2.96	-54.0	-69.0	3.8	1.49e+00	0	41	104	0	78	21519
2026-01-28 02:08:25.36	30.63	3.03	-54.0	-68.9	3.8	1.49e+00	0	41	104	0	78	21459
2026-01-28 02:08:26.37	30.60	3.09	-53.9	-68.8	3.8	1.49e+00	0	41	104	0	78	21230
2026-01-28 02:08:27.38	30.57	3.16	-53.8	-68.8	3.8	1.49e+00	0	41	104	0	78	21084
2026-01-28 02:08:28.38	30.53	3.22	-53.7	-68.7	3.8	1.49e+00	0	41	104	0	78	20904
2026-01-28 02:08:29.39	30.50	3.29	-53.6	-68.6	3.8	1.49e+00	0	41	104	0	78	20658
2026-01-28 02:08:30.40	30.47	3.35	-53.5	-68.5	3.8	1.49e+00	0	41	104	0	78	20354
2026-01-28 02:08:31.41	30.44	3.42	-53.4	-68.3	3.8	1.49e+00	0	42	104	0	78	20044
2026-01-28 02:08:32.42	30.40	3.49	-53.2	-68.1	3.8	1.49e+00	0	42	104	0	78	19536
2026-01-28 02:08:33.43	30.37	3.55	-52.9	-67.9	3.8	1.49e+00	0	41	104	0	77	20140
2026-01-28 02:08:34.44	30.34	3.62	-52.5	-67.1	3.8	1.49e+00	0	41	104	0	77	18399
2026-01-28 02:08:35.45	30.30	3.69	-51.9	-65.1	3.8	1.49e+00	0	41	104	0	75	16369
2026-01-28 02:08:36.46	30.27	3.75	-51.7	-62.2	4.5	1.35e+00	9	42	0	0	75	11784
2026-01-28 02:08:37.46	30.24	3.82	-51.6	-61.5	4.9	7.69e-01	0	42	0	2097152	75	10887
2026-01-28 02:08:38.47	30.20	3.89	-51.5	-60.7	5.4	6.83e-01	0	42	0	4194304	75	9907
2026-01-28 02:08:39.48	30.17	3.95	-51.4	-60.4	5.5	5.03e-01	0	42	0	6291456	74	10122
2026-01-28 02:08:40.49	30.13	4.02	-51.4	-60.1	5.7	3.97e-01	0	42	0	7340032	74	9828
2026-01-28 02:08:41.50	30.10	4.09	-51.4	-60.0	5.8	3.80e-01	0	42	0	9437184	74	9687
2026-01-28 02:08:42.51	30.06	4.15	-51.4	-60.0	5.9	3.83e-01	0	42	0	11534336	74	9609
2026-01-28 02:08:43.52	30.03	4.22	-51.3	-59.4	6.3	3.52e-01	0	42	0	13631488	74	9033
2026-01-28 02:08:44.53	30.00	4.29	-51.1	-58.8	6.8	2.44e-01	0	42	0	15728640	74	8407
2026-01-28 02:08:45.53	29.96	4.36	-51.0	-58.1	7.4	1.29e-01	0	42	0	16777216	74	7769
2026-01-28 02:08:46.54	29.92	4.43	-50.8	-57.2	8.3	7.58e-02	0	42	0	18874368	73	7387
2026-01-28 02:08:47.55	29.89	4.49	-50.5	-56.2	9.3	2.44e-02	0	42	0	20971520	73	6627
2026-01-28 02:08:48.55	29.85	4.56	-50.3	-55.7	9.9	1.10e-02	0	42	0	23068672	72	6589
2026-01-28 02:08:49.56	29.82	4.63	-50.1	-55.1	10.5	8.05e-03	0	42	0	25165824	72	6147
2026-01-28 02:08:50.57	29.78	4.70	-50.0	-54.7	10.9	2.86e-03	0	42	0	27262976	72	5896
2026-01-28 02:08:51.58	29.75	4.77	-49.9	-54.3	11.3	1.15e-03	0	42	0	28311552	71	5972
2026-01-28 02:08:52.59	29.71	4.84	-49.8	-54.2	11.5	7.90e-04	0	42	0	30408704	71	5884
2026-01-28 02:08:53.59	29.67	4.91	-49.7	-54.0	11.8	5.51e-04	0	42	0	32505856	71	5741
2026-01-28 02:08:54.60	29.64	4.98	-49.9	-54.3	11.4	9.52e-04	0	42	0	34603008	71	5986
2026-01-28 02:08:55.61	29.60	5.05	-50.8	-57.1	8.8	3.15e-03	0	42	0	35651584	72	7797
2026-01-28 02:08:56.62	29.56	5.12	-51.0	-57.6	7.9	3.18e-01	0	42	0	37748736	73	7774
2026-01-28 02:08:57.63	29.52	5.19	-50.5	-55.9	10.2	2.86e-03	0	42	0	39845888	71	7203
2026-01-28 02:08:58.63	29.49	5.26	-47.6	-50.1	14.9	1.30e+00	0	42	104	40894464	67	4608
2026-01-28 02:08:59.64	29.45	5.33	-50.8	-56.7	9.7	0.00e+00	0	42	0	41943040	71	7853
2026-01-28 02:09:00.64	29.41	5.40	-48.9	-52.0	5.8	1.43e+00	0	42	104	41943040	69	5152
2026-01-28 02:09:01.65	29.37	5.47	-46.8	-48.9	16.9	0.00e+00	0	42	0	42991616	65	4500
2026-01-28 02:09:02.66	29.33	5.54	-47.0	-49.1	16.8	0.00e+00	0	42	0	45088768	65	4638
2026-01-28 02:09:03.67	29.30	5.61	-46.9	-49.0	16.9	0.00e+00	0	42	0	46137344	65	4562
2026-01-28 02:09:04.68	29.26	5.68	-46.9	-49.0	16.9	0.00e+00	0	42	0	48234496	65	4574
2026-01-28 02:09:05.69	29.22	5.75	-46.9	-48.9	16.9	0.00e+00	0	42	0	50331648	65	4541
2026-01-28 02:09:06.69	29.18	5.82	-46.6	-48.6	17.3	0.00e+00	0	42	0	52428800	65	4369
2026-01-28 02:09:07.70	29.14	5.90	-46.7	-48.7	17.2	0.00e+00	0	42	0	54525952	65	4417
2026-01-28 02:09:08.71	29.10	5.97	-46.4	-48.3	17.6	0.00e+00	0	42	0	55574528	64	4447
2026-01-28 02:09:09.72	29.06	6.04	-46.3	-48.2	17.8	0.00e+00	0	42	0	57671680	64	4401
2026-01-28 02:09:10.73	29.02	6.11	-46.4	-48.4	17.6	0.00e+00	0	42	0	59768832	64	4497
2026-01-28 02:09:11.73	28.98	6.18	-46.3	-48.2	17.8	0.00e+00	0	42	0	61865984	64	4395
2026-01-28 02:09:12.74	28.94	6.26	-46.4	-48.3	17.6	0.00e+00	0	42	0	62914560	64	4478
2026-01-28 02:09:13.75	28.90	6.33	-46.5	-48.4	17.5	0.00e+00	0	42	0	65011712	64	4526
2026-01-28 02:09:14.76	28.86	6.40	-46.3	-48.2	17.8	0.00e+00	0	42	0	67108864	64	4397
2026-01-28 02:09:15.77	28.82	6.48	-46.4	-48.3	17.7	0.00e+00	0	42	0	69206016	64	4459
2026-01-28 02:09:16.77	28.77	6.55	-46.4	-48.3	17.7	0.00e+00	0	42	0	71303168	64	4461
2026-01-28 02:09:17.78	28.73	6.62	-46.4	-48.2	17.7	0.00e+00	0	42	0	73400320	64	4435
2026-01-28 02:09:18.78	28.69	6.70	-46.2	-48.1	17.9	0.00e+00	0	42	0	74448896	64	4349
2026-01-28 02:09:19.79	28.65	6.77	-46.3	-48.2	17.8	0.00e+00	0	42	0	76546048	64	4415
2026-01-28 02:09:20.79	28.61	6.85	-46.3	-48.1	17.9	0.00e+00	0	42	0	78643200	64	4377
2026-01-28 02:09:21.80	28.56	6.92	-46.2	-48.0	17.9	0.00e+00	0	42	0	80740352	64	4337
2026-01-28 02:09:22.81	28.52	6.99	-46.2	-48.0	18.0	0.00e+00	0	42	0	82837504	64	4317
2026-01-28 02:09:23.82	28.48	7.07	-46.2	-48.1	18.0	0.00e+00	0	43	0	83886080	64	4346
2026-01-28 02:09:24.82	28.44	7.14	-46.1	-47.9	18.1	0.00e+00	0	42	0	85983232	64	4284
2026-01-28 02:09:25.83	28.39	7.22	-46.2	-48.0	18.1	0.00e+00	0	42	0	88080384	64	4309
2026-01-28 02:09:26.84	28.35	7.29	-46.2	-48.0	18.0	0.00e+00	0	42	0	90177536	64	4312
2026-01-28 02:09:27.85	28.30	7.37	-46.1	-47.8	18.2	0.00e+00	0	42	0	91226112	64	4228
2026-01-28 02:09:28.85	28.26	7.45	-46.2	-48.0	18.2	0.00e+00	0	42	0	93323264	63	4578
2026-01-28 02:09:29.86	28.22	7.52	-46.3	-48.0	18.1	0.00e+00	0	42	0	95420416	63	4598
2026-01-28 02:09:30.87	28.17	7.60	-46.3	-48.1	18.1	0.00e+00	0	42	0	97517568	63	4626
2026-01-28 02:09:31.88	28.13	7.67	-46.2	-48.0	18.2	0.00e+00	0	42	0	99614720	63	4583
2026-01-28 02:09:32.89	28.08	7.75	-46.2	-47.9	18.2	0.00e+00	0	42	0	101711872	63	4535
2026-01-28 02:09:33.89	28.03	7.83	-46.2	-47.9	18.2	0.00e+00	0	42	0	102760448	63	4530
2026-01-28 02:09:34.90	27.99	7.91	-46.2	-48.0	18.2	0.00e+00	0	42	0	104857600	63	4546
2026-01-28 02:09:35.91	27.94	7.98	-46.0	-47.8	18.4	0.00e+00	0	42	0	106954752	63	4442
2026-01-28 02:09:36.92	27.90	8.06	-46.1	-47.9	18.3	0.00e+00	0	42	0	109051904	63	4512
2026-01-28 02:09:37.93	27.85	8.14	-46.0	-47.7	18.6	0.00e+00	0	42	0	111149056	63	4400
2026-01-28 02:09:38.93	27.80	8.22	-46.1	-47.8	18.4	0.00e+00	0	43	0	112197632	63	4472
2026-01-28 02:09:39.94	27.76	8.29	-46.0	-47.7	18.6	0.00e+00	0	42	0	114294784	63	4397
2026-01-28 02:09:40.94	27.71	8.37	-46.0	-47.7	18.6	0.00e+00	0	42	0	116391936	63	4397
2026-01-28 02:09:41.95	27.66	8.45	-46.0	-47.7	18.5	0.00e+00	0	42	0	118489088	63	4405
2026-01-28 02:09:42.96	27.61	8.53	-46.1	-47.8	18.5	0.00e+00	0	42	0	120586240	63	4460
2026-01-28 02:09:43.97	27.56	8.61	-46.1	-47.8	18.5	0.00e+00	0	42	0	121634816	63	4443
2026-01-28 02:09:44.98	27.51	8.69	-45.8	-47.5	18.8	0.00e+00	0	43	0	123731968	63	4292
2026-01-28 02:09:45.99	27.47	8.77	-45.9	-47.5	18.8	0.00e+00	0	43	0	125829120	63	4318
2026-01-28 02:09:46.99	27.42	8.85	-46.0	-47.7	18.6	0.00e+00	0	43	0	127926272	63	4398
2026-01-28 02:09:48.00	27.37	8.93	-45.9	-47.6	18.7	0.00e+00	0	43	0	130023424	63	4366
2026-01-28 02:09:49.00	27.32	9.01	-46.0	-47.6	18.6	0.00e+00	0	43	0	131072000	63	4386
2026-01-28 02:09:50.01	27.27	9.09	-46.1	-47.8	18.5	0.00e+00	0	43	0	133169152	63	4460
2026-01-28 02:09:51.02	27.22	9.17	-45.8	-47.5	18.8	0.00e+00	0	43	0	135266304	63	4307
2026-01-28 02:09:52.03	27.17	9.25	-45.9	-47.5	18.8	0.00e+00	0	43	0	137363456	63	4312
2026-01-28 02:09:53.04	27.12	9.33	-45.9	-47.5	18.8	0.00e+00	0	42	0	139460608	63	4325
2026-01-28 02:09:54.04	27.06	9.41	-45.8	-47.4	18.8	0.00e+00	0	43	0	140509184	63	4289
2026-01-28 02:09:55.05	27.01	9.49	-45.8	-47.5	18.8	0.00e+00	0	43	0	142606336	63	4298
2026-01-28 02:09:56.06	26.96	9.58	-46.0	-47.7	18.7	0.00e+00	0	42	0	144703488	63	4397
2026-01-28 02:09:57.07	26.91	9.66	-45.8	-47.4	18.9	0.00e+00	0	42	0	146800640	63	4263
2026-01-28 02:09:58.07	26.86	9.74	-45.7	-47.3	19.0	0.00e+00	0	43	0	148897792	63	4205
2026-01-28 02:09:59.08	26.80	9.82	-45.6	-47.2	19.1	0.00e+00	0	43	0	149946368	63	4175
2026-01-28 02:10:00.09	26.75	9.91	-45.7	-47.3	19.0	0.00e+00	0	43	0	152043520	63	4240
2026-01-28 02:10:01.10	26.70	9.99	-45.6	-47.1	19.2	0.00e+00	0	43	0	154140672	63	4145
2026-01-28 02:10:02.11	26.64	10.07	-45.8	-47.4	19.0	0.00e+00	0	43	0	156237824	63	4258
2026-01-28 02:10:03.12	26.59	10.16	-45.8	-47.4	18.9	0.00e+00	0	43	0	158334976	63	4275
2026-01-28 02:10:04.13	26.53	10.24	-45.7	-47.3	19.1	0.00e+00	0	43	0	159383552	63	4213
2026-01-28 02:10:05.13	26.48	10.32	-45.7	-47.3	19.1	0.00e+00	0	43	0	161480704	63	4214
2026-01-28 02:10:06.14	26.42	10.41	-45.8	-47.4	19.0	0.00e+00	0	43	0	163577856	63	4268
2026-01-28 02:10:07.14	26.37	10.49	-45.7	-47.3	19.1	0.00e+00	0	43	0	165675008	63	4229
2026-01-28 02:10:08.15	26.31	10.58	-45.7	-47.3	19.1	0.00e+00	0	43	0	167772160	63	4201
2026-01-28 02:10:09.16	26.26	10.66	-45.7	-47.3	19.1	0.00e+00	0	42	0	169869312	63	4211
2026-01-28 02:10:10.17	26.20	10.75	-45.7	-47.2	19.1	0.00e+00	0	43	0	170917888	63	4179
2026-01-28 02:10:11.17	26.14	10.83	-45.8	-47.3	19.0	0.00e+00	0	42	0	173015040	63	4232
2026-01-28 02:10:12.18	26.09	10.92	-45.7	-47.3	19.1	0.00e+00	0	43	0	175112192	63	4207
2026-01-28 02:10:13.19	26.03	11.01	-45.6	-47.1	19.2	0.00e+00	0	42	0	177209344	63	4127
2026-01-28 02:10:14.20	25.97	11.09	-45.5	-47.0	19.3	0.00e+00	0	43	0	178257920	62	4323
2026-01-28 02:10:15.21	25.91	11.18	-45.6	-47.2	19.2	0.00e+00	0	43	0	180355072	62	4396
2026-01-28 02:10:16.22	25.85	11.27	-45.5	-47.0	19.3	0.00e+00	0	43	0	182452224	62	4336
2026-01-28 02:10:17.23	25.79	11.36	-45.4	-46.9	19.4	0.00e+00	0	43	0	184549376	62	4270
2026-01-28 02:10:18.23	25.74	11.44	-45.4	-46.9	19.4	0.00e+00	0	42	0	186646528	62	4265
2026-01-28 02:10:19.24	25.68	11.53	-45.5	-47.0	19.4	0.00e+00	0	43	0	187695104	62	4303
2026-01-28 02:10:20.25	25.61	11.62	-45.5	-47.0	19.4	0.00e+00	0	43	0	189792256	62	4307
2026-01-28 02:10:21.26	25.55	11.71	-45.4	-46.9	19.5	0.00e+00	0	43	0	191889408	62	4253
2026-01-28 02:10:22.27	25.49	11.80	-45.5	-47.1	19.4	0.00e+00	0	43	0	193986560	62	4344
2026-01-28 02:10:23.27	25.43	11.89	-45.4	-46.9	19.5	0.00e+00	0	43	0	196083712	62	4276
2026-01-28 02:10:24.28	25.37	11.98	-45.5	-47.0	19.3	0.00e+00	0	43	0	198180864	62	4336
2026-01-28 02:10:25.29	25.31	12.07	-45.4	-46.9	19.5	0.00e+00	0	43	0	199229440	62	4260
2026-01-28 02:10:26.29	25.25	12.15	-45.4	-46.8	19.5	0.00e+00	0	43	0	201326592	62	4233
2026-01-28 02:10:27.30	25.18	12.24	-45.4	-46.9	19.4	0.00e+00	0	43	0	203423744	62	4287
2026-01-28 02:10:28.31	25.12	12.34	-45.4	-46.9	19.5	0.00e+00	0	43	0	205520896	62	4252
2026-01-28 02:10:29.32	25.05	12.43	-45.4	-46.9	19.5	0.00e+00	0	43	0	206569472	62	4281
2026-01-28 02:10:30.33	24.99	12.52	-45.4	-46.8	19.6	0.00e+00	0	43	0	208666624	62	4237
2026-01-28 02:10:31.32	24.93	12.61	-45.4	-46.9	19.5	0.00e+00	0	43	0	210763776	62	4279
2026-01-28 02:10:32.33	24.86	12.70	-45.3	-46.8	19.6	0.00e+00	0	43	0	212860928	62	4221
2026-01-28 02:10:33.34	24.80	12.79	-45.4	-46.8	19.6	0.00e+00	0	43	0	214958080	62	4231
2026-01-28 02:10:34.34	24.73	12.88	-45.5	-47.0	19.5	0.00e+00	0	43	0	216006656	62	4300
2026-01-28 02:10:35.35	24.66	12.98	-45.4	-46.9	19.5	0.00e+00	0	43	0	218103808	62	4268
2026-01-28 02:10:36.36	24.60	13.07	-45.4	-46.9	19.6	0.00e+00	0	43	0	220200960	62	4253
2026-01-28 02:10:37.37	24.53	13.16	-45.5	-47.0	19.5	0.00e+00	0	43	0	222298112	62	4320
2026-01-28 02:10:38.37	24.46	13.26	-45.4	-46.9	19.5	0.00e+00	0	43	0	224395264	62	4268
2026-01-28 02:10:39.38	24.39	13.35	-45.3	-46.7	19.7	0.00e+00	0	43	0	226492416	62	4170
2026-01-28 02:10:40.39	24.32	13.45	-45.4	-46.9	19.6	0.00e+00	0	43	0	227540992	62	4264
2026-01-28 02:10:41.40	24.26	13.54	-45.6	-47.1	19.4	0.00e+00	0	43	0	229638144	62	4372
2026-01-28 02:10:42.40	24.19	13.63	-45.4	-46.9	19.6	0.00e+00	0	43	0	231735296	62	4260
2026-01-28 02:10:43.41	24.12	13.73	-45.5	-47.0	19.5	0.00e+00	0	43	0	233832448	62	4312
2026-01-28 02:10:44.42	24.05	13.83	-45.6	-47.1	19.4	0.00e+00	0	43	0	234881024	62	4375
2026-01-28 02:10:45.43	23.97	13.92	-45.7	-47.3	19.2	0.00e+00	0	43	0	236978176	62	4472
2026-01-28 02:10:46.44	23.90	14.02	-45.6	-47.1	19.4	0.00e+00	0	43	0	239075328	62	4390
2026-01-28 02:10:47.45	23.83	14.12	-45.7	-47.2	19.3	0.00e+00	0	43	0	241172480	62	4417
2026-01-28 02:10:48.45	23.76	14.21	-45.6	-47.1	19.4	0.00e+00	0	43	0	243269632	62	4356
2026-01-28 02:10:49.46	23.69	14.31	-45.5	-47.0	19.5	0.00e+00	0	43	0	245366784	62	4298
2026-01-28 02:10:50.47	23.61	14.41	-45.7	-47.3	19.2	0.00e+00	0	43	0	246415360	62	4454
2026-01-28 02:10:51.47	23.54	14.50	-45.6	-47.1	19.4	0.00e+00	0	43	0	248512512	62	4385
2026-01-28 02:10:52.48	23.46	14.60	-45.5	-47.0	19.5	0.00e+00	0	43	0	250609664	62	4324
2026-01-28 02:10:53.49	23.39	14.70	-45.5	-47.0	19.5	0.00e+00	0	43	0	252706816	62	4322
2026-01-28 02:10:54.50	23.31	14.80	-45.5	-47.1	19.4	0.00e+00	0	43	0	254803968	62	4355
2026-01-28 02:10:55.51	23.24	14.90	-45.4	-46.9	19.6	0.00e+00	0	43	0	255852544	62	4283
2026-01-28 02:10:56.52	23.16	15.00	-45.3	-46.7	19.8	0.00e+00	0	43	0	257949696	62	4182
2026-01-28 02:10:57.52	23.08	15.10	-45.4	-47.0	19.6	0.00e+00	0	43	0	260046848	62	4294
2026-01-28 02:10:58.53	23.00	15.20	-45.5	-47.0	19.5	0.00e+00	0	43	0	262144000	62	4327
2026-01-28 02:10:59.54	22.93	15.30	-45.5	-47.0	19.5	0.00e+00	0	43	0	263192576	62	4321
2026-01-28 02:11:00.55	22.85	15.40	-45.6	-47.2	19.4	0.00e+00	0	43	0	265289728	62	4392
2026-01-28 02:11:01.55	22.77	15.50	-45.6	-47.1	19.5	0.00e+00	0	43	0	267386880	62	4365
2026-01-28 02:11:02.56	22.69	15.61	-45.6	-47.1	19.5	0.00e+00	0	43	0	269484032	62	4387
2026-01-28 02:11:03.56	22.61	15.71	-45.8	-47.3	19.3	0.00e+00	0	42	0	271581184	62	4474
2026-01-28 02:11:04.57	22.53	15.81	-45.5	-47.0	19.6	0.00e+00	0	43	0	273678336	62	4331
2026-01-28 02:11:05.58	22.45	15.91	-45.6	-47.2	19.4	0.00e+00	0	43	0	274726912	62	4401
2026-01-28 02:11:06.58	22.36	16.02	-45.7	-47.2	19.4	0.00e+00	0	43	0	276824064	62	4421
2026-01-28 02:11:07.59	22.28	16.12	-45.7	-47.2	19.4	0.00e+00	0	43	0	278921216	62	4439
2026-01-28 02:11:08.60	22.20	16.22	-45.7	-47.2	19.4	0.00e+00	0	43	0	281018368	62	4431
2026-01-28 02:11:09.61	22.11	16.33	-45.6	-47.1	19.5	0.00e+00	0	43	0	283115520	62	4367
2026-01-28 02:11:10.61	22.03	16.43	-45.8	-47.3	19.4	0.00e+00	0	43	0	284164096	62	4453
2026-01-28 02:11:11.62	21.94	16.54	-45.7	-47.2	19.5	0.00e+00	0	43	0	286261248	62	4402
2026-01-28 02:11:12.63	21.86	16.64	-45.7	-47.2	19.5	0.00e+00	0	43	0	288358400	62	4409
2026-01-28 02:11:13.63	21.77	16.75	-45.7	-47.1	19.5	0.00e+00	0	43	0	290455552	62	4388
2026-01-28 02:11:14.64	21.68	16.86	-45.6	-47.1	19.6	0.00e+00	0	43	0	291504128	62	4347
2026-01-28 02:11:15.65	21.60	16.96	-45.6	-47.0	19.6	0.00e+00	0	43	0	293601280	62	4335
2026-01-28 02:11:16.65	21.51	17.07	-45.7	-47.2	19.4	0.00e+00	0	43	0	295698432	62	4436
2026-01-28 02:11:17.65	21.42	17.18	-45.2	-46.6	19.9	0.00e+00	0	43	0	297795584	62	4134
2026-01-28 02:11:18.66	21.33	17.28	-45.5	-46.9	19.7	0.00e+00	0	43	0	299892736	62	4285
2026-01-28 02:11:19.67	21.24	17.39	-45.3	-46.7	19.9	0.00e+00	0	43	0	301989888	62	4190
2026-01-28 02:11:20.68	21.15	17.50	-45.3	-46.7	19.9	0.00e+00	0	43	0	303038464	62	4176
2026-01-28 02:11:21.69	21.05	17.61	-45.3	-46.7	20.0	0.00e+00	0	43	0	305135616	62	4168
2026-01-28 02:11:22.69	20.96	17.72	-45.3	-46.7	19.9	0.00e+00	0	43	0	307232768	62	4175
2026-01-28 02:11:23.70	20.87	17.83	-45.2	-46.6	20.0	0.00e+00	0	43	0	309329920	62	4127
2026-01-28 02:11:24.71	20.78	17.94	-45.2	-46.6	20.0	0.00e+00	0	43	0	311427072	62	4128
2026-01-28 02:11:25.72	20.68	18.05	-45.2	-46.6	20.0	0.00e+00	0	43	0	312475648	62	4102
2026-01-28 02:11:26.72	20.59	18.16	-44.9	-46.3	20.2	0.00e+00	0	43	0	314572800	61	4201
2026-01-28 02:11:27.73	20.49	18.27	-45.1	-46.5	20.1	0.00e+00	0	43	0	316669952	61	4296
2026-01-28 02:11:28.74	20.39	18.39	-45.2	-46.6	20.0	0.00e+00	0	43	0	318767104	61	4381
2026-01-28 02:11:29.74	20.29	18.50	-45.2	-46.6	20.0	0.00e+00	0	43	0	319815680	61	4388
2026-01-28 02:11:30.75	20.20	18.61	-45.1	-46.5	20.1	0.00e+00	0	43	0	321912832	61	4323
2026-01-28 02:11:31.76	20.10	18.73	-45.2	-46.6	20.0	0.00e+00	0	43	0	324009984	61	4375
2026-01-28 02:11:32.77	20.00	18.84	-45.2	-46.6	20.0	0.00e+00	0	43	0	326107136	61	4352
2026-01-28 02:11:33.78	19.90	18.95	-45.1	-46.5	20.1	0.00e+00	0	43	0	328204288	61	4294
2026-01-28 02:11:34.79	19.79	19.07	-45.3	-46.7	19.9	0.00e+00	0	43	0	330301440	61	4423
2026-01-28 02:11:35.79	19.69	19.18	-45.6	-47.1	19.5	0.00e+00	0	43	0	331350016	62	4353
2026-01-28 02:11:36.80	19.59	19.30	-45.4	-46.9	19.8	0.00e+00	0	43	0	333447168	62	4246
2026-01-28 02:11:37.81	19.49	19.42	-45.6	-47.0	19.6	0.00e+00	0	43	0	335544320	62	4326
2026-01-28 02:11:38.82	19.38	19.53	-45.7	-47.2	19.5	0.00e+00	0	43	0	337641472	62	4426
2026-01-28 02:11:39.83	19.27	19.65	-45.8	-47.4	19.3	0.00e+00	0	43	0	339738624	62	4516
2026-01-28 02:11:40.83	19.17	19.77	-45.7	-47.3	19.4	0.00e+00	0	43	0	340787200	62	4444
2026-01-28 02:11:41.84	19.06	19.88	-45.8	-47.3	19.4	0.00e+00	0	43	0	342884352	62	4467
2026-01-28 02:11:42.85	18.95	20.00	-45.9	-47.5	19.3	0.00e+00	0	43	0	344981504	62	4548
2026-01-28 02:11:43.86	18.84	20.12	-46.0	-47.6	19.2	0.00e+00	0	43	0	347078656	62	4614
2026-01-28 02:11:44.86	18.73	20.24	-46.0	-47.6	19.2	0.00e+00	0	43	0	349175808	62	4601
2026-01-28 02:11:45.87	18.62	20.36	-46.0	-47.6	19.2	0.00e+00	0	43	0	350224384	62	4614
2026-01-28 02:11:46.88	18.51	20.48	-46.3	-47.9	18.9	0.00e+00	0	43	0	352321536	63	4532
2026-01-28 02:11:47.88	18.40	20.60	-46.3	-48.0	18.9	0.00e+00	0	43	0	354418688	63	4550
2026-01-28 02:11:48.89	18.29	20.72	-46.1	-47.7	19.1	0.00e+00	0	43	0	356515840	63	4400
2026-01-28 02:11:49.90	18.17	20.84	-46.3	-47.9	18.9	0.00e+00	0	43	0	358612992	63	4506
2026-01-28 02:11:50.91	18.06	20.96	-46.3	-48.0	18.9	0.00e+00	0	43	0	359661568	63	4550
2026-01-28 02:11:51.91	17.94	21.09	-46.1	-47.7	19.2	0.00e+00	0	43	0	361758720	63	4412
2026-01-28 02:11:52.92	17.82	21.21	-46.1	-47.6	19.2	0.00e+00	0	43	0	363855872	63	4378
2026-01-28 02:11:53.93	17.71	21.33	-46.1	-47.7	19.1	0.00e+00	0	43	0	365953024	63	4421
2026-01-28 02:11:54.93	17.59	21.45	-46.0	-47.5	19.4	0.00e+00	0	43	0	368050176	63	4294
2026-01-28 02:11:55.94	17.47	21.58	-45.8	-47.3	19.5	0.00e+00	0	43	0	369098752	63	4216
2026-01-28 02:11:56.94	17.35	21.70	-45.8	-47.3	19.5	0.00e+00	0	43	0	371195904	63	4216
2026-01-28 02:11:57.95	17.22	21.83	-46.0	-47.5	19.4	0.00e+00	0	43	0	373293056	63	4305
2026-01-28 02:11:58.96	17.10	21.95	-45.9	-47.4	19.5	0.00e+00	0	43	0	375390208	63	4258
2026-01-28 02:11:59.97	16.98	22.08	-45.8	-47.3	19.6	0.00e+00	0	43	0	377487360	63	4212
2026-01-28 02:12:00.98	16.85	22.21	-46.1	-47.6	19.2	0.00e+00	0	43	0	378535936	63	4391
2026-01-28 02:12:01.98	16.73	22.33	-46.1	-47.6	19.2	0.00e+00	0	43	0	380633088	63	4383
2026-01-28 02:12:02.99	16.60	22.46	-46.3	-47.9	19.0	0.00e+00	0	43	0	382730240	63	4522
2026-01-28 02:12:04.00	16.47	22.59	-46.5	-48.2	18.7	0.00e+00	0	43	0	384827392	63	4675
2026-01-28 02:12:05.01	16.34	22.72	-46.4	-48.1	18.8	0.00e+00	0	43	0	386924544	63	4626
2026-01-28 02:12:06.01	16.21	22.85	-46.5	-48.1	18.7	0.00e+00	0	43	0	387973120	63	4640
2026-01-28 02:12:07.01	16.08	22.97	-46.5	-48.2	18.7	0.00e+00	0	43	0	390070272	63	4658
2026-01-28 02:12:08.02	15.95	23.10	-46.7	-48.4	18.5	0.00e+00	0	43	0	392167424	63	4791
2026-01-28 02:12:09.03	15.81	23.24	-46.6	-48.4	18.5	0.00e+00	0	43	0	394264576	64	4511
2026-01-28 02:12:10.04	15.68	23.37	-46.4	-48.0	18.7	0.00e+00	0	43	0	396361728	64	4331
2026-01-28 02:12:11.04	15.54	23.50	-46.5	-48.2	18.6	0.00e+00	0	43	0	397410304	64	4392
2026-01-28 02:12:12.05	15.40	23.63	-46.4	-48.1	18.7	0.00e+00	0	43	0	399507456	64	4355
2026-01-28 02:12:13.06	15.26	23.76	-46.0	-47.6	19.2	0.00e+00	0	43	0	401604608	64	4123
2026-01-28 02:12:14.07	15.12	23.90	-46.2	-47.8	19.0	0.00e+00	0	43	0	403701760	63	4490
2026-01-28 02:12:15.08	14.98	24.03	-46.3	-47.9	19.0	0.00e+00	0	43	0	405798912	63	4520
2026-01-28 02:12:16.09	14.84	24.16	-46.0	-47.6	19.3	0.00e+00	0	43	0	406847488	63	4352
2026-01-28 02:12:17.09	14.70	24.30	-46.2	-47.8	19.1	0.00e+00	0	43	0	408944640	63	4464
2026-01-28 02:12:18.10	14.55	24.43	-46.3	-47.9	19.1	0.00e+00	0	43	0	411041792	63	4510
2026-01-28 02:12:19.11	14.41	24.57	-46.6	-48.3	18.6	0.00e+00	0	43	0	413138944	63	4732
2026-01-28 02:12:20.12	14.26	24.70	-46.6	-48.3	18.6	0.00e+00	0	43	0	415236096	64	4460
2026-01-28 02:12:21.13	14.11	24.84	-46.4	-48.1	18.8	0.00e+00	0	43	0	416284672	64	4381
2026-01-28 02:12:22.13	13.96	24.98	-46.5	-48.2	18.6	0.00e+00	0	43	0	418381824	64	4433
2026-01-28 02:12:23.14	13.81	25.11	-46.6	-48.4	18.5	0.00e+00	0	43	0	420478976	64	4512
2026-01-28 02:12:24.15	13.65	25.25	-46.3	-48.0	18.9	0.00e+00	0	43	0	422576128	64	4306
2026-01-28 02:12:25.15	13.50	25.39	-46.4	-48.1	18.8	0.00e+00	0	43	0	424673280	64	4369
2026-01-28 02:12:26.16	13.35	25.53	-46.5	-48.2	18.6	0.00e+00	0	43	0	426770432	64	4439
2026-01-28 02:12:27.16	13.19	25.67	-46.4	-48.1	18.7	0.00e+00	0	43	0	427819008	64	4376
2026-01-28 02:12:28.17	13.03	25.81	-46.1	-47.7	19.1	0.00e+00	0	43	0	429916160	64	4175
2026-01-28 02:12:29.18	12.87	25.95	-46.0	-47.5	19.4	0.00e+00	0	43	0	432013312	63	4327
2026-01-28 02:12:30.19	12.71	26.09	-46.1	-47.7	19.3	0.00e+00	0	43	0	434110464	63	4394
2026-01-28 02:12:31.19	12.55	26.23	-46.0	-47.5	19.4	0.00e+00	0	43	0	435159040	63	4330
2026-01-28 02:12:32.20	12.38	26.37	-46.2	-47.7	19.2	0.00e+00	0	43	0	437256192	63	4428
2026-01-28 02:12:33.20	12.22	26.51	-46.0	-47.5	19.3	0.00e+00	0	43	0	439353344	63	4314
2026-01-28 02:12:34.21	12.05	26.65	-46.3	-47.9	19.0	0.00e+00	0	43	0	441450496	63	4495
2026-01-28 02:12:35.22	11.88	26.80	-46.2	-47.8	19.1	0.00e+00	0	43	0	443547648	63	4446
2026-01-28 02:12:36.23	11.71	26.94	-46.2	-47.8	19.1	0.00e+00	0	43	0	444596224	63	4444
2026-01-28 02:12:37.24	11.54	27.08	-46.1	-47.6	19.2	0.00e+00	0	43	0	446693376	63	4381
2026-01-28 02:12:38.25	11.37	27.23	-46.1	-47.6	19.1	0.00e+00	0	43	0	448790528	63	4380
2026-01-28 02:12:39.25	11.19	27.37	-45.8	-47.3	19.5	0.00e+00	0	43	0	450887680	63	4215
2026-01-28 02:12:40.26	11.02	27.52	-46.3	-48.0	18.9	0.00e+00	0	43	0	452984832	63	4564
2026-01-28 02:12:41.27	10.84	27.67	-46.0	-47.5	19.3	0.00e+00	0	43	0	455081984	63	4340
2026-01-28 02:12:42.28	10.66	27.81	-46.2	-47.8	19.2	0.00e+00	0	43	0	456130560	63	4443
2026-01-28 02:12:43.29	10.47	27.96	-46.0	-47.5	19.4	0.00e+00	0	43	0	458227712	63	4337
2026-01-28 02:12:44.30	10.29	28.11	-46.2	-47.8	19.1	0.00e+00	0	43	0	460324864	63	4478
2026-01-28 02:12:45.31	10.11	28.26	-46.2	-47.8	19.2	0.00e+00	0	43	0	462422016	63	4469
2026-01-28 02:12:46.31	9.92	28.40	-46.2	-47.8	19.2	0.00e+00	0	43	0	463470592	63	4444
2026-01-28 02:12:47.32	9.73	28.55	-46.4	-47.9	19.0	0.00e+00	0	43	0	465567744	63	4537
2026-01-28 02:12:48.33	9.54	28.70	-46.7	-48.4	18.6	0.00e+00	0	43	0	467664896	63	4767
2026-01-28 02:12:49.34	9.35	28.85	-46.2	-47.7	19.3	0.00e+00	0	43	0	469762048	63	4410
2026-01-28 02:12:50.35	9.15	29.00	-46.2	-47.8	19.2	0.00e+00	0	43	0	471859200	63	4446
2026-01-28 02:12:51.36	8.96	29.15	-46.3	-47.9	19.0	0.00e+00	0	43	0	473956352	64	4281
2026-01-28 02:12:52.37	8.76	29.30	-46.8	-48.6	18.4	0.00e+00	0	43	0	475004928	64	4625
2026-01-28 02:12:53.37	8.56	29.45	-46.8	-48.6	18.3	0.00e+00	0	43	0	477102080	64	4601
2026-01-28 02:12:54.38	8.36	29.60	-46.9	-48.7	18.2	0.00e+00	0	43	0	479199232	64	4701
2026-01-28 02:12:55.39	8.15	29.76	-47.0	-48.8	18.1	0.00e+00	0	43	0	481296384	64	4751
2026-01-28 02:12:56.40	7.95	29.91	-47.2	-49.1	17.9	0.00e+00	0	43	0	483393536	65	4601
2026-01-28 02:12:57.41	7.74	30.06	-47.1	-49.0	18.0	0.00e+00	0	43	0	484442112	65	4558
2026-01-28 02:12:58.41	7.53	30.21	-46.9	-48.6	18.4	0.00e+00	0	43	0	486539264	65	4391
2026-01-28 02:12:59.42	7.32	30.37	-47.0	-48.8	18.2	0.00e+00	0	43	0	488636416	65	4453
2026-01-28 02:13:00.43	7.11	30.52	-47.0	-48.8	18.2	0.00e+00	0	43	0	490733568	65	4470
2026-01-28 02:13:01.44	6.89	30.68	-46.8	-48.5	18.2	0.00e+00	0	43	0	491782144	65	4340
2026-01-28 02:13:02.44	6.67	30.83	-47.2	-49.2	17.8	0.00e+00	0	43	0	493879296	65	4659
2026-01-28 02:13:03.45	6.45	30.99	-47.5	-49.4	17.6	0.00e+00	0	43	0	495976448	65	4804
2026-01-28 02:13:04.46	6.23	31.14	-47.6	-49.6	17.4	0.00e+00	0	43	0	498073600	65	4905
2026-01-28 02:13:05.47	6.01	31.30	-47.5	-49.4	17.6	0.00e+00	0	43	0	500170752	65	4801
2026-01-28 02:13:06.47	5.78	31.45	-47.3	-49.2	17.9	0.00e+00	0	43	0	502267904	65	4684
2026-01-28 02:13:07.48	5.55	31.61	-47.4	-49.3	17.7	0.00e+00	0	43	0	503316480	65	4740
2026-01-28 02:13:08.49	5.32	31.77	-47.3	-49.2	17.9	0.00e+00	0	43	0	505413632	65	4662
2026-01-28 02:13:09.50	5.09	31.92	-47.4	-49.3	17.9	0.00e+00	0	43	0	507510784	65	4747
2026-01-28 02:13:10.51	4.85	32.08	-47.1	-48.9	18.2	0.00e+00	0	43	0	509607936	65	4528
2026-01-28 02:13:11.51	4.61	32.24	-47.4	-49.2	17.9	0.00e+00	0	43	0	511705088	65	4689
2026-01-28 02:13:12.52	4.37	32.40	-47.1	-48.9	18.2	0.00e+00	0	43	0	512753664	65	4522
2026-01-28 02:13:13.53	4.13	32.55	-47.4	-49.3	17.8	0.00e+00	0	43	0	514850816	65	4736
2026-01-28 02:13:14.53	3.89	32.71	-47.3	-49.2	18.0	0.00e+00	0	43	0	516947968	65	4658
2026-01-28 02:13:15.54	3.64	32.87	-46.9	-48.5	18.6	0.00e+00	0	43	0	519045120	65	4319
2026-01-28 02:13:16.55	3.39	33.03	-47.3	-49.2	18.0	0.00e+00	0	43	0	520093696	65	4658
2026-01-28 02:13:17.56	3.14	33.19	-47.2	-49.0	18.1	0.00e+00	0	43	0	522190848	65	4548
2026-01-28 02:13:18.56	2.88	33.35	-47.4	-49.2	17.9	0.00e+00	0	43	0	524288000	65	4689
2026-01-28 02:13:19.57	2.63	33.51	-47.4	-49.3	17.8	0.00e+00	0	43	0	526385152	65	4706
2026-01-28 02:13:20.57	2.37	33.66	-47.1	-48.9	18.1	0.00e+00	0	43	0	528482304	65	4519
2026-01-28 02:13:21.58	2.10	33.82	-47.4	-49.3	17.7	0.00e+00	0	43	0	530579456	65	4736
2026-01-28 02:13:22.59	1.84	33.98	-47.5	-49.5	17.6	0.00e+00	0	43	0	531628032	65	4836
2026-01-28 02:13:23.60	1.57	34.14	-47.8	-49.9	17.2	0.00e+00	0	43	0	533725184	66	4774
2026-01-28 02:13:24.60	1.30	34.30	-47.8	-50.0	17.2	0.00e+00	0	43	0	535822336	66	4816
2026-01-28 02:13:25.61	1.03	34.46	-47.8	-49.9	17.2	0.00e+00	0	43	0	537919488	67	4530
2026-01-28 02:13:26.61	0.75	34.62	-48.3	-50.6	16.5	0.00e+00	0	43	0	540016640	67	4919
2026-01-28 02:13:27.62	0.48	34.78	-48.5	-50.9	16.3	0.00e+00	0	43	0	541065216	67	5042
2026-01-28 02:13:28.63	0.19	34.94	-49.3	-52.1	15.1	0.00e+00	0	43	0	543162368	69	5194
2026-01-28 02:13:29.64	359.91	35.10	-49.0	-51.6	15.8	0.00e+00	0	43	0	545259520	69	4883
2026-01-28 02:13:30.65	359.62	35.26	-49.0	-51.7	15.7	0.00e+00	0	43	0	547356672	69	4959
2026-01-28 02:13:31.65	359.33	35.42	-49.0	-51.6	15.7	0.00e+00	0	43	0	549453824	69	4907
2026-01-28 02:13:32.66	359.04	35.58	-48.6	-51.0	16.4	7.00e-07	0	43	0	550502400	68	4819
2026-01-28 02:13:33.67	358.74	35.74	-47.7	-49.6	17.5	0.00e+00	0	43	0	552599552	67	4388
2026-01-28 02:13:34.68	358.44	35.90	-47.6	-49.5	17.7	0.00e+00	0	43	0	554696704	67	4306
2026-01-28 02:13:35.69	358.14	36.06	-47.4	-49.2	18.0	0.00e+00	0	43	0	556793856	66	4441
2026-01-28 02:13:36.69	357.84	36.22	-47.2	-48.9	18.3	0.00e+00	0	43	0	558891008	66	4252
2026-01-28 02:13:37.71	357.53	36.38	-47.2	-49.0	18.1	0.00e+00	0	43	0	559939584	66	4319
2026-01-28 02:13:38.71	357.22	36.54	-47.2	-49.0	18.1	0.00e+00	0	43	0	562036736	66	4323
2026-01-28 02:13:39.71	356.91	36.70	-47.2	-48.9	18.3	0.00e+00	0	43	0	564133888	66	4280
2026-01-28 02:13:40.72	356.59	36.86	-47.1	-48.8	18.3	0.00e+00	0	43	0	566231040	65	4490
2026-01-28 02:13:41.73	356.27	37.02	-47.2	-49.0	18.1	0.00e+00	0	43	0	568328192	65	4558
2026-01-28 02:13:42.73	355.95	37.18	-47.1	-48.9	18.2	0.00e+00	0	43	0	569376768	65	4543
2026-01-28 02:13:43.74	355.62	37.34	-47.6	-49.5	17.7	0.00e+00	0	43	0	571473920	65	4853
2026-01-28 02:13:44.75	355.29	37.49	-47.6	-49.7	17.5	0.00e+00	0	43	0	573571072	66	4654
2026-01-28 02:13:45.75	354.96	37.65	-48.1	-50.3	16.9	0.00e+00	0	43	0	575668224	66	5004
2026-01-28 02:13:46.76	354.62	37.81	-48.2	-50.5	16.7	0.00e+00	0	43	0	577765376	67	4867
2026-01-28 02:13:47.77	354.28	37.96	-48.6	-51.1	16.3	0.00e+00	0	43	0	578813952	68	4877
2026-01-28 02:13:48.77	353.94	38.12	-48.1	-50.3	17.0	0.00e+00	0	43	0	580911104	68	4477
2026-01-28 02:13:49.78	353.60	38.28	-47.8	-49.9	17.4	0.00e+00	0	43	0	583008256	67	4529
2026-01-28 02:13:50.79	353.25	38.43	-47.8	-49.9	17.4	0.00e+00	0	43	0	585105408	67	4505
2026-01-28 02:13:51.80	352.89	38.59	-47.6	-49.5	17.7	0.00e+00	0	43	0	587202560	67	4329
2026-01-28 02:13:52.80	352.54	38.74	-47.4	-49.2	18.0	0.00e+00	0	43	0	588251136	66	4429
2026-01-28 02:13:53.81	352.18	38.89	-47.2	-49.0	18.2	0.00e+00	0	43	0	590348288	66	4336
2026-01-28 02:13:54.82	351.82	39.05	-47.3	-49.1	18.1	0.00e+00	0	43	0	592445440	66	4388
2026-01-28 02:13:55.82	351.45	39.20	-47.2	-49.0	18.1	0.00e+00	0	43	0	594542592	65	4573
2026-01-28 02:13:56.83	351.08	39.35	-47.6	-49.6	17.6	0.00e+00	0	43	0	596639744	65	4914
2026-01-28 02:13:57.84	350.71	39.50	-48.3	-50.6	16.6	0.00e+00	0	43	0	597688320	67	4911
2026-01-28 02:13:58.85	350.33	39.65	-48.9	-51.5	15.8	0.00e+00	0	43	0	599785472	68	5159
2026-01-28 02:13:59.86	349.95	39.80	-48.9	-51.6	15.8	0.00e+00	0	43	0	601882624	68	5192
2026-01-28 02:14:00.87	349.56	39.95	-48.1	-50.3	17.0	0.00e+00	0	43	0	603979776	68	4479
2026-01-28 02:14:01.87	349.18	40.10	-47.2	-49.0	18.1	0.00e+00	0	43	0	606076928	66	4326
2026-01-28 02:14:02.88	348.79	40.24	-46.3	-47.8	19.2	0.00e+00	0	43	0	607125504	64	4229
2026-01-28 02:14:03.89	348.39	40.39	-45.8	-47.1	20.0	0.00e+00	0	43	0	609222656	63	4136
2026-01-28 02:14:04.90	347.99	40.54	-45.9	-47.3	19.9	0.00e+00	0	43	0	611319808	63	4210
2026-01-28 02:14:05.91	347.59	40.68	-46.1	-47.6	19.6	0.00e+00	0	43	0	613416960	63	4369
2026-01-28 02:14:06.91	347.19	40.82	-47.0	-48.8	18.4	0.00e+00	0	43	0	615514112	64	4748
2026-01-28 02:14:07.92	346.78	40.96	-47.3	-49.3	18.0	0.00e+00	0	43	0	616562688	65	4713
2026-01-28 02:14:08.93	346.37	41.11	-47.3	-49.2	18.0	0.00e+00	0	43	0	618659840	65	4678
2026-01-28 02:14:09.94	345.95	41.25	-46.7	-48.4	18.7	0.00e+00	0	43	0	620756992	65	4278
2026-01-28 02:14:10.95	345.53	41.38	-46.4	-47.9	19.2	0.00e+00	0	43	0	622854144	64	4289
2026-01-28 02:14:11.96	345.10	41.52	-46.3	-47.9	19.3	0.00e+00	0	43	0	624951296	64	4257
2026-01-28 02:14:12.97	344.68	41.66	-46.4	-48.1	19.1	0.00e+00	0	43	0	625999872	64	4354
2026-01-28 02:14:13.98	344.24	41.79	-46.5	-48.1	19.1	0.00e+00	0	43	0	628097024	64	4380
2026-01-28 02:14:14.99	343.81	41.93	-46.3	-47.9	19.2	0.00e+00	0	43	0	630194176	64	4291
2026-01-28 02:14:16.00	343.37	42.06	-46.3	-48.0	19.2	0.00e+00	0	43	0	632291328	64	4295
2026-01-28 02:14:17.01	342.93	42.19	-46.0	-47.5	19.6	0.00e+00	0	43	0	634388480	63	4336
2026-01-28 02:14:18.01	342.48	42.32	-45.9	-47.4	19.7	0.00e+00	0	43	0	635437056	63	4266
2026-01-28 02:14:19.02	342.03	42.44	-45.9	-47.3	19.8	0.00e+00	0	43	0	637534208	63	4233
2026-01-28 02:14:20.03	341.58	42.57	-45.8	-47.3	19.8	0.00e+00	0	43	0	639631360	63	4200
2026-01-28 02:14:21.04	341.12	42.69	-46.4	-48.0	19.3	0.00e+00	0	43	0	641728512	63	4571
2026-01-28 02:14:22.04	340.67	42.82	-46.6	-48.3	19.0	0.00e+00	0	43	0	643825664	64	4457
2026-01-28 02:14:23.05	340.20	42.94	-46.4	-48.0	19.2	0.00e+00	0	43	0	644874240	64	4323
2026-01-28 02:14:24.05	339.74	43.06	-45.7	-47.1	20.1	0.00e+00	0	43	0	646971392	63	4131
2026-01-28 02:14:25.06	339.27	43.17	-45.5	-46.9	20.2	0.00e+00	0	43	0	649068544	62	4291
2026-01-28 02:14:26.07	338.80	43.29	-45.7	-47.1	20.1	0.00e+00	0	43	0	651165696	62	4382
2026-01-28 02:14:27.08	338.32	43.40	-46.0	-47.6	19.7	0.00e+00	0	43	0	653262848	62	4601
2026-01-28 02:14:28.09	337.84	43.51	-45.7	-47.2	20.0	0.00e+00	0	43	0	654311424	62	4409
2026-01-28 02:14:29.10	337.35	43.62	-45.3	-46.6	20.4	0.00e+00	0	43	0	656408576	62	4133
2026-01-28 02:14:30.10	336.87	43.73	-45.1	-46.4	20.7	0.00e+00	0	43	0	658505728	61	4266
2026-01-28 02:14:31.11	336.38	43.84	-45.4	-46.9	20.3	0.00e+00	0	43	0	660602880	61	4495
2026-01-28 02:14:32.12	335.88	43.94	-45.9	-47.5	19.7	0.00e+00	0	43	0	662700032	62	4588
2026-01-28 02:14:33.13	335.39	44.04	-46.4	-48.1	19.0	0.00e+00	0	43	0	663748608	63	4620
2026-01-28 02:14:34.13	334.89	44.14	-46.7	-48.4	18.7	0.00e+00	0	43	0	665845760	64	4539
2026-01-28 02:14:35.14	334.39	44.24	-47.2	-49.2	18.1	0.00e+00	0	43	0	667942912	65	4664
2026-01-28 02:14:36.15	333.88	44.33	-47.0	-48.9	18.3	0.00e+00	0	43	0	670040064	65	4537
2026-01-28 02:14:37.15	333.37	44.42	-46.9	-48.8	18.3	0.00e+00	0	43	0	672137216	65	4467
2026-01-28 02:14:38.16	332.86	44.51	-47.3	-49.3	17.9	0.00e+00	0	43	0	674234368	65	4732
2026-01-28 02:14:39.16	332.35	44.60	-47.7	-49.9	17.4	0.00e+00	0	43	0	675282944	66	4780
2026-01-28 02:14:40.17	331.83	44.69	-47.5	-49.5	17.7	0.00e+00	0	43	0	677380096	66	4584
2026-01-28 02:14:41.18	331.31	44.77	-47.0	-48.8	18.4	0.00e+00	0	43	0	679477248	65	4479
2026-01-28 02:14:42.19	330.79	44.85	-46.2	-47.8	19.3	0.00e+00	0	43	0	681574400	64	4209
2026-01-28 02:14:43.20	330.26	44.93	-45.6	-46.9	20.2	0.00e+00	0	43	0	682622976	63	4050
2026-01-28 02:14:44.21	329.73	45.00	-45.5	-46.8	20.3	0.00e+00	0	43	0	684720128	62	4225
2026-01-28 02:14:45.21	329.20	45.08	-46.1	-47.7	19.6	0.00e+00	0	43	0	686817280	62	4670
2026-01-28 02:14:46.22	328.67	45.15	-46.6	-48.3	18.9	0.00e+00	0	43	0	688914432	64	4468
2026-01-28 02:14:47.23	328.13	45.22	-46.9	-48.6	18.7	0.00e+00	0	43	0	691011584	64	4648
2026-01-28 02:14:48.24	327.59	45.28	-46.5	-48.1	19.0	0.00e+00	0	43	0	692060160	64	4377
2026-01-28 02:14:49.25	327.05	45.34	-47.2	-49.0	18.2	0.00e+00	0	43	0	694157312	64	4855
2026-01-28 02:14:50.25	326.51	45.40	-47.5	-49.5	17.9	0.00e+00	0	43	0	696254464	65	4834
2026-01-28 02:14:51.26	325.97	45.46	-48.3	-50.7	16.7	0.00e+00	0	43	0	698351616	67	4938
2026-01-28 02:14:52.27	325.42	45.51	-48.5	-50.9	16.4	0.00e+00	0	43	0	700448768	67	5055
2026-01-28 02:14:53.28	324.87	45.56	-48.3	-50.6	16.6	0.00e+00	0	43	0	702545920	67	4911
2026-01-28 02:14:54.28	324.33	45.61	-47.7	-49.7	17.4	0.00e+00	0	43	0	703594496	67	4428
2026-01-28 02:14:55.29	323.78	45.66	-47.3	-49.2	18.0	0.00e+00	0	43	0	705691648	66	4412
2026-01-28 02:14:56.31	323.22	45.70	-47.1	-48.9	18.3	0.00e+00	0	43	0	707788800	65	4520
2026-01-28 02:14:57.31	322.67	45.74	-46.4	-48.1	19.0	0.00e+00	0	43	0	709885952	64	4361
2026-01-28 02:14:58.32	322.11	45.77	-46.4	-48.0	19.0	0.00e+00	0	43	0	710934528	64	4337
2026-01-28 02:14:59.33	321.55	45.81	-46.6	-48.2	19.0	0.00e+00	0	43	0	713031680	64	4433
2026-01-28 02:15:00.33	321.00	45.84	-47.3	-49.2	18.1	0.00e+00	0	43	0	715128832	65	4666
2026-01-28 02:15:01.34	320.44	45.87	-47.9	-50.1	17.2	0.00e+00	0	43	0	717225984	67	4632
2026-01-28 02:15:02.35	319.88	45.89	-47.8	-49.9	17.3	0.00e+00	0	43	0	719323136	67	4537
2026-01-28 02:15:03.35	319.32	45.91	-47.7	-49.8	17.5	0.00e+00	0	43	0	720371712	67	4466
2026-01-28 02:15:04.36	318.76	45.93	-47.8	-49.9	17.4	0.00e+00	0	43	0	722468864	66	4808
2026-01-28 02:15:05.37	318.19	45.95	-47.7	-49.8	17.5	0.00e+00	0	43	0	724566016	66	4730
2026-01-28 02:15:06.38	317.63	45.96	-47.8	-50.0	17.4	0.00e+00	0	43	0	726663168	66	4816
2026-01-28 02:15:07.38	317.07	45.97	-47.8	-50.0	17.3	0.00e+00	0	43	0	728760320	66	4821
2026-01-28 02:15:08.39	316.51	45.97	-47.8	-50.0	17.2	0.00e+00	0	43	0	730857472	66	4859
2026-01-28 02:15:09.40	315.94	45.98	-47.7	-49.9	17.5	0.00e+00	0	43	0	731906048	66	4762
2026-01-28 02:15:10.41	315.38	45.98	-47.1	-49.1	18.0	0.00e+00	0	43	0	734003200	66	4368
2026-01-28 02:15:11.41	314.82	45.97	-46.9	-48.9	18.3	0.00e+00	0	43	0	736100352	65	4501
2026-01-28 02:15:12.42	314.26	45.97	-47.7	-50.1	17.2	0.00e+00	0	43	0	738197504	65	5172
2026-01-28 02:15:13.43	313.69	45.96	-47.9	-50.4	16.7	0.00e+00	0	43	0	739246080	67	4764
2026-01-28 02:15:14.44	313.13	45.95	-46.5	-48.2	18.8	0.00e+00	0	43	0	741343232	64	4409
2026-01-28 02:15:15.45	312.56	45.93	-45.1	-46.4	20.5	0.00e+00	0	43	0	743440384	62	4051
2026-01-28 02:15:16.45	312.01	45.91	-45.0	-46.3	20.7	0.00e+00	0	43	0	745537536	61	4198
2026-01-28 02:15:17.46	311.44	45.89	-45.6	-47.1	20.0	0.00e+00	0	43	0	747634688	61	4632
2026-01-28 02:15:18.47	310.88	45.87	-46.4	-48.1	19.1	0.00e+00	0	43	0	749731840	63	4648
2026-01-28 02:15:19.47	310.33	45.84	-47.0	-49.0	18.2	0.00e+00	0	43	0	750780416	64	4831
2026-01-28 02:15:20.48	309.77	45.81	-47.0	-48.9	18.1	0.00e+00	0	43	0	752877568	65	4545
2026-01-28 02:15:21.49	309.21	45.78	-46.8	-48.6	18.5	0.00e+00	0	43	0	754974720	65	4353
2026-01-28 02:15:22.49	308.66	45.74	-46.3	-48.0	19.1	0.00e+00	0	43	0	757071872	64	4297
2026-01-28 02:15:23.50	308.10	45.70	-46.3	-47.9	19.2	0.00e+00	0	43	0	759169024	64	4285
2026-01-28 02:15:24.51	307.55	45.66	-46.7	-48.6	18.7	0.00e+00	0	43	0	760217600	64	4604
2026-01-28 02:15:25.52	307.00	45.62	-47.4	-49.5	17.8	0.00e+00	0	43	0	762314752	65	4854
2026-01-28 02:15:26.53	306.45	45.57	-47.7	-50.0	17.3	0.00e+00	0	43	0	764411904	66	4841
2026-01-28 02:15:27.53	305.90	45.52	-47.9	-50.3	17.1	0.00e+00	0	43	0	766509056	66	4993
2026-01-28 02:15:28.54	305.35	45.46	-48.0	-50.4	16.9	0.00e+00	0	43	0	767557632	67	4802
2026-01-28 02:15:29.55	304.81	45.41	-48.0	-50.4	16.8	0.00e+00	0	43	0	769654784	67	4792
2026-01-28 02:15:30.55	304.27	45.35	-48.1	-50.4	17.0	0.00e+00	0	43	0	771751936	67	4775
2026-01-28 02:15:31.56	303.73	45.29	-47.9	-50.2	17.1	0.00e+00	0	43	0	773849088	67	4685
2026-01-28 02:15:32.57	303.19	45.22	-47.6	-49.6	17.7	0.00e+00	0	43	0	775946240	67	4390
2026-01-28 02:15:33.58	302.65	45.16	-47.6	-49.6	17.7	0.00e+00	0	43	0	778043392	67	4350
2026-01-28 02:15:34.59	302.12	45.09	-47.6	-49.6	17.7	0.00e+00	0	43	0	779091968	66	4623
2026-01-28 02:15:35.59	301.59	45.01	-47.6	-49.6	17.7	0.00e+00	0	43	0	781189120	66	4632
2026-01-28 02:15:36.60	301.06	44.94	-46.9	-48.7	18.4	0.00e+00	0	43	0	783286272	65	4419
2026-01-28 02:15:37.61	300.53	44.86	-46.9	-48.6	18.5	0.00e+00	0	43	0	785383424	65	4376
2026-01-28 02:15:38.61	300.01	44.78	-46.4	-48.1	19.0	0.00e+00	0	43	0	787480576	64	4372
2026-01-28 02:15:39.62	299.49	44.70	-46.5	-48.2	19.0	0.00e+00	0	43	0	788529152	64	4410
2026-01-28 02:15:40.63	298.97	44.61	-46.9	-48.8	18.4	0.00e+00	0	43	0	790626304	64	4729
2026-01-28 02:15:41.63	298.46	44.53	-46.9	-48.9	18.2	0.00e+00	0	43	0	792723456	64	4769
2026-01-28 02:15:42.64	297.94	44.44	-46.9	-48.8	18.4	0.00e+00	0	43	0	794820608	64	4706
2026-01-28 02:15:43.65	297.43	44.34	-46.7	-48.6	18.5	0.00e+00	0	43	0	795869184	64	4612
2026-01-28 02:15:44.66	296.93	44.25	-46.4	-48.1	19.0	0.00e+00	0	43	0	797966336	64	4380
2026-01-28 02:15:45.67	296.42	44.15	-46.7	-48.5	18.6	0.00e+00	0	43	0	800063488	64	4574
2026-01-28 02:15:46.67	295.92	44.05	-46.7	-48.5	18.8	0.00e+00	0	43	0	802160640	64	4572
2026-01-28 02:15:47.68	295.43	43.95	-46.6	-48.4	18.7	0.00e+00	0	43	0	804257792	64	4544
2026-01-28 02:15:48.68	294.94	43.85	-46.9	-48.9	18.3	0.00e+00	0	43	0	806354944	64	4775
2026-01-28 02:15:49.69	294.44	43.74	-47.4	-49.5	17.6	0.00e+00	0	43	0	807403520	65	4860
2026-01-28 02:15:50.70	293.95	43.64	-47.2	-49.2	18.0	0.00e+00	0	43	0	809500672	65	4668
2026-01-28 02:15:51.71	293.47	43.53	-46.1	-47.7	19.4	0.00e+00	0	43	0	811597824	64	4153
2026-01-28 02:15:52.72	292.99	43.41	-45.4	-46.7	20.3	0.00e+00	0	43	0	813694976	62	4188
2026-01-28 02:15:53.73	292.51	43.30	-45.0	-46.3	20.7	0.00e+00	0	43	0	815792128	62	3998
2026-01-28 02:15:54.73	292.04	43.19	-45.4	-46.8	20.3	0.00e+00	0	43	0	816840704	61	4481
2026-01-28 02:15:55.74	291.57	43.07	-46.0	-47.6	19.5	0.00e+00	0	43	0	818937856	62	4622
2026-01-28 02:15:56.75	291.10	42.95	-46.5	-48.3	18.8	0.00e+00	0	43	0	821035008	64	4490
2026-01-28 02:15:57.76	290.63	42.83	-47.1	-49.1	18.0	0.00e+00	0	43	0	823132160	65	4651
2026-01-28 02:15:58.77	290.17	42.71	-46.3	-48.0	19.1	0.00e+00	0	43	0	825229312	64	4298
2026-01-28 02:15:59.77	289.72	42.58	-45.7	-47.1	20.1	0.00e+00	0	43	0	826277888	63	4137
2026-01-28 02:16:00.77	289.27	42.46	-45.6	-46.9	20.3	0.00e+00	0	43	0	828375040	62	4290
2026-01-28 02:16:01.78	288.82	42.33	-45.9	-47.4	19.9	0.00e+00	0	43	0	830472192	62	4512
2026-01-28 02:16:02.79	288.37	42.20	-45.9	-47.4	19.7	0.00e+00	0	43	0	832569344	62	4533
2026-01-28 02:16:03.79	287.93	42.07	-44.6	-45.8	21.2	0.00e+00	0	43	0	834666496	61	3992
2026-01-28 02:16:04.80	287.49	41.94	-44.1	-45.2	21.7	0.00e+00	0	43	0	835715072	60	3950
2026-01-28 02:16:05.81	287.05	41.81	-44.5	-45.7	21.3	0.00e+00	0	43	0	837812224	60	4187
2026-01-28 02:16:06.82	286.62	41.67	-44.3	-45.5	21.6	0.00e+00	0	43	0	839909376	60	4054
2026-01-28 02:16:07.83	286.19	41.53	-44.3	-45.5	21.7	0.00e+00	0	43	0	842006528	59	4307
2026-01-28 02:16:08.84	285.77	41.40	-43.5	-44.5	22.5	0.00e+00	0	43	0	844103680	58	4094
2026-01-28 02:16:09.84	285.35	41.26	-43.5	-44.5	22.5	0.00e+00	0	43	0	845152256	58	4083
2026-01-28 02:16:10.85	284.93	41.12	-43.2	-44.2	22.8	0.00e+00	0	43	0	847249408	58	3924
2026-01-28 02:16:11.86	284.52	40.98	-43.2	-44.3	22.8	0.00e+00	0	43	0	849346560	58	3970
2026-01-28 02:16:12.87	284.11	40.84	-43.6	-44.7	22.5	0.00e+00	0	43	0	851443712	58	4167
2026-01-28 02:16:13.87	283.70	40.69	-44.3	-45.5	21.8	0.00e+00	0	43	0	853540864	59	4320
2026-01-28 02:16:14.88	283.30	40.55	-44.4	-45.6	21.7	0.00e+00	0	43	0	854589440	59	4370
2026-01-28 02:16:15.89	282.90	40.40	-44.1	-45.3	21.9	0.00e+00	0	43	0	856686592	59	4219
2026-01-28 02:16:16.90	282.50	40.26	-43.6	-44.7	22.5	0.00e+00	0	43	0	858783744	59	3937
2026-01-28 02:16:17.91	282.11	40.11	-44.3	-45.4	21.9	0.00e+00	0	43	0	860880896	59	4270
2026-01-28 02:16:18.91	281.72	39.96	-44.4	-45.6	21.4	0.00e+00	0	43	0	862978048	60	4134
2026-01-28 02:16:19.92	281.34	39.81	-44.3	-45.5	21.6	0.00e+00	0	43	0	864026624	60	4060
2026-01-28 02:16:20.93	280.96	39.66	-44.4	-45.6	21.4	0.00e+00	0	43	0	866123776	60	4122
2026-01-28 02:16:21.93	280.58	39.52	-45.1	-46.5	20.8	0.00e+00	0	43	0	868220928	60	4549
2026-01-28 02:16:22.94	280.20	39.36	-45.6	-47.1	20.2	0.00e+00	0	43	0	870318080	61	4607
2026-01-28 02:16:23.95	279.83	39.21	-45.8	-47.3	20.1	0.00e+00	0	43	0	872415232	62	4460
2026-01-28 02:16:24.96	279.47	39.06	-45.4	-46.7	20.6	0.00e+00	0	43	0	874512384	62	4152
2026-01-28 02:16:25.96	279.10	38.91	-45.4	-46.7	20.6	0.00e+00	0	43	0	875560960	62	4147
2026-01-28 02:16:26.97	278.74	38.75	-45.3	-46.6	20.7	0.00e+00	0	43	0	877658112	62	4122
2026-01-28 02:16:27.98	278.38	38.60	-45.8	-47.3	20.0	0.00e+00	0	43	0	879755264	62	4442
2026-01-28 02:16:28.99	278.03	38.44	-45.6	-46.9	20.4	0.00e+00	0	43	0	881852416	62	4258
2026-01-28 02:16:29.99	277.68	38.29	-45.7	-47.1	20.1	0.00e+00	0	43	0	882900992	62	4355
2026-01-28 02:16:31.00	277.33	38.13	-46.0	-47.5	19.8	0.00e+00	0	43	0	884998144	62	4571
2026-01-28 02:16:32.01	276.99	37.97	-46.6	-48.3	19.2	0.00e+00	0	43	0	887095296	63	4715
2026-01-28 02:16:33.01	276.65	37.82	-46.2	-47.7	19.6	0.00e+00	0	43	0	889192448	63	4404
2026-01-28 02:16:34.02	276.31	37.66	-45.6	-46.9	20.3	0.00e+00	0	43	0	891289600	63	4047
2026-01-28 02:16:35.03	275.98	37.50	-45.2	-46.5	20.7	0.00e+00	0	43	0	892338176	62	4071
2026-01-28 02:16:36.04	275.65	37.34	-45.3	-46.6	20.6	0.00e+00	0	43	0	894435328	62	4144
2026-01-28 02:16:37.05	275.32	37.19	-45.4	-46.7	20.5	0.00e+00	0	43	0	896532480	62	4189
2026-01-28 02:16:38.05	275.00	37.03	-45.5	-46.8	20.5	0.00e+00	0	43	0	898629632	62	4197
2026-01-28 02:16:39.06	274.68	36.87	-44.9	-46.1	21.0	0.00e+00	0	43	0	900726784	61	4108
2026-01-28 02:16:40.06	274.36	36.71	-45.0	-46.2	20.9	0.00e+00	0	43	0	902823936	61	4146
2026-01-28 02:16:41.07	274.05	36.55	-45.6	-47.0	20.3	0.00e+00	0	43	0	903872512	61	4552
2026-01-28 02:16:42.08	273.73	36.39	-46.1	-47.5	19.8	0.00e+00	0	43	0	905969664	62	4593
2026-01-28 02:16:43.08	273.43	36.23	-46.3	-47.8	19.5	0.00e+00	0	43	0	908066816	63	4467
2026-01-28 02:16:44.09	273.12	36.07	-46.6	-48.1	19.2	0.00e+00	0	43	0	910163968	63	4639
2026-01-28 02:16:45.10	272.82	35.91	-47.2	-49.0	18.3	0.00e+00	0	43	0	911212544	64	4834
2026-01-28 02:16:46.11	272.52	35.75	-48.0	-50.1	17.1	0.00e+00	0	43	0	913309696	66	4919
2026-01-28 02:16:47.11	272.22	35.59	-47.5	-49.4	17.8	0.00e+00	0	43	0	915406848	66	4522
2026-01-28 02:16:48.12	271.93	35.43	-47.0	-48.6	18.5	0.00e+00	0	43	0	917504000	65	4379
2026-01-28 02:16:49.13	271.64	35.27	-46.3	-47.7	19.4	0.00e+00	0	43	0	919601152	64	4176
2026-01-28 02:16:50.13	271.35	35.11	-46.4	-48.0	19.3	0.00e+00	0	43	0	920649728	64	4297
2026-01-28 02:16:51.14	271.07	34.95	-47.1	-48.7	18.4	0.00e+00	0	43	0	922746880	65	4438
2026-01-28 02:16:52.15	270.78	34.79	-47.4	-49.3	17.9	0.00e+00	0	43	0	924844032	65	4721
2026-01-28 02:16:53.16	270.50	34.63	-47.2	-49.0	18.3	0.00e+00	0	43	0	926941184	65	4574
2026-01-28 02:16:54.16	270.23	34.47	-47.9	-49.9	17.5	0.00e+00	0	43	0	929038336	66	4764
2026-01-28 02:16:55.17	269.95	34.31	-48.3	-50.5	16.8	0.00e+00	0	43	0	931135488	67	4831
2026-01-28 02:16:56.18	269.68	34.15	-49.0	-51.6	15.8	0.00e+00	0	43	0	932184064	69	4876
2026-01-28 02:16:57.19	269.41	33.99	-49.2	-51.8	15.5	0.00e+00	0	43	0	934281216	69	5016
2026-01-28 02:16:58.20	269.15	33.83	-48.6	-50.9	16.4	0.00e+00	0	43	0	936378368	69	4529
2026-01-28 02:16:59.21	268.88	33.67	-48.2	-50.3	17.0	0.00e+00	0	43	0	938475520	68	4491
2026-01-28 02:17:00.22	268.62	33.51	-48.4	-50.6	16.8	0.00e+00	0	43	0	939524096	68	4610
2026-01-28 02:17:01.23	268.36	33.35	-48.8	-51.2	16.2	0.00e+00	0	43	0	941621248	68	4940
2026-01-28 02:17:02.23	268.11	33.19	-49.5	-52.4	15.1	0.00e+00	0	43	0	943718400	69	5382
2026-01-28 02:17:03.24	267.85	33.03	-50.0	-53.3	14.1	2.20e-06	0	43	0	945815552	70	5619
2026-01-28 02:17:04.25	267.60	32.87	-49.6	-52.5	14.8	7.00e-07	0	43	0	947912704	70	5110
2026-01-28 02:17:05.26	267.35	32.71	-48.9	-51.4	15.9	0.00e+00	0	43	0	950009856	69	4771
2026-01-28 02:17:06.26	267.11	32.55	-48.7	-51.0	16.3	0.00e+00	0	43	0	951058432	69	4553
2026-01-28 02:17:07.27	266.87	32.39	-48.4	-50.6	16.7	0.00e+00	0	43	0	953155584	68	4603
2026-01-28 02:17:08.28	266.63	32.24	-48.0	-50.0	17.3	0.00e+00	0	43	0	955252736	68	4318
2026-01-28 02:17:09.29	266.39	32.08	-47.9	-49.8	17.5	0.00e+00	0	43	0	957349888	67	4491
2026-01-28 02:17:10.30	266.15	31.92	-47.5	-49.3	17.9	0.00e+00	0	43	0	959447040	66	4459
2026-01-28 02:17:11.30	265.92	31.76	-47.5	-49.3	17.9	0.00e+00	0	43	0	960495616	66	4482
2026-01-28 02:17:12.31	265.69	31.61	-47.5	-49.4	17.8	0.00e+00	0	43	0	962592768	66	4498
2026-01-28 02:17:13.31	265.46	31.45	-47.6	-49.4	17.8	0.00e+00	0	43	0	964689920	66	4530
2026-01-28 02:17:14.32	265.23	31.29	-47.5	-49.3	17.9	0.00e+00	0	43	0	966787072	66	4462
2026-01-28 02:17:15.33	265.00	31.14	-47.2	-48.9	18.2	0.00e+00	0	43	0	967835648	66	4279
2026-01-28 02:17:16.34	264.78	30.98	-46.9	-48.5	18.6	0.00e+00	0	43	0	969932800	65	4333
2026-01-28 02:17:17.35	264.56	30.83	-46.6	-48.3	18.9	0.00e+00	0	43	0	972029952	65	4201
2026-01-28 02:17:18.35	264.34	30.67	-46.7	-48.4	18.7	0.00e+00	0	43	0	974127104	65	4267
2026-01-28 02:17:19.36	264.13	30.52	-47.3	-49.1	18.1	0.00e+00	0	43	0	976224256	65	4614
2026-01-28 02:17:20.37	263.91	30.36	-47.7	-49.7	17.5	0.00e+00	0	43	0	978321408	66	4683
2026-01-28 02:17:21.37	263.70	30.21	-48.0	-50.1	17.1	0.00e+00	0	43	0	979369984	66	4894
2026-01-28 02:17:22.38	263.49	30.05	-47.7	-49.7	17.5	0.00e+00	0	43	0	981467136	66	4675
2026-01-28 02:17:23.39	263.28	29.90	-47.3	-49.1	18.0	0.00e+00	0	43	0	983564288	66	4385
2026-01-28 02:17:24.40	263.07	29.75	-46.8	-48.5	18.5	0.00e+00	0	43	0	985661440	65	4317
2026-01-28 02:17:25.41	262.87	29.60	-47.1	-48.9	18.4	0.00e+00	0	43	0	987758592	65	4496
2026-01-28 02:17:26.41	262.67	29.44	-46.9	-48.6	18.5	0.00e+00	0	43	0	988807168	65	4344
2026-01-28 02:17:27.42	262.47	29.29	-46.8	-48.5	18.5	0.00e+00	0	43	0	990904320	65	4334
2026-01-28 02:17:28.43	262.27	29.14	-47.0	-48.7	18.4	0.00e+00	0	43	0	993001472	65	4415
2026-01-28 02:17:29.44	262.07	28.99	-47.0	-48.8	18.3	0.00e+00	0	43	0	995098624	65	4447
2026-01-28 02:17:30.44	261.88	28.84	-46.8	-48.5	18.6	0.00e+00	0	43	0	996147200	65	4328
2026-01-28 02:17:31.45	261.69	28.69	-46.6	-48.2	18.9	0.00e+00	0	43	0	998244352	65	4170
2026-01-28 02:17:32.46	261.49	28.54	-46.8	-48.5	18.6	0.00e+00	0	43	0	1000341504	65	4318
2026-01-28 02:17:33.47	261.30	28.39	-46.8	-48.5	18.6	0.00e+00	0	43	0	1002438656	65	4332
2026-01-28 02:17:34.47	261.12	28.24	-47.0	-48.7	18.3	0.00e+00	0	43	0	1004535808	65	4423
2026-01-28 02:17:35.48	260.93	28.10	-46.7	-48.4	18.7	0.00e+00	0	43	0	1006632960	65	4246
2026-01-28 02:17:36.49	260.75	27.95	-47.2	-49.0	18.1	0.00e+00	0	43	0	1007681536	65	4571
2026-01-28 02:17:37.49	260.57	27.80	-46.6	-48.3	18.8	0.00e+00	0	43	0	1009778688	65	4206
2026-01-28 02:17:38.50	260.39	27.65	-46.4	-48.0	19.0	0.00e+00	0	43	0	1011875840	64	4330
2026-01-28 02:17:39.51	260.21	27.51	-46.6	-48.3	18.7	0.00e+00	0	43	0	1013972992	64	4448
2026-01-28 02:17:40.52	260.03	27.36	-46.7	-48.3	18.7	0.00e+00	0	43	0	1016070144	64	4485
2026-01-28 02:17:41.53	259.85	27.22	-46.3	-47.8	19.2	0.00e+00	0	43	0	1017118720	64	4238
2026-01-28 02:17:42.53	259.68	27.07	-46.3	-47.9	19.1	0.00e+00	0	43	0	1019215872	64	4248
2026-01-28 02:17:43.54	259.51	26.93	-46.4	-48.1	19.0	0.00e+00	0	43	0	1021313024	64	4346
2026-01-28 02:17:44.55	259.34	26.78	-46.2	-47.7	19.2	0.00e+00	0	43	0	1023410176	64	4169
2026-01-28 02:17:45.56	259.17	26.64	-46.8	-48.5	18.5	0.00e+00	0	43	0	1025507328	64	4550
2026-01-28 02:17:46.57	259.00	26.50	-46.9	-48.7	18.4	0.00e+00	0	43	0	1026555904	64	4666
2026-01-28 02:17:47.57	258.83	26.35	-47.4	-49.4	17.7	0.00e+00	0	43	0	1028653056	65	4781
2026-01-28 02:17:48.58	258.67	26.21	-47.5	-49.4	17.6	0.00e+00	0	43	0	1030750208	65	4811
2026-01-28 02:17:49.59	258.50	26.07	-47.8	-49.8	17.2	0.00e+00	0	43	0	1032847360	66	4755
2026-01-28 02:17:50.60	258.34	25.93	-47.2	-49.1	17.9	0.00e+00	0	43	0	1034944512	66	4375
2026-01-28 02:17:51.61	258.18	25.79	-46.8	-48.6	18.4	0.00e+00	0	43	0	1035993088	65	4359
2026-01-28 02:17:52.61	258.02	25.65	-46.4	-48.0	18.9	0.00e+00	0	43	0	1038090240	64	4309
2026-01-28 02:17:53.61	257.87	25.51	-46.1	-47.6	19.4	0.00e+00	0	43	0	1040187392	63	4342
2026-01-28 02:17:54.62	257.71	25.37	-45.9	-47.4	19.6	0.00e+00	0	43	0	1042284544	63	4254
2026-01-28 02:17:55.63	257.56	25.23	-45.6	-47.0	20.0	0.00e+00	0	43	0	1044381696	62	4293
2026-01-28 02:17:56.63	257.40	25.10	-45.7	-47.1	19.9	0.00e+00	0	43	0	1045430272	62	4381
2026-01-28 02:17:57.64	257.25	24.96	-45.8	-47.2	19.7	0.00e+00	0	43	0	1047527424	62	4439
2026-01-28 02:17:58.65	257.10	24.82	-46.0	-47.4	19.5	0.00e+00	0	43	0	1049624576	62	4543
2026-01-28 02:17:59.65	256.95	24.68	-46.4	-47.9	19.1	0.00e+00	0	43	0	1051721728	63	4538
2026-01-28 02:18:00.66	256.80	24.55	-46.8	-48.6	18.4	0.00e+00	0	43	0	1053818880	64	4604
2026-01-28 02:18:01.67	256.66	24.41	-46.6	-48.3	18.7	0.00e+00	0	43	0	1054867456	64	4451
2026-01-28 02:18:02.68	256.51	24.28	-46.6	-48.3	18.6	0.00e+00	0	43	0	1056964608	64	4447
2026-01-28 02:18:03.68	256.37	24.14	-46.7	-48.4	18.4	0.00e+00	0	43	0	1059061760	64	4532
2026-01-28 02:18:04.69	256.22	24.01	-46.7	-48.4	18.5	0.00e+00	0	43	0	1061158912	64	4505
2026-01-28 02:18:05.70	256.08	23.87	-46.9	-48.6	18.2	0.00e+00	0	43	0	1063256064	64	4646
2026-01-28 02:18:06.71	255.94	23.74	-47.1	-48.9	18.1	0.00e+00	0	43	0	1064304640	64	4782
2026-01-28 02:18:07.72	255.80	23.61	-47.1	-49.0	17.9	0.00e+00	0	43	0	1066401792	65	4571
2026-01-28 02:18:08.73	255.66	23.48	-47.3	-49.2	17.8	0.00e+00	0	43	0	1068498944	65	4670
2026-01-28 02:18:09.74	255.53	23.34	-47.8	-49.9	17.1	0.00e+00	0	43	0	1070596096	66	4760
2026-01-28 02:18:10.74	255.39	23.21	-47.7	-49.7	17.3	0.00e+00	0	43	0	1072693248	66	4685
2026-01-28 02:18:11.75	255.26	23.08	-47.7	-49.8	17.1	0.00e+00	0	43	0	1073741824	66	4739
2026-01-28 02:18:12.76	255.12	22.95	-47.4	-49.2	17.8	0.00e+00	0	43	0	1075838976	66	4406
2026-01-28 02:18:13.77	254.99	22.82	-47.1	-48.8	18.2	0.00e+00	0	43	0	1077936128	66	4212
2026-01-28 02:18:14.77	254.86	22.69	-46.4	-48.0	19.1	0.00e+00	0	43	0	1080033280	64	4296
2026-01-28 02:18:15.78	254.73	22.56	-46.1	-47.6	19.3	0.00e+00	0	43	0	1082130432	64	4126
2026-01-28 02:18:16.79	254.60	22.44	-46.1	-47.5	19.4	0.00e+00	0	43	0	1083179008	64	4076
2026-01-28 02:18:17.79	254.47	22.31	-46.0	-47.4	19.6	0.00e+00	0	43	0	1085276160	63	4278
2026-01-28 02:18:18.80	254.35	22.18	-45.9	-47.3	19.8	0.00e+00	0	43	0	1087373312	63	4200
2026-01-28 02:18:19.81	254.22	22.05	-45.8	-47.1	19.8	0.00e+00	0	43	0	1089470464	63	4138
2026-01-28 02:18:20.81	254.10	21.93	-45.9	-47.3	19.7	0.00e+00	0	43	0	1091567616	63	4216
2026-01-28 02:18:21.82	253.97	21.80	-45.9	-47.3	19.7	0.00e+00	0	43	0	1092616192	63	4194
2026-01-28 02:18:22.83	253.85	21.68	-45.9	-47.3	19.7	0.00e+00	0	43	0	1094713344	63	4213
2026-01-28 02:18:23.83	253.73	21.55	-46.1	-47.6	19.4	0.00e+00	0	43	0	1096810496	63	4342
2026-01-28 02:18:24.84	253.61	21.43	-46.0	-47.5	19.5	0.00e+00	0	43	0	1098907648	63	4297
2026-01-28 02:18:25.85	253.49	21.30	-46.2	-47.7	19.3	0.00e+00	0	43	0	1101004800	63	4412
2026-01-28 02:18:26.85	253.37	21.18	-46.4	-48.0	18.9	0.00e+00	0	43	0	1102053376	63	4550
2026-01-28 02:18:27.85	253.25	21.06	-46.5	-48.1	18.9	0.00e+00	0	43	0	1104150528	63	4630
2026-01-28 02:18:28.86	253.14	20.94	-46.6	-48.2	18.8	0.00e+00	0	43	0	1106247680	63	4684
2026-01-28 02:18:29.87	253.02	20.81	-46.4	-48.0	19.0	0.00e+00	0	43	0	1108344832	63	4553
2026-01-28 02:18:30.88	252.90	20.69	-46.4	-47.9	19.0	0.00e+00	0	43	0	1110441984	63	4540
2026-01-28 02:18:31.88	252.79	20.57	-46.3	-47.8	19.1	0.00e+00	0	43	0	1111490560	63	4478
2026-01-28 02:18:32.89	252.68	20.45	-46.2	-47.7	19.3	0.00e+00	0	43	0	1113587712	63	4392
2026-01-28 02:18:33.89	252.57	20.33	-46.0	-47.5	19.4	0.00e+00	0	43	0	1115684864	63	4312
2026-01-28 02:18:34.90	252.46	20.21	-45.9	-47.3	19.7	0.00e+00	0	43	0	1117782016	63	4199
2026-01-28 02:18:35.91	252.34	20.09	-45.9	-47.3	19.6	0.00e+00	0	43	0	1119879168	63	4241
2026-01-28 02:18:36.92	252.23	19.97	-46.0	-47.4	19.5	0.00e+00	0	43	0	1120927744	63	4278
2026-01-28 02:18:37.93	252.13	19.85	-46.3	-47.9	19.1	0.00e+00	0	43	0	1123024896	63	4499
2026-01-28 02:18:38.93	252.02	19.73	-46.4	-47.9	19.0	0.00e+00	0	43	0	1125122048	63	4537
2026-01-28 02:18:39.94	251.91	19.62	-46.7	-48.4	18.5	0.00e+00	0	43	0	1127219200	64	4503
2026-01-28 02:18:40.95	251.81	19.50	-47.1	-48.8	18.1	0.00e+00	0	43	0	1129316352	64	4740
2026-01-28 02:18:41.95	251.70	19.38	-47.3	-49.2	17.7	0.00e+00	0	43	0	1130364928	65	4661
2026-01-28 02:18:42.96	251.60	19.27	-47.7	-49.6	17.3	0.00e+00	0	43	0	1132462080	66	4649
2026-01-28 02:18:43.97	251.49	19.15	-47.7	-49.8	17.2	0.00e+00	0	43	0	1134559232	66	4711
2026-01-28 02:18:44.98	251.39	19.04	-47.8	-49.9	17.1	0.00e+00	0	43	0	1136656384	66	4771
2026-01-28 02:18:45.99	251.29	18.92	-47.6	-49.6	17.4	0.00e+00	0	43	0	1138753536	66	4633
2026-01-28 02:18:46.99	251.19	18.81	-47.5	-49.5	17.4	0.00e+00	0	43	0	1139802112	66	4556
2026-01-28 02:18:48.00	251.09	18.69	-47.6	-49.6	17.3	0.00e+00	0	43	0	1141899264	66	4636
2026-01-28 02:18:49.01	250.99	18.58	-47.4	-49.3	17.6	0.00e+00	0	43	0	1143996416	66	4453
2026-01-28 02:18:50.02	250.89	18.47	-47.4	-49.2	17.7	0.00e+00	0	43	0	1146093568	66	4437
2026-01-28 02:18:51.02	250.79	18.35	-47.4	-49.3	17.5	0.00e+00	0	43	0	1148190720	66	4491
2026-01-28 02:18:52.03	250.69	18.24	-47.2	-49.1	17.9	0.00e+00	0	43	0	1149239296	66	4342
2026-01-28 02:18:53.04	250.59	18.13	-47.3	-49.2	17.7	0.00e+00	0	43	0	1151336448	66	4402
2026-01-28 02:18:54.04	250.50	18.02	-47.3	-49.2	17.7	0.00e+00	0	43	0	1153433600	66	4417
2026-01-28 02:18:55.05	250.40	17.91	-47.3	-49.1	17.7	0.00e+00	0	43	0	1155530752	66	4382
2026-01-28 02:18:56.06	250.31	17.80	-46.9	-48.7	18.2	0.00e+00	0	43	0	1157627904	65	4400
2026-01-28 02:18:57.07	250.22	17.68	-46.8	-48.6	18.3	0.00e+00	0	43	0	1158676480	65	4342
2026-01-28 02:18:58.08	250.12	17.57	-46.6	-48.3	18.5	0.00e+00	0	43	0	1160773632	65	4207
2026-01-28 02:18:59.09	250.03	17.46	-46.6	-48.2	18.6	0.00e+00	0	43	0	1162870784	65	4174
2026-01-28 02:19:00.09	249.94	17.36	-46.4	-48.0	18.7	0.00e+00	0	43	0	1164967936	64	4336
2026-01-28 02:19:01.10	249.85	17.25	-46.4	-48.1	18.7	0.00e+00	0	43	0	1167065088	64	4348
2026-01-28 02:19:02.11	249.76	17.14	-46.6	-48.2	18.5	0.00e+00	0	43	0	1168113664	64	4440
2026-01-28 02:19:03.12	249.67	17.03	-46.7	-48.4	18.4	0.00e+00	0	43	0	1170210816	64	4500
2026-01-28 02:19:04.12	249.58	16.92	-46.7	-48.4	18.3	0.00e+00	0	43	0	1172307968	64	4511
2026-01-28 02:19:05.13	249.49	16.82	-46.8	-48.5	18.2	0.00e+00	0	43	0	1174405120	64	4592
2026-01-28 02:19:06.13	249.40	16.71	-47.0	-48.8	18.0	0.00e+00	0	43	0	1176502272	64	4724
2026-01-28 02:19:07.14	249.32	16.60	-47.1	-48.9	17.8	0.00e+00	0	43	0	1177550848	64	4786
2026-01-28 02:19:08.15	249.23	16.50	-47.3	-49.2	17.7	0.00e+00	0	43	0	1179648000	65	4654
2026-01-28 02:19:09.16	249.14	16.39	-47.2	-49.0	17.8	0.00e+00	0	43	0	1181745152	65	4589
2026-01-28 02:19:10.17	249.06	16.29	-47.0	-48.9	18.0	0.00e+00	0	43	0	1183842304	65	4497
2026-01-28 02:19:11.18	248.97	16.18	-47.0	-48.8	17.9	0.00e+00	0	43	0	1185939456	65	4493
2026-01-28 02:19:12.18	248.89	16.08	-46.8	-48.6	18.2	0.00e+00	0	43	0	1186988032	65	4349
2026-01-28 02:19:13.19	248.81	15.98	-46.8	-48.6	18.1	0.00e+00	0	43	0	1189085184	65	4359
2026-01-28 02:19:14.20	248.72	15.87	-46.8	-48.5	18.2	0.00e+00	0	43	0	1191182336	65	4306
2026-01-28 02:19:15.20	248.64	15.77	-46.8	-48.6	18.2	0.00e+00	0	43	0	1193279488	65	4346
2026-01-28 02:19:16.21	248.56	15.67	-46.5	-48.2	18.5	0.00e+00	0	43	0	1195376640	65	4173
2026-01-28 02:19:17.22	248.48	15.56	-46.6	-48.3	18.5	0.00e+00	0	43	0	1196425216	65	4197
2026-01-28 02:19:18.23	248.40	15.46	-46.6	-48.3	18.4	0.00e+00	0	43	0	1198522368	65	4242
2026-01-28 02:19:19.24	248.32	15.36	-46.7	-48.4	18.3	0.00e+00	0	43	0	1200619520	65	4287
2026-01-28 02:19:20.25	248.24	15.26	-47.0	-48.8	17.9	0.00e+00	0	43	0	1202716672	65	4487
2026-01-28 02:19:21.25	248.16	15.16	-47.1	-48.9	17.9	0.00e+00	0	43	0	1204813824	65	4519
2026-01-28 02:19:22.26	248.08	15.06	-47.3	-49.2	17.6	0.00e+00	0	43	0	1206910976	65	4667
2026-01-28 02:19:23.27	248.00	14.96	-47.4	-49.4	17.3	0.00e+00	0	43	0	1207959552	65	4797
2026-01-28 02:19:24.27	247.93	14.86	-47.6	-49.7	17.2	0.00e+00	0	43	0	1210056704	65	4928
2026-01-28 02:19:25.28	247.85	14.76	-47.8	-49.9	16.8	0.00e+00	0	43	0	1212153856	66	4796
2026-01-28 02:19:26.29	247.77	14.66	-48.0	-50.2	16.5	0.00e+00	0	43	0	1214251008	66	4968
2026-01-28 02:19:27.30	247.70	14.56	-48.0	-50.3	16.5	0.00e+00	0	43	0	1215299584	66	4988
2026-01-28 02:19:28.30	247.62	14.46	-48.2	-50.5	16.4	0.00e+00	0	43	0	1217396736	66	5102
2026-01-28 02:19:29.31	247.55	14.36	-48.3	-50.6	16.2	0.00e+00	0	43	0	1219493888	67	4902
2026-01-28 02:19:30.32	247.47	14.26	-48.1	-50.3	16.5	0.00e+00	0	43	0	1221591040	67	4744
2026-01-28 02:19:31.33	247.40	14.17	-48.0	-50.2	16.6	0.00e+00	0	43	0	1223688192	67	4675
2026-01-28 02:19:32.33	247.33	14.07	-48.0	-50.1	16.6	0.00e+00	0	43	0	1224736768	67	4651
2026-01-28 02:19:33.35	247.25	13.97	-47.8	-49.9	16.9	0.00e+00	0	43	0	1226833920	67	4505
2026-01-28 02:19:34.36	247.18	13.88	-47.6	-49.7	17.1	0.00e+00	0	43	0	1228931072	67	4409
2026-01-28 02:19:35.37	247.11	13.78	-47.5	-49.5	17.2	0.00e+00	0	43	0	1231028224	67	4336
2026-01-28 02:19:36.37	247.04	13.68	-47.3	-49.2	17.5	0.00e+00	0	43	0	1233125376	66	4407
2026-01-28 02:19:37.38	246.97	13.59	-47.1	-49.0	17.7	0.00e+00	0	43	0	1235222528	66	4301
2026-01-28 02:19:38.39	246.90	13.49	-47.2	-49.0	17.6	0.00e+00	0	43	0	1236271104	66	4327
2026-01-28 02:19:39.39	246.83	13.40	-46.9	-48.7	17.9	0.00e+00	0	43	0	1238368256	65	4401
2026-01-28 02:19:40.40	246.76	13.30	-46.8	-48.6	18.0	0.00e+00	0	43	0	1240465408	65	4343
2026-01-28 02:19:41.41	246.69	13.21	-46.8	-48.6	17.9	0.00e+00	0	43	0	1242562560	65	4344
2026-01-28 02:19:42.41	246.62	13.12	-46.8	-48.5	18.1	0.00e+00	0	43	0	1243611136	65	4330
2026-01-28 02:19:43.42	246.56	13.02	-46.9	-48.7	17.9	0.00e+00	0	43	0	1245708288	65	4402
2026-01-28 02:19:44.43	246.49	12.93	-46.9	-48.7	17.8	0.00e+00	0	43	0	1247805440	65	4440
