passes_logs/2026/01/28/R3.2S_Murmansk/R3.2S_Murmansk__20260128_113705_NOAA_21_JPSS-2_rec.log

#Pass ID: 20260128_113705_NOAA 21 (JPSS-2)
#Satellite: NOAA 21 (JPSS-2)
#Configuration: NOAA-21
#almurnet v.1.7.20251203
#Start time: 2026-01-28 11:37:06

#Version: 2.2.20231116
#Station: R3.2S_Murmansk
#Location: 33.079688 lon 68.888172 lat
#TLE: 1 54234U 22150A   26027.77052245  .00000166  00000+0  99439-4 0  9997
#TLE: 2 54234  98.7510 328.5165 0000872 203.6403 156.4733 14.19540252166628

#Time	Az	El	Level	Level2	SNR	BER	BlckErr	Temp	State	Recorded	gain1	gain2
2026-01-28 11:37:06.26	204.23	2.04	-54.4	-67.1	3.8	1.49e+00	0	43	0	0	79	16498
2026-01-28 11:37:07.26	204.30	2.10	-54.4	-67.2	3.8	1.49e+00	0	43	104	0	79	16522
2026-01-28 11:37:08.26	204.36	2.16	-54.3	-67.1	3.8	1.49e+00	0	43	104	0	79	16434
2026-01-28 11:37:09.27	204.42	2.22	-54.3	-67.1	3.8	1.49e+00	0	43	104	0	79	16383
2026-01-28 11:37:10.28	204.49	2.27	-54.3	-67.0	3.8	1.49e+00	0	43	104	0	79	16296
2026-01-28 11:37:11.29	204.55	2.33	-54.2	-67.0	3.8	1.49e+00	0	43	104	0	79	16217
2026-01-28 11:37:12.29	204.61	2.39	-54.2	-66.9	3.8	1.49e+00	0	43	104	0	79	16109
2026-01-28 11:37:13.30	204.68	2.45	-54.1	-66.9	3.8	1.49e+00	0	43	104	0	79	16041
2026-01-28 11:37:14.31	204.74	2.51	-54.1	-66.9	3.8	1.49e+00	0	43	104	0	79	15968
2026-01-28 11:37:15.32	204.81	2.57	-54.1	-66.8	3.8	1.49e+00	0	43	104	0	79	15869
2026-01-28 11:37:16.32	204.87	2.62	-54.0	-66.7	3.8	1.49e+00	0	43	104	0	79	15756
2026-01-28 11:37:17.34	204.94	2.68	-53.9	-66.7	3.8	1.49e+00	0	43	104	0	79	15596
2026-01-28 11:37:18.35	205.00	2.74	-53.9	-66.6	3.8	1.49e+00	0	43	104	0	79	15521
2026-01-28 11:37:19.35	205.07	2.80	-53.7	-66.5	3.8	1.49e+00	0	43	104	0	79	15313
2026-01-28 11:37:20.36	205.13	2.86	-53.6	-66.3	3.8	1.49e+00	0	43	104	0	79	15041
2026-01-28 11:37:21.36	205.20	2.92	-53.4	-66.2	3.8	1.49e+00	0	43	104	0	78	15633
2026-01-28 11:37:22.37	205.26	2.98	-53.2	-66.0	3.8	1.49e+00	0	43	104	0	78	15256
2026-01-28 11:37:23.38	205.33	3.04	-52.9	-65.6	3.8	1.49e+00	0	43	104	0	77	15540
2026-01-28 11:37:24.39	205.40	3.10	-52.5	-65.1	3.8	1.49e+00	0	43	104	0	77	14598
2026-01-28 11:37:25.40	205.47	3.16	-52.4	-65.0	3.8	1.49e+00	0	43	104	0	76	15279
2026-01-28 11:37:26.41	205.53	3.22	-52.4	-65.0	3.8	1.49e+00	0	43	104	0	76	15260
2026-01-28 11:37:27.42	205.60	3.28	-52.4	-65.0	3.8	1.49e+00	0	43	104	0	76	15340
2026-01-28 11:37:28.43	205.67	3.34	-52.4	-65.1	3.8	1.49e+00	0	43	104	0	76	15466
2026-01-28 11:37:29.44	205.74	3.40	-52.4	-65.1	3.8	1.49e+00	0	43	104	0	76	15469
2026-01-28 11:37:30.45	205.80	3.46	-52.4	-65.1	3.8	1.49e+00	0	43	104	0	76	15415
2026-01-28 11:37:31.45	205.87	3.52	-52.4	-65.0	3.8	1.49e+00	0	43	104	0	76	15292
2026-01-28 11:37:32.46	205.94	3.58	-52.4	-65.0	3.8	1.49e+00	0	43	104	0	76	15296
2026-01-28 11:37:33.47	206.01	3.64	-52.4	-65.0	3.8	1.49e+00	0	43	104	0	76	15342
2026-01-28 11:37:34.48	206.08	3.70	-52.4	-65.1	3.8	1.49e+00	0	43	104	0	76	15414
2026-01-28 11:37:35.49	206.15	3.76	-52.4	-65.1	3.8	1.49e+00	0	43	104	0	76	15445
2026-01-28 11:37:36.50	206.22	3.82	-52.3	-65.0	3.8	1.49e+00	0	43	104	0	76	15290
2026-01-28 11:37:37.50	206.29	3.88	-52.3	-64.5	3.8	1.49e+00	0	43	104	0	76	14532
2026-01-28 11:37:38.51	206.36	3.94	-52.2	-63.8	3.8	1.49e+00	0	43	104	0	76	13390
2026-01-28 11:37:39.52	206.43	4.00	-52.1	-62.6	4.0	1.49e+00	0	43	104	0	76	11570
2026-01-28 11:37:40.53	206.50	4.06	-52.1	-61.9	4.1	1.48e+00	0	43	104	0	76	10747
2026-01-28 11:37:41.53	206.57	4.12	-51.9	-61.0	4.3	1.45e+00	0	43	104	0	75	10291
2026-01-28 11:37:42.54	206.65	4.19	-51.9	-60.8	4.4	1.43e+00	0	43	104	0	75	9997
2026-01-28 11:37:43.55	206.72	4.25	-51.9	-60.8	4.4	1.45e+00	0	43	104	0	75	9973
2026-01-28 11:37:44.56	206.79	4.31	-51.9	-60.7	4.5	1.31e+00	0	43	104	0	75	9882
2026-01-28 11:37:45.57	206.86	4.37	-51.9	-60.4	4.6	1.29e+00	0	43	104	0	75	9564
2026-01-28 11:37:46.57	206.93	4.43	-51.7	-59.7	4.9	1.11e+00	0	43	104	0	75	8836
2026-01-28 11:37:47.58	207.01	4.49	-51.3	-57.6	6.2	3.44e-01	0	43	0	2097152	74	7355
2026-01-28 11:37:48.59	207.08	4.56	-50.9	-56.3	7.4	1.37e-01	0	43	0	5242880	73	6710
2026-01-28 11:37:49.60	207.15	4.62	-50.2	-54.4	9.4	4.18e-02	0	43	0	8388608	72	5679
2026-01-28 11:37:50.60	207.23	4.68	-49.9	-53.6	10.3	7.39e-03	0	43	0	11534336	71	5489
2026-01-28 11:37:51.61	207.30	4.74	-49.4	-52.6	11.3	1.73e-03	0	43	0	14680064	70	5207
2026-01-28 11:37:52.61	207.38	4.80	-49.0	-51.9	12.1	2.37e-04	0	43	0	17825792	69	5046
2026-01-28 11:37:53.62	207.45	4.87	-48.7	-51.4	12.6	1.15e-04	0	43	0	20971520	69	4789
2026-01-28 11:37:54.63	207.53	4.93	-48.8	-51.6	12.4	1.55e-04	0	43	0	24117248	69	4889
2026-01-28 11:37:55.64	207.60	4.99	-49.0	-52.0	12.0	2.55e-04	0	43	0	27262976	69	5119
2026-01-28 11:37:56.64	207.68	5.06	-49.2	-52.3	11.7	6.06e-04	0	43	0	30408704	69	5313
2026-01-28 11:37:57.65	207.75	5.12	-51.7	-59.7	5.0	6.16e-02	0	43	0	33554432	73	9943
2026-01-28 11:37:58.66	207.83	5.18	-46.2	-47.8	15.7	8.64e-01	0	43	104	33554432	64	4217
2026-01-28 11:37:59.67	207.91	5.24	-46.8	-48.6	15.6	0.00e+00	0	43	0	35651584	64	4620
2026-01-28 11:38:00.68	207.98	5.31	-46.2	-47.7	16.5	0.00e+00	0	43	0	38797312	62	4700
2026-01-28 11:38:01.69	208.06	5.37	-45.5	-46.9	17.1	0.00e+00	0	43	0	41943040	63	4013
2026-01-28 11:38:02.69	208.14	5.43	-45.3	-46.6	17.5	0.00e+00	0	43	0	45088768	62	4129
2026-01-28 11:38:03.70	208.22	5.50	-45.2	-46.5	17.6	0.00e+00	0	43	0	48234496	62	4072
2026-01-28 11:38:04.71	208.29	5.56	-45.3	-46.7	17.4	0.00e+00	0	43	0	51380224	62	4162
2026-01-28 11:38:05.71	208.37	5.63	-45.3	-46.6	17.5	0.00e+00	0	43	0	54525952	62	4126
2026-01-28 11:38:06.72	208.45	5.69	-45.2	-46.6	17.5	0.00e+00	0	43	0	57671680	62	4110
2026-01-28 11:38:07.73	208.53	5.75	-45.2	-46.5	17.6	0.00e+00	0	43	0	60817408	62	4098
2026-01-28 11:38:08.74	208.61	5.82	-45.2	-46.5	17.7	0.00e+00	0	43	0	63963136	62	4066
2026-01-28 11:38:09.75	208.69	5.88	-45.1	-46.5	17.7	0.00e+00	0	43	0	67108864	62	4052
2026-01-28 11:38:10.75	208.77	5.95	-45.0	-46.3	17.8	0.00e+00	0	43	0	70254592	62	3998
2026-01-28 11:38:11.76	208.85	6.01	-45.1	-46.4	17.8	0.00e+00	0	43	0	73400320	62	4007
2026-01-28 11:38:12.77	208.93	6.08	-45.0	-46.3	17.9	0.00e+00	0	43	0	76546048	62	3983
2026-01-28 11:38:13.77	209.01	6.14	-45.1	-46.4	17.8	0.00e+00	0	43	0	79691776	62	4031
2026-01-28 11:38:14.78	209.09	6.20	-44.9	-46.2	18.0	0.00e+00	0	43	0	82837504	61	4170
2026-01-28 11:38:15.79	209.18	6.27	-45.1	-46.4	17.7	0.00e+00	0	43	0	85983232	61	4265
2026-01-28 11:38:16.80	209.26	6.33	-45.1	-46.5	17.7	0.00e+00	0	43	0	89128960	61	4293
2026-01-28 11:38:17.81	209.34	6.40	-44.8	-46.0	18.2	0.00e+00	0	43	0	92274688	61	4074
2026-01-28 11:38:18.81	209.42	6.46	-44.8	-46.0	18.1	0.00e+00	0	43	0	95420416	61	4089
2026-01-28 11:38:19.82	209.51	6.53	-45.0	-46.3	17.9	0.00e+00	0	43	0	98566144	61	4218
2026-01-28 11:38:20.83	209.59	6.60	-45.0	-46.3	17.9	0.00e+00	0	43	0	101711872	61	4226
2026-01-28 11:38:21.84	209.68	6.66	-45.0	-46.2	18.0	0.00e+00	0	43	0	104857600	61	4183
2026-01-28 11:38:22.85	209.76	6.73	-44.9	-46.1	18.1	0.00e+00	0	43	0	108003328	61	4132
2026-01-28 11:38:23.86	209.85	6.79	-44.9	-46.2	18.0	0.00e+00	0	43	0	111149056	61	4153
2026-01-28 11:38:24.87	209.93	6.86	-45.1	-46.3	17.9	0.00e+00	0	43	0	114294784	61	4236
2026-01-28 11:38:25.88	210.02	6.93	-45.1	-46.3	17.9	0.00e+00	0	43	0	117440512	61	4234
2026-01-28 11:38:26.89	210.10	6.99	-45.1	-46.3	17.9	0.00e+00	0	43	0	120586240	61	4233
2026-01-28 11:38:27.90	210.19	7.06	-44.8	-46.0	18.2	0.00e+00	0	43	0	123731968	61	4076
2026-01-28 11:38:28.91	210.28	7.12	-44.7	-46.0	18.3	0.00e+00	0	43	0	126877696	61	4058
2026-01-28 11:38:29.91	210.36	7.19	-44.8	-46.0	18.2	0.00e+00	0	43	0	130023424	61	4083
2026-01-28 11:38:30.92	210.45	7.26	-44.7	-45.9	18.3	0.00e+00	0	43	0	133169152	61	4017
2026-01-28 11:38:31.93	210.54	7.32	-44.8	-46.0	18.2	0.00e+00	0	43	0	136314880	61	4077
2026-01-28 11:38:32.94	210.63	7.39	-44.8	-46.0	18.2	0.00e+00	0	43	0	139460608	61	4073
2026-01-28 11:38:33.94	210.71	7.46	-44.7	-45.9	18.3	0.00e+00	0	43	0	142606336	61	4034
2026-01-28 11:38:34.95	210.80	7.53	-44.8	-46.1	18.2	0.00e+00	0	43	0	145752064	61	4111
2026-01-28 11:38:35.96	210.89	7.59	-44.7	-45.9	18.4	0.00e+00	0	43	0	148897792	61	4019
2026-01-28 11:38:36.97	210.98	7.66	-44.8	-46.0	18.3	0.00e+00	0	43	0	152043520	61	4081
2026-01-28 11:38:37.98	211.07	7.73	-44.8	-46.1	18.2	0.00e+00	0	43	0	155189248	61	4112
2026-01-28 11:38:38.99	211.16	7.80	-44.9	-46.2	18.1	0.00e+00	0	43	0	158334976	61	4175
2026-01-28 11:38:39.99	211.25	7.86	-44.8	-46.1	18.3	0.00e+00	0	43	0	161480704	61	4100
2026-01-28 11:38:41.00	211.34	7.93	-44.8	-46.0	18.3	0.00e+00	0	43	0	164626432	61	4089
2026-01-28 11:38:42.01	211.44	8.00	-44.8	-46.0	18.3	0.00e+00	0	43	0	167772160	61	4082
2026-01-28 11:38:43.02	211.53	8.07	-44.9	-46.2	18.2	0.00e+00	0	43	0	170917888	61	4152
2026-01-28 11:38:44.03	211.62	8.14	-44.7	-45.9	18.4	0.00e+00	0	43	0	174063616	61	4041
2026-01-28 11:38:45.04	211.71	8.20	-44.8	-46.0	18.3	0.00e+00	0	43	0	177209344	61	4090
2026-01-28 11:38:46.05	211.81	8.27	-44.8	-46.1	18.3	0.00e+00	0	43	0	180355072	61	4099
2026-01-28 11:38:47.06	211.90	8.34	-45.0	-46.2	18.1	0.00e+00	0	43	0	184549376	61	4184
2026-01-28 11:38:48.07	212.00	8.41	-44.7	-45.9	18.5	0.00e+00	0	43	0	187695104	61	4039
2026-01-28 11:38:49.07	212.09	8.48	-44.7	-45.9	18.5	0.00e+00	0	43	0	190840832	61	4012
2026-01-28 11:38:50.08	212.19	8.55	-44.8	-46.0	18.4	0.00e+00	0	43	0	193986560	61	4054
2026-01-28 11:38:51.08	212.28	8.62	-44.5	-45.7	18.7	0.00e+00	0	43	0	196083712	61	3932
2026-01-28 11:38:52.09	212.38	8.69	-44.6	-45.7	18.6	0.00e+00	0	43	0	199229440	60	4193
2026-01-28 11:38:53.10	212.47	8.76	-44.5	-45.6	18.7	0.00e+00	0	43	0	202375168	60	4144
2026-01-28 11:38:54.11	212.57	8.83	-44.4	-45.6	18.8	0.00e+00	0	43	0	205520896	60	4117
2026-01-28 11:38:55.12	212.67	8.90	-44.5	-45.7	18.7	0.00e+00	0	43	0	208666624	60	4170
2026-01-28 11:38:56.13	212.76	8.96	-44.5	-45.6	18.7	0.00e+00	0	43	0	211812352	60	4145
2026-01-28 11:38:57.14	212.86	9.03	-44.4	-45.6	18.8	0.00e+00	0	43	0	214958080	60	4109
2026-01-28 11:38:58.15	212.96	9.11	-44.4	-45.5	18.8	0.00e+00	0	43	0	218103808	60	4095
2026-01-28 11:38:59.16	213.06	9.18	-44.4	-45.5	18.9	0.00e+00	0	43	0	222298112	60	4084
2026-01-28 11:39:00.17	213.16	9.25	-44.3	-45.4	19.0	0.00e+00	0	43	0	225443840	60	4034
2026-01-28 11:39:01.17	213.26	9.32	-44.3	-45.4	19.0	0.00e+00	0	43	0	228589568	60	4015
2026-01-28 11:39:02.18	213.36	9.39	-44.3	-45.4	19.0	0.00e+00	0	43	0	231735296	60	4032
2026-01-28 11:39:03.19	213.46	9.46	-44.3	-45.4	19.0	0.00e+00	0	42	0	234881024	60	4049
2026-01-28 11:39:04.20	213.56	9.53	-44.3	-45.4	19.1	0.00e+00	0	43	0	238026752	60	4022
2026-01-28 11:39:05.21	213.67	9.60	-44.3	-45.4	19.1	0.00e+00	0	43	0	241172480	60	4018
2026-01-28 11:39:06.21	213.77	9.67	-44.3	-45.4	19.1	0.00e+00	0	43	0	243269632	60	4011
2026-01-28 11:39:07.22	213.87	9.74	-44.3	-45.4	19.4	0.00e+00	0	43	0	246415360	59	4253
2026-01-28 11:39:08.23	213.97	9.81	-44.5	-45.6	19.2	0.00e+00	0	43	0	249561088	59	4343
2026-01-28 11:39:09.24	214.08	9.88	-44.4	-45.5	19.3	0.00e+00	0	43	0	252706816	59	4321
2026-01-28 11:39:10.25	214.18	9.96	-44.2	-45.3	19.5	0.00e+00	0	43	0	255852544	59	4195
2026-01-28 11:39:11.26	214.29	10.03	-44.3	-45.4	19.4	0.00e+00	0	43	0	260046848	59	4254
2026-01-28 11:39:12.27	214.39	10.10	-44.3	-45.4	19.4	0.00e+00	0	43	0	263192576	59	4244
2026-01-28 11:39:13.28	214.50	10.17	-44.1	-45.2	19.6	0.00e+00	0	43	0	266338304	59	4166
2026-01-28 11:39:14.29	214.60	10.24	-44.1	-45.2	19.6	0.00e+00	0	43	0	269484032	59	4151
2026-01-28 11:39:15.29	214.71	10.31	-44.1	-45.1	19.6	0.00e+00	0	43	0	272629760	59	4139
2026-01-28 11:39:16.30	214.82	10.39	-44.0	-45.1	19.7	0.00e+00	0	43	0	275775488	59	4101
2026-01-28 11:39:17.31	214.93	10.46	-44.1	-45.1	19.7	0.00e+00	0	43	0	278921216	59	4139
2026-01-28 11:39:18.32	215.03	10.53	-44.0	-45.0	19.8	0.00e+00	0	43	0	282066944	59	4091
2026-01-28 11:39:19.32	215.14	10.60	-44.0	-45.1	19.7	0.00e+00	0	42	0	285212672	59	4101
2026-01-28 11:39:20.33	215.25	10.68	-43.9	-45.0	19.8	0.00e+00	0	43	0	288358400	59	4069
2026-01-28 11:39:21.34	215.36	10.75	-44.1	-45.1	19.7	0.00e+00	0	43	0	290455552	59	4133
2026-01-28 11:39:22.34	215.47	10.82	-44.1	-45.1	19.7	0.00e+00	0	43	0	293601280	59	4137
2026-01-28 11:39:23.35	215.58	10.90	-43.9	-45.0	19.8	0.00e+00	0	43	0	296747008	59	4062
2026-01-28 11:39:24.36	215.69	10.97	-44.0	-45.0	19.8	0.00e+00	0	43	0	300941312	59	4076
2026-01-28 11:39:25.37	215.80	11.04	-44.0	-45.0	19.8	0.00e+00	0	43	0	304087040	59	4083
2026-01-28 11:39:26.37	215.92	11.12	-43.9	-44.9	19.9	0.00e+00	0	43	0	307232768	59	4020
2026-01-28 11:39:27.38	216.03	11.19	-43.9	-44.9	19.9	0.00e+00	0	43	0	310378496	59	4034
2026-01-28 11:39:28.39	216.14	11.26	-43.9	-44.9	19.9	0.00e+00	0	43	0	313524224	59	4047
2026-01-28 11:39:29.40	216.26	11.34	-43.9	-45.0	19.9	0.00e+00	0	43	0	316669952	59	4063
2026-01-28 11:39:30.40	216.37	11.41	-43.8	-44.8	20.0	0.00e+00	0	42	0	319815680	59	3979
2026-01-28 11:39:31.41	216.49	11.48	-43.8	-44.8	20.0	0.00e+00	0	43	0	322961408	59	3974
2026-01-28 11:39:32.42	216.60	11.56	-43.7	-44.7	20.1	0.00e+00	0	43	0	326107136	59	3955
2026-01-28 11:39:33.43	216.72	11.63	-43.7	-44.7	20.1	0.00e+00	0	43	0	329252864	59	3939
2026-01-28 11:39:34.44	216.84	11.71	-43.7	-44.7	20.1	0.00e+00	0	43	0	332398592	59	3954
2026-01-28 11:39:35.44	216.95	11.78	-43.8	-44.9	20.0	0.00e+00	0	43	0	335544320	59	4009
2026-01-28 11:39:36.46	217.07	11.86	-43.6	-44.6	20.2	0.00e+00	0	43	0	338690048	59	3912
2026-01-28 11:39:37.46	217.19	11.93	-43.7	-44.7	20.1	0.00e+00	0	43	0	341835776	59	3923
2026-01-28 11:39:38.47	217.31	12.01	-43.7	-44.7	20.1	0.00e+00	0	43	0	344981504	59	3935
2026-01-28 11:39:39.48	217.43	12.08	-43.6	-44.6	20.2	0.00e+00	0	43	0	348127232	59	3892
2026-01-28 11:39:40.49	217.55	12.16	-43.7	-44.6	20.2	0.00e+00	0	43	0	351272960	59	3911
2026-01-28 11:39:41.50	217.67	12.23	-43.6	-44.6	20.3	0.00e+00	0	43	0	354418688	59	3879
2026-01-28 11:39:42.50	217.79	12.31	-43.6	-44.5	20.3	0.00e+00	0	43	0	357564416	59	3862
2026-01-28 11:39:43.51	217.91	12.38	-43.5	-44.5	20.3	0.00e+00	0	43	0	360710144	59	3852
2026-01-28 11:39:44.51	218.04	12.46	-43.6	-44.6	20.2	0.00e+00	0	43	0	363855872	59	3910
2026-01-28 11:39:45.52	218.16	12.53	-43.4	-44.4	20.4	0.00e+00	0	43	0	367001600	58	4029
2026-01-28 11:39:46.53	218.28	12.61	-43.4	-44.4	20.4	0.00e+00	0	43	0	370147328	58	4027
2026-01-28 11:39:47.53	218.41	12.69	-43.5	-44.5	20.3	0.00e+00	0	43	0	373293056	58	4065
2026-01-28 11:39:48.54	218.53	12.76	-43.4	-44.3	20.5	0.00e+00	0	43	0	376438784	58	3988
2026-01-28 11:39:49.55	218.66	12.84	-43.3	-44.3	20.5	0.00e+00	0	43	0	379584512	58	3960
2026-01-28 11:39:50.56	218.78	12.92	-43.3	-44.3	20.5	0.00e+00	0	43	0	382730240	58	3966
2026-01-28 11:39:51.57	218.91	12.99	-43.3	-44.3	20.5	0.00e+00	0	43	0	385875968	58	3965
2026-01-28 11:39:52.58	219.04	13.07	-43.4	-44.3	20.5	0.00e+00	0	43	0	389021696	58	3997
2026-01-28 11:39:53.59	219.17	13.15	-43.4	-44.3	20.5	0.00e+00	0	43	0	392167424	58	3990
2026-01-28 11:39:54.60	219.30	13.22	-43.4	-44.3	20.5	0.00e+00	0	43	0	395313152	58	3998
2026-01-28 11:39:55.61	219.43	13.30	-43.3	-44.2	20.6	0.00e+00	0	43	0	398458880	58	3946
2026-01-28 11:39:56.62	219.56	13.38	-43.4	-44.3	20.5	0.00e+00	0	43	0	401604608	58	3990
2026-01-28 11:39:57.62	219.69	13.45	-43.4	-44.4	20.4	0.00e+00	0	43	0	404750336	58	4013
2026-01-28 11:39:58.63	219.82	13.53	-43.4	-44.3	20.5	0.00e+00	0	43	0	407896064	58	4004
2026-01-28 11:39:59.63	219.95	13.61	-43.4	-44.4	20.4	0.00e+00	0	43	0	411041792	58	4036
2026-01-28 11:40:00.64	220.08	13.69	-43.5	-44.4	20.4	0.00e+00	0	43	0	414187520	58	4042
2026-01-28 11:40:01.65	220.22	13.76	-43.5	-44.4	20.4	0.00e+00	0	43	0	417333248	58	4047
2026-01-28 11:40:02.66	220.35	13.84	-43.5	-44.4	20.4	0.00e+00	0	42	0	420478976	58	4048
2026-01-28 11:40:03.67	220.49	13.92	-43.6	-44.6	20.3	0.00e+00	0	43	0	423624704	58	4105
2026-01-28 11:40:04.68	220.62	14.00	-43.5	-44.5	20.4	0.00e+00	0	43	0	426770432	58	4071
2026-01-28 11:40:05.69	220.76	14.08	-43.6	-44.6	20.3	0.00e+00	0	43	0	429916160	58	4101
2026-01-28 11:40:06.69	220.90	14.15	-43.6	-44.6	20.3	0.00e+00	0	43	0	433061888	58	4119
2026-01-28 11:40:07.70	221.03	14.23	-43.6	-44.6	20.2	0.00e+00	0	43	0	436207616	58	4140
2026-01-28 11:40:08.71	221.17	14.31	-43.6	-44.6	20.3	0.00e+00	0	43	0	439353344	58	4107
2026-01-28 11:40:09.72	221.31	14.39	-43.6	-44.6	20.3	0.00e+00	0	43	0	442499072	58	4115
2026-01-28 11:40:10.73	221.45	14.47	-43.6	-44.6	20.3	0.00e+00	0	43	0	445644800	58	4138
2026-01-28 11:40:11.73	221.59	14.55	-43.8	-44.8	20.1	0.00e+00	0	43	0	448790528	58	4203
2026-01-28 11:40:12.74	221.73	14.62	-43.8	-44.8	20.2	0.00e+00	0	43	0	451936256	58	4201
2026-01-28 11:40:13.75	221.87	14.70	-43.7	-44.7	20.2	0.00e+00	0	43	0	455081984	58	4189
2026-01-28 11:40:14.76	222.02	14.78	-43.8	-44.8	20.1	0.00e+00	0	43	0	458227712	58	4216
2026-01-28 11:40:15.76	222.16	14.86	-43.7	-44.7	20.2	0.00e+00	0	43	0	461373440	58	4180
2026-01-28 11:40:16.77	222.30	14.94	-43.8	-44.8	20.2	0.00e+00	0	43	0	464519168	58	4210
2026-01-28 11:40:17.78	222.45	15.02	-43.7	-44.7	20.2	0.00e+00	0	43	0	467664896	58	4177
2026-01-28 11:40:18.79	222.60	15.10	-43.8	-44.8	20.1	0.00e+00	0	42	0	470810624	58	4219
2026-01-28 11:40:19.80	222.74	15.18	-43.9	-44.9	20.0	0.00e+00	0	43	0	473956352	58	4266
2026-01-28 11:40:20.81	222.89	15.26	-44.0	-45.0	19.9	0.00e+00	0	43	0	477102080	58	4323
2026-01-28 11:40:21.81	223.04	15.34	-44.0	-45.0	19.9	0.00e+00	0	43	0	480247808	58	4318
2026-01-28 11:40:22.82	223.19	15.42	-43.8	-44.7	20.2	0.00e+00	0	43	0	483393536	58	4193
2026-01-28 11:40:23.83	223.34	15.50	-43.7	-44.6	20.3	0.00e+00	0	43	0	486539264	58	4138
2026-01-28 11:40:24.84	223.49	15.58	-43.7	-44.7	20.3	0.00e+00	0	43	0	489684992	58	4163
2026-01-28 11:40:25.85	223.64	15.66	-43.7	-44.7	20.3	0.00e+00	0	43	0	492830720	58	4162
2026-01-28 11:40:26.86	223.79	15.74	-43.7	-44.7	20.3	0.00e+00	0	43	0	495976448	58	4159
2026-01-28 11:40:27.87	223.94	15.82	-43.7	-44.7	20.3	0.00e+00	0	43	0	499122176	58	4181
2026-01-28 11:40:28.87	224.09	15.90	-43.8	-44.7	20.2	0.00e+00	0	43	0	502267904	58	4189
2026-01-28 11:40:29.88	224.25	15.98	-43.6	-44.6	20.4	0.00e+00	0	43	0	505413632	58	4125
2026-01-28 11:40:30.89	224.40	16.06	-43.7	-44.7	20.2	0.00e+00	0	43	0	508559360	58	4176
2026-01-28 11:40:31.90	224.56	16.14	-43.7	-44.7	20.2	0.00e+00	0	43	0	511705088	58	4184
2026-01-28 11:40:32.91	224.72	16.22	-43.8	-44.7	20.2	0.00e+00	0	43	0	514850816	58	4188
2026-01-28 11:40:33.92	224.87	16.30	-43.6	-44.6	20.4	0.00e+00	0	43	0	517996544	58	4108
2026-01-28 11:40:34.93	225.03	16.38	-43.7	-44.7	20.3	0.00e+00	0	43	0	521142272	58	4175
2026-01-28 11:40:35.94	225.19	16.46	-43.8	-44.8	20.2	0.00e+00	0	43	0	524288000	58	4214
2026-01-28 11:40:36.94	225.35	16.54	-43.8	-44.8	20.1	0.00e+00	0	43	0	527433728	58	4233
2026-01-28 11:40:37.95	225.51	16.62	-43.9	-44.9	20.0	0.00e+00	0	43	0	530579456	58	4277
2026-01-28 11:40:38.96	225.67	16.70	-43.8	-44.8	20.1	0.00e+00	0	43	0	533725184	58	4219
2026-01-28 11:40:39.97	225.84	16.78	-43.8	-44.8	20.1	0.00e+00	0	43	0	536870912	58	4241
2026-01-28 11:40:40.99	226.00	16.86	-43.9	-45.0	20.0	0.00e+00	0	43	0	540016640	58	4295
2026-01-28 11:40:41.99	226.16	16.94	-43.8	-44.8	20.1	0.00e+00	0	43	0	543162368	58	4242
2026-01-28 11:40:43.00	226.33	17.02	-43.9	-44.9	20.1	0.00e+00	0	43	0	546308096	58	4272
2026-01-28 11:40:44.01	226.50	17.11	-43.9	-45.0	20.1	0.00e+00	0	43	0	549453824	58	4292
2026-01-28 11:40:45.02	226.66	17.19	-44.0	-45.0	20.0	0.00e+00	0	42	0	552599552	58	4305
2026-01-28 11:40:46.02	226.83	17.27	-44.0	-45.0	20.0	0.00e+00	0	43	0	555745280	58	4338
2026-01-28 11:40:47.03	227.00	17.35	-44.0	-45.1	20.0	0.00e+00	0	43	0	558891008	58	4348
2026-01-28 11:40:48.04	227.17	17.43	-44.1	-45.2	19.9	0.00e+00	0	43	0	562036736	58	4394
2026-01-28 11:40:49.04	227.34	17.51	-44.1	-45.1	19.9	0.00e+00	0	43	0	565182464	58	4367
2026-01-28 11:40:50.05	227.51	17.59	-44.1	-45.2	19.9	0.00e+00	0	43	0	568328192	58	4408
2026-01-28 11:40:51.06	227.68	17.67	-44.2	-45.3	19.8	0.00e+00	0	43	0	571473920	59	4203
2026-01-28 11:40:52.07	227.85	17.75	-44.1	-45.2	19.9	0.00e+00	0	43	0	574619648	59	4172
2026-01-28 11:40:53.08	228.03	17.84	-44.1	-45.2	19.9	0.00e+00	0	42	0	577765376	59	4153
2026-01-28 11:40:54.09	228.20	17.92	-44.0	-45.0	20.0	0.00e+00	0	43	0	580911104	59	4080
2026-01-28 11:40:55.10	228.38	18.00	-44.0	-45.0	20.0	0.00e+00	0	42	0	584056832	59	4072
2026-01-28 11:40:56.10	228.55	18.08	-43.9	-44.9	20.1	0.00e+00	0	43	0	587202560	59	4037
2026-01-28 11:40:57.11	228.73	18.16	-44.0	-45.0	20.0	0.00e+00	0	43	0	590348288	59	4082
2026-01-28 11:40:58.12	228.91	18.24	-44.0	-45.0	20.1	0.00e+00	0	43	0	593494016	59	4065
2026-01-28 11:40:59.13	229.09	18.32	-44.0	-45.0	20.0	0.00e+00	0	43	0	596639744	59	4086
2026-01-28 11:41:00.14	229.27	18.40	-44.0	-45.0	20.0	0.00e+00	0	42	0	599785472	59	4061
2026-01-28 11:41:01.14	229.45	18.49	-43.9	-44.9	20.1	0.00e+00	0	43	0	602931200	59	4020
2026-01-28 11:41:02.15	229.63	18.57	-43.7	-44.7	20.3	0.00e+00	0	43	0	606076928	59	3928
2026-01-28 11:41:03.16	229.81	18.65	-43.8	-44.7	20.3	0.00e+00	0	43	0	609222656	59	3952
2026-01-28 11:41:04.17	230.00	18.73	-43.8	-44.8	20.3	0.00e+00	0	43	0	612368384	59	3961
2026-01-28 11:41:05.18	230.18	18.81	-43.7	-44.6	20.4	0.00e+00	0	43	0	615514112	59	3899
2026-01-28 11:41:06.19	230.37	18.89	-43.6	-44.6	20.4	0.00e+00	0	43	0	618659840	59	3899
2026-01-28 11:41:07.20	230.56	18.97	-43.6	-44.6	20.4	0.00e+00	0	43	0	621805568	59	3897
2026-01-28 11:41:08.21	230.74	19.05	-43.5	-44.5	20.5	0.00e+00	0	43	0	624951296	59	3827
2026-01-28 11:41:09.22	230.93	19.14	-43.6	-44.5	20.5	0.00e+00	0	43	0	628097024	59	3849
2026-01-28 11:41:10.22	231.12	19.22	-43.5	-44.4	20.5	0.00e+00	0	43	0	631242752	59	3811
2026-01-28 11:41:11.23	231.31	19.30	-43.3	-44.2	20.7	0.00e+00	0	43	0	634388480	58	3935
2026-01-28 11:41:12.24	231.50	19.38	-43.3	-44.2	20.7	0.00e+00	0	43	0	637534208	58	3939
2026-01-28 11:41:13.24	231.70	19.46	-43.2	-44.1	20.8	0.00e+00	0	43	0	640679936	58	3888
2026-01-28 11:41:14.25	231.89	19.54	-43.2	-44.1	20.8	0.00e+00	0	43	0	643825664	58	3887
2026-01-28 11:41:15.25	232.08	19.62	-43.2	-44.2	20.7	0.00e+00	0	43	0	646971392	58	3921
2026-01-28 11:41:16.26	232.28	19.70	-43.2	-44.1	20.8	0.00e+00	0	42	0	650117120	58	3897
2026-01-28 11:41:17.27	232.48	19.78	-43.3	-44.3	20.7	0.00e+00	0	43	0	653262848	58	3973
2026-01-28 11:41:18.28	232.67	19.86	-43.3	-44.3	20.7	0.00e+00	0	43	0	656408576	58	3973
2026-01-28 11:41:19.29	232.87	19.94	-43.1	-44.0	21.0	0.00e+00	0	43	0	659554304	58	3849
2026-01-28 11:41:20.30	233.07	20.02	-43.1	-44.0	21.0	0.00e+00	0	43	0	662700032	58	3847
2026-01-28 11:41:21.30	233.27	20.10	-43.2	-44.1	20.9	0.00e+00	0	43	0	665845760	58	3881
2026-01-28 11:41:22.32	233.48	20.18	-43.1	-44.0	21.0	0.00e+00	0	43	0	668991488	58	3833
2026-01-28 11:41:23.32	233.68	20.26	-43.1	-44.0	21.0	0.00e+00	0	43	0	672137216	58	3837
2026-01-28 11:41:24.33	233.88	20.34	-43.1	-44.0	21.0	0.00e+00	0	43	0	675282944	58	3856
2026-01-28 11:41:25.34	234.09	20.42	-43.0	-43.9	21.0	0.00e+00	0	43	0	678428672	58	3818
2026-01-28 11:41:26.35	234.29	20.50	-43.1	-44.0	20.9	0.00e+00	0	43	0	681574400	58	3860
2026-01-28 11:41:27.35	234.50	20.58	-43.1	-44.0	21.0	0.00e+00	0	43	0	684720128	58	3836
2026-01-28 11:41:28.36	234.71	20.66	-42.8	-43.7	21.2	0.00e+00	0	43	0	687865856	57	3929
2026-01-28 11:41:29.38	234.92	20.74	-42.7	-43.6	21.3	0.00e+00	0	43	0	691011584	57	3893
2026-01-28 11:41:30.38	235.12	20.82	-42.7	-43.6	21.3	0.00e+00	0	43	0	694157312	57	3884
2026-01-28 11:41:31.39	235.34	20.90	-42.6	-43.5	21.4	0.00e+00	0	43	0	697303040	57	3851
2026-01-28 11:41:32.39	235.55	20.98	-42.6	-43.4	21.4	0.00e+00	0	43	0	700448768	57	3820
2026-01-28 11:41:33.40	235.76	21.06	-42.3	-43.1	21.7	0.00e+00	0	43	0	703594496	56	3900
2026-01-28 11:41:34.41	235.97	21.14	-42.2	-43.1	21.7	0.00e+00	0	43	0	706740224	56	3884
2026-01-28 11:41:35.42	236.19	21.22	-42.3	-43.1	21.7	0.00e+00	0	43	0	709885952	56	3893
2026-01-28 11:41:36.43	236.41	21.30	-42.3	-43.1	21.7	0.00e+00	0	42	0	713031680	56	3906
2026-01-28 11:41:37.43	236.62	21.37	-42.2	-43.0	21.8	0.00e+00	0	43	0	716177408	56	3841
2026-01-28 11:41:38.44	236.84	21.45	-42.2	-43.0	21.8	0.00e+00	0	43	0	719323136	56	3856
2026-01-28 11:41:39.45	237.06	21.53	-42.2	-43.1	21.8	0.00e+00	0	42	0	722468864	56	3872
2026-01-28 11:41:40.45	237.28	21.61	-42.1	-42.9	21.9	0.00e+00	0	42	0	725614592	56	3810
2026-01-28 11:41:41.46	237.50	21.69	-42.0	-42.8	22.0	0.00e+00	0	42	0	728760320	56	3763
2026-01-28 11:41:42.47	237.73	21.76	-41.9	-42.7	22.1	0.00e+00	0	43	0	731906048	55	3915
2026-01-28 11:41:43.48	237.95	21.84	-41.8	-42.6	22.1	0.00e+00	0	43	0	735051776	55	3875
2026-01-28 11:41:44.49	238.18	21.92	-41.8	-42.6	22.1	0.00e+00	0	43	0	738197504	55	3905
2026-01-28 11:41:45.50	238.40	21.99	-41.8	-42.6	22.2	0.00e+00	0	43	0	741343232	55	3874
2026-01-28 11:41:46.51	238.63	22.07	-41.8	-42.6	22.1	0.00e+00	0	43	0	744488960	55	3903
2026-01-28 11:41:47.51	238.86	22.15	-41.9	-42.7	22.1	0.00e+00	0	43	0	747634688	55	3925
2026-01-28 11:41:48.52	239.09	22.22	-41.9	-42.7	22.1	0.00e+00	0	42	0	750780416	55	3926
2026-01-28 11:41:49.53	239.32	22.30	-41.9	-42.7	22.0	0.00e+00	0	43	0	753926144	55	3917
2026-01-28 11:41:50.54	239.55	22.37	-42.0	-42.8	22.0	0.00e+00	0	43	0	757071872	55	3968
2026-01-28 11:41:51.54	239.78	22.45	-41.9	-42.7	22.0	0.00e+00	0	43	0	760217600	55	3933
2026-01-28 11:41:52.55	240.01	22.52	-41.9	-42.7	22.1	0.00e+00	0	43	0	763363328	55	3932
2026-01-28 11:41:53.56	240.25	22.60	-41.9	-42.7	22.1	0.00e+00	0	43	0	766509056	55	3932
2026-01-28 11:41:54.57	240.49	22.67	-42.0	-42.8	22.0	0.00e+00	0	43	0	769654784	55	3971
2026-01-28 11:41:55.58	240.72	22.75	-42.0	-42.8	21.9	0.00e+00	0	43	0	772800512	55	4004
2026-01-28 11:41:56.59	240.96	22.82	-41.9	-42.8	22.0	0.00e+00	0	42	0	775946240	55	3965
2026-01-28 11:41:57.60	241.20	22.90	-42.0	-42.8	21.9	0.00e+00	0	42	0	779091968	55	3995
2026-01-28 11:41:58.61	241.44	22.97	-42.0	-42.8	22.0	0.00e+00	0	43	0	782237696	55	3979
2026-01-28 11:41:59.61	241.68	23.04	-42.0	-42.8	22.0	0.00e+00	0	42	0	785383424	55	3983
2026-01-28 11:42:00.62	241.92	23.12	-42.1	-42.9	21.8	0.00e+00	0	43	0	788529152	55	4035
2026-01-28 11:42:01.63	242.17	23.19	-42.0	-42.8	21.9	0.00e+00	0	42	0	791674880	55	3988
2026-01-28 11:42:02.64	242.41	23.26	-42.0	-42.8	21.9	0.00e+00	0	43	0	794820608	55	3990
2026-01-28 11:42:03.64	242.66	23.33	-42.0	-42.8	21.9	0.00e+00	0	43	0	797966336	55	4002
2026-01-28 11:42:04.65	242.90	23.40	-42.1	-42.9	21.8	0.00e+00	0	43	0	801112064	55	4029
2026-01-28 11:42:05.66	243.15	23.48	-42.2	-43.1	21.7	0.00e+00	0	43	0	804257792	55	4101
2026-01-28 11:42:06.66	243.40	23.55	-42.1	-43.0	21.8	0.00e+00	0	43	0	807403520	55	4059
2026-01-28 11:42:07.67	243.65	23.62	-42.2	-43.1	21.7	0.00e+00	0	43	0	810549248	55	4115
2026-01-28 11:42:08.68	243.90	23.69	-42.1	-43.0	21.8	0.00e+00	0	43	0	813694976	55	4074
2026-01-28 11:42:09.69	244.16	23.76	-42.2	-43.0	21.7	0.00e+00	0	43	0	816840704	55	4086
2026-01-28 11:42:10.70	244.41	23.83	-42.2	-43.0	21.8	0.00e+00	0	43	0	819986432	55	4077
2026-01-28 11:42:11.71	244.66	23.90	-42.1	-43.0	21.8	0.00e+00	0	43	0	823132160	55	4069
2026-01-28 11:42:12.72	244.92	23.96	-42.3	-43.1	21.7	0.00e+00	0	43	0	826277888	55	4144
2026-01-28 11:42:13.73	245.18	24.03	-42.2	-43.0	21.8	0.00e+00	0	43	0	829423616	55	4067
2026-01-28 11:42:14.73	245.43	24.10	-42.3	-43.1	21.7	0.00e+00	0	43	0	832569344	55	4120
2026-01-28 11:42:15.74	245.69	24.17	-42.4	-43.3	21.6	0.00e+00	0	42	0	835715072	55	4199
2026-01-28 11:42:16.75	245.95	24.23	-42.5	-43.4	21.4	0.00e+00	0	43	0	838860800	55	4258
2026-01-28 11:42:17.76	246.22	24.30	-42.7	-43.6	21.2	0.00e+00	0	43	0	843055104	55	4361
2026-01-28 11:42:18.77	246.48	24.37	-42.8	-43.7	21.2	0.00e+00	0	43	0	845152256	56	4168
2026-01-28 11:42:19.78	246.74	24.43	-42.7	-43.6	21.4	0.00e+00	0	43	0	848297984	56	4109
2026-01-28 11:42:20.79	247.01	24.50	-42.6	-43.5	21.4	0.00e+00	0	43	0	851443712	56	4083
2026-01-28 11:42:21.80	247.27	24.56	-42.7	-43.6	21.3	0.00e+00	0	43	0	854589440	56	4109
2026-01-28 11:42:22.81	247.54	24.63	-42.7	-43.5	21.4	0.00e+00	0	43	0	857735168	56	4079
2026-01-28 11:42:23.81	247.81	24.69	-42.6	-43.5	21.4	0.00e+00	0	43	0	860880896	56	4070
2026-01-28 11:42:24.82	248.07	24.75	-42.5	-43.3	21.5	0.00e+00	0	43	0	864026624	56	3997
2026-01-28 11:42:25.83	248.34	24.82	-42.4	-43.3	21.6	0.00e+00	0	43	0	867172352	56	3974
2026-01-28 11:42:26.84	248.62	24.88	-42.6	-43.4	21.5	0.00e+00	0	43	0	870318080	56	4045
2026-01-28 11:42:27.85	248.89	24.94	-42.6	-43.4	21.5	0.00e+00	0	42	0	873463808	56	4043
2026-01-28 11:42:28.85	249.16	25.00	-42.6	-43.5	21.4	0.00e+00	0	43	0	876609536	56	4076
2026-01-28 11:42:29.86	249.43	25.06	-42.6	-43.5	21.4	0.00e+00	0	42	0	880803840	56	4086
2026-01-28 11:42:30.87	249.71	25.12	-42.7	-43.6	21.4	0.00e+00	0	42	0	883949568	56	4101
2026-01-28 11:42:31.87	249.98	25.18	-42.6	-43.5	21.4	0.00e+00	0	43	0	887095296	56	4070
2026-01-28 11:42:32.88	250.26	25.24	-42.7	-43.6	21.4	0.00e+00	0	43	0	890241024	56	4103
2026-01-28 11:42:33.89	250.54	25.30	-42.6	-43.4	21.5	0.00e+00	0	42	0	892338176	56	4046
2026-01-28 11:42:34.90	250.82	25.35	-42.6	-43.4	21.5	0.00e+00	0	42	0	895483904	56	4041
2026-01-28 11:42:35.91	251.10	25.41	-42.7	-43.6	21.4	0.00e+00	0	42	0	898629632	56	4106
2026-01-28 11:42:36.91	251.37	25.47	-42.8	-43.7	21.2	0.00e+00	0	43	0	901775360	56	4175
2026-01-28 11:42:37.92	251.66	25.52	-42.9	-43.8	21.2	0.00e+00	0	42	0	904921088	56	4225
2026-01-28 11:42:38.93	251.94	25.58	-42.9	-43.8	21.2	0.00e+00	0	42	0	908066816	56	4194
2026-01-28 11:42:39.94	252.22	25.63	-43.0	-43.9	21.1	0.00e+00	0	43	0	911212544	56	4258
2026-01-28 11:42:40.95	252.51	25.69	-42.9	-43.8	21.2	0.00e+00	0	43	0	914358272	56	4212
2026-01-28 11:42:41.96	252.80	25.74	-42.6	-43.4	21.5	0.00e+00	0	43	0	918552576	56	4047
2026-01-28 11:42:42.97	253.08	25.80	-42.5	-43.3	21.6	0.00e+00	0	43	0	921698304	56	3994
2026-01-28 11:42:43.98	253.37	25.85	-42.5	-43.4	21.5	0.00e+00	0	43	0	924844032	56	4026
2026-01-28 11:42:44.99	253.66	25.90	-42.6	-43.5	21.4	0.00e+00	0	43	0	927989760	56	4067
2026-01-28 11:42:46.00	253.95	25.95	-42.7	-43.6	21.3	0.00e+00	0	43	0	931135488	56	4133
2026-01-28 11:42:47.01	254.24	26.00	-42.6	-43.5	21.4	0.00e+00	0	43	0	934281216	56	4083
2026-01-28 11:42:48.01	254.53	26.05	-42.6	-43.5	21.5	0.00e+00	0	43	0	937426944	56	4071
2026-01-28 11:42:49.02	254.82	26.10	-42.6	-43.5	21.5	0.00e+00	0	43	0	940572672	56	4078
2026-01-28 11:42:50.03	255.11	26.15	-42.6	-43.4	21.5	0.00e+00	0	43	0	942669824	56	4035
2026-01-28 11:42:51.04	255.41	26.19	-42.6	-43.4	21.5	0.00e+00	0	42	0	945815552	56	4048
2026-01-28 11:42:52.04	255.70	26.24	-42.6	-43.4	21.5	0.00e+00	0	43	0	948961280	56	4044
2026-01-28 11:42:53.05	256.00	26.29	-42.7	-43.6	21.4	0.00e+00	0	42	0	952107008	56	4131
2026-01-28 11:42:54.06	256.29	26.33	-42.7	-43.6	21.4	0.00e+00	0	43	0	956301312	56	4108
2026-01-28 11:42:55.07	256.59	26.38	-42.8	-43.7	21.2	0.00e+00	0	43	0	959447040	56	4179
2026-01-28 11:42:56.07	256.89	26.42	-42.8	-43.7	21.3	0.00e+00	0	43	0	962592768	56	4171
2026-01-28 11:42:57.08	257.19	26.46	-42.8	-43.7	21.3	0.00e+00	0	43	0	965738496	56	4152
2026-01-28 11:42:58.09	257.49	26.51	-42.6	-43.5	21.4	0.00e+00	0	43	0	968884224	56	4076
2026-01-28 11:42:59.10	257.79	26.55	-42.5	-43.4	21.6	0.00e+00	0	43	0	972029952	56	4022
2026-01-28 11:43:00.11	258.09	26.59	-42.6	-43.5	21.5	0.00e+00	0	43	0	975175680	56	4057
2026-01-28 11:43:01.12	258.39	26.63	-42.7	-43.5	21.4	0.00e+00	0	43	0	978321408	56	4092
2026-01-28 11:43:02.13	258.69	26.67	-42.6	-43.4	21.5	0.00e+00	0	43	0	981467136	56	4041
2026-01-28 11:43:03.13	258.99	26.71	-42.6	-43.5	21.5	0.00e+00	0	43	0	984612864	56	4067
2026-01-28 11:43:04.14	259.30	26.75	-42.7	-43.6	21.4	0.00e+00	0	43	0	987758592	56	4108
2026-01-28 11:43:05.16	259.61	26.78	-42.8	-43.6	21.3	0.00e+00	0	43	0	989855744	56	4142
2026-01-28 11:43:06.16	259.91	26.82	-42.7	-43.6	21.4	0.00e+00	0	43	0	994050048	56	4113
2026-01-28 11:43:07.17	260.21	26.85	-42.7	-43.6	21.4	0.00e+00	0	43	0	997195776	56	4131
2026-01-28 11:43:08.18	260.52	26.89	-42.9	-43.8	21.2	0.00e+00	0	43	0	1000341504	56	4223
2026-01-28 11:43:09.18	260.83	26.92	-42.7	-43.6	21.4	0.00e+00	0	42	0	1003487232	56	4102
2026-01-28 11:43:10.19	261.13	26.95	-42.5	-43.4	21.6	0.00e+00	0	43	0	1006632960	56	4025
2026-01-28 11:43:11.20	261.44	26.99	-42.5	-43.3	21.6	0.00e+00	0	43	0	1009778688	56	3984
2026-01-28 11:43:12.21	261.75	27.02	-42.4	-43.3	21.6	0.00e+00	0	43	0	1012924416	56	3977
2026-01-28 11:43:13.22	262.06	27.05	-42.6	-43.4	21.6	0.00e+00	0	43	0	1016070144	56	4037
2026-01-28 11:43:14.23	262.37	27.08	-42.5	-43.4	21.6	0.00e+00	0	43	0	1019215872	56	4027
2026-01-28 11:43:15.23	262.68	27.11	-42.5	-43.3	21.7	0.00e+00	0	43	0	1022361600	56	3986
2026-01-28 11:43:16.24	262.99	27.13	-42.4	-43.3	21.7	0.00e+00	0	43	0	1025507328	56	3966
2026-01-28 11:43:17.25	263.31	27.16	-42.5	-43.4	21.6	0.00e+00	0	42	0	1028653056	56	4015
2026-01-28 11:43:18.26	263.62	27.19	-42.4	-43.3	21.7	0.00e+00	0	42	0	1031798784	56	3968
2026-01-28 11:43:19.27	263.93	27.21	-42.4	-43.3	21.7	0.00e+00	0	43	0	1034944512	56	3967
2026-01-28 11:43:20.28	264.25	27.24	-42.3	-43.2	21.8	0.00e+00	0	43	0	1038090240	56	3923
2026-01-28 11:43:21.28	264.56	27.26	-42.4	-43.2	21.8	0.00e+00	0	43	0	1041235968	56	3936
2026-01-28 11:43:22.29	264.87	27.28	-42.3	-43.2	21.8	0.00e+00	0	43	0	1044381696	56	3928
2026-01-28 11:43:23.30	265.19	27.31	-42.4	-43.2	21.8	0.00e+00	0	43	0	1047527424	56	3950
2026-01-28 11:43:24.31	265.50	27.33	-42.4	-43.3	21.7	0.00e+00	0	43	0	1050673152	56	3962
2026-01-28 11:43:25.32	265.82	27.35	-42.6	-43.4	21.6	0.00e+00	0	43	0	1053818880	56	4037
2026-01-28 11:43:26.33	266.13	27.36	-42.5	-43.3	21.7	0.00e+00	0	43	0	1056964608	56	3998
2026-01-28 11:43:27.33	266.45	27.38	-42.5	-43.3	21.7	0.00e+00	0	43	0	1060110336	56	3980
2026-01-28 11:43:28.34	266.76	27.40	-42.5	-43.4	21.6	0.00e+00	0	43	0	1063256064	56	4008
2026-01-28 11:43:29.35	267.08	27.42	-42.6	-43.5	21.5	0.00e+00	0	43	0	1066401792	56	4063
2026-01-28 11:43:30.36	267.40	27.43	-42.6	-43.5	21.5	0.00e+00	0	43	0	1069547520	56	4084
2026-01-28 11:43:31.37	267.72	27.45	-42.6	-43.5	21.6	0.00e+00	0	43	0	1072693248	56	4060
2026-01-28 11:43:32.38	268.04	27.46	-42.6	-43.5	21.6	0.00e+00	0	43	0	1075838976	56	4054
2026-01-28 11:43:33.38	268.35	27.47	-42.5	-43.4	21.7	0.00e+00	0	43	0	1078984704	56	4016
2026-01-28 11:43:34.39	268.67	27.48	-42.6	-43.5	21.6	0.00e+00	0	43	0	1082130432	56	4065
2026-01-28 11:43:35.41	268.99	27.49	-42.6	-43.4	21.6	0.00e+00	0	43	0	1085276160	56	4039
2026-01-28 11:43:36.41	269.31	27.50	-42.7	-43.5	21.5	0.00e+00	0	43	0	1088421888	56	4094
2026-01-28 11:43:37.42	269.63	27.51	-42.7	-43.6	21.5	0.00e+00	0	43	0	1091567616	56	4120
2026-01-28 11:43:38.43	269.95	27.52	-42.7	-43.6	21.5	0.00e+00	0	43	0	1094713344	56	4101
2026-01-28 11:43:39.43	270.26	27.53	-42.6	-43.5	21.6	0.00e+00	0	43	0	1097859072	56	4055
2026-01-28 11:43:40.44	270.58	27.53	-42.5	-43.3	21.7	0.00e+00	0	42	0	1101004800	56	3994
2026-01-28 11:43:41.45	270.90	27.54	-42.5	-43.4	21.7	0.00e+00	0	43	0	1104150528	56	4005
2026-01-28 11:43:42.46	271.22	27.54	-42.6	-43.4	21.6	0.00e+00	0	43	0	1107296256	56	4041
2026-01-28 11:43:43.47	271.54	27.55	-42.6	-43.5	21.5	0.00e+00	0	43	0	1110441984	56	4083
2026-01-28 11:43:44.47	271.86	27.55	-42.8	-43.6	21.4	0.00e+00	0	43	0	1113587712	56	4141
2026-01-28 11:43:45.48	272.18	27.55	-42.8	-43.6	21.5	0.00e+00	0	42	0	1116733440	56	4131
2026-01-28 11:43:46.49	272.50	27.55	-42.5	-43.3	21.7	0.00e+00	0	43	0	1119879168	56	3993
2026-01-28 11:43:47.50	272.82	27.55	-42.5	-43.4	21.7	0.00e+00	0	43	0	1123024896	56	4006
2026-01-28 11:43:48.51	273.14	27.55	-42.6	-43.4	21.6	0.00e+00	0	43	0	1126170624	56	4034
2026-01-28 11:43:49.51	273.45	27.55	-42.7	-43.6	21.5	0.00e+00	0	42	0	1129316352	56	4126
2026-01-28 11:43:50.52	273.77	27.54	-42.7	-43.6	21.6	0.00e+00	0	43	0	1132462080	56	4101
2026-01-28 11:43:51.53	274.09	27.54	-42.7	-43.5	21.6	0.00e+00	0	43	0	1135607808	56	4098
2026-01-28 11:43:52.54	274.41	27.53	-42.6	-43.5	21.6	0.00e+00	0	42	0	1138753536	56	4068
2026-01-28 11:43:53.55	274.73	27.53	-42.7	-43.5	21.5	0.00e+00	0	43	0	1141899264	56	4097
2026-01-28 11:43:54.56	275.05	27.52	-42.8	-43.7	21.5	0.00e+00	0	43	0	1145044992	56	4157
2026-01-28 11:43:55.57	275.37	27.51	-42.6	-43.5	21.6	0.00e+00	0	43	0	1148190720	56	4074
2026-01-28 11:43:56.57	275.69	27.50	-42.7	-43.5	21.6	0.00e+00	0	43	0	1151336448	56	4084
2026-01-28 11:43:57.58	276.01	27.49	-42.4	-43.2	21.8	0.00e+00	0	43	0	1154482176	56	3949
2026-01-28 11:43:58.59	276.32	27.48	-42.3	-43.2	21.9	0.00e+00	0	43	0	1157627904	56	3914
2026-01-28 11:43:59.60	276.64	27.47	-42.4	-43.2	21.8	0.00e+00	0	42	0	1160773632	56	3941
2026-01-28 11:44:00.61	276.96	27.46	-42.4	-43.2	21.9	0.00e+00	0	43	0	1163919360	56	3948
2026-01-28 11:44:01.61	277.28	27.44	-42.5	-43.4	21.7	0.00e+00	0	43	0	1167065088	56	4016
2026-01-28 11:44:02.62	277.59	27.43	-42.6	-43.5	21.7	0.00e+00	0	43	0	1170210816	56	4065
2026-01-28 11:44:03.63	277.91	27.41	-42.5	-43.3	21.8	0.00e+00	0	42	0	1173356544	56	4004
2026-01-28 11:44:04.64	278.23	27.40	-42.5	-43.4	21.7	0.00e+00	0	43	0	1176502272	56	4005
2026-01-28 11:44:05.64	278.54	27.38	-42.5	-43.3	21.7	0.00e+00	0	43	0	1179648000	56	3991
2026-01-28 11:44:06.65	278.86	27.36	-42.4	-43.2	21.9	0.00e+00	0	43	0	1182793728	56	3940
2026-01-28 11:44:07.66	279.17	27.34	-42.4	-43.2	21.9	0.00e+00	0	43	0	1185939456	56	3941
2026-01-28 11:44:08.67	279.49	27.32	-42.3	-43.2	21.9	0.00e+00	0	42	0	1189085184	56	3919
2026-01-28 11:44:09.67	279.80	27.30	-42.5	-43.3	21.8	0.00e+00	0	43	0	1192230912	56	3991
2026-01-28 11:44:10.68	280.12	27.28	-42.5	-43.4	21.7	0.00e+00	0	43	0	1195376640	56	4024
2026-01-28 11:44:11.69	280.43	27.26	-42.5	-43.4	21.7	0.00e+00	0	43	0	1198522368	56	4011
2026-01-28 11:44:12.69	280.74	27.24	-42.6	-43.4	21.7	0.00e+00	0	43	0	1201668096	56	4046
2026-01-28 11:44:13.70	281.05	27.21	-42.6	-43.4	21.7	0.00e+00	0	43	0	1204813824	56	4046
2026-01-28 11:44:14.71	281.37	27.19	-42.5	-43.4	21.7	0.00e+00	0	43	0	1207959552	56	4013
2026-01-28 11:44:15.72	281.68	27.16	-42.4	-43.2	21.9	0.00e+00	0	43	0	1211105280	56	3922
2026-01-28 11:44:16.73	281.99	27.13	-42.5	-43.3	21.8	0.00e+00	0	43	0	1214251008	56	3984
2026-01-28 11:44:17.74	282.30	27.11	-42.4	-43.2	21.9	0.00e+00	0	43	0	1217396736	56	3946
2026-01-28 11:44:18.75	282.61	27.08	-42.4	-43.2	21.9	0.00e+00	0	43	0	1220542464	56	3941
2026-01-28 11:44:19.76	282.92	27.05	-42.4	-43.2	21.9	0.00e+00	0	43	0	1223688192	56	3937
2026-01-28 11:44:20.77	283.23	27.02	-42.4	-43.3	21.9	0.00e+00	0	43	0	1226833920	56	3971
2026-01-28 11:44:21.77	283.54	26.99	-42.4	-43.3	21.8	0.00e+00	0	43	0	1229979648	56	3967
2026-01-28 11:44:22.78	283.85	26.95	-42.5	-43.3	21.8	0.00e+00	0	43	0	1233125376	56	3996
2026-01-28 11:44:23.79	284.16	26.92	-42.5	-43.3	21.8	0.00e+00	0	42	0	1236271104	56	3989
2026-01-28 11:44:24.80	284.46	26.89	-42.6	-43.4	21.6	0.00e+00	0	42	0	1239416832	56	4043
2026-01-28 11:44:25.81	284.77	26.85	-42.4	-43.3	21.8	0.00e+00	0	43	0	1242562560	56	3960
2026-01-28 11:44:26.82	285.08	26.82	-42.4	-43.2	21.9	0.00e+00	0	43	0	1245708288	56	3937
2026-01-28 11:44:27.83	285.38	26.78	-42.4	-43.3	21.8	0.00e+00	0	43	0	1248854016	56	3966
2026-01-28 11:44:28.84	285.69	26.74	-42.4	-43.2	21.9	0.00e+00	0	43	0	1251999744	56	3933
2026-01-28 11:44:29.85	285.99	26.71	-42.4	-43.3	21.8	0.00e+00	0	43	0	1255145472	56	3968
2026-01-28 11:44:30.86	286.29	26.67	-42.4	-43.3	21.8	0.00e+00	0	43	0	1258291200	56	3963
2026-01-28 11:44:31.86	286.59	26.63	-42.4	-43.2	21.9	0.00e+00	0	43	0	1261436928	56	3935
2026-01-28 11:44:32.87	286.89	26.59	-42.4	-43.3	21.8	0.00e+00	0	43	0	1264582656	56	3967
2026-01-28 11:44:33.88	287.19	26.55	-42.5	-43.4	21.8	0.00e+00	0	43	0	1267728384	56	4012
2026-01-28 11:44:34.89	287.49	26.51	-42.5	-43.4	21.8	0.00e+00	0	43	0	1270874112	56	4010
2026-01-28 11:44:35.89	287.79	26.46	-42.5	-43.3	21.8	0.00e+00	0	43	0	1274019840	56	3988
2026-01-28 11:44:36.90	288.09	26.42	-42.6	-43.4	21.7	0.00e+00	0	43	0	1277165568	56	4043
2026-01-28 11:44:37.91	288.39	26.38	-42.6	-43.4	21.7	0.00e+00	0	43	0	1280311296	56	4040
2026-01-28 11:44:38.92	288.68	26.33	-42.6	-43.5	21.7	0.00e+00	0	42	0	1283457024	56	4061
2026-01-28 11:44:39.93	288.98	26.29	-42.6	-43.5	21.7	0.00e+00	0	43	0	1286602752	56	4079
2026-01-28 11:44:40.93	289.27	26.24	-42.6	-43.4	21.7	0.00e+00	0	43	0	1289748480	56	4033
2026-01-28 11:44:41.94	289.57	26.19	-42.7	-43.5	21.7	0.00e+00	0	43	0	1292894208	56	4081
2026-01-28 11:44:42.95	289.86	26.15	-42.8	-43.6	21.5	0.00e+00	0	43	0	1296039936	56	4143
2026-01-28 11:44:43.96	290.15	26.10	-42.9	-43.8	21.4	0.00e+00	0	43	0	1299185664	56	4229
2026-01-28 11:44:44.97	290.44	26.05	-42.9	-43.8	21.4	0.00e+00	0	43	0	1302331392	56	4222
2026-01-28 11:44:45.97	290.73	26.00	-42.9	-43.7	21.5	0.00e+00	0	43	0	1305477120	56	4189
2026-01-28 11:44:46.99	291.02	25.95	-42.8	-43.7	21.5	0.00e+00	0	43	0	1308622848	56	4147
2026-01-28 11:44:48.00	291.31	25.90	-42.7	-43.6	21.6	0.00e+00	0	43	0	1311768576	56	4126
2026-01-28 11:44:49.01	291.60	25.85	-42.8	-43.7	21.5	0.00e+00	0	43	0	1314914304	56	4150
2026-01-28 11:44:50.02	291.89	25.79	-42.9	-43.8	21.4	0.00e+00	0	43	0	1318060032	56	4223
2026-01-28 11:44:51.03	292.18	25.74	-42.9	-43.8	21.4	0.00e+00	0	43	0	1321205760	56	4205
2026-01-28 11:44:52.03	292.46	25.69	-43.0	-43.9	21.3	0.00e+00	0	43	0	1324351488	56	4273
2026-01-28 11:44:53.04	292.74	25.64	-43.0	-43.9	21.4	0.00e+00	0	43	0	1327497216	56	4274
2026-01-28 11:44:54.04	293.02	25.58	-42.9	-43.8	21.4	0.00e+00	0	43	0	1330642944	56	4229
2026-01-28 11:44:55.05	293.31	25.53	-42.9	-43.7	21.5	0.00e+00	0	43	0	1333788672	56	4192
2026-01-28 11:44:56.06	293.59	25.47	-42.9	-43.7	21.5	0.00e+00	0	43	0	1336934400	56	4189
2026-01-28 11:44:57.07	293.87	25.41	-42.7	-43.6	21.6	0.00e+00	0	43	0	1340080128	56	4119
2026-01-28 11:44:58.08	294.15	25.36	-42.6	-43.4	21.8	0.00e+00	0	43	0	1343225856	56	4039
2026-01-28 11:44:59.09	294.43	25.30	-42.4	-43.3	21.9	0.00e+00	0	43	0	1346371584	56	3959
2026-01-28 11:45:00.10	294.70	25.24	-42.4	-43.2	21.9	0.00e+00	0	43	0	1349517312	56	3937
2026-01-28 11:45:01.11	294.98	25.18	-42.4	-43.2	21.9	0.00e+00	0	42	0	1352663040	56	3947
2026-01-28 11:45:02.12	295.26	25.12	-42.4	-43.2	21.9	0.00e+00	0	43	0	1355808768	56	3928
2026-01-28 11:45:03.12	295.53	25.06	-42.5	-43.3	21.8	0.00e+00	0	43	0	1358954496	56	3979
2026-01-28 11:45:04.13	295.80	25.00	-42.4	-43.3	21.9	0.00e+00	0	43	0	1362100224	56	3959
2026-01-28 11:45:05.14	296.07	24.94	-42.5	-43.3	21.9	0.00e+00	0	42	0	1365245952	56	3978
2026-01-28 11:45:06.15	296.34	24.88	-42.5	-43.3	21.8	0.00e+00	0	43	0	1368391680	56	3990
2026-01-28 11:45:07.16	296.61	24.82	-42.4	-43.3	21.9	0.00e+00	0	43	0	1371537408	56	3968
2026-01-28 11:45:08.17	296.88	24.76	-42.6	-43.4	21.7	0.00e+00	0	43	0	1374683136	56	4047
2026-01-28 11:45:09.18	297.15	24.69	-42.4	-43.2	21.9	0.00e+00	0	43	0	1377828864	56	3950
2026-01-28 11:45:10.19	297.42	24.63	-42.4	-43.2	21.9	0.00e+00	0	43	0	1380974592	56	3956
2026-01-28 11:45:11.19	297.68	24.57	-42.4	-43.2	21.9	0.00e+00	0	43	0	1384120320	56	3945
2026-01-28 11:45:12.21	297.95	24.50	-42.4	-43.2	21.9	0.00e+00	0	42	0	1387266048	56	3935
2026-01-28 11:45:13.21	298.21	24.44	-42.3	-43.1	21.9	0.00e+00	0	43	0	1390411776	56	3898
2026-01-28 11:45:14.23	298.48	24.37	-42.2	-43.0	21.9	0.00e+00	0	43	0	1393557504	56	3862
2026-01-28 11:45:15.24	298.74	24.30	-42.3	-43.1	21.9	0.00e+00	0	43	0	1396703232	56	3890
2026-01-28 11:45:16.24	299.00	24.24	-42.2	-43.0	22.0	0.00e+00	0	43	0	1399848960	56	3845
2026-01-28 11:45:17.25	299.26	24.17	-42.1	-42.9	22.1	0.00e+00	0	43	0	1402994688	56	3799
2026-01-28 11:45:18.26	299.52	24.10	-42.1	-42.9	22.2	0.00e+00	0	43	0	1406140416	56	3792
2026-01-28 11:45:19.27	299.77	24.04	-41.8	-42.6	22.3	0.00e+00	0	43	0	1409286144	55	3884
2026-01-28 11:45:20.29	300.03	23.97	-41.9	-42.7	22.2	0.00e+00	0	43	0	1412431872	55	3938
2026-01-28 11:45:21.29	300.29	23.90	-42.0	-42.8	22.1	0.00e+00	0	42	0	1415577600	55	3978
2026-01-28 11:45:22.30	300.54	23.83	-42.2	-43.0	22.0	0.00e+00	0	43	0	1418723328	55	4064
2026-01-28 11:45:23.30	300.79	23.76	-42.4	-43.2	21.8	0.00e+00	0	43	0	1421869056	55	4159
2026-01-28 11:45:24.31	301.04	23.69	-42.4	-43.2	21.7	0.00e+00	0	43	0	1425014784	55	4179
2026-01-28 11:45:25.32	301.29	23.62	-42.5	-43.3	21.6	0.00e+00	0	43	0	1428160512	55	4236
2026-01-28 11:45:26.33	301.54	23.55	-42.5	-43.4	21.6	0.00e+00	0	43	0	1431306240	55	4251
2026-01-28 11:45:27.34	301.79	23.48	-42.5	-43.4	21.6	0.00e+00	0	43	0	1434451968	55	4243
2026-01-28 11:45:28.35	302.04	23.41	-42.5	-43.4	21.6	0.00e+00	0	43	0	1437597696	55	4245
2026-01-28 11:45:29.36	302.29	23.34	-42.5	-43.3	21.7	0.00e+00	0	43	0	1441792000	55	4226
2026-01-28 11:45:30.37	302.53	23.27	-42.4	-43.2	21.7	0.00e+00	0	43	0	1444937728	55	4184
2026-01-28 11:45:31.38	302.78	23.20	-42.3	-43.1	21.8	0.00e+00	0	43	0	1447034880	55	4119
2026-01-28 11:45:32.39	303.02	23.13	-42.4	-43.2	21.7	0.00e+00	0	43	0	1450180608	55	4187
2026-01-28 11:45:33.40	303.26	23.05	-42.3	-43.2	21.8	0.00e+00	0	43	0	1453326336	55	4158
2026-01-28 11:45:34.41	303.50	22.98	-42.4	-43.2	21.7	0.00e+00	0	43	0	1456472064	55	4185
2026-01-28 11:45:35.42	303.74	22.91	-42.6	-43.4	21.6	0.00e+00	0	43	0	1459617792	55	4279
2026-01-28 11:45:36.43	303.98	22.83	-42.6	-43.4	21.6	0.00e+00	0	43	0	1462763520	55	4266
2026-01-28 11:45:37.44	304.22	22.76	-42.6	-43.4	21.6	0.00e+00	0	43	0	1465909248	55	4291
2026-01-28 11:45:38.44	304.45	22.69	-42.6	-43.4	21.5	0.00e+00	0	43	0	1469054976	55	4286
2026-01-28 11:45:39.45	304.69	22.61	-42.6	-43.5	21.5	0.00e+00	0	43	0	1472200704	55	4300
2026-01-28 11:45:40.46	304.92	22.54	-42.8	-43.7	21.5	0.00e+00	0	43	0	1476395008	56	4155
2026-01-28 11:45:41.47	305.16	22.46	-42.8	-43.6	21.5	0.00e+00	0	42	0	1479540736	56	4136
2026-01-28 11:45:42.48	305.39	22.39	-42.6	-43.4	21.6	0.00e+00	0	43	0	1482686464	56	4028
2026-01-28 11:45:43.49	305.62	22.31	-42.5	-43.4	21.7	0.00e+00	0	43	0	1485832192	56	4014
2026-01-28 11:45:44.50	305.85	22.24	-42.5	-43.3	21.7	0.00e+00	0	43	0	1488977920	56	3987
2026-01-28 11:45:45.51	306.08	22.16	-42.5	-43.3	21.7	0.00e+00	0	43	0	1492123648	56	3983
2026-01-28 11:45:46.52	306.31	22.08	-42.3	-43.2	21.8	0.00e+00	0	43	0	1494220800	56	3923
2026-01-28 11:45:47.52	306.53	22.01	-42.3	-43.1	21.8	0.00e+00	0	43	0	1497366528	56	3913
2026-01-28 11:45:48.53	306.76	21.93	-42.4	-43.2	21.8	0.00e+00	0	43	0	1500512256	56	3935
2026-01-28 11:45:49.54	306.98	21.85	-42.4	-43.2	21.7	0.00e+00	0	43	0	1503657984	56	3950
2026-01-28 11:45:50.55	307.21	21.78	-42.4	-43.3	21.7	0.00e+00	0	42	0	1506803712	56	3967
2026-01-28 11:45:51.56	307.43	21.70	-42.4	-43.2	21.7	0.00e+00	0	43	0	1510998016	56	3952
2026-01-28 11:45:52.57	307.65	21.62	-42.5	-43.3	21.7	0.00e+00	0	42	0	1514143744	56	3983
2026-01-28 11:45:53.58	307.87	21.55	-42.4	-43.3	21.7	0.00e+00	0	43	0	1517289472	56	3981
2026-01-28 11:45:54.59	308.09	21.47	-42.4	-43.3	21.7	0.00e+00	0	43	0	1520435200	56	3959
2026-01-28 11:45:55.59	308.30	21.39	-42.4	-43.3	21.7	0.00e+00	0	43	0	1523580928	56	3963
2026-01-28 11:45:56.60	308.52	21.31	-42.3	-43.2	21.8	0.00e+00	0	43	0	1526726656	56	3926
2026-01-28 11:45:57.61	308.74	21.23	-42.4	-43.2	21.8	0.00e+00	0	43	0	1529872384	56	3940
2026-01-28 11:45:58.62	308.95	21.16	-42.3	-43.2	21.7	0.00e+00	0	43	0	1533018112	56	3934
2026-01-28 11:45:59.63	309.17	21.08	-42.4	-43.2	21.7	0.00e+00	0	43	0	1536163840	56	3952
2026-01-28 11:46:00.64	309.38	21.00	-42.4	-43.3	21.7	0.00e+00	0	43	0	1539309568	56	3970
2026-01-28 11:46:01.65	309.59	20.92	-42.5	-43.4	21.6	0.00e+00	0	43	0	1541406720	56	4011
2026-01-28 11:46:02.66	309.80	20.84	-42.6	-43.5	21.5	0.00e+00	0	43	0	1545601024	56	4062
2026-01-28 11:46:03.67	310.01	20.76	-42.7	-43.6	21.4	0.00e+00	0	43	0	1548746752	56	4127
2026-01-28 11:46:04.68	310.22	20.68	-42.7	-43.6	21.4	0.00e+00	0	43	0	1551892480	56	4132
2026-01-28 11:46:05.69	310.43	20.60	-42.7	-43.5	21.4	0.00e+00	0	43	0	1555038208	56	4097
2026-01-28 11:46:06.70	310.63	20.52	-42.6	-43.5	21.5	0.00e+00	0	42	0	1558183936	56	4062
2026-01-28 11:46:07.71	310.84	20.45	-42.7	-43.6	21.4	0.00e+00	0	43	0	1561329664	56	4124
2026-01-28 11:46:08.71	311.04	20.37	-42.8	-43.7	21.3	0.00e+00	0	43	0	1564475392	56	4160
2026-01-28 11:46:09.72	311.25	20.29	-42.5	-43.3	21.6	0.00e+00	0	43	0	1567621120	56	4000
2026-01-28 11:46:10.73	311.45	20.21	-42.5	-43.3	21.6	0.00e+00	0	43	0	1570766848	56	3980
2026-01-28 11:46:11.74	311.65	20.13	-42.5	-43.3	21.6	0.00e+00	0	42	0	1573912576	56	3999
2026-01-28 11:46:12.75	311.85	20.05	-42.4	-43.3	21.7	0.00e+00	0	43	0	1577058304	56	3975
2026-01-28 11:46:13.76	312.05	19.97	-42.3	-43.2	21.7	0.00e+00	0	43	0	1580204032	56	3930
2026-01-28 11:46:14.77	312.25	19.89	-42.5	-43.3	21.6	0.00e+00	0	42	0	1583349760	56	4001
2026-01-28 11:46:15.77	312.44	19.81	-42.5	-43.4	21.6	0.00e+00	0	42	0	1586495488	56	4008
2026-01-28 11:46:16.79	312.64	19.73	-42.6	-43.5	21.5	0.00e+00	0	43	0	1589641216	56	4054
2026-01-28 11:46:17.80	312.84	19.65	-42.6	-43.5	21.4	0.00e+00	0	43	0	1592786944	56	4083
2026-01-28 11:46:18.80	313.03	19.57	-42.6	-43.4	21.5	0.00e+00	0	43	0	1595932672	56	4041
2026-01-28 11:46:19.82	313.22	19.48	-42.6	-43.5	21.4	0.00e+00	0	43	0	1599078400	56	4071
2026-01-28 11:46:20.82	313.41	19.40	-42.6	-43.5	21.4	0.00e+00	0	43	0	1602224128	56	4081
2026-01-28 11:46:21.83	313.61	19.32	-42.6	-43.5	21.4	0.00e+00	0	43	0	1605369856	56	4080
2026-01-28 11:46:22.83	313.79	19.24	-42.7	-43.5	21.3	0.00e+00	0	43	0	1608515584	56	4090
2026-01-28 11:46:23.84	313.98	19.16	-42.6	-43.5	21.4	0.00e+00	0	43	0	1611661312	56	4071
2026-01-28 11:46:24.85	314.17	19.08	-42.7	-43.5	21.4	0.00e+00	0	43	0	1614807040	56	4097
2026-01-28 11:46:25.86	314.36	19.00	-42.6	-43.5	21.4	0.00e+00	0	43	0	1617952768	56	4056
2026-01-28 11:46:26.87	314.55	18.92	-42.5	-43.3	21.6	0.00e+00	0	43	0	1621098496	56	3990
2026-01-28 11:46:27.88	314.73	18.84	-42.5	-43.4	21.5	0.00e+00	0	43	0	1624244224	56	4007
2026-01-28 11:46:28.89	314.92	18.76	-42.5	-43.3	21.6	0.00e+00	0	43	0	1627389952	56	3988
2026-01-28 11:46:29.90	315.10	18.68	-42.5	-43.4	21.4	0.00e+00	0	43	0	1630535680	56	4022
2026-01-28 11:46:30.91	315.28	18.60	-42.6	-43.4	21.4	0.00e+00	0	43	0	1633681408	56	4049
2026-01-28 11:46:31.91	315.46	18.52	-42.6	-43.5	21.3	0.00e+00	0	43	0	1636827136	56	4078
2026-01-28 11:46:32.92	315.64	18.44	-42.7	-43.6	21.3	0.00e+00	0	43	0	1639972864	56	4099
2026-01-28 11:46:33.93	315.82	18.36	-42.8	-43.7	21.1	0.00e+00	0	42	0	1643118592	56	4162
2026-01-28 11:46:34.94	316.00	18.28	-42.8	-43.7	21.1	0.00e+00	0	43	0	1646264320	56	4180
2026-01-28 11:46:35.95	316.18	18.19	-42.8	-43.7	21.1	0.00e+00	0	43	0	1649410048	56	4155
2026-01-28 11:46:36.95	316.36	18.11	-42.9	-43.8	21.1	0.00e+00	0	43	0	1652555776	56	4201
2026-01-28 11:46:37.96	316.53	18.03	-42.9	-43.8	21.1	0.00e+00	0	43	0	1655701504	56	4200
2026-01-28 11:46:38.97	316.71	17.95	-42.9	-43.8	21.0	0.00e+00	0	43	0	1658847232	56	4228
2026-01-28 11:46:39.98	316.88	17.87	-42.9	-43.8	21.0	0.00e+00	0	43	0	1661992960	56	4234
2026-01-28 11:46:40.99	317.05	17.79	-43.0	-43.9	21.0	0.00e+00	0	43	0	1665138688	56	4270
2026-01-28 11:46:42.00	317.23	17.71	-43.0	-44.0	20.9	0.00e+00	0	43	0	1668284416	56	4299
2026-01-28 11:46:43.01	317.40	17.63	-42.9	-43.8	21.1	0.00e+00	0	43	0	1671430144	56	4219
2026-01-28 11:46:44.01	317.57	17.55	-42.8	-43.7	21.1	0.00e+00	0	43	0	1674575872	56	4182
2026-01-28 11:46:45.02	317.74	17.47	-42.8	-43.7	21.1	0.00e+00	0	43	0	1677721600	56	4185
2026-01-28 11:46:46.03	317.91	17.39	-42.9	-43.8	21.1	0.00e+00	0	43	0	1680867328	56	4201
2026-01-28 11:46:47.04	318.08	17.31	-42.8	-43.6	21.1	0.00e+00	0	43	0	1684013056	56	4145
2026-01-28 11:46:48.05	318.24	17.23	-42.9	-43.8	21.0	0.00e+00	0	43	0	1687158784	56	4200
2026-01-28 11:46:49.06	318.41	17.15	-43.0	-43.9	20.8	0.00e+00	0	43	0	1690304512	56	4284
2026-01-28 11:46:50.06	318.57	17.07	-43.1	-44.0	20.8	0.00e+00	0	43	0	1693450240	56	4316
2026-01-28 11:46:51.07	318.74	16.99	-43.1	-44.1	20.8	0.00e+00	0	43	0	1696595968	56	4353
2026-01-28 11:46:52.07	318.90	16.91	-43.1	-44.0	20.8	0.00e+00	0	43	0	1699741696	56	4315
2026-01-28 11:46:53.08	319.06	16.83	-43.1	-44.1	20.7	0.00e+00	0	43	0	1702887424	56	4352
2026-01-28 11:46:54.09	319.23	16.75	-43.1	-44.0	20.8	0.00e+00	0	43	0	1706033152	56	4325
2026-01-28 11:46:55.09	319.39	16.67	-43.0	-44.0	20.8	0.00e+00	0	43	0	1709178880	56	4297
2026-01-28 11:46:56.10	319.55	16.59	-43.0	-43.9	20.9	0.00e+00	0	43	0	1712324608	56	4252
2026-01-28 11:46:57.11	319.71	16.51	-43.0	-43.9	20.9	0.00e+00	0	43	0	1715470336	56	4279
2026-01-28 11:46:58.12	319.86	16.43	-43.0	-43.9	20.9	0.00e+00	0	43	0	1718616064	56	4274
2026-01-28 11:46:59.12	320.02	16.35	-43.0	-43.9	20.9	0.00e+00	0	43	0	1721761792	56	4262
2026-01-28 11:47:00.13	320.18	16.27	-42.9	-43.8	21.0	0.00e+00	0	43	0	1724907520	56	4222
2026-01-28 11:47:01.14	320.33	16.19	-42.9	-43.8	21.0	0.00e+00	0	43	0	1728053248	56	4225
2026-01-28 11:47:02.14	320.49	16.11	-42.8	-43.6	21.1	0.00e+00	0	43	0	1731198976	56	4143
2026-01-28 11:47:03.15	320.64	16.03	-42.8	-43.7	21.1	0.00e+00	0	43	0	1734344704	56	4151
2026-01-28 11:47:04.16	320.80	15.95	-42.9	-43.8	20.9	0.00e+00	0	43	0	1737490432	56	4214
2026-01-28 11:47:05.17	320.95	15.87	-43.0	-43.9	20.8	0.00e+00	0	43	0	1740636160	56	4248
2026-01-28 11:47:06.17	321.10	15.79	-43.2	-44.1	20.6	0.00e+00	0	43	0	1743781888	56	4359
2026-01-28 11:47:07.18	321.25	15.71	-43.3	-44.2	20.5	0.00e+00	0	43	0	1746927616	57	4190
2026-01-28 11:47:08.19	321.40	15.63	-43.4	-44.4	20.4	0.00e+00	0	43	0	1750073344	57	4262
2026-01-28 11:47:09.19	321.55	15.55	-43.6	-44.6	20.2	0.00e+00	0	43	0	1753219072	57	4347
2026-01-28 11:47:10.20	321.70	15.47	-43.7	-44.7	20.1	0.00e+00	0	43	0	1756364800	57	4398
2026-01-28 11:47:11.21	321.85	15.39	-43.6	-44.6	20.2	0.00e+00	0	43	0	1759510528	57	4345
2026-01-28 11:47:12.22	322.00	15.31	-43.6	-44.6	20.2	0.00e+00	0	43	0	1762656256	57	4351
2026-01-28 11:47:13.23	322.15	15.23	-43.4	-44.4	20.4	0.00e+00	0	43	0	1765801984	57	4275
2026-01-28 11:47:14.23	322.29	15.16	-43.3	-44.3	20.4	0.00e+00	0	43	0	1768947712	57	4223
2026-01-28 11:47:15.24	322.44	15.08	-43.4	-44.3	20.5	0.00e+00	0	43	0	1772093440	57	4222
2026-01-28 11:47:16.25	322.58	15.00	-43.1	-44.0	20.7	0.00e+00	0	43	0	1775239168	57	4085
2026-01-28 11:47:17.25	322.72	14.92	-43.2	-44.1	20.6	0.00e+00	0	43	0	1778384896	57	4111
2026-01-28 11:47:18.26	322.87	14.84	-43.0	-43.9	20.8	0.00e+00	0	43	0	1781530624	57	4036
2026-01-28 11:47:19.27	323.01	14.76	-43.0	-43.9	20.8	0.00e+00	0	43	0	1784676352	57	4022
2026-01-28 11:47:20.28	323.15	14.68	-43.0	-44.0	20.7	0.00e+00	0	43	0	1787822080	57	4052
2026-01-28 11:47:21.28	323.29	14.61	-43.0	-43.9	20.8	0.00e+00	0	43	0	1790967808	57	4015
2026-01-28 11:47:22.29	323.43	14.53	-43.0	-43.9	20.8	0.00e+00	0	43	0	1794113536	57	4029
2026-01-28 11:47:23.30	323.57	14.45	-43.1	-44.0	20.7	0.00e+00	0	43	0	1797259264	57	4092
2026-01-28 11:47:24.31	323.71	14.37	-43.1	-44.0	20.7	0.00e+00	0	42	0	1800404992	57	4083
2026-01-28 11:47:25.31	323.85	14.30	-43.1	-44.1	20.6	0.00e+00	0	43	0	1803550720	57	4110
2026-01-28 11:47:26.32	323.99	14.22	-43.2	-44.2	20.5	0.00e+00	0	43	0	1806696448	57	4155
2026-01-28 11:47:27.33	324.12	14.14	-43.4	-44.3	20.4	0.00e+00	0	43	0	1809842176	57	4240
2026-01-28 11:47:28.34	324.26	14.06	-43.5	-44.5	20.2	0.00e+00	0	42	0	1812987904	57	4336
2026-01-28 11:47:29.35	324.40	13.98	-43.5	-44.5	20.2	0.00e+00	0	43	0	1816133632	57	4340
2026-01-28 11:47:30.35	324.53	13.91	-43.6	-44.6	20.1	0.00e+00	0	43	0	1819279360	57	4356
2026-01-28 11:47:31.35	324.66	13.83	-43.6	-44.7	20.1	0.00e+00	0	43	0	1822425088	57	4397
2026-01-28 11:47:32.36	324.80	13.75	-43.6	-44.6	20.1	0.00e+00	0	43	0	1825570816	57	4364
2026-01-28 11:47:33.37	324.93	13.68	-43.6	-44.6	20.1	0.00e+00	0	43	0	1828716544	57	4369
2026-01-28 11:47:34.38	325.06	13.60	-43.6	-44.6	20.1	0.00e+00	0	43	0	1831862272	57	4391
2026-01-28 11:47:35.39	325.19	13.52	-43.6	-44.6	20.1	0.00e+00	0	43	0	1835008000	57	4365
2026-01-28 11:47:36.39	325.32	13.45	-43.7	-44.7	20.0	0.00e+00	0	43	0	1838153728	58	4172
2026-01-28 11:47:37.40	325.45	13.37	-43.5	-44.5	20.2	0.00e+00	0	43	0	1841299456	58	4091
2026-01-28 11:47:38.41	325.58	13.29	-43.7	-44.7	20.0	0.00e+00	0	43	0	1844445184	58	4150
2026-01-28 11:47:39.42	325.71	13.22	-43.6	-44.6	20.1	0.00e+00	0	43	0	1847590912	58	4110
2026-01-28 11:47:40.43	325.84	13.14	-43.6	-44.6	20.1	0.00e+00	0	43	0	1850736640	58	4136
2026-01-28 11:47:41.43	325.97	13.07	-43.7	-44.8	19.9	0.00e+00	0	43	0	1853882368	58	4196
2026-01-28 11:47:42.44	326.10	12.99	-43.6	-44.6	20.1	0.00e+00	0	43	0	1857028096	58	4134
2026-01-28 11:47:43.45	326.22	12.91	-43.7	-44.7	20.0	0.00e+00	0	43	0	1860173824	58	4169
2026-01-28 11:47:44.45	326.35	12.84	-43.8	-44.8	19.9	0.00e+00	0	43	0	1863319552	58	4240
2026-01-28 11:47:45.46	326.47	12.76	-43.7	-44.7	19.9	0.00e+00	0	43	0	1866465280	58	4177
2026-01-28 11:47:46.47	326.60	12.69	-43.8	-44.8	19.8	0.00e+00	0	43	0	1869611008	58	4237
2026-01-28 11:47:47.47	326.72	12.61	-43.8	-44.8	19.9	0.00e+00	0	43	0	1872756736	58	4210
2026-01-28 11:47:48.48	326.84	12.54	-43.9	-45.0	19.7	0.00e+00	0	43	0	1875902464	58	4312
2026-01-28 11:47:49.49	326.97	12.46	-43.8	-44.9	19.8	0.00e+00	0	43	0	1879048192	58	4247
2026-01-28 11:47:50.50	327.09	12.39	-44.0	-45.0	19.6	0.00e+00	0	43	0	1882193920	58	4340
2026-01-28 11:47:51.51	327.21	12.31	-43.9	-44.9	19.8	0.00e+00	0	43	0	1885339648	58	4272
2026-01-28 11:47:52.52	327.33	12.24	-43.9	-45.0	19.7	0.00e+00	0	43	0	1888485376	58	4303
2026-01-28 11:47:53.53	327.45	12.16	-43.8	-44.9	19.8	0.00e+00	0	43	0	1891631104	58	4248
2026-01-28 11:47:54.53	327.57	12.09	-43.8	-44.8	19.8	0.00e+00	0	43	0	1894776832	58	4233
2026-01-28 11:47:55.54	327.69	12.01	-43.8	-44.8	19.9	0.00e+00	0	43	0	1897922560	58	4212
2026-01-28 11:47:56.55	327.81	11.94	-43.8	-44.8	19.8	0.00e+00	0	43	0	1901068288	58	4231
2026-01-28 11:47:57.56	327.93	11.86	-43.8	-44.9	19.8	0.00e+00	0	43	0	1904214016	58	4247
2026-01-28 11:47:58.57	328.04	11.79	-43.8	-44.8	19.8	0.00e+00	0	43	0	1907359744	58	4241
2026-01-28 11:47:59.58	328.16	11.71	-43.8	-44.9	19.7	0.00e+00	0	43	0	1910505472	58	4260
2026-01-28 11:48:00.59	328.28	11.64	-43.9	-44.9	19.7	0.00e+00	0	43	0	1913651200	58	4269
2026-01-28 11:48:01.60	328.39	11.57	-43.9	-44.9	19.7	0.00e+00	0	43	0	1916796928	58	4269
2026-01-28 11:48:02.61	328.51	11.49	-43.8	-44.9	19.7	0.00e+00	0	43	0	1919942656	58	4261
2026-01-28 11:48:03.61	328.62	11.42	-43.9	-45.0	19.6	0.00e+00	0	42	0	1923088384	58	4310
2026-01-28 11:48:04.62	328.74	11.35	-43.8	-44.9	19.7	0.00e+00	0	43	0	1926234112	58	4257
2026-01-28 11:48:05.63	328.85	11.27	-43.9	-44.9	19.7	0.00e+00	0	43	0	1929379840	58	4265
2026-01-28 11:48:06.64	328.96	11.20	-43.9	-44.9	19.7	0.00e+00	0	43	0	1932525568	58	4262
2026-01-28 11:48:07.65	329.08	11.13	-43.9	-44.9	19.7	0.00e+00	0	43	0	1935671296	58	4265
2026-01-28 11:48:08.66	329.19	11.05	-43.9	-44.9	19.7	0.00e+00	0	43	0	1938817024	58	4263
2026-01-28 11:48:09.67	329.30	10.98	-43.8	-44.9	19.7	0.00e+00	0	43	0	1941962752	58	4263
2026-01-28 11:48:10.68	329.41	10.91	-43.8	-44.9	19.7	0.00e+00	0	43	0	1945108480	58	4254
2026-01-28 11:48:11.69	329.52	10.84	-43.9	-44.9	19.6	0.00e+00	0	43	0	1948254208	58	4275
2026-01-28 11:48:12.70	329.63	10.76	-43.9	-45.0	19.6	0.00e+00	0	43	0	1951399936	58	4317
2026-01-28 11:48:13.71	329.74	10.69	-43.9	-44.9	19.6	0.00e+00	0	43	0	1954545664	58	4290
2026-01-28 11:48:14.71	329.85	10.62	-44.0	-45.1	19.5	0.00e+00	0	43	0	1957691392	58	4351
2026-01-28 11:48:15.72	329.96	10.55	-44.1	-45.2	19.4	0.00e+00	0	42	0	1960837120	58	4425
2026-01-28 11:48:16.73	330.07	10.47	-44.2	-45.3	19.3	0.00e+00	0	43	0	1963982848	58	4451
2026-01-28 11:48:17.73	330.17	10.40	-44.2	-45.3	19.2	0.00e+00	0	43	0	1967128576	59	4217
2026-01-28 11:48:18.74	330.28	10.33	-44.2	-45.4	19.2	0.00e+00	0	43	0	1970274304	59	4245
2026-01-28 11:48:19.75	330.39	10.26	-44.3	-45.4	19.2	0.00e+00	0	43	0	1973420032	59	4268
2026-01-28 11:48:20.76	330.49	10.19	-44.3	-45.5	19.1	0.00e+00	0	43	0	1976565760	59	4299
2026-01-28 11:48:21.77	330.60	10.12	-44.2	-45.3	19.2	0.00e+00	0	43	0	1979711488	59	4228
2026-01-28 11:48:22.77	330.70	10.05	-44.3	-45.4	19.2	0.00e+00	0	43	0	1982857216	59	4256
2026-01-28 11:48:23.78	330.81	9.98	-44.3	-45.4	19.1	0.00e+00	0	43	0	1986002944	59	4285
2026-01-28 11:48:24.79	330.91	9.90	-44.3	-45.4	19.2	0.00e+00	0	43	0	1989148672	59	4257
2026-01-28 11:48:25.80	331.01	9.83	-44.2	-45.3	19.2	0.00e+00	0	43	0	1992294400	59	4214
2026-01-28 11:48:26.81	331.12	9.76	-44.2	-45.3	19.2	0.00e+00	0	43	0	1995440128	59	4226
2026-01-28 11:48:27.81	331.22	9.69	-44.1	-45.2	19.3	0.00e+00	0	43	0	1998585856	59	4172
2026-01-28 11:48:28.82	331.32	9.62	-44.1	-45.2	19.3	0.00e+00	0	43	0	2001731584	59	4169
2026-01-28 11:48:29.83	331.42	9.55	-44.1	-45.2	19.3	0.00e+00	0	43	0	2004877312	59	4161
2026-01-28 11:48:30.84	331.52	9.48	-44.0	-45.1	19.3	0.00e+00	0	43	0	2008023040	59	4137
2026-01-28 11:48:31.85	331.62	9.41	-44.2	-45.3	19.2	0.00e+00	0	43	0	2011168768	59	4200
2026-01-28 11:48:32.86	331.72	9.34	-44.2	-45.4	19.1	0.00e+00	0	42	0	2014314496	59	4247
2026-01-28 11:48:33.87	331.82	9.27	-44.2	-45.3	19.1	0.00e+00	0	43	0	2017460224	59	4237
2026-01-28 11:48:34.87	331.92	9.20	-44.3	-45.4	19.1	0.00e+00	0	43	0	2020605952	59	4259
2026-01-28 11:48:35.88	332.02	9.13	-44.3	-45.5	19.0	0.00e+00	0	43	0	2023751680	59	4293
