passes_logs/2026/01/28/R3.2S_Murmansk/R3.2S_Murmansk__20260128_134700_AQUA_rec.log

#Pass ID: 20260128_134700_AQUA
#Satellite: AQUA
#Configuration: AQUA
#almurnet v.1.7.20251203
#Start time: 2026-01-28 13:47:02

#Version: 2.2.20231116
#Station: R3.2S_Murmansk
#Location: 33.079688 lon 68.888172 lat
#TLE: 1 27424U 02022A   26027.88561574  .00001798  00000+0  36942-3 0  9997
#TLE: 2 27424  98.4102 354.5311 0001840  63.5604 322.5877 14.61868111262779

#Time	Az	El	Level	Level2	SNR	BER	BlckErr	Temp	State	Recorded	gain1	gain2
2026-01-28 13:47:02.46	218.58	2.10	-55.4	-73.3	3.8	7.46e-01	0	40	0	0	82	28051
2026-01-28 13:47:03.46	218.67	2.16	-55.4	-73.3	3.8	7.45e-01	0	40	104	0	81	29702
2026-01-28 13:47:04.47	218.76	2.21	-55.4	-73.2	3.8	7.45e-01	0	40	104	0	81	29539
2026-01-28 13:47:05.48	218.85	2.27	-55.4	-73.2	3.8	7.49e-01	0	40	104	0	81	29506
2026-01-28 13:47:06.49	218.94	2.32	-55.4	-73.2	3.8	7.41e-01	0	40	104	0	81	29451
2026-01-28 13:47:07.50	219.03	2.38	-55.4	-73.3	3.8	7.44e-01	0	40	104	0	81	29789
2026-01-28 13:47:08.51	219.12	2.43	-55.6	-73.5	3.8	7.43e-01	0	40	104	0	81	30434
2026-01-28 13:47:09.51	219.21	2.49	-55.7	-73.5	3.8	7.43e-01	0	40	104	0	81	30695
2026-01-28 13:47:10.52	219.30	2.55	-55.8	-73.6	3.8	7.43e-01	0	40	104	0	82	29162
2026-01-28 13:47:11.53	219.39	2.60	-55.8	-73.6	3.8	7.47e-01	0	40	104	0	82	29258
2026-01-28 13:47:12.54	219.49	2.66	-55.8	-73.6	3.8	7.46e-01	0	41	104	0	82	29253
2026-01-28 13:47:13.55	219.58	2.71	-55.8	-73.6	3.8	7.44e-01	0	41	104	0	82	29194
2026-01-28 13:47:14.55	219.67	2.77	-55.7	-73.6	3.8	7.45e-01	0	41	104	0	82	29090
2026-01-28 13:47:15.56	219.76	2.83	-55.7	-73.5	3.8	7.43e-01	0	40	104	0	82	28866
2026-01-28 13:47:16.57	219.86	2.88	-55.6	-73.4	3.8	7.44e-01	0	41	104	0	82	28669
2026-01-28 13:47:17.58	219.95	2.94	-55.6	-73.4	3.8	7.46e-01	0	41	104	0	82	28665
2026-01-28 13:47:18.59	220.04	3.00	-55.6	-73.4	3.8	7.45e-01	0	41	104	0	82	28526
2026-01-28 13:47:19.60	220.14	3.05	-55.5	-73.4	3.8	7.45e-01	0	41	104	0	82	28418
2026-01-28 13:47:20.61	220.23	3.11	-55.5	-73.3	3.8	7.47e-01	0	41	104	0	82	28159
2026-01-28 13:47:21.62	220.33	3.17	-55.4	-73.2	3.8	7.44e-01	0	41	104	0	82	27934
2026-01-28 13:47:22.63	220.43	3.22	-55.4	-73.2	3.8	7.46e-01	0	41	104	0	82	27818
2026-01-28 13:47:23.64	220.52	3.28	-55.3	-73.1	3.8	7.45e-01	0	41	104	0	82	27455
2026-01-28 13:47:24.65	220.62	3.34	-55.2	-73.0	3.8	7.47e-01	0	41	104	0	82	27179
2026-01-28 13:47:25.65	220.71	3.39	-55.1	-72.9	3.8	7.46e-01	0	41	104	0	82	27044
2026-01-28 13:47:26.66	220.81	3.45	-55.0	-72.8	3.8	7.45e-01	0	41	104	0	82	26622
2026-01-28 13:47:27.67	220.91	3.51	-54.8	-72.6	3.8	7.41e-01	0	41	104	0	81	27626
2026-01-28 13:47:28.68	221.01	3.57	-54.6	-72.4	3.8	7.41e-01	0	41	104	0	81	26971
2026-01-28 13:47:29.69	221.11	3.62	-54.2	-71.9	3.8	7.48e-01	0	41	104	0	80	26800
2026-01-28 13:47:30.69	221.20	3.68	-54.0	-71.5	3.8	7.46e-01	0	41	104	0	79	27378
2026-01-28 13:47:31.70	221.30	3.74	-54.0	-71.2	3.8	7.42e-01	0	41	104	0	79	26424
2026-01-28 13:47:32.71	221.40	3.80	-54.0	-71.1	3.8	7.46e-01	0	41	104	0	79	25992
2026-01-28 13:47:33.72	221.50	3.85	-54.0	-71.2	3.8	7.47e-01	0	41	104	0	79	26407
2026-01-28 13:47:34.72	221.60	3.91	-53.9	-71.1	3.8	7.46e-01	0	41	104	0	79	25862
2026-01-28 13:47:35.73	221.70	3.97	-53.9	-71.2	3.8	7.44e-01	0	41	104	0	79	26217
2026-01-28 13:47:36.74	221.80	4.03	-53.9	-71.0	3.8	7.44e-01	0	41	104	0	79	25827
2026-01-28 13:47:37.75	221.91	4.08	-53.9	-71.3	3.8	7.46e-01	0	41	104	0	79	26586
2026-01-28 13:47:38.76	222.01	4.14	-53.9	-71.5	3.8	7.49e-01	0	41	104	0	79	27345
2026-01-28 13:47:39.77	222.11	4.20	-53.9	-71.7	3.8	7.45e-01	0	41	104	0	79	27854
2026-01-28 13:47:40.78	222.21	4.26	-53.9	-70.4	3.8	7.44e-01	0	41	104	0	79	24018
2026-01-28 13:47:41.79	222.32	4.32	-53.8	-66.9	4.6	7.18e-01	0	41	104	0	79	16057
2026-01-28 13:47:42.80	222.42	4.37	-53.6	-64.1	6.4	6.74e-01	167	41	0	524288	79	11585
2026-01-28 13:47:43.81	222.53	4.43	-53.3	-62.0	8.4	6.42e-01	54	41	0	2097152	78	9661
2026-01-28 13:47:44.81	222.63	4.49	-53.1	-61.0	9.5	6.30e-01	0	41	0	4194304	78	8591
2026-01-28 13:47:45.82	222.73	4.55	-53.0	-60.6	9.9	6.25e-01	0	41	0	6291456	78	8236
2026-01-28 13:47:46.83	222.84	4.61	-52.9	-59.9	10.6	6.20e-01	0	41	0	7864320	77	8065
2026-01-28 13:47:47.84	222.95	4.67	-52.8	-59.7	10.8	6.16e-01	0	41	0	9961472	77	7865
2026-01-28 13:47:48.85	223.05	4.73	-52.7	-59.3	11.2	6.14e-01	0	42	0	11534336	77	7475
2026-01-28 13:47:49.86	223.16	4.78	-52.1	-57.2	13.4	6.07e-01	0	41	0	13631488	76	6224
2026-01-28 13:47:50.87	223.27	4.84	-51.4	-55.6	15.0	6.06e-01	0	42	0	15728640	74	5836
2026-01-28 13:47:51.87	223.37	4.90	-50.7	-54.2	16.5	6.06e-01	0	41	0	17301504	73	5250
2026-01-28 13:47:52.88	223.48	4.96	-50.3	-53.4	17.3	6.08e-01	0	41	0	19398656	72	5091
2026-01-28 13:47:53.89	223.59	5.02	-50.1	-53.1	17.6	6.07e-01	0	41	0	21495808	72	4907
2026-01-28 13:47:54.89	223.70	5.08	-48.8	-51.1	19.7	6.06e-01	0	41	0	23068672	69	4641
2026-01-28 13:47:55.90	223.81	5.14	-51.5	-55.9	15.0	6.06e-01	0	41	0	25165824	73	6359
2026-01-28 13:47:56.91	223.92	5.20	-51.9	-56.9	14.2	6.10e-01	0	42	0	26738688	74	6735
2026-01-28 13:47:57.91	224.03	5.26	-53.7	-68.6	3.9	7.39e-01	0	42	104	28311552	77	21893
2026-01-28 13:47:58.92	224.14	5.31	-47.2	-48.9	21.5	6.05e-01	0	41	0	28835840	66	4280
2026-01-28 13:47:59.93	224.25	5.37	-47.1	-48.8	22.1	6.06e-01	0	41	0	30932992	66	4205
2026-01-28 13:48:00.94	224.36	5.43	-47.1	-48.8	22.1	6.06e-01	0	41	0	33030144	66	4221
2026-01-28 13:48:01.94	224.47	5.49	-47.1	-48.8	22.1	6.07e-01	0	41	0	34603008	66	4233
2026-01-28 13:48:02.95	224.59	5.55	-46.9	-48.6	22.3	6.07e-01	0	42	0	36700160	65	4381
2026-01-28 13:48:03.96	224.70	5.61	-47.0	-48.6	22.3	6.04e-01	0	42	0	38273024	65	4386
2026-01-28 13:48:04.96	224.81	5.67	-47.1	-48.8	22.1	6.07e-01	0	42	0	40370176	65	4482
2026-01-28 13:48:05.97	224.93	5.73	-46.7	-48.4	22.4	6.07e-01	0	41	0	42467328	65	4261
2026-01-28 13:48:06.98	225.04	5.79	-46.9	-48.6	22.4	6.05e-01	0	41	0	44040192	65	4347
2026-01-28 13:48:07.98	225.16	5.85	-46.7	-48.3	22.6	6.07e-01	0	42	0	46137344	65	4221
2026-01-28 13:48:08.99	225.27	5.91	-46.8	-48.5	22.5	6.06e-01	0	41	0	48234496	65	4322
2026-01-28 13:48:10.00	225.39	5.97	-46.9	-48.5	22.5	6.04e-01	0	42	0	49807360	65	4323
2026-01-28 13:48:11.01	225.51	6.03	-47.0	-48.7	22.3	6.07e-01	0	41	0	51904512	65	4405
2026-01-28 13:48:12.01	225.62	6.09	-47.2	-49.0	22.0	6.07e-01	0	42	0	53477376	65	4575
2026-01-28 13:48:13.02	225.74	6.15	-47.2	-49.0	22.0	6.07e-01	0	42	0	55574528	65	4547
2026-01-28 13:48:14.03	225.86	6.21	-47.6	-49.4	21.6	6.07e-01	0	42	0	57147392	65	4786
2026-01-28 13:48:15.04	225.98	6.27	-47.2	-48.9	22.1	6.08e-01	0	41	0	59244544	65	4520
2026-01-28 13:48:16.05	226.10	6.33	-47.2	-48.9	22.1	6.06e-01	0	42	0	61341696	65	4511
2026-01-28 13:48:17.06	226.22	6.39	-47.0	-48.7	22.3	6.06e-01	0	41	0	62914560	65	4421
2026-01-28 13:48:18.07	226.34	6.45	-46.5	-48.1	22.9	6.04e-01	0	42	0	65011712	65	4118
2026-01-28 13:48:19.07	226.46	6.51	-46.5	-48.1	23.0	6.05e-01	0	41	0	67108864	64	4365
2026-01-28 13:48:20.08	226.58	6.57	-46.6	-48.2	22.9	6.04e-01	0	41	0	68681728	64	4395
2026-01-28 13:48:21.09	226.70	6.63	-46.6	-48.2	22.8	6.09e-01	0	41	0	70778880	64	4436
2026-01-28 13:48:22.10	226.83	6.70	-46.7	-48.3	22.7	6.07e-01	0	42	0	72351744	64	4479
2026-01-28 13:48:23.10	226.95	6.76	-46.6	-48.2	22.8	6.03e-01	0	42	0	74448896	64	4433
2026-01-28 13:48:24.11	227.07	6.82	-46.7	-48.3	22.8	6.06e-01	0	42	0	76546048	64	4463
2026-01-28 13:48:25.12	227.20	6.88	-46.6	-48.2	22.8	6.09e-01	0	42	0	78118912	64	4417
2026-01-28 13:48:26.13	227.32	6.94	-46.6	-48.2	22.9	6.06e-01	0	42	0	80216064	64	4418
2026-01-28 13:48:27.13	227.44	7.00	-46.5	-48.1	23.0	6.08e-01	0	42	0	81788928	64	4357
2026-01-28 13:48:28.15	227.57	7.06	-46.5	-48.0	23.0	6.04e-01	0	42	0	83886080	64	4320
2026-01-28 13:48:29.15	227.70	7.12	-46.6	-48.2	22.9	6.08e-01	0	42	0	85458944	64	4422
2026-01-28 13:48:30.16	227.82	7.18	-46.5	-48.1	23.0	6.07e-01	0	42	0	87556096	64	4357
2026-01-28 13:48:31.17	227.95	7.24	-46.5	-48.1	23.0	6.05e-01	0	42	0	89653248	64	4363
2026-01-28 13:48:32.18	228.08	7.31	-46.6	-48.2	22.9	6.05e-01	0	42	0	91750400	64	4395
2026-01-28 13:48:33.18	228.21	7.37	-46.5	-48.1	23.0	6.05e-01	0	42	0	93323264	64	4370
2026-01-28 13:48:34.19	228.34	7.43	-46.3	-47.8	23.2	6.07e-01	0	42	0	95420416	64	4241
2026-01-28 13:48:35.20	228.47	7.49	-46.4	-47.9	23.2	6.04e-01	0	42	0	96993280	64	4266
2026-01-28 13:48:36.21	228.60	7.55	-46.4	-48.0	23.2	6.07e-01	0	42	0	99090432	64	4294
2026-01-28 13:48:37.22	228.73	7.61	-46.4	-47.9	23.2	6.06e-01	0	42	0	100663296	64	4280
2026-01-28 13:48:38.23	228.86	7.67	-46.4	-48.0	23.1	6.08e-01	0	42	0	102760448	64	4308
2026-01-28 13:48:39.23	228.99	7.73	-46.5	-48.1	23.0	6.06e-01	0	42	0	104857600	64	4358
2026-01-28 13:48:40.24	229.12	7.80	-46.6	-48.2	22.9	6.05e-01	0	42	0	106430464	64	4428
2026-01-28 13:48:41.25	229.26	7.86	-46.8	-48.5	22.7	6.06e-01	0	42	0	108527616	64	4547
2026-01-28 13:48:42.25	229.39	7.92	-46.5	-48.0	23.1	6.07e-01	0	42	0	110100480	64	4333
2026-01-28 13:48:43.26	229.52	7.98	-46.4	-47.9	23.2	6.06e-01	0	42	0	112197632	64	4271
2026-01-28 13:48:44.27	229.66	8.04	-46.2	-47.7	23.4	6.06e-01	0	42	0	114294784	64	4188
2026-01-28 13:48:45.28	229.80	8.11	-46.4	-47.9	23.3	6.03e-01	0	42	0	115867648	64	4255
2026-01-28 13:48:46.29	229.93	8.17	-46.5	-48.0	23.1	6.06e-01	0	42	0	117964800	64	4340
2026-01-28 13:48:47.30	230.07	8.23	-46.6	-48.1	23.0	6.04e-01	0	42	0	120061952	64	4389
2026-01-28 13:48:48.30	230.20	8.29	-46.4	-47.9	23.3	6.06e-01	0	42	0	121634816	64	4260
2026-01-28 13:48:49.31	230.34	8.35	-46.2	-47.7	23.4	6.07e-01	0	42	0	123731968	64	4180
2026-01-28 13:48:50.32	230.48	8.41	-46.3	-47.8	23.4	6.07e-01	0	42	0	125304832	64	4218
2026-01-28 13:48:51.33	230.62	8.48	-46.2	-47.7	23.5	6.05e-01	0	42	0	127401984	64	4146
2026-01-28 13:48:52.34	230.76	8.54	-46.2	-47.7	23.6	6.04e-01	0	42	0	128974848	63	4396
2026-01-28 13:48:53.35	230.90	8.60	-46.3	-47.7	23.5	6.06e-01	0	42	0	131072000	63	4439
2026-01-28 13:48:54.35	231.04	8.66	-46.1	-47.5	23.7	6.06e-01	0	42	0	133169152	63	4331
2026-01-28 13:48:55.36	231.18	8.73	-46.2	-47.7	23.5	6.06e-01	0	42	0	134742016	63	4403
2026-01-28 13:48:56.37	231.33	8.79	-46.1	-47.5	23.8	6.06e-01	0	42	0	136839168	63	4321
2026-01-28 13:48:57.38	231.47	8.85	-46.2	-47.6	23.7	6.04e-01	0	42	0	138936320	63	4380
2026-01-28 13:48:58.38	231.61	8.91	-46.0	-47.4	23.8	6.06e-01	0	42	0	140509184	63	4290
2026-01-28 13:48:59.39	231.76	8.97	-46.0	-47.5	23.8	6.07e-01	0	42	0	142606336	63	4299
2026-01-28 13:49:00.40	231.90	9.04	-46.1	-47.5	23.8	6.04e-01	0	42	0	144179200	63	4338
2026-01-28 13:49:01.41	232.05	9.10	-46.1	-47.5	23.8	6.07e-01	0	42	0	146276352	63	4313
2026-01-28 13:49:02.41	232.19	9.16	-46.0	-47.5	23.8	6.08e-01	0	42	0	148373504	63	4294
2026-01-28 13:49:03.42	232.34	9.22	-46.1	-47.5	23.8	6.06e-01	0	42	0	149946368	63	4331
2026-01-28 13:49:04.43	232.49	9.29	-46.1	-47.5	23.8	6.04e-01	0	42	0	152043520	63	4336
2026-01-28 13:49:05.44	232.64	9.35	-45.9	-47.4	24.0	6.06e-01	0	42	0	153616384	63	4248
2026-01-28 13:49:06.44	232.78	9.41	-45.9	-47.4	24.0	6.06e-01	0	42	0	155713536	63	4251
2026-01-28 13:49:07.45	232.93	9.47	-45.8	-47.2	24.1	6.04e-01	0	42	0	157286400	63	4180
2026-01-28 13:49:08.46	233.08	9.54	-45.8	-47.2	24.1	6.05e-01	0	42	0	159383552	63	4179
2026-01-28 13:49:09.47	233.23	9.60	-45.8	-47.2	24.1	6.07e-01	0	42	0	161480704	63	4189
2026-01-28 13:49:10.48	233.39	9.66	-45.9	-47.3	24.0	6.05e-01	0	42	0	163577856	63	4200
2026-01-28 13:49:11.48	233.54	9.72	-45.7	-47.1	24.2	6.05e-01	0	42	0	165150720	63	4125
2026-01-28 13:49:12.49	233.69	9.79	-45.8	-47.1	24.1	6.04e-01	0	42	0	167247872	63	4142
2026-01-28 13:49:13.51	233.85	9.85	-45.7	-47.1	24.2	6.08e-01	0	42	0	168820736	63	4138
2026-01-28 13:49:14.51	234.00	9.91	-45.6	-47.0	24.3	6.05e-01	0	42	0	170917888	63	4078
2026-01-28 13:49:15.53	234.16	9.97	-45.7	-47.1	24.3	6.07e-01	0	42	0	172490752	63	4108
2026-01-28 13:49:16.53	234.31	10.04	-45.8	-47.2	24.1	6.06e-01	0	42	0	174587904	63	4153
2026-01-28 13:49:17.54	234.47	10.10	-45.8	-47.2	24.1	6.05e-01	0	42	0	176685056	63	4184
2026-01-28 13:49:18.54	234.62	10.16	-45.7	-47.1	24.2	6.08e-01	0	42	0	178257920	63	4129
2026-01-28 13:49:19.55	234.78	10.22	-45.8	-47.2	24.1	6.04e-01	0	42	0	180355072	63	4148
2026-01-28 13:49:20.56	234.94	10.29	-45.5	-46.9	24.4	6.04e-01	0	42	0	181927936	63	4024
2026-01-28 13:49:21.57	235.10	10.35	-45.6	-47.0	24.3	6.07e-01	0	42	0	184025088	63	4053
2026-01-28 13:49:22.58	235.26	10.41	-45.6	-46.9	24.4	6.06e-01	0	42	0	186122240	63	4043
2026-01-28 13:49:23.59	235.42	10.47	-45.6	-47.0	24.3	6.07e-01	0	42	0	187695104	63	4082
2026-01-28 13:49:24.59	235.58	10.54	-45.7	-47.1	24.3	6.06e-01	0	42	0	189792256	63	4110
2026-01-28 13:49:25.60	235.74	10.60	-45.7	-47.1	24.2	6.05e-01	0	42	0	191889408	63	4119
2026-01-28 13:49:26.61	235.90	10.66	-45.6	-47.0	24.3	6.07e-01	0	42	0	193462272	63	4068
2026-01-28 13:49:27.62	236.07	10.72	-45.5	-46.9	24.5	6.06e-01	0	42	0	195559424	63	4010
2026-01-28 13:49:28.63	236.23	10.79	-45.6	-46.9	24.4	6.08e-01	0	42	0	197132288	63	4039
2026-01-28 13:49:29.63	236.40	10.85	-45.4	-46.8	24.5	6.08e-01	0	42	0	199229440	62	4202
2026-01-28 13:49:30.64	236.56	10.91	-45.5	-46.9	24.4	6.05e-01	0	42	0	200802304	62	4255
2026-01-28 13:49:31.64	236.73	10.97	-45.5	-46.9	24.4	6.08e-01	0	42	0	202899456	62	4245
2026-01-28 13:49:32.65	236.89	11.03	-45.4	-46.8	24.6	6.06e-01	0	42	0	204996608	62	4195
2026-01-28 13:49:33.66	237.06	11.10	-45.5	-46.8	24.5	6.05e-01	0	42	0	206569472	62	4218
2026-01-28 13:49:34.66	237.23	11.16	-45.3	-46.6	24.6	6.03e-01	0	42	0	208666624	62	4137
2026-01-28 13:49:35.67	237.40	11.22	-45.4	-46.7	24.6	6.05e-01	0	42	0	210763776	62	4179
2026-01-28 13:49:36.68	237.57	11.28	-45.5	-46.8	24.5	6.05e-01	0	42	0	212336640	62	4241
2026-01-28 13:49:37.69	237.74	11.35	-45.5	-46.8	24.5	6.06e-01	0	42	0	214433792	62	4237
2026-01-28 13:49:38.69	237.91	11.41	-45.6	-46.9	24.4	6.06e-01	0	42	0	216006656	62	4291
2026-01-28 13:49:39.70	238.08	11.47	-45.4	-46.7	24.6	6.05e-01	0	42	0	218103808	62	4179
2026-01-28 13:49:40.71	238.26	11.53	-45.3	-46.6	24.7	6.04e-01	0	42	0	220200960	62	4129
2026-01-28 13:49:41.72	238.43	11.59	-45.4	-46.8	24.6	6.06e-01	0	42	0	221773824	62	4209
2026-01-28 13:49:42.73	238.61	11.66	-45.4	-46.7	24.6	6.07e-01	0	42	0	223870976	62	4181
2026-01-28 13:49:43.73	238.78	11.72	-45.5	-46.8	24.5	6.07e-01	0	42	0	225443840	62	4220
2026-01-28 13:49:44.74	238.96	11.78	-45.5	-46.9	24.5	6.08e-01	0	42	0	227540992	62	4246
2026-01-28 13:49:45.75	239.13	11.84	-45.4	-46.7	24.7	6.05e-01	0	42	0	229113856	62	4169
2026-01-28 13:49:46.76	239.31	11.90	-45.4	-46.7	24.7	6.05e-01	0	42	0	231211008	62	4157
2026-01-28 13:49:47.77	239.49	11.97	-45.1	-46.4	24.9	6.06e-01	0	42	0	233308160	62	4033
2026-01-28 13:49:48.77	239.67	12.03	-45.1	-46.4	25.0	6.06e-01	0	42	0	234881024	62	4023
2026-01-28 13:49:49.78	239.85	12.09	-45.2	-46.5	24.8	6.04e-01	0	42	0	236978176	62	4085
2026-01-28 13:49:50.78	240.03	12.15	-45.3	-46.6	24.7	6.06e-01	0	42	0	239075328	62	4129
2026-01-28 13:49:51.79	240.21	12.21	-45.3	-46.6	24.7	6.05e-01	0	42	0	240648192	62	4133
2026-01-28 13:49:52.81	240.40	12.27	-45.1	-46.4	24.9	6.04e-01	0	42	0	242745344	62	4026
2026-01-28 13:49:53.81	240.58	12.33	-45.2	-46.5	24.9	6.05e-01	0	42	0	244318208	62	4068
2026-01-28 13:49:54.82	240.76	12.39	-45.2	-46.5	24.8	6.05e-01	0	42	0	246415360	62	4066
2026-01-28 13:49:55.83	240.95	12.46	-45.3	-46.6	24.8	6.06e-01	0	42	0	248512512	62	4106
2026-01-28 13:49:56.83	241.13	12.52	-45.3	-46.6	24.7	6.05e-01	0	42	0	250085376	62	4127
2026-01-28 13:49:57.84	241.32	12.58	-45.3	-46.6	24.8	6.06e-01	0	42	0	252182528	62	4106
2026-01-28 13:49:58.85	241.51	12.64	-45.1	-46.4	25.0	6.05e-01	0	42	0	253755392	62	4012
2026-01-28 13:49:59.86	241.69	12.70	-45.1	-46.3	25.0	6.06e-01	0	42	0	255852544	62	4004
2026-01-28 13:50:00.87	241.88	12.76	-45.1	-46.3	25.0	6.05e-01	0	42	0	257949696	62	3995
2026-01-28 13:50:01.87	242.07	12.82	-45.0	-46.3	25.0	6.06e-01	0	42	0	259522560	62	3975
2026-01-28 13:50:02.88	242.26	12.88	-45.4	-56.2	3.9	7.44e-01	0	42	104	259522560	62	12472
2026-01-28 13:50:03.89	242.45	12.94	-45.4	-56.2	3.8	7.45e-01	0	42	104	259522560	62	12513
2026-01-28 13:50:04.90	242.65	13.00	-45.4	-56.3	3.8	7.49e-01	0	42	104	259522560	62	12531
2026-01-28 13:50:05.90	242.84	13.06	-47.1	-58.2	3.8	7.46e-01	0	42	104	259522560	64	13944
2026-01-28 13:50:06.91	243.03	13.12	-53.3	-68.1	3.8	7.47e-01	0	42	104	259522560	77	20655
2026-01-28 13:50:07.92	243.23	13.18	-52.0	-65.0	3.8	7.46e-01	0	42	104	259522560	74	17114
2026-01-28 13:50:08.93	243.42	13.24	-46.4	-57.2	3.8	7.40e-01	0	42	104	259522560	63	13164
2026-01-28 13:50:09.94	243.62	13.30	-45.9	-56.8	3.8	7.46e-01	0	42	104	259522560	63	12647
2026-01-28 13:50:10.95	243.82	13.36	-46.0	-57.0	3.8	7.39e-01	0	42	104	259522560	63	12821
2026-01-28 13:50:11.96	244.01	13.42	-45.9	-56.9	3.8	7.44e-01	0	42	104	259522560	63	12768
2026-01-28 13:50:12.97	244.21	13.48	-45.4	-56.1	3.9	7.40e-01	0	42	104	259522560	62	12331
2026-01-28 13:50:13.97	244.41	13.54	-48.3	-59.6	3.9	7.41e-01	0	42	104	259522560	67	13778
2026-01-28 13:50:14.98	244.61	13.60	-52.2	-65.3	3.8	7.44e-01	0	42	104	259522560	74	17820
2026-01-28 13:50:15.99	244.81	13.65	-53.4	-68.1	3.9	7.41e-01	0	42	104	259522560	77	20630
2026-01-28 13:50:17.00	245.02	13.71	-47.1	-58.0	4.3	7.27e-01	0	42	104	259522560	64	13597
2026-01-28 13:50:18.01	245.22	13.77	-46.3	-57.1	4.3	7.29e-01	0	42	104	259522560	64	12339
2026-01-28 13:50:19.02	245.42	13.83	-46.4	-57.1	4.3	7.27e-01	0	42	104	259522560	64	12368
2026-01-28 13:50:20.02	245.63	13.89	-46.1	-56.8	4.3	7.28e-01	0	42	104	259522560	64	11908
2026-01-28 13:50:21.03	245.83	13.95	-48.0	-59.2	3.9	7.41e-01	0	42	104	259522560	66	13955
2026-01-28 13:50:22.04	246.04	14.00	-47.2	-58.3	3.8	7.45e-01	0	42	104	259522560	66	12661
2026-01-28 13:50:23.05	246.24	14.06	-53.3	-67.9	3.8	7.44e-01	0	42	104	259522560	77	20148
2026-01-28 13:50:24.06	246.45	14.12	-52.4	-65.9	3.8	7.46e-01	0	42	104	259522560	75	18008
2026-01-28 13:50:25.07	246.66	14.18	-46.4	-57.4	3.8	7.43e-01	0	42	104	259522560	63	13421
2026-01-28 13:50:26.08	246.87	14.23	-45.8	-56.6	3.8	7.48e-01	0	42	104	259522560	63	12344
2026-01-28 13:50:27.08	247.08	14.29	-45.7	-56.6	3.8	7.42e-01	0	42	104	259522560	63	12254
2026-01-28 13:50:28.09	247.29	14.35	-45.4	-56.2	3.8	7.44e-01	0	42	104	259522560	62	12410
2026-01-28 13:50:29.10	247.50	14.40	-45.3	-56.1	3.8	7.41e-01	0	42	104	259522560	62	12346
2026-01-28 13:50:30.11	247.72	14.46	-47.9	-59.1	3.8	7.47e-01	0	42	104	259522560	66	13840
2026-01-28 13:50:31.12	247.93	14.51	-51.9	-65.0	3.8	7.43e-01	0	42	104	259522560	75	16272
2026-01-28 13:50:32.13	248.15	14.57	-53.1	-67.4	3.9	7.42e-01	0	42	104	259522560	77	18998
2026-01-28 13:50:33.13	248.36	14.63	-46.9	-58.0	3.8	7.43e-01	0	42	104	259522560	64	13609
2026-01-28 13:50:34.14	248.58	14.68	-46.3	-57.2	3.8	7.45e-01	0	42	104	259522560	64	12405
2026-01-28 13:50:35.15	248.79	14.74	-46.0	-56.8	3.8	7.47e-01	0	42	104	259522560	63	12639
2026-01-28 13:50:36.15	249.01	14.79	-45.6	-56.4	3.8	7.40e-01	0	42	104	259522560	63	12034
2026-01-28 13:50:37.16	249.23	14.85	-45.8	-56.6	3.8	7.45e-01	0	42	104	259522560	63	12288
2026-01-28 13:50:38.17	249.45	14.90	-46.4	-57.3	3.9	7.42e-01	0	42	104	259522560	64	12624
2026-01-28 13:50:39.18	249.67	14.95	-52.7	-66.4	3.9	7.43e-01	0	42	104	259522560	77	17027
2026-01-28 13:50:40.19	249.89	15.01	-51.0	-63.4	3.9	7.45e-01	0	42	104	259522560	74	14210
2026-01-28 13:50:41.20	250.11	15.06	-46.2	-57.1	3.8	7.44e-01	0	42	104	259522560	62	13745
2026-01-28 13:50:42.21	250.34	15.12	-45.7	-56.5	3.8	7.45e-01	0	42	104	259522560	62	12874
2026-01-28 13:50:43.22	250.56	15.17	-45.5	-56.3	3.8	7.43e-01	0	42	104	259522560	62	12650
2026-01-28 13:50:44.23	250.79	15.22	-45.5	-56.4	3.9	7.44e-01	0	42	104	259522560	62	12744
2026-01-28 13:50:45.23	251.01	15.27	-45.7	-56.6	3.8	7.43e-01	0	42	104	259522560	62	13048
2026-01-28 13:50:46.24	251.23	15.33	-47.2	-58.3	3.9	7.43e-01	0	42	104	259522560	66	12628
2026-01-28 13:50:47.25	251.46	15.38	-51.8	-64.6	3.8	7.44e-01	0	42	104	259522560	75	15541
2026-01-28 13:50:48.25	251.69	15.43	-52.3	-65.7	3.9	7.44e-01	0	42	104	259522560	76	16690
2026-01-28 13:50:49.26	251.92	15.48	-47.2	-58.2	3.8	7.45e-01	0	42	104	259522560	65	13137
2026-01-28 13:50:50.27	252.15	15.53	-46.3	-57.2	3.8	7.44e-01	0	42	104	259522560	64	12515
2026-01-28 13:50:51.28	252.38	15.59	-46.3	-57.2	3.8	7.45e-01	0	42	104	259522560	64	12484
2026-01-28 13:50:52.29	252.61	15.64	-46.0	-56.9	3.8	7.49e-01	0	42	104	259522560	63	12679
2026-01-28 13:50:53.30	252.84	15.69	-46.2	-57.1	3.8	7.44e-01	0	42	104	259522560	64	12357
2026-01-28 13:50:54.30	253.07	15.74	-46.1	-57.0	3.8	7.47e-01	0	42	104	259522560	64	12096
2026-01-28 13:50:55.31	253.31	15.79	-52.0	-65.2	3.8	7.46e-01	0	42	104	259522560	76	15634
2026-01-28 13:50:56.32	253.54	15.84	-49.7	-61.4	3.8	7.47e-01	0	42	104	259522560	71	13527
2026-01-28 13:50:57.33	253.78	15.88	-45.9	-56.7	3.8	7.45e-01	0	42	104	259522560	62	13202
2026-01-28 13:50:58.34	254.01	15.93	-45.4	-56.3	3.8	7.42e-01	0	42	104	259522560	62	12565
2026-01-28 13:50:59.35	254.25	15.98	-45.3	-56.1	3.8	7.44e-01	0	42	104	259522560	62	12320
2026-01-28 13:51:00.36	254.49	16.03	-45.2	-56.0	3.8	7.44e-01	0	42	104	259522560	62	12185
2026-01-28 13:51:01.36	254.72	16.08	-45.2	-56.0	3.8	7.41e-01	0	42	104	259522560	62	12206
2026-01-28 13:51:02.37	254.96	16.13	-46.8	-57.7	3.8	7.43e-01	0	42	104	259522560	65	12483
2026-01-28 13:51:03.37	255.20	16.17	-51.6	-64.4	3.9	7.44e-01	0	42	104	259522560	75	15220
2026-01-28 13:51:04.38	255.44	16.22	-49.2	-60.7	3.9	7.42e-01	0	42	104	259522560	70	13223
2026-01-28 13:51:05.39	255.68	16.27	-46.9	-57.8	3.8	7.46e-01	0	42	104	259522560	65	12644
2026-01-28 13:51:06.40	255.93	16.31	-46.3	-57.2	3.8	7.41e-01	0	42	104	259522560	64	12393
2026-01-28 13:51:07.41	256.17	16.36	-45.9	-56.8	3.8	7.43e-01	0	42	104	259522560	63	12626
2026-01-28 13:51:08.42	256.41	16.40	-45.7	-56.6	3.8	7.45e-01	0	42	104	259522560	63	12329
2026-01-28 13:51:09.43	256.66	16.45	-46.2	-57.1	3.8	7.46e-01	0	42	104	259522560	63	13062
2026-01-28 13:51:10.43	256.90	16.49	-46.4	-57.3	3.8	7.45e-01	0	42	104	259522560	64	12559
2026-01-28 13:51:11.44	257.15	16.54	-51.0	-63.3	3.8	7.42e-01	0	42	104	259522560	74	14168
2026-01-28 13:51:12.45	257.39	16.58	-48.0	-59.3	3.8	7.51e-01	0	42	104	259522560	68	12623
2026-01-28 13:51:13.46	257.64	16.62	-45.4	-56.1	3.8	7.43e-01	0	42	104	259522560	62	12369
2026-01-28 13:51:14.47	257.89	16.67	-45.4	-56.2	3.8	7.44e-01	0	42	104	259522560	62	12467
2026-01-28 13:51:15.48	258.14	16.71	-45.1	-55.9	3.8	7.42e-01	0	42	104	259522560	62	11980
2026-01-28 13:51:16.48	258.39	16.75	-45.2	-56.0	3.8	7.47e-01	0	42	104	259522560	62	12190
2026-01-28 13:51:17.49	258.64	16.79	-45.4	-56.1	3.8	7.43e-01	0	42	104	259522560	62	12272
2026-01-28 13:51:18.50	258.89	16.83	-47.9	-59.2	3.8	7.46e-01	0	42	104	259522560	66	13983
2026-01-28 13:51:19.51	259.14	16.87	-51.4	-64.0	3.8	7.49e-01	0	42	104	259522560	74	15251
2026-01-28 13:51:20.52	259.39	16.91	-46.6	-57.7	3.9	7.39e-01	0	42	104	259522560	65	12385
2026-01-28 13:51:21.52	259.64	16.95	-45.9	-56.7	3.8	7.45e-01	0	42	104	259522560	63	12376
2026-01-28 13:51:22.53	259.90	16.99	-45.4	-56.1	3.8	7.46e-01	0	42	104	259522560	62	12313
2026-01-28 13:51:23.54	260.15	17.03	-45.5	-56.4	3.8	7.46e-01	0	42	104	259522560	62	12782
2026-01-28 13:51:24.55	260.41	17.07	-46.4	-57.4	3.8	7.48e-01	0	42	104	259522560	63	13525
2026-01-28 13:51:25.55	260.66	17.11	-47.5	-58.6	3.8	7.45e-01	0	42	104	259522560	65	13743
2026-01-28 13:51:26.56	260.92	17.15	-47.9	-59.2	3.8	7.45e-01	0	42	104	259522560	66	13900
2026-01-28 13:51:27.57	261.18	17.18	-52.1	-64.9	3.8	7.46e-01	0	42	104	259522560	74	17079
2026-01-28 13:51:28.58	261.43	17.22	-45.6	-56.5	3.8	7.48e-01	0	42	104	259522560	63	12181
2026-01-28 13:51:29.58	261.69	17.26	-45.3	-56.0	3.8	7.44e-01	0	42	104	259522560	62	12196
2026-01-28 13:51:30.59	261.95	17.29	-45.4	-56.1	3.8	7.44e-01	0	42	104	259522560	62	12352
2026-01-28 13:51:31.60	262.21	17.33	-45.3	-56.1	3.8	7.45e-01	0	42	104	259522560	62	12295
2026-01-28 13:51:32.61	262.47	17.36	-45.3	-56.2	3.8	7.49e-01	0	42	104	259522560	62	12430
2026-01-28 13:51:33.61	262.73	17.40	-46.3	-57.4	3.8	7.41e-01	0	42	104	259522560	63	13474
2026-01-28 13:51:34.62	262.99	17.43	-50.2	-62.0	3.8	7.46e-01	0	42	104	259522560	70	15279
2026-01-28 13:51:35.63	263.25	17.47	-51.7	-64.4	3.8	7.47e-01	0	42	104	259522560	74	15959
2026-01-28 13:51:36.64	263.52	17.50	-45.6	-56.4	3.8	7.45e-01	0	42	104	259522560	63	12071
2026-01-28 13:51:37.65	263.78	17.53	-45.9	-56.7	3.9	7.42e-01	0	42	104	259522560	63	12452
2026-01-28 13:51:38.65	264.04	17.56	-45.4	-56.2	3.8	7.42e-01	0	42	104	259522560	62	12441
2026-01-28 13:51:39.66	264.31	17.59	-45.4	-56.1	3.8	7.44e-01	0	42	104	259522560	62	12336
2026-01-28 13:51:40.67	264.57	17.62	-46.0	-56.9	3.8	7.45e-01	0	42	104	259522560	62	13510
2026-01-28 13:51:41.68	264.84	17.65	-47.6	-58.7	3.9	7.45e-01	0	42	104	259522560	65	13937
2026-01-28 13:51:42.69	265.11	17.68	-51.4	-64.0	3.8	7.48e-01	0	42	104	259522560	73	16241
2026-01-28 13:51:43.69	265.37	17.71	-52.9	-66.7	3.8	7.41e-01	0	42	104	259522560	76	18528
2026-01-28 13:51:44.69	265.63	17.74	-45.2	-55.9	3.8	7.45e-01	0	42	104	259522560	62	12029
2026-01-28 13:51:45.71	265.91	17.77	-45.3	-56.1	3.8	7.45e-01	0	42	104	259522560	62	12239
2026-01-28 13:51:46.71	266.17	17.80	-45.4	-56.3	3.8	7.42e-01	0	42	104	259522560	62	12569
2026-01-28 13:51:47.72	266.44	17.82	-45.3	-56.1	3.8	7.47e-01	0	42	104	259522560	62	12301
2026-01-28 13:51:48.72	266.71	17.85	-45.5	-56.3	3.8	7.45e-01	0	42	104	259522560	62	12589
2026-01-28 13:51:49.73	266.98	17.88	-46.3	-57.2	3.8	7.48e-01	0	42	104	259522560	63	13199
2026-01-28 13:51:50.74	267.25	17.90	-52.8	-65.8	3.8	7.47e-01	0	42	104	259522560	75	17783
2026-01-28 13:51:51.75	267.52	17.93	-52.0	-65.0	3.8	7.42e-01	0	42	104	259522560	75	16143
2026-01-28 13:51:52.75	267.79	17.95	-45.6	-56.5	3.8	7.44e-01	0	42	104	259522560	63	12116
2026-01-28 13:51:53.76	268.06	17.98	-46.0	-56.8	3.8	7.48e-01	0	42	104	259522560	63	12554
2026-01-28 13:51:54.77	268.33	18.00	-45.8	-56.7	3.8	7.43e-01	0	42	104	259522560	63	12426
2026-01-28 13:51:55.78	268.60	18.02	-45.6	-56.4	3.8	7.42e-01	0	42	104	259522560	63	12038
2026-01-28 13:51:56.79	268.88	18.04	-45.8	-56.6	3.8	7.46e-01	0	42	104	259522560	62	13058
2026-01-28 13:51:57.79	269.15	18.06	-47.8	-59.1	3.8	7.42e-01	0	42	104	259522560	66	13833
2026-01-28 13:51:58.80	269.42	18.09	-52.1	-65.1	3.8	7.46e-01	0	42	104	259522560	74	17465
2026-01-28 13:51:59.81	269.70	18.11	-53.8	-69.0	3.8	7.49e-01	0	42	104	259522560	78	21533
2026-01-28 13:52:00.82	269.97	18.13	-45.3	-56.1	3.8	7.49e-01	0	42	104	259522560	62	12264
2026-01-28 13:52:01.83	270.25	18.14	-45.3	-56.1	3.8	7.44e-01	0	42	104	259522560	62	12317
2026-01-28 13:52:02.83	270.52	18.16	-45.4	-56.2	3.8	7.42e-01	0	42	104	259522560	62	12447
2026-01-28 13:52:03.84	270.79	18.18	-45.2	-56.0	3.8	7.45e-01	0	42	104	259522560	62	12204
2026-01-28 13:52:04.84	271.07	18.20	-45.2	-56.1	3.8	7.44e-01	0	42	104	259522560	62	12244
2026-01-28 13:52:05.85	271.34	18.21	-46.5	-57.3	3.9	7.43e-01	0	42	104	259522560	63	13399
2026-01-28 13:52:06.86	271.62	18.23	-53.6	-68.1	3.8	7.46e-01	0	42	104	259522560	77	20690
2026-01-28 13:52:07.86	271.89	18.25	-52.2	-65.4	3.8	7.46e-01	0	42	104	259522560	75	17027
2026-01-28 13:52:08.87	272.17	18.26	-46.5	-57.4	3.8	7.44e-01	0	42	104	259522560	63	13429
2026-01-28 13:52:09.88	272.45	18.27	-45.8	-56.5	3.8	7.47e-01	0	42	104	259522560	63	12201
2026-01-28 13:52:10.88	272.72	18.29	-45.5	-56.3	3.8	7.45e-01	0	42	104	259522560	63	11884
2026-01-28 13:52:11.89	273.00	18.30	-45.4	-56.3	3.8	7.47e-01	0	42	104	259522560	62	12522
2026-01-28 13:52:12.90	273.28	18.31	-45.9	-56.8	3.8	7.41e-01	0	42	104	259522560	62	13296
2026-01-28 13:52:13.91	273.56	18.33	-47.8	-58.9	3.8	7.43e-01	0	42	104	259522560	66	13473
2026-01-28 13:52:14.92	273.84	18.34	-52.2	-65.3	3.8	7.44e-01	0	42	104	259522560	74	17885
2026-01-28 13:52:15.92	274.11	18.35	-54.1	-69.5	3.8	7.45e-01	0	42	104	259522560	78	22898
2026-01-28 13:52:16.93	274.39	18.36	-45.5	-56.3	3.8	7.46e-01	0	42	104	259522560	62	12547
2026-01-28 13:52:17.94	274.67	18.37	-45.4	-56.3	3.8	7.47e-01	0	42	104	259522560	62	12564
2026-01-28 13:52:18.95	274.95	18.37	-45.5	-56.2	3.8	7.47e-01	0	42	104	259522560	62	12458
2026-01-28 13:52:19.95	275.23	18.38	-45.3	-56.1	3.8	7.42e-01	0	42	104	259522560	62	12247
2026-01-28 13:52:20.96	275.51	18.39	-46.3	-57.2	3.9	7.42e-01	0	42	104	259522560	63	13165
2026-01-28 13:52:21.97	275.79	18.40	-46.9	-58.0	3.8	7.47e-01	0	42	104	259522560	64	13614
2026-01-28 13:52:22.98	276.07	18.40	-54.3	-70.3	3.8	7.47e-01	0	43	104	259522560	79	23834
2026-01-28 13:52:23.99	276.35	18.41	-52.4	-65.5	3.8	7.45e-01	0	42	104	259522560	76	16273
2026-01-28 13:52:24.99	276.62	18.41	-46.3	-57.2	3.8	7.43e-01	0	42	104	259522560	63	13124
2026-01-28 13:52:26.00	276.90	18.42	-45.6	-56.3	3.8	7.43e-01	0	42	104	259522560	63	11947
2026-01-28 13:52:27.01	277.18	18.42	-45.4	-56.2	3.8	7.42e-01	0	43	104	259522560	62	12427
2026-01-28 13:52:28.02	277.46	18.42	-45.2	-56.0	3.8	7.45e-01	0	42	104	259522560	62	12177
2026-01-28 13:52:29.03	277.74	18.43	-46.3	-57.3	3.8	7.43e-01	0	42	104	259522560	63	13370
2026-01-28 13:52:30.03	278.02	18.43	-47.4	-58.4	3.9	7.43e-01	0	42	104	259522560	65	13553
2026-01-28 13:52:31.04	278.30	18.43	-52.3	-65.5	3.9	7.43e-01	0	42	104	259522560	75	17171
2026-01-28 13:52:32.05	278.58	18.43	-53.8	-68.5	3.8	7.45e-01	0	43	104	259522560	78	20474
2026-01-28 13:52:33.05	278.86	18.43	-45.8	-56.5	3.8	7.43e-01	0	42	104	259522560	62	12953
2026-01-28 13:52:34.05	279.14	18.43	-45.6	-56.5	3.8	7.43e-01	0	43	104	259522560	62	12902
2026-01-28 13:52:35.06	279.42	18.43	-45.5	-56.4	3.8	7.44e-01	0	43	104	259522560	62	12666
2026-01-28 13:52:36.07	279.70	18.42	-45.4	-56.2	3.8	7.44e-01	0	42	104	259522560	62	12377
2026-01-28 13:52:37.08	279.98	18.42	-46.2	-57.2	3.8	7.43e-01	0	42	104	259522560	63	13240
2026-01-28 13:52:38.09	280.26	18.42	-47.3	-58.4	3.8	7.48e-01	0	42	104	259522560	65	13522
2026-01-28 13:52:39.10	280.54	18.41	-54.2	-69.7	3.8	7.43e-01	0	42	104	259522560	79	22251
2026-01-28 13:52:40.11	280.82	18.41	-52.3	-65.3	3.8	7.45e-01	0	42	104	259522560	76	15843
2026-01-28 13:52:41.11	281.10	18.40	-46.0	-56.9	3.9	7.46e-01	0	42	104	259522560	63	12757
2026-01-28 13:52:42.12	281.38	18.40	-45.6	-56.4	3.8	7.43e-01	0	42	104	259522560	63	11963
2026-01-28 13:52:43.12	281.65	18.39	-45.5	-56.3	3.8	7.44e-01	0	42	104	259522560	63	11899
2026-01-28 13:52:44.13	281.93	18.38	-45.3	-56.1	3.8	7.46e-01	0	42	104	259522560	62	12302
2026-01-28 13:52:45.14	282.21	18.38	-45.7	-56.5	3.8	7.46e-01	0	42	104	259522560	62	12873
2026-01-28 13:52:46.14	282.49	18.37	-46.4	-57.3	3.8	7.42e-01	0	42	104	259522560	64	12608
2026-01-28 13:52:47.15	282.77	18.36	-52.5	-65.6	3.8	7.42e-01	0	42	104	259522560	75	17467
2026-01-28 13:52:48.16	283.04	18.35	-52.5	-65.8	3.9	7.45e-01	0	42	104	259522560	77	15916
2026-01-28 13:52:49.17	283.32	18.34	-46.3	-57.3	3.8	7.45e-01	0	42	104	259522560	63	13301
2026-01-28 13:52:50.18	283.60	18.33	-45.7	-56.5	3.8	7.40e-01	0	42	104	259522560	63	12104
2026-01-28 13:52:51.19	283.88	18.32	-45.5	-56.3	3.8	7.43e-01	0	42	104	259522560	63	11836
2026-01-28 13:52:52.20	284.16	18.30	-45.4	-56.1	3.8	7.45e-01	0	43	104	259522560	62	12351
2026-01-28 13:52:53.20	284.43	18.29	-46.2	-57.2	3.9	7.43e-01	0	42	104	259522560	64	12396
2026-01-28 13:52:54.21	284.71	18.28	-47.2	-58.2	3.9	7.42e-01	0	42	104	259522560	66	12496
2026-01-28 13:52:55.22	284.99	18.26	-53.7	-68.2	3.8	7.43e-01	0	42	104	259522560	79	18580
2026-01-28 13:52:56.23	285.26	18.25	-52.2	-65.1	3.8	7.45e-01	0	43	104	259522560	76	15437
2026-01-28 13:52:57.23	285.54	18.23	-45.8	-56.7	3.8	7.44e-01	0	42	104	259522560	62	13144
2026-01-28 13:52:58.24	285.81	18.22	-45.3	-56.1	3.8	7.43e-01	0	42	104	259522560	62	12344
2026-01-28 13:52:59.25	286.09	18.20	-45.3	-56.1	3.8	7.46e-01	0	42	104	259522560	62	12294
2026-01-28 13:53:00.26	286.37	18.18	-45.2	-56.0	3.8	7.43e-01	0	43	104	259522560	62	12113
2026-01-28 13:53:01.27	286.64	18.17	-45.8	-56.6	3.8	7.43e-01	0	42	104	259522560	63	12365
2026-01-28 13:53:02.28	286.92	18.15	-45.7	-56.5	3.8	7.42e-01	0	42	104	259522560	63	12137
2026-01-28 13:53:03.29	287.19	18.13	-53.3	-67.2	3.8	7.48e-01	0	42	104	259522560	77	18687
2026-01-28 13:53:04.30	287.47	18.11	-48.7	-60.1	3.9	7.45e-01	0	42	104	259522560	69	12979
2026-01-28 13:53:05.30	287.74	18.09	-46.6	-57.4	3.8	7.43e-01	0	42	104	259522560	64	12806
2026-01-28 13:53:06.31	288.01	18.07	-45.9	-56.7	3.8	7.45e-01	0	42	104	259522560	63	12409
2026-01-28 13:53:07.32	288.28	18.05	-45.7	-56.5	3.8	7.45e-01	0	42	104	259522560	63	12121
2026-01-28 13:53:08.33	288.56	18.02	-45.6	-56.5	3.8	7.48e-01	0	42	104	259522560	63	12145
2026-01-28 13:53:09.34	288.83	18.00	-45.3	-56.0	3.8	7.45e-01	0	42	104	259522560	62	12200
2026-01-28 13:53:10.35	289.10	17.98	-47.5	-58.4	3.8	7.44e-01	0	42	104	259522560	67	12051
2026-01-28 13:53:11.36	289.37	17.96	-53.8	-68.2	3.8	7.48e-01	0	42	104	259522560	78	19656
2026-01-28 13:53:12.36	289.64	17.93	-52.5	-65.7	3.9	7.45e-01	0	43	104	259522560	77	15585
2026-01-28 13:53:13.37	289.91	17.91	-45.8	-56.6	3.8	7.41e-01	0	42	104	259522560	63	12252
2026-01-28 13:53:14.38	290.18	17.88	-45.6	-56.4	3.9	7.46e-01	0	43	104	259522560	63	11965
2026-01-28 13:53:15.39	290.45	17.86	-45.4	-56.1	3.8	7.46e-01	0	43	104	259522560	62	12310
2026-01-28 13:53:16.40	290.72	17.83	-45.3	-56.1	3.8	7.45e-01	0	42	104	259522560	62	12373
2026-01-28 13:53:17.41	290.99	17.80	-45.5	-56.4	3.8	7.46e-01	0	42	104	259522560	63	12072
2026-01-28 13:53:18.41	291.25	17.78	-46.6	-57.4	3.8	7.45e-01	0	42	104	259522560	63	13557
2026-01-28 13:53:19.42	291.52	17.75	-53.0	-66.5	3.9	7.38e-01	0	42	104	259522560	78	16191
2026-01-28 13:53:20.43	291.79	17.72	-46.0	-56.7	3.9	7.43e-01	0	42	104	259522560	64	11802
2026-01-28 13:53:21.44	292.05	17.69	-46.0	-56.9	3.9	7.42e-01	0	42	104	259522560	64	11999
2026-01-28 13:53:22.45	292.32	17.66	-45.2	-56.1	3.9	7.42e-01	0	42	104	259522560	62	12334
2026-01-28 13:53:23.46	292.59	17.63	-45.2	-56.0	3.8	7.43e-01	0	42	104	259522560	62	12198
2026-01-28 13:53:24.47	292.85	17.60	-46.5	-57.3	3.8	7.43e-01	0	42	104	259522560	63	13382
2026-01-28 13:53:25.48	293.11	17.57	-46.1	-57.0	3.8	7.46e-01	0	42	104	259522560	64	12173
2026-01-28 13:53:26.49	293.38	17.54	-49.1	-60.4	3.8	7.44e-01	0	42	104	259522560	68	14265
2026-01-28 13:53:27.50	293.64	17.50	-52.4	-65.1	3.9	7.44e-01	0	43	104	259522560	76	15483
2026-01-28 13:53:28.51	293.90	17.47	-45.8	-56.6	3.9	7.42e-01	0	42	104	259522560	63	12316
2026-01-28 13:53:29.52	294.17	17.44	-46.5	-57.4	3.9	7.42e-01	0	42	104	259522560	65	12093
2026-01-28 13:53:30.53	294.43	17.40	-46.0	-56.8	3.8	7.46e-01	0	42	104	259522560	63	12628
2026-01-28 13:53:31.53	294.68	17.37	-45.8	-56.5	3.8	7.44e-01	0	43	104	259522560	63	12180
2026-01-28 13:53:32.54	294.94	17.34	-46.4	-57.3	3.8	7.44e-01	0	42	104	259522560	63	13404
2026-01-28 13:53:33.55	295.20	17.30	-45.3	-56.1	3.8	7.46e-01	0	42	104	259522560	62	12371
2026-01-28 13:53:34.56	295.46	17.26	-48.9	-60.4	3.8	7.45e-01	0	42	104	259522560	68	14328
2026-01-28 13:53:35.57	295.72	17.23	-49.3	-60.7	3.9	7.43e-01	0	42	104	259522560	70	13110
2026-01-28 13:53:36.58	295.98	17.19	-45.4	-56.2	3.8	7.44e-01	0	42	104	259522560	62	12377
2026-01-28 13:53:37.59	296.24	17.15	-45.5	-56.3	3.9	7.44e-01	0	42	104	259522560	63	11922
2026-01-28 13:53:38.60	296.49	17.12	-45.4	-56.2	3.8	7.42e-01	0	43	104	259522560	62	12497
2026-01-28 13:53:39.61	296.75	17.08	-45.2	-56.0	3.8	7.42e-01	0	43	104	259522560	62	12233
2026-01-28 13:53:40.62	297.00	17.04	-45.7	-56.4	3.8	7.43e-01	0	42	104	259522560	62	12794
2026-01-28 13:53:41.63	297.26	17.00	-45.6	-56.4	3.8	7.46e-01	0	42	104	259522560	63	11986
2026-01-28 13:53:42.64	297.51	16.96	-52.1	-64.8	3.8	7.43e-01	0	42	104	259522560	74	16697
2026-01-28 13:53:43.65	297.76	16.92	-50.1	-61.9	3.9	7.46e-01	0	42	104	259522560	72	13519
2026-01-28 13:53:44.66	298.01	16.88	-46.0	-56.7	3.8	7.45e-01	0	42	104	259522560	63	12438
2026-01-28 13:53:45.66	298.26	16.84	-46.0	-56.9	3.8	7.47e-01	0	42	104	259522560	64	12011
2026-01-28 13:53:46.67	298.51	16.80	-45.7	-56.5	3.8	7.43e-01	0	43	104	259522560	63	12167
2026-01-28 13:53:47.68	298.76	16.76	-45.5	-56.3	3.8	7.45e-01	0	42	104	259522560	63	11887
2026-01-28 13:53:48.68	299.01	16.72	-48.7	-60.0	3.8	7.45e-01	0	42	104	259522560	67	14389
2026-01-28 13:53:49.69	299.26	16.68	-45.2	-56.1	3.8	7.47e-01	0	43	104	259522560	62	12284
2026-01-28 13:53:50.70	299.51	16.63	-54.0	-69.0	3.8	7.46e-01	0	42	104	259522560	78	21563
2026-01-28 13:53:51.71	299.75	16.59	-49.0	-60.4	3.8	7.41e-01	0	43	104	259522560	70	12776
2026-01-28 13:53:52.72	300.00	16.55	-46.7	-57.6	3.8	7.48e-01	0	42	104	259522560	63	13752
2026-01-28 13:53:53.73	300.25	16.50	-45.9	-56.8	3.8	7.42e-01	0	43	104	259522560	63	12590
2026-01-28 13:53:54.74	300.49	16.46	-45.8	-56.7	3.8	7.47e-01	0	42	104	259522560	63	12409
2026-01-28 13:53:55.74	300.73	16.41	-45.7	-56.4	3.8	7.44e-01	0	42	104	259522560	63	12011
2026-01-28 13:53:56.75	300.98	16.37	-47.3	-58.7	3.8	7.43e-01	0	42	104	259522560	65	13938
2026-01-28 13:53:57.76	301.22	16.32	-45.4	-56.3	3.8	7.45e-01	0	43	104	259522560	62	12551
2026-01-28 13:53:58.77	301.46	16.28	-54.5	-71.0	3.7	7.48e-01	0	42	104	259522560	79	25844
2026-01-28 13:53:59.78	301.70	16.23	-48.1	-59.3	3.8	7.47e-01	0	42	104	259522560	68	12521
2026-01-28 13:54:00.79	301.94	16.18	-47.7	-58.6	3.8	7.48e-01	0	42	104	259522560	65	13837
2026-01-28 13:54:01.80	302.18	16.14	-45.8	-56.6	3.8	7.48e-01	0	43	104	259522560	63	12371
2026-01-28 13:54:02.81	302.42	16.09	-45.6	-56.4	3.8	7.44e-01	0	42	104	259522560	63	12064
2026-01-28 13:54:03.81	302.65	16.04	-45.3	-56.1	3.8	7.45e-01	0	42	104	259522560	62	12258
2026-01-28 13:54:04.82	302.89	16.00	-47.4	-58.4	3.8	7.45e-01	0	43	104	259522560	65	13558
2026-01-28 13:54:05.83	303.13	15.95	-45.6	-56.4	3.8	7.44e-01	0	42	104	259522560	62	12785
2026-01-28 13:54:06.84	303.36	15.90	-54.5	-71.2	3.7	7.48e-01	0	42	104	259522560	79	26274
2026-01-28 13:54:07.85	303.60	15.85	-47.6	-58.7	3.8	7.44e-01	0	42	104	259522560	67	12508
2026-01-28 13:54:08.86	303.83	15.80	-47.9	-59.2	3.8	7.43e-01	0	42	104	259522560	66	13975
2026-01-28 13:54:09.87	304.06	15.75	-45.3	-56.2	3.8	7.45e-01	0	43	104	259522560	62	12420
2026-01-28 13:54:10.87	304.29	15.70	-45.2	-56.0	3.8	7.43e-01	0	43	104	259522560	62	12215
2026-01-28 13:54:11.88	304.53	15.65	-45.1	-55.7	3.8	7.44e-01	0	43	104	259522560	62	11813
2026-01-28 13:54:12.89	304.76	15.60	-48.2	-59.4	3.8	7.46e-01	0	43	104	259522560	66	14293
2026-01-28 13:54:13.90	304.99	15.55	-46.1	-57.0	3.8	7.43e-01	0	42	104	259522560	62	13571
2026-01-28 13:54:14.91	305.22	15.50	-54.6	-71.9	3.7	7.47e-01	0	43	104	259522560	79	28391
2026-01-28 13:54:15.92	305.44	15.45	-47.0	-57.9	3.9	7.42e-01	0	42	104	259522560	66	12082
2026-01-28 13:54:16.93	305.67	15.40	-49.0	-60.3	3.8	7.44e-01	0	43	104	259522560	68	14131
2026-01-28 13:54:17.94	305.90	15.34	-45.3	-56.1	3.8	7.43e-01	0	42	104	259522560	62	12333
2026-01-28 13:54:18.95	306.12	15.29	-45.3	-56.1	3.8	7.44e-01	0	42	104	259522560	62	12334
2026-01-28 13:54:19.95	306.35	15.24	-45.1	-55.9	3.8	7.46e-01	0	42	104	259522560	62	12028
2026-01-28 13:54:20.96	306.57	15.19	-48.7	-60.2	3.8	7.41e-01	0	42	104	259522560	68	13972
2026-01-28 13:54:21.97	306.79	15.14	-46.4	-57.4	3.9	7.44e-01	0	43	104	259522560	63	13440
2026-01-28 13:54:22.98	307.02	15.08	-54.6	-72.0	3.8	7.43e-01	0	43	104	259522560	79	28929
2026-01-28 13:54:23.99	307.24	15.03	-46.6	-57.4	3.8	7.45e-01	0	43	104	259522560	65	12064
2026-01-28 13:54:24.99	307.46	14.98	-49.6	-61.2	3.8	7.49e-01	0	43	104	259522560	69	14721
2026-01-28 13:54:26.00	307.68	14.92	-45.3	-56.2	3.8	7.42e-01	0	43	104	259522560	62	12409
2026-01-28 13:54:27.01	307.89	14.87	-45.1	-56.1	3.8	7.44e-01	0	43	104	259522560	62	12244
2026-01-28 13:54:28.02	308.11	14.81	-45.0	-55.9	3.8	7.43e-01	0	43	104	259522560	62	12003
2026-01-28 13:54:29.03	308.33	14.76	-46.7	-57.7	3.8	7.44e-01	0	42	104	259522560	64	13118
2026-01-28 13:54:30.03	308.54	14.70	-46.6	-57.5	3.8	7.44e-01	0	43	104	259522560	63	13586
2026-01-28 13:54:31.04	308.76	14.65	-54.6	-72.1	3.8	7.43e-01	0	42	104	259522560	79	29297
2026-01-28 13:54:32.05	308.97	14.59	-46.3	-57.3	3.8	7.42e-01	0	42	104	259522560	64	12532
2026-01-28 13:54:33.06	309.19	14.54	-49.9	-61.7	3.8	7.48e-01	0	43	104	259522560	70	14846
2026-01-28 13:54:34.07	309.40	14.48	-45.3	-56.1	3.8	7.43e-01	0	42	104	259522560	62	12267
2026-01-28 13:54:35.07	309.61	14.43	-45.1	-55.8	3.8	7.45e-01	0	43	104	259522560	62	11906
2026-01-28 13:54:36.08	309.82	14.37	-44.9	-55.6	3.8	7.43e-01	0	42	104	259522560	61	12356
2026-01-28 13:54:37.09	310.03	14.31	-48.7	-60.1	3.9	7.42e-01	0	43	104	259522560	68	13791
2026-01-28 13:54:38.10	310.24	14.26	-47.7	-58.8	3.8	7.42e-01	0	43	104	259522560	67	12640
2026-01-28 13:54:39.11	310.45	14.20	-50.7	-62.9	3.8	7.45e-01	0	42	104	259522560	72	15185
2026-01-28 13:54:40.11	310.66	14.14	-54.4	-71.6	3.8	7.45e-01	0	42	104	259522560	79	27488
2026-01-28 13:54:41.12	310.87	14.09	-46.6	-57.6	3.9	7.42e-01	0	42	104	259522560	64	13037
2026-01-28 13:54:42.13	311.07	14.03	-45.2	-56.1	3.8	7.44e-01	0	42	104	259522560	62	12276
2026-01-28 13:54:43.14	311.28	13.97	-44.5	-55.3	3.8	7.42e-01	0	42	104	259522560	61	11896
2026-01-28 13:54:44.15	311.48	13.92	-45.0	-55.8	3.8	7.45e-01	0	42	104	259522560	61	12659
2026-01-28 13:54:45.15	311.69	13.86	-44.8	-55.6	3.8	7.42e-01	0	42	104	259522560	61	12337
2026-01-28 13:54:46.16	311.89	13.80	-46.4	-57.4	3.8	7.43e-01	0	43	104	259522560	64	12752
2026-01-28 13:54:47.17	312.09	13.74	-54.0	-70.1	3.9	7.41e-01	0	42	104	259522560	79	23196
2026-01-28 13:54:48.18	312.29	13.68	-45.4	-56.1	3.9	7.44e-01	0	43	104	259522560	62	12317
2026-01-28 13:54:49.19	312.49	13.63	-49.8	-61.7	3.8	7.44e-01	0	42	104	259522560	71	13909
2026-01-28 13:54:50.20	312.69	13.57	-45.4	-56.2	3.8	7.46e-01	0	42	104	259522560	62	12438
2026-01-28 13:54:51.21	312.89	13.51	-45.1	-55.9	3.8	7.43e-01	0	43	104	259522560	62	12070
2026-01-28 13:54:52.22	313.09	13.45	-44.9	-55.7	3.8	7.46e-01	0	42	104	259522560	61	12438
2026-01-28 13:54:53.23	313.29	13.39	-46.0	-56.9	3.9	7.44e-01	0	42	104	259522560	63	12793
2026-01-28 13:54:54.23	313.48	13.33	-45.9	-56.8	3.9	7.44e-01	0	42	104	259522560	63	12613
2026-01-28 13:54:55.24	313.68	13.27	-53.9	-70.0	3.9	7.44e-01	0	43	104	259522560	79	22954
2026-01-28 13:54:56.25	313.87	13.21	-45.3	-56.1	3.9	7.46e-01	0	42	104	259522560	62	12309
2026-01-28 13:54:57.26	314.07	13.15	-49.6	-61.3	3.8	7.42e-01	0	42	104	259522560	71	13389
2026-01-28 13:54:58.27	314.26	13.09	-45.1	-55.9	3.8	7.42e-01	0	42	104	259522560	62	11990
2026-01-28 13:54:59.28	314.46	13.03	-44.9	-55.7	3.8	7.45e-01	0	43	104	259522560	61	12492
2026-01-28 13:55:00.29	314.65	12.97	-45.1	-55.9	3.8	7.47e-01	0	42	104	259522560	61	12670
2026-01-28 13:55:01.29	314.84	12.92	-46.8	-57.8	3.8	7.44e-01	0	43	104	259522560	65	12549
2026-01-28 13:55:02.30	315.03	12.86	-45.6	-56.4	3.9	7.42e-01	0	42	104	259522560	63	12088
2026-01-28 13:55:03.31	315.22	12.80	-52.6	-66.4	4.0	7.40e-01	0	42	104	259522560	77	16967
2026-01-28 13:55:04.32	315.40	12.73	-45.1	-55.8	3.8	7.46e-01	0	43	104	259522560	62	11939
2026-01-28 13:55:05.32	315.59	12.68	-48.6	-60.0	3.8	7.44e-01	0	43	104	259522560	69	12820
2026-01-28 13:55:06.33	315.78	12.61	-45.1	-55.8	3.8	7.43e-01	0	42	104	259522560	62	11937
2026-01-28 13:55:07.34	315.96	12.55	-45.1	-55.9	3.8	7.45e-01	0	43	104	259522560	62	11988
2026-01-28 13:55:08.35	316.15	12.49	-45.3	-56.1	3.9	7.43e-01	0	42	104	259522560	62	12310
2026-01-28 13:55:09.36	316.33	12.43	-47.7	-59.0	3.8	7.41e-01	0	42	104	259522560	67	12893
2026-01-28 13:55:10.36	316.51	12.37	-46.5	-57.6	3.8	7.45e-01	0	42	104	259522560	65	12295
2026-01-28 13:55:11.37	316.70	12.31	-51.6	-64.3	3.9	7.43e-01	0	43	104	259522560	73	16794
2026-01-28 13:55:12.38	316.88	12.25	-48.0	-59.3	3.9	7.43e-01	0	42	104	259522560	68	12606
2026-01-28 13:55:13.39	317.06	12.19	-46.2	-57.1	3.9	7.44e-01	0	42	104	259522560	64	12289
2026-01-28 13:55:14.40	317.24	12.13	-45.7	-56.5	3.8	7.39e-01	0	42	104	259522560	63	12161
2026-01-28 13:55:15.41	317.42	12.07	-45.6	-56.5	3.8	7.43e-01	0	42	104	259522560	63	12102
2026-01-28 13:55:16.41	317.60	12.01	-45.8	-56.7	3.8	7.45e-01	0	42	104	259522560	63	12455
2026-01-28 13:55:17.42	317.78	11.95	-45.4	-56.2	3.9	7.47e-01	0	43	104	259522560	62	12438
2026-01-28 13:55:18.43	317.95	11.88	-46.1	-57.0	3.8	7.43e-01	0	42	104	259522560	63	12871
2026-01-28 13:55:19.44	318.13	11.82	-50.1	-62.1	3.9	7.41e-01	0	42	104	259522560	72	13797
2026-01-28 13:55:20.45	318.31	11.76	-45.4	-56.1	3.9	7.44e-01	0	43	104	259522560	62	12283
2026-01-28 13:55:21.45	318.48	11.70	-47.6	-58.8	3.9	7.45e-01	0	43	104	259522560	67	12645
2026-01-28 13:55:22.46	318.65	11.64	-45.2	-56.0	3.8	7.43e-01	0	42	104	259522560	62	12212
2026-01-28 13:55:23.47	318.83	11.58	-45.1	-55.9	3.8	7.41e-01	0	42	104	259522560	62	12084
2026-01-28 13:55:24.47	319.00	11.52	-46.2	-57.2	3.8	7.46e-01	0	42	104	259522560	62	13887
2026-01-28 13:55:25.48	319.17	11.45	-45.5	-56.4	3.9	7.46e-01	0	43	104	259522560	63	12045
2026-01-28 13:55:26.49	319.34	11.39	-48.1	-59.4	3.8	7.47e-01	0	42	104	259522560	66	14259
2026-01-28 13:55:27.50	319.51	11.33	-48.1	-59.5	3.9	7.42e-01	0	42	104	259522560	68	12858
2026-01-28 13:55:28.51	319.68	11.27	-46.4	-57.5	3.8	7.45e-01	0	43	104	259522560	63	13622
2026-01-28 13:55:29.51	319.85	11.21	-46.4	-57.2	3.8	7.41e-01	0	42	104	259522560	64	12410
2026-01-28 13:55:30.52	320.02	11.15	-45.3	-56.2	3.9	7.45e-01	0	42	104	259522560	62	12426
2026-01-28 13:55:31.53	320.19	11.08	-45.2	-56.2	3.8	7.42e-01	0	43	104	259522560	62	12378
2026-01-28 13:55:32.54	320.35	11.02	-46.2	-57.2	3.8	7.43e-01	0	43	104	259522560	62	13923
2026-01-28 13:55:33.55	320.52	10.96	-45.5	-56.4	3.8	7.46e-01	0	42	104	259522560	63	11976
2026-01-28 13:55:34.55	320.68	10.90	-48.1	-59.4	3.8	7.47e-01	0	42	104	259522560	66	14226
2026-01-28 13:55:35.56	320.85	10.84	-48.0	-59.4	3.9	7.42e-01	0	42	104	259522560	68	12737
2026-01-28 13:55:36.57	321.01	10.77	-47.6	-58.7	3.8	7.42e-01	0	43	104	259522560	65	14018
2026-01-28 13:55:37.58	321.18	10.71	-45.8	-56.7	3.9	7.48e-01	0	43	104	259522560	63	12420
2026-01-28 13:55:38.58	321.34	10.65	-45.3	-56.1	3.8	7.44e-01	0	42	104	259522560	62	12366
2026-01-28 13:55:39.59	321.50	10.59	-45.2	-56.1	3.8	7.43e-01	0	42	104	259522560	62	12300
2026-01-28 13:55:40.60	321.66	10.53	-47.1	-58.1	3.8	7.45e-01	0	43	104	259522560	64	13882
2026-01-28 13:55:41.61	321.82	10.46	-46.0	-56.9	3.8	7.41e-01	0	43	104	259522560	63	12714
2026-01-28 13:55:42.62	321.98	10.40	-50.8	-63.0	3.8	7.48e-01	0	43	104	259522560	71	16255
2026-01-28 13:55:43.63	322.14	10.34	-47.0	-58.2	3.9	7.42e-01	0	42	104	259522560	66	12403
2026-01-28 13:55:44.63	322.29	10.28	-47.7	-58.8	3.9	7.46e-01	0	43	104	259522560	65	14194
2026-01-28 13:55:45.64	322.45	10.22	-46.0	-56.8	3.8	7.45e-01	0	42	104	259522560	63	12614
2026-01-28 13:55:46.65	322.61	10.15	-45.4	-56.3	3.8	7.43e-01	0	42	104	259522560	62	12577
2026-01-28 13:55:47.66	322.77	10.09	-45.3	-56.2	3.8	7.42e-01	0	43	104	259522560	62	12434
2026-01-28 13:55:48.67	322.92	10.03	-48.6	-60.1	3.8	7.43e-01	0	43	104	259522560	67	14583
2026-01-28 13:55:49.68	323.08	9.97	-47.8	-59.1	3.9	7.43e-01	0	43	104	259522560	67	13053
2026-01-28 13:55:50.69	323.23	9.91	-49.7	-61.5	3.8	7.48e-01	0	43	104	259522560	69	15269
2026-01-28 13:55:51.69	323.38	9.84	-53.6	-69.3	3.8	7.48e-01	0	42	104	259522560	77	23758
2026-01-28 13:55:52.70	323.53	9.78	-45.7	-56.4	3.9	7.43e-01	0	43	104	259522560	62	12723
2026-01-28 13:55:53.71	323.69	9.72	-45.4	-56.2	3.8	7.49e-01	0	43	104	259522560	62	12401
2026-01-28 13:55:54.72	323.84	9.66	-45.4	-56.2	3.8	7.45e-01	0	43	104	259522560	62	12500
2026-01-28 13:55:55.73	323.99	9.60	-45.4	-56.2	3.8	7.43e-01	0	43	104	259522560	62	12500
2026-01-28 13:55:56.74	324.14	9.53	-46.5	-57.6	3.8	7.47e-01	0	43	104	259522560	63	13732
2026-01-28 13:55:57.75	324.29	9.47	-46.5	-57.6	3.8	7.42e-01	0	43	104	259522560	63	13749
2026-01-28 13:55:58.75	324.44	9.41	-52.8	-67.0	3.8	7.46e-01	0	43	104	259522560	75	20530
2026-01-28 13:55:59.76	324.58	9.35	-46.5	-57.6	3.8	7.44e-01	0	43	104	259522560	65	12314
2026-01-28 13:56:00.76	324.73	9.29	-49.2	-60.9	3.8	7.49e-01	0	43	104	259522560	68	15170
2026-01-28 13:56:01.77	324.88	9.22	-45.7	-56.7	3.8	7.45e-01	0	43	104	259522560	63	12505
2026-01-28 13:56:02.77	325.02	9.16	-45.7	-56.7	3.8	7.42e-01	0	42	104	259522560	63	12469
2026-01-28 13:56:03.79	325.17	9.10	-45.6	-56.6	3.8	7.45e-01	0	42	104	259522560	63	12259
2026-01-28 13:56:04.79	325.31	9.04	-48.5	-60.0	3.8	7.42e-01	0	42	104	259522560	67	14479
2026-01-28 13:56:05.80	325.45	8.98	-47.2	-58.4	3.9	7.45e-01	0	42	104	259522560	64	14210
2026-01-28 13:56:06.81	325.60	8.92	-53.7	-70.0	3.8	7.47e-01	0	43	104	259522560	77	25728
2026-01-28 13:56:07.82	325.74	8.85	-46.4	-57.3	3.8	7.46e-01	0	43	104	259522560	64	12584
2026-01-28 13:56:08.83	325.88	8.79	-50.2	-62.2	3.8	7.45e-01	0	43	104	259522560	70	15737
2026-01-28 13:56:09.84	326.03	8.73	-45.7	-56.6	3.9	7.45e-01	0	43	104	259522560	63	12282
2026-01-28 13:56:10.85	326.17	8.67	-45.7	-56.5	3.8	7.44e-01	0	42	104	259522560	63	12142
2026-01-28 13:56:11.85	326.31	8.61	-45.6	-56.4	3.8	7.44e-01	0	42	104	259522560	63	12064
2026-01-28 13:56:12.86	326.44	8.55	-47.9	-59.2	3.8	7.44e-01	0	42	104	259522560	66	13907
2026-01-28 13:56:13.87	326.58	8.48	-47.5	-58.7	3.8	7.47e-01	0	42	104	259522560	65	13958
2026-01-28 13:56:14.88	326.72	8.42	-53.9	-71.3	3.8	7.45e-01	0	43	104	259522560	78	28215
2026-01-28 13:56:15.89	326.86	8.36	-46.3	-57.3	3.8	7.45e-01	0	43	104	259522560	64	12639
2026-01-28 13:56:16.89	327.00	8.30	-50.8	-63.3	3.8	7.38e-01	0	42	104	259522560	72	15877
2026-01-28 13:56:17.90	327.13	8.24	-45.8	-56.8	3.8	7.41e-01	0	42	104	259522560	63	12549
2026-01-28 13:56:18.91	327.27	8.18	-45.8	-56.7	3.8	7.45e-01	0	42	104	259522560	63	12475
2026-01-28 13:56:19.91	327.40	8.12	-45.6	-56.5	3.8	7.45e-01	0	42	104	259522560	63	12182
2026-01-28 13:56:20.92	327.54	8.05	-49.6	-61.5	3.8	7.44e-01	0	42	104	259522560	69	15300
2026-01-28 13:56:21.93	327.67	7.99	-47.9	-59.2	3.8	7.47e-01	0	42	104	259522560	67	13203
2026-01-28 13:56:22.94	327.81	7.93	-53.9	-71.2	3.8	7.45e-01	0	42	104	259522560	78	27906
2026-01-28 13:56:23.94	327.94	7.87	-46.5	-57.5	3.8	7.48e-01	0	43	104	259522560	64	12892
2026-01-28 13:56:24.95	328.07	7.81	-50.9	-63.5	3.8	7.47e-01	0	43	104	259522560	72	16250
2026-01-28 13:56:25.96	328.20	7.75	-46.0	-57.0	3.8	7.41e-01	0	43	104	259522560	63	12817
2026-01-28 13:56:26.96	328.33	7.69	-46.0	-56.9	3.8	7.45e-01	0	43	104	259522560	63	12776
2026-01-28 13:56:27.97	328.46	7.63	-46.0	-56.9	3.8	7.43e-01	0	43	104	259522560	63	12809
2026-01-28 13:56:28.98	328.59	7.57	-47.8	-59.2	3.8	7.48e-01	0	42	104	259522560	66	13904
2026-01-28 13:56:29.99	328.72	7.50	-48.0	-59.3	3.9	7.43e-01	0	42	104	259522560	66	14142
2026-01-28 13:56:30.99	328.85	7.44	-53.8	-71.5	3.8	7.44e-01	0	42	104	259522560	78	28801
2026-01-28 13:56:32.00	328.98	7.38	-46.6	-57.7	3.8	7.47e-01	0	43	104	259522560	65	12491
2026-01-28 13:56:33.01	329.11	7.32	-51.1	-63.9	3.8	7.47e-01	0	43	104	259522560	72	17002
2026-01-28 13:56:34.02	329.24	7.26	-45.7	-47.8	5.3	7.05e-01	0	43	104	259522560	63	4471
2026-01-28 13:56:35.03	329.36	7.20	-45.9	-47.3	23.0	6.02e-01	0	43	0	260046848	63	4234
2026-01-28 13:56:36.03	329.49	7.14	-45.7	-47.2	23.6	6.03e-01	0	42	0	262144000	63	4168
2026-01-28 13:56:37.04	329.61	7.08	-45.5	-46.9	23.9	6.02e-01	0	43	0	264241152	62	4269
2026-01-28 13:56:38.05	329.74	7.02	-45.5	-46.9	23.8	6.00e-01	0	43	0	265814016	62	4282
2026-01-28 13:56:39.06	329.86	6.96	-45.5	-46.9	23.8	6.03e-01	0	43	0	267911168	62	4290
2026-01-28 13:56:40.07	329.99	6.90	-45.6	-47.0	23.8	6.01e-01	0	42	0	270008320	62	4319
2026-01-28 13:56:41.07	330.11	6.84	-45.5	-46.9	23.8	6.06e-01	0	42	0	271581184	62	4282
2026-01-28 13:56:42.08	330.23	6.78	-45.6	-47.0	23.6	6.01e-01	0	43	0	273678336	62	4323
2026-01-28 13:56:43.09	330.36	6.72	-45.7	-47.2	23.6	6.04e-01	0	42	0	275251200	62	4403
2026-01-28 13:56:44.10	330.48	6.66	-45.8	-47.3	23.5	6.02e-01	0	42	0	277348352	62	4446
2026-01-28 13:56:45.11	330.60	6.60	-45.8	-47.3	23.4	6.05e-01	0	42	0	279445504	62	4454
2026-01-28 13:56:46.12	330.72	6.54	-45.8	-47.3	23.4	6.02e-01	0	42	0	281018368	62	4474
2026-01-28 13:56:47.13	330.84	6.48	-45.7	-47.1	23.6	5.99e-01	0	42	0	283115520	62	4381
2026-01-28 13:56:48.14	330.96	6.42	-45.7	-47.2	23.5	6.03e-01	0	43	0	284688384	62	4431
2026-01-28 13:56:49.14	331.08	6.36	-45.8	-47.3	23.3	6.02e-01	0	42	0	286785536	62	4467
2026-01-28 13:56:50.15	331.20	6.30	-45.7	-47.2	23.4	6.03e-01	0	42	0	288358400	62	4420
2026-01-28 13:56:51.16	331.32	6.24	-45.8	-47.3	23.4	6.02e-01	0	43	0	290455552	62	4477
2026-01-28 13:56:52.17	331.43	6.18	-45.8	-47.2	23.4	6.03e-01	0	43	0	292552704	62	4434
2026-01-28 13:56:53.18	331.55	6.12	-45.8	-47.4	23.3	6.02e-01	0	43	0	294649856	62	4496
2026-01-28 13:56:54.19	331.67	6.06	-45.8	-47.3	23.4	6.08e-01	0	43	0	296222720	62	4465
2026-01-28 13:56:55.20	331.78	6.00	-46.0	-47.5	23.2	6.03e-01	0	42	0	298319872	62	4559
2026-01-28 13:56:56.21	331.90	5.94	-46.0	-47.5	23.1	6.05e-01	0	42	0	299892736	62	4591
2026-01-28 13:56:57.22	332.02	5.88	-46.0	-47.6	23.0	6.02e-01	0	43	0	301989888	62	4624
2026-01-28 13:56:58.23	332.13	5.82	-46.1	-47.6	23.0	6.02e-01	0	43	0	303562752	62	4635
2026-01-28 13:56:59.23	332.24	5.76	-46.1	-47.6	22.9	6.02e-01	0	43	0	305659904	62	4626
2026-01-28 13:57:00.24	332.36	5.70	-45.9	-47.5	23.1	6.03e-01	0	43	0	307757056	62	4552
2026-01-28 13:57:01.25	332.47	5.64	-45.8	-47.3	23.1	6.02e-01	0	42	0	309329920	62	4479
2026-01-28 13:57:02.26	332.59	5.58	-45.9	-47.4	23.1	6.02e-01	0	42	0	311427072	62	4536
2026-01-28 13:57:03.27	332.70	5.52	-46.2	-47.8	22.7	6.03e-01	0	42	0	313524224	63	4489
2026-01-28 13:57:04.27	332.81	5.47	-46.1	-47.7	23.0	6.04e-01	0	42	0	315097088	63	4394
2026-01-28 13:57:05.28	332.92	5.41	-45.9	-47.4	23.1	6.05e-01	0	42	0	317194240	63	4285
2026-01-28 13:57:06.28	333.03	5.35	-46.0	-47.5	23.0	6.02e-01	0	42	0	318767104	63	4330
2026-01-28 13:57:07.29	333.14	5.29	-46.0	-47.5	23.1	6.05e-01	0	43	0	320864256	63	4315
2026-01-28 13:57:08.30	333.25	5.23	-46.0	-47.5	22.9	6.02e-01	0	42	0	322961408	63	4335
2026-01-28 13:57:09.30	333.36	5.17	-46.0	-47.6	22.9	6.04e-01	0	42	0	324534272	63	4373
2026-01-28 13:57:10.31	333.47	5.11	-46.0	-47.6	22.8	6.04e-01	0	42	0	326631424	63	4378
2026-01-28 13:57:11.31	333.58	5.06	-46.3	-48.0	22.5	6.03e-01	0	42	0	328204288	63	4568
2026-01-28 13:57:12.32	333.69	5.00	-46.4	-48.1	22.4	6.02e-01	0	43	0	330301440	63	4638
2026-01-28 13:57:13.33	333.79	4.94	-53.9	-71.4	3.8	7.46e-01	0	43	104	331350016	78	28484
2026-01-28 13:57:14.33	333.90	4.88	-54.3	-71.6	3.8	7.46e-01	0	43	104	331350016	79	27517
2026-01-28 13:57:15.34	334.01	4.82	-54.5	-72.0	3.8	7.45e-01	0	42	104	331350016	79	28800
2026-01-28 13:57:16.35	334.11	4.77	-54.6	-72.2	3.8	7.44e-01	0	42	104	331350016	79	29571
2026-01-28 13:57:17.36	334.22	4.71	-54.7	-72.4	3.8	7.45e-01	0	42	104	331350016	80	28641
2026-01-28 13:57:18.36	334.32	4.65	-54.7	-71.7	3.8	7.42e-01	0	42	104	331350016	80	26344
2026-01-28 13:57:19.37	334.43	4.59	-54.8	-72.7	3.8	7.48e-01	0	43	104	331350016	80	29445
2026-01-28 13:57:20.38	334.53	4.53	-54.9	-72.6	3.8	7.44e-01	0	43	104	331350016	80	29164
2026-01-28 13:57:21.39	334.64	4.48	-54.8	-72.7	3.8	7.45e-01	0	42	104	331350016	80	29421
2026-01-28 13:57:22.39	334.74	4.42	-54.8	-72.7	3.8	7.44e-01	0	43	104	331350016	80	29423
2026-01-28 13:57:23.40	334.84	4.36	-54.8	-72.6	3.8	7.48e-01	0	43	104	331350016	80	29198
2026-01-28 13:57:24.41	334.95	4.30	-54.7	-72.5	3.8	7.45e-01	0	43	104	331350016	80	28885
2026-01-28 13:57:25.42	335.05	4.24	-54.6	-72.5	3.8	7.45e-01	0	43	104	331350016	80	28739
2026-01-28 13:57:26.43	335.15	4.19	-54.7	-72.5	3.8	7.48e-01	0	43	104	331350016	80	28843
2026-01-28 13:57:27.44	335.25	4.13	-54.7	-72.6	3.8	7.47e-01	0	42	104	331350016	80	29027
2026-01-28 13:57:28.45	335.36	4.07	-54.7	-72.6	3.8	7.45e-01	0	43	104	331350016	80	29016
2026-01-28 13:57:29.45	335.46	4.02	-54.7	-72.6	3.8	7.48e-01	0	43	104	331350016	80	29066
2026-01-28 13:57:30.46	335.56	3.96	-54.8	-72.6	3.8	7.40e-01	0	43	104	331350016	80	29020
2026-01-28 13:57:31.47	335.66	3.90	-54.8	-72.6	3.8	7.43e-01	0	43	104	331350016	80	29297
2026-01-28 13:57:32.48	335.76	3.84	-54.8	-72.6	3.8	7.46e-01	0	43	104	331350016	80	29291
2026-01-28 13:57:33.49	335.86	3.79	-54.8	-72.6	3.8	7.46e-01	0	43	104	331350016	80	29346
2026-01-28 13:57:34.50	335.96	3.73	-54.8	-72.6	3.8	7.46e-01	0	43	104	331350016	80	29195
2026-01-28 13:57:35.51	336.05	3.67	-54.8	-72.6	3.8	7.44e-01	0	43	104	331350016	80	29015
2026-01-28 13:57:36.51	336.15	3.62	-54.8	-72.5	3.8	7.47e-01	0	43	104	331350016	80	28999
2026-01-28 13:57:37.52	336.25	3.56	-54.7	-72.5	3.8	7.46e-01	0	43	104	331350016	80	28978
2026-01-28 13:57:38.53	336.35	3.50	-54.7	-72.5	3.8	7.44e-01	0	43	104	331350016	80	28843
2026-01-28 13:57:39.53	336.44	3.45	-54.7	-72.5	3.8	7.47e-01	0	43	104	331350016	80	28883
2026-01-28 13:57:40.53	336.54	3.39	-54.7	-72.5	3.8	7.45e-01	0	43	104	331350016	80	28936
2026-01-28 13:57:41.54	336.63	3.33	-54.7	-72.5	3.8	7.48e-01	0	43	104	331350016	80	28892
2026-01-28 13:57:42.55	336.73	3.28	-54.7	-72.5	3.8	7.46e-01	0	43	104	331350016	80	28917
2026-01-28 13:57:43.56	336.83	3.22	-54.7	-72.5	3.8	7.43e-01	0	43	104	331350016	80	28887
2026-01-28 13:57:44.57	336.92	3.16	-54.7	-72.5	3.8	7.42e-01	0	43	104	331350016	80	28900
2026-01-28 13:57:45.58	337.02	3.11	-54.7	-72.5	3.8	7.45e-01	0	43	104	331350016	80	28890
2026-01-28 13:57:46.58	337.11	3.05	-54.7	-72.5	3.8	7.45e-01	0	42	104	331350016	80	28886
2026-01-28 13:57:47.59	337.20	3.00	-54.7	-72.5	3.8	7.39e-01	0	43	104	331350016	80	28860
2026-01-28 13:57:48.60	337.30	2.94	-54.7	-72.5	3.8	7.46e-01	0	43	104	331350016	80	28746
2026-01-28 13:57:49.61	337.39	2.88	-54.7	-72.5	3.8	7.48e-01	0	43	104	331350016	80	28866
2026-01-28 13:57:50.62	337.48	2.83	-54.7	-72.5	3.8	7.43e-01	0	43	104	331350016	80	28817
2026-01-28 13:57:51.63	337.58	2.77	-54.7	-72.5	3.8	7.43e-01	0	43	104	331350016	80	28809
2026-01-28 13:57:52.64	337.67	2.72	-54.7	-72.5	3.8	7.42e-01	0	43	104	331350016	80	28811
2026-01-28 13:57:53.65	337.76	2.66	-54.7	-72.5	3.8	7.46e-01	0	43	104	331350016	80	28802
2026-01-28 13:57:54.66	337.85	2.61	-54.7	-72.5	3.8	7.45e-01	0	43	104	331350016	80	28744
2026-01-28 13:57:55.66	337.94	2.55	-54.7	-72.5	3.8	7.47e-01	0	43	104	331350016	80	28750
2026-01-28 13:57:56.67	338.03	2.49	-54.6	-72.5	3.8	7.45e-01	0	43	104	331350016	80	28752
2026-01-28 13:57:57.67	338.12	2.44	-54.6	-72.5	3.8	7.44e-01	0	43	104	331350016	80	28775
2026-01-28 13:57:58.68	338.21	2.38	-54.6	-72.5	3.8	7.45e-01	0	43	104	331350016	80	28729
2026-01-28 13:57:59.69	338.30	2.33	-54.6	-72.5	3.8	7.47e-01	0	42	104	331350016	80	28715
2026-01-28 13:58:00.70	338.39	2.27	-54.6	-72.5	3.8	7.46e-01	0	43	104	331350016	80	28719
2026-01-28 13:58:01.71	338.48	2.22	-54.6	-72.5	3.8	7.47e-01	0	43	104	331350016	80	28700
2026-01-28 13:58:02.72	338.57	2.16	-54.6	-72.5	3.8	7.42e-01	0	43	104	331350016	80	28735
2026-01-28 13:58:03.73	338.66	2.11	-54.6	-72.5	3.8	7.46e-01	0	43	104	331350016	80	28733
2026-01-28 13:58:04.74	338.75	2.05	-54.6	-72.4	3.8	7.42e-01	0	42	104	331350016	80	28677
2026-01-28 13:58:05.75	338.83	2.00	-54.6	-72.4	3.8	7.41e-01	0	43	104	331350016	80	28646
2026-01-28 13:58:06.76	338.92	1.94	-54.6	-72.4	3.8	7.46e-01	0	42	104	331350016	80	28618

#Closed at: 2026-01-28 13:58:07
#Recorded file [331 MB]: D:/lorett/data/31041_260128_164702.dat