passes_logs/2026/01/28/R3.2S_Murmansk/R3.2S_Murmansk__20260128_034801_SUOMI_NPP_rec.log

#Pass ID: 20260128_034801_SUOMI NPP
#Satellite: SUOMI NPP
#Configuration: NPP
#almurnet v.1.7.20251203
#Start time: 2026-01-28 03:48:02

#Version: 2.2.20231116
#Station: R3.2S_Murmansk
#Location: 33.079688 lon 68.888172 lat
#TLE: 1 37849U 11061A   26027.29799992  .00000188  00000+0  11027-3 0  9993
#TLE: 2 37849  98.7822 329.2414 0002113  42.5791 317.5548 14.19530708738457

#Time	Az	El	Level	Level2	SNR	BER	BlckErr	Temp	State	Recorded	gain1	gain2
2026-01-28 03:48:02.30	44.16	2.06	-52.8	-68.6	3.8	1.49e+00	0	41	0	0	76	23051
2026-01-28 03:48:03.29	44.10	2.12	-52.0	-67.0	3.8	1.49e+00	0	41	104	0	76	19309
2026-01-28 03:48:04.30	44.04	2.17	-51.9	-66.9	3.8	1.49e+00	0	41	104	0	75	20113
2026-01-28 03:48:05.31	43.98	2.23	-51.9	-66.9	3.8	1.49e+00	0	41	104	0	75	20126
2026-01-28 03:48:06.32	43.93	2.29	-51.9	-66.9	3.8	1.49e+00	0	41	104	0	75	20134
2026-01-28 03:48:07.33	43.87	2.35	-51.9	-66.8	3.8	1.49e+00	0	41	104	0	75	20050
2026-01-28 03:48:08.34	43.81	2.41	-51.9	-66.8	3.8	1.49e+00	0	41	104	0	75	20041
2026-01-28 03:48:09.35	43.75	2.47	-51.9	-66.8	3.8	1.49e+00	0	41	104	0	75	20031
2026-01-28 03:48:10.35	43.69	2.53	-51.9	-66.9	3.8	1.49e+00	0	41	104	0	75	20109
2026-01-28 03:48:11.36	43.64	2.59	-51.9	-66.8	3.8	1.49e+00	0	41	104	0	75	20049
2026-01-28 03:48:12.37	43.58	2.65	-51.9	-66.8	3.8	1.49e+00	0	41	104	0	75	20023
2026-01-28 03:48:13.38	43.52	2.71	-51.9	-66.8	3.8	1.49e+00	0	41	104	0	75	20024
2026-01-28 03:48:14.39	43.46	2.77	-51.9	-66.8	3.8	1.49e+00	0	41	104	0	75	19976
2026-01-28 03:48:15.39	43.40	2.83	-51.9	-66.8	3.8	1.49e+00	0	41	104	0	75	19996
2026-01-28 03:48:16.40	43.34	2.89	-51.9	-66.8	3.8	1.49e+00	0	41	104	0	75	19915
2026-01-28 03:48:17.41	43.28	2.95	-51.9	-66.8	3.8	1.49e+00	0	41	104	0	75	19881
2026-01-28 03:48:18.42	43.22	3.01	-51.9	-66.7	3.8	1.49e+00	0	41	104	0	75	19841
2026-01-28 03:48:19.43	43.16	3.07	-51.9	-66.8	3.8	1.49e+00	0	41	104	0	75	19863
2026-01-28 03:48:20.44	43.09	3.13	-51.9	-66.7	3.8	1.49e+00	0	41	104	0	75	19821
2026-01-28 03:48:21.45	43.03	3.19	-51.9	-66.8	3.8	1.49e+00	0	41	104	0	75	19903
2026-01-28 03:48:22.45	42.97	3.25	-51.9	-66.8	3.8	1.49e+00	0	41	104	0	75	19965
2026-01-28 03:48:23.46	42.91	3.31	-51.9	-66.8	3.8	1.49e+00	0	41	104	0	75	20015
2026-01-28 03:48:24.47	42.85	3.38	-51.9	-66.8	3.8	1.49e+00	0	42	104	0	75	20011
2026-01-28 03:48:25.48	42.79	3.44	-51.9	-66.8	3.8	1.49e+00	0	41	104	0	75	19926
2026-01-28 03:48:26.49	42.72	3.50	-51.9	-66.8	3.8	1.49e+00	0	42	104	0	75	19869
2026-01-28 03:48:27.50	42.66	3.56	-51.9	-66.8	3.8	1.49e+00	0	42	104	0	75	19860
2026-01-28 03:48:28.51	42.60	3.62	-51.9	-66.8	3.8	1.49e+00	0	42	104	0	75	19882
2026-01-28 03:48:29.52	42.53	3.68	-51.9	-66.8	3.8	1.49e+00	0	42	104	0	75	19988
2026-01-28 03:48:30.53	42.47	3.74	-51.9	-66.7	3.8	1.49e+00	0	41	104	0	75	19712
2026-01-28 03:48:31.53	42.40	3.81	-51.9	-66.4	3.8	1.49e+00	0	42	104	0	75	19099
2026-01-28 03:48:32.54	42.34	3.87	-51.8	-65.8	3.8	1.49e+00	0	42	104	0	75	17769
2026-01-28 03:48:33.54	42.28	3.93	-51.8	-64.9	3.8	1.49e+00	0	42	104	0	75	16045
2026-01-28 03:48:34.55	42.21	3.99	-51.7	-63.8	4.1	1.48e+00	0	42	104	0	75	14088
2026-01-28 03:48:35.56	42.15	4.05	-51.6	-63.1	4.2	1.41e+00	0	42	0	0	75	12973
2026-01-28 03:48:36.57	42.08	4.11	-51.6	-62.5	4.4	1.32e+00	128	42	0	1048576	75	12112
2026-01-28 03:48:37.57	42.01	4.18	-51.6	-62.2	4.5	9.18e-01	0	42	0	2097152	75	11792
2026-01-28 03:48:38.58	41.95	4.24	-51.5	-61.8	4.8	8.73e-01	0	42	0	4194304	75	11179
2026-01-28 03:48:39.59	41.88	4.30	-51.6	-62.1	4.6	8.93e-01	0	42	0	6291456	75	11563
2026-01-28 03:48:40.60	41.81	4.36	-51.6	-62.6	4.4	1.28e+00	127	42	0	8388608	75	12340
2026-01-28 03:48:41.61	41.75	4.43	-51.7	-63.3	4.2	1.33e+00	0	42	0	9437184	75	13406
2026-01-28 03:48:42.61	41.68	4.49	-51.7	-64.5	3.9	1.46e+00	0	42	104	9437184	75	15298
2026-01-28 03:48:43.62	41.61	4.55	-51.8	-65.3	3.8	1.49e+00	0	42	104	9437184	75	16832
2026-01-28 03:48:44.63	41.54	4.62	-51.8	-65.5	3.8	1.49e+00	0	42	104	9437184	75	17229
2026-01-28 03:48:45.64	41.48	4.68	-51.8	-65.4	3.8	1.49e+00	0	42	104	9437184	75	17033
2026-01-28 03:48:46.64	41.41	4.74	-51.8	-64.8	3.8	1.49e+00	0	42	104	9437184	75	15785
2026-01-28 03:48:47.65	41.34	4.81	-51.7	-63.8	4.1	1.45e+00	0	42	0	9437184	75	14051
2026-01-28 03:48:48.66	41.27	4.87	-51.7	-63.3	4.1	1.42e+00	0	42	0	9437184	75	13398
2026-01-28 03:48:49.67	41.20	4.93	-51.6	-63.0	4.3	1.39e+00	0	42	0	9437184	75	12852
2026-01-28 03:48:50.68	41.13	5.00	-51.7	-63.4	4.1	1.37e+00	0	42	0	9437184	75	13492
2026-01-28 03:48:51.68	41.06	5.06	-51.9	-66.8	3.8	1.46e+00	0	42	104	9437184	75	20041
2026-01-28 03:48:52.69	40.99	5.12	-50.2	-55.3	5.4	1.49e+00	0	42	104	9437184	72	6292
2026-01-28 03:48:53.70	40.92	5.19	-51.8	-66.4	3.8	4.47e-01	0	42	104	9437184	74	20142
2026-01-28 03:48:54.71	40.85	5.25	-50.9	-57.3	5.1	1.49e+00	0	42	104	9437184	73	7459
2026-01-28 03:48:55.72	40.77	5.32	-49.3	-53.1	12.8	7.34e-03	0	42	0	9437184	69	5800
2026-01-28 03:48:56.72	40.70	5.38	-49.1	-52.6	13.1	1.91e-03	0	42	0	11534336	70	5201
2026-01-28 03:48:57.73	40.63	5.45	-48.8	-52.0	13.8	1.22e-05	0	42	0	13631488	69	5132
2026-01-28 03:48:58.73	40.56	5.51	-48.9	-52.3	13.6	6.10e-06	0	42	0	15728640	69	5326
2026-01-28 03:48:59.74	40.49	5.57	-48.8	-52.1	13.7	8.30e-06	0	42	0	17825792	69	5212
2026-01-28 03:49:00.75	40.41	5.64	-48.8	-52.1	13.8	7.60e-06	0	42	0	18874368	69	5188
2026-01-28 03:49:01.76	40.34	5.70	-49.1	-52.6	13.3	1.60e-05	0	42	0	20971520	69	5469
2026-01-28 03:49:02.77	40.27	5.77	-48.6	-51.7	14.2	1.60e-05	0	42	0	23068672	69	4946
2026-01-28 03:49:03.77	40.19	5.83	-48.2	-51.1	14.9	0.00e+00	0	42	0	25165824	68	4876
2026-01-28 03:49:04.78	40.12	5.90	-48.3	-51.1	14.8	0.00e+00	0	42	0	27262976	68	4917
2026-01-28 03:49:05.79	40.04	5.96	-48.3	-51.2	14.9	0.00e+00	0	42	0	28311552	68	4940
2026-01-28 03:49:06.80	39.97	6.03	-48.1	-50.8	15.2	0.00e+00	0	42	0	30408704	68	4724
2026-01-28 03:49:07.80	39.89	6.10	-47.9	-50.5	15.4	0.00e+00	0	42	0	32505856	67	4851
2026-01-28 03:49:08.81	39.82	6.16	-47.8	-50.4	15.6	0.00e+00	0	42	0	34603008	67	4783
2026-01-28 03:49:09.82	39.74	6.23	-47.9	-50.6	15.4	0.00e+00	0	42	0	36700160	67	4892
2026-01-28 03:49:10.82	39.66	6.29	-47.9	-50.6	15.5	0.00e+00	0	42	0	37748736	67	4882
2026-01-28 03:49:11.83	39.59	6.36	-47.9	-50.5	15.5	0.00e+00	0	42	0	39845888	67	4866
2026-01-28 03:49:12.84	39.51	6.43	-47.9	-50.5	15.5	0.00e+00	0	42	0	41943040	67	4819
2026-01-28 03:49:13.85	39.43	6.49	-47.9	-50.5	15.5	0.00e+00	0	42	0	44040192	67	4854
2026-01-28 03:49:14.85	39.35	6.56	-48.1	-50.8	15.3	0.00e+00	0	42	0	46137344	67	5009
2026-01-28 03:49:15.86	39.27	6.62	-47.9	-50.5	15.5	0.00e+00	0	42	0	47185920	67	4841
2026-01-28 03:49:16.87	39.19	6.69	-47.8	-50.4	15.6	0.00e+00	0	42	0	49283072	67	4772
2026-01-28 03:49:17.88	39.11	6.76	-47.9	-50.4	15.7	0.00e+00	0	42	0	51380224	67	4790
2026-01-28 03:49:18.89	39.03	6.83	-47.9	-50.4	15.6	0.00e+00	0	42	0	53477376	67	4801
2026-01-28 03:49:19.89	38.96	6.89	-47.6	-50.0	16.1	0.00e+00	0	42	0	55574528	67	4553
2026-01-28 03:49:20.90	38.87	6.96	-47.8	-50.4	15.7	0.00e+00	0	42	0	57671680	67	4765
2026-01-28 03:49:21.91	38.79	7.03	-47.5	-49.9	16.2	0.00e+00	0	42	0	58720256	67	4498
2026-01-28 03:49:22.92	38.71	7.09	-47.5	-49.9	16.2	0.00e+00	0	42	0	60817408	66	4782
2026-01-28 03:49:23.92	38.63	7.16	-47.4	-49.6	16.5	0.00e+00	0	42	0	62914560	66	4640
2026-01-28 03:49:24.93	38.55	7.23	-47.2	-49.3	16.7	0.00e+00	0	42	0	65011712	66	4483
2026-01-28 03:49:25.94	38.47	7.30	-47.1	-49.3	16.8	0.00e+00	0	42	0	66060288	66	4447
2026-01-28 03:49:26.95	38.38	7.36	-46.9	-49.0	17.1	0.00e+00	0	42	0	68157440	65	4548
2026-01-28 03:49:27.95	38.30	7.43	-46.9	-48.9	17.2	0.00e+00	0	42	0	70254592	65	4522
2026-01-28 03:49:28.96	38.22	7.50	-46.8	-48.9	17.2	0.00e+00	0	42	0	72351744	65	4506
2026-01-28 03:49:29.97	38.13	7.57	-46.8	-48.8	17.2	0.00e+00	0	43	0	74448896	65	4482
2026-01-28 03:49:30.98	38.05	7.64	-47.0	-49.1	17.0	0.00e+00	0	42	0	75497472	65	4607
2026-01-28 03:49:31.98	37.96	7.71	-47.0	-49.1	17.0	0.00e+00	0	43	0	77594624	65	4608
2026-01-28 03:49:32.99	37.88	7.77	-47.0	-49.1	17.1	0.00e+00	0	42	0	79691776	65	4603
2026-01-28 03:49:34.00	37.79	7.84	-47.1	-49.3	16.8	0.00e+00	0	42	0	81788928	65	4734
2026-01-28 03:49:35.01	37.71	7.91	-46.9	-49.0	17.1	0.00e+00	0	42	0	83886080	65	4585
2026-01-28 03:49:36.01	37.62	7.98	-47.0	-49.1	17.1	0.00e+00	0	42	0	85983232	65	4640
2026-01-28 03:49:37.02	37.53	8.05	-47.0	-49.0	17.1	0.00e+00	0	43	0	87031808	65	4590
2026-01-28 03:49:38.03	37.45	8.12	-47.0	-49.1	17.0	0.00e+00	0	42	0	89128960	65	4621
2026-01-28 03:49:39.04	37.36	8.19	-47.0	-49.1	17.0	0.00e+00	0	43	0	91226112	65	4624
2026-01-28 03:49:40.05	37.27	8.26	-47.0	-49.1	17.1	0.00e+00	0	43	0	93323264	65	4613
2026-01-28 03:49:41.06	37.18	8.33	-47.1	-49.2	17.0	0.00e+00	0	42	0	94371840	65	4671
2026-01-28 03:49:42.06	37.09	8.40	-47.2	-49.4	16.7	0.00e+00	0	43	0	96468992	65	4806
2026-01-28 03:49:43.07	37.00	8.47	-47.2	-49.3	16.8	0.00e+00	0	43	0	98566144	65	4753
2026-01-28 03:49:44.08	36.91	8.54	-47.1	-49.3	16.9	0.00e+00	0	43	0	100663296	65	4725
2026-01-28 03:49:45.09	36.82	8.61	-47.1	-49.3	17.0	0.00e+00	0	43	0	102760448	65	4721
2026-01-28 03:49:46.09	36.73	8.68	-47.2	-49.4	16.8	0.00e+00	0	43	0	103809024	65	4782
2026-01-28 03:49:47.10	36.64	8.75	-47.2	-49.4	16.9	0.00e+00	0	43	0	105906176	65	4769
2026-01-28 03:49:48.11	36.55	8.82	-47.1	-49.2	17.1	0.00e+00	0	43	0	108003328	65	4659
2026-01-28 03:49:49.12	36.45	8.89	-47.2	-49.4	16.9	0.00e+00	0	42	0	110100480	65	4798
2026-01-28 03:49:50.13	36.36	8.96	-47.2	-49.3	16.9	0.00e+00	0	43	0	112197632	65	4746
2026-01-28 03:49:51.13	36.27	9.03	-47.0	-49.1	17.1	0.00e+00	0	43	0	114294784	65	4605
2026-01-28 03:49:52.13	36.18	9.10	-47.1	-49.2	17.0	0.00e+00	0	43	0	115343360	65	4696
2026-01-28 03:49:53.14	36.08	9.17	-47.1	-49.2	17.1	0.00e+00	0	42	0	117440512	65	4700
2026-01-28 03:49:54.15	35.99	9.24	-47.1	-49.2	17.1	0.00e+00	0	43	0	119537664	65	4663
2026-01-28 03:49:55.15	35.89	9.31	-47.2	-49.3	17.0	0.00e+00	0	43	0	121634816	65	4740
2026-01-28 03:49:56.16	35.80	9.39	-47.1	-49.2	17.0	0.00e+00	0	43	0	122683392	65	4680
2026-01-28 03:49:57.17	35.70	9.46	-47.0	-49.0	17.2	0.00e+00	0	43	0	124780544	65	4593
2026-01-28 03:49:58.18	35.60	9.53	-47.2	-49.4	16.9	0.00e+00	0	43	0	126877696	65	4778
2026-01-28 03:49:59.18	35.51	9.60	-47.2	-49.3	17.1	0.00e+00	0	43	0	128974848	65	4717
2026-01-28 03:50:00.19	35.41	9.67	-47.0	-49.0	17.2	0.00e+00	0	43	0	131072000	65	4586
2026-01-28 03:50:01.20	35.31	9.74	-47.2	-49.3	17.0	0.00e+00	0	43	0	133169152	65	4744
2026-01-28 03:50:02.20	35.21	9.82	-47.0	-49.1	17.2	0.00e+00	0	43	0	134217728	65	4619
2026-01-28 03:50:03.21	35.11	9.89	-47.1	-49.3	17.1	0.00e+00	0	43	0	136314880	65	4709
2026-01-28 03:50:04.21	35.01	9.96	-47.0	-49.1	17.2	0.00e+00	0	42	0	138412032	65	4614
2026-01-28 03:50:05.22	34.91	10.03	-46.9	-48.9	17.4	0.00e+00	0	43	0	140509184	65	4531
2026-01-28 03:50:06.23	34.81	10.11	-47.1	-49.2	17.1	0.00e+00	0	43	0	142606336	65	4659
2026-01-28 03:50:07.24	34.71	10.18	-47.0	-49.1	17.3	0.00e+00	0	42	0	143654912	65	4607
2026-01-28 03:50:08.25	34.61	10.25	-47.0	-49.1	17.3	0.00e+00	0	43	0	145752064	65	4604
2026-01-28 03:50:09.25	34.51	10.33	-47.2	-49.3	17.0	0.00e+00	0	43	0	147849216	65	4741
2026-01-28 03:50:10.26	34.40	10.40	-47.1	-49.2	17.1	0.00e+00	0	43	0	149946368	65	4702
2026-01-28 03:50:11.27	34.30	10.47	-47.2	-49.3	17.1	0.00e+00	0	43	0	150994944	65	4744
2026-01-28 03:50:12.28	34.20	10.55	-47.1	-49.2	17.2	0.00e+00	0	42	0	153092096	65	4666
2026-01-28 03:50:13.28	34.09	10.62	-47.0	-49.1	17.2	0.00e+00	0	42	0	155189248	65	4628
2026-01-28 03:50:14.29	33.99	10.69	-47.0	-49.1	17.3	0.00e+00	0	42	0	157286400	65	4605
2026-01-28 03:50:15.30	33.88	10.77	-46.9	-49.0	17.4	0.00e+00	0	43	0	159383552	65	4564
2026-01-28 03:50:16.30	33.78	10.84	-46.8	-48.8	17.5	0.00e+00	0	43	0	161480704	65	4486
2026-01-28 03:50:17.31	33.67	10.91	-47.1	-49.2	17.2	0.00e+00	0	43	0	162529280	65	4675
2026-01-28 03:50:18.32	33.56	10.99	-47.1	-49.3	17.1	0.00e+00	0	43	0	164626432	65	4711
2026-01-28 03:50:19.33	33.46	11.06	-47.2	-49.3	17.1	0.00e+00	0	43	0	166723584	65	4740
2026-01-28 03:50:20.33	33.35	11.14	-47.2	-49.3	17.1	0.00e+00	0	43	0	168820736	65	4724
2026-01-28 03:50:21.34	33.24	11.21	-47.0	-49.1	17.3	0.00e+00	0	43	0	170917888	65	4628
2026-01-28 03:50:22.35	33.13	11.29	-46.9	-48.9	17.4	0.00e+00	0	43	0	171966464	65	4535
2026-01-28 03:50:23.36	33.02	11.36	-46.9	-48.9	17.5	0.00e+00	0	43	0	174063616	65	4529
2026-01-28 03:50:24.37	32.91	11.44	-46.9	-48.9	17.5	0.00e+00	0	43	0	176160768	65	4498
2026-01-28 03:50:25.37	32.80	11.51	-46.9	-49.0	17.4	0.00e+00	0	43	0	178257920	65	4561
2026-01-28 03:50:26.38	32.69	11.59	-47.1	-49.2	17.3	0.00e+00	0	43	0	179306496	65	4662
2026-01-28 03:50:27.39	32.57	11.66	-47.1	-49.2	17.2	0.00e+00	0	43	0	181403648	65	4688
2026-01-28 03:50:28.40	32.46	11.74	-47.2	-49.3	17.1	0.00e+00	0	43	0	183500800	65	4713
2026-01-28 03:50:29.40	32.35	11.81	-47.1	-49.2	17.2	0.00e+00	0	43	0	185597952	65	4667
2026-01-28 03:50:30.41	32.23	11.89	-47.0	-49.1	17.3	0.00e+00	0	43	0	187695104	65	4599
2026-01-28 03:50:31.41	32.12	11.96	-47.3	-49.3	17.1	0.00e+00	0	43	0	189792256	65	4750
2026-01-28 03:50:32.42	32.00	12.04	-46.8	-48.7	17.7	0.00e+00	0	43	0	190840832	65	4426
2026-01-28 03:50:33.43	31.89	12.12	-46.7	-48.6	17.8	0.00e+00	0	43	0	192937984	65	4361
2026-01-28 03:50:34.44	31.77	12.19	-46.6	-48.4	18.1	0.00e+00	0	43	0	195035136	64	4507
2026-01-28 03:50:35.44	31.65	12.27	-46.5	-48.4	18.0	0.00e+00	0	43	0	197132288	64	4501
2026-01-28 03:50:36.45	31.54	12.35	-46.5	-48.3	18.1	0.00e+00	0	43	0	199229440	64	4460
2026-01-28 03:50:37.46	31.42	12.42	-46.3	-48.0	18.3	0.00e+00	0	43	0	200278016	64	4324
2026-01-28 03:50:38.46	31.30	12.50	-46.3	-48.0	18.3	0.00e+00	0	43	0	202375168	64	4337
2026-01-28 03:50:39.47	31.18	12.57	-46.4	-48.2	18.3	0.00e+00	0	43	0	204472320	64	4405
2026-01-28 03:50:40.48	31.06	12.65	-46.3	-48.1	18.4	0.00e+00	0	43	0	206569472	64	4346
2026-01-28 03:50:41.49	30.94	12.73	-46.5	-48.3	18.1	0.00e+00	0	43	0	207618048	64	4469
2026-01-28 03:50:42.49	30.82	12.81	-46.6	-48.4	18.1	0.00e+00	0	43	0	209715200	64	4535
2026-01-28 03:50:43.50	30.69	12.88	-46.5	-48.3	18.2	0.00e+00	0	43	0	211812352	64	4473
2026-01-28 03:50:44.50	30.57	12.96	-46.6	-48.5	18.0	0.00e+00	0	43	0	213909504	64	4550
2026-01-28 03:50:45.50	30.45	13.04	-46.5	-48.3	18.1	0.00e+00	0	43	0	216006656	64	4482
2026-01-28 03:50:46.51	30.32	13.11	-46.5	-48.3	18.2	0.00e+00	0	43	0	218103808	64	4447
2026-01-28 03:50:47.52	30.20	13.19	-46.6	-48.4	18.0	0.00e+00	0	43	0	219152384	64	4534
2026-01-28 03:50:48.53	30.07	13.27	-46.8	-48.7	17.8	0.00e+00	0	43	0	221249536	64	4681
2026-01-28 03:50:49.53	29.95	13.35	-46.9	-48.9	17.6	0.00e+00	0	43	0	223346688	64	4775
2026-01-28 03:50:50.54	29.82	13.43	-46.9	-48.9	17.7	0.00e+00	0	43	0	225443840	64	4765
2026-01-28 03:50:51.54	29.69	13.50	-47.0	-49.0	17.5	0.00e+00	0	43	0	227540992	64	4845
2026-01-28 03:50:52.55	29.57	13.58	-47.1	-49.1	17.5	0.00e+00	0	43	0	228589568	64	4879
2026-01-28 03:50:53.56	29.44	13.66	-46.9	-48.8	17.6	0.00e+00	0	43	0	230686720	64	4741
2026-01-28 03:50:54.57	29.31	13.74	-46.9	-48.9	17.7	0.00e+00	0	43	0	232783872	64	4762
2026-01-28 03:50:55.58	29.18	13.82	-47.0	-49.0	17.5	0.00e+00	0	43	0	234881024	64	4824
2026-01-28 03:50:56.59	29.04	13.90	-46.9	-48.9	17.6	0.00e+00	0	43	0	235929600	64	4768
2026-01-28 03:50:57.60	28.91	13.97	-46.9	-48.8	17.7	0.00e+00	0	43	0	238026752	64	4724
2026-01-28 03:50:58.61	28.78	14.05	-46.8	-48.7	17.7	0.00e+00	0	43	0	240123904	64	4686
2026-01-28 03:50:59.61	28.65	14.13	-46.9	-48.8	17.7	0.00e+00	0	43	0	242221056	64	4731
2026-01-28 03:51:00.62	28.51	14.21	-46.8	-48.7	17.8	0.00e+00	0	43	0	244318208	64	4674
2026-01-28 03:51:01.63	28.38	14.29	-46.4	-48.1	18.3	0.00e+00	0	43	0	246415360	64	4389
2026-01-28 03:51:02.64	28.24	14.37	-46.6	-48.4	18.2	0.00e+00	0	43	0	247463936	64	4502
2026-01-28 03:51:03.65	28.10	14.45	-46.7	-48.6	17.9	0.00e+00	0	43	0	249561088	64	4617
2026-01-28 03:51:04.66	27.97	14.53	-46.4	-48.2	18.3	0.00e+00	0	43	0	251658240	64	4418
2026-01-28 03:51:05.67	27.83	14.61	-46.3	-48.0	18.5	0.00e+00	0	43	0	253755392	64	4321
2026-01-28 03:51:06.68	27.69	14.69	-46.1	-47.8	18.7	0.00e+00	0	43	0	255852544	64	4205
2026-01-28 03:51:07.69	27.55	14.77	-46.0	-47.6	18.9	0.00e+00	0	43	0	256901120	63	4388
2026-01-28 03:51:08.69	27.41	14.85	-45.9	-47.5	19.1	0.00e+00	0	43	0	258998272	63	4292
2026-01-28 03:51:09.70	27.27	14.93	-45.9	-47.5	19.1	0.00e+00	0	43	0	261095424	63	4313
2026-01-28 03:51:10.71	27.13	15.01	-46.1	-47.7	18.8	0.00e+00	0	43	0	263192576	63	4440
2026-01-28 03:51:11.72	26.99	15.09	-46.1	-47.8	18.8	0.00e+00	0	42	0	265289728	63	4447
2026-01-28 03:51:12.73	26.84	15.17	-45.9	-47.4	19.1	0.00e+00	0	43	0	266338304	63	4287
2026-01-28 03:51:13.74	26.70	15.25	-45.9	-47.4	19.1	0.00e+00	0	43	0	268435456	63	4284
2026-01-28 03:51:14.75	26.55	15.33	-45.9	-47.4	19.2	0.00e+00	0	43	0	270532608	63	4275
2026-01-28 03:51:15.75	26.41	15.41	-45.9	-47.4	19.2	0.00e+00	0	43	0	272629760	63	4283
2026-01-28 03:51:16.76	26.26	15.49	-45.8	-47.3	19.3	0.00e+00	0	43	0	274726912	63	4239
2026-01-28 03:51:17.77	26.11	15.57	-45.7	-47.2	19.3	0.00e+00	0	43	0	275775488	63	4185
2026-01-28 03:51:18.78	25.97	15.65	-45.9	-47.5	19.1	0.00e+00	0	43	0	277872640	63	4292
2026-01-28 03:51:19.79	25.82	15.73	-46.0	-47.5	19.0	0.00e+00	0	43	0	279969792	63	4340
2026-01-28 03:51:20.79	25.67	15.81	-45.9	-47.5	19.1	0.00e+00	0	43	0	282066944	63	4296
2026-01-28 03:51:21.80	25.52	15.89	-46.1	-47.7	18.9	0.00e+00	0	43	0	284164096	63	4441
2026-01-28 03:51:22.81	25.37	15.97	-45.8	-47.4	19.2	0.00e+00	0	43	0	286261248	63	4254
2026-01-28 03:51:23.82	25.21	16.05	-45.9	-47.5	19.2	0.00e+00	0	43	0	287309824	63	4300
2026-01-28 03:51:24.83	25.06	16.13	-45.9	-47.4	19.2	0.00e+00	0	43	0	289406976	63	4284
2026-01-28 03:51:25.83	24.91	16.21	-45.7	-47.3	19.3	0.00e+00	0	43	0	291504128	63	4202
2026-01-28 03:51:26.84	24.75	16.30	-45.9	-47.4	19.2	0.00e+00	0	43	0	293601280	63	4277
2026-01-28 03:51:27.85	24.60	16.38	-46.1	-47.7	18.9	0.00e+00	0	43	0	294649856	63	4423
2026-01-28 03:51:28.86	24.44	16.46	-46.0	-47.6	19.1	0.00e+00	0	43	0	296747008	63	4347
2026-01-28 03:51:29.87	24.28	16.54	-46.0	-47.6	19.1	0.00e+00	0	43	0	298844160	63	4342
2026-01-28 03:51:30.88	24.12	16.62	-45.7	-47.3	19.3	0.00e+00	0	43	0	300941312	63	4202
2026-01-28 03:51:31.88	23.97	16.70	-45.9	-47.5	19.2	0.00e+00	0	43	0	303038464	63	4292
2026-01-28 03:51:32.89	23.81	16.78	-45.9	-47.5	19.1	0.00e+00	0	43	0	304087040	63	4321
2026-01-28 03:51:33.90	23.64	16.86	-46.1	-47.7	18.9	0.00e+00	0	43	0	306184192	63	4431
2026-01-28 03:51:34.91	23.48	16.95	-46.1	-47.8	18.9	0.00e+00	0	43	0	308281344	63	4444
2026-01-28 03:51:35.91	23.32	17.03	-46.1	-47.7	18.9	0.00e+00	0	43	0	310378496	63	4436
2026-01-28 03:51:36.92	23.16	17.11	-46.2	-47.9	18.8	0.00e+00	0	43	0	312475648	63	4498
2026-01-28 03:51:37.93	22.99	17.19	-46.0	-47.6	19.0	0.00e+00	0	43	0	314572800	63	4350
2026-01-28 03:51:38.93	22.83	17.27	-45.8	-47.3	19.3	0.00e+00	0	43	0	315621376	63	4226
2026-01-28 03:51:39.94	22.66	17.35	-46.0	-47.6	19.0	0.00e+00	0	43	0	317718528	63	4368
2026-01-28 03:51:40.95	22.49	17.43	-46.1	-47.7	19.0	0.00e+00	0	43	0	319815680	63	4426
2026-01-28 03:51:41.96	22.33	17.52	-46.3	-47.9	18.7	0.00e+00	0	43	0	321912832	63	4540
2026-01-28 03:51:42.97	22.16	17.60	-46.4	-48.1	18.6	0.00e+00	0	43	0	322961408	63	4625
2026-01-28 03:51:43.97	21.99	17.68	-46.5	-48.2	18.5	0.00e+00	0	43	0	325058560	63	4693
2026-01-28 03:51:44.98	21.82	17.76	-46.5	-48.2	18.5	0.00e+00	0	43	0	327155712	63	4683
2026-01-28 03:51:45.99	21.65	17.84	-46.4	-48.0	18.7	0.00e+00	0	43	0	329252864	63	4596
2026-01-28 03:51:47.00	21.47	17.92	-46.2	-47.8	18.8	0.00e+00	0	43	0	331350016	63	4476
2026-01-28 03:51:48.00	21.30	18.01	-46.6	-48.4	18.4	0.00e+00	0	43	0	333447168	63	4766
2026-01-28 03:51:49.01	21.12	18.09	-46.7	-48.5	18.3	0.00e+00	0	43	0	334495744	63	4831
2026-01-28 03:51:50.02	20.95	18.17	-46.4	-48.1	18.5	0.00e+00	0	43	0	336592896	64	4372
2026-01-28 03:51:51.03	20.77	18.25	-46.6	-48.3	18.3	0.00e+00	0	43	0	338690048	64	4482
2026-01-28 03:51:52.03	20.60	18.33	-46.5	-48.2	18.5	0.00e+00	0	43	0	340787200	64	4419
2026-01-28 03:51:53.04	20.42	18.41	-46.3	-48.0	18.6	0.00e+00	0	43	0	342884352	64	4333
2026-01-28 03:51:54.05	20.24	18.49	-46.4	-48.2	18.5	0.00e+00	0	43	0	343932928	64	4393
2026-01-28 03:51:55.05	20.06	18.58	-46.4	-48.1	18.6	0.00e+00	0	43	0	346030080	64	4350
2026-01-28 03:51:56.06	19.88	18.66	-46.3	-48.0	18.7	0.00e+00	0	43	0	348127232	64	4315
2026-01-28 03:51:57.07	19.69	18.74	-46.6	-48.3	18.5	0.00e+00	0	43	0	350224384	65	4234
2026-01-28 03:51:58.08	19.51	18.82	-46.6	-48.3	18.4	0.00e+00	0	43	0	351272960	64	4459
2026-01-28 03:51:59.09	19.33	18.90	-46.5	-48.3	18.4	0.00e+00	0	43	0	353370112	64	4454
2026-01-28 03:52:00.10	19.14	18.98	-46.5	-48.2	18.3	0.00e+00	0	43	0	355467264	64	4414
2026-01-28 03:52:01.11	18.95	19.06	-46.4	-48.1	18.5	0.00e+00	0	43	0	357564416	64	4342
2026-01-28 03:52:02.11	18.77	19.15	-46.4	-48.1	18.5	0.00e+00	0	43	0	359661568	64	4372
2026-01-28 03:52:03.12	18.58	19.23	-46.3	-48.0	18.6	0.00e+00	0	43	0	361758720	64	4339
2026-01-28 03:52:04.12	18.39	19.31	-46.4	-48.1	18.5	0.00e+00	0	43	0	362807296	64	4363
2026-01-28 03:52:05.13	18.20	19.39	-46.3	-48.0	18.6	0.00e+00	0	43	0	364904448	64	4329
2026-01-28 03:52:06.13	18.01	19.47	-46.5	-48.2	18.5	0.00e+00	0	43	0	367001600	64	4425
2026-01-28 03:52:07.14	17.82	19.55	-46.6	-48.4	18.3	0.00e+00	0	43	0	369098752	64	4531
2026-01-28 03:52:08.15	17.62	19.63	-46.4	-48.1	18.5	0.00e+00	0	43	0	371195904	64	4364
2026-01-28 03:52:09.16	17.43	19.71	-46.8	-48.6	18.1	0.00e+00	0	43	0	372244480	64	4627
2026-01-28 03:52:10.17	17.23	19.79	-46.4	-48.1	18.6	0.00e+00	0	43	0	374341632	64	4362
2026-01-28 03:52:11.17	17.04	19.87	-46.4	-48.1	18.7	0.00e+00	0	43	0	376438784	64	4365
2026-01-28 03:52:12.17	16.84	19.95	-46.1	-47.7	19.0	0.00e+00	0	43	0	378535936	64	4175
2026-01-28 03:52:13.17	16.64	20.03	-46.0	-47.6	19.2	0.00e+00	0	43	0	379584512	63	4344
2026-01-28 03:52:14.18	16.44	20.11	-46.0	-47.6	19.2	0.00e+00	0	43	0	381681664	63	4364
2026-01-28 03:52:15.19	16.24	20.19	-45.8	-47.2	19.5	0.00e+00	0	43	0	383778816	63	4193
2026-01-28 03:52:16.20	16.04	20.27	-45.5	-47.0	19.8	0.00e+00	0	43	0	385875968	63	4058
2026-01-28 03:52:17.20	15.84	20.35	-45.4	-46.8	19.9	0.00e+00	0	43	0	387973120	62	4236
2026-01-28 03:52:18.21	15.63	20.43	-45.6	-47.1	19.7	0.00e+00	0	43	0	390070272	62	4346
2026-01-28 03:52:19.22	15.43	20.51	-45.9	-47.4	19.4	0.00e+00	0	43	0	391118848	62	4516
2026-01-28 03:52:20.23	15.22	20.59	-45.9	-47.5	19.3	0.00e+00	0	43	0	393216000	62	4558
2026-01-28 03:52:21.23	15.02	20.67	-46.4	-48.0	18.9	0.00e+00	0	43	0	395313152	63	4575
2026-01-28 03:52:22.24	14.81	20.75	-46.3	-48.0	18.9	0.00e+00	0	43	0	397410304	63	4571
2026-01-28 03:52:23.25	14.60	20.83	-46.4	-48.0	18.8	0.00e+00	0	43	0	399507456	63	4590
2026-01-28 03:52:24.26	14.39	20.91	-46.7	-48.4	18.4	0.00e+00	0	43	0	400556032	63	4810
2026-01-28 03:52:25.27	14.17	20.98	-46.6	-48.3	18.5	0.00e+00	0	43	0	402653184	63	4751
2026-01-28 03:52:26.28	13.96	21.06	-46.5	-48.2	18.7	0.00e+00	0	43	0	404750336	63	4668
2026-01-28 03:52:27.29	13.75	21.14	-46.2	-47.8	19.0	0.00e+00	0	43	0	406847488	63	4459
2026-01-28 03:52:28.29	13.53	21.22	-46.1	-47.7	19.1	0.00e+00	0	43	0	407896064	63	4418
2026-01-28 03:52:29.30	13.32	21.30	-45.8	-47.3	19.5	0.00e+00	0	43	0	409993216	63	4219
2026-01-28 03:52:30.31	13.10	21.37	-45.4	-46.8	19.9	0.00e+00	0	43	0	412090368	62	4212
2026-01-28 03:52:31.32	12.88	21.45	-45.1	-46.5	20.2	0.00e+00	0	43	0	414187520	62	4076
2026-01-28 03:52:32.33	12.66	21.53	-45.0	-46.3	20.3	0.00e+00	0	43	0	416284672	62	3986
2026-01-28 03:52:33.33	12.44	21.61	-45.1	-46.5	20.2	0.00e+00	0	43	0	418381824	61	4299
2026-01-28 03:52:34.34	12.22	21.68	-45.0	-46.4	20.3	0.00e+00	0	43	0	419430400	61	4275
2026-01-28 03:52:35.35	12.00	21.76	-45.2	-46.7	20.0	0.00e+00	0	43	0	421527552	61	4401
2026-01-28 03:52:36.36	11.77	21.84	-45.2	-46.7	20.0	0.00e+00	0	43	0	423624704	61	4419
2026-01-28 03:52:37.37	11.55	21.91	-45.3	-46.8	19.9	0.00e+00	0	43	0	425721856	61	4461
2026-01-28 03:52:38.37	11.32	21.99	-45.1	-46.6	20.1	0.00e+00	0	43	0	427819008	61	4346
2026-01-28 03:52:39.38	11.10	22.06	-45.1	-46.4	20.3	0.00e+00	0	43	0	428867584	61	4286
2026-01-28 03:52:40.39	10.87	22.14	-45.0	-46.4	20.3	0.00e+00	0	43	0	430964736	61	4246
2026-01-28 03:52:41.39	10.64	22.21	-45.2	-46.6	20.1	0.00e+00	0	43	0	433061888	61	4353
2026-01-28 03:52:42.40	10.41	22.29	-45.2	-46.6	20.1	0.00e+00	0	43	0	435159040	61	4348
2026-01-28 03:52:43.41	10.18	22.36	-45.0	-46.4	20.3	0.00e+00	0	43	0	437256192	61	4268
2026-01-28 03:52:44.42	9.94	22.44	-44.5	-45.7	20.9	0.00e+00	0	43	0	438304768	61	3941
2026-01-28 03:52:45.43	9.71	22.51	-44.4	-45.7	20.9	0.00e+00	0	43	0	440401920	60	4160
2026-01-28 03:52:46.44	9.47	22.59	-44.2	-45.3	21.2	0.00e+00	0	43	0	442499072	60	4001
2026-01-28 03:52:47.44	9.24	22.66	-44.3	-45.5	21.1	0.00e+00	0	43	0	444596224	60	4079
2026-01-28 03:52:48.45	9.00	22.73	-44.7	-46.0	20.7	0.00e+00	0	43	0	446693376	60	4293
2026-01-28 03:52:49.46	8.76	22.80	-44.8	-46.1	20.5	0.00e+00	0	43	0	447741952	60	4390
2026-01-28 03:52:50.46	8.53	22.88	-44.8	-46.1	20.6	0.00e+00	0	43	0	449839104	60	4377
2026-01-28 03:52:51.47	8.28	22.95	-44.6	-45.8	20.9	0.00e+00	0	43	0	451936256	60	4224
2026-01-28 03:52:52.48	8.04	23.02	-44.4	-45.6	21.0	0.00e+00	0	43	0	454033408	60	4145
2026-01-28 03:52:53.49	7.80	23.09	-44.1	-45.2	21.2	0.00e+00	0	43	0	456130560	60	3948
2026-01-28 03:52:54.50	7.55	23.16	-44.4	-45.6	21.3	0.00e+00	0	43	0	457179136	59	4358
2026-01-28 03:52:55.51	7.31	23.23	-44.4	-45.6	21.3	0.00e+00	0	43	0	459276288	59	4365
2026-01-28 03:52:56.51	7.06	23.30	-44.5	-45.7	21.2	0.00e+00	0	43	0	461373440	59	4416
2026-01-28 03:52:57.52	6.82	23.37	-44.4	-45.6	21.3	0.00e+00	0	43	0	463470592	59	4374
2026-01-28 03:52:58.53	6.57	23.44	-44.3	-45.5	21.4	0.00e+00	0	43	0	465567744	59	4294
2026-01-28 03:52:59.54	6.32	23.51	-44.5	-45.7	21.2	0.00e+00	0	43	0	466616320	59	4434
2026-01-28 03:53:00.54	6.07	23.58	-44.6	-45.9	21.0	0.00e+00	0	43	0	468713472	59	4512
2026-01-28 03:53:01.55	5.82	23.65	-44.6	-45.9	20.8	0.00e+00	0	43	0	470810624	60	4260
2026-01-28 03:53:02.56	5.56	23.72	-44.7	-46.0	20.7	0.00e+00	0	43	0	472907776	60	4309
2026-01-28 03:53:03.57	5.31	23.78	-44.7	-45.9	20.6	0.00e+00	0	43	0	475004928	60	4291
2026-01-28 03:53:04.58	5.05	23.85	-44.4	-45.6	21.1	0.00e+00	0	43	0	476053504	60	4101
2026-01-28 03:53:05.58	4.80	23.92	-44.2	-45.4	21.3	0.00e+00	0	43	0	478150656	60	4024
2026-01-28 03:53:06.59	4.54	23.98	-44.3	-45.5	21.2	0.00e+00	0	43	0	480247808	60	4055
2026-01-28 03:53:07.60	4.28	24.05	-44.5	-45.7	21.0	0.00e+00	0	43	0	482344960	60	4164
2026-01-28 03:53:08.60	4.02	24.11	-44.9	-46.2	20.5	0.00e+00	0	43	0	484442112	60	4438
2026-01-28 03:53:09.61	3.76	24.18	-45.0	-46.4	20.4	0.00e+00	0	43	0	485490688	60	4499
2026-01-28 03:53:10.62	3.50	24.24	-45.0	-46.4	20.4	0.00e+00	0	43	0	487587840	60	4496
2026-01-28 03:53:11.63	3.24	24.31	-44.7	-46.0	20.8	0.00e+00	0	43	0	489684992	60	4303
2026-01-28 03:53:12.64	2.97	24.37	-44.7	-46.0	20.8	0.00e+00	0	43	0	491782144	60	4309
2026-01-28 03:53:13.65	2.71	24.43	-44.6	-45.9	20.9	0.00e+00	0	43	0	493879296	60	4251
2026-01-28 03:53:14.65	2.44	24.49	-44.8	-46.1	20.7	0.00e+00	0	43	0	494927872	60	4384
2026-01-28 03:53:15.66	2.18	24.55	-44.9	-46.2	20.6	0.00e+00	0	43	0	497025024	60	4403
2026-01-28 03:53:16.67	1.91	24.62	-44.7	-46.0	20.8	0.00e+00	0	43	0	499122176	60	4324
2026-01-28 03:53:17.68	1.64	24.68	-44.4	-45.7	21.1	0.00e+00	0	43	0	501219328	60	4158
2026-01-28 03:53:18.69	1.37	24.74	-44.3	-45.5	21.2	0.00e+00	0	43	0	503316480	60	4067
2026-01-28 03:53:19.69	1.10	24.79	-44.3	-45.5	21.2	0.00e+00	0	43	0	504365056	60	4062
2026-01-28 03:53:20.70	0.83	24.85	-44.4	-45.6	21.1	0.00e+00	0	43	0	506462208	60	4135
2026-01-28 03:53:21.71	0.55	24.91	-44.6	-45.9	20.9	0.00e+00	0	43	0	508559360	60	4253
2026-01-28 03:53:22.72	0.28	24.97	-44.7	-46.0	20.7	0.00e+00	0	43	0	510656512	60	4310
2026-01-28 03:53:23.72	0.00	25.03	-44.7	-46.0	20.9	0.00e+00	0	43	0	512753664	60	4294
2026-01-28 03:53:24.73	359.73	25.08	-44.4	-45.6	21.1	0.00e+00	0	43	0	513802240	60	4132
2026-01-28 03:53:25.74	359.45	25.14	-44.5	-45.7	21.1	0.00e+00	0	43	0	515899392	60	4188
2026-01-28 03:53:26.75	359.17	25.19	-44.4	-45.6	21.2	0.00e+00	0	43	0	517996544	60	4110
2026-01-28 03:53:27.76	358.89	25.25	-44.5	-45.7	21.0	0.00e+00	0	43	0	520093696	60	4176
2026-01-28 03:53:28.77	358.61	25.30	-44.6	-45.8	20.9	0.00e+00	0	43	0	522190848	60	4236
2026-01-28 03:53:29.77	358.33	25.35	-44.4	-45.6	21.1	0.00e+00	0	43	0	523239424	60	4120
2026-01-28 03:53:30.78	358.05	25.41	-44.2	-45.4	21.4	0.00e+00	0	43	0	525336576	60	4016
2026-01-28 03:53:31.79	357.77	25.46	-44.0	-45.2	21.5	0.00e+00	0	43	0	527433728	60	3920
2026-01-28 03:53:32.80	357.48	25.51	-44.1	-45.2	21.5	0.00e+00	0	43	0	529530880	60	3949
2026-01-28 03:53:33.81	357.20	25.56	-44.3	-45.4	21.3	0.00e+00	0	43	0	531628032	60	4050
2026-01-28 03:53:34.81	356.91	25.61	-44.4	-45.6	21.2	0.00e+00	0	43	0	533725184	60	4120
2026-01-28 03:53:35.82	356.63	25.66	-44.4	-45.6	21.1	0.00e+00	0	43	0	534773760	60	4135
2026-01-28 03:53:36.83	356.34	25.71	-44.3	-45.5	21.2	0.00e+00	0	43	0	536870912	60	4077
2026-01-28 03:53:37.83	356.05	25.76	-44.1	-45.2	21.5	0.00e+00	0	43	0	538968064	60	3944
2026-01-28 03:53:38.84	355.76	25.80	-44.4	-45.6	21.5	0.00e+00	0	43	0	541065216	59	4375
2026-01-28 03:53:39.85	355.47	25.85	-44.4	-45.6	21.4	0.00e+00	0	43	0	542113792	59	4384
2026-01-28 03:53:40.86	355.18	25.89	-44.6	-45.8	21.3	0.00e+00	0	43	0	544210944	59	4487
2026-01-28 03:53:41.87	354.89	25.94	-44.7	-45.9	20.9	0.00e+00	0	43	0	546308096	60	4265
2026-01-28 03:53:42.88	354.59	25.98	-44.7	-45.9	20.9	0.00e+00	0	43	0	548405248	60	4287
2026-01-28 03:53:43.88	354.30	26.03	-44.7	-46.0	20.9	0.00e+00	0	43	0	550502400	60	4299
2026-01-28 03:53:44.89	354.01	26.07	-44.6	-45.8	20.9	0.00e+00	0	43	0	551550976	60	4228
2026-01-28 03:53:45.90	353.71	26.11	-45.0	-46.3	20.6	0.00e+00	0	43	0	553648128	60	4450
2026-01-28 03:53:46.90	353.42	26.15	-45.3	-46.7	20.2	0.00e+00	0	43	0	555745280	61	4426
2026-01-28 03:53:47.91	353.12	26.19	-46.0	-47.5	19.5	0.00e+00	0	43	0	557842432	62	4569
2026-01-28 03:53:48.92	352.82	26.23	-46.0	-47.5	19.4	0.00e+00	0	43	0	559939584	62	4590
2026-01-28 03:53:49.93	352.52	26.27	-46.1	-47.7	19.3	0.00e+00	0	43	0	562036736	63	4396
2026-01-28 03:53:50.93	352.23	26.31	-46.1	-47.7	19.3	0.00e+00	0	43	0	563085312	63	4409
2026-01-28 03:53:51.94	351.93	26.35	-46.2	-47.8	19.2	0.00e+00	0	43	0	565182464	63	4462
2026-01-28 03:53:52.95	351.63	26.38	-46.4	-48.1	18.9	0.00e+00	0	43	0	567279616	63	4608
2026-01-28 03:53:53.96	351.33	26.42	-46.4	-48.0	19.1	0.00e+00	0	43	0	569376768	63	4557
2026-01-28 03:53:54.96	351.03	26.45	-46.4	-48.0	19.0	0.00e+00	0	43	0	570425344	63	4577
2026-01-28 03:53:55.97	350.72	26.49	-46.0	-47.5	19.5	0.00e+00	0	43	0	572522496	63	4293
2026-01-28 03:53:56.98	350.42	26.52	-45.6	-47.1	19.9	0.00e+00	0	43	0	574619648	63	4099
2026-01-28 03:53:57.98	350.12	26.55	-45.6	-47.0	19.9	0.00e+00	0	43	0	576716800	63	4086
2026-01-28 03:53:58.99	349.81	26.58	-45.7	-47.2	19.8	0.00e+00	0	43	0	578813952	62	4392
2026-01-28 03:54:00.00	349.51	26.61	-46.0	-47.5	19.5	0.00e+00	0	43	0	580911104	62	4587
2026-01-28 03:54:01.01	349.20	26.64	-46.3	-47.9	19.1	0.00e+00	0	43	0	581959680	63	4542
2026-01-28 03:54:02.02	348.90	26.67	-46.6	-48.3	18.7	0.00e+00	0	43	0	584056832	63	4724
2026-01-28 03:54:03.02	348.59	26.70	-46.7	-48.5	18.6	0.00e+00	0	43	0	586153984	64	4551
2026-01-28 03:54:04.03	348.28	26.72	-46.5	-48.2	18.7	0.00e+00	0	43	0	588251136	64	4420
2026-01-28 03:54:05.03	347.98	26.75	-46.4	-48.1	18.8	0.00e+00	0	43	0	590348288	64	4355
2026-01-28 03:54:06.04	347.67	26.78	-46.2	-47.8	19.2	0.00e+00	0	43	0	591396864	64	4200
2026-01-28 03:54:07.04	347.36	26.80	-46.1	-47.7	19.2	0.00e+00	0	43	0	593494016	64	4177
2026-01-28 03:54:08.05	347.06	26.82	-46.2	-47.8	19.1	0.00e+00	0	43	0	595591168	64	4228
2026-01-28 03:54:09.06	346.75	26.84	-46.1	-47.7	19.1	0.00e+00	0	43	0	597688320	64	4171
2026-01-28 03:54:10.07	346.44	26.87	-46.3	-47.9	19.0	0.00e+00	0	43	0	598736896	64	4267
2026-01-28 03:54:11.07	346.13	26.89	-46.3	-47.9	18.9	0.00e+00	0	43	0	600834048	64	4289
2026-01-28 03:54:12.08	345.82	26.91	-46.3	-48.0	18.9	0.00e+00	0	43	0	602931200	64	4296
2026-01-28 03:54:13.09	345.50	26.93	-46.3	-48.0	18.9	0.00e+00	0	43	0	605028352	64	4311
2026-01-28 03:54:14.10	345.19	26.94	-46.4	-48.1	18.8	0.00e+00	0	43	0	607125504	64	4343
2026-01-28 03:54:15.11	344.88	26.96	-46.1	-47.7	19.1	0.00e+00	0	43	0	609222656	64	4183
2026-01-28 03:54:16.11	344.57	26.98	-46.0	-47.6	19.3	0.00e+00	0	43	0	610271232	64	4126
2026-01-28 03:54:17.12	344.26	26.99	-46.0	-47.6	19.4	0.00e+00	0	43	0	612368384	63	4359
2026-01-28 03:54:18.12	343.95	27.00	-45.8	-47.3	19.6	0.00e+00	0	43	0	614465536	63	4206
2026-01-28 03:54:19.13	343.63	27.02	-45.7	-47.1	19.7	0.00e+00	0	43	0	616562688	63	4125
2026-01-28 03:54:20.14	343.32	27.03	-46.0	-47.5	19.4	0.00e+00	0	43	0	618659840	63	4314
2026-01-28 03:54:21.15	343.01	27.04	-46.3	-48.0	19.0	0.00e+00	0	43	0	619708416	63	4562
2026-01-28 03:54:22.16	342.69	27.05	-46.6	-48.4	18.5	0.00e+00	0	43	0	621805568	64	4498
2026-01-28 03:54:23.17	342.38	27.06	-47.0	-48.9	18.1	0.00e+00	0	43	0	623902720	64	4768
2026-01-28 03:54:24.17	342.07	27.07	-47.2	-49.1	17.8	0.00e+00	0	43	0	625999872	65	4620
2026-01-28 03:54:25.18	341.75	27.08	-47.0	-48.9	18.1	0.00e+00	0	43	0	627048448	65	4497
2026-01-28 03:54:26.19	341.44	27.08	-46.8	-48.6	18.3	0.00e+00	0	43	0	629145600	65	4352
2026-01-28 03:54:27.20	341.12	27.09	-46.6	-48.3	18.6	0.00e+00	0	43	0	631242752	65	4228
2026-01-28 03:54:28.20	340.81	27.09	-46.4	-48.0	18.9	0.00e+00	0	43	0	633339904	64	4301
2026-01-28 03:54:29.21	340.49	27.10	-46.0	-47.6	19.3	0.00e+00	0	43	0	635437056	64	4107
2026-01-28 03:54:30.22	340.18	27.10	-46.1	-47.6	19.3	0.00e+00	0	43	0	637534208	63	4365
2026-01-28 03:54:31.23	339.86	27.10	-45.8	-47.3	19.7	0.00e+00	0	43	0	638582784	63	4199
2026-01-28 03:54:32.23	339.55	27.10	-45.6	-47.0	20.0	0.00e+00	0	43	0	640679936	63	4085
2026-01-28 03:54:33.24	339.24	27.10	-45.9	-47.4	19.6	0.00e+00	0	43	0	642777088	63	4244
2026-01-28 03:54:34.24	338.92	27.10	-46.0	-47.5	19.5	0.00e+00	0	43	0	644874240	63	4326
2026-01-28 03:54:35.25	338.61	27.10	-46.4	-48.0	19.1	0.00e+00	0	43	0	646971392	63	4556
2026-01-28 03:54:36.26	338.29	27.10	-46.4	-48.1	19.0	0.00e+00	0	43	0	648019968	63	4600
2026-01-28 03:54:37.27	337.98	27.09	-46.7	-48.4	18.5	0.00e+00	0	43	0	650117120	64	4529
2026-01-28 03:54:38.28	337.66	27.09	-46.7	-48.4	18.5	0.00e+00	0	43	0	652214272	64	4543
2026-01-28 03:54:39.29	337.35	27.08	-46.7	-48.5	18.5	0.00e+00	0	43	0	654311424	64	4547
2026-01-28 03:54:40.29	337.04	27.07	-46.5	-48.2	18.8	0.00e+00	0	43	0	655360000	64	4406
2026-01-28 03:54:41.30	336.72	27.07	-46.3	-47.8	19.1	0.00e+00	0	43	0	657457152	64	4242
2026-01-28 03:54:42.31	336.41	27.06	-45.9	-47.4	19.6	0.00e+00	0	43	0	659554304	63	4275
2026-01-28 03:54:43.32	336.09	27.05	-45.9	-47.4	19.7	0.00e+00	0	43	0	661651456	63	4252
2026-01-28 03:54:44.33	335.78	27.04	-45.9	-47.4	19.6	0.00e+00	0	43	0	663748608	63	4267
2026-01-28 03:54:45.34	335.47	27.03	-45.9	-47.3	19.6	0.00e+00	0	43	0	665845760	63	4233
2026-01-28 03:54:46.34	335.15	27.01	-46.0	-47.5	19.5	0.00e+00	0	43	0	666894336	63	4332
2026-01-28 03:54:47.35	334.84	27.00	-46.1	-47.6	19.3	0.00e+00	0	43	0	668991488	63	4391
2026-01-28 03:54:48.36	334.53	26.99	-46.2	-47.8	19.2	0.00e+00	0	43	0	671088640	63	4454
2026-01-28 03:54:49.37	334.22	26.97	-46.3	-47.9	19.1	0.00e+00	0	43	0	673185792	63	4534
2026-01-28 03:54:50.38	333.90	26.95	-46.4	-48.0	19.0	0.00e+00	0	43	0	675282944	63	4582
2026-01-28 03:54:51.37	333.60	26.94	-46.2	-47.8	19.3	0.00e+00	0	43	0	676331520	63	4478
2026-01-28 03:54:52.38	333.28	26.92	-45.8	-47.2	19.8	0.00e+00	0	43	0	678428672	63	4179
2026-01-28 03:54:53.39	332.97	26.90	-45.3	-46.7	20.3	0.00e+00	0	43	0	680525824	62	4149
2026-01-28 03:54:54.40	332.66	26.88	-44.9	-46.2	20.7	0.00e+00	0	43	0	682622976	61	4160
2026-01-28 03:54:55.41	332.35	26.86	-44.4	-45.6	21.2	0.00e+00	0	43	0	684720128	60	4121
2026-01-28 03:54:56.41	332.04	26.84	-44.4	-45.6	21.2	0.00e+00	0	43	0	685768704	60	4101
2026-01-28 03:54:57.42	331.73	26.81	-44.4	-45.6	21.3	0.00e+00	0	43	0	687865856	60	4120
2026-01-28 03:54:58.43	331.42	26.79	-44.6	-45.8	21.1	0.00e+00	0	43	0	689963008	60	4237
2026-01-28 03:54:59.43	331.12	26.77	-44.9	-46.1	20.8	0.00e+00	0	43	0	692060160	60	4366
2026-01-28 03:55:00.44	330.81	26.74	-44.9	-46.2	20.7	0.00e+00	0	43	0	694157312	60	4407
2026-01-28 03:55:01.45	330.50	26.71	-44.6	-45.8	21.1	0.00e+00	0	43	0	695205888	60	4207
2026-01-28 03:55:02.45	330.20	26.69	-44.5	-45.6	21.2	0.00e+00	0	43	0	697303040	60	4138
2026-01-28 03:55:03.46	329.89	26.66	-44.6	-45.8	21.1	0.00e+00	0	43	0	699400192	60	4216
2026-01-28 03:55:04.47	329.58	26.63	-45.1	-46.4	20.5	0.00e+00	0	43	0	701497344	60	4523
2026-01-28 03:55:05.48	329.28	26.60	-45.1	-46.4	20.5	0.00e+00	0	43	0	703594496	60	4543
2026-01-28 03:55:06.49	328.97	26.57	-45.5	-46.8	20.2	0.00e+00	0	43	0	704643072	61	4479
2026-01-28 03:55:07.49	328.67	26.54	-45.7	-47.1	19.9	0.00e+00	0	43	0	706740224	62	4350
2026-01-28 03:55:08.50	328.37	26.51	-45.7	-47.0	20.0	0.00e+00	0	43	0	708837376	62	4339
2026-01-28 03:55:09.51	328.06	26.47	-45.5	-46.8	20.2	0.00e+00	0	43	0	710934528	62	4213
2026-01-28 03:55:10.52	327.76	26.44	-45.6	-47.0	20.1	0.00e+00	0	43	0	713031680	62	4321
2026-01-28 03:55:11.53	327.46	26.40	-45.3	-46.6	20.4	0.00e+00	0	43	0	714080256	62	4145
2026-01-28 03:55:12.54	327.16	26.37	-45.2	-46.4	20.6	0.00e+00	0	43	0	716177408	62	4036
2026-01-28 03:55:13.54	326.86	26.33	-45.4	-46.7	20.3	0.00e+00	0	43	0	718274560	62	4154
2026-01-28 03:55:14.55	326.56	26.29	-45.6	-47.0	20.1	0.00e+00	0	43	0	720371712	62	4296
2026-01-28 03:55:15.56	326.26	26.26	-46.2	-47.8	19.4	0.00e+00	0	43	0	722468864	63	4459
2026-01-28 03:55:16.56	325.97	26.22	-46.2	-47.7	19.4	0.00e+00	0	43	0	723517440	63	4418
2026-01-28 03:55:17.57	325.67	26.18	-46.5	-48.0	19.2	0.00e+00	0	43	0	725614592	63	4567
2026-01-28 03:55:18.58	325.37	26.14	-46.5	-48.0	19.1	0.00e+00	0	43	0	727711744	63	4580
2026-01-28 03:55:19.59	325.07	26.10	-46.5	-48.0	19.1	0.00e+00	0	43	0	729808896	63	4582
2026-01-28 03:55:20.59	324.78	26.05	-46.5	-48.1	19.0	0.00e+00	0	43	0	731906048	63	4600
2026-01-28 03:55:21.60	324.49	26.01	-46.2	-47.6	19.5	0.00e+00	0	43	0	734003200	63	4371
2026-01-28 03:55:22.61	324.19	25.97	-45.8	-47.1	19.9	0.00e+00	0	43	0	735051776	63	4128
2026-01-28 03:55:23.62	323.90	25.92	-45.6	-46.9	20.1	0.00e+00	0	43	0	737148928	63	4041
2026-01-28 03:55:24.63	323.61	25.88	-45.6	-46.9	20.2	0.00e+00	0	43	0	739246080	63	4025
2026-01-28 03:55:25.64	323.32	25.83	-46.0	-47.4	19.7	0.00e+00	0	43	0	741343232	63	4269
2026-01-28 03:55:26.65	323.03	25.79	-46.1	-47.5	19.6	0.00e+00	0	43	0	742391808	63	4323
2026-01-28 03:55:27.65	322.74	25.74	-46.2	-47.7	19.4	0.00e+00	0	43	0	744488960	63	4392
2026-01-28 03:55:28.66	322.45	25.69	-46.3	-47.8	19.3	0.00e+00	0	43	0	746586112	63	4485
2026-01-28 03:55:29.67	322.16	25.64	-46.6	-48.2	19.0	0.00e+00	0	43	0	748683264	63	4664
2026-01-28 03:55:30.68	321.88	25.59	-46.7	-48.3	18.7	0.00e+00	0	43	0	750780416	64	4467
2026-01-28 03:55:31.68	321.59	25.54	-46.8	-48.5	18.6	0.00e+00	0	43	0	751828992	64	4559
2026-01-28 03:55:32.69	321.31	25.49	-46.9	-48.6	18.5	0.00e+00	0	43	0	753926144	64	4607
2026-01-28 03:55:33.70	321.02	25.44	-46.9	-48.7	18.4	0.00e+00	0	43	0	756023296	64	4652
2026-01-28 03:55:34.71	320.74	25.39	-47.0	-48.8	18.3	0.00e+00	0	43	0	758120448	64	4736
2026-01-28 03:55:35.72	320.46	25.33	-47.3	-49.1	17.9	0.00e+00	0	43	0	760217600	65	4642
2026-01-28 03:55:36.73	320.18	25.28	-47.6	-49.7	17.5	0.00e+00	0	43	0	762314752	65	4939
2026-01-28 03:55:37.73	319.90	25.23	-47.7	-49.7	17.4	0.00e+00	0	43	0	763363328	66	4690
2026-01-28 03:55:38.74	319.62	25.17	-47.7	-49.7	17.4	0.00e+00	0	43	0	765460480	66	4695
2026-01-28 03:55:39.75	319.34	25.12	-47.7	-49.7	17.4	0.00e+00	0	43	0	767557632	66	4682
2026-01-28 03:55:40.76	319.06	25.06	-47.7	-49.7	17.5	0.00e+00	0	43	0	769654784	66	4660
2026-01-28 03:55:41.77	318.79	25.00	-47.8	-49.8	17.3	0.00e+00	0	43	0	770703360	66	4725
2026-01-28 03:55:42.78	318.51	24.95	-47.9	-50.0	17.1	0.00e+00	0	43	0	772800512	66	4848
2026-01-28 03:55:43.79	318.24	24.89	-48.0	-50.2	17.0	0.00e+00	0	43	0	774897664	66	4931
2026-01-28 03:55:44.80	317.96	24.83	-48.3	-50.6	16.5	0.00e+00	0	43	0	776994816	67	4914
2026-01-28 03:55:45.81	317.69	24.77	-48.3	-50.5	16.6	0.00e+00	0	43	0	779091968	67	4849
2026-01-28 03:55:46.81	317.42	24.71	-48.2	-50.5	16.6	0.00e+00	0	43	0	781189120	67	4826
2026-01-28 03:55:47.82	317.15	24.65	-47.8	-49.8	17.2	0.00e+00	0	43	0	782237696	67	4485
2026-01-28 03:55:48.83	316.88	24.59	-47.5	-49.5	17.6	0.00e+00	0	43	0	784334848	67	4292
2026-01-28 03:55:49.84	316.61	24.53	-47.4	-49.2	17.8	0.00e+00	0	43	0	786432000	66	4425
2026-01-28 03:55:50.85	316.35	24.47	-47.2	-49.0	18.0	0.00e+00	0	43	0	788529152	66	4337
2026-01-28 03:55:51.86	316.08	24.41	-46.9	-48.7	18.3	0.00e+00	0	43	0	790626304	65	4395
2026-01-28 03:55:52.87	315.81	24.34	-46.9	-48.6	18.4	0.00e+00	0	43	0	791674880	65	4359
2026-01-28 03:55:53.87	315.55	24.28	-46.9	-48.7	18.4	0.00e+00	0	43	0	793772032	65	4393
2026-01-28 03:55:54.88	315.29	24.22	-47.1	-49.0	18.0	0.00e+00	0	43	0	795869184	65	4551
2026-01-28 03:55:55.89	315.03	24.15	-47.3	-49.2	17.7	0.00e+00	0	43	0	797966336	65	4705
2026-01-28 03:55:56.90	314.77	24.09	-47.5	-49.5	17.5	0.00e+00	0	43	0	800063488	65	4845
2026-01-28 03:55:57.91	314.51	24.02	-47.3	-49.2	17.8	0.00e+00	0	43	0	801112064	65	4696
2026-01-28 03:55:58.91	314.25	23.96	-47.0	-48.8	18.2	0.00e+00	0	43	0	803209216	65	4452
2026-01-28 03:55:59.92	313.99	23.89	-46.7	-48.3	18.6	0.00e+00	0	43	0	805306368	65	4232
2026-01-28 03:56:00.93	313.74	23.82	-46.5	-48.1	18.8	0.00e+00	0	43	0	807403520	65	4112
2026-01-28 03:56:01.93	313.48	23.76	-46.8	-48.5	18.5	0.00e+00	0	43	0	809500672	64	4592
2026-01-28 03:56:02.94	313.23	23.69	-47.2	-49.1	17.9	0.00e+00	0	43	0	810549248	65	4632
2026-01-28 03:56:03.94	312.98	23.62	-47.7	-49.8	17.2	0.00e+00	0	43	0	812646400	65	5025
2026-01-28 03:56:04.95	312.73	23.55	-48.0	-50.2	16.9	0.00e+00	0	43	0	814743552	66	4936
2026-01-28 03:56:05.96	312.48	23.48	-47.9	-50.1	16.9	0.00e+00	0	43	0	816840704	66	4908
2026-01-28 03:56:06.97	312.23	23.41	-48.2	-50.5	16.6	0.00e+00	0	43	0	818937856	67	4832
2026-01-28 03:56:07.97	311.98	23.35	-48.2	-50.6	16.5	0.00e+00	0	43	0	819986432	67	4890
2026-01-28 03:56:08.98	311.73	23.28	-47.9	-50.1	16.9	0.00e+00	0	43	0	822083584	67	4639
2026-01-28 03:56:09.99	311.49	23.20	-47.7	-49.8	17.3	0.00e+00	0	43	0	824180736	67	4456
2026-01-28 03:56:11.00	311.24	23.13	-47.3	-49.2	17.8	0.00e+00	0	43	0	826277888	66	4428
2026-01-28 03:56:12.01	311.00	23.06	-46.9	-48.7	18.3	0.00e+00	0	43	0	828375040	65	4394
2026-01-28 03:56:13.02	310.75	22.99	-46.6	-48.3	18.7	0.00e+00	0	43	0	829423616	65	4232
2026-01-28 03:56:14.02	310.51	22.92	-46.3	-47.9	19.1	0.00e+00	0	43	0	831520768	64	4291
2026-01-28 03:56:15.02	310.27	22.85	-46.6	-48.3	18.7	0.00e+00	0	43	0	833617920	64	4449
2026-01-28 03:56:16.03	310.03	22.78	-46.7	-48.5	18.6	0.00e+00	0	43	0	835715072	64	4556
2026-01-28 03:56:17.04	309.80	22.70	-46.9	-48.6	18.4	0.00e+00	0	43	0	837812224	64	4647
2026-01-28 03:56:18.05	309.56	22.63	-47.2	-49.1	17.9	0.00e+00	0	43	0	838860800	64	4871
2026-01-28 03:56:19.05	309.32	22.56	-47.4	-49.4	17.6	0.00e+00	0	43	0	840957952	65	4794
2026-01-28 03:56:20.06	309.09	22.48	-47.4	-49.3	17.6	0.00e+00	0	43	0	843055104	65	4755
2026-01-28 03:56:21.07	308.85	22.41	-47.3	-49.2	17.8	0.00e+00	0	43	0	845152256	65	4655
2026-01-28 03:56:22.08	308.62	22.33	-47.2	-49.1	17.9	0.00e+00	0	43	0	847249408	65	4638
2026-01-28 03:56:23.09	308.39	22.26	-46.9	-48.6	18.4	0.00e+00	0	43	0	848297984	65	4378
2026-01-28 03:56:24.10	308.16	22.18	-46.6	-48.3	18.8	0.00e+00	0	43	0	850395136	65	4201
2026-01-28 03:56:25.11	307.93	22.11	-46.2	-47.7	19.2	0.00e+00	0	43	0	852492288	64	4192
2026-01-28 03:56:26.11	307.70	22.03	-46.0	-47.5	19.4	0.00e+00	0	43	0	854589440	64	4088
2026-01-28 03:56:27.12	307.48	21.96	-46.0	-47.5	19.5	0.00e+00	0	43	0	856686592	63	4305
2026-01-28 03:56:28.13	307.25	21.88	-46.2	-47.8	19.3	0.00e+00	0	43	0	857735168	63	4449
2026-01-28 03:56:29.13	307.03	21.81	-46.4	-48.0	19.1	0.00e+00	0	43	0	859832320	63	4561
2026-01-28 03:56:30.14	306.80	21.73	-46.5	-48.1	19.0	0.00e+00	0	43	0	861929472	63	4615
2026-01-28 03:56:31.15	306.58	21.65	-46.5	-48.2	18.9	0.00e+00	0	43	0	864026624	63	4655
2026-01-28 03:56:32.16	306.36	21.57	-46.5	-48.1	18.9	0.00e+00	0	43	0	866123776	63	4624
2026-01-28 03:56:33.17	306.14	21.50	-46.4	-48.0	19.0	0.00e+00	0	43	0	867172352	63	4572
2026-01-28 03:56:34.17	305.92	21.42	-46.3	-47.9	19.1	0.00e+00	0	43	0	869269504	63	4499
2026-01-28 03:56:35.18	305.70	21.34	-46.2	-47.7	19.2	0.00e+00	0	43	0	871366656	63	4419
2026-01-28 03:56:36.19	305.48	21.26	-46.4	-47.9	19.0	0.00e+00	0	43	0	873463808	63	4543
2026-01-28 03:56:37.20	305.27	21.19	-46.2	-47.8	19.2	0.00e+00	0	43	0	875560960	63	4462
2026-01-28 03:56:38.21	305.05	21.11	-46.1	-47.6	19.4	0.00e+00	0	43	0	876609536	63	4354
2026-01-28 03:56:39.21	304.84	21.03	-46.0	-47.5	19.5	0.00e+00	0	43	0	878706688	63	4305
2026-01-28 03:56:40.22	304.63	20.95	-46.0	-47.5	19.4	0.00e+00	0	43	0	880803840	63	4314
2026-01-28 03:56:41.23	304.42	20.87	-46.0	-47.5	19.5	0.00e+00	0	43	0	882900992	63	4310
2026-01-28 03:56:42.24	304.20	20.79	-46.1	-47.7	19.3	0.00e+00	0	43	0	884998144	63	4405
2026-01-28 03:56:43.25	303.99	20.71	-46.4	-48.1	18.9	0.00e+00	0	43	0	886046720	63	4610
2026-01-28 03:56:44.26	303.79	20.64	-46.3	-47.9	19.1	0.00e+00	0	43	0	888143872	63	4527
2026-01-28 03:56:45.27	303.58	20.56	-46.3	-47.9	19.1	0.00e+00	0	43	0	890241024	63	4541
2026-01-28 03:56:46.28	303.37	20.48	-46.4	-48.1	19.0	0.00e+00	0	43	0	892338176	63	4617
2026-01-28 03:56:47.28	303.17	20.40	-46.6	-48.3	18.7	0.00e+00	0	43	0	894435328	63	4725
2026-01-28 03:56:48.29	302.96	20.32	-46.8	-48.5	18.4	0.00e+00	0	43	0	895483904	64	4588
2026-01-28 03:56:49.30	302.76	20.24	-47.0	-48.8	18.1	0.00e+00	0	43	0	897581056	64	4753
2026-01-28 03:56:50.31	302.56	20.16	-46.9	-48.8	18.2	0.00e+00	0	43	0	899678208	64	4721
2026-01-28 03:56:51.32	302.36	20.08	-46.7	-48.5	18.5	0.00e+00	0	43	0	901775360	64	4564
2026-01-28 03:56:52.33	302.16	20.00	-46.6	-48.3	18.7	0.00e+00	0	43	0	903872512	64	4447
2026-01-28 03:56:53.34	301.96	19.92	-46.3	-47.9	19.0	0.00e+00	0	43	0	904921088	64	4250
2026-01-28 03:56:54.34	301.76	19.84	-46.3	-47.9	19.0	0.00e+00	0	43	0	907018240	64	4257
2026-01-28 03:56:55.35	301.57	19.75	-46.4	-48.0	18.8	0.00e+00	0	43	0	909115392	64	4312
2026-01-28 03:56:56.36	301.37	19.67	-46.6	-48.3	18.6	0.00e+00	0	43	0	911212544	64	4474
2026-01-28 03:56:57.37	301.18	19.59	-46.7	-48.4	18.5	0.00e+00	0	43	0	913309696	64	4534
2026-01-28 03:56:58.37	300.98	19.51	-46.5	-48.2	18.8	0.00e+00	0	43	0	914358272	64	4396
2026-01-28 03:56:59.38	300.79	19.43	-46.3	-47.8	19.1	0.00e+00	0	43	0	916455424	64	4233
2026-01-28 03:57:00.39	300.60	19.35	-46.0	-47.5	19.5	0.00e+00	0	43	0	918552576	63	4296
2026-01-28 03:57:01.40	300.41	19.27	-45.6	-47.0	20.0	0.00e+00	0	43	0	920649728	63	4084
2026-01-28 03:57:02.41	300.22	19.19	-45.5	-46.9	20.1	0.00e+00	0	43	0	922746880	63	4006
2026-01-28 03:57:03.41	300.03	19.11	-45.5	-46.8	20.1	0.00e+00	0	43	0	924844032	62	4228
2026-01-28 03:57:04.42	299.85	19.03	-45.4	-46.8	20.1	0.00e+00	0	43	0	925892608	62	4220
2026-01-28 03:57:05.42	299.66	18.95	-45.5	-46.9	20.0	0.00e+00	0	43	0	927989760	62	4268
2026-01-28 03:57:06.43	299.47	18.86	-45.6	-47.0	20.0	0.00e+00	0	43	0	930086912	62	4311
2026-01-28 03:57:07.44	299.29	18.78	-45.7	-47.0	19.9	0.00e+00	0	43	0	932184064	62	4340
2026-01-28 03:57:08.45	299.11	18.70	-45.8	-47.2	19.8	0.00e+00	0	43	0	933232640	62	4404
2026-01-28 03:57:09.45	298.93	18.62	-45.9	-47.3	19.6	0.00e+00	0	43	0	935329792	62	4484
2026-01-28 03:57:10.46	298.74	18.54	-46.1	-47.6	19.5	0.00e+00	0	43	0	937426944	62	4607
2026-01-28 03:57:11.47	298.56	18.46	-46.2	-47.7	19.3	0.00e+00	0	43	0	939524096	62	4678
2026-01-28 03:57:12.48	298.38	18.37	-46.2	-47.7	19.3	0.00e+00	0	43	0	941621248	63	4439
2026-01-28 03:57:13.49	298.21	18.29	-46.0	-47.5	19.6	0.00e+00	0	43	0	942669824	63	4296
2026-01-28 03:57:14.49	298.03	18.21	-45.9	-47.3	19.7	0.00e+00	0	43	0	944766976	63	4212
2026-01-28 03:57:15.50	297.85	18.13	-45.7	-47.2	19.8	0.00e+00	0	43	0	946864128	63	4151
2026-01-28 03:57:16.50	297.68	18.05	-45.7	-47.1	19.9	0.00e+00	0	43	0	948961280	63	4123
2026-01-28 03:57:17.51	297.50	17.97	-45.7	-47.1	19.9	0.00e+00	0	43	0	951058432	63	4130
2026-01-28 03:57:18.52	297.33	17.89	-45.9	-47.3	19.7	0.00e+00	0	43	0	953155584	63	4236
2026-01-28 03:57:19.53	297.16	17.80	-46.1	-47.6	19.5	0.00e+00	0	43	0	954204160	63	4371
2026-01-28 03:57:20.53	296.99	17.72	-46.1	-47.6	19.5	0.00e+00	0	43	0	956301312	63	4342
2026-01-28 03:57:21.54	296.82	17.64	-46.2	-47.7	19.3	0.00e+00	0	43	0	958398464	63	4428
2026-01-28 03:57:22.55	296.65	17.56	-46.3	-47.8	19.3	0.00e+00	0	43	0	960495616	63	4478
2026-01-28 03:57:23.56	296.48	17.48	-46.3	-47.9	19.2	0.00e+00	0	43	0	961544192	63	4521
2026-01-28 03:57:24.56	296.31	17.40	-46.2	-47.7	19.3	0.00e+00	0	43	0	963641344	63	4424
2026-01-28 03:57:25.57	296.14	17.31	-46.4	-47.9	19.2	0.00e+00	0	43	0	965738496	63	4519
2026-01-28 03:57:26.57	295.98	17.23	-46.4	-48.0	19.1	0.00e+00	0	43	0	967835648	63	4567
2026-01-28 03:57:27.58	295.81	17.15	-46.2	-47.7	19.3	0.00e+00	0	43	0	969932800	63	4412
2026-01-28 03:57:28.59	295.65	17.07	-46.1	-47.6	19.4	0.00e+00	0	43	0	970981376	63	4349
2026-01-28 03:57:29.60	295.48	16.99	-45.8	-47.2	19.8	0.00e+00	0	43	0	973078528	63	4162
2026-01-28 03:57:30.61	295.32	16.91	-45.6	-47.0	20.0	0.00e+00	0	43	0	975175680	63	4089
2026-01-28 03:57:31.62	295.16	16.83	-45.5	-46.8	20.1	0.00e+00	0	43	0	977272832	62	4224
2026-01-28 03:57:32.63	295.00	16.74	-45.5	-46.9	20.0	0.00e+00	0	43	0	979369984	62	4266
2026-01-28 03:57:33.63	294.84	16.66	-45.6	-47.0	20.0	0.00e+00	0	43	0	981467136	62	4295
2026-01-28 03:57:34.64	294.68	16.58	-45.9	-47.4	19.6	0.00e+00	0	43	0	982515712	62	4498
2026-01-28 03:57:35.65	294.52	16.50	-46.2	-47.8	19.3	0.00e+00	0	43	0	984612864	63	4451
2026-01-28 03:57:36.65	294.37	16.42	-46.6	-48.2	18.9	0.00e+00	0	43	0	986710016	63	4676
2026-01-28 03:57:37.66	294.21	16.34	-46.7	-48.4	18.5	0.00e+00	0	43	0	988807168	64	4539
2026-01-28 03:57:38.67	294.05	16.26	-46.8	-48.5	18.5	0.00e+00	0	43	0	989855744	64	4568
2026-01-28 03:57:39.68	293.90	16.18	-46.8	-48.6	18.4	0.00e+00	0	43	0	991952896	64	4607
2026-01-28 03:57:40.68	293.75	16.10	-46.6	-48.2	18.7	0.00e+00	0	43	0	994050048	64	4435
2026-01-28 03:57:41.69	293.59	16.01	-46.6	-48.2	18.8	0.00e+00	0	43	0	996147200	64	4424
2026-01-28 03:57:42.70	293.44	15.93	-46.4	-48.0	18.9	0.00e+00	0	43	0	998244352	64	4321
2026-01-28 03:57:43.71	293.29	15.85	-46.3	-47.8	19.1	0.00e+00	0	43	0	1000341504	64	4234
2026-01-28 03:57:44.71	293.14	15.77	-46.1	-47.7	19.2	0.00e+00	0	43	0	1001390080	64	4154
2026-01-28 03:57:45.72	292.99	15.69	-46.3	-47.9	19.1	0.00e+00	0	43	0	1003487232	64	4249
2026-01-28 03:57:46.73	292.84	15.61	-46.3	-47.9	19.0	0.00e+00	0	43	0	1005584384	64	4246
2026-01-28 03:57:47.73	292.69	15.53	-46.2	-47.8	19.1	0.00e+00	0	43	0	1007681536	64	4214
2026-01-28 03:57:48.74	292.55	15.45	-46.3	-47.9	19.0	0.00e+00	0	43	0	1009778688	64	4264
2026-01-28 03:57:49.75	292.40	15.37	-46.3	-47.8	19.1	0.00e+00	0	43	0	1010827264	64	4223
2026-01-28 03:57:50.75	292.26	15.29	-46.4	-47.9	19.0	0.00e+00	0	43	0	1012924416	64	4280
2026-01-28 03:57:51.76	292.11	15.21	-46.5	-48.1	18.8	0.00e+00	0	43	0	1015021568	64	4384
2026-01-28 03:57:52.77	291.97	15.13	-46.9	-48.7	18.3	0.00e+00	0	43	0	1017118720	64	4663
2026-01-28 03:57:53.78	291.82	15.05	-47.0	-48.7	18.2	0.00e+00	0	43	0	1018167296	64	4705
2026-01-28 03:57:54.79	291.68	14.97	-47.1	-48.9	18.1	0.00e+00	0	43	0	1020264448	65	4531
2026-01-28 03:57:55.79	291.54	14.89	-47.5	-49.5	17.5	0.00e+00	0	43	0	1022361600	65	4836
2026-01-28 03:57:56.80	291.40	14.81	-47.4	-49.3	17.7	0.00e+00	0	43	0	1024458752	65	4733
2026-01-28 03:57:57.81	291.26	14.73	-47.6	-49.5	17.5	0.00e+00	0	43	0	1026555904	65	4850
2026-01-28 03:57:58.81	291.12	14.65	-47.2	-49.1	18.0	0.00e+00	0	43	0	1028653056	65	4601
2026-01-28 03:57:59.82	290.98	14.57	-46.9	-48.6	18.3	0.00e+00	0	43	0	1029701632	65	4365
2026-01-28 03:58:00.83	290.84	14.49	-46.5	-48.1	18.8	0.00e+00	0	43	0	1031798784	65	4133
2026-01-28 03:58:01.84	290.71	14.41	-46.4	-48.0	19.0	0.00e+00	0	43	0	1033895936	64	4295
2026-01-28 03:58:02.85	290.57	14.33	-46.0	-47.5	19.4	0.00e+00	0	43	0	1035993088	64	4085
2026-01-28 03:58:03.86	290.43	14.25	-46.3	-47.9	19.1	0.00e+00	0	43	0	1038090240	63	4502
2026-01-28 03:58:04.87	290.30	14.17	-46.4	-47.9	19.1	0.00e+00	0	43	0	1039138816	63	4514
2026-01-28 03:58:05.87	290.17	14.09	-46.1	-47.6	19.3	0.00e+00	0	43	0	1041235968	63	4376
2026-01-28 03:58:06.88	290.03	14.01	-46.5	-48.0	18.9	0.00e+00	0	43	0	1043333120	63	4594
2026-01-28 03:58:07.89	289.90	13.94	-46.6	-48.2	18.8	0.00e+00	0	43	0	1045430272	63	4684
2026-01-28 03:58:08.90	289.77	13.86	-46.6	-48.3	18.7	0.00e+00	0	43	0	1047527424	64	4443
2026-01-28 03:58:09.91	289.64	13.78	-46.6	-48.2	18.7	0.00e+00	0	43	0	1048576000	64	4438
2026-01-28 03:58:10.91	289.51	13.70	-46.6	-48.3	18.6	0.00e+00	0	43	0	1050673152	64	4464
2026-01-28 03:58:11.92	289.38	13.62	-46.6	-48.2	18.7	0.00e+00	0	43	0	1052770304	64	4404
2026-01-28 03:58:12.93	289.25	13.54	-46.5	-48.1	18.8	0.00e+00	0	43	0	1054867456	64	4359
2026-01-28 03:58:13.94	289.12	13.46	-46.5	-48.1	18.8	0.00e+00	0	43	0	1056964608	64	4373
2026-01-28 03:58:14.95	288.99	13.39	-46.5	-48.1	18.8	0.00e+00	0	43	0	1058013184	64	4360
2026-01-28 03:58:15.96	288.86	13.31	-46.5	-48.2	18.7	0.00e+00	0	43	0	1060110336	64	4398
2026-01-28 03:58:16.96	288.74	13.23	-46.5	-48.1	18.8	0.00e+00	0	43	0	1062207488	64	4377
2026-01-28 03:58:17.97	288.61	13.15	-46.7	-48.4	18.5	0.00e+00	0	43	0	1064304640	64	4504
2026-01-28 03:58:18.98	288.49	13.08	-46.7	-48.4	18.4	0.00e+00	0	43	0	1066401792	64	4513
2026-01-28 03:58:19.99	288.36	13.00	-46.9	-48.7	18.2	0.00e+00	0	43	0	1067450368	64	4663
2026-01-28 03:58:21.00	288.24	12.92	-46.9	-48.6	18.2	0.00e+00	0	43	0	1069547520	64	4640
2026-01-28 03:58:22.01	288.11	12.84	-46.8	-48.5	18.3	0.00e+00	0	43	0	1071644672	64	4597
2026-01-28 03:58:23.02	287.99	12.76	-46.9	-48.7	18.1	0.00e+00	0	43	0	1073741824	64	4675
2026-01-28 03:58:24.03	287.87	12.69	-47.0	-48.8	18.0	0.00e+00	0	43	0	1075838976	64	4745
2026-01-28 03:58:25.03	287.75	12.61	-47.0	-48.8	18.0	0.00e+00	0	43	0	1076887552	64	4726
2026-01-28 03:58:26.04	287.63	12.53	-47.2	-49.0	17.8	0.00e+00	0	43	0	1078984704	64	4846
2026-01-28 03:58:27.05	287.51	12.46	-47.4	-49.4	17.5	0.00e+00	0	43	0	1081081856	65	4774
2026-01-28 03:58:28.05	287.39	12.38	-47.4	-49.4	17.4	0.00e+00	0	43	0	1083179008	65	4767
2026-01-28 03:58:29.06	287.27	12.30	-47.6	-49.6	17.2	0.00e+00	0	43	0	1085276160	65	4920
2026-01-28 03:58:30.07	287.15	12.23	-48.0	-50.2	16.7	0.00e+00	0	43	0	1086324736	66	4937
2026-01-28 03:58:31.08	287.04	12.15	-47.9	-50.0	16.9	0.00e+00	0	43	0	1088421888	66	4831
2026-01-28 03:58:32.09	286.92	12.08	-47.9	-50.1	16.8	0.00e+00	0	43	0	1090519040	66	4902
2026-01-28 03:58:33.09	286.80	12.00	-48.0	-50.2	16.7	0.00e+00	0	43	0	1092616192	66	4948
2026-01-28 03:58:34.10	286.69	11.92	-47.9	-50.1	16.7	0.00e+00	0	43	0	1094713344	66	4897
2026-01-28 03:58:35.11	286.57	11.85	-47.8	-49.9	17.0	0.00e+00	0	43	0	1096810496	66	4767
2026-01-28 03:58:36.12	286.46	11.77	-47.8	-49.8	17.0	0.00e+00	0	43	0	1097859072	66	4747
2026-01-28 03:58:37.12	286.35	11.70	-47.7	-49.8	17.0	0.00e+00	0	43	0	1099956224	66	4728
2026-01-28 03:58:38.13	286.23	11.62	-47.5	-49.5	17.3	0.00e+00	0	43	0	1102053376	66	4564
2026-01-28 03:58:39.14	286.12	11.55	-47.5	-49.4	17.3	0.00e+00	0	43	0	1104150528	66	4531
2026-01-28 03:58:40.14	286.01	11.47	-47.4	-49.3	17.4	0.00e+00	0	43	0	1105199104	66	4466
2026-01-28 03:58:41.15	285.90	11.40	-47.5	-49.4	17.3	0.00e+00	0	43	0	1107296256	66	4538
2026-01-28 03:58:42.16	285.79	11.32	-47.6	-49.6	17.1	0.00e+00	0	43	0	1109393408	66	4646
2026-01-28 03:58:43.17	285.68	11.25	-47.7	-49.8	16.9	0.00e+00	0	43	0	1111490560	66	4727
2026-01-28 03:58:44.18	285.57	11.17	-48.0	-50.2	16.6	0.00e+00	0	43	0	1113587712	66	4934
2026-01-28 03:58:45.19	285.46	11.10	-48.1	-50.3	16.5	0.00e+00	0	43	0	1114636288	66	5018
2026-01-28 03:58:46.20	285.35	11.02	-48.4	-50.7	16.0	0.00e+00	0	43	0	1116733440	67	4971
2026-01-28 03:58:47.20	285.24	10.95	-48.5	-50.9	15.8	0.00e+00	0	43	0	1118830592	67	5094
2026-01-28 03:58:48.21	285.14	10.87	-48.6	-51.2	15.6	0.00e+00	0	43	0	1120927744	67	5244
2026-01-28 03:58:49.22	285.03	10.80	-48.6	-51.1	15.7	0.00e+00	0	43	0	1123024896	68	4913
2026-01-28 03:58:50.23	284.92	10.72	-48.7	-51.2	15.7	0.00e+00	0	43	0	1125122048	68	4946
2026-01-28 03:58:51.23	284.82	10.65	-48.7	-51.2	15.6	0.00e+00	0	43	0	1126170624	68	4946
2026-01-28 03:58:52.24	284.71	10.58	-48.5	-51.0	15.8	0.00e+00	0	43	0	1128267776	68	4840
2026-01-28 03:58:53.25	284.61	10.50	-48.4	-50.8	16.0	0.00e+00	0	43	0	1130364928	68	4755
2026-01-28 03:58:54.26	284.50	10.43	-48.3	-50.6	16.2	0.00e+00	0	43	0	1132462080	68	4614
2026-01-28 03:58:55.27	284.40	10.36	-48.2	-50.5	16.3	0.00e+00	0	43	0	1133510656	68	4584
2026-01-28 03:58:56.27	284.30	10.28	-48.1	-50.3	16.5	0.00e+00	0	43	0	1135607808	68	4454
2026-01-28 03:58:57.28	284.20	10.21	-48.0	-50.2	16.5	0.00e+00	0	43	0	1137704960	67	4658
2026-01-28 03:58:58.29	284.09	10.14	-48.1	-50.3	16.3	0.00e+00	0	43	0	1139802112	67	4745
2026-01-28 03:58:59.29	283.99	10.07	-48.0	-50.2	16.5	0.00e+00	0	43	0	1141899264	67	4665
2026-01-28 03:59:00.30	283.89	9.99	-48.1	-50.4	16.3	0.00e+00	0	43	0	1143996416	67	4772
2026-01-28 03:59:01.31	283.79	9.92	-48.3	-50.7	15.9	0.00e+00	0	43	0	1145044992	67	4945
2026-01-28 03:59:02.32	283.69	9.85	-48.5	-51.1	15.6	0.00e+00	0	43	0	1147142144	67	5169
2026-01-28 03:59:03.32	283.59	9.78	-48.6	-51.1	15.5	0.00e+00	0	43	0	1149239296	67	5208
2026-01-28 03:59:04.33	283.50	9.70	-48.7	-51.3	15.3	7.00e-07	0	43	0	1151336448	67	5338
2026-01-28 03:59:05.34	283.40	9.63	-49.1	-52.0	14.7	7.00e-07	0	43	0	1153433600	68	5463
2026-01-28 03:59:06.35	283.30	9.56	-49.3	-52.3	14.4	0.00e+00	0	43	0	1154482176	69	5313
2026-01-28 03:59:07.36	283.20	9.49	-49.5	-52.6	14.1	1.50e-06	0	43	0	1156579328	69	5502
2026-01-28 03:59:08.36	283.11	9.42	-49.6	-52.8	13.9	3.80e-06	0	43	0	1158676480	69	5630
2026-01-28 03:59:09.37	283.01	9.34	-49.7	-53.1	13.6	2.20e-06	0	43	0	1160773632	69	5793
2026-01-28 03:59:10.38	282.91	9.27	-49.8	-53.3	13.4	1.29e-05	0	43	0	1161822208	70	5608
2026-01-28 03:59:11.39	282.82	9.20	-50.0	-53.6	13.1	1.37e-05	0	43	0	1163919360	70	5819
2026-01-28 03:59:12.39	282.72	9.13	-50.0	-53.6	13.0	5.49e-05	0	43	0	1166016512	70	5853
2026-01-28 03:59:13.40	282.63	9.06	-50.1	-53.8	12.8	4.34e-05	0	43	0	1168113664	70	5957
2026-01-28 03:59:14.41	282.54	8.99	-50.1	-53.9	12.7	5.11e-05	0	43	0	1170210816	70	6057
2026-01-28 03:59:15.42	282.44	8.92	-50.1	-53.9	12.7	9.53e-05	0	43	0	1172307968	71	5688
2026-01-28 03:59:16.42	282.35	8.85	-50.3	-54.2	12.4	7.40e-05	0	43	0	1173356544	71	5881
2026-01-28 03:59:17.43	282.26	8.78	-50.3	-54.3	12.3	1.23e-04	0	43	0	1175453696	71	5949
2026-01-28 03:59:18.44	282.16	8.70	-50.2	-54.2	12.4	8.39e-05	0	43	0	1177550848	71	5867
2026-01-28 03:59:19.44	282.07	8.64	-50.2	-54.0	12.6	9.61e-05	0	43	0	1179648000	71	5784
2026-01-28 03:59:20.45	281.98	8.56	-50.2	-54.1	12.5	1.24e-04	0	43	0	1181745152	71	5806
2026-01-28 03:59:21.46	281.89	8.49	-50.2	-54.1	12.4	1.20e-04	0	43	0	1182793728	71	5838
2026-01-28 03:59:22.46	281.80	8.43	-50.3	-54.3	12.3	1.49e-04	0	43	0	1184890880	71	5929
2026-01-28 03:59:23.47	281.71	8.36	-50.3	-54.3	12.3	1.46e-04	0	43	0	1186988032	71	5935
2026-01-28 03:59:24.48	281.62	8.29	-50.3	-54.2	12.3	1.66e-04	0	43	0	1189085184	71	5922
2026-01-28 03:59:25.49	281.53	8.22	-50.3	-54.2	12.4	1.54e-04	0	43	0	1190133760	71	5883
2026-01-28 03:59:26.50	281.45	8.15	-50.3	-54.3	12.2	2.63e-04	0	43	0	1192230912	71	5975
2026-01-28 03:59:27.50	281.36	8.08	-50.4	-54.5	12.0	2.92e-04	0	43	0	1194328064	71	6112
2026-01-28 03:59:28.51	281.27	8.01	-50.5	-54.9	11.6	4.81e-04	0	43	0	1196425216	71	6354
2026-01-28 03:59:29.52	281.18	7.94	-50.6	-55.0	11.5	6.94e-04	0	43	0	1198522368	71	6422
2026-01-28 03:59:30.53	281.10	7.87	-50.6	-55.3	11.0	1.18e-03	0	43	0	1200619520	72	6307
2026-01-28 03:59:31.53	281.01	7.80	-50.7	-55.4	11.0	1.71e-03	0	43	0	1201668096	72	6353
2026-01-28 03:59:32.54	280.92	7.73	-50.8	-55.6	10.8	2.83e-03	0	43	0	1203765248	72	6514
2026-01-28 03:59:33.55	280.84	7.66	-50.9	-55.9	10.5	3.28e-03	0	43	0	1205862400	72	6737
2026-01-28 03:59:34.56	280.75	7.59	-50.9	-56.0	10.4	3.95e-03	0	43	0	1207959552	72	6833
2026-01-28 03:59:35.56	280.67	7.53	-50.9	-55.9	10.4	4.68e-03	0	43	0	1210056704	72	6797
2026-01-28 03:59:36.57	280.59	7.46	-51.0	-56.3	10.0	5.29e-03	0	43	0	1211105280	72	7062
2026-01-28 03:59:37.58	280.50	7.39	-51.0	-56.3	10.0	6.21e-03	0	43	0	1213202432	72	7065
2026-01-28 03:59:38.59	280.42	7.32	-50.8	-55.9	10.4	4.65e-03	0	43	0	1215299584	72	6786
