passes_logs/2026/01/28/R3.2S_Murmansk/R3.2S_Murmansk__20260128_084505_SUOMI_NPP_rec.log

#Pass ID: 20260128_084505_SUOMI NPP
#Satellite: SUOMI NPP
#Configuration: NPP
#almurnet v.1.7.20251203
#Start time: 2026-01-28 08:45:06

#Version: 2.2.20231116
#Station: R3.2S_Murmansk
#Location: 33.079688 lon 68.888172 lat
#TLE: 1 37849U 11061A   26027.86188320  .00000172  00000+0  10275-3 0  9990
#TLE: 2 37849  98.7823 329.8005 0002088  41.4184 318.7150 14.19530883738530

#Time	Az	El	Level	Level2	SNR	BER	BlckErr	Temp	State	Recorded	gain1	gain2
2026-01-28 08:45:06.64	131.59	2.10	-47.5	-62.4	3.8	1.49e+00	0	41	0	0	65	21361
2026-01-28 08:45:07.65	131.57	2.17	-47.5	-62.4	3.8	1.49e+00	0	40	104	0	65	21392
2026-01-28 08:45:08.65	131.55	2.23	-47.5	-62.4	3.8	1.49e+00	0	41	104	0	65	21288
2026-01-28 08:45:09.66	131.53	2.30	-47.5	-62.4	3.8	1.49e+00	0	41	104	0	65	21316
2026-01-28 08:45:10.67	131.51	2.36	-47.5	-62.4	3.8	1.49e+00	0	41	104	0	65	21348
2026-01-28 08:45:11.68	131.49	2.43	-47.5	-62.4	3.8	1.49e+00	0	41	104	0	65	21341
2026-01-28 08:45:12.69	131.48	2.49	-47.5	-62.4	3.8	1.49e+00	0	41	104	0	65	21345
2026-01-28 08:45:13.70	131.46	2.56	-47.5	-62.4	3.8	1.49e+00	0	41	104	0	65	21399
2026-01-28 08:45:14.70	131.44	2.62	-47.5	-62.4	3.8	1.49e+00	0	41	104	0	65	21308
2026-01-28 08:45:15.71	131.42	2.69	-47.5	-62.4	3.8	1.49e+00	0	41	104	0	65	21361
2026-01-28 08:45:16.72	131.40	2.75	-47.5	-62.3	3.8	1.49e+00	0	41	104	0	65	21257
2026-01-28 08:45:17.73	131.38	2.82	-47.5	-62.4	3.8	1.49e+00	0	41	104	0	65	21341
2026-01-28 08:45:18.74	131.36	2.89	-47.5	-62.4	3.8	1.49e+00	0	41	104	0	65	21304
2026-01-28 08:45:19.75	131.34	2.95	-47.5	-62.4	3.8	1.49e+00	0	41	104	0	65	21304
2026-01-28 08:45:20.76	131.32	3.02	-47.5	-62.4	3.8	1.49e+00	0	41	104	0	65	21327
2026-01-28 08:45:21.76	131.30	3.08	-47.5	-62.4	3.8	1.49e+00	0	41	104	0	65	21357
2026-01-28 08:45:22.77	131.28	3.15	-47.5	-62.4	3.8	1.49e+00	0	41	104	0	65	21299
2026-01-28 08:45:23.78	131.25	3.22	-47.5	-62.4	3.8	1.49e+00	0	41	104	0	65	21375
2026-01-28 08:45:24.79	131.23	3.29	-47.5	-62.4	3.8	1.49e+00	0	41	104	0	65	21325
2026-01-28 08:45:25.80	131.21	3.35	-47.5	-62.4	3.8	1.49e+00	0	41	104	0	65	21366
2026-01-28 08:45:26.81	131.19	3.42	-47.5	-62.4	3.8	1.49e+00	0	41	104	0	65	21380
2026-01-28 08:45:27.81	131.17	3.49	-47.5	-62.4	3.8	1.49e+00	0	41	104	0	65	21356
2026-01-28 08:45:28.82	131.15	3.55	-47.5	-62.4	3.8	1.49e+00	0	41	104	0	65	21317
2026-01-28 08:45:29.83	131.13	3.62	-47.5	-62.4	3.8	1.49e+00	0	41	104	0	65	21350
2026-01-28 08:45:30.84	131.11	3.69	-47.5	-62.4	3.8	1.49e+00	0	41	104	0	65	21369
2026-01-28 08:45:31.84	131.09	3.76	-47.5	-62.4	3.8	1.49e+00	0	41	104	0	65	21312
2026-01-28 08:45:32.85	131.06	3.83	-47.5	-62.4	3.8	1.49e+00	0	42	104	0	65	21357
2026-01-28 08:45:33.86	131.04	3.90	-47.5	-62.4	3.8	1.49e+00	0	41	104	0	65	21349
2026-01-28 08:45:34.87	131.02	3.96	-47.5	-62.4	3.8	1.49e+00	0	42	104	0	65	21318
2026-01-28 08:45:35.87	131.00	4.03	-47.5	-62.4	3.8	1.49e+00	0	42	104	0	65	21332
2026-01-28 08:45:36.88	130.98	4.10	-47.5	-62.4	3.8	1.49e+00	0	42	104	0	65	21283
2026-01-28 08:45:37.89	130.96	4.17	-47.5	-62.4	3.8	1.49e+00	0	42	104	0	65	21347
2026-01-28 08:45:38.90	130.93	4.24	-47.5	-62.4	3.8	1.49e+00	0	42	104	0	65	21407
2026-01-28 08:45:39.91	130.91	4.31	-47.5	-62.4	3.8	1.49e+00	0	42	104	0	65	21364
2026-01-28 08:45:40.91	130.89	4.38	-47.5	-62.4	3.8	1.49e+00	0	41	104	0	65	21344
2026-01-28 08:45:41.92	130.87	4.45	-47.5	-62.4	3.8	1.49e+00	0	41	104	0	65	21320
2026-01-28 08:45:42.93	130.84	4.52	-47.5	-62.4	3.8	1.49e+00	0	42	104	0	65	21319
2026-01-28 08:45:43.94	130.82	4.59	-47.5	-62.4	3.8	1.49e+00	0	42	104	0	65	21357
2026-01-28 08:45:44.94	130.80	4.66	-47.5	-62.4	3.8	1.49e+00	0	42	104	0	65	21400
2026-01-28 08:45:45.95	130.77	4.73	-47.5	-62.4	3.8	1.49e+00	0	42	104	0	65	21338
2026-01-28 08:45:46.96	130.75	4.80	-47.5	-62.4	3.8	1.49e+00	0	42	104	0	65	21309
2026-01-28 08:45:47.97	130.73	4.87	-47.5	-62.4	3.8	1.49e+00	0	42	104	0	65	21376
2026-01-28 08:45:48.97	130.70	4.94	-47.5	-62.4	3.8	1.49e+00	0	42	104	0	65	21350
2026-01-28 08:45:49.98	130.68	5.01	-47.5	-62.4	3.8	1.49e+00	0	42	104	0	65	21338
2026-01-28 08:45:50.99	130.66	5.09	-47.5	-62.4	3.8	1.49e+00	0	42	104	0	65	21328
2026-01-28 08:45:52.00	130.63	5.16	-47.5	-62.4	3.8	1.49e+00	0	42	104	0	65	21311
2026-01-28 08:45:53.01	130.61	5.23	-47.5	-62.4	3.8	1.49e+00	0	42	104	0	65	21362
2026-01-28 08:45:54.02	130.58	5.30	-47.5	-62.4	3.8	1.49e+00	0	42	104	0	65	21343
2026-01-28 08:45:55.03	130.56	5.37	-47.5	-62.4	3.8	1.49e+00	0	42	104	0	65	21416
2026-01-28 08:45:56.03	130.53	5.45	-47.5	-62.4	3.8	1.49e+00	0	42	104	0	65	21337
2026-01-28 08:45:57.04	130.51	5.52	-47.5	-62.4	3.8	1.49e+00	0	42	104	0	65	21330
2026-01-28 08:45:58.05	130.49	5.59	-47.5	-62.4	3.8	1.49e+00	0	42	104	0	65	21323
2026-01-28 08:45:59.06	130.46	5.66	-47.5	-62.4	3.8	1.49e+00	0	42	104	0	65	21281
2026-01-28 08:46:00.07	130.44	5.74	-47.5	-62.4	3.8	1.49e+00	0	42	104	0	65	21317
2026-01-28 08:46:01.08	130.41	5.81	-47.5	-62.4	3.8	1.49e+00	0	42	104	0	65	21318
2026-01-28 08:46:02.09	130.38	5.88	-47.5	-62.4	3.8	1.49e+00	0	42	104	0	65	21403
2026-01-28 08:46:03.09	130.36	5.96	-47.5	-62.4	3.8	1.49e+00	0	42	104	0	65	21333
2026-01-28 08:46:04.10	130.33	6.03	-47.5	-62.4	3.8	1.49e+00	0	42	104	0	65	21348
2026-01-28 08:46:05.11	130.31	6.11	-47.5	-62.4	3.8	1.49e+00	0	42	104	0	65	21322
2026-01-28 08:46:06.11	130.28	6.18	-47.5	-62.4	3.8	1.49e+00	0	42	104	0	65	21307
2026-01-28 08:46:07.12	130.26	6.26	-47.5	-62.4	3.8	1.49e+00	0	42	104	0	65	21344
2026-01-28 08:46:08.13	130.23	6.33	-47.5	-62.4	3.8	1.49e+00	0	42	104	0	65	21340
2026-01-28 08:46:09.14	130.20	6.41	-47.5	-62.4	3.8	1.49e+00	0	42	104	0	65	21365
2026-01-28 08:46:10.14	130.18	6.48	-47.5	-62.4	3.8	1.49e+00	0	42	104	0	65	21357
2026-01-28 08:46:11.15	130.15	6.56	-47.5	-62.4	3.8	1.49e+00	0	42	104	0	65	21383
2026-01-28 08:46:12.16	130.12	6.63	-47.5	-62.4	3.8	1.49e+00	0	42	104	0	65	21366
2026-01-28 08:46:13.17	130.10	6.71	-47.5	-62.4	3.8	1.49e+00	0	42	104	0	65	21306
2026-01-28 08:46:14.18	130.07	6.78	-47.5	-62.4	3.8	1.49e+00	0	42	104	0	65	21370
2026-01-28 08:46:15.19	130.04	6.86	-47.5	-62.4	3.8	1.49e+00	0	42	104	0	65	21319
2026-01-28 08:46:16.20	130.01	6.94	-47.5	-62.4	3.8	1.49e+00	0	42	104	0	65	21326
2026-01-28 08:46:17.21	129.99	7.01	-47.5	-62.4	3.8	1.49e+00	0	42	104	0	65	21353
2026-01-28 08:46:18.22	129.96	7.09	-47.5	-62.4	3.8	1.49e+00	0	42	104	0	65	21333
2026-01-28 08:46:19.23	129.93	7.17	-47.5	-62.4	3.8	1.49e+00	0	42	104	0	65	21302
2026-01-28 08:46:20.23	129.90	7.25	-47.5	-62.4	3.8	1.49e+00	0	42	104	0	65	21331
2026-01-28 08:46:21.24	129.87	7.32	-47.5	-62.4	3.8	1.49e+00	0	42	104	0	65	21340
2026-01-28 08:46:22.25	129.85	7.40	-47.5	-62.4	3.8	1.49e+00	0	42	104	0	65	21307
2026-01-28 08:46:23.26	129.82	7.48	-47.5	-62.4	3.8	1.49e+00	0	42	104	0	65	21302
2026-01-28 08:46:24.27	129.79	7.56	-47.5	-62.4	3.8	1.49e+00	0	42	104	0	65	21353
2026-01-28 08:46:25.28	129.76	7.64	-47.5	-62.3	3.8	1.49e+00	0	42	104	0	65	21248
2026-01-28 08:46:26.29	129.73	7.72	-47.5	-62.4	3.8	1.49e+00	0	42	104	0	65	21401
2026-01-28 08:46:27.30	129.70	7.80	-47.5	-62.4	3.8	1.49e+00	0	42	104	0	65	21321
2026-01-28 08:46:28.31	129.67	7.87	-47.5	-62.4	3.8	1.49e+00	0	42	104	0	65	21354
2026-01-28 08:46:29.32	129.64	7.95	-47.5	-62.4	3.8	1.49e+00	0	42	104	0	65	21315
2026-01-28 08:46:30.33	129.61	8.03	-47.5	-62.4	3.8	1.49e+00	0	42	104	0	65	21382
2026-01-28 08:46:31.33	129.58	8.11	-47.5	-62.4	3.8	1.49e+00	0	42	104	0	65	21379
2026-01-28 08:46:32.34	129.55	8.19	-47.5	-62.4	3.8	1.49e+00	0	42	104	0	65	21387
2026-01-28 08:46:33.35	129.52	8.27	-47.5	-62.4	3.8	1.49e+00	0	42	104	0	65	21349
2026-01-28 08:46:34.36	129.49	8.36	-47.5	-62.4	3.8	1.49e+00	0	42	104	0	65	21363
2026-01-28 08:46:35.37	129.46	8.44	-47.5	-62.4	3.8	1.49e+00	0	42	104	0	65	21335
2026-01-28 08:46:36.37	129.43	8.52	-47.5	-62.4	3.8	1.49e+00	0	42	104	0	65	21367
2026-01-28 08:46:37.38	129.40	8.60	-47.5	-62.4	3.8	1.49e+00	0	42	104	0	65	21345
2026-01-28 08:46:38.39	129.37	8.68	-47.5	-62.4	3.8	1.49e+00	0	42	104	0	65	21351
2026-01-28 08:46:39.40	129.33	8.76	-47.5	-62.4	3.8	1.49e+00	0	42	104	0	65	21345
2026-01-28 08:46:40.41	129.30	8.85	-47.5	-62.4	3.8	1.49e+00	0	42	104	0	65	21343
2026-01-28 08:46:41.41	129.27	8.93	-47.5	-62.4	3.8	1.49e+00	0	42	104	0	65	21314
2026-01-28 08:46:42.42	129.24	9.01	-47.5	-62.4	3.8	1.49e+00	0	42	104	0	65	21350
2026-01-28 08:46:43.43	129.21	9.09	-47.5	-62.4	3.8	1.49e+00	0	42	104	0	65	21366
2026-01-28 08:46:44.43	129.17	9.18	-47.5	-62.4	3.8	1.49e+00	0	42	104	0	65	21359
2026-01-28 08:46:45.44	129.14	9.26	-47.5	-62.4	3.8	1.49e+00	0	42	104	0	65	21336
2026-01-28 08:46:46.45	129.11	9.35	-47.5	-62.4	3.8	1.49e+00	0	42	104	0	65	21370
2026-01-28 08:46:47.46	129.07	9.43	-47.5	-62.4	3.8	1.49e+00	0	42	104	0	65	21323
2026-01-28 08:46:48.47	129.04	9.51	-47.5	-62.4	3.8	1.49e+00	0	42	104	0	65	21324
2026-01-28 08:46:49.48	129.01	9.60	-47.5	-62.4	3.8	1.49e+00	0	42	104	0	65	21312
2026-01-28 08:46:50.49	128.97	9.68	-47.5	-62.4	3.8	1.49e+00	0	42	104	0	65	21335
2026-01-28 08:46:51.49	128.94	9.77	-47.5	-62.4	3.8	1.49e+00	0	42	104	0	65	21370
2026-01-28 08:46:52.50	128.91	9.85	-47.5	-62.4	3.8	1.49e+00	0	42	104	0	65	21387
2026-01-28 08:46:53.51	128.87	9.94	-47.5	-62.4	3.8	1.49e+00	0	42	104	0	65	21330
2026-01-28 08:46:54.51	128.84	10.03	-47.5	-62.4	3.8	1.49e+00	0	42	104	0	65	21386
2026-01-28 08:46:55.52	128.80	10.11	-47.5	-62.4	3.8	1.49e+00	0	42	104	0	65	21299
2026-01-28 08:46:56.53	128.77	10.20	-47.5	-62.4	3.8	1.49e+00	0	42	104	0	65	21296
2026-01-28 08:46:57.54	128.73	10.29	-47.5	-62.4	3.8	1.49e+00	0	42	104	0	65	21354
2026-01-28 08:46:58.54	128.70	10.37	-47.5	-62.4	3.8	1.49e+00	0	42	104	0	65	21368
2026-01-28 08:46:59.55	128.66	10.46	-47.5	-62.4	3.8	1.49e+00	0	42	104	0	65	21307
2026-01-28 08:47:00.56	128.62	10.55	-47.5	-62.4	3.8	1.49e+00	0	42	104	0	65	21354
2026-01-28 08:47:01.57	128.59	10.64	-47.5	-62.4	3.8	1.49e+00	0	42	104	0	65	21353
2026-01-28 08:47:02.57	128.55	10.73	-47.5	-62.4	3.8	1.49e+00	0	42	104	0	65	21329
2026-01-28 08:47:03.58	128.51	10.81	-47.5	-62.4	3.8	1.49e+00	0	42	104	0	65	21348
2026-01-28 08:47:04.59	128.48	10.90	-47.5	-62.4	3.8	1.49e+00	0	42	104	0	65	21365
2026-01-28 08:47:05.60	128.44	10.99	-47.5	-62.4	3.8	1.49e+00	0	43	104	0	65	21362
2026-01-28 08:47:06.61	128.40	11.08	-47.5	-62.4	3.8	1.49e+00	0	43	104	0	65	21323
2026-01-28 08:47:07.61	128.36	11.17	-47.5	-62.4	3.8	1.49e+00	0	43	104	0	65	21352
2026-01-28 08:47:08.62	128.33	11.26	-47.5	-62.4	3.8	1.49e+00	0	42	104	0	65	21375
2026-01-28 08:47:09.63	128.29	11.35	-47.5	-62.4	3.8	1.49e+00	0	42	104	0	65	21342
2026-01-28 08:47:10.64	128.25	11.45	-47.5	-62.4	3.8	1.49e+00	0	42	104	0	65	21331
2026-01-28 08:47:11.64	128.21	11.54	-47.5	-62.4	3.8	1.49e+00	0	42	104	0	65	21332
2026-01-28 08:47:12.65	128.17	11.63	-47.5	-62.4	3.8	1.49e+00	0	42	104	0	65	21317
2026-01-28 08:47:13.66	128.13	11.72	-47.5	-62.4	3.8	1.49e+00	0	43	104	0	65	21413
2026-01-28 08:47:14.67	128.09	11.81	-47.5	-62.4	3.8	1.49e+00	0	42	104	0	65	21370
2026-01-28 08:47:15.67	128.05	11.91	-47.5	-62.4	3.8	1.49e+00	0	42	104	0	65	21349
2026-01-28 08:47:16.68	128.01	12.00	-47.5	-62.4	3.8	1.49e+00	0	43	104	0	65	21346
2026-01-28 08:47:17.69	127.97	12.09	-47.5	-62.4	3.8	1.49e+00	0	42	104	0	65	21325
2026-01-28 08:47:18.70	127.93	12.19	-47.5	-62.4	3.8	1.49e+00	0	43	104	0	65	21335
2026-01-28 08:47:19.71	127.89	12.28	-47.5	-62.4	3.8	1.49e+00	0	42	104	0	65	21351
2026-01-28 08:47:20.71	127.85	12.37	-47.5	-62.4	3.8	1.49e+00	0	42	104	0	65	21375
2026-01-28 08:47:21.72	127.81	12.47	-47.5	-62.4	3.8	1.49e+00	0	42	104	0	65	21288
2026-01-28 08:47:22.73	127.77	12.56	-47.5	-62.4	3.8	1.49e+00	0	43	104	0	65	21308
2026-01-28 08:47:23.74	127.72	12.66	-47.5	-62.4	3.8	1.49e+00	0	43	104	0	65	21362
2026-01-28 08:47:24.75	127.68	12.76	-47.5	-62.4	3.8	1.49e+00	0	43	104	0	65	21394
2026-01-28 08:47:25.76	127.64	12.85	-47.5	-62.4	3.8	1.49e+00	0	42	104	0	65	21347
2026-01-28 08:47:26.77	127.60	12.95	-47.5	-62.4	3.8	1.49e+00	0	42	104	0	65	21373
2026-01-28 08:47:27.77	127.55	13.05	-47.5	-62.4	3.8	1.49e+00	0	42	104	0	65	21369
2026-01-28 08:47:28.78	127.51	13.14	-47.5	-62.4	3.8	1.49e+00	0	43	104	0	65	21312
2026-01-28 08:47:29.79	127.46	13.24	-47.5	-62.4	3.8	1.49e+00	0	42	104	0	65	21297
2026-01-28 08:47:30.79	127.42	13.34	-47.5	-62.4	3.8	1.49e+00	0	43	104	0	65	21324
2026-01-28 08:47:31.80	127.38	13.44	-47.5	-62.4	3.8	1.49e+00	0	42	104	0	65	21347
2026-01-28 08:47:32.81	127.33	13.54	-47.5	-62.4	3.8	1.49e+00	0	42	104	0	65	21317
2026-01-28 08:47:33.81	127.29	13.63	-47.5	-62.4	3.8	1.49e+00	0	43	104	0	65	21399
2026-01-28 08:47:34.82	127.24	13.73	-47.5	-62.4	3.8	1.49e+00	0	43	104	0	65	21367
2026-01-28 08:47:35.83	127.19	13.83	-47.5	-62.4	3.8	1.49e+00	0	43	104	0	65	21364
2026-01-28 08:47:36.84	127.15	13.94	-47.5	-62.4	3.8	1.49e+00	0	42	104	0	65	21348
2026-01-28 08:47:37.85	127.10	14.04	-47.5	-62.4	3.8	1.49e+00	0	43	104	0	65	21384
2026-01-28 08:47:38.85	127.05	14.14	-47.5	-62.4	3.8	1.49e+00	0	43	104	0	65	21357
2026-01-28 08:47:39.86	127.01	14.24	-47.5	-62.4	3.8	1.49e+00	0	43	104	0	65	21307
2026-01-28 08:47:40.87	126.96	14.34	-47.5	-62.4	3.8	1.49e+00	0	43	104	0	65	21294
2026-01-28 08:47:41.88	126.91	14.44	-47.5	-62.4	3.8	1.49e+00	0	43	104	0	65	21374
2026-01-28 08:47:42.89	126.86	14.55	-47.5	-62.4	3.8	1.49e+00	0	43	104	0	65	21370
2026-01-28 08:47:43.90	126.81	14.65	-47.5	-62.4	3.8	1.49e+00	0	43	104	0	65	21404
2026-01-28 08:47:44.90	126.77	14.75	-47.6	-62.4	3.8	1.49e+00	0	43	104	0	65	21365
2026-01-28 08:47:45.91	126.72	14.86	-47.5	-62.4	3.8	1.49e+00	0	43	104	0	65	21383
2026-01-28 08:47:46.92	126.67	14.96	-47.5	-62.4	3.8	1.49e+00	0	43	104	0	65	21345
2026-01-28 08:47:47.93	126.62	15.07	-47.5	-62.4	3.8	1.49e+00	0	43	104	0	65	21369
2026-01-28 08:47:48.93	126.57	15.17	-47.5	-62.4	3.8	1.49e+00	0	43	104	0	65	21368
2026-01-28 08:47:49.94	126.52	15.28	-47.5	-62.4	3.8	1.49e+00	0	43	104	0	65	21382
2026-01-28 08:47:50.95	126.46	15.38	-47.5	-62.4	3.8	1.49e+00	0	43	104	0	65	21354
2026-01-28 08:47:51.95	126.41	15.49	-47.5	-62.4	3.8	1.49e+00	0	43	104	0	65	21352
2026-01-28 08:47:52.96	126.36	15.60	-47.5	-62.4	3.8	1.49e+00	0	43	104	0	65	21361
2026-01-28 08:47:53.97	126.31	15.70	-47.5	-62.4	3.8	1.49e+00	0	43	104	0	65	21371
2026-01-28 08:47:54.98	126.26	15.81	-47.5	-62.4	3.8	1.49e+00	0	43	104	0	65	21360
2026-01-28 08:47:55.99	126.20	15.92	-47.5	-62.4	3.8	1.49e+00	0	43	104	0	65	21333
2026-01-28 08:47:56.99	126.15	16.03	-47.5	-62.4	3.8	1.49e+00	0	43	104	0	65	21337
2026-01-28 08:47:58.00	126.09	16.14	-47.5	-62.4	3.8	1.49e+00	0	43	104	0	65	21389
2026-01-28 08:47:59.01	126.04	16.25	-47.6	-62.4	3.8	1.49e+00	0	42	104	0	65	21414
2026-01-28 08:48:00.01	125.99	16.36	-47.5	-62.4	3.8	1.49e+00	0	43	104	0	65	21342
2026-01-28 08:48:01.02	125.93	16.47	-47.5	-62.4	3.8	1.49e+00	0	43	104	0	65	21377
2026-01-28 08:48:02.03	125.87	16.58	-47.5	-62.4	3.8	1.49e+00	0	43	104	0	65	21382
2026-01-28 08:48:03.04	125.82	16.69	-47.5	-62.4	3.8	1.49e+00	0	43	104	0	65	21377
2026-01-28 08:48:04.04	125.76	16.80	-47.5	-62.4	3.8	1.49e+00	0	43	104	0	65	21364
2026-01-28 08:48:05.05	125.70	16.92	-47.5	-62.4	3.8	1.49e+00	0	43	104	0	65	21345
2026-01-28 08:48:06.06	125.65	17.03	-47.5	-62.4	3.8	1.49e+00	0	43	104	0	65	21340
2026-01-28 08:48:07.07	125.59	17.14	-47.5	-62.4	3.8	1.49e+00	0	43	104	0	65	21380
2026-01-28 08:48:08.08	125.53	17.26	-47.5	-62.4	3.8	1.49e+00	0	43	104	0	65	21364
2026-01-28 08:48:09.09	125.47	17.37	-47.6	-62.4	3.8	1.49e+00	0	43	104	0	65	21394
2026-01-28 08:48:10.09	125.41	17.49	-47.5	-62.4	3.8	1.49e+00	0	43	104	0	65	21401
2026-01-28 08:48:11.10	125.35	17.60	-47.5	-62.4	3.8	1.49e+00	0	42	104	0	65	21363
2026-01-28 08:48:12.11	125.29	17.72	-47.5	-62.4	3.8	1.49e+00	0	43	104	0	65	21388
2026-01-28 08:48:13.12	125.23	17.84	-47.5	-62.4	3.8	1.49e+00	0	43	104	0	65	21379
2026-01-28 08:48:14.13	125.17	17.95	-47.5	-62.4	3.8	1.49e+00	0	43	104	0	65	21349
2026-01-28 08:48:15.13	125.11	18.07	-47.5	-62.4	3.8	1.49e+00	0	43	104	0	65	21357
2026-01-28 08:48:16.14	125.05	18.19	-47.5	-62.4	3.8	1.49e+00	0	43	104	0	65	21375
2026-01-28 08:48:17.15	124.98	18.31	-47.6	-62.4	3.8	1.49e+00	0	43	104	0	65	21395
2026-01-28 08:48:18.16	124.92	18.43	-47.5	-62.4	3.8	1.49e+00	0	42	104	0	65	21297
2026-01-28 08:48:19.16	124.86	18.55	-47.5	-62.4	3.8	1.49e+00	0	42	104	0	65	21320
2026-01-28 08:48:20.17	124.79	18.67	-47.5	-62.4	3.8	1.49e+00	0	43	104	0	65	21334
2026-01-28 08:48:21.18	124.73	18.79	-47.5	-62.4	3.8	1.49e+00	0	43	104	0	65	21318
2026-01-28 08:48:22.19	124.66	18.91	-47.5	-62.4	3.8	1.49e+00	0	42	104	0	65	21332
2026-01-28 08:48:23.20	124.59	19.03	-47.5	-62.4	3.8	1.49e+00	0	43	104	0	65	21331
2026-01-28 08:48:24.21	124.53	19.16	-47.5	-62.4	3.8	1.49e+00	0	43	104	0	65	21326
2026-01-28 08:48:25.22	124.46	19.28	-47.5	-62.3	3.8	1.49e+00	0	43	104	0	65	21229
2026-01-28 08:48:26.23	124.39	19.40	-47.5	-62.4	3.8	1.49e+00	0	43	104	0	65	21309
2026-01-28 08:48:27.23	124.32	19.53	-47.5	-62.3	3.8	1.49e+00	0	43	104	0	65	21254
2026-01-28 08:48:28.24	124.25	19.65	-47.5	-62.3	3.8	1.49e+00	0	43	104	0	65	21237
2026-01-28 08:48:29.25	124.18	19.78	-47.5	-62.3	3.8	1.49e+00	0	43	104	0	65	21216
2026-01-28 08:48:30.26	124.11	19.90	-47.5	-62.3	3.8	1.49e+00	0	43	104	0	65	21220
2026-01-28 08:48:31.27	124.04	20.03	-47.5	-62.3	3.8	1.49e+00	0	43	104	0	65	21245
2026-01-28 08:48:32.28	123.97	20.16	-47.5	-62.3	3.8	1.49e+00	0	43	104	0	65	21248
2026-01-28 08:48:33.29	123.90	20.29	-47.5	-62.3	3.8	1.49e+00	0	43	104	0	65	21196
2026-01-28 08:48:34.29	123.83	20.41	-47.5	-62.4	3.8	1.49e+00	0	43	104	0	65	21264
2026-01-28 08:48:35.30	123.75	20.54	-47.5	-62.4	3.8	1.49e+00	0	43	104	0	65	21274
2026-01-28 08:48:36.31	123.68	20.67	-47.5	-62.3	3.8	1.49e+00	0	43	104	0	65	21259
2026-01-28 08:48:37.32	123.61	20.80	-47.5	-62.4	3.8	1.49e+00	0	43	104	0	65	21290
2026-01-28 08:48:38.32	123.53	20.93	-47.5	-62.4	3.8	1.49e+00	0	43	104	0	65	21285
2026-01-28 08:48:39.33	123.45	21.07	-47.5	-62.4	3.8	1.49e+00	0	43	104	0	65	21356
2026-01-28 08:48:40.34	123.38	21.20	-47.5	-62.4	3.8	1.49e+00	0	43	104	0	65	21342
2026-01-28 08:48:41.35	123.30	21.33	-47.5	-62.4	3.8	1.49e+00	0	43	104	0	65	21372
2026-01-28 08:48:42.35	123.22	21.46	-47.6	-62.4	3.8	1.49e+00	0	43	104	0	65	21404
2026-01-28 08:48:43.36	123.14	21.60	-47.5	-62.4	3.8	1.49e+00	0	43	104	0	65	21360
2026-01-28 08:48:44.37	123.06	21.73	-47.5	-62.4	3.8	1.49e+00	0	43	104	0	65	21346
2026-01-28 08:48:45.38	122.98	21.87	-47.5	-62.4	3.8	1.49e+00	0	43	104	0	65	21368
2026-01-28 08:48:46.39	122.90	22.01	-47.5	-62.4	3.8	1.49e+00	0	43	104	0	65	21372
2026-01-28 08:48:47.40	122.82	22.14	-47.5	-62.4	3.8	1.49e+00	0	43	104	0	65	21341
2026-01-28 08:48:48.41	122.74	22.28	-47.5	-62.4	3.8	1.49e+00	0	43	104	0	65	21390
2026-01-28 08:48:49.42	122.66	22.42	-47.5	-62.4	3.8	1.49e+00	0	43	104	0	65	21376
2026-01-28 08:48:50.42	122.57	22.56	-47.5	-62.4	3.8	1.49e+00	0	43	104	0	65	21294
2026-01-28 08:48:51.43	122.49	22.70	-47.5	-62.4	3.8	1.49e+00	0	43	104	0	65	21345
2026-01-28 08:48:52.44	122.40	22.84	-47.5	-62.4	3.8	1.49e+00	0	43	104	0	65	21351
2026-01-28 08:48:53.45	122.32	22.98	-47.5	-62.4	3.8	1.49e+00	0	43	104	0	65	21373
2026-01-28 08:48:54.46	122.23	23.12	-47.6	-62.4	3.8	1.49e+00	0	43	104	0	65	21384
2026-01-28 08:48:55.47	122.14	23.26	-47.5	-62.4	3.8	1.49e+00	0	43	104	0	65	21370
2026-01-28 08:48:56.48	122.05	23.41	-47.5	-62.4	3.8	1.49e+00	0	43	104	0	65	21332
2026-01-28 08:48:57.49	121.96	23.55	-47.5	-62.4	3.8	1.49e+00	0	43	104	0	65	21360
2026-01-28 08:48:58.49	121.87	23.69	-47.5	-62.4	3.8	1.49e+00	0	43	104	0	65	21351
2026-01-28 08:48:59.50	121.78	23.84	-47.5	-62.4	3.8	1.49e+00	0	43	104	0	65	21277
2026-01-28 08:49:00.50	121.69	23.98	-47.5	-62.4	3.8	1.49e+00	0	43	104	0	65	21395
2026-01-28 08:49:01.51	121.60	24.13	-47.5	-62.4	3.8	1.49e+00	0	43	104	0	65	21375
2026-01-28 08:49:02.52	121.50	24.28	-47.5	-62.4	3.8	1.49e+00	0	43	104	0	65	21349
2026-01-28 08:49:03.52	121.41	24.43	-47.5	-62.4	3.8	1.49e+00	0	43	104	0	65	21339
2026-01-28 08:49:04.53	121.31	24.58	-47.6	-62.4	3.8	1.49e+00	0	43	104	0	65	21360
2026-01-28 08:49:05.54	121.22	24.73	-47.5	-62.4	3.8	1.49e+00	0	43	104	0	65	21418
2026-01-28 08:49:06.55	121.12	24.88	-47.5	-62.4	3.8	1.49e+00	0	43	104	0	65	21360
2026-01-28 08:49:07.56	121.02	25.03	-47.6	-62.4	3.8	1.49e+00	0	43	104	0	65	21394
2026-01-28 08:49:08.56	120.92	25.18	-47.6	-62.4	3.8	1.49e+00	0	43	104	0	65	21390
2026-01-28 08:49:09.57	120.82	25.33	-47.6	-62.4	3.8	1.49e+00	0	43	104	0	65	21353
2026-01-28 08:49:10.58	120.72	25.49	-47.5	-62.4	3.8	1.49e+00	0	42	104	0	65	21378
2026-01-28 08:49:11.59	120.61	25.64	-47.5	-62.4	3.8	1.49e+00	0	43	104	0	65	21368
2026-01-28 08:49:12.60	120.51	25.80	-47.6	-62.4	3.8	1.49e+00	0	43	104	0	65	21370
2026-01-28 08:49:13.61	120.41	25.95	-47.5	-62.4	3.8	1.49e+00	0	43	104	0	65	21375
2026-01-28 08:49:14.61	120.30	26.11	-47.5	-62.4	3.8	1.49e+00	0	43	104	0	65	21341
2026-01-28 08:49:15.62	120.19	26.27	-47.5	-62.4	3.8	1.49e+00	0	43	104	0	65	21344
2026-01-28 08:49:16.63	120.09	26.42	-47.5	-62.4	3.8	1.49e+00	0	43	104	0	65	21388
2026-01-28 08:49:17.64	119.98	26.58	-47.5	-62.4	3.8	1.49e+00	0	43	104	0	65	21390
2026-01-28 08:49:18.65	119.87	26.74	-47.5	-62.4	3.8	1.49e+00	0	43	104	0	65	21338
2026-01-28 08:49:19.66	119.75	26.90	-47.5	-62.4	3.8	1.49e+00	0	43	104	0	65	21406
2026-01-28 08:49:20.66	119.64	27.06	-47.6	-62.4	3.8	1.49e+00	0	43	104	0	65	21316
2026-01-28 08:49:21.67	119.53	27.23	-47.5	-62.4	3.8	1.49e+00	0	43	104	0	65	21380
2026-01-28 08:49:22.68	119.41	27.39	-47.6	-62.4	3.8	1.49e+00	0	43	104	0	65	21352
2026-01-28 08:49:23.69	119.30	27.56	-47.5	-62.4	3.8	1.49e+00	0	43	104	0	65	21395
2026-01-28 08:49:24.70	119.18	27.72	-47.5	-62.4	3.8	1.49e+00	0	43	104	0	65	21375
2026-01-28 08:49:25.70	119.06	27.89	-47.5	-62.4	3.8	1.49e+00	0	43	104	0	65	21348
2026-01-28 08:49:26.71	118.94	28.05	-47.6	-62.4	3.8	1.49e+00	0	43	104	0	65	21346
2026-01-28 08:49:27.72	118.82	28.22	-47.6	-62.4	3.8	1.49e+00	0	43	104	0	65	21462
2026-01-28 08:49:28.72	118.70	28.39	-47.6	-62.4	3.8	1.49e+00	0	43	104	0	65	21390
2026-01-28 08:49:29.73	118.57	28.56	-47.5	-62.4	3.8	1.49e+00	0	43	104	0	65	21368
2026-01-28 08:49:30.74	118.45	28.73	-47.5	-62.4	3.8	1.49e+00	0	43	104	0	65	21398
2026-01-28 08:49:31.75	118.32	28.90	-47.5	-62.4	3.8	1.49e+00	0	43	104	0	65	21431
2026-01-28 08:49:32.75	118.20	29.07	-47.5	-62.4	3.8	1.49e+00	0	43	104	0	65	21388
2026-01-28 08:49:33.77	118.06	29.24	-47.5	-62.4	3.8	1.49e+00	0	43	104	0	65	21392
2026-01-28 08:49:34.77	117.94	29.42	-47.5	-62.4	3.8	1.49e+00	0	43	104	0	65	21378
2026-01-28 08:49:35.78	117.80	29.59	-47.6	-62.4	3.8	1.49e+00	0	43	104	0	65	21333
2026-01-28 08:49:36.79	117.67	29.77	-47.5	-62.4	3.8	1.49e+00	0	43	104	0	65	21375
2026-01-28 08:49:37.80	117.53	29.94	-47.5	-62.4	3.8	1.49e+00	0	43	104	0	65	21362
2026-01-28 08:49:38.81	117.40	30.12	-47.6	-62.4	3.8	1.49e+00	0	43	104	0	65	21447
2026-01-28 08:49:39.81	117.26	30.30	-47.6	-62.4	3.8	1.49e+00	0	43	104	0	65	21379
2026-01-28 08:49:40.82	117.12	30.48	-47.5	-62.4	3.8	1.49e+00	0	43	104	0	65	21383
2026-01-28 08:49:41.82	116.98	30.66	-47.5	-62.4	3.8	1.49e+00	0	43	104	0	65	21377
2026-01-28 08:49:42.83	116.84	30.84	-47.6	-62.4	3.8	1.49e+00	0	43	104	0	65	21354
2026-01-28 08:49:43.84	116.69	31.02	-47.5	-62.4	3.8	1.49e+00	0	43	104	0	65	21331
2026-01-28 08:49:44.85	116.54	31.20	-47.6	-62.4	3.8	1.49e+00	0	43	104	0	65	21409
2026-01-28 08:49:45.85	116.40	31.39	-47.6	-62.4	3.8	1.49e+00	0	43	104	0	65	21430
2026-01-28 08:49:46.86	116.25	31.57	-47.6	-62.4	3.8	1.49e+00	0	43	104	0	65	21405
2026-01-28 08:49:47.87	116.10	31.76	-47.5	-62.4	3.8	1.49e+00	0	43	104	0	65	21341
2026-01-28 08:49:48.88	115.94	31.94	-47.5	-62.4	3.8	1.49e+00	0	43	104	0	65	21394
2026-01-28 08:49:49.89	115.79	32.13	-47.5	-62.4	3.8	1.49e+00	0	43	104	0	65	21412
2026-01-28 08:49:50.89	115.63	32.32	-47.5	-62.4	3.8	1.49e+00	0	43	104	0	65	21432
2026-01-28 08:49:51.90	115.47	32.51	-47.6	-62.4	3.8	1.49e+00	0	43	104	0	65	21410
2026-01-28 08:49:52.91	115.31	32.70	-47.6	-62.4	3.8	1.49e+00	0	43	104	0	65	21429
2026-01-28 08:49:53.92	115.15	32.89	-47.6	-62.4	3.8	1.49e+00	0	43	104	0	65	21384
2026-01-28 08:49:54.93	114.98	33.08	-47.5	-62.4	3.8	1.49e+00	0	43	104	0	65	21391
2026-01-28 08:49:55.94	114.82	33.28	-47.6	-62.4	3.8	1.49e+00	0	43	104	0	65	21377
2026-01-28 08:49:56.95	114.65	33.47	-47.6	-62.4	3.8	1.49e+00	0	43	104	0	65	21346
2026-01-28 08:49:57.95	114.48	33.67	-47.5	-62.4	3.8	1.49e+00	0	43	104	0	65	21369
2026-01-28 08:49:58.96	114.30	33.86	-47.5	-62.4	3.8	1.49e+00	0	43	104	0	65	21390
2026-01-28 08:49:59.97	114.13	34.06	-47.5	-62.4	3.8	1.49e+00	0	43	104	0	65	21388
2026-01-28 08:50:00.98	113.95	34.26	-47.6	-62.4	3.8	1.49e+00	0	43	104	0	65	21415
2026-01-28 08:50:01.99	113.77	34.46	-47.5	-62.4	3.8	1.49e+00	0	43	104	0	65	21395
2026-01-28 08:50:02.99	113.59	34.66	-47.5	-62.4	3.8	1.49e+00	0	43	104	0	65	21395
2026-01-28 08:50:03.99	113.41	34.85	-47.5	-62.4	3.8	1.49e+00	0	43	104	0	65	21406
2026-01-28 08:50:05.00	113.22	35.06	-47.5	-62.4	3.8	1.49e+00	0	43	104	0	65	21373
2026-01-28 08:50:06.01	113.03	35.26	-47.5	-62.4	3.8	1.49e+00	0	43	104	0	65	21390
2026-01-28 08:50:07.02	112.84	35.46	-47.5	-62.4	3.8	1.49e+00	0	43	104	0	65	21404
2026-01-28 08:50:08.03	112.65	35.67	-47.5	-62.4	3.8	1.49e+00	0	43	104	0	65	21374
2026-01-28 08:50:09.03	112.45	35.87	-47.6	-62.4	3.8	1.49e+00	0	43	104	0	65	21384
2026-01-28 08:50:10.04	112.26	36.08	-47.5	-62.4	3.8	1.49e+00	0	43	104	0	65	21402
2026-01-28 08:50:11.05	112.05	36.29	-47.5	-62.4	3.8	1.49e+00	0	43	104	0	65	21364
2026-01-28 08:50:12.06	111.85	36.50	-47.5	-62.4	3.8	1.49e+00	0	43	104	0	65	21383
2026-01-28 08:50:13.07	111.64	36.70	-47.5	-62.4	3.8	1.49e+00	0	43	104	0	65	21380
2026-01-28 08:50:14.08	111.43	36.92	-47.5	-62.4	3.8	1.49e+00	0	43	104	0	65	21427
2026-01-28 08:50:15.09	111.22	37.13	-47.5	-62.4	3.8	1.49e+00	0	43	104	0	65	21387
2026-01-28 08:50:16.09	111.01	37.34	-47.6	-62.4	3.8	1.49e+00	0	43	104	0	65	21425
2026-01-28 08:50:17.10	110.79	37.55	-47.5	-62.4	3.8	1.49e+00	0	43	104	0	65	21448
2026-01-28 08:50:18.11	110.57	37.76	-47.6	-62.4	3.8	1.49e+00	0	43	104	0	65	21364
2026-01-28 08:50:19.12	110.35	37.98	-47.5	-62.4	3.8	1.49e+00	0	43	104	0	65	21351
2026-01-28 08:50:20.13	110.12	38.19	-47.6	-62.4	3.8	1.49e+00	0	43	104	0	65	21457
2026-01-28 08:50:21.13	109.89	38.41	-47.5	-62.4	3.8	1.49e+00	0	43	104	0	65	21422
2026-01-28 08:50:22.14	109.66	38.63	-47.6	-62.4	3.8	1.49e+00	0	43	104	0	65	21398
2026-01-28 08:50:23.15	109.43	38.84	-47.6	-62.4	3.8	1.49e+00	0	43	104	0	65	21435
2026-01-28 08:50:24.17	109.18	39.07	-47.5	-62.4	3.8	1.49e+00	0	43	104	0	65	21384
2026-01-28 08:50:25.17	108.94	39.28	-47.6	-62.4	3.8	1.49e+00	0	43	104	0	65	21459
2026-01-28 08:50:26.18	108.70	39.50	-47.5	-62.4	3.8	1.49e+00	0	43	104	0	65	21372
2026-01-28 08:50:27.19	108.45	39.73	-47.5	-62.4	3.8	1.49e+00	0	43	104	0	65	21381
2026-01-28 08:50:28.19	108.20	39.95	-47.6	-62.4	3.8	1.49e+00	0	43	104	0	65	21386
2026-01-28 08:50:29.21	107.94	40.17	-47.6	-62.4	3.8	1.49e+00	0	43	104	0	65	21376
2026-01-28 08:50:30.21	107.68	40.39	-47.6	-62.4	3.8	1.49e+00	0	43	104	0	65	21448
2026-01-28 08:50:31.22	107.42	40.62	-47.6	-62.4	3.8	1.49e+00	0	43	104	0	65	21402
2026-01-28 08:50:32.23	107.15	40.84	-47.6	-62.4	3.8	1.49e+00	0	43	104	0	65	21412
2026-01-28 08:50:33.23	106.89	41.07	-47.6	-62.4	3.8	1.49e+00	0	43	104	0	65	21413
2026-01-28 08:50:34.24	106.61	41.29	-47.5	-62.4	3.8	1.49e+00	0	43	104	0	65	21364
2026-01-28 08:50:35.25	106.33	41.52	-47.5	-62.4	3.8	1.49e+00	0	43	104	0	65	21398
2026-01-28 08:50:36.26	106.05	41.75	-47.5	-62.4	3.8	1.49e+00	0	43	104	0	65	21351
2026-01-28 08:50:37.27	105.76	41.98	-47.5	-62.4	3.8	1.49e+00	0	43	104	0	65	21417
2026-01-28 08:50:38.28	105.47	42.20	-47.5	-62.4	3.8	1.49e+00	0	43	104	0	65	21400
2026-01-28 08:50:39.29	105.18	42.43	-47.6	-62.4	3.8	1.49e+00	0	43	104	0	65	21419
2026-01-28 08:50:40.30	104.88	42.66	-47.5	-62.4	3.8	1.49e+00	0	43	104	0	65	21369
2026-01-28 08:50:41.31	104.58	42.89	-47.5	-62.4	3.8	1.49e+00	0	43	104	0	65	21432
2026-01-28 08:50:42.32	104.27	43.13	-47.6	-62.4	3.8	1.49e+00	0	43	104	0	65	21428
2026-01-28 08:50:43.33	103.95	43.36	-47.5	-62.4	3.8	1.49e+00	0	43	104	0	65	21433
2026-01-28 08:50:44.33	103.64	43.59	-47.5	-62.4	3.8	1.49e+00	0	43	104	0	65	21428
2026-01-28 08:50:45.34	103.32	43.82	-47.5	-62.4	3.8	1.49e+00	0	43	104	0	65	21409
2026-01-28 08:50:46.35	102.99	44.05	-47.6	-62.4	3.8	1.49e+00	0	43	104	0	65	21360
2026-01-28 08:50:47.36	102.66	44.29	-47.5	-62.4	3.8	1.49e+00	0	43	104	0	65	21365
2026-01-28 08:50:48.37	102.33	44.52	-47.5	-62.4	3.8	1.49e+00	0	43	104	0	65	21410
2026-01-28 08:50:49.38	101.98	44.75	-47.5	-62.4	3.8	1.49e+00	0	43	104	0	65	21342
2026-01-28 08:50:50.39	101.64	44.99	-47.6	-62.4	3.8	1.49e+00	0	43	104	0	65	21406
2026-01-28 08:50:51.39	101.29	45.22	-47.6	-62.4	3.8	1.49e+00	0	43	104	0	65	21386
2026-01-28 08:50:52.40	100.93	45.45	-47.5	-62.4	3.8	1.49e+00	0	43	104	0	65	21367
2026-01-28 08:50:53.41	100.57	45.69	-47.6	-62.4	3.8	1.49e+00	0	43	104	0	65	21389
2026-01-28 08:50:54.42	100.20	45.92	-47.5	-62.4	3.8	1.49e+00	0	43	104	0	65	21380
2026-01-28 08:50:55.43	99.83	46.15	-47.5	-62.4	3.8	1.49e+00	0	43	104	0	65	21415
2026-01-28 08:50:56.44	99.45	46.39	-47.6	-62.4	3.8	1.49e+00	0	43	104	0	65	21391
2026-01-28 08:50:57.45	99.07	46.62	-47.5	-62.4	3.8	1.49e+00	0	43	104	0	65	21408
2026-01-28 08:50:58.46	98.68	46.86	-47.6	-62.4	3.8	1.49e+00	0	43	104	0	65	21395
2026-01-28 08:50:59.47	98.28	47.09	-47.5	-62.4	3.8	1.49e+00	0	43	104	0	65	21385
2026-01-28 08:51:00.48	97.88	47.32	-47.6	-62.4	3.8	1.49e+00	0	43	104	0	65	21389
2026-01-28 08:51:01.49	97.47	47.56	-47.6	-62.4	3.8	1.49e+00	0	43	104	0	65	21403
2026-01-28 08:51:02.49	97.06	47.79	-47.5	-62.4	3.8	1.49e+00	0	43	104	0	65	21405
2026-01-28 08:51:03.50	96.64	48.02	-47.6	-62.4	3.8	1.49e+00	0	43	104	0	65	21426
2026-01-28 08:51:04.51	96.21	48.25	-47.6	-62.4	3.8	1.49e+00	0	43	104	0	65	21436
2026-01-28 08:51:05.52	95.78	48.48	-47.6	-62.4	3.8	1.49e+00	0	43	104	0	65	21450
2026-01-28 08:51:06.53	95.34	48.72	-47.5	-62.4	3.8	1.49e+00	0	43	104	0	65	21370
2026-01-28 08:51:07.53	94.90	48.94	-47.6	-62.4	3.8	1.49e+00	0	43	104	0	65	21405
2026-01-28 08:51:08.54	94.44	49.17	-47.6	-62.4	3.8	1.49e+00	0	43	104	0	65	21383
2026-01-28 08:51:09.54	93.99	49.40	-47.6	-62.4	3.8	1.49e+00	0	43	104	0	65	21385
2026-01-28 08:51:10.55	93.52	49.63	-47.6	-62.4	3.8	1.49e+00	0	43	104	0	65	21407
2026-01-28 08:51:11.56	93.05	49.86	-47.6	-62.4	3.8	1.49e+00	0	43	104	0	65	21432
2026-01-28 08:51:12.57	92.56	50.08	-47.5	-62.4	3.8	1.49e+00	0	43	104	0	65	21387
2026-01-28 08:51:13.58	92.08	50.31	-47.6	-62.4	3.8	1.49e+00	0	43	104	0	65	21381
2026-01-28 08:51:14.59	91.58	50.53	-47.5	-62.4	3.8	1.49e+00	0	43	104	0	65	21452
2026-01-28 08:51:15.60	91.08	50.75	-47.6	-62.4	3.8	1.49e+00	0	43	104	0	65	21425
2026-01-28 08:51:16.61	90.57	50.97	-47.6	-62.4	3.8	1.49e+00	0	43	104	0	65	21387
2026-01-28 08:51:17.62	90.05	51.19	-47.6	-62.4	3.8	1.49e+00	0	43	104	0	65	21389
2026-01-28 08:51:18.62	89.53	51.41	-47.6	-62.4	3.8	1.49e+00	0	43	104	0	65	21361
2026-01-28 08:51:19.63	88.99	51.63	-47.5	-62.4	3.8	1.49e+00	0	43	104	0	65	21420
2026-01-28 08:51:20.64	88.45	51.84	-47.5	-62.4	3.8	1.49e+00	0	43	104	0	65	21352
2026-01-28 08:51:21.65	87.90	52.05	-47.5	-62.4	3.8	1.49e+00	0	43	104	0	65	21370
2026-01-28 08:51:22.66	87.34	52.27	-47.6	-62.4	3.8	1.49e+00	0	43	104	0	65	21390
2026-01-28 08:51:23.67	86.78	52.48	-47.6	-62.4	3.8	1.49e+00	0	43	104	0	65	21379
2026-01-28 08:51:24.67	86.21	52.68	-47.5	-62.4	3.8	1.49e+00	0	43	104	0	65	21357
2026-01-28 08:51:25.68	85.63	52.89	-47.6	-62.4	3.8	1.49e+00	0	43	104	0	65	21432
2026-01-28 08:51:26.69	85.04	53.09	-47.6	-62.4	3.8	1.49e+00	0	43	104	0	65	21378
2026-01-28 08:51:27.70	84.44	53.29	-47.6	-62.4	3.8	1.49e+00	0	43	104	0	65	21455
2026-01-28 08:51:28.71	83.83	53.49	-47.6	-62.4	3.8	1.49e+00	0	43	104	0	65	21374
2026-01-28 08:51:29.72	83.22	53.68	-47.5	-62.4	3.8	1.49e+00	0	43	104	0	65	21382
2026-01-28 08:51:30.73	82.60	53.88	-47.5	-62.4	3.8	1.49e+00	0	43	104	0	65	21372
2026-01-28 08:51:31.73	81.97	54.07	-47.5	-62.4	3.8	1.49e+00	0	43	104	0	65	21422
2026-01-28 08:51:32.74	81.33	54.25	-47.6	-62.4	3.8	1.49e+00	0	43	104	0	65	21338
2026-01-28 08:51:33.75	80.68	54.44	-47.5	-62.4	3.8	1.49e+00	0	43	104	0	65	21420
2026-01-28 08:51:34.76	80.03	54.62	-47.5	-62.4	3.8	1.49e+00	0	43	104	0	65	21359
2026-01-28 08:51:35.76	79.37	54.80	-47.5	-62.4	3.8	1.49e+00	0	43	104	0	65	21342
2026-01-28 08:51:36.77	78.69	54.97	-47.5	-62.4	3.8	1.49e+00	0	43	104	0	65	21367
2026-01-28 08:51:37.78	78.01	55.14	-47.5	-62.4	3.8	1.49e+00	0	43	104	0	65	21412
2026-01-28 08:51:38.79	77.32	55.31	-47.5	-62.4	3.8	1.49e+00	0	43	104	0	65	21369
2026-01-28 08:51:39.80	76.63	55.47	-47.6	-62.4	3.8	1.49e+00	0	43	104	0	65	21393
2026-01-28 08:51:40.80	75.93	55.63	-47.6	-62.4	3.8	1.49e+00	0	43	104	0	65	21377
2026-01-28 08:51:41.81	75.21	55.79	-47.5	-62.4	3.8	1.49e+00	0	43	104	0	65	21363
2026-01-28 08:51:42.82	74.49	55.94	-47.5	-62.4	3.8	1.49e+00	0	43	104	0	65	21420
2026-01-28 08:51:43.83	73.76	56.09	-47.5	-62.4	3.8	1.49e+00	0	43	104	0	65	21349
2026-01-28 08:51:44.83	73.03	56.23	-47.5	-62.4	3.8	1.49e+00	0	43	104	0	65	21377
2026-01-28 08:51:45.84	72.29	56.37	-47.5	-62.4	3.8	1.49e+00	0	43	104	0	65	21398
2026-01-28 08:51:46.85	71.54	56.51	-47.6	-62.4	3.8	1.49e+00	0	43	104	0	65	21389
2026-01-28 08:51:47.86	70.78	56.64	-47.6	-62.4	3.8	1.49e+00	0	43	104	0	65	21373
2026-01-28 08:51:48.87	70.01	56.77	-47.5	-62.4	3.8	1.49e+00	0	43	104	0	65	21367
2026-01-28 08:51:49.88	69.24	56.89	-47.6	-62.4	3.8	1.49e+00	0	43	104	0	65	21380
2026-01-28 08:51:50.88	68.46	57.00	-47.6	-62.4	3.8	1.49e+00	0	43	104	0	65	21463
2026-01-28 08:51:51.89	67.68	57.12	-47.5	-62.4	3.8	1.49e+00	0	43	104	0	65	21402
2026-01-28 08:51:52.90	66.88	57.22	-47.6	-62.4	3.8	1.49e+00	0	43	104	0	65	21351
2026-01-28 08:51:53.90	66.09	57.32	-47.6	-62.4	3.8	1.49e+00	0	43	104	0	65	21384
2026-01-28 08:51:54.91	65.29	57.42	-47.5	-62.4	3.8	1.49e+00	0	43	104	0	65	21370
2026-01-28 08:51:55.92	64.48	57.51	-47.6	-62.4	3.8	1.49e+00	0	43	104	0	65	21382
2026-01-28 08:51:56.93	63.66	57.60	-47.5	-62.4	3.8	1.49e+00	0	43	104	0	65	21403
2026-01-28 08:51:57.93	62.85	57.68	-47.6	-62.4	3.8	1.49e+00	0	43	104	0	65	21353
2026-01-28 08:51:58.94	62.02	57.75	-47.6	-62.4	3.8	1.49e+00	0	43	104	0	65	21334
2026-01-28 08:51:59.95	61.19	57.82	-47.6	-62.4	3.8	1.49e+00	0	43	104	0	65	21419
2026-01-28 08:52:00.96	60.36	57.89	-47.6	-62.4	3.8	1.49e+00	0	43	104	0	65	21426
2026-01-28 08:52:01.97	59.52	57.94	-47.5	-62.4	3.8	1.49e+00	0	43	104	0	65	21396
2026-01-28 08:52:02.97	58.68	58.00	-47.6	-62.4	3.8	1.49e+00	0	43	104	0	65	21392
2026-01-28 08:52:03.98	57.84	58.04	-47.6	-62.4	3.8	1.49e+00	0	43	104	0	65	21422
2026-01-28 08:52:04.99	56.99	58.08	-47.6	-62.4	3.8	1.49e+00	0	43	104	0	65	21390
2026-01-28 08:52:06.00	56.14	58.12	-47.5	-62.4	3.8	1.49e+00	0	43	104	0	65	21356
2026-01-28 08:52:07.00	55.30	58.15	-47.5	-62.4	3.8	1.49e+00	0	43	104	0	65	21329
2026-01-28 08:52:08.01	54.44	58.17	-47.6	-62.4	3.8	1.49e+00	0	43	104	0	65	21469
2026-01-28 08:52:09.02	53.59	58.19	-47.6	-62.4	3.8	1.49e+00	0	43	104	0	65	21425
2026-01-28 08:52:10.02	52.74	58.20	-47.5	-62.4	3.8	1.49e+00	0	43	104	0	65	21455
2026-01-28 08:52:11.03	51.89	58.20	-47.6	-62.4	3.8	1.49e+00	0	43	104	0	65	21376
2026-01-28 08:52:12.04	51.03	58.20	-47.5	-62.4	3.8	1.49e+00	0	43	104	0	65	21383
2026-01-28 08:52:13.05	50.17	58.20	-47.5	-62.4	3.8	1.49e+00	0	43	104	0	65	21334
2026-01-28 08:52:14.06	49.32	58.18	-47.5	-62.4	3.8	1.49e+00	0	43	104	0	65	21415
2026-01-28 08:52:15.07	48.46	58.17	-47.6	-62.4	3.8	1.49e+00	0	43	104	0	65	21352
2026-01-28 08:52:16.07	47.62	58.14	-47.5	-62.4	3.8	1.49e+00	0	43	104	0	65	21410
2026-01-28 08:52:17.08	46.77	58.11	-47.6	-62.4	3.8	1.49e+00	0	43	104	0	65	21396
2026-01-28 08:52:18.09	45.92	58.07	-47.6	-62.4	3.8	1.49e+00	0	43	104	0	65	21426
2026-01-28 08:52:19.10	45.07	58.03	-47.6	-62.4	3.8	1.49e+00	0	43	104	0	65	21379
2026-01-28 08:52:20.11	44.23	57.98	-47.6	-62.4	3.8	1.49e+00	0	43	104	0	65	21375
2026-01-28 08:52:21.12	43.39	57.93	-47.6	-62.4	3.8	1.49e+00	0	43	104	0	65	21430
2026-01-28 08:52:22.13	42.55	57.87	-47.5	-62.4	3.8	1.49e+00	0	43	104	0	65	21346
2026-01-28 08:52:23.13	41.73	57.81	-47.5	-62.4	3.8	1.49e+00	0	43	104	0	65	21441
2026-01-28 08:52:24.14	40.90	57.73	-47.6	-62.4	3.8	1.49e+00	0	43	104	0	65	21382
2026-01-28 08:52:25.15	40.07	57.66	-47.5	-62.4	3.8	1.49e+00	0	43	104	0	65	21366
2026-01-28 08:52:26.16	39.25	57.58	-47.5	-62.4	3.8	1.49e+00	0	43	104	0	65	21413
2026-01-28 08:52:27.17	38.44	57.49	-47.5	-62.4	3.8	1.49e+00	0	43	104	0	65	21341
2026-01-28 08:52:28.17	37.64	57.40	-47.5	-62.4	3.8	1.49e+00	0	43	104	0	65	21368
2026-01-28 08:52:29.18	36.84	57.30	-47.5	-62.4	3.8	1.49e+00	0	43	104	0	65	21370
2026-01-28 08:52:30.19	36.04	57.20	-47.6	-62.4	3.8	1.49e+00	0	43	104	0	65	21359
2026-01-28 08:52:31.20	35.25	57.09	-47.5	-62.4	3.8	1.49e+00	0	43	104	0	65	21392
2026-01-28 08:52:32.20	34.47	56.98	-47.5	-62.4	3.8	1.49e+00	0	43	104	0	65	21371
2026-01-28 08:52:33.21	33.69	56.86	-47.5	-62.4	3.8	1.49e+00	0	43	104	0	65	21406
2026-01-28 08:52:34.22	32.92	56.73	-47.6	-62.4	3.8	1.49e+00	0	43	104	0	65	21376
2026-01-28 08:52:35.23	32.16	56.61	-47.5	-62.4	3.8	1.49e+00	0	43	104	0	65	21386
2026-01-28 08:52:36.24	31.40	56.47	-47.5	-62.4	3.8	1.49e+00	0	43	104	0	65	21346
2026-01-28 08:52:37.25	30.65	56.34	-47.6	-62.4	3.8	1.49e+00	0	43	104	0	65	21451
2026-01-28 08:52:38.26	29.91	56.20	-47.5	-62.4	3.8	1.49e+00	0	43	104	0	65	21447
2026-01-28 08:52:39.27	29.17	56.05	-47.6	-62.4	3.8	1.49e+00	0	43	104	0	65	21368
2026-01-28 08:52:40.28	28.45	55.90	-47.6	-62.4	3.8	1.49e+00	0	43	104	0	65	21382
2026-01-28 08:52:41.29	27.73	55.75	-47.6	-62.4	3.8	1.49e+00	0	43	104	0	65	21418
2026-01-28 08:52:42.29	27.03	55.59	-47.6	-62.4	3.8	1.49e+00	0	43	104	0	65	21415
2026-01-28 08:52:43.30	26.32	55.43	-47.5	-62.4	3.8	1.49e+00	0	43	104	0	65	21365
2026-01-28 08:52:44.31	25.63	55.27	-47.5	-62.4	3.8	1.49e+00	0	43	104	0	65	21372
2026-01-28 08:52:45.32	24.94	55.10	-47.6	-62.4	3.8	1.49e+00	0	43	104	0	65	21378
2026-01-28 08:52:46.32	24.27	54.93	-47.5	-62.4	3.8	1.49e+00	0	43	104	0	65	21402
2026-01-28 08:52:47.33	23.60	54.75	-47.5	-62.4	3.8	1.49e+00	0	43	104	0	65	21373
2026-01-28 08:52:48.34	22.94	54.57	-47.5	-62.4	3.8	1.49e+00	0	43	104	0	65	21392
2026-01-28 08:52:49.35	22.28	54.39	-47.6	-62.4	3.8	1.49e+00	0	43	104	0	65	21403
2026-01-28 08:52:50.36	21.64	54.21	-47.5	-62.4	3.8	1.49e+00	0	43	104	0	65	21407
2026-01-28 08:52:51.37	21.00	54.02	-47.5	-62.4	3.8	1.49e+00	0	43	104	0	65	21410
2026-01-28 08:52:52.38	20.37	53.83	-47.5	-62.4	3.8	1.49e+00	0	43	104	0	65	21370
2026-01-28 08:52:53.39	19.75	53.64	-47.5	-62.4	3.8	1.49e+00	0	43	104	0	65	21405
2026-01-28 08:52:54.40	19.14	53.44	-47.6	-62.4	3.8	1.49e+00	0	43	104	0	65	21386
2026-01-28 08:52:55.41	18.54	53.24	-47.5	-62.4	3.8	1.49e+00	0	43	104	0	65	21346
2026-01-28 08:52:56.41	17.95	53.04	-47.5	-62.4	3.8	1.49e+00	0	43	104	0	65	21412
2026-01-28 08:52:57.42	17.36	52.84	-47.5	-62.4	3.8	1.49e+00	0	43	104	0	65	21362
2026-01-28 08:52:58.43	16.79	52.63	-47.5	-62.4	3.8	1.49e+00	0	43	104	0	65	21354
2026-01-28 08:52:59.44	16.21	52.43	-47.5	-62.4	3.8	1.49e+00	0	43	104	0	65	21355
2026-01-28 08:53:00.45	15.65	52.22	-47.5	-62.4	3.8	1.49e+00	0	43	104	0	65	21386
2026-01-28 08:53:01.45	15.10	52.01	-47.6	-62.4	3.8	1.49e+00	0	43	104	0	65	21403
2026-01-28 08:53:02.46	14.56	51.79	-47.5	-62.4	3.8	1.49e+00	0	43	104	0	65	21416
2026-01-28 08:53:03.47	14.02	51.58	-47.6	-62.4	3.8	1.49e+00	0	43	104	0	65	21373
2026-01-28 08:53:04.47	13.49	51.36	-47.5	-62.4	3.8	1.49e+00	0	43	104	0	65	21359
2026-01-28 08:53:05.48	12.97	51.15	-47.5	-62.4	3.8	1.49e+00	0	43	104	0	65	21384
2026-01-28 08:53:06.49	12.45	50.93	-47.6	-62.4	3.8	1.49e+00	0	43	104	0	65	21401
2026-01-28 08:53:07.50	11.94	50.71	-47.6	-62.4	3.8	1.49e+00	0	43	104	0	65	21402
2026-01-28 08:53:08.50	11.45	50.48	-47.5	-62.4	3.8	1.49e+00	0	43	104	0	65	21385
2026-01-28 08:53:09.51	10.96	50.26	-47.6	-62.4	3.8	1.49e+00	0	43	104	0	65	21380
2026-01-28 08:53:10.51	10.47	50.04	-47.5	-62.4	3.8	1.49e+00	0	43	104	0	65	21425
2026-01-28 08:53:11.52	10.00	49.81	-47.5	-62.4	3.8	1.49e+00	0	43	104	0	65	21423
2026-01-28 08:53:12.53	9.52	49.59	-47.5	-62.4	3.8	1.49e+00	0	43	104	0	65	21378
2026-01-28 08:53:13.54	9.06	49.36	-47.6	-62.4	3.8	1.49e+00	0	43	104	0	65	21398
2026-01-28 08:53:14.55	8.60	49.13	-47.5	-62.4	3.8	1.49e+00	0	43	104	0	65	21402
2026-01-28 08:53:15.56	8.15	48.90	-47.5	-62.4	3.8	1.49e+00	0	43	104	0	65	21392
2026-01-28 08:53:16.57	7.71	48.67	-47.6	-62.4	3.8	1.49e+00	0	43	104	0	65	21434
2026-01-28 08:53:17.57	7.27	48.44	-47.5	-62.4	3.8	1.49e+00	0	43	104	0	65	21349
2026-01-28 08:53:18.58	6.84	48.21	-47.6	-62.4	3.8	1.49e+00	0	43	104	0	65	21438
2026-01-28 08:53:19.59	6.42	47.98	-47.6	-62.4	3.8	1.49e+00	0	43	104	0	65	21432
2026-01-28 08:53:20.60	6.00	47.75	-47.6	-62.4	3.8	1.49e+00	0	43	104	0	65	21387
2026-01-28 08:53:21.61	5.59	47.52	-47.6	-62.4	3.8	1.49e+00	0	43	104	0	65	21409
2026-01-28 08:53:22.61	5.18	47.29	-47.5	-62.4	3.8	1.49e+00	0	43	104	0	65	21388
2026-01-28 08:53:23.62	4.78	47.05	-47.6	-62.4	3.8	1.49e+00	0	43	104	0	65	21405
2026-01-28 08:53:24.63	4.39	46.82	-47.5	-62.4	3.8	1.49e+00	0	43	104	0	65	21394
2026-01-28 08:53:25.64	4.00	46.59	-47.5	-62.4	3.8	1.49e+00	0	43	104	0	65	21411
2026-01-28 08:53:26.65	3.62	46.35	-47.5	-62.4	3.8	1.49e+00	0	43	104	0	65	21363
2026-01-28 08:53:27.66	3.24	46.12	-47.5	-62.4	3.8	1.49e+00	0	43	104	0	65	21391
2026-01-28 08:53:28.67	2.87	45.88	-47.6	-62.4	3.8	1.49e+00	0	43	104	0	65	21414
2026-01-28 08:53:29.68	2.51	45.65	-47.5	-62.4	3.8	1.49e+00	0	43	104	0	65	21433
2026-01-28 08:53:30.69	2.15	45.42	-47.6	-62.4	3.8	1.49e+00	0	43	104	0	65	21351
2026-01-28 08:53:31.69	1.80	45.19	-47.5	-62.4	3.8	1.49e+00	0	43	104	0	65	21379
2026-01-28 08:53:32.70	1.45	44.95	-47.6	-62.4	3.8	1.49e+00	0	43	104	0	65	21386
2026-01-28 08:53:33.71	1.10	44.72	-47.5	-62.4	3.8	1.49e+00	0	43	104	0	65	21452
2026-01-28 08:53:34.72	0.76	44.49	-47.6	-62.4	3.8	1.49e+00	0	43	104	0	65	21372
2026-01-28 08:53:35.72	0.43	44.26	-47.5	-62.4	3.8	1.49e+00	0	43	104	0	65	21407
2026-01-28 08:53:36.73	0.10	44.02	-47.5	-62.4	3.8	1.49e+00	0	43	104	0	65	21361
2026-01-28 08:53:37.74	359.78	43.79	-47.6	-62.4	3.8	1.49e+00	0	43	104	0	65	21382
2026-01-28 08:53:38.75	359.46	43.56	-47.5	-62.4	3.8	1.49e+00	0	43	104	0	65	21432
2026-01-28 08:53:39.76	359.14	43.33	-47.6	-62.4	3.8	1.49e+00	0	43	104	0	65	21408
2026-01-28 08:53:40.77	358.83	43.10	-47.6	-62.4	3.8	1.49e+00	0	43	104	0	65	21421
2026-01-28 08:53:41.77	358.53	42.87	-47.6	-62.4	3.8	1.49e+00	0	43	104	0	65	21335
2026-01-28 08:53:42.78	358.23	42.64	-47.6	-62.4	3.8	1.49e+00	0	43	104	0	65	21356
2026-01-28 08:53:43.78	357.93	42.41	-47.5	-62.4	3.8	1.49e+00	0	43	104	0	65	21375
2026-01-28 08:53:44.79	357.64	42.19	-47.6	-62.4	3.8	1.49e+00	0	43	104	0	65	21376
2026-01-28 08:53:45.80	357.35	41.96	-47.5	-62.4	3.8	1.49e+00	0	43	104	0	65	21399
2026-01-28 08:53:46.81	357.07	41.73	-47.6	-62.4	3.8	1.49e+00	0	43	104	0	65	21375
2026-01-28 08:53:47.82	356.78	41.50	-47.5	-62.4	3.8	1.49e+00	0	43	104	0	65	21357
2026-01-28 08:53:48.82	356.51	41.28	-47.6	-62.4	3.8	1.49e+00	0	43	104	0	65	21434
2026-01-28 08:53:49.83	356.24	41.05	-47.5	-62.4	3.8	1.49e+00	0	43	104	0	65	21378
2026-01-28 08:53:50.84	355.97	40.83	-47.5	-62.4	3.8	1.49e+00	0	43	104	0	65	21376
2026-01-28 08:53:51.85	355.70	40.60	-47.6	-62.4	3.8	1.49e+00	0	43	104	0	65	21381
2026-01-28 08:53:52.85	355.44	40.38	-47.5	-62.4	3.8	1.49e+00	0	43	104	0	65	21377
2026-01-28 08:53:53.86	355.18	40.16	-47.5	-62.4	3.8	1.49e+00	0	43	104	0	65	21436
2026-01-28 08:53:54.87	354.93	39.94	-47.6	-62.4	3.8	1.49e+00	0	43	104	0	65	21385
2026-01-28 08:53:55.88	354.68	39.72	-47.5	-62.4	3.8	1.49e+00	0	43	104	0	65	21417
2026-01-28 08:53:56.89	354.43	39.50	-47.5	-62.4	3.8	1.49e+00	0	43	104	0	65	21345
2026-01-28 08:53:57.89	354.19	39.28	-47.6	-62.4	3.8	1.49e+00	0	43	104	0	65	21435
2026-01-28 08:53:58.90	353.95	39.06	-47.6	-62.4	3.8	1.49e+00	0	43	104	0	65	21383
2026-01-28 08:53:59.91	353.71	38.84	-47.5	-62.4	3.8	1.49e+00	0	43	104	0	65	21418
2026-01-28 08:54:00.91	353.48	38.63	-47.5	-62.4	3.8	1.49e+00	0	43	104	0	65	21356
2026-01-28 08:54:01.92	353.25	38.41	-47.6	-62.4	3.8	1.49e+00	0	43	104	0	65	21392
2026-01-28 08:54:02.93	353.02	38.19	-47.6	-62.4	3.8	1.49e+00	0	43	104	0	65	21412
2026-01-28 08:54:03.94	352.79	37.98	-47.5	-62.4	3.8	1.49e+00	0	43	104	0	65	21387
2026-01-28 08:54:04.95	352.57	37.76	-47.5	-62.4	3.8	1.49e+00	0	43	104	0	65	21428
2026-01-28 08:54:05.96	352.35	37.55	-47.5	-62.4	3.8	1.49e+00	0	43	104	0	65	21363
2026-01-28 08:54:06.96	352.14	37.34	-47.5	-62.4	3.8	1.49e+00	0	43	104	0	65	21373
2026-01-28 08:54:07.97	351.92	37.13	-47.6	-62.4	3.8	1.49e+00	0	43	104	0	65	21401
2026-01-28 08:54:08.98	351.71	36.92	-47.6	-62.4	3.8	1.49e+00	0	43	104	0	65	21406
2026-01-28 08:54:09.99	351.50	36.71	-47.5	-62.4	3.8	1.49e+00	0	43	104	0	65	21408
2026-01-28 08:54:11.00	351.30	36.50	-47.5	-62.4	3.8	1.49e+00	0	43	104	0	65	21394
2026-01-28 08:54:12.00	351.10	36.30	-47.5	-62.4	3.8	1.49e+00	0	43	104	0	65	21381
2026-01-28 08:54:13.01	350.90	36.09	-47.5	-62.4	3.8	1.49e+00	0	43	104	0	65	21399
2026-01-28 08:54:14.02	350.70	35.88	-47.5	-62.4	3.8	1.49e+00	0	43	104	0	65	21416
2026-01-28 08:54:15.03	350.50	35.68	-47.6	-62.4	3.8	1.49e+00	0	43	104	0	65	21398
2026-01-28 08:54:16.04	350.31	35.47	-47.5	-62.4	3.8	1.49e+00	0	43	104	0	65	21365
2026-01-28 08:54:17.04	350.12	35.27	-47.5	-62.4	3.8	1.49e+00	0	43	104	0	65	21377
2026-01-28 08:54:18.06	349.93	35.07	-47.5	-62.4	3.8	1.49e+00	0	43	104	0	65	21349
2026-01-28 08:54:19.07	349.75	34.87	-47.5	-62.4	3.8	1.49e+00	0	43	104	0	65	21344
2026-01-28 08:54:20.07	349.57	34.67	-47.5	-62.4	3.8	1.49e+00	0	43	104	0	65	21414
2026-01-28 08:54:21.08	349.38	34.47	-47.6	-62.4	3.8	1.49e+00	0	43	104	0	65	21394
2026-01-28 08:54:22.09	349.21	34.27	-47.6	-62.4	3.8	1.49e+00	0	43	104	0	65	21411
2026-01-28 08:54:23.09	349.03	34.08	-47.5	-62.4	3.8	1.49e+00	0	43	104	0	65	21372
2026-01-28 08:54:24.10	348.86	33.88	-47.5	-62.4	3.8	1.49e+00	0	43	104	0	65	21402
2026-01-28 08:54:25.11	348.68	33.68	-47.5	-62.4	3.8	1.49e+00	0	43	104	0	65	21372
2026-01-28 08:54:26.12	348.51	33.49	-47.5	-62.4	3.8	1.49e+00	0	43	104	0	65	21416
2026-01-28 08:54:27.12	348.35	33.30	-47.5	-62.4	3.8	1.49e+00	0	43	104	0	65	21438
2026-01-28 08:54:28.13	348.18	33.10	-47.6	-62.4	3.8	1.49e+00	0	43	104	0	65	21423
2026-01-28 08:54:29.14	348.02	32.91	-47.6	-62.4	3.8	1.49e+00	0	43	104	0	65	21384
2026-01-28 08:54:30.15	347.86	32.72	-47.5	-62.4	3.8	1.49e+00	0	43	104	0	65	21313
2026-01-28 08:54:31.16	347.70	32.53	-47.5	-62.4	3.8	1.49e+00	0	43	104	0	65	21362
2026-01-28 08:54:32.17	347.54	32.34	-47.5	-62.4	3.8	1.49e+00	0	43	104	0	65	21396
2026-01-28 08:54:33.17	347.38	32.16	-47.6	-62.4	3.8	1.49e+00	0	43	104	0	65	21383
2026-01-28 08:54:34.18	347.23	31.97	-47.5	-62.4	3.8	1.49e+00	0	43	104	0	65	21437
2026-01-28 08:54:35.19	347.07	31.78	-47.5	-62.4	3.8	1.49e+00	0	43	104	0	65	21381
2026-01-28 08:54:36.19	346.93	31.60	-47.5	-62.4	3.8	1.49e+00	0	43	104	0	65	21427
2026-01-28 08:54:37.20	346.78	31.42	-47.6	-62.4	3.8	1.49e+00	0	43	104	0	65	21415
2026-01-28 08:54:38.21	346.63	31.23	-47.6	-62.4	3.8	1.49e+00	0	43	104	0	65	21426
2026-01-28 08:54:39.21	346.48	31.05	-47.6	-62.4	3.8	1.49e+00	0	43	104	0	65	21420
2026-01-28 08:54:40.22	346.34	30.87	-47.5	-62.4	3.8	1.49e+00	0	43	104	0	65	21372
2026-01-28 08:54:41.23	346.20	30.69	-47.6	-62.4	3.8	1.49e+00	0	43	104	0	65	21390
2026-01-28 08:54:42.24	346.06	30.51	-47.6	-62.4	3.8	1.49e+00	0	43	104	0	65	21402
2026-01-28 08:54:43.24	345.92	30.33	-47.5	-62.4	3.8	1.49e+00	0	43	104	0	65	21359
2026-01-28 08:54:44.25	345.78	30.15	-47.5	-62.4	3.8	1.49e+00	0	43	104	0	65	21404
2026-01-28 08:54:45.26	345.64	29.98	-47.5	-62.4	3.8	1.49e+00	0	43	104	0	65	21403
2026-01-28 08:54:46.27	345.51	29.80	-47.5	-62.4	3.8	1.49e+00	0	43	104	0	65	21382
2026-01-28 08:54:47.28	345.38	29.63	-47.5	-62.4	3.8	1.49e+00	0	43	104	0	65	21367
2026-01-28 08:54:48.29	345.24	29.45	-47.5	-62.4	3.8	1.49e+00	0	43	104	0	65	21376
2026-01-28 08:54:49.30	345.11	29.28	-47.5	-62.4	3.8	1.49e+00	0	43	104	0	65	21381
2026-01-28 08:54:50.31	344.99	29.11	-47.6	-62.4	3.8	1.49e+00	0	43	104	0	65	21453
2026-01-28 08:54:51.32	344.86	28.93	-47.5	-62.4	3.8	1.49e+00	0	43	104	0	65	21391
2026-01-28 08:54:52.33	344.73	28.76	-47.5	-62.4	3.8	1.49e+00	0	43	104	0	65	21418
2026-01-28 08:54:53.33	344.61	28.60	-47.6	-62.4	3.8	1.49e+00	0	43	104	0	65	21424
2026-01-28 08:54:54.34	344.49	28.43	-47.5	-62.4	3.8	1.49e+00	0	43	104	0	65	21329
2026-01-28 08:54:55.35	344.36	28.26	-47.5	-62.4	3.8	1.49e+00	0	43	104	0	65	21400
2026-01-28 08:54:56.36	344.24	28.09	-47.5	-62.4	3.8	1.49e+00	0	43	104	0	65	21403
2026-01-28 08:54:57.37	344.12	27.92	-47.6	-62.4	3.8	1.49e+00	0	43	104	0	65	21389
2026-01-28 08:54:58.37	344.01	27.76	-47.6	-62.4	3.8	1.49e+00	0	43	104	0	65	21432
2026-01-28 08:54:59.38	343.89	27.60	-47.6	-62.4	3.8	1.49e+00	0	43	104	0	65	21404
2026-01-28 08:55:00.39	343.77	27.43	-47.6	-62.4	3.8	1.49e+00	0	43	104	0	65	21414
2026-01-28 08:55:01.39	343.66	27.27	-47.5	-62.4	3.8	1.49e+00	0	43	104	0	65	21456
2026-01-28 08:55:02.40	343.55	27.11	-47.6	-62.4	3.8	1.49e+00	0	43	104	0	65	21421
2026-01-28 08:55:03.41	343.44	26.95	-47.6	-62.4	3.8	1.49e+00	0	43	104	0	65	21395
2026-01-28 08:55:04.42	343.32	26.79	-47.5	-62.4	3.8	1.49e+00	0	43	104	0	65	21413
2026-01-28 08:55:05.43	343.21	26.63	-47.5	-62.4	3.8	1.49e+00	0	43	104	0	65	21368
2026-01-28 08:55:06.44	343.11	26.47	-47.6	-62.4	3.8	1.49e+00	0	43	104	0	65	21442
2026-01-28 08:55:07.44	343.00	26.31	-47.6	-62.4	3.8	1.49e+00	0	43	104	0	65	21437
2026-01-28 08:55:08.45	342.89	26.16	-47.6	-62.4	3.8	1.49e+00	0	43	104	0	65	21363
2026-01-28 08:55:09.46	342.79	26.00	-47.6	-62.4	3.8	1.49e+00	0	43	104	0	65	21417
2026-01-28 08:55:10.47	342.68	25.84	-47.5	-62.4	3.8	1.49e+00	0	43	104	0	65	21370
2026-01-28 08:55:11.48	342.58	25.69	-47.6	-62.4	3.8	1.49e+00	0	43	104	0	65	21389
2026-01-28 08:55:12.49	342.48	25.53	-47.6	-62.4	3.8	1.49e+00	0	43	104	0	65	21372
2026-01-28 08:55:13.49	342.38	25.38	-47.5	-62.4	3.8	1.49e+00	0	43	104	0	65	21439
2026-01-28 08:55:14.50	342.28	25.23	-47.6	-62.4	3.8	1.49e+00	0	43	104	0	65	21428
2026-01-28 08:55:15.51	342.18	25.08	-47.6	-62.4	3.8	1.49e+00	0	43	104	0	65	21365
2026-01-28 08:55:16.52	342.08	24.93	-47.5	-62.4	3.8	1.49e+00	0	43	104	0	65	21355
2026-01-28 08:55:17.53	341.98	24.78	-47.6	-62.4	3.8	1.49e+00	0	43	104	0	65	21424
2026-01-28 08:55:18.53	341.89	24.63	-47.5	-62.4	3.8	1.49e+00	0	43	104	0	65	21374
2026-01-28 08:55:19.54	341.79	24.48	-47.6	-62.4	3.8	1.49e+00	0	43	104	0	65	21435
2026-01-28 08:55:20.55	341.70	24.33	-47.5	-62.4	3.8	1.49e+00	0	43	104	0	65	21413
2026-01-28 08:55:21.56	341.60	24.19	-47.5	-62.4	3.8	1.49e+00	0	43	104	0	65	21407
2026-01-28 08:55:22.57	341.51	24.04	-47.6	-62.4	3.8	1.49e+00	0	43	104	0	65	21343
2026-01-28 08:55:23.57	341.42	23.90	-47.5	-62.4	3.8	1.49e+00	0	43	104	0	65	21433
2026-01-28 08:55:24.58	341.33	23.75	-47.5	-62.4	3.8	1.49e+00	0	43	104	0	65	21392
2026-01-28 08:55:25.59	341.24	23.61	-47.5	-62.4	3.8	1.49e+00	0	43	104	0	65	21353
2026-01-28 08:55:26.60	341.15	23.46	-47.5	-62.4	3.8	1.49e+00	0	43	104	0	65	21423
2026-01-28 08:55:27.60	341.06	23.32	-47.5	-62.4	3.8	1.49e+00	0	43	104	0	65	21382
2026-01-28 08:55:28.61	340.98	23.18	-47.5	-62.4	3.8	1.49e+00	0	43	104	0	65	21382
2026-01-28 08:55:29.62	340.89	23.04	-47.5	-62.4	3.8	1.49e+00	0	43	104	0	65	21394
2026-01-28 08:55:30.63	340.80	22.90	-47.5	-62.4	3.8	1.49e+00	0	43	104	0	65	21409
2026-01-28 08:55:31.63	340.72	22.76	-47.5	-62.4	3.8	1.49e+00	0	43	104	0	65	21420
2026-01-28 08:55:32.64	340.64	22.62	-47.5	-62.4	3.8	1.49e+00	0	43	104	0	65	21399
2026-01-28 08:55:33.65	340.55	22.48	-47.6	-62.4	3.8	1.49e+00	0	43	104	0	65	21374
2026-01-28 08:55:34.66	340.47	22.34	-47.5	-62.4	3.8	1.49e+00	0	43	104	0	65	21414
2026-01-28 08:55:35.66	340.39	22.21	-47.5	-62.4	3.8	1.49e+00	0	43	104	0	65	21413
2026-01-28 08:55:36.67	340.31	22.07	-47.5	-62.4	3.8	1.49e+00	0	43	104	0	65	21384
2026-01-28 08:55:37.68	340.23	21.93	-47.5	-62.4	3.8	1.49e+00	0	43	104	0	65	21339
2026-01-28 08:55:38.69	340.15	21.80	-47.5	-62.4	3.8	1.49e+00	0	43	104	0	65	21368
2026-01-28 08:55:39.70	340.07	21.66	-47.5	-62.4	3.8	1.49e+00	0	43	104	0	65	21405
2026-01-28 08:55:40.71	339.99	21.53	-47.6	-62.4	3.8	1.49e+00	0	43	104	0	65	21399
2026-01-28 08:55:41.72	339.91	21.40	-47.6	-62.4	3.8	1.49e+00	0	43	104	0	65	21380
2026-01-28 08:55:42.73	339.84	21.26	-47.6	-62.4	3.8	1.49e+00	0	43	104	0	65	21364
2026-01-28 08:55:43.74	339.76	21.13	-47.5	-62.4	3.8	1.49e+00	0	43	104	0	65	21402
2026-01-28 08:55:44.75	339.68	21.00	-47.6	-62.4	3.8	1.49e+00	0	43	104	0	65	21409
2026-01-28 08:55:45.75	339.61	20.87	-47.5	-62.4	3.8	1.49e+00	0	43	104	0	65	21326
2026-01-28 08:55:46.76	339.54	20.74	-47.5	-62.4	3.8	1.49e+00	0	43	104	0	65	21436
2026-01-28 08:55:47.77	339.46	20.61	-47.5	-62.4	3.8	1.49e+00	0	43	104	0	65	21333
2026-01-28 08:55:48.77	339.39	20.48	-47.5	-62.4	3.8	1.49e+00	0	43	104	0	65	21382
2026-01-28 08:55:49.78	339.32	20.36	-47.5	-62.4	3.8	1.49e+00	0	43	104	0	65	21411
2026-01-28 08:55:50.79	339.25	20.23	-47.5	-62.4	3.8	1.49e+00	0	43	104	0	65	21331
2026-01-28 08:55:51.80	339.17	20.10	-47.5	-62.4	3.8	1.49e+00	0	43	104	0	65	21416
2026-01-28 08:55:52.81	339.10	19.97	-47.6	-62.4	3.8	1.49e+00	0	43	104	0	65	21348
2026-01-28 08:55:53.82	339.03	19.85	-47.5	-62.4	3.8	1.49e+00	0	43	104	0	65	21354
2026-01-28 08:55:54.83	338.97	19.72	-47.5	-62.4	3.8	1.49e+00	0	43	104	0	65	21419
2026-01-28 08:55:55.83	338.90	19.60	-47.5	-62.4	3.8	1.49e+00	0	43	104	0	65	21369
2026-01-28 08:55:56.84	338.83	19.48	-47.5	-62.4	3.8	1.49e+00	0	43	104	0	65	21396
2026-01-28 08:55:57.85	338.76	19.35	-47.5	-62.4	3.8	1.49e+00	0	43	104	0	65	21342
2026-01-28 08:55:58.85	338.70	19.23	-47.5	-62.4	3.8	1.49e+00	0	43	104	0	65	21438
2026-01-28 08:55:59.86	338.63	19.11	-47.5	-62.4	3.8	1.49e+00	0	43	104	0	65	21359
2026-01-28 08:56:00.87	338.56	18.99	-47.5	-62.4	3.8	1.49e+00	0	43	104	0	65	21407
2026-01-28 08:56:01.88	338.50	18.86	-47.5	-62.4	3.8	1.49e+00	0	43	104	0	65	21387
2026-01-28 08:56:02.89	338.43	18.74	-47.5	-62.4	3.8	1.49e+00	0	43	104	0	65	21369
2026-01-28 08:56:03.89	338.37	18.62	-47.5	-62.4	3.8	1.49e+00	0	43	104	0	65	21313
2026-01-28 08:56:04.90	338.31	18.50	-47.5	-62.4	3.8	1.49e+00	0	43	104	0	65	21390
2026-01-28 08:56:05.91	338.24	18.39	-47.5	-62.4	3.8	1.49e+00	0	43	104	0	65	21384
2026-01-28 08:56:06.91	338.18	18.27	-47.6	-62.4	3.8	1.49e+00	0	43	104	0	65	21406
2026-01-28 08:56:07.92	338.12	18.15	-47.5	-62.4	3.8	1.49e+00	0	43	104	0	65	21316
2026-01-28 08:56:08.93	338.06	18.03	-47.5	-62.4	3.8	1.49e+00	0	43	104	0	65	21416
2026-01-28 08:56:09.93	338.00	17.92	-47.5	-62.4	3.8	1.49e+00	0	43	104	0	65	21417
2026-01-28 08:56:10.94	337.94	17.80	-47.6	-62.4	3.8	1.49e+00	0	43	104	0	65	21423
2026-01-28 08:56:11.95	337.88	17.68	-47.5	-62.4	3.8	1.49e+00	0	43	104	0	65	21364
2026-01-28 08:56:12.96	337.82	17.57	-47.5	-62.4	3.8	1.49e+00	0	43	104	0	65	21328
2026-01-28 08:56:13.97	337.76	17.45	-47.5	-62.4	3.8	1.49e+00	0	43	104	0	65	21378
2026-01-28 08:56:14.97	337.70	17.34	-47.5	-62.4	3.8	1.49e+00	0	43	104	0	65	21385
2026-01-28 08:56:15.98	337.64	17.23	-47.5	-62.4	3.8	1.49e+00	0	43	104	0	65	21357
2026-01-28 08:56:16.99	337.59	17.11	-47.5	-62.4	3.8	1.49e+00	0	43	104	0	65	21400
2026-01-28 08:56:18.00	337.53	17.00	-47.6	-62.4	3.8	1.49e+00	0	43	104	0	65	21363
2026-01-28 08:56:19.01	337.47	16.89	-47.5	-62.4	3.8	1.49e+00	0	43	104	0	65	21402
2026-01-28 08:56:20.02	337.42	16.77	-47.5	-62.4	3.8	1.49e+00	0	43	104	0	65	21370
2026-01-28 08:56:21.03	337.36	16.66	-47.6	-62.4	3.8	1.49e+00	0	43	104	0	65	21413
2026-01-28 08:56:22.04	337.31	16.55	-47.6	-62.4	3.8	1.49e+00	0	43	104	0	65	21368
2026-01-28 08:56:23.05	337.25	16.44	-47.5	-62.4	3.8	1.49e+00	0	43	104	0	65	21346
2026-01-28 08:56:24.05	337.20	16.33	-47.5	-62.4	3.8	1.49e+00	0	43	104	0	65	21373
2026-01-28 08:56:25.06	337.14	16.22	-47.5	-62.4	3.8	1.49e+00	0	43	104	0	65	21387
2026-01-28 08:56:26.07	337.09	16.11	-47.5	-62.4	3.8	1.49e+00	0	43	104	0	65	21405
2026-01-28 08:56:27.08	337.04	16.00	-47.5	-62.4	3.8	1.49e+00	0	43	104	0	65	21378
2026-01-28 08:56:28.09	336.98	15.90	-47.5	-62.4	3.8	1.49e+00	0	43	104	0	65	21440
2026-01-28 08:56:29.10	336.93	15.79	-47.5	-62.4	3.8	1.49e+00	0	43	104	0	65	21335
2026-01-28 08:56:30.10	336.88	15.68	-47.6	-62.4	3.8	1.49e+00	0	43	104	0	65	21367
2026-01-28 08:56:31.11	336.83	15.57	-47.6	-62.4	3.8	1.49e+00	0	43	104	0	65	21406
2026-01-28 08:56:32.12	336.78	15.47	-47.5	-62.4	3.8	1.49e+00	0	43	104	0	65	21369
2026-01-28 08:56:33.12	336.73	15.36	-47.5	-62.4	3.8	1.49e+00	0	43	104	0	65	21418
2026-01-28 08:56:34.13	336.68	15.26	-47.5	-62.4	3.8	1.49e+00	0	43	104	0	65	21365
2026-01-28 08:56:35.14	336.63	15.15	-47.5	-62.4	3.8	1.49e+00	0	43	104	0	65	21396
2026-01-28 08:56:36.14	336.58	15.05	-47.5	-62.4	3.8	1.49e+00	0	43	104	0	65	21401
2026-01-28 08:56:37.15	336.53	14.94	-47.6	-62.4	3.8	1.49e+00	0	43	104	0	65	21421
2026-01-28 08:56:38.16	336.48	14.84	-47.5	-62.4	3.8	1.49e+00	0	43	104	0	65	21384
2026-01-28 08:56:39.17	336.43	14.74	-47.5	-62.4	3.8	1.49e+00	0	43	104	0	65	21368
2026-01-28 08:56:40.17	336.38	14.63	-47.5	-62.4	3.8	1.49e+00	0	43	104	0	65	21398
2026-01-28 08:56:41.18	336.33	14.53	-47.6	-62.4	3.8	1.49e+00	0	43	104	0	65	21401
2026-01-28 08:56:42.19	336.29	14.43	-47.5	-62.4	3.8	1.49e+00	0	43	104	0	65	21419
2026-01-28 08:56:43.20	336.24	14.33	-47.5	-62.4	3.8	1.49e+00	0	43	104	0	65	21368
2026-01-28 08:56:44.21	336.19	14.23	-47.6	-62.4	3.8	1.49e+00	0	43	104	0	65	21378
2026-01-28 08:56:45.22	336.15	14.12	-47.5	-62.4	3.8	1.49e+00	0	43	104	0	65	21395
2026-01-28 08:56:46.23	336.10	14.02	-47.5	-62.4	3.8	1.49e+00	0	43	104	0	65	21388
2026-01-28 08:56:47.23	336.06	13.93	-47.5	-62.4	3.8	1.49e+00	0	43	104	0	65	21364
2026-01-28 08:56:48.24	336.01	13.83	-47.5	-62.4	3.8	1.49e+00	0	43	104	0	65	21387
2026-01-28 08:56:49.25	335.96	13.73	-47.6	-62.4	3.8	1.49e+00	0	43	104	0	65	21378
2026-01-28 08:56:50.26	335.92	13.63	-47.5	-62.4	3.8	1.49e+00	0	43	104	0	65	21363
2026-01-28 08:56:51.27	335.88	13.53	-47.5	-62.4	3.8	1.49e+00	0	43	104	0	65	21390
2026-01-28 08:56:52.28	335.83	13.43	-47.5	-62.4	3.8	1.49e+00	0	43	104	0	65	21419
2026-01-28 08:56:53.28	335.79	13.33	-47.5	-62.4	3.8	1.49e+00	0	43	104	0	65	21396
2026-01-28 08:56:54.29	335.74	13.23	-47.5	-62.4	3.8	1.49e+00	0	43	104	0	65	21382
2026-01-28 08:56:55.29	335.70	13.14	-47.5	-62.4	3.8	1.49e+00	0	43	104	0	65	21372
2026-01-28 08:56:56.30	335.66	13.04	-47.5	-62.4	3.8	1.49e+00	0	43	104	0	65	21418
2026-01-28 08:56:57.30	335.62	12.95	-47.5	-62.4	3.8	1.49e+00	0	43	104	0	65	21363
2026-01-28 08:56:58.31	335.57	12.85	-47.5	-62.4	3.8	1.49e+00	0	43	104	0	65	21404
2026-01-28 08:56:59.32	335.53	12.75	-47.5	-62.4	3.8	1.49e+00	0	43	104	0	65	21391
2026-01-28 08:57:00.33	335.49	12.66	-47.5	-62.4	3.8	1.49e+00	0	43	104	0	65	21388
2026-01-28 08:57:01.33	335.45	12.56	-47.5	-62.4	3.8	1.49e+00	0	43	104	0	65	21422
2026-01-28 08:57:02.34	335.41	12.47	-47.5	-62.4	3.8	1.49e+00	0	43	104	0	65	21369
2026-01-28 08:57:03.35	335.37	12.38	-47.5	-62.4	3.8	1.49e+00	0	43	104	0	65	21363
2026-01-28 08:57:04.36	335.33	12.28	-47.5	-62.4	3.8	1.49e+00	0	43	104	0	65	21354
2026-01-28 08:57:05.37	335.29	12.19	-47.5	-62.4	3.8	1.49e+00	0	43	104	0	65	21308
2026-01-28 08:57:06.38	335.25	12.09	-47.5	-62.4	3.8	1.49e+00	0	43	104	0	65	21400
2026-01-28 08:57:07.39	335.21	12.00	-47.5	-62.4	3.8	1.49e+00	0	43	104	0	65	21326
2026-01-28 08:57:08.40	335.17	11.91	-47.5	-62.4	3.8	1.49e+00	0	43	104	0	65	21373
2026-01-28 08:57:09.41	335.13	11.82	-47.5	-62.4	3.8	1.49e+00	0	43	104	0	65	21315
2026-01-28 08:57:10.41	335.09	11.73	-47.6	-62.4	3.8	1.49e+00	0	43	104	0	65	21397
2026-01-28 08:57:11.42	335.05	11.63	-47.5	-62.4	3.8	1.49e+00	0	43	104	0	65	21429
2026-01-28 08:57:12.43	335.01	11.54	-47.5	-62.4	3.8	1.49e+00	0	43	104	0	65	21372
2026-01-28 08:57:13.44	334.98	11.45	-47.5	-62.4	3.8	1.49e+00	0	43	104	0	65	21409
2026-01-28 08:57:14.45	334.94	11.36	-47.6	-62.4	3.8	1.49e+00	0	43	104	0	65	21376
2026-01-28 08:57:15.46	334.90	11.27	-47.5	-62.4	3.8	1.49e+00	0	43	104	0	65	21409
2026-01-28 08:57:16.46	334.86	11.18	-47.5	-62.4	3.8	1.49e+00	0	43	104	0	65	21377
2026-01-28 08:57:17.47	334.83	11.09	-47.5	-62.4	3.8	1.49e+00	0	43	104	0	65	21337
2026-01-28 08:57:18.48	334.79	11.00	-47.5	-62.4	3.8	1.49e+00	0	43	104	0	65	21333
2026-01-28 08:57:19.49	334.75	10.91	-47.5	-62.4	3.8	1.49e+00	0	43	104	0	65	21410
2026-01-28 08:57:20.50	334.72	10.82	-47.5	-62.4	3.8	1.49e+00	0	43	104	0	65	21402
2026-01-28 08:57:21.51	334.68	10.74	-47.5	-62.4	3.8	1.49e+00	0	43	104	0	65	21411
2026-01-28 08:57:22.51	334.65	10.65	-47.5	-62.4	3.8	1.49e+00	0	43	104	0	65	21364
2026-01-28 08:57:23.52	334.61	10.56	-47.5	-62.4	3.8	1.49e+00	0	43	104	0	65	21341
2026-01-28 08:57:24.53	334.58	10.47	-47.5	-62.4	3.8	1.49e+00	0	43	104	0	65	21423
2026-01-28 08:57:25.54	334.54	10.39	-47.5	-62.4	3.8	1.49e+00	0	43	104	0	65	21379
2026-01-28 08:57:26.55	334.51	10.30	-47.5	-62.4	3.8	1.49e+00	0	43	104	0	65	21395
2026-01-28 08:57:27.56	334.47	10.21	-47.6	-62.4	3.8	1.49e+00	0	43	104	0	65	21366
2026-01-28 08:57:28.57	334.44	10.13	-47.5	-62.4	3.8	1.49e+00	0	43	104	0	65	21383
2026-01-28 08:57:29.57	334.40	10.04	-47.5	-62.4	3.8	1.49e+00	0	43	104	0	65	21355
