passes_logs/2026/01/28/R3.2S_Murmansk/R3.2S_Murmansk__20260128_122852_NOAA_20_JPSS-1_rec.log

#Pass ID: 20260128_122852_NOAA 20 (JPSS-1)
#Satellite: NOAA 20 (JPSS-1)
#Configuration: NOAA 20
#almurnet v.1.7.20251203
#Start time: 2026-01-28 12:28:54

#Version: 2.2.20231116
#Station: R3.2S_Murmansk
#Location: 33.079688 lon 68.888172 lat
#TLE: 1 43013U 17073A   26027.80586608  .00000156  00000+0  94940-4 0  9998
#TLE: 2 43013  98.7647 328.6108 0000947  21.3465 338.7750 14.19541216424550

#Time	Az	El	Level	Level2	SNR	BER	BlckErr	Temp	State	Recorded	gain1	gain2
2026-01-28 12:28:54.50	227.82	2.12	-53.6	-68.5	3.8	1.49e+00	0	40	0	0	79	19284
2026-01-28 12:28:55.52	227.90	2.17	-52.4	-67.4	3.8	1.49e+00	0	41	104	0	76	20232
2026-01-28 12:28:56.52	227.99	2.22	-52.4	-67.4	3.8	1.49e+00	0	40	104	0	76	20168
2026-01-28 12:28:57.53	228.08	2.27	-52.4	-67.4	3.8	1.49e+00	0	41	104	0	76	20134
2026-01-28 12:28:58.54	228.17	2.32	-52.4	-67.4	3.8	1.49e+00	0	41	104	0	76	20078
2026-01-28 12:28:59.55	228.25	2.37	-52.4	-67.4	3.8	1.49e+00	0	40	104	0	76	20091
2026-01-28 12:29:00.55	228.34	2.42	-52.4	-67.4	3.8	1.49e+00	0	41	104	0	76	20111
2026-01-28 12:29:01.56	228.43	2.47	-52.4	-67.4	3.8	1.49e+00	0	41	104	0	76	20094
2026-01-28 12:29:02.57	228.52	2.52	-52.4	-67.3	3.8	1.49e+00	0	41	104	0	76	20050
2026-01-28 12:29:03.57	228.61	2.57	-52.4	-67.3	3.8	1.49e+00	0	41	104	0	76	20044
2026-01-28 12:29:04.58	228.70	2.63	-52.4	-67.4	3.8	1.49e+00	0	41	104	0	76	20087
2026-01-28 12:29:05.59	228.79	2.68	-52.4	-67.4	3.8	1.49e+00	0	41	104	0	76	20080
2026-01-28 12:29:06.60	228.88	2.73	-52.4	-67.3	3.8	1.49e+00	0	41	104	0	76	20026
2026-01-28 12:29:07.61	228.97	2.78	-52.4	-67.3	3.8	1.49e+00	0	41	104	0	76	20056
2026-01-28 12:29:08.61	229.06	2.83	-52.4	-67.3	3.8	1.49e+00	0	41	104	0	76	19999
2026-01-28 12:29:09.62	229.15	2.88	-52.4	-67.3	3.8	1.49e+00	0	41	104	0	76	19995
2026-01-28 12:29:10.63	229.24	2.93	-52.4	-67.3	3.8	1.49e+00	0	41	104	0	76	20042
2026-01-28 12:29:11.64	229.33	2.98	-52.4	-67.3	3.8	1.49e+00	0	41	104	0	76	19979
2026-01-28 12:29:12.64	229.42	3.04	-52.4	-67.3	3.8	1.49e+00	0	41	104	0	76	20044
2026-01-28 12:29:13.65	229.52	3.09	-52.4	-67.3	3.8	1.49e+00	0	41	104	0	76	20019
2026-01-28 12:29:14.66	229.61	3.14	-52.4	-67.3	3.8	1.49e+00	0	41	104	0	76	20014
2026-01-28 12:29:15.67	229.70	3.19	-52.4	-67.3	3.8	1.49e+00	0	41	104	0	76	20016
2026-01-28 12:29:16.67	229.80	3.24	-52.4	-67.3	3.8	1.49e+00	0	41	104	0	76	20024
2026-01-28 12:29:17.68	229.89	3.29	-52.4	-67.3	3.8	1.49e+00	0	41	104	0	76	20016
2026-01-28 12:29:18.69	229.98	3.34	-52.4	-67.3	3.8	1.49e+00	0	41	104	0	76	19951
2026-01-28 12:29:19.70	230.08	3.40	-52.4	-67.3	3.8	1.49e+00	0	41	104	0	76	19966
2026-01-28 12:29:20.70	230.17	3.45	-52.4	-67.3	3.8	1.49e+00	0	41	104	0	76	19925
2026-01-28 12:29:21.71	230.27	3.50	-52.4	-67.3	3.8	1.49e+00	0	41	104	0	76	19955
2026-01-28 12:29:22.72	230.36	3.55	-52.3	-67.3	3.8	1.49e+00	0	41	104	0	76	19957
2026-01-28 12:29:23.73	230.46	3.60	-52.4	-67.3	3.8	1.49e+00	0	41	104	0	76	19938
2026-01-28 12:29:24.73	230.55	3.65	-52.4	-67.3	3.8	1.49e+00	0	41	104	0	76	19909
2026-01-28 12:29:25.74	230.65	3.71	-52.3	-67.2	3.8	1.49e+00	0	41	104	0	76	19790
2026-01-28 12:29:26.75	230.74	3.76	-52.3	-67.2	3.8	1.49e+00	0	41	104	0	76	19676
2026-01-28 12:29:27.75	230.84	3.81	-52.3	-67.1	3.8	1.49e+00	0	41	104	0	76	19581
2026-01-28 12:29:28.76	230.94	3.86	-52.3	-67.1	3.8	1.49e+00	0	41	104	0	76	19599
2026-01-28 12:29:29.77	231.03	3.91	-52.3	-67.2	3.8	1.49e+00	0	41	104	0	76	19651
2026-01-28 12:29:30.78	231.13	3.97	-52.3	-67.2	3.8	1.49e+00	0	42	104	0	76	19729
2026-01-28 12:29:31.79	231.23	4.02	-52.3	-67.2	3.8	1.49e+00	0	41	104	0	76	19787
2026-01-28 12:29:32.80	231.33	4.07	-52.3	-67.2	3.8	1.49e+00	0	42	104	0	76	19716
2026-01-28 12:29:33.81	231.43	4.12	-52.3	-67.2	3.8	1.49e+00	0	42	104	0	76	19683
2026-01-28 12:29:34.81	231.53	4.17	-52.3	-67.2	3.8	1.49e+00	0	41	104	0	76	19790
2026-01-28 12:29:35.82	231.63	4.23	-52.3	-67.3	3.8	1.49e+00	0	42	104	0	76	19898
2026-01-28 12:29:36.83	231.73	4.28	-52.3	-67.3	3.8	1.49e+00	0	42	104	0	76	19931
2026-01-28 12:29:37.84	231.83	4.33	-52.3	-67.0	3.8	1.49e+00	0	42	104	0	76	19287
2026-01-28 12:29:38.85	231.93	4.38	-52.3	-66.4	3.8	1.49e+00	0	42	104	0	76	17915
2026-01-28 12:29:39.85	232.03	4.44	-52.2	-65.5	3.8	1.49e+00	0	42	104	0	76	16132
2026-01-28 12:29:40.86	232.13	4.49	-52.2	-64.8	3.8	1.49e+00	0	41	104	0	76	15041
2026-01-28 12:29:41.87	232.23	4.54	-52.2	-64.6	3.9	1.46e+00	0	42	104	0	76	14683
2026-01-28 12:29:42.87	232.33	4.59	-52.2	-64.6	4.0	1.48e+00	0	42	104	0	76	14564
2026-01-28 12:29:43.88	232.43	4.65	-52.2	-64.9	3.9	1.47e+00	0	42	104	0	76	15178
2026-01-28 12:29:44.89	232.53	4.70	-52.2	-64.3	4.1	1.48e+00	0	42	0	0	76	14130
2026-01-28 12:29:45.90	232.64	4.75	-51.9	-61.6	5.1	9.05e-01	0	42	0	1048576	75	10986
2026-01-28 12:29:46.90	232.74	4.80	-51.5	-59.0	6.9	3.02e-01	0	42	0	2097152	75	8164
2026-01-28 12:29:47.91	232.84	4.86	-50.8	-56.1	9.8	5.74e-02	0	42	0	4194304	73	6550
2026-01-28 12:29:48.92	232.95	4.91	-50.1	-54.2	11.9	9.87e-04	0	42	0	6291456	72	5580
2026-01-28 12:29:49.92	233.05	4.96	-49.5	-53.1	13.1	6.40e-05	0	42	0	8388608	71	5175
2026-01-28 12:29:50.93	233.16	5.01	-49.0	-52.1	14.2	5.30e-06	0	42	0	10485760	70	4903
2026-01-28 12:29:51.94	233.26	5.07	-49.5	-53.0	13.4	3.00e-06	0	42	0	11534336	69	5730
2026-01-28 12:29:52.95	233.37	5.12	-51.2	-57.5	8.6	5.15e-03	0	42	0	13631488	72	8138
2026-01-28 12:29:53.96	233.47	5.17	-49.4	-52.7	13.6	4.88e-04	0	42	0	15728640	69	5585
2026-01-28 12:29:54.97	233.58	5.22	-51.8	-61.4	5.2	1.56e-03	0	42	0	17825792	74	11337
2026-01-28 12:29:55.97	233.68	5.28	-49.1	-52.0	14.5	1.14e-05	0	42	0	19922944	68	5460
2026-01-28 12:29:56.98	233.79	5.33	-48.2	-50.6	15.8	7.00e-07	0	42	0	20971520	68	4629
2026-01-28 12:29:57.99	233.90	5.38	-48.3	-50.8	15.6	0.00e+00	0	42	0	23068672	68	4742
2026-01-28 12:29:59.00	234.01	5.43	-48.2	-50.7	15.7	0.00e+00	0	42	0	25165824	68	4683
2026-01-28 12:30:00.01	234.11	5.49	-48.3	-50.8	15.7	0.00e+00	0	42	0	27262976	68	4714
2026-01-28 12:30:01.02	234.22	5.54	-48.3	-50.9	15.6	0.00e+00	0	42	0	29360128	68	4762
2026-01-28 12:30:02.02	234.33	5.59	-48.3	-50.9	15.5	0.00e+00	0	42	0	30408704	68	4779
2026-01-28 12:30:03.03	234.44	5.65	-48.0	-50.4	16.0	0.00e+00	0	42	0	32505856	68	4520
2026-01-28 12:30:04.04	234.55	5.70	-48.2	-50.6	15.8	0.00e+00	0	42	0	34603008	68	4648
2026-01-28 12:30:05.04	234.66	5.75	-48.1	-50.6	15.8	0.00e+00	0	42	0	36700160	68	4609
2026-01-28 12:30:06.05	234.77	5.81	-48.0	-50.3	16.0	0.00e+00	0	42	0	38797312	68	4493
2026-01-28 12:30:07.06	234.88	5.86	-47.9	-50.2	16.1	0.00e+00	0	42	0	39845888	67	4680
2026-01-28 12:30:08.07	234.99	5.91	-47.9	-50.3	16.1	0.00e+00	0	42	0	41943040	67	4714
2026-01-28 12:30:09.07	235.10	5.96	-48.1	-50.5	15.9	0.00e+00	0	42	0	44040192	67	4842
2026-01-28 12:30:10.08	235.21	6.02	-48.1	-50.5	15.9	0.00e+00	0	42	0	46137344	67	4867
2026-01-28 12:30:11.08	235.32	6.07	-48.0	-50.3	16.1	0.00e+00	0	42	0	48234496	67	4757
2026-01-28 12:30:12.09	235.44	6.12	-47.9	-50.1	16.3	0.00e+00	0	42	0	49283072	67	4646
2026-01-28 12:30:13.10	235.55	6.18	-48.0	-50.3	16.1	0.00e+00	0	42	0	51380224	67	4751
2026-01-28 12:30:14.11	235.66	6.23	-47.8	-50.0	16.5	0.00e+00	0	42	0	53477376	67	4556
2026-01-28 12:30:15.12	235.78	6.28	-47.9	-50.2	16.2	0.00e+00	0	42	0	55574528	67	4705
2026-01-28 12:30:16.13	235.89	6.34	-47.9	-50.2	16.3	0.00e+00	0	42	0	57671680	67	4665
2026-01-28 12:30:17.13	236.00	6.39	-47.9	-50.2	16.3	0.00e+00	0	42	0	58720256	67	4693
2026-01-28 12:30:18.14	236.12	6.44	-47.7	-49.9	16.6	0.00e+00	0	42	0	60817408	67	4496
2026-01-28 12:30:19.14	236.23	6.49	-47.4	-49.5	16.9	0.00e+00	0	42	0	62914560	66	4576
2026-01-28 12:30:20.15	236.35	6.55	-47.6	-49.8	16.7	0.00e+00	0	42	0	65011712	66	4739
2026-01-28 12:30:21.16	236.47	6.60	-47.5	-49.6	16.9	0.00e+00	0	42	0	67108864	66	4613
2026-01-28 12:30:22.17	236.58	6.65	-47.4	-49.4	17.0	0.00e+00	0	42	0	68157440	66	4532
2026-01-28 12:30:23.17	236.70	6.71	-47.2	-49.2	17.2	0.00e+00	0	42	0	70254592	66	4434
2026-01-28 12:30:24.18	236.82	6.76	-47.3	-49.3	17.2	0.00e+00	0	42	0	72351744	66	4457
2026-01-28 12:30:25.19	236.93	6.81	-47.2	-49.1	17.4	0.00e+00	0	42	0	74448896	66	4365
2026-01-28 12:30:26.20	237.05	6.87	-47.1	-49.0	17.5	0.00e+00	0	42	0	76546048	66	4325
2026-01-28 12:30:27.21	237.17	6.92	-47.2	-49.2	17.3	0.00e+00	0	42	0	78643200	66	4402
2026-01-28 12:30:28.21	237.29	6.97	-47.0	-48.9	17.6	0.00e+00	0	42	0	79691776	66	4277
2026-01-28 12:30:29.22	237.41	7.03	-47.0	-49.0	17.5	0.00e+00	0	42	0	81788928	65	4548
2026-01-28 12:30:30.23	237.53	7.08	-47.2	-49.1	17.4	0.00e+00	0	42	0	83886080	65	4630
2026-01-28 12:30:31.24	237.65	7.13	-47.1	-49.0	17.5	0.00e+00	0	42	0	85983232	65	4563
2026-01-28 12:30:32.25	237.77	7.19	-47.1	-49.1	17.5	0.00e+00	0	42	0	87031808	65	4606
2026-01-28 12:30:33.25	237.89	7.24	-47.2	-49.2	17.4	0.00e+00	0	42	0	89128960	65	4656
2026-01-28 12:30:34.26	238.01	7.29	-47.0	-48.9	17.6	0.00e+00	0	42	0	91226112	65	4511
2026-01-28 12:30:35.27	238.13	7.35	-47.1	-49.0	17.5	0.00e+00	0	42	0	93323264	65	4565
2026-01-28 12:30:36.28	238.26	7.40	-47.1	-49.0	17.5	0.00e+00	0	42	0	95420416	65	4592
2026-01-28 12:30:37.29	238.38	7.45	-47.1	-49.0	17.5	0.00e+00	0	42	0	96468992	65	4562
2026-01-28 12:30:38.30	238.50	7.51	-46.9	-48.8	17.7	0.00e+00	0	42	0	98566144	65	4461
2026-01-28 12:30:39.31	238.63	7.56	-46.9	-48.7	17.8	0.00e+00	0	42	0	100663296	65	4432
2026-01-28 12:30:40.31	238.75	7.61	-46.8	-48.7	17.9	0.00e+00	0	42	0	102760448	65	4393
2026-01-28 12:30:41.32	238.87	7.67	-47.0	-48.8	17.7	0.00e+00	0	42	0	104857600	65	4479
2026-01-28 12:30:42.33	239.00	7.72	-47.0	-48.9	17.7	0.00e+00	0	42	0	106954752	65	4498
2026-01-28 12:30:43.34	239.12	7.77	-46.9	-48.8	17.8	0.00e+00	0	42	0	108003328	65	4456
2026-01-28 12:30:44.35	239.25	7.83	-47.1	-49.0	17.6	0.00e+00	0	42	0	110100480	65	4548
2026-01-28 12:30:45.35	239.38	7.88	-47.0	-48.9	17.7	0.00e+00	0	42	0	112197632	65	4528
2026-01-28 12:30:46.36	239.50	7.93	-47.0	-48.8	17.7	0.00e+00	0	42	0	114294784	65	4487
2026-01-28 12:30:47.37	239.63	7.99	-47.1	-49.0	17.6	0.00e+00	0	42	0	115343360	65	4557
2026-01-28 12:30:48.38	239.76	8.04	-47.0	-48.8	17.7	0.00e+00	0	42	0	117440512	65	4490
2026-01-28 12:30:49.39	239.89	8.10	-47.1	-49.0	17.6	0.00e+00	0	42	0	119537664	65	4554
2026-01-28 12:30:50.40	240.01	8.15	-47.0	-48.9	17.7	0.00e+00	0	42	0	121634816	65	4524
2026-01-28 12:30:51.41	240.14	8.20	-46.9	-48.8	17.8	0.00e+00	0	42	0	123731968	65	4447
2026-01-28 12:30:52.42	240.27	8.26	-46.9	-48.7	17.9	0.00e+00	0	42	0	125829120	65	4429
2026-01-28 12:30:53.43	240.40	8.31	-46.8	-48.6	18.0	0.00e+00	0	42	0	126877696	65	4383
2026-01-28 12:30:54.43	240.53	8.36	-46.8	-48.6	18.0	0.00e+00	0	42	0	128974848	65	4358
2026-01-28 12:30:55.43	240.66	8.41	-46.8	-48.6	17.9	0.00e+00	0	42	0	131072000	65	4387
2026-01-28 12:30:56.44	240.79	8.47	-46.6	-48.3	18.2	0.00e+00	0	42	0	133169152	65	4231
2026-01-28 12:30:57.45	240.93	8.52	-46.7	-48.5	18.1	0.00e+00	0	42	0	135266304	65	4305
2026-01-28 12:30:58.46	241.06	8.57	-46.6	-48.4	18.2	0.00e+00	0	42	0	136314880	65	4248
2026-01-28 12:30:59.46	241.19	8.63	-46.6	-48.4	18.2	0.00e+00	0	42	0	138412032	65	4259
2026-01-28 12:31:00.47	241.32	8.68	-46.7	-48.5	18.0	0.00e+00	0	42	0	140509184	65	4330
2026-01-28 12:31:01.48	241.46	8.73	-46.7	-48.5	18.1	0.00e+00	0	42	0	142606336	65	4301
2026-01-28 12:31:02.49	241.59	8.79	-46.6	-48.4	18.2	0.00e+00	0	42	0	143654912	65	4252
2026-01-28 12:31:03.50	241.72	8.84	-46.7	-48.4	18.2	0.00e+00	0	42	0	145752064	65	4266
2026-01-28 12:31:04.51	241.86	8.89	-46.7	-48.5	18.2	0.00e+00	0	42	0	147849216	65	4310
2026-01-28 12:31:05.52	242.00	8.95	-46.7	-48.4	18.2	0.00e+00	0	42	0	149946368	65	4287
2026-01-28 12:31:06.52	242.13	9.00	-46.7	-48.4	18.2	0.00e+00	0	42	0	152043520	65	4289
2026-01-28 12:31:07.53	242.27	9.05	-46.8	-48.5	18.1	0.00e+00	0	42	0	154140672	65	4320
2026-01-28 12:31:08.54	242.40	9.11	-46.6	-48.3	18.3	0.00e+00	0	42	0	155189248	65	4229
2026-01-28 12:31:09.54	242.54	9.16	-46.7	-48.4	18.2	0.00e+00	0	42	0	157286400	65	4279
2026-01-28 12:31:10.55	242.68	9.21	-46.7	-48.5	18.1	0.00e+00	0	42	0	159383552	65	4310
2026-01-28 12:31:11.56	242.82	9.26	-46.7	-48.5	18.2	0.00e+00	0	42	0	161480704	65	4312
2026-01-28 12:31:12.57	242.96	9.32	-46.7	-48.5	18.2	0.00e+00	0	42	0	163577856	65	4293
2026-01-28 12:31:13.58	243.10	9.37	-46.8	-48.5	18.1	0.00e+00	0	42	0	164626432	65	4340
2026-01-28 12:31:14.59	243.24	9.42	-46.7	-48.5	18.2	0.00e+00	0	42	0	166723584	65	4296
2026-01-28 12:31:15.60	243.38	9.48	-46.6	-48.4	18.3	0.00e+00	0	42	0	168820736	65	4243
2026-01-28 12:31:16.61	243.52	9.53	-46.7	-48.5	18.2	0.00e+00	0	42	0	170917888	65	4292
2026-01-28 12:31:17.61	243.66	9.58	-46.7	-48.4	18.3	0.00e+00	0	42	0	173015040	65	4259
2026-01-28 12:31:18.62	243.80	9.63	-46.7	-48.4	18.3	0.00e+00	0	42	0	174063616	65	4266
2026-01-28 12:31:19.63	243.94	9.69	-46.8	-48.5	18.2	0.00e+00	0	42	0	176160768	65	4316
2026-01-28 12:31:20.64	244.08	9.74	-46.7	-48.4	18.3	0.00e+00	0	42	0	178257920	65	4259
2026-01-28 12:31:21.65	244.23	9.79	-46.8	-48.6	18.1	0.00e+00	0	42	0	180355072	65	4347
2026-01-28 12:31:22.65	244.37	9.84	-46.6	-48.3	18.4	0.00e+00	0	42	0	182452224	65	4234
2026-01-28 12:31:23.66	244.51	9.90	-46.7	-48.4	18.3	0.00e+00	0	42	0	183500800	65	4257
2026-01-28 12:31:24.67	244.66	9.95	-46.7	-48.4	18.3	0.00e+00	0	42	0	185597952	65	4263
2026-01-28 12:31:25.68	244.80	10.00	-46.6	-48.2	18.5	0.00e+00	0	42	0	187695104	65	4183
2026-01-28 12:31:26.69	244.95	10.05	-46.5	-48.2	18.5	0.00e+00	0	42	0	189792256	65	4151
2026-01-28 12:31:27.69	245.10	10.10	-46.5	-48.1	18.5	0.00e+00	0	42	0	191889408	64	4387
2026-01-28 12:31:28.70	245.24	10.16	-46.4	-48.1	18.6	0.00e+00	0	42	0	192937984	64	4360
2026-01-28 12:31:29.71	245.39	10.21	-46.5	-48.2	18.6	0.00e+00	0	42	0	195035136	64	4405
2026-01-28 12:31:30.72	245.54	10.26	-46.4	-48.0	18.7	0.00e+00	0	42	0	197132288	64	4293
2026-01-28 12:31:31.72	245.68	10.31	-46.4	-48.0	18.7	0.00e+00	0	42	0	199229440	64	4327
2026-01-28 12:31:32.73	245.83	10.37	-46.3	-47.9	18.8	0.00e+00	0	42	0	201326592	64	4257
2026-01-28 12:31:33.74	245.98	10.42	-46.2	-47.8	18.9	0.00e+00	0	42	0	202375168	64	4209
2026-01-28 12:31:34.74	246.13	10.47	-46.2	-47.8	18.9	0.00e+00	0	42	0	204472320	64	4215
2026-01-28 12:31:35.75	246.28	10.52	-46.3	-47.8	18.9	0.00e+00	0	42	0	206569472	64	4236
2026-01-28 12:31:36.75	246.43	10.57	-46.1	-47.6	19.1	0.00e+00	0	42	0	208666624	64	4134
2026-01-28 12:31:37.76	246.58	10.62	-46.1	-47.6	19.1	0.00e+00	0	42	0	210763776	64	4145
2026-01-28 12:31:38.77	246.73	10.68	-46.0	-47.5	19.3	0.00e+00	0	42	0	211812352	63	4307
2026-01-28 12:31:39.78	246.89	10.73	-46.1	-47.6	19.2	0.00e+00	0	42	0	213909504	63	4355
2026-01-28 12:31:40.79	247.04	10.78	-46.0	-47.5	19.3	0.00e+00	0	42	0	216006656	63	4323
2026-01-28 12:31:41.79	247.19	10.83	-45.9	-47.4	19.5	0.00e+00	0	43	0	218103808	63	4243
2026-01-28 12:31:42.80	247.35	10.88	-45.9	-47.4	19.5	0.00e+00	0	42	0	220200960	63	4255
2026-01-28 12:31:43.81	247.50	10.93	-45.9	-47.4	19.4	0.00e+00	0	42	0	222298112	63	4258
2026-01-28 12:31:44.82	247.66	10.98	-45.8	-47.3	19.5	0.00e+00	0	43	0	223346688	63	4217
2026-01-28 12:31:45.83	247.81	11.03	-45.8	-47.3	19.5	0.00e+00	0	42	0	225443840	63	4211
2026-01-28 12:31:46.83	247.97	11.08	-45.9	-47.4	19.5	0.00e+00	0	42	0	227540992	63	4244
2026-01-28 12:31:47.84	248.12	11.14	-45.7	-47.1	19.7	0.00e+00	0	42	0	229638144	63	4124
2026-01-28 12:31:48.85	248.28	11.19	-45.7	-47.2	19.7	0.00e+00	0	42	0	230686720	63	4151
2026-01-28 12:31:49.86	248.44	11.24	-45.8	-47.2	19.6	0.00e+00	0	42	0	232783872	63	4167
2026-01-28 12:31:50.86	248.59	11.29	-45.7	-47.1	19.7	0.00e+00	0	42	0	234881024	63	4141
2026-01-28 12:31:51.87	248.75	11.34	-45.7	-47.1	19.8	0.00e+00	0	42	0	236978176	63	4109
2026-01-28 12:31:52.88	248.91	11.39	-45.7	-47.1	19.7	0.00e+00	0	42	0	239075328	63	4111
2026-01-28 12:31:53.89	249.07	11.44	-45.6	-47.0	19.8	0.00e+00	0	42	0	240123904	63	4086
2026-01-28 12:31:54.89	249.23	11.49	-45.8	-47.2	19.6	0.00e+00	0	43	0	242221056	63	4166
2026-01-28 12:31:55.90	249.39	11.54	-45.7	-47.2	19.7	0.00e+00	0	42	0	244318208	63	4148
2026-01-28 12:31:56.91	249.55	11.59	-45.9	-47.3	19.5	0.00e+00	0	43	0	246415360	63	4223
2026-01-28 12:31:57.91	249.71	11.64	-45.8	-47.2	19.6	0.00e+00	0	42	0	248512512	63	4188
2026-01-28 12:31:58.92	249.88	11.69	-45.8	-47.3	19.6	0.00e+00	0	42	0	250609664	63	4199
2026-01-28 12:31:59.93	250.04	11.74	-45.7	-47.1	19.7	0.00e+00	0	42	0	251658240	63	4120
2026-01-28 12:32:00.93	250.20	11.79	-45.7	-47.2	19.7	0.00e+00	0	42	0	253755392	63	4152
2026-01-28 12:32:01.94	250.37	11.84	-45.7	-47.1	19.8	0.00e+00	0	42	0	255852544	63	4113
2026-01-28 12:32:02.95	250.53	11.89	-45.8	-47.2	19.7	0.00e+00	0	42	0	257949696	63	4174
2026-01-28 12:32:03.95	250.69	11.94	-45.7	-47.1	19.8	0.00e+00	0	42	0	258998272	63	4105
2026-01-28 12:32:04.96	250.86	11.99	-45.8	-47.2	19.7	0.00e+00	0	42	0	261095424	63	4176
2026-01-28 12:32:05.97	251.03	12.04	-45.7	-47.2	19.7	0.00e+00	0	42	0	263192576	63	4147
2026-01-28 12:32:06.97	251.19	12.08	-45.6	-47.0	19.9	0.00e+00	0	42	0	265289728	63	4094
2026-01-28 12:32:07.98	251.36	12.13	-45.8	-47.2	19.7	0.00e+00	0	42	0	267386880	63	4167
2026-01-28 12:32:08.99	251.53	12.18	-45.8	-47.2	19.7	0.00e+00	0	42	0	268435456	63	4162
2026-01-28 12:32:10.00	251.69	12.23	-45.7	-47.2	19.7	0.00e+00	0	42	0	270532608	63	4153
2026-01-28 12:32:11.01	251.86	12.28	-45.7	-47.1	19.7	0.00e+00	0	42	0	272629760	63	4141
2026-01-28 12:32:12.01	252.03	12.33	-45.7	-47.1	19.8	0.00e+00	0	42	0	274726912	63	4128
2026-01-28 12:32:13.02	252.20	12.38	-45.7	-47.1	19.8	0.00e+00	0	42	0	276824064	63	4141
2026-01-28 12:32:14.03	252.37	12.42	-45.7	-47.2	19.7	0.00e+00	0	42	0	278921216	63	4152
2026-01-28 12:32:15.04	252.54	12.47	-45.6	-47.0	19.9	0.00e+00	0	42	0	279969792	63	4067
2026-01-28 12:32:16.05	252.71	12.52	-45.6	-47.0	19.9	0.00e+00	0	42	0	282066944	63	4082
2026-01-28 12:32:17.05	252.88	12.57	-45.6	-47.0	19.9	0.00e+00	0	42	0	284164096	63	4078
2026-01-28 12:32:18.06	253.06	12.61	-45.7	-47.1	19.8	0.00e+00	0	42	0	286261248	63	4118
2026-01-28 12:32:19.07	253.23	12.66	-45.7	-47.1	19.8	0.00e+00	0	42	0	287309824	63	4106
2026-01-28 12:32:20.08	253.40	12.71	-45.7	-47.1	19.7	0.00e+00	0	42	0	289406976	63	4142
2026-01-28 12:32:21.08	253.58	12.76	-45.8	-47.2	19.7	0.00e+00	0	42	0	291504128	63	4185
2026-01-28 12:32:22.09	253.75	12.80	-45.8	-47.2	19.7	0.00e+00	0	42	0	293601280	63	4181
2026-01-28 12:32:23.10	253.93	12.85	-45.9	-47.3	19.6	0.00e+00	0	42	0	295698432	63	4221
2026-01-28 12:32:24.11	254.10	12.90	-45.9	-47.3	19.6	0.00e+00	0	42	0	296747008	63	4234
2026-01-28 12:32:25.11	254.28	12.94	-45.9	-47.4	19.5	0.00e+00	0	42	0	298844160	63	4253
2026-01-28 12:32:26.12	254.45	12.99	-45.9	-47.3	19.6	0.00e+00	0	42	0	300941312	63	4230
2026-01-28 12:32:27.13	254.63	13.04	-45.8	-47.3	19.6	0.00e+00	0	42	0	303038464	63	4211
2026-01-28 12:32:28.14	254.81	13.08	-45.9	-47.3	19.6	0.00e+00	0	43	0	305135616	63	4242
2026-01-28 12:32:29.14	254.99	13.13	-45.9	-47.4	19.5	0.00e+00	0	42	0	307232768	63	4264
2026-01-28 12:32:30.15	255.17	13.17	-46.0	-47.5	19.4	0.00e+00	0	42	0	308281344	63	4324
2026-01-28 12:32:31.16	255.35	13.22	-46.1	-47.5	19.4	0.00e+00	0	42	0	310378496	63	4338
2026-01-28 12:32:32.17	255.53	13.26	-46.1	-47.7	19.3	0.00e+00	0	42	0	312475648	63	4394
2026-01-28 12:32:33.18	255.71	13.31	-46.3	-47.8	19.1	0.00e+00	0	42	0	314572800	63	4490
2026-01-28 12:32:34.18	255.89	13.35	-46.3	-47.9	19.1	0.00e+00	0	42	0	315621376	63	4494
2026-01-28 12:32:35.19	256.07	13.40	-46.4	-47.9	19.0	0.00e+00	0	42	0	317718528	63	4531
2026-01-28 12:32:36.20	256.25	13.44	-46.4	-48.0	19.0	0.00e+00	0	42	0	319815680	63	4552
2026-01-28 12:32:37.20	256.43	13.49	-46.4	-48.0	18.9	0.00e+00	0	43	0	321912832	63	4560
2026-01-28 12:32:38.21	256.61	13.53	-46.6	-48.2	18.8	0.00e+00	0	42	0	324009984	63	4655
2026-01-28 12:32:39.22	256.80	13.58	-46.6	-48.2	18.8	0.00e+00	0	42	0	326107136	63	4673
2026-01-28 12:32:40.23	256.98	13.62	-46.7	-48.3	18.7	0.00e+00	0	43	0	327155712	63	4720
2026-01-28 12:32:41.23	257.17	13.66	-46.7	-48.4	18.5	0.00e+00	0	42	0	329252864	64	4506
2026-01-28 12:32:42.24	257.35	13.71	-46.7	-48.4	18.5	0.00e+00	0	42	0	331350016	64	4519
2026-01-28 12:32:43.25	257.54	13.75	-46.8	-48.5	18.4	0.00e+00	0	42	0	333447168	64	4583
2026-01-28 12:32:44.26	257.72	13.80	-46.9	-48.6	18.3	0.00e+00	0	43	0	335544320	64	4612
2026-01-28 12:32:45.27	257.91	13.84	-47.0	-48.7	18.2	0.00e+00	0	42	0	336592896	64	4698
2026-01-28 12:32:46.28	258.10	13.88	-47.0	-48.8	18.1	0.00e+00	0	42	0	338690048	64	4729
2026-01-28 12:32:47.29	258.29	13.92	-47.1	-49.0	18.0	0.00e+00	0	42	0	340787200	64	4818
2026-01-28 12:32:48.29	258.47	13.97	-47.1	-49.0	18.0	0.00e+00	0	43	0	342884352	64	4815
2026-01-28 12:32:49.30	258.66	14.01	-47.2	-49.0	17.9	0.00e+00	0	42	0	343932928	64	4853
2026-01-28 12:32:50.31	258.85	14.05	-47.1	-48.9	18.0	0.00e+00	0	42	0	346030080	64	4801
2026-01-28 12:32:51.31	259.04	14.09	-47.2	-49.0	17.9	0.00e+00	0	42	0	348127232	64	4838
2026-01-28 12:32:52.32	259.23	14.13	-47.2	-49.0	18.0	0.00e+00	0	43	0	350224384	64	4834
2026-01-28 12:32:53.32	259.42	14.17	-47.2	-49.1	17.9	0.00e+00	0	43	0	352321536	65	4602
2026-01-28 12:32:54.33	259.61	14.22	-47.2	-49.1	17.9	0.00e+00	0	42	0	354418688	65	4605
2026-01-28 12:32:55.34	259.80	14.26	-47.3	-49.1	17.8	0.00e+00	0	42	0	355467264	65	4622
2026-01-28 12:32:56.35	260.00	14.30	-47.4	-49.2	17.7	0.00e+00	0	43	0	357564416	65	4689
2026-01-28 12:32:57.36	260.19	14.34	-47.4	-49.3	17.6	0.00e+00	0	43	0	359661568	65	4744
2026-01-28 12:32:58.37	260.38	14.38	-47.5	-49.5	17.5	0.00e+00	0	42	0	361758720	65	4832
2026-01-28 12:32:59.37	260.58	14.42	-47.6	-49.6	17.3	0.00e+00	0	42	0	363855872	65	4904
2026-01-28 12:33:00.38	260.77	14.46	-47.7	-49.6	17.3	0.00e+00	0	42	0	364904448	65	4921
2026-01-28 12:33:01.39	260.97	14.50	-47.8	-49.8	17.2	0.00e+00	0	42	0	367001600	66	4725
2026-01-28 12:33:02.40	261.16	14.54	-47.7	-49.7	17.3	0.00e+00	0	42	0	369098752	66	4691
2026-01-28 12:33:03.41	261.36	14.57	-47.7	-49.7	17.3	0.00e+00	0	42	0	371195904	66	4657
2026-01-28 12:33:04.42	261.55	14.61	-47.6	-49.5	17.4	0.00e+00	0	42	0	373293056	66	4581
2026-01-28 12:33:05.42	261.75	14.65	-47.6	-49.6	17.4	0.00e+00	0	42	0	374341632	66	4623
2026-01-28 12:33:06.43	261.95	14.69	-47.6	-49.5	17.4	0.00e+00	0	42	0	376438784	66	4597
2026-01-28 12:33:07.44	262.15	14.73	-47.7	-49.7	17.3	0.00e+00	0	43	0	378535936	66	4661
2026-01-28 12:33:08.44	262.34	14.76	-47.8	-49.8	17.2	0.00e+00	0	42	0	380633088	66	4739
2026-01-28 12:33:09.45	262.54	14.80	-47.8	-49.9	17.1	0.00e+00	0	43	0	382730240	66	4771
2026-01-28 12:33:10.46	262.74	14.84	-47.9	-49.9	17.1	0.00e+00	0	43	0	383778816	66	4780
2026-01-28 12:33:11.47	262.94	14.88	-47.8	-49.9	17.1	0.00e+00	0	42	0	385875968	66	4776
2026-01-28 12:33:12.47	263.14	14.91	-47.8	-49.9	17.1	0.00e+00	0	42	0	387973120	66	4774
2026-01-28 12:33:13.48	263.34	14.95	-47.9	-50.0	17.1	0.00e+00	0	43	0	390070272	66	4817
2026-01-28 12:33:14.48	263.54	14.98	-47.9	-49.9	17.1	0.00e+00	0	43	0	392167424	66	4791
2026-01-28 12:33:15.49	263.74	15.02	-47.9	-49.9	17.1	0.00e+00	0	43	0	393216000	66	4803
2026-01-28 12:33:16.50	263.95	15.06	-47.7	-49.7	17.3	0.00e+00	0	43	0	395313152	66	4657
2026-01-28 12:33:17.51	264.15	15.09	-47.6	-49.5	17.4	0.00e+00	0	42	0	397410304	66	4595
2026-01-28 12:33:18.51	264.35	15.13	-47.4	-49.2	17.7	0.00e+00	0	42	0	399507456	66	4437
2026-01-28 12:33:19.52	264.55	15.16	-47.2	-48.9	18.0	0.00e+00	0	42	0	401604608	66	4289
2026-01-28 12:33:20.52	264.76	15.20	-47.0	-48.8	18.2	0.00e+00	0	42	0	402653184	66	4214
2026-01-28 12:33:21.52	264.96	15.23	-47.1	-48.9	18.1	0.00e+00	0	43	0	404750336	66	4267
2026-01-28 12:33:22.53	265.16	15.26	-47.0	-48.7	18.2	0.00e+00	0	42	0	406847488	66	4176
2026-01-28 12:33:23.54	265.37	15.30	-46.9	-48.6	18.3	0.00e+00	0	43	0	408944640	65	4380
2026-01-28 12:33:24.55	265.58	15.33	-46.9	-48.6	18.4	0.00e+00	0	42	0	411041792	65	4379
2026-01-28 12:33:25.56	265.78	15.36	-46.8	-48.5	18.4	0.00e+00	0	42	0	412090368	65	4334
2026-01-28 12:33:26.57	265.99	15.40	-46.8	-48.5	18.4	0.00e+00	0	42	0	414187520	65	4327
2026-01-28 12:33:27.57	266.19	15.43	-46.9	-48.6	18.4	0.00e+00	0	42	0	416284672	65	4353
2026-01-28 12:33:28.58	266.40	15.46	-46.7	-48.3	18.6	0.00e+00	0	42	0	418381824	65	4234
2026-01-28 12:33:29.59	266.61	15.49	-46.6	-48.3	18.6	0.00e+00	0	42	0	420478976	65	4202
2026-01-28 12:33:30.60	266.82	15.52	-46.5	-48.1	18.8	0.00e+00	0	42	0	421527552	65	4130
2026-01-28 12:33:31.61	267.03	15.55	-46.3	-47.9	19.0	0.00e+00	0	43	0	423624704	64	4261
2026-01-28 12:33:32.62	267.24	15.58	-46.3	-47.9	19.1	0.00e+00	0	43	0	425721856	64	4257
2026-01-28 12:33:33.62	267.45	15.61	-46.3	-47.8	19.1	0.00e+00	0	43	0	427819008	64	4232
2026-01-28 12:33:34.63	267.66	15.64	-46.1	-47.5	19.4	0.00e+00	0	42	0	429916160	64	4090
2026-01-28 12:33:35.63	267.86	15.67	-46.0	-47.5	19.6	0.00e+00	0	42	0	430964736	63	4306
2026-01-28 12:33:36.64	268.08	15.70	-45.8	-47.2	19.8	0.00e+00	0	42	0	433061888	63	4190
2026-01-28 12:33:37.64	268.29	15.73	-45.8	-47.2	19.8	0.00e+00	0	43	0	435159040	63	4178
2026-01-28 12:33:38.65	268.50	15.76	-45.8	-47.2	19.8	0.00e+00	0	43	0	437256192	63	4180
2026-01-28 12:33:39.66	268.71	15.79	-45.9	-47.3	19.7	0.00e+00	0	43	0	439353344	63	4232
2026-01-28 12:33:40.67	268.92	15.82	-46.0	-47.4	19.6	0.00e+00	0	43	0	440401920	63	4286
2026-01-28 12:33:41.68	269.14	15.85	-46.0	-47.5	19.6	0.00e+00	0	42	0	442499072	63	4300
2026-01-28 12:33:42.69	269.35	15.87	-46.1	-47.6	19.5	0.00e+00	0	42	0	444596224	63	4351
2026-01-28 12:33:43.69	269.56	15.90	-46.1	-47.6	19.5	0.00e+00	0	42	0	446693376	63	4353
2026-01-28 12:33:44.71	269.78	15.93	-46.2	-47.7	19.5	0.00e+00	0	43	0	448790528	63	4394
2026-01-28 12:33:45.71	269.99	15.95	-46.1	-47.6	19.5	0.00e+00	0	43	0	449839104	63	4373
2026-01-28 12:33:46.72	270.20	15.98	-46.3	-47.7	19.3	0.00e+00	0	42	0	451936256	63	4435
2026-01-28 12:33:47.73	270.42	16.01	-46.3	-47.8	19.2	0.00e+00	0	42	0	454033408	63	4484
2026-01-28 12:33:48.74	270.64	16.03	-46.4	-47.9	19.2	0.00e+00	0	42	0	456130560	63	4504
2026-01-28 12:33:49.74	270.85	16.06	-46.4	-47.9	19.2	0.00e+00	0	43	0	458227712	63	4539
2026-01-28 12:33:50.75	271.07	16.08	-46.3	-47.9	19.3	0.00e+00	0	42	0	459276288	63	4494
2026-01-28 12:33:51.76	271.28	16.10	-46.3	-47.8	19.3	0.00e+00	0	43	0	461373440	63	4467
2026-01-28 12:33:52.77	271.50	16.13	-46.3	-47.8	19.3	0.00e+00	0	43	0	463470592	63	4469
2026-01-28 12:33:53.78	271.72	16.15	-46.4	-47.9	19.2	0.00e+00	0	42	0	465567744	63	4524
2026-01-28 12:33:54.79	271.94	16.17	-46.4	-48.0	19.1	0.00e+00	0	43	0	467664896	63	4550
2026-01-28 12:33:55.79	272.15	16.20	-46.6	-48.1	19.0	0.00e+00	0	42	0	468713472	63	4650
2026-01-28 12:33:56.80	272.37	16.22	-46.6	-48.1	19.0	0.00e+00	0	42	0	470810624	63	4635
2026-01-28 12:33:57.80	272.59	16.24	-46.6	-48.2	18.9	0.00e+00	0	42	0	472907776	63	4675
2026-01-28 12:33:58.81	272.80	16.26	-46.6	-48.2	19.0	0.00e+00	0	42	0	475004928	63	4678
2026-01-28 12:33:59.81	273.02	16.28	-46.6	-48.2	18.8	0.00e+00	0	43	0	477102080	64	4420
2026-01-28 12:34:00.82	273.24	16.31	-46.6	-48.2	18.8	0.00e+00	0	42	0	478150656	64	4399
2026-01-28 12:34:01.82	273.46	16.33	-46.6	-48.2	18.9	0.00e+00	0	42	0	480247808	64	4425
2026-01-28 12:34:02.83	273.68	16.35	-46.6	-48.2	18.8	0.00e+00	0	42	0	482344960	64	4437
2026-01-28 12:34:03.83	273.90	16.37	-46.7	-48.3	18.8	0.00e+00	0	42	0	484442112	64	4481
2026-01-28 12:34:04.84	274.12	16.39	-46.7	-48.4	18.7	0.00e+00	0	42	0	486539264	64	4496
2026-01-28 12:34:05.85	274.34	16.40	-46.7	-48.3	18.8	0.00e+00	0	42	0	487587840	64	4466
2026-01-28 12:34:06.86	274.56	16.42	-46.6	-48.2	18.9	0.00e+00	0	43	0	489684992	64	4414
2026-01-28 12:34:07.86	274.78	16.44	-46.7	-48.3	18.8	0.00e+00	0	42	0	491782144	64	4486
2026-01-28 12:34:08.87	275.00	16.46	-46.6	-48.2	18.8	0.00e+00	0	43	0	493879296	64	4424
2026-01-28 12:34:09.87	275.22	16.48	-46.6	-48.2	18.9	0.00e+00	0	43	0	495976448	64	4408
2026-01-28 12:34:10.88	275.44	16.49	-46.6	-48.2	18.9	0.00e+00	0	42	0	497025024	64	4436
2026-01-28 12:34:11.88	275.66	16.51	-46.6	-48.2	18.9	0.00e+00	0	42	0	499122176	64	4410
2026-01-28 12:34:12.89	275.89	16.53	-46.6	-48.2	18.8	0.00e+00	0	42	0	501219328	64	4423
2026-01-28 12:34:13.90	276.11	16.54	-46.6	-48.2	18.9	0.00e+00	0	42	0	503316480	64	4426
2026-01-28 12:34:14.91	276.33	16.56	-46.6	-48.1	19.0	0.00e+00	0	42	0	505413632	64	4383
2026-01-28 12:34:15.91	276.55	16.57	-46.6	-48.2	19.0	0.00e+00	0	43	0	506462208	64	4392
2026-01-28 12:34:16.92	276.78	16.59	-46.6	-48.1	18.9	0.00e+00	0	42	0	508559360	64	4376
2026-01-28 12:34:17.93	277.00	16.60	-46.7	-48.3	18.8	0.00e+00	0	42	0	510656512	64	4468
2026-01-28 12:34:18.93	277.22	16.62	-46.7	-48.3	18.7	0.00e+00	0	43	0	512753664	64	4490
2026-01-28 12:34:19.94	277.45	16.63	-46.9	-48.5	18.6	0.00e+00	0	42	0	514850816	64	4591
2026-01-28 12:34:20.95	277.67	16.64	-46.7	-48.2	18.8	0.00e+00	0	42	0	515899392	64	4438
2026-01-28 12:34:21.95	277.89	16.66	-46.6	-48.2	18.9	0.00e+00	0	43	0	517996544	64	4394
2026-01-28 12:34:22.96	278.12	16.67	-46.4	-47.9	19.2	0.00e+00	0	42	0	520093696	64	4274
2026-01-28 12:34:23.96	278.34	16.68	-46.2	-47.7	19.3	0.00e+00	0	42	0	522190848	64	4167
2026-01-28 12:34:24.97	278.57	16.69	-46.3	-47.8	19.3	0.00e+00	0	43	0	524288000	64	4194
2026-01-28 12:34:25.97	278.79	16.70	-46.1	-47.6	19.5	0.00e+00	0	42	0	525336576	64	4129
2026-01-28 12:34:26.98	279.01	16.71	-46.2	-47.7	19.4	0.00e+00	0	42	0	527433728	64	4169
2026-01-28 12:34:27.99	279.24	16.72	-46.3	-47.8	19.3	0.00e+00	0	43	0	529530880	64	4229
2026-01-28 12:34:28.99	279.46	16.73	-46.3	-47.8	19.2	0.00e+00	0	42	0	531628032	64	4240
2026-01-28 12:34:30.01	279.69	16.74	-46.5	-48.0	19.1	0.00e+00	0	42	0	533725184	64	4335
2026-01-28 12:34:31.01	279.92	16.75	-46.6	-48.1	19.0	0.00e+00	0	42	0	535822336	64	4386
2026-01-28 12:34:32.02	280.14	16.76	-46.7	-48.3	18.9	0.00e+00	0	42	0	536870912	64	4453
2026-01-28 12:34:33.03	280.37	16.77	-46.8	-48.5	18.7	0.00e+00	0	42	0	538968064	64	4548
2026-01-28 12:34:34.03	280.59	16.77	-46.9	-48.6	18.6	0.00e+00	0	42	0	541065216	64	4617
2026-01-28 12:34:35.04	280.82	16.78	-47.1	-48.7	18.5	0.00e+00	0	43	0	543162368	64	4703
2026-01-28 12:34:36.05	281.04	16.79	-47.0	-48.7	18.5	0.00e+00	0	43	0	544210944	64	4692
2026-01-28 12:34:37.06	281.27	16.80	-47.1	-48.8	18.5	0.00e+00	0	42	0	546308096	64	4708
2026-01-28 12:34:38.06	281.50	16.80	-47.0	-48.7	18.5	0.00e+00	0	42	0	548405248	64	4690
2026-01-28 12:34:39.07	281.72	16.81	-47.0	-48.6	18.6	0.00e+00	0	42	0	550502400	64	4637
2026-01-28 12:34:40.08	281.95	16.81	-46.8	-48.4	18.8	0.00e+00	0	43	0	552599552	64	4508
2026-01-28 12:34:41.09	282.18	16.82	-46.7	-48.3	18.9	0.00e+00	0	43	0	553648128	64	4463
2026-01-28 12:34:42.09	282.40	16.82	-46.7	-48.3	19.0	0.00e+00	0	42	0	555745280	64	4442
2026-01-28 12:34:43.10	282.63	16.82	-46.5	-48.1	19.1	0.00e+00	0	43	0	557842432	64	4366
2026-01-28 12:34:44.10	282.85	16.83	-46.5	-48.1	19.0	0.00e+00	0	42	0	559939584	64	4355
2026-01-28 12:34:45.11	283.08	16.83	-46.5	-48.1	19.1	0.00e+00	0	43	0	562036736	64	4358
2026-01-28 12:34:46.12	283.31	16.83	-46.5	-48.0	19.2	0.00e+00	0	42	0	564133888	64	4338
2026-01-28 12:34:47.13	283.53	16.84	-46.6	-48.1	19.0	0.00e+00	0	43	0	565182464	64	4387
2026-01-28 12:34:48.13	283.76	16.84	-46.6	-48.2	19.0	0.00e+00	0	43	0	567279616	64	4416
2026-01-28 12:34:49.13	283.98	16.84	-46.6	-48.2	19.0	0.00e+00	0	42	0	569376768	64	4416
2026-01-28 12:34:50.14	284.21	16.84	-46.7	-48.3	18.9	0.00e+00	0	42	0	571473920	64	4461
2026-01-28 12:34:51.15	284.44	16.84	-46.8	-48.4	18.8	0.00e+00	0	43	0	572522496	64	4505
2026-01-28 12:34:52.17	284.67	16.84	-46.7	-48.3	18.9	0.00e+00	0	43	0	574619648	64	4457
2026-01-28 12:34:53.17	284.89	16.84	-46.8	-48.4	18.7	0.00e+00	0	43	0	576716800	64	4506
2026-01-28 12:34:54.18	285.12	16.84	-46.6	-48.2	19.0	0.00e+00	0	42	0	578813952	64	4430
2026-01-28 12:34:55.19	285.35	16.84	-46.6	-48.2	19.0	0.00e+00	0	43	0	580911104	64	4393
2026-01-28 12:34:56.19	285.57	16.84	-46.5	-48.1	19.1	0.00e+00	0	43	0	581959680	64	4354
2026-01-28 12:34:57.20	285.80	16.83	-46.5	-48.1	19.0	0.00e+00	0	42	0	584056832	64	4349
2026-01-28 12:34:58.21	286.03	16.83	-46.6	-48.1	18.9	0.00e+00	0	42	0	586153984	64	4378
2026-01-28 12:34:59.21	286.25	16.83	-46.5	-48.0	19.1	0.00e+00	0	43	0	588251136	64	4323
2026-01-28 12:35:00.22	286.48	16.83	-46.4	-47.8	19.4	0.00e+00	0	42	0	590348288	64	4238
2026-01-28 12:35:01.23	286.71	16.82	-46.3	-47.8	19.4	0.00e+00	0	43	0	592445440	64	4216
2026-01-28 12:35:02.24	286.93	16.82	-46.2	-47.7	19.4	0.00e+00	0	43	0	593494016	64	4167
2026-01-28 12:35:03.25	287.16	16.81	-46.3	-47.8	19.3	0.00e+00	0	43	0	595591168	64	4227
2026-01-28 12:35:04.25	287.38	16.81	-46.3	-47.8	19.3	0.00e+00	0	43	0	597688320	64	4235
2026-01-28 12:35:05.26	287.61	16.80	-46.5	-48.0	19.3	0.00e+00	0	42	0	599785472	64	4302
2026-01-28 12:35:06.27	287.84	16.80	-46.5	-48.0	19.2	0.00e+00	0	43	0	600834048	64	4317
2026-01-28 12:35:07.27	288.06	16.79	-46.5	-48.0	19.2	0.00e+00	0	43	0	602931200	64	4305
2026-01-28 12:35:08.28	288.29	16.78	-46.5	-48.0	19.3	0.00e+00	0	42	0	605028352	64	4295
2026-01-28 12:35:09.29	288.51	16.78	-46.3	-47.7	19.5	0.00e+00	0	43	0	607125504	64	4189
2026-01-28 12:35:10.30	288.74	16.77	-46.3	-47.7	19.4	0.00e+00	0	42	0	609222656	64	4182
2026-01-28 12:35:11.31	288.97	16.76	-46.4	-47.9	19.4	0.00e+00	0	43	0	611319808	64	4259
2026-01-28 12:35:12.32	289.19	16.75	-46.3	-47.8	19.4	0.00e+00	0	42	0	612368384	64	4216
2026-01-28 12:35:13.33	289.42	16.74	-46.3	-47.8	19.5	0.00e+00	0	42	0	614465536	64	4226
2026-01-28 12:35:14.33	289.64	16.73	-46.2	-47.7	19.6	0.00e+00	0	43	0	616562688	64	4154
2026-01-28 12:35:15.34	289.87	16.72	-46.2	-47.7	19.6	0.00e+00	0	43	0	618659840	64	4149
2026-01-28 12:35:16.35	290.09	16.71	-46.2	-47.6	19.7	0.00e+00	0	43	0	620756992	64	4120
2026-01-28 12:35:17.36	290.32	16.70	-46.1	-47.5	19.8	0.00e+00	0	42	0	621805568	64	4068
2026-01-28 12:35:18.37	290.54	16.69	-46.2	-47.6	19.7	0.00e+00	0	42	0	623902720	64	4134
2026-01-28 12:35:19.38	290.77	16.68	-46.1	-47.6	19.7	0.00e+00	0	42	0	625999872	64	4112
2026-01-28 12:35:20.39	290.99	16.67	-46.3	-47.7	19.6	0.00e+00	0	42	0	628097024	64	4170
2026-01-28 12:35:21.40	291.22	16.66	-46.4	-47.9	19.4	0.00e+00	0	42	0	629145600	64	4255
2026-01-28 12:35:22.40	291.44	16.65	-46.4	-47.9	19.4	0.00e+00	0	42	0	631242752	64	4284
2026-01-28 12:35:23.41	291.66	16.63	-46.5	-48.0	19.3	0.00e+00	0	42	0	633339904	64	4331
2026-01-28 12:35:24.42	291.89	16.62	-46.4	-47.9	19.4	0.00e+00	0	42	0	635437056	64	4253
2026-01-28 12:35:25.43	292.11	16.61	-46.4	-47.9	19.4	0.00e+00	0	43	0	637534208	64	4249
2026-01-28 12:35:26.43	292.33	16.59	-46.4	-47.8	19.4	0.00e+00	0	42	0	639631360	64	4237
2026-01-28 12:35:27.44	292.56	16.58	-46.2	-47.6	19.6	0.00e+00	0	42	0	640679936	64	4133
2026-01-28 12:35:28.45	292.78	16.56	-46.0	-47.4	20.0	0.00e+00	0	42	0	642777088	63	4265
2026-01-28 12:35:29.46	293.00	16.55	-46.0	-47.3	20.0	0.00e+00	0	43	0	644874240	63	4225
2026-01-28 12:35:30.46	293.22	16.53	-45.8	-47.2	20.1	0.00e+00	0	43	0	646971392	63	4162
2026-01-28 12:35:31.47	293.44	16.51	-45.8	-47.1	20.0	0.00e+00	0	42	0	649068544	63	4129
2026-01-28 12:35:32.48	293.67	16.50	-45.8	-47.1	19.9	0.00e+00	0	42	0	650117120	63	4116
2026-01-28 12:35:33.49	293.89	16.48	-45.9	-47.3	19.6	0.00e+00	0	42	0	652214272	63	4213
2026-01-28 12:35:34.49	294.11	16.46	-46.0	-47.3	19.4	0.00e+00	0	42	0	654311424	63	4229
2026-01-28 12:35:35.50	294.33	16.45	-45.9	-47.3	19.6	0.00e+00	0	43	0	656408576	63	4230
2026-01-28 12:35:36.51	294.55	16.43	-46.0	-47.3	19.7	0.00e+00	0	43	0	658505728	63	4237
2026-01-28 12:35:37.52	294.77	16.41	-45.9	-47.2	19.9	0.00e+00	0	42	0	659554304	63	4186
2026-01-28 12:35:38.53	294.99	16.39	-45.9	-47.2	20.0	0.00e+00	0	42	0	661651456	63	4182
2026-01-28 12:35:39.53	295.21	16.37	-45.8	-47.1	20.1	0.00e+00	0	42	0	663748608	63	4144
2026-01-28 12:35:40.54	295.43	16.35	-45.8	-47.1	20.2	0.00e+00	0	42	0	665845760	63	4122
2026-01-28 12:35:41.55	295.65	16.33	-45.8	-47.1	20.2	0.00e+00	0	43	0	667942912	63	4126
2026-01-28 12:35:42.56	295.87	16.31	-45.7	-47.1	20.2	0.00e+00	0	42	0	668991488	63	4108
2026-01-28 12:35:43.56	296.09	16.29	-45.7	-47.0	20.3	0.00e+00	0	42	0	671088640	63	4078
2026-01-28 12:35:44.57	296.31	16.27	-45.7	-47.0	20.3	0.00e+00	0	42	0	673185792	63	4079
2026-01-28 12:35:45.58	296.52	16.25	-45.9	-47.2	20.1	0.00e+00	0	42	0	675282944	63	4174
2026-01-28 12:35:46.58	296.74	16.23	-45.8	-47.1	20.2	0.00e+00	0	42	0	677380096	63	4115
2026-01-28 12:35:47.59	296.96	16.20	-45.8	-47.1	20.2	0.00e+00	0	42	0	678428672	63	4142
2026-01-28 12:35:48.60	297.18	16.18	-45.6	-46.9	20.3	0.00e+00	0	42	0	680525824	63	4049
2026-01-28 12:35:49.60	297.39	16.16	-45.5	-46.8	20.4	0.00e+00	0	42	0	682622976	63	4003
2026-01-28 12:35:50.61	297.61	16.13	-45.6	-46.9	20.3	0.00e+00	0	42	0	684720128	63	4050
2026-01-28 12:35:51.62	297.82	16.11	-45.6	-46.9	20.3	0.00e+00	0	42	0	686817280	63	4027
2026-01-28 12:35:52.62	298.04	16.09	-45.5	-46.8	20.4	0.00e+00	0	43	0	687865856	63	4002
2026-01-28 12:35:53.63	298.25	16.06	-45.5	-46.7	20.5	0.00e+00	0	42	0	689963008	62	4192
2026-01-28 12:35:54.64	298.47	16.04	-45.4	-46.7	20.5	0.00e+00	0	42	0	692060160	62	4172
2026-01-28 12:35:55.65	298.69	16.01	-45.3	-46.6	20.6	0.00e+00	0	42	0	694157312	62	4123
2026-01-28 12:35:56.65	298.90	15.99	-45.2	-46.4	20.7	0.00e+00	0	42	0	696254464	62	4049
2026-01-28 12:35:57.66	299.11	15.96	-45.2	-46.5	20.5	0.00e+00	0	42	0	697303040	62	4056
2026-01-28 12:35:58.67	299.33	15.93	-45.3	-46.6	20.5	0.00e+00	0	42	0	699400192	62	4127
2026-01-28 12:35:59.67	299.54	15.91	-45.4	-46.7	20.4	0.00e+00	0	43	0	701497344	62	4177
2026-01-28 12:36:00.68	299.75	15.88	-45.5	-46.8	20.1	0.00e+00	0	42	0	703594496	62	4241
2026-01-28 12:36:01.69	299.97	15.85	-45.6	-46.9	19.6	0.00e+00	0	43	0	705691648	62	4276
2026-01-28 12:36:02.70	300.18	15.83	-45.7	-47.1	19.4	0.00e+00	0	43	0	706740224	62	4354
2026-01-28 12:36:03.71	300.39	15.80	-45.7	-47.0	20.0	0.00e+00	0	42	0	708837376	62	4331
2026-01-28 12:36:04.72	300.60	15.77	-45.6	-47.0	19.9	0.00e+00	0	42	0	710934528	62	4320
2026-01-28 12:36:05.72	300.81	15.74	-45.6	-47.0	19.6	0.00e+00	0	42	0	713031680	62	4326
2026-01-28 12:36:06.73	301.02	15.71	-45.3	-46.7	19.5	0.00e+00	0	42	0	715128832	62	4152
2026-01-28 12:36:07.74	301.23	15.68	-45.4	-46.7	20.2	0.00e+00	0	43	0	716177408	62	4176
2026-01-28 12:36:08.74	301.44	15.65	-45.2	-46.5	20.5	0.00e+00	0	43	0	718274560	62	4082
2026-01-28 12:36:09.75	301.65	15.62	-45.1	-46.4	20.4	0.00e+00	0	43	0	720371712	62	4033
2026-01-28 12:36:10.76	301.86	15.59	-45.0	-46.3	20.4	0.00e+00	0	42	0	722468864	62	3964
2026-01-28 12:36:11.76	302.07	15.56	-44.9	-46.2	20.1	0.00e+00	0	43	0	724566016	61	4174
2026-01-28 12:36:12.77	302.28	15.53	-44.9	-46.1	20.6	0.00e+00	0	42	0	725614592	61	4142
2026-01-28 12:36:13.77	302.48	15.50	-45.0	-46.3	20.6	0.00e+00	0	43	0	727711744	61	4220
2026-01-28 12:36:14.78	302.69	15.47	-45.1	-46.4	19.5	0.00e+00	0	42	0	729808896	61	4263
2026-01-28 12:36:15.79	302.90	15.44	-44.9	-46.2	18.5	0.00e+00	0	42	0	731906048	61	4170
2026-01-28 12:36:16.79	303.10	15.41	-44.8	-46.1	19.0	0.00e+00	0	42	0	734003200	61	4127
2026-01-28 12:36:17.79	303.31	15.37	-44.9	-46.2	19.9	0.00e+00	0	43	0	735051776	61	4180
2026-01-28 12:36:18.80	303.51	15.34	-44.9	-46.2	19.7	0.00e+00	0	43	0	737148928	61	4168
2026-01-28 12:36:19.81	303.72	15.31	-44.9	-46.2	18.8	0.00e+00	0	43	0	739246080	61	4178
2026-01-28 12:36:20.82	303.92	15.28	-45.0	-46.4	18.6	0.00e+00	0	43	0	741343232	61	4263
2026-01-28 12:36:21.83	304.13	15.24	-45.2	-46.5	19.2	0.00e+00	0	43	0	743440384	61	4315
2026-01-28 12:36:22.83	304.33	15.21	-45.2	-46.5	20.3	0.00e+00	0	42	0	744488960	61	4302
2026-01-28 12:36:23.83	304.53	15.17	-45.2	-46.5	20.5	0.00e+00	0	42	0	746586112	61	4306
2026-01-28 12:36:24.84	304.74	15.14	-45.1	-46.4	20.6	0.00e+00	0	42	0	748683264	61	4279
2026-01-28 12:36:25.84	304.94	15.11	-45.1	-46.3	20.3	0.00e+00	0	42	0	750780416	61	4240
2026-01-28 12:36:26.85	305.14	15.07	-44.9	-46.2	20.4	0.00e+00	0	42	0	752877568	61	4163
2026-01-28 12:36:27.86	305.34	15.04	-44.8	-46.0	20.8	0.00e+00	0	43	0	753926144	61	4092
2026-01-28 12:36:28.87	305.54	15.00	-44.8	-46.0	21.0	0.00e+00	0	42	0	756023296	61	4070
2026-01-28 12:36:29.88	305.74	14.96	-44.8	-46.0	20.8	0.00e+00	0	43	0	758120448	61	4080
2026-01-28 12:36:30.89	305.95	14.93	-44.6	-45.8	21.0	0.00e+00	0	42	0	760217600	61	3992
2026-01-28 12:36:31.89	306.14	14.89	-44.6	-45.8	21.0	0.00e+00	0	43	0	762314752	61	3970
2026-01-28 12:36:32.90	306.34	14.86	-44.6	-45.8	21.0	0.00e+00	0	42	0	763363328	61	3974
2026-01-28 12:36:33.91	306.54	14.82	-44.7	-45.9	21.1	0.00e+00	0	43	0	765460480	61	4008
2026-01-28 12:36:34.91	306.74	14.78	-44.8	-46.0	20.9	0.00e+00	0	42	0	767557632	61	4079
2026-01-28 12:36:35.92	306.94	14.74	-45.0	-46.3	20.6	0.00e+00	0	42	0	769654784	61	4200
2026-01-28 12:36:36.92	307.13	14.71	-45.2	-46.4	20.5	0.00e+00	0	42	0	771751936	61	4286
2026-01-28 12:36:37.93	307.33	14.67	-45.3	-46.6	20.4	0.00e+00	0	42	0	772800512	61	4364
2026-01-28 12:36:38.94	307.53	14.63	-45.5	-46.8	20.2	0.00e+00	0	43	0	774897664	61	4485
2026-01-28 12:36:39.95	307.72	14.59	-45.5	-46.8	20.1	0.00e+00	0	43	0	776994816	61	4493
2026-01-28 12:36:40.95	307.92	14.55	-45.5	-46.8	20.1	0.00e+00	0	42	0	779091968	61	4493
2026-01-28 12:36:41.96	308.11	14.51	-45.5	-46.9	20.1	0.00e+00	0	43	0	781189120	61	4511
2026-01-28 12:36:42.97	308.31	14.48	-45.4	-46.8	20.2	0.00e+00	0	43	0	782237696	61	4448
2026-01-28 12:36:43.98	308.50	14.44	-45.3	-46.7	20.2	0.00e+00	0	42	0	784334848	61	4433
2026-01-28 12:36:44.98	308.69	14.40	-45.4	-46.8	20.1	0.00e+00	0	42	0	786432000	61	4471
2026-01-28 12:36:45.99	308.89	14.36	-45.5	-46.9	20.1	0.00e+00	0	42	0	788529152	61	4494
2026-01-28 12:36:47.00	309.08	14.32	-45.5	-46.9	19.9	0.00e+00	0	42	0	790626304	61	4524
2026-01-28 12:36:48.01	309.27	14.28	-45.6	-46.9	19.8	0.00e+00	0	43	0	791674880	61	4530
2026-01-28 12:36:49.01	309.46	14.24	-45.5	-46.8	19.9	0.00e+00	0	42	0	793772032	61	4490
2026-01-28 12:36:50.02	309.65	14.20	-45.6	-46.9	19.9	0.00e+00	0	43	0	795869184	61	4541
2026-01-28 12:36:51.03	309.84	14.15	-45.5	-46.9	20.0	0.00e+00	0	43	0	797966336	61	4496
2026-01-28 12:36:52.03	310.03	14.11	-45.3	-46.6	20.3	0.00e+00	0	42	0	800063488	61	4373
2026-01-28 12:36:53.03	310.22	14.07	-45.4	-46.7	20.2	0.00e+00	0	43	0	801112064	61	4412
2026-01-28 12:36:54.04	310.41	14.03	-45.4	-46.7	20.2	0.00e+00	0	42	0	803209216	61	4431
2026-01-28 12:36:55.05	310.60	13.99	-45.6	-46.9	20.0	0.00e+00	0	43	0	805306368	61	4539
2026-01-28 12:36:56.05	310.78	13.95	-45.8	-47.2	19.8	0.00e+00	0	42	0	807403520	62	4412
2026-01-28 12:36:57.06	310.97	13.90	-46.0	-47.5	19.4	0.00e+00	0	42	0	809500672	62	4575
2026-01-28 12:36:58.07	311.16	13.86	-46.3	-47.9	19.1	0.00e+00	0	42	0	810549248	63	4508
2026-01-28 12:36:59.07	311.34	13.82	-46.7	-48.3	18.7	0.00e+00	0	43	0	812646400	63	4731
2026-01-28 12:37:00.08	311.53	13.78	-46.7	-48.4	18.5	0.00e+00	0	43	0	814743552	64	4511
2026-01-28 12:37:01.08	311.71	13.73	-47.0	-48.7	18.2	0.00e+00	0	43	0	816840704	64	4688
2026-01-28 12:37:02.09	311.90	13.69	-47.1	-48.9	18.0	0.00e+00	0	43	0	818937856	64	4793
2026-01-28 12:37:03.10	312.08	13.65	-47.3	-49.1	17.8	0.00e+00	0	43	0	819986432	65	4634
2026-01-28 12:37:04.11	312.26	13.60	-47.3	-49.2	17.8	0.00e+00	0	42	0	822083584	65	4657
2026-01-28 12:37:05.12	312.45	13.56	-47.3	-49.2	17.7	0.00e+00	0	42	0	824180736	65	4669
2026-01-28 12:37:06.12	312.63	13.52	-47.3	-49.2	17.7	0.00e+00	0	42	0	826277888	65	4658
2026-01-28 12:37:07.13	312.81	13.47	-47.4	-49.3	17.6	0.00e+00	0	42	0	828375040	65	4723
2026-01-28 12:37:08.13	312.99	13.43	-47.4	-49.3	17.6	0.00e+00	0	42	0	829423616	65	4746
2026-01-28 12:37:09.14	313.17	13.38	-47.5	-49.4	17.5	0.00e+00	0	42	0	831520768	65	4783
2026-01-28 12:37:10.15	313.35	13.34	-47.5	-49.4	17.5	0.00e+00	0	43	0	833617920	65	4797
2026-01-28 12:37:11.16	313.53	13.29	-47.4	-49.3	17.6	0.00e+00	0	42	0	835715072	65	4712
2026-01-28 12:37:12.16	313.71	13.25	-47.3	-49.1	17.7	0.00e+00	0	42	0	837812224	65	4639
2026-01-28 12:37:13.17	313.89	13.20	-47.2	-49.0	17.9	0.00e+00	0	42	0	838860800	65	4562
2026-01-28 12:37:14.17	314.07	13.16	-46.9	-48.6	18.2	0.00e+00	0	42	0	840957952	65	4374
2026-01-28 12:37:15.18	314.24	13.11	-46.8	-48.5	18.4	0.00e+00	0	43	0	843055104	65	4292
2026-01-28 12:37:16.19	314.42	13.07	-46.7	-48.3	18.5	0.00e+00	0	43	0	845152256	65	4223
2026-01-28 12:37:17.19	314.60	13.02	-46.6	-48.3	18.5	0.00e+00	0	43	0	847249408	65	4221
2026-01-28 12:37:18.20	314.77	12.98	-46.7	-48.4	18.5	0.00e+00	0	42	0	848297984	65	4259
2026-01-28 12:37:19.20	314.95	12.93	-46.7	-48.4	18.4	0.00e+00	0	43	0	850395136	65	4283
2026-01-28 12:37:20.21	315.12	12.88	-46.8	-48.5	18.4	0.00e+00	0	43	0	852492288	65	4295
2026-01-28 12:37:21.21	315.30	12.84	-47.0	-48.8	18.0	0.00e+00	0	42	0	854589440	65	4463
2026-01-28 12:37:22.22	315.47	12.79	-47.2	-49.0	17.8	0.00e+00	0	42	0	856686592	65	4576
2026-01-28 12:37:23.22	315.64	12.74	-47.3	-49.2	17.7	0.00e+00	0	43	0	857735168	65	4652
2026-01-28 12:37:24.24	315.82	12.70	-47.5	-49.4	17.4	0.00e+00	0	42	0	859832320	65	4789
2026-01-28 12:37:25.24	315.99	12.65	-47.5	-49.5	17.3	0.00e+00	0	43	0	861929472	65	4832
2026-01-28 12:37:26.25	316.16	12.60	-47.6	-49.6	17.1	0.00e+00	0	42	0	864026624	65	4924
2026-01-28 12:37:27.24	316.33	12.56	-47.7	-49.8	17.0	0.00e+00	0	42	0	866123776	66	4734
2026-01-28 12:37:28.25	316.50	12.51	-47.7	-49.8	17.0	0.00e+00	0	43	0	867172352	66	4711
2026-01-28 12:37:29.26	316.67	12.46	-47.7	-49.7	17.1	0.00e+00	0	43	0	869269504	66	4673
2026-01-28 12:37:30.27	316.84	12.41	-47.5	-49.5	17.4	0.00e+00	0	42	0	871366656	66	4550
2026-01-28 12:37:31.27	317.01	12.37	-47.6	-49.5	17.3	0.00e+00	0	42	0	873463808	66	4592
2026-01-28 12:37:32.28	317.18	12.32	-47.5	-49.5	17.2	0.00e+00	0	43	0	875560960	66	4575
2026-01-28 12:37:33.28	317.34	12.27	-47.4	-49.3	17.4	0.00e+00	0	42	0	876609536	66	4484
2026-01-28 12:37:34.29	317.51	12.22	-47.5	-49.4	17.4	0.00e+00	0	43	0	878706688	66	4519
2026-01-28 12:37:35.30	317.68	12.17	-47.4	-49.3	17.4	0.00e+00	0	43	0	880803840	66	4485
2026-01-28 12:37:36.30	317.85	12.13	-47.3	-49.3	17.5	0.00e+00	0	42	0	882900992	66	4448
2026-01-28 12:37:37.31	318.01	12.08	-47.3	-49.3	17.6	0.00e+00	0	43	0	884998144	66	4446
2026-01-28 12:37:38.32	318.18	12.03	-47.3	-49.3	17.5	0.00e+00	0	42	0	886046720	66	4443
2026-01-28 12:37:39.33	318.34	11.98	-47.2	-49.1	17.7	0.00e+00	0	43	0	888143872	66	4353
2026-01-28 12:37:40.34	318.51	11.93	-46.9	-48.6	18.1	0.00e+00	0	42	0	890241024	65	4383
2026-01-28 12:37:41.35	318.67	11.88	-46.6	-48.3	18.4	0.00e+00	0	42	0	892338176	65	4214
2026-01-28 12:37:42.35	318.83	11.83	-46.4	-48.1	18.6	0.00e+00	0	42	0	894435328	64	4344
2026-01-28 12:37:43.36	319.00	11.78	-46.2	-47.8	18.9	0.00e+00	0	43	0	895483904	64	4220
2026-01-28 12:37:44.37	319.16	11.73	-46.1	-47.7	19.0	0.00e+00	0	43	0	897581056	64	4173
2026-01-28 12:37:45.38	319.32	11.68	-46.0	-47.6	19.1	0.00e+00	0	43	0	899678208	64	4118
2026-01-28 12:37:46.39	319.48	11.63	-46.2	-47.7	19.0	0.00e+00	0	43	0	901775360	64	4182
2026-01-28 12:37:47.39	319.64	11.58	-46.2	-47.8	18.9	0.00e+00	0	43	0	903872512	64	4203
2026-01-28 12:37:48.40	319.80	11.53	-46.2	-47.8	18.9	0.00e+00	0	43	0	904921088	64	4232
2026-01-28 12:37:49.41	319.96	11.48	-46.4	-48.1	18.6	0.00e+00	0	42	0	907018240	64	4355
2026-01-28 12:37:50.42	320.12	11.43	-46.4	-48.1	18.6	0.00e+00	0	43	0	909115392	64	4365
2026-01-28 12:37:51.43	320.28	11.38	-46.5	-48.2	18.4	0.00e+00	0	42	0	911212544	64	4429
2026-01-28 12:37:52.43	320.44	11.33	-46.6	-48.4	18.4	0.00e+00	0	43	0	913309696	64	4498
2026-01-28 12:37:53.44	320.60	11.28	-46.6	-48.3	18.4	0.00e+00	0	43	0	914358272	64	4445
2026-01-28 12:37:54.45	320.75	11.23	-46.6	-48.3	18.4	0.00e+00	0	42	0	916455424	64	4490
2026-01-28 12:37:55.45	320.91	11.18	-46.7	-48.5	18.2	0.00e+00	0	43	0	918552576	64	4548
2026-01-28 12:37:56.46	321.06	11.13	-46.9	-48.7	18.0	0.00e+00	0	43	0	920649728	64	4661
2026-01-28 12:37:57.46	321.22	11.08	-46.9	-48.7	17.9	0.00e+00	0	42	0	922746880	64	4681
2026-01-28 12:37:58.47	321.37	11.03	-46.9	-48.8	17.9	0.00e+00	0	42	0	923795456	64	4709
2026-01-28 12:37:59.48	321.53	10.98	-46.8	-48.6	18.1	0.00e+00	0	43	0	925892608	64	4631
2026-01-28 12:38:00.48	321.68	10.93	-46.8	-48.6	18.0	0.00e+00	0	43	0	927989760	64	4605
2026-01-28 12:38:01.49	321.84	10.88	-46.8	-48.6	18.1	0.00e+00	0	43	0	930086912	64	4606
2026-01-28 12:38:02.50	321.99	10.83	-46.3	-47.9	18.6	0.00e+00	0	43	0	932184064	64	4284
2026-01-28 12:38:03.51	322.14	10.78	-46.1	-47.7	18.9	0.00e+00	0	43	0	933232640	64	4172
2026-01-28 12:38:04.51	322.29	10.73	-46.0	-47.5	19.2	0.00e+00	0	43	0	935329792	63	4328
2026-01-28 12:38:05.52	322.44	10.68	-45.7	-47.2	19.5	0.00e+00	0	42	0	937426944	63	4153
2026-01-28 12:38:06.52	322.59	10.63	-45.7	-47.1	19.6	0.00e+00	0	42	0	939524096	63	4121
2026-01-28 12:38:07.53	322.74	10.57	-45.6	-47.0	19.7	0.00e+00	0	43	0	941621248	63	4081
2026-01-28 12:38:08.53	322.89	10.52	-45.7	-47.1	19.6	0.00e+00	0	43	0	942669824	63	4137
2026-01-28 12:38:09.54	323.04	10.47	-45.7	-47.2	19.6	0.00e+00	0	43	0	944766976	63	4165
2026-01-28 12:38:10.55	323.19	10.42	-45.9	-47.4	19.3	0.00e+00	0	43	0	946864128	63	4262
2026-01-28 12:38:11.55	323.34	10.37	-46.1	-47.6	19.1	0.00e+00	0	43	0	948961280	63	4388
2026-01-28 12:38:12.56	323.49	10.32	-46.2	-47.8	18.9	0.00e+00	0	42	0	951058432	63	4485
2026-01-28 12:38:13.57	323.63	10.27	-46.2	-47.8	19.0	0.00e+00	0	43	0	952107008	63	4451
2026-01-28 12:38:14.57	323.78	10.21	-46.3	-47.9	18.9	0.00e+00	0	43	0	954204160	63	4498
2026-01-28 12:38:15.58	323.93	10.16	-46.3	-47.9	18.8	0.00e+00	0	43	0	956301312	63	4531
2026-01-28 12:38:16.59	324.07	10.11	-46.4	-48.1	18.7	0.00e+00	0	43	0	958398464	63	4601
2026-01-28 12:38:17.60	324.22	10.06	-46.2	-47.8	18.9	0.00e+00	0	43	0	960495616	63	4483
2026-01-28 12:38:18.61	324.36	10.01	-46.2	-47.7	19.0	0.00e+00	0	43	0	961544192	63	4426
2026-01-28 12:38:19.61	324.51	9.96	-46.2	-47.7	18.9	0.00e+00	0	43	0	963641344	63	4436
2026-01-28 12:38:20.62	324.65	9.90	-46.2	-47.7	18.9	0.00e+00	0	43	0	965738496	63	4440
2026-01-28 12:38:21.63	324.79	9.85	-46.3	-47.9	18.8	0.00e+00	0	43	0	967835648	63	4508
2026-01-28 12:38:22.64	324.94	9.80	-46.3	-47.9	18.7	0.00e+00	0	43	0	969932800	63	4524
2026-01-28 12:38:23.65	325.08	9.75	-46.4	-48.0	18.6	0.00e+00	0	42	0	970981376	63	4581
2026-01-28 12:38:24.66	325.22	9.69	-46.4	-48.0	18.7	0.00e+00	0	43	0	973078528	63	4570
2026-01-28 12:38:25.67	325.36	9.64	-46.5	-48.1	18.5	0.00e+00	0	42	0	975175680	63	4636
2026-01-28 12:38:26.67	325.50	9.59	-46.4	-48.1	18.6	0.00e+00	0	43	0	977272832	63	4604
2026-01-28 12:38:27.68	325.64	9.54	-46.5	-48.2	18.5	0.00e+00	0	43	0	979369984	63	4658
2026-01-28 12:38:28.69	325.78	9.49	-46.4	-48.0	18.6	0.00e+00	0	43	0	980418560	63	4584
2026-01-28 12:38:29.70	325.92	9.43	-46.3	-47.9	18.8	0.00e+00	0	42	0	982515712	63	4512
2026-01-28 12:38:30.71	326.06	9.38	-46.3	-47.9	18.6	0.00e+00	0	43	0	984612864	63	4539
2026-01-28 12:38:31.72	326.20	9.33	-46.1	-47.7	18.9	0.00e+00	0	42	0	986710016	63	4428
2026-01-28 12:38:32.73	326.34	9.28	-46.2	-47.8	18.8	0.00e+00	0	43	0	988807168	63	4452
2026-01-28 12:38:33.73	326.48	9.22	-46.3	-48.0	18.7	0.00e+00	0	43	0	989855744	63	4546
2026-01-28 12:38:34.74	326.61	9.17	-46.5	-48.2	18.4	0.00e+00	0	43	0	991952896	63	4663
2026-01-28 12:38:35.75	326.75	9.12	-46.4	-48.1	18.5	0.00e+00	0	43	0	994050048	63	4645
2026-01-28 12:38:36.76	326.89	9.07	-46.5	-48.2	18.4	0.00e+00	0	43	0	996147200	63	4669
2026-01-28 12:38:37.77	327.02	9.01	-46.6	-48.3	18.2	0.00e+00	0	42	0	998244352	63	4750
2026-01-28 12:38:38.77	327.16	8.96	-46.6	-48.3	18.2	0.00e+00	0	42	0	999292928	63	4756
2026-01-28 12:38:39.78	327.29	8.91	-46.5	-48.2	18.4	0.00e+00	0	42	0	1001390080	63	4660
2026-01-28 12:38:40.79	327.43	8.86	-46.5	-48.2	18.3	0.00e+00	0	42	0	1003487232	63	4670
2026-01-28 12:38:41.80	327.56	8.80	-46.2	-47.8	18.7	0.00e+00	0	43	0	1005584384	63	4475
2026-01-28 12:38:42.81	327.69	8.75	-46.1	-47.7	18.8	0.00e+00	0	43	0	1007681536	63	4430
2026-01-28 12:38:43.81	327.83	8.70	-46.1	-47.7	18.8	0.00e+00	0	43	0	1009778688	63	4433
2026-01-28 12:38:44.82	327.96	8.64	-45.9	-47.4	19.1	0.00e+00	0	43	0	1010827264	63	4268
2026-01-28 12:38:45.83	328.09	8.59	-46.0	-47.6	18.9	0.00e+00	0	42	0	1012924416	63	4356
2026-01-28 12:38:46.84	328.22	8.54	-46.1	-47.6	18.8	0.00e+00	0	43	0	1015021568	63	4391
2026-01-28 12:38:47.85	328.35	8.49	-46.2	-47.8	18.7	0.00e+00	0	42	0	1017118720	63	4477
2026-01-28 12:38:48.85	328.48	8.43	-46.3	-48.0	18.5	0.00e+00	0	43	0	1018167296	63	4587
2026-01-28 12:38:49.86	328.61	8.38	-46.4	-48.1	18.3	0.00e+00	0	42	0	1020264448	63	4648
2026-01-28 12:38:50.86	328.74	8.33	-46.5	-48.2	18.3	0.00e+00	0	42	0	1022361600	63	4687
2026-01-28 12:38:51.86	328.87	8.28	-46.6	-48.4	18.1	0.00e+00	0	43	0	1024458752	63	4770
2026-01-28 12:38:52.86	329.00	8.22	-46.5	-48.3	18.0	0.00e+00	0	43	0	1026555904	64	4486
2026-01-28 12:38:53.87	329.13	8.17	-46.6	-48.3	18.1	0.00e+00	0	42	0	1027604480	64	4491
2026-01-28 12:38:54.87	329.25	8.12	-46.5	-48.3	18.1	0.00e+00	0	43	0	1029701632	64	4452
2026-01-28 12:38:55.88	329.38	8.07	-46.3	-48.0	18.3	0.00e+00	0	43	0	1031798784	64	4340
2026-01-28 12:38:56.89	329.51	8.01	-46.3	-48.0	18.4	0.00e+00	0	42	0	1033895936	64	4318
2026-01-28 12:38:57.89	329.63	7.96	-46.3	-48.0	18.3	0.00e+00	0	42	0	1035993088	64	4331
2026-01-28 12:38:58.90	329.76	7.91	-46.3	-48.0	18.3	0.00e+00	0	43	0	1037041664	64	4319
2026-01-28 12:38:59.91	329.89	7.85	-46.3	-48.0	18.3	0.00e+00	0	42	0	1039138816	64	4329
2026-01-28 12:39:00.92	330.01	7.80	-46.2	-47.9	18.4	0.00e+00	0	43	0	1041235968	64	4279
2026-01-28 12:39:01.93	330.14	7.75	-46.3	-48.0	18.3	0.00e+00	0	42	0	1043333120	64	4339
2026-01-28 12:39:02.93	330.26	7.70	-46.4	-48.2	18.1	0.00e+00	0	42	0	1045430272	64	4418
2026-01-28 12:39:03.94	330.38	7.64	-46.5	-48.3	18.1	0.00e+00	0	42	0	1046478848	64	4454
2026-01-28 12:39:04.94	330.51	7.59	-46.6	-48.4	17.9	0.00e+00	0	42	0	1048576000	64	4505
2026-01-28 12:39:05.95	330.63	7.54	-46.8	-48.7	17.7	0.00e+00	0	42	0	1050673152	64	4671
2026-01-28 12:39:06.96	330.75	7.48	-46.7	-48.6	17.7	0.00e+00	0	43	0	1052770304	64	4634
2026-01-28 12:39:07.97	330.87	7.43	-46.7	-48.6	17.6	0.00e+00	0	43	0	1054867456	64	4625
2026-01-28 12:39:08.97	331.00	7.38	-46.9	-48.9	17.4	0.00e+00	0	43	0	1055916032	64	4793
2026-01-28 12:39:09.98	331.12	7.33	-46.8	-48.7	17.5	0.00e+00	0	42	0	1058013184	64	4700
2026-01-28 12:39:10.99	331.24	7.27	-46.9	-48.9	17.4	0.00e+00	0	43	0	1060110336	64	4769
2026-01-28 12:39:12.00	331.36	7.22	-46.8	-48.7	17.5	0.00e+00	0	42	0	1062207488	64	4660
2026-01-28 12:39:13.01	331.48	7.17	-46.8	-48.7	17.6	0.00e+00	0	42	0	1064304640	64	4663
2026-01-28 12:39:14.01	331.60	7.11	-47.0	-48.9	17.3	0.00e+00	0	43	0	1066401792	64	4809
2026-01-28 12:39:15.02	331.72	7.06	-46.8	-48.7	17.5	0.00e+00	0	42	0	1067450368	64	4672
2026-01-28 12:39:16.03	331.84	7.01	-46.7	-48.6	17.6	0.00e+00	0	42	0	1069547520	64	4651
2026-01-28 12:39:17.04	331.96	6.96	-47.0	-49.0	17.2	0.00e+00	0	42	0	1071644672	64	4844
2026-01-28 12:39:18.05	332.07	6.90	-47.0	-49.0	17.2	0.00e+00	0	42	0	1073741824	64	4835
2026-01-28 12:39:19.06	332.19	6.85	-47.1	-49.2	17.0	0.00e+00	0	43	0	1074790400	64	4956
2026-01-28 12:39:20.07	332.31	6.80	-47.1	-49.2	17.0	0.00e+00	0	42	0	1076887552	64	4937
2026-01-28 12:39:21.08	332.43	6.74	-47.3	-49.5	16.7	0.00e+00	0	42	0	1078984704	65	4815
2026-01-28 12:39:22.09	332.54	6.69	-47.3	-49.5	16.7	0.00e+00	0	42	0	1081081856	65	4836
2026-01-28 12:39:23.09	332.66	6.64	-47.4	-49.6	16.6	0.00e+00	0	42	0	1083179008	65	4882
2026-01-28 12:39:24.10	332.77	6.59	-47.4	-49.6	16.6	0.00e+00	0	43	0	1084227584	65	4885
2026-01-28 12:39:25.10	332.89	6.53	-47.3	-49.4	16.8	0.00e+00	0	42	0	1086324736	65	4781
2026-01-28 12:39:26.11	333.00	6.48	-47.4	-49.6	16.6	0.00e+00	0	42	0	1088421888	65	4880
2026-01-28 12:39:27.12	333.12	6.43	-47.3	-49.4	16.7	0.00e+00	0	42	0	1090519040	65	4780
2026-01-28 12:39:28.13	333.23	6.37	-47.2	-49.3	16.8	0.00e+00	0	42	0	1092616192	65	4720
2026-01-28 12:39:29.13	333.34	6.32	-47.1	-49.2	16.9	0.00e+00	0	42	0	1094713344	65	4660
2026-01-28 12:39:30.15	333.46	6.27	-47.1	-49.2	16.8	0.00e+00	0	42	0	1095761920	65	4691
2026-01-28 12:39:31.16	333.57	6.22	-47.3	-49.4	16.7	0.00e+00	0	42	0	1097859072	65	4783
2026-01-28 12:39:32.17	333.68	6.16	-47.4	-49.7	16.4	0.00e+00	0	43	0	1099956224	65	4940
2026-01-28 12:39:33.17	333.80	6.11	-47.4	-49.6	16.5	0.00e+00	0	43	0	1102053376	65	4887
2026-01-28 12:39:34.18	333.91	6.06	-47.4	-49.6	16.4	0.00e+00	0	42	0	1103101952	65	4907
2026-01-28 12:39:35.19	334.02	6.01	-47.5	-49.8	16.3	0.00e+00	0	42	0	1105199104	65	5005
2026-01-28 12:39:36.20	334.13	5.95	-47.6	-50.0	16.0	0.00e+00	0	42	0	1107296256	65	5134
2026-01-28 12:39:37.21	334.24	5.90	-47.6	-49.9	16.2	0.00e+00	0	42	0	1109393408	65	5048
2026-01-28 12:39:38.21	334.35	5.85	-47.7	-50.1	16.0	0.00e+00	0	43	0	1111490560	65	5163
2026-01-28 12:39:39.21	334.46	5.80	-47.5	-49.8	16.2	0.00e+00	0	42	0	1113587712	65	5006
2026-01-28 12:39:40.22	334.57	5.74	-47.5	-49.8	16.2	0.00e+00	0	43	0	1114636288	65	5004
2026-01-28 12:39:41.23	334.68	5.69	-47.5	-49.8	16.1	1.50e-06	0	42	0	1116733440	65	5030
2026-01-28 12:39:42.24	334.79	5.64	-47.5	-49.9	16.1	0.00e+00	0	42	0	1118830592	66	4768
2026-01-28 12:39:43.25	334.90	5.59	-47.6	-49.9	16.0	0.00e+00	0	42	0	1120927744	66	4813
2026-01-28 12:39:44.25	335.00	5.53	-47.5	-49.9	16.1	0.00e+00	0	43	0	1123024896	66	4766
2026-01-28 12:39:45.26	335.11	5.48	-47.4	-49.7	16.3	0.00e+00	0	43	0	1124073472	66	4655
2026-01-28 12:39:46.27	335.22	5.43	-47.3	-49.5	16.4	0.00e+00	0	42	0	1126170624	66	4591
2026-01-28 12:39:47.28	335.32	5.38	-47.4	-49.7	16.3	0.00e+00	0	43	0	1128267776	66	4671
2026-01-28 12:39:48.29	335.43	5.32	-47.4	-49.7	16.3	0.00e+00	0	43	0	1130364928	66	4657
2026-01-28 12:39:49.29	335.54	5.27	-47.6	-50.0	15.9	0.00e+00	0	43	0	1131413504	66	4843
2026-01-28 12:39:50.30	335.64	5.22	-47.5	-49.9	16.0	0.00e+00	0	43	0	1133510656	66	4775
2026-01-28 12:39:51.31	335.75	5.17	-47.6	-49.9	15.9	0.00e+00	0	43	0	1135607808	66	4807
2026-01-28 12:39:52.31	335.85	5.12	-47.5	-49.8	16.1	0.00e+00	0	43	0	1137704960	66	4730
2026-01-28 12:39:53.32	335.96	5.06	-47.7	-50.1	15.8	0.00e+00	0	42	0	1139802112	66	4901
2026-01-28 12:39:54.33	336.06	5.01	-48.2	-51.0	15.1	0.00e+00	0	43	0	1141899264	66	5441
2026-01-28 12:39:55.33	336.16	4.96	-52.4	-67.4	3.8	1.49e+00	0	42	104	1141899264	75	21391
2026-01-28 12:39:56.34	336.27	4.91	-52.8	-67.8	3.8	1.49e+00	0	42	104	1141899264	76	21074
2026-01-28 12:39:57.35	336.37	4.85	-53.0	-68.0	3.8	1.49e+00	0	43	104	1141899264	76	21730
2026-01-28 12:39:58.35	336.47	4.80	-53.2	-68.1	3.8	1.49e+00	0	43	104	1141899264	76	21998
2026-01-28 12:39:59.36	336.58	4.75	-53.3	-68.3	3.8	1.49e+00	0	43	104	1141899264	77	21083
2026-01-28 12:40:00.37	336.68	4.70	-53.4	-68.3	3.8	1.49e+00	0	43	104	1141899264	77	21233
2026-01-28 12:40:01.37	336.78	4.65	-53.5	-68.4	3.8	1.49e+00	0	43	104	1141899264	77	21449
2026-01-28 12:40:02.38	336.88	4.60	-53.5	-68.5	3.8	1.49e+00	0	43	104	1141899264	77	21535
2026-01-28 12:40:03.39	336.98	4.54	-53.5	-68.4	3.8	1.49e+00	0	43	104	1141899264	77	21479
2026-01-28 12:40:04.40	337.08	4.49	-53.5	-68.4	3.8	1.49e+00	0	43	104	1141899264	77	21446
2026-01-28 12:40:05.41	337.19	4.44	-53.4	-68.4	3.8	1.49e+00	0	43	104	1141899264	77	21340
2026-01-28 12:40:06.41	337.28	4.39	-53.3	-68.3	3.8	1.49e+00	0	43	104	1141899264	77	21136
2026-01-28 12:40:07.42	337.38	4.34	-53.2	-68.1	3.8	1.49e+00	0	43	104	1141899264	77	20770
2026-01-28 12:40:08.43	337.48	4.28	-53.2	-68.1	3.8	1.49e+00	0	43	104	1141899264	77	20774
2026-01-28 12:40:09.44	337.58	4.23	-53.3	-68.2	3.8	1.49e+00	0	43	104	1141899264	77	20911
2026-01-28 12:40:10.45	337.68	4.18	-53.3	-68.2	3.8	1.49e+00	0	43	104	1141899264	77	20986
2026-01-28 12:40:11.45	337.78	4.13	-53.3	-68.3	3.8	1.49e+00	0	43	104	1141899264	77	21094
2026-01-28 12:40:12.46	337.88	4.08	-53.3	-68.3	3.8	1.49e+00	0	43	104	1141899264	77	21166
2026-01-28 12:40:13.47	337.98	4.03	-53.4	-68.3	3.8	1.49e+00	0	43	104	1141899264	77	21256
2026-01-28 12:40:14.48	338.07	3.97	-53.4	-68.4	3.8	1.49e+00	0	43	104	1141899264	77	21264
2026-01-28 12:40:15.49	338.17	3.92	-53.4	-68.4	3.8	1.49e+00	0	43	104	1141899264	77	21322
2026-01-28 12:40:16.50	338.27	3.87	-53.4	-68.3	3.8	1.49e+00	0	43	104	1141899264	77	21236
2026-01-28 12:40:17.50	338.36	3.82	-53.3	-68.3	3.8	1.49e+00	0	43	104	1141899264	77	21073
2026-01-28 12:40:18.51	338.46	3.77	-53.3	-68.2	3.8	1.49e+00	0	43	104	1141899264	77	20969
2026-01-28 12:40:19.52	338.56	3.72	-53.3	-68.2	3.8	1.49e+00	0	43	104	1141899264	77	20949
2026-01-28 12:40:20.53	338.65	3.67	-53.3	-68.2	3.8	1.49e+00	0	43	104	1141899264	77	20943
2026-01-28 12:40:21.54	338.75	3.61	-53.3	-68.2	3.8	1.49e+00	0	43	104	1141899264	77	20971
2026-01-28 12:40:22.55	338.84	3.56	-53.2	-68.2	3.8	1.49e+00	0	43	104	1141899264	77	20871
2026-01-28 12:40:23.55	338.94	3.51	-53.3	-68.2	3.8	1.49e+00	0	43	104	1141899264	77	20944
2026-01-28 12:40:24.56	339.03	3.46	-53.2	-68.2	3.8	1.49e+00	0	43	104	1141899264	77	20864
2026-01-28 12:40:25.57	339.13	3.41	-53.2	-68.2	3.8	1.49e+00	0	43	104	1141899264	77	20878
2026-01-28 12:40:26.58	339.22	3.36	-53.2	-68.2	3.8	1.49e+00	0	43	104	1141899264	77	20904
2026-01-28 12:40:27.59	339.31	3.31	-53.2	-68.2	3.8	1.49e+00	0	43	104	1141899264	77	20820
