passes_logs/2026/01/28/R3.2S_Murmansk/R3.2S_Murmansk__20260128_144550_FENGYUN_3D_rec.log

#Pass ID: 20260128_144550_FENGYUN 3D
#Satellite: FENGYUN 3D
#Configuration: FENGYUN 3D
#almurnet v.1.7.20251203
#Start time: 2026-01-28 14:45:51

#Version: 2.2.20231116
#Station: R3.2S_Murmansk
#Location: 33.079688 lon 68.888172 lat
#TLE: 1 43010U 17072A   26027.90082829  .00000305  00000+0  16579-3 0  9998
#TLE: 2 43010  98.9960 359.9183 0002511  88.1058 272.0405 14.19701796425082

#Time	Az	El	Level	Level2	SNR	BER	BlckErr	Temp	State	Recorded	gain1	gain2
2026-01-28 14:45:51.79	234.00	2.07	-53.5	-65.5	3.8	8.46e-01	0	40	0	0	79	13627
2026-01-28 14:45:52.81	234.10	2.12	-52.6	-64.5	3.8	8.45e-01	0	40	104	0	77	13641
2026-01-28 14:45:53.81	234.19	2.17	-52.5	-64.4	3.8	8.46e-01	0	40	104	0	76	14288
2026-01-28 14:45:54.82	234.28	2.22	-52.5	-64.4	3.8	8.47e-01	0	40	104	0	76	14274
2026-01-28 14:45:55.82	234.38	2.27	-52.4	-64.4	3.8	8.46e-01	0	41	104	0	76	14248
2026-01-28 14:45:56.83	234.47	2.31	-52.4	-64.4	3.8	8.46e-01	0	41	104	0	76	14241
2026-01-28 14:45:57.84	234.57	2.36	-52.4	-64.3	3.8	8.46e-01	0	41	104	0	76	14194
2026-01-28 14:45:58.85	234.66	2.41	-52.4	-64.4	3.8	8.47e-01	0	41	104	0	76	14225
2026-01-28 14:45:59.86	234.76	2.46	-52.4	-64.3	3.8	8.47e-01	0	41	104	0	76	14182
2026-01-28 14:46:00.87	234.85	2.51	-52.4	-64.3	3.8	8.47e-01	0	41	104	0	76	14167
2026-01-28 14:46:01.88	234.95	2.56	-52.4	-64.3	3.8	8.47e-01	0	41	104	0	76	14158
2026-01-28 14:46:02.89	235.04	2.60	-52.4	-64.3	3.8	8.46e-01	0	41	104	0	76	14150
2026-01-28 14:46:03.90	235.14	2.65	-52.4	-64.3	3.8	8.46e-01	0	41	104	0	76	14185
2026-01-28 14:46:04.91	235.24	2.70	-52.4	-64.3	3.8	8.46e-01	0	41	104	0	76	14135
2026-01-28 14:46:05.91	235.33	2.75	-52.4	-64.3	3.8	8.46e-01	0	41	104	0	76	14159
2026-01-28 14:46:06.92	235.43	2.80	-52.4	-64.3	3.8	8.46e-01	0	41	104	0	76	14131
2026-01-28 14:46:07.93	235.53	2.85	-52.4	-64.3	3.8	8.46e-01	0	41	104	0	76	14129
2026-01-28 14:46:08.93	235.63	2.89	-52.4	-64.3	3.8	8.46e-01	0	41	104	0	76	14153
2026-01-28 14:46:09.94	235.73	2.94	-52.4	-64.3	3.8	8.47e-01	0	41	104	0	76	14152
2026-01-28 14:46:10.95	235.82	2.99	-52.4	-64.3	3.8	8.47e-01	0	41	104	0	76	14128
2026-01-28 14:46:11.96	235.92	3.04	-52.4	-64.3	3.8	8.46e-01	0	41	104	0	76	14126
2026-01-28 14:46:12.96	236.02	3.09	-52.4	-64.3	3.8	8.46e-01	0	41	104	0	76	14128
2026-01-28 14:46:13.97	236.12	3.14	-52.4	-64.3	3.8	8.48e-01	0	41	104	0	76	14152
2026-01-28 14:46:14.98	236.22	3.19	-52.4	-64.3	3.8	8.47e-01	0	41	104	0	76	14053
2026-01-28 14:46:15.99	236.32	3.23	-52.4	-64.3	3.8	8.46e-01	0	41	104	0	76	14141
2026-01-28 14:46:17.00	236.42	3.28	-52.4	-64.3	3.8	8.45e-01	0	41	104	0	76	14079
2026-01-28 14:46:18.01	236.52	3.33	-52.4	-64.3	3.8	8.46e-01	0	41	104	0	76	14056
2026-01-28 14:46:19.01	236.62	3.38	-52.4	-64.2	3.8	8.46e-01	0	41	104	0	76	14032
2026-01-28 14:46:20.02	236.73	3.43	-52.4	-64.3	3.8	8.47e-01	0	41	104	0	76	14096
2026-01-28 14:46:21.03	236.83	3.48	-52.4	-64.2	3.8	8.46e-01	0	41	104	0	76	14034
2026-01-28 14:46:22.04	236.93	3.53	-52.4	-64.3	3.8	8.46e-01	0	41	104	0	76	14069
2026-01-28 14:46:23.05	237.03	3.58	-52.4	-64.3	3.8	8.45e-01	0	41	104	0	76	14083
2026-01-28 14:46:24.05	237.13	3.62	-52.4	-64.3	3.8	8.46e-01	0	41	104	0	76	14100
2026-01-28 14:46:25.06	237.24	3.67	-52.4	-64.3	3.8	8.47e-01	0	41	104	0	76	14070
2026-01-28 14:46:26.07	237.34	3.72	-52.4	-64.3	3.8	8.46e-01	0	41	104	0	76	14070
2026-01-28 14:46:27.08	237.45	3.77	-52.4	-64.3	3.8	8.46e-01	0	41	104	0	76	14072
2026-01-28 14:46:28.09	237.55	3.82	-52.4	-64.2	3.8	8.47e-01	0	41	104	0	76	14045
2026-01-28 14:46:29.09	237.65	3.87	-52.4	-64.2	3.8	8.46e-01	0	41	104	0	76	13897
2026-01-28 14:46:30.10	237.76	3.92	-52.3	-64.0	3.8	8.46e-01	0	42	104	0	76	13611
2026-01-28 14:46:31.11	237.86	3.97	-52.3	-63.8	3.8	8.46e-01	0	41	104	0	76	13406
2026-01-28 14:46:32.11	237.97	4.01	-52.3	-63.8	3.8	8.45e-01	0	42	104	0	76	13351
2026-01-28 14:46:33.12	238.07	4.06	-52.3	-63.9	3.8	8.46e-01	0	41	104	0	76	13569
2026-01-28 14:46:34.13	238.18	4.11	-52.3	-64.1	3.8	8.47e-01	0	41	104	0	76	13840
2026-01-28 14:46:35.13	238.29	4.16	-52.3	-64.2	3.8	8.47e-01	0	41	104	0	76	13892
2026-01-28 14:46:36.14	238.39	4.21	-52.3	-64.2	3.8	8.46e-01	0	42	104	0	76	13887
2026-01-28 14:46:37.15	238.50	4.26	-52.3	-64.0	3.8	8.46e-01	0	41	104	0	76	13672
2026-01-28 14:46:38.16	238.61	4.31	-52.3	-64.0	3.8	8.46e-01	0	41	104	0	76	13719
2026-01-28 14:46:39.16	238.71	4.36	-52.3	-64.2	3.8	8.47e-01	0	42	104	0	76	14004
2026-01-28 14:46:40.17	238.82	4.40	-52.3	-64.2	3.8	8.45e-01	0	42	104	0	76	13957
2026-01-28 14:46:41.18	238.93	4.45	-52.2	-63.3	3.8	8.46e-01	0	42	104	0	76	12547
2026-01-28 14:46:42.19	239.04	4.50	-52.1	-61.6	3.8	8.44e-01	0	42	104	0	76	10364
2026-01-28 14:46:43.19	239.15	4.55	-51.8	-59.9	4.4	8.38e-01	0	42	0	0	75	9017
2026-01-28 14:46:44.21	239.26	4.60	-51.6	-58.6	5.0	7.83e-01	0	42	0	0	75	7767
2026-01-28 14:46:45.21	239.37	4.65	-51.6	-58.5	5.1	7.51e-01	0	42	0	0	75	7690
2026-01-28 14:46:46.22	239.48	4.70	-51.7	-59.3	4.7	7.92e-01	0	42	0	0	75	8453
2026-01-28 14:46:47.23	239.59	4.75	-51.7	-59.1	4.8	7.99e-01	0	42	0	0	75	8193
2026-01-28 14:46:48.24	239.70	4.80	-51.1	-56.5	6.5	4.51e-01	0	42	0	1048576	74	6481
2026-01-28 14:46:49.24	239.81	4.84	-49.9	-53.6	9.4	6.51e-02	0	42	0	7340032	71	5495
2026-01-28 14:46:50.25	239.92	4.89	-48.0	-50.3	12.9	4.45e-04	0	42	0	12582912	68	4475
2026-01-28 14:46:51.26	240.04	4.94	-46.4	-48.1	15.1	1.10e-06	0	42	0	18874368	64	4351
2026-01-28 14:46:52.27	240.15	4.99	-45.3	-46.7	16.6	0.00e+00	0	42	0	24117248	62	4151
2026-01-28 14:46:53.27	240.26	5.04	-44.3	-45.5	17.8	0.00e+00	0	42	0	29360128	60	4091
2026-01-28 14:46:54.28	240.37	5.09	-49.1	-52.0	11.3	2.48e-03	0	42	0	35651584	69	5117
2026-01-28 14:46:55.29	240.49	5.14	-48.0	-50.3	12.9	6.61e-03	0	42	0	40894464	68	4442
2026-01-28 14:46:56.30	240.60	5.19	-45.9	-47.5	15.9	0.00e+00	0	42	0	47185920	62	4555
2026-01-28 14:46:57.31	240.71	5.24	-48.0	-50.3	12.5	1.41e-01	0	42	0	52428800	68	4458
2026-01-28 14:46:58.32	240.83	5.28	-44.3	-45.6	17.8	0.00e+00	0	42	0	58720256	60	4102
2026-01-28 14:46:59.33	240.94	5.33	-43.7	-44.8	18.9	0.00e+00	0	42	0	63963136	59	3980
2026-01-28 14:47:00.33	241.06	5.38	-43.6	-44.8	18.9	0.00e+00	0	42	0	69206016	59	3961
2026-01-28 14:47:01.34	241.17	5.43	-43.4	-44.4	19.2	0.00e+00	0	42	0	75497472	58	4039
2026-01-28 14:47:02.35	241.29	5.48	-43.5	-44.6	19.1	0.00e+00	0	42	0	80740352	58	4113
2026-01-28 14:47:03.36	241.41	5.53	-43.7	-44.8	18.9	0.00e+00	0	42	0	85983232	58	4217
2026-01-28 14:47:04.36	241.52	5.58	-43.7	-44.8	18.9	0.00e+00	0	42	0	92274688	58	4205
2026-01-28 14:47:05.37	241.64	5.63	-43.6	-44.6	19.1	0.00e+00	0	42	0	97517568	58	4142
2026-01-28 14:47:06.38	241.76	5.68	-43.1	-44.2	19.5	0.00e+00	0	42	0	103809024	58	3926
2026-01-28 14:47:07.39	241.88	5.72	-43.4	-44.5	19.2	0.00e+00	0	42	0	109051904	58	4081
2026-01-28 14:47:08.40	242.00	5.77	-43.3	-44.4	19.3	0.00e+00	0	42	0	115343360	58	4033
2026-01-28 14:47:09.40	242.11	5.82	-43.2	-44.2	19.5	0.00e+00	0	42	0	120586240	58	3950
2026-01-28 14:47:10.41	242.23	5.87	-43.4	-44.5	19.3	0.00e+00	0	42	0	126877696	58	4056
2026-01-28 14:47:11.42	242.35	5.92	-43.1	-44.2	19.5	0.00e+00	0	42	0	132120576	58	3926
2026-01-28 14:47:12.43	242.47	5.97	-43.1	-44.2	19.5	0.00e+00	0	42	0	137363456	58	3931
2026-01-28 14:47:13.44	242.59	6.02	-43.2	-44.3	19.4	0.00e+00	0	42	0	143654912	58	3976
2026-01-28 14:47:14.45	242.71	6.07	-42.9	-43.9	19.8	0.00e+00	0	42	0	148897792	57	4020
2026-01-28 14:47:15.45	242.83	6.12	-43.1	-44.2	19.6	0.00e+00	0	42	0	154140672	57	4148
2026-01-28 14:47:16.46	242.95	6.16	-43.2	-44.3	19.5	0.00e+00	0	42	0	160432128	57	4209
2026-01-28 14:47:17.47	243.08	6.21	-43.1	-44.1	19.6	0.00e+00	0	42	0	165675008	57	4125
2026-01-28 14:47:18.48	243.20	6.26	-43.2	-44.2	19.5	0.00e+00	0	42	0	170917888	57	4177
2026-01-28 14:47:19.49	243.32	6.31	-42.9	-43.9	19.8	0.00e+00	0	42	0	177209344	57	4038
2026-01-28 14:47:20.50	243.44	6.36	-43.0	-44.0	19.7	0.00e+00	0	42	0	183500800	57	4097
2026-01-28 14:47:21.50	243.57	6.41	-43.0	-44.0	19.7	0.00e+00	0	42	0	188743680	57	4090
2026-01-28 14:47:22.52	243.69	6.46	-43.0	-44.1	19.7	0.00e+00	0	42	0	193986560	57	4100
2026-01-28 14:47:23.53	243.82	6.51	-43.2	-44.2	19.5	0.00e+00	0	42	0	200278016	57	4176
2026-01-28 14:47:24.54	243.94	6.55	-43.1	-44.1	19.6	0.00e+00	0	42	0	205520896	57	4143
2026-01-28 14:47:25.54	244.06	6.60	-43.1	-44.1	19.7	0.00e+00	0	42	0	211812352	57	4123
2026-01-28 14:47:26.55	244.19	6.65	-43.3	-44.3	19.4	0.00e+00	0	42	0	217055232	57	4232
2026-01-28 14:47:27.56	244.32	6.70	-43.2	-44.2	19.5	0.00e+00	0	42	0	222298112	57	4188
2026-01-28 14:47:28.58	244.44	6.75	-43.1	-44.1	19.7	0.00e+00	0	42	0	228589568	57	4121
2026-01-28 14:47:29.58	244.57	6.80	-42.8	-43.8	20.0	0.00e+00	0	42	0	233832448	57	3989
2026-01-28 14:47:30.59	244.70	6.85	-42.8	-43.8	20.0	0.00e+00	0	42	0	240123904	57	3996
2026-01-28 14:47:31.60	244.82	6.89	-42.8	-43.8	20.0	0.00e+00	0	42	0	245366784	57	3973
2026-01-28 14:47:32.61	244.95	6.94	-42.9	-43.9	19.9	0.00e+00	0	42	0	251658240	57	4043
2026-01-28 14:47:33.62	245.08	6.99	-42.8	-43.8	20.0	0.00e+00	0	42	0	256901120	57	3969
2026-01-28 14:47:34.63	245.21	7.04	-42.9	-43.9	19.9	0.00e+00	0	42	0	262144000	57	4015
2026-01-28 14:47:35.64	245.34	7.09	-42.6	-43.6	20.2	0.00e+00	0	42	0	268435456	57	3900
2026-01-28 14:47:36.65	245.47	7.14	-42.7	-43.7	20.2	0.00e+00	0	42	0	273678336	57	3916
2026-01-28 14:47:37.65	245.60	7.18	-42.7	-43.7	20.1	0.00e+00	0	42	0	278921216	57	3948
2026-01-28 14:47:38.66	245.73	7.23	-42.8	-43.8	20.0	0.00e+00	0	42	0	285212672	57	4001
2026-01-28 14:47:39.67	245.86	7.28	-42.8	-43.9	20.0	0.00e+00	0	42	0	290455552	57	4007
2026-01-28 14:47:40.68	245.99	7.33	-42.8	-43.8	20.0	0.00e+00	0	42	0	296747008	57	3984
2026-01-28 14:47:41.69	246.12	7.38	-42.9	-43.9	20.0	0.00e+00	0	42	0	301989888	57	4019
2026-01-28 14:47:42.70	246.25	7.43	-42.8	-43.9	20.0	0.00e+00	0	42	0	308281344	57	4005
2026-01-28 14:47:43.71	246.39	7.47	-42.8	-43.8	20.1	0.00e+00	0	42	0	313524224	57	3978
2026-01-28 14:47:44.71	246.52	7.52	-42.8	-43.8	20.1	0.00e+00	0	42	0	319815680	57	3974
2026-01-28 14:47:45.73	246.65	7.57	-42.8	-43.8	20.0	0.00e+00	0	42	0	325058560	57	3971
2026-01-28 14:47:46.73	246.78	7.62	-42.8	-43.8	20.1	0.00e+00	0	42	0	330301440	57	3970
2026-01-28 14:47:47.74	246.92	7.67	-42.9	-43.9	20.0	0.00e+00	0	42	0	336592896	57	4021
2026-01-28 14:47:48.75	247.05	7.71	-42.7	-43.7	20.1	0.00e+00	0	42	0	341835776	57	3951
2026-01-28 14:47:49.76	247.19	7.76	-42.6	-43.5	20.3	0.00e+00	0	42	0	347078656	57	3867
2026-01-28 14:47:50.76	247.32	7.81	-42.7	-43.7	20.2	0.00e+00	0	42	0	353370112	57	3942
2026-01-28 14:47:51.77	247.46	7.86	-42.6	-43.6	20.3	0.00e+00	0	42	0	358612992	57	3894
2026-01-28 14:47:52.78	247.59	7.90	-42.6	-43.6	20.3	0.00e+00	0	42	0	363855872	57	3888
2026-01-28 14:47:53.79	247.73	7.95	-42.4	-43.4	20.4	0.00e+00	0	42	0	370147328	56	4024
2026-01-28 14:47:54.79	247.87	8.00	-42.3	-43.3	20.6	0.00e+00	0	42	0	376438784	56	3977
2026-01-28 14:47:55.80	248.00	8.05	-42.4	-43.4	20.5	0.00e+00	0	42	0	381681664	56	4017
2026-01-28 14:47:56.81	248.14	8.09	-42.3	-43.2	20.6	0.00e+00	0	42	0	386924544	56	3956
2026-01-28 14:47:57.82	248.28	8.14	-42.2	-43.2	20.7	0.00e+00	0	42	0	393216000	56	3926
2026-01-28 14:47:58.82	248.42	8.19	-42.3	-43.2	20.7	0.00e+00	0	42	0	398458880	56	3941
2026-01-28 14:47:59.84	248.56	8.24	-42.3	-43.2	20.7	0.00e+00	0	42	0	404750336	56	3946
2026-01-28 14:48:00.84	248.70	8.28	-42.3	-43.3	20.6	0.00e+00	0	42	0	409993216	56	3966
2026-01-28 14:48:01.85	248.84	8.33	-42.3	-43.3	20.6	0.00e+00	0	42	0	415236096	56	3968
2026-01-28 14:48:02.85	248.98	8.38	-42.4	-43.4	20.5	0.00e+00	0	42	0	421527552	56	4016
2026-01-28 14:48:03.86	249.12	8.43	-42.4	-43.3	20.6	0.00e+00	0	42	0	426770432	56	3984
2026-01-28 14:48:04.87	249.26	8.47	-42.4	-43.3	20.5	0.00e+00	0	42	0	432013312	56	3997
2026-01-28 14:48:05.88	249.40	8.52	-42.3	-43.2	20.7	0.00e+00	0	42	0	438304768	56	3940
2026-01-28 14:48:06.89	249.54	8.57	-42.4	-43.3	20.6	0.00e+00	0	42	0	443547648	56	3997
2026-01-28 14:48:07.89	249.69	8.61	-42.3	-43.2	20.7	0.00e+00	0	42	0	448790528	56	3942
2026-01-28 14:48:08.90	249.83	8.66	-42.4	-43.3	20.6	0.00e+00	0	42	0	455081984	56	3982
2026-01-28 14:48:09.91	249.97	8.71	-42.2	-43.2	20.8	0.00e+00	0	42	0	461373440	56	3918
2026-01-28 14:48:10.92	250.12	8.75	-42.2	-43.1	20.8	0.00e+00	0	42	0	466616320	56	3909
2026-01-28 14:48:11.93	250.26	8.80	-42.2	-43.1	20.8	0.00e+00	0	42	0	471859200	56	3912
2026-01-28 14:48:12.94	250.41	8.85	-42.3	-43.2	20.7	0.00e+00	0	42	0	478150656	56	3949
2026-01-28 14:48:13.95	250.55	8.89	-42.3	-43.3	20.7	0.00e+00	0	42	0	483393536	56	3963
2026-01-28 14:48:14.96	250.70	8.94	-42.3	-43.3	20.7	0.00e+00	0	42	0	489684992	56	3962
2026-01-28 14:48:15.96	250.84	8.99	-42.4	-43.3	20.6	0.00e+00	0	42	0	494927872	56	3998
2026-01-28 14:48:16.97	250.99	9.03	-42.4	-43.4	20.6	0.00e+00	0	42	0	500170752	56	4014
2026-01-28 14:48:17.98	251.14	9.08	-42.2	-43.2	20.7	0.00e+00	0	42	0	506462208	56	3930
2026-01-28 14:48:18.99	251.29	9.12	-42.2	-43.2	20.8	0.00e+00	0	42	0	511705088	56	3924
2026-01-28 14:48:19.99	251.43	9.17	-42.3	-43.2	20.7	0.00e+00	0	42	0	516947968	56	3945
2026-01-28 14:48:21.00	251.58	9.22	-42.2	-43.1	20.8	0.00e+00	0	42	0	523239424	56	3898
2026-01-28 14:48:22.01	251.73	9.26	-42.2	-43.1	20.9	0.00e+00	0	42	0	529530880	56	3898
2026-01-28 14:48:23.02	251.88	9.31	-42.2	-43.1	20.9	0.00e+00	0	42	0	534773760	56	3885
2026-01-28 14:48:24.03	252.03	9.35	-42.2	-43.1	20.9	0.00e+00	0	42	0	540016640	56	3889
2026-01-28 14:48:25.04	252.18	9.40	-42.2	-43.1	20.8	0.00e+00	0	42	0	546308096	56	3898
2026-01-28 14:48:26.05	252.33	9.44	-42.1	-43.0	21.0	0.00e+00	0	42	0	551550976	56	3844
2026-01-28 14:48:27.06	252.48	9.49	-42.2	-43.1	20.9	0.00e+00	0	42	0	556793856	56	3885
2026-01-28 14:48:28.07	252.63	9.54	-42.2	-43.1	20.9	0.00e+00	0	42	0	563085312	56	3885
2026-01-28 14:48:29.08	252.79	9.58	-42.1	-43.0	21.0	0.00e+00	0	42	0	568328192	56	3833
2026-01-28 14:48:30.09	252.94	9.63	-42.1	-43.0	21.0	0.00e+00	0	42	0	574619648	56	3832
2026-01-28 14:48:31.10	253.09	9.67	-42.0	-43.0	21.0	0.00e+00	0	42	0	579862528	56	3828
2026-01-28 14:48:32.11	253.25	9.72	-41.9	-42.8	21.1	0.00e+00	0	43	0	586153984	55	3982
2026-01-28 14:48:33.12	253.40	9.76	-41.7	-42.6	21.3	0.00e+00	0	42	0	591396864	55	3900
2026-01-28 14:48:34.13	253.56	9.81	-41.7	-42.6	21.2	0.00e+00	0	42	0	597688320	55	3912
2026-01-28 14:48:35.13	253.71	9.85	-41.7	-42.5	21.3	0.00e+00	0	42	0	602931200	55	3866
2026-01-28 14:48:36.14	253.86	9.90	-41.6	-42.5	21.4	0.00e+00	0	43	0	608174080	55	3856
2026-01-28 14:48:37.15	254.02	9.94	-41.7	-42.6	21.3	0.00e+00	0	42	0	614465536	55	3879
2026-01-28 14:48:38.16	254.18	9.98	-41.8	-42.7	21.2	0.00e+00	0	42	0	619708416	55	3926
2026-01-28 14:48:39.17	254.33	10.03	-41.7	-42.6	21.3	0.00e+00	0	42	0	624951296	55	3899
2026-01-28 14:48:40.18	254.49	10.07	-41.9	-42.8	21.1	0.00e+00	0	42	0	631242752	55	3972
2026-01-28 14:48:41.19	254.65	10.12	-41.9	-42.8	21.1	0.00e+00	0	43	0	636485632	55	3965
2026-01-28 14:48:42.20	254.81	10.16	-41.7	-42.6	21.3	0.00e+00	0	42	0	642777088	55	3889
2026-01-28 14:48:43.20	254.96	10.20	-41.7	-42.6	21.3	0.00e+00	0	42	0	648019968	55	3897
2026-01-28 14:48:44.21	255.12	10.25	-41.7	-42.5	21.4	0.00e+00	0	42	0	654311424	55	3865
2026-01-28 14:48:45.22	255.28	10.29	-41.7	-42.6	21.3	0.00e+00	0	42	0	659554304	55	3873
2026-01-28 14:48:46.23	255.44	10.34	-41.6	-42.4	21.5	0.00e+00	0	42	0	664797184	55	3817
2026-01-28 14:48:47.24	255.60	10.38	-41.6	-42.5	21.4	0.00e+00	0	42	0	671088640	55	3840
2026-01-28 14:48:48.25	255.76	10.42	-41.7	-42.6	21.3	0.00e+00	0	42	0	676331520	55	3882
2026-01-28 14:48:49.25	255.92	10.46	-41.6	-42.5	21.4	0.00e+00	0	42	0	682622976	55	3850
2026-01-28 14:48:50.26	256.09	10.51	-41.8	-42.6	21.3	0.00e+00	0	42	0	687865856	55	3912
2026-01-28 14:48:51.27	256.25	10.55	-41.6	-42.4	21.5	0.00e+00	0	42	0	693108736	55	3823
2026-01-28 14:48:52.28	256.41	10.59	-41.6	-42.5	21.4	0.00e+00	0	42	0	699400192	55	3843
2026-01-28 14:48:53.29	256.57	10.64	-41.5	-42.4	21.6	0.00e+00	0	42	0	704643072	55	3787
2026-01-28 14:48:54.29	256.74	10.68	-41.5	-42.3	21.6	0.00e+00	0	42	0	710934528	54	3998
2026-01-28 14:48:55.30	256.90	10.72	-41.6	-42.4	21.5	0.00e+00	0	42	0	716177408	54	4050
2026-01-28 14:48:56.31	257.07	10.76	-41.6	-42.5	21.4	0.00e+00	0	42	0	722468864	54	4063
2026-01-28 14:48:57.32	257.23	10.80	-41.6	-42.4	21.5	0.00e+00	0	43	0	727711744	54	4042
2026-01-28 14:48:58.33	257.40	10.85	-41.4	-42.3	21.6	0.00e+00	0	42	0	732954624	54	3992
2026-01-28 14:48:59.34	257.56	10.89	-41.4	-42.2	21.7	0.00e+00	0	42	0	739246080	54	3953
2026-01-28 14:49:00.34	257.73	10.93	-41.4	-42.3	21.6	0.00e+00	0	42	0	744488960	54	3986
2026-01-28 14:49:01.35	257.89	10.97	-41.5	-42.4	21.5	0.00e+00	0	42	0	749731840	54	4025
2026-01-28 14:49:02.36	258.06	11.01	-41.5	-42.3	21.6	0.00e+00	0	42	0	756023296	54	3993
2026-01-28 14:49:03.37	258.23	11.05	-41.5	-42.3	21.6	0.00e+00	0	42	0	761266176	54	3991
2026-01-28 14:49:04.38	258.40	11.10	-41.3	-42.2	21.8	0.00e+00	0	42	0	767557632	54	3915
2026-01-28 14:49:05.39	258.57	11.14	-41.3	-42.1	21.8	0.00e+00	0	42	0	772800512	54	3890
2026-01-28 14:49:06.40	258.74	11.18	-41.3	-42.2	21.7	0.00e+00	0	42	0	779091968	54	3920
2026-01-28 14:49:07.41	258.91	11.22	-41.5	-42.3	21.6	0.00e+00	0	42	0	784334848	54	3993
2026-01-28 14:49:08.42	259.08	11.26	-41.3	-42.2	21.7	0.00e+00	0	42	0	790626304	54	3935
2026-01-28 14:49:09.43	259.25	11.30	-41.2	-42.1	21.9	0.00e+00	0	42	0	795869184	54	3879
2026-01-28 14:49:10.43	259.42	11.34	-41.2	-42.0	21.9	0.00e+00	0	42	0	801112064	54	3862
2026-01-28 14:49:11.45	259.59	11.38	-41.1	-41.9	22.0	0.00e+00	0	42	0	807403520	54	3817
2026-01-28 14:49:12.46	259.76	11.42	-41.1	-42.0	21.9	0.00e+00	0	42	0	812646400	54	3843
2026-01-28 14:49:13.47	259.93	11.46	-41.1	-41.9	22.0	0.00e+00	0	42	0	817889280	54	3819
2026-01-28 14:49:14.47	260.10	11.50	-41.1	-41.9	22.0	0.00e+00	0	42	0	824180736	54	3817
2026-01-28 14:49:15.48	260.28	11.54	-41.1	-41.9	22.0	0.00e+00	0	42	0	829423616	54	3802
2026-01-28 14:49:16.48	260.45	11.58	-41.1	-42.0	21.9	0.00e+00	0	42	0	834666496	54	3836
2026-01-28 14:49:17.49	260.62	11.61	-41.1	-41.9	22.0	0.00e+00	0	43	0	840957952	54	3804
2026-01-28 14:49:18.50	260.80	11.65	-41.1	-41.9	22.0	0.00e+00	0	42	0	847249408	54	3814
2026-01-28 14:49:19.51	260.97	11.69	-41.1	-42.0	22.0	0.00e+00	0	42	0	852492288	54	3825
2026-01-28 14:49:20.51	261.15	11.73	-41.2	-42.0	21.9	0.00e+00	0	42	0	857735168	54	3860
2026-01-28 14:49:21.53	261.32	11.77	-41.3	-42.2	21.8	0.00e+00	0	43	0	864026624	54	3926
2026-01-28 14:49:22.53	261.50	11.81	-41.3	-42.2	21.8	0.00e+00	0	43	0	869269504	54	3927
2026-01-28 14:49:23.54	261.68	11.84	-41.4	-42.2	21.7	0.00e+00	0	43	0	875560960	54	3957
2026-01-28 14:49:24.55	261.85	11.88	-41.5	-42.3	21.6	0.00e+00	0	42	0	880803840	54	3991
2026-01-28 14:49:25.56	262.03	11.92	-41.5	-42.3	21.7	0.00e+00	0	42	0	886046720	54	3998
2026-01-28 14:49:26.57	262.21	11.96	-41.3	-42.1	21.8	0.00e+00	0	42	0	892338176	54	3908
2026-01-28 14:49:27.58	262.39	11.99	-41.4	-42.2	21.8	0.00e+00	0	42	0	897581056	54	3952
2026-01-28 14:49:28.59	262.57	12.03	-41.4	-42.2	21.8	0.00e+00	0	42	0	902823936	54	3946
2026-01-28 14:49:29.60	262.75	12.07	-41.3	-42.1	21.9	0.00e+00	0	42	0	909115392	54	3901
2026-01-28 14:49:30.61	262.93	12.11	-41.2	-42.0	21.9	0.00e+00	0	42	0	915406848	54	3861
2026-01-28 14:49:31.62	263.11	12.14	-41.2	-42.0	21.9	0.00e+00	0	42	0	920649728	54	3852
2026-01-28 14:49:32.63	263.29	12.18	-41.1	-42.0	22.0	0.00e+00	0	42	0	925892608	54	3834
2026-01-28 14:49:33.63	263.47	12.21	-41.0	-41.8	22.2	0.00e+00	0	42	0	932184064	54	3762
2026-01-28 14:49:34.64	263.65	12.25	-41.0	-41.8	22.1	0.00e+00	0	42	0	937426944	53	4001
2026-01-28 14:49:35.65	263.83	12.28	-41.1	-42.0	22.0	0.00e+00	0	42	0	942669824	53	4063
2026-01-28 14:49:36.66	264.01	12.32	-41.2	-42.0	21.9	0.00e+00	0	42	0	948961280	53	4091
2026-01-28 14:49:37.67	264.20	12.36	-41.3	-42.2	21.8	0.00e+00	0	42	0	954204160	53	4151
2026-01-28 14:49:38.68	264.38	12.39	-41.3	-42.1	21.8	0.00e+00	0	42	0	960495616	53	4137
2026-01-28 14:49:39.69	264.56	12.43	-41.3	-42.1	21.8	0.00e+00	0	42	0	965738496	53	4134
2026-01-28 14:49:40.69	264.75	12.46	-41.2	-42.1	21.9	0.00e+00	0	42	0	970981376	53	4115
2026-01-28 14:49:41.70	264.93	12.49	-41.2	-42.1	21.9	0.00e+00	0	42	0	977272832	53	4121
2026-01-28 14:49:42.71	265.11	12.53	-41.3	-42.1	21.9	0.00e+00	0	42	0	983564288	53	4124
2026-01-28 14:49:43.72	265.30	12.56	-41.2	-42.1	21.9	0.00e+00	0	43	0	988807168	53	4114
2026-01-28 14:49:44.73	265.49	12.60	-41.0	-41.8	22.2	0.00e+00	0	42	0	994050048	53	3978
2026-01-28 14:49:45.74	265.67	12.63	-40.9	-41.7	22.2	0.00e+00	0	42	0	1000341504	53	3935
2026-01-28 14:49:46.74	265.86	12.66	-40.9	-41.7	22.2	0.00e+00	0	42	0	1005584384	53	3941
2026-01-28 14:49:47.75	266.04	12.69	-40.8	-41.6	22.4	0.00e+00	0	42	0	1010827264	53	3876
2026-01-28 14:49:48.76	266.23	12.73	-40.9	-41.7	22.2	0.00e+00	0	42	0	1017118720	53	3949
2026-01-28 14:49:49.76	266.42	12.76	-41.0	-41.8	22.2	0.00e+00	0	42	0	1022361600	53	3973
2026-01-28 14:49:50.77	266.61	12.79	-41.0	-41.8	22.2	0.00e+00	0	42	0	1027604480	53	3994
2026-01-28 14:49:51.78	266.79	12.82	-41.1	-41.9	22.1	0.00e+00	0	42	0	1033895936	53	4027
2026-01-28 14:49:52.79	266.98	12.86	-41.1	-41.9	22.1	0.00e+00	0	42	0	1039138816	53	4048
2026-01-28 14:49:53.80	267.17	12.89	-41.1	-42.0	22.0	0.00e+00	0	42	0	1045430272	53	4057
2026-01-28 14:49:54.80	267.36	12.92	-41.1	-42.0	22.0	0.00e+00	0	42	0	1050673152	53	4057
2026-01-28 14:49:55.81	267.55	12.95	-41.1	-42.0	22.0	0.00e+00	0	42	0	1056964608	53	4073
2026-01-28 14:49:56.82	267.74	12.98	-41.2	-42.0	22.0	0.00e+00	0	42	0	1062207488	53	4077
2026-01-28 14:49:57.83	267.93	13.01	-40.8	-41.6	22.3	0.00e+00	0	42	0	1068498944	53	3908
2026-01-28 14:49:58.83	268.12	13.04	-40.7	-41.5	22.4	0.00e+00	0	42	0	1073741824	53	3857
2026-01-28 14:49:59.83	268.31	13.07	-40.6	-41.4	22.5	0.00e+00	0	42	0	1078984704	53	3811
2026-01-28 14:50:00.84	268.50	13.10	-40.7	-41.5	22.5	0.00e+00	0	42	0	1085276160	53	3826
2026-01-28 14:50:01.85	268.70	13.13	-40.8	-41.6	22.4	0.00e+00	0	42	0	1090519040	53	3882
2026-01-28 14:50:02.86	268.89	13.16	-40.7	-41.5	22.4	0.00e+00	0	43	0	1095761920	53	3863
2026-01-28 14:50:03.87	269.08	13.19	-40.9	-41.7	22.3	0.00e+00	0	42	0	1102053376	53	3927
2026-01-28 14:50:04.88	269.27	13.22	-40.9	-41.7	22.3	0.00e+00	0	42	0	1107296256	53	3948
2026-01-28 14:50:05.89	269.47	13.25	-40.9	-41.7	22.2	0.00e+00	0	43	0	1112539136	53	3954
2026-01-28 14:50:06.90	269.66	13.27	-40.9	-41.8	22.2	0.00e+00	0	43	0	1118830592	53	3965
2026-01-28 14:50:07.91	269.86	13.30	-41.0	-41.8	22.1	0.00e+00	0	42	0	1125122048	53	3997
2026-01-28 14:50:08.92	270.05	13.33	-40.9	-41.7	22.2	0.00e+00	0	42	0	1130364928	53	3957
2026-01-28 14:50:09.92	270.25	13.36	-41.1	-41.9	22.1	0.00e+00	0	42	0	1135607808	53	4041
2026-01-28 14:50:10.93	270.44	13.38	-41.0	-41.8	22.1	0.00e+00	0	42	0	1141899264	53	3994
2026-01-28 14:50:11.94	270.64	13.41	-41.0	-41.8	22.2	0.00e+00	0	42	0	1147142144	53	3991
2026-01-28 14:50:12.95	270.83	13.44	-41.2	-42.0	22.0	0.00e+00	0	42	0	1153433600	53	4072
2026-01-28 14:50:13.95	271.03	13.46	-41.1	-41.9	22.1	0.00e+00	0	42	0	1158676480	53	4028
2026-01-28 14:50:14.96	271.23	13.49	-40.9	-41.8	22.2	0.00e+00	0	42	0	1163919360	53	3973
2026-01-28 14:50:15.96	271.42	13.52	-40.9	-41.7	22.3	0.00e+00	0	42	0	1170210816	53	3952
2026-01-28 14:50:16.97	271.62	13.54	-40.8	-41.7	22.3	0.00e+00	0	43	0	1175453696	53	3916
2026-01-28 14:50:17.97	271.81	13.57	-40.8	-41.6	22.4	0.00e+00	0	42	0	1180696576	53	3900
2026-01-28 14:50:18.98	272.01	13.59	-40.9	-41.7	22.3	0.00e+00	0	43	0	1186988032	53	3950
2026-01-28 14:50:19.99	272.21	13.62	-40.9	-41.7	22.3	0.00e+00	0	43	0	1192230912	53	3951
2026-01-28 14:50:21.00	272.41	13.64	-40.9	-41.7	22.3	0.00e+00	0	42	0	1198522368	53	3957
2026-01-28 14:50:22.01	272.61	13.66	-40.9	-41.8	22.2	0.00e+00	0	42	0	1203765248	53	3965
2026-01-28 14:50:23.02	272.81	13.69	-41.0	-41.8	22.2	0.00e+00	0	43	0	1210056704	53	3991
2026-01-28 14:50:24.03	273.01	13.71	-40.9	-41.8	22.2	0.00e+00	0	42	0	1215299584	53	3963
2026-01-28 14:50:25.04	273.21	13.73	-40.8	-41.6	22.4	0.00e+00	0	42	0	1220542464	53	3893
2026-01-28 14:50:26.05	273.41	13.76	-40.6	-41.4	22.6	0.00e+00	0	43	0	1226833920	53	3806
2026-01-28 14:50:27.05	273.61	13.78	-40.6	-41.4	22.6	0.00e+00	0	43	0	1232076800	53	3818
2026-01-28 14:50:28.06	273.81	13.80	-40.6	-41.4	22.6	0.00e+00	0	43	0	1238368256	53	3819
2026-01-28 14:50:29.07	274.01	13.82	-40.6	-41.4	22.6	0.00e+00	0	43	0	1243611136	53	3813
2026-01-28 14:50:30.08	274.21	13.85	-40.6	-41.4	22.6	0.00e+00	0	42	0	1248854016	53	3809
2026-01-28 14:50:31.08	274.41	13.87	-40.6	-41.5	22.6	0.00e+00	0	42	0	1255145472	53	3825
2026-01-28 14:50:32.09	274.61	13.89	-40.7	-41.5	22.5	0.00e+00	0	42	0	1260388352	53	3854
2026-01-28 14:50:33.10	274.82	13.91	-40.8	-41.7	22.4	0.00e+00	0	43	0	1266679808	53	3920
2026-01-28 14:50:34.11	275.02	13.93	-40.7	-41.5	22.5	0.00e+00	0	43	0	1271922688	53	3843
2026-01-28 14:50:35.11	275.22	13.95	-40.6	-41.4	22.6	0.00e+00	0	42	0	1278214144	53	3813
2026-01-28 14:50:36.12	275.42	13.97	-40.6	-41.5	22.6	0.00e+00	0	43	0	1283457024	53	3835
2026-01-28 14:50:37.13	275.63	13.99	-40.6	-41.4	22.6	0.00e+00	0	42	0	1288699904	53	3796
2026-01-28 14:50:38.13	275.83	14.01	-40.5	-41.3	22.7	0.00e+00	0	42	0	1294991360	53	3753
2026-01-28 14:50:39.14	276.03	14.03	-40.6	-41.4	22.6	0.00e+00	0	43	0	1300234240	53	3782
2026-01-28 14:50:40.15	276.24	14.04	-40.7	-41.5	22.6	0.00e+00	0	43	0	1305477120	53	3827
2026-01-28 14:50:41.16	276.44	14.06	-40.6	-41.4	22.6	0.00e+00	0	43	0	1311768576	53	3816
2026-01-28 14:50:42.17	276.65	14.08	-40.6	-41.4	22.6	0.00e+00	0	42	0	1317011456	53	3793
2026-01-28 14:50:43.18	276.85	14.10	-40.6	-41.5	22.6	0.00e+00	0	42	0	1323302912	53	3830
2026-01-28 14:50:44.19	277.06	14.12	-40.7	-41.6	22.5	0.00e+00	0	43	0	1328545792	53	3882
2026-01-28 14:50:45.20	277.26	14.13	-40.8	-41.6	22.5	0.00e+00	0	43	0	1334837248	53	3897
2026-01-28 14:50:46.20	277.47	14.15	-40.9	-41.8	22.3	0.00e+00	0	42	0	1340080128	53	3977
2026-01-28 14:50:47.21	277.67	14.17	-40.9	-41.8	22.3	0.00e+00	0	42	0	1346371584	53	3970
2026-01-28 14:50:48.22	277.88	14.18	-41.0	-41.9	22.3	0.00e+00	0	42	0	1351614464	53	4011
2026-01-28 14:50:49.22	278.08	14.20	-41.1	-41.9	22.2	0.00e+00	0	42	0	1356857344	53	4035
2026-01-28 14:50:50.23	278.29	14.21	-41.2	-42.0	22.1	0.00e+00	0	43	0	1363148800	53	4088
2026-01-28 14:50:51.24	278.50	14.23	-41.1	-42.0	22.2	0.00e+00	0	43	0	1368391680	53	4058
2026-01-28 14:50:52.25	278.70	14.24	-41.0	-41.9	22.3	0.00e+00	0	42	0	1373634560	53	4009
2026-01-28 14:50:53.26	278.91	14.26	-41.0	-41.8	22.3	0.00e+00	0	43	0	1379926016	53	3985
2026-01-28 14:50:54.27	279.12	14.27	-40.9	-41.7	22.4	0.00e+00	0	42	0	1385168896	53	3947
2026-01-28 14:50:55.27	279.32	14.28	-40.7	-41.6	22.6	0.00e+00	0	43	0	1390411776	53	3869
2026-01-28 14:50:56.28	279.53	14.30	-40.7	-41.5	22.6	0.00e+00	0	43	0	1396703232	53	3867
2026-01-28 14:50:57.29	279.74	14.31	-40.8	-41.6	22.5	0.00e+00	0	42	0	1401946112	53	3879
2026-01-28 14:50:58.29	279.94	14.32	-40.9	-41.7	22.4	0.00e+00	0	42	0	1408237568	53	3942
2026-01-28 14:50:59.30	280.15	14.33	-40.9	-41.7	22.4	0.00e+00	0	42	0	1413480448	53	3950
2026-01-28 14:51:00.31	280.36	14.35	-41.0	-41.9	22.3	0.00e+00	0	43	0	1419771904	53	4009
2026-01-28 14:51:01.32	280.57	14.36	-40.9	-41.7	22.4	0.00e+00	0	42	0	1425014784	53	3958
2026-01-28 14:51:02.33	280.78	14.37	-40.9	-41.8	22.4	0.00e+00	0	43	0	1431306240	53	3968
2026-01-28 14:51:03.33	280.98	14.38	-40.9	-41.7	22.5	0.00e+00	0	43	0	1436549120	53	3927
2026-01-28 14:51:04.34	281.19	14.39	-40.8	-41.6	22.5	0.00e+00	0	42	0	1441792000	53	3906
2026-01-28 14:51:05.35	281.40	14.40	-40.8	-41.6	22.5	0.00e+00	0	42	0	1448083456	53	3901
2026-01-28 14:51:06.36	281.61	14.41	-40.9	-41.7	22.5	0.00e+00	0	43	0	1453326336	53	3934
2026-01-28 14:51:07.37	281.82	14.42	-41.0	-41.8	22.4	0.00e+00	0	42	0	1458569216	53	3979
2026-01-28 14:51:08.37	282.03	14.43	-41.0	-41.8	22.4	0.00e+00	0	43	0	1464860672	53	3993
2026-01-28 14:51:09.38	282.24	14.44	-40.9	-41.7	22.5	0.00e+00	0	43	0	1470103552	53	3927
2026-01-28 14:51:10.38	282.45	14.45	-41.0	-41.8	22.5	0.00e+00	0	43	0	1475346432	53	3971
2026-01-28 14:51:11.39	282.66	14.45	-40.8	-41.6	22.7	0.00e+00	0	43	0	1481637888	53	3869
2026-01-28 14:51:12.40	282.87	14.46	-40.7	-41.5	22.7	0.00e+00	0	43	0	1487929344	53	3838
2026-01-28 14:51:13.41	283.08	14.47	-40.7	-41.5	22.7	0.00e+00	0	43	0	1493172224	53	3843
2026-01-28 14:51:14.42	283.29	14.48	-40.7	-41.5	22.7	0.00e+00	0	43	0	1498415104	53	3856
2026-01-28 14:51:15.43	283.50	14.48	-40.7	-41.5	22.7	0.00e+00	0	43	0	1504706560	53	3856
2026-01-28 14:51:16.44	283.71	14.49	-40.8	-41.6	22.6	0.00e+00	0	42	0	1509949440	53	3879
2026-01-28 14:51:17.45	283.92	14.50	-40.9	-41.7	22.6	0.00e+00	0	42	0	1516240896	53	3934
2026-01-28 14:51:18.45	284.12	14.50	-40.9	-41.7	22.5	0.00e+00	0	42	0	1521483776	53	3918
2026-01-28 14:51:19.46	284.33	14.51	-40.9	-41.7	22.6	0.00e+00	0	43	0	1526726656	53	3928
2026-01-28 14:51:20.47	284.55	14.51	-40.8	-41.6	22.6	0.00e+00	0	43	0	1533018112	53	3912
2026-01-28 14:51:21.48	284.76	14.52	-40.9	-41.7	22.5	0.00e+00	0	43	0	1538260992	53	3942
2026-01-28 14:51:22.49	284.97	14.52	-41.0	-41.8	22.5	0.00e+00	0	43	0	1543503872	53	3989
2026-01-28 14:51:23.49	285.18	14.52	-40.9	-41.8	22.5	0.00e+00	0	43	0	1549795328	53	3975
2026-01-28 14:51:24.50	285.39	14.53	-41.0	-41.8	22.4	0.00e+00	0	42	0	1556086784	53	3993
2026-01-28 14:51:25.51	285.60	14.53	-41.1	-41.9	22.4	0.00e+00	0	42	0	1561329664	53	4024
2026-01-28 14:51:26.51	285.81	14.53	-41.0	-41.8	22.4	0.00e+00	0	42	0	1566572544	53	3991
2026-01-28 14:51:27.52	286.02	14.54	-41.0	-41.9	22.4	0.00e+00	0	42	0	1572864000	53	4017
2026-01-28 14:51:28.53	286.23	14.54	-41.1	-41.9	22.4	0.00e+00	0	43	0	1578106880	53	4024
2026-01-28 14:51:29.54	286.44	14.54	-41.1	-41.9	22.3	0.00e+00	0	42	0	1583349760	53	4033
2026-01-28 14:51:30.55	286.65	14.54	-41.0	-41.9	22.4	0.00e+00	0	43	0	1589641216	53	4014
2026-01-28 14:51:31.56	286.86	14.54	-41.2	-42.0	22.2	0.00e+00	0	42	0	1594884096	53	4097
2026-01-28 14:51:32.57	287.07	14.54	-41.1	-41.9	22.3	0.00e+00	0	43	0	1601175552	53	4037
2026-01-28 14:51:33.58	287.28	14.54	-41.0	-41.8	22.5	0.00e+00	0	43	0	1606418432	53	3994
2026-01-28 14:51:34.59	287.49	14.54	-41.0	-41.8	22.4	0.00e+00	0	42	0	1611661312	53	4003
2026-01-28 14:51:35.59	287.70	14.54	-41.0	-41.8	22.5	0.00e+00	0	42	0	1617952768	53	3977
2026-01-28 14:51:36.60	287.91	14.54	-41.0	-41.8	22.5	0.00e+00	0	43	0	1624244224	53	3984
2026-01-28 14:51:37.61	288.12	14.54	-41.0	-41.8	22.5	0.00e+00	0	42	0	1629487104	53	3973
2026-01-28 14:51:38.61	288.33	14.54	-41.1	-41.9	22.5	0.00e+00	0	43	0	1634729984	53	4026
2026-01-28 14:51:39.62	288.54	14.54	-41.1	-41.9	22.4	0.00e+00	0	43	0	1641021440	53	4020
2026-01-28 14:51:40.63	288.76	14.53	-41.0	-41.9	22.4	0.00e+00	0	43	0	1646264320	53	4011
2026-01-28 14:51:41.64	288.97	14.53	-41.1	-41.9	22.4	0.00e+00	0	42	0	1651507200	53	4049
2026-01-28 14:51:42.64	289.17	14.53	-41.2	-42.0	22.3	0.00e+00	0	42	0	1657798656	53	4063
2026-01-28 14:51:43.65	289.39	14.53	-41.1	-41.9	22.4	0.00e+00	0	42	0	1663041536	53	4030
2026-01-28 14:51:44.66	289.60	14.52	-41.1	-42.0	22.5	0.00e+00	0	42	0	1668284416	53	4056
2026-01-28 14:51:45.67	289.81	14.52	-41.1	-41.9	22.4	0.00e+00	0	42	0	1674575872	53	4036
2026-01-28 14:51:46.67	290.02	14.51	-41.3	-42.1	22.3	0.00e+00	0	42	0	1679818752	53	4145
2026-01-28 14:51:47.68	290.23	14.51	-41.1	-41.9	22.4	0.00e+00	0	43	0	1686110208	53	4049
2026-01-28 14:51:48.69	290.44	14.50	-41.2	-42.0	22.3	0.00e+00	0	43	0	1691353088	53	4093
2026-01-28 14:51:49.70	290.65	14.50	-41.2	-42.0	22.4	0.00e+00	0	42	0	1697644544	53	4085
2026-01-28 14:51:50.70	290.85	14.49	-41.1	-42.0	22.4	0.00e+00	0	42	0	1702887424	53	4059
2026-01-28 14:51:51.71	291.06	14.49	-41.3	-42.1	22.3	0.00e+00	0	43	0	1709178880	53	4118
2026-01-28 14:51:52.72	291.28	14.48	-41.3	-42.1	22.2	0.00e+00	0	43	0	1714421760	53	4131
2026-01-28 14:51:53.73	291.49	14.47	-41.2	-42.1	22.3	0.00e+00	0	42	0	1719664640	53	4104
2026-01-28 14:51:54.74	291.69	14.47	-41.3	-42.2	22.3	0.00e+00	0	42	0	1725956096	53	4149
2026-01-28 14:51:55.74	291.90	14.46	-41.3	-42.1	22.2	0.00e+00	0	42	0	1731198976	53	4121
2026-01-28 14:51:56.75	292.11	14.45	-41.3	-42.1	22.2	0.00e+00	0	42	0	1736441856	53	4119
2026-01-28 14:51:57.76	292.32	14.44	-41.1	-42.0	22.4	0.00e+00	0	43	0	1742733312	53	4066
2026-01-28 14:51:58.77	292.53	14.43	-41.1	-41.9	22.4	0.00e+00	0	42	0	1747976192	53	4026
2026-01-28 14:51:59.78	292.74	14.42	-40.9	-41.7	22.5	0.00e+00	0	42	0	1753219072	53	3930
2026-01-28 14:52:00.78	292.95	14.42	-41.1	-41.9	22.5	0.00e+00	0	42	0	1759510528	53	4033
2026-01-28 14:52:01.78	293.15	14.41	-41.1	-41.9	22.5	0.00e+00	0	43	0	1764753408	53	4013
2026-01-28 14:52:02.79	293.36	14.40	-41.2	-42.0	22.3	0.00e+00	0	42	0	1771044864	53	4094
2026-01-28 14:52:03.80	293.57	14.39	-41.1	-41.9	22.4	0.00e+00	0	43	0	1776287744	53	4027
2026-01-28 14:52:04.81	293.78	14.37	-41.2	-42.0	22.3	0.00e+00	0	43	0	1782579200	53	4087
2026-01-28 14:52:05.82	293.99	14.36	-41.1	-41.9	22.4	0.00e+00	0	42	0	1787822080	53	4039
2026-01-28 14:52:06.83	294.20	14.35	-41.1	-41.9	22.5	0.00e+00	0	43	0	1794113536	53	4027
2026-01-28 14:52:07.83	294.40	14.34	-41.2	-42.0	22.4	0.00e+00	0	43	0	1799356416	53	4087
2026-01-28 14:52:08.84	294.61	14.33	-41.3	-42.1	22.2	0.00e+00	0	42	0	1804599296	53	4121
2026-01-28 14:52:09.85	294.82	14.32	-41.3	-42.1	22.2	0.00e+00	0	42	0	1810890752	53	4126
2026-01-28 14:52:10.86	295.03	14.30	-41.5	-42.3	22.0	0.00e+00	0	43	0	1816133632	53	4221
2026-01-28 14:52:11.87	295.24	14.29	-41.3	-42.1	22.2	0.00e+00	0	43	0	1821376512	53	4130
2026-01-28 14:52:12.87	295.44	14.28	-41.2	-42.1	22.3	0.00e+00	0	43	0	1827667968	53	4105
2026-01-28 14:52:13.88	295.65	14.26	-41.2	-42.0	22.3	0.00e+00	0	43	0	1832910848	53	4091
2026-01-28 14:52:14.89	295.85	14.25	-41.3	-42.1	22.2	0.00e+00	0	42	0	1839202304	53	4125
2026-01-28 14:52:15.89	296.06	14.24	-41.1	-41.9	22.3	0.00e+00	0	42	0	1844445184	53	4049
2026-01-28 14:52:16.91	296.27	14.22	-41.1	-41.9	22.4	0.00e+00	0	43	0	1850736640	53	4023
2026-01-28 14:52:17.91	296.47	14.21	-41.1	-41.9	22.4	0.00e+00	0	43	0	1855979520	53	4020
2026-01-28 14:52:18.92	296.68	14.19	-41.0	-41.9	22.4	0.00e+00	0	42	0	1861222400	53	4008
2026-01-28 14:52:19.93	296.88	14.17	-41.0	-41.8	22.4	0.00e+00	0	43	0	1867513856	53	3990
2026-01-28 14:52:20.94	297.09	14.16	-41.0	-41.8	22.5	0.00e+00	0	42	0	1872756736	53	3990
2026-01-28 14:52:21.95	297.30	14.14	-41.0	-41.8	22.5	0.00e+00	0	43	0	1879048192	53	3990
2026-01-28 14:52:22.96	297.50	14.13	-41.0	-41.8	22.4	0.00e+00	0	43	0	1884291072	53	3978
2026-01-28 14:52:23.96	297.70	14.11	-41.0	-41.8	22.4	0.00e+00	0	42	0	1889533952	53	4002
2026-01-28 14:52:24.97	297.91	14.09	-41.0	-41.9	22.4	0.00e+00	0	42	0	1895825408	53	4015
2026-01-28 14:52:25.98	298.11	14.07	-41.0	-41.8	22.4	0.00e+00	0	42	0	1901068288	53	3990
2026-01-28 14:52:26.99	298.32	14.06	-41.0	-41.8	22.4	0.00e+00	0	43	0	1906311168	53	3977
2026-01-28 14:52:28.00	298.52	14.04	-41.0	-41.8	22.3	0.00e+00	0	42	0	1912602624	53	3987
2026-01-28 14:52:29.01	298.73	14.02	-41.0	-41.8	22.5	0.00e+00	0	42	0	1918894080	53	3974
2026-01-28 14:52:30.01	298.93	14.00	-40.9	-41.7	22.4	0.00e+00	0	42	0	1924136960	53	3955
2026-01-28 14:52:31.02	299.13	13.98	-40.9	-41.7	22.5	0.00e+00	0	42	0	1929379840	53	3944
2026-01-28 14:52:32.03	299.33	13.96	-41.0	-41.8	22.4	0.00e+00	0	42	0	1935671296	53	3991
2026-01-28 14:52:33.04	299.54	13.94	-41.0	-41.9	22.3	0.00e+00	0	42	0	1940914176	53	4016
2026-01-28 14:52:34.05	299.74	13.92	-41.1	-41.9	22.2	0.00e+00	0	42	0	1946157056	53	4029
2026-01-28 14:52:35.05	299.94	13.90	-41.0	-41.8	22.3	0.00e+00	0	42	0	1952448512	53	4002
2026-01-28 14:52:36.05	300.14	13.88	-41.0	-41.9	22.3	0.00e+00	0	42	0	1957691392	53	4014
2026-01-28 14:52:37.06	300.34	13.86	-41.1	-42.0	22.2	0.00e+00	0	43	0	1963982848	53	4058
2026-01-28 14:52:38.07	300.54	13.84	-41.1	-41.9	22.3	0.00e+00	0	43	0	1969225728	53	4032
2026-01-28 14:52:39.08	300.74	13.82	-41.1	-42.0	22.2	0.00e+00	0	42	0	1974468608	53	4056
2026-01-28 14:52:40.09	300.94	13.79	-41.0	-41.9	22.2	0.00e+00	0	42	0	1980760064	53	4020
2026-01-28 14:52:41.09	301.14	13.77	-41.1	-41.9	22.2	0.00e+00	0	43	0	1986002944	53	4040
2026-01-28 14:52:42.10	301.34	13.75	-41.1	-41.9	22.2	0.00e+00	0	42	0	1992294400	53	4024
2026-01-28 14:52:43.11	301.54	13.73	-41.1	-41.9	22.2	0.00e+00	0	42	0	1997537280	53	4047
2026-01-28 14:52:44.12	301.74	13.70	-41.2	-42.0	22.2	0.00e+00	0	42	0	2003828736	53	4070
2026-01-28 14:52:45.13	301.94	13.68	-41.2	-42.1	22.1	0.00e+00	0	42	0	2009071616	53	4099
2026-01-28 14:52:46.14	302.14	13.65	-41.2	-42.1	22.1	0.00e+00	0	43	0	2014314496	53	4099
2026-01-28 14:52:47.15	302.34	13.63	-41.2	-42.1	22.0	0.00e+00	0	43	0	2020605952	53	4104
2026-01-28 14:52:48.16	302.54	13.61	-41.2	-42.1	22.1	0.00e+00	0	42	0	2025848832	53	4106
2026-01-28 14:52:49.17	302.74	13.58	-41.3	-42.2	21.9	0.00e+00	0	42	0	2031091712	53	4148
2026-01-28 14:52:50.18	302.93	13.56	-41.3	-42.1	22.0	0.00e+00	0	42	0	2037383168	53	4135
2026-01-28 14:52:51.19	303.13	13.53	-41.2	-42.0	22.1	0.00e+00	0	42	0	2042626048	53	4095
2026-01-28 14:52:52.20	303.33	13.51	-41.2	-42.1	22.1	0.00e+00	0	42	0	2048917504	53	4109
2026-01-28 14:52:53.21	303.52	13.48	-41.3	-42.1	22.0	0.00e+00	0	42	0	2054160384	53	4136
2026-01-28 14:52:54.21	303.72	13.45	-41.3	-42.1	22.0	0.00e+00	0	43	0	2060451840	53	4142
2026-01-28 14:52:55.22	303.91	13.43	-41.4	-42.3	21.9	0.00e+00	0	43	0	2065694720	53	4203
2026-01-28 14:52:56.23	304.11	13.40	-41.4	-42.3	21.8	0.00e+00	0	42	0	2071986176	53	4216
2026-01-28 14:52:57.23	304.30	13.37	-41.3	-42.1	22.0	0.00e+00	0	42	0	2077229056	53	4128
2026-01-28 14:52:58.24	304.50	13.35	-41.3	-42.1	22.0	0.00e+00	0	43	0	2082471936	53	4116
2026-01-28 14:52:59.25	304.69	13.32	-41.3	-42.1	22.0	0.00e+00	0	42	0	2088763392	53	4138
2026-01-28 14:53:00.26	304.89	13.29	-41.2	-42.1	22.0	0.00e+00	0	43	0	2094006272	53	4107
2026-01-28 14:53:01.27	305.08	13.26	-41.3	-42.1	22.0	0.00e+00	0	43	0	2099249152	53	4126
2026-01-28 14:53:02.28	305.28	13.24	-41.2	-42.1	22.0	0.00e+00	0	42	0	2105540608	53	4116
2026-01-28 14:53:03.29	305.47	13.21	-41.3	-42.2	22.0	0.00e+00	0	43	0	2110783488	53	4164
2026-01-28 14:53:04.30	305.66	13.18	-41.2	-42.1	22.0	0.00e+00	0	43	0	2117074944	53	4099
2026-01-28 14:53:05.31	305.85	13.15	-41.2	-42.1	22.0	0.00e+00	0	43	0	2122317824	53	4114
2026-01-28 14:53:06.31	306.04	13.12	-41.2	-42.0	22.1	0.00e+00	0	42	0	2128609280	53	4089
2026-01-28 14:53:07.32	306.24	13.09	-41.0	-41.9	22.2	0.00e+00	0	42	0	2133852160	53	4022
2026-01-28 14:53:08.33	306.43	13.06	-41.1	-41.9	22.2	0.00e+00	0	42	0	2139095040	53	4020
2026-01-28 14:53:09.34	306.62	13.03	-41.1	-42.0	22.1	0.00e+00	0	42	0	2145386496	53	4062
2026-01-28 14:53:10.34	306.81	13.00	-41.1	-42.0	22.1	0.00e+00	0	42	0	2150629376	53	4062
2026-01-28 14:53:11.35	307.00	12.97	-41.3	-42.1	22.0	0.00e+00	0	43	0	2156920832	53	4128
2026-01-28 14:53:12.36	307.19	12.94	-41.4	-42.3	21.8	0.00e+00	0	42	0	2162163712	53	4205
2026-01-28 14:53:13.37	307.38	12.91	-41.3	-42.1	21.9	0.00e+00	0	43	0	2167406592	53	4139
2026-01-28 14:53:14.38	307.57	12.88	-41.4	-42.3	21.9	0.00e+00	0	42	0	2173698048	53	4198
2026-01-28 14:53:15.39	307.75	12.85	-41.2	-42.1	22.0	0.00e+00	0	43	0	2178940928	53	4112
2026-01-28 14:53:16.40	307.94	12.81	-41.1	-42.0	22.1	0.00e+00	0	43	0	2185232384	53	4066
2026-01-28 14:53:17.41	308.13	12.78	-41.1	-42.0	22.0	0.00e+00	0	43	0	2190475264	53	4072
2026-01-28 14:53:18.41	308.32	12.75	-41.1	-42.0	22.0	0.00e+00	0	42	0	2196766720	53	4061
2026-01-28 14:53:19.42	308.50	12.72	-41.2	-42.0	22.0	0.00e+00	0	43	0	2202009600	53	4080
2026-01-28 14:53:20.43	308.69	12.68	-41.2	-42.1	22.0	0.00e+00	0	43	0	2207252480	53	4112
2026-01-28 14:53:21.44	308.88	12.65	-41.2	-42.1	21.9	0.00e+00	0	42	0	2213543936	53	4114
2026-01-28 14:53:22.45	309.06	12.62	-41.3	-42.1	21.8	0.00e+00	0	42	0	2218786816	53	4134
2026-01-28 14:53:23.46	309.25	12.59	-41.2	-42.1	21.9	0.00e+00	0	43	0	2224029696	53	4115
2026-01-28 14:53:24.47	309.43	12.55	-41.2	-42.0	22.0	0.00e+00	0	43	0	2230321152	53	4087
2026-01-28 14:53:25.48	309.62	12.52	-41.1	-42.0	22.0	0.00e+00	0	42	0	2235564032	53	4066
2026-01-28 14:53:26.49	309.80	12.48	-41.2	-42.0	21.9	0.00e+00	0	43	0	2241855488	53	4090
2026-01-28 14:53:27.50	309.98	12.45	-41.2	-42.0	22.0	0.00e+00	0	43	0	2247098368	53	4074
2026-01-28 14:53:28.51	310.17	12.42	-41.3	-42.1	21.9	0.00e+00	0	43	0	2253389824	53	4121
2026-01-28 14:53:29.52	310.35	12.38	-41.4	-42.3	21.7	0.00e+00	0	43	0	2258632704	53	4205
2026-01-28 14:53:30.53	310.53	12.35	-41.3	-42.2	21.8	0.00e+00	0	42	0	2264924160	53	4158
2026-01-28 14:53:31.54	310.72	12.31	-41.3	-42.2	21.8	0.00e+00	0	43	0	2270167040	53	4153
2026-01-28 14:53:32.54	310.90	12.28	-41.3	-42.2	21.8	0.00e+00	0	43	0	2275409920	53	4170
2026-01-28 14:53:33.55	311.08	12.24	-41.3	-42.1	21.8	0.00e+00	0	42	0	2281701376	53	4133
2026-01-28 14:53:34.56	311.26	12.20	-41.3	-42.2	21.8	0.00e+00	0	42	0	2286944256	53	4153
2026-01-28 14:53:35.57	311.44	12.17	-41.2	-42.0	21.9	0.00e+00	0	43	0	2292187136	53	4095
2026-01-28 14:53:36.57	311.62	12.13	-41.3	-42.1	21.8	0.00e+00	0	42	0	2298478592	53	4145
2026-01-28 14:53:37.58	311.80	12.10	-41.3	-42.1	21.9	0.00e+00	0	42	0	2303721472	53	4131
2026-01-28 14:53:38.59	311.97	12.06	-41.2	-42.1	21.9	0.00e+00	0	43	0	2308964352	53	4123
2026-01-28 14:53:39.59	312.15	12.02	-41.4	-42.2	21.7	0.00e+00	0	42	0	2315255808	53	4191
2026-01-28 14:53:40.60	312.33	11.99	-41.3	-42.2	21.7	0.00e+00	0	42	0	2321547264	53	4179
2026-01-28 14:53:41.61	312.51	11.95	-41.5	-42.4	21.6	0.00e+00	0	42	0	2326790144	53	4252
2026-01-28 14:53:42.61	312.68	11.91	-41.4	-42.3	21.6	0.00e+00	0	43	0	2332033024	53	4212
2026-01-28 14:53:43.62	312.86	11.88	-41.4	-42.3	21.7	0.00e+00	0	42	0	2338324480	53	4203
2026-01-28 14:53:44.63	313.04	11.84	-41.4	-42.2	21.7	0.00e+00	0	42	0	2343567360	53	4189
2026-01-28 14:53:45.64	313.21	11.80	-41.4	-42.3	21.7	0.00e+00	0	42	0	2349858816	53	4210
2026-01-28 14:53:46.64	313.39	11.76	-41.4	-42.3	21.6	0.00e+00	0	43	0	2355101696	53	4197
2026-01-28 14:53:47.65	313.56	11.72	-41.5	-42.3	21.6	0.00e+00	0	42	0	2360344576	53	4235
2026-01-28 14:53:48.66	313.74	11.69	-41.5	-42.4	21.5	0.00e+00	0	43	0	2366636032	53	4258
2026-01-28 14:53:49.67	313.91	11.65	-41.7	-42.5	21.4	0.00e+00	0	42	0	2371878912	53	4340
2026-01-28 14:53:50.68	314.08	11.61	-41.6	-42.4	21.5	0.00e+00	0	42	0	2377121792	53	4290
2026-01-28 14:53:51.69	314.26	11.57	-41.6	-42.5	21.4	0.00e+00	0	43	0	2383413248	53	4323
2026-01-28 14:53:52.69	314.43	11.53	-41.7	-42.6	21.4	0.00e+00	0	42	0	2388656128	54	4113
2026-01-28 14:53:53.70	314.60	11.49	-41.7	-42.5	21.4	0.00e+00	0	42	0	2394947584	54	4098
2026-01-28 14:53:54.71	314.77	11.45	-41.6	-42.4	21.5	0.00e+00	0	43	0	2400190464	54	4050
2026-01-28 14:53:55.72	314.95	11.41	-41.5	-42.3	21.6	0.00e+00	0	42	0	2406481920	54	3992
2026-01-28 14:53:56.72	315.12	11.37	-41.5	-42.3	21.6	0.00e+00	0	42	0	2411724800	54	3999
2026-01-28 14:53:57.73	315.29	11.33	-41.4	-42.3	21.6	0.00e+00	0	42	0	2416967680	54	3978
2026-01-28 14:53:58.74	315.46	11.29	-41.5	-42.4	21.5	0.00e+00	0	43	0	2423259136	54	4018
2026-01-28 14:53:59.75	315.63	11.25	-41.5	-42.4	21.5	0.00e+00	0	43	0	2428502016	54	4032
2026-01-28 14:54:00.76	315.80	11.21	-41.6	-42.5	21.4	0.00e+00	0	42	0	2434793472	54	4055
2026-01-28 14:54:01.76	315.96	11.17	-41.6	-42.5	21.4	0.00e+00	0	42	0	2440036352	54	4083
2026-01-28 14:54:02.78	316.13	11.13	-41.7	-42.6	21.3	0.00e+00	0	43	0	2445279232	54	4141
2026-01-28 14:54:03.79	316.30	11.09	-41.7	-42.6	21.4	0.00e+00	0	43	0	2451570688	54	4101
2026-01-28 14:54:04.79	316.47	11.05	-41.7	-42.6	21.3	0.00e+00	0	42	0	2457862144	54	4140
2026-01-28 14:54:05.80	316.63	11.01	-41.6	-42.5	21.4	0.00e+00	0	42	0	2463105024	54	4079
2026-01-28 14:54:06.81	316.80	10.97	-41.6	-42.5	21.4	0.00e+00	0	42	0	2468347904	54	4063
2026-01-28 14:54:07.81	316.96	10.93	-41.6	-42.5	21.4	0.00e+00	0	43	0	2474639360	54	4057
2026-01-28 14:54:08.82	317.13	10.89	-41.5	-42.4	21.5	0.00e+00	0	42	0	2479882240	54	4010
2026-01-28 14:54:09.82	317.29	10.85	-41.6	-42.4	21.4	0.00e+00	0	42	0	2485125120	54	4047
2026-01-28 14:54:10.83	317.46	10.80	-41.5	-42.3	21.5	0.00e+00	0	42	0	2491416576	54	3990
2026-01-28 14:54:11.83	317.62	10.76	-41.5	-42.4	21.5	0.00e+00	0	42	0	2496659456	54	4013
2026-01-28 14:54:12.84	317.79	10.72	-41.5	-42.4	21.4	0.00e+00	0	43	0	2501902336	54	4036
2026-01-28 14:54:13.85	317.95	10.68	-41.6	-42.5	21.4	0.00e+00	0	42	0	2508193792	54	4076
2026-01-28 14:54:14.85	318.11	10.64	-41.6	-42.4	21.4	0.00e+00	0	43	0	2513436672	54	4042
2026-01-28 14:54:15.86	318.27	10.59	-41.5	-42.4	21.4	0.00e+00	0	43	0	2519728128	54	4017
2026-01-28 14:54:16.87	318.44	10.55	-41.6	-42.5	21.3	0.00e+00	0	43	0	2524971008	54	4069
2026-01-28 14:54:17.88	318.60	10.51	-41.6	-42.5	21.3	0.00e+00	0	43	0	2530213888	54	4080
2026-01-28 14:54:18.89	318.76	10.47	-41.7	-42.6	21.2	0.00e+00	0	43	0	2536505344	54	4142
2026-01-28 14:54:19.90	318.92	10.42	-41.8	-42.7	21.2	0.00e+00	0	42	0	2542796800	54	4162
2026-01-28 14:54:20.91	319.08	10.38	-41.8	-42.7	21.1	0.00e+00	0	43	0	2548039680	54	4186
2026-01-28 14:54:21.92	319.24	10.34	-41.9	-42.8	21.0	0.00e+00	0	42	0	2553282560	54	4222
2026-01-28 14:54:22.93	319.40	10.29	-42.0	-42.9	21.0	0.00e+00	0	43	0	2559574016	54	4265
2026-01-28 14:54:23.93	319.56	10.25	-42.0	-42.9	20.9	0.00e+00	0	43	0	2564816896	54	4289
2026-01-28 14:54:24.94	319.71	10.21	-42.0	-43.0	20.9	0.00e+00	0	42	0	2570059776	54	4299
2026-01-28 14:54:25.94	319.87	10.16	-42.0	-42.9	20.9	0.00e+00	0	43	0	2576351232	54	4272
2026-01-28 14:54:26.95	320.03	10.12	-42.0	-43.0	20.8	0.00e+00	0	43	0	2581594112	54	4303
2026-01-28 14:54:27.96	320.19	10.08	-41.9	-42.8	21.0	0.00e+00	0	42	0	2586836992	54	4240
2026-01-28 14:54:28.97	320.34	10.03	-42.0	-42.9	20.9	0.00e+00	0	43	0	2593128448	54	4259
2026-01-28 14:54:29.97	320.50	9.99	-42.0	-42.9	20.9	0.00e+00	0	43	0	2598371328	54	4271
2026-01-28 14:54:30.98	320.65	9.94	-42.0	-42.9	20.9	0.00e+00	0	42	0	2604662784	54	4269
2026-01-28 14:54:31.99	320.81	9.90	-41.9	-42.9	20.9	0.00e+00	0	43	0	2609905664	54	4243
2026-01-28 14:54:32.99	320.96	9.86	-41.9	-42.9	20.9	0.00e+00	0	43	0	2615148544	54	4247
2026-01-28 14:54:34.01	321.12	9.81	-41.9	-42.8	20.9	0.00e+00	0	42	0	2621440000	54	4242
2026-01-28 14:54:35.01	321.27	9.77	-41.9	-42.9	20.9	0.00e+00	0	42	0	2627731456	54	4244
2026-01-28 14:54:36.02	321.42	9.72	-41.9	-42.8	20.9	0.00e+00	0	42	0	2632974336	54	4219
2026-01-28 14:54:37.03	321.58	9.68	-42.0	-42.9	20.8	0.00e+00	0	43	0	2638217216	54	4284
2026-01-28 14:54:38.04	321.73	9.63	-41.9	-42.8	20.9	0.00e+00	0	43	0	2644508672	54	4227
2026-01-28 14:54:39.05	321.88	9.59	-42.0	-42.9	20.8	0.00e+00	0	43	0	2649751552	54	4266
2026-01-28 14:54:40.06	322.03	9.54	-42.1	-43.0	20.7	0.00e+00	0	42	0	2654994432	54	4313
2026-01-28 14:54:41.07	322.18	9.50	-42.1	-43.0	20.7	0.00e+00	0	43	0	2661285888	54	4313
2026-01-28 14:54:42.08	322.33	9.45	-42.0	-43.0	20.8	0.00e+00	0	42	0	2666528768	54	4293
2026-01-28 14:54:43.09	322.48	9.41	-42.0	-42.9	20.8	0.00e+00	0	43	0	2671771648	54	4280
2026-01-28 14:54:44.09	322.63	9.36	-41.9	-42.9	20.8	0.00e+00	0	43	0	2678063104	54	4252
2026-01-28 14:54:45.10	322.78	9.32	-41.9	-42.8	20.9	0.00e+00	0	42	0	2684354560	54	4237
2026-01-28 14:54:46.11	322.93	9.27	-41.9	-42.8	20.9	0.00e+00	0	42	0	2689597440	54	4227
2026-01-28 14:54:47.12	323.08	9.23	-42.0	-42.9	20.8	0.00e+00	0	42	0	2694840320	54	4268
2026-01-28 14:54:48.13	323.23	9.18	-42.0	-42.9	20.8	0.00e+00	0	43	0	2701131776	54	4282
2026-01-28 14:54:49.14	323.37	9.13	-42.0	-42.9	20.8	0.00e+00	0	43	0	2706374656	54	4273
2026-01-28 14:54:50.14	323.52	9.09	-41.9	-42.9	20.8	0.00e+00	0	42	0	2712666112	54	4248
2026-01-28 14:54:51.15	323.67	9.04	-41.9	-42.8	20.8	0.00e+00	0	43	0	2717908992	54	4218
2026-01-28 14:54:52.16	323.81	9.00	-42.0	-42.9	20.7	0.00e+00	0	43	0	2723151872	54	4258
2026-01-28 14:54:53.17	323.96	8.95	-41.9	-42.8	20.8	0.00e+00	0	42	0	2729443328	54	4201
2026-01-28 14:54:54.18	324.10	8.90	-41.9	-42.8	20.8	0.00e+00	0	43	0	2734686208	54	4218
2026-01-28 14:54:55.19	324.25	8.86	-41.9	-42.8	20.7	0.00e+00	0	42	0	2739929088	54	4235
2026-01-28 14:54:56.19	324.39	8.81	-41.9	-42.8	20.8	0.00e+00	0	42	0	2746220544	54	4232
2026-01-28 14:54:57.20	324.54	8.77	-42.0	-42.9	20.7	0.00e+00	0	42	0	2752512000	54	4288
2026-01-28 14:54:58.21	324.68	8.72	-42.2	-43.1	20.5	0.00e+00	0	42	0	2757754880	54	4378
2026-01-28 14:54:59.22	324.82	8.67	-42.3	-43.3	20.4	0.00e+00	0	42	0	2762997760	55	4203
2026-01-28 14:55:00.23	324.97	8.63	-42.3	-43.3	20.4	0.00e+00	0	42	0	2769289216	55	4216
2026-01-28 14:55:01.24	325.11	8.58	-42.3	-43.3	20.4	0.00e+00	0	43	0	2774532096	55	4210
2026-01-28 14:55:02.25	325.25	8.53	-42.4	-43.3	20.3	0.00e+00	0	42	0	2779774976	55	4239
2026-01-28 14:55:03.25	325.39	8.49	-42.4	-43.4	20.2	0.00e+00	0	42	0	2786066432	55	4282
2026-01-28 14:55:04.26	325.53	8.44	-42.4	-43.4	20.3	0.00e+00	0	43	0	2791309312	55	4253
2026-01-28 14:55:05.27	325.67	8.39	-42.3	-43.3	20.4	0.00e+00	0	43	0	2797600768	55	4218
2026-01-28 14:55:06.28	325.81	8.35	-42.4	-43.4	20.3	0.00e+00	0	43	0	2802843648	55	4263
2026-01-28 14:55:07.29	325.95	8.30	-42.2	-43.2	20.4	0.00e+00	0	43	0	2808086528	55	4158
2026-01-28 14:55:08.30	326.09	8.25	-42.2	-43.2	20.4	0.00e+00	0	42	0	2814377984	55	4154
2026-01-28 14:55:09.31	326.23	8.21	-42.3	-43.3	20.3	0.00e+00	0	42	0	2820669440	55	4217
2026-01-28 14:55:10.31	326.37	8.16	-42.4	-43.4	20.2	0.00e+00	0	43	0	2825912320	55	4265
2026-01-28 14:55:11.32	326.50	8.11	-42.4	-43.3	20.3	0.00e+00	0	43	0	2831155200	55	4239
2026-01-28 14:55:12.33	326.64	8.06	-42.4	-43.4	20.3	0.00e+00	0	43	0	2837446656	55	4244
2026-01-28 14:55:13.33	326.78	8.02	-42.5	-43.5	20.1	0.00e+00	0	42	0	2842689536	55	4300
2026-01-28 14:55:14.34	326.91	7.97	-42.5	-43.5	20.1	0.00e+00	0	42	0	2847932416	55	4327
2026-01-28 14:55:15.35	327.05	7.92	-42.5	-43.5	20.1	0.00e+00	0	43	0	2854223872	55	4297
2026-01-28 14:55:16.36	327.19	7.88	-42.5	-43.5	20.1	0.00e+00	0	43	0	2859466752	55	4326
2026-01-28 14:55:17.37	327.32	7.83	-42.6	-43.5	20.1	0.00e+00	0	43	0	2864709632	55	4332
2026-01-28 14:55:18.38	327.46	7.78	-42.6	-43.6	20.0	0.00e+00	0	42	0	2871001088	55	4377
2026-01-28 14:55:19.39	327.59	7.73	-42.6	-43.5	20.0	0.00e+00	0	43	0	2876243968	55	4340
2026-01-28 14:55:20.40	327.73	7.69	-42.6	-43.6	20.0	0.00e+00	0	43	0	2882535424	55	4364
2026-01-28 14:55:21.41	327.86	7.64	-42.8	-43.8	19.9	0.00e+00	0	43	0	2887778304	56	4205
2026-01-28 14:55:22.41	327.99	7.59	-42.7	-43.7	19.9	0.00e+00	0	42	0	2894069760	56	4185
2026-01-28 14:55:23.42	328.12	7.54	-42.8	-43.8	19.9	0.00e+00	0	43	0	2899312640	56	4211
2026-01-28 14:55:24.43	328.26	7.50	-42.6	-43.7	20.0	0.00e+00	0	43	0	2905604096	56	4152
2026-01-28 14:55:25.44	328.39	7.45	-42.7	-43.8	19.9	0.00e+00	0	43	0	2910846976	56	4198
2026-01-28 14:55:26.45	328.52	7.40	-42.6	-43.7	19.9	0.00e+00	0	43	0	2916089856	56	4155
2026-01-28 14:55:27.46	328.65	7.35	-42.6	-43.7	19.9	0.00e+00	0	43	0	2922381312	56	4154
2026-01-28 14:55:28.47	328.78	7.30	-42.8	-43.9	19.8	0.00e+00	0	43	0	2927624192	56	4249
2026-01-28 14:55:29.47	328.91	7.26	-42.6	-43.6	20.0	0.00e+00	0	42	0	2932867072	56	4130
2026-01-28 14:55:30.48	329.04	7.21	-42.6	-43.7	20.0	0.00e+00	0	43	0	2939158528	56	4146
2026-01-28 14:55:31.49	329.17	7.16	-42.8	-43.8	19.8	0.00e+00	0	43	0	2944401408	56	4230
2026-01-28 14:55:32.50	329.30	7.11	-42.8	-43.8	19.8	0.00e+00	0	43	0	2950692864	56	4223
2026-01-28 14:55:33.51	329.43	7.06	-42.6	-43.6	20.0	0.00e+00	0	43	0	2955935744	56	4134
2026-01-28 14:55:34.51	329.56	7.02	-42.7	-43.7	19.9	0.00e+00	0	42	0	2962227200	56	4157
2026-01-28 14:55:35.52	329.68	6.97	-42.7	-43.8	19.9	0.00e+00	0	43	0	2967470080	56	4194
2026-01-28 14:55:36.52	329.81	6.92	-42.8	-43.8	19.8	0.00e+00	0	43	0	2972712960	56	4211
2026-01-28 14:55:37.53	329.94	6.87	-42.8	-43.8	19.7	0.00e+00	0	43	0	2979004416	56	4242
2026-01-28 14:55:38.53	330.06	6.83	-42.8	-43.8	19.8	0.00e+00	0	43	0	2984247296	56	4221
2026-01-28 14:55:39.54	330.19	6.78	-42.8	-43.9	19.7	0.00e+00	0	43	0	2990538752	56	4248
2026-01-28 14:55:40.55	330.31	6.73	-42.8	-43.8	19.7	0.00e+00	0	42	0	2995781632	56	4225
2026-01-28 14:55:41.56	330.44	6.68	-42.9	-44.0	19.6	0.00e+00	0	42	0	3001024512	56	4292
2026-01-28 14:55:42.57	330.57	6.63	-42.8	-43.9	19.6	0.00e+00	0	43	0	3007315968	56	4262
2026-01-28 14:55:43.58	330.69	6.58	-43.0	-44.1	19.4	0.00e+00	0	43	0	3012558848	56	4372
2026-01-28 14:55:44.59	330.81	6.54	-43.0	-44.1	19.5	0.00e+00	0	42	0	3017801728	56	4362
2026-01-28 14:55:45.59	330.94	6.49	-42.9	-44.0	19.5	0.00e+00	0	42	0	3024093184	56	4312
2026-01-28 14:55:46.60	331.06	6.44	-43.1	-44.1	19.4	0.00e+00	0	42	0	3030384640	56	4381
2026-01-28 14:55:47.61	331.18	6.39	-43.1	-44.2	19.3	0.00e+00	0	42	0	3035627520	56	4406
2026-01-28 14:55:48.62	331.31	6.34	-43.2	-44.3	19.2	0.00e+00	0	43	0	3040870400	56	4463
2026-01-28 14:55:49.63	331.43	6.29	-43.0	-44.1	19.4	0.00e+00	0	43	0	3047161856	56	4356
2026-01-28 14:55:50.64	331.55	6.25	-43.1	-44.2	19.3	0.00e+00	0	42	0	3052404736	56	4403
2026-01-28 14:55:51.64	331.67	6.20	-43.1	-44.2	19.3	0.00e+00	0	42	0	3057647616	56	4414
2026-01-28 14:55:52.65	331.79	6.15	-43.1	-44.2	19.2	0.00e+00	0	42	0	3063939072	56	4414
2026-01-28 14:55:53.66	331.91	6.10	-43.0	-44.1	19.4	0.00e+00	0	43	0	3069181952	57	4108
2026-01-28 14:55:54.67	332.03	6.05	-43.0	-44.0	19.4	0.00e+00	0	43	0	3075473408	57	4074
2026-01-28 14:55:55.67	332.15	6.00	-43.0	-44.1	19.3	0.00e+00	0	43	0	3080716288	57	4124
2026-01-28 14:55:56.68	332.27	5.96	-43.0	-44.0	19.4	0.00e+00	0	42	0	3085959168	57	4096
2026-01-28 14:55:57.69	332.39	5.91	-43.0	-44.0	19.4	0.00e+00	0	43	0	3092250624	57	4076
2026-01-28 14:55:58.69	332.51	5.86	-43.1	-44.2	19.2	0.00e+00	0	43	0	3097493504	57	4180
2026-01-28 14:55:59.70	332.63	5.81	-43.2	-44.3	19.1	0.00e+00	0	43	0	3103784960	57	4198
2026-01-28 14:56:00.71	332.75	5.76	-43.0	-44.1	19.3	0.00e+00	0	42	0	3109027840	57	4120
2026-01-28 14:56:01.72	332.86	5.71	-43.0	-44.1	19.2	0.00e+00	0	42	0	3115319296	57	4125
2026-01-28 14:56:02.72	332.98	5.67	-43.2	-44.3	19.0	0.00e+00	0	43	0	3120562176	57	4212
2026-01-28 14:56:03.73	333.10	5.62	-43.2	-44.3	19.0	0.00e+00	0	42	0	3125805056	57	4194
2026-01-28 14:56:04.74	333.21	5.57	-43.4	-44.5	18.8	0.00e+00	0	42	0	3132096512	57	4312
2026-01-28 14:56:05.75	333.33	5.52	-43.3	-44.4	18.9	0.00e+00	0	43	0	3137339392	57	4252
2026-01-28 14:56:06.76	333.45	5.47	-43.4	-44.5	18.8	0.00e+00	0	43	0	3142582272	57	4319
2026-01-28 14:56:07.77	333.56	5.42	-43.4	-44.5	18.8	0.00e+00	0	42	0	3148873728	57	4305
2026-01-28 14:56:08.78	333.68	5.37	-43.4	-44.5	18.8	0.00e+00	0	42	0	3154116608	57	4306
2026-01-28 14:56:09.78	333.79	5.33	-43.4	-44.5	18.7	0.00e+00	0	42	0	3160408064	57	4327
2026-01-28 14:56:10.79	333.91	5.28	-43.5	-44.7	18.5	0.00e+00	0	43	0	3165650944	57	4422
2026-01-28 14:56:11.80	334.02	5.23	-43.5	-44.7	18.5	0.00e+00	0	42	0	3171942400	57	4403
2026-01-28 14:56:12.81	334.13	5.18	-43.5	-44.7	18.3	0.00e+00	0	42	0	3177185280	58	4190
2026-01-28 14:56:13.81	334.25	5.13	-43.2	-44.4	18.5	0.00e+00	0	43	0	3183476736	58	4018
2026-01-28 14:56:14.83	334.36	5.08	-43.7	-45.0	17.8	0.00e+00	0	43	0	3188719616	58	4313
2026-01-28 14:56:15.83	334.47	5.03	-44.6	-46.1	16.2	0.00e+00	0	43	0	3193962496	60	4355
2026-01-28 14:56:16.84	334.58	4.99	-51.7	-60.5	4.3	3.31e-02	0	43	0	3199205376	73	10840
2026-01-28 14:56:17.85	334.70	4.94	-52.6	-64.4	3.8	8.47e-01	0	43	104	3199205376	75	15220
2026-01-28 14:56:18.86	334.81	4.89	-52.8	-64.6	3.8	8.47e-01	0	42	104	3199205376	76	14688
2026-01-28 14:56:19.87	334.92	4.84	-53.0	-65.0	3.8	8.46e-01	0	43	104	3199205376	76	15267
2026-01-28 14:56:20.88	335.03	4.79	-53.2	-65.1	3.8	8.46e-01	0	43	104	3199205376	76	15554
2026-01-28 14:56:21.89	335.14	4.74	-53.3	-65.2	3.8	8.46e-01	0	43	104	3199205376	77	14850
2026-01-28 14:56:22.90	335.25	4.69	-53.4	-65.3	3.8	8.46e-01	0	43	104	3199205376	77	14988
2026-01-28 14:56:23.91	335.36	4.65	-53.4	-65.4	3.8	8.46e-01	0	43	104	3199205376	77	15053
2026-01-28 14:56:24.91	335.47	4.60	-53.4	-65.4	3.8	8.46e-01	0	43	104	3199205376	77	15055
2026-01-28 14:56:25.92	335.58	4.55	-53.4	-65.3	3.8	8.47e-01	0	43	104	3199205376	77	15019
2026-01-28 14:56:26.93	335.69	4.50	-53.4	-65.3	3.8	8.46e-01	0	43	104	3199205376	77	14942
2026-01-28 14:56:27.94	335.79	4.45	-53.3	-65.2	3.8	8.46e-01	0	42	104	3199205376	77	14791
2026-01-28 14:56:28.95	335.90	4.40	-53.2	-65.1	3.8	8.46e-01	0	43	104	3199205376	77	14560
2026-01-28 14:56:29.96	336.01	4.36	-53.2	-65.1	3.8	8.46e-01	0	42	104	3199205376	77	14601
2026-01-28 14:56:30.97	336.12	4.31	-53.2	-65.1	3.8	8.47e-01	0	43	104	3199205376	77	14661
2026-01-28 14:56:31.97	336.22	4.26	-53.3	-65.2	3.8	8.46e-01	0	43	104	3199205376	77	14743
2026-01-28 14:56:32.98	336.33	4.21	-53.3	-65.2	3.8	8.46e-01	0	43	104	3199205376	77	14838
2026-01-28 14:56:33.98	336.44	4.16	-53.3	-65.3	3.8	8.46e-01	0	43	104	3199205376	77	14934
2026-01-28 14:56:34.99	336.54	4.11	-53.3	-65.3	3.8	8.46e-01	0	43	104	3199205376	77	14891
2026-01-28 14:56:36.00	336.65	4.07	-53.4	-65.3	3.8	8.46e-01	0	43	104	3199205376	77	14936
2026-01-28 14:56:37.01	336.75	4.02	-53.4	-65.3	3.8	8.46e-01	0	43	104	3199205376	77	14964
2026-01-28 14:56:38.01	336.86	3.97	-53.4	-65.3	3.8	8.46e-01	0	43	104	3199205376	77	14964
2026-01-28 14:56:39.03	336.96	3.92	-53.3	-65.2	3.8	8.45e-01	0	43	104	3199205376	77	14800
2026-01-28 14:56:40.04	337.07	3.87	-53.3	-65.2	3.8	8.46e-01	0	43	104	3199205376	77	14821
2026-01-28 14:56:41.04	337.17	3.82	-53.3	-65.2	3.8	8.46e-01	0	42	104	3199205376	77	14787
2026-01-28 14:56:42.05	337.27	3.77	-53.3	-65.2	3.8	8.45e-01	0	42	104	3199205376	77	14769
2026-01-28 14:56:43.06	337.38	3.73	-53.3	-65.1	3.8	8.46e-01	0	43	104	3199205376	77	14708
2026-01-28 14:56:44.06	337.48	3.68	-53.3	-65.2	3.8	8.47e-01	0	42	104	3199205376	77	14741
2026-01-28 14:56:45.07	337.58	3.63	-53.2	-65.2	3.8	8.46e-01	0	42	104	3199205376	77	14746
2026-01-28 14:56:46.08	337.69	3.58	-53.2	-65.1	3.8	8.46e-01	0	43	104	3199205376	77	14695
2026-01-28 14:56:47.09	337.79	3.53	-53.2	-65.1	3.8	8.46e-01	0	43	104	3199205376	77	14695
2026-01-28 14:56:48.10	337.89	3.49	-53.2	-65.1	3.8	8.46e-01	0	43	104	3199205376	77	14706
2026-01-28 14:56:49.11	337.99	3.44	-53.2	-65.1	3.8	8.45e-01	0	43	104	3199205376	77	14666
2026-01-28 14:56:50.12	338.09	3.39	-53.2	-65.1	3.8	8.46e-01	0	43	104	3199205376	77	14693
2026-01-28 14:56:51.13	338.19	3.34	-53.2	-65.1	3.8	8.47e-01	0	43	104	3199205376	77	14680
2026-01-28 14:56:52.14	338.29	3.29	-53.2	-65.1	3.8	8.46e-01	0	43	104	3199205376	77	14627
2026-01-28 14:56:53.14	338.39	3.24	-53.2	-65.1	3.8	8.46e-01	0	43	104	3199205376	77	14637
2026-01-28 14:56:54.15	338.49	3.20	-53.2	-65.1	3.8	8.46e-01	0	43	104	3199205376	77	14598
2026-01-28 14:56:55.16	338.59	3.15	-53.2	-65.1	3.8	8.47e-01	0	43	104	3199205376	77	14606
2026-01-28 14:56:56.17	338.69	3.10	-53.2	-65.1	3.8	8.46e-01	0	42	104	3199205376	77	14619
2026-01-28 14:56:57.18	338.79	3.05	-53.2	-65.1	3.8	8.47e-01	0	43	104	3199205376	77	14613
2026-01-28 14:56:58.19	338.89	3.00	-53.2	-65.1	3.8	8.46e-01	0	43	104	3199205376	77	14597
2026-01-28 14:56:59.20	338.99	2.95	-53.2	-65.1	3.8	8.46e-01	0	42	104	3199205376	77	14624
2026-01-28 14:57:00.21	339.09	2.91	-53.2	-65.1	3.8	8.46e-01	0	43	104	3199205376	77	14601
2026-01-28 14:57:01.22	339.18	2.86	-53.1	-65.1	3.8	8.46e-01	0	43	104	3199205376	77	14613
2026-01-28 14:57:02.23	339.28	2.81	-53.1	-65.1	3.8	8.46e-01	0	43	104	3199205376	77	14578
2026-01-28 14:57:03.23	339.38	2.76	-53.2	-65.1	3.8	8.46e-01	0	43	104	3199205376	77	14574
2026-01-28 14:57:04.25	339.48	2.71	-53.2	-65.1	3.8	8.46e-01	0	43	104	3199205376	77	14591
2026-01-28 14:57:05.25	339.57	2.67	-53.1	-65.0	3.8	8.46e-01	0	43	104	3199205376	77	14536
2026-01-28 14:57:06.26	339.67	2.62	-53.1	-65.1	3.8	8.46e-01	0	43	104	3199205376	77	14554
2026-01-28 14:57:07.27	339.76	2.57	-53.1	-65.1	3.8	8.47e-01	0	43	104	3199205376	77	14549
2026-01-28 14:57:08.27	339.86	2.52	-53.1	-65.0	3.8	8.48e-01	0	43	104	3199205376	77	14513
2026-01-28 14:57:09.28	339.95	2.48	-53.1	-65.1	3.8	8.46e-01	0	43	104	3199205376	77	14592
2026-01-28 14:57:10.29	340.05	2.43	-53.1	-65.0	3.8	8.47e-01	0	43	104	3199205376	77	14508
2026-01-28 14:57:11.30	340.14	2.38	-53.1	-65.0	3.8	8.45e-01	0	43	104	3199205376	77	14536
2026-01-28 14:57:12.31	340.24	2.33	-53.1	-65.0	3.8	8.46e-01	0	43	104	3199205376	77	14519
2026-01-28 14:57:13.31	340.33	2.28	-53.1	-65.0	3.8	8.46e-01	0	43	104	3199205376	77	14540
2026-01-28 14:57:14.32	340.43	2.24	-53.1	-65.0	3.8	8.46e-01	0	43	104	3199205376	77	14499
2026-01-28 14:57:15.33	340.52	2.19	-53.1	-65.1	3.8	8.47e-01	0	43	104	3199205376	77	14554
2026-01-28 14:57:16.34	340.61	2.14	-53.1	-65.0	3.8	8.46e-01	0	43	104	3199205376	77	14528
2026-01-28 14:57:17.35	340.71	2.09	-53.1	-65.0	3.8	8.47e-01	0	43	104	3199205376	77	14504
2026-01-28 14:57:18.36	340.80	2.04	-53.1	-65.0	3.8	8.46e-01	0	43	104	3199205376	77	14539
2026-01-28 14:57:19.37	340.89	2.00	-53.1	-65.0	3.8	8.46e-01	0	43	104	3199205376	77	14497
2026-01-28 14:57:20.37	340.98	1.95	-53.1	-65.0	3.8	8.46e-01	0	43	104	3199205376	77	14523

#Closed at: 2026-01-28 14:57:20
#Recorded file [3199 MB]: D:/lorett/data/31041_260128_174551.dat