passes_logs/2026/01/28/R3.2S_Murmansk/R3.2S_Murmansk__20260128_060157_KANOPUS-V_5_rec.log

#Pass ID: 20260128_060157_KANOPUS-V 5
#Satellite: KANOPUS-V 5
#Configuration: KANOPUS-V_8320
#almurnet v.1.7.20251203
#Start time: 2026-01-28 06:01:58

#Version: 2.2.20231116
#Station: R3.2S_Murmansk
#Location: 33.079688 lon 68.888172 lat
#TLE: 1 43876U 18111A   26027.32158080  .00005009  00000+0  21245-3 0  9994
#TLE: 2 43876  97.3675 295.6129 0001827  89.1739 270.9707 15.23558826393345

#Time	Az	El	Level	Level2	SNR	BER	BlckErr	Temp	State	Recorded	gain1	gain2
2026-01-28 06:01:58.27	112.57	2.08	-54.8	-63.7	3.8	7.45e-01	0	43	0	0	80	10426
2026-01-28 06:01:59.27	112.51	2.14	-54.8	-63.7	3.8	7.45e-01	0	42	104	0	80	10441
2026-01-28 06:02:00.28	112.44	2.21	-54.8	-63.7	3.8	7.44e-01	0	42	104	0	80	10420
2026-01-28 06:02:01.29	112.37	2.28	-54.8	-63.6	3.8	7.45e-01	0	43	104	0	80	10398
2026-01-28 06:02:02.30	112.30	2.34	-54.8	-63.7	3.8	7.47e-01	0	42	104	0	80	10414
2026-01-28 06:02:03.31	112.23	2.41	-54.8	-63.6	3.8	7.46e-01	0	43	104	0	80	10333
2026-01-28 06:02:04.31	112.16	2.48	-54.8	-63.6	3.8	7.45e-01	0	43	104	0	80	10322
2026-01-28 06:02:05.32	112.09	2.55	-54.8	-63.6	3.8	7.45e-01	0	42	104	0	80	10313
2026-01-28 06:02:06.33	112.02	2.61	-54.8	-63.6	3.8	7.45e-01	0	43	104	0	80	10325
2026-01-28 06:02:07.34	111.94	2.68	-54.7	-63.6	3.8	7.44e-01	0	43	104	0	80	10316
2026-01-28 06:02:08.35	111.87	2.75	-54.8	-63.6	3.8	7.45e-01	0	43	104	0	80	10342
2026-01-28 06:02:09.35	111.80	2.82	-54.8	-63.6	3.8	7.45e-01	0	43	104	0	80	10326
2026-01-28 06:02:10.36	111.73	2.89	-54.9	-63.8	3.8	7.46e-01	0	43	104	0	80	10593
2026-01-28 06:02:11.37	111.65	2.95	-55.0	-63.8	3.8	7.46e-01	0	43	104	0	80	10553
2026-01-28 06:02:12.38	111.58	3.02	-54.9	-63.8	3.8	7.45e-01	0	42	104	0	80	10549
2026-01-28 06:02:13.38	111.50	3.09	-54.9	-63.8	3.8	7.46e-01	0	43	104	0	80	10560
2026-01-28 06:02:14.39	111.43	3.16	-54.9	-63.8	3.8	7.46e-01	0	43	104	0	80	10535
2026-01-28 06:02:15.40	111.35	3.23	-54.9	-63.7	3.8	7.45e-01	0	43	104	0	80	10494
2026-01-28 06:02:16.40	111.28	3.30	-54.9	-63.7	3.8	7.44e-01	0	43	104	0	80	10476
2026-01-28 06:02:17.41	111.20	3.37	-54.8	-63.6	3.8	7.46e-01	0	43	104	0	80	10405
2026-01-28 06:02:18.41	111.13	3.44	-54.8	-63.6	3.8	7.45e-01	0	43	104	0	80	10380
2026-01-28 06:02:19.42	111.05	3.51	-54.8	-63.6	3.8	7.45e-01	0	43	104	0	80	10380
2026-01-28 06:02:20.43	110.97	3.58	-54.7	-63.6	3.8	7.46e-01	0	43	104	0	80	10331
2026-01-28 06:02:21.44	110.89	3.65	-54.7	-63.5	3.8	7.47e-01	0	43	104	0	80	10262
2026-01-28 06:02:22.45	110.81	3.72	-54.7	-63.5	3.8	7.46e-01	0	43	104	0	80	10274
2026-01-28 06:02:23.45	110.73	3.79	-54.7	-63.5	3.8	7.45e-01	0	43	104	0	80	10187
2026-01-28 06:02:24.45	110.66	3.86	-54.6	-63.5	3.8	7.47e-01	0	43	104	0	80	10177
2026-01-28 06:02:25.46	110.57	3.93	-54.6	-63.5	3.8	7.46e-01	0	43	104	0	80	10186
2026-01-28 06:02:26.47	110.49	4.00	-54.6	-63.4	3.8	7.44e-01	0	43	104	0	80	10138
2026-01-28 06:02:27.48	110.41	4.07	-54.5	-63.4	3.8	7.44e-01	0	43	104	0	80	10088
2026-01-28 06:02:28.49	110.33	4.15	-54.5	-63.3	3.8	7.46e-01	0	43	104	0	80	10042
2026-01-28 06:02:29.49	110.25	4.22	-54.4	-63.3	3.8	7.46e-01	0	43	104	0	80	9989
2026-01-28 06:02:30.50	110.16	4.29	-54.4	-63.2	3.8	7.44e-01	0	43	104	0	80	9906
2026-01-28 06:02:31.51	110.08	4.36	-54.3	-63.2	3.8	7.46e-01	0	43	104	0	80	9845
2026-01-28 06:02:32.52	110.00	4.44	-54.3	-63.1	3.8	7.44e-01	0	43	104	0	80	9773
2026-01-28 06:02:33.52	109.91	4.51	-54.2	-63.0	3.8	7.46e-01	0	43	104	0	80	9688
2026-01-28 06:02:34.53	109.83	4.58	-54.1	-63.0	3.8	7.45e-01	0	43	104	0	80	9617
2026-01-28 06:02:35.54	109.74	4.65	-54.0	-62.9	3.8	7.44e-01	0	43	104	0	80	9501
2026-01-28 06:02:36.55	109.65	4.73	-54.0	-62.8	3.8	7.45e-01	0	43	104	0	79	9978
2026-01-28 06:02:37.56	109.57	4.80	-53.8	-62.6	3.8	7.44e-01	0	43	104	0	79	9819
2026-01-28 06:02:38.57	109.48	4.88	-53.6	-62.4	3.8	7.45e-01	0	43	104	0	79	9556
2026-01-28 06:02:39.57	109.39	4.95	-52.1	-58.1	4.0	7.41e-01	0	43	104	0	76	6955
2026-01-28 06:02:40.58	109.30	5.02	-47.0	-49.6	11.2	6.08e-01	0	43	0	10485760	66	4615
2026-01-28 06:02:41.59	109.21	5.10	-46.2	-48.6	12.1	6.05e-01	0	43	0	25165824	64	4628
2026-01-28 06:02:42.59	109.12	5.17	-47.4	-50.1	10.8	6.11e-01	0	43	0	41943040	65	5164
2026-01-28 06:02:43.60	109.03	5.25	-47.9	-50.7	10.3	6.05e-01	0	43	0	56623104	66	5273
2026-01-28 06:02:44.61	108.94	5.32	-50.5	-54.5	6.5	6.68e-01	0	43	0	71303168	71	6129
2026-01-28 06:02:45.62	108.85	5.40	-46.2	-48.5	12.4	6.00e-01	0	43	0	88080384	64	4561
2026-01-28 06:02:46.63	108.76	5.48	-46.2	-48.6	12.2	6.04e-01	0	43	0	102760448	64	4618
2026-01-28 06:02:47.63	108.67	5.55	-45.9	-48.2	12.7	6.04e-01	0	43	0	117440512	63	4660
2026-01-28 06:02:48.65	108.57	5.63	-45.8	-48.1	12.8	6.01e-01	0	43	0	134217728	63	4599
2026-01-28 06:02:49.65	108.48	5.70	-45.6	-47.8	13.0	6.03e-01	0	43	0	148897792	63	4484
2026-01-28 06:02:50.66	108.38	5.78	-45.6	-47.9	12.9	6.01e-01	0	43	0	163577856	63	4535
2026-01-28 06:02:51.67	108.29	5.86	-45.7	-48.0	12.8	6.04e-01	0	43	0	180355072	63	4564
2026-01-28 06:02:52.67	108.19	5.93	-45.2	-47.5	13.2	6.06e-01	0	43	0	197132288	62	4564
2026-01-28 06:02:53.69	108.09	6.01	-45.3	-47.5	13.2	6.03e-01	0	43	0	211812352	62	4582
2026-01-28 06:02:54.69	108.00	6.09	-45.0	-47.2	13.4	6.05e-01	0	43	0	226492416	62	4431
2026-01-28 06:02:55.70	107.90	6.17	-45.0	-47.2	13.5	6.06e-01	0	43	0	243269632	62	4400
2026-01-28 06:02:56.71	107.80	6.25	-45.0	-47.2	13.5	6.02e-01	0	43	0	257949696	62	4415
2026-01-28 06:02:57.72	107.70	6.33	-45.1	-47.3	13.4	6.02e-01	0	43	0	272629760	61	4712
2026-01-28 06:02:58.73	107.60	6.40	-45.1	-47.4	13.4	6.06e-01	0	43	0	289406976	61	4766
2026-01-28 06:02:59.73	107.50	6.48	-44.9	-47.1	13.6	6.06e-01	0	43	0	304087040	61	4632
2026-01-28 06:03:00.75	107.39	6.56	-45.0	-47.2	13.5	6.06e-01	0	43	0	318767104	61	4699
2026-01-28 06:03:01.75	107.29	6.64	-44.9	-47.1	13.6	6.08e-01	0	43	0	333447168	61	4617
2026-01-28 06:03:02.76	107.19	6.72	-45.0	-47.2	13.5	6.05e-01	0	43	0	350224384	61	4673
2026-01-28 06:03:03.77	107.08	6.80	-45.0	-47.2	13.5	6.05e-01	0	43	0	364904448	61	4668
2026-01-28 06:03:04.78	106.98	6.88	-44.8	-47.0	13.7	6.07e-01	0	43	0	381681664	61	4564
2026-01-28 06:03:05.79	106.87	6.96	-44.8	-47.0	13.8	6.07e-01	0	43	0	398458880	61	4553
2026-01-28 06:03:06.79	106.77	7.04	-44.7	-46.8	13.9	6.08e-01	0	43	0	413138944	61	4464
2026-01-28 06:03:07.80	106.66	7.12	-44.8	-46.9	13.7	6.00e-01	0	43	0	427819008	61	4543
2026-01-28 06:03:08.81	106.55	7.21	-44.8	-47.0	13.7	6.00e-01	0	43	0	442499072	61	4577
2026-01-28 06:03:09.82	106.44	7.29	-44.7	-46.9	13.8	6.06e-01	0	43	0	459276288	61	4521
2026-01-28 06:03:10.82	106.33	7.37	-44.7	-46.8	13.9	6.07e-01	0	43	0	473956352	61	4485
2026-01-28 06:03:11.83	106.22	7.45	-44.7	-46.9	13.8	6.06e-01	0	43	0	488636416	61	4518
2026-01-28 06:03:12.84	106.11	7.53	-44.6	-46.7	14.0	6.05e-01	0	44	0	505413632	61	4425
2026-01-28 06:03:13.85	106.00	7.62	-44.6	-46.7	14.0	6.08e-01	0	43	0	520093696	60	4677
2026-01-28 06:03:14.85	105.89	7.70	-44.6	-46.7	14.0	6.08e-01	0	43	0	534773760	60	4697
2026-01-28 06:03:15.87	105.77	7.78	-44.5	-46.6	14.0	6.07e-01	0	43	0	551550976	60	4646
2026-01-28 06:03:16.87	105.66	7.87	-44.4	-46.6	14.1	6.07e-01	0	43	0	566231040	60	4606
2026-01-28 06:03:17.87	105.55	7.95	-44.4	-46.5	14.1	6.07e-01	0	43	0	583008256	60	4587
2026-01-28 06:03:18.88	105.43	8.03	-44.4	-46.6	14.1	6.07e-01	0	44	0	597688320	60	4616
2026-01-28 06:03:19.89	105.31	8.12	-44.3	-46.4	14.2	6.09e-01	0	44	0	614465536	60	4538
2026-01-28 06:03:20.89	105.20	8.20	-44.3	-46.5	14.2	6.07e-01	0	43	0	629145600	60	4567
2026-01-28 06:03:21.90	105.08	8.29	-44.3	-46.4	14.2	6.07e-01	0	43	0	643825664	60	4524
2026-01-28 06:03:22.90	104.96	8.37	-44.1	-46.3	14.4	6.03e-01	0	43	0	660602880	60	4453
2026-01-28 06:03:23.91	104.84	8.46	-44.3	-46.4	14.3	6.07e-01	0	43	0	675282944	60	4519
2026-01-28 06:03:24.92	104.72	8.54	-44.1	-46.2	14.4	6.06e-01	0	43	0	689963008	60	4437
2026-01-28 06:03:25.93	104.59	8.63	-44.1	-46.3	14.4	6.07e-01	0	43	0	706740224	60	4467
2026-01-28 06:03:26.93	104.47	8.71	-44.1	-46.3	14.4	6.06e-01	0	44	0	721420288	60	4458
2026-01-28 06:03:27.94	104.35	8.80	-44.1	-46.3	14.4	6.08e-01	0	43	0	736100352	59	4738
2026-01-28 06:03:28.94	104.22	8.89	-43.9	-46.1	14.6	6.01e-01	0	44	0	752877568	59	4612
2026-01-28 06:03:29.95	104.10	8.97	-43.9	-46.1	14.6	5.98e-01	0	43	0	767557632	59	4605
2026-01-28 06:03:30.97	103.97	9.06	-43.8	-46.0	14.7	5.99e-01	0	43	0	782237696	59	4547
2026-01-28 06:03:31.97	103.84	9.15	-43.9	-46.1	14.7	5.78e-01	0	43	0	799014912	59	4604
2026-01-28 06:03:32.98	103.71	9.24	-43.8	-46.0	14.8	5.79e-01	0	43	0	815792128	59	4547
2026-01-28 06:03:33.99	103.58	9.33	-43.7	-45.8	14.9	5.78e-01	0	43	0	830472192	59	4478
2026-01-28 06:03:35.00	103.45	9.42	-43.7	-45.9	14.9	5.78e-01	0	43	0	845152256	59	4507
2026-01-28 06:03:36.01	103.32	9.50	-43.7	-45.8	14.9	5.78e-01	0	43	0	861929472	59	4481
2026-01-28 06:03:37.02	103.19	9.59	-43.8	-45.9	14.9	5.79e-01	0	44	0	876609536	59	4517
2026-01-28 06:03:38.03	103.05	9.68	-43.8	-45.9	14.9	5.78e-01	0	43	0	891289600	59	4534
2026-01-28 06:03:39.03	102.92	9.77	-43.6	-45.7	15.0	5.78e-01	0	43	0	908066816	59	4392
2026-01-28 06:03:40.04	102.78	9.86	-43.5	-45.6	15.1	5.77e-01	0	43	0	922746880	59	4368
2026-01-28 06:03:41.04	102.65	9.95	-43.6	-45.7	15.0	5.79e-01	0	44	0	937426944	59	4420
2026-01-28 06:03:42.05	102.51	10.04	-43.6	-45.6	15.1	5.78e-01	0	44	0	954204160	59	4390
2026-01-28 06:03:43.05	102.37	10.13	-43.5	-45.6	15.1	5.79e-01	0	43	0	968884224	59	4385
2026-01-28 06:03:44.06	102.23	10.23	-43.4	-45.5	15.2	5.77e-01	0	43	0	983564288	58	4551
2026-01-28 06:03:45.07	102.09	10.32	-43.5	-45.6	15.2	5.78e-01	0	43	0	1000341504	58	4601
2026-01-28 06:03:46.07	101.95	10.41	-43.5	-45.6	15.1	5.79e-01	0	43	0	1017118720	58	4615
2026-01-28 06:03:47.08	101.80	10.50	-43.3	-45.4	15.3	5.78e-01	0	43	0	1031798784	58	4510
2026-01-28 06:03:48.09	101.66	10.60	-43.3	-45.4	15.3	5.78e-01	0	44	0	1046478848	58	4532
2026-01-28 06:03:49.10	101.51	10.69	-43.4	-45.5	15.3	5.79e-01	0	44	0	1063256064	58	4549
2026-01-28 06:03:50.10	101.36	10.78	-43.3	-45.4	15.3	5.78e-01	0	44	0	1077936128	58	4502
2026-01-28 06:03:51.11	101.21	10.87	-43.2	-45.3	15.4	5.78e-01	0	43	0	1092616192	58	4452
2026-01-28 06:03:52.12	101.06	10.97	-43.2	-45.3	15.4	5.78e-01	0	44	0	1109393408	58	4458
2026-01-28 06:03:53.12	100.92	11.06	-43.3	-45.3	15.4	5.78e-01	0	44	0	1124073472	58	4493
2026-01-28 06:03:54.13	100.76	11.16	-43.0	-45.0	15.6	5.78e-01	0	43	0	1138753536	58	4336
2026-01-28 06:03:55.14	100.61	11.25	-43.0	-45.1	15.6	5.78e-01	0	44	0	1155530752	57	4603
2026-01-28 06:03:56.15	100.45	11.35	-42.8	-44.9	15.7	5.78e-01	0	44	0	1170210816	57	4539
2026-01-28 06:03:57.16	100.30	11.44	-42.9	-45.0	15.7	5.78e-01	0	44	0	1184890880	57	4549
2026-01-28 06:03:58.17	100.14	11.54	-42.8	-44.9	15.7	5.78e-01	0	43	0	1201668096	57	4518
2026-01-28 06:03:59.17	99.98	11.64	-42.7	-44.7	15.8	5.77e-01	0	44	0	1216348160	57	4441
2026-01-28 06:04:00.18	99.82	11.73	-42.7	-44.8	15.8	5.78e-01	0	43	0	1233125376	57	4453
2026-01-28 06:04:01.19	99.66	11.83	-42.7	-44.7	15.9	5.78e-01	0	44	0	1247805440	57	4441
2026-01-28 06:04:02.20	99.50	11.93	-42.5	-44.5	16.1	5.78e-01	0	44	0	1264582656	57	4338
2026-01-28 06:04:03.21	99.34	12.02	-42.5	-44.6	16.0	5.77e-01	0	44	0	1279262720	56	4608
2026-01-28 06:04:04.21	99.17	12.12	-42.4	-44.5	16.1	5.77e-01	0	44	0	1293942784	56	4550
2026-01-28 06:04:05.22	99.01	12.22	-42.5	-44.5	16.1	5.78e-01	0	44	0	1310720000	56	4554
2026-01-28 06:04:06.23	98.84	12.32	-42.5	-44.5	16.1	5.78e-01	0	44	0	1325400064	56	4558
2026-01-28 06:04:07.24	98.67	12.42	-42.4	-44.3	16.3	5.78e-01	0	44	0	1340080128	56	4451
2026-01-28 06:04:08.25	98.50	12.52	-42.4	-44.3	16.3	5.78e-01	0	44	0	1356857344	56	4455
2026-01-28 06:04:09.25	98.33	12.61	-42.3	-44.1	16.4	5.78e-01	0	44	0	1371537408	56	4383
2026-01-28 06:04:10.26	98.16	12.71	-42.3	-44.2	16.3	5.79e-01	0	44	0	1386217472	56	4416
2026-01-28 06:04:11.27	97.98	12.81	-42.3	-44.1	16.4	5.78e-01	0	44	0	1402994688	56	4381
2026-01-28 06:04:12.28	97.80	12.91	-42.2	-44.1	16.5	5.77e-01	0	44	0	1419771904	56	4363
2026-01-28 06:04:13.29	97.63	13.02	-42.2	-44.1	16.5	5.78e-01	0	44	0	1434451968	56	4347
2026-01-28 06:04:14.29	97.45	13.12	-42.1	-44.0	16.6	5.77e-01	0	44	0	1449132032	55	4597
2026-01-28 06:04:15.30	97.27	13.22	-42.2	-44.1	16.6	5.79e-01	0	44	0	1465909248	55	4614
2026-01-28 06:04:16.31	97.08	13.32	-42.0	-44.0	16.7	5.79e-01	0	44	0	1480589312	55	4552
2026-01-28 06:04:17.32	96.90	13.42	-42.0	-43.9	16.8	5.78e-01	0	44	0	1495269376	55	4535
2026-01-28 06:04:18.32	96.72	13.52	-42.0	-44.0	16.7	5.78e-01	0	44	0	1512046592	55	4546
2026-01-28 06:04:19.33	96.53	13.63	-42.0	-44.0	16.7	5.78e-01	0	44	0	1526726656	55	4568
2026-01-28 06:04:20.34	96.34	13.73	-42.0	-43.9	16.7	5.78e-01	0	44	0	1541406720	55	4541
2026-01-28 06:04:21.34	96.15	13.83	-41.9	-43.8	16.8	5.78e-01	0	44	0	1556086784	55	4474
2026-01-28 06:04:22.35	95.96	13.93	-41.7	-43.7	17.0	5.78e-01	0	44	0	1572864000	55	4397
2026-01-28 06:04:23.35	95.77	14.04	-41.6	-43.5	17.1	5.78e-01	0	44	0	1587544064	55	4324
2026-01-28 06:04:24.36	95.57	14.14	-41.6	-43.5	17.1	5.79e-01	0	44	0	1602224128	55	4329
2026-01-28 06:04:25.37	95.38	14.25	-41.5	-43.5	17.1	5.78e-01	0	44	0	1619001344	55	4306
2026-01-28 06:04:26.37	95.18	14.35	-41.5	-43.4	17.1	5.78e-01	0	44	0	1633681408	54	4526
2026-01-28 06:04:27.38	94.98	14.45	-41.5	-43.4	17.2	5.79e-01	0	44	0	1650458624	54	4530
2026-01-28 06:04:28.39	94.78	14.56	-41.7	-43.6	17.0	5.78e-01	0	43	0	1665138688	54	4632
2026-01-28 06:04:29.39	94.58	14.66	-41.5	-43.4	17.1	5.78e-01	0	44	0	1681915904	54	4544
2026-01-28 06:04:30.40	94.37	14.77	-41.3	-43.2	17.3	5.78e-01	0	44	0	1696595968	54	4406
2026-01-28 06:04:31.41	94.16	14.88	-41.3	-43.2	17.3	5.78e-01	0	44	0	1711276032	54	4411
2026-01-28 06:04:32.42	93.96	14.98	-41.3	-43.2	17.2	5.78e-01	0	44	0	1728053248	54	4432
2026-01-28 06:04:33.42	93.75	15.09	-41.2	-43.1	17.4	5.78e-01	0	44	0	1742733312	54	4358
2026-01-28 06:04:34.43	93.53	15.20	-41.3	-43.2	17.3	5.78e-01	0	44	0	1757413376	54	4418
2026-01-28 06:04:35.44	93.32	15.30	-41.4	-43.3	17.3	5.78e-01	0	44	0	1774190592	54	4457
2026-01-28 06:04:36.45	93.10	15.41	-41.4	-43.2	17.3	5.78e-01	0	44	0	1788870656	54	4421
2026-01-28 06:04:37.45	92.89	15.52	-41.3	-43.1	17.4	5.78e-01	0	44	0	1803550720	54	4364
2026-01-28 06:04:38.46	92.67	15.63	-41.4	-43.2	17.3	5.77e-01	0	44	0	1820327936	54	4412
2026-01-28 06:04:39.47	92.45	15.73	-41.2	-43.1	17.5	5.78e-01	0	44	0	1835008000	54	4342
2026-01-28 06:04:40.47	92.22	15.84	-41.2	-43.1	17.5	5.78e-01	0	44	0	1851785216	54	4358
2026-01-28 06:04:41.48	92.00	15.95	-41.1	-42.9	17.6	5.78e-01	0	44	0	1866465280	54	4278
2026-01-28 06:04:42.49	91.77	16.06	-41.1	-42.9	17.4	6.04e-01	0	44	0	1883242496	54	4289
2026-01-28 06:04:43.50	91.54	16.17	-41.0	-42.9	17.5	6.02e-01	0	44	0	1897922560	54	4268
2026-01-28 06:04:44.51	91.31	16.28	-41.1	-43.0	17.4	6.00e-01	0	44	0	1912602624	54	4297
2026-01-28 06:04:45.51	91.08	16.39	-41.1	-43.0	17.4	6.00e-01	0	44	0	1929379840	54	4332
2026-01-28 06:04:46.52	90.84	16.50	-41.1	-43.1	17.4	5.98e-01	0	44	0	1944059904	54	4344
2026-01-28 06:04:47.53	90.60	16.61	-40.9	-42.9	17.4	5.97e-01	0	44	0	1958739968	53	4521
2026-01-28 06:04:48.53	90.37	16.72	-40.9	-42.8	17.5	5.98e-01	0	44	0	1975517184	53	4483
2026-01-28 06:04:49.54	90.12	16.83	-40.8	-42.7	17.7	5.96e-01	0	44	0	1990197248	53	4435
2026-01-28 06:04:50.55	89.88	16.94	-40.7	-42.6	17.7	5.99e-01	0	44	0	2004877312	53	4370
2026-01-28 06:04:51.55	89.64	17.05	-40.7	-42.6	17.8	6.02e-01	0	44	0	2021654528	53	4366
2026-01-28 06:04:52.56	89.39	17.16	-40.7	-42.6	17.7	6.02e-01	0	44	0	2036334592	53	4360
2026-01-28 06:04:53.57	89.14	17.27	-40.5	-42.4	17.8	5.99e-01	0	44	0	2051014656	53	4268
2026-01-28 06:04:54.58	88.89	17.38	-40.6	-42.4	17.9	6.01e-01	0	44	0	2067791872	53	4277
2026-01-28 06:04:55.59	88.63	17.49	-40.6	-42.4	17.8	6.03e-01	0	44	0	2084569088	53	4283
2026-01-28 06:04:56.59	88.38	17.60	-40.6	-42.4	17.9	6.01e-01	0	44	0	2099249152	53	4257
2026-01-28 06:04:57.60	88.12	17.71	-40.7	-42.5	17.8	6.02e-01	0	44	0	2113929216	53	4312
2026-01-28 06:04:58.61	87.85	17.83	-40.6	-42.4	17.8	6.02e-01	0	44	0	2130706432	53	4291
2026-01-28 06:04:59.61	87.59	17.94	-40.4	-42.3	18.0	5.97e-01	0	44	0	2145386496	52	4445
2026-01-28 06:05:00.62	87.33	18.05	-40.5	-42.4	17.9	5.96e-01	0	44	0	2160066560	52	4515
2026-01-28 06:05:01.63	87.06	18.16	-40.6	-42.5	17.8	6.00e-01	0	44	0	2176843776	52	4551
2026-01-28 06:05:02.64	86.79	18.27	-40.7	-42.6	17.7	6.02e-01	0	44	0	2191523840	52	4625
2026-01-28 06:05:03.65	86.51	18.39	-40.7	-42.5	17.7	6.01e-01	0	44	0	2206203904	52	4593
2026-01-28 06:05:04.66	86.24	18.50	-40.6	-42.4	17.9	6.02e-01	0	44	0	2222981120	52	4526
2026-01-28 06:05:05.67	85.96	18.61	-40.6	-42.4	17.9	6.00e-01	0	44	0	2237661184	52	4530
2026-01-28 06:05:06.67	85.68	18.72	-40.6	-42.5	17.9	6.01e-01	0	44	0	2254438400	52	4559
2026-01-28 06:05:07.68	85.40	18.83	-40.4	-42.3	17.9	6.01e-01	0	44	0	2269118464	52	4471
2026-01-28 06:05:08.69	85.12	18.95	-40.4	-42.4	18.0	6.01e-01	0	44	0	2285895680	52	4495
2026-01-28 06:05:09.70	84.83	19.06	-40.4	-42.3	18.0	6.01e-01	0	44	0	2300575744	52	4467
2026-01-28 06:05:10.71	84.54	19.17	-40.3	-42.2	18.0	5.99e-01	0	44	0	2315255808	52	4416
2026-01-28 06:05:11.71	84.25	19.28	-40.2	-42.1	18.1	6.02e-01	0	44	0	2332033024	52	4388
2026-01-28 06:05:12.72	83.95	19.40	-40.0	-42.0	18.2	6.01e-01	0	44	0	2346713088	52	4314
2026-01-28 06:05:13.73	83.66	19.51	-40.1	-42.1	18.1	6.00e-01	0	44	0	2361393152	52	4346
2026-01-28 06:05:14.74	83.36	19.62	-40.0	-41.9	18.3	6.01e-01	0	44	0	2378170368	52	4288
2026-01-28 06:05:15.74	83.06	19.73	-40.1	-42.0	18.3	6.00e-01	0	44	0	2392850432	51	4566
2026-01-28 06:05:16.75	82.75	19.84	-40.1	-42.0	18.2	5.97e-01	0	44	0	2407530496	51	4594
2026-01-28 06:05:17.75	82.45	19.95	-40.1	-41.9	18.3	6.04e-01	0	44	0	2424307712	51	4544
2026-01-28 06:05:18.76	82.14	20.06	-40.1	-42.0	18.3	5.99e-01	0	44	0	2438987776	51	4557
2026-01-28 06:05:19.77	81.82	20.18	-40.0	-41.9	18.4	6.00e-01	0	44	0	2453667840	51	4498
2026-01-28 06:05:20.78	81.51	20.29	-40.0	-41.8	18.4	6.02e-01	0	44	0	2470445056	51	4455
2026-01-28 06:05:21.79	81.19	20.40	-40.1	-41.9	18.3	6.00e-01	0	44	0	2487222272	51	4513
2026-01-28 06:05:22.80	80.87	20.51	-39.9	-41.7	18.5	6.01e-01	0	44	0	2501902336	51	4418
2026-01-28 06:05:23.81	80.54	20.62	-40.1	-41.9	18.4	6.01e-01	0	44	0	2516582400	51	4530
2026-01-28 06:05:24.82	80.22	20.73	-40.2	-42.0	18.3	6.02e-01	0	44	0	2533359616	51	4568
2026-01-28 06:05:25.83	79.89	20.84	-40.2	-42.0	18.4	6.00e-01	0	44	0	2548039680	51	4558
2026-01-28 06:05:26.83	79.56	20.95	-40.2	-42.0	18.3	6.01e-01	0	44	0	2562719744	51	4577
2026-01-28 06:05:27.84	79.23	21.06	-40.3	-42.1	18.2	6.01e-01	0	44	0	2579496960	51	4640
2026-01-28 06:05:28.85	78.89	21.17	-40.2	-42.1	18.2	6.02e-01	0	44	0	2594177024	51	4613
2026-01-28 06:05:29.85	78.55	21.28	-40.2	-42.1	18.2	6.01e-01	0	44	0	2608857088	51	4619
2026-01-28 06:05:30.86	78.21	21.38	-40.0	-42.0	18.2	6.02e-01	0	44	0	2625634304	51	4589
2026-01-28 06:05:31.87	77.87	21.49	-40.0	-42.0	18.3	5.99e-01	0	44	0	2640314368	51	4569
2026-01-28 06:05:32.88	77.52	21.60	-39.9	-41.9	18.4	6.04e-01	0	44	0	2657091584	51	4529
2026-01-28 06:05:33.89	77.17	21.71	-39.8	-41.8	18.5	6.02e-01	0	44	0	2671771648	51	4448
2026-01-28 06:05:34.89	76.82	21.81	-39.9	-41.9	18.4	6.00e-01	0	44	0	2688548864	51	4535
2026-01-28 06:05:35.90	76.46	21.92	-39.8	-41.8	18.4	6.01e-01	0	44	0	2703228928	51	4456
2026-01-28 06:05:36.90	76.11	22.02	-39.9	-41.8	18.5	5.99e-01	0	44	0	2717908992	51	4445
2026-01-28 06:05:37.91	75.74	22.13	-39.8	-41.7	18.6	6.00e-01	0	44	0	2734686208	51	4414
2026-01-28 06:05:38.92	75.38	22.23	-39.9	-41.7	18.5	5.99e-01	0	44	0	2749366272	51	4439
2026-01-28 06:05:39.93	75.01	22.34	-39.9	-41.7	18.5	6.00e-01	0	44	0	2764046336	51	4439
2026-01-28 06:05:40.94	74.64	22.44	-39.9	-41.7	18.5	6.01e-01	0	44	0	2780823552	51	4439
2026-01-28 06:05:41.94	74.27	22.54	-40.0	-41.9	18.4	5.99e-01	0	44	0	2795503616	51	4542
2026-01-28 06:05:42.95	73.90	22.64	-40.1	-42.1	18.2	5.99e-01	0	44	0	2810183680	51	4633
2026-01-28 06:05:43.96	73.52	22.75	-40.1	-42.1	18.3	5.97e-01	0	44	0	2824863744	51	4626
2026-01-28 06:05:44.97	73.14	22.85	-40.1	-42.1	18.3	5.99e-01	0	44	0	2841640960	51	4614
2026-01-28 06:05:45.97	72.76	22.95	-40.1	-42.1	18.2	5.98e-01	0	44	0	2858418176	51	4630
2026-01-28 06:05:46.98	72.37	23.04	-40.0	-42.0	18.4	5.99e-01	0	44	0	2873098240	51	4573
2026-01-28 06:05:47.99	71.98	23.14	-40.1	-42.1	18.3	6.02e-01	0	44	0	2889875456	51	4600
2026-01-28 06:05:49.00	71.59	23.24	-39.9	-41.9	18.4	6.00e-01	0	44	0	2904555520	51	4516
2026-01-28 06:05:50.01	71.19	23.34	-39.9	-41.9	18.4	6.01e-01	0	44	0	2919235584	51	4526
2026-01-28 06:05:51.02	70.80	23.43	-40.0	-42.0	18.4	5.99e-01	0	44	0	2933915648	51	4550
2026-01-28 06:05:52.03	70.39	23.53	-39.9	-41.9	18.4	6.01e-01	0	44	0	2950692864	51	4531
2026-01-28 06:05:53.03	70.00	23.62	-39.9	-41.9	18.4	5.99e-01	0	44	0	2965372928	51	4533
2026-01-28 06:05:54.04	69.59	23.71	-39.9	-42.0	18.3	5.96e-01	0	44	0	2980052992	51	4552
2026-01-28 06:05:55.05	69.18	23.80	-40.1	-42.1	18.3	6.01e-01	0	44	0	2996830208	51	4604
2026-01-28 06:05:56.06	68.77	23.90	-40.1	-42.2	18.3	5.99e-01	0	44	0	3011510272	51	4653
2026-01-28 06:05:57.07	68.36	23.99	-40.1	-42.1	18.3	6.00e-01	0	44	0	3026190336	51	4636
2026-01-28 06:05:58.07	67.94	24.07	-40.2	-42.1	18.2	6.01e-01	0	44	0	3042967552	51	4642
2026-01-28 06:05:59.08	67.52	24.16	-40.1	-42.0	18.4	6.01e-01	0	44	0	3059744768	51	4577
2026-01-28 06:06:00.09	67.10	24.25	-40.1	-42.0	18.4	6.00e-01	0	44	0	3074424832	51	4559
2026-01-28 06:06:01.09	66.68	24.33	-39.9	-41.8	18.5	5.98e-01	0	44	0	3089104896	51	4449
2026-01-28 06:06:02.10	66.25	24.42	-39.8	-41.7	18.6	6.00e-01	0	44	0	3105882112	51	4397
2026-01-28 06:06:03.11	65.83	24.50	-40.0	-41.9	18.4	6.02e-01	0	44	0	3120562176	51	4537
2026-01-28 06:06:04.12	65.39	24.58	-39.9	-42.0	18.4	6.00e-01	0	44	0	3135242240	51	4585
2026-01-28 06:06:05.13	64.96	24.66	-40.1	-42.1	18.2	6.01e-01	0	44	0	3152019456	51	4646
2026-01-28 06:06:06.14	64.52	24.74	-39.9	-42.1	18.2	6.00e-01	0	44	0	3166699520	51	4599
2026-01-28 06:06:07.14	64.09	24.81	-40.0	-42.0	18.3	6.02e-01	0	44	0	3181379584	51	4597
2026-01-28 06:06:08.15	63.65	24.89	-39.9	-41.9	18.4	6.01e-01	0	44	0	3198156800	51	4522
2026-01-28 06:06:09.15	63.21	24.96	-40.0	-41.9	18.4	6.00e-01	0	44	0	3212836864	51	4534
2026-01-28 06:06:10.15	62.76	25.04	-39.9	-41.9	18.4	6.01e-01	0	44	0	3227516928	51	4502
2026-01-28 06:06:11.16	62.32	25.11	-39.9	-41.9	18.5	6.02e-01	0	44	0	3244294144	51	4497
2026-01-28 06:06:12.17	61.86	25.18	-40.0	-41.9	18.4	5.99e-01	0	44	0	3261071360	51	4544
2026-01-28 06:06:13.18	61.41	25.25	-40.1	-42.1	18.3	5.99e-01	0	44	0	3275751424	51	4604
2026-01-28 06:06:14.19	60.96	25.31	-40.2	-42.2	18.2	6.00e-01	0	44	0	3290431488	51	4684
2026-01-28 06:06:15.20	60.50	25.38	-40.1	-42.2	18.3	6.01e-01	0	44	0	3307208704	51	4658
2026-01-28 06:06:16.21	60.04	25.44	-40.2	-42.2	18.2	6.03e-01	0	44	0	3321888768	51	4705
2026-01-28 06:06:17.22	59.58	25.50	-40.1	-42.2	18.3	6.01e-01	0	44	0	3336568832	51	4657
2026-01-28 06:06:18.22	59.12	25.56	-40.2	-42.3	18.1	6.05e-01	0	44	0	3353346048	51	4736
2026-01-28 06:06:19.23	58.65	25.62	-40.2	-42.2	18.2	6.01e-01	0	44	0	3368026112	51	4697
2026-01-28 06:06:20.24	58.19	25.68	-40.1	-42.2	18.3	6.02e-01	0	44	0	3382706176	51	4655
2026-01-28 06:06:21.25	57.72	25.73	-40.0	-42.0	18.4	6.01e-01	0	44	0	3399483392	51	4582
2026-01-28 06:06:22.26	57.25	25.79	-40.1	-42.1	18.3	6.01e-01	0	44	0	3414163456	51	4628
2026-01-28 06:06:23.26	56.78	25.84	-40.2	-42.3	18.2	6.00e-01	0	44	0	3428843520	51	4726
2026-01-28 06:06:24.27	56.31	25.89	-40.4	-42.5	18.0	5.96e-01	0	44	0	3445620736	51	4859
2026-01-28 06:06:25.27	55.83	25.94	-40.5	-42.7	17.9	5.99e-01	0	44	0	3462397952	51	4936
2026-01-28 06:06:26.28	55.36	25.98	-40.5	-42.5	18.0	6.01e-01	0	44	0	3477078016	51	4868
2026-01-28 06:06:27.29	54.88	26.03	-40.4	-42.4	18.1	6.02e-01	0	44	0	3491758080	51	4808
2026-01-28 06:06:28.30	54.40	26.07	-40.4	-42.5	18.0	5.98e-01	0	44	0	3508535296	51	4817
2026-01-28 06:06:29.31	53.92	26.11	-40.4	-42.5	18.0	5.99e-01	0	44	0	3523215360	51	4864
2026-01-28 06:06:30.31	53.44	26.15	-40.3	-42.5	18.0	6.01e-01	0	44	0	3537895424	51	4866
2026-01-28 06:06:31.32	52.95	26.18	-40.4	-42.5	18.0	6.01e-01	0	43	0	3554672640	51	4869
2026-01-28 06:06:32.32	52.47	26.22	-40.4	-42.5	18.0	6.01e-01	0	44	0	3569352704	51	4861
2026-01-28 06:06:33.33	51.99	26.25	-40.4	-42.7	17.9	6.04e-01	0	44	0	3584032768	51	4934
2026-01-28 06:06:34.33	51.50	26.28	-40.5	-42.8	17.7	6.01e-01	0	44	0	3600809984	51	5000
2026-01-28 06:06:35.34	51.02	26.31	-40.5	-42.9	17.7	5.99e-01	0	44	0	3615490048	51	5047
2026-01-28 06:06:36.35	50.53	26.33	-40.5	-42.7	17.8	5.98e-01	0	44	0	3630170112	51	4982
2026-01-28 06:06:37.36	50.04	26.36	-40.5	-42.7	17.9	6.02e-01	0	44	0	3646947328	51	4965
2026-01-28 06:06:38.37	49.55	26.38	-40.5	-42.7	17.9	6.01e-01	0	44	0	3661627392	51	4927
2026-01-28 06:06:39.37	49.06	26.40	-40.5	-42.8	17.8	5.99e-01	0	44	0	3678404608	51	5007
2026-01-28 06:06:40.38	48.57	26.42	-40.7	-43.1	17.6	6.01e-01	0	44	0	3693084672	52	4881
2026-01-28 06:06:41.39	48.07	26.43	-40.8	-43.3	17.3	6.00e-01	0	44	0	3709861888	52	5027
2026-01-28 06:06:42.40	47.58	26.44	-40.9	-43.4	17.4	6.00e-01	0	44	0	3724541952	52	5064
2026-01-28 06:06:43.41	47.09	26.46	-41.1	-43.5	17.2	6.02e-01	0	44	0	3739222016	52	5130
2026-01-28 06:06:44.42	46.59	26.46	-40.9	-43.3	17.3	6.00e-01	0	44	0	3755999232	52	5023
2026-01-28 06:06:45.43	46.10	26.47	-40.9	-43.3	17.4	6.00e-01	0	44	0	3770679296	52	4995
2026-01-28 06:06:46.43	45.61	26.48	-40.9	-43.3	17.3	6.01e-01	0	44	0	3785359360	52	5031
2026-01-28 06:06:47.44	45.11	26.48	-40.8	-43.3	17.3	6.02e-01	0	44	0	3802136576	52	5033
2026-01-28 06:06:48.45	44.62	26.48	-40.9	-43.3	17.3	6.03e-01	0	44	0	3816816640	52	5035
2026-01-28 06:06:49.46	44.12	26.48	-40.9	-43.3	17.4	5.99e-01	0	44	0	3831496704	52	5025
2026-01-28 06:06:50.47	43.63	26.47	-40.9	-43.4	17.3	6.01e-01	0	44	0	3848273920	52	5047
2026-01-28 06:06:51.47	43.14	26.47	-40.9	-43.3	17.4	6.00e-01	0	44	0	3865051136	52	5030
2026-01-28 06:06:52.48	42.65	26.46	-40.9	-43.3	17.3	6.00e-01	0	44	0	3879731200	52	5033
2026-01-28 06:06:53.49	42.15	26.45	-40.8	-43.3	17.3	6.01e-01	0	44	0	3894411264	52	5033
2026-01-28 06:06:54.49	41.66	26.44	-40.9	-43.5	17.2	6.01e-01	0	44	0	3911188480	52	5136
2026-01-28 06:06:55.50	41.17	26.42	-40.9	-43.5	17.2	6.00e-01	0	44	0	3925868544	52	5139
2026-01-28 06:06:56.50	40.68	26.41	-41.1	-43.6	17.2	6.00e-01	0	44	0	3940548608	52	5165
2026-01-28 06:06:57.51	40.19	26.39	-41.0	-43.4	17.2	5.99e-01	0	44	0	3957325824	52	5087
2026-01-28 06:06:58.52	39.70	26.37	-40.9	-43.2	17.4	6.00e-01	0	44	0	3972005888	52	4983
2026-01-28 06:06:59.53	39.21	26.35	-40.9	-43.3	17.4	6.01e-01	0	44	0	3986685952	52	5015
2026-01-28 06:07:00.53	38.72	26.32	-41.0	-43.4	17.3	6.00e-01	0	44	0	4003463168	52	5092
2026-01-28 06:07:01.54	38.24	26.29	-40.9	-43.4	17.3	5.99e-01	0	44	0	4018143232	52	5054
2026-01-28 06:07:02.54	37.75	26.26	-40.8	-43.3	17.3	6.01e-01	0	44	0	4032823296	52	4985
2026-01-28 06:07:03.55	37.27	26.23	-40.8	-43.2	17.4	6.03e-01	0	44	0	4047503360	52	4937
2026-01-28 06:07:04.56	36.78	26.20	-40.7	-43.0	17.5	6.01e-01	0	44	0	4064280576	52	4859
2026-01-28 06:07:05.57	36.30	26.17	-40.8	-43.2	17.4	5.98e-01	0	44	0	4078960640	52	4935
2026-01-28 06:07:06.57	35.82	26.13	-40.9	-43.4	17.3	6.02e-01	0	44	0	4095737856	52	5049
2026-01-28 06:07:07.58	35.34	26.09	-41.2	-43.5	17.2	5.98e-01	0	44	0	4112515072	52	5155
2026-01-28 06:07:08.59	34.86	26.05	-41.1	-43.5	17.2	5.99e-01	0	44	0	4127195136	53	4836
2026-01-28 06:07:09.60	34.38	26.01	-41.2	-43.6	17.2	6.00e-01	0	44	0	4141875200	53	4874
2026-01-28 06:07:10.60	33.90	25.96	-41.0	-43.4	17.3	6.01e-01	0	44	0	4156555264	53	4777
2026-01-28 06:07:11.61	33.43	25.91	-41.0	-43.3	17.4	6.00e-01	0	44	0	4173332480	53	4756
2026-01-28 06:07:12.62	32.95	25.87	-41.0	-43.3	17.4	6.00e-01	0	44	0	4188012544	53	4759
2026-01-28 06:07:13.62	32.49	25.82	-41.0	-43.3	17.4	5.99e-01	0	44	0	4202692608	53	4722
2026-01-28 06:07:14.63	32.01	25.76	-41.1	-43.4	17.3	5.99e-01	0	44	0	4219469824	53	4770
2026-01-28 06:07:15.64	31.54	25.71	-41.2	-43.5	17.2	5.98e-01	0	44	0	4234149888	53	4851
2026-01-28 06:07:16.65	31.08	25.65	-41.1	-43.4	17.3	6.00e-01	0	44	0	4248829952	53	4803
2026-01-28 06:07:17.65	30.62	25.60	-41.1	-43.4	17.4	5.97e-01	0	44	0	4265607168	53	4771
2026-01-28 06:07:18.66	30.15	25.54	-41.1	-43.3	17.3	6.02e-01	0	44	0	4280287232	53	4749
2026-01-28 06:07:19.66	29.70	25.48	-40.8	-43.0	17.5	5.97e-01	0	44	0	4294967296	53	4588
2026-01-28 06:07:20.67	29.24	25.41	-40.8	-43.0	17.5	6.01e-01	0	44	0	4311744512	53	4577
2026-01-28 06:07:21.68	28.78	25.35	-40.8	-43.1	17.6	6.00e-01	0	44	0	4328521728	53	4614
2026-01-28 06:07:22.68	28.33	25.28	-40.8	-43.1	17.6	6.01e-01	0	44	0	4343201792	53	4604
2026-01-28 06:07:23.69	27.87	25.22	-40.8	-43.1	17.6	6.01e-01	0	44	0	4357881856	53	4611
2026-01-28 06:07:24.70	27.42	25.15	-40.6	-42.9	17.6	6.00e-01	0	44	0	4374659072	53	4528
2026-01-28 06:07:25.70	26.98	25.08	-40.6	-42.9	17.7	5.99e-01	0	44	0	4389339136	53	4521
2026-01-28 06:07:26.71	26.53	25.01	-40.6	-42.9	17.7	6.02e-01	0	44	0	4404019200	53	4534
2026-01-28 06:07:27.72	26.09	24.93	-40.7	-42.9	17.6	6.01e-01	0	44	0	4420796416	53	4531
2026-01-28 06:07:28.72	25.65	24.86	-40.7	-43.0	17.6	6.00e-01	0	44	0	4435476480	53	4556
2026-01-28 06:07:29.73	25.21	24.78	-40.8	-43.1	17.5	6.00e-01	0	44	0	4450156544	53	4644
2026-01-28 06:07:30.74	24.77	24.70	-40.9	-43.3	17.3	6.01e-01	0	44	0	4466933760	53	4735
2026-01-28 06:07:31.74	24.34	24.63	-40.9	-43.3	17.4	6.03e-01	0	44	0	4481613824	53	4732
2026-01-28 06:07:32.75	23.91	24.55	-41.0	-43.3	17.3	6.00e-01	0	44	0	4496293888	53	4723
2026-01-28 06:07:33.76	23.48	24.46	-41.0	-43.2	17.4	6.00e-01	0	44	0	4513071104	53	4676
2026-01-28 06:07:34.76	23.06	24.38	-40.9	-43.0	17.6	6.02e-01	0	44	0	4527751168	53	4571
2026-01-28 06:07:35.77	22.63	24.30	-40.9	-43.1	17.6	6.00e-01	0	44	0	4542431232	53	4610
2026-01-28 06:07:36.77	22.21	24.21	-40.8	-43.1	17.5	6.00e-01	0	44	0	4559208448	53	4608
2026-01-28 06:07:37.78	21.79	24.13	-41.0	-43.3	17.4	6.02e-01	0	44	0	4575985664	53	4719
2026-01-28 06:07:38.79	21.38	24.04	-41.0	-43.4	17.2	6.02e-01	0	44	0	4590665728	53	4780
2026-01-28 06:07:39.79	20.97	23.95	-41.1	-43.5	17.2	6.00e-01	0	44	0	4605345792	53	4828
2026-01-28 06:07:40.80	20.55	23.86	-41.2	-43.6	17.2	6.00e-01	0	44	0	4622123008	53	4871
2026-01-28 06:07:41.80	20.15	23.77	-41.0	-43.3	17.3	6.01e-01	0	44	0	4636803072	53	4755
2026-01-28 06:07:42.81	19.74	23.68	-41.1	-43.3	17.3	6.03e-01	0	44	0	4651483136	53	4755
2026-01-28 06:07:43.82	19.34	23.59	-41.0	-43.3	17.3	6.01e-01	0	44	0	4668260352	53	4719
2026-01-28 06:07:44.83	18.94	23.49	-41.0	-43.3	17.4	6.02e-01	0	44	0	4682940416	53	4706
2026-01-28 06:07:45.84	18.54	23.40	-41.1	-43.3	17.3	6.03e-01	0	44	0	4697620480	53	4747
2026-01-28 06:07:46.84	18.15	23.30	-41.0	-43.2	17.4	6.02e-01	0	43	0	4714397696	53	4656
2026-01-28 06:07:47.85	17.75	23.21	-41.1	-43.4	17.3	6.02e-01	0	44	0	4729077760	53	4771
2026-01-28 06:07:48.86	17.36	23.11	-41.2	-43.4	17.2	6.01e-01	0	44	0	4743757824	53	4807
2026-01-28 06:07:49.86	16.98	23.01	-41.0	-43.3	17.3	6.01e-01	0	44	0	4760535040	53	4730
2026-01-28 06:07:50.87	16.60	22.91	-40.9	-43.2	17.4	6.02e-01	0	44	0	4775215104	53	4686
2026-01-28 06:07:51.88	16.21	22.81	-40.9	-43.1	17.5	6.02e-01	0	44	0	4791992320	53	4649
2026-01-28 06:07:52.88	15.84	22.71	-40.7	-42.9	17.6	6.04e-01	0	44	0	4806672384	53	4535
2026-01-28 06:07:53.88	15.47	22.61	-40.7	-42.9	17.6	6.04e-01	0	44	0	4823449600	53	4538
2026-01-28 06:07:54.89	15.09	22.51	-40.8	-43.1	17.5	6.04e-01	0	44	0	4838129664	53	4613
2026-01-28 06:07:55.89	14.73	22.41	-40.9	-43.2	17.5	6.03e-01	0	44	0	4852809728	53	4661
2026-01-28 06:07:56.90	14.36	22.30	-40.8	-43.0	17.5	6.03e-01	0	44	0	4869586944	53	4593
2026-01-28 06:07:57.91	13.99	22.20	-40.9	-43.2	17.4	6.02e-01	0	44	0	4884267008	53	4658
2026-01-28 06:07:58.91	13.63	22.10	-40.9	-43.1	17.5	6.01e-01	0	44	0	4898947072	53	4623
2026-01-28 06:07:59.92	13.27	21.99	-40.9	-43.1	17.5	6.02e-01	0	44	0	4915724288	53	4639
2026-01-28 06:08:00.93	12.92	21.89	-40.9	-43.1	17.4	6.02e-01	0	44	0	4930404352	53	4637
2026-01-28 06:08:01.93	12.57	21.78	-40.8	-43.0	17.5	6.05e-01	0	44	0	4945084416	53	4577
2026-01-28 06:08:02.94	12.22	21.68	-41.0	-43.1	17.4	6.02e-01	0	44	0	4961861632	53	4633
2026-01-28 06:08:03.95	11.87	21.57	-40.9	-43.1	17.5	5.98e-01	0	44	0	4976541696	53	4615
2026-01-28 06:08:04.96	11.52	21.46	-41.0	-43.1	17.5	6.02e-01	0	44	0	4991221760	53	4642
2026-01-28 06:08:05.97	11.18	21.35	-40.9	-43.1	17.5	6.02e-01	0	44	0	5007998976	53	4605
2026-01-28 06:08:06.97	10.84	21.25	-40.9	-43.1	17.5	6.01e-01	0	44	0	5022679040	53	4607
2026-01-28 06:08:07.98	10.50	21.14	-40.9	-43.1	17.4	6.02e-01	0	44	0	5039456256	53	4637
2026-01-28 06:08:08.99	10.17	21.03	-40.9	-43.1	17.5	6.02e-01	0	44	0	5054136320	53	4623
2026-01-28 06:08:10.00	9.84	20.92	-41.0	-43.2	17.4	6.02e-01	0	44	0	5070913536	53	4672
2026-01-28 06:08:11.01	9.51	20.81	-41.0	-43.2	17.4	6.01e-01	0	44	0	5085593600	53	4660
2026-01-28 06:08:12.01	9.18	20.70	-41.0	-43.2	17.3	6.03e-01	0	44	0	5100273664	53	4705
2026-01-28 06:08:13.02	8.86	20.59	-41.1	-43.4	17.2	6.01e-01	0	44	0	5117050880	53	4774
2026-01-28 06:08:14.02	8.54	20.48	-40.9	-43.2	17.3	6.02e-01	0	44	0	5131730944	53	4683
2026-01-28 06:08:15.03	8.22	20.37	-41.0	-43.2	17.3	6.02e-01	0	44	0	5146411008	53	4697
2026-01-28 06:08:16.03	7.91	20.26	-41.0	-43.3	17.3	6.02e-01	0	44	0	5161091072	53	4707
2026-01-28 06:08:17.04	7.60	20.15	-40.9	-43.2	17.3	6.04e-01	0	44	0	5177868288	53	4655
2026-01-28 06:08:18.05	7.28	20.04	-40.9	-43.1	17.4	6.02e-01	0	44	0	5192548352	53	4648
2026-01-28 06:08:19.06	6.98	19.93	-40.9	-43.1	17.4	5.99e-01	0	44	0	5207228416	53	4639
2026-01-28 06:08:20.06	6.67	19.82	-40.9	-43.2	17.4	6.02e-01	0	44	0	5224005632	53	4654
2026-01-28 06:08:21.07	6.37	19.71	-41.0	-43.2	17.4	6.01e-01	0	44	0	5238685696	53	4654
2026-01-28 06:08:22.07	6.07	19.60	-41.0	-43.2	17.4	6.02e-01	0	44	0	5253365760	53	4660
2026-01-28 06:08:23.08	5.77	19.48	-41.0	-43.2	17.3	6.01e-01	0	44	0	5270142976	53	4674
2026-01-28 06:08:24.09	5.48	19.37	-41.1	-43.3	17.2	6.01e-01	0	43	0	5286920192	53	4747
2026-01-28 06:08:25.09	5.19	19.26	-41.1	-43.4	17.2	6.01e-01	0	44	0	5301600256	53	4774
2026-01-28 06:08:26.10	4.90	19.15	-41.1	-43.3	17.3	6.02e-01	0	44	0	5316280320	53	4717
2026-01-28 06:08:27.11	4.61	19.04	-41.1	-43.3	17.3	6.01e-01	0	44	0	5333057536	53	4724
2026-01-28 06:08:28.12	4.32	18.93	-41.2	-43.4	17.2	6.02e-01	0	44	0	5347737600	53	4799
2026-01-28 06:08:29.12	4.04	18.81	-41.2	-43.3	17.2	6.01e-01	0	44	0	5362417664	53	4751
2026-01-28 06:08:30.13	3.76	18.70	-41.1	-43.3	17.3	6.01e-01	0	44	0	5379194880	53	4723
2026-01-28 06:08:31.13	3.49	18.59	-41.2	-43.4	17.2	6.01e-01	0	44	0	5393874944	53	4762
2026-01-28 06:08:32.14	3.21	18.48	-41.2	-43.4	17.2	6.03e-01	0	44	0	5408555008	53	4802
2026-01-28 06:08:33.15	2.94	18.37	-41.3	-43.5	17.1	6.01e-01	0	44	0	5425332224	53	4870
2026-01-28 06:08:34.16	2.67	18.26	-41.3	-43.5	17.1	5.95e-01	0	44	0	5440012288	53	4867
2026-01-28 06:08:35.17	2.40	18.14	-41.5	-43.7	17.0	5.98e-01	0	44	0	5454692352	53	4961
2026-01-28 06:08:36.17	2.13	18.03	-41.4	-43.5	17.0	5.97e-01	0	44	0	5471469568	53	4862
2026-01-28 06:08:37.18	1.87	17.92	-41.4	-43.6	17.1	6.02e-01	0	44	0	5488246784	53	4873
2026-01-28 06:08:38.19	1.61	17.81	-41.4	-43.6	17.0	6.00e-01	0	44	0	5502926848	53	4913
2026-01-28 06:08:39.20	1.35	17.70	-41.4	-43.6	16.9	6.01e-01	0	44	0	5517606912	53	4904
2026-01-28 06:08:40.20	1.09	17.59	-41.4	-43.6	16.9	6.02e-01	0	44	0	5534384128	53	4902
2026-01-28 06:08:41.21	0.84	17.48	-41.5	-43.7	16.9	6.02e-01	0	44	0	5549064192	53	4981
2026-01-28 06:08:42.22	0.58	17.37	-41.5	-43.7	16.9	6.01e-01	0	43	0	5563744256	53	4960
2026-01-28 06:08:43.23	0.33	17.26	-41.5	-43.8	16.8	6.01e-01	0	44	0	5580521472	53	4985
2026-01-28 06:08:44.24	0.08	17.15	-41.6	-43.8	16.8	5.98e-01	0	44	0	5595201536	53	5023
2026-01-28 06:08:45.24	359.84	17.04	-41.6	-43.9	16.8	6.01e-01	0	44	0	5609881600	53	5046
2026-01-28 06:08:46.25	359.59	16.93	-41.6	-43.8	16.8	6.01e-01	0	44	0	5626658816	53	5004
2026-01-28 06:08:47.26	359.35	16.82	-41.6	-43.9	16.8	6.03e-01	0	44	0	5641338880	53	5043
2026-01-28 06:08:48.26	359.11	16.71	-41.7	-43.9	16.7	6.02e-01	0	44	0	5656018944	53	5083
2026-01-28 06:08:49.27	358.88	16.60	-41.6	-43.9	16.8	5.79e-01	0	44	0	5672796160	53	5070
2026-01-28 06:08:50.28	358.64	16.49	-41.7	-44.0	16.6	5.79e-01	0	44	0	5689573376	53	5151
2026-01-28 06:08:51.29	358.41	16.38	-41.7	-44.1	16.7	5.78e-01	0	44	0	5704253440	54	4872
2026-01-28 06:08:52.29	358.18	16.27	-41.8	-44.2	16.6	5.80e-01	0	44	0	5718933504	54	4931
2026-01-28 06:08:53.30	357.95	16.16	-41.8	-44.1	16.6	5.78e-01	0	44	0	5735710720	54	4915
2026-01-28 06:08:54.31	357.72	16.05	-41.9	-44.2	16.5	5.78e-01	0	44	0	5750390784	54	4980
2026-01-28 06:08:55.32	357.49	15.94	-41.9	-44.3	16.5	5.78e-01	0	44	0	5765070848	54	5006
2026-01-28 06:08:56.32	357.27	15.84	-42.1	-44.5	16.3	5.79e-01	0	44	0	5781848064	54	5114
2026-01-28 06:08:57.33	357.05	15.73	-42.0	-44.3	16.5	5.79e-01	0	44	0	5796528128	54	5001
2026-01-28 06:08:58.34	356.83	15.62	-42.0	-44.4	16.4	5.78e-01	0	44	0	5811208192	54	5049
2026-01-28 06:08:59.35	356.61	15.51	-42.0	-44.3	16.5	5.78e-01	0	44	0	5827985408	54	5022
2026-01-28 06:09:00.35	356.39	15.41	-42.1	-44.4	16.4	5.78e-01	0	44	0	5842665472	54	5080
2026-01-28 06:09:01.36	356.18	15.30	-42.1	-44.4	16.4	5.80e-01	0	44	0	5857345536	54	5097
2026-01-28 06:09:02.36	355.97	15.19	-42.1	-44.4	16.4	5.79e-01	0	44	0	5874122752	54	5075
2026-01-28 06:09:03.37	355.76	15.09	-42.3	-44.6	16.2	5.79e-01	0	44	0	5888802816	55	4905
2026-01-28 06:09:04.37	355.55	14.98	-43.4	-44.3	16.4	5.80e-01	0	44	0	5903482880	57	4213
2026-01-28 06:09:05.38	355.34	14.88	-53.6	-62.6	3.9	7.44e-01	0	44	0	5920260096	70	16357
2026-01-28 06:09:06.39	355.14	14.77	-53.6	-62.5	3.8	7.45e-01	0	44	104	5920260096	77	10901
2026-01-28 06:09:07.39	354.94	14.67	-53.6	-62.5	3.8	7.45e-01	0	44	104	5920260096	77	10860
2026-01-28 06:09:08.40	354.73	14.56	-53.7	-62.5	3.8	7.46e-01	0	44	104	5920260096	77	10793
2026-01-28 06:09:09.41	354.53	14.46	-53.6	-62.5	3.8	7.46e-01	0	44	104	5920260096	77	10826
2026-01-28 06:09:10.42	354.33	14.35	-53.6	-62.4	3.8	7.44e-01	0	44	104	5920260096	77	10777
2026-01-28 06:09:11.43	354.14	14.25	-53.6	-62.4	3.8	7.45e-01	0	44	104	5920260096	77	10759
2026-01-28 06:09:12.44	353.94	14.14	-53.6	-62.4	3.8	7.46e-01	0	44	104	5920260096	77	10739
2026-01-28 06:09:13.45	353.75	14.04	-53.6	-62.4	3.8	7.44e-01	0	44	104	5920260096	77	10729
2026-01-28 06:09:14.45	353.56	13.94	-53.6	-62.4	3.8	7.46e-01	0	44	104	5920260096	77	10773
2026-01-28 06:09:15.45	353.37	13.83	-53.6	-62.5	3.8	7.47e-01	0	44	104	5920260096	77	10799
2026-01-28 06:09:16.46	353.18	13.73	-53.6	-62.5	3.8	7.46e-01	0	44	104	5920260096	77	10804
2026-01-28 06:09:17.47	352.99	13.63	-53.6	-62.4	3.8	7.45e-01	0	44	104	5920260096	77	10733
2026-01-28 06:09:18.48	352.81	13.53	-53.6	-62.5	3.8	7.47e-01	0	44	104	5920260096	77	10794
2026-01-28 06:09:19.48	352.62	13.43	-53.6	-62.4	3.8	7.45e-01	0	44	104	5920260096	77	10731
2026-01-28 06:09:20.49	352.44	13.32	-53.6	-62.4	3.8	7.46e-01	0	44	104	5920260096	77	10659
2026-01-28 06:09:21.49	352.26	13.22	-53.6	-62.4	3.8	7.45e-01	0	44	104	5920260096	77	10719
2026-01-28 06:09:22.50	352.08	13.12	-53.6	-62.4	3.8	7.45e-01	0	44	104	5920260096	77	10710
2026-01-28 06:09:23.50	351.91	13.02	-53.5	-62.4	3.8	7.45e-01	0	44	104	5920260096	77	10682
2026-01-28 06:09:24.50	351.73	12.92	-53.5	-62.4	3.8	7.45e-01	0	44	104	5920260096	77	10683
2026-01-28 06:09:25.51	351.56	12.82	-53.5	-62.3	3.8	7.46e-01	0	44	104	5920260096	77	10655
2026-01-28 06:09:26.52	351.38	12.72	-53.5	-62.4	3.8	7.45e-01	0	44	104	5920260096	77	10710
2026-01-28 06:09:27.53	351.21	12.62	-53.5	-62.3	3.8	7.46e-01	0	44	104	5920260096	77	10622
2026-01-28 06:09:28.54	351.04	12.53	-53.5	-62.3	3.8	7.47e-01	0	44	104	5920260096	77	10624
2026-01-28 06:09:29.54	350.87	12.43	-53.5	-62.3	3.8	7.45e-01	0	44	104	5920260096	77	10602
2026-01-28 06:09:30.54	350.71	12.33	-53.5	-62.3	3.8	7.44e-01	0	44	104	5920260096	77	10601
2026-01-28 06:09:31.55	350.54	12.23	-53.5	-62.3	3.8	7.45e-01	0	44	104	5920260096	77	10534
2026-01-28 06:09:32.56	350.37	12.13	-53.4	-62.2	3.8	7.46e-01	0	44	104	5920260096	77	10520
2026-01-28 06:09:33.56	350.21	12.04	-53.5	-62.3	3.8	7.44e-01	0	44	104	5920260096	77	10549
2026-01-28 06:09:34.56	350.05	11.94	-53.5	-62.3	3.8	7.46e-01	0	44	104	5920260096	77	10563
2026-01-28 06:09:35.57	349.89	11.84	-53.4	-62.3	3.8	7.47e-01	0	44	104	5920260096	77	10559
2026-01-28 06:09:36.57	349.73	11.75	-53.4	-62.3	3.8	7.46e-01	0	44	104	5920260096	77	10542
2026-01-28 06:09:37.58	349.57	11.65	-53.4	-62.3	3.8	7.44e-01	0	44	104	5920260096	77	10547
2026-01-28 06:09:38.59	349.41	11.56	-53.5	-62.3	3.8	7.44e-01	0	44	104	5920260096	77	10550
2026-01-28 06:09:39.59	349.26	11.46	-53.4	-62.3	3.8	7.46e-01	0	44	104	5920260096	77	10563
2026-01-28 06:09:40.60	349.10	11.37	-53.4	-62.2	3.8	7.45e-01	0	44	104	5920260096	77	10501
2026-01-28 06:09:41.61	348.95	11.27	-53.4	-62.2	3.8	7.45e-01	0	44	104	5920260096	77	10510
2026-01-28 06:09:42.62	348.80	11.18	-53.4	-62.3	3.8	7.44e-01	0	44	104	5920260096	77	10549
2026-01-28 06:09:43.63	348.65	11.08	-53.4	-62.2	3.8	7.45e-01	0	44	104	5920260096	77	10459
2026-01-28 06:09:44.63	348.50	10.99	-53.4	-62.2	3.8	7.44e-01	0	44	104	5920260096	77	10460
2026-01-28 06:09:45.63	348.35	10.90	-53.4	-62.2	3.8	7.45e-01	0	44	104	5920260096	77	10472
2026-01-28 06:09:46.63	348.21	10.80	-53.4	-62.2	3.8	7.44e-01	0	44	104	5920260096	77	10513
2026-01-28 06:09:47.64	348.06	10.71	-53.3	-62.2	3.8	7.44e-01	0	44	104	5920260096	77	10449
2026-01-28 06:09:48.65	347.91	10.62	-53.3	-62.1	3.8	7.46e-01	0	44	104	5920260096	77	10397
2026-01-28 06:09:49.65	347.77	10.53	-53.4	-62.2	3.8	7.46e-01	0	44	104	5920260096	77	10448
2026-01-28 06:09:50.66	347.63	10.43	-53.4	-62.2	3.8	7.47e-01	0	44	104	5920260096	77	10467
2026-01-28 06:09:51.67	347.49	10.34	-53.3	-62.1	3.8	7.46e-01	0	44	104	5920260096	77	10386
2026-01-28 06:09:52.68	347.35	10.25	-53.3	-62.1	3.8	7.44e-01	0	44	104	5920260096	77	10368
2026-01-28 06:09:53.68	347.21	10.16	-53.3	-62.2	3.8	7.47e-01	0	44	104	5920260096	77	10433
2026-01-28 06:09:54.69	347.07	10.07	-53.4	-62.2	3.8	7.45e-01	0	44	104	5920260096	77	10464
2026-01-28 06:09:55.69	346.93	9.98	-53.3	-62.1	3.8	7.46e-01	0	44	104	5920260096	77	10374
2026-01-28 06:09:56.69	346.80	9.89	-53.3	-62.1	3.8	7.45e-01	0	44	104	5920260096	77	10363
2026-01-28 06:09:57.70	346.66	9.80	-53.3	-62.1	3.8	7.45e-01	0	44	104	5920260096	77	10396
2026-01-28 06:09:58.70	346.53	9.71	-53.3	-62.1	3.8	7.44e-01	0	44	104	5920260096	77	10410
2026-01-28 06:09:59.71	346.40	9.62	-53.3	-62.1	3.8	7.46e-01	0	44	104	5920260096	77	10320
2026-01-28 06:10:00.68	346.27	9.54	-53.3	-62.1	3.8	7.47e-01	0	44	104	5920260096	77	10298
2026-01-28 06:10:01.68	346.14	9.45	-53.3	-62.1	3.8	7.46e-01	0	44	104	5920260096	77	10368
2026-01-28 06:10:02.69	346.01	9.36	-53.3	-62.1	3.8	7.44e-01	0	44	104	5920260096	77	10369
2026-01-28 06:10:03.70	345.88	9.27	-53.2	-62.0	3.8	7.45e-01	0	44	104	5920260096	77	10285
2026-01-28 06:10:04.71	345.75	9.18	-53.2	-62.0	3.8	7.44e-01	0	44	104	5920260096	77	10260
2026-01-28 06:10:05.71	345.63	9.10	-53.2	-62.1	3.8	7.45e-01	0	44	104	5920260096	77	10335
2026-01-28 06:10:06.72	345.50	9.01	-53.3	-62.1	3.8	7.44e-01	0	44	104	5920260096	77	10361
2026-01-28 06:10:07.72	345.37	8.92	-53.2	-62.0	3.8	7.47e-01	0	44	104	5920260096	77	10217
2026-01-28 06:10:08.73	345.25	8.84	-53.2	-62.0	3.8	7.46e-01	0	44	104	5920260096	77	10232
2026-01-28 06:10:09.74	345.13	8.75	-53.2	-62.0	3.8	7.45e-01	0	44	104	5920260096	77	10282
2026-01-28 06:10:10.74	345.01	8.67	-53.2	-62.0	3.8	7.46e-01	0	44	104	5920260096	77	10264
2026-01-28 06:10:11.75	344.88	8.58	-53.2	-62.0	3.8	7.44e-01	0	44	104	5920260096	77	10207
2026-01-28 06:10:12.75	344.76	8.50	-53.1	-62.0	3.8	7.46e-01	0	44	104	5920260096	77	10194
2026-01-28 06:10:13.76	344.64	8.41	-53.2	-62.0	3.8	7.44e-01	0	44	104	5920260096	77	10202
2026-01-28 06:10:14.77	344.53	8.33	-53.2	-62.0	3.8	7.45e-01	0	44	104	5920260096	77	10274
2026-01-28 06:10:15.78	344.41	8.24	-53.1	-61.9	3.8	7.45e-01	0	44	104	5920260096	77	10158
2026-01-28 06:10:16.78	344.29	8.16	-53.1	-61.9	3.8	7.47e-01	0	44	104	5920260096	77	10120
2026-01-28 06:10:17.79	344.18	8.07	-53.1	-62.0	3.8	7.46e-01	0	44	104	5920260096	77	10187
2026-01-28 06:10:18.80	344.06	7.99	-53.2	-62.0	3.8	7.45e-01	0	44	104	5920260096	77	10225
2026-01-28 06:10:19.81	343.95	7.91	-53.1	-61.9	3.8	7.46e-01	0	44	104	5920260096	77	10074
2026-01-28 06:10:20.81	343.83	7.82	-53.1	-61.9	3.8	7.46e-01	0	44	104	5920260096	77	10089
2026-01-28 06:10:21.82	343.72	7.74	-53.1	-61.9	3.8	7.45e-01	0	44	104	5920260096	77	10174
2026-01-28 06:10:22.83	343.61	7.66	-53.1	-61.9	3.8	7.46e-01	0	44	104	5920260096	77	10169
2026-01-28 06:10:23.83	343.50	7.58	-53.0	-61.9	3.8	7.46e-01	0	44	104	5920260096	77	10076
2026-01-28 06:10:24.84	343.39	7.49	-53.0	-61.9	3.8	7.44e-01	0	44	104	5920260096	77	10068
2026-01-28 06:10:25.85	343.28	7.41	-53.1	-61.9	3.8	7.44e-01	0	44	104	5920260096	77	10146
2026-01-28 06:10:26.85	343.17	7.33	-53.1	-61.9	3.8	7.45e-01	0	44	104	5920260096	77	10152
2026-01-28 06:10:27.86	343.06	7.25	-53.0	-61.8	3.8	7.45e-01	0	44	104	5920260096	77	9963
2026-01-28 06:10:28.87	342.95	7.17	-53.0	-61.8	3.8	7.47e-01	0	44	104	5920260096	77	9996
2026-01-28 06:10:29.87	342.85	7.09	-53.0	-61.8	3.8	7.46e-01	0	44	104	5920260096	77	10055
2026-01-28 06:10:30.88	342.74	7.01	-53.1	-61.9	3.8	7.46e-01	0	44	104	5920260096	77	10105
2026-01-28 06:10:31.89	342.64	6.93	-52.9	-61.8	3.8	7.45e-01	0	44	104	5920260096	77	9986
2026-01-28 06:10:32.89	342.54	6.85	-52.9	-61.8	3.8	7.47e-01	0	44	104	5920260096	77	9976
2026-01-28 06:10:33.90	342.43	6.77	-53.0	-61.8	3.8	7.46e-01	0	44	104	5920260096	77	10018
2026-01-28 06:10:34.90	342.33	6.69	-53.0	-61.8	3.8	7.45e-01	0	44	104	5920260096	77	10028
2026-01-28 06:10:35.91	342.23	6.61	-52.9	-61.7	3.8	7.46e-01	0	44	104	5920260096	77	9929
2026-01-28 06:10:36.92	342.13	6.53	-52.9	-61.7	3.8	7.45e-01	0	44	104	5920260096	77	9907
2026-01-28 06:10:37.93	342.03	6.45	-53.0	-61.8	3.8	7.46e-01	0	44	104	5920260096	77	9980
2026-01-28 06:10:38.93	341.93	6.37	-53.0	-61.8	3.8	7.45e-01	0	44	104	5920260096	77	10016
2026-01-28 06:10:39.94	341.83	6.29	-52.8	-61.6	3.8	7.47e-01	0	44	104	5920260096	77	9823
2026-01-28 06:10:40.95	341.73	6.22	-52.9	-61.7	3.8	7.45e-01	0	44	104	5920260096	77	9865
2026-01-28 06:10:41.96	341.63	6.14	-52.9	-61.8	3.8	7.45e-01	0	44	104	5920260096	77	9951
2026-01-28 06:10:42.97	341.53	6.06	-52.9	-61.8	3.8	7.47e-01	0	44	104	5920260096	77	9955
2026-01-28 06:10:43.97	341.44	5.98	-52.8	-61.6	3.8	7.46e-01	0	44	104	5920260096	77	9760
2026-01-28 06:10:44.98	341.34	5.91	-52.8	-61.6	3.8	7.45e-01	0	44	104	5920260096	77	9780
2026-01-28 06:10:45.99	341.25	5.83	-52.9	-61.7	3.8	7.46e-01	0	44	104	5920260096	77	9883
2026-01-28 06:10:46.99	341.15	5.75	-52.9	-61.7	3.8	7.47e-01	0	44	104	5920260096	77	9921
2026-01-28 06:10:48.00	341.06	5.68	-52.7	-61.6	3.8	7.45e-01	0	44	104	5920260096	77	9729
2026-01-28 06:10:49.00	340.97	5.60	-52.7	-61.6	3.8	7.47e-01	0	44	104	5920260096	77	9743
2026-01-28 06:10:50.01	340.88	5.53	-52.8	-61.7	3.8	7.44e-01	0	44	104	5920260096	77	9879
2026-01-28 06:10:51.01	340.79	5.45	-52.9	-61.7	3.8	7.45e-01	0	44	104	5920260096	77	9838
2026-01-28 06:10:52.02	340.69	5.38	-52.7	-61.5	3.8	7.46e-01	0	44	104	5920260096	77	9645
2026-01-28 06:10:53.02	340.60	5.30	-52.7	-61.5	3.8	7.44e-01	0	44	104	5920260096	77	9664
2026-01-28 06:10:54.03	340.51	5.23	-52.8	-61.6	3.8	7.46e-01	0	44	104	5920260096	77	9786
2026-01-28 06:10:55.03	340.43	5.15	-52.8	-61.6	3.8	7.46e-01	0	44	104	5920260096	77	9805
2026-01-28 06:10:56.04	340.34	5.08	-52.6	-61.5	3.8	7.46e-01	0	44	104	5920260096	77	9623
2026-01-28 06:10:57.05	340.25	5.00	-52.6	-61.4	3.8	7.46e-01	0	44	104	5920260096	77	9601
2026-01-28 06:10:58.05	340.16	4.93	-52.9	-61.8	3.8	7.46e-01	0	44	104	5920260096	77	9945
2026-01-28 06:10:59.05	340.08	4.86	-53.3	-62.2	3.8	7.45e-01	0	44	104	5920260096	77	10463
2026-01-28 06:11:00.06	339.99	4.78	-53.6	-62.5	3.8	7.43e-01	0	44	104	5920260096	77	10785
2026-01-28 06:11:01.07	339.90	4.71	-53.9	-62.7	3.8	7.47e-01	0	44	104	5920260096	78	10441
2026-01-28 06:11:02.07	339.82	4.64	-54.0	-62.8	3.8	7.46e-01	0	44	104	5920260096	78	10635
2026-01-28 06:11:03.08	339.73	4.56	-54.1	-62.9	3.8	7.45e-01	0	44	104	5920260096	78	10775
2026-01-28 06:11:04.09	339.65	4.49	-54.3	-63.1	3.8	7.45e-01	0	44	104	5920260096	79	10297
2026-01-28 06:11:05.09	339.57	4.42	-54.3	-63.1	3.8	7.46e-01	0	44	104	5920260096	79	10391
2026-01-28 06:11:06.10	339.48	4.35	-54.3	-63.2	3.8	7.45e-01	0	44	104	5920260096	79	10430
2026-01-28 06:11:07.11	339.40	4.28	-54.3	-63.2	3.8	7.46e-01	0	44	104	5920260096	79	10420
2026-01-28 06:11:08.12	339.32	4.20	-54.3	-63.1	3.8	7.45e-01	0	44	104	5920260096	79	10372
2026-01-28 06:11:09.12	339.24	4.13	-54.3	-63.1	3.8	7.44e-01	0	44	104	5920260096	79	10317
2026-01-28 06:11:10.13	339.16	4.06	-54.2	-63.0	3.8	7.45e-01	0	44	104	5920260096	79	10268
2026-01-28 06:11:11.14	339.08	3.99	-54.1	-62.9	3.8	7.44e-01	0	44	104	5920260096	79	10168
2026-01-28 06:11:12.15	339.00	3.92	-54.0	-62.8	3.8	7.47e-01	0	44	104	5920260096	79	10009
2026-01-28 06:11:13.15	338.92	3.85	-54.0	-62.8	3.8	7.46e-01	0	44	104	5920260096	79	10022
2026-01-28 06:11:14.16	338.84	3.78	-54.0	-62.9	3.8	7.45e-01	0	44	104	5920260096	79	10065
2026-01-28 06:11:15.17	338.76	3.71	-54.1	-63.0	3.8	7.45e-01	0	44	104	5920260096	79	10176
2026-01-28 06:11:16.17	338.68	3.64	-54.1	-62.9	3.8	7.45e-01	0	44	104	5920260096	79	10144
2026-01-28 06:11:17.18	338.61	3.57	-54.1	-63.0	3.8	7.45e-01	0	44	104	5920260096	79	10176
2026-01-28 06:11:18.19	338.53	3.50	-54.1	-62.9	3.8	7.45e-01	0	44	104	5920260096	79	10159
2026-01-28 06:11:19.19	338.46	3.43	-54.1	-62.9	3.8	7.45e-01	0	44	104	5920260096	79	10174
2026-01-28 06:11:20.21	338.38	3.36	-54.1	-62.9	3.8	7.45e-01	0	44	104	5920260096	79	10096
2026-01-28 06:11:21.21	338.30	3.29	-54.0	-62.9	3.8	7.46e-01	0	44	104	5920260096	79	10081
2026-01-28 06:11:22.22	338.23	3.22	-54.0	-62.8	3.8	7.45e-01	0	44	104	5920260096	79	10058
2026-01-28 06:11:23.23	338.15	3.15	-54.0	-62.9	3.8	7.46e-01	0	44	104	5920260096	79	10067
2026-01-28 06:11:24.24	338.08	3.08	-54.0	-62.8	3.8	7.45e-01	0	44	104	5920260096	79	10034
2026-01-28 06:11:25.24	338.01	3.01	-54.0	-62.8	3.8	7.45e-01	0	44	104	5920260096	79	10032
2026-01-28 06:11:26.25	337.93	2.95	-54.0	-62.8	3.8	7.44e-01	0	44	104	5920260096	79	9983
2026-01-28 06:11:27.26	337.86	2.88	-53.9	-62.8	3.8	7.45e-01	0	44	104	5920260096	79	9983
2026-01-28 06:11:28.27	337.79	2.81	-54.0	-62.8	3.8	7.45e-01	0	44	104	5920260096	79	9978
2026-01-28 06:11:29.28	337.72	2.74	-54.0	-62.8	3.8	7.46e-01	0	44	104	5920260096	79	9979
2026-01-28 06:11:30.29	337.65	2.67	-53.9	-62.8	3.8	7.46e-01	0	44	104	5920260096	79	9979
2026-01-28 06:11:31.29	337.58	2.61	-53.9	-62.8	3.8	7.43e-01	0	44	104	5920260096	79	9978
2026-01-28 06:11:32.30	337.51	2.54	-53.9	-62.8	3.8	7.46e-01	0	44	104	5920260096	79	9950
2026-01-28 06:11:33.31	337.44	2.47	-53.9	-62.8	3.8	7.45e-01	0	44	104	5920260096	79	9947
2026-01-28 06:11:34.32	337.37	2.41	-53.9	-62.8	3.8	7.45e-01	0	44	104	5920260096	79	9975
2026-01-28 06:11:35.33	337.30	2.34	-53.9	-62.7	3.8	7.45e-01	0	44	104	5920260096	79	9918
2026-01-28 06:11:36.33	337.23	2.27	-53.9	-62.7	3.8	7.45e-01	0	44	104	5920260096	79	9926
2026-01-28 06:11:37.34	337.16	2.21	-53.9	-62.8	3.8	7.45e-01	0	44	104	5920260096	79	9960
2026-01-28 06:11:38.35	337.09	2.14	-53.9	-62.7	3.8	7.46e-01	0	44	104	5920260096	79	9935
2026-01-28 06:11:39.36	337.03	2.07	-53.9	-62.7	3.8	7.45e-01	0	44	104	5920260096	79	9943
2026-01-28 06:11:40.37	336.96	2.01	-53.9	-62.8	3.8	7.47e-01	0	44	104	5920260096	79	9964
2026-01-28 06:11:41.37	336.89	1.94	-53.9	-62.7	3.8	7.47e-01	0	44	104	5920260096	79	9940
2026-01-28 06:11:42.38	336.83	1.88	-53.9	-62.7	3.8	7.45e-01	0	44	104	5920260096	79	9931

#Closed at: 2026-01-28 06:11:42
#Recorded file [5920 MB]: D:/lorett/data/31041_260128_090158.dat